passes_logs/2026/01/15/R4.6S_Anadyr/R4.6S_Anadyr__20260115_020741_AQUA_rec.log

#Pass ID: 20260115_020741_AQUA
#Satellite: AQUA
#Configuration: AQUA
#almurnet v.1.7.20251203
#Start time: 2026-01-15 02:07:43

#Version: 2.2.20231116
#Station: R4.6S_Anadyr
#Location: 177.4865 lon 64.73178 lat
#TLE: 1 27424U 02022A   26014.61231444  .00000653  00000+0  14070-3 0  9991
#TLE: 2 27424  98.4080 341.0332 0002042  78.9336 335.9961 14.61820174260839

#Time	Az	El	Level	Level2	SNR	BER	BlckErr	Temp	State	Recorded	gain1	gain2
2026-01-15 02:07:43.41	161.09	0.09	-48.9	-63.8	3.6	1.51e+00	0	27	0	0	60	55890
2026-01-15 02:07:44.41	161.10	0.15	-49.2	-67.1	3.5	3.02e+01	0	28	104	0	60	87571
2026-01-15 02:07:45.42	161.10	0.21	-49.2	-67.1	3.5	3.02e+01	0	28	104	0	60	87521
2026-01-15 02:07:46.43	161.11	0.28	-49.2	-67.1	3.5	3.02e+01	0	28	104	0	60	87311
2026-01-15 02:07:47.44	161.12	0.34	-49.3	-67.2	3.5	3.02e+01	0	28	104	0	60	87667
2026-01-15 02:07:48.45	161.13	0.40	-49.3	-67.2	3.5	3.02e+01	0	28	104	0	60	88055
2026-01-15 02:07:49.46	161.14	0.47	-49.3	-67.2	3.5	3.02e+01	0	28	104	0	60	88514
2026-01-15 02:07:50.47	161.15	0.53	-49.3	-67.2	3.5	3.02e+01	0	28	104	0	60	87967
2026-01-15 02:07:51.48	161.16	0.59	-49.2	-67.1	3.5	3.02e+01	0	28	104	0	60	87146
2026-01-15 02:07:52.49	161.17	0.66	-49.1	-67.0	3.5	3.02e+01	0	28	104	0	60	86036
2026-01-15 02:07:53.50	161.18	0.72	-48.8	-66.9	3.5	3.02e+01	0	28	104	0	60	84866
2026-01-15 02:07:54.51	161.19	0.79	-48.6	-66.7	3.5	3.02e+01	0	28	104	0	60	82869
2026-01-15 02:07:55.52	161.19	0.85	-48.3	-66.3	3.5	3.02e+01	0	28	104	0	60	79304
2026-01-15 02:07:56.53	161.20	0.91	-47.8	-65.7	3.5	3.02e+01	0	28	104	0	60	74198
2026-01-15 02:07:57.54	161.21	0.98	-47.7	-65.6	3.5	3.02e+01	0	28	104	0	60	73733
2026-01-15 02:07:58.55	161.22	1.04	-47.6	-65.7	3.5	3.02e+01	0	28	104	0	60	74302
2026-01-15 02:07:59.56	161.23	1.11	-47.6	-65.7	3.5	3.02e+01	0	28	104	0	60	74535
2026-01-15 02:08:00.57	161.24	1.17	-47.6	-65.7	3.5	3.02e+01	0	28	104	0	60	74179
2026-01-15 02:08:01.58	161.25	1.24	-47.6	-65.7	3.5	3.02e+01	0	28	104	0	60	74154
2026-01-15 02:08:02.59	161.26	1.30	-47.6	-65.7	3.5	3.02e+01	0	28	104	0	60	74430
2026-01-15 02:08:03.60	161.27	1.37	-47.6	-65.6	3.5	3.02e+01	0	28	104	0	60	73748
2026-01-15 02:08:04.61	161.28	1.44	-47.6	-65.6	3.5	3.02e+01	0	28	104	0	60	73652
2026-01-15 02:08:05.62	161.29	1.50	-47.6	-65.4	3.5	3.02e+01	0	29	104	0	60	71637
2026-01-15 02:08:06.63	161.30	1.57	-47.6	-65.1	3.5	3.02e+01	0	28	104	0	60	69093
2026-01-15 02:08:07.64	161.31	1.63	-47.6	-64.7	3.5	3.02e+01	0	28	104	0	60	65757
2026-01-15 02:08:08.65	161.32	1.70	-47.6	-64.4	3.5	3.02e+01	0	28	104	0	60	63581
2026-01-15 02:08:09.66	161.32	1.77	-47.6	-64.3	3.5	3.02e+01	0	28	104	0	60	63079
2026-01-15 02:08:10.67	161.33	1.83	-47.6	-64.3	3.5	3.02e+01	0	29	104	0	60	62850
2026-01-15 02:08:11.68	161.34	1.90	-47.6	-63.9	3.6	3.02e+01	0	29	104	0	60	60514
2026-01-15 02:08:12.69	161.35	1.97	-47.6	-64.4	3.5	3.02e+01	0	29	104	0	60	63541
2026-01-15 02:08:13.70	161.36	2.03	-47.6	-64.6	3.5	3.02e+01	0	29	104	0	60	65191
2026-01-15 02:08:14.71	161.37	2.10	-47.6	-65.1	3.5	3.02e+01	0	29	104	0	60	69358
2026-01-15 02:08:15.72	161.38	2.17	-47.6	-65.4	3.5	3.02e+01	0	28	104	0	60	71974
2026-01-15 02:08:16.73	161.39	2.24	-47.6	-65.6	3.5	3.02e+01	0	29	104	0	60	73262
2026-01-15 02:08:17.74	161.40	2.30	-47.6	-65.6	3.5	3.02e+01	0	29	104	0	60	73471
2026-01-15 02:08:18.75	161.41	2.37	-47.6	-65.5	3.5	3.02e+01	0	28	104	0	60	72453
2026-01-15 02:08:19.76	161.42	2.44	-47.6	-65.3	3.5	3.02e+01	0	29	104	0	60	70466
2026-01-15 02:08:20.77	161.43	2.51	-47.6	-64.6	3.5	3.02e+01	0	29	104	0	60	65163
2026-01-15 02:08:21.78	161.44	2.58	-47.5	-63.8	3.5	3.02e+01	0	29	104	0	60	59629
2026-01-15 02:08:22.79	161.45	2.65	-47.5	-62.4	3.6	3.02e+01	0	29	104	0	60	50699
2026-01-15 02:08:23.80	161.46	2.72	-47.4	-61.1	3.7	3.02e+01	0	29	104	0	60	43705
2026-01-15 02:08:24.81	161.47	2.78	-47.3	-59.4	5.3	3.02e+01	7	29	0	0	60	35811
2026-01-15 02:08:25.82	161.48	2.85	-47.4	-60.0	5.3	3.02e+01	62	29	104	0	60	38277
2026-01-15 02:08:26.82	161.49	2.92	-47.4	-60.3	5.2	3.02e+01	0	29	104	0	60	39737
2026-01-15 02:08:27.84	161.50	2.99	-47.4	-60.3	3.8	3.02e+01	0	29	104	0	60	40018
2026-01-15 02:08:28.84	161.51	3.06	-47.2	-58.4	6.7	3.02e+01	92	29	0	0	60	32180
2026-01-15 02:08:29.85	161.52	3.13	-46.8	-54.8	9.8	3.02e+01	0	29	0	1572864	60	21115
2026-01-15 02:08:30.87	161.53	3.20	-45.9	-51.4	13.6	3.02e+01	0	29	0	3670016	60	14335
2026-01-15 02:08:31.87	161.54	3.27	-44.7	-48.6	16.7	3.02e+01	0	29	0	5767168	60	10315
2026-01-15 02:08:32.89	161.55	3.35	-43.2	-46.1	19.2	3.02e+01	0	29	0	7340032	60	7791
2026-01-15 02:08:33.89	161.56	3.42	-42.1	-44.5	20.9	3.02e+01	0	29	0	9437184	60	6450
2026-01-15 02:08:34.91	161.57	3.49	-40.8	-42.8	22.4	3.02e+01	0	29	0	11010048	56	6724
2026-01-15 02:08:35.91	161.58	3.56	-40.0	-41.8	23.4	3.02e+01	0	29	0	13107200	56	5948
2026-01-15 02:08:36.92	161.60	3.63	-39.3	-41.0	24.0	3.02e+01	0	29	0	15204352	54	6133
2026-01-15 02:08:37.93	161.61	3.70	-39.0	-40.7	24.3	3.02e+01	0	29	0	16777216	54	5892
2026-01-15 02:08:38.94	161.62	3.77	-39.3	-41.0	24.1	3.02e+01	0	29	0	18874368	54	6070
2026-01-15 02:08:39.95	161.63	3.85	-39.7	-41.5	23.6	3.02e+01	0	29	0	20447232	54	6425
2026-01-15 02:08:40.96	161.64	3.92	-40.2	-42.0	23.0	3.02e+01	0	29	0	22544384	54	6860
2026-01-15 02:08:41.97	161.65	3.99	-45.4	-50.0	15.6	3.02e+01	0	29	0	24641536	60	12204
2026-01-15 02:08:42.98	161.66	4.06	-41.0	-43.0	22.1	3.02e+01	0	29	0	26214400	54	7717
2026-01-15 02:08:43.99	161.67	4.14	-47.2	-57.5	6.3	3.02e+01	90	29	0	28311552	60	28906
2026-01-15 02:08:44.99	161.68	4.21	-43.8	-46.9	18.8	3.02e+01	0	29	0	29884416	60	8510
2026-01-15 02:08:46.00	161.69	4.28	-47.5	-60.7	3.8	3.02e+01	0	29	104	31457280	60	41623
2026-01-15 02:08:47.01	161.70	4.36	-39.0	-40.8	24.1	3.02e+01	0	29	0	31457280	54	5956
2026-01-15 02:08:48.02	161.71	4.43	-39.4	-41.0	24.3	3.02e+01	0	29	0	33030144	52	6881
2026-01-15 02:08:49.03	161.72	4.50	-39.5	-41.2	24.0	3.02e+01	0	29	0	35127296	52	6978
2026-01-15 02:08:50.04	161.73	4.58	-38.7	-40.3	24.8	3.02e+01	0	29	0	37224448	52	6318
2026-01-15 02:08:51.05	161.75	4.65	-38.9	-40.5	24.7	3.02e+01	0	29	0	38797312	52	6481
2026-01-15 02:08:52.06	161.76	4.73	-38.8	-40.4	24.7	3.02e+01	0	29	0	40894464	52	6362
2026-01-15 02:08:53.06	161.77	4.80	-38.3	-39.8	25.4	3.02e+01	0	29	0	42467328	52	5959
2026-01-15 02:08:54.07	161.78	4.88	-37.9	-39.4	25.9	3.02e+01	0	29	0	44564480	52	5677
2026-01-15 02:08:55.08	161.79	4.95	-38.0	-39.5	25.8	3.02e+01	0	29	0	46661632	50	6483
2026-01-15 02:08:56.09	161.80	5.03	-37.8	-39.3	26.0	3.02e+01	0	29	0	48234496	50	6307
2026-01-15 02:08:57.10	161.81	5.11	-37.8	-39.2	26.0	3.02e+01	0	29	0	50331648	50	6249
2026-01-15 02:08:58.11	161.82	5.18	-37.6	-39.0	26.1	3.02e+01	0	29	0	51904512	50	6108
2026-01-15 02:08:59.12	161.84	5.26	-37.4	-38.8	26.5	3.02e+01	0	29	0	54001664	50	5970
2026-01-15 02:09:00.13	161.85	5.34	-37.3	-38.7	26.5	3.02e+01	0	29	0	56098816	50	5925
2026-01-15 02:09:01.14	161.86	5.41	-37.1	-38.5	26.7	3.02e+01	0	29	0	57671680	50	5764
2026-01-15 02:09:02.15	161.87	5.49	-37.2	-38.6	26.6	3.02e+01	0	29	0	59768832	50	5834
2026-01-15 02:09:03.16	161.88	5.57	-37.0	-38.4	26.8	3.02e+01	0	29	0	61341696	48	6360
2026-01-15 02:09:04.17	161.89	5.64	-36.8	-38.2	26.9	3.02e+01	0	29	0	63438848	48	6229
2026-01-15 02:09:05.18	161.91	5.72	-36.9	-38.3	26.8	3.02e+01	0	29	0	65536000	48	6298
2026-01-15 02:09:06.18	161.92	5.80	-37.0	-38.4	26.8	3.02e+01	0	29	0	67108864	48	6360
2026-01-15 02:09:07.19	161.93	5.88	-36.9	-38.3	27.0	3.02e+01	0	29	0	69206016	48	6306
2026-01-15 02:09:08.20	161.94	5.96	-36.9	-38.2	27.0	3.02e+01	0	29	0	70778880	48	6275
2026-01-15 02:09:09.21	161.95	6.04	-36.7	-38.1	27.1	3.02e+01	0	29	0	72876032	48	6168
2026-01-15 02:09:10.22	161.96	6.12	-36.8	-38.1	27.1	3.02e+01	0	29	0	74973184	48	6186
2026-01-15 02:09:11.23	161.98	6.20	-36.8	-38.2	27.0	3.02e+01	0	29	0	76546048	48	6227
2026-01-15 02:09:12.24	161.99	6.28	-36.9	-38.3	26.9	3.02e+01	0	29	0	78643200	48	6310
2026-01-15 02:09:13.25	162.00	6.36	-37.1	-38.5	26.7	3.02e+01	0	29	0	80216064	48	6466
2026-01-15 02:09:14.26	162.01	6.44	-36.5	-37.8	27.4	3.02e+01	0	29	0	82313216	48	5991
2026-01-15 02:09:15.27	162.03	6.52	-36.5	-37.8	27.3	3.02e+01	0	29	0	84410368	48	5991
2026-01-15 02:09:16.28	162.04	6.60	-36.6	-38.0	27.3	3.02e+01	0	29	0	85983232	48	6075
2026-01-15 02:09:17.28	162.05	6.68	-36.7	-38.0	27.2	3.02e+01	0	29	0	88080384	48	6132
2026-01-15 02:09:18.29	162.06	6.76	-36.7	-38.0	27.2	3.02e+01	0	29	0	90177536	48	6134
2026-01-15 02:09:19.30	162.07	6.84	-36.4	-37.8	27.5	3.02e+01	0	29	0	91750400	48	5931
2026-01-15 02:09:20.31	162.09	6.92	-36.5	-37.8	27.4	3.02e+01	0	29	0	93847552	48	5983
2026-01-15 02:09:21.32	162.10	7.01	-36.6	-37.9	27.3	3.02e+01	0	29	0	95420416	48	6035
2026-01-15 02:09:22.33	162.11	7.09	-36.4	-37.8	27.5	3.02e+01	0	29	0	97517568	48	5928
2026-01-15 02:09:23.34	162.13	7.17	-36.5	-37.8	27.4	3.02e+01	0	29	0	99614720	48	5948
2026-01-15 02:09:24.35	162.14	7.26	-36.5	-37.8	27.4	3.02e+01	0	29	0	101187584	48	5990
2026-01-15 02:09:25.36	162.15	7.34	-36.5	-37.8	27.4	3.02e+01	0	29	0	103284736	48	5983
2026-01-15 02:09:26.37	162.16	7.42	-36.2	-37.5	27.7	3.02e+01	0	29	0	104857600	48	5777
2026-01-15 02:09:27.38	162.18	7.51	-36.3	-37.6	27.6	3.02e+01	0	29	0	106954752	48	5810
2026-01-15 02:09:28.39	162.19	7.59	-36.0	-37.3	28.0	3.02e+01	0	29	0	109051904	48	5604
2026-01-15 02:09:29.39	162.20	7.68	-36.1	-37.4	27.9	3.02e+01	0	29	0	110624768	48	5674
2026-01-15 02:09:30.41	162.22	7.76	-36.1	-37.4	27.9	3.02e+01	0	29	0	112721920	46	6372
2026-01-15 02:09:31.42	162.23	7.85	-36.1	-37.4	27.9	3.02e+01	0	29	0	114294784	46	6387
2026-01-15 02:09:32.42	162.24	7.93	-36.1	-37.4	27.9	3.02e+01	0	29	0	116391936	46	6403
2026-01-15 02:09:33.43	162.26	8.02	-36.1	-37.4	28.0	3.02e+01	0	29	0	118489088	46	6395
2026-01-15 02:09:34.44	162.27	8.11	-35.9	-37.2	28.1	3.02e+01	0	29	0	120061952	46	6211
2026-01-15 02:09:35.45	162.28	8.19	-35.9	-37.2	28.0	3.02e+01	0	29	0	122159104	46	6231
2026-01-15 02:09:36.46	162.30	8.28	-35.9	-37.1	28.2	3.02e+01	0	29	0	123731968	46	6191
2026-01-15 02:09:37.47	162.31	8.37	-35.7	-37.0	28.2	3.02e+01	0	29	0	125829120	46	6065
2026-01-15 02:09:38.48	162.32	8.46	-35.8	-37.1	28.2	3.02e+01	0	29	0	127926272	46	6171
2026-01-15 02:09:39.49	162.34	8.54	-35.7	-36.9	28.4	3.02e+01	0	29	0	129499136	46	6064
2026-01-15 02:09:40.50	162.35	8.63	-35.8	-37.1	28.2	3.02e+01	0	29	0	131596288	46	6166
2026-01-15 02:09:41.51	162.36	8.72	-35.8	-37.0	28.3	3.02e+01	0	29	0	133693440	46	6115
2026-01-15 02:09:42.52	162.38	8.81	-35.8	-37.1	28.2	3.02e+01	0	29	0	135266304	46	6175
2026-01-15 02:09:43.53	162.39	8.90	-35.6	-36.9	28.4	3.02e+01	0	29	0	137363456	46	6034
2026-01-15 02:09:44.54	162.41	8.99	-35.7	-37.0	28.3	3.02e+01	0	29	0	138936320	46	6098
2026-01-15 02:09:45.54	162.42	9.08	-35.7	-36.9	28.4	3.02e+01	0	29	0	141033472	46	6051
2026-01-15 02:09:46.55	162.43	9.17	-35.7	-37.0	28.3	3.02e+01	0	29	0	143130624	46	6102
2026-01-15 02:09:47.56	162.45	9.26	-35.8	-37.1	28.3	3.02e+01	0	29	0	144703488	46	6169
2026-01-15 02:09:48.57	162.46	9.35	-35.8	-37.1	28.2	3.02e+01	0	29	0	146800640	46	6162
2026-01-15 02:09:49.58	162.48	9.45	-35.7	-36.9	28.4	3.02e+01	0	29	0	148373504	46	6036
2026-01-15 02:09:50.59	162.49	9.54	-35.8	-37.1	28.3	3.02e+01	0	29	0	150470656	46	6176
2026-01-15 02:09:51.60	162.51	9.63	-35.6	-36.9	28.5	3.02e+01	0	29	0	152567808	46	6025
2026-01-15 02:09:52.61	162.52	9.72	-35.9	-37.2	28.2	3.02e+01	0	29	0	154140672	46	6228
2026-01-15 02:09:53.62	162.54	9.82	-36.0	-37.3	28.1	3.02e+01	0	29	0	156237824	46	6323
2026-01-15 02:09:54.63	162.55	9.91	-35.8	-37.1	28.4	3.02e+01	0	29	0	158334976	46	6137
2026-01-15 02:09:55.64	162.56	10.01	-35.9	-37.2	28.3	3.02e+01	0	29	0	159907840	46	6221
2026-01-15 02:09:56.65	162.58	10.10	-35.7	-37.0	28.4	3.02e+01	0	29	0	162004992	46	6074
2026-01-15 02:09:57.66	162.59	10.19	-35.6	-36.9	28.5	3.02e+01	0	29	0	163577856	46	6032
2026-01-15 02:09:58.66	162.61	10.29	-35.8	-37.0	28.4	3.02e+01	0	29	0	165675008	46	6123
2026-01-15 02:09:59.68	162.63	10.39	-35.7	-37.0	28.4	3.02e+01	0	29	0	167772160	46	6088
2026-01-15 02:10:00.68	162.64	10.48	-35.5	-36.7	28.6	3.02e+01	0	29	0	169345024	46	5915
2026-01-15 02:10:01.70	162.66	10.58	-35.6	-36.8	28.6	3.02e+01	0	29	0	171442176	46	5984
2026-01-15 02:10:02.70	162.67	10.68	-35.4	-36.7	28.7	3.02e+01	0	29	0	173015040	46	5883
2026-01-15 02:10:03.72	162.69	10.77	-35.5	-36.8	28.6	3.02e+01	0	29	0	175112192	46	5931
2026-01-15 02:10:04.72	162.70	10.87	-35.5	-36.8	28.7	3.02e+01	0	29	0	177209344	46	5942
2026-01-15 02:10:05.74	162.72	10.97	-35.3	-36.6	28.8	3.02e+01	0	29	0	178782208	46	5812
2026-01-15 02:10:06.74	162.73	11.07	-35.4	-36.7	28.6	3.02e+01	0	29	0	180879360	46	5884
2026-01-15 02:10:07.75	162.75	11.17	-35.4	-36.6	28.8	3.02e+01	0	29	0	182452224	46	5831
2026-01-15 02:10:08.76	162.77	11.27	-35.2	-36.5	28.9	3.02e+01	0	29	0	184549376	46	5749
2026-01-15 02:10:09.77	162.78	11.37	-35.2	-36.4	29.0	3.02e+01	0	29	0	186646528	46	5685
2026-01-15 02:10:10.78	162.80	11.47	-35.2	-36.5	29.0	3.02e+01	0	29	0	188219392	46	5741
2026-01-15 02:10:11.79	162.81	11.57	-35.1	-36.3	29.1	3.02e+01	0	29	0	190316544	46	5656
2026-01-15 02:10:12.79	162.83	11.67	-35.1	-36.3	29.1	3.02e+01	0	29	0	191889408	46	5649
2026-01-15 02:10:13.80	162.85	11.77	-35.0	-36.2	29.2	3.02e+01	0	29	0	193986560	46	5563
2026-01-15 02:10:14.81	162.86	11.87	-35.1	-36.3	29.1	3.02e+01	0	29	0	196083712	46	5615
2026-01-15 02:10:15.82	162.88	11.98	-35.0	-36.2	29.2	3.02e+01	0	29	0	197656576	46	5566
2026-01-15 02:10:16.83	162.90	12.08	-35.2	-36.4	29.0	3.02e+01	0	29	0	199753728	46	5684
2026-01-15 02:10:17.84	162.91	12.18	-35.4	-45.6	3.6	3.02e+01	0	29	104	200278016	46	16376
2026-01-15 02:10:18.85	162.93	12.29	-35.5	-45.6	3.6	3.02e+01	0	29	104	200278016	46	16483
2026-01-15 02:10:19.85	162.95	12.39	-35.7	-45.8	3.6	3.02e+01	0	29	104	200278016	46	16860
2026-01-15 02:10:20.86	162.96	12.50	-35.7	-45.9	3.6	3.02e+01	0	29	104	200278016	46	16935
2026-01-15 02:10:21.87	162.98	12.60	-38.1	-48.4	3.6	3.02e+01	0	29	104	200278016	48	20308
2026-01-15 02:10:22.88	163.00	12.71	-45.8	-58.5	3.5	3.02e+01	0	29	104	200278016	60	32264
2026-01-15 02:10:23.89	163.02	12.82	-47.8	-63.3	3.5	3.02e+01	0	29	104	200278016	60	56306
2026-01-15 02:10:24.90	163.03	12.92	-46.7	-60.3	3.5	3.02e+01	0	29	104	200278016	60	39755
2026-01-15 02:10:25.91	163.05	13.03	-39.3	-49.7	3.6	3.02e+01	0	29	104	200278016	54	16663
2026-01-15 02:10:26.91	163.07	13.14	-39.2	-49.7	3.4	3.02e+01	0	29	104	200278016	52	18569
2026-01-15 02:10:27.93	163.09	13.25	-38.8	-49.1	3.6	3.02e+01	0	29	104	200278016	52	17438
2026-01-15 02:10:28.94	163.11	13.36	-37.7	-48.0	3.6	3.02e+01	0	29	104	200278016	50	17092
2026-01-15 02:10:29.95	163.12	13.47	-41.4	-52.3	3.3	3.02e+01	0	29	104	200278016	54	22279
2026-01-15 02:10:30.96	163.14	13.58	-47.3	-61.4	3.6	3.02e+01	0	29	104	200278016	60	45092
2026-01-15 02:10:31.96	163.16	13.69	-37.7	-48.0	3.4	3.02e+01	0	29	104	200278016	48	19230
2026-01-15 02:10:32.97	163.18	13.80	-45.0	-57.1	3.8	3.02e+01	0	29	104	200278016	60	27526
2026-01-15 02:10:33.98	163.20	13.92	-48.0	-64.1	3.5	3.02e+01	0	29	104	200278016	60	61738
2026-01-15 02:10:34.99	163.22	14.03	-37.5	-47.8	3.9	3.02e+01	0	29	104	200278016	50	16759
2026-01-15 02:10:35.99	163.24	14.14	-37.2	-47.4	4.1	3.02e+01	0	29	104	200278016	50	16042
2026-01-15 02:10:37.00	163.25	14.25	-36.0	-46.2	3.7	3.02e+01	0	29	104	200278016	48	15707
2026-01-15 02:10:38.01	163.27	14.37	-35.6	-45.8	3.5	3.02e+01	0	29	104	200278016	46	16781
2026-01-15 02:10:39.02	163.29	14.48	-43.0	-54.2	3.5	3.02e+01	0	29	104	200278016	60	19776
2026-01-15 02:10:40.03	163.31	14.60	-38.7	-49.1	3.5	3.02e+01	0	29	104	200278016	50	19601
2026-01-15 02:10:41.04	163.33	14.72	-47.3	-62.0	3.5	3.02e+01	0	29	104	200278016	60	48416
2026-01-15 02:10:42.04	163.35	14.83	-46.5	-59.6	3.6	3.02e+01	0	29	104	200278016	60	36888
2026-01-15 02:10:43.05	163.37	14.95	-47.5	-62.6	3.5	3.02e+01	0	29	104	200278016	60	52170
2026-01-15 02:10:44.06	163.39	15.07	-40.3	-51.0	3.5	3.02e+01	0	29	104	200278016	56	17104
2026-01-15 02:10:45.07	163.41	15.19	-40.5	-51.1	3.5	3.02e+01	0	29	104	200278016	56	17489
2026-01-15 02:10:46.08	163.43	15.31	-41.6	-52.4	3.5	3.02e+01	0	29	104	200278016	56	20302
2026-01-15 02:10:47.08	163.45	15.43	-40.9	-51.6	3.5	3.02e+01	0	29	104	200278016	56	18441
2026-01-15 02:10:48.09	163.47	15.55	-37.1	-47.5	3.5	3.02e+01	0	29	104	200278016	48	18123
2026-01-15 02:10:49.10	163.49	15.67	-47.4	-61.7	3.5	3.02e+01	0	29	104	200278016	60	46841
2026-01-15 02:10:50.11	163.51	15.79	-46.6	-59.9	3.5	3.02e+01	0	29	104	200278016	60	38057
2026-01-15 02:10:51.12	163.53	15.92	-40.3	-50.8	3.5	3.02e+01	0	29	104	200278016	56	16792
2026-01-15 02:10:52.13	163.56	16.04	-48.4	-65.5	3.5	3.02e+01	0	29	104	200278016	60	72706
2026-01-15 02:10:53.14	163.58	16.16	-38.7	-49.2	3.5	3.02e+01	0	29	104	200278016	52	17628
2026-01-15 02:10:54.15	163.60	16.29	-38.3	-48.7	3.5	3.02e+01	0	29	104	200278016	52	16527
2026-01-15 02:10:55.15	163.62	16.41	-37.9	-48.2	3.5	3.02e+01	0	29	104	200278016	50	17631
2026-01-15 02:10:56.16	163.64	16.54	-38.0	-48.4	3.5	3.02e+01	0	29	104	200278016	50	17967
2026-01-15 02:10:57.17	163.66	16.67	-48.3	-65.5	3.5	3.02e+01	0	29	104	200278016	60	72365
2026-01-15 02:10:58.18	163.69	16.80	-43.5	-54.9	3.5	3.02e+01	0	29	104	200278016	60	21420
2026-01-15 02:10:59.19	163.71	16.92	-46.8	-60.4	3.5	3.02e+01	0	29	104	200278016	60	40169
2026-01-15 02:11:00.19	163.73	17.05	-39.2	-49.7	3.5	3.02e+01	0	29	104	200278016	54	16640
2026-01-15 02:11:01.20	163.75	17.18	-46.9	-60.4	3.5	3.02e+01	0	29	104	200278016	60	40291
2026-01-15 02:11:02.21	163.78	17.31	-38.8	-49.2	3.5	3.02e+01	0	29	104	200278016	52	17558
2026-01-15 02:11:03.22	163.80	17.45	-37.5	-47.9	3.5	3.02e+01	0	29	104	200278016	50	16936
2026-01-15 02:11:04.23	163.82	17.58	-36.7	-47.0	3.5	3.02e+01	0	29	104	200278016	48	17206
2026-01-15 02:11:05.24	163.84	17.71	-36.2	-46.4	3.5	3.02e+01	0	29	104	200278016	48	16104
2026-01-15 02:11:06.24	163.87	17.85	-35.4	-45.6	3.5	3.02e+01	0	29	104	200278016	46	16394
2026-01-15 02:11:07.25	163.89	17.98	-44.3	-56.1	3.5	3.02e+01	0	29	104	200278016	60	24525
2026-01-15 02:11:08.26	163.92	18.12	-44.5	-56.3	3.5	3.02e+01	0	29	104	200278016	60	25151
2026-01-15 02:11:09.27	163.94	18.25	-37.0	-47.3	3.6	3.02e+01	0	29	104	200278016	52	14074
2026-01-15 02:11:10.29	163.96	18.39	-47.3	-61.6	3.5	3.02e+01	0	29	104	200278016	60	46325
2026-01-15 02:11:11.30	163.99	18.53	-38.2	-48.6	3.5	3.02e+01	0	29	104	200278016	52	16467
2026-01-15 02:11:12.31	164.01	18.67	-38.3	-48.7	3.5	3.02e+01	0	29	104	200278016	52	16560
2026-01-15 02:11:13.32	164.04	18.81	-38.3	-48.7	3.5	3.02e+01	0	29	104	200278016	52	16689
2026-01-15 02:11:14.33	164.06	18.95	-37.4	-47.7	3.5	3.02e+01	0	29	104	200278016	50	16685
2026-01-15 02:11:15.34	164.09	19.09	-38.1	-48.5	3.5	3.02e+01	0	29	104	200278016	48	20501
2026-01-15 02:11:16.35	164.11	19.23	-39.8	-50.4	3.5	3.02e+01	0	29	104	200278016	60	12701
2026-01-15 02:11:17.36	164.14	19.38	-38.1	-48.5	3.5	3.02e+01	0	29	104	200278016	52	16202
2026-01-15 02:11:18.37	164.17	19.52	-37.3	-47.7	3.5	3.02e+01	0	29	104	200278016	54	13176
2026-01-15 02:11:19.38	164.19	19.67	-45.7	-58.1	3.5	3.02e+01	0	29	104	200278016	60	31064
2026-01-15 02:11:20.39	164.22	19.81	-37.4	-47.7	3.5	3.02e+01	0	29	104	200278016	50	16558
2026-01-15 02:11:21.40	164.25	19.96	-36.2	-46.4	3.5	3.02e+01	0	29	104	200278016	48	16123
2026-01-15 02:11:22.41	164.27	20.11	-36.0	-46.2	3.5	3.02e+01	0	29	104	200278016	46	17525
2026-01-15 02:11:23.42	164.30	20.26	-36.6	-46.8	3.5	3.02e+01	0	29	104	200278016	46	18899
2026-01-15 02:11:24.43	164.33	20.41	-39.7	-50.2	3.5	3.02e+01	0	29	104	200278016	54	17628
2026-01-15 02:11:25.44	164.35	20.56	-35.3	-45.6	3.5	3.02e+01	0	29	104	200278016	46	16414
2026-01-15 02:11:26.45	164.38	20.71	-44.1	-55.6	3.5	3.02e+01	0	29	104	200278016	60	23180
2026-01-15 02:11:27.46	164.41	20.87	-36.9	-47.2	3.5	3.02e+01	0	29	104	200278016	54	12473
2026-01-15 02:11:28.47	164.44	21.02	-43.7	-55.1	3.5	3.02e+01	0	29	104	200278016	60	21789
2026-01-15 02:11:29.47	164.47	21.17	-36.6	-46.9	3.5	3.02e+01	0	29	104	200278016	48	16996
2026-01-15 02:11:30.49	164.50	21.33	-35.8	-46.2	3.5	3.02e+01	0	29	104	200278016	46	17532
2026-01-15 02:11:31.50	164.53	21.49	-35.8	-46.1	3.5	3.02e+01	0	29	104	200278016	46	17386
2026-01-15 02:11:32.51	164.56	21.65	-36.0	-46.2	3.5	3.02e+01	0	29	104	200278016	46	17602
2026-01-15 02:11:33.51	164.58	21.81	-37.4	-47.7	3.5	3.02e+01	0	29	104	200278016	50	16582
2026-01-15 02:11:34.52	164.61	21.97	-36.0	-46.2	3.5	3.02e+01	0	29	104	200278016	46	17541
2026-01-15 02:11:35.53	164.64	22.13	-44.0	-55.4	3.5	3.02e+01	0	29	104	200278016	60	22591
2026-01-15 02:11:36.54	164.68	22.29	-35.7	-45.9	3.5	3.02e+01	0	29	104	200278016	48	15207
2026-01-15 02:11:37.55	164.71	22.45	-43.1	-54.3	3.5	3.02e+01	0	29	104	200278016	60	19875
2026-01-15 02:11:38.56	164.74	22.62	-39.4	-49.9	3.5	3.02e+01	0	29	104	200278016	54	16908
2026-01-15 02:11:39.57	164.77	22.79	-37.9	-48.3	3.5	3.02e+01	0	29	104	200278016	52	15939
2026-01-15 02:11:40.58	164.80	22.95	-36.4	-46.7	3.5	3.02e+01	0	29	104	200278016	48	16533
2026-01-15 02:11:41.59	164.83	23.12	-35.8	-46.1	3.6	3.02e+01	0	29	104	200278016	46	17379
2026-01-15 02:11:42.60	164.87	23.29	-37.3	-47.6	3.5	3.02e+01	0	29	104	200278016	46	20685
2026-01-15 02:11:43.61	164.90	23.46	-36.2	-46.5	3.5	3.02e+01	0	29	104	200278016	46	18129
2026-01-15 02:11:44.62	164.93	23.64	-42.6	-53.7	3.5	3.02e+01	0	29	104	200278016	60	18606
2026-01-15 02:11:45.63	164.96	23.81	-45.0	-57.0	3.7	3.02e+01	0	29	104	200278016	56	34157
2026-01-15 02:11:46.63	165.00	23.98	-42.1	-53.1	3.5	3.02e+01	0	29	104	200278016	60	17352
2026-01-15 02:11:47.64	165.03	24.16	-39.8	-50.3	3.5	3.02e+01	0	29	104	200278016	54	17888
2026-01-15 02:11:48.65	165.07	24.34	-37.8	-48.2	3.5	3.02e+01	0	29	104	200278016	52	15611
2026-01-15 02:11:49.66	165.10	24.51	-36.4	-46.6	3.5	3.02e+01	0	29	104	200278016	48	16489
2026-01-15 02:11:50.67	165.14	24.69	-38.1	-48.6	3.5	3.02e+01	0	29	104	200278016	48	20561
2026-01-15 02:11:51.68	165.17	24.88	-45.8	-58.3	3.5	3.02e+01	0	29	104	200278016	60	31668
2026-01-15 02:11:52.70	165.21	25.06	-39.0	-49.5	3.4	3.02e+01	0	29	104	200278016	46	25641
2026-01-15 02:11:53.70	165.25	25.24	-40.8	-51.5	3.5	3.02e+01	0	29	104	200278016	56	18227
2026-01-15 02:11:54.71	165.28	25.43	-40.9	-51.5	3.5	3.02e+01	0	29	104	200278016	50	25713
2026-01-15 02:11:55.72	165.32	25.61	-39.7	-50.1	3.5	3.02e+01	0	29	104	200278016	56	15542
2026-01-15 02:11:56.73	165.36	25.80	-37.4	-47.7	3.5	3.02e+01	0	29	104	200278016	50	16620
2026-01-15 02:11:57.74	165.40	25.99	-36.6	-46.9	3.5	3.02e+01	0	29	104	200278016	48	16952
2026-01-15 02:11:58.75	165.43	26.18	-36.3	-46.6	3.5	3.02e+01	0	29	104	200278016	48	16456
2026-01-15 02:11:59.76	165.47	26.38	-37.3	-47.6	3.5	3.02e+01	0	29	104	200278016	48	18516
2026-01-15 02:12:00.77	165.51	26.57	-42.9	-54.1	3.5	3.02e+01	0	29	104	200278016	56	24458
2026-01-15 02:12:01.78	165.55	26.76	-41.4	-52.2	3.3	3.02e+01	0	29	104	200278016	48	31168
2026-01-15 02:12:02.79	165.59	26.96	-40.2	-50.7	3.5	3.02e+01	0	29	104	200278016	54	18620
2026-01-15 02:12:03.79	165.63	27.16	-43.1	-54.3	3.5	3.02e+01	0	29	104	200278016	54	28312
2026-01-15 02:12:04.80	165.67	27.36	-40.1	-50.8	3.5	3.02e+01	0	29	104	200278016	56	16749
2026-01-15 02:12:05.81	165.72	27.56	-37.6	-47.9	3.5	3.02e+01	0	29	104	200278016	50	17079
2026-01-15 02:12:06.82	165.76	27.76	-36.9	-47.2	3.5	3.02e+01	0	29	104	200278016	48	17526
2026-01-15 02:12:07.84	165.80	27.97	-37.0	-47.3	3.6	3.02e+01	0	29	104	200278016	48	17739
2026-01-15 02:12:08.84	165.84	28.18	-35.9	-46.1	3.5	3.02e+01	0	29	104	200278016	46	17433
2026-01-15 02:12:09.85	165.89	28.38	-46.3	-58.8	3.5	3.02e+01	0	29	104	200278016	60	33472
2026-01-15 02:12:10.86	165.93	28.59	-39.0	-49.3	3.5	3.02e+01	0	29	104	200278016	48	22452
2026-01-15 02:12:11.87	165.98	28.80	-46.5	-59.6	3.5	3.02e+01	0	29	104	200278016	60	36622
2026-01-15 02:12:12.87	166.02	29.02	-45.1	-57.0	3.5	3.02e+01	0	29	104	200278016	58	30514
2026-01-15 02:12:13.88	166.07	29.23	-37.2	-47.6	3.5	3.02e+01	0	29	104	200278016	50	16347
2026-01-15 02:12:14.89	166.12	29.45	-36.2	-46.5	3.5	3.02e+01	0	29	104	200278016	48	16147
2026-01-15 02:12:15.90	166.16	29.67	-35.9	-46.1	3.5	3.02e+01	0	29	104	200278016	46	17426
2026-01-15 02:12:16.91	166.21	29.89	-36.0	-46.2	3.5	3.02e+01	0	29	104	200278016	46	17608
2026-01-15 02:12:17.92	166.26	30.11	-47.2	-60.8	3.5	3.02e+01	0	29	104	200278016	60	42330
2026-01-15 02:12:18.93	166.31	30.33	-40.9	-51.6	3.5	3.02e+01	0	29	104	200278016	56	18324
2026-01-15 02:12:19.94	166.36	30.56	-46.0	-58.3	3.5	3.02e+01	0	29	104	200278016	60	31763
2026-01-15 02:12:20.95	166.41	30.79	-48.8	-65.5	3.5	3.02e+01	0	29	104	200278016	60	72372
2026-01-15 02:12:21.95	166.46	31.01	-45.6	-57.8	3.5	3.02e+01	0	29	104	200278016	60	29788
2026-01-15 02:12:22.97	166.51	31.25	-37.3	-47.6	3.5	3.02e+01	0	29	104	200278016	50	16453
2026-01-15 02:12:23.98	166.56	31.48	-36.7	-47.0	3.5	3.02e+01	0	29	104	200278016	48	17104
2026-01-15 02:12:24.98	166.62	31.71	-35.6	-45.9	3.5	3.02e+01	0	29	104	200278016	46	16912
2026-01-15 02:12:26.00	166.67	31.95	-35.1	-45.3	3.5	3.02e+01	0	29	104	200278016	46	15851
2026-01-15 02:12:27.00	166.73	32.19	-40.1	-50.8	3.5	3.02e+01	0	29	104	200278016	54	18755
2026-01-15 02:12:28.01	166.78	32.43	-46.7	-59.8	3.5	3.02e+01	0	29	104	200278016	60	37502
2026-01-15 02:12:29.02	166.84	32.68	-47.7	-62.2	3.5	3.02e+01	0	29	104	200278016	60	49359
2026-01-15 02:12:30.02	166.89	32.92	-42.4	-53.2	3.5	3.02e+01	0	29	104	200278016	58	19835
2026-01-15 02:12:31.03	166.95	33.17	-48.6	-64.5	3.5	3.02e+01	0	29	104	200278016	60	64626
2026-01-15 02:12:32.04	167.01	33.42	-38.5	-48.9	3.5	3.02e+01	0	29	104	200278016	54	15230
2026-01-15 02:12:33.05	167.07	33.67	-38.6	-49.0	3.5	3.02e+01	0	29	104	200278016	52	17289
2026-01-15 02:12:34.06	167.13	33.92	-37.7	-48.0	3.5	3.02e+01	0	29	104	200278016	50	17260
2026-01-15 02:12:35.07	167.19	34.18	-37.2	-47.4	3.5	3.02e+01	0	29	104	200278016	50	16049
2026-01-15 02:12:36.08	167.26	34.44	-35.7	-45.9	3.6	3.02e+01	0	29	104	200278016	46	16912
2026-01-15 02:12:37.09	167.32	34.70	-47.5	-61.3	3.5	3.02e+01	0	29	104	200278016	60	44625
2026-01-15 02:12:38.10	167.38	34.96	-43.1	-54.2	3.5	3.02e+01	0	29	104	200278016	58	22043
2026-01-15 02:12:39.11	167.45	35.23	-47.8	-62.4	3.5	3.02e+01	0	29	104	200278016	60	50689
2026-01-15 02:12:40.12	167.52	35.50	-48.1	-63.0	3.5	3.02e+01	0	29	104	200278016	60	54483
2026-01-15 02:12:41.13	167.58	35.77	-38.7	-49.1	3.5	3.02e+01	0	29	104	200278016	52	17330
2026-01-15 02:12:42.14	167.65	36.04	-38.6	-49.0	3.5	3.02e+01	0	29	104	200278016	52	17227
2026-01-15 02:12:43.15	167.72	36.32	-38.6	-48.9	3.5	3.02e+01	0	29	104	200278016	52	17084
2026-01-15 02:12:44.15	167.79	36.59	-38.5	-48.9	3.5	3.02e+01	0	29	104	200278016	52	16922
2026-01-15 02:12:45.16	167.87	36.87	-40.4	-51.0	3.5	3.02e+01	0	29	104	200278016	54	19329
2026-01-15 02:12:46.17	167.94	37.15	-42.0	-52.8	3.5	3.02e+01	0	29	104	200278016	60	16852
2026-01-15 02:12:47.18	168.01	37.44	-47.2	-60.5	3.5	3.02e+01	0	29	104	200278016	60	40693
2026-01-15 02:12:48.19	168.09	37.73	-46.9	-60.1	3.6	3.02e+01	0	29	104	200278016	60	39104
2026-01-15 02:12:49.20	168.17	38.02	-47.7	-62.0	3.5	3.02e+01	0	29	104	200278016	60	48209
2026-01-15 02:12:50.21	168.25	38.31	-39.2	-49.6	3.5	3.02e+01	0	29	104	200278016	54	16484
2026-01-15 02:12:51.22	168.33	38.60	-38.5	-49.0	3.5	3.02e+01	0	29	104	200278016	52	17128
2026-01-15 02:12:52.23	168.41	38.90	-37.6	-48.0	3.5	3.02e+01	0	29	104	200278016	50	17142
2026-01-15 02:12:53.23	168.49	39.20	-37.2	-47.6	3.5	3.02e+01	0	29	104	200278016	50	16480
2026-01-15 02:12:54.24	168.57	39.50	-39.2	-49.7	3.5	3.02e+01	0	29	104	200278016	56	14877
2026-01-15 02:12:55.25	168.66	39.81	-44.6	-56.5	3.6	3.02e+01	0	29	104	200278016	60	25776
2026-01-15 02:12:56.26	168.75	40.12	-47.0	-61.0	3.5	3.02e+01	0	29	104	200278016	60	43097
2026-01-15 02:12:57.27	168.84	40.43	-44.0	-55.6	3.5	3.02e+01	0	29	104	200278016	60	23057
2026-01-15 02:12:58.28	168.93	40.75	-48.5	-66.0	3.5	3.02e+01	0	29	104	200278016	60	76865
2026-01-15 02:12:59.29	169.02	41.06	-42.6	-53.7	3.5	3.02e+01	0	29	104	200278016	60	18596
2026-01-15 02:13:00.30	169.11	41.39	-40.1	-50.8	3.5	3.02e+01	0	29	104	200278016	56	16746
2026-01-15 02:13:01.31	169.21	41.71	-38.3	-48.8	3.5	3.02e+01	0	29	104	200278016	52	16815
2026-01-15 02:13:02.32	169.31	42.04	-36.9	-47.4	3.5	3.02e+01	0	29	104	200278016	50	16029
2026-01-15 02:13:03.33	169.41	42.36	-36.6	-46.8	3.5	3.02e+01	0	29	104	200278016	48	16795
2026-01-15 02:13:04.34	169.51	42.70	-39.1	-49.6	3.5	3.02e+01	0	29	104	200278016	60	11659
2026-01-15 02:13:05.35	169.62	43.03	-42.7	-53.8	3.5	3.02e+01	0	29	104	200278016	60	18816
2026-01-15 02:13:06.36	169.72	43.37	-39.9	-50.5	3.2	3.02e+01	0	29	104	200278016	60	12859
2026-01-15 02:13:07.36	169.83	43.71	-46.9	-60.4	3.5	3.02e+01	0	29	104	200278016	60	40221
2026-01-15 02:13:08.38	169.94	44.06	-41.6	-52.3	3.5	3.02e+01	0	29	104	200278016	56	20061
2026-01-15 02:13:09.38	170.05	44.40	-40.6	-51.2	3.5	3.02e+01	0	29	104	200278016	56	17581
2026-01-15 02:13:10.40	170.17	44.76	-38.9	-49.3	3.5	3.02e+01	0	29	104	200278016	52	17719
2026-01-15 02:13:11.40	170.29	45.11	-37.7	-48.0	3.5	3.02e+01	0	29	104	200278016	50	17134
2026-01-15 02:13:12.41	170.41	45.46	-41.5	-52.3	3.5	3.02e+01	0	29	104	200278016	58	17765
2026-01-15 02:13:13.42	170.53	45.82	-36.0	-46.2	3.5	3.02e+01	0	29	104	200278016	52	12435
2026-01-15 02:13:14.43	170.66	46.19	-44.4	-56.0	3.5	3.02e+01	0	29	104	200278016	60	24392
2026-01-15 02:13:15.44	170.79	46.56	-38.4	-48.8	3.5	3.02e+01	0	29	104	200278016	58	11901
2026-01-15 02:13:16.45	170.92	46.93	-43.6	-54.8	3.6	3.02e+01	0	29	104	200278016	60	21190
2026-01-15 02:13:17.46	171.06	47.30	-36.5	-46.9	3.6	3.02e+01	0	29	104	200278016	48	16926
2026-01-15 02:13:18.47	171.20	47.68	-35.6	-45.8	3.6	3.02e+01	0	29	104	200278016	46	16889
2026-01-15 02:13:19.48	171.34	48.06	-35.2	-45.3	3.5	3.02e+01	0	29	104	200278016	46	15943
2026-01-15 02:13:20.49	171.49	48.44	-37.4	-47.9	3.6	3.02e+01	0	29	104	200278016	46	21318
2026-01-15 02:13:21.50	171.63	48.83	-35.0	-45.2	3.5	3.02e+01	0	29	104	200278016	46	15734
2026-01-15 02:13:22.51	171.79	49.22	-35.7	-45.9	3.5	3.02e+01	0	29	104	200278016	52	12071
2026-01-15 02:13:23.52	171.94	49.61	-45.1	-57.2	3.5	3.02e+01	0	29	104	200278016	60	27811
2026-01-15 02:13:24.52	172.10	50.00	-40.2	-50.9	3.5	3.02e+01	0	29	104	200278016	54	18993
2026-01-15 02:13:25.53	172.27	50.40	-46.0	-58.4	3.6	3.02e+01	0	29	104	200278016	60	31836
2026-01-15 02:13:26.54	172.44	50.81	-41.6	-52.3	3.5	3.02e+01	0	29	104	200278016	56	20073
2026-01-15 02:13:27.55	172.61	51.21	-40.5	-51.3	3.5	3.02e+01	0	29	104	200278016	56	17826
2026-01-15 02:13:28.56	172.79	51.63	-38.1	-48.4	3.5	3.02e+01	0	29	104	200278016	52	16044
2026-01-15 02:13:29.57	172.98	52.04	-37.4	-47.7	3.5	3.02e+01	0	29	104	200278016	48	18603
2026-01-15 02:13:30.58	173.17	52.46	-39.0	-49.5	3.5	3.02e+01	0	29	104	200278016	48	22895
2026-01-15 02:13:31.59	173.36	52.88	-34.4	-44.5	3.5	3.02e+01	0	29	104	200278016	44	16293
2026-01-15 02:13:32.60	173.56	53.30	-45.3	-57.2	3.5	3.02e+01	0	29	104	200278016	60	27868
2026-01-15 02:13:33.61	173.77	53.73	-37.8	-48.2	3.5	3.02e+01	0	29	104	200278016	50	17535
2026-01-15 02:13:34.62	173.98	54.16	-43.4	-54.5	3.5	3.02e+01	0	29	104	200278016	60	20428
2026-01-15 02:13:35.63	174.20	54.60	-40.8	-51.4	3.5	3.02e+01	0	29	104	200278016	56	18025
2026-01-15 02:13:36.64	174.42	55.03	-41.8	-52.6	3.5	3.02e+01	0	29	104	200278016	56	20778
2026-01-15 02:13:37.65	174.65	55.47	-41.3	-51.9	3.5	3.02e+01	0	29	104	200278016	58	16999
2026-01-15 02:13:38.66	174.89	55.92	-40.4	-50.9	3.5	3.02e+01	0	29	104	200278016	56	16932
2026-01-15 02:13:39.67	175.14	56.37	-45.3	-57.2	3.5	3.02e+01	0	29	104	200278016	60	27857
2026-01-15 02:13:40.67	175.39	56.81	-39.7	-50.1	3.5	3.02e+01	0	29	104	200278016	46	27508
2026-01-15 02:13:41.68	175.66	57.27	-48.3	-63.9	3.5	3.02e+01	0	29	104	200278016	60	60495
2026-01-15 02:13:42.69	175.93	57.72	-38.7	-49.0	3.5	3.02e+01	0	29	104	200278016	48	21644
2026-01-15 02:13:43.70	176.21	58.19	-39.9	-50.5	3.5	3.02e+01	0	29	104	200278016	56	16312
2026-01-15 02:13:44.71	176.50	58.65	-39.2	-49.7	3.6	3.02e+01	0	29	104	200278016	54	16586
2026-01-15 02:13:45.72	176.81	59.12	-38.2	-48.7	3.5	3.02e+01	0	29	104	200278016	52	16574
2026-01-15 02:13:46.73	177.12	59.59	-37.2	-47.5	3.5	3.02e+01	0	29	104	200278016	50	16162
2026-01-15 02:13:47.74	177.44	60.06	-42.6	-53.6	3.5	3.02e+01	0	29	104	200278016	56	23315
2026-01-15 02:13:48.75	177.78	60.53	-46.6	-59.7	3.5	3.02e+01	0	29	104	200278016	60	37072
2026-01-15 02:13:49.76	178.13	61.01	-42.3	-53.2	3.5	3.02e+01	0	29	104	200278016	52	27847
2026-01-15 02:13:50.76	178.49	61.49	-48.8	-65.8	3.5	3.02e+01	0	29	104	200278016	60	75255
2026-01-15 02:13:51.77	178.87	61.97	-44.4	-56.1	3.5	3.02e+01	0	30	104	200278016	58	27484
2026-01-15 02:13:52.78	179.26	62.46	-44.5	-56.1	3.5	3.02e+01	0	29	104	200278016	60	24569
2026-01-15 02:13:53.79	179.67	62.95	-44.0	-55.4	3.5	3.02e+01	0	29	104	200278016	60	22663
2026-01-15 02:13:54.80	180.09	63.44	-44.2	-55.7	3.5	3.02e+01	0	29	104	200278016	60	23533
2026-01-15 02:13:55.81	180.53	63.93	-44.6	-56.2	3.5	3.02e+01	0	29	104	200278016	60	24989
2026-01-15 02:13:56.82	181.00	64.43	-46.8	-60.0	3.5	3.02e+01	0	29	104	200278016	60	38661
2026-01-15 02:13:57.83	181.48	64.92	-48.2	-63.2	3.5	3.02e+01	0	29	104	200278016	60	55857
2026-01-15 02:13:58.84	181.98	65.42	-47.0	-60.4	3.5	3.02e+01	0	29	104	200278016	60	40267
2026-01-15 02:13:59.85	182.51	65.92	-48.8	-66.4	3.5	3.02e+01	0	29	104	200278016	60	80705
2026-01-15 02:14:00.86	183.06	66.42	-47.0	-60.4	3.5	3.02e+01	0	29	104	200278016	60	40476
2026-01-15 02:14:01.87	183.64	66.92	-44.5	-56.2	3.5	3.02e+01	0	29	104	200278016	60	24823
2026-01-15 02:14:02.88	184.25	67.43	-44.7	-56.4	3.5	3.02e+01	0	29	104	200278016	60	25552
2026-01-15 02:14:03.88	184.88	67.93	-43.7	-55.1	3.5	3.02e+01	0	29	104	200278016	60	21816
2026-01-15 02:14:04.90	185.55	68.44	-44.2	-56.0	3.5	3.02e+01	0	29	104	200278016	60	24330
2026-01-15 02:14:05.90	186.25	68.94	-43.4	-54.7	3.5	3.02e+01	0	29	104	200278016	60	20832
2026-01-15 02:14:06.91	186.99	69.44	-46.3	-59.0	3.5	3.02e+01	0	29	104	200278016	60	34469
2026-01-15 02:14:07.92	187.77	69.95	-48.7	-66.1	3.5	3.02e+01	0	29	104	200278016	60	77526
2026-01-15 02:14:08.93	188.59	70.45	-48.5	-65.0	3.5	3.02e+01	0	29	104	200278016	60	68581
2026-01-15 02:14:09.94	189.46	70.95	-48.2	-64.0	3.5	3.02e+01	0	29	104	200278016	60	61084
2026-01-15 02:14:10.95	190.38	71.45	-42.5	-53.5	3.5	3.02e+01	0	29	104	200278016	60	18265
2026-01-15 02:14:11.96	191.36	71.95	-41.1	-51.9	3.5	3.02e+01	0	29	104	200278016	58	17016
2026-01-15 02:14:12.97	192.39	72.44	-40.5	-51.2	3.5	3.02e+01	0	29	104	200278016	56	17512
2026-01-15 02:14:13.98	193.48	72.93	-41.0	-51.8	3.5	3.02e+01	0	29	104	200278016	56	18900
2026-01-15 02:14:14.99	194.64	73.42	-48.6	-65.8	3.5	3.02e+01	0	29	104	200278016	60	75394
2026-01-15 02:14:16.00	195.88	73.90	-48.7	-66.6	3.5	3.02e+01	0	29	104	200278016	60	82152
2026-01-15 02:14:17.00	197.18	74.38	-45.3	-57.4	3.5	3.02e+01	0	29	104	200278016	60	28469
2026-01-15 02:14:18.01	198.58	74.85	-48.7	-66.7	3.5	3.02e+01	0	29	104	200278016	60	83393
2026-01-15 02:14:19.01	200.06	75.31	-46.9	-60.8	3.5	3.02e+01	0	29	104	200278016	60	42233
2026-01-15 02:14:20.02	201.65	75.76	-42.9	-54.3	3.5	3.02e+01	0	29	104	200278016	60	19963
2026-01-15 02:14:21.03	203.34	76.21	-42.3	-53.4	3.5	3.02e+01	0	29	104	200278016	60	18027
2026-01-15 02:14:22.04	205.16	76.64	-42.2	-53.3	3.5	3.02e+01	0	29	104	200278016	60	17733
2026-01-15 02:14:23.05	207.09	77.06	-41.8	-52.7	3.5	3.02e+01	0	29	104	200278016	58	18590
2026-01-15 02:14:24.06	209.16	77.47	-44.0	-55.7	3.5	3.02e+01	0	29	104	200278016	60	23511
2026-01-15 02:14:25.07	211.37	77.86	-46.6	-60.0	3.6	3.02e+01	0	29	104	200278016	60	38430
2026-01-15 02:14:26.08	213.72	78.23	-48.4	-64.4	3.5	3.02e+01	0	29	104	200278016	60	63533
2026-01-15 02:14:27.09	216.23	78.59	-48.7	-65.7	3.5	3.02e+01	0	29	104	200278016	60	74007
2026-01-15 02:14:28.10	218.90	78.92	-47.5	-61.7	3.5	3.02e+01	0	29	104	200278016	60	46761
2026-01-15 02:14:29.11	221.73	79.23	-40.8	-51.5	3.5	3.02e+01	0	29	104	200278016	56	18120
2026-01-15 02:14:30.12	224.72	79.51	-40.9	-51.6	3.6	3.02e+01	0	29	104	200278016	56	18486
2026-01-15 02:14:31.13	227.86	79.76	-40.9	-51.6	3.5	3.02e+01	0	29	104	200278016	56	18513
2026-01-15 02:14:32.14	231.16	79.98	-40.0	-50.4	3.5	3.02e+01	0	29	104	200278016	54	18087
2026-01-15 02:14:33.15	234.60	80.16	-39.1	-49.6	3.5	3.02e+01	0	29	104	200278016	54	16451
2026-01-15 02:14:34.15	238.12	80.31	-45.8	-58.2	3.5	3.02e+01	0	29	104	200278016	60	31369
2026-01-15 02:14:35.16	241.78	80.43	-48.4	-64.4	3.5	3.02e+01	0	29	104	200278016	60	63753
2026-01-15 02:14:36.17	245.51	80.50	-47.2	-60.7	3.5	3.02e+01	0	30	104	200278016	60	41782
2026-01-15 02:14:37.18	249.29	80.54	-45.8	-57.9	3.5	3.02e+01	0	29	104	200278016	60	30347
2026-01-15 02:14:38.19	253.07	80.53	-38.7	-49.1	3.5	3.02e+01	0	29	104	200278016	52	17310
2026-01-15 02:14:39.20	256.84	80.48	-38.4	-48.9	3.5	3.02e+01	0	29	104	200278016	52	16906
2026-01-15 02:14:40.21	260.55	80.40	-37.6	-48.0	3.5	3.02e+01	0	29	104	200278016	50	17132
2026-01-15 02:14:41.22	264.18	80.27	-36.6	-46.8	3.5	3.02e+01	0	29	104	200278016	48	16861
2026-01-15 02:14:42.23	267.70	80.11	-42.6	-53.3	3.5	3.02e+01	0	29	104	200278016	60	17852
2026-01-15 02:14:43.24	271.09	79.91	-41.3	-52.1	3.5	3.02e+01	0	30	104	200278016	60	15550
2026-01-15 02:14:44.25	274.34	79.68	-48.1	-62.8	3.5	3.02e+01	0	29	104	200278016	60	53409
2026-01-15 02:14:45.26	277.44	79.42	-46.2	-58.8	3.5	3.02e+01	0	29	104	200278016	60	33385
2026-01-15 02:14:46.27	280.37	79.13	-47.7	-62.1	3.5	3.02e+01	0	29	104	200278016	60	49134
2026-01-15 02:14:47.27	283.12	78.82	-41.3	-51.9	3.5	3.02e+01	0	29	104	200278016	56	19096
2026-01-15 02:14:48.28	285.74	78.48	-41.7	-52.7	3.5	3.02e+01	0	29	104	200278016	56	20787
2026-01-15 02:14:49.29	288.19	78.12	-41.3	-52.1	3.5	3.02e+01	0	30	104	200278016	56	19588
2026-01-15 02:14:50.30	290.50	77.74	-40.5	-50.9	3.5	3.02e+01	0	29	104	200278016	56	17012
2026-01-15 02:14:51.31	292.66	77.34	-40.1	-50.6	3.5	3.02e+01	0	29	104	200278016	58	14681
2026-01-15 02:14:52.32	294.68	76.93	-40.0	-50.8	3.5	3.02e+01	0	29	104	200278016	60	13290
2026-01-15 02:14:53.33	296.58	76.51	-47.8	-62.0	3.5	3.02e+01	0	29	104	200278016	60	48408
2026-01-15 02:14:54.34	298.35	76.07	-43.8	-55.1	3.5	3.02e+01	0	29	104	200278016	60	21814
2026-01-15 02:14:55.35	300.02	75.62	-45.6	-58.0	3.5	3.02e+01	0	30	104	200278016	60	30509
2026-01-15 02:14:56.36	301.57	75.16	-41.8	-52.8	3.6	3.02e+01	0	30	104	200278016	60	16819
2026-01-15 02:14:57.37	303.03	74.70	-41.1	-51.6	3.5	3.02e+01	0	29	104	200278016	56	18393
2026-01-15 02:14:58.38	304.40	74.23	-40.3	-51.0	3.5	3.02e+01	0	29	104	200278016	54	19189
2026-01-15 02:14:59.38	305.68	73.75	-42.4	-53.6	3.5	3.02e+01	0	29	104	200278016	56	23185
2026-01-15 02:15:00.39	306.89	73.27	-44.7	-56.3	3.5	3.02e+01	0	29	104	200278016	60	25251
2026-01-15 02:15:01.40	308.03	72.78	-38.7	-49.0	3.5	3.02e+01	0	29	104	200278016	56	13674
2026-01-15 02:15:02.41	309.10	72.29	-48.1	-63.1	3.5	3.02e+01	0	29	104	200278016	60	55203
2026-01-15 02:15:03.42	310.11	71.80	-43.6	-55.1	3.5	3.02e+01	0	29	104	200278016	60	21838
2026-01-15 02:15:04.42	311.06	71.30	-46.7	-59.5	3.5	3.02e+01	0	29	104	200278016	60	36316
2026-01-15 02:15:05.43	311.96	70.80	-42.7	-53.7	3.5	3.02e+01	0	29	104	200278016	60	18577
2026-01-15 02:15:06.45	312.82	70.30	-42.0	-52.6	3.5	3.02e+01	0	29	104	200278016	60	16493
2026-01-15 02:15:07.45	313.62	69.80	-40.6	-51.5	3.5	3.02e+01	0	29	104	200278016	56	18189
2026-01-15 02:15:08.46	314.39	69.30	-38.8	-49.4	3.5	3.02e+01	0	29	104	200278016	54	15961
2026-01-15 02:15:09.47	315.12	68.79	-39.0	-49.3	3.5	3.02e+01	0	29	104	200278016	54	15845
2026-01-15 02:15:10.48	315.81	68.29	-39.2	-49.5	3.5	3.02e+01	0	29	104	200278016	56	14502
2026-01-15 02:15:11.49	316.47	67.79	-48.3	-64.2	3.5	3.02e+01	0	29	104	200278016	60	62175
2026-01-15 02:15:12.50	317.09	67.28	-42.8	-53.8	3.6	3.02e+01	0	29	104	200278016	60	18801
2026-01-15 02:15:13.51	317.69	66.78	-44.9	-56.4	3.5	3.02e+01	0	29	104	200278016	60	25419
2026-01-15 02:15:14.52	318.26	66.28	-42.5	-53.2	3.6	3.02e+01	0	29	104	200278016	60	17658
2026-01-15 02:15:15.53	318.80	65.78	-42.3	-53.5	3.5	3.02e+01	0	29	104	200278016	60	18173
2026-01-15 02:15:16.54	319.32	65.28	-41.8	-52.8	3.5	3.02e+01	0	29	104	200278016	58	18823
2026-01-15 02:15:17.55	319.82	64.78	-45.1	-56.8	3.5	3.02e+01	0	29	104	200278016	60	26586
2026-01-15 02:15:18.56	320.30	64.29	-44.7	-56.4	3.5	3.02e+01	0	29	104	200278016	60	25289
2026-01-15 02:15:19.56	320.75	63.80	-39.2	-50.0	3.5	3.02e+01	0	29	104	200278016	50	21551
2026-01-15 02:15:20.57	321.18	63.31	-48.3	-64.2	3.5	3.02e+01	0	29	104	200278016	60	62400
2026-01-15 02:15:21.58	321.60	62.82	-39.5	-50.2	3.5	3.02e+01	0	29	104	200278016	56	15762
2026-01-15 02:15:22.59	322.01	62.33	-42.0	-52.5	3.5	3.02e+01	0	29	104	200278016	60	16222
2026-01-15 02:15:23.60	322.39	61.85	-40.0	-50.3	3.5	3.02e+01	0	29	104	200278016	56	15886
2026-01-15 02:15:24.62	322.77	61.36	-40.1	-50.9	3.5	3.02e+01	0	29	104	200278016	54	19082
2026-01-15 02:15:25.63	323.13	60.88	-38.5	-49.2	3.5	3.02e+01	0	29	104	200278016	52	17629
2026-01-15 02:15:26.64	323.47	60.41	-36.9	-47.0	3.5	3.02e+01	0	29	104	200278016	48	17288
2026-01-15 02:15:27.64	323.80	59.94	-36.6	-47.0	3.5	3.02e+01	0	29	104	200278016	46	19339
2026-01-15 02:15:28.65	324.12	59.47	-39.7	-50.1	3.5	3.02e+01	0	29	104	200278016	48	24433
2026-01-15 02:15:29.66	324.43	59.00	-47.9	-63.5	3.5	3.02e+01	0	29	104	200278016	60	57914
2026-01-15 02:15:30.67	324.73	58.54	-41.6	-52.4	3.5	3.02e+01	0	29	104	200278016	52	25492
2026-01-15 02:15:31.68	325.02	58.08	-40.3	-50.9	3.5	3.02e+01	0	29	104	200278016	56	17059
2026-01-15 02:15:32.69	325.30	57.62	-38.4	-48.7	3.5	3.02e+01	0	29	104	200278016	52	16533
2026-01-15 02:15:33.70	325.57	57.16	-36.7	-47.2	3.5	3.02e+01	0	29	104	200278016	48	17672
2026-01-15 02:15:34.71	325.83	56.71	-35.5	-45.7	3.5	3.02e+01	0	29	104	200278016	46	16601
2026-01-15 02:15:35.72	326.08	56.26	-38.5	-48.8	3.7	3.02e+01	0	29	104	200278016	48	21232
2026-01-15 02:15:36.73	326.33	55.82	-40.4	-51.2	3.5	3.02e+01	0	29	104	200278016	52	22041
2026-01-15 02:15:37.74	326.56	55.37	-44.1	-55.5	3.5	3.02e+01	0	29	104	200278016	54	32475
2026-01-15 02:15:38.74	326.79	54.94	-48.9	-65.9	3.5	3.02e+01	0	29	104	200278016	60	76123
2026-01-15 02:15:39.76	327.02	54.50	-38.8	-49.3	3.5	3.02e+01	0	29	104	200278016	50	19994
2026-01-15 02:15:40.76	327.23	54.07	-40.5	-51.2	3.5	3.02e+01	0	29	104	200278016	56	17512
2026-01-15 02:15:41.77	327.44	53.64	-40.3	-50.9	3.5	3.02e+01	0	29	104	200278016	56	16949
2026-01-15 02:15:42.78	327.65	53.22	-40.4	-51.1	3.5	3.02e+01	0	29	104	200278016	56	17482
2026-01-15 02:15:43.79	327.84	52.80	-40.5	-51.3	3.5	3.02e+01	0	29	104	200278016	56	17741
2026-01-15 02:15:44.80	328.04	52.38	-37.8	-48.2	3.5	3.02e+01	0	29	104	200278016	50	17676
2026-01-15 02:15:45.81	328.23	51.96	-38.8	-49.2	3.5	3.02e+01	0	29	104	200278016	48	22146
2026-01-15 02:15:46.82	328.41	51.55	-47.7	-62.0	3.5	3.02e+01	0	29	104	200278016	60	48534
2026-01-15 02:15:47.83	328.59	51.14	-48.2	-63.2	3.5	3.02e+01	0	29	104	200278016	60	55574
2026-01-15 02:15:48.84	328.76	50.74	-44.9	-56.4	3.5	3.02e+01	0	29	104	200278016	60	25499
2026-01-15 02:15:49.84	328.92	50.34	-41.2	-52.1	3.5	3.02e+01	0	29	104	200278016	58	17438
2026-01-15 02:15:50.85	329.09	49.94	-40.3	-51.1	3.5	3.02e+01	0	30	104	200278016	56	17462
2026-01-15 02:15:51.86	329.25	49.55	-39.3	-49.9	3.5	3.02e+01	0	29	104	200278016	54	16909
2026-01-15 02:15:52.87	329.40	49.16	-39.5	-50.1	3.5	3.02e+01	0	29	104	200278016	54	17385
2026-01-15 02:15:53.88	329.56	48.77	-48.9	-66.4	3.5	3.02e+01	0	29	104	200278016	60	80850
2026-01-15 02:15:54.89	329.71	48.38	-49.0	-66.7	3.5	3.02e+01	0	29	104	200278016	60	83312
2026-01-15 02:15:55.90	329.85	48.00	-40.4	-50.9	3.5	3.02e+01	0	29	104	200278016	50	23912
2026-01-15 02:15:56.91	329.99	47.62	-48.7	-65.5	3.5	3.02e+01	0	29	104	200278016	60	72742
2026-01-15 02:15:57.92	330.13	47.25	-42.1	-53.0	3.5	3.02e+01	0	29	104	200278016	54	24250
2026-01-15 02:15:58.93	330.26	46.88	-37.8	-48.3	3.5	3.02e+01	0	29	104	200278016	50	17784
2026-01-15 02:15:59.94	330.40	46.51	-37.2	-47.7	3.5	3.02e+01	0	29	104	200278016	50	16520
2026-01-15 02:16:00.95	330.52	46.15	-36.3	-46.7	3.5	3.02e+01	0	29	104	200278016	48	16681
2026-01-15 02:16:01.95	330.65	45.79	-36.0	-46.4	3.5	3.02e+01	0	29	104	200278016	46	17967
2026-01-15 02:16:02.96	330.77	45.43	-39.4	-49.9	3.5	3.02e+01	0	29	104	200278016	50	21407
2026-01-15 02:16:03.97	330.89	45.07	-43.0	-54.1	3.5	3.02e+01	0	29	104	200278016	58	21834
2026-01-15 02:16:04.98	331.01	44.72	-48.0	-62.7	3.5	3.02e+01	0	29	104	200278016	60	52389
2026-01-15 02:16:05.99	331.13	44.37	-49.0	-66.3	3.5	3.02e+01	0	29	104	200278016	60	79862
2026-01-15 02:16:07.00	331.24	44.03	-43.2	-54.1	3.5	3.02e+01	0	29	104	200278016	56	24433
2026-01-15 02:16:08.01	331.35	43.68	-40.8	-51.2	3.5	3.02e+01	0	29	104	200278016	56	17607
2026-01-15 02:16:09.02	331.46	43.35	-40.8	-51.3	3.5	3.02e+01	0	29	104	200278016	56	17841
2026-01-15 02:16:10.03	331.56	43.01	-41.6	-52.4	3.5	3.02e+01	0	29	104	200278016	56	20170
2026-01-15 02:16:11.04	331.67	42.68	-41.2	-51.9	3.5	3.02e+01	0	29	104	200278016	56	19035
2026-01-15 02:16:12.04	331.77	42.35	-43.3	-54.5	3.5	3.02e+01	0	29	104	200278016	60	20341
2026-01-15 02:16:13.05	331.87	42.02	-43.2	-54.4	3.5	3.02e+01	0	29	104	200278016	60	20284
2026-01-15 02:16:14.06	331.97	41.70	-49.1	-66.9	3.5	3.02e+01	0	29	104	200278016	60	85444
2026-01-15 02:16:15.07	332.06	41.37	-48.3	-63.7	3.5	3.02e+01	0	29	104	200278016	60	58658
2026-01-15 02:16:16.08	332.16	41.06	-46.0	-58.3	3.5	3.02e+01	0	29	104	200278016	60	31776
2026-01-15 02:16:17.09	332.25	40.74	-41.3	-52.1	3.5	3.02e+01	0	29	104	200278016	58	17384
2026-01-15 02:16:18.10	332.34	40.43	-40.6	-51.1	3.5	3.02e+01	0	29	104	200278016	56	17454
2026-01-15 02:16:19.11	332.43	40.12	-40.7	-51.1	3.5	3.02e+01	0	29	104	200278016	56	17329
2026-01-15 02:16:20.11	332.51	39.81	-40.9	-51.4	3.5	3.02e+01	0	29	104	200278016	56	17920
2026-01-15 02:16:21.12	332.60	39.51	-48.7	-65.4	3.5	3.02e+01	0	29	104	200278016	60	71362
2026-01-15 02:16:22.13	332.68	39.21	-49.1	-66.9	3.5	3.02e+01	0	29	104	200278016	60	85010
2026-01-15 02:16:23.14	332.77	38.91	-43.8	-55.4	3.5	3.02e+01	0	29	104	200278016	60	22746
2026-01-15 02:16:24.14	332.85	38.61	-48.5	-64.3	3.5	3.02e+01	0	29	104	200278016	60	63040
2026-01-15 02:16:25.15	332.93	38.32	-44.0	-55.3	3.5	3.02e+01	0	29	104	200278016	60	22285
2026-01-15 02:16:26.16	333.01	38.03	-38.5	-48.7	3.5	3.02e+01	0	29	104	200278016	52	16551
2026-01-15 02:16:27.17	333.08	37.74	-37.7	-47.9	3.5	3.02e+01	0	30	104	200278016	50	16969
2026-01-15 02:16:28.18	333.16	37.45	-37.2	-47.4	3.5	3.02e+01	0	29	104	200278016	50	16037
2026-01-15 02:16:29.18	333.23	37.17	-36.3	-46.6	3.5	3.02e+01	0	30	104	200278016	48	16329
2026-01-15 02:16:30.19	333.31	36.89	-37.1	-47.5	3.5	3.02e+01	0	29	104	200278016	48	18286
2026-01-15 02:16:31.20	333.38	36.61	-41.7	-52.6	3.6	3.02e+01	0	29	104	200278016	60	16384
2026-01-15 02:16:32.21	333.45	36.34	-47.8	-62.1	3.5	3.02e+01	0	29	104	200278016	60	48816
2026-01-15 02:16:33.22	333.52	36.06	-48.3	-64.1	3.5	3.02e+01	0	29	104	200278016	60	61466
2026-01-15 02:16:34.23	333.59	35.79	-44.0	-55.3	3.5	3.02e+01	0	29	104	200278016	60	22442
2026-01-15 02:16:35.24	333.65	35.52	-39.9	-50.5	3.5	3.02e+01	0	29	104	200278016	54	18137
2026-01-15 02:16:36.25	333.72	35.26	-40.2	-50.8	3.5	3.02e+01	0	29	104	200278016	54	18945
2026-01-15 02:16:37.26	333.79	34.99	-38.9	-49.3	3.5	3.02e+01	0	29	104	200278016	54	15809
2026-01-15 02:16:38.27	333.85	34.73	-37.7	-48.0	3.6	3.02e+01	0	29	104	200278016	50	17285
2026-01-15 02:16:39.28	333.91	34.47	-37.7	-48.0	3.5	3.02e+01	0	29	104	200278016	52	15266
2026-01-15 02:16:40.29	333.98	34.21	-37.8	-48.0	3.5	3.02e+01	0	29	104	200278016	54	13679
2026-01-15 02:16:41.30	334.04	33.96	-48.8	-65.7	3.5	3.02e+01	0	30	104	200278016	60	74041
2026-01-15 02:16:42.31	334.10	33.71	-45.7	-58.0	3.5	3.02e+01	0	29	104	200278016	60	30485
2026-01-15 02:16:43.32	334.16	33.45	-42.8	-53.8	3.5	3.02e+01	0	29	104	200278016	60	18878
2026-01-15 02:16:44.33	334.22	33.21	-39.7	-50.2	3.5	3.02e+01	0	29	104	200278016	54	17511
2026-01-15 02:16:45.34	334.28	32.96	-38.3	-48.6	3.5	3.02e+01	0	29	104	200278016	52	16434
2026-01-15 02:16:46.35	334.33	32.72	-36.6	-46.8	3.6	3.02e+01	0	29	104	200278016	48	16779
2026-01-15 02:16:47.36	334.39	32.47	-35.5	-45.7	3.5	3.02e+01	0	29	104	200278016	46	16605
2026-01-15 02:16:48.36	334.45	32.24	-35.4	-45.6	3.5	3.02e+01	0	29	104	200278016	46	16402
2026-01-15 02:16:49.37	334.50	32.00	-35.3	-45.5	3.4	3.02e+01	0	29	104	200278016	48	14504
2026-01-15 02:16:50.38	334.55	31.76	-46.4	-58.9	3.5	3.02e+01	0	30	104	200278016	60	33725
2026-01-15 02:16:51.39	334.61	31.53	-41.4	-43.4	22.5	3.02e+01	0	29	104	200278016	60	5721
2026-01-15 02:16:52.40	334.66	31.29	-40.0	-41.6	25.0	3.02e+01	0	30	0	200802304	58	5198
2026-01-15 02:16:53.41	334.71	31.06	-36.6	-37.9	28.1	3.02e+01	0	30	0	202899456	48	6029
2026-01-15 02:16:54.42	334.76	30.84	-36.4	-37.6	28.5	3.02e+01	0	30	0	204996608	48	5842
2026-01-15 02:16:55.43	334.81	30.61	-35.3	-36.5	29.2	3.02e+01	0	30	0	206569472	46	5763
2026-01-15 02:16:56.44	334.86	30.38	-34.8	-36.0	29.7	3.02e+01	0	29	0	208666624	44	6101
2026-01-15 02:16:57.45	334.91	30.16	-34.6	-35.8	30.0	3.02e+01	0	29	0	210239488	44	5933
2026-01-15 02:16:58.46	334.96	29.94	-34.0	-35.1	30.5	3.02e+01	0	29	0	212336640	44	5519
2026-01-15 02:16:59.47	335.01	29.72	-34.0	-35.1	30.4	3.02e+01	0	29	0	214433792	42	6201
2026-01-15 02:17:00.48	335.06	29.50	-34.2	-35.3	30.3	3.02e+01	0	29	0	216006656	42	6333
2026-01-15 02:17:01.49	335.11	29.29	-34.1	-35.3	30.2	3.02e+01	0	29	0	218103808	42	6318
2026-01-15 02:17:02.49	335.15	29.08	-34.1	-35.3	30.3	3.02e+01	0	29	0	220200960	42	6317
2026-01-15 02:17:03.50	335.20	28.87	-34.3	-35.5	30.1	3.02e+01	0	29	0	221773824	42	6464
2026-01-15 02:17:04.51	335.24	28.65	-34.4	-35.6	30.1	3.02e+01	0	29	0	223870976	42	6510
2026-01-15 02:17:05.52	335.29	28.45	-34.4	-35.6	30.1	3.02e+01	0	29	0	225443840	42	6524
2026-01-15 02:17:06.53	335.33	28.24	-34.5	-35.8	29.8	3.02e+01	0	29	0	227540992	42	6656
2026-01-15 02:17:07.54	335.37	28.03	-34.4	-35.6	29.9	3.02e+01	0	29	0	229638144	42	6512
2026-01-15 02:17:08.55	335.42	27.83	-34.4	-35.6	29.9	3.02e+01	0	29	0	231211008	42	6523
2026-01-15 02:17:09.56	335.46	27.63	-34.5	-35.6	29.9	3.02e+01	0	29	0	233308160	42	6563
2026-01-15 02:17:10.57	335.50	27.43	-34.5	-35.7	29.9	3.02e+01	0	29	0	234881024	42	6618
2026-01-15 02:17:11.57	335.54	27.23	-34.6	-35.7	29.9	3.02e+01	0	29	0	236978176	42	6641
2026-01-15 02:17:12.58	335.58	27.03	-34.4	-35.6	30.0	3.02e+01	0	29	0	239075328	42	6522
2026-01-15 02:17:13.59	335.62	26.84	-34.6	-35.8	29.8	3.02e+01	0	29	0	240648192	42	6681
2026-01-15 02:17:14.60	335.66	26.64	-34.6	-35.8	29.8	3.02e+01	0	29	0	242745344	42	6669
2026-01-15 02:17:15.61	335.70	26.45	-34.8	-36.0	29.7	3.02e+01	0	29	0	244318208	42	6873
2026-01-15 02:17:16.62	335.74	26.26	-34.7	-35.9	29.9	3.02e+01	0	29	0	246415360	42	6761
2026-01-15 02:17:17.63	335.78	26.07	-34.8	-36.0	29.7	3.02e+01	0	29	0	248512512	42	6866
2026-01-15 02:17:18.64	335.82	25.88	-34.8	-36.0	29.7	3.02e+01	0	29	0	250085376	42	6853
2026-01-15 02:17:19.65	335.86	25.69	-34.8	-36.0	29.7	3.02e+01	0	29	0	252182528	42	6863
2026-01-15 02:17:20.66	335.90	25.50	-34.8	-36.0	29.7	3.02e+01	0	29	0	253755392	42	6841
2026-01-15 02:17:21.67	335.93	25.32	-34.9	-36.2	29.5	3.02e+01	0	29	0	255852544	42	6965
2026-01-15 02:17:22.68	335.97	25.14	-34.9	-36.1	29.5	3.02e+01	0	29	0	257949696	44	6158
2026-01-15 02:17:23.69	336.01	24.96	-34.9	-36.1	29.5	3.02e+01	0	29	0	259522560	44	6169
2026-01-15 02:17:24.70	336.04	24.78	-34.8	-36.0	29.5	3.02e+01	0	29	0	261619712	44	6105
2026-01-15 02:17:25.71	336.08	24.60	-34.9	-36.1	29.6	3.02e+01	0	29	0	263192576	44	6153
2026-01-15 02:17:26.72	336.11	24.42	-34.9	-36.1	29.6	3.02e+01	0	29	0	265289728	44	6137
2026-01-15 02:17:27.72	336.15	24.24	-35.1	-36.3	29.5	3.02e+01	0	29	0	267386880	44	6293
2026-01-15 02:17:28.73	336.18	24.07	-34.9	-36.1	29.5	3.02e+01	0	29	0	268959744	44	6186
2026-01-15 02:17:29.74	336.22	23.89	-35.1	-36.3	29.3	3.02e+01	0	29	0	271056896	44	6333
2026-01-15 02:17:30.75	336.25	23.72	-34.9	-36.1	29.4	3.02e+01	0	29	0	273154048	44	6197
2026-01-15 02:17:31.77	336.28	23.55	-35.1	-36.3	29.4	3.02e+01	0	29	0	274726912	44	6287
2026-01-15 02:17:32.78	336.32	23.38	-35.1	-36.4	29.3	3.02e+01	0	29	0	276824064	44	6357
2026-01-15 02:17:33.79	336.35	23.21	-35.2	-36.4	29.2	3.02e+01	0	29	0	278396928	44	6395
2026-01-15 02:17:34.80	336.38	23.04	-35.2	-36.4	29.3	3.02e+01	0	29	0	280494080	44	6397
2026-01-15 02:17:35.81	336.41	22.88	-35.1	-36.3	29.3	3.02e+01	0	29	0	282591232	44	6341
2026-01-15 02:17:36.82	336.45	22.71	-35.1	-36.4	29.3	3.02e+01	0	29	0	284164096	44	6351
2026-01-15 02:17:37.82	336.48	22.55	-34.9	-36.1	29.5	3.02e+01	0	29	0	286261248	44	6172
2026-01-15 02:17:38.83	336.51	22.38	-35.0	-36.2	29.4	3.02e+01	0	29	0	288358400	44	6219
2026-01-15 02:17:39.84	336.54	22.22	-35.1	-36.3	29.4	3.02e+01	0	29	0	289931264	44	6284
2026-01-15 02:17:40.85	336.57	22.06	-34.9	-36.1	29.5	3.02e+01	0	29	0	292028416	44	6191
2026-01-15 02:17:41.86	336.60	21.90	-34.9	-36.1	29.4	3.02e+01	0	29	0	293601280	44	6182
2026-01-15 02:17:42.87	336.63	21.74	-34.8	-36.0	29.5	3.02e+01	0	29	0	295698432	44	6121
2026-01-15 02:17:43.88	336.66	21.58	-34.9	-36.1	29.5	3.02e+01	0	29	0	297795584	44	6144
2026-01-15 02:17:44.89	336.69	21.43	-34.9	-36.1	29.5	3.02e+01	0	29	0	299368448	44	6141
2026-01-15 02:17:45.89	336.72	21.27	-35.0	-36.2	29.4	3.02e+01	0	29	0	301465600	44	6216
2026-01-15 02:17:46.91	336.75	21.12	-34.8	-36.0	29.6	3.02e+01	0	29	0	303038464	44	6106
2026-01-15 02:17:47.92	336.78	20.96	-34.7	-35.9	29.7	3.02e+01	0	29	0	305135616	44	6030
2026-01-15 02:17:48.92	336.80	20.81	-34.8	-36.0	29.7	3.02e+01	0	29	0	307232768	44	6067
2026-01-15 02:17:49.93	336.83	20.66	-34.7	-35.8	29.7	3.02e+01	0	29	0	308805632	44	5992
2026-01-15 02:17:50.94	336.86	20.51	-34.8	-36.0	29.6	3.02e+01	0	29	0	310902784	44	6081
2026-01-15 02:17:51.95	336.89	20.36	-34.7	-35.9	29.7	3.02e+01	0	29	0	312475648	44	6032
2026-01-15 02:17:52.96	336.92	20.21	-34.8	-36.0	29.7	3.02e+01	0	29	0	314572800	44	6080
2026-01-15 02:17:53.97	336.94	20.07	-34.7	-35.9	29.6	3.02e+01	0	29	0	316669952	44	6024
2026-01-15 02:17:54.98	336.97	19.92	-34.9	-36.1	29.6	3.02e+01	0	29	0	318242816	44	6163
2026-01-15 02:17:55.99	337.00	19.77	-34.7	-35.9	29.7	3.02e+01	0	29	0	320339968	44	6001
2026-01-15 02:17:57.00	337.02	19.63	-34.7	-35.9	29.7	3.02e+01	0	29	0	321912832	44	6046
2026-01-15 02:17:58.01	337.05	19.48	-34.7	-35.9	29.6	3.02e+01	0	29	0	324009984	44	6022
2026-01-15 02:17:59.02	337.08	19.34	-34.8	-36.0	29.6	3.02e+01	0	29	0	326107136	44	6127
2026-01-15 02:18:00.03	337.10	19.20	-34.6	-35.8	29.7	3.02e+01	0	29	0	327680000	44	5937
2026-01-15 02:18:01.04	337.13	19.06	-34.6	-35.8	29.7	3.02e+01	0	29	0	329777152	44	5991
2026-01-15 02:18:02.04	337.15	18.92	-34.6	-35.8	29.7	3.02e+01	0	29	0	331350016	44	5959
2026-01-15 02:18:03.05	337.18	18.78	-34.6	-35.8	29.7	3.02e+01	0	29	0	333447168	44	5991
2026-01-15 02:18:04.06	337.20	18.64	-34.5	-35.7	29.7	3.02e+01	0	29	0	335544320	44	5914
2026-01-15 02:18:05.07	337.23	18.50	-34.5	-35.7	29.8	3.02e+01	0	29	0	337117184	44	5903
2026-01-15 02:18:06.08	337.25	18.37	-34.6	-35.7	29.7	3.02e+01	0	29	0	339214336	44	5919
2026-01-15 02:18:07.10	337.28	18.23	-34.7	-35.8	29.6	3.02e+01	0	29	0	341311488	44	5994
2026-01-15 02:18:08.11	337.30	18.09	-34.6	-35.7	29.8	3.02e+01	0	29	0	342884352	44	5915
2026-01-15 02:18:09.11	337.33	17.96	-34.7	-35.9	29.7	3.02e+01	0	29	0	344981504	44	5996
2026-01-15 02:18:10.12	337.35	17.83	-34.6	-35.8	29.7	3.02e+01	0	29	0	346554368	44	5977
2026-01-15 02:18:11.13	337.37	17.69	-34.6	-35.8	29.7	3.02e+01	0	29	0	348651520	44	5940
2026-01-15 02:18:12.14	337.40	17.56	-34.7	-35.9	29.7	3.02e+01	0	29	0	350748672	44	6010
2026-01-15 02:18:13.15	337.42	17.43	-34.7	-35.9	29.6	3.02e+01	0	29	0	352321536	44	6008
2026-01-15 02:18:14.16	337.44	17.30	-34.8	-36.0	29.6	3.02e+01	0	29	0	354418688	44	6083
2026-01-15 02:18:15.17	337.47	17.17	-34.7	-35.9	29.7	3.02e+01	0	29	0	356515840	44	5998
2026-01-15 02:18:16.18	337.49	17.04	-34.7	-35.9	29.6	3.02e+01	0	29	0	358088704	44	6009
2026-01-15 02:18:17.19	337.51	16.91	-34.6	-35.9	29.6	3.02e+01	0	29	0	360185856	44	5996
2026-01-15 02:18:18.20	337.54	16.79	-34.6	-35.8	29.7	3.02e+01	0	29	0	361758720	44	5985
2026-01-15 02:18:19.21	337.56	16.66	-34.7	-35.9	29.7	3.02e+01	0	29	0	363855872	44	6004
2026-01-15 02:18:20.22	337.58	16.53	-34.7	-35.9	29.6	3.02e+01	0	29	0	365428736	44	6062
2026-01-15 02:18:21.23	337.60	16.41	-34.7	-35.9	29.6	3.02e+01	0	29	0	367525888	44	6040
2026-01-15 02:18:22.24	337.62	16.28	-34.7	-35.9	29.6	3.02e+01	0	29	0	369623040	44	6015
2026-01-15 02:18:23.25	337.65	16.16	-34.9	-36.1	29.4	3.02e+01	0	29	0	371195904	44	6145
2026-01-15 02:18:24.26	337.67	16.03	-34.7	-35.9	29.6	3.02e+01	0	29	0	373293056	44	6017
2026-01-15 02:18:25.26	337.69	15.91	-34.7	-35.9	29.6	3.02e+01	0	29	0	374865920	44	6041
2026-01-15 02:18:26.27	337.71	15.79	-34.7	-36.0	29.6	3.02e+01	0	29	0	376963072	44	6067
2026-01-15 02:18:27.28	337.73	15.67	-34.6	-35.8	29.6	3.02e+01	0	29	0	379060224	44	5981
2026-01-15 02:18:28.29	337.75	15.55	-34.6	-35.8	29.6	3.02e+01	0	29	0	380633088	44	5987
2026-01-15 02:18:29.30	337.77	15.43	-34.7	-35.9	29.5	3.02e+01	0	29	0	382730240	44	6040
2026-01-15 02:18:30.31	337.79	15.31	-34.6	-35.9	29.6	3.02e+01	0	29	0	384827392	44	5998
2026-01-15 02:18:31.32	337.82	15.19	-34.7	-35.9	29.5	3.02e+01	0	29	0	386400256	44	6054
2026-01-15 02:18:32.33	337.84	15.07	-34.7	-35.9	29.5	3.02e+01	0	29	0	388497408	44	6031
2026-01-15 02:18:33.34	337.86	14.96	-34.7	-35.9	29.5	3.02e+01	0	29	0	390070272	44	6059
2026-01-15 02:18:34.35	337.88	14.84	-34.7	-35.9	29.6	3.02e+01	0	29	0	392167424	44	6013
2026-01-15 02:18:35.36	337.90	14.72	-34.7	-35.9	29.5	3.02e+01	0	29	0	394264576	44	6005
2026-01-15 02:18:36.36	337.92	14.61	-34.6	-35.8	29.5	3.02e+01	0	29	0	395837440	44	5991
2026-01-15 02:18:37.37	337.94	14.49	-34.7	-35.9	29.5	3.02e+01	0	29	0	397934592	44	6022
2026-01-15 02:18:38.38	337.96	14.38	-34.7	-35.9	29.6	3.02e+01	0	29	0	399507456	44	6010
2026-01-15 02:18:39.40	337.98	14.27	-34.7	-35.9	29.5	3.02e+01	0	29	0	401604608	44	6058
2026-01-15 02:18:40.40	337.99	14.15	-34.7	-35.9	29.5	3.02e+01	0	29	0	403701760	44	6058
2026-01-15 02:18:41.41	338.01	14.04	-34.8	-36.0	29.4	3.02e+01	0	29	0	405274624	44	6084
2026-01-15 02:18:42.42	338.03	13.93	-34.7	-35.9	29.5	3.02e+01	0	29	0	407371776	44	6046
2026-01-15 02:18:43.43	338.05	13.82	-34.7	-35.9	29.6	3.02e+01	0	29	0	409468928	44	6035
2026-01-15 02:18:44.45	338.07	13.71	-34.8	-36.1	29.4	3.02e+01	0	29	0	411041792	44	6138
2026-01-15 02:18:45.46	338.09	13.59	-34.9	-36.1	29.4	3.02e+01	0	29	0	413138944	44	6151
2026-01-15 02:18:46.47	338.11	13.48	-34.7	-35.9	29.5	3.02e+01	0	29	0	414711808	44	6052
2026-01-15 02:18:47.47	338.13	13.38	-34.9	-36.1	29.3	3.02e+01	0	29	0	416808960	44	6161
2026-01-15 02:18:48.48	338.15	13.27	-34.7	-35.9	29.5	3.02e+01	0	29	0	418906112	44	6056
2026-01-15 02:18:49.49	338.16	13.16	-34.9	-36.1	29.3	3.02e+01	0	29	0	420478976	44	6147
2026-01-15 02:18:50.50	338.18	13.05	-34.9	-36.1	29.3	3.02e+01	0	29	0	422576128	44	6172
2026-01-15 02:18:51.51	338.20	12.95	-35.0	-36.2	29.2	3.02e+01	0	29	0	424148992	44	6253
2026-01-15 02:18:52.52	338.22	12.84	-35.1	-36.3	29.1	3.02e+01	0	29	0	426246144	44	6304
2026-01-15 02:18:53.53	338.24	12.73	-35.1	-36.3	29.1	3.02e+01	0	29	0	428343296	44	6321
2026-01-15 02:18:54.54	338.25	12.63	-35.2	-36.4	29.0	3.02e+01	0	29	0	429916160	44	6416
2026-01-15 02:18:55.55	338.27	12.52	-35.3	-36.5	29.0	3.02e+01	0	29	0	432013312	44	6468
2026-01-15 02:18:56.56	338.29	12.42	-35.1	-36.4	29.0	3.02e+01	0	29	0	433586176	44	6357
2026-01-15 02:18:57.57	338.31	12.31	-35.2	-36.5	28.9	3.02e+01	0	29	0	435683328	44	6439
2026-01-15 02:18:58.58	338.33	12.21	-35.5	-36.7	28.8	3.02e+01	0	29	0	437780480	44	6642
2026-01-15 02:18:59.59	338.34	12.11	-35.5	-36.7	28.8	3.02e+01	0	29	0	439353344	44	6646
2026-01-15 02:19:00.60	338.36	12.00	-35.1	-36.3	29.0	3.02e+01	0	29	0	441450496	44	6331
2026-01-15 02:19:01.61	338.38	11.90	-35.2	-36.4	29.0	3.02e+01	0	29	0	443023360	44	6385
2026-01-15 02:19:02.61	338.39	11.80	-35.2	-36.5	28.9	3.02e+01	0	29	0	445120512	44	6433
2026-01-15 02:19:03.62	338.41	11.70	-35.1	-36.3	29.0	3.02e+01	0	29	0	447217664	44	6321
2026-01-15 02:19:04.63	338.43	11.60	-35.2	-36.4	29.1	3.02e+01	0	29	0	448790528	44	6388
2026-01-15 02:19:05.64	338.44	11.50	-35.1	-36.4	29.0	3.02e+01	0	29	0	450887680	44	6370
2026-01-15 02:19:06.65	338.46	11.40	-35.1	-36.3	29.0	3.02e+01	0	29	0	452460544	44	6349
2026-01-15 02:19:07.66	338.48	11.30	-35.2	-36.5	29.0	3.02e+01	0	29	0	454557696	44	6429
2026-01-15 02:19:08.67	338.49	11.20	-35.3	-36.5	28.8	3.02e+01	0	29	0	456654848	44	6465
