passes_logs/2026/01/24/R2.0S_Moscow/R2.0S_Moscow__20260124_000554_SUOMI_NPP_rec.log

#Pass ID: 20260124_000554_SUOMI NPP
#Satellite: SUOMI NPP
#Configuration: NPP
#almurnet v.1.7.20251203
#Start time: 2026-01-24 00:10:05

#Version: 2.2.20231116
#Station: R2.0S_Moscow
#Location: 37.707566 lon 55.798166 lat
#TLE: 1 37849U 11061A   26022.92790088  .00000200  00000+0  11571-3 0  9994
#TLE: 2 37849  98.7820 324.9085 0002258  50.1112 310.0263 14.19528452737839

#Time	Az	El	Level	Level2	SNR	BER	BlckErr	Temp	State	Recorded	gain1	gain2
2026-01-24 00:10:05.87	7.01	26.74	-46.0	-64.6	3.8	7.44e-01	0	61	0	0	63	30767
2026-01-24 00:10:06.88	6.93	26.91	-45.5	-60.1	3.8	1.49e+00	0	61	104	0	63	18441
2026-01-24 00:10:07.89	6.86	27.08	-45.5	-60.1	3.8	1.49e+00	0	61	104	0	62	19491
2026-01-24 00:10:08.90	6.78	27.25	-45.4	-60.1	3.8	1.49e+00	0	61	104	0	62	19438
2026-01-24 00:10:09.91	6.70	27.42	-45.4	-60.0	3.8	1.49e+00	0	61	104	0	62	19281
2026-01-24 00:10:10.92	6.62	27.59	-45.3	-59.9	3.8	1.49e+00	0	61	104	0	62	19112
2026-01-24 00:10:11.93	6.54	27.76	-45.2	-59.9	3.8	1.49e+00	0	61	104	0	62	19048
2026-01-24 00:10:12.94	6.46	27.93	-45.2	-59.8	3.8	1.49e+00	0	61	104	0	62	18907
2026-01-24 00:10:13.95	6.37	28.10	-45.2	-59.8	3.8	1.49e+00	0	61	104	0	62	18889
2026-01-24 00:10:14.96	6.29	28.28	-45.2	-59.8	3.8	1.49e+00	0	61	104	0	62	18934
2026-01-24 00:10:15.97	6.20	28.45	-45.2	-59.9	3.8	1.49e+00	0	61	104	0	62	19005
2026-01-24 00:10:16.98	6.12	28.63	-45.2	-59.8	3.8	1.49e+00	0	61	104	0	62	18911
2026-01-24 00:10:17.99	6.03	28.81	-45.2	-59.8	3.8	1.49e+00	0	61	104	0	62	18920
2026-01-24 00:10:19.00	5.94	28.98	-45.2	-59.9	3.8	1.49e+00	0	61	104	0	62	18968
2026-01-24 00:10:20.01	5.86	29.16	-45.2	-59.8	3.8	1.49e+00	0	61	104	0	62	18919
2026-01-24 00:10:21.02	5.77	29.34	-45.2	-59.8	3.8	1.49e+00	0	61	104	0	62	18869
2026-01-24 00:10:22.03	5.68	29.53	-45.2	-59.8	3.8	1.49e+00	0	61	104	0	62	18806
2026-01-24 00:10:23.04	5.58	29.71	-45.2	-59.8	3.8	1.49e+00	0	61	104	0	62	18814
2026-01-24 00:10:24.05	5.49	29.89	-45.2	-59.8	3.8	1.49e+00	0	61	104	0	62	18896
2026-01-24 00:10:25.06	5.40	30.08	-45.2	-59.8	3.8	1.49e+00	0	61	104	0	62	18898
2026-01-24 00:10:26.07	5.30	30.26	-45.2	-59.8	3.8	1.49e+00	0	61	104	0	62	18915
2026-01-24 00:10:27.08	5.20	30.45	-45.2	-59.8	3.8	1.49e+00	0	61	104	0	62	18936
2026-01-24 00:10:28.09	5.11	30.64	-45.2	-59.8	3.8	1.49e+00	0	61	104	0	62	18799
2026-01-24 00:10:29.10	5.01	30.83	-45.2	-59.7	3.8	1.49e+00	0	62	104	0	62	18712
2026-01-24 00:10:30.11	4.91	31.02	-45.2	-59.7	3.8	1.49e+00	0	61	104	0	62	18706
2026-01-24 00:10:31.12	4.81	31.21	-45.2	-59.7	3.8	1.49e+00	0	61	104	0	62	18585
2026-01-24 00:10:32.13	4.70	31.40	-45.2	-59.7	3.8	1.49e+00	0	61	104	0	62	18532
2026-01-24 00:10:33.14	4.60	31.60	-45.1	-59.6	3.8	1.49e+00	0	61	104	0	62	18437
2026-01-24 00:10:34.16	4.49	31.80	-45.2	-59.6	3.8	1.49e+00	0	61	104	0	62	18456
2026-01-24 00:10:35.17	4.39	31.99	-45.1	-59.6	3.8	1.49e+00	0	61	104	0	62	18425
2026-01-24 00:10:36.18	4.28	32.19	-45.2	-59.7	3.8	1.49e+00	0	61	104	0	62	18669
2026-01-24 00:10:37.19	4.17	32.39	-45.2	-59.8	3.8	1.49e+00	0	61	104	0	62	18813
2026-01-24 00:10:38.20	4.06	32.59	-45.1	-59.8	3.8	1.49e+00	0	61	104	0	62	18839
2026-01-24 00:10:39.20	3.95	32.79	-45.1	-59.7	3.8	1.49e+00	0	61	104	0	62	18587
2026-01-24 00:10:40.22	3.83	32.99	-45.1	-59.4	3.8	1.49e+00	0	61	104	0	62	17944
2026-01-24 00:10:41.23	3.72	33.20	-45.1	-58.9	3.8	1.49e+00	0	61	104	0	62	16939
2026-01-24 00:10:42.24	3.60	33.40	-45.1	-58.6	3.8	1.49e+00	0	61	104	0	62	16341
2026-01-24 00:10:43.25	3.49	33.61	-45.1	-58.2	3.8	1.49e+00	0	61	104	0	62	15634
2026-01-24 00:10:44.26	3.37	33.82	-45.1	-58.3	3.8	1.49e+00	0	61	104	0	62	15769
2026-01-24 00:10:45.27	3.25	34.02	-45.1	-58.8	3.8	1.49e+00	0	61	104	0	62	16778
2026-01-24 00:10:46.28	3.12	34.23	-45.1	-59.5	3.8	1.49e+00	0	61	104	0	62	18256
2026-01-24 00:10:47.29	3.00	34.45	-45.1	-59.7	3.8	1.49e+00	0	61	104	0	62	18579
2026-01-24 00:10:48.30	2.87	34.66	-45.1	-58.6	3.8	1.49e+00	0	61	104	0	62	16318
2026-01-24 00:10:49.31	2.74	34.87	-44.9	-56.3	4.2	1.46e+00	0	61	104	0	61	13304
2026-01-24 00:10:50.32	2.62	35.09	-44.7	-54.5	4.9	9.02e-01	0	61	0	1048576	61	10795
2026-01-24 00:10:51.33	2.48	35.30	-44.6	-53.4	5.5	5.37e-01	0	61	0	3145728	61	9579
2026-01-24 00:10:52.34	2.35	35.52	-44.7	-54.1	5.1	5.81e-01	0	61	0	5242880	61	10332
2026-01-24 00:10:53.35	2.22	35.74	-44.9	-55.6	4.4	1.03e+00	0	61	0	6291456	61	12324
2026-01-24 00:10:54.36	2.08	35.96	-45.0	-57.0	3.9	1.42e+00	0	61	104	6291456	61	14421
2026-01-24 00:10:55.37	1.94	36.18	-44.8	-55.6	4.4	1.46e+00	0	61	0	6291456	61	12248
2026-01-24 00:10:56.38	1.80	36.41	-44.5	-53.2	5.5	5.61e-01	0	61	0	8388608	61	9387
2026-01-24 00:10:57.39	1.66	36.63	-44.3	-52.0	6.6	3.03e-01	0	61	0	9437184	60	8589
2026-01-24 00:10:58.40	1.51	36.86	-44.0	-50.7	7.7	1.66e-01	0	61	0	11534336	60	7448
2026-01-24 00:10:59.41	1.37	37.09	-44.1	-50.6	7.8	8.03e-02	0	61	0	13631488	59	7758
2026-01-24 00:11:00.42	1.22	37.31	-44.0	-50.4	7.9	8.02e-02	0	61	0	15728640	59	7620
2026-01-24 00:11:01.43	1.07	37.54	-44.1	-50.6	7.8	5.66e-02	0	61	0	17825792	59	7805
2026-01-24 00:11:02.44	0.91	37.77	-43.9	-49.8	8.4	9.31e-01	0	61	0	18874368	59	7102
2026-01-24 00:11:03.46	0.76	38.01	-44.6	-53.4	5.4	9.93e-01	0	61	0	20971520	60	10094
2026-01-24 00:11:04.46	0.60	38.24	-43.8	-49.4	8.8	2.54e-01	0	61	0	23068672	59	6780
2026-01-24 00:11:05.47	0.44	38.48	-44.6	-53.3	5.4	7.86e-01	0	61	0	24117248	60	10038
2026-01-24 00:11:06.48	0.28	38.71	-43.6	-49.1	9.1	2.53e-02	0	61	0	26214400	59	6567
2026-01-24 00:11:07.49	0.11	38.95	-43.7	-49.3	9.0	2.88e-02	0	61	0	28311552	58	7084
2026-01-24 00:11:08.50	359.95	39.19	-43.7	-49.3	9.0	2.43e-02	0	62	0	30408704	58	7090
2026-01-24 00:11:09.52	359.77	39.44	-43.7	-49.3	9.0	1.87e-02	0	61	0	32505856	58	7091
2026-01-24 00:11:10.53	359.60	39.68	-43.7	-49.4	8.9	2.55e-02	0	61	0	33554432	58	7180
2026-01-24 00:11:11.54	359.43	39.92	-43.8	-49.7	8.7	3.25e-02	0	61	0	35651584	58	7397
2026-01-24 00:11:12.54	359.25	40.16	-43.8	-49.9	8.4	3.78e-02	0	61	0	37748736	58	7577
2026-01-24 00:11:13.55	359.07	40.41	-43.9	-50.0	8.4	4.80e-02	0	61	0	39845888	58	7650
2026-01-24 00:11:14.56	358.89	40.66	-43.9	-50.0	8.2	5.77e-02	0	61	0	41943040	58	7692
2026-01-24 00:11:15.57	358.70	40.91	-43.9	-50.2	8.2	6.30e-02	0	61	0	42991616	58	7829
2026-01-24 00:11:16.58	358.51	41.16	-43.8	-49.6	8.7	4.15e-02	0	61	0	45088768	58	7370
2026-01-24 00:11:17.59	358.32	41.41	-43.5	-48.9	9.6	3.05e-02	0	61	0	47185920	58	6733
2026-01-24 00:11:18.60	358.12	41.67	-43.5	-48.6	9.8	1.28e-02	0	61	0	49283072	58	6547
2026-01-24 00:11:19.61	357.93	41.92	-43.2	-47.9	10.6	4.93e-03	0	61	0	51380224	58	6007
2026-01-24 00:11:20.62	357.72	42.18	-43.2	-48.0	10.3	6.20e-03	0	61	0	52428800	58	6121
2026-01-24 00:11:21.62	357.52	42.43	-43.1	-47.8	10.7	7.18e-03	0	61	0	54525952	58	5937
2026-01-24 00:11:22.63	357.31	42.69	-43.4	-48.6	9.8	3.69e-03	0	61	0	56623104	58	6543
2026-01-24 00:11:23.64	357.10	42.95	-43.2	-47.9	10.6	2.70e-03	0	61	0	58720256	57	6364
2026-01-24 00:11:24.65	356.88	43.21	-43.0	-47.4	11.0	2.22e-03	0	61	0	60817408	57	6049
2026-01-24 00:11:25.66	356.67	43.48	-42.9	-47.3	11.2	3.85e-03	0	61	0	61865984	57	5951
2026-01-24 00:11:26.67	356.44	43.74	-42.9	-47.3	11.1	1.50e-03	0	62	0	63963136	57	5982
2026-01-24 00:11:27.68	356.22	44.01	-42.8	-47.1	11.4	9.44e-04	0	61	0	66060288	57	5815
2026-01-24 00:11:28.69	355.99	44.27	-42.6	-46.5	11.9	5.84e-04	0	61	0	68157440	57	5451
2026-01-24 00:11:29.70	355.75	44.54	-42.4	-46.1	12.4	2.11e-04	0	62	0	70254592	56	5507
2026-01-24 00:11:30.71	355.51	44.81	-42.4	-46.1	12.3	1.84e-04	0	61	0	71303168	56	5524
2026-01-24 00:11:31.72	355.27	45.08	-42.2	-45.7	12.8	1.35e-04	0	61	0	73400320	56	5272
2026-01-24 00:11:32.73	355.02	45.35	-42.5	-46.4	12.1	2.86e-04	0	62	0	75497472	56	5679
2026-01-24 00:11:33.74	354.77	45.63	-42.6	-46.6	11.9	4.26e-04	0	61	0	77594624	56	5819
2026-01-24 00:11:34.75	354.52	45.90	-42.6	-46.5	11.9	3.84e-04	0	62	0	79691776	56	5777
2026-01-24 00:11:35.76	354.26	46.18	-42.6	-46.6	11.9	5.26e-04	0	61	0	81788928	56	5789
2026-01-24 00:11:36.77	353.99	46.46	-42.4	-46.3	12.1	2.74e-04	0	61	0	82837504	56	5618
2026-01-24 00:11:37.78	353.72	46.73	-42.4	-46.3	12.1	2.81e-04	0	62	0	84934656	56	5621
2026-01-24 00:11:38.79	353.45	47.01	-42.3	-45.9	12.5	1.83e-04	0	61	0	87031808	56	5400
2026-01-24 00:11:39.80	353.17	47.29	-42.4	-46.3	12.1	2.28e-04	0	61	0	89128960	56	5642
2026-01-24 00:11:40.81	352.88	47.58	-42.5	-46.4	12.0	3.13e-04	0	61	0	91226112	56	5670
2026-01-24 00:11:41.82	352.59	47.86	-42.7	-46.9	11.6	4.00e-04	0	61	0	92274688	56	6017
2026-01-24 00:11:42.83	352.30	48.14	-42.7	-46.8	11.7	7.91e-04	0	61	0	94371840	56	5979
2026-01-24 00:11:43.84	352.00	48.43	-42.5	-46.5	12.0	3.36e-04	0	61	0	96468992	56	5733
2026-01-24 00:11:44.85	351.69	48.71	-42.2	-45.8	12.5	2.10e-04	0	61	0	98566144	56	5334
2026-01-24 00:11:45.86	351.38	49.00	-42.1	-45.7	12.8	7.40e-05	0	61	0	100663296	56	5233
2026-01-24 00:11:46.87	351.06	49.29	-42.0	-45.5	13.0	5.41e-05	0	61	0	101711872	56	5112
2026-01-24 00:11:47.87	350.74	49.57	-41.8	-45.2	13.1	2.21e-05	0	61	0	103809024	55	5251
2026-01-24 00:11:48.88	350.41	49.86	-41.5	-44.6	13.5	6.80e-06	0	61	0	105906176	55	4904
2026-01-24 00:11:49.89	350.07	50.15	-41.2	-44.1	14.2	2.20e-06	0	62	0	108003328	54	4902
2026-01-24 00:11:50.90	349.73	50.44	-40.9	-43.7	14.6	0.00e+00	0	62	0	110100480	53	4980
2026-01-24 00:11:51.91	349.38	50.74	-40.9	-43.7	14.7	7.00e-07	0	62	0	111149056	53	4938
2026-01-24 00:11:52.92	349.02	51.03	-40.9	-43.7	14.6	0.00e+00	0	62	0	113246208	53	4948
2026-01-24 00:11:53.93	348.66	51.32	-41.2	-44.1	14.2	1.50e-06	0	61	0	115343360	53	5189
2026-01-24 00:11:54.94	348.28	51.62	-41.3	-44.3	14.1	3.00e-06	0	61	0	117440512	53	5283
2026-01-24 00:11:55.95	347.90	51.91	-41.3	-44.4	13.9	1.50e-06	0	62	0	119537664	53	5347
2026-01-24 00:11:56.96	347.52	52.20	-41.3	-44.3	14.0	4.50e-06	0	62	0	120586240	53	5296
2026-01-24 00:11:57.97	347.12	52.50	-41.3	-44.4	14.0	1.50e-06	0	61	0	122683392	53	5350
2026-01-24 00:11:58.98	346.72	52.80	-41.8	-45.1	13.2	6.80e-06	0	61	0	124780544	54	5528
2026-01-24 00:11:59.99	346.31	53.09	-42.0	-45.6	12.8	4.27e-05	0	62	0	126877696	54	5813
2026-01-24 00:12:01.00	345.89	53.39	-42.4	-46.4	11.9	2.68e-04	0	61	0	128974848	55	6020
2026-01-24 00:12:02.01	345.46	53.68	-42.4	-46.4	12.0	4.49e-04	0	62	0	130023424	55	5993
2026-01-24 00:12:03.02	345.02	53.98	-42.2	-46.0	12.3	1.51e-04	0	62	0	132120576	55	5782
2026-01-24 00:12:04.03	344.58	54.28	-42.1	-45.9	12.5	1.17e-04	0	61	0	134217728	55	5672
2026-01-24 00:12:05.03	344.13	54.57	-42.4	-46.3	12.0	2.32e-04	0	61	0	136314880	55	5980
2026-01-24 00:12:06.04	343.66	54.86	-42.6	-46.8	11.5	7.24e-04	0	62	0	138412032	55	6290
2026-01-24 00:12:07.05	343.19	55.16	-42.6	-46.9	11.4	1.22e-03	0	61	0	139460608	55	6354
2026-01-24 00:12:08.06	342.70	55.45	-42.4	-46.3	11.9	5.89e-04	0	61	0	141557760	55	5992
2026-01-24 00:12:09.07	342.21	55.75	-42.5	-46.5	11.8	3.81e-04	0	61	0	143654912	55	6108
2026-01-24 00:12:10.08	341.70	56.04	-42.5	-46.5	11.8	4.39e-04	0	62	0	145752064	55	6113
2026-01-24 00:12:11.09	341.18	56.34	-42.5	-46.4	11.8	3.82e-04	0	61	0	147849216	55	6061
2026-01-24 00:12:12.10	340.65	56.63	-42.4	-46.3	11.9	4.63e-04	0	62	0	149946368	55	5990
2026-01-24 00:12:13.11	340.11	56.92	-42.6	-46.7	11.6	2.76e-04	0	62	0	150994944	55	6259
2026-01-24 00:12:14.11	339.57	57.21	-42.3	-46.1	12.2	3.00e-04	0	61	0	153092096	55	5830
2026-01-24 00:12:15.12	339.01	57.50	-42.3	-46.2	12.1	2.67e-04	0	62	0	155189248	55	5858
2026-01-24 00:12:16.13	338.43	57.79	-42.2	-46.0	12.3	1.87e-04	0	61	0	157286400	55	5747
2026-01-24 00:12:17.14	337.84	58.08	-42.4	-46.3	12.0	2.77e-04	0	61	0	159383552	55	5942
2026-01-24 00:12:18.16	337.24	58.36	-42.4	-46.5	12.0	3.79e-04	0	62	0	160432128	55	6068
2026-01-24 00:12:19.17	336.62	58.65	-42.7	-47.0	11.2	4.52e-04	0	61	0	162529280	55	6491
2026-01-24 00:12:20.17	336.00	58.93	-42.5	-46.6	11.6	5.93e-04	0	61	0	164626432	55	6177
2026-01-24 00:12:21.18	335.36	59.21	-42.3	-46.4	11.9	3.51e-04	0	61	0	166723584	55	6035
2026-01-24 00:12:22.20	334.70	59.49	-42.3	-46.1	12.2	2.01e-04	0	61	0	168820736	55	5854
2026-01-24 00:12:23.20	334.04	59.76	-42.1	-45.8	12.5	1.36e-04	0	62	0	169869312	55	5609
2026-01-24 00:12:24.22	333.35	60.04	-42.2	-45.9	12.3	1.46e-04	0	61	0	171966464	55	5703
2026-01-24 00:12:25.23	332.65	60.31	-41.8	-45.1	13.1	7.78e-05	0	61	0	174063616	55	5217
2026-01-24 00:12:26.24	331.94	60.58	-41.3	-44.4	13.7	1.14e-05	0	61	0	176160768	54	5070
2026-01-24 00:12:27.24	331.22	60.84	-40.7	-43.4	14.8	1.50e-06	0	61	0	178257920	53	4765
2026-01-24 00:12:28.26	330.47	61.11	-40.4	-43.0	15.3	0.00e+00	0	61	0	179306496	52	4821
2026-01-24 00:12:29.26	329.71	61.36	-40.8	-43.4	14.9	0.00e+00	0	61	0	181403648	52	5096
2026-01-24 00:12:30.27	328.94	61.62	-41.0	-43.9	14.3	0.00e+00	0	61	0	183500800	52	5388
2026-01-24 00:12:31.28	328.15	61.87	-41.4	-44.5	13.7	3.00e-06	0	61	0	185597952	53	5444
2026-01-24 00:12:32.29	327.34	62.12	-41.5	-44.7	13.6	9.10e-06	0	61	0	187695104	53	5547
2026-01-24 00:12:33.30	326.52	62.36	-41.5	-44.7	13.5	9.10e-06	0	61	0	188743680	53	5547
2026-01-24 00:12:34.31	325.68	62.60	-41.5	-44.9	13.3	5.30e-06	0	61	0	190840832	53	5706
2026-01-24 00:12:35.32	324.82	62.84	-41.7	-45.1	13.1	1.44e-05	0	61	0	192937984	53	5844
2026-01-24 00:12:36.33	323.94	63.07	-41.5	-44.7	13.5	2.44e-05	0	61	0	195035136	54	5279
2026-01-24 00:12:37.34	323.05	63.29	-40.9	-43.7	14.5	1.50e-06	0	62	0	197132288	53	4975
2026-01-24 00:12:38.35	322.14	63.51	-41.2	-44.2	14.1	0.00e+00	0	61	0	198180864	53	5251
2026-01-24 00:12:39.35	321.23	63.72	-41.5	-44.7	13.5	3.80e-06	0	61	0	200278016	53	5551
2026-01-24 00:12:40.36	320.29	63.93	-41.5	-44.7	13.6	1.37e-05	0	61	0	202375168	53	5549
2026-01-24 00:12:41.37	319.33	64.14	-41.0	-43.8	14.3	3.80e-06	0	61	0	204472320	53	5030
2026-01-24 00:12:42.38	318.35	64.33	-40.5	-43.0	15.1	0.00e+00	0	62	0	206569472	53	4590
2026-01-24 00:12:43.39	317.36	64.53	-40.4	-43.0	15.2	0.00e+00	0	61	0	207618048	52	4829
2026-01-24 00:12:44.40	316.35	64.71	-41.0	-43.9	14.3	0.00e+00	0	61	0	209715200	52	5397
2026-01-24 00:12:45.41	315.32	64.89	-41.9	-45.5	12.9	5.30e-06	0	61	0	211812352	54	5736
2026-01-24 00:12:46.42	314.28	65.06	-42.0	-45.7	12.6	5.56e-05	0	62	0	213909504	54	5856
2026-01-24 00:12:47.43	313.22	65.22	-41.7	-45.1	13.2	4.65e-05	0	61	0	216006656	54	5527
2026-01-24 00:12:48.44	312.15	65.38	-42.1	-45.8	12.4	5.49e-05	0	61	0	218103808	54	5946
2026-01-24 00:12:49.45	311.06	65.53	-42.2	-46.0	12.2	2.35e-04	0	61	0	219152384	55	5760
2026-01-24 00:12:50.45	309.97	65.67	-41.6	-44.8	13.4	7.47e-05	0	61	0	221249536	55	5015
2026-01-24 00:12:51.46	308.86	65.80	-41.0	-43.9	14.3	8.30e-06	0	61	0	223346688	54	4786
2026-01-24 00:12:52.47	307.73	65.92	-40.9	-43.7	14.4	0.00e+00	0	61	0	225443840	53	4979
2026-01-24 00:12:53.48	306.58	66.04	-41.2	-44.2	14.1	0.00e+00	0	61	0	227540992	53	5231
2026-01-24 00:12:54.49	305.43	66.15	-41.4	-44.5	13.7	2.20e-06	0	61	0	228589568	53	5425
2026-01-24 00:12:55.50	304.27	66.25	-41.6	-44.9	13.6	8.30e-06	0	61	0	230686720	53	5684
2026-01-24 00:12:56.51	303.09	66.34	-40.9	-43.7	14.5	0.00e+00	0	61	0	232783872	53	4949
2026-01-24 00:12:57.52	301.91	66.42	-41.1	-44.0	14.2	0.00e+00	0	61	0	234881024	53	5108
2026-01-24 00:12:58.53	300.71	66.49	-41.3	-44.4	13.8	3.00e-06	0	61	0	236978176	53	5377
2026-01-24 00:12:59.54	299.51	66.55	-41.0	-43.8	14.4	3.00e-06	0	61	0	238026752	53	5003
2026-01-24 00:13:00.55	298.31	66.60	-40.5	-43.0	15.1	0.00e+00	0	61	0	240123904	52	4870
2026-01-24 00:13:01.56	297.09	66.65	-41.0	-43.9	14.3	0.00e+00	0	61	0	242221056	52	5397
2026-01-24 00:13:02.57	295.88	66.68	-41.2	-44.2	13.9	4.50e-06	0	61	0	244318208	53	5265
2026-01-24 00:13:03.58	294.66	66.70	-41.0	-44.0	14.2	5.30e-06	0	61	0	246415360	53	5110
2026-01-24 00:13:04.59	293.43	66.72	-41.1	-44.1	14.0	0.00e+00	0	61	0	247463936	53	5206
2026-01-24 00:13:05.60	292.21	66.72	-40.9	-43.8	14.4	3.00e-06	0	61	0	249561088	53	5030
2026-01-24 00:13:06.61	290.99	66.72	-40.9	-43.8	14.5	0.00e+00	0	61	0	251658240	53	4986
2026-01-24 00:13:07.61	289.78	66.70	-41.6	-45.1	13.1	9.90e-06	0	61	0	253755392	53	5789
2026-01-24 00:13:08.62	288.56	66.68	-41.9	-45.5	12.7	7.01e-05	0	61	0	255852544	54	5723
2026-01-24 00:13:09.63	287.34	66.65	-41.6	-44.9	13.3	9.90e-06	0	61	0	256901120	54	5353
2026-01-24 00:13:10.64	286.13	66.60	-41.5	-44.7	13.4	1.90e-05	0	61	0	258998272	54	5242
2026-01-24 00:13:11.65	284.92	66.55	-41.7	-45.0	13.1	2.20e-06	0	61	0	261095424	54	5436
2026-01-24 00:13:12.66	283.72	66.49	-41.1	-44.1	14.1	6.80e-06	0	61	0	263192576	54	4890
2026-01-24 00:13:13.67	282.53	66.42	-41.2	-44.3	13.9	3.00e-06	0	62	0	265289728	54	5010
2026-01-24 00:13:14.68	281.34	66.33	-41.1	-44.1	14.1	3.00e-06	0	61	0	266338304	53	5181
2026-01-24 00:13:15.69	280.17	66.24	-41.3	-44.3	13.8	2.20e-06	0	61	0	268435456	53	5340
2026-01-24 00:13:16.70	279.00	66.15	-41.1	-44.1	14.1	5.30e-06	0	61	0	270532608	53	5206
2026-01-24 00:13:17.71	277.85	66.04	-41.3	-44.5	13.7	1.14e-05	0	61	0	272629760	53	5424
2026-01-24 00:13:18.72	276.70	65.92	-41.6	-44.9	13.2	2.74e-05	0	61	0	274726912	53	5719
2026-01-24 00:13:19.73	275.57	65.80	-41.5	-44.7	13.4	2.44e-05	0	61	0	275775488	54	5253
2026-01-24 00:13:20.74	274.46	65.66	-41.6	-44.9	13.2	1.67e-05	0	61	0	277872640	54	5379
2026-01-24 00:13:21.75	273.36	65.52	-42.0	-45.6	12.5	4.73e-05	0	61	0	279969792	54	5852
2026-01-24 00:13:22.76	272.27	65.37	-41.7	-45.0	13.1	4.88e-05	0	61	0	282066944	54	5442
2026-01-24 00:13:23.77	271.19	65.22	-41.4	-44.5	13.7	1.22e-05	0	61	0	284164096	54	5134
2026-01-24 00:13:24.78	270.14	65.05	-41.3	-44.4	13.9	2.20e-06	0	61	0	286261248	54	5052
2026-01-24 00:13:25.79	269.09	64.88	-40.9	-43.7	14.4	7.00e-07	0	61	0	287309824	53	4968
2026-01-24 00:13:26.80	268.07	64.70	-40.6	-43.3	14.9	0.00e+00	0	61	0	289406976	52	5011
2026-01-24 00:13:27.81	267.06	64.52	-40.6	-43.3	14.9	0.00e+00	0	61	0	291504128	52	5019
2026-01-24 00:13:28.82	266.06	64.33	-40.8	-43.5	14.7	0.00e+00	0	61	0	293601280	52	5133
2026-01-24 00:13:29.83	265.09	64.13	-39.9	-42.1	16.2	0.00e+00	0	61	0	295698432	51	4637
2026-01-24 00:13:30.84	264.13	63.92	-40.1	-42.5	15.8	0.00e+00	0	61	0	296747008	51	4824
2026-01-24 00:13:31.85	263.19	63.71	-40.6	-43.2	15.0	7.00e-07	0	61	0	298844160	52	4950
2026-01-24 00:13:32.86	262.26	63.50	-40.2	-42.7	15.3	0.00e+00	0	61	0	300941312	52	4683
2026-01-24 00:13:33.87	261.35	63.28	-40.4	-42.9	15.4	0.00e+00	0	62	0	303038464	51	5068
2026-01-24 00:13:34.88	260.46	63.05	-40.7	-43.4	14.9	0.00e+00	0	61	0	305135616	51	5396
2026-01-24 00:13:35.89	259.58	62.82	-41.3	-44.5	13.6	1.50e-06	0	61	0	306184192	53	5459
2026-01-24 00:13:36.90	258.73	62.59	-42.2	-46.2	12.0	3.73e-05	0	62	0	308281344	54	6238
2026-01-24 00:13:37.91	257.89	62.35	-42.6	-47.0	11.1	6.30e-04	0	61	0	310378496	55	6444
2026-01-24 00:13:38.92	257.06	62.10	-42.1	-45.8	12.2	1.98e-04	0	62	0	312475648	55	5653
2026-01-24 00:13:39.93	256.25	61.85	-42.2	-46.0	12.2	1.15e-04	0	61	0	314572800	55	5784
2026-01-24 00:13:40.94	255.46	61.60	-41.9	-45.4	12.8	1.56e-04	0	61	0	315621376	55	5375
2026-01-24 00:13:41.95	254.69	61.34	-41.4	-44.5	13.7	1.06e-05	0	62	0	317718528	54	5147
2026-01-24 00:13:42.96	253.93	61.08	-41.8	-45.3	12.9	1.83e-05	0	61	0	319815680	54	5603
2026-01-24 00:13:43.97	253.18	60.82	-42.5	-46.7	11.4	3.42e-04	0	61	0	321912832	55	6253
2026-01-24 00:13:44.98	252.45	60.55	-42.9	-47.3	11.0	1.64e-03	0	61	0	324009984	56	6331
2026-01-24 00:13:45.99	251.74	60.29	-42.9	-47.4	10.8	2.47e-03	0	61	0	325058560	56	6418
2026-01-24 00:13:47.00	251.04	60.01	-43.2	-48.0	10.3	3.92e-03	0	61	0	327155712	57	6465
2026-01-24 00:13:48.01	250.36	59.74	-42.8	-47.1	11.2	2.63e-03	0	61	0	329252864	57	5839
2026-01-24 00:13:49.02	249.69	59.46	-42.4	-46.2	12.0	4.44e-04	0	61	0	331350016	56	5566
2026-01-24 00:13:50.03	249.04	59.18	-41.9	-45.3	12.9	8.16e-05	0	62	0	333447168	55	5308
2026-01-24 00:13:51.04	248.40	58.90	-42.2	-46.0	12.2	1.14e-04	0	61	0	334495744	55	5779
2026-01-24 00:13:52.05	247.77	58.62	-43.0	-47.7	10.6	8.91e-04	0	61	0	336592896	56	6604
2026-01-24 00:13:53.06	247.15	58.33	-43.3	-48.6	9.7	4.38e-03	0	61	0	338690048	57	6885
2026-01-24 00:13:54.07	246.55	58.05	-43.4	-48.7	9.5	1.10e-02	0	61	0	340787200	57	6972
2026-01-24 00:13:55.07	245.97	57.76	-43.0	-47.5	10.8	2.73e-03	0	61	0	342884352	57	6092
2026-01-24 00:13:56.08	245.40	57.47	-43.0	-47.5	10.7	2.05e-03	0	61	0	343932928	57	6091
2026-01-24 00:13:57.09	244.83	57.18	-43.5	-48.9	9.4	4.17e-03	0	61	0	346030080	57	7137
2026-01-24 00:13:58.10	244.28	56.89	-43.7	-49.5	8.7	3.02e-02	0	61	0	348127232	57	7663
2026-01-24 00:13:59.11	243.74	56.60	-43.3	-48.4	9.8	1.50e-02	0	61	0	350224384	57	6768
2026-01-24 00:14:00.13	243.21	56.30	-42.7	-46.9	11.4	8.71e-03	0	61	0	352321536	57	5701
2026-01-24 00:14:01.13	242.69	56.01	-42.8	-47.0	11.2	1.36e-03	0	61	0	354418688	57	5782
2026-01-24 00:14:02.14	242.19	55.72	-42.6	-46.6	11.7	6.65e-04	0	61	0	355467264	57	5506
2026-01-24 00:14:03.16	241.69	55.42	-43.0	-47.8	10.6	1.64e-03	0	61	0	357564416	56	6652
2026-01-24 00:14:04.16	241.21	55.12	-42.3	-46.3	12.1	7.60e-04	0	61	0	359661568	56	5600
2026-01-24 00:14:05.17	240.73	54.83	-42.2	-45.8	12.5	2.08e-04	0	61	0	361758720	56	5321
2026-01-24 00:14:06.18	240.27	54.53	-42.2	-46.0	12.4	8.54e-05	0	61	0	363855872	56	5412
2026-01-24 00:14:07.19	239.81	54.23	-42.0	-45.5	12.9	6.40e-05	0	61	0	364904448	56	5132
2026-01-24 00:14:08.20	239.36	53.94	-41.7	-45.1	13.1	1.52e-05	0	61	0	367001600	55	5208
2026-01-24 00:14:09.21	238.93	53.64	-41.8	-45.3	12.9	5.87e-05	0	61	0	369098752	55	5292
2026-01-24 00:14:10.22	238.50	53.34	-42.2	-46.1	12.2	1.55e-04	0	61	0	371195904	55	5802
2026-01-24 00:14:11.23	238.08	53.05	-41.9	-45.5	12.6	3.50e-04	0	61	0	373293056	55	5443
2026-01-24 00:14:12.24	237.67	52.75	-42.1	-46.0	12.1	2.10e-04	0	61	0	374341632	55	5781
2026-01-24 00:14:13.25	237.26	52.45	-42.4	-46.5	11.7	4.04e-04	0	61	0	376438784	55	6064
2026-01-24 00:14:14.25	236.87	52.16	-42.4	-46.5	11.7	7.09e-04	0	61	0	378535936	55	6071
2026-01-24 00:14:15.26	236.48	51.86	-42.0	-45.7	12.5	3.04e-04	0	61	0	380633088	55	5588
2026-01-24 00:14:16.27	236.10	51.57	-41.7	-45.1	13.1	1.21e-04	0	62	0	382730240	55	5162
2026-01-24 00:14:17.28	235.73	51.27	-41.6	-44.9	13.3	1.44e-05	0	61	0	383778816	54	5399
2026-01-24 00:14:18.29	235.37	50.98	-42.0	-45.6	12.6	3.58e-05	0	61	0	385875968	54	5824
2026-01-24 00:14:19.30	235.01	50.69	-41.6	-45.0	13.3	2.28e-05	0	61	0	387973120	54	5404
2026-01-24 00:14:20.31	234.66	50.39	-41.7	-45.1	13.1	2.28e-05	0	61	0	390070272	54	5525
2026-01-24 00:14:21.32	234.31	50.10	-41.9	-45.4	12.8	4.80e-05	0	61	0	392167424	54	5699
2026-01-24 00:14:22.33	233.98	49.81	-42.3	-46.3	11.9	2.20e-04	0	61	0	393216000	55	5935
2026-01-24 00:14:23.34	233.65	49.52	-42.7	-47.1	11.0	7.57e-04	0	61	0	395313152	55	6535
2026-01-24 00:14:24.35	233.32	49.23	-43.0	-47.7	10.6	1.45e-03	0	61	0	397410304	56	6635
2026-01-24 00:14:25.36	233.00	48.94	-43.3	-48.6	9.7	4.28e-03	0	61	0	399507456	57	6909
2026-01-24 00:14:26.37	232.69	48.65	-42.9	-47.4	10.8	1.18e-02	0	61	0	401604608	57	6058
2026-01-24 00:14:27.38	232.38	48.37	-42.2	-45.8	12.4	3.62e-04	0	61	0	402653184	56	5338
2026-01-24 00:14:28.39	232.08	48.08	-42.0	-45.6	12.7	5.64e-05	0	62	0	404750336	55	5505
2026-01-24 00:14:29.40	231.79	47.80	-42.3	-46.3	11.9	9.53e-05	0	61	0	406847488	55	5940
2026-01-24 00:14:30.41	231.50	47.51	-42.5	-46.8	11.3	1.20e-03	0	62	0	408944640	55	6325
2026-01-24 00:14:31.41	231.21	47.23	-41.9	-45.6	12.6	1.83e-04	0	61	0	411041792	55	5468
2026-01-24 00:14:32.42	230.93	46.95	-41.4	-44.5	13.7	1.14e-05	0	61	0	412090368	54	5137
2026-01-24 00:14:33.42	230.66	46.67	-41.9	-45.6	12.6	5.34e-05	0	61	0	414187520	54	5794
2026-01-24 00:14:34.43	230.39	46.40	-42.4	-46.7	11.5	4.64e-04	0	61	0	416284672	55	6240
2026-01-24 00:14:35.44	230.13	46.12	-43.2	-48.2	10.0	3.77e-03	0	61	0	418381824	56	7038
2026-01-24 00:14:36.45	229.87	45.84	-43.4	-49.0	9.2	1.44e-02	0	61	0	420478976	57	7252
2026-01-24 00:14:37.46	229.61	45.57	-43.8	-50.3	7.8	4.15e-02	0	61	0	421527552	58	7927
2026-01-24 00:14:38.47	229.36	45.29	-43.6	-49.4	8.7	5.31e-02	0	61	0	423624704	58	7156
2026-01-24 00:14:39.48	229.11	45.02	-43.2	-48.1	9.9	2.17e-02	0	61	0	425721856	58	6200
2026-01-24 00:14:40.49	228.87	44.75	-43.0	-47.6	10.7	2.21e-03	0	61	0	427819008	57	6189
2026-01-24 00:14:41.50	228.63	44.48	-43.2	-48.2	10.1	3.79e-03	0	61	0	429916160	57	6603
2026-01-24 00:14:42.51	228.40	44.21	-43.0	-47.8	10.4	8.88e-03	0	61	0	430964736	57	6304
2026-01-24 00:14:43.52	228.16	43.94	-42.8	-47.1	11.1	3.74e-03	0	61	0	433061888	57	5836
2026-01-24 00:14:44.53	227.94	43.67	-42.6	-46.7	11.6	7.32e-04	0	61	0	435159040	57	5571
2026-01-24 00:14:45.54	227.71	43.41	-42.5	-46.7	11.7	8.03e-04	0	61	0	437256192	56	5866
2026-01-24 00:14:46.55	227.50	43.14	-42.2	-46.0	12.4	2.22e-04	0	61	0	439353344	56	5410
2026-01-24 00:14:47.56	227.28	42.88	-42.1	-45.7	12.5	9.30e-05	0	61	0	440401920	56	5246
2026-01-24 00:14:48.57	227.07	42.62	-42.0	-45.8	12.5	1.01e-04	0	62	0	442499072	55	5614
2026-01-24 00:14:49.57	226.86	42.36	-42.3	-46.3	11.9	2.10e-04	0	61	0	444596224	55	5989
2026-01-24 00:14:50.58	226.65	42.10	-42.5	-46.8	11.4	3.75e-04	0	61	0	446693376	55	6311
2026-01-24 00:14:51.59	226.45	41.85	-43.2	-48.2	10.1	2.66e-03	0	61	0	448790528	57	6584
2026-01-24 00:14:52.60	226.25	41.59	-43.6	-49.3	8.9	1.75e-02	0	61	0	450887680	57	7537
2026-01-24 00:14:53.61	226.06	41.34	-44.0	-50.6	7.6	6.26e-02	0	61	0	451936256	58	8209
2026-01-24 00:14:54.62	225.87	41.08	-43.8	-50.0	8.2	6.38e-02	0	61	0	454033408	58	7704
2026-01-24 00:14:55.63	225.68	40.83	-44.2	-51.5	6.8	9.02e-02	0	61	0	456130560	58	9083
2026-01-24 00:14:56.64	225.49	40.58	-44.1	-51.1	7.2	1.35e-01	0	62	0	458227712	59	8231
2026-01-24 00:14:57.65	225.30	40.33	-43.7	-49.5	8.7	7.18e-02	0	61	0	460324864	59	6828
2026-01-24 00:14:58.66	225.12	40.08	-42.8	-47.3	10.9	1.50e-02	0	61	0	461373440	57	5924
2026-01-24 00:14:59.67	224.95	39.84	-42.6	-46.7	11.6	8.55e-04	0	61	0	463470592	57	5546
2026-01-24 00:15:00.68	224.77	39.59	-42.4	-46.4	11.8	3.57e-04	0	61	0	465567744	56	5679
2026-01-24 00:15:01.69	224.60	39.35	-42.2	-45.9	12.4	2.28e-04	0	61	0	467664896	56	5389
2026-01-24 00:15:02.70	224.43	39.11	-42.4	-46.2	12.0	2.25e-04	0	61	0	469762048	56	5584
2026-01-24 00:15:03.71	224.26	38.87	-42.8	-47.1	11.2	4.61e-04	0	61	0	470810624	56	6180
2026-01-24 00:15:04.72	224.09	38.63	-42.6	-46.8	11.5	1.61e-03	0	61	0	472907776	56	5977
2026-01-24 00:15:05.73	223.93	38.39	-42.8	-47.3	11.0	1.79e-03	0	61	0	475004928	56	6278
2026-01-24 00:15:06.74	223.77	38.16	-43.3	-48.5	9.8	5.48e-03	0	62	0	477102080	57	6802
2026-01-24 00:15:07.75	223.61	37.92	-43.4	-49.0	9.2	1.36e-02	0	62	0	479199232	57	7217
2026-01-24 00:15:08.76	223.46	37.69	-43.8	-49.9	8.3	3.04e-02	0	61	0	480247808	58	7607
2026-01-24 00:15:09.77	223.30	37.45	-43.7	-49.6	8.5	3.30e-02	0	62	0	482344960	58	7358
2026-01-24 00:15:10.77	223.15	37.23	-43.8	-50.0	8.3	6.73e-02	0	61	0	484442112	58	7657
2026-01-24 00:15:11.78	223.00	37.00	-43.8	-50.1	8.2	5.87e-02	0	61	0	486539264	58	7751
2026-01-24 00:15:12.79	222.86	36.77	-43.8	-50.1	8.0	6.77e-02	0	61	0	488636416	58	7781
2026-01-24 00:15:13.80	222.71	36.54	-43.8	-50.2	7.9	6.69e-02	0	61	0	489684992	58	7877
2026-01-24 00:15:14.81	222.57	36.32	-44.0	-51.0	7.2	9.13e-02	0	62	0	491782144	58	8587
2026-01-24 00:15:15.82	222.43	36.09	-43.6	-49.6	8.6	4.54e-02	0	62	0	493879296	58	7291
2026-01-24 00:15:16.83	222.29	35.87	-43.6	-49.6	8.7	3.16e-02	0	61	0	495976448	58	7339
2026-01-24 00:15:17.84	222.15	35.65	-43.5	-49.0	9.2	3.76e-02	0	61	0	498073600	58	6827
2026-01-24 00:15:18.85	222.02	35.43	-43.4	-48.9	9.3	2.07e-02	0	62	0	499122176	58	6756
2026-01-24 00:15:19.86	221.88	35.21	-43.3	-48.6	9.5	1.74e-02	0	62	0	501219328	58	6566
2026-01-24 00:15:20.87	221.75	34.99	-43.4	-48.9	9.3	1.32e-02	0	61	0	503316480	58	6740
2026-01-24 00:15:21.88	221.62	34.78	-43.0	-47.7	10.5	9.90e-03	0	61	0	505413632	58	5909
2026-01-24 00:15:22.89	221.49	34.56	-42.3	-46.3	12.0	4.97e-04	0	61	0	507510784	56	5610
2026-01-24 00:15:23.90	221.37	34.35	-42.3	-46.1	12.2	2.97e-04	0	62	0	508559360	56	5509
2026-01-24 00:15:24.91	221.24	34.14	-41.9	-45.5	12.6	1.33e-04	0	61	0	510656512	55	5463
2026-01-24 00:15:25.92	221.12	33.93	-42.3	-46.3	11.8	3.13e-04	0	62	0	512753664	55	5936
2026-01-24 00:15:26.93	221.00	33.72	-42.5	-46.9	11.1	8.46e-04	0	61	0	514850816	55	6371
2026-01-24 00:15:27.94	220.88	33.51	-43.1	-48.1	10.1	2.86e-03	0	61	0	516947968	56	6941
2026-01-24 00:15:28.95	220.76	33.30	-43.4	-48.8	9.4	1.44e-02	0	61	0	519045120	57	7064
2026-01-24 00:15:29.96	220.64	33.10	-43.3	-48.6	9.5	1.37e-02	0	61	0	520093696	57	6954
2026-01-24 00:15:30.97	220.53	32.89	-43.0	-47.8	10.4	9.71e-03	0	61	0	522190848	57	6307
2026-01-24 00:15:31.98	220.41	32.69	-42.9	-47.4	10.8	3.31e-03	0	61	0	524288000	57	6038
2026-01-24 00:15:32.99	220.30	32.49	-42.9	-47.5	10.7	3.19e-03	0	61	0	526385152	57	6079
2026-01-24 00:15:34.00	220.19	32.29	-43.1	-48.1	10.1	3.17e-03	0	62	0	528482304	57	6511
2026-01-24 00:15:35.01	220.08	32.09	-43.2	-48.4	9.7	1.08e-02	0	61	0	529530880	57	6778
2026-01-24 00:15:36.02	219.97	31.89	-43.1	-48.0	10.2	7.67e-03	0	61	0	531628032	57	6459
2026-01-24 00:15:37.03	219.86	31.69	-42.8	-47.4	10.8	4.95e-03	0	62	0	533725184	57	6052
2026-01-24 00:15:38.04	219.76	31.50	-42.5	-46.7	11.5	1.66e-03	0	61	0	535822336	57	5557
2026-01-24 00:15:39.05	219.65	31.30	-42.2	-46.1	12.1	3.36e-04	0	62	0	537919488	56	5503
2026-01-24 00:15:40.05	219.55	31.11	-42.2	-46.0	12.3	1.11e-04	0	61	0	538968064	56	5428
2026-01-24 00:15:41.07	219.45	30.91	-42.2	-46.0	12.2	1.55e-04	0	61	0	541065216	56	5443
2026-01-24 00:15:42.07	219.35	30.73	-42.2	-46.0	12.2	2.66e-04	0	62	0	543162368	56	5457
2026-01-24 00:15:43.09	219.25	30.53	-42.4	-46.4	11.8	5.31e-04	0	61	0	545259520	56	5691
2026-01-24 00:15:44.09	219.15	30.35	-42.6	-46.9	11.4	8.81e-04	0	62	0	547356672	56	6032
2026-01-24 00:15:45.10	219.06	30.16	-42.6	-46.8	11.4	8.64e-04	0	62	0	548405248	56	5985
2026-01-24 00:15:46.11	218.96	29.97	-42.6	-47.0	11.2	1.14e-03	0	61	0	550502400	56	6116
2026-01-24 00:15:47.12	218.87	29.79	-42.6	-46.9	11.3	1.27e-03	0	61	0	552599552	56	6003
2026-01-24 00:15:48.13	218.77	29.60	-42.8	-47.2	11.0	1.62e-03	0	61	0	554696704	56	6268
2026-01-24 00:15:49.14	218.68	29.42	-43.0	-47.8	10.4	3.99e-03	0	61	0	556793856	56	6698
2026-01-24 00:15:50.15	218.59	29.24	-43.4	-48.9	9.2	1.12e-02	0	61	0	557842432	57	7146
2026-01-24 00:15:51.16	218.50	29.05	-43.5	-49.4	8.7	2.44e-02	0	62	0	559939584	57	7580
2026-01-24 00:15:52.17	218.41	28.87	-43.8	-50.4	7.8	7.39e-02	0	61	0	562036736	58	8015
2026-01-24 00:15:53.18	218.32	28.70	-43.9	-50.6	7.6	1.13e-01	0	62	0	564133888	58	8183
2026-01-24 00:15:54.19	218.23	28.52	-43.7	-49.9	7.9	1.10e-01	0	61	0	566231040	58	7613
2026-01-24 00:15:55.19	218.15	28.34	-43.7	-50.0	8.1	6.60e-02	0	61	0	567279616	58	7654
2026-01-24 00:15:56.21	218.06	28.16	-43.6	-49.6	8.4	4.46e-02	0	62	0	569376768	58	7368
2026-01-24 00:15:57.22	217.98	27.99	-43.4	-49.0	9.1	3.05e-02	0	62	0	571473920	58	6862
2026-01-24 00:15:58.23	217.89	27.82	-43.3	-48.6	9.4	1.39e-02	0	62	0	573571072	58	6570
2026-01-24 00:15:59.24	217.81	27.64	-43.0	-48.0	10.2	7.98e-03	0	61	0	575668224	58	6086
2026-01-24 00:16:00.24	217.73	27.47	-43.1	-48.0	10.1	6.16e-03	0	61	0	576716800	58	6120
2026-01-24 00:16:01.26	217.65	27.30	-43.1	-48.1	10.1	6.75e-03	0	61	0	578813952	58	6177
2026-01-24 00:16:02.26	217.57	27.13	-42.9	-47.7	10.3	4.30e-03	0	61	0	580911104	57	6238
2026-01-24 00:16:03.27	217.49	26.96	-42.8	-47.4	10.7	3.69e-03	0	61	0	583008256	57	6016
2026-01-24 00:16:04.28	217.41	26.80	-42.7	-47.2	10.9	1.82e-03	0	61	0	585105408	57	5892
2026-01-24 00:16:05.29	217.33	26.63	-42.5	-46.7	11.5	1.26e-03	0	62	0	587202560	57	5564
2026-01-24 00:16:06.30	217.26	26.46	-42.4	-46.5	11.7	7.06e-04	0	61	0	588251136	56	5729
2026-01-24 00:16:07.31	217.18	26.30	-42.4	-46.4	11.7	6.46e-04	0	61	0	590348288	56	5722
2026-01-24 00:16:08.32	217.11	26.13	-42.3	-46.4	11.8	4.87e-04	0	62	0	592445440	56	5669
2026-01-24 00:16:09.33	217.03	25.97	-42.2	-46.2	12.0	4.74e-04	0	61	0	594542592	56	5566
2026-01-24 00:16:10.34	216.96	25.81	-42.3	-46.3	11.8	5.45e-04	0	61	0	596639744	56	5652
2026-01-24 00:16:11.35	216.89	25.65	-42.5	-46.7	11.4	8.99e-04	0	61	0	597688320	56	5890
2026-01-24 00:16:12.36	216.82	25.49	-42.6	-47.0	11.1	1.33e-03	0	62	0	599785472	56	6122
2026-01-24 00:16:13.37	216.74	25.33	-42.5	-46.9	11.2	1.85e-03	0	61	0	601882624	56	6010
2026-01-24 00:16:14.37	216.68	25.17	-42.7	-47.4	10.7	2.39e-03	0	61	0	603979776	56	6399
2026-01-24 00:16:15.38	216.61	25.01	-42.8	-47.4	10.6	3.51e-03	0	61	0	606076928	56	6417
2026-01-24 00:16:16.39	216.54	24.86	-42.7	-47.3	10.8	3.12e-03	0	61	0	607125504	56	6333
2026-01-24 00:16:17.40	216.47	24.70	-42.7	-47.3	10.7	3.23e-03	0	62	0	609222656	56	6331
2026-01-24 00:16:18.41	216.40	24.55	-42.9	-47.7	10.4	3.28e-03	0	61	0	611319808	56	6616
2026-01-24 00:16:19.42	216.33	24.39	-42.8	-47.6	10.4	4.61e-03	0	61	0	613416960	56	6548
2026-01-24 00:16:20.43	216.27	24.24	-42.8	-47.5	10.6	3.26e-03	0	61	0	615514112	56	6442
2026-01-24 00:16:21.44	216.20	24.09	-43.0	-48.0	10.0	5.18e-03	0	61	0	616562688	56	6854
2026-01-24 00:16:22.45	216.14	23.94	-43.1	-48.2	9.9	8.62e-03	0	61	0	618659840	56	7019
2026-01-24 00:16:23.46	216.07	23.78	-43.0	-48.2	9.8	1.15e-02	0	61	0	620756992	56	7008
2026-01-24 00:16:24.46	216.01	23.64	-43.2	-48.7	9.2	1.49e-02	0	61	0	622854144	57	7022
2026-01-24 00:16:25.47	215.95	23.49	-43.2	-48.6	9.4	1.64e-02	0	61	0	624951296	57	6951
2026-01-24 00:16:26.48	215.89	23.34	-43.3	-49.0	9.1	1.81e-02	0	62	0	625999872	57	7247
2026-01-24 00:16:27.50	215.82	23.19	-43.3	-49.0	9.0	2.91e-02	0	62	0	628097024	57	7223
2026-01-24 00:16:28.50	215.76	23.05	-43.3	-48.8	9.2	2.14e-02	0	61	0	630194176	57	7113
2026-01-24 00:16:29.51	215.70	22.90	-43.1	-48.5	9.6	1.51e-02	0	61	0	632291328	57	6820
2026-01-24 00:16:30.52	215.64	22.75	-43.0	-48.1	9.9	1.13e-02	0	62	0	634388480	57	6557
2026-01-24 00:16:31.53	215.58	22.61	-42.7	-47.3	10.9	6.31e-03	0	62	0	635437056	57	5928
2026-01-24 00:16:32.55	215.52	22.47	-42.5	-46.9	11.1	2.68e-03	0	61	0	637534208	57	5687
2026-01-24 00:16:33.55	215.47	22.32	-42.6	-47.1	11.0	1.60e-03	0	62	0	639631360	57	5848
2026-01-24 00:16:34.56	215.41	22.18	-42.3	-46.3	11.8	6.63e-04	0	61	0	641728512	56	5654
2026-01-24 00:16:35.57	215.35	22.04	-42.1	-46.1	12.0	2.74e-04	0	61	0	643825664	56	5475
2026-01-24 00:16:36.58	215.30	21.90	-42.0	-45.9	12.2	2.55e-04	0	62	0	644874240	56	5372
2026-01-24 00:16:37.59	215.24	21.76	-41.6	-45.2	12.7	1.04e-04	0	61	0	646971392	55	5261
2026-01-24 00:16:38.60	215.18	21.62	-41.6	-45.1	12.8	5.87e-05	0	61	0	649068544	55	5201
2026-01-24 00:16:39.61	215.13	21.48	-41.5	-45.1	12.8	4.95e-05	0	62	0	651165696	55	5173
2026-01-24 00:16:40.62	215.08	21.35	-41.4	-44.9	13.1	5.41e-05	0	61	0	653262848	54	5354
2026-01-24 00:16:41.63	215.02	21.21	-41.4	-44.9	13.0	4.73e-05	0	61	0	655360000	54	5365
2026-01-24 00:16:42.63	214.97	21.07	-41.5	-45.0	13.0	5.18e-05	0	62	0	656408576	54	5422
2026-01-24 00:16:43.64	214.92	20.94	-41.6	-45.1	12.8	5.11e-05	0	62	0	658505728	54	5501
2026-01-24 00:16:44.65	214.86	20.80	-41.5	-45.1	12.8	5.41e-05	0	62	0	660602880	54	5500
2026-01-24 00:16:45.66	214.81	20.67	-41.6	-45.2	12.7	6.63e-05	0	62	0	662700032	54	5542
2026-01-24 00:16:46.67	214.76	20.54	-41.6	-45.2	12.7	5.72e-05	0	61	0	664797184	54	5568
2026-01-24 00:16:47.68	214.71	20.40	-41.6	-45.3	12.6	6.33e-05	0	62	0	665845760	54	5618
2026-01-24 00:16:48.69	214.66	20.27	-41.8	-45.6	12.3	9.99e-05	0	61	0	667942912	54	5805
2026-01-24 00:16:49.70	214.61	20.14	-41.7	-45.5	12.4	9.00e-05	0	62	0	670040064	54	5769
2026-01-24 00:16:50.71	214.56	20.01	-41.9	-45.9	12.0	2.91e-04	0	62	0	672137216	54	6038
2026-01-24 00:16:51.72	214.51	19.88	-42.0	-46.1	11.8	4.97e-04	0	61	0	674234368	54	6133
2026-01-24 00:16:52.73	214.46	19.75	-42.0	-46.0	11.8	5.09e-04	0	62	0	675282944	54	6088
2026-01-24 00:16:53.74	214.41	19.62	-42.1	-46.2	11.6	6.51e-04	0	61	0	677380096	54	6254
2026-01-24 00:16:54.75	214.36	19.49	-42.1	-46.2	11.6	6.20e-04	0	62	0	679477248	54	6257
2026-01-24 00:16:55.76	214.32	19.37	-42.1	-46.3	11.5	9.38e-04	0	61	0	681574400	54	6339
2026-01-24 00:16:56.77	214.27	19.24	-42.1	-46.2	11.6	8.46e-04	0	62	0	683671552	54	6264
2026-01-24 00:16:57.78	214.22	19.11	-42.2	-46.4	11.4	8.58e-04	0	62	0	684720128	54	6403
2026-01-24 00:16:58.79	214.18	18.99	-42.2	-46.4	11.4	1.16e-03	0	61	0	686817280	55	6058
2026-01-24 00:16:59.80	214.13	18.86	-42.2	-46.4	11.4	9.86e-04	0	62	0	688914432	55	6041
2026-01-24 00:17:00.80	214.09	18.74	-42.1	-46.3	11.5	1.02e-03	0	61	0	691011584	55	5974
2026-01-24 00:17:01.81	214.04	18.62	-42.2	-46.5	11.4	9.51e-04	0	62	0	693108736	55	6076
2026-01-24 00:17:02.82	214.00	18.49	-42.2	-46.5	11.3	1.17e-03	0	62	0	694157312	55	6081
2026-01-24 00:17:03.83	213.95	18.37	-42.3	-46.6	11.2	9.55e-04	0	62	0	696254464	55	6174
2026-01-24 00:17:04.84	213.91	18.25	-42.3	-46.8	11.0	1.24e-03	0	62	0	698351616	55	6331
2026-01-24 00:17:05.85	213.86	18.13	-42.4	-47.0	10.8	2.62e-03	0	62	0	700448768	55	6424
2026-01-24 00:17:06.86	213.82	18.01	-42.3	-46.8	11.0	2.41e-03	0	62	0	702545920	55	6322
2026-01-24 00:17:07.87	213.78	17.89	-42.6	-47.5	10.2	3.46e-03	0	62	0	703594496	55	6844
2026-01-24 00:17:08.88	213.74	17.77	-42.6	-47.5	10.2	5.92e-03	0	62	0	705691648	55	6845
2026-01-24 00:17:09.88	213.69	17.65	-42.9	-48.0	9.9	6.19e-03	0	62	0	707788800	56	6816
2026-01-24 00:17:10.89	213.65	17.53	-42.9	-48.0	9.9	9.40e-03	0	62	0	709885952	56	6834
2026-01-24 00:17:11.90	213.61	17.41	-42.9	-48.1	9.7	1.08e-02	0	61	0	711983104	56	6949
2026-01-24 00:17:12.91	213.57	17.30	-42.9	-48.1	9.7	1.21e-02	0	62	0	713031680	56	6947
2026-01-24 00:17:13.92	213.53	17.18	-42.9	-48.0	9.8	1.09e-02	0	61	0	715128832	56	6871
2026-01-24 00:17:14.93	213.49	17.06	-42.9	-48.0	9.9	1.09e-02	0	61	0	717225984	56	6805
2026-01-24 00:17:15.94	213.45	16.95	-42.8	-47.8	10.1	7.67e-03	0	62	0	719323136	56	6670
2026-01-24 00:17:16.95	213.41	16.83	-42.7	-47.5	10.3	5.54e-03	0	62	0	721420288	56	6463
2026-01-24 00:17:17.96	213.37	16.72	-42.5	-47.0	10.8	4.57e-03	0	62	0	722468864	56	6127
2026-01-24 00:17:18.97	213.33	16.60	-42.3	-46.7	11.3	1.20e-03	0	62	0	724566016	56	5857
2026-01-24 00:17:19.98	213.29	16.49	-42.3	-46.5	11.4	1.09e-03	0	61	0	726663168	56	5784
2026-01-24 00:17:20.99	213.25	16.38	-42.1	-46.1	11.7	7.88e-04	0	61	0	728760320	56	5516
2026-01-24 00:17:22.00	213.21	16.26	-41.8	-45.7	12.0	3.35e-04	0	61	0	730857472	55	5571
2026-01-24 00:17:23.01	213.18	16.15	-41.8	-45.7	12.1	2.89e-04	0	62	0	731906048	55	5553
2026-01-24 00:17:24.02	213.14	16.04	-41.6	-45.4	12.4	1.75e-04	0	62	0	734003200	55	5342
2026-01-24 00:17:25.03	213.10	15.93	-41.5	-45.2	12.6	1.01e-04	0	62	0	736100352	55	5223
2026-01-24 00:17:26.03	213.06	15.82	-41.5	-45.1	12.6	1.36e-04	0	61	0	738197504	55	5195
2026-01-24 00:17:27.04	213.03	15.71	-41.6	-45.2	12.5	8.54e-05	0	62	0	740294656	55	5269
2026-01-24 00:17:28.05	212.99	15.60	-41.5	-45.0	12.7	1.10e-04	0	61	0	741343232	54	5456
2026-01-24 00:17:29.06	212.95	15.49	-41.6	-45.3	12.4	1.33e-04	0	62	0	743440384	54	5654
2026-01-24 00:17:30.08	212.92	15.38	-41.6	-45.4	12.3	1.57e-04	0	62	0	745537536	54	5682
2026-01-24 00:17:31.08	212.88	15.27	-41.6	-45.3	12.4	2.32e-04	0	62	0	747634688	54	5638
2026-01-24 00:17:32.09	212.85	15.16	-41.6	-45.4	12.3	1.64e-04	0	62	0	749731840	54	5713
2026-01-24 00:17:33.10	212.81	15.06	-41.9	-45.9	11.7	3.86e-04	0	61	0	751828992	54	6046
2026-01-24 00:17:34.11	212.78	14.95	-41.9	-46.1	11.6	5.58e-04	0	62	0	752877568	54	6135
2026-01-24 00:17:35.12	212.74	14.84	-42.0	-46.2	11.5	6.87e-04	0	61	0	754974720	54	6249
2026-01-24 00:17:36.13	212.71	14.74	-42.0	-46.1	11.5	1.07e-03	0	61	0	757071872	54	6200
2026-01-24 00:17:37.14	212.68	14.63	-42.1	-46.5	11.2	1.11e-03	0	62	0	759169024	54	6456
2026-01-24 00:17:38.15	212.64	14.53	-42.1	-46.5	11.2	1.21e-03	0	62	0	761266176	54	6442
2026-01-24 00:17:39.16	212.61	14.42	-42.2	-46.7	11.0	1.53e-03	0	61	0	762314752	54	6576
2026-01-24 00:17:40.17	212.58	14.32	-42.3	-47.0	10.6	3.15e-03	0	61	0	764411904	55	6454
2026-01-24 00:17:41.18	212.54	14.21	-42.3	-47.0	10.6	3.52e-03	0	62	0	766509056	55	6434
2026-01-24 00:17:42.19	212.51	14.11	-42.3	-47.1	10.5	3.15e-03	0	62	0	768606208	55	6509
2026-01-24 00:17:43.20	212.48	14.01	-42.4	-47.2	10.4	4.07e-03	0	62	0	770703360	55	6621
2026-01-24 00:17:44.21	212.44	13.91	-42.2	-46.7	10.8	3.72e-03	0	62	0	771751936	55	6272
2026-01-24 00:17:45.21	212.41	13.80	-42.3	-47.1	10.5	3.19e-03	0	62	0	773849088	55	6518
2026-01-24 00:17:46.22	212.38	13.70	-42.3	-47.1	10.5	4.23e-03	0	62	0	775946240	55	6495
2026-01-24 00:17:47.23	212.35	13.60	-42.3	-47.0	10.6	3.07e-03	0	62	0	778043392	55	6450
2026-01-24 00:17:48.24	212.32	13.50	-42.3	-46.9	10.6	3.16e-03	0	62	0	780140544	55	6396
2026-01-24 00:17:49.25	212.29	13.40	-42.2	-46.8	10.7	3.11e-03	0	61	0	781189120	55	6338
2026-01-24 00:17:50.26	212.26	13.30	-42.2	-46.7	10.8	2.69e-03	0	62	0	783286272	55	6222
2026-01-24 00:17:51.27	212.23	13.20	-42.1	-46.6	10.9	2.66e-03	0	62	0	785383424	55	6168
2026-01-24 00:17:52.28	212.20	13.10	-42.0	-46.4	11.1	1.88e-03	0	62	0	787480576	55	6058
2026-01-24 00:17:53.29	212.17	13.00	-42.1	-46.5	11.0	1.83e-03	0	62	0	789577728	55	6127
2026-01-24 00:17:54.30	212.14	12.90	-42.1	-46.5	11.1	1.44e-03	0	62	0	790626304	55	6097
2026-01-24 00:17:55.31	212.11	12.81	-42.0	-46.4	11.1	1.29e-03	0	62	0	792723456	55	6059
2026-01-24 00:17:56.32	212.08	12.71	-42.0	-46.3	11.2	1.42e-03	0	62	0	794820608	55	5936
2026-01-24 00:17:57.33	212.05	12.61	-42.0	-46.4	11.1	1.47e-03	0	61	0	796917760	55	6020
2026-01-24 00:17:58.34	212.02	12.51	-42.0	-46.3	11.2	1.52e-03	0	61	0	799014912	55	5942
2026-01-24 00:17:59.35	211.99	12.42	-41.9	-46.2	11.3	1.29e-03	0	61	0	800063488	55	5906
2026-01-24 00:18:00.36	211.96	12.32	-42.0	-46.3	11.2	1.33e-03	0	62	0	802160640	55	5986
2026-01-24 00:18:01.37	211.93	12.23	-42.0	-46.4	11.1	1.51e-03	0	61	0	804257792	55	6022
2026-01-24 00:18:02.37	211.90	12.13	-42.0	-46.4	11.1	1.30e-03	0	62	0	806354944	55	6014
2026-01-24 00:18:03.38	211.88	12.04	-42.0	-46.4	11.1	1.62e-03	0	62	0	808452096	55	6000
2026-01-24 00:18:04.39	211.85	11.94	-42.0	-46.4	11.1	1.46e-03	0	61	0	809500672	55	6009
2026-01-24 00:18:05.40	211.82	11.85	-42.1	-46.6	10.9	2.41e-03	0	62	0	811597824	55	6140
2026-01-24 00:18:06.41	211.79	11.75	-42.0	-46.4	11.1	2.10e-03	0	62	0	813694976	55	6029
2026-01-24 00:18:07.42	211.77	11.66	-42.0	-46.5	11.0	1.82e-03	0	62	0	815792128	55	6099
2026-01-24 00:18:08.43	211.74	11.57	-42.1	-46.6	10.9	2.65e-03	0	62	0	817889280	55	6168
2026-01-24 00:18:09.44	211.71	11.47	-42.0	-46.5	10.9	2.42e-03	0	62	0	819986432	55	6100
2026-01-24 00:18:10.45	211.68	11.38	-42.2	-46.9	10.5	2.65e-03	0	62	0	821035008	55	6402
2026-01-24 00:18:11.46	211.66	11.29	-42.2	-46.9	10.5	4.00e-03	0	61	0	823132160	55	6373
2026-01-24 00:18:12.47	211.63	11.20	-42.1	-46.7	10.7	2.63e-03	0	61	0	825229312	55	6228
2026-01-24 00:18:13.48	211.61	11.11	-42.2	-46.9	10.5	3.14e-03	0	62	0	827326464	55	6408
2026-01-24 00:18:14.49	211.58	11.01	-42.2	-47.0	10.4	4.16e-03	0	61	0	829423616	55	6451
2026-01-24 00:18:15.49	211.55	10.92	-42.2	-47.0	10.5	3.70e-03	0	62	0	830472192	55	6439
2026-01-24 00:18:16.50	211.53	10.83	-42.2	-47.0	10.4	4.08e-03	0	62	0	832569344	55	6459
2026-01-24 00:18:17.51	211.50	10.74	-42.2	-47.1	10.3	4.62e-03	0	61	0	834666496	55	6515
2026-01-24 00:18:18.52	211.48	10.65	-42.2	-47.1	10.3	5.96e-03	0	62	0	836763648	55	6517
2026-01-24 00:18:19.53	211.45	10.56	-42.2	-47.0	10.4	5.45e-03	0	62	0	838860800	55	6459
2026-01-24 00:18:20.54	211.43	10.47	-42.2	-47.2	10.2	5.54e-03	0	61	0	839909376	55	6583
2026-01-24 00:18:21.55	211.40	10.39	-42.2	-47.1	10.2	6.64e-03	0	62	0	842006528	55	6566
2026-01-24 00:18:22.56	211.38	10.30	-42.2	-47.0	10.3	5.19e-03	0	61	0	844103680	55	6432
2026-01-24 00:18:23.57	211.35	10.21	-42.2	-47.1	10.2	6.11e-03	0	61	0	846200832	55	6518
2026-01-24 00:18:24.58	211.33	10.12	-42.3	-47.3	10.0	7.45e-03	0	61	0	848297984	55	6666
2026-01-24 00:18:25.59	211.30	10.03	-42.3	-47.3	9.9	7.26e-03	0	62	0	849346560	55	6704
2026-01-24 00:18:26.60	211.28	9.95	-42.2	-47.1	10.2	6.69e-03	0	62	0	851443712	55	6546
2026-01-24 00:18:27.61	211.26	9.86	-42.3	-47.4	9.9	7.76e-03	0	62	0	853540864	55	6724
2026-01-24 00:18:28.62	211.23	9.77	-42.2	-47.3	10.0	8.26e-03	0	61	0	855638016	55	6652
2026-01-24 00:18:29.63	211.21	9.68	-42.2	-47.3	10.0	7.00e-03	0	61	0	857735168	55	6663
2026-01-24 00:18:30.64	211.19	9.60	-42.3	-47.5	9.7	8.54e-03	0	62	0	858783744	55	6823
2026-01-24 00:18:31.65	211.16	9.51	-42.2	-47.2	10.0	1.09e-02	0	62	0	860880896	55	6640
2026-01-24 00:18:32.66	211.14	9.43	-42.2	-47.2	10.0	7.97e-03	0	61	0	862978048	55	6616
2026-01-24 00:18:33.67	211.12	9.34	-42.3	-47.4	9.8	9.42e-03	0	62	0	865075200	55	6760
2026-01-24 00:18:34.68	211.09	9.26	-42.2	-47.4	9.8	9.90e-03	0	61	0	867172352	55	6731
2026-01-24 00:18:35.69	211.07	9.17	-42.2	-47.4	9.7	9.42e-03	0	62	0	868220928	55	6755
2026-01-24 00:18:36.70	211.05	9.09	-42.2	-47.4	9.7	1.08e-02	0	61	0	870318080	55	6776
2026-01-24 00:18:37.71	211.03	9.00	-42.2	-47.3	9.8	1.04e-02	0	62	0	872415232	55	6701
2026-01-24 00:18:38.72	211.00	8.92	-42.1	-47.5	9.6	1.19e-02	0	61	0	874512384	55	6843
2026-01-24 00:18:39.73	210.98	8.84	-42.2	-47.3	9.8	1.15e-02	0	62	0	876609536	55	6700
2026-01-24 00:18:40.74	210.96	8.75	-42.2	-47.5	9.6	1.16e-02	0	62	0	877658112	55	6847
2026-01-24 00:18:41.75	210.94	8.67	-42.2	-47.5	9.6	1.38e-02	0	62	0	879755264	55	6826
2026-01-24 00:18:42.76	210.92	8.59	-42.2	-47.5	9.6	1.27e-02	0	62	0	881852416	55	6823
2026-01-24 00:18:43.77	210.90	8.50	-42.2	-47.6	9.5	1.46e-02	0	61	0	883949568	55	6902
2026-01-24 00:18:44.78	210.87	8.42	-42.2	-47.5	9.5	1.56e-02	0	62	0	886046720	55	6877
2026-01-24 00:18:45.79	210.85	8.34	-42.2	-47.5	9.6	1.39e-02	0	62	0	887095296	55	6841
2026-01-24 00:18:46.80	210.83	8.26	-42.4	-48.0	9.0	1.70e-02	0	61	0	889192448	55	7231
2026-01-24 00:18:47.81	210.81	8.18	-42.2	-47.6	9.4	1.69e-02	0	62	0	891289600	55	6907
2026-01-24 00:18:48.82	210.79	8.10	-42.3	-47.9	9.0	1.87e-02	0	61	0	893386752	55	7199
2026-01-24 00:18:49.83	210.77	8.01	-42.3	-47.7	9.2	1.97e-02	0	61	0	895483904	55	7032
2026-01-24 00:18:50.83	210.75	7.93	-44.2	-56.5	4.0	5.63e-01	0	62	0	896532480	58	16290
2026-01-24 00:18:51.85	210.73	7.85	-44.7	-59.2	3.8	1.49e+00	0	61	104	896532480	59	20791
2026-01-24 00:18:52.85	210.71	7.77	-44.8	-59.5	3.8	1.49e+00	0	62	104	896532480	60	20495
2026-01-24 00:18:53.86	210.69	7.69	-45.0	-59.6	3.8	1.49e+00	0	62	104	896532480	60	20712
2026-01-24 00:18:54.87	210.67	7.61	-45.0	-59.7	3.8	1.49e+00	0	62	104	896532480	60	20952
2026-01-24 00:18:55.89	210.65	7.53	-45.1	-59.8	3.8	1.49e+00	0	61	104	896532480	60	21124
2026-01-24 00:18:56.90	210.63	7.45	-45.2	-59.8	3.8	1.49e+00	0	61	104	896532480	60	21136
2026-01-24 00:18:57.91	210.61	7.38	-45.2	-59.8	3.8	1.49e+00	0	62	104	896532480	60	21240
2026-01-24 00:18:58.92	210.59	7.30	-45.2	-59.9	3.8	1.49e+00	0	61	104	896532480	60	21308
2026-01-24 00:18:59.93	210.57	7.22	-45.2	-59.8	3.8	1.49e+00	0	62	104	896532480	61	20012
2026-01-24 00:19:00.94	210.55	7.14	-45.1	-59.8	3.8	1.49e+00	0	62	104	896532480	61	19889
2026-01-24 00:19:01.95	210.53	7.06	-45.1	-59.7	3.8	1.49e+00	0	62	104	896532480	61	19837
2026-01-24 00:19:02.96	210.51	6.98	-45.1	-59.8	3.8	1.49e+00	0	61	104	896532480	61	19865
2026-01-24 00:19:03.97	210.49	6.91	-45.1	-59.7	3.8	1.49e+00	0	62	104	896532480	61	19798
2026-01-24 00:19:04.98	210.47	6.83	-45.1	-59.7	3.8	1.49e+00	0	62	104	896532480	61	19702
2026-01-24 00:19:05.99	210.45	6.75	-45.2	-59.8	3.8	1.49e+00	0	62	104	896532480	61	19864
2026-01-24 00:19:07.00	210.44	6.67	-45.1	-59.7	3.8	1.49e+00	0	62	104	896532480	61	19657
2026-01-24 00:19:08.01	210.42	6.60	-45.1	-59.7	3.8	1.49e+00	0	61	104	896532480	61	19676
2026-01-24 00:19:09.02	210.40	6.52	-45.1	-59.7	3.8	1.49e+00	0	62	104	896532480	61	19732
2026-01-24 00:19:10.03	210.38	6.45	-45.1	-59.7	3.8	1.49e+00	0	62	104	896532480	61	19649
2026-01-24 00:19:11.05	210.36	6.37	-45.1	-59.7	3.8	1.49e+00	0	61	104	896532480	61	19699
2026-01-24 00:19:12.06	210.34	6.29	-45.1	-59.6	3.8	1.49e+00	0	61	104	896532480	61	19583
2026-01-24 00:19:13.07	210.33	6.22	-45.1	-59.7	3.8	1.49e+00	0	62	104	896532480	61	19642
2026-01-24 00:19:14.08	210.31	6.14	-45.1	-59.7	3.8	1.49e+00	0	62	104	896532480	61	19629
2026-01-24 00:19:15.09	210.29	6.07	-45.1	-59.6	3.8	1.49e+00	0	61	104	896532480	61	19607
2026-01-24 00:19:16.10	210.27	5.99	-45.1	-59.6	3.8	1.49e+00	0	61	104	896532480	61	19605
2026-01-24 00:19:17.11	210.25	5.92	-45.1	-59.6	3.8	1.49e+00	0	61	104	896532480	61	19593
2026-01-24 00:19:18.12	210.24	5.84	-45.0	-59.7	3.8	1.49e+00	0	61	104	896532480	61	19620
2026-01-24 00:19:19.13	210.22	5.77	-45.1	-59.6	3.8	1.49e+00	0	62	104	896532480	61	19523
2026-01-24 00:19:20.14	210.20	5.69	-45.0	-59.6	3.8	1.49e+00	0	62	104	896532480	61	19608
2026-01-24 00:19:21.15	210.19	5.62	-45.0	-59.6	3.8	1.49e+00	0	62	104	896532480	61	19602
2026-01-24 00:19:22.16	210.17	5.55	-45.0	-59.6	3.8	1.49e+00	0	61	104	896532480	61	19599
2026-01-24 00:19:23.17	210.15	5.47	-45.0	-59.7	3.8	1.49e+00	0	61	104	896532480	61	19631
2026-01-24 00:19:24.18	210.13	5.40	-45.0	-59.6	3.8	1.49e+00	0	62	104	896532480	61	19556
2026-01-24 00:19:25.19	210.12	5.33	-45.0	-59.6	3.8	1.49e+00	0	62	104	896532480	61	19545
2026-01-24 00:19:26.20	210.10	5.25	-45.0	-59.6	3.8	1.49e+00	0	62	104	896532480	61	19496
2026-01-24 00:19:27.21	210.08	5.18	-45.0	-59.6	3.8	1.49e+00	0	62	104	896532480	61	19590
2026-01-24 00:19:28.22	210.07	5.11	-45.0	-59.6	3.8	1.49e+00	0	62	104	896532480	61	19578
2026-01-24 00:19:29.23	210.05	5.04	-45.0	-59.6	3.8	1.49e+00	0	62	104	896532480	61	19583
2026-01-24 00:19:30.24	210.04	4.97	-45.0	-59.6	3.8	1.49e+00	0	62	104	896532480	61	19573
2026-01-24 00:19:31.25	210.02	4.89	-45.0	-59.6	3.8	1.49e+00	0	61	104	896532480	61	19553
2026-01-24 00:19:32.26	210.00	4.82	-45.0	-59.6	3.8	1.49e+00	0	62	104	896532480	61	19596
2026-01-24 00:19:33.27	209.99	4.75	-45.0	-59.6	3.8	1.49e+00	0	62	104	896532480	61	19563
2026-01-24 00:19:34.28	209.97	4.68	-45.0	-59.6	3.8	1.49e+00	0	61	104	896532480	61	19607
2026-01-24 00:19:35.29	209.95	4.61	-45.0	-59.7	3.8	1.49e+00	0	61	104	896532480	61	19620
2026-01-24 00:19:36.30	209.94	4.54	-45.0	-59.6	3.8	1.49e+00	0	62	104	896532480	61	19549
2026-01-24 00:19:37.31	209.92	4.47	-45.0	-59.6	3.8	1.49e+00	0	61	104	896532480	61	19613
2026-01-24 00:19:38.33	209.91	4.39	-45.0	-59.6	3.8	1.49e+00	0	62	104	896532480	61	19547
2026-01-24 00:19:39.34	209.89	4.32	-45.0	-59.6	3.8	1.49e+00	0	62	104	896532480	61	19512
2026-01-24 00:19:40.34	209.88	4.25	-45.0	-59.6	3.8	1.49e+00	0	62	104	896532480	61	19526
2026-01-24 00:19:41.35	209.86	4.18	-45.0	-59.6	3.8	1.49e+00	0	62	104	896532480	61	19576
2026-01-24 00:19:42.37	209.85	4.11	-45.0	-59.6	3.8	1.49e+00	0	62	104	896532480	61	19572
2026-01-24 00:19:43.38	209.83	4.04	-45.0	-59.6	3.8	1.49e+00	0	61	104	896532480	61	19472
2026-01-24 00:19:44.38	209.82	3.98	-44.9	-59.6	3.8	1.49e+00	0	61	104	896532480	61	19470
2026-01-24 00:19:45.40	209.80	3.91	-45.0	-59.6	3.8	1.49e+00	0	61	104	896532480	61	19538
2026-01-24 00:19:46.41	209.79	3.84	-45.0	-59.6	3.8	1.49e+00	0	61	104	896532480	61	19553
2026-01-24 00:19:47.42	209.77	3.77	-45.0	-59.6	3.8	1.49e+00	0	62	104	896532480	61	19556
2026-01-24 00:19:48.43	209.76	3.70	-45.0	-59.6	3.8	1.49e+00	0	62	104	896532480	61	19540
2026-01-24 00:19:49.44	209.74	3.63	-45.0	-59.6	3.8	1.49e+00	0	62	104	896532480	61	19570
2026-01-24 00:19:50.45	209.73	3.56	-45.0	-59.6	3.8	1.49e+00	0	62	104	896532480	61	19537
2026-01-24 00:19:51.46	209.71	3.49	-45.0	-59.7	3.8	1.49e+00	0	62	104	896532480	61	19638
2026-01-24 00:19:52.47	209.70	3.43	-45.0	-59.6	3.8	1.49e+00	0	61	104	896532480	61	19514
2026-01-24 00:19:53.48	209.68	3.36	-45.0	-59.6	3.8	1.49e+00	0	62	104	896532480	61	19516
2026-01-24 00:19:54.49	209.67	3.29	-45.0	-59.6	3.8	1.49e+00	0	62	104	896532480	61	19586
2026-01-24 00:19:55.50	209.66	3.22	-45.0	-59.6	3.8	1.49e+00	0	62	104	896532480	61	19561
2026-01-24 00:19:56.51	209.64	3.15	-45.0	-59.6	3.8	1.49e+00	0	62	104	896532480	61	19593
2026-01-24 00:19:57.52	209.63	3.09	-44.9	-59.6	3.8	1.49e+00	0	62	104	896532480	61	19470
2026-01-24 00:19:58.53	209.61	3.02	-45.0	-59.6	3.8	1.49e+00	0	62	104	896532480	61	19508
2026-01-24 00:19:59.54	209.60	2.95	-45.0	-59.6	3.8	1.49e+00	0	62	104	896532480	61	19511
2026-01-24 00:20:00.55	209.59	2.89	-45.0	-59.6	3.8	1.49e+00	0	61	104	896532480	61	19602
2026-01-24 00:20:01.56	209.57	2.82	-45.0	-59.6	3.8	1.49e+00	0	62	104	896532480	61	19508
2026-01-24 00:20:02.57	209.56	2.75	-45.0	-59.6	3.8	1.49e+00	0	62	104	896532480	61	19501
2026-01-24 00:20:03.59	209.54	2.69	-45.0	-59.6	3.8	1.49e+00	0	62	104	896532480	61	19502
2026-01-24 00:20:04.60	209.53	2.62	-45.0	-59.6	3.8	1.49e+00	0	61	104	896532480	61	19520
2026-01-24 00:20:05.61	209.52	2.55	-45.0	-59.6	3.8	1.49e+00	0	62	104	896532480	61	19469
2026-01-24 00:20:06.62	209.50	2.49	-45.0	-59.6	3.8	1.49e+00	0	62	104	896532480	61	19544
2026-01-24 00:20:07.63	209.49	2.42	-45.0	-59.6	3.8	1.49e+00	0	62	104	896532480	61	19509
2026-01-24 00:20:08.64	209.48	2.36	-45.0	-59.6	3.8	1.49e+00	0	62	104	896532480	61	19515
2026-01-24 00:20:09.65	209.46	2.29	-45.0	-59.6	3.8	1.49e+00	0	62	104	896532480	61	19496
2026-01-24 00:20:10.66	209.45	2.23	-45.0	-59.6	3.8	1.49e+00	0	62	104	896532480	61	19526
2026-01-24 00:20:11.67	209.44	2.16	-45.0	-59.6	3.8	1.49e+00	0	62	104	896532480	61	19484
2026-01-24 00:20:12.68	209.42	2.10	-45.0	-59.6	3.8	1.49e+00	0	62	104	896532480	61	19441
2026-01-24 00:20:13.69	209.41	2.03	-45.0	-59.6	3.8	1.49e+00	0	62	104	896532480	61	19456

#Closed at: 2026-01-24 00:20:14
#Recorded file [896 MB]: D:/lorett/data/31039_260124_031005.dat