passes_logs/2026/01/24/R2.0S_Moscow/R2.0S_Moscow__20260124_013548_AQUA_rec.log

#Pass ID: 20260124_013548_AQUA
#Satellite: AQUA
#Configuration: AQUA
#almurnet v.1.7.20251203
#Start time: 2026-01-24 01:35:48

#Version: 2.2.20231116
#Station: R2.0S_Moscow
#Location: 37.707566 lon 55.798166 lat
#TLE: 1 27424U 02022A   26022.96978264  .00001879  00000+0  38593-3 0  9993
#TLE: 2 27424  98.4100 349.5315 0001958  69.4371  21.4765 14.61848807262053

#Time	Az	El	Level	Level2	SNR	BER	BlckErr	Temp	State	Recorded	gain1	gain2
2026-01-24 01:35:48.28	14.25	2.01	-43.9	-62.8	3.8	7.45e-01	0	53	0	0	59	31480
2026-01-24 01:35:49.28	14.24	2.08	-43.9	-62.8	3.8	7.44e-01	0	53	104	0	58	33340
2026-01-24 01:35:50.29	14.23	2.15	-43.9	-62.8	3.8	7.45e-01	0	53	104	0	58	33411
2026-01-24 01:35:51.30	14.22	2.21	-43.9	-62.8	3.8	7.43e-01	0	53	104	0	58	33375
2026-01-24 01:35:52.31	14.21	2.28	-43.9	-62.8	3.8	7.44e-01	0	53	104	0	58	33360
2026-01-24 01:35:53.32	14.20	2.35	-43.9	-62.8	3.8	7.48e-01	0	53	104	0	58	33331
2026-01-24 01:35:54.33	14.19	2.41	-43.9	-62.8	3.8	7.46e-01	0	53	104	0	58	33319
2026-01-24 01:35:55.35	14.19	2.48	-43.9	-62.8	3.8	7.43e-01	0	53	104	0	58	33367
2026-01-24 01:35:56.36	14.18	2.55	-43.9	-62.7	3.8	7.47e-01	0	53	104	0	58	33290
2026-01-24 01:35:57.37	14.17	2.62	-43.9	-62.7	3.8	7.47e-01	0	54	104	0	58	33305
2026-01-24 01:35:58.38	14.16	2.69	-43.9	-62.8	3.8	7.45e-01	0	54	104	0	58	33341
2026-01-24 01:35:59.39	14.15	2.76	-43.9	-62.7	3.8	7.46e-01	0	53	104	0	58	33304
2026-01-24 01:36:00.40	14.14	2.83	-43.9	-62.8	3.8	7.43e-01	0	54	104	0	58	33333
2026-01-24 01:36:01.41	14.13	2.89	-43.9	-62.8	3.8	7.46e-01	0	54	104	0	58	33358
2026-01-24 01:36:02.42	14.12	2.96	-43.9	-62.8	3.8	7.44e-01	0	54	104	0	58	33330
2026-01-24 01:36:03.43	14.11	3.03	-43.9	-62.7	3.8	7.47e-01	0	54	104	0	58	33286
2026-01-24 01:36:04.44	14.10	3.10	-43.9	-62.8	3.8	7.44e-01	0	54	104	0	58	33313
2026-01-24 01:36:05.45	14.09	3.17	-43.9	-62.7	3.8	7.47e-01	0	54	104	0	58	33217
2026-01-24 01:36:06.46	14.08	3.24	-43.9	-62.7	3.8	7.46e-01	0	54	104	0	58	33280
2026-01-24 01:36:07.47	14.07	3.31	-44.0	-62.8	3.8	7.48e-01	0	54	104	0	58	33388
2026-01-24 01:36:08.48	14.06	3.38	-43.9	-62.8	3.8	7.47e-01	0	54	104	0	58	33328
2026-01-24 01:36:09.49	14.05	3.45	-43.9	-62.7	3.8	7.48e-01	0	54	104	0	58	33273
2026-01-24 01:36:10.50	14.04	3.52	-43.9	-62.7	3.8	7.45e-01	0	54	104	0	58	33259
2026-01-24 01:36:11.51	14.03	3.59	-43.9	-62.7	3.8	7.46e-01	0	55	104	0	58	33195
2026-01-24 01:36:12.53	14.02	3.67	-43.9	-62.7	3.8	7.44e-01	0	54	104	0	58	33086
2026-01-24 01:36:13.54	14.01	3.74	-43.9	-62.7	3.8	7.45e-01	0	55	104	0	58	33016
2026-01-24 01:36:14.55	14.00	3.81	-43.9	-62.6	3.8	7.48e-01	0	55	104	0	58	32827
2026-01-24 01:36:15.56	13.99	3.88	-43.9	-62.6	3.8	7.47e-01	0	55	104	0	58	32648
2026-01-24 01:36:16.57	13.98	3.95	-43.9	-62.6	3.8	7.45e-01	0	55	104	0	58	32561
2026-01-24 01:36:17.58	13.97	4.02	-43.9	-62.5	3.8	7.43e-01	0	55	104	0	58	32551
2026-01-24 01:36:18.59	13.96	4.10	-43.9	-62.5	3.8	7.46e-01	0	55	104	0	58	32180
2026-01-24 01:36:19.60	13.95	4.17	-43.9	-62.4	3.8	7.45e-01	0	55	104	0	58	31966
2026-01-24 01:36:20.61	13.94	4.24	-43.8	-62.3	3.8	7.45e-01	0	55	104	0	58	31794
2026-01-24 01:36:21.62	13.93	4.31	-43.8	-62.3	3.8	7.43e-01	0	55	104	0	58	31533
2026-01-24 01:36:22.63	13.91	4.39	-43.8	-62.2	3.8	7.48e-01	0	55	104	0	58	31264
2026-01-24 01:36:23.64	13.90	4.46	-43.8	-62.2	3.8	7.44e-01	0	55	104	0	58	31135
2026-01-24 01:36:24.65	13.89	4.53	-43.8	-62.2	3.8	7.45e-01	0	55	104	0	58	31339
2026-01-24 01:36:25.66	13.88	4.61	-43.8	-62.1	3.8	7.49e-01	0	55	104	0	58	31079
2026-01-24 01:36:26.67	13.87	4.68	-43.8	-62.1	3.8	7.45e-01	0	55	104	0	58	30956
2026-01-24 01:36:27.68	13.86	4.76	-43.8	-62.2	3.8	7.43e-01	0	55	104	0	58	31443
2026-01-24 01:36:28.69	13.85	4.83	-43.8	-62.2	3.8	7.46e-01	0	56	104	0	58	31104
2026-01-24 01:36:29.70	13.84	4.91	-43.8	-62.1	3.8	7.44e-01	0	56	104	0	58	30860
2026-01-24 01:36:30.71	13.82	4.98	-43.8	-62.1	3.8	7.47e-01	0	55	104	0	58	31059
2026-01-24 01:36:31.72	13.81	5.06	-43.8	-62.1	3.8	7.46e-01	0	55	104	0	58	30926
2026-01-24 01:36:32.73	13.80	5.13	-43.8	-61.9	3.8	7.46e-01	0	56	104	0	58	30225
2026-01-24 01:36:33.74	13.79	5.21	-43.7	-61.8	3.8	7.43e-01	0	56	104	0	58	29877
2026-01-24 01:36:34.75	13.78	5.28	-43.7	-61.8	3.8	7.44e-01	0	56	104	0	58	29774
2026-01-24 01:36:35.76	13.76	5.36	-43.7	-61.6	3.8	7.46e-01	0	56	104	0	58	29153
2026-01-24 01:36:36.77	13.75	5.44	-43.6	-61.3	3.8	7.45e-01	0	56	104	0	58	28324
2026-01-24 01:36:37.78	13.74	5.51	-43.6	-61.2	3.8	7.44e-01	0	56	104	0	58	27849
2026-01-24 01:36:38.80	13.73	5.59	-43.6	-61.2	3.8	7.48e-01	0	56	104	0	58	27761
2026-01-24 01:36:39.81	13.71	5.67	-43.6	-61.1	3.8	7.44e-01	0	56	104	0	58	27447
2026-01-24 01:36:40.82	13.70	5.74	-43.6	-61.1	3.8	7.44e-01	0	56	104	0	58	27396
2026-01-24 01:36:41.83	13.69	5.82	-43.6	-61.0	3.8	7.45e-01	0	56	104	0	58	27311
2026-01-24 01:36:42.84	13.68	5.90	-43.6	-61.1	3.8	7.45e-01	0	56	104	0	58	27424
2026-01-24 01:36:43.85	13.66	5.98	-43.7	-61.2	3.8	7.48e-01	0	56	104	0	58	27815
2026-01-24 01:36:44.86	13.65	6.06	-43.7	-61.5	3.8	7.43e-01	0	56	104	0	58	28857
2026-01-24 01:36:45.87	13.64	6.14	-43.7	-61.7	3.8	7.44e-01	0	56	104	0	58	29553
2026-01-24 01:36:46.88	13.62	6.21	-43.8	-61.9	3.8	7.45e-01	0	56	104	0	58	30371
2026-01-24 01:36:47.89	13.61	6.29	-43.8	-62.2	3.8	7.41e-01	0	56	104	0	58	31315
2026-01-24 01:36:48.90	13.60	6.37	-43.8	-62.3	3.8	7.44e-01	0	56	104	0	58	31453
2026-01-24 01:36:49.91	13.58	6.45	-43.8	-62.1	3.8	7.43e-01	0	57	104	0	58	30770
2026-01-24 01:36:50.92	13.57	6.53	-43.7	-61.6	3.8	7.46e-01	0	57	104	0	58	29159
2026-01-24 01:36:51.93	13.56	6.61	-43.6	-61.0	3.8	7.44e-01	0	57	104	0	58	27116
2026-01-24 01:36:52.94	13.54	6.69	-43.4	-60.2	3.8	7.45e-01	0	57	104	0	58	24775
2026-01-24 01:36:53.95	13.53	6.77	-43.2	-59.4	3.8	7.45e-01	0	57	104	0	58	22645
2026-01-24 01:36:54.96	13.51	6.86	-42.9	-58.6	3.8	7.45e-01	0	56	104	0	57	21876
2026-01-24 01:36:55.97	13.50	6.94	-42.6	-57.8	3.8	7.47e-01	0	57	104	0	57	19957
2026-01-24 01:36:56.99	13.48	7.02	-42.4	-57.1	3.8	7.47e-01	0	57	104	0	56	19538
2026-01-24 01:36:58.00	13.47	7.10	-42.1	-56.5	3.8	7.44e-01	0	57	104	0	56	18230
2026-01-24 01:36:59.01	13.46	7.18	-41.8	-56.0	3.8	7.43e-01	0	57	104	0	55	18203
2026-01-24 01:37:00.01	13.44	7.27	-41.7	-55.6	3.8	7.47e-01	0	57	104	0	55	17400
2026-01-24 01:37:01.03	13.43	7.35	-41.6	-55.4	3.8	7.44e-01	0	57	104	0	55	17044
2026-01-24 01:37:02.04	13.41	7.43	-41.5	-55.3	3.8	7.45e-01	0	57	104	0	55	16697
2026-01-24 01:37:03.05	13.40	7.52	-41.5	-55.2	3.8	7.43e-01	0	57	104	0	54	17665
2026-01-24 01:37:04.06	13.38	7.60	-41.5	-55.3	3.8	7.42e-01	0	57	104	0	54	17869
2026-01-24 01:37:05.07	13.37	7.68	-41.7	-55.6	3.8	7.47e-01	0	57	104	0	54	18472
2026-01-24 01:37:06.08	13.35	7.77	-41.8	-55.9	3.8	7.43e-01	0	57	104	0	54	19066
2026-01-24 01:37:07.09	13.33	7.85	-42.0	-56.3	3.8	7.43e-01	0	57	104	0	54	19872
2026-01-24 01:37:08.10	13.32	7.94	-42.2	-56.7	3.8	7.44e-01	0	57	104	0	54	20897
2026-01-24 01:37:09.11	13.30	8.02	-42.3	-57.2	3.8	7.45e-01	0	57	104	0	55	20932
2026-01-24 01:37:10.12	13.29	8.11	-42.9	-57.9	3.8	7.42e-01	0	57	104	0	56	21469
2026-01-24 01:37:11.13	13.27	8.20	-42.4	-56.9	3.8	7.47e-01	0	57	104	0	56	18972
2026-01-24 01:37:12.14	13.26	8.28	-43.7	-62.3	3.8	7.43e-01	0	57	104	0	58	31454
2026-01-24 01:37:13.15	13.24	8.37	-43.3	-58.6	3.8	7.43e-01	0	57	104	0	58	20742
2026-01-24 01:37:14.16	13.22	8.46	-42.3	-57.9	3.8	7.44e-01	0	57	104	0	55	22780
2026-01-24 01:37:15.17	13.21	8.54	-41.6	-55.5	3.8	7.45e-01	0	57	104	0	55	17207
2026-01-24 01:37:16.18	13.19	8.63	-41.6	-55.4	3.8	7.47e-01	0	57	104	0	55	17058
2026-01-24 01:37:17.19	13.17	8.72	-41.6	-55.4	3.8	7.46e-01	0	58	104	0	55	17014
2026-01-24 01:37:18.20	13.16	8.81	-41.7	-55.2	3.8	7.44e-01	0	58	104	0	55	16672
2026-01-24 01:37:19.21	13.14	8.90	-41.9	-55.7	3.9	7.45e-01	0	58	104	0	55	17542
2026-01-24 01:37:20.21	13.12	8.98	-44.0	-62.5	3.8	7.42e-01	0	58	104	0	58	32181
2026-01-24 01:37:21.22	13.10	9.07	-43.1	-57.9	3.9	7.42e-01	0	58	104	0	58	19164
2026-01-24 01:37:22.23	13.09	9.16	-42.3	-57.7	3.8	7.44e-01	0	58	104	0	55	22025
2026-01-24 01:37:23.24	13.07	9.25	-41.6	-55.3	3.8	7.43e-01	0	58	104	0	55	16864
2026-01-24 01:37:24.25	13.05	9.34	-41.6	-55.3	3.8	7.44e-01	0	58	104	0	55	16759
2026-01-24 01:37:25.26	13.03	9.43	-41.5	-55.1	3.8	7.45e-01	0	58	104	0	55	16350
2026-01-24 01:37:26.27	13.01	9.53	-41.8	-55.2	3.8	7.45e-01	0	58	104	0	55	16593
2026-01-24 01:37:27.28	13.00	9.62	-41.8	-55.5	3.8	7.44e-01	0	58	104	0	55	17085
2026-01-24 01:37:28.29	12.98	9.71	-44.2	-62.7	3.8	7.43e-01	0	58	104	0	58	32937
2026-01-24 01:37:29.30	12.96	9.80	-42.7	-56.9	3.9	7.44e-01	0	58	104	0	57	17943
2026-01-24 01:37:30.31	12.94	9.89	-42.2	-57.3	3.8	7.41e-01	0	58	104	0	55	21245
2026-01-24 01:37:31.32	12.92	9.99	-41.5	-55.0	3.8	7.43e-01	0	58	104	0	54	17176
2026-01-24 01:37:32.33	12.90	10.08	-41.4	-54.8	3.8	7.47e-01	0	58	104	0	54	16716
2026-01-24 01:37:33.33	12.88	10.17	-41.3	-54.6	3.8	7.47e-01	0	58	104	0	54	16406
2026-01-24 01:37:34.34	12.86	10.27	-41.8	-55.1	3.8	7.44e-01	0	58	104	0	54	17376
2026-01-24 01:37:35.35	12.84	10.36	-41.3	-54.4	3.8	7.45e-01	0	58	104	0	54	16111
2026-01-24 01:37:36.36	12.82	10.46	-44.2	-62.4	3.9	7.42e-01	0	58	104	0	59	30225
2026-01-24 01:37:37.37	12.80	10.55	-42.4	-56.0	3.8	7.39e-01	0	58	104	0	56	17132
2026-01-24 01:37:38.38	12.78	10.65	-42.2	-57.0	3.8	7.43e-01	0	58	104	0	55	20339
2026-01-24 01:37:39.39	12.76	10.75	-41.5	-55.0	3.9	7.43e-01	0	58	104	0	55	16207
2026-01-24 01:37:40.40	12.74	10.84	-41.5	-55.0	3.8	7.42e-01	0	58	104	0	55	16223
2026-01-24 01:37:41.41	12.72	10.94	-41.5	-54.9	3.8	7.49e-01	0	58	104	0	55	15987
2026-01-24 01:37:42.42	12.70	11.04	-41.9	-55.4	3.8	7.46e-01	0	58	104	0	55	16936
2026-01-24 01:37:43.43	12.68	11.14	-41.5	-54.6	3.8	7.43e-01	0	58	104	0	55	15574
2026-01-24 01:37:44.44	12.66	11.23	-44.2	-61.6	3.9	7.39e-01	0	58	104	0	59	27395
2026-01-24 01:37:45.45	12.64	11.33	-41.8	-55.0	3.8	7.45e-01	0	58	104	0	55	16136
2026-01-24 01:37:46.46	12.62	11.43	-42.5	-57.0	3.8	7.43e-01	0	58	104	0	56	19357
2026-01-24 01:37:47.47	12.60	11.53	-41.7	-55.1	3.8	7.44e-01	0	58	104	0	55	16321
2026-01-24 01:37:48.48	12.57	11.63	-41.6	-54.9	3.8	7.45e-01	0	58	104	0	55	16006
2026-01-24 01:37:49.49	12.55	11.73	-41.9	-55.5	3.8	7.48e-01	0	58	104	0	55	17242
2026-01-24 01:37:50.50	12.53	11.83	-42.1	-55.9	3.8	7.44e-01	0	58	104	0	55	18014
2026-01-24 01:37:51.51	12.51	11.94	-42.1	-55.4	3.8	7.44e-01	0	59	104	0	55	17082
2026-01-24 01:37:52.52	12.49	12.04	-44.1	-60.8	3.9	7.42e-01	0	58	104	0	59	25007
2026-01-24 01:37:53.53	12.46	12.14	-41.6	-54.6	3.8	7.45e-01	0	59	104	0	55	15550
2026-01-24 01:37:54.54	12.44	12.24	-43.0	-49.5	12.4	6.06e-01	0	58	104	0	56	8157
2026-01-24 01:37:55.55	12.42	12.35	-43.1	-49.6	12.5	6.03e-01	0	58	0	1572864	56	8194
2026-01-24 01:37:56.56	12.39	12.45	-42.9	-48.8	13.4	6.04e-01	0	59	0	3670016	56	7476
2026-01-24 01:37:57.56	12.37	12.55	-42.7	-48.2	14.0	6.01e-01	0	59	0	5242880	56	6965
2026-01-24 01:37:58.56	12.35	12.66	-42.5	-47.5	14.8	6.00e-01	0	59	0	7340032	56	6473
2026-01-24 01:37:59.57	12.32	12.76	-42.3	-46.8	15.6	5.99e-01	0	59	0	8912896	56	5941
2026-01-24 01:38:00.58	12.30	12.87	-42.1	-46.3	16.2	6.00e-01	0	59	0	11010048	56	5605
2026-01-24 01:38:01.59	12.27	12.98	-41.8	-45.8	16.7	5.99e-01	0	59	0	13107200	55	5604
2026-01-24 01:38:02.60	12.25	13.08	-41.6	-45.3	17.3	6.00e-01	0	59	0	14680064	55	5285
2026-01-24 01:38:03.61	12.22	13.19	-41.4	-44.9	17.7	6.00e-01	0	59	0	16777216	54	5395
2026-01-24 01:38:04.62	12.20	13.30	-41.4	-44.8	17.8	5.99e-01	0	59	0	18350080	54	5312
2026-01-24 01:38:05.63	12.17	13.41	-41.3	-44.6	18.0	6.00e-01	0	59	0	20447232	54	5215
2026-01-24 01:38:06.63	12.15	13.52	-41.3	-44.6	18.1	6.00e-01	0	59	0	22544384	54	5204
2026-01-24 01:38:07.64	12.12	13.62	-41.2	-44.6	18.1	6.02e-01	0	59	0	24117248	54	5183
2026-01-24 01:38:08.65	12.09	13.74	-41.2	-44.5	18.1	5.98e-01	0	59	0	26214400	54	5154
2026-01-24 01:38:09.66	12.07	13.85	-41.1	-44.4	18.3	6.01e-01	0	59	0	27787264	54	5059
2026-01-24 01:38:10.67	12.04	13.96	-41.2	-44.5	18.3	6.00e-01	0	59	0	29884416	54	5110
2026-01-24 01:38:11.68	12.01	14.07	-41.2	-44.4	18.4	6.04e-01	0	59	0	31981568	54	5094
2026-01-24 01:38:12.69	11.99	14.18	-41.1	-44.3	18.5	6.00e-01	0	59	0	33554432	54	5033
2026-01-24 01:38:13.70	11.96	14.29	-41.1	-44.3	18.5	5.99e-01	0	59	0	35651584	54	5032
2026-01-24 01:38:14.71	11.93	14.41	-41.2	-44.3	18.5	5.99e-01	0	59	0	37748736	54	5029
2026-01-24 01:38:15.72	11.90	14.52	-41.2	-44.3	18.6	6.00e-01	0	59	0	39321600	54	5027
2026-01-24 01:38:16.72	11.88	14.64	-41.2	-44.3	18.6	6.00e-01	0	59	0	41418752	54	5037
2026-01-24 01:38:17.73	11.85	14.75	-41.1	-44.3	18.6	6.00e-01	0	59	0	42991616	54	4989
2026-01-24 01:38:18.74	11.82	14.87	-41.1	-44.2	18.7	6.01e-01	0	59	0	45088768	54	4974
2026-01-24 01:38:19.75	11.79	14.98	-41.0	-44.1	18.9	5.99e-01	0	59	0	47185920	54	4877
2026-01-24 01:38:20.76	11.76	15.10	-41.1	-44.2	18.8	6.02e-01	0	59	0	48758784	54	4945
2026-01-24 01:38:21.77	11.73	15.22	-41.2	-44.3	18.8	6.00e-01	0	59	0	50855936	54	4994
2026-01-24 01:38:22.78	11.70	15.34	-41.2	-44.2	18.8	6.01e-01	0	59	0	52428800	54	4961
2026-01-24 01:38:23.79	11.67	15.46	-41.1	-44.2	18.8	6.01e-01	0	59	0	54525952	54	4960
2026-01-24 01:38:24.80	11.64	15.58	-41.2	-44.3	18.8	6.01e-01	0	59	0	56623104	54	5015
2026-01-24 01:38:25.81	11.61	15.70	-41.3	-44.4	18.7	6.01e-01	0	59	0	58195968	54	5075
2026-01-24 01:38:26.81	11.58	15.82	-41.4	-44.5	18.7	6.02e-01	0	59	0	60293120	54	5118
2026-01-24 01:38:27.82	11.55	15.94	-41.3	-44.3	18.8	6.01e-01	0	59	0	61865984	54	5022
2026-01-24 01:38:28.83	11.52	16.06	-41.3	-44.3	18.8	5.98e-01	0	59	0	63963136	54	5040
2026-01-24 01:38:29.84	11.49	16.18	-41.3	-44.4	18.7	5.99e-01	0	59	0	66060288	54	5091
2026-01-24 01:38:30.85	11.45	16.31	-41.3	-44.4	18.7	5.99e-01	0	59	0	67633152	54	5085
2026-01-24 01:38:31.86	11.42	16.43	-41.4	-44.5	18.7	6.00e-01	0	59	0	69730304	54	5110
2026-01-24 01:38:32.87	11.39	16.56	-41.3	-44.3	18.8	6.00e-01	0	59	0	71303168	54	5036
2026-01-24 01:38:33.88	11.36	16.68	-41.3	-44.4	18.8	6.00e-01	0	59	0	73400320	54	5071
2026-01-24 01:38:34.89	11.32	16.81	-41.4	-44.4	18.8	6.01e-01	0	59	0	75497472	54	5098
2026-01-24 01:38:35.90	11.29	16.94	-41.4	-44.4	18.8	6.01e-01	0	59	0	77070336	54	5098
2026-01-24 01:38:36.91	11.25	17.06	-41.4	-44.4	18.8	6.00e-01	0	59	0	79167488	54	5083
2026-01-24 01:38:37.92	11.22	17.19	-41.4	-44.4	18.9	5.99e-01	0	59	0	81264640	54	5076
2026-01-24 01:38:38.93	11.18	17.32	-41.5	-44.5	18.8	5.98e-01	0	59	0	82837504	54	5156
2026-01-24 01:38:39.94	11.15	17.45	-41.4	-44.4	18.9	6.01e-01	0	59	0	84934656	54	5070
2026-01-24 01:38:40.95	11.11	17.58	-41.3	-44.2	19.1	6.00e-01	0	59	0	86507520	54	4970
2026-01-24 01:38:41.96	11.08	17.71	-41.3	-44.2	19.1	6.01e-01	0	59	0	88604672	54	4977
2026-01-24 01:38:42.97	11.04	17.85	-41.3	-44.3	19.1	6.00e-01	0	59	0	90701824	54	4992
2026-01-24 01:38:43.98	11.00	17.98	-41.3	-44.2	19.1	6.00e-01	0	59	0	92274688	54	4975
2026-01-24 01:38:44.99	10.97	18.11	-41.3	-44.3	19.1	6.00e-01	0	60	0	94371840	54	5002
2026-01-24 01:38:46.00	10.93	18.25	-41.2	-44.1	19.2	6.01e-01	0	59	0	95944704	54	4910
2026-01-24 01:38:47.01	10.89	18.38	-41.2	-44.1	19.2	6.00e-01	0	60	0	98041856	54	4919
2026-01-24 01:38:48.02	10.85	18.52	-41.1	-44.0	19.4	6.00e-01	0	60	0	100139008	54	4840
2026-01-24 01:38:49.03	10.82	18.66	-41.1	-44.0	19.3	6.00e-01	0	59	0	101711872	54	4844
2026-01-24 01:38:50.04	10.78	18.80	-41.2	-44.1	19.3	6.02e-01	0	60	0	103809024	54	4880
2026-01-24 01:38:51.05	10.74	18.93	-41.2	-44.2	19.2	5.99e-01	0	60	0	105906176	54	4930
2026-01-24 01:38:52.05	10.70	19.07	-41.2	-44.1	19.4	6.00e-01	0	59	0	107479040	54	4871
2026-01-24 01:38:53.06	10.66	19.21	-41.3	-44.2	19.2	6.02e-01	0	59	0	109576192	54	4981
2026-01-24 01:38:54.07	10.62	19.35	-41.3	-44.3	19.1	6.01e-01	0	60	0	111149056	54	5002
2026-01-24 01:38:55.08	10.58	19.50	-41.3	-44.3	19.1	6.02e-01	0	60	0	113246208	54	5007
2026-01-24 01:38:56.09	10.53	19.64	-41.4	-44.4	19.0	6.00e-01	0	60	0	115343360	54	5083
2026-01-24 01:38:57.10	10.49	19.78	-41.5	-44.5	19.0	5.98e-01	0	60	0	116916224	54	5125
2026-01-24 01:38:58.11	10.45	19.93	-41.5	-44.5	18.9	6.01e-01	0	60	0	119013376	54	5151
2026-01-24 01:38:59.12	10.41	20.07	-41.5	-44.6	18.8	6.03e-01	0	60	0	120586240	54	5173
2026-01-24 01:39:00.13	10.36	20.22	-41.5	-44.5	18.9	5.99e-01	0	59	0	122683392	54	5138
2026-01-24 01:39:01.13	10.32	20.37	-41.6	-44.7	18.8	6.00e-01	0	60	0	124780544	54	5226
2026-01-24 01:39:02.14	10.27	20.52	-41.5	-44.5	19.0	6.00e-01	0	60	0	126353408	54	5116
2026-01-24 01:39:03.15	10.23	20.67	-41.5	-44.5	19.0	5.99e-01	0	59	0	128450560	54	5140
2026-01-24 01:39:04.16	10.18	20.82	-41.5	-44.4	19.1	6.00e-01	0	60	0	130023424	54	5094
2026-01-24 01:39:05.17	10.14	20.97	-41.5	-44.5	19.0	6.00e-01	0	60	0	132120576	54	5123
2026-01-24 01:39:06.18	10.09	21.12	-41.6	-44.6	18.9	6.02e-01	0	59	0	134217728	54	5189
2026-01-24 01:39:07.19	10.04	21.27	-41.6	-44.6	18.9	6.00e-01	0	59	0	135790592	54	5173
2026-01-24 01:39:08.20	10.00	21.43	-41.5	-44.5	19.0	5.97e-01	0	60	0	137887744	54	5120
2026-01-24 01:39:09.21	9.95	21.58	-41.5	-44.5	18.9	6.01e-01	0	59	0	139460608	54	5154
2026-01-24 01:39:10.22	9.90	21.74	-41.5	-44.5	19.0	6.01e-01	0	60	0	141557760	54	5122
2026-01-24 01:39:11.22	9.85	21.90	-41.5	-44.5	19.0	5.99e-01	0	60	0	143654912	54	5150
2026-01-24 01:39:12.23	9.80	22.06	-41.5	-44.5	19.0	6.01e-01	0	60	0	145227776	54	5129
2026-01-24 01:39:13.24	9.75	22.22	-41.5	-44.4	19.1	6.00e-01	0	60	0	147324928	54	5088
2026-01-24 01:39:14.25	9.70	22.38	-41.5	-44.4	19.1	6.02e-01	0	60	0	149422080	54	5080
2026-01-24 01:39:15.26	9.65	22.54	-41.5	-44.4	19.1	6.01e-01	0	60	0	150994944	54	5092
2026-01-24 01:39:16.27	9.60	22.70	-41.5	-44.4	19.1	6.00e-01	0	60	0	153092096	54	5071
2026-01-24 01:39:17.28	9.54	22.87	-41.5	-44.4	19.2	6.01e-01	0	60	0	154664960	54	5066
2026-01-24 01:39:18.29	9.49	23.03	-41.5	-44.5	19.1	6.00e-01	0	60	0	156762112	54	5106
2026-01-24 01:39:19.30	9.44	23.20	-41.4	-44.3	19.3	5.99e-01	0	60	0	158859264	54	4991
2026-01-24 01:39:20.31	9.38	23.37	-41.4	-44.3	19.3	6.01e-01	0	60	0	160432128	54	4985
2026-01-24 01:39:21.32	9.33	23.53	-41.3	-44.2	19.3	5.98e-01	0	60	0	162529280	54	4970
2026-01-24 01:39:22.33	9.27	23.70	-41.4	-44.3	19.3	6.00e-01	0	60	0	164102144	54	4989
2026-01-24 01:39:23.34	9.21	23.88	-41.4	-44.3	19.2	6.00e-01	0	60	0	166199296	54	5041
2026-01-24 01:39:24.35	9.16	24.05	-41.5	-44.5	19.1	6.02e-01	0	60	0	168296448	54	5108
2026-01-24 01:39:25.36	9.10	24.22	-41.5	-44.5	19.1	6.01e-01	0	60	0	169869312	54	5103
2026-01-24 01:39:26.37	9.04	24.40	-41.5	-44.5	19.1	6.02e-01	0	60	0	171966464	54	5112
2026-01-24 01:39:27.38	8.98	24.57	-41.6	-44.5	19.1	5.98e-01	0	60	0	173539328	54	5155
2026-01-24 01:39:28.39	8.92	24.75	-41.6	-44.6	19.0	6.02e-01	0	60	0	175636480	54	5180
2026-01-24 01:39:29.40	8.86	24.93	-41.6	-44.6	19.0	5.98e-01	0	60	0	177733632	54	5199
2026-01-24 01:39:30.41	8.80	25.11	-41.6	-44.7	19.0	6.00e-01	0	60	0	179306496	54	5226
2026-01-24 01:39:31.42	8.73	25.29	-41.7	-44.7	18.9	6.00e-01	0	60	0	181403648	54	5260
2026-01-24 01:39:32.43	8.67	25.47	-41.7	-44.7	18.9	6.00e-01	0	60	0	182976512	54	5257
2026-01-24 01:39:33.44	8.61	25.65	-41.7	-44.7	18.9	6.01e-01	0	60	0	185073664	54	5250
2026-01-24 01:39:34.45	8.54	25.84	-41.6	-44.6	19.0	6.02e-01	0	60	0	187170816	54	5192
2026-01-24 01:39:35.46	8.48	26.03	-41.5	-44.5	19.1	6.02e-01	0	60	0	188743680	54	5121
2026-01-24 01:39:36.47	8.41	26.21	-41.5	-44.4	19.3	5.98e-01	0	60	0	190840832	54	5042
2026-01-24 01:39:37.47	8.34	26.40	-41.4	-44.2	19.4	5.98e-01	0	60	0	192413696	54	4970
2026-01-24 01:39:38.48	8.27	26.59	-41.4	-44.3	19.3	6.02e-01	0	60	0	194510848	54	5004
2026-01-24 01:39:39.49	8.20	26.78	-41.4	-44.3	19.4	5.97e-01	0	60	0	196608000	54	4988
2026-01-24 01:39:40.50	8.13	26.98	-41.4	-44.3	19.3	6.00e-01	0	60	0	198180864	54	5032
2026-01-24 01:39:41.51	8.06	27.17	-41.4	-44.3	19.4	6.00e-01	0	60	0	200278016	54	5019
2026-01-24 01:39:42.52	7.99	27.37	-41.4	-44.3	19.3	6.02e-01	0	60	0	202375168	54	5019
2026-01-24 01:39:43.53	7.92	27.57	-41.4	-44.3	19.4	6.00e-01	0	60	0	203948032	54	5000
2026-01-24 01:39:44.54	7.84	27.77	-41.4	-44.3	19.4	6.01e-01	0	60	0	206045184	54	4988
2026-01-24 01:39:45.55	7.77	27.97	-41.4	-44.3	19.4	5.98e-01	0	60	0	207618048	54	5024
2026-01-24 01:39:46.56	7.69	28.17	-41.4	-44.2	19.5	6.01e-01	0	60	0	209715200	54	4950
2026-01-24 01:39:47.57	7.61	28.37	-41.3	-44.1	19.6	6.02e-01	0	60	0	211812352	54	4891
2026-01-24 01:39:48.58	7.54	28.58	-41.2	-43.9	19.8	6.00e-01	0	60	0	213385216	54	4777
2026-01-24 01:39:49.59	7.46	28.79	-41.1	-43.8	19.8	6.01e-01	0	60	0	215482368	54	4740
2026-01-24 01:39:50.60	7.38	28.99	-41.1	-43.8	19.9	5.99e-01	0	60	0	217579520	54	4724
2026-01-24 01:39:51.61	7.29	29.20	-41.1	-43.8	19.9	6.01e-01	0	60	0	219152384	54	4737
2026-01-24 01:39:52.62	7.21	29.42	-41.1	-43.8	19.9	5.99e-01	0	60	0	221249536	54	4749
2026-01-24 01:39:53.63	7.13	29.63	-41.2	-43.9	19.8	6.02e-01	0	60	0	222822400	54	4790
2026-01-24 01:39:54.64	7.04	29.85	-41.2	-44.0	19.7	6.02e-01	0	60	0	224919552	54	4834
2026-01-24 01:39:55.65	6.96	30.06	-41.2	-43.9	19.8	6.01e-01	0	60	0	227016704	54	4799
2026-01-24 01:39:56.66	6.87	30.28	-41.2	-43.9	19.8	6.00e-01	0	60	0	228589568	54	4776
2026-01-24 01:39:57.67	6.78	30.50	-41.2	-43.9	19.9	5.99e-01	0	60	0	230686720	54	4783
2026-01-24 01:39:58.67	6.69	30.72	-41.2	-43.9	19.9	6.02e-01	0	60	0	232259584	54	4774
2026-01-24 01:39:59.68	6.60	30.94	-41.2	-43.9	19.9	6.01e-01	0	60	0	234356736	54	4774
2026-01-24 01:40:00.69	6.50	31.17	-41.1	-43.8	20.0	6.01e-01	0	60	0	236453888	54	4735
2026-01-24 01:40:01.70	6.41	31.40	-41.2	-43.9	19.9	6.00e-01	0	60	0	238026752	54	4770
2026-01-24 01:40:02.71	6.31	31.63	-41.3	-44.1	19.6	6.02e-01	0	60	0	240123904	54	4912
2026-01-24 01:40:03.72	6.22	31.86	-41.4	-44.2	19.5	5.99e-01	0	60	0	241696768	54	4971
2026-01-24 01:40:04.73	6.12	32.09	-41.4	-44.2	19.6	6.02e-01	0	60	0	243793920	54	4934
2026-01-24 01:40:05.74	6.02	32.33	-41.4	-44.2	19.5	6.00e-01	0	60	0	245891072	54	4981
2026-01-24 01:40:06.75	5.91	32.56	-41.4	-44.2	19.5	6.00e-01	0	60	0	247463936	54	4954
2026-01-24 01:40:07.76	5.81	32.80	-41.5	-44.3	19.5	6.01e-01	0	60	0	249561088	54	5023
2026-01-24 01:40:08.77	5.70	33.04	-41.5	-44.4	19.4	6.01e-01	0	60	0	251133952	54	5075
2026-01-24 01:40:09.78	5.60	33.28	-41.6	-44.5	19.2	5.99e-01	0	60	0	253231104	54	5151
2026-01-24 01:40:10.79	5.49	33.53	-41.5	-44.4	19.4	6.01e-01	0	60	0	255328256	54	5080
2026-01-24 01:40:11.80	5.38	33.78	-41.6	-44.4	19.3	5.97e-01	0	60	0	256901120	54	5093
2026-01-24 01:40:12.81	5.27	34.02	-41.6	-44.6	19.2	6.02e-01	0	60	0	258998272	54	5163
2026-01-24 01:40:13.82	5.15	34.27	-41.8	-44.8	19.0	5.99e-01	0	60	0	260571136	54	5307
2026-01-24 01:40:14.83	5.04	34.53	-41.9	-45.0	18.8	5.99e-01	0	61	0	262668288	54	5406
2026-01-24 01:40:15.84	4.92	34.78	-42.0	-45.2	18.6	5.99e-01	0	60	0	264765440	54	5553
2026-01-24 01:40:16.85	4.80	35.04	-42.0	-45.2	18.6	5.98e-01	0	60	0	266338304	54	5565
2026-01-24 01:40:17.86	4.68	35.30	-42.0	-45.2	18.6	5.99e-01	0	60	0	268435456	54	5555
2026-01-24 01:40:18.87	4.55	35.56	-42.1	-45.2	18.6	6.00e-01	0	60	0	270532608	54	5583
2026-01-24 01:40:19.88	4.43	35.82	-42.1	-45.3	18.5	5.99e-01	0	60	0	272105472	54	5642
2026-01-24 01:40:20.89	4.30	36.09	-42.3	-45.6	18.2	6.01e-01	0	60	0	274202624	55	5497
2026-01-24 01:40:21.90	4.17	36.35	-42.4	-45.7	17.9	5.99e-01	0	60	0	275775488	55	5572
2026-01-24 01:40:22.91	4.04	36.62	-42.5	-45.9	17.9	6.00e-01	0	60	0	277872640	55	5722
2026-01-24 01:40:23.92	3.90	36.89	-42.5	-45.9	17.9	6.04e-01	0	60	0	279969792	55	5705
2026-01-24 01:40:24.93	3.76	37.17	-42.5	-46.0	17.9	5.98e-01	0	60	0	281542656	55	5725
2026-01-24 01:40:25.94	3.62	37.44	-42.5	-45.9	17.9	5.97e-01	0	60	0	283639808	55	5692
2026-01-24 01:40:26.95	3.48	37.72	-42.7	-46.3	17.5	5.99e-01	0	60	0	285736960	55	5989
2026-01-24 01:40:27.96	3.34	38.00	-43.0	-46.9	17.1	6.00e-01	0	60	0	287309824	56	5999
2026-01-24 01:40:28.97	3.19	38.29	-43.1	-46.9	17.0	6.00e-01	0	60	0	289406976	56	6022
2026-01-24 01:40:29.98	3.04	38.57	-43.1	-47.0	16.9	5.98e-01	0	60	0	290979840	56	6120
2026-01-24 01:40:30.99	2.88	38.86	-43.1	-46.9	17.0	6.00e-01	0	60	0	293076992	56	6050
2026-01-24 01:40:32.00	2.73	39.15	-42.9	-46.6	17.3	5.99e-01	0	60	0	295174144	56	5853
2026-01-24 01:40:33.01	2.57	39.44	-43.0	-46.7	17.2	6.03e-01	0	60	0	296747008	56	5886
2026-01-24 01:40:34.02	2.41	39.74	-43.0	-46.7	17.2	6.00e-01	0	61	0	298844160	56	5914
2026-01-24 01:40:35.02	2.24	40.03	-43.4	-47.6	16.4	6.01e-01	0	60	0	300417024	57	6161
2026-01-24 01:40:36.03	2.08	40.33	-43.3	-47.4	16.5	6.02e-01	0	60	0	302514176	57	6020
2026-01-24 01:40:37.04	1.90	40.63	-43.0	-46.8	17.2	6.00e-01	0	61	0	304611328	57	5631
2026-01-24 01:40:38.05	1.73	40.94	-43.0	-46.8	17.2	6.00e-01	0	60	0	306184192	57	5614
2026-01-24 01:40:39.06	1.55	41.24	-42.8	-46.3	17.7	6.00e-01	0	61	0	308281344	57	5286
2026-01-24 01:40:40.07	1.37	41.55	-42.5	-45.8	18.2	6.02e-01	0	60	0	309854208	57	5012
2026-01-24 01:40:41.08	1.18	41.86	-42.3	-45.4	18.6	6.00e-01	0	60	0	311951360	56	5086
2026-01-24 01:40:42.09	0.99	42.18	-42.5	-45.8	18.2	6.00e-01	0	60	0	314048512	56	5332
2026-01-24 01:40:43.10	0.80	42.49	-42.7	-46.2	17.8	6.01e-01	0	60	0	315621376	56	5590
2026-01-24 01:40:44.11	0.60	42.81	-42.6	-45.9	18.1	5.98e-01	0	61	0	317718528	56	5367
2026-01-24 01:40:45.12	0.40	43.14	-42.3	-45.5	18.5	5.99e-01	0	60	0	319291392	56	5101
2026-01-24 01:40:46.13	0.20	43.46	-42.2	-45.3	18.7	5.98e-01	0	60	0	321388544	56	5032
2026-01-24 01:40:47.14	359.99	43.79	-42.3	-45.4	18.7	6.02e-01	0	61	0	323485696	56	5060
2026-01-24 01:40:48.15	359.77	44.12	-42.1	-45.1	19.0	6.02e-01	0	61	0	325058560	56	4886
2026-01-24 01:40:49.16	359.55	44.45	-42.2	-45.3	18.7	6.01e-01	0	61	0	327155712	56	5020
2026-01-24 01:40:50.17	359.33	44.78	-42.2	-45.3	18.7	5.99e-01	0	60	0	328728576	56	5013
2026-01-24 01:40:51.18	359.10	45.12	-42.0	-45.0	19.0	6.01e-01	0	60	0	330825728	56	4821
2026-01-24 01:40:52.18	358.87	45.45	-41.8	-44.8	19.1	6.01e-01	0	60	0	332922880	55	5004
2026-01-24 01:40:53.19	358.63	45.79	-42.1	-45.1	18.9	6.01e-01	0	60	0	334495744	55	5215
2026-01-24 01:40:54.20	358.39	46.14	-42.1	-45.3	18.6	5.97e-01	0	60	0	336592896	55	5315
2026-01-24 01:40:55.21	358.14	46.48	-42.0	-45.1	18.9	6.01e-01	0	61	0	338690048	55	5164
2026-01-24 01:40:56.22	357.88	46.83	-42.2	-45.3	18.6	6.01e-01	0	60	0	340262912	55	5331
2026-01-24 01:40:57.23	357.62	47.18	-42.2	-45.5	18.5	5.99e-01	0	60	0	342360064	55	5406
2026-01-24 01:40:58.24	357.35	47.54	-41.9	-44.9	19.0	6.01e-01	0	61	0	343932928	55	5090
2026-01-24 01:40:59.25	357.08	47.89	-41.9	-44.9	19.1	6.00e-01	0	60	0	346030080	55	5063
2026-01-24 01:41:00.26	356.80	48.25	-41.8	-44.8	19.2	6.04e-01	0	61	0	348127232	55	4997
2026-01-24 01:41:01.27	356.51	48.61	-42.1	-45.3	18.7	6.01e-01	0	60	0	349700096	55	5286
2026-01-24 01:41:02.28	356.21	48.98	-42.1	-45.3	18.7	6.00e-01	0	61	0	351797248	55	5292
2026-01-24 01:41:03.29	355.91	49.34	-42.0	-45.0	19.0	5.99e-01	0	61	0	353894400	55	5109
2026-01-24 01:41:04.30	355.60	49.71	-42.1	-45.2	18.8	6.00e-01	0	61	0	355467264	55	5248
2026-01-24 01:41:05.31	355.29	50.08	-42.2	-45.3	18.6	5.99e-01	0	60	0	357564416	55	5330
2026-01-24 01:41:06.32	354.96	50.45	-42.0	-45.0	18.9	6.01e-01	0	60	0	359137280	55	5125
2026-01-24 01:41:07.33	354.63	50.83	-42.2	-45.3	18.6	6.01e-01	0	60	0	361234432	55	5329
2026-01-24 01:41:08.34	354.29	51.20	-42.0	-45.1	18.8	6.00e-01	0	60	0	363331584	55	5203
2026-01-24 01:41:09.35	353.93	51.58	-41.6	-44.4	19.6	6.00e-01	0	61	0	364904448	55	4776
2026-01-24 01:41:10.36	353.57	51.96	-41.2	-43.8	20.1	6.01e-01	0	61	0	367001600	54	4752
2026-01-24 01:41:11.36	353.21	52.34	-41.1	-43.7	20.3	6.01e-01	0	61	0	368574464	54	4672
2026-01-24 01:41:12.37	352.83	52.73	-41.3	-44.0	20.0	6.00e-01	0	61	0	370671616	54	4828
2026-01-24 01:41:13.38	352.44	53.11	-41.3	-44.0	20.0	6.00e-01	0	61	0	372768768	54	4847
2026-01-24 01:41:14.39	352.04	53.50	-41.2	-43.8	20.2	6.00e-01	0	60	0	374341632	54	4736
2026-01-24 01:41:15.40	351.63	53.89	-41.1	-43.7	20.3	5.98e-01	0	61	0	376438784	54	4666
2026-01-24 01:41:16.41	351.21	54.28	-41.1	-43.7	20.3	6.01e-01	0	60	0	378011648	54	4682
2026-01-24 01:41:17.42	350.77	54.67	-41.5	-44.3	19.7	6.02e-01	0	60	0	380108800	54	5020
2026-01-24 01:41:18.43	350.32	55.07	-41.4	-44.2	19.8	6.04e-01	0	61	0	382205952	54	4933
2026-01-24 01:41:19.44	349.86	55.46	-41.5	-44.2	19.8	6.00e-01	0	60	0	383778816	54	4963
2026-01-24 01:41:20.45	349.39	55.86	-41.7	-44.5	19.6	6.02e-01	0	61	0	385875968	54	5117
2026-01-24 01:41:21.46	348.90	56.26	-41.8	-44.7	19.4	6.00e-01	0	61	0	387448832	54	5242
2026-01-24 01:41:22.47	348.40	56.66	-41.9	-44.9	19.0	6.02e-01	0	61	0	389545984	54	5398
2026-01-24 01:41:23.48	347.89	57.05	-41.8	-44.7	19.3	6.00e-01	0	61	0	391643136	54	5278
2026-01-24 01:41:24.49	347.35	57.45	-42.1	-45.2	18.9	6.00e-01	0	61	0	393216000	54	5549
2026-01-24 01:41:25.50	346.81	57.85	-42.1	-45.2	18.9	6.00e-01	0	61	0	395313152	54	5532
2026-01-24 01:41:26.51	346.24	58.26	-42.2	-45.4	18.6	6.01e-01	0	61	0	396886016	55	5351
2026-01-24 01:41:27.52	345.66	58.66	-42.0	-45.0	19.0	6.02e-01	0	61	0	398983168	55	5158
2026-01-24 01:41:28.53	345.06	59.06	-42.3	-45.4	18.6	6.03e-01	0	61	0	401080320	55	5389
2026-01-24 01:41:29.54	344.44	59.46	-42.4	-45.6	18.4	6.00e-01	0	61	0	402653184	55	5522
2026-01-24 01:41:30.55	343.80	59.86	-42.3	-45.6	18.4	5.99e-01	0	61	0	404750336	55	5473
2026-01-24 01:41:31.56	343.14	60.26	-42.5	-45.8	18.3	5.99e-01	0	61	0	406847488	55	5611
2026-01-24 01:41:32.57	342.46	60.66	-42.9	-46.4	17.7	6.01e-01	0	61	0	408420352	56	5691
2026-01-24 01:41:33.58	341.76	61.05	-42.6	-45.9	18.2	6.00e-01	0	61	0	410517504	56	5363
2026-01-24 01:41:34.59	341.03	61.45	-42.7	-46.1	18.0	6.00e-01	0	61	0	412090368	56	5501
2026-01-24 01:41:35.60	340.29	61.84	-42.9	-46.5	17.6	6.01e-01	0	61	0	414187520	56	5771
2026-01-24 01:41:36.61	339.51	62.24	-43.0	-46.7	17.4	6.01e-01	0	61	0	416284672	56	5872
2026-01-24 01:41:37.62	338.71	62.63	-43.0	-46.7	17.4	6.00e-01	0	61	0	417857536	56	5883
2026-01-24 01:41:38.63	337.89	63.02	-42.9	-46.5	17.5	6.00e-01	0	60	0	419954688	56	5769
2026-01-24 01:41:39.64	337.04	63.40	-43.5	-47.5	16.6	6.00e-01	0	61	0	422051840	57	6118
2026-01-24 01:41:40.65	336.16	63.78	-43.1	-46.8	17.2	5.99e-01	0	61	0	423624704	57	5652
2026-01-24 01:41:41.66	335.25	64.16	-43.2	-47.0	17.1	6.00e-01	0	61	0	425721856	57	5733
2026-01-24 01:41:42.67	334.30	64.53	-43.4	-47.5	16.6	5.98e-01	0	61	0	427294720	57	6113
2026-01-24 01:41:43.67	333.34	64.90	-43.6	-47.7	16.3	6.01e-01	0	61	0	429391872	57	6271
2026-01-24 01:41:44.68	332.34	65.26	-43.5	-47.5	16.5	5.99e-01	0	61	0	431489024	57	6122
2026-01-24 01:41:45.69	331.30	65.62	-44.0	-48.7	15.5	6.02e-01	0	61	0	433061888	58	6581
2026-01-24 01:41:46.70	330.23	65.98	-44.0	-48.6	15.4	6.02e-01	0	61	0	435159040	58	6541
2026-01-24 01:41:47.71	329.12	66.32	-44.0	-48.6	15.4	5.99e-01	0	61	0	436731904	58	6540
2026-01-24 01:41:48.72	327.98	66.66	-44.2	-49.1	14.9	6.00e-01	0	61	0	438829056	58	6945
2026-01-24 01:41:49.73	326.80	67.00	-44.2	-49.1	14.9	6.01e-01	0	61	0	440401920	59	6506
2026-01-24 01:41:50.74	325.58	67.32	-44.2	-49.3	14.7	6.03e-01	0	61	0	442499072	59	6703
2026-01-24 01:41:51.75	324.32	67.64	-44.2	-49.1	15.0	5.97e-01	0	61	0	444596224	59	6510
2026-01-24 01:41:52.76	323.03	67.95	-44.2	-49.2	14.8	6.02e-01	0	61	0	446169088	59	6602
2026-01-24 01:41:53.77	321.69	68.24	-43.9	-48.6	15.5	6.02e-01	0	61	0	448266240	59	6156
2026-01-24 01:41:54.77	320.33	68.53	-44.4	-49.7	14.3	5.99e-01	0	61	0	450363392	59	6980
2026-01-24 01:41:55.78	318.91	68.81	-44.0	-48.7	15.3	6.01e-01	0	61	0	451936256	59	6214
2026-01-24 01:41:56.79	317.46	69.07	-44.2	-49.1	14.9	6.01e-01	0	61	0	454033408	59	6565
2026-01-24 01:41:57.80	315.97	69.33	-44.3	-49.3	14.6	6.01e-01	0	61	0	455606272	59	6706
2026-01-24 01:41:58.81	314.43	69.57	-44.1	-48.9	15.1	6.00e-01	0	61	0	457703424	59	6418
2026-01-24 01:41:59.82	312.86	69.79	-44.0	-48.8	15.1	6.04e-01	0	61	0	459800576	59	6338
2026-01-24 01:42:00.83	311.25	70.01	-44.1	-49.0	15.1	6.00e-01	0	61	0	461373440	59	6427
2026-01-24 01:42:01.84	309.61	70.21	-44.2	-49.1	14.8	6.01e-01	0	61	0	463470592	59	6545
2026-01-24 01:42:02.85	307.93	70.39	-43.8	-48.2	15.9	6.01e-01	0	61	0	465043456	59	5869
2026-01-24 01:42:03.86	306.21	70.56	-44.4	-49.7	14.3	6.02e-01	0	61	0	467140608	59	7035
2026-01-24 01:42:04.86	304.49	70.71	-44.1	-49.0	14.9	5.99e-01	0	61	0	469237760	59	6457
2026-01-24 01:42:05.87	302.72	70.84	-44.2	-49.2	14.8	6.01e-01	0	61	0	470810624	59	6612
2026-01-24 01:42:06.88	300.92	70.96	-44.2	-49.1	14.8	5.99e-01	0	61	0	472907776	59	6563
2026-01-24 01:42:07.89	299.11	71.06	-44.5	-50.0	13.8	6.00e-01	0	61	0	475004928	59	7265
2026-01-24 01:42:08.90	297.27	71.14	-43.8	-48.3	15.7	6.01e-01	0	61	0	476577792	59	5956
2026-01-24 01:42:09.91	295.42	71.20	-44.3	-49.6	14.4	6.02e-01	0	61	0	478674944	59	6898
2026-01-24 01:42:10.92	293.56	71.25	-44.2	-49.4	14.5	5.97e-01	0	61	0	480247808	59	6743
2026-01-24 01:42:11.93	291.69	71.27	-43.8	-48.2	15.7	6.02e-01	0	61	0	482344960	59	5899
2026-01-24 01:42:12.94	289.81	71.28	-44.3	-49.4	14.6	6.02e-01	0	61	0	484442112	59	6775
2026-01-24 01:42:13.95	287.94	71.27	-44.4	-49.7	14.1	5.99e-01	0	61	0	486014976	59	7016
2026-01-24 01:42:14.96	286.07	71.24	-44.1	-49.1	14.8	6.02e-01	0	61	0	488112128	59	6501
2026-01-24 01:42:15.97	284.21	71.19	-44.2	-49.1	14.8	6.01e-01	0	61	0	489684992	59	6539
2026-01-24 01:42:16.98	282.36	71.12	-44.5	-50.0	14.0	6.03e-01	0	61	0	491782144	59	7239
2026-01-24 01:42:17.99	280.53	71.03	-44.0	-48.7	15.2	6.01e-01	0	61	0	493879296	59	6267
2026-01-24 01:42:19.00	278.72	70.93	-44.1	-49.0	15.0	6.02e-01	0	61	0	495452160	59	6435
2026-01-24 01:42:20.01	276.93	70.81	-44.1	-48.9	14.9	5.99e-01	0	61	0	497549312	59	6374
2026-01-24 01:42:21.02	275.16	70.67	-43.8	-48.3	15.6	6.00e-01	0	61	0	499122176	59	5990
2026-01-24 01:42:22.03	273.42	70.51	-44.2	-49.1	14.8	6.01e-01	0	61	0	501219328	59	6558
2026-01-24 01:42:23.03	271.74	70.34	-44.2	-49.2	14.7	6.03e-01	0	61	0	503316480	59	6644
2026-01-24 01:42:24.05	270.05	70.15	-44.0	-48.8	15.0	5.99e-01	0	61	0	504889344	59	6345
2026-01-24 01:42:25.05	268.43	69.95	-44.1	-48.9	15.0	6.00e-01	0	61	0	506986496	59	6391
2026-01-24 01:42:26.07	266.81	69.73	-44.6	-50.3	13.5	6.04e-01	0	61	0	508559360	59	7523
2026-01-24 01:42:27.08	265.25	69.50	-44.2	-49.1	14.8	5.99e-01	0	61	0	510656512	59	6570
2026-01-24 01:42:28.09	263.72	69.26	-44.4	-49.7	14.3	6.02e-01	0	61	0	512753664	59	6976
2026-01-24 01:42:29.10	262.24	69.00	-44.5	-50.5	13.0	6.03e-01	0	61	0	514326528	60	7211
2026-01-24 01:42:30.11	260.79	68.73	-44.4	-50.2	13.3	6.05e-01	0	61	0	516423680	60	7023
2026-01-24 01:42:31.12	259.39	68.45	-44.0	-49.0	14.6	6.00e-01	0	61	0	518520832	60	6071
2026-01-24 01:42:32.13	258.02	68.16	-44.5	-50.2	13.8	6.01e-01	0	61	0	520093696	59	7380
2026-01-24 01:42:33.14	256.70	67.86	-44.4	-49.8	14.0	6.00e-01	0	61	0	522190848	59	7112
2026-01-24 01:42:34.14	255.42	67.55	-44.4	-49.7	14.2	6.02e-01	0	61	0	523763712	59	6977
2026-01-24 01:42:35.15	254.17	67.23	-44.5	-50.1	13.7	6.03e-01	0	61	0	525860864	59	7367
2026-01-24 01:42:36.16	252.96	66.90	-44.5	-50.0	13.9	6.01e-01	0	61	0	527958016	59	7219
2026-01-24 01:42:37.17	251.79	66.57	-44.2	-49.2	14.7	6.00e-01	0	61	0	529530880	59	6576
2026-01-24 01:42:38.18	250.66	66.23	-44.4	-49.9	14.0	6.03e-01	0	61	0	531628032	59	7159
2026-01-24 01:42:39.19	249.56	65.88	-44.4	-49.8	14.1	6.02e-01	0	61	0	533200896	59	7060
2026-01-24 01:42:40.20	248.49	65.52	-44.1	-48.9	15.0	6.00e-01	0	61	0	535298048	59	6367
2026-01-24 01:42:41.21	247.46	65.16	-44.3	-49.6	14.3	6.03e-01	0	61	0	537395200	59	6923
2026-01-24 01:42:42.22	246.47	64.79	-44.2	-49.3	14.6	6.02e-01	0	61	0	538968064	59	6687
2026-01-24 01:42:43.23	245.50	64.42	-44.2	-49.1	14.8	5.97e-01	0	61	0	541065216	59	6539
2026-01-24 01:42:44.24	244.57	64.04	-43.9	-48.5	15.5	6.01e-01	0	61	0	543162368	59	6092
2026-01-24 01:42:45.25	243.67	63.67	-43.5	-47.5	16.5	5.99e-01	0	61	0	544735232	58	5771
2026-01-24 01:42:46.25	242.80	63.29	-44.1	-48.9	15.0	6.00e-01	0	61	0	546832384	58	6769
2026-01-24 01:42:47.26	241.95	62.90	-43.4	-47.5	16.5	5.98e-01	0	61	0	548405248	58	5750
2026-01-24 01:42:48.27	241.13	62.51	-43.2	-47.0	16.9	6.01e-01	0	61	0	550502400	58	5464
2026-01-24 01:42:49.28	240.34	62.12	-43.3	-47.3	16.7	6.00e-01	0	61	0	552599552	58	5617
2026-01-24 01:42:50.29	239.57	61.72	-43.3	-47.1	16.9	6.00e-01	0	61	0	554172416	58	5508
2026-01-24 01:42:51.30	238.83	61.33	-43.1	-46.8	17.1	5.99e-01	0	61	0	556269568	58	5333
2026-01-24 01:42:52.31	238.11	60.93	-42.7	-46.1	17.8	6.02e-01	0	61	0	557842432	57	5204
2026-01-24 01:42:53.32	237.41	60.53	-42.9	-46.5	17.5	6.01e-01	0	61	0	559939584	57	5437
2026-01-24 01:42:54.33	236.74	60.13	-42.9	-46.5	17.5	6.00e-01	0	61	0	562036736	57	5425
2026-01-24 01:42:55.34	236.08	59.73	-42.9	-46.5	17.4	6.00e-01	0	61	0	563609600	57	5432
2026-01-24 01:42:56.35	235.45	59.33	-42.4	-45.6	18.4	6.01e-01	0	61	0	565706752	56	5194
2026-01-24 01:42:57.36	234.84	58.93	-42.5	-45.7	18.3	5.99e-01	0	61	0	567279616	56	5254
2026-01-24 01:42:58.37	234.24	58.52	-42.8	-46.3	17.7	6.01e-01	0	61	0	569376768	56	5595
2026-01-24 01:42:59.38	233.66	58.12	-42.7	-46.2	17.7	5.99e-01	0	61	0	571473920	56	5571
2026-01-24 01:43:00.39	233.10	57.72	-42.4	-45.7	18.3	5.98e-01	0	61	0	573046784	56	5226
2026-01-24 01:43:01.40	232.56	57.32	-42.3	-45.5	18.4	6.01e-01	0	61	0	575143936	56	5127
2026-01-24 01:43:02.41	232.03	56.92	-42.3	-45.5	18.4	5.98e-01	0	61	0	576716800	56	5150
2026-01-24 01:43:03.42	231.51	56.52	-41.7	-44.6	19.3	5.99e-01	0	61	0	578813952	55	4898
2026-01-24 01:43:04.42	231.02	56.12	-41.9	-44.9	19.0	6.01e-01	0	61	0	580911104	55	5059
2026-01-24 01:43:05.43	230.54	55.72	-41.3	-43.9	19.9	5.99e-01	0	61	0	582483968	54	4794
2026-01-24 01:43:06.44	230.07	55.33	-41.2	-43.8	20.0	6.01e-01	0	61	0	584581120	54	4753
2026-01-24 01:43:07.45	229.61	54.93	-41.2	-43.8	20.0	5.99e-01	0	61	0	586153984	54	4749
2026-01-24 01:43:08.46	229.16	54.54	-41.3	-44.0	19.9	6.00e-01	0	61	0	588251136	54	4837
2026-01-24 01:43:09.47	228.73	54.14	-41.1	-43.7	20.2	6.00e-01	0	61	0	590348288	54	4673
2026-01-24 01:43:10.48	228.31	53.75	-41.2	-43.8	20.1	6.02e-01	0	61	0	591921152	54	4713
2026-01-24 01:43:11.49	227.90	53.36	-40.9	-43.4	20.4	6.00e-01	0	61	0	594018304	53	4805
2026-01-24 01:43:12.50	227.50	52.97	-41.3	-44.1	19.8	6.03e-01	0	61	0	596115456	53	5161
2026-01-24 01:43:13.51	227.12	52.58	-41.4	-44.1	19.7	6.00e-01	0	61	0	597688320	53	5193
2026-01-24 01:43:14.52	226.74	52.20	-41.2	-43.9	20.0	6.01e-01	0	61	0	599785472	53	5055
2026-01-24 01:43:15.53	226.37	51.81	-41.0	-43.5	20.4	5.99e-01	0	61	0	601358336	53	4827
2026-01-24 01:43:16.54	226.01	51.43	-40.9	-43.4	20.4	6.01e-01	0	61	0	603455488	53	4802
2026-01-24 01:43:17.55	225.67	51.05	-41.1	-43.7	20.1	5.99e-01	0	61	0	605552640	53	4971
2026-01-24 01:43:18.56	225.33	50.68	-41.4	-44.1	19.8	6.00e-01	0	61	0	607125504	53	5174
2026-01-24 01:43:19.57	224.99	50.30	-41.8	-44.8	19.0	5.98e-01	0	61	0	609222656	54	5336
2026-01-24 01:43:20.58	224.67	49.93	-41.6	-44.4	19.4	5.98e-01	0	61	0	610795520	54	5088
2026-01-24 01:43:21.59	224.36	49.56	-41.5	-44.3	19.6	6.01e-01	0	61	0	612892672	54	5026
2026-01-24 01:43:22.60	224.05	49.19	-41.6	-44.4	19.5	6.01e-01	0	61	0	614989824	54	5080
2026-01-24 01:43:23.60	223.75	48.83	-41.5	-44.3	19.5	6.00e-01	0	61	0	616562688	54	5013
2026-01-24 01:43:24.61	223.46	48.46	-41.8	-44.7	19.2	6.00e-01	0	61	0	618659840	54	5245
2026-01-24 01:43:25.62	223.17	48.10	-41.8	-44.8	19.1	6.00e-01	0	61	0	620232704	54	5323
2026-01-24 01:43:26.63	222.89	47.74	-42.0	-45.0	18.9	6.01e-01	0	61	0	622329856	54	5426
2026-01-24 01:43:27.64	222.62	47.39	-41.9	-44.8	19.0	6.03e-01	0	61	0	624427008	54	5327
2026-01-24 01:43:28.65	222.35	47.03	-41.7	-44.5	19.3	5.99e-01	0	61	0	625999872	54	5131
2026-01-24 01:43:29.66	222.09	46.68	-41.7	-44.6	19.2	6.01e-01	0	61	0	628097024	54	5185
2026-01-24 01:43:30.67	221.84	46.33	-41.5	-44.3	19.5	5.99e-01	0	61	0	629669888	54	5038
2026-01-24 01:43:31.68	221.59	45.98	-41.4	-44.2	19.7	6.01e-01	0	61	0	631767040	54	4933
2026-01-24 01:43:32.69	221.34	45.64	-41.6	-44.5	19.4	5.98e-01	0	61	0	633864192	54	5101
2026-01-24 01:43:33.70	221.11	45.30	-41.8	-44.7	19.2	5.99e-01	0	61	0	635437056	54	5258
2026-01-24 01:43:34.71	220.87	44.96	-41.8	-44.8	19.0	6.00e-01	0	61	0	637534208	54	5328
2026-01-24 01:43:35.72	220.65	44.62	-41.8	-44.8	19.0	6.00e-01	0	61	0	639631360	54	5336
2026-01-24 01:43:36.73	220.42	44.29	-41.7	-44.7	19.2	6.01e-01	0	61	0	641204224	54	5226
2026-01-24 01:43:37.74	220.20	43.95	-41.7	-44.6	19.2	5.99e-01	0	61	0	643301376	54	5214
2026-01-24 01:43:38.75	219.99	43.62	-41.7	-44.6	19.3	5.99e-01	0	61	0	644874240	54	5173
2026-01-24 01:43:39.76	219.78	43.30	-41.7	-44.5	19.3	5.99e-01	0	61	0	646971392	54	5138
2026-01-24 01:43:40.76	219.58	42.98	-41.9	-44.9	19.0	6.03e-01	0	61	0	649068544	54	5366
2026-01-24 01:43:41.77	219.38	42.65	-42.1	-45.2	18.7	6.00e-01	0	61	0	650641408	54	5575
2026-01-24 01:43:42.78	219.18	42.33	-42.1	-45.3	18.6	6.01e-01	0	61	0	652738560	54	5617
2026-01-24 01:43:43.79	218.99	42.02	-42.1	-45.3	18.6	6.02e-01	0	61	0	654311424	54	5593
2026-01-24 01:43:44.80	218.80	41.70	-42.1	-45.3	18.6	6.04e-01	0	61	0	656408576	54	5613
2026-01-24 01:43:45.81	218.61	41.39	-42.1	-45.2	18.7	6.05e-01	0	61	0	658505728	54	5544
2026-01-24 01:43:46.82	218.43	41.08	-42.0	-45.1	18.8	6.02e-01	0	61	0	660078592	54	5489
2026-01-24 01:43:47.83	218.25	40.77	-42.2	-45.4	18.4	6.01e-01	0	61	0	662175744	54	5699
2026-01-24 01:43:48.84	218.08	40.47	-42.5	-45.9	18.0	6.00e-01	0	61	0	664272896	55	5668
2026-01-24 01:43:49.85	217.91	40.17	-42.7	-46.2	17.7	5.98e-01	0	61	0	665845760	55	5894
2026-01-24 01:43:50.86	217.74	39.87	-42.7	-46.2	17.6	5.98e-01	0	61	0	667942912	55	5909
2026-01-24 01:43:51.87	217.58	39.57	-42.7	-46.2	17.6	6.01e-01	0	61	0	669515776	55	5890
2026-01-24 01:43:52.88	217.42	39.27	-42.8	-46.3	17.6	5.98e-01	0	61	0	671612928	56	5649
2026-01-24 01:43:53.89	217.26	38.98	-43.0	-46.7	17.2	6.02e-01	0	61	0	673710080	56	5876
2026-01-24 01:43:54.89	217.10	38.69	-43.0	-46.8	17.2	6.01e-01	0	61	0	675282944	56	5933
2026-01-24 01:43:55.90	216.95	38.41	-42.9	-46.6	17.3	5.98e-01	0	61	0	677380096	56	5815
2026-01-24 01:43:56.91	216.80	38.12	-42.8	-46.4	17.5	5.99e-01	0	61	0	678952960	56	5682
2026-01-24 01:43:57.92	216.65	37.84	-42.8	-46.4	17.5	6.01e-01	0	61	0	681050112	56	5687
2026-01-24 01:43:58.93	216.51	37.56	-42.8	-46.4	17.5	5.99e-01	0	61	0	683147264	56	5712
2026-01-24 01:43:59.95	216.36	37.27	-43.0	-46.7	17.2	5.98e-01	0	61	0	684720128	56	5862
2026-01-24 01:44:00.95	216.23	37.00	-42.8	-46.5	17.4	5.98e-01	0	61	0	686817280	56	5731
2026-01-24 01:44:01.96	216.09	36.73	-42.7	-46.3	17.6	5.99e-01	0	61	0	688390144	56	5613
2026-01-24 01:44:02.97	215.95	36.45	-42.6	-46.0	18.0	6.01e-01	0	61	0	690487296	56	5412
2026-01-24 01:44:03.98	215.82	36.18	-42.6	-46.0	17.9	6.00e-01	0	61	0	692584448	56	5447
2026-01-24 01:44:04.99	215.69	35.92	-42.6	-46.0	18.0	5.99e-01	0	61	0	694157312	56	5410
2026-01-24 01:44:06.00	215.56	35.65	-42.4	-45.7	18.2	5.99e-01	0	61	0	696254464	56	5273
2026-01-24 01:44:07.01	215.44	35.39	-42.2	-45.4	18.5	5.99e-01	0	61	0	697827328	56	5058
2026-01-24 01:44:08.02	215.31	35.13	-42.0	-45.0	18.9	6.01e-01	0	61	0	699924480	56	4868
2026-01-24 01:44:09.03	215.19	34.87	-42.0	-45.0	18.9	5.99e-01	0	61	0	702021632	56	4863
2026-01-24 01:44:10.04	215.07	34.61	-42.0	-45.0	18.9	6.02e-01	0	61	0	703594496	56	4852
2026-01-24 01:44:11.05	214.95	34.35	-41.8	-44.8	19.1	6.03e-01	0	61	0	705691648	55	4986
2026-01-24 01:44:12.06	214.84	34.10	-41.7	-44.5	19.3	6.01e-01	0	61	0	707788800	55	4856
2026-01-24 01:44:13.07	214.72	33.85	-41.5	-44.3	19.5	6.02e-01	0	61	0	709361664	55	4749
2026-01-24 01:44:14.08	214.61	33.60	-41.5	-44.3	19.5	6.00e-01	0	61	0	711458816	55	4758
2026-01-24 01:44:15.08	214.50	33.36	-41.5	-44.3	19.5	5.97e-01	0	61	0	713031680	55	4724
2026-01-24 01:44:16.09	214.39	33.11	-41.4	-44.1	19.7	6.01e-01	0	61	0	715128832	54	4913
2026-01-24 01:44:17.10	214.29	32.87	-41.4	-44.2	19.6	6.00e-01	0	61	0	717225984	54	4941
2026-01-24 01:44:18.11	214.18	32.63	-41.3	-44.0	19.8	6.00e-01	0	61	0	718798848	54	4835
2026-01-24 01:44:19.12	214.08	32.39	-41.3	-44.0	19.8	6.00e-01	0	61	0	720896000	54	4842
2026-01-24 01:44:20.13	213.97	32.15	-41.2	-43.8	20.0	6.01e-01	0	61	0	722468864	54	4750
2026-01-24 01:44:21.14	213.87	31.92	-41.2	-43.9	19.9	5.98e-01	0	61	0	724566016	54	4802
2026-01-24 01:44:22.15	213.77	31.69	-41.2	-43.9	19.9	6.01e-01	0	61	0	726663168	54	4771
2026-01-24 01:44:23.16	213.68	31.45	-41.2	-43.9	19.9	5.99e-01	0	61	0	728236032	54	4764
2026-01-24 01:44:24.17	213.58	31.22	-41.1	-43.8	20.0	6.00e-01	0	61	0	730333184	54	4720
2026-01-24 01:44:25.18	213.49	31.00	-41.0	-43.6	20.2	5.98e-01	0	61	0	731906048	54	4626
2026-01-24 01:44:26.19	213.39	30.77	-40.9	-43.5	20.3	5.99e-01	0	61	0	734003200	53	4855
2026-01-24 01:44:27.20	213.30	30.55	-40.9	-43.4	20.3	6.00e-01	0	61	0	736100352	53	4812
2026-01-24 01:44:28.21	213.21	30.32	-40.9	-43.4	20.4	6.00e-01	0	61	0	737673216	53	4787
2026-01-24 01:44:29.22	213.12	30.10	-40.9	-43.4	20.3	6.03e-01	0	61	0	739770368	53	4811
2026-01-24 01:44:30.23	213.03	29.88	-40.8	-43.3	20.4	5.99e-01	0	61	0	741343232	53	4736
2026-01-24 01:44:31.23	212.95	29.67	-40.8	-43.4	20.4	6.01e-01	0	61	0	743440384	53	4770
2026-01-24 01:44:32.24	212.86	29.45	-40.9	-43.4	20.4	6.01e-01	0	61	0	745537536	53	4782
2026-01-24 01:44:33.25	212.78	29.24	-40.9	-43.5	20.3	5.98e-01	0	61	0	747110400	53	4834
2026-01-24 01:44:34.25	212.69	29.03	-41.0	-43.7	20.1	6.02e-01	0	61	0	749207552	53	4939
2026-01-24 01:44:35.26	212.61	28.82	-41.1	-43.7	20.0	6.01e-01	0	61	0	750780416	53	4960
2026-01-24 01:44:36.27	212.53	28.61	-41.1	-43.7	20.0	5.99e-01	0	61	0	752877568	53	4980
2026-01-24 01:44:37.28	212.45	28.40	-41.2	-43.9	19.9	6.02e-01	0	61	0	754974720	53	5049
2026-01-24 01:44:38.29	212.37	28.20	-41.1	-43.8	19.9	6.01e-01	0	61	0	756547584	53	5016
2026-01-24 01:44:39.30	212.30	27.99	-41.2	-43.9	19.9	6.01e-01	0	61	0	758644736	53	5051
2026-01-24 01:44:40.31	212.22	27.79	-41.3	-44.1	19.7	5.98e-01	0	61	0	760741888	53	5166
2026-01-24 01:44:41.32	212.14	27.59	-41.4	-44.2	19.6	6.01e-01	0	61	0	762314752	53	5231
2026-01-24 01:44:42.33	212.07	27.39	-41.5	-44.4	19.4	6.01e-01	0	61	0	764411904	53	5342
2026-01-24 01:44:43.34	212.00	27.19	-41.5	-44.4	19.3	6.01e-01	0	61	0	765984768	53	5402
2026-01-24 01:44:44.35	211.92	27.00	-41.5	-44.4	19.3	5.99e-01	0	61	0	768081920	53	5357
2026-01-24 01:44:45.36	211.85	26.80	-41.4	-44.2	19.4	6.01e-01	0	61	0	770179072	53	5271
2026-01-24 01:44:46.36	211.78	26.61	-41.4	-44.2	19.4	6.00e-01	0	61	0	771751936	53	5273
2026-01-24 01:44:47.37	211.71	26.42	-41.4	-44.3	19.4	6.02e-01	0	61	0	773849088	53	5304
2026-01-24 01:44:48.39	211.64	26.22	-41.5	-44.4	19.4	6.00e-01	0	61	0	775946240	53	5348
2026-01-24 01:44:49.39	211.58	26.04	-41.4	-44.3	19.5	6.00e-01	0	61	0	777519104	53	5282
2026-01-24 01:44:50.40	211.51	25.85	-41.4	-44.3	19.4	5.97e-01	0	61	0	779616256	53	5286
2026-01-24 01:44:51.41	211.44	25.66	-41.6	-44.5	19.2	6.01e-01	0	61	0	781189120	53	5407
2026-01-24 01:44:52.43	211.38	25.47	-41.6	-44.5	19.2	6.01e-01	0	61	0	783286272	53	5430
2026-01-24 01:44:53.44	211.31	25.29	-41.6	-44.5	19.1	5.98e-01	0	61	0	785383424	53	5437
2026-01-24 01:44:54.44	211.25	25.11	-41.6	-44.5	19.2	6.00e-01	0	61	0	786956288	53	5417
2026-01-24 01:44:55.45	211.19	24.93	-41.5	-44.3	19.3	6.01e-01	0	61	0	789053440	53	5329
2026-01-24 01:44:56.46	211.12	24.75	-41.5	-44.3	19.3	5.99e-01	0	61	0	790626304	53	5329
2026-01-24 01:44:57.47	211.06	24.57	-41.4	-44.3	19.4	6.00e-01	0	61	0	792723456	53	5317
2026-01-24 01:44:58.48	211.00	24.39	-41.5	-44.4	19.3	6.04e-01	0	61	0	794820608	53	5354
2026-01-24 01:44:59.49	210.94	24.22	-41.5	-44.5	19.2	6.00e-01	0	61	0	796393472	53	5419
2026-01-24 01:45:00.50	210.88	24.04	-41.6	-44.6	19.0	6.01e-01	0	61	0	798490624	53	5512
2026-01-24 01:45:01.51	210.82	23.87	-41.6	-44.7	19.0	6.00e-01	0	61	0	800063488	53	5545
2026-01-24 01:45:02.52	210.77	23.69	-41.6	-44.7	19.0	6.02e-01	0	61	0	802160640	53	5549
2026-01-24 01:45:03.53	210.71	23.52	-41.6	-44.7	18.9	5.97e-01	0	61	0	804257792	53	5577
2026-01-24 01:45:04.54	210.65	23.35	-41.4	-44.6	19.1	6.01e-01	0	61	0	805830656	53	5473
2026-01-24 01:45:05.55	210.60	23.18	-41.4	-44.7	19.0	6.01e-01	0	61	0	807927808	53	5546
2026-01-24 01:45:06.56	210.54	23.02	-41.5	-44.6	19.0	5.98e-01	0	61	0	809500672	53	5515
2026-01-24 01:45:07.57	210.49	22.85	-41.5	-44.6	19.0	5.99e-01	0	61	0	811597824	53	5499
2026-01-24 01:45:08.58	210.43	22.68	-41.6	-44.6	19.0	6.01e-01	0	61	0	813694976	53	5526
2026-01-24 01:45:09.59	210.38	22.52	-41.6	-44.6	19.0	6.01e-01	0	61	0	815267840	53	5522
2026-01-24 01:45:10.60	210.33	22.36	-41.6	-44.6	19.0	5.97e-01	0	61	0	817364992	53	5499
2026-01-24 01:45:11.61	210.28	22.19	-41.6	-44.5	19.1	5.98e-01	0	61	0	818937856	53	5447
2026-01-24 01:45:12.62	210.22	22.03	-41.6	-44.6	19.0	6.00e-01	0	61	0	821035008	53	5526
2026-01-24 01:45:13.63	210.17	21.87	-41.7	-44.7	18.9	6.00e-01	0	61	0	823132160	53	5539
2026-01-24 01:45:14.63	210.12	21.72	-41.7	-44.7	18.9	6.02e-01	0	61	0	824705024	53	5569
2026-01-24 01:45:15.64	210.07	21.56	-41.7	-44.7	18.9	6.00e-01	0	61	0	826802176	54	5241
2026-01-24 01:45:16.65	210.03	21.40	-41.7	-44.7	18.9	5.99e-01	0	61	0	828899328	54	5265
2026-01-24 01:45:17.66	209.98	21.25	-41.8	-44.9	18.7	6.01e-01	0	61	0	830472192	54	5351
2026-01-24 01:45:18.67	209.93	21.09	-41.7	-44.7	18.8	6.00e-01	0	61	0	832569344	54	5276
2026-01-24 01:45:19.68	209.88	20.94	-41.7	-44.8	18.8	6.00e-01	0	61	0	834142208	54	5297
2026-01-24 01:45:20.69	209.83	20.78	-41.6	-44.8	18.8	6.00e-01	0	61	0	836239360	54	5311
2026-01-24 01:45:21.70	209.79	20.63	-41.7	-44.9	18.7	5.99e-01	0	61	0	838336512	54	5356
2026-01-24 01:45:22.71	209.74	20.48	-41.6	-44.7	18.8	6.01e-01	0	61	0	839909376	54	5256
2026-01-24 01:45:23.72	209.70	20.33	-41.5	-44.6	18.9	5.99e-01	0	61	0	842006528	54	5205
2026-01-24 01:45:24.73	209.65	20.18	-41.5	-44.7	18.8	6.02e-01	0	61	0	844103680	54	5219
2026-01-24 01:45:25.74	209.61	20.04	-41.4	-44.5	18.9	5.99e-01	0	61	0	845676544	54	5150
2026-01-24 01:45:26.75	209.56	19.89	-41.4	-44.6	18.8	6.01e-01	0	61	0	847773696	54	5173
2026-01-24 01:45:27.76	209.52	19.74	-41.4	-44.7	18.8	6.01e-01	0	61	0	849346560	54	5227
2026-01-24 01:45:28.77	209.48	19.60	-41.5	-44.6	18.9	6.02e-01	0	61	0	851443712	54	5174
2026-01-24 01:45:29.78	209.43	19.45	-41.5	-44.5	19.0	5.99e-01	0	61	0	853540864	54	5140
2026-01-24 01:45:30.79	209.39	19.31	-41.5	-44.5	19.0	5.99e-01	0	61	0	855113728	54	5139
2026-01-24 01:45:31.80	209.35	19.17	-41.6	-44.6	18.9	6.00e-01	0	61	0	857210880	54	5200
2026-01-24 01:45:32.80	209.31	19.03	-41.5	-44.5	19.0	6.00e-01	0	61	0	858783744	54	5132
2026-01-24 01:45:33.81	209.27	18.89	-41.5	-44.6	18.9	6.00e-01	0	61	0	860880896	54	5185
2026-01-24 01:45:34.82	209.23	18.75	-41.5	-44.5	18.9	6.02e-01	0	61	0	862978048	54	5155
2026-01-24 01:45:35.83	209.19	18.61	-41.6	-44.6	18.8	6.00e-01	0	61	0	864550912	54	5218
2026-01-24 01:45:36.84	209.15	18.47	-41.6	-44.7	18.8	5.98e-01	0	61	0	866648064	54	5234
2026-01-24 01:45:37.85	209.11	18.33	-41.6	-44.7	18.7	6.01e-01	0	61	0	868220928	54	5265
2026-01-24 01:45:38.86	209.07	18.20	-41.6	-44.7	18.8	6.00e-01	0	61	0	870318080	54	5251
2026-01-24 01:45:39.87	209.03	18.06	-41.7	-44.8	18.7	6.00e-01	0	61	0	872415232	54	5286
2026-01-24 01:45:40.88	208.99	17.92	-41.7	-44.8	18.7	6.03e-01	0	61	0	873988096	54	5323
2026-01-24 01:45:41.89	208.96	17.79	-41.7	-44.9	18.6	6.01e-01	0	61	0	876085248	54	5342
2026-01-24 01:45:42.89	208.92	17.66	-41.7	-44.9	18.6	6.03e-01	0	61	0	877658112	54	5360
2026-01-24 01:45:43.90	208.88	17.53	-41.8	-45.0	18.5	6.00e-01	0	61	0	879755264	54	5424
2026-01-24 01:45:44.91	208.85	17.39	-41.7	-44.9	18.5	6.00e-01	0	61	0	881852416	54	5376
2026-01-24 01:45:45.92	208.81	17.26	-41.7	-44.8	18.6	6.01e-01	0	61	0	883425280	54	5321
2026-01-24 01:45:46.93	208.77	17.13	-41.6	-44.8	18.6	5.99e-01	0	61	0	885522432	54	5329
2026-01-24 01:45:47.94	208.74	17.00	-41.6	-44.8	18.6	5.98e-01	0	61	0	887095296	54	5306
2026-01-24 01:45:48.95	208.70	16.87	-41.5	-44.7	18.7	6.02e-01	0	61	0	889192448	54	5227
2026-01-24 01:45:49.96	208.67	16.75	-41.5	-44.7	18.7	5.98e-01	0	61	0	891289600	54	5246
2026-01-24 01:45:50.97	208.63	16.62	-41.4	-44.8	18.6	6.00e-01	0	61	0	892862464	54	5280
2026-01-24 01:45:51.98	208.60	16.49	-41.4	-44.6	18.7	5.98e-01	0	61	0	894959616	54	5193
2026-01-24 01:45:52.99	208.57	16.37	-41.4	-44.7	18.7	6.00e-01	0	61	0	897056768	54	5222
2026-01-24 01:45:54.00	208.53	16.24	-41.5	-44.7	18.7	6.00e-01	0	61	0	898629632	54	5228
2026-01-24 01:45:55.01	208.50	16.12	-41.6	-44.7	18.7	6.01e-01	0	61	0	900726784	54	5261
2026-01-24 01:45:56.02	208.47	15.99	-41.6	-44.7	18.7	6.02e-01	0	61	0	902299648	54	5259
2026-01-24 01:45:57.03	208.43	15.87	-41.6	-44.7	18.7	6.00e-01	0	61	0	904396800	54	5228
2026-01-24 01:45:58.04	208.40	15.75	-41.6	-44.6	18.7	5.98e-01	0	61	0	906493952	54	5216
2026-01-24 01:45:59.05	208.37	15.63	-41.5	-44.5	18.8	6.01e-01	0	61	0	908066816	54	5154
2026-01-24 01:46:00.05	208.34	15.51	-41.5	-44.5	18.9	6.01e-01	0	61	0	910163968	54	5132
2026-01-24 01:46:01.06	208.31	15.39	-41.5	-44.5	18.9	6.00e-01	0	61	0	911736832	54	5141
2026-01-24 01:46:02.07	208.28	15.27	-41.5	-44.6	18.8	5.99e-01	0	61	0	913833984	54	5163
2026-01-24 01:46:03.08	208.24	15.15	-41.5	-44.5	18.8	5.98e-01	0	61	0	915931136	54	5158
2026-01-24 01:46:04.09	208.21	15.03	-41.5	-44.6	18.8	6.01e-01	0	61	0	917504000	54	5184
2026-01-24 01:46:05.10	208.18	14.91	-41.6	-44.7	18.7	6.01e-01	0	61	0	919601152	54	5233
2026-01-24 01:46:06.11	208.15	14.79	-41.5	-44.6	18.8	6.01e-01	0	61	0	921174016	54	5196
2026-01-24 01:46:07.12	208.12	14.68	-41.5	-44.6	18.7	6.00e-01	0	61	0	923271168	54	5214
2026-01-24 01:46:08.13	208.10	14.56	-41.5	-44.6	18.7	6.01e-01	0	61	0	925368320	54	5211
2026-01-24 01:46:09.14	208.07	14.44	-41.5	-44.6	18.8	6.00e-01	0	61	0	926941184	54	5169
2026-01-24 01:46:10.15	208.04	14.33	-41.5	-44.6	18.7	6.01e-01	0	61	0	929038336	54	5182
2026-01-24 01:46:11.16	208.01	14.22	-41.6	-44.7	18.6	5.99e-01	0	61	0	930611200	54	5252
2026-01-24 01:46:12.17	207.98	14.10	-41.5	-44.6	18.7	6.00e-01	0	61	0	932708352	54	5163
2026-01-24 01:46:13.18	207.95	13.99	-41.5	-44.7	18.7	5.99e-01	0	61	0	934805504	54	5220
2026-01-24 01:46:14.19	207.92	13.88	-41.6	-44.8	18.5	6.02e-01	0	61	0	936378368	54	5288
2026-01-24 01:46:15.20	207.90	13.76	-41.6	-44.7	18.5	6.01e-01	0	61	0	938475520	54	5275
2026-01-24 01:46:16.21	207.87	13.65	-41.5	-44.6	18.7	6.01e-01	0	61	0	940572672	54	5201
2026-01-24 01:46:17.22	207.84	13.54	-41.5	-44.6	18.7	5.99e-01	0	61	0	942145536	54	5190
2026-01-24 01:46:18.22	207.82	13.43	-41.6	-44.8	18.5	5.98e-01	0	61	0	944242688	54	5284
2026-01-24 01:46:19.23	207.79	13.32	-41.6	-44.9	18.5	6.01e-01	0	61	0	945815552	54	5345
2026-01-24 01:46:20.24	207.76	13.21	-41.6	-44.8	18.5	5.99e-01	0	61	0	947912704	54	5286
2026-01-24 01:46:21.25	207.74	13.11	-41.6	-44.8	18.5	6.01e-01	0	61	0	950009856	54	5301
2026-01-24 01:46:22.26	207.71	13.00	-41.6	-44.9	18.4	6.02e-01	0	61	0	951582720	54	5341
2026-01-24 01:46:23.26	207.69	12.89	-41.6	-44.8	18.4	6.01e-01	0	61	0	953679872	54	5338
2026-01-24 01:46:24.27	207.66	12.78	-41.6	-44.8	18.4	6.01e-01	0	61	0	955252736	54	5328
2026-01-24 01:46:25.28	207.63	12.68	-41.6	-44.9	18.3	5.99e-01	0	61	0	957349888	54	5357
2026-01-24 01:46:26.29	207.61	12.57	-41.7	-45.0	18.3	6.02e-01	0	61	0	959447040	54	5412
2026-01-24 01:46:27.30	207.58	12.47	-41.6	-44.8	18.3	6.01e-01	0	61	0	961019904	54	5332
2026-01-24 01:46:28.31	207.56	12.36	-41.6	-44.9	18.4	5.99e-01	0	61	0	963117056	54	5345
2026-01-24 01:46:29.32	207.54	12.26	-41.6	-44.9	18.3	6.02e-01	0	61	0	965214208	54	5384
2026-01-24 01:46:30.33	207.51	12.15	-41.6	-44.9	18.3	6.00e-01	0	61	0	966787072	54	5373
2026-01-24 01:46:31.34	207.49	12.05	-41.6	-44.9	18.3	5.99e-01	0	61	0	968884224	54	5349
2026-01-24 01:46:32.35	207.46	11.94	-41.7	-44.9	18.2	6.00e-01	0	61	0	970457088	54	5396
2026-01-24 01:46:33.36	207.44	11.84	-41.6	-44.9	18.3	6.00e-01	0	61	0	972554240	54	5359
2026-01-24 01:46:34.37	207.42	11.74	-41.7	-45.0	18.2	6.01e-01	0	61	0	974127104	54	5423
2026-01-24 01:46:35.38	207.39	11.64	-41.7	-45.0	18.1	6.00e-01	0	61	0	976224256	54	5458
2026-01-24 01:46:36.39	207.37	11.54	-41.6	-44.9	18.2	6.00e-01	0	61	0	978321408	54	5372
2026-01-24 01:46:37.39	207.35	11.44	-41.7	-45.0	18.2	6.00e-01	0	61	0	979894272	54	5412
2026-01-24 01:46:38.40	207.32	11.34	-41.6	-45.0	18.1	6.01e-01	0	61	0	981991424	54	5421
2026-01-24 01:46:39.41	207.30	11.24	-41.6	-44.9	18.1	6.01e-01	0	61	0	983564288	54	5392
2026-01-24 01:46:40.42	207.28	11.14	-41.7	-45.0	18.1	6.02e-01	0	61	0	985661440	54	5436
2026-01-24 01:46:41.43	207.26	11.04	-41.7	-45.1	18.0	5.99e-01	0	61	0	987758592	54	5502
2026-01-24 01:46:42.44	207.24	10.94	-41.7	-45.0	18.1	5.99e-01	0	61	0	989331456	54	5438
2026-01-24 01:46:43.45	207.21	10.84	-41.7	-45.1	18.0	6.01e-01	0	61	0	991428608	54	5467
2026-01-24 01:46:44.46	207.19	10.74	-41.7	-45.1	17.9	6.00e-01	0	61	0	993525760	54	5509
2026-01-24 01:46:45.47	207.17	10.65	-41.8	-45.2	17.8	6.00e-01	0	61	0	995098624	54	5575
2026-01-24 01:46:46.48	207.15	10.55	-41.8	-45.2	17.8	6.01e-01	0	61	0	997195776	54	5563
2026-01-24 01:46:47.49	207.13	10.45	-41.8	-45.2	17.8	5.98e-01	0	61	0	998768640	54	5567
2026-01-24 01:46:48.50	207.11	10.36	-41.7	-45.1	17.8	6.01e-01	0	61	0	1000865792	54	5523
2026-01-24 01:46:49.51	207.09	10.26	-41.7	-45.2	17.8	6.00e-01	0	61	0	1002962944	54	5546
2026-01-24 01:46:50.52	207.07	10.17	-41.7	-45.2	17.8	6.00e-01	0	61	0	1004535808	54	5560
2026-01-24 01:46:51.53	207.05	10.07	-41.7	-45.1	17.8	6.03e-01	0	61	0	1006632960	54	5521
2026-01-24 01:46:52.54	207.03	9.98	-41.7	-45.2	17.8	6.02e-01	0	61	0	1008730112	54	5567
2026-01-24 01:46:53.55	207.01	9.88	-41.8	-45.3	17.7	6.00e-01	0	61	0	1010302976	54	5623
2026-01-24 01:46:54.56	206.99	9.79	-41.7	-45.2	17.7	5.99e-01	0	61	0	1012400128	54	5577
2026-01-24 01:46:55.57	206.97	9.70	-41.8	-45.3	17.7	6.00e-01	0	61	0	1013972992	54	5613
2026-01-24 01:46:56.58	206.95	9.60	-41.8	-45.4	17.5	5.99e-01	0	61	0	1016070144	54	5701
2026-01-24 01:46:57.59	206.93	9.51	-41.8	-45.4	17.5	6.02e-01	0	61	0	1018167296	54	5689
2026-01-24 01:46:58.60	206.91	9.42	-41.9	-45.5	17.4	6.01e-01	0	61	0	1019740160	54	5750
2026-01-24 01:46:59.61	206.89	9.33	-41.8	-45.5	17.4	5.99e-01	0	61	0	1021837312	54	5735
2026-01-24 01:47:00.62	206.87	9.24	-41.8	-45.5	17.4	6.02e-01	0	61	0	1023410176	54	5724
2026-01-24 01:47:01.62	206.85	9.15	-41.8	-45.5	17.4	6.00e-01	0	61	0	1025507328	54	5738
2026-01-24 01:47:02.63	206.83	9.06	-41.9	-45.6	17.3	6.01e-01	0	61	0	1027604480	54	5822
2026-01-24 01:47:03.64	206.81	8.97	-41.8	-45.5	17.3	6.03e-01	0	61	0	1029177344	54	5763
2026-01-24 01:47:04.65	206.80	8.88	-41.8	-45.6	17.2	5.98e-01	0	61	0	1031274496	54	5806
2026-01-24 01:47:05.66	206.78	8.79	-41.8	-45.6	17.2	5.99e-01	0	61	0	1032847360	54	5806
2026-01-24 01:47:06.67	206.76	8.70	-41.9	-45.7	17.1	6.00e-01	0	61	0	1034944512	54	5872
2026-01-24 01:47:07.68	206.74	8.61	-41.9	-45.6	17.1	5.99e-01	0	62	0	1037041664	54	5833
2026-01-24 01:47:08.69	206.72	8.52	-41.8	-45.5	17.2	6.00e-01	0	61	0	1038614528	54	5784
2026-01-24 01:47:09.70	206.70	8.43	-41.9	-45.6	17.1	6.00e-01	0	61	0	1040711680	54	5836
2026-01-24 01:47:10.71	206.69	8.34	-41.9	-45.6	17.0	6.00e-01	0	61	0	1042284544	54	5854
2026-01-24 01:47:11.72	206.67	8.26	-41.9	-45.7	17.0	5.98e-01	0	61	0	1044381696	54	5866
2026-01-24 01:47:12.73	206.65	8.17	-41.8	-45.7	17.0	5.98e-01	0	61	0	1046478848	54	5860
2026-01-24 01:47:13.74	206.64	8.08	-41.8	-45.7	17.0	5.99e-01	0	61	0	1048051712	54	5865
2026-01-24 01:47:14.75	206.62	8.00	-44.1	-50.8	11.8	6.06e-01	0	61	0	1050148864	59	7958
2026-01-24 01:47:15.76	206.60	7.91	-45.6	-63.8	3.8	7.48e-01	0	61	104	1050673152	61	31501
2026-01-24 01:47:16.77	206.58	7.82	-45.9	-64.4	3.8	7.44e-01	0	61	104	1050673152	62	32070
2026-01-24 01:47:17.78	206.57	7.74	-46.0	-64.5	3.8	7.46e-01	0	61	104	1050673152	62	32521
2026-01-24 01:47:18.79	206.55	7.65	-46.1	-64.7	3.8	7.47e-01	0	61	104	1050673152	62	32991
2026-01-24 01:47:19.80	206.53	7.57	-46.2	-64.7	3.8	7.48e-01	0	61	104	1050673152	62	33142
2026-01-24 01:47:20.81	206.52	7.48	-46.2	-64.8	3.8	7.48e-01	0	61	104	1050673152	63	31538
2026-01-24 01:47:21.82	206.50	7.40	-46.3	-64.8	3.8	7.44e-01	0	61	104	1050673152	63	31692
2026-01-24 01:47:22.84	206.49	7.32	-46.3	-64.8	3.8	7.44e-01	0	61	104	1050673152	63	31742
2026-01-24 01:47:23.85	206.47	7.23	-46.3	-64.8	3.8	7.48e-01	0	61	104	1050673152	63	31771
2026-01-24 01:47:24.86	206.45	7.15	-46.3	-64.8	3.8	7.48e-01	0	61	104	1050673152	63	31710
2026-01-24 01:47:25.87	206.44	7.07	-46.2	-64.7	3.8	7.46e-01	0	62	104	1050673152	63	31446
2026-01-24 01:47:26.88	206.42	6.98	-46.2	-64.7	3.8	7.45e-01	0	61	104	1050673152	63	31263
2026-01-24 01:47:27.89	206.41	6.90	-46.2	-64.7	3.8	7.44e-01	0	61	104	1050673152	63	31211
2026-01-24 01:47:28.90	206.39	6.82	-46.2	-64.7	3.8	7.46e-01	0	62	104	1050673152	63	31300
2026-01-24 01:47:29.91	206.38	6.74	-46.3	-64.7	3.8	7.44e-01	0	61	104	1050673152	63	31423
2026-01-24 01:47:30.92	206.36	6.66	-46.2	-64.7	3.8	7.44e-01	0	61	104	1050673152	63	31097
2026-01-24 01:47:31.93	206.35	6.57	-46.2	-64.6	3.8	7.45e-01	0	62	104	1050673152	63	31067
2026-01-24 01:47:32.94	206.33	6.49	-46.2	-64.7	3.8	7.45e-01	0	62	104	1050673152	63	31140
