passes_logs/2026/01/24/R2.0S_Moscow/R2.0S_Moscow__20260124_101704_NOAA_20_JPSS-1_rec.log

#Pass ID: 20260124_101704_NOAA 20 (JPSS-1)
#Satellite: NOAA 20 (JPSS-1)
#Configuration: NOAA 20
#almurnet v.1.7.20251203
#Start time: 2026-01-24 10:17:05

#Version: 2.2.20231116
#Station: R2.0S_Moscow
#Location: 37.707566 lon 55.798166 lat
#TLE: 1 43013U 17073A   26023.57676825  .00000205  00000+0  11821-3 0  9990
#TLE: 2 43013  98.7645 324.4259 0001147  27.0566 333.0670 14.19539368423954

#Time	Az	El	Level	Level2	SNR	BER	BlckErr	Temp	State	Recorded	gain1	gain2
2026-01-24 10:17:05.14	171.17	2.01	-43.4	-57.9	3.8	1.49e+00	0	53	0	0	58	19121
2026-01-24 10:17:06.14	171.19	2.08	-43.4	-57.9	3.8	1.49e+00	0	53	104	0	58	19108
2026-01-24 10:17:07.15	171.21	2.14	-43.4	-57.9	3.8	1.49e+00	0	54	104	0	58	19091
2026-01-24 10:17:08.16	171.23	2.21	-43.4	-57.9	3.8	1.49e+00	0	53	104	0	58	19078
2026-01-24 10:17:09.17	171.25	2.27	-43.4	-57.9	3.8	1.49e+00	0	53	104	0	58	19032
2026-01-24 10:17:10.19	171.26	2.34	-43.4	-57.9	3.8	1.49e+00	0	53	104	0	58	19007
2026-01-24 10:17:11.20	171.28	2.40	-43.4	-58.0	3.8	1.49e+00	0	53	104	0	58	19174
2026-01-24 10:17:12.20	171.30	2.47	-43.4	-57.9	3.8	1.49e+00	0	54	104	0	58	19087
2026-01-24 10:17:13.22	171.32	2.53	-43.4	-57.9	3.8	1.49e+00	0	54	104	0	58	18999
2026-01-24 10:17:14.23	171.34	2.60	-43.4	-57.9	3.8	1.49e+00	0	54	104	0	58	19045
2026-01-24 10:17:15.24	171.36	2.67	-43.4	-57.9	3.8	1.49e+00	0	54	104	0	58	19063
2026-01-24 10:17:16.25	171.38	2.73	-43.4	-57.9	3.8	1.49e+00	0	54	104	0	58	19060
2026-01-24 10:17:17.26	171.40	2.80	-43.4	-57.9	3.8	1.49e+00	0	54	104	0	58	19074
2026-01-24 10:17:18.27	171.42	2.87	-43.4	-57.9	3.8	1.49e+00	0	54	104	0	58	19036
2026-01-24 10:17:19.28	171.44	2.93	-43.4	-57.9	3.8	1.49e+00	0	54	104	0	58	19108
2026-01-24 10:17:20.29	171.46	3.00	-43.4	-57.9	3.8	1.49e+00	0	54	104	0	58	19106
2026-01-24 10:17:21.30	171.48	3.06	-43.4	-57.9	3.8	1.49e+00	0	54	104	0	58	19064
2026-01-24 10:17:22.31	171.50	3.13	-43.4	-57.9	3.8	1.49e+00	0	54	104	0	58	19066
2026-01-24 10:17:23.32	171.52	3.20	-43.4	-57.9	3.8	1.49e+00	0	54	104	0	58	18980
2026-01-24 10:17:24.33	171.54	3.27	-43.4	-57.9	3.8	1.49e+00	0	54	104	0	58	19066
2026-01-24 10:17:25.34	171.56	3.33	-43.4	-57.9	3.8	1.49e+00	0	55	104	0	58	19000
2026-01-24 10:17:26.35	171.58	3.40	-43.4	-57.9	3.8	1.49e+00	0	55	104	0	58	19082
2026-01-24 10:17:27.36	171.60	3.47	-43.4	-57.9	3.8	1.49e+00	0	55	104	0	58	18991
2026-01-24 10:17:28.38	171.62	3.54	-43.4	-57.9	3.8	1.49e+00	0	55	104	0	58	19110
2026-01-24 10:17:29.39	171.64	3.61	-43.4	-57.9	3.8	1.49e+00	0	55	104	0	58	19009
2026-01-24 10:17:30.40	171.66	3.67	-43.4	-57.9	3.8	1.49e+00	0	55	104	0	58	18977
2026-01-24 10:17:31.41	171.69	3.74	-43.4	-57.9	3.8	1.49e+00	0	55	104	0	58	19081
2026-01-24 10:17:32.42	171.71	3.81	-43.4	-57.9	3.8	1.49e+00	0	55	104	0	58	19010
2026-01-24 10:17:33.43	171.73	3.88	-43.4	-57.9	3.8	1.49e+00	0	55	104	0	58	18986
2026-01-24 10:17:34.44	171.75	3.95	-43.4	-57.8	3.8	1.49e+00	0	55	104	0	58	18941
2026-01-24 10:17:35.45	171.77	4.02	-43.4	-57.8	3.8	1.49e+00	0	55	104	0	58	18920
2026-01-24 10:17:36.46	171.79	4.09	-43.4	-57.8	3.8	1.49e+00	0	55	104	0	58	18890
2026-01-24 10:17:37.47	171.81	4.16	-43.4	-57.8	3.8	1.49e+00	0	55	104	0	58	18741
2026-01-24 10:17:38.48	171.83	4.23	-43.4	-57.7	3.8	1.49e+00	0	55	104	0	58	18656
2026-01-24 10:17:39.49	171.86	4.30	-43.4	-57.6	3.8	1.49e+00	0	56	104	0	58	18383
2026-01-24 10:17:40.50	171.88	4.37	-43.3	-57.5	3.8	1.49e+00	0	56	104	0	58	18178
2026-01-24 10:17:41.51	171.90	4.44	-43.4	-57.3	3.8	1.49e+00	0	55	104	0	58	17794
2026-01-24 10:17:42.52	171.92	4.51	-43.3	-57.2	3.8	1.49e+00	0	56	104	0	58	17554
2026-01-24 10:17:43.53	171.94	4.58	-43.3	-57.1	3.8	1.49e+00	0	55	104	0	58	17372
2026-01-24 10:17:44.54	171.97	4.65	-43.3	-57.0	3.8	1.49e+00	0	56	104	0	58	17198
2026-01-24 10:17:45.55	171.99	4.72	-43.3	-57.0	3.8	1.49e+00	0	56	104	0	58	17229
2026-01-24 10:17:46.56	172.01	4.79	-43.3	-57.0	3.8	1.49e+00	0	56	104	0	58	17135
2026-01-24 10:17:47.57	172.03	4.86	-43.3	-56.8	3.8	1.49e+00	0	56	104	0	58	16834
2026-01-24 10:17:48.58	172.05	4.93	-43.3	-56.8	3.8	1.49e+00	0	56	104	0	58	16798
2026-01-24 10:17:49.59	172.08	5.01	-43.3	-56.6	3.8	1.49e+00	0	56	104	0	58	16461
2026-01-24 10:17:50.60	172.10	5.08	-43.3	-56.3	3.8	1.49e+00	0	56	104	0	58	15854
2026-01-24 10:17:51.61	172.12	5.15	-43.3	-55.9	3.8	1.49e+00	0	56	104	0	58	15200
2026-01-24 10:17:52.62	172.14	5.22	-43.2	-55.5	3.8	1.49e+00	0	56	104	0	58	14533
2026-01-24 10:17:53.63	172.17	5.29	-43.2	-55.2	3.9	1.47e+00	0	56	104	0	58	13960
2026-01-24 10:17:54.65	172.19	5.37	-43.2	-54.8	4.1	1.44e+00	0	56	0	0	58	13309
2026-01-24 10:17:55.65	172.21	5.44	-43.2	-54.7	4.1	1.43e+00	0	56	0	0	58	13115
2026-01-24 10:17:56.67	172.24	5.51	-43.2	-54.6	4.1	1.42e+00	0	56	0	0	58	13026
2026-01-24 10:17:57.68	172.26	5.59	-43.2	-54.6	4.1	1.41e+00	0	56	0	0	58	13070
2026-01-24 10:17:58.69	172.28	5.66	-43.2	-54.7	4.1	1.43e+00	0	56	0	0	58	13111
2026-01-24 10:17:59.70	172.31	5.73	-43.2	-54.6	4.1	1.42e+00	0	57	0	0	58	12981
2026-01-24 10:18:00.71	172.33	5.81	-43.2	-54.5	4.2	1.41e+00	0	56	0	0	58	12850
2026-01-24 10:18:01.72	172.35	5.88	-43.1	-54.5	4.1	1.40e+00	0	56	0	0	58	12828
2026-01-24 10:18:02.73	172.38	5.96	-43.1	-54.5	4.1	1.40e+00	0	57	0	0	58	12889
2026-01-24 10:18:03.74	172.40	6.03	-43.1	-54.3	4.2	1.40e+00	0	57	0	0	58	12605
2026-01-24 10:18:04.75	172.43	6.11	-43.1	-54.3	4.2	1.38e+00	0	57	0	0	58	12572
2026-01-24 10:18:05.76	172.45	6.18	-43.2	-54.5	4.1	1.39e+00	0	57	0	0	58	12822
2026-01-24 10:18:06.77	172.48	6.26	-43.2	-54.5	4.1	1.41e+00	0	57	0	0	58	12957
2026-01-24 10:18:07.78	172.50	6.33	-43.1	-54.5	4.1	1.41e+00	0	57	0	0	58	12869
2026-01-24 10:18:08.79	172.52	6.41	-43.1	-54.4	4.2	1.41e+00	0	57	0	0	58	12724
2026-01-24 10:18:09.80	172.55	6.48	-43.1	-54.4	4.2	1.39e+00	0	57	0	0	58	12725
2026-01-24 10:18:10.81	172.57	6.56	-43.1	-54.3	4.2	1.39e+00	0	57	0	0	58	12624
2026-01-24 10:18:11.82	172.60	6.63	-43.1	-54.2	4.2	1.38e+00	0	57	0	0	58	12452
2026-01-24 10:18:12.83	172.62	6.71	-43.1	-54.2	4.2	1.38e+00	0	57	0	0	58	12456
2026-01-24 10:18:13.84	172.65	6.79	-43.1	-54.0	4.3	1.37e+00	0	57	0	0	58	12131
2026-01-24 10:18:14.85	172.67	6.86	-43.1	-53.7	4.4	1.27e+00	77	57	0	1048576	58	11693
2026-01-24 10:18:15.86	172.70	6.94	-43.0	-53.2	4.6	1.05e+00	0	57	0	3145728	58	11113
2026-01-24 10:18:16.87	172.72	7.02	-43.0	-52.7	4.8	8.90e-01	0	57	0	4194304	58	10508
2026-01-24 10:18:17.88	172.75	7.10	-42.9	-52.3	5.0	7.32e-01	0	57	0	6291456	57	10608
2026-01-24 10:18:18.89	172.78	7.17	-42.8	-51.7	5.3	5.91e-01	0	57	0	8388608	57	9925
2026-01-24 10:18:19.90	172.80	7.25	-42.7	-51.0	5.9	4.65e-01	0	57	0	10485760	57	9109
2026-01-24 10:18:20.91	172.83	7.33	-42.6	-50.3	6.4	2.75e-01	0	57	0	12582912	57	8395
2026-01-24 10:18:21.92	172.85	7.41	-42.4	-49.7	6.9	2.00e-01	0	57	0	13631488	56	8328
2026-01-24 10:18:22.93	172.88	7.49	-42.3	-49.1	7.4	1.36e-01	0	57	0	15728640	56	7798
2026-01-24 10:18:23.95	172.91	7.57	-42.2	-48.7	7.9	8.18e-02	0	57	0	17825792	56	7397
2026-01-24 10:18:24.96	172.93	7.65	-42.1	-48.3	8.2	6.16e-02	0	57	0	19922944	56	7085
2026-01-24 10:18:25.97	172.96	7.73	-41.8	-47.7	8.7	4.23e-02	0	58	0	22020096	55	6983
2026-01-24 10:18:26.98	172.99	7.81	-41.7	-47.4	9.0	2.74e-02	0	57	0	23068672	55	6792
2026-01-24 10:18:27.99	173.01	7.89	-41.7	-47.2	9.2	2.31e-02	0	58	0	25165824	55	6631
2026-01-24 10:18:29.00	173.04	7.97	-41.6	-47.1	9.3	1.76e-02	0	58	0	27262976	55	6524
2026-01-24 10:18:30.01	173.07	8.05	-41.7	-47.2	9.2	1.83e-02	0	58	0	29360128	55	6624
2026-01-24 10:18:31.02	173.09	8.13	-42.4	-48.7	8.2	3.00e-02	0	58	0	31457280	55	7868
2026-01-24 10:18:32.03	173.12	8.21	-42.9	-53.7	4.2	1.13e-01	0	58	0	32505856	56	13241
2026-01-24 10:18:33.04	173.15	8.29	-42.4	-48.7	8.1	1.33e-01	0	58	0	34603008	55	7843
2026-01-24 10:18:34.05	173.18	8.37	-43.1	-50.7	6.5	1.02e-01	0	58	0	36700160	56	9315
2026-01-24 10:18:35.06	173.20	8.45	-43.1	-56.2	3.8	1.84e-01	0	58	104	37748736	56	17667
2026-01-24 10:18:36.07	173.23	8.54	-41.6	-46.6	10.1	3.53e-01	0	58	0	37748736	55	6165
2026-01-24 10:18:37.08	173.26	8.62	-41.6	-46.5	10.2	5.21e-03	0	58	0	39845888	55	6089
2026-01-24 10:18:38.09	173.29	8.70	-41.6	-46.5	10.3	5.26e-03	0	58	0	41943040	55	6084
2026-01-24 10:18:39.10	173.32	8.78	-41.6	-46.5	10.3	4.93e-03	0	58	0	44040192	55	6067
2026-01-24 10:18:40.11	173.35	8.87	-41.6	-46.4	10.4	4.69e-03	0	58	0	46137344	55	5998
2026-01-24 10:18:41.12	173.37	8.95	-41.6	-46.4	10.4	5.25e-03	0	58	0	47185920	55	6033
2026-01-24 10:18:42.13	173.40	9.03	-41.6	-46.4	10.4	4.31e-03	0	58	0	49283072	55	6053
2026-01-24 10:18:43.14	173.43	9.12	-41.7	-46.4	10.5	4.79e-03	0	58	0	51380224	55	6040
2026-01-24 10:18:44.15	173.46	9.20	-41.6	-46.3	10.6	3.34e-03	0	58	0	53477376	55	5941
2026-01-24 10:18:45.16	173.49	9.29	-41.6	-46.3	10.6	3.57e-03	0	58	0	55574528	55	5992
2026-01-24 10:18:46.16	173.52	9.37	-41.6	-46.3	10.7	3.05e-03	0	58	0	56623104	55	5941
2026-01-24 10:18:47.17	173.55	9.46	-41.7	-46.3	10.8	2.82e-03	0	58	0	58720256	55	5964
2026-01-24 10:18:48.18	173.58	9.54	-41.7	-46.2	10.8	2.82e-03	0	58	0	60817408	55	5915
2026-01-24 10:18:49.19	173.61	9.63	-41.6	-46.2	10.8	2.47e-03	0	58	0	62914560	55	5917
2026-01-24 10:18:50.20	173.64	9.71	-41.7	-46.4	10.7	2.52e-03	0	58	0	65011712	55	6000
2026-01-24 10:18:51.21	173.67	9.80	-41.8	-46.5	10.6	3.12e-03	0	59	0	66060288	55	6071
2026-01-24 10:18:52.22	173.70	9.89	-41.7	-46.2	10.9	2.67e-03	0	58	0	68157440	55	5923
2026-01-24 10:18:53.23	173.73	9.97	-41.7	-46.2	10.9	2.15e-03	0	58	0	70254592	55	5895
2026-01-24 10:18:54.24	173.76	10.06	-41.6	-46.1	11.1	1.69e-03	0	59	0	72351744	55	5799
2026-01-24 10:18:55.25	173.79	10.15	-41.6	-46.0	11.1	1.71e-03	0	59	0	74448896	55	5751
2026-01-24 10:18:56.26	173.82	10.23	-41.6	-46.0	11.2	1.40e-03	0	58	0	76546048	55	5761
2026-01-24 10:18:57.26	173.85	10.32	-41.6	-46.0	11.2	1.47e-03	0	58	0	77594624	55	5731
2026-01-24 10:18:58.27	173.88	10.41	-41.6	-46.0	11.2	1.35e-03	0	59	0	79691776	55	5784
2026-01-24 10:18:59.28	173.92	10.50	-41.6	-46.0	11.2	1.35e-03	0	58	0	81788928	55	5746
2026-01-24 10:19:00.29	173.95	10.59	-41.6	-46.0	11.3	1.16e-03	0	58	0	83886080	55	5755
2026-01-24 10:19:01.30	173.98	10.68	-41.7	-46.0	11.3	1.20e-03	0	58	0	85983232	55	5751
2026-01-24 10:19:02.31	174.01	10.77	-41.6	-45.8	11.4	9.77e-04	0	59	0	87031808	55	5650
2026-01-24 10:19:03.32	174.04	10.86	-41.6	-45.8	11.5	9.28e-04	0	59	0	89128960	55	5641
2026-01-24 10:19:04.33	174.08	10.95	-41.6	-45.8	11.6	8.64e-04	0	59	0	91226112	55	5607
2026-01-24 10:19:05.34	174.11	11.04	-41.6	-45.8	11.5	7.51e-04	0	59	0	93323264	55	5625
2026-01-24 10:19:06.35	174.14	11.13	-41.6	-45.8	11.6	6.42e-04	0	59	0	95420416	55	5606
2026-01-24 10:19:07.36	174.17	11.22	-41.6	-45.7	11.6	7.00e-04	0	59	0	96468992	55	5579
2026-01-24 10:19:08.37	174.21	11.31	-41.6	-45.9	11.5	6.98e-04	0	59	0	98566144	55	5666
2026-01-24 10:19:09.38	174.24	11.40	-41.5	-45.7	11.7	6.74e-04	0	59	0	100663296	55	5529
2026-01-24 10:19:10.39	174.27	11.50	-41.5	-45.5	11.9	4.26e-04	0	59	0	102760448	55	5438
2026-01-24 10:19:11.40	174.31	11.59	-41.5	-45.4	12.0	3.53e-04	0	59	0	104857600	54	5719
2026-01-24 10:19:12.41	174.34	11.68	-41.5	-45.5	11.9	3.38e-04	0	59	0	105906176	54	5748
2026-01-24 10:19:13.42	174.38	11.77	-41.5	-45.5	11.9	4.03e-04	0	59	0	108003328	54	5788
2026-01-24 10:19:14.42	174.41	11.87	-41.5	-45.5	11.9	3.68e-04	0	59	0	110100480	54	5732
2026-01-24 10:19:15.43	174.44	11.96	-41.4	-45.4	12.1	3.93e-04	0	59	0	112197632	54	5663
2026-01-24 10:19:16.44	174.48	12.06	-41.5	-45.4	12.0	3.05e-04	0	59	0	114294784	54	5714
2026-01-24 10:19:17.45	174.51	12.15	-41.4	-45.4	12.1	2.49e-04	0	59	0	115343360	54	5683
2026-01-24 10:19:18.46	174.55	12.25	-41.4	-45.3	12.2	2.62e-04	0	59	0	117440512	54	5606
2026-01-24 10:19:19.47	174.58	12.34	-41.4	-45.2	12.3	2.19e-04	0	59	0	119537664	54	5564
2026-01-24 10:19:20.48	174.62	12.44	-41.4	-45.2	12.3	1.63e-04	0	59	0	121634816	54	5589
2026-01-24 10:19:21.49	174.66	12.53	-41.4	-45.2	12.3	2.10e-04	0	59	0	123731968	54	5576
2026-01-24 10:19:22.50	174.69	12.63	-41.4	-45.3	12.2	2.30e-04	0	59	0	124780544	54	5615
2026-01-24 10:19:23.51	174.73	12.73	-41.3	-45.1	12.4	1.36e-04	0	59	0	126877696	54	5496
2026-01-24 10:19:24.52	174.76	12.82	-41.4	-45.1	12.4	1.36e-04	0	59	0	128974848	54	5507
2026-01-24 10:19:25.53	174.80	12.92	-41.4	-45.1	12.4	1.39e-04	0	59	0	131072000	54	5528
2026-01-24 10:19:26.54	174.84	13.02	-41.3	-45.1	12.5	1.36e-04	0	59	0	133169152	54	5488
2026-01-24 10:19:27.55	174.87	13.12	-41.3	-45.0	12.5	1.17e-04	0	59	0	134217728	54	5455
2026-01-24 10:19:28.56	174.91	13.22	-41.4	-45.1	12.5	1.21e-04	0	59	0	136314880	54	5508
2026-01-24 10:19:29.57	174.95	13.32	-41.4	-45.2	12.4	1.42e-04	0	59	0	138412032	54	5547
2026-01-24 10:19:30.58	174.99	13.42	-41.4	-45.2	12.4	1.74e-04	0	59	0	140509184	54	5552
2026-01-24 10:19:31.59	175.03	13.52	-41.3	-45.1	12.5	1.30e-04	0	59	0	142606336	54	5487
2026-01-24 10:19:32.59	175.06	13.61	-41.4	-45.1	12.5	1.25e-04	0	59	0	144703488	54	5512
2026-01-24 10:19:33.61	175.10	13.72	-41.4	-45.1	12.5	1.20e-04	0	59	0	145752064	54	5493
2026-01-24 10:19:34.62	175.14	13.82	-41.4	-45.1	12.5	1.07e-04	0	59	0	147849216	54	5510
2026-01-24 10:19:35.62	175.18	13.92	-41.4	-45.1	12.5	1.07e-04	0	59	0	149946368	54	5508
2026-01-24 10:19:36.64	175.22	14.02	-41.5	-45.2	12.4	1.30e-04	0	59	0	152043520	54	5585
2026-01-24 10:19:37.65	175.26	14.12	-41.4	-45.2	12.4	1.46e-04	0	59	0	154140672	54	5576
2026-01-24 10:19:38.65	175.30	14.23	-41.4	-45.2	12.4	1.65e-04	0	59	0	155189248	54	5553
2026-01-24 10:19:39.66	175.34	14.33	-41.4	-45.1	12.5	1.28e-04	0	59	0	157286400	54	5512
2026-01-24 10:19:40.67	175.38	14.43	-41.4	-45.2	12.4	1.24e-04	0	59	0	159383552	54	5560
2026-01-24 10:19:41.69	175.42	14.54	-41.4	-45.2	12.4	1.40e-04	0	59	0	161480704	54	5575
2026-01-24 10:19:42.69	175.46	14.64	-41.5	-45.3	12.4	1.60e-04	0	59	0	163577856	54	5606
2026-01-24 10:19:43.71	175.50	14.75	-41.5	-45.2	12.5	1.43e-04	0	59	0	164626432	54	5563
2026-01-24 10:19:44.72	175.54	14.85	-41.5	-45.3	12.4	1.15e-04	0	59	0	166723584	54	5611
2026-01-24 10:19:45.73	175.58	14.96	-41.4	-45.2	12.5	1.39e-04	0	59	0	168820736	54	5543
2026-01-24 10:19:46.74	175.63	15.07	-41.5	-45.3	12.4	1.06e-04	0	59	0	170917888	54	5604
2026-01-24 10:19:47.75	175.67	15.17	-41.5	-45.3	12.4	1.33e-04	0	60	0	173015040	54	5601
2026-01-24 10:19:48.76	175.71	15.28	-41.5	-45.2	12.5	1.17e-04	0	60	0	174063616	54	5546
2026-01-24 10:19:49.77	175.75	15.39	-41.5	-45.2	12.5	1.18e-04	0	59	0	176160768	54	5589
2026-01-24 10:19:50.78	175.80	15.50	-41.5	-45.2	12.5	1.27e-04	0	59	0	178257920	54	5551
2026-01-24 10:19:51.79	175.84	15.61	-41.5	-45.3	12.4	1.23e-04	0	59	0	180355072	54	5605
2026-01-24 10:19:52.80	175.88	15.72	-41.5	-45.4	12.4	1.52e-04	0	59	0	182452224	54	5662
2026-01-24 10:19:53.81	175.93	15.82	-41.6	-45.4	12.3	1.75e-04	0	60	0	183500800	54	5673
2026-01-24 10:19:54.81	175.97	15.93	-41.5	-45.3	12.4	1.43e-04	0	60	0	185597952	54	5613
2026-01-24 10:19:55.82	176.01	16.04	-41.6	-45.4	12.3	1.72e-04	0	60	0	187695104	54	5699
2026-01-24 10:19:56.83	176.06	16.16	-41.6	-45.5	12.3	1.95e-04	0	60	0	189792256	54	5728
2026-01-24 10:19:57.84	176.10	16.27	-41.6	-45.4	12.3	1.62e-04	0	59	0	191889408	54	5713
2026-01-24 10:19:58.85	176.15	16.38	-41.7	-45.6	12.1	2.22e-04	0	60	0	192937984	54	5829
2026-01-24 10:19:59.86	176.20	16.49	-41.7	-45.7	12.1	2.86e-04	0	60	0	195035136	54	5856
2026-01-24 10:20:00.87	176.24	16.61	-41.7	-45.7	12.1	2.53e-04	0	60	0	197132288	54	5877
2026-01-24 10:20:01.88	176.29	16.72	-41.8	-45.8	12.0	3.42e-04	0	59	0	199229440	54	5936
2026-01-24 10:20:02.89	176.33	16.83	-41.8	-45.9	11.8	3.92e-04	0	60	0	201326592	54	6011
2026-01-24 10:20:03.90	176.38	16.95	-41.9	-46.0	11.8	4.69e-04	0	60	0	202375168	54	6063
2026-01-24 10:20:04.90	176.43	17.06	-41.9	-46.0	11.7	5.68e-04	0	60	0	204472320	54	6124
2026-01-24 10:20:05.91	176.48	17.18	-41.9	-46.1	11.6	5.81e-04	0	60	0	206569472	54	6162
2026-01-24 10:20:06.93	176.52	17.30	-42.0	-46.1	11.6	6.29e-04	0	60	0	208666624	54	6177
2026-01-24 10:20:07.93	176.57	17.41	-41.9	-46.1	11.7	6.03e-04	0	60	0	210763776	54	6138
2026-01-24 10:20:08.94	176.62	17.53	-42.0	-46.2	11.5	6.64e-04	0	60	0	212860928	54	6258
2026-01-24 10:20:09.95	176.67	17.65	-42.0	-46.2	11.6	6.74e-04	0	60	0	213909504	54	6216
2026-01-24 10:20:10.96	176.72	17.77	-42.0	-46.2	11.6	6.58e-04	0	60	0	216006656	54	6208
2026-01-24 10:20:11.97	176.77	17.88	-42.0	-46.1	11.6	7.00e-04	0	60	0	218103808	54	6193
2026-01-24 10:20:12.98	176.82	18.00	-42.0	-46.2	11.6	6.34e-04	0	60	0	220200960	54	6250
2026-01-24 10:20:13.99	176.87	18.12	-42.0	-46.2	11.5	7.68e-04	0	60	0	222298112	54	6261
2026-01-24 10:20:15.00	176.92	18.25	-42.0	-46.2	11.6	7.37e-04	0	60	0	223346688	54	6211
2026-01-24 10:20:16.01	176.97	18.37	-42.0	-46.2	11.5	7.49e-04	0	60	0	225443840	54	6270
2026-01-24 10:20:17.02	177.02	18.49	-42.0	-46.2	11.6	7.39e-04	0	60	0	227540992	54	6240
2026-01-24 10:20:18.03	177.08	18.61	-42.0	-46.2	11.6	7.36e-04	0	60	0	229638144	54	6219
2026-01-24 10:20:19.04	177.13	18.73	-42.0	-46.2	11.6	6.32e-04	0	60	0	230686720	54	6240
2026-01-24 10:20:20.05	177.18	18.86	-42.0	-46.2	11.6	7.66e-04	0	60	0	232783872	54	6247
2026-01-24 10:20:21.06	177.23	18.98	-42.0	-46.1	11.7	5.88e-04	0	60	0	234881024	54	6197
2026-01-24 10:20:22.07	177.29	19.11	-42.0	-46.2	11.6	7.36e-04	0	60	0	236978176	54	6230
2026-01-24 10:20:23.08	177.34	19.23	-42.0	-46.1	11.6	6.14e-04	0	60	0	239075328	54	6194
2026-01-24 10:20:24.09	177.40	19.36	-42.0	-46.2	11.6	6.82e-04	0	60	0	241172480	54	6265
2026-01-24 10:20:25.10	177.45	19.49	-42.0	-46.1	11.6	7.31e-04	0	60	0	242221056	54	6198
2026-01-24 10:20:26.11	177.51	19.61	-42.0	-46.3	11.5	7.15e-04	0	60	0	244318208	54	6291
2026-01-24 10:20:27.12	177.56	19.74	-42.1	-46.3	11.5	7.80e-04	0	60	0	246415360	54	6308
2026-01-24 10:20:28.13	177.62	19.87	-42.1	-46.3	11.5	7.69e-04	0	60	0	248512512	54	6339
2026-01-24 10:20:29.14	177.68	20.00	-42.1	-46.3	11.5	9.21e-04	0	60	0	250609664	54	6330
2026-01-24 10:20:30.15	177.73	20.13	-42.1	-46.3	11.5	7.96e-04	0	60	0	251658240	54	6277
2026-01-24 10:20:31.16	177.79	20.26	-42.1	-46.3	11.5	7.86e-04	0	60	0	253755392	54	6339
2026-01-24 10:20:32.17	177.85	20.39	-42.1	-46.3	11.5	9.74e-04	0	60	0	255852544	54	6345
2026-01-24 10:20:33.18	177.91	20.52	-42.1	-46.2	11.6	7.58e-04	0	60	0	257949696	54	6265
2026-01-24 10:20:34.19	177.97	20.65	-42.1	-46.3	11.5	7.83e-04	0	60	0	260046848	54	6306
2026-01-24 10:20:35.20	178.03	20.79	-42.1	-46.4	11.4	8.98e-04	0	60	0	261095424	54	6373
2026-01-24 10:20:36.21	178.09	20.92	-42.1	-46.3	11.5	8.22e-04	0	60	0	263192576	54	6319
2026-01-24 10:20:37.21	178.15	21.06	-42.1	-46.4	11.5	8.23e-04	0	60	0	265289728	54	6357
2026-01-24 10:20:38.23	178.21	21.19	-42.1	-46.3	11.6	7.36e-04	0	60	0	267386880	54	6316
2026-01-24 10:20:39.23	178.27	21.33	-42.1	-46.3	11.5	7.99e-04	0	60	0	269484032	54	6324
2026-01-24 10:20:40.25	178.33	21.46	-42.1	-46.3	11.6	7.61e-04	0	60	0	270532608	54	6281
2026-01-24 10:20:41.26	178.39	21.60	-42.1	-46.2	11.7	6.73e-04	0	60	0	272629760	54	6225
2026-01-24 10:20:42.26	178.46	21.74	-42.1	-46.2	11.6	6.37e-04	0	60	0	274726912	54	6264
2026-01-24 10:20:43.27	178.52	21.88	-42.1	-46.2	11.6	6.48e-04	0	60	0	276824064	54	6261
2026-01-24 10:20:44.28	178.58	22.02	-42.0	-46.1	11.7	5.01e-04	0	60	0	278921216	54	6199
2026-01-24 10:20:45.29	178.65	22.16	-42.0	-46.1	11.7	5.02e-04	0	60	0	279969792	54	6188
2026-01-24 10:20:46.30	178.71	22.30	-42.0	-46.1	11.7	4.86e-04	0	60	0	282066944	54	6190
2026-01-24 10:20:47.31	178.78	22.44	-42.0	-46.1	11.8	5.23e-04	0	60	0	284164096	54	6137
2026-01-24 10:20:48.32	178.85	22.58	-42.0	-46.1	11.8	4.86e-04	0	60	0	286261248	54	6172
2026-01-24 10:20:49.33	178.91	22.73	-42.0	-46.1	11.8	5.48e-04	0	60	0	288358400	54	6140
2026-01-24 10:20:50.34	178.98	22.87	-42.0	-46.0	11.9	3.81e-04	0	60	0	289406976	54	6082
2026-01-24 10:20:51.35	179.05	23.02	-42.0	-46.1	11.9	3.87e-04	0	60	0	291504128	54	6147
2026-01-24 10:20:52.36	179.12	23.16	-42.0	-46.0	11.9	4.31e-04	0	60	0	293601280	54	6113
2026-01-24 10:20:53.37	179.19	23.31	-42.0	-46.0	11.9	3.93e-04	0	60	0	295698432	54	6104
2026-01-24 10:20:54.38	179.26	23.46	-42.0	-46.0	11.9	4.30e-04	0	60	0	297795584	54	6112
2026-01-24 10:20:55.39	179.33	23.60	-42.0	-46.0	11.9	4.58e-04	0	60	0	298844160	54	6110
2026-01-24 10:20:56.40	179.40	23.75	-42.0	-46.0	11.9	4.09e-04	0	60	0	300941312	54	6110
2026-01-24 10:20:57.41	179.47	23.90	-42.0	-46.1	11.8	3.86e-04	0	60	0	303038464	54	6154
2026-01-24 10:20:58.42	179.54	24.05	-42.0	-46.0	11.9	4.10e-04	0	60	0	305135616	54	6083
2026-01-24 10:20:59.43	179.62	24.20	-41.9	-45.9	12.0	3.52e-04	0	60	0	307232768	54	6009
2026-01-24 10:21:00.44	179.69	24.36	-42.0	-46.0	12.0	3.47e-04	0	60	0	309329920	54	6090
2026-01-24 10:21:01.45	179.76	24.51	-42.0	-46.0	12.0	3.02e-04	0	60	0	310378496	54	6074
2026-01-24 10:21:02.45	179.84	24.66	-42.0	-46.0	11.9	3.37e-04	0	60	0	312475648	54	6117
2026-01-24 10:21:03.47	179.92	24.82	-42.0	-46.1	11.9	4.05e-04	0	61	0	314572800	54	6160
2026-01-24 10:21:04.47	179.99	24.97	-42.1	-46.3	11.7	5.41e-04	0	60	0	316669952	54	6303
2026-01-24 10:21:05.48	180.07	25.13	-42.1	-46.1	11.8	4.49e-04	0	60	0	318767104	54	6174
2026-01-24 10:21:06.49	180.15	25.29	-42.1	-46.1	11.8	4.39e-04	0	60	0	319815680	54	6199
2026-01-24 10:21:07.50	180.23	25.44	-42.1	-46.1	11.8	4.54e-04	0	61	0	321912832	54	6194
2026-01-24 10:21:08.51	180.31	25.60	-42.1	-46.3	11.6	5.44e-04	0	60	0	324009984	54	6327
2026-01-24 10:21:09.52	180.39	25.76	-42.2	-46.3	11.6	6.79e-04	0	60	0	326107136	54	6341
2026-01-24 10:21:10.53	180.47	25.92	-42.2	-46.3	11.7	6.20e-04	0	60	0	328204288	54	6316
2026-01-24 10:21:11.54	180.55	26.09	-42.2	-46.3	11.7	6.53e-04	0	60	0	329252864	54	6314
2026-01-24 10:21:12.55	180.63	26.25	-42.2	-46.3	11.7	5.85e-04	0	60	0	331350016	54	6335
2026-01-24 10:21:13.56	180.72	26.41	-42.2	-46.4	11.6	5.90e-04	0	60	0	333447168	54	6352
2026-01-24 10:21:14.57	180.80	26.58	-42.2	-46.3	11.7	6.68e-04	0	60	0	335544320	54	6316
2026-01-24 10:21:15.58	180.89	26.74	-42.2	-46.4	11.6	5.55e-04	0	61	0	337641472	54	6382
2026-01-24 10:21:16.59	180.97	26.91	-42.2	-46.3	11.7	5.62e-04	0	60	0	338690048	54	6291
2026-01-24 10:21:17.60	181.06	27.08	-42.1	-46.3	11.7	5.39e-04	0	60	0	340787200	54	6282
2026-01-24 10:21:18.61	181.15	27.25	-42.1	-46.2	11.8	5.78e-04	0	60	0	342884352	54	6219
2026-01-24 10:21:19.62	181.24	27.42	-42.1	-46.2	11.8	4.61e-04	0	60	0	344981504	54	6222
2026-01-24 10:21:20.62	181.32	27.58	-42.1	-46.3	11.7	4.61e-04	0	61	0	347078656	54	6280
2026-01-24 10:21:21.63	181.42	27.76	-42.1	-46.1	11.9	5.14e-04	0	60	0	348127232	54	6163
2026-01-24 10:21:22.64	181.51	27.93	-42.1	-46.1	11.9	4.41e-04	0	60	0	350224384	54	6157
2026-01-24 10:21:23.65	181.60	28.10	-42.1	-46.1	11.9	3.97e-04	0	61	0	352321536	54	6177
2026-01-24 10:21:24.66	181.69	28.28	-42.1	-46.1	11.9	4.62e-04	0	60	0	354418688	54	6152
2026-01-24 10:21:25.67	181.79	28.45	-42.1	-46.1	11.9	3.74e-04	0	61	0	356515840	54	6140
2026-01-24 10:21:26.68	181.88	28.63	-42.1	-46.1	11.9	3.90e-04	0	60	0	357564416	54	6147
2026-01-24 10:21:27.69	181.98	28.81	-42.1	-46.1	11.9	3.31e-04	0	61	0	359661568	54	6175
2026-01-24 10:21:28.70	182.08	28.98	-42.1	-46.1	11.9	4.26e-04	0	61	0	361758720	54	6163
2026-01-24 10:21:29.71	182.18	29.16	-42.2	-46.4	11.7	5.33e-04	0	61	0	363855872	54	6353
2026-01-24 10:21:30.72	182.28	29.34	-42.3	-46.5	11.5	7.52e-04	0	60	0	365953024	55	6104
2026-01-24 10:21:31.73	182.38	29.53	-42.3	-46.6	11.4	8.25e-04	0	61	0	367001600	55	6186
2026-01-24 10:21:32.74	182.48	29.71	-42.4	-46.7	11.3	1.20e-03	0	61	0	369098752	55	6225
2026-01-24 10:21:33.75	182.58	29.89	-42.4	-46.8	11.2	1.28e-03	0	61	0	371195904	55	6305
2026-01-24 10:21:34.76	182.69	30.08	-42.5	-47.0	10.9	1.64e-03	0	61	0	373293056	55	6479
2026-01-24 10:21:35.77	182.79	30.26	-42.5	-47.0	11.0	1.97e-03	0	61	0	375390208	55	6462
2026-01-24 10:21:36.78	182.90	30.45	-42.5	-47.0	11.0	1.98e-03	0	60	0	377487360	55	6469
2026-01-24 10:21:37.78	183.00	30.64	-42.6	-47.2	10.8	2.52e-03	0	60	0	378535936	55	6625
2026-01-24 10:21:38.79	183.11	30.83	-42.6	-47.2	10.8	2.80e-03	0	60	0	380633088	55	6642
2026-01-24 10:21:39.80	183.22	31.02	-42.7	-47.3	10.6	3.19e-03	0	61	0	382730240	55	6717
2026-01-24 10:21:40.81	183.33	31.21	-42.7	-47.4	10.6	3.43e-03	0	61	0	384827392	55	6742
2026-01-24 10:21:41.82	183.45	31.40	-42.9	-47.7	10.5	3.83e-03	0	61	0	386924544	56	6627
2026-01-24 10:21:42.83	183.56	31.60	-43.0	-47.9	10.2	5.62e-03	0	61	0	387973120	56	6776
2026-01-24 10:21:43.84	183.68	31.79	-43.0	-48.0	10.2	6.43e-03	0	61	0	390070272	56	6802
2026-01-24 10:21:44.85	183.79	31.99	-43.0	-48.0	10.1	6.10e-03	0	61	0	392167424	56	6861
2026-01-24 10:21:45.86	183.91	32.19	-43.0	-47.8	10.4	5.25e-03	0	61	0	394264576	56	6700
2026-01-24 10:21:46.87	184.03	32.39	-43.0	-48.0	10.1	5.38e-03	0	61	0	396361728	56	6828
2026-01-24 10:21:47.88	184.15	32.59	-43.0	-47.8	10.3	5.77e-03	0	61	0	397410304	56	6700
2026-01-24 10:21:48.89	184.27	32.79	-42.9	-47.6	10.5	3.80e-03	0	61	0	399507456	56	6556
2026-01-24 10:21:49.90	184.40	32.99	-42.8	-47.5	10.7	2.79e-03	0	61	0	401604608	56	6428
2026-01-24 10:21:50.91	184.52	33.19	-42.8	-47.4	10.8	2.85e-03	0	61	0	403701760	56	6368
2026-01-24 10:21:51.91	184.65	33.40	-42.8	-47.3	10.8	2.35e-03	0	61	0	405798912	56	6340
2026-01-24 10:21:52.93	184.78	33.60	-42.7	-47.1	11.1	1.98e-03	0	61	0	406847488	56	6186
2026-01-24 10:21:53.94	184.91	33.81	-42.7	-47.1	11.0	1.84e-03	0	61	0	408944640	56	6200
2026-01-24 10:21:54.95	185.04	34.02	-42.7	-47.2	11.0	1.92e-03	0	61	0	411041792	56	6265
2026-01-24 10:21:55.95	185.17	34.23	-42.8	-47.3	11.0	2.04e-03	0	61	0	413138944	56	6280
2026-01-24 10:21:56.96	185.31	34.44	-42.8	-47.3	10.9	2.19e-03	0	61	0	415236096	56	6312
2026-01-24 10:21:57.97	185.44	34.65	-42.7	-47.2	11.0	2.20e-03	0	61	0	416284672	56	6258
2026-01-24 10:21:58.98	185.58	34.86	-42.8	-47.4	10.8	2.68e-03	0	61	0	418381824	56	6411
2026-01-24 10:21:59.99	185.72	35.08	-42.8	-47.3	11.0	2.13e-03	0	61	0	420478976	56	6283
2026-01-24 10:22:01.00	185.86	35.30	-42.8	-47.3	10.9	2.19e-03	0	61	0	422576128	56	6336
2026-01-24 10:22:02.01	186.01	35.51	-42.8	-47.4	10.8	2.49e-03	0	61	0	424673280	56	6418
2026-01-24 10:22:03.02	186.15	35.73	-43.0	-47.7	10.4	3.34e-03	0	61	0	425721856	56	6631
2026-01-24 10:22:04.03	186.30	35.95	-43.0	-47.9	10.3	5.10e-03	0	61	0	427819008	56	6741
2026-01-24 10:22:05.04	186.45	36.17	-43.0	-47.9	10.3	5.43e-03	0	61	0	429916160	56	6765
2026-01-24 10:22:06.05	186.60	36.40	-43.1	-48.0	10.3	4.76e-03	0	61	0	432013312	56	6810
2026-01-24 10:22:07.06	186.76	36.62	-43.1	-48.1	10.1	6.67e-03	0	61	0	434110464	56	6938
2026-01-24 10:22:08.07	186.91	36.85	-43.1	-48.0	10.1	6.76e-03	0	61	0	435159040	56	6879
2026-01-24 10:22:09.08	187.07	37.07	-43.1	-48.1	10.1	6.18e-03	0	61	0	437256192	56	6940
2026-01-24 10:22:10.08	187.23	37.30	-43.1	-48.2	10.0	6.76e-03	0	61	0	439353344	56	6971
2026-01-24 10:22:11.09	187.39	37.53	-43.2	-48.4	9.8	8.99e-03	0	61	0	441450496	57	6730
2026-01-24 10:22:12.10	187.56	37.76	-43.3	-48.6	9.5	1.21e-02	0	61	0	443547648	57	6900
2026-01-24 10:22:13.12	187.72	37.99	-43.4	-49.0	9.2	1.51e-02	0	61	0	445644800	57	7241
2026-01-24 10:22:14.12	187.89	38.22	-43.4	-48.9	9.3	1.98e-02	0	61	0	446693376	57	7196
2026-01-24 10:22:15.13	188.06	38.46	-43.6	-49.5	8.7	3.20e-02	0	61	0	448790528	57	7643
2026-01-24 10:22:16.14	188.24	38.69	-43.6	-49.5	8.7	3.35e-02	0	61	0	450887680	57	7718
2026-01-24 10:22:17.15	188.41	38.93	-43.6	-49.6	8.6	4.01e-02	0	61	0	452984832	57	7733
2026-01-24 10:22:18.16	188.59	39.17	-43.5	-49.4	8.8	3.34e-02	0	61	0	455081984	57	7565
2026-01-24 10:22:19.17	188.77	39.41	-43.5	-49.4	8.8	3.53e-02	0	61	0	456130560	57	7570
2026-01-24 10:22:20.18	188.96	39.65	-43.5	-49.2	8.9	3.33e-02	0	61	0	458227712	57	7447
2026-01-24 10:22:21.19	189.14	39.89	-43.6	-49.4	8.8	2.83e-02	0	61	0	460324864	57	7581
2026-01-24 10:22:22.20	189.33	40.14	-43.6	-49.5	8.7	3.15e-02	0	61	0	462422016	57	7719
2026-01-24 10:22:23.20	189.53	40.38	-43.7	-49.8	8.4	4.42e-02	0	61	0	464519168	57	7957
2026-01-24 10:22:24.21	189.72	40.63	-43.7	-49.9	8.3	5.15e-02	0	61	0	465567744	58	7601
2026-01-24 10:22:25.22	189.92	40.88	-43.6	-49.7	8.4	4.56e-02	0	61	0	467664896	58	7444
2026-01-24 10:22:26.23	190.12	41.13	-43.6	-49.5	8.7	3.84e-02	0	61	0	469762048	58	7249
2026-01-24 10:22:27.24	190.32	41.38	-43.5	-49.1	9.0	3.00e-02	0	61	0	471859200	58	6946
2026-01-24 10:22:28.25	190.53	41.63	-43.4	-48.9	9.4	1.96e-02	0	61	0	473956352	58	6724
2026-01-24 10:22:29.26	190.74	41.88	-43.3	-48.6	9.7	1.33e-02	0	61	0	475004928	58	6520
2026-01-24 10:22:30.27	190.96	42.14	-43.3	-48.5	9.8	1.01e-02	0	61	0	477102080	58	6423
2026-01-24 10:22:31.28	191.17	42.39	-43.2	-48.2	10.1	7.28e-03	0	61	0	479199232	58	6220
2026-01-24 10:22:32.29	191.39	42.65	-43.2	-48.3	10.0	7.40e-03	0	61	0	481296384	58	6315
2026-01-24 10:22:33.30	191.62	42.91	-43.2	-48.2	10.0	7.77e-03	0	61	0	483393536	58	6269
2026-01-24 10:22:34.31	191.85	43.17	-43.1	-48.0	10.3	6.98e-03	0	61	0	484442112	58	6101
2026-01-24 10:22:35.32	192.08	43.43	-42.9	-47.6	10.7	3.56e-03	0	61	0	486539264	57	6148
2026-01-24 10:22:36.33	192.31	43.69	-42.9	-47.5	10.9	2.57e-03	0	61	0	488636416	57	6106
2026-01-24 10:22:37.34	192.55	43.96	-42.9	-47.5	10.8	2.35e-03	0	61	0	490733568	57	6110
2026-01-24 10:22:38.35	192.80	44.22	-42.9	-47.5	10.8	2.26e-03	0	61	0	492830720	57	6094
2026-01-24 10:22:39.35	193.04	44.49	-43.0	-47.6	10.7	2.92e-03	0	61	0	493879296	57	6181
2026-01-24 10:22:40.37	193.29	44.76	-43.0	-47.8	10.5	2.95e-03	0	61	0	495976448	57	6318
2026-01-24 10:22:41.37	193.55	45.02	-43.0	-47.8	10.5	3.66e-03	0	61	0	498073600	57	6278
2026-01-24 10:22:42.38	193.81	45.29	-43.1	-47.9	10.4	4.72e-03	0	61	0	500170752	57	6353
2026-01-24 10:22:43.39	194.07	45.57	-43.1	-47.9	10.4	4.12e-03	0	61	0	502267904	57	6353
2026-01-24 10:22:44.40	194.34	45.84	-43.1	-47.9	10.4	4.00e-03	0	61	0	503316480	57	6388
2026-01-24 10:22:45.41	194.61	46.11	-43.0	-47.8	10.5	3.85e-03	0	61	0	505413632	57	6335
2026-01-24 10:22:46.42	194.89	46.39	-43.2	-48.2	10.1	5.11e-03	0	61	0	507510784	57	6601
2026-01-24 10:22:47.43	195.17	46.66	-43.2	-48.3	9.9	7.70e-03	0	61	0	509607936	57	6718
2026-01-24 10:22:48.44	195.46	46.94	-43.2	-48.4	9.9	8.84e-03	0	61	0	511705088	57	6744
2026-01-24 10:22:49.45	195.75	47.22	-43.2	-48.2	10.1	7.34e-03	0	61	0	513802240	57	6599
2026-01-24 10:22:50.46	196.05	47.50	-43.0	-47.7	10.6	3.80e-03	0	61	0	514850816	57	6267
2026-01-24 10:22:51.47	196.36	47.78	-42.8	-47.2	11.1	2.39e-03	0	61	0	516947968	57	5915
2026-01-24 10:22:52.48	196.66	48.06	-42.9	-47.4	10.9	1.61e-03	0	61	0	519045120	57	5999
2026-01-24 10:22:53.49	196.98	48.34	-42.8	-47.3	11.1	1.62e-03	0	61	0	521142272	57	5942
2026-01-24 10:22:54.50	197.30	48.62	-42.9	-47.6	10.8	2.35e-03	0	61	0	523239424	57	6140
2026-01-24 10:22:55.51	197.62	48.91	-42.9	-47.5	10.8	2.49e-03	0	61	0	524288000	57	6097
2026-01-24 10:22:56.52	197.96	49.19	-42.8	-47.2	11.1	2.22e-03	0	61	0	526385152	57	5916
2026-01-24 10:22:57.52	198.29	49.47	-42.5	-46.7	11.7	7.60e-04	0	61	0	528482304	57	5535
2026-01-24 10:22:58.53	198.63	49.76	-42.2	-46.0	12.5	2.28e-04	0	61	0	530579456	56	5413
2026-01-24 10:22:59.54	198.99	50.05	-41.7	-45.2	13.1	6.40e-05	0	61	0	532676608	55	5231
2026-01-24 10:23:00.56	199.35	50.34	-41.6	-45.0	13.3	2.13e-05	0	61	0	533725184	55	5103
2026-01-24 10:23:01.57	199.71	50.62	-41.4	-44.5	13.7	6.10e-06	0	61	0	535822336	54	5154
2026-01-24 10:23:02.57	200.08	50.91	-41.1	-44.1	14.2	1.50e-06	0	61	0	537919488	54	4916
2026-01-24 10:23:03.58	200.46	51.20	-40.9	-43.7	14.5	7.00e-07	0	61	0	540016640	52	5256
2026-01-24 10:23:04.59	200.84	51.49	-40.7	-43.4	14.9	0.00e+00	0	61	0	542113792	52	5088
2026-01-24 10:23:05.60	201.23	51.78	-40.6	-43.4	14.9	0.00e+00	0	61	0	543162368	52	5042
2026-01-24 10:23:06.61	201.63	52.07	-40.4	-43.0	15.3	0.00e+00	0	61	0	545259520	52	4829
2026-01-24 10:23:07.62	202.04	52.36	-40.2	-42.7	15.6	0.00e+00	0	61	0	547356672	52	4669
2026-01-24 10:23:08.63	202.46	52.65	-40.0	-42.4	16.0	0.00e+00	0	61	0	549453824	51	4761
2026-01-24 10:23:09.64	202.88	52.94	-39.8	-42.1	16.3	0.00e+00	0	61	0	551550976	50	4879
2026-01-24 10:23:10.65	203.32	53.23	-39.7	-42.0	16.5	0.00e+00	0	61	0	552599552	50	4822
2026-01-24 10:23:11.66	203.76	53.52	-39.6	-41.7	16.7	0.00e+00	0	61	0	554696704	50	4689
2026-01-24 10:23:12.67	204.21	53.82	-39.7	-41.9	16.5	0.00e+00	0	61	0	556793856	50	4793
2026-01-24 10:23:13.68	204.67	54.11	-39.8	-42.1	16.3	0.00e+00	0	61	0	558891008	50	4890
2026-01-24 10:23:14.69	205.14	54.40	-40.1	-42.4	15.9	0.00e+00	0	61	0	560988160	50	5091
2026-01-24 10:23:15.70	205.62	54.69	-40.2	-42.6	15.8	0.00e+00	0	61	0	562036736	50	5174
2026-01-24 10:23:16.71	206.10	54.98	-40.2	-42.6	15.8	0.00e+00	0	61	0	564133888	51	4898
2026-01-24 10:23:17.72	206.60	55.27	-40.2	-42.6	15.8	0.00e+00	0	61	0	566231040	51	4888
2026-01-24 10:23:18.73	207.11	55.56	-40.4	-43.0	15.4	0.00e+00	0	61	0	568328192	51	5114
2026-01-24 10:23:19.74	207.63	55.85	-40.8	-43.6	14.7	0.00e+00	0	61	0	570425344	52	5196
2026-01-24 10:23:20.75	208.16	56.13	-41.2	-44.3	14.0	4.50e-06	0	61	0	571473920	53	5317
2026-01-24 10:23:21.76	208.70	56.42	-41.3	-44.4	13.9	7.60e-06	0	61	0	573571072	53	5364
2026-01-24 10:23:22.76	209.25	56.70	-41.4	-44.7	13.6	4.50e-06	0	61	0	575668224	53	5553
2026-01-24 10:23:23.77	209.81	56.99	-41.6	-44.9	13.3	7.60e-06	0	61	0	577765376	53	5721
2026-01-24 10:23:24.78	210.38	57.27	-41.8	-45.4	12.8	3.96e-05	0	61	0	579862528	54	5688
2026-01-24 10:23:25.79	210.97	57.55	-42.0	-45.7	12.5	6.63e-05	0	61	0	581959680	54	5889
2026-01-24 10:23:26.80	211.57	57.83	-42.0	-45.7	12.5	1.16e-04	0	61	0	583008256	54	5905
2026-01-24 10:23:27.81	212.18	58.11	-42.0	-45.8	12.4	1.38e-04	0	61	0	585105408	54	5967
2026-01-24 10:23:28.82	212.81	58.39	-42.1	-46.0	12.2	2.08e-04	0	61	0	587202560	54	6084
2026-01-24 10:23:29.83	213.44	58.66	-42.1	-45.9	12.3	2.15e-04	0	61	0	589299712	54	6052
2026-01-24 10:23:30.84	214.09	58.94	-41.8	-45.5	12.7	8.16e-05	0	61	0	590348288	54	5746
2026-01-24 10:23:31.85	214.76	59.21	-41.8	-45.4	12.8	3.28e-05	0	61	0	592445440	54	5666
2026-01-24 10:23:32.86	215.43	59.48	-42.0	-45.7	12.6	9.00e-05	0	61	0	594542592	54	5888
2026-01-24 10:23:33.86	216.12	59.74	-42.1	-45.8	12.3	1.69e-04	0	61	0	596639744	54	5989
2026-01-24 10:23:34.87	216.82	60.00	-41.9	-45.5	12.7	7.85e-05	0	61	0	598736896	54	5774
2026-01-24 10:23:35.88	217.54	60.27	-41.7	-45.1	13.1	4.57e-05	0	61	0	599785472	54	5503
2026-01-24 10:23:36.89	218.28	60.52	-41.4	-44.6	13.7	3.80e-06	0	61	0	601882624	54	5171
2026-01-24 10:23:37.90	219.03	60.78	-41.2	-44.3	13.9	6.80e-06	0	61	0	603979776	54	4994
2026-01-24 10:23:38.91	219.79	61.03	-41.3	-44.5	13.8	2.20e-06	0	61	0	606076928	54	5119
2026-01-24 10:23:39.92	220.57	61.28	-41.3	-44.4	13.9	3.80e-06	0	61	0	608174080	54	5045
2026-01-24 10:23:40.93	221.37	61.52	-41.2	-44.3	14.0	2.20e-06	0	61	0	610271232	54	5005
2026-01-24 10:23:41.94	222.18	61.76	-40.9	-43.8	14.5	7.00e-07	0	62	0	611319808	53	4999
2026-01-24 10:23:42.95	223.00	62.00	-40.8	-43.7	14.6	0.00e+00	0	61	0	613416960	53	4939
2026-01-24 10:23:43.96	223.85	62.23	-41.0	-44.0	14.2	0.00e+00	0	61	0	615514112	53	5131
2026-01-24 10:23:44.97	224.70	62.45	-41.3	-44.4	13.9	1.50e-06	0	61	0	617611264	53	5345
2026-01-24 10:23:45.98	225.58	62.68	-41.3	-44.5	13.8	3.00e-06	0	61	0	619708416	53	5404
2026-01-24 10:23:46.99	226.47	62.89	-41.3	-44.4	13.8	5.30e-06	0	61	0	620756992	53	5356
2026-01-24 10:23:48.00	227.37	63.10	-41.2	-44.3	13.9	5.30e-06	0	61	0	622854144	53	5315
2026-01-24 10:23:49.01	228.29	63.31	-41.2	-44.2	14.0	1.50e-06	0	61	0	624951296	53	5256
2026-01-24 10:23:50.02	229.23	63.51	-41.3	-44.4	13.9	5.30e-06	0	61	0	627048448	53	5350
2026-01-24 10:23:51.02	230.18	63.71	-41.6	-45.0	13.2	1.06e-05	0	61	0	629145600	53	5770
2026-01-24 10:23:52.03	231.15	63.89	-41.6	-45.0	13.2	3.20e-05	0	61	0	630194176	53	5749
2026-01-24 10:23:53.04	232.13	64.08	-41.5	-44.8	13.5	1.06e-05	0	61	0	632291328	53	5594
2026-01-24 10:23:54.05	233.13	64.25	-41.3	-44.4	13.9	4.50e-06	0	61	0	634388480	53	5382
2026-01-24 10:23:55.06	234.15	64.42	-41.5	-44.9	13.3	8.30e-06	0	61	0	636485632	53	5675
2026-01-24 10:23:56.07	235.18	64.59	-41.8	-45.4	12.8	4.19e-05	0	61	0	638582784	54	5705
2026-01-24 10:23:57.08	236.22	64.74	-41.9	-45.5	12.7	6.63e-05	0	61	0	639631360	54	5743
2026-01-24 10:23:58.09	237.28	64.89	-41.8	-45.2	13.0	4.50e-05	0	61	0	641728512	54	5584
2026-01-24 10:23:59.10	238.35	65.03	-41.7	-45.1	13.0	4.19e-05	0	61	0	643825664	54	5520
2026-01-24 10:24:00.11	239.44	65.17	-41.8	-45.4	12.8	4.73e-05	0	61	0	645922816	54	5704
2026-01-24 10:24:01.12	240.53	65.29	-42.0	-45.8	12.4	9.76e-05	0	61	0	648019968	54	5970
2026-01-24 10:24:02.13	241.64	65.41	-42.1	-46.0	12.1	2.53e-04	0	61	0	649068544	54	6110
2026-01-24 10:24:03.14	242.76	65.52	-42.2	-46.2	11.9	4.05e-04	0	61	0	651165696	55	5868
2026-01-24 10:24:04.15	243.90	65.62	-42.3	-46.3	11.8	4.57e-04	0	61	0	653262848	55	5986
2026-01-24 10:24:05.16	245.04	65.71	-42.3	-46.4	11.8	4.97e-04	0	61	0	655360000	55	6051
2026-01-24 10:24:06.17	246.19	65.80	-42.4	-46.5	11.6	6.16e-04	0	61	0	657457152	55	6111
2026-01-24 10:24:07.18	247.35	65.87	-42.5	-46.7	11.4	7.09e-04	0	61	0	658505728	55	6253
2026-01-24 10:24:08.19	248.51	65.94	-42.6	-47.0	11.1	1.10e-03	0	61	0	660602880	55	6449
2026-01-24 10:24:09.19	249.68	66.00	-42.9	-47.6	10.7	1.95e-03	0	61	0	662700032	56	6523
2026-01-24 10:24:10.20	250.86	66.05	-42.9	-47.6	10.6	2.55e-03	0	61	0	664797184	56	6505
2026-01-24 10:24:11.21	252.04	66.09	-42.9	-47.4	10.8	2.78e-03	0	61	0	666894336	56	6400
2026-01-24 10:24:12.22	253.23	66.12	-42.5	-46.6	11.7	7.90e-04	0	61	0	667942912	56	5827
2026-01-24 10:24:13.23	254.42	66.14	-42.1	-45.7	12.5	2.49e-04	0	61	0	670040064	56	5258
2026-01-24 10:24:14.24	255.61	66.15	-42.0	-45.8	12.4	8.16e-05	0	61	0	672137216	55	5602
2026-01-24 10:24:15.25	256.80	66.15	-42.4	-46.6	11.6	5.70e-04	0	61	0	674234368	55	6149
2026-01-24 10:24:16.26	257.99	66.14	-42.4	-46.6	11.4	8.97e-04	0	61	0	676331520	55	6180
2026-01-24 10:24:17.27	259.18	66.13	-42.3	-46.3	11.9	6.71e-04	0	61	0	678428672	55	5946
2026-01-24 10:24:18.28	260.37	66.10	-42.1	-46.0	12.1	2.97e-04	0	61	0	679477248	55	5748
2026-01-24 10:24:19.29	261.56	66.07	-42.1	-46.0	12.1	2.35e-04	0	61	0	681574400	55	5751
2026-01-24 10:24:20.30	262.74	66.02	-42.1	-46.0	12.2	2.68e-04	0	61	0	683671552	55	5766
2026-01-24 10:24:21.31	263.92	65.97	-41.9	-45.5	12.7	9.53e-05	0	61	0	685768704	54	5738
2026-01-24 10:24:22.32	265.09	65.91	-41.7	-45.2	13.0	3.28e-05	0	61	0	687865856	54	5530
2026-01-24 10:24:23.33	266.25	65.84	-41.8	-45.4	12.8	4.88e-05	0	61	0	688914432	54	5684
2026-01-24 10:24:24.34	267.40	65.76	-42.4	-46.5	11.6	1.59e-04	0	62	0	691011584	55	6129
2026-01-24 10:24:25.35	268.55	65.67	-42.1	-46.0	12.0	4.80e-04	0	61	0	693108736	55	5751
2026-01-24 10:24:26.36	269.68	65.57	-41.5	-44.7	13.4	5.64e-05	0	61	0	695205888	55	4975
2026-01-24 10:24:27.37	270.81	65.47	-41.1	-44.1	14.1	9.10e-06	0	61	0	697303040	54	4906
2026-01-24 10:24:28.38	271.93	65.35	-41.4	-44.6	13.6	5.30e-06	0	61	0	698351616	54	5214
2026-01-24 10:24:29.39	273.03	65.23	-41.8	-45.3	12.9	2.51e-05	0	61	0	700448768	54	5610
2026-01-24 10:24:30.40	274.12	65.10	-42.0	-45.6	12.5	9.38e-05	0	61	0	702545920	54	5849
2026-01-24 10:24:31.41	275.20	64.97	-41.7	-45.2	13.0	6.33e-05	0	61	0	704643072	54	5567
2026-01-24 10:24:32.42	276.26	64.82	-41.6	-44.9	13.2	2.36e-05	0	61	0	706740224	54	5387
2026-01-24 10:24:33.42	277.30	64.67	-41.7	-45.1	13.1	1.90e-05	0	61	0	707788800	54	5502
2026-01-24 10:24:34.43	278.34	64.51	-41.7	-45.1	13.1	3.89e-05	0	61	0	709885952	54	5491
2026-01-24 10:24:35.44	279.36	64.35	-41.3	-44.4	13.8	7.60e-06	0	61	0	711983104	54	5095
2026-01-24 10:24:36.45	280.37	64.17	-40.8	-43.6	14.6	0.00e+00	0	61	0	714080256	53	4872
2026-01-24 10:24:37.46	281.36	63.99	-40.9	-43.7	14.6	0.00e+00	0	61	0	716177408	53	4934
2026-01-24 10:24:38.47	282.33	63.81	-40.9	-43.8	14.3	0.00e+00	0	61	0	717225984	53	5036
2026-01-24 10:24:39.48	283.29	63.62	-40.7	-43.5	14.8	7.00e-07	0	61	0	719323136	53	4817
2026-01-24 10:24:40.49	284.24	63.42	-40.2	-42.7	15.5	7.00e-07	0	61	0	721420288	52	4701
2026-01-24 10:24:41.50	285.17	63.22	-39.9	-42.2	16.1	0.00e+00	0	61	0	723517440	51	4671
2026-01-24 10:24:42.51	286.08	63.01	-40.0	-42.4	15.9	0.00e+00	0	61	0	725614592	51	4805
2026-01-24 10:24:43.52	286.98	62.79	-40.2	-42.6	15.7	0.00e+00	0	61	0	726663168	51	4895
2026-01-24 10:24:44.53	287.86	62.57	-39.6	-41.8	16.5	0.00e+00	0	61	0	728760320	51	4464
2026-01-24 10:24:45.54	288.72	62.35	-39.2	-41.2	17.1	0.00e+00	0	61	0	730857472	50	4405
2026-01-24 10:24:46.55	289.57	62.12	-39.2	-41.2	17.2	0.00e+00	0	61	0	732954624	50	4417
2026-01-24 10:24:47.56	290.40	61.89	-39.4	-41.5	16.8	0.00e+00	0	62	0	735051776	50	4597
2026-01-24 10:24:48.57	291.22	61.65	-39.5	-41.7	16.7	0.00e+00	0	61	0	736100352	50	4672
2026-01-24 10:24:49.58	292.02	61.41	-39.5	-41.7	16.6	0.00e+00	0	61	0	738197504	50	4690
2026-01-24 10:24:50.59	292.81	61.17	-39.7	-41.9	16.4	0.00e+00	0	61	0	740294656	50	4781
2026-01-24 10:24:51.59	293.57	60.92	-39.7	-41.9	16.4	0.00e+00	0	61	0	742391808	50	4799
2026-01-24 10:24:52.60	294.33	60.67	-40.2	-42.6	15.7	0.00e+00	0	61	0	744488960	50	5216
2026-01-24 10:24:53.61	295.07	60.41	-40.9	-43.8	14.4	7.00e-07	0	61	0	746586112	52	5333
2026-01-24 10:24:54.62	295.80	60.15	-41.1	-44.1	14.1	3.00e-06	0	61	0	747634688	52	5518
2026-01-24 10:24:55.63	296.51	59.89	-41.0	-43.9	14.3	3.00e-06	0	61	0	749731840	52	5366
2026-01-24 10:24:56.64	297.21	59.63	-41.3	-44.4	13.8	0.00e+00	0	62	0	751828992	53	5389
2026-01-24 10:24:57.65	297.89	59.36	-41.7	-45.1	13.1	2.21e-05	0	61	0	753926144	53	5819
2026-01-24 10:24:58.66	298.56	59.09	-41.6	-45.0	13.2	2.74e-05	0	61	0	756023296	53	5725
2026-01-24 10:24:59.67	299.22	58.82	-41.6	-45.0	13.1	2.97e-05	0	61	0	757071872	53	5758
2026-01-24 10:25:00.68	299.86	58.55	-41.8	-45.3	13.0	3.20e-05	0	61	0	759169024	54	5603
2026-01-24 10:25:01.69	300.49	58.27	-41.5	-44.7	13.5	1.06e-05	0	61	0	761266176	54	5260
2026-01-24 10:25:02.70	301.11	58.00	-40.9	-43.8	14.5	3.80e-06	0	61	0	763363328	53	5002
2026-01-24 10:25:03.71	301.71	57.72	-41.0	-44.0	14.3	1.50e-06	0	61	0	765460480	53	5133
2026-01-24 10:25:04.72	302.30	57.44	-41.0	-43.9	14.3	7.00e-07	0	61	0	766509056	53	5097
2026-01-24 10:25:05.73	302.88	57.16	-40.4	-43.0	15.3	0.00e+00	0	61	0	768606208	52	4820
2026-01-24 10:25:06.74	303.45	56.87	-40.1	-42.5	15.8	0.00e+00	0	61	0	770703360	52	4548
2026-01-24 10:25:07.75	304.01	56.59	-40.1	-42.6	15.7	0.00e+00	0	62	0	772800512	52	4599
2026-01-24 10:25:08.76	304.55	56.30	-40.0	-42.4	15.8	0.00e+00	0	61	0	774897664	52	4543
2026-01-24 10:25:09.77	305.09	56.02	-39.5	-41.8	16.5	0.00e+00	0	61	0	775946240	51	4481
2026-01-24 10:25:10.78	305.61	55.73	-39.4	-41.7	16.6	0.00e+00	0	61	0	778043392	50	4688
2026-01-24 10:25:11.79	306.12	55.44	-39.7	-42.1	16.3	0.00e+00	0	61	0	780140544	50	4903
2026-01-24 10:25:12.80	306.63	55.15	-39.5	-41.8	16.5	0.00e+00	0	61	0	782237696	50	4717
2026-01-24 10:25:13.81	307.12	54.87	-39.2	-41.3	17.0	0.00e+00	0	61	0	784334848	50	4463
2026-01-24 10:25:14.82	307.60	54.58	-39.4	-41.6	16.7	0.00e+00	0	61	0	785383424	50	4631
2026-01-24 10:25:15.83	308.07	54.29	-39.9	-42.2	16.1	0.00e+00	0	61	0	787480576	50	4977
2026-01-24 10:25:16.84	308.54	54.00	-39.9	-42.3	16.0	0.00e+00	0	61	0	789577728	50	4996
2026-01-24 10:25:17.84	308.99	53.71	-39.8	-42.0	16.3	0.00e+00	0	61	0	791674880	50	4854
2026-01-24 10:25:18.86	309.44	53.42	-40.0	-42.3	16.0	0.00e+00	0	61	0	793772032	50	5036
2026-01-24 10:25:19.87	309.87	53.13	-40.2	-42.6	15.7	0.00e+00	0	61	0	794820608	50	5208
2026-01-24 10:25:20.88	310.30	52.84	-40.2	-42.6	15.7	0.00e+00	0	61	0	796917760	51	4924
2026-01-24 10:25:21.88	310.72	52.55	-40.1	-42.5	15.8	0.00e+00	0	61	0	799014912	51	4841
2026-01-24 10:25:22.89	311.13	52.26	-40.6	-43.3	15.1	0.00e+00	0	61	0	801112064	51	5287
2026-01-24 10:25:23.90	311.53	51.97	-41.1	-44.0	14.2	0.00e+00	0	62	0	803209216	52	5457
2026-01-24 10:25:24.91	311.93	51.68	-41.6	-45.0	13.3	7.60e-06	0	61	0	804257792	53	5729
2026-01-24 10:25:25.92	312.32	51.39	-41.5	-44.7	13.5	2.51e-05	0	61	0	806354944	53	5567
2026-01-24 10:25:26.93	312.70	51.11	-41.6	-45.0	13.2	1.67e-05	0	61	0	808452096	53	5737
2026-01-24 10:25:27.94	313.08	50.82	-41.9	-45.5	12.7	3.20e-05	0	61	0	810549248	54	5760
2026-01-24 10:25:28.95	313.44	50.53	-42.1	-45.9	12.2	1.52e-04	0	61	0	812646400	54	6052
2026-01-24 10:25:29.96	313.80	50.24	-42.3	-46.2	12.0	2.94e-04	0	61	0	814743552	55	5869
2026-01-24 10:25:30.97	314.16	49.96	-42.5	-46.7	11.4	4.87e-04	0	61	0	815792128	55	6231
2026-01-24 10:25:31.98	314.50	49.67	-43.1	-47.8	10.5	2.10e-03	0	61	0	817889280	56	6679
2026-01-24 10:25:32.99	314.85	49.39	-43.3	-48.4	9.8	6.89e-03	0	61	0	819986432	57	6775
2026-01-24 10:25:34.00	315.18	49.11	-43.1	-48.1	10.2	7.30e-03	0	61	0	822083584	57	6500
2026-01-24 10:25:35.01	315.51	48.82	-43.2	-48.1	10.2	5.11e-03	0	61	0	824180736	57	6539
2026-01-24 10:25:36.02	315.83	48.54	-43.4	-48.9	9.4	8.85e-03	0	61	0	825229312	57	7134
2026-01-24 10:25:37.03	316.15	48.26	-43.7	-49.8	8.3	3.75e-02	0	61	0	827326464	57	7969
2026-01-24 10:25:38.04	316.46	47.98	-43.7	-49.8	8.3	6.13e-02	0	61	0	829423616	58	7534
2026-01-24 10:25:39.05	316.77	47.70	-43.5	-49.1	9.1	3.37e-02	0	61	0	831520768	58	6908
2026-01-24 10:25:40.06	317.07	47.42	-43.4	-48.8	9.4	1.89e-02	0	61	0	833617920	58	6716
2026-01-24 10:25:41.06	317.36	47.15	-43.4	-48.9	9.3	1.59e-02	0	62	0	834666496	58	6727
2026-01-24 10:25:42.07	317.65	46.87	-43.5	-49.2	9.0	2.30e-02	0	62	0	836763648	58	7004
2026-01-24 10:25:43.08	317.93	46.60	-43.2	-48.1	10.0	1.11e-02	0	61	0	838860800	58	6202
2026-01-24 10:25:44.09	318.21	46.32	-42.8	-47.1	11.1	3.09e-03	0	61	0	840957952	57	5844
2026-01-24 10:25:45.10	318.49	46.05	-42.5	-46.6	11.6	1.16e-03	0	62	0	843055104	57	5525
2026-01-24 10:25:46.11	318.76	45.78	-42.7	-46.9	11.3	9.27e-04	0	61	0	844103680	57	5713
2026-01-24 10:25:47.12	319.03	45.51	-42.7	-47.1	11.1	1.52e-03	0	61	0	846200832	57	5810
2026-01-24 10:25:48.13	319.29	45.24	-42.5	-46.7	11.5	1.29e-03	0	61	0	848297984	57	5546
2026-01-24 10:25:49.14	319.55	44.97	-42.2	-46.0	12.3	4.93e-04	0	61	0	850395136	56	5431
2026-01-24 10:25:50.15	319.80	44.70	-42.0	-45.6	12.8	9.15e-05	0	61	0	852492288	56	5180
2026-01-24 10:25:51.16	320.05	44.44	-41.8	-45.3	12.9	5.03e-05	0	62	0	853540864	55	5305
2026-01-24 10:25:52.17	320.29	44.17	-41.5	-44.8	13.4	3.89e-05	0	61	0	855638016	55	5011
2026-01-24 10:25:53.18	320.53	43.91	-41.1	-44.1	14.1	9.10e-06	0	61	0	857735168	54	4924
2026-01-24 10:25:54.19	320.77	43.65	-40.8	-43.6	14.6	1.50e-06	0	62	0	859832320	53	4909
2026-01-24 10:25:55.20	321.00	43.38	-40.7	-43.4	14.8	0.00e+00	0	61	0	861929472	53	4771
2026-01-24 10:25:56.21	321.23	43.13	-40.9	-43.7	14.5	0.00e+00	0	61	0	862978048	53	4978
2026-01-24 10:25:57.22	321.46	42.87	-41.5	-44.9	13.3	2.20e-06	0	61	0	865075200	53	5661
2026-01-24 10:25:58.23	321.68	42.61	-42.2	-46.1	12.1	7.17e-05	0	61	0	867172352	54	6153
2026-01-24 10:25:59.24	321.90	42.35	-42.3	-46.3	11.7	5.85e-04	0	61	0	869269504	55	5991
2026-01-24 10:26:00.24	322.12	42.10	-41.8	-45.3	12.8	1.81e-04	0	61	0	871366656	55	5323
2026-01-24 10:26:01.25	322.33	41.85	-41.2	-44.2	14.0	1.52e-05	0	61	0	872415232	54	4974
2026-01-24 10:26:02.26	322.54	41.60	-40.8	-43.6	14.6	0.00e+00	0	61	0	874512384	53	4897
2026-01-24 10:26:03.27	322.74	41.35	-40.8	-43.5	14.6	0.00e+00	0	61	0	876609536	53	4864
2026-01-24 10:26:04.28	322.95	41.10	-40.9	-43.7	14.5	7.00e-07	0	61	0	878706688	53	4944
2026-01-24 10:26:05.29	323.15	40.85	-41.2	-44.3	13.8	3.00e-06	0	61	0	880803840	53	5339
2026-01-24 10:26:06.30	323.34	40.60	-41.9	-45.5	12.7	4.04e-05	0	61	0	882900992	54	5728
2026-01-24 10:26:07.31	323.54	40.36	-42.2	-46.2	11.9	2.37e-04	0	61	0	883949568	54	6244
2026-01-24 10:26:08.32	323.73	40.12	-42.3	-46.5	11.6	6.11e-04	0	61	0	886046720	55	6090
2026-01-24 10:26:09.33	323.92	39.87	-42.3	-46.3	11.8	5.38e-04	0	61	0	888143872	55	5950
2026-01-24 10:26:10.34	324.10	39.63	-42.1	-46.0	12.0	4.72e-04	0	61	0	890241024	55	5777
2026-01-24 10:26:11.35	324.29	39.39	-41.8	-45.3	12.8	1.46e-04	0	61	0	892338176	55	5308
2026-01-24 10:26:12.36	324.47	39.15	-41.3	-44.4	13.7	1.44e-05	0	61	0	893386752	54	5095
2026-01-24 10:26:13.37	324.64	38.92	-40.8	-43.6	14.6	1.50e-06	0	61	0	895483904	53	4882
2026-01-24 10:26:14.38	324.82	38.68	-40.6	-43.3	14.9	7.00e-07	0	61	0	897581056	53	4721
2026-01-24 10:26:15.39	324.99	38.45	-40.9	-43.8	14.3	7.00e-07	0	62	0	899678208	53	5007
2026-01-24 10:26:16.40	325.16	38.21	-41.6	-45.0	13.1	6.80e-06	0	61	0	901775360	53	5785
2026-01-24 10:26:17.41	325.33	37.98	-42.1	-46.0	12.0	1.03e-04	0	61	0	902823936	54	6124
2026-01-24 10:26:18.41	325.49	37.76	-42.2	-46.3	11.8	5.32e-04	0	61	0	904921088	55	5955
2026-01-24 10:26:19.42	325.66	37.53	-42.2	-46.2	11.9	5.23e-04	0	61	0	907018240	55	5871
2026-01-24 10:26:20.43	325.82	37.30	-41.8	-45.3	12.7	1.79e-04	0	61	0	909115392	55	5330
2026-01-24 10:26:21.44	325.98	37.07	-41.5	-44.8	13.3	2.89e-05	0	62	0	911212544	55	5004
2026-01-24 10:26:22.45	326.14	36.85	-41.2	-44.3	13.9	6.80e-06	0	61	0	912261120	54	5001
2026-01-24 10:26:23.46	326.29	36.62	-41.0	-43.9	14.2	0.00e+00	0	61	0	914358272	54	4793
2026-01-24 10:26:24.47	326.44	36.40	-40.9	-43.8	14.3	1.50e-06	0	61	0	916455424	53	5030
2026-01-24 10:26:25.48	326.59	36.18	-41.2	-44.4	13.7	2.20e-06	0	61	0	918552576	53	5361
2026-01-24 10:26:26.49	326.74	35.96	-41.6	-45.1	13.1	1.52e-05	0	61	0	920649728	53	5790
2026-01-24 10:26:27.49	326.89	35.74	-41.9	-45.6	12.5	5.64e-05	0	61	0	921698304	54	5823
2026-01-24 10:26:28.50	327.03	35.53	-42.2	-46.3	11.7	3.46e-04	0	61	0	923795456	55	5930
2026-01-24 10:26:29.51	327.18	35.31	-42.3	-46.4	11.7	6.13e-04	0	61	0	925892608	55	5993
2026-01-24 10:26:30.52	327.32	35.10	-42.1	-46.1	11.9	4.45e-04	0	61	0	927989760	55	5840
2026-01-24 10:26:31.53	327.46	34.88	-42.2	-46.2	11.8	4.34e-04	0	61	0	930086912	55	5896
2026-01-24 10:26:32.54	327.60	34.67	-42.0	-45.9	12.2	3.76e-04	0	61	0	931135488	55	5669
2026-01-24 10:26:33.55	327.73	34.46	-41.8	-45.4	12.7	1.03e-04	0	61	0	933232640	55	5341
2026-01-24 10:26:34.56	327.87	34.25	-41.6	-45.0	13.1	6.94e-05	0	61	0	935329792	55	5136
2026-01-24 10:26:35.57	328.00	34.04	-41.4	-44.8	13.3	2.28e-05	0	61	0	937426944	54	5283
2026-01-24 10:26:36.58	328.13	33.84	-41.4	-44.7	13.4	1.75e-05	0	62	0	939524096	54	5231
2026-01-24 10:26:37.59	328.26	33.63	-41.6	-45.0	13.2	1.14e-05	0	61	0	940572672	54	5404
2026-01-24 10:26:38.60	328.39	33.43	-41.7	-45.2	12.9	5.03e-05	0	62	0	942669824	54	5557
2026-01-24 10:26:39.61	328.52	33.22	-41.8	-45.5	12.6	7.78e-05	0	61	0	944766976	54	5771
2026-01-24 10:26:40.62	328.64	33.02	-42.1	-46.0	12.0	1.68e-04	0	61	0	946864128	54	6087
2026-01-24 10:26:41.63	328.76	32.82	-42.2	-46.2	11.8	4.55e-04	0	61	0	948961280	54	6231
2026-01-24 10:26:42.64	328.89	32.62	-42.3	-46.4	11.6	5.77e-04	0	62	0	951058432	55	6010
2026-01-24 10:26:43.65	329.01	32.42	-42.4	-46.6	11.3	8.11e-04	0	62	0	952107008	55	6195
2026-01-24 10:26:44.66	329.13	32.22	-42.4	-46.7	11.3	9.84e-04	0	61	0	954204160	55	6235
2026-01-24 10:26:45.67	329.24	32.03	-42.3	-46.4	11.5	1.03e-03	0	61	0	956301312	55	6050
2026-01-24 10:26:46.68	329.36	31.83	-42.4	-46.7	11.2	1.06e-03	0	62	0	958398464	55	6273
2026-01-24 10:26:47.69	329.47	31.64	-42.6	-47.2	10.8	1.83e-03	0	61	0	959447040	55	6594
2026-01-24 10:26:48.70	329.59	31.45	-42.6	-47.3	10.6	2.84e-03	0	61	0	961544192	55	6674
2026-01-24 10:26:49.71	329.70	31.25	-42.9	-47.8	10.3	3.87e-03	0	62	0	963641344	56	6702
2026-01-24 10:26:50.72	329.81	31.06	-43.0	-48.0	10.1	6.20e-03	0	61	0	965738496	56	6858
2026-01-24 10:26:51.73	329.92	30.88	-43.0	-48.0	10.1	7.05e-03	0	62	0	967835648	56	6840
2026-01-24 10:26:52.74	330.03	30.69	-43.0	-48.0	10.1	6.99e-03	0	61	0	968884224	56	6812
2026-01-24 10:26:53.75	330.14	30.50	-42.9	-47.6	10.4	5.57e-03	0	61	0	970981376	56	6548
2026-01-24 10:26:54.76	330.24	30.31	-42.8	-47.5	10.6	3.04e-03	0	62	0	973078528	56	6423
2026-01-24 10:26:55.77	330.35	30.13	-42.6	-47.0	11.1	2.07e-03	0	61	0	975175680	56	6106
2026-01-24 10:26:56.78	330.45	29.95	-42.5	-46.7	11.4	1.58e-03	0	61	0	977272832	56	5878
2026-01-24 10:26:57.79	330.56	29.76	-42.3	-46.4	11.7	6.74e-04	0	61	0	979369984	56	5701
2026-01-24 10:26:58.80	330.66	29.58	-42.3	-46.3	11.9	4.62e-04	0	62	0	980418560	56	5597
2026-01-24 10:26:59.81	330.76	29.40	-42.3	-46.3	11.8	5.29e-04	0	62	0	982515712	56	5634
2026-01-24 10:27:00.82	330.86	29.22	-42.3	-46.3	11.8	4.71e-04	0	61	0	984612864	56	5645
2026-01-24 10:27:01.83	330.96	29.04	-42.4	-46.4	11.6	5.59e-04	0	62	0	986710016	56	5711
2026-01-24 10:27:02.84	331.05	28.87	-42.4	-46.4	11.6	6.36e-04	0	62	0	988807168	56	5718
2026-01-24 10:27:03.85	331.15	28.69	-42.4	-46.5	11.6	6.27e-04	0	61	0	989855744	56	5736
2026-01-24 10:27:04.86	331.25	28.51	-42.4	-46.5	11.5	7.54e-04	0	61	0	991952896	56	5785
2026-01-24 10:27:05.87	331.34	28.34	-42.4	-46.6	11.4	8.85e-04	0	61	0	994050048	56	5850
2026-01-24 10:27:06.88	331.43	28.17	-42.4	-46.7	11.4	9.35e-04	0	61	0	996147200	56	5882
2026-01-24 10:27:07.89	331.53	27.99	-42.5	-46.7	11.3	1.05e-03	0	61	0	998244352	56	5914
2026-01-24 10:27:08.90	331.62	27.82	-42.5	-46.8	11.3	1.20e-03	0	62	0	999292928	56	5942
2026-01-24 10:27:09.91	331.71	27.65	-42.4	-46.7	11.4	1.10e-03	0	61	0	1001390080	56	5876
2026-01-24 10:27:10.92	331.80	27.48	-42.4	-46.5	11.5	8.78e-04	0	61	0	1003487232	56	5783
2026-01-24 10:27:11.93	331.89	27.32	-42.3	-46.4	11.6	7.99e-04	0	62	0	1005584384	56	5718
2026-01-24 10:27:12.94	331.98	27.15	-42.2	-46.3	11.8	5.26e-04	0	61	0	1007681536	56	5611
2026-01-24 10:27:13.95	332.06	26.98	-42.2	-46.1	11.9	4.07e-04	0	62	0	1008730112	56	5507
2026-01-24 10:27:14.96	332.15	26.82	-42.0	-45.7	12.3	2.18e-04	0	61	0	1010827264	56	5278
2026-01-24 10:27:15.97	332.23	26.65	-41.8	-45.4	12.4	1.66e-04	0	61	0	1012924416	55	5402
2026-01-24 10:27:16.97	332.32	26.49	-41.6	-45.2	12.7	1.11e-04	0	61	0	1015021568	55	5274
2026-01-24 10:27:17.98	332.40	26.33	-41.5	-45.0	13.0	4.34e-05	0	61	0	1017118720	55	5102
2026-01-24 10:27:18.99	332.48	26.17	-41.4	-44.9	13.1	3.89e-05	0	61	0	1018167296	54	5351
2026-01-24 10:27:20.00	332.57	26.01	-41.5	-44.9	13.0	3.28e-05	0	61	0	1020264448	54	5386
2026-01-24 10:27:21.01	332.65	25.85	-41.5	-45.0	12.9	3.89e-05	0	61	0	1022361600	54	5433
2026-01-24 10:27:22.02	332.73	25.69	-41.5	-45.0	12.9	6.33e-05	0	61	0	1024458752	54	5438
2026-01-24 10:27:23.03	332.81	25.53	-41.5	-45.0	12.9	3.81e-05	0	62	0	1026555904	54	5406
2026-01-24 10:27:24.04	332.89	25.37	-41.6	-45.2	12.7	6.40e-05	0	62	0	1027604480	54	5561
2026-01-24 10:27:25.05	332.97	25.22	-41.6	-45.3	12.6	9.00e-05	0	61	0	1029701632	54	5611
2026-01-24 10:27:26.05	333.04	25.06	-41.7	-45.4	12.5	1.27e-04	0	61	0	1031798784	54	5669
2026-01-24 10:27:27.06	333.12	24.91	-41.8	-45.5	12.3	1.89e-04	0	61	0	1033895936	54	5778
2026-01-24 10:27:28.07	333.20	24.75	-41.8	-45.6	12.2	1.94e-04	0	61	0	1035993088	54	5830
2026-01-24 10:27:29.09	333.27	24.60	-41.8	-45.6	12.2	1.91e-04	0	61	0	1037041664	54	5830
2026-01-24 10:27:30.10	333.35	24.45	-41.8	-45.6	12.2	2.27e-04	0	61	0	1039138816	54	5827
2026-01-24 10:27:31.11	333.42	24.30	-41.8	-45.7	12.2	1.96e-04	0	61	0	1041235968	54	5869
2026-01-24 10:27:32.12	333.49	24.15	-41.7	-45.4	12.4	1.72e-04	0	61	0	1043333120	54	5712
2026-01-24 10:27:33.13	333.57	24.00	-41.5	-45.1	12.7	9.23e-05	0	61	0	1045430272	54	5484
2026-01-24 10:27:34.13	333.64	23.85	-41.4	-44.9	12.9	5.64e-05	0	61	0	1046478848	54	5369
2026-01-24 10:27:35.15	333.71	23.70	-41.3	-44.7	13.1	4.65e-05	0	62	0	1048576000	54	5249
2026-01-24 10:27:36.16	333.78	23.55	-41.2	-44.5	13.3	2.13e-05	0	61	0	1050673152	54	5158
2026-01-24 10:27:37.17	333.85	23.41	-41.1	-44.4	13.4	2.13e-05	0	62	0	1052770304	54	5062
2026-01-24 10:27:38.18	333.92	23.26	-40.9	-44.0	13.8	9.10e-06	0	61	0	1054867456	53	5121
2026-01-24 10:27:39.19	333.99	23.12	-40.8	-43.8	14.0	3.00e-06	0	61	0	1056964608	53	5032
2026-01-24 10:27:40.19	334.06	22.97	-40.7	-43.7	14.1	2.20e-06	0	61	0	1058013184	53	4934
2026-01-24 10:27:41.21	334.13	22.83	-40.7	-43.6	14.2	3.80e-06	0	61	0	1060110336	53	4913
2026-01-24 10:27:42.21	334.19	22.69	-40.6	-43.5	14.3	1.50e-06	0	61	0	1062207488	53	4849
2026-01-24 10:27:43.22	334.26	22.55	-40.6	-43.6	14.2	2.20e-06	0	61	0	1064304640	53	4884
2026-01-24 10:27:44.23	334.33	22.41	-40.6	-43.5	14.3	7.00e-07	0	61	0	1066401792	53	4842
2026-01-24 10:27:45.24	334.39	22.27	-40.5	-43.5	14.3	1.50e-06	0	61	0	1067450368	53	4825
2026-01-24 10:27:46.25	334.46	22.13	-40.6	-43.6	14.2	1.50e-06	0	61	0	1069547520	53	4896
2026-01-24 10:27:47.26	334.52	21.99	-40.7	-43.7	14.1	2.20e-06	0	61	0	1071644672	53	4938
2026-01-24 10:27:48.27	334.59	21.85	-40.7	-43.8	14.0	7.00e-07	0	62	0	1073741824	53	4992
2026-01-24 10:27:49.28	334.65	21.71	-40.8	-43.9	13.8	4.50e-06	0	61	0	1075838976	53	5060
2026-01-24 10:27:50.29	334.71	21.58	-40.8	-44.0	13.7	8.30e-06	0	61	0	1076887552	53	5125
2026-01-24 10:27:51.30	334.77	21.44	-40.9	-44.1	13.6	3.80e-06	0	61	0	1078984704	53	5211
2026-01-24 10:27:52.31	334.84	21.30	-40.9	-44.1	13.5	1.22e-05	0	62	0	1081081856	53	5213
2026-01-24 10:27:53.32	334.90	21.17	-41.0	-44.3	13.4	1.29e-05	0	61	0	1083179008	53	5309
2026-01-24 10:27:54.33	334.96	21.04	-41.1	-44.4	13.2	2.05e-05	0	62	0	1085276160	53	5398
2026-01-24 10:27:55.34	335.02	20.90	-41.1	-44.6	13.0	2.59e-05	0	62	0	1086324736	53	5499
2026-01-24 10:27:56.35	335.08	20.77	-41.1	-44.6	13.1	3.35e-05	0	61	0	1088421888	53	5466
2026-01-24 10:27:57.36	335.14	20.64	-41.1	-44.5	13.1	2.44e-05	0	61	0	1090519040	53	5417
2026-01-24 10:27:58.37	335.20	20.51	-41.0	-44.5	13.1	3.89e-05	0	62	0	1092616192	53	5405
2026-01-24 10:27:59.37	335.26	20.38	-41.0	-44.5	13.1	2.44e-05	0	61	0	1094713344	53	5405
2026-01-24 10:28:00.38	335.31	20.25	-41.0	-44.4	13.2	2.67e-05	0	61	0	1095761920	53	5373
2026-01-24 10:28:01.39	335.37	20.12	-41.0	-44.4	13.1	3.96e-05	0	61	0	1097859072	53	5372
2026-01-24 10:28:02.40	335.43	19.99	-41.0	-44.3	13.2	2.82e-05	0	61	0	1099956224	53	5331
2026-01-24 10:28:03.41	335.48	19.86	-40.8	-44.1	13.4	9.10e-06	0	61	0	1102053376	53	5186
2026-01-24 10:28:04.42	335.54	19.74	-40.8	-44.1	13.3	9.90e-06	0	62	0	1104150528	53	5184
2026-01-24 10:28:05.43	335.60	19.61	-40.8	-44.1	13.3	1.06e-05	0	62	0	1105199104	53	5190
2026-01-24 10:28:06.44	335.65	19.48	-40.8	-44.1	13.3	1.44e-05	0	62	0	1107296256	53	5216
2026-01-24 10:28:07.45	335.71	19.36	-40.7	-44.0	13.4	2.13e-05	0	61	0	1109393408	53	5134
2026-01-24 10:28:08.46	335.76	19.23	-40.6	-43.8	13.6	1.37e-05	0	61	0	1111490560	53	5008
2026-01-24 10:28:09.47	335.82	19.11	-40.6	-43.7	13.7	3.80e-06	0	61	0	1113587712	53	4957
2026-01-24 10:28:10.48	335.87	18.99	-40.6	-43.8	13.6	4.50e-06	0	62	0	1114636288	53	4996
2026-01-24 10:28:11.49	335.92	18.86	-40.5	-43.7	13.7	8.30e-06	0	61	0	1116733440	53	4932
2026-01-24 10:28:12.50	335.98	18.74	-40.5	-43.7	13.6	6.80e-06	0	62	0	1118830592	53	4960
2026-01-24 10:28:13.51	336.03	18.62	-40.6	-43.8	13.6	1.29e-05	0	62	0	1120927744	53	4984
2026-01-24 10:28:14.52	336.08	18.50	-40.5	-43.8	13.5	1.06e-05	0	61	0	1123024896	53	4988
2026-01-24 10:28:15.53	336.13	18.38	-40.6	-43.9	13.4	1.14e-05	0	62	0	1125122048	53	5063
2026-01-24 10:28:16.54	336.18	18.26	-40.6	-43.9	13.3	1.75e-05	0	61	0	1126170624	53	5074
2026-01-24 10:28:17.55	336.24	18.14	-40.7	-44.1	13.2	2.28e-05	0	61	0	1128267776	53	5160
2026-01-24 10:28:18.56	336.29	18.02	-40.8	-44.2	13.1	2.28e-05	0	61	0	1130364928	53	5231
2026-01-24 10:28:19.57	336.34	17.90	-40.8	-44.2	13.0	4.27e-05	0	62	0	1132462080	53	5251
2026-01-24 10:28:20.58	336.39	17.78	-40.8	-44.2	13.0	3.73e-05	0	61	0	1134559232	53	5250
2026-01-24 10:28:21.59	336.44	17.67	-40.8	-44.4	12.8	4.95e-05	0	61	0	1135607808	53	5356
2026-01-24 10:28:22.60	336.49	17.55	-40.8	-44.2	12.9	5.03e-05	0	62	0	1137704960	53	5262
2026-01-24 10:28:23.61	336.53	17.43	-40.7	-44.2	13.0	3.81e-05	0	62	0	1139802112	53	5236
2026-01-24 10:28:24.62	336.58	17.32	-40.8	-44.3	12.8	4.19e-05	0	61	0	1141899264	53	5312
2026-01-24 10:28:25.62	336.63	17.20	-40.8	-44.4	12.7	7.70e-05	0	61	0	1143996416	53	5365
2026-01-24 10:28:26.63	336.68	17.09	-40.9	-44.6	12.6	7.70e-05	0	61	0	1145044992	53	5474
2026-01-24 10:28:27.64	336.73	16.97	-41.0	-44.7	12.3	1.62e-04	0	61	0	1147142144	53	5590
2026-01-24 10:28:28.65	336.77	16.86	-41.0	-44.8	12.2	1.94e-04	0	62	0	1149239296	53	5642
2026-01-24 10:28:29.66	336.82	16.75	-41.1	-45.0	12.0	2.37e-04	0	62	0	1151336448	53	5765
2026-01-24 10:28:30.67	336.87	16.64	-41.1	-45.1	11.9	3.42e-04	0	61	0	1153433600	53	5805
2026-01-24 10:28:31.68	336.91	16.52	-41.1	-45.1	11.9	4.03e-04	0	61	0	1154482176	53	5798
2026-01-24 10:28:32.69	336.96	16.41	-41.1	-45.1	11.9	4.27e-04	0	62	0	1156579328	53	5799
2026-01-24 10:28:33.70	337.01	16.30	-41.0	-44.8	12.1	3.49e-04	0	61	0	1158676480	53	5649
2026-01-24 10:28:34.71	337.05	16.19	-41.0	-44.9	12.1	2.17e-04	0	62	0	1160773632	53	5668
2026-01-24 10:28:35.72	337.10	16.08	-40.9	-44.7	12.3	2.18e-04	0	62	0	1162870784	53	5562
2026-01-24 10:28:36.73	337.14	15.97	-40.8	-44.5	12.3	1.71e-04	0	61	0	1163919360	53	5459
2026-01-24 10:28:37.74	337.19	15.86	-40.8	-44.6	12.3	1.65e-04	0	62	0	1166016512	53	5473
2026-01-24 10:28:38.75	337.23	15.75	-40.8	-44.6	12.2	2.03e-04	0	62	0	1168113664	53	5509
2026-01-24 10:28:39.76	337.27	15.64	-40.8	-44.7	12.1	2.33e-04	0	61	0	1170210816	53	5560
2026-01-24 10:28:40.77	337.32	15.54	-40.9	-44.9	11.8	4.15e-04	0	62	0	1172307968	53	5669
