passes_logs/2026/01/24/R2.0S_Moscow/R2.0S_Moscow__20260124_231721_NOAA_21_JPSS-2_rec.log

#Pass ID: 20260124_231721_NOAA 21 (JPSS-2)
#Satellite: NOAA 21 (JPSS-2)
#Configuration: NOAA-21
#almurnet v.1.7.20251203
#Start time: 2026-01-24 23:17:20

#Version: 2.2.20231116
#Station: R2.0S_Moscow
#Location: 37.707566 lon 55.798166 lat
#TLE: 1 54234U 22150A   26024.45772595  .00000201  00000+0  11607-3 0  9996
#TLE: 2 54234  98.7508 325.2435 0000728 220.7365 139.3757 14.19538765166156

#Time	Az	El	Level	Level2	SNR	BER	BlckErr	Temp	State	Recorded	gain1	gain2
2026-01-24 23:17:20.65	17.93	1.96	-41.7	-54.0	3.8	1.49e+00	0	52	0	0	55	14506
2026-01-24 23:17:21.65	17.95	2.03	-41.7	-54.0	3.8	1.49e+00	0	52	104	0	55	14468
2026-01-24 23:17:22.66	17.97	2.09	-41.7	-54.0	3.8	1.49e+00	0	52	104	0	55	14470
2026-01-24 23:17:23.67	17.99	2.15	-41.7	-54.0	3.8	1.49e+00	0	52	104	0	55	14468
2026-01-24 23:17:24.68	18.01	2.22	-41.7	-54.0	3.8	1.49e+00	0	52	104	0	55	14500
2026-01-24 23:17:25.69	18.03	2.28	-41.7	-54.0	3.8	1.49e+00	0	52	104	0	55	14526
2026-01-24 23:17:26.70	18.06	2.35	-41.7	-54.0	3.8	1.49e+00	0	53	104	0	55	14457
2026-01-24 23:17:27.71	18.08	2.41	-41.7	-54.0	3.8	1.49e+00	0	52	104	0	55	14465
2026-01-24 23:17:28.72	18.10	2.48	-41.7	-54.0	3.8	1.49e+00	0	53	104	0	55	14470
2026-01-24 23:17:29.73	18.12	2.54	-41.7	-54.0	3.8	1.49e+00	0	53	104	0	55	14491
2026-01-24 23:17:30.74	18.14	2.60	-41.7	-54.0	3.8	1.49e+00	0	53	104	0	55	14469
2026-01-24 23:17:31.75	18.16	2.67	-41.7	-54.0	3.8	1.49e+00	0	53	104	0	55	14523
2026-01-24 23:17:32.76	18.19	2.74	-41.7	-54.0	3.8	1.49e+00	0	53	104	0	55	14451
2026-01-24 23:17:33.77	18.21	2.80	-41.7	-54.0	3.8	1.49e+00	0	53	104	0	55	14503
2026-01-24 23:17:34.78	18.23	2.87	-41.7	-54.0	3.8	1.49e+00	0	53	104	0	55	14492
2026-01-24 23:17:35.79	18.25	2.93	-41.7	-54.0	3.8	1.49e+00	0	53	104	0	55	14526
2026-01-24 23:17:36.80	18.27	3.00	-41.7	-54.0	3.8	1.49e+00	0	53	104	0	55	14455
2026-01-24 23:17:37.82	18.30	3.06	-41.7	-54.0	3.8	1.49e+00	0	53	104	0	55	14498
2026-01-24 23:17:38.83	18.32	3.13	-41.7	-54.0	3.8	1.49e+00	0	53	104	0	55	14515
2026-01-24 23:17:39.84	18.34	3.20	-41.7	-54.0	3.8	1.49e+00	0	53	104	0	55	14537
2026-01-24 23:17:40.85	18.36	3.26	-41.7	-54.1	3.8	1.49e+00	0	53	104	0	55	14548
2026-01-24 23:17:41.86	18.39	3.33	-41.7	-54.0	3.8	1.49e+00	0	54	104	0	55	14472
2026-01-24 23:17:42.87	18.41	3.40	-41.7	-54.0	3.8	1.49e+00	0	54	104	0	55	14501
2026-01-24 23:17:43.88	18.43	3.46	-41.7	-54.0	3.8	1.49e+00	0	54	104	0	55	14510
2026-01-24 23:17:44.89	18.45	3.53	-41.7	-54.0	3.8	1.49e+00	0	54	104	0	55	14510
2026-01-24 23:17:45.90	18.48	3.60	-41.7	-54.0	3.8	1.49e+00	0	54	104	0	55	14478
2026-01-24 23:17:46.91	18.50	3.66	-41.7	-54.0	3.8	1.49e+00	0	54	104	0	55	14453
2026-01-24 23:17:47.92	18.52	3.73	-41.7	-54.0	3.8	1.49e+00	0	54	104	0	55	14463
2026-01-24 23:17:48.93	18.54	3.80	-41.7	-54.0	3.8	1.49e+00	0	54	104	0	55	14484
2026-01-24 23:17:49.94	18.57	3.87	-41.6	-54.0	3.8	1.49e+00	0	54	104	0	55	14441
2026-01-24 23:17:50.95	18.59	3.94	-41.7	-54.0	3.8	1.49e+00	0	54	104	0	55	14494
2026-01-24 23:17:51.96	18.61	4.00	-41.7	-54.0	3.8	1.49e+00	0	54	104	0	55	14486
2026-01-24 23:17:52.97	18.64	4.07	-41.7	-54.0	3.8	1.49e+00	0	55	104	0	55	14463
2026-01-24 23:17:53.98	18.66	4.14	-41.6	-54.0	3.8	1.49e+00	0	54	104	0	55	14464
2026-01-24 23:17:54.99	18.69	4.21	-41.7	-54.0	3.8	1.49e+00	0	54	104	0	55	14467
2026-01-24 23:17:56.00	18.71	4.28	-41.7	-54.0	3.8	1.49e+00	0	55	104	0	55	14492
2026-01-24 23:17:57.01	18.73	4.35	-41.7	-54.0	3.8	1.49e+00	0	54	104	0	55	14469
2026-01-24 23:17:58.03	18.76	4.42	-41.6	-54.0	3.8	1.49e+00	0	55	104	0	55	14448
2026-01-24 23:17:59.04	18.78	4.49	-41.6	-54.0	3.8	1.49e+00	0	55	104	0	55	14474
2026-01-24 23:18:00.05	18.80	4.56	-41.6	-54.0	3.8	1.49e+00	0	55	104	0	55	14480
2026-01-24 23:18:01.06	18.83	4.63	-41.6	-54.0	3.8	1.49e+00	0	55	104	0	55	14393
2026-01-24 23:18:02.07	18.85	4.70	-41.6	-54.0	3.8	1.49e+00	0	55	104	0	55	14433
2026-01-24 23:18:03.08	18.88	4.77	-41.6	-54.0	3.8	1.49e+00	0	55	104	0	55	14469
2026-01-24 23:18:04.09	18.90	4.84	-41.7	-54.0	3.8	1.49e+00	0	55	104	0	55	14483
2026-01-24 23:18:05.10	18.93	4.91	-41.6	-54.0	3.8	1.49e+00	0	55	104	0	55	14490
2026-01-24 23:18:06.11	18.95	4.98	-41.6	-54.0	3.8	1.49e+00	0	55	104	0	55	14452
2026-01-24 23:18:07.12	18.98	5.05	-41.6	-54.0	3.8	1.49e+00	0	55	104	0	55	14445
2026-01-24 23:18:08.13	19.00	5.12	-41.6	-54.0	3.8	1.49e+00	0	55	104	0	55	14450
2026-01-24 23:18:09.14	19.03	5.19	-41.6	-54.0	3.8	1.49e+00	0	55	104	0	55	14460
2026-01-24 23:18:10.15	19.05	5.26	-41.6	-54.0	3.8	1.49e+00	0	55	104	0	55	14440
2026-01-24 23:18:11.16	19.08	5.33	-41.6	-54.0	3.8	1.49e+00	0	55	104	0	55	14461
2026-01-24 23:18:12.17	19.10	5.40	-41.7	-54.0	3.8	1.49e+00	0	55	104	0	55	14484
2026-01-24 23:18:13.18	19.13	5.48	-41.6	-54.0	3.8	1.49e+00	0	56	104	0	55	14464
2026-01-24 23:18:14.19	19.15	5.55	-41.6	-54.0	3.8	1.49e+00	0	55	104	0	55	14422
2026-01-24 23:18:15.20	19.18	5.62	-41.7	-54.0	3.8	1.49e+00	0	56	104	0	55	14431
2026-01-24 23:18:16.21	19.20	5.69	-41.6	-54.0	3.8	1.49e+00	0	55	104	0	55	14434
2026-01-24 23:18:17.22	19.23	5.77	-41.7	-54.0	3.8	1.49e+00	0	56	104	0	55	14438
2026-01-24 23:18:18.23	19.25	5.84	-41.7	-54.0	3.8	1.49e+00	0	56	104	0	55	14418
2026-01-24 23:18:19.25	19.28	5.91	-41.6	-54.0	3.8	1.49e+00	0	56	104	0	55	14404
2026-01-24 23:18:20.26	19.31	5.99	-41.6	-54.0	3.8	1.49e+00	0	56	104	0	55	14440
2026-01-24 23:18:21.27	19.33	6.06	-41.6	-54.0	3.8	1.49e+00	0	56	104	0	55	14462
2026-01-24 23:18:22.27	19.36	6.13	-41.6	-54.0	3.8	1.49e+00	0	56	104	0	55	14406
2026-01-24 23:18:23.28	19.38	6.21	-41.6	-54.0	3.8	1.49e+00	0	56	104	0	55	14401
2026-01-24 23:18:24.30	19.41	6.28	-41.7	-54.0	3.8	1.49e+00	0	56	104	0	55	14456
2026-01-24 23:18:25.31	19.44	6.36	-41.6	-54.0	3.8	1.49e+00	0	56	104	0	55	14417
2026-01-24 23:18:26.32	19.46	6.43	-41.6	-54.0	3.8	1.49e+00	0	56	104	0	55	14441
2026-01-24 23:18:27.33	19.49	6.51	-41.6	-54.0	3.8	1.49e+00	0	56	104	0	55	14451
2026-01-24 23:18:28.34	19.52	6.58	-41.6	-53.9	3.8	1.49e+00	0	56	104	0	55	14372
2026-01-24 23:18:29.35	19.55	6.66	-41.6	-54.0	3.8	1.49e+00	0	56	104	0	55	14426
2026-01-24 23:18:30.36	19.57	6.73	-41.6	-54.0	3.8	1.49e+00	0	56	104	0	55	14410
2026-01-24 23:18:31.37	19.60	6.81	-41.6	-53.9	3.8	1.49e+00	0	56	104	0	55	14344
2026-01-24 23:18:32.38	19.63	6.88	-41.6	-53.9	3.8	1.49e+00	0	56	104	0	55	14337
2026-01-24 23:18:33.39	19.65	6.96	-41.6	-53.9	3.8	1.49e+00	0	57	104	0	55	14335
2026-01-24 23:18:34.40	19.68	7.04	-41.6	-53.9	3.8	1.49e+00	0	56	104	0	55	14353
2026-01-24 23:18:35.41	19.71	7.11	-41.6	-53.9	3.8	1.49e+00	0	56	104	0	55	14267
2026-01-24 23:18:36.42	19.74	7.19	-41.6	-53.9	3.8	1.49e+00	0	56	104	0	55	14210
2026-01-24 23:18:37.43	19.77	7.27	-41.6	-53.9	3.8	1.49e+00	0	57	104	0	55	14218
2026-01-24 23:18:38.44	19.79	7.34	-41.6	-53.8	3.8	1.49e+00	0	57	104	0	55	14185
2026-01-24 23:18:39.45	19.82	7.42	-41.6	-53.8	3.8	1.49e+00	0	56	104	0	55	14111
2026-01-24 23:18:40.46	19.85	7.50	-41.6	-53.8	3.8	1.49e+00	0	57	104	0	55	14131
2026-01-24 23:18:41.47	19.88	7.58	-41.6	-53.7	3.8	1.49e+00	0	57	104	0	55	13935
2026-01-24 23:18:42.48	19.91	7.66	-41.6	-53.6	3.8	1.49e+00	0	57	104	0	55	13860
2026-01-24 23:18:43.49	19.94	7.73	-41.6	-53.6	3.8	1.49e+00	0	57	104	0	55	13761
2026-01-24 23:18:44.50	19.97	7.81	-41.6	-53.3	3.8	1.49e+00	0	57	104	0	55	13408
2026-01-24 23:18:45.51	20.00	7.89	-41.5	-53.1	3.8	1.49e+00	0	57	104	0	55	13062
2026-01-24 23:18:46.52	20.02	7.97	-41.5	-53.0	3.8	1.49e+00	0	57	104	0	55	12835
2026-01-24 23:18:47.53	20.05	8.05	-41.8	-52.7	3.8	1.49e+00	0	57	104	0	55	12438
2026-01-24 23:18:48.54	20.08	8.13	-41.8	-53.8	3.8	1.49e+00	0	57	104	0	55	14072
2026-01-24 23:18:49.55	20.11	8.21	-41.5	-50.4	3.9	1.49e+00	0	57	104	0	55	9572
2026-01-24 23:18:50.56	20.14	8.29	-41.9	-48.1	6.1	4.62e-01	0	57	0	1048576	54	7762
2026-01-24 23:18:51.57	20.17	8.37	-41.1	-46.7	7.0	9.12e-01	0	57	104	2097152	54	6594
2026-01-24 23:18:52.58	20.20	8.45	-41.0	-47.1	6.2	1.42e+00	2	57	104	2097152	54	6914
2026-01-24 23:18:53.59	20.23	8.53	-40.4	-44.4	9.4	2.10e-02	0	57	0	4194304	52	5716
2026-01-24 23:18:54.60	20.26	8.61	-40.3	-44.1	9.8	1.02e-02	0	57	0	7340032	52	5494
2026-01-24 23:18:55.61	20.29	8.69	-40.3	-44.1	9.8	9.93e-03	0	57	0	10485760	52	5513
2026-01-24 23:18:56.62	20.32	8.78	-40.2	-43.9	10.0	8.03e-03	0	57	0	13631488	52	5373
2026-01-24 23:18:57.63	20.35	8.86	-40.4	-44.2	9.7	9.73e-03	0	57	0	16777216	52	5569
2026-01-24 23:18:58.64	20.39	8.94	-40.6	-44.7	9.3	1.74e-02	0	57	0	19922944	52	5892
2026-01-24 23:18:59.66	20.42	9.02	-40.6	-44.5	9.5	1.67e-02	0	57	0	23068672	52	5778
2026-01-24 23:19:00.67	20.45	9.11	-40.6	-44.4	9.6	1.22e-02	0	57	0	26214400	52	5714
2026-01-24 23:19:01.68	20.48	9.19	-40.4	-44.2	9.9	9.77e-03	0	57	0	29360128	52	5545
2026-01-24 23:19:02.69	20.51	9.27	-40.4	-44.1	9.9	7.92e-03	0	58	0	32505856	52	5523
2026-01-24 23:19:03.70	20.54	9.36	-40.5	-44.3	9.7	1.05e-02	0	57	0	35651584	52	5637
2026-01-24 23:19:04.71	20.57	9.44	-40.2	-43.7	10.4	6.67e-03	0	58	0	38797312	52	5257
2026-01-24 23:19:05.72	20.61	9.52	-40.2	-43.6	10.5	4.05e-03	0	57	0	41943040	52	5179
2026-01-24 23:19:06.73	20.64	9.61	-40.1	-43.5	10.8	3.29e-03	0	58	0	45088768	52	5119
2026-01-24 23:19:07.74	20.67	9.69	-40.2	-43.5	10.8	2.46e-03	0	58	0	48234496	52	5153
2026-01-24 23:19:08.75	20.70	9.78	-40.1	-43.3	11.1	2.04e-03	0	58	0	51380224	52	4985
2026-01-24 23:19:09.75	20.73	9.86	-40.0	-43.2	11.2	1.23e-03	0	58	0	54525952	52	4954
2026-01-24 23:19:10.76	20.77	9.95	-40.2	-43.4	11.1	1.96e-03	0	58	0	57671680	52	5062
2026-01-24 23:19:11.77	20.80	10.03	-40.0	-43.0	11.6	6.53e-04	0	58	0	60817408	51	5144
2026-01-24 23:19:12.78	20.83	10.12	-40.3	-43.5	11.2	1.28e-03	0	58	0	63963136	51	5422
2026-01-24 23:19:13.79	20.87	10.21	-40.1	-43.2	11.5	9.37e-04	0	58	0	67108864	51	5246
2026-01-24 23:19:14.80	20.90	10.29	-40.3	-43.5	11.2	1.08e-03	0	58	0	70254592	51	5413
2026-01-24 23:19:15.81	20.93	10.38	-40.2	-43.3	11.5	9.31e-04	0	58	0	73400320	51	5288
2026-01-24 23:19:16.83	20.97	10.47	-40.3	-43.5	11.3	1.07e-03	0	58	0	76546048	51	5416
2026-01-24 23:19:17.83	21.00	10.55	-40.2	-43.2	11.6	7.65e-04	0	58	0	79691776	51	5227
2026-01-24 23:19:18.84	21.04	10.64	-40.3	-43.3	11.5	8.54e-04	0	58	0	82837504	51	5339
2026-01-24 23:19:19.85	21.07	10.73	-40.2	-43.1	11.8	4.78e-04	0	58	0	85983232	51	5181
2026-01-24 23:19:20.86	21.10	10.82	-40.2	-43.1	11.8	5.47e-04	0	58	0	89128960	51	5188
2026-01-24 23:19:21.88	21.14	10.91	-40.2	-43.1	11.8	4.61e-04	0	58	0	92274688	51	5217
2026-01-24 23:19:22.89	21.17	11.00	-40.1	-43.0	11.9	4.36e-04	0	58	0	95420416	51	5154
2026-01-24 23:19:23.90	21.21	11.09	-40.2	-43.1	11.9	4.16e-04	0	58	0	98566144	51	5215
2026-01-24 23:19:24.91	21.24	11.18	-40.1	-43.0	12.0	3.69e-04	0	58	0	101711872	51	5154
2026-01-24 23:19:25.92	21.28	11.27	-40.2	-43.1	12.0	3.28e-04	0	58	0	104857600	51	5168
2026-01-24 23:19:26.92	21.32	11.36	-40.1	-42.9	12.2	2.20e-04	0	58	0	108003328	51	5064
2026-01-24 23:19:27.93	21.35	11.45	-40.1	-43.0	12.1	2.66e-04	0	58	0	111149056	51	5117
2026-01-24 23:19:28.94	21.39	11.54	-40.2	-43.0	12.1	2.98e-04	0	58	0	114294784	51	5132
2026-01-24 23:19:29.95	21.42	11.63	-40.1	-42.9	12.2	2.84e-04	0	58	0	117440512	51	5077
2026-01-24 23:19:30.97	21.46	11.72	-40.1	-42.8	12.3	1.75e-04	0	58	0	120586240	51	5041
2026-01-24 23:19:31.98	21.50	11.82	-40.1	-42.8	12.3	1.96e-04	0	58	0	123731968	51	5033
2026-01-24 23:19:32.99	21.53	11.91	-40.1	-42.8	12.3	1.88e-04	0	58	0	126877696	51	5026
2026-01-24 23:19:34.00	21.57	12.00	-40.0	-42.7	12.5	1.29e-04	0	58	0	130023424	51	4943
2026-01-24 23:19:35.00	21.61	12.09	-39.9	-42.6	12.6	1.03e-04	0	58	0	133169152	51	4898
2026-01-24 23:19:36.01	21.65	12.19	-40.0	-42.6	12.6	1.10e-04	0	58	0	136314880	51	4915
2026-01-24 23:19:37.02	21.68	12.28	-39.9	-42.6	12.6	8.23e-05	0	58	0	139460608	51	4905
2026-01-24 23:19:38.03	21.72	12.37	-40.0	-42.6	12.7	9.68e-05	0	58	0	142606336	51	4902
2026-01-24 23:19:39.04	21.76	12.47	-40.0	-42.6	12.7	7.01e-05	0	58	0	145752064	51	4907
2026-01-24 23:19:40.05	21.80	12.56	-39.9	-42.6	12.7	8.31e-05	0	59	0	148897792	51	4892
2026-01-24 23:19:41.06	21.84	12.66	-39.9	-42.5	12.8	7.24e-05	0	59	0	152043520	51	4864
2026-01-24 23:19:42.07	21.87	12.76	-39.9	-42.5	12.8	6.63e-05	0	59	0	155189248	51	4868
2026-01-24 23:19:43.08	21.91	12.85	-39.9	-42.4	12.9	5.03e-05	0	59	0	158334976	51	4803
2026-01-24 23:19:44.09	21.95	12.95	-39.9	-42.5	12.8	5.87e-05	0	59	0	161480704	51	4854
2026-01-24 23:19:45.10	21.99	13.04	-40.0	-42.6	12.7	6.33e-05	0	58	0	164626432	51	4905
2026-01-24 23:19:46.11	22.03	13.14	-39.9	-42.5	12.8	7.47e-05	0	59	0	167772160	51	4866
2026-01-24 23:19:47.12	22.07	13.24	-40.1	-42.7	12.6	8.16e-05	0	59	0	170917888	51	4954
2026-01-24 23:19:48.13	22.11	13.34	-39.9	-42.5	12.8	6.79e-05	0	59	0	174063616	51	4837
2026-01-24 23:19:49.14	22.15	13.44	-39.9	-42.4	13.0	4.27e-05	0	59	0	177209344	51	4778
2026-01-24 23:19:50.15	22.19	13.53	-39.8	-42.3	13.0	3.89e-05	0	59	0	181403648	51	4756
2026-01-24 23:19:51.16	22.23	13.63	-39.8	-42.4	13.0	3.73e-05	0	59	0	184549376	51	4760
2026-01-24 23:19:52.17	22.27	13.73	-39.8	-42.2	13.1	3.20e-05	0	59	0	187695104	51	4703
2026-01-24 23:19:53.18	22.32	13.83	-39.8	-42.4	13.0	3.20e-05	0	59	0	189792256	51	4767
2026-01-24 23:19:54.19	22.36	13.93	-39.9	-42.4	13.0	4.34e-05	0	59	0	192937984	51	4792
2026-01-24 23:19:55.20	22.40	14.03	-39.8	-42.3	13.1	2.97e-05	0	59	0	197132288	51	4733
2026-01-24 23:19:56.21	22.44	14.13	-39.8	-42.4	13.1	2.89e-05	0	59	0	200278016	51	4762
2026-01-24 23:19:57.22	22.48	14.24	-39.8	-42.2	13.2	2.05e-05	0	59	0	203423744	51	4699
2026-01-24 23:19:58.23	22.53	14.34	-39.8	-42.3	13.1	2.59e-05	0	59	0	206569472	51	4725
2026-01-24 23:19:59.23	22.57	14.44	-39.8	-42.3	13.2	2.28e-05	0	59	0	209715200	51	4713
2026-01-24 23:20:00.24	22.61	14.54	-39.8	-42.2	13.2	2.67e-05	0	59	0	211812352	51	4699
2026-01-24 23:20:01.25	22.65	14.64	-39.8	-42.3	13.2	2.28e-05	0	59	0	216006656	51	4714
2026-01-24 23:20:02.26	22.70	14.75	-39.8	-42.3	13.1	2.82e-05	0	59	0	219152384	51	4741
2026-01-24 23:20:03.27	22.74	14.85	-39.9	-42.4	13.1	2.67e-05	0	59	0	222298112	51	4762
2026-01-24 23:20:04.28	22.79	14.96	-39.7	-42.1	13.3	1.37e-05	0	59	0	225443840	51	4646
2026-01-24 23:20:05.29	22.83	15.06	-39.8	-42.2	13.3	1.29e-05	0	59	0	228589568	51	4675
2026-01-24 23:20:06.30	22.88	15.17	-39.7	-42.1	13.3	1.52e-05	0	59	0	231735296	51	4644
2026-01-24 23:20:07.32	22.92	15.27	-39.8	-42.2	13.3	1.90e-05	0	59	0	234881024	51	4692
2026-01-24 23:20:08.33	22.97	15.38	-39.7	-42.1	13.4	1.52e-05	0	59	0	238026752	51	4624
2026-01-24 23:20:09.34	23.01	15.49	-39.7	-42.2	13.3	1.90e-05	0	59	0	241172480	51	4653
2026-01-24 23:20:10.35	23.06	15.59	-39.7	-42.1	13.4	1.22e-05	0	59	0	244318208	51	4613
2026-01-24 23:20:11.36	23.10	15.70	-39.7	-42.1	13.4	7.60e-06	0	59	0	247463936	51	4641
2026-01-24 23:20:12.37	23.15	15.81	-39.7	-42.1	13.5	5.30e-06	0	59	0	250609664	51	4620
2026-01-24 23:20:13.38	23.20	15.92	-39.7	-42.1	13.4	1.14e-05	0	59	0	253755392	51	4634
2026-01-24 23:20:14.39	23.25	16.03	-39.7	-42.0	13.5	1.44e-05	0	59	0	256901120	51	4591
2026-01-24 23:20:15.40	23.29	16.14	-39.7	-42.1	13.5	1.06e-05	0	59	0	260046848	51	4601
2026-01-24 23:20:16.40	23.34	16.25	-39.8	-42.2	13.4	1.44e-05	0	59	0	263192576	51	4680
2026-01-24 23:20:17.41	23.39	16.36	-39.8	-42.3	13.3	1.44e-05	0	59	0	266338304	51	4717
2026-01-24 23:20:18.43	23.44	16.47	-39.8	-42.2	13.4	1.98e-05	0	59	0	269484032	51	4686
2026-01-24 23:20:19.44	23.49	16.58	-39.9	-42.4	13.3	9.10e-06	0	59	0	272629760	51	4771
2026-01-24 23:20:20.45	23.54	16.69	-39.9	-42.4	13.2	1.75e-05	0	59	0	275775488	51	4781
2026-01-24 23:20:21.46	23.58	16.80	-39.9	-42.3	13.3	1.37e-05	0	59	0	278921216	51	4759
2026-01-24 23:20:22.47	23.63	16.92	-40.0	-42.4	13.2	1.83e-05	0	59	0	282066944	51	4797
2026-01-24 23:20:23.48	23.68	17.03	-40.0	-42.4	13.2	2.51e-05	0	59	0	285212672	51	4813
2026-01-24 23:20:24.49	23.74	17.14	-40.0	-42.4	13.2	1.90e-05	0	59	0	288358400	51	4809
2026-01-24 23:20:25.50	23.79	17.26	-40.1	-42.5	13.1	2.67e-05	0	59	0	291504128	51	4864
2026-01-24 23:20:26.51	23.84	17.37	-40.0	-42.5	13.2	2.44e-05	0	59	0	294649856	51	4820
2026-01-24 23:20:27.52	23.89	17.49	-40.0	-42.5	13.2	2.51e-05	0	59	0	297795584	51	4827
2026-01-24 23:20:28.53	23.94	17.61	-40.1	-42.6	13.1	3.43e-05	0	59	0	300941312	51	4888
2026-01-24 23:20:29.54	23.99	17.72	-40.0	-42.5	13.2	1.60e-05	0	59	0	304087040	51	4819
2026-01-24 23:20:30.55	24.05	17.84	-40.0	-42.5	13.2	2.67e-05	0	59	0	307232768	51	4838
2026-01-24 23:20:31.56	24.10	17.96	-40.1	-42.6	13.2	2.67e-05	0	59	0	310378496	51	4873
2026-01-24 23:20:32.57	24.15	18.08	-40.0	-42.5	13.2	1.83e-05	0	60	0	313524224	51	4845
2026-01-24 23:20:33.58	24.21	18.19	-40.2	-42.7	13.0	2.97e-05	0	59	0	316669952	51	4953
2026-01-24 23:20:34.59	24.26	18.31	-40.1	-42.5	13.2	2.67e-05	0	59	0	319815680	51	4856
2026-01-24 23:20:35.60	24.31	18.43	-40.0	-42.5	13.2	2.28e-05	0	59	0	322961408	51	4843
2026-01-24 23:20:36.61	24.37	18.55	-40.1	-42.6	13.1	2.51e-05	0	59	0	326107136	51	4880
2026-01-24 23:20:37.62	24.43	18.67	-40.1	-42.6	13.1	4.19e-05	0	59	0	329252864	51	4907
2026-01-24 23:20:38.62	24.48	18.79	-40.1	-42.6	13.1	3.05e-05	0	60	0	332398592	51	4892
2026-01-24 23:20:39.63	24.54	18.92	-40.1	-42.6	13.1	2.82e-05	0	59	0	335544320	51	4891
2026-01-24 23:20:40.64	24.59	19.04	-40.1	-42.6	13.2	2.21e-05	0	60	0	338690048	51	4878
2026-01-24 23:20:41.65	24.65	19.16	-40.1	-42.5	13.2	2.36e-05	0	60	0	341835776	51	4838
2026-01-24 23:20:42.66	24.71	19.29	-40.0	-42.4	13.3	1.37e-05	0	60	0	344981504	51	4795
2026-01-24 23:20:43.68	24.77	19.41	-39.9	-42.3	13.4	1.29e-05	0	59	0	348127232	51	4738
2026-01-24 23:20:44.68	24.82	19.54	-39.9	-42.3	13.5	9.10e-06	0	60	0	351272960	51	4717
2026-01-24 23:20:45.70	24.88	19.66	-40.0	-42.4	13.3	1.29e-05	0	60	0	354418688	51	4796
2026-01-24 23:20:46.70	24.94	19.79	-39.9	-42.2	13.5	1.44e-05	0	60	0	357564416	51	4700
2026-01-24 23:20:47.71	25.00	19.92	-39.9	-42.2	13.5	8.30e-06	0	60	0	360710144	51	4696
2026-01-24 23:20:48.72	25.06	20.04	-39.8	-42.1	13.6	7.60e-06	0	60	0	363855872	51	4626
2026-01-24 23:20:49.73	25.12	20.17	-39.8	-42.1	13.7	1.50e-06	0	60	0	367001600	51	4600
2026-01-24 23:20:50.75	25.18	20.30	-39.6	-41.9	13.9	2.20e-06	0	60	0	370147328	51	4505
2026-01-24 23:20:51.75	25.25	20.43	-39.5	-41.7	14.0	0.00e+00	0	60	0	373293056	51	4425
2026-01-24 23:20:52.76	25.31	20.56	-39.6	-41.8	14.0	7.00e-07	0	60	0	376438784	51	4464
2026-01-24 23:20:53.77	25.37	20.69	-39.5	-41.6	14.2	1.50e-06	0	60	0	379584512	50	4641
2026-01-24 23:20:54.78	25.43	20.82	-39.5	-41.6	14.2	3.00e-06	0	60	0	382730240	50	4641
2026-01-24 23:20:55.79	25.50	20.95	-39.3	-41.4	14.4	0.00e+00	0	60	0	385875968	50	4518
2026-01-24 23:20:56.80	25.56	21.09	-39.2	-41.3	14.5	7.00e-07	0	60	0	389021696	50	4474
2026-01-24 23:20:57.81	25.63	21.22	-39.2	-41.3	14.5	0.00e+00	0	60	0	392167424	50	4446
2026-01-24 23:20:58.82	25.69	21.36	-39.1	-41.1	14.7	0.00e+00	0	60	0	395313152	50	4372
2026-01-24 23:20:59.83	25.76	21.49	-38.9	-40.8	15.0	0.00e+00	0	60	0	398458880	49	4493
2026-01-24 23:21:00.84	25.82	21.63	-38.9	-40.8	15.0	0.00e+00	0	60	0	401604608	49	4484
2026-01-24 23:21:01.85	25.89	21.76	-38.8	-40.8	15.1	0.00e+00	0	60	0	404750336	49	4454
2026-01-24 23:21:02.86	25.96	21.90	-38.8	-40.7	15.1	0.00e+00	0	60	0	407896064	49	4437
2026-01-24 23:21:03.86	26.02	22.03	-38.8	-40.7	15.2	0.00e+00	0	60	0	411041792	49	4398
2026-01-24 23:21:04.87	26.09	22.17	-38.8	-40.7	15.1	7.00e-07	0	60	0	414187520	49	4425
2026-01-24 23:21:05.88	26.16	22.31	-38.8	-40.7	15.2	0.00e+00	0	60	0	417333248	49	4407
2026-01-24 23:21:06.89	26.23	22.45	-38.8	-40.7	15.2	0.00e+00	0	60	0	420478976	49	4418
2026-01-24 23:21:07.90	26.30	22.59	-38.6	-40.5	15.4	0.00e+00	0	60	0	423624704	49	4317
2026-01-24 23:21:08.91	26.37	22.73	-38.7	-40.5	15.3	0.00e+00	0	60	0	426770432	49	4339
2026-01-24 23:21:09.92	26.44	22.88	-38.8	-40.6	15.2	0.00e+00	0	60	0	429916160	49	4388
2026-01-24 23:21:10.93	26.51	23.02	-38.8	-40.7	15.2	0.00e+00	0	60	0	433061888	49	4394
2026-01-24 23:21:11.94	26.59	23.16	-38.8	-40.7	15.2	0.00e+00	0	60	0	436207616	49	4400
2026-01-24 23:21:12.95	26.66	23.31	-38.8	-40.7	15.2	0.00e+00	0	60	0	439353344	49	4430
2026-01-24 23:21:13.96	26.73	23.45	-38.7	-40.6	15.2	0.00e+00	0	60	0	442499072	49	4386
2026-01-24 23:21:14.97	26.81	23.60	-38.9	-40.8	15.1	0.00e+00	0	60	0	445644800	49	4461
2026-01-24 23:21:15.98	26.88	23.74	-38.8	-40.7	15.2	0.00e+00	0	60	0	448790528	49	4396
2026-01-24 23:21:16.99	26.96	23.89	-38.9	-40.8	15.1	0.00e+00	0	60	0	451936256	49	4459
2026-01-24 23:21:18.00	27.04	24.04	-38.9	-40.9	15.0	0.00e+00	0	60	0	455081984	49	4513
2026-01-24 23:21:19.01	27.11	24.19	-39.0	-41.0	14.9	0.00e+00	0	60	0	458227712	49	4560
2026-01-24 23:21:20.02	27.19	24.34	-39.0	-41.0	14.9	0.00e+00	0	60	0	461373440	49	4566
2026-01-24 23:21:21.02	27.27	24.49	-39.1	-41.1	14.8	0.00e+00	0	60	0	464519168	49	4615
2026-01-24 23:21:22.03	27.35	24.64	-39.1	-41.1	14.8	0.00e+00	0	60	0	467664896	49	4605
2026-01-24 23:21:23.04	27.43	24.79	-39.1	-41.2	14.8	0.00e+00	0	60	0	470810624	49	4656
2026-01-24 23:21:24.05	27.51	24.94	-39.1	-41.1	14.8	7.00e-07	0	60	0	473956352	49	4629
2026-01-24 23:21:25.07	27.59	25.10	-39.2	-41.2	14.7	1.50e-06	0	60	0	477102080	49	4692
2026-01-24 23:21:26.07	27.67	25.25	-39.3	-41.4	14.5	0.00e+00	0	60	0	480247808	49	4776
2026-01-24 23:21:27.09	27.76	25.41	-39.4	-41.5	14.5	0.00e+00	0	60	0	483393536	49	4821
2026-01-24 23:21:28.10	27.84	25.57	-39.4	-41.4	14.5	0.00e+00	0	60	0	486539264	49	4803
2026-01-24 23:21:29.11	27.93	25.72	-39.4	-41.6	14.4	0.00e+00	0	60	0	489684992	49	4874
2026-01-24 23:21:30.12	28.01	25.88	-39.5	-41.6	14.3	7.00e-07	0	60	0	492830720	49	4908
2026-01-24 23:21:31.13	28.10	26.04	-39.6	-41.7	14.2	7.00e-07	0	60	0	495976448	49	4975
2026-01-24 23:21:32.14	28.19	26.20	-39.6	-41.7	14.2	7.00e-07	0	60	0	499122176	49	4969
2026-01-24 23:21:33.15	28.27	26.36	-39.7	-41.8	14.1	1.50e-06	0	60	0	503316480	49	5040
2026-01-24 23:21:34.16	28.36	26.52	-39.7	-41.9	14.0	1.50e-06	0	60	0	505413632	49	5080
2026-01-24 23:21:35.17	28.45	26.69	-39.8	-42.0	13.9	3.00e-06	0	60	0	508559360	50	4853
2026-01-24 23:21:36.18	28.54	26.85	-39.9	-42.1	13.9	1.50e-06	0	60	0	511705088	50	4912
2026-01-24 23:21:37.19	28.63	27.02	-39.9	-42.2	13.8	6.80e-06	0	60	0	514850816	50	4934
2026-01-24 23:21:38.20	28.73	27.18	-39.9	-42.2	13.8	6.80e-06	0	60	0	519045120	50	4965
2026-01-24 23:21:39.21	28.82	27.35	-40.0	-42.3	13.7	9.90e-06	0	60	0	522190848	50	5036
2026-01-24 23:21:40.22	28.91	27.51	-40.1	-42.4	13.5	3.80e-06	0	60	0	525336576	50	5096
2026-01-24 23:21:41.23	29.01	27.68	-40.2	-42.5	13.5	7.60e-06	0	60	0	528482304	50	5156
2026-01-24 23:21:42.24	29.11	27.85	-40.2	-42.5	13.5	1.29e-05	0	60	0	530579456	50	5146
2026-01-24 23:21:43.25	29.20	28.02	-40.1	-42.5	13.5	8.30e-06	0	60	0	533725184	50	5117
2026-01-24 23:21:44.26	29.30	28.19	-40.2	-42.6	13.5	1.22e-05	0	60	0	537919488	50	5162
2026-01-24 23:21:45.26	29.40	28.36	-40.2	-42.6	13.4	1.52e-05	0	60	0	541065216	51	4892
2026-01-24 23:21:46.27	29.50	28.54	-40.1	-42.5	13.6	1.14e-05	0	60	0	544210944	51	4817
2026-01-24 23:21:47.28	29.60	28.71	-40.0	-42.3	13.7	9.90e-06	0	60	0	547356672	51	4736
2026-01-24 23:21:48.29	29.70	28.89	-40.1	-42.4	13.6	6.80e-06	0	60	0	550502400	51	4810
2026-01-24 23:21:49.30	29.81	29.06	-40.0	-42.3	13.7	1.29e-05	0	60	0	553648128	51	4714
2026-01-24 23:21:50.31	29.91	29.24	-40.0	-42.2	13.8	4.50e-06	0	60	0	556793856	51	4696
2026-01-24 23:21:51.32	30.02	29.42	-39.9	-42.2	13.9	3.80e-06	0	60	0	559939584	51	4660
2026-01-24 23:21:52.33	30.12	29.60	-39.8	-42.1	14.0	1.50e-06	0	60	0	563085312	51	4614
2026-01-24 23:21:53.34	30.23	29.78	-39.8	-42.0	14.0	2.20e-06	0	60	0	566231040	51	4590
2026-01-24 23:21:54.35	30.34	29.96	-39.8	-42.0	14.1	3.00e-06	0	60	0	569376768	51	4563
2026-01-24 23:21:55.36	30.45	30.14	-39.8	-42.1	14.0	3.00e-06	0	60	0	572522496	51	4605
2026-01-24 23:21:56.37	30.56	30.33	-39.9	-42.1	13.9	1.50e-06	0	60	0	575668224	51	4649
2026-01-24 23:21:57.38	30.67	30.51	-39.8	-42.0	14.0	5.30e-06	0	60	0	578813952	51	4598
2026-01-24 23:21:58.39	30.79	30.70	-39.8	-41.9	14.1	3.80e-06	0	60	0	581959680	51	4544
2026-01-24 23:21:59.40	30.90	30.88	-39.7	-41.8	14.2	0.00e+00	0	60	0	585105408	51	4485
2026-01-24 23:22:00.41	31.02	31.07	-39.7	-41.8	14.2	3.00e-06	0	60	0	588251136	51	4479
2026-01-24 23:22:01.42	31.14	31.26	-39.7	-41.8	14.3	0.00e+00	0	60	0	591396864	51	4466
2026-01-24 23:22:02.42	31.26	31.45	-39.7	-41.9	14.2	1.50e-06	0	60	0	594542592	51	4501
2026-01-24 23:22:03.43	31.38	31.64	-39.7	-41.8	14.3	7.00e-07	0	60	0	597688320	51	4461
2026-01-24 23:22:04.44	31.50	31.83	-39.7	-41.9	14.2	1.50e-06	0	60	0	600834048	51	4508
2026-01-24 23:22:05.45	31.62	32.03	-39.7	-41.8	14.2	7.00e-07	0	60	0	603979776	51	4492
2026-01-24 23:22:06.46	31.75	32.22	-39.7	-41.8	14.3	1.50e-06	0	60	0	607125504	51	4474
2026-01-24 23:22:07.47	31.87	32.42	-39.7	-41.8	14.3	1.50e-06	0	60	0	610271232	51	4451
2026-01-24 23:22:08.48	32.00	32.61	-39.7	-41.8	14.3	1.50e-06	0	60	0	613416960	51	4452
2026-01-24 23:22:09.49	32.13	32.81	-39.7	-41.8	14.3	7.00e-07	0	60	0	616562688	51	4475
2026-01-24 23:22:10.50	32.26	33.01	-39.8	-41.9	14.2	0.00e+00	0	60	0	619708416	51	4518
2026-01-24 23:22:11.51	32.39	33.21	-39.8	-42.0	14.1	7.00e-07	0	60	0	622854144	51	4549
2026-01-24 23:22:12.52	32.53	33.41	-39.9	-42.1	14.0	3.80e-06	0	61	0	625999872	51	4617
2026-01-24 23:22:13.53	32.66	33.61	-39.9	-42.2	13.9	2.20e-06	0	60	0	629145600	51	4656
2026-01-24 23:22:14.54	32.80	33.82	-40.0	-42.3	13.8	3.80e-06	0	61	0	632291328	51	4717
2026-01-24 23:22:15.55	32.94	34.02	-40.1	-42.5	13.7	6.10e-06	0	61	0	635437056	51	4815
2026-01-24 23:22:16.56	33.08	34.23	-40.2	-42.6	13.6	1.37e-05	0	61	0	638582784	51	4871
2026-01-24 23:22:17.57	33.22	34.44	-40.3	-42.7	13.4	1.22e-05	0	61	0	641728512	51	4945
2026-01-24 23:22:18.58	33.37	34.65	-40.5	-43.0	13.1	1.67e-05	0	60	0	644874240	51	5128
2026-01-24 23:22:19.58	33.51	34.85	-40.7	-43.2	12.9	4.34e-05	0	61	0	648019968	51	5260
2026-01-24 23:22:20.60	33.66	35.07	-40.8	-43.5	12.6	8.85e-05	0	60	0	651165696	52	5103
2026-01-24 23:22:21.60	33.81	35.28	-41.0	-43.7	12.3	1.44e-04	0	60	0	654311424	52	5256
2026-01-24 23:22:22.61	33.96	35.49	-41.1	-43.9	12.1	2.34e-04	0	60	0	657457152	52	5382
2026-01-24 23:22:23.62	34.11	35.71	-41.2	-44.1	11.9	3.33e-04	0	60	0	660602880	52	5472
2026-01-24 23:22:24.63	34.27	35.92	-41.3	-44.2	11.8	4.50e-04	0	60	0	663748608	53	5256
2026-01-24 23:22:25.64	34.42	36.14	-41.2	-44.1	11.9	3.70e-04	0	60	0	666894336	53	5198
2026-01-24 23:22:26.65	34.58	36.36	-41.3	-44.3	11.8	5.39e-04	0	61	0	670040064	53	5282
2026-01-24 23:22:27.66	34.75	36.58	-41.3	-44.3	11.7	4.86e-04	0	60	0	673185792	53	5302
2026-01-24 23:22:28.67	34.91	36.80	-41.4	-44.4	11.6	5.55e-04	0	60	0	676331520	53	5359
2026-01-24 23:22:29.68	35.08	37.02	-41.3	-44.3	11.7	5.32e-04	0	61	0	679477248	53	5313
2026-01-24 23:22:30.69	35.24	37.24	-41.3	-44.3	11.6	5.66e-04	0	60	0	682622976	53	5332
2026-01-24 23:22:31.70	35.41	37.47	-41.3	-44.4	11.7	5.86e-04	0	60	0	685768704	53	5348
2026-01-24 23:22:32.71	35.59	37.69	-41.3	-44.3	11.7	6.10e-04	0	61	0	688914432	53	5325
2026-01-24 23:22:33.72	35.76	37.92	-41.3	-44.3	11.7	5.82e-04	0	60	0	692060160	53	5287
2026-01-24 23:22:34.73	35.94	38.15	-41.3	-44.2	11.8	6.69e-04	0	60	0	695205888	53	5254
2026-01-24 23:22:35.74	36.12	38.38	-41.3	-44.3	11.7	5.03e-04	0	61	0	698351616	53	5299
2026-01-24 23:22:36.75	36.30	38.61	-41.3	-44.2	11.8	4.60e-04	0	61	0	701497344	53	5246
2026-01-24 23:22:37.76	36.49	38.84	-41.2	-44.2	11.9	4.46e-04	0	61	0	704643072	53	5244
2026-01-24 23:22:38.77	36.68	39.08	-41.2	-44.1	11.9	4.09e-04	0	60	0	707788800	53	5174
2026-01-24 23:22:39.78	36.87	39.31	-41.1	-43.9	12.1	3.07e-04	0	61	0	710934528	53	5090
2026-01-24 23:22:40.79	37.06	39.55	-41.0	-43.8	12.2	2.00e-04	0	61	0	714080256	53	5039
2026-01-24 23:22:41.80	37.25	39.79	-41.1	-43.9	12.2	2.41e-04	0	60	0	717225984	53	5066
2026-01-24 23:22:42.81	37.45	40.03	-40.9	-43.6	12.4	1.62e-04	0	61	0	720371712	53	4910
2026-01-24 23:22:43.82	37.66	40.27	-40.9	-43.5	12.5	1.40e-04	0	60	0	723517440	53	4855
2026-01-24 23:22:44.83	37.86	40.51	-40.9	-43.5	12.6	9.00e-05	0	60	0	726663168	53	4851
2026-01-24 23:22:45.83	38.07	40.75	-40.9	-43.6	12.5	1.13e-04	0	61	0	729808896	53	4880
2026-01-24 23:22:46.84	38.28	40.99	-40.8	-43.5	12.6	1.07e-04	0	61	0	732954624	53	4821
2026-01-24 23:22:47.85	38.49	41.24	-40.9	-43.6	12.4	1.36e-04	0	61	0	736100352	53	4924
2026-01-24 23:22:48.87	38.71	41.48	-41.0	-43.7	12.4	1.31e-04	0	61	0	739246080	53	4960
2026-01-24 23:22:49.87	38.93	41.73	-41.0	-43.8	12.3	1.54e-04	0	61	0	742391808	53	5006
2026-01-24 23:22:50.88	39.15	41.98	-41.0	-43.7	12.4	1.51e-04	0	60	0	745537536	53	4965
2026-01-24 23:22:51.89	39.38	42.23	-40.8	-43.5	12.7	9.46e-05	0	61	0	748683264	53	4820
2026-01-24 23:22:52.91	39.61	42.48	-40.9	-43.6	12.5	1.39e-04	0	60	0	751828992	53	4907
2026-01-24 23:22:53.91	39.84	42.73	-41.1	-43.9	12.1	2.36e-04	0	60	0	754974720	53	5053
2026-01-24 23:22:54.93	40.08	42.99	-41.3	-44.2	11.9	3.99e-04	0	61	0	758120448	53	5239
2026-01-24 23:22:55.94	40.32	43.24	-41.5	-44.6	11.4	7.90e-04	0	61	0	761266176	53	5503
2026-01-24 23:22:56.94	40.57	43.49	-41.6	-44.8	11.2	1.33e-03	0	60	0	764411904	53	5643
2026-01-24 23:22:57.95	40.82	43.75	-41.8	-45.1	11.0	2.09e-03	0	61	0	767557632	54	5495
2026-01-24 23:22:58.96	41.07	44.01	-41.9	-45.3	10.7	2.63e-03	0	61	0	770703360	54	5640
2026-01-24 23:22:59.97	41.33	44.27	-42.1	-45.6	10.4	3.94e-03	0	61	0	773849088	54	5797
2026-01-24 23:23:00.98	41.59	44.53	-42.2	-45.9	10.2	6.29e-03	0	61	0	776994816	55	5658
2026-01-24 23:23:01.99	41.85	44.79	-42.2	-45.9	10.1	6.45e-03	0	61	0	780140544	55	5672
2026-01-24 23:23:03.00	42.12	45.05	-42.1	-45.7	10.3	5.41e-03	0	61	0	783286272	55	5535
2026-01-24 23:23:04.01	42.40	45.32	-42.0	-45.6	10.4	4.51e-03	0	61	0	786432000	55	5474
2026-01-24 23:23:05.02	42.68	45.58	-41.9	-45.3	10.6	3.57e-03	0	61	0	789577728	55	5338
2026-01-24 23:23:06.03	42.96	45.85	-41.8	-45.1	10.9	2.51e-03	0	60	0	792723456	55	5166
2026-01-24 23:23:07.04	43.25	46.11	-41.9	-45.2	10.7	3.09e-03	0	61	0	795869184	55	5274
2026-01-24 23:23:08.05	43.54	46.38	-42.1	-45.6	10.4	3.91e-03	0	61	0	799014912	55	5489
2026-01-24 23:23:09.06	43.84	46.65	-42.0	-45.4	10.6	3.77e-03	0	61	0	802160640	55	5380
2026-01-24 23:23:10.07	44.14	46.92	-41.7	-45.0	11.0	2.23e-03	0	61	0	805306368	55	5138
2026-01-24 23:23:11.08	44.45	47.19	-41.5	-44.6	11.4	1.03e-03	0	61	0	808452096	55	4886
2026-01-24 23:23:12.09	44.77	47.46	-41.2	-44.1	11.9	4.47e-04	0	61	0	811597824	54	4905
2026-01-24 23:23:13.10	45.09	47.73	-41.1	-43.8	12.2	2.27e-04	0	61	0	814743552	54	4756
2026-01-24 23:23:14.11	45.41	48.01	-41.1	-43.9	12.2	1.69e-04	0	61	0	817889280	53	5066
2026-01-24 23:23:15.12	45.74	48.28	-41.0	-43.7	12.4	1.56e-04	0	61	0	821035008	53	4966
2026-01-24 23:23:16.13	46.08	48.55	-41.0	-43.8	12.3	1.69e-04	0	61	0	824180736	53	4991
2026-01-24 23:23:17.14	46.42	48.83	-41.2	-44.0	12.1	2.04e-04	0	61	0	827326464	53	5103
2026-01-24 23:23:18.15	46.77	49.10	-41.3	-44.2	11.9	3.91e-04	0	61	0	830472192	53	5239
2026-01-24 23:23:19.15	47.12	49.38	-41.4	-44.4	11.7	4.64e-04	0	61	0	833617920	53	5401
2026-01-24 23:23:20.17	47.49	49.66	-41.4	-44.3	11.8	4.94e-04	0	61	0	836763648	53	5332
2026-01-24 23:23:21.18	47.85	49.93	-41.2	-44.1	12.0	3.75e-04	0	61	0	839909376	53	5185
2026-01-24 23:23:22.19	48.23	50.21	-41.2	-44.0	12.0	3.27e-04	0	61	0	843055104	53	5148
2026-01-24 23:23:23.20	48.61	50.49	-41.2	-44.0	12.0	2.31e-04	0	61	0	846200832	53	5142
2026-01-24 23:23:24.21	49.00	50.77	-41.0	-43.7	12.3	2.37e-04	0	61	0	849346560	53	4966
2026-01-24 23:23:25.22	49.39	51.05	-41.0	-43.8	12.3	1.93e-04	0	61	0	852492288	53	4991
2026-01-24 23:23:26.23	49.80	51.33	-40.9	-43.6	12.5	1.66e-04	0	61	0	855638016	53	4888
2026-01-24 23:23:27.23	50.20	51.60	-40.8	-43.4	12.7	7.32e-05	0	61	0	858783744	53	4770
2026-01-24 23:23:28.25	50.62	51.88	-40.7	-43.3	12.9	4.34e-05	0	61	0	861929472	53	4706
2026-01-24 23:23:29.26	51.05	52.16	-40.8	-43.4	12.7	6.10e-05	0	61	0	866123776	53	4768
2026-01-24 23:23:30.27	51.48	52.44	-40.8	-43.5	12.7	8.16e-05	0	61	0	869269504	53	4840
2026-01-24 23:23:31.28	51.93	52.72	-40.6	-43.2	13.0	5.34e-05	0	61	0	871366656	53	4674
2026-01-24 23:23:32.29	52.38	53.00	-40.5	-42.9	13.3	1.22e-05	0	61	0	874512384	52	4792
2026-01-24 23:23:33.30	52.84	53.28	-40.3	-42.6	13.6	6.10e-06	0	61	0	878706688	52	4622
2026-01-24 23:23:34.31	53.31	53.56	-40.0	-42.3	13.9	3.00e-06	0	61	0	881852416	52	4450
2026-01-24 23:23:35.32	53.78	53.84	-39.9	-42.1	14.2	3.00e-06	0	61	0	884998144	51	4610
2026-01-24 23:23:36.33	54.27	54.11	-39.9	-42.1	14.2	2.20e-06	0	61	0	888143872	51	4616
2026-01-24 23:23:37.34	54.76	54.39	-40.2	-42.5	13.7	7.00e-07	0	61	0	891289600	51	4836
2026-01-24 23:23:38.35	55.27	54.67	-40.1	-42.3	14.0	5.30e-06	0	61	0	894435328	51	4741
2026-01-24 23:23:39.36	55.79	54.94	-39.8	-41.8	14.5	1.50e-06	0	61	0	897581056	51	4487
2026-01-24 23:23:40.37	56.31	55.22	-39.5	-41.4	14.9	0.00e+00	0	61	0	900726784	50	4540
2026-01-24 23:23:41.38	56.85	55.49	-39.3	-41.2	15.1	0.00e+00	0	61	0	903872512	50	4405
2026-01-24 23:23:42.39	57.39	55.77	-39.3	-41.2	15.0	0.00e+00	0	61	0	907018240	50	4428
2026-01-24 23:23:43.40	57.95	56.04	-39.5	-41.5	14.7	0.00e+00	0	61	0	910163968	50	4566
2026-01-24 23:23:44.41	58.52	56.31	-39.5	-41.5	14.8	0.00e+00	0	61	0	913309696	50	4564
2026-01-24 23:23:45.42	59.09	56.58	-39.7	-41.7	14.6	0.00e+00	0	61	0	916455424	50	4676
2026-01-24 23:23:46.43	59.68	56.84	-39.7	-41.7	14.4	7.00e-07	0	61	0	919601152	50	4703
2026-01-24 23:23:47.44	60.29	57.11	-39.9	-42.1	14.0	1.50e-06	0	61	0	922746880	50	4896
2026-01-24 23:23:48.45	60.90	57.37	-39.8	-41.9	14.3	7.00e-07	0	61	0	925892608	50	4783
2026-01-24 23:23:49.46	61.52	57.64	-39.7	-41.8	14.4	0.00e+00	0	61	0	929038336	50	4736
2026-01-24 23:23:50.47	62.16	57.90	-39.6	-41.6	14.6	7.00e-07	0	61	0	932184064	50	4616
2026-01-24 23:23:51.48	62.81	58.15	-39.4	-41.4	14.9	7.00e-07	0	61	0	935329792	50	4513
2026-01-24 23:23:52.49	63.47	58.41	-39.3	-41.2	15.1	0.00e+00	0	61	0	938475520	50	4399
2026-01-24 23:23:53.50	64.15	58.66	-39.3	-41.2	15.0	0.00e+00	0	61	0	941621248	50	4437
2026-01-24 23:23:54.51	64.83	58.91	-39.4	-41.4	14.9	0.00e+00	0	61	0	944766976	50	4501
2026-01-24 23:23:55.52	65.53	59.16	-39.2	-41.1	15.2	0.00e+00	0	61	0	947912704	50	4359
2026-01-24 23:23:56.53	66.25	59.41	-39.2	-41.1	15.2	0.00e+00	0	61	0	951058432	50	4374
2026-01-24 23:23:57.54	66.97	59.65	-39.1	-41.0	15.3	0.00e+00	0	61	0	954204160	50	4297
2026-01-24 23:23:58.55	67.71	59.89	-39.1	-40.9	15.3	0.00e+00	0	61	0	957349888	50	4289
2026-01-24 23:23:59.56	68.47	60.12	-39.1	-40.9	15.3	0.00e+00	0	61	0	960495616	50	4283
2026-01-24 23:24:00.57	69.24	60.35	-39.2	-41.2	15.1	0.00e+00	0	61	0	963641344	50	4404
2026-01-24 23:24:01.58	70.02	60.58	-39.1	-41.0	15.2	0.00e+00	0	61	0	966787072	50	4324
2026-01-24 23:24:02.59	70.81	60.80	-38.7	-40.4	15.8	0.00e+00	0	61	0	969932800	49	4291
2026-01-24 23:24:03.60	71.62	61.02	-38.7	-40.4	15.8	0.00e+00	0	61	0	973078528	49	4284
2026-01-24 23:24:04.61	72.45	61.24	-38.5	-40.2	16.0	0.00e+00	0	61	0	976224256	49	4176
2026-01-24 23:24:05.62	73.29	61.45	-38.7	-40.4	15.9	0.00e+00	0	61	0	979369984	49	4286
2026-01-24 23:24:06.63	74.14	61.66	-38.7	-40.5	15.8	0.00e+00	0	61	0	982515712	49	4301
2026-01-24 23:24:07.64	75.01	61.86	-38.7	-40.4	15.8	0.00e+00	0	61	0	985661440	49	4286
2026-01-24 23:24:08.65	75.89	62.05	-38.7	-40.5	15.7	0.00e+00	0	61	0	988807168	49	4314
2026-01-24 23:24:09.66	76.78	62.24	-38.7	-40.5	15.7	0.00e+00	0	61	0	991952896	49	4322
2026-01-24 23:24:10.67	77.69	62.43	-38.7	-40.4	15.7	0.00e+00	0	61	0	995098624	49	4288
2026-01-24 23:24:11.68	78.61	62.61	-38.5	-40.2	15.9	0.00e+00	0	61	0	998244352	49	4190
2026-01-24 23:24:12.69	79.55	62.78	-38.9	-40.6	15.6	0.00e+00	0	61	0	1001390080	49	4389
2026-01-24 23:24:13.70	80.50	62.95	-39.1	-41.0	15.3	0.00e+00	0	61	0	1004535808	49	4578
2026-01-24 23:24:14.71	81.46	63.11	-39.2	-41.1	15.2	0.00e+00	0	61	0	1007681536	49	4613
2026-01-24 23:24:15.72	82.43	63.27	-38.9	-40.7	15.5	0.00e+00	0	61	0	1010827264	49	4417
2026-01-24 23:24:16.74	83.43	63.42	-38.6	-40.3	15.8	0.00e+00	0	61	0	1013972992	49	4234
2026-01-24 23:24:17.75	84.43	63.56	-38.8	-40.5	15.7	0.00e+00	0	61	0	1017118720	49	4334
2026-01-24 23:24:18.76	85.44	63.70	-39.0	-40.8	15.5	0.00e+00	0	61	0	1020264448	49	4459
2026-01-24 23:24:19.77	86.47	63.82	-38.9	-40.7	15.5	0.00e+00	0	61	0	1023410176	49	4435
2026-01-24 23:24:20.77	87.49	63.94	-38.8	-40.6	15.6	0.00e+00	0	61	0	1026555904	49	4356
2026-01-24 23:24:21.78	88.54	64.06	-38.7	-40.4	15.6	0.00e+00	0	61	0	1029701632	49	4261
2026-01-24 23:24:22.79	89.59	64.16	-38.7	-40.4	15.6	0.00e+00	0	61	0	1032847360	49	4283
2026-01-24 23:24:23.80	90.66	64.26	-38.4	-40.1	16.0	0.00e+00	0	61	0	1035993088	48	4362
2026-01-24 23:24:24.81	91.73	64.35	-38.3	-39.9	16.2	0.00e+00	0	61	0	1039138816	48	4285
2026-01-24 23:24:25.82	92.81	64.43	-38.5	-40.3	15.8	0.00e+00	0	61	0	1042284544	48	4446
2026-01-24 23:24:26.83	93.90	64.51	-39.1	-41.1	15.1	0.00e+00	0	61	0	1045430272	48	4875
2026-01-24 23:24:27.84	94.99	64.58	-39.2	-41.2	15.0	0.00e+00	0	61	0	1048576000	49	4665
2026-01-24 23:24:28.85	96.10	64.63	-38.9	-40.7	15.5	0.00e+00	0	61	0	1051721728	49	4412
2026-01-24 23:24:29.86	97.20	64.68	-39.0	-40.8	15.4	0.00e+00	0	61	0	1054867456	49	4479
2026-01-24 23:24:30.87	98.31	64.73	-38.9	-40.8	15.4	0.00e+00	0	61	0	1058013184	49	4470
2026-01-24 23:24:31.88	99.43	64.76	-39.0	-40.8	15.4	0.00e+00	0	61	0	1061158912	49	4490
2026-01-24 23:24:32.90	100.56	64.78	-39.0	-40.8	15.4	0.00e+00	0	61	0	1064304640	49	4469
2026-01-24 23:24:33.91	101.68	64.80	-38.9	-40.7	15.4	0.00e+00	0	61	0	1067450368	49	4407
2026-01-24 23:24:34.92	102.80	64.81	-38.7	-40.5	15.5	0.00e+00	0	61	0	1070596096	49	4329
2026-01-24 23:24:35.93	103.92	64.81	-38.6	-40.3	15.8	0.00e+00	0	61	0	1073741824	49	4241
2026-01-24 23:24:36.94	105.04	64.80	-38.6	-40.3	15.9	0.00e+00	0	61	0	1076887552	49	4203
2026-01-24 23:24:37.95	106.16	64.78	-39.2	-41.1	15.1	0.00e+00	0	61	0	1080033280	49	4651
2026-01-24 23:24:38.96	107.28	64.75	-39.6	-41.7	14.6	0.00e+00	0	61	0	1083179008	49	4929
2026-01-24 23:24:39.97	108.39	64.71	-39.6	-41.6	14.6	0.00e+00	0	61	0	1086324736	50	4636
2026-01-24 23:24:40.98	109.50	64.67	-39.1	-41.0	15.3	0.00e+00	0	61	0	1089470464	50	4302
2026-01-24 23:24:41.99	110.61	64.62	-38.8	-40.6	15.6	0.00e+00	0	61	0	1092616192	49	4358
2026-01-24 23:24:42.99	111.70	64.56	-38.5	-40.2	16.0	0.00e+00	0	61	0	1095761920	49	4185
2026-01-24 23:24:44.00	112.79	64.49	-38.6	-40.3	15.9	0.00e+00	0	61	0	1098907648	48	4491
2026-01-24 23:24:45.01	113.88	64.41	-39.0	-40.8	15.4	0.00e+00	0	61	0	1102053376	48	4746
2026-01-24 23:24:46.02	114.96	64.33	-38.8	-40.5	15.7	0.00e+00	0	61	0	1105199104	48	4590
2026-01-24 23:24:47.03	116.03	64.23	-38.4	-40.1	16.1	0.00e+00	0	61	0	1108344832	48	4376
2026-01-24 23:24:48.04	117.09	64.13	-38.5	-40.2	16.0	0.00e+00	0	61	0	1111490560	48	4398
2026-01-24 23:24:49.05	118.14	64.03	-38.8	-40.6	15.6	0.00e+00	0	61	0	1114636288	48	4615
2026-01-24 23:24:50.06	119.19	63.91	-39.2	-41.1	15.1	7.00e-07	0	61	0	1117782016	49	4646
2026-01-24 23:24:51.07	120.22	63.79	-39.3	-41.2	15.0	0.00e+00	0	61	0	1120927744	49	4682
2026-01-24 23:24:52.08	121.24	63.66	-39.2	-41.1	15.1	0.00e+00	0	61	0	1124073472	49	4605
2026-01-24 23:24:53.10	122.26	63.52	-39.0	-40.9	15.1	0.00e+00	0	61	0	1127219200	49	4522
2026-01-24 23:24:54.10	123.25	63.37	-38.8	-40.7	15.5	0.00e+00	0	61	0	1130364928	49	4393
2026-01-24 23:24:55.11	124.23	63.22	-38.4	-40.1	16.1	0.00e+00	0	61	0	1133510656	48	4382
2026-01-24 23:24:56.12	125.21	63.07	-38.6	-40.3	15.8	0.00e+00	0	61	0	1136656384	48	4486
2026-01-24 23:24:57.13	126.17	62.90	-39.1	-41.0	15.2	0.00e+00	0	61	0	1139802112	48	4863
2026-01-24 23:24:58.14	127.11	62.73	-39.3	-41.2	15.0	0.00e+00	0	61	0	1142947840	49	4665
2026-01-24 23:24:59.16	128.05	62.55	-38.6	-40.3	15.9	0.00e+00	0	61	0	1146093568	49	4206
2026-01-24 23:25:00.17	128.97	62.37	-38.4	-40.0	16.0	0.00e+00	0	61	0	1149239296	48	4337
2026-01-24 23:25:01.18	129.88	62.18	-38.8	-40.6	15.5	0.00e+00	0	61	0	1152385024	48	4625
2026-01-24 23:25:02.19	130.77	61.99	-39.1	-41.0	15.2	0.00e+00	0	61	0	1155530752	48	4820
2026-01-24 23:25:03.20	131.65	61.79	-39.6	-41.7	14.5	0.00e+00	0	61	0	1158676480	49	4935
2026-01-24 23:25:04.21	132.51	61.59	-40.0	-42.2	13.9	7.00e-07	0	61	0	1161822208	50	4977
2026-01-24 23:25:05.22	133.36	61.38	-39.8	-41.9	14.2	2.20e-06	0	61	0	1164967936	50	4787
2026-01-24 23:25:06.23	134.20	61.17	-38.8	-40.6	15.6	0.00e+00	0	61	0	1168113664	49	4343
2026-01-24 23:25:07.24	135.02	60.95	-38.5	-40.1	16.0	0.00e+00	0	61	0	1171259392	48	4380
2026-01-24 23:25:08.25	135.83	60.73	-38.9	-40.7	15.5	0.00e+00	0	61	0	1175453696	48	4674
2026-01-24 23:25:09.26	136.62	60.51	-39.9	-42.1	14.1	2.20e-06	0	61	0	1178599424	50	4891
2026-01-24 23:25:10.27	137.40	60.28	-40.3	-42.5	13.7	8.30e-06	0	61	0	1181745152	51	4868
2026-01-24 23:25:11.28	138.16	60.04	-39.8	-41.9	14.1	3.80e-06	0	61	0	1184890880	51	4535
2026-01-24 23:25:12.29	138.91	59.81	-39.0	-40.9	15.1	7.00e-07	0	61	0	1186988032	50	4261
2026-01-24 23:25:13.30	139.65	59.57	-38.4	-40.1	16.0	0.00e+00	0	61	0	1190133760	48	4358
2026-01-24 23:25:14.30	140.37	59.32	-38.3	-39.9	16.2	0.00e+00	0	61	0	1194328064	48	4260
2026-01-24 23:25:15.32	141.09	59.08	-38.7	-40.4	15.7	0.00e+00	0	61	0	1197473792	48	4539
2026-01-24 23:25:16.33	141.78	58.83	-39.6	-41.6	14.6	0.00e+00	0	61	0	1200619520	49	4916
2026-01-24 23:25:17.34	142.47	58.57	-40.3	-42.6	13.6	4.50e-06	0	61	0	1203765248	51	4897
2026-01-24 23:25:18.35	143.14	58.32	-40.2	-42.4	13.7	8.30e-06	0	61	0	1206910976	51	4814
2026-01-24 23:25:19.36	143.80	58.06	-39.4	-41.3	14.6	7.00e-07	0	61	0	1210056704	50	4480
2026-01-24 23:25:20.37	144.45	57.80	-38.9	-40.7	15.2	0.00e+00	0	61	0	1213202432	49	4433
2026-01-24 23:25:21.37	145.07	57.54	-38.8	-40.6	15.5	0.00e+00	0	61	0	1216348160	49	4357
2026-01-24 23:25:22.39	145.70	57.28	-39.1	-41.0	15.2	0.00e+00	0	61	0	1219493888	49	4567
2026-01-24 23:25:23.39	146.31	57.01	-40.0	-42.1	14.1	7.00e-07	0	61	0	1222639616	50	4913
2026-01-24 23:25:24.40	146.91	56.75	-40.4	-42.8	13.4	9.10e-06	0	61	0	1225785344	51	4997
2026-01-24 23:25:25.41	147.49	56.48	-40.6	-43.0	13.2	2.74e-05	0	61	0	1228931072	51	5151
2026-01-24 23:25:26.42	148.07	56.21	-40.2	-42.5	13.5	2.28e-05	0	61	0	1232076800	51	4866
2026-01-24 23:25:27.43	148.64	55.94	-39.5	-41.6	14.5	2.20e-06	0	61	0	1235222528	51	4346
2026-01-24 23:25:28.44	149.19	55.66	-39.1	-41.0	15.2	0.00e+00	0	61	0	1238368256	50	4297
2026-01-24 23:25:29.45	149.73	55.39	-39.4	-41.3	14.9	0.00e+00	0	61	0	1241513984	50	4463
2026-01-24 23:25:30.46	150.27	55.11	-40.3	-42.6	13.6	4.50e-06	0	61	0	1244659712	51	4908
2026-01-24 23:25:31.47	150.79	54.84	-40.9	-43.6	12.4	1.56e-04	0	61	0	1247805440	52	5193
2026-01-24 23:25:32.48	151.30	54.56	-41.0	-43.7	12.4	1.69e-04	0	61	0	1250951168	52	5231
2026-01-24 23:25:33.49	151.81	54.28	-40.8	-43.4	12.6	1.05e-04	0	61	0	1254096896	52	5086
2026-01-24 23:25:34.50	152.30	54.00	-40.6	-43.1	12.8	6.33e-05	0	61	0	1257242624	52	4894
2026-01-24 23:25:35.51	152.78	53.72	-40.2	-42.6	13.3	2.44e-05	0	61	0	1260388352	52	4610
2026-01-24 23:25:36.52	153.26	53.45	-40.0	-42.2	13.8	3.00e-06	0	61	0	1263534080	51	4680
2026-01-24 23:25:37.53	153.73	53.17	-39.9	-42.0	14.1	1.50e-06	0	61	0	1266679808	51	4556
2026-01-24 23:25:38.54	154.18	52.89	-39.9	-42.0	14.1	0.00e+00	0	61	0	1269825536	51	4592
2026-01-24 23:25:39.55	154.63	52.60	-40.4	-42.8	13.4	8.30e-06	0	61	0	1272971264	51	4994
2026-01-24 23:25:40.56	155.07	52.32	-40.7	-43.3	12.8	3.81e-05	0	61	0	1276116992	52	5005
2026-01-24 23:25:41.57	155.50	52.04	-40.9	-43.6	12.4	9.99e-05	0	61	0	1279262720	52	5163
2026-01-24 23:25:42.58	155.93	51.76	-41.0	-43.8	11.9	2.86e-04	0	61	0	1282408448	52	5320
2026-01-24 23:25:43.59	156.35	51.48	-41.1	-44.0	11.7	5.88e-04	0	61	0	1285554176	52	5452
2026-01-24 23:25:44.60	156.75	51.20	-41.1	-43.9	12.0	3.72e-04	0	61	0	1288699904	52	5352
2026-01-24 23:25:45.61	157.16	50.92	-40.9	-43.6	12.3	1.64e-04	0	61	0	1291845632	52	5179
2026-01-24 23:25:46.62	157.55	50.64	-40.9	-43.6	12.3	1.31e-04	0	61	0	1294991360	52	5185
2026-01-24 23:25:47.63	157.94	50.36	-41.3	-44.2	11.8	3.42e-04	0	61	0	1298137088	53	5236
2026-01-24 23:25:48.64	158.32	50.08	-41.5	-44.6	11.3	1.10e-03	0	61	0	1301282816	53	5518
2026-01-24 23:25:49.65	158.69	49.80	-41.5	-44.6	11.4	9.77e-04	0	61	0	1304428544	53	5489
2026-01-24 23:25:50.66	159.06	49.53	-41.8	-45.1	10.9	1.72e-03	0	61	0	1307574272	54	5505
2026-01-24 23:25:51.67	159.42	49.25	-41.9	-45.3	10.6	3.25e-03	0	61	0	1310720000	54	5629
2026-01-24 23:25:52.68	159.77	48.97	-41.6	-44.7	11.3	1.84e-03	0	61	0	1313865728	54	5260
2026-01-24 23:25:53.69	160.12	48.69	-41.3	-44.2	11.8	6.08e-04	0	61	0	1317011456	54	4952
2026-01-24 23:25:54.70	160.46	48.42	-41.0	-43.7	12.3	2.01e-04	0	61	0	1320157184	54	4693
2026-01-24 23:25:55.71	160.79	48.14	-40.9	-43.5	12.4	1.72e-04	0	61	0	1323302912	53	4848
2026-01-24 23:25:56.72	161.12	47.87	-41.3	-44.2	11.6	4.33e-04	0	61	0	1326448640	53	5273
2026-01-24 23:25:57.73	161.45	47.59	-41.9	-45.3	10.6	2.84e-03	0	61	0	1329594368	54	5632
2026-01-24 23:25:58.74	161.76	47.32	-42.2	-45.8	10.0	8.10e-03	0	61	0	1332740096	55	5608
2026-01-24 23:25:59.75	162.08	47.05	-41.8	-45.0	10.8	3.02e-03	0	61	0	1335885824	55	5138
2026-01-24 23:26:00.76	162.38	46.78	-41.4	-44.4	11.3	1.42e-03	0	61	0	1339031552	54	5099
2026-01-24 23:26:01.77	162.69	46.51	-41.3	-44.2	11.6	8.80e-04	0	61	0	1342177280	54	4966
2026-01-24 23:26:02.78	162.98	46.24	-41.3	-44.2	11.7	6.19e-04	0	61	0	1345323008	54	4927
2026-01-24 23:26:03.79	163.27	45.97	-41.4	-44.3	11.5	7.19e-04	0	61	0	1348468736	54	5036
2026-01-24 23:26:04.80	163.56	45.70	-41.4	-44.3	11.6	7.83e-04	0	61	0	1351614464	54	5019
2026-01-24 23:26:05.81	163.84	45.43	-41.5	-44.5	11.3	9.79e-04	0	61	0	1354760192	54	5149
2026-01-24 23:26:06.82	164.12	45.17	-41.7	-44.9	11.0	1.39e-03	0	61	0	1357905920	54	5365
2026-01-24 23:26:07.84	164.40	44.90	-41.8	-45.2	10.7	3.04e-03	0	61	0	1361051648	54	5541
2026-01-24 23:26:08.84	164.66	44.64	-41.7	-44.9	10.9	2.32e-03	0	61	0	1364197376	54	5371
2026-01-24 23:26:09.85	164.93	44.38	-41.7	-45.0	10.9	1.83e-03	0	61	0	1367343104	54	5453
2026-01-24 23:26:10.86	165.19	44.12	-41.9	-45.3	10.5	3.59e-03	0	61	0	1370488832	54	5628
2026-01-24 23:26:11.87	165.45	43.86	-42.1	-45.7	10.1	6.69e-03	0	61	0	1373634560	54	5863
2026-01-24 23:26:12.89	165.70	43.60	-42.0	-45.5	10.3	5.47e-03	0	61	0	1376780288	54	5763
2026-01-24 23:26:13.90	165.95	43.34	-41.7	-45.0	10.9	3.36e-03	0	61	0	1379926016	54	5414
2026-01-24 23:26:14.91	166.19	43.08	-41.3	-44.2	11.7	9.41e-04	0	61	0	1383071744	54	4953
2026-01-24 23:26:15.92	166.43	42.83	-41.2	-43.9	12.0	3.36e-04	0	61	0	1386217472	54	4814
2026-01-24 23:26:16.93	166.67	42.57	-41.2	-44.0	12.0	3.39e-04	0	61	0	1389363200	54	4838
2026-01-24 23:26:17.94	166.90	42.32	-41.3	-44.3	11.6	6.46e-04	0	61	0	1392508928	54	4998
2026-01-24 23:26:18.95	167.13	42.07	-41.5	-44.5	11.3	1.05e-03	0	61	0	1395654656	54	5150
2026-01-24 23:26:19.96	167.36	41.82	-41.2	-44.2	11.8	6.01e-04	0	61	0	1398800384	54	4934
2026-01-24 23:26:20.97	167.58	41.57	-41.0	-43.8	12.1	2.89e-04	0	61	0	1401946112	54	4709
2026-01-24 23:26:21.98	167.80	41.32	-40.9	-43.7	12.1	2.21e-04	0	61	0	1405091840	53	4930
2026-01-24 23:26:22.99	168.02	41.07	-41.1	-43.9	12.0	3.58e-04	0	61	0	1408237568	53	5052
2026-01-24 23:26:24.00	168.23	40.83	-41.1	-43.9	12.0	3.91e-04	0	61	0	1411383296	53	5081
2026-01-24 23:26:25.01	168.44	40.58	-41.0	-43.8	12.1	2.81e-04	0	61	0	1414529024	53	4985
2026-01-24 23:26:26.02	168.64	40.34	-41.0	-43.8	12.1	2.60e-04	0	61	0	1417674752	53	5008
2026-01-24 23:26:27.03	168.85	40.10	-41.1	-43.9	11.9	2.84e-04	0	61	0	1420820480	53	5055
2026-01-24 23:26:28.04	169.05	39.85	-41.2	-44.2	11.6	5.02e-04	0	61	0	1423966208	53	5224
2026-01-24 23:26:29.05	169.25	39.62	-41.4	-44.5	11.3	9.75e-04	0	61	0	1427111936	53	5452
2026-01-24 23:26:30.06	169.44	39.38	-41.5	-44.7	11.0	1.60e-03	0	61	0	1430257664	53	5572
2026-01-24 23:26:31.07	169.63	39.14	-41.5	-44.6	11.2	1.54e-03	0	61	0	1433403392	53	5470
2026-01-24 23:26:32.08	169.82	38.90	-41.2	-44.2	11.7	7.64e-04	0	61	0	1436549120	53	5220
2026-01-24 23:26:33.09	170.01	38.67	-41.0	-43.8	12.0	3.39e-04	0	61	0	1439694848	53	5011
2026-01-24 23:26:34.10	170.19	38.44	-41.0	-43.7	12.1	3.11e-04	0	61	0	1442840576	53	4975
2026-01-24 23:26:35.11	170.38	38.20	-41.1	-43.9	11.8	3.87e-04	0	61	0	1445986304	53	5073
2026-01-24 23:26:36.12	170.55	37.97	-41.1	-44.0	11.6	5.79e-04	0	61	0	1449132032	53	5146
2026-01-24 23:26:37.12	170.73	37.75	-41.1	-43.9	11.7	6.45e-04	0	61	0	1452277760	53	5099
2026-01-24 23:26:38.13	170.90	37.52	-41.0	-43.8	11.8	5.23e-04	0	61	0	1455423488	53	5011
2026-01-24 23:26:39.15	171.08	37.29	-40.7	-43.4	12.2	2.27e-04	0	61	0	1458569216	53	4780
2026-01-24 23:26:40.15	171.25	37.07	-40.5	-43.1	12.6	9.84e-05	0	62	0	1461714944	53	4621
2026-01-24 23:26:41.16	171.41	36.84	-40.5	-43.0	12.7	7.93e-05	0	61	0	1464860672	52	4862
2026-01-24 23:26:42.17	171.58	36.62	-40.2	-42.5	13.2	2.36e-05	0	61	0	1468006400	52	4595
2026-01-24 23:26:43.18	171.74	36.40	-40.0	-42.3	13.5	1.37e-05	0	61	0	1471152128	51	4751
2026-01-24 23:26:44.19	171.90	36.18	-40.0	-42.3	13.5	1.14e-05	0	61	0	1474297856	51	4745
2026-01-24 23:26:45.20	172.06	35.96	-40.0	-42.3	13.6	9.90e-06	0	62	0	1477443584	51	4718
2026-01-24 23:26:46.21	172.22	35.74	-40.0	-42.3	13.6	5.30e-06	0	61	0	1480589312	51	4723
2026-01-24 23:26:47.22	172.37	35.52	-40.1	-42.4	13.5	1.44e-05	0	61	0	1483735040	51	4791
2026-01-24 23:26:48.23	172.52	35.31	-40.2	-42.6	13.3	1.29e-05	0	61	0	1486880768	51	4873
2026-01-24 23:26:49.24	172.68	35.09	-40.2	-42.6	13.3	2.28e-05	0	61	0	1490026496	51	4874
2026-01-24 23:26:50.25	172.82	34.88	-40.2	-42.5	13.4	1.06e-05	0	61	0	1493172224	51	4826
2026-01-24 23:26:51.26	172.97	34.67	-40.3	-42.6	13.3	1.44e-05	0	61	0	1497366528	51	4910
2026-01-24 23:26:52.27	173.12	34.46	-40.3	-42.7	13.2	3.35e-05	0	61	0	1500512256	51	4972
2026-01-24 23:26:53.27	173.26	34.25	-40.6	-43.2	12.6	6.17e-05	0	61	0	1502609408	51	5248
2026-01-24 23:26:54.29	173.40	34.04	-40.8	-43.6	12.1	1.76e-04	0	61	0	1505755136	52	5206
2026-01-24 23:26:55.29	173.54	33.84	-41.1	-44.0	11.7	4.65e-04	0	61	0	1508900864	52	5438
2026-01-24 23:26:56.30	173.68	33.63	-41.0	-43.9	11.8	5.47e-04	0	61	0	1513095168	52	5381
2026-01-24 23:26:57.31	173.81	33.43	-40.8	-43.6	12.1	2.80e-04	0	62	0	1516240896	52	5166
2026-01-24 23:26:58.32	173.95	33.22	-40.7	-43.5	12.2	2.29e-04	0	61	0	1519386624	52	5105
2026-01-24 23:26:59.33	174.08	33.02	-40.6	-43.3	12.3	1.81e-04	0	61	0	1522532352	52	5005
2026-01-24 23:27:00.34	174.21	32.82	-40.5	-43.1	12.5	1.37e-04	0	61	0	1524629504	52	4910
2026-01-24 23:27:01.35	174.34	32.62	-40.5	-43.1	12.5	1.04e-04	0	61	0	1528823808	52	4903
2026-01-24 23:27:02.36	174.47	32.42	-40.4	-43.0	12.6	1.17e-04	0	62	0	1531969536	52	4832
2026-01-24 23:27:03.37	174.60	32.22	-40.2	-42.7	13.0	5.49e-05	0	61	0	1535115264	52	4669
2026-01-24 23:27:04.38	174.72	32.03	-40.3	-42.7	12.9	3.58e-05	0	61	0	1538260992	52	4695
2026-01-24 23:27:05.39	174.85	31.83	-40.2	-42.6	13.1	4.19e-05	0	62	0	1541406720	52	4613
2026-01-24 23:27:06.40	174.97	31.64	-40.0	-42.3	13.5	1.14e-05	0	61	0	1544552448	51	4706
2026-01-24 23:27:07.41	175.09	31.45	-39.8	-42.0	13.8	6.10e-06	0	62	0	1547698176	51	4570
2026-01-24 23:27:08.42	175.21	31.25	-39.6	-41.7	14.0	1.50e-06	0	61	0	1550843904	51	4437
2026-01-24 23:27:09.43	175.33	31.06	-39.5	-41.6	14.3	7.00e-07	0	61	0	1553989632	50	4601
2026-01-24 23:27:10.44	175.45	30.87	-39.3	-41.4	14.5	0.00e+00	0	61	0	1557135360	50	4503
2026-01-24 23:27:11.45	175.56	30.69	-39.5	-41.5	14.3	7.00e-07	0	61	0	1560281088	50	4592
2026-01-24 23:27:12.46	175.68	30.50	-39.5	-41.6	14.3	7.00e-07	0	61	0	1563426816	50	4632
2026-01-24 23:27:13.47	175.79	30.31	-39.5	-41.5	14.3	7.00e-07	0	61	0	1566572544	50	4590
2026-01-24 23:27:14.48	175.90	30.13	-39.6	-41.7	14.2	7.00e-07	0	61	0	1569718272	50	4656
2026-01-24 23:27:15.49	176.01	29.94	-39.7	-41.9	14.0	1.50e-06	0	61	0	1572864000	50	4761
2026-01-24 23:27:16.50	176.12	29.76	-39.8	-42.0	13.8	5.30e-06	0	61	0	1576009728	50	4869
2026-01-24 23:27:17.51	176.23	29.58	-39.9	-42.2	13.7	1.50e-06	0	61	0	1579155456	50	4930
2026-01-24 23:27:18.52	176.34	29.40	-40.0	-42.3	13.5	1.14e-05	0	61	0	1582301184	50	5041
2026-01-24 23:27:19.53	176.44	29.22	-40.1	-42.4	13.4	1.06e-05	0	61	0	1585446912	50	5094
2026-01-24 23:27:20.54	176.55	29.04	-40.1	-42.5	13.3	1.29e-05	0	61	0	1588592640	50	5131
2026-01-24 23:27:21.55	176.65	28.86	-40.1	-42.5	13.3	2.21e-05	0	61	0	1591738368	50	5125
2026-01-24 23:27:22.56	176.75	28.68	-40.1	-42.5	13.3	1.22e-05	0	61	0	1594884096	50	5116
2026-01-24 23:27:23.57	176.86	28.51	-40.1	-42.5	13.3	2.05e-05	0	61	0	1598029824	50	5149
2026-01-24 23:27:24.57	176.96	28.33	-40.1	-42.5	13.3	1.44e-05	0	62	0	1601175552	50	5102
2026-01-24 23:27:25.58	177.06	28.16	-40.1	-42.5	13.2	3.05e-05	0	61	0	1604321280	50	5159
2026-01-24 23:27:26.60	177.15	27.99	-40.1	-42.5	13.3	1.37e-05	0	62	0	1607467008	50	5119
2026-01-24 23:27:27.60	177.25	27.82	-40.0	-42.3	13.4	1.52e-05	0	61	0	1610612736	50	5028
2026-01-24 23:27:28.61	177.35	27.65	-39.9	-42.2	13.6	1.37e-05	0	62	0	1613758464	50	4928
2026-01-24 23:27:29.62	177.44	27.48	-39.8	-42.1	13.7	9.90e-06	0	61	0	1616904192	50	4891
2026-01-24 23:27:30.63	177.54	27.31	-39.8	-42.1	13.7	6.80e-06	0	61	0	1620049920	50	4871
2026-01-24 23:27:31.64	177.63	27.14	-39.7	-41.9	13.8	4.50e-06	0	61	0	1623195648	50	4808
2026-01-24 23:27:32.65	177.72	26.97	-39.7	-41.9	13.9	6.10e-06	0	61	0	1626341376	50	4784
2026-01-24 23:27:33.66	177.82	26.81	-39.7	-41.9	13.8	5.30e-06	0	61	0	1629487104	50	4800
2026-01-24 23:27:34.67	177.91	26.64	-39.5	-41.7	14.1	3.00e-06	0	61	0	1632632832	50	4671
2026-01-24 23:27:35.68	178.00	26.48	-39.4	-41.5	14.2	1.50e-06	0	61	0	1635778560	50	4595
2026-01-24 23:27:36.69	178.08	26.31	-39.4	-41.4	14.3	1.50e-06	0	61	0	1638924288	50	4545
2026-01-24 23:27:37.70	178.17	26.15	-39.2	-41.2	14.5	7.00e-07	0	61	0	1642070016	50	4431
2026-01-24 23:27:38.71	178.26	25.99	-38.9	-40.9	14.9	0.00e+00	0	61	0	1645215744	49	4503
2026-01-24 23:27:39.72	178.35	25.83	-38.7	-40.6	15.1	0.00e+00	0	61	0	1648361472	49	4374
2026-01-24 23:27:40.73	178.43	25.67	-38.8	-40.7	15.0	0.00e+00	0	61	0	1651507200	49	4411
2026-01-24 23:27:41.74	178.52	25.51	-38.9	-40.8	14.9	0.00e+00	0	61	0	1654652928	49	4450
2026-01-24 23:27:42.75	178.60	25.35	-38.9	-40.8	14.9	0.00e+00	0	62	0	1657798656	49	4454
2026-01-24 23:27:43.76	178.68	25.20	-38.9	-40.9	14.9	7.00e-07	0	61	0	1660944384	49	4497
2026-01-24 23:27:44.77	178.77	25.04	-39.0	-40.9	14.8	0.00e+00	0	61	0	1664090112	49	4527
2026-01-24 23:27:45.78	178.85	24.89	-39.0	-41.0	14.7	0.00e+00	0	62	0	1667235840	49	4564
2026-01-24 23:27:46.79	178.93	24.73	-39.1	-41.1	14.6	0.00e+00	0	61	0	1670381568	49	4605
2026-01-24 23:27:47.80	179.01	24.58	-39.1	-41.1	14.6	7.00e-07	0	61	0	1673527296	49	4644
2026-01-24 23:27:48.80	179.09	24.43	-39.1	-41.1	14.6	7.00e-07	0	61	0	1676673024	49	4631
2026-01-24 23:27:49.81	179.17	24.27	-39.1	-41.1	14.7	1.50e-06	0	61	0	1679818752	49	4610
2026-01-24 23:27:50.82	179.24	24.12	-39.0	-41.0	14.7	7.00e-07	0	61	0	1682964480	49	4571
2026-01-24 23:27:51.83	179.32	23.97	-39.0	-41.0	14.7	0.00e+00	0	61	0	1686110208	49	4597
2026-01-24 23:27:52.84	179.40	23.82	-39.2	-41.2	14.5	0.00e+00	0	61	0	1689255936	49	4671
2026-01-24 23:27:53.85	179.47	23.68	-39.2	-41.3	14.4	1.50e-06	0	61	0	1692401664	49	4708
2026-01-24 23:27:54.86	179.55	23.53	-39.2	-41.3	14.4	1.50e-06	0	62	0	1695547392	49	4740
2026-01-24 23:27:55.87	179.62	23.38	-39.3	-41.4	14.3	0.00e+00	0	62	0	1698693120	49	4778
2026-01-24 23:27:56.88	179.70	23.23	-39.4	-41.5	14.2	0.00e+00	0	62	0	1701838848	49	4836
2026-01-24 23:27:57.89	179.77	23.09	-39.4	-41.5	14.1	7.00e-07	0	62	0	1704984576	49	4855
2026-01-24 23:27:58.90	179.84	22.94	-39.4	-41.5	14.2	2.20e-06	0	61	0	1708130304	49	4837
2026-01-24 23:27:59.91	179.91	22.80	-39.4	-41.5	14.1	3.00e-06	0	61	0	1711276032	49	4861
2026-01-24 23:28:00.92	179.98	22.66	-39.4	-41.6	14.1	1.50e-06	0	61	0	1714421760	49	4871
2026-01-24 23:28:01.93	180.06	22.52	-39.4	-41.5	14.1	1.50e-06	0	61	0	1717567488	49	4870
2026-01-24 23:28:02.94	180.13	22.37	-39.5	-41.7	14.0	3.80e-06	0	61	0	1720713216	49	4946
2026-01-24 23:28:03.95	180.19	22.23	-39.5	-41.7	14.0	3.00e-06	0	61	0	1723858944	49	4960
2026-01-24 23:28:04.96	180.26	22.09	-39.6	-41.8	13.9	3.80e-06	0	61	0	1727004672	49	4986
2026-01-24 23:28:05.97	180.33	21.95	-39.4	-41.6	14.1	2.20e-06	0	61	0	1730150400	49	4888
2026-01-24 23:28:06.98	180.40	21.81	-39.4	-41.5	14.1	7.00e-07	0	61	0	1733296128	49	4860
2026-01-24 23:28:07.99	180.47	21.68	-39.4	-41.5	14.2	7.00e-07	0	61	0	1736441856	49	4838
2026-01-24 23:28:09.00	180.53	21.54	-39.4	-41.5	14.1	2.20e-06	0	61	0	1739587584	49	4865
2026-01-24 23:28:10.01	180.60	21.40	-39.3	-41.4	14.2	3.00e-06	0	61	0	1742733312	49	4795
2026-01-24 23:28:11.02	180.66	21.27	-39.3	-41.4	14.2	2.20e-06	0	62	0	1745879040	49	4795
2026-01-24 23:28:12.03	180.73	21.13	-39.3	-41.4	14.2	7.00e-07	0	61	0	1749024768	49	4799
2026-01-24 23:28:13.04	180.79	21.00	-39.3	-41.4	14.1	2.20e-06	0	62	0	1752170496	49	4800
2026-01-24 23:28:14.05	180.86	20.86	-39.3	-41.4	14.2	5.30e-06	0	61	0	1755316224	49	4790
2026-01-24 23:28:15.06	180.92	20.73	-39.3	-41.4	14.2	7.00e-07	0	62	0	1758461952	49	4801
2026-01-24 23:28:16.07	180.98	20.60	-39.3	-41.5	14.1	5.30e-06	0	62	0	1761607680	49	4818
2026-01-24 23:28:17.08	181.05	20.47	-39.3	-41.5	14.1	1.50e-06	0	61	0	1764753408	49	4831
2026-01-24 23:28:18.09	181.11	20.33	-39.4	-41.6	14.0	3.80e-06	0	61	0	1767899136	49	4881
2026-01-24 23:28:19.09	181.17	20.21	-39.4	-41.5	14.0	7.00e-07	0	61	0	1771044864	49	4868
2026-01-24 23:28:20.10	181.23	20.08	-39.4	-41.6	13.9	5.30e-06	0	62	0	1774190592	49	4904
2026-01-24 23:28:21.11	181.29	19.95	-39.4	-41.7	13.9	4.50e-06	0	61	0	1777336320	49	4936
2026-01-24 23:28:22.12	181.35	19.82	-39.4	-41.6	14.0	1.50e-06	0	61	0	1780482048	49	4888
2026-01-24 23:28:23.13	181.41	19.69	-39.4	-41.5	14.0	2.20e-06	0	61	0	1783627776	49	4868
2026-01-24 23:28:24.14	181.47	19.56	-39.4	-41.6	14.0	1.50e-06	0	61	0	1786773504	49	4872
2026-01-24 23:28:25.15	181.53	19.44	-39.3	-41.5	14.1	2.20e-06	0	61	0	1789919232	49	4815
2026-01-24 23:28:26.16	181.58	19.31	-39.3	-41.5	14.0	2.20e-06	0	62	0	1793064960	49	4845
2026-01-24 23:28:27.17	181.64	19.18	-39.4	-41.6	13.9	7.00e-07	0	61	0	1796210688	49	4882
2026-01-24 23:28:28.18	181.70	19.06	-39.3	-41.4	14.1	2.20e-06	0	61	0	1799356416	49	4787
2026-01-24 23:28:29.19	181.75	18.94	-39.2	-41.4	14.1	7.00e-07	0	61	0	1802502144	49	4766
2026-01-24 23:28:30.20	181.81	18.81	-39.3	-41.4	14.0	2.20e-06	0	62	0	1805647872	49	4808
2026-01-24 23:28:31.20	181.87	18.69	-39.3	-41.5	14.0	2.20e-06	0	61	0	1808793600	49	4817
2026-01-24 23:28:32.22	181.92	18.57	-39.2	-41.4	14.1	7.00e-07	0	61	0	1811939328	49	4764
2026-01-24 23:28:33.23	181.98	18.44	-39.3	-41.4	14.1	7.00e-07	0	61	0	1815085056	49	4798
2026-01-24 23:28:34.24	182.03	18.32	-39.2	-41.4	14.1	1.50e-06	0	61	0	1818230784	49	4769
2026-01-24 23:28:35.24	182.09	18.20	-39.3	-41.4	14.0	3.80e-06	0	61	0	1821376512	49	4810
2026-01-24 23:28:36.26	182.14	18.08	-39.3	-41.4	14.1	3.00e-06	0	61	0	1824522240	49	4808
2026-01-24 23:28:37.26	182.19	17.96	-39.3	-41.5	14.1	1.50e-06	0	61	0	1827667968	49	4817
2026-01-24 23:28:38.28	182.25	17.84	-39.4	-41.6	13.9	2.20e-06	0	61	0	1830813696	49	4884
2026-01-24 23:28:39.29	182.30	17.73	-39.4	-41.6	13.9	3.80e-06	0	61	0	1833959424	49	4925
2026-01-24 23:28:40.30	182.35	17.61	-39.4	-41.6	13.9	2.20e-06	0	62	0	1837105152	49	4890
2026-01-24 23:28:41.31	182.40	17.49	-39.4	-41.6	13.9	8.30e-06	0	61	0	1840250880	49	4919
2026-01-24 23:28:42.32	182.45	17.37	-39.5	-41.8	13.8	4.50e-06	0	61	0	1843396608	49	4997
2026-01-24 23:28:43.33	182.50	17.26	-39.5	-41.7	13.9	7.00e-07	0	61	0	1846542336	49	4942
2026-01-24 23:28:44.34	182.56	17.14	-39.5	-41.7	13.8	4.50e-06	0	62	0	1849688064	49	4980
2026-01-24 23:28:45.35	182.61	17.03	-39.4	-41.6	13.9	3.00e-06	0	61	0	1852833792	49	4925
2026-01-24 23:28:46.36	182.66	16.91	-39.5	-41.7	13.8	6.10e-06	0	61	0	1857028096	49	4965
2026-01-24 23:28:47.37	182.71	16.80	-39.5	-41.8	13.8	5.30e-06	0	61	0	1860173824	49	4995
2026-01-24 23:28:48.38	182.75	16.68	-39.5	-41.7	13.8	5.30e-06	0	61	0	1863319552	49	4964
2026-01-24 23:28:49.39	182.80	16.57	-39.5	-41.7	13.8	9.90e-06	0	61	0	1865416704	49	4971
2026-01-24 23:28:50.40	182.85	16.46	-39.5	-41.8	13.8	6.80e-06	0	61	0	1868562432	49	4999
2026-01-24 23:28:51.41	182.90	16.34	-39.6	-41.8	13.7	4.50e-06	0	61	0	1872756736	49	5029
2026-01-24 23:28:52.42	182.95	16.23	-39.6	-41.8	13.7	4.50e-06	0	62	0	1875902464	49	5025
2026-01-24 23:28:53.43	183.00	16.12	-39.6	-41.9	13.7	8.30e-06	0	61	0	1879048192	49	5045
2026-01-24 23:28:54.44	183.04	16.01	-39.7	-42.0	13.6	8.30e-06	0	61	0	1882193920	49	5113
2026-01-24 23:28:55.45	183.09	15.90	-39.6	-41.9	13.6	1.29e-05	0	61	0	1885339648	49	5094
2026-01-24 23:28:56.46	183.14	15.79	-39.6	-41.9	13.6	3.80e-06	0	61	0	1888485376	49	5064
2026-01-24 23:28:57.47	183.18	15.68	-39.6	-41.9	13.6	6.80e-06	0	61	0	1891631104	49	5070
2026-01-24 23:28:58.48	183.23	15.57	-39.7	-42.0	13.5	1.29e-05	0	61	0	1894776832	49	5133
2026-01-24 23:28:59.49	183.27	15.46	-39.7	-42.0	13.5	1.14e-05	0	61	0	1897922560	49	5153
