passes_logs/2026/01/24/R2.0S_Moscow/R2.0S_Moscow__20260124_123421_FENGYUN_3D_rec.log

#Pass ID: 20260124_123421_FENGYUN 3D
#Satellite: FENGYUN 3D
#Configuration: FENGYUN 3D
#almurnet v.1.7.20251203
#Start time: 2026-01-24 12:34:20

#Version: 2.2.20231116
#Station: R2.0S_Moscow
#Location: 37.707566 lon 55.798166 lat
#TLE: 1 43010U 17072A   26023.60174628  .00000324  00000+0  17481-3 0  9994
#TLE: 2 43010  98.9958 355.5514 0002482  93.7422 266.4037 14.19699955424476

#Time	Az	El	Level	Level2	SNR	BER	BlckErr	Temp	State	Recorded	gain1	gain2
2026-01-24 12:34:20.51	177.72	1.96	-43.9	-55.5	3.8	8.47e-01	0	52	0	0	59	13650
2026-01-24 12:34:21.52	177.74	2.03	-43.9	-55.5	3.8	8.46e-01	0	52	104	0	59	13626
2026-01-24 12:34:22.53	177.77	2.09	-43.9	-55.5	3.8	8.47e-01	0	52	104	0	59	13611
2026-01-24 12:34:23.54	177.80	2.15	-43.9	-55.5	3.8	8.48e-01	0	52	104	0	59	13661
2026-01-24 12:34:24.55	177.83	2.22	-43.9	-55.5	3.8	8.46e-01	0	52	104	0	59	13606
2026-01-24 12:34:25.56	177.86	2.28	-43.9	-55.5	3.8	8.46e-01	0	52	104	0	59	13663
2026-01-24 12:34:26.57	177.89	2.35	-43.9	-55.5	3.8	8.45e-01	0	53	104	0	59	13639
2026-01-24 12:34:27.58	177.93	2.41	-43.9	-55.5	3.8	8.46e-01	0	53	104	0	59	13629
2026-01-24 12:34:28.59	177.96	2.47	-43.9	-55.5	3.8	8.46e-01	0	53	104	0	59	13630
2026-01-24 12:34:29.60	177.99	2.54	-43.9	-55.5	3.8	8.46e-01	0	53	104	0	59	13610
2026-01-24 12:34:30.61	178.02	2.60	-43.9	-55.5	3.8	8.47e-01	0	53	104	0	59	13637
2026-01-24 12:34:31.62	178.05	2.67	-43.8	-55.5	3.8	8.46e-01	0	53	104	0	59	13633
2026-01-24 12:34:32.63	178.08	2.73	-43.9	-55.5	3.8	8.46e-01	0	53	104	0	59	13606
2026-01-24 12:34:33.64	178.11	2.80	-43.9	-55.5	3.8	8.45e-01	0	53	104	0	59	13617
2026-01-24 12:34:34.65	178.14	2.87	-43.9	-55.5	3.8	8.46e-01	0	53	104	0	59	13641
2026-01-24 12:34:35.66	178.17	2.93	-43.8	-55.5	3.8	8.45e-01	0	53	104	0	59	13605
2026-01-24 12:34:36.67	178.20	3.00	-43.8	-55.5	3.8	8.46e-01	0	53	104	0	59	13623
2026-01-24 12:34:37.68	178.24	3.06	-43.9	-55.5	3.8	8.47e-01	0	53	104	0	59	13656
2026-01-24 12:34:38.69	178.27	3.13	-43.9	-55.5	3.8	8.46e-01	0	53	104	0	59	13578
2026-01-24 12:34:39.70	178.30	3.19	-43.9	-55.4	3.8	8.46e-01	0	54	104	0	59	13561
2026-01-24 12:34:40.71	178.33	3.26	-43.8	-55.4	3.8	8.47e-01	0	54	104	0	59	13559
2026-01-24 12:34:41.72	178.36	3.33	-43.8	-55.4	3.8	8.47e-01	0	54	104	0	59	13547
2026-01-24 12:34:42.73	178.40	3.39	-43.9	-55.4	3.8	8.46e-01	0	53	104	0	59	13541
2026-01-24 12:34:43.74	178.43	3.46	-43.9	-55.5	3.8	8.46e-01	0	54	104	0	59	13666
2026-01-24 12:34:44.75	178.46	3.53	-43.9	-55.5	3.8	8.45e-01	0	54	104	0	59	13601
2026-01-24 12:34:45.76	178.49	3.59	-43.9	-55.5	3.8	8.46e-01	0	54	104	0	59	13655
2026-01-24 12:34:46.77	178.53	3.66	-43.9	-55.5	3.8	8.46e-01	0	54	104	0	59	13612
2026-01-24 12:34:47.78	178.56	3.73	-43.9	-55.5	3.8	8.46e-01	0	54	104	0	59	13631
2026-01-24 12:34:48.79	178.59	3.80	-43.9	-55.4	3.8	8.46e-01	0	54	104	0	59	13562
2026-01-24 12:34:49.81	178.63	3.86	-43.9	-55.5	3.8	8.46e-01	0	54	104	0	59	13570
2026-01-24 12:34:50.82	178.66	3.93	-43.8	-55.4	3.8	8.47e-01	0	54	104	0	59	13545
2026-01-24 12:34:51.83	178.69	4.00	-43.9	-55.5	3.8	8.47e-01	0	54	104	0	59	13599
2026-01-24 12:34:52.84	178.73	4.07	-43.9	-55.5	3.8	8.46e-01	0	54	104	0	59	13595
2026-01-24 12:34:53.85	178.76	4.14	-43.9	-55.5	3.8	8.45e-01	0	54	104	0	59	13631
2026-01-24 12:34:54.86	178.79	4.21	-43.9	-55.5	3.8	8.45e-01	0	54	104	0	59	13593
2026-01-24 12:34:55.87	178.83	4.27	-43.9	-55.5	3.8	8.47e-01	0	54	104	0	59	13653
2026-01-24 12:34:56.88	178.86	4.34	-43.9	-55.5	3.8	8.47e-01	0	55	104	0	59	13616
2026-01-24 12:34:57.89	178.90	4.41	-43.8	-55.4	3.8	8.46e-01	0	55	104	0	59	13557
2026-01-24 12:34:58.90	178.93	4.48	-43.8	-55.5	3.8	8.46e-01	0	55	104	0	59	13588
2026-01-24 12:34:59.91	178.97	4.55	-43.8	-55.4	3.8	8.46e-01	0	55	104	0	59	13521
2026-01-24 12:35:00.92	179.00	4.62	-43.8	-55.4	3.8	8.45e-01	0	55	104	0	59	13555
2026-01-24 12:35:01.93	179.04	4.69	-43.8	-55.4	3.8	8.46e-01	0	55	104	0	59	13471
2026-01-24 12:35:02.94	179.07	4.76	-43.8	-55.3	3.8	8.46e-01	0	55	104	0	59	13379
2026-01-24 12:35:03.95	179.11	4.83	-43.8	-55.3	3.8	8.46e-01	0	55	104	0	59	13279
2026-01-24 12:35:04.96	179.14	4.90	-43.8	-55.1	3.8	8.46e-01	0	55	104	0	59	13039
2026-01-24 12:35:05.97	179.18	4.97	-43.8	-54.8	3.8	8.46e-01	0	55	104	0	59	12635
2026-01-24 12:35:06.98	179.21	5.04	-43.7	-54.4	3.8	8.47e-01	0	55	104	0	59	11965
2026-01-24 12:35:07.99	179.25	5.11	-43.7	-53.8	3.8	8.46e-01	0	55	104	0	59	11274
2026-01-24 12:35:09.00	179.29	5.18	-43.6	-53.0	4.0	8.45e-01	0	55	104	0	59	10215
2026-01-24 12:35:10.01	179.32	5.25	-43.4	-52.2	4.1	8.43e-01	0	56	104	0	58	9905
2026-01-24 12:35:11.02	179.36	5.33	-43.3	-51.6	4.3	8.35e-01	0	55	0	0	58	9206
2026-01-24 12:35:12.03	179.39	5.40	-43.2	-50.9	4.5	8.27e-01	0	55	0	0	58	8527
2026-01-24 12:35:13.04	179.43	5.47	-43.1	-50.5	4.7	8.08e-01	0	56	0	0	58	8129
2026-01-24 12:35:14.05	179.47	5.54	-43.0	-50.1	4.9	7.93e-01	0	55	0	0	58	7788
2026-01-24 12:35:15.06	179.51	5.61	-42.9	-49.8	5.0	7.69e-01	0	55	0	0	57	7935
2026-01-24 12:35:16.07	179.54	5.69	-42.8	-49.4	5.3	7.54e-01	0	56	0	0	57	7617
2026-01-24 12:35:17.08	179.58	5.76	-42.8	-49.3	5.3	7.20e-01	0	56	0	0	57	7531
2026-01-24 12:35:18.09	179.62	5.83	-42.6	-48.7	5.8	4.69e-01	0	56	0	3145728	57	7023
2026-01-24 12:35:19.10	179.66	5.90	-42.4	-48.1	6.2	3.83e-01	0	56	0	8388608	56	6898
2026-01-24 12:35:20.12	179.69	5.98	-42.4	-48.0	6.3	3.20e-01	0	56	0	14680064	56	6844
2026-01-24 12:35:21.13	179.73	6.05	-42.3	-47.8	6.5	2.81e-01	0	56	0	19922944	56	6698
2026-01-24 12:35:22.14	179.77	6.12	-42.4	-48.0	6.3	2.69e-01	0	56	0	25165824	56	6820
2026-01-24 12:35:23.15	179.81	6.20	-42.3	-47.7	6.5	2.55e-01	0	56	0	31457280	56	6594
2026-01-24 12:35:24.16	179.85	6.27	-42.2	-47.4	6.8	2.14e-01	0	56	0	36700160	56	6370
2026-01-24 12:35:25.17	179.89	6.35	-42.4	-48.0	6.3	2.78e-01	0	56	0	42991616	56	6816
2026-01-24 12:35:26.18	179.93	6.42	-42.4	-47.9	6.4	2.84e-01	0	56	0	48234496	56	6730
2026-01-24 12:35:27.19	179.96	6.49	-42.3	-47.8	6.5	2.57e-01	0	56	0	54525952	56	6680
2026-01-24 12:35:28.20	180.00	6.57	-42.4	-48.0	6.3	2.87e-01	0	56	0	59768832	56	6827
2026-01-24 12:35:29.21	180.04	6.64	-42.5	-48.3	6.1	3.63e-01	0	56	0	65011712	56	7082
2026-01-24 12:35:30.22	180.08	6.72	-42.5	-48.2	6.1	3.25e-01	0	56	0	71303168	56	6984
2026-01-24 12:35:31.23	180.12	6.79	-42.4	-48.0	6.2	3.33e-01	0	56	0	76546048	56	6872
2026-01-24 12:35:32.24	180.16	6.87	-42.3	-47.7	6.6	2.59e-01	0	56	0	82837504	56	6596
2026-01-24 12:35:33.26	180.20	6.95	-42.1	-47.2	7.0	1.92e-01	0	56	0	88080384	56	6230
2026-01-24 12:35:34.27	180.25	7.02	-41.8	-46.6	7.4	1.48e-01	0	57	0	94371840	55	6151
2026-01-24 12:35:35.28	180.29	7.10	-41.4	-45.8	8.2	7.16e-02	0	56	0	99614720	54	5924
2026-01-24 12:35:36.29	180.33	7.17	-41.2	-45.2	8.7	5.38e-02	0	56	0	104857600	54	5574
2026-01-24 12:35:37.30	180.37	7.25	-40.7	-44.4	9.6	1.75e-02	0	57	0	111149056	53	5352
2026-01-24 12:35:38.31	180.41	7.33	-40.4	-43.8	10.2	1.12e-02	0	56	0	116391936	52	5288
2026-01-24 12:35:39.32	180.45	7.40	-40.0	-43.1	10.9	3.86e-03	0	57	0	122683392	52	4893
2026-01-24 12:35:40.33	180.49	7.48	-39.8	-42.8	11.3	2.09e-03	0	57	0	127926272	51	4995
2026-01-24 12:35:41.34	180.53	7.56	-39.5	-42.2	11.9	7.49e-04	0	57	0	133169152	51	4678
2026-01-24 12:35:42.35	180.58	7.64	-39.3	-42.0	12.2	3.86e-04	0	57	0	139460608	50	4844
2026-01-24 12:35:43.36	180.62	7.71	-39.1	-41.6	12.6	1.80e-04	0	57	0	144703488	50	4623
2026-01-24 12:35:44.37	180.66	7.79	-38.9	-41.4	12.8	1.23e-04	0	57	0	150994944	49	4766
2026-01-24 12:35:45.38	180.70	7.87	-38.9	-41.3	12.8	7.55e-05	0	57	0	156237824	49	4741
2026-01-24 12:35:46.40	180.75	7.95	-38.8	-41.2	13.0	7.43e-05	0	57	0	162529280	49	4683
2026-01-24 12:35:47.41	180.79	8.03	-39.0	-41.4	12.7	1.01e-04	0	57	0	167772160	49	4803
2026-01-24 12:35:48.41	180.83	8.11	-38.8	-41.2	13.1	7.89e-05	0	57	0	173015040	49	4662
2026-01-24 12:35:49.42	180.88	8.19	-40.4	-43.6	10.6	1.70e-03	0	57	0	179306496	51	5516
2026-01-24 12:35:50.43	180.92	8.27	-39.8	-42.6	11.4	6.80e-01	0	57	0	182452224	51	4896
2026-01-24 12:35:51.45	180.97	8.35	-40.0	-42.8	11.4	7.55e-03	0	57	0	188743680	51	5036
2026-01-24 12:35:52.45	181.01	8.43	-38.6	-40.9	13.4	3.43e-03	0	57	0	193986560	49	4503
2026-01-24 12:35:53.46	181.06	8.51	-40.9	-44.7	9.2	7.00e-01	0	57	0	198180864	54	5229
2026-01-24 12:35:54.47	181.10	8.59	-38.6	-40.8	13.5	1.94e-05	0	57	0	204472320	49	4463
2026-01-24 12:35:55.49	181.15	8.67	-38.6	-40.9	13.4	1.83e-05	0	57	0	209715200	49	4518
2026-01-24 12:35:56.50	181.19	8.75	-38.6	-40.8	13.5	2.28e-05	0	57	0	214958080	49	4461
2026-01-24 12:35:57.51	181.24	8.83	-38.4	-40.6	13.7	1.71e-05	0	57	0	221249536	48	4642
2026-01-24 12:35:58.52	181.28	8.91	-38.5	-40.8	13.6	1.02e-05	0	57	0	226492416	48	4713
2026-01-24 12:35:59.53	181.33	8.99	-38.5	-40.7	13.7	5.70e-06	0	58	0	232783872	48	4670
2026-01-24 12:36:00.54	181.38	9.08	-38.5	-40.7	13.7	8.00e-06	0	57	0	238026752	48	4681
2026-01-24 12:36:01.55	181.42	9.16	-38.5	-40.7	13.7	1.02e-05	0	58	0	243269632	48	4704
2026-01-24 12:36:02.56	181.47	9.24	-38.5	-40.7	13.7	1.02e-05	0	58	0	249561088	48	4685
2026-01-24 12:36:03.57	181.52	9.32	-38.4	-40.6	13.8	1.37e-05	0	57	0	254803968	48	4641
2026-01-24 12:36:04.58	181.56	9.41	-38.5	-40.8	13.7	9.10e-06	0	58	0	261095424	48	4708
2026-01-24 12:36:05.59	181.61	9.49	-38.5	-40.7	13.7	1.37e-05	0	58	0	266338304	48	4690
2026-01-24 12:36:06.60	181.66	9.57	-38.6	-40.8	13.7	1.60e-05	0	58	0	271581184	48	4730
2026-01-24 12:36:07.61	181.71	9.66	-38.6	-40.8	13.6	1.02e-05	0	58	0	277872640	48	4753
2026-01-24 12:36:08.61	181.75	9.74	-38.6	-40.8	13.6	8.00e-06	0	58	0	283115520	48	4738
2026-01-24 12:36:09.62	181.80	9.83	-38.6	-40.8	13.7	4.50e-06	0	58	0	289406976	48	4710
2026-01-24 12:36:10.63	181.85	9.91	-38.6	-40.8	13.7	1.37e-05	0	58	0	294649856	48	4727
2026-01-24 12:36:11.64	181.90	10.00	-38.6	-40.9	13.6	1.48e-05	0	58	0	300941312	48	4764
2026-01-24 12:36:12.65	181.95	10.08	-38.7	-40.9	13.6	1.02e-05	0	58	0	306184192	48	4808
2026-01-24 12:36:13.66	182.00	10.17	-38.7	-41.0	13.6	1.60e-05	0	58	0	311427072	48	4821
2026-01-24 12:36:14.67	182.05	10.25	-38.6	-40.8	13.7	2.17e-05	0	58	0	317718528	48	4750
2026-01-24 12:36:15.68	182.10	10.34	-38.5	-40.7	13.7	1.02e-05	0	58	0	322961408	48	4688
2026-01-24 12:36:16.69	182.15	10.42	-38.6	-40.8	13.7	9.10e-06	0	58	0	329252864	48	4734
2026-01-24 12:36:17.70	182.20	10.51	-38.6	-40.8	13.7	2.17e-05	0	58	0	334495744	48	4729
2026-01-24 12:36:18.71	182.25	10.60	-38.7	-40.9	13.7	9.10e-06	0	58	0	339738624	48	4769
2026-01-24 12:36:19.72	182.30	10.68	-38.5	-40.7	13.8	1.37e-05	0	58	0	346030080	48	4684
2026-01-24 12:36:20.73	182.35	10.77	-38.5	-40.7	13.8	8.00e-06	0	58	0	351272960	48	4681
2026-01-24 12:36:21.74	182.41	10.86	-38.5	-40.7	13.8	8.00e-06	0	58	0	357564416	48	4675
2026-01-24 12:36:22.75	182.46	10.95	-38.6	-40.7	13.8	6.80e-06	0	58	0	362807296	48	4698
2026-01-24 12:36:23.76	182.51	11.04	-38.5	-40.7	13.9	1.10e-06	0	58	0	368050176	48	4663
2026-01-24 12:36:24.77	182.56	11.13	-38.5	-40.6	14.0	1.10e-06	0	58	0	374341632	48	4622
2026-01-24 12:36:25.78	182.62	11.21	-38.4	-40.5	14.1	5.70e-06	0	58	0	379584512	48	4572
2026-01-24 12:36:26.79	182.67	11.30	-38.3	-40.3	14.2	2.20e-06	0	58	0	385875968	48	4490
2026-01-24 12:36:27.79	182.72	11.39	-38.3	-40.4	14.2	0.00e+00	0	58	0	391118848	48	4497
2026-01-24 12:36:28.80	182.78	11.48	-38.2	-40.2	14.4	0.00e+00	0	58	0	397410304	48	4426
2026-01-24 12:36:29.81	182.83	11.57	-38.2	-40.2	14.4	2.20e-06	0	58	0	402653184	48	4438
2026-01-24 12:36:30.82	182.89	11.66	-38.2	-40.3	14.4	2.20e-06	0	58	0	408944640	48	4445
2026-01-24 12:36:31.83	182.94	11.75	-38.1	-40.1	14.5	0.00e+00	0	58	0	414187520	48	4372
2026-01-24 12:36:32.84	183.00	11.85	-38.1	-40.1	14.6	1.10e-06	0	58	0	419430400	48	4348
2026-01-24 12:36:33.85	183.05	11.94	-38.0	-40.0	14.7	0.00e+00	0	58	0	425721856	48	4305
2026-01-24 12:36:34.86	183.11	12.03	-38.0	-40.0	14.6	0.00e+00	0	58	0	430964736	48	4327
2026-01-24 12:36:35.87	183.16	12.12	-37.8	-39.8	14.7	0.00e+00	0	58	0	437256192	47	4481
2026-01-24 12:36:36.88	183.22	12.21	-37.9	-39.8	14.7	0.00e+00	0	58	0	442499072	47	4486
2026-01-24 12:36:37.89	183.28	12.31	-37.9	-39.9	14.6	2.20e-06	0	58	0	447741952	47	4524
2026-01-24 12:36:38.90	183.34	12.40	-37.9	-40.0	14.5	0.00e+00	0	58	0	454033408	47	4550
2026-01-24 12:36:39.92	183.39	12.49	-38.0	-40.0	14.5	1.10e-06	0	59	0	459276288	47	4574
2026-01-24 12:36:40.93	183.45	12.59	-37.9	-40.0	14.6	1.10e-06	0	58	0	465567744	47	4554
2026-01-24 12:36:41.94	183.51	12.68	-37.9	-40.0	14.6	2.20e-06	0	59	0	470810624	47	4551
2026-01-24 12:36:42.95	183.57	12.78	-37.9	-39.9	14.7	0.00e+00	0	58	0	476053504	47	4512
2026-01-24 12:36:43.96	183.63	12.87	-37.9	-39.9	14.7	1.10e-06	0	58	0	482344960	47	4501
2026-01-24 12:36:44.97	183.69	12.97	-37.9	-39.9	14.7	1.10e-06	0	59	0	487587840	47	4508
2026-01-24 12:36:45.98	183.75	13.06	-37.9	-39.9	14.7	0.00e+00	0	59	0	493879296	47	4523
2026-01-24 12:36:46.99	183.81	13.16	-37.9	-39.9	14.6	1.10e-06	0	59	0	499122176	47	4538
2026-01-24 12:36:48.00	183.87	13.25	-37.8	-39.8	14.8	1.10e-06	0	58	0	505413632	47	4470
2026-01-24 12:36:49.01	183.93	13.35	-37.9	-39.8	14.7	0.00e+00	0	58	0	510656512	47	4486
2026-01-24 12:36:50.02	183.99	13.45	-37.8	-39.8	14.8	0.00e+00	0	59	0	516947968	47	4458
2026-01-24 12:36:51.03	184.05	13.54	-37.8	-39.8	14.8	0.00e+00	0	59	0	522190848	47	4478
2026-01-24 12:36:52.04	184.11	13.64	-37.9	-39.8	14.8	0.00e+00	0	59	0	527433728	47	4491
2026-01-24 12:36:53.05	184.18	13.74	-37.8	-39.7	14.9	1.10e-06	0	59	0	533725184	47	4441
2026-01-24 12:36:54.06	184.24	13.84	-37.7	-39.6	15.0	0.00e+00	0	59	0	538968064	47	4375
2026-01-24 12:36:55.07	184.30	13.94	-37.7	-39.6	15.0	1.10e-06	0	59	0	545259520	47	4370
2026-01-24 12:36:56.08	184.37	14.04	-37.7	-39.6	15.0	0.00e+00	0	59	0	550502400	47	4369
2026-01-24 12:36:57.09	184.43	14.14	-37.6	-39.5	15.1	0.00e+00	0	59	0	555745280	47	4340
2026-01-24 12:36:58.10	184.49	14.24	-37.6	-39.5	15.2	0.00e+00	0	59	0	562036736	47	4293
2026-01-24 12:36:59.11	184.56	14.34	-37.5	-39.4	15.3	0.00e+00	0	59	0	567279616	47	4252
2026-01-24 12:37:00.12	184.62	14.44	-37.5	-39.3	15.3	0.00e+00	0	59	0	573571072	47	4238
2026-01-24 12:37:01.12	184.69	14.54	-37.5	-39.4	15.3	0.00e+00	0	59	0	578813952	46	4509
2026-01-24 12:37:02.13	184.75	14.64	-37.4	-39.3	15.4	0.00e+00	0	59	0	584056832	46	4459
2026-01-24 12:37:03.14	184.82	14.74	-37.5	-39.4	15.3	0.00e+00	0	59	0	590348288	46	4499
2026-01-24 12:37:04.15	184.89	14.84	-37.4	-39.3	15.4	0.00e+00	0	59	0	595591168	46	4470
2026-01-24 12:37:05.16	184.96	14.94	-37.5	-39.3	15.4	0.00e+00	0	59	0	601882624	46	4486
2026-01-24 12:37:06.17	185.02	15.05	-37.6	-39.4	15.3	0.00e+00	0	59	0	607125504	46	4545
2026-01-24 12:37:07.18	185.09	15.15	-37.5	-39.3	15.4	0.00e+00	0	59	0	613416960	46	4482
2026-01-24 12:37:08.19	185.16	15.25	-37.4	-39.3	15.4	0.00e+00	0	59	0	618659840	46	4450
2026-01-24 12:37:09.20	185.23	15.36	-37.5	-39.4	15.3	0.00e+00	0	59	0	623902720	46	4506
2026-01-24 12:37:10.21	185.30	15.46	-37.5	-39.3	15.4	0.00e+00	0	59	0	630194176	46	4483
2026-01-24 12:37:11.22	185.37	15.57	-37.6	-39.4	15.2	0.00e+00	0	59	0	635437056	46	4530
2026-01-24 12:37:12.23	185.44	15.67	-37.6	-39.5	15.2	1.10e-06	0	59	0	641728512	46	4567
2026-01-24 12:37:13.24	185.51	15.78	-37.4	-39.3	15.4	0.00e+00	0	59	0	646971392	46	4472
2026-01-24 12:37:14.25	185.58	15.89	-37.4	-39.2	15.5	0.00e+00	0	59	0	652214272	46	4423
2026-01-24 12:37:15.26	185.65	15.99	-37.4	-39.2	15.5	0.00e+00	0	59	0	658505728	46	4407
2026-01-24 12:37:16.26	185.73	16.10	-37.4	-39.2	15.5	0.00e+00	0	59	0	663748608	46	4433
2026-01-24 12:37:17.27	185.80	16.21	-37.3	-39.0	15.7	0.00e+00	0	59	0	670040064	46	4340
2026-01-24 12:37:18.28	185.87	16.31	-37.1	-38.9	15.8	0.00e+00	0	59	0	675282944	46	4276
2026-01-24 12:37:19.29	185.95	16.42	-37.1	-38.9	15.9	0.00e+00	0	59	0	680525824	46	4252
2026-01-24 12:37:20.30	186.02	16.53	-37.1	-38.9	15.8	0.00e+00	0	59	0	686817280	46	4267
2026-01-24 12:37:21.31	186.10	16.64	-37.1	-38.8	15.9	0.00e+00	0	59	0	692060160	46	4228
2026-01-24 12:37:22.32	186.17	16.75	-37.0	-38.7	16.0	0.00e+00	0	59	0	698351616	46	4171
2026-01-24 12:37:23.33	186.25	16.86	-37.0	-38.7	16.0	0.00e+00	0	59	0	703594496	46	4171
2026-01-24 12:37:24.34	186.33	16.97	-37.0	-38.7	16.0	0.00e+00	0	59	0	709885952	46	4179
2026-01-24 12:37:25.35	186.40	17.08	-37.0	-38.7	16.0	0.00e+00	0	59	0	715128832	45	4424
2026-01-24 12:37:26.36	186.48	17.20	-37.0	-38.7	16.0	0.00e+00	0	59	0	720371712	45	4441
2026-01-24 12:37:27.37	186.56	17.31	-36.9	-38.7	16.1	0.00e+00	0	59	0	726663168	45	4404
2026-01-24 12:37:28.38	186.64	17.42	-37.0	-38.8	16.0	0.00e+00	0	59	0	731906048	45	4452
2026-01-24 12:37:29.39	186.72	17.53	-37.0	-38.8	16.0	0.00e+00	0	60	0	738197504	45	4445
2026-01-24 12:37:30.40	186.80	17.65	-36.9	-38.6	16.1	0.00e+00	0	59	0	743440384	45	4380
2026-01-24 12:37:31.41	186.88	17.76	-36.9	-38.6	16.1	0.00e+00	0	60	0	748683264	45	4388
2026-01-24 12:37:32.41	186.96	17.87	-36.9	-38.7	16.1	0.00e+00	0	59	0	754974720	45	4402
2026-01-24 12:37:33.42	187.04	17.99	-36.8	-38.5	16.2	0.00e+00	0	59	0	760217600	45	4307
2026-01-24 12:37:34.43	187.12	18.10	-36.8	-38.5	16.2	0.00e+00	0	59	0	766509056	45	4311
2026-01-24 12:37:35.44	187.20	18.22	-36.8	-38.6	16.2	0.00e+00	0	59	0	771751936	45	4348
2026-01-24 12:37:36.45	187.29	18.34	-36.8	-38.4	16.3	0.00e+00	0	59	0	776994816	45	4291
2026-01-24 12:37:37.46	187.37	18.45	-36.7	-38.3	16.4	0.00e+00	0	59	0	783286272	45	4230
2026-01-24 12:37:38.47	187.46	18.57	-36.6	-38.3	16.5	0.00e+00	0	59	0	788529152	45	4226
2026-01-24 12:37:39.49	187.54	18.69	-36.7	-38.4	16.4	0.00e+00	0	59	0	794820608	45	4249
2026-01-24 12:37:40.49	187.63	18.81	-36.7	-38.4	16.3	0.00e+00	0	59	0	800063488	45	4284
2026-01-24 12:37:41.50	187.72	18.93	-36.7	-38.4	16.3	0.00e+00	0	60	0	806354944	45	4282
2026-01-24 12:37:42.51	187.80	19.05	-36.7	-38.4	16.4	0.00e+00	0	59	0	811597824	45	4272
2026-01-24 12:37:43.52	187.89	19.17	-36.8	-38.5	16.3	0.00e+00	0	59	0	817889280	45	4322
2026-01-24 12:37:44.53	187.98	19.29	-36.9	-38.6	16.2	0.00e+00	0	60	0	823132160	45	4346
2026-01-24 12:37:45.55	188.07	19.41	-36.9	-38.6	16.3	0.00e+00	0	59	0	828375040	45	4345
2026-01-24 12:37:46.56	188.16	19.53	-36.7	-38.4	16.4	0.00e+00	0	59	0	834666496	45	4269
2026-01-24 12:37:47.57	188.25	19.65	-36.7	-38.4	16.4	0.00e+00	0	60	0	839909376	45	4251
2026-01-24 12:37:48.58	188.34	19.77	-36.5	-38.2	16.6	0.00e+00	0	60	0	846200832	45	4160
2026-01-24 12:37:49.58	188.43	19.90	-36.5	-38.2	16.6	0.00e+00	0	60	0	851443712	45	4158
2026-01-24 12:37:50.59	188.53	20.02	-36.5	-38.2	16.6	0.00e+00	0	60	0	856686592	45	4161
2026-01-24 12:37:51.60	188.62	20.14	-36.6	-38.2	16.6	0.00e+00	0	60	0	862978048	45	4180
2026-01-24 12:37:52.61	188.71	20.27	-36.5	-38.1	16.7	0.00e+00	0	60	0	868220928	45	4126
2026-01-24 12:37:53.62	188.81	20.39	-36.4	-38.0	16.8	0.00e+00	0	60	0	874512384	44	4322
2026-01-24 12:37:54.64	188.91	20.52	-36.3	-37.9	16.9	0.00e+00	0	60	0	879755264	44	4291
2026-01-24 12:37:55.65	189.00	20.65	-36.4	-38.0	16.8	0.00e+00	0	60	0	884998144	44	4325
2026-01-24 12:37:56.65	189.10	20.77	-36.4	-38.0	16.8	0.00e+00	0	60	0	891289600	44	4333
2026-01-24 12:37:57.66	189.20	20.90	-36.3	-38.0	16.9	0.00e+00	0	60	0	896532480	44	4292
2026-01-24 12:37:58.67	189.30	21.03	-36.4	-38.0	16.9	0.00e+00	0	60	0	902823936	44	4298
2026-01-24 12:37:59.68	189.40	21.16	-36.4	-38.1	16.8	0.00e+00	0	60	0	908066816	44	4341
2026-01-24 12:38:00.69	189.50	21.29	-36.4	-38.0	16.8	0.00e+00	0	60	0	914358272	44	4333
2026-01-24 12:38:01.70	189.60	21.42	-36.3	-37.9	16.9	0.00e+00	0	60	0	919601152	44	4263
2026-01-24 12:38:02.71	189.70	21.55	-36.2	-37.8	17.1	0.00e+00	0	60	0	924844032	44	4215
2026-01-24 12:38:03.72	189.80	21.68	-36.3	-37.9	17.0	0.00e+00	0	60	0	931135488	44	4254
2026-01-24 12:38:04.73	189.91	21.81	-36.1	-37.7	17.1	0.00e+00	0	60	0	936378368	44	4171
2026-01-24 12:38:05.74	190.01	21.94	-36.2	-37.7	17.1	0.00e+00	0	60	0	942669824	44	4182
2026-01-24 12:38:06.75	190.12	22.08	-36.1	-37.7	17.2	0.00e+00	0	60	0	947912704	44	4171
2026-01-24 12:38:07.76	190.22	22.21	-36.1	-37.6	17.3	0.00e+00	0	60	0	953155584	44	4124
2026-01-24 12:38:08.78	190.33	22.34	-36.2	-37.7	17.1	0.00e+00	0	60	0	959447040	44	4185
2026-01-24 12:38:09.79	190.44	22.48	-36.1	-37.7	17.2	0.00e+00	0	60	0	964689920	44	4170
2026-01-24 12:38:10.80	190.55	22.61	-36.0	-37.5	17.3	0.00e+00	0	60	0	970981376	44	4087
2026-01-24 12:38:11.80	190.66	22.75	-36.0	-37.6	17.3	0.00e+00	0	60	0	976224256	44	4101
2026-01-24 12:38:12.81	190.77	22.89	-36.1	-37.6	17.2	0.00e+00	0	60	0	981467136	44	4129
2026-01-24 12:38:13.82	190.88	23.02	-36.2	-37.7	17.2	0.00e+00	0	60	0	987758592	44	4187
2026-01-24 12:38:14.83	190.99	23.16	-36.2	-37.8	17.1	0.00e+00	0	60	0	993001472	44	4227
2026-01-24 12:38:15.84	191.11	23.30	-36.3	-37.9	17.0	0.00e+00	0	60	0	999292928	44	4280
2026-01-24 12:38:16.85	191.22	23.44	-36.3	-37.8	17.0	0.00e+00	0	60	0	1004535808	44	4242
2026-01-24 12:38:17.86	191.34	23.58	-36.3	-37.9	17.0	0.00e+00	0	60	0	1010827264	44	4249
2026-01-24 12:38:18.87	191.46	23.72	-36.4	-38.0	16.9	0.00e+00	0	60	0	1016070144	44	4308
2026-01-24 12:38:19.88	191.57	23.86	-36.3	-37.9	17.0	0.00e+00	0	60	0	1022361600	44	4254
2026-01-24 12:38:20.89	191.69	24.00	-36.3	-37.9	17.0	0.00e+00	0	60	0	1027604480	44	4252
2026-01-24 12:38:21.90	191.81	24.14	-36.1	-37.7	17.2	0.00e+00	0	60	0	1032847360	44	4174
2026-01-24 12:38:22.91	191.93	24.28	-36.1	-37.7	17.2	0.00e+00	0	60	0	1039138816	44	4168
2026-01-24 12:38:23.92	192.06	24.43	-36.1	-37.7	17.2	0.00e+00	0	60	0	1044381696	44	4146
2026-01-24 12:38:24.93	192.18	24.57	-36.0	-37.5	17.4	0.00e+00	0	60	0	1050673152	44	4084
2026-01-24 12:38:25.94	192.30	24.72	-35.8	-37.3	17.4	0.00e+00	0	60	0	1055916032	43	4212
2026-01-24 12:38:26.95	192.43	24.86	-35.8	-37.3	17.4	0.00e+00	0	60	0	1061158912	43	4228
2026-01-24 12:38:27.96	192.55	25.01	-35.7	-37.2	17.5	0.00e+00	0	60	0	1067450368	43	4183
2026-01-24 12:38:28.97	192.68	25.16	-35.6	-37.1	17.6	0.00e+00	0	60	0	1072693248	43	4129
2026-01-24 12:38:29.98	192.81	25.30	-35.5	-36.9	17.8	0.00e+00	0	60	0	1078984704	43	4041
2026-01-24 12:38:30.99	192.94	25.45	-35.4	-36.9	17.8	0.00e+00	0	60	0	1084227584	42	4269
2026-01-24 12:38:32.00	193.07	25.60	-35.5	-36.9	17.8	0.00e+00	0	60	0	1089470464	42	4287
2026-01-24 12:38:33.01	193.20	25.75	-35.5	-37.0	17.7	0.00e+00	0	60	0	1095761920	42	4311
2026-01-24 12:38:34.02	193.34	25.90	-35.6	-37.1	17.7	0.00e+00	0	60	0	1101004800	42	4348
2026-01-24 12:38:35.03	193.47	26.05	-35.6	-37.1	17.6	0.00e+00	0	60	0	1107296256	42	4375
2026-01-24 12:38:36.04	193.61	26.20	-35.6	-37.1	17.7	0.00e+00	0	60	0	1112539136	42	4352
2026-01-24 12:38:37.04	193.74	26.35	-35.6	-37.1	17.6	0.00e+00	0	60	0	1118830592	42	4381
2026-01-24 12:38:38.05	193.88	26.51	-35.5	-37.0	17.7	0.00e+00	0	60	0	1124073472	42	4330
2026-01-24 12:38:39.06	194.02	26.66	-35.5	-37.0	17.7	0.00e+00	0	60	0	1129316352	42	4307
2026-01-24 12:38:40.07	194.16	26.81	-35.5	-37.0	17.7	0.00e+00	0	60	0	1135607808	42	4321
2026-01-24 12:38:41.08	194.31	26.97	-35.4	-36.9	17.8	0.00e+00	0	60	0	1140850688	42	4265
2026-01-24 12:38:42.09	194.45	27.13	-35.5	-37.0	17.7	0.00e+00	0	60	0	1147142144	42	4302
2026-01-24 12:38:43.10	194.60	27.28	-35.5	-37.0	17.8	0.00e+00	0	60	0	1152385024	42	4292
2026-01-24 12:38:44.11	194.74	27.44	-35.6	-37.1	17.6	0.00e+00	0	60	0	1157627904	42	4381
2026-01-24 12:38:45.13	194.89	27.60	-35.6	-37.1	17.6	0.00e+00	0	60	0	1163919360	42	4368
2026-01-24 12:38:46.14	195.04	27.76	-35.6	-37.1	17.6	0.00e+00	0	60	0	1169162240	42	4379
2026-01-24 12:38:47.15	195.19	27.92	-35.6	-37.1	17.7	0.00e+00	0	60	0	1175453696	42	4349
2026-01-24 12:38:48.16	195.35	28.08	-35.5	-37.0	17.8	0.00e+00	0	60	0	1180696576	42	4292
2026-01-24 12:38:49.17	195.50	28.24	-35.6	-37.1	17.7	0.00e+00	0	60	0	1186988032	42	4342
2026-01-24 12:38:50.18	195.66	28.40	-35.5	-37.0	17.8	0.00e+00	0	60	0	1192230912	42	4292
2026-01-24 12:38:51.19	195.81	28.56	-35.5	-37.0	17.7	0.00e+00	0	60	0	1197473792	42	4323
2026-01-24 12:38:52.20	195.97	28.72	-35.5	-37.0	17.8	0.00e+00	0	60	0	1203765248	42	4309
2026-01-24 12:38:53.20	196.13	28.89	-35.5	-37.0	17.7	0.00e+00	0	61	0	1209008128	42	4324
2026-01-24 12:38:54.21	196.29	29.05	-35.6	-37.1	17.7	0.00e+00	0	60	0	1215299584	42	4341
2026-01-24 12:38:55.22	196.45	29.22	-35.5	-37.0	17.8	0.00e+00	0	60	0	1220542464	42	4304
2026-01-24 12:38:56.23	196.62	29.38	-35.6	-37.0	17.7	0.00e+00	0	60	0	1226833920	42	4337
2026-01-24 12:38:57.24	196.79	29.55	-35.5	-37.0	17.8	0.00e+00	0	60	0	1232076800	42	4313
2026-01-24 12:38:58.25	196.96	29.72	-35.6	-37.1	17.7	0.00e+00	0	60	0	1237319680	42	4348
2026-01-24 12:38:59.26	197.13	29.88	-35.6	-37.1	17.7	0.00e+00	0	60	0	1243611136	42	4373
2026-01-24 12:39:00.27	197.30	30.05	-35.6	-37.1	17.7	0.00e+00	0	60	0	1248854016	42	4367
2026-01-24 12:39:01.28	197.47	30.22	-35.6	-37.0	17.8	0.00e+00	0	61	0	1255145472	42	4335
2026-01-24 12:39:02.29	197.65	30.39	-35.5	-37.0	17.8	0.00e+00	0	60	0	1260388352	42	4311
2026-01-24 12:39:03.30	197.82	30.56	-35.6	-37.0	17.8	0.00e+00	0	61	0	1265631232	42	4339
2026-01-24 12:39:04.31	198.00	30.73	-35.5	-36.9	17.9	0.00e+00	0	61	0	1271922688	42	4287
2026-01-24 12:39:05.32	198.18	30.91	-35.5	-36.9	18.0	0.00e+00	0	60	0	1277165568	42	4267
2026-01-24 12:39:06.33	198.37	31.08	-35.3	-36.7	18.1	0.00e+00	0	61	0	1283457024	42	4173
2026-01-24 12:39:07.34	198.55	31.25	-35.3	-36.7	18.1	0.00e+00	0	60	0	1288699904	42	4189
2026-01-24 12:39:08.35	198.74	31.43	-35.5	-37.0	17.9	0.00e+00	0	60	0	1293942784	42	4311
2026-01-24 12:39:09.36	198.93	31.60	-35.4	-36.8	18.0	0.00e+00	0	60	0	1300234240	42	4232
2026-01-24 12:39:10.37	199.12	31.78	-35.4	-36.8	18.0	0.00e+00	0	60	0	1305477120	42	4231
2026-01-24 12:39:11.38	199.31	31.96	-35.4	-36.8	18.0	0.00e+00	0	60	0	1311768576	42	4231
2026-01-24 12:39:12.39	199.50	32.13	-35.4	-36.8	18.0	0.00e+00	0	60	0	1317011456	42	4233
2026-01-24 12:39:13.40	199.70	32.31	-35.5	-37.0	17.9	0.00e+00	0	60	0	1323302912	42	4304
2026-01-24 12:39:14.41	199.90	32.49	-35.5	-37.0	17.8	0.00e+00	0	60	0	1328545792	42	4321
2026-01-24 12:39:15.42	200.10	32.67	-35.5	-37.0	17.9	0.00e+00	0	60	0	1334837248	42	4296
2026-01-24 12:39:16.43	200.31	32.85	-35.4	-36.9	18.0	0.00e+00	0	60	0	1340080128	42	4245
2026-01-24 12:39:17.44	200.51	33.03	-35.2	-36.6	18.2	0.00e+00	0	60	0	1345323008	42	4132
2026-01-24 12:39:18.45	200.72	33.21	-35.2	-36.6	18.3	0.00e+00	0	60	0	1351614464	42	4108
2026-01-24 12:39:19.46	200.93	33.39	-35.2	-36.6	18.2	0.00e+00	0	61	0	1356857344	42	4122
2026-01-24 12:39:20.47	201.14	33.58	-35.1	-36.5	18.3	0.00e+00	0	60	0	1363148800	42	4084
2026-01-24 12:39:21.48	201.36	33.76	-35.0	-36.4	18.4	0.00e+00	0	61	0	1368391680	42	4014
2026-01-24 12:39:22.49	201.57	33.95	-34.9	-36.3	18.5	0.00e+00	0	61	0	1373634560	41	4199
2026-01-24 12:39:23.50	201.79	34.13	-35.0	-36.4	18.5	0.00e+00	0	61	0	1379926016	41	4250
2026-01-24 12:39:24.51	202.02	34.32	-35.0	-36.5	18.4	0.00e+00	0	61	0	1385168896	41	4293
2026-01-24 12:39:25.52	202.24	34.50	-35.0	-36.4	18.3	0.00e+00	0	60	0	1391460352	41	4288
2026-01-24 12:39:26.53	202.47	34.69	-35.1	-36.6	18.3	0.00e+00	0	61	0	1396703232	41	4359
2026-01-24 12:39:27.54	202.70	34.88	-35.0	-36.4	18.4	0.00e+00	0	61	0	1401946112	41	4283
2026-01-24 12:39:28.55	202.93	35.06	-35.0	-36.4	18.5	0.00e+00	0	61	0	1408237568	41	4246
2026-01-24 12:39:29.56	203.16	35.25	-34.9	-36.2	18.6	0.00e+00	0	61	0	1413480448	41	4190
2026-01-24 12:39:30.57	203.40	35.44	-34.9	-36.3	18.5	0.00e+00	0	60	0	1419771904	41	4197
2026-01-24 12:39:31.58	203.64	35.63	-34.8	-36.1	18.7	0.00e+00	0	61	0	1425014784	41	4141
2026-01-24 12:39:32.59	203.89	35.82	-34.8	-36.1	18.7	0.00e+00	0	61	0	1431306240	41	4134
2026-01-24 12:39:33.60	204.13	36.01	-34.8	-36.1	18.7	0.00e+00	0	61	0	1436549120	41	4145
2026-01-24 12:39:34.61	204.38	36.20	-34.8	-36.2	18.6	0.00e+00	0	61	0	1441792000	41	4167
2026-01-24 12:39:35.62	204.63	36.40	-35.0	-36.4	18.4	0.00e+00	0	60	0	1448083456	41	4256
2026-01-24 12:39:36.63	204.89	36.59	-35.0	-36.4	18.4	0.00e+00	0	61	0	1453326336	41	4246
2026-01-24 12:39:37.64	205.14	36.78	-35.0	-36.4	18.4	0.00e+00	0	61	0	1459617792	41	4286
2026-01-24 12:39:38.65	205.41	36.98	-35.1	-36.5	18.3	0.00e+00	0	60	0	1464860672	41	4296
2026-01-24 12:39:39.66	205.67	37.17	-35.1	-36.6	18.3	0.00e+00	0	61	0	1470103552	41	4350
2026-01-24 12:39:40.66	205.93	37.36	-35.2	-36.6	18.2	0.00e+00	0	61	0	1476395008	41	4380
2026-01-24 12:39:41.68	206.21	37.56	-35.2	-36.6	18.2	0.00e+00	0	61	0	1481637888	41	4368
2026-01-24 12:39:42.68	206.48	37.75	-35.2	-36.6	18.3	0.00e+00	0	61	0	1487929344	41	4346
2026-01-24 12:39:43.70	206.76	37.95	-35.2	-36.6	18.3	0.00e+00	0	61	0	1493172224	41	4361
2026-01-24 12:39:44.71	207.03	38.15	-35.1	-36.5	18.4	0.00e+00	0	61	0	1498415104	41	4296
2026-01-24 12:39:45.71	207.31	38.34	-35.2	-36.6	18.3	0.00e+00	0	61	0	1504706560	41	4355
2026-01-24 12:39:46.73	207.60	38.54	-35.3	-36.7	18.2	0.00e+00	0	61	0	1509949440	41	4406
2026-01-24 12:39:47.74	207.89	38.74	-35.2	-36.6	18.3	0.00e+00	0	61	0	1516240896	41	4374
2026-01-24 12:39:48.75	208.19	38.93	-35.2	-36.6	18.3	0.00e+00	0	61	0	1521483776	41	4355
2026-01-24 12:39:49.76	208.48	39.13	-35.2	-36.6	18.3	0.00e+00	0	61	0	1527775232	41	4380
2026-01-24 12:39:50.77	208.78	39.33	-35.1	-36.6	18.3	0.00e+00	0	61	0	1533018112	41	4341
2026-01-24 12:39:51.78	209.09	39.53	-35.0	-36.3	18.5	0.00e+00	0	61	0	1539309568	41	4235
2026-01-24 12:39:52.79	209.40	39.73	-35.0	-36.4	18.5	0.00e+00	0	61	0	1544552448	41	4249
2026-01-24 12:39:53.80	209.71	39.93	-35.1	-36.5	18.4	0.00e+00	0	61	0	1549795328	41	4296
2026-01-24 12:39:54.81	210.02	40.13	-35.2	-36.6	18.3	0.00e+00	0	61	0	1556086784	41	4361
2026-01-24 12:39:55.82	210.34	40.33	-35.2	-36.6	18.3	0.00e+00	0	61	0	1561329664	41	4358
2026-01-24 12:39:56.83	210.67	40.53	-35.2	-36.6	18.2	0.00e+00	0	61	0	1567621120	41	4383
2026-01-24 12:39:57.83	210.99	40.72	-35.1	-36.6	18.3	0.00e+00	0	61	0	1572864000	41	4343
2026-01-24 12:39:58.84	211.32	40.92	-35.1	-36.5	18.4	0.00e+00	0	61	0	1578106880	41	4309
2026-01-24 12:39:59.85	211.65	41.12	-35.1	-36.4	18.4	0.00e+00	0	61	0	1584398336	41	4280
2026-01-24 12:40:00.86	211.99	41.32	-35.0	-36.4	18.5	0.00e+00	0	61	0	1589641216	41	4271
2026-01-24 12:40:01.87	212.34	41.52	-35.2	-36.6	18.2	0.00e+00	0	61	0	1595932672	41	4376
2026-01-24 12:40:02.88	212.68	41.72	-35.4	-36.8	18.0	0.00e+00	0	61	0	1601175552	41	4485
2026-01-24 12:40:03.89	213.04	41.92	-35.2	-36.6	18.2	0.00e+00	0	61	0	1606418432	41	4382
2026-01-24 12:40:04.90	213.39	42.12	-34.9	-36.3	18.6	0.00e+00	0	61	0	1612709888	41	4210
2026-01-24 12:40:05.91	213.75	42.32	-34.8	-36.2	18.7	0.00e+00	0	61	0	1617952768	41	4160
2026-01-24 12:40:06.92	214.12	42.52	-35.0	-36.4	18.5	0.00e+00	0	61	0	1624244224	41	4273
2026-01-24 12:40:07.93	214.49	42.72	-35.2	-36.7	18.2	0.00e+00	0	61	0	1629487104	41	4404
2026-01-24 12:40:08.94	214.86	42.92	-35.2	-36.5	18.3	0.00e+00	0	61	0	1635778560	41	4338
2026-01-24 12:40:09.94	215.23	43.11	-35.1	-36.4	18.4	0.00e+00	0	61	0	1641021440	41	4288
2026-01-24 12:40:10.95	215.62	43.31	-35.2	-36.5	18.3	0.00e+00	0	61	0	1646264320	41	4337
2026-01-24 12:40:11.96	216.00	43.51	-35.3	-36.7	18.1	0.00e+00	0	61	0	1652555776	41	4432
2026-01-24 12:40:12.97	216.40	43.71	-35.3	-36.7	18.1	0.00e+00	0	61	0	1657798656	41	4427
2026-01-24 12:40:13.98	216.79	43.90	-35.3	-36.7	18.2	0.00e+00	0	61	0	1664090112	41	4404
2026-01-24 12:40:14.99	217.20	44.10	-35.2	-36.6	18.2	0.00e+00	0	61	0	1669332992	41	4389
2026-01-24 12:40:16.00	217.60	44.29	-35.3	-36.8	18.1	0.00e+00	0	61	0	1674575872	41	4446
2026-01-24 12:40:17.01	218.02	44.49	-35.4	-36.8	18.0	0.00e+00	0	61	0	1680867328	41	4492
2026-01-24 12:40:18.02	218.43	44.68	-35.6	-37.1	17.8	0.00e+00	0	61	0	1686110208	41	4626
2026-01-24 12:40:19.03	218.85	44.88	-35.6	-37.1	17.7	0.00e+00	0	61	0	1692401664	41	4639
2026-01-24 12:40:20.04	219.28	45.07	-35.7	-37.2	17.7	0.00e+00	0	61	0	1697644544	41	4665
2026-01-24 12:40:21.05	219.71	45.26	-35.6	-37.1	17.7	0.00e+00	0	61	0	1702887424	41	4639
2026-01-24 12:40:22.06	220.15	45.45	-35.6	-37.1	17.9	0.00e+00	0	61	0	1709178880	41	4602
2026-01-24 12:40:23.07	220.59	45.64	-35.5	-37.0	18.0	0.00e+00	0	61	0	1714421760	41	4547
2026-01-24 12:40:24.08	221.04	45.83	-35.4	-36.8	18.1	0.00e+00	0	61	0	1720713216	41	4464
2026-01-24 12:40:25.09	221.49	46.02	-35.6	-37.1	17.9	0.00e+00	0	61	0	1725956096	41	4603
2026-01-24 12:40:26.10	221.95	46.21	-35.6	-37.0	17.9	0.00e+00	0	61	0	1732247552	41	4598
2026-01-24 12:40:27.11	222.42	46.39	-35.6	-37.0	17.9	0.00e+00	0	61	0	1737490432	41	4579
2026-01-24 12:40:28.12	222.89	46.58	-35.5	-37.0	18.0	0.00e+00	0	61	0	1743781888	41	4562
2026-01-24 12:40:29.13	223.36	46.76	-35.3	-36.7	18.2	0.00e+00	0	61	0	1749024768	41	4419
2026-01-24 12:40:30.14	223.84	46.94	-35.2	-36.5	18.4	0.00e+00	0	61	0	1754267648	41	4326
2026-01-24 12:40:31.15	224.33	47.13	-35.4	-36.8	18.1	0.00e+00	0	61	0	1760559104	41	4455
2026-01-24 12:40:32.16	224.82	47.30	-35.5	-37.0	17.9	0.00e+00	0	61	0	1765801984	41	4568
2026-01-24 12:40:33.16	225.31	47.48	-35.5	-37.0	18.0	0.00e+00	0	61	0	1771044864	41	4555
2026-01-24 12:40:34.17	225.81	47.66	-35.6	-37.1	17.8	0.00e+00	0	61	0	1777336320	41	4606
2026-01-24 12:40:35.18	226.32	47.83	-35.5	-36.9	18.0	0.00e+00	0	61	0	1782579200	41	4505
2026-01-24 12:40:36.19	226.84	48.00	-35.5	-36.9	18.0	0.00e+00	0	61	0	1788870656	41	4513
2026-01-24 12:40:37.20	227.36	48.18	-35.6	-37.0	17.9	0.00e+00	0	61	0	1794113536	41	4572
2026-01-24 12:40:38.21	227.88	48.35	-35.5	-36.9	18.0	0.00e+00	0	61	0	1799356416	41	4509
2026-01-24 12:40:39.22	228.41	48.51	-35.3	-36.7	18.2	0.00e+00	0	61	0	1805647872	41	4434
2026-01-24 12:40:40.23	228.95	48.68	-35.2	-36.5	18.4	0.00e+00	0	61	0	1810890752	41	4326
2026-01-24 12:40:41.24	229.49	48.84	-35.1	-36.5	18.4	0.00e+00	0	61	0	1817182208	41	4306
2026-01-24 12:40:42.25	230.04	49.00	-35.4	-36.8	18.1	0.00e+00	0	61	0	1822425088	41	4489
2026-01-24 12:40:43.26	230.59	49.16	-35.5	-37.0	17.9	0.00e+00	0	61	0	1828716544	41	4581
2026-01-24 12:40:44.27	231.15	49.32	-35.5	-36.9	18.0	0.00e+00	0	61	0	1833959424	41	4536
2026-01-24 12:40:45.29	231.73	49.47	-35.4	-36.8	18.1	0.00e+00	0	61	0	1840250880	41	4479
2026-01-24 12:40:46.30	232.30	49.63	-35.4	-36.8	18.1	0.00e+00	0	61	0	1845493760	41	4455
2026-01-24 12:40:47.31	232.87	49.77	-35.6	-37.0	17.9	0.00e+00	0	61	0	1850736640	41	4596
2026-01-24 12:40:48.32	233.45	49.92	-35.8	-37.3	17.7	0.00e+00	0	61	0	1857028096	42	4451
2026-01-24 12:40:49.32	234.04	50.06	-35.8	-37.3	17.6	0.00e+00	0	61	0	1862270976	42	4481
2026-01-24 12:40:50.33	234.63	50.21	-35.8	-37.3	17.6	0.00e+00	0	61	0	1868562432	42	4478
2026-01-24 12:40:51.34	235.23	50.34	-35.7	-37.2	17.7	0.00e+00	0	61	0	1873805312	42	4407
2026-01-24 12:40:52.35	235.83	50.48	-35.8	-37.2	17.7	0.00e+00	0	61	0	1879048192	42	4434
2026-01-24 12:40:53.36	236.44	50.61	-35.7	-37.1	17.8	0.00e+00	0	61	0	1885339648	42	4375
2026-01-24 12:40:54.37	237.06	50.74	-35.6	-36.9	18.0	0.00e+00	0	61	0	1890582528	42	4288
2026-01-24 12:40:55.38	237.68	50.87	-35.6	-37.0	17.9	0.00e+00	0	61	0	1896873984	42	4329
2026-01-24 12:40:56.39	238.30	50.99	-36.1	-37.6	17.4	0.00e+00	0	61	0	1902116864	42	4617
2026-01-24 12:40:57.40	238.93	51.11	-36.0	-37.5	17.5	0.00e+00	0	61	0	1907359744	42	4567
2026-01-24 12:40:58.41	239.56	51.23	-35.6	-37.0	17.9	0.00e+00	0	61	0	1913651200	42	4318
2026-01-24 12:40:59.42	240.20	51.34	-35.7	-37.1	17.8	0.00e+00	0	61	0	1918894080	42	4378
2026-01-24 12:41:00.43	240.85	51.45	-35.7	-37.2	17.7	0.00e+00	0	61	0	1925185536	42	4394
2026-01-24 12:41:01.44	241.50	51.56	-35.5	-36.9	18.0	0.00e+00	0	61	0	1930428416	42	4277
2026-01-24 12:41:02.45	242.15	51.66	-35.5	-37.0	17.9	0.00e+00	0	61	0	1936719872	42	4300
2026-01-24 12:41:03.46	242.81	51.76	-35.7	-37.1	17.8	0.00e+00	0	61	0	1941962752	42	4384
2026-01-24 12:41:04.47	243.47	51.86	-35.6	-37.0	17.9	0.00e+00	0	61	0	1948254208	42	4319
2026-01-24 12:41:05.48	244.14	51.95	-35.5	-37.0	18.0	0.00e+00	0	61	0	1953497088	42	4299
2026-01-24 12:41:06.49	244.81	52.04	-35.7	-37.1	17.8	0.00e+00	0	61	0	1958739968	42	4377
2026-01-24 12:41:07.50	245.48	52.13	-35.9	-37.4	17.6	0.00e+00	0	61	0	1965031424	42	4508
2026-01-24 12:41:08.51	246.16	52.21	-35.8	-37.3	17.7	0.00e+00	0	61	0	1970274304	42	4447
2026-01-24 12:41:09.51	246.84	52.28	-35.8	-37.2	17.7	0.00e+00	0	61	0	1975517184	42	4432
2026-01-24 12:41:10.52	247.52	52.35	-35.8	-37.3	17.6	0.00e+00	0	61	0	1981808640	42	4467
2026-01-24 12:41:11.53	248.21	52.42	-35.8	-37.3	17.6	0.00e+00	0	61	0	1987051520	42	4472
2026-01-24 12:41:12.55	248.91	52.49	-35.9	-37.4	17.5	0.00e+00	0	61	0	1993342976	42	4536
2026-01-24 12:41:13.56	249.60	52.55	-36.0	-37.5	17.4	0.00e+00	0	61	0	1998585856	42	4580
2026-01-24 12:41:14.56	250.29	52.60	-36.0	-37.5	17.4	0.00e+00	0	61	0	2003828736	42	4561
2026-01-24 12:41:15.57	250.99	52.66	-35.8	-37.3	17.6	0.00e+00	0	61	0	2010120192	42	4476
2026-01-24 12:41:16.58	251.69	52.70	-35.9	-37.3	17.6	0.00e+00	0	61	0	2015363072	42	4491
2026-01-24 12:41:17.59	252.40	52.75	-36.0	-37.5	17.4	0.00e+00	0	61	0	2021654528	42	4556
2026-01-24 12:41:18.60	253.10	52.78	-35.9	-37.3	17.6	0.00e+00	0	61	0	2026897408	42	4482
2026-01-24 12:41:19.61	253.81	52.82	-35.8	-37.2	17.7	0.00e+00	0	61	0	2033188864	42	4433
2026-01-24 12:41:20.62	254.52	52.85	-36.2	-37.7	17.2	0.00e+00	0	61	0	2038431744	42	4691
2026-01-24 12:41:21.63	255.23	52.88	-36.0	-37.6	17.3	0.00e+00	0	61	0	2044723200	42	4626
2026-01-24 12:41:22.64	255.94	52.90	-36.0	-37.5	17.4	0.00e+00	0	61	0	2049966080	42	4588
2026-01-24 12:41:23.64	256.65	52.91	-36.1	-37.6	17.2	0.00e+00	0	61	0	2055208960	42	4651
2026-01-24 12:41:24.65	257.36	52.93	-36.2	-37.8	17.1	0.00e+00	0	61	0	2061500416	43	4464
2026-01-24 12:41:25.66	258.07	52.93	-36.1	-37.7	17.2	0.00e+00	0	61	0	2066743296	43	4413
2026-01-24 12:41:26.68	258.80	52.94	-36.0	-37.5	17.4	0.00e+00	0	61	0	2073034752	43	4331
2026-01-24 12:41:27.69	259.51	52.94	-36.0	-37.5	17.3	0.00e+00	0	61	0	2078277632	43	4337
2026-01-24 12:41:28.70	260.22	52.93	-36.3	-37.9	17.0	0.00e+00	0	61	0	2083520512	43	4512
2026-01-24 12:41:29.71	260.94	52.92	-36.2	-37.8	17.1	0.00e+00	0	61	0	2089811968	43	4449
2026-01-24 12:41:30.72	261.65	52.91	-36.0	-37.5	17.4	0.00e+00	0	61	0	2095054848	43	4314
2026-01-24 12:41:31.73	262.36	52.89	-35.9	-37.4	17.5	0.00e+00	0	61	0	2101346304	43	4271
2026-01-24 12:41:32.74	263.07	52.86	-35.9	-37.4	17.5	0.00e+00	0	61	0	2106589184	43	4267
2026-01-24 12:41:33.74	263.77	52.84	-36.0	-37.5	17.4	0.00e+00	0	61	0	2111832064	43	4316
2026-01-24 12:41:34.76	264.49	52.80	-35.8	-37.3	17.5	0.00e+00	0	61	0	2118123520	43	4240
2026-01-24 12:41:35.76	265.19	52.77	-35.7	-37.2	17.7	0.00e+00	0	61	0	2123366400	43	4153
2026-01-24 12:41:36.78	265.90	52.73	-35.8	-37.3	17.7	0.00e+00	0	61	0	2129657856	43	4197
2026-01-24 12:41:37.79	266.60	52.68	-35.8	-37.3	17.6	0.00e+00	0	61	0	2134900736	43	4211
2026-01-24 12:41:38.80	267.30	52.63	-35.9	-37.5	17.5	0.00e+00	0	61	0	2141192192	43	4299
2026-01-24 12:41:39.80	268.00	52.58	-35.9	-37.4	17.5	0.00e+00	0	61	0	2146435072	43	4281
2026-01-24 12:41:40.81	268.69	52.52	-35.9	-37.4	17.5	0.00e+00	0	61	0	2151677952	43	4261
2026-01-24 12:41:41.82	269.38	52.46	-36.1	-37.7	17.2	0.00e+00	0	61	0	2157969408	43	4405
2026-01-24 12:41:42.83	270.07	52.39	-36.3	-37.9	17.0	0.00e+00	0	61	0	2163212288	43	4513
2026-01-24 12:41:43.84	270.76	52.32	-35.8	-37.2	17.6	0.00e+00	0	61	0	2169503744	43	4191
2026-01-24 12:41:44.85	271.44	52.25	-35.4	-36.8	18.0	0.00e+00	0	61	0	2174746624	42	4215
2026-01-24 12:41:45.86	272.12	52.17	-35.3	-36.7	18.1	0.00e+00	0	61	0	2179989504	42	4192
2026-01-24 12:41:46.87	272.80	52.09	-35.6	-37.0	17.8	0.00e+00	0	61	0	2186280960	42	4330
2026-01-24 12:41:47.88	273.47	52.00	-35.7	-37.2	17.6	0.00e+00	0	61	0	2191523840	42	4427
2026-01-24 12:41:48.89	274.14	51.91	-35.9	-37.4	17.4	0.00e+00	0	61	0	2197815296	42	4544
2026-01-24 12:41:49.90	274.80	51.82	-35.8	-37.4	17.5	0.00e+00	0	61	0	2203058176	42	4496
2026-01-24 12:41:50.91	275.46	51.72	-35.8	-37.3	17.6	0.00e+00	0	61	0	2208301056	42	4456
2026-01-24 12:41:51.92	276.11	51.62	-35.8	-37.3	17.6	0.00e+00	0	61	0	2214592512	42	4443
2026-01-24 12:41:52.92	276.76	51.51	-35.9	-37.4	17.5	0.00e+00	0	61	0	2219835392	42	4501
2026-01-24 12:41:53.93	277.40	51.41	-35.8	-37.3	17.6	0.00e+00	0	61	0	2226126848	42	4475
2026-01-24 12:41:54.95	278.05	51.29	-35.6	-37.1	17.8	0.00e+00	0	61	0	2231369728	42	4343
2026-01-24 12:41:55.96	278.69	51.18	-35.4	-36.8	18.1	0.00e+00	0	61	0	2237661184	42	4219
2026-01-24 12:41:56.97	279.32	51.06	-35.4	-36.9	18.0	0.00e+00	0	61	0	2242904064	42	4252
2026-01-24 12:41:57.97	279.94	50.94	-35.4	-36.8	18.0	0.00e+00	0	61	0	2249195520	42	4234
2026-01-24 12:41:58.99	280.57	50.81	-35.5	-36.9	17.9	0.00e+00	0	61	0	2254438400	42	4291
2026-01-24 12:42:00.00	281.18	50.69	-35.6	-37.0	17.8	0.00e+00	0	61	0	2259681280	42	4328
2026-01-24 12:42:01.01	281.80	50.55	-35.5	-37.0	17.9	0.00e+00	0	61	0	2265972736	42	4311
2026-01-24 12:42:02.02	282.40	50.42	-35.6	-37.0	17.8	0.00e+00	0	61	0	2271215616	42	4331
2026-01-24 12:42:03.03	283.00	50.28	-35.6	-37.0	17.8	0.00e+00	0	61	0	2277507072	42	4335
2026-01-24 12:42:04.03	283.59	50.15	-35.5	-36.9	17.9	0.00e+00	0	61	0	2282749952	42	4268
2026-01-24 12:42:05.04	284.18	50.00	-35.6	-37.0	17.8	0.00e+00	0	61	0	2287992832	42	4336
2026-01-24 12:42:06.05	284.76	49.86	-35.7	-37.2	17.7	0.00e+00	0	61	0	2294284288	42	4400
2026-01-24 12:42:07.06	285.34	49.71	-35.6	-37.1	17.8	0.00e+00	0	61	0	2299527168	42	4365
2026-01-24 12:42:08.07	285.91	49.56	-35.6	-37.1	17.8	0.00e+00	0	61	0	2305818624	42	4358
2026-01-24 12:42:09.08	286.48	49.41	-35.7	-37.1	17.8	0.00e+00	0	61	0	2311061504	42	4373
2026-01-24 12:42:10.09	287.04	49.25	-35.6	-37.0	17.8	0.00e+00	0	61	0	2316304384	42	4337
2026-01-24 12:42:11.10	287.60	49.10	-35.4	-36.7	18.1	0.00e+00	0	61	0	2322595840	42	4191
2026-01-24 12:42:12.11	288.15	48.94	-35.4	-36.8	18.1	0.00e+00	0	61	0	2327838720	42	4204
2026-01-24 12:42:13.12	288.69	48.78	-35.5	-36.8	18.3	0.00e+00	0	61	0	2334130176	42	4232
2026-01-24 12:42:14.13	289.23	48.61	-35.4	-36.8	18.4	0.00e+00	0	61	0	2339373056	42	4199
2026-01-24 12:42:15.14	289.77	48.45	-35.4	-36.7	18.4	0.00e+00	0	61	0	2345664512	42	4183
2026-01-24 12:42:16.15	290.29	48.28	-35.3	-36.6	18.5	0.00e+00	0	61	0	2350907392	42	4110
2026-01-24 12:42:17.16	290.81	48.11	-35.3	-36.6	18.6	0.00e+00	0	61	0	2356150272	42	4102
2026-01-24 12:42:18.17	291.33	47.94	-35.4	-36.7	18.4	0.00e+00	0	61	0	2362441728	42	4171
2026-01-24 12:42:19.18	291.84	47.76	-35.6	-36.9	18.2	0.00e+00	0	61	0	2367684608	42	4276
2026-01-24 12:42:20.19	292.35	47.59	-35.5	-36.9	18.3	0.00e+00	0	61	0	2373976064	42	4244
2026-01-24 12:42:21.20	292.85	47.41	-35.4	-36.7	18.4	0.00e+00	0	61	0	2379218944	42	4176
2026-01-24 12:42:22.21	293.34	47.24	-35.5	-36.8	18.3	0.00e+00	0	61	0	2384461824	42	4201
2026-01-24 12:42:23.22	293.83	47.06	-35.4	-36.6	18.5	0.00e+00	0	61	0	2390753280	42	4145
2026-01-24 12:42:24.23	294.31	46.88	-35.4	-36.7	18.4	0.00e+00	0	61	0	2395996160	42	4169
2026-01-24 12:42:25.24	294.79	46.69	-35.5	-36.8	18.3	0.00e+00	0	61	0	2402287616	42	4221
2026-01-24 12:42:26.25	295.26	46.51	-35.5	-36.8	18.4	0.00e+00	0	61	0	2407530496	42	4208
2026-01-24 12:42:27.26	295.72	46.33	-35.6	-37.0	18.2	0.00e+00	0	61	0	2412773376	42	4302
2026-01-24 12:42:28.27	296.18	46.14	-35.6	-36.9	18.2	0.00e+00	0	61	0	2419064832	42	4275
2026-01-24 12:42:29.28	296.64	45.95	-35.5	-36.8	18.3	0.00e+00	0	61	0	2424307712	42	4231
2026-01-24 12:42:30.29	297.09	45.76	-35.5	-36.8	18.3	0.00e+00	0	61	0	2430599168	42	4221
2026-01-24 12:42:31.30	297.53	45.58	-35.6	-36.9	18.2	0.00e+00	0	61	0	2435842048	42	4277
2026-01-24 12:42:32.31	297.97	45.39	-35.7	-37.0	18.1	0.00e+00	0	61	0	2442133504	42	4321
2026-01-24 12:42:33.32	298.41	45.20	-35.7	-37.0	18.1	0.00e+00	0	61	0	2447376384	42	4339
2026-01-24 12:42:34.33	298.84	45.00	-35.6	-36.9	18.2	0.00e+00	0	61	0	2453667840	42	4291
2026-01-24 12:42:35.34	299.26	44.81	-35.5	-36.8	18.3	0.00e+00	0	61	0	2458910720	42	4242
2026-01-24 12:42:36.35	299.68	44.62	-35.4	-36.7	18.4	0.00e+00	0	61	0	2464153600	42	4182
2026-01-24 12:42:37.36	300.09	44.42	-35.4	-36.7	18.4	0.00e+00	0	61	0	2470445056	42	4171
2026-01-24 12:42:38.37	300.50	44.23	-35.4	-36.7	18.4	0.00e+00	0	61	0	2475687936	42	4166
2026-01-24 12:42:39.38	300.90	44.03	-35.3	-36.6	18.5	0.00e+00	0	61	0	2481979392	42	4108
2026-01-24 12:42:40.39	301.30	43.84	-35.3	-36.6	18.5	0.00e+00	0	61	0	2487222272	42	4138
2026-01-24 12:42:41.40	301.70	43.64	-35.4	-36.7	18.4	0.00e+00	0	61	0	2492465152	42	4176
2026-01-24 12:42:42.41	302.09	43.45	-35.5	-36.8	18.3	0.00e+00	0	61	0	2498756608	42	4215
2026-01-24 12:42:43.42	302.47	43.25	-35.6	-36.9	18.2	0.00e+00	0	61	0	2503999488	42	4281
2026-01-24 12:42:44.43	302.85	43.05	-35.4	-36.7	18.4	0.00e+00	0	61	0	2510290944	42	4182
2026-01-24 12:42:45.44	303.23	42.86	-35.4	-36.7	18.4	0.00e+00	0	61	0	2515533824	42	4155
2026-01-24 12:42:46.44	303.59	42.66	-35.4	-36.7	18.4	0.00e+00	0	61	0	2520776704	42	4180
2026-01-24 12:42:47.45	303.96	42.46	-35.4	-36.7	18.4	0.00e+00	0	61	0	2527068160	42	4180
2026-01-24 12:42:48.46	304.32	42.26	-35.3	-36.6	18.5	0.00e+00	0	61	0	2532311040	42	4136
2026-01-24 12:42:49.47	304.68	42.06	-35.3	-36.6	18.5	0.00e+00	0	61	0	2538602496	42	4105
2026-01-24 12:42:50.48	305.03	41.87	-35.3	-36.7	18.5	0.00e+00	0	61	0	2543845376	42	4154
2026-01-24 12:42:51.49	305.38	41.67	-35.4	-36.7	18.4	0.00e+00	0	61	0	2550136832	42	4187
2026-01-24 12:42:52.50	305.73	41.47	-35.2	-36.5	18.6	0.00e+00	0	61	0	2555379712	42	4071
2026-01-24 12:42:53.51	306.07	41.27	-35.1	-36.4	18.7	0.00e+00	0	61	0	2560622592	42	4021
2026-01-24 12:42:54.52	306.40	41.07	-35.2	-36.4	18.6	0.00e+00	0	61	0	2566914048	42	4050
2026-01-24 12:42:55.53	306.74	40.87	-35.1	-36.4	18.7	0.00e+00	0	61	0	2572156928	42	4031
2026-01-24 12:42:56.54	307.06	40.67	-35.1	-36.4	18.7	0.00e+00	0	61	0	2578448384	42	4030
2026-01-24 12:42:57.55	307.39	40.48	-35.2	-36.4	18.6	0.00e+00	0	61	0	2583691264	42	4040
2026-01-24 12:42:58.56	307.71	40.28	-35.0	-36.3	18.8	0.00e+00	0	61	0	2588934144	42	3975
2026-01-24 12:42:59.57	308.03	40.08	-34.9	-36.1	18.9	0.00e+00	0	61	0	2595225600	41	4119
2026-01-24 12:43:00.58	308.34	39.88	-34.9	-36.2	18.9	0.00e+00	0	61	0	2600468480	41	4161
2026-01-24 12:43:01.59	308.65	39.68	-35.0	-36.2	18.8	0.00e+00	0	61	0	2606759936	41	4177
2026-01-24 12:43:02.60	308.95	39.49	-35.0	-36.2	18.8	0.00e+00	0	61	0	2612002816	41	4188
2026-01-24 12:43:03.62	309.26	39.29	-35.0	-36.3	18.8	0.00e+00	0	61	0	2618294272	41	4215
2026-01-24 12:43:04.63	309.56	39.09	-35.1	-36.3	18.7	0.00e+00	0	61	0	2623537152	41	4232
2026-01-24 12:43:05.64	309.85	38.89	-35.0	-36.3	18.8	0.00e+00	0	61	0	2628780032	41	4221
2026-01-24 12:43:06.65	310.14	38.70	-35.1	-36.3	18.7	0.00e+00	0	61	0	2635071488	41	4241
2026-01-24 12:43:07.66	310.43	38.50	-35.0	-36.2	18.8	0.00e+00	0	61	0	2640314368	41	4187
2026-01-24 12:43:08.67	310.72	38.30	-35.1	-36.3	18.7	0.00e+00	0	61	0	2646605824	41	4236
2026-01-24 12:43:09.68	311.00	38.11	-35.0	-36.3	18.7	0.00e+00	0	61	0	2651848704	41	4210
2026-01-24 12:43:10.69	311.27	37.91	-35.0	-36.3	18.7	0.00e+00	0	61	0	2658140160	41	4222
2026-01-24 12:43:11.70	311.55	37.72	-35.0	-36.2	18.8	0.00e+00	0	61	0	2663383040	41	4170
2026-01-24 12:43:12.71	311.82	37.53	-34.8	-36.1	19.0	0.00e+00	0	61	0	2668625920	41	4103
2026-01-24 12:43:13.72	312.09	37.33	-34.9	-36.1	18.9	0.00e+00	0	61	0	2674917376	41	4124
2026-01-24 12:43:14.73	312.35	37.14	-35.0	-36.2	18.8	0.00e+00	0	61	0	2680160256	41	4188
2026-01-24 12:43:15.74	312.61	36.95	-35.0	-36.3	18.8	0.00e+00	0	61	0	2686451712	41	4210
2026-01-24 12:43:16.75	312.87	36.75	-35.1	-36.3	18.7	0.00e+00	0	61	0	2691694592	41	4238
2026-01-24 12:43:17.76	313.13	36.56	-35.2	-36.4	18.6	0.00e+00	0	61	0	2696937472	41	4284
2026-01-24 12:43:18.77	313.38	36.37	-35.0	-36.3	18.8	0.00e+00	0	61	0	2703228928	41	4202
2026-01-24 12:43:19.78	313.63	36.18	-35.0	-36.2	18.8	0.00e+00	0	61	0	2708471808	41	4185
2026-01-24 12:43:20.79	313.88	35.99	-34.9	-36.2	18.8	0.00e+00	0	61	0	2714763264	41	4160
2026-01-24 12:43:21.80	314.12	35.80	-34.8	-36.0	19.0	0.00e+00	0	61	0	2720006144	41	4075
2026-01-24 12:43:22.81	314.37	35.61	-34.8	-36.1	19.0	0.00e+00	0	61	0	2725249024	41	4107
2026-01-24 12:43:23.82	314.60	35.42	-34.9	-36.1	18.9	0.00e+00	0	61	0	2731540480	41	4131
2026-01-24 12:43:24.82	314.84	35.24	-35.0	-36.2	18.8	0.00e+00	0	61	0	2736783360	41	4192
2026-01-24 12:43:25.83	315.07	35.05	-35.1	-36.3	18.7	0.00e+00	0	61	0	2743074816	41	4233
2026-01-24 12:43:26.84	315.30	34.86	-35.1	-36.3	18.7	0.00e+00	0	61	0	2748317696	41	4236
2026-01-24 12:43:27.85	315.53	34.68	-35.0	-36.3	18.7	0.00e+00	0	61	0	2754609152	41	4196
2026-01-24 12:43:28.86	315.76	34.49	-35.1	-36.4	18.7	0.00e+00	0	61	0	2759852032	41	4245
2026-01-24 12:43:29.87	315.98	34.31	-35.0	-36.3	18.7	0.00e+00	0	61	0	2766143488	41	4216
2026-01-24 12:43:30.88	316.20	34.12	-35.1	-36.3	18.7	0.00e+00	0	61	0	2771386368	41	4237
2026-01-24 12:43:31.89	316.42	33.94	-35.1	-36.3	18.7	0.00e+00	0	61	0	2776629248	41	4233
2026-01-24 12:43:32.90	316.63	33.76	-35.2	-36.5	18.6	0.00e+00	0	61	0	2782920704	41	4298
2026-01-24 12:43:33.91	316.85	33.57	-35.2	-36.4	18.6	0.00e+00	0	61	0	2788163584	41	4288
2026-01-24 12:43:34.93	317.06	33.39	-35.1	-36.4	18.6	0.00e+00	0	61	0	2794455040	41	4268
2026-01-24 12:43:35.94	317.27	33.21	-35.2	-36.5	18.6	0.00e+00	0	61	0	2799697920	41	4299
2026-01-24 12:43:36.95	317.48	33.03	-35.1	-36.4	18.7	0.00e+00	0	61	0	2804940800	41	4248
2026-01-24 12:43:37.96	317.68	32.85	-35.1	-36.4	18.6	0.00e+00	0	61	0	2811232256	41	4274
2026-01-24 12:43:38.97	317.88	32.67	-35.2	-36.5	18.5	0.00e+00	0	61	0	2816475136	41	4293
2026-01-24 12:43:39.98	318.08	32.49	-35.0	-36.3	18.7	0.00e+00	0	61	0	2822766592	41	4215
2026-01-24 12:43:40.98	318.28	32.32	-35.0	-36.3	18.7	0.00e+00	0	62	0	2828009472	41	4210
2026-01-24 12:43:41.99	318.48	32.14	-35.1	-36.4	18.6	0.00e+00	0	61	0	2833252352	41	4255
2026-01-24 12:43:43.00	318.67	31.96	-35.2	-36.4	18.6	0.00e+00	0	61	0	2839543808	41	4290
2026-01-24 12:43:44.01	318.86	31.79	-35.2	-36.5	18.6	0.00e+00	0	61	0	2844786688	41	4292
2026-01-24 12:43:45.02	319.05	31.61	-35.3	-36.6	18.4	0.00e+00	0	61	0	2851078144	41	4361
2026-01-24 12:43:46.03	319.24	31.44	-35.4	-36.7	18.3	0.00e+00	0	61	0	2856321024	41	4435
2026-01-24 12:43:47.04	319.43	31.27	-35.4	-36.8	18.2	0.00e+00	0	61	0	2862612480	41	4453
2026-01-24 12:43:48.05	319.61	31.09	-35.5	-36.9	18.2	0.00e+00	0	61	0	2867855360	41	4497
2026-01-24 12:43:49.06	319.79	30.92	-35.6	-37.0	18.0	0.00e+00	0	62	0	2873098240	41	4553
2026-01-24 12:43:50.07	319.97	30.75	-35.7	-37.0	18.0	0.00e+00	0	61	0	2879389696	41	4594
2026-01-24 12:43:51.08	320.15	30.58	-35.6	-37.0	18.0	0.00e+00	0	61	0	2884632576	41	4562
2026-01-24 12:43:52.09	320.33	30.41	-35.6	-36.9	18.1	0.00e+00	0	61	0	2890924032	41	4537
2026-01-24 12:43:53.10	320.50	30.24	-35.5	-36.9	18.1	0.00e+00	0	61	0	2896166912	41	4514
2026-01-24 12:43:54.11	320.67	30.07	-35.5	-36.8	18.1	0.00e+00	0	61	0	2901409792	41	4487
2026-01-24 12:43:55.12	320.84	29.91	-35.4	-36.7	18.2	0.00e+00	0	61	0	2907701248	41	4436
2026-01-24 12:43:56.13	321.01	29.74	-35.4	-36.8	18.2	0.00e+00	0	61	0	2912944128	41	4447
2026-01-24 12:43:57.14	321.18	29.57	-35.5	-36.8	18.2	0.00e+00	0	61	0	2919235584	41	4466
2026-01-24 12:43:58.15	321.35	29.41	-35.4	-36.8	18.2	0.00e+00	0	61	0	2924478464	41	4451
2026-01-24 12:43:59.16	321.51	29.24	-35.3	-36.6	18.3	0.00e+00	0	61	0	2929721344	41	4386
2026-01-24 12:44:00.17	321.68	29.08	-35.3	-36.6	18.4	0.00e+00	0	61	0	2936012800	41	4374
2026-01-24 12:44:01.18	321.84	28.92	-35.2	-36.5	18.4	0.00e+00	0	62	0	2941255680	41	4324
2026-01-24 12:44:02.19	322.00	28.75	-35.2	-36.5	18.5	0.00e+00	0	61	0	2947547136	41	4317
2026-01-24 12:44:03.20	322.15	28.59	-35.3	-36.6	18.3	0.00e+00	0	61	0	2952790016	41	4385
2026-01-24 12:44:04.21	322.31	28.43	-35.3	-36.6	18.3	0.00e+00	0	61	0	2959081472	41	4385
2026-01-24 12:44:05.21	322.46	28.27	-35.3	-36.6	18.3	0.00e+00	0	61	0	2964324352	41	4388
2026-01-24 12:44:06.22	322.62	28.11	-35.4	-36.8	18.1	0.00e+00	0	61	0	2970615808	41	4464
2026-01-24 12:44:07.23	322.77	27.95	-35.5	-36.9	18.1	0.00e+00	0	62	0	2975858688	41	4501
2026-01-24 12:44:08.24	322.92	27.79	-35.4	-36.8	18.2	0.00e+00	0	62	0	2981101568	41	4462
2026-01-24 12:44:09.25	323.07	27.64	-35.4	-36.8	18.2	0.00e+00	0	61	0	2987393024	41	4461
2026-01-24 12:44:10.26	323.22	27.48	-35.5	-36.8	18.1	0.00e+00	0	61	0	2992635904	41	4490
2026-01-24 12:44:11.27	323.36	27.32	-35.5	-36.9	18.1	0.00e+00	0	61	0	2998927360	41	4496
2026-01-24 12:44:12.28	323.51	27.17	-35.4	-36.8	18.2	0.00e+00	0	61	0	3004170240	41	4452
2026-01-24 12:44:13.29	323.65	27.01	-35.4	-36.7	18.2	0.00e+00	0	61	0	3009413120	41	4411
2026-01-24 12:44:14.29	323.79	26.86	-35.2	-36.5	18.4	0.00e+00	0	61	0	3015704576	41	4318
2026-01-24 12:44:15.30	323.93	26.71	-35.2	-36.5	18.4	0.00e+00	0	61	0	3020947456	41	4328
2026-01-24 12:44:16.31	324.07	26.56	-35.3	-36.6	18.3	0.00e+00	0	61	0	3026190336	41	4372
2026-01-24 12:44:17.32	324.21	26.40	-35.3	-36.6	18.3	0.00e+00	0	61	0	3032481792	41	4363
2026-01-24 12:44:18.33	324.35	26.25	-35.3	-36.6	18.3	0.00e+00	0	61	0	3037724672	41	4356
2026-01-24 12:44:19.35	324.49	26.10	-35.3	-36.6	18.3	0.00e+00	0	61	0	3044016128	41	4362
2026-01-24 12:44:20.35	324.62	25.95	-35.3	-36.6	18.3	0.00e+00	0	61	0	3049259008	41	4391
2026-01-24 12:44:21.36	324.75	25.80	-35.3	-36.7	18.2	0.00e+00	0	61	0	3055550464	41	4393
2026-01-24 12:44:22.38	324.89	25.65	-35.4	-36.8	18.1	0.00e+00	0	61	0	3060793344	41	4460
2026-01-24 12:44:23.38	325.01	25.51	-35.5	-36.8	18.1	0.00e+00	0	62	0	3067084800	41	4477
2026-01-24 12:44:24.39	325.14	25.36	-35.4	-36.8	18.1	0.00e+00	0	61	0	3072327680	41	4444
2026-01-24 12:44:25.40	325.27	25.21	-35.4	-36.7	18.2	0.00e+00	0	61	0	3077570560	41	4424
2026-01-24 12:44:26.41	325.40	25.07	-35.4	-36.7	18.1	0.00e+00	0	62	0	3083862016	41	4430
2026-01-24 12:44:27.42	325.53	24.92	-35.4	-36.8	18.1	0.00e+00	0	61	0	3089104896	41	4445
2026-01-24 12:44:28.43	325.65	24.78	-35.4	-36.7	18.1	0.00e+00	0	61	0	3095396352	41	4430
2026-01-24 12:44:29.44	325.78	24.63	-35.5	-36.8	18.0	0.00e+00	0	61	0	3100639232	41	4487
2026-01-24 12:44:30.45	325.90	24.49	-35.5	-36.9	18.0	0.00e+00	0	61	0	3105882112	41	4495
2026-01-24 12:44:31.46	326.02	24.35	-35.6	-37.0	17.9	0.00e+00	0	61	0	3112173568	41	4566
2026-01-24 12:44:32.47	326.14	24.21	-35.7	-37.1	17.8	0.00e+00	0	62	0	3117416448	41	4613
2026-01-24 12:44:33.47	326.26	24.07	-35.8	-37.1	17.8	0.00e+00	0	62	0	3123707904	42	4382
2026-01-24 12:44:34.48	326.38	23.93	-35.9	-37.3	17.6	0.00e+00	0	61	0	3128950784	42	4444
2026-01-24 12:44:35.49	326.50	23.79	-35.9	-37.4	17.5	0.00e+00	0	61	0	3134193664	42	4496
2026-01-24 12:44:36.50	326.61	23.65	-36.0	-37.5	17.4	0.00e+00	0	61	0	3140485120	42	4546
2026-01-24 12:44:37.51	326.73	23.51	-36.0	-37.5	17.4	0.00e+00	0	61	0	3145728000	42	4560
2026-01-24 12:44:38.52	326.84	23.37	-36.1	-37.5	17.4	0.00e+00	0	61	0	3152019456	42	4585
2026-01-24 12:44:39.53	326.96	23.23	-36.1	-37.5	17.4	0.00e+00	0	61	0	3157262336	42	4570
2026-01-24 12:44:40.54	327.07	23.10	-36.1	-37.5	17.3	0.00e+00	0	61	0	3163553792	42	4582
2026-01-24 12:44:41.55	327.18	22.96	-36.1	-37.5	17.3	0.00e+00	0	61	0	3168796672	42	4587
2026-01-24 12:44:42.56	327.29	22.82	-36.1	-37.5	17.3	0.00e+00	0	61	0	3174039552	42	4579
2026-01-24 12:44:43.57	327.40	22.69	-36.1	-37.5	17.3	0.00e+00	0	61	0	3180331008	42	4598
2026-01-24 12:44:44.58	327.51	22.56	-36.1	-37.5	17.4	0.00e+00	0	62	0	3185573888	42	4565
2026-01-24 12:44:45.59	327.62	22.42	-36.1	-37.5	17.3	0.00e+00	0	61	0	3191865344	42	4584
2026-01-24 12:44:46.60	327.73	22.29	-36.1	-37.5	17.3	0.00e+00	0	61	0	3197108224	42	4574
2026-01-24 12:44:47.61	327.84	22.16	-36.1	-37.5	17.3	0.00e+00	0	61	0	3203399680	42	4592
2026-01-24 12:44:48.62	327.94	22.02	-36.0	-37.5	17.4	0.00e+00	0	61	0	3208642560	42	4546
2026-01-24 12:44:49.62	328.04	21.89	-36.0	-37.4	17.4	0.00e+00	0	61	0	3213885440	42	4541
2026-01-24 12:44:50.63	328.15	21.76	-36.0	-37.5	17.3	0.00e+00	0	61	0	3220176896	42	4555
2026-01-24 12:44:51.64	328.25	21.63	-36.1	-37.5	17.3	0.00e+00	0	61	0	3225419776	42	4596
2026-01-24 12:44:52.65	328.35	21.50	-36.1	-37.6	17.2	0.00e+00	0	62	0	3230662656	42	4599
2026-01-24 12:44:53.66	328.46	21.37	-36.2	-37.6	17.1	0.00e+00	0	61	0	3236954112	42	4644
2026-01-24 12:44:54.67	328.56	21.25	-36.3	-37.8	17.0	0.00e+00	0	61	0	3242196992	43	4452
2026-01-24 12:44:55.68	328.66	21.12	-36.2	-37.7	17.1	0.00e+00	0	61	0	3248488448	43	4419
2026-01-24 12:44:56.69	328.76	20.99	-36.3	-37.8	17.0	0.00e+00	0	61	0	3253731328	43	4443
2026-01-24 12:44:57.71	328.85	20.86	-36.4	-37.9	16.9	0.00e+00	0	61	0	3260022784	43	4494
2026-01-24 12:44:58.72	328.95	20.74	-36.3	-37.8	16.9	0.00e+00	0	61	0	3265265664	43	4486
2026-01-24 12:44:59.73	329.05	20.61	-36.3	-37.8	16.9	0.00e+00	0	61	0	3270508544	43	4491
2026-01-24 12:45:00.74	329.14	20.49	-36.3	-37.8	16.9	0.00e+00	0	61	0	3276800000	43	4481
2026-01-24 12:45:01.75	329.24	20.36	-36.4	-37.9	16.8	0.00e+00	0	62	0	3282042880	43	4514
2026-01-24 12:45:02.76	329.33	20.24	-36.4	-37.9	16.8	0.00e+00	0	61	0	3288334336	43	4521
2026-01-24 12:45:03.77	329.43	20.11	-36.4	-37.9	16.8	0.00e+00	0	61	0	3293577216	43	4518
2026-01-24 12:45:04.78	329.52	19.99	-36.5	-38.0	16.7	0.00e+00	0	61	0	3299868672	43	4571
2026-01-24 12:45:05.78	329.61	19.87	-36.5	-38.0	16.7	0.00e+00	0	62	0	3305111552	43	4585
2026-01-24 12:45:06.79	329.70	19.75	-36.5	-38.0	16.7	0.00e+00	0	62	0	3310354432	43	4581
2026-01-24 12:45:07.80	329.80	19.63	-36.4	-37.9	16.8	0.00e+00	0	61	0	3316645888	43	4543
2026-01-24 12:45:08.81	329.89	19.51	-36.5	-38.0	16.7	0.00e+00	0	61	0	3321888768	43	4563
2026-01-24 12:45:09.82	329.98	19.39	-36.5	-38.0	16.7	0.00e+00	0	61	0	3328180224	43	4588
2026-01-24 12:45:10.83	330.06	19.27	-36.5	-38.0	16.7	0.00e+00	0	61	0	3333423104	43	4597
2026-01-24 12:45:11.84	330.15	19.15	-36.6	-38.1	16.6	0.00e+00	0	61	0	3338665984	43	4609
2026-01-24 12:45:12.85	330.24	19.03	-36.6	-38.1	16.6	0.00e+00	0	61	0	3344957440	43	4645
2026-01-24 12:45:13.86	330.33	18.91	-36.6	-38.1	16.6	0.00e+00	0	62	0	3350200320	43	4642
2026-01-24 12:45:14.87	330.41	18.79	-36.7	-38.3	16.4	0.00e+00	0	61	0	3356491776	43	4717
2026-01-24 12:45:15.88	330.50	18.68	-36.9	-38.5	16.3	0.00e+00	0	62	0	3361734656	44	4575
2026-01-24 12:45:16.89	330.58	18.56	-37.0	-38.6	16.3	0.00e+00	0	61	0	3366977536	44	4627
2026-01-24 12:45:17.90	330.67	18.44	-37.0	-38.6	16.2	0.00e+00	0	61	0	3373268992	44	4628
2026-01-24 12:45:18.91	330.75	18.33	-37.0	-38.5	16.3	0.00e+00	0	61	0	3378511872	44	4591
2026-01-24 12:45:19.92	330.84	18.21	-37.0	-38.6	16.3	0.00e+00	0	61	0	3384803328	44	4620
2026-01-24 12:45:20.93	330.92	18.10	-37.1	-38.7	16.1	0.00e+00	0	62	0	3390046208	44	4673
2026-01-24 12:45:21.94	331.00	17.98	-37.1	-38.7	16.1	0.00e+00	0	61	0	3396337664	44	4668
2026-01-24 12:45:22.95	331.08	17.87	-37.1	-38.8	16.0	0.00e+00	0	62	0	3401580544	44	4716
2026-01-24 12:45:23.96	331.16	17.76	-37.1	-38.7	16.0	0.00e+00	0	62	0	3407872000	44	4698
2026-01-24 12:45:24.97	331.24	17.64	-37.2	-38.8	16.0	0.00e+00	0	62	0	3413114880	44	4738
2026-01-24 12:45:25.98	331.32	17.53	-37.2	-38.9	15.9	0.00e+00	0	61	0	3418357760	44	4776
2026-01-24 12:45:26.99	331.40	17.42	-37.2	-38.8	15.9	0.00e+00	0	61	0	3424649216	44	4759
2026-01-24 12:45:28.00	331.48	17.31	-37.2	-38.9	15.9	0.00e+00	0	62	0	3429892096	45	4509
2026-01-24 12:45:29.01	331.56	17.20	-37.3	-39.0	15.8	0.00e+00	0	62	0	3436183552	45	4560
2026-01-24 12:45:30.02	331.64	17.09	-37.3	-39.0	15.8	0.00e+00	0	61	0	3441426432	45	4552
2026-01-24 12:45:31.03	331.71	16.98	-37.4	-39.1	15.7	0.00e+00	0	61	0	3446669312	45	4599
2026-01-24 12:45:32.04	331.79	16.87	-37.2	-38.9	15.8	0.00e+00	0	61	0	3452960768	45	4531
2026-01-24 12:45:33.04	331.87	16.76	-37.2	-38.9	15.8	0.00e+00	0	61	0	3458203648	45	4521
2026-01-24 12:45:34.05	331.94	16.65	-37.3	-39.0	15.7	0.00e+00	0	61	0	3463446528	45	4584
2026-01-24 12:45:35.06	332.02	16.54	-37.3	-39.1	15.6	0.00e+00	0	61	0	3469737984	45	4600
2026-01-24 12:45:36.07	332.09	16.43	-37.4	-39.1	15.5	0.00e+00	0	61	0	3474980864	45	4647
2026-01-24 12:45:37.09	332.17	16.33	-37.5	-39.2	15.5	0.00e+00	0	62	0	3481272320	45	4688
2026-01-24 12:45:38.10	332.24	16.22	-37.6	-39.3	15.3	0.00e+00	0	62	0	3486515200	45	4750
2026-01-24 12:45:39.11	332.31	16.11	-37.6	-39.4	15.2	0.00e+00	0	61	0	3492806656	45	4799
2026-01-24 12:45:40.12	332.39	16.01	-37.5	-39.3	15.3	0.00e+00	0	61	0	3498049536	45	4724
2026-01-24 12:45:41.13	332.46	15.90	-37.5	-39.3	15.4	0.00e+00	0	61	0	3504340992	45	4717
2026-01-24 12:45:42.14	332.53	15.80	-37.6	-39.4	15.2	0.00e+00	0	61	0	3509583872	45	4793
2026-01-24 12:45:43.15	332.60	15.69	-37.6	-39.4	15.2	0.00e+00	0	61	0	3514826752	45	4802
2026-01-24 12:45:44.16	332.67	15.59	-37.6	-39.4	15.2	0.00e+00	0	61	0	3521118208	45	4790
2026-01-24 12:45:45.17	332.74	15.48	-37.6	-39.4	15.2	0.00e+00	0	61	0	3526361088	45	4775
2026-01-24 12:45:46.17	332.81	15.38	-37.7	-39.5	15.1	0.00e+00	0	61	0	3532652544	45	4832
2026-01-24 12:45:47.18	332.88	15.28	-37.7	-39.6	15.0	0.00e+00	0	62	0	3537895424	46	4605
2026-01-24 12:45:48.20	332.95	15.17	-37.7	-39.5	15.0	0.00e+00	0	61	0	3543138304	46	4597
2026-01-24 12:45:49.21	333.02	15.07	-37.8	-39.6	15.0	0.00e+00	0	61	0	3549429760	46	4623
2026-01-24 12:45:50.22	333.09	14.97	-37.8	-39.6	14.9	0.00e+00	0	62	0	3554672640	46	4631
2026-01-24 12:45:51.23	333.15	14.87	-37.8	-39.6	15.0	0.00e+00	0	61	0	3560964096	46	4620
