passes_logs/2026/01/24/R2.0S_Moscow/R2.0S_Moscow__20260124_081751_SUOMI_NPP_rec.log

#Pass ID: 20260124_081751_SUOMI NPP
#Satellite: SUOMI NPP
#Configuration: NPP
#almurnet v.1.7.20251203
#Start time: 2026-01-24 08:17:53

#Version: 2.2.20231116
#Station: R2.0S_Moscow
#Location: 37.707566 lon 55.798166 lat
#TLE: 1 37849U 11061A   26023.63275593  .00000212  00000+0  12133-3 0  9990
#TLE: 2 37849  98.7820 325.6074 0002234  48.9695 311.1673 14.19528901737937

#Time	Az	El	Level	Level2	SNR	BER	BlckErr	Temp	State	Recorded	gain1	gain2
2026-01-24 08:17:53.45	110.53	2.11	-33.2	-46.1	3.8	1.50e+00	0	52	0	0	27	29341
2026-01-24 08:17:54.45	110.46	2.17	-30.4	-46.5	4.0	1.50e+00	0	52	104	0	30	25794
2026-01-24 08:17:55.46	110.39	2.23	-30.6	-47.8	3.9	1.50e+00	0	52	104	0	32	26546
2026-01-24 08:17:56.47	110.32	2.28	-29.3	-45.8	4.0	1.50e+00	0	52	104	0	32	21220
2026-01-24 08:17:57.48	110.25	2.34	-28.0	-43.5	3.8	1.50e+00	0	53	104	0	23	27254
2026-01-24 08:17:58.49	110.18	2.40	-17.2	-38.9	3.8	1.50e+00	0	53	104	0	13	28660
2026-01-24 08:17:59.51	110.11	2.45	-25.7	-44.0	3.8	1.50e+00	0	53	104	0	22	30674
2026-01-24 08:18:00.52	110.04	2.51	-23.2	-42.3	3.9	1.50e+00	0	53	104	0	22	25147
2026-01-24 08:18:01.53	109.96	2.57	-22.7	-39.0	3.5	1.50e+00	0	53	104	0	13	28929
2026-01-24 08:18:02.54	109.89	2.63	-24.8	-40.3	4.0	1.50e+00	0	53	104	0	19	23690
2026-01-24 08:18:03.55	109.82	2.68	-32.1	-47.7	3.4	1.50e+00	0	53	104	0	28	33302
2026-01-24 08:18:04.56	109.75	2.74	-27.8	-45.3	3.8	1.50e+00	0	53	104	0	25	29978
2026-01-24 08:18:05.57	109.68	2.80	-26.9	-43.2	3.9	1.50e+00	0	53	104	0	25	23471
2026-01-24 08:18:06.58	109.60	2.85	-25.1	-46.3	3.7	1.50e+00	0	53	104	0	27	29874
2026-01-24 08:18:07.59	109.53	2.91	-22.2	-39.3	3.8	1.50e+00	0	53	104	0	12	31514
2026-01-24 08:18:08.60	109.46	2.97	-23.8	-40.9	3.9	1.50e+00	0	53	104	0	18	26821
2026-01-24 08:18:09.61	109.38	3.03	-27.1	-45.6	4.0	1.50e+00	0	54	104	0	26	29020
2026-01-24 08:18:10.62	109.31	3.09	-25.2	-42.4	3.8	1.50e+00	0	53	104	0	12	45035
2026-01-24 08:18:11.63	109.24	3.14	-30.1	-44.8	3.9	1.50e+00	0	53	0	0	27	25217
2026-01-24 08:18:12.65	109.16	3.20	-19.0	-39.4	3.8	1.50e+00	0	54	104	0	15	26793
2026-01-24 08:18:13.65	109.09	3.26	-24.7	-45.1	4.0	1.50e+00	0	53	104	0	30	21840
2026-01-24 08:18:14.66	109.01	3.32	-32.1	-47.1	3.6	1.50e+00	0	54	104	0	24	39127
2026-01-24 08:18:15.68	108.93	3.38	-26.9	-45.8	4.0	1.50e+00	0	54	104	0	24	33552
2026-01-24 08:18:16.69	108.86	3.43	-25.7	-42.8	3.7	1.50e+00	0	54	104	0	21	28268
2026-01-24 08:18:17.70	108.78	3.49	-27.5	-43.1	3.9	1.50e+00	0	54	104	0	29	18467
2026-01-24 08:18:18.71	108.71	3.55	-25.8	-45.1	4.3	1.50e+00	0	54	104	0	23	32731
2026-01-24 08:18:19.72	108.63	3.61	-32.7	-50.0	4.0	1.50e+00	0	54	104	0	36	27175
2026-01-24 08:18:20.73	108.55	3.67	-31.9	-44.8	3.9	1.50e+00	0	54	104	0	26	26474
2026-01-24 08:18:21.74	108.48	3.73	-32.6	-47.3	3.6	1.50e+00	0	54	104	0	31	26537
2026-01-24 08:18:22.75	108.40	3.79	-16.8	-38.5	3.7	1.50e+00	0	54	104	0	10	32365
2026-01-24 08:18:23.76	108.32	3.85	-28.3	-46.6	3.9	1.50e+00	0	54	104	0	29	27695
2026-01-24 08:18:24.77	108.24	3.90	-33.3	-47.5	4.1	1.50e+00	0	54	104	0	32	25641
2026-01-24 08:18:25.78	108.16	3.96	-27.8	-47.5	3.8	1.50e+00	0	54	104	0	32	25713
2026-01-24 08:18:26.79	108.08	4.02	-27.5	-45.3	3.4	1.50e+00	0	54	104	0	26	28345
2026-01-24 08:18:27.80	108.00	4.08	-28.1	-45.3	3.8	1.50e+00	0	54	104	0	26	28226
2026-01-24 08:18:28.81	107.93	4.14	-31.4	-46.7	3.9	1.50e+00	0	54	104	0	31	24860
2026-01-24 08:18:29.82	107.85	4.20	-30.7	-48.0	3.5	1.50e+00	0	54	104	0	27	36445
2026-01-24 08:18:30.84	107.76	4.26	-31.3	-46.8	4.1	1.50e+00	0	55	104	0	35	19896
2026-01-24 08:18:31.85	107.68	4.32	-26.0	-43.3	3.8	1.50e+00	0	55	104	0	24	25117
2026-01-24 08:18:32.86	107.60	4.38	-24.7	-41.3	4.0	1.50e+00	0	55	104	0	24	19923
2026-01-24 08:18:33.87	107.52	4.44	-25.9	-44.1	3.9	1.50e+00	0	55	104	0	24	27624
2026-01-24 08:18:34.88	107.44	4.50	-27.4	-45.4	3.8	1.50e+00	0	55	104	0	28	25453
2026-01-24 08:18:35.89	107.36	4.56	-19.5	-39.0	3.8	1.50e+00	0	55	104	0	21	18096
2026-01-24 08:18:36.90	107.28	4.62	-21.3	-41.4	3.9	1.50e+00	0	55	104	0	19	26806
2026-01-24 08:18:37.91	107.19	4.68	-27.9	-45.3	3.6	1.50e+00	0	55	104	0	30	22382
2026-01-24 08:18:38.92	107.11	4.74	-26.6	-46.2	3.8	1.50e+00	0	55	104	0	29	26302
2026-01-24 08:18:39.93	107.03	4.80	-26.8	-41.6	4.1	1.50e+00	0	55	104	0	22	23167
2026-01-24 08:18:40.94	106.94	4.86	-31.7	-48.4	4.3	1.50e+00	0	55	104	0	32	28662
2026-01-24 08:18:41.95	106.86	4.92	-32.1	-47.1	3.9	1.50e+00	0	55	104	0	27	32883
2026-01-24 08:18:42.96	106.77	4.98	-25.6	-44.3	3.9	1.50e+00	0	55	104	0	24	28280
2026-01-24 08:18:43.97	106.69	5.04	-23.8	-41.0	4.0	1.50e+00	0	55	104	0	23	20314
2026-01-24 08:18:44.98	106.60	5.10	-22.4	-42.4	3.8	1.50e+00	0	56	104	0	28	17890
2026-01-24 08:18:45.99	106.52	5.16	-26.2	-43.5	3.8	1.50e+00	0	55	104	0	25	24359
2026-01-24 08:18:47.00	106.43	5.22	-21.0	-39.3	3.7	1.50e+00	0	55	104	0	17	23779
2026-01-24 08:18:48.01	106.35	5.28	-23.2	-44.1	3.8	1.50e+00	0	56	104	0	24	27429
2026-01-24 08:18:49.03	106.26	5.34	-24.1	-44.1	3.9	1.50e+00	0	56	104	0	22	31053
2026-01-24 08:18:50.04	106.17	5.40	-20.2	-38.1	4.0	1.50e+00	0	56	104	0	24	13787
2026-01-24 08:18:51.04	106.09	5.46	-33.2	-49.2	4.0	1.50e+00	0	55	104	0	37	23437
2026-01-24 08:18:52.05	106.00	5.52	-18.3	-39.1	3.7	1.50e+00	0	56	104	0	15	26144
2026-01-24 08:18:53.07	105.91	5.59	-29.2	-46.7	4.1	1.50e+00	0	56	104	0	27	31319
2026-01-24 08:18:54.08	105.82	5.65	-30.2	-42.1	3.8	1.50e+00	0	56	104	0	19	29343
2026-01-24 08:18:55.09	105.73	5.71	-32.8	-48.9	3.9	1.50e+00	0	56	104	0	33	28446
2026-01-24 08:18:56.10	105.64	5.77	-20.7	-40.0	3.5	1.50e+00	0	56	104	0	19	22955
2026-01-24 08:18:57.11	105.55	5.83	-24.1	-40.0	3.8	1.50e+00	0	56	104	0	19	22989
2026-01-24 08:18:58.12	105.46	5.89	-23.3	-42.2	3.6	1.50e+00	0	56	104	0	22	24734
2026-01-24 08:18:59.13	105.37	5.95	-26.3	-41.7	4.3	1.50e+00	0	56	104	0	26	18549
2026-01-24 08:19:00.14	105.28	6.02	-25.2	-40.9	3.8	1.50e+00	0	56	104	0	15	32126
2026-01-24 08:19:01.15	105.19	6.08	-32.3	-44.9	3.9	1.50e+00	0	56	104	0	26	27042
2026-01-24 08:19:02.16	105.10	6.14	-29.1	-43.9	4.1	1.50e+00	0	56	104	0	27	22730
2026-01-24 08:19:03.17	105.01	6.20	-25.2	-41.9	4.1	1.50e+00	0	56	104	0	32	13428
2026-01-24 08:19:04.18	104.91	6.26	-22.3	-38.7	3.8	1.50e+00	0	56	104	0	12	29478
2026-01-24 08:19:05.19	104.82	6.33	-30.1	-46.5	4.0	1.50e+00	0	56	104	0	30	25590
2026-01-24 08:19:06.20	104.73	6.39	-29.5	-47.6	3.9	1.50e+00	0	56	104	0	27	34597
2026-01-24 08:19:07.21	104.63	6.45	-20.2	-39.8	3.8	1.50e+00	0	56	104	0	13	31563
2026-01-24 08:19:08.22	104.54	6.51	-31.2	-44.6	3.8	1.50e+00	0	56	104	0	15	48995
2026-01-24 08:19:09.23	104.45	6.58	-33.0	-48.6	3.9	1.50e+00	0	56	104	0	30	32921
2026-01-24 08:19:10.24	104.35	6.64	-29.9	-48.2	4.1	1.50e+00	0	56	104	0	34	24731
2026-01-24 08:19:11.25	104.26	6.70	-27.5	-43.5	3.7	1.50e+00	0	56	104	0	27	21660
2026-01-24 08:19:12.26	104.16	6.76	-24.6	-40.7	3.6	1.50e+00	0	56	104	0	18	26298
2026-01-24 08:19:13.27	104.06	6.83	-30.6	-46.5	3.8	1.50e+00	0	56	0	0	31	24228
2026-01-24 08:19:14.28	103.97	6.89	-25.9	-42.4	4.0	1.50e+00	0	57	104	0	22	25395
2026-01-24 08:19:15.30	103.87	6.95	-26.2	-44.3	4.1	1.50e+00	0	57	104	0	27	23595
2026-01-24 08:19:16.31	103.77	7.01	-25.3	-40.8	4.0	1.50e+00	0	56	104	0	22	21156
2026-01-24 08:19:17.32	103.67	7.08	-25.6	-41.1	3.7	1.50e+00	0	56	104	0	21	23067
2026-01-24 08:19:18.33	103.58	7.14	-30.5	-44.7	4.0	1.50e+00	0	57	104	0	28	23473
2026-01-24 08:19:19.34	103.48	7.20	-17.6	-42.6	3.8	1.50e+00	0	57	104	0	17	34758
2026-01-24 08:19:20.35	103.38	7.27	-26.0	-41.9	4.0	1.51e+00	0	57	104	0	16	33783
2026-01-24 08:19:21.36	103.28	7.33	-16.6	-38.3	4.0	1.50e+00	0	57	104	0	10	31508
2026-01-24 08:19:22.37	103.18	7.39	-22.6	-40.1	3.7	1.51e+00	0	57	104	0	17	25954
2026-01-24 08:19:23.38	103.08	7.46	-26.6	-45.2	4.0	1.50e+00	0	57	104	0	25	29548
2026-01-24 08:19:24.39	102.98	7.52	-24.1	-45.4	4.0	1.50e+00	0	57	104	0	25	30168
2026-01-24 08:19:25.40	102.87	7.58	-31.0	-48.2	4.0	1.50e+00	0	57	104	0	34	24727
2026-01-24 08:19:26.41	102.77	7.65	-34.3	-47.7	4.1	1.50e+00	0	57	104	0	36	20872
2026-01-24 08:19:27.42	102.67	7.71	-23.6	-40.4	3.8	1.50e+00	0	57	104	0	13	33958
2026-01-24 08:19:28.43	102.57	7.78	-33.9	-47.7	4.2	1.49e+00	0	57	104	0	36	20779
2026-01-24 08:19:29.44	102.46	7.84	-32.2	-46.8	4.2	1.48e+00	0	57	104	0	37	17826
2026-01-24 08:19:30.45	102.36	7.90	-26.4	-43.2	4.1	1.46e+00	0	57	104	0	31	16560
2026-01-24 08:19:31.46	102.26	7.97	-32.7	-45.4	4.5	1.46e+00	0	57	104	0	34	18039
2026-01-24 08:19:32.48	102.15	8.03	-26.2	-44.4	3.8	1.49e+00	0	57	104	0	25	26954
2026-01-24 08:19:33.49	102.05	8.10	-31.3	-49.0	3.6	1.50e+00	0	57	104	0	31	32189
2026-01-24 08:19:34.49	101.94	8.16	-29.9	-46.3	4.2	1.50e+00	0	57	104	0	38	15841
2026-01-24 08:19:35.51	101.83	8.22	-31.6	-45.6	4.2	1.49e+00	0	57	104	0	31	21883
2026-01-24 08:19:36.52	101.73	8.29	-29.3	-43.9	4.0	1.50e+00	0	57	104	0	26	23978
2026-01-24 08:19:37.53	101.62	8.35	-21.3	-37.6	3.9	1.50e+00	0	57	104	0	14	23204
2026-01-24 08:19:38.54	101.51	8.42	-18.6	-38.9	3.7	1.50e+00	0	58	104	0	13	28615
2026-01-24 08:19:39.55	101.41	8.48	-32.4	-45.6	4.1	1.50e+00	0	57	104	0	34	18444
2026-01-24 08:19:40.56	101.30	8.55	-28.0	-47.0	4.3	1.50e+00	0	58	104	0	33	22799
2026-01-24 08:19:41.57	101.19	8.61	-32.1	-46.8	4.2	1.50e+00	0	57	104	0	33	22519
2026-01-24 08:19:42.58	101.08	8.68	-21.3	-39.1	3.7	1.50e+00	0	58	104	0	14	27487
2026-01-24 08:19:43.59	100.97	8.74	-35.2	-50.1	4.0	1.50e+00	0	57	104	0	37	25945
2026-01-24 08:19:44.60	100.86	8.81	-31.7	-44.3	3.7	1.50e+00	0	58	104	0	17	42239
2026-01-24 08:19:45.61	100.75	8.87	-32.2	-48.1	4.2	1.50e+00	0	57	104	0	33	25960
2026-01-24 08:19:46.61	100.64	8.94	-30.7	-46.0	4.3	1.50e+00	0	58	104	0	34	19228
2026-01-24 08:19:47.62	100.52	9.00	-26.6	-45.2	3.8	1.50e+00	0	58	104	0	14	55515
2026-01-24 08:19:48.63	100.41	9.07	-20.1	-39.2	3.8	1.50e+00	0	58	104	0	16	24885
2026-01-24 08:19:49.64	100.30	9.13	-27.0	-41.8	4.0	1.49e+00	0	58	104	0	20	26602
2026-01-24 08:19:50.65	100.19	9.20	-26.7	-41.0	4.1	1.49e+00	0	58	104	0	21	22957
2026-01-24 08:19:51.66	100.07	9.26	-30.1	-45.7	4.2	1.48e+00	0	58	104	0	33	19635
2026-01-24 08:19:52.67	99.96	9.33	-26.4	-42.0	4.0	1.50e+00	0	58	104	0	21	25704
2026-01-24 08:19:53.68	99.84	9.39	-29.7	-45.2	4.0	1.50e+00	0	58	104	0	31	20794
2026-01-24 08:19:54.69	99.73	9.46	-14.7	-37.0	3.8	1.50e+00	0	58	104	0	1	45650
2026-01-24 08:19:55.70	99.61	9.52	-24.0	-44.3	4.1	1.50e+00	0	58	104	0	24	28028
2026-01-24 08:19:56.71	99.49	9.59	-24.9	-41.8	4.1	1.49e+00	0	58	104	0	20	26516
2026-01-24 08:19:57.72	99.38	9.66	-32.2	-47.2	4.3	1.50e+00	0	58	0	0	30	28000
2026-01-24 08:19:58.73	99.26	9.72	-30.7	-45.4	4.3	1.48e+00	0	58	104	0	32	20203
2026-01-24 08:19:59.74	99.14	9.79	-31.1	-46.0	4.4	1.50e+00	0	58	104	0	33	20408
2026-01-24 08:20:00.75	99.02	9.85	-24.2	-41.6	4.0	1.50e+00	0	58	104	0	21	24684
2026-01-24 08:20:01.76	98.90	9.92	-31.8	-47.4	4.4	1.50e+00	0	58	104	0	35	21268
2026-01-24 08:20:02.77	98.78	9.99	-33.5	-47.7	4.3	1.50e+00	0	58	104	0	36	20965
2026-01-24 08:20:03.77	98.66	10.05	-34.1	-47.0	4.2	1.48e+00	0	58	104	0	33	22907
2026-01-24 08:20:04.78	98.54	10.12	-34.0	-48.3	4.6	1.49e+00	0	58	104	0	34	25111
2026-01-24 08:20:05.79	98.42	10.18	-34.1	-48.7	4.1	1.48e+00	0	58	104	0	35	24745
2026-01-24 08:20:06.80	98.30	10.25	-32.7	-48.4	4.6	1.48e+00	0	58	104	0	35	24124
2026-01-24 08:20:07.81	98.18	10.32	-34.1	-49.4	3.9	1.50e+00	0	58	104	0	29	38008
2026-01-24 08:20:08.82	98.05	10.38	-20.8	-38.5	3.8	1.49e+00	0	58	104	0	11	30648
2026-01-24 08:20:09.83	97.93	10.45	-32.9	-47.0	4.3	1.48e+00	0	58	104	0	34	21510
2026-01-24 08:20:10.84	97.80	10.52	-22.6	-44.8	4.2	1.47e+00	0	58	104	0	28	23782
2026-01-24 08:20:11.84	97.68	10.58	-32.3	-46.8	4.5	1.47e+00	0	58	104	0	34	21242
2026-01-24 08:20:12.85	97.55	10.65	-26.3	-40.2	3.9	1.50e+00	0	58	104	0	21	21017
2026-01-24 08:20:13.86	97.43	10.71	-33.5	-47.7	4.2	1.48e+00	0	58	104	0	38	18656
2026-01-24 08:20:14.87	97.30	10.78	-36.5	-48.3	4.5	1.37e+00	0	58	104	0	42	15910
2026-01-24 08:20:15.88	97.17	10.85	-34.6	-50.3	4.3	9.54e-01	0	58	0	0	40	22382
2026-01-24 08:20:16.89	97.05	10.91	-29.5	-46.8	4.0	1.49e+00	0	58	104	0	31	25114
2026-01-24 08:20:17.90	96.92	10.98	-34.5	-46.8	3.9	1.48e+00	0	58	104	0	27	31538
2026-01-24 08:20:18.91	96.79	11.05	-35.9	-51.8	4.1	1.50e+00	0	58	104	0	41	25187
2026-01-24 08:20:19.92	96.66	11.11	-31.1	-51.5	4.0	1.49e+00	0	58	104	0	40	25751
2026-01-24 08:20:20.93	96.53	11.18	-38.1	-52.7	4.2	1.49e+00	0	59	104	0	48	18662
2026-01-24 08:20:21.94	96.40	11.25	-35.7	-50.1	4.7	1.41e+00	0	59	0	0	43	18321
2026-01-24 08:20:22.95	96.27	11.32	-42.2	-52.3	4.8	1.45e+00	0	59	104	0	55	11845
2026-01-24 08:20:23.96	96.13	11.38	-40.6	-53.5	4.1	9.19e-01	0	58	104	1048576	49	19264
2026-01-24 08:20:24.97	96.00	11.45	-30.8	-51.9	4.0	1.48e+00	0	59	104	1048576	40	26906
2026-01-24 08:20:25.98	95.87	11.52	-38.3	-52.3	3.7	1.49e+00	0	59	104	1048576	41	26463
2026-01-24 08:20:26.99	95.73	11.58	-36.4	-52.7	4.1	1.49e+00	0	59	104	1048576	42	26340
2026-01-24 08:20:28.00	95.60	11.65	-27.8	-47.6	3.9	1.49e+00	0	59	104	1048576	41	15423
2026-01-24 08:20:29.01	95.46	11.72	-39.9	-53.1	3.4	1.49e+00	0	59	104	1048576	36	38776
2026-01-24 08:20:30.01	95.33	11.78	-29.9	-49.0	4.3	1.21e+00	0	58	0	1048576	41	18197
2026-01-24 08:20:31.02	95.19	11.85	-42.6	-52.0	5.1	1.85e-01	0	59	0	1048576	55	11522
2026-01-24 08:20:32.03	95.06	11.92	-43.5	-57.4	3.8	1.19e+00	0	59	104	2097152	57	18974
2026-01-24 08:20:33.04	94.92	11.99	-41.8	-51.8	4.7	7.74e-01	0	59	0	2097152	54	11881
2026-01-24 08:20:34.05	94.78	12.05	-41.4	-47.2	8.9	8.79e-02	0	59	0	3145728	53	7373
2026-01-24 08:20:35.06	94.64	12.12	-41.3	-46.8	9.2	3.97e-02	0	59	0	5242880	53	7116
2026-01-24 08:20:36.07	94.50	12.19	-41.5	-47.4	8.7	2.65e-02	0	59	0	7340032	53	7552
2026-01-24 08:20:37.08	94.36	12.26	-41.6	-47.6	8.5	3.41e-02	0	59	0	9437184	53	7789
2026-01-24 08:20:38.09	94.22	12.32	-41.5	-47.3	8.9	2.87e-02	0	59	0	11534336	53	7490
2026-01-24 08:20:39.10	94.08	12.39	-41.6	-47.4	8.8	2.99e-02	0	59	0	12582912	53	7581
2026-01-24 08:20:40.11	93.94	12.46	-41.2	-46.5	9.8	1.32e-02	0	59	0	14680064	53	6807
2026-01-24 08:20:41.12	93.79	12.52	-41.3	-46.6	9.7	1.33e-02	0	59	0	16777216	53	6952
2026-01-24 08:20:42.13	93.65	12.59	-41.3	-46.6	9.7	1.63e-02	0	59	0	18874368	53	6893
2026-01-24 08:20:43.14	93.50	12.66	-41.4	-47.0	9.3	2.26e-02	0	59	0	20971520	53	7274
2026-01-24 08:20:44.15	93.36	12.73	-41.0	-47.1	9.1	1.95e-02	0	59	0	22020096	53	7338
2026-01-24 08:20:45.16	93.21	12.79	-41.6	-47.3	8.9	2.67e-02	0	59	0	24117248	53	7483
2026-01-24 08:20:46.17	93.07	12.86	-41.5	-47.0	9.2	2.25e-02	0	59	0	26214400	53	7286
2026-01-24 08:20:47.17	92.92	12.93	-41.6	-47.5	8.7	3.02e-02	0	59	0	28311552	53	7686
2026-01-24 08:20:48.18	92.77	13.00	-41.5	-47.3	8.9	2.27e-02	0	59	0	30408704	53	7475
2026-01-24 08:20:49.19	92.63	13.06	-41.6	-47.5	8.7	3.63e-02	0	59	0	31457280	53	7717
2026-01-24 08:20:50.20	92.48	13.13	-41.6	-47.5	8.8	2.12e-02	0	59	0	33554432	53	7662
2026-01-24 08:20:51.21	92.33	13.20	-41.6	-47.6	8.6	3.87e-02	0	59	0	35651584	53	7740
2026-01-24 08:20:52.22	92.18	13.27	-41.3	-47.2	9.0	2.64e-02	0	59	0	37748736	53	7373
2026-01-24 08:20:53.23	92.03	13.33	-41.5	-47.2	9.0	3.13e-02	0	59	0	39845888	53	7388
2026-01-24 08:20:54.24	91.87	13.40	-41.5	-47.0	9.2	2.49e-02	0	59	0	40894464	53	7275
2026-01-24 08:20:55.25	91.72	13.47	-41.4	-47.0	9.1	2.21e-02	0	59	0	42991616	53	7286
2026-01-24 08:20:56.26	91.57	13.54	-41.6	-47.5	8.7	2.93e-02	0	59	0	45088768	53	7668
2026-01-24 08:20:57.26	91.42	13.60	-41.6	-47.5	8.6	3.68e-02	0	59	0	47185920	53	7704
2026-01-24 08:20:58.27	91.26	13.67	-41.4	-47.0	9.1	2.80e-02	0	59	0	49283072	53	7249
2026-01-24 08:20:59.28	91.11	13.74	-41.2	-46.5	9.6	1.46e-02	0	59	0	50331648	53	6804
2026-01-24 08:21:00.29	90.95	13.80	-41.1	-46.2	9.9	9.92e-03	0	59	0	52428800	53	6634
2026-01-24 08:21:01.30	90.79	13.87	-41.2	-46.5	9.5	1.35e-02	0	59	0	54525952	53	6876
2026-01-24 08:21:02.31	90.64	13.94	-41.3	-47.2	8.8	1.88e-02	0	59	0	56623104	53	7440
2026-01-24 08:21:03.32	90.48	14.01	-41.4	-47.4	8.7	3.61e-02	0	59	0	58720256	53	7574
2026-01-24 08:21:04.33	90.32	14.07	-41.4	-47.3	8.8	4.04e-02	0	59	0	59768832	53	7527
2026-01-24 08:21:05.34	90.16	14.14	-41.3	-47.0	8.9	2.95e-02	0	59	0	61865984	53	7273
2026-01-24 08:21:06.35	90.00	14.21	-41.1	-46.6	9.3	2.36e-02	0	59	0	63963136	53	6942
2026-01-24 08:21:07.36	89.84	14.27	-41.1	-46.4	9.5	1.29e-02	0	59	0	66060288	53	6785
2026-01-24 08:21:08.37	89.68	14.34	-41.3	-47.1	8.8	1.98e-02	0	59	0	68157440	53	7340
2026-01-24 08:21:09.38	89.51	14.41	-41.3	-47.4	8.4	4.31e-02	0	59	0	69206016	53	7584
2026-01-24 08:21:10.39	89.35	14.48	-41.4	-47.7	8.1	5.44e-02	0	59	0	71303168	53	7876
2026-01-24 08:21:11.39	89.19	14.54	-41.5	-47.9	7.9	7.58e-02	0	59	0	73400320	53	8018
2026-01-24 08:21:12.41	89.02	14.61	-41.4	-47.7	8.1	5.94e-02	0	59	0	75497472	53	7814
2026-01-24 08:21:13.42	88.85	14.68	-41.4	-47.5	8.3	5.68e-02	0	59	0	77594624	53	7699
2026-01-24 08:21:14.43	88.69	14.74	-41.4	-47.7	8.1	5.81e-02	0	60	0	79691776	53	7823
2026-01-24 08:21:15.43	88.52	14.81	-41.5	-48.0	7.7	7.30e-02	0	59	0	80740352	53	8142
2026-01-24 08:21:16.45	88.35	14.88	-41.6	-48.4	7.4	1.21e-01	0	60	0	82837504	53	8512
2026-01-24 08:21:17.46	88.18	14.94	-41.6	-48.6	7.2	1.20e-01	0	59	0	84934656	53	8669
2026-01-24 08:21:18.46	88.02	15.01	-41.5	-48.3	7.4	1.28e-01	0	60	0	87031808	53	8402
2026-01-24 08:21:19.47	87.85	15.07	-41.4	-48.1	7.5	9.90e-02	0	60	0	89128960	53	8257
2026-01-24 08:21:20.48	87.68	15.14	-41.3	-48.2	7.4	1.18e-01	0	60	0	90177536	53	8282
2026-01-24 08:21:21.49	87.50	15.21	-41.5	-49.5	6.2	1.30e-01	0	59	0	92274688	53	9704
2026-01-24 08:21:22.50	87.33	15.27	-41.5	-49.1	6.5	1.39e+00	0	60	104	93323264	54	8735
2026-01-24 08:21:23.51	87.16	15.34	-42.0	-54.0	3.9	1.49e+00	0	59	104	93323264	55	14423
2026-01-24 08:21:24.52	86.98	15.40	-41.5	-49.7	5.9	1.48e+00	0	59	0	93323264	55	8803
2026-01-24 08:21:25.53	86.81	15.47	-41.7	-50.6	5.3	1.01e+00	0	60	0	94371840	54	10336
2026-01-24 08:21:26.54	86.63	15.54	-41.3	-49.0	6.5	2.36e-01	0	60	0	96468992	54	8612
2026-01-24 08:21:27.55	86.46	15.60	-41.4	-49.2	6.3	2.27e-01	0	60	0	98566144	54	8848
2026-01-24 08:21:28.56	86.28	15.67	-41.4	-49.4	6.2	2.93e-01	0	59	0	100663296	54	9037
2026-01-24 08:21:29.57	86.10	15.73	-41.5	-49.4	6.2	2.75e-01	0	60	0	102760448	54	8990
2026-01-24 08:21:30.58	85.92	15.80	-41.5	-49.4	6.2	2.55e-01	0	60	0	103809024	54	8998
2026-01-24 08:21:31.59	85.74	15.86	-41.4	-48.8	6.8	2.23e-01	0	60	0	105906176	54	8372
2026-01-24 08:21:32.60	85.56	15.93	-41.4	-49.1	6.6	2.19e-01	0	60	0	108003328	54	8728
2026-01-24 08:21:33.61	85.38	15.99	-41.3	-48.8	6.8	1.39e+00	0	60	0	108003328	54	8417
2026-01-24 08:21:34.62	85.20	16.06	-42.2	-52.4	4.6	7.03e-01	0	60	0	109051904	54	12809
2026-01-24 08:21:35.63	85.02	16.12	-41.3	-48.8	6.8	8.01e-01	0	60	0	109051904	54	8416
2026-01-24 08:21:36.64	84.84	16.19	-41.4	-49.7	5.8	1.32e+00	0	60	0	110100480	54	9380
2026-01-24 08:21:37.65	84.65	16.25	-41.1	-47.7	7.8	1.14e-01	0	59	0	112197632	54	7402
2026-01-24 08:21:38.66	84.47	16.32	-41.2	-47.6	8.0	7.26e-02	0	60	0	113246208	54	7290
2026-01-24 08:21:39.67	84.28	16.38	-41.3	-47.6	8.2	6.81e-02	0	60	0	115343360	54	7334
2026-01-24 08:21:40.68	84.09	16.45	-41.4	-47.5	8.3	5.64e-02	0	60	0	117440512	54	7278
2026-01-24 08:21:41.68	83.91	16.51	-41.4	-47.4	8.5	4.12e-02	0	60	0	119537664	54	7142
2026-01-24 08:21:42.70	83.72	16.57	-41.4	-47.4	8.4	4.23e-02	0	60	0	120586240	54	7174
2026-01-24 08:21:43.71	83.53	16.64	-41.4	-47.4	8.4	4.57e-02	0	60	0	122683392	54	7140
2026-01-24 08:21:44.72	83.34	16.70	-41.4	-47.5	8.3	5.12e-02	0	60	0	124780544	54	7228
2026-01-24 08:21:45.73	83.15	16.76	-41.3	-47.4	8.3	5.08e-02	0	60	0	126877696	54	7147
2026-01-24 08:21:46.74	82.96	16.83	-41.2	-46.9	8.8	4.01e-02	0	60	0	128974848	54	6790
2026-01-24 08:21:47.74	82.77	16.89	-41.1	-46.9	8.8	3.44e-02	0	60	0	130023424	54	6733
2026-01-24 08:21:48.75	82.57	16.95	-40.9	-46.3	9.4	1.97e-02	0	60	0	132120576	53	6695
2026-01-24 08:21:49.76	82.38	17.02	-40.9	-46.2	9.6	1.42e-02	0	60	0	134217728	53	6632
2026-01-24 08:21:50.77	82.18	17.08	-41.0	-46.3	9.6	1.36e-02	0	60	0	136314880	53	6690
2026-01-24 08:21:51.78	81.99	17.14	-41.0	-46.2	9.7	1.06e-02	0	60	0	138412032	53	6606
2026-01-24 08:21:52.79	81.79	17.20	-41.0	-46.3	9.7	1.04e-02	0	60	0	140509184	53	6669
2026-01-24 08:21:53.80	81.60	17.26	-41.1	-46.5	9.6	1.10e-02	0	60	0	141557760	53	6812
2026-01-24 08:21:54.81	81.40	17.33	-41.1	-46.5	9.4	1.55e-02	0	60	0	143654912	53	6864
2026-01-24 08:21:55.82	81.20	17.39	-41.0	-46.2	9.7	1.18e-02	0	60	0	145752064	53	6612
2026-01-24 08:21:56.83	81.00	17.45	-40.9	-46.2	9.6	1.19e-02	0	60	0	147849216	53	6616
2026-01-24 08:21:57.83	80.80	17.51	-40.7	-46.0	9.8	1.14e-02	0	60	0	149946368	53	6425
2026-01-24 08:21:58.84	80.60	17.57	-40.7	-46.3	9.4	1.54e-02	0	60	0	150994944	53	6654
2026-01-24 08:21:59.85	80.40	17.63	-40.8	-46.7	8.7	2.45e-02	0	60	0	153092096	53	7039
2026-01-24 08:22:00.86	80.19	17.69	-40.7	-46.8	8.6	3.93e-02	0	60	0	155189248	53	7105
2026-01-24 08:22:01.87	79.99	17.75	-40.7	-46.8	8.6	3.93e-02	0	60	0	157286400	53	7044
2026-01-24 08:22:02.88	79.79	17.81	-40.7	-46.8	8.5	4.03e-02	0	60	0	159383552	53	7067
2026-01-24 08:22:03.89	79.58	17.87	-40.8	-47.1	8.3	4.58e-02	0	60	0	160432128	53	7313
2026-01-24 08:22:04.90	79.37	17.93	-40.8	-47.2	8.1	6.52e-02	0	60	0	162529280	53	7441
2026-01-24 08:22:05.91	79.17	17.99	-40.9	-47.4	8.0	6.86e-02	0	60	0	164626432	53	7630
2026-01-24 08:22:06.92	78.96	18.05	-40.9	-47.5	7.9	7.17e-02	0	60	0	166723584	53	7633
2026-01-24 08:22:07.93	78.75	18.11	-40.9	-47.0	8.5	4.86e-02	0	60	0	168820736	53	7242
2026-01-24 08:22:08.94	78.54	18.17	-40.8	-46.7	8.8	3.29e-02	0	60	0	169869312	53	7019
2026-01-24 08:22:09.95	78.33	18.23	-41.0	-46.8	8.8	2.79e-02	0	60	0	171966464	53	7087
2026-01-24 08:22:10.96	78.12	18.29	-41.0	-46.9	8.8	3.01e-02	0	60	0	174063616	53	7146
2026-01-24 08:22:11.97	77.91	18.34	-41.1	-46.9	8.8	3.22e-02	0	60	0	176160768	53	7180
2026-01-24 08:22:12.98	77.70	18.40	-41.0	-46.6	9.1	2.76e-02	0	60	0	178257920	53	6954
2026-01-24 08:22:13.99	77.48	18.46	-40.8	-46.1	9.5	2.31e-02	0	60	0	179306496	53	6568
2026-01-24 08:22:15.00	77.27	18.52	-40.8	-46.1	9.6	1.12e-02	0	60	0	181403648	53	6540
2026-01-24 08:22:16.01	77.05	18.57	-40.8	-46.4	9.2	1.41e-02	0	60	0	183500800	53	6770
2026-01-24 08:22:17.01	76.84	18.63	-40.9	-46.4	9.2	2.08e-02	0	60	0	185597952	53	6797
2026-01-24 08:22:18.02	76.62	18.68	-40.9	-46.4	9.2	2.03e-02	0	60	0	187695104	53	6798
2026-01-24 08:22:19.03	76.41	18.74	-40.8	-46.4	9.3	1.97e-02	0	60	0	188743680	53	6737
2026-01-24 08:22:20.04	76.19	18.80	-40.7	-46.2	9.6	1.77e-02	0	60	0	190840832	53	6587
2026-01-24 08:22:21.05	75.97	18.85	-40.7	-46.2	9.5	1.31e-02	0	60	0	192937984	53	6584
2026-01-24 08:22:22.06	75.75	18.91	-40.7	-46.1	9.7	1.11e-02	0	60	0	195035136	53	6504
2026-01-24 08:22:23.07	75.53	18.96	-40.7	-46.0	9.8	1.17e-02	0	60	0	197132288	53	6468
2026-01-24 08:22:24.08	75.31	19.02	-40.6	-45.7	10.1	7.60e-03	0	60	0	198180864	53	6224
2026-01-24 08:22:25.09	75.08	19.07	-40.5	-45.4	10.4	5.47e-03	0	60	0	200278016	53	6033
2026-01-24 08:22:26.10	74.86	19.12	-40.4	-45.2	10.6	3.98e-03	0	60	0	202375168	52	6252
2026-01-24 08:22:27.11	74.64	19.18	-40.4	-45.0	10.8	2.98e-03	0	60	0	204472320	52	6122
2026-01-24 08:22:28.12	74.41	19.23	-40.5	-45.3	10.7	2.79e-03	0	60	0	206569472	52	6282
2026-01-24 08:22:29.13	74.19	19.28	-40.5	-45.2	10.8	2.04e-03	0	60	0	208666624	52	6251
2026-01-24 08:22:30.14	73.96	19.33	-40.7	-45.4	10.7	2.46e-03	0	60	0	209715200	52	6376
2026-01-24 08:22:31.15	73.73	19.39	-40.8	-45.5	10.8	2.79e-03	0	60	0	211812352	52	6436
2026-01-24 08:22:32.16	73.51	19.44	-40.9	-45.6	10.6	3.10e-03	0	60	0	213909504	52	6555
2026-01-24 08:22:33.17	73.28	19.49	-40.9	-45.6	10.7	2.84e-03	0	60	0	216006656	52	6527
2026-01-24 08:22:34.18	73.05	19.54	-40.9	-45.6	10.8	2.83e-03	0	60	0	218103808	52	6524
2026-01-24 08:22:35.19	72.82	19.59	-41.0	-45.8	10.6	2.75e-03	0	60	0	219152384	52	6657
2026-01-24 08:22:36.20	72.59	19.64	-41.0	-45.9	10.5	3.45e-03	0	60	0	221249536	52	6730
2026-01-24 08:22:37.21	72.36	19.69	-41.0	-45.7	10.7	3.08e-03	0	60	0	223346688	52	6639
2026-01-24 08:22:38.21	72.13	19.74	-40.9	-45.6	10.8	2.92e-03	0	60	0	225443840	52	6561
2026-01-24 08:22:39.22	71.89	19.79	-40.9	-45.6	10.8	2.42e-03	0	60	0	227540992	52	6540
2026-01-24 08:22:40.23	71.66	19.84	-41.1	-45.7	10.9	2.15e-03	0	60	0	228589568	52	6632
2026-01-24 08:22:41.24	71.42	19.88	-41.1	-45.9	10.7	2.34e-03	0	60	0	230686720	52	6753
2026-01-24 08:22:42.25	71.19	19.93	-41.2	-45.7	11.1	1.88e-03	0	60	0	232783872	52	6634
2026-01-24 08:22:43.26	70.95	19.98	-41.0	-45.4	11.5	8.20e-04	0	60	0	234881024	52	6363
2026-01-24 08:22:44.27	70.72	20.03	-41.0	-45.1	11.9	4.81e-04	0	60	0	236978176	52	6168
2026-01-24 08:22:45.28	70.48	20.07	-41.0	-45.1	12.0	3.13e-04	0	60	0	238026752	52	6149
2026-01-24 08:22:46.29	70.24	20.12	-41.0	-44.9	12.3	2.11e-04	0	60	0	240123904	52	6031
2026-01-24 08:22:47.30	70.00	20.16	-40.9	-44.6	12.5	1.10e-04	0	60	0	242221056	52	5850
2026-01-24 08:22:48.31	69.76	20.21	-40.7	-44.4	12.8	8.01e-05	0	60	0	244318208	52	5669
2026-01-24 08:22:49.32	69.52	20.25	-40.5	-44.0	13.3	2.05e-05	0	60	0	246415360	52	5406
2026-01-24 08:22:50.33	69.28	20.30	-40.5	-43.9	13.4	1.44e-05	0	60	0	247463936	52	5392
2026-01-24 08:22:51.34	69.04	20.34	-40.6	-44.1	13.2	2.05e-05	0	60	0	249561088	52	5513
2026-01-24 08:22:52.35	68.80	20.38	-40.8	-44.4	13.1	2.51e-05	0	60	0	251658240	52	5666
2026-01-24 08:22:53.36	68.55	20.43	-40.7	-44.1	13.3	1.44e-05	0	60	0	253755392	52	5520
2026-01-24 08:22:54.37	68.31	20.47	-40.8	-44.2	13.2	1.90e-05	0	60	0	255852544	52	5587
2026-01-24 08:22:55.38	68.07	20.51	-40.8	-44.2	13.2	2.21e-05	0	61	0	256901120	52	5588
2026-01-24 08:22:56.39	67.82	20.55	-40.8	-44.2	13.4	1.44e-05	0	60	0	258998272	52	5544
2026-01-24 08:22:57.40	67.57	20.59	-40.6	-43.9	13.7	9.10e-06	0	60	0	261095424	52	5392
2026-01-24 08:22:58.41	67.33	20.63	-40.7	-44.0	13.6	7.60e-06	0	60	0	263192576	52	5409
2026-01-24 08:22:59.42	67.08	20.67	-40.8	-44.1	13.5	8.30e-06	0	60	0	265289728	52	5492
2026-01-24 08:23:00.43	66.83	20.71	-41.0	-44.4	13.2	1.52e-05	0	61	0	266338304	52	5719
2026-01-24 08:23:01.44	66.59	20.75	-41.1	-44.7	12.9	5.18e-05	0	61	0	268435456	52	5898
2026-01-24 08:23:02.45	66.34	20.79	-41.2	-44.9	12.8	4.04e-05	0	60	0	270532608	52	6010
2026-01-24 08:23:03.46	66.09	20.83	-41.4	-45.3	12.4	9.15e-05	0	61	0	272629760	53	5940
2026-01-24 08:23:04.47	65.84	20.87	-41.5	-45.5	12.2	1.98e-04	0	60	0	274726912	53	6101
2026-01-24 08:23:05.48	65.59	20.90	-41.5	-45.5	12.2	2.25e-04	0	60	0	276824064	53	6082
2026-01-24 08:23:06.49	65.33	20.94	-41.5	-45.5	12.1	3.04e-04	0	60	0	277872640	53	6104
2026-01-24 08:23:07.50	65.08	20.97	-41.6	-45.6	12.0	3.00e-04	0	60	0	279969792	53	6202
2026-01-24 08:23:08.51	64.83	21.01	-41.6	-45.7	11.9	3.83e-04	0	60	0	282066944	53	6244
2026-01-24 08:23:09.52	64.58	21.04	-41.7	-45.9	11.8	3.84e-04	0	60	0	284164096	53	6350
2026-01-24 08:23:10.53	64.32	21.08	-41.7	-46.0	11.6	5.39e-04	0	60	0	286261248	54	6114
2026-01-24 08:23:11.54	64.07	21.11	-41.8	-46.1	11.7	6.79e-04	0	60	0	287309824	54	6146
2026-01-24 08:23:12.55	63.81	21.15	-41.8	-46.1	11.5	8.38e-04	0	60	0	289406976	54	6198
2026-01-24 08:23:13.56	63.56	21.18	-41.8	-46.0	11.7	8.35e-04	0	61	0	291504128	54	6101
2026-01-24 08:23:14.57	63.30	21.21	-41.7	-46.0	11.7	6.03e-04	0	61	0	293601280	54	6084
2026-01-24 08:23:15.58	63.05	21.24	-41.7	-45.8	11.9	5.12e-04	0	60	0	295698432	54	5970
2026-01-24 08:23:16.59	62.79	21.27	-41.5	-45.5	12.1	3.02e-04	0	60	0	296747008	54	5781
2026-01-24 08:23:17.60	62.53	21.30	-41.4	-45.4	12.3	2.01e-04	0	60	0	298844160	54	5669
2026-01-24 08:23:18.61	62.28	21.33	-41.4	-45.3	12.4	1.90e-04	0	60	0	300941312	54	5603
2026-01-24 08:23:19.62	62.02	21.36	-41.5	-45.6	12.1	2.18e-04	0	60	0	303038464	54	5800
2026-01-24 08:23:20.63	61.76	21.39	-41.6	-45.7	12.0	2.44e-04	0	60	0	305135616	54	5908
2026-01-24 08:23:21.64	61.50	21.42	-41.7	-46.0	11.7	3.99e-04	0	60	0	306184192	54	6121
2026-01-24 08:23:22.64	61.24	21.44	-41.9	-46.4	11.3	8.64e-04	0	60	0	308281344	54	6409
2026-01-24 08:23:23.65	60.98	21.47	-42.0	-46.7	11.0	1.60e-03	0	60	0	310378496	54	6591
2026-01-24 08:23:24.66	60.72	21.50	-42.0	-46.6	11.1	1.96e-03	0	60	0	312475648	54	6545
2026-01-24 08:23:25.67	60.46	21.52	-41.9	-46.5	11.2	2.04e-03	0	60	0	314572800	54	6469
2026-01-24 08:23:26.68	60.20	21.55	-41.9	-46.3	11.3	1.18e-03	0	60	0	315621376	54	6332
2026-01-24 08:23:27.69	59.94	21.57	-41.8	-46.1	11.6	8.53e-04	0	60	0	317718528	54	6189
2026-01-24 08:23:28.70	59.67	21.60	-41.6	-45.7	12.1	3.65e-04	0	60	0	319815680	54	5864
2026-01-24 08:23:29.71	59.41	21.62	-41.6	-45.6	12.1	2.66e-04	0	60	0	321912832	54	5838
2026-01-24 08:23:30.72	59.15	21.64	-41.7	-45.8	11.9	2.97e-04	0	60	0	324009984	54	5941
2026-01-24 08:23:31.73	58.89	21.66	-41.8	-46.1	11.6	5.20e-04	0	60	0	325058560	54	6186
2026-01-24 08:23:32.74	58.62	21.68	-41.8	-46.2	11.5	7.61e-04	0	60	0	327155712	54	6260
2026-01-24 08:23:33.75	58.36	21.70	-41.8	-46.2	11.5	6.23e-04	0	61	0	329252864	54	6233
2026-01-24 08:23:34.76	58.09	21.72	-41.7	-45.9	11.8	5.87e-04	0	61	0	331350016	54	6037
2026-01-24 08:23:35.77	57.83	21.74	-41.5	-45.6	12.2	3.39e-04	0	60	0	333447168	54	5793
2026-01-24 08:23:36.78	57.56	21.76	-41.5	-45.5	12.2	2.05e-04	0	61	0	334495744	54	5779
2026-01-24 08:23:37.79	57.30	21.78	-41.5	-45.6	12.2	2.42e-04	0	60	0	336592896	54	5800
2026-01-24 08:23:38.80	57.03	21.80	-41.7	-45.9	11.8	4.87e-04	0	61	0	338690048	54	6018
2026-01-24 08:23:39.81	56.77	21.81	-41.8	-46.2	11.6	5.42e-04	0	61	0	340787200	54	6220
2026-01-24 08:23:40.82	56.50	21.83	-42.0	-46.6	11.2	9.55e-04	0	60	0	342884352	54	6515
2026-01-24 08:23:41.83	56.23	21.85	-42.1	-46.9	10.8	2.50e-03	0	60	0	344981504	54	6786
2026-01-24 08:23:42.84	55.97	21.86	-42.2	-47.2	10.5	3.61e-03	0	60	0	346030080	54	6974
2026-01-24 08:23:43.85	55.70	21.88	-42.3	-47.3	10.4	4.74e-03	0	60	0	348127232	55	6699
2026-01-24 08:23:44.86	55.43	21.89	-42.4	-47.7	10.0	6.54e-03	0	61	0	350224384	55	6985
2026-01-24 08:23:45.87	55.16	21.90	-42.4	-47.7	9.9	7.43e-03	0	61	0	352321536	55	7033
2026-01-24 08:23:46.88	54.90	21.91	-42.4	-47.7	10.0	6.39e-03	0	60	0	354418688	55	6975
2026-01-24 08:23:47.89	54.63	21.92	-42.3	-47.4	10.3	6.95e-03	0	61	0	355467264	55	6730
2026-01-24 08:23:48.90	54.36	21.94	-42.0	-46.7	11.0	3.10e-03	0	61	0	357564416	55	6253
2026-01-24 08:23:49.91	54.09	21.95	-42.0	-46.5	11.2	2.10e-03	0	61	0	359661568	55	6127
2026-01-24 08:23:50.92	53.82	21.96	-41.9	-46.4	11.3	1.24e-03	0	61	0	361758720	55	6037
2026-01-24 08:23:51.92	53.56	21.96	-41.8	-46.1	11.6	7.30e-04	0	61	0	363855872	55	5852
2026-01-24 08:23:52.93	53.29	21.97	-41.6	-45.7	12.1	2.75e-04	0	61	0	364904448	55	5533
2026-01-24 08:23:53.94	53.02	21.98	-41.4	-45.4	12.4	1.74e-04	0	60	0	367001600	54	5674
2026-01-24 08:23:54.95	52.75	21.99	-41.2	-45.0	12.8	8.39e-05	0	60	0	369098752	54	5413
2026-01-24 08:23:55.96	52.48	21.99	-41.2	-44.9	12.9	3.96e-05	0	61	0	371195904	54	5350
2026-01-24 08:23:56.97	52.21	22.00	-41.2	-44.9	12.9	3.73e-05	0	61	0	373293056	54	5359
2026-01-24 08:23:57.98	51.94	22.00	-41.2	-45.0	12.8	4.34e-05	0	61	0	374341632	54	5423
2026-01-24 08:23:58.99	51.67	22.01	-41.2	-45.0	12.8	5.87e-05	0	61	0	376438784	54	5416
2026-01-24 08:24:00.00	51.40	22.01	-41.2	-45.0	12.9	4.27e-05	0	61	0	378535936	54	5411
2026-01-24 08:24:01.01	51.13	22.01	-41.2	-44.8	13.0	5.49e-05	0	61	0	380633088	54	5329
2026-01-24 08:24:02.02	50.86	22.02	-41.3	-45.0	12.8	5.95e-05	0	61	0	382730240	54	5463
2026-01-24 08:24:03.03	50.59	22.02	-41.4	-45.3	12.6	9.07e-05	0	61	0	383778816	54	5612
2026-01-24 08:24:04.04	50.33	22.02	-41.5	-45.5	12.2	1.25e-04	0	61	0	385875968	54	5777
2026-01-24 08:24:05.05	50.06	22.02	-41.6	-45.7	12.1	2.81e-04	0	60	0	387973120	54	5902
2026-01-24 08:24:06.06	49.79	22.02	-41.6	-45.7	12.1	2.20e-04	0	61	0	390070272	54	5917
2026-01-24 08:24:07.07	49.52	22.02	-41.6	-45.7	12.2	2.90e-04	0	61	0	392167424	54	5858
2026-01-24 08:24:08.08	49.25	22.01	-41.6	-45.6	12.3	1.51e-04	0	61	0	393216000	54	5802
2026-01-24 08:24:09.09	48.98	22.01	-41.6	-45.6	12.2	2.28e-04	0	61	0	395313152	54	5807
2026-01-24 08:24:10.10	48.71	22.01	-41.5	-45.5	12.4	1.88e-04	0	60	0	397410304	54	5731
2026-01-24 08:24:11.11	48.44	22.00	-41.3	-45.0	12.8	1.04e-04	0	60	0	399507456	54	5457
2026-01-24 08:24:12.12	48.17	22.00	-41.2	-44.8	13.1	4.34e-05	0	61	0	401604608	54	5282
2026-01-24 08:24:13.13	47.90	21.99	-41.2	-44.8	13.0	2.67e-05	0	61	0	402653184	54	5284
2026-01-24 08:24:14.14	47.63	21.99	-41.0	-44.4	13.5	1.14e-05	0	61	0	404750336	54	5057
2026-01-24 08:24:15.15	47.36	21.98	-41.1	-44.6	13.2	2.13e-05	0	61	0	406847488	54	5207
2026-01-24 08:24:16.16	47.09	21.97	-41.2	-44.8	13.1	2.36e-05	0	61	0	408944640	54	5281
2026-01-24 08:24:17.17	46.82	21.97	-41.4	-45.1	12.8	4.11e-05	0	61	0	411041792	54	5470
2026-01-24 08:24:18.18	46.56	21.96	-41.2	-44.7	13.1	4.50e-05	0	61	0	413138944	54	5266
2026-01-24 08:24:19.19	46.29	21.95	-41.1	-44.5	13.3	1.90e-05	0	61	0	414187520	54	5146
2026-01-24 08:24:20.20	46.02	21.94	-40.9	-44.2	13.7	9.90e-06	0	61	0	416284672	53	5237
2026-01-24 08:24:21.20	45.75	21.93	-40.9	-44.2	13.6	4.50e-06	0	61	0	418381824	53	5253
2026-01-24 08:24:22.21	45.49	21.92	-40.8	-44.0	13.9	3.00e-06	0	61	0	420478976	53	5157
2026-01-24 08:24:23.22	45.22	21.90	-41.0	-44.3	13.6	6.80e-06	0	61	0	422576128	53	5305
2026-01-24 08:24:24.23	44.95	21.89	-41.1	-44.6	13.3	1.14e-05	0	61	0	423624704	53	5490
2026-01-24 08:24:25.24	44.68	21.88	-41.1	-44.6	13.2	2.21e-05	0	60	0	425721856	53	5508
2026-01-24 08:24:26.25	44.42	21.86	-41.1	-44.6	13.3	9.10e-06	0	61	0	427819008	53	5469
2026-01-24 08:24:27.26	44.15	21.85	-41.0	-44.3	13.6	9.10e-06	0	61	0	429916160	53	5305
2026-01-24 08:24:28.27	43.88	21.83	-40.8	-44.0	13.9	6.80e-06	0	61	0	432013312	53	5130
2026-01-24 08:24:29.28	43.62	21.82	-40.7	-43.8	14.1	7.00e-07	0	61	0	433061888	53	5037
2026-01-24 08:24:30.29	43.35	21.80	-40.7	-43.8	14.1	1.50e-06	0	61	0	435159040	53	4990
2026-01-24 08:24:31.30	43.09	21.79	-40.7	-43.9	14.0	3.00e-06	0	61	0	437256192	53	5066
2026-01-24 08:24:32.31	42.82	21.77	-40.7	-43.9	14.0	0.00e+00	0	61	0	439353344	53	5051
2026-01-24 08:24:33.32	42.56	21.75	-40.8	-44.1	13.8	1.50e-06	0	60	0	441450496	53	5162
2026-01-24 08:24:34.33	42.29	21.73	-41.0	-44.4	13.6	5.30e-06	0	61	0	442499072	53	5354
2026-01-24 08:24:35.34	42.03	21.71	-40.9	-44.3	13.6	8.30e-06	0	60	0	444596224	53	5292
2026-01-24 08:24:36.35	41.76	21.69	-41.0	-44.4	13.5	9.10e-06	0	61	0	446693376	53	5353
2026-01-24 08:24:37.36	41.50	21.67	-41.0	-44.4	13.5	1.29e-05	0	60	0	448790528	53	5342
2026-01-24 08:24:38.37	41.24	21.65	-41.0	-44.4	13.5	7.60e-06	0	61	0	450887680	53	5352
2026-01-24 08:24:39.38	40.97	21.63	-40.9	-44.3	13.7	6.80e-06	0	61	0	451936256	53	5280
2026-01-24 08:24:40.39	40.71	21.60	-40.9	-44.2	13.7	3.80e-06	0	61	0	454033408	53	5260
2026-01-24 08:24:41.40	40.45	21.58	-40.8	-44.0	13.8	2.20e-06	0	61	0	456130560	53	5155
2026-01-24 08:24:42.41	40.19	21.55	-40.8	-44.0	13.9	3.00e-06	0	61	0	458227712	53	5123
2026-01-24 08:24:43.42	39.93	21.53	-40.8	-44.0	13.9	2.20e-06	0	61	0	460324864	53	5134
2026-01-24 08:24:44.43	39.67	21.50	-40.9	-44.1	13.8	3.00e-06	0	61	0	461373440	53	5210
2026-01-24 08:24:45.44	39.41	21.48	-40.8	-44.0	13.9	1.50e-06	0	61	0	463470592	53	5148
2026-01-24 08:24:46.44	39.15	21.45	-40.9	-44.2	13.6	8.30e-06	0	61	0	465567744	53	5264
2026-01-24 08:24:47.45	38.89	21.43	-41.1	-44.5	13.4	5.30e-06	0	61	0	467664896	53	5443
2026-01-24 08:24:48.46	38.63	21.40	-41.2	-44.8	13.1	3.58e-05	0	61	0	469762048	53	5624
2026-01-24 08:24:49.47	38.37	21.37	-41.3	-45.0	12.8	3.58e-05	0	61	0	470810624	53	5775
2026-01-24 08:24:50.48	38.11	21.34	-41.5	-45.4	12.4	9.38e-05	0	61	0	472907776	53	6018
2026-01-24 08:24:51.49	37.86	21.31	-41.5	-45.3	12.5	9.15e-05	0	61	0	475004928	53	5963
2026-01-24 08:24:52.50	37.60	21.28	-41.4	-45.2	12.7	8.62e-05	0	61	0	477102080	53	5881
2026-01-24 08:24:53.51	37.34	21.25	-41.3	-44.9	12.9	3.12e-05	0	61	0	479199232	53	5694
2026-01-24 08:24:54.52	37.09	21.22	-41.2	-44.9	13.0	2.59e-05	0	61	0	480247808	53	5661
2026-01-24 08:24:55.53	36.83	21.19	-41.2	-44.7	13.0	3.89e-05	0	61	0	482344960	53	5578
2026-01-24 08:24:56.54	36.58	21.16	-41.3	-44.9	12.9	5.03e-05	0	61	0	484442112	53	5687
2026-01-24 08:24:57.55	36.32	21.12	-41.3	-45.0	12.9	4.95e-05	0	61	0	486539264	53	5744
2026-01-24 08:24:58.56	36.07	21.09	-41.5	-45.3	12.6	7.70e-05	0	61	0	488636416	53	5967
2026-01-24 08:24:59.57	35.82	21.06	-41.6	-45.5	12.3	1.37e-04	0	61	0	490733568	53	6113
2026-01-24 08:25:00.58	35.56	21.02	-41.7	-45.8	12.1	1.33e-04	0	61	0	491782144	53	6295
2026-01-24 08:25:01.59	35.31	20.99	-41.9	-46.1	11.7	4.74e-04	0	61	0	493879296	54	6180
2026-01-24 08:25:02.60	35.06	20.95	-42.0	-46.3	11.5	6.42e-04	0	61	0	495976448	54	6345
2026-01-24 08:25:03.61	34.81	20.91	-42.0	-46.5	11.4	1.24e-03	0	61	0	498073600	54	6428
2026-01-24 08:25:04.61	34.56	20.88	-42.1	-46.7	11.1	1.24e-03	0	61	0	500170752	54	6584
2026-01-24 08:25:05.62	34.31	20.84	-42.1	-46.6	11.2	1.77e-03	0	61	0	501219328	54	6526
2026-01-24 08:25:06.63	34.06	20.80	-42.0	-46.5	11.3	8.74e-04	0	61	0	503316480	54	6454
2026-01-24 08:25:07.64	33.81	20.77	-41.9	-46.3	11.6	7.42e-04	0	61	0	505413632	54	6275
2026-01-24 08:25:08.65	33.57	20.73	-41.9	-46.1	11.7	6.59e-04	0	61	0	507510784	54	6182
2026-01-24 08:25:09.67	33.32	20.69	-41.8	-46.1	11.8	5.71e-04	0	61	0	509607936	54	6133
2026-01-24 08:25:10.67	33.07	20.65	-41.7	-45.8	12.0	4.40e-04	0	61	0	510656512	54	5933
2026-01-24 08:25:11.69	32.82	20.61	-41.7	-45.9	11.9	3.90e-04	0	61	0	512753664	54	6004
2026-01-24 08:25:12.69	32.58	20.57	-41.7	-45.9	11.9	4.03e-04	0	61	0	514850816	54	6017
2026-01-24 08:25:13.70	32.34	20.53	-41.8	-46.0	11.9	3.50e-04	0	61	0	516947968	54	6065
2026-01-24 08:25:14.71	32.09	20.48	-41.8	-46.1	11.7	4.03e-04	0	61	0	519045120	54	6134
2026-01-24 08:25:15.72	31.85	20.44	-41.8	-46.0	11.8	6.07e-04	0	61	0	520093696	54	6118
2026-01-24 08:25:16.73	31.61	20.40	-41.7	-45.8	12.0	4.04e-04	0	61	0	522190848	54	5982
2026-01-24 08:25:17.74	31.37	20.36	-41.6	-45.5	12.3	2.75e-04	0	61	0	524288000	54	5780
2026-01-24 08:25:18.75	31.13	20.31	-41.5	-45.4	12.4	2.04e-04	0	61	0	526385152	54	5657
2026-01-24 08:25:19.76	30.88	20.27	-41.4	-45.3	12.5	1.40e-04	0	61	0	528482304	54	5601
2026-01-24 08:25:20.77	30.64	20.22	-41.5	-45.3	12.5	1.15e-04	0	61	0	529530880	54	5611
2026-01-24 08:25:21.78	30.41	20.18	-41.4	-45.1	12.6	1.22e-04	0	61	0	531628032	54	5520
2026-01-24 08:25:22.79	30.17	20.13	-41.3	-45.0	12.8	5.49e-05	0	61	0	533725184	54	5448
2026-01-24 08:25:23.80	29.93	20.09	-41.2	-44.8	13.0	5.87e-05	0	61	0	535822336	54	5324
2026-01-24 08:25:24.81	29.69	20.04	-41.2	-44.8	13.1	4.88e-05	0	61	0	537919488	54	5283
2026-01-24 08:25:25.82	29.46	20.00	-41.2	-44.8	12.8	6.10e-05	0	61	0	538968064	54	5336
2026-01-24 08:25:26.83	29.22	19.95	-41.3	-45.0	12.8	5.03e-05	0	61	0	541065216	54	5450
2026-01-24 08:25:27.84	28.99	19.90	-41.5	-45.4	12.4	6.10e-05	0	61	0	543162368	54	5680
2026-01-24 08:25:28.85	28.75	19.85	-41.6	-45.7	12.1	1.43e-04	0	61	0	545259520	54	5904
2026-01-24 08:25:29.85	28.52	19.81	-41.8	-46.1	11.6	4.59e-04	0	61	0	547356672	54	6155
2026-01-24 08:25:30.86	28.29	19.76	-41.9	-46.3	11.4	6.64e-04	0	61	0	548405248	54	6321
2026-01-24 08:25:31.87	28.06	19.71	-42.1	-46.8	10.9	1.43e-03	0	61	0	550502400	54	6717
2026-01-24 08:25:32.88	27.83	19.66	-42.1	-46.8	10.8	2.75e-03	0	61	0	552599552	54	6710
2026-01-24 08:25:33.89	27.60	19.61	-42.1	-47.0	10.8	2.53e-03	0	61	0	554696704	54	6819
2026-01-24 08:25:34.90	27.37	19.56	-42.0	-46.7	11.1	2.30e-03	0	61	0	556793856	54	6573
2026-01-24 08:25:35.91	27.14	19.51	-42.0	-46.6	11.1	1.80e-03	0	61	0	558891008	54	6555
2026-01-24 08:25:36.92	26.91	19.46	-42.1	-46.8	10.9	2.13e-03	0	61	0	559939584	54	6667
2026-01-24 08:25:37.93	26.68	19.41	-42.2	-47.3	10.4	3.16e-03	0	61	0	562036736	55	6656
2026-01-24 08:25:38.94	26.46	19.35	-42.4	-47.9	9.7	8.72e-03	0	61	0	564133888	55	7166
2026-01-24 08:25:39.95	26.23	19.30	-42.7	-48.6	9.1	1.68e-02	0	61	0	566231040	55	7725
2026-01-24 08:25:40.96	26.01	19.25	-42.8	-48.6	9.1	2.29e-02	0	61	0	568328192	56	7364
2026-01-24 08:25:41.97	25.78	19.20	-42.8	-48.8	9.0	2.46e-02	0	61	0	569376768	56	7461
2026-01-24 08:25:42.98	25.56	19.14	-42.7	-48.3	9.4	2.12e-02	0	61	0	571473920	56	7115
2026-01-24 08:25:43.99	25.34	19.09	-42.6	-47.9	9.9	1.10e-02	0	61	0	573571072	56	6771
2026-01-24 08:25:45.00	25.12	19.04	-42.4	-47.4	10.4	6.19e-03	0	61	0	575668224	56	6369
2026-01-24 08:25:46.01	24.90	18.98	-42.2	-46.9	10.9	2.65e-03	0	61	0	577765376	56	6040
2026-01-24 08:25:47.01	24.68	18.93	-42.0	-46.5	11.4	1.48e-03	0	61	0	578813952	56	5725
2026-01-24 08:25:48.02	24.46	18.87	-41.6	-45.8	12.0	6.02e-04	0	61	0	580911104	55	5605
2026-01-24 08:25:49.03	24.24	18.82	-41.4	-45.4	12.3	1.67e-04	0	61	0	583008256	54	5703
2026-01-24 08:25:50.04	24.02	18.76	-41.2	-45.0	12.7	9.68e-05	0	61	0	585105408	54	5447
2026-01-24 08:25:51.05	23.81	18.71	-41.2	-44.9	12.9	4.50e-05	0	61	0	587202560	54	5353
2026-01-24 08:25:52.06	23.59	18.65	-41.0	-44.6	13.2	3.05e-05	0	61	0	588251136	54	5172
2026-01-24 08:25:53.07	23.37	18.60	-41.1	-44.7	13.1	3.58e-05	0	61	0	590348288	54	5253
2026-01-24 08:25:54.08	23.16	18.54	-41.1	-44.8	13.0	4.50e-05	0	61	0	592445440	54	5281
2026-01-24 08:25:55.09	22.95	18.48	-41.0	-44.6	13.1	2.67e-05	0	61	0	594542592	53	5492
2026-01-24 08:25:56.10	22.73	18.43	-41.1	-44.8	12.9	4.57e-05	0	61	0	596639744	53	5632
2026-01-24 08:25:57.11	22.52	18.37	-41.1	-44.8	12.9	4.57e-05	0	61	0	597688320	53	5609
2026-01-24 08:25:58.12	22.31	18.31	-41.0	-44.7	13.0	4.73e-05	0	61	0	599785472	53	5545
2026-01-24 08:25:59.13	22.10	18.25	-41.0	-44.6	13.1	3.20e-05	0	61	0	601882624	53	5465
2026-01-24 08:26:00.14	21.89	18.20	-40.9	-44.4	13.3	2.51e-05	0	61	0	603979776	53	5382
2026-01-24 08:26:01.15	21.68	18.14	-40.8	-44.2	13.5	1.29e-05	0	61	0	606076928	53	5240
2026-01-24 08:26:02.16	21.47	18.08	-40.9	-44.4	13.2	1.44e-05	0	61	0	607125504	53	5391
2026-01-24 08:26:03.17	21.27	18.02	-41.0	-44.6	13.2	2.44e-05	0	61	0	609222656	53	5469
2026-01-24 08:26:04.18	21.06	17.96	-41.2	-45.0	12.8	3.81e-05	0	61	0	611319808	53	5736
2026-01-24 08:26:05.18	20.86	17.90	-41.4	-45.4	12.3	1.44e-04	0	61	0	613416960	53	6004
2026-01-24 08:26:06.19	20.65	17.84	-41.6	-45.9	11.7	3.47e-04	0	61	0	615514112	53	6395
2026-01-24 08:26:07.20	20.45	17.78	-41.9	-46.4	11.2	7.35e-04	0	61	0	616562688	54	6403
2026-01-24 08:26:08.21	20.25	17.72	-41.9	-46.7	10.9	1.65e-03	0	61	0	618659840	54	6599
2026-01-24 08:26:09.22	20.04	17.66	-42.0	-46.8	10.8	2.36e-03	0	61	0	620756992	54	6676
2026-01-24 08:26:10.23	19.84	17.60	-41.9	-46.7	10.9	2.53e-03	0	61	0	622854144	54	6589
2026-01-24 08:26:11.24	19.64	17.54	-41.9	-46.6	10.9	2.17e-03	0	61	0	624951296	54	6565
2026-01-24 08:26:12.25	19.44	17.48	-41.8	-46.3	11.3	1.23e-03	0	61	0	627048448	54	6311
2026-01-24 08:26:13.26	19.24	17.42	-41.8	-46.3	11.3	1.03e-03	0	61	0	628097024	54	6309
2026-01-24 08:26:14.27	19.05	17.36	-41.5	-45.7	11.9	5.89e-04	0	61	0	630194176	54	5913
2026-01-24 08:26:15.28	18.85	17.30	-41.4	-45.5	12.1	3.30e-04	0	61	0	632291328	54	5777
2026-01-24 08:26:16.28	18.65	17.23	-41.4	-45.4	12.2	2.43e-04	0	61	0	634388480	54	5722
2026-01-24 08:26:17.30	18.46	17.17	-41.5	-45.6	12.0	2.55e-04	0	61	0	635437056	54	5811
2026-01-24 08:26:18.30	18.26	17.11	-41.3	-45.2	12.4	2.04e-04	0	61	0	637534208	54	5549
2026-01-24 08:26:19.31	18.07	17.05	-41.3	-45.2	12.4	1.24e-04	0	61	0	639631360	54	5548
2026-01-24 08:26:20.32	17.88	16.99	-41.1	-44.9	12.8	1.09e-04	0	61	0	641728512	54	5346
2026-01-24 08:26:21.33	17.68	16.92	-41.1	-44.8	12.7	5.49e-05	0	61	0	643825664	54	5335
2026-01-24 08:26:22.34	17.49	16.86	-41.1	-44.7	12.9	5.95e-05	0	61	0	644874240	54	5276
2026-01-24 08:26:23.35	17.30	16.80	-41.1	-44.9	12.7	4.65e-05	0	61	0	646971392	54	5357
2026-01-24 08:26:24.36	17.11	16.73	-41.2	-45.1	12.5	1.39e-04	0	61	0	649068544	54	5484
2026-01-24 08:26:25.37	16.92	16.67	-41.4	-45.5	12.1	2.30e-04	0	61	0	651165696	54	5757
2026-01-24 08:26:26.38	16.73	16.61	-41.6	-46.0	11.6	4.24e-04	0	61	0	653262848	54	6087
2026-01-24 08:26:27.39	16.55	16.54	-41.7	-46.2	11.3	8.86e-04	0	61	0	655360000	54	6235
2026-01-24 08:26:28.40	16.36	16.48	-41.7	-46.2	11.3	1.15e-03	0	61	0	656408576	54	6253
2026-01-24 08:26:29.41	16.17	16.42	-41.6	-45.9	11.6	9.21e-04	0	61	0	658505728	54	6060
2026-01-24 08:26:30.42	15.99	16.35	-41.5	-45.8	11.8	6.81e-04	0	61	0	660602880	54	5929
2026-01-24 08:26:31.43	15.81	16.29	-41.5	-45.6	11.9	4.32e-04	0	61	0	662700032	54	5826
2026-01-24 08:26:32.44	15.62	16.22	-41.5	-45.8	11.8	3.86e-04	0	61	0	664797184	54	5947
2026-01-24 08:26:33.45	15.44	16.16	-41.5	-45.8	11.7	4.48e-04	0	61	0	665845760	54	5959
2026-01-24 08:26:34.46	15.26	16.10	-41.5	-45.8	11.7	5.80e-04	0	61	0	667942912	54	5955
2026-01-24 08:26:35.47	15.08	16.03	-41.6	-45.9	11.6	6.45e-04	0	61	0	670040064	54	6032
2026-01-24 08:26:36.48	14.90	15.97	-41.6	-46.0	11.5	7.99e-04	0	61	0	672137216	54	6080
2026-01-24 08:26:37.49	14.72	15.90	-41.6	-46.0	11.6	7.77e-04	0	61	0	674234368	54	6063
2026-01-24 08:26:38.50	14.54	15.84	-41.6	-45.9	11.6	7.69e-04	0	61	0	675282944	54	6033
2026-01-24 08:26:39.51	14.36	15.77	-41.6	-46.1	11.5	6.77e-04	0	61	0	677380096	54	6132
2026-01-24 08:26:40.52	14.18	15.71	-41.5	-45.7	11.7	6.37e-04	0	61	0	679477248	54	5903
2026-01-24 08:26:41.53	14.01	15.64	-41.5	-45.8	11.7	4.92e-04	0	61	0	681574400	54	5938
2026-01-24 08:26:42.53	13.83	15.58	-41.5	-45.7	11.8	4.27e-04	0	61	0	683671552	54	5869
2026-01-24 08:26:43.54	13.66	15.51	-41.2	-45.2	12.2	3.50e-04	0	61	0	684720128	54	5545
2026-01-24 08:26:44.55	13.48	15.45	-41.2	-45.1	12.3	1.48e-04	0	61	0	686817280	54	5512
2026-01-24 08:26:45.56	13.31	15.38	-41.0	-44.7	12.7	9.76e-05	0	61	0	688914432	54	5261
2026-01-24 08:26:46.57	13.14	15.31	-41.0	-44.7	12.7	9.00e-05	0	61	0	691011584	53	5558
2026-01-24 08:26:47.58	12.97	15.25	-41.0	-44.8	12.7	1.06e-04	0	61	0	693108736	53	5643
2026-01-24 08:26:48.59	12.80	15.18	-41.1	-44.9	12.5	1.01e-04	0	61	0	694157312	53	5708
2026-01-24 08:26:49.60	12.63	15.12	-41.1	-45.0	12.3	1.33e-04	0	61	0	696254464	53	5762
2026-01-24 08:26:50.61	12.46	15.05	-41.1	-44.9	12.4	1.21e-04	0	61	0	698351616	53	5718
2026-01-24 08:26:51.62	12.29	14.98	-41.1	-44.9	12.5	1.50e-04	0	61	0	700448768	53	5690
2026-01-24 08:26:52.63	12.12	14.92	-40.9	-44.5	12.8	9.91e-05	0	61	0	702545920	53	5459
2026-01-24 08:26:53.64	11.95	14.85	-40.7	-44.3	13.0	3.58e-05	0	61	0	703594496	53	5293
2026-01-24 08:26:54.65	11.79	14.78	-40.6	-44.0	13.4	1.22e-05	0	61	0	705691648	53	5104
2026-01-24 08:26:55.66	11.62	14.72	-40.5	-43.9	13.4	1.22e-05	0	61	0	707788800	52	5389
2026-01-24 08:26:56.67	11.46	14.65	-40.5	-43.8	13.5	1.29e-05	0	61	0	709885952	52	5298
2026-01-24 08:26:57.67	11.29	14.59	-40.5	-43.9	13.4	1.29e-05	0	61	0	711983104	52	5347
2026-01-24 08:26:58.68	11.13	14.52	-40.5	-43.9	13.3	1.06e-05	0	61	0	713031680	52	5357
2026-01-24 08:26:59.69	10.97	14.45	-40.5	-44.0	13.1	1.75e-05	0	61	0	715128832	52	5445
2026-01-24 08:27:00.70	10.81	14.39	-40.6	-44.2	12.9	3.50e-05	0	61	0	717225984	52	5571
2026-01-24 08:27:01.71	10.65	14.32	-40.6	-44.2	12.9	5.26e-05	0	61	0	719323136	52	5546
2026-01-24 08:27:02.72	10.49	14.25	-40.7	-44.5	12.5	7.62e-05	0	61	0	721420288	52	5773
2026-01-24 08:27:03.73	10.33	14.19	-40.8	-44.6	12.4	1.66e-04	0	61	0	723517440	52	5824
2026-01-24 08:27:04.74	10.17	14.12	-40.9	-44.8	12.1	1.94e-04	0	61	0	724566016	52	5982
2026-01-24 08:27:05.75	10.01	14.05	-40.9	-45.0	11.9	2.77e-04	0	61	0	726663168	52	6087
2026-01-24 08:27:06.76	9.85	13.99	-41.0	-45.0	11.9	3.44e-04	0	61	0	728760320	52	6130
2026-01-24 08:27:07.77	9.69	13.92	-40.9	-45.0	11.9	4.02e-04	0	61	0	730857472	52	6085
2026-01-24 08:27:08.78	9.54	13.85	-40.8	-44.7	12.1	3.84e-04	0	61	0	732954624	52	5881
2026-01-24 08:27:09.79	9.38	13.78	-40.6	-44.3	12.4	2.33e-04	0	61	0	734003200	52	5655
2026-01-24 08:27:10.80	9.23	13.72	-40.5	-44.2	12.6	1.07e-04	0	61	0	736100352	52	5544
2026-01-24 08:27:11.81	9.07	13.65	-40.6	-44.4	12.4	8.46e-05	0	61	0	738197504	52	5663
2026-01-24 08:27:12.82	8.92	13.58	-40.5	-44.2	12.5	1.44e-04	0	61	0	740294656	52	5562
2026-01-24 08:27:13.83	8.77	13.52	-40.5	-44.3	12.4	9.61e-05	0	61	0	742391808	52	5637
2026-01-24 08:27:14.84	8.62	13.45	-40.4	-44.2	12.5	1.82e-04	0	61	0	743440384	52	5544
2026-01-24 08:27:15.84	8.47	13.38	-40.4	-44.2	12.5	1.05e-04	0	61	0	745537536	52	5532
2026-01-24 08:27:16.85	8.32	13.32	-40.4	-44.3	12.2	1.88e-04	0	61	0	747634688	52	5614
2026-01-24 08:27:17.87	8.17	13.25	-40.5	-44.6	11.9	2.53e-04	0	61	0	749731840	52	5810
2026-01-24 08:27:18.87	8.02	13.18	-40.8	-45.2	11.2	8.14e-04	0	61	0	751828992	52	6243
2026-01-24 08:27:19.89	7.87	13.11	-40.8	-45.5	10.8	2.37e-03	0	61	0	752877568	52	6439
2026-01-24 08:27:20.90	7.72	13.05	-41.0	-46.0	10.2	5.34e-03	0	61	0	754974720	52	6805
2026-01-24 08:27:21.91	7.58	12.98	-40.8	-45.8	10.2	5.71e-03	0	61	0	757071872	52	6715
2026-01-24 08:27:22.91	7.43	12.91	-40.7	-45.6	10.4	5.28e-03	0	61	0	759169024	52	6514
2026-01-24 08:27:23.92	7.29	12.85	-40.6	-45.3	10.7	3.41e-03	0	61	0	761266176	52	6281
2026-01-24 08:27:24.94	7.14	12.78	-40.6	-45.3	10.7	2.16e-03	0	61	0	762314752	52	6302
2026-01-24 08:27:25.95	7.00	12.71	-40.6	-45.3	10.7	3.32e-03	0	61	0	764411904	52	6299
2026-01-24 08:27:26.95	6.85	12.64	-40.4	-45.0	10.8	2.58e-03	0	61	0	766509056	52	6100
2026-01-24 08:27:27.96	6.71	12.58	-40.5	-45.4	10.3	3.73e-03	0	61	0	768606208	52	6375
2026-01-24 08:27:28.98	6.57	12.51	-40.0	-44.3	11.3	2.91e-03	0	61	0	770703360	52	5620
2026-01-24 08:27:29.99	6.43	12.44	-40.2	-45.0	10.6	1.91e-03	0	61	0	771751936	51	6425
2026-01-24 08:27:31.00	6.28	12.38	-40.1	-44.7	10.8	4.52e-03	0	61	0	773849088	51	6205
2026-01-24 08:27:32.00	6.15	12.31	-39.8	-44.3	11.0	1.99e-03	0	61	0	775946240	51	5936
2026-01-24 08:27:33.01	6.01	12.24	-40.1	-45.2	9.9	5.90e-03	0	61	0	778043392	51	6643
2026-01-24 08:27:34.02	5.87	12.17	-40.4	-46.3	8.7	2.00e-02	0	61	0	780140544	51	7494
2026-01-24 08:27:35.03	5.73	12.11	-40.4	-46.5	8.4	4.03e-02	0	61	0	781189120	51	7712
2026-01-24 08:27:36.04	5.59	12.04	-40.6	-47.3	7.5	8.28e-02	0	61	0	783286272	51	8441
2026-01-24 08:27:37.05	5.46	11.97	-40.8	-48.9	6.0	2.20e-01	0	61	0	785383424	52	9560
2026-01-24 08:27:38.06	5.32	11.91	-40.9	-50.0	5.2	4.52e-01	0	61	0	787480576	52	10831
2026-01-24 08:27:39.07	5.18	11.84	-40.9	-50.8	4.7	8.21e-01	0	61	0	789577728	52	11943
2026-01-24 08:27:40.08	5.05	11.77	-40.9	-51.7	4.3	1.11e+00	0	61	0	791674880	52	13211
2026-01-24 08:27:41.09	4.91	11.71	-40.9	-52.8	4.0	1.41e+00	0	61	0	791674880	52	15012
2026-01-24 08:27:42.10	4.78	11.64	-41.3	-54.0	3.8	1.49e+00	0	61	104	791674880	53	16279
2026-01-24 08:27:43.11	4.65	11.57	-40.2	-54.8	3.8	1.49e+00	0	61	104	791674880	52	18796
2026-01-24 08:27:44.12	4.51	11.51	-40.7	-55.2	3.8	1.49e+00	0	61	104	791674880	52	19713
2026-01-24 08:27:45.13	4.38	11.44	-41.4	-55.8	3.8	1.49e+00	0	61	104	791674880	53	19870
2026-01-24 08:27:46.13	4.25	11.37	-40.8	-55.2	3.8	1.49e+00	0	61	104	791674880	53	18626
2026-01-24 08:27:47.14	4.12	11.31	-40.7	-55.2	3.8	1.49e+00	0	61	104	791674880	53	18683
2026-01-24 08:27:48.15	3.99	11.24	-40.7	-55.2	3.8	1.49e+00	0	62	104	791674880	53	18647
2026-01-24 08:27:49.16	3.86	11.17	-40.5	-55.0	3.8	1.49e+00	0	61	104	791674880	52	19369
2026-01-24 08:27:50.17	3.73	11.11	-40.7	-55.3	3.8	1.49e+00	0	61	104	791674880	52	19846
2026-01-24 08:27:51.18	3.61	11.04	-40.0	-54.6	3.8	1.49e+00	0	61	104	791674880	52	18371
2026-01-24 08:27:52.19	3.48	10.97	-39.9	-54.5	3.8	1.49e+00	0	61	104	791674880	51	19207
2026-01-24 08:27:53.20	3.35	10.91	-40.1	-54.7	3.8	1.49e+00	0	61	104	791674880	51	19627
2026-01-24 08:27:54.21	3.22	10.84	-39.9	-54.5	3.8	1.49e+00	0	61	104	791674880	51	19306
2026-01-24 08:27:55.22	3.10	10.77	-39.9	-54.4	3.8	1.49e+00	0	61	104	791674880	51	19124
2026-01-24 08:27:56.23	2.97	10.71	-39.9	-54.4	3.8	1.49e+00	0	61	104	791674880	51	19105
2026-01-24 08:27:57.24	2.85	10.64	-39.8	-54.4	3.8	1.49e+00	0	61	104	791674880	51	19031
2026-01-24 08:27:58.25	2.72	10.57	-39.9	-54.5	3.8	1.49e+00	0	61	104	791674880	51	19229
2026-01-24 08:27:59.26	2.60	10.51	-40.3	-54.8	3.8	1.49e+00	0	61	104	791674880	51	20041
2026-01-24 08:28:00.27	2.48	10.44	-40.0	-54.5	3.8	1.49e+00	0	61	104	791674880	51	19302
2026-01-24 08:28:01.27	2.36	10.38	-40.1	-54.7	3.8	1.49e+00	0	61	104	791674880	51	19722
2026-01-24 08:28:02.29	2.23	10.31	-40.1	-54.7	3.8	1.49e+00	0	62	104	791674880	51	19759
2026-01-24 08:28:03.29	2.11	10.24	-40.0	-54.5	3.8	1.49e+00	0	61	104	791674880	51	19331
2026-01-24 08:28:04.30	1.99	10.18	-39.9	-54.5	3.8	1.49e+00	0	61	104	791674880	51	19212
2026-01-24 08:28:05.31	1.87	10.11	-40.0	-54.6	3.8	1.49e+00	0	61	104	791674880	51	19509
2026-01-24 08:28:06.32	1.75	10.05	-40.0	-54.6	3.8	1.49e+00	0	61	104	791674880	51	19483
2026-01-24 08:28:07.33	1.63	9.98	-40.0	-54.5	3.8	1.49e+00	0	62	104	791674880	51	19309
2026-01-24 08:28:08.34	1.52	9.92	-39.9	-54.4	3.8	1.49e+00	0	61	104	791674880	51	19043
2026-01-24 08:28:09.36	1.40	9.85	-40.0	-54.5	3.8	1.49e+00	0	62	104	791674880	51	19325
2026-01-24 08:28:10.37	1.28	9.78	-40.0	-54.5	3.8	1.49e+00	0	61	104	791674880	51	19354
2026-01-24 08:28:11.38	1.16	9.72	-39.9	-54.4	3.8	1.49e+00	0	61	104	791674880	51	19159
2026-01-24 08:28:12.39	1.05	9.65	-39.9	-54.4	3.8	1.49e+00	0	62	104	791674880	51	19093
2026-01-24 08:28:13.40	0.93	9.59	-40.0	-54.5	3.8	1.49e+00	0	61	104	791674880	51	19282
2026-01-24 08:28:14.40	0.82	9.52	-39.9	-54.5	3.8	1.49e+00	0	61	104	791674880	51	19185
2026-01-24 08:28:15.41	0.70	9.46	-39.9	-54.4	3.8	1.49e+00	0	61	104	791674880	51	19079
2026-01-24 08:28:16.42	0.59	9.39	-39.9	-54.4	3.8	1.49e+00	0	61	104	791674880	51	19101
2026-01-24 08:28:17.43	0.47	9.33	-39.9	-54.5	3.8	1.49e+00	0	62	104	791674880	51	19183
2026-01-24 08:28:18.44	0.36	9.26	-39.9	-54.5	3.8	1.49e+00	0	61	104	791674880	51	19261
2026-01-24 08:28:19.45	0.25	9.20	-39.9	-54.4	3.8	1.49e+00	0	61	104	791674880	51	19129
2026-01-24 08:28:20.46	0.14	9.13	-39.9	-54.4	3.8	1.49e+00	0	61	104	791674880	51	19102
2026-01-24 08:28:21.47	0.03	9.07	-39.9	-54.5	3.8	1.49e+00	0	61	104	791674880	51	19168
2026-01-24 08:28:22.48	359.91	9.00	-39.9	-54.5	3.8	1.49e+00	0	61	104	791674880	51	19201
2026-01-24 08:28:23.49	359.80	8.94	-39.9	-54.5	3.8	1.49e+00	0	62	104	791674880	51	19218
2026-01-24 08:28:24.50	359.69	8.87	-39.9	-54.4	3.8	1.49e+00	0	62	104	791674880	51	19146
2026-01-24 08:28:25.51	359.58	8.81	-39.9	-54.4	3.8	1.49e+00	0	61	104	791674880	51	19130
2026-01-24 08:28:26.52	359.48	8.74	-39.9	-54.5	3.8	1.49e+00	0	61	104	791674880	51	19187
2026-01-24 08:28:27.53	359.37	8.68	-39.9	-54.4	3.8	1.49e+00	0	61	104	791674880	51	19081
2026-01-24 08:28:28.54	359.26	8.61	-39.8	-54.4	3.8	1.49e+00	0	62	104	791674880	51	19027
2026-01-24 08:28:29.55	359.15	8.55	-39.9	-54.4	3.8	1.49e+00	0	61	104	791674880	51	19135
2026-01-24 08:28:30.56	359.04	8.48	-39.9	-54.5	3.8	1.49e+00	0	61	104	791674880	51	19181
2026-01-24 08:28:31.57	358.94	8.42	-39.8	-54.4	3.8	1.49e+00	0	61	104	791674880	51	18954
2026-01-24 08:28:32.58	358.83	8.36	-39.8	-54.3	3.8	1.49e+00	0	61	104	791674880	51	18918
2026-01-24 08:28:33.59	358.73	8.29	-39.9	-54.4	3.8	1.49e+00	0	61	104	791674880	51	19052
2026-01-24 08:28:34.60	358.62	8.23	-39.8	-54.4	3.8	1.49e+00	0	62	104	791674880	51	19015
2026-01-24 08:28:35.61	358.52	8.16	-39.8	-54.3	3.8	1.49e+00	0	62	104	791674880	51	18869
2026-01-24 08:28:36.62	358.41	8.10	-39.8	-54.3	3.8	1.49e+00	0	62	104	791674880	51	18824
2026-01-24 08:28:37.63	358.31	8.04	-39.8	-54.4	3.8	1.49e+00	0	62	104	791674880	51	18967
2026-01-24 08:28:38.64	358.20	7.97	-39.9	-54.4	3.8	1.49e+00	0	61	104	791674880	51	19106
2026-01-24 08:28:39.65	358.10	7.91	-42.7	-57.1	3.8	1.49e+00	0	61	104	791674880	55	20632
2026-01-24 08:28:40.66	358.00	7.84	-44.7	-59.2	3.8	1.49e+00	0	61	104	791674880	59	20980
2026-01-24 08:28:41.67	357.90	7.78	-44.9	-59.6	3.8	1.49e+00	0	62	104	791674880	60	20706
2026-01-24 08:28:42.68	357.80	7.72	-45.1	-59.8	3.8	1.49e+00	0	62	104	791674880	60	21172
2026-01-24 08:28:43.69	357.70	7.65	-45.2	-59.9	3.8	1.49e+00	0	61	104	791674880	60	21286
2026-01-24 08:28:44.70	357.60	7.59	-45.3	-60.0	3.8	1.49e+00	0	61	104	791674880	61	20502
2026-01-24 08:28:45.71	357.50	7.53	-45.4	-60.1	3.8	1.49e+00	0	61	104	791674880	61	20559
2026-01-24 08:28:46.72	357.40	7.46	-45.4	-60.0	3.8	1.49e+00	0	61	104	791674880	61	20478
2026-01-24 08:28:47.73	357.30	7.40	-45.3	-60.0	3.8	1.49e+00	0	61	104	791674880	61	20425
2026-01-24 08:28:48.74	357.20	7.34	-45.3	-60.0	3.8	1.49e+00	0	62	104	791674880	61	20360
2026-01-24 08:28:49.75	357.10	7.27	-45.3	-59.9	3.8	1.49e+00	0	61	104	791674880	61	20286
2026-01-24 08:28:50.76	357.00	7.21	-45.3	-59.9	3.8	1.49e+00	0	61	104	791674880	61	20121
2026-01-24 08:28:51.77	356.90	7.15	-45.3	-59.9	3.8	1.49e+00	0	61	104	791674880	61	20159
2026-01-24 08:28:52.78	356.81	7.09	-45.3	-59.9	3.8	1.49e+00	0	61	104	791674880	61	20091
2026-01-24 08:28:53.79	356.71	7.02	-45.3	-59.8	3.8	1.49e+00	0	61	104	791674880	61	20062
2026-01-24 08:28:54.80	356.62	6.96	-45.2	-59.7	3.8	1.49e+00	0	61	104	791674880	61	19789
2026-01-24 08:28:55.81	356.52	6.90	-45.2	-59.7	3.8	1.49e+00	0	61	104	791674880	61	19833
2026-01-24 08:28:56.82	356.42	6.84	-45.2	-59.7	3.8	1.49e+00	0	61	104	791674880	61	19817
2026-01-24 08:28:57.83	356.33	6.77	-45.2	-59.7	3.8	1.49e+00	0	61	104	791674880	61	19807
2026-01-24 08:28:58.85	356.23	6.71	-45.2	-59.7	3.8	1.49e+00	0	62	104	791674880	61	19771
2026-01-24 08:28:59.86	356.14	6.65	-45.2	-59.7	3.8	1.49e+00	0	62	104	791674880	61	19791
2026-01-24 08:29:00.87	356.05	6.59	-45.1	-59.7	3.8	1.49e+00	0	61	104	791674880	61	19829
2026-01-24 08:29:01.87	355.96	6.52	-45.2	-59.7	3.8	1.49e+00	0	62	104	791674880	61	19758
2026-01-24 08:29:02.89	355.86	6.46	-45.1	-59.7	3.8	1.49e+00	0	62	104	791674880	61	19814
2026-01-24 08:29:03.89	355.77	6.40	-45.1	-59.7	3.8	1.49e+00	0	61	104	791674880	60	20879
2026-01-24 08:29:04.90	355.68	6.34	-45.1	-59.7	3.8	1.49e+00	0	61	104	791674880	60	20874
2026-01-24 08:29:05.91	355.59	6.28	-45.1	-59.7	3.8	1.49e+00	0	61	104	791674880	60	20953
2026-01-24 08:29:06.92	355.50	6.22	-45.1	-59.7	3.8	1.49e+00	0	61	104	791674880	60	20930
2026-01-24 08:29:07.93	355.41	6.15	-45.1	-59.7	3.8	1.49e+00	0	62	104	791674880	60	20843
2026-01-24 08:29:08.94	355.32	6.09	-45.1	-59.7	3.8	1.49e+00	0	61	104	791674880	60	20855
2026-01-24 08:29:09.96	355.22	6.03	-45.1	-59.7	3.8	1.49e+00	0	61	104	791674880	60	20825
2026-01-24 08:29:10.97	355.13	5.97	-45.1	-59.7	3.8	1.49e+00	0	61	104	791674880	60	20901
2026-01-24 08:29:11.98	355.05	5.91	-45.1	-59.7	3.8	1.49e+00	0	62	104	791674880	60	20857
2026-01-24 08:29:12.99	354.96	5.85	-45.1	-59.7	3.8	1.49e+00	0	61	104	791674880	60	20854
2026-01-24 08:29:14.00	354.87	5.78	-45.1	-59.7	3.8	1.49e+00	0	62	104	791674880	60	20798
2026-01-24 08:29:15.01	354.78	5.72	-45.1	-59.7	3.8	1.49e+00	0	62	104	791674880	60	20838
2026-01-24 08:29:16.02	354.69	5.66	-45.0	-59.7	3.8	1.49e+00	0	61	104	791674880	60	20795
2026-01-24 08:29:17.03	354.61	5.60	-45.1	-59.7	3.8	1.49e+00	0	61	104	791674880	60	20803
2026-01-24 08:29:18.04	354.52	5.54	-45.1	-59.7	3.8	1.49e+00	0	62	104	791674880	60	20839
2026-01-24 08:29:19.05	354.43	5.48	-45.0	-59.6	3.8	1.49e+00	0	61	104	791674880	60	20754
2026-01-24 08:29:20.06	354.35	5.42	-45.1	-59.6	3.8	1.49e+00	0	61	104	791674880	60	20768
2026-01-24 08:29:21.07	354.26	5.36	-45.1	-59.7	3.8	1.49e+00	0	61	104	791674880	60	20796
2026-01-24 08:29:22.08	354.18	5.30	-45.1	-59.7	3.8	1.49e+00	0	61	104	791674880	60	20780
2026-01-24 08:29:23.09	354.09	5.24	-45.0	-59.6	3.8	1.49e+00	0	61	104	791674880	60	20767
2026-01-24 08:29:24.10	354.01	5.18	-45.1	-59.6	3.8	1.49e+00	0	62	104	791674880	60	20763
2026-01-24 08:29:25.11	353.92	5.12	-45.1	-59.6	3.8	1.49e+00	0	62	104	791674880	60	20741
2026-01-24 08:29:26.12	353.84	5.06	-45.1	-59.7	3.8	1.49e+00	0	61	104	791674880	60	20895
2026-01-24 08:29:27.13	353.76	5.00	-44.8	-59.6	3.8	1.49e+00	0	61	104	791674880	60	20775
2026-01-24 08:29:28.14	353.67	4.94	-45.1	-59.7	3.8	1.49e+00	0	62	104	791674880	60	20798
2026-01-24 08:29:29.15	353.59	4.88	-45.1	-59.7	3.8	1.49e+00	0	61	104	791674880	60	20820
2026-01-24 08:29:30.16	353.51	4.82	-45.1	-59.6	3.8	1.49e+00	0	61	104	791674880	60	20752
2026-01-24 08:29:31.17	353.43	4.76	-45.1	-59.7	3.8	1.49e+00	0	62	104	791674880	60	20822
2026-01-24 08:29:32.18	353.34	4.70	-45.1	-59.7	3.8	1.49e+00	0	61	104	791674880	60	20786
2026-01-24 08:29:33.20	353.26	4.64	-45.1	-59.7	3.8	1.49e+00	0	62	104	791674880	60	20792
2026-01-24 08:29:34.21	353.18	4.58	-45.1	-59.7	3.8	1.49e+00	0	61	104	791674880	60	20785
2026-01-24 08:29:35.22	353.10	4.52	-45.1	-59.7	3.8	1.49e+00	0	62	104	791674880	60	20816
2026-01-24 08:29:36.23	353.02	4.46	-45.1	-59.6	3.8	1.49e+00	0	62	104	791674880	60	20742
2026-01-24 08:29:37.24	352.94	4.40	-45.1	-59.7	3.8	1.49e+00	0	62	104	791674880	60	20781
2026-01-24 08:29:38.25	352.86	4.34	-45.0	-59.6	3.8	1.49e+00	0	62	104	791674880	60	20710
2026-01-24 08:29:39.26	352.78	4.28	-44.7	-59.6	3.8	1.49e+00	0	62	104	791674880	60	20707
2026-01-24 08:29:40.27	352.70	4.22	-45.1	-59.6	3.8	1.49e+00	0	62	104	791674880	60	20695
2026-01-24 08:29:41.28	352.62	4.16	-45.0	-59.6	3.8	1.49e+00	0	62	104	791674880	60	20730
2026-01-24 08:29:42.29	352.55	4.10	-45.0	-59.6	3.8	1.49e+00	0	62	104	791674880	60	20670
