passes_logs/2026/01/24/R2.0S_Moscow/R2.0S_Moscow__20260124_110749_NOAA_21_JPSS-2_rec.log

#Pass ID: 20260124_110749_NOAA 21 (JPSS-2)
#Satellite: NOAA 21 (JPSS-2)
#Configuration: NOAA-21
#almurnet v.1.7.20251203
#Start time: 2026-01-24 11:08:20

#Version: 2.2.20231116
#Station: R2.0S_Moscow
#Location: 37.707566 lon 55.798166 lat
#TLE: 1 54234U 22150A   26023.61190495  .00000215  00000+0  12293-3 0  9993
#TLE: 2 54234  98.7508 324.4078 0000700 226.6110 133.5008 14.19538339166032

#Time	Az	El	Level	Level2	SNR	BER	BlckErr	Temp	State	Recorded	gain1	gain2
2026-01-24 11:08:20.49	198.67	3.89	-45.0	-56.8	3.8	8.46e-01	0	61	0	0	60	14890
2026-01-24 11:08:21.49	198.73	3.95	-45.3	-57.7	3.8	1.49e+00	0	61	104	0	62	14785
2026-01-24 11:08:22.50	198.80	4.01	-45.3	-57.7	3.8	1.49e+00	0	61	104	0	62	14872
2026-01-24 11:08:23.51	198.86	4.07	-45.3	-57.7	3.8	1.49e+00	0	62	104	0	62	14823
2026-01-24 11:08:24.52	198.93	4.14	-45.3	-57.7	3.8	1.49e+00	0	62	104	0	62	14830
2026-01-24 11:08:25.53	198.99	4.20	-45.2	-57.7	3.8	1.49e+00	0	62	104	0	62	14755
2026-01-24 11:08:26.54	199.06	4.26	-45.2	-57.6	3.8	1.49e+00	0	62	104	0	62	14653
2026-01-24 11:08:27.55	199.13	4.33	-45.0	-57.4	3.8	1.49e+00	0	61	104	0	61	15175
2026-01-24 11:08:28.57	199.19	4.39	-44.7	-57.2	3.8	1.49e+00	0	62	104	0	61	14855
2026-01-24 11:08:29.58	199.26	4.46	-43.5	-55.4	3.8	1.49e+00	0	62	104	0	59	13494
2026-01-24 11:08:30.59	199.33	4.52	-38.0	-51.0	3.8	1.49e+00	0	62	104	0	47	16163
2026-01-24 11:08:31.60	199.40	4.58	-43.9	-56.3	3.8	1.49e+00	0	61	104	0	58	15823
2026-01-24 11:08:32.61	199.46	4.65	-44.0	-56.2	3.8	1.49e+00	0	62	104	0	59	14741
2026-01-24 11:08:33.62	199.53	4.71	-43.9	-56.1	3.8	1.49e+00	0	61	104	0	59	14694
2026-01-24 11:08:34.63	199.60	4.77	-43.9	-56.1	3.8	1.49e+00	0	61	104	0	59	14637
2026-01-24 11:08:35.64	199.67	4.84	-43.9	-56.2	3.8	1.49e+00	0	62	104	0	59	14710
2026-01-24 11:08:36.65	199.74	4.90	-43.9	-56.2	3.8	1.49e+00	0	62	104	0	59	14723
2026-01-24 11:08:37.66	199.81	4.97	-43.9	-56.1	3.8	1.49e+00	0	62	104	0	59	14707
2026-01-24 11:08:38.67	199.88	5.03	-43.9	-56.1	3.8	1.49e+00	0	62	104	0	59	14692
2026-01-24 11:08:39.68	199.95	5.10	-43.9	-56.1	3.8	1.49e+00	0	61	104	0	59	14631
2026-01-24 11:08:40.69	200.02	5.16	-43.9	-56.1	3.8	1.49e+00	0	62	104	0	59	14663
2026-01-24 11:08:41.70	200.09	5.23	-43.9	-56.1	3.8	1.49e+00	0	62	104	0	59	14700
2026-01-24 11:08:42.71	200.16	5.29	-43.9	-56.0	3.8	1.49e+00	0	61	104	0	59	14539
2026-01-24 11:08:43.73	200.23	5.36	-43.9	-56.0	3.8	1.49e+00	0	62	104	0	59	14445
2026-01-24 11:08:44.74	200.30	5.42	-43.9	-56.0	3.8	1.49e+00	0	62	104	0	59	14378
2026-01-24 11:08:45.75	200.37	5.49	-43.9	-55.9	3.8	1.49e+00	0	62	104	0	59	14271
2026-01-24 11:08:46.76	200.45	5.55	-43.9	-55.9	3.8	1.49e+00	0	61	104	0	59	14216
2026-01-24 11:08:47.77	200.52	5.62	-43.9	-55.9	3.8	1.49e+00	0	62	104	0	59	14246
2026-01-24 11:08:48.78	200.59	5.69	-43.9	-55.9	3.8	1.49e+00	0	61	104	0	59	14314
2026-01-24 11:08:49.79	200.67	5.75	-43.9	-55.7	3.8	1.49e+00	0	62	104	0	59	13956
2026-01-24 11:08:50.80	200.74	5.82	-43.8	-55.4	3.8	1.49e+00	0	62	104	0	59	13558
2026-01-24 11:08:51.81	200.81	5.88	-43.8	-54.9	3.8	1.49e+00	0	62	104	0	59	12789
2026-01-24 11:08:52.82	200.89	5.95	-43.7	-54.3	3.8	1.49e+00	0	62	104	0	59	11883
2026-01-24 11:08:53.83	200.96	6.02	-43.6	-53.3	4.0	1.48e+00	0	62	104	0	59	10612
2026-01-24 11:08:54.84	201.04	6.08	-43.6	-53.3	3.9	1.47e+00	0	62	104	0	59	10627
2026-01-24 11:08:55.85	201.11	6.15	-43.5	-52.3	4.2	1.46e+00	0	62	104	0	59	9460
2026-01-24 11:08:56.85	201.18	6.22	-43.5	-52.6	3.9	1.44e+00	0	62	104	0	58	10355
2026-01-24 11:08:57.86	201.26	6.28	-43.4	-51.7	4.5	1.39e+00	0	62	104	0	58	9354
2026-01-24 11:08:58.88	201.34	6.35	-43.3	-52.0	4.0	1.12e+00	0	61	104	0	58	9627
2026-01-24 11:08:59.89	201.41	6.42	-43.2	-50.8	4.9	9.76e-01	0	62	104	0	58	8398
2026-01-24 11:09:00.89	201.49	6.49	-43.1	-50.3	5.2	6.60e-01	0	62	0	2097152	58	7955
2026-01-24 11:09:01.90	201.57	6.55	-43.0	-49.9	5.4	5.26e-01	0	62	0	5242880	58	7559
2026-01-24 11:09:02.91	201.64	6.62	-43.0	-49.7	5.5	4.83e-01	0	62	0	8388608	57	7813
2026-01-24 11:09:03.92	201.72	6.69	-43.0	-49.7	5.5	4.64e-01	0	62	0	11534336	57	7875
2026-01-24 11:09:04.93	201.80	6.76	-43.0	-49.9	5.4	5.25e-01	0	62	0	14680064	57	8065
2026-01-24 11:09:05.94	201.88	6.83	-43.0	-49.9	5.4	5.37e-01	0	62	0	17825792	57	7999
2026-01-24 11:09:06.95	201.96	6.89	-42.9	-49.6	5.5	4.80e-01	0	62	0	20971520	57	7798
2026-01-24 11:09:07.96	202.04	6.96	-43.1	-50.4	5.1	5.62e-01	0	61	0	24117248	57	8506
2026-01-24 11:09:08.97	202.12	7.03	-43.2	-51.4	4.0	7.72e-01	2	61	104	27262976	57	9604
2026-01-24 11:09:09.98	202.19	7.10	-43.2	-50.6	5.0	7.30e-01	0	62	0	28311552	57	8737
2026-01-24 11:09:10.99	202.28	7.17	-43.1	-50.4	5.1	7.02e-01	0	62	0	31457280	57	8511
2026-01-24 11:09:12.00	202.36	7.24	-42.9	-49.7	5.5	5.03e-01	0	62	0	34603008	57	7811
2026-01-24 11:09:13.01	202.44	7.31	-42.8	-49.1	5.9	3.69e-01	0	62	0	37748736	57	7304
2026-01-24 11:09:14.02	202.52	7.38	-42.6	-48.4	6.5	2.72e-01	0	61	0	40894464	57	6788
2026-01-24 11:09:15.03	202.60	7.45	-42.3	-47.6	7.1	1.66e-01	0	62	0	44040192	56	6552
2026-01-24 11:09:16.04	202.68	7.52	-42.1	-47.0	7.7	1.01e-01	0	61	0	47185920	56	6120
2026-01-24 11:09:17.06	202.76	7.59	-41.6	-46.0	8.5	5.03e-02	0	62	0	50331648	55	5774
2026-01-24 11:09:18.07	202.85	7.66	-41.4	-45.4	9.2	2.30e-02	0	62	0	53477376	54	5716
2026-01-24 11:09:19.08	202.93	7.73	-41.3	-45.2	9.3	1.82e-02	0	61	0	56623104	54	5581
2026-01-24 11:09:20.09	203.01	7.80	-40.9	-44.5	10.1	8.53e-03	0	62	0	59768832	53	5441
2026-01-24 11:09:21.10	203.10	7.87	-40.8	-44.4	10.3	5.22e-03	0	62	0	62914560	53	5346
2026-01-24 11:09:22.11	203.18	7.94	-40.9	-44.4	10.2	5.86e-03	0	62	0	66060288	53	5393
2026-01-24 11:09:23.12	203.27	8.01	-40.8	-44.4	10.2	5.81e-03	0	62	0	69206016	53	5366
2026-01-24 11:09:24.13	203.35	8.08	-40.9	-44.5	10.1	6.35e-03	0	62	0	72351744	53	5447
2026-01-24 11:09:25.14	203.44	8.15	-43.4	-51.7	4.0	1.42e+00	0	62	104	74448896	57	9844
2026-01-24 11:09:26.15	203.52	8.22	-41.5	-45.4	9.4	3.41e-02	0	62	0	76546048	55	5359
2026-01-24 11:09:27.16	203.61	8.29	-43.1	-51.6	4.0	1.26e+00	0	62	104	78643200	56	10319
2026-01-24 11:09:28.18	203.70	8.36	-43.6	-55.0	3.8	1.49e+00	0	62	104	78643200	57	14390
2026-01-24 11:09:29.19	203.78	8.43	-42.5	-47.7	7.2	4.02e-02	0	61	0	79691776	55	7030
2026-01-24 11:09:30.20	203.87	8.51	-41.0	-44.4	10.5	3.81e-03	0	62	0	82837504	53	5381
2026-01-24 11:09:31.21	203.96	8.58	-40.9	-44.3	10.6	3.80e-03	0	62	0	85983232	53	5321
2026-01-24 11:09:32.22	204.05	8.65	-40.6	-43.9	11.0	1.99e-03	0	62	0	89128960	53	5042
2026-01-24 11:09:33.23	204.14	8.72	-40.6	-43.7	11.1	1.56e-03	0	62	0	92274688	53	4960
2026-01-24 11:09:34.24	204.23	8.79	-40.4	-43.6	11.3	1.28e-03	0	62	0	95420416	52	5160
2026-01-24 11:09:35.25	204.32	8.87	-40.4	-43.5	11.3	1.07e-03	0	61	0	98566144	52	5118
2026-01-24 11:09:36.26	204.41	8.94	-40.4	-43.5	11.3	1.33e-03	0	62	0	101711872	52	5122
2026-01-24 11:09:37.27	204.50	9.01	-40.3	-43.4	11.2	1.30e-03	0	61	0	104857600	52	5099
2026-01-24 11:09:38.28	204.59	9.08	-40.3	-43.4	11.3	1.27e-03	0	62	0	108003328	52	5059
2026-01-24 11:09:39.29	204.68	9.16	-40.3	-43.5	11.1	1.55e-03	0	61	0	111149056	52	5126
2026-01-24 11:09:40.30	204.77	9.23	-40.3	-43.4	11.3	1.16e-03	0	62	0	114294784	52	5052
2026-01-24 11:09:41.31	204.86	9.30	-40.2	-43.2	11.4	1.09e-03	0	62	0	117440512	52	4980
2026-01-24 11:09:42.32	204.96	9.38	-40.3	-43.3	11.3	1.15e-03	0	62	0	120586240	52	5028
2026-01-24 11:09:43.33	205.05	9.45	-40.2	-43.2	11.5	9.41e-04	0	62	0	123731968	52	4946
2026-01-24 11:09:44.34	205.14	9.52	-40.2	-43.1	11.6	7.45e-04	0	62	0	126877696	52	4894
2026-01-24 11:09:45.35	205.24	9.60	-40.2	-43.1	11.7	6.06e-04	0	62	0	130023424	52	4905
2026-01-24 11:09:46.36	205.33	9.67	-40.1	-43.0	11.8	5.13e-04	0	62	0	133169152	52	4856
2026-01-24 11:09:47.37	205.43	9.75	-40.2	-43.0	11.8	4.42e-04	0	62	0	136314880	52	4850
2026-01-24 11:09:48.38	205.52	9.82	-40.2	-43.0	11.8	4.52e-04	0	62	0	139460608	52	4866
2026-01-24 11:09:49.39	205.62	9.89	-40.2	-43.1	11.9	4.38e-04	0	62	0	142606336	52	4880
2026-01-24 11:09:50.40	205.71	9.97	-40.2	-43.0	11.9	3.69e-04	0	62	0	145752064	52	4848
2026-01-24 11:09:51.41	205.81	10.04	-40.1	-42.9	12.1	3.42e-04	0	61	0	148897792	52	4796
2026-01-24 11:09:52.42	205.91	10.12	-40.2	-43.0	12.1	2.92e-04	0	62	0	152043520	52	4822
2026-01-24 11:09:53.42	206.00	10.19	-40.1	-42.9	12.1	2.39e-04	0	62	0	155189248	52	4811
2026-01-24 11:09:54.43	206.10	10.27	-40.2	-43.0	12.1	2.67e-04	0	62	0	158334976	52	4845
2026-01-24 11:09:55.44	206.20	10.34	-40.2	-43.0	12.1	3.05e-04	0	62	0	161480704	52	4865
2026-01-24 11:09:56.45	206.30	10.42	-40.2	-43.0	12.2	2.76e-04	0	62	0	164626432	52	4821
2026-01-24 11:09:57.46	206.40	10.50	-40.2	-42.9	12.2	2.34e-04	0	62	0	167772160	52	4809
2026-01-24 11:09:58.47	206.50	10.57	-40.2	-42.9	12.2	2.08e-04	0	62	0	170917888	52	4804
2026-01-24 11:09:59.48	206.60	10.65	-40.1	-42.9	12.3	1.82e-04	0	62	0	174063616	52	4794
2026-01-24 11:10:00.49	206.70	10.72	-40.2	-42.9	12.3	1.70e-04	0	62	0	177209344	52	4807
2026-01-24 11:10:01.50	206.80	10.80	-40.1	-42.9	12.3	1.49e-04	0	62	0	180355072	52	4784
2026-01-24 11:10:02.51	206.91	10.88	-40.2	-42.9	12.3	1.58e-04	0	62	0	183500800	52	4808
2026-01-24 11:10:03.52	207.01	10.95	-40.1	-42.9	12.3	1.68e-04	0	62	0	186646528	52	4781
2026-01-24 11:10:04.53	207.11	11.03	-40.1	-42.8	12.4	1.65e-04	0	62	0	189792256	52	4754
2026-01-24 11:10:05.54	207.22	11.11	-40.1	-42.8	12.3	1.54e-04	0	62	0	192937984	52	4751
2026-01-24 11:10:06.55	207.32	11.18	-40.1	-42.8	12.4	1.84e-04	0	62	0	196083712	52	4729
2026-01-24 11:10:07.56	207.43	11.26	-40.1	-42.7	12.4	1.50e-04	0	62	0	199229440	52	4697
2026-01-24 11:10:08.57	207.53	11.34	-40.0	-42.7	12.5	1.31e-04	0	62	0	202375168	52	4674
2026-01-24 11:10:09.58	207.64	11.42	-40.0	-42.7	12.5	1.46e-04	0	62	0	205520896	52	4669
2026-01-24 11:10:10.58	207.74	11.49	-40.0	-42.7	12.5	1.53e-04	0	62	0	208666624	52	4680
2026-01-24 11:10:11.59	207.85	11.57	-40.0	-42.6	12.5	1.04e-04	0	62	0	211812352	52	4648
2026-01-24 11:10:12.60	207.96	11.65	-40.0	-42.6	12.6	1.06e-04	0	62	0	214958080	51	4916
2026-01-24 11:10:13.61	208.07	11.73	-40.1	-42.7	12.6	1.02e-04	0	62	0	218103808	51	4937
2026-01-24 11:10:14.62	208.17	11.81	-40.0	-42.6	12.7	6.25e-05	0	62	0	221249536	51	4904
2026-01-24 11:10:15.63	208.28	11.88	-40.1	-42.6	12.7	7.47e-05	0	62	0	224395264	51	4921
2026-01-24 11:10:16.64	208.39	11.96	-40.0	-42.6	12.7	8.92e-05	0	62	0	227540992	51	4891
2026-01-24 11:10:17.65	208.50	12.04	-40.0	-42.5	12.9	8.23e-05	0	62	0	230686720	51	4836
2026-01-24 11:10:18.65	208.61	12.12	-40.0	-42.5	12.9	4.65e-05	0	62	0	233832448	51	4867
2026-01-24 11:10:19.66	208.73	12.20	-40.0	-42.5	13.0	5.26e-05	0	62	0	236978176	51	4830
2026-01-24 11:10:20.67	208.84	12.28	-40.0	-42.4	13.0	4.50e-05	0	62	0	240123904	51	4812
2026-01-24 11:10:21.69	208.95	12.36	-40.0	-42.4	13.0	3.58e-05	0	62	0	243269632	51	4810
2026-01-24 11:10:22.70	209.07	12.44	-40.0	-42.5	13.0	3.12e-05	0	62	0	246415360	51	4837
2026-01-24 11:10:23.71	209.18	12.52	-40.1	-42.6	13.0	4.80e-05	0	62	0	249561088	51	4885
2026-01-24 11:10:24.72	209.29	12.60	-40.1	-42.6	13.0	4.50e-05	0	62	0	252706816	51	4888
2026-01-24 11:10:25.73	209.41	12.68	-40.0	-42.4	13.1	3.05e-05	0	62	0	255852544	51	4811
2026-01-24 11:10:26.74	209.52	12.76	-39.9	-42.3	13.2	2.97e-05	0	62	0	258998272	51	4736
2026-01-24 11:10:27.75	209.64	12.84	-39.9	-42.2	13.3	1.44e-05	0	62	0	262144000	51	4698
2026-01-24 11:10:28.76	209.76	12.92	-39.9	-42.3	13.3	1.83e-05	0	62	0	265289728	51	4724
2026-01-24 11:10:29.77	209.88	13.00	-39.9	-42.3	13.3	3.12e-05	0	62	0	268435456	51	4730
2026-01-24 11:10:30.78	209.99	13.08	-39.8	-42.2	13.4	2.51e-05	0	62	0	271581184	51	4669
2026-01-24 11:10:31.79	210.11	13.16	-39.8	-42.2	13.4	1.98e-05	0	62	0	274726912	51	4678
2026-01-24 11:10:32.80	210.23	13.25	-39.9	-42.3	13.3	2.05e-05	0	62	0	277872640	51	4739
2026-01-24 11:10:33.81	210.35	13.33	-39.8	-42.2	13.4	1.90e-05	0	62	0	281018368	51	4671
2026-01-24 11:10:34.82	210.47	13.41	-39.8	-42.2	13.4	8.30e-06	0	62	0	284164096	51	4663
2026-01-24 11:10:35.83	210.59	13.49	-39.8	-42.2	13.4	1.06e-05	0	62	0	287309824	51	4685
2026-01-24 11:10:36.84	210.72	13.57	-39.9	-42.3	13.4	1.83e-05	0	62	0	290455552	51	4706
2026-01-24 11:10:37.85	210.84	13.65	-39.9	-42.4	13.3	1.90e-05	0	62	0	293601280	51	4773
2026-01-24 11:10:38.86	210.96	13.74	-39.8	-42.2	13.4	1.98e-05	0	62	0	296747008	51	4685
2026-01-24 11:10:39.87	211.09	13.82	-39.9	-42.3	13.3	1.22e-05	0	62	0	299892736	51	4723
2026-01-24 11:10:40.88	211.21	13.90	-40.0	-42.4	13.3	1.83e-05	0	62	0	303038464	51	4773
2026-01-24 11:10:41.89	211.34	13.98	-39.9	-42.3	13.3	2.59e-05	0	62	0	306184192	51	4757
2026-01-24 11:10:42.90	211.46	14.07	-39.9	-42.3	13.3	1.60e-05	0	62	0	309329920	51	4746
2026-01-24 11:10:43.91	211.59	14.15	-39.9	-42.2	13.4	1.90e-05	0	62	0	312475648	51	4697
2026-01-24 11:10:44.92	211.72	14.23	-40.0	-42.4	13.2	2.28e-05	0	62	0	315621376	51	4781
2026-01-24 11:10:45.93	211.84	14.32	-39.9	-42.3	13.3	2.05e-05	0	62	0	318767104	51	4750
2026-01-24 11:10:46.94	211.97	14.40	-39.9	-42.3	13.3	1.52e-05	0	62	0	322961408	51	4718
2026-01-24 11:10:47.95	212.10	14.48	-39.8	-42.1	13.5	8.30e-06	0	62	0	326107136	51	4638
2026-01-24 11:10:48.96	212.23	14.57	-39.8	-42.1	13.5	1.06e-05	0	62	0	328204288	51	4629
2026-01-24 11:10:49.98	212.37	14.65	-39.8	-42.2	13.5	1.29e-05	0	62	0	331350016	51	4656
2026-01-24 11:10:50.98	212.50	14.74	-39.8	-42.2	13.4	1.60e-05	0	62	0	334495744	51	4675
2026-01-24 11:10:51.99	212.63	14.82	-39.8	-42.2	13.5	7.60e-06	0	62	0	338690048	51	4662
2026-01-24 11:10:53.00	212.76	14.90	-40.0	-42.4	13.3	1.75e-05	0	62	0	341835776	51	4766
2026-01-24 11:10:54.01	212.90	14.99	-39.9	-42.3	13.3	1.06e-05	0	62	0	344981504	51	4744
2026-01-24 11:10:55.02	213.03	15.07	-40.0	-42.4	13.3	1.29e-05	0	62	0	348127232	51	4796
2026-01-24 11:10:56.03	213.17	15.16	-39.9	-42.3	13.3	1.37e-05	0	62	0	351272960	51	4746
2026-01-24 11:10:57.04	213.30	15.24	-40.0	-42.4	13.3	2.89e-05	0	62	0	353370112	51	4781
2026-01-24 11:10:58.05	213.44	15.33	-40.0	-42.4	13.3	2.82e-05	0	62	0	357564416	51	4777
2026-01-24 11:10:59.06	213.58	15.41	-40.0	-42.4	13.3	1.98e-05	0	62	0	360710144	51	4772
2026-01-24 11:11:00.07	213.71	15.50	-40.0	-42.4	13.2	1.22e-05	0	62	0	363855872	51	4814
2026-01-24 11:11:01.08	213.85	15.59	-40.0	-42.4	13.3	1.90e-05	0	62	0	367001600	51	4767
2026-01-24 11:11:02.09	213.99	15.67	-39.9	-42.3	13.4	2.13e-05	0	62	0	370147328	51	4738
2026-01-24 11:11:03.10	214.13	15.76	-40.0	-42.3	13.3	1.83e-05	0	62	0	373293056	51	4746
2026-01-24 11:11:04.11	214.28	15.84	-40.0	-42.4	13.3	1.98e-05	0	62	0	376438784	51	4781
2026-01-24 11:11:05.12	214.42	15.93	-40.1	-42.5	13.2	2.74e-05	0	62	0	379584512	51	4855
2026-01-24 11:11:06.13	214.56	16.02	-40.0	-42.4	13.3	1.98e-05	0	62	0	382730240	51	4809
2026-01-24 11:11:07.14	214.70	16.10	-40.1	-42.5	13.2	2.59e-05	0	62	0	385875968	51	4826
2026-01-24 11:11:08.15	214.85	16.19	-40.1	-42.5	13.2	2.36e-05	0	62	0	389021696	51	4856
2026-01-24 11:11:09.16	214.99	16.28	-40.0	-42.4	13.3	2.28e-05	0	62	0	392167424	51	4805
2026-01-24 11:11:10.17	215.14	16.36	-40.1	-42.5	13.2	1.90e-05	0	62	0	395313152	51	4868
2026-01-24 11:11:11.19	215.29	16.45	-40.1	-42.6	13.2	2.97e-05	0	62	0	398458880	51	4888
2026-01-24 11:11:12.20	215.44	16.54	-40.1	-42.5	13.2	1.98e-05	0	62	0	401604608	51	4842
2026-01-24 11:11:13.21	215.59	16.62	-40.0	-42.5	13.3	1.22e-05	0	62	0	404750336	51	4822
2026-01-24 11:11:14.22	215.74	16.71	-40.1	-42.5	13.2	2.36e-05	0	62	0	407896064	51	4836
2026-01-24 11:11:15.23	215.89	16.80	-40.1	-42.5	13.3	1.75e-05	0	62	0	411041792	51	4830
2026-01-24 11:11:16.24	216.04	16.89	-40.1	-42.5	13.2	2.36e-05	0	62	0	414187520	51	4864
2026-01-24 11:11:17.25	216.19	16.97	-40.0	-42.4	13.3	3.28e-05	0	62	0	417333248	51	4803
2026-01-24 11:11:18.26	216.34	17.06	-40.0	-42.4	13.3	1.60e-05	0	62	0	420478976	51	4813
2026-01-24 11:11:19.27	216.50	17.15	-40.0	-42.4	13.3	1.83e-05	0	62	0	423624704	51	4779
2026-01-24 11:11:20.28	216.65	17.24	-40.0	-42.4	13.3	2.05e-05	0	62	0	426770432	51	4794
2026-01-24 11:11:21.29	216.81	17.33	-40.0	-42.4	13.3	1.44e-05	0	62	0	429916160	51	4809
2026-01-24 11:11:22.29	216.96	17.41	-40.0	-42.4	13.4	1.52e-05	0	62	0	433061888	51	4794
2026-01-24 11:11:23.30	217.12	17.50	-40.0	-42.4	13.4	1.67e-05	0	62	0	436207616	51	4793
2026-01-24 11:11:24.31	217.28	17.59	-40.1	-42.4	13.4	1.67e-05	0	62	0	439353344	51	4804
2026-01-24 11:11:25.33	217.44	17.68	-40.0	-42.4	13.4	1.60e-05	0	62	0	442499072	51	4791
2026-01-24 11:11:26.33	217.60	17.77	-40.0	-42.4	13.4	1.52e-05	0	62	0	445644800	51	4786
2026-01-24 11:11:27.35	217.76	17.86	-40.0	-42.4	13.5	1.37e-05	0	62	0	448790528	51	4760
2026-01-24 11:11:28.36	217.92	17.95	-39.8	-42.1	13.7	4.50e-06	0	62	0	451936256	51	4636
2026-01-24 11:11:29.37	218.08	18.04	-39.8	-42.1	13.7	8.30e-06	0	62	0	455081984	51	4641
2026-01-24 11:11:30.38	218.25	18.13	-39.8	-42.0	13.8	3.00e-06	0	62	0	458227712	51	4572
2026-01-24 11:11:31.39	218.41	18.22	-39.7	-42.0	13.8	5.30e-06	0	62	0	461373440	51	4551
2026-01-24 11:11:32.40	218.58	18.30	-39.7	-41.9	14.0	2.20e-06	0	62	0	464519168	51	4496
2026-01-24 11:11:33.41	218.75	18.39	-39.6	-41.8	14.0	2.20e-06	0	62	0	467664896	51	4484
2026-01-24 11:11:34.42	218.91	18.48	-39.6	-41.8	14.0	3.00e-06	0	62	0	470810624	51	4491
2026-01-24 11:11:35.43	219.08	18.57	-39.7	-41.9	13.9	3.00e-06	0	62	0	473956352	51	4500
2026-01-24 11:11:36.44	219.25	18.66	-39.6	-41.8	14.0	2.20e-06	0	62	0	477102080	51	4454
2026-01-24 11:11:37.44	219.42	18.75	-39.7	-41.9	13.9	3.80e-06	0	62	0	480247808	51	4501
2026-01-24 11:11:38.45	219.59	18.84	-39.7	-41.9	13.9	3.00e-06	0	62	0	483393536	51	4525
2026-01-24 11:11:39.46	219.76	18.93	-39.6	-41.8	14.0	2.20e-06	0	62	0	486539264	51	4462
2026-01-24 11:11:40.47	219.94	19.02	-39.6	-41.8	14.0	7.00e-07	0	62	0	489684992	51	4466
2026-01-24 11:11:41.48	220.11	19.11	-39.6	-41.8	14.0	1.50e-06	0	62	0	492830720	51	4457
2026-01-24 11:11:42.49	220.29	19.20	-39.7	-41.9	13.9	5.30e-06	0	62	0	495976448	51	4536
2026-01-24 11:11:43.50	220.46	19.29	-39.6	-41.8	14.0	3.00e-06	0	62	0	499122176	51	4478
2026-01-24 11:11:44.51	220.64	19.38	-39.5	-41.6	14.2	7.00e-07	0	62	0	502267904	51	4391
2026-01-24 11:11:45.52	220.82	19.47	-39.6	-41.8	14.0	0.00e+00	0	62	0	505413632	51	4462
2026-01-24 11:11:46.53	221.00	19.56	-39.7	-41.9	14.0	3.80e-06	0	62	0	508559360	51	4508
2026-01-24 11:11:47.54	221.18	19.65	-39.6	-41.8	14.1	1.50e-06	0	62	0	511705088	51	4460
2026-01-24 11:11:48.55	221.36	19.75	-39.7	-41.9	13.9	3.00e-06	0	62	0	514850816	51	4535
2026-01-24 11:11:49.56	221.55	19.84	-39.7	-41.9	13.9	3.00e-06	0	62	0	517996544	51	4532
2026-01-24 11:11:50.57	221.73	19.93	-39.7	-41.9	14.0	3.80e-06	0	62	0	521142272	51	4502
2026-01-24 11:11:51.58	221.91	20.02	-39.7	-41.8	14.0	0.00e+00	0	62	0	524288000	51	4490
2026-01-24 11:11:52.59	222.10	20.11	-39.7	-42.0	13.9	6.10e-06	0	62	0	527433728	51	4547
2026-01-24 11:11:53.60	222.29	20.20	-39.7	-41.9	14.0	1.50e-06	0	62	0	530579456	51	4498
2026-01-24 11:11:54.60	222.47	20.29	-39.6	-41.7	14.1	7.00e-07	0	62	0	533725184	51	4440
2026-01-24 11:11:55.61	222.66	20.38	-39.5	-41.7	14.2	3.00e-06	0	62	0	536870912	51	4410
2026-01-24 11:11:56.62	222.85	20.47	-39.6	-41.7	14.2	7.00e-07	0	62	0	540016640	51	4432
2026-01-24 11:11:57.63	223.04	20.56	-39.6	-41.7	14.2	3.80e-06	0	62	0	543162368	51	4423
2026-01-24 11:11:58.64	223.24	20.65	-39.5	-41.6	14.3	1.50e-06	0	62	0	546308096	50	4607
2026-01-24 11:11:59.65	223.43	20.74	-39.4	-41.5	14.4	7.00e-07	0	62	0	549453824	50	4550
2026-01-24 11:12:00.66	223.62	20.83	-39.4	-41.4	14.4	0.00e+00	0	62	0	552599552	50	4533
2026-01-24 11:12:01.67	223.82	20.92	-39.3	-41.4	14.5	0.00e+00	0	62	0	555745280	50	4504
2026-01-24 11:12:02.68	224.02	21.02	-39.4	-41.4	14.5	7.00e-07	0	62	0	558891008	50	4528
2026-01-24 11:12:03.69	224.22	21.11	-39.3	-41.4	14.5	1.50e-06	0	62	0	562036736	50	4504
2026-01-24 11:12:04.70	224.41	21.20	-39.3	-41.3	14.5	1.50e-06	0	62	0	565182464	50	4480
2026-01-24 11:12:05.71	224.62	21.29	-39.2	-41.2	14.7	7.00e-07	0	62	0	568328192	50	4400
2026-01-24 11:12:06.72	224.82	21.38	-39.2	-41.2	14.6	0.00e+00	0	62	0	571473920	50	4441
2026-01-24 11:12:07.73	225.02	21.47	-39.2	-41.2	14.7	0.00e+00	0	62	0	574619648	50	4415
2026-01-24 11:12:08.74	225.22	21.56	-39.2	-41.2	14.7	0.00e+00	0	62	0	577765376	50	4424
2026-01-24 11:12:09.75	225.43	21.65	-39.2	-41.2	14.7	0.00e+00	0	62	0	580911104	50	4433
2026-01-24 11:12:10.76	225.63	21.74	-39.3	-41.3	14.6	7.00e-07	0	62	0	584056832	50	4467
2026-01-24 11:12:11.77	225.84	21.83	-39.3	-41.3	14.6	7.00e-07	0	62	0	587202560	50	4481
2026-01-24 11:12:12.77	226.05	21.92	-39.2	-41.2	14.6	0.00e+00	0	62	0	590348288	50	4440
2026-01-24 11:12:13.78	226.26	22.01	-39.2	-41.2	14.7	0.00e+00	0	62	0	593494016	50	4398
2026-01-24 11:12:14.80	226.47	22.10	-39.2	-41.2	14.7	0.00e+00	0	62	0	596639744	50	4407
2026-01-24 11:12:15.81	226.68	22.19	-39.2	-41.2	14.7	0.00e+00	0	62	0	599785472	50	4411
2026-01-24 11:12:16.82	226.90	22.28	-39.2	-41.2	14.7	0.00e+00	0	62	0	602931200	50	4431
2026-01-24 11:12:17.83	227.11	22.37	-39.2	-41.2	14.7	0.00e+00	0	62	0	606076928	50	4436
2026-01-24 11:12:18.84	227.33	22.46	-39.3	-41.3	14.6	0.00e+00	0	62	0	609222656	50	4459
2026-01-24 11:12:19.85	227.54	22.55	-39.3	-41.4	14.5	7.00e-07	0	62	0	612368384	50	4518
2026-01-24 11:12:20.85	227.76	22.64	-39.2	-41.2	14.7	0.00e+00	0	62	0	615514112	50	4416
2026-01-24 11:12:21.86	227.98	22.73	-39.2	-41.2	14.8	7.00e-07	0	62	0	618659840	50	4402
2026-01-24 11:12:22.87	228.20	22.82	-39.1	-41.1	14.8	0.00e+00	0	62	0	621805568	50	4373
2026-01-24 11:12:23.88	228.42	22.91	-39.1	-41.1	14.8	0.00e+00	0	62	0	624951296	50	4370
2026-01-24 11:12:24.89	228.64	23.00	-39.1	-41.1	14.8	0.00e+00	0	62	0	628097024	50	4347
2026-01-24 11:12:25.90	228.87	23.09	-39.1	-41.1	14.8	7.00e-07	0	62	0	631242752	50	4350
2026-01-24 11:12:26.91	229.09	23.18	-39.1	-41.1	14.7	0.00e+00	0	62	0	634388480	50	4388
2026-01-24 11:12:27.92	229.32	23.27	-39.2	-41.2	14.7	0.00e+00	0	62	0	637534208	50	4401
2026-01-24 11:12:28.93	229.55	23.36	-39.3	-41.3	14.6	0.00e+00	0	62	0	640679936	50	4447
2026-01-24 11:12:29.94	229.78	23.45	-39.2	-41.2	14.7	0.00e+00	0	62	0	643825664	50	4406
2026-01-24 11:12:30.95	230.01	23.53	-39.2	-41.2	14.6	0.00e+00	0	62	0	646971392	50	4438
2026-01-24 11:12:31.96	230.24	23.62	-39.3	-41.4	14.5	0.00e+00	0	62	0	650117120	50	4511
2026-01-24 11:12:32.97	230.47	23.71	-39.3	-41.4	14.6	0.00e+00	0	62	0	653262848	50	4501
2026-01-24 11:12:33.98	230.71	23.80	-39.4	-41.4	14.5	1.50e-06	0	62	0	656408576	50	4530
2026-01-24 11:12:34.99	230.94	23.89	-39.4	-41.5	14.4	0.00e+00	0	62	0	659554304	50	4597
2026-01-24 11:12:36.00	231.18	23.97	-39.5	-41.7	14.3	7.00e-07	0	62	0	663748608	50	4652
2026-01-24 11:12:37.01	231.42	24.06	-39.5	-41.7	14.3	3.00e-06	0	62	0	666894336	50	4656
2026-01-24 11:12:38.01	231.66	24.15	-39.5	-41.6	14.4	0.00e+00	0	62	0	668991488	50	4623
2026-01-24 11:12:39.02	231.90	24.23	-39.5	-41.6	14.3	7.00e-07	0	62	0	672137216	50	4625
2026-01-24 11:12:40.03	232.14	24.32	-39.5	-41.6	14.3	0.00e+00	0	62	0	675282944	50	4650
2026-01-24 11:12:41.04	232.38	24.41	-39.5	-41.6	14.3	7.00e-07	0	62	0	679477248	50	4600
2026-01-24 11:12:42.05	232.63	24.49	-39.5	-41.6	14.3	1.50e-06	0	62	0	682622976	50	4626
2026-01-24 11:12:43.06	232.87	24.58	-39.4	-41.5	14.4	1.50e-06	0	62	0	685768704	50	4570
2026-01-24 11:12:44.07	233.12	24.67	-39.5	-41.5	14.4	1.50e-06	0	62	0	688914432	50	4585
2026-01-24 11:12:45.08	233.37	24.75	-39.4	-41.5	14.4	7.00e-07	0	62	0	692060160	50	4570
2026-01-24 11:12:46.09	233.62	24.84	-39.5	-41.7	14.2	7.00e-07	0	62	0	694157312	50	4659
2026-01-24 11:12:47.10	233.87	24.92	-39.5	-41.5	14.4	0.00e+00	0	62	0	698351616	50	4594
2026-01-24 11:12:48.10	234.12	25.00	-39.4	-41.5	14.4	7.00e-07	0	62	0	701497344	50	4567
2026-01-24 11:12:49.11	234.38	25.09	-39.5	-41.5	14.3	0.00e+00	0	62	0	704643072	50	4598
2026-01-24 11:12:50.12	234.63	25.17	-39.5	-41.6	14.3	0.00e+00	0	62	0	707788800	50	4643
2026-01-24 11:12:51.13	234.89	25.26	-39.6	-41.7	14.2	7.00e-07	0	62	0	710934528	50	4678
2026-01-24 11:12:52.14	235.15	25.34	-39.6	-41.7	14.2	3.00e-06	0	62	0	714080256	50	4704
2026-01-24 11:12:53.15	235.41	25.42	-39.6	-41.7	14.2	0.00e+00	0	62	0	717225984	50	4666
2026-01-24 11:12:54.16	235.67	25.50	-39.6	-41.7	14.3	1.50e-06	0	62	0	720371712	50	4662
2026-01-24 11:12:55.17	235.93	25.59	-39.6	-41.8	14.2	0.00e+00	0	62	0	723517440	50	4722
2026-01-24 11:12:56.18	236.19	25.67	-39.5	-41.6	14.4	7.00e-07	0	62	0	726663168	50	4602
2026-01-24 11:12:57.19	236.46	25.75	-39.5	-41.6	14.4	2.20e-06	0	62	0	729808896	50	4604
2026-01-24 11:12:58.20	236.72	25.83	-39.5	-41.7	14.3	2.20e-06	0	62	0	732954624	50	4652
2026-01-24 11:12:59.21	236.99	25.91	-39.5	-41.6	14.3	0.00e+00	0	62	0	736100352	50	4617
2026-01-24 11:13:00.22	237.26	25.99	-39.5	-41.6	14.3	1.50e-06	0	62	0	739246080	50	4614
2026-01-24 11:13:01.23	237.53	26.07	-39.4	-41.5	14.4	0.00e+00	0	62	0	742391808	50	4583
2026-01-24 11:13:02.24	237.80	26.15	-39.4	-41.5	14.4	7.00e-07	0	62	0	745537536	50	4587
2026-01-24 11:13:03.25	238.07	26.23	-39.4	-41.5	14.5	1.50e-06	0	62	0	748683264	50	4566
2026-01-24 11:13:04.26	238.35	26.31	-39.5	-41.6	14.4	7.00e-07	0	62	0	751828992	50	4602
2026-01-24 11:13:05.27	238.62	26.38	-39.5	-41.6	14.3	7.00e-07	0	62	0	754974720	50	4625
2026-01-24 11:13:06.28	238.90	26.46	-39.5	-41.5	14.4	7.00e-07	0	62	0	758120448	50	4586
2026-01-24 11:13:07.29	239.18	26.54	-39.4	-41.5	14.4	1.50e-06	0	62	0	761266176	50	4576
2026-01-24 11:13:08.30	239.46	26.61	-39.3	-41.4	14.5	0.00e+00	0	62	0	764411904	50	4504
2026-01-24 11:13:09.31	239.74	26.69	-39.4	-41.5	14.4	0.00e+00	0	62	0	767557632	50	4549
2026-01-24 11:13:10.32	240.02	26.77	-39.4	-41.4	14.5	7.00e-07	0	62	0	770703360	50	4534
2026-01-24 11:13:11.33	240.30	26.84	-39.4	-41.5	14.4	0.00e+00	0	62	0	773849088	50	4571
2026-01-24 11:13:12.34	240.59	26.92	-39.3	-41.4	14.5	0.00e+00	0	62	0	776994816	50	4506
2026-01-24 11:13:13.35	240.87	26.99	-39.4	-41.5	14.4	0.00e+00	0	62	0	780140544	50	4562
2026-01-24 11:13:14.36	241.16	27.06	-39.5	-41.6	14.3	7.00e-07	0	62	0	783286272	50	4614
2026-01-24 11:13:15.37	241.45	27.14	-39.4	-41.4	14.4	0.00e+00	0	62	0	786432000	50	4533
2026-01-24 11:13:16.38	241.74	27.21	-39.3	-41.3	14.6	0.00e+00	0	62	0	789577728	50	4464
2026-01-24 11:13:17.39	242.03	27.28	-39.2	-41.2	14.6	0.00e+00	0	62	0	792723456	50	4421
2026-01-24 11:13:18.40	242.32	27.35	-39.3	-41.2	14.6	1.50e-06	0	62	0	795869184	50	4438
2026-01-24 11:13:19.41	242.61	27.42	-39.2	-41.2	14.6	0.00e+00	0	62	0	799014912	50	4422
2026-01-24 11:13:20.42	242.91	27.49	-39.3	-41.3	14.5	7.00e-07	0	62	0	802160640	50	4468
2026-01-24 11:13:21.43	243.20	27.56	-39.3	-41.4	14.5	7.00e-07	0	62	0	805306368	50	4498
2026-01-24 11:13:22.44	243.50	27.63	-39.4	-41.4	14.5	0.00e+00	0	62	0	808452096	50	4519
2026-01-24 11:13:23.45	243.80	27.69	-39.4	-41.4	14.5	7.00e-07	0	62	0	811597824	50	4536
2026-01-24 11:13:24.46	244.10	27.76	-39.4	-41.4	14.5	7.00e-07	0	62	0	814743552	50	4519
2026-01-24 11:13:25.47	244.40	27.83	-39.4	-41.5	14.4	1.50e-06	0	62	0	817889280	50	4582
2026-01-24 11:13:26.48	244.70	27.89	-39.3	-41.3	14.6	0.00e+00	0	62	0	821035008	50	4447
2026-01-24 11:13:27.49	245.01	27.96	-39.3	-41.3	14.6	2.20e-06	0	62	0	824180736	50	4464
2026-01-24 11:13:28.50	245.31	28.02	-39.4	-41.5	14.4	0.00e+00	0	62	0	827326464	50	4556
2026-01-24 11:13:29.51	245.62	28.09	-39.6	-41.7	14.3	1.50e-06	0	62	0	830472192	50	4662
2026-01-24 11:13:30.52	245.92	28.15	-39.6	-41.8	14.1	2.20e-06	0	62	0	833617920	50	4730
2026-01-24 11:13:31.53	246.23	28.21	-39.7	-41.8	14.1	7.00e-07	0	62	0	836763648	50	4750
2026-01-24 11:13:32.54	246.54	28.27	-39.7	-41.9	14.0	2.20e-06	0	62	0	839909376	50	4791
2026-01-24 11:13:33.55	246.85	28.33	-39.6	-41.7	14.3	2.20e-06	0	62	0	843055104	50	4671
2026-01-24 11:13:34.56	247.16	28.39	-39.4	-41.4	14.5	7.00e-07	0	62	0	846200832	50	4535
2026-01-24 11:13:35.57	247.47	28.45	-39.3	-41.3	14.6	0.00e+00	0	62	0	849346560	50	4454
2026-01-24 11:13:36.58	247.79	28.51	-39.4	-41.4	14.5	7.00e-07	0	62	0	852492288	50	4518
2026-01-24 11:13:37.59	248.10	28.57	-39.4	-41.5	14.5	7.00e-07	0	62	0	855638016	50	4547
2026-01-24 11:13:38.60	248.42	28.63	-39.4	-41.5	14.4	0.00e+00	0	62	0	858783744	50	4569
2026-01-24 11:13:39.61	248.74	28.68	-39.5	-41.6	14.3	0.00e+00	0	62	0	861929472	50	4641
2026-01-24 11:13:40.62	249.05	28.74	-39.6	-41.7	14.2	7.00e-07	0	62	0	865075200	50	4695
2026-01-24 11:13:41.63	249.37	28.79	-39.6	-41.7	14.2	0.00e+00	0	62	0	868220928	50	4682
2026-01-24 11:13:42.64	249.69	28.84	-39.4	-41.5	14.4	0.00e+00	0	62	0	871366656	50	4546
2026-01-24 11:13:43.65	250.01	28.90	-39.4	-41.4	14.5	7.00e-07	0	62	0	874512384	50	4521
2026-01-24 11:13:44.65	250.33	28.95	-39.4	-41.4	14.4	0.00e+00	0	62	0	877658112	50	4544
2026-01-24 11:13:45.66	250.66	29.00	-39.3	-41.4	14.5	0.00e+00	0	62	0	880803840	50	4503
2026-01-24 11:13:46.67	250.98	29.05	-39.4	-41.4	14.5	7.00e-07	0	62	0	883949568	50	4531
2026-01-24 11:13:47.68	251.31	29.10	-39.4	-41.4	14.5	7.00e-07	0	62	0	887095296	50	4524
2026-01-24 11:13:48.69	251.63	29.15	-39.4	-41.5	14.4	7.00e-07	0	62	0	890241024	50	4565
2026-01-24 11:13:49.70	251.96	29.19	-39.5	-41.5	14.4	0.00e+00	0	62	0	893386752	50	4592
2026-01-24 11:13:50.71	252.29	29.24	-39.5	-41.6	14.3	1.50e-06	0	62	0	896532480	50	4623
2026-01-24 11:13:51.72	252.62	29.29	-39.6	-41.8	14.2	7.00e-07	0	62	0	899678208	50	4715
2026-01-24 11:13:52.73	252.95	29.33	-39.6	-41.8	14.2	3.80e-06	0	62	0	902823936	50	4719
2026-01-24 11:13:53.74	253.28	29.37	-39.6	-41.7	14.2	0.00e+00	0	62	0	905969664	50	4699
2026-01-24 11:13:54.75	253.61	29.42	-39.6	-41.7	14.2	0.00e+00	0	62	0	909115392	50	4695
2026-01-24 11:13:55.76	253.94	29.46	-39.6	-41.7	14.2	7.00e-07	0	62	0	912261120	50	4687
2026-01-24 11:13:56.77	254.27	29.50	-39.5	-41.6	14.3	3.00e-06	0	62	0	915406848	50	4638
2026-01-24 11:13:57.78	254.61	29.54	-39.6	-41.7	14.2	3.00e-06	0	62	0	918552576	50	4677
2026-01-24 11:13:58.79	254.94	29.58	-39.5	-41.6	14.2	1.50e-06	0	62	0	921698304	50	4642
2026-01-24 11:13:59.80	255.28	29.61	-39.6	-41.8	14.1	2.20e-06	0	62	0	924844032	50	4711
2026-01-24 11:14:00.81	255.61	29.65	-39.7	-41.8	14.1	2.20e-06	0	62	0	927989760	50	4752
2026-01-24 11:14:01.82	255.95	29.68	-39.7	-41.9	14.1	4.50e-06	0	62	0	931135488	50	4762
2026-01-24 11:14:02.83	256.29	29.72	-39.7	-41.9	14.0	1.50e-06	0	62	0	934281216	50	4766
2026-01-24 11:14:03.84	256.63	29.75	-39.8	-42.0	13.9	4.50e-06	0	62	0	937426944	50	4850
2026-01-24 11:14:04.85	256.97	29.79	-39.8	-42.0	13.9	2.20e-06	0	62	0	940572672	50	4833
2026-01-24 11:14:05.85	257.30	29.82	-39.8	-42.0	13.9	3.80e-06	0	62	0	943718400	50	4859
2026-01-24 11:14:06.87	257.65	29.85	-39.8	-42.0	13.9	1.50e-06	0	62	0	946864128	50	4835
2026-01-24 11:14:07.88	257.99	29.88	-39.8	-42.0	13.9	7.00e-07	0	62	0	950009856	50	4844
2026-01-24 11:14:08.89	258.33	29.90	-39.7	-41.9	14.1	2.20e-06	0	62	0	953155584	50	4764
2026-01-24 11:14:09.90	258.67	29.93	-39.6	-41.7	14.2	7.00e-07	0	62	0	956301312	50	4701
2026-01-24 11:14:10.91	259.02	29.96	-39.7	-41.9	13.9	0.00e+00	0	62	0	959447040	50	4797
2026-01-24 11:14:11.92	259.36	29.98	-39.8	-42.0	13.9	3.80e-06	0	62	0	962592768	50	4863
2026-01-24 11:14:12.93	259.70	30.01	-39.9	-42.2	13.7	6.80e-06	0	62	0	965738496	50	4944
2026-01-24 11:14:13.94	260.05	30.03	-39.8	-42.0	13.9	3.00e-06	0	62	0	968884224	50	4820
2026-01-24 11:14:14.95	260.39	30.05	-39.7	-41.9	14.1	0.00e+00	0	62	0	972029952	50	4760
2026-01-24 11:14:15.96	260.74	30.07	-39.6	-41.7	14.2	1.50e-06	0	62	0	975175680	50	4690
2026-01-24 11:14:16.97	261.08	30.09	-39.6	-41.7	14.2	2.20e-06	0	62	0	978321408	50	4665
2026-01-24 11:14:17.98	261.43	30.11	-39.7	-41.9	14.0	3.00e-06	0	62	0	981467136	50	4776
2026-01-24 11:14:18.98	261.77	30.13	-39.8	-42.0	13.9	5.30e-06	0	62	0	984612864	50	4856
2026-01-24 11:14:19.99	262.12	30.14	-39.8	-42.1	13.8	4.50e-06	0	62	0	987758592	50	4893
2026-01-24 11:14:21.00	262.46	30.16	-39.8	-42.0	13.9	3.00e-06	0	62	0	990904320	50	4849
2026-01-24 11:14:22.01	262.81	30.17	-39.6	-41.7	14.2	1.50e-06	0	62	0	994050048	50	4694
2026-01-24 11:14:23.02	263.16	30.18	-39.5	-41.6	14.4	0.00e+00	0	62	0	997195776	50	4603
2026-01-24 11:14:24.03	263.51	30.20	-39.6	-41.7	14.3	7.00e-07	0	62	0	1000341504	50	4654
2026-01-24 11:14:25.04	263.86	30.21	-39.6	-41.8	14.2	3.00e-06	0	62	0	1003487232	50	4711
2026-01-24 11:14:26.05	264.20	30.22	-39.6	-41.8	14.1	1.50e-06	0	62	0	1007681536	50	4730
2026-01-24 11:14:27.06	264.55	30.22	-39.7	-41.9	14.1	3.00e-06	0	62	0	1009778688	50	4771
2026-01-24 11:14:28.07	264.90	30.23	-39.6	-41.7	14.2	1.50e-06	0	62	0	1012924416	50	4702
2026-01-24 11:14:29.08	265.25	30.24	-39.6	-41.8	14.1	1.50e-06	0	62	0	1016070144	50	4718
2026-01-24 11:14:30.09	265.60	30.24	-39.5	-41.6	14.3	1.50e-06	0	62	0	1019215872	50	4625
2026-01-24 11:14:31.09	265.94	30.25	-39.6	-41.7	14.1	7.00e-07	0	62	0	1023410176	50	4702
2026-01-24 11:14:32.10	266.29	30.25	-39.7	-41.8	14.1	1.50e-06	0	62	0	1026555904	50	4759
2026-01-24 11:14:33.12	266.65	30.25	-39.7	-41.8	14.1	7.00e-07	0	62	0	1029701632	50	4745
2026-01-24 11:14:34.12	266.99	30.25	-39.7	-41.8	14.1	1.50e-06	0	62	0	1031798784	50	4749
2026-01-24 11:14:35.13	267.34	30.25	-39.6	-41.7	14.2	7.00e-07	0	62	0	1034944512	50	4693
2026-01-24 11:14:36.14	267.69	30.25	-39.7	-41.8	14.1	0.00e+00	0	62	0	1039138816	50	4732
2026-01-24 11:14:37.15	268.04	30.24	-39.6	-41.7	14.2	1.50e-06	0	62	0	1042284544	50	4661
2026-01-24 11:14:38.16	268.39	30.24	-39.7	-41.8	14.1	1.50e-06	0	62	0	1045430272	50	4733
2026-01-24 11:14:39.17	268.73	30.23	-39.5	-41.6	14.3	7.00e-07	0	62	0	1048576000	50	4624
2026-01-24 11:14:40.18	269.08	30.23	-39.5	-41.5	14.4	0.00e+00	0	62	0	1051721728	50	4576
2026-01-24 11:14:41.19	269.43	30.22	-39.4	-41.5	14.4	1.50e-06	0	62	0	1054867456	50	4552
2026-01-24 11:14:42.20	269.78	30.21	-39.5	-41.5	14.4	0.00e+00	0	62	0	1058013184	50	4588
2026-01-24 11:14:43.20	270.12	30.20	-39.6	-41.8	14.1	7.00e-07	0	62	0	1061158912	50	4711
2026-01-24 11:14:44.21	270.47	30.19	-39.8	-42.0	13.9	2.20e-06	0	62	0	1064304640	50	4835
2026-01-24 11:14:45.22	270.82	30.18	-39.9	-42.1	13.8	3.00e-06	0	62	0	1067450368	50	4897
2026-01-24 11:14:46.23	271.17	30.16	-39.8	-42.0	13.9	3.00e-06	0	62	0	1070596096	50	4869
2026-01-24 11:14:47.24	271.51	30.15	-39.8	-42.0	13.9	2.20e-06	0	62	0	1073741824	50	4833
2026-01-24 11:14:48.25	271.86	30.13	-39.8	-42.0	13.9	4.50e-06	0	62	0	1076887552	50	4839
2026-01-24 11:14:49.26	272.21	30.12	-39.8	-42.0	13.9	4.50e-06	0	62	0	1080033280	50	4852
2026-01-24 11:14:50.27	272.55	30.10	-39.8	-42.0	13.9	1.50e-06	0	62	0	1083179008	50	4820
2026-01-24 11:14:51.28	272.90	30.08	-39.7	-41.9	14.1	2.20e-06	0	62	0	1086324736	50	4760
2026-01-24 11:14:52.29	273.24	30.06	-39.7	-41.9	14.0	2.20e-06	0	62	0	1089470464	50	4765
2026-01-24 11:14:53.30	273.59	30.04	-39.8	-42.0	13.9	3.00e-06	0	62	0	1092616192	50	4846
2026-01-24 11:14:54.31	273.93	30.02	-39.9	-42.1	13.8	2.20e-06	0	62	0	1095761920	50	4918
2026-01-24 11:14:55.32	274.27	29.99	-39.9	-42.1	13.8	3.00e-06	0	62	0	1098907648	50	4903
2026-01-24 11:14:56.33	274.62	29.97	-39.8	-42.0	13.9	2.20e-06	0	62	0	1102053376	50	4858
2026-01-24 11:14:57.34	274.96	29.94	-39.7	-41.8	14.0	1.50e-06	0	62	0	1105199104	50	4757
2026-01-24 11:14:58.35	275.30	29.92	-39.8	-42.0	13.9	3.00e-06	0	62	0	1108344832	50	4829
2026-01-24 11:14:59.36	275.64	29.89	-39.7	-41.9	14.0	3.80e-06	0	62	0	1111490560	50	4808
2026-01-24 11:15:00.37	275.98	29.86	-39.7	-41.9	14.0	7.00e-07	0	62	0	1114636288	50	4803
2026-01-24 11:15:01.38	276.32	29.83	-39.8	-42.0	14.0	5.30e-06	0	62	0	1117782016	50	4841
2026-01-24 11:15:02.39	276.66	29.80	-39.8	-42.0	14.0	3.80e-06	0	62	0	1120927744	50	4831
2026-01-24 11:15:03.40	277.00	29.77	-39.6	-41.8	14.2	7.00e-07	0	62	0	1124073472	50	4709
2026-01-24 11:15:04.41	277.34	29.73	-39.7	-41.8	14.1	3.80e-06	0	62	0	1127219200	50	4755
2026-01-24 11:15:05.42	277.68	29.70	-39.8	-42.0	14.0	1.50e-06	0	62	0	1130364928	50	4817
2026-01-24 11:15:06.43	278.02	29.67	-39.6	-41.7	14.2	2.20e-06	0	62	0	1133510656	50	4689
2026-01-24 11:15:07.44	278.35	29.63	-39.6	-41.7	14.3	1.50e-06	0	62	0	1136656384	50	4679
2026-01-24 11:15:08.45	278.69	29.59	-39.7	-41.8	14.1	2.20e-06	0	62	0	1139802112	50	4745
2026-01-24 11:15:09.45	279.02	29.55	-39.5	-41.6	14.4	1.50e-06	0	62	0	1142947840	50	4602
2026-01-24 11:15:10.47	279.36	29.52	-39.4	-41.5	14.4	0.00e+00	0	62	0	1146093568	50	4581
2026-01-24 11:15:11.48	279.69	29.48	-39.6	-41.7	14.3	0.00e+00	0	62	0	1149239296	50	4662
2026-01-24 11:15:12.49	280.02	29.43	-39.6	-41.7	14.2	1.50e-06	0	62	0	1152385024	50	4704
2026-01-24 11:15:13.49	280.35	29.39	-39.6	-41.7	14.3	7.00e-07	0	62	0	1155530752	50	4659
2026-01-24 11:15:14.51	280.68	29.35	-39.6	-41.7	14.2	1.50e-06	0	62	0	1158676480	50	4700
2026-01-24 11:15:15.52	281.01	29.31	-39.6	-41.8	14.2	1.50e-06	0	62	0	1161822208	50	4707
2026-01-24 11:15:16.52	281.34	29.26	-39.6	-41.8	14.2	0.00e+00	0	62	0	1164967936	50	4706
2026-01-24 11:15:17.53	281.66	29.22	-39.5	-41.7	14.3	3.00e-06	0	62	0	1168113664	50	4661
2026-01-24 11:15:18.54	281.99	29.17	-39.6	-41.7	14.2	1.50e-06	0	62	0	1171259392	50	4705
2026-01-24 11:15:19.55	282.32	29.12	-39.6	-41.7	14.2	1.50e-06	0	62	0	1174405120	50	4693
2026-01-24 11:15:20.56	282.64	29.07	-39.4	-41.5	14.4	7.00e-07	0	62	0	1177550848	50	4556
2026-01-24 11:15:21.57	282.97	29.02	-39.3	-41.3	14.6	7.00e-07	0	62	0	1180696576	50	4460
2026-01-24 11:15:22.58	283.29	28.97	-39.3	-41.4	14.5	0.00e+00	0	62	0	1183842304	50	4505
2026-01-24 11:15:23.59	283.61	28.92	-39.5	-41.5	14.3	7.00e-07	0	62	0	1186988032	50	4596
2026-01-24 11:15:24.60	283.93	28.87	-39.6	-41.7	14.1	7.00e-07	0	62	0	1190133760	50	4698
2026-01-24 11:15:25.61	284.25	28.82	-39.6	-41.7	14.2	2.20e-06	0	62	0	1193279488	50	4700
2026-01-24 11:15:26.61	284.57	28.76	-39.6	-41.7	14.2	1.50e-06	0	62	0	1196425216	50	4677
2026-01-24 11:15:27.62	284.88	28.71	-39.5	-41.6	14.3	7.00e-07	0	62	0	1199570944	50	4616
2026-01-24 11:15:28.63	285.20	28.65	-39.5	-41.6	14.3	1.50e-06	0	62	0	1202716672	50	4624
2026-01-24 11:15:29.64	285.52	28.60	-39.5	-41.6	14.2	7.00e-07	0	62	0	1205862400	50	4633
2026-01-24 11:15:30.65	285.83	28.54	-39.5	-41.6	14.4	1.50e-06	0	62	0	1209008128	50	4602
2026-01-24 11:15:31.66	286.14	28.48	-39.5	-41.6	14.3	1.50e-06	0	62	0	1212153856	50	4613
2026-01-24 11:15:32.67	286.46	28.43	-39.5	-41.6	14.3	0.00e+00	0	62	0	1215299584	50	4632
2026-01-24 11:15:33.68	286.77	28.37	-39.5	-41.6	14.3	1.50e-06	0	62	0	1218445312	50	4605
2026-01-24 11:15:34.69	287.08	28.31	-39.4	-41.5	14.4	7.00e-07	0	62	0	1221591040	50	4589
2026-01-24 11:15:35.70	287.39	28.25	-39.4	-41.5	14.4	0.00e+00	0	62	0	1224736768	50	4550
2026-01-24 11:15:36.71	287.69	28.18	-39.5	-41.5	14.3	0.00e+00	0	62	0	1227882496	50	4596
2026-01-24 11:15:37.72	288.00	28.12	-39.4	-41.4	14.5	0.00e+00	0	62	0	1231028224	50	4526
2026-01-24 11:15:38.72	288.30	28.06	-39.3	-41.3	14.5	0.00e+00	0	62	0	1234173952	50	4491
2026-01-24 11:15:39.73	288.61	28.00	-39.4	-41.4	14.5	7.00e-07	0	62	0	1237319680	50	4528
2026-01-24 11:15:40.74	288.91	27.93	-39.4	-41.5	14.4	1.50e-06	0	62	0	1240465408	50	4559
2026-01-24 11:15:41.75	289.21	27.87	-39.4	-41.5	14.4	0.00e+00	0	62	0	1243611136	50	4573
2026-01-24 11:15:42.76	289.51	27.80	-39.4	-41.5	14.4	0.00e+00	0	62	0	1246756864	50	4582
2026-01-24 11:15:43.77	289.81	27.73	-39.5	-41.6	14.3	1.50e-06	0	62	0	1249902592	50	4601
2026-01-24 11:15:44.78	290.11	27.67	-39.4	-41.5	14.4	7.00e-07	0	62	0	1253048320	50	4562
2026-01-24 11:15:45.79	290.40	27.60	-39.4	-41.5	14.4	1.50e-06	0	62	0	1256194048	50	4569
2026-01-24 11:15:46.80	290.70	27.53	-39.4	-41.5	14.4	0.00e+00	0	62	0	1259339776	50	4564
2026-01-24 11:15:47.81	290.99	27.46	-39.3	-41.4	14.5	2.20e-06	0	62	0	1262485504	50	4514
2026-01-24 11:15:48.82	291.29	27.39	-39.2	-41.2	14.7	0.00e+00	0	62	0	1265631232	50	4406
2026-01-24 11:15:49.83	291.58	27.32	-39.2	-41.1	14.8	0.00e+00	0	62	0	1268776960	50	4380
2026-01-24 11:15:50.84	291.87	27.25	-39.2	-41.2	14.7	1.50e-06	0	62	0	1271922688	50	4401
2026-01-24 11:15:51.84	292.16	27.18	-39.3	-41.3	14.6	0.00e+00	0	62	0	1275068416	50	4453
2026-01-24 11:15:52.86	292.45	27.11	-39.3	-41.4	14.5	7.00e-07	0	62	0	1278214144	50	4514
2026-01-24 11:15:53.86	292.73	27.04	-39.4	-41.5	14.4	0.00e+00	0	62	0	1281359872	50	4553
2026-01-24 11:15:54.87	293.02	26.96	-39.4	-41.4	14.5	3.00e-06	0	62	0	1284505600	50	4529
2026-01-24 11:15:55.88	293.30	26.89	-39.4	-41.5	14.4	2.20e-06	0	62	0	1287651328	50	4557
2026-01-24 11:15:56.90	293.59	26.81	-39.3	-41.3	14.6	0.00e+00	0	62	0	1290797056	50	4466
2026-01-24 11:15:57.90	293.86	26.74	-39.3	-41.3	14.6	0.00e+00	0	62	0	1293942784	50	4456
2026-01-24 11:15:58.91	294.14	26.66	-39.3	-41.3	14.5	7.00e-07	0	62	0	1297088512	50	4492
2026-01-24 11:15:59.92	294.42	26.59	-39.2	-41.2	14.7	7.00e-07	0	62	0	1300234240	50	4415
2026-01-24 11:16:00.93	294.70	26.51	-39.2	-41.3	14.6	7.00e-07	0	62	0	1303379968	50	4443
2026-01-24 11:16:01.94	294.98	26.44	-39.2	-41.2	14.6	7.00e-07	0	62	0	1306525696	50	4437
2026-01-24 11:16:02.95	295.25	26.36	-39.2	-41.3	14.6	1.50e-06	0	62	0	1309671424	50	4444
2026-01-24 11:16:03.96	295.52	26.28	-39.3	-41.4	14.5	0.00e+00	0	62	0	1312817152	50	4517
2026-01-24 11:16:04.97	295.80	26.20	-39.4	-41.5	14.5	0.00e+00	0	62	0	1315962880	50	4549
2026-01-24 11:16:05.98	296.07	26.12	-39.4	-41.4	14.5	1.50e-06	0	62	0	1319108608	50	4533
2026-01-24 11:16:06.99	296.34	26.05	-39.4	-41.5	14.3	0.00e+00	0	62	0	1322254336	50	4596
2026-01-24 11:16:08.00	296.61	25.97	-39.5	-41.7	14.2	7.00e-07	0	62	0	1325400064	50	4654
2026-01-24 11:16:09.01	296.87	25.89	-39.5	-41.7	14.1	3.00e-06	0	62	0	1328545792	50	4669
2026-01-24 11:16:10.02	297.14	25.81	-39.6	-41.7	14.0	2.20e-06	0	62	0	1331691520	50	4704
2026-01-24 11:16:11.02	297.40	25.73	-39.5	-41.6	14.2	1.50e-06	0	62	0	1334837248	50	4636
2026-01-24 11:16:12.03	297.66	25.65	-39.4	-41.5	14.3	1.50e-06	0	62	0	1337982976	50	4586
2026-01-24 11:16:13.04	297.92	25.56	-39.3	-41.4	14.5	2.20e-06	0	62	0	1341128704	50	4496
2026-01-24 11:16:14.05	298.18	25.48	-39.3	-41.3	14.5	0.00e+00	0	62	0	1344274432	50	4490
2026-01-24 11:16:15.06	298.44	25.40	-39.3	-41.4	14.5	0.00e+00	0	62	0	1347420160	50	4498
2026-01-24 11:16:16.07	298.70	25.32	-39.4	-41.5	14.4	7.00e-07	0	62	0	1350565888	50	4551
2026-01-24 11:16:17.08	298.96	25.24	-39.5	-41.7	14.2	0.00e+00	0	62	0	1353711616	50	4657
2026-01-24 11:16:18.09	299.21	25.15	-39.6	-41.8	14.1	1.50e-06	0	62	0	1356857344	50	4712
2026-01-24 11:16:19.11	299.47	25.07	-39.6	-41.8	14.1	7.00e-07	0	62	0	1360003072	50	4713
2026-01-24 11:16:20.12	299.72	24.98	-39.6	-41.8	14.0	2.20e-06	0	62	0	1363148800	50	4739
2026-01-24 11:16:21.13	299.97	24.90	-39.6	-41.8	14.0	2.20e-06	0	62	0	1366294528	50	4743
2026-01-24 11:16:22.14	300.22	24.82	-39.4	-41.6	14.3	0.00e+00	0	62	0	1370488832	50	4610
2026-01-24 11:16:23.15	300.47	24.73	-39.3	-41.4	14.4	7.00e-07	0	62	0	1372585984	50	4520
2026-01-24 11:16:24.16	300.72	24.65	-39.2	-41.2	14.7	1.50e-06	0	62	0	1375731712	50	4396
2026-01-24 11:16:25.17	300.96	24.56	-39.0	-41.0	14.8	7.00e-07	0	62	0	1378877440	50	4318
2026-01-24 11:16:26.18	301.21	24.48	-38.9	-40.9	15.0	0.00e+00	0	62	0	1382023168	49	4494
2026-01-24 11:16:27.19	301.45	24.39	-38.9	-40.8	15.0	0.00e+00	0	62	0	1386217472	49	4490
2026-01-24 11:16:28.19	301.69	24.31	-39.0	-41.0	14.9	0.00e+00	0	62	0	1389363200	49	4556
2026-01-24 11:16:29.20	301.93	24.22	-39.1	-41.1	14.7	7.00e-07	0	62	0	1392508928	49	4635
2026-01-24 11:16:30.21	302.17	24.13	-39.2	-41.2	14.7	0.00e+00	0	62	0	1395654656	49	4665
2026-01-24 11:16:31.22	302.41	24.05	-39.2	-41.2	14.6	0.00e+00	0	62	0	1397751808	49	4685
2026-01-24 11:16:32.23	302.65	23.96	-39.1	-41.2	14.7	1.50e-06	0	62	0	1401946112	49	4660
2026-01-24 11:16:33.24	302.88	23.87	-39.1	-41.1	14.7	0.00e+00	0	62	0	1405091840	49	4627
2026-01-24 11:16:34.25	303.12	23.79	-39.1	-41.1	14.7	7.00e-07	0	62	0	1408237568	49	4643
2026-01-24 11:16:35.26	303.35	23.70	-39.1	-41.1	14.7	7.00e-07	0	62	0	1411383296	49	4640
2026-01-24 11:16:36.27	303.58	23.61	-39.1	-41.1	14.6	7.00e-07	0	62	0	1414529024	49	4634
2026-01-24 11:16:37.28	303.81	23.52	-39.2	-41.2	14.5	0.00e+00	0	62	0	1417674752	49	4700
2026-01-24 11:16:38.29	304.04	23.44	-39.2	-41.3	14.5	1.50e-06	0	62	0	1420820480	49	4711
2026-01-24 11:16:39.30	304.27	23.35	-39.2	-41.3	14.5	0.00e+00	0	62	0	1423966208	49	4708
2026-01-24 11:16:40.30	304.49	23.26	-39.2	-41.3	14.5	7.00e-07	0	62	0	1427111936	49	4734
2026-01-24 11:16:41.31	304.72	23.17	-39.2	-41.3	14.5	0.00e+00	0	62	0	1430257664	49	4725
2026-01-24 11:16:42.32	304.94	23.08	-39.3	-41.4	14.4	0.00e+00	0	62	0	1433403392	49	4778
2026-01-24 11:16:43.33	305.16	23.00	-39.3	-41.4	14.4	0.00e+00	0	62	0	1436549120	49	4760
2026-01-24 11:16:44.34	305.39	22.91	-39.3	-41.4	14.3	2.20e-06	0	62	0	1439694848	49	4804
2026-01-24 11:16:45.35	305.61	22.82	-39.2	-41.3	14.5	0.00e+00	0	62	0	1442840576	49	4728
2026-01-24 11:16:46.36	305.82	22.73	-39.2	-41.3	14.5	7.00e-07	0	62	0	1445986304	49	4721
2026-01-24 11:16:47.37	306.04	22.64	-39.3	-41.4	14.4	0.00e+00	0	62	0	1449132032	49	4764
2026-01-24 11:16:48.38	306.26	22.55	-39.2	-41.2	14.6	7.00e-07	0	62	0	1452277760	49	4677
2026-01-24 11:16:49.39	306.47	22.46	-39.0	-41.0	14.7	7.00e-07	0	62	0	1455423488	49	4577
2026-01-24 11:16:50.40	306.69	22.37	-39.1	-41.1	14.7	0.00e+00	0	62	0	1458569216	49	4605
2026-01-24 11:16:51.41	306.90	22.28	-39.1	-41.0	14.7	0.00e+00	0	62	0	1461714944	49	4595
2026-01-24 11:16:52.42	307.11	22.19	-39.0	-41.0	14.7	0.00e+00	0	62	0	1464860672	49	4591
2026-01-24 11:16:53.43	307.32	22.10	-39.0	-41.0	14.7	7.00e-07	0	62	0	1468006400	49	4575
2026-01-24 11:16:54.43	307.53	22.01	-39.0	-41.0	14.7	7.00e-07	0	62	0	1471152128	49	4578
2026-01-24 11:16:55.44	307.74	21.92	-39.0	-41.0	14.7	0.00e+00	0	62	0	1474297856	49	4588
2026-01-24 11:16:56.46	307.95	21.83	-39.0	-41.0	14.8	0.00e+00	0	62	0	1477443584	49	4556
2026-01-24 11:16:57.47	308.16	21.74	-39.0	-41.0	14.8	0.00e+00	0	62	0	1480589312	49	4550
2026-01-24 11:16:58.48	308.36	21.65	-38.9	-40.9	14.8	0.00e+00	0	62	0	1483735040	49	4513
2026-01-24 11:16:59.48	308.56	21.57	-38.9	-40.9	14.9	7.00e-07	0	62	0	1486880768	49	4500
2026-01-24 11:17:00.49	308.76	21.48	-38.9	-40.8	14.9	0.00e+00	0	62	0	1490026496	49	4465
2026-01-24 11:17:01.51	308.97	21.38	-38.9	-40.9	14.8	0.00e+00	0	62	0	1493172224	49	4504
2026-01-24 11:17:02.52	309.17	21.29	-39.0	-41.0	14.7	0.00e+00	0	62	0	1496317952	49	4559
2026-01-24 11:17:03.53	309.37	21.20	-39.1	-41.1	14.6	0.00e+00	0	62	0	1499463680	49	4618
2026-01-24 11:17:04.54	309.57	21.11	-39.2	-41.2	14.5	0.00e+00	0	62	0	1502609408	49	4682
2026-01-24 11:17:05.55	309.76	21.02	-39.3	-41.3	14.3	0.00e+00	0	62	0	1505755136	49	4752
2026-01-24 11:17:06.55	309.96	20.94	-39.3	-41.4	14.3	7.00e-07	0	62	0	1508900864	49	4770
2026-01-24 11:17:07.57	310.15	20.84	-39.3	-41.5	14.2	7.00e-07	0	62	0	1512046592	49	4820
2026-01-24 11:17:08.58	310.35	20.75	-39.3	-41.5	14.2	1.50e-06	0	62	0	1515192320	49	4840
2026-01-24 11:17:09.59	310.54	20.66	-39.4	-41.6	14.1	1.50e-06	0	62	0	1518338048	49	4876
2026-01-24 11:17:10.60	310.73	20.57	-39.3	-41.4	14.2	3.00e-06	0	62	0	1521483776	49	4808
2026-01-24 11:17:11.61	310.92	20.48	-39.3	-41.5	14.2	7.00e-07	0	62	0	1524629504	49	4816
2026-01-24 11:17:12.62	311.11	20.39	-39.3	-41.4	14.2	2.20e-06	0	62	0	1527775232	49	4803
2026-01-24 11:17:13.63	311.30	20.30	-39.2	-41.3	14.3	7.00e-07	0	62	0	1530920960	49	4752
2026-01-24 11:17:14.64	311.48	20.21	-39.3	-41.4	14.3	0.00e+00	0	62	0	1534066688	49	4787
2026-01-24 11:17:15.65	311.67	20.12	-39.3	-41.4	14.2	7.00e-07	0	62	0	1537212416	49	4813
2026-01-24 11:17:16.66	311.85	20.03	-39.3	-41.4	14.2	0.00e+00	0	62	0	1540358144	49	4801
2026-01-24 11:17:17.67	312.04	19.94	-39.3	-41.4	14.2	7.00e-07	0	62	0	1543503872	49	4797
2026-01-24 11:17:18.68	312.22	19.85	-39.4	-41.5	14.2	4.50e-06	0	62	0	1546649600	49	4838
2026-01-24 11:17:19.69	312.40	19.76	-39.3	-41.5	14.2	2.20e-06	0	62	0	1549795328	49	4816
2026-01-24 11:17:20.70	312.58	19.67	-39.4	-41.6	14.1	3.00e-06	0	62	0	1552941056	49	4882
2026-01-24 11:17:21.71	312.76	19.59	-39.4	-41.5	14.2	2.20e-06	0	62	0	1556086784	49	4858
2026-01-24 11:17:22.71	312.94	19.50	-39.4	-41.6	14.1	1.50e-06	0	62	0	1559232512	49	4905
2026-01-24 11:17:23.72	313.12	19.41	-39.5	-41.6	14.1	2.20e-06	0	62	0	1562378240	49	4906
2026-01-24 11:17:24.73	313.29	19.32	-39.4	-41.5	14.1	2.20e-06	0	62	0	1565523968	49	4868
2026-01-24 11:17:25.74	313.47	19.23	-39.4	-41.6	14.1	0.00e+00	0	62	0	1568669696	49	4892
2026-01-24 11:17:26.75	313.64	19.14	-39.4	-41.6	14.1	0.00e+00	0	62	0	1571815424	49	4899
2026-01-24 11:17:27.76	313.82	19.05	-39.5	-41.8	13.9	2.20e-06	0	62	0	1574961152	49	4984
2026-01-24 11:17:28.77	313.99	18.96	-39.5	-41.7	14.0	1.50e-06	0	62	0	1578106880	49	4931
2026-01-24 11:17:29.78	314.16	18.87	-39.4	-41.6	14.1	7.00e-07	0	62	0	1581252608	49	4897
2026-01-24 11:17:30.79	314.33	18.78	-39.4	-41.6	14.0	0.00e+00	0	62	0	1584398336	49	4895
2026-01-24 11:17:31.80	314.50	18.69	-39.5	-41.7	13.9	3.80e-06	0	62	0	1587544064	49	4979
2026-01-24 11:17:32.81	314.67	18.60	-39.4	-41.6	14.0	2.20e-06	0	62	0	1590689792	49	4893
2026-01-24 11:17:33.82	314.84	18.51	-39.5	-41.7	13.9	4.50e-06	0	62	0	1593835520	49	4941
2026-01-24 11:17:34.83	315.00	18.43	-39.6	-41.8	13.8	3.80e-06	0	62	0	1596981248	49	5000
2026-01-24 11:17:35.84	315.17	18.34	-39.7	-42.0	13.6	3.00e-06	0	62	0	1600126976	49	5112
2026-01-24 11:17:36.84	315.33	18.25	-39.7	-42.0	13.6	6.10e-06	0	62	0	1603272704	49	5140
2026-01-24 11:17:37.85	315.50	18.16	-39.7	-42.1	13.6	6.80e-06	0	62	0	1606418432	50	4898
2026-01-24 11:17:38.86	315.66	18.07	-39.8	-42.2	13.5	9.90e-06	0	62	0	1609564160	50	4931
2026-01-24 11:17:39.88	315.82	17.98	-39.8	-42.1	13.5	6.80e-06	0	62	0	1612709888	50	4901
2026-01-24 11:17:40.88	315.98	17.90	-39.8	-42.2	13.5	7.60e-06	0	62	0	1615855616	50	4928
2026-01-24 11:17:41.89	316.14	17.81	-39.8	-42.2	13.4	1.06e-05	0	62	0	1619001344	50	4964
2026-01-24 11:17:42.90	316.30	17.72	-39.9	-42.3	13.3	1.83e-05	0	62	0	1622147072	50	5032
2026-01-24 11:17:43.91	316.46	17.63	-39.9	-42.3	13.3	1.37e-05	0	62	0	1625292800	50	5002
2026-01-24 11:17:44.92	316.62	17.54	-39.9	-42.3	13.3	1.90e-05	0	62	0	1628438528	50	5009
2026-01-24 11:17:45.94	316.78	17.46	-39.9	-42.3	13.2	2.21e-05	0	62	0	1631584256	50	5020
2026-01-24 11:17:46.95	316.93	17.37	-39.9	-42.4	13.2	2.05e-05	0	62	0	1634729984	50	5042
2026-01-24 11:17:47.96	317.09	17.28	-40.0	-42.4	13.1	2.05e-05	0	62	0	1637875712	50	5077
2026-01-24 11:17:48.97	317.24	17.19	-40.0	-42.4	13.2	2.89e-05	0	62	0	1641021440	50	5070
2026-01-24 11:17:49.98	317.40	17.11	-39.8	-42.2	13.4	1.83e-05	0	62	0	1644167168	50	4964
2026-01-24 11:17:50.98	317.55	17.02	-39.8	-42.1	13.4	1.06e-05	0	62	0	1647312896	50	4923
2026-01-24 11:17:51.99	317.70	16.93	-39.9	-42.2	13.3	2.21e-05	0	62	0	1650458624	50	4963
2026-01-24 11:17:53.00	317.85	16.85	-39.8	-42.2	13.4	1.29e-05	0	62	0	1653604352	50	4942
2026-01-24 11:17:54.01	318.00	16.76	-39.9	-42.3	13.3	1.37e-05	0	62	0	1656750080	50	4997
2026-01-24 11:17:55.02	318.15	16.67	-39.6	-41.9	13.7	9.90e-06	0	62	0	1659895808	50	4800
2026-01-24 11:17:56.03	318.30	16.59	-39.5	-41.7	13.9	3.80e-06	0	62	0	1663041536	50	4684
2026-01-24 11:17:57.04	318.44	16.50	-39.5	-41.7	13.8	3.80e-06	0	62	0	1666187264	50	4696
2026-01-24 11:17:58.05	318.59	16.41	-39.5	-41.7	13.9	3.00e-06	0	62	0	1669332992	50	4685
2026-01-24 11:17:59.06	318.74	16.33	-39.5	-41.7	13.9	3.00e-06	0	62	0	1672478720	50	4666
2026-01-24 11:18:00.07	318.88	16.24	-39.5	-41.7	13.9	2.20e-06	0	62	0	1675624448	50	4668
2026-01-24 11:18:01.08	319.02	16.16	-39.5	-41.7	13.9	3.80e-06	0	62	0	1678770176	50	4676
2026-01-24 11:18:02.09	319.17	16.07	-39.5	-41.7	13.8	6.10e-06	0	62	0	1681915904	50	4690
2026-01-24 11:18:03.10	319.31	15.99	-39.6	-41.8	13.8	4.50e-06	0	62	0	1685061632	50	4719
2026-01-24 11:18:04.11	319.45	15.90	-39.6	-41.8	13.7	3.00e-06	0	62	0	1688207360	50	4737
2026-01-24 11:18:05.12	319.59	15.82	-39.6	-41.9	13.6	7.60e-06	0	62	0	1691353088	50	4803
2026-01-24 11:18:06.13	319.73	15.73	-39.7	-42.0	13.5	6.10e-06	0	62	0	1694498816	50	4822
2026-01-24 11:18:07.14	319.87	15.65	-39.8	-42.1	13.4	1.29e-05	0	62	0	1697644544	50	4888
2026-01-24 11:18:08.15	320.01	15.56	-39.8	-42.1	13.4	1.29e-05	0	62	0	1700790272	50	4926
2026-01-24 11:18:09.16	320.15	15.48	-39.9	-42.3	13.3	1.52e-05	0	62	0	1703936000	50	4990
2026-01-24 11:18:10.17	320.29	15.39	-39.9	-42.2	13.3	2.28e-05	0	62	0	1707081728	50	4978
2026-01-24 11:18:11.18	320.42	15.31	-39.9	-42.3	13.2	2.21e-05	0	62	0	1711276032	50	5031
2026-01-24 11:18:12.19	320.56	15.22	-39.9	-42.3	13.1	3.28e-05	0	62	0	1713373184	50	5041
2026-01-24 11:18:13.20	320.69	15.14	-39.9	-42.4	13.1	2.67e-05	0	62	0	1716518912	50	5069
2026-01-24 11:18:14.21	320.83	15.05	-39.9	-42.3	13.2	2.67e-05	0	62	0	1719664640	50	5007
2026-01-24 11:18:15.22	320.96	14.97	-39.9	-42.3	13.1	3.66e-05	0	62	0	1722810368	50	5017
2026-01-24 11:18:16.23	321.09	14.89	-39.9	-42.3	13.2	2.21e-05	0	62	0	1725956096	50	5016
2026-01-24 11:18:17.24	321.23	14.80	-39.9	-42.3	13.1	3.35e-05	0	62	0	1730150400	50	5041
2026-01-24 11:18:18.25	321.36	14.72	-39.9	-42.3	13.2	3.12e-05	0	62	0	1733296128	50	5011
2026-01-24 11:18:19.26	321.49	14.64	-39.9	-42.3	13.2	2.36e-05	0	62	0	1735393280	50	5022
2026-01-24 11:18:20.26	321.62	14.56	-40.0	-42.4	13.0	3.81e-05	0	62	0	1738539008	50	5086
2026-01-24 11:18:21.27	321.74	14.47	-39.9	-42.3	13.1	3.50e-05	0	62	0	1741684736	50	5034
2026-01-24 11:18:22.28	321.87	14.39	-39.9	-42.4	13.0	3.28e-05	0	62	0	1745879040	50	5071
2026-01-24 11:18:23.29	322.00	14.31	-40.0	-42.5	12.9	4.73e-05	0	62	0	1749024768	50	5136
2026-01-24 11:18:24.30	322.13	14.22	-40.0	-42.5	12.9	5.72e-05	0	62	0	1752170496	50	5140
2026-01-24 11:18:25.31	322.25	14.14	-40.0	-42.5	12.9	3.66e-05	0	62	0	1755316224	50	5127
2026-01-24 11:18:26.32	322.38	14.06	-40.1	-42.6	12.8	5.41e-05	0	62	0	1758461952	50	5192
2026-01-24 11:18:27.33	322.51	13.98	-40.1	-42.7	12.7	5.72e-05	0	62	0	1761607680	50	5240
2026-01-24 11:18:28.34	322.63	13.90	-40.2	-42.8	12.6	8.46e-05	0	62	0	1764753408	50	5280
2026-01-24 11:18:29.35	322.75	13.82	-40.2	-42.7	12.7	8.23e-05	0	62	0	1767899136	50	5279
2026-01-24 11:18:30.36	322.88	13.73	-40.1	-42.7	12.7	7.78e-05	0	62	0	1771044864	50	5276
2026-01-24 11:18:31.37	323.00	13.65	-40.1	-42.7	12.7	8.23e-05	0	62	0	1774190592	50	5231
2026-01-24 11:18:32.38	323.12	13.57	-40.2	-42.8	12.6	9.00e-05	0	62	0	1777336320	50	5296
2026-01-24 11:18:33.39	323.24	13.49	-40.1	-42.7	12.7	8.85e-05	0	62	0	1780482048	50	5237
2026-01-24 11:18:34.40	323.36	13.41	-40.2	-42.8	12.6	9.53e-05	0	62	0	1783627776	50	5283
2026-01-24 11:18:35.41	323.48	13.33	-40.2	-42.8	12.6	9.91e-05	0	62	0	1786773504	50	5305
2026-01-24 11:18:36.42	323.60	13.25	-40.2	-42.9	12.5	1.12e-04	0	62	0	1789919232	51	5070
2026-01-24 11:18:37.43	323.72	13.17	-40.3	-42.9	12.4	1.17e-04	0	62	0	1793064960	51	5098
2026-01-24 11:18:38.44	323.84	13.09	-40.2	-42.9	12.5	1.42e-04	0	62	0	1796210688	51	5050
2026-01-24 11:18:39.45	323.96	13.01	-40.2	-42.9	12.4	1.26e-04	0	62	0	1799356416	51	5072
2026-01-24 11:18:40.46	324.07	12.93	-40.2	-42.9	12.4	1.07e-04	0	62	0	1802502144	51	5078
2026-01-24 11:18:41.47	324.19	12.85	-40.3	-42.9	12.4	1.87e-04	0	62	0	1805647872	51	5091
2026-01-24 11:18:42.48	324.31	12.77	-40.2	-42.8	12.5	1.17e-04	0	62	0	1808793600	51	5009
2026-01-24 11:18:43.49	324.42	12.69	-40.2	-42.8	12.5	1.20e-04	0	62	0	1811939328	51	5031
2026-01-24 11:18:44.50	324.53	12.61	-40.2	-42.8	12.5	1.17e-04	0	62	0	1815085056	51	5011
2026-01-24 11:18:45.51	324.65	12.53	-40.1	-42.7	12.6	9.30e-05	0	62	0	1818230784	51	4980
2026-01-24 11:18:46.52	324.76	12.45	-40.1	-42.7	12.6	1.04e-04	0	62	0	1821376512	51	4970
2026-01-24 11:18:47.53	324.87	12.37	-40.1	-42.6	12.7	9.23e-05	0	62	0	1824522240	51	4918
2026-01-24 11:18:48.54	324.99	12.29	-40.1	-42.7	12.5	1.23e-04	0	62	0	1827667968	51	4965
2026-01-24 11:18:49.55	325.10	12.22	-40.2	-42.8	12.4	1.39e-04	0	62	0	1830813696	51	5032
2026-01-24 11:18:50.56	325.21	12.14	-40.2	-42.8	12.4	1.47e-04	0	62	0	1833959424	51	5030
2026-01-24 11:18:51.57	325.32	12.06	-40.2	-42.9	12.3	1.88e-04	0	62	0	1837105152	51	5100
2026-01-24 11:18:52.58	325.43	11.98	-40.2	-43.0	12.2	2.21e-04	0	62	0	1840250880	51	5118
2026-01-24 11:18:53.59	325.54	11.90	-40.3	-43.1	12.1	2.77e-04	0	62	0	1843396608	51	5193
2026-01-24 11:18:54.60	325.65	11.83	-40.3	-43.2	12.0	3.01e-04	0	62	0	1846542336	51	5242
2026-01-24 11:18:55.61	325.76	11.75	-40.3	-43.2	12.0	3.25e-04	0	62	0	1849688064	51	5225
2026-01-24 11:18:56.62	325.86	11.67	-40.3	-43.1	12.0	2.68e-04	0	62	0	1852833792	51	5209
2026-01-24 11:18:57.62	325.97	11.59	-40.3	-43.1	12.1	2.62e-04	0	62	0	1855979520	51	5164
2026-01-24 11:18:58.63	326.08	11.52	-40.3	-43.1	12.1	2.88e-04	0	62	0	1859125248	51	5194
2026-01-24 11:18:59.64	326.18	11.44	-40.3	-43.2	12.0	2.68e-04	0	62	0	1862270976	51	5241
2026-01-24 11:19:00.65	326.29	11.36	-40.3	-43.0	12.2	2.61e-04	0	62	0	1865416704	51	5145
2026-01-24 11:19:01.66	326.39	11.29	-40.3	-43.1	12.1	2.17e-04	0	62	0	1868562432	51	5195
2026-01-24 11:19:02.67	326.50	11.21	-40.3	-43.1	12.1	2.53e-04	0	62	0	1871708160	51	5188
2026-01-24 11:19:03.68	326.60	11.13	-40.3	-43.2	12.0	2.71e-04	0	62	0	1874853888	51	5220
2026-01-24 11:19:04.69	326.70	11.06	-40.4	-43.3	11.9	3.36e-04	0	62	0	1877999616	51	5296
2026-01-24 11:19:05.70	326.81	10.98	-40.3	-43.1	12.1	2.73e-04	0	62	0	1881145344	51	5210
2026-01-24 11:19:06.71	326.91	10.91	-40.4	-43.2	12.0	2.71e-04	0	62	0	1884291072	51	5223
2026-01-24 11:19:07.72	327.01	10.83	-40.3	-43.0	12.1	2.79e-04	0	62	0	1887436800	51	5139
2026-01-24 11:19:08.73	327.11	10.76	-40.3	-43.1	12.1	3.42e-04	0	62	0	1890582528	51	5181
2026-01-24 11:19:09.74	327.21	10.68	-40.3	-43.2	12.0	3.46e-04	0	62	0	1893728256	51	5236
2026-01-24 11:19:10.75	327.31	10.60	-40.3	-43.1	12.0	3.23e-04	0	62	0	1896873984	51	5214
2026-01-24 11:19:11.76	327.41	10.53	-40.3	-43.1	12.0	4.10e-04	0	62	0	1900019712	51	5217
2026-01-24 11:19:12.77	327.51	10.45	-40.3	-43.1	12.0	3.71e-04	0	62	0	1903165440	51	5213
2026-01-24 11:19:13.78	327.61	10.38	-40.3	-43.2	11.9	3.87e-04	0	62	0	1906311168	51	5241
2026-01-24 11:19:14.79	327.71	10.31	-40.3	-43.2	11.9	4.14e-04	0	62	0	1909456896	51	5223
2026-01-24 11:19:15.79	327.81	10.23	-40.4	-43.3	11.8	5.13e-04	0	62	0	1912602624	51	5327
2026-01-24 11:19:16.80	327.91	10.16	-40.4	-43.3	11.7	5.90e-04	0	62	0	1915748352	51	5337
2026-01-24 11:19:17.81	328.00	10.08	-40.4	-43.3	11.8	5.71e-04	0	62	0	1918894080	51	5313
2026-01-24 11:19:18.82	328.10	10.01	-40.4	-43.3	11.7	5.65e-04	0	62	0	1922039808	51	5328
2026-01-24 11:19:19.83	328.20	9.94	-40.5	-43.5	11.5	6.10e-04	0	62	0	1925185536	51	5432
2026-01-24 11:19:20.84	328.29	9.86	-40.5	-43.4	11.5	7.03e-04	0	62	0	1928331264	51	5401
2026-01-24 11:19:21.85	328.39	9.79	-40.5	-43.5	11.5	8.18e-04	0	62	0	1931476992	51	5445
2026-01-24 11:19:22.86	328.48	9.72	-40.5	-43.5	11.5	8.85e-04	0	62	0	1934622720	51	5455
2026-01-24 11:19:23.87	328.58	9.64	-40.5	-43.5	11.5	8.09e-04	0	62	0	1937768448	51	5445
2026-01-24 11:19:24.88	328.67	9.57	-40.5	-43.4	11.6	7.50e-04	0	62	0	1940914176	51	5396
2026-01-24 11:19:25.88	328.76	9.50	-40.4	-43.3	11.7	6.38e-04	0	62	0	1944059904	51	5340
2026-01-24 11:19:26.90	328.86	9.42	-40.4	-43.3	11.7	6.27e-04	0	62	0	1947205632	51	5330
2026-01-24 11:19:27.91	328.95	9.35	-40.4	-43.3	11.7	6.09e-04	0	62	0	1950351360	51	5326
2026-01-24 11:19:28.92	329.04	9.28	-40.4	-43.4	11.6	6.54e-04	0	62	0	1953497088	51	5363
2026-01-24 11:19:29.92	329.13	9.21	-40.4	-43.4	11.5	6.92e-04	0	62	0	1956642816	51	5371
2026-01-24 11:19:30.93	329.22	9.14	-40.4	-43.4	11.5	8.74e-04	0	62	0	1959788544	51	5372
2026-01-24 11:19:31.94	329.31	9.06	-40.5	-43.5	11.4	8.93e-04	0	62	0	1962934272	51	5415
2026-01-24 11:19:32.95	329.40	8.99	-40.4	-43.5	11.4	9.27e-04	0	62	0	1966080000	51	5428
2026-01-24 11:19:33.96	329.49	8.92	-40.5	-43.5	11.3	1.17e-03	0	62	0	1969225728	51	5462
2026-01-24 11:19:34.97	329.58	8.85	-40.5	-43.6	11.2	1.21e-03	0	62	0	1972371456	51	5502
2026-01-24 11:19:35.98	329.67	8.78	-40.5	-43.6	11.2	1.53e-03	0	62	0	1975517184	51	5517
2026-01-24 11:19:36.99	329.76	8.71	-40.6	-43.9	11.0	1.77e-03	0	62	0	1978662912	51	5666
2026-01-24 11:19:38.00	329.85	8.63	-40.6	-43.9	10.9	1.99e-03	0	62	0	1981808640	51	5678
2026-01-24 11:19:39.02	329.94	8.56	-40.7	-44.0	10.8	2.44e-03	0	62	0	1984954368	51	5761
2026-01-24 11:19:40.03	330.03	8.49	-40.6	-43.9	10.8	3.24e-03	0	62	0	1988100096	52	5379
2026-01-24 11:19:41.03	330.11	8.42	-40.6	-43.9	10.8	2.35e-03	0	62	0	1991245824	52	5375
2026-01-24 11:19:42.04	330.20	8.35	-40.6	-43.9	10.8	2.81e-03	0	62	0	1994391552	52	5396
2026-01-24 11:19:43.05	330.29	8.28	-40.7	-44.0	10.6	2.90e-03	0	62	0	1997537280	52	5454
2026-01-24 11:19:44.06	330.37	8.21	-40.6	-43.9	10.8	2.44e-03	0	62	0	2000683008	52	5346
2026-01-24 11:19:45.07	330.46	8.14	-40.6	-44.0	10.7	2.75e-03	0	62	0	2003828736	52	5403
2026-01-24 11:19:46.08	330.54	8.07	-40.5	-43.8	10.8	2.53e-03	0	62	0	2006974464	52	5322
2026-01-24 11:19:47.09	330.63	8.00	-40.6	-43.9	10.8	2.52e-03	0	62	0	2010120192	52	5354
2026-01-24 11:19:48.10	330.71	7.93	-44.3	-56.0	3.8	1.46e+00	0	62	104	2012217344	59	14468
2026-01-24 11:19:49.11	330.80	7.86	-44.6	-56.7	3.8	1.49e+00	0	62	104	2012217344	59	15728
2026-01-24 11:19:50.12	330.88	7.79	-44.8	-57.2	3.8	1.49e+00	0	62	104	2012217344	60	15702
2026-01-24 11:19:51.13	330.96	7.72	-44.9	-57.4	3.8	1.49e+00	0	62	104	2012217344	60	15953
