passes_logs/2026/01/24/R2.0S_Moscow/R2.0S_Moscow__20260124_024347_FENGYUN_3D_rec.log

#Pass ID: 20260124_024347_FENGYUN 3D
#Satellite: FENGYUN 3D
#Configuration: FENGYUN 3D
#almurnet v.1.7.20251203
#Start time: 2026-01-24 02:43:49

#Version: 2.2.20231116
#Station: R2.0S_Moscow
#Location: 37.707566 lon 55.798166 lat
#TLE: 1 43010U 17072A   26022.96745493  .00000490  00000+0  25355-3 0  9999
#TLE: 2 43010  98.9955 354.9072 0002484  95.6139 264.5320 14.19700039424383

#Time	Az	El	Level	Level2	SNR	BER	BlckErr	Temp	State	Recorded	gain1	gain2
2026-01-24 02:43:49.44	12.83	2.13	-40.0	-51.6	3.8	8.45e-01	0	52	0	0	52	13017
2026-01-24 02:43:50.45	12.79	2.19	-40.0	-51.6	3.8	8.46e-01	0	52	104	0	52	12979
2026-01-24 02:43:51.46	12.76	2.25	-40.0	-51.6	3.8	8.46e-01	0	52	104	0	52	12982
2026-01-24 02:43:52.47	12.72	2.32	-40.0	-51.5	3.8	8.46e-01	0	52	104	0	52	12937
2026-01-24 02:43:53.48	12.68	2.38	-40.0	-51.6	3.8	8.46e-01	0	52	104	0	52	12993
2026-01-24 02:43:54.49	12.64	2.44	-40.0	-51.6	3.8	8.47e-01	0	53	104	0	52	13003
2026-01-24 02:43:55.51	12.60	2.51	-40.0	-51.5	3.8	8.46e-01	0	53	104	0	52	12956
2026-01-24 02:43:56.52	12.57	2.57	-40.0	-51.6	3.8	8.47e-01	0	53	104	0	52	12971
2026-01-24 02:43:57.53	12.53	2.63	-40.0	-51.6	3.8	8.46e-01	0	53	104	0	52	12980
2026-01-24 02:43:58.54	12.49	2.70	-40.0	-51.6	3.8	8.47e-01	0	53	104	0	52	12991
2026-01-24 02:43:59.55	12.45	2.76	-40.0	-51.6	3.8	8.46e-01	0	53	104	0	52	12970
2026-01-24 02:44:00.56	12.41	2.82	-40.0	-51.6	3.8	8.46e-01	0	53	104	0	52	13004
2026-01-24 02:44:01.57	12.37	2.89	-40.0	-51.6	3.8	8.46e-01	0	53	104	0	52	12961
2026-01-24 02:44:02.58	12.33	2.95	-40.0	-51.6	3.8	8.47e-01	0	53	104	0	52	12982
2026-01-24 02:44:03.59	12.29	3.01	-40.0	-51.5	3.8	8.48e-01	0	53	104	0	52	12895
2026-01-24 02:44:04.60	12.25	3.08	-40.0	-51.6	3.8	8.47e-01	0	53	104	0	52	12987
2026-01-24 02:44:05.61	12.21	3.14	-40.0	-51.5	3.8	8.47e-01	0	53	104	0	52	12929
2026-01-24 02:44:06.62	12.17	3.21	-40.0	-51.5	3.8	8.46e-01	0	53	104	0	52	12959
2026-01-24 02:44:07.63	12.13	3.27	-40.0	-51.6	3.8	8.46e-01	0	53	104	0	52	12974
2026-01-24 02:44:08.65	12.09	3.34	-40.0	-51.5	3.8	8.46e-01	0	53	104	0	52	12952
2026-01-24 02:44:09.66	12.05	3.40	-40.0	-51.5	3.8	8.46e-01	0	54	104	0	52	12946
2026-01-24 02:44:10.67	12.00	3.47	-40.0	-51.5	3.8	8.45e-01	0	53	104	0	52	12932
2026-01-24 02:44:11.68	11.96	3.53	-40.0	-51.5	3.8	8.46e-01	0	54	104	0	52	12947
2026-01-24 02:44:12.69	11.92	3.60	-40.0	-51.5	3.8	8.46e-01	0	54	104	0	52	12933
2026-01-24 02:44:13.70	11.88	3.66	-40.0	-51.5	3.8	8.45e-01	0	54	104	0	52	12906
2026-01-24 02:44:14.71	11.84	3.73	-40.0	-51.5	3.8	8.45e-01	0	54	104	0	52	12910
2026-01-24 02:44:15.72	11.79	3.79	-40.0	-51.5	3.8	8.46e-01	0	54	104	0	52	12890
2026-01-24 02:44:16.73	11.75	3.86	-40.0	-51.5	3.8	8.47e-01	0	54	104	0	52	12848
2026-01-24 02:44:17.73	11.71	3.93	-40.0	-51.5	3.8	8.46e-01	0	54	104	0	52	12836
2026-01-24 02:44:18.74	11.67	3.99	-40.0	-51.4	3.8	8.46e-01	0	54	104	0	52	12796
2026-01-24 02:44:19.76	11.62	4.06	-40.1	-51.5	3.8	8.46e-01	0	54	104	0	51	13651
2026-01-24 02:44:20.77	11.58	4.13	-40.1	-51.5	3.8	8.45e-01	0	54	104	0	51	13576
2026-01-24 02:44:21.78	11.54	4.19	-40.1	-51.4	3.8	8.46e-01	0	55	104	0	51	13513
2026-01-24 02:44:22.79	11.49	4.26	-40.0	-51.4	3.8	8.48e-01	0	54	104	0	51	13459
2026-01-24 02:44:23.80	11.45	4.33	-40.0	-51.3	3.8	8.47e-01	0	55	104	0	51	13363
2026-01-24 02:44:24.81	11.40	4.39	-40.0	-51.3	3.8	8.46e-01	0	55	104	0	51	13397
2026-01-24 02:44:25.82	11.36	4.46	-40.0	-51.3	3.8	8.48e-01	0	55	104	0	51	13392
2026-01-24 02:44:26.83	11.31	4.53	-40.0	-51.3	3.8	8.46e-01	0	55	104	0	51	13342
2026-01-24 02:44:27.84	11.27	4.59	-40.0	-51.3	3.8	8.46e-01	0	55	104	0	51	13364
2026-01-24 02:44:28.85	11.22	4.66	-40.0	-51.4	3.8	8.46e-01	0	55	104	0	51	13434
2026-01-24 02:44:29.86	11.18	4.73	-40.0	-51.3	3.8	8.46e-01	0	55	104	0	51	13372
2026-01-24 02:44:30.87	11.13	4.80	-40.0	-51.4	3.8	8.45e-01	0	55	104	0	51	13450
2026-01-24 02:44:31.89	11.09	4.87	-40.0	-51.4	3.8	8.45e-01	0	55	104	0	51	13566
2026-01-24 02:44:32.90	11.04	4.93	-40.0	-51.4	3.8	8.46e-01	0	55	104	0	51	13535
2026-01-24 02:44:33.90	10.99	5.00	-40.0	-51.5	3.8	8.47e-01	0	55	104	0	51	13602
2026-01-24 02:44:34.91	10.95	5.07	-40.0	-51.5	3.8	8.47e-01	0	55	104	0	51	13628
2026-01-24 02:44:35.92	10.90	5.14	-40.1	-51.5	3.8	8.46e-01	0	55	104	0	51	13683
2026-01-24 02:44:36.93	10.85	5.21	-40.1	-51.6	3.8	8.48e-01	0	55	104	0	51	13782
2026-01-24 02:44:37.94	10.81	5.28	-40.1	-51.6	3.8	8.46e-01	0	55	104	0	51	13810
2026-01-24 02:44:38.95	10.76	5.35	-40.1	-51.6	3.8	8.46e-01	0	55	104	0	51	13783
2026-01-24 02:44:39.96	10.71	5.42	-40.1	-51.6	3.8	8.45e-01	0	55	104	0	51	13787
2026-01-24 02:44:40.97	10.66	5.49	-40.1	-51.6	3.8	8.47e-01	0	56	104	0	51	13882
2026-01-24 02:44:41.98	10.61	5.55	-40.1	-51.6	3.8	8.46e-01	0	55	104	0	51	13842
2026-01-24 02:44:42.99	10.57	5.62	-40.1	-51.6	3.8	8.46e-01	0	56	104	0	51	13860
2026-01-24 02:44:44.00	10.52	5.69	-40.1	-51.6	3.8	8.46e-01	0	56	104	0	51	13882
2026-01-24 02:44:45.01	10.47	5.76	-40.1	-51.6	3.8	8.47e-01	0	56	104	0	51	13802
2026-01-24 02:44:46.02	10.42	5.84	-40.1	-51.6	3.8	8.46e-01	0	56	104	0	51	13757
2026-01-24 02:44:47.03	10.37	5.91	-40.1	-51.6	3.8	8.46e-01	0	56	104	0	51	13815
2026-01-24 02:44:48.04	10.32	5.98	-40.1	-51.6	3.8	8.48e-01	0	56	104	0	51	13747
2026-01-24 02:44:49.05	10.27	6.05	-40.1	-51.6	3.8	8.45e-01	0	56	104	0	51	13772
2026-01-24 02:44:50.07	10.22	6.12	-40.1	-51.6	3.8	8.46e-01	0	56	104	0	51	13781
2026-01-24 02:44:51.08	10.17	6.19	-40.1	-51.6	3.8	8.47e-01	0	56	104	0	51	13763
2026-01-24 02:44:52.09	10.12	6.26	-40.1	-51.6	3.8	8.46e-01	0	56	104	0	51	13767
2026-01-24 02:44:53.10	10.07	6.33	-40.1	-51.6	3.8	8.47e-01	0	56	104	0	51	13754
2026-01-24 02:44:54.11	10.01	6.40	-40.1	-51.6	3.8	8.46e-01	0	56	104	0	51	13771
2026-01-24 02:44:55.12	9.96	6.48	-40.1	-51.6	3.8	8.48e-01	0	56	104	0	51	13752
2026-01-24 02:44:56.13	9.91	6.55	-40.1	-51.6	3.8	8.46e-01	0	56	104	0	51	13773
2026-01-24 02:44:57.14	9.86	6.62	-40.1	-51.6	3.8	8.46e-01	0	56	104	0	51	13739
2026-01-24 02:44:58.15	9.81	6.69	-40.1	-51.6	3.8	8.46e-01	0	56	104	0	51	13781
2026-01-24 02:44:59.16	9.75	6.77	-40.1	-51.6	3.8	8.47e-01	0	56	104	0	51	13771
2026-01-24 02:45:00.17	9.70	6.84	-40.1	-51.6	3.8	8.46e-01	0	56	104	0	51	13812
2026-01-24 02:45:01.18	9.65	6.91	-40.1	-51.6	3.8	8.46e-01	0	56	104	0	51	13815
2026-01-24 02:45:02.19	9.59	6.98	-40.1	-51.6	3.8	8.45e-01	0	56	104	0	51	13783
2026-01-24 02:45:03.20	9.54	7.06	-40.1	-51.6	3.8	8.46e-01	0	56	104	0	51	13772
2026-01-24 02:45:04.21	9.48	7.13	-40.1	-51.5	3.8	8.46e-01	0	57	104	0	51	13722
2026-01-24 02:45:05.22	9.43	7.21	-40.1	-51.5	3.8	8.47e-01	0	57	104	0	51	13709
2026-01-24 02:45:06.24	9.37	7.28	-40.1	-51.6	3.8	8.46e-01	0	57	104	0	51	13760
2026-01-24 02:45:07.25	9.32	7.35	-40.1	-51.6	3.8	8.45e-01	0	57	104	0	51	13787
2026-01-24 02:45:08.26	9.26	7.43	-40.1	-51.6	3.8	8.46e-01	0	57	104	0	51	13785
2026-01-24 02:45:09.27	9.21	7.50	-40.1	-51.6	3.8	8.46e-01	0	57	104	0	51	13794
2026-01-24 02:45:10.28	9.15	7.58	-40.1	-51.6	3.8	8.47e-01	0	57	104	0	51	13802
2026-01-24 02:45:11.29	9.10	7.65	-40.0	-51.6	3.8	8.47e-01	0	57	104	0	51	13788
2026-01-24 02:45:12.30	9.04	7.73	-40.0	-51.6	3.8	8.47e-01	0	57	104	0	51	13767
2026-01-24 02:45:13.31	8.98	7.80	-40.1	-51.6	3.8	8.46e-01	0	57	104	0	51	13770
2026-01-24 02:45:14.32	8.92	7.88	-40.1	-51.6	3.8	8.46e-01	0	57	104	0	51	13769
2026-01-24 02:45:15.33	8.87	7.95	-40.1	-51.6	3.8	8.45e-01	0	57	104	0	51	13798
2026-01-24 02:45:16.34	8.81	8.03	-40.1	-51.6	3.8	8.45e-01	0	57	104	0	51	13819
2026-01-24 02:45:17.35	8.75	8.11	-40.0	-51.5	3.8	8.47e-01	0	57	104	0	51	13647
2026-01-24 02:45:18.36	8.69	8.18	-40.1	-51.6	3.8	8.46e-01	0	57	104	0	51	13805
2026-01-24 02:45:19.37	8.63	8.26	-40.3	-51.9	3.8	8.46e-01	0	57	104	0	51	14215
2026-01-24 02:45:20.37	8.57	8.33	-40.2	-51.8	3.8	8.45e-01	0	57	104	0	51	14140
2026-01-24 02:45:21.38	8.51	8.41	-40.0	-51.5	3.8	8.45e-01	0	57	104	0	51	13653
2026-01-24 02:45:22.39	8.45	8.49	-40.1	-51.6	3.8	8.46e-01	0	57	104	0	51	13847
2026-01-24 02:45:23.40	8.39	8.56	-40.3	-51.8	3.8	8.45e-01	0	57	104	0	51	14132
2026-01-24 02:45:24.41	8.33	8.64	-40.1	-51.7	3.8	8.46e-01	0	57	104	0	51	13979
2026-01-24 02:45:25.42	8.27	8.72	-39.9	-51.5	3.8	8.46e-01	0	57	104	0	51	13570
2026-01-24 02:45:26.43	8.21	8.80	-40.0	-51.6	3.8	8.45e-01	0	57	104	0	51	13764
2026-01-24 02:45:27.44	8.15	8.88	-40.2	-51.7	3.8	8.46e-01	0	57	104	0	51	13971
2026-01-24 02:45:28.45	8.09	8.95	-40.1	-51.6	3.8	8.46e-01	0	57	104	0	51	13797
2026-01-24 02:45:29.46	8.02	9.03	-39.9	-51.4	3.8	8.47e-01	0	57	104	0	51	13567
2026-01-24 02:45:30.47	7.96	9.11	-40.0	-51.6	3.8	8.45e-01	0	58	104	0	51	13764
2026-01-24 02:45:31.48	7.90	9.19	-40.1	-51.7	3.8	8.47e-01	0	58	104	0	51	13961
2026-01-24 02:45:32.49	7.84	9.27	-40.0	-51.5	3.8	8.45e-01	0	58	104	0	51	13724
2026-01-24 02:45:33.50	7.77	9.35	-39.9	-51.5	3.8	8.45e-01	0	58	104	0	51	13604
2026-01-24 02:45:34.50	7.71	9.43	-40.0	-51.5	3.8	8.47e-01	0	58	104	0	51	13722
2026-01-24 02:45:35.51	7.64	9.51	-40.1	-51.7	3.8	8.47e-01	0	58	104	0	51	13896
2026-01-24 02:45:36.52	7.58	9.59	-40.0	-51.6	3.8	8.46e-01	0	58	104	0	51	13769
2026-01-24 02:45:37.54	7.51	9.67	-39.8	-51.3	3.8	8.46e-01	0	58	104	0	51	13399
2026-01-24 02:45:38.55	7.45	9.75	-39.8	-51.3	3.8	8.45e-01	0	58	104	0	51	13399
2026-01-24 02:45:39.56	7.38	9.83	-39.7	-51.3	3.8	8.47e-01	0	58	104	0	51	13341
2026-01-24 02:45:40.57	7.31	9.91	-39.7	-51.3	3.8	8.46e-01	0	58	104	0	51	13270
2026-01-24 02:45:41.57	7.25	9.99	-39.8	-51.3	3.8	8.45e-01	0	58	104	0	51	13327
2026-01-24 02:45:42.58	7.18	10.07	-40.2	-51.8	3.8	8.46e-01	0	58	104	0	51	14152
2026-01-24 02:45:43.59	7.11	10.15	-40.3	-51.9	3.8	8.46e-01	0	58	104	0	51	14284
2026-01-24 02:45:44.60	7.04	10.23	-39.9	-51.5	3.8	8.46e-01	0	58	104	0	51	13597
2026-01-24 02:45:45.61	6.98	10.32	-39.9	-51.5	3.8	8.46e-01	0	58	104	0	51	13609
2026-01-24 02:45:46.62	6.91	10.40	-39.9	-51.5	3.8	8.46e-01	0	58	104	0	51	13667
2026-01-24 02:45:47.63	6.84	10.48	-39.9	-51.5	3.8	8.45e-01	0	58	104	0	51	13598
2026-01-24 02:45:48.64	6.77	10.56	-40.2	-51.8	3.8	8.46e-01	0	58	104	0	51	14098
2026-01-24 02:45:49.65	6.70	10.65	-40.1	-51.6	3.8	8.46e-01	0	58	104	0	51	13876
2026-01-24 02:45:50.66	6.63	10.73	-40.7	-52.1	3.8	8.45e-01	0	58	104	0	51	14655
2026-01-24 02:45:51.66	6.56	10.81	-40.5	-52.0	3.8	8.47e-01	0	58	104	0	52	13645
2026-01-24 02:45:52.67	6.49	10.90	-40.0	-51.5	3.8	8.46e-01	0	58	104	0	52	12912
2026-01-24 02:45:53.68	6.41	10.98	-40.2	-51.6	3.8	8.46e-01	0	58	104	0	51	13773
2026-01-24 02:45:54.69	6.34	11.06	-40.2	-51.5	3.8	8.44e-01	0	58	104	0	51	13681
2026-01-24 02:45:55.70	6.27	11.15	-40.2	-51.5	3.8	8.46e-01	0	58	104	0	51	13579
2026-01-24 02:45:56.71	6.20	11.23	-40.4	-51.6	3.8	8.46e-01	0	58	104	0	51	13817
2026-01-24 02:45:57.72	6.12	11.32	-40.4	-51.8	3.8	8.45e-01	0	58	104	0	51	14085
2026-01-24 02:45:58.73	6.05	11.40	-41.1	-51.3	3.8	8.45e-01	0	58	104	0	52	12662
2026-01-24 02:45:59.74	5.97	11.49	-41.6	-49.8	4.2	8.42e-01	0	58	104	0	53	10005
2026-01-24 02:46:00.75	5.90	11.57	-41.2	-52.6	3.8	8.38e-01	0	58	104	0	53	13773
2026-01-24 02:46:01.76	5.82	11.66	-41.2	-49.1	4.4	8.43e-01	0	58	104	0	53	9222
2026-01-24 02:46:02.77	5.75	11.75	-41.0	-47.5	5.2	7.63e-01	0	58	0	0	53	7657
2026-01-24 02:46:03.78	5.67	11.83	-40.9	-46.7	5.9	4.41e-01	0	58	0	2097152	53	6960
2026-01-24 02:46:04.79	5.59	11.92	-40.8	-46.3	6.3	3.12e-01	0	58	0	7340032	53	6702
2026-01-24 02:46:05.80	5.52	12.01	-40.5	-45.3	7.1	2.13e-01	0	58	0	13631488	52	6339
2026-01-24 02:46:06.81	5.44	12.09	-40.1	-44.4	7.9	1.03e-01	0	58	0	18874368	52	5713
2026-01-24 02:46:07.82	5.36	12.18	-39.6	-43.4	9.0	4.87e-02	0	59	0	24117248	51	5347
2026-01-24 02:46:08.83	5.28	12.27	-38.9	-42.1	10.4	9.15e-03	0	58	0	30408704	49	5165
2026-01-24 02:46:09.83	5.20	12.36	-38.1	-40.8	11.7	1.83e-03	0	58	0	35651584	48	4748
2026-01-24 02:46:10.84	5.12	12.44	-37.6	-40.1	12.2	3.56e-04	0	59	0	41943040	47	4646
2026-01-24 02:46:11.85	5.04	12.53	-37.6	-40.1	12.3	2.66e-04	0	59	0	47185920	47	4603
2026-01-24 02:46:12.86	4.96	12.62	-37.5	-40.0	12.4	2.08e-04	0	59	0	52428800	47	4555
2026-01-24 02:46:13.87	4.88	12.71	-37.6	-40.2	12.3	2.76e-04	0	59	0	58720256	47	4657
2026-01-24 02:46:14.89	4.80	12.80	-37.9	-40.6	11.9	5.08e-04	0	59	0	63963136	47	4876
2026-01-24 02:46:15.90	4.72	12.89	-38.3	-41.1	11.3	1.23e-03	0	59	0	70254592	47	5212
2026-01-24 02:46:16.91	4.63	12.98	-38.5	-41.5	11.0	2.46e-03	0	58	0	75497472	47	5421
2026-01-24 02:46:17.92	4.55	13.07	-38.7	-41.8	10.7	3.83e-03	0	59	0	80740352	47	5593
2026-01-24 02:46:18.93	4.47	13.16	-38.9	-42.1	10.5	5.12e-03	0	59	0	87031808	48	5487
2026-01-24 02:46:19.94	4.38	13.25	-38.9	-41.9	10.7	4.72e-03	0	59	0	92274688	48	5383
2026-01-24 02:46:20.95	4.30	13.34	-38.7	-41.6	11.1	2.85e-03	0	59	0	98566144	48	5174
2026-01-24 02:46:21.95	4.21	13.43	-38.6	-41.4	11.3	1.80e-03	0	59	0	103809024	48	5083
2026-01-24 02:46:22.96	4.13	13.52	-38.4	-41.1	11.7	1.02e-03	0	59	0	110100480	48	4883
2026-01-24 02:46:23.98	4.04	13.62	-38.3	-40.9	11.8	6.33e-04	0	59	0	115343360	48	4791
2026-01-24 02:46:24.98	3.95	13.71	-38.0	-40.4	12.5	2.71e-04	0	59	0	121634816	48	4538
2026-01-24 02:46:25.99	3.86	13.80	-37.7	-40.0	13.0	7.32e-05	0	59	0	126877696	47	4586
2026-01-24 02:46:27.00	3.78	13.89	-37.6	-39.8	13.4	3.20e-05	0	59	0	132120576	47	4462
2026-01-24 02:46:28.01	3.69	13.98	-37.9	-40.2	12.9	5.37e-05	0	59	0	138412032	47	4704
2026-01-24 02:46:29.02	3.60	14.08	-38.1	-40.6	12.6	1.11e-04	0	59	0	143654912	47	4879
2026-01-24 02:46:30.03	3.51	14.17	-38.2	-40.7	12.6	1.97e-04	0	59	0	149946368	47	4929
2026-01-24 02:46:31.04	3.42	14.26	-38.2	-40.6	12.6	1.21e-04	0	59	0	155189248	47	4918
2026-01-24 02:46:32.05	3.33	14.36	-38.4	-40.8	12.5	1.74e-04	0	59	0	160432128	47	5040
2026-01-24 02:46:33.06	3.23	14.45	-38.3	-40.7	12.7	1.45e-04	0	59	0	166723584	47	4961
2026-01-24 02:46:34.07	3.14	14.55	-38.0	-40.2	13.3	5.83e-05	0	59	0	171966464	47	4698
2026-01-24 02:46:35.08	3.05	14.64	-37.7	-39.7	13.9	1.25e-05	0	59	0	178257920	47	4440
2026-01-24 02:46:36.09	2.95	14.74	-37.6	-39.7	14.1	4.50e-06	0	59	0	183500800	47	4398
2026-01-24 02:46:37.09	2.86	14.83	-37.9	-40.0	13.8	3.40e-06	0	59	0	188743680	47	4566
2026-01-24 02:46:38.10	2.77	14.93	-38.1	-40.3	13.5	1.14e-05	0	59	0	195035136	47	4716
2026-01-24 02:46:39.11	2.67	15.02	-37.9	-40.0	13.9	1.02e-05	0	59	0	200278016	47	4548
2026-01-24 02:46:40.12	2.57	15.12	-37.4	-39.3	14.6	0.00e+00	0	59	0	206569472	46	4484
2026-01-24 02:46:41.13	2.48	15.22	-37.4	-39.3	14.6	0.00e+00	0	59	0	211812352	46	4486
2026-01-24 02:46:42.14	2.38	15.31	-37.8	-39.8	14.2	2.20e-06	0	59	0	218103808	46	4724
2026-01-24 02:46:43.15	2.28	15.41	-37.8	-39.8	14.3	2.20e-06	0	59	0	223346688	46	4744
2026-01-24 02:46:44.16	2.18	15.51	-37.6	-39.5	14.7	0.00e+00	0	59	0	228589568	46	4567
2026-01-24 02:46:45.17	2.08	15.61	-37.7	-39.6	14.6	1.10e-06	0	59	0	234881024	46	4631
2026-01-24 02:46:46.18	1.98	15.70	-37.6	-39.5	14.7	0.00e+00	0	59	0	240123904	46	4592
2026-01-24 02:46:47.19	1.88	15.80	-37.6	-39.5	14.7	1.10e-06	0	59	0	246415360	46	4582
2026-01-24 02:46:48.20	1.78	15.90	-37.5	-39.4	14.8	0.00e+00	0	59	0	251658240	46	4511
2026-01-24 02:46:49.21	1.68	16.00	-37.6	-39.5	14.8	0.00e+00	0	59	0	256901120	46	4557
2026-01-24 02:46:50.22	1.57	16.10	-37.6	-39.5	14.7	0.00e+00	0	59	0	263192576	46	4585
2026-01-24 02:46:51.23	1.47	16.20	-37.6	-39.4	14.8	0.00e+00	0	59	0	268435456	46	4545
2026-01-24 02:46:52.24	1.37	16.30	-37.6	-39.5	14.8	0.00e+00	0	59	0	274726912	46	4569
2026-01-24 02:46:53.25	1.26	16.40	-37.6	-39.6	14.7	2.20e-06	0	59	0	279969792	46	4605
2026-01-24 02:46:54.26	1.15	16.50	-37.7	-39.7	14.6	0.00e+00	0	59	0	285212672	46	4655
2026-01-24 02:46:55.27	1.05	16.60	-37.7	-39.7	14.7	0.00e+00	0	59	0	291504128	46	4658
2026-01-24 02:46:56.27	0.94	16.70	-37.8	-39.7	14.6	0.00e+00	0	59	0	296747008	46	4697
2026-01-24 02:46:57.29	0.83	16.80	-37.7	-39.6	14.8	0.00e+00	0	59	0	303038464	46	4604
2026-01-24 02:46:58.29	0.72	16.90	-37.8	-39.7	14.7	0.00e+00	0	59	0	308281344	46	4675
2026-01-24 02:46:59.30	0.61	17.01	-37.6	-39.5	14.9	1.10e-06	0	59	0	314572800	46	4577
2026-01-24 02:47:00.31	0.50	17.11	-37.7	-39.6	14.9	0.00e+00	0	59	0	319815680	46	4603
2026-01-24 02:47:01.32	0.39	17.21	-37.7	-39.5	14.9	0.00e+00	0	59	0	325058560	46	4591
2026-01-24 02:47:02.33	0.28	17.31	-37.6	-39.5	15.0	0.00e+00	0	59	0	331350016	46	4559
2026-01-24 02:47:03.34	0.17	17.42	-37.6	-39.4	15.1	0.00e+00	0	59	0	336592896	46	4515
2026-01-24 02:47:04.36	0.05	17.52	-37.6	-39.4	15.1	0.00e+00	0	59	0	342884352	46	4530
2026-01-24 02:47:05.37	359.94	17.63	-37.3	-39.1	15.4	0.00e+00	0	59	0	348127232	46	4354
2026-01-24 02:47:06.38	359.82	17.73	-37.2	-39.0	15.5	0.00e+00	0	59	0	354418688	46	4308
2026-01-24 02:47:07.39	359.71	17.84	-37.3	-39.1	15.4	0.00e+00	0	59	0	359661568	46	4352
2026-01-24 02:47:08.39	359.59	17.94	-37.4	-39.1	15.4	0.00e+00	0	59	0	364904448	46	4371
2026-01-24 02:47:09.40	359.47	18.04	-37.4	-39.1	15.4	0.00e+00	0	59	0	371195904	46	4380
2026-01-24 02:47:10.41	359.36	18.15	-37.3	-39.1	15.4	0.00e+00	0	59	0	376438784	46	4361
2026-01-24 02:47:11.42	359.24	18.26	-37.3	-39.1	15.4	0.00e+00	0	59	0	381681664	46	4369
2026-01-24 02:47:12.43	359.12	18.36	-37.3	-39.1	15.4	0.00e+00	0	60	0	387973120	46	4368
2026-01-24 02:47:13.44	358.99	18.47	-37.2	-38.9	15.5	0.00e+00	0	59	0	393216000	46	4270
2026-01-24 02:47:14.45	358.87	18.58	-37.1	-38.8	15.6	0.00e+00	0	59	0	399507456	46	4222
2026-01-24 02:47:15.46	358.75	18.68	-37.0	-38.7	15.7	0.00e+00	0	59	0	404750336	46	4179
2026-01-24 02:47:16.47	358.63	18.79	-37.0	-38.7	15.7	0.00e+00	0	59	0	411041792	46	4193
2026-01-24 02:47:17.48	358.50	18.90	-37.1	-38.8	15.6	0.00e+00	0	60	0	416284672	46	4225
2026-01-24 02:47:18.49	358.38	19.01	-37.0	-38.7	15.6	0.00e+00	0	60	0	422576128	46	4190
2026-01-24 02:47:19.50	358.25	19.12	-36.9	-38.6	15.7	0.00e+00	0	60	0	427819008	45	4388
2026-01-24 02:47:20.51	358.12	19.23	-37.1	-38.8	15.4	0.00e+00	0	59	0	433061888	45	4477
2026-01-24 02:47:21.52	357.99	19.33	-37.3	-39.1	15.1	0.00e+00	0	59	0	439353344	45	4619
2026-01-24 02:47:22.53	357.86	19.44	-37.2	-39.0	15.1	0.00e+00	0	60	0	444596224	45	4562
2026-01-24 02:47:23.54	357.73	19.55	-37.0	-38.8	15.4	0.00e+00	0	60	0	450887680	45	4443
2026-01-24 02:47:24.55	357.60	19.66	-36.9	-38.6	15.5	0.00e+00	0	59	0	456130560	45	4369
2026-01-24 02:47:25.56	357.47	19.78	-36.9	-38.6	15.4	0.00e+00	0	60	0	461373440	45	4381
2026-01-24 02:47:26.57	357.34	19.89	-36.8	-38.6	15.4	0.00e+00	0	60	0	467664896	45	4376
2026-01-24 02:47:27.58	357.20	20.00	-36.7	-38.5	15.5	0.00e+00	0	60	0	472907776	45	4311
2026-01-24 02:47:28.59	357.07	20.11	-36.8	-38.5	15.3	0.00e+00	0	60	0	479199232	45	4333
2026-01-24 02:47:29.60	356.93	20.22	-36.7	-38.5	15.3	0.00e+00	0	60	0	484442112	45	4295
2026-01-24 02:47:30.61	356.79	20.33	-36.7	-38.4	15.3	0.00e+00	0	60	0	489684992	45	4280
2026-01-24 02:47:31.62	356.65	20.45	-36.6	-38.4	15.4	0.00e+00	0	60	0	495976448	45	4262
2026-01-24 02:47:32.63	356.52	20.56	-36.6	-38.3	15.4	0.00e+00	0	60	0	501219328	45	4230
2026-01-24 02:47:33.63	356.38	20.67	-36.5	-38.3	15.4	0.00e+00	0	60	0	507510784	45	4203
2026-01-24 02:47:34.64	356.23	20.78	-36.6	-38.3	15.3	0.00e+00	0	60	0	512753664	45	4229
2026-01-24 02:47:35.65	356.09	20.90	-36.5	-38.3	15.3	0.00e+00	0	60	0	519045120	45	4210
2026-01-24 02:47:36.66	355.95	21.01	-36.5	-38.3	15.4	0.00e+00	0	60	0	524288000	45	4200
2026-01-24 02:47:37.67	355.80	21.13	-36.5	-38.3	15.4	0.00e+00	0	60	0	529530880	45	4195
2026-01-24 02:47:38.68	355.66	21.24	-36.3	-38.0	15.7	0.00e+00	0	60	0	535822336	44	4326
2026-01-24 02:47:39.69	355.51	21.36	-36.2	-37.9	15.8	0.00e+00	0	60	0	541065216	44	4257
2026-01-24 02:47:40.70	355.36	21.47	-36.0	-37.6	16.0	0.00e+00	0	60	0	547356672	44	4140
2026-01-24 02:47:41.71	355.21	21.59	-35.7	-37.3	16.2	0.00e+00	0	60	0	552599552	43	4236
2026-01-24 02:47:42.72	355.06	21.71	-35.8	-37.5	16.0	0.00e+00	0	60	0	557842432	43	4302
2026-01-24 02:47:43.73	354.91	21.82	-36.0	-37.7	15.9	0.00e+00	0	60	0	564133888	43	4399
2026-01-24 02:47:44.74	354.76	21.94	-36.2	-37.9	15.6	0.00e+00	0	60	0	569376768	43	4526
2026-01-24 02:47:45.75	354.60	22.06	-36.2	-37.9	15.8	0.00e+00	0	60	0	575668224	43	4520
2026-01-24 02:47:46.76	354.45	22.17	-36.1	-37.8	16.0	0.00e+00	0	60	0	580911104	43	4447
2026-01-24 02:47:47.77	354.29	22.29	-36.1	-37.7	16.2	0.00e+00	0	60	0	586153984	43	4399
2026-01-24 02:47:48.78	354.14	22.41	-36.2	-37.8	16.2	0.00e+00	0	60	0	592445440	43	4449
2026-01-24 02:47:49.79	353.98	22.53	-36.3	-38.0	16.0	0.00e+00	0	60	0	597688320	43	4546
2026-01-24 02:47:50.79	353.82	22.64	-36.5	-38.2	15.8	0.00e+00	0	60	0	603979776	43	4685
2026-01-24 02:47:51.80	353.66	22.76	-36.5	-38.1	15.8	0.00e+00	0	60	0	609222656	43	4649
2026-01-24 02:47:52.81	353.49	22.88	-36.4	-38.1	15.9	0.00e+00	0	60	0	615514112	43	4601
2026-01-24 02:47:53.82	353.33	23.00	-36.3	-38.0	16.0	0.00e+00	0	60	0	620756992	43	4556
2026-01-24 02:47:54.83	353.17	23.12	-36.3	-37.9	16.2	0.00e+00	0	60	0	627048448	43	4497
2026-01-24 02:47:55.84	353.00	23.24	-36.5	-38.1	16.0	0.00e+00	0	60	0	632291328	43	4647
2026-01-24 02:47:56.85	352.83	23.36	-36.4	-38.0	16.2	0.00e+00	0	60	0	637534208	43	4548
2026-01-24 02:47:57.86	352.66	23.48	-35.9	-37.4	16.8	0.00e+00	0	60	0	643825664	43	4291
2026-01-24 02:47:58.87	352.49	23.61	-35.8	-37.2	17.1	0.00e+00	0	60	0	649068544	43	4173
2026-01-24 02:47:59.88	352.32	23.73	-36.0	-37.4	16.9	0.00e+00	0	60	0	655360000	43	4281
2026-01-24 02:48:00.89	352.15	23.85	-36.0	-37.5	16.9	0.00e+00	0	60	0	660602880	43	4329
2026-01-24 02:48:01.90	351.97	23.97	-36.0	-37.5	16.8	0.00e+00	0	60	0	665845760	43	4332
2026-01-24 02:48:02.91	351.80	24.09	-36.1	-37.6	16.8	0.00e+00	0	60	0	672137216	43	4359
2026-01-24 02:48:03.92	351.62	24.22	-36.2	-37.8	16.7	0.00e+00	0	60	0	677380096	43	4442
2026-01-24 02:48:04.93	351.44	24.34	-36.1	-37.6	16.8	0.00e+00	0	60	0	683671552	43	4386
2026-01-24 02:48:05.94	351.26	24.46	-36.1	-37.7	16.8	0.00e+00	0	60	0	688914432	43	4396
2026-01-24 02:48:06.95	351.08	24.58	-36.1	-37.7	16.8	0.00e+00	0	60	0	694157312	43	4401
2026-01-24 02:48:07.96	350.90	24.71	-36.0	-37.5	17.0	0.00e+00	0	60	0	700448768	43	4320
2026-01-24 02:48:08.96	350.71	24.83	-35.9	-37.4	17.1	0.00e+00	0	60	0	705691648	43	4273
2026-01-24 02:48:09.97	350.53	24.95	-36.0	-37.4	17.1	0.00e+00	0	60	0	711983104	43	4281
2026-01-24 02:48:10.98	350.34	25.08	-36.0	-37.4	17.1	0.00e+00	0	60	0	717225984	43	4283
2026-01-24 02:48:11.99	350.15	25.20	-35.8	-37.2	17.3	0.00e+00	0	60	0	723517440	43	4192
2026-01-24 02:48:13.00	349.96	25.33	-35.8	-37.2	17.4	0.00e+00	0	60	0	728760320	43	4171
2026-01-24 02:48:14.01	349.77	25.45	-35.8	-37.2	17.4	0.00e+00	0	60	0	734003200	43	4156
2026-01-24 02:48:15.02	349.58	25.58	-35.7	-37.1	17.5	0.00e+00	0	60	0	740294656	43	4121
2026-01-24 02:48:16.03	349.38	25.70	-35.7	-37.1	17.5	0.00e+00	0	60	0	745537536	43	4130
2026-01-24 02:48:17.04	349.18	25.83	-35.7	-37.1	17.5	0.00e+00	0	60	0	751828992	43	4130
2026-01-24 02:48:18.05	348.99	25.96	-35.6	-37.0	17.6	0.00e+00	0	60	0	757071872	43	4074
2026-01-24 02:48:19.05	348.79	26.08	-35.7	-37.1	17.6	0.00e+00	0	60	0	762314752	43	4129
2026-01-24 02:48:20.06	348.59	26.21	-35.8	-37.2	17.5	0.00e+00	0	60	0	768606208	43	4161
2026-01-24 02:48:21.08	348.38	26.34	-35.9	-37.3	17.4	0.00e+00	0	60	0	773849088	43	4228
2026-01-24 02:48:22.09	348.18	26.46	-35.8	-37.2	17.5	0.00e+00	0	60	0	780140544	43	4190
2026-01-24 02:48:23.10	347.97	26.59	-35.8	-37.2	17.6	0.00e+00	0	60	0	785383424	43	4173
2026-01-24 02:48:24.11	347.76	26.72	-35.7	-37.1	17.7	0.00e+00	0	60	0	790626304	43	4115
2026-01-24 02:48:25.12	347.55	26.84	-35.7	-37.1	17.8	0.00e+00	0	60	0	796917760	43	4114
2026-01-24 02:48:26.13	347.34	26.97	-35.7	-37.1	17.8	0.00e+00	0	60	0	802160640	43	4110
2026-01-24 02:48:27.14	347.13	27.10	-35.5	-36.9	18.0	0.00e+00	0	60	0	808452096	43	4020
2026-01-24 02:48:28.15	346.91	27.23	-35.5	-36.9	18.0	0.00e+00	0	60	0	813694976	43	4021
2026-01-24 02:48:29.16	346.69	27.36	-35.5	-36.9	18.0	0.00e+00	0	60	0	819986432	43	4009
2026-01-24 02:48:30.17	346.48	27.48	-35.7	-37.0	17.9	0.00e+00	0	60	0	825229312	43	4084
2026-01-24 02:48:31.18	346.26	27.61	-35.7	-37.1	17.8	0.00e+00	0	60	0	831520768	43	4113
2026-01-24 02:48:32.19	346.03	27.74	-35.7	-37.1	17.8	0.00e+00	0	60	0	836763648	43	4129
2026-01-24 02:48:33.20	345.81	27.87	-35.8	-37.2	17.7	0.00e+00	0	60	0	842006528	43	4169
2026-01-24 02:48:34.20	345.59	28.00	-35.8	-37.2	17.7	0.00e+00	0	60	0	848297984	43	4166
2026-01-24 02:48:35.21	345.36	28.12	-35.8	-37.2	17.7	0.00e+00	0	60	0	853540864	43	4172
2026-01-24 02:48:36.22	345.13	28.25	-35.8	-37.2	17.7	0.00e+00	0	60	0	858783744	43	4177
2026-01-24 02:48:37.23	344.90	28.38	-35.7	-37.1	17.8	0.00e+00	0	60	0	865075200	43	4118
2026-01-24 02:48:38.24	344.66	28.51	-35.8	-37.1	17.8	0.00e+00	0	60	0	870318080	43	4140
2026-01-24 02:48:39.25	344.43	28.64	-35.6	-37.0	18.0	0.00e+00	0	60	0	876609536	43	4078
2026-01-24 02:48:40.26	344.19	28.77	-35.7	-37.1	17.9	0.00e+00	0	60	0	881852416	43	4101
2026-01-24 02:48:41.27	343.95	28.90	-35.8	-37.1	17.8	0.00e+00	0	60	0	887095296	43	4134
2026-01-24 02:48:42.28	343.71	29.03	-35.8	-37.1	17.8	0.00e+00	0	60	0	893386752	43	4144
2026-01-24 02:48:43.29	343.47	29.16	-35.8	-37.1	17.9	0.00e+00	0	60	0	898629632	43	4128
2026-01-24 02:48:44.30	343.22	29.29	-35.8	-37.2	17.9	0.00e+00	0	60	0	904921088	43	4156
2026-01-24 02:48:45.31	342.98	29.42	-35.8	-37.1	17.9	0.00e+00	0	60	0	910163968	43	4141
2026-01-24 02:48:46.32	342.73	29.54	-35.8	-37.2	17.8	0.00e+00	0	60	0	916455424	43	4174
2026-01-24 02:48:47.33	342.48	29.67	-35.8	-37.1	17.9	0.00e+00	0	60	0	921698304	43	4137
2026-01-24 02:48:48.34	342.22	29.80	-35.6	-37.0	18.1	0.00e+00	0	60	0	927989760	43	4068
2026-01-24 02:48:49.35	341.97	29.93	-35.4	-36.8	18.2	0.00e+00	0	60	0	933232640	42	4197
2026-01-24 02:48:50.36	341.71	30.06	-35.4	-36.7	18.3	0.00e+00	0	60	0	938475520	42	4181
2026-01-24 02:48:51.36	341.45	30.19	-35.5	-36.8	18.2	0.00e+00	0	60	0	944766976	42	4220
2026-01-24 02:48:52.37	341.19	30.32	-35.5	-36.8	18.2	0.00e+00	0	60	0	950009856	42	4236
2026-01-24 02:48:53.38	340.93	30.45	-35.5	-36.8	18.3	0.00e+00	0	60	0	956301312	42	4219
2026-01-24 02:48:54.39	340.66	30.57	-35.5	-36.8	18.3	0.00e+00	0	60	0	961544192	42	4209
2026-01-24 02:48:55.40	340.40	30.70	-35.5	-36.8	18.3	0.00e+00	0	60	0	966787072	42	4225
2026-01-24 02:48:56.42	340.12	30.83	-35.6	-36.9	18.2	0.00e+00	0	61	0	973078528	42	4283
2026-01-24 02:48:57.42	339.85	30.96	-35.6	-37.0	18.1	0.00e+00	0	60	0	978321408	42	4296
2026-01-24 02:48:58.43	339.58	31.09	-35.5	-36.8	18.3	0.00e+00	0	60	0	984612864	42	4217
2026-01-24 02:48:59.44	339.30	31.22	-35.4	-36.7	18.4	0.00e+00	0	60	0	989855744	42	4163
2026-01-24 02:49:00.45	339.02	31.34	-35.5	-36.8	18.3	0.00e+00	0	61	0	995098624	42	4213
2026-01-24 02:49:01.47	338.74	31.47	-35.3	-36.6	18.5	0.00e+00	0	60	0	1001390080	42	4144
2026-01-24 02:49:02.48	338.46	31.60	-35.4	-36.7	18.4	0.00e+00	0	60	0	1006632960	42	4175
2026-01-24 02:49:03.49	338.17	31.73	-35.5	-36.9	18.3	0.00e+00	0	60	0	1012924416	42	4247
2026-01-24 02:49:04.49	337.89	31.85	-35.4	-36.8	18.4	0.00e+00	0	60	0	1018167296	42	4205
2026-01-24 02:49:05.50	337.60	31.98	-35.3	-36.6	18.5	0.00e+00	0	61	0	1024458752	42	4138
2026-01-24 02:49:06.51	337.30	32.10	-35.3	-36.6	18.5	0.00e+00	0	61	0	1029701632	42	4115
2026-01-24 02:49:07.52	337.01	32.23	-35.4	-36.6	18.5	0.00e+00	0	61	0	1034944512	42	4143
2026-01-24 02:49:08.53	336.71	32.36	-35.3	-36.6	18.5	0.00e+00	0	61	0	1041235968	42	4132
2026-01-24 02:49:09.54	336.41	32.48	-35.3	-36.6	18.5	0.00e+00	0	60	0	1046478848	42	4103
2026-01-24 02:49:10.55	336.11	32.60	-35.4	-36.6	18.5	0.00e+00	0	61	0	1052770304	42	4136
2026-01-24 02:49:11.56	335.81	32.73	-35.3	-36.6	18.5	0.00e+00	0	60	0	1058013184	42	4131
2026-01-24 02:49:12.57	335.50	32.85	-35.3	-36.6	18.6	0.00e+00	0	60	0	1063256064	42	4104
2026-01-24 02:49:13.58	335.19	32.98	-35.4	-36.7	18.5	0.00e+00	0	61	0	1069547520	42	4147
2026-01-24 02:49:14.59	334.88	33.10	-35.3	-36.6	18.5	0.00e+00	0	61	0	1074790400	42	4129
2026-01-24 02:49:15.60	334.57	33.22	-35.2	-36.5	18.6	0.00e+00	0	61	0	1081081856	42	4085
2026-01-24 02:49:16.61	334.25	33.34	-35.1	-36.4	18.8	0.00e+00	0	60	0	1086324736	42	4007
2026-01-24 02:49:17.61	333.94	33.46	-35.0	-36.2	18.9	0.00e+00	0	61	0	1091567616	42	3955
2026-01-24 02:49:18.62	333.62	33.59	-35.1	-36.4	18.8	0.00e+00	0	61	0	1097859072	42	4016
2026-01-24 02:49:19.63	333.29	33.71	-35.2	-36.4	18.7	0.00e+00	0	61	0	1103101952	42	4038
2026-01-24 02:49:20.64	332.97	33.83	-35.1	-36.4	18.8	0.00e+00	0	61	0	1109393408	42	4008
2026-01-24 02:49:21.65	332.64	33.95	-35.0	-36.2	18.9	0.00e+00	0	60	0	1114636288	42	3948
2026-01-24 02:49:22.66	332.31	34.06	-35.0	-36.2	18.9	0.00e+00	0	61	0	1120927744	41	4180
2026-01-24 02:49:23.67	331.98	34.18	-35.0	-36.3	18.9	0.00e+00	0	60	0	1126170624	41	4201
2026-01-24 02:49:24.68	331.64	34.30	-35.0	-36.3	18.9	0.00e+00	0	61	0	1132462080	41	4199
2026-01-24 02:49:25.69	331.30	34.42	-35.0	-36.2	18.9	0.00e+00	0	61	0	1137704960	41	4191
2026-01-24 02:49:26.71	330.96	34.53	-35.2	-36.4	18.7	0.00e+00	0	60	0	1142947840	41	4285
2026-01-24 02:49:27.72	330.62	34.65	-35.1	-36.3	18.8	0.00e+00	0	60	0	1149239296	41	4235
2026-01-24 02:49:28.73	330.27	34.76	-35.0	-36.3	18.8	0.00e+00	0	60	0	1154482176	41	4194
2026-01-24 02:49:29.74	329.92	34.88	-35.0	-36.3	18.9	0.00e+00	0	61	0	1160773632	41	4200
2026-01-24 02:49:30.75	329.57	34.99	-35.0	-36.3	18.8	0.00e+00	0	60	0	1166016512	41	4221
2026-01-24 02:49:31.76	329.22	35.10	-35.0	-36.3	18.9	0.00e+00	0	61	0	1171259392	41	4199
2026-01-24 02:49:32.77	328.87	35.21	-34.9	-36.1	19.0	0.00e+00	0	60	0	1177550848	41	4133
2026-01-24 02:49:33.78	328.51	35.32	-34.9	-36.2	19.0	0.00e+00	0	61	0	1182793728	41	4146
2026-01-24 02:49:34.79	328.15	35.43	-35.0	-36.3	18.8	0.00e+00	0	61	0	1189085184	41	4219
2026-01-24 02:49:35.80	327.79	35.54	-35.2	-36.5	18.7	0.00e+00	0	60	0	1194328064	41	4295
2026-01-24 02:49:36.81	327.42	35.65	-35.2	-36.5	18.7	0.00e+00	0	60	0	1199570944	41	4297
2026-01-24 02:49:37.82	327.06	35.76	-35.1	-36.4	18.8	0.00e+00	0	61	0	1205862400	41	4256
2026-01-24 02:49:38.83	326.69	35.86	-35.2	-36.4	18.7	0.00e+00	0	61	0	1211105280	41	4276
2026-01-24 02:49:39.83	326.32	35.97	-35.2	-36.4	18.7	0.00e+00	0	61	0	1217396736	41	4274
2026-01-24 02:49:40.85	325.94	36.07	-35.1	-36.4	18.8	0.00e+00	0	61	0	1222639616	41	4244
2026-01-24 02:49:41.85	325.57	36.17	-35.1	-36.4	18.7	0.00e+00	0	61	0	1228931072	41	4274
2026-01-24 02:49:42.86	325.19	36.27	-35.1	-36.3	18.8	0.00e+00	0	60	0	1234173952	41	4239
2026-01-24 02:49:43.87	324.81	36.37	-34.9	-36.2	19.0	0.00e+00	0	61	0	1239416832	41	4156
2026-01-24 02:49:44.88	324.42	36.47	-34.8	-36.0	19.1	0.00e+00	0	61	0	1245708288	41	4060
2026-01-24 02:49:45.89	324.04	36.57	-34.7	-35.9	19.2	0.00e+00	0	61	0	1250951168	41	4040
2026-01-24 02:49:46.90	323.65	36.67	-34.9	-36.1	19.0	0.00e+00	0	60	0	1257242624	41	4141
2026-01-24 02:49:47.91	323.26	36.76	-35.0	-36.3	18.9	0.00e+00	0	61	0	1262485504	41	4200
2026-01-24 02:49:48.92	322.86	36.86	-35.0	-36.2	18.9	0.00e+00	0	61	0	1267728384	41	4183
2026-01-24 02:49:49.93	322.47	36.95	-35.0	-36.3	18.9	0.00e+00	0	61	0	1274019840	41	4201
2026-01-24 02:49:50.94	322.07	37.04	-35.0	-36.2	18.9	0.00e+00	0	61	0	1279262720	41	4178
2026-01-24 02:49:51.95	321.67	37.13	-34.9	-36.2	18.9	0.00e+00	0	61	0	1285554176	41	4164
2026-01-24 02:49:52.96	321.27	37.22	-35.0	-36.2	18.9	0.00e+00	0	61	0	1290797056	41	4165
2026-01-24 02:49:53.97	320.87	37.31	-35.1	-36.3	18.8	0.00e+00	0	61	0	1296039936	41	4218
2026-01-24 02:49:54.98	320.46	37.40	-35.2	-36.5	18.6	0.00e+00	0	61	0	1302331392	41	4322
2026-01-24 02:49:56.00	320.05	37.48	-35.4	-36.7	18.5	0.00e+00	0	61	0	1307574272	41	4410
2026-01-24 02:49:57.00	319.64	37.57	-35.3	-36.6	18.5	0.00e+00	0	61	0	1313865728	41	4363
2026-01-24 02:49:58.01	319.23	37.65	-35.3	-36.6	18.5	0.00e+00	0	61	0	1319108608	41	4360
2026-01-24 02:49:59.02	318.81	37.73	-35.3	-36.6	18.5	0.00e+00	0	61	0	1325400064	41	4376
2026-01-24 02:50:00.03	318.39	37.81	-35.1	-36.4	18.8	0.00e+00	0	61	0	1330642944	41	4247
2026-01-24 02:50:01.04	317.98	37.88	-35.0	-36.2	18.9	0.00e+00	0	61	0	1336934400	41	4182
2026-01-24 02:50:02.05	317.55	37.96	-34.9	-36.1	19.0	0.00e+00	0	61	0	1342177280	41	4145
2026-01-24 02:50:03.06	317.13	38.03	-34.9	-36.1	19.0	0.00e+00	0	60	0	1347420160	41	4119
2026-01-24 02:50:04.07	316.71	38.11	-34.8	-36.1	19.1	0.00e+00	0	61	0	1353711616	41	4101
2026-01-24 02:50:05.08	316.28	38.18	-35.0	-36.2	18.9	0.00e+00	0	61	0	1358954496	41	4193
2026-01-24 02:50:06.09	315.85	38.25	-35.0	-36.3	18.8	0.00e+00	0	61	0	1365245952	41	4210
2026-01-24 02:50:07.10	315.42	38.31	-35.1	-36.4	18.8	0.00e+00	0	61	0	1370488832	41	4248
2026-01-24 02:50:08.11	314.99	38.38	-35.1	-36.4	18.8	0.00e+00	0	61	0	1375731712	41	4250
2026-01-24 02:50:09.12	314.55	38.44	-35.2	-36.5	18.7	0.00e+00	0	61	0	1382023168	41	4303
2026-01-24 02:50:10.13	314.12	38.51	-35.0	-36.3	18.9	0.00e+00	0	61	0	1387266048	41	4208
2026-01-24 02:50:11.14	313.68	38.57	-35.1	-36.3	18.8	0.00e+00	0	61	0	1393557504	41	4232
2026-01-24 02:50:12.15	313.24	38.63	-35.1	-36.4	18.8	0.00e+00	0	61	0	1398800384	41	4246
2026-01-24 02:50:13.16	312.80	38.68	-35.1	-36.3	18.8	0.00e+00	0	61	0	1404043264	41	4226
2026-01-24 02:50:14.16	312.36	38.74	-35.0	-36.3	18.8	0.00e+00	0	61	0	1410334720	41	4212
2026-01-24 02:50:15.17	311.92	38.79	-35.1	-36.4	18.8	0.00e+00	0	61	0	1415577600	41	4247
2026-01-24 02:50:16.18	311.47	38.84	-35.1	-36.4	18.8	0.00e+00	0	61	0	1421869056	41	4252
2026-01-24 02:50:17.19	311.03	38.89	-35.2	-36.5	18.6	0.00e+00	0	61	0	1427111936	41	4322
2026-01-24 02:50:18.20	310.58	38.94	-35.2	-36.5	18.7	0.00e+00	0	61	0	1433403392	41	4300
2026-01-24 02:50:19.21	310.13	38.98	-35.1	-36.3	18.8	0.00e+00	0	61	0	1438646272	41	4222
2026-01-24 02:50:20.22	309.68	39.03	-34.9	-36.2	19.0	0.00e+00	0	61	0	1443889152	41	4158
2026-01-24 02:50:21.23	309.23	39.07	-35.0	-36.3	18.9	0.00e+00	0	61	0	1450180608	41	4199
2026-01-24 02:50:22.24	308.77	39.11	-35.0	-36.3	18.8	0.00e+00	0	60	0	1455423488	41	4221
2026-01-24 02:50:23.24	308.32	39.15	-35.0	-36.3	18.8	0.00e+00	0	61	0	1461714944	41	4223
2026-01-24 02:50:24.25	307.87	39.18	-35.1	-36.3	18.8	0.00e+00	0	61	0	1466957824	41	4239
2026-01-24 02:50:25.27	307.41	39.22	-35.1	-36.3	18.8	0.00e+00	0	61	0	1472200704	41	4222
2026-01-24 02:50:26.28	306.95	39.25	-35.2	-36.5	18.7	0.00e+00	0	61	0	1478492160	41	4297
2026-01-24 02:50:27.29	306.49	39.28	-35.3	-36.6	18.5	0.00e+00	0	61	0	1483735040	41	4360
2026-01-24 02:50:28.30	306.04	39.30	-35.1	-36.4	18.7	0.00e+00	0	61	0	1490026496	41	4265
2026-01-24 02:50:29.31	305.58	39.33	-34.9	-36.1	19.0	0.00e+00	0	61	0	1495269376	41	4138
2026-01-24 02:50:30.32	305.12	39.35	-34.7	-35.9	19.2	0.00e+00	0	61	0	1500512256	41	4045
2026-01-24 02:50:31.32	304.66	39.37	-34.8	-36.0	19.1	0.00e+00	0	61	0	1506803712	41	4073
2026-01-24 02:50:32.33	304.20	39.39	-35.0	-36.2	18.9	0.00e+00	0	61	0	1512046592	41	4177
2026-01-24 02:50:33.35	303.73	39.41	-34.9	-36.2	19.0	0.00e+00	0	61	0	1518338048	41	4146
2026-01-24 02:50:34.36	303.27	39.43	-34.7	-35.9	19.1	0.00e+00	0	61	0	1523580928	41	4049
2026-01-24 02:50:35.37	302.81	39.44	-34.7	-35.9	19.2	0.00e+00	0	61	0	1529872384	41	4044
2026-01-24 02:50:36.38	302.35	39.45	-34.9	-36.1	19.0	0.00e+00	0	61	0	1535115264	41	4111
2026-01-24 02:50:37.39	301.88	39.46	-35.0	-36.2	18.9	0.00e+00	0	61	0	1541406720	41	4190
2026-01-24 02:50:38.40	301.42	39.46	-35.0	-36.2	18.9	0.00e+00	0	61	0	1546649600	41	4175
2026-01-24 02:50:39.40	300.96	39.47	-35.0	-36.2	18.9	0.00e+00	0	61	0	1551892480	41	4186
2026-01-24 02:50:40.41	300.50	39.47	-35.0	-36.3	18.9	0.00e+00	0	61	0	1558183936	41	4207
2026-01-24 02:50:41.42	300.03	39.47	-34.9	-36.1	19.0	0.00e+00	0	61	0	1563426816	41	4114
2026-01-24 02:50:42.43	299.57	39.47	-34.6	-35.8	19.3	0.00e+00	0	61	0	1569718272	41	3982
2026-01-24 02:50:43.44	299.10	39.47	-34.6	-35.7	19.4	0.00e+00	0	61	0	1574961152	41	3957
2026-01-24 02:50:44.45	298.64	39.46	-34.7	-35.9	19.2	0.00e+00	0	61	0	1580204032	41	4012
2026-01-24 02:50:45.46	298.18	39.45	-34.8	-36.0	19.1	0.00e+00	0	61	0	1586495488	41	4086
2026-01-24 02:50:46.47	297.71	39.44	-34.9	-36.1	19.0	0.00e+00	0	61	0	1591738368	41	4127
2026-01-24 02:50:47.48	297.25	39.43	-34.8	-36.0	19.1	0.00e+00	0	61	0	1598029824	41	4094
2026-01-24 02:50:48.49	296.79	39.41	-34.8	-36.0	19.1	0.00e+00	0	61	0	1603272704	41	4086
2026-01-24 02:50:49.50	296.33	39.40	-34.8	-36.0	19.1	0.00e+00	0	61	0	1608515584	41	4073
2026-01-24 02:50:50.51	295.86	39.38	-34.8	-36.0	19.1	0.00e+00	0	61	0	1614807040	41	4066
2026-01-24 02:50:51.52	295.40	39.36	-34.8	-36.0	19.1	0.00e+00	0	61	0	1620049920	41	4083
2026-01-24 02:50:52.53	294.94	39.33	-34.8	-36.0	19.1	0.00e+00	0	61	0	1626341376	41	4091
2026-01-24 02:50:53.54	294.48	39.31	-34.8	-36.0	19.1	0.00e+00	0	61	0	1631584256	41	4060
2026-01-24 02:50:54.55	294.02	39.28	-34.7	-36.0	19.2	0.00e+00	0	61	0	1637875712	41	4063
2026-01-24 02:50:55.56	293.57	39.25	-34.7	-35.9	19.2	0.00e+00	0	61	0	1643118592	41	4047
2026-01-24 02:50:56.57	293.11	39.22	-34.7	-36.0	19.2	0.00e+00	0	61	0	1648361472	41	4057
2026-01-24 02:50:57.58	292.65	39.19	-34.5	-35.7	19.4	0.00e+00	0	61	0	1654652928	41	3944
2026-01-24 02:50:58.59	292.20	39.15	-34.4	-35.6	19.6	0.00e+00	0	61	0	1659895808	40	4101
2026-01-24 02:50:59.60	291.74	39.11	-34.4	-35.6	19.5	0.00e+00	0	61	0	1666187264	40	4132
2026-01-24 02:51:00.61	291.29	39.07	-34.6	-35.8	19.3	0.00e+00	0	61	0	1671430144	40	4241
2026-01-24 02:51:01.62	290.84	39.03	-34.6	-35.8	19.3	0.00e+00	0	61	0	1676673024	40	4233
2026-01-24 02:51:02.63	290.39	38.99	-34.5	-35.7	19.4	0.00e+00	0	61	0	1682964480	40	4153
2026-01-24 02:51:03.64	289.94	38.94	-34.6	-35.8	19.3	0.00e+00	0	61	0	1688207360	40	4222
2026-01-24 02:51:04.64	289.49	38.90	-34.6	-35.8	19.3	0.00e+00	0	61	0	1694498816	40	4238
2026-01-24 02:51:05.65	289.04	38.85	-34.7	-35.9	19.2	0.00e+00	0	61	0	1699741696	40	4277
2026-01-24 02:51:06.66	288.60	38.79	-34.7	-35.9	19.2	0.00e+00	0	61	0	1704984576	40	4269
2026-01-24 02:51:07.67	288.15	38.74	-34.7	-36.0	19.2	0.00e+00	0	61	0	1711276032	40	4294
2026-01-24 02:51:08.68	287.71	38.69	-34.8	-36.0	19.1	0.00e+00	0	61	0	1716518912	40	4339
2026-01-24 02:51:09.69	287.27	38.63	-34.9	-36.2	19.0	0.00e+00	0	61	0	1722810368	40	4398
2026-01-24 02:51:10.70	286.83	38.57	-35.0	-36.2	18.9	0.00e+00	0	61	0	1728053248	40	4438
2026-01-24 02:51:11.71	286.39	38.51	-35.0	-36.2	18.9	0.00e+00	0	61	0	1734344704	40	4429
2026-01-24 02:51:12.72	285.96	38.45	-34.9	-36.1	19.0	0.00e+00	0	61	0	1739587584	40	4378
2026-01-24 02:51:13.73	285.52	38.38	-34.9	-36.2	19.0	0.00e+00	0	61	0	1745879040	40	4398
2026-01-24 02:51:14.75	285.08	38.32	-34.7	-35.9	19.2	0.00e+00	0	61	0	1751121920	40	4269
2026-01-24 02:51:15.76	284.65	38.25	-34.6	-35.8	19.4	0.00e+00	0	61	0	1756364800	40	4203
2026-01-24 02:51:16.76	284.23	38.18	-34.5	-35.7	19.4	0.00e+00	0	61	0	1762656256	40	4160
2026-01-24 02:51:17.78	283.79	38.11	-34.4	-35.6	19.5	0.00e+00	0	61	0	1767899136	40	4125
2026-01-24 02:51:18.79	283.37	38.04	-34.4	-35.6	19.5	0.00e+00	0	61	0	1774190592	40	4115
2026-01-24 02:51:19.80	282.94	37.96	-34.5	-35.7	19.5	0.00e+00	0	61	0	1779433472	40	4150
2026-01-24 02:51:20.80	282.53	37.89	-34.7	-36.0	19.1	0.00e+00	0	61	0	1784676352	40	4307
2026-01-24 02:51:21.81	282.11	37.81	-34.8	-36.1	19.0	0.00e+00	0	61	0	1790967808	40	4352
2026-01-24 02:51:22.82	281.69	37.73	-34.7	-36.0	19.1	0.00e+00	0	61	0	1796210688	40	4296
2026-01-24 02:51:23.83	281.27	37.65	-34.8	-36.0	19.1	0.00e+00	0	61	0	1802502144	40	4322
2026-01-24 02:51:24.84	280.86	37.57	-34.7	-35.9	19.2	0.00e+00	0	61	0	1807745024	40	4262
2026-01-24 02:51:25.85	280.45	37.49	-34.7	-35.9	19.2	0.00e+00	0	61	0	1812987904	40	4267
2026-01-24 02:51:26.86	280.04	37.40	-34.7	-35.9	19.1	0.00e+00	0	61	0	1819279360	40	4289
2026-01-24 02:51:27.87	279.63	37.31	-34.8	-36.0	19.1	0.00e+00	0	61	0	1824522240	40	4329
2026-01-24 02:51:28.88	279.22	37.23	-34.7	-35.9	19.2	0.00e+00	0	61	0	1830813696	40	4290
2026-01-24 02:51:29.89	278.82	37.14	-34.7	-35.9	19.2	0.00e+00	0	61	0	1836056576	40	4260
2026-01-24 02:51:30.90	278.42	37.05	-34.5	-35.7	19.4	0.00e+00	0	61	0	1842348032	40	4183
2026-01-24 02:51:31.91	278.02	36.96	-34.4	-35.6	19.5	0.00e+00	0	61	0	1847590912	40	4133
2026-01-24 02:51:32.92	277.62	36.86	-34.4	-35.6	19.5	0.00e+00	0	61	0	1852833792	40	4137
2026-01-24 02:51:33.92	277.23	36.77	-34.4	-35.6	19.5	0.00e+00	0	61	0	1859125248	40	4136
2026-01-24 02:51:34.94	276.84	36.67	-34.5	-35.7	19.4	0.00e+00	0	61	0	1864368128	40	4151
2026-01-24 02:51:35.95	276.45	36.57	-34.5	-35.7	19.4	0.00e+00	0	61	0	1870659584	40	4176
2026-01-24 02:51:36.96	276.06	36.48	-34.7	-35.9	19.2	0.00e+00	0	61	0	1875902464	40	4269
2026-01-24 02:51:37.96	275.68	36.38	-34.7	-35.9	19.2	0.00e+00	0	61	0	1881145344	40	4287
2026-01-24 02:51:38.98	275.29	36.28	-34.7	-35.9	19.2	0.00e+00	0	61	0	1887436800	40	4275
2026-01-24 02:51:39.99	274.91	36.17	-34.7	-35.9	19.1	0.00e+00	0	61	0	1892679680	40	4288
2026-01-24 02:51:41.00	274.53	36.07	-34.7	-35.9	19.2	0.00e+00	0	61	0	1898971136	40	4278
2026-01-24 02:51:42.01	274.16	35.97	-34.8	-36.0	19.1	0.00e+00	0	61	0	1904214016	40	4324
2026-01-24 02:51:43.02	273.79	35.86	-34.9	-36.1	19.0	0.00e+00	0	61	0	1909456896	40	4380
2026-01-24 02:51:44.03	273.42	35.76	-34.8	-36.1	19.0	0.00e+00	0	61	0	1915748352	40	4344
2026-01-24 02:51:45.03	273.05	35.65	-34.7	-36.0	19.1	0.00e+00	0	61	0	1920991232	40	4298
2026-01-24 02:51:46.04	272.69	35.54	-34.7	-35.9	19.2	0.00e+00	0	61	0	1927282688	40	4259
2026-01-24 02:51:47.05	272.32	35.43	-34.7	-35.9	19.1	0.00e+00	0	61	0	1932525568	40	4275
2026-01-24 02:51:48.06	271.96	35.32	-34.7	-35.9	19.1	0.00e+00	0	61	0	1938817024	40	4280
2026-01-24 02:51:49.07	271.60	35.21	-34.6	-35.8	19.2	0.00e+00	0	61	0	1944059904	40	4241
2026-01-24 02:51:50.08	271.25	35.10	-34.5	-35.7	19.4	0.00e+00	0	61	0	1950351360	40	4181
2026-01-24 02:51:51.09	270.89	34.99	-34.5	-35.8	19.3	0.00e+00	0	61	0	1955594240	40	4194
2026-01-24 02:51:52.10	270.54	34.88	-34.6	-35.8	19.3	0.00e+00	0	61	0	1960837120	40	4212
2026-01-24 02:51:53.11	270.19	34.76	-34.6	-35.8	19.2	0.00e+00	0	61	0	1967128576	40	4235
2026-01-24 02:51:54.12	269.85	34.65	-34.6	-35.8	19.2	0.00e+00	0	61	0	1972371456	40	4236
2026-01-24 02:51:55.13	269.50	34.53	-34.5	-35.7	19.4	0.00e+00	0	61	0	1978662912	40	4146
2026-01-24 02:51:56.14	269.16	34.42	-34.6	-35.8	19.3	0.00e+00	0	61	0	1983905792	40	4225
2026-01-24 02:51:57.15	268.82	34.30	-34.7	-35.9	19.1	0.00e+00	0	61	0	1989148672	40	4287
2026-01-24 02:51:58.16	268.49	34.18	-34.7	-35.9	19.2	0.00e+00	0	61	0	1995440128	40	4278
2026-01-24 02:51:59.17	268.15	34.06	-34.7	-36.0	19.1	0.00e+00	0	61	0	2000683008	40	4296
2026-01-24 02:52:00.18	267.82	33.94	-34.7	-35.9	19.2	0.00e+00	0	61	0	2006974464	40	4252
2026-01-24 02:52:01.19	267.49	33.82	-34.7	-35.9	19.1	0.00e+00	0	61	0	2012217344	40	4287
2026-01-24 02:52:02.20	267.16	33.70	-34.7	-35.9	19.1	0.00e+00	0	61	0	2017460224	40	4289
2026-01-24 02:52:03.21	266.84	33.58	-34.8	-36.1	19.0	0.00e+00	0	61	0	2023751680	40	4352
2026-01-24 02:52:04.21	266.52	33.46	-34.9	-36.1	18.9	0.00e+00	0	61	0	2028994560	40	4376
2026-01-24 02:52:05.22	266.20	33.34	-34.9	-36.1	19.0	0.00e+00	0	61	0	2035286016	40	4361
2026-01-24 02:52:06.23	265.88	33.22	-34.9	-36.2	18.9	0.00e+00	0	61	0	2040528896	40	4393
2026-01-24 02:52:07.24	265.57	33.09	-35.0	-36.3	18.8	0.00e+00	0	61	0	2046820352	40	4473
2026-01-24 02:52:08.25	265.26	32.97	-35.1	-36.3	18.7	0.00e+00	0	61	0	2052063232	40	4487
2026-01-24 02:52:09.26	264.95	32.85	-34.8	-36.0	19.0	0.00e+00	0	61	0	2057306112	40	4336
2026-01-24 02:52:10.27	264.64	32.72	-34.7	-35.9	19.1	0.00e+00	0	61	0	2063597568	40	4257
2026-01-24 02:52:11.28	264.33	32.60	-34.7	-36.0	19.1	0.00e+00	0	61	0	2068840448	40	4300
2026-01-24 02:52:12.29	264.03	32.47	-34.8	-36.1	19.0	0.00e+00	0	61	0	2075131904	40	4344
2026-01-24 02:52:13.30	263.73	32.35	-34.9	-36.2	18.9	0.00e+00	0	61	0	2080374784	40	4412
2026-01-24 02:52:14.31	263.43	32.22	-35.0	-36.2	18.8	0.00e+00	0	61	0	2085617664	40	4426
2026-01-24 02:52:15.32	263.14	32.10	-35.0	-36.2	18.9	0.00e+00	0	61	0	2091909120	40	4418
2026-01-24 02:52:16.33	262.84	31.97	-35.0	-36.2	18.9	0.00e+00	0	61	0	2097152000	40	4411
2026-01-24 02:52:17.35	262.55	31.84	-35.0	-36.2	18.9	0.00e+00	0	61	0	2103443456	40	4425
2026-01-24 02:52:18.36	262.26	31.71	-34.9	-36.2	18.9	0.00e+00	0	61	0	2108686336	40	4406
2026-01-24 02:52:19.37	261.97	31.59	-34.8	-36.1	19.0	0.00e+00	0	61	0	2113929216	40	4347
2026-01-24 02:52:20.37	261.69	31.46	-34.7	-36.0	19.1	0.00e+00	0	61	0	2120220672	40	4305
2026-01-24 02:52:21.38	261.41	31.33	-34.8	-36.1	19.0	0.00e+00	0	61	0	2125463552	40	4341
2026-01-24 02:52:22.39	261.13	31.20	-34.7	-35.9	19.1	0.00e+00	0	61	0	2131755008	40	4283
2026-01-24 02:52:23.40	260.85	31.07	-34.7	-35.9	19.2	0.00e+00	0	61	0	2136997888	40	4259
2026-01-24 02:52:24.41	260.58	30.95	-34.7	-36.0	19.1	0.00e+00	0	61	0	2143289344	40	4306
2026-01-24 02:52:25.42	260.30	30.82	-34.6	-35.8	19.2	0.00e+00	0	61	0	2148532224	40	4206
2026-01-24 02:52:26.43	260.03	30.69	-34.5	-35.7	19.3	0.00e+00	0	61	0	2154823680	40	4154
2026-01-24 02:52:27.44	259.76	30.56	-34.5	-35.7	19.3	0.00e+00	0	61	0	2160066560	40	4166
2026-01-24 02:52:28.45	259.49	30.43	-34.6	-35.8	19.2	0.00e+00	0	61	0	2165309440	40	4237
2026-01-24 02:52:29.46	259.23	30.30	-34.7	-36.0	19.1	0.00e+00	0	61	0	2171600896	40	4296
2026-01-24 02:52:30.47	258.97	30.17	-34.8	-36.1	19.0	0.00e+00	0	61	0	2176843776	40	4348
2026-01-24 02:52:31.48	258.71	30.04	-34.8	-36.0	19.0	0.00e+00	0	61	0	2183135232	40	4325
2026-01-24 02:52:32.49	258.45	29.91	-34.8	-36.0	19.0	0.00e+00	0	61	0	2188378112	40	4328
2026-01-24 02:52:33.50	258.19	29.78	-34.8	-36.0	19.0	0.00e+00	0	61	0	2193620992	40	4336
2026-01-24 02:52:34.51	257.94	29.65	-34.8	-36.1	19.0	0.00e+00	0	61	0	2199912448	40	4351
2026-01-24 02:52:35.52	257.68	29.52	-35.0	-36.2	18.8	0.00e+00	0	61	0	2205155328	40	4438
2026-01-24 02:52:36.53	257.43	29.39	-35.0	-36.3	18.8	0.00e+00	0	61	0	2211446784	40	4457
2026-01-24 02:52:37.54	257.19	29.26	-35.1	-36.3	18.7	0.00e+00	0	61	0	2216689664	40	4487
2026-01-24 02:52:38.55	256.94	29.13	-35.0	-36.2	18.8	0.00e+00	0	61	0	2221932544	40	4440
2026-01-24 02:52:39.56	256.70	29.00	-34.9	-36.2	18.8	0.00e+00	0	61	0	2228224000	40	4416
2026-01-24 02:52:40.57	256.45	28.88	-35.0	-36.2	18.8	0.00e+00	0	61	0	2233466880	40	4438
2026-01-24 02:52:41.58	256.21	28.75	-35.1	-36.4	18.7	0.00e+00	0	61	0	2239758336	40	4494
2026-01-24 02:52:42.59	255.98	28.62	-35.1	-36.4	18.6	0.00e+00	0	61	0	2245001216	40	4528
2026-01-24 02:52:43.60	255.74	28.49	-35.1	-36.4	18.6	0.00e+00	0	61	0	2251292672	40	4528
2026-01-24 02:52:44.61	255.50	28.36	-35.2	-36.5	18.6	0.00e+00	0	61	0	2256535552	40	4559
2026-01-24 02:52:45.62	255.27	28.23	-35.1	-36.4	18.6	0.00e+00	0	61	0	2261778432	40	4509
2026-01-24 02:52:46.63	255.04	28.10	-35.1	-36.4	18.6	0.00e+00	0	61	0	2268069888	40	4536
2026-01-24 02:52:47.64	254.81	27.97	-35.2	-36.5	18.6	0.00e+00	0	61	0	2273312768	40	4547
2026-01-24 02:52:48.65	254.59	27.84	-35.1	-36.4	18.6	0.00e+00	0	61	0	2279604224	40	4501
2026-01-24 02:52:49.66	254.36	27.71	-35.1	-36.4	18.6	0.00e+00	0	61	0	2284847104	40	4500
2026-01-24 02:52:50.67	254.14	27.58	-35.2	-36.5	18.5	0.00e+00	0	61	0	2290089984	40	4556
2026-01-24 02:52:51.68	253.92	27.45	-35.0	-36.3	18.7	0.00e+00	0	61	0	2296381440	40	4468
2026-01-24 02:52:52.69	253.70	27.32	-35.0	-36.3	18.7	0.00e+00	0	61	0	2301624320	40	4467
2026-01-24 02:52:53.70	253.48	27.20	-35.1	-36.4	18.6	0.00e+00	0	61	0	2307915776	40	4507
2026-01-24 02:52:54.71	253.26	27.07	-35.2	-36.5	18.5	0.00e+00	0	61	0	2313158656	40	4572
2026-01-24 02:52:55.71	253.05	26.94	-35.2	-36.5	18.5	0.00e+00	0	61	0	2318401536	41	4332
2026-01-24 02:52:56.72	252.84	26.81	-35.3	-36.6	18.4	0.00e+00	0	61	0	2324692992	41	4346
2026-01-24 02:52:57.73	252.63	26.68	-35.3	-36.6	18.4	0.00e+00	0	61	0	2329935872	41	4362
2026-01-24 02:52:58.74	252.42	26.56	-35.3	-36.6	18.3	0.00e+00	0	61	0	2336227328	41	4381
2026-01-24 02:52:59.75	252.21	26.43	-35.4	-36.7	18.3	0.00e+00	0	61	0	2341470208	41	4399
2026-01-24 02:53:00.76	252.00	26.30	-35.3	-36.6	18.4	0.00e+00	0	61	0	2347761664	41	4357
2026-01-24 02:53:01.77	251.80	26.17	-35.4	-36.7	18.3	0.00e+00	0	61	0	2353004544	41	4410
2026-01-24 02:53:02.78	251.60	26.05	-35.3	-36.7	18.3	0.00e+00	0	61	0	2359296000	41	4394
2026-01-24 02:53:03.79	251.39	25.92	-35.4	-36.7	18.2	0.00e+00	0	61	0	2364538880	41	4432
2026-01-24 02:53:04.80	251.20	25.79	-35.5	-36.9	18.1	0.00e+00	0	61	0	2369781760	41	4496
2026-01-24 02:53:05.81	251.00	25.67	-35.5	-36.9	18.1	0.00e+00	0	61	0	2376073216	41	4511
2026-01-24 02:53:06.82	250.80	25.54	-35.6	-36.9	18.1	0.00e+00	0	61	0	2381316096	41	4518
2026-01-24 02:53:07.83	250.61	25.42	-35.7	-37.0	18.0	0.00e+00	0	61	0	2387607552	41	4589
2026-01-24 02:53:08.84	250.41	25.29	-35.7	-37.1	17.9	0.00e+00	0	61	0	2392850432	41	4599
2026-01-24 02:53:09.84	250.22	25.17	-35.7	-37.1	17.9	0.00e+00	0	61	0	2398093312	42	4359
2026-01-24 02:53:10.85	250.03	25.04	-35.7	-37.1	17.9	0.00e+00	0	61	0	2404384768	42	4371
2026-01-24 02:53:11.86	249.85	24.92	-35.8	-37.2	17.8	0.00e+00	0	61	0	2409627648	42	4395
2026-01-24 02:53:12.88	249.66	24.79	-35.8	-37.2	17.7	0.00e+00	0	61	0	2415919104	42	4430
2026-01-24 02:53:13.89	249.47	24.67	-35.7	-37.1	17.9	0.00e+00	0	61	0	2421161984	42	4353
2026-01-24 02:53:14.89	249.29	24.54	-35.6	-37.0	18.0	0.00e+00	0	61	0	2426404864	42	4303
2026-01-24 02:53:15.91	249.10	24.42	-35.7	-37.1	17.9	0.00e+00	0	61	0	2432696320	42	4358
2026-01-24 02:53:16.92	248.92	24.29	-35.8	-37.1	17.8	0.00e+00	0	61	0	2437939200	42	4389
2026-01-24 02:53:17.92	248.75	24.17	-35.8	-37.1	17.8	0.00e+00	0	61	0	2444230656	42	4385
2026-01-24 02:53:18.94	248.57	24.05	-35.7	-37.1	17.9	0.00e+00	0	61	0	2449473536	42	4346
2026-01-24 02:53:19.95	248.39	23.92	-35.7	-37.0	17.9	0.00e+00	0	61	0	2455764992	42	4327
2026-01-24 02:53:20.96	248.21	23.80	-35.6	-37.0	18.0	0.00e+00	0	61	0	2461007872	42	4303
2026-01-24 02:53:21.96	248.04	23.68	-35.7	-37.0	18.0	0.00e+00	0	61	0	2466250752	42	4320
2026-01-24 02:53:22.98	247.87	23.56	-35.6	-37.0	18.0	0.00e+00	0	61	0	2472542208	42	4300
2026-01-24 02:53:23.99	247.69	23.44	-35.6	-37.0	18.0	0.00e+00	0	61	0	2477785088	42	4297
2026-01-24 02:53:25.00	247.52	23.31	-35.7	-37.0	17.9	0.00e+00	0	61	0	2484076544	42	4332
2026-01-24 02:53:26.00	247.36	23.19	-35.7	-37.0	17.9	0.00e+00	0	61	0	2489319424	42	4318
2026-01-24 02:53:27.01	247.19	23.07	-35.6	-36.9	18.0	0.00e+00	0	61	0	2494562304	42	4279
2026-01-24 02:53:28.02	247.02	22.95	-35.5	-36.8	18.1	0.00e+00	0	61	0	2500853760	42	4218
2026-01-24 02:53:29.03	246.86	22.83	-35.5	-36.8	18.1	0.00e+00	0	61	0	2506096640	42	4231
2026-01-24 02:53:30.04	246.70	22.71	-35.6	-36.9	18.0	0.00e+00	0	61	0	2512388096	42	4264
2026-01-24 02:53:31.05	246.53	22.59	-35.6	-36.9	18.0	0.00e+00	0	61	0	2517630976	42	4288
2026-01-24 02:53:32.06	246.37	22.47	-35.6	-37.0	18.0	0.00e+00	0	61	0	2522873856	42	4293
2026-01-24 02:53:33.07	246.21	22.36	-35.8	-37.1	17.8	0.00e+00	0	61	0	2529165312	42	4379
2026-01-24 02:53:34.08	246.05	22.24	-35.8	-37.2	17.8	0.00e+00	0	61	0	2534408192	42	4398
2026-01-24 02:53:35.09	245.90	22.12	-35.8	-37.1	17.8	0.00e+00	0	61	0	2540699648	42	4387
2026-01-24 02:53:36.10	245.74	22.00	-35.9	-37.2	17.7	0.00e+00	0	61	0	2545942528	42	4438
2026-01-24 02:53:37.11	245.59	21.88	-35.9	-37.3	17.6	0.00e+00	0	61	0	2552233984	42	4467
2026-01-24 02:53:38.12	245.43	21.77	-35.9	-37.4	17.5	0.00e+00	0	61	0	2557476864	42	4498
2026-01-24 02:53:39.13	245.28	21.65	-35.9	-37.3	17.6	0.00e+00	0	61	0	2563768320	42	4465
2026-01-24 02:53:40.14	245.13	21.53	-35.9	-37.3	17.6	0.00e+00	0	61	0	2569011200	42	4458
2026-01-24 02:53:41.15	244.98	21.42	-35.9	-37.4	17.5	0.00e+00	0	61	0	2574254080	42	4494
2026-01-24 02:53:42.16	244.83	21.30	-36.0	-37.4	17.5	0.00e+00	0	61	0	2580545536	42	4518
2026-01-24 02:53:43.17	244.68	21.18	-35.8	-37.2	17.7	0.00e+00	0	61	0	2585788416	42	4426
2026-01-24 02:53:44.18	244.53	21.07	-35.8	-37.2	17.7	0.00e+00	0	61	0	2592079872	42	4392
2026-01-24 02:53:45.19	244.39	20.95	-35.8	-37.2	17.7	0.00e+00	0	61	0	2597322752	42	4396
2026-01-24 02:53:46.20	244.24	20.84	-35.7	-37.1	17.8	0.00e+00	0	61	0	2602565632	42	4375
2026-01-24 02:53:47.21	244.10	20.72	-35.8	-37.2	17.7	0.00e+00	0	61	0	2608857088	42	4414
2026-01-24 02:53:48.22	243.96	20.61	-35.8	-37.2	17.7	0.00e+00	0	61	0	2614099968	42	4437
2026-01-24 02:53:49.23	243.82	20.50	-35.9	-37.3	17.6	0.00e+00	0	61	0	2620391424	42	4459
2026-01-24 02:53:50.24	243.68	20.38	-35.9	-37.3	17.6	0.00e+00	0	61	0	2625634304	42	4481
2026-01-24 02:53:51.25	243.54	20.27	-35.9	-37.3	17.6	0.00e+00	0	61	0	2630877184	42	4487
2026-01-24 02:53:52.26	243.40	20.16	-36.0	-37.4	17.5	0.00e+00	0	61	0	2637168640	42	4508
2026-01-24 02:53:53.27	243.26	20.04	-36.0	-37.4	17.5	0.00e+00	0	61	0	2642411520	42	4541
2026-01-24 02:53:54.28	243.12	19.93	-36.0	-37.4	17.5	0.00e+00	0	61	0	2648702976	42	4519
2026-01-24 02:53:55.29	242.99	19.82	-36.0	-37.5	17.4	0.00e+00	0	61	0	2653945856	42	4547
2026-01-24 02:53:56.30	242.85	19.71	-36.1	-37.5	17.4	0.00e+00	0	61	0	2660237312	42	4598
2026-01-24 02:53:57.31	242.72	19.60	-36.1	-37.5	17.4	0.00e+00	0	61	0	2665480192	42	4572
2026-01-24 02:53:58.32	242.59	19.49	-36.1	-37.5	17.3	0.00e+00	0	61	0	2670723072	42	4596
2026-01-24 02:53:59.33	242.46	19.38	-36.1	-37.5	17.3	0.00e+00	0	61	0	2677014528	42	4597
2026-01-24 02:54:00.34	242.33	19.27	-36.1	-37.6	17.3	0.00e+00	0	61	0	2682257408	42	4613
2026-01-24 02:54:01.35	242.20	19.16	-36.2	-37.7	17.2	0.00e+00	0	61	0	2688548864	42	4660
2026-01-24 02:54:02.36	242.07	19.05	-36.2	-37.6	17.2	0.00e+00	0	61	0	2693791744	42	4646
2026-01-24 02:54:03.37	241.94	18.94	-36.3	-37.7	17.1	0.00e+00	0	61	0	2699034624	43	4440
2026-01-24 02:54:04.38	241.82	18.83	-36.3	-37.7	17.1	0.00e+00	0	61	0	2705326080	43	4433
2026-01-24 02:54:05.39	241.69	18.72	-36.3	-37.8	17.0	0.00e+00	0	61	0	2710568960	43	4484
2026-01-24 02:54:06.40	241.56	18.61	-36.3	-37.8	17.1	0.00e+00	0	61	0	2716860416	43	4483
2026-01-24 02:54:07.41	241.44	18.51	-36.3	-37.7	17.1	0.00e+00	0	61	0	2722103296	43	4427
2026-01-24 02:54:08.42	241.32	18.40	-36.3	-37.8	17.1	0.00e+00	0	61	0	2727346176	43	4447
2026-01-24 02:54:09.43	241.20	18.29	-36.4	-37.8	17.0	0.00e+00	0	61	0	2733637632	43	4490
2026-01-24 02:54:10.44	241.07	18.18	-36.4	-37.9	17.0	0.00e+00	0	61	0	2738880512	43	4499
2026-01-24 02:54:11.45	240.95	18.08	-36.4	-38.0	16.9	0.00e+00	0	61	0	2745171968	43	4547
2026-01-24 02:54:12.46	240.83	17.97	-36.4	-37.9	16.9	0.00e+00	0	61	0	2750414848	43	4517
2026-01-24 02:54:13.47	240.72	17.87	-36.5	-38.0	16.8	0.00e+00	0	61	0	2756706304	43	4558
2026-01-24 02:54:14.48	240.60	17.76	-36.5	-38.0	16.8	0.00e+00	0	61	0	2761949184	43	4581
2026-01-24 02:54:15.49	240.48	17.66	-36.5	-38.0	16.8	0.00e+00	0	61	0	2768240640	43	4586
2026-01-24 02:54:16.50	240.36	17.55	-36.5	-38.0	16.8	0.00e+00	0	61	0	2773483520	43	4597
2026-01-24 02:54:17.51	240.25	17.45	-36.6	-38.1	16.6	0.00e+00	0	61	0	2778726400	43	4649
2026-01-24 02:54:18.52	240.13	17.34	-36.6	-38.1	16.7	0.00e+00	0	61	0	2785017856	43	4645
2026-01-24 02:54:19.53	240.02	17.24	-36.6	-38.2	16.6	0.00e+00	0	61	0	2790260736	43	4659
2026-01-24 02:54:20.54	239.91	17.13	-36.7	-38.2	16.6	0.00e+00	0	61	0	2796552192	43	4684
2026-01-24 02:54:21.55	239.80	17.03	-36.9	-38.5	16.5	0.00e+00	0	61	0	2801795072	44	4549
2026-01-24 02:54:22.56	239.68	16.93	-36.9	-38.4	16.5	0.00e+00	0	61	0	2807037952	44	4529
2026-01-24 02:54:23.57	239.57	16.83	-36.9	-38.5	16.5	0.00e+00	0	61	0	2813329408	44	4555
2026-01-24 02:54:24.58	239.46	16.72	-36.9	-38.4	16.5	0.00e+00	0	61	0	2818572288	44	4527
2026-01-24 02:54:25.59	239.36	16.62	-36.9	-38.4	16.5	0.00e+00	0	61	0	2824863744	44	4537
2026-01-24 02:54:26.60	239.25	16.52	-36.9	-38.5	16.5	0.00e+00	0	61	0	2830106624	44	4546
2026-01-24 02:54:27.61	239.14	16.42	-36.9	-38.5	16.4	0.00e+00	0	61	0	2835349504	44	4583
2026-01-24 02:54:28.62	239.03	16.32	-37.0	-38.6	16.4	0.00e+00	0	61	0	2841640960	44	4605
2026-01-24 02:54:29.62	238.93	16.22	-37.1	-38.6	16.3	0.00e+00	0	61	0	2846883840	44	4651
2026-01-24 02:54:30.63	238.82	16.12	-37.0	-38.6	16.4	0.00e+00	0	61	0	2853175296	44	4601
2026-01-24 02:54:31.64	238.72	16.02	-37.0	-38.5	16.4	0.00e+00	0	61	0	2858418176	44	4589
2026-01-24 02:54:32.65	238.61	15.92	-37.0	-38.5	16.4	0.00e+00	0	61	0	2864709632	44	4589
2026-01-24 02:54:33.66	238.51	15.82	-37.0	-38.6	16.4	0.00e+00	0	61	0	2869952512	44	4604
2026-01-24 02:54:34.67	238.41	15.72	-37.1	-38.6	16.3	0.00e+00	0	61	0	2875195392	44	4648
2026-01-24 02:54:35.68	238.31	15.62	-37.1	-38.7	16.2	0.00e+00	0	61	0	2881486848	44	4700
2026-01-24 02:54:36.69	238.20	15.52	-37.2	-38.8	16.1	0.00e+00	0	61	0	2886729728	44	4752
2026-01-24 02:54:37.70	238.10	15.42	-37.2	-38.8	16.1	0.00e+00	0	61	0	2893021184	45	4478
2026-01-24 02:54:38.71	238.00	15.33	-37.2	-38.9	16.1	0.00e+00	0	61	0	2898264064	45	4506
2026-01-24 02:54:39.72	237.90	15.23	-37.3	-38.9	16.0	0.00e+00	0	61	0	2903506944	45	4544
2026-01-24 02:54:40.73	237.81	15.13	-37.4	-39.0	15.9	0.00e+00	0	61	0	2909798400	45	4587
2026-01-24 02:54:41.74	237.71	15.03	-37.4	-39.0	15.8	0.00e+00	0	61	0	2915041280	45	4595
2026-01-24 02:54:42.75	237.61	14.94	-37.3	-39.0	15.9	0.00e+00	0	61	0	2921332736	45	4574
2026-01-24 02:54:43.76	237.51	14.84	-37.4	-39.1	15.8	0.00e+00	0	61	0	2926575616	45	4609
2026-01-24 02:54:44.77	237.42	14.75	-37.5	-39.1	15.7	0.00e+00	0	61	0	2931818496	45	4650
2026-01-24 02:54:45.78	237.32	14.65	-37.4	-39.1	15.8	0.00e+00	0	61	0	2938109952	45	4618
2026-01-24 02:54:46.79	237.23	14.55	-37.5	-39.2	15.7	0.00e+00	0	61	0	2943352832	45	4653
2026-01-24 02:54:47.79	237.13	14.46	-37.4	-39.1	15.7	0.00e+00	0	61	0	2949644288	45	4648
2026-01-24 02:54:48.80	237.04	14.37	-37.4	-39.1	15.7	0.00e+00	0	61	0	2954887168	45	4646
2026-01-24 02:54:49.81	236.95	14.27	-37.5	-39.2	15.7	0.00e+00	0	61	0	2961178624	45	4682
2026-01-24 02:54:50.82	236.86	14.18	-37.5	-39.3	15.6	0.00e+00	0	61	0	2966421504	45	4710
2026-01-24 02:54:51.83	236.76	14.08	-37.5	-39.2	15.6	0.00e+00	0	61	0	2972712960	45	4660
2026-01-24 02:54:52.84	236.67	13.99	-37.5	-39.2	15.6	0.00e+00	0	61	0	2977955840	45	4685
2026-01-24 02:54:53.85	236.58	13.90	-37.5	-39.2	15.6	0.00e+00	0	61	0	2983198720	45	4694
2026-01-24 02:54:54.86	236.49	13.80	-37.6	-39.4	15.5	0.00e+00	0	61	0	2989490176	45	4763
2026-01-24 02:54:55.87	236.40	13.71	-37.7	-39.4	15.4	0.00e+00	0	61	0	2994733056	45	4795
2026-01-24 02:54:56.88	236.32	13.62	-37.6	-39.4	15.4	0.00e+00	0	61	0	3001024512	45	4760
2026-01-24 02:54:57.89	236.23	13.52	-37.7	-39.4	15.4	0.00e+00	0	61	0	3006267392	45	4796
2026-01-24 02:54:58.90	236.14	13.43	-37.6	-39.4	15.5	0.00e+00	0	61	0	3011510272	45	4770
2026-01-24 02:54:59.91	236.05	13.34	-37.6	-39.3	15.5	0.00e+00	0	61	0	3017801728	45	4742
2026-01-24 02:55:00.92	235.97	13.25	-37.6	-39.4	15.5	0.00e+00	0	61	0	3023044608	45	4762
2026-01-24 02:55:01.93	235.88	13.16	-37.6	-39.4	15.4	0.00e+00	0	61	0	3029336064	45	4789
2026-01-24 02:55:02.94	235.79	13.07	-37.7	-39.5	15.3	0.00e+00	0	61	0	3034578944	46	4576
2026-01-24 02:55:03.95	235.71	12.98	-37.8	-39.5	15.3	0.00e+00	0	61	0	3039821824	46	4582
2026-01-24 02:55:04.96	235.63	12.89	-37.8	-39.5	15.3	0.00e+00	0	61	0	3046113280	46	4591
2026-01-24 02:55:05.97	235.54	12.80	-37.7	-39.5	15.3	0.00e+00	0	61	0	3051356160	46	4580
2026-01-24 02:55:06.98	235.46	12.71	-37.8	-39.6	15.2	0.00e+00	0	61	0	3057647616	46	4630
2026-01-24 02:55:07.99	235.38	12.62	-37.8	-39.6	15.1	1.10e-06	0	61	0	3062890496	46	4640
2026-01-24 02:55:09.00	235.29	12.53	-37.9	-39.7	15.1	0.00e+00	0	61	0	3069181952	46	4663
2026-01-24 02:55:10.01	235.21	12.44	-38.0	-39.8	15.0	0.00e+00	0	61	0	3074424832	46	4734
2026-01-24 02:55:11.02	235.13	12.35	-38.0	-39.8	14.9	0.00e+00	0	61	0	3079667712	46	4751
2026-01-24 02:55:12.03	235.05	12.26	-38.0	-39.8	14.9	0.00e+00	0	61	0	3085959168	46	4735
2026-01-24 02:55:13.03	234.97	12.17	-38.0	-39.9	14.9	0.00e+00	0	61	0	3091202048	46	4775
2026-01-24 02:55:14.04	234.89	12.09	-38.0	-39.9	14.8	1.10e-06	0	61	0	3097493504	46	4794
2026-01-24 02:55:15.06	234.81	12.00	-38.1	-40.0	14.7	0.00e+00	0	61	0	3102736384	46	4848
2026-01-24 02:55:16.06	234.73	11.91	-38.1	-40.0	14.7	1.10e-06	0	61	0	3107979264	46	4854
2026-01-24 02:55:17.07	234.65	11.82	-38.1	-40.0	14.7	2.20e-06	0	61	0	3114270720	46	4836
2026-01-24 02:55:18.08	234.58	11.74	-38.1	-40.1	14.7	1.10e-06	0	61	0	3119513600	46	4879
2026-01-24 02:55:19.09	234.50	11.65	-38.2	-40.1	14.6	0.00e+00	0	61	0	3125805056	46	4897
2026-01-24 02:55:20.10	234.42	11.56	-38.2	-40.1	14.6	0.00e+00	0	61	0	3131047936	46	4920
2026-01-24 02:55:21.12	234.34	11.48	-38.2	-40.1	14.6	0.00e+00	0	61	0	3136290816	47	4611
2026-01-24 02:55:22.13	234.27	11.39	-38.1	-40.0	14.6	2.20e-06	0	61	0	3142582272	47	4584
2026-01-24 02:55:23.14	234.19	11.31	-38.1	-40.0	14.6	1.10e-06	0	61	0	3147825152	47	4598
2026-01-24 02:55:24.15	234.12	11.22	-38.1	-40.0	14.6	0.00e+00	0	61	0	3154116608	47	4580
2026-01-24 02:55:25.16	234.04	11.13	-38.1	-40.0	14.6	1.10e-06	0	61	0	3159359488	47	4587
2026-01-24 02:55:26.17	233.97	11.05	-38.1	-40.0	14.6	1.10e-06	0	61	0	3165650944	47	4596
2026-01-24 02:55:27.18	233.90	10.97	-38.1	-39.9	14.7	1.10e-06	0	61	0	3170893824	47	4545
2026-01-24 02:55:28.19	233.82	10.88	-38.1	-40.0	14.7	1.10e-06	0	61	0	3177185280	47	4551
2026-01-24 02:55:29.19	233.75	10.80	-38.1	-40.0	14.6	1.10e-06	0	61	0	3182428160	47	4574
