passes_logs/2026/01/24/R2.0S_Moscow/R2.0S_Moscow__20260124_113818_SUOMI_NPP_rec.log

#Pass ID: 20260124_113818_SUOMI NPP
#Satellite: SUOMI NPP
#Configuration: NPP
#almurnet v.1.7.20251203
#Start time: 2026-01-24 11:38:19

#Version: 2.2.20231116
#Station: R2.0S_Moscow
#Location: 37.707566 lon 55.798166 lat
#TLE: 1 37849U 11061A   26023.63275593  .00000212  00000+0  12133-3 0  9990
#TLE: 2 37849  98.7820 325.6074 0002234  48.9695 311.1673 14.19528901737937

#Time	Az	El	Level	Level2	SNR	BER	BlckErr	Temp	State	Recorded	gain1	gain2
2026-01-24 11:38:19.91	210.74	2.06	-44.1	-58.5	3.8	1.49e+00	0	52	0	0	59	19335
2026-01-24 11:38:20.91	210.81	2.12	-44.1	-58.5	3.8	1.49e+00	0	52	104	0	59	19334
2026-01-24 11:38:21.92	210.89	2.17	-44.1	-58.5	3.8	1.49e+00	0	52	104	0	59	19355
2026-01-24 11:38:22.93	210.97	2.23	-44.1	-58.5	3.8	1.49e+00	0	53	104	0	59	19307
2026-01-24 11:38:23.94	211.05	2.28	-44.1	-58.5	3.8	1.49e+00	0	52	104	0	59	19352
2026-01-24 11:38:24.95	211.12	2.34	-44.1	-58.5	3.8	1.49e+00	0	53	104	0	59	19301
2026-01-24 11:38:25.96	211.20	2.39	-44.1	-58.5	3.8	1.49e+00	0	53	104	0	59	19344
2026-01-24 11:38:26.98	211.28	2.45	-44.1	-58.5	3.8	1.49e+00	0	53	104	0	59	19323
2026-01-24 11:38:27.99	211.36	2.50	-44.0	-58.5	3.8	1.49e+00	0	53	104	0	59	19336
2026-01-24 11:38:29.00	211.44	2.56	-44.1	-58.5	3.8	1.49e+00	0	53	104	0	59	19301
2026-01-24 11:38:30.01	211.52	2.61	-44.1	-58.5	3.8	1.49e+00	0	53	104	0	59	19340
2026-01-24 11:38:31.02	211.60	2.67	-44.0	-58.5	3.8	1.49e+00	0	53	104	0	59	19334
2026-01-24 11:38:32.03	211.68	2.72	-44.0	-58.5	3.8	1.49e+00	0	53	104	0	59	19302
2026-01-24 11:38:33.04	211.76	2.78	-44.1	-58.5	3.8	1.49e+00	0	53	104	0	59	19288
2026-01-24 11:38:34.05	211.84	2.83	-44.1	-58.5	3.8	1.49e+00	0	53	104	0	59	19239
2026-01-24 11:38:35.06	211.92	2.89	-44.1	-58.5	3.8	1.49e+00	0	53	104	0	59	19302
2026-01-24 11:38:36.07	212.01	2.94	-44.1	-58.5	3.8	1.49e+00	0	53	104	0	59	19329
2026-01-24 11:38:37.08	212.09	3.00	-44.1	-58.5	3.8	1.49e+00	0	54	104	0	59	19280
2026-01-24 11:38:38.09	212.17	3.05	-44.0	-58.5	3.8	1.49e+00	0	54	104	0	59	19305
2026-01-24 11:38:39.10	212.25	3.11	-44.0	-58.5	3.8	1.49e+00	0	54	104	0	59	19267
2026-01-24 11:38:40.11	212.33	3.16	-44.1	-58.5	3.8	1.49e+00	0	54	104	0	59	19279
2026-01-24 11:38:41.12	212.42	3.22	-44.0	-58.5	3.8	1.49e+00	0	54	104	0	59	19260
2026-01-24 11:38:42.13	212.50	3.27	-44.0	-58.5	3.8	1.49e+00	0	54	104	0	59	19263
2026-01-24 11:38:43.14	212.58	3.33	-44.0	-58.5	3.8	1.49e+00	0	54	104	0	59	19248
2026-01-24 11:38:44.15	212.67	3.39	-44.0	-58.5	3.8	1.49e+00	0	54	104	0	59	19238
2026-01-24 11:38:45.16	212.75	3.44	-44.0	-58.5	3.8	1.49e+00	0	54	104	0	59	19287
2026-01-24 11:38:46.17	212.84	3.50	-44.0	-58.5	3.8	1.49e+00	0	54	104	0	59	19297
2026-01-24 11:38:47.18	212.92	3.55	-44.0	-58.5	3.8	1.49e+00	0	54	104	0	59	19298
2026-01-24 11:38:48.19	213.01	3.61	-44.0	-58.5	3.8	1.49e+00	0	54	104	0	59	19245
2026-01-24 11:38:49.20	213.09	3.67	-44.0	-58.5	3.8	1.49e+00	0	54	104	0	59	19307
2026-01-24 11:38:50.21	213.18	3.72	-44.0	-58.5	3.8	1.49e+00	0	54	104	0	59	19277
2026-01-24 11:38:51.22	213.26	3.78	-44.0	-58.5	3.8	1.49e+00	0	54	104	0	59	19265
2026-01-24 11:38:52.23	213.35	3.83	-44.0	-58.5	3.8	1.49e+00	0	54	104	0	59	19263
2026-01-24 11:38:53.24	213.44	3.89	-44.0	-58.5	3.8	1.49e+00	0	54	104	0	59	19226
2026-01-24 11:38:54.25	213.52	3.95	-44.0	-58.5	3.8	1.49e+00	0	55	104	0	59	19317
2026-01-24 11:38:55.26	213.61	4.00	-44.0	-58.5	3.8	1.49e+00	0	55	104	0	59	19175
2026-01-24 11:38:56.28	213.70	4.06	-44.0	-58.5	3.8	1.49e+00	0	55	104	0	59	19273
2026-01-24 11:38:57.29	213.79	4.12	-44.0	-58.5	3.8	1.49e+00	0	55	104	0	59	19231
2026-01-24 11:38:58.29	213.87	4.17	-44.0	-58.5	3.8	1.49e+00	0	55	104	0	59	19254
2026-01-24 11:38:59.30	213.96	4.23	-44.0	-58.5	3.8	1.49e+00	0	55	104	0	59	19253
2026-01-24 11:39:00.31	214.05	4.29	-44.0	-58.5	3.8	1.49e+00	0	55	104	0	59	19198
2026-01-24 11:39:01.32	214.14	4.34	-44.0	-58.5	3.8	1.49e+00	0	55	104	0	59	19282
2026-01-24 11:39:02.34	214.23	4.40	-44.0	-58.5	3.8	1.49e+00	0	55	104	0	59	19274
2026-01-24 11:39:03.34	214.32	4.46	-43.9	-58.5	3.8	1.49e+00	0	55	104	0	59	19235
2026-01-24 11:39:04.35	214.41	4.52	-44.0	-58.5	3.8	1.49e+00	0	55	104	0	59	19295
2026-01-24 11:39:05.37	214.50	4.57	-44.0	-58.5	3.8	1.49e+00	0	55	104	0	59	19229
2026-01-24 11:39:06.37	214.59	4.63	-44.0	-58.5	3.8	1.49e+00	0	55	104	0	59	19176
2026-01-24 11:39:07.38	214.68	4.69	-44.0	-58.5	3.8	1.49e+00	0	55	104	0	59	19233
2026-01-24 11:39:08.39	214.77	4.75	-44.0	-58.5	3.8	1.49e+00	0	55	104	0	59	19240
2026-01-24 11:39:09.40	214.87	4.80	-44.0	-58.5	3.8	1.49e+00	0	55	104	0	59	19215
2026-01-24 11:39:10.41	214.96	4.86	-44.0	-58.5	3.8	1.49e+00	0	55	104	0	59	19224
2026-01-24 11:39:11.42	215.05	4.92	-44.0	-58.5	3.8	1.49e+00	0	55	104	0	59	19218
2026-01-24 11:39:12.43	215.14	4.98	-44.0	-58.5	3.8	1.49e+00	0	56	104	0	59	19210
2026-01-24 11:39:13.44	215.24	5.03	-44.0	-58.5	3.8	1.49e+00	0	55	104	0	59	19192
2026-01-24 11:39:14.45	215.33	5.09	-44.0	-58.4	3.8	1.49e+00	0	56	104	0	59	19135
2026-01-24 11:39:15.46	215.43	5.15	-44.0	-58.5	3.8	1.49e+00	0	56	104	0	59	19179
2026-01-24 11:39:16.48	215.52	5.21	-44.0	-58.4	3.8	1.49e+00	0	56	104	0	59	19110
2026-01-24 11:39:17.49	215.62	5.27	-44.0	-58.4	3.8	1.49e+00	0	56	104	0	59	19110
2026-01-24 11:39:18.50	215.71	5.32	-44.0	-58.4	3.8	1.49e+00	0	56	104	0	59	19083
2026-01-24 11:39:19.51	215.81	5.38	-44.0	-58.4	3.8	1.49e+00	0	56	104	0	59	19159
2026-01-24 11:39:20.52	215.90	5.44	-44.0	-58.4	3.8	1.49e+00	0	56	104	0	59	19006
2026-01-24 11:39:21.53	216.00	5.50	-44.0	-58.3	3.8	1.49e+00	0	56	104	0	59	18944
2026-01-24 11:39:22.54	216.10	5.56	-44.0	-58.3	3.8	1.49e+00	0	56	104	0	59	18890
2026-01-24 11:39:23.55	216.19	5.61	-44.0	-58.3	3.8	1.49e+00	0	56	104	0	59	18819
2026-01-24 11:39:24.56	216.29	5.67	-44.0	-58.3	3.8	1.49e+00	0	56	104	0	59	18911
2026-01-24 11:39:25.57	216.39	5.73	-44.0	-58.3	3.8	1.49e+00	0	56	104	0	59	18757
2026-01-24 11:39:26.58	216.49	5.79	-44.0	-58.2	3.8	1.49e+00	0	56	104	0	59	18675
2026-01-24 11:39:27.59	216.58	5.85	-44.0	-58.2	3.8	1.49e+00	0	56	104	0	59	18629
2026-01-24 11:39:28.60	216.68	5.91	-44.0	-58.2	3.8	1.49e+00	0	56	104	0	59	18563
2026-01-24 11:39:29.61	216.78	5.97	-44.0	-58.1	3.8	1.49e+00	0	56	104	0	59	18470
2026-01-24 11:39:30.62	216.88	6.02	-44.0	-58.0	3.8	1.49e+00	0	56	104	0	59	18219
2026-01-24 11:39:31.63	216.98	6.08	-44.0	-58.0	3.8	1.49e+00	0	56	104	0	59	18096
2026-01-24 11:39:32.64	217.08	6.14	-44.0	-57.8	3.8	1.49e+00	0	56	104	0	59	17830
2026-01-24 11:39:33.65	217.18	6.20	-44.0	-57.5	3.8	1.49e+00	0	56	104	0	59	17243
2026-01-24 11:39:34.66	217.28	6.26	-44.0	-57.4	3.8	1.49e+00	0	57	104	0	59	17053
2026-01-24 11:39:35.67	217.39	6.32	-43.9	-57.2	3.8	1.49e+00	0	57	104	0	59	16605
2026-01-24 11:39:36.68	217.49	6.38	-43.9	-56.8	3.8	1.49e+00	0	57	104	0	59	15854
2026-01-24 11:39:37.69	217.59	6.44	-43.9	-56.5	3.8	1.49e+00	0	57	104	0	59	15315
2026-01-24 11:39:38.70	217.69	6.50	-43.9	-56.0	3.8	1.49e+00	0	56	104	0	59	14439
2026-01-24 11:39:39.71	217.80	6.56	-43.8	-55.4	4.1	1.45e+00	0	56	0	0	59	13489
2026-01-24 11:39:40.72	217.90	6.62	-43.8	-54.7	4.2	1.41e+00	0	57	0	0	59	12473
2026-01-24 11:39:41.73	218.00	6.67	-43.7	-54.2	4.4	1.33e+00	0	57	0	0	59	11747
2026-01-24 11:39:42.74	218.11	6.73	-43.6	-53.6	4.7	9.40e-01	0	57	0	2097152	59	10913
2026-01-24 11:39:43.74	218.21	6.79	-43.6	-53.3	4.8	8.61e-01	0	57	0	4194304	59	10593
2026-01-24 11:39:44.75	218.32	6.85	-43.6	-52.9	5.0	7.45e-01	0	57	0	6291456	59	10118
2026-01-24 11:39:45.76	218.42	6.91	-43.5	-52.7	5.1	6.67e-01	0	57	0	8388608	58	10509
2026-01-24 11:39:46.77	218.53	6.97	-43.6	-52.9	5.0	6.89e-01	0	57	0	9437184	58	10692
2026-01-24 11:39:47.79	218.64	7.03	-43.5	-52.7	5.1	6.39e-01	0	57	0	11534336	58	10480
2026-01-24 11:39:48.80	218.75	7.09	-43.5	-52.8	5.0	6.71e-01	0	57	0	13631488	58	10591
2026-01-24 11:39:49.81	218.85	7.15	-43.6	-53.2	4.8	7.18e-01	0	57	0	15728640	58	11139
2026-01-24 11:39:50.82	218.96	7.21	-43.7	-53.7	4.6	8.53e-01	0	57	0	17825792	58	11801
2026-01-24 11:39:51.83	219.07	7.27	-43.6	-53.6	4.6	9.46e-01	0	57	0	18874368	58	11676
2026-01-24 11:39:52.84	219.18	7.33	-43.6	-53.6	4.6	9.11e-01	0	57	0	20971520	58	11675
2026-01-24 11:39:53.85	219.29	7.39	-43.6	-53.6	4.6	9.37e-01	0	57	0	23068672	58	11682
2026-01-24 11:39:54.86	219.40	7.45	-43.6	-53.5	4.7	9.11e-01	0	57	0	25165824	58	11485
2026-01-24 11:39:55.87	219.51	7.51	-43.6	-53.1	4.9	7.67e-01	0	57	0	27262976	58	10992
2026-01-24 11:39:56.88	219.62	7.57	-43.4	-52.1	5.4	6.27e-01	0	57	0	28311552	58	9818
2026-01-24 11:39:57.89	219.73	7.63	-43.3	-51.2	6.1	4.35e-01	0	57	0	30408704	58	8799
2026-01-24 11:39:58.90	219.84	7.69	-43.1	-50.5	6.7	2.43e-01	0	58	0	32505856	58	8171
2026-01-24 11:39:59.91	219.95	7.75	-43.0	-49.9	7.3	1.60e-01	0	57	0	34603008	58	7565
2026-01-24 11:40:00.92	220.06	7.81	-42.8	-49.2	7.9	1.00e-01	0	57	0	36700160	57	7445
2026-01-24 11:40:01.93	220.18	7.87	-42.7	-48.9	8.3	6.11e-02	0	57	0	37748736	57	7144
2026-01-24 11:40:02.94	220.29	7.94	-42.6	-48.6	8.5	5.53e-02	0	57	0	39845888	57	6909
2026-01-24 11:40:03.95	220.40	8.00	-42.6	-48.5	8.6	4.01e-02	0	58	0	41943040	57	6867
2026-01-24 11:40:04.96	220.52	8.06	-42.7	-48.7	8.4	4.16e-02	0	58	0	44040192	57	6993
2026-01-24 11:40:05.97	220.63	8.12	-42.5	-47.8	9.5	2.20e-02	0	57	0	46137344	56	6697
2026-01-24 11:40:06.98	220.75	8.18	-43.9	-58.1	3.8	3.27e-01	0	58	104	47185920	58	19586
2026-01-24 11:40:07.99	220.86	8.24	-43.4	-50.6	7.1	1.12e+00	0	58	0	47185920	57	8755
2026-01-24 11:40:09.00	220.98	8.30	-43.2	-50.2	7.2	9.67e-02	0	58	0	49283072	57	8327
2026-01-24 11:40:10.00	221.09	8.36	-43.7	-53.3	5.0	2.92e-02	0	58	0	51380224	57	11819
2026-01-24 11:40:11.01	221.21	8.42	-42.5	-48.0	9.3	3.03e-01	0	58	0	52428800	57	6456
2026-01-24 11:40:12.02	221.33	8.48	-42.4	-47.7	9.7	1.32e-02	0	58	0	54525952	56	6573
2026-01-24 11:40:13.03	221.44	8.54	-42.4	-47.6	9.8	1.24e-02	0	58	0	56623104	56	6512
2026-01-24 11:40:14.04	221.56	8.60	-42.4	-47.5	9.8	1.01e-02	0	58	0	58720256	56	6459
2026-01-24 11:40:15.05	221.68	8.67	-42.3	-47.3	10.1	7.52e-03	0	58	0	60817408	56	6278
2026-01-24 11:40:16.06	221.80	8.73	-42.3	-47.2	10.1	6.89e-03	0	58	0	61865984	56	6254
2026-01-24 11:40:17.07	221.92	8.79	-42.2	-47.0	10.3	4.70e-03	0	58	0	63963136	56	6129
2026-01-24 11:40:18.08	222.04	8.85	-42.2	-47.0	10.4	4.46e-03	0	58	0	66060288	56	6082
2026-01-24 11:40:19.09	222.16	8.91	-42.0	-46.6	10.8	3.15e-03	0	58	0	68157440	56	5819
2026-01-24 11:40:20.10	222.28	8.97	-42.0	-46.6	10.9	3.09e-03	0	58	0	70254592	56	5804
2026-01-24 11:40:21.11	222.40	9.03	-42.1	-46.6	10.9	2.12e-03	0	58	0	71303168	56	5813
2026-01-24 11:40:22.12	222.53	9.09	-42.1	-46.6	10.9	2.34e-03	0	58	0	73400320	56	5818
2026-01-24 11:40:23.13	222.65	9.16	-42.1	-46.7	10.7	2.81e-03	0	58	0	75497472	56	5875
2026-01-24 11:40:24.14	222.77	9.22	-42.0	-46.5	11.0	2.39e-03	0	58	0	77594624	56	5740
2026-01-24 11:40:25.15	222.90	9.28	-41.8	-46.3	11.1	1.84e-03	0	58	0	79691776	55	5926
2026-01-24 11:40:26.16	223.02	9.34	-41.8	-46.2	11.1	1.38e-03	0	58	0	80740352	55	5890
2026-01-24 11:40:27.17	223.14	9.40	-41.8	-46.1	11.3	1.34e-03	0	58	0	82837504	55	5794
2026-01-24 11:40:28.18	223.27	9.46	-41.8	-46.2	11.1	1.18e-03	0	58	0	84934656	55	5895
2026-01-24 11:40:29.18	223.39	9.52	-41.8	-46.0	11.4	1.23e-03	0	58	0	87031808	55	5764
2026-01-24 11:40:30.19	223.52	9.59	-41.8	-46.0	11.3	1.31e-03	0	58	0	89128960	55	5788
2026-01-24 11:40:31.20	223.65	9.65	-41.8	-46.1	11.2	1.20e-03	0	58	0	91226112	55	5855
2026-01-24 11:40:32.21	223.77	9.71	-41.9	-46.3	11.1	1.27e-03	0	58	0	92274688	55	5949
2026-01-24 11:40:33.22	223.90	9.77	-41.8	-46.1	11.3	1.28e-03	0	58	0	94371840	55	5854
2026-01-24 11:40:34.23	224.03	9.83	-41.9	-46.3	11.1	1.45e-03	0	59	0	96468992	55	5924
2026-01-24 11:40:35.24	224.16	9.90	-41.9	-46.4	11.0	1.98e-03	0	58	0	98566144	55	5995
2026-01-24 11:40:36.25	224.29	9.96	-42.0	-46.5	10.8	2.12e-03	0	58	0	100663296	55	6118
2026-01-24 11:40:37.26	224.42	10.02	-41.9	-46.4	11.0	2.22e-03	0	59	0	101711872	55	6029
2026-01-24 11:40:38.27	224.55	10.08	-42.0	-46.5	10.9	1.57e-03	0	58	0	103809024	55	6105
2026-01-24 11:40:39.28	224.68	10.14	-41.9	-46.4	11.0	2.16e-03	0	59	0	105906176	55	6034
2026-01-24 11:40:40.29	224.81	10.21	-41.9	-46.3	11.1	1.68e-03	0	59	0	108003328	55	5978
2026-01-24 11:40:41.30	224.94	10.27	-41.9	-46.3	11.2	1.74e-03	0	59	0	110100480	55	5946
2026-01-24 11:40:42.31	225.08	10.33	-41.9	-46.3	11.1	1.49e-03	0	59	0	111149056	55	5972
2026-01-24 11:40:43.32	225.21	10.39	-41.9	-46.2	11.2	1.34e-03	0	59	0	113246208	55	5895
2026-01-24 11:40:44.33	225.34	10.45	-41.8	-46.1	11.3	1.15e-03	0	59	0	115343360	55	5824
2026-01-24 11:40:45.34	225.48	10.52	-41.9	-46.3	11.2	1.06e-03	0	59	0	117440512	55	5950
2026-01-24 11:40:46.35	225.61	10.58	-41.9	-46.2	11.3	1.27e-03	0	59	0	119537664	55	5884
2026-01-24 11:40:47.36	225.75	10.64	-41.9	-46.1	11.4	1.15e-03	0	59	0	120586240	55	5841
2026-01-24 11:40:48.37	225.88	10.70	-41.9	-46.2	11.2	1.09e-03	0	59	0	122683392	55	5907
2026-01-24 11:40:49.38	226.02	10.76	-41.8	-46.1	11.4	1.15e-03	0	59	0	124780544	55	5826
2026-01-24 11:40:50.39	226.16	10.83	-41.9	-46.2	11.3	1.22e-03	0	58	0	126877696	55	5873
2026-01-24 11:40:51.40	226.29	10.89	-41.9	-46.2	11.3	1.32e-03	0	59	0	128974848	55	5868
2026-01-24 11:40:52.41	226.43	10.95	-41.9	-46.3	11.2	1.24e-03	0	59	0	130023424	55	5929
2026-01-24 11:40:53.42	226.57	11.01	-41.8	-45.9	11.5	8.53e-04	0	59	0	132120576	55	5717
2026-01-24 11:40:54.42	226.71	11.08	-41.8	-46.0	11.5	8.94e-04	0	59	0	134217728	55	5785
2026-01-24 11:40:55.43	226.85	11.14	-41.8	-45.9	11.6	7.33e-04	0	59	0	136314880	55	5715
2026-01-24 11:40:56.44	226.99	11.20	-41.7	-45.8	11.7	6.32e-04	0	59	0	138412032	55	5640
2026-01-24 11:40:57.45	227.13	11.26	-41.8	-45.9	11.6	7.05e-04	0	59	0	139460608	55	5709
2026-01-24 11:40:58.46	227.27	11.32	-41.7	-45.7	11.8	4.36e-04	0	59	0	141557760	55	5574
2026-01-24 11:40:59.47	227.41	11.39	-41.7	-45.7	11.8	3.87e-04	0	59	0	143654912	55	5547
2026-01-24 11:41:00.48	227.56	11.45	-41.6	-45.6	11.9	5.38e-04	0	59	0	145752064	55	5494
2026-01-24 11:41:01.49	227.70	11.51	-41.6	-45.6	11.9	4.44e-04	0	59	0	147849216	55	5516
2026-01-24 11:41:02.50	227.84	11.57	-41.7	-45.7	11.8	3.49e-04	0	59	0	148897792	55	5558
2026-01-24 11:41:03.51	227.99	11.64	-41.7	-45.7	11.8	4.42e-04	0	59	0	150994944	55	5577
2026-01-24 11:41:04.52	228.13	11.70	-41.8	-45.9	11.7	4.66e-04	0	59	0	153092096	55	5680
2026-01-24 11:41:05.53	228.28	11.76	-41.8	-45.9	11.6	5.58e-04	0	59	0	155189248	55	5703
2026-01-24 11:41:06.54	228.43	11.82	-41.8	-45.9	11.7	6.50e-04	0	59	0	157286400	55	5683
2026-01-24 11:41:07.55	228.57	11.88	-41.8	-46.1	11.5	6.96e-04	0	59	0	159383552	55	5793
2026-01-24 11:41:08.56	228.72	11.95	-41.7	-45.8	11.7	5.72e-04	0	59	0	160432128	55	5645
2026-01-24 11:41:09.57	228.87	12.01	-41.8	-45.9	11.7	6.19e-04	0	59	0	162529280	55	5692
2026-01-24 11:41:10.58	229.02	12.07	-41.8	-46.0	11.6	6.68e-04	0	59	0	164626432	55	5723
2026-01-24 11:41:11.59	229.17	12.13	-41.8	-46.0	11.6	9.06e-04	0	59	0	166723584	55	5750
2026-01-24 11:41:12.59	229.31	12.19	-41.9	-46.1	11.5	8.23e-04	0	59	0	168820736	55	5800
2026-01-24 11:41:13.60	229.47	12.26	-41.9	-46.1	11.5	1.05e-03	0	59	0	169869312	55	5820
2026-01-24 11:41:14.61	229.62	12.32	-41.9	-46.1	11.5	9.18e-04	0	59	0	171966464	55	5840
2026-01-24 11:41:15.62	229.77	12.38	-41.9	-46.2	11.4	7.57e-04	0	59	0	174063616	55	5856
2026-01-24 11:41:16.63	229.92	12.44	-41.9	-46.2	11.4	9.06e-04	0	59	0	176160768	55	5877
2026-01-24 11:41:17.64	230.07	12.51	-41.8	-45.9	11.6	9.04e-04	0	59	0	178257920	55	5717
2026-01-24 11:41:18.65	230.23	12.57	-41.9	-46.1	11.5	7.25e-04	0	59	0	179306496	55	5796
2026-01-24 11:41:19.66	230.38	12.63	-41.8	-46.0	11.6	7.70e-04	0	59	0	181403648	55	5735
2026-01-24 11:41:20.67	230.54	12.69	-41.9	-46.1	11.5	6.38e-04	0	59	0	183500800	55	5826
2026-01-24 11:41:21.67	230.69	12.75	-41.8	-46.0	11.7	6.69e-04	0	59	0	185597952	55	5725
2026-01-24 11:41:22.68	230.85	12.81	-41.9	-46.1	11.5	5.43e-04	0	59	0	187695104	55	5810
2026-01-24 11:41:23.69	231.00	12.88	-41.9	-46.2	11.4	8.83e-04	0	59	0	188743680	55	5867
2026-01-24 11:41:24.70	231.16	12.94	-41.8	-45.9	11.7	5.58e-04	0	59	0	190840832	55	5694
2026-01-24 11:41:25.71	231.32	13.00	-41.9	-46.0	11.6	5.47e-04	0	59	0	192937984	55	5773
2026-01-24 11:41:26.72	231.48	13.06	-41.8	-45.9	11.8	4.25e-04	0	59	0	195035136	55	5667
2026-01-24 11:41:27.73	231.64	13.12	-41.7	-45.6	12.0	3.32e-04	0	59	0	197132288	55	5520
2026-01-24 11:41:28.74	231.80	13.18	-41.6	-45.4	12.3	1.98e-04	0	59	0	198180864	55	5383
2026-01-24 11:41:29.75	231.96	13.25	-41.6	-45.4	12.3	2.05e-04	0	60	0	200278016	55	5386
2026-01-24 11:41:30.76	232.12	13.31	-41.6	-45.3	12.4	1.93e-04	0	59	0	202375168	55	5334
2026-01-24 11:41:31.77	232.28	13.37	-41.4	-45.0	12.6	7.62e-05	0	60	0	204472320	54	5458
2026-01-24 11:41:32.78	232.44	13.43	-41.5	-45.1	12.6	1.04e-04	0	59	0	206569472	54	5518
2026-01-24 11:41:33.79	232.61	13.49	-41.4	-45.1	12.6	7.78e-05	0	60	0	207618048	54	5484
2026-01-24 11:41:34.80	232.77	13.55	-41.4	-45.0	12.7	8.69e-05	0	60	0	209715200	54	5427
2026-01-24 11:41:35.80	232.93	13.61	-41.4	-45.0	12.7	7.62e-05	0	60	0	211812352	54	5404
2026-01-24 11:41:36.81	233.10	13.68	-41.4	-45.0	12.7	9.68e-05	0	60	0	213909504	54	5430
2026-01-24 11:41:37.82	233.27	13.74	-41.4	-45.0	12.6	6.86e-05	0	60	0	216006656	54	5451
2026-01-24 11:41:38.83	233.43	13.80	-41.4	-45.0	12.6	8.16e-05	0	60	0	217055232	54	5460
2026-01-24 11:41:39.84	233.60	13.86	-41.4	-45.1	12.6	1.20e-04	0	60	0	219152384	54	5474
2026-01-24 11:41:40.85	233.77	13.92	-41.6	-45.3	12.4	9.76e-05	0	60	0	221249536	54	5619
2026-01-24 11:41:41.86	233.94	13.98	-41.5	-45.3	12.4	1.52e-04	0	60	0	223346688	54	5615
2026-01-24 11:41:42.87	234.11	14.04	-41.5	-45.3	12.4	1.55e-04	0	59	0	225443840	54	5619
2026-01-24 11:41:43.88	234.28	14.10	-41.6	-45.4	12.3	1.55e-04	0	60	0	227540992	54	5709
2026-01-24 11:41:44.89	234.45	14.16	-41.6	-45.5	12.2	1.84e-04	0	60	0	228589568	54	5732
2026-01-24 11:41:45.90	234.62	14.22	-41.6	-45.5	12.2	2.20e-04	0	60	0	230686720	54	5737
2026-01-24 11:41:46.91	234.79	14.28	-41.6	-45.4	12.4	1.94e-04	0	60	0	232783872	54	5666
2026-01-24 11:41:47.92	234.96	14.34	-41.7	-45.5	12.2	1.48e-04	0	60	0	234881024	54	5762
2026-01-24 11:41:48.93	235.14	14.40	-41.7	-45.6	12.1	1.90e-04	0	59	0	236978176	54	5823
2026-01-24 11:41:49.94	235.31	14.46	-41.8	-45.8	12.0	2.80e-04	0	60	0	238026752	54	5932
2026-01-24 11:41:50.95	235.48	14.52	-41.8	-45.8	11.9	3.62e-04	0	60	0	240123904	54	5992
2026-01-24 11:41:51.96	235.66	14.58	-41.9	-46.1	11.7	4.44e-04	0	60	0	242221056	54	6143
2026-01-24 11:41:52.97	235.84	14.64	-42.0	-46.3	11.5	7.57e-04	0	60	0	244318208	54	6275
2026-01-24 11:41:53.98	236.01	14.70	-42.0	-46.1	11.6	6.95e-04	0	60	0	246415360	54	6183
2026-01-24 11:41:54.99	236.19	14.76	-41.9	-46.1	11.7	6.83e-04	0	60	0	247463936	54	6134
2026-01-24 11:41:56.00	236.37	14.82	-41.8	-45.8	11.9	4.14e-04	0	60	0	249561088	54	5974
2026-01-24 11:41:57.01	236.55	14.88	-41.8	-45.7	12.1	3.11e-04	0	60	0	251658240	54	5859
2026-01-24 11:41:58.02	236.73	14.94	-41.6	-45.4	12.3	1.99e-04	0	60	0	253755392	54	5688
2026-01-24 11:41:59.03	236.91	15.00	-41.6	-45.2	12.6	1.26e-04	0	60	0	255852544	54	5583
2026-01-24 11:42:00.03	237.09	15.06	-41.6	-45.4	12.4	9.15e-05	0	60	0	256901120	54	5678
2026-01-24 11:42:01.04	237.27	15.12	-41.6	-45.4	12.4	9.68e-05	0	60	0	258998272	54	5693
2026-01-24 11:42:02.05	237.45	15.18	-41.7	-45.6	12.1	2.14e-04	0	60	0	261095424	54	5833
2026-01-24 11:42:03.06	237.63	15.24	-41.7	-45.6	12.2	2.59e-04	0	60	0	263192576	54	5796
2026-01-24 11:42:04.07	237.82	15.30	-41.8	-45.8	11.9	2.28e-04	0	60	0	265289728	54	5980
2026-01-24 11:42:05.08	238.00	15.35	-41.7	-45.7	12.1	3.32e-04	0	60	0	266338304	54	5856
2026-01-24 11:42:06.09	238.19	15.41	-41.7	-45.5	12.3	2.17e-04	0	60	0	268435456	54	5764
2026-01-24 11:42:07.10	238.37	15.47	-41.7	-45.5	12.4	1.46e-04	0	60	0	270532608	54	5724
2026-01-24 11:42:08.11	238.56	15.53	-41.5	-45.1	12.6	1.35e-04	0	60	0	272629760	54	5521
2026-01-24 11:42:09.12	238.75	15.59	-41.4	-45.0	12.8	8.31e-05	0	60	0	274726912	54	5419
2026-01-24 11:42:10.13	238.93	15.64	-41.5	-45.1	12.7	6.33e-05	0	60	0	275775488	54	5511
2026-01-24 11:42:11.14	239.12	15.70	-41.4	-45.0	12.8	7.93e-05	0	60	0	277872640	54	5414
2026-01-24 11:42:12.15	239.31	15.76	-41.5	-45.1	12.7	5.56e-05	0	60	0	279969792	54	5469
2026-01-24 11:42:13.16	239.50	15.82	-41.4	-45.0	12.8	5.56e-05	0	60	0	282066944	54	5441
2026-01-24 11:42:14.17	239.69	15.87	-41.3	-44.8	12.9	7.09e-05	0	60	0	284164096	54	5331
2026-01-24 11:42:15.17	239.88	15.93	-41.3	-44.7	13.1	3.43e-05	0	60	0	285212672	54	5253
2026-01-24 11:42:16.18	240.08	15.99	-41.3	-44.8	13.0	3.81e-05	0	60	0	287309824	54	5320
2026-01-24 11:42:17.19	240.27	16.04	-41.3	-44.7	13.1	2.74e-05	0	60	0	289406976	54	5252
2026-01-24 11:42:18.20	240.46	16.10	-41.3	-44.7	13.1	3.50e-05	0	60	0	291504128	54	5234
2026-01-24 11:42:19.21	240.66	16.16	-41.4	-44.9	12.9	3.89e-05	0	60	0	293601280	54	5372
2026-01-24 11:42:20.22	240.85	16.21	-41.3	-44.8	12.9	3.66e-05	0	60	0	295698432	54	5322
2026-01-24 11:42:21.23	241.05	16.27	-41.5	-45.1	12.7	4.88e-05	0	60	0	296747008	54	5475
2026-01-24 11:42:22.24	241.24	16.32	-41.5	-45.2	12.7	8.46e-05	0	60	0	298844160	54	5539
2026-01-24 11:42:23.25	241.44	16.38	-41.5	-45.2	12.6	8.46e-05	0	60	0	300941312	54	5532
2026-01-24 11:42:24.25	241.64	16.43	-41.5	-45.2	12.6	1.01e-04	0	60	0	303038464	54	5547
2026-01-24 11:42:25.26	241.83	16.49	-41.4	-45.0	12.7	9.23e-05	0	60	0	305135616	54	5439
2026-01-24 11:42:26.27	242.03	16.54	-41.4	-45.0	12.8	6.17e-05	0	60	0	306184192	54	5404
2026-01-24 11:42:27.28	242.23	16.60	-41.3	-44.7	13.0	4.34e-05	0	60	0	308281344	54	5271
2026-01-24 11:42:28.29	242.43	16.65	-41.4	-44.9	12.9	3.73e-05	0	60	0	310378496	54	5358
2026-01-24 11:42:29.31	242.64	16.71	-41.4	-44.9	12.9	3.81e-05	0	60	0	312475648	54	5381
2026-01-24 11:42:30.32	242.84	16.76	-41.4	-44.9	12.9	4.80e-05	0	60	0	314572800	54	5351
2026-01-24 11:42:31.33	243.04	16.81	-41.5	-45.1	12.6	8.46e-05	0	60	0	315621376	54	5528
2026-01-24 11:42:32.33	243.24	16.87	-41.7	-45.5	12.3	1.23e-04	0	60	0	317718528	54	5740
2026-01-24 11:42:33.34	243.45	16.92	-41.7	-45.6	12.2	1.90e-04	0	60	0	319815680	54	5797
2026-01-24 11:42:34.35	243.65	16.97	-41.7	-45.4	12.3	1.78e-04	0	60	0	321912832	54	5717
2026-01-24 11:42:35.36	243.86	17.03	-41.7	-45.4	12.3	1.35e-04	0	60	0	324009984	54	5708
2026-01-24 11:42:36.37	244.07	17.08	-41.7	-45.4	12.3	1.74e-04	0	60	0	325058560	54	5710
2026-01-24 11:42:37.38	244.27	17.13	-41.6	-45.4	12.4	1.68e-04	0	60	0	327155712	54	5677
2026-01-24 11:42:38.39	244.48	17.18	-41.6	-45.2	12.5	9.00e-05	0	60	0	329252864	54	5570
2026-01-24 11:42:39.40	244.69	17.24	-41.6	-45.3	12.4	1.20e-04	0	60	0	331350016	54	5628
2026-01-24 11:42:40.41	244.90	17.29	-41.6	-45.5	12.1	1.07e-03	0	60	0	333447168	54	5753
2026-01-24 11:42:41.42	245.11	17.34	-41.6	-45.8	11.8	1.10e-02	0	60	0	334495744	54	5932
2026-01-24 11:42:42.42	245.32	17.39	-41.7	-45.8	11.7	1.30e-02	0	60	0	336592896	54	5991
2026-01-24 11:42:43.43	245.53	17.44	-41.8	-46.0	11.5	1.03e-02	0	60	0	338690048	54	6114
2026-01-24 11:42:44.44	245.74	17.49	-42.0	-46.1	11.7	7.57e-04	0	60	0	340787200	54	6160
2026-01-24 11:42:45.45	245.95	17.54	-41.8	-45.7	11.9	6.05e-04	0	60	0	342884352	54	5909
2026-01-24 11:42:46.46	246.16	17.59	-41.7	-45.9	11.6	1.00e-02	0	60	0	343932928	54	6012
2026-01-24 11:42:47.47	246.38	17.64	-41.5	-45.8	11.6	1.47e-02	0	60	0	346030080	54	5990
2026-01-24 11:42:48.48	246.59	17.69	-41.4	-46.0	11.4	1.53e-02	0	60	0	348127232	54	6119
2026-01-24 11:42:49.49	246.81	17.74	-41.2	-46.1	11.3	1.61e-02	0	60	0	350224384	54	6151
2026-01-24 11:42:50.49	247.02	17.79	-41.7	-46.2	11.3	1.40e-02	0	60	0	352321536	54	6231
2026-01-24 11:42:51.50	247.24	17.84	-41.8	-46.3	11.3	1.01e-02	0	60	0	353370112	54	6333
2026-01-24 11:42:52.51	247.46	17.88	-42.0	-46.5	11.1	9.65e-03	0	60	0	355467264	54	6451
2026-01-24 11:42:53.52	247.67	17.93	-42.0	-46.4	11.2	9.44e-03	0	60	0	357564416	54	6387
2026-01-24 11:42:54.54	247.89	17.98	-42.0	-46.6	10.9	1.03e-02	0	60	0	359661568	54	6560
2026-01-24 11:42:55.54	248.11	18.03	-42.1	-46.8	10.7	1.20e-02	0	60	0	361758720	54	6696
2026-01-24 11:42:56.55	248.33	18.07	-42.1	-46.7	10.9	1.24e-02	0	60	0	362807296	54	6609
2026-01-24 11:42:57.56	248.55	18.12	-42.4	-47.1	10.5	7.25e-03	0	60	0	364904448	55	6538
2026-01-24 11:42:58.57	248.77	18.17	-42.4	-47.0	10.7	3.78e-03	0	60	0	367001600	55	6459
2026-01-24 11:42:59.58	249.00	18.21	-42.4	-47.1	10.7	3.10e-03	0	60	0	369098752	55	6526
2026-01-24 11:43:00.59	249.22	18.26	-42.4	-47.0	10.7	3.04e-03	0	60	0	371195904	55	6450
2026-01-24 11:43:01.60	249.44	18.31	-42.4	-47.1	10.6	3.31e-03	0	60	0	372244480	55	6511
2026-01-24 11:43:02.61	249.67	18.35	-42.4	-47.0	10.7	3.01e-03	0	60	0	374341632	55	6459
2026-01-24 11:43:03.62	249.89	18.40	-42.5	-47.2	10.5	4.27e-03	0	60	0	376438784	55	6609
2026-01-24 11:43:04.63	250.12	18.44	-42.5	-47.3	10.4	4.24e-03	0	60	0	378535936	55	6682
2026-01-24 11:43:05.64	250.34	18.48	-42.6	-47.5	10.2	4.98e-03	0	60	0	380633088	55	6818
2026-01-24 11:43:06.65	250.57	18.53	-42.6	-47.5	10.2	5.52e-03	0	60	0	381681664	55	6837
2026-01-24 11:43:07.66	250.79	18.57	-42.3	-46.9	10.8	3.22e-03	0	61	0	383778816	55	6381
2026-01-24 11:43:08.67	251.02	18.61	-42.3	-46.7	11.0	2.28e-03	0	60	0	385875968	55	6267
2026-01-24 11:43:09.67	251.25	18.66	-42.2	-46.5	11.2	1.79e-03	0	60	0	387973120	55	6096
2026-01-24 11:43:10.68	251.48	18.70	-42.2	-46.5	11.3	9.13e-04	0	60	0	390070272	55	6074
2026-01-24 11:43:11.69	251.71	18.74	-42.2	-46.6	11.2	1.00e-03	0	61	0	391118848	55	6152
2026-01-24 11:43:12.70	251.94	18.78	-42.2	-46.6	11.2	1.34e-03	0	61	0	393216000	55	6154
2026-01-24 11:43:13.71	252.17	18.82	-42.3	-46.7	11.1	1.35e-03	0	60	0	395313152	55	6240
2026-01-24 11:43:14.72	252.40	18.86	-42.1	-46.4	11.4	1.29e-03	0	61	0	397410304	55	5997
2026-01-24 11:43:15.73	252.63	18.90	-42.1	-46.1	11.7	7.03e-04	0	60	0	399507456	55	5848
2026-01-24 11:43:16.74	252.86	18.94	-41.9	-45.8	11.9	4.59e-04	0	61	0	400556032	55	5631
2026-01-24 11:43:17.75	253.10	18.98	-41.7	-45.5	12.2	2.48e-04	0	60	0	402653184	55	5458
2026-01-24 11:43:18.76	253.33	19.02	-41.7	-45.6	12.2	1.87e-04	0	60	0	404750336	55	5472
2026-01-24 11:43:19.77	253.57	19.06	-41.9	-45.8	12.0	2.55e-04	0	60	0	406847488	55	5621
2026-01-24 11:43:20.78	253.80	19.10	-42.0	-46.1	11.7	4.30e-04	0	60	0	408944640	55	5808
2026-01-24 11:43:21.78	254.03	19.14	-41.9	-45.9	11.8	6.22e-04	0	60	0	411041792	55	5683
2026-01-24 11:43:22.79	254.27	19.17	-42.0	-46.0	11.8	4.55e-04	0	60	0	412090368	55	5749
2026-01-24 11:43:23.80	254.51	19.21	-41.8	-45.7	12.1	3.07e-04	0	60	0	414187520	55	5557
2026-01-24 11:43:24.81	254.74	19.25	-41.7	-45.5	12.3	2.47e-04	0	60	0	416284672	55	5414
2026-01-24 11:43:25.83	254.98	19.28	-41.5	-45.1	12.7	1.19e-04	0	61	0	418381824	55	5203
2026-01-24 11:43:26.83	255.22	19.32	-41.5	-45.2	12.7	8.39e-05	0	61	0	420478976	55	5224
2026-01-24 11:43:27.84	255.46	19.35	-41.6	-45.2	12.6	1.01e-04	0	60	0	421527552	55	5231
2026-01-24 11:43:28.85	255.70	19.39	-41.7	-45.5	12.3	1.27e-04	0	61	0	423624704	55	5426
2026-01-24 11:43:29.86	255.94	19.42	-41.7	-45.5	12.3	1.62e-04	0	61	0	425721856	55	5443
2026-01-24 11:43:30.87	256.18	19.46	-41.7	-45.5	12.3	2.09e-04	0	61	0	427819008	55	5450
2026-01-24 11:43:31.88	256.42	19.49	-41.5	-45.2	12.7	1.27e-04	0	60	0	429916160	55	5228
2026-01-24 11:43:32.89	256.66	19.52	-41.4	-44.9	12.9	6.71e-05	0	61	0	430964736	54	5349
2026-01-24 11:43:33.90	256.90	19.56	-41.4	-44.8	13.0	4.50e-05	0	61	0	433061888	54	5324
2026-01-24 11:43:34.91	257.14	19.59	-41.2	-44.5	13.3	2.05e-05	0	61	0	435159040	54	5151
2026-01-24 11:43:35.92	257.39	19.62	-41.2	-44.5	13.3	1.60e-05	0	61	0	437256192	54	5158
2026-01-24 11:43:36.93	257.63	19.65	-41.3	-44.7	13.2	2.74e-05	0	61	0	439353344	54	5238
2026-01-24 11:43:37.94	257.87	19.68	-41.3	-44.7	13.2	2.59e-05	0	61	0	440401920	54	5220
2026-01-24 11:43:38.95	258.12	19.71	-41.2	-44.5	13.3	1.90e-05	0	61	0	442499072	54	5118
2026-01-24 11:43:39.96	258.36	19.74	-41.1	-44.3	13.5	6.80e-06	0	61	0	444596224	54	5027
2026-01-24 11:43:40.97	258.61	19.77	-40.9	-44.0	13.7	6.10e-06	0	60	0	446693376	53	5158
2026-01-24 11:43:41.98	258.85	19.80	-41.0	-44.2	13.6	7.60e-06	0	61	0	448790528	53	5240
2026-01-24 11:43:42.99	259.10	19.83	-41.1	-44.4	13.4	1.29e-05	0	60	0	449839104	53	5360
2026-01-24 11:43:43.99	259.34	19.86	-41.3	-44.7	13.1	2.21e-05	0	61	0	451936256	53	5570
2026-01-24 11:43:45.00	259.59	19.88	-41.4	-44.9	12.9	4.04e-05	0	61	0	454033408	53	5703
2026-01-24 11:43:46.01	259.84	19.91	-41.4	-44.9	12.8	5.56e-05	0	61	0	456130560	53	5718
2026-01-24 11:43:47.02	260.09	19.94	-41.4	-44.9	12.9	3.50e-05	0	61	0	458227712	53	5684
2026-01-24 11:43:48.03	260.33	19.96	-41.2	-44.6	13.2	4.27e-05	0	61	0	459276288	53	5510
2026-01-24 11:43:49.04	260.58	19.99	-41.2	-44.6	13.2	2.44e-05	0	61	0	461373440	53	5494
2026-01-24 11:43:50.05	260.83	20.01	-41.3	-44.7	13.1	3.50e-05	0	61	0	463470592	53	5564
2026-01-24 11:43:51.06	261.08	20.04	-41.4	-44.9	12.9	3.28e-05	0	61	0	465567744	53	5713
2026-01-24 11:43:52.07	261.33	20.06	-41.5	-45.1	12.7	6.40e-05	0	61	0	467664896	53	5795
2026-01-24 11:43:53.08	261.58	20.08	-41.4	-44.9	12.9	6.10e-05	0	61	0	468713472	53	5657
2026-01-24 11:43:54.09	261.83	20.11	-41.3	-44.7	13.1	4.34e-05	0	61	0	470810624	53	5564
2026-01-24 11:43:55.10	262.08	20.13	-41.2	-44.6	13.2	2.36e-05	0	61	0	472907776	53	5512
2026-01-24 11:43:56.11	262.33	20.15	-41.2	-44.5	13.3	2.28e-05	0	61	0	475004928	53	5418
2026-01-24 11:43:57.12	262.58	20.17	-41.3	-44.7	13.0	3.50e-05	0	61	0	477102080	53	5584
2026-01-24 11:43:58.13	262.84	20.19	-41.5	-45.1	12.7	3.89e-05	0	61	0	479199232	53	5830
2026-01-24 11:43:59.14	263.09	20.21	-41.5	-45.1	12.6	7.47e-05	0	61	0	480247808	53	5828
2026-01-24 11:44:00.15	263.34	20.23	-41.5	-45.1	12.7	7.62e-05	0	61	0	482344960	53	5789
2026-01-24 11:44:01.16	263.59	20.25	-41.2	-44.6	13.2	3.73e-05	0	61	0	484442112	53	5503
2026-01-24 11:44:02.16	263.84	20.27	-41.2	-44.5	13.4	2.13e-05	0	61	0	486539264	53	5433
2026-01-24 11:44:03.17	264.10	20.29	-41.1	-44.4	13.4	1.60e-05	0	61	0	488636416	53	5364
2026-01-24 11:44:04.18	264.35	20.31	-41.3	-44.6	13.1	1.37e-05	0	61	0	489684992	53	5528
2026-01-24 11:44:05.19	264.61	20.32	-41.4	-44.9	12.9	3.96e-05	0	61	0	491782144	53	5670
2026-01-24 11:44:06.20	264.86	20.34	-41.6	-45.3	12.5	7.40e-05	0	61	0	493879296	53	5928
2026-01-24 11:44:07.21	265.11	20.35	-41.6	-45.3	12.5	1.43e-04	0	61	0	495976448	53	5945
2026-01-24 11:44:08.22	265.37	20.37	-41.6	-45.2	12.6	1.36e-04	0	61	0	498073600	53	5912
2026-01-24 11:44:09.23	265.62	20.38	-41.6	-45.4	12.4	1.24e-04	0	61	0	499122176	53	5999
2026-01-24 11:44:10.24	265.88	20.40	-41.7	-45.5	12.4	1.08e-04	0	61	0	501219328	53	6067
2026-01-24 11:44:11.25	266.13	20.41	-41.7	-45.5	12.3	1.24e-04	0	61	0	503316480	53	6109
2026-01-24 11:44:12.26	266.39	20.43	-41.8	-45.7	12.1	2.20e-04	0	61	0	505413632	54	5920
2026-01-24 11:44:13.27	266.65	20.44	-41.9	-45.8	12.0	3.64e-04	0	61	0	507510784	54	5959
2026-01-24 11:44:14.28	266.90	20.45	-41.9	-45.9	11.9	3.75e-04	0	61	0	508559360	54	6010
2026-01-24 11:44:15.29	267.16	20.46	-41.9	-45.8	12.0	3.77e-04	0	61	0	510656512	54	5953
2026-01-24 11:44:16.30	267.41	20.47	-41.6	-45.3	12.4	1.81e-04	0	61	0	512753664	54	5647
2026-01-24 11:44:17.31	267.67	20.48	-41.5	-45.0	12.8	9.84e-05	0	61	0	514850816	54	5453
2026-01-24 11:44:18.32	267.93	20.49	-41.5	-45.0	12.8	5.18e-05	0	61	0	516947968	54	5449
2026-01-24 11:44:19.33	268.18	20.50	-41.5	-45.1	12.8	6.79e-05	0	61	0	517996544	54	5468
2026-01-24 11:44:20.34	268.44	20.51	-41.5	-45.1	12.7	7.40e-05	0	61	0	520093696	54	5479
2026-01-24 11:44:21.35	268.70	20.52	-41.4	-45.0	12.8	6.25e-05	0	61	0	522190848	54	5414
2026-01-24 11:44:22.36	268.95	20.52	-41.4	-45.0	12.8	5.34e-05	0	61	0	524288000	54	5417
2026-01-24 11:44:23.37	269.21	20.53	-41.4	-44.9	12.9	4.27e-05	0	61	0	526385152	54	5398
2026-01-24 11:44:24.38	269.47	20.54	-41.4	-44.8	13.0	3.89e-05	0	61	0	527433728	54	5329
2026-01-24 11:44:25.39	269.73	20.54	-41.4	-44.9	12.9	6.17e-05	0	61	0	529530880	54	5374
2026-01-24 11:44:26.40	269.98	20.55	-41.6	-45.2	12.5	7.62e-05	0	61	0	531628032	54	5587
2026-01-24 11:44:27.40	270.24	20.55	-41.7	-45.6	12.2	1.20e-04	0	61	0	533725184	54	5806
2026-01-24 11:44:28.41	270.50	20.56	-41.9	-46.0	11.9	3.11e-04	0	61	0	535822336	54	6065
2026-01-24 11:44:29.42	270.75	20.56	-41.9	-46.0	11.7	4.23e-04	0	61	0	536870912	54	6087
2026-01-24 11:44:30.43	271.01	20.56	-41.9	-45.9	11.9	4.91e-04	0	61	0	538968064	54	6045
2026-01-24 11:44:31.44	271.27	20.56	-42.0	-46.0	11.7	4.84e-04	0	61	0	541065216	54	6114
2026-01-24 11:44:32.45	271.53	20.57	-41.9	-46.0	11.8	4.66e-04	0	61	0	543162368	54	6092
2026-01-24 11:44:33.45	271.78	20.57	-42.0	-46.1	11.7	5.23e-04	0	61	0	545259520	54	6196
2026-01-24 11:44:34.46	272.04	20.57	-42.0	-46.1	11.6	5.17e-04	0	61	0	547356672	54	6188
2026-01-24 11:44:35.47	272.30	20.57	-42.0	-46.0	11.7	5.38e-04	0	61	0	548405248	54	6105
2026-01-24 11:44:36.47	272.55	20.57	-41.9	-45.9	11.9	4.81e-04	0	61	0	550502400	54	6016
2026-01-24 11:44:37.49	272.81	20.57	-41.8	-45.7	12.1	3.58e-04	0	61	0	552599552	54	5905
2026-01-24 11:44:38.50	273.07	20.56	-41.8	-45.7	12.1	2.94e-04	0	61	0	554696704	54	5882
2026-01-24 11:44:39.51	273.33	20.56	-41.9	-45.8	11.9	2.97e-04	0	61	0	556793856	54	5991
2026-01-24 11:44:40.52	273.59	20.56	-41.9	-45.9	11.8	3.77e-04	0	61	0	557842432	54	6060
2026-01-24 11:44:41.53	273.85	20.56	-42.0	-46.0	11.7	4.15e-04	0	61	0	559939584	54	6117
2026-01-24 11:44:42.54	274.10	20.55	-41.9	-45.8	11.9	4.93e-04	0	61	0	562036736	54	5989
2026-01-24 11:44:43.55	274.36	20.55	-41.9	-45.9	11.8	4.66e-04	0	61	0	564133888	54	6027
2026-01-24 11:44:44.56	274.62	20.54	-41.8	-45.6	12.1	2.94e-04	0	61	0	566231040	54	5852
2026-01-24 11:44:45.57	274.88	20.54	-41.7	-45.5	12.3	2.20e-04	0	61	0	567279616	54	5741
2026-01-24 11:44:46.58	275.13	20.53	-41.8	-45.7	12.1	2.01e-04	0	61	0	569376768	54	5875
2026-01-24 11:44:47.59	275.39	20.52	-41.9	-45.9	11.8	2.47e-04	0	61	0	571473920	54	6050
2026-01-24 11:44:48.60	275.65	20.51	-41.9	-46.1	11.7	4.89e-04	0	61	0	573571072	54	6133
2026-01-24 11:44:49.61	275.90	20.51	-42.0	-46.2	11.5	6.96e-04	0	61	0	575668224	54	6243
2026-01-24 11:44:50.62	276.16	20.50	-42.1	-46.3	11.4	8.16e-04	0	61	0	576716800	54	6336
2026-01-24 11:44:51.62	276.41	20.49	-42.1	-46.4	11.4	9.02e-04	0	61	0	578813952	54	6365
2026-01-24 11:44:52.63	276.67	20.48	-42.0	-46.2	11.6	8.89e-04	0	61	0	580911104	54	6216
2026-01-24 11:44:53.64	276.93	20.47	-42.0	-46.2	11.5	6.48e-04	0	61	0	583008256	54	6210
2026-01-24 11:44:54.65	277.18	20.46	-42.0	-46.1	11.6	6.97e-04	0	61	0	585105408	54	6176
2026-01-24 11:44:55.66	277.44	20.45	-42.0	-46.2	11.5	8.06e-04	0	61	0	586153984	54	6232
2026-01-24 11:44:56.67	277.69	20.43	-42.1	-46.4	11.3	9.52e-04	0	61	0	588251136	54	6413
2026-01-24 11:44:57.68	277.95	20.42	-42.1	-46.3	11.4	8.79e-04	0	61	0	590348288	54	6330
2026-01-24 11:44:58.69	278.20	20.41	-41.9	-46.0	11.7	7.55e-04	0	61	0	592445440	54	6103
2026-01-24 11:44:59.70	278.46	20.39	-41.8	-45.7	12.0	4.49e-04	0	61	0	594542592	54	5880
2026-01-24 11:45:00.71	278.71	20.38	-41.7	-45.4	12.4	1.67e-04	0	61	0	595591168	54	5701
2026-01-24 11:45:01.72	278.97	20.37	-41.7	-45.5	12.3	1.49e-04	0	61	0	597688320	54	5745
2026-01-24 11:45:02.73	279.22	20.35	-41.6	-45.4	12.4	1.62e-04	0	61	0	599785472	54	5664
2026-01-24 11:45:03.74	279.48	20.33	-41.6	-45.3	12.4	1.03e-04	0	61	0	601882624	54	5642
2026-01-24 11:45:04.75	279.73	20.32	-41.5	-45.2	12.6	1.02e-04	0	61	0	603979776	54	5566
2026-01-24 11:45:05.76	279.98	20.30	-41.6	-45.2	12.6	1.11e-04	0	61	0	605028352	54	5590
2026-01-24 11:45:06.77	280.24	20.28	-41.6	-45.3	12.5	1.26e-04	0	61	0	607125504	54	5603
2026-01-24 11:45:07.78	280.49	20.26	-41.6	-45.4	12.4	1.52e-04	0	61	0	609222656	54	5704
2026-01-24 11:45:08.78	280.74	20.25	-41.8	-45.6	12.2	1.97e-04	0	61	0	611319808	54	5838
2026-01-24 11:45:09.79	280.99	20.23	-41.8	-45.7	12.1	3.22e-04	0	61	0	613416960	54	5876
2026-01-24 11:45:10.81	281.25	20.21	-41.9	-45.9	11.8	4.17e-04	0	61	0	615514112	54	5995
2026-01-24 11:45:11.82	281.50	20.19	-41.8	-45.7	12.0	4.19e-04	0	61	0	616562688	54	5919
2026-01-24 11:45:12.83	281.75	20.17	-41.7	-45.6	12.1	3.63e-04	0	61	0	618659840	54	5816
2026-01-24 11:45:13.84	282.00	20.14	-41.7	-45.5	12.3	2.01e-04	0	61	0	620756992	54	5744
2026-01-24 11:45:14.85	282.25	20.12	-41.7	-45.5	12.2	1.69e-04	0	61	0	622854144	54	5770
2026-01-24 11:45:15.85	282.50	20.10	-41.6	-45.4	12.3	2.08e-04	0	61	0	624951296	54	5703
2026-01-24 11:45:16.86	282.75	20.08	-41.7	-45.5	12.2	2.26e-04	0	61	0	625999872	54	5741
2026-01-24 11:45:17.88	283.00	20.05	-41.7	-45.6	12.2	2.02e-04	0	61	0	628097024	54	5801
2026-01-24 11:45:18.88	283.25	20.03	-41.8	-45.6	12.1	2.15e-04	0	61	0	630194176	54	5850
2026-01-24 11:45:19.90	283.50	20.01	-41.7	-45.6	12.1	2.35e-04	0	61	0	632291328	54	5811
2026-01-24 11:45:20.90	283.74	19.98	-41.7	-45.6	12.1	2.71e-04	0	61	0	634388480	54	5842
2026-01-24 11:45:21.92	283.99	19.96	-41.6	-45.4	12.4	2.62e-04	0	61	0	635437056	54	5678
2026-01-24 11:45:22.92	284.24	19.93	-41.6	-45.4	12.3	1.68e-04	0	61	0	637534208	54	5683
2026-01-24 11:45:23.93	284.49	19.90	-41.6	-45.3	12.5	1.77e-04	0	61	0	639631360	54	5624
2026-01-24 11:45:24.94	284.73	19.88	-41.5	-45.2	12.6	9.30e-05	0	61	0	641728512	54	5535
2026-01-24 11:45:25.95	284.98	19.85	-41.5	-45.2	12.6	8.54e-05	0	61	0	643825664	54	5548
2026-01-24 11:45:26.96	285.22	19.82	-41.6	-45.3	12.5	1.34e-04	0	61	0	644874240	54	5621
2026-01-24 11:45:27.97	285.47	19.79	-41.6	-45.4	12.3	1.41e-04	0	61	0	646971392	54	5716
2026-01-24 11:45:28.98	285.71	19.76	-41.8	-45.7	12.1	2.59e-04	0	61	0	649068544	54	5860
2026-01-24 11:45:29.99	285.96	19.73	-41.8	-45.7	12.1	2.72e-04	0	61	0	651165696	54	5860
2026-01-24 11:45:31.00	286.20	19.70	-41.7	-45.6	12.1	2.29e-04	0	61	0	653262848	54	5807
2026-01-24 11:45:32.01	286.45	19.67	-41.7	-45.6	12.1	2.09e-04	0	61	0	654311424	54	5831
2026-01-24 11:45:33.02	286.69	19.64	-41.8	-45.7	12.1	2.30e-04	0	61	0	656408576	54	5861
2026-01-24 11:45:34.03	286.93	19.61	-42.0	-46.1	11.7	5.66e-04	0	61	0	658505728	54	6142
2026-01-24 11:45:35.03	287.17	19.58	-42.1	-46.3	11.3	9.28e-04	0	61	0	660602880	54	6338
2026-01-24 11:45:36.04	287.41	19.55	-42.1	-46.5	11.2	1.25e-03	0	61	0	662700032	54	6457
2026-01-24 11:45:37.05	287.65	19.52	-42.2	-46.6	11.1	1.65e-03	0	61	0	663748608	54	6505
2026-01-24 11:45:38.06	287.89	19.48	-42.1	-46.3	11.3	1.43e-03	0	61	0	665845760	54	6335
2026-01-24 11:45:39.07	288.13	19.45	-41.9	-46.0	11.7	8.43e-04	0	61	0	667942912	54	6103
2026-01-24 11:45:40.08	288.37	19.42	-41.7	-45.5	12.2	3.77e-04	0	61	0	670040064	54	5781
2026-01-24 11:45:41.09	288.61	19.38	-41.5	-45.2	12.5	1.99e-04	0	61	0	672137216	54	5587
2026-01-24 11:45:42.10	288.85	19.35	-41.4	-45.1	12.6	1.08e-04	0	61	0	673185792	54	5478
2026-01-24 11:45:43.11	289.09	19.31	-41.4	-45.0	12.7	6.48e-05	0	61	0	675282944	54	5447
2026-01-24 11:45:44.12	289.33	19.28	-41.5	-45.2	12.5	1.09e-04	0	61	0	677380096	54	5556
2026-01-24 11:45:45.13	289.56	19.24	-41.6	-45.4	12.3	1.31e-04	0	61	0	679477248	54	5677
2026-01-24 11:45:46.14	289.80	19.20	-41.6	-45.4	12.3	1.56e-04	0	61	0	681574400	54	5691
2026-01-24 11:45:47.15	290.03	19.17	-41.5	-45.2	12.5	1.71e-04	0	61	0	682622976	54	5571
2026-01-24 11:45:48.16	290.27	19.13	-41.4	-45.0	12.7	9.07e-05	0	61	0	684720128	54	5459
2026-01-24 11:45:49.16	290.50	19.09	-41.2	-44.7	13.0	6.25e-05	0	61	0	686817280	54	5240
2026-01-24 11:45:50.17	290.74	19.05	-41.2	-44.6	13.1	4.73e-05	0	61	0	688914432	54	5213
2026-01-24 11:45:51.18	290.97	19.02	-41.3	-44.8	12.9	3.50e-05	0	61	0	691011584	54	5336
2026-01-24 11:45:52.19	291.20	18.98	-41.4	-45.0	12.8	6.56e-05	0	61	0	692060160	54	5431
2026-01-24 11:45:53.20	291.43	18.94	-41.5	-45.3	12.4	1.23e-04	0	61	0	694157312	54	5608
2026-01-24 11:45:54.21	291.66	18.90	-41.6	-45.4	12.4	1.69e-04	0	61	0	696254464	54	5689
2026-01-24 11:45:55.22	291.90	18.86	-41.6	-45.4	12.3	1.50e-04	0	61	0	698351616	54	5671
2026-01-24 11:45:56.23	292.13	18.82	-41.5	-45.1	12.5	1.34e-04	0	61	0	700448768	54	5524
2026-01-24 11:45:57.24	292.36	18.78	-41.4	-45.0	12.7	1.07e-04	0	61	0	701497344	54	5423
2026-01-24 11:45:58.25	292.58	18.73	-41.3	-44.7	13.0	6.33e-05	0	61	0	703594496	54	5275
2026-01-24 11:45:59.26	292.81	18.69	-41.1	-44.6	13.1	2.13e-05	0	61	0	705691648	54	5163
2026-01-24 11:46:00.27	293.04	18.65	-41.1	-44.5	13.2	2.36e-05	0	61	0	707788800	54	5122
2026-01-24 11:46:01.28	293.27	18.61	-41.1	-44.5	13.2	1.67e-05	0	61	0	709885952	54	5146
2026-01-24 11:46:02.29	293.50	18.57	-41.2	-44.6	13.1	4.42e-05	0	61	0	711983104	54	5191
2026-01-24 11:46:03.30	293.72	18.52	-41.2	-44.6	13.1	3.35e-05	0	61	0	713031680	54	5200
2026-01-24 11:46:04.31	293.95	18.48	-41.3	-44.8	12.8	5.34e-05	0	61	0	715128832	54	5331
2026-01-24 11:46:05.32	294.17	18.44	-41.3	-44.8	12.9	6.71e-05	0	61	0	717225984	54	5314
2026-01-24 11:46:06.33	294.40	18.39	-41.3	-44.9	12.9	4.65e-05	0	61	0	719323136	54	5349
2026-01-24 11:46:07.34	294.62	18.35	-41.3	-44.9	12.8	4.80e-05	0	61	0	721420288	54	5352
2026-01-24 11:46:08.35	294.84	18.30	-41.4	-44.9	12.8	6.17e-05	0	61	0	722468864	54	5395
2026-01-24 11:46:09.36	295.06	18.26	-41.5	-45.2	12.5	8.16e-05	0	61	0	724566016	54	5571
2026-01-24 11:46:10.37	295.29	18.21	-41.6	-45.4	12.3	1.36e-04	0	61	0	726663168	54	5678
2026-01-24 11:46:11.38	295.51	18.17	-41.7	-45.6	12.0	1.90e-04	0	61	0	728760320	54	5835
2026-01-24 11:46:12.39	295.73	18.12	-41.7	-45.6	12.0	2.67e-04	0	61	0	730857472	54	5817
2026-01-24 11:46:13.40	295.95	18.07	-41.7	-45.6	12.0	3.22e-04	0	61	0	731906048	54	5834
2026-01-24 11:46:14.41	296.16	18.03	-41.6	-45.4	12.3	2.69e-04	0	61	0	734003200	54	5661
2026-01-24 11:46:15.42	296.38	17.98	-41.5	-45.2	12.4	1.30e-04	0	61	0	736100352	54	5577
2026-01-24 11:46:16.43	296.60	17.93	-41.5	-45.3	12.4	9.99e-05	0	61	0	738197504	54	5610
2026-01-24 11:46:17.44	296.82	17.88	-41.5	-45.2	12.4	1.14e-04	0	61	0	740294656	54	5571
2026-01-24 11:46:18.45	297.03	17.84	-41.5	-45.3	12.4	1.06e-04	0	61	0	741343232	54	5623
2026-01-24 11:46:19.46	297.25	17.79	-41.5	-45.3	12.4	1.46e-04	0	61	0	743440384	54	5604
2026-01-24 11:46:20.47	297.46	17.74	-41.5	-45.3	12.3	1.58e-04	0	61	0	745537536	54	5618
2026-01-24 11:46:21.48	297.68	17.69	-41.6	-45.3	12.3	1.52e-04	0	61	0	747634688	54	5652
2026-01-24 11:46:22.49	297.89	17.64	-41.5	-45.2	12.4	1.48e-04	0	61	0	749731840	54	5589
2026-01-24 11:46:23.50	298.10	17.59	-41.7	-45.6	12.1	2.19e-04	0	61	0	750780416	54	5792
2026-01-24 11:46:24.51	298.32	17.54	-41.8	-45.9	11.8	3.03e-04	0	61	0	752877568	54	6003
2026-01-24 11:46:25.52	298.53	17.49	-42.0	-46.3	11.4	7.34e-04	0	61	0	754974720	54	6280
2026-01-24 11:46:26.53	298.74	17.44	-42.1	-46.5	11.1	1.38e-03	0	61	0	757071872	54	6461
2026-01-24 11:46:27.54	298.95	17.39	-42.2	-46.7	10.8	2.00e-03	0	61	0	759169024	54	6612
2026-01-24 11:46:28.55	299.16	17.34	-42.2	-46.8	10.8	2.34e-03	0	61	0	760217600	55	6276
2026-01-24 11:46:29.55	299.36	17.29	-42.0	-46.3	11.3	1.70e-03	0	61	0	762314752	55	5963
2026-01-24 11:46:30.56	299.57	17.24	-41.9	-46.0	11.6	9.15e-04	0	61	0	764411904	55	5750
2026-01-24 11:46:31.57	299.78	17.19	-41.9	-46.1	11.5	7.04e-04	0	61	0	766509056	55	5843
2026-01-24 11:46:32.58	299.99	17.13	-41.9	-46.1	11.5	8.54e-04	0	61	0	768606208	55	5829
2026-01-24 11:46:33.59	300.19	17.08	-41.9	-46.2	11.5	9.01e-04	0	61	0	769654784	55	5868
2026-01-24 11:46:34.60	300.40	17.03	-41.9	-46.1	11.5	8.64e-04	0	61	0	771751936	55	5835
2026-01-24 11:46:35.61	300.60	16.98	-41.8	-45.9	11.7	5.78e-04	0	61	0	773849088	55	5669
2026-01-24 11:46:36.62	300.80	16.93	-41.8	-45.8	11.8	4.63e-04	0	61	0	775946240	55	5627
2026-01-24 11:46:37.63	301.01	16.87	-41.6	-45.5	12.1	4.70e-04	0	61	0	778043392	55	5439
2026-01-24 11:46:38.64	301.21	16.82	-41.5	-45.2	12.4	2.10e-04	0	62	0	780140544	55	5268
2026-01-24 11:46:39.65	301.41	16.77	-41.6	-45.3	12.3	2.17e-04	0	61	0	781189120	55	5339
2026-01-24 11:46:40.66	301.61	16.71	-41.6	-45.5	12.1	2.10e-04	0	61	0	783286272	55	5403
2026-01-24 11:46:41.67	301.81	16.66	-41.7	-45.7	11.9	3.85e-04	0	61	0	785383424	55	5580
2026-01-24 11:46:42.68	302.01	16.60	-41.8	-46.0	11.6	5.24e-04	0	61	0	787480576	55	5729
2026-01-24 11:46:43.69	302.21	16.55	-41.9	-46.2	11.4	7.48e-04	0	61	0	789577728	55	5891
2026-01-24 11:46:44.70	302.41	16.50	-42.1	-46.5	11.0	1.30e-03	0	61	0	790626304	55	6113
2026-01-24 11:46:45.71	302.61	16.44	-42.2	-46.8	10.8	2.90e-03	0	61	0	792723456	55	6309
2026-01-24 11:46:46.71	302.80	16.39	-42.3	-47.0	10.5	3.86e-03	0	61	0	794820608	55	6461
2026-01-24 11:46:47.72	303.00	16.33	-42.3	-47.1	10.3	4.40e-03	0	61	0	796917760	55	6553
2026-01-24 11:46:48.73	303.19	16.28	-42.3	-47.2	10.3	6.78e-03	0	61	0	799014912	55	6602
2026-01-24 11:46:49.74	303.39	16.22	-42.4	-47.2	10.3	6.34e-03	0	61	0	800063488	55	6604
2026-01-24 11:46:50.75	303.58	16.17	-42.3	-47.1	10.4	5.28e-03	0	61	0	802160640	55	6534
2026-01-24 11:46:51.76	303.77	16.11	-42.3	-47.0	10.5	3.46e-03	0	61	0	804257792	55	6445
2026-01-24 11:46:52.77	303.97	16.05	-42.1	-46.6	10.9	2.74e-03	0	61	0	806354944	55	6200
2026-01-24 11:46:53.78	304.16	16.00	-42.0	-46.4	11.1	1.86e-03	0	61	0	808452096	55	6024
2026-01-24 11:46:54.79	304.35	15.94	-42.0	-46.2	11.3	1.18e-03	0	61	0	809500672	55	5917
2026-01-24 11:46:55.80	304.54	15.89	-41.8	-45.8	11.8	1.01e-03	0	61	0	811597824	55	5624
2026-01-24 11:46:56.81	304.73	15.83	-41.8	-45.8	11.8	6.32e-04	0	61	0	813694976	55	5647
2026-01-24 11:46:57.82	304.92	15.77	-41.6	-45.6	12.0	2.79e-04	0	61	0	815792128	55	5485
2026-01-24 11:46:58.83	305.11	15.71	-41.7	-45.6	12.0	2.27e-04	0	61	0	817889280	55	5481
2026-01-24 11:46:59.84	305.30	15.66	-41.7	-45.7	11.9	3.23e-04	0	61	0	818937856	55	5532
2026-01-24 11:47:00.84	305.48	15.60	-41.8	-45.8	11.8	4.10e-04	0	61	0	821035008	55	5638
2026-01-24 11:47:01.85	305.67	15.54	-41.9	-46.2	11.3	6.29e-04	0	61	0	823132160	55	5892
2026-01-24 11:47:02.86	305.85	15.49	-42.1	-46.7	10.8	1.62e-03	0	61	0	825229312	55	6248
2026-01-24 11:47:03.88	306.04	15.43	-42.3	-47.1	10.3	3.37e-03	0	61	0	827326464	55	6551
2026-01-24 11:47:04.88	306.22	15.37	-42.4	-47.4	10.0	6.90e-03	0	61	0	828375040	55	6783
2026-01-24 11:47:05.89	306.40	15.31	-42.4	-47.4	10.1	7.12e-03	0	61	0	830472192	55	6771
2026-01-24 11:47:06.91	306.59	15.25	-42.3	-47.2	10.3	6.15e-03	0	61	0	832569344	55	6585
2026-01-24 11:47:07.91	306.77	15.20	-42.2	-46.8	10.7	3.76e-03	0	61	0	834666496	55	6312
2026-01-24 11:47:08.92	306.95	15.14	-42.1	-46.7	10.8	2.36e-03	0	61	0	836763648	55	6225
2026-01-24 11:47:09.93	307.13	15.08	-42.1	-46.5	11.0	1.93e-03	0	61	0	837812224	55	6113
2026-01-24 11:47:10.94	307.31	15.02	-42.0	-46.4	11.1	1.75e-03	0	61	0	839909376	55	6021
2026-01-24 11:47:11.95	307.49	14.96	-42.0	-46.3	11.2	1.50e-03	0	61	0	842006528	55	5959
2026-01-24 11:47:12.96	307.67	14.90	-41.9	-46.3	11.2	1.81e-03	0	61	0	844103680	55	5952
2026-01-24 11:47:13.97	307.85	14.85	-42.0	-46.3	11.2	1.40e-03	0	61	0	846200832	55	5963
2026-01-24 11:47:14.98	308.02	14.79	-41.9	-46.3	11.2	1.88e-03	0	61	0	848297984	55	5934
2026-01-24 11:47:15.99	308.20	14.73	-41.8	-46.0	11.5	1.08e-03	0	61	0	849346560	55	5728
2026-01-24 11:47:17.00	308.38	14.67	-41.7	-45.8	11.7	6.67e-04	0	61	0	851443712	55	5608
2026-01-24 11:47:18.00	308.55	14.61	-41.6	-45.6	11.9	4.45e-04	0	61	0	853540864	55	5475
2026-01-24 11:47:19.01	308.72	14.55	-41.6	-45.6	11.9	3.90e-04	0	61	0	855638016	55	5499
2026-01-24 11:47:20.02	308.90	14.49	-41.6	-45.6	11.9	4.14e-04	0	61	0	857735168	55	5505
2026-01-24 11:47:21.03	309.07	14.43	-41.8	-46.0	11.5	5.46e-04	0	61	0	858783744	55	5762
2026-01-24 11:47:22.04	309.24	14.37	-41.9	-46.3	11.2	1.04e-03	0	61	0	860880896	55	5927
2026-01-24 11:47:23.05	309.42	14.31	-41.9	-46.2	11.3	1.11e-03	0	61	0	862978048	55	5883
2026-01-24 11:47:24.06	309.59	14.25	-42.0	-46.5	10.9	1.63e-03	0	61	0	865075200	55	6123
2026-01-24 11:47:25.07	309.76	14.19	-42.1	-46.7	10.7	2.38e-03	0	61	0	867172352	55	6258
2026-01-24 11:47:26.08	309.93	14.13	-42.0	-46.3	11.1	2.12e-03	0	61	0	868220928	55	5982
2026-01-24 11:47:27.09	310.10	14.07	-42.0	-46.5	11.0	1.87e-03	0	61	0	870318080	55	6075
2026-01-24 11:47:28.10	310.26	14.01	-41.8	-46.0	11.5	1.10e-03	0	61	0	872415232	55	5756
2026-01-24 11:47:29.11	310.43	13.95	-41.7	-45.9	11.6	6.10e-04	0	61	0	874512384	55	5658
2026-01-24 11:47:30.12	310.60	13.89	-41.7	-45.8	11.7	7.19e-04	0	61	0	876609536	55	5637
2026-01-24 11:47:31.13	310.76	13.83	-41.7	-45.7	11.7	5.73e-04	0	61	0	877658112	55	5575
2026-01-24 11:47:32.14	310.93	13.77	-41.7	-45.8	11.6	5.08e-04	0	61	0	879755264	55	5640
2026-01-24 11:47:33.15	311.10	13.71	-41.8	-45.9	11.6	7.32e-04	0	61	0	881852416	55	5697
2026-01-24 11:47:34.16	311.26	13.65	-41.7	-45.9	11.6	6.47e-04	0	61	0	883949568	55	5659
2026-01-24 11:47:35.17	311.42	13.59	-41.8	-46.0	11.5	7.77e-04	0	61	0	886046720	55	5745
2026-01-24 11:47:36.17	311.59	13.53	-41.7	-45.9	11.6	9.18e-04	0	62	0	887095296	55	5663
2026-01-24 11:47:37.18	311.75	13.47	-41.8	-46.0	11.4	9.17e-04	0	61	0	889192448	55	5747
2026-01-24 11:47:38.19	311.91	13.41	-41.7	-45.8	11.6	8.75e-04	0	61	0	891289600	55	5619
2026-01-24 11:47:39.20	312.07	13.35	-41.8	-45.9	11.5	8.33e-04	0	61	0	893386752	55	5711
2026-01-24 11:47:40.21	312.23	13.28	-41.7	-45.9	11.5	6.73e-04	0	61	0	895483904	55	5686
2026-01-24 11:47:41.22	312.39	13.22	-41.8	-46.0	11.4	7.11e-04	0	61	0	896532480	55	5758
2026-01-24 11:47:42.23	312.55	13.16	-41.8	-46.1	11.3	9.76e-04	0	61	0	898629632	55	5834
2026-01-24 11:47:43.24	312.71	13.10	-41.8	-46.0	11.4	8.75e-04	0	61	0	900726784	55	5767
2026-01-24 11:47:44.25	312.87	13.04	-41.9	-46.2	11.2	1.28e-03	0	61	0	902823936	55	5905
2026-01-24 11:47:45.26	313.02	12.98	-41.8	-46.0	11.4	1.33e-03	0	61	0	904921088	55	5739
2026-01-24 11:47:46.27	313.18	12.92	-41.7	-45.9	11.5	8.23e-04	0	61	0	905969664	55	5704
2026-01-24 11:47:47.28	313.34	12.86	-41.7	-45.8	11.6	7.97e-04	0	61	0	908066816	55	5624
2026-01-24 11:47:48.29	313.49	12.80	-41.6	-45.6	11.9	4.82e-04	0	62	0	910163968	55	5476
2026-01-24 11:47:49.30	313.65	12.73	-41.5	-45.5	11.9	3.33e-04	0	61	0	912261120	55	5441
2026-01-24 11:47:50.31	313.80	12.67	-41.3	-45.1	12.4	1.86e-04	0	61	0	914358272	54	5475
2026-01-24 11:47:51.31	313.95	12.61	-41.3	-45.1	12.4	1.02e-04	0	61	0	916455424	54	5472
2026-01-24 11:47:52.33	314.11	12.55	-41.3	-45.0	12.5	1.28e-04	0	61	0	917504000	54	5406
2026-01-24 11:47:53.34	314.26	12.49	-41.2	-44.9	12.5	1.04e-04	0	61	0	919601152	54	5373
2026-01-24 11:47:54.34	314.41	12.43	-41.3	-45.0	12.5	1.40e-04	0	61	0	921698304	54	5411
2026-01-24 11:47:55.35	314.56	12.37	-41.4	-45.2	12.2	2.39e-04	0	61	0	923795456	54	5571
2026-01-24 11:47:56.36	314.71	12.30	-41.5	-45.4	12.0	3.51e-04	0	61	0	925892608	54	5695
2026-01-24 11:47:57.37	314.86	12.24	-41.6	-45.7	11.7	4.55e-04	0	61	0	926941184	54	5922
2026-01-24 11:47:58.38	315.01	12.18	-41.7	-45.9	11.4	7.15e-04	0	62	0	929038336	54	6052
2026-01-24 11:47:59.39	315.16	12.12	-41.7	-46.0	11.4	8.91e-04	0	61	0	931135488	54	6076
2026-01-24 11:48:00.40	315.31	12.06	-41.8	-46.0	11.4	8.51e-04	0	61	0	933232640	54	6113
2026-01-24 11:48:01.40	315.45	12.00	-41.6	-45.8	11.6	6.69e-04	0	61	0	935329792	54	5958
2026-01-24 11:48:02.41	315.60	11.94	-41.6	-45.7	11.7	5.93e-04	0	62	0	936378368	54	5872
2026-01-24 11:48:03.42	315.75	11.87	-41.6	-45.7	11.7	5.39e-04	0	62	0	938475520	54	5870
2026-01-24 11:48:04.43	315.89	11.81	-41.4	-45.3	12.1	3.65e-04	0	62	0	940572672	54	5611
2026-01-24 11:48:05.44	316.04	11.75	-41.4	-45.2	12.2	2.59e-04	0	61	0	942669824	54	5575
2026-01-24 11:48:06.45	316.18	11.69	-41.4	-45.4	12.0	2.64e-04	0	61	0	944766976	54	5669
2026-01-24 11:48:07.46	316.33	11.63	-41.4	-45.3	12.1	3.42e-04	0	62	0	945815552	54	5645
2026-01-24 11:48:08.47	316.47	11.57	-41.6	-45.7	11.6	4.29e-04	0	61	0	947912704	54	5905
2026-01-24 11:48:09.48	316.61	11.51	-41.6	-45.8	11.6	7.74e-04	0	61	0	950009856	54	5942
2026-01-24 11:48:10.49	316.76	11.44	-41.7	-46.0	11.4	1.02e-03	0	61	0	952107008	54	6069
2026-01-24 11:48:11.50	316.90	11.38	-41.7	-46.0	11.4	1.03e-03	0	62	0	954204160	54	6068
2026-01-24 11:48:12.51	317.04	11.32	-41.6	-45.8	11.6	7.73e-04	0	61	0	955252736	54	5949
2026-01-24 11:48:13.52	317.18	11.26	-41.6	-45.8	11.5	7.76e-04	0	61	0	957349888	54	5938
2026-01-24 11:48:14.53	317.32	11.20	-41.5	-45.6	11.8	6.61e-04	0	61	0	959447040	54	5795
2026-01-24 11:48:15.54	317.46	11.14	-41.5	-45.6	11.8	6.09e-04	0	61	0	961544192	54	5822
2026-01-24 11:48:16.54	317.59	11.07	-41.5	-45.6	11.8	4.55e-04	0	62	0	963641344	54	5789
2026-01-24 11:48:17.55	317.73	11.01	-41.5	-45.6	11.8	3.54e-04	0	61	0	964689920	54	5798
2026-01-24 11:48:18.56	317.87	10.95	-41.5	-45.6	11.7	4.65e-04	0	61	0	966787072	54	5825
2026-01-24 11:48:19.57	318.01	10.89	-41.6	-45.8	11.5	7.84e-04	0	61	0	968884224	54	5948
2026-01-24 11:48:20.59	318.15	10.83	-41.8	-46.2	11.1	1.04e-03	0	61	0	970981376	54	6242
2026-01-24 11:48:21.59	318.28	10.77	-41.9	-46.4	10.9	1.78e-03	0	61	0	973078528	54	6379
2026-01-24 11:48:22.60	318.42	10.71	-42.0	-46.7	10.6	3.03e-03	0	61	0	974127104	54	6604
2026-01-24 11:48:23.61	318.55	10.64	-42.1	-46.9	10.2	4.63e-03	0	61	0	976224256	54	6790
2026-01-24 11:48:24.62	318.68	10.58	-42.1	-47.0	10.2	5.07e-03	0	61	0	978321408	54	6838
2026-01-24 11:48:25.63	318.82	10.52	-42.1	-47.0	10.2	5.50e-03	0	61	0	980418560	54	6859
2026-01-24 11:48:26.64	318.95	10.46	-42.1	-46.9	10.3	5.74e-03	0	61	0	982515712	54	6754
2026-01-24 11:48:27.65	319.08	10.40	-42.0	-46.8	10.5	5.97e-03	0	62	0	984612864	54	6665
2026-01-24 11:48:28.66	319.22	10.34	-42.0	-46.7	10.6	3.42e-03	0	62	0	985661440	54	6579
2026-01-24 11:48:29.67	319.35	10.28	-41.8	-46.4	10.8	2.97e-03	0	62	0	987758592	54	6380
2026-01-24 11:48:30.68	319.48	10.21	-41.9	-46.5	10.8	2.32e-03	0	61	0	989855744	54	6424
2026-01-24 11:48:31.69	319.61	10.15	-41.9	-46.4	10.8	3.10e-03	0	62	0	991952896	54	6397
2026-01-24 11:48:32.70	319.74	10.09	-41.9	-46.5	10.7	2.88e-03	0	61	0	993001472	54	6489
2026-01-24 11:48:33.70	319.87	10.03	-42.0	-46.8	10.5	3.40e-03	0	61	0	995098624	54	6660
2026-01-24 11:48:34.71	320.00	9.97	-42.0	-46.8	10.4	4.09e-03	0	62	0	997195776	54	6692
2026-01-24 11:48:35.72	320.13	9.91	-42.0	-46.9	10.3	4.36e-03	0	62	0	999292928	54	6757
2026-01-24 11:48:36.73	320.25	9.85	-42.0	-46.8	10.3	4.44e-03	0	62	0	1001390080	54	6709
2026-01-24 11:48:37.74	320.38	9.79	-42.0	-46.9	10.3	5.02e-03	0	61	0	1002438656	54	6780
2026-01-24 11:48:38.75	320.51	9.73	-42.0	-46.9	10.2	5.97e-03	0	61	0	1004535808	54	6767
2026-01-24 11:48:39.76	320.63	9.66	-42.0	-46.8	10.3	5.69e-03	0	61	0	1006632960	54	6700
2026-01-24 11:48:40.77	320.76	9.60	-41.9	-46.6	10.5	4.70e-03	0	61	0	1008730112	54	6570
2026-01-24 11:48:41.78	320.89	9.54	-41.9	-46.5	10.6	4.03e-03	0	61	0	1010827264	54	6458
2026-01-24 11:48:42.79	321.01	9.48	-41.9	-46.5	10.7	3.16e-03	0	61	0	1012924416	54	6447
2026-01-24 11:48:43.80	321.13	9.42	-41.9	-46.5	10.7	3.15e-03	0	61	0	1013972992	54	6456
2026-01-24 11:48:44.81	321.26	9.36	-41.9	-46.5	10.6	2.82e-03	0	61	0	1016070144	54	6467
2026-01-24 11:48:45.82	321.38	9.30	-41.9	-46.5	10.6	3.18e-03	0	61	0	1018167296	54	6481
2026-01-24 11:48:46.83	321.51	9.24	-41.9	-46.6	10.5	3.82e-03	0	61	0	1020264448	54	6566
2026-01-24 11:48:47.83	321.63	9.18	-42.0	-46.9	10.2	5.05e-03	0	61	0	1022361600	54	6737
2026-01-24 11:48:48.84	321.75	9.12	-42.0	-46.9	10.2	5.94e-03	0	61	0	1023410176	54	6747
2026-01-24 11:48:49.85	321.87	9.06	-42.0	-47.0	10.1	7.71e-03	0	62	0	1025507328	54	6833
2026-01-24 11:48:50.86	321.99	9.00	-42.0	-47.0	10.1	7.25e-03	0	62	0	1027604480	54	6823
2026-01-24 11:48:51.87	322.11	8.94	-42.0	-46.9	10.2	6.62e-03	0	61	0	1029701632	54	6747
2026-01-24 11:48:52.88	322.23	8.87	-42.0	-46.8	10.2	5.66e-03	0	61	0	1031798784	54	6689
2026-01-24 11:48:53.89	322.35	8.81	-41.9	-46.7	10.4	4.61e-03	0	61	0	1032847360	54	6580
2026-01-24 11:48:54.90	322.47	8.75	-41.9	-46.6	10.5	4.62e-03	0	61	0	1034944512	54	6547
2026-01-24 11:48:55.91	322.59	8.69	-41.8	-46.3	10.8	2.42e-03	0	61	0	1037041664	54	6342
2026-01-24 11:48:56.92	322.71	8.63	-41.7	-46.3	10.8	2.40e-03	0	62	0	1039138816	54	6298
2026-01-24 11:48:57.93	322.82	8.57	-41.6	-46.1	11.0	2.34e-03	0	61	0	1041235968	54	6148
2026-01-24 11:48:58.94	322.94	8.51	-41.6	-46.1	11.0	1.75e-03	0	61	0	1042284544	54	6133
2026-01-24 11:48:59.95	323.06	8.45	-41.7	-46.1	11.0	1.58e-03	0	61	0	1044381696	54	6182
2026-01-24 11:49:00.96	323.17	8.39	-41.6	-46.1	11.0	1.62e-03	0	62	0	1046478848	54	6138
2026-01-24 11:49:01.97	323.29	8.33	-41.7	-46.2	10.9	2.54e-03	0	61	0	1048576000	54	6218
2026-01-24 11:49:02.98	323.41	8.27	-41.8	-46.5	10.5	3.19e-03	0	61	0	1050673152	54	6461
2026-01-24 11:49:03.99	323.52	8.21	-41.9	-46.8	10.2	3.99e-03	0	61	0	1051721728	54	6709
2026-01-24 11:49:04.99	323.63	8.15	-42.0	-47.0	10.0	6.41e-03	0	62	0	1053818880	54	6838
2026-01-24 11:49:06.00	323.75	8.09	-42.1	-47.3	9.7	1.01e-02	0	61	0	1055916032	54	7075
2026-01-24 11:49:07.01	323.86	8.03	-42.0	-47.2	9.8	9.63e-03	0	61	0	1058013184	54	6999
2026-01-24 11:49:08.02	323.97	7.97	-44.2	-57.7	3.8	1.46e+00	0	61	104	1059061760	58	18708
2026-01-24 11:49:09.03	324.09	7.91	-44.5	-59.0	3.8	1.49e+00	0	61	104	1059061760	59	20334
2026-01-24 11:49:10.04	324.20	7.85	-44.7	-59.3	3.8	1.49e+00	0	61	104	1059061760	60	20037
2026-01-24 11:49:11.05	324.31	7.79	-44.8	-59.5	3.8	1.49e+00	0	61	104	1059061760	60	20366
2026-01-24 11:49:12.06	324.42	7.73	-45.0	-59.6	3.8	1.49e+00	0	61	104	1059061760	60	20739
2026-01-24 11:49:13.07	324.53	7.67	-45.1	-59.7	3.8	1.49e+00	0	61	104	1059061760	60	20944
2026-01-24 11:49:14.08	324.64	7.61	-45.2	-59.8	3.8	1.49e+00	0	62	104	1059061760	60	21080
2026-01-24 11:49:15.09	324.75	7.55	-45.2	-59.8	3.8	1.49e+00	0	61	104	1059061760	60	21217
2026-01-24 11:49:16.10	324.86	7.49	-44.9	-59.7	3.8	1.49e+00	0	61	104	1059061760	60	20945
2026-01-24 11:49:17.11	324.97	7.44	-45.2	-59.9	3.8	1.49e+00	0	62	104	1059061760	60	21264
2026-01-24 11:49:18.12	325.08	7.38	-45.2	-59.8	3.8	1.49e+00	0	61	104	1059061760	60	21116
2026-01-24 11:49:19.13	325.19	7.32	-45.1	-59.8	3.8	1.49e+00	0	61	104	1059061760	60	21068
2026-01-24 11:49:20.14	325.30	7.26	-45.2	-59.8	3.8	1.49e+00	0	61	104	1059061760	60	21071
2026-01-24 11:49:21.15	325.40	7.20	-45.1	-59.8	3.8	1.49e+00	0	62	104	1059061760	60	21194
2026-01-24 11:49:22.16	325.51	7.14	-45.1	-59.8	3.8	1.49e+00	0	61	104	1059061760	61	19860
2026-01-24 11:49:23.17	325.62	7.08	-45.1	-59.7	3.8	1.49e+00	0	62	104	1059061760	61	19663
2026-01-24 11:49:24.18	325.72	7.02	-45.1	-59.7	3.8	1.49e+00	0	61	104	1059061760	61	19699
2026-01-24 11:49:25.20	325.83	6.96	-45.1	-59.7	3.8	1.49e+00	0	61	104	1059061760	60	20894
2026-01-24 11:49:26.20	325.93	6.90	-45.1	-59.7	3.8	1.49e+00	0	62	104	1059061760	60	20866
2026-01-24 11:49:27.22	326.04	6.84	-45.1	-59.7	3.8	1.49e+00	0	61	104	1059061760	60	20830
2026-01-24 11:49:28.23	326.15	6.78	-45.1	-59.7	3.8	1.49e+00	0	61	104	1059061760	60	20806
2026-01-24 11:49:29.24	326.25	6.73	-45.1	-59.7	3.8	1.49e+00	0	62	104	1059061760	60	20882
2026-01-24 11:49:30.25	326.35	6.67	-45.1	-59.7	3.8	1.49e+00	0	61	104	1059061760	60	20853
2026-01-24 11:49:31.26	326.46	6.61	-45.1	-59.7	3.8	1.49e+00	0	61	104	1059061760	60	20879
2026-01-24 11:49:32.27	326.56	6.55	-45.1	-59.7	3.8	1.49e+00	0	61	104	1059061760	60	20828
2026-01-24 11:49:33.28	326.66	6.49	-45.1	-59.7	3.8	1.49e+00	0	61	104	1059061760	60	20861
2026-01-24 11:49:34.29	326.76	6.43	-45.0	-59.6	3.8	1.49e+00	0	62	104	1059061760	60	20773
2026-01-24 11:49:35.30	326.87	6.37	-45.1	-59.6	3.8	1.49e+00	0	61	104	1059061760	60	20776
2026-01-24 11:49:36.31	326.97	6.32	-45.1	-59.7	3.8	1.49e+00	0	62	104	1059061760	60	20827
2026-01-24 11:49:37.32	327.07	6.26	-45.0	-59.7	3.8	1.49e+00	0	61	104	1059061760	60	20847
2026-01-24 11:49:38.33	327.17	6.20	-45.1	-59.7	3.8	1.49e+00	0	62	104	1059061760	60	20837
2026-01-24 11:49:39.34	327.27	6.14	-45.1	-59.7	3.8	1.49e+00	0	62	104	1059061760	60	20816
2026-01-24 11:49:40.35	327.37	6.08	-45.1	-59.7	3.8	1.49e+00	0	61	104	1059061760	60	20819
2026-01-24 11:49:41.36	327.47	6.03	-45.1	-59.7	3.8	1.49e+00	0	61	104	1059061760	60	20838
2026-01-24 11:49:42.37	327.57	5.97	-45.1	-59.7	3.8	1.49e+00	0	61	104	1059061760	60	20828
2026-01-24 11:49:43.38	327.67	5.91	-45.1	-59.7	3.8	1.49e+00	0	61	104	1059061760	60	20783
2026-01-24 11:49:44.40	327.77	5.85	-45.0	-59.6	3.8	1.49e+00	0	62	104	1059061760	60	20753
2026-01-24 11:49:45.41	327.86	5.79	-45.0	-59.7	3.8	1.49e+00	0	62	104	1059061760	60	20814
2026-01-24 11:49:46.42	327.96	5.74	-45.0	-59.7	3.8	1.49e+00	0	61	104	1059061760	60	20822
2026-01-24 11:49:47.43	328.06	5.68	-45.0	-59.7	3.8	1.49e+00	0	61	104	1059061760	60	20800
2026-01-24 11:49:48.44	328.16	5.62	-44.9	-59.7	3.8	1.49e+00	0	62	104	1059061760	60	20781
2026-01-24 11:49:49.45	328.25	5.56	-44.9	-59.6	3.8	1.49e+00	0	61	104	1059061760	60	20761
2026-01-24 11:49:50.46	328.35	5.51	-45.1	-59.7	3.8	1.49e+00	0	62	104	1059061760	60	20804
2026-01-24 11:49:51.47	328.44	5.45	-45.0	-59.6	3.8	1.49e+00	0	62	104	1059061760	60	20750
2026-01-24 11:49:52.48	328.54	5.39	-45.0	-59.7	3.8	1.49e+00	0	61	104	1059061760	60	20795
2026-01-24 11:49:53.49	328.63	5.33	-45.0	-59.7	3.8	1.49e+00	0	61	104	1059061760	60	20779
2026-01-24 11:49:54.50	328.73	5.28	-45.0	-59.7	3.8	1.49e+00	0	62	104	1059061760	60	20846
2026-01-24 11:49:55.51	328.82	5.22	-45.0	-59.6	3.8	1.49e+00	0	61	104	1059061760	60	20718
2026-01-24 11:49:56.52	328.92	5.16	-45.0	-59.6	3.8	1.49e+00	0	62	104	1059061760	60	20773
