passes_logs/2026/01/24/R2.0S_Moscow/R2.0S_Moscow__20260124_124737_AQUA_rec.log

#Pass ID: 20260124_124737_AQUA
#Satellite: AQUA
#Configuration: AQUA
#almurnet v.1.7.20251203
#Start time: 2026-01-24 12:48:45

#Version: 2.2.20231116
#Station: R2.0S_Moscow
#Location: 37.707566 lon 55.798166 lat
#TLE: 1 27424U 02022A   26023.58972979  .00001888  00000+0  38753-3 0  9997
#TLE: 2 27424  98.4100 350.1620 0001948  68.5331  43.0280 14.61852003262140

#Time	Az	El	Level	Level2	SNR	BER	BlckErr	Temp	State	Recorded	gain1	gain2
2026-01-24 12:48:45.08	201.53	6.41	-45.0	-56.7	3.8	8.45e-01	0	61	0	0	60	14809
2026-01-24 12:48:46.08	201.61	6.48	-46.3	-64.8	3.8	7.45e-01	0	62	104	0	63	31765
2026-01-24 12:48:47.09	201.70	6.55	-46.4	-64.9	3.8	7.43e-01	0	62	104	0	63	31904
2026-01-24 12:48:48.10	201.79	6.62	-46.3	-64.8	3.8	7.45e-01	0	62	104	0	63	31769
2026-01-24 12:48:49.11	201.88	6.69	-46.2	-64.8	3.8	7.45e-01	0	62	104	0	63	31499
2026-01-24 12:48:50.12	201.97	6.76	-46.2	-64.7	3.8	7.49e-01	0	62	104	0	63	31292
2026-01-24 12:48:51.13	202.06	6.84	-46.1	-64.6	3.8	7.44e-01	0	61	104	0	63	30817
2026-01-24 12:48:52.14	202.15	6.91	-46.0	-64.5	3.8	7.46e-01	0	62	104	0	63	30382
2026-01-24 12:48:53.15	202.24	6.98	-45.9	-63.9	3.8	7.47e-01	0	62	104	0	63	28650
2026-01-24 12:48:54.16	202.33	7.05	-45.7	-63.9	3.8	7.45e-01	0	61	104	0	63	28396
2026-01-24 12:48:55.17	202.42	7.13	-45.6	-63.9	3.8	7.47e-01	0	61	104	0	63	28447
2026-01-24 12:48:56.18	202.51	7.20	-45.4	-63.4	3.8	7.47e-01	0	62	104	0	62	28394
2026-01-24 12:48:57.19	202.61	7.27	-45.4	-63.3	3.8	7.47e-01	0	61	104	0	62	28093
2026-01-24 12:48:58.20	202.70	7.34	-45.3	-63.3	3.8	7.45e-01	0	62	104	0	62	28138
2026-01-24 12:48:59.21	202.79	7.42	-45.3	-63.2	3.8	7.43e-01	0	62	104	0	62	27975
2026-01-24 12:49:00.23	202.89	7.49	-45.3	-63.1	3.8	7.47e-01	0	61	104	0	62	27635
2026-01-24 12:49:01.24	202.98	7.57	-45.3	-62.9	3.8	7.44e-01	0	62	104	0	62	27072
2026-01-24 12:49:02.25	203.08	7.64	-45.3	-63.0	3.8	7.45e-01	0	62	104	0	62	27109
2026-01-24 12:49:03.26	203.17	7.71	-45.3	-62.6	3.8	7.44e-01	0	61	104	0	62	26048
2026-01-24 12:49:04.27	203.27	7.79	-45.3	-62.5	3.8	7.46e-01	0	61	104	0	62	25660
2026-01-24 12:49:05.28	203.37	7.86	-45.3	-62.1	3.8	7.42e-01	0	62	104	0	62	24643
2026-01-24 12:49:06.29	203.47	7.94	-45.3	-62.1	3.8	7.41e-01	0	62	104	0	62	24567
2026-01-24 12:49:07.30	203.56	8.01	-45.3	-61.5	4.0	7.41e-01	0	61	104	0	62	22792
2026-01-24 12:49:08.31	203.66	8.09	-45.3	-61.5	3.9	7.42e-01	0	62	104	0	62	22828
2026-01-24 12:49:09.32	203.76	8.16	-45.3	-61.1	4.0	7.42e-01	0	61	104	0	62	21938
2026-01-24 12:49:10.33	203.86	8.24	-45.2	-60.7	3.9	7.43e-01	0	62	104	0	62	20844
2026-01-24 12:49:11.34	203.96	8.31	-45.2	-59.5	4.4	7.26e-01	0	62	104	0	62	18263
2026-01-24 12:49:12.35	204.06	8.39	-45.2	-58.9	4.4	7.21e-01	0	62	104	0	62	17020
2026-01-24 12:49:13.36	204.16	8.46	-45.1	-58.0	5.1	7.05e-01	0	62	0	0	62	15322
2026-01-24 12:49:14.37	204.26	8.54	-45.0	-57.1	5.8	6.90e-01	0	62	0	0	62	13744
2026-01-24 12:49:15.38	204.36	8.62	-44.9	-55.9	6.7	6.69e-01	92	62	0	2097152	61	12710
2026-01-24 12:49:16.39	204.47	8.69	-44.8	-54.9	7.6	6.52e-01	92	62	0	3670016	61	11342
2026-01-24 12:49:17.40	204.57	8.77	-44.7	-54.0	8.5	6.37e-01	14	61	0	5767168	61	10233
2026-01-24 12:49:18.42	204.68	8.85	-44.6	-53.1	9.4	6.30e-01	0	62	0	7340032	61	9197
2026-01-24 12:49:19.43	204.78	8.92	-44.4	-52.4	10.1	6.23e-01	0	62	0	9437184	60	9032
2026-01-24 12:49:20.44	204.89	9.00	-44.3	-51.8	10.8	6.16e-01	0	62	0	11534336	60	8391
2026-01-24 12:49:21.44	204.99	9.08	-44.2	-51.2	11.4	6.16e-01	0	61	0	13107200	60	7880
2026-01-24 12:49:22.46	205.10	9.16	-44.1	-50.9	11.8	6.11e-01	0	62	0	15204352	60	7547
2026-01-24 12:49:23.46	205.20	9.23	-44.0	-50.6	12.1	6.13e-01	0	62	0	16777216	60	7352
2026-01-24 12:49:24.48	205.31	9.31	-44.0	-50.7	12.0	6.12e-01	0	62	0	18874368	60	7451
2026-01-24 12:49:25.49	205.42	9.39	-44.1	-51.0	11.7	6.15e-01	0	62	0	20971520	60	7652
2026-01-24 12:49:26.50	205.53	9.47	-44.2	-51.3	11.4	6.14e-01	0	62	0	22544384	60	7916
2026-01-24 12:49:27.51	205.64	9.55	-44.2	-51.7	11.0	6.17e-01	0	62	0	24641536	60	8278
2026-01-24 12:49:28.52	205.75	9.63	-44.3	-52.0	10.6	6.20e-01	0	61	0	26738688	60	8619
2026-01-24 12:49:29.53	205.86	9.71	-44.3	-51.9	10.7	6.18e-01	0	62	0	28311552	60	8512
2026-01-24 12:49:30.54	205.97	9.79	-44.2	-51.5	11.1	6.17e-01	0	62	0	30408704	60	8094
2026-01-24 12:49:31.55	206.08	9.86	-44.0	-50.7	11.9	6.13e-01	0	61	0	31981568	60	7417
2026-01-24 12:49:32.56	206.19	9.94	-44.0	-50.1	12.9	6.08e-01	0	62	0	34078720	59	7295
2026-01-24 12:49:33.57	206.31	10.02	-43.6	-48.9	14.1	6.06e-01	0	61	0	36175872	59	6408
2026-01-24 12:49:34.58	206.42	10.10	-43.2	-47.9	15.2	6.04e-01	0	62	0	37748736	58	6057
2026-01-24 12:49:35.59	206.53	10.18	-42.9	-47.2	15.9	6.06e-01	0	62	0	39845888	57	5898
2026-01-24 12:49:36.60	206.65	10.26	-42.6	-46.7	16.5	6.07e-01	0	62	0	41418752	57	5552
2026-01-24 12:49:37.61	206.76	10.34	-42.4	-46.2	16.9	6.09e-01	0	61	0	43515904	56	5585
2026-01-24 12:49:38.62	206.88	10.43	-42.4	-46.3	16.8	6.08e-01	0	61	0	45613056	56	5638
2026-01-24 12:49:39.63	207.00	10.51	-43.0	-47.3	16.3	6.06e-01	0	62	0	47185920	56	6310
2026-01-24 12:49:40.64	207.11	10.59	-43.5	-48.7	14.6	6.09e-01	0	61	0	49283072	58	6585
2026-01-24 12:49:41.65	207.23	10.67	-43.0	-47.4	16.2	6.05e-01	0	62	0	51380224	56	6387
2026-01-24 12:49:42.66	207.35	10.75	-44.8	-55.4	8.0	6.57e-01	83	62	0	52953088	60	12782
2026-01-24 12:49:43.67	207.47	10.83	-42.1	-45.6	17.2	6.06e-01	0	62	104	52953088	56	5209
2026-01-24 12:49:44.68	207.59	10.91	-42.8	-46.9	16.1	6.07e-01	0	62	0	54525952	57	5709
2026-01-24 12:49:45.69	207.71	11.00	-42.3	-46.1	17.1	6.04e-01	0	62	0	56098816	56	5468
2026-01-24 12:49:46.70	207.84	11.08	-42.1	-45.7	17.5	6.06e-01	0	62	0	58195968	56	5250
2026-01-24 12:49:47.71	207.96	11.16	-42.0	-45.5	17.7	6.07e-01	0	62	0	60293120	56	5113
2026-01-24 12:49:48.72	208.08	11.24	-41.9	-45.4	17.7	6.04e-01	0	62	0	61865984	55	5373
2026-01-24 12:49:49.73	208.20	11.33	-41.9	-45.3	17.8	6.06e-01	0	61	0	63963136	55	5301
2026-01-24 12:49:50.74	208.33	11.41	-41.9	-45.4	17.7	6.05e-01	0	61	0	66060288	55	5358
2026-01-24 12:49:51.75	208.46	11.49	-41.9	-45.4	17.8	6.07e-01	0	62	0	67633152	55	5345
2026-01-24 12:49:52.76	208.58	11.58	-41.8	-45.3	17.9	6.06e-01	0	62	0	69730304	55	5297
2026-01-24 12:49:53.77	208.71	11.66	-41.8	-45.3	17.9	6.08e-01	0	62	0	71303168	55	5281
2026-01-24 12:49:54.78	208.84	11.74	-41.8	-45.2	17.9	6.07e-01	0	61	0	73400320	55	5264
2026-01-24 12:49:55.79	208.96	11.83	-41.8	-45.2	18.0	6.08e-01	0	61	0	75497472	55	5232
2026-01-24 12:49:56.80	209.09	11.91	-41.8	-45.2	18.0	6.06e-01	0	62	0	77070336	55	5240
2026-01-24 12:49:57.81	209.22	12.00	-41.9	-45.3	17.9	6.08e-01	0	61	0	79167488	55	5312
2026-01-24 12:49:58.82	209.35	12.08	-41.8	-45.1	18.1	6.04e-01	0	61	0	80740352	55	5203
2026-01-24 12:49:59.83	209.49	12.17	-41.8	-45.1	18.1	6.06e-01	0	61	0	82837504	55	5175
2026-01-24 12:50:00.84	209.62	12.25	-41.7	-45.0	18.2	6.08e-01	0	62	0	84934656	55	5132
2026-01-24 12:50:01.84	209.75	12.34	-41.7	-45.0	18.2	6.06e-01	0	62	0	86507520	55	5138
2026-01-24 12:50:02.85	209.88	12.42	-41.7	-45.0	18.3	6.07e-01	0	61	0	88604672	55	5118
2026-01-24 12:50:03.86	210.02	12.51	-41.8	-45.1	18.2	6.06e-01	0	62	0	90177536	55	5173
2026-01-24 12:50:04.87	210.15	12.59	-41.8	-45.1	18.2	6.05e-01	0	62	0	92274688	55	5162
2026-01-24 12:50:05.88	210.29	12.68	-41.8	-45.1	18.1	6.07e-01	0	62	0	94371840	55	5200
2026-01-24 12:50:06.89	210.43	12.77	-41.8	-45.1	18.1	6.07e-01	0	62	0	95944704	55	5208
2026-01-24 12:50:07.90	210.57	12.85	-41.8	-45.1	18.2	6.04e-01	0	61	0	98041856	55	5171
2026-01-24 12:50:08.91	210.71	12.94	-41.8	-45.0	18.2	6.07e-01	0	62	0	99614720	55	5145
2026-01-24 12:50:09.92	210.85	13.03	-41.7	-45.0	18.3	6.06e-01	0	61	0	101711872	55	5128
2026-01-24 12:50:10.93	210.99	13.11	-41.8	-45.1	18.2	6.07e-01	0	61	0	103809024	55	5166
2026-01-24 12:50:11.95	211.13	13.20	-41.7	-44.9	18.4	6.07e-01	0	61	0	105381888	55	5092
2026-01-24 12:50:12.96	211.27	13.29	-41.7	-45.0	18.4	6.06e-01	0	62	0	107479040	55	5115
2026-01-24 12:50:13.96	211.41	13.38	-41.8	-45.0	18.3	6.07e-01	0	62	0	109051904	55	5147
2026-01-24 12:50:14.97	211.56	13.46	-41.8	-45.1	18.2	6.05e-01	0	62	0	111149056	55	5169
2026-01-24 12:50:15.99	211.70	13.55	-41.7	-44.9	18.4	6.06e-01	0	61	0	113246208	55	5090
2026-01-24 12:50:17.00	211.85	13.64	-41.7	-44.9	18.4	6.07e-01	0	62	0	114819072	55	5078
2026-01-24 12:50:18.01	212.00	13.73	-41.7	-45.0	18.4	6.07e-01	0	62	0	116916224	55	5121
2026-01-24 12:50:19.01	212.14	13.82	-41.8	-45.0	18.3	6.07e-01	0	61	0	119013376	55	5127
2026-01-24 12:50:20.02	212.29	13.91	-41.7	-45.0	18.4	6.09e-01	0	62	0	120586240	55	5117
2026-01-24 12:50:21.03	212.44	13.99	-41.8	-45.1	18.3	6.05e-01	0	61	0	122683392	55	5175
2026-01-24 12:50:22.04	212.59	14.08	-41.8	-45.1	18.3	6.07e-01	0	62	0	124256256	55	5183
2026-01-24 12:50:23.05	212.74	14.17	-41.7	-45.0	18.4	6.06e-01	0	61	0	126353408	55	5103
2026-01-24 12:50:24.06	212.90	14.26	-41.6	-44.8	18.6	6.06e-01	0	62	0	128450560	55	4995
2026-01-24 12:50:25.07	213.05	14.35	-41.7	-44.8	18.5	6.06e-01	0	62	0	130023424	54	5337
2026-01-24 12:50:26.08	213.20	14.44	-41.7	-44.9	18.5	6.06e-01	0	62	0	132120576	54	5360
2026-01-24 12:50:27.08	213.36	14.53	-41.8	-45.0	18.4	6.06e-01	0	61	0	134217728	54	5416
2026-01-24 12:50:28.09	213.51	14.62	-41.7	-44.9	18.5	6.07e-01	0	62	0	135790592	54	5378
2026-01-24 12:50:29.10	213.67	14.71	-41.7	-44.9	18.5	6.05e-01	0	61	0	137887744	54	5347
2026-01-24 12:50:30.11	213.83	14.80	-41.7	-44.9	18.5	6.06e-01	0	62	0	139460608	54	5369
2026-01-24 12:50:31.13	213.99	14.90	-41.7	-44.9	18.5	6.06e-01	0	62	0	141557760	54	5363
2026-01-24 12:50:32.13	214.15	14.99	-41.7	-44.9	18.5	6.07e-01	0	62	0	143654912	54	5376
2026-01-24 12:50:33.15	214.31	15.08	-41.7	-44.8	18.6	6.05e-01	0	62	0	145227776	54	5307
2026-01-24 12:50:34.15	214.47	15.17	-41.7	-44.9	18.6	6.05e-01	0	62	0	147324928	54	5341
2026-01-24 12:50:35.17	214.64	15.26	-41.7	-44.8	18.6	6.07e-01	0	62	0	148897792	54	5315
2026-01-24 12:50:36.18	214.80	15.35	-41.7	-44.8	18.6	6.06e-01	0	62	0	150994944	54	5325
2026-01-24 12:50:37.19	214.97	15.45	-41.6	-44.8	18.6	6.07e-01	0	62	0	153092096	54	5297
2026-01-24 12:50:38.20	215.14	15.54	-41.7	-44.8	18.6	6.05e-01	0	62	0	154664960	54	5295
2026-01-24 12:50:39.21	215.30	15.63	-41.6	-44.7	18.7	6.07e-01	0	61	0	156762112	54	5254
2026-01-24 12:50:40.22	215.47	15.72	-41.6	-44.7	18.8	6.06e-01	0	62	0	158334976	54	5238
2026-01-24 12:50:41.23	215.64	15.81	-41.6	-44.7	18.7	6.08e-01	0	61	0	160432128	54	5279
2026-01-24 12:50:42.24	215.81	15.91	-41.7	-44.8	18.7	6.05e-01	0	62	0	162529280	54	5308
2026-01-24 12:50:43.24	215.98	16.00	-41.6	-44.8	18.6	6.04e-01	0	61	0	164102144	54	5323
2026-01-24 12:50:44.25	216.16	16.09	-41.7	-44.8	18.6	6.08e-01	0	62	0	166199296	54	5327
2026-01-24 12:50:45.26	216.33	16.19	-41.7	-44.8	18.7	6.07e-01	0	62	0	167772160	53	5631
2026-01-24 12:50:46.27	216.51	16.28	-41.7	-44.9	18.6	6.07e-01	0	62	0	169869312	53	5676
2026-01-24 12:50:47.28	216.68	16.37	-41.7	-44.8	18.7	6.07e-01	0	61	0	171966464	54	5318
2026-01-24 12:50:48.29	216.86	16.47	-41.7	-44.8	18.7	6.05e-01	0	62	0	173539328	54	5305
2026-01-24 12:50:49.30	217.04	16.56	-41.7	-44.8	18.6	6.05e-01	0	62	0	175636480	54	5316
2026-01-24 12:50:50.31	217.22	16.65	-41.6	-44.7	18.8	6.04e-01	0	62	0	177209344	54	5222
2026-01-24 12:50:51.32	217.40	16.75	-41.6	-44.6	18.9	6.05e-01	0	62	0	179306496	54	5173
2026-01-24 12:50:52.34	217.59	16.84	-41.6	-44.7	18.8	6.06e-01	0	61	0	181403648	54	5228
2026-01-24 12:50:53.35	217.77	16.94	-41.6	-44.7	18.8	6.06e-01	0	62	0	182976512	54	5261
2026-01-24 12:50:54.36	217.95	17.03	-41.6	-44.7	18.8	6.05e-01	0	62	0	185073664	54	5262
2026-01-24 12:50:55.37	218.14	17.13	-41.6	-44.7	18.8	6.07e-01	0	62	0	187170816	54	5257
2026-01-24 12:50:56.38	218.33	17.22	-41.5	-44.5	19.0	6.07e-01	0	61	0	188743680	54	5148
2026-01-24 12:50:57.39	218.52	17.32	-41.5	-44.5	19.0	6.04e-01	0	62	0	190840832	54	5114
2026-01-24 12:50:58.39	218.70	17.41	-41.5	-44.6	19.0	6.07e-01	0	62	0	192413696	54	5166
2026-01-24 12:50:59.40	218.89	17.51	-41.6	-44.7	18.8	6.06e-01	0	61	0	194510848	54	5228
2026-01-24 12:51:00.41	219.09	17.60	-41.6	-44.6	18.9	6.05e-01	0	62	0	196608000	54	5204
2026-01-24 12:51:01.42	219.28	17.70	-41.6	-44.6	18.9	6.07e-01	0	62	0	198180864	54	5176
2026-01-24 12:51:02.43	219.48	17.79	-41.5	-44.5	19.0	6.07e-01	0	62	0	200278016	54	5116
2026-01-24 12:51:03.44	219.67	17.89	-41.5	-44.5	19.1	6.05e-01	0	62	0	202375168	54	5119
2026-01-24 12:51:04.45	219.87	17.99	-41.5	-44.5	19.0	6.07e-01	0	62	0	203948032	54	5132
2026-01-24 12:51:05.46	220.07	18.08	-41.5	-44.5	19.0	6.08e-01	0	62	0	206045184	54	5144
2026-01-24 12:51:06.47	220.27	18.18	-41.5	-44.5	19.0	6.04e-01	0	61	0	207618048	54	5137
2026-01-24 12:51:07.48	220.47	18.27	-41.6	-44.6	19.0	6.08e-01	0	61	0	209715200	54	5175
2026-01-24 12:51:08.49	220.67	18.37	-41.5	-44.4	19.1	6.06e-01	0	61	0	211812352	54	5095
2026-01-24 12:51:09.50	220.87	18.47	-41.5	-44.4	19.1	6.07e-01	0	62	0	213385216	54	5100
2026-01-24 12:51:10.51	221.08	18.56	-41.5	-44.5	19.0	6.05e-01	0	61	0	215482368	54	5154
2026-01-24 12:51:11.52	221.29	18.66	-41.5	-44.5	19.0	6.06e-01	0	62	0	217055232	54	5128
2026-01-24 12:51:12.53	221.49	18.75	-41.6	-44.6	19.0	6.06e-01	0	62	0	219152384	54	5184
2026-01-24 12:51:13.54	221.70	18.85	-41.6	-44.7	18.9	6.07e-01	0	62	0	221249536	54	5230
2026-01-24 12:51:14.55	221.91	18.95	-41.7	-44.7	18.9	6.06e-01	0	62	0	222822400	54	5251
2026-01-24 12:51:15.56	222.13	19.04	-41.7	-44.8	18.8	6.06e-01	0	62	0	224919552	54	5288
2026-01-24 12:51:16.57	222.34	19.14	-41.7	-44.8	18.7	6.06e-01	0	62	0	226492416	54	5327
2026-01-24 12:51:17.58	222.55	19.24	-41.7	-44.8	18.8	6.07e-01	0	62	0	228589568	54	5321
2026-01-24 12:51:18.59	222.77	19.33	-41.6	-44.7	18.9	6.05e-01	0	62	0	230686720	54	5234
2026-01-24 12:51:19.60	222.99	19.43	-41.6	-44.6	19.0	6.05e-01	0	61	0	232259584	54	5162
2026-01-24 12:51:20.61	223.21	19.53	-41.6	-44.7	18.9	6.06e-01	0	62	0	234356736	54	5236
2026-01-24 12:51:21.62	223.43	19.62	-41.7	-44.7	18.9	6.05e-01	0	62	0	235929600	54	5259
2026-01-24 12:51:22.63	223.65	19.72	-41.6	-44.6	18.9	6.06e-01	0	62	0	238026752	54	5208
2026-01-24 12:51:23.64	223.87	19.82	-41.6	-44.7	18.9	6.06e-01	0	61	0	240123904	54	5228
2026-01-24 12:51:24.65	224.10	19.91	-41.7	-44.7	18.9	6.07e-01	0	62	0	241696768	54	5251
2026-01-24 12:51:25.66	224.32	20.01	-41.7	-44.8	18.8	6.07e-01	0	61	0	243793920	54	5287
2026-01-24 12:51:26.67	224.55	20.11	-41.7	-44.9	18.7	6.06e-01	0	62	0	245366784	54	5345
2026-01-24 12:51:27.68	224.78	20.20	-41.6	-44.7	18.9	6.06e-01	0	61	0	247463936	54	5228
2026-01-24 12:51:28.69	225.01	20.30	-41.6	-44.6	19.0	6.07e-01	0	61	0	249561088	54	5199
2026-01-24 12:51:29.70	225.24	20.40	-41.6	-44.7	18.9	6.06e-01	0	62	0	251133952	54	5225
2026-01-24 12:51:30.71	225.48	20.49	-41.6	-44.7	18.9	6.05e-01	0	62	0	253231104	54	5227
2026-01-24 12:51:31.72	225.71	20.59	-41.6	-44.7	18.9	6.07e-01	0	62	0	255328256	54	5231
2026-01-24 12:51:32.73	225.95	20.69	-41.7	-44.7	18.9	6.08e-01	0	62	0	256901120	54	5263
2026-01-24 12:51:33.74	226.19	20.78	-41.7	-44.7	18.9	6.06e-01	0	62	0	258998272	54	5249
2026-01-24 12:51:34.75	226.43	20.88	-41.7	-44.8	18.8	6.07e-01	0	62	0	260571136	54	5282
2026-01-24 12:51:35.76	226.67	20.98	-41.6	-44.7	18.9	6.07e-01	0	62	0	262668288	54	5224
2026-01-24 12:51:36.77	226.91	21.07	-41.7	-44.8	18.9	6.05e-01	0	62	0	264765440	54	5283
2026-01-24 12:51:37.78	227.15	21.17	-41.7	-44.8	18.8	6.05e-01	0	62	0	266338304	54	5323
2026-01-24 12:51:38.79	227.40	21.26	-41.7	-44.8	18.8	6.04e-01	0	61	0	268435456	54	5294
2026-01-24 12:51:39.80	227.65	21.36	-41.6	-44.7	18.9	6.06e-01	0	62	0	270532608	54	5232
2026-01-24 12:51:40.81	227.90	21.46	-41.7	-44.7	18.9	6.06e-01	0	62	0	272105472	54	5225
2026-01-24 12:51:41.82	228.15	21.55	-41.7	-44.8	18.8	6.07e-01	0	62	0	274202624	54	5321
2026-01-24 12:51:42.83	228.40	21.65	-41.8	-44.9	18.7	6.06e-01	0	62	0	275775488	54	5356
2026-01-24 12:51:43.83	228.65	21.74	-41.8	-44.9	18.8	6.05e-01	0	62	0	277872640	54	5350
2026-01-24 12:51:44.84	228.91	21.84	-41.7	-44.7	18.9	6.07e-01	0	62	0	279969792	54	5272
2026-01-24 12:51:45.85	229.16	21.93	-41.8	-44.8	18.8	6.05e-01	0	62	0	281542656	54	5336
2026-01-24 12:51:46.86	229.42	22.03	-41.8	-44.9	18.7	6.06e-01	0	62	0	283639808	54	5393
2026-01-24 12:51:47.87	229.68	22.12	-41.7	-44.8	18.8	6.05e-01	0	62	0	285212672	54	5310
2026-01-24 12:51:48.88	229.95	22.21	-41.8	-44.9	18.7	6.06e-01	0	62	0	287309824	54	5375
2026-01-24 12:51:49.89	230.21	22.31	-41.8	-44.9	18.7	6.06e-01	0	62	0	289406976	54	5393
2026-01-24 12:51:50.90	230.47	22.40	-41.9	-45.0	18.6	6.07e-01	0	62	0	290979840	54	5457
2026-01-24 12:51:51.91	230.74	22.50	-41.8	-44.9	18.6	6.05e-01	0	62	0	293076992	54	5384
2026-01-24 12:51:52.92	231.01	22.59	-41.9	-45.0	18.6	6.07e-01	0	62	0	294649856	54	5436
2026-01-24 12:51:53.93	231.28	22.68	-41.9	-45.0	18.6	6.07e-01	0	62	0	296747008	54	5433
2026-01-24 12:51:54.94	231.55	22.78	-41.8	-44.9	18.7	6.07e-01	0	62	0	298844160	54	5391
2026-01-24 12:51:55.95	231.83	22.87	-41.8	-45.0	18.6	6.06e-01	0	62	0	300417024	54	5405
2026-01-24 12:51:56.96	232.10	22.96	-41.8	-44.8	18.8	6.06e-01	0	62	0	302514176	54	5321
2026-01-24 12:51:57.97	232.38	23.05	-41.8	-45.0	18.6	6.05e-01	0	62	0	304087040	54	5423
2026-01-24 12:51:58.98	232.66	23.14	-41.8	-44.9	18.7	6.07e-01	0	62	0	306184192	54	5345
2026-01-24 12:51:59.99	232.94	23.24	-41.8	-44.9	18.7	6.08e-01	0	62	0	308281344	54	5341
2026-01-24 12:52:01.00	233.22	23.33	-41.9	-45.0	18.6	6.06e-01	0	62	0	309854208	54	5436
2026-01-24 12:52:02.01	233.50	23.42	-41.8	-44.9	18.7	6.08e-01	0	62	0	311951360	54	5358
2026-01-24 12:52:03.02	233.79	23.51	-41.8	-44.9	18.7	6.05e-01	0	62	0	313524224	54	5351
2026-01-24 12:52:04.03	234.08	23.60	-41.9	-45.1	18.5	6.05e-01	0	62	0	315621376	54	5514
2026-01-24 12:52:05.04	234.36	23.69	-41.8	-44.9	18.7	6.06e-01	0	62	0	317718528	54	5363
2026-01-24 12:52:06.04	234.65	23.78	-41.9	-45.0	18.6	6.06e-01	0	62	0	319291392	54	5439
2026-01-24 12:52:07.06	234.95	23.87	-41.9	-45.1	18.5	6.09e-01	0	62	0	321388544	54	5513
2026-01-24 12:52:08.07	235.24	23.96	-41.9	-45.1	18.5	6.06e-01	0	62	0	323485696	54	5489
2026-01-24 12:52:09.08	235.54	24.04	-42.0	-45.1	18.5	6.05e-01	0	62	0	325058560	54	5515
2026-01-24 12:52:10.09	235.83	24.13	-41.9	-45.1	18.5	6.06e-01	0	62	0	327155712	54	5520
2026-01-24 12:52:11.10	236.13	24.22	-41.9	-45.1	18.5	6.07e-01	0	62	0	328728576	54	5502
2026-01-24 12:52:12.11	236.43	24.30	-41.9	-45.1	18.5	6.05e-01	0	62	0	330825728	54	5514
2026-01-24 12:52:13.12	236.73	24.39	-42.0	-45.2	18.4	6.06e-01	0	62	0	332922880	54	5579
2026-01-24 12:52:14.13	237.04	24.48	-42.1	-45.3	18.3	6.04e-01	0	62	0	334495744	54	5646
2026-01-24 12:52:15.14	237.34	24.56	-42.0	-45.3	18.4	6.06e-01	0	62	0	336592896	54	5600
2026-01-24 12:52:16.15	237.65	24.65	-42.0	-45.2	18.4	6.05e-01	0	62	0	338165760	54	5574
2026-01-24 12:52:17.16	237.96	24.73	-42.1	-45.3	18.3	6.06e-01	0	62	0	340262912	54	5649
2026-01-24 12:52:18.17	238.27	24.81	-42.1	-45.4	18.2	6.06e-01	0	62	0	342360064	54	5718
2026-01-24 12:52:19.18	238.58	24.90	-42.1	-45.4	18.3	6.04e-01	0	62	0	343932928	54	5657
2026-01-24 12:52:20.19	238.90	24.98	-42.0	-45.3	18.3	6.06e-01	0	62	0	346030080	54	5626
2026-01-24 12:52:21.20	239.21	25.06	-42.0	-45.1	18.5	6.07e-01	0	62	0	348127232	54	5523
2026-01-24 12:52:22.21	239.53	25.14	-41.9	-45.1	18.5	6.05e-01	0	62	0	349700096	54	5496
2026-01-24 12:52:23.22	239.85	25.22	-41.9	-45.1	18.5	6.07e-01	0	61	0	351797248	54	5511
2026-01-24 12:52:24.23	240.17	25.30	-42.0	-45.2	18.5	6.07e-01	0	62	0	353370112	54	5535
2026-01-24 12:52:25.24	240.49	25.38	-42.0	-45.2	18.4	6.07e-01	0	62	0	355467264	54	5583
2026-01-24 12:52:26.25	240.82	25.46	-42.0	-45.2	18.5	6.06e-01	0	62	0	357564416	54	5546
2026-01-24 12:52:27.26	241.14	25.54	-42.0	-45.1	18.5	6.07e-01	0	62	0	359137280	54	5520
2026-01-24 12:52:28.27	241.47	25.62	-41.9	-45.1	18.6	6.05e-01	0	62	0	361234432	54	5476
2026-01-24 12:52:29.27	241.80	25.69	-42.0	-45.2	18.5	6.06e-01	0	62	0	362807296	54	5555
2026-01-24 12:52:30.28	242.13	25.77	-42.0	-45.2	18.4	6.07e-01	0	62	0	364904448	54	5573
2026-01-24 12:52:31.30	242.46	25.84	-42.0	-45.2	18.4	6.08e-01	0	62	0	367001600	54	5559
2026-01-24 12:52:32.30	242.79	25.92	-42.0	-45.2	18.4	6.08e-01	0	62	0	368574464	54	5581
2026-01-24 12:52:33.32	243.13	25.99	-42.0	-45.2	18.5	6.07e-01	0	62	0	370671616	54	5530
2026-01-24 12:52:34.33	243.47	26.06	-41.8	-44.9	18.7	6.07e-01	0	62	0	372244480	54	5380
2026-01-24 12:52:35.34	243.81	26.14	-41.9	-45.2	18.5	6.05e-01	0	62	0	374341632	54	5529
2026-01-24 12:52:36.35	244.15	26.21	-42.0	-45.3	18.3	6.07e-01	0	62	0	376438784	54	5609
2026-01-24 12:52:37.36	244.49	26.28	-42.0	-45.3	18.3	6.07e-01	0	62	0	378011648	54	5594
2026-01-24 12:52:38.37	244.83	26.35	-42.0	-45.2	18.4	6.06e-01	0	61	0	380108800	54	5574
2026-01-24 12:52:39.38	245.18	26.42	-41.9	-45.1	18.5	6.07e-01	0	62	0	382205952	54	5511
2026-01-24 12:52:40.39	245.52	26.48	-42.0	-45.2	18.4	6.07e-01	0	62	0	383778816	54	5582
2026-01-24 12:52:41.40	245.87	26.55	-41.8	-45.0	18.6	6.04e-01	0	62	0	385875968	54	5417
2026-01-24 12:52:42.41	246.22	26.62	-41.9	-45.0	18.6	6.06e-01	0	62	0	387448832	54	5425
2026-01-24 12:52:43.42	246.57	26.68	-41.9	-45.1	18.5	6.04e-01	0	62	0	389545984	54	5514
2026-01-24 12:52:44.42	246.92	26.74	-42.0	-45.2	18.5	6.08e-01	0	62	0	391643136	54	5531
2026-01-24 12:52:45.43	247.27	26.81	-41.9	-45.0	18.6	6.07e-01	0	62	0	393216000	54	5445
2026-01-24 12:52:46.44	247.63	26.87	-41.9	-45.1	18.5	6.08e-01	0	61	0	395313152	54	5487
2026-01-24 12:52:47.45	247.98	26.93	-42.0	-45.2	18.4	6.05e-01	0	62	0	396886016	54	5532
2026-01-24 12:52:48.46	248.34	26.99	-41.8	-44.9	18.7	6.08e-01	0	62	0	398983168	54	5370
2026-01-24 12:52:49.47	248.70	27.05	-41.9	-45.1	18.6	6.05e-01	0	62	0	401080320	54	5482
2026-01-24 12:52:50.48	249.06	27.11	-41.9	-45.1	18.5	6.06e-01	0	62	0	402653184	54	5495
2026-01-24 12:52:51.49	249.42	27.16	-41.9	-45.1	18.6	6.05e-01	0	62	0	404750336	54	5476
2026-01-24 12:52:52.50	249.78	27.22	-42.0	-45.2	18.4	6.08e-01	0	62	0	406847488	54	5547
2026-01-24 12:52:53.51	250.15	27.28	-41.9	-45.0	18.6	6.06e-01	0	62	0	408420352	54	5463
2026-01-24 12:52:54.52	250.51	27.33	-41.8	-44.9	18.7	6.07e-01	0	62	0	410517504	54	5391
2026-01-24 12:52:55.54	250.88	27.38	-41.9	-45.0	18.6	6.06e-01	0	62	0	412090368	54	5440
2026-01-24 12:52:56.55	251.25	27.43	-41.9	-45.1	18.5	6.07e-01	0	62	0	414187520	54	5473
2026-01-24 12:52:57.56	251.62	27.49	-41.9	-45.0	18.6	6.06e-01	0	61	0	416284672	54	5431
2026-01-24 12:52:58.57	251.99	27.53	-42.0	-45.1	18.5	6.06e-01	0	62	0	417857536	54	5527
2026-01-24 12:52:59.57	252.36	27.58	-41.9	-45.0	18.6	6.06e-01	0	62	0	419954688	54	5456
2026-01-24 12:53:00.58	252.73	27.63	-41.9	-45.0	18.6	6.05e-01	0	62	0	421527552	54	5452
2026-01-24 12:53:01.59	253.11	27.68	-41.8	-44.9	18.7	6.05e-01	0	62	0	423624704	54	5369
2026-01-24 12:53:02.60	253.48	27.72	-41.8	-44.9	18.7	6.06e-01	0	62	0	425721856	54	5384
2026-01-24 12:53:03.61	253.86	27.76	-41.8	-44.9	18.7	6.05e-01	0	62	0	427294720	54	5359
2026-01-24 12:53:04.62	254.23	27.81	-41.9	-45.0	18.6	6.05e-01	0	62	0	429391872	54	5437
2026-01-24 12:53:05.63	254.61	27.85	-41.7	-44.8	18.8	6.07e-01	0	62	0	431489024	54	5312
2026-01-24 12:53:06.64	254.99	27.89	-41.9	-45.0	18.6	6.06e-01	0	62	0	433061888	54	5435
2026-01-24 12:53:07.65	255.37	27.93	-41.8	-44.9	18.7	6.06e-01	0	62	0	435159040	54	5359
2026-01-24 12:53:08.66	255.75	27.96	-41.8	-45.0	18.7	6.05e-01	0	62	0	436731904	54	5411
2026-01-24 12:53:09.67	256.13	28.00	-41.8	-45.0	18.7	6.05e-01	0	62	0	438829056	54	5403
2026-01-24 12:53:10.68	256.51	28.03	-41.8	-44.8	18.8	6.06e-01	0	62	0	440926208	54	5324
2026-01-24 12:53:11.69	256.90	28.07	-41.8	-44.8	18.8	6.04e-01	0	62	0	442499072	54	5325
2026-01-24 12:53:12.70	257.28	28.10	-41.9	-45.1	18.6	6.07e-01	0	62	0	444596224	54	5471
2026-01-24 12:53:13.71	257.67	28.13	-41.9	-45.0	18.6	6.04e-01	0	62	0	446169088	54	5429
2026-01-24 12:53:14.72	258.05	28.16	-41.8	-44.9	18.7	6.04e-01	0	62	0	448266240	54	5351
2026-01-24 12:53:15.73	258.44	28.19	-41.7	-44.7	18.9	6.06e-01	0	62	0	449839104	54	5249
2026-01-24 12:53:16.74	258.83	28.22	-41.7	-44.8	18.8	6.07e-01	0	62	0	451936256	54	5312
2026-01-24 12:53:17.75	259.21	28.24	-41.7	-44.7	18.9	6.07e-01	0	62	0	454033408	54	5261
2026-01-24 12:53:18.76	259.60	28.27	-41.7	-44.8	18.8	6.06e-01	0	62	0	455606272	54	5308
2026-01-24 12:53:19.77	259.99	28.29	-41.7	-44.8	18.8	6.05e-01	0	62	0	457703424	54	5288
2026-01-24 12:53:20.78	260.38	28.31	-41.8	-44.8	18.8	6.06e-01	0	62	0	459800576	54	5316
2026-01-24 12:53:21.79	260.77	28.33	-41.9	-45.0	18.6	6.06e-01	0	62	0	461373440	54	5421
2026-01-24 12:53:22.80	261.16	28.35	-41.8	-45.0	18.7	6.06e-01	0	62	0	463470592	54	5404
2026-01-24 12:53:23.81	261.55	28.37	-41.8	-44.9	18.7	6.06e-01	0	62	0	465043456	54	5398
2026-01-24 12:53:24.81	261.94	28.38	-41.8	-44.9	18.7	6.06e-01	0	62	0	467140608	54	5401
2026-01-24 12:53:25.82	262.33	28.40	-41.7	-44.7	18.9	6.05e-01	0	62	0	469237760	54	5264
2026-01-24 12:53:26.83	262.72	28.41	-41.6	-44.5	19.1	6.06e-01	0	62	0	470810624	54	5157
2026-01-24 12:53:27.84	263.11	28.42	-41.7	-44.8	18.9	6.08e-01	0	62	0	472907776	54	5292
2026-01-24 12:53:28.85	263.51	28.44	-41.7	-44.7	18.9	6.07e-01	0	62	0	474480640	54	5244
2026-01-24 12:53:29.86	263.90	28.44	-41.6	-44.6	19.0	6.04e-01	0	61	0	476577792	54	5204
2026-01-24 12:53:30.87	264.29	28.45	-41.7	-44.7	19.0	6.05e-01	0	62	0	478674944	54	5229
2026-01-24 12:53:31.88	264.68	28.46	-41.7	-44.7	18.9	6.07e-01	0	62	0	480247808	54	5247
2026-01-24 12:53:32.89	265.08	28.46	-41.7	-44.6	19.0	6.04e-01	0	62	0	482344960	54	5216
2026-01-24 12:53:33.90	265.47	28.47	-41.6	-44.6	19.0	6.02e-01	0	62	0	484442112	54	5196
2026-01-24 12:53:34.91	265.86	28.47	-41.6	-44.6	19.0	6.06e-01	0	62	0	486014976	54	5212
2026-01-24 12:53:35.93	266.26	28.47	-41.7	-44.8	18.8	6.05e-01	0	62	0	488112128	54	5311
2026-01-24 12:53:36.94	266.65	28.47	-41.7	-44.8	18.9	6.07e-01	0	62	0	489684992	54	5280
2026-01-24 12:53:37.95	267.05	28.47	-41.7	-44.7	18.9	6.06e-01	0	62	0	491782144	54	5270
2026-01-24 12:53:38.96	267.44	28.47	-41.7	-44.8	18.8	6.05e-01	0	62	0	493879296	54	5317
2026-01-24 12:53:39.97	267.83	28.46	-41.7	-44.7	18.9	6.06e-01	0	62	0	495452160	54	5243
2026-01-24 12:53:40.98	268.23	28.45	-41.8	-44.9	18.8	6.07e-01	0	62	0	497549312	54	5357
2026-01-24 12:53:41.99	268.62	28.45	-41.8	-44.8	18.8	6.06e-01	0	62	0	499646464	54	5331
2026-01-24 12:53:43.00	269.01	28.44	-41.7	-44.7	19.0	6.07e-01	0	62	0	501219328	54	5221
2026-01-24 12:53:44.01	269.40	28.43	-41.7	-44.7	18.9	6.07e-01	0	62	0	503316480	54	5271
2026-01-24 12:53:45.02	269.80	28.42	-41.6	-44.6	19.1	6.06e-01	0	62	0	504889344	54	5177
2026-01-24 12:53:46.03	270.19	28.40	-41.7	-44.7	18.9	6.05e-01	0	62	0	506986496	54	5232
2026-01-24 12:53:47.04	270.58	28.39	-41.6	-44.7	19.0	6.07e-01	0	62	0	509083648	54	5219
2026-01-24 12:53:48.05	270.97	28.37	-41.6	-44.6	19.0	6.05e-01	0	62	0	510656512	54	5190
2026-01-24 12:53:49.05	271.36	28.36	-41.7	-44.7	19.0	6.05e-01	0	62	0	512753664	54	5239
2026-01-24 12:53:50.06	271.75	28.34	-41.7	-44.7	18.9	6.06e-01	0	62	0	514326528	54	5259
2026-01-24 12:53:51.07	272.14	28.32	-41.5	-44.4	19.2	6.06e-01	0	62	0	516423680	54	5098
2026-01-24 12:53:52.08	272.52	28.30	-41.5	-44.4	19.2	6.09e-01	0	62	0	518520832	54	5090
2026-01-24 12:53:53.09	272.91	28.27	-41.6	-44.6	19.0	6.03e-01	0	62	0	520093696	54	5211
2026-01-24 12:53:54.10	273.30	28.25	-41.6	-44.6	19.0	6.07e-01	0	62	0	522190848	54	5170
2026-01-24 12:53:55.12	273.69	28.22	-41.6	-44.5	19.1	6.08e-01	0	62	0	523763712	54	5128
2026-01-24 12:53:56.12	274.07	28.20	-41.6	-44.5	19.1	6.06e-01	0	62	0	525860864	54	5150
2026-01-24 12:53:57.13	274.46	28.17	-41.5	-44.5	19.1	6.06e-01	0	62	0	527958016	54	5106
2026-01-24 12:53:58.14	274.85	28.14	-41.6	-44.6	19.0	6.06e-01	0	62	0	529530880	54	5187
2026-01-24 12:53:59.15	275.23	28.11	-41.6	-44.6	18.9	6.05e-01	0	62	0	531628032	54	5202
2026-01-24 12:54:00.16	275.61	28.08	-41.7	-44.7	18.9	6.04e-01	0	62	0	533200896	54	5257
2026-01-24 12:54:01.17	276.00	28.04	-41.7	-44.7	18.8	6.06e-01	0	62	0	535298048	54	5266
2026-01-24 12:54:02.18	276.38	28.01	-41.5	-44.4	19.1	6.06e-01	0	62	0	537395200	54	5089
2026-01-24 12:54:03.19	276.76	27.97	-41.6	-44.5	19.0	6.05e-01	0	62	0	538968064	54	5144
2026-01-24 12:54:04.20	277.14	27.94	-41.5	-44.5	19.0	6.05e-01	0	62	0	541065216	54	5129
2026-01-24 12:54:05.21	277.52	27.90	-41.6	-44.6	19.0	6.06e-01	0	62	0	542638080	54	5170
2026-01-24 12:54:06.21	277.89	27.86	-41.7	-44.7	18.9	6.06e-01	0	62	0	544735232	54	5234
2026-01-24 12:54:07.22	278.27	27.82	-41.6	-44.5	19.0	6.06e-01	0	62	0	546832384	54	5154
2026-01-24 12:54:08.23	278.65	27.78	-41.5	-44.5	19.1	6.06e-01	0	62	0	548405248	54	5116
2026-01-24 12:54:09.24	279.02	27.73	-41.6	-44.5	19.0	6.03e-01	0	62	0	550502400	54	5159
2026-01-24 12:54:10.25	279.40	27.69	-41.6	-44.6	19.0	6.06e-01	0	62	0	552599552	54	5174
2026-01-24 12:54:11.26	279.77	27.64	-41.6	-44.6	19.0	6.07e-01	0	62	0	554172416	54	5184
2026-01-24 12:54:12.27	280.14	27.60	-41.7	-44.8	18.8	6.06e-01	0	61	0	556269568	54	5295
2026-01-24 12:54:13.28	280.51	27.55	-41.6	-44.6	19.0	6.05e-01	0	62	0	557842432	54	5169
2026-01-24 12:54:14.29	280.88	27.50	-41.5	-44.5	19.1	6.05e-01	0	62	0	559939584	54	5120
2026-01-24 12:54:15.30	281.25	27.45	-41.5	-44.5	19.1	6.06e-01	0	62	0	562036736	54	5134
2026-01-24 12:54:16.31	281.62	27.40	-41.6	-44.6	19.0	6.05e-01	0	62	0	563609600	54	5204
2026-01-24 12:54:17.32	281.98	27.35	-41.6	-44.7	19.0	6.06e-01	0	62	0	565706752	54	5229
2026-01-24 12:54:18.33	282.35	27.29	-41.6	-44.5	19.1	6.05e-01	0	62	0	567279616	54	5145
2026-01-24 12:54:19.34	282.71	27.24	-41.6	-44.6	19.0	6.05e-01	0	62	0	569376768	54	5193
2026-01-24 12:54:20.35	283.08	27.18	-41.6	-44.6	19.0	6.04e-01	0	62	0	571473920	54	5169
2026-01-24 12:54:21.36	283.44	27.13	-41.6	-44.5	19.1	6.06e-01	0	62	0	573046784	54	5127
2026-01-24 12:54:22.37	283.80	27.07	-41.7	-44.7	18.9	6.06e-01	0	62	0	575143936	54	5239
2026-01-24 12:54:23.38	284.15	27.01	-41.6	-44.7	18.9	6.06e-01	0	62	0	576716800	54	5229
2026-01-24 12:54:24.39	284.51	26.95	-41.5	-44.5	19.1	6.05e-01	0	62	0	578813952	54	5132
2026-01-24 12:54:25.39	284.86	26.89	-41.7	-44.7	18.9	6.05e-01	0	62	0	580911104	54	5245
2026-01-24 12:54:26.41	285.22	26.83	-41.6	-44.7	18.9	6.04e-01	0	62	0	582483968	54	5225
2026-01-24 12:54:27.42	285.57	26.77	-41.7	-44.8	18.8	6.04e-01	0	62	0	584581120	54	5299
2026-01-24 12:54:28.43	285.93	26.70	-41.8	-44.9	18.8	6.05e-01	0	62	0	586153984	54	5345
2026-01-24 12:54:29.44	286.27	26.64	-41.7	-44.7	18.9	6.03e-01	0	62	0	588251136	54	5241
2026-01-24 12:54:30.45	286.62	26.57	-41.7	-44.8	18.9	6.06e-01	0	62	0	590348288	54	5280
2026-01-24 12:54:31.45	286.97	26.51	-41.7	-44.7	18.9	6.05e-01	0	62	0	591921152	54	5272
2026-01-24 12:54:32.46	287.31	26.44	-41.7	-44.8	18.8	6.06e-01	0	62	0	594018304	54	5321
2026-01-24 12:54:33.48	287.66	26.37	-41.8	-44.8	18.8	6.06e-01	0	62	0	596115456	54	5336
2026-01-24 12:54:34.49	288.00	26.30	-41.6	-44.7	18.9	6.05e-01	0	62	0	597688320	54	5227
2026-01-24 12:54:35.49	288.34	26.24	-41.6	-44.6	19.0	6.07e-01	0	62	0	599785472	54	5171
2026-01-24 12:54:36.50	288.68	26.16	-41.7	-44.7	18.9	6.05e-01	0	62	0	601358336	54	5268
2026-01-24 12:54:37.51	289.02	26.09	-41.7	-44.7	18.9	6.05e-01	0	62	0	603455488	54	5276
2026-01-24 12:54:38.52	289.35	26.02	-41.7	-44.8	18.8	6.08e-01	0	62	0	605552640	54	5306
2026-01-24 12:54:39.53	289.69	25.95	-41.7	-44.7	18.8	6.07e-01	0	62	0	607125504	54	5273
2026-01-24 12:54:40.54	290.02	25.88	-41.7	-44.8	18.8	6.06e-01	0	62	0	609222656	54	5297
2026-01-24 12:54:41.55	290.35	25.80	-41.7	-44.8	18.7	6.07e-01	0	62	0	610795520	54	5336
2026-01-24 12:54:42.56	290.68	25.73	-41.7	-44.7	18.8	6.04e-01	0	62	0	612892672	54	5258
2026-01-24 12:54:43.57	291.01	25.65	-41.6	-44.6	18.9	6.04e-01	0	62	0	614989824	54	5218
2026-01-24 12:54:44.58	291.34	25.57	-41.7	-44.7	18.8	6.06e-01	0	62	0	616562688	54	5260
2026-01-24 12:54:45.59	291.66	25.50	-41.7	-44.8	18.7	6.06e-01	0	62	0	618659840	54	5305
2026-01-24 12:54:46.60	291.98	25.42	-41.7	-44.8	18.7	6.07e-01	0	62	0	620756992	54	5340
2026-01-24 12:54:47.61	292.31	25.34	-41.8	-44.9	18.7	6.06e-01	0	62	0	622329856	54	5344
2026-01-24 12:54:48.62	292.63	25.26	-41.7	-44.8	18.7	6.07e-01	0	62	0	624427008	54	5286
2026-01-24 12:54:49.62	292.94	25.18	-41.7	-44.8	18.8	6.06e-01	0	62	0	625999872	54	5309
2026-01-24 12:54:50.63	293.26	25.10	-41.8	-45.0	18.6	6.05e-01	0	62	0	628097024	54	5410
2026-01-24 12:54:51.64	293.57	25.02	-41.8	-44.9	18.6	6.04e-01	0	62	0	630194176	54	5373
2026-01-24 12:54:52.65	293.89	24.94	-41.8	-44.9	18.6	6.07e-01	0	62	0	631767040	54	5401
2026-01-24 12:54:53.66	294.20	24.86	-41.8	-45.0	18.5	6.06e-01	0	62	0	633864192	54	5434
2026-01-24 12:54:54.67	294.51	24.77	-41.9	-45.1	18.4	6.06e-01	0	62	0	635437056	54	5497
2026-01-24 12:54:55.68	294.82	24.69	-41.8	-45.0	18.5	6.07e-01	0	62	0	637534208	54	5403
2026-01-24 12:54:56.69	295.12	24.61	-41.8	-45.0	18.5	6.06e-01	0	62	0	639631360	54	5406
2026-01-24 12:54:57.70	295.43	24.52	-41.8	-44.9	18.5	6.05e-01	0	62	0	641204224	54	5371
2026-01-24 12:54:58.71	295.73	24.44	-41.8	-44.9	18.5	6.05e-01	0	62	0	643301376	54	5357
2026-01-24 12:54:59.72	296.03	24.35	-41.8	-44.9	18.5	6.06e-01	0	62	0	644874240	54	5388
2026-01-24 12:55:00.73	296.33	24.26	-41.8	-44.9	18.5	6.06e-01	0	62	0	646971392	54	5360
2026-01-24 12:55:01.74	296.63	24.18	-41.8	-44.9	18.5	6.06e-01	0	62	0	649068544	54	5356
2026-01-24 12:55:02.75	296.93	24.09	-41.8	-44.9	18.5	6.07e-01	0	62	0	650641408	54	5374
2026-01-24 12:55:03.76	297.22	24.00	-41.8	-45.0	18.4	6.06e-01	0	62	0	652738560	54	5404
2026-01-24 12:55:04.77	297.51	23.92	-41.8	-45.0	18.4	6.07e-01	0	62	0	654311424	54	5425
2026-01-24 12:55:05.78	297.81	23.83	-41.9	-45.1	18.3	6.08e-01	0	61	0	656408576	54	5467
2026-01-24 12:55:06.79	298.10	23.74	-41.7	-44.8	18.5	6.06e-01	0	62	0	658505728	54	5338
2026-01-24 12:55:07.80	298.38	23.65	-41.7	-44.8	18.5	6.04e-01	0	62	0	660078592	54	5331
2026-01-24 12:55:08.81	298.67	23.56	-41.8	-44.9	18.5	6.05e-01	0	62	0	662175744	54	5369
2026-01-24 12:55:09.82	298.95	23.47	-41.8	-45.0	18.3	6.07e-01	0	62	0	664272896	54	5428
2026-01-24 12:55:10.83	299.24	23.38	-41.8	-45.0	18.4	6.06e-01	0	62	0	665845760	54	5422
2026-01-24 12:55:11.84	299.52	23.29	-41.8	-45.0	18.4	6.09e-01	0	62	0	667942912	54	5412
2026-01-24 12:55:12.85	299.80	23.20	-41.8	-45.0	18.3	6.04e-01	0	62	0	669515776	54	5456
2026-01-24 12:55:13.86	300.08	23.11	-41.7	-44.9	18.5	6.06e-01	0	62	0	671612928	54	5371
2026-01-24 12:55:14.86	300.35	23.02	-41.7	-44.8	18.6	6.04e-01	0	62	0	673710080	54	5322
2026-01-24 12:55:15.87	300.62	22.93	-41.7	-44.8	18.6	6.06e-01	0	62	0	675282944	54	5323
2026-01-24 12:55:16.89	300.90	22.84	-41.8	-45.0	18.4	6.06e-01	0	62	0	677380096	54	5420
2026-01-24 12:55:17.90	301.17	22.74	-41.7	-44.8	18.6	6.06e-01	0	62	0	678952960	54	5298
2026-01-24 12:55:18.90	301.44	22.65	-41.7	-44.8	18.6	6.06e-01	0	62	0	681050112	54	5334
2026-01-24 12:55:19.91	301.71	22.56	-41.7	-44.9	18.5	6.04e-01	0	62	0	683147264	54	5376
2026-01-24 12:55:20.92	301.97	22.47	-41.8	-45.1	18.4	6.05e-01	0	62	0	684720128	54	5469
2026-01-24 12:55:21.93	302.24	22.37	-41.8	-45.0	18.5	6.08e-01	0	62	0	686817280	54	5420
2026-01-24 12:55:22.94	302.50	22.28	-41.8	-45.0	18.5	6.06e-01	0	62	0	688914432	54	5426
2026-01-24 12:55:23.95	302.76	22.19	-41.8	-45.0	18.4	6.05e-01	0	62	0	690487296	54	5442
2026-01-24 12:55:24.96	303.02	22.09	-41.8	-45.0	18.5	6.07e-01	0	62	0	692584448	54	5408
2026-01-24 12:55:25.97	303.28	22.00	-41.7	-44.8	18.6	6.07e-01	0	62	0	694157312	54	5328
2026-01-24 12:55:26.98	303.54	21.90	-41.7	-44.9	18.6	6.05e-01	0	62	0	696254464	54	5363
2026-01-24 12:55:27.99	303.79	21.81	-41.8	-45.0	18.5	6.07e-01	0	62	0	698351616	54	5414
2026-01-24 12:55:29.00	304.04	21.72	-41.6	-44.8	18.7	6.07e-01	0	62	0	699924480	54	5283
2026-01-24 12:55:30.01	304.30	21.62	-41.6	-44.7	18.8	6.07e-01	0	62	0	702021632	54	5222
2026-01-24 12:55:31.02	304.55	21.53	-41.6	-44.7	18.8	6.06e-01	0	62	0	703594496	54	5250
2026-01-24 12:55:32.02	304.79	21.43	-41.7	-44.8	18.7	6.05e-01	0	62	0	705691648	54	5281
2026-01-24 12:55:33.03	305.04	21.34	-41.7	-44.9	18.6	6.03e-01	0	62	0	707788800	54	5350
2026-01-24 12:55:34.04	305.29	21.24	-41.7	-44.9	18.6	6.04e-01	0	62	0	709361664	54	5383
2026-01-24 12:55:35.05	305.53	21.15	-41.8	-45.0	18.5	6.05e-01	0	62	0	711458816	54	5409
2026-01-24 12:55:36.06	305.77	21.05	-41.8	-45.0	18.5	6.07e-01	0	62	0	713031680	54	5413
2026-01-24 12:55:37.07	306.01	20.96	-41.6	-44.8	18.7	6.06e-01	0	62	0	715128832	54	5282
2026-01-24 12:55:38.08	306.25	20.86	-41.6	-44.6	18.8	6.05e-01	0	62	0	717225984	54	5215
2026-01-24 12:55:39.09	306.49	20.77	-41.5	-44.6	18.8	6.06e-01	0	62	0	718798848	54	5189
2026-01-24 12:55:40.10	306.73	20.67	-41.6	-44.6	18.8	6.06e-01	0	62	0	720896000	54	5198
2026-01-24 12:55:41.11	306.96	20.57	-41.6	-44.7	18.8	6.05e-01	0	62	0	722468864	54	5228
2026-01-24 12:55:42.13	307.20	20.48	-41.6	-44.8	18.6	6.07e-01	0	62	0	724566016	54	5296
2026-01-24 12:55:43.14	307.43	20.38	-41.7	-44.9	18.5	6.07e-01	0	62	0	726663168	54	5358
2026-01-24 12:55:44.15	307.66	20.29	-41.8	-45.0	18.4	6.04e-01	0	62	0	728236032	54	5436
2026-01-24 12:55:45.16	307.89	20.19	-41.7	-44.8	18.6	6.05e-01	0	62	0	730333184	54	5296
2026-01-24 12:55:46.17	308.11	20.09	-41.6	-44.7	18.8	6.06e-01	0	62	0	732430336	54	5225
2026-01-24 12:55:47.18	308.34	20.00	-41.6	-44.6	18.8	6.06e-01	0	62	0	734003200	54	5202
2026-01-24 12:55:48.18	308.56	19.90	-41.5	-44.5	18.9	6.06e-01	0	62	0	736100352	54	5156
2026-01-24 12:55:49.19	308.78	19.81	-41.5	-44.6	18.8	6.05e-01	0	62	0	737673216	54	5202
2026-01-24 12:55:50.20	309.01	19.71	-41.5	-44.6	18.8	6.06e-01	0	62	0	739770368	54	5200
2026-01-24 12:55:51.21	309.23	19.62	-41.6	-44.7	18.8	6.05e-01	0	62	0	741867520	54	5231
2026-01-24 12:55:52.22	309.44	19.52	-41.6	-44.8	18.7	6.03e-01	0	62	0	743440384	54	5281
2026-01-24 12:55:53.23	309.66	19.42	-41.6	-44.7	18.8	6.05e-01	0	62	0	745537536	54	5230
2026-01-24 12:55:54.24	309.88	19.33	-41.5	-44.6	18.8	6.05e-01	0	62	0	747110400	54	5181
2026-01-24 12:55:55.25	310.09	19.23	-41.6	-44.7	18.7	6.07e-01	0	62	0	749207552	54	5228
2026-01-24 12:55:56.26	310.30	19.14	-41.6	-44.7	18.7	6.05e-01	0	62	0	751304704	54	5253
2026-01-24 12:55:57.27	310.52	19.04	-41.6	-44.7	18.7	6.06e-01	0	62	0	752877568	54	5258
2026-01-24 12:55:58.28	310.73	18.94	-41.6	-44.7	18.7	6.05e-01	0	62	0	754974720	54	5258
2026-01-24 12:55:59.29	310.94	18.85	-41.5	-44.6	18.8	6.07e-01	0	62	0	757071872	54	5207
2026-01-24 12:56:00.30	311.14	18.75	-41.5	-44.6	18.8	6.07e-01	0	62	0	758644736	54	5210
2026-01-24 12:56:01.31	311.35	18.66	-41.5	-44.6	18.8	6.07e-01	0	62	0	760741888	54	5199
2026-01-24 12:56:02.32	311.55	18.56	-41.5	-44.6	18.8	6.07e-01	0	62	0	762314752	54	5180
2026-01-24 12:56:03.33	311.76	18.47	-41.5	-44.6	18.8	6.08e-01	0	62	0	764411904	54	5191
2026-01-24 12:56:04.34	311.96	18.37	-41.5	-44.6	18.8	6.06e-01	0	62	0	766509056	54	5181
2026-01-24 12:56:05.35	312.16	18.28	-41.5	-44.6	18.8	6.07e-01	0	62	0	768081920	54	5166
2026-01-24 12:56:06.36	312.36	18.18	-41.6	-44.7	18.7	6.06e-01	0	62	0	770179072	54	5225
2026-01-24 12:56:07.37	312.56	18.09	-41.6	-44.7	18.7	6.05e-01	0	62	0	771751936	54	5262
2026-01-24 12:56:08.38	312.76	17.99	-41.5	-44.6	18.8	6.05e-01	0	62	0	773849088	54	5209
2026-01-24 12:56:09.39	312.95	17.90	-41.5	-44.6	18.7	6.05e-01	0	62	0	775946240	54	5196
2026-01-24 12:56:10.40	313.15	17.80	-41.6	-44.7	18.7	6.09e-01	0	62	0	777519104	54	5231
2026-01-24 12:56:11.41	313.34	17.71	-41.5	-44.7	18.7	6.06e-01	0	62	0	779616256	54	5220
2026-01-24 12:56:12.42	313.53	17.61	-41.5	-44.7	18.6	6.07e-01	0	62	0	781189120	54	5223
2026-01-24 12:56:13.42	313.72	17.52	-41.6	-44.7	18.6	6.06e-01	0	62	0	783286272	54	5235
2026-01-24 12:56:14.43	313.91	17.43	-41.6	-44.8	18.5	6.07e-01	0	62	0	785383424	54	5284
2026-01-24 12:56:15.44	314.10	17.33	-41.5	-44.5	18.7	6.07e-01	0	62	0	786956288	54	5155
2026-01-24 12:56:16.45	314.28	17.24	-41.4	-44.4	18.8	6.06e-01	0	62	0	789053440	54	5096
2026-01-24 12:56:17.46	314.47	17.14	-41.5	-44.5	18.6	6.05e-01	0	62	0	790626304	54	5153
2026-01-24 12:56:18.47	314.66	17.05	-41.5	-44.6	18.6	6.07e-01	0	62	0	792723456	54	5200
2026-01-24 12:56:19.48	314.84	16.96	-41.5	-44.6	18.5	6.06e-01	0	62	0	794820608	54	5212
2026-01-24 12:56:20.49	315.02	16.86	-41.6	-44.8	18.4	6.08e-01	0	62	0	796393472	54	5291
2026-01-24 12:56:21.50	315.20	16.77	-41.5	-44.6	18.5	6.07e-01	0	62	0	798490624	54	5201
2026-01-24 12:56:22.51	315.38	16.68	-41.5	-44.6	18.5	6.07e-01	0	62	0	800587776	54	5201
2026-01-24 12:56:23.52	315.56	16.58	-41.5	-44.6	18.5	6.04e-01	0	62	0	802160640	54	5201
2026-01-24 12:56:24.53	315.74	16.49	-41.5	-44.7	18.5	6.09e-01	0	62	0	804257792	54	5230
2026-01-24 12:56:25.54	315.91	16.40	-41.4	-44.4	18.7	6.08e-01	0	62	0	805830656	54	5099
2026-01-24 12:56:26.54	316.09	16.30	-41.4	-44.4	18.7	6.06e-01	0	62	0	807927808	54	5086
2026-01-24 12:56:27.55	316.26	16.21	-41.4	-44.5	18.6	6.06e-01	0	62	0	810024960	54	5133
2026-01-24 12:56:28.56	316.44	16.12	-41.4	-44.5	18.7	6.07e-01	0	62	0	811597824	54	5116
2026-01-24 12:56:29.58	316.61	16.03	-41.4	-44.5	18.6	6.04e-01	0	62	0	813694976	54	5145
2026-01-24 12:56:30.58	316.78	15.94	-41.4	-44.5	18.6	6.05e-01	0	62	0	815267840	54	5151
2026-01-24 12:56:31.59	316.95	15.84	-41.5	-44.6	18.5	6.05e-01	0	62	0	817364992	54	5211
2026-01-24 12:56:32.60	317.12	15.75	-41.5	-44.6	18.5	6.07e-01	0	62	0	819462144	54	5215
2026-01-24 12:56:33.61	317.29	15.66	-41.5	-44.6	18.6	6.06e-01	0	62	0	821035008	54	5173
2026-01-24 12:56:34.62	317.45	15.57	-41.5	-44.6	18.5	6.08e-01	0	62	0	823132160	54	5207
2026-01-24 12:56:35.63	317.62	15.48	-41.6	-44.8	18.4	6.07e-01	0	62	0	825229312	54	5286
2026-01-24 12:56:36.64	317.78	15.39	-41.5	-44.7	18.4	6.06e-01	0	62	0	826802176	54	5276
2026-01-24 12:56:37.65	317.95	15.30	-41.5	-44.7	18.4	6.07e-01	0	62	0	828899328	54	5269
2026-01-24 12:56:38.66	318.11	15.20	-41.6	-44.8	18.3	6.06e-01	0	62	0	830472192	54	5282
2026-01-24 12:56:39.67	318.27	15.11	-41.6	-44.8	18.3	6.06e-01	0	62	0	832569344	54	5316
2026-01-24 12:56:40.68	318.43	15.02	-41.6	-44.8	18.2	6.05e-01	0	62	0	834666496	54	5335
2026-01-24 12:56:41.69	318.59	14.93	-41.5	-44.7	18.3	6.06e-01	0	62	0	836239360	54	5259
2026-01-24 12:56:42.70	318.75	14.84	-41.5	-44.6	18.4	6.08e-01	0	62	0	838336512	54	5183
2026-01-24 12:56:43.71	318.91	14.75	-41.5	-44.6	18.4	6.06e-01	0	62	0	839909376	54	5203
2026-01-24 12:56:44.72	319.06	14.66	-41.5	-44.7	18.3	6.07e-01	0	62	0	842006528	54	5240
2026-01-24 12:56:45.73	319.22	14.57	-41.5	-44.7	18.3	6.06e-01	0	62	0	844103680	54	5273
2026-01-24 12:56:46.74	319.37	14.49	-41.6	-44.9	18.1	6.06e-01	0	62	0	845676544	54	5352
2026-01-24 12:56:47.75	319.53	14.40	-41.6	-44.8	18.2	6.07e-01	0	62	0	847773696	54	5337
2026-01-24 12:56:48.76	319.68	14.31	-41.6	-44.9	18.2	6.06e-01	0	62	0	849346560	54	5346
2026-01-24 12:56:49.77	319.83	14.22	-41.5	-44.8	18.3	6.04e-01	0	62	0	851443712	54	5302
2026-01-24 12:56:50.78	319.98	14.13	-41.6	-44.8	18.2	6.07e-01	0	62	0	853540864	54	5313
2026-01-24 12:56:51.79	320.13	14.04	-41.6	-44.8	18.2	6.06e-01	0	62	0	855113728	54	5320
2026-01-24 12:56:52.80	320.28	13.95	-41.5	-44.8	18.2	6.07e-01	0	62	0	857210880	54	5309
2026-01-24 12:56:53.81	320.43	13.87	-41.6	-44.8	18.2	6.05e-01	0	62	0	858783744	54	5334
2026-01-24 12:56:54.82	320.57	13.78	-41.6	-44.9	18.1	6.06e-01	0	62	0	860880896	54	5376
2026-01-24 12:56:55.83	320.72	13.69	-41.6	-44.8	18.1	6.04e-01	0	62	0	862978048	54	5331
2026-01-24 12:56:56.83	320.86	13.60	-41.5	-44.8	18.2	6.06e-01	0	62	0	864550912	54	5291
2026-01-24 12:56:57.84	321.01	13.52	-41.5	-44.7	18.3	6.07e-01	0	62	0	866648064	54	5246
2026-01-24 12:56:58.85	321.15	13.43	-41.5	-44.8	18.2	6.07e-01	0	62	0	868745216	54	5280
2026-01-24 12:56:59.86	321.29	13.34	-41.5	-44.7	18.2	6.05e-01	0	62	0	870318080	54	5268
2026-01-24 12:57:00.87	321.44	13.26	-41.5	-44.8	18.2	6.05e-01	0	62	0	872415232	54	5306
2026-01-24 12:57:01.88	321.58	13.17	-41.6	-44.9	18.1	6.04e-01	0	62	0	873988096	54	5344
2026-01-24 12:57:02.89	321.72	13.08	-41.6	-44.8	18.1	6.07e-01	0	62	0	876085248	54	5332
2026-01-24 12:57:03.90	321.86	13.00	-41.6	-44.8	18.1	6.03e-01	0	62	0	878182400	54	5332
2026-01-24 12:57:04.91	322.00	12.91	-41.6	-44.9	18.1	6.06e-01	0	62	0	879755264	54	5373
2026-01-24 12:57:05.92	322.13	12.83	-41.6	-44.9	18.0	6.06e-01	0	62	0	881852416	54	5398
2026-01-24 12:57:06.93	322.27	12.74	-41.6	-45.0	18.0	6.05e-01	0	62	0	883425280	54	5407
2026-01-24 12:57:07.94	322.41	12.65	-41.7	-45.1	17.8	6.07e-01	0	62	0	885522432	54	5485
2026-01-24 12:57:08.95	322.54	12.57	-41.7	-45.1	17.8	6.06e-01	0	62	0	887619584	54	5502
2026-01-24 12:57:09.96	322.67	12.48	-41.8	-45.3	17.7	6.06e-01	0	62	0	889192448	54	5599
2026-01-24 12:57:10.97	322.81	12.40	-41.7	-45.1	17.8	6.06e-01	0	62	0	891289600	54	5492
2026-01-24 12:57:11.98	322.94	12.32	-41.7	-45.2	17.7	6.07e-01	0	62	0	893386752	54	5556
2026-01-24 12:57:12.99	323.07	12.23	-41.7	-45.2	17.6	6.07e-01	0	62	0	894959616	54	5556
2026-01-24 12:57:14.00	323.20	12.15	-41.7	-45.2	17.7	6.04e-01	0	62	0	897056768	54	5532
2026-01-24 12:57:15.01	323.33	12.06	-41.7	-45.2	17.6	6.06e-01	0	62	0	898629632	54	5554
2026-01-24 12:57:16.02	323.46	11.98	-41.8	-45.2	17.5	6.06e-01	0	62	0	900726784	54	5592
2026-01-24 12:57:17.03	323.59	11.90	-41.7	-45.2	17.6	6.07e-01	0	62	0	902823936	54	5533
2026-01-24 12:57:18.04	323.72	11.81	-41.7	-45.1	17.6	6.06e-01	0	62	0	904396800	54	5527
2026-01-24 12:57:19.05	323.85	11.73	-41.7	-45.1	17.5	6.06e-01	0	62	0	906493952	54	5517
2026-01-24 12:57:20.06	323.97	11.65	-41.7	-45.1	17.6	6.06e-01	0	62	0	908066816	54	5472
2026-01-24 12:57:21.07	324.10	11.56	-41.6	-45.1	17.7	6.07e-01	0	62	0	910163968	54	5469
2026-01-24 12:57:22.07	324.22	11.48	-41.7	-45.2	17.6	6.04e-01	0	62	0	911736832	54	5532
2026-01-24 12:57:23.08	324.35	11.40	-41.7	-45.2	17.6	6.04e-01	0	62	0	913833984	54	5565
2026-01-24 12:57:24.10	324.47	11.32	-41.8	-45.3	17.4	6.07e-01	0	62	0	915931136	54	5632
2026-01-24 12:57:25.11	324.60	11.24	-41.8	-45.4	17.4	6.05e-01	0	62	0	917504000	54	5657
2026-01-24 12:57:26.12	324.72	11.15	-41.8	-45.3	17.5	6.05e-01	0	62	0	919601152	54	5639
2026-01-24 12:57:27.12	324.84	11.07	-41.8	-45.4	17.4	6.06e-01	0	62	0	921698304	54	5720
2026-01-24 12:57:28.13	324.96	10.99	-41.8	-45.5	17.4	6.07e-01	0	62	0	923271168	54	5727
2026-01-24 12:57:29.14	325.08	10.91	-41.9	-45.6	17.3	6.05e-01	0	62	0	925368320	54	5798
2026-01-24 12:57:30.16	325.20	10.83	-41.9	-45.6	17.2	6.08e-01	0	62	0	926941184	54	5804
2026-01-24 12:57:31.16	325.32	10.75	-42.0	-45.7	17.2	6.06e-01	0	62	0	929038336	54	5883
2026-01-24 12:57:32.17	325.44	10.67	-41.9	-45.5	17.4	6.08e-01	0	62	0	931135488	54	5788
2026-01-24 12:57:33.18	325.55	10.59	-41.9	-45.6	17.3	6.05e-01	0	62	0	932708352	54	5829
2026-01-24 12:57:34.19	325.67	10.51	-41.9	-45.6	17.4	6.07e-01	0	62	0	934805504	54	5794
2026-01-24 12:57:35.20	325.79	10.43	-41.9	-45.6	17.3	6.06e-01	0	62	0	936902656	54	5825
2026-01-24 12:57:36.21	325.90	10.35	-41.9	-45.7	17.2	6.07e-01	0	62	0	938475520	54	5863
2026-01-24 12:57:37.22	326.02	10.27	-42.0	-45.8	17.2	6.05e-01	0	62	0	940572672	54	5935
2026-01-24 12:57:38.23	326.13	10.19	-41.9	-45.7	17.2	6.05e-01	0	62	0	942145536	54	5884
2026-01-24 12:57:39.24	326.24	10.11	-41.9	-45.6	17.3	6.07e-01	0	62	0	944242688	54	5842
2026-01-24 12:57:40.24	326.35	10.03	-41.9	-45.6	17.3	6.07e-01	0	62	0	946339840	54	5821
2026-01-24 12:57:41.25	326.47	9.95	-42.0	-45.8	17.1	6.06e-01	0	62	0	947912704	54	5958
2026-01-24 12:57:42.27	326.58	9.87	-41.8	-45.5	17.3	6.07e-01	0	62	0	950009856	54	5784
2026-01-24 12:57:43.28	326.69	9.80	-41.9	-45.8	17.1	6.07e-01	0	62	0	951582720	54	5930
2026-01-24 12:57:44.29	326.80	9.72	-41.9	-45.7	17.2	6.06e-01	0	62	0	953679872	54	5866
2026-01-24 12:57:45.30	326.91	9.64	-41.9	-45.7	17.1	6.07e-01	0	62	0	955777024	54	5888
2026-01-24 12:57:46.31	327.02	9.56	-42.0	-45.8	17.0	6.07e-01	0	62	0	957349888	54	5969
2026-01-24 12:57:47.32	327.13	9.48	-42.0	-45.8	17.0	6.05e-01	0	62	0	959447040	54	5973
2026-01-24 12:57:48.32	327.23	9.41	-42.0	-45.9	16.9	6.07e-01	0	62	0	961019904	54	6011
2026-01-24 12:57:49.33	327.34	9.33	-42.0	-46.0	16.8	6.06e-01	0	62	0	963117056	54	6096
2026-01-24 12:57:50.34	327.45	9.25	-42.0	-45.9	16.9	6.08e-01	0	62	0	965214208	54	6031
2026-01-24 12:57:51.35	327.56	9.18	-42.0	-45.9	16.9	6.06e-01	0	62	0	966787072	54	6034
2026-01-24 12:57:52.36	327.66	9.10	-42.0	-45.9	16.9	6.08e-01	0	62	0	968884224	54	6022
2026-01-24 12:57:53.37	327.77	9.02	-42.0	-46.0	16.7	6.07e-01	0	62	0	970457088	54	6116
2026-01-24 12:57:54.38	327.87	8.95	-42.1	-46.1	16.6	6.07e-01	0	62	0	972554240	54	6196
2026-01-24 12:57:55.39	327.97	8.87	-42.2	-46.3	16.5	6.06e-01	0	62	0	974651392	54	6301
2026-01-24 12:57:56.40	328.08	8.79	-42.1	-46.1	16.6	6.06e-01	0	62	0	976224256	54	6198
2026-01-24 12:57:57.41	328.18	8.72	-42.1	-46.2	16.5	6.05e-01	0	62	0	978321408	54	6224
2026-01-24 12:57:58.42	328.28	8.64	-42.1	-46.2	16.5	6.07e-01	0	62	0	979894272	54	6244
2026-01-24 12:57:59.43	328.38	8.57	-42.1	-46.3	16.4	6.06e-01	0	62	0	981991424	54	6291
2026-01-24 12:58:00.44	328.49	8.49	-42.1	-46.2	16.4	6.05e-01	0	62	0	984088576	54	6263
2026-01-24 12:58:01.45	328.59	8.42	-42.1	-46.3	16.4	6.05e-01	0	62	0	985661440	54	6283
2026-01-24 12:58:02.46	328.69	8.34	-42.1	-46.3	16.4	6.07e-01	0	62	0	987758592	54	6292
2026-01-24 12:58:03.47	328.79	8.27	-42.1	-46.3	16.4	6.06e-01	0	62	0	989855744	54	6297
2026-01-24 12:58:04.48	328.88	8.19	-42.0	-46.1	16.5	6.07e-01	0	62	0	991428608	54	6202
2026-01-24 12:58:05.49	328.98	8.12	-42.1	-46.3	16.3	6.08e-01	0	62	0	993525760	54	6313
2026-01-24 12:58:06.50	329.08	8.04	-42.1	-46.2	16.4	6.06e-01	0	62	0	995098624	54	6251
2026-01-24 12:58:07.51	329.18	7.97	-43.4	-49.4	14.7	6.09e-01	0	62	0	997195776	57	7593
2026-01-24 12:58:08.52	329.27	7.90	-45.2	-61.3	4.1	7.41e-01	0	62	104	997195776	60	25163
2026-01-24 12:58:09.53	329.37	7.82	-45.6	-64.0	3.8	7.45e-01	0	62	104	997195776	61	32255
2026-01-24 12:58:10.54	329.47	7.75	-45.8	-64.4	3.8	7.47e-01	0	62	104	997195776	62	31886
2026-01-24 12:58:11.55	329.56	7.68	-46.0	-64.5	3.8	7.46e-01	0	62	104	997195776	62	32549
2026-01-24 12:58:12.56	329.66	7.60	-46.1	-64.7	3.8	7.44e-01	0	62	104	997195776	62	32954
2026-01-24 12:58:13.57	329.75	7.53	-46.2	-64.7	3.8	7.45e-01	0	62	104	997195776	62	33244
2026-01-24 12:58:14.59	329.85	7.46	-46.2	-64.8	3.9	7.44e-01	0	62	104	997195776	63	31641
2026-01-24 12:58:15.60	329.94	7.38	-46.2	-64.8	3.8	7.44e-01	0	62	104	997195776	63	31645
2026-01-24 12:58:16.61	330.03	7.31	-46.2	-64.8	3.8	7.45e-01	0	62	104	997195776	63	31599
2026-01-24 12:58:17.62	330.13	7.24	-46.2	-64.8	3.8	7.46e-01	0	62	104	997195776	63	31479
2026-01-24 12:58:18.63	330.22	7.17	-46.1	-64.5	3.7	7.45e-01	0	62	104	997195776	62	32328
2026-01-24 12:58:19.64	330.31	7.10	-46.2	-64.6	3.9	7.42e-01	0	62	104	997195776	63	30994
2026-01-24 12:58:20.65	330.40	7.02	-46.2	-64.7	3.8	7.45e-01	0	62	104	997195776	62	33205
2026-01-24 12:58:21.65	330.49	6.95	-45.8	-64.3	3.8	7.46e-01	0	62	104	997195776	62	31644
2026-01-24 12:58:22.67	330.58	6.88	-46.1	-64.6	3.8	7.45e-01	0	62	104	997195776	62	32668
2026-01-24 12:58:23.68	330.67	6.81	-46.1	-64.6	3.8	7.43e-01	0	62	104	997195776	62	32692
2026-01-24 12:58:24.69	330.76	6.74	-46.0	-64.6	3.8	7.47e-01	0	62	104	997195776	62	32667
2026-01-24 12:58:25.70	330.85	6.67	-46.1	-64.6	3.8	7.44e-01	0	62	104	997195776	62	32675
2026-01-24 12:58:26.71	330.94	6.60	-46.1	-64.6	3.8	7.45e-01	0	62	104	997195776	62	32626
2026-01-24 12:58:27.72	331.03	6.53	-46.1	-64.6	3.8	7.45e-01	0	62	104	997195776	62	32689
2026-01-24 12:58:28.73	331.11	6.46	-46.1	-64.6	3.8	7.47e-01	0	62	104	997195776	62	32777
2026-01-24 12:58:29.75	331.20	6.39	-46.1	-64.6	3.8	7.47e-01	0	62	104	997195776	62	32683
2026-01-24 12:58:30.76	331.29	6.32	-46.1	-64.6	3.8	7.47e-01	0	62	104	997195776	62	32629
2026-01-24 12:58:31.77	331.37	6.25	-46.1	-64.6	3.8	7.44e-01	0	62	104	997195776	62	32661
2026-01-24 12:58:32.78	331.46	6.18	-46.1	-64.6	3.8	7.45e-01	0	62	104	997195776	62	32648
2026-01-24 12:58:33.79	331.54	6.11	-46.1	-64.6	3.8	7.47e-01	0	62	104	997195776	62	32629
2026-01-24 12:58:34.80	331.63	6.04	-46.1	-64.6	3.8	7.45e-01	0	62	104	997195776	62	32659
2026-01-24 12:58:35.81	331.71	5.97	-46.1	-64.5	3.8	7.45e-01	0	62	104	997195776	62	32531
2026-01-24 12:58:36.82	331.80	5.90	-46.0	-64.5	3.8	7.49e-01	0	62	104	997195776	62	32529
2026-01-24 12:58:37.83	331.88	5.83	-46.0	-64.5	3.8	7.46e-01	0	62	104	997195776	62	32470
2026-01-24 12:58:38.84	331.96	5.76	-46.0	-64.5	3.8	7.46e-01	0	62	104	997195776	62	32459
2026-01-24 12:58:39.85	332.05	5.69	-46.0	-64.5	3.8	7.45e-01	0	62	104	997195776	62	32488
2026-01-24 12:58:40.86	332.13	5.62	-46.0	-64.5	3.8	7.45e-01	0	62	104	997195776	62	32465
2026-01-24 12:58:41.87	332.21	5.56	-45.9	-64.5	3.8	7.45e-01	0	62	104	997195776	62	32463
2026-01-24 12:58:42.88	332.29	5.49	-46.0	-64.5	3.8	7.44e-01	0	62	104	997195776	62	32439
2026-01-24 12:58:43.89	332.38	5.42	-46.0	-64.5	3.8	7.46e-01	0	62	104	997195776	62	32403
2026-01-24 12:58:44.90	332.46	5.35	-46.0	-64.5	3.8	7.47e-01	0	62	104	997195776	62	32497
2026-01-24 12:58:45.91	332.54	5.29	-46.0	-64.5	3.8	7.45e-01	0	62	104	997195776	62	32435
2026-01-24 12:58:46.92	332.62	5.22	-46.0	-64.5	3.8	7.48e-01	0	62	104	997195776	62	32446
2026-01-24 12:58:47.93	332.70	5.15	-46.0	-64.5	3.8	7.44e-01	0	62	104	997195776	62	32485
2026-01-24 12:58:48.94	332.78	5.08	-46.0	-64.5	3.8	7.47e-01	0	62	104	997195776	62	32443
2026-01-24 12:58:49.95	332.85	5.02	-46.0	-64.5	3.8	7.46e-01	0	62	104	997195776	62	32475
2026-01-24 12:58:50.96	332.93	4.95	-46.0	-64.5	3.8	7.46e-01	0	62	104	997195776	62	32444
2026-01-24 12:58:51.97	333.01	4.88	-46.0	-64.5	3.8	7.45e-01	0	62	104	997195776	62	32486
2026-01-24 12:58:52.98	333.09	4.82	-46.0	-64.5	3.8	7.48e-01	0	62	104	997195776	62	32442
2026-01-24 12:58:53.99	333.17	4.75	-46.0	-64.5	3.8	7.44e-01	0	62	104	997195776	62	32441
2026-01-24 12:58:55.01	333.24	4.68	-46.0	-64.5	3.8	7.46e-01	0	62	104	997195776	62	32486
2026-01-24 12:58:56.02	333.32	4.62	-46.0	-64.5	3.8	7.45e-01	0	62	104	997195776	62	32452
2026-01-24 12:58:57.03	333.40	4.55	-46.0	-64.5	3.8	7.46e-01	0	62	104	997195776	62	32404
2026-01-24 12:58:58.04	333.47	4.48	-46.0	-64.5	3.8	7.47e-01	0	62	104	997195776	62	32399
2026-01-24 12:58:59.05	333.55	4.42	-45.9	-64.5	3.8	7.46e-01	0	62	104	997195776	62	32397
2026-01-24 12:59:00.06	333.63	4.35	-46.0	-64.5	3.8	7.50e-01	0	62	104	997195776	62	32456
2026-01-24 12:59:01.07	333.70	4.29	-45.9	-64.5	3.8	7.44e-01	0	62	104	997195776	62	32369
2026-01-24 12:59:02.08	333.77	4.22	-46.0	-64.5	3.8	7.46e-01	0	62	104	997195776	62	32322
2026-01-24 12:59:03.09	333.85	4.16	-46.0	-64.5	3.8	7.45e-01	0	62	104	997195776	62	32442
2026-01-24 12:59:04.10	333.92	4.09	-46.0	-64.5	3.8	7.47e-01	0	62	104	997195776	62	32464
2026-01-24 12:59:05.11	334.00	4.03	-45.9	-64.5	3.8	7.43e-01	0	62	104	997195776	62	32395
2026-01-24 12:59:06.12	334.07	3.96	-46.0	-64.5	3.8	7.45e-01	0	62	104	997195776	62	32326
2026-01-24 12:59:07.14	334.14	3.90	-46.0	-64.5	3.8	7.43e-01	0	62	104	997195776	62	32417
2026-01-24 12:59:08.15	334.22	3.83	-46.0	-64.5	3.8	7.43e-01	0	62	104	997195776	62	32384
2026-01-24 12:59:09.16	334.29	3.77	-46.0	-64.5	3.8	7.45e-01	0	62	104	997195776	62	32325
2026-01-24 12:59:10.17	334.36	3.70	-46.0	-64.5	3.8	7.44e-01	0	62	104	997195776	62	32395
2026-01-24 12:59:11.18	334.43	3.64	-45.6	-64.5	3.8	7.48e-01	0	62	104	997195776	62	32357
2026-01-24 12:59:12.19	334.50	3.58	-46.0	-64.5	3.8	7.42e-01	0	62	104	997195776	62	32421
2026-01-24 12:59:13.20	334.58	3.51	-46.0	-64.5	3.8	7.41e-01	0	62	104	997195776	62	32356
2026-01-24 12:59:14.21	334.65	3.45	-46.0	-64.5	3.8	7.45e-01	0	62	104	997195776	62	32341
2026-01-24 12:59:15.22	334.72	3.38	-46.0	-64.5	3.8	7.45e-01	0	62	104	997195776	62	32338
2026-01-24 12:59:16.24	334.79	3.32	-46.0	-64.5	3.8	7.45e-01	0	62	104	997195776	62	32274
2026-01-24 12:59:17.25	334.86	3.26	-46.0	-64.5	3.8	7.44e-01	0	62	104	997195776	62	32309
2026-01-24 12:59:18.25	334.93	3.19	-46.0	-64.5	3.8	7.44e-01	0	62	104	997195776	62	32425
2026-01-24 12:59:19.26	335.00	3.13	-46.0	-64.5	3.8	7.45e-01	0	62	104	997195776	62	32373
2026-01-24 12:59:20.27	335.06	3.07	-46.0	-64.5	3.8	7.48e-01	0	62	104	997195776	62	32366
2026-01-24 12:59:21.28	335.13	3.01	-46.0	-64.5	3.8	7.47e-01	0	62	104	997195776	62	32374
2026-01-24 12:59:22.30	335.20	2.94	-46.0	-64.5	3.8	7.49e-01	0	62	104	997195776	62	32285
2026-01-24 12:59:23.31	335.27	2.88	-46.0	-64.5	3.8	7.45e-01	0	62	104	997195776	62	32381
2026-01-24 12:59:24.32	335.34	2.82	-46.0	-64.5	3.8	7.47e-01	0	62	104	997195776	62	32300
2026-01-24 12:59:25.33	335.40	2.76	-46.0	-64.5	3.8	7.47e-01	0	62	104	997195776	62	32353
2026-01-24 12:59:26.34	335.47	2.69	-46.0	-64.5	3.8	7.47e-01	0	62	104	997195776	62	32303
2026-01-24 12:59:27.35	335.54	2.63	-46.0	-64.5	3.8	7.45e-01	0	62	104	997195776	62	32328
2026-01-24 12:59:28.36	335.61	2.57	-46.0	-64.5	3.8	7.45e-01	0	62	104	997195776	62	32348
2026-01-24 12:59:29.37	335.67	2.51	-46.0	-64.5	3.8	7.42e-01	0	62	104	997195776	62	32346
2026-01-24 12:59:30.38	335.74	2.45	-46.0	-64.5	3.8	7.49e-01	0	62	104	997195776	62	32354
2026-01-24 12:59:31.39	335.80	2.38	-46.0	-64.5	3.8	7.46e-01	0	62	104	997195776	62	32385
2026-01-24 12:59:32.40	335.87	2.32	-46.0	-64.5	3.8	7.47e-01	0	62	104	997195776	62	32297
2026-01-24 12:59:33.41	335.93	2.26	-46.0	-64.5	3.8	7.46e-01	0	62	104	997195776	62	32343
2026-01-24 12:59:34.42	336.00	2.20	-46.0	-64.5	3.8	7.43e-01	0	62	104	997195776	62	32338
2026-01-24 12:59:35.43	336.06	2.14	-46.0	-64.5	3.8	7.45e-01	0	62	104	997195776	62	32314
2026-01-24 12:59:36.44	336.13	2.08	-46.0	-64.5	3.8	7.45e-01	0	62	104	997195776	62	32283
2026-01-24 12:59:37.45	336.19	2.02	-46.0	-64.5	3.8	7.43e-01	0	62	104	997195776	62	32278
2026-01-24 12:59:38.47	336.26	1.96	-45.9	-64.5	3.8	7.48e-01	0	62	104	997195776	62	32319

#Closed at: 2026-01-24 12:59:38
#Recorded file [997 MB]: D:/lorett/data/31039_260124_154844.dat