passes_logs/2026/01/24/R2.0S_Moscow/R2.0S_Moscow__20260124_042657_FENGYUN_3E_rec.log

#Pass ID: 20260124_042657_FENGYUN 3E
#Satellite: FENGYUN 3E
#Configuration: FENGYUN 3E
#almurnet v.1.7.20251203
#Start time: 2026-01-24 04:26:58

#Version: 2.2.20231116
#Station: R2.0S_Moscow
#Location: 37.707566 lon 55.798166 lat
#TLE: 1 49008U 21062A   26022.96857035  .00000014  00000+0  27449-4 0  9991
#TLE: 2 49008  98.7488  28.0032 0002359 122.8887 237.2516 14.19886951235971

#Time	Az	El	Level	Level2	SNR	BER	BlckErr	Temp	State	Recorded	gain1	gain2
2026-01-24 04:26:58.30	14.06	2.07	-42.6	-53.5	3.8	8.45e-01	0	52	0	0	56	12216
2026-01-24 04:26:59.31	14.04	2.13	-42.6	-53.5	3.8	8.47e-01	0	52	104	0	56	12228
2026-01-24 04:27:00.32	14.02	2.19	-42.6	-53.5	3.8	8.45e-01	0	52	104	0	56	12226
2026-01-24 04:27:01.33	14.00	2.26	-42.6	-53.5	3.8	8.46e-01	0	53	104	0	56	12188
2026-01-24 04:27:02.34	13.98	2.32	-42.6	-53.5	3.8	8.47e-01	0	53	104	0	56	12217
2026-01-24 04:27:03.35	13.97	2.39	-42.6	-53.5	3.8	8.47e-01	0	53	104	0	56	12228
2026-01-24 04:27:04.36	13.95	2.45	-42.6	-53.5	3.8	8.46e-01	0	53	104	0	56	12151
2026-01-24 04:27:05.37	13.93	2.52	-42.6	-53.5	3.8	8.46e-01	0	53	104	0	56	12146
2026-01-24 04:27:06.38	13.91	2.58	-42.6	-53.6	3.8	8.46e-01	0	53	104	0	56	12248
2026-01-24 04:27:07.39	13.89	2.65	-42.6	-53.5	3.8	8.46e-01	0	53	104	0	56	12129
2026-01-24 04:27:08.40	13.87	2.71	-42.6	-53.5	3.8	8.47e-01	0	53	104	0	56	12173
2026-01-24 04:27:09.42	13.85	2.78	-42.6	-53.5	3.8	8.46e-01	0	53	104	0	56	12206
2026-01-24 04:27:10.43	13.83	2.84	-42.6	-53.5	3.8	8.46e-01	0	54	104	0	56	12187
2026-01-24 04:27:11.44	13.82	2.91	-42.6	-53.5	3.8	8.45e-01	0	53	104	0	56	12184
2026-01-24 04:27:12.45	13.80	2.98	-42.6	-53.6	3.8	8.45e-01	0	53	104	0	56	12248
2026-01-24 04:27:13.46	13.78	3.04	-42.6	-53.5	3.8	8.46e-01	0	53	104	0	56	12226
2026-01-24 04:27:14.47	13.76	3.11	-42.6	-53.5	3.8	8.45e-01	0	54	104	0	56	12117
2026-01-24 04:27:15.48	13.74	3.18	-42.6	-53.5	3.8	8.46e-01	0	54	104	0	56	12145
2026-01-24 04:27:16.49	13.72	3.24	-42.6	-53.5	3.8	8.46e-01	0	54	104	0	56	12110
2026-01-24 04:27:17.50	13.70	3.31	-42.6	-53.4	3.8	8.45e-01	0	54	104	0	56	12078
2026-01-24 04:27:18.51	13.68	3.38	-42.6	-53.4	3.8	8.45e-01	0	54	104	0	56	12086
2026-01-24 04:27:19.52	13.66	3.44	-42.6	-53.4	3.8	8.46e-01	0	54	104	0	56	12094
2026-01-24 04:27:20.53	13.64	3.51	-42.6	-53.4	3.8	8.47e-01	0	54	104	0	56	12003
2026-01-24 04:27:21.54	13.62	3.58	-42.6	-53.3	3.8	8.45e-01	0	54	104	0	56	11871
2026-01-24 04:27:22.55	13.60	3.65	-42.6	-53.2	3.8	8.47e-01	0	54	104	0	56	11799
2026-01-24 04:27:23.56	13.58	3.71	-42.6	-53.2	3.8	8.46e-01	0	54	104	0	56	11800
2026-01-24 04:27:24.58	13.55	3.78	-42.5	-53.2	3.8	8.45e-01	0	54	104	0	56	11709
2026-01-24 04:27:25.59	13.53	3.85	-42.5	-53.0	3.8	8.46e-01	0	54	104	0	56	11500
2026-01-24 04:27:26.60	13.51	3.92	-42.5	-53.0	3.8	8.48e-01	0	54	104	0	56	11502
2026-01-24 04:27:27.61	13.49	3.99	-42.5	-52.8	3.8	8.45e-01	0	54	104	0	56	11214
2026-01-24 04:27:28.62	13.47	4.05	-42.5	-52.7	3.8	8.46e-01	0	54	104	0	56	11047
2026-01-24 04:27:29.63	13.45	4.12	-42.5	-52.7	3.8	8.47e-01	0	55	104	0	56	11062
2026-01-24 04:27:30.64	13.43	4.19	-42.3	-52.3	3.8	8.46e-01	0	55	104	0	55	11215
2026-01-24 04:27:31.65	13.41	4.26	-42.3	-52.2	3.8	8.46e-01	0	55	104	0	55	11052
2026-01-24 04:27:32.66	13.38	4.33	-42.3	-52.2	3.8	8.46e-01	0	55	104	0	55	11100
2026-01-24 04:27:33.67	13.36	4.40	-42.3	-52.0	3.8	8.45e-01	0	55	104	0	55	10810
2026-01-24 04:27:34.68	13.34	4.47	-42.2	-51.8	3.8	8.46e-01	0	55	104	0	55	10620
2026-01-24 04:27:35.69	13.32	4.54	-42.2	-51.9	3.8	8.45e-01	0	55	104	0	55	10693
2026-01-24 04:27:36.70	13.30	4.61	-42.2	-51.8	3.8	8.45e-01	0	55	104	0	55	10576
2026-01-24 04:27:37.72	13.27	4.68	-42.2	-51.6	3.9	8.45e-01	0	55	104	0	55	10373
2026-01-24 04:27:38.73	13.25	4.75	-42.2	-51.9	3.8	8.46e-01	0	55	104	0	55	10729
2026-01-24 04:27:39.74	13.23	4.82	-42.3	-52.1	3.8	8.46e-01	0	55	104	0	55	10935
2026-01-24 04:27:40.75	13.21	4.89	-42.3	-52.0	3.8	8.45e-01	0	55	104	0	55	10801
2026-01-24 04:27:41.76	13.18	4.96	-42.3	-52.1	3.8	8.46e-01	0	56	104	0	55	10965
2026-01-24 04:27:42.77	13.16	5.03	-42.3	-52.1	3.8	8.46e-01	0	55	104	0	55	10985
2026-01-24 04:27:43.78	13.14	5.10	-42.3	-52.1	3.8	8.45e-01	0	55	104	0	55	10985
2026-01-24 04:27:44.79	13.11	5.18	-42.2	-51.9	3.8	8.46e-01	0	56	104	0	55	10754
2026-01-24 04:27:45.80	13.09	5.25	-42.2	-51.3	3.9	8.44e-01	0	56	104	0	55	10033
2026-01-24 04:27:46.81	13.07	5.32	-42.1	-51.1	3.9	8.45e-01	0	55	104	0	55	9723
2026-01-24 04:27:47.82	13.04	5.39	-42.1	-50.7	4.0	8.44e-01	0	56	104	0	55	9321
2026-01-24 04:27:48.83	13.02	5.46	-42.0	-50.4	4.1	8.44e-01	0	56	104	0	55	9025
2026-01-24 04:27:49.84	13.00	5.54	-42.0	-50.3	4.1	8.41e-01	0	56	0	0	55	8944
2026-01-24 04:27:50.85	12.97	5.61	-42.0	-50.3	4.0	8.41e-01	0	56	0	0	55	8958
2026-01-24 04:27:51.86	12.95	5.68	-42.0	-50.0	4.1	8.39e-01	0	56	0	0	54	9162
2026-01-24 04:27:52.87	12.92	5.75	-41.9	-49.9	4.2	8.39e-01	0	56	0	0	54	8967
2026-01-24 04:27:53.88	12.90	5.83	-42.0	-50.0	4.1	8.38e-01	0	56	0	0	54	9090
2026-01-24 04:27:54.89	12.87	5.90	-41.9	-49.9	4.2	8.37e-01	0	56	0	0	54	8967
2026-01-24 04:27:55.90	12.85	5.97	-42.0	-50.5	4.0	8.41e-01	0	56	0	0	54	9615
2026-01-24 04:27:56.91	12.82	6.05	-42.1	-50.6	3.8	8.44e-01	0	56	104	0	54	9817
2026-01-24 04:27:57.92	12.80	6.12	-42.1	-51.3	3.8	8.46e-01	0	56	104	0	54	10579
2026-01-24 04:27:58.93	12.77	6.20	-42.2	-51.8	3.8	8.46e-01	0	57	104	0	54	11277
2026-01-24 04:27:59.94	12.75	6.27	-42.3	-52.5	3.8	8.47e-01	0	56	104	0	54	12214
2026-01-24 04:28:00.95	12.72	6.34	-42.4	-53.1	3.8	8.46e-01	0	56	104	0	54	13082
2026-01-24 04:28:01.96	12.70	6.42	-42.4	-53.3	3.8	8.45e-01	0	56	104	0	54	13353
2026-01-24 04:28:02.97	12.67	6.49	-42.3	-52.7	3.8	8.46e-01	0	56	104	0	54	12490
2026-01-24 04:28:03.98	12.65	6.57	-42.2	-51.5	3.8	8.46e-01	0	56	104	0	54	10870
2026-01-24 04:28:04.99	12.62	6.64	-41.9	-49.7	4.2	8.40e-01	0	57	0	0	54	8843
2026-01-24 04:28:06.00	12.59	6.72	-41.6	-48.2	4.8	8.10e-01	0	57	0	0	54	7392
2026-01-24 04:28:07.01	12.57	6.80	-41.2	-46.9	5.5	7.38e-01	0	57	0	0	53	6766
2026-01-24 04:28:08.02	12.54	6.87	-40.7	-45.5	6.6	2.55e-01	0	57	0	5242880	52	6083
2026-01-24 04:28:09.04	12.51	6.95	-40.3	-44.3	7.8	1.05e-01	0	57	0	12582912	51	5625
2026-01-24 04:28:10.05	12.49	7.03	-39.8	-43.3	8.8	4.24e-02	0	57	0	19922944	50	5329
2026-01-24 04:28:11.06	12.46	7.10	-39.3	-42.5	9.7	1.45e-02	0	57	0	27262976	49	5105
2026-01-24 04:28:12.07	12.43	7.18	-39.0	-41.9	10.3	6.47e-03	0	57	0	34603008	49	4776
2026-01-24 04:28:13.08	12.40	7.26	-38.7	-41.4	10.8	2.85e-03	0	57	0	41943040	48	4797
2026-01-24 04:28:14.09	12.38	7.33	-38.3	-40.8	11.2	1.49e-03	0	57	0	49283072	47	4743
2026-01-24 04:28:15.10	12.35	7.41	-38.1	-40.5	11.6	9.75e-04	0	57	0	56623104	47	4579
2026-01-24 04:28:16.11	12.32	7.49	-37.9	-40.3	11.9	6.20e-04	0	57	0	63963136	46	4712
2026-01-24 04:28:17.12	12.29	7.57	-37.9	-40.3	11.8	5.42e-04	0	57	0	70254592	46	4738
2026-01-24 04:28:18.13	12.26	7.65	-37.9	-40.3	11.8	3.90e-04	0	57	0	77594624	46	4754
2026-01-24 04:28:19.15	12.24	7.73	-38.0	-40.4	11.7	6.04e-04	0	57	0	85983232	46	4795
2026-01-24 04:28:20.16	12.21	7.80	-38.2	-40.8	11.2	1.16e-03	0	57	0	92274688	46	5038
2026-01-24 04:28:21.17	12.18	7.88	-38.4	-41.1	11.0	1.80e-03	0	57	0	99614720	46	5179
2026-01-24 04:28:22.18	12.15	7.96	-38.6	-41.4	10.6	3.87e-03	0	57	0	106954752	46	5398
2026-01-24 04:28:23.19	12.12	8.04	-39.0	-42.0	10.0	8.70e-03	0	57	0	114294784	47	5462
2026-01-24 04:28:24.20	12.09	8.12	-38.9	-41.8	10.2	8.34e-03	0	57	0	121634816	47	5321
2026-01-24 04:28:25.21	12.06	8.20	-40.6	-44.9	7.5	2.04e-01	0	57	0	128974848	52	5657
2026-01-24 04:28:26.22	12.03	8.28	-40.3	-44.7	7.1	1.98e-01	0	58	0	136314880	50	6250
2026-01-24 04:28:27.24	12.00	8.36	-38.0	-40.4	11.7	1.30e-03	0	57	0	143654912	46	4786
2026-01-24 04:28:28.24	11.97	8.44	-42.0	-51.1	3.9	8.46e-01	0	57	104	146800640	53	10928
2026-01-24 04:28:29.25	11.94	8.52	-37.8	-40.1	12.0	3.63e-04	0	57	0	152043520	46	4642
2026-01-24 04:28:30.26	11.91	8.61	-37.8	-40.2	11.9	3.29e-04	0	57	0	159383552	46	4678
2026-01-24 04:28:31.27	11.88	8.69	-37.8	-40.2	11.9	3.48e-04	0	58	0	166723584	46	4656
2026-01-24 04:28:32.28	11.85	8.77	-37.7	-40.1	12.0	2.48e-04	0	58	0	173015040	46	4601
2026-01-24 04:28:33.29	11.82	8.85	-37.8	-40.1	11.9	3.54e-04	0	57	0	181403648	46	4643
2026-01-24 04:28:34.31	11.79	8.93	-37.8	-40.1	11.9	3.38e-04	0	58	0	188743680	46	4629
2026-01-24 04:28:35.32	11.75	9.02	-37.8	-40.2	11.8	5.03e-04	0	58	0	195035136	46	4683
2026-01-24 04:28:36.32	11.72	9.10	-37.9	-40.3	11.8	3.40e-04	0	58	0	202375168	46	4727
2026-01-24 04:28:37.34	11.69	9.18	-37.9	-40.3	11.8	5.31e-04	0	58	0	209715200	46	4710
2026-01-24 04:28:38.35	11.66	9.27	-37.9	-40.4	11.6	6.65e-04	0	58	0	217055232	46	4797
2026-01-24 04:28:39.36	11.63	9.35	-38.0	-40.5	11.5	7.13e-04	0	58	0	224395264	46	4834
2026-01-24 04:28:40.36	11.59	9.43	-38.1	-40.6	11.4	7.70e-04	0	58	0	231735296	46	4893
2026-01-24 04:28:41.38	11.56	9.52	-37.9	-40.4	11.7	5.61e-04	0	58	0	239075328	46	4781
2026-01-24 04:28:42.39	11.53	9.60	-38.0	-40.5	11.5	6.49e-04	0	58	0	246415360	46	4825
2026-01-24 04:28:43.40	11.50	9.69	-38.0	-40.4	11.6	5.47e-04	0	58	0	253755392	46	4793
2026-01-24 04:28:44.40	11.46	9.77	-37.8	-40.2	11.8	4.89e-04	0	58	0	261095424	46	4696
2026-01-24 04:28:45.41	11.43	9.86	-37.8	-40.1	12.0	3.23e-04	0	58	0	268435456	46	4633
2026-01-24 04:28:46.42	11.39	9.94	-37.8	-40.2	11.8	3.55e-04	0	58	0	275775488	46	4695
2026-01-24 04:28:47.43	11.36	10.03	-37.9	-40.3	11.8	3.11e-04	0	58	0	283115520	46	4706
2026-01-24 04:28:48.44	11.33	10.11	-37.9	-40.3	11.7	6.08e-04	0	58	0	290455552	46	4725
2026-01-24 04:28:49.45	11.29	10.20	-38.0	-40.5	11.5	7.40e-04	0	58	0	297795584	46	4824
2026-01-24 04:28:50.46	11.26	10.29	-38.3	-40.9	11.1	1.35e-03	0	58	0	305135616	46	5049
2026-01-24 04:28:51.47	11.22	10.37	-38.3	-41.0	10.9	1.48e-03	0	58	0	312475648	46	5117
2026-01-24 04:28:52.48	11.19	10.46	-38.6	-41.4	10.5	3.21e-03	0	58	0	319815680	46	5357
2026-01-24 04:28:53.49	11.15	10.55	-38.7	-41.7	10.2	4.60e-03	0	58	0	326107136	46	5539
2026-01-24 04:28:54.50	11.12	10.64	-38.8	-41.8	10.1	5.89e-03	0	58	0	334495744	47	5292
2026-01-24 04:28:55.51	11.08	10.72	-39.0	-42.0	9.8	7.90e-03	0	58	0	341835776	47	5427
2026-01-24 04:28:56.52	11.04	10.81	-38.9	-41.9	10.1	6.87e-03	0	59	0	348127232	47	5360
2026-01-24 04:28:57.52	11.01	10.90	-38.9	-41.8	10.4	5.19e-03	0	59	0	355467264	47	5287
2026-01-24 04:28:58.53	10.97	10.99	-38.9	-41.8	10.4	4.37e-03	0	58	0	362807296	47	5310
2026-01-24 04:28:59.54	10.93	11.08	-38.9	-41.8	10.3	4.55e-03	0	58	0	370147328	47	5314
2026-01-24 04:29:00.55	10.90	11.17	-38.8	-41.6	10.5	4.44e-03	0	59	0	377487360	47	5218
2026-01-24 04:29:01.56	10.86	11.26	-38.7	-41.3	11.1	1.39e-03	0	58	0	384827392	47	5002
2026-01-24 04:29:02.57	10.82	11.35	-38.5	-41.0	11.4	9.76e-04	0	59	0	392167424	47	4839
2026-01-24 04:29:03.58	10.78	11.44	-38.4	-40.9	11.5	5.70e-04	0	59	0	399507456	47	4787
2026-01-24 04:29:04.59	10.75	11.53	-38.2	-40.6	11.8	4.99e-04	0	59	0	406847488	47	4604
2026-01-24 04:29:05.60	10.71	11.62	-38.0	-40.3	12.3	1.89e-04	0	59	0	414187520	47	4468
2026-01-24 04:29:06.61	10.67	11.71	-37.9	-40.1	12.6	9.38e-05	0	59	0	421527552	46	4632
2026-01-24 04:29:07.62	10.63	11.81	-37.6	-39.6	13.2	2.86e-05	0	59	0	428867584	46	4386
2026-01-24 04:29:08.63	10.59	11.90	-37.4	-39.3	13.7	8.00e-06	0	59	0	436207616	45	4448
2026-01-24 04:29:09.64	10.55	11.99	-37.3	-39.2	13.9	4.50e-06	0	59	0	443547648	45	4411
2026-01-24 04:29:10.65	10.51	12.08	-37.4	-39.3	13.9	4.50e-06	0	59	0	450887680	45	4442
2026-01-24 04:29:11.66	10.47	12.18	-37.1	-38.9	14.3	2.20e-06	0	59	0	458227712	45	4259
2026-01-24 04:29:12.67	10.43	12.27	-37.2	-38.9	14.3	2.20e-06	0	59	0	465567744	45	4277
2026-01-24 04:29:13.68	10.39	12.37	-37.1	-38.8	14.5	0.00e+00	0	59	0	471859200	45	4229
2026-01-24 04:29:14.69	10.35	12.46	-37.1	-38.9	14.5	0.00e+00	0	59	0	479199232	45	4251
2026-01-24 04:29:15.70	10.31	12.55	-37.1	-38.8	14.6	0.00e+00	0	59	0	487587840	45	4232
2026-01-24 04:29:16.71	10.27	12.65	-37.4	-39.1	14.3	0.00e+00	0	59	0	493879296	45	4376
2026-01-24 04:29:17.72	10.23	12.75	-37.5	-39.3	14.3	1.10e-06	0	59	0	501219328	45	4442
2026-01-24 04:29:18.72	10.18	12.84	-37.6	-39.4	14.1	0.00e+00	0	59	0	508559360	45	4541
2026-01-24 04:29:19.73	10.14	12.94	-37.6	-39.4	14.3	0.00e+00	0	59	0	515899392	45	4517
2026-01-24 04:29:20.74	10.10	13.03	-37.2	-38.8	14.9	0.00e+00	0	59	0	523239424	45	4237
2026-01-24 04:29:21.75	10.06	13.13	-37.0	-38.6	15.1	0.00e+00	0	59	0	530579456	44	4367
2026-01-24 04:29:22.76	10.01	13.23	-36.7	-38.2	15.5	0.00e+00	0	59	0	537919488	44	4189
2026-01-24 04:29:23.77	9.97	13.33	-36.9	-38.5	15.3	0.00e+00	0	59	0	545259520	44	4292
2026-01-24 04:29:24.78	9.92	13.42	-37.1	-38.8	15.0	0.00e+00	0	59	0	552599552	44	4454
2026-01-24 04:29:25.79	9.88	13.52	-37.2	-38.8	15.1	1.10e-06	0	59	0	559939584	44	4469
2026-01-24 04:29:26.80	9.84	13.62	-37.1	-38.7	15.2	0.00e+00	0	59	0	567279616	44	4415
2026-01-24 04:29:27.80	9.79	13.72	-36.8	-38.4	15.5	0.00e+00	0	59	0	574619648	44	4267
2026-01-24 04:29:28.81	9.75	13.82	-37.0	-38.5	15.4	0.00e+00	0	59	0	581959680	44	4336
2026-01-24 04:29:29.82	9.70	13.92	-37.0	-38.6	15.4	0.00e+00	0	59	0	589299712	44	4376
2026-01-24 04:29:30.83	9.65	14.02	-37.0	-38.6	15.4	0.00e+00	0	59	0	596639744	44	4357
2026-01-24 04:29:31.84	9.61	14.12	-36.9	-38.5	15.5	0.00e+00	0	59	0	603979776	44	4312
2026-01-24 04:29:32.85	9.56	14.22	-36.8	-38.3	15.6	0.00e+00	0	59	0	611319808	44	4240
2026-01-24 04:29:33.86	9.51	14.32	-37.0	-38.5	15.5	0.00e+00	0	59	0	618659840	44	4324
2026-01-24 04:29:34.87	9.47	14.42	-36.9	-38.4	15.7	0.00e+00	0	59	0	624951296	44	4246
2026-01-24 04:29:35.88	9.42	14.53	-36.9	-38.4	15.7	0.00e+00	0	59	0	632291328	44	4273
2026-01-24 04:29:36.89	9.37	14.63	-36.9	-38.4	15.7	0.00e+00	0	59	0	639631360	44	4275
2026-01-24 04:29:37.90	9.32	14.73	-36.9	-38.3	15.8	0.00e+00	0	59	0	646971392	44	4241
2026-01-24 04:29:38.91	9.27	14.84	-36.9	-38.4	15.8	0.00e+00	0	59	0	654311424	44	4277
2026-01-24 04:29:39.92	9.23	14.94	-36.9	-38.4	15.8	0.00e+00	0	59	0	661651456	44	4269
2026-01-24 04:29:40.93	9.18	15.04	-36.8	-38.2	16.0	0.00e+00	0	59	0	668991488	44	4191
2026-01-24 04:29:41.94	9.13	15.15	-36.8	-38.3	16.0	0.00e+00	0	60	0	676331520	44	4228
2026-01-24 04:29:42.95	9.08	15.26	-36.9	-38.4	15.9	0.00e+00	0	59	0	683671552	44	4270
2026-01-24 04:29:43.96	9.03	15.36	-36.8	-38.3	16.0	0.00e+00	0	59	0	691011584	44	4205
2026-01-24 04:29:44.97	8.97	15.47	-36.8	-38.2	16.1	0.00e+00	0	60	0	698351616	44	4179
2026-01-24 04:29:45.98	8.92	15.57	-36.8	-38.2	16.1	0.00e+00	0	59	0	705691648	44	4192
2026-01-24 04:29:46.99	8.87	15.68	-36.8	-38.2	16.2	0.00e+00	0	60	0	713031680	44	4173
2026-01-24 04:29:48.00	8.82	15.79	-36.7	-38.2	16.2	0.00e+00	0	60	0	720371712	44	4153
2026-01-24 04:29:49.01	8.77	15.90	-36.7	-38.2	16.3	0.00e+00	0	60	0	727711744	44	4150
2026-01-24 04:29:50.02	8.71	16.00	-36.7	-38.2	16.3	0.00e+00	0	59	0	735051776	44	4148
2026-01-24 04:29:51.03	8.66	16.11	-36.8	-38.2	16.2	0.00e+00	0	60	0	742391808	44	4173
2026-01-24 04:29:52.04	8.61	16.22	-36.8	-38.2	16.3	0.00e+00	0	60	0	748683264	44	4150
2026-01-24 04:29:53.05	8.55	16.33	-36.8	-38.2	16.3	0.00e+00	0	60	0	757071872	44	4158
2026-01-24 04:29:54.06	8.50	16.44	-36.8	-38.2	16.3	0.00e+00	0	60	0	764411904	44	4184
2026-01-24 04:29:55.06	8.44	16.55	-36.8	-38.3	16.2	0.00e+00	0	60	0	770703360	44	4209
2026-01-24 04:29:56.07	8.39	16.66	-36.8	-38.3	16.3	0.00e+00	0	60	0	778043392	44	4196
2026-01-24 04:29:57.08	8.33	16.78	-36.8	-38.2	16.3	0.00e+00	0	60	0	785383424	44	4185
2026-01-24 04:29:58.09	8.28	16.89	-36.8	-38.3	16.3	0.00e+00	0	60	0	792723456	44	4197
2026-01-24 04:29:59.10	8.22	17.00	-36.8	-38.2	16.4	0.00e+00	0	60	0	800063488	44	4154
2026-01-24 04:30:00.12	8.16	17.12	-36.8	-38.2	16.4	0.00e+00	0	60	0	807403520	44	4178
2026-01-24 04:30:01.13	8.10	17.23	-36.8	-38.1	16.4	0.00e+00	0	60	0	814743552	44	4143
2026-01-24 04:30:02.14	8.04	17.34	-36.6	-38.0	16.6	0.00e+00	0	60	0	822083584	44	4056
2026-01-24 04:30:03.15	7.99	17.46	-36.6	-38.0	16.6	0.00e+00	0	60	0	829423616	44	4085
2026-01-24 04:30:04.16	7.93	17.57	-36.6	-38.0	16.6	0.00e+00	0	60	0	836763648	44	4081
2026-01-24 04:30:05.17	7.87	17.69	-36.5	-37.9	16.8	0.00e+00	0	60	0	844103680	44	4010
2026-01-24 04:30:06.18	7.81	17.81	-36.3	-37.6	16.9	0.00e+00	0	60	0	851443712	43	4127
2026-01-24 04:30:07.19	7.75	17.92	-36.2	-37.6	16.9	0.00e+00	0	60	0	858783744	43	4106
2026-01-24 04:30:08.20	7.68	18.04	-36.2	-37.6	16.9	0.00e+00	0	60	0	866123776	43	4108
2026-01-24 04:30:09.21	7.62	18.16	-36.2	-37.5	17.0	0.00e+00	0	60	0	873463808	43	4066
2026-01-24 04:30:10.21	7.56	18.27	-36.0	-37.3	17.3	0.00e+00	0	60	0	880803840	43	3967
2026-01-24 04:30:11.22	7.50	18.39	-36.0	-37.2	17.3	0.00e+00	0	60	0	888143872	42	4183
2026-01-24 04:30:12.24	7.43	18.51	-36.0	-37.3	17.2	0.00e+00	0	60	0	895483904	42	4224
2026-01-24 04:30:13.25	7.37	18.63	-36.1	-37.3	17.2	0.00e+00	0	60	0	902823936	42	4235
2026-01-24 04:30:14.26	7.31	18.75	-36.2	-37.5	17.1	0.00e+00	0	60	0	910163968	42	4312
2026-01-24 04:30:15.27	7.24	18.88	-36.0	-37.2	17.3	0.00e+00	0	60	0	917504000	42	4187
2026-01-24 04:30:16.28	7.18	19.00	-36.1	-37.4	17.2	0.00e+00	0	60	0	923795456	42	4285
2026-01-24 04:30:17.29	7.11	19.12	-36.1	-37.3	17.2	0.00e+00	0	60	0	931135488	42	4239
2026-01-24 04:30:18.30	7.04	19.24	-36.1	-37.4	17.2	0.00e+00	0	60	0	939524096	42	4279
2026-01-24 04:30:19.31	6.98	19.37	-36.2	-37.5	17.1	0.00e+00	0	60	0	945815552	42	4305
2026-01-24 04:30:20.32	6.91	19.49	-36.2	-37.5	17.1	0.00e+00	0	60	0	953155584	42	4309
2026-01-24 04:30:21.32	6.84	19.61	-35.9	-37.2	17.4	0.00e+00	0	60	0	960495616	42	4159
2026-01-24 04:30:22.33	6.77	19.74	-36.0	-37.3	17.3	0.00e+00	0	60	0	967835648	42	4196
2026-01-24 04:30:23.35	6.70	19.86	-35.9	-37.2	17.4	0.00e+00	0	60	0	975175680	42	4164
2026-01-24 04:30:24.36	6.63	19.99	-36.0	-37.3	17.3	0.00e+00	0	60	0	982515712	42	4211
2026-01-24 04:30:25.36	6.56	20.12	-36.0	-37.2	17.4	0.00e+00	0	60	0	989855744	42	4186
2026-01-24 04:30:26.37	6.49	20.24	-36.0	-37.2	17.4	0.00e+00	0	60	0	997195776	42	4179
2026-01-24 04:30:27.38	6.42	20.37	-36.0	-37.2	17.4	0.00e+00	0	60	0	1004535808	42	4191
2026-01-24 04:30:28.39	6.35	20.50	-36.0	-37.3	17.4	0.00e+00	0	60	0	1011875840	42	4213
2026-01-24 04:30:29.40	6.27	20.63	-35.9	-37.2	17.4	0.00e+00	0	60	0	1019215872	42	4170
2026-01-24 04:30:30.41	6.20	20.76	-36.0	-37.3	17.3	0.00e+00	0	60	0	1026555904	42	4228
2026-01-24 04:30:31.42	6.13	20.89	-36.1	-37.4	17.2	0.00e+00	0	60	0	1033895936	42	4276
2026-01-24 04:30:32.43	6.05	21.02	-36.0	-37.3	17.4	0.00e+00	0	60	0	1041235968	42	4200
2026-01-24 04:30:33.44	5.97	21.15	-36.1	-37.4	17.3	0.00e+00	0	60	0	1048576000	42	4249
2026-01-24 04:30:34.45	5.90	21.29	-36.1	-37.4	17.3	0.00e+00	0	60	0	1055916032	42	4269
2026-01-24 04:30:35.46	5.82	21.42	-36.0	-37.2	17.4	0.00e+00	0	60	0	1063256064	42	4186
2026-01-24 04:30:36.47	5.74	21.55	-36.1	-37.3	17.3	0.00e+00	0	60	0	1070596096	42	4241
2026-01-24 04:30:37.48	5.66	21.69	-36.1	-37.3	17.4	0.00e+00	0	60	0	1076887552	42	4229
2026-01-24 04:30:38.49	5.58	21.82	-36.0	-37.2	17.5	0.00e+00	0	60	0	1084227584	42	4186
2026-01-24 04:30:39.50	5.50	21.96	-36.0	-37.2	17.5	0.00e+00	0	60	0	1092616192	42	4178
2026-01-24 04:30:40.51	5.42	22.09	-35.9	-37.1	17.6	0.00e+00	0	60	0	1098907648	42	4131
2026-01-24 04:30:41.52	5.34	22.23	-35.7	-36.9	17.8	0.00e+00	0	60	0	1106247680	42	4045
2026-01-24 04:30:42.53	5.26	22.37	-35.7	-36.9	17.8	0.00e+00	0	60	0	1113587712	42	4044
2026-01-24 04:30:43.54	5.18	22.51	-35.7	-36.9	17.8	0.00e+00	0	60	0	1120927744	42	4022
2026-01-24 04:30:44.55	5.09	22.65	-35.7	-36.9	17.8	0.00e+00	0	60	0	1128267776	42	4018
2026-01-24 04:30:45.56	5.01	22.79	-35.7	-36.9	17.8	0.00e+00	0	60	0	1135607808	42	4036
2026-01-24 04:30:46.57	4.92	22.93	-35.6	-36.7	18.0	0.00e+00	0	61	0	1142947840	42	3953
2026-01-24 04:30:47.58	4.84	23.07	-35.5	-36.7	18.0	0.00e+00	0	60	0	1150287872	42	3944
2026-01-24 04:30:48.59	4.75	23.21	-35.5	-36.7	18.0	0.00e+00	0	60	0	1157627904	41	4156
2026-01-24 04:30:49.60	4.66	23.35	-35.5	-36.6	18.1	0.00e+00	0	60	0	1164967936	41	4141
2026-01-24 04:30:50.61	4.57	23.50	-35.4	-36.6	18.2	0.00e+00	0	60	0	1172307968	41	4104
2026-01-24 04:30:51.62	4.48	23.64	-35.5	-36.7	18.0	0.00e+00	0	60	0	1179648000	41	4170
2026-01-24 04:30:52.63	4.39	23.78	-35.6	-36.8	18.0	0.00e+00	0	60	0	1186988032	41	4196
2026-01-24 04:30:53.64	4.30	23.93	-35.4	-36.6	18.1	0.00e+00	0	60	0	1194328064	41	4115
2026-01-24 04:30:54.65	4.21	24.08	-35.5	-36.7	18.1	0.00e+00	0	61	0	1201668096	41	4151
2026-01-24 04:30:55.66	4.12	24.22	-35.4	-36.6	18.1	0.00e+00	0	61	0	1209008128	41	4131
2026-01-24 04:30:56.67	4.02	24.37	-35.4	-36.6	18.2	0.00e+00	0	61	0	1216348160	41	4112
2026-01-24 04:30:57.68	3.93	24.52	-35.5	-36.7	18.1	0.00e+00	0	60	0	1222639616	41	4157
2026-01-24 04:30:58.68	3.83	24.67	-35.4	-36.6	18.1	0.00e+00	0	61	0	1229979648	41	4124
2026-01-24 04:30:59.69	3.74	24.82	-35.4	-36.6	18.2	0.00e+00	0	60	0	1238368256	41	4105
2026-01-24 04:31:00.68	3.64	24.97	-35.3	-36.5	18.3	0.00e+00	0	60	0	1244659712	41	4059
2026-01-24 04:31:01.69	3.54	25.12	-35.4	-36.6	18.2	0.00e+00	0	60	0	1251999744	41	4099
2026-01-24 04:31:02.70	3.44	25.27	-35.4	-36.6	18.2	0.00e+00	0	61	0	1259339776	41	4126
2026-01-24 04:31:03.70	3.34	25.42	-35.4	-36.5	18.2	0.00e+00	0	60	0	1266679808	41	4083
2026-01-24 04:31:04.72	3.24	25.58	-35.3	-36.4	18.3	0.00e+00	0	60	0	1274019840	41	4049
2026-01-24 04:31:05.72	3.14	25.73	-35.4	-36.6	18.2	0.00e+00	0	61	0	1281359872	41	4125
2026-01-24 04:31:06.74	3.03	25.89	-35.3	-36.5	18.3	0.00e+00	0	60	0	1288699904	41	4073
2026-01-24 04:31:07.75	2.93	26.04	-35.3	-36.4	18.4	0.00e+00	0	60	0	1296039936	41	4039
2026-01-24 04:31:08.75	2.82	26.20	-35.3	-36.5	18.3	0.00e+00	0	61	0	1303379968	41	4072
2026-01-24 04:31:09.77	2.71	26.36	-35.3	-36.4	18.4	0.00e+00	0	61	0	1310720000	41	4047
2026-01-24 04:31:10.78	2.61	26.52	-35.2	-36.4	18.4	0.00e+00	0	61	0	1318060032	41	4007
2026-01-24 04:31:11.78	2.50	26.67	-35.3	-36.4	18.4	0.00e+00	0	60	0	1325400064	41	4036
2026-01-24 04:31:12.80	2.39	26.84	-35.2	-36.4	18.4	0.00e+00	0	61	0	1332740096	41	4015
2026-01-24 04:31:13.80	2.27	27.00	-35.3	-36.4	18.4	0.00e+00	0	60	0	1340080128	41	4038
2026-01-24 04:31:14.81	2.16	27.16	-35.3	-36.4	18.3	0.00e+00	0	61	0	1347420160	41	4050
2026-01-24 04:31:15.82	2.05	27.32	-35.4	-36.5	18.2	0.00e+00	0	61	0	1353711616	41	4096
2026-01-24 04:31:16.83	1.93	27.48	-35.3	-36.4	18.4	0.00e+00	0	61	0	1361051648	41	4034
2026-01-24 04:31:17.84	1.82	27.65	-35.2	-36.4	18.4	0.00e+00	0	61	0	1369440256	41	4011
2026-01-24 04:31:18.85	1.70	27.81	-35.3	-36.4	18.4	0.00e+00	0	61	0	1375731712	41	4045
2026-01-24 04:31:19.86	1.58	27.98	-35.2	-36.4	18.5	0.00e+00	0	61	0	1383071744	41	4005
2026-01-24 04:31:20.87	1.46	28.15	-35.3	-36.4	18.4	0.00e+00	0	61	0	1390411776	41	4032
2026-01-24 04:31:21.88	1.34	28.32	-35.2	-36.3	18.6	0.00e+00	0	61	0	1397751808	41	3983
2026-01-24 04:31:22.88	1.22	28.48	-35.2	-36.3	18.5	0.00e+00	0	61	0	1405091840	41	3994
2026-01-24 04:31:23.89	1.09	28.65	-35.0	-36.2	18.7	0.00e+00	0	60	0	1412431872	41	3921
2026-01-24 04:31:24.90	0.97	28.82	-35.2	-36.3	18.5	0.00e+00	0	61	0	1419771904	41	3995
2026-01-24 04:31:25.91	0.84	29.00	-35.2	-36.3	18.6	0.00e+00	0	61	0	1427111936	41	3975
2026-01-24 04:31:26.92	0.71	29.17	-35.2	-36.3	18.5	0.00e+00	0	61	0	1434451968	41	4001
2026-01-24 04:31:27.93	0.58	29.34	-35.2	-36.3	18.6	0.00e+00	0	61	0	1441792000	41	3980
2026-01-24 04:31:28.94	0.45	29.52	-35.1	-36.2	18.6	0.00e+00	0	61	0	1449132032	41	3949
2026-01-24 04:31:29.95	0.32	29.69	-35.1	-36.2	18.6	0.00e+00	0	61	0	1456472064	41	3931
2026-01-24 04:31:30.96	0.18	29.87	-35.0	-36.2	18.7	0.00e+00	0	61	0	1463812096	41	3915
2026-01-24 04:31:31.97	0.05	30.04	-35.1	-36.2	18.7	0.00e+00	0	60	0	1471152128	41	3932
2026-01-24 04:31:32.98	359.91	30.22	-35.1	-36.2	18.7	0.00e+00	0	61	0	1477443584	41	3921
2026-01-24 04:31:33.99	359.77	30.40	-34.9	-36.0	18.9	0.00e+00	0	61	0	1484783616	40	4086
2026-01-24 04:31:35.00	359.63	30.58	-35.2	-36.3	18.6	0.00e+00	0	61	0	1493172224	40	4221
2026-01-24 04:31:36.01	359.49	30.76	-34.8	-35.9	19.0	0.00e+00	0	61	0	1499463680	40	4041
2026-01-24 04:31:37.02	359.35	30.94	-34.8	-35.9	19.0	0.00e+00	0	61	0	1506803712	40	4022
2026-01-24 04:31:38.03	359.20	31.13	-34.8	-35.9	19.0	0.00e+00	0	61	0	1514143744	40	4030
2026-01-24 04:31:39.04	359.05	31.31	-34.8	-35.9	19.0	0.00e+00	0	61	0	1521483776	40	4034
2026-01-24 04:31:40.05	358.91	31.49	-34.7	-35.8	19.1	0.00e+00	0	61	0	1528823808	40	3991
2026-01-24 04:31:41.06	358.75	31.68	-34.8	-35.8	19.1	0.00e+00	0	61	0	1536163840	40	4000
2026-01-24 04:31:42.07	358.60	31.86	-34.9	-36.0	19.0	0.00e+00	0	61	0	1543503872	40	4053
2026-01-24 04:31:43.08	358.45	32.05	-34.9	-36.0	18.9	0.00e+00	0	61	0	1550843904	40	4073
2026-01-24 04:31:44.09	358.29	32.24	-34.9	-36.0	18.9	0.00e+00	0	61	0	1558183936	40	4097
2026-01-24 04:31:45.10	358.13	32.43	-35.0	-36.1	18.8	0.00e+00	0	61	0	1565523968	40	4123
2026-01-24 04:31:46.11	357.98	32.62	-35.1	-36.2	18.8	0.00e+00	0	61	0	1572864000	40	4162
2026-01-24 04:31:47.13	357.81	32.81	-35.1	-36.2	18.7	0.00e+00	0	61	0	1580204032	40	4177
2026-01-24 04:31:48.14	357.65	33.00	-35.1	-36.3	18.7	0.00e+00	0	61	0	1587544064	40	4203
2026-01-24 04:31:49.15	357.48	33.20	-35.2	-36.3	18.7	0.00e+00	0	61	0	1594884096	40	4203
2026-01-24 04:31:50.16	357.32	33.39	-35.1	-36.3	18.7	0.00e+00	0	61	0	1602224128	40	4198
2026-01-24 04:31:51.17	357.15	33.59	-35.2	-36.3	18.6	0.00e+00	0	61	0	1609564160	40	4211
2026-01-24 04:31:52.18	356.97	33.78	-35.1	-36.3	18.7	0.00e+00	0	61	0	1616904192	40	4202
2026-01-24 04:31:53.19	356.80	33.98	-35.1	-36.2	18.7	0.00e+00	0	61	0	1624244224	40	4191
2026-01-24 04:31:54.20	356.62	34.18	-35.1	-36.2	18.9	0.00e+00	0	61	0	1631584256	40	4154
2026-01-24 04:31:55.21	356.45	34.38	-35.0	-36.1	18.9	0.00e+00	0	61	0	1638924288	40	4114
2026-01-24 04:31:56.22	356.27	34.58	-34.9	-36.0	19.0	0.00e+00	0	61	0	1646264320	40	4057
2026-01-24 04:31:57.23	356.08	34.78	-35.0	-36.0	18.9	0.00e+00	0	61	0	1652555776	40	4096
2026-01-24 04:31:58.24	355.90	34.98	-35.0	-36.1	18.9	0.00e+00	0	61	0	1659895808	40	4132
2026-01-24 04:31:59.25	355.71	35.18	-34.9	-36.0	19.0	0.00e+00	0	61	0	1668284416	40	4069
2026-01-24 04:32:00.25	355.52	35.38	-34.9	-36.0	19.0	0.00e+00	0	61	0	1674575872	40	4064
2026-01-24 04:32:01.27	355.33	35.59	-34.8	-35.9	19.1	0.00e+00	0	61	0	1681915904	40	4018
2026-01-24 04:32:02.28	355.13	35.79	-34.9	-36.0	19.0	0.00e+00	0	61	0	1689255936	40	4091
2026-01-24 04:32:03.29	354.94	36.00	-35.0	-36.1	18.9	0.00e+00	0	61	0	1696595968	40	4119
2026-01-24 04:32:04.30	354.74	36.21	-34.9	-36.0	19.0	0.00e+00	0	61	0	1703936000	40	4092
2026-01-24 04:32:05.31	354.54	36.42	-35.0	-36.1	18.9	0.00e+00	0	61	0	1711276032	40	4122
2026-01-24 04:32:06.32	354.33	36.63	-34.8	-35.9	19.2	0.00e+00	0	61	0	1718616064	40	4010
2026-01-24 04:32:07.33	354.12	36.84	-35.0	-36.1	18.9	0.00e+00	0	61	0	1725956096	40	4123
2026-01-24 04:32:08.34	353.91	37.05	-35.0	-36.1	18.9	0.00e+00	0	61	0	1733296128	40	4121
2026-01-24 04:32:09.35	353.70	37.26	-34.9	-36.0	19.0	0.00e+00	0	61	0	1740636160	40	4088
2026-01-24 04:32:10.36	353.48	37.47	-35.0	-36.1	18.9	0.00e+00	0	61	0	1747976192	40	4112
2026-01-24 04:32:11.37	353.26	37.69	-35.0	-36.1	18.9	0.00e+00	0	61	0	1755316224	40	4141
2026-01-24 04:32:12.38	353.04	37.90	-35.1	-36.2	18.8	0.00e+00	0	61	0	1762656256	40	4177
2026-01-24 04:32:13.39	352.82	38.12	-35.2	-36.3	18.7	0.00e+00	0	61	0	1769996288	40	4229
2026-01-24 04:32:14.40	352.59	38.33	-35.2	-36.3	18.7	0.00e+00	0	61	0	1777336320	40	4223
2026-01-24 04:32:15.41	352.36	38.55	-35.2	-36.4	18.7	0.00e+00	0	61	0	1784676352	40	4246
2026-01-24 04:32:16.42	352.12	38.77	-35.4	-36.5	18.5	0.00e+00	0	61	0	1792016384	40	4322
2026-01-24 04:32:17.42	351.89	38.98	-35.4	-36.5	18.5	0.00e+00	0	61	0	1798307840	40	4321
2026-01-24 04:32:18.43	351.65	39.20	-35.3	-36.5	18.6	0.00e+00	0	61	0	1805647872	40	4316
2026-01-24 04:32:19.44	351.40	39.42	-35.2	-36.4	18.7	0.00e+00	0	61	0	1814036480	40	4254
2026-01-24 04:32:20.45	351.16	39.65	-35.3	-36.4	18.7	0.00e+00	0	61	0	1820327936	40	4271
2026-01-24 04:32:21.46	350.91	39.87	-35.3	-36.5	18.6	0.00e+00	0	61	0	1827667968	40	4300
2026-01-24 04:32:22.47	350.65	40.09	-35.4	-36.6	18.5	0.00e+00	0	61	0	1835008000	40	4348
2026-01-24 04:32:23.48	350.39	40.31	-35.3	-36.5	18.6	0.00e+00	0	61	0	1842348032	40	4302
2026-01-24 04:32:24.49	350.13	40.54	-35.5	-36.7	18.4	0.00e+00	0	61	0	1849688064	40	4408
2026-01-24 04:32:25.50	349.87	40.76	-35.5	-36.7	18.4	0.00e+00	0	61	0	1857028096	40	4396
2026-01-24 04:32:26.51	349.60	40.99	-35.6	-36.7	18.4	0.00e+00	0	61	0	1864368128	40	4424
2026-01-24 04:32:27.52	349.32	41.22	-35.6	-36.7	18.3	0.00e+00	0	61	0	1871708160	41	4190
2026-01-24 04:32:28.53	349.05	41.44	-35.7	-36.9	18.2	0.00e+00	0	61	0	1879048192	41	4251
2026-01-24 04:32:29.54	348.77	41.67	-35.7	-36.8	18.2	0.00e+00	0	61	0	1886388224	41	4238
2026-01-24 04:32:30.55	348.48	41.90	-35.7	-36.8	18.3	0.00e+00	0	61	0	1893728256	41	4235
2026-01-24 04:32:31.56	348.19	42.13	-35.5	-36.6	18.5	0.00e+00	0	61	0	1901068288	41	4144
2026-01-24 04:32:32.57	347.90	42.36	-35.7	-36.9	18.3	0.00e+00	0	61	0	1908408320	41	4251
2026-01-24 04:32:33.58	347.60	42.59	-35.3	-36.4	18.7	0.00e+00	0	61	0	1915748352	41	4027
2026-01-24 04:32:34.58	347.30	42.82	-35.3	-36.4	18.7	0.00e+00	0	61	0	1923088384	41	4035
2026-01-24 04:32:35.59	347.00	43.05	-35.2	-36.3	18.8	0.00e+00	0	61	0	1930428416	41	3969
2026-01-24 04:32:36.60	346.69	43.28	-35.2	-36.3	18.8	0.00e+00	0	61	0	1937768448	41	3995
2026-01-24 04:32:37.61	346.37	43.51	-34.6	-35.7	19.4	0.00e+00	0	61	0	1945108480	40	3916
2026-01-24 04:32:38.62	346.05	43.75	-35.0	-36.1	19.0	0.00e+00	0	61	0	1951399936	40	4138
2026-01-24 04:32:39.63	345.73	43.98	-35.1	-36.2	18.9	0.00e+00	0	61	0	1958739968	40	4164
2026-01-24 04:32:40.64	345.40	44.21	-35.3	-36.4	18.7	0.00e+00	0	61	0	1966080000	40	4275
2026-01-24 04:32:41.65	345.06	44.45	-35.5	-36.6	18.5	0.00e+00	0	61	0	1973420032	40	4364
2026-01-24 04:32:42.66	344.72	44.68	-35.5	-36.7	18.4	0.00e+00	0	61	0	1980760064	40	4396
2026-01-24 04:32:43.67	344.38	44.92	-35.6	-36.7	18.4	0.00e+00	0	61	0	1988100096	41	4185
2026-01-24 04:32:44.68	344.03	45.15	-35.7	-36.8	18.3	0.00e+00	0	61	0	1995440128	41	4226
2026-01-24 04:32:45.69	343.68	45.39	-35.6	-36.8	18.3	0.00e+00	0	61	0	2002780160	41	4224
2026-01-24 04:32:46.70	343.32	45.62	-35.5	-36.7	18.5	0.00e+00	0	61	0	2010120192	41	4152
2026-01-24 04:32:47.71	342.95	45.86	-35.5	-36.6	18.6	0.00e+00	0	62	0	2017460224	41	4119
2026-01-24 04:32:48.72	342.58	46.09	-35.4	-36.6	18.6	0.00e+00	0	61	0	2024800256	40	4343
2026-01-24 04:32:49.73	342.20	46.33	-35.4	-36.6	18.6	0.00e+00	0	61	0	2032140288	40	4360
2026-01-24 04:32:50.74	341.82	46.56	-35.7	-36.8	18.3	0.00e+00	0	61	0	2039480320	41	4236
2026-01-24 04:32:51.75	341.43	46.80	-36.0	-37.2	18.0	0.00e+00	0	61	0	2046820352	41	4393
2026-01-24 04:32:52.76	341.04	47.03	-36.1	-37.2	17.9	0.00e+00	0	61	0	2054160384	42	4193
2026-01-24 04:32:53.77	340.64	47.27	-36.6	-37.9	17.3	0.00e+00	0	61	0	2061500416	42	4528
2026-01-24 04:32:54.78	340.23	47.50	-36.7	-37.9	17.2	0.00e+00	0	61	0	2068840448	43	4287
2026-01-24 04:32:55.79	339.82	47.73	-36.7	-37.9	17.3	0.00e+00	0	61	0	2075131904	43	4288
2026-01-24 04:32:56.80	339.40	47.97	-36.7	-37.9	17.2	0.00e+00	0	61	0	2083520512	43	4281
2026-01-24 04:32:57.81	338.97	48.20	-36.6	-37.9	17.3	0.00e+00	0	61	0	2090860544	43	4265
2026-01-24 04:32:58.82	338.54	48.43	-36.7	-37.9	17.3	0.00e+00	0	61	0	2097152000	43	4279
2026-01-24 04:32:59.83	338.10	48.67	-36.7	-38.0	17.2	0.00e+00	0	61	0	2104492032	43	4294
2026-01-24 04:33:00.82	337.66	48.89	-36.7	-38.0	17.2	0.00e+00	0	61	0	2111832064	43	4337
2026-01-24 04:33:01.83	337.21	49.12	-36.7	-38.0	17.1	0.00e+00	0	61	0	2119172096	43	4334
2026-01-24 04:33:02.84	336.75	49.35	-36.8	-38.1	17.1	0.00e+00	0	62	0	2126512128	43	4341
2026-01-24 04:33:03.85	336.29	49.58	-36.8	-38.2	17.0	0.00e+00	0	61	0	2133852160	43	4400
2026-01-24 04:33:04.86	335.81	49.81	-36.8	-38.1	17.2	0.00e+00	0	61	0	2141192192	43	4357
2026-01-24 04:33:05.87	335.33	50.04	-37.0	-38.3	16.9	0.00e+00	0	61	0	2148532224	43	4469
2026-01-24 04:33:06.88	334.85	50.27	-36.9	-38.3	16.9	0.00e+00	0	61	0	2155872256	43	4453
2026-01-24 04:33:07.89	334.35	50.49	-37.0	-38.3	16.9	0.00e+00	0	61	0	2163212288	43	4472
2026-01-24 04:33:08.90	333.85	50.72	-36.5	-37.7	17.5	0.00e+00	0	61	0	2170552320	43	4183
2026-01-24 04:33:09.91	333.34	50.94	-36.6	-37.8	17.4	0.00e+00	0	61	0	2177892352	43	4239
2026-01-24 04:33:10.92	332.82	51.16	-36.4	-37.6	17.6	0.00e+00	0	61	0	2185232384	43	4137
2026-01-24 04:33:11.93	332.30	51.38	-36.5	-37.8	17.4	0.00e+00	0	61	0	2192572416	43	4202
2026-01-24 04:33:12.94	331.76	51.60	-36.5	-37.7	17.5	0.00e+00	0	61	0	2199912448	43	4169
2026-01-24 04:33:13.95	331.22	51.82	-36.8	-38.2	17.1	0.00e+00	0	61	0	2207252480	43	4393
2026-01-24 04:33:14.96	330.67	52.03	-36.6	-37.9	17.3	0.00e+00	0	61	0	2214592512	43	4258
2026-01-24 04:33:15.97	330.12	52.24	-36.7	-38.0	17.2	0.00e+00	0	61	0	2221932544	43	4303
2026-01-24 04:33:16.98	329.55	52.46	-36.7	-37.9	17.2	0.00e+00	0	61	0	2228224000	43	4290
2026-01-24 04:33:17.99	328.98	52.66	-36.6	-37.8	17.4	0.00e+00	0	61	0	2236612608	43	4237
2026-01-24 04:33:19.00	328.40	52.87	-36.6	-37.8	17.3	0.00e+00	0	62	0	2243952640	43	4238
2026-01-24 04:33:20.01	327.81	53.08	-36.8	-38.1	17.1	0.00e+00	0	61	0	2250244096	43	4376
2026-01-24 04:33:21.02	327.21	53.28	-36.9	-38.2	17.0	0.00e+00	0	61	0	2257584128	43	4420
2026-01-24 04:33:22.03	326.60	53.48	-36.8	-38.1	17.1	0.00e+00	0	62	0	2264924160	43	4389
2026-01-24 04:33:23.04	325.99	53.68	-36.8	-38.1	17.1	0.00e+00	0	61	0	2272264192	43	4384
2026-01-24 04:33:24.05	325.36	53.87	-36.7	-38.0	17.2	0.00e+00	0	61	0	2279604224	43	4319
2026-01-24 04:33:25.06	324.73	54.06	-36.5	-37.7	17.5	0.00e+00	0	61	0	2286944256	43	4182
2026-01-24 04:33:26.06	324.10	54.25	-36.2	-37.4	17.7	0.00e+00	0	61	0	2294284288	43	4040
2026-01-24 04:33:27.08	323.44	54.44	-36.2	-37.4	17.8	0.00e+00	0	61	0	2301624320	43	4034
2026-01-24 04:33:28.08	322.79	54.62	-36.2	-37.4	17.8	0.00e+00	0	61	0	2308964352	43	4045
2026-01-24 04:33:29.09	322.13	54.80	-36.5	-37.8	17.4	0.00e+00	0	61	0	2316304384	43	4194
2026-01-24 04:33:30.10	321.45	54.98	-36.5	-37.7	17.5	0.00e+00	0	61	0	2323644416	43	4175
2026-01-24 04:33:31.11	320.77	55.15	-36.3	-37.6	17.6	0.00e+00	0	61	0	2330984448	43	4105
2026-01-24 04:33:32.12	320.08	55.32	-36.5	-37.8	17.4	0.00e+00	0	61	0	2338324480	43	4217
2026-01-24 04:33:33.13	319.38	55.49	-36.5	-37.8	17.4	0.00e+00	0	61	0	2345664512	43	4212
2026-01-24 04:33:34.14	318.67	55.65	-36.4	-37.7	17.5	0.00e+00	0	62	0	2353004544	43	4155
2026-01-24 04:33:35.15	317.95	55.81	-36.4	-37.7	17.5	0.00e+00	0	61	0	2360344576	43	4175
2026-01-24 04:33:36.16	317.23	55.97	-36.3	-37.5	17.6	0.00e+00	0	61	0	2367684608	43	4093
2026-01-24 04:33:37.17	316.50	56.12	-36.0	-37.2	18.0	0.00e+00	0	61	0	2375024640	42	4156
2026-01-24 04:33:38.18	315.76	56.26	-36.1	-37.3	17.9	0.00e+00	0	61	0	2381316096	42	4201
2026-01-24 04:33:39.19	315.01	56.40	-36.3	-37.5	17.7	0.00e+00	0	62	0	2388656128	42	4317
2026-01-24 04:33:40.20	314.26	56.54	-36.1	-37.3	17.8	0.00e+00	0	61	0	2397044736	42	4236
2026-01-24 04:33:41.21	313.49	56.68	-36.3	-37.5	17.6	0.00e+00	0	62	0	2403336192	42	4334
2026-01-24 04:33:42.22	312.72	56.80	-36.4	-37.7	17.5	0.00e+00	0	62	0	2410676224	42	4403
2026-01-24 04:33:43.23	311.94	56.93	-36.5	-37.8	17.3	0.00e+00	0	61	0	2418016256	42	4455
2026-01-24 04:33:44.23	311.17	57.05	-36.4	-37.7	17.4	0.00e+00	0	62	0	2425356288	42	4418
2026-01-24 04:33:45.24	310.38	57.16	-36.3	-37.6	17.5	0.00e+00	0	62	0	2432696320	42	4358
2026-01-24 04:33:46.25	309.58	57.27	-36.3	-37.5	17.6	0.00e+00	0	62	0	2440036352	42	4301
2026-01-24 04:33:47.26	308.78	57.37	-36.3	-37.5	17.3	0.00e+00	0	62	0	2447376384	42	4327
2026-01-24 04:33:48.27	307.97	57.47	-36.6	-37.8	16.9	0.00e+00	0	61	0	2454716416	42	4479
2026-01-24 04:33:49.28	307.15	57.56	-36.7	-38.0	16.9	0.00e+00	0	62	0	2462056448	43	4318
2026-01-24 04:33:50.29	306.33	57.65	-36.6	-37.9	17.2	0.00e+00	0	61	0	2469396480	43	4261
2026-01-24 04:33:51.30	305.50	57.73	-36.5	-37.8	17.4	0.00e+00	0	62	0	2476736512	43	4221
2026-01-24 04:33:52.31	304.67	57.81	-36.2	-37.5	17.6	0.00e+00	0	62	0	2484076544	43	4061
2026-01-24 04:33:53.32	303.84	57.88	-36.2	-37.4	17.7	0.00e+00	0	61	0	2491416576	43	4040
2026-01-24 04:33:54.33	303.00	57.95	-36.2	-37.4	17.7	0.00e+00	0	61	0	2498756608	43	4049
2026-01-24 04:33:55.34	302.15	58.01	-36.4	-37.7	17.5	0.00e+00	0	62	0	2506096640	43	4155
2026-01-24 04:33:56.35	301.30	58.06	-36.5	-37.7	17.4	0.00e+00	0	62	0	2513436672	43	4174
2026-01-24 04:33:57.36	300.45	58.11	-36.7	-37.9	17.2	0.00e+00	0	62	0	2520776704	43	4288
2026-01-24 04:33:58.37	299.60	58.15	-36.7	-38.0	17.2	0.00e+00	0	62	0	2527068160	43	4331
2026-01-24 04:33:59.38	298.74	58.19	-36.9	-38.3	17.0	0.00e+00	0	62	0	2534408192	43	4449
2026-01-24 04:34:00.39	297.88	58.22	-36.7	-38.0	17.2	0.00e+00	0	61	0	2541748224	43	4299
2026-01-24 04:34:01.40	297.02	58.24	-36.6	-37.9	17.3	0.00e+00	0	61	0	2549088256	43	4291
2026-01-24 04:34:02.41	296.16	58.26	-36.4	-37.6	17.5	0.00e+00	0	62	0	2556428288	43	4135
2026-01-24 04:34:03.41	295.31	58.27	-36.6	-37.8	17.2	0.00e+00	0	61	0	2563768320	43	4221
2026-01-24 04:34:04.42	294.44	58.28	-36.9	-38.3	16.9	0.00e+00	0	61	0	2571108352	43	4443
2026-01-24 04:34:05.43	293.58	58.28	-37.2	-38.5	16.8	0.00e+00	0	62	0	2578448384	44	4314
2026-01-24 04:34:06.44	292.72	58.27	-37.1	-38.4	16.9	0.00e+00	0	61	0	2585788416	44	4263
2026-01-24 04:34:07.45	291.85	58.26	-36.7	-37.9	17.4	0.00e+00	0	62	0	2593128448	44	4040
2026-01-24 04:34:08.46	290.99	58.24	-36.2	-37.4	17.7	0.00e+00	0	62	0	2600468480	43	4047
2026-01-24 04:34:09.47	290.13	58.21	-36.1	-37.3	17.8	0.00e+00	0	62	0	2607808512	43	4004
2026-01-24 04:34:10.48	289.27	58.18	-36.3	-37.5	17.6	0.00e+00	0	61	0	2615148544	43	4079
2026-01-24 04:34:11.49	288.42	58.15	-36.3	-37.5	17.7	0.00e+00	0	61	0	2622488576	43	4064
2026-01-24 04:34:12.50	287.56	58.10	-36.3	-37.5	17.7	0.00e+00	0	61	0	2629828608	43	4060
2026-01-24 04:34:13.51	286.71	58.06	-36.4	-37.7	17.5	0.00e+00	0	61	0	2637168640	43	4146
2026-01-24 04:34:14.52	285.86	58.00	-36.6	-37.8	17.3	0.00e+00	0	62	0	2644508672	43	4241
2026-01-24 04:34:15.53	285.02	57.94	-36.5	-37.8	17.4	0.00e+00	0	62	0	2651848704	43	4209
2026-01-24 04:34:16.54	284.18	57.88	-36.4	-37.6	17.5	0.00e+00	0	61	0	2658140160	43	4124
2026-01-24 04:34:17.55	283.34	57.80	-36.5	-37.7	17.5	0.00e+00	0	62	0	2666528768	43	4171
2026-01-24 04:34:18.56	282.51	57.73	-36.5	-37.8	17.4	0.00e+00	0	62	0	2673868800	43	4199
2026-01-24 04:34:19.57	281.68	57.64	-36.5	-37.8	17.3	0.00e+00	0	61	0	2680160256	43	4225
2026-01-24 04:34:20.58	280.86	57.56	-36.6	-37.9	17.3	0.00e+00	0	62	0	2687500288	43	4245
2026-01-24 04:34:21.59	280.05	57.46	-36.5	-37.8	17.4	0.00e+00	0	61	0	2694840320	43	4214
2026-01-24 04:34:22.60	279.24	57.36	-36.4	-37.7	17.5	0.00e+00	0	61	0	2702180352	43	4159
2026-01-24 04:34:23.61	278.43	57.26	-36.3	-37.6	17.6	0.00e+00	0	62	0	2709520384	43	4099
2026-01-24 04:34:24.62	277.63	57.15	-36.4	-37.7	17.5	0.00e+00	0	61	0	2716860416	43	4147
2026-01-24 04:34:25.63	276.84	57.03	-36.5	-37.8	17.4	0.00e+00	0	61	0	2724200448	43	4195
2026-01-24 04:34:26.64	276.06	56.91	-36.6	-37.9	17.3	0.00e+00	0	61	0	2731540480	43	4245
2026-01-24 04:34:27.65	275.28	56.79	-36.4	-37.7	17.5	0.00e+00	0	62	0	2738880512	43	4177
2026-01-24 04:34:28.65	274.52	56.66	-36.1	-37.3	17.9	0.00e+00	0	62	0	2746220544	43	3959
2026-01-24 04:34:29.66	273.75	56.53	-36.0	-37.2	18.0	0.00e+00	0	61	0	2753560576	42	4163
2026-01-24 04:34:30.67	273.00	56.39	-36.0	-37.2	18.0	0.00e+00	0	62	0	2760900608	42	4171
2026-01-24 04:34:31.68	272.25	56.25	-36.1	-37.3	17.9	0.00e+00	0	62	0	2768240640	42	4214
2026-01-24 04:34:32.69	271.51	56.10	-36.0	-37.2	18.0	0.00e+00	0	61	0	2775580672	42	4149
2026-01-24 04:34:33.70	270.78	55.95	-36.1	-37.3	17.9	0.00e+00	0	62	0	2782920704	42	4201
2026-01-24 04:34:34.71	270.05	55.79	-36.2	-37.5	17.8	0.00e+00	0	62	0	2790260736	42	4292
2026-01-24 04:34:35.72	269.34	55.63	-36.4	-37.6	17.6	0.00e+00	0	62	0	2797600768	42	4376
2026-01-24 04:34:36.73	268.63	55.47	-36.3	-37.6	17.6	0.00e+00	0	62	0	2803892224	42	4345
2026-01-24 04:34:37.74	267.93	55.30	-36.3	-37.6	17.5	0.00e+00	0	62	0	2812280832	42	4359
2026-01-24 04:34:38.76	267.23	55.13	-36.2	-37.4	17.7	0.00e+00	0	62	0	2819620864	42	4282
2026-01-24 04:34:39.76	266.55	54.96	-36.2	-37.4	17.7	0.00e+00	0	62	0	2825912320	42	4278
2026-01-24 04:34:40.77	265.88	54.78	-35.9	-37.1	18.0	0.00e+00	0	62	0	2833252352	42	4135
2026-01-24 04:34:41.79	265.21	54.60	-35.9	-37.1	18.0	0.00e+00	0	62	0	2840592384	42	4132
2026-01-24 04:34:42.80	264.55	54.41	-36.1	-37.3	17.8	0.00e+00	0	62	0	2847932416	42	4219
2026-01-24 04:34:43.80	263.91	54.23	-36.3	-37.5	17.6	0.00e+00	0	62	0	2855272448	42	4322
2026-01-24 04:34:44.81	263.27	54.04	-36.3	-37.6	17.5	0.00e+00	0	62	0	2862612480	42	4377
2026-01-24 04:34:45.82	262.63	53.85	-36.3	-37.6	17.6	0.00e+00	0	62	0	2869952512	42	4355
2026-01-24 04:34:46.83	262.01	53.65	-36.1	-37.3	17.8	0.00e+00	0	61	0	2877292544	42	4242
2026-01-24 04:34:47.84	261.39	53.45	-36.2	-37.4	17.8	0.00e+00	0	62	0	2884632576	42	4257
2026-01-24 04:34:48.85	260.79	53.25	-36.3	-37.6	17.6	0.00e+00	0	62	0	2891972608	42	4354
2026-01-24 04:34:49.86	260.19	53.05	-36.5	-37.8	17.4	0.00e+00	0	61	0	2899312640	42	4458
2026-01-24 04:34:50.87	259.60	52.84	-36.3	-37.5	17.6	0.00e+00	0	62	0	2906652672	42	4338
2026-01-24 04:34:51.88	259.02	52.63	-36.2	-37.4	17.7	0.00e+00	0	62	0	2913992704	42	4288
2026-01-24 04:34:52.89	258.44	52.42	-36.1	-37.3	17.9	0.00e+00	0	61	0	2921332736	42	4198
2026-01-24 04:34:53.90	257.88	52.21	-36.1	-37.3	17.8	0.00e+00	0	62	0	2928672768	42	4223
2026-01-24 04:34:54.91	257.32	52.00	-36.2	-37.5	17.7	0.00e+00	0	62	0	2936012800	42	4295
2026-01-24 04:34:55.92	256.77	51.78	-36.4	-37.6	17.5	0.00e+00	0	62	0	2943352832	42	4377
2026-01-24 04:34:56.93	256.23	51.56	-36.2	-37.5	17.7	0.00e+00	0	62	0	2950692864	42	4301
2026-01-24 04:34:57.94	255.70	51.34	-36.2	-37.4	17.7	0.00e+00	0	62	0	2956984320	42	4258
2026-01-24 04:34:58.95	255.17	51.12	-35.9	-37.1	18.0	0.00e+00	0	61	0	2965372928	42	4137
2026-01-24 04:34:59.96	254.65	50.90	-35.9	-37.1	18.1	0.00e+00	0	62	0	2972712960	42	4115
2026-01-24 04:35:00.97	254.14	50.68	-35.9	-37.1	18.0	0.00e+00	0	62	0	2979004416	42	4132
2026-01-24 04:35:01.98	253.64	50.45	-36.0	-37.2	18.0	0.00e+00	0	62	0	2986344448	42	4172
2026-01-24 04:35:02.99	253.14	50.22	-36.1	-37.3	17.8	0.00e+00	0	62	0	2993684480	42	4214
2026-01-24 04:35:04.00	252.66	50.00	-36.1	-37.3	17.8	0.00e+00	0	62	0	3001024512	42	4222
2026-01-24 04:35:05.01	252.18	49.77	-36.2	-37.4	17.8	0.00e+00	0	61	0	3008364544	42	4257
2026-01-24 04:35:06.02	251.70	49.54	-36.1	-37.3	17.8	0.00e+00	0	61	0	3015704576	42	4232
2026-01-24 04:35:07.03	251.24	49.31	-35.9	-37.0	18.1	0.00e+00	0	62	0	3023044608	42	4087
2026-01-24 04:35:08.04	250.78	49.08	-36.1	-37.3	17.9	0.00e+00	0	62	0	3030384640	42	4205
2026-01-24 04:35:09.04	250.33	48.85	-36.0	-37.3	17.7	0.00e+00	0	62	0	3037724672	42	4195
2026-01-24 04:35:10.05	249.88	48.62	-36.2	-37.4	17.7	0.00e+00	0	62	0	3045064704	42	4282
2026-01-24 04:35:11.07	249.44	48.38	-36.1	-37.3	17.8	0.00e+00	0	62	0	3052404736	42	4230
2026-01-24 04:35:12.08	249.01	48.15	-36.1	-37.3	17.9	0.00e+00	0	62	0	3059744768	42	4214
2026-01-24 04:35:13.08	248.59	47.92	-35.9	-37.1	18.0	0.00e+00	0	62	0	3067084800	42	4124
2026-01-24 04:35:14.09	248.17	47.68	-35.8	-36.9	18.2	0.00e+00	0	61	0	3074424832	42	4044
2026-01-24 04:35:15.10	247.75	47.45	-35.6	-36.8	18.3	0.00e+00	0	62	0	3081764864	42	3979
2026-01-24 04:35:16.11	247.35	47.21	-35.5	-36.7	18.5	0.00e+00	0	62	0	3089104896	42	3926
2026-01-24 04:35:17.12	246.95	46.97	-35.4	-36.5	18.6	0.00e+00	0	61	0	3096444928	41	4079
2026-01-24 04:35:18.13	246.55	46.74	-35.4	-36.6	18.6	0.00e+00	0	62	0	3102736384	41	4108
2026-01-24 04:35:19.14	246.16	46.50	-35.6	-36.8	18.3	0.00e+00	0	62	0	3110076416	41	4216
2026-01-24 04:35:20.15	245.78	46.27	-35.8	-36.9	18.2	0.00e+00	0	62	0	3118465024	41	4289
2026-01-24 04:35:21.16	245.40	46.03	-35.6	-36.8	18.3	0.00e+00	0	62	0	3124756480	41	4222
2026-01-24 04:35:22.17	245.03	45.80	-35.4	-36.6	18.6	0.00e+00	0	62	0	3132096512	41	4101
2026-01-24 04:35:23.18	244.66	45.56	-35.1	-36.2	18.9	0.00e+00	0	62	0	3139436544	41	3934
2026-01-24 04:35:24.19	244.30	45.32	-35.0	-36.1	19.0	0.00e+00	0	62	0	3146776576	41	3888
2026-01-24 04:35:25.20	243.95	45.09	-35.2	-36.3	18.8	0.00e+00	0	62	0	3154116608	41	3977
2026-01-24 04:35:26.21	243.60	44.85	-35.2	-36.3	18.7	0.00e+00	0	62	0	3161456640	41	3999
2026-01-24 04:35:27.22	243.25	44.62	-35.2	-36.3	18.8	0.00e+00	0	62	0	3168796672	41	3976
2026-01-24 04:35:28.23	242.91	44.38	-35.0	-36.0	19.0	0.00e+00	0	62	0	3176136704	41	3866
2026-01-24 04:35:29.24	242.58	44.15	-34.9	-36.0	19.1	0.00e+00	0	62	0	3183476736	40	4086
2026-01-24 04:35:30.25	242.25	43.91	-34.9	-36.0	19.1	0.00e+00	0	62	0	3190816768	40	4087
2026-01-24 04:35:31.26	241.92	43.68	-35.1	-36.2	18.9	0.00e+00	0	62	0	3198156800	40	4150
2026-01-24 04:35:32.27	241.60	43.44	-35.1	-36.2	18.9	0.00e+00	0	62	0	3205496832	40	4170
2026-01-24 04:35:33.28	241.29	43.21	-35.2	-36.3	18.8	0.00e+00	0	62	0	3212836864	40	4236
2026-01-24 04:35:34.29	240.98	42.98	-35.2	-36.3	18.8	0.00e+00	0	62	0	3220176896	40	4205
2026-01-24 04:35:35.30	240.67	42.75	-35.2	-36.3	18.8	0.00e+00	0	62	0	3227516928	40	4227
2026-01-24 04:35:36.31	240.37	42.51	-35.2	-36.4	18.8	0.00e+00	0	62	0	3234856960	40	4248
2026-01-24 04:35:37.32	240.07	42.28	-35.2	-36.3	18.7	0.00e+00	0	62	0	3242196992	40	4239
2026-01-24 04:35:38.33	239.78	42.05	-35.1	-36.3	18.8	0.00e+00	0	62	0	3249537024	40	4200
2026-01-24 04:35:39.34	239.49	41.82	-35.1	-36.2	18.9	0.00e+00	0	62	0	3256877056	40	4168
2026-01-24 04:35:40.35	239.20	41.59	-34.9	-36.0	18.4	0.00e+00	0	62	0	3264217088	40	4073
2026-01-24 04:35:41.36	238.92	41.36	-35.3	-36.4	18.7	0.00e+00	0	62	0	3271557120	40	4264
2026-01-24 04:35:42.37	238.65	41.14	-35.4	-36.5	18.6	0.00e+00	0	62	0	3277848576	40	4328
2026-01-24 04:35:43.38	238.37	40.91	-35.5	-36.6	18.5	0.00e+00	0	62	0	3285188608	40	4371
2026-01-24 04:35:44.39	238.10	40.68	-35.5	-36.6	18.5	0.00e+00	0	62	0	3293577216	40	4384
2026-01-24 04:35:45.40	237.84	40.45	-35.3	-36.5	18.6	0.00e+00	0	62	0	3299868672	40	4293
2026-01-24 04:35:46.42	237.57	40.23	-35.2	-36.4	18.7	0.00e+00	0	62	0	3307208704	40	4249
2026-01-24 04:35:47.43	237.31	40.00	-35.3	-36.5	18.6	0.00e+00	0	62	0	3314548736	40	4292
2026-01-24 04:35:48.43	237.06	39.78	-35.3	-36.4	18.6	0.00e+00	0	62	0	3321888768	40	4268
2026-01-24 04:35:49.44	236.81	39.56	-35.4	-36.5	18.5	0.00e+00	0	62	0	3329228800	40	4327
2026-01-24 04:35:50.45	236.56	39.34	-35.2	-36.3	18.6	0.00e+00	0	62	0	3336568832	40	4221
2026-01-24 04:35:51.46	236.32	39.11	-35.1	-36.3	18.8	0.00e+00	0	62	0	3343908864	40	4202
2026-01-24 04:35:52.47	236.08	38.89	-35.1	-36.2	18.9	0.00e+00	0	62	0	3351248896	40	4160
2026-01-24 04:35:53.48	235.84	38.67	-35.1	-36.1	18.9	0.00e+00	0	62	0	3358588928	40	4144
2026-01-24 04:35:54.49	235.61	38.45	-34.8	-35.9	19.1	0.00e+00	0	62	0	3365928960	40	4024
2026-01-24 04:35:55.50	235.37	38.24	-34.6	-35.7	19.3	0.00e+00	0	62	0	3373268992	40	3929
2026-01-24 04:35:56.51	235.15	38.02	-34.7	-35.8	19.2	0.00e+00	0	62	0	3380609024	40	3984
2026-01-24 04:35:57.52	234.92	37.80	-34.8	-35.9	19.1	0.00e+00	0	62	0	3387949056	40	4034
2026-01-24 04:35:58.53	234.70	37.59	-35.0	-36.1	19.0	0.00e+00	0	62	0	3395289088	40	4110
2026-01-24 04:35:59.54	234.48	37.37	-34.9	-36.0	19.0	0.00e+00	0	62	0	3401580544	40	4084
2026-01-24 04:36:00.55	234.26	37.16	-34.9	-36.0	19.0	0.00e+00	0	62	0	3409969152	40	4094
2026-01-24 04:36:01.56	234.05	36.95	-34.9	-36.0	19.0	0.00e+00	0	62	0	3417309184	40	4091
2026-01-24 04:36:02.57	233.84	36.74	-34.9	-36.0	19.0	0.00e+00	0	62	0	3423600640	40	4084
2026-01-24 04:36:03.58	233.63	36.52	-34.9	-36.0	19.0	0.00e+00	0	62	0	3430940672	40	4098
2026-01-24 04:36:04.59	233.43	36.31	-34.9	-36.0	19.0	0.00e+00	0	62	0	3438280704	40	4091
2026-01-24 04:36:05.60	233.22	36.11	-35.0	-36.1	18.9	0.00e+00	0	62	0	3445620736	40	4140
2026-01-24 04:36:06.60	233.02	35.90	-35.1	-36.2	18.9	0.00e+00	0	62	0	3452960768	40	4154
2026-01-24 04:36:07.61	232.83	35.69	-35.1	-36.2	18.9	0.00e+00	0	62	0	3460300800	40	4156
2026-01-24 04:36:08.62	232.63	35.49	-35.0	-36.1	18.9	0.00e+00	0	62	0	3467640832	40	4117
2026-01-24 04:36:09.63	232.44	35.28	-34.8	-35.8	19.2	0.00e+00	0	62	0	3474980864	40	4002
2026-01-24 04:36:10.64	232.25	35.08	-34.5	-35.6	19.4	0.00e+00	0	62	0	3482320896	40	3893
2026-01-24 04:36:11.65	232.06	34.87	-34.5	-35.6	19.2	0.00e+00	0	62	0	3489660928	39	4119
2026-01-24 04:36:12.66	231.88	34.67	-34.5	-35.5	19.5	0.00e+00	0	62	0	3497000960	39	4083
2026-01-24 04:36:13.67	231.69	34.47	-34.5	-35.6	19.5	0.00e+00	0	62	0	3504340992	39	4099
2026-01-24 04:36:14.68	231.51	34.27	-34.6	-35.7	19.4	0.00e+00	0	62	0	3511681024	39	4158
2026-01-24 04:36:15.69	231.33	34.07	-34.7	-35.7	19.3	0.00e+00	0	62	0	3519021056	39	4177
2026-01-24 04:36:16.70	231.16	33.87	-34.8	-35.9	19.2	0.00e+00	0	62	0	3526361088	39	4255
2026-01-24 04:36:17.71	230.98	33.67	-34.7	-35.8	19.3	0.00e+00	0	62	0	3533701120	39	4210
2026-01-24 04:36:18.72	230.81	33.48	-34.7	-35.8	19.3	0.00e+00	0	62	0	3541041152	39	4215
2026-01-24 04:36:19.72	230.64	33.28	-34.6	-35.7	19.3	0.00e+00	0	62	0	3548381184	39	4164
2026-01-24 04:36:20.73	230.47	33.09	-34.7	-35.8	19.3	0.00e+00	0	62	0	3554672640	39	4201
2026-01-24 04:36:21.74	230.31	32.89	-34.6	-35.7	19.3	0.00e+00	0	62	0	3563061248	39	4152
2026-01-24 04:36:22.75	230.14	32.70	-34.7	-35.8	19.3	0.00e+00	0	62	0	3570401280	39	4204
2026-01-24 04:36:23.76	229.98	32.51	-34.7	-35.8	19.3	0.00e+00	0	62	0	3576692736	39	4199
2026-01-24 04:36:24.77	229.82	32.32	-34.8	-35.9	19.2	0.00e+00	0	62	0	3584032768	39	4245
2026-01-24 04:36:25.78	229.66	32.13	-34.8	-35.9	19.2	0.00e+00	0	62	0	3591372800	39	4255
2026-01-24 04:36:26.79	229.51	31.94	-34.9	-35.9	19.1	0.00e+00	0	62	0	3598712832	39	4290
2026-01-24 04:36:27.80	229.35	31.75	-34.8	-35.9	19.2	0.00e+00	0	62	0	3606052864	39	4259
2026-01-24 04:36:28.81	229.20	31.57	-34.8	-35.9	19.2	0.00e+00	0	62	0	3613392896	39	4262
2026-01-24 04:36:29.82	229.05	31.38	-34.8	-35.9	19.1	0.00e+00	0	62	0	3620732928	39	4271
2026-01-24 04:36:30.83	228.90	31.19	-34.7	-35.7	19.3	0.00e+00	0	62	0	3628072960	39	4191
2026-01-24 04:36:31.84	228.75	31.01	-34.7	-35.7	19.2	0.00e+00	0	62	0	3635412992	39	4176
2026-01-24 04:36:32.85	228.61	30.83	-34.7	-35.8	19.2	0.00e+00	0	62	0	3642753024	39	4216
2026-01-24 04:36:33.86	228.46	30.64	-34.8	-35.9	19.2	0.00e+00	0	62	0	3650093056	39	4244
2026-01-24 04:36:34.87	228.32	30.46	-34.9	-36.0	19.1	0.00e+00	0	62	0	3657433088	39	4292
2026-01-24 04:36:35.87	228.18	30.28	-34.9	-36.1	19.0	0.00e+00	0	62	0	3664773120	39	4346
2026-01-24 04:36:36.88	228.04	30.11	-34.9	-36.0	19.1	0.00e+00	0	62	0	3672113152	39	4307
2026-01-24 04:36:37.89	227.90	29.93	-34.9	-36.0	19.0	0.00e+00	0	62	0	3679453184	39	4340
2026-01-24 04:36:38.90	227.77	29.75	-34.9	-36.0	19.0	0.00e+00	0	62	0	3686793216	39	4314
2026-01-24 04:36:39.92	227.63	29.57	-35.0	-36.1	18.9	0.00e+00	0	62	0	3694133248	39	4345
2026-01-24 04:36:40.92	227.50	29.40	-34.8	-35.9	19.0	0.00e+00	0	61	0	3700424704	39	4274
2026-01-24 04:36:41.94	227.37	29.22	-34.8	-35.9	19.1	0.00e+00	0	62	0	3707764736	39	4278
2026-01-24 04:36:42.95	227.24	29.05	-34.8	-35.9	19.1	0.00e+00	0	62	0	3716153344	39	4243
2026-01-24 04:36:43.96	227.11	28.87	-34.8	-35.8	19.1	0.00e+00	0	62	0	3722444800	39	4239
2026-01-24 04:36:44.97	226.98	28.70	-34.8	-35.9	19.1	0.00e+00	0	62	0	3729784832	39	4278
2026-01-24 04:36:45.98	226.85	28.53	-34.9	-36.0	19.0	0.00e+00	0	62	0	3737124864	39	4310
2026-01-24 04:36:46.99	226.73	28.36	-35.0	-36.1	18.9	0.00e+00	0	62	0	3744464896	39	4361
2026-01-24 04:36:48.00	226.61	28.19	-35.0	-36.1	18.8	0.00e+00	0	62	0	3751804928	39	4387
2026-01-24 04:36:49.00	226.49	28.02	-35.1	-36.2	18.8	0.00e+00	0	62	0	3759144960	39	4403
2026-01-24 04:36:50.01	226.37	27.85	-35.1	-36.3	18.7	0.00e+00	0	62	0	3766484992	39	4448
2026-01-24 04:36:51.02	226.25	27.69	-35.2	-36.3	18.6	0.00e+00	0	62	0	3773825024	40	4218
2026-01-24 04:36:52.03	226.13	27.52	-35.2	-36.3	18.6	0.00e+00	0	62	0	3781165056	40	4235
2026-01-24 04:36:53.04	226.01	27.36	-35.1	-36.3	18.7	0.00e+00	0	62	0	3788505088	40	4201
2026-01-24 04:36:54.05	225.89	27.19	-35.0	-36.1	18.8	0.00e+00	0	62	0	3795845120	40	4116
2026-01-24 04:36:55.06	225.78	27.03	-35.0	-36.2	18.7	0.00e+00	0	62	0	3803185152	40	4159
2026-01-24 04:36:56.07	225.67	26.87	-35.2	-36.3	18.6	0.00e+00	0	62	0	3810525184	40	4213
2026-01-24 04:36:57.08	225.55	26.70	-35.2	-36.3	18.6	0.00e+00	0	62	0	3817865216	40	4233
2026-01-24 04:36:58.09	225.44	26.54	-35.3	-36.4	18.4	0.00e+00	0	62	0	3825205248	40	4287
2026-01-24 04:36:59.10	225.33	26.38	-35.3	-36.4	18.5	0.00e+00	0	62	0	3832545280	40	4281
2026-01-24 04:37:00.11	225.23	26.22	-35.3	-36.5	18.4	0.00e+00	0	62	0	3839885312	40	4305
2026-01-24 04:37:01.12	225.12	26.07	-35.4	-36.5	18.4	0.00e+00	0	62	0	3847225344	40	4331
2026-01-24 04:37:02.13	225.01	25.91	-35.4	-36.5	18.4	0.00e+00	0	62	0	3853516800	40	4324
2026-01-24 04:37:03.14	224.91	25.75	-35.3	-36.5	18.2	0.00e+00	0	62	0	3860856832	40	4321
2026-01-24 04:37:04.15	224.80	25.60	-35.3	-36.5	18.4	0.00e+00	0	62	0	3869245440	40	4305
2026-01-24 04:37:05.16	224.70	25.44	-35.3	-36.4	18.4	0.00e+00	0	62	0	3875536896	40	4291
2026-01-24 04:37:06.17	224.60	25.29	-35.2	-36.3	18.6	0.00e+00	0	62	0	3882876928	40	4225
2026-01-24 04:37:07.18	224.49	25.13	-35.1	-36.2	18.6	0.00e+00	0	62	0	3890216960	40	4167
2026-01-24 04:37:08.19	224.39	24.98	-34.9	-36.0	18.9	0.00e+00	0	62	0	3897556992	40	4063
2026-01-24 04:37:09.20	224.29	24.83	-34.7	-35.8	19.0	0.00e+00	0	62	0	3904897024	40	3980
2026-01-24 04:37:10.21	224.20	24.68	-34.8	-35.9	19.0	0.00e+00	0	62	0	3912237056	40	4009
2026-01-24 04:37:11.22	224.10	24.53	-34.8	-35.9	19.0	0.00e+00	0	62	0	3919577088	40	4005
2026-01-24 04:37:12.23	224.00	24.38	-34.8	-35.8	19.0	0.00e+00	0	62	0	3926917120	40	3999
2026-01-24 04:37:13.24	223.91	24.23	-34.7	-35.8	19.0	0.00e+00	0	62	0	3934257152	40	3980
2026-01-24 04:37:14.25	223.81	24.08	-34.8	-35.9	19.0	0.00e+00	0	62	0	3941597184	40	4011
2026-01-24 04:37:15.25	223.72	23.93	-34.8	-35.8	19.0	0.00e+00	0	62	0	3948937216	40	4004
2026-01-24 04:37:16.26	223.63	23.79	-34.9	-36.0	18.8	0.00e+00	0	62	0	3956277248	40	4069
2026-01-24 04:37:17.27	223.53	23.64	-34.9	-36.0	18.8	0.00e+00	0	62	0	3963617280	40	4083
2026-01-24 04:37:18.28	223.44	23.50	-35.0	-36.1	18.7	0.00e+00	0	62	0	3970957312	40	4129
2026-01-24 04:37:19.29	223.35	23.35	-35.1	-36.2	18.6	0.00e+00	0	62	0	3978297344	40	4166
2026-01-24 04:37:20.30	223.26	23.21	-35.1	-36.3	18.6	0.00e+00	0	62	0	3985637376	40	4204
2026-01-24 04:37:21.31	223.18	23.06	-35.2	-36.4	18.5	0.00e+00	0	62	0	3992977408	40	4248
2026-01-24 04:37:22.32	223.09	22.92	-35.3	-36.4	18.4	0.00e+00	0	62	0	3999268864	40	4277
2026-01-24 04:37:23.33	223.00	22.78	-35.4	-36.6	18.3	0.00e+00	0	62	0	4006608896	40	4353
2026-01-24 04:37:24.34	222.91	22.64	-35.5	-36.6	18.2	0.00e+00	0	62	0	4014997504	40	4386
2026-01-24 04:37:25.35	222.83	22.50	-35.5	-36.7	18.2	0.00e+00	0	62	0	4021288960	40	4399
2026-01-24 04:37:26.36	222.75	22.36	-35.5	-36.7	18.1	0.00e+00	0	62	0	4028628992	40	4435
2026-01-24 04:37:27.37	222.66	22.22	-35.5	-36.7	18.1	0.00e+00	0	62	0	4035969024	40	4422
2026-01-24 04:37:28.38	222.58	22.08	-35.5	-36.7	18.1	0.00e+00	0	62	0	4043309056	40	4430
2026-01-24 04:37:29.39	222.50	21.95	-35.6	-36.8	18.0	0.00e+00	0	62	0	4050649088	40	4449
2026-01-24 04:37:30.40	222.41	21.81	-35.6	-36.9	18.0	0.00e+00	0	62	0	4057989120	40	4500
2026-01-24 04:37:31.41	222.33	21.67	-35.6	-36.8	18.0	0.00e+00	0	62	0	4065329152	40	4471
2026-01-24 04:37:32.42	222.25	21.54	-35.6	-36.8	18.0	0.00e+00	0	62	0	4072669184	40	4471
2026-01-24 04:37:33.43	222.18	21.40	-35.7	-36.9	17.9	0.00e+00	0	62	0	4080009216	40	4520
2026-01-24 04:37:34.44	222.10	21.27	-35.7	-36.9	17.8	0.00e+00	0	62	0	4087349248	41	4283
2026-01-24 04:37:35.45	222.02	21.14	-35.6	-36.8	18.0	0.00e+00	0	62	0	4094689280	41	4212
2026-01-24 04:37:36.46	221.94	21.00	-35.7	-36.9	17.9	0.00e+00	0	62	0	4102029312	41	4253
2026-01-24 04:37:37.47	221.86	20.87	-35.6	-36.8	18.0	0.00e+00	0	62	0	4109369344	41	4214
2026-01-24 04:37:38.48	221.79	20.74	-35.6	-36.8	17.9	0.00e+00	0	62	0	4116709376	41	4238
2026-01-24 04:37:39.49	221.71	20.61	-35.6	-36.8	17.9	0.00e+00	0	62	0	4124049408	41	4222
2026-01-24 04:37:40.50	221.64	20.48	-35.7	-36.9	17.9	0.00e+00	0	62	0	4131389440	41	4248
2026-01-24 04:37:41.51	221.57	20.35	-35.6	-36.8	18.0	0.00e+00	0	62	0	4138729472	41	4217
2026-01-24 04:37:42.52	221.49	20.22	-35.6	-36.8	17.9	0.00e+00	0	62	0	4146069504	41	4229
2026-01-24 04:37:43.53	221.42	20.09	-35.7	-36.9	17.9	0.00e+00	0	62	0	4152360960	41	4255
2026-01-24 04:37:44.54	221.35	19.96	-35.8	-37.0	17.8	0.00e+00	0	62	0	4160749568	41	4308
2026-01-24 04:37:45.55	221.28	19.84	-35.6	-36.9	17.9	0.00e+00	0	62	0	4168089600	41	4251
2026-01-24 04:37:46.56	221.21	19.71	-35.7	-36.9	17.8	0.00e+00	0	62	0	4174381056	41	4273
2026-01-24 04:37:47.57	221.14	19.58	-35.7	-36.9	17.8	0.00e+00	0	62	0	4181721088	41	4277
2026-01-24 04:37:48.58	221.07	19.46	-35.8	-37.0	17.8	0.00e+00	0	62	0	4189061120	41	4309
2026-01-24 04:37:49.59	221.00	19.33	-35.8	-37.0	17.7	0.00e+00	0	62	0	4196401152	41	4322
2026-01-24 04:37:50.60	220.93	19.21	-35.8	-37.0	17.7	0.00e+00	0	62	0	4203741184	41	4333
2026-01-24 04:37:51.61	220.86	19.08	-35.8	-37.1	17.6	0.00e+00	0	62	0	4211081216	41	4356
2026-01-24 04:37:52.62	220.79	18.96	-35.9	-37.1	17.6	0.00e+00	0	62	0	4218421248	41	4387
2026-01-24 04:37:53.63	220.73	18.84	-35.9	-37.2	17.5	0.00e+00	0	62	0	4225761280	41	4397
2026-01-24 04:37:54.64	220.66	18.72	-36.0	-37.2	17.5	0.00e+00	0	62	0	4233101312	41	4440
2026-01-24 04:37:55.65	220.60	18.60	-36.1	-37.3	17.4	0.00e+00	0	62	0	4240441344	41	4493
2026-01-24 04:37:56.66	220.53	18.47	-36.1	-37.4	17.3	0.00e+00	0	62	0	4247781376	41	4508
2026-01-24 04:37:57.67	220.47	18.35	-36.2	-37.4	17.3	0.00e+00	0	62	0	4255121408	41	4542
2026-01-24 04:37:58.68	220.40	18.23	-36.2	-37.5	17.2	0.00e+00	0	62	0	4262461440	41	4568
2026-01-24 04:37:59.69	220.34	18.12	-36.4	-37.7	17.0	0.00e+00	0	62	0	4269801472	42	4411
2026-01-24 04:38:00.70	220.28	18.00	-36.3	-37.6	17.1	0.00e+00	0	62	0	4277141504	42	4383
2026-01-24 04:38:01.71	220.21	17.88	-36.4	-37.7	17.0	0.00e+00	0	62	0	4284481536	42	4402
2026-01-24 04:38:02.71	220.15	17.76	-36.4	-37.8	17.0	0.00e+00	0	62	0	4291821568	42	4448
2026-01-24 04:38:03.72	220.09	17.65	-36.5	-37.8	16.9	0.00e+00	0	62	0	4298113024	42	4475
2026-01-24 04:38:04.73	220.03	17.53	-36.5	-37.9	16.9	0.00e+00	0	62	0	4305453056	42	4502
2026-01-24 04:38:05.74	219.97	17.41	-36.5	-37.9	16.8	0.00e+00	0	62	0	4312793088	42	4515
2026-01-24 04:38:06.75	219.91	17.30	-36.6	-38.0	16.7	0.00e+00	0	62	0	4320133120	42	4559
2026-01-24 04:38:07.76	219.85	17.18	-36.6	-38.0	16.7	0.00e+00	0	62	0	4327473152	42	4569
2026-01-24 04:38:08.77	219.79	17.07	-36.7	-38.1	16.6	0.00e+00	0	62	0	4334813184	42	4620
2026-01-24 04:38:09.78	219.73	16.95	-36.6	-38.0	16.7	0.00e+00	0	62	0	4342153216	42	4575
2026-01-24 04:38:10.79	219.67	16.84	-36.7	-38.0	16.6	0.00e+00	0	62	0	4349493248	42	4594
2026-01-24 04:38:11.80	219.62	16.73	-36.7	-38.1	16.6	0.00e+00	0	62	0	4356833280	42	4601
2026-01-24 04:38:12.81	219.56	16.61	-36.7	-38.0	16.6	0.00e+00	0	62	0	4364173312	42	4584
2026-01-24 04:38:13.82	219.50	16.50	-36.7	-38.1	16.6	0.00e+00	0	62	0	4371513344	42	4619
2026-01-24 04:38:14.83	219.45	16.39	-36.7	-38.1	16.6	0.00e+00	0	62	0	4378853376	43	4351
2026-01-24 04:38:15.84	219.39	16.28	-36.6	-38.0	16.7	0.00e+00	0	62	0	4386193408	43	4304
2026-01-24 04:38:16.85	219.34	16.17	-36.7	-38.0	16.6	0.00e+00	0	62	0	4393533440	43	4327
2026-01-24 04:38:17.86	219.28	16.06	-36.6	-38.0	16.7	0.00e+00	0	62	0	4400873472	43	4311
2026-01-24 04:38:18.87	219.23	15.95	-36.6	-37.9	16.7	1.10e-06	0	62	0	4408213504	43	4289
2026-01-24 04:38:19.88	219.17	15.84	-36.6	-38.0	16.7	0.00e+00	0	62	0	4415553536	43	4295
2026-01-24 04:38:20.89	219.12	15.73	-36.6	-38.0	16.7	0.00e+00	0	62	0	4422893568	43	4306
2026-01-24 04:38:21.90	219.06	15.62	-36.6	-38.0	16.6	0.00e+00	0	62	0	4430233600	43	4325
2026-01-24 04:38:22.91	219.01	15.52	-36.6	-37.9	16.7	0.00e+00	0	62	0	4437573632	43	4286
2026-01-24 04:38:23.92	218.96	15.41	-36.7	-38.1	16.6	0.00e+00	0	62	0	4444913664	43	4347
2026-01-24 04:38:24.92	218.91	15.30	-36.7	-38.0	16.6	0.00e+00	0	62	0	4451205120	43	4330
2026-01-24 04:38:25.93	218.86	15.20	-36.7	-38.0	16.6	0.00e+00	0	62	0	4458545152	43	4333
2026-01-24 04:38:26.94	218.80	15.09	-36.7	-38.1	16.5	0.00e+00	0	62	0	4466933760	43	4358
2026-01-24 04:38:27.96	218.75	14.98	-36.8	-38.1	16.5	0.00e+00	0	62	0	4473225216	43	4390
2026-01-24 04:38:28.96	218.70	14.88	-36.8	-38.2	16.4	0.00e+00	0	62	0	4480565248	43	4404
2026-01-24 04:38:29.97	218.65	14.77	-36.8	-38.2	16.4	0.00e+00	0	62	0	4487905280	43	4405
2026-01-24 04:38:30.98	218.60	14.67	-36.8	-38.2	16.3	0.00e+00	0	62	0	4495245312	43	4437
2026-01-24 04:38:31.99	218.55	14.57	-36.8	-38.3	16.3	0.00e+00	0	62	0	4502585344	43	4455
2026-01-24 04:38:33.00	218.50	14.46	-36.9	-38.4	16.2	0.00e+00	0	62	0	4509925376	43	4496
2026-01-24 04:38:34.01	218.45	14.36	-37.0	-38.5	16.2	0.00e+00	0	62	0	4517265408	43	4546
