passes_logs/2026/01/24/R2.0S_Moscow/R2.0S_Moscow__20260124_092653_NOAA_21_JPSS-2_rec.log

#Pass ID: 20260124_092653_NOAA 21 (JPSS-2)
#Satellite: NOAA 21 (JPSS-2)
#Configuration: NOAA-21
#almurnet v.1.7.20251203
#Start time: 2026-01-24 09:26:55

#Version: 2.2.20231116
#Station: R2.0S_Moscow
#Location: 37.707566 lon 55.798166 lat
#TLE: 1 54234U 22150A   26023.61190495  .00000215  00000+0  12293-3 0  9993
#TLE: 2 54234  98.7508 324.4078 0000700 226.6110 133.5008 14.19538339166032

#Time	Az	El	Level	Level2	SNR	BER	BlckErr	Temp	State	Recorded	gain1	gain2
2026-01-24 09:26:55.24	146.83	2.14	-43.8	-56.1	3.8	1.49e+00	0	52	0	0	58	15559
2026-01-24 09:26:56.25	146.81	2.20	-43.7	-56.1	3.8	1.49e+00	0	52	104	0	59	14596
2026-01-24 09:26:57.26	146.79	2.26	-43.7	-56.1	3.8	1.49e+00	0	52	104	0	59	14621
2026-01-24 09:26:58.28	146.77	2.33	-43.7	-56.1	3.8	1.49e+00	0	52	104	0	59	14620
2026-01-24 09:26:59.29	146.75	2.40	-43.7	-56.1	3.8	1.49e+00	0	52	104	0	59	14619
2026-01-24 09:27:00.30	146.73	2.46	-43.7	-56.1	3.8	1.49e+00	0	52	104	0	59	14672
2026-01-24 09:27:01.31	146.71	2.53	-43.6	-56.1	3.8	1.49e+00	0	53	104	0	58	15438
2026-01-24 09:27:02.32	146.69	2.59	-43.7	-56.1	3.8	1.49e+00	0	53	104	0	58	15521
2026-01-24 09:27:03.33	146.67	2.66	-43.7	-56.1	3.8	1.49e+00	0	53	104	0	58	15515
2026-01-24 09:27:04.34	146.65	2.72	-43.7	-56.1	3.8	1.49e+00	0	53	104	0	58	15498
2026-01-24 09:27:05.35	146.63	2.79	-43.7	-56.1	3.8	1.49e+00	0	53	104	0	58	15552
2026-01-24 09:27:06.36	146.61	2.86	-43.7	-56.1	3.8	1.49e+00	0	53	104	0	58	15483
2026-01-24 09:27:07.37	146.59	2.92	-43.6	-56.1	3.8	1.49e+00	0	53	104	0	58	15505
2026-01-24 09:27:08.38	146.57	2.99	-43.7	-56.1	3.8	1.49e+00	0	53	104	0	58	15513
2026-01-24 09:27:09.39	146.55	3.06	-43.7	-56.1	3.8	1.49e+00	0	53	104	0	58	15471
2026-01-24 09:27:10.40	146.53	3.12	-43.7	-56.1	3.8	1.49e+00	0	53	104	0	57	16395
2026-01-24 09:27:11.41	146.51	3.19	-43.7	-56.1	3.8	1.49e+00	0	53	104	0	57	16336
2026-01-24 09:27:12.42	146.49	3.26	-43.7	-56.1	3.8	1.49e+00	0	53	104	0	58	15495
2026-01-24 09:27:13.43	146.47	3.32	-43.7	-56.1	3.8	1.49e+00	0	53	104	0	58	15528
2026-01-24 09:27:14.44	146.45	3.39	-43.7	-56.1	3.8	1.49e+00	0	53	104	0	58	15538
2026-01-24 09:27:15.46	146.43	3.46	-43.7	-56.1	3.8	1.49e+00	0	53	104	0	58	15442
2026-01-24 09:27:16.47	146.41	3.53	-43.7	-56.0	3.8	1.49e+00	0	54	104	0	58	15282
2026-01-24 09:27:17.48	146.39	3.60	-43.7	-56.1	3.8	1.49e+00	0	54	104	0	58	15512
2026-01-24 09:27:18.49	146.37	3.66	-43.7	-56.0	3.8	1.49e+00	0	53	104	0	58	15376
2026-01-24 09:27:19.50	146.35	3.73	-43.6	-56.1	3.8	1.49e+00	0	54	104	0	58	15482
2026-01-24 09:27:20.51	146.32	3.80	-43.7	-56.1	3.8	1.49e+00	0	54	104	0	58	15504
2026-01-24 09:27:21.52	146.30	3.87	-43.6	-56.1	3.8	1.49e+00	0	54	104	0	58	15447
2026-01-24 09:27:22.53	146.28	3.94	-43.7	-56.1	3.8	1.49e+00	0	54	104	0	58	15485
2026-01-24 09:27:23.54	146.26	4.01	-43.7	-56.1	3.8	1.49e+00	0	54	104	0	58	15434
2026-01-24 09:27:24.55	146.24	4.08	-43.6	-56.1	3.8	1.49e+00	0	54	104	0	58	15405
2026-01-24 09:27:25.56	146.22	4.15	-43.6	-56.0	3.8	1.49e+00	0	54	104	0	58	15359
2026-01-24 09:27:26.57	146.19	4.22	-43.6	-56.0	3.8	1.49e+00	0	54	104	0	58	15282
2026-01-24 09:27:27.58	146.17	4.29	-43.6	-56.0	3.8	1.49e+00	0	54	104	0	58	15263
2026-01-24 09:27:28.59	146.15	4.36	-43.6	-55.9	3.8	1.49e+00	0	54	104	0	57	16023
2026-01-24 09:27:29.60	146.13	4.43	-43.6	-55.9	3.8	1.49e+00	0	54	104	0	57	15964
2026-01-24 09:27:30.61	146.11	4.50	-43.6	-55.8	3.8	1.49e+00	0	54	104	0	57	15785
2026-01-24 09:27:31.62	146.08	4.57	-43.6	-55.7	3.8	1.49e+00	0	54	104	0	57	15600
2026-01-24 09:27:32.63	146.06	4.64	-43.6	-55.5	3.8	1.49e+00	0	54	104	0	57	15349
2026-01-24 09:27:33.64	146.04	4.71	-43.7	-55.5	3.8	1.49e+00	0	55	104	0	57	15236
2026-01-24 09:27:34.65	146.01	4.78	-43.6	-55.3	3.8	1.49e+00	0	55	104	0	57	15026
2026-01-24 09:27:35.66	145.99	4.85	-43.6	-55.2	3.8	1.49e+00	0	55	104	0	57	14872
2026-01-24 09:27:36.67	145.97	4.92	-43.6	-55.2	3.8	1.49e+00	0	55	104	0	57	14738
2026-01-24 09:27:37.68	145.95	4.99	-43.6	-55.3	3.8	1.49e+00	0	55	104	0	57	14958
2026-01-24 09:27:38.69	145.92	5.06	-43.6	-55.6	3.8	1.49e+00	0	55	104	0	57	15435
2026-01-24 09:27:39.71	145.90	5.14	-43.7	-55.9	3.8	1.49e+00	0	55	104	0	57	15966
2026-01-24 09:27:40.72	145.87	5.21	-43.7	-56.0	3.8	1.49e+00	0	55	104	0	57	16183
2026-01-24 09:27:41.73	145.85	5.28	-43.7	-55.8	3.8	1.49e+00	0	55	104	0	57	15935
2026-01-24 09:27:42.74	145.83	5.35	-43.7	-55.8	3.8	1.49e+00	0	55	104	0	57	15776
2026-01-24 09:27:43.75	145.80	5.43	-43.7	-55.8	3.8	1.49e+00	0	55	104	0	57	15828
2026-01-24 09:27:44.76	145.78	5.50	-43.7	-55.7	3.8	1.49e+00	0	55	104	0	57	15688
2026-01-24 09:27:45.77	145.75	5.57	-43.6	-55.3	3.8	1.49e+00	0	55	104	0	57	14979
2026-01-24 09:27:46.78	145.73	5.65	-43.6	-55.1	3.8	1.49e+00	0	55	104	0	57	14666
2026-01-24 09:27:47.79	145.71	5.72	-43.6	-55.2	3.8	1.49e+00	0	55	104	0	57	14779
2026-01-24 09:27:48.80	145.68	5.79	-43.5	-54.6	3.8	1.49e+00	0	55	104	0	57	13832
2026-01-24 09:27:49.81	145.66	5.87	-43.4	-54.0	3.8	1.49e+00	0	55	104	0	57	12930
2026-01-24 09:27:50.82	145.63	5.94	-43.4	-53.6	4.0	1.49e+00	0	55	104	0	57	12343
2026-01-24 09:27:51.83	145.61	6.02	-43.4	-53.1	4.1	1.48e+00	0	55	104	0	57	11648
2026-01-24 09:27:52.84	145.58	6.09	-43.3	-52.5	4.2	1.47e+00	0	55	104	0	57	10843
2026-01-24 09:27:53.85	145.55	6.16	-43.3	-52.8	3.9	1.45e+00	0	55	104	0	57	11183
2026-01-24 09:27:54.86	145.53	6.24	-43.2	-51.7	4.4	1.41e+00	0	55	104	0	57	9890
2026-01-24 09:27:55.87	145.50	6.31	-43.2	-52.4	3.9	1.43e+00	0	56	104	0	57	10738
2026-01-24 09:27:56.88	145.48	6.39	-43.1	-51.4	4.6	1.08e+00	0	56	104	0	57	9500
2026-01-24 09:27:57.89	145.45	6.47	-43.2	-52.3	3.9	1.30e+00	0	56	104	0	57	10577
2026-01-24 09:27:58.90	145.43	6.54	-43.2	-51.6	4.5	1.31e+00	2	56	104	0	57	9804
2026-01-24 09:27:59.91	145.40	6.62	-43.3	-52.2	4.0	1.42e+00	0	56	104	0	57	10475
2026-01-24 09:28:00.92	145.37	6.69	-43.3	-52.5	4.2	1.45e+00	0	56	104	0	57	10833
2026-01-24 09:28:01.93	145.35	6.77	-43.3	-53.0	4.1	1.47e+00	0	56	104	0	57	11424
2026-01-24 09:28:02.95	145.32	6.85	-43.5	-54.4	3.8	1.48e+00	0	56	104	0	57	13474
2026-01-24 09:28:03.96	145.29	6.92	-43.6	-54.9	3.8	1.49e+00	0	56	104	0	57	14261
2026-01-24 09:28:04.97	145.27	7.00	-43.6	-55.3	3.8	1.49e+00	0	56	104	0	57	15018
2026-01-24 09:28:05.98	145.24	7.08	-43.6	-55.3	3.8	1.49e+00	0	56	104	0	57	14974
2026-01-24 09:28:06.99	145.21	7.16	-43.6	-55.2	3.8	1.49e+00	0	56	104	0	57	14753
2026-01-24 09:28:08.00	145.18	7.23	-43.4	-54.1	3.8	1.49e+00	0	56	104	0	57	12992
2026-01-24 09:28:09.01	145.16	7.31	-43.2	-52.3	4.2	1.47e+00	0	56	104	0	57	10650
2026-01-24 09:28:10.02	145.13	7.39	-43.1	-51.7	4.0	1.27e+00	1	56	104	0	57	9831
2026-01-24 09:28:11.03	145.10	7.47	-42.8	-49.5	5.6	5.45e-01	0	56	0	1048576	57	7656
2026-01-24 09:28:12.04	145.07	7.55	-42.4	-48.3	6.5	2.98e-01	0	56	0	5242880	56	7077
2026-01-24 09:28:13.05	145.04	7.63	-42.1	-47.3	7.4	1.39e-01	0	57	0	8388608	56	6325
2026-01-24 09:28:14.06	145.01	7.71	-41.6	-46.4	8.2	6.35e-02	0	57	0	11534336	55	5993
2026-01-24 09:28:15.07	144.99	7.78	-41.3	-45.6	8.9	3.15e-02	0	56	0	13631488	54	5839
2026-01-24 09:28:16.09	144.96	7.87	-41.1	-45.1	9.4	1.78e-02	0	57	0	16777216	54	5516
2026-01-24 09:28:17.10	144.93	7.95	-40.8	-44.5	10.0	7.62e-03	0	56	0	20971520	53	5445
2026-01-24 09:28:18.11	144.90	8.03	-40.7	-44.2	10.3	5.58e-03	0	57	0	24117248	53	5267
2026-01-24 09:28:19.11	144.87	8.11	-43.6	-53.9	3.9	1.49e+00	0	57	104	25165824	57	12734
2026-01-24 09:28:20.12	144.84	8.19	-43.6	-55.0	3.8	1.49e+00	0	57	104	25165824	58	13639
2026-01-24 09:28:21.13	144.81	8.27	-42.9	-50.2	5.0	3.23e-01	0	57	0	25165824	56	8809
2026-01-24 09:28:22.14	144.78	8.35	-42.8	-49.6	5.5	5.86e-01	0	57	0	28311552	56	8231
2026-01-24 09:28:23.15	144.75	8.43	-42.2	-48.2	6.5	2.46e-01	0	57	0	31457280	55	7379
2026-01-24 09:28:24.16	144.72	8.51	-41.2	-45.2	9.3	2.48e-02	0	57	0	34603008	54	5592
2026-01-24 09:28:25.17	144.69	8.59	-40.8	-44.6	9.9	1.21e-02	0	57	0	37748736	53	5484
2026-01-24 09:28:26.18	144.66	8.68	-40.6	-44.1	10.5	4.37e-03	0	57	0	40894464	53	5166
2026-01-24 09:28:27.19	144.63	8.76	-40.5	-43.8	10.8	2.74e-03	0	57	0	44040192	52	5313
2026-01-24 09:28:28.20	144.60	8.84	-40.3	-43.5	11.2	1.73e-03	0	57	0	47185920	52	5143
2026-01-24 09:28:29.21	144.57	8.92	-40.3	-43.6	11.1	1.47e-03	0	57	0	50331648	52	5172
2026-01-24 09:28:30.22	144.53	9.01	-40.4	-43.6	11.2	1.45e-03	0	57	0	53477376	52	5183
2026-01-24 09:28:31.23	144.50	9.09	-40.3	-43.5	11.2	1.41e-03	0	57	0	56623104	52	5156
2026-01-24 09:28:32.24	144.47	9.17	-40.2	-43.4	11.3	1.31e-03	0	57	0	59768832	52	5089
2026-01-24 09:28:33.25	144.44	9.26	-40.3	-43.6	11.2	1.45e-03	0	57	0	62914560	52	5169
2026-01-24 09:28:34.26	144.41	9.34	-40.3	-43.4	11.3	1.25e-03	0	57	0	66060288	52	5082
2026-01-24 09:28:35.27	144.37	9.43	-40.3	-43.5	11.3	1.11e-03	0	57	0	69206016	52	5107
2026-01-24 09:28:36.27	144.34	9.51	-40.3	-43.4	11.3	1.11e-03	0	57	0	72351744	52	5090
2026-01-24 09:28:37.29	144.31	9.60	-40.2	-43.3	11.5	1.13e-03	0	57	0	75497472	52	5019
2026-01-24 09:28:38.30	144.28	9.68	-40.2	-43.2	11.6	7.35e-04	0	57	0	78643200	52	4977
2026-01-24 09:28:39.30	144.24	9.77	-40.2	-43.3	11.6	6.63e-04	0	57	0	81788928	52	5003
2026-01-24 09:28:40.31	144.21	9.85	-40.3	-43.3	11.8	7.03e-04	0	57	0	84934656	51	5303
2026-01-24 09:28:41.32	144.18	9.94	-40.2	-43.2	11.8	5.00e-04	0	57	0	88080384	51	5252
2026-01-24 09:28:42.33	144.14	10.03	-40.3	-43.3	11.7	5.14e-04	0	57	0	91226112	51	5302
2026-01-24 09:28:43.34	144.11	10.11	-40.2	-43.2	11.8	5.23e-04	0	57	0	95420416	51	5274
2026-01-24 09:28:44.35	144.07	10.20	-40.3	-43.2	11.8	4.78e-04	0	58	0	98566144	51	5268
2026-01-24 09:28:45.36	144.04	10.29	-40.2	-43.1	12.0	3.97e-04	0	57	0	100663296	50	5496
2026-01-24 09:28:46.37	144.00	10.38	-40.2	-43.1	12.1	3.70e-04	0	57	0	103809024	50	5475
2026-01-24 09:28:47.38	143.97	10.46	-40.3	-43.2	11.9	4.60e-04	0	57	0	106954752	51	5276
2026-01-24 09:28:48.39	143.93	10.55	-40.3	-43.2	11.9	3.58e-04	0	57	0	110100480	51	5266
2026-01-24 09:28:49.40	143.90	10.64	-40.2	-43.0	12.2	2.87e-04	0	58	0	114294784	51	5121
2026-01-24 09:28:50.41	143.86	10.73	-39.9	-42.9	12.2	1.84e-04	0	58	0	117440512	51	5071
2026-01-24 09:28:51.42	143.83	10.82	-40.1	-43.0	12.2	2.88e-04	0	58	0	120586240	51	5118
2026-01-24 09:28:52.43	143.79	10.91	-40.1	-42.9	12.3	1.48e-04	0	58	0	123731968	50	5344
2026-01-24 09:28:53.43	143.76	11.00	-40.2	-43.0	12.3	2.14e-04	0	58	0	125829120	50	5419
2026-01-24 09:28:54.45	143.72	11.09	-40.1	-42.9	12.3	4.26e-04	0	58	0	130023424	50	5360
2026-01-24 09:28:55.46	143.68	11.18	-39.5	-42.8	12.3	8.64e-04	0	58	0	133169152	50	5292
2026-01-24 09:28:56.46	143.64	11.27	-40.0	-42.7	12.5	1.11e-04	0	58	0	136314880	50	5265
2026-01-24 09:28:57.47	143.61	11.36	-40.1	-42.8	12.5	2.08e-04	0	58	0	139460608	50	5306
2026-01-24 09:28:58.48	143.57	11.45	-40.0	-42.6	12.7	1.50e-04	0	58	0	142606336	50	5185
2026-01-24 09:28:59.49	143.53	11.54	-39.9	-42.6	12.7	1.62e-04	0	58	0	145752064	50	5165
2026-01-24 09:29:00.50	143.49	11.64	-39.6	-42.4	12.8	2.69e-04	0	58	0	148897792	50	5089
2026-01-24 09:29:01.51	143.46	11.73	-39.9	-42.5	12.8	1.46e-04	0	58	0	152043520	50	5144
2026-01-24 09:29:02.53	143.42	11.82	-39.8	-42.5	12.7	1.40e-04	0	58	0	155189248	50	5128
2026-01-24 09:29:03.54	143.38	11.92	-39.8	-42.4	13.0	4.95e-05	0	58	0	158334976	50	5063
2026-01-24 09:29:04.54	143.34	12.01	-39.6	-42.4	12.9	8.54e-05	0	58	0	161480704	50	5069
2026-01-24 09:29:05.55	143.30	12.10	-39.8	-42.3	13.1	7.40e-05	0	58	0	164626432	50	5005
2026-01-24 09:29:06.56	143.26	12.20	-39.7	-42.2	13.2	2.97e-05	0	58	0	167772160	50	4954
2026-01-24 09:29:07.57	143.22	12.29	-39.7	-42.3	13.1	5.26e-05	0	58	0	170917888	50	5000
2026-01-24 09:29:08.58	143.18	12.39	-39.7	-42.4	13.0	6.33e-05	0	58	0	174063616	50	5070
2026-01-24 09:29:09.59	143.14	12.48	-39.8	-42.4	13.0	1.91e-04	0	58	0	177209344	50	5074
2026-01-24 09:29:10.60	143.10	12.58	-39.6	-42.2	13.2	9.15e-05	0	58	0	180355072	50	4948
2026-01-24 09:29:11.61	143.06	12.67	-39.5	-42.1	13.3	5.26e-05	0	58	0	183500800	50	4894
2026-01-24 09:29:12.62	143.02	12.77	-39.6	-42.1	13.3	5.95e-05	0	58	0	186646528	50	4908
2026-01-24 09:29:13.63	142.98	12.87	-39.7	-42.2	13.2	1.36e-04	0	58	0	189792256	50	4966
2026-01-24 09:29:14.64	142.93	12.97	-39.7	-42.1	13.3	3.73e-05	0	58	0	192937984	50	4926
2026-01-24 09:29:15.65	142.89	13.06	-39.6	-42.1	13.3	8.01e-05	0	58	0	196083712	50	4878
2026-01-24 09:29:16.66	142.85	13.16	-39.6	-42.1	13.4	3.43e-05	0	58	0	199229440	50	4884
2026-01-24 09:29:17.67	142.81	13.26	-39.5	-42.1	13.3	5.72e-05	0	59	0	202375168	50	4886
2026-01-24 09:29:18.68	142.76	13.36	-39.3	-41.9	13.2	7.49e-04	0	58	0	205520896	50	4800
2026-01-24 09:29:19.69	142.72	13.46	-39.6	-42.0	13.5	8.69e-05	0	58	0	208666624	50	4818
2026-01-24 09:29:20.70	142.68	13.56	-39.6	-42.0	13.5	6.17e-05	0	58	0	211812352	50	4823
2026-01-24 09:29:21.71	142.63	13.66	-39.7	-42.1	13.4	7.60e-06	0	58	0	214958080	50	4876
2026-01-24 09:29:22.72	142.59	13.76	-39.7	-42.1	13.4	1.22e-05	0	58	0	218103808	50	4905
2026-01-24 09:29:23.73	142.54	13.86	-39.7	-42.0	13.5	6.10e-06	0	58	0	221249536	50	4859
2026-01-24 09:29:24.74	142.50	13.96	-39.7	-42.1	13.5	9.90e-06	0	58	0	224395264	50	4889
2026-01-24 09:29:25.75	142.45	14.06	-39.8	-42.2	13.4	1.37e-05	0	58	0	227540992	50	4946
2026-01-24 09:29:26.76	142.41	14.16	-39.6	-42.0	13.6	1.29e-05	0	58	0	230686720	50	4833
2026-01-24 09:29:27.77	142.36	14.26	-39.7	-42.0	13.6	5.30e-06	0	58	0	233832448	50	4844
2026-01-24 09:29:28.78	142.31	14.37	-39.7	-42.1	13.5	1.67e-05	0	58	0	236978176	50	4909
2026-01-24 09:29:29.79	142.27	14.47	-39.7	-42.1	13.5	1.14e-05	0	59	0	240123904	50	4883
2026-01-24 09:29:30.80	142.22	14.57	-39.7	-42.0	13.6	9.10e-06	0	59	0	243269632	50	4862
2026-01-24 09:29:31.81	142.17	14.68	-39.7	-42.1	13.6	1.06e-05	0	58	0	246415360	50	4875
2026-01-24 09:29:32.82	142.13	14.78	-39.7	-42.0	13.6	7.60e-06	0	59	0	249561088	50	4869
2026-01-24 09:29:33.82	142.08	14.89	-39.8	-42.1	13.5	9.90e-06	0	59	0	252706816	50	4919
2026-01-24 09:29:34.83	142.03	14.99	-39.7	-42.0	13.6	1.37e-05	0	58	0	255852544	50	4844
2026-01-24 09:29:35.84	141.98	15.10	-39.7	-42.0	13.6	1.06e-05	0	59	0	258998272	50	4858
2026-01-24 09:29:36.85	141.93	15.20	-39.7	-42.1	13.5	9.10e-06	0	58	0	262144000	50	4879
2026-01-24 09:29:37.86	141.88	15.31	-39.7	-42.1	13.6	1.37e-05	0	59	0	265289728	50	4889
2026-01-24 09:29:38.87	141.83	15.42	-39.7	-42.2	13.3	1.52e-05	0	59	0	268435456	50	4939
2026-01-24 09:29:39.88	141.78	15.52	-39.7	-42.1	13.3	2.20e-04	0	58	0	271581184	50	4925
2026-01-24 09:29:40.89	141.73	15.63	-39.7	-42.1	13.1	2.29e-03	0	59	0	274726912	50	4926
2026-01-24 09:29:41.90	141.68	15.74	-39.6	-42.2	13.1	5.53e-04	0	59	0	277872640	50	4940
2026-01-24 09:29:42.91	141.63	15.85	-39.7	-42.3	13.2	2.43e-04	0	59	0	281018368	50	4998
2026-01-24 09:29:43.92	141.58	15.96	-39.7	-42.3	13.2	4.54e-04	0	59	0	284164096	50	4988
2026-01-24 09:29:44.93	141.53	16.07	-39.8	-42.2	13.3	6.24e-04	0	59	0	287309824	50	4983
2026-01-24 09:29:45.94	141.47	16.18	-39.8	-42.3	13.1	1.21e-03	0	59	0	290455552	50	5000
2026-01-24 09:29:46.95	141.42	16.29	-39.8	-42.3	13.0	8.29e-04	0	59	0	293601280	50	5035
2026-01-24 09:29:47.96	141.37	16.40	-39.8	-42.3	13.1	9.83e-04	0	59	0	296747008	50	5039
2026-01-24 09:29:48.97	141.31	16.51	-39.7	-42.4	13.1	2.78e-03	0	59	0	299892736	50	5051
2026-01-24 09:29:49.98	141.26	16.62	-39.6	-42.3	13.0	1.51e-03	0	59	0	303038464	50	5020
2026-01-24 09:29:50.99	141.20	16.74	-39.6	-42.4	12.8	1.71e-03	0	59	0	306184192	50	5052
2026-01-24 09:29:52.00	141.15	16.85	-39.9	-42.4	13.2	2.58e-03	0	59	0	309329920	50	5057
2026-01-24 09:29:53.01	141.09	16.96	-39.8	-42.4	13.3	4.26e-04	0	59	0	312475648	50	5065
2026-01-24 09:29:54.02	141.04	17.08	-39.7	-42.4	13.0	1.02e-03	0	59	0	315621376	50	5082
2026-01-24 09:29:55.03	140.98	17.19	-39.9	-42.4	13.1	3.07e-03	0	59	0	318767104	50	5092
2026-01-24 09:29:56.04	140.92	17.31	-39.9	-42.5	12.9	1.24e-03	0	59	0	321912832	50	5153
2026-01-24 09:29:57.05	140.87	17.42	-39.9	-42.6	12.9	6.32e-04	0	59	0	325058560	50	5211
2026-01-24 09:29:58.06	140.81	17.54	-40.0	-42.4	13.1	2.85e-04	0	59	0	328204288	50	5094
2026-01-24 09:29:59.07	140.75	17.65	-39.8	-42.3	13.2	7.81e-04	0	59	0	331350016	50	5035
2026-01-24 09:30:00.08	140.69	17.77	-39.9	-42.5	13.2	5.10e-04	0	59	0	334495744	50	5105
2026-01-24 09:30:01.09	140.63	17.89	-39.9	-42.5	13.2	1.87e-04	0	59	0	337641472	50	5102
2026-01-24 09:30:02.10	140.57	18.01	-39.9	-42.3	13.4	1.72e-04	0	59	0	340787200	50	5033
2026-01-24 09:30:03.11	140.51	18.13	-39.9	-42.4	13.4	2.53e-04	0	59	0	343932928	50	5048
2026-01-24 09:30:04.12	140.45	18.25	-39.8	-42.3	13.3	2.91e-04	0	59	0	347078656	50	5022
2026-01-24 09:30:05.13	140.39	18.37	-39.9	-42.4	13.4	2.72e-04	0	59	0	350224384	50	5043
2026-01-24 09:30:06.14	140.33	18.49	-39.9	-42.4	13.4	7.70e-05	0	59	0	353370112	50	5062
2026-01-24 09:30:07.15	140.27	18.61	-40.0	-42.5	13.4	6.10e-05	0	59	0	356515840	50	5116
2026-01-24 09:30:08.16	140.21	18.73	-40.0	-42.5	13.4	4.42e-05	0	59	0	359661568	50	5101
2026-01-24 09:30:09.17	140.14	18.85	-40.1	-42.6	13.3	9.30e-05	0	59	0	362807296	50	5186
2026-01-24 09:30:10.18	140.08	18.97	-40.2	-42.7	13.2	4.04e-05	0	59	0	365953024	50	5231
2026-01-24 09:30:11.19	140.01	19.10	-40.1	-42.5	13.3	7.09e-05	0	59	0	369098752	50	5135
2026-01-24 09:30:12.20	139.95	19.22	-40.0	-42.3	13.5	1.83e-05	0	59	0	372244480	50	5041
2026-01-24 09:30:13.21	139.88	19.35	-40.0	-42.4	13.5	2.21e-05	0	59	0	375390208	50	5054
2026-01-24 09:30:14.22	139.82	19.47	-40.0	-42.4	13.4	1.52e-05	0	59	0	378535936	50	5078
2026-01-24 09:30:15.23	139.75	19.60	-39.9	-42.3	13.6	6.10e-06	0	59	0	381681664	50	5014
2026-01-24 09:30:16.24	139.68	19.72	-40.0	-42.4	13.5	1.22e-05	0	59	0	384827392	50	5054
2026-01-24 09:30:17.25	139.62	19.85	-40.0	-42.3	13.5	1.14e-05	0	59	0	387973120	50	5030
2026-01-24 09:30:18.26	139.55	19.98	-40.0	-42.3	13.6	8.30e-06	0	59	0	391118848	50	5036
2026-01-24 09:30:19.27	139.48	20.10	-39.9	-42.3	13.6	9.10e-06	0	59	0	394264576	50	5009
2026-01-24 09:30:20.27	139.41	20.23	-39.9	-42.2	13.7	5.30e-06	0	59	0	397410304	50	4967
2026-01-24 09:30:21.28	139.34	20.36	-39.8	-42.1	13.8	6.10e-06	0	59	0	400556032	50	4921
2026-01-24 09:30:22.30	139.27	20.49	-39.7	-41.9	14.0	6.10e-06	0	59	0	403701760	50	4809
2026-01-24 09:30:23.30	139.20	20.62	-39.7	-41.9	14.0	3.00e-06	0	59	0	406847488	50	4782
2026-01-24 09:30:24.31	139.13	20.75	-39.7	-41.9	14.0	4.50e-06	0	59	0	409993216	50	4775
2026-01-24 09:30:25.32	139.06	20.88	-39.7	-41.9	14.0	0.00e+00	0	59	0	413138944	50	4805
2026-01-24 09:30:26.33	138.98	21.02	-39.7	-41.9	14.0	2.20e-06	0	59	0	416284672	50	4780
2026-01-24 09:30:27.34	138.91	21.15	-39.7	-41.9	14.1	2.20e-06	0	59	0	419430400	50	4767
2026-01-24 09:30:28.35	138.83	21.28	-39.4	-41.5	14.4	7.00e-07	0	59	0	422576128	50	4589
2026-01-24 09:30:29.36	138.76	21.42	-39.3	-41.4	14.5	1.50e-06	0	59	0	425721856	50	4527
2026-01-24 09:30:30.37	138.68	21.55	-39.3	-41.4	14.6	0.00e+00	0	60	0	428867584	50	4509
2026-01-24 09:30:31.38	138.61	21.69	-39.4	-41.4	14.5	0.00e+00	0	60	0	432013312	50	4541
2026-01-24 09:30:32.39	138.53	21.82	-39.3	-41.4	14.6	7.00e-07	0	60	0	436207616	50	4495
2026-01-24 09:30:33.40	138.45	21.96	-39.2	-41.2	14.7	7.00e-07	0	59	0	439353344	50	4435
2026-01-24 09:30:34.41	138.37	22.10	-39.2	-41.2	14.8	0.00e+00	0	60	0	441450496	50	4403
2026-01-24 09:30:35.43	138.29	22.24	-39.1	-41.1	14.9	0.00e+00	0	59	0	444596224	50	4345
2026-01-24 09:30:36.44	138.21	22.38	-39.1	-41.1	14.9	0.00e+00	0	60	0	447741952	50	4365
2026-01-24 09:30:37.45	138.13	22.52	-39.1	-41.1	14.8	7.00e-07	0	60	0	451936256	50	4373
2026-01-24 09:30:38.45	138.05	22.66	-39.1	-41.1	14.9	7.00e-07	0	59	0	455081984	50	4368
2026-01-24 09:30:39.46	137.97	22.80	-39.1	-41.1	14.9	7.00e-07	0	59	0	458227712	50	4358
2026-01-24 09:30:40.48	137.89	22.94	-39.1	-41.1	14.9	0.00e+00	0	60	0	461373440	50	4364
2026-01-24 09:30:41.49	137.80	23.08	-39.1	-41.1	14.9	7.00e-07	0	60	0	464519168	50	4370
2026-01-24 09:30:42.50	137.72	23.23	-39.0	-40.9	15.0	0.00e+00	0	60	0	467664896	50	4286
2026-01-24 09:30:43.51	137.63	23.37	-38.9	-40.8	15.2	0.00e+00	0	60	0	470810624	49	4470
2026-01-24 09:30:44.52	137.55	23.52	-38.9	-40.9	15.1	0.00e+00	0	59	0	473956352	49	4494
2026-01-24 09:30:45.53	137.46	23.66	-39.0	-41.0	15.0	0.00e+00	0	60	0	477102080	49	4567
2026-01-24 09:30:46.54	137.37	23.81	-38.9	-40.9	15.1	0.00e+00	0	59	0	480247808	49	4503
2026-01-24 09:30:47.55	137.28	23.96	-39.0	-41.0	15.0	0.00e+00	0	59	0	483393536	49	4558
2026-01-24 09:30:48.56	137.19	24.10	-39.1	-41.1	14.9	0.00e+00	0	60	0	486539264	49	4600
2026-01-24 09:30:49.57	137.10	24.25	-39.1	-41.2	14.8	0.00e+00	0	59	0	489684992	49	4655
2026-01-24 09:30:50.58	137.01	24.40	-39.2	-41.3	14.8	1.50e-06	0	60	0	492830720	49	4710
2026-01-24 09:30:51.59	136.92	24.55	-39.1	-41.1	14.9	7.00e-07	0	59	0	495976448	49	4624
2026-01-24 09:30:52.60	136.82	24.70	-39.2	-41.2	14.8	0.00e+00	0	60	0	499122176	49	4669
2026-01-24 09:30:53.60	136.73	24.85	-39.3	-41.3	14.7	0.00e+00	0	60	0	502267904	49	4724
2026-01-24 09:30:54.61	136.64	25.00	-39.3	-41.4	14.7	0.00e+00	0	60	0	505413632	49	4762
2026-01-24 09:30:55.62	136.54	25.16	-39.3	-41.3	14.7	0.00e+00	0	60	0	508559360	49	4732
2026-01-24 09:30:56.63	136.44	25.31	-39.3	-41.3	14.7	0.00e+00	0	60	0	511705088	49	4751
2026-01-24 09:30:57.64	136.35	25.47	-39.3	-41.3	14.7	0.00e+00	0	60	0	514850816	49	4755
2026-01-24 09:30:58.65	136.25	25.62	-39.4	-41.4	14.6	0.00e+00	0	60	0	517996544	49	4809
2026-01-24 09:30:59.66	136.15	25.78	-39.3	-41.3	14.8	0.00e+00	0	60	0	521142272	49	4743
2026-01-24 09:31:00.65	136.05	25.93	-39.3	-41.3	14.7	0.00e+00	0	60	0	524288000	49	4752
2026-01-24 09:31:01.66	135.95	26.09	-39.3	-41.3	14.7	7.00e-07	0	60	0	527433728	49	4758
2026-01-24 09:31:02.67	135.84	26.25	-39.3	-41.4	14.7	0.00e+00	0	60	0	530579456	49	4776
2026-01-24 09:31:03.68	135.74	26.41	-39.4	-41.5	14.6	0.00e+00	0	60	0	533725184	49	4843
2026-01-24 09:31:04.69	135.63	26.57	-39.5	-41.6	14.4	0.00e+00	0	60	0	536870912	49	4907
2026-01-24 09:31:05.70	135.53	26.73	-39.7	-41.8	14.3	1.50e-06	0	60	0	540016640	49	5018
2026-01-24 09:31:06.71	135.42	26.89	-39.8	-41.9	14.1	7.00e-07	0	60	0	543162368	50	4804
2026-01-24 09:31:07.72	135.31	27.06	-39.8	-42.1	14.0	3.00e-06	0	60	0	546308096	50	4873
2026-01-24 09:31:08.73	135.20	27.22	-39.8	-42.1	14.0	2.20e-06	0	60	0	549453824	50	4894
2026-01-24 09:31:09.74	135.09	27.39	-39.9	-42.1	14.0	3.80e-06	0	60	0	552599552	50	4882
2026-01-24 09:31:10.75	134.98	27.55	-39.9	-42.2	13.9	6.80e-06	0	60	0	555745280	50	4935
2026-01-24 09:31:11.76	134.87	27.72	-39.9	-42.1	13.9	3.00e-06	0	60	0	558891008	50	4924
2026-01-24 09:31:12.77	134.75	27.89	-39.9	-42.1	14.0	7.00e-07	0	60	0	562036736	50	4896
2026-01-24 09:31:13.78	134.64	28.06	-39.8	-42.1	14.0	3.00e-06	0	60	0	565182464	50	4874
2026-01-24 09:31:14.79	134.52	28.22	-39.9	-42.1	14.1	3.00e-06	0	60	0	568328192	50	4880
2026-01-24 09:31:15.80	134.40	28.39	-39.8	-42.0	14.2	1.50e-06	0	60	0	571473920	50	4824
2026-01-24 09:31:16.80	134.28	28.56	-39.9	-42.1	14.0	2.20e-06	0	60	0	574619648	50	4900
2026-01-24 09:31:17.81	134.16	28.74	-39.9	-42.1	14.0	2.20e-06	0	60	0	577765376	50	4887
2026-01-24 09:31:18.82	134.04	28.91	-39.8	-42.0	14.2	7.00e-07	0	60	0	580911104	50	4816
2026-01-24 09:31:19.83	133.92	29.08	-39.8	-41.9	14.3	0.00e+00	0	60	0	584056832	50	4790
2026-01-24 09:31:20.84	133.79	29.26	-39.8	-42.0	14.2	1.50e-06	0	60	0	587202560	50	4844
2026-01-24 09:31:21.85	133.67	29.43	-39.7	-41.8	14.4	0.00e+00	0	60	0	590348288	50	4738
2026-01-24 09:31:22.86	133.54	29.61	-39.6	-41.7	14.5	0.00e+00	0	60	0	593494016	50	4691
2026-01-24 09:31:23.87	133.41	29.79	-39.6	-41.6	14.5	0.00e+00	0	60	0	596639744	50	4649
2026-01-24 09:31:24.88	133.28	29.97	-39.6	-41.7	14.4	0.00e+00	0	60	0	599785472	50	4683
2026-01-24 09:31:25.89	133.15	30.15	-39.6	-41.7	14.5	0.00e+00	0	60	0	602931200	50	4688
2026-01-24 09:31:26.90	133.01	30.33	-39.7	-41.8	14.4	7.00e-07	0	60	0	606076928	50	4719
2026-01-24 09:31:27.91	132.88	30.51	-39.8	-41.9	14.3	1.50e-06	0	60	0	609222656	50	4812
2026-01-24 09:31:28.92	132.74	30.69	-39.8	-42.0	14.2	0.00e+00	0	60	0	612368384	50	4853
2026-01-24 09:31:29.93	132.60	30.87	-39.8	-42.0	14.2	3.00e-06	0	60	0	615514112	50	4849
2026-01-24 09:31:30.94	132.46	31.06	-39.9	-42.2	14.0	7.00e-07	0	60	0	618659840	50	4937
2026-01-24 09:31:31.95	132.32	31.24	-39.9	-42.0	14.2	1.50e-06	0	60	0	621805568	50	4869
2026-01-24 09:31:32.96	132.18	31.43	-39.9	-42.1	14.1	1.50e-06	0	60	0	624951296	50	4898
2026-01-24 09:31:33.97	132.04	31.62	-39.9	-42.1	14.1	2.20e-06	0	60	0	628097024	50	4907
2026-01-24 09:31:34.98	131.89	31.81	-39.8	-42.0	14.3	2.20e-06	0	60	0	631242752	50	4819
2026-01-24 09:31:35.99	131.74	31.99	-39.8	-42.0	14.3	1.50e-06	0	60	0	634388480	50	4826
2026-01-24 09:31:37.00	131.59	32.18	-39.9	-42.0	14.2	1.50e-06	0	60	0	637534208	50	4865
2026-01-24 09:31:38.01	131.44	32.38	-39.8	-41.9	14.3	1.50e-06	0	60	0	640679936	50	4809
2026-01-24 09:31:39.02	131.29	32.57	-40.0	-42.2	14.0	3.80e-06	0	60	0	643825664	50	4933
2026-01-24 09:31:40.03	131.13	32.76	-39.9	-42.0	14.2	1.50e-06	0	60	0	646971392	50	4869
2026-01-24 09:31:41.04	130.97	32.96	-40.0	-42.2	14.0	3.00e-06	0	60	0	650117120	50	4952
2026-01-24 09:31:42.05	130.81	33.15	-40.1	-42.3	13.9	3.00e-06	0	60	0	653262848	50	5037
2026-01-24 09:31:43.06	130.65	33.35	-40.1	-42.4	13.8	3.80e-06	0	60	0	656408576	50	5089
2026-01-24 09:31:44.07	130.49	33.54	-40.3	-42.6	13.6	7.60e-06	0	60	0	659554304	51	4895
2026-01-24 09:31:45.08	130.33	33.74	-40.3	-42.7	13.5	1.14e-05	0	60	0	662700032	51	4982
2026-01-24 09:31:46.09	130.16	33.94	-40.5	-42.9	13.3	1.75e-05	0	60	0	665845760	51	5055
2026-01-24 09:31:47.10	129.99	34.14	-40.7	-43.2	13.0	2.89e-05	0	60	0	668991488	51	5263
2026-01-24 09:31:48.11	129.82	34.34	-40.7	-43.2	13.0	4.50e-05	0	60	0	672137216	51	5274
2026-01-24 09:31:49.12	129.64	34.54	-40.6	-43.2	13.0	3.96e-05	0	60	0	675282944	52	4942
2026-01-24 09:31:50.13	129.47	34.75	-40.6	-43.2	13.0	4.04e-05	0	60	0	678428672	52	4935
2026-01-24 09:31:51.14	129.29	34.95	-40.7	-43.2	12.9	4.65e-05	0	60	0	681574400	52	4974
2026-01-24 09:31:52.15	129.11	35.16	-40.6	-43.2	13.0	2.82e-05	0	60	0	684720128	52	4942
2026-01-24 09:31:53.16	128.93	35.36	-40.7	-43.2	13.0	4.50e-05	0	60	0	687865856	52	4954
2026-01-24 09:31:54.17	128.74	35.57	-40.5	-43.0	13.2	2.59e-05	0	60	0	691011584	52	4846
2026-01-24 09:31:55.18	128.56	35.78	-40.7	-43.2	13.0	3.20e-05	0	60	0	694157312	52	4948
2026-01-24 09:31:56.19	128.37	35.99	-40.6	-43.1	13.1	2.44e-05	0	60	0	697303040	52	4891
2026-01-24 09:31:57.20	128.17	36.20	-40.7	-43.2	12.9	4.04e-05	0	60	0	700448768	52	4980
2026-01-24 09:31:58.21	127.98	36.41	-40.7	-43.3	12.8	5.72e-05	0	60	0	703594496	52	5021
2026-01-24 09:31:59.22	127.78	36.62	-40.8	-43.4	12.8	5.79e-05	0	60	0	706740224	52	5042
2026-01-24 09:32:00.23	127.58	36.83	-40.7	-43.2	12.9	5.03e-05	0	60	0	709885952	52	4983
2026-01-24 09:32:01.24	127.38	37.05	-40.7	-43.2	12.9	5.11e-05	0	60	0	713031680	52	4977
2026-01-24 09:32:02.25	127.17	37.26	-40.8	-43.4	12.7	4.57e-05	0	60	0	716177408	52	5075
2026-01-24 09:32:03.26	126.97	37.48	-40.8	-43.4	12.8	7.85e-05	0	60	0	719323136	52	5054
2026-01-24 09:32:04.27	126.75	37.70	-40.7	-43.3	12.9	5.11e-05	0	60	0	722468864	52	4998
2026-01-24 09:32:05.28	126.54	37.92	-40.8	-43.4	12.8	6.33e-05	0	60	0	725614592	52	5055
2026-01-24 09:32:06.29	126.32	38.13	-40.8	-43.4	12.7	9.15e-05	0	60	0	728760320	52	5083
2026-01-24 09:32:07.30	126.10	38.35	-40.8	-43.5	12.7	7.24e-05	0	60	0	731906048	52	5103
2026-01-24 09:32:08.31	125.88	38.58	-40.8	-43.4	12.7	7.47e-05	0	60	0	735051776	52	5094
2026-01-24 09:32:09.32	125.66	38.80	-40.8	-43.4	12.8	6.79e-05	0	60	0	738197504	52	5046
2026-01-24 09:32:10.33	125.43	39.02	-40.7	-43.3	12.9	4.88e-05	0	60	0	741343232	52	5013
2026-01-24 09:32:11.34	125.19	39.24	-40.7	-43.2	12.9	4.34e-05	0	60	0	744488960	52	4957
2026-01-24 09:32:12.35	124.96	39.47	-40.7	-43.2	12.9	4.88e-05	0	60	0	747634688	52	4977
2026-01-24 09:32:13.36	124.72	39.69	-40.7	-43.2	12.9	5.11e-05	0	60	0	750780416	52	4969
2026-01-24 09:32:14.37	124.48	39.92	-40.7	-43.3	12.9	4.88e-05	0	60	0	753926144	52	5009
2026-01-24 09:32:15.38	124.23	40.15	-40.9	-43.5	12.7	7.09e-05	0	60	0	757071872	52	5108
2026-01-24 09:32:16.39	123.98	40.38	-40.9	-43.6	12.6	1.04e-04	0	60	0	760217600	52	5173
2026-01-24 09:32:17.40	123.73	40.60	-40.9	-43.6	12.7	8.54e-05	0	60	0	763363328	52	5171
2026-01-24 09:32:18.41	123.48	40.83	-41.0	-43.7	12.5	1.49e-04	0	60	0	766509056	52	5255
2026-01-24 09:32:19.42	123.22	41.06	-41.1	-43.9	12.3	1.55e-04	0	60	0	769654784	52	5370
2026-01-24 09:32:20.42	122.95	41.29	-41.2	-44.0	12.2	2.20e-04	0	60	0	772800512	52	5419
2026-01-24 09:32:21.43	122.69	41.53	-41.1	-43.9	12.3	2.14e-04	0	61	0	775946240	52	5394
2026-01-24 09:32:22.44	122.42	41.76	-41.2	-44.0	12.3	1.89e-04	0	60	0	780140544	52	5420
2026-01-24 09:32:23.45	122.14	41.99	-41.2	-44.0	12.2	1.94e-04	0	60	0	782237696	52	5421
2026-01-24 09:32:24.46	121.86	42.23	-41.2	-44.1	12.2	2.01e-04	0	61	0	785383424	53	5162
2026-01-24 09:32:25.47	121.58	42.46	-41.4	-44.4	11.8	3.63e-04	0	61	0	788529152	53	5348
2026-01-24 09:32:26.48	121.29	42.70	-41.6	-44.8	11.4	8.53e-04	0	60	0	791674880	53	5599
2026-01-24 09:32:27.49	121.00	42.93	-41.9	-45.2	11.0	1.48e-03	0	60	0	794820608	54	5569
2026-01-24 09:32:28.50	120.70	43.17	-41.9	-45.3	10.9	2.14e-03	0	60	0	799014912	54	5613
2026-01-24 09:32:29.51	120.40	43.41	-41.8	-45.0	11.2	1.51e-03	0	60	0	802160640	54	5424
2026-01-24 09:32:30.52	120.10	43.65	-41.7	-44.8	11.4	9.49e-04	0	60	0	805306368	54	5320
2026-01-24 09:32:31.53	119.79	43.88	-41.6	-44.7	11.6	8.67e-04	0	60	0	807403520	54	5221
2026-01-24 09:32:32.54	119.47	44.12	-41.6	-44.6	11.7	5.48e-04	0	60	0	810549248	54	5197
2026-01-24 09:32:33.55	119.15	44.36	-41.8	-45.0	11.2	1.44e-03	0	61	0	814743552	54	5430
2026-01-24 09:32:34.56	118.83	44.60	-41.9	-45.1	11.1	1.42e-03	0	61	0	817889280	54	5509
2026-01-24 09:32:35.57	118.50	44.84	-41.9	-45.3	10.9	1.60e-03	0	60	0	821035008	54	5602
2026-01-24 09:32:36.58	118.16	45.08	-42.0	-45.3	10.9	2.61e-03	0	60	0	824180736	54	5616
2026-01-24 09:32:37.58	117.83	45.32	-41.9	-45.2	10.9	1.96e-03	0	60	0	827326464	54	5572
2026-01-24 09:32:38.59	117.48	45.56	-41.8	-45.0	11.2	1.33e-03	0	60	0	830472192	54	5458
2026-01-24 09:32:39.60	117.13	45.81	-41.7	-44.8	11.4	9.77e-04	0	60	0	833617920	54	5315
2026-01-24 09:32:40.61	116.78	46.05	-41.7	-44.7	11.5	7.47e-04	0	61	0	836763648	54	5262
2026-01-24 09:32:41.62	116.42	46.29	-41.5	-44.6	11.7	5.93e-04	0	60	0	839909376	54	5161
2026-01-24 09:32:42.63	116.05	46.53	-41.7	-44.8	11.4	7.23e-04	0	60	0	843055104	54	5328
2026-01-24 09:32:43.64	115.68	46.78	-41.6	-44.6	11.6	7.49e-04	0	60	0	846200832	54	5199
2026-01-24 09:32:44.65	115.30	47.02	-41.7	-44.8	11.4	8.30e-04	0	61	0	849346560	54	5291
2026-01-24 09:32:45.66	114.92	47.26	-41.7	-44.9	11.3	1.01e-03	0	60	0	852492288	54	5371
2026-01-24 09:32:46.67	114.53	47.50	-41.6	-44.7	11.5	7.06e-04	0	60	0	855638016	54	5261
2026-01-24 09:32:47.68	114.13	47.74	-41.6	-44.7	11.6	6.96e-04	0	61	0	858783744	54	5229
2026-01-24 09:32:48.69	113.73	47.99	-41.7	-44.8	11.4	8.01e-04	0	61	0	861929472	54	5339
2026-01-24 09:32:49.70	113.32	48.23	-41.8	-45.0	11.3	1.07e-03	0	60	0	865075200	54	5403
2026-01-24 09:32:50.71	112.90	48.47	-41.8	-45.0	11.3	1.23e-03	0	61	0	868220928	54	5439
2026-01-24 09:32:51.72	112.48	48.71	-41.8	-45.0	11.3	1.50e-03	0	61	0	871366656	54	5408
2026-01-24 09:32:52.73	112.05	48.95	-41.8	-45.0	11.2	1.14e-03	0	60	0	874512384	54	5417
2026-01-24 09:32:53.74	111.62	49.19	-41.7	-44.7	11.5	8.67e-04	0	61	0	877658112	54	5256
2026-01-24 09:32:54.75	111.18	49.43	-41.6	-44.6	11.6	7.57e-04	0	61	0	880803840	54	5190
2026-01-24 09:32:55.76	110.73	49.67	-41.5	-44.5	11.6	7.03e-04	0	60	0	883949568	54	5152
2026-01-24 09:32:56.77	110.27	49.91	-41.5	-44.5	11.8	5.87e-04	0	60	0	887095296	54	5112
2026-01-24 09:32:57.78	109.81	50.15	-41.3	-44.1	12.1	3.62e-04	0	61	0	890241024	54	4925
2026-01-24 09:32:58.79	109.34	50.39	-41.1	-43.8	12.5	1.46e-04	0	60	0	893386752	54	4744
2026-01-24 09:32:59.80	108.86	50.62	-41.2	-44.0	12.2	1.89e-04	0	61	0	896532480	54	4860
2026-01-24 09:33:00.80	108.38	50.86	-41.4	-44.2	12.0	3.11e-04	0	61	0	899678208	54	4956
2026-01-24 09:33:01.81	107.88	51.09	-41.3	-44.2	12.0	2.95e-04	0	61	0	902823936	54	4939
2026-01-24 09:33:02.82	107.38	51.32	-41.3	-44.2	12.1	2.85e-04	0	61	0	905969664	54	4934
2026-01-24 09:33:03.83	106.87	51.56	-41.2	-44.0	12.3	1.96e-04	0	61	0	909115392	54	4843
2026-01-24 09:33:04.84	106.35	51.79	-41.2	-43.9	12.4	1.07e-04	0	61	0	912261120	54	4799
2026-01-24 09:33:05.85	105.83	52.02	-41.1	-43.7	12.7	7.62e-05	0	61	0	915406848	54	4667
2026-01-24 09:33:06.86	105.30	52.24	-41.2	-44.0	12.4	1.37e-04	0	61	0	918552576	54	4837
2026-01-24 09:33:07.87	104.75	52.47	-41.4	-44.3	12.0	2.91e-04	0	60	0	921698304	54	5002
2026-01-24 09:33:08.88	104.20	52.69	-41.3	-44.1	12.2	2.44e-04	0	61	0	924844032	54	4913
2026-01-24 09:33:09.89	103.64	52.92	-40.9	-43.5	12.8	1.20e-04	0	61	0	927989760	53	4848
2026-01-24 09:33:10.90	103.08	53.14	-40.7	-43.2	13.1	3.58e-05	0	61	0	931135488	53	4673
2026-01-24 09:33:11.91	102.50	53.36	-40.9	-43.6	12.8	5.34e-05	0	61	0	934281216	53	4875
2026-01-24 09:33:12.92	101.92	53.57	-41.0	-43.7	12.7	1.20e-04	0	61	0	937426944	53	4937
2026-01-24 09:33:13.93	101.32	53.79	-41.0	-43.7	12.6	1.29e-04	0	60	0	940572672	53	4974
2026-01-24 09:33:14.94	100.72	54.00	-40.9	-43.5	12.9	5.72e-05	0	61	0	943718400	53	4818
2026-01-24 09:33:15.95	100.11	54.21	-40.8	-43.3	13.1	3.35e-05	0	61	0	946864128	53	4723
2026-01-24 09:33:16.96	99.49	54.42	-40.5	-42.8	13.6	1.29e-05	0	60	0	950009856	53	4477
2026-01-24 09:33:17.97	98.86	54.62	-40.5	-42.9	13.6	4.50e-06	0	60	0	953155584	52	4761
2026-01-24 09:33:18.98	98.22	54.83	-40.4	-42.8	13.6	3.80e-06	0	61	0	956301312	52	4710
2026-01-24 09:33:19.99	97.58	55.03	-40.2	-42.4	13.9	2.20e-06	0	61	0	959447040	52	4543
2026-01-24 09:33:21.00	96.92	55.22	-40.3	-42.5	13.9	3.80e-06	0	61	0	962592768	52	4589
2026-01-24 09:33:22.01	96.25	55.42	-40.0	-42.1	14.3	0.00e+00	0	61	0	965738496	51	4624
2026-01-24 09:33:23.01	95.59	55.61	-39.8	-41.8	14.6	7.00e-07	0	61	0	968884224	51	4483
2026-01-24 09:33:24.02	94.90	55.79	-39.8	-41.8	14.5	7.00e-07	0	61	0	972029952	51	4472
2026-01-24 09:33:25.03	94.21	55.98	-40.1	-42.3	14.1	0.00e+00	0	61	0	975175680	51	4750
2026-01-24 09:33:26.04	93.51	56.16	-40.1	-42.3	14.1	0.00e+00	0	61	0	978321408	51	4753
2026-01-24 09:33:27.05	92.80	56.33	-40.1	-42.3	14.2	7.00e-07	0	61	0	981467136	51	4708
2026-01-24 09:33:28.06	92.08	56.50	-40.2	-42.4	14.0	2.20e-06	0	60	0	984612864	51	4808
2026-01-24 09:33:29.07	91.35	56.67	-40.1	-42.3	14.2	1.50e-06	0	61	0	987758592	51	4719
2026-01-24 09:33:30.08	90.61	56.84	-40.1	-42.3	14.2	7.00e-07	0	61	0	990904320	51	4713
2026-01-24 09:33:31.09	89.86	57.00	-39.8	-41.9	14.6	7.00e-07	0	61	0	994050048	51	4501
2026-01-24 09:33:32.10	89.11	57.15	-39.6	-41.6	14.8	0.00e+00	0	61	0	997195776	51	4382
2026-01-24 09:33:33.11	88.34	57.31	-39.5	-41.5	14.9	0.00e+00	0	61	0	1000341504	51	4309
2026-01-24 09:33:34.12	87.57	57.45	-39.5	-41.5	15.0	0.00e+00	0	61	0	1003487232	50	4563
2026-01-24 09:33:35.13	86.79	57.60	-39.6	-41.6	14.9	0.00e+00	0	61	0	1006632960	50	4600
2026-01-24 09:33:36.14	86.00	57.73	-39.5	-41.5	15.0	0.00e+00	0	61	0	1009778688	50	4561
2026-01-24 09:33:37.15	85.21	57.87	-39.3	-41.2	15.2	7.00e-07	0	61	0	1012924416	50	4434
2026-01-24 09:33:38.16	84.40	57.99	-39.5	-41.5	15.0	0.00e+00	0	61	0	1016070144	50	4571
2026-01-24 09:33:39.17	83.59	58.12	-39.5	-41.5	15.0	0.00e+00	0	61	0	1019215872	50	4557
2026-01-24 09:33:40.18	82.77	58.23	-39.7	-41.7	14.8	0.00e+00	0	61	0	1022361600	50	4657
2026-01-24 09:33:41.19	81.94	58.35	-39.6	-41.6	14.9	0.00e+00	0	61	0	1025507328	50	4629
2026-01-24 09:33:42.20	81.11	58.45	-39.6	-41.5	14.9	0.00e+00	0	61	0	1028653056	50	4572
2026-01-24 09:33:43.21	80.27	58.55	-39.9	-42.0	14.4	0.00e+00	0	61	0	1031798784	50	4854
2026-01-24 09:33:44.22	79.43	58.65	-39.9	-42.1	14.4	7.00e-07	0	61	0	1034944512	50	4889
2026-01-24 09:33:45.23	78.57	58.74	-40.0	-42.1	14.3	1.50e-06	0	61	0	1038090240	50	4918
2026-01-24 09:33:46.24	77.72	58.82	-39.9	-42.1	14.3	7.00e-07	0	61	0	1041235968	50	4890
2026-01-24 09:33:47.24	76.86	58.90	-40.1	-42.3	14.2	1.50e-06	0	61	0	1044381696	50	4988
2026-01-24 09:33:48.25	75.99	58.97	-40.2	-42.5	14.0	3.00e-06	0	61	0	1047527424	51	4815
2026-01-24 09:33:49.26	75.12	59.04	-40.0	-42.1	14.3	3.80e-06	0	60	0	1050673152	51	4644
2026-01-24 09:33:50.27	74.25	59.10	-40.0	-42.2	14.3	1.50e-06	0	61	0	1053818880	51	4654
2026-01-24 09:33:51.28	73.37	59.15	-40.0	-42.1	14.3	0.00e+00	0	61	0	1056964608	51	4642
2026-01-24 09:33:52.29	72.48	59.20	-40.2	-42.4	14.0	1.50e-06	0	61	0	1060110336	51	4788
2026-01-24 09:33:53.30	71.60	59.24	-39.9	-42.0	14.5	1.50e-06	0	61	0	1063256064	51	4552
2026-01-24 09:33:54.31	70.71	59.28	-39.5	-41.4	15.0	7.00e-07	0	61	0	1066401792	51	4286
2026-01-24 09:33:55.32	69.81	59.31	-39.5	-41.4	14.9	0.00e+00	0	61	0	1069547520	50	4540
2026-01-24 09:33:56.33	68.92	59.33	-39.5	-41.5	14.9	0.00e+00	0	61	0	1072693248	50	4576
2026-01-24 09:33:57.34	68.03	59.35	-39.4	-41.4	15.0	0.00e+00	0	61	0	1075838976	50	4504
2026-01-24 09:33:58.35	67.13	59.36	-39.1	-40.9	15.5	0.00e+00	0	61	0	1078984704	50	4269
2026-01-24 09:33:59.36	66.24	59.36	-39.0	-40.8	15.5	0.00e+00	0	61	0	1082130432	50	4230
2026-01-24 09:34:00.37	65.34	59.36	-39.1	-40.9	15.4	0.00e+00	0	61	0	1085276160	50	4291
2026-01-24 09:34:01.38	64.44	59.35	-39.5	-41.4	15.0	0.00e+00	0	61	0	1088421888	50	4520
2026-01-24 09:34:02.39	63.55	59.33	-39.7	-41.7	14.7	0.00e+00	0	61	0	1091567616	50	4662
2026-01-24 09:34:03.40	62.66	59.31	-39.6	-41.6	14.9	0.00e+00	0	61	0	1094713344	50	4603
2026-01-24 09:34:04.41	61.77	59.28	-39.7	-41.8	14.6	0.00e+00	0	61	0	1097859072	50	4729
2026-01-24 09:34:05.41	60.89	59.25	-39.9	-42.1	14.3	0.00e+00	0	61	0	1101004800	50	4893
2026-01-24 09:34:06.43	59.99	59.21	-40.1	-42.3	14.1	2.20e-06	0	61	0	1104150528	50	5011
2026-01-24 09:34:07.44	59.11	59.16	-39.7	-41.8	14.6	7.00e-07	0	61	0	1107296256	50	4712
2026-01-24 09:34:08.45	58.23	59.11	-39.4	-41.3	15.1	0.00e+00	0	61	0	1110441984	50	4482
2026-01-24 09:34:09.46	57.35	59.05	-39.5	-41.4	15.0	0.00e+00	0	61	0	1113587712	50	4528
2026-01-24 09:34:10.47	56.48	58.98	-39.3	-41.2	15.2	0.00e+00	0	61	0	1116733440	50	4408
2026-01-24 09:34:11.48	55.61	58.91	-39.2	-41.1	15.2	0.00e+00	0	61	0	1119879168	50	4370
2026-01-24 09:34:12.49	54.75	58.83	-39.5	-41.4	15.0	0.00e+00	0	61	0	1123024896	50	4521
2026-01-24 09:34:13.50	53.89	58.75	-39.8	-41.8	14.5	0.00e+00	0	61	0	1126170624	50	4748
2026-01-24 09:34:14.51	53.04	58.66	-39.8	-41.9	14.5	0.00e+00	0	61	0	1129316352	50	4788
2026-01-24 09:34:15.52	52.19	58.56	-39.6	-41.6	14.8	0.00e+00	0	61	0	1132462080	50	4606
2026-01-24 09:34:16.53	51.35	58.46	-39.6	-41.6	14.7	0.00e+00	0	61	0	1135607808	50	4630
2026-01-24 09:34:17.54	50.52	58.36	-39.9	-42.0	14.4	2.20e-06	0	61	0	1138753536	50	4818
2026-01-24 09:34:18.55	49.69	58.25	-40.1	-42.3	14.0	2.20e-06	0	61	0	1142947840	50	5030
2026-01-24 09:34:19.56	48.88	58.13	-40.2	-42.5	13.9	3.80e-06	0	61	0	1145044992	51	4822
2026-01-24 09:34:20.57	48.06	58.01	-40.1	-42.3	14.1	7.00e-07	0	61	0	1148190720	51	4707
2026-01-24 09:34:21.58	47.26	57.88	-40.1	-42.3	14.1	2.20e-06	0	61	0	1151336448	51	4717
2026-01-24 09:34:22.59	46.46	57.75	-39.9	-42.1	14.3	0.00e+00	0	61	0	1155530752	51	4608
2026-01-24 09:34:23.60	45.67	57.61	-39.9	-42.1	14.2	0.00e+00	0	61	0	1158676480	51	4615
2026-01-24 09:34:24.61	44.89	57.47	-40.0	-42.2	14.1	0.00e+00	0	61	0	1161822208	51	4670
2026-01-24 09:34:25.62	44.12	57.32	-40.1	-42.3	14.0	2.20e-06	0	61	0	1164967936	51	4746
2026-01-24 09:34:26.63	43.36	57.17	-40.1	-42.2	14.1	1.50e-06	0	61	0	1168113664	51	4704
2026-01-24 09:34:27.64	42.60	57.02	-39.9	-42.0	14.3	7.00e-07	0	61	0	1171259392	51	4581
2026-01-24 09:34:28.65	41.86	56.86	-40.2	-42.4	13.9	7.00e-07	0	61	0	1174405120	51	4812
2026-01-24 09:34:29.66	41.12	56.69	-40.3	-42.6	13.8	2.20e-06	0	61	0	1177550848	51	4906
2026-01-24 09:34:30.67	40.39	56.53	-40.3	-42.5	13.8	8.30e-06	0	61	0	1180696576	51	4851
2026-01-24 09:34:31.68	39.67	56.35	-40.1	-42.3	14.0	1.50e-06	0	61	0	1183842304	51	4719
2026-01-24 09:34:32.69	38.96	56.18	-40.0	-42.1	14.1	1.50e-06	0	61	0	1186988032	51	4651
2026-01-24 09:34:33.70	38.26	56.00	-40.1	-42.3	14.0	4.50e-06	0	61	0	1190133760	51	4747
2026-01-24 09:34:34.71	37.57	55.82	-40.4	-42.7	13.6	5.30e-06	0	61	0	1193279488	51	4929
2026-01-24 09:34:35.72	36.88	55.63	-40.7	-43.1	13.1	3.43e-05	0	61	0	1196425216	52	4920
2026-01-24 09:34:36.73	36.21	55.44	-40.8	-43.3	12.9	4.95e-05	0	61	0	1199570944	52	4997
2026-01-24 09:34:37.74	35.54	55.25	-40.9	-43.5	12.6	5.41e-05	0	61	0	1202716672	52	5151
2026-01-24 09:34:38.75	34.89	55.05	-40.7	-43.2	12.9	9.15e-05	0	61	0	1205862400	52	4976
2026-01-24 09:34:39.76	34.24	54.85	-40.3	-42.6	13.4	1.67e-05	0	61	0	1209008128	52	4651
2026-01-24 09:34:40.77	33.60	54.65	-40.3	-42.6	13.6	6.80e-06	0	61	0	1212153856	52	4630
2026-01-24 09:34:41.78	32.97	54.45	-40.6	-43.1	13.1	1.98e-05	0	61	0	1215299584	52	4891
2026-01-24 09:34:42.79	32.35	54.24	-41.0	-43.7	12.5	1.14e-04	0	61	0	1218445312	52	5260
2026-01-24 09:34:43.80	31.74	54.03	-41.3	-44.2	11.9	3.13e-04	0	61	0	1221591040	53	5235
2026-01-24 09:34:44.81	31.14	53.82	-41.6	-44.7	11.3	1.28e-03	0	61	0	1224736768	53	5579
2026-01-24 09:34:45.82	30.55	53.61	-41.5	-44.5	11.6	1.10e-03	0	61	0	1227882496	53	5420
2026-01-24 09:34:46.83	29.96	53.39	-40.8	-43.3	12.7	1.56e-04	0	61	0	1231028224	53	4736
2026-01-24 09:34:47.84	29.39	53.17	-40.2	-42.5	13.6	1.67e-05	0	61	0	1234173952	52	4592
2026-01-24 09:34:48.85	28.82	52.95	-40.3	-42.5	13.6	5.30e-06	0	61	0	1237319680	52	4596
2026-01-24 09:34:49.86	28.26	52.73	-40.7	-43.1	13.0	2.28e-05	0	61	0	1240465408	52	4907
2026-01-24 09:34:50.86	27.72	52.51	-41.4	-44.4	11.8	3.89e-04	0	61	0	1243611136	53	5344
2026-01-24 09:34:51.87	27.18	52.28	-41.6	-44.6	11.4	1.23e-03	0	61	0	1246756864	54	5204
2026-01-24 09:34:52.88	26.64	52.06	-41.0	-43.7	12.4	3.29e-04	0	61	0	1249902592	54	4663
2026-01-24 09:34:53.89	26.12	51.83	-40.4	-42.7	13.3	3.28e-05	0	61	0	1253048320	52	4681
2026-01-24 09:34:54.90	25.60	51.60	-40.3	-42.7	13.3	2.05e-05	0	61	0	1256194048	52	4659
2026-01-24 09:34:55.91	25.09	51.37	-40.3	-42.7	13.3	2.28e-05	0	61	0	1259339776	52	4656
2026-01-24 09:34:56.92	24.59	51.13	-40.5	-42.9	13.1	3.89e-05	0	61	0	1262485504	52	4798
2026-01-24 09:34:57.93	24.10	50.90	-41.0	-43.6	12.4	8.77e-05	0	61	0	1265631232	52	5203
2026-01-24 09:34:58.94	23.61	50.67	-41.5	-44.5	11.6	4.26e-04	0	61	0	1268776960	53	5431
2026-01-24 09:34:59.95	23.13	50.43	-41.8	-45.0	11.0	1.59e-03	0	61	0	1271922688	54	5407
2026-01-24 09:35:00.96	22.66	50.19	-41.4	-44.3	11.6	1.07e-03	0	61	0	1275068416	54	5028
2026-01-24 09:35:01.97	22.20	49.96	-40.9	-43.6	12.3	2.33e-04	0	61	0	1278214144	53	4899
2026-01-24 09:35:02.98	21.74	49.72	-40.8	-43.4	12.6	1.18e-04	0	61	0	1281359872	53	4798
2026-01-24 09:35:03.99	21.29	49.48	-40.9	-43.5	12.5	1.05e-04	0	61	0	1284505600	53	4856
2026-01-24 09:35:05.00	20.85	49.24	-41.1	-43.8	12.2	1.97e-04	0	61	0	1287651328	53	5038
2026-01-24 09:35:06.01	20.42	49.00	-41.5	-44.6	11.4	5.62e-04	0	61	0	1290797056	53	5511
2026-01-24 09:35:07.02	19.99	48.76	-41.8	-45.0	11.1	1.17e-03	0	61	0	1293942784	54	5413
2026-01-24 09:35:08.02	19.57	48.52	-41.9	-45.3	10.8	2.36e-03	0	61	0	1297088512	54	5620
2026-01-24 09:35:09.04	19.15	48.28	-41.9	-45.2	10.8	2.63e-03	0	61	0	1300234240	54	5577
2026-01-24 09:35:10.04	18.75	48.04	-41.6	-44.7	11.3	1.66e-03	0	61	0	1303379968	54	5244
2026-01-24 09:35:11.05	18.35	47.80	-41.0	-43.7	12.4	2.59e-04	0	61	0	1306525696	54	4667
2026-01-24 09:35:12.06	17.95	47.56	-40.6	-43.2	12.9	5.49e-05	0	61	0	1309671424	52	4940
2026-01-24 09:35:13.07	17.56	47.32	-40.7	-43.3	12.9	1.83e-05	0	61	0	1312817152	52	4985
2026-01-24 09:35:14.08	17.18	47.08	-41.3	-44.1	12.0	1.46e-04	0	61	0	1315962880	53	5194
2026-01-24 09:35:15.09	16.80	46.84	-42.0	-45.3	10.7	2.13e-03	0	61	0	1319108608	54	5650
2026-01-24 09:35:16.10	16.43	46.59	-42.3	-46.0	10.0	6.78e-03	0	61	0	1322254336	55	5783
2026-01-24 09:35:17.11	16.06	46.35	-42.2	-45.9	10.1	6.97e-03	0	61	0	1325400064	55	5668
2026-01-24 09:35:18.12	15.70	46.11	-42.0	-45.4	10.5	4.29e-03	0	61	0	1328545792	55	5381
2026-01-24 09:35:19.14	15.34	45.87	-41.8	-45.1	10.8	3.22e-03	0	61	0	1331691520	55	5209
2026-01-24 09:35:20.14	15.00	45.63	-41.5	-44.7	11.3	1.47e-03	0	61	0	1334837248	54	5260
2026-01-24 09:35:21.16	14.65	45.39	-41.4	-44.3	11.8	7.80e-04	0	61	0	1337982976	54	4991
2026-01-24 09:35:22.17	14.31	45.15	-40.9	-43.6	12.5	2.17e-04	0	61	0	1341128704	52	5193
2026-01-24 09:35:23.17	13.98	44.91	-40.9	-43.5	12.6	6.48e-05	0	61	0	1344274432	52	5123
2026-01-24 09:35:24.19	13.65	44.67	-41.0	-43.7	12.4	1.32e-04	0	61	0	1347420160	52	5267
2026-01-24 09:35:25.19	13.33	44.43	-41.6	-44.7	11.3	9.02e-04	0	61	0	1350565888	53	5592
2026-01-24 09:35:26.20	13.01	44.19	-42.3	-46.0	10.0	3.93e-03	0	61	0	1353711616	55	5756
2026-01-24 09:35:27.21	12.69	43.95	-42.2	-45.8	9.9	1.29e-02	0	61	0	1356857344	55	5647
2026-01-24 09:35:28.22	12.38	43.72	-41.6	-44.7	10.9	4.03e-03	0	61	0	1360003072	55	4928
2026-01-24 09:35:29.23	12.08	43.48	-41.0	-43.7	12.0	5.03e-04	0	61	0	1363148800	54	4663
2026-01-24 09:35:30.24	11.78	43.24	-40.9	-43.5	12.3	2.18e-04	0	61	0	1366294528	53	4853
2026-01-24 09:35:31.25	11.48	43.01	-41.1	-43.8	12.1	2.41e-04	0	61	0	1369440256	53	5004
2026-01-24 09:35:32.26	11.19	42.77	-41.5	-44.4	11.5	7.98e-04	0	61	0	1372585984	53	5401
2026-01-24 09:35:33.27	10.90	42.54	-42.0	-45.4	10.5	2.25e-03	0	61	0	1375731712	54	5693
2026-01-24 09:35:34.28	10.62	42.30	-42.2	-45.9	10.0	6.55e-03	0	61	0	1378877440	55	5677
2026-01-24 09:35:35.29	10.34	42.07	-42.3	-46.0	10.0	8.48e-03	0	61	0	1382023168	55	5736
2026-01-24 09:35:36.30	10.07	41.84	-42.1	-45.6	10.3	5.68e-03	0	61	0	1385168896	55	5513
2026-01-24 09:35:37.31	9.80	41.60	-42.2	-45.8	10.2	5.44e-03	0	61	0	1388314624	55	5597
2026-01-24 09:35:38.32	9.53	41.37	-42.1	-45.6	10.3	5.32e-03	0	61	0	1391460352	55	5520
2026-01-24 09:35:39.33	9.27	41.14	-41.8	-45.2	10.8	3.18e-03	0	61	0	1394606080	55	5225
2026-01-24 09:35:40.34	9.01	40.91	-41.2	-44.4	11.5	1.08e-03	0	61	0	1397751808	54	5085
2026-01-24 09:35:41.35	8.75	40.68	-40.8	-43.5	12.5	2.02e-04	0	61	0	1400897536	53	4823
2026-01-24 09:35:42.36	8.50	40.46	-40.4	-42.8	13.1	3.50e-05	0	61	0	1404043264	52	4759
2026-01-24 09:35:43.37	8.25	40.23	-40.3	-42.7	13.4	2.05e-05	0	61	0	1407188992	52	4654
2026-01-24 09:35:44.38	8.00	40.00	-40.1	-42.3	13.7	6.80e-06	0	61	0	1410334720	52	4482
2026-01-24 09:35:45.39	7.76	39.78	-40.2	-42.5	13.5	8.30e-06	0	61	0	1413480448	52	4584
2026-01-24 09:35:46.40	7.53	39.55	-40.7	-43.2	12.8	2.97e-05	0	61	0	1416626176	52	4972
2026-01-24 09:35:47.41	7.29	39.33	-41.3	-44.2	11.8	2.50e-04	0	61	0	1419771904	53	5239
2026-01-24 09:35:48.42	7.06	39.11	-41.9	-45.2	10.8	1.64e-03	0	61	0	1422917632	54	5571
2026-01-24 09:35:49.43	6.83	38.88	-41.6	-45.2	10.7	2.90e-03	0	61	0	1426063360	54	5545
2026-01-24 09:35:50.44	6.60	38.66	-41.7	-44.9	11.0	2.07e-03	0	61	0	1429209088	54	5357
2026-01-24 09:35:51.45	6.38	38.44	-41.3	-44.3	11.6	8.20e-04	0	61	0	1432354816	53	5333
2026-01-24 09:35:52.46	6.16	38.22	-41.1	-43.9	12.0	3.57e-04	0	61	0	1435500544	53	5096
2026-01-24 09:35:53.47	5.95	38.00	-41.0	-43.8	12.2	2.29e-04	0	61	0	1438646272	53	4999
2026-01-24 09:35:54.48	5.73	37.79	-40.7	-43.4	12.6	1.26e-04	0	61	0	1441792000	52	5048
2026-01-24 09:35:55.49	5.52	37.57	-40.6	-43.1	12.8	6.71e-05	0	61	0	1444937728	52	4924
2026-01-24 09:35:56.50	5.32	37.36	-40.3	-42.8	13.1	3.12e-05	0	61	0	1448083456	52	4751
2026-01-24 09:35:57.51	5.11	37.14	-40.3	-42.6	13.3	2.28e-05	0	61	0	1451229184	52	4650
2026-01-24 09:35:58.52	4.91	36.93	-40.2	-42.6	13.3	1.67e-05	0	61	0	1454374912	52	4618
2026-01-24 09:35:59.53	4.71	36.72	-40.2	-42.5	13.4	2.67e-05	0	61	0	1457520640	52	4592
2026-01-24 09:36:00.54	4.51	36.50	-40.1	-42.4	13.5	9.10e-06	0	61	0	1461714944	52	4544
2026-01-24 09:36:01.55	4.32	36.29	-40.3	-42.6	13.5	1.44e-05	0	61	0	1463812096	51	4897
2026-01-24 09:36:02.56	4.13	36.08	-40.5	-42.9	13.1	2.28e-05	0	61	0	1466957824	51	5082
2026-01-24 09:36:03.57	3.94	35.88	-40.6	-43.2	12.9	3.58e-05	0	61	0	1470103552	51	5228
2026-01-24 09:36:04.58	3.75	35.67	-40.8	-43.5	12.4	9.91e-05	0	61	0	1473249280	52	5134
2026-01-24 09:36:05.59	3.57	35.46	-40.9	-43.7	12.2	2.11e-04	0	61	0	1477443584	52	5269
2026-01-24 09:36:06.60	3.38	35.26	-41.1	-43.9	12.0	3.34e-04	0	61	0	1480589312	52	5378
2026-01-24 09:36:07.61	3.20	35.05	-41.0	-43.8	12.1	3.20e-04	0	61	0	1483735040	52	5313
2026-01-24 09:36:08.62	3.03	34.85	-40.8	-43.5	12.5	1.79e-04	0	61	0	1485832192	52	5101
2026-01-24 09:36:09.63	2.85	34.65	-40.5	-43.0	12.9	6.17e-05	0	61	0	1488977920	52	4824
2026-01-24 09:36:10.64	2.68	34.45	-40.2	-42.6	13.3	3.43e-05	0	61	0	1492123648	52	4636
2026-01-24 09:36:11.65	2.51	34.24	-40.1	-42.4	13.5	1.67e-05	0	61	0	1496317952	52	4530
2026-01-24 09:36:12.66	2.34	34.05	-40.0	-42.2	13.8	6.80e-06	0	61	0	1499463680	51	4693
2026-01-24 09:36:13.66	2.17	33.85	-40.0	-42.2	13.7	4.50e-06	0	61	0	1502609408	51	4693
2026-01-24 09:36:14.67	2.01	33.65	-40.0	-42.2	13.8	4.50e-06	0	61	0	1505755136	51	4683
2026-01-24 09:36:15.68	1.85	33.45	-40.1	-42.3	13.6	3.80e-06	0	61	0	1507852288	51	4752
2026-01-24 09:36:16.69	1.68	33.26	-40.1	-42.3	13.6	1.06e-05	0	61	0	1512046592	51	4742
2026-01-24 09:36:17.70	1.53	33.06	-40.1	-42.4	13.5	6.10e-06	0	61	0	1515192320	51	4804
2026-01-24 09:36:18.71	1.37	32.87	-40.1	-42.4	13.6	7.60e-06	0	61	0	1518338048	51	4772
2026-01-24 09:36:19.72	1.21	32.68	-40.1	-42.5	13.4	1.22e-05	0	61	0	1521483776	51	4822
2026-01-24 09:36:20.73	1.06	32.49	-40.2	-42.5	13.4	1.60e-05	0	61	0	1524629504	51	4863
2026-01-24 09:36:21.74	0.91	32.30	-40.2	-42.6	13.4	1.44e-05	0	61	0	1527775232	51	4885
2026-01-24 09:36:22.75	0.76	32.11	-40.2	-42.6	13.4	1.29e-05	0	61	0	1530920960	51	4884
2026-01-24 09:36:23.76	0.61	31.92	-40.3	-42.7	13.3	1.29e-05	0	61	0	1534066688	51	4931
2026-01-24 09:36:24.77	0.47	31.73	-40.2	-42.5	13.5	9.10e-06	0	61	0	1537212416	51	4843
2026-01-24 09:36:25.78	0.32	31.54	-40.0	-42.2	13.7	7.60e-06	0	61	0	1540358144	51	4682
2026-01-24 09:36:26.79	0.18	31.36	-39.8	-42.0	13.9	2.20e-06	0	61	0	1543503872	51	4579
2026-01-24 09:36:27.80	0.04	31.17	-39.7	-41.9	14.1	1.50e-06	0	61	0	1546649600	51	4505
2026-01-24 09:36:28.81	359.90	30.99	-39.7	-41.8	14.2	3.00e-06	0	61	0	1549795328	51	4466
2026-01-24 09:36:29.82	359.76	30.81	-39.7	-41.9	14.1	6.10e-06	0	61	0	1552941056	51	4500
2026-01-24 09:36:30.82	359.63	30.63	-39.7	-41.8	14.1	2.20e-06	0	61	0	1556086784	51	4480
2026-01-24 09:36:31.83	359.49	30.45	-39.6	-41.8	14.1	7.00e-07	0	61	0	1559232512	51	4458
2026-01-24 09:36:32.84	359.36	30.27	-39.8	-41.9	13.9	3.80e-06	0	61	0	1562378240	51	4539
2026-01-24 09:36:33.85	359.23	30.09	-39.9	-42.2	13.7	5.30e-06	0	61	0	1565523968	51	4684
2026-01-24 09:36:34.86	359.10	29.91	-40.1	-42.5	13.5	9.90e-06	0	61	0	1568669696	51	4816
2026-01-24 09:36:35.87	358.97	29.73	-40.2	-42.6	13.3	1.37e-05	0	61	0	1571815424	51	4924
2026-01-24 09:36:36.88	358.84	29.56	-40.3	-42.7	13.2	1.83e-05	0	61	0	1574961152	51	4942
2026-01-24 09:36:37.90	358.72	29.38	-40.3	-42.8	13.1	2.89e-05	0	61	0	1578106880	51	4990
2026-01-24 09:36:38.90	358.59	29.21	-40.3	-42.8	13.1	2.97e-05	0	61	0	1581252608	51	5010
2026-01-24 09:36:39.91	358.47	29.03	-40.3	-42.8	13.1	3.05e-05	0	61	0	1584398336	51	5009
2026-01-24 09:36:40.92	358.35	28.86	-40.4	-42.9	13.0	3.50e-05	0	61	0	1587544064	51	5049
2026-01-24 09:36:41.93	358.23	28.69	-40.3	-42.8	13.1	4.19e-05	0	61	0	1590689792	51	4988
2026-01-24 09:36:42.94	358.11	28.52	-40.2	-42.6	13.2	2.44e-05	0	61	0	1593835520	51	4920
2026-01-24 09:36:43.95	357.99	28.35	-40.2	-42.6	13.3	2.67e-05	0	61	0	1596981248	51	4887
2026-01-24 09:36:44.96	357.88	28.18	-40.1	-42.5	13.3	2.13e-05	0	61	0	1600126976	51	4836
2026-01-24 09:36:45.97	357.76	28.01	-40.0	-42.3	13.5	8.30e-06	0	61	0	1603272704	51	4755
2026-01-24 09:36:46.98	357.65	27.85	-40.0	-42.3	13.5	1.06e-05	0	61	0	1606418432	51	4722
2026-01-24 09:36:47.99	357.54	27.68	-39.9	-42.3	13.6	8.30e-06	0	61	0	1609564160	51	4708
2026-01-24 09:36:49.00	357.42	27.52	-39.8	-42.0	13.8	7.60e-06	0	61	0	1612709888	51	4590
2026-01-24 09:36:50.01	357.31	27.35	-39.7	-41.9	13.9	3.80e-06	0	61	0	1615855616	51	4528
2026-01-24 09:36:51.02	357.21	27.19	-39.7	-41.9	14.0	1.50e-06	0	61	0	1619001344	51	4502
2026-01-24 09:36:52.03	357.10	27.02	-39.4	-41.5	14.4	3.00e-06	0	61	0	1622147072	50	4552
2026-01-24 09:36:53.04	356.99	26.86	-39.2	-41.3	14.6	0.00e+00	0	61	0	1625292800	50	4447
2026-01-24 09:36:54.05	356.88	26.70	-39.3	-41.3	14.5	0.00e+00	0	61	0	1628438528	50	4476
2026-01-24 09:36:55.06	356.78	26.54	-39.2	-41.2	14.6	7.00e-07	0	61	0	1631584256	50	4402
2026-01-24 09:36:56.07	356.68	26.38	-39.1	-41.1	14.7	0.00e+00	0	61	0	1634729984	50	4383
2026-01-24 09:36:57.08	356.57	26.22	-39.1	-41.1	14.7	0.00e+00	0	61	0	1637875712	50	4349
2026-01-24 09:36:58.09	356.47	26.07	-39.1	-41.1	14.6	0.00e+00	0	61	0	1641021440	50	4390
2026-01-24 09:36:59.10	356.37	25.91	-39.1	-41.2	14.6	7.00e-07	0	61	0	1644167168	50	4408
2026-01-24 09:37:00.11	356.27	25.75	-39.2	-41.2	14.5	0.00e+00	0	61	0	1647312896	50	4440
2026-01-24 09:37:01.12	356.17	25.60	-39.2	-41.2	14.5	7.00e-07	0	61	0	1650458624	50	4441
2026-01-24 09:37:02.13	356.08	25.44	-39.2	-41.3	14.3	1.50e-06	0	61	0	1653604352	50	4489
2026-01-24 09:37:03.14	355.98	25.29	-39.2	-41.3	14.4	0.00e+00	0	61	0	1656750080	50	4476
2026-01-24 09:37:04.15	355.89	25.14	-39.2	-41.3	14.3	0.00e+00	0	61	0	1659895808	50	4490
2026-01-24 09:37:05.16	355.79	24.99	-39.2	-41.3	14.2	1.50e-06	0	61	0	1663041536	50	4491
2026-01-24 09:37:06.17	355.70	24.84	-39.2	-41.4	14.2	7.00e-07	0	61	0	1666187264	50	4522
2026-01-24 09:37:07.18	355.61	24.68	-39.3	-41.5	14.1	7.00e-07	0	61	0	1669332992	50	4552
2026-01-24 09:37:08.18	355.51	24.54	-39.3	-41.5	14.1	1.50e-06	0	61	0	1672478720	50	4568
2026-01-24 09:37:09.19	355.42	24.39	-39.3	-41.5	14.0	3.00e-06	0	61	0	1675624448	50	4580
2026-01-24 09:37:10.20	355.33	24.24	-39.4	-41.6	13.9	3.80e-06	0	61	0	1678770176	50	4602
2026-01-24 09:37:11.21	355.24	24.09	-39.4	-41.6	13.9	7.60e-06	0	61	0	1681915904	50	4613
2026-01-24 09:37:12.22	355.16	23.95	-39.4	-41.7	13.7	6.80e-06	0	61	0	1685061632	50	4687
2026-01-24 09:37:13.23	355.07	23.80	-39.6	-41.9	13.5	7.60e-06	0	61	0	1688207360	50	4784
2026-01-24 09:37:14.24	354.98	23.65	-39.5	-41.9	13.5	1.75e-05	0	61	0	1691353088	50	4773
2026-01-24 09:37:15.25	354.90	23.51	-39.7	-42.1	13.2	1.90e-05	0	62	0	1694498816	50	4900
2026-01-24 09:37:16.26	354.81	23.37	-39.6	-42.0	13.3	2.36e-05	0	61	0	1697644544	50	4848
2026-01-24 09:37:17.27	354.73	23.22	-39.6	-42.0	13.3	2.13e-05	0	61	0	1700790272	50	4853
2026-01-24 09:37:18.28	354.65	23.08	-39.7	-42.2	13.0	2.74e-05	0	61	0	1703936000	50	4931
2026-01-24 09:37:19.29	354.56	22.94	-39.5	-41.9	13.3	2.51e-05	0	61	0	1707081728	50	4779
2026-01-24 09:37:20.30	354.48	22.80	-39.5	-41.9	13.2	1.29e-05	0	61	0	1710227456	50	4777
2026-01-24 09:37:21.31	354.40	22.66	-39.7	-42.3	12.7	7.32e-05	0	61	0	1713373184	50	5013
2026-01-24 09:37:22.32	354.32	22.52	-39.6	-42.2	12.8	9.07e-05	0	61	0	1716518912	50	4935
2026-01-24 09:37:23.33	354.24	22.38	-39.4	-41.9	13.0	3.35e-05	0	61	0	1719664640	50	4776
2026-01-24 09:37:24.34	354.16	22.24	-39.4	-42.0	12.8	4.95e-05	0	61	0	1722810368	50	4824
2026-01-24 09:37:25.35	354.08	22.11	-39.4	-42.0	12.5	1.01e-04	0	61	0	1725956096	50	4839
2026-01-24 09:37:26.36	354.01	21.97	-39.4	-42.2	12.2	2.00e-04	0	61	0	1729101824	50	4928
2026-01-24 09:37:27.37	353.93	21.83	-39.3	-42.1	12.2	2.39e-04	0	61	0	1732247552	50	4890
2026-01-24 09:37:28.38	353.85	21.70	-39.2	-41.9	12.2	2.26e-04	0	61	0	1735393280	50	4787
2026-01-24 09:37:29.39	353.78	21.56	-39.2	-42.0	12.0	2.74e-04	0	61	0	1738539008	50	4834
2026-01-24 09:37:30.39	353.71	21.43	-39.3	-42.2	11.8	4.29e-04	0	61	0	1741684736	50	4947
2026-01-24 09:37:31.40	353.63	21.30	-39.5	-42.7	11.0	1.13e-03	0	61	0	1744830464	50	5264
2026-01-24 09:37:32.41	353.56	21.16	-39.9	-43.4	10.2	4.61e-03	0	61	0	1747976192	50	5712
2026-01-24 09:37:33.42	353.49	21.03	-40.2	-44.4	9.1	1.84e-02	0	61	0	1751121920	51	6011
2026-01-24 09:37:34.43	353.41	20.90	-40.6	-45.5	7.7	5.22e-02	0	61	0	1754267648	51	6863
2026-01-24 09:37:35.44	353.34	20.77	-40.8	-46.6	6.5	1.66e-01	0	61	0	1757413376	52	7365
2026-01-24 09:37:36.45	353.27	20.64	-41.0	-47.9	5.4	4.12e-01	0	61	0	1760559104	52	8525
2026-01-24 09:37:37.46	353.20	20.51	-41.2	-49.4	4.5	1.38e+00	2	61	104	1762656256	52	10164
2026-01-24 09:37:38.47	353.13	20.38	-41.2	-50.7	4.1	1.47e+00	0	61	104	1762656256	53	11113
2026-01-24 09:37:39.48	353.06	20.25	-41.3	-52.5	3.8	1.49e+00	0	61	104	1762656256	53	13651
2026-01-24 09:37:40.48	353.00	20.13	-41.3	-53.0	3.8	1.49e+00	0	61	104	1762656256	53	14466
2026-01-24 09:37:41.50	352.93	20.00	-41.3	-53.4	3.8	1.49e+00	0	61	104	1762656256	53	15196
2026-01-24 09:37:42.50	352.86	19.87	-41.0	-53.0	3.8	1.49e+00	0	61	104	1762656256	53	14509
2026-01-24 09:37:43.52	352.80	19.75	-41.2	-53.5	3.8	1.49e+00	0	61	104	1762656256	53	15234
2026-01-24 09:37:44.53	352.73	19.62	-41.4	-53.5	3.8	1.49e+00	0	61	104	1762656256	53	15259
2026-01-24 09:37:45.54	352.67	19.50	-41.1	-53.5	3.8	1.49e+00	0	61	104	1762656256	53	15276
2026-01-24 09:37:46.55	352.60	19.37	-40.8	-53.1	3.8	1.49e+00	0	61	104	1762656256	53	14544
2026-01-24 09:37:47.56	352.54	19.25	-41.0	-53.3	3.8	1.49e+00	0	61	104	1762656256	53	14982
2026-01-24 09:37:48.57	352.47	19.13	-41.0	-53.3	3.8	1.49e+00	0	61	104	1762656256	53	14905
2026-01-24 09:37:49.58	352.41	19.00	-40.7	-53.0	3.8	1.49e+00	0	61	104	1762656256	53	14461
2026-01-24 09:37:50.58	352.35	18.88	-40.7	-53.0	3.8	1.49e+00	0	61	104	1762656256	53	14441
2026-01-24 09:37:51.59	352.29	18.76	-40.7	-53.0	3.8	1.49e+00	0	61	104	1762656256	53	14453
2026-01-24 09:37:52.61	352.22	18.64	-40.7	-53.0	3.8	1.49e+00	0	62	104	1762656256	53	14459
2026-01-24 09:37:53.61	352.16	18.52	-40.8	-53.0	3.8	1.49e+00	0	61	104	1762656256	53	14538
2026-01-24 09:37:54.62	352.10	18.40	-40.9	-53.2	3.8	1.49e+00	0	61	104	1762656256	53	14808
2026-01-24 09:37:55.64	352.04	18.28	-40.8	-53.1	3.8	1.49e+00	0	61	104	1762656256	53	14609
2026-01-24 09:37:56.64	351.98	18.16	-40.7	-53.0	3.8	1.49e+00	0	61	104	1762656256	53	14526
2026-01-24 09:37:57.65	351.93	18.05	-40.7	-53.0	3.8	1.49e+00	0	61	104	1762656256	53	14497
2026-01-24 09:37:58.66	351.87	17.93	-40.7	-53.0	3.8	1.49e+00	0	61	104	1762656256	53	14520
2026-01-24 09:37:59.67	351.81	17.81	-40.8	-53.1	3.8	1.49e+00	0	61	104	1762656256	53	14644
2026-01-24 09:38:00.68	351.75	17.70	-40.7	-53.0	3.8	1.49e+00	0	62	104	1762656256	53	14423
2026-01-24 09:38:01.69	351.69	17.58	-40.7	-53.0	3.8	1.49e+00	0	61	104	1762656256	53	14485
2026-01-24 09:38:02.70	351.64	17.46	-40.7	-53.0	3.8	1.49e+00	0	61	104	1762656256	53	14459
2026-01-24 09:38:03.71	351.58	17.35	-40.7	-53.0	3.8	1.49e+00	0	61	104	1762656256	53	14528
2026-01-24 09:38:04.72	351.53	17.24	-40.7	-53.0	3.8	1.49e+00	0	61	104	1762656256	53	14455
2026-01-24 09:38:05.73	351.47	17.12	-40.7	-53.0	3.8	1.49e+00	0	61	104	1762656256	53	14407
2026-01-24 09:38:06.75	351.42	17.01	-40.9	-53.2	3.8	1.49e+00	0	62	104	1762656256	53	14750
2026-01-24 09:38:07.75	351.36	16.90	-40.7	-53.0	3.8	1.49e+00	0	61	104	1762656256	53	14419
2026-01-24 09:38:08.76	351.31	16.78	-40.7	-53.1	3.8	1.49e+00	0	62	104	1762656256	53	14556
2026-01-24 09:38:09.77	351.25	16.67	-40.7	-53.0	3.8	1.49e+00	0	61	104	1762656256	53	14384
2026-01-24 09:38:10.79	351.20	16.56	-40.9	-53.2	3.8	1.49e+00	0	61	104	1762656256	53	14820
2026-01-24 09:38:11.79	351.15	16.45	-40.7	-53.0	3.8	1.49e+00	0	61	104	1762656256	53	14400
2026-01-24 09:38:12.80	351.10	16.34	-40.9	-53.3	3.8	1.49e+00	0	62	104	1762656256	53	14882
2026-01-24 09:38:13.81	351.04	16.23	-40.7	-53.0	3.8	1.49e+00	0	62	104	1762656256	53	14421
2026-01-24 09:38:14.82	350.99	16.12	-40.8	-53.1	3.8	1.49e+00	0	61	104	1762656256	53	14594
2026-01-24 09:38:15.83	350.94	16.01	-40.7	-53.0	3.8	1.49e+00	0	61	104	1762656256	53	14468
2026-01-24 09:38:16.84	350.89	15.90	-40.9	-53.3	3.8	1.49e+00	0	61	104	1762656256	53	14895
2026-01-24 09:38:17.85	350.84	15.79	-40.7	-52.9	3.8	1.49e+00	0	61	104	1762656256	53	14354
2026-01-24 09:38:18.86	350.79	15.69	-40.7	-53.1	3.8	1.49e+00	0	61	104	1762656256	53	14641
2026-01-24 09:38:19.87	350.74	15.58	-40.7	-53.0	3.8	1.49e+00	0	61	104	1762656256	53	14512
2026-01-24 09:38:20.88	350.69	15.47	-40.8	-53.1	3.8	1.49e+00	0	61	104	1762656256	53	14598
2026-01-24 09:38:21.89	350.64	15.37	-40.7	-53.1	3.8	1.49e+00	0	61	104	1762656256	53	14550
2026-01-24 09:38:22.90	350.60	15.26	-40.8	-53.2	3.8	1.49e+00	0	62	104	1762656256	53	14749
2026-01-24 09:38:23.91	350.55	15.15	-40.7	-53.0	3.8	1.49e+00	0	61	104	1762656256	53	14443
2026-01-24 09:38:24.92	350.50	15.05	-40.7	-53.0	3.8	1.49e+00	0	61	104	1762656256	53	14449
2026-01-24 09:38:25.93	350.45	14.95	-40.9	-53.2	3.8	1.49e+00	0	61	104	1762656256	53	14789
2026-01-24 09:38:26.94	350.41	14.84	-40.9	-53.2	3.8	1.49e+00	0	61	104	1762656256	53	14848
2026-01-24 09:38:27.95	350.36	14.74	-40.7	-52.9	3.8	1.49e+00	0	61	104	1762656256	53	14359
2026-01-24 09:38:28.96	350.31	14.63	-40.7	-53.1	3.8	1.49e+00	0	62	104	1762656256	53	14544
2026-01-24 09:38:29.97	350.27	14.53	-40.9	-53.3	3.8	1.49e+00	0	61	104	1762656256	53	14913
