passes_logs/2026/01/24/R2.0S_Moscow/R2.0S_Moscow__20260124_074858_NOAA_21_JPSS-2_rec.log

#Pass ID: 20260124_074858_NOAA 21 (JPSS-2)
#Satellite: NOAA 21 (JPSS-2)
#Configuration: NOAA-21
#almurnet v.1.7.20251203
#Start time: 2026-01-24 07:48:58

#Version: 2.2.20231116
#Station: R2.0S_Moscow
#Location: 37.707566 lon 55.798166 lat
#TLE: 1 54234U 22150A   26023.61190495  .00000215  00000+0  12293-3 0  9993
#TLE: 2 54234  98.7508 324.4078 0000700 226.6110 133.5008 14.19538339166032

#Time	Az	El	Level	Level2	SNR	BER	BlckErr	Temp	State	Recorded	gain1	gain2
2026-01-24 07:48:58.06	98.42	2.00	-40.2	-52.6	3.8	1.49e+00	0	51	0	0	51	15500
2026-01-24 07:48:59.07	98.34	2.05	-40.3	-52.6	3.8	1.49e+00	0	52	104	0	51	15520
2026-01-24 07:49:00.08	98.26	2.10	-40.0	-52.6	3.8	1.49e+00	0	52	104	0	50	16389
2026-01-24 07:49:01.09	98.18	2.16	-40.3	-52.6	3.8	1.49e+00	0	52	104	0	51	15491
2026-01-24 07:49:02.10	98.09	2.21	-40.2	-52.6	3.9	1.49e+00	0	52	104	0	51	15470
2026-01-24 07:49:03.11	98.01	2.26	-40.3	-52.6	3.8	1.49e+00	0	52	104	0	51	15510
2026-01-24 07:49:04.12	97.92	2.31	-40.1	-52.5	3.8	1.49e+00	0	52	104	0	51	15400
2026-01-24 07:49:05.13	97.84	2.36	-39.9	-52.6	3.8	1.49e+00	0	52	104	0	51	15461
2026-01-24 07:49:06.15	97.75	2.42	-40.1	-52.6	3.8	1.49e+00	0	52	104	0	50	16333
2026-01-24 07:49:07.16	97.67	2.47	-39.3	-52.6	3.8	1.49e+00	0	52	104	0	49	17413
2026-01-24 07:49:08.17	97.58	2.52	-40.2	-52.6	3.8	1.49e+00	0	52	104	0	51	15482
2026-01-24 07:49:09.18	97.49	2.57	-40.3	-52.6	3.8	1.49e+00	0	53	104	0	51	15493
2026-01-24 07:49:10.19	97.41	2.63	-40.2	-52.6	3.8	1.49e+00	0	52	104	0	51	15450
2026-01-24 07:49:11.20	97.32	2.68	-40.3	-52.6	3.8	1.49e+00	0	52	104	0	51	15508
2026-01-24 07:49:12.21	97.23	2.73	-40.3	-52.6	3.8	1.49e+00	0	53	104	0	51	15543
2026-01-24 07:49:13.22	97.15	2.78	-40.2	-52.6	3.8	1.49e+00	0	53	104	0	51	15539
2026-01-24 07:49:14.23	97.06	2.84	-40.2	-52.6	3.8	1.49e+00	0	53	104	0	51	15503
2026-01-24 07:49:15.24	96.97	2.89	-40.2	-52.6	3.8	1.49e+00	0	53	104	0	51	15545
2026-01-24 07:49:16.25	96.88	2.94	-40.3	-52.8	3.8	1.49e+00	0	53	104	0	51	15852
2026-01-24 07:49:17.26	96.80	2.99	-40.2	-52.6	3.8	1.49e+00	0	53	104	0	51	15495
2026-01-24 07:49:18.27	96.71	3.05	-40.3	-52.6	3.8	1.49e+00	0	53	104	0	51	15515
2026-01-24 07:49:19.28	96.62	3.10	-40.2	-52.6	3.8	1.49e+00	0	53	104	0	51	15483
2026-01-24 07:49:20.29	96.53	3.15	-40.2	-52.6	3.8	1.49e+00	0	53	104	0	51	15471
2026-01-24 07:49:21.30	96.44	3.20	-40.2	-52.6	3.8	1.49e+00	0	53	104	0	51	15492
2026-01-24 07:49:22.31	96.35	3.26	-40.0	-52.6	3.8	1.49e+00	0	53	104	0	51	15409
2026-01-24 07:49:23.32	96.26	3.31	-40.2	-52.6	3.8	1.49e+00	0	53	104	0	51	15444
2026-01-24 07:49:24.33	96.17	3.36	-40.2	-52.6	3.8	1.49e+00	0	53	104	0	51	15487
2026-01-24 07:49:25.34	96.08	3.42	-40.3	-52.6	3.8	1.49e+00	0	54	104	0	51	15494
2026-01-24 07:49:26.35	95.98	3.47	-39.9	-52.5	3.8	1.49e+00	0	54	104	0	51	15292
2026-01-24 07:49:27.36	95.89	3.52	-40.3	-52.6	3.8	1.49e+00	0	54	104	0	51	15468
2026-01-24 07:49:28.37	95.80	3.58	-40.0	-52.5	3.8	1.49e+00	0	54	104	0	51	15330
2026-01-24 07:49:29.38	95.71	3.63	-39.5	-52.5	3.8	1.49e+00	0	54	104	0	50	16173
2026-01-24 07:49:30.39	95.61	3.68	-40.1	-52.6	3.8	1.49e+00	0	54	104	0	51	15438
2026-01-24 07:49:31.40	95.52	3.73	-39.7	-52.5	3.8	1.49e+00	0	54	104	0	51	15339
2026-01-24 07:49:32.41	95.43	3.79	-39.8	-52.5	3.8	1.49e+00	0	54	104	0	50	16206
2026-01-24 07:49:33.42	95.33	3.84	-40.2	-52.6	3.8	1.49e+00	0	54	104	0	51	15460
2026-01-24 07:49:34.43	95.24	3.89	-39.9	-52.6	3.8	1.49e+00	0	54	104	0	50	16333
2026-01-24 07:49:35.44	95.14	3.95	-40.3	-52.6	3.8	1.49e+00	0	54	104	0	51	15472
2026-01-24 07:49:36.45	95.05	4.00	-40.0	-52.6	3.8	1.49e+00	0	54	104	0	51	15418
2026-01-24 07:49:37.46	94.95	4.05	-40.1	-52.6	3.8	1.49e+00	0	55	104	0	50	16406
2026-01-24 07:49:38.47	94.86	4.11	-39.9	-52.6	3.8	1.49e+00	0	55	104	0	51	15422
2026-01-24 07:49:39.48	94.76	4.16	-40.3	-52.6	3.8	1.49e+00	0	54	104	0	51	15515
2026-01-24 07:49:40.49	94.67	4.21	-40.0	-52.6	3.8	1.49e+00	0	54	104	0	51	15436
2026-01-24 07:49:41.50	94.57	4.27	-40.2	-52.6	3.8	1.49e+00	0	55	104	0	51	15458
2026-01-24 07:49:42.51	94.47	4.32	-40.2	-52.6	3.8	1.49e+00	0	55	104	0	51	15470
2026-01-24 07:49:43.52	94.37	4.38	-40.3	-52.6	3.8	1.49e+00	0	55	104	0	51	15492
2026-01-24 07:49:44.54	94.28	4.43	-40.0	-52.6	3.8	1.49e+00	0	55	104	0	51	15473
2026-01-24 07:49:45.55	94.18	4.48	-40.3	-52.6	3.8	1.49e+00	0	55	104	0	51	15474
2026-01-24 07:49:46.56	94.08	4.54	-40.3	-52.6	3.8	1.49e+00	0	55	104	0	51	15539
2026-01-24 07:49:47.57	93.98	4.59	-40.3	-52.6	3.8	1.49e+00	0	55	104	0	51	15480
2026-01-24 07:49:48.57	93.88	4.64	-40.2	-52.6	3.8	1.49e+00	0	55	104	0	51	15501
2026-01-24 07:49:49.58	93.78	4.70	-40.3	-52.6	3.8	1.49e+00	0	55	104	0	51	15479
2026-01-24 07:49:50.59	93.68	4.75	-40.2	-52.6	3.8	1.49e+00	0	55	104	0	51	15542
2026-01-24 07:49:51.61	93.58	4.81	-40.1	-52.6	3.8	1.49e+00	0	55	104	0	51	15477
2026-01-24 07:49:52.62	93.48	4.86	-40.3	-52.6	3.8	1.49e+00	0	55	104	0	51	15476
2026-01-24 07:49:53.63	93.38	4.91	-40.3	-52.6	3.8	1.49e+00	0	55	104	0	51	15483
2026-01-24 07:49:54.64	93.28	4.97	-40.3	-52.6	3.8	1.49e+00	0	55	104	0	51	15537
2026-01-24 07:49:55.65	93.17	5.02	-40.3	-52.6	3.8	1.49e+00	0	55	104	0	51	15496
2026-01-24 07:49:56.66	93.07	5.07	-40.3	-52.6	3.8	1.49e+00	0	55	104	0	51	15457
2026-01-24 07:49:57.67	92.97	5.13	-40.3	-52.6	3.8	1.49e+00	0	55	104	0	51	15461
2026-01-24 07:49:58.68	92.87	5.18	-40.2	-52.6	3.8	1.49e+00	0	56	104	0	51	15479
2026-01-24 07:49:59.69	92.76	5.24	-40.3	-52.6	3.8	1.49e+00	0	56	104	0	51	15465
2026-01-24 07:50:00.70	92.66	5.29	-40.3	-52.6	3.8	1.49e+00	0	56	104	0	51	15493
2026-01-24 07:50:01.71	92.55	5.34	-40.1	-52.6	3.8	1.49e+00	0	55	104	0	51	15416
2026-01-24 07:50:02.72	92.45	5.40	-40.3	-52.6	3.8	1.49e+00	0	56	104	0	51	15481
2026-01-24 07:50:03.73	92.34	5.45	-40.3	-52.6	3.8	1.49e+00	0	56	104	0	51	15429
2026-01-24 07:50:04.74	92.24	5.51	-40.1	-52.6	3.8	1.49e+00	0	56	104	0	51	15489
2026-01-24 07:50:05.75	92.13	5.56	-40.2	-52.6	3.8	1.49e+00	0	56	104	0	50	16375
2026-01-24 07:50:06.76	92.03	5.61	-40.3	-52.6	3.8	1.49e+00	0	56	104	0	51	15454
2026-01-24 07:50:07.77	91.92	5.67	-40.2	-52.6	3.8	1.49e+00	0	56	104	0	51	15465
2026-01-24 07:50:08.78	91.81	5.72	-40.2	-52.6	3.8	1.49e+00	0	56	104	0	51	15485
2026-01-24 07:50:09.79	91.70	5.78	-40.0	-52.5	3.8	1.49e+00	0	56	104	0	51	15373
2026-01-24 07:50:10.80	91.60	5.83	-39.7	-52.5	3.8	1.49e+00	0	56	104	0	51	15360
2026-01-24 07:50:11.81	91.49	5.89	-39.7	-52.5	3.8	1.49e+00	0	56	104	0	50	16263
2026-01-24 07:50:12.83	91.38	5.94	-40.3	-52.6	3.8	1.49e+00	0	56	104	0	51	15487
2026-01-24 07:50:13.83	91.27	5.99	-40.3	-52.6	3.8	1.49e+00	0	56	104	0	51	15468
2026-01-24 07:50:14.85	91.16	6.05	-40.1	-52.6	3.8	1.49e+00	0	56	104	0	51	15451
2026-01-24 07:50:15.86	91.05	6.10	-40.3	-52.6	3.8	1.49e+00	0	56	104	0	51	15483
2026-01-24 07:50:16.87	90.94	6.16	-40.3	-52.6	3.8	1.49e+00	0	56	104	0	51	15473
2026-01-24 07:50:17.88	90.83	6.21	-40.3	-52.6	3.8	1.49e+00	0	56	104	0	50	16383
2026-01-24 07:50:18.89	90.72	6.27	-40.1	-52.6	3.8	1.49e+00	0	56	104	0	50	16450
2026-01-24 07:50:19.90	90.60	6.32	-40.3	-52.6	3.8	1.49e+00	0	56	104	0	51	15496
2026-01-24 07:50:20.91	90.49	6.38	-40.3	-52.6	3.8	1.49e+00	0	56	104	0	51	15479
2026-01-24 07:50:21.92	90.38	6.43	-40.2	-52.6	3.8	1.49e+00	0	57	104	0	51	15441
2026-01-24 07:50:22.93	90.27	6.48	-40.3	-52.6	3.8	1.49e+00	0	57	104	0	51	15469
2026-01-24 07:50:23.94	90.15	6.54	-40.3	-52.6	3.8	1.49e+00	0	56	104	0	51	15491
2026-01-24 07:50:24.95	90.04	6.59	-40.3	-52.6	3.9	1.49e+00	0	57	104	0	51	15466
2026-01-24 07:50:25.97	89.92	6.65	-40.3	-52.6	3.8	1.49e+00	0	57	104	0	51	15457
2026-01-24 07:50:26.98	89.81	6.70	-40.3	-52.6	3.8	1.49e+00	0	57	104	0	51	15473
2026-01-24 07:50:27.99	89.69	6.76	-39.7	-52.5	3.8	1.49e+00	0	57	104	0	50	16194
2026-01-24 07:50:29.00	89.58	6.81	-38.1	-52.3	3.9	1.49e+00	0	57	104	0	48	17721
2026-01-24 07:50:30.01	89.46	6.87	-39.2	-52.5	3.7	1.49e+00	0	57	104	0	49	17130
2026-01-24 07:50:31.02	89.35	6.92	-40.2	-52.8	3.7	1.49e+00	0	57	104	0	51	15927
2026-01-24 07:50:32.03	89.23	6.97	-40.2	-52.6	3.8	1.49e+00	0	57	104	0	51	15412
2026-01-24 07:50:33.04	89.11	7.03	-38.7	-52.1	3.8	1.49e+00	0	57	104	0	49	16483
2026-01-24 07:50:34.05	88.99	7.08	-39.9	-52.5	3.8	1.49e+00	0	57	104	0	50	16159
2026-01-24 07:50:35.06	88.88	7.14	-39.9	-52.6	3.8	1.49e+00	0	57	104	0	50	16346
2026-01-24 07:50:36.07	88.76	7.19	-40.3	-52.6	3.8	1.49e+00	0	57	104	0	51	15426
2026-01-24 07:50:37.08	88.64	7.25	-39.9	-52.5	3.8	1.49e+00	0	57	104	0	51	15329
2026-01-24 07:50:38.09	88.52	7.30	-40.2	-52.6	3.8	1.49e+00	0	57	104	0	50	16318
2026-01-24 07:50:39.10	88.40	7.35	-40.3	-52.6	3.8	1.49e+00	0	57	104	0	51	15434
2026-01-24 07:50:40.11	88.28	7.41	-40.1	-52.6	3.8	1.49e+00	0	57	104	0	50	16366
2026-01-24 07:50:41.12	88.16	7.46	-39.9	-52.6	3.8	1.49e+00	0	57	104	0	50	16341
2026-01-24 07:50:42.13	88.04	7.52	-40.2	-52.6	3.8	1.49e+00	0	57	104	0	51	15454
2026-01-24 07:50:43.14	87.91	7.57	-39.9	-52.5	3.8	1.49e+00	0	57	104	0	51	15334
2026-01-24 07:50:44.15	87.79	7.63	-39.9	-52.6	3.8	1.49e+00	0	57	104	0	50	16343
2026-01-24 07:50:45.16	87.67	7.68	-39.5	-52.5	3.8	1.49e+00	0	57	104	0	51	15297
2026-01-24 07:50:46.17	87.54	7.74	-40.3	-52.6	3.8	1.49e+00	0	57	104	0	51	15504
2026-01-24 07:50:47.18	87.42	7.79	-39.7	-52.5	3.8	1.49e+00	0	57	104	0	51	15353
2026-01-24 07:50:48.19	87.30	7.84	-40.2	-52.6	3.8	1.49e+00	0	57	104	0	51	15463
2026-01-24 07:50:49.21	87.17	7.90	-40.0	-52.6	3.8	1.49e+00	0	58	104	0	50	16369
2026-01-24 07:50:50.22	87.05	7.95	-40.3	-52.6	3.8	1.49e+00	0	58	104	0	51	15481
2026-01-24 07:50:51.23	86.92	8.01	-40.2	-52.6	3.8	1.49e+00	0	58	104	0	51	15487
2026-01-24 07:50:52.24	86.79	8.06	-40.3	-52.6	3.8	1.49e+00	0	58	104	0	51	15512
2026-01-24 07:50:53.25	86.67	8.12	-40.1	-52.7	3.8	1.49e+00	0	58	104	0	50	16506
2026-01-24 07:50:54.26	86.54	8.17	-39.3	-52.6	3.8	1.49e+00	0	58	104	0	50	16360
2026-01-24 07:50:55.27	86.41	8.23	-40.3	-52.6	3.8	1.49e+00	0	58	104	0	51	15492
2026-01-24 07:50:56.28	86.28	8.28	-40.4	-52.9	3.8	1.49e+00	0	58	104	0	51	15982
2026-01-24 07:50:57.29	86.16	8.33	-40.1	-52.8	3.8	1.49e+00	0	58	104	0	50	16857
2026-01-24 07:50:58.29	86.03	8.39	-39.8	-52.5	3.9	1.49e+00	0	58	104	0	50	16230
2026-01-24 07:50:59.30	85.90	8.44	-40.2	-52.6	3.8	1.49e+00	0	58	104	0	51	15449
2026-01-24 07:51:00.31	85.77	8.50	-39.9	-52.5	3.8	1.49e+00	0	58	104	0	50	16239
2026-01-24 07:51:01.33	85.64	8.55	-39.3	-52.5	3.8	1.49e+00	0	58	104	0	50	16163
2026-01-24 07:51:02.33	85.51	8.60	-40.1	-52.6	3.8	1.49e+00	0	58	104	0	50	16421
2026-01-24 07:51:03.34	85.37	8.66	-40.3	-52.8	3.9	1.49e+00	0	58	104	0	51	15772
2026-01-24 07:51:04.35	85.24	8.71	-40.2	-52.6	3.8	1.49e+00	0	58	104	0	51	15570
2026-01-24 07:51:05.36	85.11	8.77	-39.9	-52.7	3.8	1.49e+00	0	58	104	0	51	15690
2026-01-24 07:51:06.37	84.98	8.82	-39.1	-52.5	3.8	1.49e+00	0	58	104	0	49	17280
2026-01-24 07:51:07.38	84.84	8.87	-39.5	-52.4	3.8	1.49e+00	0	58	104	0	49	17000
2026-01-24 07:51:08.39	84.71	8.93	-39.6	-52.4	3.8	1.49e+00	0	58	104	0	50	16119
2026-01-24 07:51:09.40	84.58	8.98	-40.1	-52.6	3.8	1.49e+00	0	58	104	0	51	15561
2026-01-24 07:51:10.41	84.44	9.04	-39.9	-52.5	3.8	1.49e+00	0	58	104	0	50	16194
2026-01-24 07:51:11.42	84.30	9.09	-39.9	-52.4	3.8	1.49e+00	0	58	104	0	50	16106
2026-01-24 07:51:12.42	84.17	9.14	-39.9	-52.5	3.8	1.49e+00	0	58	104	0	50	16152
2026-01-24 07:51:13.44	84.03	9.20	-39.8	-52.5	3.8	1.49e+00	0	58	104	0	50	16284
2026-01-24 07:51:14.44	83.90	9.25	-40.0	-52.5	3.8	1.49e+00	0	58	104	0	50	16215
2026-01-24 07:51:15.45	83.76	9.30	-40.0	-52.5	3.8	1.49e+00	0	58	104	0	50	16133
2026-01-24 07:51:16.46	83.62	9.36	-40.2	-52.5	3.8	1.49e+00	0	58	104	0	50	16238
2026-01-24 07:51:17.47	83.48	9.41	-40.1	-52.5	3.8	1.49e+00	0	58	104	0	50	16216
2026-01-24 07:51:18.48	83.34	9.46	-40.2	-52.5	3.8	1.49e+00	0	58	104	0	51	15378
2026-01-24 07:51:19.49	83.20	9.52	-40.1	-52.5	3.8	1.49e+00	0	58	104	0	51	15242
2026-01-24 07:51:20.50	83.06	9.57	-40.1	-52.5	3.8	1.49e+00	0	58	104	0	51	15267
2026-01-24 07:51:21.51	82.92	9.63	-40.2	-52.6	3.8	1.49e+00	0	58	104	0	50	16378
2026-01-24 07:51:22.52	82.78	9.68	-40.0	-52.5	3.8	1.49e+00	0	58	104	0	51	15242
2026-01-24 07:51:23.53	82.64	9.73	-39.9	-52.3	3.8	1.49e+00	0	58	104	0	51	15049
2026-01-24 07:51:24.54	82.50	9.79	-40.1	-52.5	3.8	1.49e+00	0	58	104	0	51	15252
2026-01-24 07:51:25.55	82.35	9.84	-40.1	-52.5	3.8	1.49e+00	0	58	104	0	51	15335
2026-01-24 07:51:26.55	82.21	9.89	-39.9	-52.4	3.8	1.49e+00	0	58	104	0	51	15126
2026-01-24 07:51:27.57	82.07	9.94	-40.1	-52.5	3.8	1.49e+00	0	58	104	0	51	15253
2026-01-24 07:51:28.57	81.92	10.00	-40.0	-52.4	3.8	1.49e+00	0	59	104	0	51	15189
2026-01-24 07:51:29.58	81.78	10.05	-40.0	-52.5	3.8	1.49e+00	0	58	104	0	51	15255
2026-01-24 07:51:30.59	81.63	10.10	-40.1	-52.5	3.8	1.49e+00	0	58	104	0	51	15303
2026-01-24 07:51:31.60	81.49	10.16	-40.1	-52.5	3.8	1.49e+00	0	59	104	0	51	15362
2026-01-24 07:51:32.61	81.34	10.21	-40.1	-52.5	3.8	1.49e+00	0	59	104	0	51	15298
2026-01-24 07:51:33.62	81.19	10.26	-40.2	-52.5	3.8	1.49e+00	0	59	104	0	51	15361
2026-01-24 07:51:34.63	81.05	10.31	-40.2	-52.5	3.8	1.49e+00	0	59	104	0	51	15349
2026-01-24 07:51:35.64	80.90	10.37	-40.2	-52.6	3.8	1.49e+00	0	59	104	0	51	15456
2026-01-24 07:51:36.65	80.75	10.42	-40.1	-52.5	3.8	1.49e+00	0	59	104	0	51	15363
2026-01-24 07:51:37.66	80.60	10.47	-40.2	-52.6	3.8	1.49e+00	0	59	104	0	51	15519
2026-01-24 07:51:38.67	80.45	10.52	-40.2	-52.6	3.8	1.49e+00	0	59	104	0	51	15413
2026-01-24 07:51:39.68	80.30	10.58	-40.3	-52.6	3.8	1.49e+00	0	59	104	0	51	15570
2026-01-24 07:51:40.69	80.15	10.63	-40.2	-52.6	3.8	1.49e+00	0	59	104	0	51	15439
2026-01-24 07:51:41.70	80.00	10.68	-40.4	-52.7	3.8	1.49e+00	0	59	104	0	51	15699
2026-01-24 07:51:42.71	79.85	10.73	-40.3	-52.6	3.8	1.49e+00	0	59	104	0	51	15565
2026-01-24 07:51:43.72	79.70	10.78	-40.3	-52.7	3.8	1.49e+00	0	59	104	0	51	15635
2026-01-24 07:51:44.73	79.54	10.84	-40.3	-52.7	3.8	1.49e+00	0	59	104	0	51	15602
2026-01-24 07:51:45.73	79.39	10.89	-40.4	-52.8	3.8	1.49e+00	0	59	104	0	51	15818
2026-01-24 07:51:46.74	79.24	10.94	-40.3	-52.7	3.8	1.49e+00	0	59	104	0	51	15666
2026-01-24 07:51:47.75	79.08	10.99	-40.5	-52.8	3.8	1.49e+00	0	59	104	0	51	15932
2026-01-24 07:51:48.76	78.93	11.04	-40.3	-52.7	3.8	1.49e+00	0	59	104	0	51	15615
2026-01-24 07:51:49.77	78.77	11.09	-40.4	-52.8	3.8	1.49e+00	0	59	104	0	51	15836
2026-01-24 07:51:50.78	78.61	11.14	-40.5	-52.9	3.8	1.49e+00	0	59	104	0	51	15994
2026-01-24 07:51:51.79	78.46	11.20	-40.7	-53.0	3.8	1.49e+00	0	59	104	0	51	16275
2026-01-24 07:51:52.80	78.30	11.25	-40.4	-52.7	3.8	1.49e+00	0	59	104	0	51	15754
2026-01-24 07:51:53.81	78.14	11.30	-40.6	-52.9	3.8	1.49e+00	0	59	104	0	51	16109
2026-01-24 07:51:54.82	77.98	11.35	-40.7	-53.0	3.8	1.49e+00	0	59	104	0	51	16313
2026-01-24 07:51:55.83	77.82	11.40	-40.7	-53.1	3.8	1.49e+00	0	59	104	0	52	15440
2026-01-24 07:51:56.84	77.67	11.45	-40.5	-52.8	3.8	1.49e+00	0	59	104	0	52	15023
2026-01-24 07:51:57.85	77.51	11.50	-40.6	-53.0	3.8	1.49e+00	0	59	104	0	52	15270
2026-01-24 07:51:58.86	77.34	11.55	-40.8	-53.1	3.8	1.49e+00	0	59	104	0	52	15569
2026-01-24 07:51:59.86	77.18	11.60	-40.8	-53.2	3.8	1.49e+00	0	59	104	0	52	15583
2026-01-24 07:52:00.87	77.02	11.65	-40.6	-53.0	3.8	1.49e+00	0	59	104	0	52	15279
2026-01-24 07:52:01.88	76.86	11.70	-40.7	-53.0	3.8	1.49e+00	0	59	104	0	52	15337
2026-01-24 07:52:02.89	76.70	11.75	-40.9	-53.2	3.8	1.49e+00	0	59	104	0	52	15729
2026-01-24 07:52:03.90	76.53	11.80	-40.8	-53.2	3.8	1.49e+00	0	59	104	0	52	15583
2026-01-24 07:52:04.91	76.37	11.85	-40.7	-53.1	3.8	1.49e+00	0	59	104	0	52	15413
2026-01-24 07:52:05.92	76.21	11.90	-40.8	-53.2	3.8	1.49e+00	0	59	104	0	52	15620
2026-01-24 07:52:06.93	76.04	11.95	-40.8	-53.1	3.8	1.49e+00	0	59	104	0	52	15558
2026-01-24 07:52:07.94	75.87	12.00	-41.0	-53.3	3.8	1.49e+00	0	59	104	0	52	15840
2026-01-24 07:52:08.95	75.71	12.05	-40.8	-53.1	3.8	1.49e+00	0	59	104	0	52	15522
2026-01-24 07:52:09.96	75.54	12.10	-41.0	-53.3	3.8	1.49e+00	0	59	104	0	52	15938
2026-01-24 07:52:10.97	75.37	12.14	-40.8	-53.2	3.8	1.49e+00	0	59	104	0	52	15628
2026-01-24 07:52:11.98	75.21	12.19	-41.1	-53.4	3.8	1.49e+00	0	59	104	0	52	16080
2026-01-24 07:52:12.99	75.04	12.24	-40.8	-53.2	3.8	1.49e+00	0	59	104	0	52	15581
2026-01-24 07:52:14.00	74.87	12.29	-41.1	-53.5	3.8	1.49e+00	0	60	104	0	52	16143
2026-01-24 07:52:15.01	74.70	12.34	-41.0	-53.4	3.8	1.49e+00	0	59	104	0	52	15998
2026-01-24 07:52:16.02	74.53	12.39	-40.9	-53.3	3.8	1.49e+00	0	59	104	0	52	15790
2026-01-24 07:52:17.03	74.36	12.43	-41.0	-53.3	3.8	1.49e+00	0	59	104	0	52	15930
2026-01-24 07:52:18.03	74.19	12.48	-41.2	-53.4	3.8	1.49e+00	0	59	104	0	52	16102
2026-01-24 07:52:19.04	74.02	12.53	-40.9	-53.3	3.8	1.49e+00	0	59	104	0	52	15820
2026-01-24 07:52:20.05	73.84	12.58	-40.8	-53.1	3.8	1.49e+00	0	59	104	0	52	15549
2026-01-24 07:52:21.06	73.67	12.62	-41.1	-53.4	3.8	1.49e+00	0	60	104	0	52	16068
2026-01-24 07:52:22.07	73.50	12.67	-41.1	-53.4	3.8	1.49e+00	0	60	104	0	52	16056
2026-01-24 07:52:23.08	73.32	12.72	-40.7	-53.1	3.8	1.49e+00	0	59	104	0	52	15537
2026-01-24 07:52:24.09	73.15	12.77	-40.9	-53.3	3.8	1.49e+00	0	59	104	0	52	15842
2026-01-24 07:52:25.10	72.97	12.81	-40.9	-53.2	3.8	1.49e+00	0	59	104	0	52	15719
2026-01-24 07:52:26.11	72.80	12.86	-41.0	-53.3	3.8	1.49e+00	0	59	104	0	52	15777
2026-01-24 07:52:27.12	72.62	12.90	-41.0	-53.3	3.8	1.49e+00	0	60	104	0	52	15874
2026-01-24 07:52:28.13	72.44	12.95	-41.1	-53.4	3.8	1.49e+00	0	59	104	0	52	16090
2026-01-24 07:52:29.14	72.27	13.00	-40.8	-53.1	3.8	1.49e+00	0	59	104	0	52	15536
2026-01-24 07:52:30.14	72.09	13.04	-41.0	-53.3	3.8	1.49e+00	0	60	104	0	52	15906
2026-01-24 07:52:31.16	71.91	13.09	-41.2	-53.5	3.8	1.49e+00	0	60	104	0	52	16256
2026-01-24 07:52:32.17	71.73	13.13	-41.2	-53.6	3.8	1.49e+00	0	60	104	0	53	15434
2026-01-24 07:52:33.18	71.55	13.18	-40.9	-53.3	3.8	1.49e+00	0	60	104	0	53	14999
2026-01-24 07:52:34.18	71.37	13.22	-41.2	-53.6	3.8	1.49e+00	0	60	104	0	53	15440
2026-01-24 07:52:35.20	71.19	13.27	-41.1	-53.4	3.8	1.49e+00	0	60	104	0	53	15185
2026-01-24 07:52:36.20	71.01	13.31	-41.3	-53.6	3.8	1.49e+00	0	60	104	0	53	15531
2026-01-24 07:52:37.21	70.83	13.36	-41.2	-53.5	3.8	1.49e+00	0	60	104	0	53	15275
2026-01-24 07:52:38.22	70.65	13.40	-41.5	-53.8	3.8	1.49e+00	0	60	104	0	53	15890
2026-01-24 07:52:39.23	70.46	13.45	-41.0	-53.4	3.8	1.49e+00	0	60	104	0	53	15108
2026-01-24 07:52:40.24	70.28	13.49	-41.4	-53.4	3.8	1.49e+00	0	60	104	0	53	15157
2026-01-24 07:52:41.25	70.10	13.53	-41.3	-53.6	3.8	1.49e+00	0	60	104	0	53	15478
2026-01-24 07:52:42.26	69.91	13.58	-41.5	-52.4	3.8	1.49e+00	0	60	104	0	53	13552
2026-01-24 07:52:43.27	69.73	13.62	-41.1	-53.5	3.8	1.49e+00	0	60	104	0	53	15251
2026-01-24 07:52:44.28	69.54	13.66	-41.6	-52.9	3.8	1.49e+00	0	60	104	0	53	14324
2026-01-24 07:52:45.29	69.35	13.70	-41.5	-53.2	3.8	1.49e+00	0	60	104	0	53	14836
2026-01-24 07:52:46.30	69.17	13.75	-41.4	-51.8	3.8	1.48e+00	0	60	104	0	53	12562
2026-01-24 07:52:47.31	68.98	13.79	-41.3	-50.6	4.2	1.47e+00	0	60	104	0	53	10972
2026-01-24 07:52:48.32	68.79	13.83	-41.3	-50.5	3.9	1.46e+00	0	60	104	0	53	10844
2026-01-24 07:52:49.33	68.60	13.87	-41.6	-51.0	4.1	1.48e+00	0	60	104	0	53	11466
2026-01-24 07:52:50.34	68.42	13.91	-41.3	-49.6	4.1	1.48e+00	0	60	104	0	54	9189
2026-01-24 07:52:51.35	68.23	13.96	-41.3	-53.2	3.8	1.49e+00	0	60	104	0	54	13992
2026-01-24 07:52:52.36	68.04	14.00	-40.9	-47.6	5.5	1.15e+00	0	60	104	0	53	7790
2026-01-24 07:52:53.37	67.85	14.04	-41.2	-51.3	3.9	1.49e+00	0	60	104	0	53	11946
2026-01-24 07:52:54.38	67.65	14.08	-40.5	-46.7	6.2	3.24e-01	0	60	0	1048576	53	6969
2026-01-24 07:52:55.39	67.46	14.12	-40.5	-46.0	6.9	2.19e-01	0	60	0	4194304	52	6859
2026-01-24 07:52:56.40	67.27	14.16	-40.3	-45.4	7.6	1.06e-01	0	60	0	7340032	52	6354
2026-01-24 07:52:57.41	67.08	14.20	-40.3	-45.1	8.0	8.16e-02	0	60	0	10485760	52	6189
2026-01-24 07:52:58.42	66.89	14.24	-40.2	-44.9	8.3	5.02e-02	0	60	0	13631488	52	6021
2026-01-24 07:52:59.42	66.69	14.28	-40.2	-44.5	8.9	3.55e-02	0	60	0	16777216	52	5724
2026-01-24 07:53:00.43	66.50	14.32	-40.1	-44.0	9.5	1.66e-02	0	60	0	19922944	52	5462
2026-01-24 07:53:01.44	66.30	14.35	-40.0	-43.7	10.1	7.37e-03	0	60	0	23068672	51	5534
2026-01-24 07:53:02.45	66.11	14.39	-39.9	-43.4	10.6	5.00e-03	0	60	0	26214400	51	5366
2026-01-24 07:53:03.46	65.91	14.43	-39.7	-42.8	11.2	2.41e-03	0	60	0	29360128	51	5039
2026-01-24 07:53:04.47	65.72	14.47	-39.3	-42.2	11.8	5.89e-04	0	60	0	32505856	50	4976
2026-01-24 07:53:05.48	65.52	14.51	-39.5	-42.5	11.7	4.92e-04	0	60	0	35651584	50	5122
2026-01-24 07:53:06.49	65.32	14.54	-39.7	-42.7	11.4	7.38e-04	0	60	0	38797312	50	5272
2026-01-24 07:53:07.50	65.13	14.58	-39.7	-42.7	11.5	9.05e-04	0	60	0	41943040	50	5244
2026-01-24 07:53:08.51	64.93	14.62	-39.7	-42.7	11.6	7.04e-04	0	60	0	45088768	50	5252
2026-01-24 07:53:09.52	64.73	14.65	-39.6	-42.5	11.8	5.49e-04	0	60	0	48234496	50	5148
2026-01-24 07:53:10.53	64.53	14.69	-39.6	-42.5	11.9	3.78e-04	0	60	0	51380224	50	5118
2026-01-24 07:53:11.54	64.33	14.73	-39.6	-42.5	12.0	3.55e-04	0	60	0	54525952	50	5106
2026-01-24 07:53:12.55	64.13	14.76	-39.6	-42.5	12.1	2.82e-04	0	60	0	57671680	50	5102
2026-01-24 07:53:13.55	63.93	14.80	-39.6	-42.4	12.2	2.09e-04	0	60	0	60817408	50	5070
2026-01-24 07:53:14.56	63.73	14.83	-39.7	-42.5	12.2	2.39e-04	0	60	0	63963136	50	5123
2026-01-24 07:53:15.57	63.53	14.87	-39.7	-42.5	12.2	2.23e-04	0	60	0	67108864	50	5120
2026-01-24 07:53:16.58	63.33	14.90	-39.8	-42.6	12.1	2.38e-04	0	60	0	70254592	50	5193
2026-01-24 07:53:17.59	63.12	14.93	-39.8	-42.6	12.2	1.85e-04	0	60	0	73400320	50	5200
2026-01-24 07:53:18.60	62.92	14.97	-39.9	-42.6	12.2	2.07e-04	0	60	0	76546048	50	5214
2026-01-24 07:53:19.61	62.72	15.00	-39.7	-42.4	12.5	1.14e-04	0	60	0	80740352	50	5088
2026-01-24 07:53:20.62	62.51	15.04	-39.7	-42.4	12.5	1.25e-04	0	60	0	82837504	50	5051
2026-01-24 07:53:21.63	62.31	15.07	-39.8	-42.6	12.4	1.54e-04	0	60	0	85983232	50	5164
2026-01-24 07:53:22.64	62.11	15.10	-39.7	-42.4	12.6	9.38e-05	0	60	0	89128960	50	5048
2026-01-24 07:53:23.65	61.90	15.13	-39.8	-42.4	12.6	1.01e-04	0	60	0	92274688	50	5082
2026-01-24 07:53:24.66	61.69	15.16	-39.6	-42.2	12.9	6.79e-05	0	60	0	96468992	50	4945
2026-01-24 07:53:25.67	61.49	15.20	-39.7	-42.2	12.9	6.79e-05	0	60	0	99614720	50	4963
2026-01-24 07:53:26.68	61.28	15.23	-39.7	-42.2	12.9	4.95e-05	0	60	0	102760448	50	4967
2026-01-24 07:53:27.69	61.08	15.26	-39.7	-42.3	12.9	4.34e-05	0	60	0	105906176	50	5006
2026-01-24 07:53:28.70	60.87	15.29	-39.7	-42.2	12.9	4.80e-05	0	60	0	108003328	50	4967
2026-01-24 07:53:29.71	60.66	15.32	-39.7	-42.2	12.9	5.41e-05	0	60	0	112197632	50	4976
2026-01-24 07:53:30.72	60.45	15.35	-39.7	-42.3	12.9	4.50e-05	0	60	0	115343360	50	4989
2026-01-24 07:53:31.73	60.24	15.38	-39.7	-42.3	12.9	4.42e-05	0	60	0	118489088	50	5007
2026-01-24 07:53:32.74	60.03	15.41	-39.8	-42.3	12.8	6.79e-05	0	60	0	121634816	50	5036
2026-01-24 07:53:33.75	59.83	15.44	-39.8	-42.4	12.7	6.48e-05	0	60	0	124780544	50	5093
2026-01-24 07:53:34.76	59.62	15.46	-39.8	-42.3	12.9	4.88e-05	0	61	0	127926272	50	5027
2026-01-24 07:53:35.77	59.41	15.49	-39.7	-42.3	12.9	4.65e-05	0	60	0	131072000	50	5014
2026-01-24 07:53:36.78	59.19	15.52	-39.7	-42.2	13.0	3.89e-05	0	60	0	134217728	50	4965
2026-01-24 07:53:37.79	58.98	15.55	-39.7	-42.2	13.0	4.50e-05	0	60	0	137363456	50	4965
2026-01-24 07:53:38.80	58.77	15.57	-39.7	-42.1	13.1	2.59e-05	0	60	0	140509184	50	4923
2026-01-24 07:53:39.81	58.56	15.60	-39.5	-42.0	13.3	1.83e-05	0	60	0	143654912	50	4829
2026-01-24 07:53:40.82	58.35	15.63	-39.6	-42.0	13.2	1.52e-05	0	60	0	146800640	50	4860
2026-01-24 07:53:41.83	58.14	15.65	-39.6	-42.0	13.2	2.05e-05	0	60	0	149946368	50	4865
2026-01-24 07:53:42.84	57.92	15.68	-39.5	-42.0	13.3	1.75e-05	0	60	0	153092096	50	4820
2026-01-24 07:53:43.84	57.71	15.70	-39.6	-42.0	13.3	1.44e-05	0	60	0	156237824	50	4842
2026-01-24 07:53:44.85	57.50	15.73	-39.6	-42.0	13.2	1.98e-05	0	60	0	159383552	50	4860
2026-01-24 07:53:45.86	57.28	15.75	-39.6	-42.0	13.2	1.90e-05	0	60	0	162529280	50	4864
2026-01-24 07:53:46.87	57.07	15.78	-39.6	-42.0	13.3	1.52e-05	0	60	0	165675008	50	4847
2026-01-24 07:53:47.88	56.86	15.80	-39.6	-42.1	13.2	2.74e-05	0	60	0	168820736	50	4905
2026-01-24 07:53:48.89	56.64	15.82	-39.6	-42.1	13.2	2.36e-05	0	60	0	171966464	50	4906
2026-01-24 07:53:49.91	56.42	15.85	-39.6	-42.1	13.2	2.74e-05	0	60	0	175112192	50	4892
2026-01-24 07:53:50.91	56.21	15.87	-39.5	-41.9	13.3	1.75e-05	0	60	0	178257920	50	4811
2026-01-24 07:53:51.92	55.99	15.89	-39.5	-41.9	13.5	1.60e-05	0	60	0	181403648	50	4772
2026-01-24 07:53:52.93	55.78	15.91	-39.5	-41.9	13.4	2.28e-05	0	60	0	184549376	50	4802
2026-01-24 07:53:53.94	55.56	15.93	-39.5	-41.9	13.4	2.28e-05	0	60	0	187695104	50	4812
2026-01-24 07:53:54.95	55.34	15.96	-39.6	-42.0	13.2	1.90e-05	0	60	0	190840832	50	4859
2026-01-24 07:53:55.96	55.13	15.98	-39.7	-42.2	13.1	2.82e-05	0	60	0	193986560	50	4957
2026-01-24 07:53:56.98	54.91	16.00	-39.7	-42.1	13.2	2.51e-05	0	60	0	197132288	50	4908
2026-01-24 07:53:57.99	54.69	16.02	-39.7	-42.1	13.2	2.97e-05	0	60	0	200278016	50	4920
2026-01-24 07:53:59.00	54.47	16.04	-39.7	-42.2	13.1	2.74e-05	0	60	0	203423744	50	4941
2026-01-24 07:54:00.00	54.25	16.05	-39.8	-42.3	13.1	2.97e-05	0	60	0	206569472	50	4984
2026-01-24 07:54:01.01	54.04	16.07	-39.8	-42.3	13.1	4.11e-05	0	60	0	209715200	50	4990
2026-01-24 07:54:02.02	53.82	16.09	-39.8	-42.4	13.0	4.19e-05	0	60	0	212860928	50	5055
2026-01-24 07:54:03.03	53.60	16.11	-39.7	-42.2	13.2	3.05e-05	0	60	0	216006656	50	4934
2026-01-24 07:54:04.04	53.38	16.13	-39.6	-42.1	13.3	2.59e-05	0	60	0	219152384	50	4885
2026-01-24 07:54:05.05	53.16	16.14	-39.6	-41.9	13.4	1.37e-05	0	60	0	222298112	50	4804
2026-01-24 07:54:06.06	52.94	16.16	-39.5	-41.8	13.5	6.10e-06	0	61	0	225443840	50	4743
2026-01-24 07:54:07.07	52.72	16.18	-39.5	-41.8	13.5	9.90e-06	0	61	0	228589568	50	4754
2026-01-24 07:54:08.08	52.50	16.19	-39.4	-41.7	13.7	3.80e-06	0	60	0	231735296	50	4673
2026-01-24 07:54:09.09	52.28	16.21	-39.4	-41.8	13.6	7.60e-06	0	60	0	234881024	50	4716
2026-01-24 07:54:10.10	52.06	16.22	-39.5	-41.8	13.5	1.22e-05	0	60	0	238026752	50	4732
2026-01-24 07:54:11.11	51.84	16.24	-39.5	-41.9	13.5	1.29e-05	0	60	0	241172480	50	4769
2026-01-24 07:54:12.12	51.62	16.25	-39.6	-42.1	13.3	1.44e-05	0	61	0	244318208	50	4878
2026-01-24 07:54:13.13	51.39	16.26	-39.7	-42.2	13.2	1.83e-05	0	60	0	247463936	50	4942
2026-01-24 07:54:14.14	51.17	16.28	-39.8	-42.4	13.0	4.19e-05	0	60	0	250609664	50	5045
2026-01-24 07:54:15.15	50.95	16.29	-39.9	-42.4	12.9	4.50e-05	0	60	0	253755392	50	5088
2026-01-24 07:54:16.16	50.73	16.30	-40.0	-42.6	12.7	5.11e-05	0	61	0	256901120	50	5187
2026-01-24 07:54:17.17	50.51	16.31	-39.9	-42.5	12.9	5.56e-05	0	61	0	260046848	50	5127
2026-01-24 07:54:18.18	50.28	16.32	-40.0	-42.5	12.8	4.57e-05	0	60	0	263192576	50	5153
2026-01-24 07:54:19.19	50.06	16.33	-39.9	-42.4	12.9	5.41e-05	0	61	0	266338304	50	5100
2026-01-24 07:54:20.20	49.84	16.35	-39.8	-42.3	13.1	2.97e-05	0	60	0	269484032	50	5028
2026-01-24 07:54:21.21	49.62	16.36	-39.9	-42.4	13.0	4.34e-05	0	61	0	272629760	50	5070
2026-01-24 07:54:22.22	49.39	16.36	-39.9	-42.5	12.9	4.65e-05	0	61	0	275775488	50	5104
2026-01-24 07:54:23.23	49.17	16.37	-39.9	-42.5	12.9	4.57e-05	0	60	0	278921216	50	5136
2026-01-24 07:54:24.24	48.95	16.38	-40.0	-42.6	12.8	4.80e-05	0	60	0	282066944	50	5162
2026-01-24 07:54:25.25	48.72	16.39	-40.0	-42.5	12.9	5.34e-05	0	60	0	285212672	50	5137
2026-01-24 07:54:26.26	48.50	16.40	-40.0	-42.6	12.8	7.55e-05	0	60	0	288358400	50	5191
2026-01-24 07:54:27.27	48.28	16.41	-40.0	-42.5	12.9	4.73e-05	0	60	0	291504128	50	5142
2026-01-24 07:54:28.28	48.05	16.41	-39.9	-42.5	12.9	5.49e-05	0	61	0	294649856	50	5106
2026-01-24 07:54:29.29	47.83	16.42	-39.9	-42.4	13.0	3.28e-05	0	61	0	297795584	50	5056
2026-01-24 07:54:30.30	47.61	16.43	-39.8	-42.3	13.1	2.44e-05	0	61	0	300941312	50	5024
2026-01-24 07:54:31.31	47.38	16.43	-39.8	-42.3	13.2	2.74e-05	0	61	0	304087040	50	4989
2026-01-24 07:54:32.32	47.16	16.44	-39.7	-42.2	13.2	2.44e-05	0	60	0	307232768	50	4962
2026-01-24 07:54:33.33	46.93	16.44	-39.7	-42.1	13.3	2.44e-05	0	61	0	310378496	50	4917
2026-01-24 07:54:34.34	46.71	16.45	-39.7	-42.2	13.2	2.36e-05	0	60	0	313524224	50	4948
2026-01-24 07:54:35.35	46.49	16.45	-39.8	-42.3	13.1	2.67e-05	0	61	0	316669952	50	5002
2026-01-24 07:54:36.36	46.26	16.45	-39.8	-42.3	13.1	2.51e-05	0	61	0	319815680	50	5001
2026-01-24 07:54:37.37	46.04	16.46	-39.8	-42.3	13.1	2.67e-05	0	61	0	322961408	50	5018
2026-01-24 07:54:38.38	45.81	16.46	-39.8	-42.3	13.0	2.21e-05	0	61	0	326107136	50	5036
2026-01-24 07:54:39.39	45.59	16.46	-39.9	-42.4	13.0	3.05e-05	0	61	0	329252864	50	5071
2026-01-24 07:54:40.40	45.36	16.46	-39.9	-42.4	13.0	2.97e-05	0	61	0	332398592	50	5063
2026-01-24 07:54:41.41	45.14	16.46	-39.9	-42.5	12.9	5.34e-05	0	61	0	335544320	50	5109
2026-01-24 07:54:42.42	44.92	16.46	-40.0	-42.6	12.8	5.26e-05	0	60	0	338690048	50	5173
2026-01-24 07:54:43.43	44.69	16.47	-39.9	-42.5	12.9	5.95e-05	0	61	0	341835776	50	5121
2026-01-24 07:54:44.44	44.47	16.46	-39.8	-42.4	13.1	2.97e-05	0	60	0	344981504	50	5045
2026-01-24 07:54:45.45	44.24	16.46	-39.8	-42.3	13.1	2.97e-05	0	61	0	348127232	50	5017
2026-01-24 07:54:46.45	44.02	16.46	-39.7	-42.2	13.2	3.50e-05	0	61	0	351272960	50	4946
2026-01-24 07:54:47.47	43.79	16.46	-39.8	-42.3	13.2	2.59e-05	0	60	0	354418688	50	4999
2026-01-24 07:54:48.48	43.57	16.46	-39.7	-42.2	13.3	2.21e-05	0	61	0	357564416	50	4933
2026-01-24 07:54:49.49	43.34	16.46	-39.7	-42.1	13.3	1.98e-05	0	61	0	360710144	50	4898
2026-01-24 07:54:50.50	43.12	16.45	-39.7	-42.1	13.3	2.21e-05	0	61	0	363855872	50	4888
2026-01-24 07:54:51.51	42.90	16.45	-39.6	-41.9	13.5	1.06e-05	0	61	0	367001600	50	4795
2026-01-24 07:54:52.52	42.67	16.45	-39.6	-42.0	13.5	8.30e-06	0	61	0	370147328	50	4820
2026-01-24 07:54:53.53	42.45	16.44	-39.5	-41.9	13.5	1.22e-05	0	61	0	373293056	50	4784
2026-01-24 07:54:54.53	42.23	16.44	-39.6	-41.9	13.5	8.30e-06	0	60	0	376438784	50	4800
2026-01-24 07:54:55.55	42.00	16.43	-39.6	-42.0	13.5	1.14e-05	0	61	0	379584512	50	4816
2026-01-24 07:54:56.56	41.78	16.43	-39.7	-42.1	13.3	9.10e-06	0	61	0	382730240	50	4881
2026-01-24 07:54:57.57	41.55	16.42	-39.7	-42.2	13.2	1.75e-05	0	61	0	385875968	50	4942
2026-01-24 07:54:58.58	41.33	16.42	-39.7	-42.1	13.3	2.51e-05	0	61	0	389021696	50	4913
2026-01-24 07:54:59.59	41.11	16.41	-39.7	-42.2	13.3	1.90e-05	0	61	0	392167424	50	4941
2026-01-24 07:55:00.60	40.88	16.40	-39.8	-42.3	13.2	2.21e-05	0	61	0	395313152	50	4984
2026-01-24 07:55:01.61	40.66	16.39	-39.7	-42.2	13.3	2.67e-05	0	61	0	398458880	50	4930
2026-01-24 07:55:02.62	40.44	16.39	-39.6	-42.1	13.4	1.67e-05	0	61	0	401604608	50	4871
2026-01-24 07:55:03.62	40.21	16.38	-39.7	-42.1	13.3	1.67e-05	0	61	0	404750336	50	4882
2026-01-24 07:55:04.63	39.99	16.37	-39.6	-42.0	13.4	1.29e-05	0	61	0	407896064	50	4856
2026-01-24 07:55:05.64	39.77	16.36	-39.6	-42.0	13.4	1.75e-05	0	60	0	411041792	50	4867
2026-01-24 07:55:06.65	39.55	16.35	-39.6	-41.9	13.5	6.80e-06	0	61	0	414187520	50	4791
2026-01-24 07:55:07.66	39.32	16.34	-39.5	-41.8	13.6	7.60e-06	0	61	0	418381824	50	4736
2026-01-24 07:55:08.67	39.10	16.33	-39.5	-41.9	13.6	5.30e-06	0	61	0	421527552	50	4772
2026-01-24 07:55:09.68	38.88	16.32	-39.5	-41.9	13.6	5.30e-06	0	61	0	423624704	50	4765
2026-01-24 07:55:10.69	38.66	16.31	-39.6	-42.0	13.5	1.29e-05	0	61	0	426770432	50	4820
2026-01-24 07:55:11.70	38.44	16.29	-39.6	-42.0	13.4	1.22e-05	0	61	0	429916160	50	4856
2026-01-24 07:55:12.71	38.21	16.28	-39.7	-42.1	13.3	1.75e-05	0	61	0	434110464	50	4913
2026-01-24 07:55:13.72	37.99	16.27	-39.8	-42.3	13.2	3.28e-05	0	61	0	437256192	50	5006
2026-01-24 07:55:14.73	37.77	16.26	-39.9	-42.4	13.0	4.11e-05	0	61	0	440401920	50	5062
2026-01-24 07:55:15.74	37.55	16.24	-39.9	-42.4	13.0	4.19e-05	0	61	0	443547648	50	5083
2026-01-24 07:55:16.75	37.33	16.23	-39.9	-42.4	13.0	4.34e-05	0	61	0	445644800	50	5083
2026-01-24 07:55:17.76	37.11	16.21	-39.8	-42.3	13.1	3.20e-05	0	61	0	449839104	50	5035
2026-01-24 07:55:18.77	36.89	16.20	-39.8	-42.3	13.1	2.44e-05	0	61	0	452984832	50	5031
2026-01-24 07:55:19.78	36.67	16.18	-39.7	-42.1	13.3	2.28e-05	0	61	0	456130560	50	4891
2026-01-24 07:55:20.79	36.45	16.17	-39.6	-42.0	13.4	1.52e-05	0	61	0	459276288	50	4857
2026-01-24 07:55:21.79	36.23	16.15	-39.6	-42.0	13.5	1.06e-05	0	61	0	462422016	50	4830
2026-01-24 07:55:22.80	36.01	16.13	-39.7	-42.1	13.4	1.14e-05	0	61	0	465567744	50	4871
2026-01-24 07:55:23.81	35.79	16.12	-39.7	-42.2	13.3	2.51e-05	0	61	0	468713472	50	4946
2026-01-24 07:55:24.82	35.57	16.10	-39.8	-42.3	13.1	1.60e-05	0	61	0	471859200	50	5002
2026-01-24 07:55:25.83	35.35	16.08	-39.9	-42.4	13.0	3.81e-05	0	61	0	475004928	50	5077
2026-01-24 07:55:26.84	35.14	16.06	-39.9	-42.5	12.9	5.41e-05	0	61	0	478150656	50	5124
2026-01-24 07:55:27.85	34.92	16.04	-40.0	-42.6	12.8	5.64e-05	0	61	0	481296384	50	5172
2026-01-24 07:55:28.86	34.70	16.03	-39.9	-42.4	13.0	4.95e-05	0	61	0	484442112	50	5076
2026-01-24 07:55:29.87	34.48	16.01	-39.7	-42.2	13.2	2.51e-05	0	61	0	487587840	50	4935
2026-01-24 07:55:30.88	34.27	15.99	-39.7	-42.1	13.3	1.67e-05	0	61	0	490733568	50	4916
2026-01-24 07:55:31.89	34.05	15.97	-39.7	-42.1	13.3	1.60e-05	0	61	0	493879296	50	4904
2026-01-24 07:55:32.90	33.83	15.95	-39.7	-42.1	13.3	1.90e-05	0	61	0	497025024	50	4898
2026-01-24 07:55:33.91	33.62	15.92	-39.7	-42.1	13.4	1.90e-05	0	61	0	500170752	50	4880
2026-01-24 07:55:34.92	33.40	15.90	-39.7	-42.1	13.3	2.21e-05	0	61	0	503316480	50	4918
2026-01-24 07:55:35.93	33.18	15.88	-39.7	-42.1	13.3	2.36e-05	0	61	0	506462208	50	4917
2026-01-24 07:55:36.94	32.97	15.86	-39.6	-42.0	13.4	1.75e-05	0	61	0	509607936	50	4858
2026-01-24 07:55:37.95	32.75	15.84	-39.6	-42.0	13.4	1.22e-05	0	61	0	512753664	50	4854
2026-01-24 07:55:38.96	32.54	15.81	-39.6	-42.0	13.4	1.98e-05	0	61	0	515899392	50	4868
2026-01-24 07:55:39.97	32.32	15.79	-39.7	-42.1	13.3	1.67e-05	0	61	0	519045120	50	4879
2026-01-24 07:55:40.98	32.11	15.77	-39.7	-42.1	13.2	1.75e-05	0	61	0	522190848	50	4920
2026-01-24 07:55:41.99	31.90	15.74	-39.7	-42.1	13.3	1.14e-05	0	61	0	525336576	50	4893
2026-01-24 07:55:43.00	31.68	15.72	-39.7	-42.1	13.3	1.44e-05	0	61	0	528482304	50	4889
2026-01-24 07:55:44.01	31.47	15.69	-39.7	-42.1	13.3	1.37e-05	0	61	0	531628032	50	4910
2026-01-24 07:55:45.02	31.26	15.67	-39.7	-42.1	13.3	2.21e-05	0	61	0	534773760	50	4914
2026-01-24 07:55:46.03	31.05	15.64	-39.7	-42.1	13.3	2.13e-05	0	61	0	537919488	50	4913
2026-01-24 07:55:47.04	30.83	15.61	-39.7	-42.1	13.3	1.37e-05	0	61	0	541065216	50	4884
2026-01-24 07:55:48.05	30.62	15.59	-39.6	-42.0	13.3	1.52e-05	0	61	0	544210944	50	4849
2026-01-24 07:55:49.06	30.41	15.56	-39.5	-41.9	13.5	1.60e-05	0	61	0	547356672	50	4783
2026-01-24 07:55:50.07	30.20	15.53	-39.5	-41.9	13.5	6.10e-06	0	61	0	550502400	50	4761
2026-01-24 07:55:51.08	29.99	15.51	-39.6	-42.0	13.5	1.44e-05	0	61	0	553648128	50	4819
2026-01-24 07:55:52.09	29.78	15.48	-39.7	-42.1	13.3	1.22e-05	0	61	0	556793856	50	4891
2026-01-24 07:55:53.10	29.57	15.45	-39.6	-42.0	13.4	1.83e-05	0	61	0	559939584	50	4867
2026-01-24 07:55:54.11	29.36	15.42	-39.6	-42.0	13.4	9.10e-06	0	61	0	563085312	50	4858
2026-01-24 07:55:55.12	29.15	15.39	-39.7	-42.1	13.2	2.05e-05	0	61	0	566231040	50	4917
2026-01-24 07:55:56.13	28.94	15.36	-39.7	-42.1	13.2	1.90e-05	0	61	0	569376768	50	4918
2026-01-24 07:55:57.14	28.74	15.33	-39.8	-42.2	13.2	2.05e-05	0	61	0	572522496	50	4972
2026-01-24 07:55:58.15	28.53	15.30	-39.8	-42.3	13.1	2.67e-05	0	61	0	575668224	50	4993
2026-01-24 07:55:59.16	28.32	15.27	-39.8	-42.3	13.1	2.44e-05	0	61	0	578813952	50	4984
2026-01-24 07:56:00.17	28.12	15.24	-39.8	-42.3	13.1	2.82e-05	0	61	0	581959680	50	5010
2026-01-24 07:56:01.18	27.91	15.21	-39.8	-42.3	13.0	5.03e-05	0	61	0	585105408	50	5027
2026-01-24 07:56:02.19	27.70	15.18	-39.8	-42.3	13.1	4.27e-05	0	61	0	588251136	50	4985
2026-01-24 07:56:03.20	27.50	15.15	-39.8	-42.3	13.1	4.65e-05	0	61	0	591396864	50	4998
2026-01-24 07:56:04.21	27.29	15.12	-39.6	-42.1	13.3	1.29e-05	0	61	0	594542592	50	4873
2026-01-24 07:56:05.22	27.09	15.08	-39.6	-42.0	13.3	1.90e-05	0	61	0	597688320	50	4848
2026-01-24 07:56:06.23	26.89	15.05	-39.7	-42.1	13.3	1.52e-05	0	61	0	600834048	50	4894
2026-01-24 07:56:07.24	26.68	15.02	-39.7	-42.2	13.2	1.60e-05	0	61	0	603979776	50	4952
2026-01-24 07:56:08.25	26.48	14.99	-39.7	-42.1	13.2	2.28e-05	0	61	0	607125504	50	4916
2026-01-24 07:56:09.26	26.28	14.95	-39.8	-42.3	13.1	2.89e-05	0	61	0	610271232	50	5016
2026-01-24 07:56:10.26	26.08	14.92	-39.8	-42.3	13.0	3.66e-05	0	61	0	613416960	50	5022
2026-01-24 07:56:11.28	25.87	14.88	-39.8	-42.3	13.1	2.44e-05	0	61	0	616562688	50	4989
2026-01-24 07:56:12.29	25.67	14.85	-39.8	-42.3	13.1	3.73e-05	0	61	0	619708416	50	5010
2026-01-24 07:56:13.30	25.47	14.82	-39.8	-42.3	13.0	4.11e-05	0	61	0	622854144	50	5032
2026-01-24 07:56:14.31	25.27	14.78	-39.8	-42.3	13.0	4.57e-05	0	61	0	625999872	50	5028
2026-01-24 07:56:15.32	25.07	14.74	-39.8	-42.3	13.0	2.82e-05	0	61	0	629145600	50	5014
2026-01-24 07:56:16.33	24.87	14.71	-39.8	-42.4	12.9	4.04e-05	0	61	0	632291328	50	5050
2026-01-24 07:56:17.34	24.67	14.67	-39.8	-42.3	13.0	3.73e-05	0	61	0	635437056	50	5002
2026-01-24 07:56:18.35	24.48	14.64	-39.8	-42.3	12.9	3.50e-05	0	61	0	638582784	50	5029
2026-01-24 07:56:19.36	24.28	14.60	-39.8	-42.3	12.9	4.65e-05	0	61	0	641728512	50	5029
2026-01-24 07:56:20.37	24.08	14.56	-39.8	-42.3	13.0	4.19e-05	0	61	0	644874240	50	5023
2026-01-24 07:56:21.38	23.88	14.53	-39.8	-42.3	13.0	5.34e-05	0	61	0	648019968	50	5018
2026-01-24 07:56:22.39	23.69	14.49	-39.8	-42.3	13.0	4.34e-05	0	61	0	651165696	50	5023
2026-01-24 07:56:23.40	23.49	14.45	-39.7	-42.4	12.9	3.81e-05	0	61	0	654311424	50	5044
2026-01-24 07:56:24.41	23.30	14.41	-39.6	-42.4	12.9	5.26e-05	0	61	0	657457152	50	5055
2026-01-24 07:56:25.42	23.10	14.37	-39.6	-42.5	12.8	6.86e-05	0	61	0	660602880	50	5126
2026-01-24 07:56:26.42	22.91	14.34	-39.7	-42.5	12.7	6.71e-05	0	61	0	663748608	50	5150
2026-01-24 07:56:27.43	22.72	14.30	-39.7	-42.4	12.8	4.73e-05	0	61	0	666894336	50	5066
2026-01-24 07:56:28.44	22.52	14.26	-39.8	-42.4	12.8	6.25e-05	0	61	0	670040064	50	5070
2026-01-24 07:56:29.45	22.33	14.22	-39.6	-42.4	12.8	7.40e-05	0	61	0	673185792	50	5093
2026-01-24 07:56:30.46	22.14	14.18	-39.1	-42.3	12.9	5.11e-05	0	61	0	676331520	50	5029
2026-01-24 07:56:31.47	21.95	14.14	-38.7	-42.2	12.9	4.73e-05	0	61	0	679477248	49	5273
2026-01-24 07:56:32.48	21.75	14.10	-38.4	-42.3	12.7	6.56e-05	0	61	0	682622976	48	5633
2026-01-24 07:56:33.49	21.56	14.06	-38.5	-42.4	12.7	9.46e-05	0	61	0	685768704	48	5684
2026-01-24 07:56:34.50	21.37	14.02	-38.7	-42.5	12.5	9.00e-05	0	61	0	688914432	48	5775
2026-01-24 07:56:35.51	21.18	13.98	-39.1	-42.6	12.5	1.09e-04	0	61	0	692060160	48	5789
2026-01-24 07:56:36.52	21.00	13.94	-39.3	-42.5	12.6	8.01e-05	0	61	0	695205888	49	5463
2026-01-24 07:56:37.53	20.81	13.90	-39.4	-42.4	12.7	8.08e-05	0	61	0	698351616	49	5378
2026-01-24 07:56:38.54	20.62	13.85	-39.4	-42.4	12.7	7.78e-05	0	61	0	701497344	49	5374
2026-01-24 07:56:39.55	20.43	13.81	-39.4	-42.4	12.8	6.10e-05	0	61	0	704643072	49	5348
2026-01-24 07:56:40.57	20.24	13.77	-39.5	-42.5	12.7	6.10e-05	0	61	0	707788800	49	5403
2026-01-24 07:56:41.58	20.06	13.73	-39.3	-42.2	13.0	4.57e-05	0	61	0	710934528	49	5235
2026-01-24 07:56:42.58	19.87	13.69	-39.3	-42.1	13.0	2.74e-05	0	61	0	714080256	49	5187
2026-01-24 07:56:43.59	19.69	13.64	-39.4	-42.1	13.0	3.96e-05	0	61	0	717225984	49	5218
2026-01-24 07:56:44.60	19.50	13.60	-39.6	-42.3	12.9	4.50e-05	0	61	0	720371712	49	5284
2026-01-24 07:56:45.61	19.32	13.56	-39.7	-42.3	12.8	6.94e-05	0	61	0	723517440	49	5335
2026-01-24 07:56:46.62	19.14	13.51	-39.7	-42.4	12.7	5.56e-05	0	61	0	726663168	50	5095
2026-01-24 07:56:47.63	18.95	13.47	-39.8	-42.6	12.5	8.62e-05	0	61	0	729808896	50	5188
2026-01-24 07:56:48.64	18.77	13.43	-39.9	-42.7	12.4	1.30e-04	0	61	0	732954624	50	5230
2026-01-24 07:56:49.65	18.59	13.38	-40.0	-42.7	12.4	1.56e-04	0	61	0	736100352	50	5260
2026-01-24 07:56:50.66	18.41	13.34	-40.0	-42.7	12.4	1.61e-04	0	61	0	739246080	50	5249
2026-01-24 07:56:51.67	18.23	13.29	-40.0	-42.7	12.4	1.46e-04	0	61	0	742391808	50	5274
2026-01-24 07:56:52.68	18.05	13.25	-40.0	-42.8	12.3	1.68e-04	0	61	0	745537536	50	5319
2026-01-24 07:56:53.69	17.87	13.21	-39.9	-42.7	12.4	1.45e-04	0	61	0	748683264	50	5225
2026-01-24 07:56:54.70	17.69	13.16	-39.9	-42.6	12.5	1.15e-04	0	61	0	751828992	50	5164
2026-01-24 07:56:55.70	17.51	13.12	-40.0	-42.7	12.4	1.44e-04	0	61	0	754974720	50	5232
2026-01-24 07:56:56.71	17.33	13.07	-39.9	-42.7	12.4	1.33e-04	0	61	0	759169024	50	5235
2026-01-24 07:56:57.73	17.15	13.02	-39.9	-42.7	12.4	1.36e-04	0	61	0	761266176	50	5245
2026-01-24 07:56:58.73	16.98	12.98	-40.0	-42.8	12.2	1.72e-04	0	61	0	764411904	50	5339
2026-01-24 07:56:59.74	16.80	12.93	-40.1	-43.0	12.1	2.44e-04	0	61	0	767557632	50	5414
2026-01-24 07:57:00.76	16.62	12.89	-40.1	-43.0	12.0	2.84e-04	0	61	0	771751936	50	5450
2026-01-24 07:57:01.77	16.45	12.84	-40.2	-43.1	11.9	4.07e-04	0	61	0	774897664	50	5516
2026-01-24 07:57:02.77	16.28	12.79	-40.1	-43.1	11.9	3.80e-04	0	61	0	778043392	51	5165
2026-01-24 07:57:03.78	16.10	12.75	-40.2	-43.2	11.7	4.65e-04	0	61	0	781189120	51	5262
2026-01-24 07:57:04.79	15.93	12.70	-40.2	-43.2	11.7	5.39e-04	0	61	0	784334848	51	5264
2026-01-24 07:57:05.81	15.75	12.65	-40.2	-43.2	11.8	5.20e-04	0	61	0	787480576	51	5231
2026-01-24 07:57:06.82	15.58	12.61	-40.2	-43.2	11.7	5.53e-04	0	61	0	790626304	51	5235
2026-01-24 07:57:07.83	15.41	12.56	-40.2	-43.2	11.7	6.58e-04	0	61	0	793772032	51	5257
2026-01-24 07:57:08.84	15.24	12.51	-40.1	-43.0	11.9	4.91e-04	0	61	0	796917760	51	5121
2026-01-24 07:57:09.85	15.07	12.46	-40.0	-42.9	12.0	3.81e-04	0	61	0	800063488	51	5065
2026-01-24 07:57:10.86	14.90	12.42	-39.9	-42.6	12.2	2.49e-04	0	61	0	803209216	51	4925
2026-01-24 07:57:11.87	14.73	12.37	-39.9	-42.7	12.1	2.43e-04	0	61	0	806354944	51	4960
2026-01-24 07:57:12.88	14.56	12.32	-40.0	-42.9	11.9	3.33e-04	0	61	0	809500672	51	5049
2026-01-24 07:57:13.89	14.39	12.27	-39.9	-42.7	12.1	3.31e-04	0	61	0	812646400	51	4968
2026-01-24 07:57:14.90	14.22	12.22	-39.8	-42.7	12.1	2.49e-04	0	61	0	815792128	51	4943
2026-01-24 07:57:15.91	14.05	12.18	-39.9	-42.7	12.1	2.88e-04	0	61	0	818937856	51	4975
2026-01-24 07:57:16.92	13.89	12.13	-39.9	-42.8	12.0	2.86e-04	0	61	0	822083584	51	4997
2026-01-24 07:57:17.93	13.72	12.08	-39.9	-42.8	12.0	3.39e-04	0	61	0	825229312	51	4989
2026-01-24 07:57:18.94	13.56	12.03	-39.9	-42.8	11.9	3.86e-04	0	61	0	828375040	51	5038
2026-01-24 07:57:19.95	13.39	11.98	-40.0	-42.9	11.8	4.85e-04	0	61	0	831520768	51	5057
2026-01-24 07:57:20.96	13.23	11.93	-40.0	-43.0	11.6	6.97e-04	0	61	0	834666496	51	5132
2026-01-24 07:57:21.97	13.06	11.88	-40.0	-43.0	11.5	7.42e-04	0	61	0	837812224	51	5146
2026-01-24 07:57:22.99	12.90	11.83	-40.1	-43.3	11.2	1.28e-03	0	61	0	840957952	51	5302
2026-01-24 07:57:24.00	12.73	11.78	-40.1	-43.4	11.0	1.81e-03	0	61	0	844103680	51	5353
2026-01-24 07:57:25.01	12.57	11.73	-40.1	-43.3	11.0	1.92e-03	0	61	0	847249408	51	5312
2026-01-24 07:57:26.02	12.41	11.68	-40.1	-43.4	10.8	2.19e-03	0	61	0	850395136	51	5383
2026-01-24 07:57:27.03	12.25	11.63	-40.1	-43.4	10.7	2.58e-03	0	61	0	853540864	51	5400
2026-01-24 07:57:28.04	12.09	11.58	-40.0	-43.4	10.7	3.30e-03	0	61	0	856686592	51	5373
2026-01-24 07:57:29.04	11.93	11.53	-39.9	-43.2	10.8	3.28e-03	0	61	0	859832320	51	5232
2026-01-24 07:57:30.05	11.77	11.48	-39.9	-43.2	10.8	2.78e-03	0	61	0	862978048	51	5242
2026-01-24 07:57:31.06	11.61	11.43	-39.7	-43.0	10.8	2.91e-03	0	61	0	866123776	51	5129
2026-01-24 07:57:32.07	11.45	11.38	-39.6	-43.0	10.8	2.44e-03	0	61	0	869269504	51	5120
2026-01-24 07:57:33.08	11.30	11.33	-39.8	-43.3	10.3	4.89e-03	0	61	0	872415232	51	5329
2026-01-24 07:57:34.09	11.14	11.28	-40.0	-43.8	9.7	1.04e-02	0	61	0	875560960	51	5640
2026-01-24 07:57:35.10	10.98	11.23	-40.4	-44.7	8.6	2.31e-02	0	61	0	878706688	51	6260
2026-01-24 07:57:36.11	10.82	11.18	-40.5	-45.4	7.8	6.68e-02	0	61	0	881852416	51	6761
2026-01-24 07:57:37.12	10.67	11.13	-40.7	-46.2	6.8	1.38e-01	0	61	0	884998144	51	7445
2026-01-24 07:57:38.13	10.51	11.08	-40.8	-47.1	6.0	2.78e-01	0	61	0	888143872	52	7737
2026-01-24 07:57:39.14	10.36	11.02	-40.9	-48.1	5.2	5.57e-01	0	61	0	891289600	52	8743
2026-01-24 07:57:40.15	10.21	10.97	-41.0	-49.5	4.0	1.38e+00	0	61	104	893386752	52	10275
2026-01-24 07:57:41.16	10.05	10.92	-41.0	-49.8	4.3	1.43e+00	0	61	104	893386752	52	10605
2026-01-24 07:57:42.18	9.90	10.87	-41.1	-50.6	4.1	1.47e+00	0	61	104	893386752	52	11624
2026-01-24 07:57:43.19	9.75	10.82	-41.4	-51.2	3.9	1.47e+00	0	62	104	893386752	53	11708
2026-01-24 07:57:44.20	9.59	10.77	-40.5	-52.8	3.8	1.49e+00	0	61	104	893386752	53	14160
2026-01-24 07:57:45.20	9.44	10.71	-41.1	-52.3	3.8	1.49e+00	0	62	104	893386752	53	13337
2026-01-24 07:57:46.21	9.29	10.66	-41.9	-53.4	3.8	1.49e+00	0	61	104	893386752	54	14231
2026-01-24 07:57:47.22	9.14	10.61	-41.2	-52.4	3.8	1.49e+00	0	61	104	893386752	54	12704
2026-01-24 07:57:48.23	8.99	10.56	-41.1	-52.7	3.8	1.49e+00	0	61	104	893386752	54	13144
2026-01-24 07:57:49.24	8.84	10.51	-40.9	-52.7	3.8	1.49e+00	0	61	104	893386752	53	13895
2026-01-24 07:57:50.25	8.70	10.45	-40.6	-52.9	3.8	1.49e+00	0	61	104	893386752	53	14214
2026-01-24 07:57:51.26	8.55	10.40	-40.7	-52.7	3.8	1.49e+00	0	61	104	893386752	53	13988
2026-01-24 07:57:52.27	8.40	10.35	-40.0	-52.3	3.8	1.49e+00	0	61	104	893386752	52	14197
2026-01-24 07:57:53.28	8.25	10.30	-40.1	-52.4	3.8	1.49e+00	0	61	104	893386752	52	14334
2026-01-24 07:57:54.29	8.11	10.25	-40.5	-52.9	3.8	1.49e+00	0	61	104	893386752	52	15078
2026-01-24 07:57:55.30	7.96	10.19	-40.5	-52.7	3.8	1.49e+00	0	61	104	893386752	52	14839
2026-01-24 07:57:56.31	7.82	10.14	-40.0	-52.3	3.8	1.49e+00	0	62	104	893386752	51	14909
2026-01-24 07:57:57.32	7.67	10.09	-40.1	-52.4	3.8	1.49e+00	0	61	104	893386752	51	15133
2026-01-24 07:57:58.33	7.53	10.03	-40.4	-52.8	3.8	1.49e+00	0	61	104	893386752	51	15876
2026-01-24 07:57:59.34	7.38	9.98	-40.4	-52.7	3.8	1.49e+00	0	61	104	893386752	51	15684
2026-01-24 07:58:00.35	7.24	9.93	-39.8	-52.2	3.8	1.49e+00	0	61	104	893386752	51	14711
2026-01-24 07:58:01.36	7.10	9.88	-39.8	-52.1	3.8	1.49e+00	0	61	104	893386752	51	14576
2026-01-24 07:58:02.37	6.96	9.82	-39.8	-52.2	3.8	1.49e+00	0	61	104	893386752	51	14715
2026-01-24 07:58:03.38	6.82	9.77	-39.7	-52.1	3.8	1.49e+00	0	61	104	893386752	51	14544
2026-01-24 07:58:04.39	6.67	9.72	-39.7	-52.1	3.8	1.49e+00	0	61	104	893386752	51	14577
2026-01-24 07:58:05.40	6.53	9.66	-39.7	-52.0	3.8	1.49e+00	0	62	104	893386752	51	14470
2026-01-24 07:58:06.41	6.39	9.61	-39.7	-52.0	3.8	1.49e+00	0	61	104	893386752	51	14512
2026-01-24 07:58:07.42	6.25	9.56	-39.8	-52.1	3.8	1.49e+00	0	61	104	893386752	51	14671
2026-01-24 07:58:08.43	6.12	9.50	-40.0	-52.4	3.8	1.49e+00	0	61	104	893386752	51	15073
2026-01-24 07:58:09.43	5.98	9.45	-39.7	-52.1	3.8	1.49e+00	0	61	104	893386752	51	14556
2026-01-24 07:58:10.44	5.84	9.40	-39.7	-52.1	3.8	1.49e+00	0	61	104	893386752	51	14564
2026-01-24 07:58:11.45	5.70	9.34	-39.7	-52.0	3.8	1.49e+00	0	61	104	893386752	51	14499
2026-01-24 07:58:12.46	5.57	9.29	-39.7	-52.0	3.8	1.49e+00	0	62	104	893386752	51	14487
2026-01-24 07:58:13.47	5.43	9.24	-39.7	-52.0	3.8	1.49e+00	0	61	104	893386752	51	14489
2026-01-24 07:58:14.49	5.29	9.18	-39.7	-52.0	3.8	1.49e+00	0	61	104	893386752	51	14474
2026-01-24 07:58:15.50	5.16	9.13	-39.8	-52.1	3.8	1.49e+00	0	61	104	893386752	51	14688
2026-01-24 07:58:16.51	5.02	9.08	-39.8	-52.2	3.8	1.49e+00	0	61	104	893386752	51	14776
2026-01-24 07:58:17.52	4.89	9.02	-39.8	-52.1	3.8	1.49e+00	0	61	104	893386752	51	14605
2026-01-24 07:58:18.53	4.75	8.97	-39.9	-52.2	3.8	1.49e+00	0	61	104	893386752	51	14838
2026-01-24 07:58:19.54	4.62	8.91	-39.8	-52.1	3.8	1.49e+00	0	61	104	893386752	51	14637
2026-01-24 07:58:20.55	4.49	8.86	-39.8	-52.1	3.8	1.49e+00	0	62	104	893386752	51	14586
2026-01-24 07:58:21.55	4.36	8.81	-39.7	-52.1	3.8	1.49e+00	0	61	104	893386752	51	14633
2026-01-24 07:58:22.56	4.23	8.75	-39.8	-52.2	3.8	1.49e+00	0	61	104	893386752	51	14741
2026-01-24 07:58:23.57	4.09	8.70	-39.8	-52.1	3.8	1.49e+00	0	62	104	893386752	51	14649
2026-01-24 07:58:24.58	3.96	8.65	-39.8	-52.1	3.8	1.49e+00	0	62	104	893386752	51	14612
2026-01-24 07:58:25.59	3.83	8.59	-39.8	-52.1	3.8	1.49e+00	0	61	104	893386752	51	14660
2026-01-24 07:58:26.60	3.70	8.54	-39.8	-52.2	3.8	1.49e+00	0	62	104	893386752	51	14811
2026-01-24 07:58:27.61	3.57	8.48	-39.8	-52.1	3.8	1.49e+00	0	61	104	893386752	51	14648
2026-01-24 07:58:28.62	3.45	8.43	-39.7	-52.1	3.8	1.49e+00	0	62	104	893386752	51	14562
2026-01-24 07:58:29.63	3.32	8.38	-39.7	-52.1	3.8	1.49e+00	0	61	104	893386752	51	14583
2026-01-24 07:58:30.64	3.19	8.32	-39.8	-52.1	3.8	1.49e+00	0	61	104	893386752	51	14657
2026-01-24 07:58:31.65	3.06	8.27	-39.7	-52.1	3.8	1.49e+00	0	61	104	893386752	51	14569
2026-01-24 07:58:32.66	2.94	8.21	-39.8	-52.1	3.8	1.49e+00	0	62	104	893386752	51	14614
2026-01-24 07:58:33.67	2.81	8.16	-39.7	-52.0	3.8	1.49e+00	0	61	104	893386752	51	14487
2026-01-24 07:58:34.68	2.68	8.11	-39.8	-52.1	3.8	1.49e+00	0	61	104	893386752	51	14588
2026-01-24 07:58:35.69	2.56	8.05	-39.7	-52.1	3.8	1.49e+00	0	61	104	893386752	51	14592
2026-01-24 07:58:36.70	2.43	8.00	-39.8	-52.1	3.8	1.49e+00	0	62	104	893386752	51	14590
2026-01-24 07:58:37.70	2.31	7.94	-41.5	-53.7	3.8	1.49e+00	0	61	104	893386752	53	15712
2026-01-24 07:58:38.71	2.19	7.89	-44.5	-56.8	3.8	1.49e+00	0	61	104	893386752	59	15809
2026-01-24 07:58:39.72	2.06	7.83	-44.9	-57.4	3.8	1.49e+00	0	62	104	893386752	60	15973
2026-01-24 07:58:40.73	1.94	7.78	-45.1	-57.6	3.8	1.49e+00	0	62	104	893386752	60	16378
2026-01-24 07:58:41.74	1.82	7.73	-45.2	-57.7	3.8	1.49e+00	0	62	104	893386752	60	16629
2026-01-24 07:58:42.75	1.69	7.67	-45.3	-57.8	3.8	1.49e+00	0	62	104	893386752	61	15785
2026-01-24 07:58:43.76	1.57	7.62	-45.4	-57.9	3.8	1.49e+00	0	62	104	893386752	61	16016
2026-01-24 07:58:44.77	1.45	7.56	-45.5	-57.9	3.8	1.49e+00	0	62	104	893386752	61	16093
2026-01-24 07:58:45.78	1.33	7.51	-45.4	-57.9	3.8	1.49e+00	0	62	104	893386752	61	15971
2026-01-24 07:58:46.80	1.21	7.45	-45.4	-57.8	3.8	1.49e+00	0	61	104	893386752	61	15936
2026-01-24 07:58:47.81	1.09	7.40	-45.3	-57.8	3.8	1.49e+00	0	61	104	893386752	61	15764
2026-01-24 07:58:48.82	0.97	7.35	-45.3	-57.7	3.8	1.49e+00	0	61	104	893386752	61	15638
2026-01-24 07:58:49.83	0.85	7.29	-45.3	-57.6	3.8	1.49e+00	0	62	104	893386752	61	15568
2026-01-24 07:58:50.84	0.73	7.24	-45.2	-57.6	3.8	1.49e+00	0	62	104	893386752	61	15512
2026-01-24 07:58:51.85	0.61	7.18	-45.2	-57.5	3.8	1.49e+00	0	62	104	893386752	61	15349
2026-01-24 07:58:52.86	0.50	7.13	-45.1	-57.5	3.8	1.49e+00	0	61	104	893386752	61	15305
2026-01-24 07:58:53.87	0.38	7.07	-45.1	-57.5	3.8	1.49e+00	0	61	104	893386752	61	15263
2026-01-24 07:58:54.88	0.26	7.02	-45.1	-57.5	3.8	1.49e+00	0	62	104	893386752	61	15301
2026-01-24 07:58:55.89	0.15	6.97	-45.1	-57.5	3.8	1.49e+00	0	62	104	893386752	61	15273
2026-01-24 07:58:56.90	0.03	6.91	-45.1	-57.5	3.8	1.49e+00	0	61	104	893386752	61	15327
2026-01-24 07:58:57.91	359.92	6.86	-45.1	-57.5	3.8	1.49e+00	0	62	104	893386752	61	15258
2026-01-24 07:58:58.92	359.80	6.80	-45.1	-57.5	3.8	1.49e+00	0	62	104	893386752	61	15341
2026-01-24 07:58:59.93	359.69	6.75	-45.1	-57.5	3.8	1.49e+00	0	62	104	893386752	61	15272
2026-01-24 07:59:00.94	359.57	6.69	-45.1	-57.5	3.8	1.49e+00	0	62	104	893386752	61	15300
2026-01-24 07:59:01.95	359.46	6.64	-45.1	-57.5	3.8	1.49e+00	0	62	104	893386752	61	15300
2026-01-24 07:59:02.96	359.35	6.59	-45.1	-57.4	3.8	1.49e+00	0	62	104	893386752	61	15220
2026-01-24 07:59:03.98	359.23	6.53	-45.1	-57.4	3.8	1.49e+00	0	62	104	893386752	61	15219
2026-01-24 07:59:04.99	359.12	6.48	-45.1	-57.5	3.8	1.49e+00	0	62	104	893386752	60	16147
2026-01-24 07:59:06.00	359.01	6.42	-45.1	-57.5	3.8	1.49e+00	0	62	104	893386752	60	16158
2026-01-24 07:59:07.01	358.90	6.37	-45.1	-57.4	3.8	1.49e+00	0	61	104	893386752	60	16100
2026-01-24 07:59:08.02	358.79	6.31	-45.1	-57.4	3.8	1.49e+00	0	62	104	893386752	60	16122
2026-01-24 07:59:09.03	358.68	6.26	-45.1	-57.5	3.8	1.49e+00	0	62	104	893386752	60	16176
2026-01-24 07:59:10.04	358.57	6.21	-45.1	-57.4	3.8	1.49e+00	0	62	104	893386752	60	16111
2026-01-24 07:59:11.05	358.46	6.15	-45.1	-57.4	3.8	1.49e+00	0	61	104	893386752	60	16117
2026-01-24 07:59:12.06	358.35	6.10	-45.1	-57.4	3.8	1.49e+00	0	62	104	893386752	60	16127
2026-01-24 07:59:13.07	358.24	6.04	-45.1	-57.5	3.8	1.49e+00	0	62	104	893386752	60	16153
2026-01-24 07:59:14.08	358.13	5.99	-45.1	-57.4	3.8	1.49e+00	0	62	104	893386752	60	16070
2026-01-24 07:59:15.09	358.02	5.94	-45.1	-57.5	3.8	1.49e+00	0	62	104	893386752	60	16132
2026-01-24 07:59:16.10	357.91	5.88	-45.1	-57.4	3.8	1.49e+00	0	61	104	893386752	60	16108
2026-01-24 07:59:17.11	357.81	5.83	-45.1	-57.4	3.8	1.49e+00	0	62	104	893386752	60	16126
2026-01-24 07:59:18.12	357.70	5.77	-45.1	-57.4	3.8	1.49e+00	0	62	104	893386752	60	16121
2026-01-24 07:59:19.13	357.59	5.72	-45.1	-57.4	3.8	1.49e+00	0	62	104	893386752	60	16089
2026-01-24 07:59:20.14	357.49	5.67	-45.1	-57.4	3.8	1.49e+00	0	61	104	893386752	60	16097
2026-01-24 07:59:21.15	357.38	5.61	-45.1	-57.4	3.8	1.49e+00	0	62	104	893386752	60	16111
2026-01-24 07:59:22.16	357.28	5.56	-45.1	-57.4	3.8	1.49e+00	0	62	104	893386752	60	16093
2026-01-24 07:59:23.17	357.17	5.50	-45.1	-57.4	3.8	1.49e+00	0	62	104	893386752	60	16083
2026-01-24 07:59:24.18	357.07	5.45	-45.1	-57.4	3.8	1.49e+00	0	62	104	893386752	60	16107
2026-01-24 07:59:25.19	356.96	5.40	-45.1	-57.4	3.8	1.49e+00	0	62	104	893386752	60	16123
2026-01-24 07:59:26.20	356.86	5.34	-45.1	-57.4	3.8	1.49e+00	0	62	104	893386752	60	16047
2026-01-24 07:59:27.21	356.76	5.29	-45.1	-57.4	3.8	1.49e+00	0	62	104	893386752	60	16053
2026-01-24 07:59:28.22	356.66	5.23	-45.1	-57.4	3.8	1.49e+00	0	62	104	893386752	60	16061
2026-01-24 07:59:29.23	356.55	5.18	-45.1	-57.4	3.8	1.49e+00	0	61	104	893386752	60	16060
2026-01-24 07:59:30.24	356.45	5.13	-45.1	-57.4	3.8	1.49e+00	0	62	104	893386752	60	16059
2026-01-24 07:59:31.26	356.35	5.07	-45.0	-57.4	3.8	1.49e+00	0	62	104	893386752	60	16041
2026-01-24 07:59:32.27	356.25	5.02	-45.1	-57.4	3.8	1.49e+00	0	62	104	893386752	60	16104
2026-01-24 07:59:33.28	356.15	4.96	-45.1	-57.4	3.8	1.49e+00	0	62	104	893386752	60	16062
2026-01-24 07:59:34.29	356.05	4.91	-45.1	-57.4	3.8	1.49e+00	0	62	104	893386752	60	16040
2026-01-24 07:59:35.30	355.95	4.86	-45.1	-57.4	3.8	1.49e+00	0	62	104	893386752	60	16080
2026-01-24 07:59:36.31	355.85	4.80	-45.1	-57.4	3.8	1.49e+00	0	62	104	893386752	60	16055
2026-01-24 07:59:37.32	355.75	4.75	-45.1	-57.4	3.8	1.49e+00	0	62	104	893386752	60	16074
2026-01-24 07:59:38.33	355.65	4.70	-45.1	-57.4	3.8	1.49e+00	0	62	104	893386752	60	16039
2026-01-24 07:59:39.34	355.55	4.64	-45.1	-57.4	3.8	1.49e+00	0	62	104	893386752	60	16109
2026-01-24 07:59:40.35	355.45	4.59	-45.0	-57.4	3.8	1.49e+00	0	62	104	893386752	60	16045
2026-01-24 07:59:41.36	355.35	4.54	-44.5	-57.4	3.8	1.49e+00	0	62	104	893386752	60	15966
2026-01-24 07:59:42.37	355.26	4.48	-44.9	-57.4	3.8	1.49e+00	0	62	104	893386752	60	15952
2026-01-24 07:59:43.38	355.16	4.43	-45.1	-57.4	3.8	1.49e+00	0	62	104	893386752	60	16028
2026-01-24 07:59:44.39	355.06	4.38	-45.0	-57.4	3.8	1.49e+00	0	62	104	893386752	60	16063
2026-01-24 07:59:45.40	354.97	4.32	-45.0	-57.4	3.8	1.49e+00	0	62	104	893386752	60	15965
2026-01-24 07:59:46.41	354.87	4.27	-45.0	-57.4	3.8	1.49e+00	0	62	104	893386752	60	15965
2026-01-24 07:59:47.42	354.78	4.22	-45.1	-57.4	3.8	1.49e+00	0	62	104	893386752	60	16016
2026-01-24 07:59:48.43	354.68	4.16	-45.0	-57.4	3.8	1.49e+00	0	62	104	893386752	60	16114
2026-01-24 07:59:49.44	354.59	4.11	-45.0	-57.4	3.8	1.49e+00	0	62	104	893386752	60	16028
2026-01-24 07:59:50.45	354.49	4.06	-45.0	-57.4	3.8	1.49e+00	0	62	104	893386752	60	15972
2026-01-24 07:59:51.46	354.40	4.00	-45.0	-57.4	3.8	1.49e+00	0	62	104	893386752	60	16065
2026-01-24 07:59:52.47	354.30	3.95	-45.0	-57.4	3.8	1.49e+00	0	62	104	893386752	60	16014
2026-01-24 07:59:53.48	354.21	3.90	-45.0	-57.4	3.8	1.49e+00	0	62	104	893386752	60	16018
2026-01-24 07:59:54.50	354.12	3.84	-45.0	-57.4	3.8	1.49e+00	0	62	104	893386752	60	15986
2026-01-24 07:59:55.51	354.02	3.79	-45.0	-57.4	3.8	1.49e+00	0	62	104	893386752	60	16015
2026-01-24 07:59:56.52	353.93	3.74	-45.0	-57.4	3.8	1.49e+00	0	62	104	893386752	60	16005
2026-01-24 07:59:57.53	353.84	3.68	-45.0	-57.4	3.8	1.49e+00	0	61	104	893386752	60	16031
2026-01-24 07:59:58.54	353.75	3.63	-45.0	-57.4	3.8	1.49e+00	0	62	104	893386752	60	15993
2026-01-24 07:59:59.55	353.66	3.58	-45.0	-57.4	3.8	1.49e+00	0	62	104	893386752	60	15976
2026-01-24 08:00:00.56	353.56	3.52	-45.0	-57.4	3.8	1.49e+00	0	62	104	893386752	60	16043
2026-01-24 08:00:01.57	353.47	3.47	-45.0	-57.4	3.8	1.49e+00	0	62	104	893386752	60	15988
2026-01-24 08:00:02.58	353.38	3.42	-45.0	-57.4	3.8	1.49e+00	0	62	104	893386752	60	15963
2026-01-24 08:00:03.59	353.29	3.37	-45.0	-57.4	3.8	1.49e+00	0	62	104	893386752	60	15975
2026-01-24 08:00:04.60	353.20	3.31	-45.0	-57.4	3.8	1.49e+00	0	62	104	893386752	60	15998
2026-01-24 08:00:05.61	353.11	3.26	-45.0	-57.4	3.8	1.49e+00	0	62	104	893386752	60	16018
2026-01-24 08:00:06.62	353.03	3.21	-45.0	-57.4	3.8	1.49e+00	0	62	104	893386752	60	15999
2026-01-24 08:00:07.63	352.94	3.15	-45.0	-57.4	3.8	1.49e+00	0	62	104	893386752	60	16030
2026-01-24 08:00:08.65	352.85	3.10	-45.0	-57.4	3.8	1.49e+00	0	62	104	893386752	60	15979
2026-01-24 08:00:09.66	352.76	3.05	-45.0	-57.4	3.8	1.49e+00	0	61	104	893386752	60	16010
2026-01-24 08:00:10.67	352.67	3.00	-45.0	-57.4	3.8	1.49e+00	0	62	104	893386752	60	16013
2026-01-24 08:00:11.68	352.58	2.94	-45.0	-57.4	3.8	1.49e+00	0	62	104	893386752	60	16037
2026-01-24 08:00:12.69	352.50	2.89	-45.0	-57.4	3.8	1.49e+00	0	62	104	893386752	60	16049
2026-01-24 08:00:13.70	352.41	2.84	-45.0	-57.4	3.8	1.49e+00	0	62	104	893386752	60	15945
2026-01-24 08:00:14.71	352.32	2.79	-45.0	-57.4	3.8	1.49e+00	0	62	104	893386752	60	16066
2026-01-24 08:00:15.72	352.24	2.73	-45.0	-57.4	3.8	1.49e+00	0	62	104	893386752	60	15967
2026-01-24 08:00:16.73	352.15	2.68	-45.0	-57.4	3.8	1.49e+00	0	62	104	893386752	60	16030
2026-01-24 08:00:17.74	352.07	2.63	-45.0	-57.4	3.8	1.49e+00	0	62	104	893386752	60	15984
2026-01-24 08:00:18.75	351.98	2.58	-45.0	-57.4	3.8	1.49e+00	0	62	104	893386752	60	16009
2026-01-24 08:00:19.76	351.90	2.52	-44.9	-57.4	3.8	1.49e+00	0	62	104	893386752	60	16032
2026-01-24 08:00:20.77	351.81	2.47	-45.0	-57.3	3.8	1.49e+00	0	62	104	893386752	60	15940
2026-01-24 08:00:21.78	351.73	2.42	-45.0	-57.4	3.8	1.49e+00	0	62	104	893386752	60	16002
2026-01-24 08:00:22.79	351.65	2.37	-45.0	-57.4	3.8	1.49e+00	0	62	104	893386752	60	15973
2026-01-24 08:00:23.80	351.56	2.32	-45.0	-57.4	3.8	1.49e+00	0	62	104	893386752	60	16027
2026-01-24 08:00:24.81	351.48	2.26	-45.0	-57.4	3.8	1.49e+00	0	62	104	893386752	60	16016
2026-01-24 08:00:25.82	351.40	2.21	-45.0	-57.4	3.8	1.49e+00	0	62	104	893386752	60	15969
2026-01-24 08:00:26.83	351.31	2.16	-45.0	-57.4	3.8	1.49e+00	0	62	104	893386752	60	16033
2026-01-24 08:00:27.84	351.23	2.11	-45.0	-57.4	3.8	1.49e+00	0	62	104	893386752	60	16028
2026-01-24 08:00:28.85	351.15	2.06	-45.0	-57.4	3.8	1.49e+00	0	62	104	893386752	60	15995
2026-01-24 08:00:29.86	351.07	2.00	-45.0	-57.4	3.8	1.49e+00	0	62	104	893386752	60	15964

#Closed at: 2026-01-24 08:00:30
#Recorded file [893 MB]: D:/lorett/data/31039_260124_104857.dat