passes_logs/2026/01/24/R2.0S_Moscow/R2.0S_Moscow__20260124_105437_FENGYUN_3D_rec.log

#Pass ID: 20260124_105437_FENGYUN 3D
#Satellite: FENGYUN 3D
#Configuration: FENGYUN 3D
#almurnet v.1.7.20251203
#Start time: 2026-01-24 10:54:37

#Version: 2.2.20231116
#Station: R2.0S_Moscow
#Location: 37.707566 lon 55.798166 lat
#TLE: 1 43010U 17072A   26023.60174628  .00000324  00000+0  17481-3 0  9994
#TLE: 2 43010  98.9958 355.5514 0002482  93.7422 266.4037 14.19699955424476

#Time	Az	El	Level	Level2	SNR	BER	BlckErr	Temp	State	Recorded	gain1	gain2
2026-01-24 10:54:37.93	129.18	2.04	-31.4	-46.3	4.3	8.36e-01	0	52	0	0	37	16878
2026-01-24 10:54:38.93	129.13	2.10	-33.6	-48.6	4.0	8.39e-01	0	52	104	0	37	21813
2026-01-24 10:54:39.94	129.09	2.16	-35.8	-49.6	4.1	8.41e-01	0	52	104	0	38	23135
2026-01-24 10:54:40.95	129.04	2.23	-23.6	-37.6	3.9	8.37e-01	0	52	104	0	26	11683
2026-01-24 10:54:41.96	129.00	2.29	-25.1	-40.0	3.7	8.35e-01	0	52	104	0	26	15385
2026-01-24 10:54:42.97	128.95	2.35	-34.5	-49.0	4.2	8.37e-01	0	52	104	0	42	17129
2026-01-24 10:54:43.98	128.91	2.41	-31.3	-45.2	4.2	8.39e-01	0	53	104	0	34	17626
2026-01-24 10:54:44.99	128.86	2.47	-22.1	-38.8	3.8	8.39e-01	0	53	104	0	25	14076
2026-01-24 10:54:46.00	128.82	2.54	-34.9	-49.5	4.2	8.37e-01	0	53	104	0	40	20422
2026-01-24 10:54:47.01	128.77	2.60	-24.5	-38.2	4.0	8.36e-01	0	53	104	0	27	11717
2026-01-24 10:54:48.02	128.73	2.66	-31.5	-45.4	4.0	8.38e-01	0	53	104	0	28	25510
2026-01-24 10:54:49.03	128.68	2.73	-23.8	-36.3	3.7	8.40e-01	0	53	104	0	18	15910
2026-01-24 10:54:50.04	128.64	2.79	-31.7	-44.8	3.7	8.41e-01	0	53	104	0	34	16731
2026-01-24 10:54:51.05	128.59	2.85	-34.1	-49.1	4.2	8.39e-01	0	53	104	0	39	20589
2026-01-24 10:54:52.07	128.54	2.92	-34.8	-49.4	4.0	8.40e-01	0	53	104	0	38	22632
2026-01-24 10:54:53.08	128.50	2.98	-24.1	-37.0	3.7	8.38e-01	0	53	104	0	18	17154
2026-01-24 10:54:54.09	128.45	3.04	-33.9	-49.1	4.1	8.32e-01	0	53	104	0	36	24545
2026-01-24 10:54:55.10	128.40	3.11	-24.4	-39.4	3.9	8.36e-01	0	53	104	0	29	11980
2026-01-24 10:54:56.11	128.35	3.17	-30.8	-45.3	4.1	8.38e-01	0	54	104	0	35	16876
2026-01-24 10:54:57.12	128.31	3.24	-26.7	-42.3	3.8	8.39e-01	0	53	104	0	20	28337
2026-01-24 10:54:58.13	128.26	3.30	-34.7	-50.5	4.2	8.36e-01	0	54	104	0	43	19213
2026-01-24 10:54:59.14	128.21	3.36	-32.9	-48.9	4.0	8.40e-01	0	54	104	0	37	22712
2026-01-24 10:55:00.15	128.16	3.43	-34.5	-49.0	4.3	8.36e-01	0	54	104	0	41	18145
2026-01-24 10:55:01.16	128.11	3.49	-32.8	-48.6	4.3	8.39e-01	0	54	104	0	33	27515
2026-01-24 10:55:02.17	128.07	3.56	-35.4	-49.7	4.1	8.39e-01	0	54	104	0	36	26353
2026-01-24 10:55:03.18	128.02	3.62	-32.5	-47.9	4.0	8.40e-01	0	54	104	0	39	18087
2026-01-24 10:55:04.19	127.97	3.69	-28.7	-47.9	4.3	8.39e-01	0	54	104	0	35	22521
2026-01-24 10:55:05.20	127.92	3.75	-37.4	-51.6	4.2	8.39e-01	0	54	104	0	40	25896
2026-01-24 10:55:06.22	127.87	3.82	-33.1	-47.5	4.4	8.39e-01	0	54	104	0	37	19343
2026-01-24 10:55:07.22	127.82	3.88	-33.8	-47.6	3.9	8.38e-01	0	54	104	0	36	20736
2026-01-24 10:55:08.23	127.77	3.95	-23.6	-35.2	3.7	8.35e-01	0	54	104	0	18	13969
2026-01-24 10:55:09.25	127.72	4.02	-28.0	-42.1	4.1	8.41e-01	0	55	104	0	29	16455
2026-01-24 10:55:10.26	127.67	4.08	-32.8	-47.8	4.4	8.39e-01	0	54	104	0	33	25087
2026-01-24 10:55:11.27	127.62	4.15	-35.0	-48.7	4.3	8.40e-01	0	55	104	0	41	17666
2026-01-24 10:55:12.28	127.57	4.21	-32.4	-47.3	4.1	8.39e-01	0	55	104	0	33	23659
2026-01-24 10:55:13.29	127.51	4.28	-29.7	-44.3	4.0	8.36e-01	0	55	104	0	30	19910
2026-01-24 10:55:14.30	127.46	4.35	-29.8	-43.4	4.2	8.38e-01	0	55	104	0	30	17909
2026-01-24 10:55:15.31	127.41	4.41	-26.4	-40.5	4.0	8.37e-01	0	55	104	0	26	16142
2026-01-24 10:55:16.31	127.36	4.48	-32.2	-48.0	4.2	8.36e-01	0	55	104	0	34	24311
2026-01-24 10:55:17.33	127.31	4.55	-28.1	-42.9	4.1	8.37e-01	0	55	104	0	26	21394
2026-01-24 10:55:18.34	127.25	4.61	-31.2	-44.2	4.0	8.33e-01	0	55	104	0	29	20960
2026-01-24 10:55:19.34	127.20	4.68	-27.8	-44.5	3.9	8.39e-01	0	55	104	0	27	24379
2026-01-24 10:55:20.35	127.15	4.75	-32.1	-46.0	4.2	8.36e-01	0	55	104	0	34	19291
2026-01-24 10:55:21.37	127.09	4.81	-22.4	-35.0	4.1	8.35e-01	0	55	104	0	26	8635
2026-01-24 10:55:22.38	127.04	4.88	-29.5	-43.9	3.7	8.24e-01	0	55	104	0	21	31900
2026-01-24 10:55:23.38	126.99	4.95	-34.8	-47.6	4.4	8.27e-01	0	55	104	0	34	23287
2026-01-24 10:55:24.40	126.93	5.02	-29.6	-41.8	3.8	8.33e-01	0	55	104	0	24	21175
2026-01-24 10:55:25.41	126.88	5.09	-27.9	-41.8	3.9	8.34e-01	0	55	104	0	26	18867
2026-01-24 10:55:26.42	126.82	5.15	-26.4	-39.9	3.8	8.33e-01	0	56	104	0	23	17942
2026-01-24 10:55:27.43	126.77	5.22	-22.0	-34.8	3.7	8.34e-01	0	55	104	0	18	13326
2026-01-24 10:55:28.44	126.71	5.29	-29.2	-43.3	3.9	8.36e-01	0	56	104	0	32	15902
2026-01-24 10:55:29.45	126.66	5.36	-27.0	-40.4	3.8	8.37e-01	0	55	104	0	26	16001
2026-01-24 10:55:30.46	126.60	5.43	-28.8	-43.5	4.2	8.34e-01	0	56	104	0	27	21752
2026-01-24 10:55:31.47	126.55	5.50	-30.1	-43.6	4.5	8.35e-01	0	56	104	0	19	34671
2026-01-24 10:55:32.48	126.49	5.57	-28.9	-43.3	4.2	8.36e-01	0	56	104	0	28	19917
2026-01-24 10:55:33.49	126.43	5.63	-29.4	-44.1	4.1	8.33e-01	0	56	104	0	30	19590
2026-01-24 10:55:34.50	126.38	5.70	-36.0	-50.1	4.3	8.35e-01	0	56	104	0	35	29073
2026-01-24 10:55:35.51	126.32	5.77	-32.8	-49.2	4.2	8.39e-01	0	56	104	0	37	23486
2026-01-24 10:55:36.52	126.26	5.84	-29.9	-43.0	4.0	8.33e-01	0	56	104	0	28	19191
2026-01-24 10:55:37.53	126.21	5.91	-37.2	-50.0	4.2	8.30e-01	0	56	104	0	39	22828
2026-01-24 10:55:38.54	126.15	5.98	-33.4	-47.6	4.2	8.38e-01	0	56	0	0	38	18314
2026-01-24 10:55:39.56	126.09	6.05	-31.3	-49.3	4.0	8.40e-01	0	56	104	0	36	25032
2026-01-24 10:55:40.57	126.03	6.12	-36.0	-50.7	4.2	8.40e-01	0	56	104	0	42	20878
2026-01-24 10:55:41.58	125.97	6.19	-34.9	-49.6	4.2	8.37e-01	0	56	104	0	39	21916
2026-01-24 10:55:42.59	125.91	6.27	-35.6	-50.4	3.6	8.39e-01	0	56	104	0	38	25371
2026-01-24 10:55:43.60	125.85	6.34	-32.9	-48.1	4.3	8.40e-01	0	56	104	0	40	17306
2026-01-24 10:55:44.61	125.79	6.41	-29.7	-44.5	4.3	8.39e-01	0	56	104	0	31	19198
2026-01-24 10:55:45.62	125.73	6.48	-35.7	-49.3	4.1	8.40e-01	0	56	104	0	38	22422
2026-01-24 10:55:46.63	125.67	6.55	-26.8	-40.0	3.7	8.41e-01	0	56	104	0	37	8149
2026-01-24 10:55:47.64	125.61	6.62	-33.3	-48.9	4.1	8.41e-01	0	56	104	0	39	20208
2026-01-24 10:55:48.65	125.55	6.69	-23.3	-35.4	3.7	8.35e-01	0	56	104	0	35	5391
2026-01-24 10:55:49.66	125.49	6.76	-27.3	-43.7	4.1	8.36e-01	0	57	104	0	28	20948
2026-01-24 10:55:50.67	125.43	6.84	-31.5	-46.2	3.7	8.43e-01	0	57	104	0	21	41833
2026-01-24 10:55:51.68	125.37	6.91	-34.3	-49.5	4.1	8.36e-01	0	57	104	0	30	36183
2026-01-24 10:55:52.69	125.30	6.98	-32.0	-47.0	4.4	8.40e-01	0	56	104	0	38	17156
2026-01-24 10:55:53.70	125.24	7.05	-34.2	-49.8	4.1	8.37e-01	0	57	104	0	39	22498
2026-01-24 10:55:54.71	125.18	7.13	-32.2	-47.6	4.0	8.40e-01	0	57	104	0	32	25878
2026-01-24 10:55:55.72	125.12	7.20	-36.1	-50.5	3.9	8.32e-01	0	57	104	0	42	20400
2026-01-24 10:55:56.73	125.05	7.27	-22.1	-37.5	4.4	8.32e-01	0	57	104	0	28	10217
2026-01-24 10:55:57.74	124.99	7.34	-33.3	-47.5	4.0	8.39e-01	0	57	104	0	36	20536
2026-01-24 10:55:58.75	124.92	7.42	-31.8	-47.3	4.1	8.35e-01	0	57	104	0	34	22291
2026-01-24 10:55:59.76	124.86	7.49	-24.3	-37.2	4.2	8.41e-01	0	57	0	0	25	11709
2026-01-24 10:56:00.77	124.80	7.57	-29.0	-41.0	4.4	8.41e-01	0	57	104	0	34	10815
2026-01-24 10:56:01.78	124.73	7.64	-32.3	-44.3	4.3	8.39e-01	0	57	104	0	33	16828
2026-01-24 10:56:02.79	124.66	7.71	-28.4	-41.2	4.1	8.38e-01	0	57	104	0	35	10477
2026-01-24 10:56:03.80	124.60	7.79	-33.1	-44.4	4.3	8.37e-01	0	57	104	0	35	15207
2026-01-24 10:56:04.81	124.53	7.86	-33.9	-44.6	4.6	8.29e-01	0	57	104	0	39	12240
2026-01-24 10:56:05.82	124.47	7.94	-34.3	-43.4	4.7	8.33e-01	0	57	104	0	38	11290
2026-01-24 10:56:06.83	124.40	8.01	-32.1	-42.3	6.3	6.33e-01	0	57	0	0	38	9951
2026-01-24 10:56:07.84	124.33	8.09	-35.4	-47.9	4.3	6.67e-01	0	57	0	1048576	41	16120
2026-01-24 10:56:08.85	124.26	8.16	-34.3	-48.5	4.0	8.41e-01	0	57	104	1048576	39	19217
2026-01-24 10:56:09.86	124.20	8.24	-26.8	-37.1	6.3	8.03e-01	0	57	104	1048576	41	4601
2026-01-24 10:56:10.87	124.13	8.31	-30.2	-44.3	4.6	7.89e-01	0	57	0	1048576	34	15825
2026-01-24 10:56:11.88	124.06	8.39	-36.3	-47.4	4.5	7.98e-01	0	57	0	1048576	36	20245
2026-01-24 10:56:12.89	123.99	8.46	-36.5	-48.0	4.0	8.44e-01	0	57	104	1048576	39	18163
2026-01-24 10:56:13.90	123.92	8.54	-34.5	-47.2	4.0	8.43e-01	0	58	104	1048576	39	16527
2026-01-24 10:56:14.91	123.85	8.62	-37.8	-49.2	3.8	8.43e-01	0	57	104	1048576	44	15584
2026-01-24 10:56:15.92	123.78	8.69	-36.7	-50.1	4.0	8.43e-01	0	58	104	1048576	43	18306
2026-01-24 10:56:16.93	123.71	8.77	-31.2	-45.5	5.1	8.42e-01	0	58	104	1048576	44	10190
2026-01-24 10:56:17.94	123.64	8.85	-34.3	-47.0	4.3	7.61e-01	0	58	0	1048576	39	16213
2026-01-24 10:56:18.95	123.57	8.92	-37.7	-48.0	4.9	7.88e-01	0	58	104	1048576	50	9609
2026-01-24 10:56:19.96	123.50	9.00	-36.9	-50.3	4.4	8.44e-01	0	58	104	1048576	46	15783
2026-01-24 10:56:20.97	123.42	9.08	-29.6	-42.8	4.8	8.35e-01	0	58	104	1048576	32	15026
2026-01-24 10:56:21.98	123.35	9.16	-35.6	-45.1	4.9	7.09e-01	0	58	0	1048576	43	10330
2026-01-24 10:56:22.98	123.28	9.23	-33.7	-43.9	6.1	5.32e-01	0	58	0	4194304	40	10744
2026-01-24 10:56:23.99	123.21	9.31	-34.5	-43.2	6.6	4.81e-01	0	57	0	7340032	41	9325
2026-01-24 10:56:25.00	123.13	9.39	-27.1	-40.3	5.0	6.68e-01	0	58	0	10485760	32	11181
2026-01-24 10:56:26.01	123.06	9.47	-34.1	-42.8	7.3	4.67e-01	0	58	0	13631488	43	7902
2026-01-24 10:56:27.02	122.98	9.55	-36.6	-42.0	8.9	2.90e-01	0	58	0	17825792	44	6820
2026-01-24 10:56:28.03	122.91	9.62	-33.2	-41.7	9.3	2.30e-01	0	58	0	22020096	42	7441
2026-01-24 10:56:29.04	122.83	9.70	-35.3	-41.4	8.6	2.09e-01	0	58	0	26214400	36	10146
2026-01-24 10:56:30.05	122.76	9.78	-35.1	-41.8	8.7	2.77e-01	0	58	0	30408704	42	7458
2026-01-24 10:56:31.06	122.68	9.86	-36.4	-42.3	9.5	3.76e-01	0	58	0	33554432	45	6691
2026-01-24 10:56:32.07	122.60	9.94	-37.1	-42.9	8.9	3.53e-01	0	58	0	37748736	46	6800
2026-01-24 10:56:33.08	122.53	10.02	-29.7	-41.0	5.7	5.32e-01	0	58	0	40894464	26	17168
2026-01-24 10:56:34.09	122.45	10.10	-31.9	-42.1	5.9	4.36e-01	0	58	0	44040192	43	7358
2026-01-24 10:56:35.10	122.37	10.18	-34.6	-42.8	7.7	3.57e-01	0	58	0	47185920	39	9945
2026-01-24 10:56:36.11	122.29	10.26	-37.1	-43.3	7.7	3.38e-01	0	58	0	51380224	46	7067
2026-01-24 10:56:37.12	122.21	10.34	-33.3	-41.7	5.0	1.74e-01	0	58	104	54525952	28	16525
2026-01-24 10:56:38.12	122.13	10.42	-32.8	-41.5	6.6	2.66e-01	0	58	0	55574528	39	8606
2026-01-24 10:56:39.14	122.05	10.51	-36.4	-42.1	8.6	1.95e-01	0	58	0	60817408	40	8673
2026-01-24 10:56:40.14	121.97	10.59	-26.3	-37.9	4.8	2.55e-01	0	58	0	65011712	29	10083
2026-01-24 10:56:41.15	121.89	10.67	-36.1	-41.3	5.1	1.56e-01	0	58	0	69206016	34	11201
2026-01-24 10:56:42.16	121.81	10.75	-35.5	-41.9	8.5	2.33e-01	0	58	0	73400320	42	7624
2026-01-24 10:56:43.17	121.73	10.83	-33.8	-41.7	8.3	2.55e-01	0	58	0	77594624	37	9896
2026-01-24 10:56:44.18	121.65	10.91	-36.8	-41.8	10.2	5.29e-01	0	58	0	81788928	45	6332
2026-01-24 10:56:45.19	121.57	11.00	-36.1	-41.5	9.4	2.64e-01	0	59	0	85983232	41	7660
2026-01-24 10:56:46.20	121.48	11.08	-37.4	-41.7	9.1	2.29e-01	0	58	0	91226112	42	7445
2026-01-24 10:56:47.21	121.40	11.16	-33.1	-41.3	8.2	1.71e-01	0	58	0	95420416	43	6662
2026-01-24 10:56:48.22	121.32	11.25	-37.2	-42.2	10.3	1.43e-01	0	59	0	100663296	44	6991
2026-01-24 10:56:49.23	121.23	11.33	-37.3	-42.5	9.7	4.00e-01	0	58	0	104857600	46	6437
2026-01-24 10:56:50.24	121.15	11.41	-36.3	-41.8	9.7	1.42e-01	0	58	0	110100480	43	7053
2026-01-24 10:56:51.25	121.06	11.50	-34.2	-41.4	9.3	1.35e-01	0	59	0	115343360	43	6782
2026-01-24 10:56:52.26	120.97	11.58	-37.6	-41.7	10.5	1.55e-01	0	59	0	119537664	45	6251
2026-01-24 10:56:53.27	120.89	11.66	-37.2	-41.7	10.3	3.73e-01	0	58	0	124780544	46	5898
2026-01-24 10:56:54.28	120.80	11.75	-37.5	-41.5	11.4	1.28e-01	0	59	0	130023424	46	5773
2026-01-24 10:56:55.29	120.71	11.83	-35.4	-41.0	10.6	7.50e-02	0	59	0	135266304	44	6125
2026-01-24 10:56:56.30	120.62	11.92	-35.1	-40.7	11.6	1.49e-01	0	59	0	140509184	45	5568
2026-01-24 10:56:57.31	120.54	12.00	-37.7	-41.0	12.1	3.46e-01	0	58	0	144703488	46	5451
2026-01-24 10:56:58.32	120.45	12.09	-34.0	-40.8	11.5	9.68e-02	0	59	0	149946368	45	5599
2026-01-24 10:56:59.33	120.36	12.17	-34.9	-40.6	7.3	2.02e-01	0	59	0	155189248	38	8246
2026-01-24 10:57:00.34	120.27	12.26	-38.0	-41.3	11.6	7.74e-02	0	59	0	160432128	45	5968
2026-01-24 10:57:01.35	120.18	12.35	-35.8	-41.0	10.5	4.13e-01	0	59	0	164626432	41	7244
2026-01-24 10:57:02.36	120.08	12.43	-37.2	-41.2	11.0	1.62e-01	0	59	0	169869312	44	6235
2026-01-24 10:57:03.37	119.99	12.52	-34.7	-40.8	10.3	2.78e-01	0	59	0	175112192	43	6277
2026-01-24 10:57:04.38	119.90	12.61	-35.5	-40.8	9.1	2.25e-01	0	59	0	179306496	43	6313
2026-01-24 10:57:05.39	119.81	12.69	-37.1	-41.2	11.2	3.66e-01	0	59	0	184549376	45	5904
2026-01-24 10:57:06.40	119.71	12.78	-33.3	-40.5	10.1	1.52e-01	0	59	0	188743680	41	6859
2026-01-24 10:57:07.41	119.62	12.87	-36.5	-41.1	11.8	2.50e-01	0	59	0	193986560	44	6202
2026-01-24 10:57:08.42	119.52	12.95	-36.4	-41.1	11.4	7.05e-02	0	59	0	199229440	43	6504
2026-01-24 10:57:09.43	119.43	13.04	-36.1	-41.1	11.1	4.10e-01	0	59	0	204472320	44	6169
2026-01-24 10:57:10.44	119.33	13.13	-36.2	-40.9	11.1	8.26e-02	0	59	0	209715200	43	6355
2026-01-24 10:57:11.45	119.24	13.22	-35.0	-40.7	11.0	1.99e-01	0	59	0	214958080	43	6228
2026-01-24 10:57:12.46	119.14	13.31	-36.1	-40.8	10.7	9.30e-02	0	59	0	220200960	43	6297
2026-01-24 10:57:13.46	119.04	13.40	-34.8	-40.5	10.3	4.42e-01	0	59	0	224395264	43	6079
2026-01-24 10:57:14.47	118.95	13.48	-36.3	-40.8	12.1	4.65e-02	0	59	0	229638144	45	5630
2026-01-24 10:57:15.48	118.85	13.57	-34.7	-40.7	12.5	6.07e-02	0	59	0	235929600	45	5530
2026-01-24 10:57:16.50	118.75	13.66	-35.9	-40.6	11.7	5.16e-02	0	59	0	241172480	40	7349
2026-01-24 10:57:17.51	118.65	13.75	-37.4	-40.7	11.9	1.98e-01	0	59	0	246415360	45	5567
2026-01-24 10:57:18.52	118.55	13.84	-33.0	-40.3	8.2	1.05e-01	0	59	0	251658240	37	8373
2026-01-24 10:57:19.53	118.44	13.93	-34.6	-40.5	10.7	7.76e-02	0	59	0	256901120	44	5783
2026-01-24 10:57:20.53	118.34	14.02	-36.2	-40.4	11.7	2.85e-02	0	59	0	263192576	42	6390
2026-01-24 10:57:21.54	118.24	14.12	-36.1	-40.3	12.4	9.01e-02	0	59	0	267386880	43	5982
2026-01-24 10:57:22.55	118.14	14.21	-35.0	-40.3	11.2	3.26e-02	0	59	0	273678336	44	5610
2026-01-24 10:57:23.57	118.03	14.30	-36.1	-40.3	12.5	8.82e-02	0	59	0	278921216	44	5650
2026-01-24 10:57:24.58	117.93	14.39	-37.7	-40.2	13.8	1.56e-02	0	59	0	284164096	46	4979
2026-01-24 10:57:25.59	117.82	14.48	-35.9	-40.0	13.2	4.53e-03	0	59	0	290455552	45	5151
2026-01-24 10:57:26.60	117.72	14.57	-37.6	-40.1	14.0	2.86e-02	0	59	0	295698432	46	4897
2026-01-24 10:57:27.61	117.61	14.67	-37.8	-40.2	13.6	9.79e-03	0	59	0	300941312	46	4962
2026-01-24 10:57:28.61	117.50	14.76	-37.7	-40.1	14.1	1.86e-03	0	59	0	307232768	46	4894
2026-01-24 10:57:29.62	117.40	14.85	-37.9	-40.2	14.1	6.61e-04	0	59	0	312475648	46	4964
2026-01-24 10:57:30.63	117.29	14.94	-37.7	-39.9	14.4	8.24e-04	0	60	0	318767104	46	4797
2026-01-24 10:57:31.64	117.18	15.04	-37.6	-39.9	14.5	1.84e-03	0	60	0	324009984	46	4767
2026-01-24 10:57:32.65	117.07	15.13	-37.4	-39.8	14.4	7.48e-04	0	59	0	330301440	46	4747
2026-01-24 10:57:33.66	116.96	15.22	-37.6	-40.0	14.3	4.86e-03	0	59	0	335544320	46	4822
2026-01-24 10:57:34.68	116.84	15.32	-37.1	-40.0	14.0	4.59e-03	0	59	0	340787200	46	4840
2026-01-24 10:57:35.69	116.73	15.41	-37.6	-39.9	14.0	1.58e-03	0	59	0	347078656	45	5063
2026-01-24 10:57:36.70	116.62	15.51	-37.6	-40.0	14.1	1.74e-03	0	59	0	352321536	46	4819
2026-01-24 10:57:37.71	116.51	15.60	-37.5	-39.9	14.3	3.26e-03	0	60	0	358612992	46	4768
2026-01-24 10:57:38.72	116.39	15.70	-37.4	-39.9	14.3	7.28e-03	0	60	0	363855872	46	4774
2026-01-24 10:57:39.73	116.28	15.79	-37.3	-39.9	13.7	1.33e-03	0	59	0	370147328	45	5044
2026-01-24 10:57:40.74	116.16	15.89	-35.9	-39.7	12.0	4.22e-03	0	60	0	375390208	43	5530
2026-01-24 10:57:41.75	116.04	15.99	-34.4	-39.6	11.5	1.27e-02	0	59	0	380633088	40	6546
2026-01-24 10:57:42.76	115.93	16.08	-36.1	-39.7	12.4	4.78e-03	0	60	0	386924544	42	5892
2026-01-24 10:57:43.77	115.81	16.18	-37.7	-39.8	14.6	1.52e-03	0	59	0	392167424	45	5030
2026-01-24 10:57:44.78	115.69	16.27	-37.1	-39.8	14.4	7.43e-04	0	60	0	398458880	45	5008
2026-01-24 10:57:45.79	115.57	16.37	-37.7	-39.8	14.8	3.78e-04	0	59	0	403701760	46	4744
2026-01-24 10:57:46.80	115.45	16.47	-37.8	-39.9	14.8	1.80e-04	0	60	0	408944640	46	4761
2026-01-24 10:57:47.81	115.33	16.57	-37.4	-39.7	14.9	2.15e-04	0	59	0	415236096	45	4945
2026-01-24 10:57:48.82	115.21	16.66	-37.5	-39.5	15.0	6.75e-05	0	60	0	420478976	45	4867
2026-01-24 10:57:49.83	115.08	16.76	-37.5	-39.5	15.1	5.72e-05	0	60	0	426770432	45	4825
2026-01-24 10:57:50.83	114.96	16.86	-37.5	-39.5	15.1	1.37e-05	0	60	0	432013312	45	4830
2026-01-24 10:57:51.84	114.84	16.96	-37.6	-39.6	14.9	2.51e-05	0	60	0	438304768	45	4922
2026-01-24 10:57:52.85	114.71	17.06	-37.4	-39.4	15.2	1.83e-05	0	60	0	443547648	45	4799
2026-01-24 10:57:53.86	114.58	17.15	-37.4	-39.3	15.3	5.70e-06	0	60	0	448790528	45	4732
2026-01-24 10:57:54.87	114.46	17.25	-37.4	-39.3	15.4	1.10e-06	0	60	0	455081984	45	4735
2026-01-24 10:57:55.89	114.33	17.35	-37.4	-39.3	15.4	2.20e-06	0	60	0	460324864	45	4739
2026-01-24 10:57:56.90	114.20	17.45	-37.4	-39.3	15.5	5.70e-06	0	60	0	466616320	45	4724
2026-01-24 10:57:57.91	114.07	17.55	-37.3	-39.2	15.4	1.10e-06	0	60	0	471859200	45	4694
2026-01-24 10:57:58.92	113.94	17.65	-37.3	-39.1	15.5	1.10e-06	0	60	0	477102080	45	4651
2026-01-24 10:57:59.93	113.81	17.75	-37.2	-39.1	15.6	0.00e+00	0	60	0	483393536	45	4633
2026-01-24 10:58:00.94	113.68	17.86	-37.2	-39.1	15.5	7.09e-05	0	60	0	488636416	45	4630
2026-01-24 10:58:01.95	113.54	17.96	-37.4	-39.2	15.5	0.00e+00	0	60	0	494927872	45	4680
2026-01-24 10:58:02.96	113.41	18.06	-37.1	-38.9	15.8	1.48e-05	0	60	0	500170752	45	4523
2026-01-24 10:58:03.96	113.27	18.16	-37.2	-39.0	15.8	1.10e-06	0	60	0	505413632	45	4546
2026-01-24 10:58:04.97	113.14	18.26	-37.1	-38.9	15.9	1.10e-06	0	60	0	511705088	45	4516
2026-01-24 10:58:05.99	113.00	18.36	-37.1	-39.0	15.8	1.10e-06	0	60	0	516947968	45	4548
2026-01-24 10:58:07.00	112.86	18.47	-37.1	-38.9	15.9	1.10e-06	0	60	0	523239424	45	4494
2026-01-24 10:58:08.00	112.73	18.57	-37.1	-38.9	15.8	0.00e+00	0	60	0	528482304	45	4530
2026-01-24 10:58:09.01	112.59	18.67	-37.1	-39.0	15.4	0.00e+00	0	60	0	534773760	45	4585
2026-01-24 10:58:10.02	112.45	18.77	-37.1	-38.9	15.8	0.00e+00	0	60	0	540016640	45	4544
2026-01-24 10:58:11.03	112.30	18.88	-37.1	-38.9	15.9	0.00e+00	0	60	0	546308096	45	4517
2026-01-24 10:58:12.04	112.16	18.98	-37.1	-38.9	15.8	0.00e+00	0	60	0	551550976	45	4543
2026-01-24 10:58:13.05	112.02	19.08	-37.1	-38.9	15.8	0.00e+00	0	60	0	556793856	45	4543
2026-01-24 10:58:14.06	111.87	19.19	-37.0	-38.8	16.0	1.10e-06	0	60	0	563085312	45	4461
2026-01-24 10:58:15.07	111.73	19.29	-37.0	-38.8	16.0	5.70e-06	0	60	0	568328192	45	4476
2026-01-24 10:58:16.08	111.58	19.40	-37.1	-38.9	15.9	0.00e+00	0	60	0	573571072	45	4518
2026-01-24 10:58:17.09	111.43	19.50	-37.0	-38.7	16.0	0.00e+00	0	60	0	579862528	45	4435
2026-01-24 10:58:18.10	111.28	19.61	-37.0	-38.7	16.1	0.00e+00	0	60	0	585105408	45	4441
2026-01-24 10:58:19.11	111.13	19.71	-36.9	-38.7	16.2	0.00e+00	0	60	0	591396864	45	4393
2026-01-24 10:58:20.12	110.98	19.82	-36.8	-38.5	16.3	0.00e+00	0	60	0	596639744	45	4328
2026-01-24 10:58:21.13	110.83	19.92	-36.8	-38.5	16.3	0.00e+00	0	60	0	602931200	45	4326
2026-01-24 10:58:22.14	110.68	20.03	-36.8	-38.5	16.3	0.00e+00	0	60	0	608174080	45	4334
2026-01-24 10:58:23.15	110.53	20.13	-36.8	-38.6	16.2	0.00e+00	0	60	0	613416960	45	4356
2026-01-24 10:58:24.16	110.37	20.24	-36.9	-38.6	16.2	0.00e+00	0	60	0	619708416	45	4387
2026-01-24 10:58:25.17	110.21	20.35	-36.8	-38.6	16.2	0.00e+00	0	60	0	624951296	45	4352
2026-01-24 10:58:26.18	110.06	20.45	-36.8	-38.5	16.3	0.00e+00	0	60	0	631242752	45	4318
2026-01-24 10:58:27.19	109.90	20.56	-36.8	-38.5	16.3	0.00e+00	0	60	0	636485632	45	4317
2026-01-24 10:58:28.20	109.74	20.67	-36.7	-38.5	16.4	0.00e+00	0	60	0	642777088	45	4295
2026-01-24 10:58:29.21	109.58	20.78	-36.6	-38.3	16.5	0.00e+00	0	60	0	648019968	45	4240
2026-01-24 10:58:30.22	109.42	20.88	-36.6	-38.3	16.5	0.00e+00	0	60	0	653262848	45	4209
2026-01-24 10:58:31.23	109.25	20.99	-36.5	-38.2	16.6	0.00e+00	0	60	0	659554304	45	4174
2026-01-24 10:58:32.24	109.09	21.10	-36.5	-38.2	16.7	0.00e+00	0	60	0	664797184	45	4154
2026-01-24 10:58:33.24	108.93	21.21	-36.6	-38.3	16.6	0.00e+00	0	60	0	671088640	45	4194
2026-01-24 10:58:34.25	108.76	21.32	-36.4	-38.1	16.8	0.00e+00	0	60	0	676331520	44	4364
2026-01-24 10:58:35.26	108.59	21.42	-36.5	-38.1	16.8	0.00e+00	0	60	0	681574400	44	4373
2026-01-24 10:58:36.27	108.42	21.53	-36.5	-38.2	16.7	0.00e+00	0	60	0	687865856	44	4419
2026-01-24 10:58:37.28	108.25	21.64	-36.5	-38.1	16.7	0.00e+00	0	60	0	693108736	44	4377
2026-01-24 10:58:38.29	108.08	21.75	-36.6	-38.2	16.6	0.00e+00	0	60	0	699400192	44	4429
2026-01-24 10:58:39.30	107.91	21.86	-36.7	-38.4	16.5	0.00e+00	0	60	0	704643072	44	4514
2026-01-24 10:58:40.31	107.74	21.97	-36.7	-38.4	16.5	0.00e+00	0	60	0	709885952	44	4497
2026-01-24 10:58:41.32	107.56	22.08	-36.7	-38.4	16.4	0.00e+00	0	60	0	716177408	44	4543
2026-01-24 10:58:42.33	107.39	22.19	-36.7	-38.4	16.5	0.00e+00	0	60	0	721420288	44	4524
2026-01-24 10:58:43.34	107.21	22.30	-36.7	-38.4	16.4	0.00e+00	0	60	0	727711744	44	4522
2026-01-24 10:58:44.35	107.03	22.41	-36.5	-38.2	16.6	0.00e+00	0	60	0	732954624	44	4405
2026-01-24 10:58:45.36	106.85	22.52	-36.5	-38.1	16.7	0.00e+00	0	60	0	739246080	44	4388
2026-01-24 10:58:46.38	106.67	22.64	-36.5	-38.1	16.7	0.00e+00	0	60	0	744488960	44	4383
2026-01-24 10:58:47.39	106.48	22.75	-36.4	-38.1	16.7	0.00e+00	0	60	0	750780416	44	4362
2026-01-24 10:58:48.39	106.30	22.86	-36.4	-38.1	16.8	0.00e+00	0	60	0	756023296	44	4344
2026-01-24 10:58:49.40	106.12	22.97	-36.4	-38.0	16.8	0.00e+00	0	60	0	761266176	44	4339
2026-01-24 10:58:50.41	105.93	23.08	-36.4	-38.0	16.8	0.00e+00	0	60	0	767557632	44	4333
2026-01-24 10:58:51.42	105.74	23.19	-36.4	-38.0	16.8	0.00e+00	0	60	0	772800512	44	4338
2026-01-24 10:58:52.43	105.55	23.30	-36.4	-38.0	16.8	0.00e+00	0	60	0	779091968	44	4323
2026-01-24 10:58:53.44	105.36	23.42	-36.4	-38.1	16.8	0.00e+00	0	60	0	784334848	44	4355
2026-01-24 10:58:54.45	105.17	23.53	-36.5	-38.2	16.7	0.00e+00	0	60	0	789577728	44	4406
2026-01-24 10:58:55.46	104.98	23.64	-36.5	-38.2	16.7	0.00e+00	0	60	0	795869184	44	4406
2026-01-24 10:58:56.47	104.78	23.75	-36.5	-38.2	16.7	0.00e+00	0	60	0	801112064	44	4420
2026-01-24 10:58:57.48	104.59	23.86	-36.4	-38.1	16.8	0.00e+00	0	60	0	807403520	44	4361
2026-01-24 10:58:58.49	104.39	23.98	-36.4	-38.0	16.8	0.00e+00	0	60	0	812646400	44	4330
2026-01-24 10:58:59.50	104.19	24.09	-36.4	-38.1	16.8	0.00e+00	0	60	0	817889280	44	4349
2026-01-24 10:59:00.51	103.99	24.20	-36.4	-38.0	16.9	0.00e+00	0	60	0	824180736	44	4325
2026-01-24 10:59:01.52	103.79	24.32	-36.4	-38.0	16.9	0.00e+00	0	60	0	829423616	44	4318
2026-01-24 10:59:02.53	103.58	24.43	-36.3	-38.0	16.9	0.00e+00	0	60	0	835715072	44	4297
2026-01-24 10:59:03.54	103.38	24.54	-36.3	-38.0	16.9	0.00e+00	0	60	0	840957952	44	4297
2026-01-24 10:59:04.55	103.17	24.66	-36.2	-37.8	17.1	0.00e+00	0	60	0	847249408	44	4228
2026-01-24 10:59:05.56	102.96	24.77	-36.1	-37.7	17.2	0.00e+00	0	60	0	852492288	44	4170
2026-01-24 10:59:06.57	102.76	24.88	-36.2	-37.8	17.1	0.00e+00	0	60	0	857735168	44	4203
2026-01-24 10:59:07.58	102.54	25.00	-36.2	-37.8	17.1	0.00e+00	0	60	0	864026624	44	4225
2026-01-24 10:59:08.59	102.33	25.11	-36.1	-37.7	17.2	0.00e+00	0	60	0	869269504	44	4168
2026-01-24 10:59:09.60	102.12	25.22	-35.8	-37.4	17.3	0.00e+00	0	61	0	875560960	43	4256
2026-01-24 10:59:10.61	101.90	25.34	-35.8	-37.3	17.4	0.00e+00	0	61	0	880803840	43	4231
2026-01-24 10:59:11.62	101.68	25.45	-35.8	-37.3	17.4	0.00e+00	0	60	0	886046720	43	4238
2026-01-24 10:59:12.63	101.47	25.56	-35.8	-37.4	17.4	0.00e+00	0	61	0	892338176	43	4247
2026-01-24 10:59:13.64	101.25	25.68	-35.8	-37.3	17.4	0.00e+00	0	61	0	897581056	43	4232
2026-01-24 10:59:14.65	101.02	25.79	-35.8	-37.3	17.4	0.00e+00	0	61	0	903872512	43	4232
2026-01-24 10:59:15.66	100.80	25.90	-35.8	-37.3	17.5	0.00e+00	0	61	0	909115392	43	4232
2026-01-24 10:59:16.67	100.57	26.02	-35.7	-37.2	17.6	0.00e+00	0	61	0	914358272	43	4166
2026-01-24 10:59:17.68	100.35	26.13	-35.7	-37.2	17.6	0.00e+00	0	60	0	920649728	43	4183
2026-01-24 10:59:18.69	100.12	26.25	-35.6	-37.1	17.7	0.00e+00	0	61	0	925892608	43	4102
2026-01-24 10:59:19.69	99.89	26.36	-35.5	-37.0	17.7	0.00e+00	0	60	0	932184064	43	4094
2026-01-24 10:59:20.70	99.66	26.47	-35.6	-37.1	17.7	0.00e+00	0	61	0	937426944	43	4109
2026-01-24 10:59:21.71	99.43	26.59	-35.6	-37.1	17.7	0.00e+00	0	60	0	943718400	43	4106
2026-01-24 10:59:22.72	99.19	26.70	-35.6	-37.1	17.6	0.00e+00	0	61	0	948961280	43	4137
2026-01-24 10:59:23.73	98.95	26.81	-35.6	-37.1	17.6	0.00e+00	0	60	0	955252736	43	4143
2026-01-24 10:59:24.74	98.72	26.93	-35.5	-37.0	17.8	0.00e+00	0	61	0	960495616	43	4082
2026-01-24 10:59:25.75	98.48	27.04	-35.5	-37.0	17.8	0.00e+00	0	61	0	965738496	43	4086
2026-01-24 10:59:26.76	98.23	27.15	-35.4	-36.9	17.9	0.00e+00	0	61	0	972029952	42	4279
2026-01-24 10:59:27.77	97.99	27.27	-35.4	-36.9	17.9	0.00e+00	0	61	0	977272832	42	4264
2026-01-24 10:59:28.78	97.74	27.38	-35.5	-37.0	17.8	0.00e+00	0	61	0	983564288	42	4301
2026-01-24 10:59:29.79	97.50	27.49	-35.4	-36.9	17.9	0.00e+00	0	61	0	988807168	42	4273
2026-01-24 10:59:30.80	97.25	27.60	-35.4	-36.9	17.9	0.00e+00	0	61	0	994050048	42	4280
2026-01-24 10:59:31.81	97.00	27.72	-35.5	-36.9	17.9	0.00e+00	0	61	0	1000341504	42	4284
2026-01-24 10:59:32.82	96.75	27.83	-35.4	-36.9	17.9	0.00e+00	0	61	0	1005584384	42	4281
2026-01-24 10:59:33.83	96.49	27.94	-35.5	-37.0	17.8	0.00e+00	0	61	0	1011875840	42	4301
2026-01-24 10:59:34.84	96.24	28.05	-35.5	-37.0	17.8	0.00e+00	0	61	0	1017118720	42	4329
2026-01-24 10:59:35.84	95.98	28.16	-35.5	-37.0	17.8	0.00e+00	0	61	0	1022361600	42	4334
2026-01-24 10:59:36.85	95.72	28.28	-35.5	-37.0	17.8	0.00e+00	0	61	0	1028653056	42	4336
2026-01-24 10:59:37.86	95.46	28.39	-35.7	-37.2	17.6	0.00e+00	0	61	0	1033895936	42	4405
2026-01-24 10:59:38.87	95.20	28.50	-35.6	-37.1	17.7	0.00e+00	0	61	0	1040187392	42	4387
2026-01-24 10:59:39.89	94.93	28.61	-35.6	-37.1	17.7	0.00e+00	0	61	0	1045430272	42	4359
2026-01-24 10:59:40.89	94.66	28.72	-35.6	-37.1	17.7	0.00e+00	0	61	0	1051721728	42	4386
2026-01-24 10:59:41.90	94.39	28.83	-35.5	-37.0	17.8	0.00e+00	0	61	0	1056964608	42	4316
2026-01-24 10:59:42.91	94.12	28.94	-35.6	-37.1	17.8	0.00e+00	0	61	0	1062207488	42	4357
2026-01-24 10:59:43.92	93.85	29.05	-35.5	-37.0	17.8	0.00e+00	0	61	0	1068498944	42	4328
2026-01-24 10:59:44.93	93.58	29.16	-35.5	-37.0	17.9	0.00e+00	0	61	0	1073741824	42	4295
2026-01-24 10:59:45.94	93.30	29.27	-35.4	-36.9	17.9	0.00e+00	0	61	0	1080033280	42	4274
2026-01-24 10:59:46.95	93.02	29.38	-35.5	-37.0	17.8	0.00e+00	0	60	0	1085276160	42	4292
2026-01-24 10:59:47.96	92.74	29.49	-35.4	-36.9	17.9	0.00e+00	0	61	0	1090519040	42	4253
2026-01-24 10:59:48.97	92.46	29.60	-35.5	-37.0	17.9	0.00e+00	0	61	0	1096810496	42	4299
2026-01-24 10:59:49.98	92.18	29.71	-35.3	-36.8	18.0	0.00e+00	0	61	0	1102053376	42	4218
2026-01-24 10:59:50.99	91.89	29.81	-35.3	-36.8	18.1	0.00e+00	0	61	0	1108344832	42	4194
2026-01-24 10:59:52.00	91.60	29.92	-35.2	-36.7	18.2	0.00e+00	0	61	0	1113587712	42	4148
2026-01-24 10:59:53.01	91.31	30.03	-35.3	-36.8	18.1	0.00e+00	0	61	0	1118830592	42	4197
2026-01-24 10:59:54.02	91.02	30.13	-35.3	-36.7	18.2	0.00e+00	0	61	0	1125122048	42	4160
2026-01-24 10:59:55.03	90.73	30.24	-35.2	-36.6	18.3	0.00e+00	0	61	0	1130364928	42	4119
2026-01-24 10:59:56.04	90.43	30.34	-35.2	-36.7	18.3	0.00e+00	0	61	0	1136656384	42	4155
2026-01-24 10:59:57.04	90.14	30.45	-35.2	-36.6	18.3	0.00e+00	0	61	0	1141899264	42	4122
2026-01-24 10:59:58.05	89.84	30.55	-35.1	-36.6	18.3	0.00e+00	0	61	0	1148190720	42	4099
2026-01-24 10:59:59.06	89.54	30.66	-35.0	-36.4	18.4	0.00e+00	0	61	0	1153433600	42	4046
2026-01-24 11:00:00.07	89.23	30.76	-35.1	-36.5	18.3	0.00e+00	0	61	0	1158676480	42	4091
2026-01-24 11:00:01.09	88.92	30.86	-35.2	-36.7	18.2	0.00e+00	0	61	0	1164967936	42	4155
2026-01-24 11:00:02.09	88.62	30.97	-35.3	-36.7	18.1	0.00e+00	0	61	0	1170210816	42	4193
2026-01-24 11:00:03.10	88.31	31.07	-35.1	-36.6	18.3	0.00e+00	0	61	0	1176502272	42	4099
2026-01-24 11:00:04.11	88.00	31.17	-35.1	-36.5	18.3	0.00e+00	0	61	0	1181745152	42	4097
2026-01-24 11:00:05.12	87.69	31.27	-35.1	-36.5	18.4	0.00e+00	0	61	0	1186988032	42	4068
2026-01-24 11:00:06.13	87.37	31.37	-34.9	-36.3	18.6	0.00e+00	0	61	0	1193279488	41	4201
2026-01-24 11:00:07.14	87.06	31.47	-34.9	-36.3	18.5	0.00e+00	0	61	0	1198522368	41	4217
2026-01-24 11:00:08.15	86.74	31.57	-35.0	-36.4	18.4	0.00e+00	0	61	0	1204813824	41	4268
2026-01-24 11:00:09.16	86.42	31.66	-35.0	-36.4	18.4	0.00e+00	0	61	0	1210056704	41	4283
2026-01-24 11:00:10.17	86.09	31.76	-35.0	-36.4	18.4	0.00e+00	0	61	0	1215299584	41	4287
2026-01-24 11:00:11.18	85.77	31.86	-35.0	-36.4	18.4	0.00e+00	0	61	0	1221591040	41	4290
2026-01-24 11:00:12.19	85.44	31.95	-35.0	-36.5	18.4	0.00e+00	0	61	0	1226833920	41	4299
2026-01-24 11:00:13.20	85.11	32.05	-35.0	-36.5	18.4	0.00e+00	0	61	0	1233125376	41	4298
2026-01-24 11:00:14.20	84.79	32.14	-35.0	-36.4	18.4	0.00e+00	0	61	0	1238368256	41	4281
2026-01-24 11:00:15.21	84.45	32.24	-34.9	-36.3	18.6	0.00e+00	0	61	0	1244659712	41	4216
2026-01-24 11:00:16.22	84.12	32.33	-34.9	-36.3	18.5	0.00e+00	0	61	0	1249902592	41	4236
2026-01-24 11:00:17.23	83.78	32.42	-35.0	-36.4	18.5	0.00e+00	0	61	0	1256194048	41	4252
2026-01-24 11:00:18.24	83.44	32.51	-34.9	-36.3	18.5	0.00e+00	0	61	0	1261436928	41	4230
2026-01-24 11:00:19.25	83.10	32.60	-34.8	-36.2	18.6	0.00e+00	0	61	0	1266679808	41	4174
2026-01-24 11:00:20.26	82.76	32.69	-34.8	-36.2	18.6	0.00e+00	0	61	0	1272971264	41	4177
2026-01-24 11:00:21.28	82.42	32.78	-34.9	-36.3	18.6	0.00e+00	0	61	0	1278214144	41	4216
2026-01-24 11:00:22.28	82.07	32.87	-35.0	-36.4	18.5	0.00e+00	0	61	0	1284505600	41	4249
2026-01-24 11:00:23.29	81.73	32.95	-34.9	-36.3	18.6	0.00e+00	0	61	0	1289748480	41	4209
2026-01-24 11:00:24.31	81.37	33.04	-34.9	-36.3	18.5	0.00e+00	0	61	0	1294991360	41	4234
2026-01-24 11:00:25.32	81.02	33.12	-35.1	-36.5	18.4	0.00e+00	0	61	0	1301282816	41	4315
2026-01-24 11:00:26.32	80.67	33.21	-35.1	-36.5	18.4	0.00e+00	0	61	0	1306525696	41	4329
2026-01-24 11:00:27.34	80.31	33.29	-35.0	-36.5	18.4	0.00e+00	0	61	0	1312817152	41	4300
2026-01-24 11:00:28.35	79.96	33.37	-35.0	-36.4	18.4	0.00e+00	0	61	0	1318060032	41	4273
2026-01-24 11:00:29.36	79.60	33.45	-35.0	-36.4	18.4	0.00e+00	0	61	0	1323302912	41	4285
2026-01-24 11:00:30.36	79.24	33.53	-35.0	-36.4	18.4	0.00e+00	0	61	0	1329594368	41	4281
2026-01-24 11:00:31.37	78.88	33.61	-35.1	-36.5	18.3	0.00e+00	0	61	0	1334837248	41	4335
2026-01-24 11:00:32.38	78.52	33.69	-35.2	-36.6	18.2	0.00e+00	0	61	0	1341128704	41	4390
2026-01-24 11:00:33.39	78.15	33.76	-35.2	-36.6	18.2	0.00e+00	0	61	0	1346371584	41	4382
2026-01-24 11:00:34.40	77.78	33.84	-35.1	-36.5	18.3	0.00e+00	0	61	0	1352663040	41	4334
2026-01-24 11:00:35.41	77.42	33.91	-35.1	-36.5	18.3	0.00e+00	0	61	0	1357905920	41	4307
2026-01-24 11:00:36.42	77.04	33.98	-35.1	-36.5	18.3	0.00e+00	0	61	0	1363148800	41	4330
2026-01-24 11:00:37.43	76.67	34.05	-35.0	-36.4	18.4	0.00e+00	0	61	0	1369440256	41	4286
2026-01-24 11:00:38.44	76.30	34.12	-35.0	-36.4	18.5	0.00e+00	0	61	0	1374683136	41	4253
2026-01-24 11:00:39.45	75.92	34.19	-34.9	-36.3	18.6	0.00e+00	0	61	0	1380974592	41	4225
2026-01-24 11:00:40.45	75.55	34.26	-35.0	-36.4	18.5	0.00e+00	0	61	0	1386217472	41	4264
2026-01-24 11:00:41.46	75.17	34.33	-35.0	-36.4	18.4	0.00e+00	0	61	0	1391460352	41	4283
2026-01-24 11:00:42.48	74.79	34.39	-35.0	-36.5	18.4	0.00e+00	0	61	0	1397751808	41	4294
2026-01-24 11:00:43.49	74.41	34.46	-35.2	-36.7	18.2	0.00e+00	0	61	0	1402994688	41	4416
2026-01-24 11:00:44.49	74.03	34.52	-35.3	-36.7	18.1	0.00e+00	0	61	0	1409286144	41	4437
2026-01-24 11:00:45.50	73.64	34.58	-35.1	-36.6	18.3	0.00e+00	0	61	0	1414529024	41	4368
2026-01-24 11:00:46.51	73.26	34.64	-35.0	-36.5	18.4	0.00e+00	0	61	0	1419771904	41	4295
2026-01-24 11:00:47.52	72.87	34.70	-35.0	-36.4	18.4	0.00e+00	0	61	0	1426063360	41	4282
2026-01-24 11:00:48.53	72.48	34.75	-35.0	-36.4	18.4	0.00e+00	0	61	0	1431306240	41	4288
2026-01-24 11:00:49.54	72.09	34.81	-35.1	-36.6	18.3	0.00e+00	0	61	0	1437597696	41	4345
2026-01-24 11:00:50.55	71.70	34.86	-35.3	-36.8	18.1	0.00e+00	0	61	0	1442840576	41	4451
2026-01-24 11:00:51.56	71.31	34.92	-35.3	-36.8	18.1	0.00e+00	0	61	0	1449132032	41	4462
2026-01-24 11:00:52.57	70.91	34.97	-35.3	-36.7	18.2	0.00e+00	0	61	0	1454374912	41	4431
2026-01-24 11:00:53.58	70.52	35.02	-35.2	-36.7	18.2	0.00e+00	0	61	0	1460666368	41	4406
2026-01-24 11:00:54.59	70.12	35.07	-35.2	-36.6	18.3	0.00e+00	0	61	0	1465909248	41	4380
2026-01-24 11:00:55.60	69.73	35.11	-35.2	-36.6	18.3	0.00e+00	0	61	0	1471152128	41	4367
2026-01-24 11:00:56.61	69.33	35.16	-34.9	-36.2	18.6	0.00e+00	0	61	0	1477443584	41	4182
2026-01-24 11:00:57.62	68.93	35.20	-34.9	-36.2	18.6	0.00e+00	0	61	0	1482686464	41	4187
2026-01-24 11:00:58.62	68.53	35.24	-35.0	-36.4	18.5	0.00e+00	0	61	0	1487929344	41	4265
2026-01-24 11:00:59.63	68.13	35.29	-35.1	-36.6	18.3	0.00e+00	0	61	0	1494220800	41	4359
2026-01-24 11:01:00.64	67.73	35.32	-35.2	-36.6	18.3	0.00e+00	0	61	0	1499463680	41	4374
2026-01-24 11:01:01.65	67.32	35.36	-35.1	-36.5	18.4	0.00e+00	0	61	0	1505755136	41	4314
2026-01-24 11:01:02.66	66.92	35.40	-35.0	-36.4	18.5	0.00e+00	0	61	0	1510998016	41	4254
2026-01-24 11:01:03.67	66.51	35.43	-34.9	-36.3	18.6	0.00e+00	0	61	0	1516240896	41	4228
2026-01-24 11:01:04.68	66.11	35.47	-34.8	-36.2	18.7	0.00e+00	0	61	0	1522532352	41	4150
2026-01-24 11:01:05.69	65.70	35.50	-34.8	-36.2	18.7	0.00e+00	0	61	0	1527775232	41	4170
2026-01-24 11:01:06.70	65.29	35.53	-34.9	-36.3	18.6	0.00e+00	0	61	0	1534066688	41	4202
2026-01-24 11:01:07.71	64.89	35.56	-34.8	-36.2	18.7	0.00e+00	0	61	0	1539309568	41	4169
2026-01-24 11:01:08.72	64.48	35.58	-34.9	-36.2	18.6	0.00e+00	0	61	0	1545601024	41	4189
2026-01-24 11:01:09.73	64.07	35.61	-34.9	-36.3	18.6	0.00e+00	0	61	0	1550843904	41	4211
2026-01-24 11:01:10.74	63.66	35.63	-35.1	-36.5	18.3	0.00e+00	0	61	0	1557135360	41	4340
2026-01-24 11:01:11.75	63.25	35.65	-35.1	-36.6	18.3	0.00e+00	0	61	0	1562378240	41	4343
2026-01-24 11:01:12.76	62.83	35.67	-35.0	-36.4	18.5	0.00e+00	0	61	0	1567621120	41	4277
2026-01-24 11:01:13.77	62.42	35.69	-34.9	-36.3	18.6	0.00e+00	0	61	0	1573912576	41	4213
2026-01-24 11:01:14.78	62.01	35.71	-35.0	-36.4	18.5	0.00e+00	0	61	0	1579155456	41	4256
2026-01-24 11:01:15.78	61.60	35.72	-34.8	-36.2	18.7	0.00e+00	0	61	0	1585446912	41	4176
2026-01-24 11:01:16.79	61.19	35.73	-34.9	-36.3	18.6	0.00e+00	0	61	0	1590689792	41	4219
2026-01-24 11:01:17.80	60.78	35.74	-35.2	-36.6	18.3	0.00e+00	0	61	0	1595932672	41	4363
2026-01-24 11:01:18.81	60.36	35.75	-35.2	-36.6	18.3	0.00e+00	0	61	0	1602224128	41	4371
2026-01-24 11:01:19.82	59.95	35.76	-35.2	-36.6	18.3	0.00e+00	0	61	0	1607467008	41	4375
2026-01-24 11:01:20.83	59.53	35.77	-35.2	-36.6	18.3	0.00e+00	0	61	0	1613758464	41	4373
2026-01-24 11:01:21.84	59.12	35.77	-35.1	-36.5	18.4	0.00e+00	0	61	0	1619001344	41	4318
2026-01-24 11:01:22.85	58.71	35.78	-35.0	-36.4	18.5	0.00e+00	0	61	0	1624244224	41	4262
2026-01-24 11:01:23.86	58.29	35.78	-34.9	-36.3	18.6	0.00e+00	0	61	0	1630535680	41	4211
2026-01-24 11:01:24.87	57.88	35.78	-34.8	-36.2	18.6	0.00e+00	0	61	0	1635778560	41	4179
2026-01-24 11:01:25.88	57.46	35.78	-34.9	-36.3	18.6	0.00e+00	0	61	0	1642070016	41	4197
2026-01-24 11:01:26.89	57.05	35.77	-35.0	-36.4	18.5	0.00e+00	0	61	0	1647312896	41	4248
2026-01-24 11:01:27.90	56.64	35.77	-35.0	-36.4	18.5	0.00e+00	0	61	0	1653604352	41	4254
2026-01-24 11:01:28.91	56.22	35.76	-34.8	-36.2	18.7	0.00e+00	0	61	0	1658847232	41	4189
2026-01-24 11:01:29.92	55.81	35.75	-34.8	-36.1	18.8	0.00e+00	0	61	0	1664090112	41	4137
2026-01-24 11:01:30.93	55.39	35.74	-34.8	-36.2	18.7	0.00e+00	0	61	0	1670381568	41	4153
2026-01-24 11:01:31.94	54.98	35.73	-34.9	-36.3	18.6	0.00e+00	0	61	0	1675624448	41	4201
2026-01-24 11:01:32.95	54.57	35.71	-35.0	-36.5	18.5	0.00e+00	0	61	0	1681915904	41	4295
2026-01-24 11:01:33.96	54.16	35.70	-35.1	-36.5	18.4	0.00e+00	0	61	0	1687158784	41	4340
2026-01-24 11:01:34.97	53.74	35.68	-35.2	-36.6	18.3	0.00e+00	0	61	0	1692401664	41	4375
2026-01-24 11:01:35.98	53.33	35.66	-35.1	-36.6	18.3	0.00e+00	0	61	0	1698693120	41	4357
2026-01-24 11:01:36.99	52.92	35.64	-35.3	-36.7	18.2	0.00e+00	0	61	0	1703936000	41	4426
2026-01-24 11:01:38.00	52.51	35.62	-35.3	-36.7	18.2	0.00e+00	0	61	0	1710227456	41	4434
2026-01-24 11:01:39.01	52.10	35.59	-35.1	-36.6	18.3	0.00e+00	0	61	0	1715470336	41	4357
2026-01-24 11:01:40.02	51.69	35.57	-35.0	-36.4	18.5	0.00e+00	0	61	0	1720713216	41	4286
2026-01-24 11:01:41.03	51.29	35.54	-35.0	-36.4	18.5	0.00e+00	0	61	0	1727004672	41	4287
2026-01-24 11:01:42.04	50.88	35.51	-35.0	-36.4	18.5	0.00e+00	0	61	0	1732247552	41	4273
2026-01-24 11:01:43.05	50.47	35.48	-34.9	-36.3	18.6	0.00e+00	0	61	0	1738539008	41	4240
2026-01-24 11:01:44.06	50.06	35.45	-34.8	-36.2	18.7	0.00e+00	0	61	0	1743781888	41	4151
2026-01-24 11:01:45.07	49.66	35.41	-34.7	-36.1	18.8	0.00e+00	0	61	0	1750073344	41	4121
2026-01-24 11:01:46.08	49.25	35.38	-34.8	-36.2	18.7	0.00e+00	0	61	0	1755316224	41	4178
2026-01-24 11:01:47.09	48.85	35.34	-34.8	-36.2	18.7	0.00e+00	0	61	0	1761607680	41	4185
2026-01-24 11:01:48.10	48.45	35.30	-34.9	-36.3	18.6	0.00e+00	0	61	0	1766850560	41	4207
2026-01-24 11:01:49.11	48.05	35.26	-35.0	-36.4	18.5	0.00e+00	0	61	0	1772093440	41	4265
2026-01-24 11:01:50.12	47.65	35.22	-35.0	-36.5	18.5	0.00e+00	0	61	0	1778384896	41	4297
2026-01-24 11:01:51.13	47.25	35.18	-35.2	-36.7	18.3	0.00e+00	0	61	0	1783627776	41	4394
2026-01-24 11:01:52.14	46.85	35.13	-35.1	-36.6	18.3	0.00e+00	0	61	0	1789919232	41	4345
2026-01-24 11:01:53.15	46.45	35.09	-35.0	-36.4	18.5	0.00e+00	0	61	0	1795162112	41	4259
2026-01-24 11:01:54.16	46.06	35.04	-34.9	-36.3	18.6	0.00e+00	0	61	0	1800404992	41	4228
2026-01-24 11:01:55.17	45.66	34.99	-35.0	-36.4	18.6	0.00e+00	0	61	0	1806696448	41	4245
2026-01-24 11:01:56.18	45.27	34.94	-34.8	-36.1	18.8	0.00e+00	0	61	0	1811939328	41	4144
2026-01-24 11:01:57.19	44.87	34.89	-34.8	-36.2	18.7	0.00e+00	0	61	0	1818230784	41	4171
2026-01-24 11:01:58.20	44.48	34.83	-34.9	-36.3	18.6	0.00e+00	0	61	0	1823473664	41	4241
2026-01-24 11:01:59.21	44.09	34.78	-35.0	-36.4	18.5	0.00e+00	0	61	0	1828716544	41	4287
2026-01-24 11:02:00.22	43.70	34.72	-35.0	-36.4	18.5	0.00e+00	0	61	0	1835008000	41	4261
2026-01-24 11:02:01.23	43.32	34.67	-34.8	-36.2	18.7	0.00e+00	0	61	0	1840250880	41	4183
2026-01-24 11:02:02.24	42.93	34.61	-34.9	-36.3	18.6	0.00e+00	0	61	0	1846542336	41	4198
2026-01-24 11:02:03.25	42.55	34.55	-35.0	-36.4	18.5	0.00e+00	0	61	0	1851785216	41	4256
2026-01-24 11:02:04.25	42.17	34.48	-35.0	-36.4	18.5	0.00e+00	0	61	0	1858076672	41	4272
2026-01-24 11:02:05.26	41.79	34.42	-35.0	-36.4	18.5	0.00e+00	0	61	0	1863319552	41	4290
2026-01-24 11:02:06.27	41.41	34.36	-35.0	-36.4	18.5	0.00e+00	0	61	0	1868562432	41	4255
2026-01-24 11:02:07.28	41.03	34.29	-35.0	-36.5	18.5	0.00e+00	0	61	0	1874853888	41	4292
2026-01-24 11:02:08.29	40.65	34.22	-35.0	-36.4	18.6	0.00e+00	0	61	0	1880096768	41	4251
2026-01-24 11:02:09.31	40.27	34.16	-35.0	-36.4	18.5	0.00e+00	0	61	0	1886388224	41	4289
2026-01-24 11:02:10.32	39.90	34.09	-35.0	-36.5	18.5	0.00e+00	0	61	0	1891631104	41	4293
2026-01-24 11:02:11.33	39.53	34.02	-35.2	-36.6	18.3	0.00e+00	0	61	0	1896873984	41	4371
2026-01-24 11:02:12.33	39.16	33.94	-35.2	-36.6	18.3	0.00e+00	0	61	0	1903165440	41	4383
2026-01-24 11:02:13.34	38.79	33.87	-35.1	-36.6	18.3	0.00e+00	0	61	0	1908408320	41	4359
2026-01-24 11:02:14.35	38.43	33.80	-35.1	-36.5	18.4	0.00e+00	0	61	0	1914699776	41	4336
2026-01-24 11:02:15.36	38.06	33.72	-35.2	-36.6	18.7	0.00e+00	0	61	0	1919942656	41	4342
2026-01-24 11:02:16.37	37.70	33.65	-35.2	-36.5	18.7	0.00e+00	0	61	0	1925185536	41	4306
2026-01-24 11:02:17.38	37.34	33.57	-35.1	-36.4	18.9	0.00e+00	0	62	0	1931476992	41	4267
2026-01-24 11:02:18.39	36.98	33.49	-35.2	-36.5	18.8	0.00e+00	0	61	0	1936719872	41	4297
2026-01-24 11:02:19.40	36.62	33.41	-35.1	-36.3	18.9	0.00e+00	0	62	0	1943011328	41	4237
2026-01-24 11:02:20.41	36.26	33.33	-35.2	-36.4	18.9	0.00e+00	0	61	0	1948254208	41	4276
2026-01-24 11:02:21.42	35.91	33.25	-35.4	-36.7	18.7	0.00e+00	0	61	0	1954545664	41	4397
2026-01-24 11:02:22.42	35.56	33.16	-35.2	-36.5	18.8	0.00e+00	0	61	0	1959788544	41	4326
2026-01-24 11:02:23.43	35.21	33.08	-35.0	-36.2	19.0	0.00e+00	0	61	0	1966080000	41	4192
2026-01-24 11:02:24.44	34.86	33.00	-35.0	-36.2	19.1	0.00e+00	0	61	0	1971322880	41	4184
2026-01-24 11:02:25.45	34.51	32.91	-35.0	-36.3	19.0	0.00e+00	0	61	0	1976565760	41	4216
2026-01-24 11:02:26.46	34.16	32.82	-35.2	-36.5	18.8	0.00e+00	0	61	0	1982857216	41	4293
2026-01-24 11:02:27.47	33.82	32.74	-35.2	-36.5	18.8	0.00e+00	0	61	0	1988100096	41	4292
2026-01-24 11:02:28.48	33.48	32.65	-35.1	-36.4	18.9	0.00e+00	0	61	0	1994391552	41	4257
2026-01-24 11:02:29.49	33.14	32.56	-35.2	-36.5	18.8	0.00e+00	0	61	0	1999634432	41	4315
2026-01-24 11:02:30.50	32.80	32.47	-35.2	-36.4	18.8	0.00e+00	0	61	0	2004877312	41	4291
2026-01-24 11:02:31.51	32.46	32.38	-35.3	-36.6	18.6	0.00e+00	0	62	0	2011168768	41	4352
2026-01-24 11:02:32.52	32.13	32.28	-35.3	-36.6	18.6	0.00e+00	0	61	0	2016411648	41	4364
2026-01-24 11:02:33.53	31.80	32.19	-35.3	-36.6	18.6	0.00e+00	0	61	0	2022703104	41	4371
2026-01-24 11:02:34.54	31.47	32.10	-35.3	-36.6	18.6	0.00e+00	0	61	0	2027945984	41	4365
2026-01-24 11:02:35.55	31.14	32.00	-35.4	-36.7	18.5	0.00e+00	0	61	0	2033188864	41	4422
2026-01-24 11:02:36.56	30.81	31.91	-35.4	-36.7	18.5	0.00e+00	0	61	0	2039480320	41	4427
2026-01-24 11:02:37.57	30.49	31.81	-35.3	-36.6	18.6	0.00e+00	0	61	0	2044723200	41	4390
2026-01-24 11:02:38.58	30.16	31.72	-35.2	-36.5	18.7	0.00e+00	0	61	0	2051014656	41	4324
2026-01-24 11:02:39.59	29.84	31.62	-35.2	-36.5	18.7	0.00e+00	0	61	0	2056257536	41	4322
2026-01-24 11:02:40.60	29.52	31.52	-35.2	-36.5	18.7	0.00e+00	0	61	0	2062548992	41	4312
2026-01-24 11:02:41.61	29.21	31.42	-35.2	-36.5	18.7	0.00e+00	0	61	0	2067791872	41	4308
2026-01-24 11:02:42.62	28.89	31.32	-35.3	-36.5	18.7	0.00e+00	0	61	0	2073034752	41	4333
2026-01-24 11:02:43.63	28.58	31.22	-35.3	-36.6	18.7	0.00e+00	0	61	0	2079326208	41	4342
2026-01-24 11:02:44.64	28.27	31.12	-35.3	-36.5	18.7	0.00e+00	0	61	0	2084569088	41	4334
2026-01-24 11:02:45.65	27.96	31.02	-35.3	-36.6	18.6	0.00e+00	0	61	0	2090860544	41	4370
2026-01-24 11:02:46.66	27.65	30.92	-35.4	-36.7	18.5	0.00e+00	0	61	0	2096103424	41	4401
2026-01-24 11:02:47.67	27.35	30.82	-35.3	-36.5	18.7	0.00e+00	0	61	0	2101346304	41	4332
2026-01-24 11:02:48.68	27.05	30.71	-35.2	-36.5	18.7	0.00e+00	0	61	0	2107637760	41	4316
2026-01-24 11:02:49.69	26.74	30.61	-35.3	-36.6	18.6	0.00e+00	0	61	0	2112880640	41	4351
2026-01-24 11:02:50.70	26.44	30.51	-35.3	-36.6	18.6	0.00e+00	0	61	0	2119172096	41	4386
2026-01-24 11:02:51.71	26.15	30.40	-35.4	-36.7	18.5	0.00e+00	0	62	0	2124414976	41	4411
2026-01-24 11:02:52.72	25.85	30.30	-35.3	-36.6	18.6	0.00e+00	0	61	0	2129657856	41	4367
2026-01-24 11:02:53.73	25.56	30.19	-35.2	-36.5	18.7	0.00e+00	0	61	0	2135949312	41	4320
2026-01-24 11:02:54.74	25.27	30.09	-35.3	-36.6	18.6	0.00e+00	0	61	0	2141192192	41	4354
2026-01-24 11:02:55.75	24.98	29.98	-35.3	-36.6	18.6	0.00e+00	0	61	0	2147483648	41	4344
2026-01-24 11:02:56.76	24.69	29.87	-35.5	-36.8	18.4	0.00e+00	0	61	0	2152726528	41	4454
2026-01-24 11:02:57.77	24.40	29.77	-35.4	-36.8	18.4	0.00e+00	0	61	0	2159017984	41	4457
2026-01-24 11:02:58.78	24.12	29.66	-35.5	-36.8	18.4	0.00e+00	0	61	0	2164260864	41	4454
2026-01-24 11:02:59.79	23.84	29.55	-35.5	-36.9	18.3	0.00e+00	0	61	0	2170552320	41	4505
2026-01-24 11:03:00.80	23.56	29.44	-35.4	-36.7	18.5	0.00e+00	0	61	0	2175795200	41	4437
2026-01-24 11:03:01.81	23.28	29.34	-35.4	-36.7	18.5	0.00e+00	0	61	0	2181038080	41	4407
2026-01-24 11:03:02.82	23.00	29.23	-35.4	-36.7	18.4	0.00e+00	0	61	0	2187329536	41	4437
2026-01-24 11:03:03.83	22.73	29.12	-35.4	-36.7	18.5	0.00e+00	0	61	0	2192572416	41	4421
2026-01-24 11:03:04.84	22.46	29.01	-35.4	-36.8	18.4	0.00e+00	0	61	0	2198863872	41	4446
2026-01-24 11:03:05.85	22.19	28.90	-35.3	-36.6	18.5	0.00e+00	0	61	0	2204106752	41	4387
2026-01-24 11:03:06.86	21.92	28.79	-35.4	-36.8	18.5	0.00e+00	0	61	0	2209349632	41	4442
2026-01-24 11:03:07.87	21.65	28.68	-35.6	-36.9	18.2	0.00e+00	0	61	0	2215641088	41	4536
2026-01-24 11:03:08.88	21.39	28.57	-35.6	-36.9	18.3	0.00e+00	0	61	0	2220883968	41	4523
2026-01-24 11:03:09.89	21.12	28.46	-35.6	-36.9	18.2	0.00e+00	0	62	0	2227175424	41	4535
2026-01-24 11:03:10.90	20.86	28.35	-35.6	-37.0	18.2	0.00e+00	0	61	0	2232418304	41	4557
2026-01-24 11:03:11.91	20.60	28.23	-35.5	-36.8	18.3	0.00e+00	0	61	0	2237661184	41	4481
2026-01-24 11:03:12.92	20.35	28.12	-35.4	-36.8	18.4	0.00e+00	0	61	0	2243952640	41	4443
2026-01-24 11:03:13.93	20.09	28.01	-35.5	-36.8	18.3	0.00e+00	0	62	0	2249195520	41	4493
2026-01-24 11:03:14.94	19.84	27.90	-35.6	-36.9	18.2	0.00e+00	0	61	0	2255486976	41	4523
2026-01-24 11:03:15.95	19.58	27.79	-35.6	-37.0	18.2	0.00e+00	0	61	0	2260729856	41	4574
2026-01-24 11:03:16.96	19.33	27.68	-35.7	-37.0	18.1	0.00e+00	0	61	0	2267021312	41	4585
2026-01-24 11:03:17.97	19.08	27.56	-35.6	-37.0	18.2	0.00e+00	0	61	0	2272264192	41	4555
2026-01-24 11:03:18.98	18.84	27.45	-35.7	-37.1	18.1	0.00e+00	0	62	0	2278555648	42	4346
2026-01-24 11:03:19.99	18.59	27.34	-35.7	-37.0	18.1	0.00e+00	0	61	0	2283798528	42	4327
2026-01-24 11:03:21.00	18.35	27.23	-35.7	-37.1	18.1	0.00e+00	0	61	0	2289041408	42	4345
2026-01-24 11:03:22.01	18.11	27.11	-35.8	-37.2	17.9	0.00e+00	0	61	0	2295332864	42	4400
2026-01-24 11:03:23.02	17.87	27.00	-35.9	-37.3	17.9	0.00e+00	0	61	0	2300575744	42	4448
2026-01-24 11:03:24.03	17.63	26.89	-35.8	-37.2	17.9	0.00e+00	0	61	0	2306867200	42	4419
2026-01-24 11:03:25.04	17.39	26.77	-35.9	-37.3	17.8	0.00e+00	0	61	0	2312110080	42	4452
2026-01-24 11:03:26.05	17.16	26.66	-35.9	-37.3	17.9	0.00e+00	0	61	0	2317352960	42	4452
2026-01-24 11:03:27.05	16.93	26.55	-36.0	-37.4	17.8	0.00e+00	0	61	0	2323644416	42	4509
2026-01-24 11:03:28.06	16.70	26.44	-36.0	-37.4	17.7	0.00e+00	0	62	0	2328887296	42	4531
2026-01-24 11:03:29.07	16.47	26.32	-36.0	-37.3	17.8	0.00e+00	0	61	0	2334130176	42	4492
2026-01-24 11:03:30.08	16.24	26.21	-35.9	-37.3	17.9	0.00e+00	0	61	0	2340421632	42	4447
2026-01-24 11:03:31.09	16.01	26.10	-35.9	-37.3	17.9	0.00e+00	0	61	0	2345664512	42	4446
2026-01-24 11:03:32.10	15.79	25.98	-35.9	-37.3	17.9	0.00e+00	0	61	0	2351955968	42	4457
2026-01-24 11:03:33.11	15.56	25.87	-36.0	-37.4	17.7	0.00e+00	0	62	0	2357198848	42	4523
2026-01-24 11:03:34.12	15.34	25.76	-36.1	-37.5	17.6	0.00e+00	0	61	0	2363490304	42	4584
2026-01-24 11:03:35.13	15.12	25.64	-36.1	-37.6	17.5	0.00e+00	0	61	0	2368733184	42	4616
2026-01-24 11:03:36.15	14.90	25.53	-36.1	-37.6	17.5	0.00e+00	0	61	0	2375024640	42	4600
2026-01-24 11:03:37.16	14.68	25.42	-36.1	-37.5	17.6	0.00e+00	0	61	0	2380267520	42	4598
2026-01-24 11:03:38.17	14.47	25.30	-36.1	-37.5	17.5	0.00e+00	0	61	0	2385510400	42	4598
2026-01-24 11:03:39.18	14.26	25.19	-36.1	-37.5	17.6	0.00e+00	0	61	0	2391801856	42	4559
2026-01-24 11:03:40.19	14.04	25.08	-36.1	-37.5	17.6	0.00e+00	0	61	0	2397044736	42	4591
2026-01-24 11:03:41.20	13.83	24.96	-36.1	-37.5	17.6	0.00e+00	0	61	0	2403336192	42	4582
2026-01-24 11:03:42.20	13.63	24.85	-36.2	-37.6	17.5	0.00e+00	0	62	0	2408579072	42	4614
2026-01-24 11:03:43.21	13.42	24.74	-36.1	-37.5	17.6	0.00e+00	0	62	0	2413821952	42	4584
2026-01-24 11:03:44.22	13.21	24.63	-36.2	-37.6	17.5	0.00e+00	0	61	0	2420113408	42	4613
2026-01-24 11:03:45.23	13.01	24.51	-36.2	-37.6	17.5	0.00e+00	0	62	0	2425356288	42	4615
2026-01-24 11:03:46.24	12.80	24.40	-36.3	-37.7	17.4	0.00e+00	0	61	0	2431647744	43	4416
2026-01-24 11:03:47.25	12.60	24.29	-36.4	-37.8	17.2	0.00e+00	0	61	0	2436890624	43	4486
2026-01-24 11:03:48.26	12.40	24.18	-36.4	-37.9	17.2	0.00e+00	0	61	0	2442133504	43	4494
2026-01-24 11:03:49.27	12.20	24.06	-36.4	-37.9	17.2	0.00e+00	0	61	0	2448424960	43	4507
2026-01-24 11:03:50.28	12.01	23.95	-36.4	-37.9	17.1	0.00e+00	0	61	0	2453667840	43	4534
2026-01-24 11:03:51.29	11.81	23.84	-36.4	-37.9	17.2	0.00e+00	0	61	0	2459959296	43	4521
2026-01-24 11:03:52.30	11.62	23.73	-36.4	-37.9	17.2	0.00e+00	0	61	0	2465202176	43	4528
2026-01-24 11:03:53.31	11.42	23.62	-36.3	-37.8	17.3	0.00e+00	0	61	0	2471493632	43	4451
2026-01-24 11:03:54.32	11.23	23.50	-36.2	-37.7	17.3	0.00e+00	0	61	0	2476736512	43	4403
2026-01-24 11:03:55.33	11.04	23.39	-36.2	-37.6	17.4	0.00e+00	0	61	0	2481979392	43	4370
2026-01-24 11:03:56.34	10.85	23.28	-36.2	-37.6	17.4	0.00e+00	0	62	0	2488270848	43	4364
2026-01-24 11:03:57.35	10.67	23.17	-36.2	-37.6	17.4	0.00e+00	0	61	0	2493513728	43	4377
2026-01-24 11:03:58.36	10.48	23.06	-36.2	-37.6	17.4	0.00e+00	0	61	0	2499805184	43	4369
2026-01-24 11:03:59.37	10.29	22.95	-36.1	-37.5	17.5	0.00e+00	0	61	0	2505048064	43	4325
2026-01-24 11:04:00.37	10.11	22.84	-36.1	-37.5	17.5	0.00e+00	0	61	0	2510290944	43	4332
2026-01-24 11:04:01.38	9.93	22.73	-36.1	-37.5	17.5	0.00e+00	0	61	0	2516582400	43	4321
2026-01-24 11:04:02.39	9.75	22.62	-36.1	-37.6	17.5	0.00e+00	0	61	0	2521825280	43	4341
2026-01-24 11:04:03.40	9.57	22.51	-36.1	-37.5	17.5	0.00e+00	0	62	0	2528116736	43	4319
2026-01-24 11:04:04.41	9.39	22.40	-36.0	-37.4	17.5	0.00e+00	0	62	0	2533359616	43	4286
2026-01-24 11:04:05.42	9.22	22.29	-36.1	-37.5	17.5	0.00e+00	0	62	0	2538602496	43	4315
2026-01-24 11:04:06.43	9.04	22.18	-36.1	-37.5	17.4	0.00e+00	0	61	0	2544893952	43	4331
2026-01-24 11:04:07.44	8.87	22.07	-36.1	-37.5	17.5	0.00e+00	0	61	0	2550136832	43	4300
2026-01-24 11:04:08.45	8.69	21.96	-36.1	-37.5	17.4	0.00e+00	0	61	0	2556428288	43	4317
2026-01-24 11:04:09.46	8.52	21.85	-36.2	-37.7	17.3	0.00e+00	0	61	0	2561671168	43	4404
2026-01-24 11:04:10.47	8.35	21.74	-36.3	-37.8	17.2	0.00e+00	0	61	0	2566914048	43	4447
2026-01-24 11:04:11.48	8.18	21.63	-36.3	-37.8	17.1	0.00e+00	0	61	0	2573205504	43	4477
2026-01-24 11:04:12.49	8.01	21.52	-36.4	-37.9	17.0	0.00e+00	0	61	0	2578448384	43	4544
2026-01-24 11:04:13.50	7.84	21.41	-36.4	-37.9	17.0	0.00e+00	0	62	0	2584739840	43	4508
2026-01-24 11:04:14.51	7.68	21.30	-36.5	-38.0	17.0	0.00e+00	0	62	0	2589982720	43	4550
2026-01-24 11:04:15.52	7.51	21.20	-36.5	-38.0	16.9	0.00e+00	0	61	0	2596274176	43	4575
2026-01-24 11:04:16.53	7.35	21.09	-36.5	-38.1	16.9	0.00e+00	0	61	0	2601517056	43	4606
2026-01-24 11:04:17.54	7.19	20.98	-36.5	-38.0	16.9	0.00e+00	0	61	0	2607808512	43	4568
2026-01-24 11:04:18.55	7.03	20.87	-36.5	-38.0	16.9	0.00e+00	0	62	0	2613051392	43	4557
2026-01-24 11:04:19.56	6.87	20.77	-36.4	-37.9	16.9	0.00e+00	0	62	0	2618294272	43	4532
2026-01-24 11:04:20.57	6.71	20.66	-36.4	-37.9	17.0	0.00e+00	0	62	0	2624585728	43	4505
2026-01-24 11:04:21.58	6.55	20.55	-36.4	-37.9	17.0	0.00e+00	0	61	0	2629828608	43	4503
2026-01-24 11:04:22.59	6.39	20.45	-36.5	-38.0	16.8	0.00e+00	0	61	0	2636120064	43	4569
2026-01-24 11:04:23.59	6.24	20.34	-36.4	-37.9	16.9	0.00e+00	0	61	0	2641362944	43	4530
2026-01-24 11:04:24.60	6.08	20.24	-36.4	-37.9	17.0	0.00e+00	0	61	0	2646605824	43	4494
2026-01-24 11:04:25.61	5.93	20.13	-36.5	-38.0	16.8	0.00e+00	0	61	0	2652897280	43	4572
2026-01-24 11:04:26.62	5.78	20.02	-36.5	-38.0	16.8	0.00e+00	0	61	0	2658140160	43	4597
2026-01-24 11:04:27.63	5.63	19.92	-36.6	-38.2	16.6	0.00e+00	0	61	0	2664431616	43	4674
2026-01-24 11:04:28.64	5.48	19.81	-36.6	-38.2	16.6	0.00e+00	0	61	0	2669674496	43	4675
2026-01-24 11:04:29.65	5.33	19.71	-36.6	-38.2	16.6	0.00e+00	0	61	0	2674917376	43	4663
2026-01-24 11:04:30.66	5.18	19.60	-36.7	-38.3	16.5	0.00e+00	0	61	0	2681208832	43	4727
2026-01-24 11:04:31.67	5.03	19.50	-36.6	-38.1	16.7	0.00e+00	0	61	0	2686451712	43	4640
2026-01-24 11:04:32.68	4.89	19.40	-36.6	-38.1	16.6	0.00e+00	0	62	0	2692743168	43	4645
2026-01-24 11:04:33.69	4.74	19.29	-36.6	-38.2	16.6	0.00e+00	0	61	0	2697986048	43	4656
2026-01-24 11:04:34.70	4.60	19.19	-36.6	-38.1	16.6	0.00e+00	0	62	0	2704277504	43	4621
2026-01-24 11:04:35.71	4.45	19.08	-36.7	-38.2	16.5	0.00e+00	0	61	0	2709520384	43	4700
2026-01-24 11:04:36.72	4.31	18.98	-36.8	-38.4	16.5	0.00e+00	0	61	0	2714763264	44	4521
2026-01-24 11:04:37.73	4.17	18.88	-36.9	-38.5	16.4	0.00e+00	0	62	0	2721054720	44	4549
2026-01-24 11:04:38.74	4.03	18.78	-36.9	-38.6	16.3	0.00e+00	0	61	0	2726297600	44	4599
2026-01-24 11:04:39.75	3.89	18.67	-36.9	-38.6	16.3	0.00e+00	0	62	0	2732589056	44	4603
2026-01-24 11:04:40.76	3.75	18.57	-37.0	-38.6	16.2	0.00e+00	0	62	0	2737831936	44	4617
2026-01-24 11:04:41.76	3.62	18.47	-37.0	-38.6	16.2	0.00e+00	0	61	0	2743074816	44	4623
2026-01-24 11:04:42.77	3.48	18.37	-37.0	-38.7	16.1	0.00e+00	0	61	0	2749366272	44	4660
2026-01-24 11:04:43.78	3.35	18.27	-37.0	-38.7	16.1	0.00e+00	0	61	0	2754609152	44	4670
2026-01-24 11:04:44.79	3.21	18.17	-37.1	-38.7	16.1	0.00e+00	0	61	0	2760900608	44	4692
2026-01-24 11:04:45.80	3.08	18.06	-37.1	-38.7	16.0	0.00e+00	0	61	0	2766143488	44	4699
2026-01-24 11:04:46.81	2.95	17.96	-37.1	-38.7	16.0	0.00e+00	0	61	0	2771386368	44	4690
2026-01-24 11:04:47.82	2.81	17.86	-37.0	-38.7	16.0	0.00e+00	0	62	0	2777677824	44	4682
2026-01-24 11:04:48.83	2.68	17.76	-37.1	-38.7	15.9	0.00e+00	0	61	0	2782920704	44	4699
2026-01-24 11:04:49.84	2.55	17.66	-37.1	-38.8	15.9	0.00e+00	0	62	0	2789212160	44	4709
2026-01-24 11:04:50.85	2.42	17.56	-37.2	-38.9	15.7	0.00e+00	0	62	0	2794455040	44	4786
2026-01-24 11:04:51.85	2.30	17.47	-37.2	-38.9	15.7	0.00e+00	0	61	0	2800746496	45	4509
2026-01-24 11:04:52.86	2.17	17.37	-37.2	-38.9	15.6	0.00e+00	0	62	0	2805989376	45	4545
2026-01-24 11:04:53.88	2.04	17.27	-37.3	-39.0	15.6	0.00e+00	0	62	0	2811232256	45	4571
2026-01-24 11:04:54.89	1.92	17.17	-37.3	-39.0	15.5	0.00e+00	0	62	0	2817523712	45	4583
2026-01-24 11:04:55.90	1.79	17.07	-37.3	-39.1	15.4	0.00e+00	0	61	0	2822766592	45	4606
2026-01-24 11:04:56.91	1.67	16.97	-37.3	-39.0	15.4	0.00e+00	0	62	0	2829058048	45	4591
2026-01-24 11:04:57.91	1.55	16.87	-37.3	-39.1	15.3	0.00e+00	0	61	0	2834300928	45	4617
2026-01-24 11:04:58.93	1.42	16.78	-37.3	-39.0	15.4	0.00e+00	0	62	0	2839543808	45	4591
2026-01-24 11:04:59.93	1.30	16.68	-37.3	-39.1	15.4	0.00e+00	0	62	0	2845835264	45	4600
2026-01-24 11:05:00.94	1.18	16.58	-37.3	-39.0	15.3	0.00e+00	0	62	0	2851078144	45	4597
2026-01-24 11:05:01.95	1.06	16.48	-37.3	-39.1	15.3	0.00e+00	0	61	0	2857369600	45	4609
2026-01-24 11:05:02.96	0.94	16.39	-37.3	-39.1	15.2	0.00e+00	0	62	0	2862612480	45	4637
2026-01-24 11:05:03.97	0.82	16.29	-37.3	-39.1	15.1	0.00e+00	0	62	0	2867855360	45	4635
2026-01-24 11:05:04.98	0.71	16.20	-37.3	-39.1	15.2	0.00e+00	0	62	0	2874146816	45	4602
2026-01-24 11:05:05.99	0.59	16.10	-37.3	-39.1	15.1	0.00e+00	0	61	0	2879389696	45	4651
2026-01-24 11:05:07.00	0.47	16.00	-37.3	-39.2	15.0	0.00e+00	0	62	0	2885681152	45	4661
2026-01-24 11:05:08.01	0.36	15.91	-37.4	-39.2	14.9	0.00e+00	0	61	0	2890924032	45	4685
2026-01-24 11:05:09.02	0.24	15.81	-37.6	-39.5	14.6	1.10e-06	0	61	0	2897215488	45	4828
2026-01-24 11:05:10.02	0.13	15.72	-37.5	-39.4	14.7	0.00e+00	0	62	0	2902458368	45	4778
2026-01-24 11:05:11.03	0.02	15.62	-37.6	-39.5	14.6	0.00e+00	0	62	0	2908749824	45	4848
2026-01-24 11:05:12.04	359.91	15.53	-37.6	-39.6	14.4	0.00e+00	0	62	0	2913992704	45	4893
2026-01-24 11:05:13.06	359.79	15.44	-37.7	-39.7	14.2	2.20e-06	0	61	0	2919235584	45	4968
2026-01-24 11:05:14.06	359.68	15.34	-37.5	-39.5	14.4	0.00e+00	0	62	0	2925527040	45	4830
2026-01-24 11:05:15.08	359.57	15.25	-37.5	-39.5	14.4	1.10e-06	0	61	0	2930769920	45	4828
2026-01-24 11:05:16.09	359.46	15.15	-37.7	-39.7	14.1	0.00e+00	0	62	0	2937061376	45	4963
2026-01-24 11:05:17.10	359.35	15.06	-37.8	-39.8	13.9	1.14e-05	0	61	0	2942304256	46	4745
2026-01-24 11:05:18.11	359.25	14.97	-37.5	-39.6	14.1	3.40e-06	0	61	0	2947547136	46	4601
2026-01-24 11:05:19.12	359.14	14.88	-37.4	-39.4	14.1	2.20e-06	0	61	0	2953838592	46	4511
2026-01-24 11:05:20.13	359.03	14.78	-37.6	-39.7	13.8	9.10e-06	0	62	0	2959081472	46	4657
2026-01-24 11:05:21.14	358.93	14.69	-37.7	-39.9	13.4	1.02e-05	0	62	0	2965372928	46	4790
2026-01-24 11:05:22.15	358.82	14.60	-37.7	-39.9	13.5	2.51e-05	0	62	0	2970615808	46	4777
2026-01-24 11:05:23.16	358.72	14.51	-37.6	-39.7	13.6	1.48e-05	0	62	0	2975858688	46	4693
2026-01-24 11:05:24.17	358.61	14.42	-37.6	-39.8	13.4	1.02e-05	0	62	0	2982150144	46	4728
2026-01-24 11:05:25.18	358.51	14.33	-37.7	-39.9	13.3	3.20e-05	0	62	0	2987393024	46	4781
2026-01-24 11:05:26.19	358.41	14.24	-37.7	-40.0	13.2	3.77e-05	0	61	0	2993684480	46	4819
2026-01-24 11:05:27.20	358.31	14.14	-37.5	-39.7	13.5	2.97e-05	0	62	0	2998927360	46	4663
2026-01-24 11:05:28.21	358.20	14.05	-37.5	-39.6	13.6	1.25e-05	0	62	0	3005218816	46	4631
2026-01-24 11:05:29.22	358.10	13.96	-37.4	-39.5	13.6	1.37e-05	0	61	0	3010461696	46	4585
2026-01-24 11:05:30.23	358.00	13.87	-37.7	-39.9	13.0	4.92e-05	0	61	0	3016753152	46	4812
2026-01-24 11:05:31.24	357.90	13.78	-37.7	-40.0	12.8	8.92e-05	0	61	0	3021996032	46	4870
2026-01-24 11:05:32.25	357.80	13.69	-37.5	-39.9	12.9	1.03e-04	0	62	0	3027238912	46	4761
2026-01-24 11:05:33.26	357.71	13.61	-37.2	-39.4	13.2	3.54e-05	0	61	0	3033530368	46	4540
2026-01-24 11:05:34.27	357.61	13.52	-37.0	-39.3	13.2	3.31e-05	0	61	0	3038773248	46	4448
2026-01-24 11:05:35.28	357.51	13.43	-36.9	-39.1	13.3	3.89e-05	0	61	0	3044016128	45	4625
2026-01-24 11:05:36.29	357.42	13.34	-36.8	-39.0	13.4	2.05e-05	0	62	0	3050307584	45	4597
2026-01-24 11:05:37.30	357.32	13.25	-37.0	-39.4	12.9	4.69e-05	0	61	0	3055550464	45	4766
2026-01-24 11:05:38.30	357.23	13.16	-37.2	-39.6	12.6	1.36e-04	0	62	0	3061841920	45	4895
2026-01-24 11:05:39.31	357.13	13.08	-37.2	-39.6	12.5	1.44e-04	0	62	0	3067084800	45	4896
2026-01-24 11:05:40.32	357.04	12.99	-37.2	-39.6	12.5	2.07e-04	0	62	0	3072327680	45	4909
2026-01-24 11:05:41.33	356.94	12.90	-37.3	-39.8	12.3	2.25e-04	0	62	0	3078619136	45	4991
2026-01-24 11:05:42.34	356.85	12.82	-37.1	-39.5	12.5	2.13e-04	0	62	0	3083862016	45	4841
2026-01-24 11:05:43.35	356.76	12.73	-36.9	-39.3	12.7	1.22e-04	0	62	0	3090153472	45	4733
2026-01-24 11:05:44.36	356.67	12.64	-37.1	-39.7	12.2	2.46e-04	0	61	0	3095396352	45	4939
2026-01-24 11:05:45.37	356.58	12.56	-37.6	-40.5	11.2	1.44e-03	0	62	0	3101687808	45	5449
2026-01-24 11:05:46.38	356.49	12.47	-38.3	-41.7	9.9	6.37e-03	0	61	0	3106930688	47	5567
2026-01-24 11:05:47.39	356.40	12.38	-39.0	-43.2	8.3	4.47e-02	0	62	0	3113222144	48	6215
2026-01-24 11:05:48.41	356.30	12.30	-39.6	-44.7	6.8	1.50e-01	0	62	0	3118465024	49	6987
2026-01-24 11:05:49.41	356.22	12.21	-40.1	-46.5	5.3	6.57e-01	0	62	0	3122659328	50	8111
2026-01-24 11:05:50.42	356.13	12.13	-40.4	-48.3	4.4	8.16e-01	0	61	0	3123707904	51	9468
2026-01-24 11:05:51.43	356.04	12.04	-40.6	-50.0	3.9	8.44e-01	0	62	104	3123707904	51	11448
2026-01-24 11:05:52.44	355.95	11.96	-40.6	-50.9	3.8	8.46e-01	0	61	104	3123707904	51	12796
2026-01-24 11:05:53.45	355.87	11.87	-40.6	-51.6	3.8	8.46e-01	0	62	104	3123707904	51	13834
2026-01-24 11:05:54.46	355.78	11.79	-40.7	-51.9	3.8	8.46e-01	0	62	104	3123707904	51	14330
2026-01-24 11:05:55.47	355.69	11.70	-40.7	-52.1	3.8	8.46e-01	0	62	104	3123707904	51	14600
2026-01-24 11:05:56.48	355.61	11.62	-40.3	-51.9	3.8	8.46e-01	0	62	104	3123707904	51	14242
2026-01-24 11:05:57.49	355.52	11.54	-40.5	-51.9	3.8	8.45e-01	0	62	104	3123707904	51	14351
2026-01-24 11:05:58.50	355.44	11.45	-40.7	-52.1	3.8	8.46e-01	0	62	104	3123707904	52	13866
2026-01-24 11:05:59.51	355.36	11.37	-40.4	-52.0	3.8	8.46e-01	0	62	104	3123707904	52	13617
2026-01-24 11:06:00.52	355.27	11.29	-40.2	-51.8	3.8	8.46e-01	0	62	104	3123707904	52	13283
2026-01-24 11:06:01.53	355.19	11.21	-40.3	-51.8	3.8	8.46e-01	0	62	104	3123707904	52	13396
2026-01-24 11:06:02.54	355.11	11.12	-40.5	-52.0	3.8	8.45e-01	0	62	104	3123707904	52	13711
2026-01-24 11:06:03.54	355.03	11.04	-40.3	-51.8	3.8	8.44e-01	0	62	104	3123707904	52	13388
2026-01-24 11:06:04.55	354.94	10.96	-40.2	-51.7	3.8	8.45e-01	0	62	104	3123707904	52	13252
2026-01-24 11:06:05.56	354.86	10.88	-40.2	-51.7	3.8	8.46e-01	0	61	104	3123707904	52	13250
2026-01-24 11:06:06.57	354.78	10.80	-40.4	-51.9	3.8	8.46e-01	0	62	104	3123707904	52	13483
2026-01-24 11:06:07.58	354.70	10.71	-40.2	-51.8	3.8	8.46e-01	0	62	104	3123707904	52	13271
2026-01-24 11:06:08.59	354.62	10.63	-40.2	-51.7	3.8	8.46e-01	0	62	104	3123707904	52	13215
2026-01-24 11:06:09.60	354.54	10.55	-40.2	-51.7	3.8	8.45e-01	0	62	104	3123707904	52	13259
2026-01-24 11:06:10.61	354.47	10.47	-40.2	-51.8	3.8	8.46e-01	0	62	104	3123707904	52	13337
2026-01-24 11:06:11.62	354.39	10.39	-40.2	-51.8	3.8	8.45e-01	0	62	104	3123707904	52	13267
2026-01-24 11:06:12.63	354.31	10.31	-40.1	-51.7	3.8	8.47e-01	0	62	104	3123707904	52	13119
2026-01-24 11:06:13.64	354.23	10.23	-40.2	-51.7	3.8	8.46e-01	0	62	104	3123707904	52	13215
2026-01-24 11:06:14.65	354.16	10.15	-40.2	-51.7	3.8	8.47e-01	0	61	104	3123707904	52	13234
2026-01-24 11:06:15.66	354.08	10.07	-40.1	-51.7	3.8	8.47e-01	0	62	104	3123707904	52	13195
