passes_logs/2026/01/24/R2.0S_Moscow/R2.0S_Moscow__20260124_002632_NOAA_20_JPSS-1_rec.log

#Pass ID: 20260124_002632_NOAA 20 (JPSS-1)
#Satellite: NOAA 20 (JPSS-1)
#Configuration: NOAA 20
#almurnet v.1.7.20251203
#Start time: 2026-01-24 00:26:34

#Version: 2.2.20231116
#Station: R2.0S_Moscow
#Location: 37.707566 lon 55.798166 lat
#TLE: 1 43013U 17073A   26022.94240312  .00000200  00000+0  11574-3 0  9998
#TLE: 2 43013  98.7645 323.7982 0001179  28.0279 332.0961 14.19539020423863

#Time	Az	El	Level	Level2	SNR	BER	BlckErr	Temp	State	Recorded	gain1	gain2
2026-01-24 00:26:34.60	13.05	2.15	-40.4	-54.9	3.8	1.49e+00	0	53	0	0	52	19152
2026-01-24 00:26:35.59	13.02	2.21	-40.4	-55.0	3.8	1.49e+00	0	53	104	0	52	19185
2026-01-24 00:26:36.60	12.99	2.27	-40.4	-54.9	3.8	1.49e+00	0	53	104	0	52	19167
2026-01-24 00:26:37.61	12.96	2.34	-40.4	-55.0	3.8	1.49e+00	0	53	104	0	52	19180
2026-01-24 00:26:38.62	12.93	2.40	-40.4	-55.0	3.8	1.49e+00	0	53	104	0	52	19170
2026-01-24 00:26:39.63	12.90	2.46	-40.4	-55.0	3.8	1.49e+00	0	53	104	0	52	19178
2026-01-24 00:26:40.64	12.87	2.53	-40.4	-54.9	3.8	1.49e+00	0	53	104	0	52	19162
2026-01-24 00:26:41.65	12.84	2.59	-40.4	-54.9	3.8	1.49e+00	0	53	104	0	52	19165
2026-01-24 00:26:42.66	12.81	2.66	-40.4	-54.9	3.8	1.49e+00	0	54	104	0	52	19166
2026-01-24 00:26:43.68	12.78	2.72	-40.4	-55.0	3.8	1.49e+00	0	54	104	0	52	19190
2026-01-24 00:26:44.69	12.75	2.79	-40.4	-54.9	3.8	1.49e+00	0	54	104	0	52	19127
2026-01-24 00:26:45.70	12.72	2.85	-40.4	-54.9	3.8	1.49e+00	0	54	104	0	52	19144
2026-01-24 00:26:46.71	12.69	2.91	-40.4	-54.9	3.8	1.49e+00	0	54	104	0	52	19130
2026-01-24 00:26:47.71	12.66	2.98	-40.4	-54.9	3.8	1.49e+00	0	54	104	0	52	19128
2026-01-24 00:26:48.73	12.62	3.04	-40.4	-55.0	3.8	1.49e+00	0	54	104	0	52	19180
2026-01-24 00:26:49.74	12.59	3.11	-40.4	-55.0	3.8	1.49e+00	0	54	104	0	52	19173
2026-01-24 00:26:50.75	12.56	3.18	-40.4	-54.9	3.8	1.49e+00	0	54	104	0	52	19138
2026-01-24 00:26:51.76	12.53	3.24	-40.4	-54.9	3.8	1.49e+00	0	54	104	0	52	19097
2026-01-24 00:26:52.77	12.50	3.31	-40.4	-54.9	3.8	1.49e+00	0	54	104	0	52	19141
2026-01-24 00:26:53.78	12.46	3.37	-40.4	-54.9	3.8	1.49e+00	0	54	104	0	52	19105
2026-01-24 00:26:54.79	12.43	3.44	-40.4	-54.9	3.8	1.49e+00	0	54	104	0	52	19094
2026-01-24 00:26:55.80	12.40	3.50	-40.4	-54.9	3.8	1.49e+00	0	54	104	0	52	19125
2026-01-24 00:26:56.81	12.37	3.57	-40.3	-54.9	3.8	1.49e+00	0	55	104	0	52	19115
2026-01-24 00:26:57.82	12.33	3.64	-40.4	-55.0	3.8	1.49e+00	0	55	104	0	52	19175
2026-01-24 00:26:58.83	12.30	3.70	-40.4	-54.9	3.8	1.49e+00	0	55	104	0	52	19123
2026-01-24 00:26:59.84	12.27	3.77	-40.4	-55.0	3.8	1.49e+00	0	54	104	0	52	19180
2026-01-24 00:27:00.85	12.23	3.84	-40.4	-54.9	3.8	1.49e+00	0	55	104	0	52	19118
2026-01-24 00:27:01.86	12.20	3.90	-40.4	-55.0	3.8	1.49e+00	0	55	104	0	52	19168
2026-01-24 00:27:02.87	12.16	3.97	-40.4	-54.9	3.8	1.49e+00	0	55	104	0	52	19072
2026-01-24 00:27:03.88	12.13	4.04	-40.4	-54.9	3.8	1.49e+00	0	55	104	0	52	19048
2026-01-24 00:27:04.89	12.10	4.11	-40.4	-54.9	3.8	1.49e+00	0	55	104	0	52	19080
2026-01-24 00:27:05.90	12.06	4.17	-40.4	-54.8	3.8	1.49e+00	0	55	104	0	52	18914
2026-01-24 00:27:06.91	12.03	4.24	-40.4	-54.8	3.8	1.49e+00	0	55	104	0	52	18853
2026-01-24 00:27:07.92	11.99	4.31	-40.3	-54.7	3.8	1.49e+00	0	55	104	0	52	18620
2026-01-24 00:27:08.93	11.96	4.38	-40.4	-54.7	3.8	1.49e+00	0	55	104	0	52	18619
2026-01-24 00:27:09.94	11.92	4.45	-40.3	-54.7	3.8	1.49e+00	0	55	104	0	52	18593
2026-01-24 00:27:10.95	11.89	4.51	-40.3	-54.6	3.8	1.49e+00	0	55	104	0	52	18415
2026-01-24 00:27:11.96	11.85	4.58	-40.3	-54.5	3.8	1.49e+00	0	55	104	0	52	18256
2026-01-24 00:27:12.97	11.81	4.65	-40.4	-54.5	3.8	1.49e+00	0	56	104	0	52	18279
2026-01-24 00:27:13.98	11.78	4.72	-40.4	-54.6	3.8	1.49e+00	0	56	104	0	52	18395
2026-01-24 00:27:14.99	11.74	4.79	-40.4	-54.5	3.8	1.49e+00	0	56	104	0	52	18295
2026-01-24 00:27:16.01	11.70	4.86	-40.3	-54.6	3.8	1.49e+00	0	56	104	0	52	18419
2026-01-24 00:27:17.02	11.67	4.93	-40.4	-54.6	3.8	1.49e+00	0	56	104	0	52	18512
2026-01-24 00:27:18.03	11.63	5.00	-40.4	-54.7	3.8	1.49e+00	0	56	104	0	52	18531
2026-01-24 00:27:19.04	11.59	5.07	-40.3	-54.7	3.8	1.49e+00	0	56	104	0	52	18596
2026-01-24 00:27:20.05	11.56	5.14	-40.3	-54.8	3.8	1.49e+00	0	56	104	0	52	18785
2026-01-24 00:27:21.06	11.52	5.21	-40.3	-54.8	3.8	1.49e+00	0	56	104	0	52	18794
2026-01-24 00:27:22.07	11.48	5.28	-40.3	-54.7	3.8	1.49e+00	0	56	104	0	52	18728
2026-01-24 00:27:23.08	11.44	5.35	-40.4	-54.7	3.8	1.49e+00	0	56	104	0	52	18676
2026-01-24 00:27:24.09	11.41	5.42	-40.3	-54.7	3.8	1.49e+00	0	56	104	0	52	18602
2026-01-24 00:27:25.10	11.37	5.49	-40.3	-54.5	3.8	1.49e+00	0	56	104	0	52	18295
2026-01-24 00:27:26.11	11.33	5.56	-40.3	-54.5	3.8	1.49e+00	0	56	104	0	52	18107
2026-01-24 00:27:27.12	11.29	5.63	-40.3	-54.4	3.8	1.49e+00	0	56	104	0	52	18008
2026-01-24 00:27:28.13	11.25	5.70	-40.3	-54.4	3.8	1.49e+00	0	56	104	0	52	17895
2026-01-24 00:27:29.15	11.21	5.78	-40.3	-54.3	3.8	1.49e+00	0	56	104	0	52	17716
2026-01-24 00:27:30.15	11.17	5.85	-40.3	-54.2	3.8	1.49e+00	0	56	104	0	52	17645
2026-01-24 00:27:31.17	11.13	5.92	-40.3	-54.2	3.8	1.49e+00	0	56	104	0	52	17680
2026-01-24 00:27:32.18	11.10	5.99	-40.3	-54.2	3.8	1.49e+00	0	57	104	0	52	17576
2026-01-24 00:27:33.19	11.06	6.06	-40.3	-54.3	3.8	1.49e+00	0	56	104	0	52	17708
2026-01-24 00:27:34.20	11.02	6.14	-40.3	-54.2	3.8	1.49e+00	0	56	104	0	52	17625
2026-01-24 00:27:35.21	10.97	6.21	-40.3	-54.4	3.8	1.49e+00	0	56	104	0	52	17909
2026-01-24 00:27:36.22	10.93	6.28	-40.3	-54.4	3.8	1.49e+00	0	57	104	0	52	18035
2026-01-24 00:27:37.23	10.89	6.35	-40.3	-54.4	3.8	1.49e+00	0	57	104	0	52	18068
2026-01-24 00:27:38.24	10.85	6.43	-40.3	-54.5	3.8	1.49e+00	0	57	104	0	52	18154
2026-01-24 00:27:39.25	10.81	6.50	-40.3	-54.6	3.8	1.49e+00	0	57	104	0	52	18401
2026-01-24 00:27:40.26	10.77	6.57	-40.3	-54.7	3.8	1.49e+00	0	57	104	0	52	18640
2026-01-24 00:27:41.27	10.73	6.65	-40.4	-54.8	3.8	1.49e+00	0	57	104	0	52	18842
2026-01-24 00:27:42.28	10.69	6.72	-40.3	-54.8	3.8	1.49e+00	0	57	104	0	52	18878
2026-01-24 00:27:43.29	10.64	6.80	-40.3	-54.8	3.8	1.49e+00	0	57	104	0	52	18874
2026-01-24 00:27:44.30	10.60	6.87	-40.3	-54.9	3.8	1.49e+00	0	57	104	0	52	19054
2026-01-24 00:27:45.31	10.56	6.95	-40.4	-54.9	3.8	1.49e+00	0	57	104	0	52	19080
2026-01-24 00:27:46.32	10.52	7.02	-40.4	-54.9	3.8	1.49e+00	0	57	104	0	52	19122
2026-01-24 00:27:47.34	10.47	7.10	-40.3	-54.9	3.8	1.49e+00	0	57	104	0	52	19139
2026-01-24 00:27:48.35	10.43	7.17	-40.4	-54.9	3.8	1.49e+00	0	57	104	0	52	19148
2026-01-24 00:27:49.36	10.39	7.25	-40.3	-54.9	3.8	1.49e+00	0	57	104	0	52	19159
2026-01-24 00:27:50.37	10.34	7.32	-40.4	-54.9	3.8	1.49e+00	0	57	104	0	52	19076
2026-01-24 00:27:51.38	10.30	7.40	-40.3	-54.9	3.8	1.49e+00	0	57	104	0	52	19049
2026-01-24 00:27:52.39	10.25	7.47	-40.3	-54.9	3.8	1.49e+00	0	57	104	0	52	19087
2026-01-24 00:27:53.40	10.21	7.55	-40.4	-54.9	3.8	1.49e+00	0	57	104	0	52	19076
2026-01-24 00:27:54.41	10.16	7.63	-40.3	-54.9	3.8	1.49e+00	0	57	104	0	52	19099
2026-01-24 00:27:55.42	10.12	7.70	-40.4	-54.9	3.8	1.49e+00	0	57	104	0	52	19051
2026-01-24 00:27:56.43	10.07	7.78	-40.3	-54.9	3.8	1.49e+00	0	57	104	0	52	19010
2026-01-24 00:27:57.44	10.03	7.86	-40.3	-54.9	3.8	1.49e+00	0	57	104	0	52	19018
2026-01-24 00:27:58.45	9.98	7.93	-40.3	-54.8	3.8	1.49e+00	0	57	104	0	52	18917
2026-01-24 00:27:59.46	9.94	8.01	-40.3	-54.9	3.8	1.49e+00	0	57	104	0	52	18978
2026-01-24 00:28:00.47	9.89	8.09	-40.3	-54.9	3.8	1.49e+00	0	57	104	0	52	19020
2026-01-24 00:28:01.48	9.84	8.17	-40.4	-54.9	3.8	1.49e+00	0	58	104	0	52	19101
2026-01-24 00:28:02.49	9.80	8.25	-40.5	-55.0	3.8	1.49e+00	0	57	104	0	52	19305
2026-01-24 00:28:03.50	9.75	8.32	-40.3	-54.9	3.8	1.49e+00	0	58	104	0	52	18982
2026-01-24 00:28:04.51	9.70	8.40	-40.5	-55.1	3.8	1.49e+00	0	57	104	0	52	19480
2026-01-24 00:28:05.52	9.65	8.48	-40.7	-55.2	3.8	1.49e+00	0	58	104	0	52	19711
2026-01-24 00:28:06.53	9.61	8.56	-40.4	-55.0	3.8	1.49e+00	0	58	104	0	52	19292
2026-01-24 00:28:07.54	9.56	8.64	-40.2	-54.6	3.8	1.49e+00	0	58	104	0	52	18474
2026-01-24 00:28:08.55	9.51	8.72	-40.3	-54.8	3.8	1.49e+00	0	58	104	0	52	18741
2026-01-24 00:28:09.56	9.46	8.80	-40.2	-54.8	3.8	1.49e+00	0	58	104	0	52	18823
2026-01-24 00:28:10.57	9.41	8.88	-40.1	-54.7	3.8	1.49e+00	0	58	104	0	52	18561
2026-01-24 00:28:11.58	9.36	8.96	-40.1	-54.6	3.8	1.49e+00	0	58	104	0	52	18449
2026-01-24 00:28:12.59	9.31	9.04	-40.0	-54.6	3.8	1.49e+00	0	58	104	0	52	18415
2026-01-24 00:28:13.60	9.26	9.12	-40.1	-54.7	3.8	1.49e+00	0	58	104	0	51	19668
2026-01-24 00:28:14.61	9.21	9.20	-40.5	-55.1	3.8	1.49e+00	0	58	104	0	51	20604
2026-01-24 00:28:15.62	9.16	9.28	-40.3	-54.9	3.8	1.49e+00	0	58	104	0	52	19046
2026-01-24 00:28:16.63	9.11	9.36	-40.2	-54.8	3.8	1.49e+00	0	58	104	0	52	18754
2026-01-24 00:28:17.64	9.06	9.45	-40.2	-54.8	3.8	1.49e+00	0	58	104	0	52	18748
2026-01-24 00:28:18.65	9.01	9.53	-40.0	-54.5	3.8	1.49e+00	0	58	104	0	52	18296
2026-01-24 00:28:19.66	8.95	9.61	-40.1	-54.6	3.8	1.49e+00	0	58	104	0	51	19539
2026-01-24 00:28:20.66	8.90	9.69	-40.2	-54.7	3.8	1.49e+00	0	58	104	0	51	19795
2026-01-24 00:28:21.67	8.85	9.77	-40.1	-54.7	3.8	1.49e+00	0	58	104	0	51	19669
2026-01-24 00:28:22.68	8.80	9.86	-40.6	-55.2	3.8	1.49e+00	0	58	104	0	51	20854
2026-01-24 00:28:23.69	8.74	9.94	-40.4	-54.9	3.8	1.49e+00	0	58	104	0	52	19045
2026-01-24 00:28:24.70	8.69	10.02	-40.1	-54.6	3.8	1.49e+00	0	58	104	0	52	18315
2026-01-24 00:28:25.71	8.64	10.11	-40.1	-54.6	3.8	1.49e+00	0	58	104	0	52	18363
2026-01-24 00:28:26.72	8.58	10.19	-40.1	-54.6	3.8	1.49e+00	0	58	104	0	52	18474
2026-01-24 00:28:27.73	8.53	10.27	-40.0	-54.6	3.8	1.49e+00	0	58	104	0	52	18398
2026-01-24 00:28:28.74	8.47	10.36	-40.0	-54.6	3.8	1.49e+00	0	58	104	0	51	19415
2026-01-24 00:28:29.75	8.42	10.44	-40.1	-54.6	3.8	1.49e+00	0	59	104	0	51	19437
2026-01-24 00:28:30.76	8.36	10.53	-40.8	-55.4	3.8	1.49e+00	0	58	104	0	52	20081
2026-01-24 00:28:31.77	8.31	10.61	-40.6	-55.1	3.8	1.49e+00	0	58	104	0	52	19437
2026-01-24 00:28:32.78	8.25	10.70	-40.1	-54.7	3.8	1.49e+00	0	59	104	0	52	18648
2026-01-24 00:28:33.79	8.19	10.78	-40.2	-54.8	3.8	1.49e+00	0	58	104	0	52	18868
2026-01-24 00:28:34.80	8.14	10.87	-40.2	-54.8	3.8	1.49e+00	0	58	104	0	52	18762
2026-01-24 00:28:35.81	8.08	10.96	-40.2	-54.7	3.8	1.49e+00	0	59	104	0	52	18729
2026-01-24 00:28:36.81	8.02	11.04	-40.1	-54.4	3.8	1.49e+00	0	58	104	0	52	17930
2026-01-24 00:28:37.82	7.96	11.13	-40.3	-54.8	3.8	1.49e+00	0	59	104	0	52	18785
2026-01-24 00:28:38.83	7.90	11.22	-41.4	-53.7	3.8	1.49e+00	0	59	104	0	53	15701
2026-01-24 00:28:39.84	7.85	11.30	-42.0	-52.2	4.5	1.29e+00	0	59	0	0	54	12516
2026-01-24 00:28:40.85	7.79	11.39	-41.0	-55.5	3.8	9.52e-01	0	59	104	1048576	54	18289
2026-01-24 00:28:41.86	7.73	11.48	-41.5	-50.7	5.1	1.49e+00	0	59	104	1048576	53	11051
2026-01-24 00:28:42.87	7.67	11.57	-41.4	-49.6	5.9	4.31e-01	0	59	0	2097152	53	9800
2026-01-24 00:28:43.88	7.61	11.66	-41.3	-49.1	6.2	3.20e-01	0	59	0	4194304	53	9226
2026-01-24 00:28:44.89	7.55	11.75	-41.2	-48.7	6.6	2.48e-01	0	59	0	6291456	53	8780
2026-01-24 00:28:45.90	7.49	11.83	-41.2	-48.3	6.9	1.74e-01	0	59	0	7340032	53	8417
2026-01-24 00:28:46.91	7.42	11.92	-41.1	-48.0	7.2	1.37e-01	0	59	0	9437184	53	8154
2026-01-24 00:28:47.92	7.36	12.01	-41.7	-48.5	7.4	7.34e-02	0	59	0	11534336	53	8564
2026-01-24 00:28:48.93	7.30	12.10	-42.0	-49.9	6.1	1.50e-01	0	59	0	13631488	54	9589
2026-01-24 00:28:49.94	7.24	12.19	-40.7	-50.6	4.8	7.70e-02	0	59	0	15728640	53	11005
2026-01-24 00:28:50.94	7.17	12.28	-41.3	-47.3	8.5	2.76e-01	0	59	0	16777216	53	7530
2026-01-24 00:28:51.95	7.11	12.37	-41.4	-54.4	3.8	6.56e-01	0	59	104	18874368	53	16969
2026-01-24 00:28:52.96	7.05	12.47	-40.6	-45.8	9.6	7.99e-01	0	59	0	18874368	53	6330
2026-01-24 00:28:53.97	6.98	12.56	-40.6	-45.6	9.9	1.08e-02	0	59	0	19922944	53	6197
2026-01-24 00:28:54.98	6.92	12.65	-40.4	-45.1	10.6	5.41e-03	0	59	0	22020096	52	6149
2026-01-24 00:28:55.99	6.85	12.74	-40.5	-45.1	10.6	3.04e-03	0	59	0	24117248	52	6196
2026-01-24 00:28:57.00	6.79	12.83	-40.7	-45.7	10.0	5.16e-03	0	59	0	26214400	52	6638
2026-01-24 00:28:58.01	6.72	12.93	-40.8	-46.0	9.7	8.70e-03	0	59	0	28311552	52	6866
2026-01-24 00:28:59.02	6.65	13.02	-40.8	-45.7	10.2	6.94e-03	0	59	0	29360128	52	6634
2026-01-24 00:29:00.03	6.59	13.11	-40.7	-45.4	10.6	4.36e-03	0	59	0	31457280	52	6400
2026-01-24 00:29:01.04	6.52	13.21	-40.8	-45.5	10.7	3.22e-03	0	59	0	33554432	52	6421
2026-01-24 00:29:02.05	6.45	13.30	-40.7	-45.3	10.8	2.83e-03	0	59	0	35651584	52	6291
2026-01-24 00:29:03.06	6.38	13.39	-40.7	-45.0	11.2	1.94e-03	0	59	0	37748736	52	6118
2026-01-24 00:29:04.07	6.31	13.49	-40.7	-45.0	11.3	1.21e-03	0	59	0	39845888	52	6072
2026-01-24 00:29:05.08	6.25	13.58	-40.8	-45.2	11.2	1.40e-03	0	59	0	40894464	52	6222
2026-01-24 00:29:06.09	6.18	13.68	-40.9	-45.4	11.0	1.90e-03	0	59	0	42991616	52	6356
2026-01-24 00:29:07.10	6.11	13.77	-41.0	-45.4	11.2	1.41e-03	0	59	0	45088768	52	6366
2026-01-24 00:29:08.11	6.03	13.87	-41.0	-45.3	11.4	1.13e-03	0	59	0	47185920	52	6281
2026-01-24 00:29:09.12	5.96	13.97	-40.9	-45.0	11.7	7.39e-04	0	59	0	49283072	52	6064
2026-01-24 00:29:10.13	5.89	14.06	-40.9	-45.0	11.7	5.74e-04	0	59	0	50331648	52	6077
2026-01-24 00:29:11.14	5.82	14.16	-41.0	-45.2	11.4	6.80e-04	0	59	0	52428800	52	6266
2026-01-24 00:29:12.15	5.75	14.26	-41.0	-45.3	11.4	1.08e-03	0	59	0	54525952	52	6325
2026-01-24 00:29:13.16	5.67	14.35	-40.8	-44.9	11.7	7.02e-04	0	59	0	56623104	52	6054
2026-01-24 00:29:14.17	5.60	14.45	-40.9	-45.0	11.7	5.47e-04	0	59	0	58720256	52	6113
2026-01-24 00:29:15.18	5.53	14.55	-41.1	-45.4	11.4	9.56e-04	0	59	0	59768832	52	6352
2026-01-24 00:29:16.18	5.45	14.65	-41.0	-45.1	11.8	6.50e-04	0	59	0	61865984	52	6152
2026-01-24 00:29:17.19	5.38	14.75	-40.9	-44.9	12.0	4.21e-04	0	59	0	63963136	52	6010
2026-01-24 00:29:18.20	5.30	14.85	-40.9	-44.8	12.1	2.37e-04	0	59	0	66060288	52	5982
2026-01-24 00:29:19.21	5.23	14.95	-41.0	-45.0	12.0	2.53e-04	0	59	0	68157440	52	6083
2026-01-24 00:29:20.22	5.15	15.05	-41.1	-45.1	12.0	3.46e-04	0	59	0	69206016	52	6137
2026-01-24 00:29:21.23	5.07	15.15	-41.1	-45.0	12.0	2.79e-04	0	59	0	71303168	52	6118
2026-01-24 00:29:22.24	4.99	15.25	-41.1	-45.1	12.1	2.71e-04	0	60	0	73400320	52	6140
2026-01-24 00:29:23.25	4.91	15.35	-41.1	-45.0	12.1	3.03e-04	0	60	0	75497472	52	6089
2026-01-24 00:29:24.26	4.84	15.45	-41.1	-45.1	12.0	2.75e-04	0	59	0	77594624	52	6142
2026-01-24 00:29:25.27	4.76	15.55	-41.1	-45.1	12.0	3.11e-04	0	59	0	78643200	52	6157
2026-01-24 00:29:26.28	4.68	15.66	-41.1	-44.9	12.3	2.62e-04	0	59	0	80740352	52	6021
2026-01-24 00:29:27.29	4.60	15.76	-41.1	-44.9	12.3	1.45e-04	0	59	0	82837504	52	6050
2026-01-24 00:29:28.30	4.51	15.86	-41.1	-45.0	12.2	2.35e-04	0	60	0	84934656	52	6129
2026-01-24 00:29:29.31	4.43	15.96	-41.1	-45.0	12.2	2.57e-04	0	59	0	87031808	52	6110
2026-01-24 00:29:30.32	4.35	16.07	-41.1	-45.0	12.1	2.35e-04	0	60	0	88080384	52	6126
2026-01-24 00:29:31.33	4.27	16.17	-41.2	-45.0	12.2	2.19e-04	0	60	0	90177536	52	6121
2026-01-24 00:29:32.34	4.18	16.28	-41.2	-45.1	12.1	3.03e-04	0	60	0	92274688	53	5829
2026-01-24 00:29:33.35	4.10	16.38	-41.2	-45.1	12.2	2.16e-04	0	60	0	94371840	53	5790
2026-01-24 00:29:34.36	4.01	16.49	-41.3	-45.2	12.1	2.91e-04	0	59	0	96468992	53	5897
2026-01-24 00:29:35.37	3.93	16.59	-41.2	-45.1	12.1	2.26e-04	0	60	0	97517568	53	5837
2026-01-24 00:29:36.38	3.84	16.70	-41.4	-45.5	11.7	3.52e-04	0	60	0	99614720	53	6093
2026-01-24 00:29:37.39	3.75	16.81	-41.3	-45.3	12.0	3.17e-04	0	60	0	101711872	53	5940
2026-01-24 00:29:38.39	3.67	16.91	-41.4	-45.5	11.9	3.73e-04	0	60	0	103809024	53	6062
2026-01-24 00:29:39.40	3.58	17.02	-41.3	-45.1	12.2	2.99e-04	0	60	0	105906176	53	5832
2026-01-24 00:29:40.41	3.49	17.13	-41.4	-45.4	12.0	2.60e-04	0	60	0	108003328	53	5995
2026-01-24 00:29:41.42	3.40	17.23	-41.3	-45.1	12.4	1.68e-04	0	60	0	109051904	53	5810
2026-01-24 00:29:42.43	3.31	17.34	-41.3	-45.2	12.2	1.66e-04	0	60	0	111149056	53	5892
2026-01-24 00:29:43.44	3.22	17.45	-41.3	-45.2	12.3	1.98e-04	0	60	0	113246208	53	5865
2026-01-24 00:29:44.45	3.13	17.56	-41.3	-45.2	12.3	2.37e-04	0	60	0	115343360	53	5878
2026-01-24 00:29:45.46	3.04	17.67	-41.4	-45.2	12.3	1.85e-04	0	60	0	117440512	53	5898
2026-01-24 00:29:46.47	2.94	17.78	-41.4	-45.3	12.3	1.88e-04	0	60	0	118489088	53	5935
2026-01-24 00:29:47.47	2.85	17.89	-41.4	-45.2	12.3	1.64e-04	0	60	0	120586240	53	5912
2026-01-24 00:29:48.48	2.76	18.00	-41.5	-45.3	12.2	1.97e-04	0	60	0	122683392	53	5989
2026-01-24 00:29:49.50	2.66	18.11	-41.4	-45.3	12.2	1.92e-04	0	60	0	124780544	53	5948
2026-01-24 00:29:50.51	2.57	18.23	-41.5	-45.4	12.1	2.40e-04	0	60	0	126877696	53	6048
2026-01-24 00:29:51.52	2.47	18.34	-41.5	-45.4	12.2	2.75e-04	0	60	0	127926272	53	6039
2026-01-24 00:29:52.53	2.37	18.45	-41.6	-45.5	12.0	2.72e-04	0	60	0	130023424	53	6123
2026-01-24 00:29:53.54	2.27	18.56	-41.6	-45.6	12.0	3.52e-04	0	60	0	132120576	53	6187
2026-01-24 00:29:54.54	2.18	18.68	-41.6	-45.7	12.0	3.41e-04	0	60	0	134217728	53	6204
2026-01-24 00:29:55.55	2.08	18.79	-41.6	-45.7	11.9	3.86e-04	0	60	0	136314880	53	6216
2026-01-24 00:29:56.56	1.98	18.90	-41.7	-45.7	11.9	4.00e-04	0	60	0	137363456	53	6270
2026-01-24 00:29:57.57	1.88	19.02	-41.8	-45.8	11.8	4.89e-04	0	60	0	139460608	54	5982
2026-01-24 00:29:58.58	1.77	19.13	-41.8	-45.8	11.8	4.20e-04	0	60	0	141557760	54	5981
2026-01-24 00:29:59.59	1.67	19.25	-41.8	-45.9	11.8	4.77e-04	0	60	0	143654912	54	6003
2026-01-24 00:30:00.60	1.57	19.37	-41.8	-45.8	11.9	4.24e-04	0	60	0	145752064	54	5967
2026-01-24 00:30:01.61	1.46	19.48	-41.8	-45.9	11.7	5.27e-04	0	60	0	146800640	54	6052
2026-01-24 00:30:02.62	1.36	19.60	-41.8	-45.9	11.8	5.04e-04	0	60	0	148897792	54	6033
2026-01-24 00:30:03.63	1.25	19.72	-41.9	-46.0	11.7	5.28e-04	0	60	0	150994944	54	6091
2026-01-24 00:30:04.63	1.15	19.83	-41.9	-46.1	11.6	6.49e-04	0	60	0	153092096	54	6152
2026-01-24 00:30:05.64	1.04	19.95	-41.9	-46.1	11.6	6.90e-04	0	60	0	155189248	54	6144
2026-01-24 00:30:06.65	0.93	20.07	-42.0	-46.3	11.4	1.03e-03	0	60	0	156237824	54	6297
2026-01-24 00:30:07.66	0.82	20.19	-41.9	-46.1	11.6	7.24e-04	0	60	0	158334976	54	6176
2026-01-24 00:30:08.67	0.71	20.31	-41.9	-46.1	11.6	6.99e-04	0	60	0	160432128	54	6170
2026-01-24 00:30:09.68	0.60	20.43	-42.0	-46.2	11.5	8.39e-04	0	60	0	162529280	54	6243
2026-01-24 00:30:10.69	0.49	20.55	-41.9	-46.2	11.5	9.26e-04	0	60	0	164626432	54	6219
2026-01-24 00:30:11.70	0.38	20.67	-42.0	-46.3	11.4	8.99e-04	0	60	0	165675008	54	6326
2026-01-24 00:30:12.71	0.26	20.79	-42.0	-46.4	11.3	1.01e-03	0	60	0	167772160	54	6383
2026-01-24 00:30:13.72	0.15	20.91	-42.1	-46.4	11.2	1.28e-03	0	60	0	169869312	54	6395
2026-01-24 00:30:14.73	0.03	21.04	-42.0	-46.4	11.3	1.26e-03	0	60	0	171966464	54	6384
2026-01-24 00:30:15.74	359.91	21.16	-42.1	-46.5	11.2	1.37e-03	0	60	0	174063616	54	6446
2026-01-24 00:30:16.75	359.80	21.28	-42.1	-46.6	11.1	1.57e-03	0	60	0	176160768	54	6510
2026-01-24 00:30:17.76	359.68	21.41	-42.1	-46.5	11.1	1.59e-03	0	60	0	177209344	54	6463
2026-01-24 00:30:18.77	359.56	21.53	-42.1	-46.6	11.1	1.74e-03	0	60	0	179306496	54	6524
2026-01-24 00:30:19.78	359.44	21.66	-42.1	-46.6	11.0	2.10e-03	0	60	0	181403648	54	6562
2026-01-24 00:30:20.79	359.32	21.78	-42.1	-46.5	11.2	1.65e-03	0	60	0	183500800	54	6452
2026-01-24 00:30:21.80	359.19	21.91	-42.1	-46.5	11.1	1.54e-03	0	60	0	184549376	54	6488
2026-01-24 00:30:22.80	359.07	22.03	-42.1	-46.6	11.1	1.62e-03	0	60	0	186646528	54	6518
2026-01-24 00:30:23.81	358.95	22.16	-42.2	-46.7	11.0	1.87e-03	0	60	0	188743680	54	6587
2026-01-24 00:30:24.82	358.82	22.29	-42.1	-46.6	11.0	1.83e-03	0	60	0	190840832	54	6529
2026-01-24 00:30:25.83	358.69	22.42	-42.1	-46.6	11.0	1.80e-03	0	60	0	192937984	54	6559
2026-01-24 00:30:26.84	358.57	22.54	-42.1	-46.6	11.1	1.58e-03	0	60	0	193986560	54	6495
2026-01-24 00:30:27.85	358.44	22.67	-42.2	-46.7	11.0	1.88e-03	0	60	0	196083712	54	6589
2026-01-24 00:30:28.86	358.31	22.80	-42.2	-46.7	10.9	1.95e-03	0	60	0	198180864	54	6600
2026-01-24 00:30:29.87	358.18	22.93	-42.2	-46.7	10.9	2.33e-03	0	60	0	200278016	55	6274
2026-01-24 00:30:30.88	358.04	23.06	-42.3	-46.9	10.7	2.85e-03	0	60	0	202375168	55	6389
2026-01-24 00:30:31.89	357.91	23.19	-42.3	-46.9	10.7	2.73e-03	0	60	0	204472320	55	6366
2026-01-24 00:30:32.90	357.78	23.32	-42.2	-46.8	10.8	2.36e-03	0	60	0	205520896	55	6342
2026-01-24 00:30:33.91	357.64	23.46	-42.3	-46.9	10.7	2.68e-03	0	60	0	207618048	55	6395
2026-01-24 00:30:34.92	357.50	23.59	-42.2	-46.9	10.8	2.55e-03	0	60	0	209715200	55	6356
2026-01-24 00:30:35.93	357.37	23.72	-42.3	-46.8	10.8	2.44e-03	0	60	0	211812352	55	6346
2026-01-24 00:30:36.94	357.23	23.85	-42.2	-46.8	10.8	2.38e-03	0	60	0	213909504	55	6301
2026-01-24 00:30:37.95	357.09	23.99	-42.3	-46.9	10.7	2.38e-03	0	60	0	214958080	55	6386
2026-01-24 00:30:38.96	356.94	24.12	-42.3	-46.9	10.7	2.79e-03	0	60	0	217055232	55	6406
2026-01-24 00:30:39.97	356.80	24.26	-42.3	-47.0	10.6	3.24e-03	0	60	0	219152384	55	6430
2026-01-24 00:30:40.98	356.66	24.39	-42.2	-46.8	10.9	2.40e-03	0	60	0	221249536	55	6277
2026-01-24 00:30:41.99	356.51	24.53	-42.2	-46.8	10.9	2.20e-03	0	60	0	223346688	55	6316
2026-01-24 00:30:43.00	356.36	24.66	-42.2	-46.8	10.8	2.38e-03	0	60	0	224395264	55	6290
2026-01-24 00:30:44.00	356.22	24.80	-42.2	-46.8	10.8	2.54e-03	0	60	0	226492416	55	6314
2026-01-24 00:30:45.01	356.07	24.94	-42.2	-46.7	11.0	2.63e-03	0	60	0	228589568	55	6232
2026-01-24 00:30:46.02	355.92	25.07	-42.2	-46.7	11.0	1.95e-03	0	60	0	230686720	55	6242
2026-01-24 00:30:47.03	355.76	25.21	-42.2	-46.8	10.9	2.26e-03	0	60	0	232783872	55	6311
2026-01-24 00:30:48.04	355.61	25.35	-42.2	-46.6	11.0	1.93e-03	0	60	0	233832448	55	6200
2026-01-24 00:30:49.05	355.46	25.49	-42.1	-46.4	11.3	1.29e-03	0	60	0	235929600	55	6019
2026-01-24 00:30:50.06	355.30	25.63	-42.2	-46.6	11.2	1.18e-03	0	60	0	238026752	55	6150
2026-01-24 00:30:51.07	355.14	25.77	-42.1	-46.4	11.4	1.24e-03	0	60	0	240123904	55	5998
2026-01-24 00:30:52.08	354.98	25.91	-42.2	-46.6	11.2	1.18e-03	0	61	0	242221056	55	6134
2026-01-24 00:30:53.09	354.82	26.05	-42.2	-46.6	11.2	1.15e-03	0	60	0	243269632	55	6152
2026-01-24 00:30:54.10	354.66	26.19	-42.2	-46.5	11.3	1.15e-03	0	60	0	245366784	55	6121
2026-01-24 00:30:55.11	354.50	26.33	-42.3	-46.7	11.1	1.27e-03	0	61	0	247463936	55	6219
2026-01-24 00:30:56.12	354.33	26.48	-42.3	-46.7	11.2	1.31e-03	0	60	0	249561088	55	6215
2026-01-24 00:30:57.13	354.17	26.62	-42.2	-46.6	11.2	1.47e-03	0	60	0	251658240	55	6166
2026-01-24 00:30:58.14	354.00	26.76	-42.3	-46.7	11.2	1.28e-03	0	60	0	252706816	55	6230
2026-01-24 00:30:59.15	353.83	26.91	-42.2	-46.5	11.3	1.22e-03	0	60	0	254803968	55	6115
2026-01-24 00:31:00.15	353.66	27.05	-42.2	-46.6	11.3	1.01e-03	0	61	0	256901120	55	6137
2026-01-24 00:31:01.14	353.49	27.19	-42.2	-46.5	11.4	1.02e-03	0	61	0	258998272	55	6083
2026-01-24 00:31:02.15	353.31	27.34	-42.1	-46.3	11.6	7.23e-04	0	60	0	261095424	55	5951
2026-01-24 00:31:03.16	353.14	27.48	-42.1	-46.2	11.7	6.06e-04	0	60	0	262144000	55	5912
2026-01-24 00:31:04.17	352.96	27.63	-42.1	-46.3	11.6	7.12e-04	0	61	0	264241152	55	5987
2026-01-24 00:31:05.18	352.78	27.78	-42.1	-46.2	11.7	6.29e-04	0	60	0	266338304	55	5882
2026-01-24 00:31:06.19	352.60	27.93	-42.1	-46.1	11.8	4.92e-04	0	61	0	268435456	55	5855
2026-01-24 00:31:07.20	352.42	28.07	-42.2	-46.3	11.7	5.42e-04	0	61	0	270532608	55	5933
2026-01-24 00:31:08.21	352.23	28.22	-42.2	-46.3	11.6	6.62e-04	0	61	0	272629760	55	5990
2026-01-24 00:31:09.22	352.05	28.37	-42.2	-46.4	11.6	7.67e-04	0	61	0	273678336	55	6009
2026-01-24 00:31:10.23	351.86	28.52	-42.2	-46.4	11.6	7.19e-04	0	60	0	275775488	55	6010
2026-01-24 00:31:11.24	351.67	28.67	-42.2	-46.4	11.5	6.73e-04	0	61	0	277872640	55	6049
2026-01-24 00:31:12.25	351.48	28.82	-42.2	-46.4	11.5	6.26e-04	0	61	0	279969792	55	6033
2026-01-24 00:31:13.26	351.28	28.97	-42.2	-46.4	11.6	6.47e-04	0	61	0	282066944	55	6025
2026-01-24 00:31:14.27	351.09	29.12	-42.2	-46.4	11.5	7.70e-04	0	61	0	283115520	55	6048
2026-01-24 00:31:15.28	350.89	29.27	-42.2	-46.4	11.6	6.79e-04	0	61	0	285212672	55	6044
2026-01-24 00:31:16.28	350.69	29.42	-42.3	-46.4	11.5	7.62e-04	0	61	0	287309824	55	6057
2026-01-24 00:31:17.29	350.49	29.58	-42.3	-46.4	11.6	7.75e-04	0	61	0	289406976	55	6046
2026-01-24 00:31:18.30	350.29	29.73	-42.3	-46.6	11.4	7.79e-04	0	60	0	291504128	55	6159
2026-01-24 00:31:19.31	350.08	29.88	-42.3	-46.5	11.5	8.61e-04	0	60	0	292552704	55	6102
2026-01-24 00:31:20.32	349.88	30.04	-42.4	-46.6	11.4	8.70e-04	0	61	0	294649856	55	6171
2026-01-24 00:31:21.33	349.67	30.19	-42.4	-46.7	11.3	9.98e-04	0	61	0	296747008	55	6263
2026-01-24 00:31:22.34	349.46	30.34	-42.5	-46.9	11.1	1.29e-03	0	61	0	298844160	55	6400
2026-01-24 00:31:23.35	349.25	30.50	-42.6	-47.1	10.9	1.91e-03	0	61	0	300941312	55	6545
2026-01-24 00:31:24.36	349.03	30.65	-42.6	-47.2	10.8	2.36e-03	0	61	0	301989888	55	6628
2026-01-24 00:31:25.37	348.81	30.81	-42.9	-47.6	10.6	2.95e-03	0	61	0	304087040	56	6537
2026-01-24 00:31:26.38	348.59	30.96	-43.0	-47.7	10.4	4.03e-03	0	60	0	306184192	56	6637
2026-01-24 00:31:27.39	348.37	31.12	-43.0	-47.8	10.4	3.99e-03	0	61	0	308281344	56	6663
2026-01-24 00:31:28.40	348.15	31.28	-43.0	-47.8	10.4	4.59e-03	0	61	0	310378496	56	6695
2026-01-24 00:31:29.41	347.92	31.43	-43.0	-47.9	10.3	4.67e-03	0	61	0	311427072	56	6799
2026-01-24 00:31:30.42	347.69	31.59	-43.1	-48.0	10.2	6.15e-03	0	61	0	313524224	56	6834
2026-01-24 00:31:31.43	347.46	31.75	-43.1	-48.1	10.1	7.11e-03	0	60	0	315621376	56	6930
2026-01-24 00:31:32.44	347.23	31.91	-43.2	-48.4	9.8	8.87e-03	0	60	0	317718528	56	7130
2026-01-24 00:31:33.45	347.00	32.07	-43.2	-48.3	9.9	1.03e-02	0	61	0	319815680	57	6672
2026-01-24 00:31:34.46	346.76	32.22	-43.2	-48.2	10.0	7.35e-03	0	61	0	320864256	57	6614
2026-01-24 00:31:35.47	346.52	32.38	-43.2	-48.3	9.9	1.04e-02	0	61	0	322961408	57	6712
2026-01-24 00:31:36.48	346.28	32.54	-43.2	-48.3	9.9	1.08e-02	0	61	0	325058560	57	6701
2026-01-24 00:31:37.49	346.03	32.70	-43.2	-48.3	9.9	1.04e-02	0	61	0	327155712	57	6672
2026-01-24 00:31:38.50	345.79	32.86	-43.2	-48.3	9.9	8.82e-03	0	61	0	329252864	57	6688
2026-01-24 00:31:39.51	345.54	33.02	-43.2	-48.3	9.9	7.82e-03	0	61	0	330301440	57	6683
2026-01-24 00:31:40.52	345.28	33.18	-43.3	-48.4	9.8	8.88e-03	0	61	0	332398592	57	6787
2026-01-24 00:31:41.53	345.03	33.34	-43.3	-48.4	9.8	9.54e-03	0	61	0	334495744	57	6801
2026-01-24 00:31:42.54	344.77	33.50	-43.3	-48.6	9.6	1.16e-02	0	61	0	336592896	57	6900
2026-01-24 00:31:43.55	344.51	33.66	-43.3	-48.5	9.6	1.18e-02	0	61	0	338690048	57	6875
2026-01-24 00:31:44.56	344.25	33.82	-43.3	-48.6	9.6	1.35e-02	0	61	0	340787200	57	6959
2026-01-24 00:31:45.57	343.99	33.98	-43.4	-48.7	9.4	1.59e-02	0	61	0	341835776	57	7036
2026-01-24 00:31:46.58	343.72	34.14	-43.4	-48.7	9.4	1.61e-02	0	61	0	343932928	57	7038
2026-01-24 00:31:47.59	343.45	34.31	-43.4	-48.8	9.3	1.63e-02	0	61	0	346030080	57	7120
2026-01-24 00:31:48.60	343.18	34.47	-43.3	-48.5	9.7	1.21e-02	0	61	0	348127232	57	6828
2026-01-24 00:31:49.61	342.90	34.63	-43.3	-48.5	9.7	1.10e-02	0	61	0	350224384	57	6854
2026-01-24 00:31:50.62	342.62	34.79	-43.3	-48.5	9.7	1.13e-02	0	61	0	351272960	57	6879
2026-01-24 00:31:51.63	342.34	34.95	-43.3	-48.6	9.6	1.11e-02	0	61	0	353370112	57	6882
2026-01-24 00:31:52.64	342.06	35.11	-43.3	-48.6	9.7	1.21e-02	0	61	0	355467264	57	6924
2026-01-24 00:31:53.64	341.77	35.27	-43.3	-48.5	9.7	1.22e-02	0	61	0	357564416	57	6835
2026-01-24 00:31:54.65	341.48	35.43	-43.2	-48.2	10.0	9.24e-03	0	61	0	359661568	57	6634
2026-01-24 00:31:55.66	341.19	35.59	-43.1	-48.1	10.2	6.85e-03	0	61	0	360710144	57	6503
2026-01-24 00:31:56.67	340.90	35.76	-43.1	-47.9	10.4	4.71e-03	0	61	0	362807296	57	6406
2026-01-24 00:31:57.68	340.60	35.92	-43.0	-47.6	10.6	3.39e-03	0	61	0	364904448	57	6180
2026-01-24 00:31:58.69	340.30	36.08	-43.0	-47.6	10.7	3.35e-03	0	61	0	367001600	57	6199
2026-01-24 00:31:59.70	339.99	36.24	-43.0	-47.8	10.5	3.57e-03	0	61	0	369098752	57	6284
2026-01-24 00:32:00.71	339.68	36.40	-43.0	-47.7	10.7	3.83e-03	0	61	0	370147328	57	6213
2026-01-24 00:32:01.72	339.37	36.56	-43.0	-47.8	10.6	3.23e-03	0	61	0	372244480	57	6287
2026-01-24 00:32:02.73	339.06	36.72	-43.0	-47.7	10.6	3.10e-03	0	61	0	374341632	57	6237
2026-01-24 00:32:03.74	338.74	36.88	-42.9	-47.4	10.9	2.38e-03	0	61	0	376438784	57	6049
2026-01-24 00:32:04.75	338.42	37.04	-42.9	-47.4	10.9	2.25e-03	0	61	0	378535936	57	6046
2026-01-24 00:32:05.76	338.10	37.20	-42.9	-47.5	10.9	2.24e-03	0	61	0	379584512	57	6101
2026-01-24 00:32:06.77	337.77	37.36	-42.8	-47.2	11.2	1.72e-03	0	61	0	381681664	57	5864
2026-01-24 00:32:07.78	337.44	37.52	-42.7	-47.0	11.3	1.08e-03	0	61	0	383778816	57	5767
2026-01-24 00:32:08.78	337.11	37.68	-42.7	-47.0	11.3	8.69e-04	0	61	0	385875968	57	5787
2026-01-24 00:32:09.79	336.78	37.84	-42.8	-47.2	11.2	1.22e-03	0	61	0	387973120	57	5887
2026-01-24 00:32:10.80	336.44	38.00	-43.0	-47.6	10.8	2.15e-03	0	61	0	389021696	57	6133
2026-01-24 00:32:11.81	336.09	38.16	-43.0	-47.6	10.7	3.02e-03	0	61	0	391118848	57	6178
2026-01-24 00:32:12.82	335.75	38.31	-42.9	-47.5	10.8	2.54e-03	0	61	0	393216000	57	6078
2026-01-24 00:32:13.83	335.40	38.47	-42.9	-47.3	11.1	1.89e-03	0	61	0	395313152	57	5965
2026-01-24 00:32:14.84	335.04	38.63	-42.9	-47.4	11.0	1.95e-03	0	61	0	397410304	57	6010
2026-01-24 00:32:15.85	334.69	38.78	-43.0	-47.5	10.9	2.25e-03	0	61	0	398458880	57	6108
2026-01-24 00:32:16.86	334.33	38.94	-43.0	-47.5	10.8	2.42e-03	0	61	0	400556032	57	6099
2026-01-24 00:32:17.87	333.96	39.09	-43.0	-47.6	10.8	2.69e-03	0	61	0	402653184	57	6148
2026-01-24 00:32:18.88	333.60	39.25	-42.8	-47.2	11.0	2.02e-03	0	61	0	404750336	57	5916
2026-01-24 00:32:19.89	333.23	39.40	-42.9	-47.3	11.0	1.47e-03	0	61	0	406847488	57	5976
2026-01-24 00:32:20.89	332.86	39.55	-43.0	-47.6	10.8	2.44e-03	0	61	0	407896064	57	6173
2026-01-24 00:32:21.90	332.48	39.70	-43.1	-47.9	10.4	3.92e-03	0	61	0	409993216	57	6365
2026-01-24 00:32:22.91	332.10	39.85	-43.3	-48.2	10.1	6.02e-03	0	61	0	412090368	57	6631
2026-01-24 00:32:23.92	331.71	40.01	-43.3	-48.3	9.9	8.46e-03	0	61	0	414187520	57	6711
2026-01-24 00:32:24.93	331.32	40.15	-43.3	-48.3	10.0	7.97e-03	0	61	0	416284672	57	6693
2026-01-24 00:32:25.94	330.93	40.30	-43.2	-48.2	10.1	7.05e-03	0	61	0	417333248	57	6626
2026-01-24 00:32:26.95	330.54	40.45	-43.3	-48.3	9.9	8.12e-03	0	61	0	419430400	57	6710
2026-01-24 00:32:27.96	330.14	40.60	-43.3	-48.4	9.9	9.40e-03	0	61	0	421527552	57	6726
2026-01-24 00:32:28.97	329.73	40.74	-43.4	-48.6	9.6	1.06e-02	0	61	0	423624704	57	6934
2026-01-24 00:32:29.98	329.33	40.89	-43.3	-48.4	9.8	1.03e-02	0	61	0	425721856	57	6765
2026-01-24 00:32:30.99	328.92	41.03	-43.2	-48.1	10.2	6.73e-03	0	61	0	426770432	57	6546
2026-01-24 00:32:32.00	328.50	41.18	-43.2	-48.0	10.4	5.33e-03	0	61	0	428867584	57	6442
2026-01-24 00:32:33.01	328.08	41.32	-43.0	-47.7	10.6	4.09e-03	0	61	0	430964736	57	6244
2026-01-24 00:32:34.01	327.67	41.46	-42.8	-47.1	11.2	2.22e-03	0	61	0	433061888	57	5838
2026-01-24 00:32:35.02	327.24	41.60	-42.5	-46.4	12.0	6.48e-04	0	61	0	435159040	56	5666
2026-01-24 00:32:36.03	326.81	41.73	-42.4	-46.2	12.2	2.19e-04	0	61	0	437256192	56	5580
2026-01-24 00:32:37.04	326.38	41.87	-42.3	-46.1	12.3	1.91e-04	0	61	0	438304768	56	5512
2026-01-24 00:32:38.05	325.95	42.00	-42.3	-46.0	12.4	1.72e-04	0	61	0	440401920	56	5433
2026-01-24 00:32:39.06	325.51	42.14	-42.2	-45.9	12.5	1.40e-04	0	61	0	442499072	56	5361
2026-01-24 00:32:40.07	325.06	42.27	-42.1	-45.8	12.7	1.07e-04	0	61	0	444596224	56	5283
2026-01-24 00:32:41.08	324.62	42.40	-42.0	-45.4	13.0	6.17e-05	0	61	0	446693376	56	5096
2026-01-24 00:32:42.09	324.16	42.53	-41.8	-45.2	13.1	2.44e-05	0	61	0	447741952	55	5241
2026-01-24 00:32:43.10	323.71	42.66	-41.8	-45.2	13.0	4.42e-05	0	61	0	449839104	55	5253
2026-01-24 00:32:44.11	323.25	42.79	-41.7	-45.0	13.2	2.59e-05	0	61	0	451936256	55	5154
2026-01-24 00:32:45.12	322.79	42.91	-41.7	-45.0	13.2	1.90e-05	0	61	0	454033408	55	5128
2026-01-24 00:32:46.13	322.32	43.03	-41.8	-45.2	13.1	2.82e-05	0	61	0	456130560	55	5259
2026-01-24 00:32:47.14	321.86	43.15	-41.8	-45.3	13.0	3.28e-05	0	61	0	457179136	55	5300
2026-01-24 00:32:48.15	321.38	43.27	-41.8	-45.3	13.0	4.19e-05	0	61	0	459276288	55	5295
2026-01-24 00:32:49.16	320.91	43.39	-41.8	-45.2	13.0	3.50e-05	0	61	0	461373440	55	5248
2026-01-24 00:32:50.17	320.43	43.51	-41.8	-45.2	13.2	3.05e-05	0	61	0	463470592	55	5224
2026-01-24 00:32:51.18	319.95	43.62	-41.8	-45.2	13.2	1.67e-05	0	61	0	465567744	55	5226
2026-01-24 00:32:52.19	319.46	43.73	-41.8	-45.3	13.0	2.05e-05	0	61	0	466616320	55	5294
2026-01-24 00:32:53.20	318.97	43.84	-41.9	-45.3	13.0	2.74e-05	0	61	0	468713472	55	5329
2026-01-24 00:32:54.21	318.48	43.95	-41.9	-45.4	12.9	5.11e-05	0	61	0	470810624	55	5358
2026-01-24 00:32:55.22	317.98	44.05	-42.1	-45.8	12.4	9.46e-05	0	61	0	472907776	55	5637
2026-01-24 00:32:56.22	317.48	44.16	-42.4	-46.4	11.7	3.73e-04	0	61	0	475004928	55	6051
2026-01-24 00:32:57.23	316.98	44.26	-42.4	-46.4	11.8	4.35e-04	0	61	0	476053504	55	6036
2026-01-24 00:32:58.24	316.48	44.36	-42.3	-46.3	11.9	4.19e-04	0	61	0	478150656	55	5932
2026-01-24 00:32:59.25	315.97	44.45	-42.3	-46.2	12.1	3.26e-04	0	61	0	480247808	55	5919
2026-01-24 00:33:00.26	315.45	44.55	-42.3	-46.2	12.0	3.04e-04	0	61	0	482344960	55	5911
2026-01-24 00:33:01.26	314.94	44.64	-42.4	-46.4	11.8	4.60e-04	0	61	0	484442112	55	6020
2026-01-24 00:33:02.27	314.43	44.73	-42.5	-46.5	11.7	5.05e-04	0	61	0	485490688	55	6126
2026-01-24 00:33:03.28	313.90	44.81	-42.6	-46.8	11.4	8.04e-04	0	61	0	487587840	55	6298
2026-01-24 00:33:04.29	313.38	44.90	-42.6	-46.7	11.4	1.03e-03	0	61	0	489684992	55	6257
2026-01-24 00:33:05.30	312.85	44.98	-42.5	-46.7	11.5	9.09e-04	0	61	0	491782144	55	6233
2026-01-24 00:33:06.31	312.32	45.06	-42.6	-46.9	11.3	1.03e-03	0	61	0	493879296	55	6367
2026-01-24 00:33:07.32	311.79	45.14	-42.6	-46.9	11.3	1.28e-03	0	61	0	494927872	55	6407
2026-01-24 00:33:08.33	311.26	45.21	-42.6	-46.9	11.4	1.29e-03	0	61	0	497025024	55	6351
2026-01-24 00:33:09.34	310.72	45.29	-42.5	-46.7	11.5	8.58e-04	0	61	0	499122176	55	6229
2026-01-24 00:33:10.35	310.18	45.35	-42.6	-46.7	11.5	8.30e-04	0	61	0	501219328	55	6268
2026-01-24 00:33:11.36	309.64	45.42	-42.5	-46.6	11.6	8.56e-04	0	61	0	503316480	55	6157
2026-01-24 00:33:12.37	309.09	45.48	-42.4	-46.5	11.7	5.64e-04	0	61	0	505413632	55	6091
2026-01-24 00:33:13.38	308.55	45.55	-42.6	-46.8	11.4	9.40e-04	0	61	0	506462208	55	6313
2026-01-24 00:33:14.38	308.00	45.60	-42.7	-47.1	11.1	1.38e-03	0	61	0	508559360	55	6510
2026-01-24 00:33:15.39	307.45	45.66	-43.0	-47.5	10.8	1.85e-03	0	61	0	510656512	56	6447
2026-01-24 00:33:16.40	306.90	45.71	-43.0	-47.5	10.8	2.86e-03	0	61	0	512753664	56	6491
2026-01-24 00:33:17.41	306.34	45.76	-43.0	-47.6	10.8	2.59e-03	0	61	0	514850816	56	6508
2026-01-24 00:33:18.42	305.79	45.81	-43.0	-47.6	10.6	3.34e-03	0	61	0	515899392	56	6563
2026-01-24 00:33:19.43	305.23	45.85	-43.1	-47.9	10.4	4.23e-03	0	61	0	517996544	56	6748
2026-01-24 00:33:20.44	304.67	45.89	-43.1	-47.9	10.4	4.76e-03	0	61	0	520093696	56	6728
2026-01-24 00:33:21.45	304.11	45.93	-43.1	-47.9	10.4	4.73e-03	0	61	0	522190848	56	6779
2026-01-24 00:33:22.46	303.55	45.96	-43.1	-47.9	10.4	3.96e-03	0	61	0	524288000	56	6765
2026-01-24 00:33:23.47	302.99	46.00	-43.1	-47.8	10.5	3.37e-03	0	61	0	525336576	56	6671
2026-01-24 00:33:24.47	302.43	46.02	-43.2	-48.1	10.2	5.42e-03	0	61	0	527433728	56	6923
2026-01-24 00:33:25.49	301.86	46.05	-43.3	-48.5	9.8	7.85e-03	0	61	0	529530880	57	6814
2026-01-24 00:33:26.50	301.29	46.07	-43.3	-48.5	9.8	1.12e-02	0	61	0	531628032	57	6804
2026-01-24 00:33:27.51	300.72	46.09	-43.3	-48.3	10.0	1.03e-02	0	61	0	533725184	57	6666
2026-01-24 00:33:28.51	300.16	46.11	-43.1	-47.9	10.5	4.43e-03	0	61	0	534773760	57	6371
2026-01-24 00:33:29.53	299.59	46.12	-43.0	-47.7	10.6	3.45e-03	0	61	0	536870912	57	6232
2026-01-24 00:33:30.53	299.02	46.13	-43.1	-47.9	10.4	3.97e-03	0	61	0	538968064	57	6369
2026-01-24 00:33:31.54	298.46	46.14	-43.2	-48.0	10.3	4.88e-03	0	61	0	541065216	57	6450
2026-01-24 00:33:32.55	297.89	46.14	-43.2	-48.1	10.2	5.52e-03	0	61	0	543162368	57	6505
2026-01-24 00:33:33.56	297.32	46.14	-43.2	-48.0	10.2	5.48e-03	0	61	0	544210944	57	6483
2026-01-24 00:33:34.57	296.75	46.14	-43.2	-48.0	10.3	5.55e-03	0	61	0	546308096	57	6467
2026-01-24 00:33:35.58	296.18	46.14	-43.1	-47.8	10.5	4.94e-03	0	61	0	548405248	57	6312
2026-01-24 00:33:36.59	295.61	46.13	-43.0	-47.5	10.8	2.96e-03	0	61	0	550502400	57	6116
2026-01-24 00:33:37.60	295.04	46.12	-42.9	-47.5	10.9	2.47e-03	0	61	0	552599552	57	6077
2026-01-24 00:33:38.61	294.47	46.10	-43.1	-47.7	10.6	3.43e-03	0	61	0	553648128	57	6256
2026-01-24 00:33:39.62	293.91	46.08	-43.1	-47.8	10.4	3.92e-03	0	61	0	555745280	57	6345
2026-01-24 00:33:40.63	293.34	46.06	-43.1	-47.8	10.5	4.16e-03	0	61	0	557842432	57	6296
2026-01-24 00:33:41.64	292.77	46.04	-43.1	-47.9	10.4	4.51e-03	0	61	0	559939584	57	6393
2026-01-24 00:33:42.64	292.21	46.01	-43.2	-48.1	10.2	5.93e-03	0	61	0	562036736	57	6529
2026-01-24 00:33:43.65	291.65	45.98	-43.2	-48.2	10.0	7.28e-03	0	61	0	563085312	57	6608
2026-01-24 00:33:44.66	291.09	45.95	-43.3	-48.3	10.0	9.50e-03	0	61	0	565182464	57	6682
2026-01-24 00:33:45.67	290.53	45.91	-43.3	-48.2	10.0	8.44e-03	0	61	0	567279616	57	6636
2026-01-24 00:33:46.68	289.97	45.87	-43.2	-48.0	10.3	6.93e-03	0	61	0	569376768	57	6480
2026-01-24 00:33:47.69	289.41	45.83	-43.2	-48.0	10.3	4.37e-03	0	61	0	571473920	57	6465
2026-01-24 00:33:48.70	288.85	45.79	-43.1	-47.9	10.4	4.48e-03	0	61	0	573571072	57	6408
2026-01-24 00:33:49.71	288.29	45.74	-43.3	-48.3	10.0	6.03e-03	0	61	0	574619648	57	6672
2026-01-24 00:33:50.72	287.74	45.69	-43.3	-48.3	9.9	7.68e-03	0	61	0	576716800	57	6682
2026-01-24 00:33:51.73	287.19	45.63	-43.4	-48.7	9.6	1.10e-02	0	61	0	578813952	57	6978
2026-01-24 00:33:52.74	286.64	45.58	-43.6	-49.3	9.0	2.17e-02	0	61	0	580911104	57	7498
2026-01-24 00:33:53.75	286.09	45.52	-43.8	-49.7	8.5	3.84e-02	0	61	0	583008256	58	7421
2026-01-24 00:33:54.76	285.54	45.46	-43.6	-49.2	9.0	3.38e-02	0	61	0	584056832	58	6983
2026-01-24 00:33:55.77	285.00	45.39	-43.5	-48.9	9.3	2.20e-02	0	61	0	586153984	58	6752
2026-01-24 00:33:56.78	284.46	45.32	-43.5	-48.7	9.5	1.23e-02	0	61	0	588251136	58	6639
2026-01-24 00:33:57.79	283.92	45.25	-43.5	-49.0	9.2	1.72e-02	0	61	0	590348288	58	6866
2026-01-24 00:33:58.80	283.38	45.18	-43.5	-49.1	9.2	2.07e-02	0	61	0	591396864	58	6887
2026-01-24 00:33:59.80	282.85	45.10	-43.6	-49.3	8.9	2.44e-02	0	61	0	593494016	58	7069
2026-01-24 00:34:00.81	282.32	45.03	-43.5	-49.0	9.2	2.19e-02	0	61	0	595591168	58	6833
2026-01-24 00:34:01.82	281.79	44.94	-43.3	-48.4	9.8	1.42e-02	0	61	0	597688320	58	6393
2026-01-24 00:34:02.83	281.26	44.86	-43.2	-48.0	10.3	6.29e-03	0	61	0	599785472	58	6099
2026-01-24 00:34:03.84	280.74	44.77	-43.1	-47.9	10.4	5.03e-03	0	61	0	601882624	58	6018
2026-01-24 00:34:04.85	280.22	44.69	-43.1	-47.9	10.5	4.04e-03	0	61	0	602931200	58	6001
2026-01-24 00:34:05.86	279.70	44.60	-43.2	-47.9	10.4	4.71e-03	0	61	0	605028352	58	6059
2026-01-24 00:34:06.87	279.19	44.50	-43.1	-47.9	10.3	5.27e-03	0	61	0	607125504	58	6048
2026-01-24 00:34:07.88	278.67	44.41	-43.1	-47.8	10.6	4.49e-03	0	61	0	609222656	58	5945
2026-01-24 00:34:08.89	278.17	44.31	-42.9	-47.4	10.9	2.36e-03	0	61	0	611319808	57	6010
2026-01-24 00:34:09.90	277.66	44.21	-42.7	-46.9	11.5	1.64e-03	0	61	0	612368384	57	5691
2026-01-24 00:34:10.91	277.16	44.11	-42.7	-46.9	11.5	6.30e-04	0	61	0	614465536	57	5668
2026-01-24 00:34:11.92	276.66	44.00	-42.3	-46.1	12.2	3.07e-04	0	61	0	616562688	56	5509
2026-01-24 00:34:12.93	276.16	43.89	-42.3	-46.1	12.3	1.96e-04	0	61	0	618659840	56	5507
2026-01-24 00:34:13.93	275.68	43.79	-42.3	-46.1	12.3	1.81e-04	0	61	0	620756992	56	5468
2026-01-24 00:34:14.94	275.19	43.68	-42.4	-46.3	12.1	2.10e-04	0	61	0	621805568	56	5607
2026-01-24 00:34:15.95	274.70	43.56	-42.5	-46.4	11.9	3.25e-04	0	61	0	623902720	56	5699
2026-01-24 00:34:16.96	274.22	43.45	-42.5	-46.5	11.9	4.52e-04	0	61	0	625999872	56	5736
2026-01-24 00:34:17.97	273.74	43.33	-42.3	-46.1	12.2	3.12e-04	0	61	0	628097024	56	5524
2026-01-24 00:34:18.98	273.26	43.21	-42.2	-45.9	12.4	1.34e-04	0	61	0	630194176	56	5391
2026-01-24 00:34:19.99	272.79	43.09	-42.0	-45.5	12.8	1.11e-04	0	61	0	631242752	56	5157
2026-01-24 00:34:21.00	272.32	42.97	-41.6	-45.0	13.3	3.05e-05	0	61	0	633339904	55	5112
2026-01-24 00:34:22.01	271.86	42.85	-41.4	-44.6	13.7	1.06e-05	0	61	0	635437056	54	5199
2026-01-24 00:34:23.02	271.40	42.72	-41.2	-44.2	14.0	2.20e-06	0	61	0	637534208	54	4983
2026-01-24 00:34:24.03	270.94	42.59	-41.2	-44.2	14.1	1.50e-06	0	61	0	639631360	54	4951
2026-01-24 00:34:25.04	270.49	42.46	-41.2	-44.3	14.0	4.50e-06	0	61	0	640679936	54	5015
2026-01-24 00:34:26.05	270.04	42.33	-41.2	-44.2	14.1	3.80e-06	0	61	0	642777088	54	4936
2026-01-24 00:34:27.06	269.59	42.20	-41.0	-43.9	14.3	7.00e-07	0	61	0	644874240	54	4798
2026-01-24 00:34:28.07	269.15	42.07	-40.9	-43.7	14.5	7.00e-07	0	61	0	646971392	53	4959
2026-01-24 00:34:29.08	268.71	41.93	-40.7	-43.4	14.9	0.00e+00	0	61	0	649068544	53	4773
2026-01-24 00:34:30.09	268.27	41.80	-40.5	-43.2	15.1	7.00e-07	0	61	0	650117120	53	4661
2026-01-24 00:34:31.10	267.84	41.66	-40.4	-43.0	15.2	0.00e+00	0	61	0	652214272	52	4862
2026-01-24 00:34:32.11	267.41	41.52	-40.5	-43.0	15.2	0.00e+00	0	62	0	654311424	52	4864
2026-01-24 00:34:33.12	266.99	41.38	-40.6	-43.3	15.0	0.00e+00	0	61	0	656408576	52	4987
2026-01-24 00:34:34.13	266.57	41.24	-40.8	-43.5	14.7	0.00e+00	0	61	0	658505728	52	5155
2026-01-24 00:34:35.14	266.15	41.10	-40.8	-43.7	14.6	7.00e-07	0	61	0	659554304	52	5223
2026-01-24 00:34:36.15	265.74	40.95	-40.8	-43.6	14.7	0.00e+00	0	61	0	661651456	52	5174
2026-01-24 00:34:37.16	265.33	40.81	-40.8	-43.6	14.6	0.00e+00	0	61	0	663748608	52	5215
2026-01-24 00:34:38.17	264.92	40.66	-40.9	-43.7	14.5	0.00e+00	0	61	0	665845760	52	5276
2026-01-24 00:34:39.18	264.52	40.52	-40.9	-43.7	14.5	1.50e-06	0	61	0	667942912	52	5268
2026-01-24 00:34:40.19	264.12	40.37	-40.9	-43.7	14.5	0.00e+00	0	61	0	670040064	52	5249
2026-01-24 00:34:41.20	263.73	40.22	-40.8	-43.5	14.7	0.00e+00	0	61	0	671088640	52	5144
2026-01-24 00:34:42.21	263.33	40.07	-40.6	-43.3	14.9	0.00e+00	0	61	0	673185792	52	5013
2026-01-24 00:34:43.22	262.95	39.92	-40.8	-43.6	14.6	0.00e+00	0	61	0	675282944	52	5212
2026-01-24 00:34:44.23	262.56	39.77	-40.8	-43.6	14.6	7.00e-07	0	61	0	677380096	52	5179
2026-01-24 00:34:45.24	262.18	39.62	-40.9	-43.8	14.5	1.50e-06	0	61	0	679477248	52	5301
2026-01-24 00:34:46.25	261.80	39.46	-41.0	-43.9	14.3	7.00e-07	0	61	0	680525824	52	5354
2026-01-24 00:34:47.25	261.44	39.31	-41.0	-43.9	14.3	7.00e-07	0	61	0	682622976	52	5362
2026-01-24 00:34:48.26	261.07	39.16	-40.9	-43.7	14.5	0.00e+00	0	61	0	684720128	52	5277
2026-01-24 00:34:49.27	260.70	39.00	-40.8	-43.5	14.7	0.00e+00	0	61	0	686817280	52	5144
2026-01-24 00:34:50.29	260.33	38.84	-40.7	-43.4	14.8	7.00e-07	0	61	0	688914432	52	5085
2026-01-24 00:34:51.29	259.98	38.69	-40.8	-43.6	14.6	0.00e+00	0	61	0	689963008	52	5170
2026-01-24 00:34:52.31	259.62	38.53	-40.8	-43.7	14.6	0.00e+00	0	61	0	692060160	52	5230
2026-01-24 00:34:53.32	259.26	38.37	-40.9	-43.8	14.4	7.00e-07	0	61	0	694157312	52	5321
2026-01-24 00:34:54.32	258.92	38.22	-41.0	-44.0	14.2	7.00e-07	0	61	0	696254464	52	5428
2026-01-24 00:34:55.33	258.57	38.06	-41.1	-44.2	14.0	7.00e-07	0	61	0	698351616	52	5540
2026-01-24 00:34:56.34	258.23	37.90	-41.2	-44.2	14.0	2.20e-06	0	61	0	699400192	52	5549
2026-01-24 00:34:57.35	257.89	37.74	-41.2	-44.3	13.9	2.20e-06	0	61	0	701497344	52	5618
2026-01-24 00:34:58.36	257.56	37.58	-41.3	-44.4	13.8	2.20e-06	0	61	0	703594496	53	5367
2026-01-24 00:34:59.37	257.22	37.42	-41.3	-44.5	13.6	9.10e-06	0	61	0	705691648	53	5442
2026-01-24 00:35:00.38	256.89	37.26	-41.5	-44.7	13.4	1.14e-05	0	61	0	707788800	53	5579
2026-01-24 00:35:01.39	256.57	37.10	-41.5	-44.8	13.4	1.52e-05	0	61	0	708837376	53	5612
2026-01-24 00:35:02.41	256.24	36.94	-41.6	-45.0	13.3	1.29e-05	0	61	0	710934528	53	5751
2026-01-24 00:35:03.42	255.92	36.78	-41.6	-45.0	13.2	3.05e-05	0	61	0	713031680	53	5758
2026-01-24 00:35:04.43	255.61	36.62	-41.6	-45.0	13.2	2.59e-05	0	61	0	715128832	53	5767
2026-01-24 00:35:05.43	255.29	36.46	-41.6	-44.9	13.3	1.83e-05	0	61	0	717225984	53	5692
2026-01-24 00:35:06.45	254.98	36.29	-41.6	-44.9	13.2	2.36e-05	0	61	0	718274560	53	5716
2026-01-24 00:35:07.45	254.68	36.13	-41.6	-45.0	13.1	3.28e-05	0	61	0	720371712	53	5768
2026-01-24 00:35:08.46	254.37	35.97	-41.7	-45.1	13.0	3.73e-05	0	61	0	722468864	53	5846
2026-01-24 00:35:09.47	254.07	35.81	-41.9	-45.5	12.7	5.79e-05	0	61	0	724566016	54	5752
2026-01-24 00:35:10.48	253.77	35.65	-42.1	-46.0	12.2	1.45e-04	0	61	0	726663168	54	6078
2026-01-24 00:35:11.49	253.48	35.48	-42.3	-46.4	11.7	3.88e-04	0	61	0	727711744	55	6050
2026-01-24 00:35:12.50	253.19	35.32	-42.5	-46.7	11.5	7.55e-04	0	61	0	729808896	55	6212
2026-01-24 00:35:13.51	252.90	35.16	-42.4	-46.5	11.6	7.86e-04	0	61	0	731906048	55	6090
2026-01-24 00:35:14.52	252.61	35.00	-42.3	-46.4	11.7	6.10e-04	0	61	0	734003200	55	6033
2026-01-24 00:35:15.53	252.33	34.84	-42.3	-46.3	11.8	4.66e-04	0	62	0	736100352	55	5964
2026-01-24 00:35:16.54	252.05	34.67	-42.4	-46.5	11.7	6.26e-04	0	61	0	738197504	55	6089
2026-01-24 00:35:17.55	251.77	34.51	-42.5	-46.8	11.2	9.25e-04	0	61	0	739246080	55	6300
2026-01-24 00:35:18.56	251.49	34.35	-42.9	-47.5	10.8	1.62e-03	0	61	0	741343232	56	6446
2026-01-24 00:35:19.57	251.22	34.19	-43.1	-47.9	10.3	4.39e-03	0	61	0	743440384	56	6790
2026-01-24 00:35:20.58	250.95	34.03	-43.1	-48.2	10.0	6.02e-03	0	61	0	745537536	56	6980
2026-01-24 00:35:21.59	250.68	33.86	-43.2	-48.2	10.0	8.28e-03	0	61	0	747634688	56	6987
2026-01-24 00:35:22.60	250.42	33.70	-43.2	-48.2	10.0	8.05e-03	0	61	0	748683264	56	7024
2026-01-24 00:35:23.61	250.16	33.54	-43.2	-48.2	10.0	8.37e-03	0	61	0	750780416	56	7010
2026-01-24 00:35:24.61	249.90	33.38	-43.2	-48.2	9.9	8.00e-03	0	61	0	752877568	56	7012
2026-01-24 00:35:25.62	249.64	33.22	-43.2	-48.4	9.7	9.90e-03	0	61	0	754974720	57	6770
2026-01-24 00:35:26.63	249.39	33.06	-43.3	-48.7	9.5	1.16e-02	0	61	0	757071872	57	6971
2026-01-24 00:35:27.64	249.14	32.90	-43.4	-48.9	9.3	1.72e-02	0	61	0	758120448	57	7172
2026-01-24 00:35:28.65	248.89	32.74	-43.4	-48.9	9.3	1.64e-02	0	62	0	760217600	57	7129
2026-01-24 00:35:29.66	248.64	32.58	-43.4	-48.9	9.3	1.83e-02	0	61	0	762314752	57	7136
2026-01-24 00:35:30.67	248.40	32.42	-43.4	-49.0	9.1	1.92e-02	0	61	0	764411904	57	7259
2026-01-24 00:35:31.68	248.16	32.26	-43.5	-49.2	8.9	2.26e-02	0	61	0	766509056	57	7411
2026-01-24 00:35:32.69	247.92	32.10	-43.5	-49.2	8.9	2.68e-02	0	61	0	767557632	57	7437
2026-01-24 00:35:33.70	247.68	31.94	-43.5	-49.1	9.1	2.72e-02	0	61	0	769654784	57	7289
2026-01-24 00:35:34.71	247.45	31.78	-43.4	-48.9	9.2	1.95e-02	0	61	0	771751936	57	7174
2026-01-24 00:35:35.72	247.21	31.62	-43.3	-48.6	9.5	1.54e-02	0	62	0	773849088	57	6926
2026-01-24 00:35:36.73	246.98	31.47	-43.2	-48.2	9.9	1.04e-02	0	62	0	775946240	57	6627
2026-01-24 00:35:37.73	246.76	31.31	-43.2	-48.2	9.9	9.24e-03	0	61	0	776994816	57	6646
2026-01-24 00:35:38.75	246.53	31.15	-43.2	-48.2	10.0	8.50e-03	0	61	0	779091968	57	6600
2026-01-24 00:35:39.76	246.31	30.99	-43.2	-48.5	9.7	1.01e-02	0	61	0	781189120	57	6802
2026-01-24 00:35:40.77	246.08	30.84	-43.2	-48.4	9.7	9.46e-03	0	61	0	783286272	57	6784
2026-01-24 00:35:41.78	245.87	30.68	-43.3	-48.5	9.6	1.25e-02	0	62	0	785383424	57	6871
2026-01-24 00:35:42.78	245.65	30.53	-43.2	-48.4	9.8	9.33e-03	0	61	0	786432000	57	6724
2026-01-24 00:35:43.79	245.44	30.37	-43.2	-48.5	9.7	1.05e-02	0	61	0	788529152	57	6828
2026-01-24 00:35:44.80	245.22	30.22	-43.2	-48.3	9.8	1.01e-02	0	61	0	790626304	57	6712
2026-01-24 00:35:45.81	245.01	30.06	-43.2	-48.4	9.7	1.05e-02	0	62	0	792723456	57	6753
2026-01-24 00:35:46.82	244.80	29.91	-43.2	-48.3	9.9	1.12e-02	0	62	0	794820608	57	6666
2026-01-24 00:35:47.83	244.60	29.75	-43.0	-47.9	10.2	8.81e-03	0	62	0	795869184	57	6409
2026-01-24 00:35:48.84	244.39	29.60	-42.9	-47.7	10.5	3.93e-03	0	61	0	797966336	57	6244
2026-01-24 00:35:49.85	244.19	29.45	-42.9	-47.5	10.6	3.58e-03	0	62	0	800063488	57	6121
2026-01-24 00:35:50.86	243.99	29.29	-42.8	-47.4	10.8	3.26e-03	0	62	0	802160640	57	6041
2026-01-24 00:35:51.87	243.79	29.14	-42.8	-47.4	10.8	2.43e-03	0	62	0	804257792	57	6003
2026-01-24 00:35:52.88	243.59	28.99	-42.8	-47.4	10.8	2.84e-03	0	62	0	806354944	57	6017
2026-01-24 00:35:53.89	243.40	28.84	-42.7	-47.3	10.9	2.20e-03	0	61	0	807403520	57	5931
2026-01-24 00:35:54.89	243.20	28.69	-42.8	-47.4	10.8	2.36e-03	0	61	0	809500672	57	6039
2026-01-24 00:35:55.90	243.01	28.54	-42.8	-47.4	10.8	2.81e-03	0	62	0	811597824	57	6039
2026-01-24 00:35:56.91	242.82	28.39	-42.8	-47.4	10.8	2.62e-03	0	61	0	813694976	57	6022
2026-01-24 00:35:57.92	242.63	28.24	-42.7	-47.1	11.1	1.89e-03	0	61	0	815792128	57	5849
2026-01-24 00:35:58.94	242.45	28.09	-42.7	-47.1	11.1	1.80e-03	0	61	0	816840704	57	5790
2026-01-24 00:35:59.94	242.26	27.94	-42.6	-46.9	11.3	1.24e-03	0	61	0	818937856	57	5686
2026-01-24 00:36:00.95	242.08	27.79	-42.5	-46.7	11.5	9.54e-04	0	62	0	821035008	57	5591
2026-01-24 00:36:01.96	241.90	27.64	-42.5	-46.6	11.6	7.29e-04	0	62	0	823132160	56	5844
2026-01-24 00:36:02.97	241.72	27.50	-42.5	-46.8	11.4	7.30e-04	0	61	0	825229312	56	5947
2026-01-24 00:36:03.98	241.54	27.35	-42.5	-46.7	11.6	1.03e-03	0	62	0	826277888	56	5874
2026-01-24 00:36:04.99	241.37	27.20	-42.5	-46.7	11.6	7.18e-04	0	61	0	828375040	56	5860
2026-01-24 00:36:06.00	241.19	27.06	-42.5	-46.7	11.5	7.19e-04	0	62	0	830472192	56	5883
2026-01-24 00:36:07.01	241.02	26.91	-42.5	-46.7	11.5	8.19e-04	0	62	0	832569344	56	5874
2026-01-24 00:36:08.02	240.85	26.77	-42.5	-46.7	11.4	9.52e-04	0	62	0	834666496	56	5909
2026-01-24 00:36:09.03	240.68	26.62	-42.5	-46.7	11.5	7.72e-04	0	62	0	835715072	56	5895
2026-01-24 00:36:10.04	240.51	26.48	-42.5	-46.7	11.5	7.91e-04	0	61	0	837812224	56	5873
2026-01-24 00:36:11.05	240.34	26.33	-42.5	-46.7	11.4	9.13e-04	0	62	0	839909376	56	5907
2026-01-24 00:36:12.06	240.18	26.19	-42.5	-46.7	11.5	9.15e-04	0	61	0	842006528	56	5874
2026-01-24 00:36:13.07	240.01	26.05	-42.5	-46.7	11.5	9.51e-04	0	61	0	844103680	56	5864
2026-01-24 00:36:14.07	239.85	25.91	-42.4	-46.6	11.6	6.42e-04	0	61	0	845152256	56	5808
2026-01-24 00:36:15.09	239.69	25.77	-42.5	-46.7	11.5	9.30e-04	0	62	0	847249408	56	5884
2026-01-24 00:36:16.10	239.53	25.62	-42.6	-46.9	11.3	9.81e-04	0	62	0	849346560	56	6011
2026-01-24 00:36:17.11	239.37	25.48	-42.6	-46.9	11.2	1.27e-03	0	61	0	851443712	56	6022
2026-01-24 00:36:18.11	239.22	25.35	-42.6	-46.9	11.2	1.32e-03	0	61	0	853540864	56	6034
2026-01-24 00:36:19.12	239.06	25.21	-42.5	-46.9	11.3	1.36e-03	0	61	0	854589440	56	6005
2026-01-24 00:36:20.13	238.91	25.07	-42.5	-46.7	11.5	1.06e-03	0	62	0	856686592	56	5900
2026-01-24 00:36:21.14	238.76	24.93	-42.4	-46.6	11.6	7.53e-04	0	62	0	858783744	56	5808
2026-01-24 00:36:22.15	238.61	24.79	-42.3	-46.3	12.0	4.26e-04	0	62	0	860880896	56	5596
2026-01-24 00:36:23.16	238.46	24.65	-42.3	-46.2	12.0	4.28e-04	0	62	0	862978048	56	5585
2026-01-24 00:36:24.17	238.31	24.52	-42.3	-46.2	12.0	3.39e-04	0	61	0	864026624	56	5553
2026-01-24 00:36:25.18	238.16	24.38	-42.2	-46.1	12.1	3.01e-04	0	62	0	866123776	56	5472
2026-01-24 00:36:26.19	238.02	24.24	-42.2	-46.2	12.0	3.07e-04	0	61	0	868220928	56	5559
2026-01-24 00:36:27.20	237.87	24.11	-42.3	-46.3	11.9	4.01e-04	0	62	0	870318080	56	5637
2026-01-24 00:36:28.21	237.73	23.97	-42.3	-46.3	11.9	3.89e-04	0	62	0	872415232	56	5636
2026-01-24 00:36:29.22	237.59	23.84	-42.1	-46.0	12.1	3.17e-04	0	61	0	874512384	56	5456
2026-01-24 00:36:30.23	237.45	23.70	-42.1	-46.0	12.2	2.39e-04	0	62	0	875560960	56	5435
2026-01-24 00:36:31.24	237.31	23.57	-42.2	-46.2	12.0	2.78e-04	0	61	0	877658112	56	5532
2026-01-24 00:36:32.25	237.17	23.44	-42.3	-46.3	11.8	3.99e-04	0	61	0	879755264	56	5646
2026-01-24 00:36:33.26	237.03	23.31	-42.4	-46.5	11.7	4.48e-04	0	61	0	881852416	56	5752
2026-01-24 00:36:34.26	236.90	23.18	-42.4	-46.7	11.5	8.06e-04	0	62	0	883949568	56	5863
2026-01-24 00:36:35.27	236.76	23.04	-42.4	-46.7	11.4	9.18e-04	0	62	0	884998144	56	5890
2026-01-24 00:36:36.28	236.63	22.91	-42.4	-46.7	11.4	8.35e-04	0	62	0	887095296	56	5897
2026-01-24 00:36:37.29	236.50	22.78	-42.5	-46.8	11.3	1.11e-03	0	62	0	889192448	56	5968
2026-01-24 00:36:38.30	236.36	22.65	-42.5	-46.8	11.3	1.10e-03	0	61	0	891289600	56	5978
2026-01-24 00:36:39.31	236.23	22.52	-42.4	-46.7	11.4	9.90e-04	0	62	0	893386752	56	5898
2026-01-24 00:36:40.32	236.11	22.39	-42.4	-46.7	11.4	8.89e-04	0	62	0	894435328	56	5899
2026-01-24 00:36:41.33	235.98	22.27	-42.4	-46.7	11.4	9.31e-04	0	61	0	896532480	56	5860
2026-01-24 00:36:42.34	235.85	22.14	-42.5	-46.8	11.4	1.01e-03	0	61	0	898629632	56	5929
2026-01-24 00:36:43.35	235.72	22.01	-42.5	-46.8	11.3	1.13e-03	0	61	0	900726784	56	5966
2026-01-24 00:36:44.36	235.60	21.88	-42.5	-46.8	11.3	1.04e-03	0	61	0	902823936	56	5981
2026-01-24 00:36:45.37	235.48	21.76	-42.4	-46.7	11.5	9.90e-04	0	61	0	903872512	56	5859
2026-01-24 00:36:46.38	235.35	21.63	-42.4	-46.5	11.6	7.00e-04	0	62	0	905969664	56	5767
2026-01-24 00:36:47.39	235.23	21.50	-42.3	-46.4	11.7	5.67e-04	0	62	0	908066816	56	5664
2026-01-24 00:36:48.40	235.11	21.38	-42.2	-46.3	11.9	5.17e-04	0	62	0	910163968	56	5600
2026-01-24 00:36:49.41	234.99	21.25	-42.2	-46.2	11.9	4.49e-04	0	62	0	912261120	56	5585
2026-01-24 00:36:50.42	234.87	21.13	-42.2	-46.2	11.9	3.55e-04	0	62	0	913309696	56	5552
2026-01-24 00:36:51.43	234.75	21.01	-42.2	-46.2	11.9	4.10e-04	0	61	0	915406848	56	5574
2026-01-24 00:36:52.43	234.64	20.88	-42.2	-46.3	11.9	4.32e-04	0	61	0	917504000	56	5597
2026-01-24 00:36:53.44	234.52	20.76	-42.2	-46.3	11.8	5.09e-04	0	61	0	919601152	56	5646
2026-01-24 00:36:54.45	234.41	20.64	-42.4	-46.5	11.7	6.60e-04	0	62	0	921698304	56	5754
2026-01-24 00:36:55.46	234.29	20.52	-42.3	-46.3	11.8	4.88e-04	0	62	0	922746880	56	5647
2026-01-24 00:36:56.47	234.18	20.40	-42.3	-46.4	11.7	5.06e-04	0	62	0	924844032	56	5671
2026-01-24 00:36:57.48	234.07	20.28	-42.3	-46.5	11.7	6.16e-04	0	62	0	926941184	56	5727
2026-01-24 00:36:58.49	233.95	20.16	-42.3	-46.4	11.7	5.87e-04	0	62	0	929038336	56	5673
2026-01-24 00:36:59.50	233.84	20.04	-42.3	-46.4	11.7	5.77e-04	0	62	0	931135488	56	5665
2026-01-24 00:37:00.51	233.73	19.92	-42.3	-46.4	11.6	6.73e-04	0	61	0	932184064	56	5718
2026-01-24 00:37:01.52	233.63	19.80	-42.3	-46.4	11.7	6.30e-04	0	62	0	934281216	56	5688
2026-01-24 00:37:02.53	233.52	19.68	-42.3	-46.6	11.5	6.54e-04	0	61	0	936378368	56	5789
2026-01-24 00:37:03.54	233.41	19.56	-42.3	-46.4	11.6	7.83e-04	0	62	0	938475520	56	5692
2026-01-24 00:37:04.55	233.30	19.44	-42.2	-46.3	11.8	5.46e-04	0	62	0	940572672	56	5607
2026-01-24 00:37:05.56	233.20	19.33	-42.2	-46.3	11.8	5.16e-04	0	61	0	942669824	56	5600
2026-01-24 00:37:06.57	233.09	19.21	-42.2	-46.3	11.8	5.21e-04	0	62	0	943718400	56	5612
2026-01-24 00:37:07.58	232.99	19.09	-42.1	-46.1	12.0	5.01e-04	0	62	0	945815552	56	5509
2026-01-24 00:37:08.59	232.89	18.98	-42.1	-46.0	12.1	3.22e-04	0	62	0	947912704	56	5421
2026-01-24 00:37:09.60	232.78	18.86	-42.1	-46.1	11.9	3.31e-04	0	62	0	950009856	56	5516
2026-01-24 00:37:10.60	232.68	18.75	-42.2	-46.2	11.9	3.84e-04	0	61	0	952107008	56	5538
2026-01-24 00:37:11.62	232.58	18.63	-42.2	-46.2	11.8	3.78e-04	0	62	0	953155584	56	5571
2026-01-24 00:37:12.63	232.48	18.52	-42.2	-46.3	11.8	4.68e-04	0	62	0	955252736	56	5615
2026-01-24 00:37:13.63	232.38	18.40	-42.3	-46.5	11.6	6.35e-04	0	61	0	957349888	56	5743
2026-01-24 00:37:14.64	232.29	18.29	-42.3	-46.5	11.5	7.35e-04	0	62	0	959447040	56	5773
2026-01-24 00:37:15.66	232.19	18.18	-42.4	-46.7	11.4	9.47e-04	0	62	0	961544192	56	5870
2026-01-24 00:37:16.67	232.09	18.07	-42.4	-46.8	11.2	1.33e-03	0	62	0	962592768	56	5984
2026-01-24 00:37:17.67	232.00	17.95	-42.4	-46.7	11.3	1.39e-03	0	61	0	964689920	56	5921
2026-01-24 00:37:18.68	231.90	17.84	-42.4	-46.8	11.2	1.25e-03	0	61	0	966787072	56	5971
2026-01-24 00:37:19.69	231.80	17.73	-42.5	-46.9	11.1	1.35e-03	0	62	0	968884224	56	6008
2026-01-24 00:37:20.70	231.71	17.62	-42.4	-46.7	11.3	1.39e-03	0	61	0	970981376	56	5922
2026-01-24 00:37:21.71	231.62	17.51	-42.4	-46.7	11.3	1.12e-03	0	61	0	972029952	56	5870
2026-01-24 00:37:22.72	231.52	17.40	-42.4	-46.7	11.3	1.12e-03	0	62	0	974127104	56	5908
2026-01-24 00:37:23.73	231.43	17.29	-42.3	-46.6	11.4	1.05e-03	0	62	0	976224256	56	5833
2026-01-24 00:37:24.74	231.34	17.18	-42.3	-46.5	11.5	8.69e-04	0	62	0	978321408	56	5752
2026-01-24 00:37:25.75	231.25	17.07	-42.3	-46.5	11.6	7.14e-04	0	62	0	980418560	56	5727
2026-01-24 00:37:26.76	231.16	16.97	-42.2	-46.4	11.7	6.41e-04	0	61	0	981467136	56	5658
2026-01-24 00:37:27.77	231.07	16.86	-42.2	-46.4	11.6	6.13e-04	0	62	0	983564288	56	5690
2026-01-24 00:37:28.78	230.98	16.75	-42.3	-46.5	11.5	8.28e-04	0	62	0	985661440	56	5766
2026-01-24 00:37:29.79	230.90	16.64	-42.3	-46.6	11.4	1.07e-03	0	62	0	987758592	56	5826
2026-01-24 00:37:30.80	230.81	16.54	-42.4	-46.7	11.3	1.03e-03	0	62	0	989855744	56	5879
2026-01-24 00:37:31.80	230.72	16.43	-42.4	-46.8	11.1	1.33e-03	0	61	0	990904320	56	5960
2026-01-24 00:37:32.81	230.64	16.33	-42.4	-46.9	11.1	1.62e-03	0	62	0	993001472	56	6019
2026-01-24 00:37:33.82	230.55	16.22	-42.4	-46.9	11.0	1.81e-03	0	61	0	995098624	56	6042
2026-01-24 00:37:34.83	230.47	16.12	-42.4	-46.9	11.0	1.82e-03	0	61	0	997195776	56	6053
2026-01-24 00:37:35.84	230.38	16.01	-42.5	-47.0	10.9	2.08e-03	0	61	0	999292928	56	6113
2026-01-24 00:37:36.85	230.30	15.91	-42.4	-46.9	11.0	1.98e-03	0	61	0	1000341504	56	6023
2026-01-24 00:37:37.86	230.21	15.80	-42.5	-47.0	10.9	1.97e-03	0	61	0	1002438656	56	6092
2026-01-24 00:37:38.87	230.13	15.70	-42.5	-47.0	10.9	2.12e-03	0	61	0	1004535808	56	6074
2026-01-24 00:37:39.88	230.05	15.60	-42.5	-47.0	10.9	2.22e-03	0	62	0	1006632960	56	6076
2026-01-24 00:37:40.89	229.97	15.49	-42.5	-47.0	10.9	2.35e-03	0	61	0	1008730112	56	6128
2026-01-24 00:37:41.90	229.89	15.39	-42.4	-46.9	11.0	1.90e-03	0	62	0	1010827264	56	6032
2026-01-24 00:37:42.91	229.81	15.29	-42.4	-46.9	11.0	2.07e-03	0	61	0	1011875840	56	6015
2026-01-24 00:37:43.92	229.73	15.19	-42.4	-46.8	11.0	1.75e-03	0	62	0	1013972992	56	5988
2026-01-24 00:37:44.93	229.65	15.09	-42.4	-46.8	11.1	1.66e-03	0	62	0	1016070144	56	5961
2026-01-24 00:37:45.94	229.57	14.98	-42.4	-46.8	11.1	1.67e-03	0	62	0	1018167296	56	5987
2026-01-24 00:37:46.95	229.49	14.88	-42.4	-46.9	10.9	1.69e-03	0	62	0	1020264448	56	6058
2026-01-24 00:37:47.96	229.42	14.78	-42.4	-46.9	11.0	1.94e-03	0	62	0	1021313024	56	6021
2026-01-24 00:37:48.97	229.34	14.68	-42.4	-46.9	11.0	1.84e-03	0	61	0	1023410176	56	6013
2026-01-24 00:37:49.98	229.26	14.58	-42.5	-47.1	10.8	2.26e-03	0	62	0	1025507328	56	6140
2026-01-24 00:37:50.99	229.19	14.49	-42.5	-47.2	10.7	2.69e-03	0	61	0	1027604480	56	6208
2026-01-24 00:37:52.00	229.11	14.39	-42.5	-47.1	10.7	2.88e-03	0	61	0	1028653056	56	6201
2026-01-24 00:37:53.00	229.04	14.29	-42.5	-47.3	10.6	3.62e-03	0	61	0	1030750208	56	6276
2026-01-24 00:37:54.01	228.96	14.19	-42.5	-47.2	10.6	3.40e-03	0	62	0	1032847360	56	6263
2026-01-24 00:37:55.02	228.89	14.09	-42.6	-47.4	10.4	4.21e-03	0	61	0	1034944512	56	6365
2026-01-24 00:37:56.03	228.82	14.00	-42.6	-47.3	10.5	4.37e-03	0	62	0	1037041664	56	6331
2026-01-24 00:37:57.04	228.74	13.90	-42.6	-47.4	10.4	4.15e-03	0	61	0	1039138816	56	6362
2026-01-24 00:37:58.05	228.67	13.80	-42.6	-47.5	10.3	4.52e-03	0	61	0	1040187392	56	6422
2026-01-24 00:37:59.06	228.60	13.71	-42.6	-47.5	10.3	5.02e-03	0	62	0	1042284544	56	6425
2026-01-24 00:38:00.07	228.53	13.61	-42.6	-47.6	10.2	5.37e-03	0	61	0	1044381696	56	6499
2026-01-24 00:38:01.08	228.46	13.51	-42.6	-47.5	10.3	5.59e-03	0	61	0	1046478848	56	6430
2026-01-24 00:38:02.09	228.39	13.42	-42.6	-47.5	10.3	5.22e-03	0	61	0	1048576000	56	6443
2026-01-24 00:38:03.10	228.32	13.32	-42.6	-47.4	10.4	5.36e-03	0	61	0	1049624576	56	6371
2026-01-24 00:38:04.11	228.25	13.23	-42.6	-47.4	10.4	4.68e-03	0	61	0	1051721728	56	6398
2026-01-24 00:38:05.12	228.18	13.13	-42.6	-47.5	10.3	5.53e-03	0	62	0	1053818880	56	6465
2026-01-24 00:38:06.13	228.11	13.04	-42.6	-47.4	10.3	5.43e-03	0	62	0	1055916032	56	6399
2026-01-24 00:38:07.14	228.04	12.95	-42.6	-47.6	10.2	5.44e-03	0	61	0	1058013184	56	6518
2026-01-24 00:38:08.15	227.97	12.85	-42.7	-47.7	10.1	6.70e-03	0	61	0	1059061760	56	6600
2026-01-24 00:38:09.16	227.91	12.76	-42.6	-47.5	10.2	5.69e-03	0	62	0	1061158912	56	6478
2026-01-24 00:38:10.17	227.84	12.67	-42.6	-47.5	10.3	5.57e-03	0	61	0	1063256064	56	6437
2026-01-24 00:38:11.18	227.77	12.57	-42.5	-47.4	10.3	5.30e-03	0	61	0	1065353216	56	6408
2026-01-24 00:38:12.19	227.71	12.48	-42.6	-47.5	10.3	5.83e-03	0	61	0	1067450368	56	6434
2026-01-24 00:38:13.20	227.64	12.39	-42.6	-47.5	10.2	5.67e-03	0	62	0	1068498944	56	6471
2026-01-24 00:38:14.21	227.58	12.30	-42.6	-47.6	10.1	6.69e-03	0	61	0	1070596096	56	6548
2026-01-24 00:38:15.22	227.51	12.21	-42.6	-47.7	10.0	7.09e-03	0	61	0	1072693248	56	6575
2026-01-24 00:38:16.23	227.45	12.12	-42.7	-47.7	9.9	7.49e-03	0	62	0	1074790400	56	6638
2026-01-24 00:38:17.24	227.38	12.03	-42.6	-47.7	9.9	8.19e-03	0	62	0	1076887552	56	6629
2026-01-24 00:38:18.25	227.32	11.94	-42.7	-47.7	9.9	8.96e-03	0	61	0	1078984704	56	6640
2026-01-24 00:38:19.26	227.26	11.85	-42.6	-47.7	9.9	8.26e-03	0	62	0	1080033280	56	6641
