passes_logs/2026/01/24/R2.0S_Moscow/R2.0S_Moscow__20260124_220705_SUOMI_NPP_rec.log

#Pass ID: 20260124_220705_SUOMI NPP
#Satellite: SUOMI NPP
#Configuration: NPP
#almurnet v.1.7.20251203
#Start time: 2026-01-24 22:07:06

#Version: 2.2.20231116
#Station: R2.0S_Moscow
#Location: 37.707566 lon 55.798166 lat
#TLE: 1 37849U 11061A   26024.54906732  .00000185  00000+0  10878-3 0  9990
#TLE: 2 37849  98.7821 326.5159 0002200  47.3746 312.7615 14.19529340738061

#Time	Az	El	Level	Level2	SNR	BER	BlckErr	Temp	State	Recorded	gain1	gain2
2026-01-24 22:07:06.34	26.48	2.02	-42.3	-56.8	3.8	1.49e+00	0	52	0	0	56	18801
2026-01-24 22:07:07.34	26.56	2.08	-42.3	-56.8	3.8	1.49e+00	0	52	104	0	56	18829
2026-01-24 22:07:08.35	26.64	2.13	-42.3	-56.8	3.8	1.49e+00	0	52	104	0	56	18783
2026-01-24 22:07:09.36	26.71	2.18	-42.3	-56.8	3.8	1.49e+00	0	52	104	0	56	18833
2026-01-24 22:07:10.37	26.79	2.24	-42.2	-56.8	3.8	1.49e+00	0	52	104	0	56	18800
2026-01-24 22:07:11.38	26.87	2.29	-42.2	-56.8	3.8	1.49e+00	0	52	104	0	56	18779
2026-01-24 22:07:12.39	26.95	2.34	-42.2	-56.8	3.8	1.49e+00	0	52	104	0	56	18735
2026-01-24 22:07:13.40	27.03	2.40	-42.2	-56.8	3.8	1.49e+00	0	52	104	0	56	18741
2026-01-24 22:07:14.41	27.11	2.45	-42.2	-56.8	3.8	1.49e+00	0	52	104	0	56	18815
2026-01-24 22:07:15.42	27.19	2.50	-42.2	-56.8	3.8	1.49e+00	0	53	104	0	56	18792
2026-01-24 22:07:16.43	27.27	2.56	-42.2	-56.8	3.8	1.49e+00	0	53	104	0	56	18775
2026-01-24 22:07:17.44	27.35	2.61	-42.2	-56.8	3.8	1.49e+00	0	53	104	0	56	18736
2026-01-24 22:07:18.45	27.43	2.67	-42.2	-56.8	3.8	1.49e+00	0	53	104	0	56	18791
2026-01-24 22:07:19.46	27.51	2.72	-42.2	-56.8	3.8	1.49e+00	0	53	104	0	56	18810
2026-01-24 22:07:20.47	27.59	2.77	-42.3	-56.8	3.8	1.49e+00	0	53	104	0	56	18817
2026-01-24 22:07:21.48	27.68	2.83	-42.3	-56.8	3.8	1.49e+00	0	53	104	0	56	18798
2026-01-24 22:07:22.49	27.76	2.88	-42.2	-56.8	3.8	1.49e+00	0	53	104	0	56	18797
2026-01-24 22:07:23.50	27.84	2.94	-42.2	-56.8	3.8	1.49e+00	0	53	104	0	56	18782
2026-01-24 22:07:24.51	27.92	2.99	-42.2	-56.8	3.8	1.49e+00	0	53	104	0	56	18752
2026-01-24 22:07:25.52	28.01	3.04	-42.2	-56.8	3.8	1.49e+00	0	53	104	0	56	18754
2026-01-24 22:07:26.53	28.09	3.10	-42.2	-56.8	3.8	1.49e+00	0	53	104	0	56	18762
2026-01-24 22:07:27.54	28.17	3.15	-42.2	-56.8	3.8	1.49e+00	0	53	104	0	56	18765
2026-01-24 22:07:28.56	28.26	3.21	-42.2	-56.8	3.8	1.49e+00	0	53	104	0	56	18775
2026-01-24 22:07:29.57	28.34	3.26	-42.2	-56.8	3.8	1.49e+00	0	53	104	0	56	18770
2026-01-24 22:07:30.58	28.43	3.32	-42.2	-56.8	3.8	1.49e+00	0	54	104	0	56	18738
2026-01-24 22:07:31.59	28.51	3.37	-42.2	-56.8	3.8	1.49e+00	0	54	104	0	56	18798
2026-01-24 22:07:32.60	28.60	3.43	-42.2	-56.8	3.8	1.49e+00	0	54	104	0	56	18806
2026-01-24 22:07:33.61	28.68	3.48	-42.2	-56.8	3.8	1.49e+00	0	54	104	0	56	18741
2026-01-24 22:07:34.62	28.77	3.54	-42.2	-56.8	3.8	1.49e+00	0	54	104	0	56	18791
2026-01-24 22:07:35.63	28.85	3.59	-42.3	-56.8	3.8	1.49e+00	0	54	104	0	56	18781
2026-01-24 22:07:36.64	28.94	3.65	-42.2	-56.8	3.8	1.49e+00	0	54	104	0	56	18779
2026-01-24 22:07:37.65	29.02	3.70	-42.2	-56.8	3.8	1.49e+00	0	54	104	0	56	18775
2026-01-24 22:07:38.66	29.11	3.76	-42.2	-56.8	3.8	1.49e+00	0	54	104	0	56	18801
2026-01-24 22:07:39.67	29.20	3.81	-42.2	-56.8	3.8	1.49e+00	0	54	104	0	56	18784
2026-01-24 22:07:40.68	29.29	3.87	-42.2	-56.8	3.8	1.49e+00	0	54	104	0	56	18788
2026-01-24 22:07:41.69	29.37	3.92	-42.2	-56.8	3.8	1.49e+00	0	54	104	0	56	18772
2026-01-24 22:07:42.70	29.46	3.98	-42.2	-56.8	3.8	1.49e+00	0	54	104	0	56	18810
2026-01-24 22:07:43.71	29.55	4.03	-42.2	-56.8	3.8	1.49e+00	0	54	104	0	56	18813
2026-01-24 22:07:44.72	29.64	4.09	-42.2	-56.8	3.8	1.49e+00	0	55	104	0	56	18770
2026-01-24 22:07:45.73	29.73	4.14	-42.2	-56.8	3.8	1.49e+00	0	54	104	0	56	18762
2026-01-24 22:07:46.74	29.82	4.20	-42.2	-56.7	3.8	1.49e+00	0	55	104	0	56	18720
2026-01-24 22:07:47.75	29.91	4.25	-42.2	-56.8	3.8	1.49e+00	0	55	104	0	56	18781
2026-01-24 22:07:48.77	30.00	4.31	-42.2	-56.8	3.8	1.49e+00	0	55	104	0	56	18825
2026-01-24 22:07:49.78	30.09	4.37	-42.2	-56.8	3.8	1.49e+00	0	54	104	0	56	18768
2026-01-24 22:07:50.79	30.18	4.42	-42.2	-56.8	3.8	1.49e+00	0	55	104	0	56	18755
2026-01-24 22:07:51.80	30.27	4.48	-42.2	-56.8	3.8	1.49e+00	0	55	104	0	56	18756
2026-01-24 22:07:52.81	30.36	4.53	-42.2	-56.7	3.8	1.49e+00	0	55	104	0	56	18729
2026-01-24 22:07:53.81	30.45	4.59	-42.2	-56.8	3.8	1.49e+00	0	55	104	0	56	18737
2026-01-24 22:07:54.83	30.54	4.65	-42.2	-56.8	3.8	1.49e+00	0	55	104	0	56	18777
2026-01-24 22:07:55.84	30.63	4.70	-42.2	-56.8	3.8	1.49e+00	0	55	104	0	56	18749
2026-01-24 22:07:56.85	30.73	4.76	-42.2	-56.8	3.8	1.49e+00	0	55	104	0	56	18746
2026-01-24 22:07:57.86	30.82	4.81	-42.2	-56.7	3.8	1.49e+00	0	55	104	0	56	18726
2026-01-24 22:07:58.87	30.91	4.87	-42.2	-56.8	3.8	1.49e+00	0	55	104	0	56	18776
2026-01-24 22:07:59.88	31.01	4.93	-42.2	-56.8	3.8	1.49e+00	0	55	104	0	56	18781
2026-01-24 22:08:00.89	31.10	4.98	-42.2	-56.8	3.8	1.49e+00	0	55	104	0	56	18771
2026-01-24 22:08:01.90	31.19	5.04	-42.2	-56.8	3.8	1.49e+00	0	55	104	0	56	18745
2026-01-24 22:08:02.91	31.29	5.10	-42.2	-56.8	3.8	1.49e+00	0	55	104	0	56	18735
2026-01-24 22:08:03.92	31.38	5.15	-42.2	-56.8	3.8	1.49e+00	0	55	104	0	56	18804
2026-01-24 22:08:04.93	31.48	5.21	-42.2	-56.8	3.8	1.49e+00	0	55	104	0	56	18734
2026-01-24 22:08:05.94	31.58	5.27	-42.2	-56.7	3.8	1.49e+00	0	55	104	0	56	18729
2026-01-24 22:08:06.95	31.67	5.32	-42.2	-56.8	3.8	1.49e+00	0	55	104	0	56	18774
2026-01-24 22:08:07.96	31.77	5.38	-42.2	-56.8	3.8	1.49e+00	0	56	104	0	56	18758
2026-01-24 22:08:08.97	31.86	5.44	-42.2	-56.8	3.8	1.49e+00	0	55	104	0	56	18757
2026-01-24 22:08:09.98	31.96	5.49	-42.2	-56.8	3.8	1.49e+00	0	56	104	0	56	18736
2026-01-24 22:08:10.99	32.06	5.55	-42.2	-56.8	3.8	1.49e+00	0	56	104	0	56	18768
2026-01-24 22:08:12.01	32.16	5.61	-42.2	-56.8	3.8	1.49e+00	0	56	104	0	56	18774
2026-01-24 22:08:13.01	32.25	5.66	-42.2	-56.8	3.8	1.49e+00	0	56	104	0	56	18733
2026-01-24 22:08:14.03	32.35	5.72	-42.2	-56.8	3.8	1.49e+00	0	56	104	0	56	18755
2026-01-24 22:08:15.04	32.45	5.78	-42.2	-56.8	3.8	1.49e+00	0	56	104	0	56	18762
2026-01-24 22:08:16.05	32.55	5.84	-42.2	-56.7	3.8	1.49e+00	0	56	104	0	56	18712
2026-01-24 22:08:17.06	32.65	5.89	-42.2	-56.8	3.8	1.49e+00	0	56	104	0	56	18742
2026-01-24 22:08:18.07	32.75	5.95	-42.2	-56.8	3.8	1.49e+00	0	56	104	0	56	18748
2026-01-24 22:08:19.08	32.85	6.01	-42.2	-56.7	3.8	1.49e+00	0	56	104	0	56	18725
2026-01-24 22:08:20.09	32.95	6.07	-42.2	-56.7	3.8	1.49e+00	0	56	104	0	56	18699
2026-01-24 22:08:21.10	33.05	6.12	-42.2	-56.8	3.8	1.49e+00	0	56	104	0	56	18769
2026-01-24 22:08:22.11	33.16	6.18	-42.2	-56.8	3.8	1.49e+00	0	56	104	0	56	18741
2026-01-24 22:08:23.12	33.26	6.24	-42.2	-56.7	3.8	1.49e+00	0	56	104	0	56	18692
2026-01-24 22:08:24.13	33.36	6.30	-42.2	-56.7	3.8	1.49e+00	0	56	104	0	56	18730
2026-01-24 22:08:25.14	33.46	6.35	-42.2	-56.7	3.8	1.49e+00	0	56	104	0	56	18646
2026-01-24 22:08:26.15	33.57	6.41	-42.2	-56.7	3.8	1.49e+00	0	56	104	0	56	18682
2026-01-24 22:08:27.16	33.67	6.47	-42.2	-56.6	3.8	1.49e+00	0	56	104	0	56	18457
2026-01-24 22:08:28.17	33.77	6.53	-42.2	-56.7	3.8	1.49e+00	0	57	104	0	56	18546
2026-01-24 22:08:29.18	33.88	6.59	-42.2	-56.6	3.8	1.49e+00	0	57	104	0	56	18479
2026-01-24 22:08:30.19	33.98	6.64	-42.2	-56.7	3.8	1.49e+00	0	57	104	0	56	18668
2026-01-24 22:08:31.20	34.09	6.70	-42.2	-56.7	3.8	1.49e+00	0	57	104	0	56	18645
2026-01-24 22:08:32.21	34.19	6.76	-42.2	-56.7	3.8	1.49e+00	0	57	104	0	56	18637
2026-01-24 22:08:33.22	34.30	6.82	-42.2	-56.7	3.8	1.49e+00	0	57	104	0	56	18719
2026-01-24 22:08:34.23	34.40	6.88	-42.2	-56.8	3.8	1.49e+00	0	57	104	0	56	18775
2026-01-24 22:08:35.24	34.51	6.94	-42.3	-56.7	3.8	1.49e+00	0	57	104	0	56	18568
2026-01-24 22:08:36.25	34.62	6.99	-42.3	-56.7	3.8	1.49e+00	0	57	104	0	56	18569
2026-01-24 22:08:37.26	34.72	7.05	-42.2	-56.6	3.8	1.49e+00	0	57	104	0	56	18449
2026-01-24 22:08:38.27	34.83	7.11	-42.3	-56.5	3.8	1.49e+00	0	57	104	0	56	18285
2026-01-24 22:08:39.28	34.94	7.17	-42.2	-56.7	3.8	1.49e+00	0	57	104	0	56	18663
2026-01-24 22:08:40.29	35.05	7.23	-42.2	-56.7	3.8	1.49e+00	0	57	104	0	56	18546
2026-01-24 22:08:41.31	35.16	7.29	-42.2	-56.6	3.8	1.49e+00	0	57	104	0	56	18504
2026-01-24 22:08:42.32	35.27	7.35	-42.3	-56.7	3.8	1.49e+00	0	57	104	0	56	18693
2026-01-24 22:08:43.33	35.38	7.40	-42.2	-56.7	3.8	1.49e+00	0	57	104	0	56	18701
2026-01-24 22:08:44.34	35.49	7.46	-42.2	-56.7	3.8	1.49e+00	0	57	104	0	56	18715
2026-01-24 22:08:45.35	35.60	7.52	-42.3	-56.7	3.8	1.49e+00	0	57	104	0	56	18706
2026-01-24 22:08:46.36	35.71	7.58	-42.2	-56.8	3.8	1.49e+00	0	57	104	0	56	18759
2026-01-24 22:08:47.37	35.82	7.64	-42.2	-56.4	3.8	1.49e+00	0	57	104	0	56	18013
2026-01-24 22:08:48.38	35.94	7.70	-42.2	-55.9	3.8	1.49e+00	0	57	104	0	56	17074
2026-01-24 22:08:49.39	36.05	7.76	-42.2	-55.8	3.8	1.49e+00	0	57	104	0	56	16836
2026-01-24 22:08:50.40	36.16	7.82	-42.1	-55.1	3.8	1.49e+00	0	57	104	0	56	15459
2026-01-24 22:08:51.41	36.27	7.88	-42.1	-54.2	4.0	1.48e+00	0	57	104	0	56	13889
2026-01-24 22:08:52.42	36.39	7.93	-41.8	-52.4	4.4	1.39e+00	0	57	0	0	55	11981
2026-01-24 22:08:53.43	36.50	7.99	-41.6	-50.9	5.1	8.82e-01	0	57	0	2097152	55	10127
2026-01-24 22:08:54.44	36.62	8.05	-41.4	-49.5	6.0	4.17e-01	0	58	0	3145728	54	9075
2026-01-24 22:08:55.45	36.73	8.11	-41.4	-50.2	5.7	1.38e-01	0	57	0	5242880	54	9909
2026-01-24 22:08:56.46	36.85	8.17	-41.3	-48.8	6.2	1.49e+00	0	57	104	6291456	54	8374
2026-01-24 22:08:57.47	36.96	8.23	-42.2	-49.1	7.1	7.37e-02	0	58	0	7340032	55	8260
2026-01-24 22:08:58.48	37.08	8.29	-41.3	-46.4	9.7	1.52e-01	0	57	0	9437184	54	6392
2026-01-24 22:08:59.49	37.20	8.35	-41.7	-48.6	7.1	2.19e-01	0	58	0	11534336	54	8240
2026-01-24 22:09:00.50	37.32	8.41	-41.8	-48.1	8.0	4.77e-02	0	57	0	12582912	54	7735
2026-01-24 22:09:01.51	37.43	8.47	-41.7	-47.9	8.2	6.46e-02	0	58	0	14680064	54	7595
2026-01-24 22:09:02.52	37.55	8.53	-41.5	-47.2	9.0	4.05e-02	0	58	0	16777216	54	6998
2026-01-24 22:09:03.53	37.67	8.59	-41.5	-47.1	9.0	2.44e-02	0	58	0	18874368	54	6947
2026-01-24 22:09:04.53	37.79	8.65	-41.5	-47.0	9.1	2.28e-02	0	57	0	20971520	54	6867
2026-01-24 22:09:05.54	37.91	8.71	-41.5	-47.1	9.1	2.29e-02	0	58	0	22020096	54	6944
2026-01-24 22:09:06.55	38.03	8.77	-41.5	-47.0	9.2	2.47e-02	0	58	0	24117248	54	6879
2026-01-24 22:09:07.56	38.15	8.83	-41.4	-46.9	9.4	1.57e-02	0	58	0	26214400	54	6739
2026-01-24 22:09:08.57	38.27	8.89	-41.5	-46.8	9.4	1.48e-02	0	58	0	28311552	54	6699
2026-01-24 22:09:09.58	38.39	8.95	-41.6	-47.1	9.2	1.99e-02	0	58	0	30408704	54	6937
2026-01-24 22:09:10.59	38.51	9.01	-41.5	-46.9	9.4	1.86e-02	0	58	0	31457280	54	6725
2026-01-24 22:09:11.60	38.64	9.07	-41.7	-47.1	9.3	1.34e-02	0	58	0	33554432	54	6955
2026-01-24 22:09:12.61	38.76	9.13	-41.7	-47.1	9.4	1.91e-02	0	58	0	35651584	54	6907
2026-01-24 22:09:13.62	38.88	9.19	-41.5	-46.7	9.8	1.19e-02	0	58	0	37748736	54	6618
2026-01-24 22:09:14.63	39.01	9.25	-41.7	-47.1	9.4	1.23e-02	0	58	0	39845888	54	6957
2026-01-24 22:09:15.64	39.13	9.31	-41.7	-46.9	9.7	1.28e-02	0	58	0	40894464	54	6759
2026-01-24 22:09:16.65	39.26	9.37	-41.8	-47.2	9.5	1.13e-02	0	58	0	42991616	54	7003
2026-01-24 22:09:17.65	39.38	9.42	-41.8	-47.2	9.4	1.40e-02	0	58	0	45088768	54	7026
2026-01-24 22:09:18.66	39.51	9.48	-41.9	-47.5	9.2	1.78e-02	0	58	0	47185920	54	7233
2026-01-24 22:09:19.67	39.64	9.54	-41.9	-47.4	9.4	1.59e-02	0	58	0	49283072	54	7123
2026-01-24 22:09:20.69	39.76	9.61	-42.0	-47.5	9.4	1.72e-02	0	58	0	50331648	54	7220
2026-01-24 22:09:21.70	39.89	9.67	-42.0	-47.5	9.2	2.24e-02	0	58	0	52428800	54	7286
2026-01-24 22:09:22.70	40.02	9.73	-42.0	-47.5	9.3	1.96e-02	0	58	0	54525952	54	7239
2026-01-24 22:09:23.71	40.15	9.79	-41.9	-47.2	9.7	1.22e-02	0	58	0	56623104	54	7019
2026-01-24 22:09:24.72	40.28	9.85	-41.9	-47.0	9.8	1.36e-02	0	58	0	58720256	54	6867
2026-01-24 22:09:25.73	40.41	9.91	-41.9	-47.0	9.9	9.17e-03	0	58	0	59768832	54	6848
2026-01-24 22:09:26.74	40.54	9.97	-41.8	-46.9	10.0	8.22e-03	0	59	0	61865984	54	6761
2026-01-24 22:09:27.75	40.67	10.03	-41.8	-46.9	9.9	8.99e-03	0	58	0	63963136	54	6780
2026-01-24 22:09:28.76	40.80	10.09	-41.9	-47.0	10.0	7.27e-03	0	58	0	66060288	54	6812
2026-01-24 22:09:29.77	40.93	10.15	-41.9	-47.0	10.0	8.54e-03	0	59	0	68157440	54	6826
2026-01-24 22:09:30.78	41.06	10.21	-41.9	-47.0	10.0	8.32e-03	0	58	0	69206016	54	6838
2026-01-24 22:09:31.79	41.19	10.27	-41.9	-47.0	9.9	8.17e-03	0	58	0	71303168	54	6866
2026-01-24 22:09:32.80	41.33	10.33	-41.9	-47.1	10.0	9.42e-03	0	58	0	73400320	54	6881
2026-01-24 22:09:33.81	41.46	10.39	-42.0	-47.1	9.9	7.81e-03	0	58	0	75497472	54	6943
2026-01-24 22:09:34.82	41.60	10.45	-41.9	-47.0	10.0	8.74e-03	0	58	0	77594624	54	6819
2026-01-24 22:09:35.83	41.73	10.51	-41.9	-47.0	10.0	9.46e-03	0	59	0	78643200	54	6869
2026-01-24 22:09:36.84	41.87	10.57	-41.9	-46.9	10.2	5.90e-03	0	59	0	80740352	54	6742
2026-01-24 22:09:37.85	42.00	10.63	-41.9	-46.9	10.2	5.15e-03	0	59	0	82837504	54	6731
2026-01-24 22:09:38.86	42.14	10.69	-42.0	-46.9	10.1	5.36e-03	0	59	0	84934656	54	6773
2026-01-24 22:09:39.87	42.28	10.75	-41.8	-46.6	10.6	4.04e-03	0	58	0	87031808	54	6532
2026-01-24 22:09:40.87	42.41	10.81	-41.8	-46.5	10.6	3.32e-03	0	58	0	89128960	54	6487
2026-01-24 22:09:41.88	42.55	10.87	-41.8	-46.4	10.7	3.01e-03	0	59	0	90177536	54	6397
2026-01-24 22:09:42.89	42.69	10.93	-41.7	-46.3	10.8	2.53e-03	0	59	0	92274688	54	6335
2026-01-24 22:09:43.90	42.83	10.99	-41.7	-46.1	11.0	2.05e-03	0	59	0	94371840	54	6186
2026-01-24 22:09:44.91	42.97	11.05	-41.7	-46.2	11.0	1.85e-03	0	59	0	96468992	54	6223
2026-01-24 22:09:45.92	43.11	11.11	-41.7	-46.3	10.9	2.03e-03	0	59	0	98566144	54	6297
2026-01-24 22:09:46.93	43.25	11.17	-41.7	-46.2	11.0	2.21e-03	0	59	0	99614720	54	6270
2026-01-24 22:09:47.94	43.39	11.23	-41.7	-46.2	11.0	2.36e-03	0	59	0	101711872	54	6273
2026-01-24 22:09:48.95	43.53	11.30	-41.7	-46.3	11.0	2.01e-03	0	59	0	103809024	54	6275
2026-01-24 22:09:49.96	43.68	11.36	-41.9	-46.6	10.6	2.32e-03	0	59	0	105906176	54	6516
2026-01-24 22:09:50.97	43.82	11.42	-41.8	-46.3	10.9	2.39e-03	0	59	0	108003328	54	6331
2026-01-24 22:09:51.98	43.96	11.48	-41.8	-46.3	10.8	2.30e-03	0	59	0	109051904	54	6330
2026-01-24 22:09:52.99	44.11	11.54	-41.8	-46.5	10.7	2.94e-03	0	59	0	111149056	54	6457
2026-01-24 22:09:54.00	44.25	11.60	-41.8	-46.5	10.8	2.73e-03	0	59	0	113246208	54	6461
2026-01-24 22:09:55.01	44.40	11.66	-41.9	-46.5	10.7	3.10e-03	0	59	0	115343360	54	6479
2026-01-24 22:09:56.02	44.54	11.72	-41.9	-46.6	10.7	2.57e-03	0	59	0	117440512	54	6522
2026-01-24 22:09:57.03	44.69	11.78	-41.9	-46.7	10.6	3.67e-03	0	59	0	118489088	54	6580
2026-01-24 22:09:58.03	44.84	11.84	-41.9	-46.6	10.7	3.63e-03	0	59	0	120586240	54	6506
2026-01-24 22:09:59.04	44.98	11.90	-41.9	-46.5	10.8	2.66e-03	0	59	0	122683392	54	6439
2026-01-24 22:10:00.05	45.13	11.96	-41.9	-46.5	10.8	2.34e-03	0	59	0	124780544	54	6470
2026-01-24 22:10:01.06	45.28	12.02	-41.8	-46.2	11.1	1.71e-03	0	59	0	126877696	54	6249
2026-01-24 22:10:02.07	45.43	12.08	-41.7	-46.1	11.2	1.45e-03	0	59	0	127926272	54	6165
2026-01-24 22:10:03.08	45.58	12.14	-41.7	-46.1	11.2	1.40e-03	0	59	0	130023424	54	6142
2026-01-24 22:10:04.09	45.73	12.20	-41.8	-46.3	11.0	1.57e-03	0	59	0	132120576	54	6328
2026-01-24 22:10:05.10	45.88	12.26	-41.7	-46.1	11.3	1.74e-03	0	59	0	134217728	54	6135
2026-01-24 22:10:06.11	46.04	12.32	-41.8	-46.2	11.2	1.45e-03	0	59	0	136314880	54	6233
2026-01-24 22:10:07.11	46.19	12.38	-41.8	-46.2	11.2	1.39e-03	0	59	0	137363456	54	6246
2026-01-24 22:10:08.12	46.34	12.44	-41.8	-46.1	11.2	1.18e-03	0	59	0	139460608	54	6195
2026-01-24 22:10:09.13	46.50	12.50	-41.7	-46.1	11.3	1.51e-03	0	59	0	141557760	54	6140
2026-01-24 22:10:10.14	46.65	12.56	-41.7	-46.0	11.4	8.44e-04	0	59	0	143654912	54	6083
2026-01-24 22:10:11.15	46.80	12.62	-41.6	-45.8	11.5	8.67e-04	0	59	0	145752064	54	5961
2026-01-24 22:10:12.16	46.96	12.68	-41.5	-45.6	11.8	6.74e-04	0	59	0	146800640	54	5822
2026-01-24 22:10:13.17	47.12	12.74	-41.5	-45.5	11.9	3.88e-04	0	59	0	148897792	54	5768
2026-01-24 22:10:14.18	47.27	12.80	-41.4	-45.3	12.1	3.48e-04	0	59	0	150994944	54	5628
2026-01-24 22:10:15.19	47.43	12.86	-41.4	-45.2	12.2	2.30e-04	0	59	0	153092096	54	5583
2026-01-24 22:10:16.20	47.59	12.92	-41.4	-45.3	12.2	1.94e-04	0	59	0	155189248	54	5599
2026-01-24 22:10:17.21	47.75	12.98	-41.4	-45.4	12.1	1.83e-04	0	59	0	157286400	54	5667
2026-01-24 22:10:18.22	47.91	13.04	-41.4	-45.3	12.2	2.35e-04	0	59	0	158334976	54	5603
2026-01-24 22:10:19.23	48.07	13.10	-41.4	-45.4	12.1	2.30e-04	0	59	0	160432128	54	5667
2026-01-24 22:10:20.24	48.23	13.16	-41.6	-45.6	11.8	4.08e-04	0	59	0	162529280	54	5849
2026-01-24 22:10:21.25	48.39	13.22	-41.5	-45.6	11.9	5.10e-04	0	59	0	164626432	54	5796
2026-01-24 22:10:22.26	48.55	13.28	-41.5	-45.6	11.8	4.42e-04	0	59	0	166723584	54	5829
2026-01-24 22:10:23.27	48.71	13.34	-41.6	-45.7	11.7	6.57e-04	0	59	0	167772160	54	5897
2026-01-24 22:10:24.28	48.88	13.40	-41.6	-45.8	11.7	5.90e-04	0	59	0	169869312	54	5962
2026-01-24 22:10:25.28	49.04	13.46	-41.6	-45.7	11.8	5.19e-04	0	59	0	171966464	54	5882
2026-01-24 22:10:26.29	49.20	13.52	-41.5	-45.6	11.9	4.24e-04	0	59	0	174063616	54	5798
2026-01-24 22:10:27.30	49.37	13.57	-41.5	-45.5	12.0	3.74e-04	0	59	0	176160768	54	5744
2026-01-24 22:10:28.31	49.54	13.63	-41.3	-45.1	12.3	2.43e-04	0	59	0	177209344	54	5525
2026-01-24 22:10:29.32	49.70	13.69	-41.4	-45.2	12.3	2.21e-04	0	59	0	179306496	54	5572
2026-01-24 22:10:30.33	49.87	13.75	-41.4	-45.2	12.3	1.55e-04	0	60	0	181403648	54	5554
2026-01-24 22:10:31.34	50.04	13.81	-41.3	-45.1	12.4	1.62e-04	0	59	0	183500800	54	5507
2026-01-24 22:10:32.35	50.21	13.87	-41.3	-45.2	12.3	1.65e-04	0	59	0	185597952	54	5536
2026-01-24 22:10:33.36	50.37	13.93	-41.3	-45.1	12.3	1.36e-04	0	60	0	186646528	54	5518
2026-01-24 22:10:34.37	50.54	13.99	-41.4	-45.2	12.3	1.63e-04	0	59	0	188743680	54	5556
2026-01-24 22:10:35.38	50.71	14.05	-41.3	-45.1	12.4	1.48e-04	0	59	0	190840832	54	5466
2026-01-24 22:10:36.39	50.89	14.10	-41.3	-45.1	12.5	1.17e-04	0	59	0	192937984	54	5514
2026-01-24 22:10:37.40	51.06	14.16	-41.3	-45.1	12.4	1.27e-04	0	60	0	195035136	54	5493
2026-01-24 22:10:38.41	51.23	14.22	-41.4	-45.2	12.3	1.91e-04	0	59	0	196083712	54	5557
2026-01-24 22:10:39.42	51.40	14.28	-41.4	-45.3	12.3	1.88e-04	0	59	0	198180864	54	5614
2026-01-24 22:10:40.43	51.58	14.34	-41.4	-45.4	12.2	1.75e-04	0	59	0	200278016	54	5657
2026-01-24 22:10:41.44	51.75	14.39	-41.5	-45.4	12.2	2.22e-04	0	60	0	202375168	54	5663
2026-01-24 22:10:42.45	51.93	14.45	-41.5	-45.5	12.0	2.57e-04	0	59	0	204472320	54	5772
2026-01-24 22:10:43.46	52.10	14.51	-41.6	-45.6	11.9	3.04e-04	0	59	0	205520896	54	5813
2026-01-24 22:10:44.47	52.28	14.57	-41.6	-45.6	11.9	3.63e-04	0	60	0	207618048	54	5799
2026-01-24 22:10:45.48	52.45	14.63	-41.6	-45.6	11.9	3.22e-04	0	59	0	209715200	54	5818
2026-01-24 22:10:46.49	52.63	14.68	-41.5	-45.4	12.1	2.90e-04	0	60	0	211812352	54	5719
2026-01-24 22:10:47.50	52.81	14.74	-41.5	-45.4	12.2	2.37e-04	0	59	0	213909504	54	5677
2026-01-24 22:10:48.51	52.99	14.80	-41.3	-45.1	12.4	1.82e-04	0	60	0	214958080	54	5514
2026-01-24 22:10:49.52	53.17	14.85	-41.4	-45.3	12.3	2.13e-04	0	60	0	217055232	54	5596
2026-01-24 22:10:50.53	53.35	14.91	-41.5	-45.4	12.2	2.13e-04	0	59	0	219152384	54	5672
2026-01-24 22:10:51.54	53.53	14.97	-41.5	-45.4	12.1	2.59e-04	0	60	0	221249536	54	5702
2026-01-24 22:10:52.55	53.71	15.02	-41.6	-45.6	11.9	3.42e-04	0	60	0	223346688	54	5854
2026-01-24 22:10:53.56	53.89	15.08	-41.7	-45.8	11.8	4.73e-04	0	60	0	225443840	54	5950
2026-01-24 22:10:54.57	54.08	15.14	-41.8	-46.0	11.6	7.83e-04	0	60	0	226492416	54	6088
2026-01-24 22:10:55.58	54.26	15.19	-41.8	-46.1	11.4	8.36e-04	0	59	0	228589568	54	6156
2026-01-24 22:10:56.59	54.45	15.25	-41.8	-46.1	11.4	7.78e-04	0	60	0	230686720	54	6178
2026-01-24 22:10:57.60	54.63	15.31	-41.7	-45.9	11.6	7.53e-04	0	60	0	232783872	54	6055
2026-01-24 22:10:58.61	54.82	15.36	-41.8	-46.0	11.5	6.96e-04	0	60	0	234881024	54	6089
2026-01-24 22:10:59.62	55.00	15.42	-41.7	-45.9	11.7	6.29e-04	0	60	0	235929600	54	6007
2026-01-24 22:11:00.63	55.19	15.47	-41.8	-46.0	11.6	6.77e-04	0	60	0	238026752	54	6073
2026-01-24 22:11:01.64	55.38	15.53	-41.8	-46.1	11.4	9.63e-04	0	60	0	240123904	54	6176
2026-01-24 22:11:02.65	55.57	15.58	-41.9	-46.3	11.2	1.06e-03	0	60	0	242221056	54	6327
2026-01-24 22:11:03.66	55.75	15.64	-42.0	-46.6	10.9	1.96e-03	0	60	0	244318208	54	6536
2026-01-24 22:11:04.67	55.94	15.69	-42.0	-46.5	11.0	2.31e-03	0	60	0	245366784	54	6492
2026-01-24 22:11:05.67	56.13	15.75	-42.1	-46.8	10.8	2.45e-03	0	60	0	247463936	54	6651
2026-01-24 22:11:06.68	56.32	15.80	-42.1	-46.7	10.8	2.63e-03	0	60	0	249561088	54	6602
2026-01-24 22:11:07.69	56.52	15.86	-42.0	-46.5	11.0	2.09e-03	0	60	0	251658240	54	6472
2026-01-24 22:11:08.70	56.71	15.91	-42.0	-46.5	11.1	1.93e-03	0	60	0	253755392	54	6430
2026-01-24 22:11:09.71	56.90	15.96	-42.0	-46.5	11.0	1.99e-03	0	60	0	254803968	54	6478
2026-01-24 22:11:10.72	57.10	16.02	-42.0	-46.4	11.1	1.96e-03	0	60	0	256901120	54	6376
2026-01-24 22:11:11.73	57.29	16.07	-42.0	-46.5	11.0	1.73e-03	0	60	0	258998272	54	6424
2026-01-24 22:11:12.74	57.49	16.12	-42.0	-46.4	11.1	2.00e-03	0	60	0	261095424	54	6406
2026-01-24 22:11:13.75	57.68	16.18	-42.0	-46.5	11.1	1.66e-03	0	60	0	263192576	54	6423
2026-01-24 22:11:14.76	57.88	16.23	-42.0	-46.6	10.9	2.07e-03	0	60	0	264241152	54	6531
2026-01-24 22:11:15.77	58.08	16.28	-41.9	-46.3	11.2	1.90e-03	0	60	0	266338304	54	6320
2026-01-24 22:11:16.78	58.27	16.34	-42.0	-46.5	11.1	1.52e-03	0	60	0	268435456	54	6434
2026-01-24 22:11:17.79	58.47	16.39	-42.0	-46.6	10.9	2.24e-03	0	60	0	270532608	54	6533
2026-01-24 22:11:18.80	58.67	16.44	-42.0	-46.6	10.9	2.16e-03	0	60	0	272629760	54	6519
2026-01-24 22:11:19.81	58.87	16.49	-42.1	-46.8	10.7	2.24e-03	0	60	0	273678336	54	6693
2026-01-24 22:11:20.82	59.07	16.54	-42.2	-46.9	10.6	2.82e-03	0	60	0	275775488	54	6747
2026-01-24 22:11:21.83	59.27	16.60	-42.2	-46.9	10.7	3.35e-03	0	60	0	277872640	54	6738
2026-01-24 22:11:22.84	59.48	16.65	-42.2	-46.8	10.7	2.97e-03	0	60	0	279969792	54	6705
2026-01-24 22:11:23.85	59.68	16.70	-42.0	-46.6	10.9	2.27e-03	0	60	0	282066944	54	6502
2026-01-24 22:11:24.85	59.88	16.75	-42.0	-46.4	11.1	1.88e-03	0	60	0	283115520	54	6420
2026-01-24 22:11:25.86	60.08	16.80	-42.1	-46.7	10.9	1.85e-03	0	60	0	285212672	54	6572
2026-01-24 22:11:26.87	60.29	16.85	-42.2	-46.9	10.6	2.34e-03	0	60	0	287309824	54	6772
2026-01-24 22:11:27.88	60.49	16.90	-42.2	-46.9	10.6	3.11e-03	0	60	0	289406976	54	6751
2026-01-24 22:11:28.89	60.70	16.95	-42.3	-47.2	10.3	3.88e-03	0	60	0	291504128	55	6577
2026-01-24 22:11:29.90	60.91	17.00	-42.3	-47.3	10.2	5.66e-03	0	60	0	293601280	55	6659
2026-01-24 22:11:30.91	61.11	17.05	-42.3	-47.2	10.2	6.33e-03	0	60	0	294649856	55	6640
2026-01-24 22:11:31.92	61.32	17.10	-42.4	-47.4	10.0	6.11e-03	0	60	0	296747008	55	6779
2026-01-24 22:11:32.93	61.53	17.15	-42.1	-46.8	10.7	4.60e-03	0	60	0	298844160	55	6330
2026-01-24 22:11:33.94	61.74	17.20	-42.1	-46.8	10.7	2.97e-03	0	60	0	300941312	55	6324
2026-01-24 22:11:34.95	61.95	17.24	-42.1	-46.7	10.8	2.59e-03	0	60	0	303038464	55	6239
2026-01-24 22:11:35.96	62.16	17.29	-42.1	-46.6	11.0	1.99e-03	0	60	0	304087040	55	6158
2026-01-24 22:11:36.97	62.37	17.34	-42.1	-46.7	10.9	1.97e-03	0	60	0	306184192	55	6226
2026-01-24 22:11:37.98	62.58	17.39	-42.0	-46.6	11.0	1.95e-03	0	60	0	308281344	55	6132
2026-01-24 22:11:38.99	62.80	17.43	-42.1	-46.6	10.9	2.08e-03	0	60	0	310378496	55	6193
2026-01-24 22:11:40.00	63.01	17.48	-42.1	-46.6	10.9	2.14e-03	0	60	0	312475648	55	6165
2026-01-24 22:11:41.01	63.22	17.53	-42.0	-46.4	11.1	2.04e-03	0	60	0	313524224	55	6058
2026-01-24 22:11:42.01	63.44	17.57	-41.9	-46.2	11.3	1.24e-03	0	60	0	315621376	55	5923
2026-01-24 22:11:43.02	63.65	17.62	-41.9	-46.2	11.3	1.17e-03	0	60	0	317718528	55	5878
2026-01-24 22:11:44.04	63.87	17.67	-41.9	-46.2	11.4	1.02e-03	0	60	0	319815680	55	5867
2026-01-24 22:11:45.04	64.08	17.71	-41.9	-46.2	11.3	1.05e-03	0	60	0	321912832	55	5896
2026-01-24 22:11:46.05	64.30	17.76	-41.9	-46.3	11.2	1.53e-03	0	60	0	322961408	55	5972
2026-01-24 22:11:47.06	64.52	17.80	-41.9	-46.4	11.1	2.03e-03	0	60	0	325058560	55	6046
2026-01-24 22:11:48.07	64.74	17.84	-41.9	-46.3	11.2	1.38e-03	0	60	0	327155712	55	5968
2026-01-24 22:11:49.08	64.96	17.89	-41.9	-46.2	11.2	1.64e-03	0	60	0	329252864	55	5913
2026-01-24 22:11:50.09	65.18	17.93	-41.7	-46.0	11.5	1.02e-03	0	60	0	331350016	55	5735
2026-01-24 22:11:51.10	65.40	17.98	-41.6	-45.6	12.0	5.34e-04	0	60	0	332398592	55	5494
2026-01-24 22:11:52.11	65.62	18.02	-41.4	-45.3	12.2	3.15e-04	0	60	0	334495744	54	5647
2026-01-24 22:11:53.12	65.84	18.06	-41.4	-45.3	12.2	1.88e-04	0	60	0	336592896	54	5605
2026-01-24 22:11:54.13	66.06	18.10	-41.5	-45.4	12.0	2.94e-04	0	60	0	338690048	54	5707
2026-01-24 22:11:55.14	66.29	18.15	-41.4	-45.2	12.2	3.46e-04	0	60	0	340787200	54	5590
2026-01-24 22:11:56.15	66.51	18.19	-41.5	-45.6	11.7	3.87e-04	0	60	0	341835776	54	5820
2026-01-24 22:11:57.16	66.73	18.23	-41.6	-45.8	11.5	7.54e-04	0	60	0	343932928	54	5989
2026-01-24 22:11:58.17	66.96	18.27	-41.6	-45.8	11.4	8.12e-04	0	60	0	346030080	54	5988
2026-01-24 22:11:59.18	67.18	18.31	-41.6	-46.0	11.3	1.00e-03	0	60	0	348127232	54	6079
2026-01-24 22:12:00.19	67.41	18.35	-41.5	-45.8	11.5	1.14e-03	0	60	0	350224384	54	5934
2026-01-24 22:12:01.20	67.63	18.39	-41.5	-45.7	11.5	9.06e-04	0	60	0	351272960	54	5917
2026-01-24 22:12:02.21	67.86	18.43	-41.5	-45.7	11.4	8.28e-04	0	60	0	353370112	54	5908
2026-01-24 22:12:03.21	68.09	18.47	-41.5	-45.7	11.5	1.01e-03	0	60	0	355467264	54	5870
2026-01-24 22:12:04.23	68.32	18.51	-41.4	-45.6	11.5	9.15e-04	0	60	0	357564416	54	5831
2026-01-24 22:12:05.24	68.55	18.55	-41.4	-45.7	11.4	7.55e-04	0	60	0	359661568	54	5860
2026-01-24 22:12:06.24	68.77	18.59	-41.2	-45.3	11.7	5.21e-04	0	60	0	361758720	54	5643
2026-01-24 22:12:07.25	69.00	18.62	-41.1	-45.2	11.8	6.05e-04	0	60	0	362807296	54	5539
2026-01-24 22:12:08.26	69.23	18.66	-41.0	-45.1	11.7	4.78e-04	0	60	0	364904448	54	5518
2026-01-24 22:12:09.27	69.46	18.70	-41.0	-45.1	11.8	4.57e-04	0	60	0	367001600	53	5791
2026-01-24 22:12:10.28	69.70	18.73	-41.1	-45.3	11.4	7.87e-04	0	60	0	369098752	53	5952
2026-01-24 22:12:11.29	69.93	18.77	-41.2	-45.5	11.2	9.21e-04	0	60	0	371195904	53	6095
2026-01-24 22:12:12.30	70.16	18.81	-41.3	-45.9	10.7	1.41e-03	0	60	0	372244480	53	6385
2026-01-24 22:12:13.31	70.39	18.84	-41.3	-46.0	10.6	3.61e-03	0	60	0	374341632	53	6457
2026-01-24 22:12:14.32	70.63	18.88	-41.4	-46.4	10.1	6.09e-03	0	60	0	376438784	53	6733
2026-01-24 22:12:15.33	70.86	18.91	-41.3	-46.4	10.0	6.04e-03	0	60	0	378535936	53	6741
2026-01-24 22:12:16.34	71.10	18.95	-41.2	-46.3	9.9	8.68e-03	0	60	0	380633088	53	6722
2026-01-24 22:12:17.35	71.33	18.98	-41.2	-46.3	10.0	7.82e-03	0	60	0	381681664	53	6714
2026-01-24 22:12:18.36	71.57	19.01	-41.3	-46.5	9.7	7.84e-03	0	60	0	383778816	53	6839
2026-01-24 22:12:19.37	71.80	19.05	-41.3	-46.6	9.6	1.09e-02	0	61	0	385875968	53	6902
2026-01-24 22:12:20.38	72.04	19.08	-41.2	-46.4	9.8	1.12e-02	0	60	0	387973120	53	6794
2026-01-24 22:12:21.39	72.28	19.11	-41.3	-46.5	9.8	8.70e-03	0	60	0	390070272	53	6830
2026-01-24 22:12:22.40	72.52	19.14	-41.2	-46.3	9.9	9.14e-03	0	60	0	391118848	53	6710
2026-01-24 22:12:23.41	72.75	19.17	-41.3	-46.4	9.9	8.76e-03	0	60	0	393216000	53	6795
2026-01-24 22:12:24.42	72.99	19.20	-41.3	-46.4	9.9	8.00e-03	0	61	0	395313152	53	6759
2026-01-24 22:12:25.43	73.23	19.23	-41.3	-46.4	9.9	9.31e-03	0	61	0	397410304	53	6787
2026-01-24 22:12:26.44	73.47	19.26	-41.4	-46.7	9.6	1.00e-02	0	60	0	399507456	53	7007
2026-01-24 22:12:27.45	73.71	19.29	-41.4	-46.8	9.4	1.41e-02	0	60	0	400556032	53	7118
2026-01-24 22:12:28.46	73.95	19.32	-41.3	-46.7	9.5	1.53e-02	0	60	0	402653184	53	6973
2026-01-24 22:12:29.47	74.19	19.35	-41.2	-46.5	9.6	1.35e-02	0	60	0	404750336	53	6851
2026-01-24 22:12:30.48	74.43	19.38	-41.1	-46.1	10.0	8.63e-03	0	60	0	406847488	53	6544
2026-01-24 22:12:31.49	74.68	19.40	-41.0	-46.0	10.2	7.16e-03	0	60	0	408944640	53	6454
2026-01-24 22:12:32.50	74.92	19.43	-41.0	-46.1	9.9	8.58e-03	0	61	0	409993216	53	6558
2026-01-24 22:12:33.51	75.16	19.46	-41.1	-46.4	9.7	9.07e-03	0	60	0	412090368	53	6772
2026-01-24 22:12:34.52	75.40	19.48	-41.2	-46.6	9.6	1.30e-02	0	60	0	414187520	53	6890
2026-01-24 22:12:35.53	75.65	19.51	-41.4	-47.0	9.2	1.85e-02	0	60	0	416284672	53	7251
2026-01-24 22:12:36.54	75.89	19.53	-41.5	-47.0	9.3	1.79e-02	0	60	0	418381824	53	7221
2026-01-24 22:12:37.55	76.14	19.56	-41.5	-47.0	9.3	1.80e-02	0	61	0	419430400	53	7237
2026-01-24 22:12:38.56	76.38	19.58	-41.5	-47.0	9.3	1.90e-02	0	61	0	421527552	53	7247
2026-01-24 22:12:39.57	76.63	19.61	-41.5	-47.1	9.2	1.73e-02	0	61	0	423624704	53	7339
2026-01-24 22:12:40.58	76.87	19.63	-41.5	-46.9	9.3	1.61e-02	0	61	0	425721856	53	7201
2026-01-24 22:12:41.59	77.12	19.65	-41.6	-47.2	9.1	1.93e-02	0	61	0	427819008	53	7410
2026-01-24 22:12:42.60	77.36	19.67	-41.8	-47.5	8.8	2.68e-02	0	61	0	429916160	54	7273
2026-01-24 22:12:43.61	77.61	19.70	-41.8	-47.6	8.8	3.48e-02	0	60	0	430964736	54	7323
2026-01-24 22:12:44.62	77.86	19.72	-41.7	-47.3	9.2	2.76e-02	0	61	0	433061888	54	7070
2026-01-24 22:12:45.63	78.10	19.74	-41.7	-47.2	9.2	2.15e-02	0	61	0	435159040	54	6997
2026-01-24 22:12:46.64	78.35	19.76	-41.5	-46.8	9.6	1.48e-02	0	61	0	437256192	54	6722
2026-01-24 22:12:47.65	78.60	19.78	-41.5	-46.8	9.6	1.41e-02	0	61	0	439353344	54	6663
2026-01-24 22:12:48.66	78.85	19.80	-41.5	-46.8	9.6	1.16e-02	0	61	0	440401920	54	6696
2026-01-24 22:12:49.67	79.10	19.82	-41.5	-46.8	9.5	1.42e-02	0	61	0	442499072	54	6702
2026-01-24 22:12:50.68	79.34	19.83	-41.7	-47.1	9.5	2.63e-02	0	61	0	444596224	55	6527
2026-01-24 22:12:51.69	79.59	19.85	-41.6	-47.0	9.6	1.57e-02	0	60	0	446693376	55	6421
2026-01-24 22:12:52.70	79.84	19.87	-41.7	-47.0	9.6	1.33e-02	0	61	0	448790528	55	6471
2026-01-24 22:12:53.71	80.09	19.88	-41.6	-46.6	10.2	8.31e-03	0	60	0	449839104	55	6133
2026-01-24 22:12:54.72	80.34	19.90	-41.6	-46.3	10.5	4.96e-03	0	60	0	451936256	55	5982
2026-01-24 22:12:55.72	80.59	19.92	-41.6	-46.4	10.5	3.71e-03	0	61	0	454033408	55	6033
2026-01-24 22:12:56.73	80.84	19.93	-41.6	-46.3	10.6	3.04e-03	0	61	0	456130560	55	5948
2026-01-24 22:12:57.74	81.09	19.94	-41.7	-46.5	10.4	3.21e-03	0	61	0	458227712	55	6089
2026-01-24 22:12:58.75	81.34	19.96	-41.8	-46.9	10.1	5.68e-03	0	61	0	459276288	55	6383
2026-01-24 22:12:59.76	81.59	19.97	-41.9	-47.0	9.9	8.70e-03	0	61	0	461373440	55	6489
2026-01-24 22:13:00.77	81.84	19.98	-42.0	-47.3	9.7	1.08e-02	0	61	0	463470592	55	6655
2026-01-24 22:13:01.78	82.10	20.00	-41.9	-47.0	9.9	9.44e-03	0	61	0	465567744	55	6473
2026-01-24 22:13:02.79	82.35	20.01	-41.9	-46.9	10.0	7.51e-03	0	61	0	467664896	55	6394
2026-01-24 22:13:03.80	82.60	20.02	-41.9	-47.0	10.0	8.59e-03	0	61	0	468713472	55	6425
2026-01-24 22:13:04.81	82.85	20.03	-41.9	-46.9	10.0	8.30e-03	0	61	0	470810624	55	6374
2026-01-24 22:13:05.82	83.10	20.04	-41.8	-46.9	10.1	8.07e-03	0	61	0	472907776	55	6367
2026-01-24 22:13:06.83	83.36	20.05	-41.8	-46.8	10.1	9.11e-03	0	61	0	475004928	55	6311
2026-01-24 22:13:07.84	83.61	20.06	-41.7	-46.6	10.3	6.07e-03	0	61	0	477102080	55	6153
2026-01-24 22:13:08.85	83.86	20.07	-41.6	-46.6	10.2	5.58e-03	0	61	0	478150656	55	6147
2026-01-24 22:13:09.86	84.11	20.07	-41.5	-46.3	10.4	5.12e-03	0	61	0	480247808	55	5980
2026-01-24 22:13:10.87	84.37	20.08	-41.5	-46.5	10.2	4.59e-03	0	61	0	482344960	54	6460
2026-01-24 22:13:11.88	84.62	20.09	-41.5	-46.6	10.1	6.94e-03	0	61	0	484442112	54	6523
2026-01-24 22:13:12.89	84.87	20.09	-41.6	-46.9	9.7	9.06e-03	0	61	0	486539264	54	6763
2026-01-24 22:13:13.90	85.13	20.10	-41.7	-47.1	9.6	1.18e-02	0	61	0	487587840	54	6893
2026-01-24 22:13:14.91	85.38	20.11	-41.7	-47.1	9.6	1.28e-02	0	61	0	489684992	54	6894
2026-01-24 22:13:15.92	85.63	20.11	-41.6	-46.9	9.7	1.24e-02	0	61	0	491782144	54	6798
2026-01-24 22:13:16.93	85.89	20.11	-41.7	-47.0	9.7	1.03e-02	0	61	0	493879296	54	6842
2026-01-24 22:13:17.94	86.14	20.12	-41.7	-47.1	9.6	1.27e-02	0	61	0	495976448	54	6924
2026-01-24 22:13:18.95	86.39	20.12	-41.8	-47.4	9.2	1.69e-02	0	61	0	497025024	54	7142
2026-01-24 22:13:19.96	86.65	20.12	-41.9	-47.8	8.8	2.44e-02	0	61	0	499122176	54	7512
2026-01-24 22:13:20.97	86.90	20.12	-41.9	-47.8	8.8	3.22e-02	0	61	0	501219328	54	7497
2026-01-24 22:13:21.98	87.16	20.13	-41.9	-47.7	8.9	3.06e-02	0	61	0	503316480	54	7393
2026-01-24 22:13:22.99	87.41	20.13	-41.9	-47.6	9.0	2.85e-02	0	60	0	505413632	54	7366
2026-01-24 22:13:24.00	87.66	20.13	-41.8	-47.5	9.1	2.20e-02	0	60	0	507510784	54	7229
2026-01-24 22:13:25.01	87.92	20.13	-41.8	-47.4	9.3	2.05e-02	0	61	0	508559360	54	7161
2026-01-24 22:13:26.02	88.17	20.12	-41.9	-47.3	9.5	1.53e-02	0	61	0	510656512	54	7116
2026-01-24 22:13:27.03	88.43	20.12	-42.0	-47.5	9.4	1.61e-02	0	61	0	512753664	54	7220
2026-01-24 22:13:28.04	88.68	20.12	-42.0	-47.5	9.4	1.64e-02	0	61	0	514850816	54	7268
2026-01-24 22:13:29.04	88.93	20.12	-42.0	-47.2	9.7	1.42e-02	0	61	0	516947968	54	6995
2026-01-24 22:13:30.06	89.19	20.11	-42.0	-47.1	10.0	9.32e-03	0	61	0	517996544	54	6895
2026-01-24 22:13:31.07	89.44	20.11	-41.9	-46.8	10.4	4.99e-03	0	61	0	520093696	54	6683
2026-01-24 22:13:32.08	89.69	20.11	-41.7	-46.2	11.1	2.13e-03	0	61	0	522190848	54	6243
2026-01-24 22:13:33.08	89.94	20.10	-41.7	-46.0	11.4	1.20e-03	0	61	0	524288000	54	6098
2026-01-24 22:13:34.09	90.20	20.10	-41.7	-45.9	11.5	9.02e-04	0	61	0	526385152	54	6057
2026-01-24 22:13:35.10	90.45	20.09	-41.6	-45.7	11.7	6.61e-04	0	61	0	527433728	54	5905
2026-01-24 22:13:36.11	90.70	20.08	-41.6	-45.7	11.9	5.33e-04	0	61	0	529530880	54	5866
2026-01-24 22:13:37.12	90.96	20.08	-41.6	-45.6	12.0	3.87e-04	0	61	0	531628032	54	5835
2026-01-24 22:13:38.13	91.21	20.07	-41.6	-45.6	11.9	3.37e-04	0	61	0	533725184	54	5836
2026-01-24 22:13:39.14	91.46	20.06	-41.7	-45.7	11.9	4.49e-04	0	61	0	535822336	54	5910
2026-01-24 22:13:40.15	91.72	20.05	-41.8	-46.0	11.6	6.73e-04	0	61	0	536870912	54	6111
2026-01-24 22:13:41.16	91.97	20.04	-42.0	-46.3	11.3	1.13e-03	0	61	0	538968064	54	6311
2026-01-24 22:13:42.17	92.22	20.03	-41.9	-46.1	11.5	1.06e-03	0	61	0	541065216	54	6184
2026-01-24 22:13:43.18	92.47	20.02	-42.0	-46.3	11.4	8.64e-04	0	61	0	543162368	54	6304
2026-01-24 22:13:44.19	92.73	20.01	-42.0	-46.3	11.4	8.52e-04	0	61	0	545259520	54	6335
2026-01-24 22:13:45.20	92.98	20.00	-42.0	-46.3	11.4	7.49e-04	0	61	0	546308096	54	6299
2026-01-24 22:13:46.21	93.23	19.99	-41.9	-46.0	11.7	8.25e-04	0	61	0	548405248	54	6065
2026-01-24 22:13:47.21	93.48	19.98	-42.0	-46.2	11.5	5.48e-04	0	61	0	550502400	54	6206
2026-01-24 22:13:48.22	93.73	19.96	-41.9	-46.0	11.8	4.22e-04	0	61	0	552599552	54	6068
2026-01-24 22:13:49.23	93.98	19.95	-41.9	-45.9	12.0	4.81e-04	0	61	0	554696704	54	6011
2026-01-24 22:13:50.24	94.23	19.93	-41.9	-45.9	12.0	3.91e-04	0	61	0	555745280	54	6006
2026-01-24 22:13:51.25	94.48	19.92	-41.9	-45.9	12.0	3.87e-04	0	61	0	557842432	54	5997
2026-01-24 22:13:52.26	94.73	19.90	-41.9	-45.9	12.0	4.53e-04	0	61	0	559939584	54	6005
2026-01-24 22:13:53.27	94.98	19.89	-41.9	-46.0	11.8	4.13e-04	0	61	0	562036736	54	6111
2026-01-24 22:13:54.28	95.23	19.87	-41.9	-45.9	12.1	2.99e-04	0	61	0	564133888	54	5998
2026-01-24 22:13:55.29	95.48	19.86	-41.7	-45.5	12.4	1.69e-04	0	61	0	565182464	54	5741
2026-01-24 22:13:56.30	95.73	19.84	-41.7	-45.6	12.2	1.89e-04	0	61	0	567279616	54	5827
2026-01-24 22:13:57.31	95.98	19.82	-41.7	-45.6	12.3	1.64e-04	0	61	0	569376768	54	5821
2026-01-24 22:13:58.32	96.23	19.80	-41.8	-45.7	12.2	2.37e-04	0	61	0	571473920	54	5915
2026-01-24 22:13:59.33	96.48	19.78	-41.8	-45.8	12.1	2.78e-04	0	61	0	573571072	54	5967
2026-01-24 22:14:00.34	96.73	19.76	-41.9	-46.0	11.9	3.08e-04	0	61	0	575668224	54	6078
2026-01-24 22:14:01.35	96.98	19.74	-41.9	-45.8	12.1	3.79e-04	0	61	0	576716800	54	5982
2026-01-24 22:14:02.36	97.23	19.72	-41.8	-45.8	12.1	3.60e-04	0	61	0	578813952	54	5947
2026-01-24 22:14:03.37	97.47	19.70	-41.9	-45.8	12.0	3.17e-04	0	61	0	580911104	54	5987
2026-01-24 22:14:04.37	97.72	19.68	-41.9	-46.0	11.9	4.72e-04	0	61	0	583008256	54	6066
2026-01-24 22:14:05.38	97.96	19.66	-42.2	-46.5	11.4	8.71e-04	0	61	0	584056832	54	6485
2026-01-24 22:14:06.39	98.21	19.64	-42.3	-46.8	11.0	1.65e-03	0	61	0	586153984	55	6332
2026-01-24 22:14:07.40	98.46	19.61	-42.2	-46.7	11.1	1.99e-03	0	61	0	588251136	55	6251
2026-01-24 22:14:08.41	98.70	19.59	-42.3	-46.8	11.0	1.90e-03	0	61	0	590348288	55	6293
2026-01-24 22:14:09.42	98.95	19.57	-42.1	-46.4	11.5	1.52e-03	0	61	0	592445440	55	6041
2026-01-24 22:14:10.43	99.19	19.54	-41.9	-46.0	11.8	6.33e-04	0	61	0	593494016	55	5777
2026-01-24 22:14:11.44	99.44	19.52	-41.8	-45.8	12.1	4.78e-04	0	61	0	595591168	55	5636
2026-01-24 22:14:12.45	99.68	19.49	-41.8	-45.7	12.2	2.85e-04	0	61	0	597688320	55	5556
2026-01-24 22:14:13.45	99.92	19.47	-41.6	-45.3	12.6	1.07e-04	0	61	0	599785472	54	5630
2026-01-24 22:14:14.46	100.17	19.44	-41.7	-45.6	12.4	1.39e-04	0	61	0	601882624	54	5807
2026-01-24 22:14:15.47	100.41	19.41	-41.8	-45.7	12.2	1.63e-04	0	61	0	603979776	54	5898
2026-01-24 22:14:16.48	100.65	19.38	-41.8	-45.8	12.1	3.04e-04	0	61	0	605028352	54	5945
2026-01-24 22:14:17.49	100.89	19.36	-41.8	-45.7	12.1	3.33e-04	0	61	0	607125504	54	5916
2026-01-24 22:14:18.50	101.14	19.33	-41.8	-45.7	12.2	2.18e-04	0	61	0	609222656	54	5858
2026-01-24 22:14:19.51	101.38	19.30	-41.5	-45.1	12.8	1.10e-04	0	61	0	611319808	53	5809
2026-01-24 22:14:20.52	101.62	19.27	-41.4	-45.1	12.8	1.03e-04	0	61	0	613416960	53	5790
2026-01-24 22:14:21.53	101.86	19.24	-41.5	-45.2	12.7	1.12e-04	0	61	0	614465536	53	5881
2026-01-24 22:14:22.54	102.10	19.21	-41.5	-45.3	12.6	1.01e-04	0	61	0	616562688	53	5932
2026-01-24 22:14:23.55	102.34	19.18	-41.6	-45.5	12.4	1.38e-04	0	61	0	618659840	53	6068
2026-01-24 22:14:24.55	102.57	19.15	-41.7	-45.6	12.3	1.52e-04	0	61	0	620756992	53	6157
2026-01-24 22:14:25.57	102.81	19.12	-41.4	-45.6	12.3	2.04e-04	0	61	0	622854144	54	5797
2026-01-24 22:14:26.57	103.05	19.09	-41.7	-45.5	12.4	1.55e-04	0	61	0	623902720	54	5774
2026-01-24 22:14:27.59	103.29	19.05	-41.5	-45.2	12.7	1.37e-04	0	61	0	625999872	54	5545
2026-01-24 22:14:28.59	103.53	19.02	-41.4	-44.9	12.9	7.32e-05	0	61	0	628097024	54	5401
2026-01-24 22:14:29.60	103.76	18.99	-41.4	-45.0	12.8	3.81e-05	0	61	0	630194176	54	5424
2026-01-24 22:14:30.61	104.00	18.95	-41.3	-44.8	13.1	2.97e-05	0	61	0	632291328	54	5314
2026-01-24 22:14:31.62	104.23	18.92	-41.4	-44.9	13.0	1.98e-05	0	61	0	633339904	54	5382
2026-01-24 22:14:32.63	104.47	18.88	-41.3	-44.8	13.1	3.28e-05	0	61	0	635437056	54	5319
2026-01-24 22:14:33.63	104.70	18.85	-41.5	-45.2	12.7	4.73e-05	0	61	0	637534208	54	5537
2026-01-24 22:14:34.64	104.93	18.81	-41.4	-45.1	12.8	6.71e-05	0	61	0	639631360	54	5486
2026-01-24 22:14:35.65	105.17	18.78	-41.5	-45.1	12.8	6.40e-05	0	61	0	641728512	54	5516
2026-01-24 22:14:36.66	105.40	18.74	-41.4	-45.0	12.8	7.55e-05	0	61	0	642777088	54	5463
2026-01-24 22:14:37.67	105.63	18.71	-41.4	-45.0	12.9	4.27e-05	0	61	0	644874240	54	5417
2026-01-24 22:14:38.67	105.86	18.67	-41.4	-44.9	12.9	3.81e-05	0	61	0	646971392	54	5389
2026-01-24 22:14:39.69	106.10	18.63	-41.5	-45.1	12.8	4.88e-05	0	61	0	649068544	54	5511
2026-01-24 22:14:40.69	106.33	18.59	-41.6	-45.4	12.5	4.27e-05	0	61	0	651165696	54	5668
2026-01-24 22:14:41.70	106.56	18.56	-41.7	-45.5	12.4	1.07e-04	0	61	0	652214272	54	5751
2026-01-24 22:14:42.71	106.78	18.52	-41.7	-45.6	12.2	1.72e-04	0	61	0	654311424	54	5801
2026-01-24 22:14:43.72	107.01	18.48	-41.8	-45.8	12.0	3.09e-04	0	61	0	656408576	54	5975
2026-01-24 22:14:44.73	107.24	18.44	-41.8	-45.7	12.1	2.79e-04	0	61	0	658505728	54	5901
2026-01-24 22:14:45.74	107.47	18.40	-41.7	-45.7	12.2	2.01e-04	0	61	0	660602880	54	5863
2026-01-24 22:14:46.75	107.70	18.36	-41.7	-45.6	12.3	1.45e-04	0	61	0	661651456	54	5799
2026-01-24 22:14:47.76	107.92	18.32	-41.7	-45.5	12.3	1.27e-04	0	61	0	663748608	54	5772
2026-01-24 22:14:48.78	108.15	18.28	-41.6	-45.5	12.4	1.52e-04	0	61	0	665845760	54	5730
2026-01-24 22:14:49.78	108.38	18.24	-41.7	-45.5	12.4	1.70e-04	0	61	0	667942912	54	5756
2026-01-24 22:14:50.79	108.60	18.19	-41.7	-45.5	12.4	1.42e-04	0	61	0	670040064	54	5759
2026-01-24 22:14:51.81	108.83	18.15	-41.6	-45.4	12.4	1.39e-04	0	61	0	672137216	54	5701
2026-01-24 22:14:52.81	109.05	18.11	-41.7	-45.5	12.3	1.30e-04	0	61	0	673185792	54	5768
2026-01-24 22:14:53.82	109.27	18.07	-41.7	-45.7	12.2	2.37e-04	0	61	0	675282944	54	5864
2026-01-24 22:14:54.83	109.50	18.02	-42.0	-46.3	11.6	5.58e-04	0	61	0	677380096	54	6277
2026-01-24 22:14:55.84	109.72	17.98	-42.0	-46.2	11.6	5.92e-04	0	61	0	679477248	54	6226
2026-01-24 22:14:56.85	109.94	17.94	-42.1	-46.4	11.4	6.21e-04	0	61	0	681574400	54	6365
2026-01-24 22:14:57.86	110.16	17.89	-41.9	-46.1	11.7	5.98e-04	0	61	0	682622976	54	6139
2026-01-24 22:14:58.87	110.38	17.85	-41.9	-46.1	11.7	5.55e-04	0	61	0	684720128	54	6168
2026-01-24 22:14:59.88	110.60	17.80	-41.9	-46.0	11.8	5.57e-04	0	61	0	686817280	54	6099
2026-01-24 22:15:00.89	110.82	17.76	-42.1	-46.4	11.5	6.30e-04	0	61	0	688914432	54	6351
2026-01-24 22:15:01.91	111.04	17.71	-42.1	-46.5	11.3	9.73e-04	0	61	0	691011584	54	6480
2026-01-24 22:15:02.92	111.26	17.67	-42.2	-46.6	11.1	1.27e-03	0	61	0	692060160	54	6562
2026-01-24 22:15:03.92	111.47	17.62	-42.1	-46.5	11.2	1.34e-03	0	61	0	694157312	54	6444
2026-01-24 22:15:04.93	111.69	17.58	-42.0	-46.2	11.6	1.11e-03	0	61	0	696254464	54	6248
2026-01-24 22:15:05.94	111.90	17.53	-42.0	-46.2	11.6	7.56e-04	0	61	0	698351616	54	6217
2026-01-24 22:15:06.95	112.12	17.48	-41.9	-46.0	11.8	5.75e-04	0	61	0	700448768	54	6080
2026-01-24 22:15:07.96	112.33	17.44	-41.8	-45.8	12.0	3.54e-04	0	61	0	701497344	54	5987
2026-01-24 22:15:08.97	112.55	17.39	-41.8	-46.1	11.7	5.80e-04	0	61	0	703594496	54	6151
2026-01-24 22:15:09.98	112.76	17.34	-42.0	-46.2	11.6	7.43e-04	0	61	0	705691648	54	6265
2026-01-24 22:15:10.99	112.97	17.29	-42.1	-46.4	11.4	1.02e-03	0	61	0	707788800	54	6382
2026-01-24 22:15:12.00	113.18	17.24	-42.2	-46.8	11.0	1.86e-03	0	61	0	709885952	55	6281
2026-01-24 22:15:13.01	113.39	17.20	-42.3	-47.1	10.5	3.08e-03	0	61	0	710934528	55	6500
2026-01-24 22:15:14.02	113.60	17.15	-42.2	-46.9	10.8	2.85e-03	0	61	0	713031680	55	6373
2026-01-24 22:15:15.03	113.81	17.10	-42.2	-46.7	11.0	2.79e-03	0	61	0	715128832	55	6233
2026-01-24 22:15:16.04	114.02	17.05	-42.1	-46.6	11.1	1.80e-03	0	61	0	717225984	55	6184
2026-01-24 22:15:17.05	114.23	17.00	-42.1	-46.6	11.1	1.80e-03	0	61	0	719323136	55	6176
2026-01-24 22:15:18.06	114.44	16.95	-42.1	-46.5	11.2	1.20e-03	0	61	0	720371712	55	6084
2026-01-24 22:15:19.07	114.65	16.90	-42.1	-46.6	11.2	1.49e-03	0	61	0	722468864	55	6156
2026-01-24 22:15:20.08	114.85	16.85	-42.2	-46.7	11.0	1.65e-03	0	61	0	724566016	55	6239
2026-01-24 22:15:21.08	115.06	16.80	-42.2	-46.8	10.9	1.90e-03	0	61	0	726663168	55	6289
2026-01-24 22:15:22.09	115.26	16.75	-42.2	-46.9	10.8	2.41e-03	0	61	0	728760320	55	6364
2026-01-24 22:15:23.10	115.47	16.70	-42.2	-46.8	10.9	2.68e-03	0	61	0	729808896	55	6288
2026-01-24 22:15:24.11	115.67	16.65	-42.2	-46.8	10.9	2.18e-03	0	61	0	731906048	55	6305
2026-01-24 22:15:25.12	115.87	16.59	-42.0	-46.4	11.3	1.55e-03	0	61	0	734003200	55	6018
2026-01-24 22:15:26.13	116.07	16.54	-42.1	-46.6	11.1	1.46e-03	0	61	0	736100352	54	6517
2026-01-24 22:15:27.14	116.28	16.49	-42.0	-46.6	11.0	1.99e-03	0	61	0	738197504	54	6504
2026-01-24 22:15:28.15	116.48	16.44	-42.2	-46.8	10.8	1.81e-03	0	61	0	740294656	54	6671
2026-01-24 22:15:29.16	116.68	16.38	-42.2	-47.2	10.4	3.82e-03	0	61	0	741343232	55	6605
2026-01-24 22:15:30.17	116.88	16.33	-42.2	-47.4	10.0	5.05e-03	0	61	0	743440384	55	6729
2026-01-24 22:15:31.18	117.08	16.28	-42.5	-47.8	9.8	1.00e-02	0	61	0	745537536	55	7052
2026-01-24 22:15:32.19	117.27	16.23	-42.4	-47.7	9.7	1.64e-02	0	61	0	747634688	55	7033
2026-01-24 22:15:33.20	117.47	16.17	-42.3	-47.6	9.8	1.19e-02	0	61	0	749731840	55	6921
2026-01-24 22:15:34.21	117.67	16.12	-42.4	-47.6	10.0	9.84e-03	0	61	0	750780416	55	6885
2026-01-24 22:15:35.21	117.86	16.07	-41.6	-47.1	10.4	8.45e-03	0	61	0	752877568	55	6538
2026-01-24 22:15:36.23	118.06	16.01	-42.2	-47.2	10.2	4.23e-03	0	61	0	754974720	55	6607
2026-01-24 22:15:37.23	118.25	15.96	-42.1	-46.9	10.6	4.62e-03	0	61	0	757071872	55	6396
2026-01-24 22:15:38.25	118.45	15.90	-42.1	-46.8	10.7	3.34e-03	0	61	0	759169024	54	6655
2026-01-24 22:15:39.25	118.64	15.85	-40.3	-46.8	9.7	4.11e-03	0	61	0	760217600	52	7511
2026-01-24 22:15:40.26	118.83	15.79	-41.3	-46.8	9.5	1.46e-02	0	61	0	762314752	54	6702
2026-01-24 22:15:41.27	119.03	15.74	-42.0	-46.6	10.9	3.04e-03	0	61	0	764411904	54	6518
2026-01-24 22:15:42.28	119.22	15.68	-41.8	-46.3	11.2	1.64e-02	0	61	0	766509056	54	6306
2026-01-24 22:15:43.29	119.41	15.63	-40.7	-46.0	11.3	2.56e-03	0	61	0	768606208	54	6075
2026-01-24 22:15:44.30	119.60	15.57	-41.6	-46.1	11.4	2.22e-03	0	61	0	769654784	54	6153
2026-01-24 22:15:45.31	119.79	15.52	-38.7	-46.1	9.2	7.17e-03	0	61	0	771751936	49	8189
2026-01-24 22:15:46.32	119.98	15.46	-41.6	-46.3	11.2	2.26e-03	0	61	0	773849088	54	6289
2026-01-24 22:15:47.33	120.16	15.41	-41.9	-46.5	10.9	2.94e-02	0	61	0	775946240	54	6475
2026-01-24 22:15:48.34	120.35	15.35	-40.8	-46.6	10.8	5.47e-03	0	61	0	778043392	54	6500
2026-01-24 22:15:49.35	120.54	15.29	-41.8	-46.4	11.0	8.54e-03	0	61	0	779091968	54	6406
2026-01-24 22:15:50.36	120.72	15.24	-41.1	-46.3	10.9	7.03e-03	0	61	0	781189120	53	6647
2026-01-24 22:15:51.37	120.91	15.18	-41.8	-46.6	10.5	5.46e-03	0	61	0	783286272	54	6543
2026-01-24 22:15:52.38	121.09	15.12	-41.7	-46.3	11.1	1.08e-02	0	61	0	785383424	54	6281
2026-01-24 22:15:53.39	121.28	15.07	-39.3	-46.2	11.1	3.32e-03	0	61	0	787480576	54	6219
2026-01-24 22:15:54.40	121.46	15.01	-41.8	-46.6	10.8	3.96e-03	0	61	0	788529152	54	6534
2026-01-24 22:15:55.41	121.64	14.95	-41.7	-46.5	10.7	1.13e-02	0	61	0	790626304	54	6458
2026-01-24 22:15:56.41	121.82	14.90	-41.9	-46.9	10.5	7.19e-03	0	61	0	792723456	54	6748
2026-01-24 22:15:57.42	122.01	14.84	-41.8	-46.8	10.3	4.21e-02	0	61	0	794820608	54	6692
2026-01-24 22:15:58.43	122.19	14.78	-42.0	-46.8	10.5	7.59e-03	0	61	0	796917760	54	6706
2026-01-24 22:15:59.44	122.37	14.72	-42.0	-46.9	10.5	9.09e-03	0	61	0	797966336	54	6768
2026-01-24 22:16:00.45	122.54	14.67	-41.7	-46.5	10.8	6.17e-03	0	61	0	800063488	54	6481
2026-01-24 22:16:01.46	122.72	14.61	-41.6	-46.5	10.9	5.18e-03	0	61	0	802160640	54	6437
2026-01-24 22:16:02.47	122.90	14.55	-41.1	-46.4	10.6	4.74e-03	0	61	0	804257792	54	6365
2026-01-24 22:16:03.48	123.08	14.49	-41.8	-46.3	11.1	3.46e-03	0	61	0	806354944	54	6316
2026-01-24 22:16:04.49	123.25	14.43	-39.3	-45.9	10.5	4.19e-03	0	61	0	808452096	52	6766
2026-01-24 22:16:05.50	123.43	14.38	-41.8	-46.4	11.0	7.36e-03	0	61	0	809500672	54	6377
2026-01-24 22:16:06.51	123.61	14.32	-42.2	-47.1	10.2	6.77e-03	0	61	0	811597824	52	7738
2026-01-24 22:16:07.52	123.78	14.26	-41.9	-46.8	10.5	6.93e-03	0	61	0	813694976	54	6721
2026-01-24 22:16:08.53	123.95	14.20	-41.7	-46.5	10.8	1.23e-02	0	61	0	815792128	54	6466
2026-01-24 22:16:09.54	124.13	14.14	-40.2	-46.2	10.8	5.44e-03	0	61	0	817889280	51	7453
2026-01-24 22:16:10.55	124.30	14.08	-41.6	-46.1	11.0	6.28e-03	0	61	0	818937856	53	6549
2026-01-24 22:16:11.56	124.47	14.02	-41.4	-46.0	11.0	7.75e-03	0	61	0	821035008	53	6446
2026-01-24 22:16:12.57	124.64	13.96	-41.9	-46.0	10.8	2.55e-01	0	61	0	823132160	51	7210
2026-01-24 22:16:13.58	124.81	13.90	-41.1	-45.7	11.3	3.34e-02	0	61	0	825229312	52	6613
2026-01-24 22:16:14.59	124.98	13.85	-38.7	-45.7	11.4	1.28e-02	0	61	0	827326464	52	6577
2026-01-24 22:16:15.60	125.15	13.79	-41.4	-46.1	10.7	1.17e-01	0	61	0	828375040	52	6946
2026-01-24 22:16:16.61	125.32	13.73	-38.1	-45.9	8.1	4.07e-02	0	61	0	830472192	46	9531
2026-01-24 22:16:17.61	125.49	13.67	-41.0	-46.4	9.0	8.78e-02	0	61	0	832569344	47	9578
2026-01-24 22:16:18.62	125.65	13.61	-40.2	-47.3	8.9	5.61e-02	0	61	0	834666496	51	8398
2026-01-24 22:16:19.63	125.82	13.55	-40.3	-47.0	9.2	7.47e-02	0	61	0	835715072	52	7668
2026-01-24 22:16:20.64	125.99	13.49	-40.7	-46.6	9.4	1.10e-01	0	61	0	837812224	52	7357
2026-01-24 22:16:21.65	126.15	13.43	-40.5	-46.7	9.1	3.36e-01	0	61	0	839909376	50	8292
2026-01-24 22:16:22.66	126.32	13.37	-33.4	-45.9	9.1	1.31e-01	0	61	0	842006528	46	9579
2026-01-24 22:16:23.67	126.48	13.31	-38.7	-46.0	8.8	2.20e-01	0	61	0	844103680	48	8574
2026-01-24 22:16:24.69	126.65	13.25	-38.8	-45.3	9.6	1.72e-01	0	61	0	845152256	48	7936
2026-01-24 22:16:25.69	126.81	13.19	-38.0	-45.0	8.6	2.10e-01	0	61	0	847249408	41	11447
2026-01-24 22:16:26.70	126.97	13.13	-24.4	-39.7	7.1	5.42e-01	0	61	0	849346560	27	13997
2026-01-24 22:16:27.71	127.13	13.07	-22.9	-38.7	3.9	1.49e+00	0	61	104	849346560	18	21010
2026-01-24 22:16:28.72	127.29	13.01	-22.4	-37.1	3.9	1.49e+00	0	61	104	849346560	15	20647
2026-01-24 22:16:29.73	127.45	12.95	-34.9	-44.6	5.4	1.40e+00	0	61	104	849346560	39	12270
2026-01-24 22:16:30.74	127.61	12.89	-28.5	-45.3	5.6	1.11e+00	0	61	104	849346560	26	28068
2026-01-24 22:16:31.75	127.77	12.83	-38.1	-51.6	4.4	1.39e+00	0	61	104	849346560	42	23270
2026-01-24 22:16:32.76	127.93	12.77	-28.3	-44.0	4.9	1.35e+00	0	61	104	849346560	28	21576
2026-01-24 22:16:33.77	128.08	12.71	-24.9	-40.8	4.1	1.44e+00	0	61	104	849346560	15	31696
2026-01-24 22:16:34.78	128.24	12.65	-28.1	-43.7	4.7	1.29e+00	0	61	104	849346560	23	27724
2026-01-24 22:16:35.79	128.40	12.59	-25.2	-38.7	4.2	1.49e+00	0	61	104	849346560	19	19787
2026-01-24 22:16:36.80	128.55	12.53	-25.4	-42.3	3.8	1.49e+00	0	61	104	849346560	20	28224
2026-01-24 22:16:37.81	128.71	12.46	-24.4	-40.1	3.6	1.49e+00	0	61	104	849346560	19	23192
2026-01-24 22:16:38.82	128.86	12.40	-27.1	-42.1	3.8	1.49e+00	0	61	0	849346560	22	24458
2026-01-24 22:16:39.83	129.02	12.34	-27.6	-44.7	4.5	1.42e+00	0	61	104	849346560	26	26206
2026-01-24 22:16:40.84	129.17	12.28	-25.5	-40.0	4.6	1.44e+00	0	61	104	849346560	21	20397
2026-01-24 22:16:41.85	129.32	12.22	-29.5	-45.2	4.3	1.44e+00	0	61	104	849346560	24	31363
2026-01-24 22:16:42.86	129.48	12.16	-25.7	-39.2	4.7	1.43e+00	0	61	104	849346560	21	18638
2026-01-24 22:16:43.87	129.63	12.10	-21.7	-37.3	4.8	1.38e+00	0	61	104	849346560	20	15935
2026-01-24 22:16:44.88	129.78	12.04	-24.5	-39.9	4.2	1.41e+00	0	61	104	849346560	15	28660
2026-01-24 22:16:45.89	129.93	11.98	-24.7	-35.1	3.8	1.49e+00	0	61	0	849346560	11	20584
2026-01-24 22:16:46.90	130.08	11.92	-22.5	-38.5	3.8	1.44e+00	0	61	104	849346560	18	20411
2026-01-24 22:16:47.91	130.23	11.86	-21.9	-36.1	3.7	1.50e+00	0	61	104	849346560	12	21890
2026-01-24 22:16:48.92	130.37	11.80	-18.8	-32.3	3.8	1.48e+00	0	61	104	849346560	8	17724
2026-01-24 22:16:49.93	130.52	11.73	-19.2	-32.5	3.7	1.50e+00	0	61	104	849346560	5	21631
2026-01-24 22:16:50.94	130.67	11.67	-26.8	-44.9	4.4	1.50e+00	0	62	104	849346560	27	25295
2026-01-24 22:16:51.95	130.82	11.61	-22.3	-42.7	3.9	1.51e+00	0	61	104	849346560	25	22076
2026-01-24 22:16:52.96	130.96	11.55	-24.6	-47.0	4.0	1.50e+00	0	61	0	849346560	31	25786
2026-01-24 22:16:53.97	131.11	11.49	-28.5	-47.8	4.4	1.50e+00	0	61	104	849346560	31	28250
2026-01-24 22:16:54.97	131.25	11.43	-30.4	-47.9	5.3	1.50e+00	0	61	104	849346560	28	33924
2026-01-24 22:16:55.98	131.40	11.37	-30.5	-44.6	3.8	1.50e+00	0	61	104	849346560	24	29270
2026-01-24 22:16:57.00	131.54	11.31	-19.6	-33.6	3.6	1.40e+00	0	61	104	849346560	8	20601
2026-01-24 22:16:58.00	131.68	11.25	-23.9	-37.5	3.5	1.49e+00	0	61	104	849346560	16	20311
2026-01-24 22:16:59.01	131.83	11.19	-21.1	-39.6	3.9	1.47e+00	0	61	104	849346560	16	25919
2026-01-24 22:17:00.02	131.97	11.12	-21.4	-38.3	4.1	1.47e+00	0	61	104	849346560	17	21136
2026-01-24 22:17:01.03	132.11	11.06	-25.0	-39.7	4.2	1.46e+00	0	61	104	849346560	17	24932
2026-01-24 22:17:02.04	132.25	11.00	-24.4	-38.8	3.9	1.47e+00	0	61	0	849346560	16	23716
2026-01-24 22:17:03.05	132.39	10.94	-25.0	-39.5	4.3	1.47e+00	0	62	104	849346560	19	21717
2026-01-24 22:17:04.06	132.53	10.88	-17.3	-30.9	3.9	1.49e+00	0	61	104	849346560	6	17001
2026-01-24 22:17:05.07	132.67	10.82	-30.9	-48.1	4.1	1.50e+00	0	61	104	849346560	30	31012
2026-01-24 22:17:06.08	132.81	10.76	-27.5	-46.0	4.5	1.50e+00	0	61	104	849346560	30	24190
2026-01-24 22:17:07.09	132.95	10.70	-26.2	-42.1	4.2	1.48e+00	0	62	104	849346560	24	21938
2026-01-24 22:17:08.10	133.08	10.64	-26.3	-44.4	4.0	1.50e+00	0	61	104	849346560	24	28557
2026-01-24 22:17:09.11	133.22	10.57	-28.2	-44.4	4.1	1.50e+00	0	62	0	849346560	25	26829
2026-01-24 22:17:10.12	133.36	10.51	-27.2	-43.7	4.0	1.50e+00	0	62	104	849346560	24	26416
2026-01-24 22:17:11.13	133.49	10.45	-17.8	-39.6	3.6	1.50e+00	0	61	104	849346560	24	16439
2026-01-24 22:17:12.14	133.63	10.39	-28.0	-43.0	4.2	1.50e+00	0	61	104	849346560	21	28682
2026-01-24 22:17:13.15	133.76	10.33	-25.5	-48.0	4.1	1.51e+00	0	61	104	849346560	33	25619
2026-01-24 22:17:14.16	133.90	10.27	-29.7	-48.4	4.5	1.51e+00	0	61	104	849346560	35	24048
2026-01-24 22:17:15.17	134.03	10.21	-39.5	-49.4	3.7	1.51e+00	0	61	104	849346560	26	44936
2026-01-24 22:17:16.18	134.16	10.15	-40.9	-57.0	4.1	1.51e+00	0	61	104	849346560	50	27093
2026-01-24 22:17:17.19	134.30	10.09	-27.5	-46.7	3.8	1.50e+00	0	61	104	849346560	42	13143
2026-01-24 22:17:18.20	134.43	10.03	-38.6	-55.3	4.2	1.50e+00	0	62	104	849346560	51	21074
2026-01-24 22:17:19.21	134.56	9.96	-41.9	-56.8	3.7	1.50e+00	0	61	104	849346560	54	21051
2026-01-24 22:17:20.22	134.69	9.90	-26.8	-47.5	4.2	1.50e+00	0	61	104	849346560	42	14481
2026-01-24 22:17:21.23	134.82	9.84	-34.1	-51.4	4.1	1.50e+00	0	61	104	849346560	41	24000
2026-01-24 22:17:22.23	134.95	9.78	-41.7	-56.6	3.9	1.49e+00	0	61	104	849346560	54	20661
2026-01-24 22:17:23.24	135.08	9.72	-39.6	-54.4	4.3	1.50e+00	0	61	104	849346560	46	25427
2026-01-24 22:17:24.25	135.21	9.66	-37.6	-53.7	4.4	1.51e+00	0	61	104	849346560	43	27780
2026-01-24 22:17:25.26	135.34	9.60	-38.9	-54.7	4.6	1.50e+00	0	62	104	849346560	44	29496
2026-01-24 22:17:26.27	135.46	9.54	-31.2	-51.4	4.0	1.50e+00	0	61	104	849346560	38	28490
2026-01-24 22:17:27.28	135.59	9.48	-35.1	-53.0	3.8	1.50e+00	0	61	104	849346560	40	30648
2026-01-24 22:17:28.29	135.72	9.42	-35.1	-52.7	4.1	1.51e+00	0	62	104	849346560	39	31089
2026-01-24 22:17:29.30	135.84	9.36	-39.2	-55.4	3.9	1.49e+00	0	61	104	849346560	49	24103
2026-01-24 22:17:30.31	135.97	9.30	-35.7	-53.5	4.1	1.50e+00	0	61	104	849346560	44	25637
2026-01-24 22:17:31.32	136.10	9.24	-39.3	-55.8	3.8	1.50e+00	0	61	104	849346560	48	26606
2026-01-24 22:17:32.33	136.22	9.17	-41.3	-55.2	4.0	1.50e+00	0	61	104	849346560	45	29613
2026-01-24 22:17:33.34	136.34	9.11	-41.6	-56.3	3.8	1.50e+00	0	61	104	849346560	53	21195
2026-01-24 22:17:34.35	136.47	9.05	-40.5	-56.0	3.8	1.49e+00	0	61	104	849346560	53	20463
2026-01-24 22:17:35.36	136.59	8.99	-42.1	-57.0	3.7	1.49e+00	0	61	104	849346560	54	21566
2026-01-24 22:17:36.37	136.71	8.93	-42.0	-56.6	3.8	1.49e+00	0	61	104	849346560	54	20760
2026-01-24 22:17:37.38	136.84	8.87	-42.0	-57.1	4.0	1.49e+00	0	61	104	849346560	54	21845
2026-01-24 22:17:38.39	136.96	8.81	-40.8	-56.4	3.7	1.49e+00	0	62	104	849346560	52	22562
2026-01-24 22:17:39.40	137.08	8.75	-37.4	-55.2	3.9	1.49e+00	0	61	104	849346560	52	19823
2026-01-24 22:17:40.41	137.20	8.69	-40.0	-56.7	3.9	1.50e+00	0	61	104	849346560	51	24755
2026-01-24 22:17:41.42	137.32	8.63	-32.6	-54.3	4.3	1.49e+00	0	62	104	849346560	46	25070
2026-01-24 22:17:42.43	137.44	8.57	-39.6	-56.3	3.9	1.49e+00	0	61	104	849346560	52	22340
2026-01-24 22:17:43.44	137.56	8.51	-42.0	-56.8	3.7	1.49e+00	0	61	104	849346560	54	21079
2026-01-24 22:17:44.45	137.68	8.45	-41.3	-56.7	3.8	1.49e+00	0	61	104	849346560	54	21014
2026-01-24 22:17:45.46	137.80	8.39	-42.0	-56.7	3.9	1.49e+00	0	62	104	849346560	54	20781
2026-01-24 22:17:46.47	137.92	8.33	-42.2	-56.9	3.8	1.49e+00	0	62	104	849346560	55	20149
2026-01-24 22:17:47.48	138.03	8.27	-42.6	-57.2	3.8	1.49e+00	0	61	104	849346560	55	20946
2026-01-24 22:17:48.49	138.15	8.21	-42.5	-57.3	3.8	1.49e+00	0	62	104	849346560	55	21036
2026-01-24 22:17:49.50	138.27	8.15	-42.6	-57.3	3.8	1.49e+00	0	61	104	849346560	55	21097
2026-01-24 22:17:50.50	138.38	8.09	-42.9	-57.6	3.8	1.49e+00	0	62	104	849346560	56	20626
2026-01-24 22:17:51.51	138.50	8.03	-42.9	-57.5	3.8	1.49e+00	0	61	104	849346560	56	20457
2026-01-24 22:17:52.52	138.61	7.97	-42.1	-57.0	3.8	1.49e+00	0	61	104	849346560	55	20510
2026-01-24 22:17:53.53	138.73	7.91	-42.0	-58.2	4.1	1.50e+00	0	62	104	849346560	54	24705
2026-01-24 22:17:54.54	138.84	7.85	-44.8	-59.6	3.8	1.49e+00	0	61	104	849346560	60	20755
2026-01-24 22:17:55.55	138.96	7.79	-45.0	-59.9	3.8	1.49e+00	0	61	104	849346560	60	21301
2026-01-24 22:17:56.56	139.07	7.73	-45.2	-60.0	3.8	1.49e+00	0	61	104	849346560	61	20496
2026-01-24 22:17:57.57	139.18	7.67	-45.4	-60.2	3.8	1.49e+00	0	61	104	849346560	61	20867
2026-01-24 22:17:58.59	139.30	7.61	-45.5	-60.3	3.8	1.49e+00	0	61	104	849346560	61	21134
2026-01-24 22:17:59.59	139.41	7.55	-45.5	-60.4	3.8	1.49e+00	0	62	104	849346560	61	21367
2026-01-24 22:18:00.60	139.52	7.49	-45.6	-60.4	3.8	1.49e+00	0	61	104	849346560	61	21440
2026-01-24 22:18:01.61	139.63	7.43	-45.6	-60.4	3.8	1.49e+00	0	61	104	849346560	61	21373
2026-01-24 22:18:02.63	139.74	7.37	-45.6	-60.3	3.8	1.49e+00	0	61	104	849346560	61	21146
2026-01-24 22:18:03.64	139.85	7.31	-45.5	-60.2	3.8	1.49e+00	0	62	104	849346560	61	20892
2026-01-24 22:18:04.65	139.96	7.25	-45.4	-60.1	3.8	1.49e+00	0	62	104	849346560	61	20547
2026-01-24 22:18:05.66	140.07	7.20	-45.4	-60.0	3.8	1.49e+00	0	62	104	849346560	61	20537
2026-01-24 22:18:06.67	140.18	7.14	-45.4	-60.0	3.8	1.49e+00	0	61	104	849346560	61	20523
2026-01-24 22:18:07.68	140.29	7.08	-45.2	-59.9	3.8	1.49e+00	0	62	104	849346560	61	20099
2026-01-24 22:18:08.69	140.40	7.02	-45.2	-59.8	3.8	1.49e+00	0	62	104	849346560	61	19985
2026-01-24 22:18:09.70	140.51	6.96	-45.2	-59.8	3.8	1.49e+00	0	61	104	849346560	61	20027
2026-01-24 22:18:10.71	140.61	6.90	-45.2	-59.8	3.8	1.49e+00	0	61	104	849346560	61	20071
2026-01-24 22:18:11.72	140.72	6.84	-45.2	-59.8	3.8	1.49e+00	0	61	104	849346560	61	19957
2026-01-24 22:18:12.73	140.83	6.78	-45.2	-59.8	3.8	1.49e+00	0	62	104	849346560	61	19967
2026-01-24 22:18:13.74	140.93	6.72	-45.2	-59.8	3.8	1.49e+00	0	62	104	849346560	61	19985
2026-01-24 22:18:14.75	141.04	6.66	-45.2	-59.8	3.8	1.49e+00	0	61	104	849346560	61	19988
2026-01-24 22:18:15.76	141.14	6.61	-45.2	-59.8	3.8	1.49e+00	0	62	104	849346560	61	19989
2026-01-24 22:18:16.77	141.25	6.55	-45.2	-59.8	3.8	1.49e+00	0	61	104	849346560	61	19942
2026-01-24 22:18:17.78	141.35	6.49	-45.2	-59.8	3.8	1.49e+00	0	61	104	849346560	61	19939
2026-01-24 22:18:18.79	141.46	6.43	-45.2	-59.8	3.8	1.49e+00	0	61	104	849346560	61	20015
2026-01-24 22:18:19.80	141.56	6.37	-45.2	-59.8	3.8	1.49e+00	0	61	104	849346560	61	19869
2026-01-24 22:18:20.81	141.66	6.31	-45.2	-59.8	3.8	1.49e+00	0	62	104	849346560	61	19929
2026-01-24 22:18:21.83	141.77	6.25	-45.2	-59.7	3.8	1.49e+00	0	62	104	849346560	61	19824
2026-01-24 22:18:22.84	141.87	6.19	-45.2	-59.8	3.8	1.49e+00	0	61	104	849346560	61	19926
2026-01-24 22:18:23.85	141.97	6.14	-45.2	-59.8	3.8	1.49e+00	0	62	104	849346560	61	19871
2026-01-24 22:18:24.86	142.07	6.08	-45.2	-59.8	3.8	1.49e+00	0	62	104	849346560	61	19870
2026-01-24 22:18:25.87	142.17	6.02	-45.2	-59.8	3.8	1.49e+00	0	61	104	849346560	61	19924
2026-01-24 22:18:26.88	142.28	5.96	-45.2	-59.8	3.8	1.49e+00	0	62	104	849346560	61	19855
2026-01-24 22:18:27.89	142.38	5.90	-45.2	-59.8	3.8	1.49e+00	0	62	104	849346560	61	19864
2026-01-24 22:18:28.90	142.48	5.85	-45.2	-59.7	3.8	1.49e+00	0	61	104	849346560	61	19806
2026-01-24 22:18:29.91	142.58	5.79	-45.2	-59.8	3.8	1.49e+00	0	62	104	849346560	61	19885
2026-01-24 22:18:30.92	142.68	5.73	-45.2	-59.7	3.8	1.49e+00	0	62	104	849346560	61	19836
2026-01-24 22:18:31.93	142.77	5.67	-45.2	-59.7	3.8	1.49e+00	0	61	104	849346560	61	19819
2026-01-24 22:18:32.94	142.87	5.61	-45.1	-59.7	3.8	1.49e+00	0	61	104	849346560	61	19772
2026-01-24 22:18:33.95	142.97	5.56	-45.2	-59.8	3.8	1.49e+00	0	61	104	849346560	61	19849
2026-01-24 22:18:34.96	143.07	5.50	-45.1	-59.7	3.8	1.49e+00	0	61	104	849346560	61	19794
2026-01-24 22:18:35.97	143.17	5.44	-45.1	-59.7	3.8	1.49e+00	0	61	104	849346560	61	19779
2026-01-24 22:18:36.99	143.26	5.38	-45.1	-59.7	3.8	1.49e+00	0	62	104	849346560	61	19713
2026-01-24 22:18:38.00	143.36	5.33	-45.1	-59.7	3.8	1.49e+00	0	61	104	849346560	61	19745
2026-01-24 22:18:39.01	143.46	5.27	-45.1	-59.7	3.8	1.49e+00	0	61	104	849346560	61	19774
2026-01-24 22:18:40.02	143.55	5.21	-45.1	-59.7	3.8	1.49e+00	0	61	104	849346560	61	19767
2026-01-24 22:18:41.03	143.65	5.15	-45.1	-59.7	3.8	1.49e+00	0	61	104	849346560	61	19763
2026-01-24 22:18:42.04	143.74	5.10	-45.1	-59.7	3.8	1.49e+00	0	62	104	849346560	61	19793
2026-01-24 22:18:43.05	143.84	5.04	-45.1	-59.7	3.8	1.49e+00	0	62	104	849346560	61	19784
2026-01-24 22:18:44.06	143.93	4.98	-45.1	-59.7	3.8	1.49e+00	0	62	104	849346560	61	19782
2026-01-24 22:18:45.07	144.03	4.92	-45.1	-59.7	3.8	1.49e+00	0	62	104	849346560	61	19710
2026-01-24 22:18:46.08	144.12	4.87	-45.1	-59.7	3.8	1.49e+00	0	61	104	849346560	61	19760
2026-01-24 22:18:47.09	144.22	4.81	-45.1	-59.7	3.8	1.49e+00	0	61	104	849346560	61	19731
2026-01-24 22:18:48.10	144.31	4.75	-45.1	-59.7	3.8	1.49e+00	0	62	104	849346560	61	19714
2026-01-24 22:18:49.11	144.40	4.70	-45.1	-59.7	3.8	1.49e+00	0	62	104	849346560	61	19803
2026-01-24 22:18:50.12	144.49	4.64	-45.1	-59.7	3.8	1.49e+00	0	61	104	849346560	61	19790
