passes_logs/2026/01/24/R2.0S_Moscow/R2.0S_Moscow__20260124_200613_FENGYUN_3G_rec.log

#Pass ID: 20260124_200613_FENGYUN 3G
#Satellite: FENGYUN 3G
#Configuration: FENGYUN 3G
#almurnet v.1.7.20251203
#Start time: 2026-01-24 20:06:14

#Version: 2.2.20231116
#Station: R2.0S_Moscow
#Location: 37.707566 lon 55.798166 lat
#TLE: 1 56232U 23055A   26024.24521059  .00049620  00000+0  74824-3 0  9993
#TLE: 2 56232  49.9947   8.2107 0004117  75.2128 284.9296 15.54221826157636

#Time	Az	El	Level	Level2	SNR	BER	BlckErr	Temp	State	Recorded	gain1	gain2
2026-01-24 20:06:14.26	257.83	2.06	-44.1	-62.2	3.8	8.46e-01	0	52	0	0	60	27849
2026-01-24 20:06:15.27	257.76	2.12	-44.1	-62.2	3.8	8.43e-01	0	52	104	0	60	27918
2026-01-24 20:06:16.28	257.70	2.19	-44.1	-62.3	3.8	8.46e-01	0	52	104	0	60	28066
2026-01-24 20:06:17.29	257.63	2.26	-44.1	-62.2	3.8	8.47e-01	0	52	104	0	60	28002
2026-01-24 20:06:18.30	257.56	2.32	-44.1	-62.2	3.8	8.47e-01	0	52	104	0	60	27939
2026-01-24 20:06:19.31	257.50	2.39	-44.1	-62.2	3.8	8.46e-01	0	52	104	0	60	27916
2026-01-24 20:06:20.32	257.43	2.46	-44.1	-62.2	3.8	8.47e-01	0	52	104	0	60	27822
2026-01-24 20:06:21.33	257.36	2.52	-44.1	-62.1	3.8	8.47e-01	0	53	104	0	60	27648
2026-01-24 20:06:22.34	257.29	2.59	-44.1	-62.1	3.8	8.46e-01	0	53	104	0	60	27418
2026-01-24 20:06:23.35	257.22	2.66	-44.1	-62.0	3.8	8.46e-01	0	53	104	0	60	27336
2026-01-24 20:06:24.36	257.15	2.73	-44.1	-62.1	3.8	8.46e-01	0	53	104	0	60	27430
2026-01-24 20:06:25.37	257.08	2.79	-44.1	-62.0	3.8	8.47e-01	0	53	104	0	60	27160
2026-01-24 20:06:26.38	257.01	2.86	-44.1	-62.0	3.8	8.47e-01	0	53	104	0	60	27344
2026-01-24 20:06:27.39	256.94	2.93	-44.1	-62.0	3.8	8.47e-01	0	53	104	0	60	27252
2026-01-24 20:06:28.40	256.87	3.00	-44.1	-62.0	3.8	8.46e-01	0	53	104	0	60	27333
2026-01-24 20:06:29.41	256.79	3.07	-44.1	-62.1	3.8	8.46e-01	0	53	104	0	60	27638
2026-01-24 20:06:30.42	256.72	3.14	-44.1	-62.1	3.8	8.47e-01	0	53	104	0	60	27677
2026-01-24 20:06:31.44	256.65	3.21	-44.1	-62.2	3.8	8.47e-01	0	54	104	0	60	27845
2026-01-24 20:06:32.45	256.57	3.28	-44.1	-62.2	3.8	8.46e-01	0	53	104	0	60	27929
2026-01-24 20:06:33.46	256.50	3.35	-44.1	-62.2	3.8	8.47e-01	0	53	104	0	60	27911
2026-01-24 20:06:34.47	256.42	3.42	-44.1	-62.2	3.8	8.47e-01	0	54	104	0	60	27885
2026-01-24 20:06:35.48	256.35	3.49	-44.1	-62.2	3.8	8.45e-01	0	53	104	0	60	27769
2026-01-24 20:06:36.48	256.27	3.56	-44.1	-62.1	3.8	8.46e-01	0	54	104	0	60	27592
2026-01-24 20:06:37.50	256.20	3.63	-44.1	-62.2	3.8	8.46e-01	0	54	104	0	60	27751
2026-01-24 20:06:38.51	256.12	3.70	-44.1	-62.1	3.8	8.46e-01	0	54	104	0	60	27647
2026-01-24 20:06:39.52	256.04	3.77	-44.1	-62.1	3.8	8.46e-01	0	54	104	0	60	27515
2026-01-24 20:06:40.53	255.96	3.84	-44.1	-62.2	3.8	8.45e-01	0	54	104	0	60	27769
2026-01-24 20:06:41.54	255.88	3.91	-44.1	-62.2	3.8	8.45e-01	0	54	104	0	60	27771
2026-01-24 20:06:42.55	255.80	3.99	-44.1	-62.2	3.8	8.46e-01	0	54	104	0	60	27865
2026-01-24 20:06:43.56	255.72	4.06	-44.1	-62.2	3.8	8.46e-01	0	54	104	0	60	27739
2026-01-24 20:06:44.57	255.64	4.13	-44.1	-62.1	3.8	8.46e-01	0	54	104	0	60	27697
2026-01-24 20:06:45.58	255.56	4.20	-44.1	-62.1	3.8	8.46e-01	0	54	104	0	60	27452
2026-01-24 20:06:46.59	255.48	4.28	-44.1	-61.8	3.8	8.46e-01	0	54	104	0	60	26724
2026-01-24 20:06:47.60	255.40	4.35	-44.1	-61.7	3.8	8.46e-01	0	54	104	0	60	26236
2026-01-24 20:06:48.61	255.32	4.42	-44.1	-61.4	3.8	8.46e-01	0	54	104	0	60	25429
2026-01-24 20:06:49.62	255.23	4.50	-44.0	-61.3	3.8	8.46e-01	0	55	104	0	60	25057
2026-01-24 20:06:50.63	255.15	4.57	-44.1	-61.2	3.8	8.46e-01	0	54	104	0	60	24741
2026-01-24 20:06:51.64	255.06	4.65	-44.1	-61.2	3.8	8.46e-01	0	54	104	0	60	24828
2026-01-24 20:06:52.65	254.98	4.72	-44.0	-61.2	3.8	8.45e-01	0	54	104	0	60	24879
2026-01-24 20:06:53.66	254.89	4.80	-44.0	-61.5	3.8	8.47e-01	0	55	104	0	60	25622
2026-01-24 20:06:54.67	254.80	4.87	-44.1	-61.6	3.8	8.47e-01	0	55	104	0	60	26092
2026-01-24 20:06:55.68	254.72	4.95	-44.1	-61.7	3.8	8.46e-01	0	55	104	0	60	26348
2026-01-24 20:06:56.69	254.63	5.02	-44.0	-61.7	3.8	8.47e-01	0	55	104	0	60	26439
2026-01-24 20:06:57.70	254.54	5.10	-44.0	-61.6	3.8	8.47e-01	0	55	104	0	60	26057
2026-01-24 20:06:58.72	254.45	5.18	-44.0	-61.2	3.8	8.45e-01	0	55	104	0	60	24929
2026-01-24 20:06:59.72	254.36	5.25	-44.0	-60.7	3.8	8.46e-01	0	55	104	0	60	23540
2026-01-24 20:07:00.73	254.27	5.33	-44.0	-60.0	3.9	8.46e-01	0	55	104	0	60	21712
2026-01-24 20:07:01.75	254.18	5.41	-44.0	-59.6	3.8	8.45e-01	0	55	104	0	60	20688
2026-01-24 20:07:02.76	254.09	5.48	-44.0	-59.1	4.1	8.44e-01	0	55	0	0	60	19573
2026-01-24 20:07:03.77	253.99	5.56	-44.1	-59.1	4.1	8.44e-01	0	55	0	0	59	20698
2026-01-24 20:07:04.78	253.90	5.64	-44.1	-58.9	4.2	8.42e-01	0	55	0	0	59	20211
2026-01-24 20:07:05.79	253.80	5.72	-44.0	-58.9	4.1	8.39e-01	0	55	0	0	59	20097
2026-01-24 20:07:06.80	253.71	5.80	-44.0	-58.5	4.2	8.38e-01	0	55	0	0	59	19371
2026-01-24 20:07:07.81	253.61	5.88	-44.0	-58.5	4.2	8.38e-01	0	55	0	0	59	19267
2026-01-24 20:07:08.82	253.52	5.95	-44.0	-58.2	4.3	8.36e-01	0	55	0	0	59	18697
2026-01-24 20:07:09.83	253.42	6.03	-44.0	-57.9	4.4	8.32e-01	0	56	0	0	59	18081
2026-01-24 20:07:10.84	253.32	6.11	-44.0	-57.3	4.7	8.32e-01	0	55	0	0	59	16724
2026-01-24 20:07:11.85	253.22	6.19	-43.9	-56.7	4.9	8.17e-01	0	56	0	0	59	15631
2026-01-24 20:07:12.86	253.12	6.28	-43.9	-55.5	5.7	7.60e-01	0	55	0	0	59	13714
2026-01-24 20:07:13.87	253.02	6.36	-43.7	-54.3	6.6	7.60e-01	0	56	0	1048576	59	11947
2026-01-24 20:07:14.88	252.92	6.44	-43.5	-52.8	8.0	3.82e-01	0	56	0	2097152	59	9995
2026-01-24 20:07:15.89	252.82	6.52	-43.4	-52.0	8.9	1.06e-01	0	56	0	3145728	58	9664
2026-01-24 20:07:16.90	252.72	6.60	-43.2	-51.0	9.9	1.06e-01	0	56	0	4194304	58	8646
2026-01-24 20:07:17.91	252.61	6.68	-43.1	-50.5	10.5	2.40e-02	0	56	0	5767168	58	8140
2026-01-24 20:07:18.92	252.51	6.77	-43.0	-50.0	11.0	6.26e-03	0	56	0	6815744	58	7678
2026-01-24 20:07:19.93	252.40	6.85	-43.0	-50.2	10.8	2.97e-03	0	56	0	7864320	58	7872
2026-01-24 20:07:20.94	252.29	6.93	-43.2	-51.1	9.9	2.97e-03	0	56	0	8912896	58	8699
2026-01-24 20:07:21.95	252.19	7.01	-43.5	-52.3	8.6	8.58e-03	0	56	0	9961472	58	10049
2026-01-24 20:07:22.96	252.08	7.10	-43.7	-54.3	6.8	6.08e-02	0	56	0	11010048	58	12553
2026-01-24 20:07:23.98	251.97	7.18	-44.0	-57.0	4.9	6.08e-02	0	56	0	12058624	58	17084
2026-01-24 20:07:24.99	251.86	7.27	-44.1	-60.2	3.8	5.14e-01	0	56	104	12058624	58	24950
2026-01-24 20:07:26.00	251.75	7.35	-44.0	-59.1	4.1	8.42e-01	0	56	104	12058624	58	21871
2026-01-24 20:07:27.01	251.64	7.44	-43.7	-54.3	6.5	8.42e-01	0	56	0	12058624	58	12636
2026-01-24 20:07:28.02	251.52	7.52	-43.2	-51.1	9.7	6.80e-01	0	56	0	13107200	58	8727
2026-01-24 20:07:29.03	251.41	7.61	-42.7	-48.9	12.0	4.82e-02	0	56	0	14155776	57	7194
2026-01-24 20:07:30.04	251.30	7.70	-42.1	-47.2	13.9	4.53e-04	0	56	0	15204352	56	6222
2026-01-24 20:07:31.05	251.18	7.78	-41.6	-46.2	14.8	4.53e-04	0	56	0	16777216	55	5888
2026-01-24 20:07:32.06	251.06	7.87	-41.2	-45.5	15.6	1.10e-06	0	56	0	17825792	54	5733
2026-01-24 20:07:33.07	250.95	7.96	-41.1	-45.3	15.8	0.00e+00	0	56	0	18874368	54	5598
2026-01-24 20:07:34.08	250.83	8.05	-41.3	-45.6	15.4	0.00e+00	0	56	0	19922944	54	5800
2026-01-24 20:07:35.09	250.71	8.13	-43.1	-50.1	10.7	0.00e+00	0	57	0	20971520	56	8756
2026-01-24 20:07:36.10	250.59	8.22	-41.7	-46.5	14.6	4.05e-04	0	57	0	22020096	55	6075
2026-01-24 20:07:37.11	250.47	8.31	-43.9	-56.7	5.0	4.05e-04	0	56	0	23068672	58	16678
2026-01-24 20:07:38.12	250.34	8.40	-42.9	-49.3	11.5	2.76e-01	0	57	0	24117248	56	7975
2026-01-24 20:07:39.13	250.22	8.49	-43.2	-51.2	9.6	1.95e-02	0	56	0	25165824	57	9378
2026-01-24 20:07:40.14	250.10	8.58	-41.0	-44.9	16.1	1.95e-02	0	57	0	26214400	54	5385
2026-01-24 20:07:41.14	249.97	8.67	-40.7	-44.4	16.6	2.87e-03	0	57	0	27262976	53	5371
2026-01-24 20:07:42.15	249.84	8.76	-40.6	-44.3	16.8	0.00e+00	0	57	0	28835840	53	5302
2026-01-24 20:07:43.16	249.72	8.85	-40.6	-44.2	16.9	0.00e+00	0	57	0	29884416	53	5260
2026-01-24 20:07:44.17	249.59	8.94	-40.6	-44.2	16.9	0.00e+00	0	57	0	30932992	53	5265
2026-01-24 20:07:45.18	249.46	9.04	-40.6	-44.1	16.9	0.00e+00	0	57	0	31981568	53	5212
2026-01-24 20:07:46.19	249.32	9.13	-40.5	-44.0	17.1	0.00e+00	0	57	0	33030144	53	5146
2026-01-24 20:07:47.21	249.19	9.22	-40.4	-43.9	17.2	0.00e+00	0	57	0	34603008	52	5354
2026-01-24 20:07:48.22	249.06	9.32	-40.4	-43.7	17.4	0.00e+00	0	57	0	35651584	52	5264
2026-01-24 20:07:49.23	248.92	9.41	-40.3	-43.6	17.6	0.00e+00	0	57	0	36700160	52	5186
2026-01-24 20:07:50.24	248.79	9.50	-40.3	-43.6	17.6	0.00e+00	0	57	0	37748736	52	5193
2026-01-24 20:07:51.24	248.65	9.60	-40.3	-43.5	17.7	0.00e+00	0	57	0	38797312	52	5139
2026-01-24 20:07:52.25	248.51	9.69	-40.2	-43.4	17.8	0.00e+00	0	57	0	39845888	52	5045
2026-01-24 20:07:53.26	248.37	9.79	-40.2	-43.4	17.8	0.00e+00	0	57	0	40894464	52	5072
2026-01-24 20:07:54.27	248.23	9.88	-40.3	-43.6	17.7	0.00e+00	0	57	0	42467328	52	5169
2026-01-24 20:07:55.28	248.09	9.98	-40.2	-43.5	17.7	0.00e+00	0	57	0	43515904	52	5124
2026-01-24 20:07:56.29	247.94	10.08	-40.3	-43.6	17.7	0.00e+00	0	57	0	44564480	52	5177
2026-01-24 20:07:57.30	247.80	10.17	-40.3	-43.6	17.6	0.00e+00	0	57	0	45613056	52	5205
2026-01-24 20:07:58.31	247.65	10.27	-40.3	-43.6	17.6	0.00e+00	0	57	0	46661632	52	5201
2026-01-24 20:07:59.32	247.51	10.37	-40.3	-43.5	17.7	0.00e+00	0	57	0	47710208	52	5158
2026-01-24 20:08:00.33	247.36	10.47	-40.3	-43.6	17.7	0.00e+00	0	57	0	49283072	52	5180
2026-01-24 20:08:01.34	247.21	10.57	-40.4	-43.6	17.7	0.00e+00	0	57	0	50331648	52	5205
2026-01-24 20:08:02.35	247.05	10.67	-40.3	-43.5	17.7	0.00e+00	0	57	0	51380224	52	5149
2026-01-24 20:08:03.35	246.90	10.76	-40.3	-43.4	17.8	0.00e+00	0	57	0	52428800	52	5097
2026-01-24 20:08:04.36	246.75	10.86	-40.2	-43.3	18.0	0.00e+00	0	57	0	53477376	52	5034
2026-01-24 20:08:05.37	246.59	10.97	-40.1	-43.2	18.1	0.00e+00	0	57	0	54525952	52	4961
2026-01-24 20:08:06.38	246.43	11.07	-40.0	-43.0	18.4	0.00e+00	0	57	0	56098816	51	5125
2026-01-24 20:08:07.39	246.27	11.17	-40.0	-42.9	18.5	0.00e+00	0	57	0	57147392	51	5067
2026-01-24 20:08:08.40	246.11	11.27	-39.9	-42.9	18.5	0.00e+00	0	57	0	58195968	51	5064
2026-01-24 20:08:09.41	245.95	11.37	-40.0	-43.0	18.4	0.00e+00	0	58	0	59244544	51	5122
2026-01-24 20:08:10.42	245.79	11.48	-40.1	-43.1	18.3	0.00e+00	0	57	0	60293120	51	5171
2026-01-24 20:08:11.43	245.62	11.58	-40.0	-43.0	18.4	0.00e+00	0	57	0	61341696	51	5113
2026-01-24 20:08:12.44	245.46	11.68	-40.0	-43.0	18.4	0.00e+00	0	57	0	62914560	51	5135
2026-01-24 20:08:13.45	245.29	11.79	-40.0	-43.0	18.4	0.00e+00	0	57	0	63963136	51	5123
2026-01-24 20:08:14.46	245.12	11.89	-39.9	-42.9	18.5	0.00e+00	0	58	0	65011712	51	5071
2026-01-24 20:08:15.47	244.95	12.00	-39.9	-42.8	18.6	0.00e+00	0	58	0	66060288	51	5029
2026-01-24 20:08:16.48	244.77	12.10	-39.9	-42.8	18.6	0.00e+00	0	58	0	67108864	51	5036
2026-01-24 20:08:17.49	244.60	12.21	-39.9	-42.8	18.7	0.00e+00	0	57	0	68157440	51	4992
2026-01-24 20:08:18.50	244.42	12.32	-39.9	-42.7	18.7	0.00e+00	0	58	0	69730304	51	4968
2026-01-24 20:08:19.51	244.24	12.43	-40.0	-42.9	18.6	0.00e+00	0	58	0	70778880	51	5060
2026-01-24 20:08:20.52	244.06	12.53	-39.7	-42.5	19.0	0.00e+00	0	58	0	71827456	51	4825
2026-01-24 20:08:21.53	243.88	12.64	-39.6	-42.4	19.1	0.00e+00	0	58	0	72876032	51	4785
2026-01-24 20:08:22.54	243.70	12.75	-39.7	-42.5	19.0	0.00e+00	0	58	0	73924608	51	4819
2026-01-24 20:08:23.55	243.51	12.86	-39.7	-42.6	18.9	0.00e+00	0	58	0	74973184	51	4880
2026-01-24 20:08:24.56	243.33	12.97	-39.9	-42.7	18.7	0.00e+00	0	58	0	76546048	51	4978
2026-01-24 20:08:25.57	243.14	13.08	-39.9	-42.8	18.7	0.00e+00	0	58	0	77594624	51	5021
2026-01-24 20:08:26.58	242.95	13.19	-39.9	-42.8	18.7	0.00e+00	0	58	0	78643200	51	4993
2026-01-24 20:08:27.59	242.75	13.30	-39.9	-42.7	18.7	0.00e+00	0	58	0	79691776	51	4980
2026-01-24 20:08:28.60	242.56	13.41	-39.8	-42.5	19.0	0.00e+00	0	58	0	80740352	51	4865
2026-01-24 20:08:29.61	242.36	13.53	-39.5	-42.2	19.3	0.00e+00	0	58	0	81788928	51	4660
2026-01-24 20:08:30.62	242.16	13.64	-39.4	-42.0	19.5	0.00e+00	0	58	0	83361792	50	4828
2026-01-24 20:08:31.62	241.97	13.75	-39.3	-41.8	19.7	0.00e+00	0	58	0	84410368	50	4737
2026-01-24 20:08:32.63	241.76	13.86	-39.3	-41.9	19.6	0.00e+00	0	58	0	85458944	50	4773
2026-01-24 20:08:33.64	241.56	13.98	-39.3	-41.9	19.7	0.00e+00	0	58	0	86507520	50	4771
2026-01-24 20:08:34.66	241.35	14.09	-39.3	-41.9	19.7	0.00e+00	0	58	0	87556096	50	4789
2026-01-24 20:08:35.66	241.14	14.21	-39.3	-41.9	19.6	0.00e+00	0	58	0	88604672	50	4812
2026-01-24 20:08:36.67	240.93	14.32	-39.3	-41.9	19.6	0.00e+00	0	58	0	90177536	50	4798
2026-01-24 20:08:37.68	240.72	14.44	-39.3	-41.8	19.7	0.00e+00	0	58	0	91226112	50	4744
2026-01-24 20:08:38.69	240.50	14.56	-39.2	-41.7	19.8	0.00e+00	0	58	0	92274688	50	4698
2026-01-24 20:08:39.70	240.29	14.67	-39.3	-41.9	19.7	0.00e+00	0	58	0	93323264	50	4784
2026-01-24 20:08:40.71	240.07	14.79	-39.3	-41.8	19.8	0.00e+00	0	58	0	94371840	50	4739
2026-01-24 20:08:41.72	239.84	14.91	-39.3	-41.8	19.8	0.00e+00	0	58	0	95420416	50	4736
2026-01-24 20:08:42.73	239.62	15.03	-39.2	-41.7	19.9	0.00e+00	0	58	0	96993280	50	4676
2026-01-24 20:08:43.74	239.39	15.15	-39.1	-41.6	20.0	0.00e+00	0	58	0	98041856	50	4607
2026-01-24 20:08:44.75	239.17	15.27	-39.1	-41.6	20.0	0.00e+00	0	58	0	99090432	50	4625
2026-01-24 20:08:45.76	238.93	15.39	-39.0	-41.5	20.1	0.00e+00	0	58	0	100139008	50	4568
2026-01-24 20:08:46.77	238.70	15.51	-39.1	-41.5	20.1	0.00e+00	0	58	0	101187584	50	4580
2026-01-24 20:08:47.78	238.46	15.63	-39.0	-41.4	20.2	0.00e+00	0	58	0	102236160	50	4529
2026-01-24 20:08:48.79	238.23	15.75	-38.9	-41.4	20.3	0.00e+00	0	58	0	103809024	49	4761
2026-01-24 20:08:49.80	237.99	15.87	-39.0	-41.4	20.3	0.00e+00	0	58	0	104857600	49	4772
2026-01-24 20:08:50.81	237.74	15.99	-38.9	-41.3	20.3	0.00e+00	0	59	0	105906176	49	4751
2026-01-24 20:08:51.82	237.50	16.12	-38.8	-41.2	20.5	0.00e+00	0	58	0	106954752	49	4668
2026-01-24 20:08:52.83	237.25	16.24	-38.9	-41.2	20.4	0.00e+00	0	58	0	108003328	49	4704
2026-01-24 20:08:53.84	237.00	16.36	-38.8	-41.1	20.5	0.00e+00	0	59	0	109051904	49	4630
2026-01-24 20:08:54.85	236.74	16.49	-38.8	-41.1	20.5	0.00e+00	0	58	0	110624768	49	4622
2026-01-24 20:08:55.86	236.49	16.61	-38.7	-41.0	20.6	0.00e+00	0	58	0	111673344	49	4582
2026-01-24 20:08:56.87	236.23	16.74	-38.7	-41.1	20.6	0.00e+00	0	58	0	112721920	49	4608
2026-01-24 20:08:57.88	235.96	16.86	-38.5	-40.8	20.9	0.00e+00	0	59	0	113770496	49	4457
2026-01-24 20:08:58.89	235.70	16.99	-38.5	-40.7	20.9	0.00e+00	0	58	0	114819072	49	4435
2026-01-24 20:08:59.90	235.43	17.11	-38.5	-40.7	20.9	0.00e+00	0	59	0	115867648	48	4671
2026-01-24 20:09:00.91	235.16	17.24	-38.6	-40.9	20.8	0.00e+00	0	58	0	117440512	48	4777
2026-01-24 20:09:01.92	234.89	17.37	-38.7	-41.0	20.7	0.00e+00	0	59	0	118489088	48	4827
2026-01-24 20:09:02.93	234.61	17.50	-38.7	-41.0	20.6	0.00e+00	0	58	0	119537664	48	4855
2026-01-24 20:09:03.94	234.33	17.62	-38.6	-40.9	20.9	0.00e+00	0	58	0	120586240	48	4761
2026-01-24 20:09:04.95	234.05	17.75	-38.6	-40.9	20.8	0.00e+00	0	59	0	121634816	48	4769
2026-01-24 20:09:05.96	233.77	17.88	-38.6	-40.9	20.8	0.00e+00	0	59	0	122683392	48	4761
2026-01-24 20:09:06.97	233.48	18.01	-38.3	-40.5	21.2	0.00e+00	0	59	0	124256256	48	4589
2026-01-24 20:09:07.98	233.19	18.14	-38.3	-40.4	21.3	0.00e+00	0	59	0	125304832	48	4541
2026-01-24 20:09:08.99	232.89	18.27	-38.1	-40.3	21.4	0.00e+00	0	59	0	126353408	48	4456
2026-01-24 20:09:09.99	232.60	18.40	-38.1	-40.2	21.5	0.00e+00	0	59	0	127401984	48	4432
2026-01-24 20:09:11.00	232.30	18.53	-38.2	-40.4	21.4	0.00e+00	0	59	0	128450560	48	4500
2026-01-24 20:09:12.01	232.00	18.66	-38.3	-40.5	21.3	0.00e+00	0	59	0	129499136	48	4555
2026-01-24 20:09:13.02	231.69	18.79	-38.4	-40.5	21.2	0.00e+00	0	59	0	131072000	48	4592
2026-01-24 20:09:14.03	231.38	18.92	-38.6	-40.8	20.9	0.00e+00	0	59	0	132120576	48	4730
2026-01-24 20:09:15.04	231.07	19.05	-38.7	-41.0	20.8	0.00e+00	0	59	0	133169152	48	4816
2026-01-24 20:09:16.05	230.75	19.18	-38.6	-40.9	20.9	0.00e+00	0	59	0	134217728	48	4795
2026-01-24 20:09:17.06	230.43	19.31	-38.5	-40.7	21.1	0.00e+00	0	59	0	135266304	48	4664
2026-01-24 20:09:18.07	230.11	19.44	-38.4	-40.6	21.2	0.00e+00	0	59	0	136314880	48	4610
2026-01-24 20:09:19.08	229.78	19.57	-38.1	-40.2	21.5	0.00e+00	0	59	0	137887744	48	4434
2026-01-24 20:09:20.09	229.45	19.71	-38.0	-40.1	21.6	0.00e+00	0	59	0	138936320	48	4359
2026-01-24 20:09:21.10	229.12	19.84	-38.0	-40.1	21.7	0.00e+00	0	59	0	139984896	48	4358
2026-01-24 20:09:22.11	228.78	19.97	-37.8	-39.9	21.8	0.00e+00	0	59	0	141033472	47	4524
2026-01-24 20:09:23.12	228.44	20.10	-37.9	-40.0	21.8	0.00e+00	0	59	0	142082048	47	4551
2026-01-24 20:09:24.13	228.09	20.23	-37.9	-40.0	21.7	0.00e+00	0	59	0	143130624	47	4585
2026-01-24 20:09:25.14	227.74	20.37	-38.0	-40.1	21.6	0.00e+00	0	59	0	144703488	47	4642
2026-01-24 20:09:26.15	227.39	20.50	-38.2	-40.3	21.5	0.00e+00	0	59	0	145752064	47	4740
2026-01-24 20:09:27.15	227.04	20.63	-38.2	-40.3	21.5	0.00e+00	0	59	0	146800640	47	4733
2026-01-24 20:09:28.16	226.68	20.76	-38.1	-40.2	21.5	0.00e+00	0	59	0	147849216	47	4691
2026-01-24 20:09:29.18	226.32	20.90	-38.1	-40.2	21.6	0.00e+00	0	59	0	148897792	47	4670
2026-01-24 20:09:30.19	225.95	21.03	-38.0	-40.2	21.6	0.00e+00	0	59	0	149946368	47	4655
2026-01-24 20:09:31.20	225.58	21.16	-37.9	-40.0	21.8	0.00e+00	0	59	0	151519232	47	4577
2026-01-24 20:09:32.21	225.20	21.29	-37.9	-40.0	21.8	0.00e+00	0	59	0	152567808	47	4574
2026-01-24 20:09:33.22	224.83	21.42	-37.6	-39.6	22.2	0.00e+00	0	59	0	153616384	47	4354
2026-01-24 20:09:34.22	224.45	21.55	-37.6	-39.6	22.1	0.00e+00	0	59	0	154664960	47	4382
2026-01-24 20:09:35.23	224.06	21.68	-37.7	-39.8	22.0	0.00e+00	0	59	0	155713536	47	4449
2026-01-24 20:09:36.24	223.67	21.81	-37.7	-39.7	22.1	0.00e+00	0	59	0	156762112	47	4396
2026-01-24 20:09:37.25	223.28	21.95	-37.7	-39.7	22.2	0.00e+00	0	59	0	158334976	47	4396
2026-01-24 20:09:38.26	222.88	22.08	-37.7	-39.7	22.1	0.00e+00	0	59	0	159383552	47	4412
2026-01-24 20:09:39.27	222.48	22.21	-37.7	-39.7	22.1	0.00e+00	0	59	0	160432128	47	4400
2026-01-24 20:09:40.28	222.08	22.33	-37.6	-39.6	22.2	0.00e+00	0	59	0	161480704	47	4362
2026-01-24 20:09:41.29	221.67	22.46	-37.4	-39.3	22.5	0.00e+00	0	59	0	162529280	46	4491
2026-01-24 20:09:42.30	221.25	22.59	-37.4	-39.3	22.5	0.00e+00	0	59	0	163577856	46	4468
2026-01-24 20:09:43.31	220.83	22.72	-37.5	-39.4	22.4	0.00e+00	0	59	0	165150720	46	4518
2026-01-24 20:09:44.32	220.41	22.85	-37.4	-39.4	22.4	0.00e+00	0	59	0	166199296	46	4507
2026-01-24 20:09:45.33	219.99	22.97	-37.4	-39.3	22.5	0.00e+00	0	59	0	167247872	46	4478
2026-01-24 20:09:46.34	219.56	23.10	-37.5	-39.4	22.4	0.00e+00	0	59	0	168296448	46	4519
2026-01-24 20:09:47.35	219.12	23.23	-37.6	-39.6	22.2	0.00e+00	0	59	0	169345024	46	4634
2026-01-24 20:09:48.36	218.68	23.35	-37.7	-39.7	22.1	0.00e+00	0	59	0	170393600	46	4696
2026-01-24 20:09:49.36	218.25	23.47	-37.7	-39.7	22.1	0.00e+00	0	59	0	171966464	46	4658
2026-01-24 20:09:50.38	217.80	23.60	-37.6	-39.7	22.2	0.00e+00	0	59	0	173015040	46	4652
2026-01-24 20:09:51.39	217.35	23.72	-37.5	-39.5	22.3	0.00e+00	0	59	0	174063616	46	4573
2026-01-24 20:09:52.40	216.89	23.84	-37.4	-39.3	22.5	0.00e+00	0	59	0	175112192	46	4458
2026-01-24 20:09:53.40	216.44	23.96	-37.4	-39.3	22.5	0.00e+00	0	59	0	176160768	46	4471
2026-01-24 20:09:54.41	215.97	24.08	-37.2	-39.0	22.8	0.00e+00	0	59	0	177209344	46	4340
2026-01-24 20:09:55.42	215.51	24.20	-37.2	-39.1	22.7	0.00e+00	0	59	0	178782208	46	4386
2026-01-24 20:09:56.43	215.04	24.31	-37.2	-39.1	22.7	0.00e+00	0	59	0	179830784	46	4359
2026-01-24 20:09:57.44	214.56	24.43	-37.2	-39.1	22.7	0.00e+00	0	59	0	180879360	46	4381
2026-01-24 20:09:58.45	214.08	24.55	-37.2	-39.0	22.8	0.00e+00	0	59	0	181927936	46	4340
2026-01-24 20:09:59.46	213.60	24.66	-36.8	-38.6	23.1	0.00e+00	0	59	0	182976512	45	4373
2026-01-24 20:10:00.47	213.11	24.77	-36.8	-38.6	23.1	0.00e+00	0	59	0	184025088	45	4387
2026-01-24 20:10:01.48	212.62	24.88	-36.9	-38.7	23.1	0.00e+00	0	59	0	185597952	45	4416
2026-01-24 20:10:02.49	212.12	24.99	-36.8	-38.6	23.2	0.00e+00	0	59	0	186646528	45	4371
2026-01-24 20:10:03.50	211.62	25.10	-36.9	-38.7	23.1	0.00e+00	0	59	0	187695104	45	4430
2026-01-24 20:10:04.51	211.12	25.21	-37.0	-38.8	23.0	0.00e+00	0	59	0	188743680	45	4461
2026-01-24 20:10:05.52	210.61	25.31	-36.9	-38.7	23.1	0.00e+00	0	59	0	189792256	45	4441
2026-01-24 20:10:06.53	210.10	25.41	-36.7	-38.5	23.3	0.00e+00	0	59	0	190840832	45	4308
2026-01-24 20:10:07.54	209.59	25.52	-36.7	-38.5	23.3	0.00e+00	0	59	0	192413696	45	4332
2026-01-24 20:10:08.55	209.07	25.62	-36.8	-38.6	23.2	0.00e+00	0	59	0	193462272	45	4365
2026-01-24 20:10:09.55	208.55	25.71	-36.8	-38.6	23.2	0.00e+00	0	59	0	194510848	45	4356
2026-01-24 20:10:10.57	208.02	25.81	-36.9	-38.7	23.1	0.00e+00	0	59	0	195559424	45	4402
2026-01-24 20:10:11.58	207.49	25.90	-37.0	-38.9	22.9	0.00e+00	0	59	0	196608000	45	4507
2026-01-24 20:10:12.59	206.96	26.00	-36.8	-38.6	23.2	0.00e+00	0	60	0	197656576	45	4381
2026-01-24 20:10:13.60	206.42	26.09	-36.9	-38.8	23.0	0.00e+00	0	59	0	199229440	45	4459
2026-01-24 20:10:14.61	205.88	26.17	-36.7	-38.4	23.4	0.00e+00	0	59	0	200278016	45	4281
2026-01-24 20:10:15.62	205.34	26.26	-36.6	-38.4	23.4	0.00e+00	0	59	0	201326592	45	4250
2026-01-24 20:10:16.63	204.79	26.34	-36.7	-38.5	23.3	0.00e+00	0	59	0	202375168	45	4314
2026-01-24 20:10:17.63	204.24	26.43	-37.0	-38.9	23.0	0.00e+00	0	59	0	203423744	45	4513
2026-01-24 20:10:18.64	203.69	26.50	-36.9	-38.7	23.1	0.00e+00	0	59	0	204472320	45	4414
2026-01-24 20:10:19.65	203.13	26.58	-36.8	-38.6	23.2	0.00e+00	0	59	0	206045184	45	4362
2026-01-24 20:10:20.66	202.57	26.66	-36.4	-38.2	23.6	0.00e+00	0	60	0	207093760	44	4417
2026-01-24 20:10:21.67	202.01	26.73	-36.5	-38.2	23.5	0.00e+00	0	60	0	208142336	44	4437
2026-01-24 20:10:22.69	201.44	26.80	-36.6	-38.4	23.3	0.00e+00	0	60	0	209190912	44	4502
2026-01-24 20:10:23.69	200.88	26.87	-36.6	-38.4	23.3	0.00e+00	0	59	0	210239488	44	4531
2026-01-24 20:10:24.70	200.30	26.93	-36.6	-38.4	23.3	0.00e+00	0	59	0	211288064	44	4529
2026-01-24 20:10:25.71	199.73	26.99	-36.5	-38.2	23.5	0.00e+00	0	59	0	212860928	44	4429
2026-01-24 20:10:26.73	199.15	27.05	-36.3	-38.0	23.8	0.00e+00	0	59	0	213909504	44	4310
2026-01-24 20:10:27.73	198.57	27.11	-36.2	-37.9	23.8	0.00e+00	0	59	0	214958080	44	4283
2026-01-24 20:10:28.75	197.99	27.16	-36.4	-38.2	23.6	0.00e+00	0	59	0	216006656	44	4418
2026-01-24 20:10:29.76	197.40	27.22	-36.7	-38.5	23.3	0.00e+00	0	59	0	217055232	44	4562
2026-01-24 20:10:30.77	196.82	27.26	-36.8	-38.6	23.2	0.00e+00	0	59	0	218103808	44	4640
2026-01-24 20:10:31.78	196.23	27.31	-37.0	-38.8	23.0	0.00e+00	0	60	0	219676672	44	4751
2026-01-24 20:10:32.79	195.64	27.35	-36.5	-38.3	23.4	0.00e+00	0	59	0	220725248	44	4464
2026-01-24 20:10:33.79	195.06	27.39	-36.5	-38.3	23.5	0.00e+00	0	59	0	221773824	44	4467
2026-01-24 20:10:34.80	194.46	27.43	-36.6	-38.4	23.3	0.00e+00	0	60	0	222822400	44	4525
2026-01-24 20:10:35.81	193.87	27.46	-36.5	-38.3	23.5	0.00e+00	0	60	0	223870976	44	4447
2026-01-24 20:10:36.82	193.27	27.49	-36.6	-38.4	23.4	0.00e+00	0	59	0	224919552	44	4511
2026-01-24 20:10:37.83	192.68	27.52	-36.6	-38.3	23.4	0.00e+00	0	60	0	226492416	44	4481
2026-01-24 20:10:38.84	192.08	27.55	-36.5	-38.2	23.6	0.00e+00	0	60	0	227540992	44	4425
2026-01-24 20:10:39.85	191.48	27.57	-36.3	-38.0	23.7	0.00e+00	0	60	0	228589568	44	4328
2026-01-24 20:10:40.86	190.88	27.59	-36.5	-38.2	23.6	0.00e+00	0	60	0	229638144	44	4419
2026-01-24 20:10:41.87	190.28	27.60	-36.7	-38.5	23.4	0.00e+00	0	60	0	230686720	44	4549
2026-01-24 20:10:42.88	189.68	27.62	-36.6	-38.4	23.3	0.00e+00	0	60	0	231735296	44	4517
2026-01-24 20:10:43.88	189.08	27.63	-36.8	-38.6	23.1	0.00e+00	0	60	0	233308160	44	4624
2026-01-24 20:10:44.90	188.48	27.63	-36.7	-38.5	23.2	0.00e+00	0	60	0	234356736	44	4573
2026-01-24 20:10:45.91	187.87	27.63	-36.8	-38.7	23.1	0.00e+00	0	60	0	235405312	44	4666
2026-01-24 20:10:46.91	187.28	27.64	-36.9	-38.7	23.0	0.00e+00	0	60	0	236453888	44	4694
2026-01-24 20:10:47.92	186.67	27.63	-37.0	-38.9	22.9	0.00e+00	0	60	0	237502464	44	4780
2026-01-24 20:10:48.93	186.07	27.63	-36.7	-38.5	23.2	0.00e+00	0	60	0	238551040	44	4588
2026-01-24 20:10:49.94	185.47	27.62	-36.7	-38.5	23.3	0.00e+00	0	60	0	240123904	44	4549
2026-01-24 20:10:50.95	184.87	27.60	-36.6	-38.5	23.2	0.00e+00	0	60	0	241172480	44	4549
2026-01-24 20:10:51.96	184.27	27.59	-36.7	-38.5	23.3	0.00e+00	0	60	0	242221056	44	4557
2026-01-24 20:10:52.97	183.67	27.57	-36.5	-38.3	23.4	0.00e+00	0	60	0	243269632	44	4471
2026-01-24 20:10:53.98	183.07	27.55	-36.3	-38.0	23.6	0.00e+00	0	60	0	244318208	44	4318
2026-01-24 20:10:54.99	182.47	27.52	-36.3	-38.0	23.6	0.00e+00	0	60	0	245366784	44	4330
2026-01-24 20:10:56.00	181.88	27.50	-36.3	-38.0	23.7	0.00e+00	0	60	0	246939648	44	4322
2026-01-24 20:10:57.01	181.28	27.47	-36.4	-38.1	23.6	0.00e+00	0	60	0	247988224	44	4372
2026-01-24 20:10:58.02	180.68	27.43	-36.3	-38.1	23.6	0.00e+00	0	60	0	249036800	44	4357
2026-01-24 20:10:59.03	180.09	27.40	-36.7	-38.5	23.3	0.00e+00	0	60	0	250085376	44	4568
2026-01-24 20:11:00.04	179.50	27.36	-36.9	-38.7	23.0	0.00e+00	0	60	0	251133952	44	4674
2026-01-24 20:11:01.05	178.91	27.31	-36.9	-38.7	23.0	0.00e+00	0	60	0	252182528	44	4695
2026-01-24 20:11:02.06	178.32	27.27	-36.4	-38.1	23.5	0.00e+00	0	60	0	253755392	44	4390
2026-01-24 20:11:03.07	177.74	27.22	-36.0	-37.6	24.0	0.00e+00	0	60	0	254803968	44	4143
2026-01-24 20:11:04.08	177.15	27.17	-35.7	-37.3	24.2	0.00e+00	0	60	0	255852544	43	4221
2026-01-24 20:11:05.09	176.57	27.12	-35.8	-37.5	24.1	0.00e+00	0	60	0	256901120	43	4306
2026-01-24 20:11:06.10	175.99	27.06	-36.4	-38.2	23.4	0.00e+00	0	60	0	257949696	43	4665
2026-01-24 20:11:07.11	175.42	27.00	-36.9	-38.7	23.3	0.00e+00	0	60	0	258998272	45	4425
2026-01-24 20:11:08.12	174.84	26.94	-36.8	-38.6	23.3	0.00e+00	0	60	0	260571136	45	4368
2026-01-24 20:11:09.13	174.27	26.87	-36.4	-38.1	23.7	0.00e+00	0	60	0	261619712	44	4378
2026-01-24 20:11:10.14	173.70	26.81	-36.2	-37.9	23.9	0.00e+00	0	60	0	262668288	44	4274
2026-01-24 20:11:11.15	173.13	26.74	-36.0	-37.7	24.1	0.00e+00	0	60	0	263716864	44	4179
2026-01-24 20:11:12.16	172.57	26.67	-36.1	-37.9	23.8	0.00e+00	0	60	0	264765440	43	4500
2026-01-24 20:11:13.17	172.01	26.59	-36.3	-38.1	23.6	0.00e+00	0	60	0	265814016	43	4612
2026-01-24 20:11:14.18	171.45	26.51	-36.4	-38.2	23.5	0.00e+00	0	60	0	267386880	43	4658
2026-01-24 20:11:15.19	170.90	26.44	-36.6	-38.4	23.3	0.00e+00	0	60	0	268435456	43	4802
2026-01-24 20:11:16.20	170.35	26.35	-36.5	-38.2	23.4	0.00e+00	0	60	0	269484032	43	4705
2026-01-24 20:11:17.21	169.80	26.27	-36.7	-38.6	23.1	0.00e+00	0	60	0	270532608	43	4879
2026-01-24 20:11:18.22	169.26	26.18	-37.1	-39.0	22.9	0.00e+00	0	60	0	271581184	44	4818
2026-01-24 20:11:19.23	168.71	26.10	-37.1	-39.0	22.9	0.00e+00	0	60	0	272629760	44	4847
2026-01-24 20:11:20.24	168.18	26.01	-37.2	-39.1	22.8	0.00e+00	0	60	0	274202624	44	4900
2026-01-24 20:11:21.25	167.64	25.91	-37.3	-39.2	22.8	0.00e+00	0	60	0	275251200	45	4665
2026-01-24 20:11:22.26	167.11	25.82	-37.3	-39.2	22.8	0.00e+00	0	60	0	276299776	45	4686
2026-01-24 20:11:23.27	166.59	25.72	-37.3	-39.2	22.8	0.00e+00	0	60	0	277348352	45	4663
2026-01-24 20:11:24.28	166.06	25.63	-36.8	-38.6	23.3	0.00e+00	0	60	0	278396928	45	4378
2026-01-24 20:11:25.29	165.54	25.53	-36.8	-38.6	23.4	0.00e+00	0	60	0	279445504	45	4362
2026-01-24 20:11:26.30	165.03	25.43	-36.8	-38.6	23.3	0.00e+00	0	60	0	281018368	45	4390
2026-01-24 20:11:27.31	164.52	25.32	-37.2	-39.1	22.9	0.00e+00	0	60	0	282066944	45	4600
2026-01-24 20:11:28.32	164.01	25.22	-37.4	-39.4	22.5	0.00e+00	0	60	0	283115520	45	4782
2026-01-24 20:11:29.33	163.50	25.11	-37.6	-39.5	22.5	0.00e+00	0	60	0	284164096	45	4866
2026-01-24 20:11:30.34	163.00	25.00	-37.7	-39.7	22.2	0.00e+00	0	60	0	285212672	46	4705
2026-01-24 20:11:31.34	162.51	24.90	-37.4	-39.3	22.6	0.00e+00	0	60	0	286261248	46	4479
2026-01-24 20:11:32.35	162.02	24.78	-37.2	-39.1	22.9	0.00e+00	0	60	0	287834112	46	4381
2026-01-24 20:11:33.37	161.53	24.67	-37.4	-39.3	22.6	0.00e+00	0	60	0	288882688	46	4465
2026-01-24 20:11:34.37	161.05	24.56	-37.4	-39.3	22.7	0.00e+00	0	60	0	289931264	46	4461
2026-01-24 20:11:35.38	160.57	24.44	-37.6	-39.6	22.5	0.00e+00	0	60	0	290979840	46	4601
2026-01-24 20:11:36.39	160.09	24.33	-37.7	-39.7	22.3	0.00e+00	0	60	0	292028416	46	4683
2026-01-24 20:11:37.40	159.62	24.21	-37.6	-39.5	22.4	0.00e+00	0	60	0	293076992	46	4590
2026-01-24 20:11:38.41	159.15	24.09	-37.4	-39.3	22.7	0.00e+00	0	60	0	294649856	46	4455
2026-01-24 20:11:39.42	158.69	23.97	-37.1	-39.0	23.0	0.00e+00	0	60	0	295698432	46	4325
2026-01-24 20:11:40.43	158.23	23.85	-37.1	-39.0	23.0	0.00e+00	0	60	0	296747008	46	4319
2026-01-24 20:11:41.44	157.78	23.73	-37.1	-38.9	23.1	0.00e+00	0	60	0	297795584	46	4285
2026-01-24 20:11:42.45	157.32	23.61	-37.3	-39.2	22.8	0.00e+00	0	60	0	298844160	46	4426
2026-01-24 20:11:43.46	156.88	23.49	-37.5	-39.5	22.6	0.00e+00	0	60	0	299892736	46	4569
2026-01-24 20:11:44.47	156.43	23.36	-37.7	-39.7	22.4	0.00e+00	0	60	0	301465600	46	4672
2026-01-24 20:11:45.48	156.00	23.24	-37.7	-39.7	22.3	0.00e+00	0	60	0	302514176	46	4704
2026-01-24 20:11:46.49	155.56	23.11	-37.5	-39.5	22.6	0.00e+00	0	60	0	303562752	46	4557
2026-01-24 20:11:47.50	155.13	22.99	-37.5	-39.5	22.5	0.00e+00	0	60	0	304611328	46	4583
2026-01-24 20:11:48.51	154.70	22.86	-37.6	-39.5	22.5	0.00e+00	0	60	0	305659904	46	4592
2026-01-24 20:11:49.51	154.29	22.73	-37.4	-39.4	22.6	0.00e+00	0	60	0	306708480	46	4514
2026-01-24 20:11:50.52	153.87	22.61	-37.2	-39.2	22.8	0.00e+00	0	60	0	308281344	46	4395
2026-01-24 20:11:51.53	153.45	22.48	-37.2	-39.2	22.9	0.00e+00	0	60	0	309329920	46	4397
2026-01-24 20:11:52.54	153.04	22.35	-37.3	-39.3	22.8	0.00e+00	0	60	0	310378496	46	4451
2026-01-24 20:11:53.56	152.63	22.22	-37.7	-39.7	22.3	0.00e+00	0	60	0	311427072	46	4688
2026-01-24 20:11:54.56	152.23	22.09	-37.8	-39.8	22.2	0.00e+00	0	60	0	312475648	46	4755
2026-01-24 20:11:55.57	151.84	21.96	-38.0	-40.1	22.0	0.00e+00	0	60	0	313524224	46	4879
2026-01-24 20:11:56.58	151.44	21.83	-38.0	-40.1	21.9	0.00e+00	0	60	0	315097088	46	4901
2026-01-24 20:11:57.59	151.05	21.70	-38.0	-40.1	21.9	0.00e+00	0	60	0	316145664	46	4905
2026-01-24 20:11:58.60	150.67	21.57	-38.0	-40.0	22.0	0.00e+00	0	60	0	317194240	46	4861
2026-01-24 20:11:59.61	150.28	21.44	-37.9	-40.0	22.0	0.00e+00	0	60	0	318242816	46	4851
2026-01-24 20:12:00.62	149.90	21.30	-37.9	-40.0	22.1	0.00e+00	0	60	0	319291392	46	4833
2026-01-24 20:12:01.63	149.53	21.17	-38.1	-40.2	21.9	0.00e+00	0	60	0	320339968	46	4962
2026-01-24 20:12:02.64	149.16	21.04	-38.1	-40.2	21.8	0.00e+00	0	60	0	321912832	46	4979
2026-01-24 20:12:03.65	148.79	20.91	-38.1	-40.2	21.8	0.00e+00	0	60	0	322961408	46	4983
2026-01-24 20:12:04.66	148.43	20.78	-38.1	-40.2	21.8	0.00e+00	0	60	0	324009984	46	4952
2026-01-24 20:12:05.67	148.07	20.64	-38.1	-40.2	21.8	0.00e+00	0	60	0	325058560	46	4958
2026-01-24 20:12:06.68	147.71	20.51	-38.2	-40.3	21.7	0.00e+00	0	60	0	326107136	46	5022
2026-01-24 20:12:07.69	147.36	20.38	-38.3	-40.4	21.5	0.00e+00	0	60	0	327155712	47	4807
2026-01-24 20:12:08.70	147.01	20.25	-38.3	-40.5	21.5	0.00e+00	0	60	0	328728576	47	4864
2026-01-24 20:12:09.71	146.67	20.12	-38.3	-40.5	21.5	0.00e+00	0	60	0	329777152	47	4848
2026-01-24 20:12:10.71	146.33	19.98	-38.1	-40.3	21.7	0.00e+00	0	60	0	330825728	47	4727
2026-01-24 20:12:11.73	145.99	19.85	-38.1	-40.2	21.7	0.00e+00	0	60	0	331874304	47	4700
2026-01-24 20:12:12.74	145.65	19.72	-38.2	-40.3	21.7	0.00e+00	0	60	0	332922880	47	4750
2026-01-24 20:12:13.75	145.32	19.59	-38.3	-40.5	21.5	0.00e+00	0	60	0	333971456	47	4831
2026-01-24 20:12:14.76	144.99	19.45	-38.6	-40.9	21.1	0.00e+00	0	60	0	335544320	47	5084
2026-01-24 20:12:15.77	144.67	19.32	-38.6	-40.9	21.1	0.00e+00	0	60	0	336592896	47	5079
2026-01-24 20:12:16.78	144.35	19.19	-38.5	-40.7	21.2	0.00e+00	0	60	0	337641472	47	4980
2026-01-24 20:12:17.79	144.03	19.06	-38.5	-40.7	21.2	0.00e+00	0	60	0	338690048	47	4982
2026-01-24 20:12:18.79	143.72	18.93	-38.4	-40.7	21.3	0.00e+00	0	60	0	339738624	47	4962
2026-01-24 20:12:19.81	143.41	18.80	-38.4	-40.7	21.3	0.00e+00	0	60	0	340787200	47	4948
2026-01-24 20:12:20.82	143.10	18.67	-38.4	-40.7	21.2	0.00e+00	0	60	0	342360064	47	4961
2026-01-24 20:12:21.83	142.80	18.54	-38.4	-40.7	21.2	0.00e+00	0	60	0	343408640	47	4936
2026-01-24 20:12:22.83	142.50	18.41	-38.3	-40.6	21.3	0.00e+00	0	60	0	344457216	47	4894
2026-01-24 20:12:23.84	142.20	18.28	-38.3	-40.6	21.3	0.00e+00	0	60	0	345505792	47	4886
2026-01-24 20:12:24.85	141.91	18.15	-38.3	-40.5	21.4	0.00e+00	0	60	0	346554368	47	4847
2026-01-24 20:12:25.86	141.62	18.02	-38.4	-40.6	21.3	0.00e+00	0	60	0	347602944	47	4923
2026-01-24 20:12:26.87	141.33	17.89	-38.5	-40.8	21.1	0.00e+00	0	60	0	349175808	47	5018
2026-01-24 20:12:27.88	141.04	17.76	-38.6	-41.0	20.9	0.00e+00	0	60	0	350224384	47	5126
2026-01-24 20:12:28.89	140.76	17.63	-38.8	-41.1	20.8	0.00e+00	0	60	0	351272960	48	4910
2026-01-24 20:12:29.90	140.48	17.51	-38.7	-41.0	21.0	0.00e+00	0	60	0	352321536	48	4840
2026-01-24 20:12:30.91	140.20	17.38	-38.6	-40.9	21.1	0.00e+00	0	61	0	353370112	48	4764
2026-01-24 20:12:31.92	139.93	17.25	-38.5	-40.8	21.2	0.00e+00	0	60	0	354418688	48	4711
2026-01-24 20:12:32.93	139.66	17.13	-38.5	-40.8	21.1	0.00e+00	0	60	0	355991552	48	4730
2026-01-24 20:12:33.94	139.39	17.00	-38.6	-40.9	21.0	0.00e+00	0	60	0	357040128	48	4785
2026-01-24 20:12:34.95	139.13	16.87	-38.7	-41.0	20.8	0.00e+00	0	60	0	358088704	48	4865
2026-01-24 20:12:35.96	138.86	16.75	-38.8	-41.2	20.7	0.00e+00	0	60	0	359137280	48	4936
2026-01-24 20:12:36.97	138.60	16.62	-38.9	-41.3	20.6	0.00e+00	0	60	0	360185856	48	5005
2026-01-24 20:12:37.98	138.35	16.50	-39.0	-41.4	20.5	0.00e+00	0	61	0	361234432	48	5061
2026-01-24 20:12:38.99	138.09	16.37	-39.1	-41.6	20.3	0.00e+00	0	60	0	362807296	48	5191
2026-01-24 20:12:40.00	137.84	16.25	-39.1	-41.7	20.2	0.00e+00	0	60	0	363855872	48	5236
2026-01-24 20:12:41.01	137.59	16.13	-39.2	-41.7	19.5	0.00e+00	0	60	0	364904448	48	5235
2026-01-24 20:12:42.02	137.35	16.00	-39.1	-41.6	19.4	1.10e-06	0	60	0	365953024	48	5217
2026-01-24 20:12:43.03	137.10	15.88	-39.1	-41.6	19.9	1.10e-06	0	61	0	367001600	48	5183
2026-01-24 20:12:44.04	136.86	15.76	-39.0	-41.6	20.1	1.02e-05	0	60	0	368050176	48	5160
2026-01-24 20:12:45.04	136.62	15.64	-38.8	-41.5	20.2	4.80e-05	0	60	0	369623040	48	5129
2026-01-24 20:12:46.05	136.39	15.52	-38.8	-41.4	20.2	3.31e-05	0	60	0	370671616	48	5073
2026-01-24 20:12:47.06	136.15	15.40	-38.8	-41.6	19.3	3.31e-05	0	60	0	371720192	48	5164
2026-01-24 20:12:48.07	135.92	15.28	-33.5	-41.6	19.1	4.88e-03	0	60	0	372768768	47	5477
2026-01-24 20:12:49.08	135.69	15.16	-38.8	-41.8	18.5	2.73e-02	0	60	0	373817344	47	5614
2026-01-24 20:12:50.09	135.47	15.04	-38.6	-42.0	18.7	2.73e-02	0	60	0	374865920	49	5130
2026-01-24 20:12:51.10	135.24	14.92	-36.3	-41.7	17.9	1.08e-03	0	60	0	376438784	45	6214
2026-01-24 20:12:52.11	135.02	14.80	-39.4	-42.4	13.0	2.02e-03	0	60	0	377487360	43	7603
2026-01-24 20:12:53.12	134.80	14.68	-38.2	-42.1	16.3	2.02e-03	0	60	0	378535936	47	5854
2026-01-24 20:12:54.13	134.58	14.57	-38.9	-42.0	18.1	5.51e-02	0	60	0	379584512	48	5418
2026-01-24 20:12:55.14	134.36	14.45	-37.6	-41.7	16.8	2.55e-03	0	60	0	380633088	47	5583
2026-01-24 20:12:56.15	134.15	14.33	-38.8	-42.0	17.6	2.55e-03	0	60	0	381681664	48	5437
2026-01-24 20:12:57.16	133.94	14.22	-36.3	-41.9	15.1	4.46e-03	0	61	0	382730240	46	6037
2026-01-24 20:12:58.17	133.73	14.10	-38.8	-42.3	17.5	2.95e-02	0	61	0	384303104	48	5597
2026-01-24 20:12:59.18	133.52	13.99	-38.2	-42.4	14.7	1.09e-02	0	60	0	385351680	46	6402
2026-01-24 20:13:00.19	133.32	13.87	-38.7	-42.5	15.0	1.09e-02	0	61	0	386400256	48	5751
2026-01-24 20:13:01.20	133.12	13.76	-32.6	-42.6	13.4	1.54e-02	0	60	0	387448832	46	6562
2026-01-24 20:13:02.21	132.91	13.65	-36.9	-42.9	15.1	5.78e-02	0	61	0	388497408	46	6774
2026-01-24 20:13:03.22	132.72	13.53	-37.6	-43.0	12.3	5.78e-02	0	61	0	389545984	45	7255
2026-01-24 20:13:04.23	132.52	13.42	-30.5	-41.3	10.3	9.28e-02	0	61	0	390594560	30	14135
2026-01-24 20:13:05.24	132.32	13.31	-32.8	-42.2	12.6	2.27e-01	0	60	0	391643136	42	7815
2026-01-24 20:13:06.25	132.13	13.20	-25.6	-40.9	6.3	2.27e-01	0	60	104	392167424	28	15219
2026-01-24 20:13:07.26	131.94	13.09	-20.8	-36.5	4.3	3.78e-01	0	61	0	392167424	10	25681
2026-01-24 20:13:08.27	131.75	12.98	-29.4	-40.8	9.4	7.80e-01	0	60	104	392167424	33	11228
2026-01-24 20:13:09.28	131.56	12.87	-31.2	-41.8	10.5	7.80e-01	0	60	0	392691712	35	11175
2026-01-24 20:13:10.29	131.38	12.76	-26.9	-41.2	7.8	3.53e-01	0	60	0	393740288	29	14789
2026-01-24 20:13:11.30	131.19	12.65	-27.8	-41.4	7.3	4.44e-01	0	60	0	394264576	23	21427
2026-01-24 20:13:12.31	131.01	12.54	-26.9	-41.1	5.0	6.31e-01	0	60	104	394264576	21	23158
2026-01-24 20:13:13.32	130.83	12.43	-24.1	-41.2	4.3	6.31e-01	0	60	104	394264576	18	27950
2026-01-24 20:13:14.33	130.65	12.32	-24.9	-40.3	6.3	8.30e-01	0	60	104	394264576	24	17759
2026-01-24 20:13:15.34	130.47	12.22	-24.7	-40.9	6.4	6.75e-01	0	61	0	394264576	20	24093
2026-01-24 20:13:16.35	130.30	12.11	-24.2	-41.4	5.9	6.75e-01	0	60	0	394264576	20	25449
2026-01-24 20:13:17.36	130.13	12.00	-20.6	-40.1	6.5	6.87e-01	0	61	0	394264576	22	19498
2026-01-24 20:13:18.36	129.96	11.90	-23.7	-41.1	6.4	6.54e-01	0	61	0	394264576	22	21840
2026-01-24 20:13:19.37	129.79	11.80	-22.9	-40.9	4.7	6.54e-01	0	61	104	394264576	19	25484
2026-01-24 20:13:20.38	129.62	11.69	-23.7	-43.3	5.3	7.53e-01	0	60	104	394264576	21	29915
2026-01-24 20:13:21.39	129.45	11.59	-19.5	-38.6	4.0	8.30e-01	0	61	104	394264576	9	34628
2026-01-24 20:13:22.40	129.28	11.48	-23.3	-44.4	3.9	8.30e-01	0	60	104	394264576	21	33881
2026-01-24 20:13:23.41	129.12	11.38	-22.0	-42.5	3.9	8.29e-01	0	60	104	394264576	17	34149
2026-01-24 20:13:24.42	128.96	11.28	-20.8	-38.7	3.9	8.33e-01	0	61	104	394264576	12	29511
2026-01-24 20:13:25.43	128.80	11.17	-20.7	-40.2	4.1	8.35e-01	0	61	104	394264576	13	33297
2026-01-24 20:13:26.44	128.64	11.07	-24.2	-42.0	4.7	8.35e-01	0	61	104	394264576	19	28822
2026-01-24 20:13:27.45	128.48	10.97	-21.2	-39.7	4.4	8.33e-01	0	61	104	394264576	18	23484
2026-01-24 20:13:28.46	128.32	10.87	-16.9	-39.8	4.9	8.23e-01	0	61	104	394264576	15	28259
2026-01-24 20:13:29.47	128.17	10.77	-21.3	-40.0	3.7	8.23e-01	0	61	104	394264576	12	34184
2026-01-24 20:13:30.48	128.02	10.67	-16.2	-37.1	3.6	8.26e-01	0	61	104	394264576	4	38832
2026-01-24 20:13:31.48	127.87	10.57	-19.2	-39.8	3.7	8.34e-01	0	61	104	394264576	11	35355
2026-01-24 20:13:32.49	127.71	10.47	-19.1	-40.1	3.9	8.34e-01	0	61	104	394264576	14	31043
2026-01-24 20:13:33.50	127.57	10.37	-19.4	-39.0	3.6	8.33e-01	0	61	104	394264576	7	40739
2026-01-24 20:13:34.51	127.42	10.28	-24.4	-43.4	3.7	8.27e-01	0	60	104	394264576	18	35969
2026-01-24 20:13:35.52	127.27	10.18	-21.9	-39.9	4.2	8.27e-01	0	61	104	394264576	15	28608
2026-01-24 20:13:36.53	127.13	10.08	-23.3	-41.1	4.7	8.23e-01	0	61	104	394264576	18	27533
2026-01-24 20:13:37.54	126.98	9.98	-25.3	-43.4	3.9	8.28e-01	0	61	104	394264576	18	35937
2026-01-24 20:13:38.55	126.84	9.89	-22.2	-41.4	4.0	8.30e-01	0	61	0	394264576	16	31881
2026-01-24 20:13:39.56	126.70	9.79	-23.8	-42.6	3.9	8.30e-01	0	61	104	394264576	16	36835
2026-01-24 20:13:40.57	126.56	9.70	-22.5	-42.6	4.1	8.34e-01	0	61	104	394264576	18	32702
2026-01-24 20:13:41.58	126.42	9.60	-21.1	-40.7	3.7	8.36e-01	0	61	104	394264576	13	35045
2026-01-24 20:13:42.59	126.28	9.51	-22.5	-43.4	4.5	8.36e-01	0	61	104	394264576	20	31977
2026-01-24 20:13:43.60	126.14	9.41	-23.3	-38.7	3.5	8.34e-01	0	61	104	394264576	14	26450
2026-01-24 20:13:44.61	126.01	9.32	-23.8	-41.3	4.4	8.33e-01	0	61	104	394264576	18	28172
2026-01-24 20:13:45.62	125.87	9.23	-26.2	-42.0	4.5	8.33e-01	0	60	104	394264576	23	22783
2026-01-24 20:13:46.63	125.74	9.13	-25.1	-44.9	4.8	8.34e-01	0	61	104	394264576	29	22542
2026-01-24 20:13:47.64	125.61	9.04	-24.2	-42.8	4.0	8.28e-01	0	61	104	394264576	17	35363
2026-01-24 20:13:48.64	125.48	8.95	-22.4	-40.9	5.0	8.28e-01	0	61	104	394264576	25	17991
2026-01-24 20:13:49.65	125.35	8.86	-26.3	-39.9	4.2	8.30e-01	0	60	104	394264576	16	26892
2026-01-24 20:13:50.66	125.22	8.77	-24.4	-42.5	3.8	8.27e-01	0	61	104	394264576	27	19179
2026-01-24 20:13:51.67	125.10	8.67	-28.9	-44.6	5.6	7.63e-01	0	60	0	394264576	26	25992
2026-01-24 20:13:52.68	124.97	8.58	-25.3	-41.2	4.6	7.63e-01	0	61	104	394264576	28	15583
2026-01-24 20:13:53.69	124.84	8.49	-26.3	-48.3	4.3	7.38e-01	0	61	104	394264576	25	42136
2026-01-24 20:13:54.70	124.72	8.40	-28.4	-43.4	4.4	7.85e-01	0	61	104	394264576	27	21340
2026-01-24 20:13:55.72	124.60	8.31	-27.5	-46.3	4.2	7.85e-01	0	61	104	394264576	31	23851
2026-01-24 20:13:56.72	124.48	8.23	-32.6	-47.6	4.4	8.30e-01	0	61	104	394264576	31	27553
2026-01-24 20:13:57.74	124.35	8.14	-31.7	-47.4	4.4	8.33e-01	0	61	104	394264576	31	26963
2026-01-24 20:13:58.74	124.24	8.05	-26.6	-44.2	4.4	8.33e-01	0	61	104	394264576	23	29439
2026-01-24 20:13:59.75	124.12	7.96	-29.6	-51.2	4.9	8.37e-01	0	61	0	394264576	40	24743
2026-01-24 20:14:00.76	124.00	7.87	-41.8	-62.1	3.8	7.36e-01	0	61	104	394264576	53	41242
2026-01-24 20:14:01.77	123.88	7.79	-44.8	-63.1	3.8	7.36e-01	0	61	104	394264576	60	30863
2026-01-24 20:14:02.78	123.77	7.70	-45.1	-63.3	3.8	8.44e-01	0	61	104	394264576	60	31795
2026-01-24 20:14:03.80	123.65	7.61	-45.3	-63.5	3.8	8.46e-01	0	61	104	394264576	61	30715
2026-01-24 20:14:04.81	123.54	7.53	-45.4	-63.7	3.8	8.45e-01	0	61	104	394264576	61	31213
2026-01-24 20:14:05.81	123.42	7.44	-45.6	-63.9	3.8	8.45e-01	0	61	104	394264576	61	31836
2026-01-24 20:14:06.83	123.31	7.35	-45.7	-64.0	3.8	8.47e-01	0	61	104	394264576	62	30718
2026-01-24 20:14:07.84	123.20	7.27	-45.8	-64.1	3.8	8.46e-01	0	61	104	394264576	62	31010
2026-01-24 20:14:08.85	123.09	7.19	-45.8	-64.1	3.8	8.46e-01	0	61	104	394264576	62	31063
2026-01-24 20:14:09.86	122.98	7.10	-45.7	-64.0	3.8	8.46e-01	0	60	104	394264576	62	30626
2026-01-24 20:14:10.87	122.87	7.02	-45.7	-63.9	3.8	8.47e-01	0	61	104	394264576	62	30164
2026-01-24 20:14:11.88	122.77	6.93	-45.6	-63.8	3.8	8.47e-01	0	61	104	394264576	62	29749
2026-01-24 20:14:12.89	122.66	6.85	-45.5	-63.7	3.8	8.47e-01	0	61	104	394264576	62	29358
2026-01-24 20:14:13.90	122.55	6.77	-45.5	-63.6	3.8	8.46e-01	0	61	104	394264576	62	29189
2026-01-24 20:14:14.91	122.45	6.68	-45.5	-63.6	3.8	8.45e-01	0	61	104	394264576	62	29213
2026-01-24 20:14:15.92	122.34	6.60	-45.3	-63.4	3.8	8.45e-01	0	61	104	394264576	62	28393
2026-01-24 20:14:16.93	122.24	6.52	-45.3	-63.4	3.8	8.45e-01	0	61	104	394264576	62	28497
2026-01-24 20:14:17.94	122.14	6.44	-45.3	-63.4	3.8	8.47e-01	0	61	104	394264576	62	28534
2026-01-24 20:14:18.95	122.04	6.36	-45.3	-63.4	3.8	8.47e-01	0	61	104	394264576	62	28475
2026-01-24 20:14:19.96	121.94	6.28	-45.3	-63.4	3.8	8.46e-01	0	61	104	394264576	62	28439
2026-01-24 20:14:20.97	121.84	6.20	-45.3	-63.4	3.8	8.47e-01	0	61	104	394264576	62	28468
2026-01-24 20:14:21.98	121.74	6.12	-45.3	-63.4	3.8	8.47e-01	0	61	104	394264576	62	28364
2026-01-24 20:14:22.99	121.64	6.04	-45.3	-63.4	3.8	8.46e-01	0	61	104	394264576	62	28441
2026-01-24 20:14:24.00	121.54	5.96	-45.3	-63.4	3.8	8.46e-01	0	61	104	394264576	62	28454
2026-01-24 20:14:25.01	121.44	5.88	-45.3	-63.3	3.8	8.46e-01	0	61	104	394264576	62	28343
2026-01-24 20:14:26.03	121.35	5.80	-45.3	-63.3	3.8	8.46e-01	0	61	104	394264576	62	28317
2026-01-24 20:14:27.04	121.25	5.72	-45.3	-63.4	3.8	8.46e-01	0	61	104	394264576	62	28402
2026-01-24 20:14:28.05	121.16	5.64	-45.3	-63.3	3.8	8.45e-01	0	61	104	394264576	62	28319
2026-01-24 20:14:29.06	121.06	5.56	-45.3	-63.3	3.8	8.45e-01	0	61	104	394264576	62	28342
2026-01-24 20:14:30.07	120.97	5.48	-45.3	-63.3	3.8	8.46e-01	0	61	104	394264576	62	28320
2026-01-24 20:14:31.08	120.88	5.41	-45.3	-63.3	3.8	8.46e-01	0	61	104	394264576	62	28318
2026-01-24 20:14:32.09	120.79	5.33	-45.3	-63.3	3.8	8.46e-01	0	61	104	394264576	62	28296
2026-01-24 20:14:33.10	120.69	5.25	-45.3	-63.3	3.8	8.47e-01	0	61	104	394264576	62	28342
2026-01-24 20:14:34.10	120.61	5.18	-45.3	-63.3	3.8	8.46e-01	0	61	104	394264576	61	30015
2026-01-24 20:14:35.11	120.52	5.10	-45.3	-63.3	3.8	8.46e-01	0	61	104	394264576	61	29977
2026-01-24 20:14:36.12	120.43	5.02	-45.3	-63.3	3.8	8.46e-01	0	61	104	394264576	61	29937
2026-01-24 20:14:37.13	120.34	4.95	-45.2	-63.3	3.8	8.46e-01	0	61	104	394264576	61	29981
2026-01-24 20:14:38.14	120.25	4.87	-45.2	-63.3	3.8	8.46e-01	0	61	104	394264576	61	29973
2026-01-24 20:14:39.15	120.16	4.80	-45.3	-63.3	3.8	8.47e-01	0	61	104	394264576	61	29998
2026-01-24 20:14:40.16	120.08	4.72	-45.2	-63.3	3.8	8.45e-01	0	61	104	394264576	61	29964
2026-01-24 20:14:41.18	119.99	4.65	-45.2	-63.3	3.8	8.46e-01	0	61	104	394264576	61	29775
2026-01-24 20:14:42.19	119.91	4.57	-45.2	-63.3	3.8	8.46e-01	0	61	104	394264576	61	29882
2026-01-24 20:14:43.20	119.82	4.50	-45.2	-63.3	3.8	8.46e-01	0	61	104	394264576	61	29890
2026-01-24 20:14:44.21	119.74	4.42	-45.2	-63.4	3.8	8.46e-01	0	61	104	394264576	61	30175
2026-01-24 20:14:45.22	119.65	4.35	-45.2	-63.3	3.8	8.46e-01	0	61	104	394264576	61	29848
2026-01-24 20:14:46.23	119.57	4.28	-45.2	-63.3	3.8	8.46e-01	0	61	104	394264576	61	29826
2026-01-24 20:14:47.24	119.49	4.20	-45.2	-63.3	3.8	8.46e-01	0	61	104	394264576	61	29754
2026-01-24 20:14:48.25	119.41	4.13	-45.2	-63.3	3.8	8.46e-01	0	61	104	394264576	61	29881
2026-01-24 20:14:49.26	119.33	4.06	-45.2	-63.3	3.8	8.46e-01	0	61	104	394264576	61	29872
2026-01-24 20:14:50.27	119.25	3.99	-45.2	-63.3	3.8	8.45e-01	0	61	104	394264576	61	29845
2026-01-24 20:14:51.28	119.17	3.91	-45.2	-63.3	3.8	8.45e-01	0	61	104	394264576	61	29887
2026-01-24 20:14:52.30	119.09	3.84	-45.2	-63.3	3.8	8.46e-01	0	61	104	394264576	61	29823
2026-01-24 20:14:53.31	119.01	3.77	-45.2	-63.3	3.8	8.46e-01	0	61	104	394264576	61	29834
2026-01-24 20:14:54.32	118.93	3.70	-45.2	-63.3	3.8	8.46e-01	0	61	104	394264576	61	29886
2026-01-24 20:14:55.33	118.85	3.63	-45.2	-63.3	3.8	8.46e-01	0	61	104	394264576	61	29851
2026-01-24 20:14:56.34	118.78	3.56	-45.2	-63.3	3.8	8.46e-01	0	61	104	394264576	61	29942
2026-01-24 20:14:57.35	118.70	3.49	-45.2	-63.3	3.8	8.46e-01	0	61	104	394264576	61	29765
2026-01-24 20:14:58.36	118.62	3.42	-45.2	-63.3	3.8	8.46e-01	0	61	104	394264576	61	29808
2026-01-24 20:14:59.37	118.55	3.35	-45.2	-63.3	3.8	8.46e-01	0	61	104	394264576	61	29822
2026-01-24 20:15:00.38	118.48	3.28	-45.2	-63.3	3.8	8.45e-01	0	61	104	394264576	61	29797
2026-01-24 20:15:01.39	118.40	3.21	-45.2	-63.3	3.8	8.45e-01	0	61	104	394264576	61	29821
2026-01-24 20:15:02.40	118.33	3.14	-45.2	-63.3	3.8	8.46e-01	0	61	104	394264576	61	29850
2026-01-24 20:15:03.41	118.25	3.07	-45.2	-63.3	3.8	8.46e-01	0	61	104	394264576	61	29797
2026-01-24 20:15:04.42	118.18	3.00	-45.2	-63.3	3.8	8.46e-01	0	61	104	394264576	61	29895
2026-01-24 20:15:05.43	118.11	2.93	-45.2	-63.3	3.8	8.46e-01	0	61	104	394264576	61	29816
2026-01-24 20:15:06.44	118.04	2.86	-45.2	-63.3	3.8	8.46e-01	0	61	104	394264576	61	29813
2026-01-24 20:15:07.45	117.97	2.79	-45.2	-63.3	3.8	8.46e-01	0	61	104	394264576	61	29741
2026-01-24 20:15:08.46	117.90	2.72	-45.2	-63.3	3.8	8.46e-01	0	61	104	394264576	61	29739
2026-01-24 20:15:09.47	117.83	2.66	-45.2	-63.3	3.8	8.46e-01	0	61	104	394264576	61	29749
2026-01-24 20:15:10.48	117.76	2.59	-45.2	-63.3	3.8	8.46e-01	0	61	104	394264576	61	29724
2026-01-24 20:15:11.49	117.69	2.52	-45.2	-63.3	3.8	8.46e-01	0	61	104	394264576	61	29765
2026-01-24 20:15:12.51	117.62	2.45	-45.2	-63.3	3.8	8.47e-01	0	61	104	394264576	61	29733
2026-01-24 20:15:13.52	117.55	2.39	-45.2	-63.3	3.8	8.46e-01	0	61	104	394264576	61	29778
2026-01-24 20:15:14.53	117.48	2.32	-45.2	-63.3	3.8	8.46e-01	0	61	104	394264576	61	29796
2026-01-24 20:15:15.54	117.41	2.25	-45.2	-63.2	3.8	8.46e-01	0	61	104	394264576	61	29659
2026-01-24 20:15:16.55	117.35	2.19	-45.2	-63.3	3.8	8.47e-01	0	61	104	394264576	61	29704
2026-01-24 20:15:17.56	117.28	2.12	-45.2	-63.3	3.8	8.46e-01	0	61	104	394264576	61	29825
2026-01-24 20:15:18.57	117.22	2.05	-45.2	-63.3	3.8	8.46e-01	0	61	104	394264576	61	29801
2026-01-24 20:15:19.58	117.15	1.99	-44.7	-63.3	3.8	8.46e-01	0	61	104	394264576	61	29726
2026-01-24 20:15:20.59	117.08	1.92	-45.2	-63.2	3.8	8.46e-01	0	61	104	394264576	61	29642
2026-01-24 20:15:21.60	117.02	1.86	-45.2	-63.3	3.8	8.46e-01	0	61	104	394264576	61	29692

#Closed at: 2026-01-24 20:15:22
#Recorded file [394 MB]: D:/lorett/data/31039_260124_230614.dat