passes_logs/2026/01/24/R2.0S_Moscow/R2.0S_Moscow__20260124_011642_NOAA_21_JPSS-2_rec.log

#Pass ID: 20260124_011642_NOAA 21 (JPSS-2)
#Satellite: NOAA 21 (JPSS-2)
#Configuration: NOAA-21
#almurnet v.1.7.20251203
#Start time: 2026-01-24 01:17:43

#Version: 2.2.20231116
#Station: R2.0S_Moscow
#Location: 37.707566 lon 55.798166 lat
#TLE: 1 54234U 22150A   26022.90705406  .00000208  00000+0  11937-3 0  9994
#TLE: 2 54234  98.7507 323.7115 0000669 231.3756 128.7360 14.19537879165931

#Time	Az	El	Level	Level2	SNR	BER	BlckErr	Temp	State	Recorded	gain1	gain2
2026-01-24 01:17:43.54	6.12	5.62	-45.0	-56.8	3.8	8.46e-01	0	62	0	0	61	14064
2026-01-24 01:17:44.54	6.04	5.68	-45.5	-57.9	3.8	1.49e+00	0	62	104	0	63	14280
2026-01-24 01:17:45.55	5.96	5.74	-45.5	-57.9	3.8	1.49e+00	0	62	104	0	63	14357
2026-01-24 01:17:46.56	5.87	5.80	-45.4	-57.9	3.8	1.49e+00	0	62	104	0	62	15066
2026-01-24 01:17:47.57	5.79	5.87	-45.3	-57.8	3.8	1.49e+00	0	62	104	0	62	14922
2026-01-24 01:17:48.58	5.71	5.93	-45.2	-57.7	3.8	1.49e+00	0	62	104	0	62	14771
2026-01-24 01:17:49.59	5.63	5.99	-45.2	-57.7	3.8	1.49e+00	0	62	104	0	62	14831
2026-01-24 01:17:50.60	5.54	6.06	-45.0	-57.5	3.8	1.49e+00	0	61	104	0	62	14381
2026-01-24 01:17:51.61	5.46	6.12	-44.7	-57.2	3.8	1.49e+00	0	62	104	0	61	14777
2026-01-24 01:17:52.62	5.37	6.18	-44.0	-56.2	3.8	1.49e+00	0	61	104	0	59	14826
2026-01-24 01:17:53.63	5.29	6.25	-40.6	-52.9	3.8	1.49e+00	0	61	104	0	53	14363
2026-01-24 01:17:54.64	5.20	6.31	-40.0	-52.4	3.8	1.49e+00	0	62	104	0	51	15068
2026-01-24 01:17:55.65	5.12	6.37	-40.0	-52.4	3.8	1.49e+00	0	62	104	0	51	15061
2026-01-24 01:17:56.66	5.03	6.44	-40.0	-52.3	3.8	1.49e+00	0	62	104	0	51	14980
2026-01-24 01:17:57.67	4.95	6.50	-40.0	-52.3	3.8	1.49e+00	0	62	104	0	51	14985
2026-01-24 01:17:58.68	4.86	6.57	-40.0	-52.3	3.8	1.49e+00	0	61	104	0	51	14995
2026-01-24 01:17:59.69	4.77	6.63	-40.0	-52.3	3.8	1.49e+00	0	61	104	0	51	15008
2026-01-24 01:18:00.71	4.69	6.70	-40.0	-52.3	3.8	1.49e+00	0	62	104	0	51	15015
2026-01-24 01:18:01.72	4.60	6.76	-40.0	-52.3	3.8	1.49e+00	0	62	104	0	51	14977
2026-01-24 01:18:02.72	4.51	6.82	-40.0	-52.3	3.8	1.49e+00	0	62	104	0	51	14915
2026-01-24 01:18:03.74	4.42	6.89	-40.0	-52.3	3.8	1.49e+00	0	62	104	0	51	14981
2026-01-24 01:18:04.75	4.33	6.95	-40.0	-52.3	3.8	1.49e+00	0	62	104	0	51	14960
2026-01-24 01:18:05.76	4.24	7.02	-40.0	-52.3	3.8	1.49e+00	0	62	104	0	51	14911
2026-01-24 01:18:06.77	4.15	7.08	-40.0	-52.3	3.8	1.49e+00	0	62	104	0	51	14966
2026-01-24 01:18:07.78	4.06	7.15	-40.0	-52.2	3.8	1.49e+00	0	62	104	0	51	14879
2026-01-24 01:18:08.79	3.97	7.21	-40.0	-52.3	3.8	1.49e+00	0	62	104	0	51	14941
2026-01-24 01:18:09.80	3.88	7.28	-40.0	-52.3	3.8	1.49e+00	0	62	104	0	51	14921
2026-01-24 01:18:10.81	3.79	7.34	-40.0	-52.3	3.8	1.49e+00	0	62	104	0	51	14885
2026-01-24 01:18:11.82	3.70	7.41	-40.0	-52.3	3.8	1.49e+00	0	62	104	0	51	14912
2026-01-24 01:18:12.83	3.61	7.47	-39.9	-52.3	3.8	1.49e+00	0	62	104	0	51	14919
2026-01-24 01:18:13.84	3.51	7.54	-39.9	-52.2	3.8	1.49e+00	0	62	104	0	51	14868
2026-01-24 01:18:14.85	3.42	7.61	-39.9	-52.3	3.8	1.49e+00	0	62	104	0	51	14920
2026-01-24 01:18:15.86	3.33	7.67	-39.9	-52.3	3.8	1.49e+00	0	62	104	0	51	14919
2026-01-24 01:18:16.87	3.23	7.74	-39.9	-52.2	3.8	1.49e+00	0	62	104	0	51	14866
2026-01-24 01:18:17.88	3.14	7.80	-39.9	-52.2	3.8	1.49e+00	0	62	104	0	51	14842
2026-01-24 01:18:18.89	3.04	7.87	-39.9	-52.2	3.8	1.49e+00	0	62	104	0	51	14842
2026-01-24 01:18:19.90	2.95	7.93	-39.9	-52.3	3.8	1.49e+00	0	62	104	0	51	14890
2026-01-24 01:18:20.91	2.85	8.00	-39.9	-52.3	3.8	1.49e+00	0	62	104	0	51	14890
2026-01-24 01:18:21.93	2.75	8.07	-39.9	-52.2	3.8	1.49e+00	0	62	104	0	51	14853
2026-01-24 01:18:22.93	2.66	8.13	-39.9	-52.2	3.8	1.49e+00	0	62	104	0	51	14877
2026-01-24 01:18:23.95	2.56	8.20	-39.9	-52.2	3.8	1.49e+00	0	62	104	0	51	14815
2026-01-24 01:18:24.96	2.46	8.27	-39.9	-52.3	3.8	1.49e+00	0	62	104	0	51	14886
2026-01-24 01:18:25.97	2.36	8.33	-39.9	-52.3	3.8	1.49e+00	0	62	104	0	51	14891
2026-01-24 01:18:26.98	2.26	8.40	-39.9	-52.2	3.8	1.49e+00	0	62	104	0	51	14864
2026-01-24 01:18:27.99	2.17	8.47	-39.9	-52.2	3.8	1.49e+00	0	62	104	0	51	14842
2026-01-24 01:18:29.00	2.07	8.53	-39.9	-52.2	3.8	1.49e+00	0	62	104	0	51	14855
2026-01-24 01:18:30.01	1.97	8.60	-39.9	-52.3	3.8	1.49e+00	0	62	104	0	51	14905
2026-01-24 01:18:31.02	1.87	8.67	-39.9	-52.2	3.8	1.49e+00	0	61	104	0	51	14839
2026-01-24 01:18:32.03	1.76	8.74	-39.9	-52.2	3.8	1.49e+00	0	61	104	0	51	14851
2026-01-24 01:18:33.04	1.66	8.80	-39.9	-52.2	3.8	1.49e+00	0	62	104	0	51	14869
2026-01-24 01:18:34.05	1.56	8.87	-39.9	-52.2	3.8	1.49e+00	0	62	104	0	51	14843
2026-01-24 01:18:35.06	1.46	8.94	-39.9	-52.2	3.8	1.49e+00	0	62	104	0	51	14857
2026-01-24 01:18:36.07	1.36	9.01	-39.9	-52.2	3.8	1.49e+00	0	62	104	0	51	14862
2026-01-24 01:18:37.08	1.25	9.07	-39.9	-52.2	3.8	1.49e+00	0	62	104	0	51	14840
2026-01-24 01:18:38.09	1.15	9.14	-39.9	-52.2	3.8	1.49e+00	0	62	104	0	51	14834
2026-01-24 01:18:39.10	1.04	9.21	-40.0	-52.3	3.8	1.49e+00	0	62	104	0	51	14917
2026-01-24 01:18:40.11	0.94	9.28	-40.1	-52.4	3.8	1.49e+00	0	62	104	0	51	15138
2026-01-24 01:18:41.12	0.83	9.34	-40.0	-52.3	3.8	1.49e+00	0	62	104	0	51	14961
2026-01-24 01:18:42.13	0.73	9.41	-40.1	-52.5	3.8	1.49e+00	0	62	104	0	51	15236
2026-01-24 01:18:43.14	0.62	9.48	-40.1	-52.4	3.8	1.49e+00	0	62	104	0	51	15098
2026-01-24 01:18:44.15	0.51	9.55	-40.1	-52.5	3.8	1.49e+00	0	62	104	0	51	15281
2026-01-24 01:18:45.16	0.41	9.62	-40.0	-52.3	3.8	1.49e+00	0	62	104	0	51	14986
2026-01-24 01:18:46.17	0.30	9.69	-40.1	-52.4	3.8	1.49e+00	0	62	104	0	51	15150
2026-01-24 01:18:47.18	0.19	9.75	-40.0	-52.4	3.8	1.49e+00	0	62	104	0	51	15077
2026-01-24 01:18:48.19	0.08	9.82	-40.1	-52.5	3.8	1.49e+00	0	62	104	0	51	15305
2026-01-24 01:18:49.20	359.97	9.89	-40.0	-52.3	3.8	1.49e+00	0	62	104	0	51	14999
2026-01-24 01:18:50.21	359.86	9.96	-40.1	-52.4	3.8	1.49e+00	0	62	104	0	51	15156
2026-01-24 01:18:51.22	359.75	10.03	-40.0	-52.4	3.8	1.49e+00	0	62	104	0	51	15063
2026-01-24 01:18:52.23	359.64	10.10	-40.2	-52.5	3.8	1.49e+00	0	62	104	0	51	15349
2026-01-24 01:18:53.24	359.53	10.17	-40.0	-52.3	3.8	1.49e+00	0	62	104	0	51	14907
2026-01-24 01:18:54.25	359.41	10.24	-40.1	-52.4	3.8	1.49e+00	0	62	104	0	51	15144
2026-01-24 01:18:55.25	359.30	10.31	-40.0	-52.4	3.8	1.49e+00	0	62	104	0	51	15151
2026-01-24 01:18:56.26	359.19	10.37	-40.2	-52.5	3.8	1.49e+00	0	62	104	0	51	15383
2026-01-24 01:18:57.27	359.08	10.44	-39.9	-52.3	3.8	1.49e+00	0	62	104	0	51	14915
2026-01-24 01:18:58.28	358.96	10.51	-40.1	-52.5	3.8	1.49e+00	0	62	104	0	51	15274
2026-01-24 01:18:59.29	358.85	10.58	-40.1	-52.4	3.8	1.49e+00	0	62	104	0	51	15118
2026-01-24 01:19:00.30	358.73	10.65	-40.2	-52.6	3.8	1.49e+00	0	62	104	0	51	15441
2026-01-24 01:19:01.31	358.61	10.72	-39.9	-52.3	3.8	1.49e+00	0	62	104	0	51	14954
2026-01-24 01:19:02.32	358.50	10.79	-40.2	-52.6	3.8	1.49e+00	0	62	104	0	51	15471
2026-01-24 01:19:03.33	358.38	10.86	-40.1	-52.4	3.8	1.49e+00	0	62	104	0	51	15162
2026-01-24 01:19:04.34	358.26	10.93	-40.3	-52.7	3.8	1.49e+00	0	62	104	0	51	15637
2026-01-24 01:19:05.35	358.14	11.00	-40.0	-52.4	3.8	1.49e+00	0	62	104	0	51	15068
2026-01-24 01:19:06.36	358.02	11.07	-40.3	-52.7	3.8	1.49e+00	0	62	104	0	51	15599
2026-01-24 01:19:07.37	357.90	11.14	-40.2	-52.5	3.8	1.49e+00	0	62	104	0	51	15368
2026-01-24 01:19:08.38	357.78	11.21	-40.4	-52.8	3.8	1.49e+00	0	62	104	0	51	15772
2026-01-24 01:19:09.38	357.66	11.28	-40.0	-52.3	3.8	1.49e+00	0	62	104	0	51	15020
2026-01-24 01:19:10.39	357.54	11.35	-40.1	-52.4	3.8	1.49e+00	0	62	104	0	51	15194
2026-01-24 01:19:11.40	357.42	11.42	-40.0	-52.3	3.8	1.49e+00	0	62	104	0	51	15023
2026-01-24 01:19:12.41	357.30	11.49	-40.1	-52.4	3.8	1.49e+00	0	62	104	0	51	15099
2026-01-24 01:19:13.42	357.17	11.56	-40.0	-52.3	3.8	1.49e+00	0	62	104	0	51	15048
2026-01-24 01:19:14.43	357.05	11.64	-40.1	-52.4	3.8	1.49e+00	0	62	104	0	51	15076
2026-01-24 01:19:15.44	356.93	11.71	-40.2	-52.3	3.8	1.49e+00	0	62	104	0	51	15023
2026-01-24 01:19:16.45	356.80	11.78	-40.3	-52.4	3.8	1.49e+00	0	62	104	0	51	15167
2026-01-24 01:19:17.46	356.67	11.85	-41.3	-51.3	3.8	1.49e+00	0	62	104	0	53	11820
2026-01-24 01:19:18.47	356.55	11.92	-41.1	-49.8	4.3	1.48e+00	0	62	104	0	53	10058
2026-01-24 01:19:19.47	356.42	11.99	-40.9	-51.5	3.8	1.49e+00	0	62	104	0	53	12221
2026-01-24 01:19:20.48	356.29	12.06	-41.0	-49.1	4.5	1.26e+00	3	62	104	0	53	9230
2026-01-24 01:19:21.49	356.17	12.13	-41.0	-49.5	4.4	1.38e+00	0	62	104	0	53	9665
2026-01-24 01:19:22.50	356.04	12.20	-41.1	-50.4	4.1	1.46e+00	0	62	104	0	53	10687
2026-01-24 01:19:23.51	355.91	12.27	-41.2	-51.3	3.9	1.49e+00	0	62	104	0	53	11853
2026-01-24 01:19:24.52	355.78	12.35	-40.8	-51.2	3.9	1.48e+00	0	62	104	0	53	11701
2026-01-24 01:19:25.54	355.65	12.42	-40.6	-52.6	3.8	1.49e+00	0	62	104	0	52	14655
2026-01-24 01:19:26.54	355.52	12.49	-40.9	-51.4	3.8	1.49e+00	0	62	104	0	52	12730
2026-01-24 01:19:27.55	355.38	12.56	-41.0	-51.3	3.9	1.49e+00	0	62	104	0	52	12558
2026-01-24 01:19:28.56	355.25	12.63	-40.8	-51.5	3.8	1.48e+00	0	62	104	0	52	12877
2026-01-24 01:19:29.57	355.12	12.70	-40.8	-51.7	3.8	1.49e+00	0	62	104	0	52	13250
2026-01-24 01:19:30.58	354.98	12.78	-40.7	-52.4	3.8	1.49e+00	0	62	104	0	52	14314
2026-01-24 01:19:31.59	354.85	12.85	-40.7	-52.4	3.8	1.49e+00	0	62	104	0	52	14360
2026-01-24 01:19:32.60	354.71	12.92	-40.5	-52.9	3.8	1.49e+00	0	62	104	0	52	15056
2026-01-24 01:19:33.61	354.58	12.99	-40.6	-52.9	3.8	1.49e+00	0	62	104	0	52	15203
2026-01-24 01:19:34.62	354.44	13.06	-40.5	-52.8	3.8	1.49e+00	0	62	104	0	52	14964
2026-01-24 01:19:35.63	354.30	13.14	-40.4	-52.7	3.8	1.49e+00	0	62	104	0	52	14864
2026-01-24 01:19:36.63	354.16	13.21	-40.5	-52.9	3.8	1.49e+00	0	62	104	0	52	15084
2026-01-24 01:19:37.64	354.03	13.28	-40.7	-53.0	3.8	1.49e+00	0	62	104	0	52	15319
2026-01-24 01:19:38.65	353.89	13.35	-40.4	-52.7	3.8	1.49e+00	0	62	104	0	52	14745
2026-01-24 01:19:39.66	353.75	13.42	-40.5	-52.8	3.8	1.49e+00	0	62	104	0	52	14972
2026-01-24 01:19:40.67	353.60	13.50	-40.5	-52.8	3.8	1.49e+00	0	62	104	0	52	14981
2026-01-24 01:19:41.68	353.46	13.57	-40.6	-52.9	3.8	1.49e+00	0	62	104	0	52	15159
2026-01-24 01:19:42.69	353.32	13.64	-40.4	-52.7	3.8	1.49e+00	0	62	104	0	52	14852
2026-01-24 01:19:43.70	353.18	13.71	-40.8	-53.1	3.8	1.49e+00	0	62	104	0	52	15419
2026-01-24 01:19:44.71	353.03	13.78	-40.5	-52.8	3.8	1.49e+00	0	62	104	0	52	15034
2026-01-24 01:19:45.72	352.89	13.86	-40.5	-52.9	3.8	1.49e+00	0	62	104	0	52	15062
2026-01-24 01:19:46.73	352.74	13.93	-40.7	-53.0	3.8	1.49e+00	0	62	104	0	52	15286
2026-01-24 01:19:47.74	352.60	14.00	-40.7	-53.0	3.8	1.49e+00	0	62	104	0	52	15384
2026-01-24 01:19:48.75	352.45	14.07	-40.7	-53.0	3.8	1.49e+00	0	62	104	0	52	15270
2026-01-24 01:19:49.76	352.30	14.15	-40.7	-53.0	3.8	1.49e+00	0	62	104	0	52	15278
2026-01-24 01:19:50.76	352.16	14.22	-40.7	-53.0	3.8	1.49e+00	0	62	104	0	52	15327
2026-01-24 01:19:51.77	352.01	14.29	-40.6	-52.9	3.8	1.49e+00	0	62	104	0	52	15200
2026-01-24 01:19:52.78	351.86	14.36	-40.8	-53.1	3.8	1.49e+00	0	62	104	0	52	15442
2026-01-24 01:19:53.79	351.71	14.44	-40.7	-53.0	3.8	1.49e+00	0	62	104	0	52	15352
2026-01-24 01:19:54.80	351.55	14.51	-40.6	-52.9	3.8	1.49e+00	0	62	104	0	52	15209
2026-01-24 01:19:55.81	351.40	14.58	-40.8	-53.2	3.8	1.49e+00	0	62	104	0	52	15602
2026-01-24 01:19:56.82	351.25	14.65	-40.7	-53.0	3.8	1.49e+00	0	62	104	0	52	15263
2026-01-24 01:19:57.83	351.10	14.73	-40.7	-53.1	3.8	1.49e+00	0	62	104	0	52	15413
2026-01-24 01:19:58.84	350.94	14.80	-40.8	-53.1	3.8	1.49e+00	0	62	104	0	52	15509
2026-01-24 01:19:59.85	350.79	14.87	-40.9	-53.3	3.8	1.49e+00	0	62	104	0	52	15774
2026-01-24 01:20:00.86	350.63	14.95	-40.7	-53.0	3.8	1.49e+00	0	62	104	0	52	15392
2026-01-24 01:20:01.87	350.47	15.02	-40.9	-53.2	3.8	1.49e+00	0	62	104	0	52	15730
2026-01-24 01:20:02.88	350.32	15.09	-40.7	-53.1	3.8	1.49e+00	0	62	104	0	52	15409
2026-01-24 01:20:03.89	350.16	15.16	-41.1	-53.4	3.8	1.49e+00	0	62	104	0	52	16053
2026-01-24 01:20:04.90	350.00	15.24	-40.9	-53.3	3.8	1.49e+00	0	62	104	0	52	15803
2026-01-24 01:20:05.91	349.84	15.31	-40.8	-53.1	3.8	1.49e+00	0	62	104	0	52	15543
2026-01-24 01:20:06.91	349.68	15.38	-40.9	-53.2	3.8	1.49e+00	0	62	104	0	52	15670
2026-01-24 01:20:07.92	349.52	15.45	-41.3	-53.6	3.8	1.49e+00	0	62	104	0	53	15432
2026-01-24 01:20:08.94	349.35	15.53	-41.0	-53.3	3.8	1.49e+00	0	62	104	0	53	14939
2026-01-24 01:20:09.95	349.19	15.60	-40.9	-53.1	3.8	1.49e+00	0	62	104	0	53	14701
2026-01-24 01:20:10.96	349.03	15.67	-41.2	-53.5	3.8	1.49e+00	0	62	104	0	53	15383
2026-01-24 01:20:11.97	348.86	15.74	-41.4	-53.6	3.8	1.49e+00	0	62	104	0	53	15442
2026-01-24 01:20:12.98	348.70	15.82	-41.0	-53.4	3.8	1.49e+00	0	62	104	0	53	15131
2026-01-24 01:20:13.99	348.53	15.89	-41.3	-53.6	3.8	1.49e+00	0	62	104	0	53	15435
2026-01-24 01:20:15.00	348.36	15.96	-41.3	-53.6	3.8	1.49e+00	0	62	104	0	53	15525
2026-01-24 01:20:16.01	348.20	16.03	-41.4	-53.7	3.8	1.49e+00	0	62	104	0	53	15595
2026-01-24 01:20:17.02	348.03	16.11	-41.3	-53.6	3.8	1.49e+00	0	62	104	0	53	15463
2026-01-24 01:20:18.03	347.86	16.18	-41.4	-53.7	3.8	1.49e+00	0	62	104	0	53	15609
2026-01-24 01:20:19.04	347.69	16.25	-41.4	-53.7	3.8	1.49e+00	0	62	104	0	53	15743
2026-01-24 01:20:20.05	347.52	16.32	-41.4	-53.7	3.8	1.49e+00	0	62	104	0	53	15601
2026-01-24 01:20:21.06	347.34	16.40	-41.4	-53.6	3.8	1.49e+00	0	62	104	0	53	15462
2026-01-24 01:20:22.07	347.17	16.47	-41.4	-53.6	3.8	1.49e+00	0	62	104	0	53	15565
2026-01-24 01:20:23.08	347.00	16.54	-41.4	-53.7	3.8	1.49e+00	0	62	104	0	53	15683
2026-01-24 01:20:24.09	346.82	16.61	-41.2	-53.4	3.8	1.49e+00	0	62	104	0	53	15193
2026-01-24 01:20:25.10	346.65	16.68	-41.4	-53.7	3.8	1.49e+00	0	62	104	0	53	15621
2026-01-24 01:20:26.11	346.47	16.76	-41.2	-53.5	3.8	1.49e+00	0	62	104	0	53	15304
2026-01-24 01:20:27.12	346.29	16.83	-41.1	-53.3	3.8	1.49e+00	0	62	104	0	53	15043
2026-01-24 01:20:28.13	346.11	16.90	-41.0	-53.2	3.8	1.49e+00	0	62	104	0	53	14874
2026-01-24 01:20:29.13	345.94	16.97	-41.4	-53.6	3.8	1.49e+00	0	62	104	0	53	15496
2026-01-24 01:20:30.15	345.76	17.04	-41.0	-53.3	3.8	1.49e+00	0	62	104	0	53	14907
2026-01-24 01:20:31.15	345.58	17.11	-40.8	-53.1	3.8	1.49e+00	0	62	104	0	53	14559
2026-01-24 01:20:32.16	345.40	17.19	-41.0	-53.3	3.8	1.49e+00	0	62	104	0	53	14944
2026-01-24 01:20:33.18	345.21	17.26	-41.1	-53.4	3.8	1.49e+00	0	62	104	0	53	15121
2026-01-24 01:20:34.19	345.03	17.33	-40.8	-53.1	3.8	1.49e+00	0	62	104	0	53	14633
2026-01-24 01:20:35.20	344.84	17.40	-40.7	-53.0	3.8	1.49e+00	0	62	104	0	53	14511
2026-01-24 01:20:36.20	344.66	17.47	-40.8	-53.1	3.8	1.49e+00	0	62	104	0	53	14665
2026-01-24 01:20:37.21	344.47	17.54	-40.9	-53.2	3.8	1.49e+00	0	62	104	0	53	14863
2026-01-24 01:20:38.22	344.29	17.61	-40.7	-53.0	3.8	1.49e+00	0	62	104	0	53	14454
2026-01-24 01:20:39.23	344.10	17.68	-40.6	-52.9	3.8	1.49e+00	0	62	104	0	53	14295
2026-01-24 01:20:40.24	343.91	17.75	-40.7	-53.0	3.8	1.49e+00	0	62	104	0	53	14398
2026-01-24 01:20:41.25	343.72	17.82	-40.9	-53.2	3.8	1.49e+00	0	62	104	0	53	14742
2026-01-24 01:20:42.26	343.53	17.89	-40.7	-53.0	3.8	1.49e+00	0	62	104	0	53	14429
2026-01-24 01:20:43.27	343.34	17.96	-40.7	-53.0	3.8	1.49e+00	0	62	104	0	53	14391
2026-01-24 01:20:44.27	343.15	18.03	-40.7	-53.0	3.8	1.49e+00	0	62	104	0	53	14499
2026-01-24 01:20:45.28	342.96	18.10	-40.7	-53.0	3.8	1.49e+00	0	62	104	0	53	14405
2026-01-24 01:20:46.29	342.76	18.17	-40.7	-53.0	3.8	1.49e+00	0	62	104	0	53	14502
2026-01-24 01:20:47.30	342.57	18.24	-40.7	-53.0	3.8	1.49e+00	0	62	104	0	53	14459
2026-01-24 01:20:48.31	342.37	18.31	-40.7	-53.0	3.8	1.49e+00	0	62	104	0	53	14538
2026-01-24 01:20:49.32	342.17	18.38	-40.7	-53.0	3.8	1.49e+00	0	62	104	0	53	14447
2026-01-24 01:20:50.33	341.98	18.45	-40.9	-53.2	3.8	1.49e+00	0	62	104	0	53	14744
2026-01-24 01:20:51.35	341.77	18.52	-40.7	-53.0	3.8	1.49e+00	0	62	104	0	53	14436
2026-01-24 01:20:52.35	341.58	18.59	-40.9	-53.3	3.8	1.49e+00	0	62	104	0	53	14899
2026-01-24 01:20:53.36	341.38	18.66	-40.7	-53.1	3.8	1.49e+00	0	62	104	0	53	14562
2026-01-24 01:20:54.37	341.18	18.73	-41.1	-53.5	3.8	1.49e+00	0	62	104	0	53	15235
2026-01-24 01:20:55.38	340.97	18.80	-40.9	-53.1	3.8	1.49e+00	0	62	104	0	53	14546
2026-01-24 01:20:56.39	340.77	18.86	-41.2	-53.5	3.8	1.49e+00	0	62	104	0	53	15318
2026-01-24 01:20:57.40	340.57	18.93	-40.9	-52.8	3.8	1.49e+00	0	62	104	0	53	14120
2026-01-24 01:20:58.41	340.36	19.00	-41.0	-52.8	3.8	1.49e+00	0	62	104	0	53	14154
2026-01-24 01:20:59.42	340.15	19.07	-40.9	-52.9	3.8	1.49e+00	0	62	104	0	53	14300
2026-01-24 01:21:00.43	339.95	19.14	-41.0	-53.2	3.8	1.49e+00	0	62	104	0	53	14723
2026-01-24 01:21:01.44	339.74	19.20	-41.1	-53.3	3.8	1.49e+00	0	62	104	0	53	14956
2026-01-24 01:21:02.44	339.53	19.27	-41.3	-53.6	3.8	1.49e+00	0	62	104	0	53	15406
2026-01-24 01:21:03.45	339.32	19.34	-41.3	-51.6	3.8	1.47e+00	0	62	104	0	53	12255
2026-01-24 01:21:04.46	339.11	19.40	-41.0	-47.3	5.9	1.24e+00	0	62	104	0	53	7465
2026-01-24 01:21:05.47	338.90	19.47	-41.7	-46.9	7.4	8.65e-02	0	62	0	2097152	53	7124
2026-01-24 01:21:06.48	338.69	19.53	-40.3	-43.6	10.4	1.49e+00	2	62	104	3145728	52	5196
2026-01-24 01:21:07.49	338.47	19.60	-42.3	-48.1	6.2	1.47e+00	0	62	0	3145728	56	6956
2026-01-24 01:21:08.50	338.26	19.67	-40.0	-43.1	11.2	1.34e-03	0	62	0	6291456	52	4893
2026-01-24 01:21:09.51	338.04	19.73	-39.7	-42.5	12.0	4.47e-04	0	62	0	9437184	51	4856
2026-01-24 01:21:10.52	337.83	19.80	-39.7	-42.4	12.2	2.33e-04	0	62	0	12582912	51	4802
2026-01-24 01:21:11.53	337.61	19.86	-40.0	-42.8	11.9	2.96e-04	0	62	0	15728640	51	5036
2026-01-24 01:21:12.54	337.39	19.93	-39.8	-42.4	12.5	1.46e-04	0	62	0	18874368	51	4794
2026-01-24 01:21:13.55	337.17	19.99	-39.2	-41.5	13.6	2.51e-05	0	62	0	22020096	50	4547
2026-01-24 01:21:14.56	336.95	20.05	-39.2	-41.5	13.7	4.50e-06	0	62	0	25165824	50	4565
2026-01-24 01:21:15.57	336.73	20.12	-39.3	-41.6	13.7	9.10e-06	0	62	0	28311552	50	4605
2026-01-24 01:21:16.58	336.51	20.18	-39.1	-41.3	13.9	4.50e-06	0	62	0	31457280	50	4459
2026-01-24 01:21:17.59	336.29	20.24	-39.2	-41.5	13.8	3.00e-06	0	62	0	34603008	50	4547
2026-01-24 01:21:18.60	336.06	20.31	-39.2	-41.4	13.9	2.20e-06	0	62	0	37748736	50	4501
2026-01-24 01:21:19.61	335.84	20.37	-39.2	-41.4	13.9	7.00e-07	0	62	0	40894464	50	4512
2026-01-24 01:21:20.62	335.61	20.43	-39.3	-41.4	13.9	7.60e-06	0	62	0	44040192	50	4543
2026-01-24 01:21:21.63	335.39	20.49	-39.2	-41.4	14.0	1.50e-06	0	62	0	47185920	50	4494
2026-01-24 01:21:22.64	335.16	20.56	-39.2	-41.4	14.0	1.50e-06	0	62	0	50331648	50	4519
2026-01-24 01:21:23.65	334.93	20.62	-39.2	-41.3	14.2	4.50e-06	0	62	0	53477376	50	4468
2026-01-24 01:21:24.66	334.70	20.68	-39.3	-41.4	14.1	1.50e-06	0	62	0	56623104	50	4507
2026-01-24 01:21:25.67	334.47	20.74	-39.3	-41.4	14.2	3.00e-06	0	62	0	59768832	50	4510
2026-01-24 01:21:26.68	334.24	20.80	-39.3	-41.5	14.1	1.50e-06	0	62	0	62914560	50	4548
2026-01-24 01:21:27.69	334.01	20.86	-39.3	-41.4	14.2	3.00e-06	0	62	0	66060288	50	4522
2026-01-24 01:21:28.70	333.77	20.92	-39.3	-41.4	14.1	2.20e-06	0	62	0	69206016	50	4537
2026-01-24 01:21:29.71	333.54	20.98	-39.3	-41.5	14.1	2.20e-06	0	62	0	72351744	50	4574
2026-01-24 01:21:30.72	333.31	21.04	-39.4	-41.5	14.0	3.00e-06	0	62	0	75497472	50	4587
2026-01-24 01:21:31.73	333.07	21.09	-39.2	-41.3	14.3	0.00e+00	0	62	0	78643200	50	4479
2026-01-24 01:21:32.74	332.83	21.15	-39.3	-41.4	14.2	7.00e-07	0	62	0	81788928	50	4513
2026-01-24 01:21:33.75	332.60	21.21	-39.3	-41.5	14.2	2.20e-06	0	62	0	84934656	50	4553
2026-01-24 01:21:34.76	332.36	21.27	-39.2	-41.3	14.4	0.00e+00	0	62	0	88080384	50	4474
2026-01-24 01:21:35.77	332.12	21.32	-39.2	-41.2	14.4	0.00e+00	0	62	0	91226112	50	4435
2026-01-24 01:21:36.78	331.88	21.38	-39.1	-41.2	14.5	7.00e-07	0	62	0	94371840	50	4394
2026-01-24 01:21:37.79	331.64	21.44	-39.1	-41.2	14.5	0.00e+00	0	62	0	97517568	50	4406
2026-01-24 01:21:38.80	331.39	21.49	-39.1	-41.1	14.6	1.50e-06	0	62	0	100663296	50	4359
2026-01-24 01:21:39.81	331.15	21.55	-39.0	-41.1	14.6	0.00e+00	0	62	0	103809024	50	4342
2026-01-24 01:21:40.82	330.91	21.60	-39.0	-41.0	14.7	0.00e+00	0	62	0	106954752	50	4309
2026-01-24 01:21:41.83	330.66	21.66	-39.1	-41.1	14.6	0.00e+00	0	62	0	110100480	50	4366
2026-01-24 01:21:42.84	330.42	21.71	-39.1	-41.1	14.5	0.00e+00	0	62	0	113246208	50	4385
2026-01-24 01:21:43.84	330.17	21.76	-39.1	-41.1	14.6	1.50e-06	0	62	0	116391936	50	4344
2026-01-24 01:21:44.85	329.93	21.82	-39.1	-41.1	14.6	0.00e+00	0	62	0	119537664	50	4357
2026-01-24 01:21:45.86	329.68	21.87	-39.1	-41.1	14.6	0.00e+00	0	62	0	122683392	50	4386
2026-01-24 01:21:46.87	329.43	21.92	-39.1	-41.1	14.6	7.00e-07	0	62	0	125829120	50	4346
2026-01-24 01:21:47.88	329.18	21.97	-39.2	-41.2	14.5	7.00e-07	0	62	0	128974848	50	4419
2026-01-24 01:21:48.89	328.93	22.02	-39.3	-41.3	14.3	1.50e-06	0	62	0	132120576	50	4480
2026-01-24 01:21:49.90	328.68	22.07	-39.4	-41.4	14.2	7.00e-07	0	62	0	135266304	50	4543
2026-01-24 01:21:50.92	328.42	22.13	-39.4	-41.6	14.1	1.50e-06	0	62	0	138412032	50	4610
2026-01-24 01:21:51.92	328.17	22.17	-39.4	-41.6	14.2	7.00e-07	0	62	0	141557760	50	4605
2026-01-24 01:21:52.94	327.91	22.22	-39.4	-41.5	14.2	0.00e+00	0	62	0	144703488	50	4554
2026-01-24 01:21:53.95	327.66	22.27	-39.3	-41.3	14.4	0.00e+00	0	62	0	147849216	50	4484
2026-01-24 01:21:54.96	327.40	22.32	-39.4	-41.5	14.3	2.20e-06	0	62	0	150994944	50	4550
2026-01-24 01:21:55.97	327.15	22.37	-39.3	-41.3	14.4	0.00e+00	0	62	0	154140672	50	4492
2026-01-24 01:21:56.98	326.89	22.42	-39.2	-41.3	14.5	1.50e-06	0	62	0	157286400	50	4464
2026-01-24 01:21:57.99	326.63	22.46	-39.2	-41.3	14.5	7.00e-07	0	62	0	160432128	50	4448
2026-01-24 01:21:59.00	326.37	22.51	-39.3	-41.3	14.4	0.00e+00	0	62	0	163577856	50	4489
2026-01-24 01:22:00.00	326.12	22.55	-39.3	-41.3	14.4	0.00e+00	0	62	0	166723584	50	4493
2026-01-24 01:22:01.01	325.86	22.60	-39.2	-41.2	14.5	0.00e+00	0	62	0	169869312	50	4412
2026-01-24 01:22:02.02	325.60	22.64	-39.1	-41.1	14.6	0.00e+00	0	62	0	173015040	50	4362
2026-01-24 01:22:03.03	325.33	22.69	-39.0	-41.0	14.7	1.50e-06	0	62	0	176160768	50	4311
2026-01-24 01:22:04.04	325.07	22.73	-39.0	-41.0	14.7	0.00e+00	0	62	0	179306496	50	4292
2026-01-24 01:22:05.05	324.81	22.77	-39.0	-40.9	14.7	0.00e+00	0	62	0	182452224	49	4544
2026-01-24 01:22:06.06	324.54	22.81	-39.1	-41.1	14.6	7.00e-07	0	62	0	185597952	49	4604
2026-01-24 01:22:07.07	324.28	22.86	-39.2	-41.2	14.5	0.00e+00	0	62	0	188743680	49	4668
2026-01-24 01:22:08.08	324.01	22.90	-39.1	-41.1	14.5	7.00e-07	0	62	0	191889408	49	4645
2026-01-24 01:22:09.09	323.75	22.94	-39.2	-41.2	14.5	1.50e-06	0	62	0	195035136	49	4669
2026-01-24 01:22:10.10	323.48	22.98	-39.2	-41.2	14.5	7.00e-07	0	62	0	198180864	49	4683
2026-01-24 01:22:11.11	323.21	23.02	-39.2	-41.2	14.5	7.00e-07	0	62	0	201326592	49	4690
2026-01-24 01:22:12.12	322.94	23.05	-39.2	-41.2	14.5	7.00e-07	0	62	0	204472320	49	4684
2026-01-24 01:22:13.13	322.68	23.09	-39.1	-41.1	14.6	7.00e-07	0	62	0	207618048	49	4613
2026-01-24 01:22:14.14	322.41	23.13	-39.2	-41.2	14.5	0.00e+00	0	62	0	210763776	49	4687
2026-01-24 01:22:15.15	322.14	23.17	-39.2	-41.2	14.5	0.00e+00	0	62	0	213909504	49	4696
2026-01-24 01:22:16.16	321.87	23.20	-39.2	-41.2	14.5	0.00e+00	0	62	0	217055232	49	4690
2026-01-24 01:22:17.17	321.59	23.24	-39.2	-41.3	14.4	7.00e-07	0	62	0	220200960	49	4726
2026-01-24 01:22:18.18	321.32	23.27	-39.3	-41.3	14.4	7.00e-07	0	62	0	223346688	49	4748
2026-01-24 01:22:19.19	321.05	23.31	-39.3	-41.3	14.4	1.50e-06	0	62	0	226492416	49	4728
2026-01-24 01:22:20.20	320.78	23.34	-39.1	-41.1	14.6	7.00e-07	0	62	0	229638144	49	4648
2026-01-24 01:22:21.21	320.50	23.37	-39.1	-41.1	14.6	0.00e+00	0	62	0	232783872	49	4649
2026-01-24 01:22:22.22	320.23	23.40	-39.1	-41.1	14.6	0.00e+00	0	62	0	235929600	49	4612
2026-01-24 01:22:23.23	319.95	23.43	-39.0	-40.9	14.8	0.00e+00	0	62	0	239075328	49	4542
2026-01-24 01:22:24.24	319.68	23.47	-38.9	-40.9	14.8	7.00e-07	0	62	0	242221056	49	4500
2026-01-24 01:22:25.25	319.40	23.50	-39.0	-40.9	14.8	7.00e-07	0	62	0	245366784	49	4530
2026-01-24 01:22:26.26	319.12	23.52	-39.0	-41.0	14.7	0.00e+00	0	62	0	248512512	49	4562
2026-01-24 01:22:27.27	318.85	23.55	-39.0	-40.9	14.7	0.00e+00	0	62	0	251658240	49	4541
2026-01-24 01:22:28.28	318.57	23.58	-39.1	-41.1	14.6	7.00e-07	0	62	0	254803968	49	4621
2026-01-24 01:22:29.29	318.29	23.61	-39.1	-41.2	14.5	7.00e-07	0	62	0	257949696	49	4653
2026-01-24 01:22:30.30	318.01	23.64	-39.2	-41.2	14.5	7.00e-07	0	62	0	261095424	49	4703
2026-01-24 01:22:31.31	317.73	23.66	-39.2	-41.2	14.5	7.00e-07	0	62	0	264241152	49	4676
2026-01-24 01:22:32.32	317.45	23.69	-39.2	-41.2	14.5	1.50e-06	0	62	0	267386880	49	4685
2026-01-24 01:22:33.33	317.17	23.71	-39.1	-41.1	14.6	7.00e-07	0	62	0	270532608	49	4641
2026-01-24 01:22:34.34	316.89	23.73	-39.0	-41.0	14.7	0.00e+00	0	62	0	273678336	49	4591
2026-01-24 01:22:35.35	316.61	23.76	-39.0	-41.0	14.7	7.00e-07	0	62	0	276824064	49	4582
2026-01-24 01:22:36.36	316.33	23.78	-39.0	-41.0	14.7	7.00e-07	0	62	0	279969792	49	4569
2026-01-24 01:22:37.37	316.05	23.80	-39.1	-41.0	14.7	0.00e+00	0	62	0	283115520	49	4594
2026-01-24 01:22:38.38	315.77	23.82	-39.0	-41.0	14.7	7.00e-07	0	62	0	286261248	49	4579
2026-01-24 01:22:39.39	315.48	23.84	-39.1	-41.1	14.6	7.00e-07	0	62	0	289406976	49	4617
2026-01-24 01:22:40.39	315.20	23.86	-39.0	-41.0	14.7	7.00e-07	0	62	0	292552704	49	4583
2026-01-24 01:22:41.40	314.92	23.88	-39.0	-40.9	14.8	0.00e+00	0	62	0	295698432	49	4535
2026-01-24 01:22:42.41	314.64	23.90	-38.9	-40.8	14.9	0.00e+00	0	62	0	298844160	49	4467
2026-01-24 01:22:43.42	314.35	23.91	-38.8	-40.8	14.9	0.00e+00	0	62	0	301989888	49	4443
2026-01-24 01:22:44.43	314.07	23.93	-38.9	-40.8	14.9	0.00e+00	0	62	0	305135616	49	4459
2026-01-24 01:22:45.44	313.79	23.95	-38.9	-40.8	14.9	7.00e-07	0	62	0	309329920	49	4473
2026-01-24 01:22:46.45	313.50	23.96	-38.9	-40.8	14.9	0.00e+00	0	62	0	312475648	49	4461
2026-01-24 01:22:47.46	313.22	23.97	-38.8	-40.7	14.9	0.00e+00	0	62	0	315621376	49	4413
2026-01-24 01:22:48.47	312.93	23.99	-38.8	-40.7	14.9	7.00e-07	0	62	0	317718528	49	4428
2026-01-24 01:22:49.48	312.64	24.00	-38.8	-40.7	14.9	0.00e+00	0	62	0	320864256	49	4419
2026-01-24 01:22:50.48	312.36	24.01	-38.8	-40.7	14.9	0.00e+00	0	62	0	324009984	49	4435
2026-01-24 01:22:51.49	312.08	24.02	-38.9	-40.8	14.9	7.00e-07	0	62	0	328204288	49	4462
2026-01-24 01:22:52.50	311.79	24.03	-39.0	-40.9	14.8	0.00e+00	0	62	0	331350016	49	4530
2026-01-24 01:22:53.51	311.50	24.04	-38.9	-40.8	14.9	0.00e+00	0	62	0	334495744	49	4466
2026-01-24 01:22:54.52	311.22	24.05	-38.9	-40.9	14.8	0.00e+00	0	62	0	337641472	49	4505
2026-01-24 01:22:55.53	310.93	24.06	-39.0	-40.9	14.8	0.00e+00	0	62	0	339738624	49	4531
2026-01-24 01:22:56.54	310.64	24.07	-39.0	-41.0	14.7	7.00e-07	0	62	0	343932928	49	4554
2026-01-24 01:22:57.55	310.36	24.07	-39.0	-41.0	14.7	0.00e+00	0	62	0	347078656	49	4589
2026-01-24 01:22:58.56	310.07	24.08	-39.1	-41.2	14.6	2.20e-06	0	62	0	350224384	49	4654
2026-01-24 01:22:59.57	309.78	24.08	-39.1	-41.1	14.6	0.00e+00	0	62	0	353370112	49	4606
2026-01-24 01:23:00.58	309.49	24.09	-39.1	-41.1	14.6	0.00e+00	0	62	0	356515840	49	4619
2026-01-24 01:23:01.59	309.21	24.09	-39.1	-41.1	14.6	1.50e-06	0	62	0	359661568	49	4642
2026-01-24 01:23:02.60	308.92	24.09	-39.1	-41.1	14.6	0.00e+00	0	62	0	362807296	49	4621
2026-01-24 01:23:03.61	308.63	24.09	-39.1	-41.1	14.6	7.00e-07	0	62	0	365953024	49	4618
2026-01-24 01:23:04.63	308.34	24.10	-39.0	-41.0	14.7	7.00e-07	0	62	0	369098752	49	4595
2026-01-24 01:23:05.64	308.05	24.10	-39.1	-41.1	14.6	7.00e-07	0	62	0	372244480	49	4628
2026-01-24 01:23:06.64	307.77	24.10	-39.1	-41.1	14.6	7.00e-07	0	62	0	375390208	49	4644
2026-01-24 01:23:07.65	307.48	24.09	-39.1	-41.1	14.6	0.00e+00	0	62	0	378535936	49	4633
2026-01-24 01:23:08.66	307.19	24.09	-39.1	-41.1	14.6	7.00e-07	0	62	0	381681664	49	4613
2026-01-24 01:23:09.67	306.91	24.09	-39.1	-41.1	14.6	0.00e+00	0	62	0	384827392	49	4647
2026-01-24 01:23:10.68	306.62	24.08	-39.1	-41.2	14.5	0.00e+00	0	62	0	387973120	49	4660
2026-01-24 01:23:11.69	306.33	24.08	-39.2	-41.3	14.4	7.00e-07	0	62	0	391118848	49	4720
2026-01-24 01:23:12.70	306.05	24.07	-39.2	-41.2	14.5	7.00e-07	0	62	0	394264576	49	4689
2026-01-24 01:23:13.71	305.76	24.07	-39.2	-41.3	14.4	7.00e-07	0	62	0	397410304	49	4731
2026-01-24 01:23:14.72	305.47	24.06	-39.3	-41.4	14.3	7.00e-07	0	62	0	400556032	49	4798
2026-01-24 01:23:15.74	305.18	24.05	-39.3	-41.4	14.3	3.00e-06	0	62	0	403701760	49	4790
2026-01-24 01:23:16.74	304.90	24.05	-39.3	-41.4	14.3	3.80e-06	0	62	0	406847488	49	4797
2026-01-24 01:23:17.75	304.61	24.04	-39.3	-41.4	14.3	2.20e-06	0	62	0	409993216	49	4795
2026-01-24 01:23:18.76	304.32	24.03	-39.2	-41.3	14.4	1.50e-06	0	62	0	413138944	49	4744
2026-01-24 01:23:19.77	304.04	24.02	-39.1	-41.1	14.6	7.00e-07	0	62	0	416284672	49	4649
2026-01-24 01:23:20.78	303.75	24.00	-39.0	-41.0	14.7	0.00e+00	0	62	0	419430400	49	4558
2026-01-24 01:23:21.79	303.47	23.99	-39.1	-41.1	14.6	7.00e-07	0	62	0	422576128	49	4616
2026-01-24 01:23:22.80	303.18	23.98	-39.1	-41.1	14.6	0.00e+00	0	62	0	425721856	49	4643
2026-01-24 01:23:23.81	302.90	23.96	-39.1	-41.1	14.6	0.00e+00	0	62	0	428867584	49	4617
2026-01-24 01:23:24.82	302.61	23.95	-39.0	-41.0	14.7	0.00e+00	0	62	0	432013312	49	4576
2026-01-24 01:23:25.83	302.33	23.94	-39.0	-41.0	14.7	0.00e+00	0	62	0	435159040	49	4573
2026-01-24 01:23:26.84	302.04	23.92	-39.0	-40.9	14.8	7.00e-07	0	62	0	438304768	49	4544
2026-01-24 01:23:27.85	301.76	23.90	-38.9	-40.9	14.8	0.00e+00	0	62	0	441450496	49	4508
2026-01-24 01:23:28.86	301.47	23.88	-38.9	-40.9	14.8	7.00e-07	0	62	0	444596224	49	4511
2026-01-24 01:23:29.87	301.19	23.87	-39.0	-41.0	14.7	0.00e+00	0	62	0	447741952	49	4560
2026-01-24 01:23:30.88	300.91	23.85	-39.0	-41.0	14.7	0.00e+00	0	62	0	450887680	49	4587
2026-01-24 01:23:31.89	300.62	23.83	-38.9	-40.9	14.9	0.00e+00	0	62	0	454033408	49	4499
2026-01-24 01:23:32.90	300.34	23.81	-38.9	-40.8	14.9	1.50e-06	0	62	0	457179136	49	4469
2026-01-24 01:23:33.91	300.06	23.79	-38.9	-40.8	14.9	0.00e+00	0	62	0	460324864	49	4458
2026-01-24 01:23:34.92	299.78	23.76	-38.8	-40.8	14.9	7.00e-07	0	62	0	463470592	49	4459
2026-01-24 01:23:35.93	299.50	23.74	-38.9	-40.8	14.9	0.00e+00	0	62	0	466616320	49	4473
2026-01-24 01:23:36.94	299.21	23.72	-38.8	-40.8	14.9	7.00e-07	0	62	0	469762048	49	4448
2026-01-24 01:23:37.95	298.93	23.69	-38.9	-40.8	14.9	0.00e+00	0	62	0	472907776	49	4463
2026-01-24 01:23:38.96	298.65	23.67	-38.9	-40.8	14.9	0.00e+00	0	62	0	476053504	49	4473
2026-01-24 01:23:39.97	298.37	23.64	-38.9	-40.8	14.9	0.00e+00	0	62	0	479199232	49	4470
2026-01-24 01:23:40.98	298.09	23.62	-38.9	-40.8	14.9	0.00e+00	0	62	0	482344960	49	4482
2026-01-24 01:23:41.99	297.82	23.59	-38.9	-40.8	14.9	0.00e+00	0	62	0	485490688	49	4468
2026-01-24 01:23:43.00	297.54	23.56	-38.9	-40.9	14.8	0.00e+00	0	62	0	488636416	49	4512
2026-01-24 01:23:44.01	297.26	23.53	-38.9	-40.8	14.9	0.00e+00	0	62	0	491782144	49	4452
2026-01-24 01:23:45.02	296.98	23.50	-38.9	-40.9	14.8	7.00e-07	0	62	0	494927872	49	4501
2026-01-24 01:23:46.03	296.71	23.47	-38.9	-40.9	14.8	0.00e+00	0	62	0	498073600	49	4499
2026-01-24 01:23:47.04	296.43	23.44	-39.0	-40.9	14.8	0.00e+00	0	62	0	501219328	49	4533
2026-01-24 01:23:48.05	296.15	23.41	-39.0	-41.0	14.7	0.00e+00	0	62	0	504365056	49	4597
2026-01-24 01:23:49.05	295.88	23.38	-39.0	-41.0	14.7	0.00e+00	0	62	0	507510784	49	4572
2026-01-24 01:23:50.07	295.60	23.35	-39.1	-41.1	14.6	0.00e+00	0	62	0	510656512	49	4649
2026-01-24 01:23:51.08	295.33	23.31	-39.2	-41.3	14.4	1.50e-06	0	62	0	513802240	49	4707
2026-01-24 01:23:52.09	295.06	23.28	-39.3	-41.4	14.4	0.00e+00	0	62	0	516947968	49	4762
2026-01-24 01:23:53.10	294.78	23.25	-39.2	-41.3	14.4	0.00e+00	0	62	0	520093696	49	4739
2026-01-24 01:23:54.10	294.51	23.21	-39.3	-41.3	14.4	7.00e-07	0	62	0	523239424	49	4755
2026-01-24 01:23:55.11	294.24	23.18	-39.2	-41.3	14.5	0.00e+00	0	62	0	526385152	49	4714
2026-01-24 01:23:56.12	293.97	23.14	-39.2	-41.2	14.5	0.00e+00	0	62	0	529530880	49	4671
2026-01-24 01:23:57.13	293.70	23.10	-39.0	-41.0	14.7	0.00e+00	0	62	0	532676608	49	4581
2026-01-24 01:23:58.14	293.43	23.06	-38.9	-40.9	14.9	7.00e-07	0	62	0	535822336	49	4509
2026-01-24 01:23:59.15	293.16	23.03	-38.9	-40.8	14.9	0.00e+00	0	62	0	538968064	49	4464
2026-01-24 01:24:00.16	292.89	22.99	-38.9	-40.9	14.8	0.00e+00	0	62	0	542113792	49	4519
2026-01-24 01:24:01.17	292.63	22.95	-38.9	-40.9	14.9	0.00e+00	0	62	0	545259520	49	4494
2026-01-24 01:24:02.18	292.36	22.91	-38.9	-40.8	14.8	0.00e+00	0	62	0	548405248	49	4484
2026-01-24 01:24:03.19	292.09	22.87	-39.1	-41.1	14.6	7.00e-07	0	62	0	551550976	49	4622
2026-01-24 01:24:04.20	291.83	22.82	-39.2	-41.2	14.5	0.00e+00	0	62	0	554696704	49	4680
2026-01-24 01:24:05.21	291.56	22.78	-39.2	-41.3	14.4	2.20e-06	0	62	0	557842432	49	4729
2026-01-24 01:24:06.22	291.30	22.74	-39.2	-41.3	14.4	2.20e-06	0	62	0	560988160	49	4734
2026-01-24 01:24:07.23	291.03	22.70	-39.2	-41.2	14.4	0.00e+00	0	62	0	564133888	49	4700
2026-01-24 01:24:08.24	290.77	22.65	-39.1	-41.2	14.5	7.00e-07	0	62	0	567279616	49	4668
2026-01-24 01:24:09.25	290.51	22.61	-39.1	-41.2	14.6	0.00e+00	0	62	0	570425344	49	4656
2026-01-24 01:24:10.26	290.25	22.56	-39.2	-41.3	14.4	7.00e-07	0	62	0	573571072	49	4711
2026-01-24 01:24:11.26	289.99	22.52	-39.3	-41.4	14.3	7.00e-07	0	62	0	576716800	49	4769
2026-01-24 01:24:12.27	289.73	22.47	-39.2	-41.3	14.4	7.00e-07	0	62	0	579862528	49	4721
2026-01-24 01:24:13.28	289.47	22.43	-39.3	-41.4	14.3	0.00e+00	0	62	0	583008256	49	4772
2026-01-24 01:24:14.29	289.21	22.38	-39.3	-41.4	14.2	2.20e-06	0	62	0	586153984	49	4812
2026-01-24 01:24:15.30	288.96	22.33	-39.4	-41.5	14.2	1.50e-06	0	62	0	589299712	49	4826
2026-01-24 01:24:16.31	288.70	22.28	-39.4	-41.5	14.2	4.50e-06	0	62	0	592445440	49	4842
2026-01-24 01:24:17.32	288.44	22.24	-39.3	-41.4	14.3	2.20e-06	0	62	0	595591168	49	4787
2026-01-24 01:24:18.33	288.19	22.19	-39.3	-41.5	14.2	1.50e-06	0	62	0	598736896	49	4818
2026-01-24 01:24:19.34	287.93	22.14	-39.3	-41.4	14.1	7.00e-07	0	62	0	601882624	49	4808
2026-01-24 01:24:20.36	287.68	22.09	-39.4	-41.5	14.1	2.20e-06	0	62	0	605028352	49	4848
2026-01-24 01:24:21.36	287.43	22.04	-39.4	-41.6	13.9	2.20e-06	0	62	0	608174080	49	4901
2026-01-24 01:24:22.37	287.18	21.98	-39.4	-41.6	13.9	4.50e-06	0	62	0	611319808	49	4903
2026-01-24 01:24:23.38	286.93	21.93	-39.4	-41.5	14.1	3.80e-06	0	62	0	614465536	49	4855
2026-01-24 01:24:24.39	286.68	21.88	-39.3	-41.4	14.2	0.00e+00	0	62	0	617611264	49	4762
2026-01-24 01:24:25.40	286.43	21.83	-39.2	-41.3	14.3	1.50e-06	0	62	0	620756992	49	4718
2026-01-24 01:24:26.41	286.18	21.78	-39.3	-41.4	14.3	7.00e-07	0	62	0	623902720	49	4766
2026-01-24 01:24:27.42	285.93	21.72	-39.4	-41.5	14.1	3.80e-06	0	62	0	627048448	49	4860
2026-01-24 01:24:28.43	285.68	21.67	-39.6	-41.8	13.8	3.00e-06	0	62	0	630194176	49	5014
2026-01-24 01:24:29.44	285.44	21.61	-39.8	-42.1	13.6	1.14e-05	0	62	0	633339904	50	4872
2026-01-24 01:24:30.44	285.20	21.56	-39.9	-42.2	13.5	1.14e-05	0	62	0	636485632	50	4959
2026-01-24 01:24:31.45	284.95	21.50	-39.9	-42.2	13.4	2.28e-05	0	62	0	639631360	50	4960
2026-01-24 01:24:32.46	284.71	21.45	-39.8	-42.2	13.5	1.06e-05	0	62	0	642777088	50	4944
2026-01-24 01:24:33.47	284.47	21.39	-39.7	-41.9	13.7	1.29e-05	0	62	0	645922816	50	4809
2026-01-24 01:24:34.48	284.22	21.34	-39.6	-41.8	13.9	4.50e-06	0	62	0	649068544	50	4720
2026-01-24 01:24:35.49	283.98	21.28	-39.6	-41.9	13.8	3.00e-06	0	62	0	653262848	50	4760
2026-01-24 01:24:36.50	283.74	21.22	-39.5	-41.7	14.0	3.00e-06	0	62	0	655360000	50	4655
2026-01-24 01:24:37.51	283.51	21.16	-39.5	-41.7	13.9	1.50e-06	0	62	0	658505728	50	4680
2026-01-24 01:24:38.52	283.27	21.11	-39.7	-41.9	13.7	5.30e-06	0	62	0	661651456	50	4792
2026-01-24 01:24:39.53	283.03	21.05	-39.8	-42.2	13.5	6.80e-06	0	62	0	664797184	50	4941
2026-01-24 01:24:40.54	282.79	20.99	-39.9	-42.3	13.3	1.22e-05	0	62	0	668991488	50	5017
2026-01-24 01:24:41.55	282.56	20.93	-39.9	-42.3	13.3	1.90e-05	0	62	0	672137216	50	5040
2026-01-24 01:24:42.56	282.32	20.87	-39.9	-42.3	13.3	9.90e-06	0	62	0	675282944	50	4990
2026-01-24 01:24:43.57	282.09	20.81	-39.9	-42.2	13.4	1.67e-05	0	62	0	678428672	50	4955
2026-01-24 01:24:44.58	281.86	20.75	-39.8	-42.1	13.5	1.37e-05	0	62	0	680525824	50	4888
2026-01-24 01:24:45.59	281.63	20.69	-39.7	-41.9	13.7	6.10e-06	0	62	0	684720128	50	4792
2026-01-24 01:24:46.60	281.40	20.63	-39.6	-41.8	13.8	6.80e-06	0	62	0	687865856	50	4739
2026-01-24 01:24:47.61	281.17	20.57	-39.5	-41.6	14.0	3.00e-06	0	62	0	691011584	50	4645
2026-01-24 01:24:48.62	280.94	20.50	-39.4	-41.6	14.0	1.50e-06	0	62	0	694157312	50	4633
2026-01-24 01:24:49.63	280.71	20.44	-39.4	-41.6	14.0	4.50e-06	0	62	0	697303040	50	4630
2026-01-24 01:24:50.64	280.48	20.38	-39.5	-41.7	13.9	3.80e-06	0	62	0	700448768	50	4664
2026-01-24 01:24:51.65	280.26	20.32	-39.4	-41.5	14.0	2.20e-06	0	62	0	703594496	50	4592
2026-01-24 01:24:52.66	280.03	20.25	-39.3	-41.5	14.1	2.20e-06	0	62	0	706740224	50	4560
2026-01-24 01:24:53.67	279.81	20.19	-39.3	-41.5	14.1	7.00e-07	0	62	0	709885952	50	4547
2026-01-24 01:24:54.68	279.58	20.13	-39.3	-41.4	14.2	7.00e-07	0	62	0	713031680	50	4500
2026-01-24 01:24:55.69	279.36	20.06	-39.2	-41.3	14.3	2.20e-06	0	62	0	716177408	50	4462
2026-01-24 01:24:56.70	279.14	20.00	-39.2	-41.2	14.4	2.20e-06	0	62	0	719323136	50	4424
2026-01-24 01:24:57.71	278.92	19.93	-39.2	-41.2	14.4	0.00e+00	0	62	0	722468864	50	4429
2026-01-24 01:24:58.72	278.70	19.87	-39.2	-41.2	14.4	0.00e+00	0	62	0	725614592	50	4425
2026-01-24 01:24:59.73	278.48	19.80	-39.2	-41.3	14.3	2.20e-06	0	62	0	728760320	50	4456
2026-01-24 01:25:00.74	278.27	19.74	-39.3	-41.4	14.2	2.20e-06	0	62	0	731906048	50	4528
2026-01-24 01:25:01.75	278.05	19.67	-39.4	-41.5	14.1	7.00e-07	0	62	0	735051776	50	4578
2026-01-24 01:25:02.76	277.83	19.61	-39.4	-41.5	14.1	2.20e-06	0	62	0	738197504	50	4593
2026-01-24 01:25:03.77	277.62	19.54	-39.3	-41.4	14.2	1.50e-06	0	62	0	741343232	50	4529
2026-01-24 01:25:04.78	277.40	19.48	-39.2	-41.3	14.3	1.50e-06	0	62	0	744488960	50	4483
2026-01-24 01:25:05.79	277.19	19.41	-39.3	-41.4	14.2	3.00e-06	0	62	0	747634688	50	4521
2026-01-24 01:25:06.80	276.98	19.34	-39.3	-41.4	14.2	0.00e+00	0	62	0	750780416	50	4532
2026-01-24 01:25:07.81	276.77	19.28	-39.3	-41.4	14.2	1.50e-06	0	62	0	753926144	50	4519
2026-01-24 01:25:08.82	276.56	19.21	-39.3	-41.5	14.1	7.00e-07	0	62	0	757071872	50	4559
2026-01-24 01:25:09.83	276.35	19.14	-39.3	-41.5	14.1	2.20e-06	0	62	0	760217600	50	4570
2026-01-24 01:25:10.84	276.14	19.07	-39.4	-41.6	14.0	2.20e-06	0	62	0	763363328	50	4635
2026-01-24 01:25:11.85	275.93	19.01	-39.5	-41.7	13.9	4.50e-06	0	62	0	766509056	50	4701
2026-01-24 01:25:12.86	275.73	18.94	-39.6	-41.9	13.7	4.50e-06	0	62	0	769654784	50	4768
2026-01-24 01:25:13.87	275.52	18.87	-39.7	-42.0	13.6	4.50e-06	0	62	0	772800512	50	4830
2026-01-24 01:25:14.88	275.32	18.80	-39.8	-42.1	13.5	1.14e-05	0	62	0	775946240	50	4881
2026-01-24 01:25:15.89	275.11	18.73	-39.8	-42.1	13.5	9.10e-06	0	62	0	779091968	50	4916
2026-01-24 01:25:16.90	274.91	18.66	-39.8	-42.2	13.4	1.60e-05	0	62	0	782237696	50	4974
2026-01-24 01:25:17.91	274.71	18.59	-39.8	-42.2	13.4	1.83e-05	0	62	0	785383424	50	4941
2026-01-24 01:25:18.92	274.51	18.52	-39.8	-42.2	13.4	1.14e-05	0	62	0	788529152	50	4946
2026-01-24 01:25:19.93	274.31	18.46	-39.9	-42.3	13.3	1.60e-05	0	62	0	791674880	50	4993
2026-01-24 01:25:20.94	274.11	18.39	-39.6	-41.9	13.7	9.10e-06	0	62	0	794820608	50	4773
2026-01-24 01:25:21.95	273.91	18.32	-39.4	-41.6	13.9	3.00e-06	0	62	0	797966336	50	4633
2026-01-24 01:25:22.96	273.71	18.25	-39.4	-41.6	13.9	2.20e-06	0	62	0	801112064	50	4650
2026-01-24 01:25:23.97	273.52	18.18	-39.3	-41.4	14.1	3.80e-06	0	62	0	804257792	50	4541
2026-01-24 01:25:24.98	273.32	18.11	-39.3	-41.4	14.1	7.00e-07	0	62	0	807403520	50	4522
2026-01-24 01:25:25.99	273.13	18.04	-39.3	-41.5	14.0	7.00e-07	0	62	0	810549248	50	4564
2026-01-24 01:25:27.00	272.93	17.97	-39.3	-41.4	14.1	2.20e-06	0	62	0	813694976	50	4517
2026-01-24 01:25:28.01	272.74	17.90	-39.2	-41.4	14.1	1.50e-06	0	62	0	816840704	50	4507
2026-01-24 01:25:29.02	272.55	17.82	-39.3	-41.5	14.0	2.20e-06	0	62	0	819986432	50	4553
2026-01-24 01:25:30.03	272.36	17.75	-39.3	-41.5	13.9	3.00e-06	0	62	0	823132160	50	4577
2026-01-24 01:25:31.04	272.17	17.68	-39.4	-41.6	13.8	4.50e-06	0	62	0	826277888	50	4635
2026-01-24 01:25:32.05	271.98	17.61	-39.5	-41.7	13.7	4.50e-06	0	62	0	829423616	50	4679
2026-01-24 01:25:33.05	271.79	17.54	-39.6	-41.8	13.6	8.30e-06	0	62	0	832569344	50	4748
2026-01-24 01:25:34.06	271.60	17.47	-39.7	-42.0	13.4	9.90e-06	0	62	0	835715072	50	4858
2026-01-24 01:25:35.07	271.42	17.40	-39.8	-42.2	13.2	2.21e-05	0	62	0	838860800	50	4977
2026-01-24 01:25:36.08	271.23	17.33	-39.9	-42.4	13.1	2.51e-05	0	62	0	842006528	50	5056
2026-01-24 01:25:37.09	271.05	17.26	-40.0	-42.5	13.0	3.58e-05	0	62	0	845152256	50	5118
2026-01-24 01:25:38.10	270.86	17.18	-39.9	-42.4	13.1	3.12e-05	0	62	0	848297984	50	5077
2026-01-24 01:25:39.11	270.68	17.11	-39.9	-42.4	13.1	3.05e-05	0	62	0	851443712	50	5059
2026-01-24 01:25:40.12	270.50	17.04	-40.0	-42.5	13.0	2.97e-05	0	62	0	854589440	50	5106
2026-01-24 01:25:41.13	270.32	16.97	-39.8	-42.2	13.3	2.67e-05	0	62	0	857735168	50	4962
2026-01-24 01:25:42.14	270.14	16.90	-39.8	-42.2	13.3	2.28e-05	0	62	0	860880896	50	4941
2026-01-24 01:25:43.15	269.96	16.82	-39.8	-42.1	13.4	1.67e-05	0	62	0	864026624	50	4908
2026-01-24 01:25:44.16	269.78	16.75	-39.6	-41.9	13.6	1.22e-05	0	62	0	867172352	50	4763
2026-01-24 01:25:45.17	269.60	16.68	-39.4	-41.7	13.8	6.80e-06	0	62	0	870318080	50	4664
2026-01-24 01:25:46.18	269.42	16.61	-39.3	-41.4	14.1	2.20e-06	0	62	0	873463808	50	4518
2026-01-24 01:25:47.19	269.25	16.54	-39.1	-41.2	14.2	3.00e-06	0	62	0	876609536	50	4439
2026-01-24 01:25:48.20	269.07	16.46	-39.2	-41.3	14.1	3.00e-06	0	62	0	879755264	50	4491
2026-01-24 01:25:49.21	268.90	16.39	-39.2	-41.3	14.2	7.00e-07	0	62	0	882900992	50	4456
2026-01-24 01:25:50.22	268.72	16.32	-39.2	-41.3	14.1	3.00e-06	0	62	0	886046720	50	4468
2026-01-24 01:25:51.23	268.55	16.25	-39.2	-41.3	14.1	7.00e-07	0	62	0	889192448	50	4492
2026-01-24 01:25:52.24	268.38	16.17	-39.3	-41.4	14.0	5.30e-06	0	62	0	892338176	50	4542
2026-01-24 01:25:53.24	268.21	16.10	-39.3	-41.6	13.8	6.10e-06	0	62	0	895483904	50	4599
2026-01-24 01:25:54.25	268.04	16.03	-39.5	-41.8	13.6	7.60e-06	0	62	0	898629632	50	4716
2026-01-24 01:25:55.26	267.87	15.96	-39.7	-42.0	13.4	9.90e-06	0	62	0	901775360	50	4852
2026-01-24 01:25:56.27	267.70	15.88	-39.7	-42.1	13.3	1.52e-05	0	62	0	904921088	50	4898
2026-01-24 01:25:57.28	267.54	15.81	-39.8	-42.3	13.1	2.44e-05	0	62	0	908066816	50	4991
2026-01-24 01:25:58.29	267.37	15.74	-39.9	-42.3	13.1	3.66e-05	0	62	0	911212544	50	5023
2026-01-24 01:25:59.30	267.20	15.66	-39.9	-42.4	13.1	3.73e-05	0	62	0	914358272	50	5058
2026-01-24 01:26:00.31	267.04	15.59	-40.0	-42.5	13.0	4.27e-05	0	62	0	917504000	50	5122
2026-01-24 01:26:01.32	266.87	15.52	-40.0	-42.5	12.9	5.49e-05	0	62	0	920649728	50	5152
2026-01-24 01:26:02.33	266.71	15.45	-40.0	-42.5	13.0	3.20e-05	0	62	0	923795456	50	5117
2026-01-24 01:26:03.34	266.55	15.37	-40.0	-42.6	12.9	4.65e-05	0	62	0	926941184	50	5162
2026-01-24 01:26:04.35	266.38	15.30	-40.0	-42.4	13.0	3.66e-05	0	62	0	930086912	50	5100
2026-01-24 01:26:05.36	266.22	15.23	-39.9	-42.4	13.1	2.59e-05	0	62	0	933232640	50	5053
2026-01-24 01:26:06.37	266.06	15.15	-39.8	-42.2	13.2	2.67e-05	0	62	0	936378368	50	4962
2026-01-24 01:26:07.38	265.90	15.08	-39.7	-42.0	13.4	1.22e-05	0	62	0	939524096	50	4840
2026-01-24 01:26:08.39	265.74	15.01	-39.6	-41.9	13.5	1.14e-05	0	62	0	942669824	50	4797
2026-01-24 01:26:09.40	265.59	14.93	-39.6	-41.9	13.5	1.44e-05	0	62	0	945815552	50	4809
2026-01-24 01:26:10.40	265.43	14.86	-39.6	-41.9	13.5	1.14e-05	0	62	0	948961280	50	4767
2026-01-24 01:26:11.41	265.27	14.79	-39.7	-42.0	13.4	9.90e-06	0	62	0	952107008	50	4833
2026-01-24 01:26:12.42	265.12	14.72	-39.8	-42.1	13.2	1.98e-05	0	62	0	955252736	50	4918
2026-01-24 01:26:13.43	264.96	14.64	-39.9	-42.3	13.1	3.73e-05	0	62	0	958398464	50	5032
2026-01-24 01:26:14.44	264.81	14.57	-40.0	-42.5	12.9	3.50e-05	0	62	0	961544192	50	5101
2026-01-24 01:26:15.45	264.66	14.50	-40.1	-42.7	12.7	5.56e-05	0	62	0	964689920	50	5227
2026-01-24 01:26:16.46	264.50	14.42	-40.1	-42.7	12.7	7.55e-05	0	62	0	967835648	50	5244
2026-01-24 01:26:17.47	264.35	14.35	-40.1	-42.7	12.7	8.69e-05	0	62	0	970981376	50	5246
2026-01-24 01:26:18.48	264.20	14.28	-40.0	-42.5	12.9	6.56e-05	0	62	0	974127104	50	5158
2026-01-24 01:26:19.49	264.05	14.21	-39.9	-42.3	13.1	3.43e-05	0	62	0	977272832	50	5033
2026-01-24 01:26:20.50	263.90	14.13	-39.6	-42.0	13.5	1.90e-05	0	62	0	980418560	50	4817
2026-01-24 01:26:21.51	263.75	14.06	-39.5	-41.7	13.7	6.10e-06	0	62	0	983564288	50	4679
2026-01-24 01:26:22.52	263.60	13.99	-39.4	-41.7	13.7	1.06e-05	0	62	0	986710016	50	4669
2026-01-24 01:26:23.53	263.46	13.91	-39.5	-41.8	13.7	6.80e-06	0	62	0	989855744	50	4721
2026-01-24 01:26:24.54	263.31	13.84	-39.4	-41.7	13.8	5.30e-06	0	62	0	994050048	50	4659
2026-01-24 01:26:25.55	263.16	13.77	-39.6	-41.9	13.5	9.10e-06	0	62	0	996147200	50	4767
2026-01-24 01:26:26.56	263.02	13.70	-39.6	-42.0	13.4	1.29e-05	0	62	0	999292928	50	4822
2026-01-24 01:26:27.57	262.87	13.62	-39.7	-42.1	13.3	1.29e-05	0	62	0	1002438656	50	4898
2026-01-24 01:26:28.58	262.73	13.55	-39.8	-42.2	13.1	2.74e-05	0	62	0	1005584384	50	4977
2026-01-24 01:26:29.59	262.59	13.48	-39.9	-42.4	12.9	3.96e-05	0	62	0	1008730112	50	5089
2026-01-24 01:26:30.60	262.44	13.41	-40.0	-42.5	12.8	6.86e-05	0	62	0	1012924416	50	5158
2026-01-24 01:26:31.61	262.30	13.33	-40.1	-42.6	12.7	8.01e-05	0	62	0	1016070144	50	5212
2026-01-24 01:26:32.62	262.16	13.26	-40.2	-42.8	12.5	9.46e-05	0	62	0	1018167296	50	5323
2026-01-24 01:26:33.63	262.02	13.19	-40.1	-42.8	12.6	1.04e-04	0	62	0	1021313024	50	5282
2026-01-24 01:26:34.63	261.88	13.12	-40.1	-42.7	12.6	8.54e-05	0	62	0	1024458752	50	5264
2026-01-24 01:26:35.64	261.74	13.04	-40.1	-42.7	12.7	9.76e-05	0	62	0	1028653056	50	5262
2026-01-24 01:26:36.65	261.61	12.97	-40.1	-42.8	12.6	9.61e-05	0	62	0	1031798784	50	5283
2026-01-24 01:26:37.66	261.47	12.90	-40.1	-42.7	12.7	7.32e-05	0	62	0	1034944512	50	5241
2026-01-24 01:26:38.67	261.33	12.83	-40.1	-42.7	12.7	9.46e-05	0	62	0	1038090240	50	5253
2026-01-24 01:26:39.68	261.20	12.75	-40.1	-42.7	12.6	9.15e-05	0	62	0	1041235968	50	5277
2026-01-24 01:26:40.69	261.06	12.68	-40.1	-42.8	12.5	9.61e-05	0	62	0	1044381696	50	5289
2026-01-24 01:26:41.70	260.93	12.61	-40.2	-42.8	12.5	1.03e-04	0	62	0	1047527424	50	5328
2026-01-24 01:26:42.71	260.79	12.54	-40.2	-42.9	12.4	1.30e-04	0	62	0	1050673152	50	5348
2026-01-24 01:26:43.72	260.66	12.47	-40.1	-42.7	12.5	9.61e-05	0	62	0	1053818880	50	5279
2026-01-24 01:26:44.73	260.53	12.39	-40.1	-42.7	12.5	1.14e-04	0	62	0	1056964608	50	5279
2026-01-24 01:26:45.74	260.39	12.32	-40.1	-42.8	12.5	1.27e-04	0	62	0	1060110336	50	5288
2026-01-24 01:26:46.75	260.26	12.25	-40.1	-42.8	12.4	1.24e-04	0	62	0	1063256064	50	5324
2026-01-24 01:26:47.76	260.13	12.18	-40.2	-42.9	12.3	1.80e-04	0	62	0	1066401792	50	5384
2026-01-24 01:26:48.77	260.00	12.11	-40.3	-43.0	12.2	2.09e-04	0	62	0	1069547520	51	5118
2026-01-24 01:26:49.78	259.87	12.04	-40.2	-42.9	12.3	1.87e-04	0	62	0	1072693248	51	5100
2026-01-24 01:26:50.79	259.74	11.97	-40.2	-42.9	12.3	1.81e-04	0	62	0	1075838976	51	5071
2026-01-24 01:26:51.80	259.61	11.89	-40.2	-42.9	12.3	1.75e-04	0	62	0	1078984704	51	5093
2026-01-24 01:26:52.81	259.49	11.82	-40.2	-42.9	12.3	1.65e-04	0	62	0	1082130432	51	5099
2026-01-24 01:26:53.82	259.36	11.75	-40.2	-42.9	12.3	1.73e-04	0	62	0	1085276160	51	5083
2026-01-24 01:26:54.83	259.23	11.68	-40.3	-43.1	12.2	1.77e-04	0	62	0	1088421888	51	5164
2026-01-24 01:26:55.84	259.11	11.61	-40.2	-42.9	12.3	1.69e-04	0	62	0	1091567616	51	5075
2026-01-24 01:26:56.85	258.98	11.54	-40.2	-42.9	12.3	1.92e-04	0	62	0	1094713344	51	5094
2026-01-24 01:26:57.86	258.86	11.47	-40.3	-43.0	12.1	2.23e-04	0	62	0	1097859072	51	5149
2026-01-24 01:26:58.87	258.73	11.40	-40.2	-43.0	12.2	2.37e-04	0	62	0	1101004800	51	5118
2026-01-24 01:26:59.88	258.61	11.32	-40.1	-42.8	12.3	1.76e-04	0	62	0	1104150528	51	5030
2026-01-24 01:27:00.89	258.49	11.25	-40.1	-42.8	12.3	1.85e-04	0	62	0	1107296256	51	5003
2026-01-24 01:27:01.89	258.37	11.18	-40.2	-42.9	12.2	1.80e-04	0	62	0	1110441984	51	5047
2026-01-24 01:27:02.90	258.24	11.11	-40.1	-42.7	12.4	1.68e-04	0	62	0	1113587712	51	4973
2026-01-24 01:27:03.91	258.12	11.04	-40.0	-42.7	12.5	1.28e-04	0	62	0	1116733440	51	4933
2026-01-24 01:27:04.92	258.00	10.97	-40.1	-42.8	12.3	1.84e-04	0	62	0	1119879168	51	5000
2026-01-24 01:27:05.93	257.88	10.90	-40.1	-42.8	12.3	1.61e-04	0	62	0	1123024896	51	5025
2026-01-24 01:27:06.94	257.76	10.83	-40.2	-42.9	12.2	2.23e-04	0	62	0	1126170624	51	5098
2026-01-24 01:27:07.95	257.65	10.76	-40.2	-43.0	12.1	2.53e-04	0	62	0	1129316352	51	5148
2026-01-24 01:27:08.96	257.53	10.69	-40.3	-43.2	12.0	3.44e-04	0	62	0	1132462080	51	5245
2026-01-24 01:27:09.97	257.41	10.62	-40.4	-43.3	11.8	3.58e-04	0	62	0	1135607808	51	5300
2026-01-24 01:27:10.98	257.29	10.55	-40.5	-43.4	11.8	4.80e-04	0	62	0	1138753536	51	5347
2026-01-24 01:27:11.99	257.18	10.48	-40.5	-43.5	11.7	6.00e-04	0	62	0	1141899264	51	5430
2026-01-24 01:27:13.00	257.06	10.41	-40.6	-43.6	11.5	7.55e-04	0	62	0	1145044992	51	5495
2026-01-24 01:27:14.01	256.95	10.34	-40.6	-43.7	11.5	8.09e-04	0	62	0	1148190720	51	5546
2026-01-24 01:27:15.02	256.83	10.27	-40.6	-43.7	11.5	8.80e-04	0	62	0	1151336448	51	5534
2026-01-24 01:27:16.03	256.72	10.20	-40.6	-43.7	11.4	9.64e-04	0	62	0	1154482176	51	5573
2026-01-24 01:27:17.03	256.60	10.13	-40.6	-43.7	11.5	1.02e-03	0	62	0	1157627904	51	5532
2026-01-24 01:27:18.05	256.49	10.06	-40.5	-43.5	11.6	6.41e-04	0	62	0	1160773632	51	5412
2026-01-24 01:27:19.05	256.38	10.00	-40.4	-43.3	11.8	5.60e-04	0	62	0	1163919360	51	5340
2026-01-24 01:27:20.07	256.27	9.93	-40.4	-43.3	11.8	5.06e-04	0	62	0	1167065088	51	5299
2026-01-24 01:27:21.08	256.15	9.86	-40.4	-43.3	11.7	5.17e-04	0	62	0	1170210816	51	5340
2026-01-24 01:27:22.09	256.04	9.79	-40.3	-43.2	11.9	4.36e-04	0	62	0	1173356544	51	5224
2026-01-24 01:27:23.10	255.93	9.72	-40.2	-43.0	12.1	3.00e-04	0	62	0	1176502272	51	5118
2026-01-24 01:27:24.11	255.82	9.65	-40.2	-43.0	12.1	2.46e-04	0	62	0	1179648000	51	5123
2026-01-24 01:27:25.12	255.71	9.58	-40.2	-43.0	12.0	3.02e-04	0	62	0	1182793728	51	5155
2026-01-24 01:27:26.13	255.61	9.51	-40.2	-43.0	12.0	2.97e-04	0	62	0	1185939456	51	5153
2026-01-24 01:27:27.14	255.50	9.44	-40.3	-43.2	11.9	4.13e-04	0	62	0	1189085184	51	5237
2026-01-24 01:27:28.15	255.39	9.38	-40.4	-43.3	11.7	4.65e-04	0	62	0	1192230912	51	5318
2026-01-24 01:27:29.16	255.28	9.31	-40.5	-43.5	11.6	5.99e-04	0	62	0	1195376640	51	5408
2026-01-24 01:27:30.17	255.18	9.24	-40.6	-43.6	11.5	8.39e-04	0	62	0	1198522368	51	5488
2026-01-24 01:27:31.18	255.07	9.17	-40.6	-43.7	11.4	1.04e-03	0	62	0	1201668096	51	5553
2026-01-24 01:27:32.19	254.96	9.10	-40.7	-43.8	11.2	1.26e-03	0	62	0	1204813824	51	5627
2026-01-24 01:27:33.20	254.86	9.03	-40.7	-43.9	11.1	1.69e-03	0	62	0	1207959552	52	5352
2026-01-24 01:27:34.21	254.75	8.97	-40.7	-43.9	11.0	1.88e-03	0	62	0	1211105280	52	5400
2026-01-24 01:27:35.22	254.65	8.90	-40.8	-44.1	10.9	2.09e-03	0	62	0	1214251008	52	5467
2026-01-24 01:27:36.23	254.55	8.83	-40.8	-44.2	10.7	2.51e-03	0	62	0	1217396736	52	5530
2026-01-24 01:27:37.24	254.44	8.76	-40.8	-44.1	10.8	2.61e-03	0	62	0	1220542464	52	5477
2026-01-24 01:27:38.25	254.34	8.70	-40.8	-44.1	10.7	2.80e-03	0	62	0	1223688192	52	5509
2026-01-24 01:27:39.26	254.24	8.63	-40.7	-44.0	10.8	2.66e-03	0	62	0	1226833920	52	5460
2026-01-24 01:27:40.27	254.14	8.56	-40.7	-43.9	10.9	2.16e-03	0	62	0	1229979648	52	5374
2026-01-24 01:27:41.28	254.03	8.49	-40.7	-43.9	10.9	2.03e-03	0	62	0	1233125376	52	5370
2026-01-24 01:27:42.29	253.93	8.43	-40.7	-43.9	10.9	2.12e-03	0	62	0	1236271104	52	5391
2026-01-24 01:27:43.30	253.83	8.36	-40.7	-43.9	10.9	2.32e-03	0	62	0	1239416832	52	5355
2026-01-24 01:27:44.31	253.73	8.29	-40.6	-43.7	11.1	1.64e-03	0	62	0	1242562560	52	5270
2026-01-24 01:27:45.32	253.63	8.23	-40.6	-43.8	11.1	1.57e-03	0	62	0	1245708288	52	5291
2026-01-24 01:27:46.33	253.54	8.16	-40.4	-43.4	11.4	9.94e-04	0	62	0	1248854016	52	5093
2026-01-24 01:27:47.34	253.44	8.09	-40.3	-43.3	11.6	6.94e-04	0	62	0	1251999744	52	4988
2026-01-24 01:27:48.35	253.34	8.02	-40.6	-43.7	11.3	5.89e-04	0	62	0	1255145472	52	5226
2026-01-24 01:27:49.36	253.24	7.96	-44.5	-56.6	3.8	1.49e+00	0	62	104	1256194048	59	15402
2026-01-24 01:27:50.37	253.14	7.89	-44.7	-57.1	3.8	1.49e+00	0	62	104	1256194048	60	15447
2026-01-24 01:27:51.38	253.05	7.83	-44.9	-57.3	3.8	1.49e+00	0	62	104	1256194048	60	15910
2026-01-24 01:27:52.40	252.95	7.76	-45.0	-57.4	3.8	1.49e+00	0	62	104	1256194048	60	16072
2026-01-24 01:27:53.40	252.86	7.69	-45.1	-57.5	3.8	1.49e+00	0	62	104	1256194048	60	16273
2026-01-24 01:27:54.41	252.76	7.63	-45.1	-57.6	3.8	1.49e+00	0	62	104	1256194048	60	16371
2026-01-24 01:27:55.43	252.66	7.56	-45.1	-57.6	3.8	1.49e+00	0	62	104	1256194048	60	16351
2026-01-24 01:27:56.44	252.57	7.49	-45.2	-57.6	3.8	1.49e+00	0	62	104	1256194048	60	16349
2026-01-24 01:27:57.45	252.48	7.43	-45.2	-57.6	3.8	1.49e+00	0	62	104	1256194048	60	16423
2026-01-24 01:27:58.46	252.38	7.36	-45.2	-57.6	3.8	1.49e+00	0	62	104	1256194048	60	16322
2026-01-24 01:27:59.47	252.29	7.30	-45.1	-57.5	3.8	1.49e+00	0	62	104	1256194048	60	16300
2026-01-24 01:28:00.48	252.20	7.23	-45.1	-57.5	3.8	1.49e+00	0	62	104	1256194048	60	16226
2026-01-24 01:28:01.49	252.10	7.17	-45.1	-57.5	3.8	1.49e+00	0	62	104	1256194048	60	16200
2026-01-24 01:28:02.50	252.01	7.10	-45.1	-57.5	3.8	1.49e+00	0	62	104	1256194048	60	16172
2026-01-24 01:28:03.51	251.92	7.04	-45.1	-57.5	3.8	1.49e+00	0	62	104	1256194048	60	16205
2026-01-24 01:28:04.52	251.83	6.97	-45.2	-57.5	3.8	1.49e+00	0	62	104	1256194048	60	16263
2026-01-24 01:28:05.54	251.74	6.91	-45.1	-57.4	3.8	1.49e+00	0	62	104	1256194048	60	16068
2026-01-24 01:28:06.55	251.65	6.84	-45.0	-57.4	3.8	1.49e+00	0	62	104	1256194048	60	16073
2026-01-24 01:28:07.56	251.56	6.78	-45.0	-57.4	3.8	1.49e+00	0	62	104	1256194048	60	16109
2026-01-24 01:28:08.57	251.47	6.71	-45.1	-57.4	3.8	1.49e+00	0	62	104	1256194048	60	16057
2026-01-24 01:28:09.58	251.38	6.65	-45.1	-57.4	3.8	1.49e+00	0	62	104	1256194048	60	16102
2026-01-24 01:28:10.59	251.29	6.58	-45.1	-57.4	3.8	1.49e+00	0	62	104	1256194048	60	16075
2026-01-24 01:28:11.60	251.20	6.52	-45.0	-57.4	3.8	1.49e+00	0	62	104	1256194048	60	16095
2026-01-24 01:28:12.61	251.12	6.45	-45.0	-57.4	3.8	1.49e+00	0	62	104	1256194048	60	16087
2026-01-24 01:28:13.62	251.03	6.39	-45.0	-57.4	3.8	1.49e+00	0	62	104	1256194048	60	15998
2026-01-24 01:28:14.63	250.94	6.33	-45.0	-57.4	3.8	1.49e+00	0	62	104	1256194048	60	16036
2026-01-24 01:28:15.64	250.85	6.26	-45.1	-57.4	3.8	1.49e+00	0	62	104	1256194048	60	16070
2026-01-24 01:28:16.65	250.77	6.20	-45.0	-57.4	3.8	1.49e+00	0	62	104	1256194048	60	16117
2026-01-24 01:28:17.66	250.68	6.13	-45.0	-57.4	3.8	1.49e+00	0	62	104	1256194048	60	16044
2026-01-24 01:28:18.67	250.60	6.07	-45.0	-57.4	3.8	1.49e+00	0	62	104	1256194048	60	16031
2026-01-24 01:28:19.68	250.51	6.01	-45.0	-57.4	3.8	1.49e+00	0	62	104	1256194048	60	15996
2026-01-24 01:28:20.69	250.43	5.94	-45.0	-57.4	3.8	1.49e+00	0	62	104	1256194048	60	16065
2026-01-24 01:28:21.70	250.34	5.88	-45.0	-57.4	3.8	1.49e+00	0	62	104	1256194048	60	16091
2026-01-24 01:28:22.71	250.26	5.82	-45.0	-57.4	3.8	1.49e+00	0	62	104	1256194048	60	16020
2026-01-24 01:28:23.72	250.18	5.75	-45.0	-57.4	3.8	1.49e+00	0	62	104	1256194048	60	16033
2026-01-24 01:28:24.74	250.09	5.69	-45.0	-57.4	3.8	1.49e+00	0	62	104	1256194048	60	16013
2026-01-24 01:28:25.75	250.01	5.63	-45.0	-57.4	3.8	1.49e+00	0	62	104	1256194048	60	16013
2026-01-24 01:28:26.76	249.93	5.56	-45.0	-57.4	3.8	1.49e+00	0	62	104	1256194048	60	15974
2026-01-24 01:28:27.77	249.84	5.50	-45.0	-57.4	3.8	1.49e+00	0	62	104	1256194048	60	16043
2026-01-24 01:28:28.78	249.76	5.44	-45.0	-57.4	3.8	1.49e+00	0	62	104	1256194048	60	16039
2026-01-24 01:28:29.79	249.68	5.37	-45.0	-57.4	3.8	1.49e+00	0	62	104	1256194048	60	15992
2026-01-24 01:28:30.80	249.60	5.31	-45.0	-57.4	3.8	1.49e+00	0	62	104	1256194048	60	16030
2026-01-24 01:28:31.81	249.52	5.25	-45.0	-57.4	3.8	1.49e+00	0	62	104	1256194048	60	16012
2026-01-24 01:28:32.83	249.44	5.19	-45.0	-57.4	3.8	1.49e+00	0	62	104	1256194048	60	16105
2026-01-24 01:28:33.84	249.36	5.12	-45.0	-57.4	3.8	1.49e+00	0	62	104	1256194048	60	16004
2026-01-24 01:28:34.85	249.28	5.06	-45.0	-57.4	3.8	1.49e+00	0	62	104	1256194048	60	15988
2026-01-24 01:28:35.86	249.20	5.00	-45.0	-57.4	3.8	1.49e+00	0	62	104	1256194048	60	15991
2026-01-24 01:28:36.87	249.12	4.94	-45.0	-57.4	3.8	1.49e+00	0	62	104	1256194048	60	16044
2026-01-24 01:28:37.88	249.04	4.88	-45.0	-57.4	3.8	1.49e+00	0	62	104	1256194048	60	15985
2026-01-24 01:28:38.89	248.96	4.81	-45.0	-57.4	3.8	1.49e+00	0	62	104	1256194048	60	15995
2026-01-24 01:28:39.90	248.89	4.75	-45.0	-57.4	3.8	1.49e+00	0	62	104	1256194048	60	16037
2026-01-24 01:28:40.91	248.81	4.69	-45.0	-57.4	3.8	1.49e+00	0	62	104	1256194048	60	16015
2026-01-24 01:28:41.92	248.73	4.63	-45.0	-57.4	3.8	1.49e+00	0	62	104	1256194048	60	15986
2026-01-24 01:28:42.93	248.66	4.57	-45.0	-57.4	3.8	1.49e+00	0	62	104	1256194048	60	15987
2026-01-24 01:28:43.94	248.58	4.51	-45.0	-57.4	3.8	1.49e+00	0	62	104	1256194048	60	15989
2026-01-24 01:28:44.95	248.50	4.45	-45.0	-57.4	3.8	1.49e+00	0	62	104	1256194048	60	15946
2026-01-24 01:28:45.96	248.43	4.38	-45.0	-57.4	3.8	1.49e+00	0	62	104	1256194048	60	16023
2026-01-24 01:28:46.97	248.35	4.32	-45.0	-57.4	3.8	1.49e+00	0	62	104	1256194048	60	15955
2026-01-24 01:28:47.98	248.28	4.26	-45.0	-57.4	3.8	1.49e+00	0	62	104	1256194048	60	16033
2026-01-24 01:28:48.99	248.20	4.20	-45.0	-57.4	3.8	1.49e+00	0	62	104	1256194048	60	16032
2026-01-24 01:28:50.00	248.13	4.14	-45.0	-57.4	3.8	1.49e+00	0	62	104	1256194048	60	16051
2026-01-24 01:28:51.01	248.05	4.08	-45.0	-57.4	3.8	1.49e+00	0	62	104	1256194048	60	16069
2026-01-24 01:28:52.03	247.98	4.02	-45.0	-57.4	3.8	1.49e+00	0	62	104	1256194048	60	16047
2026-01-24 01:28:53.04	247.90	3.96	-45.0	-57.4	3.8	1.49e+00	0	62	104	1256194048	60	16051
2026-01-24 01:28:54.05	247.83	3.90	-45.0	-57.4	3.8	1.49e+00	0	62	104	1256194048	60	15984
2026-01-24 01:28:55.06	247.76	3.84	-45.0	-57.4	3.8	1.49e+00	0	62	104	1256194048	60	16016
2026-01-24 01:28:56.07	247.69	3.78	-45.0	-57.3	3.8	1.49e+00	0	62	104	1256194048	60	15885
2026-01-24 01:28:57.08	247.61	3.72	-45.0	-57.4	3.8	1.49e+00	0	62	104	1256194048	60	16014
2026-01-24 01:28:58.09	247.54	3.66	-45.0	-57.4	3.8	1.49e+00	0	62	104	1256194048	60	16019
2026-01-24 01:28:59.10	247.47	3.60	-45.0	-57.4	3.8	1.49e+00	0	62	104	1256194048	60	15981
2026-01-24 01:29:00.11	247.40	3.54	-45.0	-57.4	3.8	1.49e+00	0	62	104	1256194048	60	15945
2026-01-24 01:29:01.12	247.33	3.48	-45.0	-57.4	3.8	1.49e+00	0	62	104	1256194048	60	16003
2026-01-24 01:29:02.13	247.26	3.42	-45.0	-57.4	3.8	1.49e+00	0	62	104	1256194048	60	16020
2026-01-24 01:29:03.14	247.19	3.36	-45.0	-57.4	3.8	1.49e+00	0	62	104	1256194048	60	15957
2026-01-24 01:29:04.15	247.12	3.30	-45.0	-57.4	3.8	1.49e+00	0	62	104	1256194048	60	15980
2026-01-24 01:29:05.16	247.05	3.24	-45.0	-57.4	3.8	1.49e+00	0	62	104	1256194048	60	15972
2026-01-24 01:29:06.17	246.98	3.18	-45.0	-57.4	3.8	1.49e+00	0	62	104	1256194048	60	15948
2026-01-24 01:29:07.18	246.91	3.12	-45.0	-57.3	3.8	1.49e+00	0	62	104	1256194048	60	15902
2026-01-24 01:29:08.19	246.84	3.06	-45.0	-57.4	3.8	1.49e+00	0	62	104	1256194048	60	15963
2026-01-24 01:29:09.21	246.77	3.00	-45.0	-57.4	3.8	1.49e+00	0	62	104	1256194048	60	15968
2026-01-24 01:29:10.21	246.70	2.94	-45.0	-57.4	3.8	1.49e+00	0	62	104	1256194048	60	15982
2026-01-24 01:29:11.23	246.63	2.88	-45.0	-57.4	3.8	1.49e+00	0	62	104	1256194048	60	16013
2026-01-24 01:29:12.24	246.56	2.82	-45.0	-57.3	3.8	1.49e+00	0	62	104	1256194048	60	15939
2026-01-24 01:29:13.25	246.49	2.77	-45.0	-57.4	3.8	1.49e+00	0	62	104	1256194048	60	15973
2026-01-24 01:29:14.26	246.43	2.71	-45.0	-57.3	3.8	1.49e+00	0	62	104	1256194048	60	15928
2026-01-24 01:29:15.27	246.36	2.65	-45.0	-57.3	3.8	1.49e+00	0	62	104	1256194048	60	15927
2026-01-24 01:29:16.28	246.29	2.59	-45.0	-57.4	3.8	1.49e+00	0	62	104	1256194048	60	15957
2026-01-24 01:29:17.29	246.23	2.53	-45.0	-57.4	3.8	1.49e+00	0	62	104	1256194048	60	16006
2026-01-24 01:29:18.30	246.16	2.47	-45.0	-57.4	3.8	1.49e+00	0	62	104	1256194048	60	15985
2026-01-24 01:29:19.31	246.09	2.42	-45.0	-57.4	3.8	1.49e+00	0	62	104	1256194048	60	15963
2026-01-24 01:29:20.32	246.03	2.36	-45.0	-57.4	3.8	1.49e+00	0	62	104	1256194048	60	15961
2026-01-24 01:29:21.33	245.96	2.30	-45.0	-57.4	3.8	1.49e+00	0	62	104	1256194048	60	15968
2026-01-24 01:29:22.34	245.90	2.24	-45.0	-57.4	3.8	1.49e+00	0	62	104	1256194048	60	16020
2026-01-24 01:29:23.35	245.83	2.18	-45.0	-57.3	3.8	1.49e+00	0	62	104	1256194048	60	15915
2026-01-24 01:29:24.36	245.77	2.13	-45.0	-57.4	3.8	1.49e+00	0	62	104	1256194048	60	15994
2026-01-24 01:29:25.37	245.70	2.07	-45.0	-57.4	3.8	1.49e+00	0	62	104	1256194048	60	15976
2026-01-24 01:29:26.38	245.64	2.01	-45.0	-57.4	3.8	1.49e+00	0	62	104	1256194048	60	15957
2026-01-24 01:29:27.39	245.58	1.95	-45.0	-57.4	3.8	1.49e+00	0	62	104	1256194048	60	15952
