passes_logs/2026/01/24/R2.0S_Moscow/R2.0S_Moscow__20260124_234705_SUOMI_NPP_rec.log

#Pass ID: 20260124_234705_SUOMI NPP
#Satellite: SUOMI NPP
#Configuration: NPP
#almurnet v.1.7.20251203
#Start time: 2026-01-24 23:47:07

#Version: 2.2.20231116
#Station: R2.0S_Moscow
#Location: 37.707566 lon 55.798166 lat
#TLE: 1 37849U 11061A   26024.54906732  .00000185  00000+0  10878-3 0  9990
#TLE: 2 37849  98.7821 326.5159 0002200  47.3746 312.7615 14.19529340738061

#Time	Az	El	Level	Level2	SNR	BER	BlckErr	Temp	State	Recorded	gain1	gain2
2026-01-24 23:47:07.69	16.06	2.14	-42.4	-57.1	3.8	1.49e+00	0	52	0	0	56	19395
2026-01-24 23:47:08.69	16.06	2.21	-42.4	-57.0	3.8	1.49e+00	0	52	104	0	56	19347
2026-01-24 23:47:09.70	16.06	2.27	-42.4	-57.0	3.8	1.49e+00	0	53	104	0	56	19373
2026-01-24 23:47:10.71	16.07	2.34	-42.4	-57.0	3.8	1.49e+00	0	53	104	0	56	19355
2026-01-24 23:47:11.73	16.07	2.40	-42.4	-57.0	3.8	1.49e+00	0	53	104	0	56	19371
2026-01-24 23:47:12.74	16.07	2.47	-42.4	-57.0	3.8	1.49e+00	0	53	104	0	56	19381
2026-01-24 23:47:13.75	16.07	2.53	-42.4	-57.0	3.8	1.49e+00	0	53	104	0	56	19375
2026-01-24 23:47:14.76	16.07	2.60	-42.4	-57.0	3.8	1.49e+00	0	53	104	0	56	19358
2026-01-24 23:47:15.77	16.08	2.67	-42.4	-57.0	3.8	1.49e+00	0	53	104	0	56	19367
2026-01-24 23:47:16.78	16.08	2.73	-42.4	-57.0	3.8	1.49e+00	0	53	104	0	56	19343
2026-01-24 23:47:17.79	16.08	2.80	-42.4	-57.0	3.8	1.49e+00	0	53	104	0	56	19339
2026-01-24 23:47:18.80	16.08	2.86	-42.4	-57.0	3.8	1.49e+00	0	53	104	0	56	19377
2026-01-24 23:47:19.81	16.09	2.93	-42.4	-57.0	3.8	1.49e+00	0	53	104	0	56	19347
2026-01-24 23:47:20.82	16.09	3.00	-42.4	-57.0	3.8	1.49e+00	0	53	104	0	56	19348
2026-01-24 23:47:21.83	16.09	3.06	-42.4	-57.0	3.8	1.49e+00	0	53	104	0	56	19350
2026-01-24 23:47:22.84	16.09	3.13	-42.4	-57.0	3.8	1.49e+00	0	53	104	0	56	19387
2026-01-24 23:47:23.85	16.10	3.20	-42.4	-57.0	3.8	1.49e+00	0	53	104	0	56	19328
2026-01-24 23:47:24.86	16.10	3.27	-42.4	-57.1	3.8	1.49e+00	0	53	104	0	56	19396
2026-01-24 23:47:25.87	16.10	3.33	-42.4	-57.0	3.8	1.49e+00	0	54	104	0	56	19364
2026-01-24 23:47:26.88	16.10	3.40	-42.4	-57.0	3.8	1.49e+00	0	54	104	0	56	19327
2026-01-24 23:47:27.89	16.10	3.47	-42.4	-57.0	3.8	1.49e+00	0	54	104	0	56	19321
2026-01-24 23:47:28.90	16.11	3.54	-42.4	-57.0	3.8	1.49e+00	0	54	104	0	56	19353
2026-01-24 23:47:29.91	16.11	3.60	-42.4	-57.0	3.8	1.49e+00	0	54	104	0	56	19335
2026-01-24 23:47:30.92	16.11	3.67	-42.4	-57.0	3.8	1.49e+00	0	54	104	0	56	19361
2026-01-24 23:47:31.93	16.11	3.74	-42.4	-57.0	3.8	1.49e+00	0	54	104	0	56	19302
2026-01-24 23:47:32.94	16.12	3.81	-42.4	-57.0	3.8	1.49e+00	0	54	104	0	56	19310
2026-01-24 23:47:33.96	16.12	3.88	-42.4	-57.0	3.8	1.49e+00	0	54	104	0	56	19322
2026-01-24 23:47:34.97	16.12	3.95	-42.4	-57.0	3.8	1.49e+00	0	54	104	0	56	19322
2026-01-24 23:47:35.97	16.12	4.02	-42.4	-57.0	3.8	1.49e+00	0	54	104	0	56	19316
2026-01-24 23:47:36.99	16.12	4.09	-42.4	-57.0	3.8	1.49e+00	0	54	104	0	56	19330
2026-01-24 23:47:37.99	16.13	4.16	-42.4	-57.0	3.8	1.49e+00	0	54	104	0	56	19301
2026-01-24 23:47:39.01	16.13	4.23	-42.4	-57.0	3.8	1.49e+00	0	54	104	0	56	19218
2026-01-24 23:47:40.02	16.13	4.30	-42.4	-57.0	3.8	1.49e+00	0	55	104	0	56	19375
2026-01-24 23:47:41.03	16.13	4.37	-42.4	-57.0	3.8	1.49e+00	0	54	104	0	56	19279
2026-01-24 23:47:42.04	16.14	4.44	-42.4	-57.0	3.8	1.49e+00	0	54	104	0	56	19318
2026-01-24 23:47:43.05	16.14	4.51	-42.4	-57.0	3.8	1.49e+00	0	55	104	0	56	19284
2026-01-24 23:47:44.06	16.14	4.58	-42.4	-57.0	3.8	1.49e+00	0	55	104	0	56	19325
2026-01-24 23:47:45.07	16.14	4.65	-42.4	-57.0	3.8	1.49e+00	0	55	104	0	56	19315
2026-01-24 23:47:46.08	16.14	4.72	-42.4	-57.0	3.8	1.49e+00	0	55	104	0	56	19301
2026-01-24 23:47:47.09	16.15	4.79	-42.4	-57.0	3.8	1.49e+00	0	55	104	0	56	19275
2026-01-24 23:47:48.10	16.15	4.86	-42.4	-57.0	3.8	1.49e+00	0	55	104	0	56	19311
2026-01-24 23:47:49.11	16.15	4.93	-42.4	-57.0	3.8	1.49e+00	0	55	104	0	56	19253
2026-01-24 23:47:50.12	16.15	5.01	-42.4	-57.0	3.8	1.49e+00	0	55	104	0	56	19276
2026-01-24 23:47:51.13	16.15	5.08	-42.4	-57.0	3.8	1.49e+00	0	55	104	0	56	19276
2026-01-24 23:47:52.14	16.16	5.15	-42.4	-57.0	3.8	1.49e+00	0	55	104	0	56	19224
2026-01-24 23:47:53.15	16.16	5.22	-42.4	-57.0	3.8	1.49e+00	0	55	104	0	56	19256
2026-01-24 23:47:54.16	16.16	5.29	-42.4	-57.0	3.8	1.49e+00	0	55	104	0	56	19317
2026-01-24 23:47:55.17	16.16	5.37	-42.4	-57.0	3.8	1.49e+00	0	55	104	0	56	19265
2026-01-24 23:47:56.18	16.16	5.44	-42.4	-57.0	3.8	1.49e+00	0	56	104	0	56	19269
2026-01-24 23:47:57.19	16.17	5.51	-42.4	-57.0	3.8	1.49e+00	0	55	104	0	56	19266
2026-01-24 23:47:58.20	16.17	5.59	-42.4	-57.0	3.8	1.49e+00	0	55	104	0	56	19273
2026-01-24 23:47:59.22	16.17	5.66	-42.4	-57.0	3.8	1.49e+00	0	55	104	0	56	19319
2026-01-24 23:48:00.23	16.17	5.73	-42.4	-57.0	3.8	1.49e+00	0	55	104	0	56	19197
2026-01-24 23:48:01.23	16.17	5.81	-42.4	-57.0	3.8	1.49e+00	0	56	104	0	56	19260
2026-01-24 23:48:02.24	16.17	5.88	-42.5	-57.1	3.8	1.49e+00	0	56	104	0	56	19488
2026-01-24 23:48:03.26	16.18	5.96	-42.4	-57.0	3.8	1.49e+00	0	56	104	0	56	19324
2026-01-24 23:48:04.27	16.18	6.03	-42.4	-57.0	3.8	1.49e+00	0	56	104	0	56	19301
2026-01-24 23:48:05.28	16.18	6.11	-42.4	-57.0	3.8	1.49e+00	0	56	104	0	56	19252
2026-01-24 23:48:06.29	16.18	6.18	-42.4	-56.9	3.8	1.49e+00	0	56	104	0	56	19124
2026-01-24 23:48:07.30	16.18	6.26	-42.4	-56.9	3.8	1.49e+00	0	56	104	0	56	19081
2026-01-24 23:48:08.31	16.19	6.33	-42.4	-56.9	3.8	1.49e+00	0	56	104	0	56	19031
2026-01-24 23:48:09.32	16.19	6.41	-42.4	-56.9	3.8	1.49e+00	0	56	104	0	56	19028
2026-01-24 23:48:10.33	16.19	6.48	-42.4	-56.9	3.8	1.49e+00	0	56	104	0	56	19014
2026-01-24 23:48:11.34	16.19	6.56	-42.4	-56.8	3.8	1.49e+00	0	56	104	0	56	18860
2026-01-24 23:48:12.35	16.19	6.64	-42.4	-56.7	3.8	1.49e+00	0	56	104	0	56	18666
2026-01-24 23:48:13.36	16.19	6.71	-42.4	-56.6	3.8	1.49e+00	0	56	104	0	56	18398
2026-01-24 23:48:14.37	16.20	6.79	-42.4	-56.5	3.8	1.49e+00	0	56	104	0	56	18102
2026-01-24 23:48:15.38	16.20	6.87	-42.3	-56.2	3.8	1.49e+00	0	56	104	0	56	17630
2026-01-24 23:48:16.39	16.20	6.94	-42.3	-56.0	3.8	1.49e+00	0	56	104	0	56	17226
2026-01-24 23:48:17.40	16.20	7.02	-42.3	-55.6	3.8	1.49e+00	0	56	104	0	56	16329
2026-01-24 23:48:18.41	16.20	7.10	-42.3	-55.0	3.8	1.49e+00	0	56	104	0	56	15377
2026-01-24 23:48:19.42	16.20	7.18	-42.2	-54.2	3.9	1.48e+00	0	57	104	0	56	13954
2026-01-24 23:48:20.43	16.21	7.26	-42.1	-53.4	4.2	1.40e+00	0	56	0	0	56	12735
2026-01-24 23:48:21.44	16.21	7.33	-42.1	-52.4	4.6	1.24e+00	0	56	0	1048576	56	11308
2026-01-24 23:48:22.45	16.21	7.41	-41.8	-51.1	5.1	8.50e-01	0	57	0	3145728	55	10406
2026-01-24 23:48:23.46	16.21	7.49	-41.6	-50.1	5.7	4.63e-01	0	57	0	4194304	55	9246
2026-01-24 23:48:24.47	16.21	7.57	-41.4	-49.2	6.4	2.91e-01	0	57	0	6291456	54	8769
2026-01-24 23:48:25.48	16.21	7.65	-41.3	-48.4	7.1	1.67e-01	0	57	0	8388608	54	8064
2026-01-24 23:48:26.49	16.22	7.73	-41.1	-47.8	7.7	9.90e-02	0	57	0	10485760	54	7525
2026-01-24 23:48:27.50	16.22	7.81	-41.2	-48.0	7.5	9.35e-02	0	57	0	12582912	54	7673
2026-01-24 23:48:28.51	16.22	7.89	-41.2	-48.2	7.3	1.03e-01	0	57	0	13631488	54	7831
2026-01-24 23:48:29.53	16.22	7.97	-41.4	-49.0	6.6	1.51e-01	0	57	0	15728640	54	8562
2026-01-24 23:48:30.54	16.22	8.05	-41.8	-49.3	6.5	3.00e-01	0	57	0	17825792	54	8954
2026-01-24 23:48:31.55	16.22	8.13	-42.3	-52.0	4.9	2.16e-01	0	57	0	19922944	55	11440
2026-01-24 23:48:32.55	16.22	8.21	-41.9	-50.5	4.6	1.48e+00	0	57	104	19922944	55	9624
2026-01-24 23:48:33.56	16.23	8.29	-42.3	-50.2	6.2	5.20e-01	0	57	0	20971520	55	9334
2026-01-24 23:48:34.57	16.23	8.38	-42.3	-50.6	6.1	5.00e-01	0	57	0	23068672	56	9237
2026-01-24 23:48:35.58	16.23	8.46	-42.2	-53.0	4.0	1.48e+00	0	57	104	23068672	55	12913
2026-01-24 23:48:36.59	16.23	8.54	-42.1	-50.2	6.1	2.98e-01	0	57	0	24117248	55	9296
2026-01-24 23:48:37.60	16.23	8.62	-42.1	-50.0	6.2	2.95e-01	0	57	0	26214400	55	9130
2026-01-24 23:48:38.61	16.23	8.71	-42.1	-49.9	6.4	2.83e-01	0	57	0	27262976	55	8970
2026-01-24 23:48:39.62	16.23	8.79	-42.1	-49.6	6.6	2.23e-01	0	57	0	29360128	55	8713
2026-01-24 23:48:40.63	16.24	8.87	-42.1	-49.2	7.0	2.01e-01	0	57	0	31457280	55	8367
2026-01-24 23:48:41.64	16.24	8.96	-42.2	-48.9	7.6	1.38e-01	0	57	0	33554432	55	8032
2026-01-24 23:48:42.65	16.24	9.04	-42.4	-50.2	6.5	1.62e-01	0	57	0	35651584	55	9297
2026-01-24 23:48:43.66	16.24	9.12	-42.4	-50.7	6.0	2.99e-01	0	57	0	37748736	55	9890
2026-01-24 23:48:44.67	16.24	9.21	-42.5	-49.1	7.7	1.35e+00	0	58	0	37748736	56	7746
2026-01-24 23:48:45.68	16.24	9.29	-42.9	-53.2	4.8	1.53e-01	0	57	0	38797312	56	12456
2026-01-24 23:48:46.69	16.24	9.38	-42.5	-49.8	6.6	1.37e+00	0	57	104	39845888	56	8445
2026-01-24 23:48:47.70	16.24	9.46	-42.2	-48.2	8.5	4.36e-02	0	57	0	40894464	56	6986
2026-01-24 23:48:48.71	16.24	9.55	-42.2	-48.0	8.7	3.36e-02	0	57	0	42991616	56	6879
2026-01-24 23:48:49.72	16.25	9.64	-42.2	-48.1	8.7	3.65e-02	0	58	0	45088768	56	6934
2026-01-24 23:48:50.72	16.25	9.72	-42.2	-48.0	8.8	2.95e-02	0	58	0	47185920	56	6866
2026-01-24 23:48:51.73	16.25	9.81	-42.2	-48.0	8.8	2.80e-02	0	57	0	48234496	56	6856
2026-01-24 23:48:52.74	16.25	9.89	-42.2	-48.0	8.9	2.38e-02	0	58	0	50331648	56	6821
2026-01-24 23:48:53.75	16.25	9.98	-42.1	-47.8	9.1	2.55e-02	0	57	0	52428800	56	6662
2026-01-24 23:48:54.76	16.25	10.07	-42.2	-48.0	8.9	2.52e-02	0	58	0	54525952	56	6818
2026-01-24 23:48:55.77	16.25	10.16	-42.1	-47.7	9.2	1.89e-02	0	58	0	56623104	56	6623
2026-01-24 23:48:56.78	16.25	10.25	-42.2	-47.8	9.1	2.16e-02	0	57	0	57671680	56	6689
2026-01-24 23:48:57.79	16.25	10.33	-42.2	-47.8	9.1	2.25e-02	0	58	0	59768832	56	6676
2026-01-24 23:48:58.80	16.26	10.42	-42.1	-47.8	9.2	2.02e-02	0	58	0	61865984	56	6652
2026-01-24 23:48:59.81	16.26	10.51	-42.1	-47.7	9.3	2.31e-02	0	58	0	63963136	56	6622
2026-01-24 23:49:00.82	16.26	10.60	-42.2	-47.8	9.1	2.06e-02	0	58	0	66060288	56	6694
2026-01-24 23:49:01.83	16.26	10.69	-42.2	-47.8	9.1	2.02e-02	0	58	0	67108864	56	6717
2026-01-24 23:49:02.84	16.26	10.78	-42.1	-47.5	9.5	1.68e-02	0	58	0	69206016	56	6457
2026-01-24 23:49:03.85	16.26	10.87	-42.1	-47.4	9.6	1.44e-02	0	58	0	71303168	56	6392
2026-01-24 23:49:04.86	16.26	10.96	-42.1	-47.4	9.7	1.08e-02	0	58	0	73400320	56	6358
2026-01-24 23:49:05.87	16.26	11.05	-42.1	-47.3	9.8	1.01e-02	0	58	0	75497472	56	6297
2026-01-24 23:49:06.88	16.26	11.14	-42.1	-47.3	9.9	9.24e-03	0	58	0	76546048	56	6296
2026-01-24 23:49:07.88	16.26	11.24	-42.1	-47.4	9.8	9.45e-03	0	58	0	78643200	56	6356
2026-01-24 23:49:08.90	16.26	11.33	-42.2	-47.5	9.7	9.25e-03	0	58	0	80740352	56	6425
2026-01-24 23:49:09.90	16.26	11.42	-42.1	-47.3	9.9	7.76e-03	0	58	0	82837504	56	6319
2026-01-24 23:49:10.91	16.27	11.51	-42.1	-47.2	10.0	8.31e-03	0	58	0	84934656	56	6205
2026-01-24 23:49:11.92	16.27	11.61	-42.1	-47.1	10.1	7.40e-03	0	58	0	85983232	56	6142
2026-01-24 23:49:12.93	16.27	11.70	-42.1	-47.1	10.2	6.18e-03	0	58	0	88080384	56	6157
2026-01-24 23:49:13.94	16.27	11.79	-42.1	-47.0	10.2	5.91e-03	0	58	0	90177536	56	6113
2026-01-24 23:49:14.96	16.27	11.89	-42.1	-47.0	10.3	5.52e-03	0	58	0	92274688	56	6091
2026-01-24 23:49:15.97	16.27	11.98	-42.1	-47.1	10.2	5.09e-03	0	58	0	94371840	56	6134
2026-01-24 23:49:16.97	16.27	12.08	-42.0	-46.9	10.4	4.85e-03	0	58	0	95420416	56	6030
2026-01-24 23:49:17.98	16.27	12.17	-41.9	-46.7	10.5	3.88e-03	0	58	0	97517568	55	6207
2026-01-24 23:49:18.99	16.27	12.27	-41.9	-46.7	10.5	4.10e-03	0	58	0	99614720	55	6203
2026-01-24 23:49:20.00	16.27	12.36	-41.8	-46.6	10.5	4.62e-03	0	58	0	101711872	55	6165
2026-01-24 23:49:21.01	16.27	12.46	-41.9	-46.7	10.4	4.10e-03	0	58	0	103809024	55	6261
2026-01-24 23:49:22.02	16.27	12.56	-41.8	-46.5	10.6	3.73e-03	0	58	0	105906176	55	6131
2026-01-24 23:49:23.03	16.27	12.65	-41.8	-46.5	10.7	3.23e-03	0	58	0	106954752	55	6086
2026-01-24 23:49:24.04	16.27	12.75	-41.8	-46.4	10.7	3.18e-03	0	58	0	109051904	55	6050
2026-01-24 23:49:25.05	16.27	12.85	-41.8	-46.4	10.8	2.83e-03	0	58	0	111149056	55	6019
2026-01-24 23:49:26.05	16.27	12.95	-41.8	-46.4	10.8	2.37e-03	0	58	0	113246208	55	5999
2026-01-24 23:49:27.06	16.27	13.05	-41.8	-46.4	10.7	2.62e-03	0	58	0	115343360	55	6060
2026-01-24 23:49:28.08	16.27	13.15	-41.7	-46.2	11.0	2.41e-03	0	58	0	116391936	55	5922
2026-01-24 23:49:29.09	16.27	13.25	-41.8	-46.4	10.8	2.25e-03	0	58	0	118489088	55	6058
2026-01-24 23:49:30.09	16.27	13.35	-41.7	-46.3	11.0	2.60e-03	0	58	0	120586240	55	5931
2026-01-24 23:49:31.11	16.27	13.45	-41.7	-46.2	11.0	1.70e-03	0	58	0	122683392	55	5903
2026-01-24 23:49:32.11	16.27	13.55	-41.7	-46.1	11.1	1.44e-03	0	58	0	124780544	55	5855
2026-01-24 23:49:33.13	16.27	13.65	-41.7	-46.0	11.3	1.33e-03	0	59	0	125829120	55	5782
2026-01-24 23:49:34.13	16.27	13.75	-41.7	-46.0	11.3	1.07e-03	0	59	0	127926272	55	5755
2026-01-24 23:49:35.15	16.27	13.85	-41.7	-46.1	11.2	1.21e-03	0	59	0	130023424	55	5824
2026-01-24 23:49:36.16	16.28	13.96	-41.7	-46.0	11.4	1.16e-03	0	58	0	132120576	55	5748
2026-01-24 23:49:37.17	16.28	14.06	-41.7	-46.0	11.3	1.20e-03	0	59	0	134217728	55	5786
2026-01-24 23:49:38.17	16.28	14.16	-41.6	-45.8	11.6	7.28e-04	0	59	0	135266304	55	5620
2026-01-24 23:49:39.19	16.28	14.27	-41.6	-45.8	11.6	6.00e-04	0	59	0	137363456	55	5642
2026-01-24 23:49:40.20	16.28	14.37	-41.7	-45.9	11.5	6.41e-04	0	59	0	139460608	55	5709
2026-01-24 23:49:41.21	16.27	14.48	-41.5	-45.6	11.8	4.73e-04	0	59	0	141557760	55	5515
2026-01-24 23:49:42.21	16.27	14.58	-41.5	-45.6	11.8	4.81e-04	0	59	0	143654912	55	5525
2026-01-24 23:49:43.22	16.27	14.69	-41.5	-45.5	12.0	4.65e-04	0	59	0	144703488	55	5428
2026-01-24 23:49:44.23	16.27	14.79	-41.4	-45.4	12.1	3.68e-04	0	59	0	146800640	54	5657
2026-01-24 23:49:45.24	16.27	14.90	-41.5	-45.5	12.0	3.36e-04	0	59	0	148897792	54	5740
2026-01-24 23:49:46.25	16.27	15.01	-41.5	-45.4	12.1	3.53e-04	0	59	0	150994944	54	5693
2026-01-24 23:49:47.26	16.27	15.11	-41.5	-45.5	12.0	2.75e-04	0	59	0	153092096	54	5744
2026-01-24 23:49:48.27	16.27	15.22	-41.5	-45.5	12.0	3.48e-04	0	59	0	154140672	54	5772
2026-01-24 23:49:49.28	16.27	15.33	-41.4	-45.3	12.2	2.84e-04	0	59	0	156237824	54	5611
2026-01-24 23:49:50.29	16.27	15.44	-41.5	-45.4	12.1	2.89e-04	0	59	0	158334976	54	5677
2026-01-24 23:49:51.30	16.27	15.55	-41.5	-45.4	12.1	2.30e-04	0	59	0	160432128	54	5718
2026-01-24 23:49:52.31	16.27	15.66	-41.5	-45.5	12.1	2.09e-04	0	59	0	162529280	54	5733
2026-01-24 23:49:53.32	16.27	15.77	-41.6	-45.6	12.0	2.35e-04	0	59	0	163577856	54	5796
2026-01-24 23:49:54.33	16.27	15.88	-41.6	-45.6	12.0	2.89e-04	0	59	0	165675008	54	5814
2026-01-24 23:49:55.34	16.27	15.99	-41.6	-45.7	11.9	3.17e-04	0	59	0	167772160	54	5858
2026-01-24 23:49:56.35	16.27	16.10	-41.6	-45.6	12.0	3.70e-04	0	59	0	169869312	54	5811
2026-01-24 23:49:57.36	16.27	16.22	-41.5	-45.5	12.1	3.58e-04	0	59	0	171966464	54	5758
2026-01-24 23:49:58.37	16.27	16.33	-41.6	-45.7	11.9	3.70e-04	0	59	0	174063616	54	5879
2026-01-24 23:49:59.38	16.27	16.44	-41.5	-45.4	12.1	3.31e-04	0	59	0	175112192	54	5721
2026-01-24 23:50:00.38	16.27	16.56	-41.6	-45.6	12.0	2.73e-04	0	59	0	177209344	54	5795
2026-01-24 23:50:01.39	16.27	16.67	-41.6	-45.6	12.1	3.08e-04	0	59	0	179306496	54	5808
2026-01-24 23:50:02.40	16.27	16.79	-41.5	-45.4	12.2	2.08e-04	0	59	0	181403648	54	5703
2026-01-24 23:50:03.42	16.27	16.90	-41.5	-45.3	12.4	2.26e-04	0	59	0	183500800	54	5605
2026-01-24 23:50:04.43	16.26	17.02	-41.5	-45.4	12.3	1.94e-04	0	59	0	184549376	54	5673
2026-01-24 23:50:05.44	16.26	17.14	-41.5	-45.3	12.5	1.71e-04	0	59	0	186646528	54	5601
2026-01-24 23:50:06.45	16.26	17.25	-41.5	-45.3	12.4	1.55e-04	0	60	0	188743680	54	5639
2026-01-24 23:50:07.46	16.26	17.37	-41.5	-45.3	12.4	1.48e-04	0	59	0	190840832	54	5593
2026-01-24 23:50:08.47	16.26	17.49	-41.5	-45.4	12.3	1.19e-04	0	59	0	192937984	54	5669
2026-01-24 23:50:09.48	16.26	17.61	-41.4	-45.2	12.5	1.15e-04	0	59	0	193986560	54	5545
2026-01-24 23:50:10.49	16.26	17.73	-41.5	-45.2	12.5	1.10e-04	0	59	0	196083712	54	5546
2026-01-24 23:50:11.50	16.26	17.85	-41.5	-45.3	12.5	9.61e-05	0	59	0	198180864	54	5606
2026-01-24 23:50:12.51	16.26	17.97	-41.4	-45.0	12.7	9.68e-05	0	59	0	200278016	54	5456
2026-01-24 23:50:13.52	16.26	18.09	-41.4	-45.1	12.6	8.62e-05	0	59	0	202375168	54	5517
2026-01-24 23:50:14.53	16.25	18.21	-41.5	-45.3	12.5	1.13e-04	0	59	0	203423744	54	5599
2026-01-24 23:50:15.53	16.25	18.34	-41.4	-45.0	12.7	1.23e-04	0	59	0	205520896	54	5456
2026-01-24 23:50:16.54	16.25	18.46	-41.4	-45.1	12.6	9.61e-05	0	59	0	207618048	54	5504
2026-01-24 23:50:17.55	16.25	18.58	-41.5	-45.3	12.5	1.20e-04	0	59	0	209715200	54	5633
2026-01-24 23:50:18.57	16.25	18.71	-41.5	-45.2	12.6	9.23e-05	0	60	0	211812352	54	5529
2026-01-24 23:50:19.58	16.25	18.83	-41.6	-45.4	12.4	1.09e-04	0	60	0	212860928	54	5708
2026-01-24 23:50:20.59	16.25	18.96	-41.5	-45.3	12.5	1.12e-04	0	60	0	214958080	54	5645
2026-01-24 23:50:21.60	16.24	19.09	-41.6	-45.4	12.4	1.37e-04	0	60	0	217055232	54	5706
2026-01-24 23:50:22.60	16.24	19.21	-41.6	-45.3	12.5	1.31e-04	0	60	0	219152384	54	5641
2026-01-24 23:50:23.61	16.24	19.34	-41.6	-45.4	12.4	1.79e-04	0	59	0	221249536	54	5722
2026-01-24 23:50:24.62	16.24	19.47	-41.7	-45.5	12.3	1.79e-04	0	60	0	222298112	54	5787
2026-01-24 23:50:25.63	16.24	19.60	-41.7	-45.6	12.2	1.49e-04	0	60	0	224395264	54	5811
2026-01-24 23:50:26.64	16.24	19.73	-41.7	-45.5	12.3	1.62e-04	0	60	0	226492416	54	5768
2026-01-24 23:50:27.65	16.23	19.86	-41.6	-45.4	12.4	1.45e-04	0	60	0	228589568	54	5692
2026-01-24 23:50:28.66	16.23	19.99	-41.6	-45.4	12.4	1.30e-04	0	60	0	230686720	54	5706
2026-01-24 23:50:29.67	16.23	20.12	-41.6	-45.3	12.6	1.09e-04	0	60	0	231735296	54	5629
2026-01-24 23:50:30.68	16.23	20.25	-41.6	-45.4	12.4	1.26e-04	0	60	0	233832448	54	5700
2026-01-24 23:50:31.69	16.23	20.39	-41.6	-45.3	12.6	1.22e-04	0	60	0	235929600	54	5642
2026-01-24 23:50:32.70	16.22	20.52	-41.6	-45.4	12.5	9.23e-05	0	60	0	238026752	54	5657
2026-01-24 23:50:33.71	16.22	20.66	-41.5	-45.2	12.7	8.31e-05	0	59	0	240123904	54	5572
2026-01-24 23:50:34.72	16.22	20.79	-41.5	-45.2	12.7	7.47e-05	0	60	0	242221056	54	5574
2026-01-24 23:50:35.73	16.22	20.93	-41.5	-45.2	12.7	9.91e-05	0	60	0	243269632	54	5534
2026-01-24 23:50:36.74	16.22	21.07	-41.6	-45.3	12.6	1.04e-04	0	60	0	245366784	54	5599
2026-01-24 23:50:37.75	16.21	21.20	-41.7	-45.4	12.5	1.03e-04	0	60	0	247463936	54	5707
2026-01-24 23:50:38.76	16.21	21.34	-41.7	-45.4	12.4	1.14e-04	0	60	0	249561088	54	5721
2026-01-24 23:50:39.77	16.21	21.48	-41.6	-45.4	12.6	9.53e-05	0	60	0	251658240	54	5659
2026-01-24 23:50:40.78	16.21	21.62	-41.7	-45.4	12.4	1.30e-04	0	60	0	252706816	54	5713
2026-01-24 23:50:41.79	16.20	21.76	-41.7	-45.6	12.3	1.55e-04	0	60	0	254803968	54	5808
2026-01-24 23:50:42.80	16.20	21.90	-41.7	-45.6	12.4	1.50e-04	0	60	0	256901120	54	5806
2026-01-24 23:50:43.81	16.20	22.05	-41.7	-45.6	12.3	1.65e-04	0	59	0	258998272	54	5810
2026-01-24 23:50:44.82	16.19	22.19	-41.8	-45.6	12.3	2.39e-04	0	60	0	261095424	54	5804
2026-01-24 23:50:45.83	16.19	22.33	-41.8	-45.6	12.4	1.39e-04	0	60	0	262144000	54	5789
2026-01-24 23:50:46.84	16.19	22.48	-41.7	-45.6	12.3	1.30e-04	0	60	0	264241152	54	5793
2026-01-24 23:50:47.84	16.19	22.62	-41.6	-45.3	12.6	1.37e-04	0	60	0	266338304	54	5626
2026-01-24 23:50:48.85	16.18	22.77	-41.6	-45.3	12.6	1.01e-04	0	60	0	268435456	54	5648
2026-01-24 23:50:49.86	16.18	22.92	-41.7	-45.4	12.5	1.23e-04	0	60	0	270532608	54	5684
2026-01-24 23:50:50.87	16.18	23.07	-41.7	-45.4	12.6	9.07e-05	0	60	0	271581184	54	5670
2026-01-24 23:50:51.89	16.17	23.22	-41.6	-45.3	12.7	1.04e-04	0	60	0	273678336	54	5607
2026-01-24 23:50:52.89	16.17	23.36	-41.6	-45.3	12.7	1.02e-04	0	60	0	275775488	54	5628
2026-01-24 23:50:53.90	16.17	23.52	-41.7	-45.4	12.6	8.31e-05	0	60	0	277872640	54	5692
2026-01-24 23:50:54.91	16.16	23.67	-41.8	-45.6	12.4	1.10e-04	0	60	0	279969792	54	5799
2026-01-24 23:50:55.92	16.16	23.82	-41.7	-45.3	12.6	9.61e-05	0	60	0	281018368	54	5654
2026-01-24 23:50:56.93	16.16	23.97	-41.8	-45.7	12.3	1.21e-04	0	60	0	283115520	54	5861
2026-01-24 23:50:57.94	16.15	24.13	-41.8	-45.6	12.3	1.23e-04	0	60	0	285212672	54	5843
2026-01-24 23:50:58.95	16.15	24.28	-41.7	-45.5	12.5	1.94e-04	0	60	0	287309824	54	5749
2026-01-24 23:50:59.96	16.15	24.44	-41.8	-45.6	12.4	1.24e-04	0	60	0	289406976	54	5847
2026-01-24 23:51:00.97	16.14	24.60	-41.8	-45.6	12.4	1.73e-04	0	60	0	290455552	54	5800
2026-01-24 23:51:01.97	16.14	24.75	-41.8	-45.5	12.5	9.46e-05	0	60	0	292552704	54	5723
2026-01-24 23:51:02.98	16.13	24.91	-41.7	-45.4	12.6	1.08e-04	0	60	0	294649856	54	5695
2026-01-24 23:51:03.99	16.13	25.07	-41.6	-45.2	12.8	1.08e-04	0	60	0	296747008	54	5589
2026-01-24 23:51:05.00	16.12	25.23	-41.6	-45.1	12.8	7.09e-05	0	60	0	298844160	54	5525
2026-01-24 23:51:06.02	16.12	25.40	-41.6	-45.2	12.8	6.79e-05	0	60	0	299892736	54	5563
2026-01-24 23:51:07.03	16.12	25.56	-41.5	-45.0	13.0	5.26e-05	0	60	0	301989888	54	5428
2026-01-24 23:51:08.04	16.11	25.72	-41.6	-45.1	12.9	4.11e-05	0	60	0	304087040	54	5500
2026-01-24 23:51:09.05	16.11	25.89	-41.6	-45.2	12.8	8.46e-05	0	60	0	306184192	54	5574
2026-01-24 23:51:10.05	16.10	26.05	-41.7	-45.3	12.7	6.10e-05	0	60	0	308281344	54	5611
2026-01-24 23:51:11.06	16.10	26.22	-41.8	-45.6	12.5	8.46e-05	0	60	0	310378496	54	5794
2026-01-24 23:51:12.07	16.09	26.39	-42.0	-46.0	12.0	2.30e-04	0	60	0	311427072	54	6077
2026-01-24 23:51:13.08	16.09	26.56	-42.0	-45.9	12.1	1.84e-04	0	60	0	313524224	54	6002
2026-01-24 23:51:14.09	16.08	26.73	-42.0	-45.9	12.3	1.60e-04	0	60	0	315621376	54	6031
2026-01-24 23:51:15.10	16.08	26.90	-41.9	-45.7	12.3	2.36e-04	0	60	0	317718528	54	5885
2026-01-24 23:51:16.11	16.07	27.07	-41.9	-45.6	12.4	1.34e-04	0	60	0	319815680	54	5826
2026-01-24 23:51:17.12	16.07	27.25	-41.9	-45.7	12.3	1.64e-04	0	60	0	320864256	54	5892
2026-01-24 23:51:18.13	16.06	27.42	-41.9	-45.6	12.4	1.61e-04	0	60	0	322961408	54	5847
2026-01-24 23:51:19.14	16.06	27.60	-41.9	-45.7	12.3	1.09e-04	0	60	0	325058560	54	5861
2026-01-24 23:51:20.15	16.05	27.78	-42.0	-45.9	12.1	2.49e-04	0	60	0	327155712	54	5996
2026-01-24 23:51:21.16	16.04	27.95	-41.9	-45.7	12.4	1.69e-04	0	60	0	329252864	54	5856
2026-01-24 23:51:22.17	16.04	28.13	-42.0	-46.0	12.1	2.75e-04	0	60	0	330301440	54	6071
2026-01-24 23:51:23.18	16.03	28.31	-42.1	-46.1	11.9	5.22e-04	0	60	0	332398592	54	6172
2026-01-24 23:51:24.19	16.03	28.49	-42.2	-46.3	11.6	4.59e-04	0	60	0	334495744	55	5990
2026-01-24 23:51:25.20	16.02	28.68	-42.5	-47.0	11.0	1.27e-03	0	60	0	336592896	55	6481
2026-01-24 23:51:26.21	16.01	28.86	-42.5	-47.0	11.0	1.95e-03	0	60	0	338690048	55	6464
2026-01-24 23:51:27.22	16.01	29.05	-42.6	-47.2	10.8	2.16e-03	0	60	0	339738624	55	6580
2026-01-24 23:51:28.23	16.00	29.23	-42.9	-47.7	10.4	2.91e-03	0	60	0	341835776	56	6608
2026-01-24 23:51:29.24	16.00	29.42	-42.7	-47.3	10.9	2.34e-03	0	60	0	343932928	56	6278
2026-01-24 23:51:30.25	15.99	29.61	-42.9	-47.7	10.6	2.72e-03	0	60	0	346030080	56	6580
2026-01-24 23:51:31.26	15.98	29.80	-42.8	-47.5	10.7	4.93e-03	0	60	0	348127232	56	6451
2026-01-24 23:51:32.26	15.97	29.99	-42.6	-47.0	11.2	2.01e-03	0	60	0	349175808	56	6094
2026-01-24 23:51:33.27	15.97	30.18	-42.9	-47.7	10.5	2.07e-03	0	60	0	351272960	56	6610
2026-01-24 23:51:34.28	15.96	30.38	-42.8	-47.4	10.8	3.11e-03	0	60	0	353370112	56	6365
2026-01-24 23:51:35.29	15.95	30.57	-42.7	-47.2	11.0	2.49e-03	0	60	0	355467264	56	6204
2026-01-24 23:51:36.30	15.95	30.77	-42.8	-47.6	10.6	3.70e-03	0	60	0	357564416	56	6518
2026-01-24 23:51:37.31	15.94	30.97	-43.0	-47.8	10.4	3.88e-03	0	60	0	358612992	56	6705
2026-01-24 23:51:38.32	15.93	31.17	-42.8	-47.5	10.6	3.81e-03	0	60	0	360710144	56	6488
2026-01-24 23:51:39.33	15.92	31.37	-42.9	-47.7	10.6	4.66e-03	0	60	0	362807296	56	6577
2026-01-24 23:51:40.34	15.91	31.57	-42.9	-47.7	10.5	5.21e-03	0	60	0	364904448	56	6590
2026-01-24 23:51:41.35	15.91	31.78	-42.8	-47.5	10.7	3.17e-03	0	60	0	367001600	56	6467
2026-01-24 23:51:42.36	15.90	31.98	-42.7	-47.2	11.1	1.98e-03	0	60	0	368050176	56	6251
2026-01-24 23:51:43.37	15.89	32.19	-42.7	-47.2	11.1	1.89e-03	0	60	0	370147328	56	6217
2026-01-24 23:51:44.38	15.88	32.40	-42.7	-47.2	11.0	1.80e-03	0	60	0	372244480	56	6217
2026-01-24 23:51:45.39	15.87	32.60	-42.7	-47.2	11.0	1.49e-03	0	60	0	374341632	56	6268
2026-01-24 23:51:46.40	15.86	32.82	-42.7	-47.3	10.9	1.44e-03	0	60	0	376438784	56	6295
2026-01-24 23:51:47.41	15.85	33.03	-42.7	-47.3	11.0	1.78e-03	0	60	0	378535936	56	6282
2026-01-24 23:51:48.42	15.84	33.24	-42.8	-47.3	10.9	2.16e-03	0	60	0	379584512	56	6328
2026-01-24 23:51:49.43	15.83	33.46	-42.6	-47.0	11.2	2.81e-03	0	60	0	381681664	56	6088
2026-01-24 23:51:50.44	15.82	33.68	-42.9	-47.5	10.7	2.34e-03	0	60	0	383778816	56	6494
2026-01-24 23:51:51.45	15.81	33.89	-42.7	-47.2	11.0	1.63e-03	0	61	0	385875968	56	6216
2026-01-24 23:51:52.46	15.80	34.11	-42.6	-46.9	11.4	8.18e-04	0	61	0	387973120	56	6005
2026-01-24 23:51:53.47	15.79	34.34	-42.5	-46.6	11.6	7.77e-04	0	60	0	389021696	56	5834
2026-01-24 23:51:54.48	15.78	34.56	-42.4	-46.5	11.7	6.10e-04	0	60	0	391118848	56	5739
2026-01-24 23:51:55.49	15.77	34.78	-42.3	-46.2	12.1	2.11e-04	0	60	0	393216000	56	5571
2026-01-24 23:51:56.49	15.76	35.01	-42.0	-45.7	12.5	1.25e-04	0	60	0	395313152	56	5267
2026-01-24 23:51:57.50	15.75	35.24	-41.8	-45.4	12.8	7.09e-05	0	60	0	397410304	55	5351
2026-01-24 23:51:58.51	15.74	35.47	-41.7	-45.3	12.9	7.01e-05	0	61	0	398458880	55	5293
2026-01-24 23:51:59.52	15.73	35.70	-41.7	-45.2	13.0	3.35e-05	0	60	0	400556032	55	5262
2026-01-24 23:52:00.53	15.72	35.93	-41.5	-44.9	13.3	2.44e-05	0	61	0	402653184	54	5354
2026-01-24 23:52:01.54	15.70	36.17	-41.4	-44.6	13.6	9.10e-06	0	61	0	404750336	54	5206
2026-01-24 23:52:02.55	15.69	36.40	-41.3	-44.4	13.7	9.10e-06	0	61	0	406847488	54	5091
2026-01-24 23:52:03.56	15.68	36.64	-41.1	-44.1	14.0	2.20e-06	0	61	0	407896064	54	4926
2026-01-24 23:52:04.57	15.67	36.88	-41.0	-44.1	14.1	2.20e-06	0	60	0	409993216	54	4893
2026-01-24 23:52:05.58	15.65	37.12	-41.1	-44.2	14.1	0.00e+00	0	60	0	412090368	54	4927
2026-01-24 23:52:06.59	15.64	37.37	-41.1	-44.1	14.1	1.50e-06	0	61	0	414187520	54	4924
2026-01-24 23:52:07.60	15.63	37.61	-41.0	-44.0	14.1	1.50e-06	0	60	0	416284672	54	4865
2026-01-24 23:52:08.61	15.61	37.86	-41.3	-44.5	13.7	7.00e-07	0	61	0	417333248	54	5127
2026-01-24 23:52:09.62	15.60	38.11	-41.2	-44.3	13.9	6.10e-06	0	61	0	419430400	54	5020
2026-01-24 23:52:10.63	15.58	38.36	-41.0	-44.0	14.2	2.20e-06	0	61	0	421527552	54	4858
2026-01-24 23:52:11.64	15.57	38.61	-41.0	-44.0	14.3	2.20e-06	0	61	0	423624704	53	5105
2026-01-24 23:52:12.65	15.55	38.87	-40.9	-43.7	14.5	0.00e+00	0	61	0	425721856	53	4957
2026-01-24 23:52:13.66	15.54	39.13	-40.7	-43.5	14.7	0.00e+00	0	61	0	426770432	53	4823
2026-01-24 23:52:14.66	15.52	39.38	-40.8	-43.6	14.5	0.00e+00	0	61	0	428867584	53	4916
2026-01-24 23:52:15.68	15.51	39.65	-40.8	-43.7	14.5	0.00e+00	0	61	0	430964736	53	4949
2026-01-24 23:52:16.69	15.49	39.91	-41.0	-44.0	14.2	1.50e-06	0	61	0	433061888	53	5108
2026-01-24 23:52:17.69	15.48	40.17	-41.0	-44.0	14.2	4.50e-06	0	60	0	435159040	53	5108
2026-01-24 23:52:18.70	15.46	40.44	-41.0	-44.1	14.2	2.20e-06	0	61	0	436207616	53	5162
2026-01-24 23:52:19.71	15.44	40.71	-40.9	-43.8	14.4	1.50e-06	0	61	0	438304768	53	5016
2026-01-24 23:52:20.72	15.42	40.98	-40.9	-43.8	14.4	1.50e-06	0	61	0	440401920	53	4998
2026-01-24 23:52:21.73	15.41	41.25	-41.0	-44.0	14.2	7.00e-07	0	60	0	442499072	53	5141
2026-01-24 23:52:22.74	15.39	41.52	-41.1	-44.2	14.0	2.20e-06	0	61	0	444596224	53	5250
2026-01-24 23:52:23.75	15.37	41.80	-41.4	-44.6	13.6	4.50e-06	0	61	0	446693376	53	5516
2026-01-24 23:52:24.76	15.35	42.08	-41.2	-44.3	13.9	4.50e-06	0	61	0	447741952	53	5320
2026-01-24 23:52:25.77	15.33	42.36	-41.4	-44.7	13.5	3.00e-06	0	61	0	449839104	53	5558
2026-01-24 23:52:26.78	15.31	42.65	-41.5	-44.9	13.3	3.00e-06	0	61	0	451936256	53	5684
2026-01-24 23:52:27.79	15.29	42.93	-41.5	-44.9	13.3	1.90e-05	0	61	0	454033408	53	5707
2026-01-24 23:52:28.80	15.27	43.22	-41.6	-44.9	13.4	2.36e-05	0	61	0	456130560	54	5376
2026-01-24 23:52:29.81	15.25	43.51	-41.6	-45.0	13.2	3.05e-05	0	61	0	457179136	54	5448
2026-01-24 23:52:30.82	15.23	43.80	-41.7	-45.2	13.0	2.97e-05	0	61	0	459276288	54	5553
2026-01-24 23:52:31.83	15.21	44.09	-41.7	-45.2	13.0	4.04e-05	0	61	0	461373440	54	5538
2026-01-24 23:52:32.84	15.19	44.39	-41.8	-45.4	12.8	2.89e-05	0	61	0	463470592	54	5696
2026-01-24 23:52:33.85	15.16	44.69	-42.0	-45.8	12.4	1.13e-04	0	61	0	465567744	54	5944
2026-01-24 23:52:34.86	15.14	44.99	-42.1	-46.0	12.3	1.46e-04	0	61	0	466616320	54	6077
2026-01-24 23:52:35.86	15.12	45.29	-42.5	-46.7	11.5	6.31e-04	0	61	0	468713472	55	6240
2026-01-24 23:52:36.87	15.09	45.60	-43.0	-47.7	10.7	2.30e-03	0	61	0	470810624	56	6581
2026-01-24 23:52:37.88	15.07	45.91	-43.0	-47.9	10.5	3.17e-03	0	61	0	472907776	56	6740
2026-01-24 23:52:38.89	15.04	46.22	-42.9	-47.5	10.8	4.58e-03	0	61	0	475004928	56	6462
2026-01-24 23:52:39.90	15.01	46.53	-42.9	-47.5	10.8	3.78e-03	0	61	0	476053504	56	6440
2026-01-24 23:52:40.91	14.99	46.84	-42.7	-47.1	11.3	1.41e-03	0	61	0	478150656	56	6132
2026-01-24 23:52:41.92	14.96	47.16	-42.8	-47.2	11.1	1.63e-03	0	61	0	480247808	56	6217
2026-01-24 23:52:42.93	14.93	47.48	-42.9	-47.4	11.2	1.62e-03	0	61	0	482344960	56	6368
2026-01-24 23:52:43.94	14.90	47.80	-42.9	-47.5	10.7	2.76e-03	0	61	0	484442112	56	6464
2026-01-24 23:52:44.95	14.87	48.13	-43.2	-48.0	10.2	4.15e-03	0	61	0	485490688	57	6484
2026-01-24 23:52:45.96	14.84	48.46	-43.2	-48.2	10.1	9.69e-03	0	61	0	487587840	57	6636
2026-01-24 23:52:46.97	14.81	48.79	-43.0	-47.8	10.5	5.51e-03	0	61	0	489684992	57	6290
2026-01-24 23:52:47.98	14.78	49.12	-42.9	-47.5	10.8	3.04e-03	0	61	0	491782144	57	6101
2026-01-24 23:52:48.99	14.75	49.45	-42.8	-47.2	11.1	2.02e-03	0	61	0	493879296	57	5860
2026-01-24 23:52:49.99	14.72	49.79	-42.6	-46.8	11.5	7.15e-04	0	61	0	494927872	57	5629
2026-01-24 23:52:51.00	14.68	50.13	-42.7	-47.0	11.3	1.14e-03	0	61	0	497025024	57	5769
2026-01-24 23:52:52.01	14.65	50.47	-42.3	-46.2	12.2	2.84e-04	0	61	0	499122176	56	5564
2026-01-24 23:52:53.02	14.61	50.81	-41.7	-45.2	13.1	4.57e-05	0	61	0	501219328	55	5241
2026-01-24 23:52:54.03	14.58	51.16	-41.2	-44.2	14.1	6.10e-06	0	61	0	503316480	54	4962
2026-01-24 23:52:55.04	14.54	51.51	-41.1	-44.1	14.2	1.50e-06	0	61	0	504365056	54	4888
2026-01-24 23:52:56.05	14.50	51.86	-41.1	-44.0	14.3	3.80e-06	0	60	0	506462208	54	4839
2026-01-24 23:52:57.06	14.46	52.22	-41.4	-44.7	13.6	6.80e-06	0	61	0	508559360	54	5226
2026-01-24 23:52:58.07	14.42	52.58	-42.0	-45.7	12.6	2.28e-05	0	61	0	510656512	54	5878
2026-01-24 23:52:59.08	14.38	52.94	-41.8	-45.4	12.8	2.44e-05	0	61	0	512753664	54	5708
2026-01-24 23:53:00.09	14.34	53.30	-41.5	-44.8	13.5	2.51e-05	0	61	0	513802240	54	5304
2026-01-24 23:53:01.10	14.29	53.67	-40.9	-43.7	14.5	1.50e-06	0	61	0	515899392	53	4960
2026-01-24 23:53:02.11	14.25	54.03	-40.5	-43.1	15.2	0.00e+00	0	61	0	517996544	52	4894
2026-01-24 23:53:03.12	14.20	54.41	-40.4	-43.0	15.3	0.00e+00	0	61	0	520093696	52	4842
2026-01-24 23:53:04.13	14.15	54.78	-40.8	-43.6	14.7	0.00e+00	0	61	0	522190848	52	5168
2026-01-24 23:53:05.14	14.10	55.16	-41.0	-43.9	14.4	0.00e+00	0	61	0	523239424	52	5346
2026-01-24 23:53:06.15	14.05	55.53	-41.3	-44.3	13.9	1.50e-06	0	61	0	525336576	53	5320
2026-01-24 23:53:07.16	14.00	55.92	-41.5	-44.7	13.6	9.10e-06	0	61	0	527433728	53	5551
2026-01-24 23:53:08.17	13.95	56.30	-41.6	-44.9	13.4	1.37e-05	0	61	0	529530880	53	5681
2026-01-24 23:53:09.18	13.89	56.69	-41.5	-44.8	13.5	3.80e-06	0	61	0	531628032	53	5602
2026-01-24 23:53:10.19	13.83	57.08	-41.7	-45.1	13.1	2.44e-05	0	61	0	532676608	54	5520
2026-01-24 23:53:11.20	13.78	57.47	-41.7	-45.2	13.2	1.29e-05	0	61	0	534773760	54	5539
2026-01-24 23:53:12.21	13.72	57.86	-41.4	-44.6	13.7	3.80e-06	0	61	0	536870912	54	5178
2026-01-24 23:53:13.22	13.65	58.26	-41.8	-45.3	13.0	1.75e-05	0	61	0	538968064	54	5617
2026-01-24 23:53:14.23	13.59	58.66	-42.3	-46.4	11.9	1.15e-04	0	61	0	541065216	55	6003
2026-01-24 23:53:15.23	13.52	59.06	-42.4	-46.6	11.6	5.59e-04	0	61	0	543162368	55	6198
2026-01-24 23:53:16.24	13.45	59.47	-42.3	-46.3	12.0	8.22e-04	0	61	0	544210944	55	5958
2026-01-24 23:53:17.25	13.38	59.87	-42.4	-46.5	11.7	4.10e-04	0	61	0	546308096	55	6112
2026-01-24 23:53:18.26	13.31	60.29	-42.1	-45.9	12.2	2.37e-04	0	61	0	548405248	55	5700
2026-01-24 23:53:19.27	13.23	60.70	-42.2	-46.1	12.2	1.89e-04	0	61	0	550502400	55	5819
2026-01-24 23:53:20.28	13.16	61.12	-42.1	-45.8	12.6	2.27e-04	0	61	0	552599552	55	5622
2026-01-24 23:53:21.29	13.07	61.53	-41.8	-45.2	13.0	8.39e-05	0	61	0	553648128	55	5275
2026-01-24 23:53:22.30	12.99	61.96	-41.4	-44.6	13.7	1.29e-05	0	61	0	555745280	54	5197
2026-01-24 23:53:23.31	12.90	62.38	-41.1	-44.1	14.2	7.00e-07	0	61	0	557842432	54	4902
2026-01-24 23:53:24.32	12.81	62.81	-40.9	-43.8	14.5	1.50e-06	0	61	0	559939584	53	4985
2026-01-24 23:53:25.33	12.72	63.24	-40.4	-43.0	15.3	7.00e-07	0	61	0	562036736	52	4819
2026-01-24 23:53:26.34	12.62	63.67	-40.2	-42.6	15.7	0.00e+00	0	61	0	563085312	52	4627
2026-01-24 23:53:27.35	12.52	64.10	-40.2	-42.7	15.6	0.00e+00	0	61	0	565182464	52	4654
2026-01-24 23:53:28.36	12.41	64.54	-40.9	-43.7	14.5	0.00e+00	0	61	0	567279616	52	5257
2026-01-24 23:53:29.37	12.30	64.98	-41.1	-44.2	14.1	1.50e-06	0	61	0	569376768	53	5232
2026-01-24 23:53:30.38	12.19	65.42	-41.2	-44.1	14.1	6.10e-06	0	61	0	571473920	53	5214
2026-01-24 23:53:31.39	12.07	65.86	-41.2	-44.2	14.1	4.50e-06	0	61	0	572522496	53	5226
2026-01-24 23:53:32.40	11.95	66.31	-41.7	-45.2	13.1	1.14e-05	0	61	0	574619648	53	5880
2026-01-24 23:53:33.40	11.82	66.76	-42.2	-46.1	12.1	1.66e-04	0	61	0	576716800	55	5813
2026-01-24 23:53:34.42	11.68	67.21	-42.3	-46.4	11.8	6.26e-04	0	61	0	578813952	55	6004
2026-01-24 23:53:35.43	11.54	67.67	-42.4	-46.5	11.7	3.68e-04	0	61	0	580911104	55	6127
2026-01-24 23:53:36.43	11.39	68.12	-42.9	-47.3	11.0	1.77e-03	0	61	0	581959680	56	6341
2026-01-24 23:53:37.45	11.24	68.58	-43.3	-48.5	9.8	6.89e-03	0	61	0	584056832	57	6836
2026-01-24 23:53:38.46	11.07	69.04	-43.5	-48.9	9.5	1.29e-02	0	61	0	586153984	57	7196
2026-01-24 23:53:39.47	10.90	69.50	-43.8	-50.0	8.2	3.65e-02	0	61	0	588251136	58	7671
2026-01-24 23:53:40.48	10.72	69.97	-44.1	-51.2	7.0	1.14e-01	0	61	0	590348288	58	8844
2026-01-24 23:53:41.49	10.53	70.43	-44.0	-50.6	7.7	2.55e-01	0	61	0	591396864	59	7726
2026-01-24 23:53:42.50	10.33	70.90	-43.6	-49.2	9.0	5.52e-02	0	61	0	593494016	59	6590
2026-01-24 23:53:43.51	10.12	71.37	-43.3	-48.3	9.7	1.57e-02	0	61	0	595591168	58	6313
2026-01-24 23:53:44.51	9.91	71.84	-43.5	-49.0	9.1	1.43e-02	0	61	0	597688320	58	6811
2026-01-24 23:53:45.52	9.67	72.32	-43.5	-49.0	9.3	2.18e-02	0	61	0	599785472	58	6839
2026-01-24 23:53:46.53	9.42	72.79	-43.4	-48.9	9.2	1.43e-02	0	61	0	600834048	58	6756
2026-01-24 23:53:47.54	9.16	73.27	-43.1	-48.0	10.2	1.17e-02	0	61	0	602931200	58	6078
2026-01-24 23:53:48.55	8.88	73.75	-42.9	-47.3	10.8	3.83e-03	0	61	0	605028352	57	5991
2026-01-24 23:53:49.56	8.58	74.23	-42.7	-46.9	11.3	1.01e-03	0	61	0	607125504	57	5672
2026-01-24 23:53:50.57	8.26	74.71	-42.9	-47.5	10.8	1.59e-03	0	61	0	609222656	57	6062
2026-01-24 23:53:51.58	7.93	75.20	-43.2	-48.2	10.3	4.73e-03	0	61	0	611319808	57	6575
2026-01-24 23:53:52.59	7.56	75.68	-42.7	-46.8	11.3	1.66e-03	0	61	0	612368384	57	5650
2026-01-24 23:53:53.60	7.17	76.17	-43.1	-48.0	10.2	1.28e-03	0	61	0	614465536	57	6425
2026-01-24 23:53:54.61	6.75	76.66	-44.0	-50.7	7.6	3.96e-02	0	61	0	616562688	58	8321
2026-01-24 23:53:55.62	6.30	77.14	-43.9	-50.5	7.7	1.39e-01	0	61	0	618659840	58	8125
2026-01-24 23:53:56.63	5.81	77.63	-43.9	-50.4	7.6	9.34e-02	0	61	0	620756992	58	8077
2026-01-24 23:53:57.64	5.28	78.12	-44.2	-51.6	6.6	1.10e-01	0	61	0	621805568	58	9258
2026-01-24 23:53:58.65	4.70	78.61	-44.1	-51.1	6.9	1.59e-01	0	61	0	623902720	58	8751
2026-01-24 23:53:59.66	4.06	79.10	-43.9	-50.3	7.8	1.00e-01	0	61	0	625999872	58	7970
2026-01-24 23:54:00.67	3.37	79.59	-44.0	-50.8	7.3	1.87e-01	0	61	0	628097024	58	8428
2026-01-24 23:54:01.68	2.60	80.08	-43.6	-49.4	8.5	5.10e-02	0	61	0	630194176	58	7175
2026-01-24 23:54:02.68	1.77	80.57	-43.2	-48.2	10.0	7.60e-03	0	61	0	631242752	58	6246
2026-01-24 23:54:03.69	0.83	81.05	-43.3	-48.5	9.7	7.83e-03	0	61	0	633339904	58	6467
2026-01-24 23:54:04.70	359.78	81.54	-43.3	-48.6	9.6	1.24e-02	0	61	0	635437056	58	6505
2026-01-24 23:54:05.71	358.60	82.02	-42.4	-46.4	11.8	1.88e-03	0	61	0	637534208	56	5675
2026-01-24 23:54:06.72	357.27	82.50	-41.6	-45.0	13.1	6.79e-05	0	61	0	639631360	55	5117
2026-01-24 23:54:07.73	355.75	82.98	-41.5	-44.9	13.2	2.05e-05	0	61	0	640679936	54	5358
2026-01-24 23:54:08.74	354.01	83.45	-41.3	-44.5	13.8	1.52e-05	0	61	0	642777088	54	5107
2026-01-24 23:54:09.75	352.00	83.92	-41.4	-44.6	13.6	3.00e-06	0	61	0	644874240	54	5168
2026-01-24 23:54:10.76	349.66	84.38	-41.1	-44.2	13.9	3.80e-06	0	61	0	646971392	53	5223
2026-01-24 23:54:11.77	346.90	84.83	-41.1	-44.0	14.1	0.00e+00	0	61	0	649068544	53	5153
2026-01-24 23:54:12.78	343.62	85.26	-41.6	-45.0	12.9	1.14e-05	0	61	0	650117120	53	5779
2026-01-24 23:54:13.79	339.69	85.68	-41.6	-44.9	13.1	3.28e-05	0	61	0	652214272	54	5393
2026-01-24 23:54:14.79	335.01	86.06	-42.1	-45.9	12.2	7.62e-05	0	61	0	654311424	54	5999
2026-01-24 23:54:15.80	329.28	86.42	-43.3	-48.5	9.8	2.13e-03	0	61	0	656408576	57	6835
2026-01-24 23:54:16.81	322.35	86.74	-42.7	-46.9	11.3	8.81e-03	0	61	0	658505728	57	5679
2026-01-24 23:54:17.82	314.08	87.00	-43.0	-47.7	10.4	1.48e-03	0	61	0	659554304	57	6215
2026-01-24 23:54:18.83	304.48	87.19	-44.1	-51.7	6.6	5.85e-02	0	61	0	661651456	58	9290
2026-01-24 23:54:19.84	293.86	87.29	-43.7	-49.9	8.1	2.48e-01	0	61	0	663748608	59	7190
2026-01-24 23:54:20.85	282.85	87.29	-43.4	-48.9	9.2	2.02e-02	0	61	0	665845760	58	6792
2026-01-24 23:54:21.86	272.23	87.19	-43.9	-50.8	7.2	9.88e-02	0	61	0	667942912	58	8424
2026-01-24 23:54:22.87	262.63	87.00	-43.5	-49.0	9.0	8.03e-02	0	61	0	668991488	58	6842
2026-01-24 23:54:23.88	254.35	86.74	-42.8	-47.1	11.0	3.86e-03	0	61	0	671088640	57	5846
2026-01-24 23:54:24.89	247.42	86.43	-42.7	-47.0	11.1	1.26e-03	0	61	0	673185792	57	5785
2026-01-24 23:54:25.90	241.69	86.07	-42.7	-47.0	11.1	1.66e-03	0	61	0	675282944	57	5771
2026-01-24 23:54:26.91	236.96	85.67	-41.6	-45.0	13.1	6.15e-04	0	61	0	677380096	55	5139
2026-01-24 23:54:27.92	233.04	85.26	-40.5	-43.1	14.9	1.50e-06	0	61	0	679477248	53	4641
2026-01-24 23:54:28.93	229.77	84.82	-40.4	-43.1	15.1	0.00e+00	0	61	0	680525824	52	4894
2026-01-24 23:54:29.94	227.01	84.37	-41.3	-44.5	13.6	1.50e-06	0	61	0	682622976	53	5422
2026-01-24 23:54:30.95	224.67	83.91	-41.2	-44.3	13.7	9.10e-06	0	61	0	684720128	53	5335
2026-01-24 23:54:31.96	222.66	83.45	-41.5	-44.9	13.2	1.06e-05	0	61	0	686817280	53	5709
2026-01-24 23:54:32.97	220.92	82.98	-41.5	-44.8	13.1	4.27e-05	0	61	0	688914432	54	5299
2026-01-24 23:54:33.98	219.41	82.50	-41.0	-44.0	14.1	7.60e-06	0	61	0	689963008	54	4847
2026-01-24 23:54:34.99	218.08	82.02	-41.5	-44.7	13.3	6.10e-06	0	61	0	692060160	54	5267
2026-01-24 23:54:36.00	216.90	81.53	-42.0	-45.8	12.2	3.43e-05	0	61	0	694157312	54	5973
2026-01-24 23:54:37.01	215.85	81.04	-42.7	-47.3	10.7	2.34e-03	0	61	0	696254464	55	6692
2026-01-24 23:54:38.02	214.91	80.56	-43.0	-47.9	10.3	4.19e-03	0	61	0	698351616	56	6742
2026-01-24 23:54:39.03	214.07	80.07	-43.1	-47.9	10.2	8.19e-03	0	61	0	699400192	56	6798
2026-01-24 23:54:40.04	213.30	79.58	-42.7	-47.2	11.0	2.60e-03	0	61	0	701497344	56	6219
2026-01-24 23:54:41.05	212.61	79.09	-42.1	-45.7	12.5	2.85e-04	0	61	0	703594496	56	5258
2026-01-24 23:54:42.06	211.98	78.60	-41.7	-45.1	12.9	1.37e-04	0	61	0	705691648	55	5197
2026-01-24 23:54:43.07	211.40	78.11	-41.7	-45.1	13.0	3.28e-05	0	61	0	707788800	55	5189
2026-01-24 23:54:44.08	210.87	77.62	-41.9	-45.5	12.4	1.65e-04	0	61	0	708837376	55	5453
2026-01-24 23:54:45.09	210.38	77.13	-41.6	-45.0	13.0	8.08e-05	0	61	0	710934528	55	5136
2026-01-24 23:54:46.10	209.93	76.64	-41.7	-45.2	12.8	3.58e-05	0	61	0	713031680	55	5255
2026-01-24 23:54:47.10	209.51	76.15	-41.9	-45.5	12.7	1.83e-04	0	61	0	715128832	55	5403
2026-01-24 23:54:48.12	209.12	75.66	-41.6	-44.8	13.3	6.79e-05	0	61	0	717225984	55	5033
2026-01-24 23:54:49.12	208.76	75.18	-41.7	-45.2	13.0	1.75e-05	0	61	0	718274560	54	5529
2026-01-24 23:54:50.13	208.42	74.70	-42.5	-46.9	11.3	7.19e-04	0	61	0	720371712	55	6381
2026-01-24 23:54:51.14	208.10	74.21	-41.8	-45.4	12.6	3.52e-04	0	61	0	722468864	55	5376
2026-01-24 23:54:52.15	207.80	73.73	-41.2	-44.2	13.9	1.83e-05	0	61	0	724566016	54	4950
2026-01-24 23:54:53.16	207.52	73.25	-41.7	-45.0	13.0	1.37e-05	0	61	0	726663168	54	5463
2026-01-24 23:54:54.17	207.26	72.77	-42.0	-45.7	12.4	1.52e-04	0	61	0	727711744	54	5891
2026-01-24 23:54:55.18	207.01	72.30	-42.4	-46.6	11.4	5.29e-04	0	61	0	729808896	55	6148
2026-01-24 23:54:56.19	206.78	71.82	-42.9	-47.5	10.7	2.04e-03	0	61	0	731906048	56	6451
2026-01-24 23:54:57.20	206.55	71.35	-43.5	-49.3	8.9	9.38e-03	0	61	0	734003200	57	7488
2026-01-24 23:54:58.21	206.35	70.88	-43.7	-49.6	8.2	5.92e-02	0	61	0	736100352	58	7296
2026-01-24 23:54:59.22	206.15	70.41	-43.5	-48.9	9.2	2.40e-02	0	61	0	737148928	58	6781
2026-01-24 23:55:00.23	205.96	69.94	-43.7	-49.7	8.4	3.66e-02	0	61	0	739246080	58	7452
2026-01-24 23:55:01.24	205.78	69.47	-43.5	-49.3	8.7	5.20e-02	0	61	0	741343232	58	7061
2026-01-24 23:55:02.25	205.61	69.01	-42.9	-47.4	10.8	6.74e-03	0	61	0	743440384	57	6033
2026-01-24 23:55:03.26	205.44	68.55	-43.4	-48.8	9.3	5.88e-03	0	61	0	745537536	57	7072
2026-01-24 23:55:04.27	205.29	68.09	-43.9	-50.2	7.8	3.73e-02	0	61	0	747634688	58	7896
2026-01-24 23:55:05.28	205.14	67.63	-42.9	-47.4	10.8	2.26e-02	0	61	0	748683264	57	6006
2026-01-24 23:55:06.28	205.00	67.18	-42.6	-46.7	11.5	7.07e-04	0	61	0	750780416	56	5903
2026-01-24 23:55:07.29	204.87	66.73	-42.9	-47.4	10.9	2.31e-03	0	61	0	752877568	56	6368
2026-01-24 23:55:08.30	204.74	66.28	-42.5	-46.4	11.7	2.92e-03	0	61	0	754974720	56	5721
2026-01-24 23:55:09.31	204.61	65.83	-42.3	-46.2	12.0	2.47e-04	0	61	0	757071872	56	5537
2026-01-24 23:55:10.32	204.49	65.39	-42.4	-46.5	11.8	5.61e-04	0	61	0	758120448	56	5733
2026-01-24 23:55:11.33	204.38	64.94	-42.3	-46.2	12.0	2.59e-04	0	61	0	760217600	56	5591
2026-01-24 23:55:12.34	204.27	64.50	-42.4	-46.3	12.0	2.73e-04	0	61	0	762314752	56	5631
2026-01-24 23:55:13.35	204.16	64.07	-42.9	-47.5	10.8	1.23e-03	0	61	0	764411904	56	6461
2026-01-24 23:55:14.36	204.06	63.63	-43.1	-48.2	10.0	8.27e-03	0	61	0	766509056	57	6634
2026-01-24 23:55:15.37	203.96	63.20	-42.5	-46.7	11.5	3.65e-03	0	61	0	767557632	57	5568
2026-01-24 23:55:16.38	203.87	62.77	-41.8	-45.3	12.7	9.68e-05	0	61	0	769654784	55	5328
2026-01-24 23:55:17.39	203.78	62.34	-41.5	-44.9	13.2	2.59e-05	0	61	0	771751936	54	5392
2026-01-24 23:55:18.40	203.69	61.91	-40.7	-43.4	14.7	5.30e-06	0	61	0	773849088	53	4814
2026-01-24 23:55:19.41	203.61	61.49	-40.3	-42.9	15.3	0.00e+00	0	61	0	775946240	52	4775
2026-01-24 23:55:20.42	203.52	61.07	-40.6	-43.3	14.8	0.00e+00	0	61	0	776994816	52	4999
2026-01-24 23:55:21.43	203.45	60.65	-41.3	-44.4	13.7	0.00e+00	0	61	0	779091968	53	5373
2026-01-24 23:55:22.44	203.37	60.24	-40.8	-43.6	14.6	1.50e-06	0	62	0	781189120	53	4880
2026-01-24 23:55:23.45	203.30	59.83	-40.8	-43.6	14.5	7.00e-07	0	61	0	783286272	53	4926
2026-01-24 23:55:24.46	203.22	59.42	-40.4	-43.0	15.2	7.00e-07	0	61	0	785383424	52	4845
2026-01-24 23:55:25.47	203.16	59.01	-40.5	-43.2	15.0	0.00e+00	0	61	0	786432000	52	4929
2026-01-24 23:55:26.48	203.09	58.61	-41.7	-45.1	13.1	7.60e-06	0	61	0	788529152	53	5837
2026-01-24 23:55:27.49	203.02	58.21	-42.7	-47.1	11.0	3.90e-04	0	61	0	790626304	55	6566
2026-01-24 23:55:28.50	202.96	57.81	-42.5	-46.7	11.5	7.02e-04	0	61	0	792723456	55	6223
2026-01-24 23:55:29.51	202.90	57.41	-42.3	-46.2	12.0	1.14e-03	0	61	0	794820608	55	5870
2026-01-24 23:55:30.52	202.84	57.02	-42.3	-46.3	11.8	3.87e-04	0	61	0	795869184	55	5952
2026-01-24 23:55:31.53	202.79	56.63	-42.0	-45.6	12.5	2.49e-04	0	61	0	797966336	55	5478
2026-01-24 23:55:32.54	202.73	56.24	-41.6	-44.9	13.2	3.89e-05	0	61	0	800063488	55	5091
2026-01-24 23:55:33.55	202.68	55.85	-42.0	-45.8	12.5	1.05e-04	0	61	0	802160640	55	5601
2026-01-24 23:55:34.56	202.62	55.47	-42.2	-46.1	12.1	3.21e-04	0	61	0	804257792	55	5811
2026-01-24 23:55:35.57	202.57	55.09	-41.8	-45.4	12.8	1.30e-04	0	61	0	805306368	55	5381
2026-01-24 23:55:36.58	202.52	54.71	-41.2	-44.3	13.9	1.06e-05	0	61	0	807403520	54	5003
2026-01-24 23:55:37.59	202.48	54.34	-40.7	-43.5	14.7	1.50e-06	0	61	0	809500672	53	4822
2026-01-24 23:55:38.60	202.43	53.97	-41.5	-44.8	13.4	3.80e-06	0	61	0	811597824	53	5628
2026-01-24 23:55:39.60	202.38	53.60	-42.0	-45.7	12.5	1.04e-04	0	61	0	813694976	54	5873
2026-01-24 23:55:40.61	202.34	53.24	-41.6	-44.9	13.3	1.42e-04	0	62	0	815792128	54	5360
2026-01-24 23:55:41.62	202.30	52.87	-41.0	-43.9	14.3	1.29e-05	0	61	0	816840704	54	4761
2026-01-24 23:55:42.63	202.26	52.51	-41.5	-44.8	13.3	5.30e-06	0	61	0	818937856	53	5633
2026-01-24 23:55:43.64	202.21	52.15	-42.3	-46.2	11.9	1.35e-04	0	61	0	821035008	55	5922
2026-01-24 23:55:44.65	202.17	51.79	-42.9	-47.5	10.9	1.91e-03	0	61	0	823132160	56	6424
2026-01-24 23:55:45.66	202.14	51.44	-42.6	-46.9	11.4	1.11e-03	0	61	0	825229312	56	6006
2026-01-24 23:55:46.67	202.10	51.09	-43.2	-48.3	9.9	6.52e-03	0	61	0	826277888	57	6710
2026-01-24 23:55:47.68	202.06	50.74	-43.3	-48.8	9.6	1.25e-02	0	61	0	828375040	57	7043
2026-01-24 23:55:48.69	202.03	50.40	-43.5	-49.1	9.1	2.32e-02	0	61	0	830472192	57	7321
2026-01-24 23:55:49.70	201.99	50.05	-42.8	-47.3	11.0	3.24e-03	0	62	0	832569344	57	5985
2026-01-24 23:55:50.71	201.96	49.71	-42.6	-46.8	11.4	1.83e-03	0	61	0	834666496	57	5653
2026-01-24 23:55:51.72	201.92	49.37	-42.7	-47.0	11.3	1.18e-03	0	61	0	835715072	57	5734
2026-01-24 23:55:52.73	201.89	49.04	-43.2	-48.4	9.8	7.32e-03	0	61	0	837812224	57	6758
2026-01-24 23:55:53.74	201.86	48.70	-43.5	-49.2	9.0	2.17e-02	0	61	0	839909376	57	7398
2026-01-24 23:55:54.75	201.83	48.37	-43.9	-50.4	7.6	9.77e-02	0	61	0	842006528	58	8045
2026-01-24 23:55:55.76	201.80	48.05	-43.7	-49.7	8.4	6.55e-02	0	61	0	844103680	58	7452
2026-01-24 23:55:56.76	201.77	47.72	-43.1	-48.1	10.1	2.45e-02	0	61	0	845152256	58	6138
2026-01-24 23:55:57.77	201.74	47.40	-42.5	-46.7	11.5	4.85e-03	0	61	0	847249408	57	5592
2026-01-24 23:55:58.78	201.71	47.08	-42.1	-45.8	12.5	1.75e-04	0	62	0	849346560	56	5306
2026-01-24 23:55:59.79	201.68	46.76	-41.1	-44.2	14.0	4.19e-05	0	61	0	851443712	54	4933
2026-01-24 23:56:00.80	201.66	46.44	-41.3	-44.4	13.8	1.50e-06	0	61	0	853540864	54	5086
2026-01-24 23:56:01.81	201.63	46.13	-41.5	-44.7	13.5	1.06e-05	0	62	0	854589440	54	5259
2026-01-24 23:56:02.82	201.60	45.82	-41.6	-45.0	13.2	1.83e-05	0	61	0	856686592	54	5441
2026-01-24 23:56:03.83	201.58	45.51	-42.1	-45.9	12.3	2.09e-04	0	62	0	858783744	54	5999
2026-01-24 23:56:04.84	201.55	45.20	-43.0	-47.8	10.7	1.28e-03	0	61	0	860880896	56	6694
2026-01-24 23:56:05.85	201.53	44.90	-43.3	-48.7	9.4	1.98e-02	0	61	0	862978048	57	7018
2026-01-24 23:56:06.86	201.51	44.60	-43.3	-48.6	9.4	1.81e-02	0	61	0	864026624	57	6944
2026-01-24 23:56:07.87	201.48	44.30	-43.2	-48.2	9.7	1.53e-02	0	61	0	866123776	57	6610
2026-01-24 23:56:08.88	201.46	44.00	-42.9	-47.6	10.6	4.01e-03	0	61	0	868220928	57	6179
2026-01-24 23:56:09.89	201.44	43.70	-42.7	-47.0	11.3	2.40e-03	0	61	0	870318080	57	5764
2026-01-24 23:56:10.90	201.42	43.41	-42.3	-46.1	12.2	3.29e-04	0	61	0	872415232	56	5474
2026-01-24 23:56:11.91	201.39	43.12	-42.2	-46.0	12.3	2.07e-04	0	61	0	873463808	56	5433
2026-01-24 23:56:12.92	201.37	42.83	-41.5	-44.8	13.3	5.18e-05	0	61	0	875560960	55	5000
2026-01-24 23:56:13.93	201.35	42.55	-41.7	-45.0	13.1	1.90e-05	0	62	0	877658112	54	5453
2026-01-24 23:56:14.95	201.33	42.26	-41.9	-45.5	12.7	3.73e-05	0	61	0	879755264	54	5741
2026-01-24 23:56:15.95	201.31	41.98	-42.5	-46.8	11.3	3.18e-04	0	61	0	881852416	55	6318
2026-01-24 23:56:16.97	201.29	41.70	-43.1	-48.0	10.1	5.32e-03	0	61	0	883949568	56	6877
2026-01-24 23:56:17.98	201.27	41.42	-43.2	-48.2	9.9	8.64e-03	0	61	0	884998144	56	7015
2026-01-24 23:56:18.99	201.26	41.14	-43.2	-48.4	9.7	1.76e-02	0	61	0	887095296	57	6749
2026-01-24 23:56:19.99	201.24	40.87	-42.8	-47.2	10.9	3.40e-03	0	61	0	889192448	57	5879
2026-01-24 23:56:21.00	201.22	40.60	-42.5	-46.7	11.6	8.44e-04	0	61	0	891289600	56	5859
2026-01-24 23:56:22.01	201.20	40.33	-42.5	-46.5	11.7	4.97e-04	0	61	0	893386752	56	5781
2026-01-24 23:56:23.02	201.19	40.06	-42.7	-47.0	11.2	1.34e-03	0	61	0	894435328	56	6125
2026-01-24 23:56:24.03	201.17	39.80	-42.8	-47.3	10.9	2.03e-03	0	61	0	896532480	56	6304
2026-01-24 23:56:25.04	201.15	39.54	-43.0	-47.7	10.5	4.15e-03	0	61	0	898629632	56	6637
2026-01-24 23:56:26.05	201.14	39.27	-43.0	-47.9	10.2	5.24e-03	0	61	0	900726784	56	6797
2026-01-24 23:56:27.06	201.12	39.01	-42.8	-47.3	11.0	3.09e-03	0	62	0	902823936	56	6310
2026-01-24 23:56:28.07	201.11	38.76	-42.9	-47.5	10.8	2.23e-03	0	61	0	903872512	56	6474
2026-01-24 23:56:29.08	201.09	38.50	-43.3	-48.5	9.5	3.32e-03	0	61	0	905969664	57	6877
2026-01-24 23:56:30.08	201.08	38.25	-43.4	-49.0	9.1	1.84e-02	0	61	0	908066816	57	7262
2026-01-24 23:56:31.09	201.06	38.00	-43.4	-49.0	9.0	2.29e-02	0	61	0	910163968	57	7259
2026-01-24 23:56:32.10	201.05	37.75	-43.6	-49.7	8.4	4.25e-02	0	62	0	912261120	57	7839
2026-01-24 23:56:33.11	201.03	37.50	-43.3	-48.8	9.3	2.78e-02	0	61	0	913309696	57	7065
2026-01-24 23:56:34.12	201.02	37.25	-43.2	-48.4	9.9	1.27e-02	0	62	0	915406848	57	6762
2026-01-24 23:56:35.13	201.00	37.01	-43.1	-48.2	9.9	1.25e-02	0	61	0	917504000	57	6635
2026-01-24 23:56:36.14	200.99	36.77	-43.2	-48.6	9.5	9.45e-03	0	61	0	919601152	57	6937
2026-01-24 23:56:37.15	200.98	36.52	-43.2	-48.5	9.6	1.29e-02	0	62	0	921698304	57	6871
2026-01-24 23:56:38.16	200.97	36.29	-43.5	-49.3	8.8	2.09e-02	0	61	0	922746880	57	7501
2026-01-24 23:56:39.17	200.95	36.05	-43.3	-48.7	9.4	3.34e-02	0	61	0	924844032	57	7031
2026-01-24 23:56:40.18	200.94	35.81	-42.8	-47.4	10.7	1.54e-02	0	62	0	926941184	57	6049
2026-01-24 23:56:41.19	200.93	35.58	-42.4	-46.4	11.7	1.71e-03	0	61	0	929038336	56	5713
2026-01-24 23:56:42.20	200.92	35.35	-42.2	-46.1	11.8	3.22e-04	0	62	0	931135488	56	5516
2026-01-24 23:56:43.21	200.90	35.12	-41.9	-45.6	12.4	1.40e-04	0	61	0	932184064	55	5527
2026-01-24 23:56:44.22	200.89	34.89	-42.1	-45.9	12.1	1.62e-04	0	61	0	934281216	55	5696
2026-01-24 23:56:45.23	200.88	34.66	-42.4	-46.6	11.4	5.56e-04	0	61	0	936378368	55	6187
2026-01-24 23:56:46.24	200.87	34.43	-43.0	-47.8	10.3	2.55e-03	0	61	0	938475520	56	6718
2026-01-24 23:56:47.25	200.86	34.21	-43.6	-49.6	8.5	1.94e-02	0	61	0	940572672	57	7725
2026-01-24 23:56:48.26	200.85	33.99	-44.0	-51.3	6.9	1.14e-01	0	61	0	941621248	58	8964
2026-01-24 23:56:49.27	200.84	33.77	-44.2	-52.4	5.9	2.21e-01	0	62	0	943718400	59	9579
2026-01-24 23:56:50.28	200.83	33.55	-44.3	-52.6	5.9	4.15e-01	0	61	0	945815552	59	9761
2026-01-24 23:56:51.29	200.82	33.33	-44.1	-51.9	6.3	3.60e-01	0	61	0	947912704	59	9014
2026-01-24 23:56:52.30	200.81	33.11	-43.9	-50.7	7.4	1.88e-01	0	61	0	950009856	59	7868
2026-01-24 23:56:53.31	200.80	32.90	-43.5	-49.3	8.7	3.62e-02	0	61	0	952107008	58	7119
2026-01-24 23:56:54.32	200.79	32.69	-43.2	-48.5	9.5	1.11e-02	0	61	0	953155584	58	6477
2026-01-24 23:56:55.33	200.78	32.47	-42.7	-47.2	10.9	5.62e-03	0	61	0	955252736	57	5874
2026-01-24 23:56:56.33	200.77	32.27	-42.3	-46.4	11.8	9.28e-04	0	62	0	957349888	56	5663
2026-01-24 23:56:57.34	200.76	32.06	-42.2	-46.1	12.1	3.02e-04	0	62	0	959447040	56	5479
2026-01-24 23:56:58.35	200.75	31.85	-42.1	-45.9	12.3	2.71e-04	0	61	0	961544192	56	5393
2026-01-24 23:56:59.37	200.74	31.64	-42.2	-46.2	12.0	2.35e-04	0	61	0	962592768	56	5551
2026-01-24 23:57:00.38	200.73	31.44	-42.2	-46.1	12.0	3.93e-04	0	61	0	964689920	56	5507
2026-01-24 23:57:01.39	200.72	31.24	-42.4	-46.6	11.6	4.93e-04	0	61	0	966787072	56	5807
2026-01-24 23:57:02.40	200.72	31.03	-42.5	-46.7	11.5	9.41e-04	0	61	0	968884224	56	5869
2026-01-24 23:57:03.41	200.71	30.83	-42.5	-46.8	11.4	1.00e-03	0	61	0	970981376	56	5955
2026-01-24 23:57:04.41	200.70	30.64	-42.5	-46.7	11.4	1.01e-03	0	61	0	972029952	56	5882
2026-01-24 23:57:05.42	200.69	30.44	-42.4	-46.5	11.6	8.06e-04	0	61	0	974127104	56	5755
2026-01-24 23:57:06.43	200.68	30.24	-42.3	-46.3	11.8	4.32e-04	0	61	0	976224256	56	5645
2026-01-24 23:57:07.44	200.68	30.05	-42.2	-46.1	12.0	6.35e-04	0	61	0	978321408	56	5513
2026-01-24 23:57:08.45	200.67	29.85	-42.5	-46.8	11.4	4.79e-04	0	62	0	980418560	56	5950
2026-01-24 23:57:09.46	200.66	29.66	-42.8	-47.5	10.7	1.95e-03	0	62	0	981467136	56	6427
2026-01-24 23:57:10.47	200.65	29.47	-43.0	-47.9	10.2	4.56e-03	0	61	0	983564288	56	6772
2026-01-24 23:57:11.48	200.65	29.28	-43.2	-48.4	9.6	9.92e-03	0	61	0	985661440	56	7204
2026-01-24 23:57:12.49	200.64	29.09	-43.3	-48.7	9.4	1.47e-02	0	62	0	987758592	57	7013
2026-01-24 23:57:13.50	200.63	28.91	-43.3	-48.7	9.2	2.31e-02	0	61	0	989855744	57	7014
2026-01-24 23:57:14.51	200.62	28.72	-43.3	-48.9	9.1	2.21e-02	0	61	0	990904320	57	7194
2026-01-24 23:57:15.52	200.62	28.54	-43.2	-48.5	9.5	1.99e-02	0	61	0	993001472	57	6860
2026-01-24 23:57:16.53	200.61	28.35	-43.0	-47.9	10.1	8.86e-03	0	61	0	995098624	57	6414
2026-01-24 23:57:17.54	200.60	28.17	-42.8	-47.5	10.5	5.45e-03	0	61	0	997195776	57	6121
2026-01-24 23:57:18.55	200.60	27.99	-42.5	-46.8	11.3	2.69e-03	0	62	0	999292928	57	5628
2026-01-24 23:57:19.56	200.59	27.81	-42.3	-46.4	11.7	5.23e-04	0	61	0	1000341504	56	5675
2026-01-24 23:57:20.57	200.58	27.63	-42.0	-45.9	12.1	1.92e-04	0	61	0	1002438656	55	5688
2026-01-24 23:57:21.58	200.58	27.45	-41.6	-45.2	12.8	1.01e-04	0	61	0	1004535808	55	5233
2026-01-24 23:57:22.59	200.57	27.28	-41.4	-44.7	13.3	2.51e-05	0	62	0	1006632960	54	5260
2026-01-24 23:57:23.60	200.57	27.10	-41.2	-44.4	13.7	1.06e-05	0	61	0	1008730112	54	5043
2026-01-24 23:57:24.61	200.56	26.93	-41.2	-44.3	13.7	1.14e-05	0	62	0	1009778688	54	5033
2026-01-24 23:57:25.62	200.55	26.76	-41.1	-44.3	13.7	5.30e-06	0	61	0	1011875840	54	5017
2026-01-24 23:57:26.63	200.55	26.58	-41.2	-44.4	13.7	6.80e-06	0	61	0	1013972992	54	5061
2026-01-24 23:57:27.64	200.54	26.41	-41.1	-44.3	13.7	7.60e-06	0	61	0	1016070144	54	5018
2026-01-24 23:57:28.65	200.54	26.24	-41.2	-44.4	13.6	8.30e-06	0	61	0	1018167296	54	5093
2026-01-24 23:57:29.66	200.53	26.07	-41.4	-44.7	13.3	1.83e-05	0	62	0	1019215872	54	5254
2026-01-24 23:57:30.67	200.53	25.91	-41.5	-44.9	13.1	3.58e-05	0	62	0	1021313024	54	5360
2026-01-24 23:57:31.68	200.52	25.74	-41.8	-45.6	12.3	7.24e-05	0	62	0	1023410176	54	5827
2026-01-24 23:57:32.68	200.52	25.58	-42.1	-46.2	11.7	4.26e-04	0	61	0	1025507328	54	6235
2026-01-24 23:57:33.69	200.51	25.41	-42.3	-46.6	11.3	7.45e-04	0	61	0	1027604480	55	6137
2026-01-24 23:57:34.71	200.51	25.25	-42.4	-47.0	11.0	1.08e-03	0	62	0	1029701632	55	6435
2026-01-24 23:57:35.72	200.50	25.08	-42.5	-47.2	10.6	2.54e-03	0	61	0	1030750208	55	6637
2026-01-24 23:57:36.72	200.50	24.92	-42.3	-46.7	11.2	1.85e-03	0	61	0	1032847360	55	6268
2026-01-24 23:57:37.73	200.49	24.76	-42.3	-46.6	11.3	1.13e-03	0	61	0	1034944512	55	6183
2026-01-24 23:57:38.74	200.49	24.60	-42.0	-46.0	11.9	5.34e-04	0	61	0	1037041664	55	5749
2026-01-24 23:57:39.75	200.48	24.45	-41.5	-44.9	13.0	8.31e-05	0	62	0	1039138816	54	5394
2026-01-24 23:57:40.76	200.48	24.29	-41.4	-44.8	13.1	4.95e-05	0	62	0	1040187392	54	5305
2026-01-24 23:57:41.77	200.47	24.13	-41.3	-44.7	13.3	2.36e-05	0	62	0	1042284544	54	5236
2026-01-24 23:57:42.78	200.47	23.98	-41.1	-44.3	13.6	4.50e-06	0	61	0	1044381696	54	5023
2026-01-24 23:57:43.79	200.47	23.82	-41.1	-44.3	13.6	7.60e-06	0	61	0	1046478848	54	5036
2026-01-24 23:57:44.80	200.46	23.67	-41.1	-44.2	13.7	6.80e-06	0	62	0	1048576000	54	4982
2026-01-24 23:57:45.81	200.46	23.51	-41.0	-44.1	13.9	5.30e-06	0	61	0	1049624576	54	4895
2026-01-24 23:57:46.82	200.45	23.36	-41.2	-44.5	13.4	6.10e-06	0	62	0	1051721728	54	5158
2026-01-24 23:57:47.83	200.45	23.21	-41.3	-44.6	13.3	8.30e-06	0	61	0	1053818880	54	5188
2026-01-24 23:57:48.84	200.45	23.06	-41.3	-44.7	13.3	1.52e-05	0	61	0	1055916032	54	5223
2026-01-24 23:57:49.85	200.44	22.91	-41.5	-45.1	12.8	3.81e-05	0	62	0	1058013184	54	5494
2026-01-24 23:57:50.86	200.44	22.76	-41.5	-45.0	12.9	5.11e-05	0	62	0	1059061760	54	5463
2026-01-24 23:57:51.87	200.43	22.61	-41.5	-45.0	12.9	5.26e-05	0	62	0	1061158912	54	5452
2026-01-24 23:57:52.88	200.43	22.47	-41.6	-45.3	12.6	8.62e-05	0	61	0	1063256064	54	5623
2026-01-24 23:57:53.89	200.43	22.32	-41.7	-45.3	12.6	7.32e-05	0	62	0	1065353216	54	5652
2026-01-24 23:57:54.89	200.42	22.18	-41.6	-45.3	12.7	6.86e-05	0	61	0	1067450368	54	5606
2026-01-24 23:57:55.90	200.42	22.03	-41.6	-45.3	12.6	6.48e-05	0	61	0	1068498944	54	5601
2026-01-24 23:57:56.91	200.42	21.89	-41.5	-45.1	12.8	7.93e-05	0	61	0	1070596096	54	5484
2026-01-24 23:57:57.92	200.41	21.75	-41.5	-45.0	12.9	5.56e-05	0	61	0	1072693248	54	5462
2026-01-24 23:57:58.93	200.41	21.60	-41.7	-45.3	12.6	8.01e-05	0	61	0	1074790400	54	5639
2026-01-24 23:57:59.94	200.41	21.46	-41.6	-45.1	12.7	1.30e-04	0	61	0	1076887552	54	5507
2026-01-24 23:58:00.95	200.40	21.32	-41.7	-45.4	12.4	8.54e-05	0	62	0	1077936128	54	5700
2026-01-24 23:58:01.96	200.40	21.18	-41.7	-45.4	12.5	9.46e-05	0	61	0	1080033280	54	5701
2026-01-24 23:58:02.97	200.40	21.04	-41.6	-45.1	12.7	1.04e-04	0	62	0	1082130432	54	5517
2026-01-24 23:58:03.98	200.39	20.91	-41.8	-45.5	12.4	9.68e-05	0	62	0	1084227584	54	5777
2026-01-24 23:58:04.99	200.39	20.77	-41.8	-45.6	12.3	1.89e-04	0	61	0	1086324736	54	5812
2026-01-24 23:58:06.00	200.39	20.63	-41.9	-45.8	12.1	1.85e-04	0	61	0	1087373312	54	5924
2026-01-24 23:58:07.01	200.38	20.50	-41.9	-45.9	11.9	1.90e-04	0	61	0	1089470464	54	6060
2026-01-24 23:58:08.02	200.38	20.36	-41.8	-45.6	12.2	2.82e-04	0	61	0	1091567616	54	5844
2026-01-24 23:58:09.03	200.38	20.23	-41.8	-45.7	12.1	2.42e-04	0	62	0	1093664768	54	5905
2026-01-24 23:58:10.04	200.38	20.09	-41.8	-45.7	12.2	1.91e-04	0	61	0	1095761920	54	5866
2026-01-24 23:58:11.05	200.37	19.96	-41.8	-45.7	12.2	2.37e-04	0	61	0	1097859072	54	5875
2026-01-24 23:58:12.05	200.37	19.83	-41.9	-45.9	12.0	2.82e-04	0	61	0	1098907648	54	6029
2026-01-24 23:58:13.07	200.37	19.70	-41.9	-45.9	12.0	3.77e-04	0	61	0	1101004800	54	6014
2026-01-24 23:58:14.08	200.37	19.57	-42.0	-46.0	11.8	4.24e-04	0	61	0	1103101952	54	6108
2026-01-24 23:58:15.09	200.36	19.44	-42.0	-46.0	11.8	4.29e-04	0	61	0	1105199104	54	6112
2026-01-24 23:58:16.09	200.36	19.31	-42.0	-46.1	11.7	5.19e-04	0	61	0	1107296256	54	6145
2026-01-24 23:58:17.10	200.36	19.18	-42.0	-46.2	11.6	5.96e-04	0	61	0	1108344832	54	6261
2026-01-24 23:58:18.11	200.36	19.05	-42.2	-46.6	11.2	1.26e-03	0	62	0	1110441984	55	6160
2026-01-24 23:58:19.12	200.35	18.92	-42.4	-47.0	10.8	2.38e-03	0	61	0	1112539136	55	6434
2026-01-24 23:58:20.13	200.35	18.80	-42.4	-47.1	10.7	2.37e-03	0	61	0	1114636288	55	6499
2026-01-24 23:58:21.14	200.35	18.67	-42.6	-47.6	10.1	5.19e-03	0	62	0	1115684864	55	6936
2026-01-24 23:58:22.15	200.35	18.54	-42.6	-47.6	10.0	7.61e-03	0	61	0	1117782016	55	6958
2026-01-24 23:58:23.16	200.34	18.42	-42.7	-47.8	9.9	6.68e-03	0	61	0	1119879168	55	7055
2026-01-24 23:58:24.17	200.34	18.29	-43.1	-48.6	9.2	1.80e-02	0	61	0	1121976320	56	7344
2026-01-24 23:58:25.18	200.34	18.17	-43.0	-48.4	9.4	1.95e-02	0	61	0	1124073472	56	7154
2026-01-24 23:58:26.19	200.34	18.05	-43.1	-48.7	9.1	1.88e-02	0	61	0	1126170624	56	7415
2026-01-24 23:58:27.20	200.34	17.93	-43.2	-49.2	8.6	3.06e-02	0	62	0	1127219200	57	7425
2026-01-24 23:58:28.21	200.33	17.80	-43.2	-49.0	8.8	3.04e-02	0	61	0	1129316352	57	7249
2026-01-24 23:58:29.22	200.33	17.68	-43.3	-49.2	8.6	3.62e-02	0	61	0	1131413504	57	7413
2026-01-24 23:58:30.23	200.33	17.56	-43.2	-49.2	8.6	4.47e-02	0	62	0	1133510656	57	7383
2026-01-24 23:58:31.24	200.33	17.44	-43.2	-49.1	8.7	3.78e-02	0	62	0	1135607808	57	7333
2026-01-24 23:58:32.25	200.33	17.32	-43.3	-49.3	8.5	3.61e-02	0	62	0	1136656384	57	7505
2026-01-24 23:58:33.26	200.32	17.20	-43.1	-48.6	9.2	3.52e-02	0	61	0	1138753536	57	6952
2026-01-24 23:58:34.27	200.32	17.09	-43.1	-48.8	9.0	2.35e-02	0	61	0	1140850688	57	7049
2026-01-24 23:58:35.28	200.32	16.97	-43.1	-48.6	9.2	2.27e-02	0	61	0	1142947840	57	6948
2026-01-24 23:58:36.29	200.32	16.85	-43.0	-48.5	9.3	1.80e-02	0	61	0	1145044992	57	6805
2026-01-24 23:58:37.30	200.32	16.73	-42.9	-48.1	9.8	1.14e-02	0	61	0	1146093568	57	6518
2026-01-24 23:58:38.30	200.32	16.62	-42.8	-47.9	9.9	9.29e-03	0	61	0	1148190720	57	6389
2026-01-24 23:58:39.31	200.31	16.50	-42.8	-48.0	9.8	6.60e-03	0	61	0	1150287872	57	6445
2026-01-24 23:58:40.32	200.31	16.39	-42.7	-47.5	10.3	5.99e-03	0	61	0	1152385024	57	6129
2026-01-24 23:58:41.33	200.31	16.27	-42.6	-47.5	10.4	4.99e-03	0	61	0	1154482176	57	6064
2026-01-24 23:58:42.34	200.31	16.16	-42.5	-47.3	10.6	3.88e-03	0	61	0	1155530752	57	5924
2026-01-24 23:58:43.35	200.31	16.05	-42.5	-47.1	10.6	3.60e-03	0	62	0	1157627904	56	6202
2026-01-24 23:58:44.36	200.31	15.93	-42.4	-47.1	10.8	2.89e-03	0	61	0	1159725056	56	6142
2026-01-24 23:58:45.37	200.31	15.82	-42.4	-46.8	11.0	2.55e-03	0	62	0	1161822208	56	5990
2026-01-24 23:58:46.38	200.30	15.71	-42.4	-46.9	11.0	2.09e-03	0	61	0	1163919360	56	6032
2026-01-24 23:58:47.39	200.30	15.60	-42.4	-46.9	10.9	2.13e-03	0	62	0	1164967936	56	6013
2026-01-24 23:58:48.40	200.30	15.49	-42.4	-46.9	10.9	1.86e-03	0	62	0	1167065088	56	6002
2026-01-24 23:58:49.41	200.30	15.38	-42.4	-47.1	10.7	2.65e-03	0	61	0	1169162240	56	6165
