passes_logs/2026/01/24/R2.0S_Moscow/R2.0S_Moscow__20260124_141720_FENGYUN_3E_rec.log

#Pass ID: 20260124_141720_FENGYUN 3E
#Satellite: FENGYUN 3E
#Configuration: FENGYUN 3E
#almurnet v.1.7.20251203
#Start time: 2026-01-24 14:17:20

#Version: 2.2.20231116
#Station: R2.0S_Moscow
#Location: 37.707566 lon 55.798166 lat
#TLE: 1 49008U 21062A   26024.23699167 -.00000179  00000+0 -63840-4 0  9992
#TLE: 2 49008  98.7493  29.2570 0002404 119.1229 241.0188 14.19886095236155

#Time	Az	El	Level	Level2	SNR	BER	BlckErr	Temp	State	Recorded	gain1	gain2
2026-01-24 14:17:20.72	163.11	2.03	-44.4	-55.4	3.8	8.46e-01	0	52	0	0	59	12713
2026-01-24 14:17:21.72	163.12	2.09	-44.4	-55.4	3.8	8.46e-01	0	52	104	0	59	12677
2026-01-24 14:17:22.74	163.13	2.16	-44.4	-55.4	3.8	8.46e-01	0	52	104	0	59	12692
2026-01-24 14:17:23.75	163.13	2.22	-44.4	-55.4	3.8	8.47e-01	0	52	104	0	59	12698
2026-01-24 14:17:24.76	163.14	2.29	-44.4	-55.4	3.8	8.47e-01	0	52	104	0	59	12733
2026-01-24 14:17:25.77	163.14	2.35	-44.4	-55.4	3.8	8.46e-01	0	52	104	0	59	12721
2026-01-24 14:17:26.78	163.15	2.42	-44.4	-55.4	3.8	8.45e-01	0	52	104	0	59	12745
2026-01-24 14:17:27.79	163.16	2.49	-44.4	-55.4	3.8	8.46e-01	0	53	104	0	59	12718
2026-01-24 14:17:28.80	163.16	2.55	-44.4	-55.4	3.8	8.47e-01	0	52	104	0	59	12690
2026-01-24 14:17:29.81	163.17	2.62	-44.4	-55.4	3.8	8.46e-01	0	53	104	0	59	12691
2026-01-24 14:17:30.83	163.18	2.69	-44.4	-55.4	3.8	8.45e-01	0	52	104	0	59	12693
2026-01-24 14:17:31.83	163.18	2.75	-44.4	-55.4	3.8	8.46e-01	0	53	104	0	59	12708
2026-01-24 14:17:32.85	163.19	2.82	-44.4	-55.3	3.8	8.46e-01	0	53	104	0	59	12657
2026-01-24 14:17:33.86	163.20	2.89	-44.4	-55.3	3.8	8.46e-01	0	53	104	0	59	12645
2026-01-24 14:17:34.87	163.20	2.95	-44.4	-55.3	3.8	8.46e-01	0	53	104	0	59	12602
2026-01-24 14:17:35.88	163.21	3.02	-44.4	-55.3	3.8	8.46e-01	0	53	104	0	59	12608
2026-01-24 14:17:36.89	163.22	3.09	-44.4	-55.3	3.8	8.45e-01	0	53	104	0	59	12598
2026-01-24 14:17:37.90	163.22	3.15	-44.4	-55.3	3.8	8.47e-01	0	53	104	0	59	12587
2026-01-24 14:17:38.91	163.23	3.22	-44.3	-55.2	3.8	8.47e-01	0	53	104	0	59	12484
2026-01-24 14:17:39.92	163.24	3.29	-44.3	-55.2	3.8	8.46e-01	0	53	104	0	59	12501
2026-01-24 14:17:40.93	163.24	3.36	-44.3	-55.2	3.8	8.46e-01	0	54	104	0	59	12474
2026-01-24 14:17:41.94	163.25	3.43	-44.3	-55.2	3.8	8.46e-01	0	53	104	0	59	12388
2026-01-24 14:17:42.95	163.26	3.50	-44.3	-55.0	3.8	8.46e-01	0	53	104	0	59	12161
2026-01-24 14:17:43.96	163.26	3.56	-44.3	-54.8	3.8	8.45e-01	0	54	104	0	59	11843
2026-01-24 14:17:44.97	163.27	3.63	-44.2	-54.6	3.8	8.45e-01	0	54	104	0	59	11671
2026-01-24 14:17:45.98	163.28	3.70	-44.3	-54.6	3.8	8.47e-01	0	54	104	0	59	11617
2026-01-24 14:17:46.99	163.28	3.77	-44.2	-54.4	3.8	8.46e-01	0	54	104	0	59	11369
2026-01-24 14:17:48.00	163.29	3.84	-44.2	-54.4	3.8	8.46e-01	0	54	104	0	59	11415
2026-01-24 14:17:49.01	163.30	3.91	-44.2	-54.5	3.8	8.46e-01	0	54	104	0	59	11490
2026-01-24 14:17:50.02	163.30	3.98	-44.3	-54.7	3.8	8.45e-01	0	54	104	0	59	11684
2026-01-24 14:17:51.04	163.31	4.05	-44.3	-54.9	3.8	8.45e-01	0	54	104	0	58	12719
2026-01-24 14:17:52.04	163.32	4.12	-44.3	-55.0	3.8	8.46e-01	0	54	104	0	58	12888
2026-01-24 14:17:53.05	163.32	4.19	-44.3	-55.0	3.8	8.45e-01	0	54	104	0	58	12905
2026-01-24 14:17:54.06	163.33	4.26	-44.3	-54.9	3.8	8.46e-01	0	54	104	0	58	12727
2026-01-24 14:17:55.07	163.34	4.33	-44.3	-54.9	3.8	8.46e-01	0	54	104	0	58	12724
2026-01-24 14:17:56.08	163.35	4.40	-44.2	-54.9	3.8	8.46e-01	0	54	104	0	58	12764
2026-01-24 14:17:57.09	163.35	4.47	-44.3	-55.1	3.8	8.47e-01	0	54	104	0	58	12964
2026-01-24 14:17:58.10	163.36	4.54	-44.3	-55.1	3.8	8.45e-01	0	54	104	0	58	13007
2026-01-24 14:17:59.11	163.37	4.61	-44.1	-55.1	3.8	8.46e-01	0	54	104	0	58	13024
2026-01-24 14:18:00.12	163.37	4.69	-44.2	-55.0	3.8	8.45e-01	0	55	104	0	58	12885
2026-01-24 14:18:01.13	163.38	4.76	-44.1	-55.0	3.8	8.45e-01	0	55	104	0	57	13617
2026-01-24 14:18:02.14	163.39	4.83	-44.2	-54.8	3.8	8.45e-01	0	55	104	0	57	13396
2026-01-24 14:18:03.15	163.39	4.90	-44.1	-54.8	3.8	8.46e-01	0	55	104	0	57	13363
2026-01-24 14:18:04.16	163.40	4.97	-44.1	-54.6	3.8	8.45e-01	0	55	104	0	57	13089
2026-01-24 14:18:05.18	163.41	5.05	-44.1	-54.5	3.8	8.46e-01	0	55	104	0	57	12854
2026-01-24 14:18:06.19	163.42	5.12	-44.1	-54.3	3.8	8.44e-01	0	55	104	0	57	12615
2026-01-24 14:18:07.20	163.42	5.19	-44.0	-54.1	3.8	8.46e-01	0	55	104	0	57	12306
2026-01-24 14:18:08.21	163.43	5.27	-44.0	-53.8	3.8	8.45e-01	0	55	104	0	57	11830
2026-01-24 14:18:09.22	163.44	5.34	-43.9	-53.5	3.8	8.45e-01	0	55	104	0	57	11469
2026-01-24 14:18:10.23	163.45	5.41	-43.9	-53.1	3.8	8.46e-01	0	55	104	0	57	11013
2026-01-24 14:18:11.24	163.45	5.49	-43.9	-52.9	3.8	8.44e-01	0	55	104	0	57	10665
2026-01-24 14:18:12.25	163.46	5.56	-43.8	-52.3	4.0	8.42e-01	0	55	104	0	57	10022
2026-01-24 14:18:13.26	163.47	5.63	-43.8	-51.6	4.2	8.39e-01	0	55	0	0	57	9278
2026-01-24 14:18:14.27	163.47	5.71	-43.7	-51.3	4.3	8.33e-01	0	55	0	0	57	8921
2026-01-24 14:18:15.28	163.48	5.78	-43.6	-50.7	4.5	8.20e-01	0	56	0	0	57	8339
2026-01-24 14:18:16.29	163.49	5.86	-43.5	-50.5	4.6	8.17e-01	0	56	0	0	57	8132
2026-01-24 14:18:17.30	163.50	5.93	-43.4	-50.2	4.7	8.01e-01	0	56	0	0	57	7888
2026-01-24 14:18:18.31	163.50	6.01	-43.3	-49.9	4.9	7.88e-01	0	56	0	0	57	7592
2026-01-24 14:18:19.33	163.51	6.08	-43.3	-49.8	5.0	7.64e-01	0	56	0	0	57	7480
2026-01-24 14:18:20.34	163.52	6.16	-43.1	-49.4	5.2	7.61e-01	0	56	0	0	57	7163
2026-01-24 14:18:21.35	163.53	6.24	-43.1	-49.6	5.1	7.65e-01	0	56	0	0	57	7318
2026-01-24 14:18:22.36	163.53	6.31	-43.0	-49.3	5.2	7.50e-01	0	56	0	0	57	7080
2026-01-24 14:18:23.37	163.54	6.39	-43.2	-49.8	5.0	7.60e-01	0	56	0	0	57	7462
2026-01-24 14:18:24.38	163.55	6.46	-43.2	-50.1	4.8	7.85e-01	0	56	0	0	57	7763
2026-01-24 14:18:25.39	163.56	6.54	-43.2	-50.0	4.9	7.80e-01	0	56	0	0	57	7633
2026-01-24 14:18:26.40	163.57	6.62	-43.4	-50.8	4.5	8.20e-01	0	56	0	0	57	8460
2026-01-24 14:18:27.41	163.57	6.70	-43.5	-51.2	4.3	8.29e-01	0	56	0	0	56	9380
2026-01-24 14:18:28.42	163.58	6.77	-43.5	-51.5	4.3	8.34e-01	0	56	0	0	56	9609
2026-01-24 14:18:29.43	163.59	6.85	-43.7	-52.1	4.1	8.40e-01	0	56	0	0	56	10405
2026-01-24 14:18:30.44	163.60	6.93	-43.6	-52.1	4.1	8.41e-01	0	56	0	0	56	10365
2026-01-24 14:18:31.45	163.60	7.01	-43.6	-51.6	4.2	8.38e-01	0	57	0	0	56	9785
2026-01-24 14:18:32.46	163.61	7.08	-43.4	-50.9	4.5	8.25e-01	0	56	0	0	56	8983
2026-01-24 14:18:33.47	163.62	7.16	-43.0	-49.4	5.2	7.73e-01	0	56	0	0	56	7576
2026-01-24 14:18:34.48	163.63	7.24	-42.8	-48.3	6.0	4.41e-01	0	56	0	1048576	56	6652
2026-01-24 14:18:35.49	163.64	7.32	-42.1	-46.7	7.2	1.81e-01	0	57	0	8388608	55	5891
2026-01-24 14:18:36.50	163.64	7.40	-41.6	-45.5	8.3	7.81e-02	0	57	0	15728640	54	5449
2026-01-24 14:18:37.51	163.65	7.48	-41.1	-44.8	9.0	2.35e-02	0	57	0	23068672	53	5303
2026-01-24 14:18:38.52	163.66	7.56	-40.5	-43.8	10.2	7.65e-03	0	57	0	30408704	51	5280
2026-01-24 14:18:39.53	163.67	7.64	-40.1	-43.0	10.9	1.82e-03	0	57	0	37748736	51	4868
2026-01-24 14:18:40.54	163.68	7.72	-39.5	-42.3	11.8	7.52e-04	0	57	0	45088768	50	4706
2026-01-24 14:18:41.56	163.68	7.80	-39.1	-41.7	12.3	2.13e-04	0	57	0	52428800	49	4673
2026-01-24 14:18:42.57	163.69	7.88	-38.9	-41.4	12.6	8.69e-05	0	57	0	59768832	48	4772
2026-01-24 14:18:43.58	163.70	7.96	-38.3	-40.7	13.2	1.83e-05	0	57	0	67108864	47	4660
2026-01-24 14:18:44.59	163.71	8.05	-38.2	-40.6	13.3	1.48e-05	0	57	0	74448896	47	4599
2026-01-24 14:18:45.60	163.72	8.13	-38.3	-40.7	13.2	1.02e-05	0	57	0	81788928	47	4674
2026-01-24 14:18:46.61	163.73	8.21	-40.4	-43.5	10.7	1.69e-04	0	57	0	88080384	50	5445
2026-01-24 14:18:47.62	163.73	8.29	-38.0	-40.2	13.7	2.37e-02	0	57	0	95420416	47	4436
2026-01-24 14:18:48.63	163.74	8.37	-41.3	-45.0	9.3	6.79e-04	0	57	0	103809024	52	5724
2026-01-24 14:18:49.64	163.75	8.46	-38.7	-41.2	12.8	8.86e-03	0	57	0	110100480	47	4965
2026-01-24 14:18:50.65	163.76	8.54	-39.3	-41.9	12.1	8.91e-03	0	57	0	117440512	49	4780
2026-01-24 14:18:51.66	163.77	8.62	-38.2	-40.5	13.4	1.83e-05	0	57	0	124780544	47	4565
2026-01-24 14:18:52.66	163.78	8.71	-38.0	-40.2	13.7	8.00e-06	0	57	0	132120576	46	4702
2026-01-24 14:18:53.67	163.78	8.79	-38.2	-40.6	13.4	9.10e-06	0	57	0	139460608	46	4875
2026-01-24 14:18:54.68	163.79	8.87	-38.1	-40.4	13.5	9.10e-06	0	57	0	146800640	46	4801
2026-01-24 14:18:55.69	163.80	8.96	-38.0	-40.3	13.7	8.00e-06	0	57	0	154140672	46	4712
2026-01-24 14:18:56.70	163.81	9.04	-38.0	-40.3	13.7	3.40e-06	0	57	0	161480704	46	4727
2026-01-24 14:18:57.71	163.82	9.13	-38.0	-40.3	13.7	1.10e-06	0	57	0	168820736	46	4712
2026-01-24 14:18:58.73	163.83	9.21	-37.7	-40.0	14.0	1.10e-06	0	58	0	176160768	46	4546
2026-01-24 14:18:59.74	163.84	9.30	-37.8	-40.0	14.0	3.40e-06	0	57	0	183500800	46	4569
2026-01-24 14:19:00.75	163.84	9.39	-37.7	-39.9	14.1	3.40e-06	0	58	0	190840832	46	4518
2026-01-24 14:19:01.76	163.85	9.47	-37.9	-40.1	13.8	4.50e-06	0	58	0	198180864	46	4649
2026-01-24 14:19:02.77	163.86	9.56	-37.9	-40.2	13.8	4.50e-06	0	58	0	205520896	46	4668
2026-01-24 14:19:03.78	163.87	9.64	-37.7	-39.8	14.2	1.10e-06	0	57	0	212860928	46	4473
2026-01-24 14:19:04.78	163.88	9.73	-37.6	-39.7	14.3	0.00e+00	0	58	0	220200960	46	4435
2026-01-24 14:19:05.80	163.89	9.82	-37.6	-39.7	14.3	0.00e+00	0	58	0	227540992	46	4431
2026-01-24 14:19:06.81	163.90	9.91	-37.6	-39.7	14.3	2.20e-06	0	58	0	234881024	45	4683
2026-01-24 14:19:07.82	163.91	10.00	-37.5	-39.6	14.4	1.10e-06	0	58	0	241172480	45	4631
2026-01-24 14:19:08.82	163.92	10.08	-37.5	-39.6	14.5	0.00e+00	0	58	0	249561088	45	4614
2026-01-24 14:19:09.83	163.92	10.17	-37.5	-39.6	14.5	0.00e+00	0	58	0	256901120	45	4617
2026-01-24 14:19:10.84	163.93	10.26	-37.5	-39.7	14.4	0.00e+00	0	58	0	263192576	45	4652
2026-01-24 14:19:11.85	163.94	10.35	-37.4	-39.5	14.6	0.00e+00	0	58	0	270532608	45	4595
2026-01-24 14:19:12.86	163.95	10.44	-37.4	-39.5	14.7	0.00e+00	0	58	0	277872640	45	4547
2026-01-24 14:19:13.87	163.96	10.53	-37.3	-39.4	14.7	0.00e+00	0	58	0	285212672	45	4538
2026-01-24 14:19:14.88	163.97	10.62	-37.4	-39.5	14.6	0.00e+00	0	58	0	292552704	45	4556
2026-01-24 14:19:15.89	163.98	10.71	-37.4	-39.5	14.6	0.00e+00	0	58	0	299892736	45	4569
2026-01-24 14:19:16.90	163.99	10.80	-37.2	-39.2	14.9	0.00e+00	0	58	0	307232768	45	4413
2026-01-24 14:19:17.91	164.00	10.89	-37.2	-39.3	14.8	0.00e+00	0	58	0	314572800	45	4467
2026-01-24 14:19:18.92	164.01	10.98	-37.2	-39.3	14.8	0.00e+00	0	58	0	321912832	45	4468
2026-01-24 14:19:19.93	164.02	11.08	-37.2	-39.3	14.9	0.00e+00	0	58	0	329252864	45	4475
2026-01-24 14:19:20.94	164.03	11.17	-37.2	-39.2	15.0	0.00e+00	0	58	0	336592896	45	4417
2026-01-24 14:19:21.95	164.04	11.26	-37.1	-39.2	15.0	0.00e+00	0	58	0	343932928	45	4415
2026-01-24 14:19:22.96	164.05	11.35	-37.1	-39.1	15.0	0.00e+00	0	58	0	351272960	45	4388
2026-01-24 14:19:23.97	164.06	11.45	-37.1	-39.2	15.0	0.00e+00	0	58	0	358612992	45	4402
2026-01-24 14:19:24.98	164.07	11.54	-37.1	-39.2	15.0	0.00e+00	0	58	0	365953024	45	4408
2026-01-24 14:19:25.99	164.08	11.64	-37.1	-39.1	15.1	0.00e+00	0	58	0	373293056	45	4377
2026-01-24 14:19:27.00	164.09	11.73	-37.1	-39.1	15.1	0.00e+00	0	58	0	380633088	45	4373
2026-01-24 14:19:28.01	164.10	11.82	-37.1	-39.2	15.1	0.00e+00	0	58	0	386924544	45	4393
2026-01-24 14:19:29.02	164.11	11.92	-37.1	-39.1	15.1	0.00e+00	0	58	0	394264576	45	4381
2026-01-24 14:19:30.03	164.12	12.02	-37.1	-39.2	15.1	0.00e+00	0	58	0	402653184	45	4392
2026-01-24 14:19:31.04	164.13	12.11	-37.0	-39.0	15.2	1.10e-06	0	58	0	408944640	45	4337
2026-01-24 14:19:32.05	164.14	12.21	-37.1	-39.1	15.1	0.00e+00	0	58	0	416284672	45	4386
2026-01-24 14:19:33.06	164.15	12.30	-37.0	-39.0	15.3	0.00e+00	0	58	0	423624704	44	4553
2026-01-24 14:19:34.07	164.16	12.40	-37.1	-39.1	15.2	0.00e+00	0	59	0	430964736	44	4601
2026-01-24 14:19:35.08	164.17	12.50	-36.9	-38.9	15.4	0.00e+00	0	58	0	438304768	44	4515
2026-01-24 14:19:36.09	164.18	12.60	-36.9	-38.9	15.4	0.00e+00	0	58	0	445644800	44	4504
2026-01-24 14:19:37.10	164.19	12.70	-37.0	-39.0	15.3	0.00e+00	0	58	0	452984832	44	4575
2026-01-24 14:19:38.11	164.20	12.79	-36.9	-38.8	15.5	0.00e+00	0	58	0	460324864	44	4491
2026-01-24 14:19:39.12	164.21	12.89	-36.9	-38.8	15.5	0.00e+00	0	59	0	467664896	44	4467
2026-01-24 14:19:40.13	164.22	12.99	-36.9	-38.8	15.5	0.00e+00	0	59	0	475004928	44	4493
2026-01-24 14:19:41.14	164.23	13.09	-36.9	-38.9	15.5	0.00e+00	0	59	0	482344960	44	4515
2026-01-24 14:19:42.15	164.24	13.19	-36.8	-38.7	15.6	0.00e+00	0	59	0	489684992	44	4437
2026-01-24 14:19:43.16	164.25	13.29	-36.8	-38.8	15.6	0.00e+00	0	58	0	497025024	44	4453
2026-01-24 14:19:44.17	164.26	13.39	-36.8	-38.7	15.6	0.00e+00	0	59	0	504365056	44	4430
2026-01-24 14:19:45.18	164.27	13.50	-36.7	-38.6	15.7	0.00e+00	0	59	0	511705088	44	4371
2026-01-24 14:19:46.19	164.28	13.60	-36.8	-38.8	15.6	0.00e+00	0	59	0	519045120	44	4452
2026-01-24 14:19:47.20	164.29	13.70	-36.8	-38.7	15.6	0.00e+00	0	59	0	526385152	44	4438
2026-01-24 14:19:48.21	164.30	13.80	-36.7	-38.6	15.7	0.00e+00	0	59	0	533725184	44	4369
2026-01-24 14:19:49.22	164.31	13.91	-36.5	-38.4	16.0	0.00e+00	0	59	0	540016640	44	4262
2026-01-24 14:19:50.23	164.32	14.01	-36.7	-38.6	15.8	0.00e+00	0	59	0	548405248	44	4357
2026-01-24 14:19:51.24	164.33	14.11	-36.7	-38.6	15.8	0.00e+00	0	59	0	555745280	44	4364
2026-01-24 14:19:52.25	164.35	14.22	-36.6	-38.5	15.9	0.00e+00	0	59	0	562036736	44	4320
2026-01-24 14:19:53.26	164.36	14.32	-36.7	-38.6	15.8	0.00e+00	0	59	0	569376768	44	4372
2026-01-24 14:19:54.27	164.37	14.43	-36.7	-38.5	15.8	0.00e+00	0	59	0	576716800	44	4340
2026-01-24 14:19:55.28	164.38	14.54	-36.6	-38.5	15.9	0.00e+00	0	59	0	584056832	44	4296
2026-01-24 14:19:56.29	164.39	14.64	-36.7	-38.6	15.8	0.00e+00	0	59	0	591396864	44	4358
2026-01-24 14:19:57.30	164.40	14.75	-36.5	-38.4	15.8	0.00e+00	0	59	0	598736896	43	4517
2026-01-24 14:19:58.31	164.41	14.86	-36.3	-38.1	16.1	0.00e+00	0	59	0	606076928	43	4376
2026-01-24 14:19:59.32	164.43	14.96	-36.2	-38.1	16.2	0.00e+00	0	59	0	613416960	43	4342
2026-01-24 14:20:00.33	164.44	15.07	-36.3	-38.2	16.1	0.00e+00	0	59	0	620756992	43	4411
2026-01-24 14:20:01.34	164.45	15.18	-36.4	-38.3	16.0	0.00e+00	0	59	0	628097024	43	4483
2026-01-24 14:20:02.35	164.46	15.29	-36.2	-38.0	16.3	0.00e+00	0	59	0	635437056	43	4312
2026-01-24 14:20:03.36	164.47	15.40	-36.3	-38.2	16.1	0.00e+00	0	59	0	642777088	43	4398
2026-01-24 14:20:04.37	164.48	15.51	-36.2	-38.0	16.3	0.00e+00	0	59	0	650117120	43	4337
2026-01-24 14:20:05.38	164.50	15.62	-36.2	-38.1	16.2	0.00e+00	0	59	0	657457152	43	4347
2026-01-24 14:20:06.39	164.51	15.73	-36.2	-38.0	16.3	0.00e+00	0	59	0	664797184	43	4318
2026-01-24 14:20:07.40	164.52	15.85	-36.1	-37.9	16.4	0.00e+00	0	59	0	672137216	43	4258
2026-01-24 14:20:08.41	164.53	15.96	-36.1	-37.9	16.4	0.00e+00	0	59	0	679477248	43	4280
2026-01-24 14:20:09.42	164.54	16.07	-36.2	-38.0	16.3	0.00e+00	0	59	0	685768704	43	4304
2026-01-24 14:20:10.43	164.56	16.18	-36.1	-37.9	16.4	0.00e+00	0	59	0	694157312	43	4247
2026-01-24 14:20:11.43	164.57	16.30	-36.2	-38.0	16.2	0.00e+00	0	59	0	701497344	43	4339
2026-01-24 14:20:12.44	164.58	16.41	-36.2	-38.0	16.3	0.00e+00	0	59	0	707788800	43	4308
2026-01-24 14:20:13.45	164.59	16.53	-36.2	-38.0	16.3	0.00e+00	0	59	0	715128832	43	4322
2026-01-24 14:20:14.46	164.61	16.64	-36.2	-38.0	16.4	0.00e+00	0	59	0	722468864	43	4293
2026-01-24 14:20:15.47	164.62	16.76	-36.1	-37.8	16.5	0.00e+00	0	59	0	729808896	43	4238
2026-01-24 14:20:16.48	164.63	16.87	-36.1	-37.9	16.4	0.00e+00	0	60	0	737148928	43	4287
2026-01-24 14:20:17.49	164.64	16.99	-36.0	-37.8	16.5	0.00e+00	0	59	0	744488960	42	4455
2026-01-24 14:20:18.50	164.66	17.11	-36.1	-37.9	16.4	0.00e+00	0	59	0	751828992	42	4524
2026-01-24 14:20:19.51	164.67	17.23	-36.1	-37.9	16.4	0.00e+00	0	59	0	759169024	42	4542
2026-01-24 14:20:20.52	164.68	17.35	-36.0	-37.8	16.5	0.00e+00	0	59	0	766509056	42	4478
2026-01-24 14:20:21.53	164.69	17.47	-36.1	-37.9	16.4	0.00e+00	0	59	0	773849088	42	4502
2026-01-24 14:20:22.54	164.71	17.59	-36.1	-37.9	16.5	0.00e+00	0	60	0	781189120	42	4494
2026-01-24 14:20:23.55	164.72	17.71	-36.2	-38.0	16.3	0.00e+00	0	59	0	788529152	42	4597
2026-01-24 14:20:24.56	164.73	17.83	-36.1	-37.9	16.4	0.00e+00	0	60	0	795869184	42	4519
2026-01-24 14:20:25.57	164.75	17.95	-36.0	-37.8	16.6	0.00e+00	0	59	0	803209216	42	4453
2026-01-24 14:20:26.58	164.76	18.07	-36.1	-37.9	16.4	0.00e+00	0	60	0	810549248	42	4542
2026-01-24 14:20:27.59	164.77	18.20	-36.0	-37.8	16.6	0.00e+00	0	59	0	817889280	42	4467
2026-01-24 14:20:28.60	164.79	18.32	-36.0	-37.8	16.5	0.00e+00	0	59	0	825229312	42	4483
2026-01-24 14:20:29.61	164.80	18.44	-36.1	-37.8	16.5	0.00e+00	0	59	0	832569344	42	4491
2026-01-24 14:20:30.61	164.82	18.57	-36.0	-37.8	16.6	0.00e+00	0	59	0	838860800	42	4452
2026-01-24 14:20:31.62	164.83	18.69	-36.0	-37.7	16.6	0.00e+00	0	60	0	847249408	42	4429
2026-01-24 14:20:32.63	164.84	18.82	-36.0	-37.7	16.6	0.00e+00	0	60	0	854589440	42	4438
2026-01-24 14:20:33.64	164.86	18.95	-35.9	-37.7	16.6	0.00e+00	0	60	0	860880896	42	4430
2026-01-24 14:20:34.65	164.87	19.07	-35.9	-37.6	16.7	0.00e+00	0	60	0	868220928	42	4380
2026-01-24 14:20:35.66	164.89	19.20	-35.8	-37.6	16.8	0.00e+00	0	60	0	875560960	42	4341
2026-01-24 14:20:36.67	164.90	19.33	-35.7	-37.5	16.9	0.00e+00	0	60	0	882900992	42	4296
2026-01-24 14:20:37.68	164.91	19.46	-35.6	-37.3	17.0	0.00e+00	0	60	0	890241024	42	4238
2026-01-24 14:20:38.69	164.93	19.59	-35.7	-37.4	17.0	0.00e+00	0	60	0	897581056	42	4250
2026-01-24 14:20:39.70	164.94	19.72	-35.6	-37.3	17.0	0.00e+00	0	60	0	904921088	42	4221
2026-01-24 14:20:40.72	164.96	19.86	-35.6	-37.3	17.1	0.00e+00	0	60	0	912261120	42	4214
2026-01-24 14:20:41.72	164.97	19.99	-35.6	-37.3	17.1	0.00e+00	0	60	0	919601152	41	4453
2026-01-24 14:20:42.74	164.99	20.12	-35.5	-37.1	17.2	0.00e+00	0	59	0	926941184	41	4377
2026-01-24 14:20:43.75	165.00	20.26	-35.4	-37.1	17.2	0.00e+00	0	60	0	934281216	41	4358
2026-01-24 14:20:44.76	165.02	20.39	-35.4	-37.1	17.3	0.00e+00	0	60	0	941621248	41	4345
2026-01-24 14:20:45.77	165.03	20.52	-35.2	-36.9	17.5	0.00e+00	0	60	0	948961280	41	4254
2026-01-24 14:20:46.78	165.05	20.66	-35.2	-36.9	17.4	0.00e+00	0	60	0	956301312	41	4255
2026-01-24 14:20:47.79	165.06	20.80	-35.2	-36.8	17.5	0.00e+00	0	60	0	963641344	41	4226
2026-01-24 14:20:48.80	165.08	20.94	-35.2	-36.8	17.5	0.00e+00	0	60	0	970981376	41	4240
2026-01-24 14:20:49.81	165.10	21.07	-35.1	-36.7	17.6	0.00e+00	0	60	0	978321408	41	4175
2026-01-24 14:20:50.82	165.11	21.21	-35.1	-36.7	17.6	0.00e+00	0	60	0	985661440	41	4192
2026-01-24 14:20:51.83	165.13	21.35	-34.9	-36.5	17.8	0.00e+00	0	60	0	993001472	40	4325
2026-01-24 14:20:52.84	165.14	21.49	-35.0	-36.7	17.7	0.00e+00	0	60	0	1000341504	40	4398
2026-01-24 14:20:53.85	165.16	21.63	-35.0	-36.7	17.7	0.00e+00	0	60	0	1006632960	40	4393
2026-01-24 14:20:54.86	165.18	21.78	-35.0	-36.6	17.7	0.00e+00	0	60	0	1013972992	40	4385
2026-01-24 14:20:55.87	165.19	21.92	-35.0	-36.7	17.7	0.00e+00	0	60	0	1022361600	40	4393
2026-01-24 14:20:56.88	165.21	22.06	-35.1	-36.7	17.6	0.00e+00	0	60	0	1028653056	40	4441
2026-01-24 14:20:57.89	165.23	22.21	-35.1	-36.8	17.5	0.00e+00	0	60	0	1035993088	40	4460
2026-01-24 14:20:58.90	165.24	22.35	-34.9	-36.6	17.8	0.00e+00	0	60	0	1043333120	40	4348
2026-01-24 14:20:59.91	165.26	22.50	-35.0	-36.6	17.6	0.00e+00	0	60	0	1050673152	40	4389
2026-01-24 14:21:00.92	165.28	22.65	-34.9	-36.6	17.7	0.00e+00	0	60	0	1058013184	40	4350
2026-01-24 14:21:01.93	165.29	22.79	-35.0	-36.6	17.7	0.00e+00	0	60	0	1065353216	40	4377
2026-01-24 14:21:02.94	165.31	22.94	-34.9	-36.5	17.7	0.00e+00	0	60	0	1072693248	40	4333
2026-01-24 14:21:03.94	165.33	23.09	-35.0	-36.7	17.6	0.00e+00	0	60	0	1080033280	40	4399
2026-01-24 14:21:04.96	165.35	23.24	-34.9	-36.5	17.7	0.00e+00	0	60	0	1087373312	40	4334
2026-01-24 14:21:05.97	165.36	23.39	-34.9	-36.5	17.7	0.00e+00	0	60	0	1094713344	40	4335
2026-01-24 14:21:06.98	165.38	23.55	-34.9	-36.6	17.6	0.00e+00	0	60	0	1102053376	40	4374
2026-01-24 14:21:07.99	165.40	23.70	-35.0	-36.7	17.6	0.00e+00	0	60	0	1109393408	40	4411
2026-01-24 14:21:09.00	165.42	23.85	-35.0	-36.7	17.6	0.00e+00	0	60	0	1116733440	40	4415
2026-01-24 14:21:10.01	165.44	24.01	-35.0	-36.7	17.6	0.00e+00	0	60	0	1124073472	40	4430
2026-01-24 14:21:11.02	165.46	24.16	-35.0	-36.7	17.5	0.00e+00	0	60	0	1131413504	40	4434
2026-01-24 14:21:12.03	165.47	24.32	-35.0	-36.7	17.5	0.00e+00	0	60	0	1138753536	40	4439
2026-01-24 14:21:13.04	165.49	24.48	-35.0	-36.8	17.5	0.00e+00	0	60	0	1146093568	40	4452
2026-01-24 14:21:14.05	165.51	24.64	-35.1	-36.8	17.4	0.00e+00	0	60	0	1153433600	40	4488
2026-01-24 14:21:15.06	165.53	24.80	-35.1	-36.9	17.4	0.00e+00	0	60	0	1159725056	40	4501
2026-01-24 14:21:16.07	165.55	24.96	-35.1	-36.9	17.4	0.00e+00	0	60	0	1167065088	40	4505
2026-01-24 14:21:17.07	165.57	25.12	-35.0	-36.8	17.5	0.00e+00	0	60	0	1175453696	40	4456
2026-01-24 14:21:18.08	165.59	25.28	-34.9	-36.6	17.6	0.00e+00	0	60	0	1181745152	40	4378
2026-01-24 14:21:19.09	165.61	25.44	-34.9	-36.6	17.6	0.00e+00	0	60	0	1189085184	40	4381
2026-01-24 14:21:20.11	165.63	25.61	-34.9	-36.6	17.6	0.00e+00	0	60	0	1196425216	40	4388
2026-01-24 14:21:21.12	165.65	25.78	-34.9	-36.6	17.6	0.00e+00	0	60	0	1203765248	40	4370
2026-01-24 14:21:22.12	165.67	25.94	-34.9	-36.6	17.7	0.00e+00	0	60	0	1211105280	40	4356
2026-01-24 14:21:23.13	165.69	26.11	-34.7	-36.4	17.9	0.00e+00	0	60	0	1218445312	40	4262
2026-01-24 14:21:24.14	165.71	26.28	-34.6	-36.2	18.0	0.00e+00	0	60	0	1225785344	40	4178
2026-01-24 14:21:25.15	165.73	26.45	-34.5	-36.2	18.1	0.00e+00	0	60	0	1233125376	40	4157
2026-01-24 14:21:26.16	165.75	26.62	-34.5	-36.1	18.1	0.00e+00	0	60	0	1240465408	40	4137
2026-01-24 14:21:27.17	165.77	26.79	-34.6	-36.2	18.2	0.00e+00	0	60	0	1247805440	39	4402
2026-01-24 14:21:28.18	165.79	26.96	-34.6	-36.3	18.1	0.00e+00	0	60	0	1255145472	39	4443
2026-01-24 14:21:29.19	165.82	27.14	-34.6	-36.2	18.1	0.00e+00	0	60	0	1262485504	39	4423
2026-01-24 14:21:30.20	165.84	27.31	-34.5	-36.1	18.3	0.00e+00	0	60	0	1269825536	39	4350
2026-01-24 14:21:31.21	165.86	27.49	-34.5	-36.1	18.3	0.00e+00	0	60	0	1277165568	39	4347
2026-01-24 14:21:32.22	165.88	27.67	-34.5	-36.1	18.3	0.00e+00	0	60	0	1284505600	39	4352
2026-01-24 14:21:33.23	165.90	27.85	-34.5	-36.1	18.3	0.00e+00	0	61	0	1291845632	39	4364
2026-01-24 14:21:34.24	165.93	28.03	-34.4	-35.9	18.4	0.00e+00	0	60	0	1299185664	39	4283
2026-01-24 14:21:35.24	165.95	28.21	-34.5	-36.1	18.4	0.00e+00	0	61	0	1306525696	39	4341
2026-01-24 14:21:36.25	165.97	28.39	-34.5	-36.0	18.4	0.00e+00	0	60	0	1312817152	39	4319
2026-01-24 14:21:37.26	166.00	28.57	-34.4	-35.9	18.5	0.00e+00	0	60	0	1320157184	39	4281
2026-01-24 14:21:38.27	166.02	28.76	-34.4	-35.9	18.5	0.00e+00	0	60	0	1327497216	39	4285
2026-01-24 14:21:39.28	166.04	28.94	-34.5	-36.0	18.4	0.00e+00	0	60	0	1334837248	39	4325
2026-01-24 14:21:40.29	166.07	29.13	-34.5	-36.1	18.4	0.00e+00	0	60	0	1342177280	39	4353
2026-01-24 14:21:41.30	166.09	29.32	-34.6	-36.1	18.3	0.00e+00	0	61	0	1349517312	39	4389
2026-01-24 14:21:42.31	166.12	29.51	-34.7	-36.2	18.2	0.00e+00	0	60	0	1356857344	39	4436
2026-01-24 14:21:43.32	166.14	29.70	-34.8	-36.4	18.1	0.00e+00	0	60	0	1364197376	39	4524
2026-01-24 14:21:44.34	166.17	29.89	-34.7	-36.4	18.1	0.00e+00	0	60	0	1371537408	39	4498
2026-01-24 14:21:45.35	166.19	30.09	-35.0	-36.7	17.8	0.00e+00	0	60	0	1378877440	39	4667
2026-01-24 14:21:46.35	166.22	30.28	-35.0	-36.6	17.9	0.00e+00	0	61	0	1386217472	39	4625
2026-01-24 14:21:47.37	166.24	30.48	-34.9	-36.6	17.9	0.00e+00	0	61	0	1393557504	39	4603
2026-01-24 14:21:48.38	166.27	30.67	-34.8	-36.5	17.9	0.00e+00	0	60	0	1400897536	39	4563
2026-01-24 14:21:49.39	166.30	30.87	-34.7	-36.3	18.2	0.00e+00	0	61	0	1408237568	39	4463
2026-01-24 14:21:50.40	166.32	31.07	-34.7	-36.3	18.1	0.00e+00	0	61	0	1415577600	39	4477
2026-01-24 14:21:51.40	166.35	31.27	-34.6	-36.2	18.3	0.00e+00	0	60	0	1422917632	39	4416
2026-01-24 14:21:52.41	166.38	31.48	-34.6	-36.2	18.3	0.00e+00	0	61	0	1430257664	39	4414
2026-01-24 14:21:53.42	166.40	31.68	-34.7	-36.3	18.2	0.00e+00	0	61	0	1436549120	39	4467
2026-01-24 14:21:54.43	166.43	31.89	-34.7	-36.4	18.1	0.00e+00	0	61	0	1444937728	39	4494
2026-01-24 14:21:55.44	166.46	32.09	-34.6	-36.3	18.2	0.00e+00	0	61	0	1452277760	39	4445
2026-01-24 14:21:56.45	166.49	32.30	-34.6	-36.3	18.1	0.00e+00	0	61	0	1458569216	39	4463
2026-01-24 14:21:57.46	166.52	32.51	-34.7	-36.4	18.1	0.00e+00	0	61	0	1465909248	39	4512
2026-01-24 14:21:58.47	166.55	32.72	-34.6	-36.3	18.1	0.00e+00	0	61	0	1473249280	39	4477
2026-01-24 14:21:59.48	166.58	32.94	-34.6	-36.3	18.2	0.00e+00	0	61	0	1480589312	39	4450
2026-01-24 14:22:00.49	166.61	33.15	-34.6	-36.2	18.2	0.00e+00	0	61	0	1487929344	39	4441
2026-01-24 14:22:01.50	166.64	33.37	-34.7	-36.5	18.0	0.00e+00	0	60	0	1495269376	39	4557
2026-01-24 14:22:02.51	166.67	33.59	-34.7	-36.4	18.0	0.00e+00	0	61	0	1502609408	39	4517
2026-01-24 14:22:03.52	166.70	33.81	-34.6	-36.3	18.1	0.00e+00	0	61	0	1509949440	39	4481
2026-01-24 14:22:04.53	166.73	34.03	-34.6	-36.4	18.0	0.00e+00	0	61	0	1517289472	39	4511
2026-01-24 14:22:05.54	166.76	34.25	-34.8	-36.6	17.8	0.00e+00	0	61	0	1524629504	39	4627
2026-01-24 14:22:06.55	166.79	34.47	-34.7	-36.5	18.0	0.00e+00	0	61	0	1531969536	39	4550
2026-01-24 14:22:07.56	166.83	34.70	-34.6	-36.3	18.1	0.00e+00	0	61	0	1539309568	39	4490
2026-01-24 14:22:08.57	166.86	34.93	-34.6	-36.4	18.1	0.00e+00	0	61	0	1546649600	39	4505
2026-01-24 14:22:09.58	166.89	35.15	-34.6	-36.4	18.1	0.00e+00	0	61	0	1553989632	39	4495
2026-01-24 14:22:10.59	166.93	35.38	-34.4	-36.1	18.3	0.00e+00	0	61	0	1561329664	39	4377
2026-01-24 14:22:11.60	166.96	35.62	-34.4	-36.1	18.4	0.00e+00	0	61	0	1568669696	39	4364
2026-01-24 14:22:12.61	167.00	35.85	-34.4	-36.1	18.4	0.00e+00	0	61	0	1576009728	39	4381
2026-01-24 14:22:13.62	167.03	36.09	-34.3	-36.0	18.5	0.00e+00	0	61	0	1583349760	39	4294
2026-01-24 14:22:14.63	167.07	36.32	-34.3	-35.9	18.6	0.00e+00	0	61	0	1590689792	39	4279
2026-01-24 14:22:15.64	167.10	36.56	-34.4	-36.0	18.5	0.00e+00	0	61	0	1598029824	39	4329
2026-01-24 14:22:16.65	167.14	36.80	-34.4	-36.0	18.5	0.00e+00	0	61	0	1605369856	39	4321
2026-01-24 14:22:17.66	167.18	37.05	-34.4	-36.0	18.5	0.00e+00	0	61	0	1611661312	39	4304
2026-01-24 14:22:18.67	167.21	37.29	-34.6	-36.2	18.4	0.00e+00	0	61	0	1619001344	39	4400
2026-01-24 14:22:19.68	167.25	37.54	-34.6	-36.2	18.3	0.00e+00	0	61	0	1627389952	39	4414
2026-01-24 14:22:20.69	167.29	37.79	-34.7	-36.3	18.2	0.00e+00	0	61	0	1633681408	39	4467
2026-01-24 14:22:21.70	167.33	38.04	-34.7	-36.4	18.2	0.00e+00	0	61	0	1641021440	39	4499
2026-01-24 14:22:22.71	167.37	38.29	-34.9	-36.5	18.0	0.00e+00	0	61	0	1648361472	39	4572
2026-01-24 14:22:23.72	167.41	38.54	-34.9	-36.6	17.9	0.00e+00	0	61	0	1655701504	39	4615
2026-01-24 14:22:24.73	167.45	38.80	-34.9	-36.6	18.0	0.00e+00	0	61	0	1663041536	39	4611
2026-01-24 14:22:25.74	167.49	39.05	-35.0	-36.6	17.9	0.00e+00	0	61	0	1670381568	39	4651
2026-01-24 14:22:26.76	167.54	39.32	-34.9	-36.5	17.9	0.00e+00	0	61	0	1677721600	39	4598
2026-01-24 14:22:27.77	167.58	39.58	-35.1	-36.7	17.8	0.00e+00	0	61	0	1685061632	39	4699
2026-01-24 14:22:28.78	167.62	39.84	-35.1	-36.7	17.8	0.00e+00	0	61	0	1692401664	39	4702
2026-01-24 14:22:29.79	167.67	40.11	-35.1	-36.7	17.7	0.00e+00	0	61	0	1699741696	39	4702
2026-01-24 14:22:30.80	167.71	40.37	-35.0	-36.7	17.8	0.00e+00	0	61	0	1707081728	39	4686
2026-01-24 14:22:31.81	167.76	40.64	-34.9	-36.5	18.0	0.00e+00	0	61	0	1714421760	39	4596
2026-01-24 14:22:32.82	167.80	40.91	-34.9	-36.5	17.9	0.00e+00	0	61	0	1721761792	39	4589
2026-01-24 14:22:33.83	167.85	41.19	-34.9	-36.6	18.0	0.00e+00	0	61	0	1729101824	39	4599
2026-01-24 14:22:34.84	167.90	41.46	-34.8	-36.4	18.1	0.00e+00	0	61	0	1736441856	39	4530
2026-01-24 14:22:35.85	167.94	41.74	-34.9	-36.5	18.0	0.00e+00	0	61	0	1743781888	39	4557
2026-01-24 14:22:36.86	167.99	42.02	-34.9	-36.5	18.1	0.00e+00	0	61	0	1751121920	39	4548
2026-01-24 14:22:37.86	168.04	42.30	-34.9	-36.4	18.1	0.00e+00	0	61	0	1757413376	39	4542
2026-01-24 14:22:38.88	168.09	42.59	-34.8	-36.4	18.2	0.00e+00	0	61	0	1765801984	39	4507
2026-01-24 14:22:39.89	168.15	42.87	-35.0	-36.5	18.1	0.00e+00	0	61	0	1773142016	39	4591
2026-01-24 14:22:40.90	168.20	43.16	-35.1	-36.7	17.9	0.00e+00	0	61	0	1779433472	39	4681
2026-01-24 14:22:41.91	168.25	43.45	-35.2	-36.8	17.9	0.00e+00	0	61	0	1786773504	39	4714
2026-01-24 14:22:42.92	168.31	43.74	-35.0	-36.6	18.1	0.00e+00	0	61	0	1794113536	39	4617
2026-01-24 14:22:43.93	168.36	44.04	-35.0	-36.5	18.2	0.00e+00	0	61	0	1801453568	39	4575
2026-01-24 14:22:44.94	168.42	44.33	-34.9	-36.5	18.3	0.00e+00	0	61	0	1808793600	39	4559
2026-01-24 14:22:45.95	168.47	44.63	-35.4	-36.6	18.5	0.00e+00	0	61	0	1816133632	40	4344
2026-01-24 14:22:46.96	168.53	44.94	-35.5	-36.6	18.4	0.00e+00	0	61	0	1823473664	40	4368
2026-01-24 14:22:47.97	168.59	45.24	-35.7	-36.9	18.1	0.00e+00	0	61	0	1830813696	41	4263
2026-01-24 14:22:48.98	168.65	45.54	-35.8	-37.0	18.0	0.00e+00	0	61	0	1838153728	41	4319
2026-01-24 14:22:49.99	168.71	45.85	-35.9	-37.2	17.9	0.00e+00	0	61	0	1845493760	41	4405
2026-01-24 14:22:51.00	168.78	46.16	-36.0	-37.2	17.8	0.00e+00	0	61	0	1852833792	41	4419
2026-01-24 14:22:52.00	168.84	46.47	-36.0	-37.3	17.8	0.00e+00	0	61	0	1860173824	41	4449
2026-01-24 14:22:53.01	168.91	46.79	-35.9	-37.1	17.9	0.00e+00	0	61	0	1867513856	41	4369
2026-01-24 14:22:54.02	168.97	47.11	-35.8	-37.1	18.0	0.00e+00	0	61	0	1874853888	41	4347
2026-01-24 14:22:55.03	169.04	47.43	-35.9	-37.1	17.9	0.00e+00	0	61	0	1882193920	41	4363
2026-01-24 14:22:56.04	169.11	47.75	-35.9	-37.1	17.9	0.00e+00	0	61	0	1889533952	41	4376
2026-01-24 14:22:57.05	169.18	48.07	-36.1	-37.4	17.7	0.00e+00	0	61	0	1896873984	41	4500
2026-01-24 14:22:58.06	169.25	48.40	-36.3	-37.6	17.5	0.00e+00	0	61	0	1904214016	42	4362
2026-01-24 14:22:59.07	169.32	48.73	-36.5	-37.7	17.3	0.00e+00	0	61	0	1910505472	42	4433
2026-01-24 14:23:00.08	169.40	49.06	-36.7	-38.0	17.1	0.00e+00	0	61	0	1918894080	43	4315
2026-01-24 14:23:01.09	169.47	49.40	-36.7	-38.0	17.1	0.00e+00	0	61	0	1926234112	43	4306
2026-01-24 14:23:02.10	169.55	49.73	-36.8	-38.1	17.0	0.00e+00	0	61	0	1932525568	43	4375
2026-01-24 14:23:03.11	169.63	50.07	-36.6	-38.0	17.1	0.00e+00	0	61	0	1939865600	43	4297
2026-01-24 14:23:04.12	169.71	50.42	-36.5	-37.8	17.3	0.00e+00	0	61	0	1947205632	43	4203
2026-01-24 14:23:05.12	169.79	50.76	-36.5	-37.8	17.3	0.00e+00	0	61	0	1954545664	43	4206
2026-01-24 14:23:06.14	169.88	51.11	-36.4	-37.6	17.5	0.00e+00	0	61	0	1961885696	43	4137
2026-01-24 14:23:07.15	169.97	51.46	-36.2	-37.4	17.6	0.00e+00	0	61	0	1969225728	43	4050
2026-01-24 14:23:08.16	170.06	51.81	-36.4	-37.7	17.4	0.00e+00	0	61	0	1976565760	43	4178
2026-01-24 14:23:09.16	170.15	52.16	-36.5	-37.8	17.2	0.00e+00	0	61	0	1983905792	43	4235
2026-01-24 14:23:10.18	170.24	52.52	-36.4	-37.7	17.4	0.00e+00	0	61	0	1991245824	43	4148
2026-01-24 14:23:11.18	170.33	52.88	-36.5	-37.8	17.3	0.00e+00	0	61	0	1998585856	43	4209
2026-01-24 14:23:12.19	170.43	53.24	-36.8	-38.1	17.0	0.00e+00	0	61	0	2005925888	43	4375
2026-01-24 14:23:13.20	170.53	53.60	-36.7	-38.1	17.0	0.00e+00	0	61	0	2013265920	43	4344
2026-01-24 14:23:14.21	170.63	53.97	-36.6	-38.0	17.2	0.00e+00	0	61	0	2020605952	43	4293
2026-01-24 14:23:15.22	170.74	54.34	-36.7	-38.0	17.1	0.00e+00	0	61	0	2027945984	43	4309
2026-01-24 14:23:16.23	170.85	54.71	-36.6	-37.9	17.1	0.00e+00	0	61	0	2035286016	43	4258
2026-01-24 14:23:17.24	170.96	55.09	-36.5	-37.8	17.2	0.00e+00	0	61	0	2042626048	43	4231
2026-01-24 14:23:18.25	171.07	55.47	-36.6	-37.9	17.2	0.00e+00	0	61	0	2049966080	43	4261
2026-01-24 14:23:19.26	171.19	55.85	-36.3	-37.5	17.5	0.00e+00	0	61	0	2056257536	43	4085
2026-01-24 14:23:20.27	171.30	56.23	-36.5	-37.8	17.3	0.00e+00	0	61	0	2063597568	43	4228
2026-01-24 14:23:21.28	171.43	56.61	-36.7	-38.0	17.0	0.00e+00	0	61	0	2071986176	43	4335
2026-01-24 14:23:22.29	171.55	57.00	-36.7	-38.1	17.0	0.00e+00	0	61	0	2078277632	43	4349
2026-01-24 14:23:23.30	171.68	57.39	-36.8	-38.2	16.9	0.00e+00	0	61	0	2085617664	43	4400
2026-01-24 14:23:24.31	171.82	57.78	-36.5	-37.7	17.3	0.00e+00	0	61	0	2092957696	43	4183
2026-01-24 14:23:25.32	171.95	58.18	-36.5	-37.8	17.2	0.00e+00	0	61	0	2100297728	43	4211
2026-01-24 14:23:26.33	172.09	58.58	-36.5	-37.8	17.3	0.00e+00	0	61	0	2107637760	43	4201
2026-01-24 14:23:27.34	172.24	58.98	-36.5	-37.8	17.3	0.00e+00	0	61	0	2114977792	43	4207
2026-01-24 14:23:28.35	172.39	59.38	-36.6	-37.9	17.2	0.00e+00	0	61	0	2122317824	43	4268
2026-01-24 14:23:29.36	172.54	59.79	-36.6	-37.9	17.2	0.00e+00	0	61	0	2129657856	43	4290
2026-01-24 14:23:30.36	172.70	60.19	-37.0	-38.4	16.7	0.00e+00	0	61	0	2136997888	43	4497
2026-01-24 14:23:31.37	172.86	60.60	-36.4	-37.7	17.4	0.00e+00	0	61	0	2144337920	43	4159
2026-01-24 14:23:32.38	173.03	61.01	-36.2	-37.5	17.6	0.00e+00	0	61	0	2151677952	43	4065
2026-01-24 14:23:33.39	173.21	61.43	-35.9	-37.1	18.0	0.00e+00	0	61	0	2159017984	42	4114
2026-01-24 14:23:34.40	173.39	61.84	-35.8	-36.9	18.2	0.00e+00	0	61	0	2166358016	42	4038
2026-01-24 14:23:35.41	173.57	62.26	-36.2	-37.5	17.6	0.00e+00	0	61	0	2173698048	42	4316
2026-01-24 14:23:36.42	173.77	62.69	-36.1	-37.3	17.7	0.00e+00	0	61	0	2181038080	42	4240
2026-01-24 14:23:37.43	173.97	63.11	-35.7	-36.9	18.2	0.00e+00	0	61	0	2188378112	42	4037
2026-01-24 14:23:38.44	174.17	63.54	-35.5	-36.7	18.4	0.00e+00	0	61	0	2195718144	42	3924
2026-01-24 14:23:39.45	174.39	63.97	-35.5	-36.6	18.5	0.00e+00	0	61	0	2203058176	41	4136
2026-01-24 14:23:40.46	174.61	64.40	-35.1	-36.2	18.8	0.00e+00	0	61	0	2209349632	41	3943
2026-01-24 14:23:41.47	174.84	64.83	-35.3	-36.4	18.6	0.00e+00	0	61	0	2216689664	41	4034
2026-01-24 14:23:42.48	175.08	65.27	-35.3	-36.4	18.7	0.00e+00	0	61	0	2225078272	41	4016
2026-01-24 14:23:43.49	175.33	65.70	-35.5	-36.7	18.4	0.00e+00	0	61	0	2231369728	41	4168
2026-01-24 14:23:44.50	175.59	66.14	-35.6	-36.8	18.3	0.00e+00	0	61	0	2238709760	41	4232
2026-01-24 14:23:45.51	175.86	66.58	-35.2	-36.4	18.6	0.00e+00	0	61	0	2246049792	41	4009
2026-01-24 14:23:46.53	176.14	67.03	-35.4	-36.6	18.5	0.00e+00	0	61	0	2253389824	41	4129
2026-01-24 14:23:47.53	176.43	67.47	-35.4	-36.5	18.6	0.00e+00	0	61	0	2260729856	41	4074
2026-01-24 14:23:48.54	176.74	67.92	-35.0	-36.1	18.9	0.00e+00	0	61	0	2268069888	41	3906
2026-01-24 14:23:49.55	177.06	68.37	-35.0	-36.1	19.0	0.00e+00	0	61	0	2275409920	40	4106
2026-01-24 14:23:50.56	177.39	68.82	-35.2	-36.4	18.7	0.00e+00	0	61	0	2282749952	40	4251
2026-01-24 14:23:51.57	177.74	69.27	-35.4	-36.5	18.4	0.00e+00	0	61	0	2290089984	40	4335
2026-01-24 14:23:52.58	178.11	69.72	-35.3	-36.5	18.6	0.00e+00	0	61	0	2297430016	40	4302
2026-01-24 14:23:53.59	178.49	70.18	-35.2	-36.3	18.8	0.00e+00	0	61	0	2304770048	40	4213
2026-01-24 14:23:54.60	178.90	70.63	-35.1	-36.3	18.8	0.00e+00	0	61	0	2312110080	40	4199
2026-01-24 14:23:55.61	179.32	71.09	-35.4	-36.6	18.4	0.00e+00	0	61	0	2319450112	40	4369
2026-01-24 14:23:56.62	179.77	71.55	-35.7	-37.0	18.1	0.00e+00	0	61	0	2326790144	40	4550
2026-01-24 14:23:57.63	180.24	72.01	-35.4	-36.6	18.5	0.00e+00	0	61	0	2334130176	41	4107
2026-01-24 14:23:58.64	180.73	72.47	-35.5	-36.6	18.4	0.00e+00	0	61	0	2341470208	41	4120
2026-01-24 14:23:59.65	181.25	72.93	-35.5	-36.7	18.4	0.00e+00	0	61	0	2348810240	41	4153
2026-01-24 14:24:00.66	181.81	73.39	-35.5	-36.6	18.4	0.00e+00	0	61	0	2355101696	41	4139
2026-01-24 14:24:01.66	182.39	73.84	-35.3	-36.4	18.5	0.00e+00	0	61	0	2362441728	41	4026
2026-01-24 14:24:02.67	183.01	74.31	-35.2	-36.3	18.7	0.00e+00	0	61	0	2370830336	41	3979
2026-01-24 14:24:03.68	183.67	74.77	-35.1	-36.2	18.9	0.00e+00	0	61	0	2377121792	40	4155
2026-01-24 14:24:04.69	184.38	75.23	-34.9	-36.1	19.0	0.00e+00	0	61	0	2384461824	40	4105
2026-01-24 14:24:05.70	185.13	75.69	-34.9	-36.1	19.0	0.00e+00	0	61	0	2391801856	40	4099
2026-01-24 14:24:06.71	185.93	76.14	-34.7	-35.8	19.2	0.00e+00	0	61	0	2399141888	40	3996
2026-01-24 14:24:07.73	186.80	76.61	-34.4	-35.5	19.5	0.00e+00	0	61	0	2406481920	39	4064
2026-01-24 14:24:08.74	187.72	77.06	-34.0	-35.1	20.0	0.00e+00	0	61	0	2413821952	38	4100
2026-01-24 14:24:09.75	188.71	77.52	-33.8	-34.8	20.3	0.00e+00	0	61	0	2421161984	38	3985
2026-01-24 14:24:10.76	189.78	77.97	-33.8	-34.8	20.3	0.00e+00	0	61	0	2428502016	38	3965
2026-01-24 14:24:11.77	190.93	78.42	-33.6	-34.6	20.4	0.00e+00	0	61	0	2435842048	38	3890
2026-01-24 14:24:12.78	192.17	78.86	-33.8	-34.8	20.2	0.00e+00	0	61	0	2443182080	38	3982
2026-01-24 14:24:13.79	193.52	79.30	-33.9	-34.9	20.2	0.00e+00	0	61	0	2450522112	38	4016
2026-01-24 14:24:14.80	194.99	79.73	-34.0	-35.0	20.0	0.00e+00	0	61	0	2457862144	38	4069
2026-01-24 14:24:15.81	196.59	80.16	-33.8	-34.8	20.2	0.00e+00	0	61	0	2465202176	38	3983
2026-01-24 14:24:16.82	198.33	80.58	-33.7	-34.7	20.4	0.00e+00	0	61	0	2472542208	38	3917
2026-01-24 14:24:17.82	200.22	80.99	-33.9	-34.9	20.1	0.00e+00	0	62	0	2479882240	38	4048
2026-01-24 14:24:18.83	202.31	81.39	-34.1	-35.2	19.9	0.00e+00	0	61	0	2487222272	38	4154
2026-01-24 14:24:19.84	204.60	81.78	-34.1	-35.2	19.8	0.00e+00	0	61	0	2494562304	38	4160
2026-01-24 14:24:20.85	207.12	82.16	-34.2	-35.2	19.9	0.00e+00	0	61	0	2501902336	38	4174
2026-01-24 14:24:21.86	209.89	82.52	-34.1	-35.1	19.9	0.00e+00	0	61	0	2508193792	38	4125
2026-01-24 14:24:22.87	212.94	82.87	-34.4	-35.5	19.6	0.00e+00	0	61	0	2515533824	38	4296
2026-01-24 14:24:23.88	216.28	83.19	-34.2	-35.2	19.9	0.00e+00	0	62	0	2523922432	38	4165
2026-01-24 14:24:24.89	219.95	83.48	-34.2	-35.3	19.8	0.00e+00	0	61	0	2530213888	38	4197
2026-01-24 14:24:25.90	223.95	83.75	-34.4	-35.5	19.6	0.00e+00	0	61	0	2537553920	38	4293
2026-01-24 14:24:26.91	228.28	83.99	-34.5	-35.6	19.5	0.00e+00	0	61	0	2544893952	38	4347
2026-01-24 14:24:27.92	232.94	84.18	-34.5	-35.5	19.5	0.00e+00	0	61	0	2552233984	38	4339
2026-01-24 14:24:28.93	237.90	84.34	-34.4	-35.4	19.6	0.00e+00	0	61	0	2559574016	38	4291
2026-01-24 14:24:29.94	243.10	84.45	-34.5	-35.5	19.5	0.00e+00	0	61	0	2566914048	38	4320
2026-01-24 14:24:30.95	248.47	84.52	-34.4	-35.5	19.5	0.00e+00	0	61	0	2574254080	38	4315
2026-01-24 14:24:31.96	253.92	84.54	-34.5	-35.5	19.6	0.00e+00	0	61	0	2581594112	38	4329
2026-01-24 14:24:32.97	259.36	84.51	-34.3	-35.3	19.7	0.00e+00	0	61	0	2588934144	38	4235
2026-01-24 14:24:33.98	264.69	84.43	-34.1	-35.1	19.9	0.00e+00	0	61	0	2596274176	38	4143
2026-01-24 14:24:34.98	269.78	84.30	-34.1	-35.2	19.9	0.00e+00	0	61	0	2603614208	38	4148
2026-01-24 14:24:35.99	274.66	84.13	-34.3	-35.4	19.7	0.00e+00	0	61	0	2610954240	38	4253
2026-01-24 14:24:37.00	279.23	83.92	-34.7	-35.7	19.2	0.00e+00	0	61	0	2618294272	38	4440
2026-01-24 14:24:38.01	283.47	83.68	-34.6	-35.7	19.4	0.00e+00	0	61	0	2625634304	38	4403
2026-01-24 14:24:39.02	287.38	83.40	-34.6	-35.7	19.4	0.00e+00	0	61	0	2632974336	39	4171
2026-01-24 14:24:40.03	290.95	83.10	-34.5	-35.6	19.5	0.00e+00	0	61	0	2640314368	39	4118
2026-01-24 14:24:41.05	294.25	82.77	-34.0	-35.1	20.0	0.00e+00	0	61	0	2647654400	39	3880
2026-01-24 14:24:42.06	297.21	82.42	-34.1	-35.1	20.0	0.00e+00	0	61	0	2654994432	38	4138
2026-01-24 14:24:43.07	299.91	82.06	-34.2	-35.3	19.8	0.00e+00	0	61	0	2661285888	38	4197
2026-01-24 14:24:44.08	302.36	81.68	-34.3	-35.4	19.8	0.00e+00	0	61	0	2669674496	38	4243
2026-01-24 14:24:45.09	304.59	81.28	-34.2	-35.2	19.9	0.00e+00	0	61	0	2675965952	38	4176
2026-01-24 14:24:46.09	306.60	80.88	-34.0	-35.0	20.1	0.00e+00	0	61	0	2683305984	38	4079
2026-01-24 14:24:47.10	308.46	80.47	-33.9	-34.9	20.1	0.00e+00	0	61	0	2690646016	38	4040
2026-01-24 14:24:48.11	310.16	80.04	-33.8	-34.8	20.3	0.00e+00	0	61	0	2697986048	38	3981
2026-01-24 14:24:49.12	311.72	79.61	-33.8	-34.8	20.3	0.00e+00	0	61	0	2705326080	38	3988
2026-01-24 14:24:50.13	313.15	79.18	-34.1	-35.2	19.9	0.00e+00	0	61	0	2712666112	38	4146
2026-01-24 14:24:51.14	314.47	78.74	-34.1	-35.1	20.0	0.00e+00	0	61	0	2720006144	38	4116
2026-01-24 14:24:52.15	315.69	78.29	-33.8	-34.8	20.3	0.00e+00	0	61	0	2727346176	38	3961
2026-01-24 14:24:53.16	316.82	77.84	-33.8	-34.8	20.3	0.00e+00	0	61	0	2734686208	38	3982
2026-01-24 14:24:54.17	317.86	77.39	-34.0	-35.1	20.0	0.00e+00	0	62	0	2742026240	38	4102
2026-01-24 14:24:55.18	318.83	76.94	-34.5	-35.5	19.5	0.00e+00	0	61	0	2749366272	38	4339
2026-01-24 14:24:56.19	319.73	76.48	-34.4	-35.4	19.7	0.00e+00	0	61	0	2756706304	38	4286
2026-01-24 14:24:57.20	320.57	76.03	-34.5	-35.6	19.5	0.00e+00	0	62	0	2764046336	38	4350
2026-01-24 14:24:58.21	321.36	75.57	-34.9	-36.0	19.1	0.00e+00	0	62	0	2771386368	39	4329
2026-01-24 14:24:59.22	322.10	75.11	-35.0	-36.1	19.0	0.00e+00	0	61	0	2778726400	39	4367
2026-01-24 14:25:00.23	322.79	74.65	-34.9	-36.0	19.2	0.00e+00	0	61	0	2786066432	39	4295
2026-01-24 14:25:01.24	323.44	74.19	-34.8	-35.9	19.1	0.00e+00	0	61	0	2793406464	39	4272
2026-01-24 14:25:02.25	324.05	73.73	-35.1	-36.3	18.8	0.00e+00	0	62	0	2800746496	40	4228
2026-01-24 14:25:03.26	324.63	73.27	-35.7	-36.9	18.3	2.20e-06	0	61	0	2807037952	40	4501
2026-01-24 14:25:04.27	325.18	72.81	-35.7	-36.9	18.1	0.00e+00	0	61	0	2814377984	41	4290
2026-01-24 14:25:05.28	325.69	72.35	-35.7	-36.9	18.1	2.20e-06	0	61	0	2822766592	41	4277
2026-01-24 14:25:06.29	326.18	71.89	-35.7	-36.9	18.2	0.00e+00	0	61	0	2829058048	41	4276
2026-01-24 14:25:07.30	326.64	71.43	-35.8	-37.0	18.0	0.00e+00	0	61	0	2836398080	41	4314
2026-01-24 14:25:08.31	327.08	70.98	-35.9	-37.1	18.0	1.10e-06	0	61	0	2843738112	41	4382
2026-01-24 14:25:09.32	327.50	70.52	-35.9	-37.1	17.9	0.00e+00	0	61	0	2851078144	41	4377
2026-01-24 14:25:10.33	327.90	70.07	-35.7	-36.9	18.1	1.10e-06	0	61	0	2858418176	41	4282
2026-01-24 14:25:11.34	328.28	69.61	-35.5	-36.7	18.4	0.00e+00	0	61	0	2865758208	41	4147
2026-01-24 14:25:12.35	328.64	69.16	-35.2	-36.4	18.7	1.10e-06	0	61	0	2873098240	41	4013
2026-01-24 14:25:13.36	328.98	68.71	-35.2	-36.4	18.7	1.10e-06	0	61	0	2880438272	41	4008
2026-01-24 14:25:14.37	329.31	68.26	-35.1	-36.2	18.9	1.10e-06	0	61	0	2887778304	41	3936
2026-01-24 14:25:15.38	329.63	67.82	-35.1	-36.2	18.9	0.00e+00	0	61	0	2895118336	41	3957
2026-01-24 14:25:16.39	329.93	67.37	-35.0	-36.1	19.0	0.00e+00	0	61	0	2902458368	41	3904
2026-01-24 14:25:17.40	330.22	66.93	-34.9	-36.0	19.1	0.00e+00	0	61	0	2909798400	40	4094
2026-01-24 14:25:18.41	330.50	66.48	-34.9	-36.0	19.1	0.00e+00	0	61	0	2917138432	40	4056
2026-01-24 14:25:19.42	330.76	66.05	-35.1	-36.2	19.0	0.00e+00	0	61	0	2924478464	40	4156
2026-01-24 14:25:20.43	331.02	65.61	-35.2	-36.3	18.8	0.00e+00	0	62	0	2931818496	40	4228
2026-01-24 14:25:21.44	331.27	65.17	-35.3	-36.5	18.6	0.00e+00	0	61	0	2939158528	40	4307
2026-01-24 14:25:22.45	331.51	64.74	-35.5	-36.6	18.4	0.00e+00	0	61	0	2946498560	40	4377
2026-01-24 14:25:23.46	331.73	64.31	-35.6	-36.7	18.3	0.00e+00	0	62	0	2953838592	40	4428
2026-01-24 14:25:24.47	331.95	63.88	-35.6	-36.7	18.4	0.00e+00	0	61	0	2960130048	40	4425
2026-01-24 14:25:25.48	332.17	63.45	-35.5	-36.6	18.4	0.00e+00	0	62	0	2968518656	40	4360
2026-01-24 14:25:26.49	332.37	63.02	-35.6	-36.7	18.4	0.00e+00	0	61	0	2975858688	40	4430
2026-01-24 14:25:27.50	332.57	62.60	-35.8	-37.0	18.2	0.00e+00	0	62	0	2982150144	41	4325
2026-01-24 14:25:28.51	332.76	62.18	-36.1	-37.3	17.9	0.00e+00	0	61	0	2989490176	41	4463
2026-01-24 14:25:29.52	332.95	61.76	-36.4	-37.6	17.5	0.00e+00	0	61	0	2996830208	42	4386
2026-01-24 14:25:30.53	333.13	61.35	-36.6	-37.9	17.2	0.00e+00	0	61	0	3004170240	42	4521
2026-01-24 14:25:31.54	333.30	60.94	-36.6	-37.9	17.3	0.00e+00	0	61	0	3011510272	43	4264
2026-01-24 14:25:32.55	333.47	60.52	-36.8	-38.1	17.0	0.00e+00	0	62	0	3018850304	43	4385
2026-01-24 14:25:33.56	333.63	60.12	-37.0	-38.3	16.8	0.00e+00	0	61	0	3026190336	43	4483
2026-01-24 14:25:34.57	333.79	59.71	-37.0	-38.4	16.7	0.00e+00	0	61	0	3033530368	43	4514
2026-01-24 14:25:35.58	333.94	59.31	-37.0	-38.3	16.8	0.00e+00	0	61	0	3040870400	43	4481
2026-01-24 14:25:36.59	334.09	58.91	-36.7	-38.1	17.1	0.00e+00	0	61	0	3048210432	43	4353
2026-01-24 14:25:37.60	334.23	58.51	-36.8	-38.1	17.1	0.00e+00	0	61	0	3055550464	43	4367
2026-01-24 14:25:38.60	334.37	58.12	-36.6	-37.9	17.3	0.00e+00	0	61	0	3062890496	43	4287
2026-01-24 14:25:39.61	334.51	57.72	-36.7	-38.0	17.1	0.00e+00	0	61	0	3070230528	43	4323
2026-01-24 14:25:40.62	334.64	57.33	-36.8	-38.1	17.1	0.00e+00	0	61	0	3077570560	43	4372
2026-01-24 14:25:41.63	334.77	56.94	-36.8	-38.1	17.1	0.00e+00	0	61	0	3084910592	43	4351
2026-01-24 14:25:42.64	334.89	56.56	-36.6	-37.9	17.4	0.00e+00	0	61	0	3092250624	43	4247
2026-01-24 14:25:43.65	335.01	56.17	-36.4	-37.6	17.5	0.00e+00	0	61	0	3099590656	43	4136
2026-01-24 14:25:44.66	335.13	55.79	-36.3	-37.6	17.6	0.00e+00	0	61	0	3105882112	43	4110
2026-01-24 14:25:45.67	335.25	55.41	-36.4	-37.6	17.6	0.00e+00	0	62	0	3113222144	43	4129
2026-01-24 14:25:46.68	335.36	55.04	-36.3	-37.6	17.5	0.00e+00	0	61	0	3121610752	43	4110
2026-01-24 14:25:47.69	335.47	54.67	-36.4	-37.6	17.5	0.00e+00	0	61	0	3127902208	43	4144
2026-01-24 14:25:48.70	335.58	54.29	-36.4	-37.6	17.4	0.00e+00	0	61	0	3135242240	43	4123
2026-01-24 14:25:49.71	335.68	53.93	-36.6	-37.8	17.3	0.00e+00	0	61	0	3142582272	43	4234
2026-01-24 14:25:50.72	335.78	53.56	-36.5	-37.8	17.4	0.00e+00	0	61	0	3149922304	43	4195
2026-01-24 14:25:51.72	335.88	53.20	-36.4	-37.7	17.0	0.00e+00	0	61	0	3157262336	43	4147
2026-01-24 14:25:52.73	335.98	52.84	-36.6	-37.9	17.2	0.00e+00	0	61	0	3164602368	43	4276
2026-01-24 14:25:53.74	336.07	52.48	-36.6	-37.9	17.2	0.00e+00	0	61	0	3171942400	43	4287
2026-01-24 14:25:54.75	336.17	52.13	-36.6	-37.8	17.3	0.00e+00	0	61	0	3179282432	43	4231
2026-01-24 14:25:55.76	336.26	51.78	-36.5	-37.8	17.4	0.00e+00	0	61	0	3186622464	43	4199
2026-01-24 14:25:56.77	336.34	51.43	-36.4	-37.6	17.6	0.00e+00	0	61	0	3193962496	43	4110
2026-01-24 14:25:57.78	336.43	51.08	-36.4	-37.7	17.5	0.00e+00	0	61	0	3201302528	43	4146
2026-01-24 14:25:58.79	336.52	50.73	-36.5	-37.8	17.4	0.00e+00	0	62	0	3208642560	43	4214
2026-01-24 14:25:59.80	336.60	50.39	-36.4	-37.7	17.5	0.00e+00	0	61	0	3215982592	43	4157
2026-01-24 14:26:00.81	336.68	50.05	-36.4	-37.7	17.5	0.00e+00	0	61	0	3223322624	43	4146
2026-01-24 14:26:01.82	336.76	49.71	-36.3	-37.5	17.6	0.00e+00	0	62	0	3230662656	43	4098
2026-01-24 14:26:02.83	336.84	49.38	-36.4	-37.6	17.4	0.00e+00	0	62	0	3238002688	43	4131
2026-01-24 14:26:03.84	336.91	49.04	-36.3	-37.6	17.6	0.00e+00	0	62	0	3245342720	43	4111
2026-01-24 14:26:04.85	336.99	48.71	-36.3	-37.5	17.6	0.00e+00	0	62	0	3252682752	43	4097
2026-01-24 14:26:05.86	337.06	48.39	-36.2	-37.4	17.7	0.00e+00	0	61	0	3258974208	43	4040
2026-01-24 14:26:06.87	337.13	48.06	-36.1	-37.3	17.9	0.00e+00	0	62	0	3267362816	43	3974
2026-01-24 14:26:07.88	337.20	47.74	-35.9	-37.1	18.0	0.00e+00	0	62	0	3274702848	42	4122
2026-01-24 14:26:08.89	337.27	47.42	-35.8	-37.0	18.1	0.00e+00	0	61	0	3280994304	42	4078
2026-01-24 14:26:09.91	337.34	47.09	-35.7	-36.9	18.3	0.00e+00	0	61	0	3288334336	42	4005
2026-01-24 14:26:10.92	337.41	46.78	-35.6	-36.8	18.3	0.00e+00	0	62	0	3295674368	42	3959
2026-01-24 14:26:11.93	337.47	46.47	-35.5	-36.7	18.4	0.00e+00	0	62	0	3303014400	42	3928
2026-01-24 14:26:12.94	337.53	46.15	-35.6	-36.7	18.1	0.00e+00	0	62	0	3310354432	41	4187
2026-01-24 14:26:13.95	337.60	45.84	-35.6	-36.7	18.4	0.00e+00	0	61	0	3317694464	41	4180
2026-01-24 14:26:14.96	337.66	45.54	-35.5	-36.7	18.4	0.00e+00	0	61	0	3325034496	41	4161
2026-01-24 14:26:15.97	337.72	45.23	-35.5	-36.6	18.5	0.00e+00	0	61	0	3332374528	41	4123
2026-01-24 14:26:16.98	337.78	44.93	-35.4	-36.6	18.5	0.00e+00	0	62	0	3339714560	41	4116
2026-01-24 14:26:17.99	337.84	44.63	-35.4	-36.5	18.5	0.00e+00	0	61	0	3347054592	41	4076
2026-01-24 14:26:18.99	337.89	44.34	-35.2	-36.3	18.7	0.00e+00	0	61	0	3354394624	41	3998
2026-01-24 14:26:20.01	337.95	44.04	-35.2	-36.3	18.7	0.00e+00	0	61	0	3361734656	41	3989
2026-01-24 14:26:21.01	338.00	43.75	-35.1	-36.3	18.8	0.00e+00	0	61	0	3369074688	41	3961
2026-01-24 14:26:22.02	338.06	43.46	-35.1	-36.2	18.9	0.00e+00	0	62	0	3376414720	41	3939
2026-01-24 14:26:23.03	338.11	43.17	-35.3	-36.4	18.3	0.00e+00	0	62	0	3383754752	41	4022
2026-01-24 14:26:24.04	338.16	42.88	-35.3	-36.4	18.6	0.00e+00	0	61	0	3391094784	41	4031
2026-01-24 14:26:25.05	338.22	42.60	-35.4	-36.5	18.5	0.00e+00	0	62	0	3398434816	41	4084
2026-01-24 14:26:26.06	338.27	42.32	-35.5	-36.7	18.4	0.00e+00	0	61	0	3404726272	41	4146
2026-01-24 14:26:27.07	338.32	42.04	-35.4	-36.6	18.5	0.00e+00	0	62	0	3412066304	41	4112
2026-01-24 14:26:28.08	338.37	41.76	-35.4	-36.6	18.5	0.00e+00	0	62	0	3420454912	41	4102
2026-01-24 14:26:29.09	338.41	41.48	-35.4	-36.5	18.5	0.00e+00	0	61	0	3426746368	41	4098
2026-01-24 14:26:30.10	338.46	41.21	-35.4	-36.5	18.5	0.00e+00	0	62	0	3434086400	41	4090
2026-01-24 14:26:31.11	338.51	40.94	-35.4	-36.5	18.4	0.00e+00	0	62	0	3441426432	41	4092
2026-01-24 14:26:32.12	338.56	40.67	-35.5	-36.6	18.4	0.00e+00	0	62	0	3448766464	41	4145
2026-01-24 14:26:33.13	338.60	40.40	-35.5	-36.6	18.2	0.00e+00	0	62	0	3456106496	41	4123
2026-01-24 14:26:34.14	338.65	40.13	-35.6	-36.8	18.2	0.00e+00	0	62	0	3463446528	41	4216
2026-01-24 14:26:35.15	338.69	39.87	-35.7	-36.9	18.1	0.00e+00	0	62	0	3470786560	41	4279
2026-01-24 14:26:36.16	338.73	39.61	-35.8	-37.0	18.0	0.00e+00	0	62	0	3478126592	41	4340
2026-01-24 14:26:37.17	338.78	39.35	-35.8	-37.0	18.0	0.00e+00	0	61	0	3485466624	41	4325
2026-01-24 14:26:38.18	338.82	39.09	-35.8	-37.0	18.1	0.00e+00	0	62	0	3492806656	41	4315
2026-01-24 14:26:39.19	338.86	38.83	-35.8	-37.0	18.0	0.00e+00	0	62	0	3500146688	41	4327
2026-01-24 14:26:40.20	338.90	38.58	-35.5	-36.7	18.3	0.00e+00	0	62	0	3507486720	41	4164
2026-01-24 14:26:41.21	338.94	38.33	-35.3	-36.4	18.6	0.00e+00	0	61	0	3514826752	41	4036
2026-01-24 14:26:42.22	338.98	38.08	-35.2	-36.3	18.7	0.00e+00	0	62	0	3522166784	41	3980
2026-01-24 14:26:43.23	339.02	37.83	-35.0	-36.0	18.9	0.00e+00	0	62	0	3529506816	40	4094
2026-01-24 14:26:44.24	339.06	37.58	-34.9	-36.0	18.9	0.00e+00	0	62	0	3536846848	40	4070
2026-01-24 14:26:45.25	339.10	37.33	-34.8	-35.9	19.1	0.00e+00	0	62	0	3544186880	40	4023
2026-01-24 14:26:46.25	339.14	37.09	-34.9	-36.0	19.0	0.00e+00	0	61	0	3551526912	40	4053
2026-01-24 14:26:47.26	339.17	36.85	-34.8	-35.9	19.0	0.00e+00	0	62	0	3557818368	40	4017
2026-01-24 14:26:48.27	339.21	36.61	-34.7	-35.8	19.1	0.00e+00	0	61	0	3565158400	40	3984
2026-01-24 14:26:49.28	339.25	36.38	-34.8	-35.9	19.1	0.00e+00	0	61	0	3573547008	40	4010
2026-01-24 14:26:50.29	339.28	36.14	-34.8	-35.9	19.1	0.00e+00	0	61	0	3579838464	40	4008
2026-01-24 14:26:51.30	339.32	35.90	-34.8	-35.9	19.1	0.00e+00	0	61	0	3587178496	40	4019
2026-01-24 14:26:52.31	339.35	35.67	-34.8	-35.9	19.0	0.00e+00	0	62	0	3594518528	40	4042
2026-01-24 14:26:53.32	339.39	35.44	-34.8	-35.9	19.1	0.00e+00	0	62	0	3601858560	40	4028
2026-01-24 14:26:54.33	339.42	35.21	-34.8	-35.9	19.0	0.00e+00	0	62	0	3609198592	40	4026
2026-01-24 14:26:55.34	339.46	34.98	-34.8	-35.9	19.0	0.00e+00	0	62	0	3616538624	40	4039
2026-01-24 14:26:56.35	339.49	34.76	-34.8	-35.9	19.1	0.00e+00	0	62	0	3623878656	40	4021
2026-01-24 14:26:57.36	339.52	34.53	-34.8	-35.9	19.0	0.00e+00	0	62	0	3631218688	40	4033
2026-01-24 14:26:58.37	339.56	34.31	-34.7	-35.8	19.1	0.00e+00	0	62	0	3638558720	40	3990
2026-01-24 14:26:59.38	339.59	34.09	-34.8	-35.9	19.1	0.00e+00	0	62	0	3645898752	40	4011
2026-01-24 14:27:00.39	339.62	33.87	-34.7	-35.8	19.1	0.00e+00	0	62	0	3653238784	40	3992
2026-01-24 14:27:01.40	339.65	33.65	-34.8	-35.9	19.0	0.00e+00	0	61	0	3660578816	40	4012
2026-01-24 14:27:02.41	339.68	33.43	-34.9	-35.9	18.9	0.00e+00	0	62	0	3667918848	40	4049
2026-01-24 14:27:03.41	339.71	33.22	-34.7	-35.8	19.1	0.00e+00	0	61	0	3675258880	40	3981
2026-01-24 14:27:04.42	339.74	33.01	-34.7	-35.8	18.9	0.00e+00	0	62	0	3682598912	40	3981
2026-01-24 14:27:05.43	339.77	32.80	-34.8	-35.8	19.0	0.00e+00	0	62	0	3689938944	40	4002
2026-01-24 14:27:06.44	339.80	32.58	-34.8	-35.9	19.0	0.00e+00	0	62	0	3697278976	40	4021
2026-01-24 14:27:07.45	339.83	32.38	-34.8	-35.9	18.9	0.00e+00	0	61	0	3703570432	40	4040
2026-01-24 14:27:08.46	339.86	32.17	-34.8	-35.9	18.9	0.00e+00	0	61	0	3710910464	40	4040
2026-01-24 14:27:09.47	339.89	31.96	-34.8	-35.9	18.9	0.00e+00	0	62	0	3718250496	40	4049
2026-01-24 14:27:10.48	339.92	31.76	-34.9	-36.1	18.8	0.00e+00	0	61	0	3725590528	40	4107
2026-01-24 14:27:11.49	339.95	31.55	-34.9	-36.0	18.8	0.00e+00	0	62	0	3732930560	40	4092
2026-01-24 14:27:12.50	339.97	31.35	-35.0	-36.1	18.7	0.00e+00	0	62	0	3740270592	40	4122
2026-01-24 14:27:13.52	340.00	31.15	-35.0	-36.1	18.7	0.00e+00	0	62	0	3747610624	40	4133
2026-01-24 14:27:14.53	340.03	30.95	-35.0	-36.1	18.5	0.00e+00	0	62	0	3754950656	40	4143
2026-01-24 14:27:15.53	340.05	30.75	-35.1	-36.3	18.6	0.00e+00	0	62	0	3762290688	40	4211
2026-01-24 14:27:16.54	340.08	30.56	-35.1	-36.3	18.6	0.00e+00	0	62	0	3769630720	40	4202
2026-01-24 14:27:17.55	340.11	30.36	-35.2	-36.4	18.5	0.00e+00	0	61	0	3776970752	40	4245
2026-01-24 14:27:18.56	340.13	30.17	-35.3	-36.5	18.4	0.00e+00	0	61	0	3784310784	40	4310
2026-01-24 14:27:19.57	340.16	29.97	-35.2	-36.4	18.4	0.00e+00	0	62	0	3791650816	40	4262
2026-01-24 14:27:20.58	340.18	29.78	-35.3	-36.5	18.4	0.00e+00	0	62	0	3798990848	40	4298
2026-01-24 14:27:21.59	340.21	29.59	-35.3	-36.5	18.3	0.00e+00	0	62	0	3806330880	40	4315
2026-01-24 14:27:22.60	340.23	29.40	-35.4	-36.5	18.2	0.00e+00	0	62	0	3813670912	40	4338
2026-01-24 14:27:23.61	340.26	29.22	-35.4	-36.6	18.2	0.00e+00	0	62	0	3821010944	40	4351
2026-01-24 14:27:24.62	340.28	29.03	-35.4	-36.6	18.2	0.00e+00	0	62	0	3828350976	40	4356
2026-01-24 14:27:25.63	340.31	28.85	-35.5	-36.7	18.1	0.00e+00	0	62	0	3835691008	40	4396
2026-01-24 14:27:26.64	340.33	28.66	-35.6	-36.8	17.9	0.00e+00	0	62	0	3843031040	40	4460
2026-01-24 14:27:27.65	340.36	28.48	-35.6	-36.8	18.0	0.00e+00	0	62	0	3850371072	40	4452
2026-01-24 14:27:28.66	340.38	28.30	-35.7	-36.9	17.9	0.00e+00	0	62	0	3856662528	40	4505
2026-01-24 14:27:29.68	340.40	28.12	-35.8	-37.0	17.8	0.00e+00	0	62	0	3865051136	41	4303
2026-01-24 14:27:30.69	340.43	27.94	-35.6	-36.8	17.9	0.00e+00	0	62	0	3872391168	41	4215
2026-01-24 14:27:31.70	340.45	27.76	-35.6	-36.8	18.0	0.00e+00	0	62	0	3878682624	41	4198
2026-01-24 14:27:32.71	340.47	27.58	-35.6	-36.8	17.9	0.00e+00	0	62	0	3886022656	41	4205
2026-01-24 14:27:33.72	340.50	27.41	-35.7	-36.9	17.8	0.00e+00	0	62	0	3893362688	41	4257
2026-01-24 14:27:34.72	340.52	27.23	-35.6	-36.8	17.9	0.00e+00	0	62	0	3900702720	41	4242
2026-01-24 14:27:35.73	340.54	27.06	-35.5	-36.7	18.0	0.00e+00	0	62	0	3908042752	41	4185
2026-01-24 14:27:36.74	340.56	26.89	-35.5	-36.7	18.0	0.00e+00	0	62	0	3915382784	41	4183
2026-01-24 14:27:37.75	340.58	26.72	-35.4	-36.6	18.1	0.00e+00	0	62	0	3922722816	41	4116
2026-01-24 14:27:38.76	340.60	26.55	-35.4	-36.6	18.0	0.00e+00	0	61	0	3930062848	41	4117
2026-01-24 14:27:39.77	340.63	26.38	-35.4	-36.6	18.0	0.00e+00	0	62	0	3937402880	41	4107
2026-01-24 14:27:40.78	340.65	26.21	-35.4	-36.6	18.0	0.00e+00	0	62	0	3944742912	41	4136
2026-01-24 14:27:41.79	340.67	26.04	-35.4	-36.6	18.0	0.00e+00	0	62	0	3952082944	41	4104
2026-01-24 14:27:42.80	340.69	25.88	-35.4	-36.7	17.9	0.00e+00	0	61	0	3959422976	41	4146
2026-01-24 14:27:43.81	340.71	25.71	-35.3	-36.5	18.0	0.00e+00	0	62	0	3966763008	41	4059
2026-01-24 14:27:44.82	340.73	25.55	-35.2	-36.4	18.1	0.00e+00	0	61	0	3974103040	41	4007
2026-01-24 14:27:45.83	340.75	25.38	-35.1	-36.3	18.1	0.00e+00	0	61	0	3981443072	41	3987
2026-01-24 14:27:46.84	340.77	25.22	-35.2	-36.3	18.1	0.00e+00	0	62	0	3988783104	41	4004
2026-01-24 14:27:47.85	340.79	25.06	-35.1	-36.2	18.1	0.00e+00	0	62	0	3996123136	41	3956
2026-01-24 14:27:48.86	340.81	24.90	-35.1	-36.3	18.1	0.00e+00	0	62	0	4002414592	41	3965
2026-01-24 14:27:49.87	340.83	24.74	-35.1	-36.3	18.1	0.00e+00	0	61	0	4009754624	41	3979
2026-01-24 14:27:50.88	340.85	24.58	-35.1	-36.3	18.1	0.00e+00	0	62	0	4018143232	41	3976
2026-01-24 14:27:51.89	340.87	24.43	-35.2	-36.4	18.0	0.00e+00	0	62	0	4024434688	41	4016
2026-01-24 14:27:52.90	340.89	24.27	-35.1	-36.3	18.0	0.00e+00	0	62	0	4031774720	41	3980
2026-01-24 14:27:53.91	340.91	24.12	-35.0	-36.2	18.1	0.00e+00	0	62	0	4039114752	41	3937
2026-01-24 14:27:54.92	340.93	23.96	-35.1	-36.3	18.0	0.00e+00	0	62	0	4046454784	41	3980
2026-01-24 14:27:55.93	340.95	23.81	-35.1	-36.4	17.9	0.00e+00	0	62	0	4053794816	41	4007
2026-01-24 14:27:56.94	340.96	23.66	-35.1	-36.3	18.0	0.00e+00	0	62	0	4061134848	41	3966
2026-01-24 14:27:57.95	340.98	23.50	-35.1	-36.3	17.8	0.00e+00	0	62	0	4068474880	41	3996
2026-01-24 14:27:58.96	341.00	23.35	-35.1	-36.3	17.9	0.00e+00	0	62	0	4075814912	41	3998
2026-01-24 14:27:59.97	341.02	23.20	-35.3	-36.5	17.6	0.00e+00	0	62	0	4083154944	41	4092
2026-01-24 14:28:00.97	341.04	23.06	-35.2	-36.4	17.7	0.00e+00	0	62	0	4090494976	41	4042
2026-01-24 14:28:01.98	341.05	22.91	-35.1	-36.4	17.7	0.00e+00	0	62	0	4097835008	41	4008
2026-01-24 14:28:02.99	341.07	22.76	-35.3	-36.6	17.4	0.00e+00	0	62	0	4105175040	41	4106
2026-01-24 14:28:04.00	341.09	22.61	-35.5	-36.8	17.1	0.00e+00	0	62	0	4112515072	41	4234
2026-01-24 14:28:05.01	341.11	22.47	-35.2	-36.4	17.3	0.00e+00	0	62	0	4119855104	41	4047
2026-01-24 14:28:06.02	341.13	22.32	-35.1	-36.4	17.1	0.00e+00	0	61	0	4127195136	41	4020
2026-01-24 14:28:07.03	341.14	22.18	-35.2	-36.5	16.8	0.00e+00	0	62	0	4134535168	41	4095
2026-01-24 14:28:08.04	341.16	22.04	-35.1	-36.5	16.8	0.00e+00	0	62	0	4141875200	41	4053
2026-01-24 14:28:09.05	341.18	21.90	-34.8	-36.1	17.0	0.00e+00	0	61	0	4149215232	40	4130
2026-01-24 14:28:10.05	341.19	21.76	-34.7	-36.0	17.0	0.00e+00	0	62	0	4155506688	40	4083
2026-01-24 14:28:11.06	341.21	21.61	-34.9	-36.2	16.8	0.00e+00	0	62	0	4162846720	40	4162
2026-01-24 14:28:12.07	341.23	21.47	-35.2	-36.5	16.3	0.00e+00	0	61	0	4171235328	40	4336
2026-01-24 14:28:13.09	341.24	21.33	-35.5	-36.9	15.9	0.00e+00	0	62	0	4177526784	40	4538
2026-01-24 14:28:14.09	341.26	21.20	-35.8	-37.3	15.4	0.00e+00	0	62	0	4184866816	41	4464
2026-01-24 14:28:15.11	341.28	21.06	-36.3	-37.9	14.6	0.00e+00	0	62	0	4192206848	42	4534
2026-01-24 14:28:16.12	341.29	20.92	-36.9	-38.8	13.6	1.10e-06	0	61	0	4199546880	43	4715
2026-01-24 14:28:17.13	341.31	20.78	-37.9	-40.2	12.1	1.17e-04	0	61	0	4206886912	45	4928
2026-01-24 14:28:18.14	341.33	20.65	-38.7	-41.5	10.5	1.89e-03	0	62	0	4214226944	47	5116
2026-01-24 14:28:19.15	341.34	20.51	-39.7	-43.3	8.6	2.68e-02	0	62	0	4221566976	49	5617
2026-01-24 14:28:20.16	341.36	20.38	-40.4	-44.9	6.9	1.34e-01	0	62	0	4228907008	50	6402
2026-01-24 14:28:21.17	341.37	20.25	-41.0	-46.9	5.2	5.60e-01	0	62	0	4234149888	51	7613
2026-01-24 14:28:22.18	341.39	20.11	-41.3	-48.4	4.4	8.20e-01	0	62	0	4235198464	52	8538
2026-01-24 14:28:23.19	341.40	19.98	-41.5	-50.0	3.9	8.40e-01	0	62	104	4235198464	52	10215
2026-01-24 14:28:24.20	341.42	19.85	-41.5	-50.9	3.8	8.45e-01	0	62	104	4235198464	52	11378
2026-01-24 14:28:25.20	341.43	19.72	-41.6	-51.6	3.8	8.46e-01	0	62	104	4235198464	52	12276
2026-01-24 14:28:26.21	341.45	19.59	-41.6	-51.9	3.8	8.46e-01	0	62	104	4235198464	52	12667
2026-01-24 14:28:27.22	341.47	19.46	-41.9	-52.1	3.8	8.46e-01	0	62	104	4235198464	53	12274
2026-01-24 14:28:28.23	341.48	19.34	-41.1	-51.8	3.8	8.46e-01	0	62	104	4235198464	53	11866
2026-01-24 14:28:29.24	341.50	19.21	-41.5	-52.2	3.8	8.46e-01	0	62	104	4235198464	53	12408
2026-01-24 14:28:30.25	341.51	19.08	-41.3	-52.0	3.8	8.47e-01	0	61	104	4235198464	53	12114
2026-01-24 14:28:31.26	341.52	18.95	-41.1	-51.7	3.8	8.48e-01	0	62	104	4235198464	53	11765
2026-01-24 14:28:32.27	341.54	18.83	-41.6	-52.3	3.8	8.46e-01	0	62	104	4235198464	53	12561
2026-01-24 14:28:33.28	341.55	18.70	-41.2	-51.9	3.8	8.46e-01	0	62	104	4235198464	53	12033
2026-01-24 14:28:34.29	341.57	18.58	-41.1	-51.8	3.8	8.45e-01	0	62	104	4235198464	53	11874
2026-01-24 14:28:35.30	341.58	18.45	-41.1	-51.8	3.8	8.47e-01	0	62	104	4235198464	53	11933
2026-01-24 14:28:36.31	341.60	18.33	-41.0	-51.7	3.8	8.46e-01	0	62	104	4235198464	53	11809
2026-01-24 14:28:37.32	341.61	18.21	-41.0	-51.7	3.8	8.47e-01	0	62	104	4235198464	53	11759
2026-01-24 14:28:38.33	341.63	18.09	-40.9	-51.6	3.8	8.48e-01	0	62	104	4235198464	52	12315
2026-01-24 14:28:39.34	341.64	17.97	-40.9	-51.6	3.8	8.47e-01	0	62	104	4235198464	52	12373
2026-01-24 14:28:40.35	341.65	17.84	-41.2	-51.9	3.8	8.46e-01	0	62	104	4235198464	52	12806
2026-01-24 14:28:41.36	341.67	17.72	-41.1	-51.8	3.8	8.46e-01	0	62	104	4235198464	52	12622
2026-01-24 14:28:42.37	341.68	17.60	-41.1	-51.8	3.8	8.47e-01	0	62	104	4235198464	52	12642
2026-01-24 14:28:43.38	341.70	17.49	-40.9	-51.6	3.8	8.46e-01	0	62	104	4235198464	52	12329
2026-01-24 14:28:44.39	341.71	17.37	-41.1	-51.9	3.8	8.46e-01	0	62	104	4235198464	52	12702
2026-01-24 14:28:45.40	341.72	17.25	-40.9	-51.7	3.8	8.46e-01	0	62	104	4235198464	52	12404
2026-01-24 14:28:46.41	341.74	17.13	-41.0	-51.8	3.8	8.45e-01	0	62	104	4235198464	52	12583
2026-01-24 14:28:47.42	341.75	17.01	-40.8	-51.6	3.8	8.47e-01	0	62	104	4235198464	52	12297
2026-01-24 14:28:48.43	341.76	16.90	-41.0	-51.7	3.8	8.46e-01	0	62	104	4235198464	52	12474
2026-01-24 14:28:49.44	341.78	16.78	-40.8	-51.6	3.8	8.46e-01	0	62	104	4235198464	52	12303
2026-01-24 14:28:50.44	341.79	16.67	-40.9	-51.7	3.8	8.46e-01	0	62	104	4235198464	52	12477
2026-01-24 14:28:51.45	341.80	16.55	-40.9	-51.6	3.8	8.46e-01	0	62	104	4235198464	52	12357
