passes_logs/2026/01/24/R2.0S_Moscow/R2.0S_Moscow__20260124_222728_NOAA_20_JPSS-1_rec.log

#Pass ID: 20260124_222728_NOAA 20 (JPSS-1)
#Satellite: NOAA 20 (JPSS-1)
#Configuration: NOAA 20
#almurnet v.1.7.20251203
#Start time: 2026-01-24 22:27:29

#Version: 2.2.20231116
#Station: R2.0S_Moscow
#Location: 37.707566 lon 55.798166 lat
#TLE: 1 43013U 17073A   26024.42258823  .00000183  00000+0  10747-3 0  9990
#TLE: 2 43013  98.7646 325.2629 0001105  25.8644 334.2587 14.19539754424075

#Time	Az	El	Level	Level2	SNR	BER	BlckErr	Temp	State	Recorded	gain1	gain2
2026-01-24 22:27:29.03	23.02	2.01	-42.8	-57.3	3.8	1.49e+00	0	52	0	0	57	18804
2026-01-24 22:27:30.03	23.08	2.07	-42.8	-57.3	3.8	1.49e+00	0	53	104	0	57	18845
2026-01-24 22:27:31.04	23.14	2.13	-42.8	-57.3	3.8	1.49e+00	0	53	104	0	57	18777
2026-01-24 22:27:32.05	23.20	2.19	-42.8	-57.3	3.8	1.49e+00	0	53	104	0	57	18745
2026-01-24 22:27:33.06	23.26	2.25	-42.8	-57.2	3.8	1.49e+00	0	53	104	0	57	18729
2026-01-24 22:27:34.07	23.32	2.31	-42.8	-57.3	3.8	1.49e+00	0	53	104	0	57	18741
2026-01-24 22:27:35.08	23.38	2.36	-42.8	-57.3	3.8	1.49e+00	0	53	104	0	57	18748
2026-01-24 22:27:36.09	23.44	2.42	-42.8	-57.3	3.8	1.49e+00	0	53	104	0	57	18733
2026-01-24 22:27:37.10	23.50	2.48	-42.8	-57.2	3.8	1.49e+00	0	53	104	0	57	18712
2026-01-24 22:27:38.11	23.56	2.54	-42.8	-57.2	3.8	1.49e+00	0	53	104	0	57	18723
2026-01-24 22:27:39.12	23.62	2.60	-42.8	-57.2	3.8	1.49e+00	0	53	104	0	57	18717
2026-01-24 22:27:40.13	23.68	2.66	-42.8	-57.3	3.8	1.49e+00	0	53	104	0	57	18777
2026-01-24 22:27:41.14	23.74	2.72	-42.8	-57.3	3.8	1.49e+00	0	53	104	0	57	18747
2026-01-24 22:27:42.15	23.81	2.78	-42.8	-57.3	3.8	1.49e+00	0	54	104	0	57	18755
2026-01-24 22:27:43.16	23.87	2.84	-42.8	-57.3	3.8	1.49e+00	0	54	104	0	57	18775
2026-01-24 22:27:44.17	23.93	2.90	-42.8	-57.3	3.8	1.49e+00	0	54	104	0	57	18748
2026-01-24 22:27:45.18	23.99	2.96	-42.8	-57.3	3.8	1.49e+00	0	54	104	0	57	18743
2026-01-24 22:27:46.19	24.06	3.02	-42.8	-57.3	3.8	1.49e+00	0	54	104	0	57	18775
2026-01-24 22:27:47.20	24.12	3.08	-42.8	-57.3	3.8	1.49e+00	0	54	104	0	57	18760
2026-01-24 22:27:48.21	24.18	3.14	-42.8	-57.3	3.8	1.49e+00	0	54	104	0	57	18794
2026-01-24 22:27:49.22	24.25	3.20	-42.8	-57.3	3.8	1.49e+00	0	54	104	0	57	18763
2026-01-24 22:27:50.23	24.31	3.26	-42.8	-57.3	3.8	1.49e+00	0	54	104	0	57	18816
2026-01-24 22:27:51.25	24.37	3.32	-42.8	-57.3	3.8	1.49e+00	0	54	104	0	57	18860
2026-01-24 22:27:52.26	24.44	3.38	-42.8	-57.3	3.8	1.49e+00	0	54	104	0	57	18798
2026-01-24 22:27:53.27	24.50	3.44	-42.8	-57.3	3.8	1.49e+00	0	54	104	0	57	18790
2026-01-24 22:27:54.28	24.57	3.50	-42.8	-57.3	3.8	1.49e+00	0	54	104	0	57	18810
2026-01-24 22:27:55.29	24.63	3.56	-42.8	-57.3	3.8	1.49e+00	0	54	104	0	57	18804
2026-01-24 22:27:56.30	24.70	3.62	-42.8	-57.3	3.8	1.49e+00	0	55	104	0	57	18770
2026-01-24 22:27:57.31	24.76	3.68	-42.8	-57.3	3.8	1.49e+00	0	54	104	0	57	18805
2026-01-24 22:27:58.32	24.83	3.74	-42.8	-57.3	3.8	1.49e+00	0	55	104	0	57	18753
2026-01-24 22:27:59.33	24.89	3.80	-42.8	-57.2	3.8	1.49e+00	0	55	104	0	57	18721
2026-01-24 22:28:00.34	24.96	3.87	-42.8	-57.3	3.8	1.49e+00	0	55	104	0	57	18745
2026-01-24 22:28:01.35	25.03	3.93	-42.8	-57.2	3.8	1.49e+00	0	55	104	0	57	18726
2026-01-24 22:28:02.37	25.09	3.99	-42.8	-57.3	3.8	1.49e+00	0	55	104	0	57	18775
2026-01-24 22:28:03.38	25.16	4.05	-42.8	-57.3	3.8	1.49e+00	0	55	104	0	57	18763
2026-01-24 22:28:04.39	25.23	4.11	-42.8	-57.3	3.8	1.49e+00	0	55	104	0	57	18757
2026-01-24 22:28:05.40	25.29	4.17	-42.8	-57.3	3.8	1.49e+00	0	55	104	0	57	18779
2026-01-24 22:28:06.41	25.36	4.24	-42.8	-57.2	3.8	1.49e+00	0	55	104	0	57	18695
2026-01-24 22:28:07.42	25.43	4.30	-42.8	-57.3	3.8	1.49e+00	0	55	104	0	57	18756
2026-01-24 22:28:08.43	25.50	4.36	-42.8	-57.3	3.8	1.49e+00	0	55	104	0	57	18737
2026-01-24 22:28:09.44	25.57	4.42	-42.8	-57.3	3.8	1.49e+00	0	55	104	0	57	18744
2026-01-24 22:28:10.45	25.63	4.49	-42.8	-57.3	3.8	1.49e+00	0	55	104	0	57	18780
2026-01-24 22:28:11.46	25.70	4.55	-42.8	-57.3	3.8	1.49e+00	0	55	104	0	57	18753
2026-01-24 22:28:12.47	25.77	4.61	-42.8	-57.3	3.8	1.49e+00	0	55	104	0	57	18746
2026-01-24 22:28:13.48	25.84	4.67	-42.8	-57.3	3.8	1.49e+00	0	55	104	0	57	18735
2026-01-24 22:28:14.50	25.91	4.74	-42.8	-57.2	3.8	1.49e+00	0	55	104	0	57	18724
2026-01-24 22:28:15.50	25.98	4.80	-42.8	-57.2	3.8	1.49e+00	0	55	104	0	57	18729
2026-01-24 22:28:16.52	26.05	4.86	-42.8	-57.2	3.8	1.49e+00	0	55	104	0	57	18706
2026-01-24 22:28:17.53	26.12	4.93	-42.8	-57.3	3.8	1.49e+00	0	56	104	0	57	18732
2026-01-24 22:28:18.54	26.20	4.99	-42.8	-57.3	3.8	1.49e+00	0	56	104	0	57	18740
2026-01-24 22:28:19.55	26.27	5.05	-42.8	-57.2	3.8	1.49e+00	0	56	104	0	57	18712
2026-01-24 22:28:20.56	26.34	5.12	-42.8	-57.3	3.8	1.49e+00	0	56	104	0	57	18756
2026-01-24 22:28:21.57	26.41	5.18	-42.8	-57.3	3.8	1.49e+00	0	56	104	0	57	18759
2026-01-24 22:28:22.58	26.48	5.24	-42.8	-57.2	3.8	1.49e+00	0	56	104	0	57	18694
2026-01-24 22:28:23.59	26.55	5.31	-42.8	-57.2	3.8	1.49e+00	0	56	104	0	57	18642
2026-01-24 22:28:24.60	26.63	5.37	-42.8	-57.3	3.8	1.49e+00	0	56	104	0	57	18758
2026-01-24 22:28:25.61	26.70	5.44	-42.8	-57.2	3.8	1.49e+00	0	56	104	0	57	18711
2026-01-24 22:28:26.62	26.77	5.50	-42.8	-57.2	3.8	1.49e+00	0	56	104	0	57	18680
2026-01-24 22:28:27.63	26.85	5.57	-42.8	-57.3	3.8	1.49e+00	0	56	104	0	57	18734
2026-01-24 22:28:28.64	26.92	5.63	-42.8	-57.3	3.8	1.49e+00	0	56	104	0	57	18749
2026-01-24 22:28:29.65	27.00	5.70	-42.8	-57.2	3.8	1.49e+00	0	56	104	0	57	18683
2026-01-24 22:28:30.66	27.07	5.76	-42.8	-57.2	3.8	1.49e+00	0	56	104	0	57	18718
2026-01-24 22:28:31.67	27.14	5.82	-42.8	-57.2	3.8	1.49e+00	0	56	104	0	57	18650
2026-01-24 22:28:32.68	27.22	5.89	-42.8	-57.2	3.8	1.49e+00	0	56	104	0	57	18555
2026-01-24 22:28:33.69	27.30	5.96	-42.8	-57.1	3.8	1.49e+00	0	57	104	0	57	18502
2026-01-24 22:28:34.71	27.37	6.02	-42.8	-57.2	3.8	1.49e+00	0	56	104	0	57	18587
2026-01-24 22:28:35.72	27.45	6.09	-42.8	-57.1	3.8	1.49e+00	0	56	104	0	57	18480
2026-01-24 22:28:36.73	27.52	6.15	-42.8	-57.2	3.8	1.49e+00	0	57	104	0	57	18534
2026-01-24 22:28:37.74	27.60	6.22	-42.8	-57.1	3.8	1.49e+00	0	56	104	0	57	18421
2026-01-24 22:28:38.75	27.68	6.28	-42.8	-57.1	3.8	1.49e+00	0	56	104	0	57	18451
2026-01-24 22:28:39.76	27.76	6.35	-42.8	-57.1	3.8	1.49e+00	0	57	104	0	57	18449
2026-01-24 22:28:40.77	27.83	6.42	-42.8	-57.1	3.8	1.49e+00	0	57	104	0	57	18375
2026-01-24 22:28:41.78	27.91	6.48	-42.7	-56.8	3.8	1.49e+00	0	57	104	0	57	17874
2026-01-24 22:28:42.79	27.99	6.55	-42.7	-56.4	3.8	1.49e+00	0	57	104	0	57	17015
2026-01-24 22:28:43.80	28.07	6.61	-42.7	-55.7	3.8	1.49e+00	0	57	104	0	57	15695
2026-01-24 22:28:44.81	28.15	6.68	-42.6	-55.3	3.8	1.49e+00	0	57	104	0	57	14935
2026-01-24 22:28:45.82	28.23	6.75	-42.6	-55.2	3.8	1.49e+00	0	57	104	0	57	14733
2026-01-24 22:28:46.83	28.31	6.81	-42.6	-55.0	3.9	1.48e+00	0	57	104	0	57	14446
2026-01-24 22:28:47.84	28.39	6.88	-42.7	-55.5	3.8	1.49e+00	0	57	104	0	57	15401
2026-01-24 22:28:48.85	28.47	6.95	-42.7	-55.6	3.8	1.49e+00	0	57	104	0	57	15540
2026-01-24 22:28:49.86	28.55	7.02	-42.7	-55.4	3.8	1.49e+00	0	57	104	0	57	15092
2026-01-24 22:28:50.87	28.63	7.08	-42.7	-56.1	3.8	1.49e+00	0	57	104	0	57	16324
2026-01-24 22:28:51.88	28.71	7.15	-42.7	-56.6	3.8	1.49e+00	0	57	104	0	57	17364
2026-01-24 22:28:52.89	28.79	7.22	-42.7	-56.3	3.8	1.49e+00	0	57	104	0	57	16741
2026-01-24 22:28:53.90	28.88	7.29	-42.7	-55.7	3.8	1.49e+00	0	57	104	0	57	15718
2026-01-24 22:28:54.91	28.96	7.35	-42.6	-54.6	3.9	1.49e+00	0	57	104	0	57	13863
2026-01-24 22:28:55.92	29.04	7.42	-42.5	-52.9	4.4	1.37e+00	71	57	0	0	56	12086
2026-01-24 22:28:56.93	29.12	7.49	-42.2	-50.9	5.5	7.90e-01	0	57	0	2097152	56	9565
2026-01-24 22:28:57.95	29.21	7.56	-41.8	-49.2	6.6	2.72e-01	0	58	0	4194304	55	8351
2026-01-24 22:28:58.96	29.29	7.63	-41.6	-48.3	7.5	1.29e-01	0	57	0	5242880	55	7481
2026-01-24 22:28:59.96	29.38	7.70	-41.5	-47.9	7.8	9.15e-02	0	58	0	7340032	54	7564
2026-01-24 22:29:00.97	29.46	7.76	-41.5	-48.1	7.6	9.36e-02	0	57	0	9437184	54	7775
2026-01-24 22:29:01.98	29.55	7.83	-41.5	-48.3	7.5	1.09e-01	0	57	0	11534336	54	7926
2026-01-24 22:29:02.99	29.63	7.90	-41.4	-47.7	8.1	8.55e-02	0	58	0	13631488	54	7408
2026-01-24 22:29:04.00	29.72	7.97	-41.4	-47.5	8.2	5.63e-02	0	58	0	14680064	54	7261
2026-01-24 22:29:05.02	29.81	8.04	-41.4	-47.7	8.1	5.74e-02	0	58	0	16777216	54	7379
2026-01-24 22:29:06.03	29.89	8.11	-41.7	-48.2	7.8	6.38e-02	0	58	0	18874368	54	7834
2026-01-24 22:29:07.04	29.98	8.18	-41.8	-56.3	3.8	1.49e+00	0	58	104	19922944	54	19843
2026-01-24 22:29:08.05	30.07	8.25	-42.5	-50.2	6.5	8.67e-01	0	58	0	19922944	55	9336
2026-01-24 22:29:09.06	30.15	8.32	-42.5	-49.9	6.6	1.24e-01	0	58	0	20971520	55	9058
2026-01-24 22:29:10.07	30.24	8.39	-42.2	-50.7	5.8	3.06e-02	0	58	0	23068672	55	9883
2026-01-24 22:29:11.08	30.33	8.46	-41.6	-47.1	9.2	2.95e-02	0	58	0	25165824	55	6545
2026-01-24 22:29:12.09	30.42	8.53	-41.5	-46.8	9.5	2.02e-02	0	58	0	27262976	55	6340
2026-01-24 22:29:13.10	30.51	8.60	-41.5	-46.7	9.6	1.24e-02	0	58	0	29360128	54	6640
2026-01-24 22:29:14.11	30.60	8.67	-41.5	-46.8	9.6	1.25e-02	0	58	0	30408704	54	6720
2026-01-24 22:29:15.11	30.69	8.74	-41.5	-46.8	9.5	1.32e-02	0	58	0	32505856	54	6708
2026-01-24 22:29:16.12	30.78	8.81	-41.4	-46.4	10.0	9.41e-03	0	58	0	34603008	54	6409
2026-01-24 22:29:17.13	30.87	8.88	-41.4	-46.4	10.0	7.55e-03	0	58	0	36700160	54	6411
2026-01-24 22:29:18.14	30.96	8.95	-41.5	-46.5	10.1	6.79e-03	0	58	0	38797312	54	6465
2026-01-24 22:29:19.15	31.06	9.03	-41.5	-46.4	10.3	7.26e-03	0	58	0	39845888	54	6400
2026-01-24 22:29:20.16	31.15	9.10	-41.6	-46.5	10.2	6.34e-03	0	58	0	41943040	54	6466
2026-01-24 22:29:21.17	31.24	9.17	-41.5	-46.3	10.4	5.42e-03	0	58	0	44040192	54	6320
2026-01-24 22:29:22.18	31.33	9.24	-41.5	-46.4	10.2	4.66e-03	0	58	0	46137344	54	6416
2026-01-24 22:29:23.19	31.43	9.31	-41.4	-46.2	10.6	4.07e-03	0	58	0	48234496	54	6219
2026-01-24 22:29:24.20	31.52	9.38	-41.4	-46.0	10.7	3.41e-03	0	58	0	49283072	54	6117
2026-01-24 22:29:25.21	31.62	9.46	-41.5	-46.4	10.4	3.99e-03	0	58	0	51380224	54	6350
2026-01-24 22:29:26.22	31.71	9.53	-41.5	-46.3	10.5	3.48e-03	0	58	0	53477376	54	6276
2026-01-24 22:29:27.23	31.81	9.60	-41.5	-46.2	10.7	3.24e-03	0	58	0	55574528	54	6228
2026-01-24 22:29:28.23	31.90	9.67	-41.4	-46.1	10.8	2.68e-03	0	58	0	57671680	54	6137
2026-01-24 22:29:29.24	32.00	9.74	-41.5	-46.2	10.7	3.16e-03	0	58	0	58720256	54	6206
2026-01-24 22:29:30.25	32.10	9.82	-41.5	-46.2	10.7	2.89e-03	0	59	0	60817408	54	6207
2026-01-24 22:29:31.26	32.19	9.89	-41.5	-46.2	10.6	3.71e-03	0	58	0	62914560	54	6255
2026-01-24 22:29:32.27	32.29	9.96	-41.6	-46.4	10.4	3.31e-03	0	58	0	65011712	54	6410
2026-01-24 22:29:33.28	32.39	10.04	-41.6	-46.4	10.5	4.11e-03	0	58	0	67108864	54	6416
2026-01-24 22:29:34.29	32.49	10.11	-41.7	-46.5	10.4	4.92e-03	0	58	0	69206016	54	6493
2026-01-24 22:29:35.30	32.59	10.18	-41.7	-46.6	10.3	4.89e-03	0	59	0	70254592	54	6528
2026-01-24 22:29:36.31	32.69	10.26	-41.8	-46.7	10.3	5.42e-03	0	58	0	72351744	54	6577
2026-01-24 22:29:37.32	32.79	10.33	-41.8	-46.7	10.3	4.59e-03	0	58	0	74448896	54	6620
2026-01-24 22:29:38.33	32.89	10.41	-41.8	-46.8	10.2	5.72e-03	0	58	0	76546048	54	6649
2026-01-24 22:29:39.34	32.99	10.48	-41.8	-46.6	10.5	4.42e-03	0	59	0	78643200	54	6538
2026-01-24 22:29:40.35	33.09	10.55	-41.8	-46.6	10.5	4.50e-03	0	58	0	79691776	54	6518
2026-01-24 22:29:41.35	33.19	10.63	-41.7	-46.4	10.7	3.32e-03	0	58	0	81788928	54	6417
2026-01-24 22:29:42.36	33.30	10.70	-41.7	-46.4	10.7	3.20e-03	0	59	0	83886080	54	6379
2026-01-24 22:29:43.37	33.40	10.78	-41.7	-46.2	10.9	2.50e-03	0	59	0	85983232	54	6257
2026-01-24 22:29:44.38	33.50	10.85	-41.7	-46.2	10.9	2.44e-03	0	58	0	88080384	54	6249
2026-01-24 22:29:45.39	33.61	10.93	-41.7	-46.3	10.9	2.41e-03	0	59	0	89128960	54	6277
2026-01-24 22:29:46.40	33.71	11.00	-41.7	-46.2	11.0	1.93e-03	0	59	0	91226112	54	6253
2026-01-24 22:29:47.41	33.82	11.08	-41.7	-46.3	10.9	1.95e-03	0	59	0	93323264	54	6305
2026-01-24 22:29:48.42	33.92	11.15	-41.7	-46.2	11.0	1.96e-03	0	59	0	95420416	54	6263
2026-01-24 22:29:49.43	34.03	11.23	-41.7	-46.2	11.0	1.65e-03	0	59	0	97517568	54	6270
2026-01-24 22:29:50.44	34.14	11.30	-41.6	-45.9	11.3	1.26e-03	0	59	0	98566144	54	6054
2026-01-24 22:29:51.45	34.24	11.38	-41.7	-46.1	11.2	1.34e-03	0	59	0	100663296	54	6133
2026-01-24 22:29:52.46	34.35	11.46	-41.6	-45.9	11.4	1.12e-03	0	59	0	102760448	54	6022
2026-01-24 22:29:53.47	34.46	11.53	-41.6	-45.9	11.4	9.85e-04	0	59	0	104857600	54	6039
2026-01-24 22:29:54.48	34.57	11.61	-41.7	-46.0	11.3	1.11e-03	0	59	0	106954752	54	6113
2026-01-24 22:29:55.49	34.68	11.69	-41.6	-45.8	11.6	9.93e-04	0	59	0	108003328	54	5967
2026-01-24 22:29:56.50	34.79	11.76	-41.6	-45.8	11.5	7.26e-04	0	59	0	110100480	54	5972
2026-01-24 22:29:57.51	34.90	11.84	-41.6	-45.8	11.5	7.85e-04	0	59	0	112197632	54	5990
2026-01-24 22:29:58.52	35.01	11.92	-41.6	-45.9	11.5	8.98e-04	0	59	0	114294784	54	6014
2026-01-24 22:29:59.52	35.12	11.99	-41.6	-45.9	11.5	9.11e-04	0	59	0	116391936	54	6041
2026-01-24 22:30:00.53	35.23	12.07	-41.6	-45.9	11.5	8.42e-04	0	59	0	117440512	54	6044
2026-01-24 22:30:01.54	35.34	12.15	-41.7	-45.9	11.5	8.35e-04	0	59	0	119537664	54	6060
2026-01-24 22:30:02.55	35.46	12.22	-41.6	-45.9	11.5	7.82e-04	0	59	0	121634816	54	6015
2026-01-24 22:30:03.56	35.57	12.30	-41.6	-45.9	11.5	6.70e-04	0	59	0	123731968	54	6007
2026-01-24 22:30:04.57	35.69	12.38	-41.6	-45.8	11.6	7.07e-04	0	59	0	125829120	54	5936
2026-01-24 22:30:05.58	35.80	12.46	-41.6	-45.8	11.6	6.60e-04	0	59	0	126877696	54	5969
2026-01-24 22:30:06.59	35.92	12.54	-41.6	-45.8	11.7	6.90e-04	0	59	0	128974848	54	5925
2026-01-24 22:30:07.60	36.03	12.61	-41.6	-45.8	11.6	5.54e-04	0	59	0	131072000	54	5954
2026-01-24 22:30:08.61	36.15	12.69	-41.6	-45.9	11.6	6.16e-04	0	59	0	133169152	54	6006
2026-01-24 22:30:09.62	36.27	12.77	-41.7	-45.9	11.6	7.26e-04	0	59	0	135266304	54	6027
2026-01-24 22:30:10.63	36.39	12.85	-41.7	-45.9	11.6	7.48e-04	0	59	0	136314880	54	6033
2026-01-24 22:30:11.63	36.50	12.93	-41.7	-45.8	11.7	6.50e-04	0	59	0	138412032	54	5985
2026-01-24 22:30:12.65	36.62	13.01	-41.7	-45.9	11.5	7.63e-04	0	59	0	140509184	54	6025
2026-01-24 22:30:13.65	36.74	13.09	-41.7	-45.9	11.6	7.15e-04	0	59	0	142606336	54	6060
2026-01-24 22:30:14.66	36.86	13.17	-41.8	-46.0	11.5	7.43e-04	0	59	0	144703488	54	6119
2026-01-24 22:30:15.67	36.98	13.25	-41.8	-46.1	11.4	9.26e-04	0	59	0	145752064	54	6183
2026-01-24 22:30:16.68	37.11	13.33	-41.8	-46.2	11.3	1.08e-03	0	59	0	147849216	54	6253
2026-01-24 22:30:17.69	37.23	13.41	-41.9	-46.3	11.2	1.20e-03	0	59	0	149946368	54	6341
2026-01-24 22:30:18.70	37.35	13.48	-41.9	-46.2	11.2	1.20e-03	0	59	0	152043520	54	6273
2026-01-24 22:30:19.71	37.48	13.57	-41.8	-46.1	11.3	1.15e-03	0	59	0	154140672	54	6196
2026-01-24 22:30:20.72	37.60	13.65	-41.8	-46.0	11.5	8.60e-04	0	59	0	155189248	54	6111
2026-01-24 22:30:21.73	37.73	13.73	-41.8	-46.0	11.5	7.46e-04	0	59	0	157286400	54	6107
2026-01-24 22:30:22.74	37.85	13.81	-41.7	-45.9	11.7	6.90e-04	0	59	0	159383552	54	6025
2026-01-24 22:30:23.75	37.98	13.89	-41.7	-45.8	11.8	5.10e-04	0	59	0	161480704	54	5963
2026-01-24 22:30:24.76	38.10	13.97	-41.7	-45.8	11.8	4.90e-04	0	59	0	163577856	54	5961
2026-01-24 22:30:25.77	38.23	14.05	-41.7	-45.9	11.8	5.03e-04	0	59	0	165675008	54	5998
2026-01-24 22:30:26.78	38.36	14.13	-41.8	-45.9	11.7	5.19e-04	0	59	0	166723584	54	6028
2026-01-24 22:30:27.79	38.49	14.21	-41.9	-46.2	11.5	7.06e-04	0	59	0	168820736	54	6208
2026-01-24 22:30:28.80	38.62	14.29	-41.8	-46.0	11.6	7.03e-04	0	59	0	170917888	54	6089
2026-01-24 22:30:29.81	38.75	14.37	-41.7	-45.8	11.8	5.80e-04	0	60	0	173015040	54	5985
2026-01-24 22:30:30.82	38.88	14.46	-41.7	-45.9	11.7	5.16e-04	0	59	0	175112192	54	6026
2026-01-24 22:30:31.83	39.01	14.54	-41.7	-45.8	11.8	5.29e-04	0	59	0	176160768	54	5971
2026-01-24 22:30:32.84	39.14	14.62	-41.7	-45.9	11.8	4.96e-04	0	59	0	178257920	54	6006
2026-01-24 22:30:33.85	39.28	14.70	-41.7	-45.8	11.9	4.98e-04	0	60	0	180355072	54	5935
2026-01-24 22:30:34.86	39.41	14.78	-41.7	-45.7	11.9	4.03e-04	0	60	0	182452224	54	5914
2026-01-24 22:30:35.87	39.55	14.87	-41.6	-45.7	12.0	3.93e-04	0	59	0	184549376	54	5863
2026-01-24 22:30:36.88	39.68	14.95	-41.6	-45.5	12.1	2.85e-04	0	59	0	185597952	54	5763
2026-01-24 22:30:37.88	39.82	15.03	-41.6	-45.5	12.1	2.48e-04	0	60	0	187695104	54	5768
2026-01-24 22:30:38.89	39.95	15.11	-41.6	-45.5	12.1	2.87e-04	0	60	0	189792256	54	5781
2026-01-24 22:30:39.90	40.09	15.20	-41.6	-45.5	12.2	2.04e-04	0	60	0	191889408	54	5764
2026-01-24 22:30:40.91	40.23	15.28	-41.6	-45.5	12.2	2.16e-04	0	59	0	193986560	54	5774
2026-01-24 22:30:41.92	40.37	15.36	-41.6	-45.5	12.2	2.35e-04	0	60	0	195035136	54	5767
2026-01-24 22:30:42.93	40.51	15.45	-41.6	-45.6	12.1	2.25e-04	0	60	0	197132288	54	5797
2026-01-24 22:30:43.94	40.65	15.53	-41.6	-45.6	12.1	2.49e-04	0	60	0	199229440	54	5820
2026-01-24 22:30:44.95	40.79	15.61	-41.7	-45.7	12.0	2.68e-04	0	60	0	201326592	54	5911
2026-01-24 22:30:45.96	40.93	15.70	-41.8	-45.8	12.0	3.29e-04	0	59	0	203423744	54	5937
2026-01-24 22:30:46.97	41.08	15.78	-41.7	-45.7	12.0	3.47e-04	0	60	0	204472320	54	5876
2026-01-24 22:30:47.98	41.22	15.86	-41.7	-45.7	12.1	2.56e-04	0	60	0	206569472	54	5874
2026-01-24 22:30:48.99	41.36	15.95	-41.7	-45.6	12.1	2.81e-04	0	60	0	208666624	54	5835
2026-01-24 22:30:50.00	41.51	16.03	-41.6	-45.5	12.3	2.31e-04	0	60	0	210763776	54	5724
2026-01-24 22:30:51.00	41.65	16.12	-41.6	-45.5	12.3	1.73e-04	0	60	0	212860928	54	5744
2026-01-24 22:30:52.01	41.80	16.20	-41.7	-45.6	12.2	2.67e-04	0	60	0	213909504	54	5828
2026-01-24 22:30:53.03	41.95	16.29	-41.6	-45.4	12.4	1.94e-04	0	60	0	216006656	54	5692
2026-01-24 22:30:54.03	42.10	16.37	-41.5	-45.3	12.5	1.27e-04	0	60	0	218103808	54	5597
2026-01-24 22:30:55.04	42.24	16.45	-41.5	-45.2	12.6	9.61e-05	0	60	0	220200960	54	5539
2026-01-24 22:30:56.05	42.39	16.54	-41.5	-45.3	12.6	9.61e-05	0	60	0	222298112	54	5599
2026-01-24 22:30:57.06	42.55	16.62	-41.5	-45.2	12.6	1.03e-04	0	60	0	223346688	54	5550
2026-01-24 22:30:58.07	42.70	16.71	-41.5	-45.2	12.6	7.40e-05	0	60	0	225443840	54	5535
2026-01-24 22:30:59.08	42.85	16.79	-41.4	-45.1	12.7	9.38e-05	0	60	0	227540992	54	5491
2026-01-24 22:31:00.09	43.00	16.88	-41.4	-45.0	12.7	6.48e-05	0	60	0	229638144	54	5457
2026-01-24 22:31:01.08	43.15	16.96	-41.4	-45.1	12.8	6.63e-05	0	60	0	231735296	54	5471
2026-01-24 22:31:02.09	43.31	17.05	-41.5	-45.1	12.7	7.85e-05	0	60	0	233832448	54	5514
2026-01-24 22:31:03.10	43.47	17.14	-41.5	-45.1	12.8	7.17e-05	0	60	0	234881024	54	5489
2026-01-24 22:31:04.11	43.62	17.22	-41.4	-45.1	12.8	6.63e-05	0	60	0	236978176	54	5487
2026-01-24 22:31:05.12	43.78	17.31	-41.5	-45.2	12.7	5.79e-05	0	60	0	239075328	54	5547
2026-01-24 22:31:06.13	43.94	17.39	-41.4	-45.0	12.8	6.48e-05	0	60	0	241172480	54	5462
2026-01-24 22:31:07.14	44.10	17.48	-41.5	-45.2	12.7	7.01e-05	0	60	0	243269632	54	5539
2026-01-24 22:31:08.15	44.26	17.56	-41.4	-45.0	12.8	5.11e-05	0	60	0	244318208	54	5445
2026-01-24 22:31:09.16	44.42	17.65	-41.5	-45.1	12.8	5.49e-05	0	60	0	246415360	54	5473
2026-01-24 22:31:10.17	44.58	17.74	-41.4	-45.0	12.9	5.26e-05	0	60	0	248512512	54	5411
2026-01-24 22:31:11.18	44.74	17.82	-41.4	-45.0	12.9	4.80e-05	0	60	0	250609664	54	5423
2026-01-24 22:31:12.19	44.91	17.91	-41.4	-45.0	12.9	4.95e-05	0	60	0	252706816	54	5425
2026-01-24 22:31:13.20	45.07	18.00	-41.4	-44.9	13.0	4.73e-05	0	60	0	253755392	54	5367
2026-01-24 22:31:14.21	45.24	18.08	-41.4	-45.0	12.9	4.95e-05	0	60	0	255852544	54	5420
2026-01-24 22:31:15.22	45.40	18.17	-41.4	-45.0	12.9	4.34e-05	0	60	0	257949696	54	5418
2026-01-24 22:31:16.23	45.57	18.26	-41.4	-45.0	12.8	5.03e-05	0	60	0	260046848	54	5452
2026-01-24 22:31:17.24	45.74	18.34	-41.4	-44.9	13.0	4.80e-05	0	60	0	262144000	54	5398
2026-01-24 22:31:18.25	45.91	18.43	-41.4	-44.9	13.1	3.28e-05	0	60	0	263192576	54	5350
2026-01-24 22:31:19.25	46.08	18.52	-41.3	-44.8	13.1	3.12e-05	0	60	0	265289728	54	5333
2026-01-24 22:31:20.26	46.25	18.60	-41.4	-44.9	13.1	3.50e-05	0	60	0	267386880	54	5353
2026-01-24 22:31:21.28	46.42	18.69	-41.4	-44.9	13.1	3.58e-05	0	60	0	269484032	54	5352
2026-01-24 22:31:22.28	46.60	18.78	-41.3	-44.8	13.2	2.05e-05	0	60	0	271581184	54	5303
2026-01-24 22:31:23.29	46.77	18.87	-41.3	-44.8	13.1	3.43e-05	0	60	0	272629760	54	5330
2026-01-24 22:31:24.30	46.95	18.95	-41.4	-44.9	13.1	1.98e-05	0	60	0	274726912	54	5352
2026-01-24 22:31:25.31	47.12	19.04	-41.3	-44.7	13.2	2.21e-05	0	60	0	276824064	54	5270
2026-01-24 22:31:26.32	47.30	19.13	-41.2	-44.6	13.3	2.44e-05	0	60	0	278921216	54	5191
2026-01-24 22:31:27.33	47.48	19.22	-41.3	-44.8	13.2	1.60e-05	0	60	0	281018368	54	5299
2026-01-24 22:31:28.34	47.66	19.30	-41.2	-44.6	13.3	2.44e-05	0	60	0	282066944	54	5200
2026-01-24 22:31:29.35	47.84	19.39	-41.2	-44.6	13.4	1.98e-05	0	60	0	284164096	54	5160
2026-01-24 22:31:30.36	48.02	19.48	-41.1	-44.4	13.6	6.80e-06	0	60	0	286261248	54	5096
2026-01-24 22:31:31.37	48.20	19.57	-41.2	-44.6	13.4	1.14e-05	0	60	0	288358400	54	5184
2026-01-24 22:31:32.38	48.38	19.65	-41.2	-44.4	13.5	9.10e-06	0	60	0	290455552	54	5098
2026-01-24 22:31:33.39	48.57	19.74	-41.1	-44.4	13.6	1.22e-05	0	60	0	291504128	54	5072
2026-01-24 22:31:34.40	48.75	19.83	-41.2	-44.6	13.4	1.44e-05	0	60	0	293601280	54	5167
2026-01-24 22:31:35.41	48.94	19.92	-41.2	-44.4	13.5	1.06e-05	0	60	0	295698432	54	5098
2026-01-24 22:31:36.42	49.13	20.00	-41.1	-44.4	13.6	1.06e-05	0	60	0	297795584	54	5057
2026-01-24 22:31:37.43	49.31	20.09	-41.1	-44.5	13.5	1.29e-05	0	60	0	299892736	54	5109
2026-01-24 22:31:38.44	49.50	20.18	-41.1	-44.4	13.6	9.90e-06	0	60	0	301989888	54	5065
2026-01-24 22:31:39.45	49.69	20.27	-41.1	-44.3	13.7	8.30e-06	0	60	0	303038464	54	5023
2026-01-24 22:31:40.46	49.89	20.36	-41.0	-44.2	13.8	5.30e-06	0	60	0	305135616	54	4979
2026-01-24 22:31:41.47	50.08	20.44	-41.0	-44.2	13.9	6.10e-06	0	60	0	307232768	54	4929
2026-01-24 22:31:42.48	50.27	20.53	-41.0	-44.1	13.9	5.30e-06	0	60	0	309329920	53	5188
2026-01-24 22:31:43.48	50.47	20.62	-41.0	-44.1	13.9	3.80e-06	0	60	0	311427072	53	5217
2026-01-24 22:31:44.50	50.66	20.71	-40.9	-44.0	14.0	4.50e-06	0	60	0	312475648	53	5110
2026-01-24 22:31:45.51	50.86	20.79	-40.9	-44.0	14.0	1.50e-06	0	60	0	314572800	53	5128
2026-01-24 22:31:46.51	51.06	20.88	-40.9	-44.1	13.9	4.50e-06	0	60	0	316669952	53	5179
2026-01-24 22:31:47.52	51.26	20.97	-41.0	-44.2	13.8	3.00e-06	0	60	0	318767104	53	5220
2026-01-24 22:31:48.53	51.46	21.06	-41.0	-44.3	13.7	4.50e-06	0	60	0	320864256	53	5286
2026-01-24 22:31:49.54	51.66	21.14	-41.1	-44.4	13.6	4.50e-06	0	60	0	321912832	53	5380
2026-01-24 22:31:50.55	51.86	21.23	-41.2	-44.5	13.5	7.60e-06	0	60	0	324009984	53	5404
2026-01-24 22:31:51.56	52.06	21.32	-41.2	-44.5	13.5	6.80e-06	0	60	0	326107136	53	5413
2026-01-24 22:31:52.57	52.27	21.41	-41.1	-44.4	13.6	9.90e-06	0	60	0	328204288	53	5381
2026-01-24 22:31:53.58	52.47	21.49	-41.1	-44.4	13.6	9.10e-06	0	60	0	330301440	53	5387
2026-01-24 22:31:54.59	52.68	21.58	-41.2	-44.5	13.5	8.30e-06	0	60	0	331350016	53	5432
2026-01-24 22:31:55.60	52.89	21.67	-41.2	-44.5	13.5	1.44e-05	0	60	0	333447168	53	5448
2026-01-24 22:31:56.61	53.10	21.75	-41.1	-44.4	13.6	9.90e-06	0	60	0	335544320	53	5393
2026-01-24 22:31:57.62	53.31	21.84	-41.2	-44.5	13.5	1.22e-05	0	60	0	337641472	53	5422
2026-01-24 22:31:58.63	53.52	21.93	-41.2	-44.5	13.5	1.14e-05	0	60	0	339738624	53	5406
2026-01-24 22:31:59.64	53.73	22.02	-41.1	-44.4	13.6	8.30e-06	0	60	0	340787200	53	5374
2026-01-24 22:32:00.64	53.95	22.10	-41.2	-44.5	13.5	1.06e-05	0	60	0	342884352	53	5403
2026-01-24 22:32:01.65	54.16	22.19	-41.1	-44.4	13.7	1.06e-05	0	60	0	344981504	53	5344
2026-01-24 22:32:02.66	54.38	22.27	-41.1	-44.3	13.7	4.50e-06	0	60	0	347078656	53	5329
2026-01-24 22:32:03.67	54.59	22.36	-41.2	-44.5	13.6	8.30e-06	0	60	0	349175808	53	5426
2026-01-24 22:32:04.68	54.81	22.45	-41.1	-44.3	13.7	4.50e-06	0	60	0	350224384	53	5312
2026-01-24 22:32:05.69	55.03	22.53	-41.0	-44.2	13.8	3.80e-06	0	60	0	352321536	53	5262
2026-01-24 22:32:06.70	55.25	22.62	-41.0	-44.1	13.9	2.20e-06	0	60	0	354418688	53	5199
2026-01-24 22:32:07.71	55.48	22.71	-41.0	-44.1	13.9	6.10e-06	0	60	0	356515840	53	5201
2026-01-24 22:32:08.72	55.70	22.79	-41.0	-44.2	13.9	3.80e-06	0	60	0	358612992	53	5221
2026-01-24 22:32:09.72	55.92	22.88	-41.0	-44.1	13.9	8.30e-06	0	60	0	359661568	53	5200
2026-01-24 22:32:10.73	56.15	22.96	-41.0	-44.2	13.8	4.50e-06	0	60	0	361758720	53	5234
2026-01-24 22:32:11.74	56.38	23.05	-41.1	-44.3	13.7	5.30e-06	0	61	0	363855872	53	5337
2026-01-24 22:32:12.75	56.60	23.13	-41.2	-44.5	13.6	7.60e-06	0	60	0	365953024	53	5437
2026-01-24 22:32:13.76	56.83	23.22	-41.2	-44.6	13.5	1.44e-05	0	60	0	368050176	53	5478
2026-01-24 22:32:14.77	57.06	23.30	-41.4	-44.7	13.3	1.75e-05	0	60	0	369098752	53	5582
2026-01-24 22:32:15.78	57.30	23.39	-41.3	-44.7	13.4	2.74e-05	0	60	0	371195904	53	5536
2026-01-24 22:32:16.79	57.53	23.47	-41.3	-44.7	13.3	1.52e-05	0	61	0	373293056	53	5567
2026-01-24 22:32:17.80	57.76	23.55	-41.3	-44.7	13.4	1.44e-05	0	60	0	375390208	53	5545
2026-01-24 22:32:18.81	58.00	23.64	-41.4	-44.8	13.3	1.22e-05	0	61	0	377487360	53	5620
2026-01-24 22:32:19.81	58.23	23.72	-41.4	-44.8	13.3	1.44e-05	0	60	0	378535936	53	5638
2026-01-24 22:32:20.82	58.47	23.80	-41.4	-44.9	13.2	2.97e-05	0	60	0	380633088	53	5677
2026-01-24 22:32:21.83	58.71	23.89	-41.4	-44.9	13.1	2.13e-05	0	60	0	382730240	53	5696
2026-01-24 22:32:22.84	58.95	23.97	-41.4	-44.9	13.1	2.44e-05	0	60	0	384827392	53	5697
2026-01-24 22:32:23.85	59.20	24.05	-41.5	-45.0	13.0	2.74e-05	0	60	0	386924544	53	5782
2026-01-24 22:32:24.86	59.44	24.14	-41.5	-45.0	13.0	4.11e-05	0	60	0	387973120	53	5783
2026-01-24 22:32:25.87	59.68	24.22	-41.5	-45.1	12.9	4.57e-05	0	60	0	390070272	53	5819
2026-01-24 22:32:26.88	59.93	24.30	-41.6	-45.1	12.9	4.42e-05	0	61	0	392167424	53	5852
2026-01-24 22:32:27.89	60.18	24.38	-41.6	-45.1	12.9	3.81e-05	0	60	0	394264576	53	5847
2026-01-24 22:32:28.90	60.42	24.46	-41.5	-45.1	13.0	5.03e-05	0	61	0	396361728	53	5815
2026-01-24 22:32:29.91	60.67	24.54	-41.6	-45.1	12.9	3.73e-05	0	61	0	398458880	53	5852
2026-01-24 22:32:30.92	60.92	24.62	-41.5	-45.0	13.1	4.34e-05	0	60	0	399507456	53	5754
2026-01-24 22:32:31.93	61.18	24.71	-41.5	-45.1	13.0	3.05e-05	0	60	0	401604608	53	5792
2026-01-24 22:32:32.94	61.43	24.79	-41.5	-45.0	13.0	3.28e-05	0	61	0	403701760	53	5783
2026-01-24 22:32:33.94	61.68	24.86	-41.6	-45.2	12.8	4.27e-05	0	61	0	405798912	53	5916
2026-01-24 22:32:34.95	61.94	24.94	-41.8	-45.5	12.6	7.78e-05	0	61	0	407896064	54	5741
2026-01-24 22:32:35.96	62.20	25.02	-41.9	-45.7	12.4	1.42e-04	0	61	0	408944640	54	5875
2026-01-24 22:32:36.97	62.45	25.10	-41.9	-45.8	12.2	1.88e-04	0	60	0	411041792	54	5975
2026-01-24 22:32:37.98	62.71	25.18	-42.0	-46.0	12.0	2.47e-04	0	61	0	413138944	54	6069
2026-01-24 22:32:38.99	62.97	25.26	-42.1	-46.1	12.0	3.45e-04	0	61	0	415236096	54	6168
2026-01-24 22:32:40.00	63.24	25.34	-42.1	-46.2	11.9	4.10e-04	0	61	0	417333248	54	6211
2026-01-24 22:32:41.01	63.50	25.41	-42.1	-46.2	11.8	4.36e-04	0	61	0	418381824	54	6240
2026-01-24 22:32:42.02	63.76	25.49	-42.1	-46.2	11.8	4.41e-04	0	61	0	420478976	54	6258
2026-01-24 22:32:43.03	64.03	25.57	-42.2	-46.3	11.7	4.90e-04	0	60	0	422576128	54	6333
2026-01-24 22:32:44.04	64.30	25.64	-42.2	-46.3	11.7	5.29e-04	0	61	0	424673280	54	6335
2026-01-24 22:32:45.05	64.57	25.72	-42.2	-46.3	11.7	5.43e-04	0	60	0	426770432	54	6338
2026-01-24 22:32:46.06	64.84	25.79	-42.2	-46.4	11.7	6.40e-04	0	61	0	427819008	55	6006
2026-01-24 22:32:47.07	65.11	25.87	-42.2	-46.4	11.6	6.79e-04	0	61	0	429916160	55	6052
2026-01-24 22:32:48.08	65.38	25.94	-42.3	-46.5	11.6	7.44e-04	0	61	0	432013312	55	6094
2026-01-24 22:32:49.09	65.65	26.01	-42.4	-46.6	11.4	9.25e-04	0	61	0	434110464	55	6198
2026-01-24 22:32:50.10	65.93	26.09	-42.4	-46.7	11.4	9.91e-04	0	61	0	436207616	55	6244
2026-01-24 22:32:51.11	66.20	26.16	-42.5	-47.0	11.0	1.33e-03	0	61	0	437256192	55	6470
2026-01-24 22:32:52.12	66.48	26.23	-42.5	-47.1	11.0	1.92e-03	0	60	0	439353344	55	6530
2026-01-24 22:32:53.13	66.76	26.30	-42.6	-47.2	10.9	2.35e-03	0	61	0	441450496	55	6577
2026-01-24 22:32:54.14	67.04	26.37	-42.5	-47.1	10.9	2.22e-03	0	61	0	443547648	55	6550
2026-01-24 22:32:55.15	67.32	26.45	-42.5	-47.1	10.9	2.21e-03	0	61	0	445644800	55	6538
2026-01-24 22:32:56.16	67.60	26.52	-42.5	-47.1	10.9	2.28e-03	0	61	0	446693376	55	6539
2026-01-24 22:32:57.17	67.89	26.58	-42.6	-47.1	10.9	2.11e-03	0	60	0	448790528	55	6565
2026-01-24 22:32:58.18	68.17	26.65	-42.5	-47.1	10.9	2.28e-03	0	61	0	450887680	55	6560
2026-01-24 22:32:59.19	68.46	26.72	-42.6	-47.3	10.7	2.56e-03	0	61	0	452984832	55	6656
2026-01-24 22:33:00.20	68.74	26.79	-42.6	-47.3	10.7	2.83e-03	0	61	0	455081984	55	6672
2026-01-24 22:33:01.20	69.03	26.86	-42.6	-47.3	10.7	3.07e-03	0	61	0	456130560	55	6718
2026-01-24 22:33:02.21	69.32	26.92	-42.7	-47.4	10.6	3.22e-03	0	61	0	458227712	55	6780
2026-01-24 22:33:03.22	69.61	26.99	-42.6	-47.3	10.7	3.04e-03	0	61	0	460324864	55	6703
2026-01-24 22:33:04.23	69.90	27.05	-42.6	-47.2	10.8	2.90e-03	0	61	0	462422016	55	6640
2026-01-24 22:33:05.24	70.20	27.12	-42.6	-47.2	10.9	2.25e-03	0	61	0	464519168	55	6593
2026-01-24 22:33:06.25	70.49	27.18	-42.5	-47.1	10.9	2.07e-03	0	61	0	466616320	55	6535
2026-01-24 22:33:07.26	70.78	27.25	-42.6	-47.2	10.9	2.18e-03	0	61	0	467664896	55	6624
2026-01-24 22:33:08.27	71.08	27.31	-42.6	-47.2	10.8	2.74e-03	0	61	0	469762048	55	6628
2026-01-24 22:33:09.28	71.38	27.37	-42.7	-47.4	10.7	2.93e-03	0	61	0	471859200	55	6738
2026-01-24 22:33:10.29	71.68	27.43	-42.7	-47.4	10.6	2.93e-03	0	61	0	473956352	55	6790
2026-01-24 22:33:11.30	71.98	27.49	-42.8	-47.6	10.6	3.23e-03	0	61	0	476053504	56	6524
2026-01-24 22:33:12.30	72.28	27.55	-42.9	-47.7	10.5	3.53e-03	0	61	0	477102080	56	6587
2026-01-24 22:33:13.31	72.58	27.61	-42.8	-47.6	10.7	3.23e-03	0	61	0	479199232	56	6507
2026-01-24 22:33:14.32	72.88	27.67	-42.8	-47.3	11.0	2.43e-03	0	61	0	481296384	56	6330
2026-01-24 22:33:15.33	73.19	27.73	-42.8	-47.3	11.0	2.07e-03	0	61	0	483393536	56	6347
2026-01-24 22:33:16.34	73.49	27.79	-42.9	-47.6	10.7	2.23e-03	0	61	0	485490688	56	6496
2026-01-24 22:33:17.35	73.80	27.84	-43.0	-47.8	10.5	3.21e-03	0	60	0	486539264	56	6700
2026-01-24 22:33:18.36	74.11	27.90	-43.1	-48.3	10.0	5.83e-03	0	61	0	488636416	56	7042
2026-01-24 22:33:19.37	74.41	27.95	-43.3	-48.6	9.6	1.00e-02	0	61	0	490733568	57	6920
2026-01-24 22:33:20.38	74.72	28.01	-43.4	-49.0	9.2	1.64e-02	0	61	0	492830720	57	7261
2026-01-24 22:33:21.39	75.04	28.06	-43.5	-49.2	9.0	2.32e-02	0	61	0	494927872	57	7455
2026-01-24 22:33:22.40	75.35	28.11	-43.5	-49.3	8.9	2.69e-02	0	61	0	495976448	57	7502
2026-01-24 22:33:23.41	75.66	28.17	-43.5	-49.2	9.0	3.01e-02	0	61	0	498073600	57	7442
2026-01-24 22:33:24.42	75.97	28.22	-43.4	-49.2	9.0	2.32e-02	0	61	0	500170752	57	7408
2026-01-24 22:33:25.43	76.29	28.27	-43.4	-48.9	9.3	2.01e-02	0	61	0	502267904	57	7188
2026-01-24 22:33:26.44	76.60	28.32	-43.4	-49.0	9.3	1.69e-02	0	61	0	504365056	57	7205
2026-01-24 22:33:27.45	76.92	28.37	-43.4	-48.9	9.4	1.67e-02	0	61	0	505413632	57	7151
2026-01-24 22:33:28.46	77.24	28.41	-43.3	-48.6	9.7	1.35e-02	0	61	0	507510784	57	6901
2026-01-24 22:33:29.46	77.55	28.46	-43.2	-48.6	9.6	1.13e-02	0	61	0	509607936	57	6889
2026-01-24 22:33:30.47	77.87	28.51	-43.2	-48.4	9.9	1.06e-02	0	61	0	511705088	57	6741
2026-01-24 22:33:31.48	78.19	28.55	-43.1	-48.3	9.9	8.92e-03	0	61	0	513802240	57	6666
2026-01-24 22:33:32.49	78.52	28.59	-43.1	-48.2	10.1	6.57e-03	0	61	0	514850816	57	6634
2026-01-24 22:33:33.50	78.84	28.64	-43.1	-48.2	10.1	6.74e-03	0	61	0	516947968	57	6606
2026-01-24 22:33:34.51	79.16	28.68	-43.1	-48.1	10.2	7.33e-03	0	61	0	519045120	57	6568
2026-01-24 22:33:35.52	79.49	28.72	-43.1	-48.3	9.9	6.81e-03	0	61	0	521142272	57	6683
2026-01-24 22:33:36.53	79.81	28.76	-43.1	-48.3	9.9	8.42e-03	0	61	0	523239424	57	6652
2026-01-24 22:33:37.54	80.14	28.80	-43.2	-48.5	9.7	1.10e-02	0	61	0	524288000	57	6868
2026-01-24 22:33:38.55	80.46	28.84	-43.3	-48.8	9.5	1.29e-02	0	61	0	526385152	57	7048
2026-01-24 22:33:39.56	80.79	28.88	-43.4	-49.0	9.3	1.80e-02	0	61	0	528482304	57	7212
2026-01-24 22:33:40.57	81.12	28.92	-43.4	-49.0	9.2	1.97e-02	0	61	0	530579456	57	7287
2026-01-24 22:33:41.58	81.45	28.95	-43.5	-49.1	9.1	1.99e-02	0	61	0	532676608	57	7338
2026-01-24 22:33:42.59	81.77	28.99	-43.4	-49.0	9.2	2.16e-02	0	61	0	534773760	57	7225
2026-01-24 22:33:43.60	82.10	29.02	-43.4	-49.0	9.3	2.04e-02	0	61	0	535822336	57	7208
2026-01-24 22:33:44.61	82.44	29.05	-43.4	-49.0	9.3	1.83e-02	0	61	0	537919488	57	7214
2026-01-24 22:33:45.62	82.77	29.08	-43.4	-48.9	9.4	1.86e-02	0	61	0	540016640	57	7179
2026-01-24 22:33:46.63	83.10	29.12	-43.2	-48.5	9.8	1.11e-02	0	61	0	542113792	57	6858
2026-01-24 22:33:47.64	83.43	29.15	-43.2	-48.3	10.0	9.26e-03	0	61	0	544210944	57	6703
2026-01-24 22:33:48.65	83.77	29.17	-43.1	-48.1	10.2	7.43e-03	0	61	0	545259520	57	6517
2026-01-24 22:33:49.66	84.10	29.20	-43.0	-47.9	10.4	4.90e-03	0	61	0	547356672	57	6361
2026-01-24 22:33:50.67	84.43	29.23	-42.9	-47.6	10.7	3.21e-03	0	61	0	549453824	57	6180
2026-01-24 22:33:51.68	84.77	29.26	-42.9	-47.6	10.7	2.91e-03	0	61	0	551550976	57	6172
2026-01-24 22:33:52.69	85.10	29.28	-42.9	-47.6	10.7	3.15e-03	0	61	0	553648128	57	6196
2026-01-24 22:33:53.70	85.44	29.30	-43.0	-47.8	10.6	3.50e-03	0	61	0	554696704	57	6299
2026-01-24 22:33:54.71	85.78	29.33	-43.0	-47.9	10.4	3.92e-03	0	61	0	556793856	57	6391
2026-01-24 22:33:55.72	86.11	29.35	-43.1	-48.0	10.4	4.89e-03	0	61	0	558891008	57	6421
2026-01-24 22:33:56.73	86.45	29.37	-43.1	-48.0	10.3	5.12e-03	0	61	0	560988160	57	6469
2026-01-24 22:33:57.74	86.79	29.39	-43.0	-47.9	10.4	5.18e-03	0	61	0	563085312	57	6383
2026-01-24 22:33:58.75	87.13	29.41	-42.9	-47.5	10.8	3.16e-03	0	61	0	564133888	57	6108
2026-01-24 22:33:59.76	87.47	29.43	-42.7	-47.1	11.2	2.08e-03	0	61	0	566231040	57	5825
2026-01-24 22:34:00.77	87.80	29.44	-42.7	-47.1	11.3	1.24e-03	0	61	0	568328192	57	5829
2026-01-24 22:34:01.78	88.14	29.46	-42.8	-47.4	11.0	1.40e-03	0	61	0	570425344	57	6008
2026-01-24 22:34:02.79	88.48	29.47	-43.0	-47.7	10.6	2.33e-03	0	61	0	572522496	57	6273
2026-01-24 22:34:03.80	88.82	29.49	-43.1	-48.1	10.2	5.48e-03	0	61	0	573571072	57	6563
2026-01-24 22:34:04.81	89.16	29.50	-43.3	-48.4	9.9	8.19e-03	0	61	0	575668224	57	6777
2026-01-24 22:34:05.82	89.50	29.51	-43.2	-48.2	10.2	8.67e-03	0	61	0	577765376	57	6618
2026-01-24 22:34:06.83	89.85	29.52	-43.1	-48.1	10.2	6.04e-03	0	61	0	579862528	57	6556
2026-01-24 22:34:07.84	90.19	29.53	-42.9	-47.6	10.8	3.54e-03	0	61	0	581959680	57	6159
2026-01-24 22:34:08.85	90.53	29.54	-42.8	-47.4	11.0	2.34e-03	0	61	0	583008256	57	6001
2026-01-24 22:34:09.86	90.87	29.54	-42.6	-46.9	11.5	1.09e-03	0	61	0	585105408	57	5668
2026-01-24 22:34:10.86	91.21	29.55	-42.5	-46.7	11.7	5.96e-04	0	61	0	587202560	57	5539
2026-01-24 22:34:11.87	91.55	29.55	-42.6	-46.7	11.7	5.73e-04	0	61	0	589299712	57	5584
2026-01-24 22:34:12.88	91.89	29.56	-42.6	-46.9	11.5	7.64e-04	0	61	0	591396864	57	5685
2026-01-24 22:34:13.89	92.23	29.56	-42.7	-47.1	11.3	7.90e-04	0	61	0	592445440	57	5793
2026-01-24 22:34:14.90	92.57	29.56	-42.8	-47.4	11.0	1.42e-03	0	61	0	594542592	57	6020
2026-01-24 22:34:15.91	92.91	29.56	-42.9	-47.4	10.9	2.19e-03	0	61	0	596639744	57	6050
2026-01-24 22:34:16.92	93.26	29.56	-42.9	-47.6	10.9	2.15e-03	0	61	0	598736896	57	6137
2026-01-24 22:34:17.93	93.60	29.56	-42.9	-47.5	10.9	2.19e-03	0	61	0	600834048	57	6075
2026-01-24 22:34:18.94	93.94	29.55	-42.9	-47.5	11.0	2.18e-03	0	61	0	602931200	57	6065
2026-01-24 22:34:19.95	94.28	29.55	-42.8	-47.2	11.3	1.80e-03	0	61	0	603979776	57	5888
2026-01-24 22:34:20.96	94.62	29.55	-42.7	-47.0	11.5	1.01e-03	0	61	0	606076928	57	5742
2026-01-24 22:34:21.97	94.96	29.54	-42.7	-47.0	11.4	8.57e-04	0	61	0	608174080	57	5783
2026-01-24 22:34:22.98	95.31	29.53	-42.8	-47.3	11.2	1.42e-03	0	61	0	610271232	57	5935
2026-01-24 22:34:23.99	95.65	29.52	-43.0	-47.6	10.8	2.32e-03	0	61	0	612368384	57	6195
2026-01-24 22:34:25.00	95.99	29.51	-43.1	-48.0	10.3	3.70e-03	0	61	0	613416960	57	6476
2026-01-24 22:34:26.01	96.33	29.50	-43.3	-48.6	9.8	8.30e-03	0	61	0	615514112	57	6889
2026-01-24 22:34:27.02	96.67	29.49	-43.4	-48.8	9.5	1.34e-02	0	61	0	617611264	57	7088
2026-01-24 22:34:28.03	97.01	29.48	-43.4	-48.8	9.5	1.66e-02	0	61	0	619708416	57	7073
2026-01-24 22:34:29.04	97.35	29.46	-43.3	-48.4	9.9	1.05e-02	0	61	0	621805568	57	6761
2026-01-24 22:34:30.04	97.69	29.45	-43.1	-48.1	10.3	6.37e-03	0	61	0	622854144	57	6499
2026-01-24 22:34:31.05	98.03	29.43	-43.0	-47.8	10.6	3.90e-03	0	61	0	624951296	57	6296
2026-01-24 22:34:32.06	98.37	29.42	-43.0	-47.7	10.7	3.29e-03	0	61	0	627048448	57	6229
2026-01-24 22:34:33.07	98.70	29.40	-43.0	-47.7	10.7	2.58e-03	0	61	0	629145600	57	6226
2026-01-24 22:34:34.08	99.04	29.38	-43.1	-48.0	10.4	3.53e-03	0	61	0	631242752	57	6464
2026-01-24 22:34:35.09	99.38	29.36	-43.3	-48.5	9.8	6.58e-03	0	61	0	632291328	57	6868
2026-01-24 22:34:36.10	99.72	29.34	-43.5	-49.2	9.2	1.84e-02	0	61	0	634388480	57	7430
2026-01-24 22:34:37.11	100.05	29.32	-43.7	-49.6	8.7	3.00e-02	0	61	0	636485632	57	7785
2026-01-24 22:34:38.12	100.39	29.29	-43.6	-49.5	8.8	3.42e-02	0	61	0	638582784	57	7683
2026-01-24 22:34:39.13	100.73	29.27	-43.5	-49.0	9.3	2.23e-02	0	61	0	640679936	57	7234
2026-01-24 22:34:40.14	101.06	29.24	-43.3	-48.6	9.7	1.26e-02	0	61	0	641728512	57	6920
2026-01-24 22:34:41.15	101.40	29.22	-43.3	-48.5	9.8	1.01e-02	0	61	0	643825664	57	6869
2026-01-24 22:34:42.16	101.73	29.19	-43.3	-48.6	9.7	1.10e-02	0	61	0	645922816	57	6938
2026-01-24 22:34:43.17	102.07	29.16	-43.4	-48.8	9.5	1.32e-02	0	61	0	648019968	57	7120
2026-01-24 22:34:44.18	102.40	29.13	-43.4	-48.7	9.6	1.35e-02	0	61	0	650117120	57	7036
2026-01-24 22:34:45.19	102.73	29.10	-43.3	-48.6	9.8	1.09e-02	0	61	0	651165696	57	6894
2026-01-24 22:34:46.20	103.07	29.07	-43.2	-48.2	10.2	6.36e-03	0	61	0	653262848	57	6587
2026-01-24 22:34:47.20	103.39	29.04	-43.1	-47.9	10.5	4.73e-03	0	61	0	655360000	57	6382
2026-01-24 22:34:48.21	103.73	29.00	-43.0	-47.8	10.6	3.98e-03	0	61	0	657457152	57	6326
2026-01-24 22:34:49.22	104.06	28.97	-43.2	-48.2	10.1	5.38e-03	0	61	0	659554304	57	6643
2026-01-24 22:34:50.23	104.38	28.93	-43.4	-48.8	9.6	1.15e-02	0	61	0	660602880	57	7052
2026-01-24 22:34:51.24	104.71	28.90	-43.5	-49.1	9.2	1.90e-02	0	61	0	662700032	57	7365
2026-01-24 22:34:52.25	105.04	28.86	-43.4	-48.8	9.5	1.74e-02	0	61	0	664797184	57	7075
2026-01-24 22:34:53.26	105.37	28.82	-43.3	-48.4	9.9	1.09e-02	0	61	0	666894336	57	6781
2026-01-24 22:34:54.27	105.70	28.78	-43.1	-47.9	10.5	6.97e-03	0	61	0	668991488	57	6376
2026-01-24 22:34:55.28	106.02	28.74	-43.0	-47.6	10.8	2.65e-03	0	61	0	671088640	57	6174
2026-01-24 22:34:56.29	106.35	28.70	-42.8	-47.4	11.0	2.14e-03	0	61	0	672137216	57	6016
2026-01-24 22:34:57.30	106.67	28.66	-42.8	-47.2	11.2	1.51e-03	0	61	0	674234368	57	5902
2026-01-24 22:34:58.31	106.99	28.61	-42.8	-47.1	11.3	1.14e-03	0	61	0	676331520	57	5852
2026-01-24 22:34:59.32	107.32	28.57	-42.7	-47.1	11.4	1.01e-03	0	61	0	678428672	57	5799
2026-01-24 22:35:00.33	107.64	28.53	-42.6	-46.8	11.6	8.09e-04	0	61	0	679477248	57	5651
2026-01-24 22:35:01.34	107.96	28.48	-42.5	-46.7	11.8	4.99e-04	0	61	0	681574400	57	5533
2026-01-24 22:35:02.35	108.28	28.43	-42.6	-46.8	11.7	5.36e-04	0	61	0	683671552	57	5633
2026-01-24 22:35:03.36	108.60	28.39	-42.5	-46.6	11.8	5.77e-04	0	61	0	685768704	57	5515
2026-01-24 22:35:04.36	108.91	28.34	-42.6	-46.8	11.6	4.70e-04	0	61	0	687865856	57	5624
2026-01-24 22:35:05.37	109.23	28.29	-42.6	-46.9	11.5	7.77e-04	0	61	0	688914432	57	5718
2026-01-24 22:35:06.38	109.55	28.24	-42.7	-47.1	11.3	1.02e-03	0	61	0	691011584	57	5806
2026-01-24 22:35:07.39	109.86	28.19	-42.7	-47.1	11.3	1.20e-03	0	61	0	693108736	57	5851
2026-01-24 22:35:08.40	110.18	28.14	-42.6	-46.9	11.5	9.25e-04	0	61	0	695205888	57	5711
2026-01-24 22:35:09.41	110.49	28.08	-42.5	-46.6	11.8	6.39e-04	0	61	0	697303040	57	5519
2026-01-24 22:35:10.42	110.80	28.03	-42.3	-46.2	12.2	2.91e-04	0	61	0	699400192	56	5562
2026-01-24 22:35:11.43	111.11	27.98	-42.3	-46.3	12.2	2.04e-04	0	61	0	700448768	56	5599
2026-01-24 22:35:12.44	111.42	27.92	-42.2	-46.0	12.5	1.87e-04	0	61	0	702545920	56	5452
2026-01-24 22:35:13.45	111.73	27.87	-42.2	-46.0	12.5	1.11e-04	0	61	0	704643072	56	5444
2026-01-24 22:35:14.46	112.04	27.81	-42.2	-46.1	12.4	1.49e-04	0	61	0	706740224	56	5468
2026-01-24 22:35:15.47	112.35	27.75	-42.3	-46.2	12.3	1.88e-04	0	61	0	708837376	56	5561
2026-01-24 22:35:16.48	112.65	27.70	-42.5	-46.5	11.9	3.00e-04	0	61	0	709885952	56	5787
2026-01-24 22:35:17.48	112.95	27.64	-42.6	-46.9	11.6	3.98e-04	0	61	0	711983104	56	6001
2026-01-24 22:35:18.50	113.26	27.58	-42.8	-47.3	11.2	1.14e-03	0	61	0	714080256	56	6282
2026-01-24 22:35:19.50	113.56	27.52	-42.8	-47.3	11.1	1.60e-03	0	61	0	716177408	56	6330
2026-01-24 22:35:20.51	113.86	27.46	-42.8	-47.4	11.1	1.67e-03	0	61	0	718274560	56	6352
2026-01-24 22:35:21.52	114.16	27.40	-42.8	-47.2	11.2	1.36e-03	0	61	0	719323136	56	6266
2026-01-24 22:35:22.53	114.46	27.33	-42.8	-47.3	11.1	1.43e-03	0	61	0	721420288	56	6286
2026-01-24 22:35:23.54	114.76	27.27	-42.8	-47.2	11.2	1.46e-03	0	61	0	723517440	56	6255
2026-01-24 22:35:24.55	115.06	27.21	-42.8	-47.3	11.2	1.34e-03	0	61	0	725614592	56	6290
2026-01-24 22:35:25.56	115.35	27.14	-42.7	-47.0	11.5	1.21e-03	0	61	0	727711744	56	6078
2026-01-24 22:35:26.57	115.65	27.08	-42.6	-46.8	11.7	7.43e-04	0	61	0	728760320	56	5944
2026-01-24 22:35:27.58	115.94	27.01	-42.5	-46.5	11.9	4.04e-04	0	61	0	730857472	56	5785
2026-01-24 22:35:28.59	116.23	26.95	-42.4	-46.4	12.1	3.58e-04	0	61	0	732954624	56	5696
2026-01-24 22:35:29.60	116.52	26.88	-42.4	-46.5	11.9	3.62e-04	0	61	0	735051776	56	5761
2026-01-24 22:35:30.61	116.81	26.81	-42.5	-46.7	11.7	4.00e-04	0	61	0	737148928	56	5896
2026-01-24 22:35:31.62	117.10	26.75	-42.7	-47.0	11.5	7.81e-04	0	61	0	738197504	56	6069
2026-01-24 22:35:32.63	117.39	26.68	-42.7	-47.1	11.3	1.11e-03	0	61	0	740294656	56	6160
2026-01-24 22:35:33.64	117.68	26.61	-42.7	-47.2	11.2	1.33e-03	0	61	0	742391808	56	6231
2026-01-24 22:35:34.65	117.96	26.54	-42.7	-47.1	11.3	1.19e-03	0	61	0	744488960	56	6161
2026-01-24 22:35:35.66	118.24	26.47	-42.7	-47.2	11.3	1.25e-03	0	61	0	746586112	56	6214
2026-01-24 22:35:36.67	118.53	26.40	-42.8	-47.2	11.2	1.29e-03	0	61	0	747634688	56	6240
2026-01-24 22:35:37.68	118.81	26.33	-42.8	-47.2	11.2	1.38e-03	0	61	0	749731840	56	6254
2026-01-24 22:35:38.69	119.09	26.25	-42.7	-47.2	11.2	1.56e-03	0	61	0	751828992	56	6213
2026-01-24 22:35:39.70	119.37	26.18	-42.6	-46.9	11.5	9.91e-04	0	61	0	753926144	56	6017
2026-01-24 22:35:40.71	119.65	26.11	-42.6	-46.8	11.6	6.58e-04	0	61	0	756023296	56	5972
2026-01-24 22:35:41.72	119.92	26.03	-42.5	-46.6	11.8	6.01e-04	0	61	0	757071872	56	5842
2026-01-24 22:35:42.73	120.20	25.96	-42.4	-46.4	12.0	4.25e-04	0	61	0	759169024	56	5712
2026-01-24 22:35:43.74	120.47	25.89	-42.3	-46.3	12.1	2.58e-04	0	61	0	761266176	56	5625
2026-01-24 22:35:44.75	120.74	25.81	-42.3	-46.2	12.2	2.28e-04	0	61	0	763363328	56	5581
2026-01-24 22:35:45.76	121.01	25.74	-42.2	-46.1	12.3	1.97e-04	0	61	0	765460480	56	5481
2026-01-24 22:35:46.76	121.28	25.66	-42.1	-45.9	12.6	1.13e-04	0	61	0	767557632	56	5343
2026-01-24 22:35:47.77	121.55	25.59	-42.1	-45.7	12.7	9.30e-05	0	61	0	768606208	56	5264
2026-01-24 22:35:48.78	121.82	25.51	-41.8	-45.3	13.0	4.95e-05	0	61	0	770703360	55	5304
2026-01-24 22:35:49.79	122.08	25.43	-41.8	-45.3	12.9	4.27e-05	0	61	0	772800512	55	5338
2026-01-24 22:35:50.80	122.35	25.35	-41.9	-45.6	12.7	7.17e-05	0	61	0	774897664	55	5497
2026-01-24 22:35:51.81	122.61	25.28	-42.0	-45.8	12.5	1.17e-04	0	61	0	776994816	55	5628
2026-01-24 22:35:52.82	122.88	25.20	-42.1	-46.1	12.2	1.29e-04	0	61	0	778043392	55	5790
2026-01-24 22:35:53.83	123.14	25.12	-42.1	-46.1	12.2	2.21e-04	0	61	0	780140544	55	5804
2026-01-24 22:35:54.84	123.40	25.04	-42.1	-45.9	12.4	2.10e-04	0	61	0	782237696	55	5690
2026-01-24 22:35:55.85	123.66	24.96	-42.0	-45.9	12.4	1.46e-04	0	61	0	784334848	55	5683
2026-01-24 22:35:56.86	123.91	24.88	-42.1	-46.0	12.3	1.61e-04	0	61	0	786432000	55	5729
2026-01-24 22:35:57.87	124.17	24.80	-42.2	-46.2	12.1	2.00e-04	0	61	0	787480576	55	5858
2026-01-24 22:35:58.88	124.42	24.72	-42.1	-46.0	12.2	2.52e-04	0	61	0	789577728	55	5777
2026-01-24 22:35:59.89	124.68	24.64	-42.1	-46.1	12.2	2.17e-04	0	61	0	791674880	55	5807
2026-01-24 22:36:00.89	124.93	24.56	-42.0	-45.8	12.5	1.77e-04	0	61	0	793772032	55	5620
2026-01-24 22:36:01.90	125.18	24.48	-41.8	-45.5	12.8	1.26e-04	0	61	0	795869184	55	5437
2026-01-24 22:36:02.91	125.43	24.40	-41.7	-45.2	13.0	4.34e-05	0	61	0	796917760	55	5262
2026-01-24 22:36:03.92	125.68	24.31	-41.7	-45.2	13.1	3.12e-05	0	61	0	799014912	55	5249
2026-01-24 22:36:04.93	125.92	24.23	-42.0	-45.8	12.5	6.17e-05	0	61	0	801112064	55	5606
2026-01-24 22:36:05.94	126.17	24.15	-42.2	-46.2	12.0	1.73e-04	0	61	0	803209216	55	5876
2026-01-24 22:36:06.95	126.42	24.07	-42.2	-46.3	12.0	3.39e-04	0	61	0	805306368	55	5951
2026-01-24 22:36:07.96	126.66	23.98	-42.1	-46.0	12.2	2.80e-04	0	61	0	806354944	55	5769
2026-01-24 22:36:08.96	126.90	23.90	-42.1	-46.1	12.2	1.88e-04	0	61	0	808452096	55	5789
2026-01-24 22:36:09.98	127.14	23.82	-42.0	-45.7	12.5	1.43e-04	0	61	0	810549248	55	5584
2026-01-24 22:36:10.98	127.38	23.73	-41.8	-45.5	12.7	6.40e-05	0	61	0	812646400	55	5442
2026-01-24 22:36:11.99	127.62	23.65	-42.1	-46.1	12.2	1.35e-04	0	61	0	814743552	55	5796
2026-01-24 22:36:13.00	127.86	23.56	-42.4	-46.7	11.5	3.31e-04	0	61	0	815792128	55	6229
2026-01-24 22:36:14.01	128.09	23.48	-42.6	-47.3	10.9	1.48e-03	0	61	0	817889280	55	6650
2026-01-24 22:36:15.02	128.33	23.39	-42.6	-47.3	10.8	2.79e-03	0	61	0	819986432	55	6684
2026-01-24 22:36:16.03	128.56	23.31	-42.5	-46.9	11.2	1.98e-03	0	61	0	822083584	55	6397
2026-01-24 22:36:17.04	128.79	23.22	-42.4	-46.7	11.5	9.77e-04	0	61	0	824180736	55	6228
2026-01-24 22:36:18.05	129.02	23.14	-42.4	-46.6	11.6	7.45e-04	0	61	0	825229312	55	6153
2026-01-24 22:36:19.06	129.25	23.05	-42.4	-46.6	11.6	6.10e-04	0	61	0	827326464	55	6155
2026-01-24 22:36:20.07	129.48	22.97	-42.4	-46.6	11.6	6.10e-04	0	61	0	829423616	55	6176
2026-01-24 22:36:21.08	129.71	22.88	-42.6	-47.2	11.0	1.33e-03	0	61	0	831520768	55	6582
2026-01-24 22:36:22.09	129.93	22.80	-42.7	-47.4	10.8	2.75e-03	0	61	0	833617920	55	6754
2026-01-24 22:36:23.10	130.16	22.71	-42.5	-47.0	11.2	1.78e-03	0	61	0	835715072	55	6425
2026-01-24 22:36:24.11	130.38	22.62	-42.2	-46.3	11.9	6.58e-04	0	61	0	836763648	55	5954
2026-01-24 22:36:25.12	130.61	22.54	-42.1	-46.0	12.2	2.57e-04	0	61	0	838860800	55	5741
2026-01-24 22:36:26.13	130.83	22.45	-42.1	-46.0	12.2	2.37e-04	0	61	0	840957952	55	5762
2026-01-24 22:36:27.14	131.05	22.36	-42.0	-45.8	12.5	1.43e-04	0	61	0	843055104	55	5594
2026-01-24 22:36:28.15	131.27	22.27	-42.0	-45.9	12.3	1.04e-04	0	61	0	845152256	55	5693
2026-01-24 22:36:29.16	131.48	22.19	-42.3	-46.6	11.6	3.04e-04	0	62	0	846200832	55	6157
2026-01-24 22:36:30.17	131.70	22.10	-42.4	-46.9	11.2	1.16e-03	0	61	0	848297984	55	6359
2026-01-24 22:36:31.17	131.91	22.01	-42.4	-46.8	11.3	1.25e-03	0	61	0	850395136	55	6303
2026-01-24 22:36:32.18	132.13	21.93	-42.3	-46.4	11.7	8.73e-04	0	61	0	852492288	55	6053
2026-01-24 22:36:33.19	132.34	21.84	-42.1	-46.0	12.1	3.26e-04	0	61	0	854589440	55	5785
2026-01-24 22:36:34.20	132.55	21.75	-42.0	-45.9	12.3	2.21e-04	0	61	0	855638016	55	5692
2026-01-24 22:36:35.21	132.76	21.66	-42.0	-45.9	12.2	1.92e-04	0	61	0	857735168	55	5719
2026-01-24 22:36:36.22	132.97	21.58	-42.2	-46.2	11.9	3.35e-04	0	61	0	859832320	55	5919
2026-01-24 22:36:37.23	133.18	21.49	-42.4	-46.8	11.3	8.23e-04	0	61	0	861929472	55	6330
2026-01-24 22:36:38.24	133.39	21.40	-42.5	-47.2	11.0	1.63e-03	0	61	0	864026624	55	6584
2026-01-24 22:36:39.25	133.59	21.31	-42.5	-47.1	10.9	2.23e-03	0	61	0	865075200	55	6565
2026-01-24 22:36:40.26	133.80	21.22	-42.4	-46.8	11.2	1.67e-03	0	61	0	867172352	55	6343
2026-01-24 22:36:41.27	134.00	21.13	-42.2	-46.4	11.7	8.73e-04	0	61	0	869269504	55	6034
2026-01-24 22:36:42.28	134.20	21.05	-42.0	-46.0	12.2	4.35e-04	0	61	0	871366656	55	5739
2026-01-24 22:36:43.29	134.41	20.96	-41.8	-45.5	12.7	1.30e-04	0	61	0	873463808	55	5430
2026-01-24 22:36:44.30	134.61	20.87	-41.6	-45.2	13.0	4.73e-05	0	61	0	874512384	55	5246
2026-01-24 22:36:45.31	134.81	20.78	-41.6	-45.2	13.0	3.05e-05	0	61	0	876609536	55	5245
2026-01-24 22:36:46.32	135.00	20.69	-41.7	-45.4	12.7	5.95e-05	0	61	0	878706688	55	5393
2026-01-24 22:36:47.33	135.20	20.60	-41.8	-45.6	12.5	1.06e-04	0	61	0	880803840	55	5511
2026-01-24 22:36:48.34	135.40	20.52	-41.9	-45.7	12.4	1.33e-04	0	61	0	882900992	55	5544
2026-01-24 22:36:49.34	135.59	20.43	-41.8	-45.6	12.6	1.21e-04	0	61	0	883949568	55	5470
2026-01-24 22:36:50.35	135.78	20.34	-41.7	-45.4	12.7	8.62e-05	0	61	0	886046720	55	5378
2026-01-24 22:36:51.36	135.98	20.25	-41.7	-45.4	12.8	8.16e-05	0	61	0	888143872	55	5341
2026-01-24 22:36:52.37	136.17	20.16	-41.6	-45.2	12.9	5.49e-05	0	61	0	890241024	55	5253
2026-01-24 22:36:53.38	136.36	20.07	-41.6	-45.1	13.0	4.04e-05	0	61	0	892338176	55	5214
2026-01-24 22:36:54.39	136.55	19.99	-41.7	-45.4	12.7	6.25e-05	0	61	0	893386752	55	5389
2026-01-24 22:36:55.40	136.74	19.90	-41.8	-45.5	12.5	1.03e-04	0	61	0	895483904	55	5464
2026-01-24 22:36:56.41	136.92	19.81	-41.8	-45.7	12.4	1.22e-04	0	61	0	897581056	55	5539
2026-01-24 22:36:57.42	137.11	19.72	-41.8	-45.7	12.4	1.41e-04	0	61	0	899678208	55	5557
2026-01-24 22:36:58.43	137.29	19.63	-41.9	-45.7	12.3	1.36e-04	0	61	0	901775360	55	5578
2026-01-24 22:36:59.43	137.48	19.55	-41.8	-45.6	12.5	1.60e-04	0	61	0	903872512	55	5493
2026-01-24 22:37:00.44	137.66	19.46	-41.6	-45.3	12.7	1.02e-04	0	61	0	904921088	55	5304
2026-01-24 22:37:01.45	137.84	19.37	-41.5	-45.0	13.1	5.49e-05	0	61	0	907018240	55	5116
2026-01-24 22:37:02.46	138.02	19.28	-41.4	-44.9	13.2	2.67e-05	0	61	0	909115392	54	5352
2026-01-24 22:37:03.47	138.20	19.19	-41.5	-45.0	13.1	3.05e-05	0	61	0	911212544	54	5431
2026-01-24 22:37:04.48	138.38	19.10	-41.5	-45.0	13.1	2.97e-05	0	61	0	913309696	54	5422
2026-01-24 22:37:05.49	138.56	19.02	-41.4	-44.9	13.2	2.44e-05	0	61	0	914358272	54	5360
2026-01-24 22:37:06.50	138.74	18.93	-41.4	-44.9	13.2	2.13e-05	0	61	0	916455424	54	5380
2026-01-24 22:37:07.51	138.91	18.84	-41.4	-44.9	13.1	1.67e-05	0	61	0	918552576	54	5382
2026-01-24 22:37:08.52	139.09	18.75	-41.2	-44.6	13.5	1.67e-05	0	61	0	920649728	54	5187
2026-01-24 22:37:09.53	139.26	18.66	-41.2	-44.4	13.6	1.14e-05	0	61	0	921698304	54	5096
2026-01-24 22:37:10.54	139.44	18.58	-41.1	-44.4	13.7	3.80e-06	0	61	0	923795456	54	5045
2026-01-24 22:37:11.55	139.61	18.49	-41.1	-44.4	13.7	3.00e-06	0	61	0	925892608	54	5054
2026-01-24 22:37:12.56	139.78	18.40	-41.1	-44.4	13.6	9.10e-06	0	61	0	927989760	54	5072
2026-01-24 22:37:13.57	139.95	18.31	-41.2	-44.5	13.5	1.14e-05	0	61	0	930086912	54	5140
2026-01-24 22:37:14.58	140.12	18.22	-41.3	-44.6	13.4	1.22e-05	0	61	0	932184064	54	5208
2026-01-24 22:37:15.58	140.29	18.14	-41.3	-44.7	13.3	1.44e-05	0	61	0	933232640	54	5264
2026-01-24 22:37:16.59	140.45	18.05	-41.4	-45.0	13.0	2.51e-05	0	61	0	935329792	54	5415
2026-01-24 22:37:17.60	140.62	17.96	-41.5	-45.1	12.9	3.89e-05	0	61	0	937426944	54	5486
2026-01-24 22:37:18.61	140.79	17.87	-41.5	-45.2	12.8	2.63e-04	0	61	0	939524096	53	5879
2026-01-24 22:37:19.63	140.95	17.79	-41.6	-45.3	12.7	8.23e-05	0	61	0	941621248	53	5931
2026-01-24 22:37:20.63	141.11	17.70	-41.6	-45.3	12.7	7.62e-05	0	61	0	942669824	53	5948
2026-01-24 22:37:21.64	141.28	17.61	-41.6	-45.4	12.6	2.91e-04	0	61	0	944766976	53	6004
2026-01-24 22:37:22.65	141.44	17.53	-41.5	-45.1	12.8	7.70e-05	0	61	0	946864128	53	5852
2026-01-24 22:37:23.66	141.60	17.44	-41.4	-45.0	13.0	4.11e-05	0	61	0	948961280	53	5754
2026-01-24 22:37:24.67	141.76	17.35	-41.4	-44.9	12.9	4.34e-05	0	61	0	951058432	53	5696
2026-01-24 22:37:25.68	141.92	17.27	-41.4	-44.9	13.0	1.32e-04	0	61	0	952107008	53	5719
2026-01-24 22:37:26.69	142.08	17.18	-41.4	-45.0	13.0	3.66e-05	0	61	0	954204160	53	5725
2026-01-24 22:37:27.70	142.23	17.09	-41.3	-44.7	13.2	4.52e-04	0	61	0	956301312	53	5569
2026-01-24 22:37:28.71	142.39	17.01	-41.3	-44.8	13.2	1.97e-04	0	61	0	958398464	53	5605
2026-01-24 22:37:29.72	142.55	16.92	-41.3	-44.8	13.1	3.12e-05	0	61	0	960495616	53	5640
2026-01-24 22:37:30.73	142.70	16.83	-41.4	-45.0	13.0	3.58e-05	0	61	0	961544192	53	5725
2026-01-24 22:37:31.74	142.86	16.75	-41.4	-45.0	12.9	1.01e-04	0	61	0	963641344	53	5784
2026-01-24 22:37:32.75	143.01	16.66	-41.5	-45.2	12.7	7.62e-05	0	61	0	965738496	53	5881
2026-01-24 22:37:33.76	143.16	16.58	-41.5	-45.3	12.6	3.47e-04	0	62	0	967835648	53	5954
2026-01-24 22:37:34.77	143.31	16.49	-41.6	-45.3	12.6	1.07e-04	0	62	0	969932800	53	5973
2026-01-24 22:37:35.78	143.46	16.40	-41.5	-45.3	12.7	1.18e-04	0	61	0	970981376	53	5925
2026-01-24 22:37:36.79	143.61	16.32	-41.5	-45.3	12.5	7.70e-05	0	61	0	973078528	53	5953
2026-01-24 22:37:37.80	143.76	16.23	-41.5	-45.2	12.7	9.91e-05	0	61	0	975175680	53	5905
2026-01-24 22:37:38.81	143.91	16.15	-41.5	-45.3	12.6	1.09e-04	0	61	0	977272832	53	5938
2026-01-24 22:37:39.82	144.06	16.06	-41.7	-45.6	12.3	1.42e-04	0	61	0	979369984	53	6141
2026-01-24 22:37:40.82	144.20	15.98	-41.6	-45.5	12.3	1.75e-04	0	61	0	980418560	53	6102
2026-01-24 22:37:41.83	144.35	15.89	-41.8	-45.8	12.0	2.35e-04	0	61	0	982515712	54	5954
2026-01-24 22:37:42.84	144.49	15.81	-41.9	-46.0	11.8	3.85e-04	0	61	0	984612864	54	6108
2026-01-24 22:37:43.85	144.64	15.72	-41.9	-46.1	11.8	4.61e-04	0	61	0	986710016	54	6132
2026-01-24 22:37:44.86	144.78	15.64	-41.9	-46.1	11.7	4.96e-03	0	61	0	988807168	54	6187
2026-01-24 22:37:45.87	144.92	15.55	-42.0	-46.2	11.6	6.44e-04	0	61	0	989855744	54	6226
2026-01-24 22:37:46.88	145.06	15.47	-41.9	-46.2	11.7	5.81e-04	0	61	0	991952896	54	6209
2026-01-24 22:37:47.89	145.21	15.39	-42.0	-46.2	11.6	7.69e-04	0	62	0	994050048	54	6258
2026-01-24 22:37:48.90	145.35	15.30	-42.0	-46.2	11.6	7.33e-04	0	61	0	996147200	54	6205
2026-01-24 22:37:49.91	145.48	15.22	-42.0	-46.3	11.5	1.05e-03	0	61	0	998244352	54	6319
2026-01-24 22:37:50.92	145.62	15.13	-42.0	-46.3	11.5	8.81e-04	0	61	0	1000341504	54	6320
2026-01-24 22:37:51.93	145.76	15.05	-42.0	-46.3	11.4	9.25e-04	0	61	0	1001390080	54	6337
2026-01-24 22:37:52.94	145.90	14.97	-42.1	-46.6	11.1	1.04e-03	0	61	0	1003487232	54	6560
2026-01-24 22:37:53.95	146.03	14.88	-42.1	-46.6	11.1	1.57e-03	0	61	0	1005584384	54	6557
2026-01-24 22:37:54.96	146.17	14.80	-42.2	-46.7	11.0	1.62e-03	0	62	0	1007681536	54	6623
2026-01-24 22:37:55.97	146.31	14.72	-42.2	-46.9	10.8	2.53e-03	0	61	0	1009778688	55	6386
2026-01-24 22:37:56.98	146.44	14.63	-42.1	-46.9	10.8	2.36e-03	0	61	0	1010827264	55	6374
2026-01-24 22:37:57.99	146.57	14.55	-42.3	-47.1	10.6	2.88e-03	0	61	0	1012924416	55	6500
2026-01-24 22:37:59.00	146.71	14.47	-42.2	-47.0	10.7	3.34e-03	0	61	0	1015021568	55	6429
2026-01-24 22:38:00.00	146.84	14.39	-42.3	-46.9	10.7	2.86e-03	0	62	0	1017118720	55	6418
2026-01-24 22:38:01.01	146.97	14.30	-42.3	-47.0	10.6	3.23e-03	0	61	0	1019215872	55	6466
2026-01-24 22:38:02.02	147.10	14.22	-42.2	-46.9	10.8	2.67e-03	0	61	0	1020264448	55	6366
2026-01-24 22:38:03.03	147.23	14.14	-42.2	-46.9	10.7	2.42e-03	0	61	0	1022361600	55	6387
2026-01-24 22:38:04.04	147.36	14.06	-42.2	-46.8	10.8	2.63e-03	0	61	0	1024458752	55	6297
2026-01-24 22:38:05.05	147.49	13.98	-42.1	-46.6	11.1	1.99e-03	0	62	0	1026555904	55	6148
2026-01-24 22:38:06.06	147.61	13.89	-42.1	-46.6	11.0	1.69e-03	0	62	0	1028653056	55	6185
2026-01-24 22:38:07.07	147.74	13.81	-42.0	-46.3	11.3	1.15e-03	0	62	0	1029701632	55	5974
2026-01-24 22:38:08.08	147.87	13.73	-41.9	-46.3	11.4	1.05e-03	0	61	0	1031798784	55	5933
2026-01-24 22:38:09.08	147.99	13.65	-42.0	-46.4	11.3	9.44e-04	0	61	0	1033895936	55	5996
2026-01-24 22:38:10.10	148.12	13.57	-41.9	-46.3	11.4	9.47e-04	0	61	0	1035993088	55	5959
2026-01-24 22:38:11.10	148.24	13.49	-41.8	-46.1	11.6	8.60e-04	0	61	0	1038090240	54	6164
2026-01-24 22:38:12.11	148.37	13.41	-41.9	-46.2	11.4	9.09e-04	0	61	0	1039138816	54	6241
2026-01-24 22:38:13.12	148.49	13.33	-41.9	-46.3	11.3	8.41e-04	0	61	0	1041235968	54	6313
2026-01-24 22:38:14.13	148.61	13.25	-42.0	-46.5	11.1	1.16e-03	0	61	0	1043333120	54	6439
2026-01-24 22:38:15.14	148.73	13.17	-42.1	-46.6	11.0	1.73e-03	0	61	0	1045430272	54	6530
2026-01-24 22:38:16.15	148.86	13.09	-42.1	-46.7	10.9	1.92e-03	0	61	0	1047527424	54	6610
2026-01-24 22:38:17.16	148.98	13.01	-42.1	-46.8	10.7	2.70e-03	0	61	0	1048576000	54	6693
2026-01-24 22:38:18.17	149.10	12.93	-42.2	-46.9	10.6	2.86e-03	0	61	0	1050673152	54	6768
2026-01-24 22:38:19.18	149.22	12.85	-42.1	-46.9	10.7	3.71e-03	0	62	0	1052770304	54	6759
2026-01-24 22:38:20.19	149.33	12.77	-42.1	-46.8	10.7	3.29e-03	0	62	0	1054867456	54	6709
2026-01-24 22:38:21.20	149.45	12.69	-42.1	-46.8	10.8	2.81e-03	0	61	0	1056964608	54	6651
2026-01-24 22:38:22.21	149.57	12.61	-42.1	-46.8	10.7	2.73e-03	0	62	0	1058013184	54	6668
2026-01-24 22:38:23.22	149.69	12.53	-41.9	-46.5	11.0	2.41e-03	0	61	0	1060110336	54	6433
2026-01-24 22:38:24.23	149.80	12.45	-41.9	-46.4	11.1	1.66e-03	0	61	0	1062207488	54	6419
2026-01-24 22:38:25.24	149.92	12.37	-41.8	-46.2	11.3	1.26e-03	0	61	0	1064304640	54	6222
2026-01-24 22:38:26.24	150.03	12.29	-41.7	-46.0	11.5	1.05e-03	0	61	0	1066401792	54	6073
2026-01-24 22:38:27.25	150.15	12.21	-41.8	-46.1	11.5	8.13e-04	0	61	0	1068498944	54	6136
2026-01-24 22:38:28.26	150.26	12.14	-41.7	-45.9	11.6	8.34e-04	0	61	0	1069547520	54	6019
2026-01-24 22:38:29.27	150.38	12.06	-41.7	-45.9	11.5	6.48e-04	0	62	0	1071644672	54	6040
2026-01-24 22:38:30.28	150.49	11.98	-41.8	-46.1	11.4	8.74e-04	0	62	0	1073741824	54	6174
2026-01-24 22:38:31.29	150.60	11.90	-41.7	-46.0	11.4	8.60e-04	0	62	0	1075838976	54	6116
2026-01-24 22:38:32.30	150.71	11.82	-41.8	-46.2	11.3	9.58e-04	0	62	0	1077936128	54	6210
2026-01-24 22:38:33.31	150.82	11.75	-41.8	-46.3	11.2	1.40e-03	0	62	0	1078984704	54	6277
2026-01-24 22:38:34.32	150.93	11.67	-41.9	-46.3	11.1	1.62e-03	0	62	0	1081081856	54	6343
2026-01-24 22:38:35.33	151.04	11.59	-41.9	-46.6	10.8	1.83e-03	0	61	0	1083179008	54	6515
2026-01-24 22:38:36.34	151.15	11.51	-41.9	-46.6	10.8	2.67e-03	0	62	0	1085276160	54	6528
2026-01-24 22:38:37.35	151.26	11.44	-42.0	-46.6	10.8	2.90e-03	0	62	0	1087373312	54	6563
2026-01-24 22:38:38.36	151.37	11.36	-42.0	-46.7	10.7	2.92e-03	0	62	0	1088421888	54	6609
2026-01-24 22:38:39.37	151.48	11.28	-41.9	-46.7	10.7	3.00e-03	0	62	0	1090519040	54	6591
2026-01-24 22:38:40.38	151.59	11.21	-41.9	-46.6	10.8	2.69e-03	0	61	0	1092616192	54	6507
2026-01-24 22:38:41.39	151.69	11.13	-41.9	-46.6	10.8	3.19e-03	0	61	0	1094713344	54	6542
2026-01-24 22:38:42.40	151.80	11.05	-41.8	-46.4	11.0	2.33e-03	0	61	0	1096810496	54	6359
2026-01-24 22:38:43.41	151.90	10.98	-41.8	-46.4	11.0	1.72e-03	0	62	0	1097859072	54	6348
2026-01-24 22:38:44.41	152.01	10.90	-41.7	-46.0	11.3	1.56e-03	0	61	0	1099956224	54	6130
2026-01-24 22:38:45.42	152.11	10.83	-41.7	-46.1	11.3	1.17e-03	0	61	0	1102053376	54	6141
2026-01-24 22:38:46.43	152.22	10.75	-41.6	-46.0	11.3	1.32e-03	0	62	0	1104150528	54	6119
2026-01-24 22:38:47.44	152.32	10.67	-41.6	-46.0	11.3	1.02e-03	0	62	0	1106247680	54	6085
2026-01-24 22:38:48.45	152.42	10.60	-41.6	-45.9	11.4	9.70e-04	0	61	0	1107296256	54	6040
2026-01-24 22:38:49.46	152.53	10.52	-41.6	-46.1	11.2	1.18e-03	0	61	0	1109393408	54	6137
2026-01-24 22:38:50.47	152.63	10.45	-41.7	-46.2	11.1	1.55e-03	0	62	0	1111490560	54	6212
2026-01-24 22:38:51.48	152.73	10.37	-41.7	-46.2	11.1	1.76e-03	0	61	0	1113587712	54	6226
2026-01-24 22:38:52.49	152.83	10.30	-41.7	-46.2	11.1	1.71e-03	0	62	0	1115684864	54	6255
2026-01-24 22:38:53.50	152.93	10.22	-41.7	-46.2	11.0	1.76e-03	0	62	0	1116733440	54	6255
2026-01-24 22:38:54.51	153.03	10.15	-41.7	-46.3	10.9	2.11e-03	0	61	0	1118830592	54	6318
2026-01-24 22:38:55.52	153.13	10.07	-41.7	-46.3	10.9	1.79e-03	0	62	0	1120927744	54	6296
2026-01-24 22:38:56.53	153.23	10.00	-41.8	-46.4	10.8	2.73e-03	0	61	0	1123024896	54	6385
2026-01-24 22:38:57.54	153.33	9.93	-41.8	-46.5	10.7	3.49e-03	0	61	0	1125122048	54	6443
2026-01-24 22:38:58.54	153.43	9.85	-41.9	-46.7	10.4	3.53e-03	0	62	0	1126170624	54	6628
2026-01-24 22:38:59.55	153.52	9.78	-41.8	-46.6	10.6	3.50e-03	0	61	0	1128267776	54	6501
2026-01-24 22:39:00.56	153.62	9.71	-41.7	-46.3	10.8	2.83e-03	0	62	0	1130364928	54	6344
2026-01-24 22:39:01.57	153.72	9.63	-41.7	-46.3	10.7	2.43e-03	0	62	0	1132462080	54	6334
2026-01-24 22:39:02.58	153.81	9.56	-41.7	-46.3	10.8	2.42e-03	0	62	0	1134559232	54	6318
2026-01-24 22:39:03.59	153.91	9.49	-41.7	-46.3	10.8	2.28e-03	0	61	0	1136656384	54	6333
2026-01-24 22:39:04.60	154.00	9.41	-41.6	-46.1	11.0	2.17e-03	0	62	0	1137704960	54	6165
2026-01-24 22:39:05.61	154.10	9.34	-41.6	-46.1	10.9	2.28e-03	0	62	0	1139802112	54	6188
2026-01-24 22:39:06.62	154.19	9.27	-41.6	-46.1	11.0	2.45e-03	0	62	0	1141899264	54	6169
2026-01-24 22:39:07.63	154.29	9.19	-41.6	-46.2	10.8	2.30e-03	0	62	0	1143996416	54	6258
2026-01-24 22:39:08.64	154.38	9.12	-41.6	-46.2	10.8	2.35e-03	0	62	0	1146093568	54	6251
2026-01-24 22:39:09.65	154.47	9.05	-41.6	-46.2	10.9	2.23e-03	0	62	0	1147142144	54	6222
2026-01-24 22:39:10.66	154.57	8.98	-41.6	-46.3	10.7	2.55e-03	0	61	0	1149239296	54	6305
2026-01-24 22:39:11.67	154.66	8.91	-41.6	-46.4	10.6	2.90e-03	0	62	0	1151336448	54	6392
