passes_logs/2026/01/24/R2.0S_Moscow/R2.0S_Moscow__20260124_083744_NOAA_20_JPSS-1_rec.log

#Pass ID: 20260124_083744_NOAA 20 (JPSS-1)
#Satellite: NOAA 20 (JPSS-1)
#Configuration: NOAA 20
#almurnet v.1.7.20251203
#Start time: 2026-01-24 08:37:46

#Version: 2.2.20231116
#Station: R2.0S_Moscow
#Location: 37.707566 lon 55.798166 lat
#TLE: 1 43013U 17073A   26023.57676825  .00000205  00000+0  11821-3 0  9990
#TLE: 2 43013  98.7645 324.4259 0001147  27.0566 333.0670 14.19539368423954

#Time	Az	El	Level	Level2	SNR	BER	BlckErr	Temp	State	Recorded	gain1	gain2
2026-01-24 08:37:46.12	122.70	2.10	-21.6	-39.1	4.1	1.50e+00	0	53	0	0	13	29123
2026-01-24 08:37:47.12	122.65	2.15	-21.5	-38.6	3.9	1.50e+00	0	53	104	0	11	30796
2026-01-24 08:37:48.13	122.59	2.22	-19.0	-38.5	4.0	1.50e+00	0	53	104	0	13	27086
2026-01-24 08:37:49.14	122.54	2.28	-20.5	-39.2	3.9	1.50e+00	0	53	104	0	11	33105
2026-01-24 08:37:50.15	122.49	2.34	-20.8	-38.7	3.8	1.50e+00	0	53	104	0	9	35283
2026-01-24 08:37:51.16	122.43	2.40	-21.9	-40.1	4.0	1.50e+00	0	53	104	0	13	32881
2026-01-24 08:37:52.17	122.38	2.46	-18.2	-37.1	3.9	1.50e+00	0	53	104	0	11	26003
2026-01-24 08:37:53.18	122.32	2.52	-20.8	-39.1	3.8	1.50e+00	0	53	104	0	11	32703
2026-01-24 08:37:54.19	122.27	2.58	-20.1	-39.4	3.9	1.50e+00	0	53	104	0	11	33757
2026-01-24 08:37:55.20	122.21	2.64	-20.0	-38.0	4.1	1.50e+00	0	53	104	0	12	27195
2026-01-24 08:37:56.21	122.16	2.70	-22.6	-40.2	4.0	1.50e+00	0	54	104	0	14	31348
2026-01-24 08:37:57.22	122.10	2.76	-22.1	-38.2	4.0	1.50e+00	0	53	104	0	12	27989
2026-01-24 08:37:58.23	122.04	2.82	-13.5	-31.9	4.0	1.50e+00	0	54	104	0	0	27035
2026-01-24 08:37:59.24	121.99	2.89	-20.9	-40.2	3.7	1.50e+00	0	54	104	0	13	33221
2026-01-24 08:38:00.25	121.93	2.95	-21.6	-40.6	3.8	1.50e+00	0	54	104	0	15	31056
2026-01-24 08:38:01.27	121.87	3.01	-21.7	-38.7	3.8	1.50e+00	0	54	104	0	11	31221
2026-01-24 08:38:02.28	121.82	3.07	-20.9	-39.3	3.7	1.50e+00	0	54	104	0	11	33679
2026-01-24 08:38:03.29	121.76	3.13	-21.6	-39.6	4.0	1.50e+00	0	54	104	0	12	32710
2026-01-24 08:38:04.30	121.70	3.20	-21.1	-40.1	4.0	1.50e+00	0	54	0	0	13	32555
2026-01-24 08:38:05.31	121.64	3.26	-17.9	-33.4	3.8	1.50e+00	0	54	104	0	8	20303
2026-01-24 08:38:06.32	121.58	3.32	-20.1	-38.2	3.9	1.50e+00	0	54	104	0	10	31096
2026-01-24 08:38:07.33	121.53	3.38	-13.9	-31.2	4.4	1.50e+00	0	54	104	0	7	16527
2026-01-24 08:38:08.34	121.47	3.45	-20.6	-40.3	4.0	1.50e+00	0	54	104	0	12	35612
2026-01-24 08:38:09.35	121.41	3.51	-19.0	-34.4	3.8	1.50e+00	0	54	104	0	6	25273
2026-01-24 08:38:10.36	121.35	3.57	-12.5	-29.9	3.3	1.50e+00	0	54	104	0	1	20281
2026-01-24 08:38:11.37	121.29	3.63	-18.6	-37.7	4.0	1.50e+00	0	54	104	0	12	26385
2026-01-24 08:38:12.38	121.23	3.70	-18.5	-37.6	3.8	1.50e+00	0	55	104	0	13	24643
2026-01-24 08:38:13.39	121.17	3.76	-22.0	-40.1	3.9	1.50e+00	0	55	104	0	14	30985
2026-01-24 08:38:14.40	121.11	3.82	-19.5	-37.8	3.9	1.50e+00	0	55	104	0	11	28169
2026-01-24 08:38:15.41	121.05	3.89	-17.8	-39.7	3.8	1.50e+00	0	55	104	0	15	28016
2026-01-24 08:38:16.42	120.99	3.95	-21.8	-39.5	4.0	1.50e+00	0	55	104	0	13	30580
2026-01-24 08:38:17.43	120.93	4.01	-18.2	-37.6	4.0	1.50e+00	0	55	104	0	12	25969
2026-01-24 08:38:18.45	120.87	4.08	-21.7	-40.5	3.9	1.50e+00	0	55	104	0	14	32488
2026-01-24 08:38:19.46	120.80	4.14	-21.4	-39.8	3.6	1.50e+00	0	55	104	0	13	31461
2026-01-24 08:38:20.47	120.74	4.21	-20.8	-40.3	4.1	1.50e+00	0	55	104	0	13	33392
2026-01-24 08:38:21.48	120.68	4.27	-21.2	-40.7	4.0	1.50e+00	0	55	104	0	15	31398
2026-01-24 08:38:22.49	120.62	4.33	-21.1	-37.9	4.1	1.50e+00	0	55	104	0	12	26821
2026-01-24 08:38:23.50	120.55	4.40	-17.4	-33.8	3.7	1.50e+00	0	55	104	0	5	25085
2026-01-24 08:38:24.51	120.49	4.46	-17.8	-33.4	4.0	1.50e+00	0	55	104	0	9	19026
2026-01-24 08:38:25.52	120.43	4.53	-18.2	-36.3	3.9	1.50e+00	0	55	104	0	11	23803
2026-01-24 08:38:26.53	120.36	4.59	-17.8	-34.7	3.8	1.50e+00	0	55	104	0	8	23443
2026-01-24 08:38:27.54	120.30	4.66	-15.4	-33.8	3.7	1.50e+00	0	55	104	0	5	25049
2026-01-24 08:38:28.55	120.24	4.72	-19.0	-36.6	3.8	1.50e+00	0	55	104	0	8	29171
2026-01-24 08:38:29.56	120.17	4.79	-17.8	-36.4	4.0	1.50e+00	0	55	104	0	8	28367
2026-01-24 08:38:30.57	120.11	4.85	-15.6	-34.4	3.7	1.50e+00	0	56	104	0	8	22736
2026-01-24 08:38:31.58	120.04	4.92	-14.3	-30.2	3.8	1.50e+00	0	56	104	0	5	16563
2026-01-24 08:38:32.59	119.98	4.98	-18.2	-35.6	3.9	1.50e+00	0	56	104	0	7	27598
2026-01-24 08:38:33.60	119.91	5.05	-17.7	-33.5	4.1	1.50e+00	0	55	104	0	7	21520
2026-01-24 08:38:34.61	119.85	5.11	-18.3	-36.1	3.9	1.50e+00	0	56	104	0	8	27530
2026-01-24 08:38:35.62	119.78	5.18	-12.0	-32.3	3.5	1.50e+00	0	56	104	0	0	28186
2026-01-24 08:38:36.63	119.71	5.25	-17.8	-35.5	3.6	1.50e+00	0	56	0	0	9	24355
2026-01-24 08:38:37.65	119.64	5.31	-18.1	-36.3	3.9	1.50e+00	0	56	104	0	10	25154
2026-01-24 08:38:38.65	119.58	5.38	-21.8	-38.8	3.8	1.50e+00	0	56	104	0	11	31594
2026-01-24 08:38:39.66	119.51	5.44	-14.5	-30.8	3.7	1.50e+00	0	56	104	0	0	23739
2026-01-24 08:38:40.68	119.44	5.51	-17.7	-34.7	3.6	1.50e+00	0	56	104	0	7	24952
2026-01-24 08:38:41.69	119.37	5.58	-18.1	-35.9	3.8	1.50e+00	0	56	104	0	8	26774
2026-01-24 08:38:42.70	119.31	5.64	-19.4	-35.9	3.8	1.50e+00	0	56	104	0	9	25544
2026-01-24 08:38:43.71	119.24	5.71	-14.2	-32.0	3.7	1.50e+00	0	56	104	0	1	25755
2026-01-24 08:38:44.72	119.17	5.78	-18.7	-38.5	3.6	1.50e+00	0	56	104	0	11	30522
2026-01-24 08:38:45.73	119.10	5.84	-18.5	-36.1	4.0	1.50e+00	0	56	104	0	9	26017
2026-01-24 08:38:46.74	119.03	5.91	-22.1	-39.9	3.9	1.50e+00	0	56	104	0	13	32170
2026-01-24 08:38:47.75	118.96	5.98	-19.6	-36.9	3.8	1.50e+00	0	56	104	0	3	40242
2026-01-24 08:38:48.76	118.89	6.05	-20.5	-37.2	3.8	1.50e+00	0	56	104	0	8	31434
2026-01-24 08:38:49.77	118.82	6.11	-18.4	-37.3	3.9	1.50e+00	0	56	104	0	12	25155
2026-01-24 08:38:50.78	118.75	6.18	-20.8	-39.9	3.8	1.50e+00	0	56	104	0	13	32144
2026-01-24 08:38:51.79	118.67	6.25	-21.6	-41.1	3.8	1.50e+00	0	57	104	0	10	43488
2026-01-24 08:38:52.80	118.60	6.32	-19.5	-37.4	4.0	1.50e+00	0	57	104	0	13	23994
2026-01-24 08:38:53.81	118.53	6.39	-18.7	-39.8	3.8	1.50e+00	0	57	104	0	13	31658
2026-01-24 08:38:54.82	118.46	6.45	-22.5	-40.3	4.0	1.50e+00	0	57	104	0	13	33518
2026-01-24 08:38:55.83	118.38	6.52	-16.8	-37.0	4.1	1.50e+00	0	57	104	0	11	25747
2026-01-24 08:38:56.84	118.31	6.59	-22.6	-41.3	3.8	1.50e+00	0	57	104	0	14	35470
2026-01-24 08:38:57.85	118.24	6.66	-18.4	-37.7	3.9	1.50e+00	0	57	104	0	9	31315
2026-01-24 08:38:58.86	118.16	6.73	-17.9	-37.2	3.9	1.50e+00	0	57	104	0	8	31203
2026-01-24 08:38:59.87	118.09	6.80	-18.4	-37.8	3.8	1.50e+00	0	57	104	0	7	35557
2026-01-24 08:39:00.88	118.01	6.87	-17.8	-37.3	3.9	1.50e+00	0	57	104	0	10	28194
2026-01-24 08:39:01.89	117.94	6.94	-18.3	-36.8	3.9	1.50e+00	0	57	104	0	7	31590
2026-01-24 08:39:02.91	117.86	7.01	-17.5	-35.7	4.2	1.50e+00	0	57	104	0	6	29628
2026-01-24 08:39:03.92	117.79	7.08	-17.6	-38.0	3.9	1.50e+00	0	57	104	0	8	34137
2026-01-24 08:39:04.93	117.71	7.15	-17.1	-35.6	3.9	1.50e+00	0	57	104	0	8	26120
2026-01-24 08:39:05.94	117.63	7.22	-20.7	-40.0	3.9	1.50e+00	0	57	104	0	13	32374
2026-01-24 08:39:06.95	117.56	7.29	-21.1	-39.7	3.9	1.50e+00	0	57	104	0	13	31442
2026-01-24 08:39:07.96	117.48	7.36	-19.1	-37.2	4.1	1.50e+00	0	57	104	0	7	32995
2026-01-24 08:39:08.97	117.40	7.43	-18.5	-35.8	4.0	1.50e+00	0	57	104	0	9	25000
2026-01-24 08:39:09.98	117.32	7.50	-20.8	-37.9	3.7	1.50e+00	0	57	104	0	10	30168
2026-01-24 08:39:10.99	117.25	7.57	-18.6	-34.7	3.8	1.50e+00	0	57	104	0	6	26398
2026-01-24 08:39:12.00	117.17	7.64	-15.7	-35.7	3.9	1.50e+00	0	57	104	0	9	24788
2026-01-24 08:39:13.01	117.09	7.71	-16.4	-34.7	3.7	1.50e+00	0	57	104	0	6	26175
2026-01-24 08:39:14.02	117.01	7.78	-19.8	-40.6	3.8	1.50e+00	0	57	104	0	12	36731
2026-01-24 08:39:15.03	116.93	7.85	-17.6	-36.4	4.1	1.50e+00	0	57	104	0	12	22753
2026-01-24 08:39:16.04	116.85	7.92	-18.2	-36.1	4.0	1.50e+00	0	58	104	0	8	27392
2026-01-24 08:39:17.05	116.77	7.99	-18.8	-36.2	4.0	1.50e+00	0	58	104	0	2	39510
2026-01-24 08:39:18.06	116.68	8.07	-14.7	-33.8	3.9	1.50e+00	0	57	104	0	2	29790
2026-01-24 08:39:19.07	116.60	8.14	-22.6	-42.2	3.6	1.50e+00	0	58	104	0	17	32972
2026-01-24 08:39:20.08	116.52	8.21	-18.3	-36.4	3.8	1.50e+00	0	58	104	0	2	40130
2026-01-24 08:39:21.09	116.44	8.28	-19.9	-36.0	3.9	1.50e+00	0	58	104	0	9	25719
2026-01-24 08:39:22.10	116.36	8.35	-18.6	-34.5	3.9	1.50e+00	0	58	104	0	7	24374
2026-01-24 08:39:23.11	116.27	8.43	-23.3	-40.8	3.6	1.50e+00	0	58	104	0	14	33313
2026-01-24 08:39:24.12	116.19	8.50	-20.1	-39.7	3.8	1.50e+00	0	58	104	0	13	31412
2026-01-24 08:39:25.13	116.10	8.57	-20.3	-39.2	3.9	1.50e+00	0	58	104	0	13	29682
2026-01-24 08:39:26.14	116.02	8.64	-18.0	-36.3	3.7	1.50e+00	0	58	104	0	9	26655
2026-01-24 08:39:27.15	115.93	8.72	-19.0	-36.6	4.0	1.50e+00	0	58	104	0	12	23115
2026-01-24 08:39:28.15	115.85	8.79	-18.7	-37.5	3.9	1.50e+00	0	58	104	0	9	30528
2026-01-24 08:39:29.16	115.76	8.86	-18.7	-34.6	3.6	1.50e+00	0	58	104	0	7	24423
2026-01-24 08:39:30.17	115.68	8.94	-19.0	-37.1	3.6	1.50e+00	0	58	104	0	10	27518
2026-01-24 08:39:31.18	115.59	9.01	-19.2	-35.7	3.8	1.50e+00	0	58	104	0	6	29556
2026-01-24 08:39:32.19	115.50	9.08	-20.5	-39.8	3.7	1.50e+00	0	58	104	0	13	31478
2026-01-24 08:39:33.20	115.41	9.16	-21.0	-38.7	3.7	1.50e+00	0	58	104	0	11	31417
2026-01-24 08:39:34.21	115.33	9.23	-23.4	-41.0	3.8	1.50e+00	0	58	104	0	12	38522
2026-01-24 08:39:35.22	115.24	9.30	-19.5	-36.1	4.1	1.50e+00	0	58	104	0	8	27486
2026-01-24 08:39:36.23	115.15	9.38	-20.0	-39.4	3.9	1.50e+00	0	58	104	0	12	31902
2026-01-24 08:39:37.24	115.06	9.45	-16.9	-35.9	3.9	1.50e+00	0	58	104	0	6	30288
2026-01-24 08:39:38.24	114.97	9.53	-18.4	-36.7	4.1	1.50e+00	0	58	104	0	9	27776
2026-01-24 08:39:39.26	114.88	9.60	-17.2	-36.4	3.5	1.50e+00	0	58	104	0	6	31848
2026-01-24 08:39:40.27	114.79	9.68	-17.6	-36.4	3.9	1.50e+00	0	58	104	0	8	28456
2026-01-24 08:39:41.28	114.70	9.75	-19.7	-36.7	3.8	1.50e+00	0	58	104	0	10	26394
2026-01-24 08:39:42.28	114.60	9.83	-21.4	-40.8	3.8	1.50e+00	0	58	104	0	14	33368
2026-01-24 08:39:43.29	114.51	9.90	-20.4	-38.7	3.8	1.50e+00	0	59	104	0	12	29486
2026-01-24 08:39:44.30	114.42	9.98	-22.4	-41.2	3.9	1.50e+00	0	58	104	0	15	33242
2026-01-24 08:39:45.31	114.33	10.05	-24.3	-44.5	3.8	1.50e+00	0	58	0	0	23	30679
2026-01-24 08:39:46.32	114.23	10.13	-22.6	-43.9	4.2	1.50e+00	0	58	104	0	26	24052
2026-01-24 08:39:47.33	114.14	10.21	-19.5	-35.9	3.6	1.50e+00	0	58	104	0	9	25434
2026-01-24 08:39:48.34	114.04	10.28	-19.4	-36.3	3.9	1.50e+00	0	58	104	0	10	25204
2026-01-24 08:39:49.35	113.95	10.36	-22.2	-42.0	4.0	1.50e+00	0	59	104	0	16	34345
2026-01-24 08:39:50.36	113.85	10.43	-24.5	-43.6	3.8	1.50e+00	0	59	104	0	18	36913
2026-01-24 08:39:51.37	113.75	10.51	-21.8	-40.9	3.9	1.49e+00	0	58	104	0	17	28665
2026-01-24 08:39:52.39	113.66	10.59	-27.1	-42.6	4.4	1.50e+00	0	58	104	0	22	26054
2026-01-24 08:39:53.39	113.56	10.66	-36.3	-52.8	4.2	1.44e+00	0	58	104	0	39	31507
2026-01-24 08:39:54.40	113.46	10.74	-30.9	-46.8	4.6	1.49e+00	0	58	104	0	37	17702
2026-01-24 08:39:55.41	113.36	10.82	-25.8	-44.0	3.9	1.48e+00	0	59	104	0	24	27143
2026-01-24 08:39:56.42	113.26	10.90	-28.2	-46.2	4.3	1.49e+00	0	59	104	0	29	26234
2026-01-24 08:39:57.43	113.16	10.97	-26.6	-43.8	4.5	1.44e+00	0	59	104	0	26	23698
2026-01-24 08:39:58.44	113.06	11.05	-26.1	-46.5	4.4	1.43e+00	0	59	104	0	31	24136
2026-01-24 08:39:59.46	112.96	11.13	-29.7	-47.5	4.6	1.42e+00	0	59	104	0	35	21667
2026-01-24 08:40:00.46	112.86	11.21	-36.1	-47.4	5.0	1.43e+00	0	58	104	0	39	16957
2026-01-24 08:40:01.47	112.76	11.29	-38.8	-50.1	6.2	1.43e+00	6	59	104	0	49	12990
2026-01-24 08:40:02.48	112.66	11.36	-36.5	-48.2	6.7	4.32e-01	16	59	0	1048576	44	14017
2026-01-24 08:40:03.49	112.55	11.44	-31.9	-51.3	4.2	1.50e+00	0	59	104	1048576	38	28182
2026-01-24 08:40:04.50	112.45	11.52	-31.3	-50.7	4.2	1.50e+00	0	59	104	1048576	33	35163
2026-01-24 08:40:05.51	112.35	11.60	-32.9	-52.3	4.0	1.50e+00	0	59	104	1048576	38	31655
2026-01-24 08:40:06.52	112.24	11.68	-34.6	-53.2	4.2	1.50e+00	0	59	104	1048576	40	31295
2026-01-24 08:40:07.53	112.14	11.76	-31.8	-52.0	4.1	1.50e+00	0	59	104	1048576	39	28970
2026-01-24 08:40:08.54	112.03	11.84	-39.1	-47.4	9.0	1.45e+00	0	59	104	1048576	49	9533
2026-01-24 08:40:09.55	111.92	11.92	-42.6	-54.1	4.6	5.97e-01	4	59	0	2097152	56	13782
2026-01-24 08:40:10.56	111.82	12.00	-37.9	-47.0	9.5	9.01e-01	0	59	0	2097152	49	9151
2026-01-24 08:40:11.57	111.71	12.08	-39.3	-48.9	7.2	4.83e-01	9	59	0	3145728	49	11310
2026-01-24 08:40:12.58	111.60	12.16	-40.1	-47.2	9.6	6.14e-02	0	59	0	5242880	50	8777
2026-01-24 08:40:13.59	111.49	12.24	-38.0	-47.2	9.4	3.01e-02	0	59	0	7340032	49	9359
2026-01-24 08:40:14.60	111.38	12.32	-38.7	-47.5	9.5	2.66e-02	0	59	0	9437184	51	8597
2026-01-24 08:40:15.61	111.27	12.40	-38.9	-47.0	9.6	2.82e-02	0	59	0	10485760	51	8148
2026-01-24 08:40:16.62	111.16	12.48	-40.9	-47.1	9.9	2.07e-02	0	59	0	12582912	52	7808
2026-01-24 08:40:17.63	111.05	12.56	-40.9	-47.0	9.9	1.60e-02	0	59	0	14680064	53	7261
2026-01-24 08:40:18.64	110.94	12.64	-41.2	-46.7	10.4	9.76e-03	0	59	0	16777216	53	6995
2026-01-24 08:40:19.64	110.83	12.72	-40.7	-46.6	10.4	6.87e-03	0	59	0	18874368	53	6933
2026-01-24 08:40:20.65	110.71	12.80	-39.5	-46.8	10.3	7.25e-03	0	59	0	19922944	53	7097
2026-01-24 08:40:21.66	110.60	12.88	-41.1	-46.7	10.3	6.95e-03	0	59	0	22020096	53	6999
2026-01-24 08:40:22.67	110.49	12.97	-41.2	-47.0	10.0	8.30e-03	0	59	0	24117248	53	7234
2026-01-24 08:40:23.68	110.37	13.05	-39.2	-47.2	9.9	2.71e-02	0	59	0	26214400	53	7411
2026-01-24 08:40:24.69	110.25	13.13	-41.2	-47.1	10.0	9.09e-03	0	59	0	28311552	54	6926
2026-01-24 08:40:25.70	110.14	13.21	-41.6	-46.7	10.5	1.26e-02	0	59	0	29360128	53	6988
2026-01-24 08:40:26.71	110.02	13.29	-41.5	-46.7	10.4	5.32e-03	0	59	0	31457280	53	6990
2026-01-24 08:40:27.72	109.90	13.38	-36.3	-46.8	8.8	7.02e-03	0	59	0	33554432	44	11908
2026-01-24 08:40:28.73	109.78	13.46	-31.8	-46.0	8.9	4.83e-02	0	59	0	35651584	35	18268
2026-01-24 08:40:29.74	109.67	13.54	-41.2	-46.8	10.3	8.71e-03	0	59	0	37748736	54	6712
2026-01-24 08:40:30.75	109.55	13.62	-32.2	-46.1	8.9	7.28e-03	0	59	0	38797312	39	14542
2026-01-24 08:40:31.76	109.43	13.71	-28.9	-46.6	7.3	1.02e-01	0	59	0	40894464	36	18505
2026-01-24 08:40:32.77	109.30	13.79	-41.6	-46.9	10.2	5.90e-03	0	59	0	42991616	53	7204
2026-01-24 08:40:33.78	109.18	13.87	-41.7	-46.9	10.4	5.98e-03	0	59	0	45088768	54	6790
2026-01-24 08:40:34.79	109.06	13.96	-41.9	-47.2	9.5	6.30e-03	0	60	0	47185920	50	8801
2026-01-24 08:40:35.79	108.94	14.04	-36.4	-47.1	9.3	1.50e-02	0	59	0	48234496	48	9722
2026-01-24 08:40:36.80	108.81	14.12	-41.5	-46.8	10.5	5.62e-03	0	59	0	50331648	54	6695
2026-01-24 08:40:37.81	108.69	14.21	-41.7	-46.7	10.6	3.79e-03	0	60	0	52428800	54	6607
2026-01-24 08:40:38.82	108.56	14.29	-41.8	-47.0	9.9	6.31e-03	0	59	0	54525952	54	6848
2026-01-24 08:40:39.83	108.44	14.38	-41.3	-46.9	10.1	8.67e-03	0	60	0	56623104	53	7142
2026-01-24 08:40:40.84	108.31	14.46	-41.3	-46.6	10.4	6.05e-03	0	60	0	57671680	53	6914
2026-01-24 08:40:41.85	108.18	14.55	-41.3	-46.5	10.4	5.40e-03	0	59	0	59768832	53	6859
2026-01-24 08:40:42.86	108.06	14.63	-41.4	-46.4	10.6	1.25e-02	0	59	0	61865984	53	6769
2026-01-24 08:40:43.87	107.93	14.72	-39.5	-46.5	10.4	3.96e-03	0	59	0	63963136	50	8121
2026-01-24 08:40:44.88	107.80	14.80	-40.9	-46.4	11.0	2.42e-03	0	60	0	66060288	54	6366
2026-01-24 08:40:45.89	107.67	14.89	-41.8	-46.4	11.0	2.66e-03	0	60	0	68157440	54	6396
2026-01-24 08:40:46.90	107.53	14.97	-41.8	-46.4	10.9	2.93e-03	0	60	0	69206016	54	6420
2026-01-24 08:40:47.91	107.40	15.06	-41.8	-46.6	10.6	2.50e-03	0	60	0	71303168	54	6554
2026-01-24 08:40:48.92	107.27	15.14	-41.8	-46.3	11.1	2.67e-03	0	60	0	73400320	54	6326
2026-01-24 08:40:49.93	107.14	15.23	-41.7	-46.1	11.3	1.38e-03	0	60	0	75497472	54	6166
2026-01-24 08:40:50.94	107.00	15.31	-41.7	-46.0	11.5	1.27e-03	0	60	0	77594624	54	6105
2026-01-24 08:40:51.95	106.87	15.40	-41.7	-46.0	11.4	1.20e-03	0	60	0	78643200	53	6443
2026-01-24 08:40:52.96	106.73	15.49	-41.6	-46.2	11.2	1.59e-03	0	60	0	80740352	54	6270
2026-01-24 08:40:53.97	106.59	15.57	-41.8	-46.3	11.0	2.31e-03	0	60	0	82837504	54	6338
2026-01-24 08:40:54.98	106.46	15.66	-41.9	-46.4	11.0	2.51e-03	0	60	0	84934656	54	6400
2026-01-24 08:40:55.99	106.32	15.75	-41.0	-46.4	10.2	5.68e-03	0	60	0	87031808	53	6768
2026-01-24 08:40:57.00	106.18	15.83	-41.7	-46.0	11.4	2.13e-03	0	60	0	88080384	53	6491
2026-01-24 08:40:58.01	106.04	15.92	-41.6	-45.9	11.6	1.20e-03	0	60	0	90177536	53	6356
2026-01-24 08:40:59.02	105.90	16.01	-41.5	-45.8	11.7	8.85e-04	0	60	0	92274688	53	6300
2026-01-24 08:41:00.03	105.76	16.09	-41.7	-45.9	11.6	1.57e-03	0	60	0	94371840	53	6371
2026-01-24 08:41:01.04	105.61	16.18	-41.6	-45.8	11.6	1.26e-03	0	60	0	96468992	53	6339
2026-01-24 08:41:02.05	105.47	16.27	-41.6	-45.7	11.9	5.03e-04	0	60	0	97517568	53	6211
2026-01-24 08:41:03.06	105.33	16.36	-41.6	-45.7	11.8	4.94e-04	0	60	0	99614720	53	6253
2026-01-24 08:41:04.07	105.18	16.44	-41.6	-45.9	11.6	5.92e-04	0	60	0	101711872	53	6363
2026-01-24 08:41:05.08	105.03	16.53	-41.6	-45.8	11.7	5.07e-04	0	60	0	103809024	53	6315
2026-01-24 08:41:06.09	104.89	16.62	-41.7	-45.8	11.7	6.41e-04	0	60	0	105906176	53	6337
2026-01-24 08:41:07.10	104.74	16.71	-41.6	-45.7	11.9	5.13e-04	0	60	0	106954752	53	6209
2026-01-24 08:41:08.11	104.59	16.80	-41.7	-45.8	11.7	4.17e-04	0	60	0	109051904	53	6328
2026-01-24 08:41:09.12	104.44	16.88	-41.6	-45.8	11.8	7.56e-04	0	60	0	111149056	53	6323
2026-01-24 08:41:10.13	104.29	16.97	-41.6	-46.0	11.6	5.97e-04	0	60	0	113246208	54	6076
2026-01-24 08:41:11.14	104.14	17.06	-41.8	-46.0	11.6	7.36e-04	0	60	0	115343360	54	6107
2026-01-24 08:41:12.15	103.99	17.15	-41.5	-45.8	11.7	5.59e-04	0	60	0	116391936	54	5974
2026-01-24 08:41:13.16	103.83	17.24	-41.6	-45.8	11.8	4.87e-04	0	60	0	118489088	54	5963
2026-01-24 08:41:14.16	103.68	17.33	-41.6	-45.8	11.8	4.84e-04	0	60	0	120586240	53	6299
2026-01-24 08:41:15.17	103.53	17.42	-41.7	-45.8	11.8	4.52e-04	0	60	0	122683392	53	6306
2026-01-24 08:41:16.18	103.37	17.50	-42.1	-46.1	11.8	5.28e-04	0	60	0	124780544	53	6497
2026-01-24 08:41:17.19	103.22	17.59	-41.6	-45.7	12.0	3.36e-04	0	60	0	125829120	53	6209
2026-01-24 08:41:18.20	103.06	17.68	-41.7	-45.8	11.8	4.00e-04	0	60	0	127926272	53	6315
2026-01-24 08:41:19.21	102.90	17.77	-41.7	-45.9	11.7	4.74e-04	0	60	0	130023424	53	6348
2026-01-24 08:41:20.22	102.74	17.86	-41.7	-46.0	11.6	7.54e-04	0	60	0	132120576	54	6090
2026-01-24 08:41:21.23	102.58	17.95	-41.7	-45.8	11.8	5.84e-04	0	60	0	134217728	53	6329
2026-01-24 08:41:22.24	102.42	18.04	-41.7	-45.8	11.9	4.57e-04	0	60	0	136314880	53	6285
2026-01-24 08:41:23.25	102.25	18.13	-41.7	-45.8	11.8	5.19e-04	0	60	0	137363456	53	6331
2026-01-24 08:41:24.26	102.09	18.22	-41.7	-45.8	11.8	4.89e-04	0	60	0	139460608	53	6317
2026-01-24 08:41:25.27	101.93	18.31	-41.6	-45.9	11.8	5.03e-04	0	60	0	141557760	54	6031
2026-01-24 08:41:26.28	101.76	18.40	-41.6	-45.8	11.8	5.68e-04	0	60	0	143654912	54	5956
2026-01-24 08:41:27.28	101.60	18.49	-41.6	-45.6	12.1	4.84e-04	0	60	0	145752064	53	6163
2026-01-24 08:41:28.29	101.43	18.58	-41.6	-45.7	12.0	5.03e-04	0	60	0	146800640	53	6218
2026-01-24 08:41:29.30	101.26	18.67	-41.7	-45.8	11.8	5.15e-04	0	60	0	148897792	53	6320
2026-01-24 08:41:30.31	101.09	18.76	-41.8	-46.1	11.6	8.15e-04	0	60	0	150994944	54	6157
2026-01-24 08:41:31.32	100.92	18.85	-41.9	-46.2	11.5	9.86e-04	0	60	0	153092096	54	6227
2026-01-24 08:41:32.33	100.75	18.94	-41.8	-46.0	11.7	7.03e-04	0	60	0	155189248	54	6071
2026-01-24 08:41:33.34	100.58	19.03	-41.9	-46.1	11.6	5.93e-04	0	60	0	156237824	54	6180
2026-01-24 08:41:34.35	100.40	19.12	-41.9	-46.3	11.4	9.17e-04	0	60	0	158334976	54	6309
2026-01-24 08:41:35.36	100.23	19.21	-42.0	-46.4	11.3	1.17e-03	0	60	0	160432128	54	6355
2026-01-24 08:41:36.37	100.05	19.30	-42.0	-46.3	11.4	1.71e-03	0	60	0	162529280	54	6324
2026-01-24 08:41:37.38	99.88	19.39	-42.0	-46.3	11.4	1.02e-03	0	60	0	164626432	54	6317
2026-01-24 08:41:38.39	99.70	19.49	-42.0	-46.3	11.4	1.14e-03	0	60	0	165675008	54	6308
2026-01-24 08:41:39.40	99.52	19.58	-41.9	-46.2	11.5	8.49e-04	0	60	0	167772160	54	6212
2026-01-24 08:41:40.41	99.34	19.67	-42.0	-46.4	11.3	8.26e-04	0	60	0	169869312	54	6372
2026-01-24 08:41:41.42	99.16	19.76	-41.9	-46.1	11.6	8.78e-04	0	60	0	171966464	54	6191
2026-01-24 08:41:42.43	98.98	19.85	-41.9	-46.1	11.7	5.68e-04	0	60	0	174063616	54	6143
2026-01-24 08:41:43.44	98.79	19.94	-41.8	-45.9	11.8	4.90e-04	0	60	0	175112192	54	6058
2026-01-24 08:41:44.45	98.61	20.03	-41.8	-45.9	11.8	5.05e-04	0	60	0	177209344	54	6058
2026-01-24 08:41:45.45	98.43	20.12	-41.9	-46.1	11.7	6.13e-04	0	60	0	179306496	54	6132
2026-01-24 08:41:46.46	98.24	20.21	-41.9	-46.0	11.7	6.16e-04	0	60	0	181403648	54	6116
2026-01-24 08:41:47.47	98.05	20.30	-41.8	-45.8	11.9	4.18e-04	0	60	0	183500800	54	5991
2026-01-24 08:41:48.48	97.86	20.39	-41.7	-45.8	12.0	3.45e-04	0	60	0	184549376	54	5934
2026-01-24 08:41:49.49	97.67	20.49	-41.8	-45.8	12.0	3.67e-04	0	60	0	186646528	54	5949
2026-01-24 08:41:50.50	97.48	20.58	-41.8	-45.9	11.9	5.04e-04	0	61	0	188743680	54	6013
2026-01-24 08:41:51.51	97.29	20.67	-41.8	-46.0	11.8	5.02e-04	0	60	0	190840832	54	6062
2026-01-24 08:41:52.52	97.10	20.76	-41.8	-45.9	11.9	4.55e-04	0	61	0	192937984	54	6022
2026-01-24 08:41:53.53	96.90	20.85	-41.7	-45.8	12.0	3.81e-04	0	60	0	193986560	54	5940
2026-01-24 08:41:54.54	96.71	20.94	-41.8	-45.9	11.9	3.60e-04	0	61	0	196083712	54	6004
2026-01-24 08:41:55.55	96.51	21.03	-41.8	-45.9	11.8	4.81e-04	0	60	0	198180864	54	6054
2026-01-24 08:41:56.56	96.31	21.12	-41.8	-45.9	11.9	4.56e-04	0	60	0	200278016	54	5997
2026-01-24 08:41:57.57	96.11	21.21	-41.7	-45.8	12.0	3.62e-04	0	60	0	202375168	54	5933
2026-01-24 08:41:58.58	95.91	21.30	-41.6	-45.6	12.2	2.63e-04	0	60	0	204472320	54	5806
2026-01-24 08:41:59.59	95.71	21.39	-41.7	-45.6	12.2	2.46e-04	0	61	0	205520896	54	5844
2026-01-24 08:42:00.60	95.51	21.48	-41.6	-45.6	12.2	2.30e-04	0	60	0	207618048	54	5796
2026-01-24 08:42:01.61	95.31	21.58	-41.6	-45.4	12.3	1.57e-04	0	60	0	209715200	54	5720
2026-01-24 08:42:02.61	95.10	21.67	-41.6	-45.4	12.4	1.60e-04	0	61	0	211812352	54	5718
2026-01-24 08:42:03.62	94.90	21.76	-41.5	-45.4	12.4	1.47e-04	0	60	0	213909504	54	5665
2026-01-24 08:42:04.63	94.69	21.85	-41.5	-45.4	12.4	1.38e-04	0	60	0	214958080	54	5681
2026-01-24 08:42:05.64	94.48	21.94	-41.5	-45.4	12.4	1.62e-04	0	60	0	217055232	54	5669
2026-01-24 08:42:06.65	94.27	22.03	-41.5	-45.3	12.5	1.36e-04	0	60	0	219152384	54	5634
2026-01-24 08:42:07.66	94.06	22.12	-41.5	-45.3	12.5	1.22e-04	0	60	0	221249536	54	5626
2026-01-24 08:42:08.67	93.85	22.21	-41.4	-45.2	12.5	1.47e-04	0	61	0	223346688	54	5543
2026-01-24 08:42:09.68	93.63	22.30	-41.4	-45.2	12.5	1.15e-04	0	61	0	224395264	54	5552
2026-01-24 08:42:10.69	93.42	22.39	-41.3	-44.9	12.8	6.10e-05	0	61	0	226492416	54	5373
2026-01-24 08:42:11.70	93.20	22.48	-41.2	-44.8	13.0	4.04e-05	0	61	0	228589568	54	5284
2026-01-24 08:42:12.71	92.99	22.57	-41.1	-44.6	13.2	2.97e-05	0	61	0	230686720	54	5176
2026-01-24 08:42:13.72	92.77	22.66	-41.1	-44.6	13.2	2.36e-05	0	61	0	232783872	54	5171
2026-01-24 08:42:14.73	92.55	22.74	-41.1	-44.6	13.2	2.21e-05	0	61	0	233832448	54	5163
2026-01-24 08:42:15.73	92.33	22.83	-41.1	-44.6	13.2	1.75e-05	0	61	0	235929600	54	5166
2026-01-24 08:42:16.74	92.11	22.92	-41.2	-44.6	13.1	2.89e-05	0	61	0	238026752	54	5216
2026-01-24 08:42:17.75	91.88	23.01	-41.1	-44.6	13.1	2.67e-05	0	61	0	240123904	54	5195
2026-01-24 08:42:18.76	91.66	23.10	-41.2	-44.7	13.0	2.59e-05	0	60	0	242221056	54	5277
2026-01-24 08:42:19.77	91.43	23.19	-41.2	-44.7	13.1	2.82e-05	0	61	0	243269632	54	5219
2026-01-24 08:42:20.78	91.20	23.28	-41.2	-44.6	13.2	1.52e-05	0	61	0	245366784	54	5180
2026-01-24 08:42:21.79	90.98	23.36	-41.2	-44.6	13.2	2.21e-05	0	61	0	247463936	54	5202
2026-01-24 08:42:22.80	90.75	23.45	-41.1	-44.5	13.3	1.83e-05	0	60	0	249561088	54	5139
2026-01-24 08:42:23.81	90.51	23.54	-41.1	-44.5	13.3	1.98e-05	0	61	0	251658240	54	5150
2026-01-24 08:42:24.82	90.28	23.63	-41.1	-44.5	13.3	2.36e-05	0	61	0	252706816	54	5136
2026-01-24 08:42:25.83	90.05	23.72	-41.1	-44.5	13.3	1.67e-05	0	61	0	254803968	54	5140
2026-01-24 08:42:26.84	89.81	23.80	-41.2	-44.7	13.2	1.83e-05	0	61	0	256901120	54	5249
2026-01-24 08:42:27.85	89.58	23.89	-41.1	-44.4	13.4	1.98e-05	0	61	0	258998272	54	5084
2026-01-24 08:42:28.86	89.34	23.98	-41.1	-44.4	13.4	6.80e-06	0	60	0	261095424	54	5091
2026-01-24 08:42:29.87	89.10	24.06	-41.1	-44.6	13.3	2.59e-05	0	61	0	262144000	54	5164
2026-01-24 08:42:30.88	88.86	24.15	-41.1	-44.6	13.3	2.44e-05	0	61	0	264241152	54	5167
2026-01-24 08:42:31.89	88.62	24.23	-41.2	-44.6	13.2	2.36e-05	0	61	0	266338304	54	5212
2026-01-24 08:42:32.90	88.37	24.32	-41.3	-44.8	13.1	3.73e-05	0	61	0	268435456	54	5297
2026-01-24 08:42:33.90	88.13	24.40	-41.3	-44.8	13.0	2.28e-05	0	60	0	270532608	54	5305
2026-01-24 08:42:34.92	87.88	24.49	-41.3	-44.8	13.0	3.73e-05	0	61	0	271581184	54	5313
2026-01-24 08:42:35.93	87.63	24.57	-41.4	-45.0	12.9	5.41e-05	0	61	0	273678336	54	5420
2026-01-24 08:42:36.94	87.39	24.66	-41.4	-45.0	12.8	4.57e-05	0	61	0	275775488	54	5447
2026-01-24 08:42:37.95	87.14	24.74	-41.4	-45.0	12.8	4.50e-05	0	61	0	277872640	54	5464
2026-01-24 08:42:38.96	86.88	24.83	-41.4	-45.1	12.8	4.95e-05	0	61	0	279969792	54	5474
2026-01-24 08:42:39.97	86.63	24.91	-41.4	-45.0	12.9	4.73e-05	0	61	0	281018368	54	5440
2026-01-24 08:42:40.98	86.38	24.99	-41.5	-45.2	12.6	6.71e-05	0	61	0	283115520	54	5585
2026-01-24 08:42:41.98	86.13	25.07	-41.5	-45.2	12.7	7.09e-05	0	61	0	285212672	54	5587
2026-01-24 08:42:42.99	85.87	25.16	-41.6	-45.4	12.5	9.61e-05	0	61	0	287309824	54	5664
2026-01-24 08:42:44.00	85.61	25.24	-41.5	-45.3	12.6	7.70e-05	0	61	0	289406976	54	5608
2026-01-24 08:42:45.01	85.35	25.32	-41.5	-45.1	12.7	1.01e-04	0	61	0	290455552	54	5521
2026-01-24 08:42:46.02	85.09	25.40	-41.4	-45.0	12.9	4.65e-05	0	61	0	292552704	54	5438
2026-01-24 08:42:47.03	84.83	25.48	-41.5	-45.1	12.7	6.79e-05	0	61	0	294649856	54	5517
2026-01-24 08:42:48.04	84.57	25.56	-41.5	-45.1	12.8	6.48e-05	0	61	0	296747008	54	5508
2026-01-24 08:42:49.05	84.30	25.64	-41.5	-45.2	12.7	6.10e-05	0	61	0	298844160	54	5576
2026-01-24 08:42:50.06	84.03	25.72	-41.7	-45.5	12.4	1.08e-04	0	61	0	300941312	54	5758
2026-01-24 08:42:51.07	83.77	25.80	-41.7	-45.5	12.4	1.99e-04	0	61	0	301989888	54	5766
2026-01-24 08:42:52.08	83.50	25.88	-41.7	-45.6	12.2	1.95e-04	0	61	0	304087040	54	5836
2026-01-24 08:42:53.09	83.23	25.96	-41.7	-45.6	12.3	1.46e-04	0	61	0	306184192	54	5814
2026-01-24 08:42:54.10	82.96	26.03	-41.7	-45.6	12.2	1.93e-04	0	61	0	308281344	54	5852
2026-01-24 08:42:55.10	82.69	26.11	-41.7	-45.5	12.4	1.56e-04	0	61	0	310378496	54	5740
2026-01-24 08:42:56.11	82.41	26.19	-41.7	-45.5	12.4	1.55e-04	0	61	0	311427072	54	5758
2026-01-24 08:42:57.12	82.14	26.26	-41.5	-45.2	12.8	1.46e-04	0	61	0	313524224	54	5543
2026-01-24 08:42:58.13	81.86	26.34	-41.5	-45.1	12.8	5.41e-05	0	61	0	315621376	54	5474
2026-01-24 08:42:59.14	81.58	26.41	-41.5	-45.2	12.7	8.54e-05	0	61	0	317718528	54	5577
2026-01-24 08:43:00.15	81.30	26.49	-41.6	-45.3	12.7	7.93e-05	0	61	0	319815680	54	5602
2026-01-24 08:43:01.16	81.02	26.56	-41.5	-45.2	12.8	7.55e-05	0	61	0	320864256	54	5533
2026-01-24 08:43:02.18	80.74	26.64	-41.4	-44.9	13.1	3.12e-05	0	61	0	322961408	54	5377
2026-01-24 08:43:03.19	80.46	26.71	-41.4	-44.9	13.0	4.80e-05	0	61	0	325058560	54	5398
2026-01-24 08:43:04.19	80.17	26.78	-41.5	-45.0	12.9	4.50e-05	0	61	0	327155712	54	5463
2026-01-24 08:43:05.20	79.89	26.85	-41.5	-45.0	12.9	4.42e-05	0	61	0	329252864	54	5464
2026-01-24 08:43:06.21	79.60	26.92	-41.5	-45.0	13.0	4.27e-05	0	61	0	330301440	54	5449
2026-01-24 08:43:07.22	79.31	26.99	-41.6	-45.3	12.7	5.34e-05	0	61	0	332398592	54	5624
2026-01-24 08:43:08.23	79.02	27.06	-41.6	-45.4	12.6	1.01e-04	0	61	0	334495744	54	5668
2026-01-24 08:43:09.24	78.73	27.13	-41.6	-45.4	12.6	1.02e-04	0	61	0	336592896	54	5669
2026-01-24 08:43:10.25	78.44	27.20	-41.6	-45.3	12.7	9.61e-05	0	61	0	338690048	54	5626
2026-01-24 08:43:11.26	78.15	27.27	-41.6	-45.4	12.6	9.00e-05	0	61	0	339738624	54	5683
2026-01-24 08:43:12.27	77.85	27.34	-41.7	-45.5	12.5	1.27e-04	0	61	0	341835776	54	5723
2026-01-24 08:43:13.28	77.56	27.40	-41.6	-45.3	12.7	8.85e-05	0	60	0	343932928	54	5629
2026-01-24 08:43:14.29	77.26	27.47	-41.7	-45.4	12.6	7.78e-05	0	61	0	346030080	54	5669
2026-01-24 08:43:15.30	76.96	27.53	-41.7	-45.4	12.5	9.30e-05	0	61	0	348127232	54	5722
2026-01-24 08:43:16.31	76.66	27.60	-41.8	-45.6	12.4	1.17e-04	0	61	0	349175808	54	5821
2026-01-24 08:43:17.32	76.36	27.66	-41.8	-45.7	12.3	1.75e-04	0	60	0	351272960	54	5874
2026-01-24 08:43:18.33	76.06	27.73	-41.8	-45.6	12.3	1.73e-04	0	61	0	353370112	54	5849
2026-01-24 08:43:19.34	75.76	27.79	-41.8	-45.7	12.3	1.56e-04	0	61	0	355467264	54	5880
2026-01-24 08:43:20.35	75.45	27.85	-41.9	-45.8	12.2	1.95e-04	0	61	0	357564416	54	5952
2026-01-24 08:43:21.36	75.15	27.91	-41.8	-45.6	12.4	1.77e-04	0	61	0	358612992	54	5851
2026-01-24 08:43:22.37	74.84	27.97	-41.8	-45.7	12.4	1.54e-04	0	61	0	360710144	54	5874
2026-01-24 08:43:23.38	74.53	28.03	-41.9	-45.8	12.2	2.22e-04	0	61	0	362807296	54	5960
2026-01-24 08:43:24.38	74.23	28.09	-41.9	-45.9	12.1	2.37e-04	0	61	0	364904448	54	6036
2026-01-24 08:43:25.39	73.92	28.14	-42.0	-46.0	12.0	2.65e-04	0	61	0	367001600	54	6103
2026-01-24 08:43:26.40	73.60	28.20	-42.0	-46.1	11.9	2.94e-04	0	61	0	369098752	54	6163
2026-01-24 08:43:27.41	73.29	28.26	-42.2	-46.4	11.6	5.35e-04	0	61	0	370147328	54	6388
2026-01-24 08:43:28.42	72.98	28.31	-42.2	-46.5	11.5	7.48e-04	0	61	0	372244480	55	6095
2026-01-24 08:43:29.43	72.66	28.37	-42.2	-46.5	11.5	9.26e-04	0	61	0	374341632	55	6092
2026-01-24 08:43:30.44	72.35	28.42	-42.2	-46.4	11.6	7.74e-04	0	61	0	376438784	55	6002
2026-01-24 08:43:31.45	72.03	28.47	-42.1	-46.2	11.8	4.84e-04	0	61	0	378535936	55	5912
2026-01-24 08:43:32.46	71.72	28.52	-42.1	-46.3	11.7	5.97e-04	0	61	0	379584512	55	5958
2026-01-24 08:43:33.47	71.40	28.57	-42.2	-46.4	11.6	6.10e-04	0	61	0	381681664	55	6041
2026-01-24 08:43:34.48	71.08	28.62	-42.2	-46.5	11.5	8.99e-04	0	61	0	383778816	55	6100
2026-01-24 08:43:35.49	70.76	28.67	-42.2	-46.5	11.5	8.48e-04	0	61	0	385875968	55	6121
2026-01-24 08:43:36.50	70.44	28.72	-42.2	-46.5	11.5	9.33e-04	0	61	0	387973120	55	6112
2026-01-24 08:43:37.51	70.11	28.77	-42.2	-46.5	11.6	8.89e-04	0	61	0	389021696	55	6074
2026-01-24 08:43:38.52	69.79	28.81	-42.2	-46.3	11.7	5.74e-04	0	61	0	391118848	55	5979
2026-01-24 08:43:39.53	69.47	28.86	-42.3	-46.6	11.4	8.39e-04	0	61	0	393216000	55	6154
2026-01-24 08:43:40.54	69.14	28.90	-42.3	-46.6	11.5	9.01e-04	0	61	0	395313152	55	6158
2026-01-24 08:43:41.55	68.81	28.95	-42.3	-46.6	11.4	9.70e-04	0	61	0	397410304	55	6182
2026-01-24 08:43:42.56	68.49	28.99	-42.3	-46.5	11.5	9.90e-04	0	61	0	398458880	55	6110
2026-01-24 08:43:43.56	68.16	29.03	-42.2	-46.5	11.6	7.55e-04	0	61	0	400556032	55	6096
2026-01-24 08:43:44.57	67.83	29.07	-42.3	-46.6	11.4	8.67e-04	0	61	0	402653184	55	6182
2026-01-24 08:43:45.58	67.50	29.11	-42.2	-46.4	11.7	6.81e-04	0	61	0	404750336	55	6013
2026-01-24 08:43:46.59	67.17	29.15	-42.2	-46.4	11.7	5.58e-04	0	61	0	406847488	55	5995
2026-01-24 08:43:47.60	66.84	29.19	-42.3	-46.6	11.5	8.00e-04	0	61	0	407896064	55	6151
2026-01-24 08:43:48.61	66.51	29.22	-42.4	-46.9	11.2	1.25e-03	0	61	0	409993216	55	6349
2026-01-24 08:43:49.62	66.18	29.26	-42.5	-47.1	10.9	1.75e-03	0	61	0	412090368	55	6499
2026-01-24 08:43:50.63	65.85	29.29	-42.5	-47.1	10.9	1.90e-03	0	61	0	414187520	55	6513
2026-01-24 08:43:51.64	65.51	29.32	-42.5	-47.0	11.0	1.81e-03	0	61	0	416284672	55	6471
2026-01-24 08:43:52.65	65.18	29.36	-42.5	-47.1	11.0	1.83e-03	0	61	0	417333248	55	6496
2026-01-24 08:43:53.66	64.84	29.39	-42.5	-47.1	10.9	1.86e-03	0	61	0	419430400	55	6527
2026-01-24 08:43:54.67	64.51	29.42	-42.6	-47.2	10.8	2.48e-03	0	61	0	421527552	55	6625
2026-01-24 08:43:55.68	64.17	29.45	-42.6	-47.4	10.7	2.34e-03	0	61	0	423624704	55	6724
2026-01-24 08:43:56.69	63.83	29.47	-42.6	-47.4	10.7	3.18e-03	0	61	0	425721856	55	6743
2026-01-24 08:43:57.70	63.50	29.50	-42.7	-47.4	10.6	3.44e-03	0	61	0	426770432	55	6799
2026-01-24 08:43:58.71	63.16	29.53	-42.7	-47.5	10.6	3.68e-03	0	61	0	428867584	55	6824
2026-01-24 08:43:59.71	62.82	29.55	-42.7	-47.4	10.6	3.97e-03	0	61	0	430964736	55	6795
2026-01-24 08:44:00.72	62.48	29.58	-42.7	-47.5	10.5	3.64e-03	0	61	0	433061888	55	6877
2026-01-24 08:44:01.73	62.14	29.60	-42.9	-47.7	10.5	4.17e-03	0	61	0	435159040	56	6605
2026-01-24 08:44:02.74	61.80	29.62	-42.9	-47.7	10.5	3.82e-03	0	61	0	437256192	56	6603
2026-01-24 08:44:03.75	61.46	29.64	-42.8	-47.6	10.6	3.93e-03	0	61	0	438304768	56	6533
2026-01-24 08:44:04.76	61.12	29.66	-42.9	-47.7	10.5	3.53e-03	0	61	0	440401920	56	6608
2026-01-24 08:44:05.77	60.78	29.68	-42.9	-47.9	10.3	4.12e-03	0	61	0	442499072	56	6747
2026-01-24 08:44:06.78	60.44	29.69	-43.0	-48.1	10.1	5.77e-03	0	61	0	444596224	56	6893
2026-01-24 08:44:07.79	60.10	29.71	-43.0	-48.2	10.0	7.38e-03	0	61	0	446693376	56	6981
2026-01-24 08:44:08.80	59.76	29.72	-43.0	-47.9	10.2	7.25e-03	0	61	0	447741952	56	6788
2026-01-24 08:44:09.81	59.41	29.74	-42.8	-47.6	10.5	4.85e-03	0	61	0	449839104	56	6560
2026-01-24 08:44:10.82	59.07	29.75	-42.9	-47.6	10.6	3.08e-03	0	61	0	451936256	56	6557
2026-01-24 08:44:11.83	58.73	29.76	-42.9	-47.8	10.4	4.52e-03	0	61	0	454033408	56	6712
2026-01-24 08:44:12.84	58.38	29.77	-42.9	-47.9	10.3	5.39e-03	0	61	0	456130560	56	6752
2026-01-24 08:44:13.84	58.04	29.78	-42.9	-47.7	10.5	4.28e-03	0	61	0	457179136	56	6594
2026-01-24 08:44:14.85	57.70	29.79	-42.8	-47.6	10.5	3.82e-03	0	61	0	459276288	56	6559
2026-01-24 08:44:15.86	57.36	29.79	-42.9	-47.7	10.5	3.68e-03	0	61	0	461373440	56	6600
2026-01-24 08:44:16.87	57.01	29.80	-42.9	-47.8	10.4	4.34e-03	0	61	0	463470592	56	6659
2026-01-24 08:44:17.88	56.67	29.80	-42.9	-47.7	10.5	4.33e-03	0	61	0	465567744	56	6597
2026-01-24 08:44:18.89	56.32	29.81	-42.8	-47.6	10.6	4.02e-03	0	61	0	466616320	56	6559
2026-01-24 08:44:19.90	55.98	29.81	-42.8	-47.5	10.7	3.34e-03	0	61	0	468713472	56	6437
2026-01-24 08:44:20.91	55.64	29.81	-42.7	-47.3	10.9	2.34e-03	0	61	0	470810624	56	6333
2026-01-24 08:44:21.92	55.29	29.81	-42.7	-47.4	10.9	2.15e-03	0	61	0	472907776	56	6351
2026-01-24 08:44:22.93	54.95	29.81	-42.7	-47.3	10.9	2.49e-03	0	61	0	475004928	56	6319
2026-01-24 08:44:23.94	54.60	29.80	-42.7	-47.3	10.9	2.24e-03	0	61	0	476053504	56	6313
2026-01-24 08:44:24.95	54.26	29.80	-42.6	-47.0	11.2	1.85e-03	0	61	0	478150656	56	6127
2026-01-24 08:44:25.96	53.92	29.79	-42.7	-47.2	11.0	1.61e-03	0	61	0	480247808	56	6268
2026-01-24 08:44:26.97	53.57	29.79	-42.6	-47.1	11.1	1.53e-03	0	61	0	482344960	56	6173
2026-01-24 08:44:27.98	53.23	29.78	-42.6	-47.0	11.2	1.32e-03	0	61	0	484442112	56	6114
2026-01-24 08:44:28.99	52.89	29.77	-42.5	-46.8	11.5	1.21e-03	0	61	0	485490688	56	5932
2026-01-24 08:44:30.00	52.54	29.76	-42.3	-46.5	11.8	5.24e-04	0	61	0	487587840	56	5742
2026-01-24 08:44:31.00	52.20	29.75	-42.3	-46.3	11.9	3.94e-04	0	61	0	489684992	56	5612
2026-01-24 08:44:32.01	51.86	29.74	-42.3	-46.3	12.0	3.18e-04	0	61	0	491782144	56	5629
2026-01-24 08:44:33.02	51.52	29.73	-42.3	-46.5	11.9	3.89e-04	0	61	0	493879296	56	5723
2026-01-24 08:44:34.02	51.18	29.71	-42.4	-46.5	11.7	4.73e-04	0	61	0	494927872	56	5776
2026-01-24 08:44:35.03	50.84	29.70	-42.4	-46.7	11.6	5.76e-04	0	61	0	497025024	56	5879
2026-01-24 08:44:36.04	50.50	29.68	-42.5	-46.7	11.5	7.26e-04	0	61	0	499122176	56	5903
2026-01-24 08:44:37.05	50.15	29.66	-42.5	-46.9	11.4	9.30e-04	0	61	0	501219328	56	6004
2026-01-24 08:44:38.06	49.81	29.64	-42.5	-46.8	11.4	7.38e-04	0	61	0	503316480	56	5975
2026-01-24 08:44:39.07	49.47	29.62	-42.4	-46.5	11.7	7.06e-04	0	61	0	505413632	56	5787
2026-01-24 08:44:40.08	49.13	29.60	-42.3	-46.3	11.9	4.14e-04	0	61	0	506462208	56	5649
2026-01-24 08:44:41.09	48.79	29.58	-42.3	-46.4	11.9	4.00e-04	0	61	0	508559360	56	5694
2026-01-24 08:44:42.10	48.45	29.56	-42.3	-46.4	11.9	3.49e-04	0	61	0	510656512	56	5693
2026-01-24 08:44:43.11	48.12	29.53	-42.4	-46.5	11.7	5.26e-04	0	61	0	512753664	56	5773
2026-01-24 08:44:44.12	47.78	29.51	-42.4	-46.6	11.7	5.83e-04	0	61	0	514850816	56	5811
2026-01-24 08:44:45.13	47.44	29.48	-42.3	-46.4	11.8	5.26e-04	0	61	0	515899392	56	5709
2026-01-24 08:44:46.14	47.10	29.45	-42.3	-46.4	11.9	3.88e-04	0	61	0	517996544	56	5685
2026-01-24 08:44:47.14	46.77	29.43	-42.3	-46.5	11.8	3.79e-04	0	61	0	520093696	56	5732
2026-01-24 08:44:48.15	46.44	29.40	-42.4	-46.7	11.6	5.52e-04	0	61	0	522190848	56	5884
2026-01-24 08:44:49.16	46.10	29.37	-42.4	-46.7	11.6	6.74e-04	0	61	0	524288000	56	5862
2026-01-24 08:44:50.17	45.77	29.33	-42.4	-46.6	11.8	5.81e-04	0	61	0	525336576	56	5795
2026-01-24 08:44:51.19	45.43	29.30	-42.3	-46.4	11.9	4.60e-04	0	61	0	527433728	56	5660
2026-01-24 08:44:52.20	45.10	29.27	-42.3	-46.3	12.1	3.80e-04	0	61	0	529530880	56	5602
2026-01-24 08:44:53.20	44.77	29.23	-42.3	-46.3	12.0	3.79e-04	0	61	0	531628032	56	5644
2026-01-24 08:44:54.21	44.44	29.20	-42.3	-46.4	11.9	3.62e-04	0	61	0	533725184	56	5664
2026-01-24 08:44:55.22	44.11	29.16	-42.4	-46.5	11.7	4.34e-04	0	61	0	534773760	56	5782
2026-01-24 08:44:56.23	43.78	29.12	-42.4	-46.6	11.7	6.45e-04	0	61	0	536870912	56	5797
2026-01-24 08:44:57.24	43.45	29.08	-42.4	-46.6	11.7	6.06e-04	0	61	0	538968064	56	5813
2026-01-24 08:44:58.25	43.12	29.04	-42.4	-46.6	11.7	6.06e-04	0	61	0	541065216	56	5846
2026-01-24 08:44:59.26	42.79	29.00	-42.5	-46.9	11.4	8.61e-04	0	61	0	543162368	56	5996
2026-01-24 08:45:00.27	42.47	28.96	-42.6	-47.1	11.2	1.16e-03	0	61	0	544210944	56	6132
2026-01-24 08:45:01.28	42.14	28.92	-42.7	-47.2	11.0	1.50e-03	0	61	0	546308096	56	6242
2026-01-24 08:45:02.29	41.82	28.87	-42.7	-47.3	11.0	1.83e-03	0	61	0	548405248	56	6286
2026-01-24 08:45:03.30	41.49	28.83	-42.7	-47.4	10.9	2.11e-03	0	61	0	550502400	56	6364
2026-01-24 08:45:04.31	41.17	28.78	-42.7	-47.4	10.9	2.50e-03	0	61	0	552599552	56	6368
2026-01-24 08:45:05.32	40.85	28.74	-42.8	-47.5	10.7	2.74e-03	0	61	0	553648128	56	6478
2026-01-24 08:45:06.33	40.53	28.69	-42.8	-47.5	10.7	3.06e-03	0	61	0	555745280	56	6490
2026-01-24 08:45:07.34	40.21	28.64	-42.8	-47.6	10.7	2.81e-03	0	61	0	557842432	56	6501
2026-01-24 08:45:08.35	39.89	28.59	-42.8	-47.6	10.7	2.93e-03	0	61	0	559939584	56	6505
2026-01-24 08:45:09.36	39.57	28.54	-42.8	-47.5	10.7	2.93e-03	0	61	0	562036736	56	6494
2026-01-24 08:45:10.37	39.25	28.49	-42.8	-47.6	10.6	3.52e-03	0	61	0	563085312	56	6560
2026-01-24 08:45:11.38	38.94	28.44	-42.9	-47.8	10.4	3.89e-03	0	61	0	565182464	56	6656
2026-01-24 08:45:12.39	38.62	28.38	-42.8	-47.6	10.6	3.49e-03	0	61	0	567279616	56	6534
2026-01-24 08:45:13.39	38.31	28.33	-42.8	-47.4	10.8	2.78e-03	0	61	0	569376768	56	6410
2026-01-24 08:45:14.40	38.00	28.27	-42.8	-47.5	10.7	2.62e-03	0	61	0	571473920	56	6431
2026-01-24 08:45:15.41	37.69	28.22	-42.8	-47.6	10.7	2.88e-03	0	61	0	573571072	56	6524
2026-01-24 08:45:16.42	37.38	28.16	-42.9	-47.7	10.5	3.31e-03	0	61	0	574619648	56	6583
2026-01-24 08:45:17.43	37.07	28.11	-42.9	-47.9	10.3	4.33e-03	0	61	0	576716800	56	6740
2026-01-24 08:45:18.44	36.76	28.05	-42.9	-47.8	10.4	4.82e-03	0	61	0	578813952	56	6705
2026-01-24 08:45:19.45	36.45	27.99	-43.0	-47.9	10.2	5.58e-03	0	61	0	580911104	56	6795
2026-01-24 08:45:20.46	36.14	27.93	-42.9	-47.8	10.4	5.14e-03	0	61	0	581959680	56	6676
2026-01-24 08:45:21.47	35.84	27.87	-42.9	-47.8	10.4	4.71e-03	0	61	0	584056832	56	6670
2026-01-24 08:45:22.48	35.54	27.81	-42.9	-47.7	10.5	3.79e-03	0	61	0	586153984	56	6600
2026-01-24 08:45:23.49	35.23	27.75	-42.8	-47.6	10.6	3.87e-03	0	61	0	588251136	56	6539
2026-01-24 08:45:24.50	34.93	27.68	-42.8	-47.4	10.8	2.88e-03	0	61	0	590348288	56	6392
2026-01-24 08:45:25.51	34.63	27.62	-42.7	-47.3	10.9	2.21e-03	0	61	0	591396864	56	6331
2026-01-24 08:45:26.52	34.33	27.56	-42.7	-47.4	10.8	2.15e-03	0	61	0	593494016	56	6359
2026-01-24 08:45:27.53	34.04	27.49	-42.7	-47.3	10.9	2.20e-03	0	61	0	595591168	56	6331
2026-01-24 08:45:28.54	33.74	27.43	-42.7	-47.3	11.0	2.00e-03	0	61	0	597688320	56	6288
2026-01-24 08:45:29.55	33.44	27.36	-42.7	-47.4	10.8	2.32e-03	0	61	0	599785472	56	6360
2026-01-24 08:45:30.56	33.15	27.29	-42.8	-47.4	10.9	2.01e-03	0	62	0	601882624	56	6363
2026-01-24 08:45:31.57	32.86	27.23	-42.7	-47.3	11.0	2.14e-03	0	61	0	602931200	56	6299
2026-01-24 08:45:32.57	32.57	27.16	-42.7	-47.3	11.0	1.87e-03	0	61	0	605028352	56	6301
2026-01-24 08:45:33.58	32.28	27.09	-42.7	-47.3	11.0	2.01e-03	0	61	0	607125504	56	6307
2026-01-24 08:45:34.59	31.99	27.02	-42.7	-47.1	11.1	1.92e-03	0	61	0	609222656	56	6194
2026-01-24 08:45:35.60	31.70	26.95	-42.6	-46.9	11.3	1.36e-03	0	61	0	611319808	56	6054
2026-01-24 08:45:36.61	31.41	26.88	-42.4	-46.6	11.6	7.59e-04	0	61	0	612368384	56	5850
2026-01-24 08:45:37.62	31.13	26.81	-42.4	-46.6	11.7	6.13e-04	0	61	0	614465536	56	5798
2026-01-24 08:45:38.63	30.85	26.74	-42.4	-46.5	11.8	5.35e-04	0	61	0	616562688	56	5756
2026-01-24 08:45:39.64	30.56	26.66	-42.4	-46.5	11.8	5.29e-04	0	61	0	618659840	56	5747
2026-01-24 08:45:40.65	30.28	26.59	-42.4	-46.6	11.7	5.58e-04	0	61	0	620756992	56	5824
2026-01-24 08:45:41.66	30.00	26.52	-42.4	-46.8	11.5	7.29e-04	0	62	0	621805568	56	5924
2026-01-24 08:45:42.67	29.72	26.44	-42.5	-46.8	11.4	8.60e-04	0	61	0	623902720	56	5983
2026-01-24 08:45:43.68	29.45	26.37	-42.5	-46.8	11.4	9.73e-04	0	61	0	625999872	56	5936
2026-01-24 08:45:44.68	29.17	26.29	-42.3	-46.5	11.7	6.95e-04	0	62	0	628097024	56	5765
2026-01-24 08:45:45.69	28.90	26.22	-42.3	-46.5	11.7	6.26e-04	0	61	0	630194176	56	5747
2026-01-24 08:45:46.70	28.63	26.14	-42.3	-46.4	11.8	4.76e-04	0	61	0	631242752	56	5681
2026-01-24 08:45:47.71	28.35	26.07	-42.3	-46.5	11.8	4.84e-04	0	61	0	633339904	56	5749
2026-01-24 08:45:48.72	28.08	25.99	-42.3	-46.3	11.9	3.73e-04	0	61	0	635437056	56	5626
2026-01-24 08:45:49.73	27.81	25.91	-42.2	-46.2	12.0	2.85e-04	0	61	0	637534208	56	5561
2026-01-24 08:45:50.74	27.55	25.83	-42.1	-45.9	12.3	2.47e-04	0	61	0	639631360	56	5386
2026-01-24 08:45:51.75	27.28	25.75	-42.1	-46.0	12.3	1.83e-04	0	61	0	640679936	56	5417
2026-01-24 08:45:52.76	27.01	25.68	-42.0	-45.8	12.4	1.85e-04	0	61	0	642777088	56	5337
2026-01-24 08:45:53.77	26.75	25.60	-42.0	-45.9	12.3	1.37e-04	0	61	0	644874240	56	5362
2026-01-24 08:45:54.78	26.49	25.52	-42.1	-45.9	12.2	1.93e-04	0	61	0	646971392	56	5379
2026-01-24 08:45:55.79	26.23	25.44	-42.1	-45.9	12.3	1.43e-04	0	61	0	649068544	56	5372
2026-01-24 08:45:56.80	25.97	25.35	-42.1	-45.9	12.4	1.46e-04	0	62	0	650117120	56	5351
2026-01-24 08:45:57.81	25.71	25.27	-41.8	-45.5	12.6	1.13e-04	0	61	0	652214272	55	5429
2026-01-24 08:45:58.82	25.45	25.19	-41.7	-45.4	12.7	9.07e-05	0	61	0	654311424	55	5378
2026-01-24 08:45:59.83	25.19	25.11	-41.8	-45.5	12.6	1.04e-04	0	61	0	656408576	55	5432
2026-01-24 08:46:00.83	24.94	25.03	-41.8	-45.5	12.5	1.19e-04	0	61	0	658505728	55	5426
2026-01-24 08:46:01.85	24.69	24.95	-41.7	-45.3	12.7	6.86e-05	0	62	0	659554304	55	5337
2026-01-24 08:46:02.85	24.44	24.86	-41.7	-45.3	12.7	8.31e-05	0	61	0	661651456	55	5328
2026-01-24 08:46:03.86	24.19	24.78	-41.7	-45.3	12.7	7.01e-05	0	61	0	663748608	55	5300
2026-01-24 08:46:04.87	23.94	24.70	-41.7	-45.3	12.7	7.78e-05	0	61	0	665845760	55	5314
2026-01-24 08:46:05.88	23.69	24.61	-41.6	-45.2	12.9	5.87e-05	0	61	0	667942912	55	5240
2026-01-24 08:46:06.89	23.44	24.53	-41.4	-44.9	13.2	4.42e-05	0	61	0	670040064	54	5362
2026-01-24 08:46:07.90	23.20	24.44	-41.4	-44.7	13.3	1.90e-05	0	61	0	671088640	54	5263
2026-01-24 08:46:08.91	22.95	24.36	-41.3	-44.7	13.4	1.52e-05	0	61	0	673185792	54	5220
2026-01-24 08:46:09.92	22.71	24.27	-41.3	-44.6	13.4	1.14e-05	0	61	0	675282944	54	5209
2026-01-24 08:46:10.93	22.47	24.19	-41.2	-44.4	13.7	7.60e-06	0	61	0	677380096	54	5064
2026-01-24 08:46:11.94	22.23	24.10	-41.1	-44.3	13.7	8.30e-06	0	61	0	679477248	54	5026
2026-01-24 08:46:12.95	21.99	24.02	-41.1	-44.2	13.8	3.80e-06	0	61	0	680525824	54	4983
2026-01-24 08:46:13.96	21.75	23.93	-41.0	-44.1	13.9	6.80e-06	0	61	0	682622976	54	4898
2026-01-24 08:46:14.97	21.52	23.84	-40.9	-44.0	14.1	7.00e-07	0	61	0	684720128	53	5122
2026-01-24 08:46:15.98	21.28	23.76	-40.9	-44.0	14.1	1.50e-06	0	61	0	686817280	53	5135
2026-01-24 08:46:16.99	21.05	23.67	-41.0	-44.1	14.0	1.50e-06	0	61	0	688914432	53	5191
2026-01-24 08:46:18.00	20.82	23.58	-41.0	-44.2	13.9	6.10e-06	0	61	0	689963008	53	5221
2026-01-24 08:46:19.01	20.59	23.50	-41.0	-44.1	13.9	1.50e-06	0	61	0	692060160	53	5180
2026-01-24 08:46:20.02	20.36	23.41	-41.0	-44.1	13.9	3.80e-06	0	61	0	694157312	53	5201
2026-01-24 08:46:21.03	20.13	23.32	-40.9	-44.0	14.0	3.00e-06	0	61	0	696254464	53	5147
2026-01-24 08:46:22.04	19.90	23.23	-40.8	-43.9	14.2	3.00e-06	0	61	0	698351616	53	5042
2026-01-24 08:46:23.05	19.68	23.15	-40.6	-43.5	14.5	7.00e-07	0	61	0	699400192	53	4852
2026-01-24 08:46:24.06	19.45	23.06	-40.5	-43.4	14.7	0.00e+00	0	61	0	701497344	53	4784
2026-01-24 08:46:25.07	19.23	22.97	-40.6	-43.4	14.6	1.50e-06	0	61	0	703594496	53	4779
2026-01-24 08:46:26.08	19.01	22.88	-40.5	-43.3	14.7	0.00e+00	0	61	0	705691648	53	4746
2026-01-24 08:46:27.09	18.79	22.79	-40.5	-43.3	14.7	0.00e+00	0	61	0	707788800	52	5041
2026-01-24 08:46:28.09	18.57	22.70	-40.5	-43.3	14.8	0.00e+00	0	61	0	708837376	52	4989
2026-01-24 08:46:29.10	18.35	22.62	-40.6	-43.4	14.6	0.00e+00	0	61	0	710934528	52	5074
2026-01-24 08:46:30.11	18.14	22.53	-40.5	-43.3	14.7	0.00e+00	0	61	0	713031680	52	5037
2026-01-24 08:46:31.12	17.92	22.44	-40.6	-43.4	14.6	7.00e-07	0	61	0	715128832	52	5093
2026-01-24 08:46:32.13	17.71	22.35	-40.5	-43.4	14.6	0.00e+00	0	61	0	717225984	52	5070
2026-01-24 08:46:33.14	17.50	22.26	-40.5	-43.3	14.7	0.00e+00	0	61	0	718274560	52	5040
2026-01-24 08:46:34.15	17.28	22.17	-40.4	-43.2	14.9	0.00e+00	0	61	0	720371712	52	4951
2026-01-24 08:46:35.16	17.07	22.08	-40.5	-43.3	14.8	0.00e+00	0	61	0	722468864	52	4999
2026-01-24 08:46:36.17	16.86	21.99	-40.4	-43.2	14.8	7.00e-07	0	61	0	724566016	52	4966
2026-01-24 08:46:37.18	16.66	21.90	-40.4	-43.2	14.8	0.00e+00	0	61	0	726663168	52	4961
2026-01-24 08:46:38.19	16.45	21.81	-40.5	-43.4	14.7	7.00e-07	0	61	0	727711744	52	5066
2026-01-24 08:46:39.20	16.24	21.72	-40.5	-43.3	14.7	0.00e+00	0	61	0	729808896	52	5040
2026-01-24 08:46:40.21	16.04	21.63	-40.6	-43.4	14.6	0.00e+00	0	61	0	731906048	52	5093
2026-01-24 08:46:41.21	15.84	21.54	-40.5	-43.4	14.6	7.00e-07	0	61	0	734003200	52	5085
2026-01-24 08:46:42.22	15.64	21.45	-40.6	-43.5	14.5	0.00e+00	0	61	0	736100352	52	5137
2026-01-24 08:46:43.23	15.44	21.36	-40.6	-43.6	14.4	7.00e-07	0	61	0	738197504	52	5160
2026-01-24 08:46:44.24	15.24	21.27	-40.7	-43.6	14.4	0.00e+00	0	61	0	739246080	52	5200
2026-01-24 08:46:45.25	15.04	21.18	-40.7	-43.6	14.4	0.00e+00	0	61	0	741343232	52	5217
2026-01-24 08:46:46.26	14.84	21.09	-40.6	-43.6	14.4	0.00e+00	0	61	0	743440384	52	5172
2026-01-24 08:46:47.27	14.65	21.00	-40.6	-43.5	14.5	7.00e-07	0	61	0	745537536	52	5134
2026-01-24 08:46:48.28	14.45	20.91	-40.7	-43.7	14.3	7.00e-07	0	61	0	747634688	52	5238
2026-01-24 08:46:49.29	14.26	20.82	-40.7	-43.7	14.3	0.00e+00	0	61	0	748683264	52	5232
2026-01-24 08:46:50.30	14.07	20.73	-40.8	-43.8	14.1	7.00e-07	0	61	0	750780416	52	5334
2026-01-24 08:46:51.31	13.87	20.64	-40.8	-43.8	14.1	0.00e+00	0	62	0	752877568	52	5337
2026-01-24 08:46:52.32	13.68	20.54	-40.8	-43.8	14.2	1.50e-06	0	61	0	754974720	52	5313
2026-01-24 08:46:53.33	13.50	20.45	-40.8	-43.9	14.0	7.00e-07	0	61	0	757071872	52	5366
2026-01-24 08:46:54.34	13.31	20.36	-40.9	-44.0	13.9	1.50e-06	0	61	0	758120448	52	5423
2026-01-24 08:46:55.35	13.12	20.27	-40.8	-43.9	14.1	3.00e-06	0	61	0	760217600	52	5346
2026-01-24 08:46:56.36	12.94	20.18	-40.8	-43.9	14.0	3.00e-06	0	61	0	762314752	52	5374
2026-01-24 08:46:57.37	12.75	20.09	-40.9	-44.0	13.9	2.20e-06	0	61	0	764411904	52	5432
2026-01-24 08:46:58.38	12.57	20.00	-40.9	-44.1	13.9	3.00e-06	0	61	0	766509056	52	5475
2026-01-24 08:46:59.39	12.38	19.91	-41.0	-44.3	13.6	3.00e-06	0	61	0	767557632	52	5633
2026-01-24 08:47:00.39	12.21	19.82	-41.0	-44.3	13.6	8.30e-06	0	61	0	769654784	52	5644
2026-01-24 08:47:01.40	12.03	19.73	-41.1	-44.4	13.4	1.14e-05	0	61	0	771751936	52	5717
2026-01-24 08:47:02.41	11.85	19.64	-41.1	-44.5	13.4	1.44e-05	0	61	0	773849088	52	5758
2026-01-24 08:47:03.42	11.67	19.55	-41.2	-44.6	13.3	1.60e-05	0	61	0	775946240	52	5790
2026-01-24 08:47:04.43	11.49	19.46	-41.2	-44.5	13.4	1.83e-05	0	61	0	776994816	52	5767
2026-01-24 08:47:05.44	11.32	19.37	-41.2	-44.6	13.2	2.13e-05	0	61	0	779091968	52	5816
2026-01-24 08:47:06.45	11.14	19.28	-41.2	-44.6	13.2	2.05e-05	0	61	0	781189120	53	5521
2026-01-24 08:47:07.46	10.97	19.19	-41.2	-44.6	13.2	1.83e-05	0	61	0	783286272	53	5473
2026-01-24 08:47:08.47	10.79	19.10	-41.3	-44.7	13.1	1.83e-05	0	61	0	785383424	53	5563
2026-01-24 08:47:09.48	10.62	19.01	-41.3	-44.7	13.1	2.67e-05	0	61	0	786432000	53	5576
2026-01-24 08:47:10.49	10.45	18.92	-41.3	-44.9	12.9	3.50e-05	0	61	0	788529152	53	5676
2026-01-24 08:47:11.50	10.28	18.83	-41.3	-44.8	13.0	3.20e-05	0	61	0	790626304	53	5622
2026-01-24 08:47:12.51	10.11	18.74	-41.3	-44.9	12.9	5.03e-05	0	61	0	792723456	53	5696
2026-01-24 08:47:13.52	9.95	18.65	-41.4	-45.0	12.8	6.10e-05	0	61	0	794820608	53	5734
2026-01-24 08:47:14.53	9.78	18.56	-41.4	-45.0	12.7	5.49e-05	0	61	0	795869184	53	5779
2026-01-24 08:47:15.54	9.61	18.47	-41.4	-45.1	12.6	9.91e-05	0	61	0	797966336	53	5811
2026-01-24 08:47:16.55	9.45	18.38	-41.4	-45.1	12.6	8.39e-05	0	61	0	800063488	53	5831
2026-01-24 08:47:17.56	9.29	18.29	-41.4	-45.1	12.6	9.15e-05	0	61	0	802160640	53	5809
2026-01-24 08:47:18.58	9.12	18.20	-41.4	-45.2	12.5	8.39e-05	0	61	0	804257792	53	5892
2026-01-24 08:47:19.58	8.96	18.11	-41.5	-45.2	12.4	1.17e-04	0	61	0	806354944	53	5914
2026-01-24 08:47:20.59	8.80	18.02	-41.4	-45.2	12.5	1.24e-04	0	61	0	807403520	53	5891
2026-01-24 08:47:21.60	8.64	17.93	-41.4	-45.2	12.4	1.34e-04	0	61	0	809500672	53	5899
2026-01-24 08:47:22.61	8.48	17.84	-41.5	-45.3	12.4	1.65e-04	0	61	0	811597824	53	5943
2026-01-24 08:47:23.62	8.32	17.76	-41.5	-45.3	12.3	1.79e-04	0	61	0	813694976	53	5974
2026-01-24 08:47:24.63	8.17	17.67	-41.5	-45.3	12.3	1.43e-04	0	61	0	815792128	53	5951
2026-01-24 08:47:25.64	8.01	17.58	-41.5	-45.5	12.1	1.90e-04	0	61	0	816840704	53	6068
2026-01-24 08:47:26.65	7.86	17.49	-41.5	-45.4	12.2	1.98e-04	0	61	0	818937856	53	6002
2026-01-24 08:47:27.66	7.70	17.40	-41.5	-45.4	12.2	2.21e-04	0	61	0	821035008	53	6033
2026-01-24 08:47:28.67	7.55	17.31	-41.5	-45.5	12.0	2.75e-04	0	61	0	823132160	53	6064
2026-01-24 08:47:29.68	7.40	17.22	-41.4	-45.4	12.1	2.18e-04	0	61	0	825229312	53	6005
2026-01-24 08:47:30.69	7.25	17.14	-41.5	-45.5	12.0	2.74e-04	0	61	0	826277888	53	6082
2026-01-24 08:47:31.70	7.10	17.05	-41.5	-45.6	11.8	3.39e-04	0	61	0	828375040	53	6164
2026-01-24 08:47:32.71	6.95	16.96	-41.5	-45.6	11.8	4.74e-04	0	61	0	830472192	53	6201
2026-01-24 08:47:33.72	6.80	16.87	-41.5	-45.7	11.7	4.53e-04	0	61	0	832569344	53	6204
2026-01-24 08:47:34.73	6.65	16.78	-41.5	-45.7	11.7	5.37e-04	0	61	0	834666496	53	6237
2026-01-24 08:47:35.74	6.50	16.70	-41.6	-45.8	11.5	7.57e-04	0	61	0	835715072	53	6343
2026-01-24 08:47:36.74	6.36	16.61	-41.6	-45.9	11.4	9.83e-04	0	61	0	837812224	53	6355
2026-01-24 08:47:37.75	6.21	16.52	-41.6	-45.8	11.5	9.56e-04	0	61	0	839909376	53	6346
2026-01-24 08:47:38.76	6.07	16.43	-41.6	-45.9	11.4	9.25e-04	0	61	0	842006528	53	6366
2026-01-24 08:47:39.77	5.93	16.35	-41.6	-46.0	11.3	1.15e-03	0	61	0	844103680	53	6428
2026-01-24 08:47:40.78	5.78	16.26	-41.6	-45.9	11.4	1.02e-03	0	61	0	845152256	53	6364
2026-01-24 08:47:41.79	5.64	16.17	-41.6	-46.1	11.1	1.38e-03	0	61	0	847249408	53	6506
2026-01-24 08:47:42.80	5.50	16.09	-41.5	-45.8	11.4	1.19e-03	0	61	0	849346560	53	6305
2026-01-24 08:47:43.81	5.36	16.00	-41.6	-46.0	11.2	1.19e-03	0	61	0	851443712	53	6447
2026-01-24 08:47:44.82	5.22	15.91	-41.6	-46.0	11.2	1.55e-03	0	61	0	853540864	53	6429
2026-01-24 08:47:45.83	5.08	15.83	-41.6	-46.1	11.0	1.67e-03	0	61	0	854589440	53	6523
2026-01-24 08:47:46.84	4.95	15.74	-41.6	-46.1	10.9	1.98e-03	0	61	0	856686592	53	6530
2026-01-24 08:47:47.85	4.81	15.65	-41.5	-46.0	11.0	1.71e-03	0	61	0	858783744	53	6486
2026-01-24 08:47:48.86	4.67	15.57	-41.6	-46.2	10.7	2.39e-03	0	61	0	860880896	53	6619
2026-01-24 08:47:49.86	4.54	15.48	-41.6	-46.2	10.7	3.30e-03	0	61	0	862978048	53	6632
2026-01-24 08:47:50.87	4.41	15.40	-41.5	-46.1	10.8	2.64e-03	0	61	0	864026624	53	6519
2026-01-24 08:47:51.88	4.27	15.31	-41.6	-46.3	10.5	3.23e-03	0	62	0	866123776	53	6711
2026-01-24 08:47:52.89	4.14	15.23	-41.7	-46.6	10.2	5.35e-03	0	61	0	868220928	53	6905
2026-01-24 08:47:53.90	4.01	15.14	-41.5	-46.2	10.5	5.38e-03	0	61	0	870318080	53	6623
2026-01-24 08:47:54.91	3.88	15.06	-41.3	-45.8	10.9	2.09e-03	0	61	0	872415232	53	6346
2026-01-24 08:47:55.92	3.74	14.97	-41.5	-46.3	10.3	3.52e-03	0	61	0	874512384	53	6716
2026-01-24 08:47:56.93	3.62	14.89	-41.5	-46.6	10.0	6.04e-03	0	61	0	875560960	53	6885
2026-01-24 08:47:57.94	3.49	14.80	-41.4	-46.4	10.0	9.47e-03	0	61	0	877658112	53	6799
2026-01-24 08:47:58.95	3.36	14.72	-41.2	-45.9	10.4	5.48e-03	0	61	0	879755264	53	6407
2026-01-24 08:47:59.96	3.23	14.63	-41.2	-46.0	10.4	3.99e-03	0	61	0	881852416	53	6441
2026-01-24 08:48:00.97	3.10	14.55	-41.2	-46.3	9.9	6.87e-03	0	61	0	883949568	53	6656
2026-01-24 08:48:01.98	2.98	14.46	-41.3	-46.7	9.4	1.37e-02	0	61	0	884998144	53	6990
2026-01-24 08:48:02.99	2.85	14.38	-41.3	-46.8	9.1	2.07e-02	0	61	0	887095296	53	7114
2026-01-24 08:48:04.00	2.73	14.30	-41.2	-46.7	9.1	2.08e-02	0	61	0	889192448	53	7016
2026-01-24 08:48:05.01	2.60	14.21	-41.0	-46.2	9.7	1.51e-02	0	61	0	891289600	53	6585
2026-01-24 08:48:06.02	2.48	14.13	-40.8	-45.8	10.0	8.82e-03	0	61	0	893386752	53	6287
2026-01-24 08:48:07.03	2.36	14.05	-40.6	-45.3	10.4	6.48e-03	0	61	0	894435328	53	5991
2026-01-24 08:48:08.03	2.24	13.96	-40.4	-45.1	10.5	3.75e-03	0	61	0	896532480	52	6183
2026-01-24 08:48:09.04	2.12	13.88	-40.4	-45.2	10.4	4.00e-03	0	61	0	898629632	52	6246
2026-01-24 08:48:10.05	2.00	13.80	-40.5	-45.6	9.9	5.78e-03	0	61	0	900726784	52	6506
2026-01-24 08:48:11.06	1.88	13.71	-40.7	-46.4	9.0	1.72e-02	0	61	0	902823936	52	7127
2026-01-24 08:48:12.07	1.76	13.63	-40.8	-47.1	8.1	4.48e-02	0	61	0	903872512	52	7764
2026-01-24 08:48:13.08	1.64	13.55	-40.9	-47.8	7.2	8.32e-02	0	61	0	905969664	52	8455
2026-01-24 08:48:14.09	1.52	13.47	-41.0	-48.7	6.3	2.28e-01	0	61	0	908066816	52	9373
2026-01-24 08:48:15.10	1.41	13.39	-41.1	-49.6	5.6	3.62e-01	0	61	0	910163968	52	10326
2026-01-24 08:48:16.11	1.29	13.30	-41.1	-50.5	5.0	5.72e-01	0	61	0	912261120	52	11531
2026-01-24 08:48:17.12	1.17	13.22	-41.1	-51.5	4.5	8.24e-01	24	61	0	913309696	52	12878
2026-01-24 08:48:18.13	1.06	13.14	-41.1	-52.5	4.1	1.39e+00	0	61	0	914358272	52	14395
2026-01-24 08:48:19.14	0.95	13.06	-41.8	-53.1	4.1	1.39e+00	0	61	0	914358272	54	13840
2026-01-24 08:48:20.15	0.83	12.98	-40.5	-55.1	3.8	1.49e+00	0	61	104	914358272	52	19440
2026-01-24 08:48:21.16	0.72	12.90	-41.0	-54.9	3.8	1.49e+00	0	61	104	914358272	52	19013
2026-01-24 08:48:22.17	0.61	12.81	-41.9	-55.5	3.8	1.48e+00	0	61	104	914358272	54	18239
2026-01-24 08:48:23.18	0.49	12.73	-41.3	-54.1	3.8	1.49e+00	0	62	104	914358272	54	15533
2026-01-24 08:48:24.19	0.38	12.65	-41.2	-54.3	3.8	1.49e+00	0	61	104	914358272	54	15910
2026-01-24 08:48:25.20	0.27	12.57	-41.1	-54.7	3.8	1.49e+00	0	62	104	914358272	54	16639
2026-01-24 08:48:26.21	0.16	12.49	-40.7	-55.0	3.8	1.49e+00	0	61	104	914358272	53	18232
2026-01-24 08:48:27.22	0.05	12.41	-41.0	-55.2	3.8	1.49e+00	0	61	104	914358272	53	18711
2026-01-24 08:48:28.23	359.95	12.33	-40.2	-54.8	3.8	1.49e+00	0	61	104	914358272	52	18824
2026-01-24 08:48:29.24	359.84	12.25	-40.3	-54.8	3.8	1.49e+00	0	61	104	914358272	52	18797
2026-01-24 08:48:30.25	359.73	12.17	-40.7	-55.2	3.8	1.49e+00	0	61	104	914358272	52	19718
2026-01-24 08:48:31.26	359.62	12.09	-40.8	-55.3	3.8	1.49e+00	0	61	104	914358272	52	19930
2026-01-24 08:48:32.27	359.52	12.01	-40.1	-54.6	3.8	1.49e+00	0	61	104	914358272	52	18468
2026-01-24 08:48:33.28	359.41	11.93	-40.0	-54.5	3.8	1.49e+00	0	62	104	914358272	51	19311
2026-01-24 08:48:34.29	359.31	11.86	-40.2	-54.8	3.8	1.49e+00	0	61	104	914358272	51	19866
2026-01-24 08:48:35.30	359.20	11.78	-40.0	-54.5	3.8	1.49e+00	0	61	104	914358272	51	19372
2026-01-24 08:48:36.31	359.10	11.70	-39.9	-54.5	3.8	1.49e+00	0	61	104	914358272	51	19227
2026-01-24 08:48:37.31	359.00	11.62	-39.9	-54.4	3.8	1.49e+00	0	62	104	914358272	51	19076
2026-01-24 08:48:38.32	358.89	11.54	-39.8	-54.3	3.8	1.49e+00	0	61	104	914358272	51	18930
2026-01-24 08:48:39.33	358.79	11.46	-40.0	-54.6	3.8	1.49e+00	0	62	104	914358272	51	19446
2026-01-24 08:48:40.34	358.69	11.38	-40.4	-55.0	3.8	1.49e+00	0	62	104	914358272	51	20329
2026-01-24 08:48:41.35	358.59	11.31	-39.9	-54.4	3.8	1.49e+00	0	61	104	914358272	51	19161
2026-01-24 08:48:42.36	358.49	11.23	-40.0	-54.5	3.8	1.49e+00	0	61	104	914358272	51	19331
2026-01-24 08:48:43.37	358.39	11.15	-39.9	-54.4	3.8	1.49e+00	0	61	104	914358272	51	19107
2026-01-24 08:48:44.38	358.29	11.07	-39.8	-54.4	3.8	1.49e+00	0	61	104	914358272	51	19083
2026-01-24 08:48:45.39	358.19	11.00	-39.8	-54.4	3.8	1.49e+00	0	62	104	914358272	51	19010
2026-01-24 08:48:46.40	358.09	10.92	-39.8	-54.4	3.8	1.49e+00	0	61	104	914358272	51	19012
2026-01-24 08:48:47.41	357.99	10.84	-39.9	-54.5	3.8	1.49e+00	0	61	104	914358272	51	19338
2026-01-24 08:48:48.42	357.90	10.77	-40.2	-54.8	3.8	1.49e+00	0	61	104	914358272	51	19869
2026-01-24 08:48:49.43	357.80	10.69	-40.0	-54.5	3.8	1.49e+00	0	62	104	914358272	51	19360
2026-01-24 08:48:50.44	357.70	10.61	-40.2	-54.7	3.8	1.49e+00	0	62	104	914358272	51	19819
2026-01-24 08:48:51.44	357.61	10.54	-40.1	-54.7	3.8	1.49e+00	0	62	104	914358272	51	19636
2026-01-24 08:48:52.45	357.51	10.46	-39.9	-54.3	3.8	1.49e+00	0	62	104	914358272	51	18946
2026-01-24 08:48:53.46	357.42	10.38	-39.9	-54.4	3.8	1.49e+00	0	62	104	914358272	51	19098
2026-01-24 08:48:54.47	357.33	10.31	-40.1	-54.6	3.8	1.49e+00	0	62	104	914358272	51	19550
2026-01-24 08:48:55.48	357.23	10.23	-40.0	-54.5	3.8	1.49e+00	0	61	104	914358272	51	19211
2026-01-24 08:48:56.49	357.14	10.16	-39.9	-54.3	3.8	1.49e+00	0	62	104	914358272	51	18884
2026-01-24 08:48:57.50	357.05	10.08	-39.8	-54.4	3.8	1.49e+00	0	62	104	914358272	51	19082
2026-01-24 08:48:58.51	356.95	10.01	-40.1	-54.6	3.8	1.49e+00	0	62	104	914358272	51	19527
2026-01-24 08:48:59.52	356.86	9.93	-39.9	-54.5	3.8	1.49e+00	0	62	104	914358272	51	19203
2026-01-24 08:49:00.53	356.77	9.86	-39.8	-54.4	3.8	1.49e+00	0	62	104	914358272	51	19055
2026-01-24 08:49:01.54	356.68	9.78	-39.8	-54.4	3.8	1.49e+00	0	62	104	914358272	51	19018
2026-01-24 08:49:02.55	356.59	9.71	-40.0	-54.5	3.8	1.49e+00	0	62	104	914358272	51	19335
2026-01-24 08:49:03.56	356.50	9.63	-39.9	-54.4	3.8	1.49e+00	0	61	104	914358272	51	19069
2026-01-24 08:49:04.57	356.41	9.56	-39.8	-54.4	3.8	1.49e+00	0	62	104	914358272	51	19059
2026-01-24 08:49:05.58	356.32	9.48	-39.8	-54.4	3.8	1.49e+00	0	62	104	914358272	51	18981
2026-01-24 08:49:06.59	356.24	9.41	-39.9	-54.5	3.8	1.49e+00	0	62	104	914358272	51	19249
2026-01-24 08:49:07.60	356.15	9.34	-39.9	-54.4	3.8	1.49e+00	0	62	104	914358272	51	19089
2026-01-24 08:49:08.61	356.06	9.26	-39.9	-54.4	3.8	1.49e+00	0	62	104	914358272	51	19147
2026-01-24 08:49:09.61	355.97	9.19	-39.8	-54.4	3.8	1.49e+00	0	62	104	914358272	51	18986
2026-01-24 08:49:10.62	355.89	9.12	-40.0	-54.5	3.8	1.49e+00	0	62	104	914358272	51	19286
2026-01-24 08:49:11.63	355.80	9.04	-39.9	-54.4	3.8	1.49e+00	0	62	104	914358272	51	19105
2026-01-24 08:49:12.64	355.72	8.97	-40.0	-54.5	3.8	1.49e+00	0	62	104	914358272	51	19279
2026-01-24 08:49:13.65	355.63	8.90	-39.9	-54.4	3.8	1.49e+00	0	62	104	914358272	51	19100
2026-01-24 08:49:14.66	355.55	8.82	-40.0	-54.5	3.8	1.49e+00	0	62	104	914358272	51	19326
2026-01-24 08:49:15.67	355.46	8.75	-40.0	-54.5	3.8	1.49e+00	0	62	104	914358272	51	19261
2026-01-24 08:49:16.68	355.38	8.68	-40.0	-54.5	3.8	1.49e+00	0	62	104	914358272	51	19338
2026-01-24 08:49:17.69	355.30	8.61	-39.9	-54.4	3.8	1.49e+00	0	62	104	914358272	51	19136
2026-01-24 08:49:18.70	355.21	8.53	-40.0	-54.5	3.8	1.49e+00	0	62	104	914358272	51	19285
2026-01-24 08:49:19.72	355.13	8.46	-40.0	-54.5	3.8	1.49e+00	0	62	104	914358272	51	19332
2026-01-24 08:49:20.72	355.05	8.39	-40.0	-54.5	3.8	1.49e+00	0	62	104	914358272	51	19359
2026-01-24 08:49:21.73	354.97	8.32	-40.0	-54.5	3.8	1.49e+00	0	62	104	914358272	51	19259
2026-01-24 08:49:22.74	354.89	8.25	-40.0	-54.5	3.8	1.49e+00	0	62	104	914358272	51	19354
2026-01-24 08:49:23.75	354.80	8.17	-40.0	-54.5	3.8	1.49e+00	0	62	104	914358272	51	19317
2026-01-24 08:49:24.76	354.72	8.10	-40.0	-54.5	3.8	1.49e+00	0	62	104	914358272	51	19290
2026-01-24 08:49:25.77	354.64	8.03	-40.0	-54.5	3.8	1.49e+00	0	61	104	914358272	51	19324
2026-01-24 08:49:26.78	354.56	7.96	-40.0	-54.6	3.8	1.49e+00	0	62	104	914358272	51	19394
2026-01-24 08:49:27.79	354.49	7.89	-43.1	-57.5	3.8	1.49e+00	0	61	104	914358272	56	20377
2026-01-24 08:49:28.80	354.41	7.82	-44.3	-58.8	3.8	1.49e+00	0	62	104	914358272	59	19987
2026-01-24 08:49:29.82	354.33	7.75	-44.8	-59.5	3.8	1.49e+00	0	62	104	914358272	60	20406
2026-01-24 08:49:30.83	354.25	7.68	-45.0	-59.7	3.8	1.49e+00	0	62	104	914358272	60	20968
2026-01-24 08:49:31.84	354.17	7.61	-45.2	-59.9	3.8	1.49e+00	0	62	104	914358272	61	20198
