passes_logs/2026/01/24/R2.0S_Moscow/R2.0S_Moscow__20260124_010325_FENGYUN_3D_rec.log

#Pass ID: 20260124_010325_FENGYUN 3D
#Satellite: FENGYUN 3D
#Configuration: FENGYUN 3D
#almurnet v.1.7.20251203
#Start time: 2026-01-24 01:03:28

#Version: 2.2.20231116
#Station: R2.0S_Moscow
#Location: 37.707566 lon 55.798166 lat
#TLE: 1 43010U 17072A   26022.96745493  .00000490  00000+0  25355-3 0  9999
#TLE: 2 43010  98.9955 354.9072 0002484  95.6139 264.5320 14.19700039424383

#Time	Az	El	Level	Level2	SNR	BER	BlckErr	Temp	State	Recorded	gain1	gain2
2026-01-24 01:03:28.02	20.28	2.14	-42.0	-53.6	3.8	8.46e-01	0	52	0	0	56	13003
2026-01-24 01:03:29.02	20.31	2.20	-41.9	-53.4	3.8	8.46e-01	0	52	104	0	55	13510
2026-01-24 01:03:30.03	20.35	2.26	-41.9	-53.4	3.8	8.46e-01	0	52	104	0	55	13512
2026-01-24 01:03:31.04	20.39	2.32	-41.9	-53.4	3.8	8.46e-01	0	52	104	0	55	13520
2026-01-24 01:03:32.05	20.42	2.39	-41.9	-53.4	3.8	8.47e-01	0	53	104	0	55	13507
2026-01-24 01:03:33.06	20.46	2.45	-41.9	-53.4	3.8	8.46e-01	0	53	104	0	55	13495
2026-01-24 01:03:34.07	20.50	2.51	-41.9	-53.4	3.8	8.46e-01	0	53	104	0	55	13464
2026-01-24 01:03:35.08	20.54	2.58	-41.9	-53.4	3.8	8.46e-01	0	53	104	0	55	13499
2026-01-24 01:03:36.09	20.57	2.64	-41.9	-53.4	3.8	8.47e-01	0	53	104	0	55	13523
2026-01-24 01:03:37.10	20.61	2.70	-41.9	-53.4	3.8	8.47e-01	0	53	104	0	55	13504
2026-01-24 01:03:38.11	20.65	2.77	-41.9	-53.4	3.8	8.46e-01	0	53	104	0	55	13479
2026-01-24 01:03:39.12	20.69	2.83	-41.9	-53.4	3.8	8.45e-01	0	53	104	0	55	13499
2026-01-24 01:03:40.14	20.73	2.90	-41.9	-53.4	3.8	8.47e-01	0	53	104	0	55	13495
2026-01-24 01:03:41.14	20.76	2.96	-41.9	-53.4	3.8	8.47e-01	0	53	104	0	55	13514
2026-01-24 01:03:42.16	20.80	3.02	-41.9	-53.4	3.8	8.46e-01	0	53	104	0	55	13547
2026-01-24 01:03:43.17	20.84	3.09	-41.9	-53.4	3.8	8.45e-01	0	53	104	0	55	13549
2026-01-24 01:03:44.18	20.88	3.15	-41.9	-53.4	3.8	8.47e-01	0	54	104	0	55	13503
2026-01-24 01:03:45.19	20.92	3.22	-41.9	-53.4	3.8	8.46e-01	0	53	104	0	55	13526
2026-01-24 01:03:46.20	20.96	3.28	-41.9	-53.4	3.8	8.46e-01	0	54	104	0	55	13525
2026-01-24 01:03:47.21	21.00	3.35	-41.9	-53.4	3.8	8.46e-01	0	54	104	0	55	13532
2026-01-24 01:03:48.22	21.04	3.41	-41.9	-53.4	3.8	8.45e-01	0	54	104	0	55	13477
2026-01-24 01:03:49.23	21.08	3.48	-41.9	-53.4	3.8	8.47e-01	0	54	104	0	55	13517
2026-01-24 01:03:50.24	21.12	3.54	-41.9	-53.4	3.8	8.47e-01	0	54	104	0	55	13496
2026-01-24 01:03:51.25	21.16	3.61	-41.8	-53.4	3.8	8.46e-01	0	54	104	0	55	13464
2026-01-24 01:03:52.26	21.20	3.67	-41.9	-53.4	3.8	8.47e-01	0	54	104	0	55	13477
2026-01-24 01:03:53.27	21.24	3.74	-41.9	-53.4	3.8	8.46e-01	0	54	104	0	55	13506
2026-01-24 01:03:54.28	21.28	3.81	-41.9	-53.4	3.8	8.48e-01	0	54	104	0	55	13512
2026-01-24 01:03:55.29	21.32	3.87	-41.9	-53.4	3.8	8.45e-01	0	54	104	0	55	13465
2026-01-24 01:03:56.30	21.36	3.94	-41.9	-53.4	3.8	8.46e-01	0	54	104	0	55	13511
2026-01-24 01:03:57.31	21.40	4.01	-41.8	-53.4	3.8	8.46e-01	0	54	104	0	55	13497
2026-01-24 01:03:58.32	21.44	4.07	-41.9	-53.4	3.8	8.46e-01	0	54	104	0	55	13552
2026-01-24 01:03:59.33	21.48	4.14	-41.9	-53.4	3.8	8.45e-01	0	54	104	0	55	13500
2026-01-24 01:04:00.34	21.52	4.21	-41.9	-53.4	3.8	8.47e-01	0	55	104	0	55	13541
2026-01-24 01:04:01.35	21.56	4.27	-41.9	-53.4	3.8	8.47e-01	0	55	104	0	55	13555
2026-01-24 01:04:02.36	21.60	4.34	-41.8	-53.4	3.8	8.45e-01	0	55	104	0	55	13496
2026-01-24 01:04:03.37	21.65	4.41	-41.9	-53.4	3.8	8.46e-01	0	55	104	0	55	13492
2026-01-24 01:04:04.38	21.69	4.47	-41.9	-53.4	3.8	8.47e-01	0	55	104	0	55	13491
2026-01-24 01:04:05.39	21.73	4.54	-41.9	-53.4	3.8	8.46e-01	0	55	104	0	55	13529
2026-01-24 01:04:06.40	21.77	4.61	-41.9	-53.4	3.8	8.45e-01	0	55	104	0	55	13500
2026-01-24 01:04:07.41	21.81	4.68	-41.9	-53.4	3.8	8.47e-01	0	55	104	0	55	13474
2026-01-24 01:04:08.42	21.86	4.75	-41.9	-53.4	3.8	8.46e-01	0	55	104	0	55	13499
2026-01-24 01:04:09.43	21.90	4.81	-41.9	-53.4	3.8	8.46e-01	0	55	104	0	55	13513
2026-01-24 01:04:10.44	21.94	4.88	-41.9	-53.4	3.8	8.45e-01	0	55	104	0	55	13493
2026-01-24 01:04:11.45	21.99	4.95	-41.9	-53.4	3.8	8.47e-01	0	55	104	0	55	13512
2026-01-24 01:04:12.46	22.03	5.02	-41.9	-53.4	3.8	8.46e-01	0	55	104	0	55	13482
2026-01-24 01:04:13.47	22.07	5.09	-41.9	-53.4	3.8	8.46e-01	0	55	104	0	55	13493
2026-01-24 01:04:14.48	22.12	5.16	-41.9	-53.4	3.8	8.46e-01	0	56	104	0	55	13505
2026-01-24 01:04:15.49	22.16	5.23	-41.8	-53.4	3.8	8.47e-01	0	55	104	0	55	13509
2026-01-24 01:04:16.50	22.20	5.30	-41.8	-53.4	3.8	8.46e-01	0	55	104	0	55	13525
2026-01-24 01:04:17.51	22.25	5.37	-41.9	-53.4	3.8	8.47e-01	0	55	104	0	55	13481
2026-01-24 01:04:18.52	22.29	5.44	-41.8	-53.4	3.8	8.46e-01	0	56	104	0	55	13498
2026-01-24 01:04:19.54	22.34	5.51	-41.8	-53.4	3.8	8.46e-01	0	55	104	0	55	13472
2026-01-24 01:04:20.55	22.38	5.58	-41.8	-53.4	3.8	8.47e-01	0	56	104	0	55	13483
2026-01-24 01:04:21.56	22.43	5.65	-41.8	-53.4	3.8	8.47e-01	0	56	104	0	55	13461
2026-01-24 01:04:22.57	22.47	5.72	-41.8	-53.4	3.8	8.46e-01	0	56	104	0	55	13418
2026-01-24 01:04:23.58	22.52	5.79	-41.8	-53.4	3.8	8.45e-01	0	56	104	0	55	13481
2026-01-24 01:04:24.59	22.56	5.86	-41.8	-53.4	3.8	8.46e-01	0	56	104	0	55	13443
2026-01-24 01:04:25.60	22.61	5.93	-41.8	-53.4	3.8	8.46e-01	0	56	104	0	55	13464
2026-01-24 01:04:26.61	22.66	6.00	-41.8	-53.4	3.8	8.47e-01	0	56	104	0	55	13467
2026-01-24 01:04:27.62	22.70	6.08	-41.8	-53.4	3.8	8.46e-01	0	56	104	0	55	13496
2026-01-24 01:04:28.63	22.75	6.15	-41.8	-53.4	3.8	8.46e-01	0	56	104	0	55	13488
2026-01-24 01:04:29.64	22.80	6.22	-41.9	-53.4	3.8	8.45e-01	0	56	104	0	55	13497
2026-01-24 01:04:30.65	22.84	6.29	-41.9	-53.4	3.8	8.46e-01	0	56	104	0	55	13470
2026-01-24 01:04:31.66	22.89	6.36	-41.8	-53.4	3.8	8.45e-01	0	56	104	0	55	13480
2026-01-24 01:04:32.67	22.94	6.44	-41.8	-53.4	3.8	8.46e-01	0	56	104	0	55	13515
2026-01-24 01:04:33.68	22.98	6.51	-41.8	-53.4	3.8	8.47e-01	0	56	104	0	55	13483
2026-01-24 01:04:34.69	23.03	6.58	-41.9	-53.4	3.8	8.46e-01	0	56	104	0	55	13435
2026-01-24 01:04:35.70	23.08	6.65	-41.8	-53.4	3.8	8.47e-01	0	56	104	0	55	13438
2026-01-24 01:04:36.71	23.13	6.73	-41.9	-53.4	3.8	8.46e-01	0	56	104	0	55	13473
2026-01-24 01:04:37.72	23.18	6.80	-41.8	-53.4	3.8	8.47e-01	0	57	104	0	55	13434
2026-01-24 01:04:38.73	23.22	6.87	-41.9	-53.3	3.8	8.46e-01	0	57	104	0	55	13384
2026-01-24 01:04:39.74	23.27	6.95	-41.8	-53.3	3.8	8.46e-01	0	56	104	0	55	13334
2026-01-24 01:04:40.75	23.32	7.02	-41.8	-53.2	3.8	8.45e-01	0	57	104	0	55	13197
2026-01-24 01:04:41.76	23.37	7.10	-41.8	-53.2	3.8	8.46e-01	0	57	104	0	55	13141
2026-01-24 01:04:42.77	23.42	7.17	-41.8	-53.0	3.8	8.44e-01	0	56	104	0	55	12913
2026-01-24 01:04:43.78	23.47	7.25	-41.8	-52.8	3.8	8.46e-01	0	57	104	0	55	12662
2026-01-24 01:04:44.79	23.52	7.32	-41.8	-52.6	3.8	8.45e-01	0	57	104	0	55	12329
2026-01-24 01:04:45.80	23.57	7.39	-41.7	-52.2	3.8	8.46e-01	0	57	104	0	55	11814
2026-01-24 01:04:46.81	23.62	7.47	-41.6	-51.6	3.8	8.45e-01	0	57	104	0	55	10942
2026-01-24 01:04:47.82	23.67	7.55	-41.5	-50.8	3.8	8.44e-01	0	57	104	0	55	10032
2026-01-24 01:04:48.83	23.72	7.62	-41.4	-50.1	4.1	8.39e-01	0	57	0	0	54	9781
2026-01-24 01:04:49.84	23.77	7.70	-41.3	-49.1	4.4	8.33e-01	0	57	0	0	54	8720
2026-01-24 01:04:50.85	23.83	7.77	-41.1	-48.0	4.9	7.94e-01	0	57	0	0	54	7678
2026-01-24 01:04:51.86	23.88	7.85	-40.7	-46.6	5.8	6.80e-01	0	57	0	0	53	6924
2026-01-24 01:04:52.87	23.93	7.93	-40.3	-45.5	6.7	2.58e-01	0	57	0	6291456	52	6430
2026-01-24 01:04:53.88	23.98	8.00	-40.0	-44.6	7.6	1.39e-01	0	57	0	11534336	51	6177
2026-01-24 01:04:54.89	24.03	8.08	-41.1	-45.7	7.6	4.55e-02	0	57	0	17825792	52	6639
2026-01-24 01:04:55.90	24.09	8.16	-41.4	-51.8	3.8	2.05e-01	0	57	104	22020096	53	12529
2026-01-24 01:04:56.92	24.14	8.23	-39.3	-42.4	10.9	6.60e-01	0	57	0	22020096	49	5343
2026-01-24 01:04:57.93	24.19	8.31	-40.8	-44.9	8.4	1.07e-02	0	57	0	27262976	52	6026
2026-01-24 01:04:58.94	24.25	8.39	-40.2	-44.9	7.4	2.12e-04	0	57	0	33554432	50	6777
2026-01-24 01:04:59.95	24.30	8.47	-38.6	-41.2	12.1	8.47e-04	0	57	0	38797312	49	4670
2026-01-24 01:05:00.96	24.35	8.55	-38.7	-41.4	12.0	1.90e-04	0	57	0	44040192	49	4780
2026-01-24 01:05:01.97	24.41	8.62	-38.8	-41.5	11.8	3.89e-04	0	57	0	50331648	49	4843
2026-01-24 01:05:02.98	24.46	8.70	-39.0	-41.7	11.7	3.57e-04	0	57	0	55574528	49	4946
2026-01-24 01:05:03.99	24.52	8.78	-38.8	-41.5	12.0	2.75e-04	0	58	0	61865984	49	4816
2026-01-24 01:05:05.00	24.57	8.86	-38.8	-41.4	12.1	1.92e-04	0	58	0	67108864	49	4773
2026-01-24 01:05:06.01	24.63	8.94	-38.6	-41.1	12.3	1.09e-04	0	58	0	73400320	49	4629
2026-01-24 01:05:07.02	24.68	9.02	-38.6	-41.1	12.4	1.32e-04	0	58	0	78643200	49	4647
2026-01-24 01:05:08.03	24.74	9.10	-38.8	-41.3	12.3	1.01e-04	0	58	0	84934656	49	4726
2026-01-24 01:05:09.04	24.79	9.18	-38.6	-41.1	12.6	7.89e-05	0	58	0	90177536	49	4608
2026-01-24 01:05:10.05	24.85	9.26	-38.6	-41.1	12.6	4.80e-05	0	58	0	95420416	49	4624
2026-01-24 01:05:11.05	24.91	9.34	-38.7	-41.2	12.5	7.66e-05	0	58	0	101711872	49	4664
2026-01-24 01:05:12.06	24.96	9.42	-38.8	-41.2	12.6	6.52e-05	0	58	0	106954752	49	4686
2026-01-24 01:05:13.07	25.02	9.50	-38.7	-41.1	12.7	4.34e-05	0	58	0	113246208	49	4633
2026-01-24 01:05:14.08	25.08	9.58	-38.9	-41.4	12.6	2.97e-05	0	58	0	118489088	49	4765
2026-01-24 01:05:15.09	25.14	9.66	-39.0	-41.5	12.4	1.15e-04	0	58	0	123731968	49	4864
2026-01-24 01:05:16.10	25.20	9.75	-38.8	-41.2	12.8	4.80e-05	0	58	0	130023424	49	4701
2026-01-24 01:05:17.11	25.25	9.83	-39.1	-41.6	12.4	9.26e-05	0	58	0	135266304	49	4890
2026-01-24 01:05:18.12	25.31	9.91	-38.6	-40.9	13.1	2.97e-05	0	58	0	141557760	49	4519
2026-01-24 01:05:19.13	25.37	9.99	-38.8	-41.1	13.0	1.25e-05	0	58	0	146800640	49	4632
2026-01-24 01:05:20.14	25.43	10.08	-38.7	-41.1	12.9	2.40e-05	0	58	0	152043520	49	4608
2026-01-24 01:05:21.15	25.49	10.16	-38.9	-41.2	12.9	2.97e-05	0	58	0	158334976	49	4694
2026-01-24 01:05:22.16	25.55	10.24	-38.8	-41.1	13.1	1.48e-05	0	58	0	163577856	49	4609
2026-01-24 01:05:23.17	25.61	10.33	-39.0	-41.3	12.9	2.17e-05	0	58	0	169869312	49	4751
2026-01-24 01:05:24.19	25.67	10.41	-38.8	-41.1	13.1	2.51e-05	0	58	0	175112192	49	4641
2026-01-24 01:05:25.20	25.73	10.49	-38.7	-41.0	13.3	1.02e-05	0	58	0	181403648	49	4576
2026-01-24 01:05:26.21	25.79	10.58	-38.6	-40.8	13.5	8.00e-06	0	58	0	186646528	49	4485
2026-01-24 01:05:27.21	25.86	10.66	-38.6	-40.8	13.6	1.14e-05	0	58	0	191889408	49	4460
2026-01-24 01:05:28.22	25.92	10.75	-38.7	-40.9	13.5	4.50e-06	0	58	0	198180864	49	4498
2026-01-24 01:05:29.23	25.98	10.83	-38.6	-40.8	13.5	6.80e-06	0	58	0	203423744	49	4457
2026-01-24 01:05:30.24	26.04	10.92	-38.5	-40.6	13.8	4.50e-06	0	58	0	209715200	48	4627
2026-01-24 01:05:31.25	26.11	11.00	-38.6	-40.7	13.6	6.80e-06	0	58	0	214958080	48	4684
2026-01-24 01:05:32.26	26.17	11.09	-38.5	-40.6	13.8	3.40e-06	0	58	0	220200960	48	4648
2026-01-24 01:05:33.27	26.23	11.18	-38.5	-40.6	13.9	0.00e+00	0	58	0	226492416	48	4617
2026-01-24 01:05:34.28	26.30	11.26	-38.5	-40.6	13.9	2.20e-06	0	58	0	231735296	48	4642
2026-01-24 01:05:35.29	26.36	11.35	-38.5	-40.6	13.9	1.10e-06	0	58	0	238026752	48	4637
2026-01-24 01:05:36.30	26.43	11.44	-38.5	-40.7	13.9	3.40e-06	0	58	0	243269632	48	4657
2026-01-24 01:05:37.31	26.49	11.52	-38.5	-40.6	13.9	1.10e-06	0	58	0	248512512	48	4647
2026-01-24 01:05:38.32	26.56	11.61	-38.5	-40.7	13.8	3.40e-06	0	58	0	254803968	48	4656
2026-01-24 01:05:39.33	26.62	11.70	-38.5	-40.6	13.9	0.00e+00	0	58	0	260046848	48	4643
2026-01-24 01:05:40.34	26.69	11.79	-38.6	-40.7	13.9	1.10e-06	0	59	0	266338304	48	4653
2026-01-24 01:05:41.35	26.75	11.88	-38.5	-40.5	14.0	0.00e+00	0	59	0	271581184	48	4592
2026-01-24 01:05:42.36	26.82	11.96	-38.5	-40.6	14.0	2.20e-06	0	59	0	277872640	48	4602
2026-01-24 01:05:43.36	26.89	12.05	-38.4	-40.5	14.1	1.10e-06	0	59	0	283115520	48	4583
2026-01-24 01:05:44.37	26.96	12.14	-38.4	-40.5	14.2	1.10e-06	0	59	0	289406976	48	4546
2026-01-24 01:05:45.38	27.02	12.23	-38.4	-40.4	14.2	1.10e-06	0	59	0	294649856	48	4523
2026-01-24 01:05:46.39	27.09	12.32	-38.3	-40.4	14.2	0.00e+00	0	58	0	299892736	48	4504
2026-01-24 01:05:47.40	27.16	12.41	-38.4	-40.5	14.2	1.10e-06	0	59	0	306184192	48	4550
2026-01-24 01:05:48.41	27.23	12.50	-38.4	-40.4	14.3	0.00e+00	0	59	0	311427072	48	4518
2026-01-24 01:05:49.42	27.30	12.59	-38.4	-40.4	14.3	0.00e+00	0	59	0	317718528	48	4539
2026-01-24 01:05:50.43	27.37	12.68	-38.4	-40.4	14.3	0.00e+00	0	59	0	322961408	48	4523
2026-01-24 01:05:51.44	27.44	12.78	-38.3	-40.3	14.3	1.10e-06	0	59	0	328204288	48	4489
2026-01-24 01:05:52.45	27.51	12.87	-38.3	-40.3	14.4	2.20e-06	0	59	0	334495744	48	4476
2026-01-24 01:05:53.46	27.58	12.96	-38.4	-40.3	14.4	0.00e+00	0	59	0	339738624	48	4493
2026-01-24 01:05:54.47	27.65	13.05	-38.4	-40.4	14.4	3.40e-06	0	59	0	346030080	48	4499
2026-01-24 01:05:55.48	27.73	13.14	-38.3	-40.2	14.5	0.00e+00	0	59	0	351272960	48	4432
2026-01-24 01:05:56.50	27.80	13.24	-38.2	-40.2	14.6	0.00e+00	0	59	0	356515840	48	4398
2026-01-24 01:05:57.51	27.87	13.33	-38.2	-40.1	14.6	0.00e+00	0	59	0	362807296	48	4376
2026-01-24 01:05:58.52	27.95	13.43	-38.1	-40.1	14.7	0.00e+00	0	59	0	368050176	48	4343
2026-01-24 01:05:59.53	28.02	13.52	-38.1	-40.1	14.8	0.00e+00	0	59	0	374341632	48	4341
2026-01-24 01:06:00.54	28.09	13.61	-38.1	-40.0	14.8	0.00e+00	0	59	0	379584512	48	4310
2026-01-24 01:06:01.55	28.17	13.71	-38.1	-40.0	14.8	1.10e-06	0	59	0	385875968	48	4331
2026-01-24 01:06:02.56	28.24	13.80	-38.1	-40.1	14.7	0.00e+00	0	59	0	391118848	48	4347
2026-01-24 01:06:03.57	28.32	13.90	-38.0	-39.9	14.9	1.10e-06	0	59	0	397410304	48	4260
2026-01-24 01:06:04.58	28.40	13.99	-38.0	-39.9	14.9	0.00e+00	0	59	0	402653184	48	4263
2026-01-24 01:06:05.59	28.47	14.09	-38.1	-39.9	14.9	0.00e+00	0	59	0	407896064	48	4274
2026-01-24 01:06:06.59	28.55	14.19	-38.1	-39.9	15.0	0.00e+00	0	59	0	414187520	48	4283
2026-01-24 01:06:07.61	28.63	14.28	-37.9	-39.8	15.0	0.00e+00	0	59	0	419430400	47	4444
2026-01-24 01:06:08.62	28.71	14.38	-37.8	-39.6	15.1	0.00e+00	0	59	0	424673280	47	4389
2026-01-24 01:06:09.62	28.78	14.48	-37.8	-39.6	15.2	0.00e+00	0	59	0	430964736	47	4386
2026-01-24 01:06:10.63	28.86	14.57	-37.8	-39.7	15.2	0.00e+00	0	59	0	436207616	47	4398
2026-01-24 01:06:11.64	28.94	14.67	-37.9	-39.8	15.0	0.00e+00	0	59	0	442499072	47	4447
2026-01-24 01:06:12.65	29.02	14.77	-37.8	-39.6	15.2	0.00e+00	0	59	0	447741952	47	4390
2026-01-24 01:06:13.66	29.10	14.87	-37.8	-39.7	15.2	0.00e+00	0	59	0	452984832	47	4397
2026-01-24 01:06:14.67	29.18	14.97	-37.8	-39.6	15.2	0.00e+00	0	59	0	459276288	47	4355
2026-01-24 01:06:15.68	29.26	15.07	-37.8	-39.6	15.2	0.00e+00	0	59	0	464519168	47	4370
2026-01-24 01:06:16.69	29.35	15.17	-37.8	-39.7	15.2	0.00e+00	0	59	0	470810624	47	4394
2026-01-24 01:06:17.70	29.43	15.27	-37.8	-39.6	15.2	0.00e+00	0	59	0	476053504	47	4371
2026-01-24 01:06:18.71	29.51	15.37	-37.8	-39.7	15.2	0.00e+00	0	59	0	482344960	47	4397
2026-01-24 01:06:19.72	29.60	15.47	-37.8	-39.7	15.2	0.00e+00	0	59	0	487587840	47	4400
2026-01-24 01:06:20.73	29.68	15.57	-37.8	-39.6	15.2	0.00e+00	0	59	0	493879296	47	4350
2026-01-24 01:06:21.74	29.76	15.67	-37.6	-39.4	15.5	0.00e+00	0	59	0	499122176	47	4243
2026-01-24 01:06:22.75	29.85	15.77	-37.6	-39.3	15.6	0.00e+00	0	59	0	504365056	47	4218
2026-01-24 01:06:23.76	29.94	15.88	-37.6	-39.3	15.6	0.00e+00	0	59	0	510656512	47	4238
2026-01-24 01:06:24.77	30.02	15.98	-37.5	-39.3	15.6	0.00e+00	0	59	0	515899392	47	4202
2026-01-24 01:06:25.78	30.11	16.08	-37.6	-39.4	15.5	0.00e+00	0	59	0	522190848	47	4256
2026-01-24 01:06:26.79	30.20	16.19	-37.5	-39.3	15.6	0.00e+00	0	59	0	527433728	47	4208
2026-01-24 01:06:27.80	30.28	16.29	-37.5	-39.2	15.7	0.00e+00	0	59	0	532676608	47	4176
2026-01-24 01:06:28.81	30.37	16.39	-37.5	-39.2	15.7	0.00e+00	0	59	0	538968064	47	4175
2026-01-24 01:06:29.82	30.46	16.50	-37.4	-39.2	15.7	0.00e+00	0	59	0	544210944	46	4398
2026-01-24 01:06:30.83	30.55	16.60	-37.5	-39.2	15.7	0.00e+00	0	60	0	550502400	46	4414
2026-01-24 01:06:31.83	30.64	16.71	-37.5	-39.2	15.7	0.00e+00	0	59	0	555745280	46	4419
2026-01-24 01:06:32.84	30.73	16.81	-37.5	-39.2	15.8	0.00e+00	0	59	0	560988160	46	4408
2026-01-24 01:06:33.85	30.82	16.92	-37.5	-39.2	15.7	0.00e+00	0	60	0	567279616	46	4431
2026-01-24 01:06:34.86	30.92	17.03	-37.4	-39.1	15.9	0.00e+00	0	59	0	572522496	46	4360
2026-01-24 01:06:35.87	31.01	17.13	-37.3	-39.0	16.0	0.00e+00	0	59	0	578813952	46	4306
2026-01-24 01:06:36.88	31.10	17.24	-37.4	-39.1	15.9	0.00e+00	0	60	0	584056832	46	4372
2026-01-24 01:06:37.89	31.20	17.35	-37.2	-38.8	16.1	0.00e+00	0	59	0	590348288	46	4234
2026-01-24 01:06:38.90	31.29	17.46	-37.1	-38.7	16.3	0.00e+00	0	60	0	595591168	46	4146
2026-01-24 01:06:39.91	31.39	17.57	-37.0	-38.7	16.3	0.00e+00	0	59	0	600834048	46	4147
2026-01-24 01:06:40.92	31.48	17.68	-37.0	-38.6	16.3	0.00e+00	0	60	0	607125504	46	4120
2026-01-24 01:06:41.93	31.58	17.78	-37.1	-38.7	16.3	0.00e+00	0	59	0	612368384	46	4161
2026-01-24 01:06:42.94	31.68	17.89	-37.1	-38.8	16.2	0.00e+00	0	59	0	618659840	46	4195
2026-01-24 01:06:43.95	31.77	18.01	-37.1	-38.7	16.3	0.00e+00	0	59	0	623902720	46	4190
2026-01-24 01:06:44.96	31.87	18.12	-37.1	-38.7	16.3	0.00e+00	0	60	0	629145600	46	4188
2026-01-24 01:06:45.97	31.97	18.23	-37.1	-38.7	16.3	0.00e+00	0	60	0	635437056	46	4157
2026-01-24 01:06:46.98	32.07	18.34	-37.0	-38.6	16.4	0.00e+00	0	60	0	640679936	46	4118
2026-01-24 01:06:47.99	32.17	18.45	-36.9	-38.5	16.5	0.00e+00	0	59	0	646971392	45	4338
2026-01-24 01:06:49.00	32.28	18.56	-36.9	-38.5	16.5	0.00e+00	0	60	0	652214272	45	4303
2026-01-24 01:06:50.01	32.38	18.68	-37.0	-38.6	16.5	0.00e+00	0	60	0	657457152	45	4342
2026-01-24 01:06:51.01	32.48	18.79	-37.0	-38.6	16.5	0.00e+00	0	60	0	663748608	45	4366
2026-01-24 01:06:52.02	32.58	18.90	-37.0	-38.6	16.5	0.00e+00	0	60	0	668991488	45	4352
2026-01-24 01:06:53.03	32.69	19.02	-36.9	-38.5	16.6	0.00e+00	0	60	0	675282944	45	4307
2026-01-24 01:06:54.04	32.79	19.13	-36.9	-38.5	16.6	0.00e+00	0	60	0	680525824	45	4327
2026-01-24 01:06:55.05	32.90	19.25	-36.9	-38.5	16.6	0.00e+00	0	60	0	686817280	45	4303
2026-01-24 01:06:56.06	33.01	19.36	-37.0	-38.6	16.5	0.00e+00	0	60	0	692060160	45	4341
2026-01-24 01:06:57.07	33.11	19.48	-36.9	-38.5	16.6	0.00e+00	0	60	0	697303040	45	4294
2026-01-24 01:06:58.08	33.22	19.59	-36.9	-38.5	16.6	0.00e+00	0	60	0	703594496	45	4319
2026-01-24 01:06:59.09	33.33	19.71	-37.0	-38.5	16.6	0.00e+00	0	60	0	708837376	45	4330
2026-01-24 01:07:00.10	33.44	19.83	-36.8	-38.4	16.7	0.00e+00	0	60	0	715128832	45	4253
2026-01-24 01:07:01.11	33.55	19.95	-36.9	-38.4	16.6	0.00e+00	0	60	0	720371712	45	4277
2026-01-24 01:07:02.12	33.66	20.06	-36.9	-38.4	16.7	0.00e+00	0	60	0	725614592	45	4280
2026-01-24 01:07:03.13	33.78	20.18	-36.9	-38.4	16.7	0.00e+00	0	60	0	731906048	45	4271
2026-01-24 01:07:04.13	33.89	20.30	-36.8	-38.4	16.7	0.00e+00	0	60	0	737148928	45	4267
2026-01-24 01:07:05.14	34.00	20.42	-36.8	-38.4	16.7	0.00e+00	0	60	0	743440384	45	4272
2026-01-24 01:07:06.15	34.12	20.54	-36.8	-38.3	16.8	0.00e+00	0	60	0	748683264	45	4240
2026-01-24 01:07:07.17	34.24	20.66	-36.9	-38.4	16.7	0.00e+00	0	60	0	753926144	45	4273
2026-01-24 01:07:08.17	34.35	20.78	-36.8	-38.3	16.8	0.00e+00	0	60	0	760217600	45	4226
2026-01-24 01:07:09.18	34.47	20.90	-36.8	-38.3	16.8	0.00e+00	0	60	0	765460480	45	4224
2026-01-24 01:07:10.19	34.59	21.03	-36.8	-38.3	16.8	0.00e+00	0	60	0	771751936	45	4230
2026-01-24 01:07:11.20	34.71	21.15	-36.8	-38.3	16.8	0.00e+00	0	60	0	776994816	45	4226
2026-01-24 01:07:12.21	34.83	21.27	-36.7	-38.3	16.9	0.00e+00	0	60	0	783286272	45	4202
2026-01-24 01:07:13.22	34.95	21.40	-36.7	-38.3	16.8	0.00e+00	0	60	0	788529152	45	4203
2026-01-24 01:07:14.23	35.07	21.52	-36.7	-38.2	16.9	0.00e+00	0	60	0	794820608	45	4168
2026-01-24 01:07:15.24	35.19	21.64	-36.7	-38.2	16.9	0.00e+00	0	60	0	800063488	45	4182
2026-01-24 01:07:16.25	35.32	21.77	-36.7	-38.2	16.9	0.00e+00	0	60	0	805306368	45	4183
2026-01-24 01:07:17.26	35.44	21.89	-36.6	-38.1	17.0	0.00e+00	0	60	0	811597824	45	4121
2026-01-24 01:07:18.27	35.57	22.02	-36.6	-38.1	17.1	0.00e+00	0	60	0	816840704	45	4108
2026-01-24 01:07:19.28	35.70	22.15	-36.7	-38.2	17.0	0.00e+00	0	60	0	823132160	45	4153
2026-01-24 01:07:20.29	35.82	22.27	-36.5	-38.0	17.1	0.00e+00	0	60	0	828375040	45	4063
2026-01-24 01:07:21.30	35.95	22.40	-36.4	-37.9	17.3	0.00e+00	0	60	0	833617920	44	4260
2026-01-24 01:07:22.31	36.08	22.53	-36.4	-37.9	17.2	0.00e+00	0	60	0	839909376	44	4271
2026-01-24 01:07:23.32	36.21	22.66	-36.5	-38.0	17.1	0.00e+00	0	60	0	845152256	44	4335
2026-01-24 01:07:24.33	36.35	22.79	-36.6	-38.1	17.1	0.00e+00	0	60	0	851443712	44	4354
2026-01-24 01:07:25.34	36.48	22.92	-36.5	-38.0	17.2	0.00e+00	0	60	0	856686592	44	4314
2026-01-24 01:07:26.35	36.61	23.05	-36.5	-38.0	17.2	0.00e+00	0	60	0	861929472	44	4320
2026-01-24 01:07:27.36	36.75	23.18	-36.5	-38.0	17.2	0.00e+00	0	60	0	868220928	44	4301
2026-01-24 01:07:28.37	36.89	23.31	-36.5	-37.9	17.3	0.00e+00	0	60	0	873463808	44	4282
2026-01-24 01:07:29.38	37.02	23.44	-36.4	-37.9	17.3	0.00e+00	0	60	0	879755264	44	4272
2026-01-24 01:07:30.39	37.16	23.57	-36.4	-37.8	17.4	0.00e+00	0	60	0	884998144	44	4234
2026-01-24 01:07:31.40	37.30	23.70	-36.4	-37.8	17.4	0.00e+00	0	60	0	891289600	44	4233
2026-01-24 01:07:32.41	37.44	23.84	-36.2	-37.6	17.6	0.00e+00	0	60	0	896532480	44	4117
2026-01-24 01:07:33.41	37.59	23.97	-36.0	-37.4	17.8	0.00e+00	0	60	0	901775360	44	4040
2026-01-24 01:07:34.42	37.73	24.10	-36.0	-37.4	17.8	0.00e+00	0	60	0	908066816	44	4020
2026-01-24 01:07:35.43	37.87	24.24	-36.0	-37.4	17.8	0.00e+00	0	60	0	913309696	44	4029
2026-01-24 01:07:36.44	38.02	24.37	-36.0	-37.4	17.8	0.00e+00	0	60	0	919601152	44	4027
2026-01-24 01:07:37.45	38.17	24.51	-36.0	-37.4	17.8	0.00e+00	0	60	0	924844032	44	4020
2026-01-24 01:07:38.46	38.32	24.64	-35.8	-37.1	17.9	0.00e+00	0	60	0	930086912	43	4144
2026-01-24 01:07:39.47	38.46	24.78	-35.8	-37.2	17.9	0.00e+00	0	60	0	936378368	43	4174
2026-01-24 01:07:40.48	38.62	24.92	-35.8	-37.2	17.9	0.00e+00	0	60	0	941621248	43	4160
2026-01-24 01:07:41.49	38.77	25.06	-35.8	-37.1	17.9	0.00e+00	0	60	0	947912704	43	4143
2026-01-24 01:07:42.50	38.92	25.19	-35.8	-37.2	17.9	0.00e+00	0	60	0	953155584	43	4173
2026-01-24 01:07:43.51	39.08	25.33	-35.9	-37.2	17.8	0.00e+00	0	60	0	958398464	43	4193
2026-01-24 01:07:44.52	39.23	25.47	-35.8	-37.2	17.9	0.00e+00	0	60	0	964689920	43	4171
2026-01-24 01:07:45.53	39.39	25.61	-35.9	-37.3	17.8	0.00e+00	0	60	0	969932800	43	4200
2026-01-24 01:07:46.54	39.55	25.75	-35.8	-37.1	17.9	0.00e+00	0	60	0	976224256	43	4145
2026-01-24 01:07:47.55	39.71	25.89	-35.8	-37.2	17.9	0.00e+00	0	60	0	981467136	43	4149
2026-01-24 01:07:48.56	39.87	26.03	-35.8	-37.1	18.0	0.00e+00	0	60	0	987758592	43	4131
2026-01-24 01:07:49.57	40.03	26.18	-35.8	-37.1	18.0	0.00e+00	0	60	0	993001472	43	4137
2026-01-24 01:07:50.58	40.20	26.32	-35.6	-37.0	18.1	0.00e+00	0	60	0	999292928	43	4071
2026-01-24 01:07:51.59	40.36	26.46	-35.7	-37.0	18.1	0.00e+00	0	60	0	1004535808	43	4087
2026-01-24 01:07:52.60	40.53	26.60	-35.5	-36.8	18.3	0.00e+00	0	60	0	1009778688	43	3989
2026-01-24 01:07:53.60	40.70	26.75	-35.4	-36.7	18.4	0.00e+00	0	60	0	1016070144	42	4173
2026-01-24 01:07:54.61	40.87	26.89	-35.4	-36.7	18.4	0.00e+00	0	60	0	1021313024	42	4187
2026-01-24 01:07:55.63	41.04	27.04	-35.4	-36.7	18.4	0.00e+00	0	60	0	1027604480	42	4177
2026-01-24 01:07:56.64	41.21	27.18	-35.4	-36.8	18.4	0.00e+00	0	60	0	1032847360	42	4198
2026-01-24 01:07:57.64	41.39	27.33	-35.4	-36.7	18.5	0.00e+00	0	61	0	1038090240	42	4158
2026-01-24 01:07:58.65	41.56	27.47	-35.4	-36.7	18.4	0.00e+00	0	60	0	1044381696	42	4188
2026-01-24 01:07:59.66	41.74	27.62	-35.4	-36.7	18.4	0.00e+00	0	60	0	1049624576	42	4182
2026-01-24 01:08:00.67	41.92	27.77	-35.4	-36.8	18.4	0.00e+00	0	60	0	1055916032	42	4196
2026-01-24 01:08:01.69	42.10	27.92	-35.5	-36.8	18.3	0.00e+00	0	60	0	1061158912	42	4241
2026-01-24 01:08:02.69	42.29	28.06	-35.6	-36.9	18.2	0.00e+00	0	60	0	1066401792	42	4276
2026-01-24 01:08:03.70	42.47	28.21	-35.6	-36.9	18.2	0.00e+00	0	61	0	1072693248	42	4268
2026-01-24 01:08:04.71	42.66	28.36	-35.6	-36.9	18.2	0.00e+00	0	60	0	1077936128	42	4269
2026-01-24 01:08:05.72	42.84	28.51	-35.5	-36.9	18.3	0.00e+00	0	61	0	1084227584	42	4257
2026-01-24 01:08:06.73	43.03	28.66	-35.5	-36.8	18.4	0.00e+00	0	60	0	1089470464	42	4210
2026-01-24 01:08:07.74	43.23	28.81	-35.5	-36.8	18.4	0.00e+00	0	60	0	1095761920	42	4228
2026-01-24 01:08:08.75	43.42	28.96	-35.5	-36.8	18.3	0.00e+00	0	60	0	1101004800	42	4241
2026-01-24 01:08:09.76	43.61	29.12	-35.4	-36.8	18.4	0.00e+00	0	61	0	1106247680	42	4200
2026-01-24 01:08:10.77	43.81	29.27	-35.4	-36.7	18.4	0.00e+00	0	60	0	1112539136	42	4186
2026-01-24 01:08:11.78	44.01	29.42	-35.4	-36.7	18.5	0.00e+00	0	60	0	1117782016	42	4150
2026-01-24 01:08:12.79	44.21	29.57	-35.4	-36.7	18.4	0.00e+00	0	60	0	1124073472	42	4193
2026-01-24 01:08:13.80	44.41	29.73	-35.4	-36.8	18.4	0.00e+00	0	60	0	1129316352	42	4195
2026-01-24 01:08:14.81	44.62	29.88	-35.5	-36.9	18.3	0.00e+00	0	60	0	1134559232	42	4248
2026-01-24 01:08:15.81	44.82	30.04	-35.6	-37.0	18.2	0.00e+00	0	60	0	1140850688	42	4311
2026-01-24 01:08:16.82	45.03	30.19	-35.7	-37.1	18.1	0.00e+00	0	61	0	1146093568	42	4360
2026-01-24 01:08:17.83	45.24	30.35	-35.7	-37.0	18.1	0.00e+00	0	61	0	1152385024	42	4339
2026-01-24 01:08:18.84	45.45	30.50	-35.7	-37.0	18.2	0.00e+00	0	61	0	1157627904	42	4324
2026-01-24 01:08:19.85	45.67	30.66	-35.6	-36.9	18.3	0.00e+00	0	60	0	1162870784	42	4275
2026-01-24 01:08:20.86	45.88	30.81	-35.6	-36.9	18.3	0.00e+00	0	61	0	1169162240	42	4284
2026-01-24 01:08:21.87	46.10	30.97	-35.4	-36.8	18.1	0.00e+00	0	60	0	1174405120	42	4222
2026-01-24 01:08:22.88	46.32	31.13	-35.3	-36.8	18.1	0.00e+00	0	61	0	1180696576	42	4197
2026-01-24 01:08:23.89	46.54	31.29	-35.3	-36.8	18.1	0.00e+00	0	60	0	1185939456	42	4194
2026-01-24 01:08:24.90	46.77	31.45	-35.3	-36.8	18.1	0.00e+00	0	61	0	1192230912	42	4197
2026-01-24 01:08:25.91	46.99	31.60	-35.3	-36.7	18.2	0.00e+00	0	61	0	1197473792	42	4184
2026-01-24 01:08:26.92	47.22	31.76	-35.2	-36.6	18.2	0.00e+00	0	60	0	1203765248	42	4144
2026-01-24 01:08:27.93	47.45	31.92	-35.2	-36.7	18.2	0.00e+00	0	60	0	1209008128	42	4164
2026-01-24 01:08:28.94	47.69	32.08	-35.4	-36.8	18.0	0.00e+00	0	60	0	1214251008	42	4241
2026-01-24 01:08:29.95	47.92	32.24	-35.3	-36.8	18.1	0.00e+00	0	60	0	1220542464	42	4224
2026-01-24 01:08:30.96	48.16	32.40	-35.3	-36.8	18.1	0.00e+00	0	61	0	1225785344	42	4210
2026-01-24 01:08:31.97	48.40	32.57	-35.4	-36.8	18.1	0.00e+00	0	60	0	1232076800	42	4238
2026-01-24 01:08:32.98	48.64	32.73	-35.3	-36.8	18.1	0.00e+00	0	60	0	1237319680	42	4194
2026-01-24 01:08:33.99	48.89	32.89	-35.2	-36.6	18.3	0.00e+00	0	61	0	1242562560	42	4110
2026-01-24 01:08:35.00	49.14	33.05	-35.1	-36.5	18.4	0.00e+00	0	61	0	1248854016	42	4078
2026-01-24 01:08:36.01	49.39	33.21	-35.1	-36.5	18.4	0.00e+00	0	61	0	1254096896	42	4069
2026-01-24 01:08:37.02	49.64	33.37	-35.1	-36.6	18.3	0.00e+00	0	61	0	1260388352	42	4102
2026-01-24 01:08:38.03	49.89	33.54	-35.2	-36.7	18.2	0.00e+00	0	61	0	1265631232	42	4161
2026-01-24 01:08:39.04	50.15	33.70	-35.2	-36.7	18.2	0.00e+00	0	61	0	1270874112	42	4168
2026-01-24 01:08:40.05	50.41	33.86	-35.4	-36.8	18.1	0.00e+00	0	61	0	1277165568	42	4232
2026-01-24 01:08:41.05	50.67	34.03	-35.3	-36.8	18.1	0.00e+00	0	61	0	1282408448	42	4224
2026-01-24 01:08:42.06	50.94	34.19	-35.3	-36.8	18.1	0.00e+00	0	61	0	1288699904	42	4214
2026-01-24 01:08:43.07	51.20	34.35	-35.2	-36.7	18.2	0.00e+00	0	61	0	1293942784	42	4163
2026-01-24 01:08:44.08	51.47	34.52	-35.3	-36.7	18.2	0.00e+00	0	61	0	1300234240	42	4167
2026-01-24 01:08:45.09	51.75	34.68	-35.3	-36.7	18.2	0.00e+00	0	61	0	1305477120	42	4184
2026-01-24 01:08:46.10	52.02	34.85	-35.3	-36.7	18.2	0.00e+00	0	60	0	1310720000	42	4172
2026-01-24 01:08:47.11	52.30	35.01	-35.2	-36.6	18.3	0.00e+00	0	61	0	1317011456	42	4110
2026-01-24 01:08:48.13	52.59	35.18	-35.2	-36.6	18.3	0.00e+00	0	61	0	1322254336	42	4133
2026-01-24 01:08:49.14	52.87	35.34	-35.2	-36.6	18.3	0.00e+00	0	61	0	1328545792	42	4122
2026-01-24 01:08:50.15	53.16	35.51	-35.2	-36.6	18.3	0.00e+00	0	61	0	1333788672	42	4121
2026-01-24 01:08:51.16	53.45	35.67	-35.2	-36.6	18.3	0.00e+00	0	61	0	1339031552	42	4119
2026-01-24 01:08:52.17	53.74	35.84	-35.0	-36.4	18.5	0.00e+00	0	61	0	1345323008	42	4036
2026-01-24 01:08:53.18	54.04	36.00	-34.9	-36.3	18.6	0.00e+00	0	61	0	1350565888	41	4215
2026-01-24 01:08:54.19	54.33	36.17	-34.9	-36.3	18.6	0.00e+00	0	61	0	1356857344	41	4222
2026-01-24 01:08:55.20	54.64	36.33	-34.9	-36.3	18.6	0.00e+00	0	61	0	1362100224	41	4227
2026-01-24 01:08:56.20	54.94	36.49	-34.9	-36.2	18.7	0.00e+00	0	61	0	1367343104	41	4189
2026-01-24 01:08:57.22	55.25	36.66	-35.1	-36.5	18.4	0.00e+00	0	61	0	1373634560	41	4309
2026-01-24 01:08:58.22	55.56	36.82	-35.2	-36.6	18.3	0.00e+00	0	61	0	1378877440	41	4369
2026-01-24 01:08:59.23	55.87	36.99	-35.1	-36.6	18.3	0.00e+00	0	61	0	1385168896	41	4341
2026-01-24 01:09:00.24	56.19	37.15	-35.0	-36.4	18.4	0.00e+00	0	61	0	1390411776	41	4285
2026-01-24 01:09:01.25	56.51	37.32	-35.0	-36.4	18.5	0.00e+00	0	61	0	1396703232	41	4247
2026-01-24 01:09:02.26	56.83	37.48	-35.0	-36.4	18.5	0.00e+00	0	61	0	1401946112	41	4280
2026-01-24 01:09:03.27	57.16	37.65	-35.0	-36.4	18.5	0.00e+00	0	61	0	1408237568	41	4272
2026-01-24 01:09:04.28	57.49	37.81	-35.0	-36.4	18.6	0.00e+00	0	61	0	1413480448	41	4243
2026-01-24 01:09:05.29	57.82	37.97	-34.8	-36.2	18.7	0.00e+00	0	61	0	1418723328	41	4161
2026-01-24 01:09:06.30	58.16	38.14	-34.9	-36.3	18.6	0.00e+00	0	61	0	1425014784	41	4228
2026-01-24 01:09:07.31	58.50	38.30	-35.1	-36.5	18.4	0.00e+00	0	61	0	1430257664	41	4308
2026-01-24 01:09:08.32	58.84	38.46	-35.2	-36.7	18.3	0.00e+00	0	61	0	1436549120	41	4401
2026-01-24 01:09:09.33	59.19	38.62	-35.2	-36.7	18.2	0.00e+00	0	61	0	1441792000	41	4404
2026-01-24 01:09:10.34	59.54	38.79	-35.2	-36.6	18.3	0.00e+00	0	61	0	1447034880	41	4368
2026-01-24 01:09:11.35	59.89	38.95	-35.2	-36.7	18.3	0.00e+00	0	61	0	1453326336	41	4404
2026-01-24 01:09:12.36	60.25	39.11	-35.2	-36.6	18.3	0.00e+00	0	61	0	1458569216	41	4374
2026-01-24 01:09:13.37	60.61	39.27	-35.1	-36.5	18.4	0.00e+00	0	61	0	1464860672	41	4329
2026-01-24 01:09:14.38	60.98	39.43	-35.1	-36.5	18.4	0.00e+00	0	61	0	1470103552	41	4325
2026-01-24 01:09:15.39	61.34	39.59	-35.1	-36.5	18.4	0.00e+00	0	61	0	1475346432	41	4321
2026-01-24 01:09:16.40	61.71	39.75	-35.1	-36.6	18.4	0.00e+00	0	61	0	1481637888	41	4342
2026-01-24 01:09:17.41	62.09	39.91	-35.2	-36.6	18.4	0.00e+00	0	61	0	1486880768	41	4370
2026-01-24 01:09:18.42	62.47	40.06	-35.2	-36.6	18.4	0.00e+00	0	61	0	1493172224	41	4370
2026-01-24 01:09:19.43	62.85	40.22	-35.2	-36.6	18.3	0.00e+00	0	61	0	1498415104	41	4386
2026-01-24 01:09:20.44	63.24	40.38	-35.1	-36.5	18.5	0.00e+00	0	61	0	1504706560	41	4322
2026-01-24 01:09:21.45	63.63	40.53	-35.0	-36.4	18.6	0.00e+00	0	61	0	1509949440	41	4271
2026-01-24 01:09:22.46	64.02	40.69	-35.1	-36.5	18.5	0.00e+00	0	61	0	1515192320	41	4304
2026-01-24 01:09:23.46	64.41	40.84	-35.0	-36.4	18.6	0.00e+00	0	61	0	1521483776	41	4277
2026-01-24 01:09:24.48	64.82	41.00	-35.0	-36.4	18.6	0.00e+00	0	61	0	1526726656	41	4268
2026-01-24 01:09:25.49	65.22	41.15	-35.0	-36.4	18.6	0.00e+00	0	61	0	1533018112	41	4248
2026-01-24 01:09:26.50	65.63	41.30	-35.0	-36.4	18.6	0.00e+00	0	61	0	1538260992	41	4268
2026-01-24 01:09:27.51	66.04	41.45	-35.1	-36.5	18.4	0.00e+00	0	61	0	1543503872	41	4334
2026-01-24 01:09:28.52	66.46	41.60	-35.1	-36.6	18.4	0.00e+00	0	61	0	1549795328	41	4344
2026-01-24 01:09:29.53	66.88	41.75	-35.1	-36.5	18.5	0.00e+00	0	61	0	1555038208	41	4321
2026-01-24 01:09:30.54	67.30	41.89	-35.1	-36.5	18.5	0.00e+00	0	61	0	1561329664	41	4332
2026-01-24 01:09:31.55	67.73	42.04	-35.0	-36.4	18.6	0.00e+00	0	61	0	1566572544	41	4285
2026-01-24 01:09:32.56	68.16	42.19	-35.1	-36.5	18.5	0.00e+00	0	61	0	1571815424	41	4303
2026-01-24 01:09:33.57	68.60	42.33	-35.3	-36.7	18.3	0.00e+00	0	61	0	1578106880	41	4422
2026-01-24 01:09:34.57	69.03	42.47	-35.4	-36.8	18.2	0.00e+00	0	61	0	1583349760	41	4461
2026-01-24 01:09:35.58	69.47	42.61	-35.3	-36.7	18.2	0.00e+00	0	61	0	1589641216	41	4436
2026-01-24 01:09:36.59	69.92	42.75	-35.3	-36.8	18.2	0.00e+00	0	61	0	1594884096	41	4451
2026-01-24 01:09:37.60	70.37	42.89	-35.3	-36.8	18.2	0.00e+00	0	61	0	1601175552	41	4450
2026-01-24 01:09:38.61	70.83	43.03	-35.3	-36.7	18.3	0.00e+00	0	61	0	1606418432	41	4416
2026-01-24 01:09:39.62	71.28	43.16	-35.3	-36.7	18.2	0.00e+00	0	61	0	1612709888	41	4440
2026-01-24 01:09:40.63	71.75	43.29	-35.3	-36.7	18.3	0.00e+00	0	61	0	1617952768	41	4415
2026-01-24 01:09:41.64	72.21	43.43	-35.4	-36.8	18.2	0.00e+00	0	61	0	1623195648	41	4465
2026-01-24 01:09:42.65	72.68	43.56	-35.6	-37.1	18.0	0.00e+00	0	61	0	1629487104	41	4627
2026-01-24 01:09:43.66	73.15	43.69	-35.6	-37.1	17.9	0.00e+00	0	61	0	1634729984	41	4641
2026-01-24 01:09:44.68	73.64	43.82	-35.6	-37.1	18.0	0.00e+00	0	61	0	1641021440	41	4625
2026-01-24 01:09:45.69	74.12	43.94	-35.6	-37.0	18.0	0.00e+00	0	61	0	1646264320	41	4588
2026-01-24 01:09:46.69	74.60	44.06	-35.4	-36.8	18.2	0.00e+00	0	61	0	1651507200	41	4480
2026-01-24 01:09:47.71	75.09	44.19	-35.2	-36.6	18.5	0.00e+00	0	61	0	1657798656	41	4343
2026-01-24 01:09:48.72	75.58	44.31	-35.2	-36.6	18.4	0.00e+00	0	61	0	1663041536	41	4371
2026-01-24 01:09:49.73	76.08	44.42	-35.2	-36.6	18.4	0.00e+00	0	61	0	1669332992	41	4385
2026-01-24 01:09:50.74	76.58	44.54	-35.3	-36.7	18.3	0.00e+00	0	61	0	1674575872	41	4416
2026-01-24 01:09:51.75	77.08	44.65	-35.3	-36.7	18.4	0.00e+00	0	61	0	1679818752	41	4416
2026-01-24 01:09:52.76	77.59	44.77	-35.4	-36.8	18.3	0.00e+00	0	61	0	1686110208	41	4452
2026-01-24 01:09:53.77	78.10	44.88	-35.4	-36.8	18.2	0.00e+00	0	61	0	1691353088	41	4489
2026-01-24 01:09:54.78	78.61	44.98	-35.5	-37.0	18.1	0.00e+00	0	61	0	1697644544	41	4551
2026-01-24 01:09:55.79	79.13	45.09	-35.6	-37.1	17.9	0.00e+00	0	61	0	1702887424	41	4635
2026-01-24 01:09:56.80	79.65	45.19	-35.4	-36.9	18.2	0.00e+00	0	61	0	1709178880	41	4514
2026-01-24 01:09:57.81	80.18	45.29	-35.4	-36.8	18.3	0.00e+00	0	61	0	1714421760	41	4456
2026-01-24 01:09:58.82	80.70	45.39	-35.4	-36.8	18.2	0.00e+00	0	61	0	1720713216	41	4493
2026-01-24 01:09:59.83	81.23	45.49	-35.4	-36.8	18.3	0.00e+00	0	61	0	1725956096	41	4463
2026-01-24 01:10:00.84	81.77	45.58	-35.3	-36.7	18.4	0.00e+00	0	61	0	1731198976	41	4421
2026-01-24 01:10:01.85	82.30	45.67	-35.5	-36.9	18.2	0.00e+00	0	61	0	1737490432	41	4541
2026-01-24 01:10:02.85	82.84	45.76	-35.6	-37.0	18.1	0.00e+00	0	61	0	1742733312	41	4594
2026-01-24 01:10:03.86	83.38	45.85	-35.5	-36.9	18.2	0.00e+00	0	61	0	1747976192	41	4529
2026-01-24 01:10:04.87	83.93	45.93	-35.4	-36.9	18.2	0.00e+00	0	61	0	1754267648	41	4500
2026-01-24 01:10:05.88	84.47	46.01	-35.5	-36.9	18.2	0.00e+00	0	61	0	1759510528	41	4536
2026-01-24 01:10:06.89	85.03	46.09	-35.3	-36.7	18.5	0.00e+00	0	61	0	1765801984	41	4393
2026-01-24 01:10:07.90	85.58	46.16	-35.2	-36.6	18.5	0.00e+00	0	61	0	1771044864	41	4345
2026-01-24 01:10:08.91	86.14	46.24	-35.3	-36.7	18.4	0.00e+00	0	61	0	1776287744	41	4407
2026-01-24 01:10:09.92	86.70	46.31	-35.4	-36.9	18.2	0.00e+00	0	61	0	1782579200	41	4501
2026-01-24 01:10:10.93	87.26	46.37	-35.5	-37.0	18.1	0.00e+00	0	61	0	1787822080	41	4566
2026-01-24 01:10:11.94	87.82	46.44	-35.5	-37.0	18.1	0.00e+00	0	61	0	1794113536	41	4568
2026-01-24 01:10:12.95	88.39	46.50	-35.5	-37.0	18.1	0.00e+00	0	61	0	1799356416	41	4568
2026-01-24 01:10:13.96	88.96	46.56	-35.5	-36.9	18.2	0.00e+00	0	61	0	1805647872	41	4502
2026-01-24 01:10:14.97	89.53	46.61	-35.5	-36.9	18.2	0.00e+00	0	61	0	1810890752	41	4506
2026-01-24 01:10:15.98	90.10	46.66	-35.6	-37.0	18.1	0.00e+00	0	61	0	1817182208	41	4562
2026-01-24 01:10:17.00	90.68	46.71	-35.6	-37.0	18.1	0.00e+00	0	61	0	1822425088	41	4585
2026-01-24 01:10:18.00	91.25	46.76	-35.3	-36.7	18.4	0.00e+00	0	61	0	1827667968	41	4436
2026-01-24 01:10:19.01	91.83	46.80	-35.1	-36.5	18.6	0.00e+00	0	61	0	1833959424	41	4306
2026-01-24 01:10:20.02	92.41	46.84	-35.3	-36.7	18.5	0.00e+00	0	61	0	1839202304	41	4402
2026-01-24 01:10:21.03	92.99	46.88	-35.3	-36.7	18.4	0.00e+00	0	61	0	1845493760	41	4428
2026-01-24 01:10:22.04	93.57	46.91	-35.5	-36.9	18.2	0.00e+00	0	61	0	1850736640	41	4530
2026-01-24 01:10:23.05	94.15	46.94	-35.4	-36.8	18.3	0.00e+00	0	61	0	1855979520	41	4473
2026-01-24 01:10:24.06	94.74	46.97	-35.3	-36.7	18.3	0.00e+00	0	61	0	1862270976	41	4436
2026-01-24 01:10:25.07	95.32	47.00	-35.5	-36.9	18.2	0.00e+00	0	61	0	1867513856	41	4529
2026-01-24 01:10:26.08	95.91	47.02	-35.7	-37.1	18.0	0.00e+00	0	61	0	1873805312	41	4635
2026-01-24 01:10:27.08	96.49	47.04	-35.5	-36.9	18.3	0.00e+00	0	61	0	1879048192	41	4511
2026-01-24 01:10:28.09	97.07	47.05	-35.3	-36.7	18.5	0.00e+00	0	61	0	1884291072	41	4392
2026-01-24 01:10:29.10	97.66	47.06	-35.3	-36.6	18.5	0.00e+00	0	61	0	1890582528	41	4391
2026-01-24 01:10:30.12	98.26	47.07	-35.3	-36.7	18.5	0.00e+00	0	61	0	1895825408	41	4407
2026-01-24 01:10:31.12	98.84	47.08	-35.4	-36.8	18.3	0.00e+00	0	61	0	1902116864	41	4461
2026-01-24 01:10:32.13	99.43	47.08	-35.5	-36.9	18.2	0.00e+00	0	61	0	1907359744	41	4517
2026-01-24 01:10:33.14	100.02	47.08	-35.5	-36.9	18.2	0.00e+00	0	61	0	1913651200	41	4537
2026-01-24 01:10:34.15	100.61	47.07	-35.4	-36.8	18.3	0.00e+00	0	61	0	1918894080	41	4477
2026-01-24 01:10:35.16	101.19	47.06	-35.3	-36.7	18.4	0.00e+00	0	61	0	1924136960	41	4417
2026-01-24 01:10:36.17	101.78	47.05	-35.3	-36.7	18.4	0.00e+00	0	61	0	1930428416	41	4438
2026-01-24 01:10:37.18	102.37	47.04	-35.4	-36.8	18.3	0.00e+00	0	61	0	1935671296	41	4484
2026-01-24 01:10:38.19	102.96	47.02	-35.5	-36.9	18.2	0.00e+00	0	61	0	1941962752	41	4503
2026-01-24 01:10:39.20	103.54	47.00	-35.4	-36.8	18.3	0.00e+00	0	61	0	1947205632	41	4474
2026-01-24 01:10:40.21	104.13	46.98	-35.5	-36.9	18.2	0.00e+00	0	61	0	1952448512	41	4530
2026-01-24 01:10:41.22	104.71	46.95	-35.5	-36.9	18.2	0.00e+00	0	61	0	1958739968	41	4537
2026-01-24 01:10:42.23	105.30	46.92	-35.4	-36.8	18.3	0.00e+00	0	61	0	1963982848	41	4484
2026-01-24 01:10:43.24	105.88	46.89	-35.4	-36.9	18.2	0.00e+00	0	61	0	1970274304	41	4496
2026-01-24 01:10:44.25	106.46	46.85	-35.4	-36.8	18.3	0.00e+00	0	61	0	1975517184	41	4482
2026-01-24 01:10:45.25	107.04	46.81	-35.3	-36.7	18.4	0.00e+00	0	61	0	1980760064	41	4409
2026-01-24 01:10:46.26	107.61	46.77	-35.2	-36.6	18.4	0.00e+00	0	61	0	1987051520	41	4381
2026-01-24 01:10:47.27	108.19	46.72	-35.2	-36.6	18.5	0.00e+00	0	61	0	1992294400	41	4372
2026-01-24 01:10:48.28	108.77	46.68	-35.3	-36.6	18.5	0.00e+00	0	61	0	1998585856	41	4390
2026-01-24 01:10:49.29	109.34	46.62	-35.3	-36.6	18.4	0.00e+00	0	61	0	2003828736	41	4391
2026-01-24 01:10:50.30	109.91	46.57	-35.2	-36.6	18.5	0.00e+00	0	61	0	2010120192	41	4381
2026-01-24 01:10:51.31	110.48	46.51	-35.3	-36.6	18.4	0.00e+00	0	61	0	2015363072	41	4390
2026-01-24 01:10:52.32	111.05	46.45	-35.4	-36.9	18.3	0.00e+00	0	61	0	2021654528	41	4509
2026-01-24 01:10:53.33	111.61	46.39	-35.5	-36.9	18.2	0.00e+00	0	61	0	2026897408	41	4542
2026-01-24 01:10:54.34	112.18	46.32	-35.5	-37.0	18.1	0.00e+00	0	61	0	2032140288	41	4557
2026-01-24 01:10:55.35	112.74	46.25	-35.6	-37.1	18.0	0.00e+00	0	62	0	2038431744	41	4612
2026-01-24 01:10:56.36	113.29	46.18	-35.6	-37.1	18.0	0.00e+00	0	61	0	2043674624	42	4348
2026-01-24 01:10:57.37	113.85	46.10	-35.4	-36.8	18.3	0.00e+00	0	61	0	2049966080	42	4237
2026-01-24 01:10:58.38	114.40	46.03	-35.4	-36.7	18.3	0.00e+00	0	61	0	2055208960	42	4193
2026-01-24 01:10:59.39	114.95	45.95	-35.4	-36.8	18.4	0.00e+00	0	61	0	2060451840	42	4205
2026-01-24 01:11:00.40	115.50	45.86	-35.6	-37.0	18.1	0.00e+00	0	61	0	2066743296	42	4330
2026-01-24 01:11:01.41	116.04	45.78	-35.7	-37.2	18.0	0.00e+00	0	61	0	2071986176	42	4392
2026-01-24 01:11:02.42	116.58	45.69	-35.6	-37.1	18.0	0.00e+00	0	61	0	2078277632	42	4368
2026-01-24 01:11:03.44	117.13	45.60	-35.7	-37.1	18.0	0.00e+00	0	61	0	2083520512	42	4388
2026-01-24 01:11:04.44	117.66	45.51	-35.6	-37.0	18.1	0.00e+00	0	62	0	2088763392	42	4337
2026-01-24 01:11:05.46	118.20	45.41	-35.5	-37.0	18.1	0.00e+00	0	61	0	2095054848	42	4304
2026-01-24 01:11:06.47	118.72	45.31	-35.4	-36.9	18.3	0.00e+00	0	61	0	2100297728	42	4253
2026-01-24 01:11:07.48	119.25	45.21	-35.4	-36.8	18.3	0.00e+00	0	61	0	2106589184	42	4203
2026-01-24 01:11:08.49	119.77	45.11	-35.4	-36.8	18.3	0.00e+00	0	61	0	2111832064	42	4226
2026-01-24 01:11:09.50	120.29	45.00	-35.5	-36.9	18.2	0.00e+00	0	61	0	2118123520	42	4263
2026-01-24 01:11:10.51	120.81	44.89	-35.5	-36.9	18.2	0.00e+00	0	61	0	2123366400	42	4267
2026-01-24 01:11:11.52	121.32	44.79	-35.4	-36.9	18.2	0.00e+00	0	61	0	2129657856	42	4245
2026-01-24 01:11:12.53	121.83	44.67	-35.4	-36.9	18.2	0.00e+00	0	62	0	2134900736	42	4251
2026-01-24 01:11:13.54	122.33	44.56	-35.5	-36.9	18.2	0.00e+00	0	61	0	2140143616	42	4252
2026-01-24 01:11:14.55	122.83	44.44	-35.6	-37.1	18.0	0.00e+00	0	61	0	2146435072	42	4350
2026-01-24 01:11:15.56	123.33	44.33	-35.8	-37.3	17.8	0.00e+00	0	62	0	2151677952	42	4490
2026-01-24 01:11:16.57	123.83	44.21	-35.8	-37.3	17.8	0.00e+00	0	61	0	2157969408	42	4462
2026-01-24 01:11:17.58	124.32	44.08	-35.8	-37.3	17.7	0.00e+00	0	61	0	2163212288	42	4482
2026-01-24 01:11:18.59	124.80	43.96	-35.8	-37.2	17.8	0.00e+00	0	61	0	2168455168	42	4440
2026-01-24 01:11:19.60	125.29	43.83	-35.7	-37.2	17.8	0.00e+00	0	61	0	2174746624	42	4429
2026-01-24 01:11:20.61	125.76	43.71	-35.8	-37.3	17.8	0.00e+00	0	62	0	2179989504	42	4460
2026-01-24 01:11:21.63	126.24	43.58	-35.8	-37.3	17.8	0.00e+00	0	61	0	2186280960	42	4456
2026-01-24 01:11:22.63	126.71	43.45	-35.5	-36.9	18.1	0.00e+00	0	61	0	2191523840	42	4276
2026-01-24 01:11:23.64	127.18	43.31	-35.4	-36.9	18.2	0.00e+00	0	62	0	2196766720	42	4252
2026-01-24 01:11:24.65	127.64	43.18	-35.6	-37.0	18.1	0.00e+00	0	62	0	2203058176	42	4329
2026-01-24 01:11:25.66	128.10	43.04	-35.8	-37.3	17.8	0.00e+00	0	61	0	2208301056	42	4459
2026-01-24 01:11:26.67	128.56	42.91	-35.7	-37.2	17.9	0.00e+00	0	61	0	2214592512	42	4431
2026-01-24 01:11:27.68	129.01	42.77	-35.7	-37.2	17.9	0.00e+00	0	61	0	2219835392	42	4400
2026-01-24 01:11:28.69	129.46	42.63	-35.8	-37.2	17.9	0.00e+00	0	61	0	2226126848	42	4430
2026-01-24 01:11:29.70	129.91	42.49	-35.6	-37.1	18.0	0.00e+00	0	61	0	2231369728	42	4367
2026-01-24 01:11:30.71	130.35	42.35	-35.6	-37.0	18.1	0.00e+00	0	62	0	2236612608	42	4320
2026-01-24 01:11:31.72	130.78	42.20	-35.6	-37.0	18.0	0.00e+00	0	62	0	2242904064	42	4327
2026-01-24 01:11:32.73	131.22	42.06	-35.4	-36.8	18.2	0.00e+00	0	61	0	2248146944	42	4234
2026-01-24 01:11:33.74	131.65	41.91	-35.4	-36.8	18.3	0.00e+00	0	61	0	2254438400	42	4216
2026-01-24 01:11:34.75	132.07	41.76	-35.4	-36.8	18.3	0.00e+00	0	61	0	2259681280	42	4220
2026-01-24 01:11:35.76	132.49	41.61	-35.4	-36.8	18.2	0.00e+00	0	61	0	2264924160	42	4238
2026-01-24 01:11:36.77	132.91	41.46	-35.2	-36.6	18.4	0.00e+00	0	61	0	2271215616	42	4118
2026-01-24 01:11:37.78	133.33	41.31	-35.1	-36.5	18.5	0.00e+00	0	61	0	2276458496	42	4078
2026-01-24 01:11:38.79	133.74	41.16	-35.3	-36.7	18.4	0.00e+00	0	61	0	2282749952	42	4165
2026-01-24 01:11:39.79	134.14	41.01	-35.4	-36.9	18.2	0.00e+00	0	62	0	2287992832	42	4246
2026-01-24 01:11:40.80	134.54	40.86	-35.4	-36.8	18.2	0.00e+00	0	61	0	2293235712	42	4237
2026-01-24 01:11:41.81	134.94	40.70	-35.3	-36.7	18.3	0.00e+00	0	61	0	2299527168	42	4170
2026-01-24 01:11:42.82	135.33	40.55	-35.3	-36.7	18.3	0.00e+00	0	61	0	2304770048	42	4164
2026-01-24 01:11:43.83	135.73	40.39	-35.3	-36.7	18.3	0.00e+00	0	61	0	2311061504	42	4178
2026-01-24 01:11:44.84	136.11	40.23	-35.2	-36.6	18.4	0.00e+00	0	62	0	2316304384	42	4140
2026-01-24 01:11:45.85	136.50	40.07	-35.0	-36.4	18.6	0.00e+00	0	61	0	2322595840	42	4039
2026-01-24 01:11:46.86	136.88	39.92	-34.9	-36.3	18.7	0.00e+00	0	61	0	2327838720	41	4215
2026-01-24 01:11:47.87	137.26	39.76	-35.0	-36.4	18.6	0.00e+00	0	61	0	2333081600	41	4270
2026-01-24 01:11:48.88	137.63	39.60	-35.1	-36.5	18.5	0.00e+00	0	62	0	2339373056	41	4336
2026-01-24 01:11:49.89	138.00	39.44	-35.2	-36.6	18.4	0.00e+00	0	62	0	2344615936	41	4365
2026-01-24 01:11:50.90	138.36	39.28	-35.2	-36.6	18.4	0.00e+00	0	61	0	2350907392	41	4389
2026-01-24 01:11:51.91	138.73	39.11	-35.2	-36.6	18.4	0.00e+00	0	61	0	2356150272	41	4360
2026-01-24 01:11:52.92	139.08	38.95	-35.2	-36.6	18.4	0.00e+00	0	61	0	2362441728	41	4362
2026-01-24 01:11:53.93	139.44	38.79	-35.2	-36.6	18.4	0.00e+00	0	61	0	2367684608	41	4364
2026-01-24 01:11:54.94	139.79	38.63	-35.0	-36.4	18.6	0.00e+00	0	61	0	2372927488	41	4273
2026-01-24 01:11:55.95	140.14	38.46	-34.9	-36.2	18.8	0.00e+00	0	61	0	2379218944	41	4188
2026-01-24 01:11:56.96	140.49	38.30	-34.9	-36.2	18.7	0.00e+00	0	62	0	2384461824	41	4193
2026-01-24 01:11:57.97	140.83	38.14	-34.9	-36.2	18.8	0.00e+00	0	61	0	2390753280	41	4189
2026-01-24 01:11:58.98	141.16	37.97	-34.9	-36.3	18.7	0.00e+00	0	61	0	2395996160	41	4214
2026-01-24 01:11:59.98	141.50	37.81	-35.0	-36.3	18.6	0.00e+00	0	61	0	2401239040	41	4239
2026-01-24 01:12:00.99	141.83	37.65	-35.0	-36.3	18.6	0.00e+00	0	61	0	2407530496	41	4233
2026-01-24 01:12:02.00	142.16	37.48	-34.9	-36.3	18.6	0.00e+00	0	61	0	2412773376	41	4235
2026-01-24 01:12:03.01	142.48	37.32	-34.9	-36.3	18.6	0.00e+00	0	61	0	2419064832	41	4226
2026-01-24 01:12:04.03	142.81	37.15	-35.0	-36.4	18.6	0.00e+00	0	61	0	2424307712	41	4265
2026-01-24 01:12:05.04	143.12	36.98	-35.1	-36.5	18.4	0.00e+00	0	61	0	2430599168	41	4320
2026-01-24 01:12:06.04	143.44	36.82	-35.1	-36.5	18.4	0.00e+00	0	61	0	2435842048	41	4334
2026-01-24 01:12:07.05	143.75	36.65	-35.1	-36.5	18.5	0.00e+00	0	62	0	2441084928	41	4316
2026-01-24 01:12:08.06	144.06	36.49	-35.1	-36.5	18.4	0.00e+00	0	61	0	2447376384	41	4322
2026-01-24 01:12:09.07	144.36	36.32	-35.1	-36.5	18.5	0.00e+00	0	61	0	2452619264	41	4337
2026-01-24 01:12:10.08	144.67	36.16	-35.1	-36.5	18.5	0.00e+00	0	61	0	2458910720	41	4319
2026-01-24 01:12:11.09	144.97	35.99	-34.9	-36.2	18.7	0.00e+00	0	61	0	2464153600	41	4185
2026-01-24 01:12:12.10	145.26	35.82	-34.9	-36.3	18.7	0.00e+00	0	61	0	2469396480	41	4196
2026-01-24 01:12:13.11	145.56	35.66	-35.0	-36.3	18.6	0.00e+00	0	61	0	2475687936	41	4228
2026-01-24 01:12:14.12	145.85	35.49	-35.1	-36.5	18.4	0.00e+00	0	61	0	2480930816	41	4305
2026-01-24 01:12:15.13	146.14	35.33	-35.2	-36.6	18.3	0.00e+00	0	61	0	2487222272	41	4347
2026-01-24 01:12:16.14	146.42	35.16	-35.2	-36.6	18.3	0.00e+00	0	61	0	2492465152	41	4385
2026-01-24 01:12:17.15	146.71	35.00	-35.1	-36.6	18.3	0.00e+00	0	61	0	2497708032	41	4355
2026-01-24 01:12:18.16	146.99	34.83	-35.2	-36.6	18.3	0.00e+00	0	61	0	2503999488	41	4378
2026-01-24 01:12:19.16	147.26	34.67	-35.2	-36.6	18.3	0.00e+00	0	61	0	2509242368	41	4374
2026-01-24 01:12:20.18	147.54	34.50	-35.0	-36.5	18.4	0.00e+00	0	61	0	2515533824	41	4311
2026-01-24 01:12:21.19	147.81	34.33	-35.1	-36.5	18.3	0.00e+00	0	61	0	2520776704	41	4339
2026-01-24 01:12:22.20	148.08	34.17	-35.1	-36.5	18.3	0.00e+00	0	61	0	2527068160	41	4325
2026-01-24 01:12:23.20	148.34	34.01	-35.1	-36.5	18.4	0.00e+00	0	61	0	2532311040	41	4325
2026-01-24 01:12:24.21	148.61	33.84	-35.1	-36.5	18.4	0.00e+00	0	61	0	2537553920	41	4308
2026-01-24 01:12:25.23	148.87	33.68	-34.9	-36.3	18.6	0.00e+00	0	61	0	2543845376	41	4222
2026-01-24 01:12:26.23	149.12	33.51	-34.9	-36.4	18.5	0.00e+00	0	61	0	2549088256	41	4243
2026-01-24 01:12:27.24	149.38	33.35	-35.0	-36.4	18.5	0.00e+00	0	62	0	2555379712	41	4260
2026-01-24 01:12:28.25	149.63	33.19	-35.1	-36.5	18.3	0.00e+00	0	61	0	2560622592	41	4323
2026-01-24 01:12:29.26	149.88	33.02	-35.2	-36.6	18.2	0.00e+00	0	61	0	2565865472	41	4383
2026-01-24 01:12:30.27	150.13	32.86	-35.2	-36.7	18.2	0.00e+00	0	61	0	2572156928	41	4416
2026-01-24 01:12:31.28	150.38	32.70	-35.4	-36.8	18.0	0.00e+00	0	61	0	2577399808	41	4482
2026-01-24 01:12:32.29	150.62	32.54	-35.4	-36.8	18.0	0.00e+00	0	62	0	2583691264	41	4490
2026-01-24 01:12:33.30	150.86	32.37	-35.4	-36.8	18.0	0.00e+00	0	61	0	2588934144	41	4473
2026-01-24 01:12:34.32	151.11	32.21	-35.3	-36.7	18.1	0.00e+00	0	61	0	2594177024	41	4427
2026-01-24 01:12:35.33	151.34	32.05	-35.2	-36.6	18.2	0.00e+00	0	61	0	2600468480	41	4391
2026-01-24 01:12:36.34	151.58	31.89	-35.3	-36.7	18.2	0.00e+00	0	61	0	2605711360	41	4404
2026-01-24 01:12:37.35	151.81	31.73	-35.3	-36.8	18.1	0.00e+00	0	61	0	2612002816	41	4462
2026-01-24 01:12:38.36	152.04	31.57	-35.4	-36.9	18.0	0.00e+00	0	61	0	2617245696	41	4511
2026-01-24 01:12:39.37	152.27	31.41	-35.4	-36.9	17.9	0.00e+00	0	62	0	2623537152	41	4512
2026-01-24 01:12:40.38	152.49	31.25	-35.4	-36.9	17.9	0.00e+00	0	61	0	2628780032	41	4532
2026-01-24 01:12:41.39	152.71	31.09	-35.4	-36.8	18.0	0.00e+00	0	61	0	2635071488	41	4482
2026-01-24 01:12:42.40	152.93	30.93	-35.3	-36.7	18.1	0.00e+00	0	61	0	2640314368	41	4434
2026-01-24 01:12:43.41	153.15	30.77	-35.3	-36.7	18.1	0.00e+00	0	61	0	2645557248	41	4428
2026-01-24 01:12:44.42	153.37	30.61	-35.3	-36.7	18.1	0.00e+00	0	61	0	2651848704	41	4433
2026-01-24 01:12:45.43	153.59	30.46	-35.2	-36.7	18.1	0.00e+00	0	62	0	2657091584	41	4410
2026-01-24 01:12:46.43	153.80	30.30	-35.2	-36.6	18.1	0.00e+00	0	62	0	2663383040	41	4386
2026-01-24 01:12:47.44	154.01	30.14	-35.3	-36.7	18.1	0.00e+00	0	62	0	2668625920	41	4416
2026-01-24 01:12:48.45	154.22	29.99	-35.3	-36.8	18.0	0.00e+00	0	61	0	2673868800	41	4468
2026-01-24 01:12:49.46	154.42	29.83	-35.4	-36.9	17.9	0.00e+00	0	61	0	2680160256	41	4498
2026-01-24 01:12:50.47	154.63	29.68	-35.5	-37.0	17.8	0.00e+00	0	61	0	2685403136	41	4575
2026-01-24 01:12:51.48	154.83	29.52	-35.5	-37.1	17.7	0.00e+00	0	62	0	2691694592	41	4601
2026-01-24 01:12:52.49	155.03	29.37	-35.5	-37.1	17.7	0.00e+00	0	62	0	2696937472	41	4614
2026-01-24 01:12:53.51	155.23	29.21	-35.6	-37.1	17.6	0.00e+00	0	62	0	2702180352	41	4647
2026-01-24 01:12:54.51	155.43	29.06	-35.6	-37.1	17.7	0.00e+00	0	62	0	2708471808	41	4607
2026-01-24 01:12:55.52	155.62	28.91	-35.4	-36.9	17.8	0.00e+00	0	61	0	2713714688	41	4519
2026-01-24 01:12:56.53	155.82	28.76	-35.4	-36.8	17.9	0.00e+00	0	61	0	2720006144	41	4481
2026-01-24 01:12:57.54	156.01	28.60	-35.3	-36.8	18.0	0.00e+00	0	62	0	2725249024	41	4447
2026-01-24 01:12:58.56	156.20	28.45	-35.3	-36.7	18.0	0.00e+00	0	62	0	2731540480	41	4427
2026-01-24 01:12:59.57	156.39	28.30	-35.3	-36.8	18.0	0.00e+00	0	62	0	2736783360	41	4455
2026-01-24 01:13:00.57	156.57	28.15	-35.4	-36.8	17.9	0.00e+00	0	62	0	2743074816	41	4484
2026-01-24 01:13:01.59	156.76	28.00	-35.3	-36.8	18.0	0.00e+00	0	61	0	2748317696	41	4451
2026-01-24 01:13:02.59	156.94	27.85	-35.3	-36.7	18.0	0.00e+00	0	62	0	2753560576	41	4428
2026-01-24 01:13:03.60	157.12	27.70	-35.3	-36.7	18.1	0.00e+00	0	61	0	2759852032	41	4431
2026-01-24 01:13:04.61	157.30	27.56	-35.3	-36.8	18.0	0.00e+00	0	61	0	2765094912	41	4449
2026-01-24 01:13:05.62	157.48	27.41	-35.2	-36.7	18.1	0.00e+00	0	62	0	2771386368	41	4397
2026-01-24 01:13:06.63	157.66	27.26	-35.3	-36.7	18.0	0.00e+00	0	62	0	2776629248	41	4427
2026-01-24 01:13:07.64	157.83	27.11	-35.4	-36.8	18.0	0.00e+00	0	61	0	2781872128	41	4475
2026-01-24 01:13:08.65	158.01	26.97	-35.4	-36.9	17.9	0.00e+00	0	61	0	2788163584	41	4514
2026-01-24 01:13:09.66	158.18	26.82	-35.4	-36.9	17.8	0.00e+00	0	61	0	2793406464	41	4534
2026-01-24 01:13:10.67	158.35	26.68	-35.4	-37.0	17.8	0.00e+00	0	61	0	2798649344	41	4546
2026-01-24 01:13:11.67	158.52	26.53	-35.5	-37.0	17.7	0.00e+00	0	61	0	2804940800	41	4581
2026-01-24 01:13:12.68	158.69	26.39	-35.6	-37.2	17.6	0.00e+00	0	62	0	2810183680	41	4653
2026-01-24 01:13:13.70	158.85	26.24	-35.6	-37.1	17.6	0.00e+00	0	61	0	2816475136	41	4625
2026-01-24 01:13:14.71	159.02	26.10	-35.6	-37.1	17.6	0.00e+00	0	61	0	2821718016	41	4646
2026-01-24 01:13:15.71	159.18	25.96	-35.6	-37.1	17.6	0.00e+00	0	62	0	2828009472	41	4644
2026-01-24 01:13:16.73	159.34	25.82	-35.5	-37.0	17.7	0.00e+00	0	61	0	2833252352	41	4555
2026-01-24 01:13:17.74	159.50	25.67	-35.5	-36.9	17.8	0.00e+00	0	62	0	2839543808	41	4545
2026-01-24 01:13:18.75	159.66	25.53	-35.5	-37.0	17.8	0.00e+00	0	62	0	2844786688	41	4560
2026-01-24 01:13:19.75	159.82	25.39	-35.5	-36.9	17.8	0.00e+00	0	61	0	2850029568	41	4532
2026-01-24 01:13:20.76	159.97	25.25	-35.5	-36.9	17.8	0.00e+00	0	62	0	2856321024	41	4541
2026-01-24 01:13:21.77	160.13	25.11	-35.4	-36.9	17.8	0.00e+00	0	61	0	2861563904	41	4517
2026-01-24 01:13:22.78	160.28	24.97	-35.4	-36.8	17.9	0.00e+00	0	61	0	2867855360	41	4486
2026-01-24 01:13:23.79	160.44	24.84	-35.5	-36.9	17.8	0.00e+00	0	61	0	2873098240	41	4526
2026-01-24 01:13:24.80	160.59	24.70	-35.5	-36.9	17.8	0.00e+00	0	62	0	2878341120	41	4543
2026-01-24 01:13:25.81	160.74	24.56	-35.5	-37.0	17.7	0.00e+00	0	61	0	2884632576	41	4566
2026-01-24 01:13:26.82	160.88	24.42	-35.7	-37.2	17.5	0.00e+00	0	61	0	2889875456	41	4655
2026-01-24 01:13:27.83	161.03	24.29	-35.6	-37.1	17.5	0.00e+00	0	61	0	2896166912	41	4644
2026-01-24 01:13:28.84	161.18	24.15	-35.6	-37.1	17.5	0.00e+00	0	61	0	2901409792	41	4651
2026-01-24 01:13:29.84	161.32	24.02	-35.6	-37.1	17.5	0.00e+00	0	61	0	2906652672	41	4650
2026-01-24 01:13:30.85	161.46	23.88	-35.7	-37.3	17.4	0.00e+00	0	62	0	2912944128	42	4454
2026-01-24 01:13:31.86	161.61	23.75	-35.8	-37.3	17.4	0.00e+00	0	62	0	2918187008	42	4474
2026-01-24 01:13:32.87	161.75	23.61	-35.8	-37.3	17.4	0.00e+00	0	62	0	2924478464	42	4459
2026-01-24 01:13:33.88	161.89	23.48	-35.9	-37.4	17.3	0.00e+00	0	61	0	2929721344	42	4513
2026-01-24 01:13:34.89	162.03	23.35	-35.9	-37.4	17.3	0.00e+00	0	61	0	2936012800	42	4541
2026-01-24 01:13:35.90	162.16	23.21	-35.9	-37.5	17.2	0.00e+00	0	61	0	2941255680	42	4565
2026-01-24 01:13:36.91	162.30	23.08	-36.0	-37.6	17.1	0.00e+00	0	61	0	2946498560	42	4623
2026-01-24 01:13:37.92	162.44	22.95	-36.1	-37.7	17.0	0.00e+00	0	62	0	2952790016	42	4671
2026-01-24 01:13:38.93	162.57	22.82	-36.1	-37.7	16.9	0.00e+00	0	62	0	2958032896	42	4702
2026-01-24 01:13:39.94	162.70	22.69	-36.1	-37.7	16.9	0.00e+00	0	62	0	2964324352	42	4702
2026-01-24 01:13:40.95	162.84	22.56	-36.1	-37.8	16.9	0.00e+00	0	62	0	2969567232	42	4713
2026-01-24 01:13:41.96	162.97	22.43	-36.2	-37.8	16.8	0.00e+00	0	61	0	2974810112	43	4484
2026-01-24 01:13:42.97	163.10	22.30	-36.2	-37.8	16.9	0.00e+00	0	61	0	2981101568	43	4460
2026-01-24 01:13:43.98	163.23	22.17	-36.3	-37.9	16.7	0.00e+00	0	61	0	2986344448	43	4510
2026-01-24 01:13:44.99	163.36	22.05	-36.3	-37.9	16.7	0.00e+00	0	62	0	2992635904	43	4530
2026-01-24 01:13:46.00	163.48	21.92	-36.1	-37.8	16.9	0.00e+00	0	62	0	2997878784	43	4451
2026-01-24 01:13:47.01	163.61	21.79	-36.1	-37.7	16.9	0.00e+00	0	61	0	3003121664	43	4423
2026-01-24 01:13:48.02	163.73	21.67	-36.1	-37.7	16.9	0.00e+00	0	62	0	3009413120	43	4437
2026-01-24 01:13:49.03	163.86	21.54	-36.2	-37.9	16.8	0.00e+00	0	62	0	3014656000	43	4496
2026-01-24 01:13:50.03	163.98	21.42	-36.1	-37.7	16.9	0.00e+00	0	62	0	3020947456	43	4433
2026-01-24 01:13:51.04	164.10	21.29	-36.1	-37.6	17.0	0.00e+00	0	62	0	3026190336	43	4385
2026-01-24 01:13:52.05	164.22	21.17	-36.2	-37.8	16.8	0.00e+00	0	62	0	3032481792	43	4458
2026-01-24 01:13:53.06	164.34	21.04	-36.1	-37.7	16.9	0.00e+00	0	61	0	3037724672	43	4441
2026-01-24 01:13:54.07	164.46	20.92	-36.1	-37.7	16.9	0.00e+00	0	62	0	3044016128	43	4436
2026-01-24 01:13:55.08	164.58	20.80	-36.2	-37.8	16.8	0.00e+00	0	61	0	3049259008	43	4467
2026-01-24 01:13:56.09	164.70	20.68	-36.3	-37.9	16.7	0.00e+00	0	62	0	3054501888	43	4522
2026-01-24 01:13:57.11	164.82	20.55	-36.3	-38.0	16.7	0.00e+00	0	62	0	3060793344	43	4546
2026-01-24 01:13:58.12	164.93	20.43	-36.4	-38.1	16.5	0.00e+00	0	62	0	3066036224	43	4606
2026-01-24 01:13:59.13	165.05	20.31	-36.4	-38.1	16.5	0.00e+00	0	61	0	3072327680	43	4624
2026-01-24 01:14:00.14	165.16	20.19	-36.4	-38.1	16.5	0.00e+00	0	62	0	3077570560	43	4617
2026-01-24 01:14:01.15	165.27	20.07	-36.5	-38.2	16.4	0.00e+00	0	61	0	3082813440	43	4652
2026-01-24 01:14:02.16	165.39	19.95	-36.5	-38.2	16.4	0.00e+00	0	62	0	3089104896	43	4670
2026-01-24 01:14:03.17	165.50	19.83	-36.5	-38.2	16.4	0.00e+00	0	62	0	3094347776	43	4662
2026-01-24 01:14:04.18	165.61	19.71	-36.4	-38.1	16.5	0.00e+00	0	62	0	3100639232	43	4618
2026-01-24 01:14:05.19	165.72	19.59	-36.5	-38.1	16.4	0.00e+00	0	62	0	3105882112	43	4645
2026-01-24 01:14:06.20	165.83	19.48	-36.5	-38.2	16.4	0.00e+00	0	61	0	3111124992	43	4665
2026-01-24 01:14:07.21	165.93	19.36	-36.6	-38.2	16.4	0.00e+00	0	62	0	3117416448	43	4693
2026-01-24 01:14:08.22	166.04	19.24	-36.5	-38.1	16.5	0.00e+00	0	62	0	3122659328	43	4649
2026-01-24 01:14:09.23	166.15	19.13	-36.4	-38.1	16.5	0.00e+00	0	62	0	3128950784	43	4620
2026-01-24 01:14:10.23	166.25	19.01	-36.5	-38.2	16.4	0.00e+00	0	61	0	3134193664	43	4656
2026-01-24 01:14:11.24	166.36	18.90	-36.6	-38.3	16.3	0.00e+00	0	62	0	3140485120	43	4711
2026-01-24 01:14:12.25	166.46	18.78	-36.6	-38.2	16.4	0.00e+00	0	61	0	3145728000	43	4701
2026-01-24 01:14:13.26	166.57	18.67	-36.7	-38.4	16.3	0.00e+00	0	61	0	3150970880	43	4763
2026-01-24 01:14:14.27	166.67	18.55	-36.6	-38.3	16.3	0.00e+00	0	62	0	3157262336	43	4720
2026-01-24 01:14:15.28	166.77	18.44	-36.7	-38.4	16.2	0.00e+00	0	61	0	3162505216	43	4772
2026-01-24 01:14:16.29	166.87	18.33	-36.9	-38.6	16.2	0.00e+00	0	61	0	3168796672	44	4603
2026-01-24 01:14:17.30	166.97	18.21	-36.9	-38.6	16.1	0.00e+00	0	61	0	3174039552	44	4640
2026-01-24 01:14:18.31	167.07	18.10	-36.9	-38.6	16.1	0.00e+00	0	61	0	3179282432	44	4651
2026-01-24 01:14:19.32	167.17	17.99	-36.9	-38.6	16.1	0.00e+00	0	61	0	3185573888	44	4640
2026-01-24 01:14:20.33	167.27	17.88	-37.0	-38.7	16.0	0.00e+00	0	62	0	3190816768	44	4683
2026-01-24 01:14:21.34	167.37	17.77	-37.0	-38.7	16.0	0.00e+00	0	62	0	3197108224	44	4702
2026-01-24 01:14:22.35	167.46	17.66	-36.9	-38.7	16.1	0.00e+00	0	62	0	3202351104	44	4672
2026-01-24 01:14:23.36	167.56	17.55	-37.0	-38.7	16.0	0.00e+00	0	62	0	3207593984	44	4705
2026-01-24 01:14:24.37	167.66	17.44	-37.1	-38.8	15.9	0.00e+00	0	62	0	3213885440	44	4737
2026-01-24 01:14:25.38	167.75	17.33	-37.1	-38.9	15.8	0.00e+00	0	62	0	3219128320	44	4778
2026-01-24 01:14:26.39	167.85	17.22	-37.2	-38.9	15.8	0.00e+00	0	62	0	3225419776	44	4811
2026-01-24 01:14:27.40	167.94	17.11	-37.1	-38.9	15.8	0.00e+00	0	62	0	3230662656	44	4791
2026-01-24 01:14:28.40	168.03	17.00	-37.1	-38.9	15.8	0.00e+00	0	62	0	3235905536	44	4797
2026-01-24 01:14:29.41	168.12	16.89	-37.2	-39.0	15.8	0.00e+00	0	61	0	3242196992	44	4823
2026-01-24 01:14:30.42	168.22	16.79	-37.3	-39.1	15.7	0.00e+00	0	61	0	3247439872	45	4601
2026-01-24 01:14:31.43	168.31	16.68	-37.2	-39.0	15.7	0.00e+00	0	62	0	3253731328	45	4595
2026-01-24 01:14:32.44	168.40	16.57	-37.3	-39.1	15.6	0.00e+00	0	62	0	3258974208	45	4622
2026-01-24 01:14:33.44	168.49	16.47	-37.3	-39.2	15.6	0.00e+00	0	62	0	3265265664	45	4652
2026-01-24 01:14:34.45	168.58	16.36	-37.3	-39.2	15.6	0.00e+00	0	62	0	3270508544	45	4652
2026-01-24 01:14:35.46	168.66	16.26	-37.4	-39.3	15.4	0.00e+00	0	62	0	3275751424	45	4723
2026-01-24 01:14:36.47	168.75	16.15	-37.5	-39.3	15.4	0.00e+00	0	62	0	3282042880	45	4752
2026-01-24 01:14:37.48	168.84	16.05	-37.5	-39.4	15.3	0.00e+00	0	62	0	3287285760	45	4764
2026-01-24 01:14:38.49	168.93	15.94	-37.6	-39.5	15.2	0.00e+00	0	61	0	3293577216	45	4836
2026-01-24 01:14:39.50	169.01	15.84	-37.6	-39.5	15.1	0.00e+00	0	62	0	3298820096	45	4868
2026-01-24 01:14:40.51	169.10	15.74	-37.6	-39.5	15.2	0.00e+00	0	62	0	3304062976	45	4842
2026-01-24 01:14:41.52	169.18	15.63	-37.6	-39.6	15.1	0.00e+00	0	62	0	3310354432	45	4879
2026-01-24 01:14:42.53	169.27	15.53	-37.6	-39.5	15.1	0.00e+00	0	62	0	3315597312	45	4856
2026-01-24 01:14:43.54	169.35	15.43	-37.6	-39.6	15.1	0.00e+00	0	62	0	3321888768	45	4882
2026-01-24 01:14:44.55	169.44	15.33	-37.7	-39.6	15.0	0.00e+00	0	61	0	3327131648	45	4921
2026-01-24 01:14:45.56	169.52	15.23	-37.7	-39.6	15.0	0.00e+00	0	62	0	3332374528	46	4645
2026-01-24 01:14:46.56	169.60	15.13	-37.7	-39.6	15.0	0.00e+00	0	62	0	3338665984	46	4627
2026-01-24 01:14:47.57	169.68	15.02	-37.7	-39.7	15.0	0.00e+00	0	62	0	3343908864	46	4653
2026-01-24 01:14:48.58	169.77	14.92	-37.7	-39.7	15.0	0.00e+00	0	62	0	3350200320	46	4656
2026-01-24 01:14:49.59	169.85	14.82	-37.7	-39.7	14.9	0.00e+00	0	62	0	3355443200	46	4665
2026-01-24 01:14:50.60	169.93	14.72	-37.8	-39.7	14.9	0.00e+00	0	62	0	3361734656	46	4696
2026-01-24 01:14:51.61	170.01	14.63	-37.8	-39.7	14.9	0.00e+00	0	62	0	3366977536	46	4679
2026-01-24 01:14:52.62	170.09	14.53	-37.8	-39.8	14.8	0.00e+00	0	61	0	3373268992	46	4718
2026-01-24 01:14:53.63	170.16	14.43	-37.8	-39.8	14.8	0.00e+00	0	62	0	3378511872	46	4750
2026-01-24 01:14:54.64	170.24	14.33	-37.8	-39.8	14.8	0.00e+00	0	62	0	3383754752	46	4728
2026-01-24 01:14:55.65	170.32	14.23	-37.8	-39.8	14.8	0.00e+00	0	62	0	3390046208	46	4733
2026-01-24 01:14:56.66	170.40	14.13	-37.8	-39.9	14.7	1.10e-06	0	62	0	3395289088	46	4762
2026-01-24 01:14:57.67	170.48	14.04	-38.0	-40.0	14.6	0.00e+00	0	62	0	3401580544	46	4839
2026-01-24 01:14:58.68	170.55	13.94	-38.0	-40.0	14.6	0.00e+00	0	62	0	3406823424	46	4844
2026-01-24 01:14:59.69	170.63	13.84	-38.0	-40.0	14.5	1.10e-06	0	62	0	3412066304	46	4846
2026-01-24 01:15:00.70	170.70	13.75	-38.0	-40.0	14.5	0.00e+00	0	62	0	3418357760	46	4847
2026-01-24 01:15:01.71	170.78	13.65	-38.0	-40.1	14.4	0.00e+00	0	62	0	3423600640	46	4897
2026-01-24 01:15:02.72	170.85	13.56	-38.1	-40.1	14.4	0.00e+00	0	62	0	3429892096	46	4917
2026-01-24 01:15:03.73	170.93	13.46	-38.0	-40.1	14.4	0.00e+00	0	62	0	3435134976	46	4893
2026-01-24 01:15:04.74	171.00	13.37	-38.1	-40.2	14.3	0.00e+00	0	62	0	3440377856	46	4957
