passes_logs/2026/01/24/R2.0S_Moscow/R2.0S_Moscow__20260124_095628_SUOMI_NPP_rec.log

#Pass ID: 20260124_095628_SUOMI NPP
#Satellite: SUOMI NPP
#Configuration: NPP
#almurnet v.1.7.20251203
#Start time: 2026-01-24 09:56:30

#Version: 2.2.20231116
#Station: R2.0S_Moscow
#Location: 37.707566 lon 55.798166 lat
#TLE: 1 37849U 11061A   26023.63275593  .00000212  00000+0  12133-3 0  9990
#TLE: 2 37849  98.7820 325.6074 0002234  48.9695 311.1673 14.19528901737937

#Time	Az	El	Level	Level2	SNR	BER	BlckErr	Temp	State	Recorded	gain1	gain2
2026-01-24 09:56:30.45	158.94	2.14	-44.0	-58.6	3.8	1.49e+00	0	52	0	0	59	19490
2026-01-24 09:56:31.46	158.94	2.21	-44.0	-58.6	3.8	1.49e+00	0	52	104	0	59	19537
2026-01-24 09:56:32.47	158.94	2.27	-44.0	-58.6	3.8	1.49e+00	0	52	104	0	59	19487
2026-01-24 09:56:33.48	158.94	2.34	-44.0	-58.6	3.8	1.49e+00	0	52	104	0	59	19463
2026-01-24 09:56:34.49	158.94	2.40	-44.0	-58.6	3.8	1.49e+00	0	52	104	0	59	19448
2026-01-24 09:56:35.50	158.94	2.47	-44.0	-58.6	3.8	1.49e+00	0	52	104	0	59	19417
2026-01-24 09:56:36.51	158.94	2.54	-44.0	-58.6	3.8	1.49e+00	0	52	104	0	59	19463
2026-01-24 09:56:37.52	158.94	2.60	-44.0	-58.6	3.8	1.49e+00	0	53	104	0	59	19502
2026-01-24 09:56:38.53	158.94	2.67	-44.0	-58.6	3.8	1.49e+00	0	53	104	0	59	19477
2026-01-24 09:56:39.55	158.94	2.74	-44.0	-58.6	3.8	1.49e+00	0	53	104	0	59	19456
2026-01-24 09:56:40.56	158.94	2.80	-44.0	-58.6	3.8	1.49e+00	0	53	104	0	59	19435
2026-01-24 09:56:41.57	158.94	2.87	-44.0	-58.6	3.8	1.49e+00	0	53	104	0	59	19423
2026-01-24 09:56:42.58	158.94	2.94	-44.0	-58.6	3.8	1.49e+00	0	53	104	0	59	19400
2026-01-24 09:56:43.59	158.94	3.01	-44.0	-58.6	3.8	1.49e+00	0	53	104	0	59	19430
2026-01-24 09:56:44.60	158.93	3.07	-44.0	-58.6	3.8	1.49e+00	0	53	104	0	59	19490
2026-01-24 09:56:45.61	158.93	3.14	-44.0	-58.6	3.8	1.49e+00	0	53	104	0	59	19415
2026-01-24 09:56:46.62	158.93	3.21	-44.0	-58.6	3.8	1.49e+00	0	53	104	0	59	19467
2026-01-24 09:56:47.63	158.93	3.28	-44.0	-58.6	3.8	1.49e+00	0	53	104	0	59	19420
2026-01-24 09:56:48.64	158.93	3.34	-44.0	-58.6	3.8	1.49e+00	0	53	104	0	59	19414
2026-01-24 09:56:49.65	158.93	3.41	-44.0	-58.6	3.8	1.49e+00	0	53	104	0	59	19456
2026-01-24 09:56:50.66	158.93	3.48	-44.0	-58.6	3.8	1.49e+00	0	54	104	0	59	19412
2026-01-24 09:56:51.67	158.93	3.55	-44.0	-58.6	3.8	1.49e+00	0	53	104	0	59	19466
2026-01-24 09:56:52.68	158.93	3.62	-44.0	-58.6	3.8	1.49e+00	0	54	104	0	59	19391
2026-01-24 09:56:53.69	158.93	3.69	-44.0	-58.5	3.8	1.49e+00	0	54	104	0	59	19345
2026-01-24 09:56:54.70	158.93	3.76	-44.0	-58.6	3.8	1.49e+00	0	54	104	0	59	19444
2026-01-24 09:56:55.71	158.93	3.83	-44.0	-58.5	3.8	1.49e+00	0	54	104	0	59	19366
2026-01-24 09:56:56.73	158.93	3.90	-44.0	-58.6	3.8	1.49e+00	0	54	104	0	59	19417
2026-01-24 09:56:57.74	158.93	3.97	-44.0	-58.6	3.8	1.49e+00	0	54	104	0	59	19394
2026-01-24 09:56:58.75	158.93	4.04	-44.0	-58.6	3.8	1.49e+00	0	54	104	0	59	19395
2026-01-24 09:56:59.76	158.93	4.11	-44.0	-58.5	3.8	1.49e+00	0	54	104	0	59	19352
2026-01-24 09:57:00.76	158.93	4.18	-44.0	-58.5	3.8	1.49e+00	0	54	104	0	59	19358
2026-01-24 09:57:01.77	158.93	4.25	-44.0	-58.5	3.8	1.49e+00	0	54	104	0	59	19352
2026-01-24 09:57:02.79	158.93	4.32	-44.0	-58.5	3.8	1.49e+00	0	54	104	0	59	19383
2026-01-24 09:57:03.80	158.93	4.39	-44.0	-58.5	3.8	1.49e+00	0	54	104	0	59	19347
2026-01-24 09:57:04.81	158.93	4.46	-44.0	-58.5	3.8	1.49e+00	0	54	104	0	59	19332
2026-01-24 09:57:05.82	158.93	4.53	-44.0	-58.5	3.8	1.49e+00	0	55	104	0	59	19348
2026-01-24 09:57:06.83	158.93	4.60	-44.0	-58.5	3.8	1.49e+00	0	54	104	0	59	19346
2026-01-24 09:57:07.84	158.93	4.67	-44.0	-58.5	3.8	1.49e+00	0	55	104	0	59	19336
2026-01-24 09:57:08.85	158.92	4.75	-44.0	-58.5	3.8	1.49e+00	0	54	104	0	59	19327
2026-01-24 09:57:09.86	158.92	4.82	-44.0	-58.5	3.8	1.49e+00	0	55	104	0	59	19309
2026-01-24 09:57:10.87	158.92	4.89	-44.0	-58.5	3.8	1.49e+00	0	55	104	0	59	19266
2026-01-24 09:57:11.88	158.92	4.96	-44.0	-58.5	3.8	1.49e+00	0	55	104	0	59	19212
2026-01-24 09:57:12.89	158.92	5.03	-44.0	-58.4	3.8	1.49e+00	0	55	104	0	59	19161
2026-01-24 09:57:13.90	158.92	5.11	-44.0	-58.4	3.8	1.49e+00	0	55	104	0	59	19158
2026-01-24 09:57:14.91	158.92	5.18	-44.0	-58.4	3.8	1.49e+00	0	55	104	0	59	19037
2026-01-24 09:57:15.92	158.92	5.25	-44.0	-58.4	3.8	1.49e+00	0	55	104	0	59	19032
2026-01-24 09:57:16.93	158.92	5.33	-44.0	-58.3	3.8	1.49e+00	0	55	104	0	59	18815
2026-01-24 09:57:17.94	158.92	5.40	-44.0	-58.2	3.8	1.49e+00	0	55	104	0	59	18593
2026-01-24 09:57:18.95	158.92	5.47	-43.9	-57.9	3.8	1.49e+00	0	55	104	0	59	18080
2026-01-24 09:57:19.96	158.92	5.55	-43.9	-57.6	3.8	1.49e+00	0	55	104	0	59	17326
2026-01-24 09:57:20.97	158.92	5.62	-43.9	-57.2	3.8	1.49e+00	0	55	104	0	59	16548
2026-01-24 09:57:21.98	158.92	5.70	-43.9	-56.9	3.8	1.49e+00	0	55	104	0	59	16049
2026-01-24 09:57:22.99	158.91	5.77	-43.9	-56.6	3.8	1.49e+00	0	55	104	0	59	15576
2026-01-24 09:57:24.00	158.91	5.85	-43.8	-56.4	3.8	1.49e+00	0	55	104	0	59	15175
2026-01-24 09:57:25.01	158.91	5.92	-43.8	-56.2	3.9	1.49e+00	0	55	104	0	59	14725
2026-01-24 09:57:26.02	158.91	6.00	-43.8	-56.0	3.8	1.49e+00	0	56	104	0	59	14521
2026-01-24 09:57:27.03	158.91	6.07	-43.8	-56.0	3.9	1.48e+00	0	56	104	0	59	14401
2026-01-24 09:57:28.04	158.91	6.15	-43.8	-55.7	3.9	1.46e+00	0	56	104	0	59	14046
2026-01-24 09:57:29.05	158.91	6.22	-43.8	-55.6	4.1	1.47e+00	0	56	104	0	59	13735
2026-01-24 09:57:30.06	158.91	6.30	-43.8	-56.0	3.9	1.48e+00	0	56	104	0	59	14434
2026-01-24 09:57:31.07	158.91	6.38	-43.8	-55.8	4.0	1.48e+00	0	56	104	0	59	14176
2026-01-24 09:57:32.08	158.91	6.45	-43.8	-56.0	4.0	1.47e+00	0	56	104	0	59	14463
2026-01-24 09:57:33.10	158.91	6.53	-43.8	-56.3	3.8	1.48e+00	0	56	104	0	59	14993
2026-01-24 09:57:34.10	158.90	6.61	-43.9	-56.6	3.8	1.48e+00	0	56	104	0	59	15532
2026-01-24 09:57:35.11	158.90	6.68	-43.9	-57.3	3.8	1.49e+00	0	56	104	0	59	16705
2026-01-24 09:57:36.13	158.90	6.76	-43.9	-57.5	3.8	1.49e+00	0	56	104	0	59	17259
2026-01-24 09:57:37.13	158.90	6.84	-43.9	-57.9	3.8	1.49e+00	0	56	104	0	59	18023
2026-01-24 09:57:38.15	158.90	6.92	-43.9	-58.0	3.8	1.49e+00	0	56	104	0	59	18278
2026-01-24 09:57:39.16	158.90	7.00	-44.0	-58.2	3.8	1.49e+00	0	56	104	0	59	18563
2026-01-24 09:57:40.17	158.90	7.07	-43.9	-57.8	3.8	1.49e+00	0	56	104	0	59	17769
2026-01-24 09:57:41.18	158.90	7.15	-43.9	-57.1	3.8	1.49e+00	0	56	104	0	59	16319
2026-01-24 09:57:42.19	158.90	7.23	-43.8	-56.3	3.8	1.49e+00	0	56	104	0	59	14951
2026-01-24 09:57:43.20	158.89	7.31	-43.8	-55.1	4.1	1.45e+00	0	56	0	0	59	13109
2026-01-24 09:57:44.21	158.89	7.39	-43.6	-53.9	4.6	1.21e+00	0	56	0	1048576	59	11301
2026-01-24 09:57:45.22	158.89	7.47	-43.5	-52.9	5.0	8.32e-01	0	56	0	2097152	59	10101
2026-01-24 09:57:46.23	158.89	7.55	-43.4	-52.0	5.6	4.99e-01	0	56	0	4194304	58	9632
2026-01-24 09:57:47.24	158.89	7.63	-43.2	-51.2	6.2	3.25e-01	0	56	0	6291456	58	8774
2026-01-24 09:57:48.25	158.89	7.71	-43.1	-50.3	6.9	2.20e-01	0	56	0	8388608	58	7965
2026-01-24 09:57:49.26	158.89	7.79	-42.9	-49.7	7.4	1.37e-01	0	57	0	10485760	57	7853
2026-01-24 09:57:50.27	158.89	7.87	-42.9	-49.5	7.7	1.02e-01	0	56	0	11534336	57	7658
2026-01-24 09:57:51.28	158.88	7.95	-42.8	-49.1	8.0	7.11e-02	0	57	0	13631488	57	7366
2026-01-24 09:57:52.29	158.88	8.04	-42.8	-49.2	8.1	5.84e-02	0	57	0	15728640	57	7430
2026-01-24 09:57:53.30	158.88	8.12	-44.2	-58.5	3.8	1.49e+00	0	57	104	15728640	59	19306
2026-01-24 09:57:54.31	158.88	8.20	-43.4	-51.3	5.9	1.24e+00	0	57	0	15728640	58	8911
2026-01-24 09:57:55.32	158.88	8.28	-43.1	-50.1	7.3	4.51e-02	0	57	0	17825792	57	8233
2026-01-24 09:57:56.33	158.88	8.36	-43.7	-52.8	4.2	1.49e+00	0	57	104	18874368	58	10574
2026-01-24 09:57:57.34	158.88	8.45	-43.5	-53.6	4.1	8.54e-01	0	57	104	18874368	57	12372
2026-01-24 09:57:58.35	158.87	8.53	-42.7	-48.7	8.6	9.00e-02	0	57	0	19922944	57	6976
2026-01-24 09:57:59.36	158.87	8.61	-42.7	-48.8	8.4	4.15e-02	0	57	0	22020096	57	7095
2026-01-24 09:58:00.37	158.87	8.70	-42.6	-48.6	8.7	3.93e-02	0	57	0	23068672	57	6902
2026-01-24 09:58:01.38	158.87	8.78	-42.6	-48.4	8.9	3.39e-02	0	57	0	25165824	57	6778
2026-01-24 09:58:02.39	158.87	8.87	-42.6	-48.4	8.9	3.39e-02	0	57	0	27262976	57	6781
2026-01-24 09:58:03.40	158.87	8.95	-42.6	-48.4	8.9	2.85e-02	0	57	0	29360128	57	6758
2026-01-24 09:58:04.41	158.86	9.04	-42.6	-48.4	8.9	2.94e-02	0	57	0	31457280	57	6769
2026-01-24 09:58:05.42	158.86	9.12	-42.5	-48.1	9.3	2.12e-02	0	57	0	32505856	57	6524
2026-01-24 09:58:06.42	158.86	9.21	-42.5	-48.2	9.2	1.98e-02	0	57	0	34603008	57	6581
2026-01-24 09:58:07.43	158.86	9.29	-42.5	-48.1	9.3	2.26e-02	0	57	0	36700160	57	6524
2026-01-24 09:58:08.44	158.86	9.38	-42.5	-48.0	9.3	1.71e-02	0	57	0	38797312	56	6841
2026-01-24 09:58:09.45	158.86	9.46	-42.5	-47.9	9.5	1.61e-02	0	57	0	39845888	56	6787
2026-01-24 09:58:10.46	158.85	9.55	-42.5	-47.8	9.6	1.52e-02	0	57	0	41943040	56	6700
2026-01-24 09:58:11.47	158.85	9.64	-42.5	-47.9	9.5	1.30e-02	0	57	0	44040192	56	6787
2026-01-24 09:58:12.48	158.85	9.72	-42.5	-47.9	9.5	1.28e-02	0	57	0	46137344	56	6743
2026-01-24 09:58:13.49	158.85	9.81	-42.5	-47.8	9.6	1.08e-02	0	57	0	48234496	56	6702
2026-01-24 09:58:14.50	158.85	9.90	-42.5	-47.8	9.7	1.30e-02	0	57	0	50331648	56	6669
2026-01-24 09:58:15.51	158.84	9.99	-42.6	-48.0	9.5	1.29e-02	0	58	0	51380224	56	6820
2026-01-24 09:58:16.52	158.84	10.08	-42.6	-48.0	9.5	1.07e-02	0	57	0	53477376	56	6803
2026-01-24 09:58:17.53	158.84	10.16	-42.5	-47.8	9.7	1.13e-02	0	58	0	55574528	56	6708
2026-01-24 09:58:18.54	158.84	10.25	-42.5	-47.7	9.9	1.08e-02	0	58	0	57671680	56	6582
2026-01-24 09:58:19.55	158.84	10.34	-42.5	-47.7	9.9	9.26e-03	0	58	0	59768832	56	6619
2026-01-24 09:58:20.56	158.83	10.43	-42.5	-47.7	9.9	1.06e-02	0	58	0	60817408	56	6614
2026-01-24 09:58:21.57	158.83	10.52	-42.5	-47.6	10.0	8.99e-03	0	58	0	62914560	56	6534
2026-01-24 09:58:22.58	158.83	10.61	-42.5	-47.5	10.0	7.72e-03	0	58	0	65011712	56	6491
2026-01-24 09:58:23.59	158.83	10.70	-42.5	-47.6	10.0	7.64e-03	0	58	0	67108864	56	6506
2026-01-24 09:58:24.60	158.83	10.80	-42.5	-47.5	10.2	6.80e-03	0	58	0	69206016	56	6425
2026-01-24 09:58:25.60	158.82	10.89	-42.4	-47.3	10.3	4.95e-03	0	58	0	70254592	56	6317
2026-01-24 09:58:26.61	158.82	10.98	-42.5	-47.4	10.3	5.80e-03	0	58	0	72351744	56	6404
2026-01-24 09:58:27.62	158.82	11.07	-42.4	-47.2	10.5	4.63e-03	0	58	0	74448896	56	6218
2026-01-24 09:58:28.63	158.82	11.16	-42.4	-47.2	10.5	3.68e-03	0	58	0	76546048	56	6220
2026-01-24 09:58:29.64	158.81	11.25	-42.4	-47.2	10.5	3.47e-03	0	58	0	78643200	56	6230
2026-01-24 09:58:30.65	158.81	11.35	-42.3	-47.0	10.8	3.14e-03	0	58	0	79691776	56	6075
2026-01-24 09:58:31.66	158.81	11.44	-42.4	-47.1	10.6	3.35e-03	0	58	0	81788928	56	6188
2026-01-24 09:58:32.67	158.81	11.54	-42.4	-47.1	10.7	2.64e-03	0	58	0	83886080	56	6165
2026-01-24 09:58:33.68	158.80	11.63	-42.3	-47.0	10.8	2.94e-03	0	58	0	85983232	56	6093
2026-01-24 09:58:34.69	158.80	11.72	-42.3	-46.9	10.9	2.40e-03	0	58	0	88080384	56	6047
2026-01-24 09:58:35.70	158.80	11.82	-42.3	-46.9	10.9	3.03e-03	0	58	0	89128960	56	6042
2026-01-24 09:58:36.71	158.80	11.91	-42.3	-46.9	10.9	2.53e-03	0	58	0	91226112	56	6045
2026-01-24 09:58:37.72	158.79	12.01	-42.4	-47.0	10.8	2.50e-03	0	58	0	93323264	56	6128
2026-01-24 09:58:38.72	158.79	12.11	-42.4	-47.0	10.9	2.48e-03	0	58	0	95420416	56	6090
2026-01-24 09:58:39.73	158.79	12.20	-42.4	-47.1	10.8	2.13e-03	0	58	0	97517568	56	6141
2026-01-24 09:58:40.75	158.79	12.30	-42.4	-47.1	10.8	2.25e-03	0	58	0	98566144	56	6135
2026-01-24 09:58:41.76	158.78	12.40	-42.4	-47.0	10.9	1.97e-03	0	58	0	100663296	56	6120
2026-01-24 09:58:42.76	158.78	12.49	-42.4	-47.0	10.9	1.98e-03	0	58	0	102760448	56	6107
2026-01-24 09:58:43.77	158.78	12.59	-42.4	-46.9	11.0	2.01e-03	0	59	0	104857600	56	6050
2026-01-24 09:58:44.78	158.77	12.69	-42.5	-47.1	10.8	2.09e-03	0	58	0	106954752	56	6190
2026-01-24 09:58:45.79	158.77	12.79	-42.4	-47.0	10.9	1.96e-03	0	58	0	108003328	56	6107
2026-01-24 09:58:46.80	158.77	12.89	-42.4	-46.9	11.1	1.74e-03	0	58	0	110100480	56	6007
2026-01-24 09:58:47.81	158.77	12.99	-42.4	-46.8	11.1	1.66e-03	0	59	0	112197632	56	5992
2026-01-24 09:58:48.82	158.76	13.09	-42.4	-46.8	11.2	1.95e-03	0	58	0	114294784	56	5961
2026-01-24 09:58:49.83	158.76	13.19	-42.4	-46.9	11.1	1.65e-03	0	59	0	116391936	56	6030
2026-01-24 09:58:50.84	158.76	13.29	-42.4	-47.0	10.9	1.96e-03	0	59	0	118489088	56	6114
2026-01-24 09:58:51.85	158.75	13.39	-42.4	-46.8	11.2	1.77e-03	0	59	0	119537664	56	5991
2026-01-24 09:58:52.86	158.75	13.49	-42.4	-47.0	11.0	1.46e-03	0	58	0	121634816	56	6076
2026-01-24 09:58:53.87	158.75	13.59	-42.4	-46.9	11.2	1.55e-03	0	58	0	123731968	56	6002
2026-01-24 09:58:54.88	158.74	13.70	-42.3	-46.7	11.3	1.05e-03	0	59	0	125829120	56	5916
2026-01-24 09:58:55.89	158.74	13.80	-42.4	-46.8	11.3	1.09e-03	0	59	0	127926272	56	5941
2026-01-24 09:58:56.90	158.74	13.90	-42.3	-46.7	11.3	9.24e-04	0	59	0	128974848	56	5903
2026-01-24 09:58:57.91	158.73	14.01	-42.3	-46.7	11.4	1.04e-03	0	59	0	131072000	56	5863
2026-01-24 09:58:58.92	158.73	14.11	-42.2	-46.4	11.6	8.29e-04	0	58	0	133169152	56	5722
2026-01-24 09:58:59.93	158.73	14.22	-42.2	-46.4	11.7	6.00e-04	0	59	0	135266304	56	5671
2026-01-24 09:59:00.94	158.72	14.32	-42.2	-46.4	11.7	6.34e-04	0	59	0	137363456	56	5658
2026-01-24 09:59:01.95	158.72	14.43	-42.2	-46.3	11.8	5.55e-04	0	59	0	138412032	56	5611
2026-01-24 09:59:02.96	158.72	14.53	-42.1	-46.1	12.0	3.97e-04	0	59	0	140509184	56	5515
2026-01-24 09:59:03.97	158.71	14.64	-42.2	-46.3	11.8	4.26e-04	0	59	0	142606336	56	5653
2026-01-24 09:59:04.98	158.71	14.75	-42.1	-46.2	11.9	3.98e-04	0	59	0	144703488	56	5536
2026-01-24 09:59:05.99	158.70	14.85	-42.0	-45.9	12.2	2.84e-04	0	59	0	146800640	56	5399
2026-01-24 09:59:06.99	158.70	14.96	-42.1	-46.0	12.1	2.53e-04	0	59	0	147849216	56	5414
2026-01-24 09:59:08.00	158.70	15.07	-41.9	-45.8	12.2	1.79e-04	0	59	0	149946368	55	5593
2026-01-24 09:59:09.01	158.69	15.18	-41.9	-45.8	12.2	1.67e-04	0	59	0	152043520	55	5624
2026-01-24 09:59:10.02	158.69	15.29	-41.9	-45.8	12.2	2.15e-04	0	59	0	154140672	55	5621
2026-01-24 09:59:11.03	158.68	15.40	-41.8	-45.7	12.3	2.28e-04	0	59	0	156237824	55	5555
2026-01-24 09:59:12.04	158.68	15.51	-41.9	-45.7	12.3	1.62e-04	0	59	0	157286400	55	5562
2026-01-24 09:59:13.05	158.68	15.62	-41.8	-45.6	12.4	1.07e-04	0	59	0	159383552	55	5479
2026-01-24 09:59:14.06	158.67	15.73	-41.8	-45.5	12.5	1.35e-04	0	59	0	161480704	55	5438
2026-01-24 09:59:15.07	158.67	15.84	-41.8	-45.5	12.5	1.40e-04	0	59	0	163577856	55	5437
2026-01-24 09:59:16.08	158.66	15.96	-41.8	-45.5	12.5	1.02e-04	0	59	0	165675008	55	5441
2026-01-24 09:59:17.09	158.66	16.07	-41.8	-45.5	12.5	1.08e-04	0	59	0	166723584	55	5446
2026-01-24 09:59:18.09	158.66	16.18	-41.7	-45.4	12.6	8.77e-05	0	59	0	168820736	55	5376
2026-01-24 09:59:19.10	158.65	16.30	-41.7	-45.4	12.6	8.46e-05	0	59	0	170917888	55	5366
2026-01-24 09:59:20.11	158.65	16.41	-41.8	-45.5	12.5	1.41e-04	0	59	0	173015040	55	5439
2026-01-24 09:59:21.12	158.64	16.53	-41.7	-45.3	12.7	7.24e-05	0	59	0	175112192	55	5333
2026-01-24 09:59:22.13	158.64	16.64	-41.8	-45.5	12.6	6.94e-05	0	59	0	176160768	55	5436
2026-01-24 09:59:23.14	158.63	16.76	-41.7	-45.3	12.7	1.16e-04	0	59	0	178257920	55	5330
2026-01-24 09:59:24.15	158.63	16.88	-41.7	-45.3	12.7	6.63e-05	0	59	0	180355072	55	5334
2026-01-24 09:59:25.16	158.62	16.99	-41.7	-45.5	12.6	7.40e-05	0	59	0	182452224	55	5404
2026-01-24 09:59:26.17	158.62	17.11	-41.7	-45.3	12.8	7.09e-05	0	59	0	184549376	55	5292
2026-01-24 09:59:27.18	158.61	17.23	-41.6	-45.2	12.8	5.18e-05	0	59	0	186646528	55	5254
2026-01-24 09:59:28.19	158.61	17.35	-41.7	-45.2	12.8	5.95e-05	0	59	0	187695104	55	5278
2026-01-24 09:59:29.20	158.60	17.47	-41.5	-45.1	13.0	5.49e-05	0	59	0	189792256	55	5164
2026-01-24 09:59:30.21	158.60	17.59	-41.6	-45.1	12.9	4.27e-05	0	59	0	191889408	55	5180
2026-01-24 09:59:31.22	158.59	17.71	-41.6	-45.1	12.9	4.73e-05	0	59	0	193986560	55	5208
2026-01-24 09:59:32.23	158.59	17.83	-41.6	-45.1	13.0	4.11e-05	0	59	0	196083712	55	5198
2026-01-24 09:59:33.24	158.58	17.95	-41.7	-45.3	12.8	4.57e-05	0	59	0	197132288	55	5286
2026-01-24 09:59:34.25	158.58	18.08	-41.6	-45.1	12.9	2.44e-05	0	59	0	199229440	55	5204
2026-01-24 09:59:35.25	158.57	18.20	-41.6	-45.0	13.0	3.05e-05	0	59	0	201326592	55	5157
2026-01-24 09:59:36.26	158.57	18.32	-41.5	-44.9	13.1	4.88e-05	0	59	0	203423744	55	5064
2026-01-24 09:59:37.28	158.56	18.45	-41.5	-45.0	13.1	3.05e-05	0	60	0	205520896	54	5453
2026-01-24 09:59:38.28	158.55	18.57	-41.6	-45.1	13.0	4.11e-05	0	59	0	206569472	54	5505
2026-01-24 09:59:39.29	158.55	18.70	-41.6	-45.1	13.0	4.95e-05	0	59	0	208666624	54	5507
2026-01-24 09:59:40.30	158.54	18.82	-41.6	-45.1	13.0	3.28e-05	0	59	0	210763776	54	5514
2026-01-24 09:59:41.31	158.54	18.95	-41.7	-45.3	12.8	6.02e-05	0	59	0	212860928	54	5625
2026-01-24 09:59:42.32	158.53	19.08	-41.6	-45.2	12.9	3.73e-05	0	59	0	214958080	54	5548
2026-01-24 09:59:43.33	158.53	19.21	-41.7	-45.2	12.8	6.25e-05	0	59	0	216006656	54	5585
2026-01-24 09:59:44.34	158.52	19.34	-41.7	-45.3	12.8	9.30e-05	0	60	0	218103808	54	5597
2026-01-24 09:59:45.35	158.51	19.47	-41.8	-45.5	12.6	9.53e-05	0	60	0	220200960	54	5744
2026-01-24 09:59:46.36	158.51	19.60	-41.8	-45.4	12.7	7.40e-05	0	59	0	222298112	54	5721
2026-01-24 09:59:47.37	158.50	19.73	-41.8	-45.5	12.6	7.40e-05	0	59	0	224395264	54	5741
2026-01-24 09:59:48.37	158.49	19.86	-41.8	-45.4	12.7	5.79e-05	0	59	0	225443840	54	5712
2026-01-24 09:59:49.38	158.49	19.99	-41.9	-45.6	12.5	6.71e-05	0	59	0	227540992	54	5840
2026-01-24 09:59:50.39	158.48	20.12	-41.8	-45.5	12.6	6.94e-05	0	60	0	229638144	54	5759
2026-01-24 09:59:51.40	158.47	20.26	-41.8	-45.5	12.6	7.24e-05	0	59	0	231735296	54	5779
2026-01-24 09:59:52.41	158.47	20.39	-41.7	-45.4	12.7	1.27e-04	0	60	0	233832448	54	5696
2026-01-24 09:59:53.42	158.46	20.53	-41.9	-45.6	12.5	9.84e-05	0	60	0	234881024	54	5820
2026-01-24 09:59:54.43	158.45	20.67	-41.9	-45.6	12.5	1.16e-04	0	59	0	236978176	54	5842
2026-01-24 09:59:55.44	158.45	20.80	-41.8	-45.6	12.5	1.71e-04	0	60	0	239075328	54	5808
2026-01-24 09:59:56.45	158.44	20.94	-41.9	-45.8	12.3	1.33e-04	0	60	0	241172480	54	5949
2026-01-24 09:59:57.46	158.43	21.08	-42.0	-45.9	12.2	1.39e-04	0	60	0	243269632	54	6021
2026-01-24 09:59:58.47	158.43	21.22	-42.0	-45.9	12.2	2.00e-04	0	60	0	244318208	54	5998
2026-01-24 09:59:59.48	158.42	21.36	-41.9	-45.7	12.4	1.91e-04	0	60	0	246415360	54	5897
2026-01-24 10:00:00.49	158.41	21.50	-42.0	-45.9	12.2	2.50e-04	0	60	0	248512512	54	6042
2026-01-24 10:00:01.50	158.40	21.64	-42.1	-46.1	12.1	1.86e-04	0	59	0	250609664	54	6143
2026-01-24 10:00:02.51	158.40	21.78	-42.1	-46.2	12.0	1.87e-04	0	60	0	252706816	54	6232
2026-01-24 10:00:03.52	158.39	21.93	-42.0	-45.9	12.3	1.94e-04	0	60	0	254803968	54	5996
2026-01-24 10:00:04.53	158.38	22.07	-42.0	-46.0	12.2	1.95e-04	0	60	0	255852544	54	6076
2026-01-24 10:00:05.54	158.37	22.21	-42.1	-46.0	12.0	2.17e-04	0	60	0	257949696	54	6121
2026-01-24 10:00:06.55	158.36	22.36	-42.0	-46.0	12.2	2.03e-04	0	59	0	260046848	54	6082
2026-01-24 10:00:07.55	158.36	22.51	-41.9	-45.6	12.5	1.85e-04	0	60	0	262144000	54	5834
2026-01-24 10:00:08.56	158.35	22.65	-41.9	-45.7	12.4	2.69e-04	0	60	0	264241152	54	5910
2026-01-24 10:00:09.57	158.34	22.80	-41.9	-45.7	12.4	1.72e-04	0	60	0	265289728	54	5891
2026-01-24 10:00:10.58	158.33	22.95	-42.0	-45.9	12.3	1.06e-04	0	60	0	267386880	54	5998
2026-01-24 10:00:11.59	158.32	23.10	-41.9	-45.7	12.5	1.48e-04	0	60	0	269484032	54	5856
2026-01-24 10:00:12.60	158.31	23.25	-41.8	-45.4	12.7	8.92e-05	0	60	0	271581184	54	5717
2026-01-24 10:00:13.61	158.31	23.40	-41.8	-45.5	12.6	9.07e-05	0	60	0	273678336	54	5782
2026-01-24 10:00:14.62	158.30	23.55	-41.8	-45.4	12.7	6.40e-05	0	60	0	274726912	54	5708
2026-01-24 10:00:15.63	158.29	23.71	-41.6	-45.2	13.0	3.43e-05	0	60	0	276824064	54	5541
2026-01-24 10:00:16.64	158.28	23.86	-41.6	-45.1	13.1	4.73e-05	0	60	0	278921216	54	5515
2026-01-24 10:00:17.65	158.27	24.02	-41.6	-45.2	13.0	5.34e-05	0	60	0	281018368	54	5534
2026-01-24 10:00:18.66	158.26	24.17	-41.7	-45.3	12.9	3.50e-05	0	60	0	283115520	54	5618
2026-01-24 10:00:19.67	158.25	24.33	-41.6	-45.0	13.1	1.44e-05	0	60	0	284164096	54	5450
2026-01-24 10:00:20.68	158.24	24.49	-41.6	-45.0	13.2	2.13e-05	0	60	0	286261248	54	5413
2026-01-24 10:00:21.69	158.23	24.65	-41.6	-45.1	13.1	3.05e-05	0	60	0	288358400	54	5476
2026-01-24 10:00:22.70	158.22	24.81	-41.6	-45.1	13.1	3.12e-05	0	60	0	290455552	54	5467
2026-01-24 10:00:23.71	158.21	24.97	-41.6	-45.0	13.1	1.90e-05	0	60	0	292552704	54	5460
2026-01-24 10:00:24.71	158.20	25.13	-41.6	-45.0	13.1	4.95e-05	0	60	0	293601280	54	5447
2026-01-24 10:00:25.72	158.19	25.29	-41.5	-44.9	13.3	2.05e-05	0	60	0	295698432	54	5366
2026-01-24 10:00:26.73	158.18	25.46	-41.6	-44.9	13.2	1.52e-05	0	60	0	297795584	54	5394
2026-01-24 10:00:27.74	158.17	25.62	-41.3	-44.5	13.6	1.52e-05	0	60	0	299892736	54	5137
2026-01-24 10:00:28.75	158.16	25.79	-41.2	-44.3	13.8	4.50e-06	0	60	0	301989888	54	5038
2026-01-24 10:00:29.76	158.15	25.95	-41.2	-44.3	13.9	4.50e-06	0	60	0	303038464	54	4999
2026-01-24 10:00:30.77	158.14	26.12	-41.2	-44.2	13.9	3.00e-06	0	60	0	305135616	54	4981
2026-01-24 10:00:31.78	158.13	26.29	-41.2	-44.2	13.9	4.50e-06	0	60	0	307232768	54	4980
2026-01-24 10:00:32.79	158.12	26.46	-41.2	-44.4	13.8	6.10e-06	0	60	0	309329920	54	5057
2026-01-24 10:00:33.80	158.10	26.63	-41.3	-44.5	13.7	6.10e-06	0	60	0	311427072	54	5123
2026-01-24 10:00:34.81	158.09	26.81	-41.4	-44.7	13.5	7.60e-06	0	60	0	312475648	54	5240
2026-01-24 10:00:35.82	158.08	26.98	-41.7	-45.1	13.0	1.14e-05	0	60	0	314572800	54	5525
2026-01-24 10:00:36.83	158.07	27.15	-41.7	-45.2	12.9	3.66e-05	0	60	0	316669952	54	5550
2026-01-24 10:00:37.83	158.06	27.33	-41.8	-45.5	12.7	3.35e-05	0	60	0	318767104	54	5736
2026-01-24 10:00:38.84	158.05	27.51	-42.0	-45.7	12.5	1.20e-04	0	60	0	320864256	54	5901
2026-01-24 10:00:39.85	158.03	27.68	-41.9	-45.6	12.5	1.72e-04	0	60	0	321912832	54	5802
2026-01-24 10:00:40.86	158.02	27.86	-42.0	-45.8	12.3	1.36e-04	0	60	0	324009984	54	5970
2026-01-24 10:00:41.87	158.01	28.04	-42.0	-45.9	12.3	1.72e-04	0	60	0	326107136	54	6010
2026-01-24 10:00:42.88	157.99	28.22	-42.0	-45.8	12.5	1.04e-04	0	60	0	328204288	54	5937
2026-01-24 10:00:43.89	157.98	28.41	-42.0	-45.8	12.3	1.38e-04	0	60	0	330301440	54	5983
2026-01-24 10:00:44.90	157.97	28.59	-42.0	-45.7	12.4	1.50e-04	0	60	0	331350016	54	5919
2026-01-24 10:00:45.91	157.95	28.78	-42.0	-45.7	12.4	1.18e-04	0	60	0	333447168	54	5915
2026-01-24 10:00:46.92	157.94	28.96	-42.1	-46.1	12.0	1.56e-04	0	60	0	335544320	54	6137
2026-01-24 10:00:47.92	157.93	29.15	-42.0	-45.7	12.4	1.81e-04	0	60	0	337641472	55	5565
2026-01-24 10:00:48.94	157.91	29.34	-42.3	-46.4	11.8	5.36e-04	0	60	0	339738624	55	5999
2026-01-24 10:00:49.95	157.90	29.53	-42.6	-47.0	11.2	9.23e-04	0	60	0	340787200	55	6432
2026-01-24 10:00:50.95	157.88	29.72	-42.5	-46.9	11.2	1.10e-03	0	60	0	342884352	55	6392
2026-01-24 10:00:51.96	157.87	29.91	-42.9	-47.6	10.7	1.91e-03	0	60	0	344981504	56	6516
2026-01-24 10:00:52.97	157.86	30.11	-42.9	-47.5	10.7	2.63e-03	0	60	0	347078656	56	6450
2026-01-24 10:00:53.98	157.84	30.30	-42.8	-47.4	10.9	1.85e-03	0	60	0	349175808	56	6360
2026-01-24 10:00:54.99	157.82	30.50	-42.8	-47.4	10.9	2.21e-03	0	60	0	351272960	56	6367
2026-01-24 10:00:56.00	157.81	30.70	-42.6	-46.8	11.6	2.22e-03	0	60	0	352321536	56	5928
2026-01-24 10:00:57.01	157.79	30.90	-42.7	-47.1	11.1	2.54e-03	0	60	0	354418688	56	6195
2026-01-24 10:00:58.02	157.78	31.10	-42.9	-47.5	10.8	2.22e-03	0	60	0	356515840	56	6424
2026-01-24 10:00:59.03	157.76	31.30	-43.1	-48.0	10.3	2.73e-03	0	60	0	358612992	56	6809
2026-01-24 10:01:00.04	157.74	31.50	-43.3	-48.5	9.7	6.52e-03	0	60	0	360710144	57	6853
2026-01-24 10:01:01.05	157.73	31.71	-43.4	-48.8	9.4	1.07e-02	0	60	0	361758720	57	7087
2026-01-24 10:01:02.06	157.71	31.91	-43.7	-49.7	8.4	3.30e-02	0	60	0	363855872	57	7867
2026-01-24 10:01:03.07	157.69	32.12	-43.7	-49.8	8.3	3.53e-02	0	60	0	365953024	58	7506
2026-01-24 10:01:04.08	157.68	32.33	-43.6	-49.6	8.6	5.55e-02	0	60	0	368050176	58	7301
2026-01-24 10:01:05.08	157.66	32.54	-43.8	-50.1	8.0	6.28e-02	0	60	0	370147328	58	7754
2026-01-24 10:01:06.09	157.64	32.75	-43.6	-49.6	8.3	4.88e-02	0	60	0	371195904	58	7351
2026-01-24 10:01:07.10	157.62	32.97	-43.7	-49.8	8.4	4.91e-02	0	60	0	373293056	58	7514
2026-01-24 10:01:08.11	157.60	33.18	-43.6	-49.6	8.6	4.15e-02	0	60	0	375390208	58	7336
2026-01-24 10:01:09.12	157.59	33.40	-43.7	-49.7	8.5	5.12e-02	0	60	0	377487360	58	7453
2026-01-24 10:01:10.13	157.57	33.62	-43.8	-50.3	7.9	4.25e-02	0	60	0	379584512	58	7924
2026-01-24 10:01:11.14	157.55	33.84	-43.7	-49.8	8.3	4.90e-02	0	61	0	380633088	58	7511
2026-01-24 10:01:12.15	157.53	34.06	-43.6	-49.6	8.7	4.37e-02	0	61	0	382730240	58	7306
2026-01-24 10:01:13.16	157.51	34.28	-43.5	-49.1	9.1	4.04e-02	0	60	0	384827392	58	6952
2026-01-24 10:01:14.17	157.49	34.51	-43.4	-48.6	9.6	1.47e-02	0	60	0	386924544	58	6562
2026-01-24 10:01:15.18	157.47	34.73	-43.1	-47.9	10.5	4.99e-03	0	60	0	389021696	57	6405
2026-01-24 10:01:16.19	157.44	34.96	-42.6	-46.7	11.7	2.03e-03	0	60	0	390070272	57	5569
2026-01-24 10:01:17.20	157.42	35.19	-42.3	-46.2	12.1	5.32e-04	0	61	0	392167424	56	5581
2026-01-24 10:01:18.21	157.40	35.42	-42.1	-45.8	12.5	1.30e-04	0	60	0	394264576	56	5315
2026-01-24 10:01:19.22	157.38	35.65	-42.0	-45.6	12.7	7.93e-05	0	60	0	396361728	56	5197
2026-01-24 10:01:20.23	157.36	35.89	-42.0	-45.6	12.6	6.40e-05	0	60	0	398458880	55	5494
2026-01-24 10:01:21.24	157.33	36.12	-42.0	-45.6	12.6	8.31e-05	0	60	0	399507456	55	5499
2026-01-24 10:01:22.24	157.31	36.36	-41.9	-45.6	12.7	6.25e-05	0	60	0	401604608	55	5482
2026-01-24 10:01:23.25	157.29	36.60	-41.7	-45.2	13.0	1.17e-04	0	60	0	403701760	55	5271
2026-01-24 10:01:24.26	157.26	36.84	-41.7	-45.1	13.2	3.43e-05	0	60	0	405798912	55	5170
2026-01-24 10:01:25.27	157.24	37.09	-41.6	-45.0	13.3	1.29e-05	0	60	0	407896064	54	5425
2026-01-24 10:01:26.28	157.21	37.33	-41.1	-44.1	14.2	5.30e-06	0	60	0	408944640	54	4880
2026-01-24 10:01:27.29	157.19	37.58	-40.9	-43.8	14.5	0.00e+00	0	60	0	411041792	53	4991
2026-01-24 10:01:28.30	157.16	37.83	-40.9	-43.9	14.3	7.00e-07	0	61	0	413138944	53	5050
2026-01-24 10:01:29.31	157.14	38.08	-41.2	-44.3	14.0	1.50e-06	0	60	0	415236096	53	5282
2026-01-24 10:01:30.32	157.11	38.33	-41.2	-44.3	13.9	3.00e-06	0	60	0	417333248	53	5288
2026-01-24 10:01:31.33	157.08	38.58	-41.2	-44.3	13.9	6.10e-06	0	60	0	419430400	53	5336
2026-01-24 10:01:32.34	157.06	38.84	-41.5	-44.8	13.5	1.14e-05	0	60	0	420478976	53	5619
2026-01-24 10:01:33.35	157.03	39.10	-41.3	-44.4	13.8	1.22e-05	0	60	0	422576128	53	5383
2026-01-24 10:01:34.36	157.00	39.36	-41.3	-44.5	13.7	7.60e-06	0	60	0	424673280	53	5416
2026-01-24 10:01:35.36	156.97	39.62	-41.3	-44.4	13.8	9.90e-06	0	60	0	426770432	53	5372
2026-01-24 10:01:36.38	156.94	39.89	-41.2	-44.3	13.9	7.00e-07	0	60	0	428867584	53	5316
2026-01-24 10:01:37.38	156.91	40.15	-41.2	-44.3	13.9	1.50e-06	0	61	0	429916160	53	5299
2026-01-24 10:01:38.39	156.88	40.42	-41.2	-44.3	14.0	5.30e-06	0	60	0	432013312	53	5289
2026-01-24 10:01:39.40	156.85	40.69	-41.4	-44.7	13.5	2.20e-06	0	60	0	434110464	53	5534
2026-01-24 10:01:40.41	156.82	40.96	-41.4	-44.5	13.7	7.00e-07	0	60	0	436207616	53	5461
2026-01-24 10:01:41.42	156.79	41.24	-41.0	-43.9	14.3	7.00e-07	0	60	0	438304768	53	5084
2026-01-24 10:01:42.43	156.75	41.51	-41.2	-44.3	13.9	3.80e-06	0	60	0	439353344	53	5282
2026-01-24 10:01:43.44	156.72	41.79	-41.5	-44.7	13.6	1.14e-05	0	61	0	441450496	53	5584
2026-01-24 10:01:44.45	156.68	42.07	-41.7	-45.1	13.2	1.06e-05	0	60	0	443547648	53	5809
2026-01-24 10:01:45.46	156.65	42.35	-41.7	-45.0	13.2	2.28e-05	0	61	0	445644800	54	5464
2026-01-24 10:01:46.47	156.61	42.64	-41.7	-45.2	13.1	2.97e-05	0	61	0	447741952	54	5541
2026-01-24 10:01:47.48	156.58	42.93	-41.7	-45.0	13.2	3.66e-05	0	61	0	448790528	54	5463
2026-01-24 10:01:48.49	156.54	43.22	-41.6	-45.0	13.2	1.52e-05	0	60	0	450887680	54	5444
2026-01-24 10:01:49.50	156.50	43.51	-41.7	-45.1	13.2	1.83e-05	0	61	0	452984832	54	5476
2026-01-24 10:01:50.51	156.46	43.80	-41.8	-45.2	13.1	2.97e-05	0	61	0	455081984	54	5559
2026-01-24 10:01:51.52	156.43	44.10	-41.8	-45.4	12.9	4.57e-05	0	61	0	457179136	54	5669
2026-01-24 10:01:52.53	156.39	44.39	-42.0	-45.7	12.6	1.56e-04	0	60	0	458227712	55	5559
2026-01-24 10:01:53.53	156.34	44.69	-42.4	-46.5	11.5	5.55e-04	0	61	0	460324864	55	6116
2026-01-24 10:01:54.54	156.30	44.99	-42.5	-46.8	11.5	6.12e-04	0	61	0	462422016	55	6297
2026-01-24 10:01:55.55	156.26	45.30	-42.5	-46.7	11.5	5.71e-04	0	61	0	464519168	55	6243
2026-01-24 10:01:56.56	156.22	45.61	-42.4	-46.4	11.8	5.23e-04	0	60	0	466616320	55	6023
2026-01-24 10:01:57.57	156.17	45.92	-42.4	-46.4	11.8	5.01e-04	0	61	0	467664896	55	6061
2026-01-24 10:01:58.58	156.13	46.23	-42.7	-47.0	11.1	8.66e-04	0	61	0	469762048	55	6482
2026-01-24 10:01:59.59	156.08	46.54	-43.2	-48.1	10.4	2.24e-03	0	61	0	471859200	57	6503
2026-01-24 10:02:00.60	156.03	46.86	-43.5	-49.1	9.2	1.32e-02	0	61	0	473956352	57	7354
2026-01-24 10:02:01.61	155.99	47.18	-43.6	-49.3	9.0	3.14e-02	0	61	0	476053504	58	7104
2026-01-24 10:02:02.62	155.94	47.50	-43.6	-49.4	8.9	4.94e-02	0	61	0	477102080	58	7149
2026-01-24 10:02:03.63	155.89	47.82	-43.6	-49.2	9.1	2.90e-02	0	61	0	479199232	58	6980
2026-01-24 10:02:04.64	155.83	48.15	-43.4	-48.7	9.7	1.33e-02	0	61	0	481296384	58	6617
2026-01-24 10:02:05.65	155.78	48.48	-43.2	-48.1	10.3	6.37e-03	0	61	0	483393536	58	6161
2026-01-24 10:02:06.66	155.73	48.81	-43.1	-47.9	10.4	4.27e-03	0	61	0	485490688	58	6060
2026-01-24 10:02:07.67	155.67	49.14	-42.9	-47.3	11.0	2.68e-03	0	61	0	487587840	57	5983
2026-01-24 10:02:08.68	155.62	49.48	-42.4	-46.4	12.0	6.98e-04	0	61	0	488636416	56	5678
2026-01-24 10:02:09.69	155.56	49.82	-42.2	-45.9	12.6	1.36e-04	0	61	0	490733568	56	5353
2026-01-24 10:02:10.70	155.50	50.16	-42.1	-45.7	12.8	4.34e-05	0	61	0	492830720	56	5226
2026-01-24 10:02:11.71	155.44	50.50	-41.4	-44.5	13.8	1.60e-05	0	61	0	494927872	54	5148
2026-01-24 10:02:12.72	155.38	50.85	-41.2	-44.1	14.1	1.50e-06	0	61	0	497025024	54	4921
2026-01-24 10:02:13.73	155.31	51.20	-41.1	-44.1	14.1	3.80e-06	0	61	0	498073600	54	4892
2026-01-24 10:02:14.74	155.25	51.55	-41.1	-44.1	14.2	7.00e-07	0	61	0	500170752	54	4896
2026-01-24 10:02:15.74	155.18	51.90	-41.4	-44.5	13.8	2.20e-06	0	61	0	502267904	54	5158
2026-01-24 10:02:16.75	155.11	52.26	-41.6	-45.0	13.4	1.67e-05	0	61	0	504365056	54	5403
2026-01-24 10:02:17.76	155.04	52.62	-41.8	-45.3	13.1	2.36e-05	0	61	0	506462208	54	5596
2026-01-24 10:02:18.77	154.97	52.98	-41.6	-44.9	13.4	2.74e-05	0	61	0	507510784	54	5386
2026-01-24 10:02:19.78	154.90	53.34	-41.9	-45.4	12.9	6.40e-05	0	61	0	509607936	54	5680
2026-01-24 10:02:20.79	154.82	53.71	-41.9	-45.3	12.9	5.79e-05	0	61	0	511705088	54	5653
2026-01-24 10:02:21.80	154.74	54.08	-41.4	-44.6	13.7	1.52e-05	0	61	0	513802240	54	5196
2026-01-24 10:02:22.81	154.66	54.45	-41.3	-44.3	14.0	8.30e-06	0	61	0	515899392	54	5023
2026-01-24 10:02:23.82	154.58	54.83	-41.3	-44.3	14.0	1.50e-06	0	61	0	516947968	54	5003
2026-01-24 10:02:24.83	154.50	55.20	-41.3	-44.4	13.8	2.20e-06	0	61	0	519045120	54	5098
2026-01-24 10:02:25.84	154.41	55.58	-41.6	-44.9	13.4	1.29e-05	0	61	0	521142272	54	5401
2026-01-24 10:02:26.85	154.32	55.97	-41.8	-45.3	13.0	3.43e-05	0	61	0	523239424	54	5606
2026-01-24 10:02:27.86	154.23	56.35	-41.7	-45.0	13.3	1.83e-05	0	61	0	525336576	54	5440
2026-01-24 10:02:28.87	154.13	56.74	-41.3	-44.3	14.1	9.10e-06	0	61	0	526385152	54	5000
2026-01-24 10:02:29.88	154.03	57.13	-41.9	-45.4	12.9	3.28e-05	0	61	0	528482304	54	5673
2026-01-24 10:02:30.88	153.94	57.52	-42.4	-46.5	11.7	1.69e-04	0	61	0	530579456	55	6091
2026-01-24 10:02:31.89	153.83	57.91	-42.8	-47.1	11.2	1.06e-03	0	61	0	532676608	56	6201
2026-01-24 10:02:32.90	153.73	58.31	-43.0	-47.7	10.6	4.17e-03	0	61	0	534773760	56	6617
2026-01-24 10:02:33.91	153.62	58.71	-42.7	-46.9	11.5	2.50e-03	0	61	0	535822336	56	6025
2026-01-24 10:02:34.92	153.50	59.12	-42.5	-46.5	11.9	1.06e-03	0	61	0	537919488	56	5739
2026-01-24 10:02:35.93	153.38	59.52	-42.8	-47.2	11.1	7.45e-04	0	61	0	540016640	56	6213
2026-01-24 10:02:36.94	153.26	59.93	-43.0	-47.6	10.7	1.98e-03	0	61	0	542113792	56	6525
2026-01-24 10:02:37.95	153.14	60.34	-43.2	-48.1	10.2	6.50e-03	0	61	0	544210944	57	6555
2026-01-24 10:02:38.96	153.01	60.76	-43.2	-48.1	10.2	6.54e-03	0	61	0	545259520	57	6550
2026-01-24 10:02:39.97	152.88	61.17	-43.1	-47.8	10.5	4.27e-03	0	61	0	547356672	57	6282
2026-01-24 10:02:40.98	152.74	61.59	-42.9	-47.5	10.8	2.75e-03	0	61	0	549453824	57	6076
2026-01-24 10:02:41.99	152.59	62.01	-42.6	-46.6	11.8	1.21e-03	0	61	0	551550976	57	5496
2026-01-24 10:02:43.00	152.45	62.43	-42.3	-46.1	12.2	2.55e-04	0	61	0	553648128	56	5501
2026-01-24 10:02:44.01	152.29	62.86	-41.8	-45.2	13.0	6.17e-05	0	61	0	555745280	55	5248
2026-01-24 10:02:45.02	152.13	63.29	-41.2	-44.1	14.0	2.20e-06	0	61	0	556793856	54	4914
2026-01-24 10:02:46.03	151.97	63.72	-40.8	-43.6	14.6	7.00e-07	0	61	0	558891008	53	4890
2026-01-24 10:02:47.04	151.80	64.15	-40.7	-43.4	14.9	0.00e+00	0	61	0	560988160	53	4783
2026-01-24 10:02:48.05	151.62	64.59	-40.7	-43.5	14.8	0.00e+00	0	61	0	563085312	53	4826
2026-01-24 10:02:49.06	151.43	65.03	-40.9	-43.8	14.5	0.00e+00	0	61	0	565182464	53	5026
2026-01-24 10:02:50.07	151.24	65.47	-41.1	-44.1	14.1	7.00e-07	0	61	0	566231040	53	5175
2026-01-24 10:02:51.08	151.04	65.91	-41.6	-45.0	13.2	3.00e-06	0	61	0	568328192	53	5745
2026-01-24 10:02:52.09	150.83	66.35	-42.0	-45.7	12.4	1.37e-04	0	61	0	570425344	54	5913
2026-01-24 10:02:53.10	150.61	66.80	-42.5	-46.6	11.5	1.96e-04	0	61	0	572522496	55	6199
2026-01-24 10:02:54.11	150.38	67.25	-42.4	-46.5	11.7	3.26e-04	0	61	0	574619648	55	6098
2026-01-24 10:02:55.12	150.14	67.70	-42.6	-47.0	11.3	7.26e-04	0	61	0	575668224	55	6431
2026-01-24 10:02:56.13	149.90	68.15	-42.8	-47.2	11.1	1.13e-03	0	61	0	577765376	56	6242
2026-01-24 10:02:57.14	149.63	68.60	-43.1	-47.8	10.5	1.74e-03	0	61	0	579862528	56	6703
2026-01-24 10:02:58.15	149.36	69.06	-43.3	-48.3	9.8	9.71e-03	0	61	0	581959680	57	6719
2026-01-24 10:02:59.16	149.08	69.52	-43.6	-49.3	8.9	1.90e-02	0	61	0	584056832	57	7467
2026-01-24 10:03:00.17	148.77	69.98	-43.7	-49.6	8.5	2.52e-02	0	61	0	585105408	58	7365
2026-01-24 10:03:01.18	148.46	70.44	-43.9	-50.3	7.8	4.69e-02	0	61	0	587202560	58	7960
2026-01-24 10:03:02.19	148.13	70.90	-44.0	-50.8	7.2	8.57e-02	0	61	0	589299712	58	8459
2026-01-24 10:03:03.20	147.78	71.37	-43.3	-48.5	9.6	4.60e-02	0	61	0	591396864	58	6464
2026-01-24 10:03:04.21	147.41	71.83	-42.1	-45.7	12.6	2.04e-03	0	61	0	593494016	56	5220
2026-01-24 10:03:05.21	147.02	72.30	-41.2	-44.2	13.9	4.50e-06	0	61	0	594542592	54	4983
2026-01-24 10:03:06.22	146.61	72.76	-41.2	-44.3	13.8	3.80e-06	0	61	0	596639744	54	4994
2026-01-24 10:03:07.23	146.17	73.23	-41.6	-44.9	13.3	6.80e-06	0	61	0	598736896	54	5349
2026-01-24 10:03:08.24	145.71	73.70	-41.3	-44.4	13.8	9.10e-06	0	61	0	600834048	54	5081
2026-01-24 10:03:09.25	145.21	74.17	-41.2	-44.2	13.9	3.80e-06	0	61	0	602931200	54	4975
2026-01-24 10:03:10.26	144.69	74.65	-42.0	-45.6	12.5	1.37e-05	0	61	0	603979776	54	5841
2026-01-24 10:03:11.27	144.13	75.12	-42.7	-47.2	10.9	1.45e-03	0	61	0	606076928	55	6601
2026-01-24 10:03:12.28	143.53	75.59	-43.3	-48.4	9.8	1.14e-02	0	61	0	608174080	57	6758
2026-01-24 10:03:13.29	142.89	76.06	-43.2	-48.1	10.1	8.68e-03	0	61	0	610271232	57	6513
2026-01-24 10:03:14.30	142.21	76.53	-43.4	-48.6	9.6	9.85e-03	0	61	0	612368384	57	6920
2026-01-24 10:03:15.31	141.47	77.01	-43.9	-50.4	7.6	5.63e-02	0	61	0	613416960	58	7994
2026-01-24 10:03:16.32	140.67	77.48	-43.9	-50.3	7.8	1.05e-01	0	61	0	615514112	58	7933
2026-01-24 10:03:17.33	139.81	77.94	-43.4	-48.8	9.3	6.61e-02	0	61	0	617611264	58	6679
2026-01-24 10:03:18.34	138.88	78.41	-43.7	-49.6	8.5	2.56e-02	0	61	0	619708416	58	7318
2026-01-24 10:03:19.35	137.87	78.88	-43.7	-49.5	8.6	4.84e-02	0	61	0	621805568	58	7237
2026-01-24 10:03:20.36	136.77	79.34	-43.7	-49.5	8.7	4.30e-02	0	61	0	623902720	58	7229
2026-01-24 10:03:21.37	135.56	79.80	-43.4	-48.6	9.4	2.21e-02	0	61	0	624951296	58	6536
2026-01-24 10:03:22.38	134.24	80.26	-43.2	-48.2	9.9	1.91e-02	0	61	0	627048448	58	6207
2026-01-24 10:03:23.39	132.79	80.71	-43.4	-48.6	9.6	6.15e-03	0	61	0	629145600	58	6532
2026-01-24 10:03:24.40	131.19	81.16	-43.4	-48.8	9.2	2.19e-02	0	61	0	631242752	58	6713
2026-01-24 10:03:25.40	129.44	81.59	-42.9	-47.4	10.6	1.04e-02	0	61	0	632291328	57	6042
2026-01-24 10:03:26.41	127.47	82.02	-41.6	-45.0	13.0	3.89e-04	0	61	0	634388480	55	5151
2026-01-24 10:03:27.42	125.28	82.44	-41.6	-44.9	13.2	1.90e-05	0	61	0	636485632	54	5389
2026-01-24 10:03:28.44	122.80	82.86	-41.8	-45.5	12.7	7.17e-05	0	61	0	638582784	54	5732
2026-01-24 10:03:29.45	120.05	83.25	-40.9	-43.8	14.4	1.06e-05	0	61	0	640679936	53	5009
2026-01-24 10:03:30.46	116.97	83.63	-40.9	-43.7	14.5	2.20e-06	0	61	0	642777088	53	4965
2026-01-24 10:03:31.47	113.50	83.99	-41.3	-44.5	13.6	5.30e-06	0	61	0	643825664	53	5447
2026-01-24 10:03:32.48	109.60	84.33	-40.6	-43.4	14.7	1.50e-06	0	61	0	645922816	53	4775
2026-01-24 10:03:33.49	105.23	84.63	-41.0	-44.0	14.1	7.00e-07	0	61	0	648019968	52	5433
2026-01-24 10:03:34.50	100.36	84.90	-41.7	-45.2	12.9	1.83e-05	0	61	0	650117120	54	5564
2026-01-24 10:03:35.50	95.05	85.13	-41.8	-45.3	12.9	1.05e-04	0	61	0	652214272	54	5636
2026-01-24 10:03:36.51	89.20	85.32	-42.2	-46.1	12.0	1.08e-04	0	61	0	653262848	55	5823
2026-01-24 10:03:37.52	82.95	85.45	-41.8	-45.2	13.0	1.21e-04	0	61	0	655360000	55	5252
2026-01-24 10:03:38.54	76.33	85.53	-41.5	-44.8	13.3	7.60e-06	0	61	0	657457152	54	5290
2026-01-24 10:03:39.54	69.72	85.54	-41.8	-45.3	12.9	2.74e-05	0	61	0	659554304	54	5606
2026-01-24 10:03:40.55	63.08	85.50	-41.0	-44.0	14.2	6.80e-06	0	61	0	661651456	54	4817
2026-01-24 10:03:41.56	56.65	85.39	-41.1	-44.0	14.1	0.00e+00	0	61	0	662700032	52	5436
2026-01-24 10:03:42.57	50.59	85.23	-43.2	-47.8	10.7	6.94e-05	0	61	0	664797184	56	6677
2026-01-24 10:03:43.58	44.97	85.03	-42.9	-47.4	10.9	6.04e-03	0	61	0	666894336	57	6020
2026-01-24 10:03:44.59	39.85	84.77	-41.8	-45.3	12.9	8.62e-05	0	61	0	668991488	55	5280
2026-01-24 10:03:45.60	35.24	84.49	-42.1	-45.9	12.2	8.85e-05	0	61	0	671088640	55	5658
2026-01-24 10:03:46.61	31.11	84.17	-40.8	-43.5	14.6	7.00e-07	0	61	0	672137216	53	4852
2026-01-24 10:03:47.62	27.43	83.82	-40.6	-43.3	14.9	7.00e-07	0	61	0	674234368	52	5020
2026-01-24 10:03:48.63	24.15	83.45	-41.2	-44.2	14.0	1.50e-06	0	61	0	676331520	53	5224
2026-01-24 10:03:49.63	21.27	83.07	-41.4	-44.5	13.7	3.80e-06	0	61	0	678428672	53	5449
2026-01-24 10:03:50.64	18.67	82.66	-42.4	-46.6	11.6	1.36e-04	0	61	0	680525824	55	6162
2026-01-24 10:03:51.65	16.34	82.25	-42.6	-46.8	11.4	2.94e-03	0	61	0	681574400	56	5952
2026-01-24 10:03:52.66	14.26	81.82	-42.8	-47.1	11.2	1.11e-03	0	61	0	683671552	56	6142
2026-01-24 10:03:53.67	12.39	81.39	-43.1	-47.8	10.5	3.52e-03	0	61	0	685768704	56	6684
2026-01-24 10:03:54.68	10.71	80.94	-42.6	-46.7	11.7	9.27e-04	0	61	0	687865856	56	5908
2026-01-24 10:03:55.69	9.18	80.49	-42.8	-47.1	11.2	8.27e-04	0	61	0	689963008	56	6199
2026-01-24 10:03:56.70	7.80	80.04	-43.3	-48.4	9.7	8.72e-03	0	61	0	691011584	57	6785
2026-01-24 10:03:57.71	6.54	79.58	-43.2	-48.1	10.0	1.11e-02	0	61	0	693108736	57	6570
2026-01-24 10:03:58.72	5.38	79.12	-43.7	-49.4	8.8	1.44e-02	0	61	0	695205888	57	7622
2026-01-24 10:03:59.73	4.33	78.66	-42.7	-46.9	11.3	1.54e-02	0	61	0	697303040	57	5662
2026-01-24 10:04:00.74	3.36	78.19	-41.6	-44.8	13.3	1.13e-04	0	61	0	699400192	55	5040
2026-01-24 10:04:01.75	2.46	77.72	-41.4	-44.4	13.8	2.20e-06	0	61	0	700448768	54	5099
2026-01-24 10:04:02.76	1.63	77.26	-41.7	-45.0	13.3	4.50e-06	0	61	0	702545920	54	5408
2026-01-24 10:04:03.77	0.87	76.78	-42.3	-46.2	12.1	8.77e-05	0	61	0	704643072	55	5861
2026-01-24 10:04:04.78	0.16	76.31	-42.6	-46.9	11.3	8.31e-04	0	61	0	706740224	55	6419
2026-01-24 10:04:05.79	359.49	75.84	-42.7	-46.9	11.4	3.48e-03	0	61	0	708837376	56	6052
2026-01-24 10:04:06.80	358.87	75.37	-41.6	-44.8	13.4	3.73e-05	0	61	0	709885952	55	5027
2026-01-24 10:04:07.80	358.30	74.91	-41.8	-45.3	12.9	9.90e-06	0	61	0	711983104	54	5628
2026-01-24 10:04:08.81	357.76	74.43	-42.6	-47.0	11.3	5.95e-04	0	61	0	714080256	55	6438
2026-01-24 10:04:09.82	357.25	73.96	-42.0	-45.6	12.6	3.06e-04	0	61	0	716177408	55	5502
2026-01-24 10:04:10.83	356.77	73.49	-41.5	-44.8	13.5	7.60e-06	0	61	0	718274560	54	5286
2026-01-24 10:04:11.84	356.32	73.03	-41.6	-44.8	13.5	1.14e-05	0	61	0	720371712	54	5303
2026-01-24 10:04:12.85	355.90	72.56	-41.9	-45.4	12.8	1.14e-05	0	61	0	721420288	54	5700
2026-01-24 10:04:13.86	355.49	72.09	-42.9	-47.4	10.8	7.57e-04	0	61	0	723517440	56	6418
2026-01-24 10:04:14.87	355.11	71.63	-43.2	-48.0	10.3	2.04e-03	0	61	0	725614592	56	6841
2026-01-24 10:04:15.88	354.75	71.16	-43.6	-49.3	8.9	8.81e-03	0	61	0	727711744	57	7525
2026-01-24 10:04:16.88	354.42	70.70	-43.7	-49.3	9.0	3.16e-02	0	61	0	729808896	58	7086
2026-01-24 10:04:17.90	354.09	70.24	-43.5	-48.7	9.5	1.64e-02	0	61	0	730857472	58	6643
2026-01-24 10:04:18.91	353.78	69.78	-43.5	-48.8	9.4	2.45e-02	0	61	0	732954624	58	6667
2026-01-24 10:04:19.92	353.49	69.32	-43.6	-49.0	9.1	4.05e-02	0	61	0	735051776	58	6840
2026-01-24 10:04:20.92	353.21	68.87	-43.1	-47.9	10.6	9.72e-03	0	61	0	737148928	58	5994
2026-01-24 10:04:21.93	352.94	68.41	-43.8	-49.7	8.5	1.08e-02	0	61	0	739246080	58	7421
2026-01-24 10:04:22.94	352.69	67.96	-43.8	-50.0	8.2	7.41e-02	0	61	0	740294656	58	7635
2026-01-24 10:04:23.95	352.44	67.51	-42.7	-46.8	11.4	6.22e-03	0	61	0	742391808	57	5630
2026-01-24 10:04:24.96	352.21	67.06	-42.8	-47.0	11.4	2.88e-04	0	61	0	744488960	56	6093
2026-01-24 10:04:25.97	351.99	66.62	-43.0	-47.4	10.9	2.75e-03	0	61	0	746586112	56	6410
2026-01-24 10:04:26.98	351.77	66.17	-42.5	-46.5	11.8	3.87e-04	0	61	0	748683264	56	5746
2026-01-24 10:04:27.99	351.57	65.73	-41.7	-44.9	13.3	5.03e-05	0	61	0	749731840	55	5094
2026-01-24 10:04:29.00	351.37	65.29	-41.7	-45.1	13.2	1.67e-05	0	61	0	751828992	55	5198
2026-01-24 10:04:30.01	351.18	64.85	-41.8	-45.2	13.0	2.05e-05	0	61	0	753926144	54	5560
2026-01-24 10:04:31.02	351.00	64.42	-41.9	-45.4	12.8	2.13e-05	0	61	0	756023296	54	5700
2026-01-24 10:04:32.03	350.83	63.98	-42.3	-46.2	12.0	1.04e-04	0	61	0	758120448	55	5897
2026-01-24 10:04:33.04	350.66	63.55	-42.3	-46.2	12.0	5.02e-04	0	61	0	759169024	55	5912
2026-01-24 10:04:34.05	350.50	63.12	-41.8	-45.5	12.7	1.84e-04	0	61	0	761266176	55	5404
2026-01-24 10:04:35.06	350.34	62.70	-42.0	-45.7	12.6	4.95e-05	0	61	0	763363328	55	5533
2026-01-24 10:04:36.07	350.19	62.27	-41.5	-44.8	13.5	3.58e-05	0	61	0	765460480	55	4986
2026-01-24 10:04:37.08	350.04	61.85	-40.7	-43.4	14.9	3.00e-06	0	61	0	767557632	53	4800
2026-01-24 10:04:38.09	349.90	61.43	-40.4	-42.9	15.4	0.00e+00	0	61	0	768606208	52	4783
2026-01-24 10:04:39.09	349.77	61.02	-41.4	-44.6	13.6	3.80e-06	0	61	0	770703360	53	5528
2026-01-24 10:04:40.10	349.64	60.61	-41.8	-45.2	13.1	3.28e-05	0	61	0	772800512	54	5558
2026-01-24 10:04:41.11	349.51	60.20	-41.7	-45.1	13.2	6.40e-05	0	61	0	774897664	54	5493
2026-01-24 10:04:42.12	349.39	59.79	-41.6	-44.9	13.3	2.67e-05	0	61	0	776994816	54	5342
2026-01-24 10:04:43.13	349.27	59.38	-41.1	-44.0	14.2	1.06e-05	0	61	0	778043392	54	4848
2026-01-24 10:04:44.14	349.15	58.98	-41.3	-44.4	13.8	5.30e-06	0	61	0	780140544	53	5383
2026-01-24 10:04:45.15	349.04	58.58	-42.0	-45.6	12.7	5.79e-05	0	62	0	782237696	54	5809
2026-01-24 10:04:46.16	348.93	58.18	-41.9	-45.5	12.8	1.77e-04	0	61	0	784334848	55	5412
2026-01-24 10:04:47.17	348.83	57.79	-41.5	-44.7	13.5	2.59e-05	0	61	0	786432000	54	5277
2026-01-24 10:04:48.18	348.73	57.39	-41.4	-44.5	13.8	8.30e-06	0	61	0	788529152	54	5130
2026-01-24 10:04:49.19	348.63	57.00	-41.1	-44.0	14.2	1.50e-06	0	61	0	789577728	54	4840
2026-01-24 10:04:50.20	348.53	56.61	-41.1	-43.9	14.5	0.00e+00	0	61	0	791674880	53	5085
2026-01-24 10:04:51.21	348.44	56.23	-41.0	-43.8	14.5	1.50e-06	0	61	0	793772032	53	5006
2026-01-24 10:04:52.22	348.35	55.85	-40.5	-43.1	15.2	0.00e+00	0	61	0	795869184	53	4599
2026-01-24 10:04:53.23	348.26	55.47	-40.2	-42.6	15.7	0.00e+00	0	61	0	797966336	52	4636
2026-01-24 10:04:54.24	348.17	55.09	-40.2	-42.7	15.6	0.00e+00	0	62	0	799014912	52	4684
2026-01-24 10:04:55.25	348.09	54.71	-40.7	-43.4	14.8	0.00e+00	0	61	0	801112064	52	5069
2026-01-24 10:04:56.26	348.01	54.34	-41.5	-44.8	13.4	4.50e-06	0	61	0	803209216	53	5609
2026-01-24 10:04:57.27	347.93	53.97	-42.1	-45.8	12.5	4.34e-05	0	61	0	805306368	54	5953
2026-01-24 10:04:58.27	347.86	53.61	-41.9	-45.4	12.6	1.29e-04	0	61	0	807403520	54	5696
2026-01-24 10:04:59.28	347.78	53.24	-41.5	-44.7	13.5	3.20e-05	0	61	0	808452096	54	5252
2026-01-24 10:05:00.29	347.71	52.88	-41.4	-44.5	13.7	7.60e-06	0	61	0	810549248	54	5135
2026-01-24 10:05:01.30	347.64	52.52	-42.3	-46.1	12.1	1.14e-05	0	61	0	812646400	55	5831
2026-01-24 10:05:02.31	347.57	52.17	-43.1	-47.9	10.4	1.57e-03	0	61	0	814743552	56	6746
2026-01-24 10:05:03.32	347.50	51.81	-43.7	-49.8	8.6	9.36e-03	0	61	0	816840704	57	7910
2026-01-24 10:05:04.33	347.43	51.46	-43.7	-49.8	8.4	4.19e-02	0	61	0	817889280	58	7475
2026-01-24 10:05:05.34	347.37	51.11	-43.2	-48.1	10.0	1.48e-02	0	61	0	819986432	58	6164
2026-01-24 10:05:06.35	347.31	50.77	-42.2	-45.9	12.4	1.56e-03	0	61	0	822083584	56	5382
2026-01-24 10:05:07.36	347.25	50.42	-42.3	-46.0	12.3	1.02e-04	0	61	0	824180736	56	5450
2026-01-24 10:05:08.37	347.19	50.08	-42.4	-46.3	12.0	1.66e-04	0	61	0	826277888	56	5631
2026-01-24 10:05:09.38	347.13	49.74	-42.8	-47.2	11.0	1.62e-03	0	61	0	827326464	56	6264
2026-01-24 10:05:10.39	347.07	49.41	-42.2	-45.9	12.5	2.43e-04	0	61	0	829423616	56	5346
2026-01-24 10:05:11.40	347.02	49.07	-42.4	-46.2	12.2	7.62e-05	0	61	0	831520768	56	5556
2026-01-24 10:05:12.41	346.96	48.74	-43.3	-48.4	10.0	2.23e-03	0	61	0	833617920	57	6774
2026-01-24 10:05:13.42	346.91	48.41	-44.4	-52.6	6.0	1.21e-01	0	61	0	835715072	59	9785
2026-01-24 10:05:14.43	346.86	48.08	-44.0	-50.7	7.6	2.27e-01	0	61	0	836763648	59	7813
2026-01-24 10:05:15.44	346.81	47.76	-43.1	-47.9	10.4	1.44e-02	0	61	0	838860800	58	5998
2026-01-24 10:05:16.45	346.76	47.44	-42.2	-45.9	12.5	3.65e-04	0	61	0	840957952	56	5341
2026-01-24 10:05:17.45	346.71	47.12	-41.5	-44.7	13.5	3.96e-05	0	61	0	843055104	54	5270
2026-01-24 10:05:18.46	346.66	46.81	-41.5	-44.7	13.6	1.14e-05	0	62	0	845152256	54	5252
2026-01-24 10:05:19.47	346.61	46.49	-41.8	-45.3	12.9	3.20e-05	0	61	0	846200832	54	5610
2026-01-24 10:05:20.48	346.57	46.18	-42.5	-46.6	11.4	1.47e-04	0	61	0	848297984	55	6202
2026-01-24 10:05:21.50	346.52	45.87	-43.3	-48.5	9.7	5.30e-03	0	61	0	850395136	57	6861
2026-01-24 10:05:22.51	346.48	45.56	-43.9	-50.2	8.0	5.00e-02	0	61	0	852492288	58	7858
2026-01-24 10:05:23.52	346.44	45.25	-44.4	-52.7	5.9	1.38e-01	0	61	0	854589440	59	9890
2026-01-24 10:05:24.53	346.40	44.95	-44.3	-52.1	6.2	3.20e-01	0	62	0	856686592	59	9256
2026-01-24 10:05:25.54	346.35	44.65	-43.6	-49.5	8.7	1.30e-01	0	61	0	857735168	59	6818
2026-01-24 10:05:26.55	346.31	44.35	-42.9	-47.4	10.8	1.93e-02	0	61	0	859832320	57	6048
2026-01-24 10:05:27.56	346.28	44.06	-42.4	-46.4	11.9	2.77e-04	0	61	0	861929472	56	5677
2026-01-24 10:05:28.57	346.24	43.76	-42.5	-46.5	11.7	5.78e-04	0	61	0	864026624	56	5774
2026-01-24 10:05:29.58	346.20	43.47	-42.8	-47.1	11.1	4.34e-04	0	61	0	866123776	56	6202
2026-01-24 10:05:30.59	346.16	43.18	-43.1	-47.9	10.3	2.82e-03	0	61	0	867172352	56	6795
2026-01-24 10:05:31.60	346.13	42.89	-43.3	-48.7	9.5	1.13e-02	0	61	0	869269504	57	6976
2026-01-24 10:05:32.60	346.09	42.61	-43.6	-49.5	8.6	3.88e-02	0	62	0	871366656	57	7696
2026-01-24 10:05:33.61	346.06	42.33	-43.8	-50.2	8.0	3.30e-02	0	61	0	873463808	58	7829
2026-01-24 10:05:34.62	346.02	42.05	-44.2	-51.9	6.3	1.98e-01	0	61	0	875560960	58	9578
2026-01-24 10:05:35.63	345.99	41.77	-44.3	-52.6	5.8	3.47e-01	0	61	0	876609536	59	9748
2026-01-24 10:05:36.64	345.95	41.49	-44.2	-51.8	6.5	3.24e-01	0	61	0	878706688	59	8922
2026-01-24 10:05:37.65	345.92	41.22	-43.9	-50.6	7.5	1.26e-01	0	61	0	880803840	59	7794
2026-01-24 10:05:38.66	345.89	40.95	-43.5	-49.1	9.0	6.45e-02	0	61	0	882900992	59	6534
2026-01-24 10:05:39.67	345.86	40.68	-42.8	-47.3	10.9	1.66e-02	0	61	0	884998144	57	5974
2026-01-24 10:05:40.68	345.83	40.41	-42.4	-46.3	11.9	5.36e-04	0	61	0	886046720	56	5645
2026-01-24 10:05:41.69	345.80	40.14	-42.4	-46.3	12.0	4.92e-04	0	62	0	888143872	56	5643
2026-01-24 10:05:42.69	345.77	39.88	-42.2	-46.0	12.3	1.31e-04	0	62	0	890241024	56	5431
2026-01-24 10:05:43.70	345.74	39.62	-42.7	-47.1	11.2	5.77e-04	0	61	0	892338176	56	6155
2026-01-24 10:05:44.71	345.71	39.36	-43.5	-49.1	9.2	8.09e-03	0	61	0	894435328	57	7297
2026-01-24 10:05:45.72	345.68	39.10	-43.9	-50.6	7.7	7.78e-02	0	61	0	895483904	58	8188
2026-01-24 10:05:46.73	345.66	38.84	-43.8	-50.1	7.9	9.33e-02	0	61	0	897581056	58	7773
2026-01-24 10:05:47.74	345.63	38.59	-43.8	-50.1	8.1	7.97e-02	0	61	0	899678208	58	7778
2026-01-24 10:05:48.75	345.60	38.33	-43.8	-50.2	7.8	5.89e-02	0	61	0	901775360	58	7823
2026-01-24 10:05:49.76	345.58	38.08	-43.6	-49.7	8.5	4.98e-02	0	61	0	903872512	58	7375
2026-01-24 10:05:50.76	345.55	37.84	-43.7	-49.8	8.3	4.80e-02	0	61	0	904921088	58	7478
2026-01-24 10:05:51.77	345.53	37.59	-43.7	-50.0	8.0	3.79e-02	0	61	0	907018240	58	7708
2026-01-24 10:05:52.79	345.50	37.34	-43.3	-48.7	9.3	3.83e-02	0	61	0	909115392	58	6642
2026-01-24 10:05:53.80	345.48	37.10	-43.3	-48.7	9.5	1.53e-02	0	61	0	911212544	58	6604
2026-01-24 10:05:54.81	345.46	36.86	-43.3	-48.6	9.4	1.80e-02	0	61	0	913309696	58	6561
2026-01-24 10:05:55.82	345.43	36.62	-43.1	-48.0	10.1	8.66e-03	0	61	0	914358272	58	6082
2026-01-24 10:05:56.83	345.41	36.38	-42.8	-47.3	10.6	3.97e-03	0	61	0	916455424	57	5972
2026-01-24 10:05:57.84	345.39	36.14	-42.9	-47.4	10.7	2.82e-03	0	62	0	918552576	57	6016
2026-01-24 10:05:58.85	345.36	35.91	-43.0	-47.7	10.4	2.77e-03	0	62	0	920649728	57	6265
2026-01-24 10:05:59.86	345.34	35.67	-42.7	-47.2	11.0	5.30e-03	0	62	0	922746880	57	5857
2026-01-24 10:06:00.86	345.32	35.44	-43.2	-48.2	9.9	5.27e-03	0	61	0	924844032	57	6608
2026-01-24 10:06:01.87	345.30	35.21	-43.3	-48.5	9.6	1.09e-02	0	61	0	925892608	57	6871
2026-01-24 10:06:02.88	345.28	34.99	-43.4	-48.8	9.2	1.54e-02	0	61	0	927989760	57	7098
2026-01-24 10:06:03.89	345.26	34.76	-43.8	-50.4	7.7	6.30e-02	0	62	0	930086912	58	8017
2026-01-24 10:06:04.90	345.24	34.54	-44.2	-51.9	6.2	1.63e-01	0	62	0	932184064	58	9503
2026-01-24 10:06:05.91	345.22	34.31	-44.4	-53.3	5.4	3.57e-01	0	61	0	934281216	59	10631
2026-01-24 10:06:06.92	345.20	34.09	-44.4	-53.4	5.2	5.44e-01	0	62	0	935329792	59	10753
2026-01-24 10:06:07.93	345.18	33.87	-44.4	-53.2	5.4	6.08e-01	0	61	0	937426944	59	10497
2026-01-24 10:06:08.94	345.16	33.65	-44.1	-51.5	6.6	4.07e-01	0	61	0	939524096	59	8586
2026-01-24 10:06:09.95	345.14	33.44	-44.7	-56.8	4.0	1.72e-01	0	61	0	940572672	60	15034
2026-01-24 10:06:10.96	345.12	33.22	-44.5	-53.7	5.3	1.58e-01	0	61	0	940572672	59	11031
2026-01-24 10:06:11.97	345.11	33.01	-44.6	-54.4	4.8	6.30e-02	0	62	0	942669824	59	12091
2026-01-24 10:06:12.98	345.09	32.79	-44.6	-54.7	4.6	4.27e-01	0	61	0	944766976	59	12397
2026-01-24 10:06:13.99	345.07	32.58	-44.3	-52.4	6.2	2.10e-02	0	61	0	946864128	59	9568
2026-01-24 10:06:15.00	345.05	32.37	-43.3	-48.8	9.3	1.45e-01	0	61	0	947912704	58	6656
2026-01-24 10:06:16.01	345.04	32.17	-43.3	-48.8	9.3	2.07e-02	0	62	0	950009856	58	6656
2026-01-24 10:06:17.02	345.02	31.96	-43.3	-48.8	9.2	2.35e-02	0	61	0	952107008	58	6711
2026-01-24 10:06:18.03	345.00	31.75	-43.3	-48.8	9.2	2.10e-02	0	61	0	954204160	58	6653
2026-01-24 10:06:19.03	344.99	31.55	-43.2	-48.5	9.5	1.32e-02	0	61	0	956301312	58	6462
2026-01-24 10:06:20.04	344.97	31.35	-43.0	-48.0	10.0	1.09e-02	0	61	0	957349888	58	6099
2026-01-24 10:06:21.05	344.96	31.15	-42.9	-47.6	10.4	5.31e-03	0	62	0	959447040	57	6177
2026-01-24 10:06:22.06	344.94	30.95	-42.9	-47.6	10.4	3.12e-03	0	61	0	961544192	57	6186
2026-01-24 10:06:23.07	344.93	30.75	-42.9	-47.6	10.4	3.80e-03	0	62	0	963641344	57	6157
2026-01-24 10:06:24.08	344.91	30.56	-42.9	-47.6	10.6	3.64e-03	0	61	0	965738496	57	6145
2026-01-24 10:06:25.09	344.90	30.36	-43.0	-48.0	10.0	5.82e-03	0	62	0	967835648	57	6481
2026-01-24 10:06:26.10	344.88	30.17	-43.2	-48.7	9.3	1.17e-02	0	62	0	968884224	57	6960
2026-01-24 10:06:27.11	344.87	29.97	-43.3	-49.0	8.9	2.76e-02	0	61	0	970981376	57	7250
2026-01-24 10:06:28.12	344.85	29.78	-43.4	-49.3	8.6	3.08e-02	0	62	0	973078528	57	7499
2026-01-24 10:06:29.13	344.84	29.59	-43.4	-49.4	8.5	4.26e-02	0	61	0	975175680	57	7628
2026-01-24 10:06:30.14	344.83	29.40	-43.5	-49.5	8.4	4.14e-02	0	62	0	977272832	57	7678
2026-01-24 10:06:31.15	344.81	29.21	-43.4	-49.2	8.7	4.25e-02	0	61	0	978321408	57	7431
2026-01-24 10:06:32.16	344.80	29.03	-43.3	-49.2	8.6	4.23e-02	0	62	0	980418560	57	7406
2026-01-24 10:06:33.17	344.79	28.84	-43.2	-48.8	9.1	2.69e-02	0	62	0	982515712	57	7058
2026-01-24 10:06:34.18	344.77	28.66	-42.9	-48.0	9.6	1.85e-02	0	62	0	984612864	57	6444
2026-01-24 10:06:35.19	344.76	28.48	-42.9	-48.0	9.9	1.12e-02	0	61	0	986710016	57	6473
2026-01-24 10:06:36.20	344.75	28.29	-42.7	-47.4	10.4	5.04e-03	0	61	0	987758592	57	6052
2026-01-24 10:06:37.21	344.74	28.11	-42.6	-47.3	10.6	3.96e-03	0	61	0	989855744	57	5962
2026-01-24 10:06:38.22	344.72	27.93	-42.4	-46.8	11.1	2.25e-03	0	61	0	991952896	56	5992
2026-01-24 10:06:39.23	344.71	27.76	-42.2	-46.2	11.7	5.90e-04	0	62	0	994050048	56	5564
2026-01-24 10:06:40.24	344.70	27.58	-42.0	-45.8	12.1	3.85e-04	0	62	0	996147200	56	5324
2026-01-24 10:06:41.25	344.69	27.40	-41.7	-45.5	12.3	2.26e-04	0	62	0	997195776	55	5416
2026-01-24 10:06:42.26	344.68	27.23	-41.7	-45.4	12.4	1.46e-04	0	62	0	999292928	55	5386
2026-01-24 10:06:43.27	344.67	27.06	-41.7	-45.5	12.3	1.50e-04	0	61	0	1001390080	55	5403
2026-01-24 10:06:44.28	344.66	26.88	-41.7	-45.5	12.3	1.73e-04	0	61	0	1003487232	55	5436
2026-01-24 10:06:45.29	344.64	26.71	-41.7	-45.5	12.3	2.08e-04	0	61	0	1005584384	55	5414
2026-01-24 10:06:46.30	344.63	26.54	-41.8	-45.7	12.0	1.74e-04	0	62	0	1006632960	55	5537
2026-01-24 10:06:47.31	344.62	26.37	-41.8	-45.7	12.0	3.42e-04	0	61	0	1008730112	55	5556
2026-01-24 10:06:48.32	344.61	26.20	-41.9	-45.9	11.7	4.41e-04	0	61	0	1010827264	55	5687
2026-01-24 10:06:49.33	344.60	26.04	-42.0	-46.4	11.2	6.99e-04	0	61	0	1012924416	55	6003
2026-01-24 10:06:50.34	344.59	25.87	-41.9	-46.0	11.6	8.86e-04	0	62	0	1015021568	55	5764
2026-01-24 10:06:51.35	344.58	25.71	-41.9	-46.1	11.4	1.32e-03	0	61	0	1016070144	55	5812
2026-01-24 10:06:52.36	344.57	25.54	-42.1	-46.6	10.9	2.84e-03	0	61	0	1018167296	55	6197
2026-01-24 10:06:53.37	344.56	25.38	-42.1	-46.6	10.8	3.32e-03	0	62	0	1020264448	55	6157
2026-01-24 10:06:54.38	344.55	25.22	-42.2	-46.9	10.5	3.29e-03	0	61	0	1022361600	55	6395
2026-01-24 10:06:55.39	344.54	25.06	-42.2	-47.0	10.4	4.60e-03	0	62	0	1024458752	55	6476
2026-01-24 10:06:56.40	344.53	24.90	-42.1	-46.6	10.7	4.01e-03	0	62	0	1025507328	55	6192
2026-01-24 10:06:57.41	344.53	24.74	-42.0	-46.6	10.7	2.21e-03	0	62	0	1027604480	55	6170
2026-01-24 10:06:58.42	344.52	24.58	-41.9	-46.5	10.8	1.86e-03	0	61	0	1029701632	55	6090
2026-01-24 10:06:59.42	344.51	24.42	-41.7	-46.0	11.4	1.41e-03	0	62	0	1031798784	55	5731
2026-01-24 10:07:00.43	344.50	24.27	-41.7	-45.9	11.3	9.96e-04	0	62	0	1033895936	55	5696
2026-01-24 10:07:01.44	344.49	24.11	-41.5	-45.6	11.6	9.56e-04	0	62	0	1034944512	55	5523
2026-01-24 10:07:02.45	344.48	23.96	-41.4	-45.4	11.8	4.72e-04	0	62	0	1037041664	54	5680
2026-01-24 10:07:03.46	344.47	23.80	-41.3	-45.2	12.0	4.23e-04	0	62	0	1039138816	54	5568
2026-01-24 10:07:04.47	344.46	23.65	-41.2	-45.1	12.0	3.21e-04	0	62	0	1041235968	54	5527
2026-01-24 10:07:05.48	344.46	23.50	-41.3	-45.3	11.8	3.29e-04	0	62	0	1043333120	54	5625
2026-01-24 10:07:06.49	344.45	23.35	-41.2	-45.2	11.7	6.45e-04	0	61	0	1045430272	54	5590
2026-01-24 10:07:07.50	344.44	23.20	-40.9	-44.7	12.2	4.14e-04	0	61	0	1046478848	53	5555
2026-01-24 10:07:08.51	344.43	23.05	-40.8	-44.7	12.0	2.39e-04	0	61	0	1048576000	53	5568
2026-01-24 10:07:09.52	344.43	22.90	-41.1	-45.5	11.1	9.88e-04	0	62	0	1050673152	53	6070
2026-01-24 10:07:10.53	344.42	22.75	-41.0	-45.5	10.8	2.90e-03	0	62	0	1052770304	53	6106
2026-01-24 10:07:11.54	344.41	22.61	-40.6	-44.7	11.4	1.58e-03	0	62	0	1054867456	53	5588
2026-01-24 10:07:12.55	344.40	22.46	-40.3	-44.1	12.0	3.46e-04	0	61	0	1055916032	52	5504
2026-01-24 10:07:13.55	344.40	22.32	-40.2	-44.0	12.0	4.04e-04	0	61	0	1058013184	52	5464
2026-01-24 10:07:14.57	344.39	22.17	-40.1	-43.8	12.3	2.79e-04	0	62	0	1060110336	51	5604
2026-01-24 10:07:15.58	344.38	22.03	-39.9	-43.5	12.5	1.35e-04	0	61	0	1062207488	51	5446
2026-01-24 10:07:16.59	344.37	21.89	-39.9	-43.6	12.4	1.23e-04	0	61	0	1064304640	51	5488
2026-01-24 10:07:17.60	344.37	21.75	-39.8	-43.5	12.4	9.00e-05	0	62	0	1065353216	51	5463
2026-01-24 10:07:18.61	344.36	21.61	-40.0	-44.1	11.8	3.33e-04	0	62	0	1067450368	51	5790
2026-01-24 10:07:19.62	344.35	21.47	-40.3	-44.8	10.9	1.33e-03	0	62	0	1069547520	51	6303
2026-01-24 10:07:20.63	344.35	21.33	-40.6	-45.9	9.6	4.81e-03	0	62	0	1071644672	51	7159
2026-01-24 10:07:21.64	344.34	21.19	-41.0	-47.5	7.7	5.70e-02	0	62	0	1073741824	52	8140
2026-01-24 10:07:22.65	344.33	21.05	-41.2	-49.0	6.2	1.90e-01	0	62	0	1074790400	52	9649
2026-01-24 10:07:23.66	344.33	20.91	-41.3	-50.6	5.0	4.66e-01	0	61	0	1076887552	53	11003
2026-01-24 10:07:24.67	344.32	20.78	-41.3	-52.5	4.2	1.31e+00	0	62	0	1078984704	53	13639
2026-01-24 10:07:25.68	344.32	20.64	-41.3	-53.5	4.0	1.47e+00	0	62	104	1078984704	53	15302
2026-01-24 10:07:26.69	344.31	20.51	-41.2	-54.5	3.8	1.49e+00	0	62	104	1078984704	53	17144
2026-01-24 10:07:27.70	344.30	20.37	-41.1	-55.2	3.8	1.49e+00	0	62	104	1078984704	53	18703
2026-01-24 10:07:28.70	344.30	20.24	-41.2	-55.6	3.8	1.49e+00	0	62	104	1078984704	53	19566
2026-01-24 10:07:29.72	344.29	20.11	-41.1	-55.7	3.8	1.49e+00	0	62	104	1078984704	53	19667
2026-01-24 10:07:30.73	344.29	19.98	-40.8	-55.2	3.8	1.49e+00	0	62	104	1078984704	53	18708
2026-01-24 10:07:31.74	344.28	19.84	-41.2	-55.5	3.8	1.49e+00	0	62	104	1078984704	53	19351
2026-01-24 10:07:32.75	344.28	19.71	-41.1	-55.7	3.8	1.49e+00	0	62	104	1078984704	53	19707
2026-01-24 10:07:33.76	344.27	19.58	-41.0	-55.5	3.8	1.49e+00	0	62	104	1078984704	53	19379
2026-01-24 10:07:34.77	344.26	19.45	-40.7	-55.1	3.8	1.49e+00	0	62	104	1078984704	53	18497
2026-01-24 10:07:35.77	344.26	19.33	-41.1	-55.6	3.8	1.49e+00	0	61	104	1078984704	53	19542
2026-01-24 10:07:36.78	344.25	19.20	-41.0	-55.5	3.8	1.49e+00	0	62	104	1078984704	53	19218
2026-01-24 10:07:37.80	344.25	19.07	-40.8	-55.3	3.8	1.49e+00	0	62	104	1078984704	53	18899
2026-01-24 10:07:38.80	344.24	18.95	-40.8	-55.2	3.8	1.49e+00	0	62	104	1078984704	53	18723
2026-01-24 10:07:39.81	344.24	18.82	-41.0	-55.5	3.8	1.49e+00	0	62	104	1078984704	53	19263
2026-01-24 10:07:40.82	344.23	18.70	-40.7	-55.2	3.8	1.49e+00	0	61	104	1078984704	53	18668
2026-01-24 10:07:41.83	344.23	18.57	-40.7	-55.2	3.8	1.49e+00	0	61	104	1078984704	53	18714
2026-01-24 10:07:42.84	344.22	18.45	-40.9	-55.4	3.8	1.49e+00	0	62	104	1078984704	53	18987
2026-01-24 10:07:43.85	344.22	18.32	-40.7	-55.2	3.8	1.49e+00	0	61	104	1078984704	53	18705
2026-01-24 10:07:44.86	344.22	18.20	-40.6	-55.1	3.8	1.49e+00	0	61	104	1078984704	53	18497
2026-01-24 10:07:45.87	344.21	18.08	-40.8	-55.3	3.8	1.49e+00	0	62	104	1078984704	53	18902
2026-01-24 10:07:46.88	344.21	17.96	-40.8	-55.2	3.8	1.49e+00	0	62	104	1078984704	53	18730
2026-01-24 10:07:47.89	344.20	17.84	-40.6	-55.1	3.8	1.49e+00	0	61	104	1078984704	53	18495
2026-01-24 10:07:48.90	344.20	17.72	-40.7	-55.1	3.8	1.49e+00	0	62	104	1078984704	53	18513
2026-01-24 10:07:49.91	344.19	17.60	-40.9	-55.4	3.8	1.49e+00	0	62	104	1078984704	53	19037
2026-01-24 10:07:50.92	344.19	17.48	-40.6	-55.1	3.8	1.49e+00	0	62	104	1078984704	53	18442
2026-01-24 10:07:51.93	344.18	17.36	-40.7	-55.2	3.8	1.49e+00	0	62	104	1078984704	53	18595
2026-01-24 10:07:52.94	344.18	17.24	-40.7	-55.2	3.8	1.49e+00	0	62	104	1078984704	53	18578
2026-01-24 10:07:53.95	344.18	17.12	-40.9	-55.4	3.8	1.49e+00	0	62	104	1078984704	53	19096
2026-01-24 10:07:54.96	344.17	17.01	-40.7	-55.2	3.8	1.49e+00	0	62	104	1078984704	53	18575
2026-01-24 10:07:55.97	344.17	16.89	-40.8	-55.3	3.8	1.49e+00	0	62	104	1078984704	53	18781
2026-01-24 10:07:56.98	344.16	16.77	-40.6	-55.1	3.8	1.49e+00	0	62	104	1078984704	53	18383
2026-01-24 10:07:57.99	344.16	16.66	-40.7	-55.2	3.8	1.49e+00	0	62	104	1078984704	53	18727
2026-01-24 10:07:59.00	344.16	16.54	-40.8	-55.4	3.8	1.49e+00	0	62	104	1078984704	53	18950
2026-01-24 10:08:00.00	344.15	16.43	-40.8	-55.3	3.8	1.49e+00	0	62	104	1078984704	53	18902
2026-01-24 10:08:01.01	344.15	16.32	-40.6	-55.1	3.8	1.49e+00	0	62	104	1078984704	53	18350
2026-01-24 10:08:02.02	344.15	16.20	-40.7	-55.2	3.8	1.49e+00	0	62	104	1078984704	53	18667
2026-01-24 10:08:03.03	344.14	16.09	-40.8	-55.3	3.8	1.49e+00	0	62	104	1078984704	53	18748
2026-01-24 10:08:04.04	344.14	15.98	-40.7	-55.2	3.8	1.49e+00	0	62	104	1078984704	53	18582
2026-01-24 10:08:05.05	344.14	15.87	-40.6	-55.1	3.8	1.49e+00	0	62	104	1078984704	53	18466
2026-01-24 10:08:06.06	344.13	15.76	-40.9	-55.4	3.8	1.49e+00	0	61	104	1078984704	53	19117
2026-01-24 10:08:07.07	344.13	15.65	-40.6	-55.1	3.8	1.49e+00	0	62	104	1078984704	53	18466
