passes_logs/2026/01/24/R2.0S_Moscow/R2.0S_Moscow__20260124_183011_FENGYUN_3G_rec.log

#Pass ID: 20260124_183011_FENGYUN 3G
#Satellite: FENGYUN 3G
#Configuration: FENGYUN 3G
#almurnet v.1.7.20251203
#Start time: 2026-01-24 18:30:11

#Version: 2.2.20231116
#Station: R2.0S_Moscow
#Location: 37.707566 lon 55.798166 lat
#TLE: 1 56232U 23055A   26024.24521059  .00049620  00000+0  74824-3 0  9993
#TLE: 2 56232  49.9947   8.2107 0004117  75.2128 284.9296 15.54221826157636

#Time	Az	El	Level	Level2	SNR	BER	BlckErr	Temp	State	Recorded	gain1	gain2
2026-01-24 18:30:11.55	236.69	2.02	-44.1	-62.2	3.8	8.47e-01	0	51	0	0	60	27993
2026-01-24 18:30:12.55	236.62	2.09	-44.1	-62.2	3.8	8.44e-01	0	52	104	0	60	27865
2026-01-24 18:30:13.56	236.55	2.15	-44.1	-62.2	3.8	8.46e-01	0	52	104	0	60	27761
2026-01-24 18:30:14.58	236.48	2.22	-44.1	-62.2	3.8	8.45e-01	0	52	104	0	60	27737
2026-01-24 18:30:15.59	236.40	2.28	-44.1	-62.2	3.8	8.45e-01	0	52	104	0	60	27767
2026-01-24 18:30:16.60	236.33	2.35	-44.1	-62.2	3.8	8.46e-01	0	52	104	0	60	27913
2026-01-24 18:30:17.61	236.26	2.42	-44.1	-62.2	3.8	8.47e-01	0	52	104	0	60	27812
2026-01-24 18:30:18.62	236.18	2.48	-44.1	-62.2	3.8	8.47e-01	0	52	104	0	60	27771
2026-01-24 18:30:19.63	236.11	2.55	-44.1	-62.2	3.8	8.46e-01	0	52	104	0	60	27931
2026-01-24 18:30:20.64	236.03	2.61	-44.1	-62.3	3.8	8.46e-01	0	52	104	0	60	28037
2026-01-24 18:30:21.65	235.95	2.68	-44.1	-62.3	3.8	8.46e-01	0	52	104	0	60	28059
2026-01-24 18:30:22.66	235.88	2.75	-44.1	-62.2	3.8	8.46e-01	0	52	104	0	60	27994
2026-01-24 18:30:23.67	235.80	2.82	-44.1	-62.2	3.8	8.47e-01	0	52	104	0	60	27816
2026-01-24 18:30:24.68	235.72	2.88	-44.1	-62.2	3.8	8.47e-01	0	52	104	0	60	27862
2026-01-24 18:30:25.69	235.64	2.95	-44.1	-62.2	3.8	8.46e-01	0	53	104	0	60	27757
2026-01-24 18:30:26.70	235.56	3.02	-44.1	-62.1	3.8	8.46e-01	0	53	104	0	60	27568
2026-01-24 18:30:27.71	235.48	3.09	-44.1	-62.1	3.8	8.46e-01	0	53	104	0	60	27532
2026-01-24 18:30:28.72	235.40	3.16	-44.1	-62.1	3.8	8.46e-01	0	53	104	0	60	27533
2026-01-24 18:30:29.73	235.32	3.23	-44.1	-62.1	3.8	8.46e-01	0	53	104	0	60	27474
2026-01-24 18:30:30.74	235.24	3.29	-44.1	-62.0	3.8	8.47e-01	0	53	104	0	60	27288
2026-01-24 18:30:31.75	235.16	3.36	-44.1	-62.0	3.8	8.47e-01	0	53	104	0	60	27317
2026-01-24 18:30:32.76	235.08	3.43	-44.1	-62.1	3.8	8.46e-01	0	53	104	0	60	27564
2026-01-24 18:30:33.78	235.00	3.50	-44.1	-62.2	3.8	8.47e-01	0	53	104	0	60	27859
2026-01-24 18:30:34.79	234.91	3.57	-44.1	-62.2	3.8	8.47e-01	0	53	104	0	60	27872
2026-01-24 18:30:35.80	234.83	3.64	-44.1	-62.2	3.8	8.46e-01	0	53	104	0	60	27945
2026-01-24 18:30:36.81	234.74	3.71	-44.1	-62.2	3.8	8.48e-01	0	53	104	0	60	27984
2026-01-24 18:30:37.82	234.66	3.78	-44.1	-62.2	3.8	8.46e-01	0	53	104	0	60	28012
2026-01-24 18:30:38.83	234.57	3.85	-44.1	-62.2	3.8	8.46e-01	0	53	104	0	60	27972
2026-01-24 18:30:39.84	234.49	3.93	-44.1	-62.1	3.8	8.45e-01	0	53	104	0	60	27699
2026-01-24 18:30:40.85	234.40	4.00	-44.1	-62.2	3.8	8.45e-01	0	54	104	0	60	27777
2026-01-24 18:30:41.86	234.31	4.07	-44.1	-62.2	3.8	8.45e-01	0	53	104	0	60	27715
2026-01-24 18:30:42.87	234.22	4.14	-44.1	-62.2	3.8	8.45e-01	0	54	104	0	60	27883
2026-01-24 18:30:43.88	234.13	4.21	-44.1	-62.2	3.8	8.46e-01	0	53	104	0	60	27963
2026-01-24 18:30:44.89	234.04	4.28	-44.1	-62.2	3.8	8.46e-01	0	54	104	0	60	27782
2026-01-24 18:30:45.90	233.95	4.36	-44.1	-62.2	3.8	8.45e-01	0	54	104	0	60	27877
2026-01-24 18:30:46.91	233.86	4.43	-44.1	-62.1	3.8	8.47e-01	0	54	104	0	60	27610
2026-01-24 18:30:47.93	233.77	4.50	-44.1	-62.0	3.8	8.47e-01	0	54	104	0	60	27280
2026-01-24 18:30:48.94	233.68	4.58	-44.1	-61.8	3.8	8.46e-01	0	54	104	0	60	26589
2026-01-24 18:30:49.95	233.58	4.65	-44.1	-61.4	3.8	8.46e-01	0	54	104	0	60	25548
2026-01-24 18:30:50.96	233.49	4.72	-44.1	-61.1	3.8	8.47e-01	0	54	104	0	60	24465
2026-01-24 18:30:51.97	233.40	4.80	-44.1	-61.1	3.8	8.47e-01	0	54	104	0	60	24576
2026-01-24 18:30:52.98	233.30	4.87	-44.1	-61.1	3.8	8.45e-01	0	54	104	0	60	24445
2026-01-24 18:30:53.99	233.21	4.95	-44.1	-61.2	3.8	8.46e-01	0	54	104	0	60	24976
2026-01-24 18:30:55.00	233.11	5.02	-44.1	-61.3	3.8	8.46e-01	0	54	104	0	60	25168
2026-01-24 18:30:56.01	233.01	5.10	-44.1	-61.5	3.8	8.47e-01	0	54	104	0	60	25812
2026-01-24 18:30:57.02	232.91	5.17	-44.1	-61.7	3.8	8.46e-01	0	55	104	0	60	26372
2026-01-24 18:30:58.03	232.82	5.25	-44.1	-61.9	3.8	8.46e-01	0	55	104	0	60	26943
2026-01-24 18:30:59.04	232.72	5.32	-44.1	-61.6	3.8	8.45e-01	0	54	104	0	60	26086
2026-01-24 18:31:00.04	232.62	5.40	-44.1	-61.2	3.8	8.47e-01	0	55	104	0	60	24730
2026-01-24 18:31:01.02	232.52	5.47	-44.1	-60.6	3.8	8.47e-01	0	55	104	0	60	23203
2026-01-24 18:31:02.03	232.42	5.55	-44.0	-59.8	3.9	8.46e-01	0	55	104	0	60	21157
2026-01-24 18:31:03.04	232.32	5.62	-44.1	-59.5	4.0	8.45e-01	0	55	0	0	59	21529
2026-01-24 18:31:04.06	232.21	5.70	-44.1	-58.9	4.1	8.42e-01	0	55	0	0	59	20204
2026-01-24 18:31:05.07	232.11	5.78	-44.1	-58.7	4.2	8.42e-01	0	55	0	0	59	19763
2026-01-24 18:31:06.08	232.00	5.86	-44.1	-58.4	4.3	8.38e-01	0	55	0	0	59	19014
2026-01-24 18:31:07.09	231.90	5.94	-44.1	-58.3	4.3	8.33e-01	0	55	0	0	59	18925
2026-01-24 18:31:08.10	231.79	6.01	-44.1	-58.2	4.3	8.33e-01	0	55	0	0	59	18616
2026-01-24 18:31:09.11	231.68	6.09	-44.0	-58.1	4.3	8.31e-01	0	55	0	0	59	18428
2026-01-24 18:31:10.12	231.58	6.17	-44.1	-58.1	4.4	8.29e-01	0	55	0	0	59	18463
2026-01-24 18:31:11.13	231.47	6.25	-44.0	-57.7	4.5	8.29e-01	0	55	0	0	59	17556
2026-01-24 18:31:12.14	231.36	6.33	-44.0	-57.1	4.7	8.26e-01	0	55	0	0	59	16485
2026-01-24 18:31:13.15	231.25	6.41	-43.9	-56.1	5.3	7.97e-01	0	55	0	0	59	14696
2026-01-24 18:31:14.16	231.14	6.49	-43.8	-55.0	6.1	7.97e-01	0	55	0	524288	59	12872
2026-01-24 18:31:15.17	231.02	6.57	-43.7	-53.6	7.3	5.73e-01	0	55	0	1572864	59	10981
2026-01-24 18:31:16.18	230.91	6.65	-43.5	-52.5	8.4	1.75e-01	0	56	0	2621440	59	9622
2026-01-24 18:31:17.19	230.80	6.73	-43.3	-51.2	9.7	3.97e-02	0	55	0	3670016	58	8861
2026-01-24 18:31:18.20	230.68	6.81	-43.2	-50.6	10.4	3.97e-02	0	56	0	4718592	58	8270
2026-01-24 18:31:19.21	230.57	6.89	-43.1	-50.4	10.6	8.22e-03	0	56	0	6291456	58	8065
2026-01-24 18:31:20.22	230.45	6.98	-43.2	-50.7	10.3	4.49e-03	0	56	0	7340032	58	8331
2026-01-24 18:31:21.24	230.33	7.06	-43.4	-51.5	9.6	4.49e-03	0	56	0	8388608	58	9071
2026-01-24 18:31:22.25	230.21	7.14	-43.6	-52.8	8.2	1.23e-02	0	56	0	9437184	58	10611
2026-01-24 18:31:23.26	230.09	7.22	-43.9	-55.4	5.9	9.37e-02	0	56	0	10485760	58	14226
2026-01-24 18:31:24.27	229.97	7.31	-44.1	-59.2	4.1	9.37e-02	0	56	0	11010048	58	22028
2026-01-24 18:31:25.28	229.85	7.39	-44.1	-60.3	3.8	6.73e-01	0	56	104	11010048	58	25215
2026-01-24 18:31:26.29	229.73	7.47	-43.9	-56.0	5.3	8.43e-01	0	56	0	11010048	58	15237
2026-01-24 18:31:27.30	229.60	7.56	-43.5	-52.1	8.7	8.43e-01	0	56	0	12058624	58	9799
2026-01-24 18:31:28.31	229.48	7.64	-42.9	-49.6	11.3	3.54e-01	0	56	0	13107200	57	7751
2026-01-24 18:31:29.32	229.35	7.73	-42.3	-47.9	13.2	5.92e-03	0	56	0	14155776	56	6733
2026-01-24 18:31:30.33	229.23	7.81	-41.7	-46.4	14.5	4.11e-05	0	56	0	15204352	55	6054
2026-01-24 18:31:31.34	229.10	7.90	-41.4	-45.7	15.3	4.11e-05	0	56	0	16252928	54	5875
2026-01-24 18:31:32.35	228.97	7.98	-41.3	-45.6	15.4	0.00e+00	0	56	0	17301504	54	5848
2026-01-24 18:31:33.36	228.84	8.07	-41.4	-45.8	15.3	1.10e-06	0	56	0	18874368	54	5971
2026-01-24 18:31:34.37	228.71	8.16	-42.3	-47.9	13.2	1.10e-06	0	56	0	19922944	55	7184
2026-01-24 18:31:35.38	228.58	8.24	-41.3	-45.5	15.2	5.26e-05	0	56	0	20971520	54	5748
2026-01-24 18:31:36.39	228.44	8.33	-43.1	-50.5	9.5	5.82e-02	0	56	0	22020096	58	8152
2026-01-24 18:31:37.40	228.31	8.42	-40.9	-44.6	16.3	5.82e-02	0	56	0	23068672	53	5518
2026-01-24 18:31:38.41	228.17	8.51	-43.6	-53.4	6.1	2.76e-02	0	56	0	24117248	58	11352
2026-01-24 18:31:39.42	228.04	8.59	-40.8	-44.5	16.6	2.54e-01	0	56	0	25165824	53	5404
2026-01-24 18:31:40.43	227.90	8.68	-40.8	-44.5	16.6	2.54e-01	0	56	0	26214400	53	5438
2026-01-24 18:31:41.44	227.76	8.77	-40.8	-44.5	16.6	0.00e+00	0	56	0	27262976	53	5436
2026-01-24 18:31:42.45	227.62	8.86	-40.7	-44.4	16.7	0.00e+00	0	57	0	28311552	53	5401
2026-01-24 18:31:43.46	227.48	8.95	-40.8	-44.4	16.7	0.00e+00	0	57	0	29884416	53	5397
2026-01-24 18:31:44.46	227.34	9.04	-40.7	-44.3	16.8	0.00e+00	0	57	0	30932992	53	5326
2026-01-24 18:31:45.47	227.20	9.13	-40.7	-44.3	16.8	0.00e+00	0	56	0	31981568	53	5339
2026-01-24 18:31:46.48	227.05	9.22	-40.6	-44.1	17.0	0.00e+00	0	57	0	33030144	53	5208
2026-01-24 18:31:47.49	226.90	9.31	-40.5	-44.0	17.1	0.00e+00	0	57	0	34078720	53	5147
2026-01-24 18:31:48.50	226.76	9.40	-40.5	-44.0	17.2	0.00e+00	0	57	0	35127296	53	5140
2026-01-24 18:31:49.51	226.61	9.50	-40.5	-43.9	17.2	0.00e+00	0	57	0	36700160	53	5099
2026-01-24 18:31:50.52	226.46	9.59	-40.5	-43.9	17.3	0.00e+00	0	57	0	37748736	52	5376
2026-01-24 18:31:51.53	226.31	9.68	-40.6	-44.0	17.2	0.00e+00	0	57	0	38797312	52	5450
2026-01-24 18:31:52.54	226.15	9.77	-40.5	-43.9	17.3	0.00e+00	0	57	0	39845888	52	5393
2026-01-24 18:31:53.55	226.00	9.87	-40.5	-44.0	17.3	0.00e+00	0	57	0	40894464	52	5414
2026-01-24 18:31:54.56	225.85	9.96	-40.5	-44.0	17.3	0.00e+00	0	57	0	41943040	52	5416
2026-01-24 18:31:55.57	225.69	10.05	-40.5	-44.0	17.2	0.00e+00	0	57	0	43515904	52	5436
2026-01-24 18:31:56.58	225.53	10.15	-40.7	-44.3	17.0	0.00e+00	0	57	0	44564480	52	5610
2026-01-24 18:31:57.59	225.37	10.24	-40.6	-44.1	17.1	0.00e+00	0	57	0	45613056	52	5484
2026-01-24 18:31:58.60	225.21	10.34	-40.5	-44.0	17.3	0.00e+00	0	57	0	46661632	52	5414
2026-01-24 18:31:59.61	225.05	10.43	-40.6	-44.0	17.3	0.00e+00	0	57	0	47710208	52	5419
2026-01-24 18:32:00.62	224.89	10.53	-40.5	-43.9	17.4	0.00e+00	0	57	0	48758784	52	5358
2026-01-24 18:32:01.63	224.72	10.63	-40.5	-43.8	17.5	0.00e+00	0	57	0	50331648	52	5321
2026-01-24 18:32:02.63	224.56	10.72	-40.4	-43.7	17.6	0.00e+00	0	57	0	51380224	52	5232
2026-01-24 18:32:03.64	224.39	10.82	-40.3	-43.5	17.8	0.00e+00	0	57	0	52428800	52	5104
2026-01-24 18:32:04.65	224.22	10.92	-40.1	-43.3	18.0	0.00e+00	0	57	0	53477376	52	5011
2026-01-24 18:32:05.66	224.05	11.01	-40.2	-43.3	18.0	0.00e+00	0	57	0	54525952	52	5023
2026-01-24 18:32:06.67	223.87	11.11	-40.2	-43.4	17.9	0.00e+00	0	57	0	55574528	52	5082
2026-01-24 18:32:07.68	223.70	11.21	-40.2	-43.3	18.0	0.00e+00	0	57	0	57147392	52	5011
2026-01-24 18:32:08.69	223.52	11.31	-40.2	-43.3	18.0	0.00e+00	0	57	0	58195968	52	5016
2026-01-24 18:32:09.70	223.35	11.41	-40.1	-43.2	18.2	0.00e+00	0	57	0	59244544	52	4930
2026-01-24 18:32:10.71	223.17	11.51	-40.2	-43.3	18.1	0.00e+00	0	57	0	60293120	52	5017
2026-01-24 18:32:11.72	222.99	11.61	-40.2	-43.3	18.1	0.00e+00	0	57	0	61341696	52	5014
2026-01-24 18:32:12.73	222.80	11.71	-40.1	-43.2	18.2	0.00e+00	0	57	0	62390272	52	4961
2026-01-24 18:32:13.74	222.62	11.81	-40.0	-43.0	18.4	0.00e+00	0	57	0	63963136	52	4842
2026-01-24 18:32:14.75	222.43	11.91	-40.0	-43.0	18.5	0.00e+00	0	58	0	65011712	51	5121
2026-01-24 18:32:15.75	222.25	12.01	-40.0	-42.9	18.6	0.00e+00	0	57	0	66060288	51	5068
2026-01-24 18:32:16.76	222.06	12.12	-39.9	-42.8	18.6	0.00e+00	0	58	0	67108864	51	5025
2026-01-24 18:32:17.78	221.87	12.22	-39.8	-42.6	18.9	0.00e+00	0	57	0	68157440	51	4917
2026-01-24 18:32:18.79	221.67	12.32	-39.7	-42.5	19.0	0.00e+00	0	57	0	69206016	51	4846
2026-01-24 18:32:19.80	221.48	12.43	-39.7	-42.5	19.0	0.00e+00	0	57	0	70778880	51	4843
2026-01-24 18:32:20.81	221.28	12.53	-39.7	-42.5	19.0	0.00e+00	0	57	0	71827456	51	4845
2026-01-24 18:32:21.82	221.08	12.63	-39.8	-42.6	18.9	0.00e+00	0	58	0	72876032	51	4889
2026-01-24 18:32:22.83	220.88	12.74	-39.8	-42.6	18.9	0.00e+00	0	58	0	73924608	51	4926
2026-01-24 18:32:23.84	220.68	12.84	-39.7	-42.5	19.0	0.00e+00	0	58	0	74973184	51	4842
2026-01-24 18:32:24.85	220.48	12.95	-39.8	-42.6	18.9	0.00e+00	0	58	0	76021760	51	4910
2026-01-24 18:32:25.86	220.27	13.05	-39.8	-42.7	18.9	0.00e+00	0	58	0	77594624	51	4929
2026-01-24 18:32:26.87	220.07	13.16	-39.7	-42.5	19.0	0.00e+00	0	58	0	78643200	51	4836
2026-01-24 18:32:27.87	219.86	13.27	-39.7	-42.4	19.1	0.00e+00	0	58	0	79691776	51	4804
2026-01-24 18:32:28.88	219.65	13.37	-39.6	-42.3	19.3	0.00e+00	0	58	0	80740352	51	4727
2026-01-24 18:32:29.89	219.43	13.48	-39.7	-42.4	19.2	0.00e+00	0	58	0	81788928	51	4793
2026-01-24 18:32:30.90	219.22	13.59	-39.7	-42.4	19.2	0.00e+00	0	58	0	82837504	51	4788
2026-01-24 18:32:31.91	219.00	13.70	-39.7	-42.5	19.1	0.00e+00	0	58	0	84410368	51	4830
2026-01-24 18:32:32.92	218.78	13.80	-39.6	-42.2	19.3	0.00e+00	0	58	0	85458944	51	4695
2026-01-24 18:32:33.93	218.56	13.91	-39.4	-42.0	19.6	0.00e+00	0	58	0	86507520	50	4859
2026-01-24 18:32:34.94	218.33	14.02	-39.3	-41.9	19.6	0.00e+00	0	58	0	87556096	50	4797
2026-01-24 18:32:35.95	218.11	14.13	-39.3	-41.8	19.8	0.00e+00	0	58	0	88604672	50	4744
2026-01-24 18:32:36.96	217.88	14.24	-39.4	-42.0	19.6	0.00e+00	0	58	0	89653248	50	4860
2026-01-24 18:32:37.97	217.65	14.35	-39.5	-42.2	19.4	0.00e+00	0	58	0	91226112	50	4930
2026-01-24 18:32:38.98	217.41	14.46	-39.5	-42.1	19.5	0.00e+00	0	58	0	92274688	50	4901
2026-01-24 18:32:39.99	217.18	14.57	-39.5	-42.1	19.5	0.00e+00	0	58	0	93323264	50	4908
2026-01-24 18:32:41.00	216.94	14.68	-39.3	-41.9	19.7	0.00e+00	0	58	0	94371840	50	4775
2026-01-24 18:32:42.01	216.70	14.80	-39.2	-41.8	19.9	0.00e+00	0	58	0	95420416	50	4715
2026-01-24 18:32:43.01	216.46	14.91	-39.0	-41.4	20.2	0.00e+00	0	58	0	96468992	50	4527
2026-01-24 18:32:44.02	216.22	15.02	-38.8	-41.2	20.3	0.00e+00	0	58	0	98041856	49	4697
2026-01-24 18:32:45.03	215.97	15.13	-38.7	-41.0	20.6	0.00e+00	0	58	0	99090432	49	4598
2026-01-24 18:32:46.04	215.72	15.24	-38.8	-41.2	20.4	0.00e+00	0	58	0	100139008	49	4669
2026-01-24 18:32:47.05	215.47	15.36	-39.0	-41.4	20.2	0.00e+00	0	58	0	101187584	49	4805
2026-01-24 18:32:48.06	215.22	15.47	-39.1	-41.5	20.1	0.00e+00	0	58	0	102236160	49	4850
2026-01-24 18:32:49.07	214.96	15.59	-39.0	-41.5	20.2	0.00e+00	0	58	0	103284736	49	4817
2026-01-24 18:32:50.08	214.70	15.70	-39.0	-41.4	20.2	0.00e+00	0	58	0	104857600	49	4806
2026-01-24 18:32:51.09	214.44	15.81	-39.0	-41.4	20.3	0.00e+00	0	58	0	105906176	49	4783
2026-01-24 18:32:52.10	214.18	15.93	-39.0	-41.4	20.3	0.00e+00	0	58	0	106954752	49	4763
2026-01-24 18:32:53.11	213.91	16.04	-38.7	-41.1	20.6	0.00e+00	0	58	0	108003328	49	4608
2026-01-24 18:32:54.12	213.64	16.16	-38.6	-40.8	20.9	0.00e+00	0	58	0	109051904	49	4484
2026-01-24 18:32:55.13	213.37	16.27	-38.6	-40.9	20.8	0.00e+00	0	58	0	110100480	48	4761
2026-01-24 18:32:56.14	213.09	16.39	-38.6	-40.9	20.9	0.00e+00	0	58	0	111673344	48	4765
2026-01-24 18:32:57.15	212.82	16.51	-38.7	-41.0	20.7	0.00e+00	0	58	0	112721920	48	4866
2026-01-24 18:32:58.16	212.54	16.62	-38.6	-40.9	20.8	0.00e+00	0	58	0	113770496	48	4786
2026-01-24 18:32:59.17	212.26	16.74	-38.6	-40.9	20.8	0.00e+00	0	58	0	114819072	48	4790
2026-01-24 18:33:00.18	211.97	16.85	-38.7	-41.0	20.6	0.00e+00	0	58	0	115867648	48	4868
2026-01-24 18:33:01.18	211.68	16.97	-38.8	-41.1	20.6	0.00e+00	0	58	0	116916224	48	4886
2026-01-24 18:33:02.19	211.39	17.09	-38.8	-41.1	20.5	0.00e+00	0	58	0	118489088	48	4906
2026-01-24 18:33:03.20	211.10	17.20	-38.8	-41.2	20.5	0.00e+00	0	58	0	119537664	48	4946
2026-01-24 18:33:04.21	210.80	17.32	-38.6	-40.8	20.8	0.00e+00	0	58	0	120586240	48	4747
2026-01-24 18:33:05.22	210.50	17.44	-38.5	-40.8	20.9	0.00e+00	0	58	0	121634816	48	4732
2026-01-24 18:33:06.23	210.20	17.56	-38.5	-40.7	20.9	0.00e+00	0	58	0	122683392	48	4696
2026-01-24 18:33:07.24	209.90	17.67	-38.3	-40.5	21.1	0.00e+00	0	58	0	123731968	48	4582
2026-01-24 18:33:08.25	209.59	17.79	-38.1	-40.3	21.4	0.00e+00	0	58	0	125304832	48	4449
2026-01-24 18:33:09.26	209.28	17.91	-38.1	-40.2	21.5	0.00e+00	0	58	0	126353408	48	4418
2026-01-24 18:33:10.27	208.96	18.03	-38.2	-40.3	21.4	0.00e+00	0	58	0	127401984	48	4460
2026-01-24 18:33:11.28	208.64	18.15	-38.3	-40.4	21.3	0.00e+00	0	58	0	128450560	48	4535
2026-01-24 18:33:12.29	208.32	18.26	-38.4	-40.6	21.2	0.00e+00	0	58	0	129499136	48	4600
2026-01-24 18:33:13.30	208.00	18.38	-38.4	-40.6	21.1	0.00e+00	0	58	0	130547712	48	4621
2026-01-24 18:33:14.31	207.67	18.50	-38.5	-40.7	21.0	0.00e+00	0	58	0	132120576	48	4691
2026-01-24 18:33:15.32	207.34	18.62	-38.4	-40.6	21.1	0.00e+00	0	58	0	133169152	48	4635
2026-01-24 18:33:16.33	207.01	18.74	-38.5	-40.7	21.0	0.00e+00	0	58	0	134217728	48	4684
2026-01-24 18:33:17.33	206.68	18.85	-38.3	-40.4	21.3	0.00e+00	0	58	0	135266304	48	4530
2026-01-24 18:33:18.35	206.34	18.97	-38.3	-40.4	21.3	0.00e+00	0	58	0	136314880	48	4536
2026-01-24 18:33:19.36	205.99	19.09	-38.3	-40.5	21.2	0.00e+00	0	59	0	137363456	48	4547
2026-01-24 18:33:20.36	205.65	19.20	-38.0	-40.1	21.6	0.00e+00	0	58	0	138936320	48	4354
2026-01-24 18:33:21.37	205.30	19.32	-37.8	-39.9	21.8	0.00e+00	0	58	0	139984896	47	4518
2026-01-24 18:33:22.38	204.95	19.44	-37.9	-40.0	21.7	0.00e+00	0	59	0	141033472	47	4586
2026-01-24 18:33:23.40	204.59	19.56	-37.9	-40.0	21.7	0.00e+00	0	58	0	142082048	47	4578
2026-01-24 18:33:24.40	204.23	19.67	-38.0	-40.2	21.5	0.00e+00	0	59	0	143130624	47	4670
2026-01-24 18:33:25.41	203.87	19.79	-38.1	-40.3	21.4	0.00e+00	0	59	0	144179200	47	4712
2026-01-24 18:33:26.43	203.50	19.91	-38.2	-40.4	21.3	0.00e+00	0	59	0	145752064	47	4787
2026-01-24 18:33:27.44	203.13	20.02	-38.3	-40.5	21.1	0.00e+00	0	58	0	146800640	47	4856
2026-01-24 18:33:28.44	202.76	20.14	-38.2	-40.4	21.2	0.00e+00	0	58	0	147849216	47	4807
2026-01-24 18:33:29.45	202.39	20.25	-37.9	-40.0	21.6	0.00e+00	0	59	0	148897792	47	4582
2026-01-24 18:33:30.46	202.01	20.37	-37.6	-39.6	22.0	0.00e+00	0	59	0	149946368	47	4370
2026-01-24 18:33:31.47	201.63	20.48	-37.6	-39.6	22.1	0.00e+00	0	59	0	150994944	47	4360
2026-01-24 18:33:32.48	201.24	20.60	-37.4	-39.4	22.2	0.00e+00	0	59	0	152567808	46	4530
2026-01-24 18:33:33.49	200.85	20.71	-37.4	-39.4	22.2	0.00e+00	0	59	0	153616384	46	4534
2026-01-24 18:33:34.50	200.46	20.82	-37.4	-39.3	22.4	0.00e+00	0	59	0	154664960	46	4482
2026-01-24 18:33:35.51	200.06	20.94	-37.4	-39.4	22.3	0.00e+00	0	59	0	155713536	46	4533
2026-01-24 18:33:36.52	199.66	21.05	-37.6	-39.6	22.0	0.00e+00	0	59	0	156762112	46	4642
2026-01-24 18:33:37.53	199.26	21.16	-37.4	-39.4	22.3	0.00e+00	0	59	0	157810688	46	4495
2026-01-24 18:33:38.54	198.85	21.27	-37.5	-39.5	22.2	0.00e+00	0	59	0	159383552	46	4561
2026-01-24 18:33:39.55	198.44	21.38	-37.5	-39.4	22.2	0.00e+00	0	59	0	160432128	46	4545
2026-01-24 18:33:40.56	198.03	21.49	-37.5	-39.5	22.2	0.00e+00	0	59	0	161480704	46	4564
2026-01-24 18:33:41.57	197.61	21.60	-37.5	-39.5	22.2	0.00e+00	0	59	0	162529280	46	4579
2026-01-24 18:33:42.58	197.19	21.71	-37.5	-39.5	22.2	0.00e+00	0	59	0	163577856	46	4578
2026-01-24 18:33:43.59	196.76	21.81	-37.5	-39.5	22.2	0.00e+00	0	59	0	164626432	46	4590
2026-01-24 18:33:44.60	196.33	21.92	-37.4	-39.4	22.2	0.00e+00	0	59	0	166199296	46	4541
2026-01-24 18:33:45.61	195.90	22.02	-37.5	-39.5	22.2	0.00e+00	0	59	0	167247872	46	4588
2026-01-24 18:33:46.61	195.47	22.13	-37.7	-39.7	22.0	0.00e+00	0	59	0	168296448	46	4669
2026-01-24 18:33:47.62	195.03	22.23	-37.6	-39.6	22.0	0.00e+00	0	59	0	169345024	46	4635
2026-01-24 18:33:48.63	194.59	22.33	-37.6	-39.6	22.1	0.00e+00	0	59	0	170393600	46	4624
2026-01-24 18:33:49.64	194.15	22.44	-37.6	-39.7	22.1	0.00e+00	0	59	0	171442176	46	4652
2026-01-24 18:33:50.65	193.70	22.54	-37.4	-39.4	22.3	0.00e+00	0	59	0	173015040	46	4530
2026-01-24 18:33:51.66	193.25	22.64	-37.4	-39.3	22.3	0.00e+00	0	59	0	174063616	46	4475
2026-01-24 18:33:52.67	192.79	22.73	-37.2	-39.1	22.6	0.00e+00	0	59	0	175112192	46	4390
2026-01-24 18:33:53.68	192.33	22.83	-37.4	-39.3	22.4	0.00e+00	0	59	0	176160768	46	4484
2026-01-24 18:33:54.69	191.87	22.93	-37.3	-39.2	22.5	0.00e+00	0	59	0	177209344	46	4435
2026-01-24 18:33:55.70	191.40	23.02	-37.3	-39.3	22.5	0.00e+00	0	59	0	178257920	46	4451
2026-01-24 18:33:56.71	190.93	23.11	-37.3	-39.2	22.5	0.00e+00	0	59	0	179830784	46	4420
2026-01-24 18:33:57.72	190.46	23.21	-37.1	-39.0	22.7	0.00e+00	0	59	0	180879360	46	4310
2026-01-24 18:33:58.73	189.99	23.30	-37.0	-38.9	22.8	0.00e+00	0	59	0	181927936	46	4274
2026-01-24 18:33:59.74	189.51	23.39	-37.0	-38.9	22.8	0.00e+00	0	59	0	182976512	46	4260
2026-01-24 18:34:00.75	189.03	23.47	-37.1	-39.0	22.6	0.00e+00	0	59	0	184025088	46	4333
2026-01-24 18:34:01.76	188.54	23.56	-37.1	-39.0	22.7	0.00e+00	0	59	0	185073664	46	4312
2026-01-24 18:34:02.77	188.05	23.64	-37.3	-39.2	22.5	0.00e+00	0	59	0	186646528	46	4433
2026-01-24 18:34:03.77	187.57	23.73	-37.4	-39.3	22.4	0.00e+00	0	59	0	187695104	46	4475
2026-01-24 18:34:04.78	187.07	23.81	-37.3	-39.2	22.4	0.00e+00	0	59	0	188743680	46	4427
2026-01-24 18:34:05.79	186.57	23.89	-37.3	-39.2	22.5	0.00e+00	0	59	0	189792256	46	4440
2026-01-24 18:34:06.80	186.07	23.96	-37.1	-38.9	22.8	0.00e+00	0	59	0	190840832	46	4284
2026-01-24 18:34:07.81	185.57	24.04	-37.1	-38.9	22.7	0.00e+00	0	59	0	191889408	46	4285
2026-01-24 18:34:08.82	185.07	24.12	-37.1	-38.9	22.7	0.00e+00	0	59	0	193462272	46	4288
2026-01-24 18:34:09.83	184.56	24.19	-37.2	-39.1	22.6	0.00e+00	0	59	0	194510848	46	4359
2026-01-24 18:34:10.84	184.05	24.26	-37.3	-39.2	22.5	0.00e+00	0	59	0	195559424	46	4431
2026-01-24 18:34:11.85	183.53	24.33	-37.1	-39.0	22.7	0.00e+00	0	59	0	196608000	46	4339
2026-01-24 18:34:12.86	183.02	24.39	-37.2	-39.2	22.6	0.00e+00	0	59	0	197656576	46	4396
2026-01-24 18:34:13.87	182.50	24.46	-37.4	-39.3	22.5	0.00e+00	0	59	0	198705152	46	4472
2026-01-24 18:34:14.88	181.97	24.52	-37.5	-39.5	22.1	0.00e+00	0	59	0	200278016	46	4582
2026-01-24 18:34:15.89	181.45	24.58	-37.7	-39.7	22.1	0.00e+00	0	59	0	201326592	46	4695
2026-01-24 18:34:16.90	180.92	24.64	-37.7	-39.7	22.0	0.00e+00	0	59	0	202375168	46	4673
2026-01-24 18:34:17.91	180.40	24.70	-37.7	-39.7	22.1	0.00e+00	0	59	0	203423744	46	4670
2026-01-24 18:34:18.92	179.87	24.75	-37.5	-39.5	22.4	0.00e+00	0	59	0	204472320	46	4550
2026-01-24 18:34:19.93	179.33	24.80	-37.5	-39.5	22.2	0.00e+00	0	59	0	205520896	46	4560
2026-01-24 18:34:20.94	178.80	24.85	-37.5	-39.4	22.3	0.00e+00	0	59	0	207093760	46	4539
2026-01-24 18:34:21.95	178.26	24.90	-37.6	-39.6	22.2	0.00e+00	0	59	0	208142336	46	4602
2026-01-24 18:34:22.96	177.72	24.95	-37.6	-39.6	22.1	0.00e+00	0	59	0	209190912	46	4632
2026-01-24 18:34:23.97	177.18	24.99	-37.6	-39.6	22.2	0.00e+00	0	59	0	210239488	46	4606
2026-01-24 18:34:24.98	176.64	25.03	-37.5	-39.5	22.3	0.00e+00	0	59	0	211288064	46	4557
2026-01-24 18:34:25.99	176.10	25.07	-37.3	-39.2	22.6	0.00e+00	0	59	0	212336640	46	4414
2026-01-24 18:34:27.00	175.55	25.10	-37.1	-39.0	22.8	0.00e+00	0	59	0	213909504	46	4311
2026-01-24 18:34:28.01	175.01	25.14	-37.5	-39.4	22.7	0.00e+00	0	59	0	214958080	46	4520
2026-01-24 18:34:29.02	174.46	25.17	-37.3	-39.2	22.7	0.00e+00	0	59	0	216006656	46	4430
2026-01-24 18:34:30.03	173.91	25.19	-37.4	-39.2	22.7	0.00e+00	0	59	0	217055232	46	4440
2026-01-24 18:34:31.04	173.36	25.22	-36.8	-38.6	23.2	0.00e+00	0	59	0	218103808	45	4373
2026-01-24 18:34:32.05	172.81	25.24	-36.6	-38.4	23.4	0.00e+00	0	59	0	219152384	45	4263
2026-01-24 18:34:33.06	172.26	25.27	-36.5	-38.3	23.6	0.00e+00	0	59	0	220725248	45	4195
2026-01-24 18:34:34.07	171.71	25.28	-36.5	-38.3	23.5	0.00e+00	0	59	0	221773824	44	4473
2026-01-24 18:34:35.08	171.15	25.30	-36.4	-38.1	23.7	0.00e+00	0	59	0	222822400	44	4355
2026-01-24 18:34:36.09	170.60	25.31	-36.5	-38.2	23.6	0.00e+00	0	59	0	223870976	44	4425
2026-01-24 18:34:37.09	170.05	25.32	-36.6	-38.3	23.5	0.00e+00	0	59	0	224919552	44	4486
2026-01-24 18:34:38.10	169.50	25.33	-36.9	-38.7	23.2	0.00e+00	0	59	0	225968128	44	4659
2026-01-24 18:34:39.11	168.94	25.34	-36.8	-38.6	23.3	0.00e+00	0	59	0	227540992	44	4633
2026-01-24 18:34:40.12	168.39	25.34	-37.1	-39.0	23.0	0.00e+00	0	59	0	228589568	44	4836
2026-01-24 18:34:41.13	167.83	25.34	-37.6	-39.5	22.4	0.00e+00	0	59	0	229638144	45	4863
2026-01-24 18:34:42.14	167.28	25.34	-37.6	-39.6	22.4	0.00e+00	0	59	0	230686720	45	4886
2026-01-24 18:34:43.15	166.72	25.33	-37.5	-39.4	22.6	0.00e+00	0	60	0	231735296	45	4788
2026-01-24 18:34:44.16	166.17	25.33	-37.3	-39.2	22.8	0.00e+00	0	60	0	232783872	45	4672
2026-01-24 18:34:45.17	165.62	25.32	-36.9	-38.7	23.2	0.00e+00	0	59	0	234356736	45	4436
2026-01-24 18:34:46.18	165.06	25.30	-36.9	-38.7	23.1	0.00e+00	0	59	0	235405312	45	4429
2026-01-24 18:34:47.19	164.51	25.29	-36.9	-38.7	23.3	0.00e+00	0	60	0	236453888	45	4398
2026-01-24 18:34:48.20	163.96	25.27	-37.1	-38.9	23.0	0.00e+00	0	60	0	237502464	45	4533
2026-01-24 18:34:49.21	163.40	25.25	-36.9	-38.7	23.3	0.00e+00	0	59	0	238551040	45	4421
2026-01-24 18:34:50.22	162.85	25.23	-36.8	-38.7	23.2	0.00e+00	0	60	0	239599616	45	4397
2026-01-24 18:34:51.23	162.30	25.20	-36.8	-38.6	23.3	0.00e+00	0	59	0	241172480	45	4371
2026-01-24 18:34:52.24	161.75	25.18	-36.9	-38.8	23.2	0.00e+00	0	59	0	242221056	44	4724
2026-01-24 18:34:53.25	161.21	25.15	-37.1	-38.9	23.0	0.00e+00	0	60	0	243269632	44	4810
2026-01-24 18:34:54.26	160.66	25.11	-37.2	-39.2	22.9	0.00e+00	0	59	0	244318208	45	4669
2026-01-24 18:34:55.27	160.12	25.08	-37.4	-39.4	22.6	0.00e+00	0	59	0	245366784	45	4769
2026-01-24 18:34:56.28	159.57	25.04	-37.6	-39.6	22.3	0.00e+00	0	59	0	246415360	45	4915
2026-01-24 18:34:57.29	159.03	25.00	-37.5	-39.5	22.5	0.00e+00	0	60	0	247988224	45	4852
2026-01-24 18:34:58.30	158.49	24.96	-37.4	-39.3	22.6	0.00e+00	0	59	0	249036800	45	4742
2026-01-24 18:34:59.31	157.95	24.92	-37.2	-39.1	22.8	0.00e+00	0	59	0	250085376	45	4646
2026-01-24 18:35:00.32	157.41	24.87	-37.2	-39.1	22.8	0.00e+00	0	59	0	251133952	45	4639
2026-01-24 18:35:01.32	156.88	24.82	-37.6	-39.6	22.5	0.00e+00	0	59	0	252182528	45	4896
2026-01-24 18:35:02.33	156.35	24.77	-37.8	-39.9	22.3	0.00e+00	0	59	0	253231104	46	4761
2026-01-24 18:35:03.34	155.82	24.72	-38.1	-40.2	21.8	0.00e+00	0	59	0	254279680	46	4959
2026-01-24 18:35:04.35	155.29	24.66	-37.8	-39.8	22.2	0.00e+00	0	59	0	255852544	46	4724
2026-01-24 18:35:05.36	154.76	24.60	-37.8	-39.8	22.2	0.00e+00	0	59	0	256901120	46	4742
2026-01-24 18:35:06.37	154.24	24.54	-37.7	-39.7	22.4	0.00e+00	0	59	0	257949696	46	4653
2026-01-24 18:35:07.38	153.72	24.48	-37.7	-39.7	22.3	0.00e+00	0	60	0	258998272	46	4688
2026-01-24 18:35:08.39	153.20	24.42	-37.4	-39.4	22.6	0.00e+00	0	59	0	260046848	46	4519
2026-01-24 18:35:09.40	152.68	24.35	-37.4	-39.4	22.7	0.00e+00	0	59	0	261095424	46	4494
2026-01-24 18:35:10.41	152.17	24.29	-37.5	-39.5	22.5	0.00e+00	0	59	0	262668288	46	4591
2026-01-24 18:35:11.42	151.65	24.22	-37.6	-39.6	22.5	0.00e+00	0	60	0	263716864	46	4622
2026-01-24 18:35:12.43	151.15	24.14	-37.5	-39.5	22.6	0.00e+00	0	60	0	264765440	46	4551
2026-01-24 18:35:13.44	150.64	24.07	-37.4	-39.3	22.7	0.00e+00	0	59	0	265814016	46	4489
2026-01-24 18:35:14.45	150.14	24.00	-37.1	-39.1	23.0	0.00e+00	0	60	0	266862592	46	4344
2026-01-24 18:35:15.46	149.63	23.92	-36.9	-38.8	23.2	0.00e+00	0	59	0	268435456	45	4455
2026-01-24 18:35:16.47	149.14	23.84	-36.8	-38.7	23.3	0.00e+00	0	60	0	269484032	45	4406
2026-01-24 18:35:17.48	148.64	23.76	-37.0	-38.8	23.2	0.00e+00	0	60	0	270532608	45	4486
2026-01-24 18:35:18.49	148.15	23.68	-37.3	-39.3	22.8	0.00e+00	0	60	0	271581184	45	4709
2026-01-24 18:35:19.49	147.67	23.59	-37.3	-39.3	22.7	0.00e+00	0	59	0	272629760	45	4711
2026-01-24 18:35:20.50	147.18	23.51	-37.4	-39.3	22.7	0.00e+00	0	60	0	273678336	45	4748
2026-01-24 18:35:21.51	146.70	23.42	-37.2	-39.2	22.9	0.00e+00	0	60	0	275251200	45	4657
2026-01-24 18:35:22.52	146.22	23.33	-37.0	-38.9	23.1	0.00e+00	0	60	0	276299776	45	4516
2026-01-24 18:35:23.53	145.74	23.24	-37.1	-39.0	23.0	0.00e+00	0	59	0	277348352	45	4566
2026-01-24 18:35:24.54	145.27	23.15	-37.3	-39.2	22.8	0.00e+00	0	60	0	278396928	45	4689
2026-01-24 18:35:25.55	144.80	23.06	-37.4	-39.4	22.7	0.00e+00	0	60	0	279445504	45	4767
2026-01-24 18:35:26.56	144.33	22.97	-37.7	-39.7	22.3	0.00e+00	0	60	0	280494080	45	4975
2026-01-24 18:35:27.57	143.87	22.87	-37.8	-39.8	22.3	0.00e+00	0	60	0	282066944	46	4726
2026-01-24 18:35:28.58	143.41	22.77	-37.6	-39.6	22.4	0.00e+00	0	60	0	283115520	46	4626
2026-01-24 18:35:29.60	142.95	22.67	-37.4	-39.4	22.6	0.00e+00	0	60	0	284164096	46	4504
2026-01-24 18:35:30.61	142.50	22.58	-37.4	-39.4	22.7	0.00e+00	0	60	0	285212672	46	4504
2026-01-24 18:35:31.61	142.05	22.48	-37.4	-39.4	22.6	0.00e+00	0	59	0	286261248	46	4512
2026-01-24 18:35:32.62	141.60	22.38	-37.6	-39.6	22.5	0.00e+00	0	60	0	287309824	46	4610
2026-01-24 18:35:33.64	141.16	22.27	-37.9	-40.0	22.1	0.00e+00	0	60	0	288882688	46	4831
2026-01-24 18:35:34.65	140.72	22.17	-38.1	-40.2	21.9	0.00e+00	0	60	0	289931264	46	4962
2026-01-24 18:35:35.65	140.29	22.07	-38.0	-40.2	21.8	0.00e+00	0	60	0	290979840	46	4939
2026-01-24 18:35:36.66	139.85	21.96	-37.7	-39.7	22.3	0.00e+00	0	60	0	292028416	46	4675
2026-01-24 18:35:37.68	139.42	21.86	-37.4	-39.3	22.6	0.00e+00	0	60	0	293076992	46	4492
2026-01-24 18:35:38.68	139.00	21.75	-37.3	-39.2	22.8	0.00e+00	0	60	0	294125568	46	4436
2026-01-24 18:35:39.69	138.58	21.64	-37.3	-39.3	22.7	0.00e+00	0	60	0	295174144	46	4453
2026-01-24 18:35:40.70	138.16	21.53	-37.4	-39.4	22.6	0.00e+00	0	60	0	296747008	46	4517
2026-01-24 18:35:41.71	137.75	21.42	-37.6	-39.6	22.4	0.00e+00	0	60	0	297795584	46	4638
2026-01-24 18:35:42.72	137.33	21.32	-37.8	-39.9	22.1	0.00e+00	0	60	0	298844160	46	4792
2026-01-24 18:35:43.73	136.93	21.20	-38.1	-40.3	21.7	0.00e+00	0	60	0	299892736	46	5018
2026-01-24 18:35:44.74	136.52	21.09	-38.1	-40.3	21.7	0.00e+00	0	60	0	300941312	46	5028
2026-01-24 18:35:45.75	136.12	20.98	-38.2	-40.5	21.5	0.00e+00	0	60	0	301989888	47	4825
2026-01-24 18:35:46.76	135.72	20.87	-38.3	-40.5	21.5	0.00e+00	0	60	0	303562752	47	4830
2026-01-24 18:35:47.77	135.33	20.76	-38.1	-40.2	21.7	0.00e+00	0	60	0	304611328	47	4698
2026-01-24 18:35:48.78	134.94	20.64	-37.9	-40.0	21.9	0.00e+00	0	60	0	305659904	47	4598
2026-01-24 18:35:49.79	134.55	20.53	-37.8	-39.9	22.2	0.00e+00	0	60	0	306708480	47	4495
2026-01-24 18:35:50.80	134.17	20.42	-38.0	-40.1	21.8	0.00e+00	0	60	0	307757056	47	4630
2026-01-24 18:35:51.80	133.79	20.30	-38.1	-40.3	21.7	0.00e+00	0	60	0	309329920	47	4706
2026-01-24 18:35:52.81	133.42	20.19	-38.2	-40.6	21.4	0.00e+00	0	60	0	310378496	47	4871
2026-01-24 18:35:53.82	133.04	20.07	-38.0	-40.2	21.8	0.00e+00	0	60	0	311427072	47	4659
2026-01-24 18:35:54.83	132.67	19.96	-38.1	-40.3	21.7	0.00e+00	0	60	0	312475648	47	4707
2026-01-24 18:35:55.84	132.31	19.84	-37.9	-40.0	21.9	0.00e+00	0	60	0	313524224	47	4595
2026-01-24 18:35:56.85	131.94	19.72	-37.8	-40.0	21.9	0.00e+00	0	60	0	314572800	46	4860
2026-01-24 18:35:57.86	131.58	19.61	-38.0	-40.3	21.4	0.00e+00	0	60	0	316145664	46	5020
2026-01-24 18:35:58.87	131.23	19.49	-38.2	-40.4	21.2	0.00e+00	0	60	0	317194240	46	5049
2026-01-24 18:35:59.88	130.88	19.37	-38.3	-40.5	21.4	0.00e+00	0	60	0	318242816	47	4840
2026-01-24 18:36:00.90	130.52	19.26	-38.2	-40.4	21.5	0.00e+00	0	60	0	319291392	47	4787
2026-01-24 18:36:01.91	130.18	19.14	-37.9	-40.5	21.2	0.00e+00	0	60	0	320339968	46	5106
2026-01-24 18:36:02.92	129.83	19.02	-38.1	-40.3	21.5	1.94e-05	0	60	0	321388544	46	5023
2026-01-24 18:36:03.93	129.49	18.90	-37.7	-40.4	21.4	1.94e-05	0	60	0	322961408	47	4802
2026-01-24 18:36:04.94	129.16	18.79	-38.3	-40.6	21.2	1.10e-06	0	60	0	324009984	47	4895
2026-01-24 18:36:05.94	128.83	18.67	-38.3	-40.6	21.2	8.00e-06	0	60	0	325058560	47	4912
2026-01-24 18:36:06.96	128.49	18.55	-38.3	-40.5	21.3	0.00e+00	0	60	0	326107136	47	4836
2026-01-24 18:36:07.97	128.16	18.43	-38.3	-40.5	21.0	0.00e+00	0	60	0	327155712	47	4866
2026-01-24 18:36:08.98	127.84	18.32	-38.3	-40.5	20.8	0.00e+00	0	60	0	328204288	47	4843
2026-01-24 18:36:09.98	127.52	18.20	-38.3	-40.6	20.9	1.10e-06	0	60	0	329777152	47	4896
2026-01-24 18:36:10.99	127.20	18.08	-38.3	-40.6	21.0	1.10e-06	0	60	0	330825728	47	4919
2026-01-24 18:36:12.00	126.89	17.96	-37.9	-40.3	21.2	0.00e+00	0	60	0	331874304	46	5038
2026-01-24 18:36:13.01	126.58	17.85	-38.2	-40.4	20.8	0.00e+00	0	60	0	332922880	46	5064
2026-01-24 18:36:14.02	126.27	17.73	-37.5	-40.4	21.3	0.00e+00	0	60	0	333971456	46	5061
2026-01-24 18:36:15.03	125.96	17.61	-38.5	-40.8	21.0	0.00e+00	0	60	0	335020032	47	5025
2026-01-24 18:36:16.04	125.66	17.49	-38.5	-40.8	20.9	0.00e+00	0	60	0	336068608	47	5014
2026-01-24 18:36:17.05	125.36	17.38	-38.6	-41.0	20.7	0.00e+00	0	60	0	337641472	47	5140
2026-01-24 18:36:18.06	125.06	17.26	-38.7	-41.1	20.6	0.00e+00	0	60	0	338690048	47	5164
2026-01-24 18:36:19.07	124.77	17.14	-38.7	-41.2	20.5	0.00e+00	0	60	0	339738624	48	4953
2026-01-24 18:36:20.08	124.48	17.03	-38.8	-41.2	20.5	0.00e+00	0	60	0	340787200	48	4946
2026-01-24 18:36:21.09	124.19	16.91	-38.8	-41.3	20.4	0.00e+00	0	60	0	341835776	48	4989
2026-01-24 18:36:22.10	123.90	16.79	-38.6	-41.2	20.5	0.00e+00	0	60	0	342884352	48	4933
2026-01-24 18:36:23.11	123.62	16.68	-38.8	-41.3	20.4	0.00e+00	0	60	0	344457216	48	5021
2026-01-24 18:36:24.12	123.34	16.56	-38.9	-41.4	20.3	0.00e+00	0	60	0	345505792	48	5073
2026-01-24 18:36:25.13	123.06	16.45	-38.9	-41.5	20.2	0.00e+00	0	60	0	346554368	48	5129
2026-01-24 18:36:26.14	122.79	16.33	-38.9	-41.3	20.3	0.00e+00	0	60	0	347602944	48	5040
2026-01-24 18:36:27.14	122.52	16.22	-36.3	-40.7	20.2	0.00e+00	0	60	0	348651520	46	5233
2026-01-24 18:36:28.15	122.25	16.10	-38.4	-41.0	20.5	2.20e-06	0	60	0	350224384	47	5121
2026-01-24 18:36:29.16	121.98	15.99	-38.8	-41.4	19.9	1.10e-06	0	60	0	351272960	48	5080
2026-01-24 18:36:30.17	121.71	15.87	-38.1	-41.6	19.9	1.10e-06	0	60	0	352321536	48	5193
2026-01-24 18:36:31.18	121.45	15.76	-38.3	-41.7	19.6	1.10e-06	0	60	0	353370112	47	5546
2026-01-24 18:36:32.19	121.19	15.64	-37.8	-41.6	19.0	2.17e-05	0	60	0	354418688	47	5487
2026-01-24 18:36:33.20	120.94	15.53	-38.9	-41.7	19.1	2.17e-05	0	60	0	355467264	48	5219
2026-01-24 18:36:34.21	120.68	15.42	-38.2	-41.5	19.4	1.33e-04	0	60	0	357040128	47	5443
2026-01-24 18:36:35.22	120.43	15.30	-38.1	-41.5	18.7	2.14e-04	0	60	0	358088704	47	5431
2026-01-24 18:36:36.23	120.18	15.19	-37.6	-41.5	18.9	1.25e-04	0	60	0	359137280	47	5429
2026-01-24 18:36:37.24	119.93	15.08	-38.1	-41.3	18.6	1.25e-04	0	60	0	360185856	46	5650
2026-01-24 18:36:38.25	119.69	14.97	-37.9	-41.9	19.0	2.44e-04	0	60	0	361234432	48	5352
2026-01-24 18:36:39.26	119.45	14.85	-38.8	-41.9	18.6	3.00e-04	0	60	0	362283008	48	5393
2026-01-24 18:36:40.27	119.21	14.74	-38.2	-42.0	18.4	3.00e-04	0	60	0	363855872	47	5754
2026-01-24 18:36:41.28	118.97	14.63	-36.3	-42.0	17.7	5.02e-04	0	60	0	364904448	46	6113
2026-01-24 18:36:42.29	118.73	14.52	-38.9	-42.4	16.8	4.21e-04	0	60	0	365953024	47	6061
2026-01-24 18:36:43.30	118.50	14.41	-38.7	-42.0	16.1	4.21e-04	0	60	0	367001600	45	6484
2026-01-24 18:36:44.31	118.27	14.30	-35.6	-42.1	17.5	1.84e-03	0	60	0	368050176	46	6143
2026-01-24 18:36:45.31	118.04	14.19	-38.2	-42.2	16.0	1.29e-03	0	60	0	369098752	44	7027
2026-01-24 18:36:46.32	117.82	14.08	-35.7	-42.0	17.1	3.01e-03	0	60	0	370671616	45	6484
2026-01-24 18:36:47.33	117.59	13.97	-36.7	-41.9	17.6	3.01e-03	0	60	0	371720192	46	6034
2026-01-24 18:36:48.34	117.37	13.86	-36.2	-41.7	17.3	6.87e-04	0	60	0	372768768	43	7007
2026-01-24 18:36:49.35	117.15	13.75	-28.4	-41.7	14.2	1.67e-03	0	60	0	373817344	37	9835
2026-01-24 18:36:50.37	116.93	13.65	-36.9	-42.5	17.5	1.67e-03	0	60	0	374865920	46	6457
2026-01-24 18:36:51.38	116.71	13.54	-37.0	-42.5	16.4	3.21e-03	0	60	0	375914496	41	8658
2026-01-24 18:36:52.39	116.50	13.43	-36.5	-42.5	15.8	3.20e-03	0	60	0	376963072	42	8137
2026-01-24 18:36:53.40	116.29	13.32	-36.7	-43.6	12.6	3.20e-03	0	60	0	378535936	39	11002
2026-01-24 18:36:54.41	116.08	13.22	-37.1	-43.0	15.8	1.10e-02	0	60	0	379584512	44	7653
2026-01-24 18:36:55.42	115.87	13.11	-36.8	-43.0	15.9	1.59e-03	0	60	0	380633088	44	7639
2026-01-24 18:36:56.42	115.66	13.01	-36.0	-42.9	17.1	1.59e-03	0	60	0	381681664	44	7567
2026-01-24 18:36:57.43	115.46	12.90	-35.0	-42.3	17.0	1.37e-03	0	60	0	382730240	43	7542
2026-01-24 18:36:58.44	115.26	12.80	-35.4	-43.1	16.9	7.11e-04	0	60	0	383778816	45	7292
2026-01-24 18:36:59.45	115.06	12.69	-37.4	-42.9	16.9	6.14e-04	0	60	0	385351680	45	7163
2026-01-24 18:37:00.46	114.86	12.59	-38.0	-42.7	17.3	6.14e-04	0	60	0	386400256	44	7435
2026-01-24 18:37:01.47	114.66	12.48	-37.6	-43.0	16.3	6.61e-04	0	60	0	387448832	46	6816
2026-01-24 18:37:02.48	114.47	12.38	-38.0	-43.0	17.3	4.31e-04	0	60	0	388497408	47	6437
2026-01-24 18:37:03.49	114.27	12.28	-38.0	-43.1	17.0	4.31e-04	0	60	0	389545984	47	6560
2026-01-24 18:37:04.50	114.08	12.18	-37.9	-43.0	16.8	3.64e-04	0	60	0	390594560	45	7224
2026-01-24 18:37:05.51	113.89	12.07	-37.8	-42.9	16.5	3.34e-03	0	60	0	392167424	46	6785
2026-01-24 18:37:06.52	113.71	11.97	-37.4	-43.1	16.0	3.34e-03	0	60	0	393216000	47	6517
2026-01-24 18:37:07.53	113.52	11.87	-37.1	-43.3	16.1	2.15e-03	0	60	0	394264576	45	7504
2026-01-24 18:37:08.54	113.34	11.77	-36.7	-43.0	14.8	4.00e-03	0	60	0	395313152	44	7706
2026-01-24 18:37:09.55	113.15	11.67	-33.9	-43.0	13.3	4.00e-03	0	60	0	396361728	41	9119
2026-01-24 18:37:10.56	112.97	11.57	-37.2	-43.1	15.1	9.54e-03	0	60	0	397934592	44	7774
2026-01-24 18:37:11.57	112.79	11.47	-35.0	-43.4	12.9	6.71e-03	0	60	0	398983168	41	9530
2026-01-24 18:37:12.58	112.61	11.37	-36.5	-43.0	15.1	2.86e-02	0	60	0	400031744	44	7702
2026-01-24 18:37:13.59	112.44	11.27	-36.8	-43.0	15.1	2.86e-02	0	60	0	401080320	44	7646
2026-01-24 18:37:14.60	112.26	11.17	-36.5	-42.9	14.5	1.33e-02	0	60	0	402128896	42	8559
2026-01-24 18:37:15.61	112.09	11.07	-36.1	-43.4	13.7	1.63e-02	0	60	0	403177472	43	8506
2026-01-24 18:37:16.62	111.92	10.98	-34.8	-43.2	13.4	1.63e-02	0	60	0	404226048	42	8857
2026-01-24 18:37:17.63	111.75	10.88	-34.7	-45.3	10.4	2.26e-02	0	60	0	405798912	41	11910
2026-01-24 18:37:18.64	111.58	10.78	-34.4	-45.8	11.0	5.21e-02	0	60	0	406847488	42	11836
2026-01-24 18:37:19.65	111.41	10.68	-35.6	-45.3	12.0	5.21e-02	0	60	0	407896064	42	11251
2026-01-24 18:37:20.66	111.25	10.59	-35.0	-45.7	10.9	5.38e-02	0	60	0	408944640	42	11769
2026-01-24 18:37:21.67	111.09	10.49	-35.4	-45.5	10.8	7.26e-02	0	60	0	409993216	41	12191
2026-01-24 18:37:22.68	110.92	10.40	-35.6	-44.5	12.3	7.26e-02	0	60	0	411041792	41	10780
2026-01-24 18:37:23.69	110.76	10.30	-34.6	-43.4	13.1	6.70e-02	0	60	0	412614656	39	10756
2026-01-24 18:37:24.70	110.60	10.21	-35.4	-43.3	12.7	3.37e-02	0	60	0	413663232	40	10008
2026-01-24 18:37:25.70	110.45	10.11	-35.8	-43.2	12.5	2.79e-02	0	60	0	414711808	41	9376
2026-01-24 18:37:26.71	110.29	10.02	-35.4	-43.1	13.7	2.79e-02	0	60	0	415760384	40	9767
2026-01-24 18:37:27.72	110.13	9.93	-34.4	-44.1	12.4	4.07e-02	0	60	0	416808960	43	9245
2026-01-24 18:37:28.73	109.98	9.83	-28.8	-43.3	11.9	4.17e-02	0	60	0	417857536	36	12615
2026-01-24 18:37:29.74	109.83	9.74	-34.2	-43.7	13.3	4.17e-02	0	60	0	418906112	40	10532
2026-01-24 18:37:30.75	109.68	9.65	-33.2	-44.5	12.2	5.40e-02	0	60	0	420478976	42	10269
2026-01-24 18:37:31.76	109.53	9.55	-35.7	-43.9	12.8	3.57e-02	0	60	0	421527552	42	9562
2026-01-24 18:37:32.77	109.38	9.46	-35.8	-43.9	13.0	3.57e-02	0	60	0	422576128	42	9577
2026-01-24 18:37:33.78	109.23	9.37	-35.4	-44.2	12.9	2.93e-02	0	60	0	423624704	42	9875
2026-01-24 18:37:34.79	109.08	9.28	-36.8	-44.6	12.9	2.70e-02	0	60	0	424673280	44	9271
2026-01-24 18:37:35.80	108.94	9.19	-35.9	-44.2	12.6	2.70e-02	0	60	0	425721856	43	9345
2026-01-24 18:37:36.81	108.79	9.10	-36.3	-44.5	11.7	2.76e-02	0	60	0	427294720	43	9715
2026-01-24 18:37:37.82	108.65	9.01	-36.5	-44.2	12.9	3.75e-02	0	60	0	428343296	44	8847
2026-01-24 18:37:38.82	108.51	8.92	-36.8	-44.4	14.0	1.38e-02	0	60	0	429391872	46	8006
2026-01-24 18:37:39.83	108.37	8.83	-36.3	-44.0	14.5	1.38e-02	0	60	0	430440448	45	8143
2026-01-24 18:37:40.84	108.23	8.74	-36.6	-44.4	13.8	9.42e-03	0	60	0	431489024	46	8010
2026-01-24 18:37:41.85	108.10	8.65	-37.3	-43.9	13.7	8.23e-03	0	60	0	432537600	45	8025
2026-01-24 18:37:42.86	107.96	8.57	-35.9	-45.1	13.3	8.23e-03	0	60	0	434110464	45	9225
2026-01-24 18:37:43.87	107.82	8.48	-38.1	-45.1	12.8	6.87e-03	0	60	0	435159040	47	8257
2026-01-24 18:37:44.88	107.69	8.39	-38.3	-44.9	12.9	7.46e-03	0	60	0	436207616	46	8484
2026-01-24 18:37:45.89	107.56	8.30	-36.6	-44.8	12.3	7.46e-03	0	60	0	437256192	46	8373
2026-01-24 18:37:46.90	107.42	8.22	-37.8	-44.3	14.2	1.02e-02	0	60	0	438304768	46	7990
2026-01-24 18:37:47.91	107.29	8.13	-38.4	-44.8	13.9	1.61e-03	0	60	0	439353344	47	7937
2026-01-24 18:37:48.92	107.16	8.04	-38.5	-46.5	10.8	3.58e-03	0	61	0	440926208	46	10236
2026-01-24 18:37:49.93	107.03	7.96	-33.1	-53.1	3.9	3.58e-03	0	61	0	441450496	39	32856
2026-01-24 18:37:50.94	106.91	7.87	-44.5	-62.7	3.8	4.20e-01	0	60	104	441450496	59	31281
2026-01-24 18:37:51.95	106.78	7.79	-44.9	-63.2	3.8	8.43e-01	0	60	104	441450496	60	31119
2026-01-24 18:37:52.96	106.65	7.70	-45.1	-63.4	3.8	8.43e-01	0	60	104	441450496	60	31932
2026-01-24 18:37:53.97	106.53	7.62	-45.3	-63.6	3.8	8.46e-01	0	60	104	441450496	61	30956
2026-01-24 18:37:54.98	106.41	7.53	-45.4	-63.8	3.8	8.46e-01	0	60	104	441450496	61	31450
2026-01-24 18:37:55.99	106.28	7.45	-45.6	-63.9	3.8	8.46e-01	0	60	104	441450496	61	32015
2026-01-24 18:37:57.00	106.16	7.37	-45.7	-64.0	3.8	8.46e-01	0	60	104	441450496	62	30684
2026-01-24 18:37:58.01	106.04	7.28	-45.8	-64.2	3.8	8.47e-01	0	60	104	441450496	62	31105
2026-01-24 18:37:59.02	105.92	7.20	-45.8	-64.1	3.8	8.47e-01	0	60	104	441450496	62	30959
2026-01-24 18:38:00.03	105.80	7.12	-45.7	-64.0	3.8	8.48e-01	0	60	104	441450496	62	30636
2026-01-24 18:38:01.04	105.68	7.04	-45.6	-63.9	3.8	8.46e-01	0	60	104	441450496	62	30098
2026-01-24 18:38:02.06	105.57	6.95	-45.6	-63.8	3.8	8.45e-01	0	60	104	441450496	62	29805
2026-01-24 18:38:03.07	105.45	6.87	-45.6	-63.7	3.8	8.45e-01	0	60	104	441450496	62	29556
2026-01-24 18:38:04.08	105.34	6.79	-45.5	-63.6	3.8	8.47e-01	0	60	104	441450496	62	29227
2026-01-24 18:38:05.09	105.22	6.71	-45.5	-63.6	3.8	8.46e-01	0	60	104	441450496	62	29183
2026-01-24 18:38:06.10	105.11	6.63	-45.3	-63.4	3.8	8.46e-01	0	60	104	441450496	62	28495
2026-01-24 18:38:07.11	105.00	6.55	-45.3	-63.4	3.8	8.46e-01	0	60	104	441450496	62	28508
2026-01-24 18:38:08.12	104.88	6.47	-45.3	-63.4	3.8	8.45e-01	0	61	104	441450496	62	28558
2026-01-24 18:38:09.13	104.77	6.39	-45.3	-63.4	3.8	8.45e-01	0	60	104	441450496	62	28455
2026-01-24 18:38:10.14	104.66	6.31	-45.2	-63.4	3.8	8.46e-01	0	60	104	441450496	62	28409
2026-01-24 18:38:11.15	104.55	6.23	-45.3	-63.3	3.8	8.47e-01	0	61	104	441450496	61	30028
2026-01-24 18:38:12.16	104.45	6.15	-45.3	-63.3	3.8	8.47e-01	0	60	104	441450496	61	29979
2026-01-24 18:38:13.17	104.34	6.07	-45.3	-63.3	3.8	8.46e-01	0	60	104	441450496	61	29998
2026-01-24 18:38:14.18	104.23	5.99	-45.3	-63.3	3.8	8.46e-01	0	61	104	441450496	61	30017
2026-01-24 18:38:15.19	104.13	5.92	-45.3	-63.3	3.8	8.46e-01	0	60	104	441450496	61	29990
2026-01-24 18:38:16.20	104.02	5.84	-45.3	-63.3	3.8	8.46e-01	0	60	104	441450496	61	29977
2026-01-24 18:38:17.21	103.92	5.76	-45.2	-63.3	3.8	8.46e-01	0	61	104	441450496	61	30016
2026-01-24 18:38:18.22	103.82	5.68	-45.3	-63.4	3.8	8.46e-01	0	61	104	441450496	61	30052
2026-01-24 18:38:19.23	103.71	5.61	-45.2	-63.3	3.8	8.46e-01	0	60	104	441450496	61	29933
2026-01-24 18:38:20.24	103.61	5.53	-45.2	-63.3	3.8	8.46e-01	0	60	104	441450496	61	29882
2026-01-24 18:38:21.25	103.51	5.45	-45.2	-63.3	3.8	8.46e-01	0	61	104	441450496	61	30010
2026-01-24 18:38:22.26	103.41	5.38	-45.2	-63.3	3.8	8.46e-01	0	61	104	441450496	61	29886
2026-01-24 18:38:23.27	103.31	5.30	-45.2	-63.3	3.8	8.47e-01	0	60	104	441450496	61	29913
2026-01-24 18:38:24.28	103.21	5.23	-45.2	-63.3	3.8	8.46e-01	0	61	104	441450496	61	29959
2026-01-24 18:38:25.29	103.12	5.15	-45.2	-63.3	3.8	8.46e-01	0	61	104	441450496	61	29893
2026-01-24 18:38:26.30	103.02	5.08	-45.2	-63.3	3.8	8.47e-01	0	61	104	441450496	61	29979
2026-01-24 18:38:27.31	102.92	5.00	-45.2	-63.3	3.8	8.46e-01	0	61	104	441450496	61	29900
2026-01-24 18:38:28.32	102.83	4.93	-45.2	-63.3	3.8	8.46e-01	0	61	104	441450496	61	29935
2026-01-24 18:38:29.33	102.73	4.85	-45.2	-63.3	3.8	8.46e-01	0	60	104	441450496	61	29918
2026-01-24 18:38:30.34	102.64	4.78	-45.2	-63.3	3.8	8.45e-01	0	60	104	441450496	61	29924
2026-01-24 18:38:31.36	102.54	4.71	-45.2	-63.3	3.8	8.48e-01	0	60	104	441450496	61	29870
2026-01-24 18:38:32.37	102.45	4.63	-45.2	-63.3	3.8	8.48e-01	0	61	104	441450496	61	29907
2026-01-24 18:38:33.38	102.36	4.56	-45.2	-63.3	3.8	8.45e-01	0	60	104	441450496	61	29862
2026-01-24 18:38:34.39	102.27	4.49	-45.2	-63.3	3.8	8.46e-01	0	61	104	441450496	61	29919
2026-01-24 18:38:35.40	102.18	4.41	-45.2	-63.3	3.8	8.46e-01	0	61	104	441450496	61	29876
2026-01-24 18:38:36.41	102.08	4.34	-45.2	-63.3	3.8	8.46e-01	0	61	104	441450496	61	29795
2026-01-24 18:38:37.42	102.00	4.27	-45.2	-63.3	3.8	8.45e-01	0	61	104	441450496	61	29906
2026-01-24 18:38:38.43	101.91	4.20	-45.2	-63.3	3.8	8.45e-01	0	61	104	441450496	61	29813
2026-01-24 18:38:39.44	101.82	4.13	-45.2	-63.3	3.8	8.46e-01	0	60	104	441450496	61	29797
2026-01-24 18:38:40.45	101.73	4.05	-45.2	-63.3	3.8	8.46e-01	0	61	104	441450496	61	29825
2026-01-24 18:38:41.46	101.64	3.98	-45.2	-63.3	3.8	8.47e-01	0	60	104	441450496	61	29828
2026-01-24 18:38:42.47	101.56	3.91	-45.2	-63.3	3.8	8.47e-01	0	61	104	441450496	61	29804
2026-01-24 18:38:43.48	101.47	3.84	-45.2	-63.3	3.8	8.46e-01	0	61	104	441450496	61	29857
2026-01-24 18:38:44.49	101.39	3.77	-45.2	-63.3	3.8	8.44e-01	0	61	104	441450496	61	29792
2026-01-24 18:38:45.51	101.30	3.70	-45.0	-63.3	3.8	8.44e-01	0	60	104	441450496	61	29716
2026-01-24 18:38:46.52	101.22	3.63	-45.2	-63.3	3.8	8.47e-01	0	61	104	441450496	61	29767
2026-01-24 18:38:47.53	101.13	3.56	-45.2	-63.3	3.8	8.46e-01	0	61	104	441450496	61	29724
2026-01-24 18:38:48.54	101.05	3.49	-45.2	-63.3	3.8	8.46e-01	0	60	104	441450496	61	29786
2026-01-24 18:38:49.55	100.97	3.42	-45.2	-63.3	3.8	8.47e-01	0	60	104	441450496	61	29744
2026-01-24 18:38:50.56	100.89	3.35	-45.2	-63.3	3.8	8.46e-01	0	61	104	441450496	61	29760
2026-01-24 18:38:51.57	100.81	3.28	-45.2	-63.3	3.8	8.46e-01	0	61	104	441450496	61	29833
2026-01-24 18:38:52.58	100.73	3.21	-45.2	-63.3	3.8	8.46e-01	0	61	104	441450496	61	29787
2026-01-24 18:38:53.59	100.65	3.15	-45.2	-63.3	3.8	8.46e-01	0	61	104	441450496	61	29740
2026-01-24 18:38:54.60	100.57	3.08	-45.2	-63.3	3.8	8.46e-01	0	61	104	441450496	61	29778
2026-01-24 18:38:55.61	100.49	3.01	-45.2	-63.3	3.8	8.46e-01	0	61	104	441450496	61	29708
2026-01-24 18:38:56.62	100.41	2.94	-45.2	-63.3	3.8	8.45e-01	0	61	104	441450496	61	29726
2026-01-24 18:38:57.63	100.33	2.87	-45.2	-63.3	3.8	8.47e-01	0	61	104	441450496	60	31487
2026-01-24 18:38:58.64	100.25	2.81	-45.2	-63.3	3.8	8.47e-01	0	60	104	441450496	60	31510
2026-01-24 18:38:59.66	100.18	2.74	-45.2	-63.3	3.8	8.45e-01	0	61	104	441450496	60	31573
2026-01-24 18:39:00.66	100.10	2.67	-45.2	-63.3	3.8	8.47e-01	0	61	104	441450496	60	31687
2026-01-24 18:39:01.68	100.02	2.60	-45.2	-63.3	3.8	8.47e-01	0	61	104	441450496	60	31572
2026-01-24 18:39:02.69	99.95	2.54	-45.2	-63.3	3.8	8.46e-01	0	61	104	441450496	60	31571
2026-01-24 18:39:03.70	99.87	2.47	-45.2	-63.3	3.8	8.46e-01	0	61	104	441450496	60	31509
2026-01-24 18:39:04.71	99.80	2.40	-45.2	-63.3	3.8	8.46e-01	0	61	104	441450496	60	31532
2026-01-24 18:39:05.72	99.73	2.34	-45.2	-63.3	3.8	8.46e-01	0	60	104	441450496	60	31464
2026-01-24 18:39:06.73	99.65	2.27	-45.2	-63.3	3.8	8.46e-01	0	61	104	441450496	60	31564
2026-01-24 18:39:07.74	99.58	2.21	-45.2	-63.3	3.8	8.45e-01	0	61	104	441450496	60	31489
2026-01-24 18:39:08.75	99.51	2.14	-45.2	-63.3	3.8	8.45e-01	0	61	104	441450496	60	31482
2026-01-24 18:39:09.76	99.44	2.08	-45.2	-63.2	3.8	8.46e-01	0	61	104	441450496	60	31441
2026-01-24 18:39:10.77	99.37	2.01	-45.2	-63.3	3.8	8.47e-01	0	61	104	441450496	60	31515
2026-01-24 18:39:11.78	99.29	1.95	-45.2	-63.3	3.8	8.47e-01	0	61	104	441450496	60	31513
2026-01-24 18:39:12.79	99.22	1.88	-45.2	-63.3	3.8	8.47e-01	0	61	104	441450496	60	31524

#Closed at: 2026-01-24 18:39:13
#Recorded file [441 MB]: D:/lorett/data/31039_260124_213011.dat