passes_logs/2026/01/24/R2.0S_Moscow/R2.0S_Moscow__20260124_014631_SUOMI_NPP_rec.log

#Pass ID: 20260124_014631_SUOMI NPP
#Satellite: SUOMI NPP
#Configuration: NPP
#almurnet v.1.7.20251203
#Start time: 2026-01-24 01:48:42

#Version: 2.2.20231116
#Station: R2.0S_Moscow
#Location: 37.707566 lon 55.798166 lat
#TLE: 1 37849U 11061A   26022.92790088  .00000200  00000+0  11571-3 0  9994
#TLE: 2 37849  98.7820 324.9085 0002258  50.1112 310.0263 14.19528452737839

#Time	Az	El	Level	Level2	SNR	BER	BlckErr	Temp	State	Recorded	gain1	gain2
2026-01-24 01:48:42.97	356.22	9.28	-46.1	-64.6	3.8	7.43e-01	0	61	0	0	63	30860
2026-01-24 01:48:43.98	356.09	9.34	-45.4	-60.0	3.8	1.49e+00	0	61	104	0	62	19187
2026-01-24 01:48:44.99	355.96	9.40	-45.4	-60.0	3.8	1.49e+00	0	61	104	0	62	19258
2026-01-24 01:48:46.00	355.83	9.45	-45.3	-59.9	3.8	1.49e+00	0	61	104	0	62	19102
2026-01-24 01:48:47.01	355.70	9.51	-45.3	-59.9	3.8	1.49e+00	0	61	104	0	62	19116
2026-01-24 01:48:48.02	355.57	9.57	-45.3	-59.9	3.8	1.49e+00	0	61	104	0	62	19009
2026-01-24 01:48:49.03	355.43	9.63	-45.2	-59.8	3.8	1.49e+00	0	61	104	0	62	18841
2026-01-24 01:48:50.04	355.30	9.68	-45.0	-59.7	3.8	1.49e+00	0	61	104	0	62	18520
2026-01-24 01:48:51.05	355.17	9.74	-44.6	-59.2	3.8	1.49e+00	0	61	104	0	61	18616
2026-01-24 01:48:52.06	355.03	9.80	-42.1	-56.6	3.8	1.49e+00	0	61	104	0	56	18439
2026-01-24 01:48:53.07	354.90	9.86	-41.5	-55.9	3.8	1.49e+00	0	61	104	0	54	19083
2026-01-24 01:48:54.08	354.76	9.91	-41.1	-55.6	3.8	1.49e+00	0	61	104	0	54	18388
2026-01-24 01:48:55.09	354.63	9.97	-41.1	-55.6	3.8	1.49e+00	0	61	104	0	54	18378
2026-01-24 01:48:56.10	354.49	10.03	-40.8	-55.4	3.8	1.49e+00	0	61	104	0	53	19032
2026-01-24 01:48:57.11	354.36	10.09	-40.8	-55.4	3.9	1.49e+00	0	61	104	0	53	18981
2026-01-24 01:48:58.12	354.22	10.14	-40.9	-55.4	3.9	1.49e+00	0	61	104	0	53	19051
2026-01-24 01:48:59.13	354.08	10.20	-40.9	-55.4	3.9	1.49e+00	0	61	104	0	53	18981
2026-01-24 01:49:00.14	353.94	10.26	-40.8	-55.4	3.8	1.49e+00	0	61	104	0	53	19045
2026-01-24 01:49:01.15	353.80	10.31	-40.9	-55.4	3.9	1.49e+00	0	61	104	0	53	19037
2026-01-24 01:49:02.17	353.66	10.37	-40.9	-55.4	3.8	1.49e+00	0	61	104	0	53	19143
2026-01-24 01:49:03.18	353.52	10.43	-40.9	-55.4	3.8	1.49e+00	0	61	104	0	53	19114
2026-01-24 01:49:04.19	353.38	10.49	-40.8	-55.4	3.8	1.49e+00	0	61	104	0	53	19109
2026-01-24 01:49:05.20	353.24	10.54	-40.9	-55.4	3.8	1.49e+00	0	61	104	0	53	19139
2026-01-24 01:49:06.21	353.10	10.60	-40.8	-55.5	3.8	1.49e+00	0	61	104	0	53	19197
2026-01-24 01:49:07.22	352.96	10.66	-40.9	-55.4	3.8	1.49e+00	0	61	104	0	53	19130
2026-01-24 01:49:08.23	352.81	10.71	-40.9	-55.4	3.8	1.49e+00	0	61	104	0	53	19119
2026-01-24 01:49:09.24	352.67	10.77	-40.9	-55.5	3.8	1.49e+00	0	62	104	0	53	19223
2026-01-24 01:49:10.25	352.52	10.83	-40.9	-55.5	3.8	1.49e+00	0	61	104	0	53	19224
2026-01-24 01:49:11.26	352.38	10.89	-40.8	-55.5	3.8	1.49e+00	0	61	104	0	53	19324
2026-01-24 01:49:12.27	352.24	10.94	-40.8	-55.5	3.8	1.49e+00	0	61	104	0	53	19212
2026-01-24 01:49:13.28	352.09	11.00	-40.8	-55.4	3.8	1.49e+00	0	62	104	0	53	19110
2026-01-24 01:49:14.29	351.94	11.06	-40.8	-55.4	3.8	1.49e+00	0	61	104	0	53	19107
2026-01-24 01:49:15.30	351.80	11.11	-40.8	-55.4	3.8	1.49e+00	0	61	104	0	53	19108
2026-01-24 01:49:16.31	351.65	11.17	-40.8	-55.4	3.9	1.49e+00	0	61	104	0	53	18978
2026-01-24 01:49:17.32	351.50	11.23	-40.8	-55.4	3.9	1.49e+00	0	61	104	0	53	18967
2026-01-24 01:49:18.34	351.35	11.28	-40.9	-55.4	3.8	1.49e+00	0	61	104	0	53	19005
2026-01-24 01:49:19.35	351.20	11.34	-40.9	-55.4	3.8	1.49e+00	0	62	104	0	53	18998
2026-01-24 01:49:20.36	351.05	11.40	-40.9	-55.4	3.8	1.49e+00	0	61	104	0	53	19116
2026-01-24 01:49:21.37	350.90	11.45	-40.8	-55.5	3.8	1.49e+00	0	61	104	0	53	19196
2026-01-24 01:49:22.38	350.75	11.51	-40.8	-55.5	3.8	1.49e+00	0	61	104	0	53	19229
2026-01-24 01:49:23.39	350.60	11.56	-40.8	-55.5	3.8	1.49e+00	0	61	104	0	53	19228
2026-01-24 01:49:24.40	350.45	11.62	-41.0	-55.5	3.8	1.49e+00	0	61	104	0	53	19340
2026-01-24 01:49:25.41	350.29	11.68	-41.0	-55.5	3.8	1.49e+00	0	61	104	0	53	19368
2026-01-24 01:49:26.42	350.14	11.73	-41.0	-55.5	3.8	1.49e+00	0	62	104	0	53	19329
2026-01-24 01:49:27.43	349.98	11.79	-41.0	-55.5	3.8	1.49e+00	0	61	104	0	53	19344
2026-01-24 01:49:28.44	349.83	11.84	-41.0	-55.5	3.8	1.49e+00	0	62	104	0	53	19353
2026-01-24 01:49:29.45	349.67	11.90	-41.0	-55.5	3.8	1.49e+00	0	62	104	0	53	19362
2026-01-24 01:49:30.46	349.52	11.95	-41.0	-55.5	3.8	1.49e+00	0	62	104	0	53	19321
2026-01-24 01:49:31.47	349.36	12.01	-41.0	-55.5	3.8	1.49e+00	0	61	104	0	53	19351
2026-01-24 01:49:32.48	349.21	12.07	-41.0	-55.5	3.8	1.49e+00	0	62	104	0	53	19314
2026-01-24 01:49:33.49	349.05	12.12	-41.0	-55.5	3.8	1.49e+00	0	62	104	0	53	19333
2026-01-24 01:49:34.50	348.89	12.18	-41.0	-55.5	3.8	1.49e+00	0	61	104	0	53	19337
2026-01-24 01:49:35.51	348.73	12.23	-41.0	-55.5	3.8	1.49e+00	0	61	104	0	53	19337
2026-01-24 01:49:36.52	348.57	12.29	-41.0	-55.5	3.8	1.49e+00	0	61	104	0	53	19347
2026-01-24 01:49:37.53	348.41	12.34	-41.0	-55.5	3.8	1.49e+00	0	61	104	0	53	19380
2026-01-24 01:49:38.54	348.25	12.40	-41.2	-55.7	3.8	1.49e+00	0	62	104	0	53	19703
2026-01-24 01:49:39.55	348.09	12.45	-41.1	-55.6	3.8	1.49e+00	0	61	104	0	53	19579
2026-01-24 01:49:40.56	347.93	12.51	-41.1	-55.6	3.8	1.49e+00	0	61	104	0	53	19555
2026-01-24 01:49:41.57	347.76	12.56	-41.2	-55.7	3.8	1.49e+00	0	61	104	0	53	19732
2026-01-24 01:49:42.58	347.60	12.62	-41.2	-55.7	3.8	1.49e+00	0	61	104	0	53	19787
2026-01-24 01:49:43.59	347.44	12.67	-41.2	-55.7	3.8	1.49e+00	0	61	104	0	53	19688
2026-01-24 01:49:44.60	347.27	12.72	-41.1	-55.6	3.8	1.49e+00	0	61	104	0	53	19579
2026-01-24 01:49:45.61	347.11	12.78	-41.2	-55.8	3.8	1.49e+00	0	61	104	0	53	19911
2026-01-24 01:49:46.62	346.94	12.83	-41.3	-55.8	3.8	1.49e+00	0	61	104	0	53	19853
2026-01-24 01:49:47.63	346.78	12.89	-41.1	-55.6	3.8	1.49e+00	0	61	104	0	53	19555
2026-01-24 01:49:48.63	346.61	12.94	-41.0	-55.5	3.8	1.49e+00	0	61	104	0	53	19325
2026-01-24 01:49:49.64	346.44	12.99	-41.2	-55.7	3.8	1.49e+00	0	62	104	0	53	19831
2026-01-24 01:49:50.65	346.28	13.05	-41.2	-55.8	3.8	1.49e+00	0	62	104	0	53	19855
2026-01-24 01:49:51.66	346.11	13.10	-40.9	-55.5	3.8	1.49e+00	0	61	104	0	53	19281
2026-01-24 01:49:52.67	345.94	13.15	-40.8	-55.3	3.8	1.49e+00	0	62	104	0	53	18935
2026-01-24 01:49:53.68	345.77	13.21	-41.0	-55.6	3.8	1.49e+00	0	61	104	0	53	19469
2026-01-24 01:49:54.69	345.60	13.26	-40.9	-55.5	3.8	1.49e+00	0	62	104	0	53	19186
2026-01-24 01:49:55.70	345.43	13.31	-40.8	-55.3	3.8	1.49e+00	0	61	104	0	53	18867
2026-01-24 01:49:56.71	345.25	13.37	-41.0	-55.5	3.8	1.49e+00	0	61	104	0	53	19280
2026-01-24 01:49:57.72	345.08	13.42	-40.9	-55.4	3.8	1.49e+00	0	61	104	0	53	19054
2026-01-24 01:49:58.73	344.91	13.47	-40.7	-55.3	3.8	1.49e+00	0	61	104	0	53	18745
2026-01-24 01:49:59.74	344.73	13.52	-40.9	-55.4	3.8	1.49e+00	0	62	104	0	53	19021
2026-01-24 01:50:00.75	344.56	13.57	-40.9	-55.4	3.8	1.49e+00	0	61	104	0	53	18984
2026-01-24 01:50:01.76	344.38	13.63	-41.0	-55.5	3.8	1.49e+00	0	61	104	0	53	19228
2026-01-24 01:50:02.77	344.21	13.68	-40.8	-55.3	3.8	1.49e+00	0	61	104	0	53	18780
2026-01-24 01:50:03.78	344.03	13.73	-40.8	-55.3	3.8	1.49e+00	0	61	104	0	53	18758
2026-01-24 01:50:04.79	343.86	13.78	-40.7	-55.2	3.8	1.49e+00	0	61	104	0	53	18688
2026-01-24 01:50:05.80	343.68	13.83	-40.9	-55.4	3.8	1.49e+00	0	61	104	0	53	19089
2026-01-24 01:50:06.80	343.50	13.88	-40.6	-55.1	3.8	1.49e+00	0	61	104	0	53	18467
2026-01-24 01:50:07.81	343.32	13.94	-40.7	-55.2	3.8	1.49e+00	0	61	104	0	53	18555
2026-01-24 01:50:08.82	343.14	13.99	-40.7	-55.2	3.8	1.49e+00	0	61	104	0	53	18693
2026-01-24 01:50:09.83	342.96	14.04	-40.7	-55.2	3.8	1.49e+00	0	61	104	0	53	18622
2026-01-24 01:50:10.84	342.78	14.09	-40.7	-55.2	3.8	1.49e+00	0	61	104	0	53	18568
2026-01-24 01:50:11.85	342.60	14.14	-40.7	-55.2	3.8	1.49e+00	0	61	104	0	53	18578
2026-01-24 01:50:12.86	342.42	14.19	-40.6	-55.1	3.8	1.49e+00	0	62	104	0	53	18336
2026-01-24 01:50:13.87	342.24	14.24	-40.7	-55.2	3.8	1.49e+00	0	62	104	0	53	18618
2026-01-24 01:50:14.88	342.05	14.29	-40.6	-55.1	3.8	1.49e+00	0	61	104	0	53	18466
2026-01-24 01:50:15.89	341.87	14.34	-40.5	-55.0	3.8	1.49e+00	0	61	104	0	53	18236
2026-01-24 01:50:16.90	341.69	14.39	-40.7	-55.2	3.8	1.49e+00	0	62	104	0	53	18630
2026-01-24 01:50:17.91	341.50	14.44	-40.6	-55.1	3.8	1.49e+00	0	62	104	0	53	18411
2026-01-24 01:50:18.92	341.32	14.48	-40.5	-55.0	3.8	1.49e+00	0	61	104	0	52	19325
2026-01-24 01:50:19.93	341.13	14.53	-40.7	-55.2	3.8	1.49e+00	0	61	104	0	52	19725
2026-01-24 01:50:20.94	340.94	14.58	-40.8	-55.3	3.8	1.49e+00	0	61	104	0	52	20028
2026-01-24 01:50:21.95	340.75	14.63	-40.6	-55.0	3.8	1.49e+00	0	62	104	0	52	19374
2026-01-24 01:50:22.96	340.57	14.68	-40.8	-55.3	3.8	1.49e+00	0	62	104	0	52	20002
2026-01-24 01:50:23.97	340.38	14.73	-41.0	-55.5	3.8	1.49e+00	0	61	104	0	52	20398
2026-01-24 01:50:24.98	340.19	14.77	-41.5	-55.1	3.8	1.49e+00	0	61	104	0	53	18363
2026-01-24 01:50:25.99	340.00	14.82	-40.7	-55.2	3.8	1.49e+00	0	61	104	0	53	18638
2026-01-24 01:50:27.00	339.81	14.87	-41.2	-55.7	3.8	1.49e+00	0	61	104	0	53	19628
2026-01-24 01:50:28.01	339.62	14.92	-41.6	-55.5	3.8	1.49e+00	0	61	104	0	53	19241
2026-01-24 01:50:29.02	339.42	14.96	-42.3	-52.6	4.4	1.43e+00	0	61	0	0	55	12281
2026-01-24 01:50:30.03	339.23	15.01	-41.0	-54.6	3.8	1.05e+00	0	61	104	1048576	54	16391
2026-01-24 01:50:31.04	339.04	15.06	-41.3	-48.6	6.7	3.26e-01	0	61	0	1048576	54	8267
2026-01-24 01:50:32.04	338.85	15.10	-40.9	-47.0	8.4	7.68e-02	0	61	0	3145728	53	7225
2026-01-24 01:50:33.05	338.65	15.15	-41.0	-46.6	9.1	2.82e-02	0	61	0	5242880	53	6883
2026-01-24 01:50:34.06	338.46	15.19	-40.5	-45.3	10.6	1.09e-02	0	61	0	6291456	53	5925
2026-01-24 01:50:35.07	338.26	15.24	-40.5	-45.1	10.8	2.06e-03	0	61	0	8388608	52	6180
2026-01-24 01:50:36.08	338.07	15.28	-40.7	-45.3	10.7	2.66e-03	0	62	0	10485760	52	6298
2026-01-24 01:50:37.09	337.87	15.33	-40.7	-45.2	11.0	2.24e-03	0	61	0	12582912	52	6237
2026-01-24 01:50:38.10	337.67	15.37	-41.0	-45.8	10.5	3.45e-03	0	61	0	14680064	52	6663
2026-01-24 01:50:39.11	337.47	15.42	-41.1	-45.8	10.7	4.49e-03	0	61	0	16777216	52	6703
2026-01-24 01:50:40.12	337.28	15.46	-40.9	-45.1	11.6	1.60e-03	0	61	0	17825792	52	6152
2026-01-24 01:50:41.13	337.08	15.50	-40.8	-44.8	12.0	2.80e-04	0	61	0	19922944	52	5970
2026-01-24 01:50:42.14	336.88	15.55	-41.2	-45.5	11.5	6.26e-04	0	62	0	22020096	52	6472
2026-01-24 01:50:43.15	336.68	15.59	-41.1	-45.3	11.7	1.06e-03	0	61	0	24117248	53	5934
2026-01-24 01:50:44.16	336.48	15.63	-41.0	-45.1	11.9	3.55e-04	0	61	0	26214400	53	5811
2026-01-24 01:50:45.17	336.27	15.68	-41.3	-45.6	11.6	5.61e-04	0	61	0	27262976	53	6136
2026-01-24 01:50:46.18	336.07	15.72	-41.2	-45.4	11.7	6.74e-04	0	61	0	29360128	53	6014
2026-01-24 01:50:47.19	335.87	15.76	-41.1	-45.1	12.1	3.78e-04	0	61	0	31457280	53	5825
2026-01-24 01:50:48.20	335.67	15.80	-41.0	-44.9	12.2	1.95e-04	0	61	0	33554432	53	5700
2026-01-24 01:50:49.21	335.46	15.85	-41.0	-44.7	12.6	9.99e-05	0	61	0	35651584	53	5547
2026-01-24 01:50:50.21	335.26	15.89	-41.0	-44.8	12.5	9.84e-05	0	61	0	36700160	53	5601
2026-01-24 01:50:51.22	335.06	15.93	-41.0	-44.7	12.7	5.79e-05	0	62	0	38797312	53	5538
2026-01-24 01:50:52.23	334.85	15.97	-41.0	-44.7	12.7	9.15e-05	0	61	0	40894464	53	5558
2026-01-24 01:50:53.24	334.64	16.01	-41.0	-44.7	12.7	5.79e-05	0	62	0	42991616	53	5589
2026-01-24 01:50:54.25	334.44	16.05	-41.2	-45.1	12.4	1.14e-04	0	61	0	45088768	53	5802
2026-01-24 01:50:55.26	334.23	16.09	-41.3	-45.2	12.2	2.11e-04	0	61	0	46137344	53	5887
2026-01-24 01:50:56.27	334.02	16.13	-41.2	-45.1	12.3	1.91e-04	0	61	0	48234496	53	5810
2026-01-24 01:50:57.28	333.81	16.17	-41.2	-45.0	12.4	1.25e-04	0	61	0	50331648	53	5773
2026-01-24 01:50:58.29	333.61	16.21	-41.1	-44.8	12.7	8.08e-05	0	61	0	52428800	53	5626
2026-01-24 01:50:59.30	333.40	16.24	-41.0	-44.5	13.0	4.42e-05	0	61	0	54525952	53	5463
2026-01-24 01:51:00.31	333.19	16.28	-41.0	-44.5	13.1	3.43e-05	0	61	0	55574528	53	5420
2026-01-24 01:51:01.32	332.98	16.32	-41.0	-44.5	13.0	3.89e-05	0	62	0	57671680	53	5443
2026-01-24 01:51:02.33	332.76	16.36	-41.1	-44.6	12.9	2.74e-05	0	61	0	59768832	53	5502
2026-01-24 01:51:03.34	332.55	16.39	-41.3	-45.0	12.5	6.71e-05	0	62	0	61865984	53	5776
2026-01-24 01:51:04.35	332.34	16.43	-41.4	-45.3	12.2	1.86e-04	0	61	0	63963136	53	5971
2026-01-24 01:51:05.36	332.13	16.47	-41.5	-45.6	12.0	2.39e-04	0	62	0	65011712	53	6148
2026-01-24 01:51:06.36	331.92	16.50	-41.5	-45.6	11.9	3.42e-04	0	61	0	67108864	53	6176
2026-01-24 01:51:07.37	331.70	16.54	-41.6	-45.7	11.9	3.32e-04	0	62	0	69206016	53	6206
2026-01-24 01:51:08.38	331.49	16.57	-41.4	-45.3	12.2	2.35e-04	0	61	0	71303168	53	5966
2026-01-24 01:51:09.39	331.28	16.61	-41.3	-45.1	12.6	1.46e-04	0	62	0	73400320	53	5789
2026-01-24 01:51:10.40	331.06	16.64	-41.1	-44.8	12.8	6.02e-05	0	62	0	74448896	53	5615
2026-01-24 01:51:11.41	330.84	16.68	-41.1	-44.7	12.9	5.26e-05	0	61	0	76546048	53	5586
2026-01-24 01:51:12.42	330.63	16.71	-41.1	-44.6	13.0	5.03e-05	0	62	0	78643200	53	5509
2026-01-24 01:51:13.43	330.41	16.74	-41.2	-44.8	12.9	5.26e-05	0	61	0	80740352	53	5613
2026-01-24 01:51:14.44	330.19	16.78	-41.2	-44.8	12.8	6.56e-05	0	61	0	82837504	53	5618
2026-01-24 01:51:15.45	329.98	16.81	-41.1	-44.7	12.9	5.34e-05	0	62	0	84934656	53	5552
2026-01-24 01:51:16.46	329.76	16.84	-40.8	-44.1	13.5	2.36e-05	0	61	0	85983232	53	5208
2026-01-24 01:51:17.47	329.54	16.88	-40.7	-43.9	13.7	9.90e-06	0	62	0	88080384	53	5077
2026-01-24 01:51:18.48	329.32	16.91	-40.6	-43.7	13.9	3.80e-06	0	62	0	90177536	53	4967
2026-01-24 01:51:19.49	329.10	16.94	-40.6	-43.7	14.1	7.00e-07	0	61	0	92274688	53	4941
2026-01-24 01:51:20.50	328.88	16.97	-40.6	-43.7	13.9	5.30e-06	0	61	0	94371840	53	4966
2026-01-24 01:51:21.51	328.66	17.00	-40.6	-43.7	14.0	7.00e-07	0	61	0	95420416	53	4964
2026-01-24 01:51:22.52	328.44	17.03	-40.8	-43.9	13.7	3.00e-06	0	62	0	97517568	53	5092
2026-01-24 01:51:23.53	328.22	17.06	-41.0	-44.3	13.4	1.22e-05	0	62	0	99614720	53	5314
2026-01-24 01:51:24.54	328.00	17.09	-41.0	-44.4	13.3	2.05e-05	0	61	0	101711872	53	5352
2026-01-24 01:51:25.55	327.77	17.12	-41.1	-44.5	13.2	1.44e-05	0	61	0	103809024	53	5422
2026-01-24 01:51:26.56	327.55	17.15	-41.1	-44.6	13.1	2.82e-05	0	62	0	104857600	53	5497
2026-01-24 01:51:27.57	327.33	17.17	-41.1	-44.5	13.2	3.28e-05	0	62	0	106954752	53	5434
2026-01-24 01:51:28.57	327.11	17.20	-41.1	-44.6	13.1	1.83e-05	0	61	0	109051904	53	5472
2026-01-24 01:51:29.58	326.88	17.23	-41.1	-44.5	13.2	2.05e-05	0	61	0	111149056	53	5423
2026-01-24 01:51:30.59	326.66	17.26	-41.1	-44.5	13.2	1.83e-05	0	61	0	113246208	53	5446
2026-01-24 01:51:31.60	326.43	17.28	-41.2	-44.7	13.0	2.59e-05	0	61	0	114294784	53	5571
2026-01-24 01:51:32.61	326.21	17.31	-41.2	-44.7	12.9	4.27e-05	0	62	0	116391936	53	5576
2026-01-24 01:51:33.62	325.98	17.33	-41.4	-45.1	12.6	6.33e-05	0	61	0	118489088	53	5789
2026-01-24 01:51:34.63	325.76	17.36	-41.4	-45.1	12.5	9.07e-05	0	61	0	120586240	53	5854
2026-01-24 01:51:35.64	325.53	17.38	-41.5	-45.4	12.3	1.26e-04	0	61	0	122683392	53	6012
2026-01-24 01:51:36.65	325.31	17.41	-41.4	-45.2	12.4	1.33e-04	0	61	0	123731968	53	5894
2026-01-24 01:51:37.66	325.08	17.43	-41.3	-45.0	12.7	7.32e-05	0	61	0	125829120	53	5726
2026-01-24 01:51:38.67	324.85	17.45	-41.3	-44.8	12.8	6.94e-05	0	61	0	127926272	53	5652
2026-01-24 01:51:39.68	324.62	17.48	-41.3	-44.8	12.9	4.95e-05	0	62	0	130023424	53	5648
2026-01-24 01:51:40.69	324.40	17.50	-41.3	-44.9	12.8	7.01e-05	0	61	0	132120576	53	5686
2026-01-24 01:51:41.70	324.17	17.52	-41.3	-45.0	12.7	5.49e-05	0	62	0	133169152	53	5745
2026-01-24 01:51:42.71	323.94	17.54	-41.5	-45.2	12.5	1.02e-04	0	61	0	135266304	53	5915
2026-01-24 01:51:43.72	323.71	17.56	-41.5	-45.4	12.3	1.50e-04	0	61	0	137363456	53	6022
2026-01-24 01:51:44.73	323.48	17.58	-41.6	-45.6	12.1	1.90e-04	0	62	0	139460608	53	6175
2026-01-24 01:51:45.74	323.25	17.61	-41.6	-45.5	12.1	3.29e-04	0	61	0	141557760	53	6131
2026-01-24 01:51:46.74	323.02	17.62	-41.6	-45.5	12.1	2.44e-04	0	61	0	142606336	53	6088
2026-01-24 01:51:47.76	322.79	17.64	-41.4	-45.2	12.5	1.48e-04	0	62	0	144703488	53	5879
2026-01-24 01:51:48.77	322.56	17.66	-41.2	-44.8	12.9	8.39e-05	0	62	0	146800640	53	5617
2026-01-24 01:51:49.78	322.33	17.68	-41.2	-44.6	13.1	2.74e-05	0	61	0	148897792	53	5523
2026-01-24 01:51:50.78	322.10	17.70	-41.1	-44.6	13.2	1.90e-05	0	62	0	150994944	53	5480
2026-01-24 01:51:51.79	321.87	17.72	-41.2	-44.7	13.0	2.67e-05	0	62	0	153092096	53	5558
2026-01-24 01:51:52.80	321.64	17.73	-41.3	-44.9	12.8	4.19e-05	0	62	0	154140672	53	5681
2026-01-24 01:51:53.81	321.40	17.75	-41.4	-45.1	12.6	6.94e-05	0	61	0	156237824	53	5804
2026-01-24 01:51:54.82	321.17	17.77	-41.4	-45.1	12.5	9.61e-05	0	61	0	158334976	53	5846
2026-01-24 01:51:55.83	320.94	17.78	-41.4	-45.1	12.6	1.10e-04	0	61	0	160432128	53	5840
2026-01-24 01:51:56.84	320.71	17.80	-41.5	-45.3	12.4	1.22e-04	0	62	0	162529280	53	5930
2026-01-24 01:51:57.85	320.47	17.81	-41.3	-45.0	12.7	6.48e-05	0	61	0	163577856	53	5749
2026-01-24 01:51:58.86	320.24	17.83	-41.3	-44.9	12.7	7.40e-05	0	61	0	165675008	53	5711
2026-01-24 01:51:59.86	320.01	17.84	-41.3	-44.9	12.8	5.26e-05	0	61	0	167772160	53	5698
2026-01-24 01:52:00.87	319.78	17.85	-41.3	-44.9	12.7	6.17e-05	0	61	0	169869312	53	5719
2026-01-24 01:52:01.88	319.54	17.86	-41.3	-45.1	12.6	7.32e-05	0	62	0	171966464	53	5818
2026-01-24 01:52:02.89	319.31	17.88	-41.5	-45.4	12.2	1.99e-04	0	61	0	173015040	53	6045
2026-01-24 01:52:03.90	319.07	17.89	-41.7	-45.8	11.8	3.19e-04	0	61	0	175112192	53	6326
2026-01-24 01:52:04.91	318.84	17.90	-41.9	-46.3	11.3	6.62e-04	0	62	0	177209344	54	6332
2026-01-24 01:52:05.92	318.60	17.91	-42.1	-46.8	10.8	1.78e-03	0	62	0	179306496	54	6684
2026-01-24 01:52:06.93	318.37	17.92	-42.1	-46.9	10.8	2.60e-03	0	61	0	181403648	54	6729
2026-01-24 01:52:07.94	318.13	17.93	-42.1	-46.8	10.8	3.02e-03	0	61	0	182452224	55	6327
2026-01-24 01:52:08.94	317.90	17.94	-42.1	-46.8	10.8	2.55e-03	0	61	0	184549376	55	6332
2026-01-24 01:52:09.95	317.67	17.95	-42.0	-46.5	11.0	2.14e-03	0	61	0	186646528	55	6131
2026-01-24 01:52:10.96	317.43	17.96	-42.0	-46.6	11.1	1.39e-03	0	62	0	188743680	55	6156
2026-01-24 01:52:11.97	317.20	17.96	-41.9	-46.4	11.3	1.13e-03	0	62	0	190840832	55	6004
2026-01-24 01:52:12.98	316.96	17.97	-41.7	-45.9	11.7	7.81e-04	0	61	0	191889408	55	5720
2026-01-24 01:52:13.99	316.72	17.98	-41.7	-46.0	11.7	6.26e-04	0	61	0	193986560	55	5739
2026-01-24 01:52:15.00	316.49	17.98	-41.7	-45.9	11.7	5.89e-04	0	62	0	196083712	55	5718
2026-01-24 01:52:16.01	316.25	17.99	-41.7	-45.9	11.7	4.53e-04	0	61	0	198180864	55	5703
2026-01-24 01:52:17.02	316.02	18.00	-41.6	-45.6	12.0	3.52e-04	0	61	0	200278016	55	5506
2026-01-24 01:52:18.03	315.78	18.00	-41.6	-45.8	11.9	2.87e-04	0	62	0	201326592	55	5594
2026-01-24 01:52:19.04	315.54	18.01	-41.6	-45.6	12.0	3.96e-04	0	61	0	203423744	55	5525
2026-01-24 01:52:20.04	315.31	18.01	-41.6	-45.6	12.0	3.32e-04	0	61	0	205520896	55	5527
2026-01-24 01:52:21.05	315.07	18.01	-41.6	-45.6	12.1	2.74e-04	0	61	0	207618048	55	5476
2026-01-24 01:52:22.06	314.84	18.01	-41.4	-45.3	12.4	1.70e-04	0	61	0	209715200	54	5610
2026-01-24 01:52:23.07	314.60	18.02	-41.2	-44.9	12.7	7.85e-05	0	61	0	210763776	54	5391
2026-01-24 01:52:24.08	314.36	18.02	-41.1	-44.7	13.0	5.34e-05	0	62	0	212860928	54	5271
2026-01-24 01:52:25.09	314.13	18.02	-41.2	-44.7	13.0	3.43e-05	0	61	0	214958080	54	5266
2026-01-24 01:52:26.10	313.89	18.02	-41.0	-44.5	13.2	2.97e-05	0	61	0	217055232	54	5115
2026-01-24 01:52:27.11	313.66	18.02	-41.1	-44.7	13.0	3.28e-05	0	62	0	219152384	53	5546
2026-01-24 01:52:28.12	313.42	18.02	-41.2	-44.8	12.8	3.35e-05	0	62	0	220200960	53	5645
2026-01-24 01:52:29.13	313.18	18.02	-41.3	-45.1	12.6	7.40e-05	0	61	0	222298112	53	5798
2026-01-24 01:52:30.14	312.95	18.02	-41.4	-45.2	12.5	9.76e-05	0	62	0	224395264	53	5875
2026-01-24 01:52:31.15	312.71	18.02	-41.5	-45.5	12.2	1.67e-04	0	62	0	226492416	53	6104
2026-01-24 01:52:32.16	312.47	18.02	-41.7	-45.8	11.9	3.48e-04	0	61	0	228589568	53	6315
2026-01-24 01:52:33.17	312.24	18.01	-41.8	-46.0	11.7	4.81e-04	0	62	0	229638144	54	6080
2026-01-24 01:52:34.18	312.00	18.01	-41.8	-46.1	11.6	6.19e-04	0	61	0	231735296	54	6196
2026-01-24 01:52:35.19	311.76	18.01	-41.7	-45.8	11.8	4.44e-04	0	61	0	233832448	54	5977
2026-01-24 01:52:36.20	311.53	18.00	-41.6	-45.7	12.0	3.87e-04	0	61	0	235929600	54	5864
2026-01-24 01:52:37.20	311.29	18.00	-41.6	-45.5	12.1	4.07e-04	0	61	0	238026752	54	5782
2026-01-24 01:52:38.21	311.06	17.99	-41.5	-45.4	12.3	1.94e-04	0	61	0	239075328	54	5701
2026-01-24 01:52:39.22	310.82	17.99	-41.5	-45.3	12.4	1.74e-04	0	61	0	241172480	54	5609
2026-01-24 01:52:40.23	310.59	17.98	-41.4	-45.2	12.6	1.46e-04	0	61	0	243269632	54	5537
2026-01-24 01:52:41.24	310.35	17.97	-41.4	-45.1	12.6	9.00e-05	0	61	0	245366784	54	5492
2026-01-24 01:52:42.25	310.11	17.97	-41.4	-45.2	12.5	9.46e-05	0	61	0	247463936	54	5556
2026-01-24 01:52:43.26	309.88	17.96	-41.5	-45.5	12.2	1.53e-04	0	61	0	249561088	54	5741
2026-01-24 01:52:44.27	309.64	17.95	-41.7	-46.0	11.7	3.74e-04	0	61	0	250609664	54	6071
2026-01-24 01:52:45.28	309.41	17.94	-41.9	-46.3	11.4	1.10e-03	0	62	0	252706816	54	6299
2026-01-24 01:52:46.29	309.17	17.93	-42.1	-46.8	10.8	1.75e-03	0	62	0	254803968	54	6718
2026-01-24 01:52:47.30	308.94	17.92	-42.2	-46.9	10.7	2.88e-03	0	61	0	256901120	54	6788
2026-01-24 01:52:48.31	308.70	17.91	-42.2	-46.9	10.7	3.12e-03	0	61	0	258998272	55	6394
2026-01-24 01:52:49.32	308.47	17.90	-42.2	-47.1	10.6	3.20e-03	0	61	0	260046848	55	6518
2026-01-24 01:52:50.33	308.23	17.89	-42.2	-46.9	10.7	3.70e-03	0	61	0	262144000	55	6385
2026-01-24 01:52:51.33	308.00	17.88	-42.0	-46.5	11.1	2.23e-03	0	61	0	264241152	55	6114
2026-01-24 01:52:52.34	307.77	17.87	-41.8	-46.1	11.6	1.04e-03	0	61	0	266338304	55	5790
2026-01-24 01:52:53.36	307.53	17.85	-41.7	-45.8	11.8	5.79e-04	0	62	0	268435456	55	5632
2026-01-24 01:52:54.36	307.30	17.84	-41.5	-45.4	12.2	3.57e-04	0	61	0	269484032	55	5389
2026-01-24 01:52:55.37	307.06	17.83	-41.4	-45.2	12.4	1.35e-04	0	61	0	271581184	54	5581
2026-01-24 01:52:56.38	306.83	17.81	-41.4	-45.3	12.4	1.04e-04	0	61	0	273678336	54	5596
2026-01-24 01:52:57.39	306.60	17.80	-41.4	-45.2	12.4	1.14e-04	0	61	0	275775488	54	5591
2026-01-24 01:52:58.40	306.36	17.78	-41.3	-45.0	12.7	9.91e-05	0	61	0	277872640	54	5408
2026-01-24 01:52:59.41	306.13	17.77	-41.3	-45.1	12.6	9.07e-05	0	62	0	278921216	54	5475
2026-01-24 01:53:00.42	305.90	17.75	-41.3	-44.9	12.7	8.08e-05	0	61	0	281018368	54	5399
2026-01-24 01:53:01.43	305.67	17.74	-41.2	-44.7	13.0	4.27e-05	0	61	0	283115520	54	5275
2026-01-24 01:53:02.44	305.44	17.72	-41.2	-44.8	13.0	3.43e-05	0	61	0	285212672	54	5293
2026-01-24 01:53:03.45	305.20	17.70	-41.2	-44.8	12.9	4.57e-05	0	61	0	287309824	54	5319
2026-01-24 01:53:04.45	304.97	17.68	-41.3	-44.9	12.8	6.33e-05	0	62	0	288358400	54	5358
2026-01-24 01:53:05.46	304.74	17.67	-41.3	-45.0	12.7	6.71e-05	0	61	0	290455552	54	5459
2026-01-24 01:53:06.47	304.51	17.65	-41.6	-45.3	12.4	8.01e-05	0	61	0	292552704	54	5624
2026-01-24 01:53:07.48	304.28	17.63	-41.4	-45.0	12.7	7.17e-05	0	61	0	294649856	54	5429
2026-01-24 01:53:08.49	304.05	17.61	-41.4	-44.9	12.9	5.56e-05	0	61	0	296747008	54	5349
2026-01-24 01:53:09.50	303.82	17.59	-41.2	-44.6	13.2	4.19e-05	0	61	0	297795584	54	5217
2026-01-24 01:53:10.51	303.59	17.57	-41.2	-44.6	13.2	2.89e-05	0	61	0	299892736	54	5165
2026-01-24 01:53:11.52	303.36	17.55	-40.9	-44.1	13.6	1.14e-05	0	61	0	301989888	53	5182
2026-01-24 01:53:12.53	303.13	17.52	-40.9	-44.0	13.8	8.30e-06	0	61	0	304087040	53	5118
2026-01-24 01:53:13.54	302.90	17.50	-40.8	-43.9	13.8	3.00e-06	0	61	0	306184192	53	5098
2026-01-24 01:53:14.55	302.68	17.48	-40.8	-43.9	13.8	3.80e-06	0	61	0	307232768	53	5077
2026-01-24 01:53:15.56	302.45	17.46	-40.9	-44.0	13.8	5.30e-06	0	61	0	309329920	53	5124
2026-01-24 01:53:16.57	302.22	17.43	-40.9	-44.0	13.8	6.10e-06	0	61	0	311427072	53	5115
2026-01-24 01:53:17.58	301.99	17.41	-40.9	-44.0	13.8	5.30e-06	0	62	0	313524224	53	5113
2026-01-24 01:53:18.59	301.76	17.39	-40.9	-44.0	13.7	5.30e-06	0	61	0	315621376	53	5133
2026-01-24 01:53:19.60	301.54	17.36	-41.0	-44.2	13.5	6.80e-06	0	61	0	316669952	53	5275
2026-01-24 01:53:20.61	301.31	17.34	-41.0	-44.2	13.5	6.10e-06	0	62	0	318767104	53	5274
2026-01-24 01:53:21.62	301.09	17.31	-41.0	-44.3	13.4	6.80e-06	0	61	0	320864256	53	5313
2026-01-24 01:53:22.62	300.86	17.28	-41.1	-44.5	13.2	1.60e-05	0	61	0	322961408	53	5458
2026-01-24 01:53:23.63	300.64	17.26	-41.2	-44.6	13.1	2.89e-05	0	62	0	325058560	53	5493
2026-01-24 01:53:24.64	300.41	17.23	-41.2	-44.7	13.0	3.35e-05	0	61	0	327155712	53	5565
2026-01-24 01:53:25.65	300.19	17.20	-41.4	-45.0	12.8	4.95e-05	0	62	0	328204288	53	5729
2026-01-24 01:53:26.66	299.96	17.18	-41.3	-44.9	12.8	6.94e-05	0	61	0	330301440	53	5702
2026-01-24 01:53:27.67	299.74	17.15	-41.3	-44.9	12.8	8.85e-05	0	62	0	332398592	53	5709
2026-01-24 01:53:28.68	299.52	17.12	-41.4	-45.1	12.6	8.39e-05	0	61	0	334495744	53	5816
2026-01-24 01:53:29.69	299.29	17.09	-41.4	-45.1	12.6	1.20e-04	0	61	0	336592896	53	5839
2026-01-24 01:53:30.70	299.07	17.06	-41.4	-45.1	12.6	6.79e-05	0	62	0	337641472	53	5826
2026-01-24 01:53:31.71	298.85	17.03	-41.5	-45.2	12.5	1.15e-04	0	62	0	339738624	53	5865
2026-01-24 01:53:32.72	298.63	17.00	-41.5	-45.2	12.5	1.14e-04	0	62	0	341835776	53	5902
2026-01-24 01:53:33.73	298.41	16.97	-41.6	-45.4	12.3	1.94e-04	0	61	0	343932928	53	6052
2026-01-24 01:53:34.74	298.19	16.94	-41.7	-45.5	12.2	2.58e-04	0	61	0	346030080	53	6105
2026-01-24 01:53:35.75	297.97	16.91	-41.9	-46.0	11.6	3.26e-04	0	61	0	347078656	54	6090
2026-01-24 01:53:36.76	297.75	16.88	-41.8	-45.7	11.9	4.49e-04	0	61	0	349175808	54	5920
2026-01-24 01:53:37.77	297.53	16.85	-41.7	-45.6	12.0	3.26e-04	0	62	0	351272960	54	5837
2026-01-24 01:53:38.77	297.31	16.81	-41.6	-45.4	12.2	2.27e-04	0	61	0	353370112	54	5712
2026-01-24 01:53:39.78	297.09	16.78	-41.8	-45.7	11.9	3.47e-04	0	61	0	355467264	54	5908
2026-01-24 01:53:40.79	296.88	16.75	-41.7	-45.6	12.0	2.82e-04	0	62	0	356515840	54	5827
2026-01-24 01:53:41.80	296.66	16.71	-41.7	-45.7	11.9	2.46e-04	0	61	0	358612992	54	5879
2026-01-24 01:53:42.81	296.44	16.68	-41.8	-45.8	11.9	3.47e-04	0	61	0	360710144	54	5929
2026-01-24 01:53:43.82	296.23	16.65	-41.7	-45.5	12.1	3.30e-04	0	62	0	362807296	54	5785
2026-01-24 01:53:44.83	296.01	16.61	-41.7	-45.6	12.0	2.37e-04	0	62	0	364904448	54	5835
2026-01-24 01:53:45.84	295.80	16.58	-41.6	-45.4	12.2	2.44e-04	0	62	0	365953024	54	5704
2026-01-24 01:53:46.85	295.58	16.54	-41.6	-45.4	12.2	1.98e-04	0	61	0	368050176	54	5680
2026-01-24 01:53:47.86	295.37	16.51	-41.6	-45.3	12.3	1.48e-04	0	61	0	370147328	54	5633
2026-01-24 01:53:48.87	295.15	16.47	-41.7	-45.7	12.0	1.96e-04	0	61	0	372244480	54	5860
2026-01-24 01:53:49.88	294.94	16.43	-41.7	-45.6	12.0	3.52e-04	0	62	0	374341632	54	5833
2026-01-24 01:53:50.89	294.73	16.40	-41.8	-45.9	11.6	5.26e-04	0	61	0	375390208	54	6054
2026-01-24 01:53:51.90	294.51	16.36	-41.9	-46.1	11.4	7.15e-04	0	61	0	377487360	54	6182
2026-01-24 01:53:52.91	294.30	16.32	-41.9	-46.0	11.5	8.29e-04	0	61	0	379584512	54	6129
2026-01-24 01:53:53.92	294.09	16.28	-41.9	-46.0	11.5	7.06e-04	0	61	0	381681664	54	6120
2026-01-24 01:53:54.93	293.88	16.25	-41.8	-45.8	11.8	5.16e-04	0	61	0	383778816	54	5969
2026-01-24 01:53:55.94	293.67	16.21	-41.8	-45.8	11.7	5.88e-04	0	61	0	384827392	54	5986
2026-01-24 01:53:56.95	293.46	16.17	-41.7	-45.6	11.9	4.52e-04	0	62	0	386924544	54	5843
2026-01-24 01:53:57.95	293.26	16.13	-41.6	-45.5	12.1	3.99e-04	0	61	0	389021696	54	5762
2026-01-24 01:53:58.96	293.05	16.09	-41.7	-45.7	11.9	4.09e-04	0	61	0	391118848	54	5887
2026-01-24 01:53:59.97	292.84	16.05	-41.7	-45.7	11.8	4.59e-04	0	62	0	393216000	54	5905
2026-01-24 01:54:00.98	292.63	16.01	-41.6	-45.5	12.0	3.23e-04	0	61	0	395313152	54	5749
2026-01-24 01:54:01.99	292.42	15.97	-41.5	-45.2	12.3	2.16e-04	0	61	0	396361728	54	5587
2026-01-24 01:54:03.00	292.22	15.93	-41.5	-45.3	12.3	1.83e-04	0	61	0	398458880	54	5608
2026-01-24 01:54:04.01	292.01	15.89	-41.4	-45.2	12.3	2.17e-04	0	61	0	400556032	54	5547
2026-01-24 01:54:05.02	291.81	15.85	-41.5	-45.4	12.1	1.88e-04	0	61	0	402653184	54	5712
2026-01-24 01:54:06.03	291.60	15.81	-41.4	-45.2	12.3	1.75e-04	0	61	0	404750336	54	5562
2026-01-24 01:54:07.04	291.40	15.76	-41.3	-45.0	12.5	1.50e-04	0	61	0	405798912	54	5460
2026-01-24 01:54:08.05	291.20	15.72	-41.3	-44.9	12.6	1.50e-04	0	62	0	407896064	54	5365
2026-01-24 01:54:09.06	290.99	15.68	-41.2	-44.7	12.8	8.31e-05	0	61	0	409993216	54	5277
2026-01-24 01:54:10.07	290.79	15.64	-41.1	-44.5	13.0	5.56e-05	0	61	0	412090368	54	5147
2026-01-24 01:54:11.08	290.59	15.59	-41.0	-44.3	13.2	4.04e-05	0	62	0	414187520	54	5039
2026-01-24 01:54:12.09	290.39	15.55	-41.1	-44.5	13.0	3.58e-05	0	61	0	415236096	54	5115
2026-01-24 01:54:13.10	290.19	15.51	-40.9	-44.2	13.4	1.98e-05	0	62	0	417333248	53	5239
2026-01-24 01:54:14.11	289.99	15.46	-41.0	-44.4	13.1	1.83e-05	0	62	0	419430400	53	5363
2026-01-24 01:54:15.12	289.79	15.42	-41.0	-44.4	13.1	2.13e-05	0	61	0	421527552	53	5398
2026-01-24 01:54:16.13	289.59	15.37	-41.1	-44.6	12.9	3.28e-05	0	62	0	423624704	53	5500
2026-01-24 01:54:17.14	289.39	15.33	-41.1	-44.6	12.9	3.58e-05	0	61	0	424673280	53	5474
2026-01-24 01:54:18.15	289.20	15.28	-41.1	-44.7	12.8	5.87e-05	0	62	0	426770432	53	5586
2026-01-24 01:54:19.16	289.00	15.24	-41.3	-45.2	12.2	1.92e-04	0	62	0	428867584	53	5859
2026-01-24 01:54:20.17	288.80	15.19	-41.4	-45.4	12.1	2.23e-04	0	62	0	430964736	53	5999
2026-01-24 01:54:21.18	288.61	15.15	-41.7	-45.9	11.5	4.38e-04	0	62	0	433061888	53	6402
2026-01-24 01:54:22.18	288.41	15.10	-41.8	-46.2	11.2	1.10e-03	0	62	0	434110464	54	6244
2026-01-24 01:54:23.19	288.22	15.06	-41.9	-46.4	10.9	1.66e-03	0	61	0	436207616	54	6416
2026-01-24 01:54:24.20	288.03	15.01	-41.9	-46.4	11.0	1.43e-03	0	61	0	438304768	54	6358
2026-01-24 01:54:25.21	287.83	14.96	-41.9	-46.4	11.0	2.24e-03	0	62	0	440401920	54	6349
2026-01-24 01:54:26.22	287.64	14.92	-41.7	-45.8	11.5	1.44e-03	0	62	0	442499072	54	5984
2026-01-24 01:54:27.23	287.45	14.87	-41.7	-46.0	11.3	9.15e-04	0	61	0	443547648	54	6107
2026-01-24 01:54:28.24	287.26	14.82	-41.7	-46.0	11.3	1.09e-03	0	62	0	445644800	54	6080
2026-01-24 01:54:29.25	287.07	14.77	-41.7	-46.0	11.4	8.96e-04	0	61	0	447741952	54	6062
2026-01-24 01:54:30.26	286.87	14.73	-41.7	-46.1	11.2	1.02e-03	0	61	0	449839104	54	6138
2026-01-24 01:54:31.27	286.69	14.68	-41.7	-46.0	11.3	1.27e-03	0	61	0	451936256	54	6084
2026-01-24 01:54:32.28	286.50	14.63	-41.7	-46.2	11.0	1.80e-03	0	61	0	452984832	54	6219
2026-01-24 01:54:33.29	286.31	14.58	-41.8	-46.2	11.0	1.69e-03	0	61	0	455081984	54	6212
2026-01-24 01:54:34.30	286.12	14.53	-41.8	-46.2	11.0	1.69e-03	0	61	0	457179136	54	6256
2026-01-24 01:54:35.31	285.93	14.48	-41.8	-46.2	11.1	1.92e-03	0	61	0	459276288	54	6219
2026-01-24 01:54:36.32	285.75	14.44	-41.7	-46.0	11.3	1.56e-03	0	62	0	461373440	54	6086
2026-01-24 01:54:37.33	285.56	14.39	-41.5	-45.6	11.6	9.96e-04	0	62	0	463470592	54	5851
2026-01-24 01:54:38.34	285.38	14.34	-41.6	-45.8	11.5	8.65e-04	0	61	0	464519168	54	5946
2026-01-24 01:54:39.35	285.19	14.29	-41.6	-45.8	11.4	8.70e-04	0	62	0	466616320	54	5954
2026-01-24 01:54:40.35	285.01	14.24	-41.5	-45.6	11.6	7.07e-04	0	62	0	468713472	54	5839
2026-01-24 01:54:41.36	284.83	14.19	-41.4	-45.5	11.8	6.65e-04	0	61	0	470810624	54	5743
2026-01-24 01:54:42.37	284.64	14.14	-41.5	-45.6	11.7	7.01e-04	0	62	0	471859200	54	5801
2026-01-24 01:54:43.38	284.46	14.09	-41.5	-45.6	11.6	7.86e-04	0	62	0	473956352	54	5815
2026-01-24 01:54:44.39	284.28	14.04	-41.4	-45.5	11.7	5.55e-04	0	61	0	476053504	54	5752
2026-01-24 01:54:45.40	284.10	13.99	-41.4	-45.3	11.9	4.36e-04	0	62	0	478150656	54	5615
2026-01-24 01:54:46.41	283.92	13.93	-41.2	-45.0	12.3	1.88e-04	0	61	0	480247808	54	5414
2026-01-24 01:54:47.42	283.74	13.88	-41.2	-45.0	12.3	1.72e-04	0	62	0	481296384	54	5419
2026-01-24 01:54:48.43	283.56	13.83	-41.2	-45.0	12.2	2.18e-04	0	62	0	483393536	54	5456
2026-01-24 01:54:49.44	283.38	13.78	-41.3	-45.3	11.9	2.75e-04	0	62	0	485490688	54	5593
2026-01-24 01:54:50.45	283.20	13.73	-41.5	-45.6	11.6	4.36e-04	0	62	0	487587840	54	5801
2026-01-24 01:54:51.46	283.03	13.68	-41.5	-45.6	11.6	6.44e-04	0	61	0	489684992	54	5829
2026-01-24 01:54:52.47	282.85	13.63	-41.6	-45.8	11.4	8.49e-04	0	62	0	491782144	54	5937
2026-01-24 01:54:53.48	282.67	13.57	-41.6	-45.8	11.3	9.09e-04	0	61	0	492830720	54	5975
2026-01-24 01:54:54.49	282.50	13.52	-41.6	-46.0	11.2	1.13e-03	0	61	0	494927872	54	6067
2026-01-24 01:54:55.50	282.32	13.47	-41.5	-45.7	11.5	1.15e-03	0	61	0	497025024	54	5906
2026-01-24 01:54:56.51	282.15	13.42	-41.5	-45.7	11.4	1.10e-03	0	61	0	499122176	54	5916
2026-01-24 01:54:57.52	281.98	13.36	-41.5	-45.7	11.5	7.97e-04	0	62	0	501219328	54	5900
2026-01-24 01:54:58.53	281.80	13.31	-41.6	-45.9	11.3	9.71e-04	0	61	0	502267904	54	6059
2026-01-24 01:54:59.54	281.63	13.26	-41.5	-45.6	11.6	9.15e-04	0	61	0	504365056	54	5841
2026-01-24 01:55:00.55	281.46	13.20	-41.5	-45.6	11.6	7.38e-04	0	62	0	506462208	54	5809
2026-01-24 01:55:01.56	281.29	13.15	-41.6	-45.8	11.4	8.72e-04	0	62	0	508559360	54	5939
2026-01-24 01:55:02.57	281.12	13.10	-41.5	-45.7	11.5	8.31e-04	0	61	0	510656512	54	5866
2026-01-24 01:55:03.58	280.95	13.04	-41.7	-46.0	11.1	1.15e-03	0	62	0	511705088	54	6101
2026-01-24 01:55:04.59	280.78	12.99	-41.9	-46.6	10.5	2.89e-03	0	61	0	513802240	54	6546
2026-01-24 01:55:05.60	280.61	12.94	-42.1	-47.1	10.0	5.80e-03	0	61	0	515899392	54	6915
2026-01-24 01:55:06.61	280.44	12.88	-42.3	-47.6	9.5	1.17e-02	0	61	0	517996544	55	6921
2026-01-24 01:55:07.62	280.28	12.83	-42.5	-48.5	8.6	2.46e-02	0	61	0	520093696	55	7645
2026-01-24 01:55:08.63	280.11	12.77	-42.9	-49.3	7.9	6.33e-02	0	61	0	521142272	56	7986
2026-01-24 01:55:09.64	279.95	12.72	-42.9	-49.5	7.7	6.65e-02	0	61	0	523239424	56	8162
2026-01-24 01:55:10.65	279.78	12.67	-42.9	-49.5	7.6	9.21e-02	0	62	0	525336576	56	8170
2026-01-24 01:55:11.66	279.62	12.61	-42.8	-49.4	7.8	7.94e-02	0	62	0	527433728	56	7992
2026-01-24 01:55:12.67	279.45	12.56	-42.7	-48.8	8.3	6.87e-02	0	61	0	529530880	56	7505
2026-01-24 01:55:13.67	279.29	12.50	-42.7	-48.7	8.4	4.74e-02	0	62	0	530579456	56	7406
2026-01-24 01:55:14.68	279.13	12.45	-42.7	-48.8	8.3	6.29e-02	0	61	0	532676608	56	7467
2026-01-24 01:55:15.69	278.96	12.39	-42.6	-48.5	8.6	4.50e-02	0	61	0	534773760	56	7278
2026-01-24 01:55:16.70	278.80	12.34	-42.6	-48.5	8.5	3.53e-02	0	62	0	536870912	56	7273
2026-01-24 01:55:17.71	278.64	12.28	-42.6	-48.4	8.7	3.68e-02	0	62	0	538968064	56	7183
2026-01-24 01:55:18.72	278.48	12.23	-42.5	-48.2	8.9	3.26e-02	0	62	0	540016640	56	6990
2026-01-24 01:55:19.73	278.32	12.17	-42.4	-47.9	9.3	2.26e-02	0	61	0	542113792	56	6724
2026-01-24 01:55:20.74	278.16	12.12	-42.3	-47.5	9.6	1.30e-02	0	61	0	544210944	56	6469
2026-01-24 01:55:21.75	278.00	12.06	-42.1	-47.1	10.0	9.53e-03	0	62	0	546308096	56	6197
2026-01-24 01:55:22.76	277.85	12.00	-42.0	-46.8	10.3	6.17e-03	0	62	0	548405248	56	5990
2026-01-24 01:55:23.77	277.69	11.95	-41.8	-46.6	10.3	5.35e-03	0	62	0	549453824	55	6167
2026-01-24 01:55:24.78	277.53	11.89	-41.9	-46.7	10.2	5.20e-03	0	62	0	551550976	55	6233
2026-01-24 01:55:25.79	277.38	11.84	-41.9	-46.9	10.0	6.93e-03	0	62	0	553648128	55	6349
2026-01-24 01:55:26.80	277.22	11.78	-41.9	-46.9	10.0	7.15e-03	0	62	0	555745280	55	6396
2026-01-24 01:55:27.81	277.06	11.73	-41.9	-46.9	9.9	8.70e-03	0	62	0	557842432	55	6400
2026-01-24 01:55:28.82	276.91	11.67	-41.9	-47.0	9.8	9.86e-03	0	62	0	559939584	55	6484
2026-01-24 01:55:29.82	276.76	11.61	-41.9	-46.9	9.8	1.08e-02	0	62	0	560988160	55	6420
2026-01-24 01:55:30.83	276.60	11.56	-41.9	-47.0	9.7	1.16e-02	0	62	0	563085312	55	6491
2026-01-24 01:55:31.84	276.45	11.50	-41.8	-46.8	9.9	9.24e-03	0	61	0	565182464	55	6329
2026-01-24 01:55:32.85	276.30	11.45	-41.8	-46.7	10.1	7.83e-03	0	62	0	567279616	55	6233
2026-01-24 01:55:33.86	276.15	11.39	-41.7	-46.6	10.2	6.91e-03	0	61	0	569376768	55	6136
2026-01-24 01:55:34.87	276.00	11.33	-41.7	-46.5	10.1	5.77e-03	0	62	0	570425344	55	6131
2026-01-24 01:55:35.88	275.85	11.28	-41.7	-46.6	10.1	6.02e-03	0	61	0	572522496	55	6163
2026-01-24 01:55:36.89	275.70	11.22	-41.7	-46.7	10.0	7.41e-03	0	61	0	574619648	55	6229
2026-01-24 01:55:37.90	275.55	11.16	-41.6	-46.5	10.1	7.48e-03	0	62	0	576716800	55	6108
2026-01-24 01:55:38.91	275.40	11.11	-41.6	-46.6	10.0	7.24e-03	0	62	0	578813952	55	6155
2026-01-24 01:55:39.92	275.25	11.05	-41.6	-46.6	9.9	7.49e-03	0	62	0	579862528	55	6201
2026-01-24 01:55:40.93	275.11	10.99	-41.7	-46.8	9.7	9.15e-03	0	62	0	581959680	55	6299
2026-01-24 01:55:41.94	274.96	10.94	-41.7	-46.9	9.6	1.13e-02	0	62	0	584056832	55	6385
2026-01-24 01:55:42.95	274.81	10.88	-41.7	-47.1	9.4	1.40e-02	0	61	0	586153984	55	6526
2026-01-24 01:55:43.96	274.67	10.82	-41.7	-47.2	9.2	1.94e-02	0	62	0	588251136	55	6601
2026-01-24 01:55:44.97	274.52	10.76	-41.7	-47.3	9.0	2.24e-02	0	61	0	589299712	55	6714
2026-01-24 01:55:45.98	274.38	10.71	-41.8	-47.5	8.8	2.81e-02	0	62	0	591396864	55	6812
2026-01-24 01:55:46.99	274.23	10.65	-41.7	-47.6	8.7	3.69e-02	0	62	0	593494016	55	6880
2026-01-24 01:55:48.00	274.09	10.59	-41.8	-47.6	8.6	3.84e-02	0	61	0	595591168	55	6922
2026-01-24 01:55:49.00	273.95	10.54	-41.7	-47.6	8.5	3.95e-02	0	62	0	597688320	55	6946
2026-01-24 01:55:50.01	273.81	10.48	-41.7	-47.7	8.5	4.45e-02	0	62	0	598736896	55	6965
2026-01-24 01:55:51.02	273.66	10.42	-41.7	-47.7	8.4	4.58e-02	0	62	0	600834048	55	6971
2026-01-24 01:55:52.03	273.52	10.36	-41.7	-47.9	8.1	5.34e-02	0	61	0	602931200	55	7146
2026-01-24 01:55:53.04	273.38	10.31	-41.7	-47.8	8.2	6.18e-02	0	62	0	605028352	55	7119
2026-01-24 01:55:54.05	273.24	10.25	-41.6	-47.8	8.2	5.20e-02	0	61	0	607125504	55	7065
2026-01-24 01:55:55.06	273.10	10.19	-41.7	-47.9	8.1	6.20e-02	0	62	0	608174080	55	7163
2026-01-24 01:55:56.07	272.96	10.13	-41.7	-48.0	7.9	6.49e-02	0	62	0	610271232	55	7226
2026-01-24 01:55:57.08	272.83	10.08	-41.6	-48.1	7.7	8.02e-02	0	62	0	612368384	55	7354
2026-01-24 01:55:58.09	272.69	10.02	-41.6	-48.1	7.7	8.01e-02	0	61	0	614465536	55	7371
2026-01-24 01:55:59.10	272.55	9.96	-41.5	-48.1	7.6	9.21e-02	0	62	0	616562688	55	7328
2026-01-24 01:56:00.11	272.42	9.90	-41.5	-47.9	7.8	8.30e-02	0	61	0	617611264	54	7585
2026-01-24 01:56:01.12	272.28	9.85	-41.4	-47.8	7.9	7.57e-02	0	62	0	619708416	54	7501
2026-01-24 01:56:02.12	272.14	9.79	-41.3	-47.7	7.9	7.40e-02	0	61	0	621805568	54	7444
2026-01-24 01:56:03.13	272.01	9.73	-41.3	-47.4	8.2	5.97e-02	0	62	0	623902720	54	7191
2026-01-24 01:56:04.14	271.88	9.68	-41.3	-47.5	8.1	6.43e-02	0	61	0	625999872	54	7238
2026-01-24 01:56:05.15	271.74	9.62	-41.2	-47.4	8.1	6.19e-02	0	61	0	628097024	54	7183
2026-01-24 01:56:06.16	271.61	9.56	-41.2	-47.6	7.9	6.46e-02	0	62	0	629145600	54	7316
2026-01-24 01:56:07.17	271.48	9.50	-41.2	-47.5	7.9	7.44e-02	0	61	0	631242752	54	7281
2026-01-24 01:56:08.18	271.34	9.44	-41.2	-47.6	7.8	7.65e-02	0	62	0	633339904	54	7350
2026-01-24 01:56:09.19	271.21	9.39	-41.2	-47.6	7.8	7.97e-02	0	61	0	635437056	54	7345
2026-01-24 01:56:10.20	271.08	9.33	-41.2	-47.8	7.6	9.03e-02	0	62	0	637534208	54	7481
2026-01-24 01:56:11.21	270.95	9.27	-41.2	-47.8	7.6	9.73e-02	0	62	0	638582784	54	7483
2026-01-24 01:56:12.22	270.82	9.21	-41.1	-47.9	7.4	9.99e-02	0	61	0	640679936	54	7571
2026-01-24 01:56:13.23	270.69	9.16	-41.1	-48.0	7.2	1.28e-01	0	62	0	642777088	54	7694
2026-01-24 01:56:14.24	270.56	9.10	-41.1	-48.0	7.2	1.41e-01	0	61	0	644874240	54	7703
2026-01-24 01:56:15.25	270.43	9.04	-41.2	-48.1	7.2	1.50e-01	0	61	0	646971392	54	7773
2026-01-24 01:56:16.25	270.30	8.98	-41.5	-48.6	6.9	2.51e-01	0	61	0	648019968	54	8221
2026-01-24 01:56:17.26	270.18	8.93	-40.2	-52.3	3.9	1.46e+00	0	62	104	649068544	52	14053
2026-01-24 01:56:18.27	270.05	8.87	-41.1	-50.8	4.7	1.27e+00	0	61	0	649068544	53	11247
2026-01-24 01:56:19.28	269.92	8.81	-41.5	-50.0	5.6	4.42e-01	0	62	0	651165696	53	10208
2026-01-24 01:56:20.29	269.80	8.75	-41.3	-49.5	5.8	3.61e-01	0	62	0	653262848	53	9683
2026-01-24 01:56:21.30	269.67	8.69	-41.3	-49.6	5.7	4.19e-01	0	62	0	654311424	53	9823
2026-01-24 01:56:22.31	269.55	8.64	-41.2	-50.0	5.4	4.75e-01	0	61	0	656408576	53	10280
2026-01-24 01:56:23.32	269.42	8.58	-41.2	-50.4	5.1	5.93e-01	0	62	0	658505728	53	10730
2026-01-24 01:56:24.33	269.30	8.52	-41.3	-50.9	4.8	7.05e-01	0	61	0	660602880	53	11336
2026-01-24 01:56:25.34	269.17	8.46	-41.3	-51.0	4.8	7.79e-01	0	62	0	662700032	53	11540
2026-01-24 01:56:26.35	269.05	8.41	-41.1	-51.6	4.4	9.67e-01	0	61	0	663748608	53	12325
2026-01-24 01:56:27.36	268.93	8.35	-40.7	-53.5	3.8	1.49e+00	0	62	104	663748608	53	15271
2026-01-24 01:56:28.37	268.81	8.29	-40.6	-53.4	3.8	1.48e+00	0	62	104	663748608	52	16001
2026-01-24 01:56:29.37	268.69	8.23	-41.0	-54.2	3.8	1.49e+00	0	62	104	663748608	53	16642
2026-01-24 01:56:30.39	268.56	8.18	-40.1	-54.0	3.8	1.49e+00	0	61	104	663748608	51	18124
2026-01-24 01:56:31.40	268.44	8.12	-40.3	-53.7	3.8	1.49e+00	0	62	104	663748608	51	17559
2026-01-24 01:56:32.40	268.32	8.06	-40.3	-53.8	3.8	1.49e+00	0	61	104	663748608	51	17730
2026-01-24 01:56:33.41	268.20	8.00	-40.5	-53.8	3.8	1.49e+00	0	62	104	663748608	51	17768
2026-01-24 01:56:34.42	268.08	7.95	-44.4	-58.8	3.8	1.49e+00	0	62	104	663748608	59	20004
2026-01-24 01:56:35.44	267.96	7.89	-44.6	-59.4	3.8	1.49e+00	0	61	104	663748608	60	20138
2026-01-24 01:56:36.44	267.85	7.83	-44.9	-59.5	3.8	1.49e+00	0	62	104	663748608	60	20532
2026-01-24 01:56:37.45	267.73	7.77	-45.0	-59.6	3.8	1.49e+00	0	62	104	663748608	60	20720
2026-01-24 01:56:38.46	267.61	7.71	-45.1	-59.8	3.8	1.49e+00	0	62	104	663748608	60	21108
2026-01-24 01:56:39.47	267.50	7.66	-45.2	-59.8	3.8	1.49e+00	0	62	104	663748608	60	21158
2026-01-24 01:56:40.48	267.38	7.60	-45.1	-59.8	3.8	1.49e+00	0	62	104	663748608	60	21157
2026-01-24 01:56:41.49	267.26	7.54	-45.2	-59.8	3.8	1.49e+00	0	62	104	663748608	60	21223
2026-01-24 01:56:42.50	267.15	7.48	-45.2	-59.9	3.8	1.49e+00	0	62	104	663748608	60	21340
2026-01-24 01:56:43.52	267.03	7.43	-45.2	-59.9	3.8	1.49e+00	0	62	104	663748608	61	20072
2026-01-24 01:56:44.53	266.92	7.37	-45.2	-59.8	3.8	1.49e+00	0	62	104	663748608	61	19993
2026-01-24 01:56:45.54	266.80	7.31	-45.2	-59.7	3.8	1.49e+00	0	62	104	663748608	61	19830
2026-01-24 01:56:46.55	266.69	7.25	-45.1	-59.7	3.8	1.49e+00	0	62	104	663748608	61	19813
2026-01-24 01:56:47.56	266.58	7.20	-45.1	-59.7	3.8	1.49e+00	0	62	104	663748608	61	19771
2026-01-24 01:56:48.57	266.46	7.14	-45.1	-59.8	3.8	1.49e+00	0	61	104	663748608	61	19844
2026-01-24 01:56:49.58	266.35	7.08	-45.2	-59.8	3.8	1.49e+00	0	62	104	663748608	61	19884
2026-01-24 01:56:50.59	266.24	7.02	-45.1	-59.7	3.8	1.49e+00	0	62	104	663748608	61	19711
2026-01-24 01:56:51.60	266.13	6.97	-45.1	-59.6	3.8	1.49e+00	0	62	104	663748608	61	19609
2026-01-24 01:56:52.61	266.02	6.91	-45.1	-59.7	3.8	1.49e+00	0	62	104	663748608	61	19666
2026-01-24 01:56:53.62	265.91	6.85	-45.1	-59.7	3.8	1.49e+00	0	61	104	663748608	61	19617
2026-01-24 01:56:54.63	265.80	6.80	-45.1	-59.7	3.8	1.49e+00	0	61	104	663748608	61	19656
2026-01-24 01:56:55.64	265.69	6.74	-45.1	-59.7	3.8	1.49e+00	0	62	104	663748608	61	19638
2026-01-24 01:56:56.65	265.58	6.68	-45.1	-59.7	3.8	1.49e+00	0	62	104	663748608	61	19715
2026-01-24 01:56:57.66	265.47	6.62	-45.1	-59.7	3.8	1.49e+00	0	62	104	663748608	61	19648
2026-01-24 01:56:58.67	265.36	6.57	-45.1	-59.7	3.8	1.49e+00	0	61	104	663748608	61	19685
2026-01-24 01:56:59.68	265.25	6.51	-45.1	-59.7	3.8	1.49e+00	0	62	104	663748608	61	19708
2026-01-24 01:57:00.69	265.15	6.45	-45.1	-59.7	3.8	1.49e+00	0	62	104	663748608	61	19640
2026-01-24 01:57:01.70	265.04	6.40	-45.1	-59.7	3.8	1.49e+00	0	62	104	663748608	61	19753
2026-01-24 01:57:02.72	264.93	6.34	-45.1	-59.7	3.8	1.49e+00	0	62	104	663748608	61	19639
2026-01-24 01:57:03.73	264.83	6.28	-45.1	-59.7	3.8	1.49e+00	0	62	104	663748608	61	19627
2026-01-24 01:57:04.74	264.72	6.23	-45.1	-59.6	3.8	1.49e+00	0	62	104	663748608	61	19605
2026-01-24 01:57:05.75	264.61	6.17	-45.1	-59.7	3.8	1.49e+00	0	61	104	663748608	61	19628
2026-01-24 01:57:06.76	264.51	6.11	-45.1	-59.7	3.8	1.49e+00	0	62	104	663748608	61	19653
2026-01-24 01:57:07.77	264.41	6.05	-45.1	-59.7	3.8	1.49e+00	0	62	104	663748608	61	19660
2026-01-24 01:57:08.78	264.30	6.00	-45.1	-59.6	3.8	1.49e+00	0	62	104	663748608	61	19599
2026-01-24 01:57:09.79	264.20	5.94	-45.1	-59.7	3.8	1.49e+00	0	62	104	663748608	61	19618
2026-01-24 01:57:10.80	264.09	5.88	-45.1	-59.7	3.8	1.49e+00	0	62	104	663748608	61	19670
2026-01-24 01:57:11.81	263.99	5.83	-45.1	-59.7	3.8	1.49e+00	0	62	104	663748608	61	19634
2026-01-24 01:57:12.82	263.89	5.77	-45.1	-59.7	3.8	1.49e+00	0	62	104	663748608	61	19652
2026-01-24 01:57:13.83	263.79	5.71	-45.1	-59.6	3.8	1.49e+00	0	61	104	663748608	61	19575
2026-01-24 01:57:14.84	263.69	5.66	-45.1	-59.6	3.8	1.49e+00	0	62	104	663748608	61	19588
2026-01-24 01:57:15.85	263.58	5.60	-45.1	-59.6	3.8	1.49e+00	0	62	104	663748608	61	19572
2026-01-24 01:57:16.86	263.48	5.55	-45.1	-59.7	3.8	1.49e+00	0	61	104	663748608	61	19666
2026-01-24 01:57:17.87	263.38	5.49	-45.1	-59.6	3.8	1.49e+00	0	62	104	663748608	61	19599
2026-01-24 01:57:18.88	263.28	5.43	-45.1	-59.6	3.8	1.49e+00	0	61	104	663748608	61	19577
2026-01-24 01:57:19.89	263.18	5.38	-45.1	-59.6	3.8	1.49e+00	0	62	104	663748608	61	19571
2026-01-24 01:57:20.91	263.08	5.32	-45.1	-59.7	3.8	1.49e+00	0	62	104	663748608	61	19683
2026-01-24 01:57:21.92	262.98	5.26	-45.1	-59.7	3.8	1.49e+00	0	62	104	663748608	61	19635
2026-01-24 01:57:22.93	262.89	5.21	-45.1	-59.6	3.8	1.49e+00	0	62	104	663748608	61	19579
2026-01-24 01:57:23.94	262.79	5.15	-45.1	-59.6	3.8	1.49e+00	0	62	104	663748608	61	19574
2026-01-24 01:57:24.95	262.69	5.09	-45.1	-59.7	3.8	1.49e+00	0	62	104	663748608	61	19615
2026-01-24 01:57:25.96	262.59	5.04	-45.0	-59.6	3.8	1.49e+00	0	62	104	663748608	61	19561
2026-01-24 01:57:26.97	262.50	4.98	-45.1	-59.7	3.8	1.49e+00	0	62	104	663748608	61	19635
2026-01-24 01:57:27.98	262.40	4.93	-45.0	-59.6	3.8	1.49e+00	0	62	104	663748608	61	19501
2026-01-24 01:57:28.99	262.30	4.87	-45.0	-59.6	3.8	1.49e+00	0	62	104	663748608	61	19587
2026-01-24 01:57:30.00	262.21	4.81	-45.0	-59.6	3.8	1.49e+00	0	61	104	663748608	61	19594
2026-01-24 01:57:31.01	262.11	4.76	-45.0	-59.7	3.8	1.49e+00	0	61	104	663748608	61	19646
2026-01-24 01:57:32.02	262.02	4.70	-45.0	-59.6	3.8	1.49e+00	0	62	104	663748608	61	19532
2026-01-24 01:57:33.03	261.92	4.65	-45.0	-59.6	3.8	1.49e+00	0	62	104	663748608	61	19555
2026-01-24 01:57:34.04	261.83	4.59	-45.0	-59.6	3.8	1.49e+00	0	62	104	663748608	61	19543
2026-01-24 01:57:35.05	261.74	4.54	-45.0	-59.6	3.8	1.49e+00	0	61	104	663748608	61	19544
2026-01-24 01:57:36.06	261.64	4.48	-45.1	-59.6	3.8	1.49e+00	0	62	104	663748608	61	19566
2026-01-24 01:57:37.07	261.55	4.42	-45.1	-59.6	3.8	1.49e+00	0	62	104	663748608	61	19551
2026-01-24 01:57:38.08	261.46	4.37	-45.0	-59.6	3.8	1.49e+00	0	62	104	663748608	61	19583
2026-01-24 01:57:39.10	261.36	4.31	-45.0	-59.6	3.8	1.49e+00	0	61	104	663748608	61	19508
2026-01-24 01:57:40.11	261.27	4.26	-45.0	-59.6	3.8	1.49e+00	0	61	104	663748608	61	19567
2026-01-24 01:57:41.12	261.18	4.20	-45.0	-59.7	3.8	1.49e+00	0	61	104	663748608	61	19615
2026-01-24 01:57:42.13	261.09	4.15	-45.1	-59.6	3.8	1.49e+00	0	61	104	663748608	61	19580
2026-01-24 01:57:43.13	261.00	4.09	-45.0	-59.6	3.8	1.49e+00	0	61	104	663748608	61	19607
2026-01-24 01:57:44.15	260.91	4.04	-45.0	-59.6	3.8	1.49e+00	0	61	104	663748608	61	19576
2026-01-24 01:57:45.16	260.82	3.98	-45.0	-59.6	3.8	1.49e+00	0	62	104	663748608	61	19563
2026-01-24 01:57:46.17	260.73	3.92	-45.0	-59.6	3.8	1.49e+00	0	62	104	663748608	61	19580
2026-01-24 01:57:47.18	260.64	3.87	-45.0	-59.6	3.8	1.49e+00	0	62	104	663748608	61	19566
2026-01-24 01:57:48.19	260.55	3.81	-45.0	-59.6	3.8	1.49e+00	0	62	104	663748608	61	19542
2026-01-24 01:57:49.20	260.46	3.76	-45.0	-59.6	3.8	1.49e+00	0	62	104	663748608	61	19557
2026-01-24 01:57:50.21	260.37	3.70	-45.0	-59.6	3.8	1.49e+00	0	61	104	663748608	61	19580
2026-01-24 01:57:51.22	260.28	3.65	-45.0	-59.6	3.8	1.49e+00	0	62	104	663748608	61	19596
2026-01-24 01:57:52.23	260.19	3.59	-45.0	-59.6	3.8	1.49e+00	0	62	104	663748608	61	19581
2026-01-24 01:57:53.24	260.11	3.54	-45.0	-59.6	3.8	1.49e+00	0	62	104	663748608	61	19531
2026-01-24 01:57:54.25	260.02	3.49	-45.0	-59.6	3.8	1.49e+00	0	61	104	663748608	61	19601
2026-01-24 01:57:55.26	259.93	3.43	-45.0	-59.6	3.8	1.49e+00	0	61	104	663748608	61	19521
2026-01-24 01:57:56.27	259.84	3.38	-45.0	-59.6	3.8	1.49e+00	0	62	104	663748608	61	19587
2026-01-24 01:57:57.28	259.76	3.32	-45.0	-59.6	3.8	1.49e+00	0	61	104	663748608	61	19532
2026-01-24 01:57:58.29	259.67	3.27	-45.0	-59.6	3.8	1.49e+00	0	62	104	663748608	61	19571
2026-01-24 01:57:59.30	259.59	3.21	-45.0	-59.6	3.8	1.49e+00	0	62	104	663748608	61	19543
2026-01-24 01:58:00.32	259.50	3.16	-45.0	-59.6	3.8	1.49e+00	0	62	104	663748608	61	19545
2026-01-24 01:58:01.33	259.42	3.10	-45.0	-59.6	3.8	1.49e+00	0	62	104	663748608	61	19509
2026-01-24 01:58:02.34	259.33	3.05	-45.0	-59.6	3.8	1.49e+00	0	62	104	663748608	61	19602
2026-01-24 01:58:03.35	259.25	2.99	-45.0	-59.6	3.8	1.49e+00	0	62	104	663748608	61	19538
2026-01-24 01:58:04.36	259.16	2.94	-45.0	-59.6	3.8	1.49e+00	0	62	104	663748608	61	19565
2026-01-24 01:58:05.37	259.08	2.88	-45.0	-59.6	3.8	1.49e+00	0	62	104	663748608	61	19554
2026-01-24 01:58:06.38	259.00	2.83	-45.0	-59.6	3.8	1.49e+00	0	62	104	663748608	61	19498
2026-01-24 01:58:07.39	258.91	2.78	-45.0	-59.6	3.8	1.49e+00	0	62	104	663748608	61	19520
2026-01-24 01:58:08.40	258.83	2.72	-45.0	-59.6	3.8	1.49e+00	0	62	104	663748608	61	19588
2026-01-24 01:58:09.41	258.75	2.67	-45.0	-59.6	3.8	1.49e+00	0	62	104	663748608	61	19574
2026-01-24 01:58:10.42	258.67	2.61	-45.0	-59.6	3.8	1.49e+00	0	62	104	663748608	61	19590
2026-01-24 01:58:11.43	258.58	2.56	-45.0	-59.6	3.8	1.49e+00	0	62	104	663748608	61	19544
2026-01-24 01:58:12.44	258.50	2.51	-45.0	-59.6	3.8	1.49e+00	0	62	104	663748608	61	19553
2026-01-24 01:58:13.45	258.42	2.45	-45.0	-59.6	3.8	1.49e+00	0	61	104	663748608	61	19538
2026-01-24 01:58:14.46	258.34	2.40	-45.0	-59.6	3.8	1.49e+00	0	62	104	663748608	61	19519
2026-01-24 01:58:15.47	258.26	2.34	-45.0	-59.6	3.8	1.49e+00	0	61	104	663748608	61	19515
2026-01-24 01:58:16.48	258.18	2.29	-45.0	-59.6	3.8	1.49e+00	0	62	104	663748608	61	19498
2026-01-24 01:58:17.49	258.10	2.24	-45.0	-59.6	3.8	1.49e+00	0	62	104	663748608	61	19564
2026-01-24 01:58:18.50	258.02	2.18	-45.0	-59.6	3.8	1.49e+00	0	62	104	663748608	61	19598
2026-01-24 01:58:19.52	257.94	2.13	-45.0	-59.6	3.8	1.49e+00	0	62	104	663748608	61	19514
2026-01-24 01:58:20.53	257.86	2.08	-45.0	-59.6	3.8	1.49e+00	0	62	104	663748608	61	19552
2026-01-24 01:58:21.54	257.78	2.02	-45.0	-59.6	3.8	1.49e+00	0	62	104	663748608	61	19532
2026-01-24 01:58:22.55	257.70	1.97	-45.0	-59.6	3.8	1.49e+00	0	62	104	663748608	61	19565
2026-01-24 01:58:23.56	257.63	1.92	-45.0	-59.6	3.8	1.49e+00	0	62	104	663748608	61	19476

#Closed at: 2026-01-24 01:58:24
#Recorded file [663 MB]: D:/lorett/data/31039_260124_044842.dat