passes_logs/2026/01/24/R2.0S_Moscow/R2.0S_Moscow__20260124_155929_FENGYUN_3E_rec.log

#Pass ID: 20260124_155929_FENGYUN 3E
#Satellite: FENGYUN 3E
#Configuration: FENGYUN 3E
#almurnet v.1.7.20251203
#Start time: 2026-01-24 15:59:29

#Version: 2.2.20231116
#Station: R2.0S_Moscow
#Location: 37.707566 lon 55.798166 lat
#TLE: 1 49008U 21062A   26024.23699167 -.00000179  00000+0 -63840-4 0  9992
#TLE: 2 49008  98.7493  29.2570 0002404 119.1229 241.0188 14.19886095236155

#Time	Az	El	Level	Level2	SNR	BER	BlckErr	Temp	State	Recorded	gain1	gain2
2026-01-24 15:59:29.65	215.64	2.01	-44.5	-55.5	3.8	8.47e-01	0	52	0	0	59	12913
2026-01-24 15:59:30.65	215.72	2.06	-44.5	-55.5	3.8	8.47e-01	0	52	104	0	59	12944
2026-01-24 15:59:31.66	215.80	2.12	-44.5	-55.5	3.8	8.46e-01	0	52	104	0	59	12898
2026-01-24 15:59:32.67	215.89	2.17	-44.5	-55.5	3.8	8.46e-01	0	52	104	0	59	12920
2026-01-24 15:59:33.68	215.97	2.22	-44.5	-55.5	3.8	8.46e-01	0	52	104	0	59	12915
2026-01-24 15:59:34.69	216.06	2.27	-44.5	-55.5	3.8	8.47e-01	0	53	104	0	59	12898
2026-01-24 15:59:35.70	216.14	2.33	-44.5	-55.5	3.8	8.47e-01	0	53	104	0	59	12936
2026-01-24 15:59:36.72	216.23	2.38	-44.5	-55.5	3.8	8.45e-01	0	53	104	0	59	12877
2026-01-24 15:59:37.73	216.31	2.43	-44.5	-55.5	3.8	8.47e-01	0	53	104	0	59	12857
2026-01-24 15:59:38.74	216.40	2.48	-44.5	-55.5	3.8	8.44e-01	0	53	104	0	59	12878
2026-01-24 15:59:39.75	216.48	2.54	-44.5	-55.5	3.8	8.47e-01	0	53	104	0	59	12912
2026-01-24 15:59:40.76	216.57	2.59	-44.5	-55.5	3.8	8.45e-01	0	53	104	0	59	12946
2026-01-24 15:59:41.77	216.66	2.64	-44.5	-55.5	3.8	8.46e-01	0	53	104	0	59	12951
2026-01-24 15:59:42.78	216.74	2.69	-44.5	-55.5	3.8	8.46e-01	0	53	104	0	59	12927
2026-01-24 15:59:43.79	216.83	2.75	-44.5	-55.5	3.8	8.46e-01	0	53	104	0	59	12941
2026-01-24 15:59:44.80	216.92	2.80	-44.5	-55.5	3.8	8.46e-01	0	53	104	0	59	12865
2026-01-24 15:59:45.81	217.00	2.85	-44.5	-55.5	3.8	8.46e-01	0	53	104	0	59	12911
2026-01-24 15:59:46.82	217.09	2.91	-44.5	-55.6	3.8	8.46e-01	0	53	104	0	59	12967
2026-01-24 15:59:47.83	217.18	2.96	-44.5	-55.5	3.8	8.46e-01	0	54	104	0	59	12905
2026-01-24 15:59:48.84	217.27	3.01	-44.5	-55.5	3.8	8.47e-01	0	54	104	0	59	12900
2026-01-24 15:59:49.85	217.36	3.07	-44.5	-55.5	3.8	8.46e-01	0	54	104	0	59	12902
2026-01-24 15:59:50.86	217.45	3.12	-44.5	-55.5	3.8	8.45e-01	0	54	104	0	59	12945
2026-01-24 15:59:51.87	217.54	3.17	-44.5	-55.5	3.8	8.45e-01	0	54	104	0	59	12849
2026-01-24 15:59:52.88	217.63	3.22	-44.5	-55.5	3.8	8.45e-01	0	54	104	0	59	12895
2026-01-24 15:59:53.89	217.72	3.28	-44.5	-55.5	3.8	8.47e-01	0	54	104	0	59	12893
2026-01-24 15:59:54.90	217.81	3.33	-44.5	-55.5	3.8	8.46e-01	0	54	104	0	59	12841
2026-01-24 15:59:55.91	217.90	3.38	-44.5	-55.5	3.8	8.46e-01	0	54	104	0	59	12876
2026-01-24 15:59:56.92	217.99	3.44	-44.5	-55.5	3.8	8.46e-01	0	54	104	0	59	12898
2026-01-24 15:59:57.93	218.08	3.49	-44.5	-55.5	3.8	8.47e-01	0	54	104	0	59	12882
2026-01-24 15:59:58.95	218.17	3.55	-44.5	-55.5	3.8	8.46e-01	0	54	104	0	59	12912
2026-01-24 15:59:59.95	218.26	3.60	-44.5	-55.5	3.8	8.46e-01	0	54	104	0	59	12900
2026-01-24 16:00:00.96	218.36	3.65	-44.5	-55.5	3.8	8.47e-01	0	54	104	0	59	12908
2026-01-24 16:00:01.97	218.45	3.71	-44.5	-55.5	3.8	8.45e-01	0	54	104	0	59	12893
2026-01-24 16:00:02.98	218.54	3.76	-44.5	-55.5	3.8	8.46e-01	0	55	104	0	59	12871
2026-01-24 16:00:04.00	218.64	3.81	-44.5	-55.5	3.8	8.45e-01	0	55	104	0	59	12884
2026-01-24 16:00:05.01	218.73	3.87	-44.4	-55.5	3.8	8.46e-01	0	55	104	0	59	12874
2026-01-24 16:00:06.02	218.82	3.92	-44.5	-55.5	3.8	8.45e-01	0	55	104	0	59	12873
2026-01-24 16:00:07.03	218.92	3.97	-44.5	-55.5	3.8	8.45e-01	0	55	104	0	59	12882
2026-01-24 16:00:08.04	219.01	4.03	-44.5	-55.5	3.8	8.47e-01	0	55	104	0	59	12858
2026-01-24 16:00:09.05	219.11	4.08	-44.5	-55.5	3.8	8.46e-01	0	55	104	0	59	12891
2026-01-24 16:00:10.06	219.20	4.14	-44.5	-55.5	3.8	8.47e-01	0	55	104	0	59	12852
2026-01-24 16:00:11.07	219.30	4.19	-44.5	-55.5	3.8	8.46e-01	0	55	104	0	59	12899
2026-01-24 16:00:12.08	219.39	4.24	-44.5	-55.5	3.8	8.47e-01	0	55	104	0	59	12844
2026-01-24 16:00:13.09	219.49	4.30	-44.5	-55.5	3.8	8.47e-01	0	55	104	0	59	12905
2026-01-24 16:00:14.10	219.59	4.35	-44.5	-55.5	3.8	8.47e-01	0	55	104	0	59	12898
2026-01-24 16:00:15.11	219.68	4.41	-44.5	-55.5	3.8	8.46e-01	0	55	104	0	59	12895
2026-01-24 16:00:16.12	219.78	4.46	-44.5	-55.5	3.8	8.45e-01	0	55	104	0	59	12894
2026-01-24 16:00:17.13	219.88	4.52	-44.5	-55.5	3.8	8.47e-01	0	55	104	0	59	12888
2026-01-24 16:00:18.14	219.98	4.57	-44.5	-55.5	3.8	8.46e-01	0	55	104	0	59	12895
2026-01-24 16:00:19.15	220.08	4.62	-44.5	-55.5	3.8	8.47e-01	0	55	104	0	59	12861
2026-01-24 16:00:20.16	220.17	4.68	-44.5	-55.5	3.8	8.45e-01	0	55	104	0	59	12830
2026-01-24 16:00:21.17	220.27	4.73	-44.5	-55.5	3.8	8.46e-01	0	56	104	0	59	12908
2026-01-24 16:00:22.18	220.37	4.79	-44.5	-55.5	3.8	8.46e-01	0	56	104	0	59	12868
2026-01-24 16:00:23.19	220.47	4.84	-44.5	-55.5	3.8	8.46e-01	0	56	104	0	59	12872
2026-01-24 16:00:24.20	220.57	4.90	-44.5	-55.5	3.8	8.47e-01	0	56	104	0	59	12909
2026-01-24 16:00:25.21	220.67	4.95	-44.5	-55.5	3.8	8.47e-01	0	56	104	0	59	12893
2026-01-24 16:00:26.22	220.77	5.01	-44.5	-55.5	3.8	8.46e-01	0	56	104	0	59	12877
2026-01-24 16:00:27.23	220.88	5.06	-44.5	-55.5	3.8	8.47e-01	0	56	104	0	59	12864
2026-01-24 16:00:28.24	220.98	5.12	-44.5	-55.5	3.8	8.46e-01	0	56	104	0	59	12831
2026-01-24 16:00:29.25	221.08	5.17	-44.5	-55.5	3.8	8.46e-01	0	56	104	0	59	12817
2026-01-24 16:00:30.26	221.18	5.23	-44.5	-55.5	3.8	8.46e-01	0	56	104	0	59	12884
2026-01-24 16:00:31.27	221.29	5.28	-44.4	-55.5	3.8	8.46e-01	0	56	104	0	59	12871
2026-01-24 16:00:32.28	221.39	5.33	-44.4	-55.4	3.8	8.46e-01	0	56	104	0	59	12802
2026-01-24 16:00:33.29	221.49	5.39	-44.5	-55.5	3.8	8.46e-01	0	56	104	0	59	12836
2026-01-24 16:00:34.30	221.60	5.44	-44.4	-55.5	3.8	8.45e-01	0	56	104	0	59	12815
2026-01-24 16:00:35.31	221.70	5.50	-44.5	-55.4	3.8	8.46e-01	0	56	104	0	59	12807
2026-01-24 16:00:36.33	221.81	5.56	-44.5	-55.4	3.8	8.46e-01	0	56	104	0	59	12783
2026-01-24 16:00:37.34	221.91	5.61	-44.5	-55.4	3.8	8.45e-01	0	56	104	0	59	12751
2026-01-24 16:00:38.35	222.02	5.67	-44.5	-55.4	3.8	8.46e-01	0	57	104	0	59	12709
2026-01-24 16:00:39.36	222.12	5.72	-44.5	-55.3	3.8	8.46e-01	0	56	104	0	59	12653
2026-01-24 16:00:40.37	222.23	5.78	-44.4	-55.3	3.8	8.47e-01	0	57	104	0	59	12650
2026-01-24 16:00:41.38	222.33	5.83	-44.4	-55.2	3.8	8.46e-01	0	56	104	0	59	12473
2026-01-24 16:00:42.39	222.44	5.89	-44.4	-55.3	3.8	8.46e-01	0	57	104	0	59	12526
2026-01-24 16:00:43.40	222.55	5.94	-44.4	-55.2	3.8	8.46e-01	0	57	104	0	59	12382
2026-01-24 16:00:44.41	222.66	6.00	-44.3	-55.0	3.8	8.46e-01	0	57	104	0	59	12201
2026-01-24 16:00:45.42	222.76	6.05	-44.4	-55.0	3.8	8.46e-01	0	57	104	0	59	12168
2026-01-24 16:00:46.43	222.87	6.11	-44.4	-54.9	3.8	8.45e-01	0	57	104	0	59	12002
2026-01-24 16:00:47.44	222.98	6.16	-44.4	-54.7	3.8	8.46e-01	0	57	104	0	59	11774
2026-01-24 16:00:48.45	223.09	6.22	-44.3	-54.5	3.8	8.46e-01	0	57	104	0	59	11444
2026-01-24 16:00:49.46	223.20	6.27	-44.3	-54.3	3.8	8.47e-01	0	57	104	0	59	11252
2026-01-24 16:00:50.47	223.31	6.33	-44.3	-54.1	3.8	8.45e-01	0	57	104	0	59	10983
2026-01-24 16:00:51.48	223.42	6.38	-44.2	-53.7	3.8	8.45e-01	0	57	104	0	59	10495
2026-01-24 16:00:52.49	223.53	6.44	-44.2	-53.2	3.9	8.44e-01	0	57	104	0	59	9935
2026-01-24 16:00:53.50	223.64	6.50	-44.1	-52.9	3.8	8.43e-01	0	57	104	0	59	9595
2026-01-24 16:00:54.51	223.76	6.55	-44.0	-52.4	4.1	8.43e-01	0	57	0	0	59	9049
2026-01-24 16:00:55.52	223.87	6.61	-43.9	-51.8	4.2	8.38e-01	0	57	0	0	58	8869
2026-01-24 16:00:56.53	223.98	6.66	-43.8	-51.2	4.4	8.30e-01	0	57	0	0	58	8277
2026-01-24 16:00:57.55	224.10	6.72	-43.7	-50.5	4.7	8.07e-01	0	57	0	0	58	7661
2026-01-24 16:00:58.56	224.21	6.77	-43.4	-49.5	5.2	7.63e-01	0	57	0	0	57	7268
2026-01-24 16:00:59.57	224.32	6.83	-43.3	-49.0	5.6	6.99e-01	0	57	0	0	57	6847
2026-01-24 16:01:00.58	224.44	6.89	-43.0	-48.3	6.1	3.71e-01	0	57	0	4194304	57	6313
2026-01-24 16:01:01.59	224.55	6.94	-42.9	-47.8	6.5	2.31e-01	0	57	0	11534336	56	6322
2026-01-24 16:01:02.60	224.67	7.00	-42.7	-47.6	6.6	1.97e-01	0	57	0	18874368	56	6180
2026-01-24 16:01:03.61	224.78	7.05	-42.6	-47.1	7.1	1.39e-01	0	58	0	26214400	56	5829
2026-01-24 16:01:04.62	224.90	7.11	-42.6	-47.0	7.2	1.30e-01	0	57	0	33554432	56	5763
2026-01-24 16:01:05.63	225.02	7.17	-42.7	-47.3	6.9	1.55e-01	0	58	0	40894464	56	5971
2026-01-24 16:01:06.64	225.13	7.22	-42.7	-47.4	6.8	1.68e-01	0	58	0	48234496	56	6035
2026-01-24 16:01:07.65	225.25	7.28	-42.8	-47.7	6.5	2.10e-01	0	58	0	55574528	56	6266
2026-01-24 16:01:08.66	225.37	7.33	-42.8	-47.7	6.6	2.05e-01	0	58	0	62914560	56	6255
2026-01-24 16:01:09.67	225.49	7.39	-42.7	-47.3	6.9	1.87e-01	0	58	0	70254592	56	5975
2026-01-24 16:01:10.69	225.61	7.45	-42.6	-47.0	7.2	1.39e-01	0	58	0	77594624	56	5760
2026-01-24 16:01:11.70	225.72	7.50	-42.1	-46.1	7.9	8.68e-02	0	58	0	84934656	55	5528
2026-01-24 16:01:12.71	225.84	7.56	-41.6	-45.2	8.9	3.53e-02	0	58	0	92274688	54	5243
2026-01-24 16:01:13.72	225.96	7.61	-41.2	-44.5	9.6	1.44e-02	0	58	0	99614720	53	5106
2026-01-24 16:01:14.73	226.08	7.67	-40.7	-43.6	10.6	4.70e-03	0	58	0	106954752	52	4871
2026-01-24 16:01:15.74	226.20	7.73	-40.3	-42.9	11.3	1.34e-03	0	58	0	114294784	51	4813
2026-01-24 16:01:16.75	226.33	7.78	-39.9	-42.1	12.1	2.89e-04	0	58	0	121634816	50	4651
2026-01-24 16:01:17.76	226.45	7.84	-39.5	-41.7	12.6	1.15e-04	0	58	0	128974848	50	4397
2026-01-24 16:01:18.77	226.57	7.90	-39.4	-41.5	12.7	7.09e-05	0	58	0	136314880	49	4596
2026-01-24 16:01:19.79	226.69	7.95	-39.3	-41.4	13.0	3.43e-05	0	58	0	143654912	49	4500
2026-01-24 16:01:20.79	226.82	8.01	-39.6	-41.8	12.5	8.69e-05	0	58	0	149946368	49	4734
2026-01-24 16:01:21.81	226.94	8.06	-44.4	-52.3	4.2	8.40e-01	0	58	0	155189248	58	9433
2026-01-24 16:01:22.81	227.06	8.12	-42.4	-46.7	7.8	2.75e-01	0	58	0	158334976	54	6271
2026-01-24 16:01:23.82	227.19	8.18	-39.6	-41.8	12.5	2.70e-01	0	58	104	158334976	48	5015
2026-01-24 16:01:24.83	227.31	8.23	-40.3	-42.7	11.6	3.13e-04	0	58	0	164626432	51	4693
2026-01-24 16:01:25.84	227.44	8.29	-41.3	-44.6	9.7	1.25e-05	0	58	0	171966464	52	5482
2026-01-24 16:01:26.85	227.56	8.34	-39.0	-41.0	13.4	1.23e-04	0	58	0	178257920	49	4298
2026-01-24 16:01:27.86	227.69	8.40	-38.8	-40.7	13.8	8.00e-06	0	58	0	186646528	48	4402
2026-01-24 16:01:28.87	227.82	8.46	-38.6	-40.5	13.9	0.00e+00	0	58	0	193986560	48	4303
2026-01-24 16:01:29.88	227.95	8.51	-38.7	-40.6	13.8	4.50e-06	0	58	0	200278016	48	4385
2026-01-24 16:01:30.89	228.07	8.57	-38.6	-40.4	14.0	0.00e+00	0	58	0	207618048	48	4267
2026-01-24 16:01:31.90	228.20	8.63	-38.6	-40.4	14.0	1.10e-06	0	58	0	214958080	48	4277
2026-01-24 16:01:32.91	228.33	8.68	-38.4	-40.2	14.1	0.00e+00	0	58	0	222298112	47	4405
2026-01-24 16:01:33.92	228.46	8.74	-38.4	-40.2	14.0	3.40e-06	0	59	0	229638144	47	4437
2026-01-24 16:01:34.93	228.59	8.79	-38.3	-40.1	14.1	1.10e-06	0	58	0	236978176	47	4379
2026-01-24 16:01:35.94	228.72	8.85	-38.3	-40.1	14.1	2.20e-06	0	58	0	244318208	47	4372
2026-01-24 16:01:36.95	228.85	8.91	-38.4	-40.2	14.0	0.00e+00	0	59	0	251658240	47	4434
2026-01-24 16:01:37.96	228.98	8.96	-38.4	-40.2	14.1	1.10e-06	0	59	0	258998272	47	4408
2026-01-24 16:01:38.97	229.11	9.02	-38.3	-40.1	14.2	5.70e-06	0	58	0	266338304	47	4360
2026-01-24 16:01:39.98	229.24	9.08	-38.4	-40.2	14.0	0.00e+00	0	59	0	273678336	47	4427
2026-01-24 16:01:40.99	229.38	9.13	-38.4	-40.2	14.0	2.20e-06	0	59	0	281018368	47	4441
2026-01-24 16:01:42.00	229.51	9.19	-38.4	-40.2	14.1	2.20e-06	0	59	0	288358400	47	4423
2026-01-24 16:01:43.01	229.64	9.24	-38.3	-40.2	14.2	0.00e+00	0	59	0	295698432	47	4392
2026-01-24 16:01:44.02	229.78	9.30	-38.2	-39.9	14.4	2.20e-06	0	59	0	303038464	47	4286
2026-01-24 16:01:45.03	229.91	9.36	-38.4	-40.2	14.1	0.00e+00	0	59	0	310378496	47	4435
2026-01-24 16:01:46.04	230.05	9.41	-38.2	-40.0	14.3	2.20e-06	0	59	0	317718528	47	4325
2026-01-24 16:01:47.05	230.18	9.47	-38.2	-40.0	14.4	0.00e+00	0	59	0	324009984	47	4310
2026-01-24 16:01:48.06	230.32	9.53	-38.3	-40.1	14.3	1.10e-06	0	59	0	332398592	47	4371
2026-01-24 16:01:49.07	230.46	9.58	-38.3	-40.0	14.3	0.00e+00	0	59	0	339738624	47	4318
2026-01-24 16:01:50.08	230.59	9.64	-38.3	-40.1	14.2	0.00e+00	0	59	0	346030080	47	4362
2026-01-24 16:01:51.09	230.73	9.69	-38.3	-40.1	14.2	0.00e+00	0	59	0	353370112	47	4362
2026-01-24 16:01:52.10	230.87	9.75	-38.4	-40.2	14.1	1.10e-06	0	59	0	360710144	47	4421
2026-01-24 16:01:53.11	231.01	9.81	-38.4	-40.3	14.1	0.00e+00	0	59	0	368050176	47	4458
2026-01-24 16:01:54.12	231.15	9.86	-38.5	-40.3	14.0	5.70e-06	0	59	0	375390208	47	4475
2026-01-24 16:01:55.13	231.29	9.92	-38.5	-40.3	14.0	2.20e-06	0	59	0	382730240	47	4482
2026-01-24 16:01:56.14	231.43	9.97	-38.5	-40.4	14.0	2.20e-06	0	59	0	390070272	47	4516
2026-01-24 16:01:57.15	231.57	10.03	-38.4	-40.2	14.2	3.40e-06	0	59	0	397410304	47	4436
2026-01-24 16:01:58.16	231.71	10.09	-38.4	-40.2	14.1	3.40e-06	0	59	0	404750336	47	4437
2026-01-24 16:01:59.17	231.85	10.14	-38.3	-40.0	14.3	1.10e-06	0	59	0	412090368	47	4330
2026-01-24 16:02:00.18	231.99	10.20	-38.2	-40.0	14.4	2.20e-06	0	59	0	419430400	47	4307
2026-01-24 16:02:01.19	232.14	10.25	-38.2	-40.0	14.4	1.10e-06	0	59	0	426770432	47	4316
2026-01-24 16:02:02.20	232.28	10.31	-38.2	-39.9	14.5	0.00e+00	0	59	0	434110464	47	4262
2026-01-24 16:02:03.21	232.43	10.37	-38.1	-39.8	14.6	0.00e+00	0	59	0	441450496	47	4212
2026-01-24 16:02:04.22	232.57	10.42	-38.0	-39.6	14.8	0.00e+00	0	59	0	448790528	46	4384
2026-01-24 16:02:05.23	232.71	10.48	-38.0	-39.7	14.7	0.00e+00	0	59	0	456130560	46	4410
2026-01-24 16:02:06.24	232.86	10.53	-38.1	-39.8	14.6	0.00e+00	0	59	0	463470592	46	4462
2026-01-24 16:02:07.25	233.01	10.59	-38.0	-39.7	14.7	0.00e+00	0	59	0	470810624	46	4424
2026-01-24 16:02:08.26	233.15	10.64	-38.0	-39.7	14.7	1.10e-06	0	59	0	478150656	46	4412
2026-01-24 16:02:09.27	233.30	10.70	-37.9	-39.6	14.8	0.00e+00	0	59	0	485490688	46	4363
2026-01-24 16:02:10.28	233.45	10.76	-38.1	-39.8	14.7	0.00e+00	0	59	0	492830720	46	4442
2026-01-24 16:02:11.29	233.60	10.81	-37.9	-39.6	14.9	0.00e+00	0	59	0	499122176	46	4352
2026-01-24 16:02:12.30	233.75	10.87	-37.9	-39.5	14.9	1.10e-06	0	59	0	506462208	46	4313
2026-01-24 16:02:13.31	233.89	10.92	-37.8	-39.4	15.0	0.00e+00	0	59	0	514850816	46	4257
2026-01-24 16:02:14.32	234.04	10.98	-37.7	-39.3	15.2	0.00e+00	0	59	0	521142272	46	4212
2026-01-24 16:02:15.33	234.20	11.03	-37.7	-39.3	15.1	0.00e+00	0	59	0	528482304	46	4237
2026-01-24 16:02:16.34	234.35	11.09	-37.6	-39.2	15.3	0.00e+00	0	59	0	535822336	46	4169
2026-01-24 16:02:17.35	234.50	11.14	-37.7	-39.3	15.2	0.00e+00	0	60	0	543162368	46	4202
2026-01-24 16:02:18.36	234.65	11.20	-37.7	-39.2	15.2	1.10e-06	0	59	0	550502400	46	4185
2026-01-24 16:02:19.37	234.80	11.25	-37.7	-39.3	15.2	0.00e+00	0	60	0	557842432	46	4196
2026-01-24 16:02:20.38	234.96	11.31	-37.8	-39.4	15.0	0.00e+00	0	59	0	565182464	46	4268
2026-01-24 16:02:21.39	235.11	11.36	-37.8	-39.4	15.1	0.00e+00	0	59	0	572522496	46	4248
2026-01-24 16:02:22.40	235.26	11.42	-37.7	-39.2	15.2	0.00e+00	0	59	0	579862528	46	4192
2026-01-24 16:02:23.41	235.42	11.47	-37.8	-39.4	15.1	0.00e+00	0	59	0	587202560	46	4256
2026-01-24 16:02:24.42	235.57	11.53	-37.7	-39.3	15.1	0.00e+00	0	59	0	594542592	46	4238
2026-01-24 16:02:25.43	235.73	11.58	-37.7	-39.3	15.2	0.00e+00	0	59	0	601882624	46	4207
2026-01-24 16:02:26.44	235.89	11.64	-37.7	-39.3	15.2	0.00e+00	0	59	0	609222656	46	4224
2026-01-24 16:02:27.44	236.04	11.69	-37.7	-39.3	15.2	0.00e+00	0	60	0	616562688	46	4200
2026-01-24 16:02:28.45	236.20	11.75	-37.8	-39.4	15.1	0.00e+00	0	60	0	623902720	46	4267
2026-01-24 16:02:29.46	236.36	11.80	-37.7	-39.2	15.2	0.00e+00	0	60	0	631242752	46	4192
2026-01-24 16:02:30.47	236.52	11.86	-37.7	-39.3	15.2	0.00e+00	0	60	0	638582784	46	4203
2026-01-24 16:02:31.48	236.68	11.91	-37.7	-39.3	15.2	0.00e+00	0	60	0	644874240	46	4202
2026-01-24 16:02:32.49	236.84	11.96	-37.6	-39.2	15.3	0.00e+00	0	60	0	652214272	46	4146
2026-01-24 16:02:33.50	237.00	12.02	-37.6	-39.1	15.4	0.00e+00	0	60	0	659554304	46	4144
2026-01-24 16:02:34.51	237.16	12.07	-37.6	-39.2	15.3	0.00e+00	0	60	0	666894336	46	4166
2026-01-24 16:02:35.52	237.32	12.13	-37.7	-39.2	15.3	0.00e+00	0	60	0	674234368	46	4188
2026-01-24 16:02:36.53	237.48	12.18	-37.6	-39.2	15.3	0.00e+00	0	60	0	681574400	46	4153
2026-01-24 16:02:37.54	237.65	12.23	-37.5	-39.1	15.5	0.00e+00	0	60	0	688914432	46	4099
2026-01-24 16:02:38.55	237.81	12.29	-37.4	-38.9	15.6	0.00e+00	0	60	0	696254464	45	4275
2026-01-24 16:02:39.56	237.97	12.34	-37.4	-38.9	15.6	0.00e+00	0	60	0	703594496	45	4283
2026-01-24 16:02:40.57	238.14	12.40	-37.4	-38.9	15.6	0.00e+00	0	60	0	710934528	45	4287
2026-01-24 16:02:41.59	238.31	12.45	-37.4	-39.0	15.6	0.00e+00	0	60	0	718274560	45	4295
2026-01-24 16:02:42.59	238.47	12.50	-37.4	-38.9	15.6	0.00e+00	0	60	0	725614592	45	4285
2026-01-24 16:02:43.60	238.64	12.56	-37.5	-39.0	15.5	0.00e+00	0	60	0	732954624	45	4322
2026-01-24 16:02:44.61	238.80	12.61	-37.5	-39.0	15.5	0.00e+00	0	60	0	740294656	45	4336
2026-01-24 16:02:45.62	238.97	12.66	-37.4	-39.0	15.6	0.00e+00	0	60	0	747634688	45	4299
2026-01-24 16:02:46.63	239.14	12.71	-37.5	-39.1	15.4	0.00e+00	0	60	0	754974720	45	4368
2026-01-24 16:02:47.64	239.31	12.77	-37.4	-39.0	15.5	0.00e+00	0	60	0	762314752	45	4316
2026-01-24 16:02:48.65	239.48	12.82	-37.4	-38.9	15.6	0.00e+00	0	60	0	769654784	45	4288
2026-01-24 16:02:49.66	239.65	12.87	-37.4	-38.9	15.6	0.00e+00	0	60	0	776994816	45	4290
2026-01-24 16:02:50.67	239.82	12.93	-37.4	-38.9	15.6	0.00e+00	0	60	0	784334848	45	4286
2026-01-24 16:02:51.68	239.99	12.98	-37.4	-38.9	15.6	0.00e+00	0	60	0	791674880	45	4273
2026-01-24 16:02:52.69	240.16	13.03	-37.3	-38.8	15.8	0.00e+00	0	60	0	797966336	45	4217
2026-01-24 16:02:53.70	240.33	13.08	-37.4	-39.0	15.6	0.00e+00	0	60	0	805306368	45	4304
2026-01-24 16:02:54.71	240.51	13.13	-37.3	-38.8	15.7	0.00e+00	0	60	0	813694976	45	4239
2026-01-24 16:02:55.72	240.68	13.19	-37.3	-38.8	15.8	0.00e+00	0	60	0	819986432	45	4221
2026-01-24 16:02:56.73	240.85	13.24	-37.3	-38.8	15.7	0.00e+00	0	60	0	827326464	45	4232
2026-01-24 16:02:57.74	241.03	13.29	-37.3	-38.8	15.8	0.00e+00	0	60	0	834666496	45	4232
2026-01-24 16:02:58.75	241.20	13.34	-37.3	-38.8	15.8	0.00e+00	0	60	0	842006528	45	4196
2026-01-24 16:02:59.76	241.38	13.39	-37.3	-38.8	15.7	0.00e+00	0	60	0	849346560	45	4240
2026-01-24 16:03:00.77	241.55	13.44	-37.4	-38.9	15.6	0.00e+00	0	60	0	856686592	45	4268
2026-01-24 16:03:01.78	241.73	13.49	-37.4	-38.9	15.6	0.00e+00	0	60	0	864026624	45	4268
2026-01-24 16:03:02.79	241.91	13.55	-37.4	-38.9	15.6	0.00e+00	0	60	0	871366656	45	4260
2026-01-24 16:03:03.80	242.09	13.60	-37.4	-38.9	15.6	1.10e-06	0	60	0	878706688	45	4282
2026-01-24 16:03:04.81	242.27	13.65	-37.3	-38.8	15.7	0.00e+00	0	60	0	886046720	45	4233
2026-01-24 16:03:05.81	242.44	13.70	-37.3	-38.8	15.7	0.00e+00	0	60	0	893386752	45	4223
2026-01-24 16:03:06.82	242.62	13.75	-37.3	-38.8	15.8	0.00e+00	0	60	0	900726784	45	4211
2026-01-24 16:03:07.83	242.80	13.80	-37.3	-38.7	15.8	0.00e+00	0	60	0	908066816	45	4189
2026-01-24 16:03:08.84	242.99	13.85	-37.1	-38.6	16.0	0.00e+00	0	60	0	915406848	45	4118
2026-01-24 16:03:09.85	243.17	13.90	-37.1	-38.6	16.0	0.00e+00	0	60	0	922746880	45	4121
2026-01-24 16:03:10.86	243.35	13.95	-37.1	-38.6	16.0	0.00e+00	0	60	0	930086912	45	4133
2026-01-24 16:03:11.87	243.53	14.00	-37.2	-38.7	15.9	0.00e+00	0	60	0	937426944	45	4173
2026-01-24 16:03:12.88	243.72	14.05	-37.3	-38.8	15.8	0.00e+00	0	60	0	943718400	45	4198
2026-01-24 16:03:13.89	243.90	14.09	-37.2	-38.7	15.8	0.00e+00	0	60	0	951058432	45	4192
2026-01-24 16:03:14.91	244.09	14.14	-37.2	-38.6	15.9	0.00e+00	0	60	0	959447040	45	4144
2026-01-24 16:03:15.92	244.27	14.19	-37.2	-38.7	15.9	0.00e+00	0	60	0	965738496	45	4151
2026-01-24 16:03:16.93	244.46	14.24	-37.1	-38.6	16.0	0.00e+00	0	60	0	973078528	45	4103
2026-01-24 16:03:17.94	244.65	14.29	-37.0	-38.5	16.1	0.00e+00	0	60	0	980418560	45	4067
2026-01-24 16:03:18.95	244.83	14.34	-37.0	-38.4	16.2	0.00e+00	0	60	0	987758592	44	4273
2026-01-24 16:03:19.96	245.02	14.39	-36.9	-38.4	16.2	0.00e+00	0	60	0	995098624	44	4254
2026-01-24 16:03:20.97	245.21	14.43	-37.0	-38.4	16.2	0.00e+00	0	60	0	1002438656	44	4281
2026-01-24 16:03:21.98	245.40	14.48	-37.0	-38.4	16.2	0.00e+00	0	60	0	1009778688	44	4288
2026-01-24 16:03:22.99	245.59	14.53	-37.0	-38.5	16.1	0.00e+00	0	60	0	1017118720	44	4303
2026-01-24 16:03:24.00	245.78	14.58	-37.0	-38.5	16.1	0.00e+00	0	60	0	1024458752	44	4306
2026-01-24 16:03:25.01	245.97	14.62	-37.0	-38.5	16.2	0.00e+00	0	60	0	1031798784	44	4300
2026-01-24 16:03:26.02	246.16	14.67	-37.0	-38.5	16.1	0.00e+00	0	61	0	1039138816	44	4310
2026-01-24 16:03:27.03	246.35	14.72	-37.1	-38.5	16.1	0.00e+00	0	61	0	1046478848	44	4337
2026-01-24 16:03:28.04	246.54	14.76	-37.0	-38.5	16.2	0.00e+00	0	60	0	1053818880	44	4298
2026-01-24 16:03:29.05	246.74	14.81	-36.9	-38.3	16.3	0.00e+00	0	60	0	1061158912	44	4240
2026-01-24 16:03:30.06	246.93	14.86	-37.0	-38.4	16.2	0.00e+00	0	60	0	1068498944	44	4277
2026-01-24 16:03:31.06	247.12	14.90	-37.0	-38.4	16.2	0.00e+00	0	60	0	1075838976	44	4274
2026-01-24 16:03:32.08	247.32	14.95	-37.0	-38.5	16.1	0.00e+00	0	61	0	1083179008	44	4316
2026-01-24 16:03:33.09	247.51	14.99	-37.1	-38.5	16.1	0.00e+00	0	61	0	1090519040	44	4324
2026-01-24 16:03:34.10	247.71	15.04	-37.0	-38.4	16.2	0.00e+00	0	60	0	1096810496	44	4270
2026-01-24 16:03:35.11	247.91	15.08	-36.9	-38.4	16.2	0.00e+00	0	61	0	1105199104	44	4258
2026-01-24 16:03:36.11	248.10	15.13	-37.1	-38.5	16.1	0.00e+00	0	60	0	1112539136	44	4324
2026-01-24 16:03:37.12	248.30	15.17	-36.9	-38.4	16.2	0.00e+00	0	61	0	1118830592	44	4248
2026-01-24 16:03:38.13	248.50	15.22	-36.8	-38.3	16.4	0.00e+00	0	61	0	1126170624	44	4195
2026-01-24 16:03:39.14	248.69	15.26	-36.8	-38.3	16.4	0.00e+00	0	60	0	1133510656	44	4195
2026-01-24 16:03:40.15	248.89	15.30	-36.8	-38.2	16.4	0.00e+00	0	61	0	1140850688	44	4185
2026-01-24 16:03:41.16	249.09	15.35	-36.8	-38.2	16.5	0.00e+00	0	60	0	1148190720	44	4150
2026-01-24 16:03:42.17	249.29	15.39	-36.8	-38.2	16.4	0.00e+00	0	60	0	1155530752	44	4178
2026-01-24 16:03:43.18	249.50	15.43	-36.9	-38.3	16.3	0.00e+00	0	60	0	1162870784	44	4224
2026-01-24 16:03:44.19	249.70	15.48	-36.9	-38.3	16.3	0.00e+00	0	61	0	1170210816	44	4224
2026-01-24 16:03:45.20	249.90	15.52	-36.9	-38.3	16.3	0.00e+00	0	60	0	1177550848	44	4215
2026-01-24 16:03:46.21	250.10	15.56	-36.8	-38.1	16.5	0.00e+00	0	61	0	1184890880	44	4141
2026-01-24 16:03:47.22	250.30	15.60	-36.8	-38.2	16.4	0.00e+00	0	61	0	1192230912	44	4166
2026-01-24 16:03:48.22	250.51	15.64	-36.8	-38.2	16.4	0.00e+00	0	61	0	1199570944	44	4173
2026-01-24 16:03:49.23	250.71	15.69	-36.9	-38.3	16.4	0.00e+00	0	61	0	1206910976	44	4211
2026-01-24 16:03:50.24	250.92	15.73	-36.8	-38.2	16.5	0.00e+00	0	60	0	1214251008	44	4156
2026-01-24 16:03:51.25	251.12	15.77	-36.9	-38.3	16.3	0.00e+00	0	60	0	1221591040	44	4230
2026-01-24 16:03:52.26	251.33	15.81	-37.0	-38.4	16.2	0.00e+00	0	61	0	1228931072	44	4284
2026-01-24 16:03:53.27	251.53	15.85	-37.0	-38.4	16.2	0.00e+00	0	61	0	1236271104	44	4271
2026-01-24 16:03:54.28	251.74	15.89	-37.0	-38.4	16.2	0.00e+00	0	61	0	1242562560	44	4284
2026-01-24 16:03:55.29	251.95	15.93	-37.1	-38.5	16.1	0.00e+00	0	61	0	1249902592	44	4335
2026-01-24 16:03:56.30	252.16	15.97	-37.0	-38.5	16.2	0.00e+00	0	61	0	1257242624	44	4299
2026-01-24 16:03:57.31	252.36	16.01	-37.0	-38.4	16.2	0.00e+00	0	61	0	1264582656	44	4282
2026-01-24 16:03:58.32	252.57	16.05	-37.0	-38.4	16.2	0.00e+00	0	61	0	1271922688	44	4276
2026-01-24 16:03:59.33	252.78	16.08	-37.0	-38.4	16.2	0.00e+00	0	61	0	1279262720	44	4274
2026-01-24 16:04:00.34	252.99	16.12	-36.9	-38.3	16.3	0.00e+00	0	61	0	1286602752	44	4229
2026-01-24 16:04:01.35	253.20	16.16	-36.9	-38.3	16.3	0.00e+00	0	61	0	1293942784	44	4239
2026-01-24 16:04:02.36	253.42	16.20	-36.9	-38.3	16.3	0.00e+00	0	61	0	1301282816	44	4220
2026-01-24 16:04:03.37	253.63	16.23	-36.8	-38.2	16.4	0.00e+00	0	61	0	1308622848	44	4168
2026-01-24 16:04:04.38	253.84	16.27	-36.8	-38.2	16.4	0.00e+00	0	61	0	1315962880	44	4167
2026-01-24 16:04:05.39	254.05	16.31	-36.9	-38.3	16.4	0.00e+00	0	61	0	1323302912	44	4195
2026-01-24 16:04:06.40	254.27	16.34	-36.8	-38.2	16.4	0.00e+00	0	61	0	1330642944	44	4182
2026-01-24 16:04:07.40	254.48	16.38	-36.9	-38.3	16.3	0.00e+00	0	61	0	1337982976	44	4221
2026-01-24 16:04:08.41	254.69	16.42	-36.8	-38.2	16.5	0.00e+00	0	61	0	1345323008	44	4155
2026-01-24 16:04:09.42	254.91	16.45	-36.8	-38.2	16.5	0.00e+00	0	61	0	1352663040	44	4147
2026-01-24 16:04:10.43	255.12	16.49	-36.8	-38.1	16.5	0.00e+00	0	61	0	1360003072	44	4135
2026-01-24 16:04:11.44	255.34	16.52	-36.6	-38.0	16.7	0.00e+00	0	61	0	1367343104	44	4064
2026-01-24 16:04:12.45	255.55	16.56	-36.7	-38.0	16.6	0.00e+00	0	61	0	1373634560	44	4080
2026-01-24 16:04:13.46	255.77	16.59	-36.6	-38.0	16.6	0.00e+00	0	61	0	1382023168	44	4067
2026-01-24 16:04:14.47	255.99	16.62	-36.6	-38.0	16.6	0.00e+00	0	61	0	1389363200	44	4072
2026-01-24 16:04:15.48	256.20	16.66	-36.6	-38.0	16.7	0.00e+00	0	61	0	1395654656	44	4061
2026-01-24 16:04:16.49	256.42	16.69	-36.6	-38.0	16.7	0.00e+00	0	61	0	1402994688	44	4068
2026-01-24 16:04:17.50	256.64	16.72	-36.6	-37.9	16.7	0.00e+00	0	61	0	1410334720	44	4041
2026-01-24 16:04:18.51	256.86	16.75	-36.5	-37.9	16.8	0.00e+00	0	61	0	1417674752	44	4015
2026-01-24 16:04:19.52	257.08	16.79	-36.6	-37.9	16.7	0.00e+00	0	61	0	1425014784	44	4051
2026-01-24 16:04:20.53	257.30	16.82	-36.6	-37.9	16.7	0.00e+00	0	61	0	1432354816	44	4027
2026-01-24 16:04:21.54	257.52	16.85	-36.3	-37.6	16.9	0.00e+00	0	61	0	1439694848	43	4119
2026-01-24 16:04:22.55	257.74	16.88	-36.3	-37.6	16.8	0.00e+00	0	61	0	1447034880	43	4134
2026-01-24 16:04:23.56	257.96	16.91	-36.3	-37.7	16.8	0.00e+00	0	61	0	1454374912	43	4164
2026-01-24 16:04:24.57	258.18	16.94	-36.4	-37.7	16.8	0.00e+00	0	61	0	1461714944	43	4175
2026-01-24 16:04:25.58	258.41	16.97	-36.4	-37.7	16.7	0.00e+00	0	61	0	1469054976	43	4178
2026-01-24 16:04:26.59	258.63	17.00	-36.4	-37.7	16.8	0.00e+00	0	61	0	1476395008	43	4172
2026-01-24 16:04:27.60	258.85	17.03	-36.4	-37.7	16.8	0.00e+00	0	61	0	1483735040	43	4174
2026-01-24 16:04:28.61	259.07	17.06	-36.4	-37.8	16.7	0.00e+00	0	61	0	1491075072	43	4202
2026-01-24 16:04:29.62	259.30	17.09	-36.4	-37.8	16.7	0.00e+00	0	61	0	1498415104	43	4194
2026-01-24 16:04:30.63	259.52	17.11	-36.3	-37.7	16.8	0.00e+00	0	61	0	1505755136	43	4159
2026-01-24 16:04:31.64	259.75	17.14	-36.3	-37.6	16.9	0.00e+00	0	61	0	1513095168	43	4111
2026-01-24 16:04:32.65	259.97	17.17	-36.3	-37.7	16.8	0.00e+00	0	61	0	1520435200	43	4154
2026-01-24 16:04:33.66	260.20	17.19	-36.3	-37.7	16.8	0.00e+00	0	61	0	1527775232	43	4146
2026-01-24 16:04:34.67	260.42	17.22	-36.3	-37.6	16.9	0.00e+00	0	61	0	1535115264	43	4120
2026-01-24 16:04:35.68	260.65	17.25	-36.2	-37.5	16.9	0.00e+00	0	61	0	1542455296	43	4089
2026-01-24 16:04:36.69	260.87	17.27	-36.3	-37.6	16.8	0.00e+00	0	61	0	1548746752	43	4137
2026-01-24 16:04:37.70	261.10	17.30	-36.4	-37.8	16.7	0.00e+00	0	61	0	1556086784	43	4215
2026-01-24 16:04:38.71	261.33	17.32	-36.5	-37.8	16.7	0.00e+00	0	61	0	1564475392	43	4220
2026-01-24 16:04:39.72	261.56	17.35	-36.6	-37.9	16.5	0.00e+00	0	61	0	1570766848	43	4285
2026-01-24 16:04:40.73	261.78	17.37	-36.7	-38.1	16.3	0.00e+00	0	61	0	1578106880	43	4381
2026-01-24 16:04:41.74	262.01	17.39	-36.7	-38.2	16.3	0.00e+00	0	61	0	1585446912	43	4410
2026-01-24 16:04:42.75	262.24	17.42	-36.6	-38.0	16.5	0.00e+00	0	61	0	1592786944	43	4303
2026-01-24 16:04:43.76	262.47	17.44	-36.5	-37.9	16.6	0.00e+00	0	61	0	1600126976	43	4251
2026-01-24 16:04:44.76	262.70	17.46	-36.5	-37.9	16.5	0.00e+00	0	61	0	1607467008	43	4271
2026-01-24 16:04:45.77	262.93	17.48	-36.5	-37.9	16.6	0.00e+00	0	61	0	1614807040	43	4252
2026-01-24 16:04:46.78	263.16	17.50	-36.4	-37.8	16.7	0.00e+00	0	61	0	1622147072	43	4211
2026-01-24 16:04:47.79	263.39	17.52	-36.5	-37.9	16.6	0.00e+00	0	61	0	1629487104	43	4243
2026-01-24 16:04:48.80	263.62	17.54	-36.6	-38.0	16.5	0.00e+00	0	61	0	1636827136	43	4317
2026-01-24 16:04:49.81	263.85	17.56	-36.7	-38.1	16.4	0.00e+00	0	61	0	1644167168	43	4368
2026-01-24 16:04:50.82	264.08	17.58	-36.7	-38.1	16.4	0.00e+00	0	61	0	1651507200	43	4371
2026-01-24 16:04:51.83	264.31	17.60	-36.7	-38.1	16.4	0.00e+00	0	61	0	1658847232	43	4371
2026-01-24 16:04:52.84	264.54	17.62	-36.6	-38.0	16.4	0.00e+00	0	61	0	1666187264	43	4331
2026-01-24 16:04:53.85	264.77	17.64	-36.5	-37.8	16.6	0.00e+00	0	61	0	1672478720	43	4241
2026-01-24 16:04:54.86	265.01	17.66	-36.4	-37.8	16.7	0.00e+00	0	61	0	1680867328	43	4197
2026-01-24 16:04:55.87	265.24	17.68	-36.3	-37.7	16.8	0.00e+00	0	61	0	1688207360	43	4146
2026-01-24 16:04:56.88	265.47	17.69	-36.2	-37.5	16.9	0.00e+00	0	61	0	1694498816	43	4068
2026-01-24 16:04:57.88	265.70	17.71	-36.1	-37.4	17.1	0.00e+00	0	61	0	1701838848	43	4021
2026-01-24 16:04:58.90	265.94	17.73	-36.1	-37.3	17.1	0.00e+00	0	61	0	1709178880	43	4000
2026-01-24 16:04:59.91	266.17	17.74	-36.1	-37.4	17.1	0.00e+00	0	61	0	1716518912	43	4027
2026-01-24 16:05:00.92	266.40	17.76	-36.1	-37.4	17.0	0.00e+00	0	61	0	1723858944	43	4050
2026-01-24 16:05:01.93	266.64	17.77	-36.1	-37.4	17.0	0.00e+00	0	61	0	1731198976	43	4041
2026-01-24 16:05:02.94	266.87	17.79	-36.2	-37.6	16.9	0.00e+00	0	61	0	1738539008	43	4103
2026-01-24 16:05:03.95	267.11	17.80	-36.3	-37.6	16.9	0.00e+00	0	61	0	1745879040	43	4132
2026-01-24 16:05:04.96	267.34	17.81	-36.2	-37.5	17.0	0.00e+00	0	61	0	1753219072	43	4058
2026-01-24 16:05:05.97	267.57	17.83	-36.3	-37.6	16.8	0.00e+00	0	61	0	1760559104	43	4126
2026-01-24 16:05:06.98	267.81	17.84	-36.3	-37.7	16.8	0.00e+00	0	61	0	1767899136	43	4150
2026-01-24 16:05:07.99	268.04	17.85	-36.3	-37.7	16.8	0.00e+00	0	61	0	1775239168	43	4154
2026-01-24 16:05:09.00	268.28	17.86	-36.3	-37.7	16.8	0.00e+00	0	61	0	1782579200	43	4147
2026-01-24 16:05:10.01	268.51	17.87	-36.4	-37.7	16.7	0.00e+00	0	61	0	1789919232	43	4182
2026-01-24 16:05:11.02	268.75	17.88	-36.3	-37.7	16.8	0.00e+00	0	61	0	1797259264	43	4154
2026-01-24 16:05:12.03	268.99	17.89	-36.3	-37.6	16.8	0.00e+00	0	61	0	1804599296	43	4126
2026-01-24 16:05:13.04	269.22	17.90	-36.3	-37.6	16.8	0.00e+00	0	61	0	1811939328	43	4136
2026-01-24 16:05:14.04	269.46	17.91	-36.3	-37.7	16.8	0.00e+00	0	61	0	1819279360	43	4159
2026-01-24 16:05:15.05	269.69	17.92	-36.3	-37.6	16.8	0.00e+00	0	61	0	1826619392	43	4128
2026-01-24 16:05:16.06	269.93	17.93	-36.3	-37.6	16.9	0.00e+00	0	61	0	1833959424	43	4124
2026-01-24 16:05:17.07	270.16	17.94	-36.2	-37.5	16.9	0.00e+00	0	61	0	1841299456	43	4097
2026-01-24 16:05:18.08	270.40	17.94	-36.2	-37.5	17.0	0.00e+00	0	61	0	1847590912	43	4073
2026-01-24 16:05:19.09	270.64	17.95	-36.1	-37.4	17.0	0.00e+00	0	61	0	1854930944	43	4051
2026-01-24 16:05:20.10	270.87	17.96	-36.1	-37.4	17.1	0.00e+00	0	61	0	1863319552	43	4035
2026-01-24 16:05:21.11	271.11	17.96	-36.1	-37.4	17.0	0.00e+00	0	61	0	1869611008	43	4033
2026-01-24 16:05:22.12	271.35	17.97	-36.1	-37.4	17.1	0.00e+00	0	61	0	1876951040	43	4031
2026-01-24 16:05:23.13	271.58	17.97	-36.1	-37.4	17.0	0.00e+00	0	61	0	1884291072	43	4043
2026-01-24 16:05:24.14	271.82	17.98	-36.1	-37.4	17.0	0.00e+00	0	61	0	1891631104	43	4044
2026-01-24 16:05:25.15	272.06	17.98	-36.2	-37.5	16.9	0.00e+00	0	61	0	1898971136	43	4079
2026-01-24 16:05:26.16	272.29	17.99	-36.3	-37.6	16.8	0.00e+00	0	61	0	1906311168	43	4128
2026-01-24 16:05:27.17	272.53	17.99	-36.2	-37.5	16.9	0.00e+00	0	61	0	1913651200	43	4097
2026-01-24 16:05:28.18	272.77	17.99	-36.2	-37.5	16.9	0.00e+00	0	61	0	1920991232	43	4086
2026-01-24 16:05:29.19	273.01	17.99	-36.2	-37.6	16.9	0.00e+00	0	61	0	1928331264	43	4100
2026-01-24 16:05:30.20	273.24	18.00	-36.2	-37.6	16.9	0.00e+00	0	61	0	1935671296	43	4113
2026-01-24 16:05:31.20	273.48	18.00	-36.4	-37.7	16.7	0.00e+00	0	62	0	1943011328	43	4180
2026-01-24 16:05:32.21	273.72	18.00	-36.4	-37.7	16.7	0.00e+00	0	61	0	1950351360	43	4176
2026-01-24 16:05:33.22	273.95	18.00	-36.4	-37.7	16.7	0.00e+00	0	61	0	1957691392	43	4183
2026-01-24 16:05:34.23	274.19	18.00	-36.2	-37.6	16.9	0.00e+00	0	61	0	1965031424	43	4104
2026-01-24 16:05:35.24	274.43	18.00	-36.3	-37.6	16.8	0.00e+00	0	61	0	1971322880	43	4133
2026-01-24 16:05:36.25	274.66	18.00	-36.1	-37.4	17.0	0.00e+00	0	61	0	1978662912	43	4027
2026-01-24 16:05:37.26	274.90	17.99	-36.2	-37.6	16.8	0.00e+00	0	61	0	1987051520	43	4118
2026-01-24 16:05:38.27	275.14	17.99	-36.1	-37.4	17.0	0.00e+00	0	61	0	1993342976	43	4051
2026-01-24 16:05:39.28	275.38	17.99	-36.1	-37.4	17.0	0.00e+00	0	61	0	2000683008	43	4049
2026-01-24 16:05:40.29	275.61	17.99	-36.1	-37.4	17.0	0.00e+00	0	61	0	2008023040	43	4020
2026-01-24 16:05:41.30	275.85	17.98	-36.0	-37.3	17.1	0.00e+00	0	61	0	2015363072	43	3973
2026-01-24 16:05:42.31	276.09	17.98	-36.0	-37.3	17.1	0.00e+00	0	61	0	2022703104	42	4213
2026-01-24 16:05:43.32	276.32	17.97	-36.0	-37.3	17.2	0.00e+00	0	61	0	2030043136	42	4199
2026-01-24 16:05:44.33	276.56	17.97	-36.1	-37.4	17.1	0.00e+00	0	61	0	2037383168	42	4246
2026-01-24 16:05:45.34	276.80	17.96	-36.1	-37.4	17.0	0.00e+00	0	61	0	2044723200	42	4256
2026-01-24 16:05:46.35	277.03	17.96	-36.2	-37.5	17.0	0.00e+00	0	61	0	2052063232	42	4312
2026-01-24 16:05:47.36	277.27	17.95	-36.3	-37.6	16.8	0.00e+00	0	61	0	2059403264	42	4379
2026-01-24 16:05:48.37	277.51	17.95	-36.3	-37.7	16.7	0.00e+00	0	61	0	2066743296	42	4416
2026-01-24 16:05:49.38	277.74	17.94	-36.4	-37.8	16.6	0.00e+00	0	61	0	2074083328	42	4481
2026-01-24 16:05:50.39	277.98	17.93	-36.5	-37.9	16.5	0.00e+00	0	61	0	2081423360	42	4535
2026-01-24 16:05:51.40	278.21	17.92	-36.5	-37.9	16.5	0.00e+00	0	61	0	2088763392	42	4525
2026-01-24 16:05:52.41	278.45	17.91	-36.4	-37.8	16.6	0.00e+00	0	61	0	2096103424	42	4484
2026-01-24 16:05:53.42	278.69	17.90	-36.4	-37.7	16.7	0.00e+00	0	61	0	2103443456	42	4441
2026-01-24 16:05:54.43	278.92	17.89	-36.3	-37.7	16.7	0.00e+00	0	61	0	2110783488	42	4426
2026-01-24 16:05:55.43	279.15	17.88	-36.3	-37.7	16.7	0.00e+00	0	61	0	2118123520	42	4402
2026-01-24 16:05:56.44	279.39	17.87	-36.3	-37.6	16.8	0.00e+00	0	61	0	2124414976	42	4378
2026-01-24 16:05:57.45	279.63	17.86	-36.2	-37.5	16.9	0.00e+00	0	61	0	2132803584	42	4309
2026-01-24 16:05:58.46	279.86	17.85	-36.3	-37.6	16.8	0.00e+00	0	61	0	2140143616	42	4377
2026-01-24 16:05:59.47	280.09	17.84	-36.2	-37.5	16.9	0.00e+00	0	61	0	2146435072	42	4337
2026-01-24 16:06:00.48	280.33	17.83	-36.3	-37.7	16.7	0.00e+00	0	61	0	2153775104	42	4408
2026-01-24 16:06:01.49	280.56	17.81	-36.2	-37.6	16.8	0.00e+00	0	61	0	2161115136	42	4352
2026-01-24 16:06:02.50	280.80	17.80	-36.4	-37.8	16.7	0.00e+00	0	61	0	2168455168	42	4446
2026-01-24 16:06:03.51	281.03	17.79	-36.3	-37.6	16.8	0.00e+00	0	61	0	2175795200	42	4382
2026-01-24 16:06:04.52	281.27	17.77	-36.3	-37.7	16.7	0.00e+00	0	62	0	2183135232	42	4418
2026-01-24 16:06:05.53	281.50	17.76	-36.4	-37.7	16.7	0.00e+00	0	61	0	2190475264	42	4434
2026-01-24 16:06:06.54	281.73	17.74	-36.5	-37.8	16.6	0.00e+00	0	61	0	2197815296	42	4488
2026-01-24 16:06:07.55	281.97	17.73	-36.5	-37.9	16.5	0.00e+00	0	61	0	2205155328	42	4532
2026-01-24 16:06:08.56	282.20	17.71	-36.4	-37.8	16.6	0.00e+00	0	61	0	2212495360	42	4461
2026-01-24 16:06:09.57	282.43	17.70	-36.6	-37.9	16.5	0.00e+00	0	62	0	2219835392	42	4545
2026-01-24 16:06:10.58	282.66	17.68	-36.4	-37.8	16.6	0.00e+00	0	61	0	2227175424	42	4456
2026-01-24 16:06:11.60	282.90	17.66	-36.4	-37.7	16.7	0.00e+00	0	62	0	2234515456	42	4440
2026-01-24 16:06:12.60	283.13	17.64	-36.4	-37.7	16.7	0.00e+00	0	61	0	2241855488	42	4432
2026-01-24 16:06:13.61	283.36	17.63	-36.4	-37.8	16.6	0.00e+00	0	61	0	2249195520	42	4453
2026-01-24 16:06:14.62	283.59	17.61	-36.4	-37.8	16.6	0.00e+00	0	61	0	2256535552	42	4454
2026-01-24 16:06:15.63	283.82	17.59	-36.5	-37.9	16.5	0.00e+00	0	61	0	2263875584	42	4526
2026-01-24 16:06:16.64	284.05	17.57	-36.4	-37.8	16.6	0.00e+00	0	61	0	2270167040	42	4480
2026-01-24 16:06:17.65	284.28	17.55	-36.4	-37.7	16.7	0.00e+00	0	61	0	2277507072	42	4428
2026-01-24 16:06:18.66	284.51	17.53	-36.5	-37.8	16.6	0.00e+00	0	62	0	2285895680	42	4478
2026-01-24 16:06:19.67	284.74	17.51	-36.6	-38.0	16.4	0.00e+00	0	62	0	2292187136	42	4571
2026-01-24 16:06:20.68	284.97	17.49	-36.5	-37.9	16.5	0.00e+00	0	62	0	2299527168	42	4532
2026-01-24 16:06:21.69	285.20	17.46	-36.5	-37.9	16.5	0.00e+00	0	61	0	2306867200	42	4524
2026-01-24 16:06:22.70	285.43	17.44	-36.6	-38.0	16.4	0.00e+00	0	61	0	2314207232	42	4591
2026-01-24 16:06:23.71	285.66	17.42	-36.6	-38.0	16.4	0.00e+00	0	62	0	2321547264	42	4559
2026-01-24 16:06:24.72	285.88	17.40	-36.6	-38.0	16.4	0.00e+00	0	61	0	2328887296	42	4556
2026-01-24 16:06:25.73	286.11	17.37	-36.5	-37.9	16.5	0.00e+00	0	62	0	2336227328	42	4505
2026-01-24 16:06:26.74	286.34	17.35	-36.4	-37.7	16.7	0.00e+00	0	62	0	2343567360	42	4429
2026-01-24 16:06:27.75	286.57	17.33	-36.3	-37.7	16.7	0.00e+00	0	62	0	2350907392	42	4396
2026-01-24 16:06:28.76	286.79	17.30	-36.4	-37.7	16.7	0.00e+00	0	62	0	2358247424	42	4431
2026-01-24 16:06:29.77	287.02	17.28	-36.4	-37.7	16.6	0.00e+00	0	61	0	2365587456	42	4436
2026-01-24 16:06:30.78	287.25	17.25	-36.5	-37.9	16.5	0.00e+00	0	62	0	2372927488	42	4524
2026-01-24 16:06:31.79	287.47	17.23	-36.5	-37.9	16.4	0.00e+00	0	61	0	2380267520	42	4536
2026-01-24 16:06:32.80	287.70	17.20	-36.5	-37.8	16.5	0.00e+00	0	62	0	2387607552	42	4479
2026-01-24 16:06:33.81	287.92	17.17	-36.5	-37.9	16.5	0.00e+00	0	62	0	2394947584	42	4523
2026-01-24 16:06:34.82	288.15	17.15	-36.4	-37.8	16.5	0.00e+00	0	62	0	2402287616	42	4471
2026-01-24 16:06:35.83	288.37	17.12	-36.4	-37.7	16.6	0.00e+00	0	62	0	2409627648	42	4433
2026-01-24 16:06:36.84	288.59	17.09	-36.3	-37.7	16.7	0.00e+00	0	61	0	2416967680	42	4419
2026-01-24 16:06:37.84	288.81	17.06	-36.4	-37.8	16.6	0.00e+00	0	62	0	2423259136	42	4448
2026-01-24 16:06:38.85	289.04	17.04	-36.5	-37.8	16.5	0.00e+00	0	62	0	2431647744	42	4493
2026-01-24 16:06:39.86	289.26	17.01	-36.4	-37.8	16.5	0.00e+00	0	62	0	2438987776	42	4457
2026-01-24 16:06:40.87	289.48	16.98	-36.4	-37.8	16.6	0.00e+00	0	62	0	2445279232	42	4461
2026-01-24 16:06:41.88	289.70	16.95	-36.5	-37.9	16.5	0.00e+00	0	62	0	2452619264	42	4527
2026-01-24 16:06:42.89	289.92	16.92	-36.4	-37.8	16.5	0.00e+00	0	62	0	2459959296	42	4479
2026-01-24 16:06:43.90	290.14	16.89	-36.4	-37.8	16.5	0.00e+00	0	62	0	2467299328	42	4472
2026-01-24 16:06:44.91	290.36	16.86	-36.3	-37.6	16.6	0.00e+00	0	62	0	2474639360	42	4363
2026-01-24 16:06:45.92	290.58	16.83	-36.5	-37.8	16.5	0.00e+00	0	61	0	2481979392	42	4483
2026-01-24 16:06:46.93	290.80	16.80	-36.4	-37.8	16.5	0.00e+00	0	62	0	2489319424	42	4474
2026-01-24 16:06:47.94	291.02	16.76	-36.5	-37.9	16.5	0.00e+00	0	61	0	2496659456	42	4504
2026-01-24 16:06:48.95	291.24	16.73	-36.5	-37.9	16.4	0.00e+00	0	62	0	2503999488	42	4529
2026-01-24 16:06:49.96	291.46	16.70	-36.5	-37.9	16.4	0.00e+00	0	62	0	2511339520	42	4542
2026-01-24 16:06:50.97	291.68	16.67	-36.6	-38.0	16.3	0.00e+00	0	61	0	2518679552	42	4573
2026-01-24 16:06:51.98	291.89	16.63	-36.7	-38.1	16.2	0.00e+00	0	62	0	2526019584	42	4625
2026-01-24 16:06:52.99	292.11	16.60	-36.7	-38.2	16.2	0.00e+00	0	62	0	2533359616	43	4392
2026-01-24 16:06:54.00	292.33	16.57	-36.7	-38.2	16.1	0.00e+00	0	62	0	2540699648	43	4393
2026-01-24 16:06:55.00	292.54	16.53	-36.7	-38.1	16.2	0.00e+00	0	62	0	2548039680	43	4373
2026-01-24 16:06:56.01	292.75	16.50	-36.6	-38.1	16.2	0.00e+00	0	62	0	2555379712	43	4346
2026-01-24 16:06:57.02	292.97	16.46	-36.7	-38.1	16.2	0.00e+00	0	62	0	2562719744	43	4381
2026-01-24 16:06:58.03	293.18	16.43	-36.7	-38.1	16.2	0.00e+00	0	62	0	2569011200	43	4367
2026-01-24 16:06:59.04	293.40	16.39	-36.7	-38.1	16.2	0.00e+00	0	62	0	2576351232	43	4355
2026-01-24 16:07:00.05	293.61	16.36	-36.6	-38.0	16.3	0.00e+00	0	62	0	2584739840	43	4313
2026-01-24 16:07:01.06	293.82	16.32	-36.6	-38.0	16.3	0.00e+00	0	62	0	2591031296	43	4316
2026-01-24 16:07:02.07	294.03	16.28	-36.6	-38.1	16.3	0.00e+00	0	62	0	2598371328	43	4343
2026-01-24 16:07:03.08	294.25	16.25	-36.5	-38.0	16.4	0.00e+00	0	62	0	2605711360	43	4294
2026-01-24 16:07:04.09	294.46	16.21	-36.5	-38.0	16.3	0.00e+00	0	61	0	2613051392	43	4295
2026-01-24 16:07:05.10	294.67	16.17	-36.5	-37.9	16.3	0.00e+00	0	62	0	2620391424	43	4286
2026-01-24 16:07:06.11	294.88	16.14	-36.5	-37.9	16.3	0.00e+00	0	62	0	2627731456	43	4278
2026-01-24 16:07:07.12	295.09	16.10	-36.6	-38.0	16.3	0.00e+00	0	62	0	2635071488	43	4338
2026-01-24 16:07:08.13	295.30	16.06	-36.6	-38.1	16.2	0.00e+00	0	62	0	2642411520	43	4348
2026-01-24 16:07:09.14	295.50	16.02	-36.7	-38.1	16.2	0.00e+00	0	62	0	2649751552	43	4367
2026-01-24 16:07:10.15	295.71	15.98	-36.6	-38.0	16.2	0.00e+00	0	62	0	2657091584	43	4338
2026-01-24 16:07:11.16	295.92	15.94	-36.5	-37.9	16.3	0.00e+00	0	62	0	2664431616	43	4280
2026-01-24 16:07:12.17	296.13	15.90	-36.5	-37.9	16.4	0.00e+00	0	62	0	2671771648	43	4278
2026-01-24 16:07:13.17	296.33	15.86	-36.5	-37.9	16.4	0.00e+00	0	62	0	2679111680	43	4259
2026-01-24 16:07:14.19	296.54	15.82	-36.5	-37.9	16.3	0.00e+00	0	62	0	2686451712	43	4283
2026-01-24 16:07:15.20	296.74	15.78	-36.5	-37.9	16.4	0.00e+00	0	62	0	2693791744	43	4263
2026-01-24 16:07:16.21	296.95	15.74	-36.6	-38.0	16.2	0.00e+00	0	62	0	2701131776	43	4327
2026-01-24 16:07:17.22	297.15	15.70	-36.6	-38.0	16.2	0.00e+00	0	62	0	2708471808	43	4329
2026-01-24 16:07:18.23	297.36	15.66	-36.7	-38.1	16.1	0.00e+00	0	62	0	2715811840	43	4387
2026-01-24 16:07:19.24	297.56	15.62	-36.8	-38.3	16.0	0.00e+00	0	62	0	2722103296	43	4443
2026-01-24 16:07:20.25	297.76	15.58	-36.9	-38.3	15.9	0.00e+00	0	62	0	2729443328	43	4489
2026-01-24 16:07:21.25	297.96	15.54	-36.8	-38.3	16.0	0.00e+00	0	62	0	2737831936	43	4478
2026-01-24 16:07:22.26	298.16	15.49	-36.9	-38.4	15.9	0.00e+00	0	62	0	2744123392	43	4530
2026-01-24 16:07:23.27	298.36	15.45	-37.0	-38.4	15.9	0.00e+00	0	62	0	2751463424	43	4536
2026-01-24 16:07:24.29	298.57	15.41	-37.0	-38.5	15.9	0.00e+00	0	61	0	2758803456	43	4550
2026-01-24 16:07:25.30	298.77	15.37	-37.0	-38.5	15.8	0.00e+00	0	62	0	2766143488	43	4547
2026-01-24 16:07:26.31	298.97	15.32	-37.0	-38.5	15.8	0.00e+00	0	62	0	2773483520	43	4551
2026-01-24 16:07:27.32	299.16	15.28	-37.0	-38.5	15.7	0.00e+00	0	62	0	2780823552	43	4596
2026-01-24 16:07:28.33	299.36	15.24	-37.0	-38.6	15.7	0.00e+00	0	62	0	2788163584	43	4610
2026-01-24 16:07:29.34	299.56	15.19	-37.0	-38.5	15.8	0.00e+00	0	62	0	2795503616	43	4581
2026-01-24 16:07:30.35	299.76	15.15	-37.0	-38.5	15.8	0.00e+00	0	62	0	2802843648	43	4558
2026-01-24 16:07:31.36	299.95	15.10	-36.9	-38.4	15.9	0.00e+00	0	62	0	2810183680	43	4520
2026-01-24 16:07:32.37	300.15	15.06	-37.0	-38.5	15.8	0.00e+00	0	62	0	2817523712	43	4550
2026-01-24 16:07:33.38	300.34	15.01	-36.9	-38.3	16.0	0.00e+00	0	62	0	2824863744	43	4490
2026-01-24 16:07:34.39	300.54	14.97	-36.9	-38.3	16.0	0.00e+00	0	62	0	2832203776	43	4489
2026-01-24 16:07:35.39	300.73	14.92	-36.8	-38.3	16.0	0.00e+00	0	62	0	2839543808	43	4456
2026-01-24 16:07:36.40	300.92	14.88	-36.9	-38.3	15.9	0.00e+00	0	62	0	2846883840	43	4485
2026-01-24 16:07:37.41	301.12	14.83	-36.9	-38.4	15.9	0.00e+00	0	62	0	2854223872	43	4500
2026-01-24 16:07:38.42	301.31	14.79	-37.0	-38.5	15.8	0.00e+00	0	62	0	2861563904	43	4556
2026-01-24 16:07:39.43	301.50	14.74	-37.0	-38.5	15.8	0.00e+00	0	62	0	2867855360	43	4561
2026-01-24 16:07:40.44	301.69	14.70	-37.0	-38.6	15.7	0.00e+00	0	62	0	2875195392	43	4606
2026-01-24 16:07:41.45	301.88	14.65	-37.1	-38.6	15.7	0.00e+00	0	62	0	2882535424	43	4620
2026-01-24 16:07:42.46	302.07	14.60	-37.0	-38.5	15.8	0.00e+00	0	62	0	2889875456	43	4558
2026-01-24 16:07:43.47	302.26	14.56	-36.9	-38.4	15.8	0.00e+00	0	62	0	2897215488	43	4533
2026-01-24 16:07:44.48	302.45	14.51	-36.9	-38.4	15.9	0.00e+00	0	62	0	2904555520	43	4515
2026-01-24 16:07:45.49	302.64	14.46	-36.9	-38.4	15.9	0.00e+00	0	61	0	2911895552	43	4516
2026-01-24 16:07:46.50	302.83	14.41	-37.0	-38.5	15.8	0.00e+00	0	62	0	2919235584	43	4562
2026-01-24 16:07:47.51	303.01	14.37	-36.9	-38.4	15.9	0.00e+00	0	62	0	2926575616	43	4518
2026-01-24 16:07:48.52	303.20	14.32	-37.1	-38.6	15.7	0.00e+00	0	62	0	2933915648	43	4613
2026-01-24 16:07:49.52	303.38	14.27	-37.1	-38.6	15.6	0.00e+00	0	62	0	2941255680	43	4622
2026-01-24 16:07:50.53	303.57	14.22	-37.0	-38.5	15.7	0.00e+00	0	62	0	2948595712	43	4597
2026-01-24 16:07:51.54	303.75	14.17	-37.1	-38.6	15.6	0.00e+00	0	62	0	2955935744	43	4636
2026-01-24 16:07:52.55	303.94	14.13	-37.1	-38.7	15.6	0.00e+00	0	61	0	2963275776	43	4666
2026-01-24 16:07:53.56	304.12	14.08	-37.1	-38.6	15.7	0.00e+00	0	62	0	2970615808	43	4604
2026-01-24 16:07:54.57	304.30	14.03	-37.1	-38.7	15.6	0.00e+00	0	62	0	2977955840	43	4659
2026-01-24 16:07:55.58	304.49	13.98	-37.2	-38.7	15.6	0.00e+00	0	61	0	2985295872	43	4681
2026-01-24 16:07:56.59	304.67	13.93	-37.2	-38.7	15.6	0.00e+00	0	62	0	2992635904	43	4681
2026-01-24 16:07:57.60	304.85	13.88	-37.1	-38.7	15.6	0.00e+00	0	62	0	2998927360	43	4657
2026-01-24 16:07:58.61	305.03	13.83	-37.1	-38.7	15.6	0.00e+00	0	62	0	3007315968	43	4663
2026-01-24 16:07:59.62	305.21	13.78	-37.2	-38.7	15.5	0.00e+00	0	62	0	3014656000	43	4699
2026-01-24 16:08:00.63	305.39	13.73	-37.4	-39.0	15.5	0.00e+00	0	62	0	3020947456	44	4550
2026-01-24 16:08:01.64	305.57	13.68	-37.3	-38.8	15.6	0.00e+00	0	62	0	3028287488	44	4467
2026-01-24 16:08:02.65	305.75	13.63	-37.3	-38.8	15.6	0.00e+00	0	62	0	3035627520	44	4487
2026-01-24 16:08:03.66	305.92	13.58	-37.2	-38.7	15.6	0.00e+00	0	62	0	3042967552	44	4435
2026-01-24 16:08:04.67	306.10	13.53	-37.3	-38.9	15.5	0.00e+00	0	62	0	3050307584	44	4497
2026-01-24 16:08:05.68	306.28	13.48	-37.3	-38.9	15.5	0.00e+00	0	62	0	3057647616	44	4523
2026-01-24 16:08:06.69	306.45	13.43	-37.5	-39.0	15.4	0.00e+00	0	62	0	3064987648	44	4590
2026-01-24 16:08:07.70	306.63	13.38	-37.5	-39.0	15.3	0.00e+00	0	62	0	3072327680	44	4598
2026-01-24 16:08:08.71	306.80	13.33	-37.6	-39.2	15.1	0.00e+00	0	62	0	3079667712	44	4705
2026-01-24 16:08:09.72	306.98	13.28	-37.6	-39.2	15.2	0.00e+00	0	62	0	3087007744	44	4681
2026-01-24 16:08:10.73	307.15	13.23	-37.7	-39.3	15.0	0.00e+00	0	62	0	3094347776	44	4752
2026-01-24 16:08:11.74	307.32	13.17	-37.7	-39.4	15.0	0.00e+00	0	62	0	3101687808	45	4504
2026-01-24 16:08:12.75	307.50	13.12	-37.6	-39.2	15.1	1.10e-06	0	62	0	3109027840	45	4424
2026-01-24 16:08:13.76	307.67	13.07	-37.5	-39.2	15.2	0.00e+00	0	62	0	3116367872	45	4392
2026-01-24 16:08:14.77	307.84	13.02	-37.6	-39.2	15.1	0.00e+00	0	62	0	3123707904	45	4427
2026-01-24 16:08:15.78	308.01	12.97	-37.6	-39.3	15.1	0.00e+00	0	62	0	3131047936	45	4443
2026-01-24 16:08:16.79	308.18	12.92	-37.6	-39.3	15.0	0.00e+00	0	62	0	3138387968	45	4448
2026-01-24 16:08:17.80	308.35	12.86	-37.7	-39.3	15.0	0.00e+00	0	62	0	3144679424	45	4464
2026-01-24 16:08:18.81	308.52	12.81	-37.6	-39.2	15.1	0.00e+00	0	62	0	3153068032	45	4437
2026-01-24 16:08:19.82	308.69	12.76	-37.7	-39.4	14.9	0.00e+00	0	62	0	3160408064	45	4502
2026-01-24 16:08:20.83	308.85	12.71	-37.7	-39.3	15.0	0.00e+00	0	62	0	3166699520	45	4469
2026-01-24 16:08:21.84	309.02	12.65	-37.7	-39.4	15.0	0.00e+00	0	62	0	3174039552	45	4501
2026-01-24 16:08:22.85	309.19	12.60	-37.8	-39.4	14.9	0.00e+00	0	62	0	3181379584	45	4523
2026-01-24 16:08:23.86	309.35	12.55	-37.8	-39.4	14.9	0.00e+00	0	62	0	3188719616	45	4545
2026-01-24 16:08:24.87	309.52	12.50	-37.7	-39.4	14.9	0.00e+00	0	62	0	3196059648	45	4507
2026-01-24 16:08:25.88	309.68	12.44	-37.8	-39.4	14.9	0.00e+00	0	62	0	3203399680	45	4536
2026-01-24 16:08:26.89	309.85	12.39	-37.8	-39.5	14.9	0.00e+00	0	62	0	3210739712	45	4548
2026-01-24 16:08:27.90	310.01	12.34	-37.8	-39.5	14.9	0.00e+00	0	62	0	3218079744	45	4551
2026-01-24 16:08:28.91	310.17	12.28	-37.7	-39.3	15.0	0.00e+00	0	62	0	3225419776	45	4466
2026-01-24 16:08:29.92	310.34	12.23	-37.7	-39.3	15.0	0.00e+00	0	62	0	3232759808	45	4477
2026-01-24 16:08:30.93	310.50	12.18	-37.7	-39.3	15.0	0.00e+00	0	62	0	3240099840	45	4466
2026-01-24 16:08:31.94	310.66	12.12	-37.7	-39.3	15.0	0.00e+00	0	62	0	3247439872	45	4456
2026-01-24 16:08:32.95	310.82	12.07	-37.7	-39.3	15.0	0.00e+00	0	62	0	3254779904	45	4468
2026-01-24 16:08:33.96	310.98	12.02	-37.7	-39.3	14.9	0.00e+00	0	62	0	3262119936	45	4489
2026-01-24 16:08:34.97	311.14	11.96	-37.6	-39.2	15.0	0.00e+00	0	62	0	3269459968	45	4431
2026-01-24 16:08:35.98	311.30	11.91	-37.7	-39.4	14.9	0.00e+00	0	62	0	3276800000	45	4507
2026-01-24 16:08:36.99	311.46	11.85	-37.8	-39.5	14.8	0.00e+00	0	62	0	3284140032	45	4553
2026-01-24 16:08:38.00	311.62	11.80	-37.8	-39.4	14.8	0.00e+00	0	62	0	3291480064	45	4543
2026-01-24 16:08:39.01	311.77	11.75	-37.9	-39.6	14.6	0.00e+00	0	62	0	3298820096	45	4649
2026-01-24 16:08:40.02	311.93	11.69	-38.0	-39.7	14.6	0.00e+00	0	62	0	3306160128	45	4668
2026-01-24 16:08:41.03	312.09	11.64	-38.0	-39.8	14.5	0.00e+00	0	62	0	3313500160	45	4706
2026-01-24 16:08:42.04	312.24	11.58	-38.0	-39.7	14.6	0.00e+00	0	62	0	3319791616	45	4678
2026-01-24 16:08:43.05	312.40	11.53	-38.0	-39.7	14.5	1.10e-06	0	62	0	3328180224	45	4696
2026-01-24 16:08:44.06	312.55	11.48	-38.0	-39.8	14.5	2.20e-06	0	62	0	3335520256	45	4715
2026-01-24 16:08:45.07	312.71	11.42	-38.1	-39.8	14.4	1.10e-06	0	62	0	3341811712	45	4740
2026-01-24 16:08:46.08	312.86	11.37	-38.0	-39.8	14.5	0.00e+00	0	62	0	3349151744	45	4707
2026-01-24 16:08:47.09	313.01	11.31	-38.0	-39.7	14.5	0.00e+00	0	62	0	3356491776	45	4689
2026-01-24 16:08:48.10	313.16	11.26	-37.9	-39.7	14.6	0.00e+00	0	62	0	3363831808	45	4658
2026-01-24 16:08:49.11	313.32	11.20	-37.9	-39.6	14.6	1.10e-06	0	62	0	3371171840	45	4642
2026-01-24 16:08:50.12	313.47	11.15	-37.9	-39.7	14.6	1.10e-06	0	62	0	3378511872	45	4661
2026-01-24 16:08:51.13	313.62	11.09	-37.8	-39.5	14.7	1.10e-06	0	62	0	3385851904	45	4558
2026-01-24 16:08:52.14	313.77	11.04	-37.8	-39.4	14.8	0.00e+00	0	62	0	3393191936	45	4536
2026-01-24 16:08:53.15	313.92	10.98	-37.7	-39.4	14.8	1.10e-06	0	62	0	3400531968	45	4525
2026-01-24 16:08:54.16	314.07	10.93	-37.7	-39.4	14.8	0.00e+00	0	62	0	3407872000	45	4508
2026-01-24 16:08:55.17	314.21	10.87	-37.7	-39.4	14.8	1.10e-06	0	62	0	3415212032	45	4513
2026-01-24 16:08:56.18	314.36	10.82	-37.6	-39.2	15.0	0.00e+00	0	62	0	3422552064	45	4430
2026-01-24 16:08:57.19	314.51	10.76	-37.7	-39.4	14.8	0.00e+00	0	62	0	3429892096	45	4502
2026-01-24 16:08:58.20	314.66	10.71	-37.7	-39.4	14.8	0.00e+00	0	62	0	3437232128	45	4518
2026-01-24 16:08:59.21	314.80	10.65	-37.8	-39.5	14.7	0.00e+00	0	62	0	3444572160	45	4562
2026-01-24 16:09:00.22	314.95	10.60	-37.9	-39.7	14.5	0.00e+00	0	62	0	3451912192	45	4671
2026-01-24 16:09:01.23	315.09	10.54	-38.0	-39.7	14.5	1.10e-06	0	62	0	3459252224	45	4679
2026-01-24 16:09:02.24	315.24	10.49	-38.0	-39.8	14.4	0.00e+00	0	62	0	3465543680	45	4714
2026-01-24 16:09:03.25	315.38	10.43	-38.1	-39.9	14.3	1.10e-06	0	62	0	3473932288	45	4778
2026-01-24 16:09:04.26	315.53	10.38	-38.1	-39.9	14.3	0.00e+00	0	62	0	3481272320	45	4790
2026-01-24 16:09:05.27	315.67	10.32	-38.2	-40.0	14.1	2.20e-06	0	62	0	3487563776	45	4855
2026-01-24 16:09:06.28	315.81	10.27	-38.3	-40.2	14.0	2.20e-06	0	62	0	3494903808	46	4652
2026-01-24 16:09:07.29	315.96	10.21	-38.4	-40.3	13.9	2.20e-06	0	62	0	3502243840	46	4709
2026-01-24 16:09:08.30	316.10	10.16	-38.4	-40.4	13.8	2.20e-06	0	62	0	3509583872	46	4761
2026-01-24 16:09:09.31	316.24	10.10	-38.4	-40.3	13.8	2.20e-06	0	62	0	3516923904	46	4734
2026-01-24 16:09:10.32	316.38	10.05	-38.4	-40.4	13.8	3.40e-06	0	62	0	3524263936	46	4767
2026-01-24 16:09:11.33	316.52	9.99	-38.5	-40.5	13.7	8.00e-06	0	62	0	3531603968	46	4816
2026-01-24 16:09:12.34	316.66	9.93	-38.4	-40.3	13.8	2.20e-06	0	62	0	3538944000	46	4741
2026-01-24 16:09:13.35	316.80	9.88	-38.3	-40.2	13.9	3.40e-06	0	62	0	3546284032	46	4670
2026-01-24 16:09:14.36	316.94	9.82	-38.4	-40.2	13.9	1.10e-06	0	62	0	3553624064	46	4703
2026-01-24 16:09:15.37	317.07	9.77	-38.3	-40.1	14.0	0.00e+00	0	62	0	3560964096	46	4633
2026-01-24 16:09:16.38	317.21	9.71	-38.2	-40.0	14.1	4.50e-06	0	62	0	3568304128	46	4594
2026-01-24 16:09:17.39	317.35	9.66	-38.2	-40.0	14.1	1.10e-06	0	62	0	3575644160	46	4571
2026-01-24 16:09:18.40	317.48	9.60	-38.2	-40.1	14.1	0.00e+00	0	62	0	3582984192	46	4606
2026-01-24 16:09:19.41	317.62	9.55	-38.1	-39.9	14.2	0.00e+00	0	62	0	3590324224	46	4537
2026-01-24 16:09:20.42	317.76	9.49	-38.1	-39.9	14.3	0.00e+00	0	62	0	3597664256	46	4497
2026-01-24 16:09:21.42	317.89	9.44	-38.1	-39.9	14.3	0.00e+00	0	62	0	3605004288	46	4504
2026-01-24 16:09:22.43	318.02	9.38	-38.0	-39.7	14.4	1.10e-06	0	62	0	3612344320	46	4430
2026-01-24 16:09:23.44	318.16	9.32	-37.9	-39.7	14.4	1.10e-06	0	62	0	3618635776	46	4416
2026-01-24 16:09:24.45	318.29	9.27	-38.0	-39.8	14.3	1.10e-06	0	62	0	3625975808	46	4469
2026-01-24 16:09:25.46	318.42	9.21	-38.0	-39.8	14.3	2.20e-06	0	62	0	3634364416	46	4475
2026-01-24 16:09:26.47	318.56	9.16	-38.0	-39.8	14.3	0.00e+00	0	62	0	3640655872	46	4478
2026-01-24 16:09:27.48	318.69	9.10	-38.1	-39.9	14.1	1.10e-06	0	62	0	3647995904	46	4526
2026-01-24 16:09:28.49	318.82	9.05	-38.2	-40.0	14.0	1.10e-06	0	62	0	3655335936	46	4579
2026-01-24 16:09:29.50	318.95	8.99	-38.3	-40.2	13.9	2.20e-06	0	62	0	3662675968	46	4679
2026-01-24 16:09:30.51	319.08	8.93	-38.3	-40.2	13.8	4.50e-06	0	62	0	3670016000	46	4681
2026-01-24 16:09:31.52	319.21	8.88	-38.3	-40.2	13.9	2.20e-06	0	62	0	3677356032	46	4675
2026-01-24 16:09:32.53	319.34	8.82	-38.4	-40.3	13.7	4.50e-06	0	62	0	3684696064	46	4737
2026-01-24 16:09:33.54	319.47	8.77	-38.4	-40.3	13.7	4.50e-06	0	62	0	3692036096	46	4737
2026-01-24 16:09:34.55	319.60	8.71	-38.5	-40.5	13.6	8.00e-06	0	62	0	3699376128	46	4815
2026-01-24 16:09:35.56	319.73	8.66	-38.6	-40.6	13.4	4.50e-06	0	62	0	3706716160	46	4886
2026-01-24 16:09:36.57	319.86	8.60	-38.7	-40.8	13.2	1.37e-05	0	62	0	3714056192	47	4710
2026-01-24 16:09:37.58	319.98	8.54	-38.8	-40.8	13.2	1.94e-05	0	62	0	3721396224	47	4749
2026-01-24 16:09:38.59	320.11	8.49	-38.8	-40.9	13.1	2.17e-05	0	62	0	3728736256	47	4769
2026-01-24 16:09:39.60	320.24	8.43	-38.7	-40.8	13.2	1.71e-05	0	62	0	3736076288	47	4728
2026-01-24 16:09:40.61	320.36	8.38	-38.7	-40.8	13.2	2.28e-05	0	62	0	3743416320	47	4708
2026-01-24 16:09:41.62	320.49	8.32	-38.7	-40.8	13.2	1.48e-05	0	62	0	3750756352	47	4725
2026-01-24 16:09:42.63	320.61	8.27	-38.8	-40.8	13.2	1.60e-05	0	62	0	3758096384	47	4742
2026-01-24 16:09:43.64	320.74	8.21	-38.7	-40.7	13.3	2.05e-05	0	62	0	3764387840	47	4658
2026-01-24 16:09:44.65	320.86	8.16	-38.7	-40.7	13.3	1.83e-05	0	62	0	3772776448	47	4654
2026-01-24 16:09:45.66	320.99	8.10	-38.7	-40.7	13.3	9.10e-06	0	62	0	3780116480	47	4655
2026-01-24 16:09:46.67	321.11	8.04	-38.5	-40.5	13.4	1.48e-05	0	62	0	3786407936	47	4582
2026-01-24 16:09:47.68	321.23	7.99	-43.7	-50.7	4.3	8.00e-06	0	62	0	3793747968	57	8343
2026-01-24 16:09:48.70	321.35	7.93	-44.8	-55.8	3.8	8.46e-01	0	62	104	3794796544	59	13320
2026-01-24 16:09:49.71	321.48	7.88	-45.0	-56.1	3.8	8.47e-01	0	62	104	3794796544	59	13746
2026-01-24 16:09:50.72	321.60	7.82	-45.2	-56.2	3.8	8.47e-01	0	62	104	3794796544	59	13998
2026-01-24 16:09:51.73	321.72	7.77	-45.2	-56.6	3.8	8.46e-01	0	62	104	3794796544	60	13770
2026-01-24 16:09:52.74	321.84	7.71	-45.4	-56.7	3.8	8.47e-01	0	62	104	3794796544	60	13979
2026-01-24 16:09:53.75	321.96	7.65	-45.5	-56.8	3.8	8.45e-01	0	62	104	3794796544	60	14204
2026-01-24 16:09:54.76	322.08	7.60	-45.5	-56.9	3.8	8.45e-01	0	62	104	3794796544	60	14269
2026-01-24 16:09:55.77	322.20	7.54	-45.5	-56.9	3.8	8.46e-01	0	62	104	3794796544	60	14308
2026-01-24 16:09:56.78	322.32	7.49	-45.5	-56.9	3.8	8.46e-01	0	62	104	3794796544	60	14350
2026-01-24 16:09:57.79	322.43	7.43	-45.4	-56.8	3.8	8.46e-01	0	62	104	3794796544	60	14154
2026-01-24 16:09:58.80	322.55	7.38	-45.4	-56.8	3.8	8.47e-01	0	62	104	3794796544	60	14125
2026-01-24 16:09:59.81	322.67	7.32	-45.4	-56.8	3.8	8.46e-01	0	62	104	3794796544	60	14106
2026-01-24 16:10:00.82	322.79	7.27	-45.4	-56.8	3.8	8.46e-01	0	62	104	3794796544	60	14094
2026-01-24 16:10:01.83	322.90	7.21	-45.5	-56.8	3.8	8.46e-01	0	62	104	3794796544	60	14182
2026-01-24 16:10:02.84	323.02	7.16	-45.4	-56.7	3.8	8.45e-01	0	62	104	3794796544	60	13995
2026-01-24 16:10:03.85	323.14	7.10	-45.3	-56.7	3.8	8.46e-01	0	62	104	3794796544	60	13990
2026-01-24 16:10:04.87	323.25	7.05	-45.3	-56.7	3.8	8.46e-01	0	62	104	3794796544	60	13964
2026-01-24 16:10:05.88	323.37	6.99	-45.3	-56.7	3.8	8.47e-01	0	62	104	3794796544	60	14007
2026-01-24 16:10:06.89	323.48	6.93	-45.2	-56.7	3.8	8.45e-01	0	62	104	3794796544	60	13992
2026-01-24 16:10:07.90	323.59	6.88	-45.3	-56.7	3.8	8.45e-01	0	62	104	3794796544	60	13989
2026-01-24 16:10:08.91	323.71	6.82	-45.4	-56.7	3.8	8.47e-01	0	62	104	3794796544	60	13998
2026-01-24 16:10:09.92	323.82	6.77	-45.3	-56.7	3.8	8.46e-01	0	62	104	3794796544	60	14005
2026-01-24 16:10:10.93	323.93	6.71	-44.3	-56.5	3.8	8.45e-01	0	62	104	3794796544	59	14390
2026-01-24 16:10:11.94	324.05	6.66	-45.0	-56.7	3.8	8.46e-01	0	62	104	3794796544	60	13988
2026-01-24 16:10:12.95	324.16	6.60	-45.3	-56.7	3.8	8.45e-01	0	62	104	3794796544	60	13945
2026-01-24 16:10:13.96	324.27	6.55	-45.3	-56.7	3.8	8.46e-01	0	62	104	3794796544	60	13944
2026-01-24 16:10:14.97	324.38	6.49	-45.3	-56.7	3.8	8.46e-01	0	62	104	3794796544	60	13936
2026-01-24 16:10:15.98	324.49	6.44	-45.3	-56.7	3.8	8.46e-01	0	62	104	3794796544	60	14018
2026-01-24 16:10:16.99	324.60	6.38	-45.3	-56.7	3.8	8.46e-01	0	62	104	3794796544	60	13980
2026-01-24 16:10:18.00	324.71	6.33	-45.3	-56.7	3.8	8.47e-01	0	62	104	3794796544	60	13941
2026-01-24 16:10:19.01	324.82	6.27	-45.3	-56.7	3.8	8.46e-01	0	62	104	3794796544	60	13979
2026-01-24 16:10:20.03	324.93	6.22	-45.3	-56.7	3.8	8.46e-01	0	62	104	3794796544	60	14018
2026-01-24 16:10:21.04	325.04	6.16	-45.3	-56.7	3.8	8.45e-01	0	62	104	3794796544	60	14025
2026-01-24 16:10:22.05	325.15	6.11	-45.3	-56.7	3.8	8.46e-01	0	62	104	3794796544	60	13945
2026-01-24 16:10:23.06	325.26	6.06	-45.3	-56.7	3.8	8.46e-01	0	62	104	3794796544	60	13929
2026-01-24 16:10:24.07	325.37	6.00	-45.3	-56.7	3.8	8.45e-01	0	62	104	3794796544	60	13982
2026-01-24 16:10:25.08	325.47	5.95	-45.3	-56.7	3.8	8.46e-01	0	62	104	3794796544	60	13963
2026-01-24 16:10:26.09	325.58	5.89	-45.3	-56.7	3.8	8.45e-01	0	62	104	3794796544	60	14014
2026-01-24 16:10:27.10	325.69	5.84	-45.3	-56.7	3.8	8.47e-01	0	62	104	3794796544	60	13973
2026-01-24 16:10:28.11	325.79	5.78	-45.3	-56.7	3.8	8.46e-01	0	62	104	3794796544	60	13945
2026-01-24 16:10:29.12	325.90	5.73	-45.3	-56.7	3.8	8.46e-01	0	62	104	3794796544	60	13939
2026-01-24 16:10:30.13	326.00	5.67	-45.3	-56.7	3.8	8.46e-01	0	62	104	3794796544	60	13890
2026-01-24 16:10:31.15	326.11	5.62	-45.3	-56.7	3.8	8.47e-01	0	62	104	3794796544	60	13924
2026-01-24 16:10:32.15	326.21	5.56	-45.3	-56.7	3.8	8.46e-01	0	62	104	3794796544	60	13902
2026-01-24 16:10:33.16	326.32	5.51	-45.3	-56.7	3.8	8.46e-01	0	62	104	3794796544	60	13925
2026-01-24 16:10:34.18	326.42	5.45	-45.3	-56.7	3.8	8.46e-01	0	62	104	3794796544	60	13915
2026-01-24 16:10:35.19	326.52	5.40	-45.3	-56.7	3.8	8.46e-01	0	62	104	3794796544	60	13906
2026-01-24 16:10:36.20	326.63	5.35	-45.3	-56.7	3.8	8.47e-01	0	62	104	3794796544	60	14003
2026-01-24 16:10:37.21	326.73	5.29	-45.3	-56.6	3.8	8.46e-01	0	62	104	3794796544	60	13878
2026-01-24 16:10:38.22	326.83	5.24	-45.3	-56.7	3.8	8.48e-01	0	62	104	3794796544	60	13916
2026-01-24 16:10:39.23	326.94	5.18	-45.3	-56.7	3.8	8.46e-01	0	62	104	3794796544	60	13896
2026-01-24 16:10:40.24	327.04	5.13	-45.3	-56.7	3.8	8.47e-01	0	62	104	3794796544	60	13915
2026-01-24 16:10:41.25	327.14	5.08	-45.3	-56.7	3.8	8.46e-01	0	62	104	3794796544	60	13936
2026-01-24 16:10:42.26	327.24	5.02	-45.3	-56.7	3.8	8.45e-01	0	62	104	3794796544	60	13903
2026-01-24 16:10:43.27	327.34	4.97	-45.3	-56.7	3.8	8.46e-01	0	62	104	3794796544	60	13913
2026-01-24 16:10:44.28	327.44	4.91	-45.3	-56.7	3.8	8.46e-01	0	62	104	3794796544	60	13918
2026-01-24 16:10:45.29	327.54	4.86	-45.3	-56.6	3.8	8.46e-01	0	62	104	3794796544	60	13883
2026-01-24 16:10:46.30	327.64	4.81	-45.3	-56.6	3.8	8.46e-01	0	62	104	3794796544	60	13861
2026-01-24 16:10:47.31	327.74	4.75	-45.3	-56.7	3.8	8.46e-01	0	62	104	3794796544	60	13890
2026-01-24 16:10:48.32	327.84	4.70	-45.3	-56.7	3.8	8.45e-01	0	62	104	3794796544	60	13894
2026-01-24 16:10:49.33	327.94	4.64	-45.3	-56.6	3.8	8.47e-01	0	62	104	3794796544	60	13851
2026-01-24 16:10:50.34	328.03	4.59	-45.3	-56.6	3.8	8.47e-01	0	62	104	3794796544	60	13851
2026-01-24 16:10:51.35	328.13	4.54	-45.3	-56.7	3.8	8.45e-01	0	62	104	3794796544	60	13906
2026-01-24 16:10:52.36	328.23	4.48	-45.3	-56.7	3.8	8.47e-01	0	62	104	3794796544	60	13937
2026-01-24 16:10:53.37	328.33	4.43	-45.3	-56.6	3.8	8.46e-01	0	62	104	3794796544	60	13883
2026-01-24 16:10:54.38	328.42	4.38	-45.3	-56.7	3.8	8.46e-01	0	62	104	3794796544	60	13916
2026-01-24 16:10:55.40	328.52	4.32	-45.3	-56.7	3.8	8.46e-01	0	62	104	3794796544	60	13903
2026-01-24 16:10:56.41	328.62	4.27	-45.3	-56.6	3.8	8.47e-01	0	62	104	3794796544	60	13869
2026-01-24 16:10:57.42	328.71	4.22	-45.3	-56.7	3.8	8.46e-01	0	62	104	3794796544	60	13921
2026-01-24 16:10:58.43	328.81	4.16	-45.3	-56.6	3.8	8.46e-01	0	62	104	3794796544	60	13883
2026-01-24 16:10:59.44	328.90	4.11	-45.3	-56.7	3.8	8.46e-01	0	62	104	3794796544	60	13982
2026-01-24 16:11:00.45	329.00	4.06	-45.3	-56.7	3.8	8.46e-01	0	62	104	3794796544	60	13919
2026-01-24 16:11:01.46	329.09	4.00	-45.3	-56.6	3.8	8.46e-01	0	62	104	3794796544	60	13863
2026-01-24 16:11:02.47	329.19	3.95	-45.3	-56.7	3.8	8.47e-01	0	62	104	3794796544	60	13986
