passes_logs/2026/01/24/R2.0S_Moscow/R2.0S_Moscow__20260124_031341_AQUA_rec.log

#Pass ID: 20260124_031341_AQUA
#Satellite: AQUA
#Configuration: AQUA
#almurnet v.1.7.20251203
#Start time: 2026-01-24 03:13:42

#Version: 2.2.20231116
#Station: R2.0S_Moscow
#Location: 37.707566 lon 55.798166 lat
#TLE: 1 27424U 02022A   26022.96978264  .00001879  00000+0  38593-3 0  9993
#TLE: 2 27424  98.4100 349.5315 0001958  69.4371  21.4765 14.61848807262053

#Time	Az	El	Level	Level2	SNR	BER	BlckErr	Temp	State	Recorded	gain1	gain2
2026-01-24 03:13:42.54	5.30	2.06	-41.0	-60.0	3.8	7.43e-01	0	52	0	0	54	30673
2026-01-24 03:13:43.55	5.21	2.12	-41.0	-60.0	3.8	7.46e-01	0	52	104	0	52	34381
2026-01-24 03:13:44.57	5.12	2.17	-41.0	-60.0	3.8	7.45e-01	0	53	104	0	52	34382
2026-01-24 03:13:45.58	5.03	2.23	-41.0	-60.0	3.8	7.46e-01	0	53	104	0	52	34456
2026-01-24 03:13:46.59	4.94	2.28	-41.0	-60.0	3.8	7.48e-01	0	53	104	0	52	34401
2026-01-24 03:13:47.60	4.85	2.34	-41.0	-60.0	3.8	7.45e-01	0	53	104	0	52	34342
2026-01-24 03:13:48.61	4.76	2.39	-41.0	-60.0	3.8	7.46e-01	0	53	104	0	52	34342
2026-01-24 03:13:49.62	4.67	2.45	-41.0	-60.0	3.8	7.44e-01	0	53	104	0	52	34420
2026-01-24 03:13:50.63	4.58	2.50	-41.0	-60.0	3.8	7.46e-01	0	53	104	0	52	34363
2026-01-24 03:13:51.64	4.48	2.56	-41.0	-60.0	3.8	7.47e-01	0	53	104	0	52	34311
2026-01-24 03:13:52.65	4.39	2.61	-41.0	-60.0	3.8	7.46e-01	0	53	104	0	52	34398
2026-01-24 03:13:53.66	4.30	2.67	-41.0	-60.0	3.8	7.42e-01	0	53	104	0	52	34333
2026-01-24 03:13:54.67	4.20	2.72	-41.0	-60.0	3.8	7.47e-01	0	53	104	0	52	34327
2026-01-24 03:13:55.68	4.11	2.78	-41.0	-60.0	3.8	7.47e-01	0	54	104	0	52	34346
2026-01-24 03:13:56.69	4.02	2.83	-41.0	-60.0	3.8	7.47e-01	0	54	104	0	52	34378
2026-01-24 03:13:57.70	3.92	2.89	-41.0	-60.0	3.8	7.44e-01	0	53	104	0	52	34327
2026-01-24 03:13:58.71	3.83	2.95	-41.0	-60.0	3.8	7.45e-01	0	53	104	0	52	34367
2026-01-24 03:13:59.72	3.73	3.00	-41.0	-60.0	3.8	7.47e-01	0	54	104	0	52	34342
2026-01-24 03:14:00.73	3.64	3.06	-41.0	-60.0	3.8	7.43e-01	0	54	104	0	52	34341
2026-01-24 03:14:01.74	3.54	3.11	-41.0	-60.0	3.8	7.43e-01	0	54	104	0	52	34252
2026-01-24 03:14:02.75	3.44	3.17	-41.0	-60.0	3.8	7.47e-01	0	54	104	0	52	34342
2026-01-24 03:14:03.76	3.35	3.22	-41.0	-60.0	3.8	7.46e-01	0	54	104	0	52	34317
2026-01-24 03:14:04.77	3.25	3.28	-41.0	-60.0	3.8	7.42e-01	0	54	104	0	52	34291
2026-01-24 03:14:05.79	3.15	3.34	-41.0	-60.0	3.8	7.47e-01	0	54	104	0	52	34356
2026-01-24 03:14:06.80	3.05	3.39	-41.0	-60.0	3.8	7.42e-01	0	54	104	0	52	34308
2026-01-24 03:14:07.81	2.95	3.45	-41.0	-60.0	3.8	7.47e-01	0	54	104	0	52	34311
2026-01-24 03:14:08.82	2.85	3.50	-41.0	-60.0	3.8	7.42e-01	0	54	104	0	52	34370
2026-01-24 03:14:09.83	2.75	3.56	-41.0	-60.0	3.8	7.48e-01	0	54	104	0	52	34282
2026-01-24 03:14:10.84	2.65	3.62	-41.0	-60.0	3.8	7.46e-01	0	54	104	0	52	34221
2026-01-24 03:14:11.85	2.55	3.67	-41.0	-60.0	3.8	7.44e-01	0	54	104	0	52	34356
2026-01-24 03:14:12.86	2.45	3.73	-41.0	-60.0	3.8	7.46e-01	0	54	104	0	52	34273
2026-01-24 03:14:13.87	2.35	3.78	-41.0	-60.0	3.8	7.49e-01	0	54	104	0	52	34275
2026-01-24 03:14:14.88	2.25	3.84	-41.0	-60.0	3.8	7.45e-01	0	55	104	0	52	34326
2026-01-24 03:14:15.89	2.15	3.90	-41.0	-60.0	3.8	7.46e-01	0	55	104	0	52	34355
2026-01-24 03:14:16.90	2.04	3.95	-41.0	-60.0	3.8	7.46e-01	0	54	104	0	52	34267
2026-01-24 03:14:17.91	1.94	4.01	-41.0	-60.0	3.8	7.45e-01	0	55	104	0	52	34297
2026-01-24 03:14:18.92	1.84	4.07	-41.0	-60.0	3.8	7.48e-01	0	54	104	0	52	34259
2026-01-24 03:14:19.93	1.73	4.12	-41.0	-60.0	3.8	7.47e-01	0	55	104	0	52	34236
2026-01-24 03:14:20.94	1.63	4.18	-41.0	-60.0	3.8	7.47e-01	0	55	104	0	52	34263
2026-01-24 03:14:21.95	1.52	4.24	-41.0	-60.0	3.8	7.47e-01	0	55	104	0	52	34249
2026-01-24 03:14:22.96	1.42	4.29	-41.0	-60.0	3.8	7.46e-01	0	55	104	0	52	34307
2026-01-24 03:14:23.97	1.31	4.35	-41.0	-60.0	3.8	7.42e-01	0	55	104	0	52	34290
2026-01-24 03:14:24.98	1.20	4.41	-41.0	-60.0	3.8	7.46e-01	0	55	104	0	52	34247
2026-01-24 03:14:25.99	1.10	4.46	-41.0	-60.0	3.8	7.45e-01	0	55	104	0	52	34276
2026-01-24 03:14:27.00	0.99	4.52	-41.0	-60.0	3.8	7.48e-01	0	55	104	0	52	34315
2026-01-24 03:14:28.01	0.88	4.58	-41.0	-60.0	3.8	7.45e-01	0	55	104	0	52	34246
2026-01-24 03:14:29.02	0.77	4.63	-41.0	-60.0	3.8	7.44e-01	0	55	104	0	52	34225
2026-01-24 03:14:30.03	0.66	4.69	-41.0	-60.0	3.8	7.49e-01	0	55	104	0	52	34156
2026-01-24 03:14:31.04	0.56	4.75	-41.0	-60.0	3.8	7.45e-01	0	55	104	0	52	34145
2026-01-24 03:14:32.05	0.45	4.81	-41.0	-59.9	3.8	7.44e-01	0	55	104	0	52	34080
2026-01-24 03:14:33.06	0.34	4.86	-41.0	-59.9	3.8	7.42e-01	0	55	104	0	52	34036
2026-01-24 03:14:34.06	0.23	4.92	-41.0	-59.9	3.8	7.42e-01	0	55	104	0	52	34010
2026-01-24 03:14:35.08	0.11	4.98	-41.0	-59.9	3.8	7.44e-01	0	56	104	0	52	33953
2026-01-24 03:14:36.09	0.00	5.04	-41.0	-59.9	3.8	7.48e-01	0	56	104	0	52	33938
2026-01-24 03:14:37.10	359.89	5.09	-41.0	-59.9	3.8	7.47e-01	0	56	104	0	52	33997
2026-01-24 03:14:38.11	359.78	5.15	-41.0	-59.9	3.8	7.46e-01	0	56	104	0	52	34053
2026-01-24 03:14:39.12	359.66	5.21	-41.0	-59.9	3.8	7.46e-01	0	56	104	0	52	34065
2026-01-24 03:14:40.13	359.55	5.26	-41.0	-60.0	3.8	7.46e-01	0	56	104	0	52	34183
2026-01-24 03:14:41.14	359.44	5.32	-41.0	-60.0	3.8	7.45e-01	0	56	104	0	52	34192
2026-01-24 03:14:42.15	359.32	5.38	-41.0	-60.0	3.8	7.44e-01	0	56	104	0	52	34215
2026-01-24 03:14:43.16	359.21	5.44	-41.0	-60.0	3.8	7.42e-01	0	56	104	0	52	34181
2026-01-24 03:14:44.17	359.09	5.50	-41.0	-60.0	3.8	7.42e-01	0	56	104	0	52	34176
2026-01-24 03:14:45.18	358.97	5.55	-41.0	-60.0	3.8	7.49e-01	0	56	104	0	52	34267
2026-01-24 03:14:46.19	358.86	5.61	-41.0	-60.0	3.8	7.46e-01	0	56	104	0	52	34306
2026-01-24 03:14:47.20	358.74	5.67	-41.0	-60.0	3.8	7.49e-01	0	56	104	0	52	34244
2026-01-24 03:14:48.21	358.62	5.73	-41.0	-60.0	3.8	7.48e-01	0	56	104	0	52	34251
2026-01-24 03:14:49.22	358.50	5.78	-41.0	-60.0	3.8	7.41e-01	0	56	104	0	52	34211
2026-01-24 03:14:50.23	358.38	5.84	-41.0	-60.0	3.8	7.47e-01	0	56	104	0	52	34270
2026-01-24 03:14:51.24	358.26	5.90	-41.0	-60.0	3.8	7.41e-01	0	56	104	0	52	34215
2026-01-24 03:14:52.25	358.14	5.96	-41.0	-60.0	3.8	7.47e-01	0	56	104	0	52	34174
2026-01-24 03:14:53.26	358.02	6.02	-41.0	-59.9	3.8	7.42e-01	0	56	104	0	52	34034
2026-01-24 03:14:54.27	357.90	6.07	-41.0	-60.0	3.8	7.43e-01	0	56	104	0	52	34132
2026-01-24 03:14:55.28	357.78	6.13	-41.0	-60.0	3.8	7.43e-01	0	57	104	0	52	34186
2026-01-24 03:14:56.29	357.66	6.19	-41.0	-60.0	3.8	7.46e-01	0	56	104	0	52	34188
2026-01-24 03:14:57.30	357.54	6.25	-41.0	-60.0	3.8	7.49e-01	0	57	104	0	52	34232
2026-01-24 03:14:58.31	357.41	6.31	-41.0	-60.0	3.8	7.46e-01	0	57	104	0	52	34320
2026-01-24 03:14:59.32	357.29	6.36	-41.0	-60.0	3.8	7.45e-01	0	57	104	0	52	34280
2026-01-24 03:15:00.33	357.17	6.42	-41.0	-60.0	3.8	7.44e-01	0	57	104	0	52	34252
2026-01-24 03:15:01.34	357.04	6.48	-41.0	-60.0	3.8	7.45e-01	0	57	104	0	52	34243
2026-01-24 03:15:02.36	356.91	6.54	-41.0	-60.0	3.8	7.44e-01	0	57	104	0	52	34216
2026-01-24 03:15:03.37	356.79	6.60	-41.0	-60.0	3.8	7.41e-01	0	57	104	0	52	34277
2026-01-24 03:15:04.38	356.66	6.65	-41.0	-60.0	3.8	7.45e-01	0	57	104	0	52	34178
2026-01-24 03:15:05.39	356.53	6.71	-41.0	-60.0	3.8	7.46e-01	0	57	104	0	52	34111
2026-01-24 03:15:06.40	356.41	6.77	-41.0	-60.0	3.8	7.48e-01	0	57	104	0	52	34196
2026-01-24 03:15:07.41	356.28	6.83	-41.0	-60.0	3.8	7.48e-01	0	57	104	0	52	34247
2026-01-24 03:15:08.42	356.15	6.89	-41.0	-60.0	3.8	7.47e-01	0	57	104	0	52	34224
2026-01-24 03:15:09.43	356.02	6.95	-41.0	-60.0	3.8	7.46e-01	0	57	104	0	52	34222
2026-01-24 03:15:10.44	355.89	7.00	-41.0	-60.0	3.8	7.46e-01	0	57	104	0	52	34291
2026-01-24 03:15:11.45	355.76	7.06	-41.0	-60.0	3.8	7.45e-01	0	57	104	0	52	34230
2026-01-24 03:15:12.46	355.63	7.12	-41.0	-60.0	3.8	7.45e-01	0	57	104	0	52	34262
2026-01-24 03:15:13.47	355.50	7.18	-41.0	-60.0	3.8	7.42e-01	0	57	104	0	52	34261
2026-01-24 03:15:14.48	355.36	7.24	-41.0	-60.0	3.8	7.44e-01	0	57	104	0	52	34190
2026-01-24 03:15:15.49	355.23	7.30	-41.0	-60.0	3.8	7.43e-01	0	57	104	0	52	34249
2026-01-24 03:15:16.50	355.10	7.35	-41.0	-60.0	3.8	7.47e-01	0	57	104	0	52	34230
2026-01-24 03:15:17.51	354.96	7.41	-41.0	-60.0	3.8	7.46e-01	0	57	104	0	52	34178
2026-01-24 03:15:18.52	354.83	7.47	-41.0	-60.0	3.8	7.45e-01	0	57	104	0	52	34202
2026-01-24 03:15:19.53	354.69	7.53	-41.0	-60.0	3.8	7.44e-01	0	57	104	0	52	34169
2026-01-24 03:15:20.54	354.56	7.59	-41.0	-60.0	3.8	7.44e-01	0	57	104	0	52	34229
2026-01-24 03:15:21.56	354.42	7.65	-41.0	-60.0	3.8	7.46e-01	0	58	104	0	52	34228
2026-01-24 03:15:22.57	354.28	7.71	-41.0	-60.0	3.8	7.46e-01	0	57	104	0	52	34172
2026-01-24 03:15:23.58	354.14	7.76	-41.0	-60.0	3.8	7.45e-01	0	57	104	0	52	34281
2026-01-24 03:15:24.59	354.00	7.82	-41.0	-60.0	3.8	7.48e-01	0	58	104	0	52	34229
2026-01-24 03:15:25.60	353.87	7.88	-41.0	-60.0	3.8	7.44e-01	0	58	104	0	52	34162
2026-01-24 03:15:26.61	353.73	7.94	-41.0	-60.0	3.8	7.44e-01	0	58	104	0	52	34209
2026-01-24 03:15:27.62	353.59	8.00	-41.0	-60.0	3.8	7.45e-01	0	58	104	0	52	34210
2026-01-24 03:15:28.63	353.44	8.06	-41.1	-60.2	3.8	7.42e-01	0	58	104	0	52	34883
2026-01-24 03:15:29.64	353.30	8.12	-41.4	-60.3	3.8	7.43e-01	0	58	104	0	53	33687
2026-01-24 03:15:30.65	353.16	8.17	-41.2	-60.2	3.8	7.51e-01	0	58	104	0	53	33204
2026-01-24 03:15:31.66	353.02	8.23	-41.3	-60.3	3.8	7.45e-01	0	57	104	0	53	33426
2026-01-24 03:15:32.67	352.87	8.29	-41.4	-60.3	3.8	7.45e-01	0	58	104	0	53	33621
2026-01-24 03:15:33.68	352.73	8.35	-41.6	-60.5	3.8	7.45e-01	0	58	104	0	53	34468
2026-01-24 03:15:34.69	352.59	8.41	-41.4	-60.3	3.8	7.45e-01	0	58	104	0	53	33667
2026-01-24 03:15:35.70	352.44	8.47	-41.5	-60.4	3.8	7.43e-01	0	58	104	0	53	33948
2026-01-24 03:15:36.71	352.29	8.52	-41.5	-60.5	3.8	7.44e-01	0	58	104	0	53	34103
2026-01-24 03:15:37.72	352.15	8.58	-41.5	-60.5	3.8	7.46e-01	0	58	104	0	53	34244
2026-01-24 03:15:38.73	352.00	8.64	-41.5	-60.5	3.8	7.45e-01	0	58	104	0	53	34221
2026-01-24 03:15:39.74	351.85	8.70	-41.6	-60.6	3.8	7.43e-01	0	58	104	0	53	34642
2026-01-24 03:15:40.75	351.70	8.76	-41.4	-60.4	3.8	7.45e-01	0	58	104	0	53	33891
2026-01-24 03:15:41.76	351.55	8.82	-41.6	-60.6	3.8	7.44e-01	0	58	104	0	53	34691
2026-01-24 03:15:42.77	351.40	8.87	-41.5	-60.5	3.8	7.44e-01	0	58	104	0	54	32508
2026-01-24 03:15:43.78	351.25	8.93	-41.6	-60.6	3.8	7.47e-01	0	58	104	0	54	32571
2026-01-24 03:15:44.79	351.10	8.99	-41.5	-60.5	3.8	7.47e-01	0	58	104	0	54	32454
2026-01-24 03:15:45.80	350.95	9.05	-41.8	-60.7	3.8	7.46e-01	0	58	104	0	54	33242
2026-01-24 03:15:46.81	350.80	9.11	-41.6	-60.6	3.8	7.43e-01	0	58	104	0	54	32641
2026-01-24 03:15:47.82	350.64	9.17	-41.7	-60.7	3.8	7.46e-01	0	58	104	0	54	33199
2026-01-24 03:15:48.83	350.49	9.22	-41.6	-60.5	3.8	7.47e-01	0	58	104	0	54	32489
2026-01-24 03:15:49.84	350.33	9.28	-41.7	-60.7	3.8	7.43e-01	0	58	104	0	54	33057
2026-01-24 03:15:50.85	350.18	9.34	-41.8	-60.8	3.8	7.48e-01	0	58	104	0	54	33487
2026-01-24 03:15:51.86	350.02	9.40	-41.6	-60.6	3.8	7.44e-01	0	58	104	0	54	32876
2026-01-24 03:15:52.87	349.87	9.45	-41.5	-60.6	3.8	7.48e-01	0	58	104	0	54	32559
2026-01-24 03:15:53.88	349.71	9.51	-41.8	-60.9	3.8	7.47e-01	0	59	104	0	54	33742
2026-01-24 03:15:54.89	349.55	9.57	-41.8	-60.8	3.8	7.45e-01	0	58	104	0	54	33571
2026-01-24 03:15:55.90	349.39	9.63	-41.6	-60.6	3.8	7.41e-01	0	58	104	0	54	32717
2026-01-24 03:15:56.91	349.23	9.69	-41.8	-60.8	3.8	7.44e-01	0	58	104	0	54	33676
2026-01-24 03:15:57.92	349.07	9.74	-42.0	-61.0	3.8	7.45e-01	0	58	104	0	54	34168
2026-01-24 03:15:58.93	348.91	9.80	-41.7	-60.7	3.8	7.46e-01	0	58	104	0	54	33134
2026-01-24 03:15:59.94	348.75	9.86	-41.9	-60.9	3.8	7.45e-01	0	58	104	0	54	33820
2026-01-24 03:16:00.95	348.59	9.92	-41.9	-60.9	3.8	7.44e-01	0	59	104	0	54	33775
2026-01-24 03:16:01.96	348.42	9.97	-42.0	-60.9	3.8	7.46e-01	0	58	104	0	54	33996
2026-01-24 03:16:02.97	348.26	10.03	-41.9	-60.9	3.8	7.45e-01	0	59	104	0	54	33874
2026-01-24 03:16:03.98	348.09	10.09	-42.0	-60.9	3.8	7.47e-01	0	59	104	0	54	33883
2026-01-24 03:16:04.99	347.93	10.15	-42.0	-60.9	3.8	7.47e-01	0	58	104	0	54	33831
2026-01-24 03:16:05.99	347.77	10.20	-42.0	-60.9	3.8	7.43e-01	0	59	104	0	54	33909
2026-01-24 03:16:07.00	347.60	10.26	-42.0	-61.0	3.8	7.48e-01	0	59	104	0	54	34139
2026-01-24 03:16:08.01	347.43	10.32	-42.0	-60.9	3.8	7.44e-01	0	58	104	0	54	33957
2026-01-24 03:16:09.02	347.26	10.37	-42.0	-61.0	3.8	7.44e-01	0	59	104	0	54	34142
2026-01-24 03:16:10.03	347.09	10.43	-41.9	-60.8	3.8	7.46e-01	0	59	104	0	54	33463
2026-01-24 03:16:11.04	346.92	10.49	-41.9	-60.9	3.8	7.44e-01	0	59	104	0	54	33910
2026-01-24 03:16:12.05	346.75	10.54	-42.0	-61.0	3.8	7.46e-01	0	59	104	0	54	34178
2026-01-24 03:16:13.06	346.58	10.60	-41.9	-60.9	3.8	7.45e-01	0	59	104	0	54	33771
2026-01-24 03:16:14.07	346.41	10.66	-41.7	-60.7	3.8	7.47e-01	0	59	104	0	54	32929
2026-01-24 03:16:15.08	346.24	10.71	-41.9	-60.9	3.8	7.47e-01	0	59	104	0	54	33778
2026-01-24 03:16:16.09	346.07	10.77	-41.9	-60.8	3.8	7.44e-01	0	59	104	0	54	33444
2026-01-24 03:16:17.10	345.89	10.83	-41.6	-60.6	3.8	7.43e-01	0	59	104	0	54	32662
2026-01-24 03:16:18.11	345.72	10.88	-41.8	-60.7	3.8	7.44e-01	0	59	104	0	54	33300
2026-01-24 03:16:19.12	345.54	10.94	-41.8	-60.7	3.8	7.47e-01	0	59	104	0	54	33259
2026-01-24 03:16:20.13	345.37	10.99	-41.6	-60.6	3.8	7.47e-01	0	59	104	0	54	32626
2026-01-24 03:16:21.14	345.19	11.05	-41.5	-60.5	3.8	7.44e-01	0	59	104	0	54	32349
2026-01-24 03:16:22.15	345.01	11.11	-41.9	-60.8	3.8	7.42e-01	0	59	104	0	54	33549
2026-01-24 03:16:23.16	344.83	11.16	-41.6	-60.6	3.8	7.42e-01	0	59	104	0	54	32794
2026-01-24 03:16:24.17	344.65	11.22	-41.6	-60.5	3.8	7.45e-01	0	59	104	0	54	32539
2026-01-24 03:16:25.17	344.48	11.27	-41.4	-60.4	3.8	7.45e-01	0	59	104	0	54	32002
2026-01-24 03:16:26.18	344.30	11.33	-41.6	-60.6	3.8	7.47e-01	0	59	104	0	54	32692
2026-01-24 03:16:27.19	344.11	11.38	-41.8	-60.8	3.8	7.45e-01	0	59	104	0	54	33569
2026-01-24 03:16:28.20	343.93	11.44	-41.6	-60.5	3.8	7.41e-01	0	59	104	0	54	32531
2026-01-24 03:16:29.21	343.75	11.49	-41.3	-60.3	3.8	7.44e-01	0	59	104	0	54	31589
2026-01-24 03:16:30.22	343.57	11.55	-41.6	-60.6	3.8	7.45e-01	0	59	104	0	54	32599
2026-01-24 03:16:31.23	343.38	11.60	-41.7	-60.7	3.8	7.45e-01	0	59	104	0	54	33053
2026-01-24 03:16:32.24	343.20	11.66	-41.5	-60.5	3.8	7.45e-01	0	59	104	0	54	32213
2026-01-24 03:16:33.25	343.01	11.71	-41.5	-60.4	3.8	7.41e-01	0	59	104	0	54	32179
2026-01-24 03:16:34.26	342.82	11.76	-41.5	-60.5	3.8	7.45e-01	0	59	104	0	54	32260
2026-01-24 03:16:35.26	342.64	11.82	-41.5	-60.5	3.8	7.48e-01	0	59	104	0	54	32323
2026-01-24 03:16:36.28	342.45	11.87	-41.5	-60.5	3.8	7.46e-01	0	59	104	0	54	32343
2026-01-24 03:16:37.29	342.26	11.93	-41.3	-60.3	3.8	7.46e-01	0	59	104	0	54	31751
2026-01-24 03:16:38.30	342.07	11.98	-41.4	-60.5	3.8	7.46e-01	0	59	104	0	54	32191
2026-01-24 03:16:39.31	341.88	12.03	-41.5	-60.5	3.8	7.45e-01	0	59	104	0	54	32246
2026-01-24 03:16:40.32	341.69	12.09	-41.4	-60.4	3.8	7.47e-01	0	59	104	0	54	32024
2026-01-24 03:16:41.33	341.50	12.14	-41.4	-60.4	3.8	7.46e-01	0	59	104	0	54	32083
2026-01-24 03:16:42.34	341.30	12.19	-41.6	-60.7	3.8	7.48e-01	0	59	104	0	54	33169
2026-01-24 03:16:43.35	341.11	12.24	-41.4	-60.4	3.8	7.46e-01	0	59	104	0	54	32105
2026-01-24 03:16:44.35	340.92	12.30	-41.5	-60.6	3.8	7.45e-01	0	59	104	0	54	32724
2026-01-24 03:16:45.36	340.72	12.35	-41.7	-60.7	3.8	7.45e-01	0	60	104	0	54	33310
2026-01-24 03:16:46.37	340.53	12.40	-41.8	-60.9	3.8	7.41e-01	0	59	104	0	54	33745
2026-01-24 03:16:47.38	340.33	12.45	-41.6	-60.6	3.8	7.44e-01	0	59	104	0	54	32853
2026-01-24 03:16:48.39	340.13	12.50	-41.8	-60.8	3.8	7.44e-01	0	59	104	0	54	33565
2026-01-24 03:16:49.40	339.94	12.56	-42.3	-61.5	3.8	7.46e-01	0	59	104	0	55	34387
2026-01-24 03:16:50.41	339.74	12.61	-42.4	-60.3	3.8	7.45e-01	0	59	104	0	56	28266
2026-01-24 03:16:51.42	339.54	12.66	-41.8	-60.7	3.8	7.46e-01	0	59	104	0	55	31358
2026-01-24 03:16:52.43	339.34	12.71	-42.6	-59.0	3.9	7.41e-01	0	59	104	0	56	24236
2026-01-24 03:16:53.44	339.14	12.76	-43.2	-60.8	3.8	7.44e-01	0	59	104	0	57	28167
2026-01-24 03:16:54.45	338.93	12.81	-42.3	-57.4	3.8	7.46e-01	0	59	104	0	56	20087
2026-01-24 03:16:55.46	338.73	12.86	-42.4	-57.4	3.8	7.43e-01	0	60	104	0	56	20098
2026-01-24 03:16:56.47	338.53	12.91	-42.9	-58.0	3.8	7.47e-01	0	59	104	0	56	21566
2026-01-24 03:16:57.48	338.32	12.96	-43.3	-58.2	3.8	7.46e-01	0	59	104	0	58	19810
2026-01-24 03:16:58.49	338.12	13.01	-40.9	-54.0	3.8	7.47e-01	0	59	104	0	53	16282
2026-01-24 03:16:59.49	337.92	13.06	-42.5	-57.8	3.8	7.44e-01	0	60	104	0	55	22380
2026-01-24 03:17:00.50	337.71	13.11	-41.6	-55.0	3.8	7.46e-01	0	60	104	0	55	16257
2026-01-24 03:17:01.52	337.50	13.16	-43.6	-59.9	3.9	7.43e-01	0	60	104	0	59	22732
2026-01-24 03:17:02.53	337.29	13.21	-41.7	-55.0	3.8	7.46e-01	0	60	104	0	55	16271
2026-01-24 03:17:03.54	337.08	13.26	-41.7	-55.0	3.8	7.47e-01	0	60	104	0	55	16274
2026-01-24 03:17:04.55	336.87	13.30	-42.2	-55.6	3.8	7.45e-01	0	59	104	0	55	17373
2026-01-24 03:17:05.56	336.66	13.35	-43.9	-59.5	3.8	7.45e-01	0	60	104	0	58	22838
2026-01-24 03:17:06.57	336.45	13.40	-41.8	-55.1	3.9	7.45e-01	0	60	104	0	55	16315
2026-01-24 03:17:07.58	336.24	13.45	-43.8	-58.7	3.9	7.45e-01	0	59	104	0	59	19744
2026-01-24 03:17:08.58	336.03	13.49	-42.2	-55.5	3.8	7.46e-01	0	59	104	0	55	17259
2026-01-24 03:17:09.59	335.82	13.54	-41.9	-55.7	3.9	7.45e-01	0	59	104	0	56	16671
2026-01-24 03:17:10.60	335.61	13.59	-41.8	-54.9	3.8	7.43e-01	0	60	104	0	55	16021
2026-01-24 03:17:11.61	335.39	13.63	-41.8	-54.8	3.8	7.49e-01	0	60	104	0	55	15854
2026-01-24 03:17:12.62	335.18	13.68	-42.4	-55.6	3.8	7.49e-01	0	60	104	0	55	17474
2026-01-24 03:17:13.63	334.96	13.73	-44.0	-58.9	3.7	7.47e-01	0	60	104	0	58	21330
2026-01-24 03:17:14.64	334.74	13.77	-43.1	-57.1	3.8	7.46e-01	0	60	104	0	56	19540
2026-01-24 03:17:15.65	334.53	13.82	-43.8	-58.7	3.8	7.39e-01	0	60	104	0	59	19784
2026-01-24 03:17:16.66	334.31	13.86	-43.0	-56.9	3.8	7.44e-01	0	60	104	0	56	19158
2026-01-24 03:17:17.67	334.09	13.91	-42.7	-56.5	3.8	7.44e-01	0	60	104	0	57	17137
2026-01-24 03:17:18.68	333.87	13.95	-42.4	-55.9	3.8	7.45e-01	0	60	104	0	56	16944
2026-01-24 03:17:19.69	333.65	13.99	-42.1	-55.3	3.8	7.44e-01	0	60	104	0	56	15830
2026-01-24 03:17:20.70	333.43	14.04	-42.7	-56.2	3.8	7.44e-01	0	60	104	0	55	18542
2026-01-24 03:17:21.71	333.21	14.08	-44.7	-61.3	3.8	7.49e-01	0	60	104	0	59	26484
2026-01-24 03:17:22.72	332.98	14.12	-43.0	-56.5	3.8	7.47e-01	0	60	104	0	56	18109
2026-01-24 03:17:23.73	332.76	14.17	-43.8	-58.3	3.8	7.45e-01	0	60	104	0	59	18773
2026-01-24 03:17:24.74	332.54	14.21	-43.1	-56.9	3.8	7.46e-01	0	60	104	0	56	19144
2026-01-24 03:17:25.75	332.31	14.25	-42.5	-55.9	3.8	7.45e-01	0	60	104	0	57	16011
2026-01-24 03:17:26.76	332.09	14.29	-42.5	-55.8	3.8	7.47e-01	0	60	104	0	56	16849
2026-01-24 03:17:27.77	331.86	14.33	-42.3	-55.5	3.8	7.44e-01	0	60	104	0	56	16279
2026-01-24 03:17:28.78	331.64	14.38	-42.7	-55.9	3.8	7.43e-01	0	60	104	0	56	17061
2026-01-24 03:17:29.79	331.41	14.42	-44.6	-60.9	3.8	7.45e-01	0	60	104	0	60	24021
2026-01-24 03:17:30.80	331.18	14.46	-44.7	-60.9	3.7	7.50e-01	0	60	104	0	59	25404
2026-01-24 03:17:31.81	330.95	14.50	-43.8	-58.2	3.8	7.45e-01	0	60	104	0	59	18612
2026-01-24 03:17:32.81	330.73	14.54	-43.6	-58.1	3.8	7.48e-01	0	60	104	0	57	20748
2026-01-24 03:17:33.82	330.50	14.58	-42.8	-56.6	3.8	7.44e-01	0	60	104	0	57	17337
2026-01-24 03:17:34.83	330.27	14.61	-42.7	-56.3	3.8	7.43e-01	0	60	104	0	57	16826
2026-01-24 03:17:35.84	330.03	14.65	-42.6	-56.0	3.8	7.47e-01	0	60	104	0	57	16247
2026-01-24 03:17:36.85	329.80	14.69	-43.2	-56.9	3.8	7.45e-01	0	60	104	0	57	18002
2026-01-24 03:17:37.86	329.57	14.73	-45.0	-62.9	3.8	7.49e-01	0	60	104	0	60	30051
2026-01-24 03:17:38.87	329.34	14.77	-44.5	-59.8	3.8	7.45e-01	0	60	104	0	59	22425
2026-01-24 03:17:39.88	329.10	14.80	-44.0	-58.6	3.8	7.46e-01	0	60	104	0	59	19410
2026-01-24 03:17:40.89	328.87	14.84	-43.7	-58.2	3.8	7.46e-01	0	60	104	0	57	20889
2026-01-24 03:17:41.90	328.63	14.88	-42.4	-55.6	3.8	7.45e-01	0	60	104	0	56	16358
2026-01-24 03:17:42.91	328.40	14.91	-42.3	-55.4	3.8	7.44e-01	0	60	104	0	56	16008
2026-01-24 03:17:43.92	328.16	14.95	-42.3	-55.3	3.8	7.46e-01	0	60	104	0	56	15870
2026-01-24 03:17:44.93	327.92	14.98	-43.2	-56.8	3.8	7.47e-01	0	60	104	0	56	18827
2026-01-24 03:17:45.94	327.69	15.02	-44.9	-61.7	3.8	7.48e-01	0	60	104	0	60	26447
2026-01-24 03:17:46.95	327.45	15.05	-45.1	-62.9	3.8	7.44e-01	0	60	104	0	60	30077
2026-01-24 03:17:47.96	327.21	15.09	-44.0	-58.6	3.8	7.42e-01	0	60	104	0	59	19506
2026-01-24 03:17:48.97	326.97	15.12	-44.1	-59.3	3.8	7.48e-01	0	60	104	0	58	22285
2026-01-24 03:17:49.98	326.73	15.15	-42.7	-56.1	3.8	7.41e-01	0	60	104	0	57	16355
2026-01-24 03:17:50.98	326.49	15.18	-42.7	-56.0	3.8	7.45e-01	0	60	104	0	57	16163
2026-01-24 03:17:51.99	326.25	15.22	-42.7	-56.1	3.8	7.46e-01	0	60	104	0	57	16404
2026-01-24 03:17:53.00	326.01	15.25	-44.5	-60.7	3.8	7.47e-01	0	60	104	0	60	23385
2026-01-24 03:17:54.01	325.77	15.28	-45.1	-63.2	3.8	7.46e-01	0	60	104	0	60	31183
2026-01-24 03:17:55.02	325.53	15.31	-44.9	-61.7	3.8	7.48e-01	0	60	104	0	60	26175
2026-01-24 03:17:56.03	325.28	15.34	-44.2	-58.9	3.8	7.44e-01	0	60	104	0	59	20294
2026-01-24 03:17:57.04	325.04	15.37	-44.0	-58.7	3.8	7.44e-01	0	60	104	0	58	20913
2026-01-24 03:17:58.05	324.80	15.40	-42.4	-55.5	3.8	7.47e-01	0	60	104	0	56	16248
2026-01-24 03:17:59.06	324.55	15.43	-42.3	-55.3	3.8	7.45e-01	0	60	104	0	56	15899
2026-01-24 03:18:00.06	324.31	15.46	-42.2	-55.3	3.8	7.47e-01	0	60	104	0	56	15779
2026-01-24 03:18:01.07	324.06	15.48	-42.4	-55.3	3.8	7.43e-01	0	60	104	0	56	15940
2026-01-24 03:18:02.08	323.82	15.51	-43.8	-58.4	3.8	7.47e-01	0	60	104	0	58	20202
2026-01-24 03:18:03.09	323.57	15.54	-43.8	-58.1	3.8	7.45e-01	0	60	104	0	58	19549
2026-01-24 03:18:04.10	323.32	15.57	-44.9	-61.8	3.8	7.40e-01	0	60	104	0	60	26755
2026-01-24 03:18:05.11	323.07	15.59	-45.3	-63.8	3.8	7.46e-01	0	60	104	0	61	31604
2026-01-24 03:18:06.12	322.83	15.62	-42.8	-56.2	3.8	7.47e-01	0	60	104	0	57	16552
2026-01-24 03:18:07.13	322.58	15.64	-42.8	-56.2	3.8	7.47e-01	0	60	104	0	57	16543
2026-01-24 03:18:08.14	322.33	15.67	-42.4	-55.5	3.8	7.47e-01	0	60	104	0	56	16213
2026-01-24 03:18:09.15	322.08	15.69	-43.2	-56.8	3.9	7.38e-01	0	60	104	0	57	17739
2026-01-24 03:18:10.15	321.83	15.72	-43.5	-57.3	3.8	7.44e-01	0	60	104	0	58	17787
2026-01-24 03:18:11.16	321.58	15.74	-43.7	-58.3	3.8	7.45e-01	0	60	104	0	58	19934
2026-01-24 03:18:12.17	321.33	15.76	-44.5	-60.5	3.9	7.44e-01	0	60	104	0	60	22926
2026-01-24 03:18:13.18	321.08	15.78	-45.0	-62.7	3.9	7.46e-01	0	60	104	0	60	29350
2026-01-24 03:18:14.19	320.83	15.80	-42.3	-55.4	3.8	7.44e-01	0	60	104	0	56	15982
2026-01-24 03:18:15.20	320.58	15.83	-42.3	-55.5	3.8	7.44e-01	0	60	104	0	56	16208
2026-01-24 03:18:16.21	320.32	15.85	-42.2	-55.1	3.8	7.46e-01	0	60	104	0	56	15559
2026-01-24 03:18:17.22	320.07	15.87	-43.5	-57.4	3.9	7.44e-01	0	60	104	0	58	17958
2026-01-24 03:18:18.23	319.82	15.89	-43.5	-57.8	3.9	7.45e-01	0	60	104	0	58	18768
2026-01-24 03:18:19.24	319.56	15.91	-43.6	-57.6	3.8	7.42e-01	0	60	104	0	58	18430
2026-01-24 03:18:20.25	319.31	15.92	-44.0	-59.1	3.9	7.40e-01	0	60	104	0	60	19460
2026-01-24 03:18:21.26	319.06	15.94	-45.2	-63.3	3.8	7.38e-01	0	60	104	0	61	29813
2026-01-24 03:18:22.27	318.80	15.96	-42.2	-55.1	3.8	7.48e-01	0	60	104	0	56	15518
2026-01-24 03:18:23.28	318.55	15.98	-42.2	-55.0	3.8	7.46e-01	0	60	104	0	56	15323
2026-01-24 03:18:24.29	318.29	15.99	-42.2	-55.1	3.8	7.42e-01	0	60	104	0	56	15510
2026-01-24 03:18:25.29	318.04	16.01	-44.1	-58.8	3.8	7.42e-01	0	60	104	0	59	19961
2026-01-24 03:18:26.30	317.78	16.02	-42.9	-55.9	3.8	7.42e-01	0	60	104	0	57	16126
2026-01-24 03:18:27.31	317.53	16.04	-43.6	-57.9	3.9	7.45e-01	0	60	104	0	58	19123
2026-01-24 03:18:28.32	317.27	16.05	-43.5	-57.6	3.8	7.44e-01	0	60	104	0	59	17479
2026-01-24 03:18:29.33	317.02	16.07	-44.9	-62.2	3.8	7.44e-01	0	60	104	0	60	27776
2026-01-24 03:18:30.34	316.76	16.08	-42.3	-55.2	3.8	7.44e-01	0	60	104	0	56	15648
2026-01-24 03:18:31.35	316.50	16.09	-42.3	-55.4	3.8	7.44e-01	0	60	104	0	56	15966
2026-01-24 03:18:32.36	316.24	16.11	-42.1	-55.1	3.8	7.45e-01	0	61	104	0	56	15417
2026-01-24 03:18:33.37	315.99	16.12	-43.0	-56.5	3.9	7.44e-01	0	60	104	0	58	16239
2026-01-24 03:18:34.38	315.73	16.13	-42.7	-56.2	3.8	7.45e-01	0	61	104	0	57	16520
2026-01-24 03:18:35.39	315.47	16.14	-43.6	-57.6	3.8	7.43e-01	0	60	104	0	58	18376
2026-01-24 03:18:36.40	315.21	16.15	-42.6	-55.8	3.8	7.47e-01	0	61	104	0	57	15854
2026-01-24 03:18:37.41	314.96	16.16	-44.8	-61.7	3.9	7.45e-01	0	60	104	0	61	24859
2026-01-24 03:18:38.42	314.70	16.17	-42.2	-55.0	3.8	7.45e-01	0	60	104	0	56	15391
2026-01-24 03:18:39.43	314.44	16.18	-42.2	-55.0	3.8	7.44e-01	0	60	104	0	56	15247
2026-01-24 03:18:40.44	314.18	16.18	-42.6	-55.7	3.8	7.46e-01	0	60	104	0	56	16535
2026-01-24 03:18:41.45	313.92	16.19	-44.1	-58.7	3.8	7.44e-01	0	60	104	0	59	19653
2026-01-24 03:18:42.46	313.66	16.20	-42.3	-55.3	3.8	7.43e-01	0	61	104	0	56	15795
2026-01-24 03:18:43.47	313.40	16.20	-43.4	-57.5	3.8	7.43e-01	0	60	104	0	58	18153
2026-01-24 03:18:44.48	313.14	16.21	-42.3	-55.5	3.9	7.47e-01	0	61	104	0	56	16142
2026-01-24 03:18:45.48	312.89	16.21	-44.2	-58.7	3.9	7.44e-01	0	60	104	0	59	19711
2026-01-24 03:18:46.49	312.63	16.22	-42.3	-55.6	3.8	7.47e-01	0	61	104	0	56	16360
2026-01-24 03:18:47.50	312.37	16.22	-42.1	-54.8	3.8	7.44e-01	0	60	104	0	56	14940
2026-01-24 03:18:48.51	312.11	16.22	-42.3	-55.4	3.8	7.43e-01	0	61	104	0	56	16113
2026-01-24 03:18:49.52	311.85	16.23	-42.3	-55.2	3.8	7.45e-01	0	61	104	0	56	15606
2026-01-24 03:18:50.53	311.59	16.23	-42.3	-55.6	3.8	7.42e-01	0	60	104	0	56	16478
2026-01-24 03:18:51.54	311.33	16.23	-43.9	-57.9	3.8	7.44e-01	0	60	104	0	59	18059
2026-01-24 03:18:52.55	311.07	16.23	-42.7	-56.0	3.8	7.46e-01	0	60	104	0	56	17148
2026-01-24 03:18:53.56	310.81	16.23	-43.9	-58.4	3.9	7.43e-01	0	60	104	0	59	18986
2026-01-24 03:18:54.57	310.55	16.23	-42.3	-55.3	3.8	7.43e-01	0	60	104	0	56	15908
2026-01-24 03:18:55.58	310.29	16.23	-42.4	-55.2	3.8	7.44e-01	0	61	104	0	56	15743
2026-01-24 03:18:56.59	310.03	16.23	-43.7	-57.6	3.8	7.47e-01	0	60	104	0	57	19536
2026-01-24 03:18:57.60	309.77	16.23	-44.0	-58.4	3.8	7.45e-01	0	61	104	0	59	19006
2026-01-24 03:18:58.61	309.51	16.23	-42.3	-55.2	3.8	7.44e-01	0	60	104	0	56	15756
2026-01-24 03:18:59.62	309.25	16.22	-43.6	-57.8	3.8	7.42e-01	0	60	104	0	58	18774
2026-01-24 03:19:00.63	308.99	16.22	-43.2	-56.6	3.8	7.46e-01	0	61	104	0	56	18495
2026-01-24 03:19:01.64	308.73	16.21	-43.1	-56.9	3.9	7.42e-01	0	60	104	0	58	16991
2026-01-24 03:19:02.64	308.47	16.21	-42.1	-55.0	3.8	7.44e-01	0	61	104	0	56	15291
2026-01-24 03:19:03.65	308.22	16.20	-42.2	-55.1	3.8	7.46e-01	0	60	104	0	56	15506
2026-01-24 03:19:04.66	307.96	16.20	-43.1	-56.5	3.8	7.47e-01	0	60	104	0	56	18240
2026-01-24 03:19:05.67	307.70	16.19	-43.1	-57.1	3.8	7.45e-01	0	61	104	0	57	18404
2026-01-24 03:19:06.68	307.44	16.19	-42.8	-55.8	3.8	7.45e-01	0	60	104	0	56	16710
2026-01-24 03:19:07.69	307.18	16.18	-44.5	-59.9	3.8	7.49e-01	0	61	104	0	59	22521
2026-01-24 03:19:08.70	306.92	16.17	-44.5	-59.3	3.7	7.47e-01	0	60	104	0	59	21136
2026-01-24 03:19:09.71	306.66	16.16	-43.0	-56.8	3.9	7.43e-01	0	61	104	0	58	16862
2026-01-24 03:19:10.72	306.40	16.15	-42.3	-55.0	3.8	7.46e-01	0	60	104	0	56	15233
2026-01-24 03:19:11.73	306.14	16.14	-42.3	-55.3	3.8	7.44e-01	0	61	104	0	56	15876
2026-01-24 03:19:12.74	305.89	16.13	-44.5	-59.6	3.8	7.44e-01	0	60	104	0	59	21907
2026-01-24 03:19:13.75	305.63	16.12	-44.0	-58.8	3.8	7.47e-01	0	61	104	0	60	18804
2026-01-24 03:19:14.76	305.37	16.11	-42.9	-56.3	3.8	7.43e-01	0	60	104	0	56	17875
2026-01-24 03:19:15.77	305.11	16.10	-44.1	-59.0	3.8	7.46e-01	0	60	104	0	58	21591
2026-01-24 03:19:16.78	304.86	16.09	-44.7	-61.0	3.8	7.47e-01	0	61	104	0	60	24215
2026-01-24 03:19:17.79	304.60	16.07	-42.5	-56.0	3.8	7.42e-01	0	61	104	0	57	16148
2026-01-24 03:19:18.80	304.34	16.06	-42.3	-55.2	3.8	7.44e-01	0	61	104	0	56	15601
2026-01-24 03:19:19.80	304.09	16.04	-42.3	-55.4	3.8	7.48e-01	0	60	104	0	56	15992
2026-01-24 03:19:20.81	303.83	16.03	-44.1	-58.9	3.8	7.47e-01	0	60	104	0	58	21407
2026-01-24 03:19:21.82	303.58	16.01	-43.4	-57.6	3.8	7.45e-01	0	61	104	0	58	18309
2026-01-24 03:19:22.83	303.32	16.00	-43.7	-57.6	3.9	7.48e-01	0	61	104	0	57	19580
2026-01-24 03:19:23.84	303.06	15.98	-44.6	-60.6	3.7	7.45e-01	0	60	104	0	60	23103
2026-01-24 03:19:24.85	302.81	15.97	-45.3	-63.6	3.7	7.48e-01	0	61	104	0	61	30817
2026-01-24 03:19:25.86	302.55	15.95	-42.5	-55.6	3.8	7.43e-01	0	60	104	0	57	15560
2026-01-24 03:19:26.87	302.30	15.93	-42.3	-55.3	3.8	7.45e-01	0	61	104	0	56	15879
2026-01-24 03:19:27.88	302.04	15.91	-42.4	-55.6	3.8	7.45e-01	0	61	104	0	56	16497
2026-01-24 03:19:28.89	301.79	15.89	-44.6	-60.6	3.8	7.46e-01	0	61	104	0	60	23066
2026-01-24 03:19:29.90	301.54	15.87	-44.0	-58.9	3.8	7.40e-01	0	61	104	0	60	18989
2026-01-24 03:19:30.91	301.28	15.85	-43.5	-58.0	3.8	7.45e-01	0	60	104	0	57	20335
2026-01-24 03:19:31.92	301.03	15.83	-44.7	-60.2	3.9	7.47e-01	0	61	104	0	59	23421
2026-01-24 03:19:32.93	300.78	15.81	-45.2	-63.4	3.8	7.46e-01	0	61	104	0	60	32079
2026-01-24 03:19:33.94	300.53	15.79	-42.2	-55.3	3.8	7.47e-01	0	60	104	0	56	15942
2026-01-24 03:19:34.95	300.27	15.77	-42.1	-54.9	3.8	7.42e-01	0	60	104	0	56	15150
2026-01-24 03:19:35.96	300.02	15.75	-42.1	-55.2	3.8	7.46e-01	0	61	104	0	56	15650
2026-01-24 03:19:36.96	299.77	15.72	-44.6	-60.7	3.7	7.45e-01	0	61	104	0	60	23348
2026-01-24 03:19:37.98	299.52	15.70	-43.5	-57.6	3.8	7.47e-01	0	61	104	0	57	19451
2026-01-24 03:19:38.98	299.27	15.68	-44.3	-59.5	3.8	7.42e-01	0	61	104	0	59	21660
2026-01-24 03:19:39.99	299.02	15.65	-44.8	-61.0	3.8	7.46e-01	0	61	104	0	60	24382
2026-01-24 03:19:41.00	298.78	15.63	-45.2	-63.7	3.8	7.42e-01	0	60	104	0	61	31158
2026-01-24 03:19:42.01	298.53	15.60	-42.2	-54.8	3.8	7.45e-01	0	61	104	0	56	14928
2026-01-24 03:19:43.02	298.28	15.58	-42.2	-55.3	3.8	7.46e-01	0	61	104	0	56	15793
2026-01-24 03:19:44.03	298.03	15.55	-42.2	-55.2	3.8	7.48e-01	0	60	104	0	56	15701
2026-01-24 03:19:45.04	297.78	15.52	-44.8	-61.4	3.8	7.43e-01	0	61	104	0	60	25475
2026-01-24 03:19:46.05	297.54	15.49	-44.1	-59.3	3.8	7.46e-01	0	61	104	0	59	21088
2026-01-24 03:19:47.06	297.29	15.47	-43.6	-58.2	3.8	7.45e-01	0	61	104	0	57	20955
2026-01-24 03:19:48.07	297.04	15.44	-44.6	-60.3	3.8	7.47e-01	0	61	104	0	59	23623
2026-01-24 03:19:49.08	296.80	15.41	-45.0	-63.3	3.8	7.44e-01	0	61	104	0	60	31487
2026-01-24 03:19:50.09	296.55	15.38	-42.0	-54.2	3.8	7.47e-01	0	61	104	0	56	13982
2026-01-24 03:19:51.10	296.31	15.35	-42.1	-55.7	3.8	7.46e-01	0	61	104	0	56	16540
2026-01-24 03:19:52.10	296.07	15.32	-42.1	-55.1	3.8	7.45e-01	0	61	104	0	56	15551
2026-01-24 03:19:53.11	295.82	15.29	-43.7	-58.2	3.8	7.43e-01	0	61	104	0	58	19684
2026-01-24 03:19:54.12	295.58	15.26	-43.4	-57.9	3.8	7.41e-01	0	60	104	0	57	20279
2026-01-24 03:19:55.13	295.34	15.23	-43.9	-58.8	3.9	7.45e-01	0	61	104	0	58	21230
2026-01-24 03:19:56.14	295.10	15.20	-44.2	-59.4	3.9	7.45e-01	0	61	104	0	60	20188
2026-01-24 03:19:57.15	294.86	15.16	-44.9	-63.4	3.8	7.45e-01	0	61	104	0	60	32125
2026-01-24 03:19:58.16	294.62	15.13	-42.2	-54.9	3.8	7.43e-01	0	61	104	0	56	15166
2026-01-24 03:19:59.17	294.38	15.10	-42.2	-55.0	3.8	7.46e-01	0	61	104	0	56	15231
2026-01-24 03:20:00.18	294.14	15.06	-42.1	-55.7	3.8	7.42e-01	0	61	104	0	56	16597
2026-01-24 03:20:01.19	293.90	15.03	-44.1	-58.6	3.9	7.47e-01	0	61	104	0	59	19469
2026-01-24 03:20:02.20	293.66	14.99	-43.5	-58.2	3.9	7.44e-01	0	61	104	0	59	18716
2026-01-24 03:20:03.21	293.42	14.96	-43.3	-57.7	3.9	7.47e-01	0	61	104	0	57	19806
2026-01-24 03:20:04.22	293.18	14.92	-43.7	-58.3	3.9	7.44e-01	0	61	104	0	59	18829
2026-01-24 03:20:05.23	292.95	14.89	-44.7	-63.0	3.8	7.47e-01	0	61	104	0	60	30725
2026-01-24 03:20:06.23	292.71	14.85	-42.1	-55.8	3.8	7.43e-01	0	61	104	0	56	16743
2026-01-24 03:20:07.24	292.48	14.82	-41.9	-54.5	3.8	7.48e-01	0	61	104	0	55	15291
2026-01-24 03:20:08.25	292.24	14.78	-42.0	-55.1	3.8	7.43e-01	0	61	104	0	55	16451
2026-01-24 03:20:09.26	292.01	14.74	-44.1	-60.0	3.8	7.41e-01	0	61	104	0	59	22878
2026-01-24 03:20:10.27	291.78	14.70	-43.0	-56.9	3.8	7.42e-01	0	61	104	0	58	17006
2026-01-24 03:20:11.28	291.54	14.67	-43.6	-58.1	3.8	7.43e-01	0	61	104	0	58	19517
2026-01-24 03:20:12.29	291.31	14.63	-43.0	-56.8	4.0	7.42e-01	0	61	104	0	58	16719
2026-01-24 03:20:13.30	291.08	14.59	-44.7	-63.1	3.8	7.42e-01	0	61	104	0	59	32799
2026-01-24 03:20:14.31	290.85	14.55	-42.2	-55.2	3.8	7.44e-01	0	61	104	0	56	15690
2026-01-24 03:20:15.32	290.62	14.51	-42.2	-55.4	3.8	7.45e-01	0	61	104	0	56	16036
2026-01-24 03:20:16.34	290.39	14.47	-42.1	-55.5	3.8	7.41e-01	0	61	104	0	56	16134
2026-01-24 03:20:17.34	290.16	14.43	-43.7	-57.9	3.9	7.45e-01	0	61	104	0	59	17929
2026-01-24 03:20:18.35	289.93	14.39	-42.7	-56.4	3.9	7.44e-01	0	61	104	0	57	17082
2026-01-24 03:20:19.37	289.70	14.35	-42.9	-57.1	3.8	7.45e-01	0	61	104	0	57	18493
2026-01-24 03:20:20.37	289.48	14.31	-42.4	-55.4	3.9	7.40e-01	0	61	104	0	56	16122
2026-01-24 03:20:21.39	289.25	14.26	-44.4	-62.2	3.9	7.43e-01	0	61	104	0	59	29424
2026-01-24 03:20:22.39	289.03	14.22	-42.0	-55.2	3.8	7.43e-01	0	61	104	0	56	15615
2026-01-24 03:20:23.40	288.80	14.18	-41.7	-54.8	3.8	7.44e-01	0	61	104	0	55	15816
2026-01-24 03:20:24.41	288.58	14.14	-42.1	-55.2	3.8	7.46e-01	0	61	104	0	55	16542
2026-01-24 03:20:25.42	288.35	14.09	-44.5	-60.8	3.8	7.45e-01	0	61	104	0	59	25073
2026-01-24 03:20:26.43	288.13	14.05	-41.6	-54.5	3.8	7.43e-01	0	61	104	0	55	15357
2026-01-24 03:20:27.44	287.91	14.01	-44.1	-54.3	5.8	6.52e-01	56	61	104	0	59	11921
2026-01-24 03:20:28.45	287.69	13.96	-41.5	-45.1	17.0	6.04e-01	0	61	0	1572864	55	5205
2026-01-24 03:20:29.46	287.47	13.92	-42.3	-46.5	15.9	6.04e-01	0	61	0	3145728	56	5787
2026-01-24 03:20:30.47	287.25	13.87	-41.8	-45.8	16.7	6.04e-01	0	61	0	5242880	55	5652
2026-01-24 03:20:31.48	287.03	13.83	-41.7	-45.5	16.9	6.01e-01	0	61	0	6815744	55	5454
2026-01-24 03:20:32.49	286.81	13.78	-41.5	-45.2	17.2	6.03e-01	0	61	0	8912896	55	5246
2026-01-24 03:20:33.50	286.59	13.74	-41.7	-45.7	16.8	6.04e-01	0	61	0	11010048	54	5857
2026-01-24 03:20:34.51	286.37	13.69	-41.8	-45.9	16.6	6.02e-01	0	61	0	12582912	54	5994
2026-01-24 03:20:35.51	286.16	13.65	-41.3	-44.9	17.5	6.04e-01	0	61	0	14680064	54	5356
2026-01-24 03:20:36.52	285.94	13.60	-41.3	-44.9	17.5	6.04e-01	0	61	0	16252928	54	5386
2026-01-24 03:20:37.53	285.73	13.55	-41.5	-45.4	17.0	6.02e-01	0	61	0	18350080	54	5700
2026-01-24 03:20:38.54	285.52	13.51	-41.3	-44.8	17.6	6.00e-01	0	61	0	20447232	54	5340
2026-01-24 03:20:39.55	285.30	13.46	-41.3	-44.9	17.6	6.03e-01	0	61	0	22020096	54	5347
2026-01-24 03:20:40.56	285.09	13.41	-41.6	-45.5	17.0	6.02e-01	0	61	0	24117248	54	5775
2026-01-24 03:20:41.57	284.88	13.36	-41.5	-45.3	17.2	6.02e-01	0	61	0	25690112	54	5596
2026-01-24 03:20:42.58	284.67	13.32	-41.2	-44.8	17.7	6.04e-01	0	61	0	27787264	54	5287
2026-01-24 03:20:43.59	284.46	13.27	-41.4	-45.1	17.3	6.02e-01	0	61	0	29884416	54	5502
2026-01-24 03:20:44.60	284.25	13.22	-41.6	-45.6	16.8	6.02e-01	0	61	0	31457280	54	5836
2026-01-24 03:20:45.61	284.04	13.17	-41.5	-45.4	16.9	6.02e-01	0	61	0	33554432	54	5681
2026-01-24 03:20:46.62	283.83	13.12	-41.5	-45.4	16.9	6.02e-01	0	61	0	35127296	54	5706
2026-01-24 03:20:47.63	283.62	13.07	-41.6	-45.6	16.8	6.02e-01	0	61	0	37224448	54	5816
2026-01-24 03:20:48.64	283.41	13.02	-41.7	-45.7	16.7	6.03e-01	0	61	0	39321600	54	5870
2026-01-24 03:20:49.65	283.21	12.97	-41.2	-44.8	17.6	6.02e-01	0	61	0	40894464	54	5290
2026-01-24 03:20:50.66	283.00	12.92	-41.1	-44.4	18.1	6.02e-01	0	61	0	42991616	54	5080
2026-01-24 03:20:51.67	282.80	12.87	-41.5	-45.2	17.3	6.03e-01	0	61	0	44564480	54	5588
2026-01-24 03:20:52.68	282.60	12.82	-41.7	-45.7	16.9	6.04e-01	0	61	0	46661632	54	5860
2026-01-24 03:20:53.69	282.39	12.77	-41.5	-45.1	17.4	6.03e-01	0	61	0	48758784	54	5527
2026-01-24 03:20:54.70	282.19	12.72	-41.5	-45.2	17.5	6.03e-01	0	61	0	50331648	54	5530
2026-01-24 03:20:55.71	281.99	12.67	-41.6	-45.2	17.4	6.02e-01	0	61	0	52428800	54	5586
2026-01-24 03:20:56.72	281.79	12.62	-41.7	-45.4	17.2	6.05e-01	0	61	0	54525952	54	5712
2026-01-24 03:20:57.73	281.59	12.57	-41.6	-45.3	17.3	6.04e-01	0	61	0	56098816	54	5621
2026-01-24 03:20:58.74	281.39	12.51	-41.6	-45.3	17.3	6.02e-01	0	61	0	58195968	54	5612
2026-01-24 03:20:59.75	281.19	12.46	-41.6	-45.3	17.2	6.03e-01	0	61	0	59768832	54	5655
2026-01-24 03:21:00.76	280.99	12.41	-41.6	-45.4	17.2	6.04e-01	0	61	0	61865984	54	5683
2026-01-24 03:21:01.77	280.80	12.36	-41.7	-45.5	17.1	6.04e-01	0	61	0	63963136	54	5735
2026-01-24 03:21:02.78	280.60	12.31	-41.6	-45.4	17.2	6.02e-01	0	61	0	65536000	54	5667
2026-01-24 03:21:03.78	280.41	12.25	-41.5	-45.1	17.5	6.02e-01	0	61	0	67633152	54	5509
2026-01-24 03:21:04.79	280.21	12.20	-41.5	-45.2	17.4	6.02e-01	0	61	0	69730304	54	5583
2026-01-24 03:21:05.80	280.02	12.15	-41.6	-45.3	17.3	6.02e-01	0	61	0	71303168	54	5626
2026-01-24 03:21:06.81	279.82	12.09	-41.6	-45.3	17.2	6.02e-01	0	61	0	73400320	54	5656
2026-01-24 03:21:07.82	279.63	12.04	-41.5	-45.2	17.3	6.03e-01	0	61	0	74973184	54	5566
2026-01-24 03:21:08.83	279.44	11.99	-41.6	-45.4	17.2	6.03e-01	0	61	0	77070336	54	5663
2026-01-24 03:21:09.84	279.25	11.93	-41.6	-45.3	17.2	6.00e-01	0	61	0	79167488	54	5627
2026-01-24 03:21:10.85	279.06	11.88	-41.6	-45.3	17.2	6.04e-01	0	61	0	80740352	54	5641
2026-01-24 03:21:11.86	278.87	11.83	-41.6	-45.3	17.3	6.03e-01	0	61	0	82837504	54	5606
2026-01-24 03:21:12.87	278.68	11.77	-41.6	-45.4	17.2	6.02e-01	0	61	0	84410368	54	5685
2026-01-24 03:21:13.88	278.49	11.72	-41.7	-45.5	17.1	6.04e-01	0	61	0	86507520	54	5738
2026-01-24 03:21:14.89	278.31	11.66	-41.7	-45.6	16.9	6.03e-01	0	61	0	88604672	54	5834
2026-01-24 03:21:15.90	278.12	11.61	-41.7	-45.6	16.9	6.02e-01	0	61	0	90177536	54	5813
2026-01-24 03:21:16.91	277.93	11.55	-41.6	-45.4	17.1	6.01e-01	0	61	0	92274688	54	5663
2026-01-24 03:21:17.92	277.75	11.50	-41.5	-45.3	17.1	6.02e-01	0	61	0	93847552	54	5601
2026-01-24 03:21:18.93	277.56	11.44	-41.5	-45.4	17.0	6.01e-01	0	61	0	95944704	54	5669
2026-01-24 03:21:19.94	277.38	11.39	-41.5	-45.3	17.0	6.02e-01	0	61	0	98041856	54	5633
2026-01-24 03:21:20.95	277.20	11.33	-41.5	-45.3	17.0	6.04e-01	0	61	0	99614720	54	5605
2026-01-24 03:21:21.96	277.02	11.28	-41.5	-45.3	17.0	6.02e-01	0	61	0	101711872	54	5607
2026-01-24 03:21:22.97	276.84	11.22	-41.5	-45.4	16.8	6.03e-01	0	61	0	103284736	54	5715
2026-01-24 03:21:23.98	276.66	11.17	-41.6	-45.5	16.7	6.02e-01	0	61	0	105381888	54	5761
2026-01-24 03:21:24.99	276.48	11.11	-41.5	-45.5	16.7	6.02e-01	0	61	0	107479040	54	5731
2026-01-24 03:21:26.00	276.30	11.06	-41.5	-45.5	16.7	6.03e-01	0	61	0	109051904	54	5742
2026-01-24 03:21:27.01	276.12	11.00	-41.6	-45.7	16.4	6.02e-01	0	61	0	111149056	54	5880
2026-01-24 03:21:28.02	275.94	10.94	-41.6	-45.7	16.4	6.05e-01	0	61	0	112721920	54	5870
2026-01-24 03:21:29.03	275.76	10.89	-41.7	-46.0	16.1	6.01e-01	0	61	0	114819072	54	6065
2026-01-24 03:21:30.03	275.59	10.83	-41.7	-46.1	15.9	6.01e-01	0	61	0	116916224	54	6152
2026-01-24 03:21:31.04	275.41	10.78	-41.7	-46.1	15.8	6.03e-01	0	61	0	118489088	54	6198
2026-01-24 03:21:32.05	275.24	10.72	-41.6	-46.0	15.9	6.03e-01	0	61	0	120586240	54	6102
2026-01-24 03:21:33.06	275.07	10.66	-41.6	-46.0	15.8	6.05e-01	0	61	0	122683392	54	6119
2026-01-24 03:21:34.07	274.89	10.61	-41.7	-46.1	15.7	6.04e-01	0	61	0	124256256	54	6185
2026-01-24 03:21:35.09	274.72	10.55	-41.7	-46.3	15.5	6.03e-01	0	61	0	126353408	54	6292
2026-01-24 03:21:36.10	274.55	10.49	-41.7	-46.5	15.3	6.04e-01	0	61	0	127926272	54	6449
2026-01-24 03:21:37.10	274.38	10.43	-41.7	-46.6	15.1	6.03e-01	0	61	0	130023424	54	6513
2026-01-24 03:21:38.11	274.21	10.38	-41.7	-46.6	15.1	6.05e-01	0	61	0	132120576	54	6524
2026-01-24 03:21:39.13	274.04	10.32	-41.8	-46.8	14.9	6.05e-01	0	61	0	133693440	54	6665
2026-01-24 03:21:40.14	273.87	10.26	-41.9	-47.0	14.6	6.03e-01	0	61	0	135790592	54	6850
2026-01-24 03:21:41.14	273.70	10.21	-41.9	-47.3	14.2	6.03e-01	0	61	0	137887744	54	7071
2026-01-24 03:21:42.15	273.54	10.15	-42.0	-47.5	14.0	6.04e-01	0	61	0	139460608	54	7248
2026-01-24 03:21:43.16	273.37	10.09	-42.0	-47.7	13.7	6.06e-01	0	61	0	141557760	54	7424
2026-01-24 03:21:44.17	273.20	10.03	-42.1	-47.9	13.5	6.07e-01	0	61	0	143130624	54	7628
2026-01-24 03:21:45.18	273.04	9.98	-42.1	-48.2	13.2	6.07e-01	0	61	0	145227776	54	7809
2026-01-24 03:21:46.19	272.87	9.92	-42.2	-48.2	13.2	6.06e-01	0	61	0	147324928	54	7875
2026-01-24 03:21:47.20	272.71	9.86	-42.1	-48.3	13.0	6.06e-01	0	61	0	148897792	54	7931
2026-01-24 03:21:48.21	272.55	9.80	-42.2	-48.5	12.9	6.05e-01	0	61	0	150994944	54	8096
2026-01-24 03:21:49.22	272.38	9.75	-42.2	-48.7	12.6	6.06e-01	0	61	0	152567808	54	8286
2026-01-24 03:21:50.23	272.22	9.69	-42.2	-48.7	12.5	6.07e-01	0	61	0	154664960	55	7886
2026-01-24 03:21:51.24	272.06	9.63	-42.2	-48.9	12.3	6.10e-01	0	61	0	156762112	55	8032
2026-01-24 03:21:52.25	271.90	9.57	-42.2	-48.8	12.4	6.09e-01	0	61	0	158334976	55	7973
2026-01-24 03:21:53.26	271.74	9.51	-42.2	-48.8	12.4	6.08e-01	0	61	0	160432128	55	7968
2026-01-24 03:21:54.27	271.58	9.46	-42.2	-48.7	12.5	6.06e-01	0	61	0	162004992	55	7846
2026-01-24 03:21:55.28	271.43	9.40	-42.1	-48.6	12.5	6.08e-01	0	61	0	164102144	55	7786
2026-01-24 03:21:56.29	271.27	9.34	-42.1	-48.6	12.5	6.08e-01	0	61	0	166199296	55	7747
2026-01-24 03:21:57.30	271.11	9.28	-42.0	-48.6	12.5	6.08e-01	0	61	0	167772160	55	7726
2026-01-24 03:21:58.31	270.96	9.22	-42.0	-48.5	12.5	6.08e-01	0	61	0	169869312	55	7666
2026-01-24 03:21:59.31	270.80	9.17	-42.0	-48.5	12.5	6.08e-01	0	61	0	171442176	55	7708
2026-01-24 03:22:00.32	270.65	9.11	-42.1	-48.7	12.4	6.05e-01	0	61	0	173539328	55	7873
2026-01-24 03:22:01.33	270.49	9.05	-42.0	-48.7	12.4	6.06e-01	0	61	0	175636480	55	7830
2026-01-24 03:22:02.34	270.34	8.99	-42.0	-48.9	12.0	6.04e-01	0	61	0	177209344	55	8048
2026-01-24 03:22:03.35	270.19	8.93	-42.1	-49.3	11.5	6.11e-01	0	61	0	179306496	55	8455
2026-01-24 03:22:04.36	270.03	8.87	-42.1	-49.7	11.1	6.15e-01	0	61	0	180879360	55	8809
2026-01-24 03:22:05.37	269.88	8.82	-42.1	-49.9	10.7	6.17e-01	0	61	0	182976512	55	9045
2026-01-24 03:22:06.38	269.73	8.76	-42.1	-50.1	10.5	6.17e-01	0	61	0	185073664	55	9248
2026-01-24 03:22:07.38	269.58	8.70	-42.0	-50.3	10.2	6.18e-01	0	61	0	186646528	55	9487
2026-01-24 03:22:08.40	269.43	8.64	-42.0	-50.6	9.9	6.22e-01	0	61	0	188743680	55	9718
2026-01-24 03:22:09.41	269.28	8.58	-42.0	-50.9	9.4	6.27e-01	0	61	0	190840832	55	10144
2026-01-24 03:22:10.42	269.14	8.52	-42.0	-51.5	8.8	6.32e-01	0	61	0	192413696	55	10784
2026-01-24 03:22:11.43	268.99	8.46	-42.0	-52.0	8.2	6.41e-01	60	61	0	194510848	55	11488
2026-01-24 03:22:12.43	268.84	8.41	-42.0	-52.5	7.6	6.52e-01	92	61	0	196083712	55	12212
2026-01-24 03:22:13.44	268.70	8.35	-42.1	-53.0	7.1	6.62e-01	92	61	0	198180864	55	12857
2026-01-24 03:22:14.45	268.55	8.29	-42.1	-53.0	7.2	6.56e-01	91	61	0	200278016	55	12890
2026-01-24 03:22:15.46	268.41	8.23	-42.1	-53.4	6.8	6.66e-01	91	61	0	201850880	55	13416
2026-01-24 03:22:16.47	268.26	8.17	-42.1	-53.6	6.6	6.68e-01	92	61	0	203948032	55	13729
2026-01-24 03:22:17.49	268.12	8.11	-42.2	-53.6	6.7	6.70e-01	92	61	0	205520896	55	13827
2026-01-24 03:22:18.50	267.98	8.05	-42.4	-53.7	6.7	6.73e-01	92	61	0	207618048	55	13939
2026-01-24 03:22:19.50	267.83	8.00	-43.8	-58.3	5.3	7.25e-01	2	61	0	209190912	58	19849
2026-01-24 03:22:20.52	267.69	7.94	-45.4	-64.0	3.8	7.41e-01	0	61	104	209190912	61	32315
2026-01-24 03:22:21.53	267.55	7.88	-45.7	-64.3	3.8	7.46e-01	0	61	104	209190912	61	33482
2026-01-24 03:22:22.54	267.41	7.82	-45.9	-64.5	3.8	7.43e-01	0	61	104	209190912	62	32349
2026-01-24 03:22:23.55	267.27	7.76	-46.1	-64.6	3.8	7.44e-01	0	61	104	209190912	62	32807
2026-01-24 03:22:24.56	267.13	7.70	-46.1	-64.7	3.8	7.44e-01	0	61	104	209190912	62	33221
2026-01-24 03:22:25.57	266.99	7.64	-46.2	-64.7	3.8	7.41e-01	0	62	104	209190912	62	33306
2026-01-24 03:22:26.58	266.85	7.58	-46.2	-64.8	3.8	7.48e-01	0	61	104	209190912	62	33314
2026-01-24 03:22:27.59	266.72	7.53	-46.2	-64.8	3.8	7.49e-01	0	61	104	209190912	62	33379
2026-01-24 03:22:28.60	266.58	7.47	-46.2	-64.8	3.8	7.47e-01	0	61	104	209190912	63	31626
2026-01-24 03:22:29.61	266.44	7.41	-46.2	-64.8	3.8	7.44e-01	0	61	104	209190912	63	31614
2026-01-24 03:22:30.62	266.31	7.35	-46.2	-64.8	3.8	7.46e-01	0	61	104	209190912	63	31508
2026-01-24 03:22:31.63	266.17	7.29	-46.2	-64.7	3.8	7.44e-01	0	61	104	209190912	63	31413
2026-01-24 03:22:32.65	266.04	7.23	-46.2	-64.7	3.8	7.46e-01	0	61	104	209190912	63	31196
2026-01-24 03:22:33.66	265.90	7.17	-46.2	-64.7	3.8	7.42e-01	0	61	104	209190912	63	31154
2026-01-24 03:22:34.67	265.77	7.11	-46.2	-64.7	3.8	7.45e-01	0	61	104	209190912	63	31148
2026-01-24 03:22:35.68	265.64	7.06	-46.2	-64.7	3.8	7.45e-01	0	61	104	209190912	63	31346
2026-01-24 03:22:36.69	265.51	7.00	-46.1	-64.6	3.8	7.45e-01	0	61	104	209190912	63	30988
2026-01-24 03:22:37.70	265.38	6.94	-46.1	-64.6	3.8	7.41e-01	0	61	104	209190912	63	31006
2026-01-24 03:22:38.71	265.25	6.88	-46.1	-64.6	3.8	7.49e-01	0	61	104	209190912	63	31010
2026-01-24 03:22:39.72	265.12	6.82	-46.1	-64.6	3.8	7.46e-01	0	61	104	209190912	63	31041
2026-01-24 03:22:40.73	264.99	6.76	-46.1	-64.6	3.8	7.43e-01	0	61	104	209190912	63	30951
2026-01-24 03:22:41.74	264.86	6.71	-46.1	-64.6	3.8	7.48e-01	0	62	104	209190912	63	30937
2026-01-24 03:22:42.75	264.73	6.65	-46.1	-64.6	3.8	7.47e-01	0	61	104	209190912	63	30986
2026-01-24 03:22:43.76	264.60	6.59	-46.1	-64.6	3.8	7.45e-01	0	61	104	209190912	63	31023
2026-01-24 03:22:44.77	264.47	6.53	-46.1	-64.6	3.8	7.44e-01	0	61	104	209190912	63	30932
2026-01-24 03:22:45.78	264.35	6.47	-46.1	-64.6	3.8	7.45e-01	0	61	104	209190912	63	30967
2026-01-24 03:22:46.79	264.22	6.41	-46.1	-64.6	3.8	7.43e-01	0	61	104	209190912	63	30927
2026-01-24 03:22:47.80	264.09	6.35	-46.1	-64.6	3.8	7.46e-01	0	61	104	209190912	63	30930
2026-01-24 03:22:48.82	263.97	6.30	-46.1	-64.6	3.8	7.44e-01	0	61	104	209190912	63	30975
2026-01-24 03:22:49.83	263.84	6.24	-46.1	-64.6	3.8	7.43e-01	0	61	104	209190912	63	30941
2026-01-24 03:22:50.84	263.72	6.18	-46.1	-64.6	3.8	7.45e-01	0	61	104	209190912	63	30924
2026-01-24 03:22:51.85	263.60	6.12	-46.1	-64.6	3.8	7.43e-01	0	61	104	209190912	63	30906
2026-01-24 03:22:52.86	263.47	6.06	-46.1	-64.6	3.8	7.44e-01	0	62	104	209190912	63	30873
2026-01-24 03:22:53.87	263.35	6.00	-46.1	-64.6	3.8	7.45e-01	0	61	104	209190912	63	30859
2026-01-24 03:22:54.88	263.23	5.95	-46.1	-64.6	3.8	7.47e-01	0	61	104	209190912	63	30909
2026-01-24 03:22:55.89	263.11	5.89	-46.1	-64.6	3.8	7.46e-01	0	61	104	209190912	63	30889
2026-01-24 03:22:56.90	262.99	5.83	-46.1	-64.6	3.8	7.47e-01	0	61	104	209190912	63	30836
2026-01-24 03:22:57.91	262.87	5.77	-46.1	-64.6	3.8	7.46e-01	0	61	104	209190912	63	30873
2026-01-24 03:22:58.92	262.75	5.71	-46.1	-64.6	3.8	7.45e-01	0	61	104	209190912	63	30899
2026-01-24 03:22:59.93	262.63	5.66	-46.1	-64.6	3.8	7.45e-01	0	61	104	209190912	63	30882
2026-01-24 03:23:00.94	262.51	5.60	-46.1	-64.6	3.8	7.46e-01	0	61	104	209190912	63	30797
2026-01-24 03:23:01.95	262.39	5.54	-46.1	-64.6	3.8	7.46e-01	0	61	104	209190912	63	30865
2026-01-24 03:23:02.97	262.27	5.48	-46.1	-64.6	3.8	7.46e-01	0	62	104	209190912	63	30855
2026-01-24 03:23:03.98	262.16	5.42	-46.1	-64.6	3.8	7.45e-01	0	61	104	209190912	63	30820
2026-01-24 03:23:04.99	262.04	5.37	-46.1	-64.6	3.8	7.43e-01	0	62	104	209190912	63	30835
2026-01-24 03:23:06.00	261.92	5.31	-46.1	-64.6	3.8	7.47e-01	0	61	104	209190912	63	30827
2026-01-24 03:23:07.01	261.81	5.25	-46.1	-64.6	3.8	7.45e-01	0	61	104	209190912	63	30843
2026-01-24 03:23:08.02	261.69	5.19	-46.1	-64.6	3.8	7.47e-01	0	61	104	209190912	63	30807
2026-01-24 03:23:09.03	261.58	5.14	-46.1	-64.6	3.8	7.44e-01	0	62	104	209190912	63	30888
2026-01-24 03:23:10.04	261.46	5.08	-46.1	-64.6	3.8	7.43e-01	0	61	104	209190912	63	30864
2026-01-24 03:23:11.05	261.35	5.02	-46.1	-64.6	3.8	7.43e-01	0	62	104	209190912	62	32661
2026-01-24 03:23:12.06	261.24	4.96	-46.1	-64.6	3.8	7.44e-01	0	61	104	209190912	62	32600
2026-01-24 03:23:13.07	261.13	4.91	-46.1	-64.6	3.8	7.45e-01	0	61	104	209190912	62	32705
2026-01-24 03:23:14.08	261.01	4.85	-46.1	-64.6	3.8	7.45e-01	0	61	104	209190912	62	32688
2026-01-24 03:23:15.09	260.90	4.79	-46.1	-64.6	3.8	7.45e-01	0	61	104	209190912	62	32661
2026-01-24 03:23:16.10	260.79	4.73	-46.1	-64.6	3.8	7.44e-01	0	61	104	209190912	62	32658
2026-01-24 03:23:17.11	260.68	4.68	-46.1	-64.6	3.8	7.46e-01	0	62	104	209190912	62	32635
2026-01-24 03:23:18.12	260.57	4.62	-46.1	-64.6	3.8	7.50e-01	0	61	104	209190912	62	32579
2026-01-24 03:23:19.13	260.46	4.56	-46.1	-64.6	3.8	7.46e-01	0	61	104	209190912	62	32628
2026-01-24 03:23:20.14	260.35	4.51	-46.1	-64.6	3.8	7.43e-01	0	61	104	209190912	62	32659
2026-01-24 03:23:21.15	260.24	4.45	-46.1	-64.6	3.8	7.45e-01	0	61	104	209190912	62	32711
2026-01-24 03:23:22.16	260.13	4.39	-46.1	-64.6	3.8	7.46e-01	0	61	104	209190912	62	32603
2026-01-24 03:23:23.17	260.03	4.33	-46.1	-64.6	3.8	7.46e-01	0	61	104	209190912	62	32595
2026-01-24 03:23:24.18	259.92	4.28	-46.0	-64.6	3.8	7.44e-01	0	62	104	209190912	62	32703
2026-01-24 03:23:25.19	259.81	4.22	-46.1	-64.6	3.8	7.43e-01	0	61	104	209190912	62	32647
2026-01-24 03:23:26.20	259.71	4.16	-46.1	-64.6	3.8	7.49e-01	0	61	104	209190912	62	32621
2026-01-24 03:23:27.21	259.60	4.11	-46.1	-64.6	3.8	7.48e-01	0	61	104	209190912	62	32685
2026-01-24 03:23:28.22	259.50	4.05	-46.1	-64.5	3.8	7.45e-01	0	62	104	209190912	62	32550
2026-01-24 03:23:29.23	259.39	3.99	-46.1	-64.6	3.8	7.45e-01	0	61	104	209190912	62	32595
2026-01-24 03:23:30.24	259.29	3.94	-46.0	-64.6	3.8	7.43e-01	0	62	104	209190912	62	32616
2026-01-24 03:23:31.25	259.18	3.88	-46.1	-64.6	3.8	7.45e-01	0	62	104	209190912	62	32587
2026-01-24 03:23:32.26	259.08	3.82	-46.1	-64.6	3.8	7.44e-01	0	61	104	209190912	62	32599
2026-01-24 03:23:33.27	258.98	3.77	-46.1	-64.6	3.8	7.46e-01	0	61	104	209190912	62	32621
2026-01-24 03:23:34.28	258.87	3.71	-46.1	-64.6	3.8	7.46e-01	0	62	104	209190912	62	32592
2026-01-24 03:23:35.29	258.77	3.65	-46.1	-64.5	3.8	7.48e-01	0	61	104	209190912	62	32511
2026-01-24 03:23:36.30	258.67	3.60	-46.1	-64.6	3.8	7.49e-01	0	61	104	209190912	62	32601
2026-01-24 03:23:37.31	258.57	3.54	-46.1	-64.6	3.8	7.48e-01	0	62	104	209190912	62	32632
2026-01-24 03:23:38.32	258.47	3.48	-46.1	-64.5	3.8	7.43e-01	0	61	104	209190912	62	32542
2026-01-24 03:23:39.33	258.37	3.43	-46.1	-64.6	3.8	7.46e-01	0	61	104	209190912	62	32555
2026-01-24 03:23:40.34	258.27	3.37	-46.1	-64.5	3.8	7.45e-01	0	62	104	209190912	62	32510
2026-01-24 03:23:41.35	258.17	3.32	-46.1	-64.6	3.8	7.42e-01	0	62	104	209190912	62	32577
2026-01-24 03:23:42.36	258.07	3.26	-46.1	-64.6	3.8	7.43e-01	0	62	104	209190912	62	32565
2026-01-24 03:23:43.37	257.97	3.20	-46.1	-64.5	3.8	7.49e-01	0	61	104	209190912	62	32546
2026-01-24 03:23:44.38	257.87	3.15	-46.0	-64.6	3.8	7.49e-01	0	61	104	209190912	62	32639
2026-01-24 03:23:45.39	257.77	3.09	-46.1	-64.5	3.8	7.45e-01	0	62	104	209190912	62	32547
2026-01-24 03:23:46.40	257.67	3.04	-46.0	-64.5	3.8	7.43e-01	0	61	104	209190912	62	32535
2026-01-24 03:23:47.41	257.58	2.98	-46.1	-64.6	3.8	7.45e-01	0	61	104	209190912	62	32623
2026-01-24 03:23:48.42	257.48	2.93	-46.0	-64.6	3.8	7.43e-01	0	62	104	209190912	62	32558
2026-01-24 03:23:49.44	257.38	2.87	-46.0	-64.6	3.8	7.43e-01	0	62	104	209190912	62	32563
2026-01-24 03:23:50.45	257.29	2.81	-46.1	-64.5	3.8	7.47e-01	0	62	104	209190912	62	32499
2026-01-24 03:23:51.46	257.19	2.76	-46.0	-64.5	3.8	7.44e-01	0	61	104	209190912	62	32532
2026-01-24 03:23:52.47	257.10	2.70	-46.0	-64.5	3.8	7.45e-01	0	62	104	209190912	62	32538
2026-01-24 03:23:53.48	257.00	2.65	-46.0	-64.6	3.8	7.43e-01	0	61	104	209190912	62	32585
2026-01-24 03:23:54.49	256.91	2.59	-46.0	-64.6	3.8	7.43e-01	0	62	104	209190912	62	32587
2026-01-24 03:23:55.50	256.81	2.54	-46.0	-64.5	3.8	7.45e-01	0	62	104	209190912	62	32545
2026-01-24 03:23:56.51	256.72	2.48	-46.1	-64.5	3.8	7.42e-01	0	62	104	209190912	62	32494
2026-01-24 03:23:57.52	256.63	2.43	-46.1	-64.6	3.8	7.48e-01	0	62	104	209190912	62	32587
2026-01-24 03:23:58.53	256.53	2.37	-46.1	-64.5	3.8	7.47e-01	0	62	104	209190912	62	32544
2026-01-24 03:23:59.54	256.44	2.32	-46.1	-64.5	3.8	7.46e-01	0	61	104	209190912	62	32479
2026-01-24 03:24:00.55	256.35	2.26	-46.1	-64.6	3.8	7.42e-01	0	62	104	209190912	62	32554
2026-01-24 03:24:01.56	256.26	2.21	-46.0	-64.6	3.8	7.42e-01	0	61	104	209190912	62	32552
2026-01-24 03:24:02.57	256.17	2.15	-46.0	-64.5	3.8	7.46e-01	0	61	104	209190912	62	32539
2026-01-24 03:24:03.58	256.08	2.10	-46.1	-64.5	3.8	7.46e-01	0	61	104	209190912	62	32548
2026-01-24 03:24:04.59	255.99	2.04	-46.0	-64.5	3.8	7.44e-01	0	61	104	209190912	62	32533

#Closed at: 2026-01-24 03:24:05
#Recorded file [209 MB]: D:/lorett/data/31039_260124_061342.dat