passes_logs/2026/01/24/R2.0S_Moscow/R2.0S_Moscow__20260124_060734_FENGYUN_3E_rec.log

#Pass ID: 20260124_060734_FENGYUN 3E
#Satellite: FENGYUN 3E
#Configuration: FENGYUN 3E
#almurnet v.1.7.20251203
#Start time: 2026-01-24 06:07:34

#Version: 2.2.20231116
#Station: R2.0S_Moscow
#Location: 37.707566 lon 55.798166 lat
#TLE: 1 49008U 21062A   26023.60278097 -.00000097  00000+0 -24964-4 0  9990
#TLE: 2 49008  98.7490  28.6300 0002358 120.0933 240.0477 14.19886577236062

#Time	Az	El	Level	Level2	SNR	BER	BlckErr	Temp	State	Recorded	gain1	gain2
2026-01-24 06:07:34.42	8.84	1.98	-40.3	-51.0	3.8	8.47e-01	0	52	0	0	51	12230
2026-01-24 06:07:35.42	8.76	2.03	-40.2	-51.0	3.8	8.46e-01	0	52	104	0	51	12193
2026-01-24 06:07:36.43	8.68	2.08	-40.2	-51.0	3.8	8.46e-01	0	52	104	0	51	12148
2026-01-24 06:07:37.45	8.60	2.13	-40.2	-51.0	3.8	8.47e-01	0	52	104	0	51	12160
2026-01-24 06:07:38.46	8.51	2.18	-40.2	-51.0	3.8	8.47e-01	0	52	104	0	51	12180
2026-01-24 06:07:39.47	8.43	2.24	-40.2	-51.0	3.8	8.46e-01	0	52	104	0	51	12119
2026-01-24 06:07:40.48	8.35	2.29	-40.2	-51.0	3.8	8.47e-01	0	52	104	0	51	12184
2026-01-24 06:07:41.49	8.26	2.34	-40.2	-51.0	3.8	8.46e-01	0	52	104	0	51	12129
2026-01-24 06:07:42.50	8.18	2.39	-40.2	-51.0	3.8	8.46e-01	0	52	104	0	51	12157
2026-01-24 06:07:43.51	8.09	2.44	-40.2	-51.0	3.8	8.46e-01	0	52	104	0	51	12159
2026-01-24 06:07:44.52	8.01	2.49	-40.2	-51.0	3.8	8.47e-01	0	53	104	0	51	12188
2026-01-24 06:07:45.53	7.92	2.55	-40.2	-51.0	3.8	8.46e-01	0	53	104	0	51	12128
2026-01-24 06:07:46.54	7.83	2.60	-40.2	-51.0	3.8	8.46e-01	0	53	104	0	51	12136
2026-01-24 06:07:47.55	7.75	2.65	-40.2	-51.0	3.8	8.46e-01	0	53	104	0	51	12152
2026-01-24 06:07:48.56	7.66	2.70	-40.2	-51.0	3.8	8.45e-01	0	53	104	0	51	12129
2026-01-24 06:07:49.57	7.58	2.76	-40.2	-51.0	3.8	8.46e-01	0	53	104	0	51	12148
2026-01-24 06:07:50.58	7.49	2.81	-40.2	-51.0	3.8	8.46e-01	0	53	104	0	51	12121
2026-01-24 06:07:51.59	7.40	2.86	-40.2	-51.0	3.8	8.46e-01	0	53	104	0	51	12131
2026-01-24 06:07:52.61	7.31	2.91	-40.2	-51.0	3.8	8.46e-01	0	53	104	0	51	12171
2026-01-24 06:07:53.62	7.22	2.96	-40.2	-51.0	3.8	8.46e-01	0	54	104	0	51	12123
2026-01-24 06:07:54.63	7.14	3.02	-40.2	-51.0	3.8	8.45e-01	0	53	104	0	51	12164
2026-01-24 06:07:55.64	7.05	3.07	-40.2	-51.0	3.8	8.46e-01	0	54	104	0	51	12152
2026-01-24 06:07:56.65	6.96	3.12	-40.2	-51.0	3.8	8.46e-01	0	54	104	0	51	12125
2026-01-24 06:07:57.66	6.87	3.17	-40.2	-51.0	3.8	8.46e-01	0	54	104	0	51	12131
2026-01-24 06:07:58.67	6.78	3.23	-40.2	-51.0	3.8	8.46e-01	0	54	104	0	51	12124
2026-01-24 06:07:59.68	6.69	3.28	-40.2	-51.0	3.8	8.45e-01	0	54	104	0	51	12153
2026-01-24 06:08:00.69	6.60	3.33	-40.2	-51.0	3.8	8.47e-01	0	54	104	0	51	12170
2026-01-24 06:08:01.70	6.51	3.38	-40.2	-51.0	3.8	8.47e-01	0	54	104	0	51	12110
2026-01-24 06:08:02.71	6.42	3.44	-40.2	-51.0	3.8	8.46e-01	0	54	104	0	51	12141
2026-01-24 06:08:03.72	6.32	3.49	-40.2	-51.0	3.8	8.47e-01	0	54	104	0	51	12165
2026-01-24 06:08:04.73	6.23	3.54	-40.2	-51.0	3.8	8.45e-01	0	54	104	0	51	12101
2026-01-24 06:08:05.74	6.14	3.59	-40.2	-50.9	3.8	8.46e-01	0	54	104	0	51	12088
2026-01-24 06:08:06.75	6.05	3.65	-40.2	-51.0	3.8	8.46e-01	0	54	104	0	51	12197
2026-01-24 06:08:07.76	5.95	3.70	-40.2	-51.0	3.8	8.45e-01	0	54	104	0	51	12118
2026-01-24 06:08:08.77	5.86	3.75	-40.2	-51.0	3.8	8.46e-01	0	54	104	0	51	12096
2026-01-24 06:08:09.78	5.77	3.80	-40.2	-51.0	3.8	8.45e-01	0	55	104	0	51	12148
2026-01-24 06:08:10.79	5.67	3.86	-40.2	-51.0	3.8	8.46e-01	0	55	104	0	51	12120
2026-01-24 06:08:11.81	5.58	3.91	-40.2	-51.0	3.8	8.45e-01	0	55	104	0	51	12108
2026-01-24 06:08:12.82	5.48	3.96	-40.2	-51.0	3.8	8.46e-01	0	55	104	0	51	12137
2026-01-24 06:08:13.83	5.39	4.02	-40.2	-51.0	3.8	8.46e-01	0	55	104	0	51	12097
2026-01-24 06:08:14.84	5.29	4.07	-40.2	-50.9	3.8	8.47e-01	0	55	104	0	51	12085
2026-01-24 06:08:15.85	5.20	4.12	-40.2	-51.0	3.8	8.45e-01	0	55	104	0	51	12097
2026-01-24 06:08:16.86	5.10	4.18	-40.2	-51.0	3.8	8.47e-01	0	55	104	0	51	12102
2026-01-24 06:08:17.87	5.00	4.23	-40.2	-50.9	3.8	8.46e-01	0	55	104	0	51	12081
2026-01-24 06:08:18.88	4.91	4.28	-40.2	-50.9	3.8	8.44e-01	0	55	104	0	51	12077
2026-01-24 06:08:19.89	4.81	4.33	-40.2	-51.0	3.8	8.46e-01	0	55	104	0	51	12136
2026-01-24 06:08:20.90	4.71	4.39	-40.2	-51.0	3.8	8.45e-01	0	55	104	0	51	12118
2026-01-24 06:08:21.91	4.62	4.44	-40.2	-51.0	3.8	8.46e-01	0	55	104	0	51	12119
2026-01-24 06:08:22.92	4.52	4.49	-40.2	-51.0	3.8	8.47e-01	0	55	104	0	51	12117
2026-01-24 06:08:23.93	4.42	4.55	-40.2	-50.9	3.8	8.46e-01	0	56	104	0	51	12081
2026-01-24 06:08:24.94	4.32	4.60	-40.2	-51.0	3.8	8.46e-01	0	55	104	0	51	12096
2026-01-24 06:08:25.96	4.22	4.65	-40.2	-50.9	3.8	8.47e-01	0	55	104	0	51	12078
2026-01-24 06:08:26.96	4.12	4.71	-40.2	-51.0	3.8	8.46e-01	0	56	104	0	51	12103
2026-01-24 06:08:27.98	4.02	4.76	-40.2	-51.0	3.8	8.46e-01	0	56	104	0	51	12131
2026-01-24 06:08:28.99	3.92	4.81	-40.2	-51.0	3.8	8.45e-01	0	56	104	0	51	12102
2026-01-24 06:08:30.00	3.82	4.87	-40.2	-51.0	3.8	8.46e-01	0	56	104	0	51	12105
2026-01-24 06:08:31.01	3.72	4.92	-40.2	-51.0	3.8	8.47e-01	0	56	104	0	51	12104
2026-01-24 06:08:32.02	3.61	4.97	-40.2	-51.0	3.8	8.47e-01	0	56	104	0	51	12103
2026-01-24 06:08:33.03	3.51	5.03	-40.2	-50.9	3.8	8.46e-01	0	56	104	0	51	12056
2026-01-24 06:08:34.04	3.41	5.08	-40.2	-50.9	3.8	8.46e-01	0	56	104	0	51	12092
2026-01-24 06:08:35.05	3.31	5.13	-40.2	-50.9	3.8	8.46e-01	0	56	104	0	51	12091
2026-01-24 06:08:36.06	3.20	5.19	-40.2	-51.0	3.8	8.45e-01	0	56	104	0	51	12109
2026-01-24 06:08:37.07	3.10	5.24	-40.2	-50.9	3.8	8.45e-01	0	56	104	0	51	12050
2026-01-24 06:08:38.08	3.00	5.29	-40.2	-51.0	3.8	8.47e-01	0	56	104	0	51	12113
2026-01-24 06:08:39.09	2.89	5.35	-40.2	-51.0	3.8	8.46e-01	0	56	104	0	51	12151
2026-01-24 06:08:40.10	2.79	5.40	-40.2	-50.9	3.8	8.46e-01	0	56	104	0	51	12090
2026-01-24 06:08:41.11	2.68	5.46	-40.2	-50.9	3.8	8.46e-01	0	56	104	0	51	12085
2026-01-24 06:08:42.12	2.58	5.51	-40.2	-51.0	3.8	8.47e-01	0	56	104	0	51	12141
2026-01-24 06:08:43.13	2.47	5.56	-40.2	-51.0	3.8	8.46e-01	0	56	104	0	51	12101
2026-01-24 06:08:44.14	2.36	5.62	-40.2	-50.9	3.8	8.46e-01	0	56	104	0	51	12088
2026-01-24 06:08:45.15	2.26	5.67	-40.2	-51.0	3.8	8.47e-01	0	56	104	0	51	12111
2026-01-24 06:08:46.16	2.15	5.72	-40.2	-51.0	3.8	8.46e-01	0	56	104	0	51	12110
2026-01-24 06:08:47.18	2.04	5.78	-40.2	-51.0	3.8	8.45e-01	0	57	104	0	51	12142
2026-01-24 06:08:48.19	1.93	5.83	-40.2	-51.0	3.8	8.47e-01	0	56	104	0	51	12125
2026-01-24 06:08:49.20	1.82	5.88	-40.2	-51.0	3.8	8.47e-01	0	57	104	0	51	12095
2026-01-24 06:08:50.21	1.72	5.94	-40.2	-50.9	3.8	8.45e-01	0	57	104	0	51	12089
2026-01-24 06:08:51.22	1.61	5.99	-40.2	-50.9	3.8	8.46e-01	0	56	104	0	51	12076
2026-01-24 06:08:52.23	1.50	6.05	-40.2	-51.0	3.8	8.45e-01	0	56	104	0	51	12095
2026-01-24 06:08:53.24	1.39	6.10	-40.2	-51.0	3.8	8.46e-01	0	57	104	0	51	12096
2026-01-24 06:08:54.25	1.28	6.15	-40.2	-50.9	3.8	8.47e-01	0	57	104	0	51	12079
2026-01-24 06:08:55.26	1.16	6.21	-40.2	-50.9	3.8	8.45e-01	0	57	104	0	51	12068
2026-01-24 06:08:56.27	1.05	6.26	-40.2	-50.9	3.8	8.45e-01	0	57	104	0	51	12069
2026-01-24 06:08:57.28	0.94	6.31	-40.2	-50.9	3.8	8.46e-01	0	57	104	0	51	12067
2026-01-24 06:08:58.29	0.83	6.37	-40.2	-51.0	3.8	8.46e-01	0	57	104	0	51	12108
2026-01-24 06:08:59.30	0.72	6.42	-40.2	-50.9	3.8	8.45e-01	0	57	104	0	51	12069
2026-01-24 06:09:00.32	0.60	6.48	-40.2	-51.0	3.8	8.47e-01	0	57	104	0	51	12104
2026-01-24 06:09:01.32	0.49	6.53	-40.2	-50.9	3.8	8.46e-01	0	57	104	0	51	12035
2026-01-24 06:09:02.34	0.37	6.58	-40.2	-51.0	3.8	8.46e-01	0	57	104	0	51	12101
2026-01-24 06:09:03.35	0.26	6.64	-40.2	-50.9	3.8	8.46e-01	0	57	104	0	51	12037
2026-01-24 06:09:04.36	0.15	6.69	-40.2	-51.0	3.8	8.45e-01	0	57	104	0	51	12125
2026-01-24 06:09:05.37	0.03	6.74	-40.2	-51.0	3.8	8.46e-01	0	57	104	0	51	12112
2026-01-24 06:09:06.38	359.91	6.80	-40.2	-50.9	3.8	8.46e-01	0	58	104	0	51	12072
2026-01-24 06:09:07.39	359.80	6.85	-40.2	-50.9	3.8	8.45e-01	0	57	104	0	51	12065
2026-01-24 06:09:08.40	359.68	6.91	-40.2	-51.0	3.8	8.45e-01	0	58	104	0	51	12099
2026-01-24 06:09:09.41	359.56	6.96	-40.2	-51.0	3.8	8.45e-01	0	57	104	0	51	12109
2026-01-24 06:09:10.42	359.45	7.01	-40.2	-50.9	3.8	8.46e-01	0	57	104	0	51	12086
2026-01-24 06:09:11.43	359.33	7.07	-40.1	-50.9	3.8	8.47e-01	0	58	104	0	51	12089
2026-01-24 06:09:12.44	359.21	7.12	-40.2	-50.9	3.8	8.46e-01	0	58	104	0	51	12050
2026-01-24 06:09:13.45	359.09	7.18	-40.1	-50.9	3.8	8.47e-01	0	57	104	0	51	12039
2026-01-24 06:09:14.46	358.97	7.23	-40.1	-50.9	3.8	8.47e-01	0	58	104	0	51	12053
2026-01-24 06:09:15.47	358.85	7.28	-40.2	-50.9	3.8	8.47e-01	0	58	104	0	51	12027
2026-01-24 06:09:16.48	358.73	7.34	-40.1	-50.9	3.8	8.46e-01	0	57	104	0	51	12010
2026-01-24 06:09:17.49	358.61	7.39	-40.1	-51.0	3.8	8.46e-01	0	58	104	0	51	12111
2026-01-24 06:09:18.50	358.49	7.44	-40.1	-50.9	3.8	8.46e-01	0	58	104	0	51	12066
2026-01-24 06:09:19.51	358.37	7.50	-40.1	-50.9	3.8	8.46e-01	0	58	104	0	51	12015
2026-01-24 06:09:20.52	358.25	7.55	-40.1	-50.9	3.8	8.45e-01	0	58	104	0	51	12040
2026-01-24 06:09:21.53	358.12	7.61	-40.1	-50.9	3.8	8.46e-01	0	58	104	0	51	12003
2026-01-24 06:09:22.54	358.00	7.66	-40.1	-50.9	3.8	8.46e-01	0	58	104	0	51	11995
2026-01-24 06:09:23.55	357.88	7.71	-40.1	-50.9	3.8	8.46e-01	0	58	104	0	51	12042
2026-01-24 06:09:24.56	357.75	7.77	-40.1	-50.9	3.8	8.45e-01	0	58	104	0	51	12032
2026-01-24 06:09:25.57	357.63	7.82	-40.1	-50.9	3.8	8.47e-01	0	58	104	0	51	12013
2026-01-24 06:09:26.58	357.50	7.87	-40.1	-50.9	3.8	8.47e-01	0	58	104	0	51	12070
2026-01-24 06:09:27.59	357.38	7.93	-40.1	-50.9	3.8	8.46e-01	0	58	104	0	51	12013
2026-01-24 06:09:28.60	357.25	7.98	-40.1	-50.9	3.8	8.45e-01	0	58	104	0	51	11969
2026-01-24 06:09:29.61	357.13	8.03	-40.3	-51.1	3.8	8.47e-01	0	58	104	0	51	12245
2026-01-24 06:09:30.63	357.00	8.09	-40.3	-51.1	3.8	8.47e-01	0	58	104	0	51	12290
2026-01-24 06:09:31.63	356.87	8.14	-40.3	-51.1	3.8	8.45e-01	0	58	104	0	51	12284
2026-01-24 06:09:32.64	356.74	8.19	-40.4	-51.2	3.8	8.47e-01	0	58	104	0	51	12462
2026-01-24 06:09:33.65	356.62	8.25	-40.4	-51.1	3.8	8.47e-01	0	58	104	0	51	12375
2026-01-24 06:09:34.66	356.49	8.30	-40.4	-51.2	3.8	8.47e-01	0	58	104	0	51	12426
2026-01-24 06:09:35.67	356.36	8.36	-40.3	-51.1	3.8	8.45e-01	0	58	104	0	51	12318
2026-01-24 06:09:36.68	356.23	8.41	-40.5	-51.3	3.8	8.46e-01	0	58	104	0	51	12526
2026-01-24 06:09:37.69	356.10	8.46	-40.4	-51.1	3.8	8.46e-01	0	58	104	0	51	12358
2026-01-24 06:09:38.70	355.97	8.52	-40.4	-51.2	3.8	8.47e-01	0	58	104	0	51	12382
2026-01-24 06:09:39.71	355.84	8.57	-40.4	-51.2	3.8	8.46e-01	0	58	104	0	51	12409
2026-01-24 06:09:40.72	355.70	8.62	-40.5	-51.3	3.8	8.46e-01	0	58	104	0	51	12619
2026-01-24 06:09:41.73	355.57	8.68	-40.4	-51.2	3.8	8.46e-01	0	58	104	0	51	12412
2026-01-24 06:09:42.74	355.44	8.73	-40.4	-51.2	3.8	8.46e-01	0	58	104	0	51	12467
2026-01-24 06:09:43.75	355.31	8.78	-40.5	-51.3	3.8	8.46e-01	0	58	104	0	51	12565
2026-01-24 06:09:44.76	355.17	8.84	-40.6	-51.4	3.8	8.46e-01	0	58	104	0	51	12665
2026-01-24 06:09:45.77	355.04	8.89	-40.5	-51.3	3.8	8.46e-01	0	58	104	0	51	12534
2026-01-24 06:09:46.78	354.90	8.94	-40.6	-51.3	3.8	8.46e-01	0	59	104	0	51	12649
2026-01-24 06:09:47.79	354.77	8.99	-40.6	-51.3	3.8	8.47e-01	0	59	104	0	51	12663
2026-01-24 06:09:48.79	354.63	9.05	-40.6	-51.4	3.8	8.46e-01	0	58	104	0	51	12708
2026-01-24 06:09:49.80	354.50	9.10	-40.5	-51.3	3.8	8.46e-01	0	58	104	0	51	12545
2026-01-24 06:09:50.81	354.36	9.15	-40.7	-51.4	3.8	8.46e-01	0	58	104	0	51	12706
2026-01-24 06:09:51.82	354.22	9.21	-40.6	-51.4	3.8	8.47e-01	0	59	104	0	51	12711
2026-01-24 06:09:52.83	354.09	9.26	-40.7	-51.5	3.8	8.46e-01	0	58	104	0	51	12815
2026-01-24 06:09:53.84	353.95	9.31	-40.5	-51.3	3.8	8.46e-01	0	59	104	0	51	12603
2026-01-24 06:09:54.85	353.81	9.36	-40.7	-51.5	3.8	8.46e-01	0	59	104	0	51	12850
2026-01-24 06:09:55.86	353.67	9.42	-40.6	-51.4	3.8	8.46e-01	0	59	104	0	51	12759
2026-01-24 06:09:56.87	353.53	9.47	-40.9	-51.7	3.8	8.45e-01	0	59	104	0	51	13153
2026-01-24 06:09:57.88	353.39	9.52	-40.6	-51.3	3.8	8.46e-01	0	59	104	0	51	12663
2026-01-24 06:09:58.89	353.25	9.57	-40.7	-51.5	3.8	8.46e-01	0	59	104	0	51	12896
2026-01-24 06:09:59.90	353.11	9.63	-40.7	-51.5	3.8	8.46e-01	0	59	104	0	51	12874
2026-01-24 06:10:00.91	352.96	9.68	-41.0	-51.8	3.8	8.46e-01	0	59	104	0	51	13393
2026-01-24 06:10:01.92	352.82	9.73	-40.7	-51.4	3.8	8.46e-01	0	59	104	0	51	12766
2026-01-24 06:10:02.93	352.68	9.78	-40.8	-51.6	3.8	8.46e-01	0	59	104	0	51	13010
2026-01-24 06:10:03.94	352.54	9.84	-40.9	-51.7	3.8	8.46e-01	0	59	104	0	51	13116
2026-01-24 06:10:04.95	352.39	9.89	-40.9	-51.7	3.8	8.46e-01	0	59	104	0	51	13137
2026-01-24 06:10:05.96	352.25	9.94	-40.9	-51.7	3.8	8.46e-01	0	59	104	0	51	13164
2026-01-24 06:10:06.97	352.10	9.99	-41.0	-51.8	3.8	8.46e-01	0	59	104	0	51	13360
2026-01-24 06:10:07.98	351.96	10.04	-40.9	-51.7	3.8	8.46e-01	0	59	104	0	51	13189
2026-01-24 06:10:08.99	351.81	10.10	-40.9	-51.7	3.8	8.46e-01	0	59	104	0	51	13167
2026-01-24 06:10:10.00	351.66	10.15	-41.0	-51.8	3.8	8.46e-01	0	59	104	0	51	13345
2026-01-24 06:10:11.01	351.52	10.20	-41.1	-51.9	3.8	8.46e-01	0	59	104	0	51	13460
2026-01-24 06:10:12.02	351.37	10.25	-41.0	-51.8	3.8	8.46e-01	0	59	104	0	51	13320
2026-01-24 06:10:13.03	351.22	10.30	-41.1	-51.9	3.8	8.45e-01	0	59	104	0	51	13415
2026-01-24 06:10:14.04	351.07	10.36	-40.9	-51.7	3.8	8.46e-01	0	59	104	0	51	13195
2026-01-24 06:10:15.05	350.92	10.41	-41.2	-52.0	3.8	8.46e-01	0	59	104	0	51	13573
2026-01-24 06:10:16.06	350.77	10.46	-41.2	-52.0	3.8	8.45e-01	0	59	104	0	52	12882
2026-01-24 06:10:17.07	350.62	10.51	-41.0	-51.8	3.8	8.46e-01	0	59	104	0	52	12533
2026-01-24 06:10:18.08	350.47	10.56	-40.8	-51.6	3.8	8.46e-01	0	59	104	0	52	12343
2026-01-24 06:10:19.08	350.32	10.61	-41.2	-52.0	3.8	8.47e-01	0	59	104	0	52	12949
2026-01-24 06:10:20.09	350.17	10.66	-41.0	-51.8	3.8	8.46e-01	0	59	104	0	52	12611
2026-01-24 06:10:21.10	350.02	10.71	-41.2	-52.0	3.8	8.46e-01	0	59	104	0	52	12890
2026-01-24 06:10:22.11	349.86	10.76	-41.0	-51.8	3.8	8.46e-01	0	59	104	0	52	12533
2026-01-24 06:10:23.12	349.71	10.81	-41.1	-51.9	3.8	8.46e-01	0	59	104	0	52	12803
2026-01-24 06:10:24.13	349.56	10.87	-41.0	-51.8	3.8	8.46e-01	0	59	104	0	52	12572
2026-01-24 06:10:25.14	349.40	10.92	-41.3	-52.2	3.8	8.47e-01	0	60	104	0	52	13155
2026-01-24 06:10:26.15	349.25	10.97	-41.0	-51.8	3.8	8.46e-01	0	59	104	0	52	12526
2026-01-24 06:10:27.16	349.09	11.02	-41.1	-52.0	3.8	8.46e-01	0	59	104	0	52	12818
2026-01-24 06:10:28.17	348.93	11.07	-41.3	-52.1	3.8	8.47e-01	0	60	104	0	52	13028
2026-01-24 06:10:29.18	348.78	11.12	-41.4	-52.2	3.8	8.46e-01	0	59	104	0	52	13157
2026-01-24 06:10:30.19	348.62	11.17	-41.2	-52.0	3.8	8.45e-01	0	59	104	0	52	12827
2026-01-24 06:10:31.19	348.46	11.22	-41.3	-52.1	3.8	8.46e-01	0	60	104	0	52	13089
2026-01-24 06:10:32.21	348.30	11.27	-41.3	-52.2	3.8	8.45e-01	0	60	104	0	52	13134
2026-01-24 06:10:33.21	348.14	11.32	-41.4	-52.3	3.8	8.47e-01	0	59	104	0	52	13314
2026-01-24 06:10:34.22	347.98	11.37	-41.3	-52.2	3.8	8.46e-01	0	60	104	0	52	13117
2026-01-24 06:10:35.24	347.82	11.42	-41.4	-52.2	3.8	8.45e-01	0	60	104	0	52	13242
2026-01-24 06:10:36.25	347.66	11.46	-41.3	-52.2	3.8	8.45e-01	0	60	104	0	52	13202
2026-01-24 06:10:37.26	347.50	11.51	-41.4	-52.3	3.8	8.46e-01	0	60	104	0	52	13319
2026-01-24 06:10:38.27	347.34	11.56	-41.4	-52.2	3.8	8.46e-01	0	59	104	0	52	13154
2026-01-24 06:10:39.28	347.18	11.61	-41.5	-52.3	3.8	8.46e-01	0	60	104	0	52	13309
2026-01-24 06:10:40.28	347.01	11.66	-41.4	-52.3	3.8	8.47e-01	0	60	104	0	52	13265
2026-01-24 06:10:41.29	346.85	11.71	-41.3	-52.2	3.8	8.46e-01	0	60	104	0	52	13214
2026-01-24 06:10:42.30	346.69	11.76	-41.4	-52.2	3.8	8.46e-01	0	60	104	0	52	13223
2026-01-24 06:10:43.31	346.52	11.81	-41.4	-52.2	3.8	8.46e-01	0	60	104	0	52	13169
2026-01-24 06:10:44.32	346.36	11.85	-41.2	-52.1	3.8	8.45e-01	0	60	104	0	52	12968
2026-01-24 06:10:45.33	346.19	11.90	-41.1	-52.0	3.8	8.46e-01	0	60	104	0	52	12837
2026-01-24 06:10:46.34	346.02	11.95	-41.3	-52.2	3.8	8.47e-01	0	60	104	0	52	13228
2026-01-24 06:10:47.35	345.86	12.00	-41.2	-52.0	3.8	8.45e-01	0	60	104	0	52	12891
2026-01-24 06:10:48.36	345.69	12.05	-41.1	-51.9	3.8	8.47e-01	0	60	104	0	52	12719
2026-01-24 06:10:49.37	345.52	12.09	-41.0	-51.8	3.8	8.45e-01	0	60	104	0	52	12550
2026-01-24 06:10:50.38	345.35	12.14	-41.2	-52.0	3.8	8.47e-01	0	60	104	0	52	12909
2026-01-24 06:10:51.39	345.18	12.19	-41.0	-51.9	3.8	8.45e-01	0	60	104	0	52	12675
2026-01-24 06:10:52.40	345.01	12.24	-41.2	-52.0	3.8	8.46e-01	0	60	104	0	52	12899
2026-01-24 06:10:53.41	344.84	12.28	-41.0	-51.8	3.8	8.46e-01	0	60	104	0	52	12643
2026-01-24 06:10:54.42	344.67	12.33	-41.0	-51.8	3.8	8.46e-01	0	60	104	0	52	12541
2026-01-24 06:10:55.43	344.50	12.38	-41.1	-51.9	3.8	8.46e-01	0	60	104	0	52	12759
2026-01-24 06:10:56.44	344.33	12.42	-41.1	-51.9	3.8	8.47e-01	0	60	104	0	52	12756
2026-01-24 06:10:57.45	344.16	12.47	-40.9	-51.7	3.8	8.46e-01	0	60	104	0	52	12518
2026-01-24 06:10:58.46	343.99	12.52	-41.0	-51.9	3.8	8.47e-01	0	60	104	0	52	12693
2026-01-24 06:10:59.47	343.81	12.56	-41.0	-51.8	3.8	8.46e-01	0	60	104	0	52	12524
2026-01-24 06:11:00.48	343.64	12.61	-40.9	-51.7	3.8	8.47e-01	0	60	104	0	52	12458
2026-01-24 06:11:01.49	343.46	12.65	-40.9	-51.7	3.8	8.45e-01	0	60	104	0	52	12477
2026-01-24 06:11:02.50	343.29	12.70	-41.0	-51.8	3.8	8.46e-01	0	60	104	0	52	12593
2026-01-24 06:11:03.51	343.11	12.74	-41.0	-51.8	3.8	8.46e-01	0	60	104	0	52	12562
2026-01-24 06:11:04.52	342.94	12.79	-40.9	-51.7	3.8	8.47e-01	0	60	104	0	52	12438
2026-01-24 06:11:05.53	342.76	12.83	-41.0	-51.8	3.8	8.46e-01	0	60	104	0	52	12586
2026-01-24 06:11:06.53	342.58	12.88	-41.0	-51.8	3.8	8.46e-01	0	60	104	0	52	12653
2026-01-24 06:11:07.54	342.40	12.92	-40.9	-51.7	3.8	8.46e-01	0	60	104	0	52	12471
2026-01-24 06:11:08.55	342.23	12.97	-40.8	-51.5	3.8	8.47e-01	0	60	104	0	52	12228
2026-01-24 06:11:09.56	342.05	13.01	-40.8	-51.6	3.8	8.47e-01	0	60	104	0	52	12350
2026-01-24 06:11:10.57	341.87	13.05	-41.0	-51.8	3.8	8.47e-01	0	60	104	0	52	12647
2026-01-24 06:11:11.58	341.69	13.10	-40.8	-51.5	3.8	8.46e-01	0	60	104	0	52	12167
2026-01-24 06:11:12.59	341.51	13.14	-40.9	-51.6	3.8	8.45e-01	0	60	104	0	52	12368
2026-01-24 06:11:13.60	341.33	13.19	-40.8	-51.6	3.8	8.47e-01	0	60	104	0	52	12290
2026-01-24 06:11:14.61	341.14	13.23	-40.9	-51.6	3.8	8.46e-01	0	60	104	0	52	12368
2026-01-24 06:11:15.62	340.96	13.27	-41.0	-51.7	3.8	8.46e-01	0	60	104	0	52	12448
2026-01-24 06:11:16.63	340.78	13.31	-41.1	-51.8	3.8	8.45e-01	0	60	104	0	52	12538
2026-01-24 06:11:17.64	340.59	13.36	-41.0	-51.8	3.8	8.47e-01	0	60	104	0	52	12520
2026-01-24 06:11:18.64	340.41	13.40	-41.2	-51.9	3.8	8.46e-01	0	60	104	0	52	12765
2026-01-24 06:11:19.65	340.23	13.44	-41.2	-51.5	3.8	8.46e-01	0	60	104	0	52	12218
2026-01-24 06:11:20.66	340.04	13.48	-41.5	-50.3	3.8	8.46e-01	0	60	104	0	52	10613
2026-01-24 06:11:21.67	339.86	13.52	-41.2	-51.6	3.8	8.45e-01	0	60	104	0	53	11581
2026-01-24 06:11:22.68	339.67	13.57	-41.2	-48.3	4.0	8.45e-01	0	60	104	0	53	7939
2026-01-24 06:11:23.69	339.48	13.61	-41.0	-46.0	6.3	3.12e-01	0	60	0	3145728	53	6073
2026-01-24 06:11:24.70	339.30	13.65	-40.8	-44.8	7.6	1.22e-01	0	61	0	10485760	52	5655
2026-01-24 06:11:25.71	339.11	13.69	-40.6	-44.2	8.5	5.63e-02	0	61	0	17825792	52	5249
2026-01-24 06:11:26.73	338.92	13.73	-40.5	-43.8	9.1	2.82e-02	0	60	0	25165824	51	5338
2026-01-24 06:11:27.73	338.73	13.77	-40.4	-43.6	9.5	1.63e-02	0	61	0	32505856	51	5192
2026-01-24 06:11:28.74	338.54	13.81	-39.7	-42.4	10.8	4.47e-03	0	61	0	39845888	50	4802
2026-01-24 06:11:29.75	338.35	13.85	-38.9	-41.1	12.2	5.23e-04	0	61	0	46137344	48	4636
2026-01-24 06:11:30.76	338.16	13.89	-37.9	-39.9	13.5	1.94e-05	0	61	0	53477376	46	4496
2026-01-24 06:11:31.77	337.97	13.93	-37.6	-39.4	14.1	4.50e-06	0	60	0	61865984	46	4243
2026-01-24 06:11:32.78	337.78	13.97	-37.9	-39.7	13.9	4.50e-06	0	61	0	68157440	46	4419
2026-01-24 06:11:33.79	337.59	14.01	-38.2	-40.1	13.6	9.10e-06	0	60	0	75497472	46	4650
2026-01-24 06:11:34.80	337.40	14.04	-38.2	-40.1	13.8	1.25e-05	0	60	0	82837504	46	4632
2026-01-24 06:11:35.81	337.20	14.08	-38.0	-39.9	14.1	3.40e-06	0	61	0	90177536	46	4497
2026-01-24 06:11:36.82	337.01	14.12	-37.9	-39.7	14.3	0.00e+00	0	61	0	97517568	46	4422
2026-01-24 06:11:37.83	336.82	14.16	-38.1	-39.9	14.2	1.10e-06	0	60	0	104857600	46	4505
2026-01-24 06:11:38.84	336.62	14.19	-37.8	-39.5	14.6	1.10e-06	0	60	0	112197632	46	4303
2026-01-24 06:11:39.85	336.43	14.23	-37.7	-39.4	14.7	0.00e+00	0	61	0	119537664	46	4269
2026-01-24 06:11:40.86	336.23	14.27	-37.9	-39.7	14.4	0.00e+00	0	60	0	126877696	46	4410
2026-01-24 06:11:41.87	336.04	14.31	-37.7	-39.4	14.7	1.10e-06	0	61	0	134217728	46	4288
2026-01-24 06:11:42.88	335.84	14.34	-37.8	-39.5	14.7	0.00e+00	0	61	0	141557760	46	4304
2026-01-24 06:11:43.89	335.64	14.38	-37.5	-39.1	15.1	0.00e+00	0	61	0	148897792	46	4115
2026-01-24 06:11:44.90	335.45	14.41	-37.4	-39.1	15.2	0.00e+00	0	60	0	156237824	45	4342
2026-01-24 06:11:45.91	335.25	14.45	-37.3	-38.9	15.3	0.00e+00	0	61	0	163577856	45	4275
2026-01-24 06:11:46.92	335.05	14.48	-37.3	-38.8	15.5	0.00e+00	0	60	0	170917888	45	4229
2026-01-24 06:11:47.93	334.85	14.52	-37.2	-38.8	15.6	0.00e+00	0	60	0	178257920	45	4196
2026-01-24 06:11:48.94	334.65	14.55	-37.3	-38.8	15.6	0.00e+00	0	61	0	185597952	45	4224
2026-01-24 06:11:49.95	334.45	14.59	-37.2	-38.7	15.6	0.00e+00	0	61	0	192937984	45	4190
2026-01-24 06:11:50.96	334.25	14.62	-37.3	-38.8	15.6	0.00e+00	0	61	0	199229440	45	4216
2026-01-24 06:11:51.97	334.05	14.66	-37.2	-38.8	15.6	0.00e+00	0	61	0	206569472	45	4200
2026-01-24 06:11:52.98	333.85	14.69	-37.3	-38.8	15.6	0.00e+00	0	60	0	214958080	45	4218
2026-01-24 06:11:53.99	333.65	14.72	-37.3	-38.8	15.6	0.00e+00	0	61	0	221249536	45	4213
2026-01-24 06:11:55.00	333.45	14.75	-37.3	-38.9	15.6	0.00e+00	0	61	0	228589568	45	4265
2026-01-24 06:11:56.01	333.24	14.79	-37.4	-39.0	15.4	0.00e+00	0	61	0	235929600	45	4338
2026-01-24 06:11:57.02	333.04	14.82	-37.4	-39.0	15.5	0.00e+00	0	61	0	243269632	45	4295
2026-01-24 06:11:58.03	332.84	14.85	-37.5	-39.1	15.4	0.00e+00	0	61	0	250609664	45	4354
2026-01-24 06:11:59.04	332.63	14.88	-37.4	-39.0	15.4	0.00e+00	0	60	0	257949696	45	4340
2026-01-24 06:12:00.05	332.43	14.91	-37.4	-39.0	15.5	1.10e-06	0	61	0	265289728	45	4316
2026-01-24 06:12:01.06	332.22	14.94	-37.3	-38.9	15.6	0.00e+00	0	61	0	272629760	45	4250
2026-01-24 06:12:02.07	332.02	14.97	-37.4	-38.9	15.6	0.00e+00	0	61	0	279969792	45	4270
2026-01-24 06:12:03.08	331.81	15.00	-37.2	-38.8	15.8	0.00e+00	0	61	0	287309824	45	4204
2026-01-24 06:12:04.09	331.61	15.03	-37.2	-38.8	15.8	0.00e+00	0	61	0	294649856	45	4198
2026-01-24 06:12:05.10	331.40	15.06	-37.2	-38.7	15.8	0.00e+00	0	61	0	301989888	45	4178
2026-01-24 06:12:06.11	331.20	15.09	-37.3	-38.8	15.8	0.00e+00	0	61	0	309329920	45	4204
2026-01-24 06:12:07.12	330.99	15.12	-37.2	-38.7	15.9	0.00e+00	0	60	0	316669952	45	4181
2026-01-24 06:12:08.13	330.78	15.15	-37.3	-38.8	15.8	0.00e+00	0	60	0	324009984	45	4196
2026-01-24 06:12:09.14	330.57	15.18	-37.2	-38.7	15.9	0.00e+00	0	61	0	331350016	45	4162
2026-01-24 06:12:10.15	330.36	15.21	-37.2	-38.7	15.8	0.00e+00	0	61	0	338690048	45	4193
2026-01-24 06:12:11.16	330.15	15.23	-37.2	-38.7	15.9	0.00e+00	0	61	0	346030080	45	4167
2026-01-24 06:12:12.17	329.95	15.26	-37.3	-38.8	15.8	0.00e+00	0	61	0	353370112	45	4197
2026-01-24 06:12:13.18	329.74	15.29	-37.2	-38.7	15.9	0.00e+00	0	61	0	360710144	45	4171
2026-01-24 06:12:14.19	329.53	15.31	-37.2	-38.6	16.0	0.00e+00	0	61	0	367001600	45	4143
2026-01-24 06:12:15.21	329.31	15.34	-37.2	-38.7	15.9	0.00e+00	0	61	0	374341632	45	4177
2026-01-24 06:12:16.22	329.10	15.37	-37.2	-38.7	15.9	0.00e+00	0	61	0	381681664	45	4187
2026-01-24 06:12:17.23	328.89	15.39	-37.1	-38.6	16.0	0.00e+00	0	61	0	389021696	45	4117
2026-01-24 06:12:18.24	328.68	15.42	-37.0	-38.4	16.2	0.00e+00	0	61	0	396361728	45	4035
2026-01-24 06:12:19.25	328.47	15.44	-36.9	-38.4	16.3	0.00e+00	0	61	0	403701760	44	4253
2026-01-24 06:12:20.26	328.26	15.46	-36.9	-38.3	16.3	0.00e+00	0	61	0	411041792	44	4226
2026-01-24 06:12:21.27	328.04	15.49	-36.9	-38.3	16.4	0.00e+00	0	61	0	418381824	44	4201
2026-01-24 06:12:22.28	327.83	15.51	-36.8	-38.1	16.5	0.00e+00	0	61	0	425721856	44	4142
2026-01-24 06:12:23.29	327.62	15.54	-36.8	-38.2	16.4	0.00e+00	0	61	0	433061888	44	4167
2026-01-24 06:12:24.30	327.40	15.56	-36.9	-38.3	16.4	0.00e+00	0	61	0	440401920	44	4201
2026-01-24 06:12:25.31	327.19	15.58	-36.9	-38.3	16.3	0.00e+00	0	61	0	447741952	44	4209
2026-01-24 06:12:26.31	326.98	15.60	-36.9	-38.3	16.4	0.00e+00	0	61	0	455081984	44	4218
2026-01-24 06:12:27.32	326.76	15.62	-37.0	-38.4	16.3	0.00e+00	0	61	0	462422016	44	4267
2026-01-24 06:12:28.33	326.55	15.64	-37.0	-38.4	16.2	0.00e+00	0	61	0	469762048	44	4277
2026-01-24 06:12:29.34	326.33	15.67	-37.1	-38.5	16.1	0.00e+00	0	61	0	477102080	44	4323
2026-01-24 06:12:30.35	326.12	15.69	-37.1	-38.6	16.1	0.00e+00	0	61	0	484442112	44	4341
2026-01-24 06:12:31.36	325.90	15.71	-37.1	-38.5	16.2	0.00e+00	0	61	0	491782144	44	4320
2026-01-24 06:12:32.37	325.69	15.72	-37.1	-38.6	16.1	0.00e+00	0	61	0	499122176	44	4354
2026-01-24 06:12:33.38	325.47	15.74	-37.1	-38.5	16.1	0.00e+00	0	61	0	506462208	44	4333
2026-01-24 06:12:34.39	325.25	15.76	-37.0	-38.5	16.2	0.00e+00	0	61	0	513802240	44	4302
2026-01-24 06:12:35.40	325.04	15.78	-37.1	-38.5	16.1	0.00e+00	0	61	0	520093696	44	4337
2026-01-24 06:12:36.41	324.82	15.80	-37.0	-38.4	16.3	0.00e+00	0	61	0	527433728	44	4279
2026-01-24 06:12:37.42	324.60	15.82	-36.8	-38.2	16.4	0.00e+00	0	61	0	534773760	44	4185
2026-01-24 06:12:38.43	324.38	15.83	-36.7	-38.1	16.6	0.00e+00	0	61	0	542113792	44	4100
2026-01-24 06:12:39.44	324.17	15.85	-36.7	-38.0	16.6	0.00e+00	0	61	0	549453824	44	4098
2026-01-24 06:12:40.44	323.95	15.87	-36.7	-38.0	16.7	0.00e+00	0	61	0	556793856	44	4085
2026-01-24 06:12:41.45	323.73	15.88	-36.6	-38.0	16.7	0.00e+00	0	61	0	564133888	44	4063
2026-01-24 06:12:42.46	323.51	15.90	-36.6	-38.0	16.7	0.00e+00	0	61	0	571473920	44	4053
2026-01-24 06:12:43.47	323.29	15.91	-36.5	-37.9	16.8	0.00e+00	0	61	0	578813952	44	4022
2026-01-24 06:12:44.48	323.08	15.93	-36.6	-37.9	16.7	0.00e+00	0	61	0	586153984	44	4048
2026-01-24 06:12:45.49	322.86	15.94	-36.6	-38.0	16.7	0.00e+00	0	61	0	593494016	44	4065
2026-01-24 06:12:46.50	322.64	15.96	-36.6	-38.0	16.7	0.00e+00	0	61	0	600834048	44	4079
2026-01-24 06:12:47.51	322.42	15.97	-36.7	-38.1	16.6	0.00e+00	0	61	0	608174080	44	4112
2026-01-24 06:12:48.52	322.20	15.98	-36.8	-38.2	16.5	0.00e+00	0	61	0	615514112	44	4172
2026-01-24 06:12:49.53	321.98	16.00	-36.9	-38.3	16.5	0.00e+00	0	61	0	622854144	44	4196
2026-01-24 06:12:50.54	321.76	16.01	-36.9	-38.3	16.4	0.00e+00	0	61	0	630194176	44	4202
2026-01-24 06:12:51.55	321.54	16.02	-36.8	-38.2	16.5	0.00e+00	0	61	0	637534208	44	4176
2026-01-24 06:12:52.56	321.32	16.03	-36.8	-38.2	16.5	0.00e+00	0	61	0	644874240	44	4174
2026-01-24 06:12:53.57	321.09	16.04	-36.7	-38.1	16.6	0.00e+00	0	61	0	651165696	44	4125
2026-01-24 06:12:54.58	320.87	16.05	-36.7	-38.1	16.6	0.00e+00	0	61	0	659554304	44	4111
2026-01-24 06:12:55.59	320.65	16.06	-36.7	-38.1	16.6	0.00e+00	0	61	0	666894336	44	4117
2026-01-24 06:12:56.60	320.43	16.07	-36.7	-38.1	16.6	0.00e+00	0	61	0	673185792	44	4127
2026-01-24 06:12:57.60	320.21	16.08	-36.7	-38.0	16.7	0.00e+00	0	61	0	680525824	44	4090
2026-01-24 06:12:58.61	319.99	16.09	-36.6	-38.0	16.7	0.00e+00	0	61	0	687865856	44	4059
2026-01-24 06:12:59.62	319.77	16.10	-36.6	-38.0	16.7	0.00e+00	0	61	0	695205888	44	4069
2026-01-24 06:13:00.63	319.55	16.11	-36.7	-38.1	16.6	0.00e+00	0	61	0	702545920	44	4101
2026-01-24 06:13:01.64	319.32	16.11	-36.6	-38.0	16.7	0.00e+00	0	61	0	709885952	44	4064
2026-01-24 06:13:02.65	319.10	16.12	-36.6	-38.0	16.7	0.00e+00	0	61	0	717225984	44	4077
2026-01-24 06:13:03.66	318.88	16.13	-36.7	-38.0	16.7	0.00e+00	0	61	0	724566016	44	4087
2026-01-24 06:13:04.67	318.66	16.13	-36.7	-38.0	16.7	0.00e+00	0	61	0	731906048	44	4088
2026-01-24 06:13:05.68	318.44	16.14	-36.7	-38.0	16.7	0.00e+00	0	61	0	739246080	44	4081
2026-01-24 06:13:06.69	318.21	16.15	-36.6	-37.9	16.8	0.00e+00	0	61	0	746586112	44	4034
2026-01-24 06:13:07.70	317.99	16.15	-36.6	-37.9	16.8	0.00e+00	0	61	0	753926144	44	4031
2026-01-24 06:13:08.71	317.77	16.15	-36.6	-37.9	16.8	0.00e+00	0	61	0	761266176	44	4021
2026-01-24 06:13:09.72	317.55	16.16	-36.6	-38.0	16.8	0.00e+00	0	61	0	768606208	44	4055
2026-01-24 06:13:10.73	317.32	16.16	-36.5	-37.9	16.8	0.00e+00	0	61	0	775946240	44	4013
2026-01-24 06:13:11.74	317.10	16.17	-36.6	-37.9	16.8	0.00e+00	0	61	0	783286272	44	4046
2026-01-24 06:13:12.75	316.88	16.17	-36.7	-38.0	16.7	0.00e+00	0	61	0	790626304	44	4082
2026-01-24 06:13:13.76	316.65	16.17	-36.7	-38.1	16.6	0.00e+00	0	61	0	796917760	44	4112
2026-01-24 06:13:14.77	316.43	16.17	-36.8	-38.2	16.6	0.00e+00	0	61	0	804257792	44	4157
2026-01-24 06:13:15.78	316.21	16.17	-36.9	-38.2	16.5	0.00e+00	0	61	0	812646400	44	4193
2026-01-24 06:13:16.79	315.99	16.17	-36.9	-38.3	16.5	0.00e+00	0	61	0	818937856	44	4201
2026-01-24 06:13:17.80	315.76	16.17	-37.1	-38.5	16.2	0.00e+00	0	61	0	826277888	44	4311
2026-01-24 06:13:18.81	315.54	16.18	-37.0	-38.4	16.3	0.00e+00	0	61	0	833617920	44	4277
2026-01-24 06:13:19.82	315.32	16.17	-37.1	-38.5	16.2	0.00e+00	0	61	0	840957952	44	4310
2026-01-24 06:13:20.83	315.09	16.17	-37.0	-38.4	16.3	0.00e+00	0	61	0	848297984	44	4253
2026-01-24 06:13:21.84	314.87	16.17	-36.9	-38.3	16.4	0.00e+00	0	61	0	855638016	44	4240
2026-01-24 06:13:22.84	314.65	16.17	-37.1	-38.5	16.2	0.00e+00	0	61	0	862978048	44	4314
2026-01-24 06:13:23.85	314.43	16.17	-37.0	-38.5	16.3	0.00e+00	0	61	0	870318080	44	4295
2026-01-24 06:13:24.86	314.20	16.17	-37.1	-38.5	16.2	0.00e+00	0	61	0	877658112	44	4317
2026-01-24 06:13:25.87	313.98	16.16	-37.1	-38.6	16.2	0.00e+00	0	61	0	884998144	44	4341
2026-01-24 06:13:26.88	313.76	16.16	-37.0	-38.5	16.3	0.00e+00	0	61	0	892338176	44	4293
2026-01-24 06:13:27.89	313.53	16.16	-37.1	-38.6	16.2	0.00e+00	0	61	0	899678208	44	4347
2026-01-24 06:13:28.90	313.31	16.15	-37.1	-38.5	16.2	0.00e+00	0	61	0	907018240	44	4318
2026-01-24 06:13:29.91	313.09	16.15	-37.1	-38.5	16.2	0.00e+00	0	61	0	914358272	44	4319
2026-01-24 06:13:30.92	312.87	16.14	-37.0	-38.4	16.3	0.00e+00	0	61	0	921698304	44	4261
2026-01-24 06:13:31.93	312.64	16.14	-36.8	-38.2	16.5	0.00e+00	0	61	0	929038336	44	4160
2026-01-24 06:13:32.94	312.42	16.13	-36.7	-38.0	16.7	0.00e+00	0	61	0	936378368	44	4083
2026-01-24 06:13:33.95	312.20	16.12	-36.6	-37.9	16.8	0.00e+00	0	61	0	943718400	44	4051
2026-01-24 06:13:34.96	311.98	16.12	-36.7	-38.1	16.6	0.00e+00	0	61	0	950009856	44	4106
2026-01-24 06:13:35.97	311.75	16.11	-36.6	-38.0	16.7	0.00e+00	0	61	0	957349888	44	4060
2026-01-24 06:13:36.98	311.53	16.10	-36.6	-37.9	16.8	0.00e+00	0	61	0	965738496	44	4043
2026-01-24 06:13:37.99	311.31	16.09	-36.6	-37.9	16.8	0.00e+00	0	61	0	972029952	44	4046
2026-01-24 06:13:39.00	311.09	16.08	-36.6	-37.9	16.7	0.00e+00	0	61	0	979369984	44	4042
2026-01-24 06:13:40.00	310.87	16.08	-36.6	-38.0	16.7	0.00e+00	0	61	0	986710016	44	4056
2026-01-24 06:13:41.01	310.65	16.07	-36.7	-38.0	16.7	0.00e+00	0	61	0	994050048	44	4088
2026-01-24 06:13:42.02	310.43	16.06	-36.7	-38.0	16.7	0.00e+00	0	61	0	1001390080	44	4088
2026-01-24 06:13:43.03	310.21	16.05	-36.7	-38.0	16.7	0.00e+00	0	61	0	1008730112	44	4096
2026-01-24 06:13:44.04	309.98	16.04	-36.7	-38.0	16.7	0.00e+00	0	61	0	1016070144	44	4077
2026-01-24 06:13:45.05	309.76	16.02	-36.6	-37.9	16.8	0.00e+00	0	61	0	1023410176	44	4040
2026-01-24 06:13:46.06	309.54	16.01	-36.6	-37.9	16.8	0.00e+00	0	61	0	1030750208	44	4028
2026-01-24 06:13:47.07	309.32	16.00	-36.5	-37.9	16.8	0.00e+00	0	61	0	1038090240	44	4014
2026-01-24 06:13:48.08	309.10	15.99	-36.6	-38.0	16.7	0.00e+00	0	61	0	1045430272	44	4070
2026-01-24 06:13:49.09	308.88	15.98	-36.7	-38.0	16.6	0.00e+00	0	61	0	1052770304	44	4091
2026-01-24 06:13:50.10	308.66	15.96	-36.6	-37.9	16.8	0.00e+00	0	61	0	1060110336	44	4043
2026-01-24 06:13:51.11	308.44	15.95	-36.5	-37.9	16.8	0.00e+00	0	61	0	1067450368	44	4007
2026-01-24 06:13:52.12	308.22	15.93	-36.6	-37.9	16.8	0.00e+00	0	61	0	1073741824	44	4040
2026-01-24 06:13:53.13	308.00	15.92	-36.6	-38.0	16.7	0.00e+00	0	61	0	1082130432	44	4063
2026-01-24 06:13:54.14	307.78	15.90	-36.7	-38.0	16.7	0.00e+00	0	61	0	1089470464	44	4082
2026-01-24 06:13:55.15	307.56	15.89	-36.7	-38.1	16.6	0.00e+00	0	61	0	1095761920	44	4123
2026-01-24 06:13:56.16	307.35	15.87	-36.8	-38.2	16.4	0.00e+00	0	61	0	1103101952	44	4174
2026-01-24 06:13:57.17	307.13	15.86	-36.8	-38.2	16.5	0.00e+00	0	61	0	1111490560	44	4151
2026-01-24 06:13:58.18	306.91	15.84	-36.8	-38.2	16.5	0.00e+00	0	61	0	1117782016	44	4179
2026-01-24 06:13:59.19	306.69	15.82	-36.9	-38.3	16.4	0.00e+00	0	61	0	1125122048	44	4199
2026-01-24 06:14:00.20	306.47	15.81	-36.8	-38.2	16.5	0.00e+00	0	61	0	1132462080	44	4169
2026-01-24 06:14:01.21	306.25	15.79	-36.9	-38.3	16.4	0.00e+00	0	61	0	1139802112	44	4210
2026-01-24 06:14:02.22	306.04	15.77	-36.9	-38.3	16.3	0.00e+00	0	61	0	1147142144	44	4234
2026-01-24 06:14:03.23	305.82	15.75	-36.9	-38.3	16.4	0.00e+00	0	61	0	1154482176	44	4207
2026-01-24 06:14:04.24	305.60	15.73	-36.8	-38.2	16.5	0.00e+00	0	61	0	1161822208	44	4147
2026-01-24 06:14:05.24	305.39	15.71	-36.8	-38.2	16.4	0.00e+00	0	61	0	1169162240	44	4183
2026-01-24 06:14:06.25	305.17	15.69	-36.9	-38.3	16.4	0.00e+00	0	61	0	1176502272	44	4212
2026-01-24 06:14:07.26	304.96	15.67	-36.9	-38.3	16.3	0.00e+00	0	61	0	1183842304	44	4222
2026-01-24 06:14:08.27	304.74	15.65	-37.0	-38.4	16.2	0.00e+00	0	61	0	1191182336	44	4249
2026-01-24 06:14:09.28	304.53	15.63	-37.0	-38.4	16.2	0.00e+00	0	61	0	1198522368	44	4275
2026-01-24 06:14:10.29	304.31	15.61	-37.0	-38.4	16.2	0.00e+00	0	61	0	1205862400	44	4272
2026-01-24 06:14:11.30	304.10	15.59	-36.9	-38.3	16.3	0.00e+00	0	61	0	1213202432	44	4241
2026-01-24 06:14:12.31	303.88	15.57	-36.9	-38.4	16.3	0.00e+00	0	61	0	1220542464	44	4243
2026-01-24 06:14:13.32	303.67	15.54	-36.9	-38.4	16.3	0.00e+00	0	61	0	1226833920	44	4247
2026-01-24 06:14:14.33	303.45	15.52	-36.9	-38.3	16.3	0.00e+00	0	61	0	1235222528	44	4218
2026-01-24 06:14:15.34	303.24	15.50	-36.9	-38.3	16.3	0.00e+00	0	61	0	1242562560	44	4217
2026-01-24 06:14:16.35	303.03	15.47	-36.9	-38.3	16.3	0.00e+00	0	62	0	1248854016	44	4228
2026-01-24 06:14:17.36	302.81	15.45	-36.9	-38.3	16.3	0.00e+00	0	61	0	1256194048	44	4242
2026-01-24 06:14:18.37	302.60	15.42	-36.9	-38.3	16.4	0.00e+00	0	62	0	1263534080	44	4200
2026-01-24 06:14:19.38	302.39	15.40	-36.9	-38.3	16.3	0.00e+00	0	61	0	1270874112	44	4221
2026-01-24 06:14:20.39	302.18	15.37	-36.9	-38.3	16.3	0.00e+00	0	61	0	1278214144	44	4225
2026-01-24 06:14:21.40	301.97	15.35	-36.9	-38.3	16.3	0.00e+00	0	61	0	1285554176	44	4226
2026-01-24 06:14:22.41	301.76	15.32	-36.9	-38.4	16.2	0.00e+00	0	61	0	1292894208	44	4247
2026-01-24 06:14:23.41	301.55	15.30	-36.9	-38.3	16.3	0.00e+00	0	61	0	1300234240	44	4219
2026-01-24 06:14:24.42	301.34	15.27	-36.9	-38.3	16.3	0.00e+00	0	61	0	1307574272	44	4222
2026-01-24 06:14:25.43	301.13	15.24	-36.9	-38.3	16.3	0.00e+00	0	62	0	1314914304	44	4240
2026-01-24 06:14:26.44	300.92	15.22	-37.0	-38.4	16.2	0.00e+00	0	61	0	1322254336	44	4271
2026-01-24 06:14:27.45	300.71	15.19	-37.0	-38.5	16.1	0.00e+00	0	61	0	1329594368	44	4298
2026-01-24 06:14:28.46	300.50	15.16	-37.0	-38.4	16.2	0.00e+00	0	61	0	1336934400	44	4266
2026-01-24 06:14:29.47	300.29	15.13	-37.0	-38.4	16.2	0.00e+00	0	61	0	1344274432	44	4270
2026-01-24 06:14:30.48	300.08	15.10	-36.9	-38.3	16.3	0.00e+00	0	61	0	1351614464	44	4225
2026-01-24 06:14:31.49	299.88	15.07	-36.9	-38.3	16.3	0.00e+00	0	61	0	1358954496	44	4227
2026-01-24 06:14:32.50	299.67	15.04	-36.9	-38.3	16.3	0.00e+00	0	61	0	1366294528	44	4227
2026-01-24 06:14:33.50	299.46	15.02	-36.9	-38.3	16.3	0.00e+00	0	61	0	1372585984	44	4207
2026-01-24 06:14:34.51	299.26	14.99	-36.9	-38.3	16.3	0.00e+00	0	61	0	1379926016	44	4211
2026-01-24 06:14:35.52	299.05	14.96	-36.9	-38.3	16.3	0.00e+00	0	61	0	1388314624	44	4221
2026-01-24 06:14:36.53	298.85	14.92	-36.9	-38.2	16.3	0.00e+00	0	61	0	1394606080	44	4193
2026-01-24 06:14:37.54	298.64	14.89	-37.0	-38.4	16.1	0.00e+00	0	61	0	1401946112	44	4267
2026-01-24 06:14:38.55	298.44	14.86	-37.1	-38.5	16.0	0.00e+00	0	61	0	1409286144	44	4322
2026-01-24 06:14:39.56	298.23	14.83	-37.2	-38.7	15.8	0.00e+00	0	61	0	1416626176	44	4411
2026-01-24 06:14:40.57	298.03	14.80	-37.2	-38.7	15.9	0.00e+00	0	61	0	1423966208	44	4395
2026-01-24 06:14:41.58	297.83	14.77	-37.3	-38.8	15.7	0.00e+00	0	61	0	1431306240	44	4476
2026-01-24 06:14:42.59	297.62	14.73	-37.3	-38.8	15.7	0.00e+00	0	61	0	1438646272	44	4478
2026-01-24 06:14:43.60	297.42	14.70	-37.2	-38.7	15.7	0.00e+00	0	62	0	1445986304	44	4430
2026-01-24 06:14:44.61	297.22	14.67	-37.1	-38.6	15.9	0.00e+00	0	62	0	1453326336	44	4364
2026-01-24 06:14:45.62	297.02	14.63	-37.0	-38.5	16.0	0.00e+00	0	62	0	1460666368	44	4301
2026-01-24 06:14:46.63	296.82	14.60	-36.9	-38.3	16.1	0.00e+00	0	62	0	1468006400	44	4231
2026-01-24 06:14:47.63	296.62	14.57	-36.8	-38.3	16.2	0.00e+00	0	61	0	1475346432	44	4194
2026-01-24 06:14:48.64	296.42	14.53	-36.9	-38.3	16.1	0.00e+00	0	61	0	1482686464	44	4213
2026-01-24 06:14:49.65	296.22	14.50	-37.0	-38.4	16.0	0.00e+00	0	62	0	1490026496	44	4268
2026-01-24 06:14:50.66	296.02	14.46	-37.0	-38.5	15.9	0.00e+00	0	61	0	1497366528	44	4307
2026-01-24 06:14:51.67	295.82	14.43	-37.1	-38.6	15.8	0.00e+00	0	61	0	1504706560	44	4378
2026-01-24 06:14:52.68	295.62	14.39	-37.2	-38.8	15.6	0.00e+00	0	61	0	1512046592	44	4448
2026-01-24 06:14:53.69	295.43	14.35	-37.3	-38.8	15.6	0.00e+00	0	62	0	1519386624	44	4477
2026-01-24 06:14:54.70	295.23	14.32	-37.3	-38.9	15.5	0.00e+00	0	61	0	1525678080	44	4497
2026-01-24 06:14:55.71	295.03	14.28	-37.2	-38.8	15.6	0.00e+00	0	61	0	1534066688	44	4445
2026-01-24 06:14:56.72	294.83	14.24	-37.2	-38.7	15.6	0.00e+00	0	61	0	1541406720	44	4428
2026-01-24 06:14:57.73	294.64	14.21	-37.1	-38.7	15.6	0.00e+00	0	62	0	1547698176	44	4396
2026-01-24 06:14:58.74	294.44	14.17	-37.0	-38.5	15.7	0.00e+00	0	61	0	1555038208	44	4337
2026-01-24 06:14:59.75	294.25	14.13	-36.9	-38.3	15.9	0.00e+00	0	62	0	1562378240	44	4225
2026-01-24 06:15:00.76	294.05	14.09	-36.8	-38.2	16.0	0.00e+00	0	61	0	1569718272	44	4178
2026-01-24 06:15:01.77	293.86	14.06	-36.8	-38.2	16.0	0.00e+00	0	61	0	1577058304	44	4187
2026-01-24 06:15:02.78	293.67	14.02	-36.8	-38.3	15.9	0.00e+00	0	61	0	1584398336	44	4202
2026-01-24 06:15:03.79	293.48	13.98	-36.9	-38.3	15.8	0.00e+00	0	62	0	1591738368	44	4241
2026-01-24 06:15:04.80	293.28	13.94	-37.0	-38.5	15.6	0.00e+00	0	61	0	1599078400	44	4315
2026-01-24 06:15:05.80	293.09	13.90	-36.9	-38.4	15.6	0.00e+00	0	61	0	1606418432	44	4290
2026-01-24 06:15:06.81	292.90	13.86	-37.1	-38.7	15.4	0.00e+00	0	61	0	1613758464	44	4404
2026-01-24 06:15:07.82	292.71	13.82	-37.1	-38.7	15.3	0.00e+00	0	61	0	1621098496	44	4420
2026-01-24 06:15:08.83	292.52	13.78	-37.2	-38.8	15.1	0.00e+00	0	61	0	1628438528	44	4477
2026-01-24 06:15:09.84	292.33	13.74	-37.3	-39.0	15.0	0.00e+00	0	61	0	1635778560	44	4552
2026-01-24 06:15:10.85	292.14	13.70	-37.3	-38.9	15.0	1.10e-06	0	62	0	1643118592	44	4514
2026-01-24 06:15:11.86	291.95	13.66	-37.4	-39.0	14.9	0.00e+00	0	61	0	1649410048	44	4582
2026-01-24 06:15:12.87	291.77	13.62	-37.4	-39.0	14.9	0.00e+00	0	61	0	1657798656	44	4581
2026-01-24 06:15:13.88	291.58	13.58	-37.4	-39.0	14.8	1.10e-06	0	61	0	1665138688	44	4592
2026-01-24 06:15:14.89	291.39	13.54	-37.3	-39.0	14.8	0.00e+00	0	61	0	1671430144	44	4565
2026-01-24 06:15:15.90	291.20	13.50	-37.3	-39.0	14.7	0.00e+00	0	61	0	1678770176	44	4583
2026-01-24 06:15:16.91	291.02	13.45	-37.3	-39.1	14.6	0.00e+00	0	62	0	1686110208	44	4602
2026-01-24 06:15:17.92	290.83	13.41	-37.2	-38.8	14.8	1.10e-06	0	61	0	1693450240	44	4480
2026-01-24 06:15:18.93	290.65	13.37	-37.2	-38.9	14.7	0.00e+00	0	61	0	1700790272	44	4530
2026-01-24 06:15:19.94	290.46	13.33	-37.3	-39.1	14.5	0.00e+00	0	61	0	1708130304	44	4607
2026-01-24 06:15:20.95	290.28	13.28	-37.3	-39.0	14.5	0.00e+00	0	62	0	1715470336	44	4593
2026-01-24 06:15:21.95	290.10	13.24	-37.3	-39.0	14.5	0.00e+00	0	61	0	1722810368	44	4582
2026-01-24 06:15:22.96	289.91	13.20	-37.4	-39.1	14.4	0.00e+00	0	61	0	1730150400	44	4631
2026-01-24 06:15:23.97	289.73	13.15	-37.4	-39.1	14.4	0.00e+00	0	61	0	1737490432	44	4648
2026-01-24 06:15:24.98	289.55	13.11	-37.5	-39.3	14.2	0.00e+00	0	61	0	1744830464	44	4710
2026-01-24 06:15:25.99	289.37	13.07	-37.4	-39.2	14.2	0.00e+00	0	61	0	1752170496	44	4687
2026-01-24 06:15:27.00	289.19	13.02	-37.4	-39.2	14.3	1.10e-06	0	61	0	1759510528	44	4667
2026-01-24 06:15:28.01	289.01	12.98	-37.5	-39.3	14.2	0.00e+00	0	61	0	1766850560	44	4727
2026-01-24 06:15:29.02	288.83	12.93	-37.5	-39.3	14.2	2.20e-06	0	62	0	1774190592	44	4723
2026-01-24 06:15:30.03	288.65	12.89	-37.5	-39.3	14.0	6.80e-06	0	62	0	1781530624	44	4749
2026-01-24 06:15:31.04	288.47	12.85	-37.5	-39.3	14.0	1.10e-06	0	62	0	1788870656	44	4759
2026-01-24 06:15:32.05	288.29	12.80	-37.6	-39.5	13.8	4.50e-06	0	62	0	1796210688	44	4856
2026-01-24 06:15:33.06	288.12	12.76	-37.7	-39.6	13.7	9.10e-06	0	61	0	1802502144	44	4904
2026-01-24 06:15:34.07	287.94	12.71	-37.7	-39.6	13.7	3.40e-06	0	61	0	1810890752	44	4892
2026-01-24 06:15:35.08	287.76	12.66	-37.8	-39.7	13.6	6.80e-06	0	62	0	1818230784	45	4675
2026-01-24 06:15:36.09	287.59	12.62	-37.8	-39.8	13.4	1.83e-05	0	61	0	1824522240	45	4734
2026-01-24 06:15:37.10	287.41	12.57	-38.0	-40.0	13.2	2.17e-05	0	62	0	1831862272	45	4819
2026-01-24 06:15:38.11	287.24	12.53	-38.0	-40.1	13.0	2.74e-05	0	61	0	1839202304	45	4902
2026-01-24 06:15:39.12	287.06	12.48	-38.2	-40.3	12.7	8.01e-05	0	62	0	1846542336	45	5032
2026-01-24 06:15:40.13	286.89	12.43	-38.3	-40.6	12.4	1.32e-04	0	62	0	1853882368	46	4884
2026-01-24 06:15:41.14	286.72	12.39	-38.4	-40.7	12.2	2.10e-04	0	62	0	1861222400	46	4936
2026-01-24 06:15:42.15	286.54	12.34	-38.5	-40.9	12.1	2.45e-04	0	61	0	1868562432	46	5043
2026-01-24 06:15:43.16	286.37	12.29	-38.6	-40.9	12.0	3.68e-04	0	62	0	1875902464	46	5063
2026-01-24 06:15:44.17	286.20	12.25	-38.6	-41.0	12.0	3.42e-04	0	61	0	1883242496	46	5107
2026-01-24 06:15:45.18	286.03	12.20	-38.6	-41.0	11.9	5.02e-04	0	62	0	1890582528	46	5117
2026-01-24 06:15:46.19	285.86	12.15	-38.6	-41.0	11.9	4.62e-04	0	62	0	1897922560	46	5128
2026-01-24 06:15:47.19	285.69	12.11	-38.6	-40.9	12.0	3.74e-04	0	61	0	1905262592	46	5100
2026-01-24 06:15:48.21	285.52	12.06	-38.5	-40.8	12.1	2.79e-04	0	61	0	1912602624	46	5020
2026-01-24 06:15:49.22	285.35	12.01	-38.5	-40.8	12.1	3.00e-04	0	62	0	1919942656	46	5033
2026-01-24 06:15:50.23	285.18	11.96	-38.5	-40.8	12.1	2.56e-04	0	62	0	1927282688	46	5024
2026-01-24 06:15:51.24	285.02	11.91	-38.6	-40.9	12.0	3.07e-04	0	61	0	1934622720	46	5051
2026-01-24 06:15:52.24	284.85	11.87	-38.6	-40.9	12.0	3.72e-04	0	62	0	1941962752	46	5077
2026-01-24 06:15:53.25	284.69	11.82	-38.7	-41.0	11.9	4.59e-04	0	61	0	1948254208	46	5144
2026-01-24 06:15:54.27	284.52	11.77	-38.7	-41.1	11.9	4.52e-04	0	62	0	1956642816	46	5169
2026-01-24 06:15:55.28	284.35	11.72	-38.8	-41.2	11.8	4.37e-04	0	62	0	1963982848	47	4943
2026-01-24 06:15:56.28	284.19	11.67	-38.7	-41.1	11.9	4.55e-04	0	62	0	1970274304	47	4888
2026-01-24 06:15:57.30	284.02	11.62	-38.6	-40.9	12.0	3.52e-04	0	62	0	1977614336	47	4775
2026-01-24 06:15:58.31	283.86	11.57	-38.4	-40.6	12.2	2.83e-04	0	62	0	1984954368	47	4643
2026-01-24 06:15:59.32	283.70	11.52	-38.3	-40.5	12.4	2.05e-04	0	62	0	1992294400	47	4582
2026-01-24 06:16:00.33	283.54	11.47	-38.3	-40.5	12.5	1.58e-04	0	61	0	1999634432	47	4569
2026-01-24 06:16:01.34	283.37	11.42	-38.3	-40.5	12.5	1.45e-04	0	61	0	2006974464	47	4550
2026-01-24 06:16:02.35	283.21	11.37	-38.1	-40.3	12.7	8.01e-05	0	62	0	2014314496	47	4452
2026-01-24 06:16:03.36	283.05	11.33	-38.1	-40.2	12.8	6.52e-05	0	62	0	2021654528	47	4417
2026-01-24 06:16:04.37	282.89	11.28	-38.1	-40.2	12.8	6.29e-05	0	62	0	2028994560	47	4406
2026-01-24 06:16:05.38	282.73	11.23	-38.0	-40.1	12.9	3.43e-05	0	62	0	2036334592	47	4350
2026-01-24 06:16:06.39	282.57	11.18	-37.9	-40.0	13.1	3.66e-05	0	61	0	2043674624	46	4546
2026-01-24 06:16:07.40	282.41	11.13	-37.8	-39.8	13.3	2.28e-05	0	62	0	2051014656	46	4461
2026-01-24 06:16:08.41	282.26	11.07	-37.7	-39.7	13.5	1.60e-05	0	62	0	2058354688	46	4397
2026-01-24 06:16:09.42	282.10	11.02	-37.5	-39.3	14.0	5.70e-06	0	62	0	2065694720	46	4217
2026-01-24 06:16:10.42	281.94	10.97	-37.4	-39.2	14.2	3.40e-06	0	62	0	2073034752	45	4398
2026-01-24 06:16:11.44	281.78	10.92	-37.3	-39.1	14.2	1.10e-06	0	62	0	2080374784	45	4386
2026-01-24 06:16:12.44	281.63	10.87	-37.4	-39.2	14.1	1.10e-06	0	62	0	2087714816	45	4407
2026-01-24 06:16:13.45	281.47	10.82	-37.6	-39.4	13.9	2.20e-06	0	62	0	2095054848	45	4518
2026-01-24 06:16:14.46	281.32	10.77	-37.7	-39.6	13.8	8.00e-06	0	62	0	2102394880	45	4608
2026-01-24 06:16:15.47	281.17	10.72	-37.8	-39.7	13.7	1.02e-05	0	61	0	2109734912	45	4661
2026-01-24 06:16:16.48	281.01	10.67	-37.8	-39.7	13.6	1.02e-05	0	62	0	2117074944	45	4698
2026-01-24 06:16:17.49	280.86	10.62	-37.7	-39.7	13.6	1.02e-05	0	62	0	2123366400	45	4663
2026-01-24 06:16:18.50	280.71	10.57	-37.8	-39.7	13.6	5.70e-06	0	62	0	2130706432	45	4681
2026-01-24 06:16:19.51	280.55	10.52	-37.8	-39.8	13.4	1.60e-05	0	61	0	2139095040	45	4719
2026-01-24 06:16:20.52	280.40	10.46	-37.9	-39.9	13.3	3.08e-05	0	62	0	2145386496	45	4766
2026-01-24 06:16:21.53	280.25	10.41	-38.0	-40.0	13.1	3.08e-05	0	62	0	2152726528	45	4852
2026-01-24 06:16:22.54	280.10	10.36	-38.0	-40.0	13.1	3.43e-05	0	62	0	2160066560	45	4856
2026-01-24 06:16:23.55	279.95	10.31	-38.1	-40.1	13.0	3.20e-05	0	62	0	2167406592	45	4919
2026-01-24 06:16:24.56	279.80	10.26	-38.1	-40.2	12.8	4.80e-05	0	62	0	2174746624	45	4968
2026-01-24 06:16:25.57	279.65	10.21	-38.1	-40.3	12.7	7.55e-05	0	62	0	2182086656	45	5009
2026-01-24 06:16:26.58	279.50	10.15	-38.3	-40.5	12.5	1.22e-04	0	62	0	2189426688	46	4821
2026-01-24 06:16:27.59	279.36	10.10	-38.4	-40.6	12.2	2.13e-04	0	61	0	2196766720	46	4926
2026-01-24 06:16:28.60	279.21	10.05	-38.5	-40.8	12.0	3.13e-04	0	62	0	2204106752	46	5037
2026-01-24 06:16:29.60	279.06	10.00	-38.6	-41.0	11.8	5.37e-04	0	62	0	2211446784	46	5101
2026-01-24 06:16:30.61	278.92	9.95	-38.7	-41.1	11.7	6.14e-04	0	62	0	2218786816	46	5201
2026-01-24 06:16:31.62	278.77	9.89	-38.8	-41.3	11.3	9.91e-04	0	62	0	2226126848	47	5037
2026-01-24 06:16:32.63	278.63	9.84	-38.9	-41.5	11.0	2.09e-03	0	62	0	2233466880	47	5157
2026-01-24 06:16:33.64	278.48	9.79	-38.9	-41.6	10.8	2.86e-03	0	62	0	2240806912	47	5218
2026-01-24 06:16:34.65	278.34	9.74	-39.1	-42.0	10.4	4.45e-03	0	62	0	2247098368	47	5434
2026-01-24 06:16:35.66	278.19	9.68	-39.5	-42.5	10.1	7.23e-03	0	62	0	2254438400	48	5451
2026-01-24 06:16:36.67	278.05	9.63	-39.5	-42.7	9.7	1.23e-02	0	62	0	2262827008	48	5552
2026-01-24 06:16:37.68	277.91	9.58	-39.6	-43.0	9.3	1.69e-02	0	61	0	2269118464	48	5742
2026-01-24 06:16:38.69	277.77	9.53	-39.8	-43.3	8.8	2.59e-02	0	62	0	2276458496	49	5653
2026-01-24 06:16:39.70	277.63	9.47	-39.9	-43.6	8.5	4.16e-02	0	62	0	2283798528	49	5809
2026-01-24 06:16:40.71	277.48	9.42	-40.1	-44.0	8.0	6.78e-02	0	61	0	2291138560	49	6105
2026-01-24 06:16:41.72	277.34	9.37	-40.2	-44.3	7.7	8.87e-02	0	62	0	2298478592	49	6333
2026-01-24 06:16:42.73	277.20	9.32	-40.3	-44.6	7.4	1.20e-01	0	62	0	2305818624	50	6143
2026-01-24 06:16:43.74	277.06	9.26	-40.4	-44.9	6.9	1.71e-01	0	62	0	2313158656	50	6377
2026-01-24 06:16:44.75	276.93	9.21	-40.5	-45.3	6.5	2.22e-01	0	62	0	2320498688	50	6681
2026-01-24 06:16:45.76	276.79	9.16	-40.6	-45.7	6.2	2.87e-01	0	62	0	2327838720	50	6978
2026-01-24 06:16:46.77	276.65	9.10	-40.6	-46.0	5.9	3.59e-01	0	62	0	2335178752	50	7270
2026-01-24 06:16:47.78	276.51	9.05	-41.2	-46.6	5.8	3.35e-01	0	62	0	2342518784	51	7347
2026-01-24 06:16:48.79	276.38	9.00	-40.5	-49.7	3.8	8.30e-01	0	62	104	2345664512	51	10415
2026-01-24 06:16:49.80	276.24	8.94	-40.7	-48.8	4.1	8.42e-01	0	61	0	2345664512	51	9443
2026-01-24 06:16:50.81	276.10	8.89	-41.2	-48.2	4.5	8.12e-01	0	62	0	2345664512	51	8821
2026-01-24 06:16:51.82	275.97	8.84	-41.0	-48.4	4.4	8.31e-01	0	62	0	2345664512	52	8497
2026-01-24 06:16:52.83	275.83	8.78	-41.0	-48.8	4.2	8.37e-01	0	61	0	2345664512	52	8906
2026-01-24 06:16:53.84	275.70	8.73	-41.0	-49.1	4.1	8.39e-01	0	62	0	2345664512	52	9246
2026-01-24 06:16:54.85	275.56	8.68	-41.0	-49.4	4.0	8.43e-01	0	62	104	2345664512	52	9537
2026-01-24 06:16:55.86	275.43	8.62	-41.0	-49.6	4.0	8.45e-01	0	62	104	2345664512	52	9773
2026-01-24 06:16:56.87	275.30	8.57	-41.0	-50.1	3.8	8.44e-01	0	62	104	2345664512	52	10306
2026-01-24 06:16:57.88	275.17	8.52	-40.9	-50.1	3.8	8.44e-01	0	62	104	2345664512	52	10330
2026-01-24 06:16:58.89	275.03	8.46	-40.8	-51.2	3.8	8.46e-01	0	62	104	2345664512	52	11703
2026-01-24 06:16:59.90	274.90	8.41	-40.5	-50.5	3.8	8.46e-01	0	62	104	2345664512	52	10869
2026-01-24 06:17:00.91	274.77	8.36	-41.0	-51.1	3.8	8.45e-01	0	62	104	2345664512	52	11639
2026-01-24 06:17:01.92	274.64	8.30	-40.3	-51.0	3.8	8.46e-01	0	62	104	2345664512	51	12128
2026-01-24 06:17:02.92	274.51	8.25	-40.4	-50.9	3.8	8.46e-01	0	62	104	2345664512	51	12060
2026-01-24 06:17:03.93	274.38	8.20	-40.4	-51.0	3.8	8.45e-01	0	62	104	2345664512	51	12155
2026-01-24 06:17:04.94	274.25	8.14	-40.4	-51.0	3.8	8.47e-01	0	62	104	2345664512	51	12175
2026-01-24 06:17:05.95	274.13	8.09	-40.3	-51.0	3.8	8.46e-01	0	62	104	2345664512	51	12124
2026-01-24 06:17:06.96	274.00	8.04	-40.5	-51.1	3.8	8.45e-01	0	62	104	2345664512	51	12345
2026-01-24 06:17:07.97	273.87	7.98	-43.7	-54.6	3.8	8.44e-01	0	62	104	2345664512	56	13804
2026-01-24 06:17:08.98	273.74	7.93	-45.0	-56.1	3.8	8.47e-01	0	62	104	2345664512	59	13735
2026-01-24 06:17:09.99	273.62	7.87	-45.2	-56.5	3.8	8.46e-01	0	62	104	2345664512	60	13639
2026-01-24 06:17:11.00	273.49	7.82	-45.4	-56.7	3.8	8.46e-01	0	62	104	2345664512	60	13922
2026-01-24 06:17:12.01	273.36	7.77	-45.5	-56.9	3.8	8.46e-01	0	62	104	2345664512	60	14232
2026-01-24 06:17:13.02	273.24	7.71	-45.5	-56.9	3.8	8.47e-01	0	62	104	2345664512	60	14247
2026-01-24 06:17:14.03	273.11	7.66	-45.6	-56.9	3.8	8.46e-01	0	62	104	2345664512	60	14276
2026-01-24 06:17:15.04	272.99	7.60	-45.6	-56.9	3.8	8.46e-01	0	62	104	2345664512	60	14343
2026-01-24 06:17:16.05	272.87	7.55	-45.6	-56.9	3.8	8.46e-01	0	62	104	2345664512	60	14368
2026-01-24 06:17:17.06	272.74	7.50	-45.6	-57.0	3.8	8.47e-01	0	62	104	2345664512	60	14407
2026-01-24 06:17:18.07	272.62	7.44	-45.6	-56.9	3.8	8.48e-01	0	62	104	2345664512	60	14341
2026-01-24 06:17:19.08	272.50	7.39	-45.6	-56.9	3.8	8.46e-01	0	61	104	2345664512	60	14364
2026-01-24 06:17:20.09	272.38	7.34	-45.5	-56.9	3.8	8.45e-01	0	62	104	2345664512	60	14284
2026-01-24 06:17:21.11	272.25	7.28	-45.5	-56.9	3.8	8.47e-01	0	62	104	2345664512	60	14325
2026-01-24 06:17:22.12	272.13	7.23	-45.5	-56.9	3.8	8.46e-01	0	62	104	2345664512	60	14284
2026-01-24 06:17:23.13	272.01	7.17	-45.6	-56.9	3.8	8.47e-01	0	62	104	2345664512	60	14330
2026-01-24 06:17:24.14	271.89	7.12	-45.6	-56.9	3.8	8.47e-01	0	62	104	2345664512	60	14241
2026-01-24 06:17:25.15	271.77	7.06	-45.5	-56.8	3.8	8.46e-01	0	62	104	2345664512	60	14182
2026-01-24 06:17:26.16	271.65	7.01	-45.5	-56.8	3.8	8.46e-01	0	62	104	2345664512	60	14194
2026-01-24 06:17:27.17	271.53	6.96	-45.5	-56.8	3.8	8.45e-01	0	62	104	2345664512	60	14199
2026-01-24 06:17:28.18	271.42	6.90	-45.5	-56.9	3.8	8.47e-01	0	62	104	2345664512	60	14246
2026-01-24 06:17:29.19	271.30	6.85	-45.5	-56.8	3.8	8.46e-01	0	62	104	2345664512	60	14127
2026-01-24 06:17:30.20	271.18	6.80	-45.5	-56.9	3.8	8.46e-01	0	62	104	2345664512	60	14237
2026-01-24 06:17:31.21	271.06	6.74	-45.5	-56.8	3.8	8.47e-01	0	62	104	2345664512	60	14206
2026-01-24 06:17:32.22	270.95	6.69	-45.5	-56.9	3.8	8.46e-01	0	62	104	2345664512	60	14223
2026-01-24 06:17:33.23	270.83	6.63	-45.5	-56.8	3.8	8.46e-01	0	62	104	2345664512	60	14192
2026-01-24 06:17:34.24	270.72	6.58	-45.5	-56.9	3.8	8.46e-01	0	62	104	2345664512	60	14223
2026-01-24 06:17:35.25	270.60	6.53	-45.5	-56.8	3.8	8.46e-01	0	62	104	2345664512	60	14194
2026-01-24 06:17:36.26	270.49	6.47	-45.5	-56.9	3.8	8.46e-01	0	62	104	2345664512	60	14239
2026-01-24 06:17:37.27	270.37	6.42	-45.5	-56.9	3.8	8.47e-01	0	62	104	2345664512	60	14267
2026-01-24 06:17:38.28	270.26	6.36	-45.5	-56.9	3.8	8.46e-01	0	62	104	2345664512	60	14216
2026-01-24 06:17:39.29	270.14	6.31	-45.5	-56.8	3.8	8.46e-01	0	62	104	2345664512	60	14186
2026-01-24 06:17:40.30	270.03	6.26	-44.8	-56.4	3.8	8.46e-01	0	62	104	2345664512	59	14346
2026-01-24 06:17:41.31	269.92	6.20	-45.5	-56.9	3.8	8.46e-01	0	62	104	2345664512	60	14230
2026-01-24 06:17:42.33	269.81	6.15	-45.5	-56.8	3.8	8.46e-01	0	62	104	2345664512	60	14179
2026-01-24 06:17:43.34	269.69	6.09	-45.5	-56.8	3.8	8.47e-01	0	62	104	2345664512	60	14160
2026-01-24 06:17:44.35	269.58	6.04	-45.5	-56.8	3.8	8.46e-01	0	62	104	2345664512	60	14199
2026-01-24 06:17:45.36	269.47	5.99	-45.5	-56.8	3.8	8.46e-01	0	62	104	2345664512	60	14186
2026-01-24 06:17:46.37	269.36	5.93	-45.5	-56.8	3.8	8.45e-01	0	62	104	2345664512	60	14163
2026-01-24 06:17:47.38	269.25	5.88	-45.5	-56.8	3.8	8.47e-01	0	62	104	2345664512	60	14129
2026-01-24 06:17:48.39	269.14	5.82	-45.5	-56.8	3.8	8.46e-01	0	62	104	2345664512	60	14121
2026-01-24 06:17:49.40	269.03	5.77	-45.5	-56.8	3.8	8.46e-01	0	62	104	2345664512	60	14161
2026-01-24 06:17:50.41	268.92	5.72	-45.5	-56.8	3.8	8.46e-01	0	62	104	2345664512	60	14185
2026-01-24 06:17:51.42	268.81	5.66	-45.5	-56.8	3.8	8.46e-01	0	62	104	2345664512	60	14144
2026-01-24 06:17:52.43	268.71	5.61	-45.5	-56.8	3.8	8.46e-01	0	62	104	2345664512	60	14133
2026-01-24 06:17:53.44	268.60	5.56	-45.5	-56.8	3.8	8.45e-01	0	62	104	2345664512	60	14168
2026-01-24 06:17:54.45	268.49	5.50	-45.5	-56.8	3.8	8.46e-01	0	62	104	2345664512	60	14144
2026-01-24 06:17:55.46	268.39	5.45	-45.5	-56.8	3.8	8.47e-01	0	62	104	2345664512	60	14124
2026-01-24 06:17:56.48	268.28	5.39	-45.5	-56.8	3.8	8.47e-01	0	62	104	2345664512	60	14141
2026-01-24 06:17:57.48	268.17	5.34	-45.5	-56.8	3.8	8.46e-01	0	62	104	2345664512	60	14173
2026-01-24 06:17:58.50	268.07	5.29	-45.4	-56.8	3.8	8.46e-01	0	62	104	2345664512	60	14093
2026-01-24 06:17:59.51	267.96	5.23	-45.4	-56.8	3.8	8.45e-01	0	62	104	2345664512	60	14147
2026-01-24 06:18:00.52	267.86	5.18	-45.5	-56.8	3.8	8.45e-01	0	62	104	2345664512	60	14155
2026-01-24 06:18:01.53	267.75	5.13	-45.5	-56.8	3.8	8.47e-01	0	62	104	2345664512	60	14184
2026-01-24 06:18:02.54	267.65	5.07	-45.5	-56.8	3.8	8.47e-01	0	62	104	2345664512	60	14140
2026-01-24 06:18:03.55	267.54	5.02	-45.4	-56.8	3.8	8.46e-01	0	62	104	2345664512	60	14163
2026-01-24 06:18:04.56	267.44	4.97	-45.4	-56.8	3.8	8.47e-01	0	62	104	2345664512	60	14145
2026-01-24 06:18:05.57	267.34	4.91	-45.5	-56.8	3.8	8.45e-01	0	62	104	2345664512	60	14129
2026-01-24 06:18:06.58	267.24	4.86	-45.5	-56.8	3.8	8.45e-01	0	62	104	2345664512	60	14168
2026-01-24 06:18:07.59	267.13	4.80	-45.4	-56.8	3.8	8.46e-01	0	62	104	2345664512	60	14139
2026-01-24 06:18:08.60	267.03	4.75	-45.4	-56.8	3.8	8.46e-01	0	62	104	2345664512	60	14107
2026-01-24 06:18:09.61	266.93	4.70	-45.4	-56.8	3.8	8.47e-01	0	62	104	2345664512	60	14090
2026-01-24 06:18:10.62	266.83	4.64	-45.5	-56.8	3.8	8.44e-01	0	62	104	2345664512	60	14098
2026-01-24 06:18:11.63	266.73	4.59	-45.4	-56.8	3.8	8.46e-01	0	62	104	2345664512	60	14140
2026-01-24 06:18:12.64	266.63	4.54	-45.4	-56.8	3.8	8.45e-01	0	62	104	2345664512	60	14096
2026-01-24 06:18:13.65	266.53	4.48	-45.4	-56.8	3.8	8.46e-01	0	62	104	2345664512	60	14085
2026-01-24 06:18:14.66	266.43	4.43	-45.4	-56.8	3.8	8.46e-01	0	62	104	2345664512	60	14121
2026-01-24 06:18:15.67	266.33	4.38	-45.4	-56.8	3.8	8.47e-01	0	62	104	2345664512	60	14134
2026-01-24 06:18:16.68	266.23	4.32	-45.4	-56.7	3.8	8.46e-01	0	62	104	2345664512	60	14024
2026-01-24 06:18:17.70	266.13	4.27	-45.4	-56.8	3.8	8.45e-01	0	62	104	2345664512	60	14131
2026-01-24 06:18:18.71	266.03	4.22	-45.4	-56.8	3.8	8.47e-01	0	62	104	2345664512	60	14072
2026-01-24 06:18:19.72	265.94	4.16	-45.4	-56.8	3.8	8.46e-01	0	62	104	2345664512	60	14108
2026-01-24 06:18:20.73	265.84	4.11	-45.4	-56.8	3.8	8.46e-01	0	62	104	2345664512	60	14111
2026-01-24 06:18:21.74	265.74	4.06	-45.4	-56.7	3.8	8.46e-01	0	62	104	2345664512	60	14046
2026-01-24 06:18:22.75	265.65	4.01	-45.4	-56.8	3.8	8.47e-01	0	62	104	2345664512	60	14057
2026-01-24 06:18:23.76	265.55	3.95	-45.4	-56.8	3.8	8.46e-01	0	62	104	2345664512	60	14066
2026-01-24 06:18:24.77	265.45	3.90	-45.4	-56.8	3.8	8.46e-01	0	62	104	2345664512	60	14065
2026-01-24 06:18:25.78	265.36	3.85	-45.4	-56.7	3.8	8.46e-01	0	62	104	2345664512	60	14042
2026-01-24 06:18:26.79	265.26	3.79	-45.4	-56.8	3.8	8.46e-01	0	62	104	2345664512	60	14119
2026-01-24 06:18:27.80	265.17	3.74	-45.4	-56.7	3.8	8.46e-01	0	62	104	2345664512	60	14040
2026-01-24 06:18:28.81	265.07	3.69	-45.4	-56.8	3.8	8.46e-01	0	62	104	2345664512	60	14048
2026-01-24 06:18:29.83	264.98	3.63	-45.4	-56.7	3.8	8.46e-01	0	62	104	2345664512	60	14016
2026-01-24 06:18:30.84	264.89	3.58	-45.4	-56.7	3.8	8.45e-01	0	62	104	2345664512	60	14043
2026-01-24 06:18:31.85	264.79	3.53	-45.4	-56.8	3.8	8.45e-01	0	62	104	2345664512	60	14088
2026-01-24 06:18:32.86	264.70	3.48	-45.4	-56.7	3.8	8.46e-01	0	62	104	2345664512	60	14023
2026-01-24 06:18:33.87	264.61	3.42	-45.4	-56.7	3.8	8.46e-01	0	62	104	2345664512	60	14044
2026-01-24 06:18:34.88	264.51	3.37	-45.4	-56.8	3.8	8.47e-01	0	62	104	2345664512	60	14058
2026-01-24 06:18:35.89	264.42	3.32	-45.4	-56.7	3.8	8.46e-01	0	62	104	2345664512	60	14009
2026-01-24 06:18:36.90	264.33	3.27	-45.4	-56.8	3.8	8.47e-01	0	62	104	2345664512	60	14089
2026-01-24 06:18:37.91	264.24	3.21	-45.4	-56.8	3.8	8.47e-01	0	62	104	2345664512	60	14069
2026-01-24 06:18:38.92	264.15	3.16	-45.4	-56.7	3.8	8.45e-01	0	62	104	2345664512	60	14020
2026-01-24 06:18:39.93	264.06	3.11	-45.4	-56.8	3.8	8.47e-01	0	62	104	2345664512	60	14083
2026-01-24 06:18:40.94	263.97	3.06	-45.4	-56.7	3.8	8.46e-01	0	62	104	2345664512	60	14040
2026-01-24 06:18:41.95	263.88	3.00	-45.4	-56.8	3.8	8.47e-01	0	62	104	2345664512	60	14081
2026-01-24 06:18:42.97	263.79	2.95	-45.4	-56.7	3.8	8.47e-01	0	62	104	2345664512	60	14046
2026-01-24 06:18:43.98	263.70	2.90	-45.4	-56.7	3.8	8.47e-01	0	62	104	2345664512	60	14006
2026-01-24 06:18:44.99	263.61	2.85	-45.4	-56.8	3.8	8.46e-01	0	62	104	2345664512	60	14058
2026-01-24 06:18:46.00	263.52	2.79	-45.4	-56.8	3.8	8.46e-01	0	62	104	2345664512	60	14078
2026-01-24 06:18:47.01	263.43	2.74	-45.4	-56.8	3.8	8.47e-01	0	62	104	2345664512	60	14054
2026-01-24 06:18:48.02	263.34	2.69	-45.4	-56.8	3.8	8.45e-01	0	62	104	2345664512	60	14066
2026-01-24 06:18:49.03	263.25	2.64	-45.4	-56.7	3.8	8.46e-01	0	62	104	2345664512	60	14019
2026-01-24 06:18:50.04	263.17	2.58	-45.4	-56.7	3.8	8.46e-01	0	62	104	2345664512	60	14018
2026-01-24 06:18:51.05	263.08	2.53	-45.4	-56.7	3.8	8.46e-01	0	62	104	2345664512	60	14041
2026-01-24 06:18:52.06	262.99	2.48	-45.4	-56.7	3.8	8.47e-01	0	62	104	2345664512	60	13994
2026-01-24 06:18:53.07	262.91	2.43	-45.4	-56.8	3.8	8.46e-01	0	62	104	2345664512	60	14061
2026-01-24 06:18:54.08	262.82	2.38	-45.4	-56.8	3.8	8.45e-01	0	62	104	2345664512	60	14080
2026-01-24 06:18:55.09	262.74	2.32	-45.4	-56.8	3.8	8.47e-01	0	62	104	2345664512	60	14068
2026-01-24 06:18:56.10	262.65	2.27	-45.4	-56.7	3.8	8.46e-01	0	62	104	2345664512	60	14033
2026-01-24 06:18:57.11	262.56	2.22	-45.4	-56.8	3.8	8.46e-01	0	62	104	2345664512	60	14063
2026-01-24 06:18:58.12	262.48	2.17	-45.4	-56.8	3.8	8.46e-01	0	62	104	2345664512	60	14095
2026-01-24 06:18:59.13	262.39	2.12	-45.4	-56.8	3.8	8.46e-01	0	62	104	2345664512	60	14091
2026-01-24 06:19:00.14	262.31	2.06	-45.4	-56.7	3.8	8.47e-01	0	62	104	2345664512	60	14045
2026-01-24 06:19:01.15	262.23	2.01	-45.4	-56.7	3.8	8.46e-01	0	62	104	2345664512	60	14011
2026-01-24 06:19:02.16	262.14	1.96	-45.4	-56.7	3.8	8.46e-01	0	62	104	2345664512	60	14037
2026-01-24 06:19:03.17	262.06	1.91	-45.4	-56.8	3.8	8.45e-01	0	62	104	2345664512	60	14076

#Closed at: 2026-01-24 06:19:03
#Recorded file [2345 MB]: D:/lorett/data/31039_260124_090734.dat