passes_logs/2026/01/01/R2.0S_Moscow/R2.0S_Moscow__20260101_112852_FENGYUN_3D_rec.log

#Pass ID: 20260101_112852_FENGYUN 3D
#Satellite: FENGYUN 3D
#Configuration: FENGYUN 3D
#almurnet v.1.7.20251203
#Start time: 2026-01-01 11:28:54

#Version: 2.2.20231116
#Station: R2.0S_Moscow
#Location: 37.707566 lon 55.798166 lat
#TLE: 1 43010U 17072A   25365.48527867  .00000101  00000+0  69745-4 0  9999
#TLE: 2 43010  98.9911 332.0787 0001837 134.4748 225.6578 14.19689788421190

#Time	Az	El	Level	Level2	SNR	BER	BlckErr	Temp	State	Recorded	gain1	gain2
2026-01-01 11:28:54.66	147.14	2.13	-43.9	-55.4	3.8	8.46e-01	0	50	0	0	59	13422
2026-01-01 11:28:55.68	147.12	2.19	-43.9	-55.4	3.8	8.46e-01	0	50	104	0	59	13423
2026-01-01 11:28:56.69	147.10	2.26	-43.9	-55.3	3.8	8.46e-01	0	50	104	0	59	13410
2026-01-01 11:28:57.70	147.08	2.32	-43.9	-55.4	3.8	8.46e-01	0	50	104	0	59	13415
2026-01-01 11:28:58.71	147.07	2.39	-43.9	-55.4	3.8	8.47e-01	0	50	104	0	59	13467
2026-01-01 11:28:59.72	147.05	2.45	-43.9	-55.3	3.8	8.46e-01	0	50	104	0	59	13404
2026-01-01 11:29:00.73	147.03	2.52	-43.9	-55.4	3.8	8.47e-01	0	50	104	0	59	13444
2026-01-01 11:29:01.74	147.01	2.59	-43.9	-55.3	3.8	8.46e-01	0	50	104	0	59	13375
2026-01-01 11:29:02.75	146.99	2.65	-43.9	-55.3	3.8	8.46e-01	0	50	104	0	59	13355
2026-01-01 11:29:03.76	146.98	2.72	-43.9	-55.4	3.8	8.46e-01	0	50	104	0	59	13423
2026-01-01 11:29:04.78	146.96	2.78	-43.9	-55.3	3.8	8.45e-01	0	50	104	0	59	13386
2026-01-01 11:29:05.79	146.94	2.85	-43.9	-55.3	3.8	8.46e-01	0	50	104	0	59	13338
2026-01-01 11:29:06.80	146.92	2.92	-43.9	-55.3	3.8	8.48e-01	0	50	104	0	59	13345
2026-01-01 11:29:07.81	146.90	2.98	-43.9	-55.3	3.8	8.47e-01	0	51	104	0	59	13407
2026-01-01 11:29:08.82	146.88	3.05	-43.9	-55.3	3.8	8.45e-01	0	51	104	0	59	13400
2026-01-01 11:29:09.83	146.86	3.12	-43.9	-55.4	3.8	8.45e-01	0	51	104	0	59	13457
2026-01-01 11:29:10.84	146.84	3.19	-43.9	-55.3	3.8	8.46e-01	0	51	104	0	59	13409
2026-01-01 11:29:11.85	146.82	3.25	-43.9	-55.3	3.8	8.47e-01	0	51	104	0	59	13413
2026-01-01 11:29:12.86	146.81	3.32	-43.9	-55.3	3.8	8.46e-01	0	51	104	0	59	13399
2026-01-01 11:29:13.87	146.79	3.39	-43.9	-55.3	3.8	8.46e-01	0	51	104	0	59	13361
2026-01-01 11:29:14.88	146.77	3.46	-43.9	-55.3	3.8	8.46e-01	0	51	104	0	59	13409
2026-01-01 11:29:15.89	146.75	3.52	-43.9	-55.3	3.8	8.46e-01	0	51	104	0	59	13389
2026-01-01 11:29:16.90	146.73	3.59	-43.9	-55.3	3.8	8.46e-01	0	51	104	0	59	13362
2026-01-01 11:29:17.92	146.71	3.66	-43.9	-55.3	3.8	8.46e-01	0	51	104	0	59	13386
2026-01-01 11:29:18.93	146.69	3.73	-43.9	-55.3	3.8	8.47e-01	0	51	104	0	59	13376
2026-01-01 11:29:19.94	146.67	3.80	-43.9	-55.4	3.8	8.46e-01	0	51	104	0	59	13443
2026-01-01 11:29:20.95	146.65	3.87	-43.9	-55.3	3.8	8.47e-01	0	51	104	0	59	13393
2026-01-01 11:29:21.96	146.63	3.94	-43.9	-55.4	3.8	8.46e-01	0	52	104	0	59	13415
2026-01-01 11:29:22.97	146.61	4.00	-43.9	-55.3	3.8	8.46e-01	0	52	104	0	59	13388
2026-01-01 11:29:23.98	146.59	4.07	-43.9	-55.3	3.8	8.46e-01	0	52	104	0	59	13397
2026-01-01 11:29:24.99	146.57	4.14	-43.9	-55.3	3.8	8.46e-01	0	52	104	0	59	13407
2026-01-01 11:29:26.00	146.54	4.21	-43.9	-55.3	3.8	8.46e-01	0	52	104	0	59	13381
2026-01-01 11:29:27.02	146.52	4.28	-43.9	-55.3	3.8	8.45e-01	0	52	104	0	59	13411
2026-01-01 11:29:28.03	146.50	4.35	-43.9	-55.3	3.8	8.45e-01	0	52	104	0	59	13402
2026-01-01 11:29:29.04	146.48	4.42	-43.9	-55.3	3.8	8.47e-01	0	52	104	0	59	13413
2026-01-01 11:29:30.05	146.46	4.49	-43.9	-55.3	3.8	8.45e-01	0	52	104	0	59	13351
2026-01-01 11:29:31.06	146.44	4.56	-43.9	-55.3	3.8	8.47e-01	0	52	104	0	59	13376
2026-01-01 11:29:32.07	146.42	4.63	-43.9	-55.3	3.8	8.46e-01	0	52	104	0	59	13344
2026-01-01 11:29:33.08	146.40	4.71	-43.9	-55.3	3.8	8.46e-01	0	52	104	0	59	13297
2026-01-01 11:29:34.09	146.38	4.78	-43.9	-55.3	3.8	8.46e-01	0	52	104	0	59	13326
2026-01-01 11:29:35.10	146.35	4.85	-43.9	-55.3	3.8	8.45e-01	0	52	104	0	59	13302
2026-01-01 11:29:36.11	146.33	4.92	-43.9	-55.3	3.8	8.47e-01	0	52	104	0	59	13324
2026-01-01 11:29:37.12	146.31	4.99	-43.9	-55.3	3.8	8.46e-01	0	52	104	0	59	13369
2026-01-01 11:29:38.13	146.29	5.06	-43.9	-55.3	3.8	8.48e-01	0	52	104	0	59	13362
2026-01-01 11:29:39.15	146.27	5.14	-43.9	-55.3	3.8	8.46e-01	0	53	104	0	59	13388
2026-01-01 11:29:40.16	146.24	5.21	-43.9	-55.4	3.8	8.45e-01	0	53	104	0	59	13423
2026-01-01 11:29:41.17	146.22	5.28	-43.9	-55.3	3.8	8.45e-01	0	53	104	0	59	13373
2026-01-01 11:29:42.18	146.20	5.35	-43.9	-55.3	3.8	8.45e-01	0	53	104	0	59	13306
2026-01-01 11:29:43.19	146.18	5.43	-43.9	-55.3	3.8	8.45e-01	0	52	104	0	59	13284
2026-01-01 11:29:44.20	146.15	5.50	-43.9	-55.2	3.8	8.48e-01	0	53	104	0	59	13229
2026-01-01 11:29:45.21	146.13	5.57	-43.9	-55.2	3.8	8.46e-01	0	53	104	0	59	13233
2026-01-01 11:29:46.22	146.11	5.65	-43.9	-55.1	3.8	8.46e-01	0	53	104	0	59	13041
2026-01-01 11:29:47.23	146.08	5.72	-43.8	-55.0	3.8	8.46e-01	0	53	104	0	59	12904
2026-01-01 11:29:48.25	146.06	5.79	-43.8	-55.0	3.8	8.46e-01	0	53	104	0	59	12861
2026-01-01 11:29:49.26	146.04	5.87	-43.8	-54.9	3.8	8.46e-01	0	53	104	0	59	12702
2026-01-01 11:29:50.27	146.01	5.94	-43.8	-54.6	3.8	8.46e-01	0	53	104	0	59	12354
2026-01-01 11:29:51.28	145.99	6.02	-43.8	-54.5	3.8	8.46e-01	0	53	104	0	59	12166
2026-01-01 11:29:52.29	145.97	6.09	-43.8	-54.4	3.8	8.45e-01	0	53	104	0	59	12033
2026-01-01 11:29:53.30	145.94	6.17	-43.7	-54.1	3.8	8.46e-01	0	53	104	0	59	11647
2026-01-01 11:29:54.31	145.92	6.24	-43.7	-54.1	3.8	8.45e-01	0	53	104	0	59	11635
2026-01-01 11:29:55.32	145.89	6.32	-43.7	-53.9	3.8	8.46e-01	0	53	104	0	59	11387
2026-01-01 11:29:56.33	145.87	6.39	-43.7	-53.9	3.8	8.45e-01	0	53	104	0	59	11366
2026-01-01 11:29:57.34	145.84	6.47	-43.7	-53.8	3.8	8.45e-01	0	53	104	0	59	11232
2026-01-01 11:29:58.36	145.82	6.54	-43.7	-53.6	3.8	8.45e-01	0	53	104	0	59	10979
2026-01-01 11:29:59.37	145.80	6.62	-43.6	-53.4	3.8	8.45e-01	0	53	104	0	59	10703
2026-01-01 11:30:00.38	145.77	6.70	-43.6	-52.8	4.0	8.45e-01	0	53	104	0	59	10034
2026-01-01 11:30:01.39	145.75	6.77	-43.4	-52.0	4.1	8.42e-01	0	54	104	0	58	9663
2026-01-01 11:30:02.40	145.72	6.85	-43.3	-51.0	4.4	8.31e-01	0	53	0	0	58	8587
2026-01-01 11:30:03.41	145.69	6.93	-43.0	-49.8	5.0	8.02e-01	0	54	0	0	58	7480
2026-01-01 11:30:04.42	145.67	7.00	-42.7	-48.7	5.7	6.76e-01	0	54	0	0	57	6989
2026-01-01 11:30:05.43	145.64	7.08	-42.2	-47.4	6.6	3.14e-01	0	54	0	5242880	56	6396
2026-01-01 11:30:06.44	145.62	7.16	-41.7	-46.2	7.6	1.29e-01	0	54	0	11534336	55	5895
2026-01-01 11:30:07.46	145.59	7.24	-41.1	-45.1	8.7	5.93e-02	0	54	0	16777216	54	5483
2026-01-01 11:30:08.47	145.57	7.32	-40.6	-44.0	9.8	1.56e-02	0	54	0	23068672	53	5140
2026-01-01 11:30:09.48	145.54	7.39	-40.1	-43.2	10.7	6.60e-03	0	54	0	28311552	52	4938
2026-01-01 11:30:10.49	145.51	7.47	-39.6	-42.4	11.5	1.48e-03	0	54	0	33554432	51	4806
2026-01-01 11:30:11.50	145.49	7.55	-39.1	-41.6	12.4	3.80e-04	0	54	0	39845888	50	4650
2026-01-01 11:30:12.51	145.46	7.63	-38.5	-40.8	13.2	5.14e-05	0	54	0	45088768	49	4479
2026-01-01 11:30:13.52	145.43	7.71	-38.0	-40.1	13.9	1.48e-05	0	54	0	51380224	48	4379
2026-01-01 11:30:14.53	145.41	7.79	-37.5	-39.5	14.4	1.10e-06	0	54	0	56623104	46	4578
2026-01-01 11:30:15.54	145.38	7.87	-37.1	-39.1	14.8	1.10e-06	0	54	0	61865984	46	4343
2026-01-01 11:30:16.55	145.35	7.95	-36.8	-38.7	15.2	0.00e+00	0	54	0	68157440	45	4423
2026-01-01 11:30:17.56	145.32	8.03	-36.6	-38.4	15.5	0.00e+00	0	54	0	73400320	45	4274
2026-01-01 11:30:18.58	145.30	8.11	-43.8	-53.2	4.0	0.00e+00	0	54	0	78643200	58	11129
2026-01-01 11:30:19.59	145.27	8.19	-43.9	-53.6	3.8	8.46e-01	0	54	104	78643200	59	10930
2026-01-01 11:30:20.60	145.24	8.27	-36.4	-38.1	15.8	2.53e-02	0	54	0	81788928	44	4378
2026-01-01 11:30:21.61	145.21	8.36	-38.7	-41.1	13.0	4.54e-04	0	54	0	87031808	49	4636
2026-01-01 11:30:22.62	145.18	8.44	-36.4	-38.1	15.8	2.86e-03	0	54	0	93323264	44	4389
2026-01-01 11:30:23.63	145.15	8.52	-36.8	-38.7	15.2	1.10e-06	0	54	0	98566144	45	4410
2026-01-01 11:30:24.64	145.13	8.60	-36.1	-37.8	16.0	0.00e+00	0	54	0	103809024	44	4232
2026-01-01 11:30:25.65	145.10	8.68	-36.1	-37.8	16.0	0.00e+00	0	55	0	110100480	44	4225
2026-01-01 11:30:26.66	145.07	8.77	-36.1	-37.8	16.1	0.00e+00	0	54	0	115343360	44	4211
2026-01-01 11:30:27.67	145.04	8.85	-36.0	-37.7	16.1	0.00e+00	0	54	0	121634816	44	4193
2026-01-01 11:30:28.68	145.01	8.93	-36.0	-37.7	16.1	0.00e+00	0	54	0	126877696	44	4180
2026-01-01 11:30:29.69	144.98	9.02	-35.8	-37.5	16.2	0.00e+00	0	54	0	132120576	43	4304
2026-01-01 11:30:30.70	144.95	9.10	-35.7	-37.4	16.4	0.00e+00	0	54	0	138412032	43	4245
2026-01-01 11:30:31.71	144.92	9.18	-35.7	-37.3	16.4	0.00e+00	0	54	0	143654912	43	4237
2026-01-01 11:30:32.72	144.89	9.27	-35.6	-37.2	16.5	0.00e+00	0	54	0	149946368	43	4166
2026-01-01 11:30:33.73	144.86	9.35	-35.5	-37.2	16.6	0.00e+00	0	55	0	155189248	43	4147
2026-01-01 11:30:34.75	144.83	9.44	-35.5	-37.2	16.6	0.00e+00	0	54	0	161480704	43	4163
2026-01-01 11:30:35.76	144.80	9.52	-35.5	-37.1	16.6	0.00e+00	0	54	0	166723584	43	4142
2026-01-01 11:30:36.77	144.77	9.61	-35.5	-37.1	16.6	0.00e+00	0	55	0	173015040	43	4133
2026-01-01 11:30:37.78	144.73	9.69	-35.5	-37.1	16.7	0.00e+00	0	55	0	178257920	42	4373
2026-01-01 11:30:38.79	144.70	9.78	-35.5	-37.1	16.7	0.00e+00	0	55	0	183500800	42	4374
2026-01-01 11:30:39.80	144.67	9.87	-35.5	-37.1	16.7	0.00e+00	0	55	0	189792256	42	4373
2026-01-01 11:30:40.81	144.64	9.95	-35.4	-37.1	16.8	0.00e+00	0	55	0	195035136	42	4342
2026-01-01 11:30:41.82	144.61	10.04	-35.4	-37.0	16.9	0.00e+00	0	55	0	201326592	42	4306
2026-01-01 11:30:42.83	144.58	10.13	-35.4	-37.0	16.9	0.00e+00	0	55	0	206569472	42	4299
2026-01-01 11:30:43.84	144.54	10.21	-35.3	-36.9	17.0	0.00e+00	0	55	0	211812352	42	4274
2026-01-01 11:30:44.85	144.51	10.30	-35.3	-36.9	17.0	0.00e+00	0	55	0	218103808	42	4267
2026-01-01 11:30:45.86	144.48	10.39	-35.4	-36.9	16.9	0.00e+00	0	55	0	223346688	42	4291
2026-01-01 11:30:46.87	144.45	10.48	-35.3	-36.9	17.0	0.00e+00	0	55	0	229638144	42	4277
2026-01-01 11:30:47.88	144.41	10.57	-35.3	-36.9	17.0	0.00e+00	0	55	0	234881024	42	4277
2026-01-01 11:30:48.89	144.38	10.66	-35.3	-36.9	17.0	0.00e+00	0	55	0	240123904	42	4267
2026-01-01 11:30:49.90	144.34	10.75	-35.3	-36.9	17.0	0.00e+00	0	55	0	246415360	42	4254
2026-01-01 11:30:50.91	144.31	10.84	-35.2	-36.8	17.1	0.00e+00	0	55	0	251658240	42	4230
2026-01-01 11:30:51.92	144.28	10.93	-35.2	-36.7	17.2	0.00e+00	0	55	0	257949696	42	4188
2026-01-01 11:30:52.93	144.24	11.02	-35.2	-36.7	17.2	0.00e+00	0	55	0	263192576	42	4190
2026-01-01 11:30:53.94	144.21	11.11	-35.1	-36.7	17.3	0.00e+00	0	55	0	269484032	42	4149
2026-01-01 11:30:54.95	144.17	11.20	-35.1	-36.7	17.3	0.00e+00	0	55	0	274726912	42	4165
2026-01-01 11:30:55.95	144.14	11.29	-35.1	-36.7	17.3	0.00e+00	0	55	0	281018368	42	4159
2026-01-01 11:30:56.96	144.10	11.38	-35.2	-36.7	17.2	0.00e+00	0	55	0	286261248	42	4187
2026-01-01 11:30:57.97	144.07	11.47	-35.1	-36.7	17.3	0.00e+00	0	55	0	291504128	42	4150
2026-01-01 11:30:58.98	144.03	11.56	-35.1	-36.6	17.4	0.00e+00	0	55	0	297795584	42	4125
2026-01-01 11:30:59.99	144.00	11.66	-35.0	-36.6	17.4	0.00e+00	0	55	0	303038464	42	4116
2026-01-01 11:31:01.00	143.96	11.75	-35.0	-36.5	17.5	0.00e+00	0	55	0	309329920	42	4077
2026-01-01 11:31:02.01	143.92	11.84	-34.9	-36.5	17.5	0.00e+00	0	55	0	314572800	41	4302
2026-01-01 11:31:03.02	143.89	11.94	-34.9	-36.5	17.6	0.00e+00	0	55	0	319815680	41	4294
2026-01-01 11:31:04.04	143.85	12.03	-34.9	-36.4	17.6	0.00e+00	0	55	0	326107136	41	4275
2026-01-01 11:31:05.05	143.81	12.12	-34.9	-36.4	17.6	0.00e+00	0	55	0	331350016	41	4271
2026-01-01 11:31:06.06	143.77	12.22	-34.9	-36.4	17.6	0.00e+00	0	55	0	337641472	41	4250
2026-01-01 11:31:07.07	143.74	12.31	-34.8	-36.4	17.7	0.00e+00	0	55	0	342884352	41	4250
2026-01-01 11:31:08.08	143.70	12.41	-34.8	-36.3	17.7	0.00e+00	0	55	0	348127232	41	4226
2026-01-01 11:31:09.09	143.66	12.51	-34.8	-36.3	17.7	0.00e+00	0	55	0	354418688	41	4225
2026-01-01 11:31:10.10	143.62	12.60	-34.8	-36.3	17.8	0.00e+00	0	55	0	359661568	41	4200
2026-01-01 11:31:11.11	143.58	12.70	-34.7	-36.2	17.8	0.00e+00	0	55	0	365953024	41	4183
2026-01-01 11:31:12.12	143.54	12.79	-34.7	-36.2	17.8	0.00e+00	0	55	0	371195904	41	4156
2026-01-01 11:31:13.13	143.50	12.89	-34.7	-36.2	17.8	0.00e+00	0	55	0	377487360	41	4185
2026-01-01 11:31:14.14	143.46	12.99	-34.7	-36.2	17.8	0.00e+00	0	55	0	382730240	41	4178
2026-01-01 11:31:15.15	143.42	13.09	-34.7	-36.2	17.9	0.00e+00	0	56	0	389021696	41	4153
2026-01-01 11:31:16.16	143.38	13.19	-34.6	-36.1	18.0	0.00e+00	0	55	0	394264576	41	4111
2026-01-01 11:31:17.17	143.34	13.28	-34.6	-36.1	18.0	0.00e+00	0	55	0	399507456	41	4103
2026-01-01 11:31:18.18	143.30	13.38	-34.5	-36.0	18.1	0.00e+00	0	56	0	405798912	41	4065
2026-01-01 11:31:19.19	143.26	13.48	-34.5	-35.9	18.1	0.00e+00	0	56	0	411041792	40	4273
2026-01-01 11:31:20.20	143.22	13.58	-34.4	-35.9	18.2	0.00e+00	0	55	0	417333248	40	4244
2026-01-01 11:31:21.21	143.18	13.68	-34.4	-35.8	18.2	0.00e+00	0	56	0	422576128	40	4242
2026-01-01 11:31:22.22	143.14	13.78	-34.4	-35.8	18.2	0.00e+00	0	56	0	427819008	40	4231
2026-01-01 11:31:23.23	143.09	13.89	-34.4	-35.8	18.2	0.00e+00	0	56	0	434110464	40	4232
2026-01-01 11:31:24.24	143.05	13.99	-34.4	-35.8	18.3	0.00e+00	0	56	0	439353344	40	4209
2026-01-01 11:31:25.25	143.01	14.09	-34.3	-35.8	18.3	0.00e+00	0	56	0	445644800	40	4198
2026-01-01 11:31:26.26	142.97	14.19	-34.3	-35.7	18.4	0.00e+00	0	56	0	450887680	40	4150
2026-01-01 11:31:27.27	142.92	14.29	-34.3	-35.7	18.4	0.00e+00	0	56	0	456130560	40	4152
2026-01-01 11:31:28.29	142.88	14.40	-34.3	-35.7	18.4	0.00e+00	0	56	0	462422016	40	4149
2026-01-01 11:31:29.30	142.83	14.50	-34.2	-35.6	18.5	0.00e+00	0	56	0	467664896	40	4129
2026-01-01 11:31:30.31	142.79	14.61	-34.2	-35.6	18.5	0.00e+00	0	56	0	473956352	40	4109
2026-01-01 11:31:31.31	142.75	14.71	-34.2	-35.6	18.5	0.00e+00	0	56	0	479199232	40	4102
2026-01-01 11:31:32.32	142.70	14.81	-34.2	-35.6	18.5	0.00e+00	0	56	0	485490688	40	4122
2026-01-01 11:31:33.33	142.65	14.92	-34.2	-35.6	18.5	0.00e+00	0	56	0	490733568	40	4114
2026-01-01 11:31:34.34	142.61	15.03	-34.1	-35.5	18.6	0.00e+00	0	56	0	495976448	40	4085
2026-01-01 11:31:35.35	142.56	15.13	-34.1	-35.5	18.6	0.00e+00	0	56	0	502267904	40	4075
2026-01-01 11:31:36.36	142.52	15.24	-34.1	-35.5	18.6	0.00e+00	0	56	0	507510784	40	4060
2026-01-01 11:31:37.38	142.47	15.35	-34.0	-35.4	18.7	0.00e+00	0	56	0	513802240	40	4038
2026-01-01 11:31:38.39	142.42	15.45	-34.0	-35.4	18.7	0.00e+00	0	56	0	519045120	40	4019
2026-01-01 11:31:39.40	142.37	15.56	-34.0	-35.4	18.8	0.00e+00	0	56	0	524288000	40	4005
2026-01-01 11:31:40.41	142.33	15.67	-34.0	-35.3	18.8	0.00e+00	0	56	0	530579456	39	4240
2026-01-01 11:31:41.42	142.28	15.78	-34.0	-35.3	18.9	0.00e+00	0	56	0	535822336	39	4229
2026-01-01 11:31:42.42	142.23	15.89	-33.8	-35.2	19.0	0.00e+00	0	56	0	542113792	39	4166
2026-01-01 11:31:43.43	142.18	16.00	-33.8	-35.1	19.0	0.00e+00	0	56	0	547356672	39	4136
2026-01-01 11:31:44.44	142.13	16.11	-33.7	-35.0	19.2	0.00e+00	0	56	0	552599552	39	4083
2026-01-01 11:31:45.45	142.08	16.22	-33.7	-35.0	19.2	0.00e+00	0	56	0	558891008	39	4070
2026-01-01 11:31:46.46	142.03	16.33	-33.6	-34.9	19.3	0.00e+00	0	56	0	564133888	39	4049
2026-01-01 11:31:47.47	141.98	16.44	-33.5	-34.8	19.3	0.00e+00	0	56	0	570425344	39	4004
2026-01-01 11:31:48.48	141.93	16.55	-33.5	-34.8	19.4	0.00e+00	0	56	0	575668224	39	3988
2026-01-01 11:31:49.49	141.88	16.67	-33.5	-34.8	19.4	0.00e+00	0	56	0	581959680	39	3983
2026-01-01 11:31:50.51	141.83	16.78	-33.5	-34.8	19.4	0.00e+00	0	56	0	587202560	38	4213
2026-01-01 11:31:51.52	141.77	16.89	-33.5	-34.8	19.4	0.00e+00	0	56	0	593494016	38	4210
2026-01-01 11:31:52.53	141.72	17.01	-33.4	-34.7	19.4	0.00e+00	0	56	0	598736896	38	4177
2026-01-01 11:31:53.54	141.67	17.12	-33.4	-34.7	19.5	0.00e+00	0	56	0	603979776	38	4188
2026-01-01 11:31:54.55	141.61	17.24	-33.4	-34.7	19.4	0.00e+00	0	56	0	610271232	38	4168
2026-01-01 11:31:55.56	141.56	17.36	-33.4	-34.7	19.5	0.00e+00	0	56	0	615514112	38	4165
2026-01-01 11:31:56.57	141.51	17.47	-33.4	-34.7	19.6	0.00e+00	0	56	0	621805568	38	4146
2026-01-01 11:31:57.58	141.45	17.59	-33.4	-34.7	19.6	0.00e+00	0	56	0	627048448	38	4150
2026-01-01 11:31:58.59	141.40	17.71	-33.3	-34.6	19.6	0.00e+00	0	56	0	632291328	38	4138
2026-01-01 11:31:59.60	141.34	17.82	-33.3	-34.6	19.6	0.00e+00	0	56	0	638582784	38	4138
2026-01-01 11:32:00.61	141.28	17.94	-33.3	-34.6	19.6	0.00e+00	0	56	0	643825664	38	4119
2026-01-01 11:32:01.62	141.23	18.06	-33.3	-34.6	19.5	0.00e+00	0	56	0	650117120	38	4125
2026-01-01 11:32:02.63	141.17	18.18	-33.3	-34.6	19.7	0.00e+00	0	56	0	655360000	38	4102
2026-01-01 11:32:03.64	141.11	18.30	-33.2	-34.5	19.7	0.00e+00	0	56	0	660602880	38	4092
2026-01-01 11:32:04.65	141.05	18.42	-33.2	-34.5	19.7	0.00e+00	0	56	0	666894336	38	4081
2026-01-01 11:32:05.66	141.00	18.54	-33.2	-34.5	19.7	0.00e+00	0	56	0	672137216	38	4069
2026-01-01 11:32:06.67	140.94	18.66	-33.2	-34.5	19.7	0.00e+00	0	56	0	678428672	38	4057
2026-01-01 11:32:07.68	140.88	18.79	-33.2	-34.5	19.7	0.00e+00	0	56	0	683671552	38	4069
2026-01-01 11:32:08.69	140.82	18.91	-33.2	-34.5	19.7	0.00e+00	0	56	0	689963008	38	4053
2026-01-01 11:32:09.70	140.76	19.03	-33.2	-34.5	19.7	0.00e+00	0	56	0	695205888	38	4061
2026-01-01 11:32:10.71	140.70	19.16	-33.2	-34.5	19.7	0.00e+00	0	56	0	701497344	38	4055
2026-01-01 11:32:11.73	140.63	19.28	-33.1	-34.4	19.8	0.00e+00	0	56	0	706740224	38	4031
2026-01-01 11:32:12.74	140.57	19.41	-33.1	-34.4	19.7	0.00e+00	0	56	0	711983104	38	4040
2026-01-01 11:32:13.75	140.51	19.53	-33.1	-34.3	19.8	0.00e+00	0	56	0	718274560	38	4003
2026-01-01 11:32:14.76	140.45	19.66	-33.1	-34.4	19.8	0.00e+00	0	56	0	723517440	38	4006
2026-01-01 11:32:15.77	140.38	19.79	-33.1	-34.4	19.8	0.00e+00	0	57	0	729808896	38	4028
2026-01-01 11:32:16.78	140.32	19.92	-33.1	-34.4	19.8	0.00e+00	0	57	0	735051776	38	4014
2026-01-01 11:32:17.79	140.25	20.04	-33.1	-34.4	19.8	0.00e+00	0	56	0	740294656	38	4014
2026-01-01 11:32:18.80	140.19	20.17	-33.1	-34.4	19.8	0.00e+00	0	56	0	746586112	38	4010
2026-01-01 11:32:19.81	140.12	20.30	-33.0	-34.3	19.8	0.00e+00	0	56	0	751828992	38	4000
2026-01-01 11:32:20.82	140.05	20.43	-33.0	-34.3	19.9	0.00e+00	0	56	0	758120448	38	3982
2026-01-01 11:32:21.83	139.99	20.56	-33.0	-34.3	19.9	0.00e+00	0	56	0	763363328	38	3982
2026-01-01 11:32:22.84	139.92	20.70	-33.0	-34.3	19.9	0.00e+00	0	57	0	768606208	38	3967
2026-01-01 11:32:23.85	139.85	20.83	-32.9	-34.2	19.9	0.00e+00	0	57	0	774897664	37	4188
2026-01-01 11:32:24.86	139.78	20.96	-32.9	-34.2	19.9	0.00e+00	0	56	0	780140544	37	4191
2026-01-01 11:32:25.87	139.71	21.09	-32.9	-34.2	19.9	0.00e+00	0	57	0	786432000	37	4164
2026-01-01 11:32:26.88	139.64	21.23	-32.9	-34.2	20.0	0.00e+00	0	56	0	791674880	37	4151
2026-01-01 11:32:27.89	139.57	21.36	-32.8	-34.1	20.1	0.00e+00	0	57	0	797966336	37	4134
2026-01-01 11:32:28.90	139.50	21.50	-32.8	-34.1	20.1	0.00e+00	0	57	0	803209216	37	4116
2026-01-01 11:32:29.91	139.43	21.63	-32.8	-34.1	20.1	0.00e+00	0	57	0	809500672	37	4111
2026-01-01 11:32:30.92	139.36	21.77	-32.8	-34.1	20.1	0.00e+00	0	56	0	814743552	37	4123
2026-01-01 11:32:31.93	139.28	21.91	-32.7	-34.0	20.1	0.00e+00	0	57	0	819986432	37	4084
2026-01-01 11:32:32.95	139.21	22.05	-32.7	-34.0	20.1	0.00e+00	0	57	0	826277888	37	4085
2026-01-01 11:32:33.95	139.13	22.19	-32.7	-33.9	20.2	0.00e+00	0	57	0	831520768	37	4048
2026-01-01 11:32:34.97	139.06	22.33	-32.6	-33.9	20.3	0.00e+00	0	57	0	837812224	37	4015
2026-01-01 11:32:35.98	138.98	22.47	-32.6	-33.8	20.4	0.00e+00	0	57	0	843055104	37	3997
2026-01-01 11:32:36.99	138.90	22.61	-32.6	-33.8	20.4	0.00e+00	0	57	0	848297984	37	3986
2026-01-01 11:32:38.00	138.83	22.75	-32.5	-33.8	20.4	0.00e+00	0	57	0	854589440	37	3969
2026-01-01 11:32:39.01	138.75	22.89	-32.5	-33.8	20.4	0.00e+00	0	57	0	859832320	37	3967
2026-01-01 11:32:40.02	138.67	23.04	-32.5	-33.7	20.5	0.00e+00	0	57	0	866123776	36	4175
2026-01-01 11:32:41.03	138.59	23.18	-32.4	-33.7	20.6	0.00e+00	0	57	0	871366656	36	4150
2026-01-01 11:32:42.04	138.51	23.33	-32.4	-33.6	20.6	0.00e+00	0	57	0	876609536	36	4145
2026-01-01 11:32:43.05	138.43	23.47	-32.4	-33.6	20.6	0.00e+00	0	57	0	882900992	36	4121
2026-01-01 11:32:44.06	138.34	23.62	-32.3	-33.6	20.6	0.00e+00	0	57	0	888143872	36	4103
2026-01-01 11:32:45.07	138.26	23.76	-32.3	-33.5	20.7	0.00e+00	0	57	0	894435328	36	4095
2026-01-01 11:32:46.08	138.18	23.91	-32.3	-33.5	20.7	0.00e+00	0	57	0	899678208	36	4066
2026-01-01 11:32:47.09	138.09	24.06	-32.2	-33.4	20.8	0.00e+00	0	57	0	905969664	36	4025
2026-01-01 11:32:48.10	138.01	24.21	-32.1	-33.3	20.9	0.00e+00	0	57	0	911212544	36	3998
2026-01-01 11:32:49.10	137.92	24.36	-32.1	-33.3	21.0	0.00e+00	0	57	0	917504000	36	3959
2026-01-01 11:32:50.11	137.83	24.51	-32.1	-33.3	20.9	0.00e+00	0	57	0	922746880	36	3982
2026-01-01 11:32:51.12	137.75	24.66	-32.1	-33.3	20.9	0.00e+00	0	57	0	927989760	36	3976
2026-01-01 11:32:52.14	137.66	24.82	-32.1	-33.3	20.9	0.00e+00	0	57	0	934281216	36	3974
2026-01-01 11:32:53.14	137.57	24.97	-32.0	-33.2	21.0	0.00e+00	0	57	0	939524096	36	3945
2026-01-01 11:32:54.16	137.48	25.12	-31.4	-32.6	20.9	0.00e+00	0	57	0	945815552	34	4113
2026-01-01 11:32:55.17	137.38	25.28	-31.3	-32.6	20.9	0.00e+00	0	57	0	951058432	34	4105
2026-01-01 11:32:56.18	137.29	25.43	-31.3	-32.5	20.9	0.00e+00	0	57	0	956301312	34	4076
2026-01-01 11:32:57.19	137.20	25.59	-31.3	-32.5	20.9	0.00e+00	0	57	0	962592768	34	4066
2026-01-01 11:32:58.20	137.10	25.75	-31.2	-32.5	20.9	0.00e+00	0	57	0	967835648	34	4062
2026-01-01 11:32:59.21	137.01	25.91	-31.2	-32.4	20.9	0.00e+00	0	57	0	974127104	34	4049
2026-01-01 11:33:00.22	136.91	26.07	-31.2	-32.4	21.0	0.00e+00	0	57	0	979369984	34	4031
2026-01-01 11:33:01.23	136.81	26.23	-31.2	-32.4	20.9	0.00e+00	0	57	0	984612864	34	4032
2026-01-01 11:33:02.24	136.72	26.39	-31.3	-32.5	20.9	0.00e+00	0	57	0	990904320	34	4058
2026-01-01 11:33:03.25	136.62	26.55	-31.3	-32.5	20.9	0.00e+00	0	57	0	996147200	34	4076
2026-01-01 11:33:04.27	136.52	26.71	-31.3	-32.6	20.8	0.00e+00	0	57	0	1002438656	34	4103
2026-01-01 11:33:05.28	136.41	26.88	-31.4	-32.6	20.8	0.00e+00	0	57	0	1007681536	34	4113
2026-01-01 11:33:06.29	136.31	27.04	-31.4	-32.6	20.8	0.00e+00	0	57	0	1013972992	34	4118
2026-01-01 11:33:07.29	136.21	27.20	-31.3	-32.5	20.9	0.00e+00	0	57	0	1019215872	34	4097
2026-01-01 11:33:08.30	136.10	27.37	-31.3	-32.5	20.9	0.00e+00	0	57	0	1025507328	34	4072
2026-01-01 11:33:09.31	136.00	27.54	-31.3	-32.5	20.9	0.00e+00	0	57	0	1030750208	34	4070
2026-01-01 11:33:10.32	135.89	27.71	-31.3	-32.5	21.0	0.00e+00	0	57	0	1035993088	34	4057
2026-01-01 11:33:11.33	135.78	27.87	-31.2	-32.5	21.0	0.00e+00	0	57	0	1042284544	34	4055
2026-01-01 11:33:12.34	135.67	28.04	-31.2	-32.4	21.0	0.00e+00	0	57	0	1047527424	34	4034
2026-01-01 11:33:13.36	135.56	28.22	-31.2	-32.4	21.0	0.00e+00	0	57	0	1053818880	34	4042
2026-01-01 11:33:14.36	135.45	28.39	-31.2	-32.4	21.0	0.00e+00	0	57	0	1059061760	34	4024
2026-01-01 11:33:15.38	135.34	28.56	-31.2	-32.4	21.0	0.00e+00	0	57	0	1064304640	34	4022
2026-01-01 11:33:16.39	135.22	28.73	-31.1	-32.3	21.1	0.00e+00	0	57	0	1070596096	34	3993
2026-01-01 11:33:17.40	135.11	28.91	-31.1	-32.3	21.1	0.00e+00	0	57	0	1075838976	34	3994
2026-01-01 11:33:18.41	134.99	29.08	-31.1	-32.3	21.1	0.00e+00	0	57	0	1082130432	34	3975
2026-01-01 11:33:19.42	134.87	29.26	-31.1	-32.3	21.1	0.00e+00	0	57	0	1087373312	34	3978
2026-01-01 11:33:20.43	134.75	29.44	-31.1	-32.3	21.1	0.00e+00	0	57	0	1092616192	34	3994
2026-01-01 11:33:21.44	134.63	29.62	-31.2	-32.4	21.0	0.00e+00	0	57	0	1098907648	34	4022
2026-01-01 11:33:22.45	134.51	29.80	-31.2	-32.4	21.0	0.00e+00	0	57	0	1104150528	34	4051
2026-01-01 11:33:23.46	134.38	29.98	-31.2	-32.4	21.0	0.00e+00	0	57	0	1110441984	34	4025
2026-01-01 11:33:24.47	134.26	30.16	-31.1	-32.3	21.1	0.00e+00	0	57	0	1115684864	34	3969
2026-01-01 11:33:25.48	134.13	30.34	-30.9	-32.1	21.3	0.00e+00	0	57	0	1121976320	33	4116
2026-01-01 11:33:26.49	134.00	30.52	-30.8	-32.0	21.4	0.00e+00	0	57	0	1127219200	33	4074
2026-01-01 11:33:27.50	133.87	30.71	-30.8	-32.0	21.4	0.00e+00	0	57	0	1133510656	33	4073
2026-01-01 11:33:28.51	133.74	30.89	-30.8	-32.0	21.4	0.00e+00	0	57	0	1138753536	33	4056
2026-01-01 11:33:29.52	133.61	31.08	-30.8	-32.0	21.4	0.00e+00	0	57	0	1143996416	33	4065
2026-01-01 11:33:30.53	133.48	31.27	-30.8	-32.0	21.4	0.00e+00	0	57	0	1150287872	33	4067
2026-01-01 11:33:31.55	133.34	31.46	-30.8	-32.0	21.4	0.00e+00	0	57	0	1155530752	33	4073
2026-01-01 11:33:32.55	133.20	31.65	-30.8	-32.0	21.3	0.00e+00	0	57	0	1161822208	33	4085
2026-01-01 11:33:33.56	133.06	31.84	-30.9	-32.1	21.3	0.00e+00	0	57	0	1167065088	33	4112
2026-01-01 11:33:34.57	132.92	32.03	-30.9	-32.1	21.3	0.00e+00	0	57	0	1172307968	33	4116
2026-01-01 11:33:35.58	132.78	32.22	-30.9	-32.1	21.3	0.00e+00	0	57	0	1178599424	33	4138
2026-01-01 11:33:36.59	132.64	32.41	-31.0	-32.2	21.2	0.00e+00	0	57	0	1183842304	33	4161
2026-01-01 11:33:37.60	132.49	32.61	-31.0	-32.2	21.2	0.00e+00	0	57	0	1190133760	33	4170
2026-01-01 11:33:38.62	132.34	32.81	-31.0	-32.2	21.2	0.00e+00	0	57	0	1195376640	33	4191
2026-01-01 11:33:39.63	132.19	33.00	-31.1	-32.3	21.2	0.00e+00	0	57	0	1200619520	33	4202
2026-01-01 11:33:40.64	132.04	33.20	-31.0	-32.2	21.2	0.00e+00	0	57	0	1206910976	33	4166
2026-01-01 11:33:41.65	131.89	33.40	-31.0	-32.2	21.2	0.00e+00	0	57	0	1212153856	33	4163
2026-01-01 11:33:42.65	131.73	33.60	-30.9	-32.1	21.3	0.00e+00	0	57	0	1218445312	33	4125
2026-01-01 11:33:43.67	131.58	33.80	-30.8	-32.0	21.4	0.00e+00	0	57	0	1223688192	33	4092
2026-01-01 11:33:44.68	131.42	34.00	-30.8	-31.9	21.4	0.00e+00	0	57	0	1229979648	33	4051
2026-01-01 11:33:45.69	131.26	34.21	-30.7	-31.9	21.4	0.00e+00	0	57	0	1235222528	33	4031
2026-01-01 11:33:46.70	131.09	34.41	-30.7	-31.9	21.5	0.00e+00	0	57	0	1241513984	33	4030
2026-01-01 11:33:47.71	130.93	34.62	-30.7	-31.9	21.5	0.00e+00	0	57	0	1246756864	33	4027
2026-01-01 11:33:48.72	130.76	34.82	-30.7	-31.9	21.4	0.00e+00	0	57	0	1251999744	33	4047
2026-01-01 11:33:49.73	130.59	35.03	-30.7	-31.9	21.4	0.00e+00	0	57	0	1258291200	33	4038
2026-01-01 11:33:50.74	130.42	35.24	-30.7	-31.9	21.4	0.00e+00	0	57	0	1263534080	33	4031
2026-01-01 11:33:51.75	130.24	35.45	-30.7	-31.9	21.4	0.00e+00	0	57	0	1269825536	33	4033
2026-01-01 11:33:52.76	130.07	35.66	-30.6	-31.8	21.5	0.00e+00	0	57	0	1275068416	33	3991
2026-01-01 11:33:53.77	129.89	35.87	-30.6	-31.8	21.6	0.00e+00	0	57	0	1280311296	33	3965
2026-01-01 11:33:54.78	129.71	36.08	-30.5	-31.7	21.7	0.00e+00	0	57	0	1286602752	33	3937
2026-01-01 11:33:55.79	129.53	36.30	-30.6	-31.7	21.7	0.00e+00	0	57	0	1291845632	33	3943
2026-01-01 11:33:56.80	129.34	36.51	-30.6	-31.8	21.6	0.00e+00	0	57	0	1298137088	33	3963
2026-01-01 11:33:57.81	129.15	36.73	-30.7	-31.8	21.6	0.00e+00	0	57	0	1303379968	33	4000
2026-01-01 11:33:58.82	128.96	36.94	-30.8	-32.0	21.5	0.00e+00	0	57	0	1308622848	33	4058
2026-01-01 11:33:59.84	128.76	37.16	-30.8	-32.0	21.4	0.00e+00	0	57	0	1314914304	33	4073
2026-01-01 11:34:00.85	128.57	37.38	-30.8	-32.0	21.4	0.00e+00	0	57	0	1320157184	33	4066
2026-01-01 11:34:01.86	128.37	37.60	-30.8	-31.9	21.5	0.00e+00	0	57	0	1326448640	33	4043
2026-01-01 11:34:02.87	128.17	37.83	-30.8	-32.0	21.4	0.00e+00	0	57	0	1331691520	33	4079
2026-01-01 11:34:03.88	127.96	38.05	-30.9	-32.1	21.3	0.00e+00	0	57	0	1337982976	33	4124
2026-01-01 11:34:04.89	127.76	38.27	-30.9	-32.1	21.4	0.00e+00	0	57	0	1343225856	33	4108
2026-01-01 11:34:05.89	127.55	38.49	-30.9	-32.0	21.4	0.00e+00	0	57	0	1348468736	33	4092
2026-01-01 11:34:06.91	127.33	38.72	-30.7	-31.9	21.6	0.00e+00	0	57	0	1354760192	33	4021
2026-01-01 11:34:07.92	127.12	38.95	-30.7	-31.9	21.6	0.00e+00	0	57	0	1360003072	33	4009
2026-01-01 11:34:08.93	126.90	39.18	-30.8	-31.9	21.6	0.00e+00	0	57	0	1366294528	33	4033
2026-01-01 11:34:09.94	126.67	39.40	-30.9	-32.1	21.5	0.00e+00	0	57	0	1371537408	33	4104
2026-01-01 11:34:10.95	126.45	39.63	-31.0	-32.1	21.5	0.00e+00	0	57	0	1377828864	33	4136
2026-01-01 11:34:11.96	126.22	39.87	-30.9	-32.0	21.6	0.00e+00	0	57	0	1383071744	33	4095
2026-01-01 11:34:12.97	125.99	40.10	-30.9	-32.0	21.6	0.00e+00	0	57	0	1388314624	33	4086
2026-01-01 11:34:13.98	125.75	40.33	-30.9	-32.0	21.5	0.00e+00	0	57	0	1394606080	33	4087
2026-01-01 11:34:14.99	125.51	40.56	-31.0	-32.2	21.4	0.00e+00	0	57	0	1399848960	33	4147
2026-01-01 11:34:16.00	125.27	40.80	-31.1	-32.3	21.3	0.00e+00	0	57	0	1406140416	33	4207
2026-01-01 11:34:17.01	125.03	41.03	-31.1	-32.3	21.2	0.00e+00	0	57	0	1411383296	33	4230
2026-01-01 11:34:18.02	124.78	41.27	-31.2	-32.3	21.2	0.00e+00	0	57	0	1416626176	33	4240
2026-01-01 11:34:19.03	124.52	41.51	-31.3	-32.5	21.0	0.00e+00	0	57	0	1422917632	33	4331
2026-01-01 11:34:20.04	124.27	41.74	-31.4	-32.7	20.9	0.00e+00	0	57	0	1428160512	33	4405
2026-01-01 11:34:21.05	124.00	41.98	-31.5	-32.8	20.8	0.00e+00	0	57	0	1434451968	33	4443
2026-01-01 11:34:22.06	123.74	42.22	-31.4	-32.7	20.8	0.00e+00	0	57	0	1439694848	33	4406
2026-01-01 11:34:23.07	123.47	42.46	-31.3	-32.5	21.1	0.00e+00	0	57	0	1445986304	33	4301
2026-01-01 11:34:24.08	123.20	42.71	-31.2	-32.4	21.1	0.00e+00	0	57	0	1451229184	33	4283
2026-01-01 11:34:25.09	122.92	42.95	-31.2	-32.4	21.1	0.00e+00	0	57	0	1456472064	33	4272
2026-01-01 11:34:26.10	122.64	43.19	-31.3	-32.5	21.1	0.00e+00	0	57	0	1462763520	33	4317
2026-01-01 11:34:27.11	122.35	43.44	-31.3	-32.5	21.1	0.00e+00	0	57	0	1468006400	33	4307
2026-01-01 11:34:28.12	122.06	43.68	-31.4	-32.6	21.0	0.00e+00	0	57	0	1474297856	33	4344
2026-01-01 11:34:29.13	121.77	43.93	-31.5	-32.8	20.9	0.00e+00	0	57	0	1479540736	33	4449
2026-01-01 11:34:30.14	121.47	44.17	-31.6	-32.9	20.8	0.00e+00	0	57	0	1484783616	33	4505
2026-01-01 11:34:31.15	121.16	44.42	-31.5	-32.7	20.9	0.00e+00	0	57	0	1491075072	33	4418
2026-01-01 11:34:32.17	120.85	44.67	-31.3	-32.5	21.1	0.00e+00	0	58	0	1496317952	33	4292
2026-01-01 11:34:33.18	120.54	44.92	-31.1	-32.3	21.3	0.00e+00	0	57	0	1502609408	33	4212
2026-01-01 11:34:34.19	120.22	45.17	-31.1	-32.3	21.2	0.00e+00	0	57	0	1507852288	33	4228
2026-01-01 11:34:35.20	119.90	45.41	-31.3	-32.5	21.1	0.00e+00	0	58	0	1514143744	33	4314
2026-01-01 11:34:36.21	119.57	45.66	-31.6	-32.8	20.9	0.00e+00	0	58	0	1519386624	33	4460
2026-01-01 11:34:37.22	119.23	45.91	-31.8	-33.1	20.6	0.00e+00	0	57	0	1524629504	34	4365
2026-01-01 11:34:38.23	118.89	46.17	-31.9	-33.2	20.5	0.00e+00	0	57	0	1530920960	34	4404
2026-01-01 11:34:39.24	118.55	46.42	-31.7	-32.9	20.8	0.00e+00	0	57	0	1536163840	34	4254
2026-01-01 11:34:40.25	118.20	46.67	-31.4	-32.6	21.1	0.00e+00	0	57	0	1542455296	34	4123
2026-01-01 11:34:41.26	117.84	46.92	-31.4	-32.6	21.1	0.00e+00	0	57	0	1547698176	34	4101
2026-01-01 11:34:42.27	117.48	47.17	-31.6	-32.8	20.8	0.00e+00	0	57	0	1553989632	34	4234
2026-01-01 11:34:43.27	117.11	47.42	-32.0	-33.3	20.4	0.00e+00	0	57	0	1559232512	34	4455
2026-01-01 11:34:44.28	116.74	47.67	-32.0	-33.3	20.4	0.00e+00	0	58	0	1564475392	34	4453
2026-01-01 11:34:45.29	116.36	47.93	-31.8	-33.0	20.6	0.00e+00	0	58	0	1570766848	34	4335
2026-01-01 11:34:46.30	115.97	48.18	-31.6	-32.8	20.9	0.00e+00	0	57	0	1576009728	34	4195
2026-01-01 11:34:47.31	115.58	48.43	-31.7	-32.8	20.9	0.00e+00	0	57	0	1582301184	34	4237
2026-01-01 11:34:48.32	115.18	48.68	-31.9	-33.2	20.6	0.00e+00	0	57	0	1587544064	34	4405
2026-01-01 11:34:49.34	114.77	48.94	-32.1	-33.3	20.4	0.00e+00	0	57	0	1592786944	34	4466
2026-01-01 11:34:50.34	114.36	49.19	-31.9	-33.1	20.7	0.00e+00	0	57	0	1599078400	34	4373
2026-01-01 11:34:51.36	113.94	49.44	-31.8	-33.0	20.8	0.00e+00	0	58	0	1604321280	34	4312
2026-01-01 11:34:52.37	113.51	49.69	-31.6	-32.8	21.0	0.00e+00	0	58	0	1610612736	34	4221
2026-01-01 11:34:53.38	113.07	49.94	-31.5	-32.7	21.1	0.00e+00	0	58	0	1615855616	34	4174
2026-01-01 11:34:54.38	112.64	50.19	-31.8	-33.0	20.8	0.00e+00	0	57	0	1621098496	34	4312
2026-01-01 11:34:55.40	112.18	50.45	-32.0	-33.2	20.6	0.00e+00	0	57	0	1627389952	34	4436
2026-01-01 11:34:56.41	111.73	50.70	-32.1	-33.3	20.4	0.00e+00	0	57	0	1632632832	34	4490
2026-01-01 11:34:57.42	111.26	50.95	-32.1	-33.3	20.4	0.00e+00	0	57	0	1638924288	34	4492
2026-01-01 11:34:58.43	110.79	51.19	-32.0	-33.3	20.5	0.00e+00	0	57	0	1644167168	34	4442
2026-01-01 11:34:59.44	110.31	51.44	-32.0	-33.2	20.6	0.00e+00	0	58	0	1650458624	34	4413
2026-01-01 11:35:00.45	109.83	51.69	-32.0	-33.2	20.5	0.00e+00	0	58	0	1655701504	34	4438
2026-01-01 11:35:01.46	109.33	51.94	-31.9	-33.2	20.6	0.00e+00	0	57	0	1661992960	34	4394
2026-01-01 11:35:02.47	108.83	52.18	-32.1	-33.3	20.5	0.00e+00	0	57	0	1667235840	34	4488
2026-01-01 11:35:03.48	108.31	52.42	-32.3	-33.5	20.3	0.00e+00	0	57	0	1672478720	35	4323
2026-01-01 11:35:04.49	107.79	52.67	-32.1	-33.3	20.6	0.00e+00	0	57	0	1678770176	35	4214
2026-01-01 11:35:05.50	107.26	52.91	-32.0	-33.2	20.6	0.00e+00	0	57	0	1684013056	35	4189
2026-01-01 11:35:06.51	106.72	53.15	-32.2	-33.5	20.4	0.00e+00	0	58	0	1690304512	35	4302
2026-01-01 11:35:07.52	106.18	53.39	-32.2	-33.4	20.5	0.00e+00	0	57	0	1695547392	35	4276
2026-01-01 11:35:08.53	105.62	53.62	-32.0	-33.2	20.6	0.00e+00	0	57	0	1700790272	35	4158
2026-01-01 11:35:09.54	105.05	53.86	-31.9	-33.0	20.8	0.00e+00	0	57	0	1707081728	35	4090
2026-01-01 11:35:10.55	104.48	54.09	-32.0	-33.2	20.7	0.00e+00	0	57	0	1712324608	35	4150
2026-01-01 11:35:11.56	103.89	54.32	-32.1	-33.3	20.6	0.00e+00	0	58	0	1718616064	35	4234
2026-01-01 11:35:12.57	103.30	54.55	-32.0	-33.2	20.6	0.00e+00	0	57	0	1723858944	35	4162
2026-01-01 11:35:13.58	102.70	54.78	-31.9	-33.0	20.8	0.00e+00	0	57	0	1729101824	35	4095
2026-01-01 11:35:14.59	102.08	55.01	-31.8	-33.0	20.8	0.00e+00	0	57	0	1735393280	35	4058
2026-01-01 11:35:15.60	101.46	55.23	-31.9	-33.1	20.7	0.00e+00	0	57	0	1740636160	35	4102
2026-01-01 11:35:16.61	100.83	55.45	-31.8	-33.0	20.8	0.00e+00	0	57	0	1746927616	35	4064
2026-01-01 11:35:17.62	100.19	55.67	-31.8	-32.9	20.9	0.00e+00	0	57	0	1752170496	35	4045
2026-01-01 11:35:18.63	99.53	55.88	-32.1	-33.3	20.6	0.00e+00	0	57	0	1758461952	35	4206
2026-01-01 11:35:19.64	98.87	56.09	-32.1	-33.3	20.5	0.00e+00	0	57	0	1763704832	35	4218
2026-01-01 11:35:20.65	98.20	56.30	-32.0	-33.2	20.7	0.00e+00	0	57	0	1769996288	35	4152
2026-01-01 11:35:21.66	97.51	56.51	-31.9	-33.1	20.7	0.00e+00	0	57	0	1775239168	35	4139
2026-01-01 11:35:22.67	96.82	56.71	-31.7	-32.9	20.9	0.00e+00	0	57	0	1780482048	35	4034
2026-01-01 11:35:23.68	96.12	56.91	-31.5	-32.7	21.0	0.00e+00	0	57	0	1786773504	35	3941
2026-01-01 11:35:24.69	95.40	57.10	-31.5	-32.7	21.0	0.00e+00	0	57	0	1792016384	35	3924
2026-01-01 11:35:25.70	94.68	57.30	-31.5	-32.7	21.1	0.00e+00	0	57	0	1798307840	34	4156
2026-01-01 11:35:26.72	93.94	57.49	-31.8	-33.0	20.8	0.00e+00	0	57	0	1803550720	34	4297
2026-01-01 11:35:27.73	93.19	57.67	-31.7	-32.9	20.9	0.00e+00	0	57	0	1808793600	34	4280
2026-01-01 11:35:28.74	92.44	57.85	-31.5	-32.7	21.1	0.00e+00	0	58	0	1815085056	34	4173
2026-01-01 11:35:29.75	91.67	58.03	-31.7	-32.9	20.9	0.00e+00	0	58	0	1820327936	34	4259
2026-01-01 11:35:30.76	90.90	58.20	-32.1	-33.4	20.5	0.00e+00	0	57	0	1826619392	34	4505
2026-01-01 11:35:31.77	90.12	58.36	-32.3	-33.5	20.3	0.00e+00	0	57	0	1831862272	35	4326
2026-01-01 11:35:32.78	89.32	58.53	-32.1	-33.3	20.6	0.00e+00	0	57	0	1837105152	35	4205
2026-01-01 11:35:33.79	88.52	58.68	-32.1	-33.4	20.5	0.00e+00	0	57	0	1843396608	35	4243
2026-01-01 11:35:34.80	87.71	58.84	-32.4	-33.7	20.1	0.00e+00	0	57	0	1848639488	35	4413
2026-01-01 11:35:35.81	86.88	58.98	-32.2	-33.4	20.4	0.00e+00	0	57	0	1854930944	35	4270
2026-01-01 11:35:36.82	86.05	59.13	-32.0	-33.2	20.5	0.00e+00	0	57	0	1860173824	35	4191
2026-01-01 11:35:37.83	85.21	59.26	-32.0	-33.2	20.6	0.00e+00	0	57	0	1866465280	35	4177
2026-01-01 11:35:38.84	84.36	59.40	-32.0	-33.3	20.5	0.00e+00	0	57	0	1871708160	35	4219
2026-01-01 11:35:39.85	83.50	59.52	-31.6	-32.9	20.9	0.00e+00	0	57	0	1877999616	35	4005
2026-01-01 11:35:40.86	82.64	59.64	-31.5	-32.6	21.1	0.00e+00	0	58	0	1883242496	35	3911
2026-01-01 11:35:41.87	81.76	59.76	-31.8	-33.0	20.8	0.00e+00	0	58	0	1888485376	35	4064
2026-01-01 11:35:42.88	80.88	59.87	-32.0	-33.3	20.6	0.00e+00	0	58	0	1894776832	35	4210
2026-01-01 11:35:43.89	79.99	59.97	-32.1	-33.4	20.4	0.00e+00	0	58	0	1900019712	35	4269
2026-01-01 11:35:44.90	79.10	60.07	-31.9	-33.1	20.7	0.00e+00	0	57	0	1906311168	35	4111
2026-01-01 11:35:45.92	78.19	60.16	-31.7	-32.9	20.9	0.00e+00	0	57	0	1911554048	35	4019
2026-01-01 11:35:46.93	77.28	60.24	-31.8	-33.0	20.8	0.00e+00	0	57	0	1916796928	35	4095
2026-01-01 11:35:47.94	76.37	60.32	-31.8	-33.0	20.8	0.00e+00	0	57	0	1923088384	35	4079
2026-01-01 11:35:48.95	75.45	60.39	-31.6	-32.8	20.9	0.00e+00	0	57	0	1928331264	35	3986
2026-01-01 11:35:49.96	74.52	60.46	-31.6	-32.7	21.0	0.00e+00	0	57	0	1934622720	35	3958
2026-01-01 11:35:50.97	73.59	60.51	-31.7	-32.9	20.9	0.00e+00	0	58	0	1939865600	35	4045
2026-01-01 11:35:51.98	72.66	60.56	-31.5	-32.7	21.0	0.00e+00	0	57	0	1945108480	35	3943
2026-01-01 11:35:52.99	71.72	60.61	-31.5	-32.6	21.1	0.00e+00	0	57	0	1951399936	34	4142
2026-01-01 11:35:54.00	70.78	60.65	-31.6	-32.8	20.9	0.00e+00	0	58	0	1956642816	34	4220
2026-01-01 11:35:55.01	69.84	60.68	-31.6	-32.8	21.0	0.00e+00	0	57	0	1962934272	34	4235
2026-01-01 11:35:56.02	68.90	60.70	-31.7	-32.9	20.9	0.00e+00	0	58	0	1968177152	34	4280
2026-01-01 11:35:57.03	67.95	60.72	-31.5	-32.7	21.1	0.00e+00	0	58	0	1974468608	34	4164
2026-01-01 11:35:58.04	67.01	60.73	-31.1	-32.2	21.6	0.00e+00	0	57	0	1979711488	34	3935
2026-01-01 11:35:59.05	66.06	60.73	-31.2	-32.4	21.3	0.00e+00	0	58	0	1986002944	34	4028
2026-01-01 11:36:00.06	65.11	60.73	-31.5	-32.7	21.1	0.00e+00	0	58	0	1991245824	34	4152
2026-01-01 11:36:01.07	64.17	60.72	-31.4	-32.5	21.1	0.00e+00	0	57	0	1996488704	34	4096
2026-01-01 11:36:02.08	63.22	60.70	-31.3	-32.4	21.2	0.00e+00	0	57	0	2002780160	34	4050
2026-01-01 11:36:03.10	62.27	60.68	-31.7	-33.0	20.8	0.00e+00	0	57	0	2008023040	34	4297
2026-01-01 11:36:04.10	61.34	60.65	-31.5	-32.7	21.1	0.00e+00	0	58	0	2014314496	34	4159
2026-01-01 11:36:05.12	60.39	60.61	-31.3	-32.4	21.3	0.00e+00	0	57	0	2019557376	34	4046
2026-01-01 11:36:06.13	59.45	60.56	-31.3	-32.5	21.2	0.00e+00	0	58	0	2024800256	34	4070
2026-01-01 11:36:07.14	58.52	60.51	-31.5	-32.7	21.0	0.00e+00	0	58	0	2031091712	34	4183
2026-01-01 11:36:08.15	57.59	60.45	-31.5	-32.7	21.0	0.00e+00	0	57	0	2036334592	34	4152
2026-01-01 11:36:09.16	56.67	60.39	-31.3	-32.4	21.2	0.00e+00	0	57	0	2042626048	34	4037
2026-01-01 11:36:10.17	55.75	60.32	-31.1	-32.2	21.4	0.00e+00	0	58	0	2047868928	34	3934
2026-01-01 11:36:11.18	54.84	60.24	-31.2	-32.4	21.3	0.00e+00	0	57	0	2053111808	34	4017
2026-01-01 11:36:12.19	53.93	60.15	-31.6	-32.8	20.9	0.00e+00	0	58	0	2059403264	34	4224
2026-01-01 11:36:13.20	53.03	60.06	-31.6	-32.8	21.0	0.00e+00	0	57	0	2064646144	34	4211
2026-01-01 11:36:14.21	52.13	59.97	-31.6	-32.7	21.0	0.00e+00	0	58	0	2070937600	34	4177
2026-01-01 11:36:15.22	51.25	59.86	-31.7	-32.9	20.9	0.00e+00	0	57	0	2076180480	34	4282
2026-01-01 11:36:16.23	50.37	59.76	-31.6	-32.8	20.9	0.00e+00	0	58	0	2082471936	34	4225
2026-01-01 11:36:17.24	49.49	59.64	-31.4	-32.6	21.1	0.00e+00	0	57	0	2087714816	34	4117
2026-01-01 11:36:18.25	48.63	59.52	-31.4	-32.6	21.1	0.00e+00	0	58	0	2094006272	34	4107
2026-01-01 11:36:19.26	47.77	59.39	-31.4	-32.6	21.0	0.00e+00	0	58	0	2099249152	34	4140
2026-01-01 11:36:20.27	46.92	59.26	-31.3	-32.5	21.1	0.00e+00	0	58	0	2104492032	34	4063
2026-01-01 11:36:21.28	46.08	59.12	-31.3	-32.5	21.2	0.00e+00	0	57	0	2110783488	34	4057
2026-01-01 11:36:22.29	45.25	58.98	-31.5	-32.6	21.1	0.00e+00	0	58	0	2116026368	34	4142
2026-01-01 11:36:23.30	44.43	58.84	-31.5	-32.7	21.0	0.00e+00	0	57	0	2122317824	34	4186
2026-01-01 11:36:24.31	43.62	58.68	-31.5	-32.7	21.1	0.00e+00	0	57	0	2127560704	34	4167
2026-01-01 11:36:25.32	42.82	58.53	-31.6	-32.7	21.1	0.00e+00	0	58	0	2132803584	34	4182
2026-01-01 11:36:26.33	42.03	58.36	-31.4	-32.6	21.2	0.00e+00	0	58	0	2139095040	34	4106
2026-01-01 11:36:27.35	41.23	58.19	-31.2	-32.4	21.4	0.00e+00	0	58	0	2144337920	34	4012
2026-01-01 11:36:28.36	40.46	58.02	-31.3	-32.4	21.3	0.00e+00	0	58	0	2150629376	34	4048
2026-01-01 11:36:29.37	39.70	57.85	-31.5	-32.7	21.0	0.00e+00	0	57	0	2155872256	34	4156
2026-01-01 11:36:30.38	38.95	57.67	-31.4	-32.5	21.1	0.00e+00	0	58	0	2161115136	34	4094
2026-01-01 11:36:31.39	38.20	57.48	-31.5	-32.7	21.0	0.00e+00	0	57	0	2167406592	34	4167
2026-01-01 11:36:32.40	37.47	57.30	-31.5	-32.6	21.1	0.00e+00	0	58	0	2172649472	34	4134
2026-01-01 11:36:33.41	36.75	57.10	-31.4	-32.6	21.2	0.00e+00	0	58	0	2178940928	34	4105
2026-01-01 11:36:34.42	36.04	56.91	-31.5	-32.6	21.1	0.00e+00	0	58	0	2184183808	34	4135
2026-01-01 11:36:35.43	35.33	56.71	-31.5	-32.7	21.1	0.00e+00	0	58	0	2190475264	34	4171
2026-01-01 11:36:36.44	34.64	56.51	-31.4	-32.6	21.2	0.00e+00	0	57	0	2195718144	34	4102
2026-01-01 11:36:37.45	33.96	56.30	-31.4	-32.6	21.3	0.00e+00	0	58	0	2202009600	34	4101
2026-01-01 11:36:38.46	33.29	56.09	-31.5	-32.6	21.2	0.00e+00	0	58	0	2207252480	34	4126
2026-01-01 11:36:39.48	32.62	55.88	-31.5	-32.7	21.1	0.00e+00	0	58	0	2212495360	34	4176
2026-01-01 11:36:40.49	31.97	55.67	-31.4	-32.5	21.2	0.00e+00	0	58	0	2218786816	34	4088
2026-01-01 11:36:41.50	31.33	55.45	-31.4	-32.6	21.2	0.00e+00	0	58	0	2224029696	34	4111
2026-01-01 11:36:42.51	30.70	55.23	-31.9	-33.1	20.7	0.00e+00	0	58	0	2230321152	34	4357
2026-01-01 11:36:43.52	30.07	55.01	-32.1	-33.3	20.4	0.00e+00	0	58	0	2235564032	34	4478
2026-01-01 11:36:44.53	29.46	54.78	-32.0	-33.2	20.5	0.00e+00	0	58	0	2240806912	34	4419
2026-01-01 11:36:45.54	28.86	54.56	-31.8	-33.0	20.7	0.00e+00	0	58	0	2247098368	34	4334
2026-01-01 11:36:46.55	28.27	54.33	-31.7	-32.9	20.9	0.00e+00	0	58	0	2252341248	34	4272
2026-01-01 11:36:47.56	27.68	54.10	-31.6	-32.8	21.0	0.00e+00	0	58	0	2258632704	34	4212
2026-01-01 11:36:48.57	27.11	53.86	-31.4	-32.5	21.3	0.00e+00	0	58	0	2263875584	34	4087
2026-01-01 11:36:49.58	26.55	53.63	-31.4	-32.5	21.3	0.00e+00	0	58	0	2269118464	34	4075
2026-01-01 11:36:50.59	25.99	53.39	-31.6	-32.8	21.0	0.00e+00	0	58	0	2275409920	34	4206
2026-01-01 11:36:51.60	25.45	53.16	-31.9	-33.1	20.7	0.00e+00	0	58	0	2280652800	34	4354
2026-01-01 11:36:52.61	24.91	52.92	-31.9	-33.1	20.7	0.00e+00	0	58	0	2286944256	34	4363
2026-01-01 11:36:53.62	24.38	52.68	-31.8	-33.0	20.9	0.00e+00	0	58	0	2292187136	34	4301
2026-01-01 11:36:54.63	23.86	52.43	-31.7	-32.8	21.0	0.00e+00	0	57	0	2298478592	34	4238
2026-01-01 11:36:55.64	23.35	52.19	-31.9	-33.1	20.8	0.00e+00	0	58	0	2303721472	34	4341
2026-01-01 11:36:56.65	22.85	51.95	-32.1	-33.3	20.6	0.00e+00	0	58	0	2310012928	34	4483
2026-01-01 11:36:57.66	22.35	51.70	-32.1	-33.3	20.5	0.00e+00	0	58	0	2315255808	34	4479
2026-01-01 11:36:58.67	21.86	51.45	-31.8	-33.0	20.8	0.00e+00	0	58	0	2320498688	34	4325
2026-01-01 11:36:59.68	21.39	51.21	-31.6	-32.8	21.0	0.00e+00	0	58	0	2326790144	34	4212
2026-01-01 11:37:00.69	20.92	50.96	-31.7	-32.9	20.9	0.00e+00	0	58	0	2332033024	34	4249
2026-01-01 11:37:01.70	20.45	50.71	-31.8	-33.0	20.8	0.00e+00	0	58	0	2338324480	34	4328
2026-01-01 11:37:02.71	20.00	50.46	-31.8	-33.0	20.7	0.00e+00	0	58	0	2343567360	34	4331
2026-01-01 11:37:03.72	19.55	50.21	-31.7	-32.9	20.8	0.00e+00	0	57	0	2348810240	34	4277
2026-01-01 11:37:04.73	19.11	49.96	-31.7	-32.9	20.8	0.00e+00	0	58	0	2355101696	34	4263
2026-01-01 11:37:05.75	18.67	49.71	-31.7	-32.9	20.8	0.00e+00	0	58	0	2360344576	34	4259
2026-01-01 11:37:06.76	18.25	49.46	-31.6	-32.8	20.9	0.00e+00	0	58	0	2366636032	34	4234
2026-01-01 11:37:07.77	17.83	49.21	-31.7	-32.9	20.8	0.00e+00	0	58	0	2371878912	34	4269
2026-01-01 11:37:08.78	17.42	48.95	-31.8	-33.0	20.8	0.00e+00	0	58	0	2377121792	34	4309
2026-01-01 11:37:09.79	17.01	48.70	-31.8	-33.1	20.7	0.00e+00	0	58	0	2383413248	34	4353
2026-01-01 11:37:10.80	16.61	48.45	-31.9	-33.1	20.6	0.00e+00	0	58	0	2388656128	34	4361
2026-01-01 11:37:11.81	16.22	48.20	-31.7	-32.9	20.8	0.00e+00	0	58	0	2394947584	34	4262
2026-01-01 11:37:12.82	15.84	47.95	-31.4	-32.6	21.1	0.00e+00	0	57	0	2400190464	34	4129
2026-01-01 11:37:13.83	15.46	47.70	-31.3	-32.4	21.3	0.00e+00	0	58	0	2406481920	34	4042
2026-01-01 11:37:14.84	15.08	47.45	-31.1	-32.3	21.4	0.00e+00	0	58	0	2411724800	34	3971
2026-01-01 11:37:15.85	14.72	47.19	-30.9	-32.0	21.7	0.00e+00	0	58	0	2418016256	33	4069
2026-01-01 11:37:16.86	14.35	46.94	-30.7	-31.9	21.8	0.00e+00	0	58	0	2423259136	33	4005
2026-01-01 11:37:17.87	14.00	46.69	-30.7	-31.8	21.8	0.00e+00	0	58	0	2428502016	33	3982
2026-01-01 11:37:18.88	13.65	46.44	-30.8	-31.9	21.7	0.00e+00	0	58	0	2434793472	33	4023
2026-01-01 11:37:19.89	13.30	46.19	-30.8	-32.0	21.6	0.00e+00	0	58	0	2440036352	33	4067
2026-01-01 11:37:20.90	12.97	45.94	-31.0	-32.1	22.2	0.00e+00	0	58	0	2446327808	33	4107
2026-01-01 11:37:21.91	12.63	45.69	-31.0	-32.0	22.2	0.00e+00	0	58	0	2451570688	33	4086
2026-01-01 11:37:22.92	12.30	45.44	-31.0	-32.0	22.2	0.00e+00	0	58	0	2456813568	33	4072
2026-01-01 11:37:23.93	11.98	45.20	-30.9	-31.9	22.2	0.00e+00	0	58	0	2463105024	33	4051
2026-01-01 11:37:24.94	11.66	44.95	-30.9	-31.9	22.4	0.00e+00	0	58	0	2468347904	33	4011
2026-01-01 11:37:25.95	11.35	44.70	-30.8	-31.8	22.4	0.00e+00	0	58	0	2474639360	33	3998
2026-01-01 11:37:26.96	11.04	44.45	-31.0	-32.0	22.2	0.00e+00	0	58	0	2479882240	33	4073
2026-01-01 11:37:27.97	10.74	44.21	-31.2	-32.2	22.0	0.00e+00	0	57	0	2485125120	33	4161
2026-01-01 11:37:28.98	10.44	43.96	-31.2	-32.3	22.0	0.00e+00	0	58	0	2491416576	33	4214
2026-01-01 11:37:29.99	10.15	43.72	-31.1	-32.1	22.1	0.00e+00	0	58	0	2496659456	33	4133
2026-01-01 11:37:31.01	9.86	43.47	-30.9	-32.0	22.3	0.00e+00	0	58	0	2502950912	33	4054
2026-01-01 11:37:32.02	9.57	43.23	-30.8	-31.8	22.4	0.00e+00	0	58	0	2508193792	33	3977
2026-01-01 11:37:33.03	9.29	42.99	-30.7	-31.7	22.5	0.00e+00	0	58	0	2514485248	33	3946
2026-01-01 11:37:34.04	9.01	42.75	-30.8	-31.8	22.4	0.00e+00	0	58	0	2519728128	33	3974
2026-01-01 11:37:35.05	8.74	42.51	-30.9	-31.9	22.3	0.00e+00	0	58	0	2526019584	33	4013
2026-01-01 11:37:36.06	8.47	42.27	-31.0	-32.0	22.2	0.00e+00	0	58	0	2531262464	33	4078
2026-01-01 11:37:37.07	8.21	42.03	-31.1	-32.2	22.0	0.00e+00	0	58	0	2536505344	33	4164
2026-01-01 11:37:38.08	7.95	41.79	-31.2	-32.3	22.0	0.00e+00	0	58	0	2542796800	33	4205
2026-01-01 11:37:39.09	7.69	41.55	-31.2	-32.3	21.9	0.00e+00	0	58	0	2548039680	33	4213
2026-01-01 11:37:40.10	7.44	41.31	-31.1	-32.1	22.1	0.00e+00	0	57	0	2554331136	33	4111
2026-01-01 11:37:41.11	7.19	41.08	-30.9	-31.9	22.3	0.00e+00	0	58	0	2559574016	33	4045
2026-01-01 11:37:42.12	6.95	40.84	-30.8	-31.8	22.3	0.00e+00	0	58	0	2564816896	33	3999
2026-01-01 11:37:43.13	6.70	40.61	-30.8	-31.8	22.3	0.00e+00	0	58	0	2571108352	33	4002
2026-01-01 11:37:44.14	6.47	40.38	-30.8	-31.8	22.4	0.00e+00	0	58	0	2576351232	33	3978
2026-01-01 11:37:45.15	6.23	40.15	-30.7	-31.7	22.4	0.00e+00	0	57	0	2582642688	33	3955
2026-01-01 11:37:46.16	6.00	39.92	-30.7	-31.7	22.5	0.00e+00	0	58	0	2587885568	33	3940
2026-01-01 11:37:47.17	5.77	39.69	-30.8	-31.8	22.4	0.00e+00	0	58	0	2593128448	33	3970
2026-01-01 11:37:48.19	5.54	39.45	-30.8	-31.9	22.3	0.00e+00	0	58	0	2599419904	33	4006
2026-01-01 11:37:49.20	5.32	39.23	-30.9	-31.9	22.3	0.00e+00	0	58	0	2604662784	33	4041
2026-01-01 11:37:50.21	5.10	39.00	-30.9	-32.0	22.2	0.00e+00	0	58	0	2610954240	33	4059
2026-01-01 11:37:51.22	4.89	38.77	-30.9	-31.9	22.3	0.00e+00	0	58	0	2616197120	33	4022
2026-01-01 11:37:52.23	4.68	38.55	-30.8	-31.8	22.4	0.00e+00	0	58	0	2622488576	33	3971
2026-01-01 11:37:53.24	4.47	38.33	-30.7	-31.7	22.5	0.00e+00	0	58	0	2627731456	33	3920
2026-01-01 11:37:54.25	4.26	38.10	-30.7	-31.7	22.5	0.00e+00	0	58	0	2634022912	33	3914
2026-01-01 11:37:55.26	4.06	37.88	-30.7	-31.7	22.4	0.00e+00	0	58	0	2639265792	33	3940
2026-01-01 11:37:56.27	3.86	37.66	-30.8	-31.8	22.3	0.00e+00	0	58	0	2644508672	33	4002
2026-01-01 11:37:57.28	3.66	37.44	-31.0	-32.0	22.2	0.00e+00	0	58	0	2650800128	33	4073
2026-01-01 11:37:58.29	3.46	37.22	-31.1	-32.1	22.1	0.00e+00	0	58	0	2656043008	33	4120
2026-01-01 11:37:59.30	3.27	37.01	-31.0	-32.1	22.1	0.00e+00	0	58	0	2662334464	33	4099
2026-01-01 11:38:00.31	3.08	36.79	-31.0	-32.0	22.2	0.00e+00	0	58	0	2667577344	33	4067
2026-01-01 11:38:01.32	2.89	36.57	-30.9	-31.9	22.2	0.00e+00	0	58	0	2672820224	33	4035
2026-01-01 11:38:02.33	2.71	36.36	-30.9	-31.9	22.2	0.00e+00	0	58	0	2679111680	33	4043
2026-01-01 11:38:03.34	2.52	36.15	-30.9	-32.0	22.2	0.00e+00	0	58	0	2684354560	33	4057
2026-01-01 11:38:04.35	2.34	35.94	-31.0	-32.0	22.2	0.00e+00	0	58	0	2690646016	33	4075
2026-01-01 11:38:05.36	2.17	35.72	-30.9	-31.9	22.2	0.00e+00	0	58	0	2695888896	33	4050
2026-01-01 11:38:06.37	1.99	35.51	-30.8	-31.9	22.3	0.00e+00	0	58	0	2701131776	33	4015
2026-01-01 11:38:07.38	1.82	35.31	-30.8	-31.8	22.4	0.00e+00	0	58	0	2707423232	33	3970
2026-01-01 11:38:08.39	1.65	35.10	-30.7	-31.7	22.5	0.00e+00	0	58	0	2712666112	33	3917
2026-01-01 11:38:09.40	1.48	34.89	-30.7	-31.6	22.5	0.00e+00	0	57	0	2718957568	33	3904
2026-01-01 11:38:10.41	1.31	34.69	-30.7	-31.7	22.4	0.00e+00	0	58	0	2724200448	33	3943
2026-01-01 11:38:11.42	1.15	34.48	-30.9	-31.9	22.3	0.00e+00	0	58	0	2730491904	33	4014
2026-01-01 11:38:12.43	0.98	34.28	-31.0	-32.0	22.1	0.00e+00	0	58	0	2735734784	33	4070
2026-01-01 11:38:13.44	0.82	34.08	-31.1	-32.1	22.0	0.00e+00	0	58	0	2740977664	33	4145
2026-01-01 11:38:14.44	0.67	33.88	-31.1	-32.2	22.0	0.00e+00	0	58	0	2747269120	33	4169
2026-01-01 11:38:15.45	0.51	33.68	-31.1	-32.2	22.0	0.00e+00	0	58	0	2752512000	33	4167
2026-01-01 11:38:16.46	0.35	33.48	-31.1	-32.1	22.0	0.00e+00	0	58	0	2758803456	33	4142
2026-01-01 11:38:17.47	0.20	33.28	-31.1	-32.1	22.1	0.00e+00	0	58	0	2764046336	33	4113
2026-01-01 11:38:18.48	0.05	33.08	-31.0	-32.0	22.1	0.00e+00	0	58	0	2769289216	33	4083
2026-01-01 11:38:19.49	359.90	32.89	-31.0	-32.0	22.1	0.00e+00	0	58	0	2775580672	33	4069
2026-01-01 11:38:20.50	359.76	32.69	-31.0	-32.0	22.1	0.00e+00	0	58	0	2780823552	33	4071
2026-01-01 11:38:21.51	359.61	32.50	-31.0	-32.0	22.1	0.00e+00	0	58	0	2787115008	33	4081
2026-01-01 11:38:22.52	359.47	32.30	-31.0	-32.0	22.1	0.00e+00	0	58	0	2792357888	33	4090
2026-01-01 11:38:23.53	359.32	32.11	-31.0	-32.1	22.1	0.00e+00	0	58	0	2797600768	33	4100
2026-01-01 11:38:24.54	359.18	31.92	-31.0	-32.1	22.0	0.00e+00	0	58	0	2803892224	33	4113
2026-01-01 11:38:25.55	359.05	31.73	-31.1	-32.1	22.0	0.00e+00	0	58	0	2809135104	33	4119
2026-01-01 11:38:26.56	358.91	31.54	-31.1	-32.1	22.0	0.00e+00	0	58	0	2815426560	33	4136
2026-01-01 11:38:27.57	358.77	31.35	-31.2	-32.2	21.9	0.00e+00	0	58	0	2820669440	33	4166
2026-01-01 11:38:28.58	358.64	31.17	-31.2	-32.3	21.9	0.00e+00	0	58	0	2826960896	33	4204
2026-01-01 11:38:29.60	358.51	30.98	-31.3	-32.3	21.8	0.00e+00	0	58	0	2832203776	33	4218
2026-01-01 11:38:30.60	358.38	30.80	-31.3	-32.3	21.8	0.00e+00	0	58	0	2838495232	33	4226
2026-01-01 11:38:31.62	358.25	30.61	-31.3	-32.3	21.8	0.00e+00	0	58	0	2843738112	33	4229
2026-01-01 11:38:32.63	358.12	30.43	-31.3	-32.3	21.8	0.00e+00	0	58	0	2848980992	33	4216
2026-01-01 11:38:33.64	358.00	30.25	-31.3	-32.3	21.8	0.00e+00	0	58	0	2855272448	33	4207
2026-01-01 11:38:34.65	357.87	30.07	-31.3	-32.3	21.8	0.00e+00	0	58	0	2860515328	33	4223
2026-01-01 11:38:35.66	357.75	29.89	-31.3	-32.3	21.8	0.00e+00	0	58	0	2866806784	33	4230
2026-01-01 11:38:36.67	357.63	29.71	-31.3	-32.3	21.8	0.00e+00	0	58	0	2872049664	33	4241
2026-01-01 11:38:37.68	357.51	29.53	-31.3	-32.4	21.8	0.00e+00	0	57	0	2877292544	33	4250
2026-01-01 11:38:38.69	357.39	29.35	-31.4	-32.4	21.7	0.00e+00	0	58	0	2883584000	33	4269
2026-01-01 11:38:39.70	357.27	29.18	-31.4	-32.4	21.7	0.00e+00	0	58	0	2888826880	33	4289
2026-01-01 11:38:40.71	357.15	29.00	-31.4	-32.5	21.7	0.00e+00	0	58	0	2895118336	33	4297
2026-01-01 11:38:41.72	357.04	28.83	-31.4	-32.5	21.6	0.00e+00	0	58	0	2900361216	33	4312
2026-01-01 11:38:42.73	356.92	28.66	-31.5	-32.5	21.6	0.00e+00	0	58	0	2905604096	33	4329
2026-01-01 11:38:43.74	356.81	28.48	-31.4	-32.5	21.6	0.00e+00	0	58	0	2911895552	33	4314
2026-01-01 11:38:44.75	356.70	28.31	-31.5	-32.5	21.6	0.00e+00	0	58	0	2917138432	33	4320
2026-01-01 11:38:45.76	356.59	28.14	-31.4	-32.5	21.6	0.00e+00	0	58	0	2923429888	33	4315
2026-01-01 11:38:46.77	356.48	27.97	-31.4	-32.5	21.6	0.00e+00	0	58	0	2928672768	33	4317
2026-01-01 11:38:47.78	356.37	27.81	-31.4	-32.5	21.6	0.00e+00	0	58	0	2934964224	33	4311
2026-01-01 11:38:48.80	356.27	27.64	-31.4	-32.5	21.6	0.00e+00	0	58	0	2940207104	33	4314
2026-01-01 11:38:49.81	356.16	27.47	-31.4	-32.5	21.6	0.00e+00	0	57	0	2946498560	33	4317
2026-01-01 11:38:50.82	356.06	27.30	-31.4	-32.5	21.6	0.00e+00	0	58	0	2951741440	33	4319
2026-01-01 11:38:51.83	355.95	27.14	-31.4	-32.5	21.6	0.00e+00	0	58	0	2956984320	33	4306
2026-01-01 11:38:52.84	355.85	26.98	-31.4	-32.4	21.6	0.00e+00	0	58	0	2963275776	33	4284
2026-01-01 11:38:53.85	355.75	26.81	-31.3	-32.4	21.7	0.00e+00	0	58	0	2968518656	33	4254
2026-01-01 11:38:54.86	355.65	26.65	-31.3	-32.4	21.7	0.00e+00	0	58	0	2974810112	33	4251
2026-01-01 11:38:55.87	355.55	26.49	-31.3	-32.3	21.7	0.00e+00	0	58	0	2980052992	33	4229
2026-01-01 11:38:56.88	355.45	26.33	-31.3	-32.3	21.7	0.00e+00	0	58	0	2985295872	33	4226
2026-01-01 11:38:57.89	355.36	26.17	-31.3	-32.3	21.7	0.00e+00	0	58	0	2991587328	33	4229
2026-01-01 11:38:58.90	355.26	26.01	-31.3	-32.3	21.7	0.00e+00	0	58	0	2996830208	33	4219
2026-01-01 11:38:59.91	355.17	25.85	-31.3	-32.3	21.7	0.00e+00	0	58	0	3003121664	33	4232
2026-01-01 11:39:00.92	355.07	25.70	-31.3	-32.4	21.6	0.00e+00	0	58	0	3008364544	33	4250
2026-01-01 11:39:01.93	354.98	25.54	-31.4	-32.4	21.6	0.00e+00	0	58	0	3013607424	33	4269
2026-01-01 11:39:02.94	354.89	25.38	-31.5	-32.5	21.5	0.00e+00	0	58	0	3019898880	33	4318
2026-01-01 11:39:03.95	354.80	25.23	-31.5	-32.6	21.4	0.00e+00	0	58	0	3025141760	33	4350
2026-01-01 11:39:04.96	354.71	25.08	-31.6	-32.6	21.4	0.00e+00	0	58	0	3031433216	33	4382
2026-01-01 11:39:05.97	354.62	24.92	-31.6	-32.7	21.3	0.00e+00	0	58	0	3036676096	33	4403
2026-01-01 11:39:06.99	354.53	24.77	-31.7	-32.8	21.2	0.00e+00	0	58	0	3042967552	33	4451
2026-01-01 11:39:08.00	354.44	24.62	-31.7	-32.8	21.2	0.00e+00	0	58	0	3048210432	33	4472
2026-01-01 11:39:09.00	354.36	24.47	-31.7	-32.8	21.2	0.00e+00	0	58	0	3054501888	34	4236
2026-01-01 11:39:10.01	354.27	24.32	-31.7	-32.8	21.2	0.00e+00	0	58	0	3059744768	34	4228
2026-01-01 11:39:11.02	354.19	24.17	-31.8	-32.8	21.1	0.00e+00	0	58	0	3064987648	34	4232
2026-01-01 11:39:12.03	354.10	24.02	-31.8	-32.8	21.1	0.00e+00	0	58	0	3071279104	34	4233
2026-01-01 11:39:13.04	354.02	23.88	-31.8	-32.8	21.1	0.00e+00	0	58	0	3076521984	34	4233
2026-01-01 11:39:14.05	353.94	23.73	-31.7	-32.8	21.2	0.00e+00	0	58	0	3082813440	34	4210
2026-01-01 11:39:15.06	353.86	23.58	-31.7	-32.8	21.1	0.00e+00	0	58	0	3088056320	34	4212
2026-01-01 11:39:16.07	353.77	23.44	-31.7	-32.7	21.2	0.00e+00	0	58	0	3093299200	34	4185
2026-01-01 11:39:17.08	353.69	23.29	-31.7	-32.8	21.2	0.00e+00	0	58	0	3099590656	34	4206
2026-01-01 11:39:18.09	353.62	23.15	-31.7	-32.8	21.1	0.00e+00	0	58	0	3104833536	34	4203
2026-01-01 11:39:19.10	353.54	23.01	-31.7	-32.7	21.2	0.00e+00	0	58	0	3111124992	34	4175
2026-01-01 11:39:20.11	353.46	22.87	-31.7	-32.8	21.1	0.00e+00	0	58	0	3116367872	34	4217
2026-01-01 11:39:21.12	353.38	22.72	-31.8	-32.9	21.0	0.00e+00	0	58	0	3121610752	34	4275
2026-01-01 11:39:22.13	353.31	22.58	-32.0	-33.0	20.8	0.00e+00	0	58	0	3127902208	34	4332
2026-01-01 11:39:23.15	353.23	22.44	-32.0	-33.1	20.8	0.00e+00	0	58	0	3133145088	34	4345
2026-01-01 11:39:24.16	353.15	22.30	-31.9	-32.9	20.9	0.00e+00	0	58	0	3139436544	34	4284
2026-01-01 11:39:25.17	353.08	22.16	-31.7	-32.8	21.0	0.00e+00	0	58	0	3144679424	34	4226
2026-01-01 11:39:26.18	353.01	22.03	-31.6	-32.7	21.0	0.00e+00	0	58	0	3150970880	34	4166
2026-01-01 11:39:27.19	352.93	21.89	-31.5	-32.6	21.0	0.00e+00	0	58	0	3156213760	34	4129
2026-01-01 11:39:28.20	352.86	21.75	-31.7	-32.8	20.7	0.00e+00	0	58	0	3162505216	34	4239
2026-01-01 11:39:29.21	352.79	21.62	-32.1	-33.3	20.1	0.00e+00	0	58	0	3167748096	34	4448
2026-01-01 11:39:30.22	352.72	21.48	-33.4	-34.6	19.2	0.00e+00	0	58	0	3172990976	37	4388
2026-01-01 11:39:31.23	352.65	21.35	-34.2	-35.6	17.9	0.00e+00	0	58	0	3179282432	38	4640
2026-01-01 11:39:32.24	352.58	21.21	-35.1	-36.8	16.3	0.00e+00	0	58	0	3184525312	40	4717
2026-01-01 11:39:33.25	352.51	21.08	-36.2	-38.3	14.3	1.10e-06	0	58	0	3190816768	42	4999
2026-01-01 11:39:34.26	352.44	20.95	-37.3	-39.8	12.5	3.77e-05	0	58	0	3196059648	45	5039
2026-01-01 11:39:35.27	352.38	20.82	-38.1	-41.5	10.3	3.19e-03	0	58	0	3201302528	46	5782
2026-01-01 11:39:36.28	352.31	20.69	-38.7	-43.0	8.5	2.88e-02	0	58	0	3207593984	47	6455
2026-01-01 11:39:37.29	352.24	20.56	-39.3	-44.7	6.6	1.77e-01	0	58	0	3212836864	49	6995
2026-01-01 11:39:38.30	352.18	20.43	-39.6	-46.2	5.4	5.13e-01	0	58	0	3218079744	49	8305
2026-01-01 11:39:39.31	352.11	20.30	-39.8	-47.7	4.5	8.11e-01	0	58	0	3218079744	50	9346
2026-01-01 11:39:40.32	352.05	20.17	-39.9	-48.9	4.1	8.37e-01	0	58	0	3218079744	50	10733
2026-01-01 11:39:41.33	351.98	20.04	-40.0	-50.0	3.8	8.44e-01	0	58	104	3218079744	50	12218
2026-01-01 11:39:42.34	351.92	19.91	-40.1	-50.6	3.8	8.46e-01	0	58	104	3218079744	50	13109
2026-01-01 11:39:43.35	351.86	19.79	-40.1	-51.2	3.8	8.45e-01	0	58	104	3218079744	50	13981
2026-01-01 11:39:44.36	351.79	19.66	-40.2	-51.6	3.8	8.46e-01	0	58	104	3218079744	50	14557
2026-01-01 11:39:45.37	351.73	19.53	-40.2	-51.7	3.8	8.46e-01	0	58	104	3218079744	50	14875
2026-01-01 11:39:46.38	351.67	19.41	-40.2	-51.8	3.8	8.47e-01	0	58	104	3218079744	51	14177
2026-01-01 11:39:47.39	351.61	19.28	-40.2	-51.8	3.8	8.46e-01	0	58	104	3218079744	51	14140
2026-01-01 11:39:48.40	351.55	19.16	-40.2	-51.9	3.8	8.46e-01	0	58	104	3218079744	51	14304
2026-01-01 11:39:49.41	351.49	19.04	-40.3	-52.0	3.8	8.46e-01	0	58	104	3218079744	51	14481
2026-01-01 11:39:50.42	351.43	18.92	-40.2	-51.9	3.8	8.46e-01	0	58	104	3218079744	51	14263
2026-01-01 11:39:51.43	351.37	18.79	-40.2	-52.0	3.8	8.46e-01	0	58	104	3218079744	51	14381
2026-01-01 11:39:52.44	351.31	18.67	-40.2	-51.9	3.8	8.47e-01	0	58	104	3218079744	51	14315
2026-01-01 11:39:53.45	351.26	18.55	-40.5	-52.2	3.8	8.46e-01	0	58	104	3218079744	51	14862
2026-01-01 11:39:54.46	351.20	18.43	-40.4	-52.1	3.8	8.46e-01	0	58	104	3218079744	52	13850
2026-01-01 11:39:55.47	351.14	18.31	-40.1	-51.8	3.8	8.46e-01	0	58	104	3218079744	52	13350
2026-01-01 11:39:56.48	351.09	18.19	-40.1	-51.8	3.8	8.47e-01	0	58	104	3218079744	52	13311
2026-01-01 11:39:57.49	351.03	18.07	-40.1	-51.8	3.8	8.46e-01	0	58	104	3218079744	52	13292
2026-01-01 11:39:58.50	350.97	17.95	-40.1	-51.8	3.8	8.47e-01	0	58	104	3218079744	52	13369
2026-01-01 11:39:59.51	350.92	17.84	-40.1	-51.9	3.8	8.46e-01	0	58	104	3218079744	52	13433
2026-01-01 11:40:00.52	350.86	17.72	-40.7	-52.4	3.8	8.46e-01	0	58	104	3218079744	52	14331
2026-01-01 11:40:01.53	350.81	17.60	-40.7	-52.6	3.8	8.46e-01	0	58	104	3218079744	52	14549
2026-01-01 11:40:02.54	350.76	17.49	-40.5	-52.1	3.8	8.47e-01	0	58	104	3218079744	52	13884
2026-01-01 11:40:03.55	350.70	17.37	-40.4	-52.2	3.8	8.45e-01	0	58	104	3218079744	52	13894
2026-01-01 11:40:04.55	350.65	17.26	-40.6	-52.3	3.8	8.46e-01	0	58	104	3218079744	52	14107
2026-01-01 11:40:05.56	350.60	17.14	-40.7	-52.4	3.8	8.46e-01	0	58	104	3218079744	52	14225
2026-01-01 11:40:06.58	350.55	17.03	-40.7	-52.6	3.8	8.46e-01	0	58	104	3218079744	52	14560
2026-01-01 11:40:07.59	350.50	16.91	-40.7	-52.5	3.8	8.45e-01	0	58	104	3218079744	52	14517
2026-01-01 11:40:08.60	350.44	16.80	-40.4	-52.2	3.8	8.47e-01	0	58	104	3218079744	52	13900
2026-01-01 11:40:09.61	350.39	16.69	-40.4	-52.1	3.8	8.47e-01	0	58	104	3218079744	52	13773
2026-01-01 11:40:10.62	350.34	16.58	-40.5	-52.2	3.8	8.46e-01	0	58	104	3218079744	52	13944
2026-01-01 11:40:11.63	350.29	16.47	-40.4	-52.1	3.8	8.45e-01	0	58	104	3218079744	52	13830
2026-01-01 11:40:12.64	350.24	16.35	-40.6	-52.3	3.8	8.47e-01	0	58	104	3218079744	52	14091
2026-01-01 11:40:13.65	350.20	16.24	-40.4	-52.4	3.8	8.47e-01	0	58	104	3218079744	52	14337
2026-01-01 11:40:14.66	350.15	16.13	-40.5	-52.1	3.8	8.47e-01	0	58	104	3218079744	52	13869
2026-01-01 11:40:15.67	350.10	16.02	-40.3	-52.4	3.8	8.46e-01	0	58	104	3218079744	52	14306
2026-01-01 11:40:16.68	350.05	15.92	-40.5	-52.2	3.8	8.46e-01	0	58	104	3218079744	52	13912
2026-01-01 11:40:17.69	350.00	15.81	-40.3	-52.1	3.8	8.47e-01	0	58	104	3218079744	52	13880
2026-01-01 11:40:18.70	349.96	15.70	-40.7	-52.5	3.8	8.46e-01	0	58	104	3218079744	52	14467
2026-01-01 11:40:19.71	349.91	15.59	-40.2	-52.4	3.8	8.46e-01	0	58	104	3218079744	52	14228
2026-01-01 11:40:20.72	349.86	15.48	-40.5	-52.4	3.8	8.46e-01	0	58	104	3218079744	52	14277
2026-01-01 11:40:21.73	349.82	15.38	-40.3	-52.1	3.8	8.46e-01	0	58	104	3218079744	52	13874
2026-01-01 11:40:22.74	349.77	15.27	-40.4	-52.4	3.8	8.46e-01	0	58	104	3218079744	52	14257
2026-01-01 11:40:23.75	349.73	15.16	-40.4	-52.2	3.8	8.46e-01	0	58	104	3218079744	52	13972
2026-01-01 11:40:24.76	349.68	15.06	-40.3	-52.4	3.8	8.45e-01	0	58	104	3218079744	52	14324
2026-01-01 11:40:25.77	349.64	14.95	-40.5	-52.6	3.8	8.45e-01	0	58	104	3218079744	52	14623
2026-01-01 11:40:26.78	349.59	14.85	-40.3	-52.1	3.8	8.46e-01	0	58	104	3218079744	52	13789
2026-01-01 11:40:27.79	349.55	14.75	-40.4	-52.1	3.8	8.46e-01	0	58	104	3218079744	52	13816
