passes_logs/2026/01/01/R2.0S_Moscow/R2.0S_Moscow__20260101_035503_FENGYUN_3G_rec.log

#Pass ID: 20260101_035503_FENGYUN 3G
#Satellite: FENGYUN 3G
#Configuration: FENGYUN 3G
#almurnet v.1.7.20251203
#Start time: 2026-01-01 03:55:03

#Version: 2.2.20231116
#Station: R2.0S_Moscow
#Location: 37.707566 lon 55.798166 lat
#TLE: 1 56232U 23055A   25365.50856095  .00043589  00000+0  69982-3 0  9997
#TLE: 2 56232  49.9923 130.6499 0004081 319.7782  40.2882 15.52545779153944

#Time	Az	El	Level	Level2	SNR	BER	BlckErr	Temp	State	Recorded	gain1	gain2
2026-01-01 03:55:03.66	232.26	2.04	-44.1	-62.4	3.8	8.46e-01	0	48	0	0	60	28416
2026-01-01 03:55:04.66	232.19	2.11	-44.1	-62.4	3.8	8.44e-01	0	48	104	0	60	28381
2026-01-01 03:55:05.67	232.11	2.17	-44.1	-62.3	3.8	8.46e-01	0	48	104	0	60	28319
2026-01-01 03:55:06.68	232.03	2.24	-44.1	-62.3	3.8	8.46e-01	0	49	104	0	60	28258
2026-01-01 03:55:07.69	231.95	2.30	-44.1	-62.3	3.8	8.46e-01	0	49	104	0	60	28309
2026-01-01 03:55:08.70	231.88	2.37	-44.1	-62.3	3.8	8.47e-01	0	49	104	0	60	28158
2026-01-01 03:55:09.72	231.80	2.43	-44.1	-62.3	3.8	8.45e-01	0	49	104	0	60	28247
2026-01-01 03:55:10.73	231.72	2.50	-44.1	-62.3	3.8	8.45e-01	0	49	104	0	60	28227
2026-01-01 03:55:11.74	231.64	2.56	-44.1	-62.3	3.8	8.46e-01	0	49	104	0	60	28238
2026-01-01 03:55:12.75	231.56	2.63	-44.1	-62.3	3.8	8.46e-01	0	49	104	0	60	28247
2026-01-01 03:55:13.76	231.48	2.70	-44.1	-62.3	3.8	8.46e-01	0	49	104	0	60	28231
2026-01-01 03:55:14.77	231.40	2.76	-44.1	-62.3	3.8	8.46e-01	0	49	104	0	60	28333
2026-01-01 03:55:15.78	231.32	2.83	-44.1	-62.3	3.8	8.46e-01	0	49	104	0	60	28316
2026-01-01 03:55:16.79	231.23	2.90	-44.1	-62.3	3.8	8.46e-01	0	49	104	0	60	28327
2026-01-01 03:55:17.80	231.15	2.96	-44.1	-62.4	3.8	8.45e-01	0	50	104	0	60	28391
2026-01-01 03:55:18.81	231.07	3.03	-44.1	-62.4	3.8	8.45e-01	0	49	104	0	60	28357
2026-01-01 03:55:19.83	230.98	3.10	-44.1	-62.3	3.8	8.46e-01	0	50	104	0	60	28340
2026-01-01 03:55:20.84	230.90	3.17	-44.1	-62.3	3.8	8.46e-01	0	50	104	0	60	28249
2026-01-01 03:55:21.85	230.81	3.23	-44.1	-62.3	3.8	8.46e-01	0	50	104	0	60	28259
2026-01-01 03:55:22.86	230.73	3.30	-44.1	-62.3	3.8	8.46e-01	0	50	104	0	60	28244
2026-01-01 03:55:23.87	230.64	3.37	-44.1	-62.3	3.8	8.46e-01	0	50	104	0	60	28184
2026-01-01 03:55:24.88	230.55	3.44	-44.1	-62.3	3.8	8.47e-01	0	50	104	0	60	28122
2026-01-01 03:55:25.89	230.47	3.51	-44.1	-62.3	3.8	8.45e-01	0	50	104	0	60	28266
2026-01-01 03:55:26.90	230.38	3.58	-44.1	-62.3	3.8	8.45e-01	0	50	104	0	60	28251
2026-01-01 03:55:27.91	230.29	3.65	-44.1	-62.3	3.8	8.46e-01	0	50	104	0	60	28205
2026-01-01 03:55:28.93	230.20	3.72	-44.1	-62.3	3.8	8.45e-01	0	50	104	0	60	28265
2026-01-01 03:55:29.94	230.11	3.79	-44.1	-62.3	3.8	8.45e-01	0	50	104	0	60	28285
2026-01-01 03:55:30.95	230.02	3.86	-44.1	-62.3	3.8	8.45e-01	0	50	104	0	60	28193
2026-01-01 03:55:31.96	229.93	3.92	-44.1	-62.3	3.8	8.46e-01	0	50	104	0	60	28085
2026-01-01 03:55:32.97	229.84	4.00	-44.1	-62.2	3.8	8.46e-01	0	50	104	0	60	27967
2026-01-01 03:55:33.98	229.75	4.07	-44.1	-62.1	3.8	8.46e-01	0	51	104	0	60	27690
2026-01-01 03:55:34.99	229.65	4.14	-44.1	-62.0	3.8	8.47e-01	0	50	104	0	60	27294
2026-01-01 03:55:36.00	229.56	4.21	-44.1	-61.9	3.8	8.46e-01	0	51	104	0	60	26924
2026-01-01 03:55:37.01	229.46	4.28	-44.1	-61.9	3.8	8.46e-01	0	51	104	0	60	26797
2026-01-01 03:55:38.02	229.37	4.35	-44.1	-61.8	3.8	8.46e-01	0	51	104	0	60	26577
2026-01-01 03:55:39.04	229.27	4.42	-44.1	-61.8	3.8	8.46e-01	0	50	104	0	60	26666
2026-01-01 03:55:40.05	229.18	4.49	-44.1	-61.9	3.8	8.46e-01	0	51	104	0	60	26835
2026-01-01 03:55:41.06	229.08	4.57	-44.1	-61.9	3.8	8.47e-01	0	51	104	0	60	26995
2026-01-01 03:55:42.07	228.98	4.64	-44.1	-62.0	3.8	8.45e-01	0	51	104	0	60	27261
2026-01-01 03:55:43.08	228.88	4.71	-44.1	-62.1	3.8	8.46e-01	0	51	104	0	60	27553
2026-01-01 03:55:44.09	228.78	4.78	-44.1	-62.2	3.8	8.46e-01	0	51	104	0	60	27916
2026-01-01 03:55:45.10	228.68	4.86	-44.1	-62.2	3.8	8.47e-01	0	51	104	0	60	28001
2026-01-01 03:55:46.11	228.58	4.93	-44.1	-62.2	3.8	8.47e-01	0	51	104	0	60	28020
2026-01-01 03:55:47.12	228.48	5.00	-44.1	-62.2	3.8	8.47e-01	0	51	104	0	60	27988
2026-01-01 03:55:48.14	228.38	5.08	-44.1	-62.2	3.8	8.46e-01	0	51	104	0	60	27980
2026-01-01 03:55:49.15	228.28	5.15	-44.1	-62.2	3.8	8.47e-01	0	51	104	0	60	27769
2026-01-01 03:55:50.16	228.17	5.22	-44.1	-62.1	3.8	8.47e-01	0	51	104	0	60	27627
2026-01-01 03:55:51.17	228.07	5.30	-44.1	-62.0	3.8	8.47e-01	0	52	104	0	60	27278
2026-01-01 03:55:52.18	227.97	5.37	-44.0	-61.9	3.8	8.47e-01	0	52	104	0	60	26827
2026-01-01 03:55:53.19	227.86	5.45	-44.0	-61.6	3.8	8.47e-01	0	52	104	0	60	26056
2026-01-01 03:55:54.20	227.75	5.52	-44.1	-61.3	3.8	8.46e-01	0	51	104	0	60	25241
2026-01-01 03:55:55.21	227.65	5.60	-44.0	-61.1	3.8	8.46e-01	0	51	104	0	60	24465
2026-01-01 03:55:56.22	227.54	5.67	-44.0	-61.0	3.8	8.46e-01	0	52	104	0	60	24324
2026-01-01 03:55:57.23	227.43	5.75	-44.0	-61.0	3.8	8.46e-01	0	52	104	0	60	24347
2026-01-01 03:55:58.24	227.32	5.83	-44.0	-61.2	3.8	8.46e-01	0	52	104	0	60	24975
2026-01-01 03:55:59.26	227.21	5.90	-44.0	-61.3	3.8	8.46e-01	0	52	104	0	60	25213
2026-01-01 03:56:00.27	227.10	5.98	-44.0	-61.6	3.8	8.46e-01	0	52	104	0	60	25904
2026-01-01 03:56:01.28	226.98	6.06	-44.1	-62.0	3.8	8.45e-01	0	52	104	0	60	27084
2026-01-01 03:56:02.29	226.87	6.13	-44.1	-62.3	3.8	8.48e-01	0	52	104	0	60	28038
2026-01-01 03:56:03.30	226.76	6.21	-44.1	-62.3	3.8	8.48e-01	0	52	104	0	60	28115
2026-01-01 03:56:04.31	226.64	6.29	-44.1	-62.2	3.8	8.46e-01	0	52	104	0	60	27807
2026-01-01 03:56:05.32	226.53	6.37	-44.1	-61.8	3.8	8.47e-01	0	52	104	0	60	26482
2026-01-01 03:56:06.33	226.41	6.45	-44.0	-61.2	3.8	8.47e-01	0	52	104	0	60	24784
2026-01-01 03:56:07.34	226.29	6.52	-44.0	-60.5	3.8	8.46e-01	0	52	104	0	60	22855
2026-01-01 03:56:08.36	226.17	6.60	-44.0	-59.5	3.9	8.46e-01	0	52	104	0	60	20501
2026-01-01 03:56:09.37	226.06	6.68	-44.0	-58.3	4.3	8.41e-01	0	53	0	0	59	18909
2026-01-01 03:56:10.38	225.94	6.76	-44.0	-57.4	4.7	8.41e-01	0	52	0	0	59	16897
2026-01-01 03:56:11.39	225.81	6.84	-44.0	-57.0	4.8	8.17e-01	0	52	0	0	59	16257
2026-01-01 03:56:12.40	225.69	6.92	-44.0	-57.5	4.6	7.94e-01	0	53	0	0	59	17231
2026-01-01 03:56:13.41	225.57	7.00	-44.0	-58.5	4.3	7.94e-01	0	53	0	0	59	19296
2026-01-01 03:56:14.42	225.45	7.08	-44.1	-59.9	3.8	8.24e-01	0	53	104	0	59	22659
2026-01-01 03:56:15.43	225.32	7.16	-44.1	-60.5	3.8	8.43e-01	0	53	104	0	59	24140
2026-01-01 03:56:16.44	225.20	7.24	-44.0	-57.5	4.6	8.43e-01	0	52	0	0	59	17180
2026-01-01 03:56:17.45	225.07	7.33	-43.6	-53.5	7.4	8.36e-01	0	53	0	524288	59	10821
2026-01-01 03:56:18.46	224.94	7.41	-42.9	-49.8	11.2	2.87e-01	0	53	0	1572864	57	7914
2026-01-01 03:56:19.47	224.81	7.49	-42.1	-47.2	14.1	2.44e-03	0	53	0	2621440	56	6203
2026-01-01 03:56:20.48	224.68	7.57	-40.9	-44.8	16.3	2.44e-03	0	53	0	3670016	53	5619
2026-01-01 03:56:21.49	224.55	7.65	-40.0	-43.2	18.0	1.10e-06	0	53	0	4718592	51	5238
2026-01-01 03:56:22.51	224.42	7.74	-39.2	-41.9	19.3	0.00e+00	0	53	0	6291456	50	4798
2026-01-01 03:56:23.52	224.29	7.82	-38.6	-41.1	20.1	0.00e+00	0	53	0	7340032	49	4609
2026-01-01 03:56:24.53	224.15	7.90	-38.3	-40.7	20.6	0.00e+00	0	53	0	8388608	48	4668
2026-01-01 03:56:25.54	224.02	7.99	-38.6	-41.0	20.2	0.00e+00	0	53	0	9437184	48	4855
2026-01-01 03:56:26.55	223.88	8.07	-39.0	-41.6	19.8	0.00e+00	0	53	0	10485760	48	5188
2026-01-01 03:56:27.56	223.74	8.16	-40.0	-43.1	18.3	0.00e+00	0	53	0	11534336	50	5491
2026-01-01 03:56:28.57	223.61	8.24	-39.0	-41.6	19.8	0.00e+00	0	53	0	13107200	49	4918
2026-01-01 03:56:29.58	223.47	8.32	-38.8	-41.4	19.6	0.00e+00	0	53	0	14155776	49	4777
2026-01-01 03:56:30.59	223.33	8.41	-39.3	-42.1	19.8	0.00e+00	0	53	0	15204352	49	5202
2026-01-01 03:56:31.60	223.18	8.50	-39.7	-42.6	17.7	5.25e-03	0	53	0	16252928	51	4915
2026-01-01 03:56:32.61	223.04	8.58	-37.6	-39.8	21.5	1.56e-03	0	53	0	17301504	47	4448
2026-01-01 03:56:33.62	222.90	8.67	-37.3	-39.4	21.8	1.56e-03	0	53	0	18350080	46	4513
2026-01-01 03:56:34.63	222.75	8.75	-36.9	-38.8	22.4	0.00e+00	0	53	0	19922944	45	4489
2026-01-01 03:56:35.64	222.61	8.84	-36.8	-38.8	22.5	0.00e+00	0	53	0	20971520	45	4443
2026-01-01 03:56:36.65	222.46	8.93	-36.8	-38.8	22.5	0.00e+00	0	53	0	22020096	45	4445
2026-01-01 03:56:37.66	222.31	9.01	-36.8	-38.7	22.6	0.00e+00	0	53	0	23068672	45	4414
2026-01-01 03:56:38.67	222.16	9.10	-36.7	-38.7	22.6	0.00e+00	0	53	0	24117248	45	4395
2026-01-01 03:56:39.68	222.01	9.19	-36.8	-38.8	22.5	0.00e+00	0	54	0	25165824	45	4447
2026-01-01 03:56:40.69	221.86	9.28	-36.9	-38.8	22.4	0.00e+00	0	53	0	26738688	45	4491
2026-01-01 03:56:41.70	221.70	9.37	-36.9	-38.8	22.4	0.00e+00	0	53	0	27787264	45	4492
2026-01-01 03:56:42.71	221.55	9.46	-36.9	-38.8	22.5	0.00e+00	0	53	0	28835840	45	4458
2026-01-01 03:56:43.72	221.39	9.55	-36.9	-38.9	22.4	0.00e+00	0	54	0	29884416	45	4526
2026-01-01 03:56:44.73	221.24	9.64	-37.0	-39.0	22.3	0.00e+00	0	54	0	30932992	45	4547
2026-01-01 03:56:45.74	221.08	9.73	-36.8	-38.8	22.5	0.00e+00	0	54	0	31981568	45	4454
2026-01-01 03:56:46.75	220.92	9.82	-36.7	-38.5	22.8	0.00e+00	0	54	0	33554432	45	4328
2026-01-01 03:56:47.76	220.76	9.91	-36.8	-38.7	22.6	0.00e+00	0	54	0	34603008	45	4416
2026-01-01 03:56:48.77	220.59	10.00	-36.8	-38.7	22.4	0.00e+00	0	54	0	35651584	45	4440
2026-01-01 03:56:49.78	220.43	10.09	-36.9	-38.8	22.4	0.00e+00	0	54	0	36700160	45	4473
2026-01-01 03:56:50.79	220.26	10.18	-37.0	-38.9	22.4	0.00e+00	0	54	0	37748736	45	4529
2026-01-01 03:56:51.80	220.10	10.27	-36.9	-38.8	22.5	0.00e+00	0	54	0	38797312	45	4477
2026-01-01 03:56:52.81	219.93	10.36	-36.9	-38.8	22.5	0.00e+00	0	54	0	40370176	45	4488
2026-01-01 03:56:53.82	219.76	10.46	-37.0	-38.9	22.4	0.00e+00	0	54	0	41418752	45	4534
2026-01-01 03:56:54.83	219.59	10.55	-36.8	-38.8	22.6	0.00e+00	0	54	0	42467328	45	4456
2026-01-01 03:56:55.84	219.41	10.64	-36.6	-38.5	22.8	0.00e+00	0	54	0	43515904	45	4323
2026-01-01 03:56:56.85	219.24	10.74	-36.6	-38.4	22.9	0.00e+00	0	54	0	44564480	45	4270
2026-01-01 03:56:57.86	219.06	10.83	-36.5	-38.3	23.1	0.00e+00	0	54	0	46137344	45	4227
2026-01-01 03:56:58.87	218.89	10.92	-36.4	-38.2	23.2	0.00e+00	0	54	0	47185920	44	4423
2026-01-01 03:56:59.88	218.71	11.02	-36.3	-38.1	23.2	0.00e+00	0	54	0	48234496	44	4372
2026-01-01 03:57:00.89	218.53	11.11	-36.3	-38.1	23.3	0.00e+00	0	54	0	49283072	44	4370
2026-01-01 03:57:01.90	218.34	11.21	-36.5	-38.3	23.1	0.00e+00	0	54	0	50331648	44	4492
2026-01-01 03:57:02.91	218.16	11.30	-36.5	-38.3	23.1	0.00e+00	0	54	0	51380224	44	4480
2026-01-01 03:57:03.92	217.98	11.40	-36.6	-38.5	22.9	0.00e+00	0	54	0	52953088	44	4582
2026-01-01 03:57:04.93	217.79	11.50	-36.6	-38.5	22.9	0.00e+00	0	54	0	54001664	44	4563
2026-01-01 03:57:05.94	217.60	11.59	-36.4	-38.2	23.2	0.00e+00	0	54	0	55050240	44	4437
2026-01-01 03:57:06.95	217.41	11.69	-36.5	-38.4	23.0	0.00e+00	0	54	0	56098816	44	4509
2026-01-01 03:57:07.96	217.22	11.79	-36.3	-38.1	23.3	0.00e+00	0	54	0	57147392	44	4366
2026-01-01 03:57:08.97	217.03	11.88	-36.4	-38.2	23.2	0.00e+00	0	54	0	58195968	44	4435
2026-01-01 03:57:09.98	216.83	11.98	-36.3	-38.1	23.3	0.00e+00	0	54	0	59244544	44	4367
2026-01-01 03:57:10.99	216.63	12.08	-36.2	-38.0	23.4	0.00e+00	0	55	0	60817408	44	4313
2026-01-01 03:57:12.00	216.44	12.18	-36.6	-38.5	23.0	0.00e+00	0	54	0	61865984	44	4575
2026-01-01 03:57:13.01	216.24	12.28	-36.6	-38.4	23.1	0.00e+00	0	55	0	62914560	44	4526
2026-01-01 03:57:14.02	216.03	12.37	-36.8	-38.7	22.9	0.00e+00	0	54	0	63963136	44	4654
2026-01-01 03:57:15.03	215.83	12.47	-36.7	-38.6	22.9	0.00e+00	0	54	0	65011712	44	4602
2026-01-01 03:57:16.04	215.62	12.57	-36.5	-38.3	23.2	0.00e+00	0	54	0	66060288	44	4459
2026-01-01 03:57:17.04	215.42	12.67	-36.4	-38.2	23.3	0.00e+00	0	54	0	67633152	44	4422
2026-01-01 03:57:18.05	215.21	12.77	-35.8	-37.5	23.8	0.00e+00	0	55	0	68681728	43	4307
2026-01-01 03:57:19.06	215.00	12.87	-35.8	-37.5	23.8	0.00e+00	0	54	0	69730304	43	4322
2026-01-01 03:57:20.07	214.79	12.97	-35.6	-37.3	24.0	0.00e+00	0	55	0	70778880	43	4220
2026-01-01 03:57:21.08	214.57	13.07	-35.6	-37.3	24.0	0.00e+00	0	55	0	71827456	43	4209
2026-01-01 03:57:22.09	214.35	13.18	-35.7	-37.4	23.8	0.00e+00	0	54	0	72876032	43	4290
2026-01-01 03:57:23.10	214.13	13.28	-35.8	-37.5	23.8	0.00e+00	0	54	0	74448896	43	4316
2026-01-01 03:57:24.12	213.91	13.38	-35.5	-37.2	24.1	0.00e+00	0	55	0	75497472	43	4165
2026-01-01 03:57:25.12	213.69	13.48	-35.4	-37.1	24.2	0.00e+00	0	55	0	76546048	42	4359
2026-01-01 03:57:26.13	213.47	13.58	-35.3	-37.0	24.3	0.00e+00	0	55	0	77594624	42	4306
2026-01-01 03:57:27.14	213.24	13.69	-35.2	-36.8	24.5	0.00e+00	0	55	0	78643200	42	4226
2026-01-01 03:57:28.15	213.01	13.79	-35.3	-36.9	24.4	0.00e+00	0	55	0	79691776	42	4291
2026-01-01 03:57:29.16	212.78	13.89	-35.2	-36.9	24.4	0.00e+00	0	55	0	81264640	42	4257
2026-01-01 03:57:30.17	212.55	14.00	-35.4	-37.0	24.3	0.00e+00	0	55	0	82313216	42	4336
2026-01-01 03:57:31.18	212.31	14.10	-35.4	-37.0	24.2	0.00e+00	0	55	0	83361792	42	4325
2026-01-01 03:57:32.19	212.08	14.20	-35.5	-37.1	24.2	0.00e+00	0	55	0	84410368	42	4388
2026-01-01 03:57:33.20	211.84	14.31	-35.2	-36.9	24.5	0.00e+00	0	55	0	85458944	42	4245
2026-01-01 03:57:34.21	211.59	14.41	-35.0	-36.6	24.7	0.00e+00	0	55	0	86507520	42	4139
2026-01-01 03:57:35.22	211.35	14.52	-34.8	-36.4	24.8	0.00e+00	0	55	0	88080384	41	4273
2026-01-01 03:57:36.23	211.11	14.62	-34.7	-36.3	25.0	0.00e+00	0	55	0	89128960	41	4202
2026-01-01 03:57:37.24	210.86	14.73	-34.8	-36.4	25.0	0.00e+00	0	55	0	90177536	41	4243
2026-01-01 03:57:38.25	210.61	14.83	-34.9	-36.4	24.9	0.00e+00	0	55	0	91226112	41	4279
2026-01-01 03:57:39.26	210.35	14.94	-34.8	-36.4	24.9	0.00e+00	0	55	0	92274688	41	4266
2026-01-01 03:57:40.27	210.10	15.04	-35.0	-36.6	24.7	0.00e+00	0	55	0	93847552	41	4377
2026-01-01 03:57:41.28	209.84	15.15	-35.1	-36.7	24.7	0.00e+00	0	55	0	94896128	41	4412
2026-01-01 03:57:42.29	209.58	15.26	-35.1	-36.8	24.6	0.00e+00	0	55	0	95944704	41	4453
2026-01-01 03:57:43.30	209.32	15.36	-35.2	-36.8	24.6	0.00e+00	0	55	0	96993280	41	4465
2026-01-01 03:57:44.31	209.06	15.47	-35.0	-36.6	24.7	0.00e+00	0	55	0	98041856	41	4366
2026-01-01 03:57:45.32	208.79	15.58	-34.9	-36.5	24.9	0.00e+00	0	55	0	99090432	41	4299
2026-01-01 03:57:46.33	208.52	15.68	-34.7	-36.3	25.0	0.00e+00	0	55	0	100139008	41	4218
2026-01-01 03:57:47.34	208.25	15.79	-34.6	-36.1	25.2	0.00e+00	0	55	0	101711872	41	4130
2026-01-01 03:57:48.35	207.98	15.90	-34.6	-36.1	25.2	0.00e+00	0	55	0	102760448	41	4118
2026-01-01 03:57:49.36	207.70	16.00	-34.7	-36.3	25.1	0.00e+00	0	55	0	103809024	41	4218
2026-01-01 03:57:50.37	207.42	16.11	-34.8	-36.3	25.0	0.00e+00	0	55	0	104857600	41	4231
2026-01-01 03:57:51.38	207.14	16.22	-34.8	-36.4	25.0	0.00e+00	0	55	0	105906176	41	4276
2026-01-01 03:57:52.39	206.85	16.33	-34.8	-36.4	24.9	0.00e+00	0	55	0	106954752	41	4287
2026-01-01 03:57:53.40	206.57	16.43	-34.6	-36.2	25.2	0.00e+00	0	55	0	108527616	41	4169
2026-01-01 03:57:54.41	206.28	16.54	-34.5	-36.0	25.3	0.00e+00	0	55	0	109576192	41	4077
2026-01-01 03:57:55.42	205.99	16.65	-34.3	-35.9	25.5	0.00e+00	0	55	0	110624768	40	4243
2026-01-01 03:57:56.43	205.69	16.76	-34.4	-35.9	25.4	0.00e+00	0	55	0	111673344	40	4277
2026-01-01 03:57:57.44	205.40	16.86	-34.4	-35.9	25.5	0.00e+00	0	55	0	112721920	40	4269
2026-01-01 03:57:58.45	205.10	16.97	-34.5	-36.1	25.2	0.00e+00	0	55	0	113770496	40	4344
2026-01-01 03:57:59.46	204.79	17.08	-34.4	-35.9	25.4	0.00e+00	0	55	0	115343360	40	4257
2026-01-01 03:58:00.46	204.49	17.19	-34.1	-35.6	25.7	0.00e+00	0	55	0	116391936	40	4127
2026-01-01 03:58:01.48	204.18	17.29	-33.8	-35.2	26.1	0.00e+00	0	55	0	117440512	39	4193
2026-01-01 03:58:02.48	203.87	17.40	-33.8	-35.3	26.1	0.00e+00	0	55	0	118489088	39	4196
2026-01-01 03:58:03.49	203.56	17.51	-33.9	-35.3	26.0	0.00e+00	0	55	0	119537664	39	4239
2026-01-01 03:58:04.50	203.25	17.62	-34.2	-35.7	25.7	0.00e+00	0	55	0	120586240	39	4424
2026-01-01 03:58:05.51	202.93	17.72	-34.3	-35.8	25.6	0.00e+00	0	55	0	122159104	39	4478
2026-01-01 03:58:06.52	202.61	17.83	-34.4	-35.9	25.5	0.00e+00	0	55	0	123207680	39	4519
2026-01-01 03:58:07.54	202.28	17.94	-34.2	-35.7	25.7	0.00e+00	0	55	0	124256256	39	4424
2026-01-01 03:58:08.54	201.95	18.05	-34.2	-35.7	25.7	0.00e+00	0	56	0	125304832	39	4413
2026-01-01 03:58:09.56	201.62	18.15	-34.0	-35.5	25.9	0.00e+00	0	55	0	126353408	39	4316
2026-01-01 03:58:10.56	201.29	18.26	-34.1	-35.5	25.9	0.00e+00	0	55	0	127926272	39	4333
2026-01-01 03:58:11.57	200.96	18.37	-33.9	-35.4	26.0	0.00e+00	0	55	0	128974848	39	4264
2026-01-01 03:58:12.58	200.62	18.47	-33.8	-35.3	26.1	0.00e+00	0	55	0	130023424	39	4207
2026-01-01 03:58:13.59	200.28	18.58	-33.7	-35.1	26.3	0.00e+00	0	55	0	131072000	39	4119
2026-01-01 03:58:14.60	199.93	18.68	-33.5	-34.9	26.3	0.00e+00	0	55	0	132120576	38	4255
2026-01-01 03:58:15.61	199.58	18.79	-33.4	-34.8	26.6	0.00e+00	0	56	0	133169152	38	4211
2026-01-01 03:58:16.62	199.23	18.89	-33.4	-34.8	26.5	0.00e+00	0	55	0	134742016	38	4242
2026-01-01 03:58:17.63	198.88	19.00	-33.4	-34.8	26.6	0.00e+00	0	56	0	135790592	38	4221
2026-01-01 03:58:18.64	198.52	19.10	-33.4	-34.9	26.5	0.00e+00	0	56	0	136839168	38	4244
2026-01-01 03:58:19.66	198.16	19.21	-33.6	-35.0	26.4	0.00e+00	0	56	0	137887744	38	4300
2026-01-01 03:58:20.67	197.80	19.31	-33.6	-35.0	26.4	0.00e+00	0	56	0	138936320	38	4324
2026-01-01 03:58:21.67	197.44	19.41	-33.5	-34.9	26.4	0.00e+00	0	56	0	139984896	38	4288
2026-01-01 03:58:22.68	197.07	19.52	-33.5	-35.0	26.4	0.00e+00	0	56	0	141033472	38	4293
2026-01-01 03:58:23.69	196.70	19.62	-33.7	-35.2	26.3	0.00e+00	0	56	0	142606336	38	4398
2026-01-01 03:58:24.71	196.32	19.72	-33.7	-35.1	26.3	0.00e+00	0	56	0	143654912	38	4384
2026-01-01 03:58:25.72	195.94	19.82	-33.8	-35.3	26.1	0.00e+00	0	56	0	144703488	38	4464
2026-01-01 03:58:26.73	195.56	19.92	-33.9	-35.3	26.1	0.00e+00	0	56	0	145752064	38	4480
2026-01-01 03:58:27.74	195.18	20.03	-33.9	-35.4	26.1	0.00e+00	0	55	0	146800640	38	4498
2026-01-01 03:58:28.75	194.79	20.12	-33.7	-35.2	26.3	0.00e+00	0	56	0	147849216	38	4404
2026-01-01 03:58:29.75	194.41	20.22	-33.4	-34.9	26.5	0.00e+00	0	56	0	149422080	38	4245
2026-01-01 03:58:30.76	194.02	20.32	-33.3	-34.7	26.6	0.00e+00	0	56	0	150470656	38	4192
2026-01-01 03:58:31.77	193.62	20.42	-33.4	-34.8	26.6	0.00e+00	0	56	0	151519232	38	4207
2026-01-01 03:58:32.78	193.22	20.52	-33.6	-35.0	26.4	0.00e+00	0	56	0	152567808	38	4333
2026-01-01 03:58:33.79	192.82	20.61	-33.5	-35.0	26.4	0.00e+00	0	56	0	153616384	38	4294
2026-01-01 03:58:34.80	192.42	20.71	-33.5	-35.0	26.5	0.00e+00	0	56	0	154664960	38	4297
2026-01-01 03:58:35.81	192.01	20.80	-33.6	-35.0	26.4	0.00e+00	0	56	0	156237824	38	4306
2026-01-01 03:58:36.83	191.60	20.90	-33.6	-35.0	26.4	0.00e+00	0	56	0	157286400	38	4313
2026-01-01 03:58:37.84	191.18	20.99	-33.2	-34.6	26.8	0.00e+00	0	56	0	158334976	38	4134
2026-01-01 03:58:38.85	190.77	21.08	-33.3	-34.7	26.7	0.00e+00	0	56	0	159383552	38	4163
2026-01-01 03:58:39.86	190.35	21.17	-33.4	-34.8	26.6	0.00e+00	0	56	0	160432128	38	4204
2026-01-01 03:58:40.87	189.92	21.26	-33.4	-34.8	26.6	0.00e+00	0	56	0	162004992	38	4211
2026-01-01 03:58:41.88	189.50	21.35	-33.5	-34.9	26.5	0.00e+00	0	56	0	163053568	38	4273
2026-01-01 03:58:42.89	189.07	21.44	-33.7	-35.2	26.2	0.00e+00	0	56	0	164102144	38	4395
2026-01-01 03:58:43.90	188.64	21.53	-33.5	-34.9	26.5	0.00e+00	0	56	0	165150720	38	4266
2026-01-01 03:58:44.91	188.21	21.61	-33.2	-34.5	26.8	0.00e+00	0	56	0	166199296	38	4094
2026-01-01 03:58:45.92	187.77	21.70	-33.4	-34.7	26.7	0.00e+00	0	56	0	167247872	38	4192
2026-01-01 03:58:46.93	187.33	21.78	-33.4	-34.8	26.6	0.00e+00	0	56	0	168820736	38	4194
2026-01-01 03:58:47.94	186.89	21.86	-33.2	-34.6	26.7	0.00e+00	0	56	0	169869312	38	4128
2026-01-01 03:58:48.95	186.44	21.95	-33.1	-34.4	27.0	0.00e+00	0	56	0	170917888	38	4051
2026-01-01 03:58:49.96	186.00	22.03	-33.2	-34.6	26.8	0.00e+00	0	56	0	171966464	38	4127
2026-01-01 03:58:50.97	185.55	22.10	-33.5	-34.9	26.5	0.00e+00	0	56	0	173015040	38	4271
2026-01-01 03:58:51.98	185.09	22.18	-33.3	-34.7	26.6	0.00e+00	0	56	0	174063616	38	4151
2026-01-01 03:58:52.99	184.64	22.26	-32.9	-34.3	27.0	0.00e+00	0	56	0	175636480	37	4197
2026-01-01 03:58:54.00	184.18	22.33	-33.0	-34.3	27.0	0.00e+00	0	56	0	176685056	37	4241
2026-01-01 03:58:55.01	183.72	22.41	-33.0	-34.3	27.0	0.00e+00	0	56	0	177733632	37	4235
2026-01-01 03:58:56.02	183.26	22.48	-32.9	-34.2	27.1	0.00e+00	0	56	0	178782208	37	4174
2026-01-01 03:58:57.02	182.79	22.55	-32.7	-34.0	27.3	0.00e+00	0	56	0	179830784	37	4084
2026-01-01 03:58:58.04	182.32	22.62	-32.7	-34.1	27.2	0.00e+00	0	56	0	180879360	37	4100
2026-01-01 03:58:59.05	181.85	22.68	-32.6	-33.9	27.2	0.00e+00	0	56	0	181927936	37	4044
2026-01-01 03:59:00.05	181.38	22.75	-32.4	-33.8	27.4	0.00e+00	0	56	0	183500800	36	4200
2026-01-01 03:59:01.07	180.90	22.81	-32.7	-34.0	27.3	0.00e+00	0	56	0	184549376	36	4329
2026-01-01 03:59:02.08	180.43	22.88	-32.8	-34.2	27.1	0.00e+00	0	56	0	185597952	36	4415
2026-01-01 03:59:03.09	179.95	22.94	-32.7	-34.1	27.2	0.00e+00	0	56	0	186646528	36	4352
2026-01-01 03:59:04.10	179.46	23.00	-32.9	-34.2	27.1	0.00e+00	0	56	0	187695104	36	4427
2026-01-01 03:59:05.10	178.98	23.05	-33.1	-34.5	26.6	0.00e+00	0	56	0	188743680	36	4568
2026-01-01 03:59:06.11	178.50	23.11	-33.1	-34.5	26.9	0.00e+00	0	56	0	190316544	36	4547
2026-01-01 03:59:07.12	178.01	23.16	-33.0	-34.3	27.1	0.00e+00	0	56	0	191365120	36	4491
2026-01-01 03:59:08.13	177.52	23.21	-33.3	-34.7	26.7	0.00e+00	0	56	0	192413696	37	4437
2026-01-01 03:59:09.14	177.03	23.26	-33.3	-34.7	26.7	0.00e+00	0	56	0	193462272	37	4398
2026-01-01 03:59:10.15	176.53	23.31	-33.2	-34.6	26.8	0.00e+00	0	56	0	194510848	37	4348
2026-01-01 03:59:11.16	176.04	23.36	-33.0	-34.4	27.0	0.00e+00	0	56	0	195559424	37	4284
2026-01-01 03:59:12.17	175.54	23.40	-33.0	-34.3	27.0	0.00e+00	0	56	0	197132288	37	4242
2026-01-01 03:59:13.18	175.04	23.45	-32.9	-34.3	27.1	0.00e+00	0	56	0	198180864	37	4225
2026-01-01 03:59:14.19	174.54	23.49	-33.1	-34.5	27.1	0.00e+00	0	56	0	199229440	37	4299
2026-01-01 03:59:15.20	174.04	23.53	-33.2	-34.6	26.9	0.00e+00	0	56	0	200278016	37	4357
2026-01-01 03:59:16.21	173.54	23.56	-33.2	-34.6	26.9	0.00e+00	0	56	0	201326592	37	4389
2026-01-01 03:59:17.22	173.03	23.60	-33.3	-34.7	26.8	0.00e+00	0	56	0	202899456	37	4406
2026-01-01 03:59:18.23	172.53	23.63	-33.4	-34.8	26.7	0.00e+00	0	56	0	203948032	37	4463
2026-01-01 03:59:19.24	172.02	23.66	-33.1	-34.4	27.0	0.00e+00	0	56	0	204996608	37	4288
2026-01-01 03:59:20.25	171.51	23.69	-33.0	-34.4	27.1	0.00e+00	0	56	0	206045184	37	4248
2026-01-01 03:59:21.26	171.00	23.72	-33.2	-34.5	26.9	0.00e+00	0	56	0	207093760	37	4339
2026-01-01 03:59:22.27	170.49	23.74	-32.9	-34.3	27.2	0.00e+00	0	56	0	208142336	37	4196
2026-01-01 03:59:23.28	169.98	23.76	-32.7	-34.1	27.3	0.00e+00	0	56	0	209715200	37	4114
2026-01-01 03:59:24.29	169.47	23.78	-32.9	-34.2	27.2	0.00e+00	0	56	0	210763776	37	4171
2026-01-01 03:59:25.30	168.96	23.80	-32.8	-34.2	27.3	0.00e+00	0	56	0	211812352	37	4156
2026-01-01 03:59:26.31	168.45	23.82	-32.6	-33.9	27.5	0.00e+00	0	56	0	212860928	37	4036
2026-01-01 03:59:27.32	167.93	23.83	-32.8	-34.2	27.3	0.00e+00	0	56	0	213909504	37	4161
2026-01-01 03:59:28.33	167.42	23.84	-32.8	-34.1	27.4	0.00e+00	0	56	0	214958080	37	4116
2026-01-01 03:59:29.34	166.90	23.85	-32.6	-33.9	27.5	0.00e+00	0	56	0	216530944	37	4041
2026-01-01 03:59:30.35	166.39	23.86	-32.9	-34.3	27.1	0.00e+00	0	56	0	217579520	37	4210
2026-01-01 03:59:31.36	165.87	23.86	-33.0	-34.4	27.1	0.00e+00	0	56	0	218628096	37	4278
2026-01-01 03:59:32.37	165.36	23.87	-32.9	-34.3	27.3	0.00e+00	0	56	0	219676672	37	4220
2026-01-01 03:59:33.38	164.84	23.87	-33.0	-34.4	27.1	0.00e+00	0	56	0	220725248	37	4263
2026-01-01 03:59:34.38	164.33	23.87	-33.3	-34.7	26.9	0.00e+00	0	56	0	221773824	37	4407
2026-01-01 03:59:35.39	163.82	23.86	-33.1	-34.5	27.0	0.00e+00	0	56	0	222822400	37	4305
2026-01-01 03:59:36.40	163.30	23.86	-32.9	-34.2	27.2	0.00e+00	0	56	0	224395264	36	4437
2026-01-01 03:59:37.41	162.79	23.85	-33.1	-34.5	27.1	0.00e+00	0	56	0	225443840	36	4546
2026-01-01 03:59:38.42	162.27	23.84	-32.7	-34.1	27.4	0.00e+00	0	56	0	226492416	36	4372
2026-01-01 03:59:39.43	161.76	23.83	-32.5	-33.8	27.7	0.00e+00	0	56	0	227540992	36	4233
2026-01-01 03:59:40.44	161.25	23.81	-32.7	-34.1	27.5	0.00e+00	0	57	0	228589568	36	4356
2026-01-01 03:59:41.45	160.73	23.80	-32.7	-34.1	27.4	0.00e+00	0	57	0	229638144	36	4355
2026-01-01 03:59:42.46	160.22	23.78	-32.7	-34.1	27.4	0.00e+00	0	56	0	231211008	36	4356
2026-01-01 03:59:43.47	159.71	23.76	-32.8	-34.2	27.4	0.00e+00	0	56	0	232259584	36	4401
2026-01-01 03:59:44.48	159.20	23.73	-32.8	-34.2	27.3	0.00e+00	0	56	0	233308160	36	4422
2026-01-01 03:59:45.49	158.69	23.71	-32.8	-34.1	27.4	0.00e+00	0	56	0	234356736	36	4391
2026-01-01 03:59:46.50	158.18	23.68	-33.0	-34.4	27.2	0.00e+00	0	56	0	235405312	36	4501
2026-01-01 03:59:47.51	157.68	23.65	-32.9	-34.3	27.2	0.00e+00	0	56	0	236453888	36	4449
2026-01-01 03:59:48.52	157.17	23.62	-33.0	-34.4	27.2	0.00e+00	0	56	0	238026752	36	4508
2026-01-01 03:59:49.53	156.67	23.59	-33.1	-34.5	27.1	0.00e+00	0	56	0	239075328	36	4575
2026-01-01 03:59:50.54	156.16	23.55	-33.2	-34.7	26.8	0.00e+00	0	56	0	240123904	37	4396
2026-01-01 03:59:51.55	155.66	23.51	-33.0	-34.4	27.1	0.00e+00	0	56	0	241172480	37	4270
2026-01-01 03:59:52.56	155.16	23.47	-32.9	-34.3	27.2	0.00e+00	0	57	0	242221056	37	4235
2026-01-01 03:59:53.57	154.66	23.43	-32.9	-34.3	27.2	0.00e+00	0	56	0	243793920	37	4218
2026-01-01 03:59:54.58	154.16	23.39	-33.0	-34.4	27.0	0.00e+00	0	56	0	244842496	37	4278
2026-01-01 03:59:55.58	153.67	23.34	-32.8	-34.2	27.2	0.00e+00	0	56	0	245891072	37	4185
2026-01-01 03:59:56.59	153.18	23.30	-32.7	-34.1	27.4	0.00e+00	0	56	0	246939648	37	4111
2026-01-01 03:59:57.60	152.68	23.25	-32.7	-34.1	27.4	0.00e+00	0	57	0	247988224	37	4100
2026-01-01 03:59:58.61	152.19	23.20	-32.5	-33.9	27.6	0.00e+00	0	56	0	249036800	37	4005
2026-01-01 03:59:59.62	151.70	23.14	-32.6	-33.9	27.5	0.00e+00	0	57	0	250609664	37	4046
2026-01-01 04:00:00.63	151.22	23.09	-32.9	-34.3	27.2	0.00e+00	0	57	0	251658240	37	4199
2026-01-01 04:00:01.64	150.73	23.03	-33.0	-34.4	27.0	0.00e+00	0	57	0	252706816	37	4275
2026-01-01 04:00:02.65	150.25	22.98	-32.9	-34.3	27.1	0.00e+00	0	57	0	253755392	37	4236
2026-01-01 04:00:03.66	149.77	22.92	-32.8	-34.2	27.3	0.00e+00	0	57	0	254803968	37	4175
2026-01-01 04:00:04.67	149.29	22.86	-32.6	-33.9	27.5	0.00e+00	0	56	0	255852544	37	4039
2026-01-01 04:00:05.68	148.82	22.79	-32.7	-34.1	27.3	0.00e+00	0	56	0	257425408	37	4118
2026-01-01 04:00:06.69	148.34	22.73	-32.6	-34.0	27.4	0.00e+00	0	56	0	258473984	37	4066
2026-01-01 04:00:07.70	147.87	22.66	-32.8	-34.2	27.2	0.00e+00	0	56	0	259522560	37	4174
2026-01-01 04:00:08.71	147.40	22.59	-32.8	-34.1	27.3	0.00e+00	0	56	0	260571136	37	4132
2026-01-01 04:00:09.72	146.93	22.53	-32.8	-34.2	27.2	0.00e+00	0	57	0	261619712	37	4190
2026-01-01 04:00:10.73	146.47	22.45	-32.7	-34.0	27.3	0.00e+00	0	56	0	262668288	37	4094
2026-01-01 04:00:11.74	146.01	22.38	-32.7	-34.1	27.3	0.00e+00	0	56	0	263716864	37	4135
2026-01-01 04:00:12.75	145.55	22.31	-32.8	-34.2	27.2	0.00e+00	0	57	0	265289728	37	4163
2026-01-01 04:00:13.76	145.09	22.23	-33.0	-34.4	27.0	0.00e+00	0	56	0	266338304	37	4274
2026-01-01 04:00:14.77	144.64	22.16	-33.0	-34.4	27.0	0.00e+00	0	57	0	267386880	37	4243
2026-01-01 04:00:15.78	144.19	22.08	-32.8	-34.2	27.2	0.00e+00	0	57	0	268435456	37	4170
2026-01-01 04:00:16.79	143.74	22.00	-32.8	-34.2	27.2	0.00e+00	0	57	0	269484032	37	4174
2026-01-01 04:00:17.80	143.30	21.92	-32.9	-34.3	27.1	0.00e+00	0	57	0	270532608	37	4196
2026-01-01 04:00:18.81	142.85	21.84	-33.2	-34.6	26.8	0.00e+00	0	57	0	272105472	37	4356
2026-01-01 04:00:19.82	142.41	21.76	-33.2	-34.7	26.8	0.00e+00	0	57	0	273154048	37	4405
2026-01-01 04:00:20.83	141.97	21.67	-33.3	-34.8	26.6	0.00e+00	0	57	0	274202624	37	4459
2026-01-01 04:00:21.84	141.54	21.59	-33.4	-34.9	26.5	0.00e+00	0	57	0	275251200	37	4507
2026-01-01 04:00:22.85	141.11	21.50	-33.5	-35.0	26.5	0.00e+00	0	57	0	276299776	37	4571
2026-01-01 04:00:23.86	140.68	21.41	-33.4	-34.9	26.5	0.00e+00	0	57	0	277348352	37	4512
2026-01-01 04:00:24.87	140.25	21.33	-33.2	-34.7	26.8	0.00e+00	0	57	0	278921216	37	4392
2026-01-01 04:00:25.88	139.83	21.24	-32.9	-34.2	27.1	0.00e+00	0	57	0	279969792	37	4188
2026-01-01 04:00:26.89	139.41	21.15	-32.8	-34.2	27.1	0.00e+00	0	57	0	281018368	37	4182
2026-01-01 04:00:27.90	138.99	21.06	-32.9	-34.3	27.0	0.00e+00	0	57	0	282066944	37	4196
2026-01-01 04:00:28.91	138.58	20.96	-33.3	-34.7	26.6	0.00e+00	0	57	0	283115520	37	4432
2026-01-01 04:00:29.92	138.17	20.87	-33.6	-35.0	26.4	0.00e+00	0	57	0	284688384	37	4591
2026-01-01 04:00:30.93	137.76	20.78	-33.7	-35.2	26.2	0.00e+00	0	56	0	285736960	38	4413
2026-01-01 04:00:31.94	137.36	20.68	-33.4	-34.8	26.6	0.00e+00	0	57	0	286785536	38	4220
2026-01-01 04:00:32.95	136.95	20.59	-33.3	-34.7	26.7	0.00e+00	0	57	0	287834112	38	4192
2026-01-01 04:00:33.96	136.55	20.49	-33.5	-34.9	26.5	0.00e+00	0	57	0	288882688	38	4279
2026-01-01 04:00:34.97	136.16	20.39	-33.7	-35.1	26.3	0.00e+00	0	57	0	289931264	38	4380
2026-01-01 04:00:35.98	135.76	20.30	-33.6	-35.0	26.4	0.00e+00	0	57	0	291504128	38	4340
2026-01-01 04:00:36.99	135.37	20.20	-33.4	-34.9	26.4	0.00e+00	0	57	0	292552704	38	4247
2026-01-01 04:00:38.00	134.99	20.10	-33.3	-34.7	26.7	0.00e+00	0	57	0	293601280	38	4179
2026-01-01 04:00:39.01	134.60	20.00	-33.4	-34.8	26.5	0.00e+00	0	57	0	294649856	38	4227
2026-01-01 04:00:40.02	134.22	19.90	-33.6	-35.0	26.3	0.00e+00	0	57	0	295698432	38	4336
2026-01-01 04:00:41.03	133.84	19.80	-33.6	-35.1	26.3	0.00e+00	0	57	0	296747008	38	4355
2026-01-01 04:00:42.05	133.47	19.70	-33.6	-35.1	26.3	0.00e+00	0	57	0	298319872	38	4354
2026-01-01 04:00:43.05	133.10	19.60	-33.7	-35.2	26.2	0.00e+00	0	57	0	299368448	38	4392
2026-01-01 04:00:44.06	132.73	19.49	-33.6	-35.0	26.3	0.00e+00	0	57	0	300417024	38	4337
2026-01-01 04:00:45.07	132.36	19.39	-33.7	-35.2	26.2	0.00e+00	0	57	0	301465600	38	4398
2026-01-01 04:00:46.08	132.00	19.29	-33.9	-35.4	25.9	0.00e+00	0	57	0	302514176	38	4538
2026-01-01 04:00:47.09	131.64	19.19	-33.9	-35.4	25.9	0.00e+00	0	57	0	303562752	38	4534
2026-01-01 04:00:48.10	131.28	19.08	-33.9	-35.4	25.9	0.00e+00	0	57	0	304611328	38	4538
2026-01-01 04:00:49.11	130.93	18.98	-33.7	-35.2	26.1	0.00e+00	0	57	0	306184192	38	4416
2026-01-01 04:00:50.12	130.58	18.87	-33.7	-35.2	26.1	0.00e+00	0	57	0	307232768	38	4419
2026-01-01 04:00:51.13	130.23	18.77	-33.7	-35.1	26.2	0.00e+00	0	57	0	308281344	38	4377
2026-01-01 04:00:52.14	129.88	18.66	-33.7	-35.2	26.1	0.00e+00	0	57	0	309329920	38	4432
2026-01-01 04:00:53.15	129.54	18.56	-33.9	-35.4	25.9	0.00e+00	0	57	0	310378496	38	4514
2026-01-01 04:00:54.16	129.20	18.45	-34.0	-35.5	25.8	0.00e+00	0	57	0	311427072	38	4571
2026-01-01 04:00:55.17	128.86	18.35	-34.1	-35.6	25.6	0.00e+00	0	57	0	312999936	38	4637
2026-01-01 04:00:56.17	128.53	18.24	-33.9	-35.4	25.8	0.00e+00	0	57	0	314048512	38	4520
2026-01-01 04:00:57.18	128.20	18.13	-33.9	-35.3	25.9	0.00e+00	0	57	0	315097088	38	4486
2026-01-01 04:00:58.19	127.88	18.03	-34.0	-35.4	25.8	0.00e+00	0	56	0	316145664	38	4541
2026-01-01 04:00:59.20	127.55	17.92	-34.2	-35.8	25.5	0.00e+00	0	57	0	317194240	39	4448
2026-01-01 04:01:00.21	127.23	17.81	-34.2	-35.8	25.5	0.00e+00	0	57	0	318767104	39	4466
2026-01-01 04:01:01.22	126.91	17.71	-34.3	-35.8	25.5	0.00e+00	0	57	0	319815680	39	4467
2026-01-01 04:01:02.23	126.59	17.60	-34.2	-35.7	25.6	0.00e+00	0	57	0	320864256	39	4401
2026-01-01 04:01:03.24	126.28	17.49	-34.2	-35.7	25.6	0.00e+00	0	57	0	321912832	39	4422
2026-01-01 04:01:04.25	125.97	17.39	-34.0	-35.5	25.7	0.00e+00	0	57	0	322961408	39	4339
2026-01-01 04:01:05.26	125.66	17.28	-34.0	-35.5	25.7	0.00e+00	0	57	0	324009984	39	4319
2026-01-01 04:01:06.27	125.35	17.17	-34.1	-35.6	25.6	0.00e+00	0	57	0	325582848	39	4373
2026-01-01 04:01:07.28	125.05	17.06	-34.4	-36.0	25.2	0.00e+00	0	57	0	326631424	39	4577
2026-01-01 04:01:08.29	124.75	16.96	-34.6	-36.2	25.0	0.00e+00	0	57	0	327680000	39	4679
2026-01-01 04:01:09.30	124.45	16.85	-34.6	-36.2	25.0	0.00e+00	0	57	0	328728576	39	4678
2026-01-01 04:01:10.31	124.16	16.74	-34.7	-36.3	24.9	0.00e+00	0	57	0	329777152	40	4449
2026-01-01 04:01:11.32	123.86	16.63	-34.6	-36.2	24.9	0.00e+00	0	57	0	330825728	40	4422
2026-01-01 04:01:12.33	123.57	16.53	-34.5	-36.2	24.9	0.00e+00	0	57	0	332398592	40	4411
2026-01-01 04:01:13.34	123.29	16.42	-34.6	-36.2	25.0	0.00e+00	0	57	0	333447168	39	4685
2026-01-01 04:01:14.35	123.00	16.31	-34.4	-36.1	25.1	0.00e+00	0	57	0	334495744	39	4623
2026-01-01 04:01:15.36	122.72	16.21	-34.4	-36.0	25.2	0.00e+00	0	57	0	335544320	39	4548
2026-01-01 04:01:16.37	122.44	16.10	-34.3	-35.9	25.3	0.00e+00	0	57	0	336592896	39	4507
2026-01-01 04:01:17.38	122.16	15.99	-34.2	-35.9	25.2	0.00e+00	0	57	0	337641472	39	4517
2026-01-01 04:01:18.39	121.89	15.89	-34.5	-36.1	24.8	0.00e+00	0	57	0	338690048	39	4638
2026-01-01 04:01:19.40	121.62	15.78	-34.7	-36.5	24.6	0.00e+00	0	57	0	340262912	40	4546
2026-01-01 04:01:20.41	121.35	15.67	-34.7	-36.5	24.5	0.00e+00	0	57	0	341311488	40	4579
2026-01-01 04:01:21.42	121.08	15.57	-34.7	-36.6	24.4	0.00e+00	0	57	0	342360064	40	4614
2026-01-01 04:01:22.43	120.81	15.46	-34.6	-36.5	24.3	2.20e-06	0	57	0	343408640	39	4834
2026-01-01 04:01:23.44	120.55	15.35	-34.6	-36.4	24.5	2.20e-06	0	57	0	344457216	39	4787
2026-01-01 04:01:24.45	120.29	15.25	-34.1	-36.3	24.0	2.63e-05	0	57	0	345505792	39	4728
2026-01-01 04:01:25.46	120.03	15.14	-34.6	-36.4	24.5	0.00e+00	0	57	0	347078656	39	4803
2026-01-01 04:01:26.47	119.78	15.04	-34.8	-36.6	24.3	0.00e+00	0	57	0	348127232	40	4651
2026-01-01 04:01:27.48	119.53	14.93	-35.2	-37.0	24.0	0.00e+00	0	57	0	349175808	40	4819
2026-01-01 04:01:28.49	119.27	14.83	-35.4	-37.2	23.8	0.00e+00	0	57	0	350224384	41	4675
2026-01-01 04:01:29.50	119.03	14.72	-35.5	-37.2	23.6	0.00e+00	0	57	0	351272960	41	4696
2026-01-01 04:01:30.51	118.78	14.62	-35.2	-37.0	23.2	9.10e-06	0	57	0	352845824	41	4597
2026-01-01 04:01:31.52	118.54	14.51	-35.3	-37.0	23.8	0.00e+00	0	57	0	353894400	40	4853
2026-01-01 04:01:32.53	118.29	14.41	-35.1	-36.9	24.1	0.00e+00	0	57	0	354942976	40	4792
2026-01-01 04:01:33.54	118.05	14.30	-34.9	-36.7	24.1	0.00e+00	0	57	0	355991552	40	4658
2026-01-01 04:01:34.55	117.82	14.20	-34.9	-36.8	24.1	0.00e+00	0	57	0	357040128	40	4714
2026-01-01 04:01:35.56	117.58	14.10	-35.0	-36.9	23.4	3.40e-06	0	57	0	358088704	40	4804
2026-01-01 04:01:36.57	117.35	13.99	-34.8	-37.1	22.9	3.40e-06	0	57	0	359661568	40	4880
2026-01-01 04:01:37.58	117.11	13.89	-34.9	-37.1	23.6	0.00e+00	0	57	0	360710144	40	4885
2026-01-01 04:01:38.59	116.89	13.79	-34.9	-37.0	23.2	0.00e+00	0	57	0	361758720	40	4853
2026-01-01 04:01:39.60	116.66	13.69	-35.2	-37.4	23.3	0.00e+00	0	57	0	362807296	40	5066
2026-01-01 04:01:40.61	116.43	13.58	-34.5	-37.1	22.9	2.05e-05	0	57	0	363855872	39	5186
2026-01-01 04:01:41.62	116.21	13.48	-34.9	-37.5	21.9	3.40e-06	0	57	0	364904448	39	5424
2026-01-01 04:01:42.63	115.99	13.38	-34.8	-37.7	22.1	3.40e-06	0	57	0	366477312	40	5245
2026-01-01 04:01:43.64	115.77	13.28	-35.1	-37.9	20.8	1.71e-05	0	57	0	367525888	38	6030
2026-01-01 04:01:44.65	115.55	13.18	-35.3	-38.0	20.7	6.16e-04	0	57	0	368574464	38	6113
2026-01-01 04:01:45.66	115.34	13.08	-33.5	-38.5	19.1	2.06e-04	0	57	0	369623040	38	6449
2026-01-01 04:01:46.67	115.12	12.98	-30.4	-36.7	16.1	2.06e-04	0	57	0	370671616	28	9388
2026-01-01 04:01:47.68	114.91	12.88	-34.2	-38.3	21.3	8.74e-04	0	57	0	371720192	38	6319
2026-01-01 04:01:48.69	114.70	12.78	-35.3	-37.8	21.7	0.00e+00	0	57	0	373293056	39	5612
2026-01-01 04:01:49.70	114.49	12.68	-35.6	-38.0	22.2	0.00e+00	0	57	0	374341632	41	5155
2026-01-01 04:01:50.71	114.29	12.58	-35.5	-37.8	22.6	5.70e-06	0	57	0	375390208	41	5033
2026-01-01 04:01:51.72	114.08	12.48	-35.4	-37.9	22.6	0.00e+00	0	57	0	376438784	41	5051
2026-01-01 04:01:52.73	113.88	12.38	-35.2	-37.7	22.5	0.00e+00	0	57	0	377487360	39	5588
2026-01-01 04:01:53.74	113.68	12.28	-35.8	-38.0	22.5	8.00e-06	0	57	0	378535936	42	4846
2026-01-01 04:01:54.75	113.48	12.18	-32.3	-38.2	21.1	1.10e-06	0	57	0	379584512	39	5859
2026-01-01 04:01:55.76	113.28	12.08	-35.3	-38.4	21.5	1.10e-06	0	57	0	381157376	42	5058
2026-01-01 04:01:56.77	113.09	11.99	-36.1	-38.4	22.1	1.10e-06	0	57	0	382205952	42	5045
2026-01-01 04:01:57.78	112.90	11.89	-36.1	-38.4	22.0	2.20e-06	0	57	0	383254528	42	5044
2026-01-01 04:01:58.79	112.70	11.79	-36.6	-38.9	21.5	0.00e+00	0	57	0	384303104	43	5100
2026-01-01 04:01:59.80	112.51	11.70	-36.1	-39.0	21.2	0.00e+00	0	57	0	385351680	42	5455
2026-01-01 04:02:00.81	112.32	11.60	-36.5	-38.9	21.5	2.63e-05	0	57	0	386924544	43	5099
2026-01-01 04:02:01.82	112.14	11.50	-36.3	-38.6	21.7	0.00e+00	0	57	0	387973120	43	4875
2026-01-01 04:02:02.83	111.95	11.41	-36.3	-38.5	21.9	0.00e+00	0	57	0	389021696	43	4850
2026-01-01 04:02:03.84	111.77	11.31	-36.2	-38.4	21.9	0.00e+00	0	57	0	390070272	42	5063
2026-01-01 04:02:04.85	111.59	11.22	-36.0	-38.1	22.5	1.37e-05	0	57	0	391118848	42	4914
2026-01-01 04:02:05.86	111.41	11.12	-36.0	-38.2	22.5	1.37e-05	0	57	0	392167424	42	4929
2026-01-01 04:02:06.87	111.23	11.03	-36.4	-39.0	21.8	4.50e-06	0	57	0	393740288	43	5152
2026-01-01 04:02:07.88	111.05	10.94	-36.5	-39.2	21.0	1.83e-05	0	57	0	394788864	43	5253
2026-01-01 04:02:08.89	110.87	10.84	-37.1	-39.6	21.3	1.83e-05	0	57	0	395837440	44	5160
2026-01-01 04:02:09.90	110.70	10.75	-36.5	-39.8	20.9	6.80e-06	0	57	0	396886016	44	5339
2026-01-01 04:02:10.91	110.52	10.66	-37.1	-39.9	20.9	1.10e-06	0	57	0	397934592	45	5043
2026-01-01 04:02:11.92	110.35	10.56	-36.5	-39.7	21.2	1.05e-04	0	57	0	398983168	44	5265
2026-01-01 04:02:12.93	110.18	10.47	-36.9	-39.4	21.4	1.05e-04	0	57	0	400556032	44	5073
2026-01-01 04:02:13.94	110.01	10.38	-36.5	-38.9	21.8	5.70e-06	0	57	0	401604608	43	5064
2026-01-01 04:02:14.96	109.85	10.29	-35.9	-38.6	21.7	0.00e+00	0	57	0	402653184	43	4894
2026-01-01 04:02:15.96	109.68	10.20	-36.1	-38.5	22.1	0.00e+00	0	57	0	403701760	42	5110
2026-01-01 04:02:16.98	109.51	10.10	-36.3	-38.4	22.3	0.00e+00	0	57	0	404750336	43	4799
2026-01-01 04:02:17.99	109.35	10.01	-36.2	-38.5	22.2	0.00e+00	0	57	0	405798912	43	4824
2026-01-01 04:02:19.00	109.19	9.92	-35.4	-38.5	22.3	0.00e+00	0	57	0	407371776	43	4816
2026-01-01 04:02:20.01	109.03	9.83	-36.5	-38.6	21.9	0.00e+00	0	57	0	408420352	43	4920
2026-01-01 04:02:21.02	108.87	9.74	-36.6	-38.8	22.0	0.00e+00	0	57	0	409468928	43	4989
2026-01-01 04:02:22.03	108.71	9.65	-37.0	-39.1	21.8	0.00e+00	0	57	0	410517504	44	4917
2026-01-01 04:02:23.04	108.56	9.56	-37.2	-39.4	21.5	0.00e+00	0	57	0	411566080	45	4788
2026-01-01 04:02:24.05	108.40	9.47	-37.4	-39.6	21.3	0.00e+00	0	57	0	412614656	45	4894
2026-01-01 04:02:25.06	108.25	9.39	-37.4	-39.7	21.3	0.00e+00	0	57	0	414187520	45	4933
2026-01-01 04:02:26.07	108.09	9.30	-37.5	-39.7	21.2	0.00e+00	0	57	0	415236096	45	4975
2026-01-01 04:02:27.08	107.94	9.21	-37.6	-39.9	21.0	0.00e+00	0	57	0	416284672	45	5069
2026-01-01 04:02:28.08	107.79	9.12	-37.7	-40.0	20.9	0.00e+00	0	57	0	417333248	46	4852
2026-01-01 04:02:29.09	107.65	9.04	-37.8	-40.2	20.7	0.00e+00	0	57	0	418381824	46	4964
2026-01-01 04:02:30.10	107.50	8.95	-37.8	-40.2	20.7	0.00e+00	0	57	0	419430400	46	4930
2026-01-01 04:02:31.11	107.35	8.86	-37.7	-40.0	20.8	0.00e+00	0	57	0	421003264	46	4845
2026-01-01 04:02:32.12	107.21	8.78	-37.5	-39.9	20.9	0.00e+00	0	57	0	422051840	46	4769
2026-01-01 04:02:33.13	107.06	8.69	-37.5	-39.8	21.0	0.00e+00	0	57	0	423100416	46	4734
2026-01-01 04:02:34.14	106.92	8.60	-37.4	-39.7	21.0	0.00e+00	0	57	0	424148992	46	4683
2026-01-01 04:02:35.15	106.78	8.52	-37.4	-39.7	20.9	0.00e+00	0	57	0	425197568	46	4700
2026-01-01 04:02:36.16	106.64	8.43	-37.3	-39.6	21.0	0.00e+00	0	57	0	426246144	46	4619
2026-01-01 04:02:37.17	106.50	8.35	-37.0	-39.3	21.1	0.00e+00	0	57	0	427819008	45	4755
2026-01-01 04:02:38.18	106.36	8.26	-37.2	-39.7	20.4	0.00e+00	0	57	0	428867584	45	4932
2026-01-01 04:02:39.19	106.22	8.18	-37.7	-40.3	19.8	0.00e+00	0	57	0	429916160	45	5295
2026-01-01 04:02:40.20	106.09	8.10	-37.7	-40.3	19.6	1.10e-06	0	57	0	430964736	46	5031
2026-01-01 04:02:41.21	105.95	8.01	-37.2	-39.4	20.0	0.00e+00	0	57	0	432013312	45	4785
2026-01-01 04:02:42.22	105.82	7.93	-39.2	-57.1	3.9	0.00e+00	0	57	104	432537600	50	27506
2026-01-01 04:02:43.23	105.68	7.85	-44.7	-62.7	3.8	4.81e-01	0	57	104	432537600	59	31418
2026-01-01 04:02:44.24	105.55	7.76	-44.8	-62.9	3.8	8.46e-01	0	57	104	432537600	60	30295
2026-01-01 04:02:45.25	105.42	7.68	-45.0	-63.2	3.8	8.46e-01	0	57	104	432537600	60	31131
2026-01-01 04:02:46.26	105.29	7.60	-45.1	-63.3	3.8	8.47e-01	0	57	104	432537600	60	31608
2026-01-01 04:02:47.27	105.16	7.52	-45.2	-63.4	3.8	8.47e-01	0	57	104	432537600	60	31980
2026-01-01 04:02:48.28	105.03	7.44	-45.3	-63.5	3.8	8.47e-01	0	57	104	432537600	61	30571
2026-01-01 04:02:49.29	104.91	7.35	-45.4	-63.6	3.8	8.46e-01	0	57	104	432537600	61	31002
2026-01-01 04:02:50.30	104.78	7.27	-45.4	-63.6	3.8	8.46e-01	0	57	104	432537600	61	31074
2026-01-01 04:02:51.31	104.66	7.19	-45.4	-63.7	3.8	8.46e-01	0	57	104	432537600	61	31163
2026-01-01 04:02:52.32	104.53	7.11	-45.4	-63.6	3.8	8.46e-01	0	57	104	432537600	61	30959
2026-01-01 04:02:53.33	104.41	7.03	-45.3	-63.6	3.8	8.45e-01	0	57	104	432537600	61	30759
2026-01-01 04:02:54.34	104.29	6.95	-45.2	-63.5	3.8	8.46e-01	0	57	104	432537600	61	30667
2026-01-01 04:02:55.35	104.17	6.87	-45.2	-63.5	3.8	8.46e-01	0	57	104	432537600	61	30545
2026-01-01 04:02:56.36	104.05	6.79	-45.1	-63.5	3.8	8.47e-01	0	57	104	432537600	61	30513
2026-01-01 04:02:57.37	103.93	6.71	-45.2	-63.5	3.8	8.46e-01	0	57	104	432537600	61	30430
2026-01-01 04:02:58.39	103.81	6.63	-45.1	-63.4	3.8	8.46e-01	0	57	104	432537600	61	30207
2026-01-01 04:02:59.40	103.69	6.56	-45.1	-63.4	3.8	8.46e-01	0	57	104	432537600	61	30109
2026-01-01 04:03:00.41	103.57	6.48	-45.1	-63.4	3.8	8.46e-01	0	58	104	432537600	61	30211
2026-01-01 04:03:01.42	103.46	6.40	-45.1	-63.4	3.8	8.46e-01	0	57	104	432537600	61	30212
2026-01-01 04:03:02.43	103.34	6.32	-45.1	-63.4	3.8	8.46e-01	0	57	104	432537600	61	30192
2026-01-01 04:03:03.44	103.23	6.25	-45.1	-63.4	3.8	8.45e-01	0	57	104	432537600	61	30212
2026-01-01 04:03:04.45	103.12	6.17	-45.1	-63.4	3.8	8.45e-01	0	57	104	432537600	61	30188
2026-01-01 04:03:05.46	103.01	6.09	-45.0	-63.4	3.8	8.45e-01	0	57	104	432537600	61	30098
2026-01-01 04:03:06.48	102.89	6.01	-45.0	-63.4	3.8	8.45e-01	0	57	104	432537600	61	30103
2026-01-01 04:03:07.49	102.78	5.94	-45.1	-63.4	3.8	8.47e-01	0	57	104	432537600	61	30190
2026-01-01 04:03:08.50	102.67	5.86	-45.1	-63.4	3.8	8.47e-01	0	57	104	432537600	61	30065
2026-01-01 04:03:09.51	102.56	5.79	-45.0	-63.4	3.8	8.46e-01	0	58	104	432537600	61	30211
2026-01-01 04:03:10.52	102.46	5.71	-45.0	-63.4	3.8	8.47e-01	0	57	104	432537600	61	30146
2026-01-01 04:03:11.53	102.35	5.63	-45.0	-63.4	3.8	8.47e-01	0	58	104	432537600	61	30156
2026-01-01 04:03:12.54	102.24	5.56	-45.1	-63.4	3.8	8.47e-01	0	58	104	432537600	61	30138
2026-01-01 04:03:13.55	102.14	5.48	-45.0	-63.4	3.8	8.45e-01	0	57	104	432537600	61	30117
2026-01-01 04:03:14.56	102.03	5.41	-45.0	-63.4	3.8	8.46e-01	0	57	104	432537600	61	30152
2026-01-01 04:03:15.57	101.93	5.34	-45.0	-63.4	3.8	8.46e-01	0	57	104	432537600	61	30125
2026-01-01 04:03:16.58	101.82	5.26	-45.0	-63.4	3.8	8.47e-01	0	57	104	432537600	61	30147
2026-01-01 04:03:17.59	101.72	5.19	-45.0	-63.4	3.8	8.46e-01	0	57	104	432537600	61	30102
2026-01-01 04:03:18.61	101.62	5.11	-45.0	-63.4	3.8	8.46e-01	0	58	104	432537600	61	30075
2026-01-01 04:03:19.62	101.52	5.04	-45.0	-63.4	3.8	8.46e-01	0	58	104	432537600	61	30047
2026-01-01 04:03:20.63	101.42	4.97	-45.0	-63.3	3.8	8.46e-01	0	58	104	432537600	61	29996
2026-01-01 04:03:21.64	101.32	4.89	-45.0	-63.4	3.8	8.46e-01	0	57	104	432537600	61	30087
2026-01-01 04:03:22.65	101.22	4.82	-45.0	-63.3	3.8	8.47e-01	0	57	104	432537600	61	30021
2026-01-01 04:03:23.66	101.12	4.75	-45.0	-63.4	3.8	8.45e-01	0	58	104	432537600	61	30075
2026-01-01 04:03:24.67	101.02	4.68	-45.0	-63.4	3.8	8.45e-01	0	58	104	432537600	61	30087
2026-01-01 04:03:25.68	100.92	4.61	-45.0	-63.3	3.8	8.46e-01	0	58	104	432537600	61	30007
2026-01-01 04:03:26.69	100.83	4.53	-45.0	-63.4	3.8	8.45e-01	0	58	104	432537600	61	30074
2026-01-01 04:03:27.70	100.73	4.46	-45.0	-63.4	3.8	8.47e-01	0	57	104	432537600	61	30072
2026-01-01 04:03:28.72	100.64	4.39	-45.0	-63.4	3.8	8.47e-01	0	58	104	432537600	61	30049
2026-01-01 04:03:29.73	100.54	4.32	-45.0	-63.4	3.8	8.45e-01	0	58	104	432537600	61	30083
2026-01-01 04:03:30.74	100.45	4.25	-45.0	-63.4	3.8	8.46e-01	0	58	104	432537600	61	30044
2026-01-01 04:03:31.75	100.36	4.18	-45.0	-63.4	3.8	8.46e-01	0	58	104	432537600	61	30063
2026-01-01 04:03:32.76	100.26	4.11	-45.0	-63.4	3.8	8.45e-01	0	58	104	432537600	61	30036
2026-01-01 04:03:33.77	100.17	4.04	-45.0	-63.4	3.8	8.46e-01	0	58	104	432537600	61	30096
2026-01-01 04:03:34.78	100.08	3.97	-45.0	-63.4	3.8	8.46e-01	0	58	104	432537600	61	30062
2026-01-01 04:03:35.80	99.99	3.90	-45.0	-63.4	3.8	8.45e-01	0	58	104	432537600	61	30039
2026-01-01 04:03:36.81	99.90	3.83	-45.0	-63.3	3.8	8.47e-01	0	57	104	432537600	61	29968
2026-01-01 04:03:37.81	99.81	3.76	-45.0	-63.4	3.8	8.44e-01	0	58	104	432537600	61	30038
2026-01-01 04:03:38.82	99.72	3.69	-45.0	-63.4	3.8	8.44e-01	0	57	104	432537600	61	30103
2026-01-01 04:03:39.84	99.63	3.62	-45.0	-63.4	3.8	8.46e-01	0	57	104	432537600	61	30085
2026-01-01 04:03:40.85	99.55	3.55	-45.0	-63.4	3.8	8.46e-01	0	58	104	432537600	61	30086
2026-01-01 04:03:41.86	99.46	3.48	-45.0	-63.4	3.8	8.46e-01	0	57	104	432537600	61	30048
2026-01-01 04:03:42.87	99.37	3.42	-45.0	-63.4	3.8	8.47e-01	0	58	104	432537600	61	30079
2026-01-01 04:03:43.88	99.29	3.35	-45.0	-63.4	3.8	8.47e-01	0	58	104	432537600	61	30050
2026-01-01 04:03:44.89	99.20	3.28	-45.0	-63.4	3.8	8.47e-01	0	58	104	432537600	61	30040
2026-01-01 04:03:45.90	99.12	3.21	-45.0	-63.3	3.8	8.46e-01	0	58	104	432537600	61	29996
2026-01-01 04:03:46.91	99.04	3.14	-45.0	-63.3	3.8	8.46e-01	0	58	104	432537600	61	30002
2026-01-01 04:03:47.93	98.95	3.08	-45.0	-63.3	3.8	8.46e-01	0	58	104	432537600	61	30004
2026-01-01 04:03:48.94	98.87	3.01	-45.0	-63.3	3.8	8.47e-01	0	57	104	432537600	61	30001
2026-01-01 04:03:49.95	98.79	2.94	-45.0	-63.4	3.8	8.46e-01	0	58	104	432537600	61	30041
2026-01-01 04:03:50.96	98.71	2.88	-45.0	-63.3	3.8	8.45e-01	0	58	104	432537600	61	29914
2026-01-01 04:03:51.97	98.62	2.81	-45.0	-63.3	3.8	8.45e-01	0	58	104	432537600	61	29926
2026-01-01 04:03:52.98	98.54	2.74	-45.0	-63.3	3.8	8.46e-01	0	58	104	432537600	61	30003
2026-01-01 04:03:53.99	98.46	2.68	-45.0	-63.3	3.8	8.46e-01	0	58	104	432537600	61	30020
2026-01-01 04:03:55.00	98.38	2.61	-45.0	-63.3	3.8	8.46e-01	0	58	104	432537600	61	29955
2026-01-01 04:03:56.01	98.31	2.55	-45.0	-63.3	3.8	8.46e-01	0	58	104	432537600	61	29988
2026-01-01 04:03:57.02	98.23	2.48	-45.0	-63.3	3.8	8.46e-01	0	57	104	432537600	61	30001
2026-01-01 04:03:58.04	98.15	2.41	-45.0	-63.4	3.8	8.46e-01	0	58	104	432537600	61	30037
2026-01-01 04:03:59.05	98.07	2.35	-45.0	-63.3	3.8	8.47e-01	0	58	104	432537600	60	31787
2026-01-01 04:04:00.06	97.99	2.28	-45.0	-63.4	3.8	8.46e-01	0	58	104	432537600	60	31841
2026-01-01 04:04:01.07	97.92	2.22	-45.0	-63.3	3.8	8.46e-01	0	58	104	432537600	60	31756
2026-01-01 04:04:02.08	97.84	2.16	-45.0	-63.3	3.8	8.45e-01	0	58	104	432537600	60	31706
2026-01-01 04:04:03.09	97.77	2.09	-45.0	-63.3	3.8	8.47e-01	0	58	104	432537600	60	31763
2026-01-01 04:04:04.10	97.69	2.03	-45.0	-63.3	3.8	8.47e-01	0	58	104	432537600	60	31729
2026-01-01 04:04:05.11	97.62	1.96	-45.0	-63.3	3.8	8.47e-01	0	58	104	432537600	60	31780

#Closed at: 2026-01-01 04:04:05
#Recorded file [432 MB]: D:/lorett/data/31039_260101_065503.dat