passes_logs/2026/01/01/R2.0S_Moscow/R2.0S_Moscow__20260101_005741_NOAA_20_JPSS-1_rec.log

#Pass ID: 20260101_005741_NOAA 20 (JPSS-1)
#Satellite: NOAA 20 (JPSS-1)
#Configuration: NOAA 20
#almurnet v.1.7.20251203
#Start time: 2026-01-01 00:57:42

#Version: 2.2.20231116
#Station: R2.0S_Moscow
#Location: 37.707566 lon 55.798166 lat
#TLE: 1 43013U 17073A   25365.45761817  .00000173  00000+0  10307-3 0  9993
#TLE: 2 43013  98.7620 301.5517 0001951  60.3814 299.7557 14.19531661420675

#Time	Az	El	Level	Level2	SNR	BER	BlckErr	Temp	State	Recorded	gain1	gain2
2026-01-01 00:57:42.00	11.32	2.05	-39.6	-54.2	3.8	1.49e+00	0	49	0	0	51	18640
2026-01-01 00:57:43.02	11.27	2.11	-39.6	-54.2	3.8	1.49e+00	0	49	104	0	50	19725
2026-01-01 00:57:44.03	11.22	2.17	-39.6	-54.2	3.8	1.49e+00	0	49	104	0	50	19714
2026-01-01 00:57:45.04	11.17	2.23	-39.6	-54.2	3.8	1.49e+00	0	49	104	0	50	19724
2026-01-01 00:57:46.05	11.11	2.29	-39.6	-54.2	3.8	1.49e+00	0	49	104	0	50	19729
2026-01-01 00:57:47.06	11.06	2.35	-39.6	-54.2	3.8	1.49e+00	0	49	104	0	50	19806
2026-01-01 00:57:48.08	11.01	2.41	-39.6	-54.2	3.8	1.49e+00	0	49	104	0	50	19756
2026-01-01 00:57:49.09	10.96	2.47	-39.6	-54.2	3.8	1.49e+00	0	49	104	0	50	19765
2026-01-01 00:57:50.10	10.90	2.54	-39.6	-54.2	3.8	1.49e+00	0	49	104	0	50	19763
2026-01-01 00:57:51.11	10.85	2.60	-39.6	-54.2	3.8	1.49e+00	0	50	104	0	50	19785
2026-01-01 00:57:52.12	10.80	2.66	-39.6	-54.2	3.8	1.49e+00	0	49	104	0	50	19706
2026-01-01 00:57:53.13	10.75	2.72	-39.6	-54.2	3.8	1.49e+00	0	50	104	0	50	19750
2026-01-01 00:57:54.14	10.69	2.78	-39.6	-54.2	3.8	1.49e+00	0	50	104	0	50	19804
2026-01-01 00:57:55.15	10.64	2.84	-39.6	-54.2	3.8	1.49e+00	0	50	104	0	50	19744
2026-01-01 00:57:56.17	10.58	2.90	-39.6	-54.2	3.8	1.49e+00	0	50	104	0	50	19742
2026-01-01 00:57:57.18	10.53	2.96	-39.6	-54.2	3.8	1.49e+00	0	50	104	0	50	19829
2026-01-01 00:57:58.19	10.48	3.03	-39.6	-54.2	3.8	1.49e+00	0	50	104	0	50	19740
2026-01-01 00:57:59.19	10.42	3.09	-39.6	-54.2	3.8	1.49e+00	0	50	104	0	50	19764
2026-01-01 00:58:00.21	10.37	3.15	-39.6	-54.2	3.8	1.49e+00	0	50	104	0	50	19774
2026-01-01 00:58:01.22	10.31	3.21	-39.6	-54.2	3.8	1.49e+00	0	50	104	0	50	19782
2026-01-01 00:58:02.23	10.26	3.27	-39.6	-54.2	3.8	1.49e+00	0	50	104	0	50	19782
2026-01-01 00:58:03.24	10.20	3.34	-39.6	-54.2	3.8	1.49e+00	0	50	104	0	50	19724
2026-01-01 00:58:04.25	10.14	3.40	-39.6	-54.2	3.8	1.49e+00	0	50	104	0	50	19753
2026-01-01 00:58:05.26	10.09	3.46	-39.6	-54.2	3.8	1.49e+00	0	51	104	0	50	19679
2026-01-01 00:58:06.27	10.03	3.52	-39.6	-54.2	3.8	1.49e+00	0	50	104	0	50	19768
2026-01-01 00:58:07.28	9.98	3.59	-39.6	-54.2	3.8	1.49e+00	0	50	104	0	50	19721
2026-01-01 00:58:08.29	9.92	3.65	-39.6	-54.2	3.8	1.49e+00	0	51	104	0	50	19685
2026-01-01 00:58:09.30	9.86	3.71	-39.6	-54.2	3.8	1.49e+00	0	51	104	0	50	19741
2026-01-01 00:58:10.32	9.80	3.78	-39.6	-54.2	3.8	1.49e+00	0	51	104	0	50	19715
2026-01-01 00:58:11.33	9.75	3.84	-39.6	-54.2	3.8	1.49e+00	0	51	104	0	50	19710
2026-01-01 00:58:12.34	9.69	3.90	-39.6	-54.2	3.8	1.49e+00	0	51	104	0	50	19733
2026-01-01 00:58:13.35	9.63	3.97	-39.6	-54.2	3.8	1.49e+00	0	51	104	0	50	19767
2026-01-01 00:58:14.36	9.57	4.03	-39.6	-54.2	3.8	1.49e+00	0	51	104	0	50	19760
2026-01-01 00:58:15.37	9.51	4.09	-39.6	-54.2	3.8	1.49e+00	0	51	104	0	50	19744
2026-01-01 00:58:16.38	9.45	4.16	-39.6	-54.2	3.8	1.49e+00	0	51	104	0	50	19755
2026-01-01 00:58:17.39	9.39	4.22	-39.6	-54.2	3.8	1.49e+00	0	51	104	0	50	19703
2026-01-01 00:58:18.40	9.33	4.28	-39.6	-54.2	3.8	1.49e+00	0	51	104	0	50	19699
2026-01-01 00:58:19.41	9.27	4.35	-39.6	-54.2	3.8	1.49e+00	0	52	104	0	50	19739
2026-01-01 00:58:20.42	9.21	4.41	-39.6	-54.2	3.8	1.49e+00	0	52	104	0	50	19706
2026-01-01 00:58:21.43	9.15	4.48	-39.6	-54.2	3.8	1.49e+00	0	51	104	0	50	19708
2026-01-01 00:58:22.45	9.09	4.54	-39.6	-54.2	3.8	1.49e+00	0	52	104	0	50	19764
2026-01-01 00:58:23.46	9.03	4.61	-39.6	-54.2	3.8	1.49e+00	0	52	104	0	50	19711
2026-01-01 00:58:24.47	8.97	4.67	-39.6	-54.2	3.8	1.49e+00	0	51	104	0	50	19689
2026-01-01 00:58:25.48	8.91	4.74	-39.6	-54.2	3.8	1.49e+00	0	51	104	0	50	19746
2026-01-01 00:58:26.49	8.85	4.80	-39.6	-54.2	3.8	1.49e+00	0	52	104	0	50	19703
2026-01-01 00:58:27.50	8.78	4.87	-39.6	-54.2	3.8	1.49e+00	0	52	104	0	50	19686
2026-01-01 00:58:28.51	8.72	4.93	-39.6	-54.2	3.8	1.49e+00	0	52	104	0	50	19747
2026-01-01 00:58:29.53	8.66	5.00	-39.6	-54.2	3.8	1.49e+00	0	52	104	0	50	19713
2026-01-01 00:58:30.54	8.59	5.06	-39.6	-54.2	3.8	1.49e+00	0	52	104	0	50	19741
2026-01-01 00:58:31.55	8.53	5.13	-39.6	-54.2	3.8	1.49e+00	0	52	104	0	50	19729
2026-01-01 00:58:32.56	8.47	5.19	-39.6	-54.2	3.8	1.49e+00	0	52	104	0	50	19662
2026-01-01 00:58:33.57	8.40	5.26	-39.6	-54.2	3.8	1.49e+00	0	52	104	0	50	19729
2026-01-01 00:58:34.58	8.34	5.33	-39.6	-54.2	3.8	1.49e+00	0	52	104	0	50	19750
2026-01-01 00:58:35.59	8.27	5.39	-39.6	-54.2	3.8	1.49e+00	0	52	104	0	50	19676
2026-01-01 00:58:36.60	8.21	5.46	-39.6	-54.2	3.8	1.49e+00	0	52	104	0	50	19700
2026-01-01 00:58:37.61	8.14	5.52	-39.6	-54.2	3.8	1.49e+00	0	52	104	0	50	19700
2026-01-01 00:58:38.62	8.08	5.59	-39.6	-54.2	3.8	1.49e+00	0	52	104	0	50	19732
2026-01-01 00:58:39.63	8.01	5.66	-39.6	-54.2	3.8	1.49e+00	0	52	104	0	50	19736
2026-01-01 00:58:40.64	7.95	5.72	-39.6	-54.2	3.8	1.49e+00	0	53	104	0	50	19731
2026-01-01 00:58:41.65	7.88	5.79	-39.6	-54.2	3.8	1.49e+00	0	53	104	0	50	19711
2026-01-01 00:58:42.67	7.81	5.86	-39.6	-54.2	3.8	1.49e+00	0	53	104	0	50	19720
2026-01-01 00:58:43.67	7.75	5.93	-39.6	-54.2	3.8	1.49e+00	0	53	104	0	50	19670
2026-01-01 00:58:44.69	7.68	5.99	-39.6	-54.2	3.8	1.49e+00	0	53	104	0	50	19634
2026-01-01 00:58:45.70	7.61	6.06	-39.6	-54.2	3.8	1.49e+00	0	53	104	0	50	19746
2026-01-01 00:58:46.71	7.54	6.13	-39.6	-54.2	3.8	1.49e+00	0	53	104	0	50	19694
2026-01-01 00:58:47.72	7.47	6.20	-39.6	-54.2	3.8	1.49e+00	0	53	104	0	50	19753
2026-01-01 00:58:48.73	7.41	6.26	-39.6	-54.2	3.8	1.49e+00	0	53	104	0	50	19659
2026-01-01 00:58:49.74	7.34	6.33	-39.6	-54.2	3.8	1.49e+00	0	53	104	0	50	19708
2026-01-01 00:58:50.75	7.27	6.40	-39.6	-54.2	3.8	1.49e+00	0	53	104	0	50	19686
2026-01-01 00:58:51.76	7.20	6.47	-39.6	-54.2	3.8	1.49e+00	0	53	104	0	50	19697
2026-01-01 00:58:52.77	7.13	6.54	-39.6	-54.2	3.8	1.49e+00	0	53	104	0	50	19754
2026-01-01 00:58:53.78	7.06	6.61	-39.6	-54.2	3.8	1.49e+00	0	53	104	0	50	19678
2026-01-01 00:58:54.79	6.98	6.67	-39.6	-54.2	3.8	1.49e+00	0	53	104	0	50	19745
2026-01-01 00:58:55.80	6.91	6.74	-39.6	-54.2	3.8	1.49e+00	0	53	104	0	50	19785
2026-01-01 00:58:56.82	6.84	6.81	-39.6	-54.2	3.8	1.49e+00	0	53	104	0	50	19715
2026-01-01 00:58:57.83	6.77	6.88	-39.6	-54.2	3.8	1.49e+00	0	53	104	0	50	19711
2026-01-01 00:58:58.84	6.70	6.95	-39.6	-54.2	3.8	1.49e+00	0	53	104	0	50	19746
2026-01-01 00:58:59.85	6.62	7.02	-39.6	-54.2	3.8	1.49e+00	0	53	104	0	50	19653
2026-01-01 00:59:00.86	6.55	7.09	-39.6	-54.2	3.8	1.49e+00	0	53	104	0	50	19733
2026-01-01 00:59:01.87	6.48	7.16	-39.6	-54.2	3.8	1.49e+00	0	53	104	0	50	19681
2026-01-01 00:59:02.88	6.40	7.23	-39.6	-54.2	3.8	1.49e+00	0	54	104	0	50	19731
2026-01-01 00:59:03.89	6.33	7.30	-39.6	-54.2	3.8	1.49e+00	0	54	104	0	50	19706
2026-01-01 00:59:04.90	6.26	7.37	-39.6	-54.2	3.8	1.49e+00	0	53	104	0	50	19729
2026-01-01 00:59:05.91	6.18	7.44	-39.6	-54.2	3.8	1.49e+00	0	54	104	0	50	19732
2026-01-01 00:59:06.93	6.10	7.51	-39.6	-54.2	3.8	1.49e+00	0	54	104	0	50	19679
2026-01-01 00:59:07.94	6.03	7.58	-39.6	-54.2	3.8	1.49e+00	0	54	104	0	50	19686
2026-01-01 00:59:08.95	5.95	7.65	-39.6	-54.2	3.8	1.49e+00	0	54	104	0	50	19718
2026-01-01 00:59:09.96	5.88	7.72	-39.6	-54.2	3.8	1.49e+00	0	54	104	0	50	19738
2026-01-01 00:59:10.97	5.80	7.79	-39.6	-54.2	3.8	1.49e+00	0	54	104	0	50	19687
2026-01-01 00:59:11.98	5.72	7.86	-39.6	-54.2	3.8	1.49e+00	0	54	104	0	50	19756
2026-01-01 00:59:12.99	5.64	7.94	-39.6	-54.2	3.8	1.49e+00	0	54	104	0	50	19675
2026-01-01 00:59:14.00	5.57	8.01	-39.6	-54.2	3.8	1.49e+00	0	54	104	0	50	19663
2026-01-01 00:59:15.01	5.49	8.08	-39.7	-54.3	3.8	1.49e+00	0	54	104	0	50	20041
2026-01-01 00:59:16.03	5.41	8.15	-39.7	-54.3	3.8	1.49e+00	0	54	104	0	50	19866
2026-01-01 00:59:17.03	5.33	8.22	-39.6	-54.2	3.8	1.49e+00	0	54	104	0	50	19744
2026-01-01 00:59:18.04	5.25	8.29	-39.6	-54.2	3.8	1.49e+00	0	54	104	0	50	19793
2026-01-01 00:59:19.05	5.17	8.37	-39.7	-54.3	3.8	1.49e+00	0	54	104	0	50	19951
2026-01-01 00:59:20.06	5.09	8.44	-39.6	-54.2	3.8	1.49e+00	0	54	104	0	50	19794
2026-01-01 00:59:21.08	5.01	8.51	-39.6	-54.3	3.8	1.49e+00	0	54	104	0	50	20013
2026-01-01 00:59:22.09	4.93	8.59	-39.7	-54.3	3.8	1.49e+00	0	54	104	0	50	20056
2026-01-01 00:59:23.10	4.84	8.66	-39.6	-54.3	3.8	1.49e+00	0	54	104	0	50	19844
2026-01-01 00:59:24.11	4.76	8.73	-39.8	-54.3	3.8	1.49e+00	0	54	104	0	50	20051
2026-01-01 00:59:25.12	4.68	8.80	-39.6	-54.2	3.8	1.49e+00	0	54	104	0	50	19831
2026-01-01 00:59:26.13	4.60	8.88	-39.6	-54.3	3.8	1.49e+00	0	54	104	0	50	19853
2026-01-01 00:59:27.14	4.51	8.95	-39.7	-54.4	3.8	1.49e+00	0	54	104	0	50	20079
2026-01-01 00:59:28.15	4.43	9.02	-39.7	-54.3	3.8	1.49e+00	0	54	104	0	50	19901
2026-01-01 00:59:29.16	4.34	9.10	-39.7	-54.3	3.8	1.49e+00	0	54	104	0	50	20020
2026-01-01 00:59:30.17	4.26	9.17	-39.8	-54.4	3.8	1.49e+00	0	54	104	0	50	20188
2026-01-01 00:59:31.18	4.17	9.25	-39.6	-54.3	3.8	1.49e+00	0	54	104	0	50	19854
2026-01-01 00:59:32.19	4.09	9.32	-39.8	-54.4	3.8	1.49e+00	0	54	104	0	50	20192
2026-01-01 00:59:33.20	4.00	9.39	-39.6	-54.2	3.8	1.49e+00	0	54	104	0	50	19828
2026-01-01 00:59:34.21	3.91	9.47	-39.8	-54.4	3.8	1.49e+00	0	54	104	0	50	20089
2026-01-01 00:59:35.22	3.83	9.54	-39.6	-54.3	3.8	1.49e+00	0	54	104	0	50	19857
2026-01-01 00:59:36.23	3.74	9.62	-39.8	-54.4	3.8	1.49e+00	0	54	104	0	50	20217
2026-01-01 00:59:37.24	3.65	9.69	-39.6	-54.2	3.8	1.49e+00	0	54	104	0	50	19768
2026-01-01 00:59:38.25	3.56	9.77	-39.8	-54.3	3.8	1.49e+00	0	54	104	0	50	20067
2026-01-01 00:59:39.26	3.47	9.84	-39.7	-54.3	3.8	1.49e+00	0	54	104	0	50	20064
2026-01-01 00:59:40.27	3.38	9.92	-39.8	-54.4	3.8	1.49e+00	0	54	104	0	50	20145
2026-01-01 00:59:41.28	3.29	9.99	-39.7	-54.4	3.8	1.49e+00	0	54	104	0	50	20094
2026-01-01 00:59:42.29	3.20	10.07	-39.8	-54.4	3.8	1.49e+00	0	55	104	0	50	20256
2026-01-01 00:59:43.30	3.11	10.15	-39.6	-54.3	3.8	1.49e+00	0	55	104	0	50	19853
2026-01-01 00:59:44.31	3.02	10.22	-39.8	-54.4	3.8	1.49e+00	0	55	104	0	50	20196
2026-01-01 00:59:45.32	2.93	10.30	-39.7	-54.3	3.8	1.49e+00	0	54	104	0	50	19923
2026-01-01 00:59:46.34	2.84	10.38	-39.7	-54.3	3.8	1.49e+00	0	55	104	0	50	19997
2026-01-01 00:59:47.35	2.74	10.45	-39.8	-54.3	3.8	1.49e+00	0	55	104	0	50	20028
2026-01-01 00:59:48.36	2.65	10.53	-39.7	-54.3	3.8	1.49e+00	0	55	104	0	50	20006
2026-01-01 00:59:49.37	2.56	10.61	-39.7	-54.4	3.8	1.49e+00	0	55	104	0	50	20087
2026-01-01 00:59:50.38	2.46	10.68	-39.7	-54.4	3.8	1.49e+00	0	55	104	0	50	20113
2026-01-01 00:59:51.39	2.37	10.76	-39.7	-54.3	3.8	1.49e+00	0	55	104	0	50	19996
2026-01-01 00:59:52.40	2.27	10.84	-39.7	-54.4	3.8	1.49e+00	0	55	104	0	50	20120
2026-01-01 00:59:53.41	2.17	10.92	-39.7	-54.3	3.8	1.49e+00	0	55	104	0	50	19867
2026-01-01 00:59:54.42	2.08	10.99	-39.7	-54.4	3.8	1.49e+00	0	55	104	0	50	20103
2026-01-01 00:59:55.43	1.98	11.07	-39.7	-54.3	3.8	1.49e+00	0	55	104	0	50	20026
2026-01-01 00:59:56.44	1.88	11.15	-39.7	-54.4	3.8	1.49e+00	0	55	104	0	50	20133
2026-01-01 00:59:57.45	1.78	11.23	-39.7	-54.3	3.8	1.49e+00	0	55	104	0	50	20048
2026-01-01 00:59:58.46	1.69	11.31	-39.7	-54.4	3.8	1.49e+00	0	55	104	0	50	20139
2026-01-01 00:59:59.48	1.59	11.39	-39.7	-54.3	3.8	1.49e+00	0	55	104	0	50	19959
2026-01-01 01:00:00.48	1.49	11.46	-39.7	-54.4	3.8	1.49e+00	0	55	104	0	50	20157
2026-01-01 01:00:01.50	1.39	11.54	-39.7	-54.3	3.8	1.49e+00	0	55	104	0	50	20026
2026-01-01 01:00:02.51	1.28	11.62	-39.7	-54.4	3.8	1.49e+00	0	55	104	0	50	20245
2026-01-01 01:00:03.52	1.18	11.70	-39.7	-54.4	3.8	1.49e+00	0	55	104	0	50	20241
2026-01-01 01:00:04.53	1.08	11.78	-39.8	-54.5	3.8	1.49e+00	0	55	104	0	50	20398
2026-01-01 01:00:05.54	0.98	11.86	-39.8	-54.5	3.8	1.49e+00	0	55	104	0	50	20475
2026-01-01 01:00:06.55	0.87	11.94	-39.8	-54.5	3.8	1.49e+00	0	55	104	0	50	20430
2026-01-01 01:00:07.56	0.77	12.02	-39.8	-54.5	3.8	1.49e+00	0	55	104	0	50	20391
2026-01-01 01:00:08.57	0.67	12.10	-39.7	-54.5	3.8	1.49e+00	0	55	104	0	50	20389
2026-01-01 01:00:09.58	0.56	12.18	-39.8	-54.5	3.8	1.49e+00	0	55	104	0	50	20369
2026-01-01 01:00:10.59	0.46	12.26	-39.8	-54.5	3.8	1.49e+00	0	55	104	0	50	20327
2026-01-01 01:00:11.60	0.35	12.34	-39.8	-54.4	3.8	1.49e+00	0	55	104	0	50	20099
2026-01-01 01:00:12.61	0.24	12.42	-39.8	-54.4	3.8	1.49e+00	0	55	104	0	50	20250
2026-01-01 01:00:13.62	0.13	12.50	-40.0	-54.4	3.8	1.49e+00	0	55	104	0	50	20154
2026-01-01 01:00:14.63	0.03	12.58	-39.7	-54.3	3.8	1.49e+00	0	55	104	0	51	18934
2026-01-01 01:00:15.64	359.92	12.66	-39.9	-53.8	3.8	1.49e+00	0	55	104	0	51	17845
2026-01-01 01:00:16.65	359.81	12.75	-39.8	-54.1	3.8	1.49e+00	0	55	104	0	51	18505
2026-01-01 01:00:17.66	359.70	12.83	-40.3	-53.2	3.8	1.49e+00	0	55	104	0	51	16504
2026-01-01 01:00:18.67	359.59	12.91	-40.1	-53.3	3.8	1.35e+00	0	55	104	0	52	15766
2026-01-01 01:00:19.68	359.48	12.99	-40.5	-51.8	3.9	1.49e+00	0	55	104	0	51	14062
2026-01-01 01:00:20.69	359.37	13.07	-40.8	-49.7	5.4	7.90e-01	0	55	0	1048576	52	10500
2026-01-01 01:00:21.70	359.25	13.16	-40.9	-48.5	6.6	2.76e-01	0	55	0	3145728	52	9070
2026-01-01 01:00:22.71	359.14	13.24	-41.0	-47.5	8.0	1.09e-01	0	55	0	4194304	52	8096
2026-01-01 01:00:23.72	359.03	13.32	-41.1	-46.9	9.0	4.54e-02	0	55	0	6291456	52	7582
2026-01-01 01:00:24.73	358.91	13.40	-41.2	-46.2	10.0	1.04e-02	0	55	0	8388608	53	6640
2026-01-01 01:00:25.74	358.80	13.49	-41.2	-45.9	10.7	4.53e-03	0	55	0	10485760	53	6376
2026-01-01 01:00:26.75	358.68	13.57	-41.1	-45.3	11.5	2.03e-03	0	55	0	12582912	53	5925
2026-01-01 01:00:27.76	358.56	13.65	-40.5	-44.1	12.8	1.37e-04	0	55	0	13631488	53	5192
2026-01-01 01:00:28.78	358.45	13.74	-40.2	-43.4	13.5	2.05e-05	0	55	0	15728640	52	5087
2026-01-01 01:00:29.79	358.33	13.82	-40.0	-43.0	14.1	3.80e-06	0	55	0	17825792	51	5134
2026-01-01 01:00:30.80	358.21	13.90	-39.9	-42.8	14.3	1.50e-06	0	56	0	19922944	51	5030
2026-01-01 01:00:31.81	358.09	13.99	-39.8	-42.7	14.4	0.00e+00	0	56	0	22020096	51	4962
2026-01-01 01:00:32.81	357.97	14.07	-40.0	-42.9	14.2	7.00e-07	0	56	0	23068672	51	5096
2026-01-01 01:00:33.82	357.85	14.15	-40.2	-43.3	13.9	7.00e-07	0	56	0	25165824	51	5300
2026-01-01 01:00:34.83	357.73	14.24	-40.3	-43.4	13.7	4.50e-06	0	55	0	27262976	51	5386
2026-01-01 01:00:35.84	357.61	14.32	-40.1	-43.2	13.9	4.50e-06	0	55	0	29360128	51	5273
2026-01-01 01:00:36.85	357.48	14.41	-40.0	-42.9	14.1	4.50e-06	0	56	0	31457280	51	5095
2026-01-01 01:00:37.86	357.36	14.49	-39.8	-42.8	14.3	1.50e-06	0	56	0	32505856	51	4991
2026-01-01 01:00:38.87	357.24	14.58	-39.7	-42.6	14.4	1.50e-06	0	55	0	34603008	51	4917
2026-01-01 01:00:39.88	357.11	14.66	-39.5	-42.2	14.8	0.00e+00	0	56	0	36700160	51	4690
2026-01-01 01:00:40.89	356.99	14.75	-39.4	-42.2	14.8	0.00e+00	0	56	0	38797312	50	4946
2026-01-01 01:00:41.90	356.86	14.83	-39.4	-42.2	14.7	0.00e+00	0	56	0	40894464	50	4969
2026-01-01 01:00:42.91	356.73	14.92	-39.5	-42.5	14.2	0.00e+00	0	56	0	42991616	50	5148
2026-01-01 01:00:43.92	356.61	15.01	-39.8	-43.1	13.5	3.00e-06	0	56	0	44040192	50	5493
2026-01-01 01:00:44.93	356.48	15.09	-40.0	-43.7	12.5	4.34e-05	0	56	0	46137344	50	5921
2026-01-01 01:00:45.94	356.35	15.18	-40.3	-44.6	11.4	3.99e-04	0	56	0	48234496	51	6146
2026-01-01 01:00:46.95	356.22	15.26	-40.6	-45.7	10.0	2.44e-03	0	56	0	50331648	51	6987
2026-01-01 01:00:47.95	356.09	15.35	-40.7	-46.8	8.5	2.80e-02	0	56	0	52428800	52	7471
2026-01-01 01:00:48.96	355.96	15.44	-40.8	-48.0	7.0	9.04e-02	0	56	0	53477376	52	8624
2026-01-01 01:00:49.97	355.82	15.52	-40.8	-49.2	5.8	2.37e-01	0	56	0	55574528	52	9924
2026-01-01 01:00:50.98	355.69	15.61	-40.8	-50.6	4.8	6.83e-01	0	56	0	57671680	52	11606
2026-01-01 01:00:51.99	355.56	15.70	-40.7	-51.8	4.3	1.15e+00	0	56	0	58720256	52	13283
2026-01-01 01:00:53.00	355.42	15.78	-40.6	-52.8	3.8	1.42e+00	0	56	104	58720256	52	15043
2026-01-01 01:00:54.01	355.28	15.87	-40.5	-53.5	3.8	1.48e+00	0	56	104	58720256	52	16232
2026-01-01 01:00:55.02	355.15	15.96	-40.4	-54.1	3.8	1.49e+00	0	56	104	58720256	52	17336
2026-01-01 01:00:56.02	355.01	16.05	-40.3	-54.3	3.8	1.49e+00	0	56	104	58720256	52	17820
2026-01-01 01:00:57.03	354.87	16.13	-40.2	-54.5	3.8	1.49e+00	0	56	104	58720256	52	18300
2026-01-01 01:00:58.04	354.74	16.22	-40.1	-54.6	3.8	1.49e+00	0	56	104	58720256	52	18469
2026-01-01 01:00:59.05	354.60	16.31	-39.9	-54.8	3.8	1.49e+00	0	56	104	58720256	51	20007
2026-01-01 01:01:00.06	354.45	16.40	-40.0	-54.8	3.8	1.49e+00	0	56	104	58720256	51	19854
2026-01-01 01:01:01.07	354.31	16.49	-40.6	-55.1	3.8	1.49e+00	0	56	104	58720256	51	20739
2026-01-01 01:01:02.08	354.17	16.57	-40.2	-54.9	3.8	1.49e+00	0	56	104	58720256	51	20190
2026-01-01 01:01:03.09	354.03	16.66	-40.1	-54.8	3.8	1.49e+00	0	56	104	58720256	51	19964
2026-01-01 01:01:04.10	353.88	16.75	-40.2	-54.9	3.8	1.49e+00	0	56	104	58720256	51	20155
2026-01-01 01:01:05.11	353.74	16.84	-39.8	-54.9	3.8	1.49e+00	0	56	104	58720256	51	20264
2026-01-01 01:01:06.12	353.59	16.93	-40.1	-55.1	3.8	1.49e+00	0	56	104	58720256	51	20701
2026-01-01 01:01:07.13	353.45	17.02	-40.2	-54.8	3.8	1.49e+00	0	56	104	58720256	51	20005
2026-01-01 01:01:08.14	353.30	17.11	-40.3	-55.3	3.8	1.49e+00	0	56	104	58720256	51	21081
2026-01-01 01:01:09.15	353.15	17.20	-40.1	-54.8	3.8	1.49e+00	0	56	104	58720256	51	19920
2026-01-01 01:01:10.16	353.00	17.29	-40.0	-55.0	3.8	1.49e+00	0	56	104	58720256	51	20323
2026-01-01 01:01:11.17	352.85	17.38	-39.9	-55.1	3.8	1.49e+00	0	56	104	58720256	51	20738
2026-01-01 01:01:12.18	352.70	17.47	-40.0	-55.0	3.8	1.49e+00	0	56	104	58720256	51	20495
2026-01-01 01:01:13.19	352.55	17.56	-40.2	-55.2	3.8	1.49e+00	0	56	104	58720256	51	20905
2026-01-01 01:01:14.20	352.39	17.65	-40.5	-55.2	3.8	1.49e+00	0	56	104	58720256	51	20953
2026-01-01 01:01:15.21	352.24	17.74	-40.1	-55.2	3.8	1.49e+00	0	56	104	58720256	51	20794
2026-01-01 01:01:16.22	352.08	17.83	-40.5	-55.1	3.8	1.49e+00	0	56	104	58720256	51	20766
2026-01-01 01:01:17.23	351.93	17.92	-40.3	-55.3	3.8	1.49e+00	0	56	104	58720256	51	21075
2026-01-01 01:01:18.24	351.77	18.01	-40.2	-54.9	3.8	1.49e+00	0	56	104	58720256	51	20278
2026-01-01 01:01:19.25	351.61	18.10	-40.4	-55.2	3.8	1.49e+00	0	56	104	58720256	51	20906
2026-01-01 01:01:20.26	351.45	18.19	-40.2	-54.9	3.8	1.49e+00	0	56	104	58720256	51	20189
2026-01-01 01:01:21.27	351.29	18.28	-40.7	-55.5	3.8	1.49e+00	0	56	104	58720256	51	21533
2026-01-01 01:01:22.28	351.13	18.37	-40.2	-54.9	3.8	1.49e+00	0	57	104	58720256	52	19154
2026-01-01 01:01:23.29	350.97	18.46	-40.4	-55.1	3.8	1.49e+00	0	56	104	58720256	52	19415
2026-01-01 01:01:24.31	350.81	18.55	-40.2	-54.9	3.8	1.49e+00	0	56	104	58720256	52	18959
2026-01-01 01:01:25.31	350.65	18.64	-40.3	-55.0	3.8	1.49e+00	0	56	104	58720256	52	19250
2026-01-01 01:01:26.33	350.48	18.74	-40.0	-54.8	3.8	1.49e+00	0	56	104	58720256	52	18896
2026-01-01 01:01:27.34	350.31	18.83	-40.6	-55.3	3.8	1.49e+00	0	56	104	58720256	52	20052
2026-01-01 01:01:28.35	350.15	18.92	-40.1	-54.8	3.8	1.49e+00	0	57	104	58720256	52	18855
2026-01-01 01:01:29.36	349.98	19.01	-40.0	-54.8	3.8	1.49e+00	0	56	104	58720256	52	18737
2026-01-01 01:01:30.37	349.81	19.10	-40.1	-54.8	3.8	1.49e+00	0	57	104	58720256	52	18905
2026-01-01 01:01:31.38	349.64	19.19	-40.0	-54.8	3.8	1.49e+00	0	57	104	58720256	52	18887
2026-01-01 01:01:32.39	349.47	19.29	-40.1	-54.8	3.8	1.49e+00	0	57	104	58720256	52	18857
2026-01-01 01:01:33.40	349.30	19.38	-40.2	-54.9	3.8	1.49e+00	0	57	104	58720256	52	19126
2026-01-01 01:01:34.41	349.12	19.47	-40.2	-54.9	3.8	1.49e+00	0	57	104	58720256	52	19066
2026-01-01 01:01:35.42	348.95	19.56	-40.2	-54.8	3.8	1.49e+00	0	57	104	58720256	52	18908
2026-01-01 01:01:36.43	348.77	19.65	-40.1	-54.9	3.8	1.49e+00	0	57	104	58720256	52	19027
2026-01-01 01:01:37.44	348.60	19.75	-40.1	-54.9	3.8	1.49e+00	0	57	104	58720256	52	18993
2026-01-01 01:01:38.46	348.42	19.84	-40.1	-54.9	3.8	1.49e+00	0	57	104	58720256	51	20090
2026-01-01 01:01:39.47	348.24	19.93	-40.4	-55.0	3.8	1.49e+00	0	57	104	58720256	51	20479
2026-01-01 01:01:40.48	348.06	20.02	-40.1	-54.8	3.8	1.49e+00	0	57	104	58720256	51	19896
2026-01-01 01:01:41.49	347.88	20.11	-40.4	-55.0	3.8	1.49e+00	0	57	104	58720256	51	20456
2026-01-01 01:01:42.50	347.70	20.21	-40.3	-54.7	3.8	1.49e+00	0	57	104	58720256	51	19810
2026-01-01 01:01:43.51	347.52	20.30	-40.3	-54.7	3.8	1.49e+00	0	57	104	58720256	51	19804
2026-01-01 01:01:44.52	347.33	20.39	-40.3	-54.5	3.8	1.49e+00	0	57	104	58720256	51	19313
2026-01-01 01:01:45.53	347.15	20.48	-40.4	-54.5	3.8	1.49e+00	0	57	104	58720256	51	19173
2026-01-01 01:01:46.54	346.96	20.58	-40.2	-53.8	3.8	1.44e+00	0	57	104	58720256	52	16883
2026-01-01 01:01:47.55	346.77	20.67	-40.2	-54.1	3.8	1.49e+00	0	57	104	58720256	52	17380
2026-01-01 01:01:48.56	346.58	20.76	-41.1	-52.3	4.2	1.37e+00	0	57	0	58720256	52	14151
2026-01-01 01:01:49.57	346.39	20.85	-41.3	-52.5	4.2	1.37e+00	0	57	0	58720256	53	13705
2026-01-01 01:01:50.58	346.20	20.95	-41.5	-52.5	4.3	1.37e+00	0	57	0	58720256	53	13719
2026-01-01 01:01:51.59	346.01	21.04	-41.6	-51.7	4.6	1.06e+00	0	57	0	59768832	53	12483
2026-01-01 01:01:52.60	345.82	21.13	-41.5	-50.2	5.6	6.02e-01	0	57	0	61865984	53	10449
2026-01-01 01:01:53.61	345.62	21.22	-41.5	-49.0	6.7	2.92e-01	0	57	0	62914560	53	9088
2026-01-01 01:01:54.63	345.43	21.32	-41.5	-48.3	7.5	1.47e-01	0	57	0	65011712	53	8435
2026-01-01 01:01:55.64	345.23	21.41	-41.5	-47.5	8.7	5.48e-02	0	57	0	67108864	53	7680
2026-01-01 01:01:56.65	345.03	21.50	-41.5	-46.5	10.2	1.31e-02	0	57	0	69206016	53	6853
2026-01-01 01:01:57.66	344.83	21.59	-41.4	-45.8	11.1	3.72e-03	0	57	0	71303168	53	6341
2026-01-01 01:01:58.67	344.63	21.69	-41.2	-45.1	12.0	4.74e-04	0	57	0	72351744	53	5847
2026-01-01 01:01:59.68	344.43	21.78	-41.0	-44.6	12.8	9.76e-05	0	57	0	74448896	53	5482
2026-01-01 01:02:00.69	344.23	21.87	-40.8	-44.2	13.2	3.66e-05	0	57	0	76546048	53	5240
2026-01-01 01:02:01.70	344.02	21.96	-40.8	-44.0	13.4	1.67e-05	0	57	0	78643200	53	5159
2026-01-01 01:02:02.71	343.82	22.06	-40.3	-43.2	14.3	2.20e-06	0	57	0	80740352	52	4935
2026-01-01 01:02:03.72	343.61	22.15	-40.0	-42.6	15.0	0.00e+00	0	57	0	81788928	51	4926
2026-01-01 01:02:04.73	343.40	22.24	-39.7	-42.2	15.4	0.00e+00	0	57	0	83886080	51	4673
2026-01-01 01:02:05.74	343.19	22.33	-39.6	-42.1	15.6	0.00e+00	0	57	0	85983232	51	4604
2026-01-01 01:02:06.75	342.98	22.42	-39.7	-42.1	15.5	0.00e+00	0	57	0	88080384	51	4643
2026-01-01 01:02:07.76	342.77	22.51	-39.7	-42.2	15.5	0.00e+00	0	57	0	90177536	51	4694
2026-01-01 01:02:08.77	342.56	22.61	-39.7	-42.2	15.5	0.00e+00	0	57	0	91226112	51	4685
2026-01-01 01:02:09.78	342.35	22.70	-39.7	-42.1	15.6	0.00e+00	0	57	0	93323264	51	4630
2026-01-01 01:02:10.79	342.13	22.79	-39.5	-41.9	15.8	0.00e+00	0	57	0	95420416	51	4523
2026-01-01 01:02:11.80	341.91	22.88	-39.4	-41.7	16.1	0.00e+00	0	57	0	97517568	50	4699
2026-01-01 01:02:12.81	341.70	22.97	-39.4	-41.6	16.2	0.00e+00	0	57	0	99614720	50	4638
2026-01-01 01:02:13.82	341.48	23.06	-39.4	-41.7	16.1	0.00e+00	0	57	0	101711872	50	4682
2026-01-01 01:02:14.83	341.26	23.15	-39.4	-41.7	16.2	0.00e+00	0	57	0	102760448	50	4672
2026-01-01 01:02:15.84	341.03	23.24	-39.4	-41.7	16.2	0.00e+00	0	57	0	104857600	50	4652
2026-01-01 01:02:16.85	340.81	23.34	-39.2	-41.4	16.5	0.00e+00	0	57	0	106954752	50	4507
2026-01-01 01:02:17.86	340.59	23.43	-39.1	-41.3	16.7	0.00e+00	0	57	0	109051904	50	4451
2026-01-01 01:02:18.87	340.36	23.52	-39.1	-41.3	16.7	0.00e+00	0	57	0	111149056	50	4452
2026-01-01 01:02:19.88	340.13	23.61	-39.0	-41.1	16.8	0.00e+00	0	57	0	112197632	50	4368
2026-01-01 01:02:20.89	339.90	23.70	-39.0	-41.1	16.9	0.00e+00	0	57	0	114294784	49	4607
2026-01-01 01:02:21.90	339.67	23.79	-39.0	-41.1	16.9	0.00e+00	0	57	0	116391936	49	4621
2026-01-01 01:02:22.90	339.45	23.87	-39.0	-41.2	16.8	0.00e+00	0	57	0	118489088	49	4657
2026-01-01 01:02:23.91	339.21	23.96	-39.1	-41.2	16.8	0.00e+00	0	57	0	120586240	49	4683
2026-01-01 01:02:24.92	338.98	24.05	-39.2	-41.4	16.7	0.00e+00	0	57	0	121634816	49	4768
2026-01-01 01:02:25.93	338.74	24.14	-39.2	-41.4	16.6	0.00e+00	0	57	0	123731968	49	4792
2026-01-01 01:02:26.94	338.51	24.23	-39.1	-41.3	16.8	0.00e+00	0	57	0	125829120	49	4717
2026-01-01 01:02:27.96	338.27	24.32	-39.2	-41.3	16.7	0.00e+00	0	57	0	127926272	49	4750
2026-01-01 01:02:28.96	338.03	24.41	-39.2	-41.3	16.7	0.00e+00	0	57	0	130023424	49	4744
2026-01-01 01:02:29.97	337.79	24.50	-39.1	-41.2	16.9	0.00e+00	0	57	0	131072000	49	4670
2026-01-01 01:02:30.98	337.55	24.58	-39.0	-41.0	17.0	0.00e+00	0	57	0	133169152	49	4578
2026-01-01 01:02:31.99	337.30	24.67	-38.9	-40.9	17.2	0.00e+00	0	57	0	135266304	49	4502
2026-01-01 01:02:33.00	337.06	24.76	-38.9	-40.9	17.2	0.00e+00	0	57	0	137363456	49	4505
2026-01-01 01:02:34.01	336.81	24.85	-38.8	-40.8	17.3	0.00e+00	0	57	0	139460608	49	4445
2026-01-01 01:02:35.02	336.57	24.93	-38.8	-40.8	17.2	0.00e+00	0	57	0	140509184	49	4489
2026-01-01 01:02:36.03	336.32	25.02	-38.8	-40.8	17.2	0.00e+00	0	57	0	142606336	49	4461
2026-01-01 01:02:37.04	336.07	25.10	-38.8	-40.8	17.3	0.00e+00	0	57	0	144703488	49	4468
2026-01-01 01:02:38.05	335.82	25.19	-38.8	-40.8	17.3	0.00e+00	0	57	0	146800640	49	4475
2026-01-01 01:02:39.06	335.56	25.28	-38.8	-40.7	17.4	0.00e+00	0	57	0	148897792	49	4438
2026-01-01 01:02:40.07	335.31	25.36	-38.7	-40.7	17.4	0.00e+00	0	57	0	149946368	49	4412
2026-01-01 01:02:41.08	335.05	25.44	-38.7	-40.7	17.4	0.00e+00	0	57	0	152043520	49	4405
2026-01-01 01:02:42.09	334.79	25.53	-38.8	-40.8	17.3	0.00e+00	0	57	0	154140672	49	4462
2026-01-01 01:02:43.10	334.54	25.61	-38.9	-40.8	17.3	0.00e+00	0	57	0	156237824	49	4492
2026-01-01 01:02:44.11	334.28	25.70	-39.0	-41.1	17.0	0.00e+00	0	57	0	158334976	49	4610
2026-01-01 01:02:45.12	334.02	25.78	-39.1	-41.2	16.9	0.00e+00	0	57	0	159383552	49	4682
2026-01-01 01:02:46.13	333.75	25.86	-39.3	-41.4	16.7	0.00e+00	0	57	0	161480704	49	4809
2026-01-01 01:02:47.14	333.49	25.95	-39.4	-41.5	16.6	0.00e+00	0	57	0	163577856	49	4870
2026-01-01 01:02:48.15	333.22	26.03	-39.3	-41.5	16.6	0.00e+00	0	57	0	165675008	49	4821
2026-01-01 01:02:49.16	332.96	26.11	-39.3	-41.5	16.6	0.00e+00	0	57	0	167772160	49	4849
2026-01-01 01:02:50.17	332.69	26.19	-39.3	-41.5	16.7	0.00e+00	0	57	0	169869312	49	4820
2026-01-01 01:02:51.18	332.42	26.27	-39.3	-41.4	16.7	0.00e+00	0	57	0	170917888	49	4800
2026-01-01 01:02:52.19	332.15	26.35	-39.3	-41.5	16.6	0.00e+00	0	57	0	173015040	49	4839
2026-01-01 01:02:53.20	331.87	26.43	-39.4	-41.6	16.5	0.00e+00	0	57	0	175112192	49	4920
2026-01-01 01:02:54.20	331.60	26.51	-39.5	-41.7	16.4	0.00e+00	0	57	0	177209344	49	4977
2026-01-01 01:02:55.21	331.33	26.59	-39.6	-41.8	16.3	0.00e+00	0	57	0	179306496	49	5030
2026-01-01 01:02:56.22	331.05	26.67	-39.6	-41.9	16.2	0.00e+00	0	57	0	180355072	49	5056
2026-01-01 01:02:57.23	330.77	26.74	-39.6	-41.9	16.2	0.00e+00	0	57	0	182452224	49	5078
2026-01-01 01:02:58.24	330.49	26.82	-39.7	-42.0	16.1	0.00e+00	0	57	0	184549376	49	5135
2026-01-01 01:02:59.25	330.21	26.90	-39.7	-42.0	16.1	0.00e+00	0	57	0	186646528	50	4861
2026-01-01 01:03:00.26	329.93	26.97	-39.7	-42.0	16.1	0.00e+00	0	57	0	188743680	50	4858
2026-01-01 01:03:01.27	329.65	27.05	-39.7	-42.0	16.1	0.00e+00	0	57	0	189792256	50	4859
2026-01-01 01:03:02.28	329.36	27.12	-39.7	-42.0	16.2	0.00e+00	0	57	0	191889408	50	4833
2026-01-01 01:03:03.29	329.08	27.20	-39.8	-42.2	16.0	0.00e+00	0	57	0	193986560	50	4939
2026-01-01 01:03:04.30	328.79	27.27	-39.9	-42.2	16.0	0.00e+00	0	57	0	196083712	50	4978
2026-01-01 01:03:05.31	328.50	27.34	-39.8	-42.2	16.0	0.00e+00	0	57	0	198180864	50	4943
2026-01-01 01:03:06.32	328.21	27.42	-39.8	-42.1	16.0	0.00e+00	0	57	0	199229440	50	4924
2026-01-01 01:03:07.33	327.92	27.49	-39.8	-42.1	16.1	0.00e+00	0	57	0	201326592	50	4894
2026-01-01 01:03:08.34	327.63	27.56	-39.8	-42.1	16.1	0.00e+00	0	57	0	203423744	50	4878
2026-01-01 01:03:09.35	327.33	27.63	-39.8	-42.2	16.0	0.00e+00	0	57	0	205520896	50	4937
2026-01-01 01:03:10.36	327.04	27.70	-39.9	-42.3	15.9	0.00e+00	0	57	0	207618048	50	5005
2026-01-01 01:03:11.37	326.74	27.77	-39.9	-42.3	15.9	0.00e+00	0	57	0	208666624	50	4989
2026-01-01 01:03:12.37	326.44	27.84	-39.8	-42.2	16.0	0.00e+00	0	57	0	210763776	50	4951
2026-01-01 01:03:13.38	326.15	27.91	-39.9	-42.2	16.0	0.00e+00	0	57	0	212860928	50	4972
2026-01-01 01:03:14.39	325.85	27.97	-39.8	-42.1	16.0	0.00e+00	0	57	0	214958080	50	4926
2026-01-01 01:03:15.40	325.54	28.04	-39.8	-42.2	16.0	0.00e+00	0	57	0	217055232	50	4932
2026-01-01 01:03:16.41	325.24	28.11	-39.9	-42.2	15.9	0.00e+00	0	57	0	218103808	50	4979
2026-01-01 01:03:17.42	324.94	28.17	-39.8	-42.1	16.1	0.00e+00	0	57	0	220200960	50	4890
2026-01-01 01:03:18.43	324.63	28.24	-39.7	-42.0	16.2	0.00e+00	0	57	0	222298112	50	4838
2026-01-01 01:03:19.44	324.32	28.30	-39.7	-42.0	16.2	0.00e+00	0	57	0	224395264	50	4823
2026-01-01 01:03:20.45	324.01	28.36	-39.7	-42.0	16.2	0.00e+00	0	57	0	226492416	50	4844
2026-01-01 01:03:21.46	323.71	28.42	-39.7	-41.9	16.2	0.00e+00	0	57	0	227540992	50	4813
2026-01-01 01:03:22.47	323.40	28.48	-39.8	-42.1	16.1	0.00e+00	0	57	0	229638144	50	4888
2026-01-01 01:03:23.48	323.08	28.55	-39.9	-42.2	16.0	0.00e+00	0	57	0	231735296	50	4960
2026-01-01 01:03:24.49	322.77	28.60	-39.9	-42.3	15.9	0.00e+00	0	57	0	233832448	50	5008
2026-01-01 01:03:25.50	322.46	28.66	-40.0	-42.4	15.8	0.00e+00	0	57	0	235929600	50	5073
2026-01-01 01:03:26.51	322.14	28.72	-40.0	-42.5	15.7	0.00e+00	0	57	0	238026752	50	5119
2026-01-01 01:03:27.52	321.82	28.78	-40.1	-42.5	15.7	0.00e+00	0	57	0	239075328	50	5125
2026-01-01 01:03:28.53	321.51	28.83	-40.1	-42.5	15.7	0.00e+00	0	57	0	241172480	50	5144
2026-01-01 01:03:29.54	321.19	28.89	-40.2	-42.7	15.5	0.00e+00	0	57	0	243269632	50	5221
2026-01-01 01:03:30.55	320.87	28.94	-40.2	-42.7	15.5	0.00e+00	0	57	0	245366784	50	5269
2026-01-01 01:03:31.56	320.55	29.00	-40.3	-42.9	15.3	0.00e+00	0	57	0	247463936	51	5044
2026-01-01 01:03:32.57	320.23	29.05	-40.3	-42.9	15.3	0.00e+00	0	57	0	248512512	51	5090
2026-01-01 01:03:33.58	319.90	29.10	-40.2	-42.7	15.4	0.00e+00	0	57	0	250609664	51	4980
2026-01-01 01:03:34.59	319.58	29.15	-40.2	-42.7	15.5	0.00e+00	0	57	0	252706816	51	4967
2026-01-01 01:03:35.60	319.25	29.20	-40.2	-42.8	15.4	0.00e+00	0	57	0	254803968	51	5006
2026-01-01 01:03:36.61	318.93	29.25	-40.2	-42.8	15.4	0.00e+00	0	57	0	256901120	51	4993
2026-01-01 01:03:37.62	318.60	29.30	-40.3	-42.9	15.3	0.00e+00	0	57	0	257949696	51	5066
2026-01-01 01:03:38.63	318.27	29.35	-40.5	-43.1	15.0	0.00e+00	0	57	0	260046848	51	5210
2026-01-01 01:03:39.64	317.94	29.39	-40.5	-43.2	15.0	0.00e+00	0	57	0	262144000	51	5256
2026-01-01 01:03:40.65	317.61	29.44	-40.7	-43.5	14.6	0.00e+00	0	57	0	264241152	52	5115
2026-01-01 01:03:41.66	317.28	29.48	-40.7	-43.5	14.6	7.00e-07	0	57	0	266338304	52	5123
2026-01-01 01:03:42.67	316.95	29.52	-40.8	-43.6	14.4	0.00e+00	0	57	0	267386880	52	5217
2026-01-01 01:03:43.67	316.62	29.57	-40.7	-43.5	14.6	1.50e-06	0	57	0	269484032	52	5156
2026-01-01 01:03:44.68	316.29	29.61	-40.5	-43.2	14.9	7.00e-07	0	57	0	271581184	52	4965
2026-01-01 01:03:45.69	315.95	29.65	-40.3	-42.9	15.2	0.00e+00	0	57	0	273678336	52	4802
2026-01-01 01:03:46.70	315.62	29.69	-40.2	-42.8	15.3	0.00e+00	0	57	0	275775488	52	4732
2026-01-01 01:03:47.71	315.28	29.72	-40.3	-42.8	15.2	0.00e+00	0	57	0	276824064	52	4754
2026-01-01 01:03:48.72	314.95	29.76	-40.1	-42.6	15.5	0.00e+00	0	57	0	278921216	52	4637
2026-01-01 01:03:49.74	314.61	29.80	-40.2	-42.7	15.4	0.00e+00	0	57	0	281018368	52	4679
2026-01-01 01:03:50.75	314.27	29.83	-40.2	-42.7	15.4	0.00e+00	0	57	0	283115520	52	4674
2026-01-01 01:03:51.76	313.93	29.86	-40.2	-42.7	15.3	0.00e+00	0	57	0	285212672	52	4705
2026-01-01 01:03:52.76	313.59	29.90	-40.3	-42.8	15.2	0.00e+00	0	57	0	286261248	52	4747
2026-01-01 01:03:53.78	313.25	29.93	-40.3	-42.9	15.3	7.00e-07	0	57	0	288358400	52	4764
2026-01-01 01:03:54.78	312.91	29.96	-40.4	-43.1	15.0	0.00e+00	0	57	0	290455552	52	4926
2026-01-01 01:03:55.80	312.56	29.99	-40.4	-43.1	15.0	0.00e+00	0	57	0	292552704	52	4902
2026-01-01 01:03:56.81	312.22	30.02	-40.4	-43.1	15.0	0.00e+00	0	57	0	294649856	52	4877
2026-01-01 01:03:57.82	311.88	30.04	-40.4	-43.1	15.1	0.00e+00	0	57	0	295698432	52	4878
2026-01-01 01:03:58.83	311.54	30.07	-40.3	-42.9	15.2	0.00e+00	0	57	0	297795584	52	4779
2026-01-01 01:03:59.84	311.19	30.09	-40.2	-42.8	15.3	0.00e+00	0	57	0	299892736	52	4723
2026-01-01 01:04:00.85	310.85	30.12	-40.3	-42.9	15.2	0.00e+00	0	57	0	301989888	52	4788
2026-01-01 01:04:01.86	310.50	30.14	-40.4	-43.0	15.1	0.00e+00	0	57	0	304087040	52	4827
2026-01-01 01:04:02.87	310.16	30.16	-40.4	-43.0	15.1	0.00e+00	0	57	0	306184192	52	4845
2026-01-01 01:04:03.88	309.81	30.18	-40.4	-43.1	15.1	0.00e+00	0	57	0	307232768	52	4879
2026-01-01 01:04:04.89	309.46	30.20	-40.5	-43.2	14.9	0.00e+00	0	57	0	309329920	52	4949
2026-01-01 01:04:05.90	309.12	30.22	-40.5	-43.2	14.9	0.00e+00	0	57	0	311427072	52	4953
2026-01-01 01:04:06.91	308.77	30.23	-40.6	-43.3	14.8	0.00e+00	0	57	0	313524224	52	5012
2026-01-01 01:04:07.92	308.42	30.25	-40.6	-43.4	14.6	0.00e+00	0	57	0	315621376	52	5093
2026-01-01 01:04:08.93	308.07	30.26	-40.6	-43.4	14.6	0.00e+00	0	57	0	316669952	52	5099
2026-01-01 01:04:09.94	307.73	30.28	-40.7	-43.5	14.5	0.00e+00	0	57	0	318767104	52	5137
2026-01-01 01:04:10.95	307.38	30.29	-40.8	-43.6	14.5	1.50e-06	0	57	0	320864256	52	5201
2026-01-01 01:04:11.96	307.03	30.30	-40.9	-43.8	14.2	0.00e+00	0	57	0	322961408	52	5327
2026-01-01 01:04:12.97	306.68	30.31	-41.1	-44.1	13.9	2.20e-06	0	57	0	325058560	52	5494
2026-01-01 01:04:13.98	306.33	30.32	-41.2	-44.3	13.7	4.50e-06	0	57	0	326107136	52	5652
2026-01-01 01:04:14.99	305.98	30.32	-41.2	-44.4	13.7	4.50e-06	0	57	0	328204288	53	5348
2026-01-01 01:04:16.00	305.63	30.33	-41.2	-44.3	13.7	6.80e-06	0	57	0	330301440	53	5334
2026-01-01 01:04:17.01	305.28	30.33	-41.3	-44.5	13.6	9.10e-06	0	57	0	332398592	53	5445
2026-01-01 01:04:18.02	304.93	30.34	-41.2	-44.4	13.6	9.90e-06	0	57	0	334495744	53	5371
2026-01-01 01:04:19.02	304.59	30.34	-41.1	-44.2	13.9	9.10e-06	0	57	0	335544320	53	5235
2026-01-01 01:04:20.03	304.24	30.34	-41.0	-44.0	14.1	1.50e-06	0	57	0	337641472	53	5118
2026-01-01 01:04:21.04	303.89	30.34	-40.9	-43.8	14.2	0.00e+00	0	57	0	339738624	53	5039
2026-01-01 01:04:22.06	303.53	30.34	-40.9	-43.9	14.2	1.50e-06	0	57	0	341835776	53	5058
2026-01-01 01:04:23.06	303.19	30.34	-40.9	-43.9	14.2	2.20e-06	0	57	0	343932928	53	5066
2026-01-01 01:04:24.07	302.84	30.33	-40.9	-43.8	14.2	2.20e-06	0	57	0	344981504	53	5016
2026-01-01 01:04:25.08	302.49	30.33	-40.9	-43.9	14.1	2.20e-06	0	57	0	347078656	53	5075
2026-01-01 01:04:26.09	302.14	30.32	-41.0	-44.1	14.0	2.20e-06	0	57	0	349175808	53	5177
2026-01-01 01:04:27.10	301.79	30.32	-41.1	-44.2	13.9	3.00e-06	0	57	0	351272960	53	5229
2026-01-01 01:04:28.11	301.44	30.31	-41.0	-44.0	14.1	6.10e-06	0	58	0	353370112	53	5117
2026-01-01 01:04:29.12	301.09	30.30	-41.0	-44.1	14.0	5.30e-06	0	57	0	354418688	53	5176
2026-01-01 01:04:30.13	300.74	30.29	-40.9	-43.9	14.1	1.50e-06	0	57	0	356515840	53	5063
2026-01-01 01:04:31.14	300.39	30.27	-40.8	-43.7	14.4	3.00e-06	0	57	0	358612992	53	4937
2026-01-01 01:04:32.15	300.04	30.26	-40.7	-43.5	14.5	1.50e-06	0	57	0	360710144	53	4852
2026-01-01 01:04:33.16	299.70	30.25	-40.6	-43.4	14.6	0.00e+00	0	57	0	362807296	53	4763
2026-01-01 01:04:34.17	299.35	30.23	-40.5	-43.2	14.9	0.00e+00	0	57	0	363855872	52	4929
2026-01-01 01:04:35.18	299.00	30.21	-40.3	-42.9	15.1	0.00e+00	0	57	0	365953024	52	4787
2026-01-01 01:04:36.19	298.65	30.20	-40.0	-42.5	15.6	0.00e+00	0	57	0	368050176	52	4565
2026-01-01 01:04:37.20	298.31	30.18	-40.0	-42.5	15.6	0.00e+00	0	57	0	370147328	52	4574
2026-01-01 01:04:38.21	297.96	30.16	-40.2	-42.7	15.4	0.00e+00	0	57	0	372244480	52	4672
2026-01-01 01:04:39.22	297.61	30.14	-40.1	-42.6	15.4	0.00e+00	0	57	0	374341632	52	4650
2026-01-01 01:04:40.23	297.27	30.11	-40.1	-42.6	15.4	0.00e+00	0	57	0	375390208	52	4608
2026-01-01 01:04:41.24	296.92	30.09	-40.0	-42.4	15.7	0.00e+00	0	57	0	377487360	51	4804
2026-01-01 01:04:42.25	296.58	30.06	-40.0	-42.5	15.6	0.00e+00	0	57	0	379584512	51	4824
2026-01-01 01:04:43.26	296.24	30.04	-40.2	-42.8	15.4	0.00e+00	0	57	0	381681664	51	4985
2026-01-01 01:04:44.27	295.89	30.01	-40.3	-42.9	15.2	0.00e+00	0	57	0	383778816	51	5099
2026-01-01 01:04:45.27	295.55	29.98	-40.5	-43.2	15.0	7.00e-07	0	57	0	384827392	51	5257
2026-01-01 01:04:46.28	295.21	29.95	-40.6	-43.2	14.9	0.00e+00	0	58	0	386924544	51	5279
2026-01-01 01:04:47.29	294.87	29.92	-40.5	-43.2	15.0	0.00e+00	0	57	0	389021696	51	5242
2026-01-01 01:04:48.30	294.53	29.89	-40.4	-43.1	15.0	7.00e-07	0	57	0	391118848	51	5183
2026-01-01 01:04:49.31	294.19	29.86	-40.4	-43.0	15.2	0.00e+00	0	57	0	393216000	51	5116
2026-01-01 01:04:50.32	293.85	29.83	-40.3	-42.8	15.3	0.00e+00	0	57	0	394264576	51	5025
2026-01-01 01:04:51.33	293.51	29.79	-40.1	-42.6	15.6	0.00e+00	0	57	0	396361728	51	4882
2026-01-01 01:04:52.34	293.17	29.76	-40.0	-42.5	15.7	0.00e+00	0	57	0	398458880	51	4837
2026-01-01 01:04:53.35	292.84	29.72	-40.0	-42.5	15.7	0.00e+00	0	57	0	400556032	51	4815
2026-01-01 01:04:54.36	292.50	29.68	-40.1	-42.6	15.6	0.00e+00	0	57	0	402653184	51	4882
2026-01-01 01:04:55.37	292.16	29.64	-40.1	-42.6	15.6	0.00e+00	0	57	0	403701760	51	4895
2026-01-01 01:04:56.38	291.83	29.60	-40.1	-42.6	15.6	0.00e+00	0	57	0	405798912	51	4876
2026-01-01 01:04:57.39	291.50	29.56	-40.2	-42.7	15.4	0.00e+00	0	57	0	407896064	51	4969
2026-01-01 01:04:58.40	291.16	29.52	-40.3	-42.8	15.3	0.00e+00	0	57	0	409993216	51	5040
2026-01-01 01:04:59.41	290.83	29.47	-40.5	-43.1	15.1	0.00e+00	0	58	0	412090368	51	5188
2026-01-01 01:05:00.42	290.50	29.43	-40.3	-42.9	15.2	0.00e+00	0	57	0	413138944	51	5098
2026-01-01 01:05:01.43	290.17	29.39	-40.2	-42.8	15.4	0.00e+00	0	57	0	415236096	51	4994
2026-01-01 01:05:02.44	289.84	29.34	-40.0	-42.4	15.7	0.00e+00	0	57	0	417333248	51	4791
2026-01-01 01:05:03.45	289.51	29.29	-39.9	-42.2	15.9	0.00e+00	0	57	0	419430400	51	4691
2026-01-01 01:05:04.46	289.18	29.24	-39.8	-42.1	16.0	0.00e+00	0	57	0	421527552	51	4651
2026-01-01 01:05:05.47	288.86	29.19	-39.8	-42.2	16.0	0.00e+00	0	58	0	422576128	51	4667
2026-01-01 01:05:06.48	288.53	29.14	-40.0	-42.4	15.8	0.00e+00	0	57	0	424673280	51	4763
2026-01-01 01:05:07.48	288.21	29.09	-40.1	-42.6	15.5	0.00e+00	0	58	0	426770432	51	4878
2026-01-01 01:05:08.49	287.89	29.04	-40.0	-42.4	15.8	0.00e+00	0	57	0	428867584	51	4797
2026-01-01 01:05:09.51	287.56	28.99	-40.0	-42.5	15.7	0.00e+00	0	57	0	430964736	51	4823
2026-01-01 01:05:10.51	287.24	28.94	-40.0	-42.5	15.7	0.00e+00	0	58	0	432013312	51	4817
2026-01-01 01:05:11.52	286.92	28.88	-40.2	-42.7	15.4	0.00e+00	0	57	0	434110464	51	4967
2026-01-01 01:05:12.53	286.60	28.83	-40.3	-42.9	15.3	0.00e+00	0	57	0	436207616	51	5083
2026-01-01 01:05:13.54	286.29	28.77	-40.4	-43.1	15.0	0.00e+00	0	58	0	438304768	51	5165
2026-01-01 01:05:14.55	285.97	28.71	-40.5	-43.2	14.8	0.00e+00	0	58	0	440401920	51	5279
2026-01-01 01:05:15.56	285.65	28.65	-40.6	-43.4	14.7	0.00e+00	0	57	0	442499072	51	5379
2026-01-01 01:05:16.57	285.34	28.60	-40.6	-43.5	14.6	1.50e-06	0	58	0	443547648	52	5108
2026-01-01 01:05:17.58	285.02	28.54	-40.6	-43.4	14.7	0.00e+00	0	57	0	445644800	52	5088
2026-01-01 01:05:18.59	284.71	28.47	-40.4	-43.2	14.9	0.00e+00	0	57	0	447741952	52	4931
2026-01-01 01:05:19.60	284.40	28.41	-40.3	-43.0	15.0	0.00e+00	0	57	0	449839104	52	4828
2026-01-01 01:05:20.61	284.09	28.35	-40.3	-43.0	15.0	0.00e+00	0	57	0	451936256	52	4826
2026-01-01 01:05:21.62	283.78	28.29	-40.4	-43.1	15.0	7.00e-07	0	57	0	452984832	52	4901
2026-01-01 01:05:22.63	283.47	28.22	-40.5	-43.2	14.8	7.00e-07	0	58	0	455081984	52	4935
2026-01-01 01:05:23.64	283.17	28.16	-40.5	-43.2	14.8	0.00e+00	0	58	0	457179136	52	4983
2026-01-01 01:05:24.65	282.86	28.09	-40.6	-43.4	14.6	0.00e+00	0	58	0	459276288	52	5069
2026-01-01 01:05:25.66	282.56	28.03	-40.7	-43.5	14.5	7.00e-07	0	57	0	461373440	52	5150
2026-01-01 01:05:26.67	282.26	27.96	-40.8	-43.7	14.3	7.00e-07	0	57	0	462422016	52	5230
2026-01-01 01:05:27.68	281.96	27.89	-41.0	-44.0	14.0	7.00e-07	0	58	0	464519168	52	5414
2026-01-01 01:05:28.69	281.66	27.83	-41.0	-44.0	14.0	2.20e-06	0	57	0	466616320	52	5439
2026-01-01 01:05:29.70	281.36	27.76	-40.9	-43.8	14.2	1.50e-06	0	57	0	468713472	52	5329
2026-01-01 01:05:30.71	281.06	27.69	-40.7	-43.5	14.4	0.00e+00	0	57	0	470810624	52	5150
2026-01-01 01:05:31.72	280.76	27.62	-40.6	-43.3	14.7	0.00e+00	0	58	0	471859200	52	5021
2026-01-01 01:05:32.73	280.47	27.55	-40.6	-43.3	14.7	0.00e+00	0	58	0	473956352	52	5016
2026-01-01 01:05:33.74	280.18	27.47	-40.6	-43.4	14.7	0.00e+00	0	58	0	476053504	52	5055
2026-01-01 01:05:34.75	279.88	27.40	-40.5	-43.2	14.8	0.00e+00	0	58	0	478150656	52	4966
2026-01-01 01:05:35.76	279.59	27.33	-40.4	-43.1	14.9	0.00e+00	0	58	0	480247808	52	4892
2026-01-01 01:05:36.77	279.30	27.26	-40.5	-43.2	14.8	0.00e+00	0	57	0	481296384	52	4939
2026-01-01 01:05:37.78	279.01	27.18	-40.5	-43.2	14.8	0.00e+00	0	57	0	483393536	52	4964
2026-01-01 01:05:38.79	278.73	27.11	-40.5	-43.3	14.7	0.00e+00	0	58	0	485490688	52	4993
2026-01-01 01:05:39.80	278.44	27.03	-40.5	-43.3	14.7	0.00e+00	0	58	0	487587840	52	4995
2026-01-01 01:05:40.81	278.16	26.96	-40.5	-43.3	14.7	0.00e+00	0	58	0	489684992	52	5009
2026-01-01 01:05:41.82	277.88	26.88	-40.4	-43.1	14.9	0.00e+00	0	58	0	490733568	52	4920
2026-01-01 01:05:42.83	277.59	26.80	-40.3	-42.9	15.2	0.00e+00	0	57	0	492830720	52	4763
2026-01-01 01:05:43.84	277.31	26.73	-40.2	-42.7	15.3	0.00e+00	0	58	0	494927872	52	4679
2026-01-01 01:05:44.85	277.04	26.65	-40.2	-42.7	15.3	0.00e+00	0	58	0	497025024	52	4685
2026-01-01 01:05:45.86	276.76	26.57	-40.1	-42.6	15.4	0.00e+00	0	58	0	499122176	52	4625
2026-01-01 01:05:46.87	276.48	26.49	-40.0	-42.5	15.5	0.00e+00	0	58	0	500170752	52	4578
2026-01-01 01:05:47.88	276.21	26.41	-40.1	-42.6	15.4	0.00e+00	0	58	0	502267904	51	4919
2026-01-01 01:05:48.89	275.93	26.33	-40.1	-42.6	15.5	0.00e+00	0	58	0	504365056	51	4892
2026-01-01 01:05:49.90	275.66	26.25	-40.0	-42.5	15.6	0.00e+00	0	57	0	506462208	51	4825
2026-01-01 01:05:50.91	275.39	26.17	-40.0	-42.4	15.6	0.00e+00	0	58	0	508559360	51	4791
2026-01-01 01:05:51.92	275.12	26.09	-39.9	-42.3	15.8	0.00e+00	0	58	0	510656512	51	4755
2026-01-01 01:05:52.93	274.86	26.01	-39.9	-42.3	15.8	0.00e+00	0	58	0	511705088	51	4733
2026-01-01 01:05:53.94	274.59	25.92	-39.9	-42.3	15.8	0.00e+00	0	58	0	513802240	51	4719
2026-01-01 01:05:54.95	274.32	25.84	-39.8	-42.2	15.9	0.00e+00	0	58	0	515899392	51	4658
2026-01-01 01:05:55.96	274.06	25.76	-39.8	-42.2	15.9	0.00e+00	0	58	0	517996544	51	4679
2026-01-01 01:05:56.97	273.80	25.67	-39.7	-42.1	16.0	0.00e+00	0	58	0	520093696	51	4601
2026-01-01 01:05:57.98	273.54	25.59	-39.7	-42.0	16.1	0.00e+00	0	57	0	521142272	51	4565
2026-01-01 01:05:58.99	273.28	25.51	-39.7	-42.1	16.0	0.00e+00	0	58	0	523239424	51	4618
2026-01-01 01:06:00.00	273.02	25.42	-39.8	-42.2	15.9	0.00e+00	0	58	0	525336576	51	4652
2026-01-01 01:06:00.99	272.77	25.34	-39.7	-42.1	16.0	0.00e+00	0	58	0	527433728	51	4608
2026-01-01 01:06:02.00	272.51	25.25	-39.7	-42.0	16.0	0.00e+00	0	58	0	529530880	51	4587
2026-01-01 01:06:03.01	272.26	25.17	-39.7	-42.0	16.1	0.00e+00	0	58	0	530579456	51	4579
2026-01-01 01:06:04.02	272.01	25.08	-39.6	-41.8	16.2	0.00e+00	0	58	0	532676608	51	4472
2026-01-01 01:06:05.03	271.76	24.99	-39.5	-41.8	16.2	0.00e+00	0	58	0	534773760	51	4458
2026-01-01 01:06:06.04	271.51	24.91	-39.5	-41.7	16.3	0.00e+00	0	58	0	536870912	50	4704
2026-01-01 01:06:07.04	271.26	24.82	-39.5	-41.7	16.3	0.00e+00	0	58	0	538968064	50	4703
2026-01-01 01:06:08.05	271.01	24.73	-39.5	-41.7	16.4	0.00e+00	0	58	0	540016640	50	4680
2026-01-01 01:06:09.06	270.77	24.65	-39.3	-41.5	16.5	0.00e+00	0	57	0	542113792	50	4572
2026-01-01 01:06:10.07	270.52	24.56	-39.2	-41.3	16.7	0.00e+00	0	57	0	544210944	50	4490
2026-01-01 01:06:11.08	270.28	24.47	-39.2	-41.3	16.7	0.00e+00	0	58	0	546308096	50	4490
2026-01-01 01:06:12.09	270.04	24.38	-39.0	-41.1	17.0	0.00e+00	0	58	0	548405248	50	4362
2026-01-01 01:06:13.10	269.80	24.29	-39.0	-41.0	17.0	0.00e+00	0	57	0	549453824	49	4584
2026-01-01 01:06:14.11	269.56	24.20	-39.0	-41.0	17.0	0.00e+00	0	58	0	551550976	49	4575
2026-01-01 01:06:15.12	269.32	24.12	-38.9	-41.0	17.1	0.00e+00	0	58	0	553648128	49	4568
2026-01-01 01:06:16.13	269.09	24.03	-38.9	-40.9	17.1	0.00e+00	0	58	0	555745280	49	4531
2026-01-01 01:06:17.14	268.85	23.94	-38.9	-40.9	17.1	0.00e+00	0	58	0	557842432	49	4515
2026-01-01 01:06:18.15	268.62	23.85	-38.9	-40.9	17.1	0.00e+00	0	58	0	558891008	49	4525
2026-01-01 01:06:19.16	268.39	23.76	-38.8	-40.8	17.2	0.00e+00	0	57	0	560988160	49	4458
2026-01-01 01:06:20.17	268.16	23.67	-38.7	-40.7	17.3	0.00e+00	0	58	0	563085312	49	4416
2026-01-01 01:06:21.18	267.93	23.58	-38.6	-40.5	17.5	0.00e+00	0	58	0	565182464	49	4327
2026-01-01 01:06:22.19	267.70	23.49	-38.5	-40.4	17.6	0.00e+00	0	58	0	567279616	49	4289
2026-01-01 01:06:23.20	267.47	23.39	-38.5	-40.4	17.7	0.00e+00	0	57	0	568328192	48	4513
2026-01-01 01:06:24.21	267.25	23.30	-38.4	-40.3	17.7	0.00e+00	0	58	0	570425344	48	4460
2026-01-01 01:06:25.22	267.02	23.21	-38.4	-40.2	17.8	0.00e+00	0	58	0	572522496	48	4440
2026-01-01 01:06:26.23	266.80	23.12	-38.4	-40.2	17.8	0.00e+00	0	58	0	574619648	48	4441
2026-01-01 01:06:27.24	266.58	23.03	-38.2	-40.0	18.0	0.00e+00	0	58	0	576716800	48	4335
2026-01-01 01:06:28.25	266.36	22.94	-38.2	-40.0	17.9	0.00e+00	0	58	0	578813952	48	4337
2026-01-01 01:06:29.26	266.14	22.85	-38.2	-40.0	18.0	0.00e+00	0	58	0	579862528	48	4331
2026-01-01 01:06:30.27	265.92	22.76	-38.2	-40.0	17.9	0.00e+00	0	58	0	581959680	48	4339
2026-01-01 01:06:31.28	265.71	22.66	-38.2	-40.1	17.9	0.00e+00	0	58	0	584056832	48	4348
2026-01-01 01:06:32.29	265.49	22.57	-38.2	-40.0	18.0	0.00e+00	0	58	0	586153984	48	4320
2026-01-01 01:06:33.30	265.28	22.48	-38.1	-40.0	18.0	0.00e+00	0	57	0	588251136	48	4299
2026-01-01 01:06:34.31	265.07	22.39	-38.0	-39.8	18.1	0.00e+00	0	58	0	589299712	48	4239
2026-01-01 01:06:35.32	264.86	22.30	-37.8	-39.6	18.3	0.00e+00	0	58	0	591396864	47	4375
2026-01-01 01:06:36.32	264.65	22.20	-37.7	-39.5	18.4	0.00e+00	0	58	0	593494016	47	4315
2026-01-01 01:06:37.34	264.44	22.11	-37.6	-39.3	18.6	0.00e+00	0	58	0	595591168	47	4219
2026-01-01 01:06:38.35	264.23	22.02	-37.5	-39.2	18.7	0.00e+00	0	58	0	597688320	47	4165
2026-01-01 01:06:39.36	264.02	21.93	-37.5	-39.1	18.7	0.00e+00	0	58	0	598736896	46	4387
2026-01-01 01:06:40.37	263.82	21.83	-37.5	-39.2	18.7	0.00e+00	0	58	0	600834048	46	4409
2026-01-01 01:06:41.38	263.61	21.74	-37.4	-39.1	18.8	0.00e+00	0	58	0	602931200	46	4356
2026-01-01 01:06:42.38	263.41	21.65	-37.4	-39.0	18.8	0.00e+00	0	57	0	605028352	46	4326
2026-01-01 01:06:43.39	263.21	21.56	-37.4	-39.1	18.8	0.00e+00	0	58	0	607125504	46	4342
2026-01-01 01:06:44.40	263.01	21.46	-37.4	-39.1	18.7	0.00e+00	0	58	0	608174080	46	4376
2026-01-01 01:06:45.41	262.81	21.37	-37.5	-39.2	18.7	0.00e+00	0	58	0	610271232	46	4417
2026-01-01 01:06:46.42	262.62	21.28	-37.5	-39.2	18.7	0.00e+00	0	58	0	612368384	46	4396
2026-01-01 01:06:47.43	262.42	21.19	-37.4	-39.1	18.7	0.00e+00	0	58	0	614465536	46	4363
2026-01-01 01:06:48.44	262.22	21.09	-37.3	-39.0	18.8	0.00e+00	0	58	0	616562688	46	4318
2026-01-01 01:06:49.45	262.03	21.00	-37.3	-38.9	18.9	0.00e+00	0	58	0	617611264	46	4284
2026-01-01 01:06:50.46	261.84	20.91	-37.3	-38.9	18.9	0.00e+00	0	58	0	619708416	46	4270
2026-01-01 01:06:51.47	261.65	20.81	-37.3	-39.0	18.9	0.00e+00	0	58	0	621805568	46	4298
2026-01-01 01:06:52.48	261.46	20.72	-37.3	-38.9	19.0	0.00e+00	0	58	0	623902720	46	4275
2026-01-01 01:06:53.49	261.27	20.63	-37.3	-39.0	18.9	0.00e+00	0	58	0	625999872	46	4302
2026-01-01 01:06:54.50	261.08	20.54	-37.4	-39.1	18.7	0.00e+00	0	58	0	627048448	46	4373
2026-01-01 01:06:55.51	260.89	20.44	-37.5	-39.2	18.6	0.00e+00	0	58	0	629145600	46	4419
2026-01-01 01:06:56.52	260.70	20.35	-37.5	-39.2	18.6	0.00e+00	0	58	0	631242752	46	4415
2026-01-01 01:06:57.53	260.52	20.26	-37.6	-39.3	18.6	0.00e+00	0	58	0	633339904	46	4459
2026-01-01 01:06:58.54	260.34	20.17	-37.6	-39.3	18.6	0.00e+00	0	58	0	635437056	46	4458
2026-01-01 01:06:59.55	260.15	20.07	-37.5	-39.2	18.6	0.00e+00	0	58	0	636485632	46	4437
2026-01-01 01:07:00.55	259.97	19.98	-37.5	-39.3	18.6	0.00e+00	0	58	0	638582784	46	4450
2026-01-01 01:07:01.57	259.79	19.89	-37.6	-39.3	18.6	0.00e+00	0	58	0	640679936	46	4460
2026-01-01 01:07:02.58	259.61	19.79	-37.5	-39.2	18.6	0.00e+00	0	58	0	642777088	46	4411
2026-01-01 01:07:03.59	259.43	19.70	-37.4	-39.1	18.7	0.00e+00	0	58	0	644874240	46	4391
2026-01-01 01:07:04.60	259.26	19.61	-37.6	-39.3	18.5	0.00e+00	0	58	0	646971392	46	4493
2026-01-01 01:07:05.60	259.08	19.52	-37.7	-39.4	18.4	0.00e+00	0	58	0	648019968	46	4533
2026-01-01 01:07:06.61	258.91	19.43	-37.8	-39.6	18.2	0.00e+00	0	58	0	650117120	46	4621
2026-01-01 01:07:07.63	258.73	19.33	-37.9	-39.7	18.1	0.00e+00	0	58	0	652214272	46	4685
2026-01-01 01:07:08.64	258.56	19.24	-38.0	-39.9	18.0	0.00e+00	0	58	0	654311424	46	4762
2026-01-01 01:07:09.65	258.39	19.15	-38.0	-39.9	18.0	0.00e+00	0	58	0	656408576	46	4766
2026-01-01 01:07:10.65	258.22	19.06	-38.0	-39.8	18.0	0.00e+00	0	58	0	657457152	46	4755
2026-01-01 01:07:11.66	258.05	18.97	-37.9	-39.8	18.0	0.00e+00	0	58	0	659554304	46	4706
2026-01-01 01:07:12.67	257.88	18.87	-37.9	-39.7	18.1	0.00e+00	0	58	0	661651456	46	4666
2026-01-01 01:07:13.68	257.71	18.78	-37.9	-39.7	18.1	0.00e+00	0	58	0	663748608	46	4702
2026-01-01 01:07:14.69	257.54	18.69	-38.0	-39.9	17.9	0.00e+00	0	58	0	665845760	46	4783
2026-01-01 01:07:15.70	257.38	18.60	-38.1	-40.0	17.7	0.00e+00	0	58	0	666894336	46	4863
2026-01-01 01:07:16.71	257.21	18.51	-38.3	-40.2	17.6	0.00e+00	0	58	0	668991488	47	4685
2026-01-01 01:07:17.72	257.05	18.42	-38.4	-40.3	17.5	0.00e+00	0	58	0	671088640	47	4743
2026-01-01 01:07:18.73	256.89	18.32	-38.5	-40.5	17.3	0.00e+00	0	58	0	673185792	47	4843
2026-01-01 01:07:19.74	256.73	18.23	-38.6	-40.6	17.2	0.00e+00	0	58	0	675282944	47	4899
2026-01-01 01:07:20.75	256.57	18.14	-38.7	-40.7	17.0	0.00e+00	0	58	0	676331520	47	4979
2026-01-01 01:07:21.76	256.41	18.05	-38.7	-40.8	17.0	0.00e+00	0	58	0	678428672	47	5007
2026-01-01 01:07:22.77	256.25	17.96	-38.7	-40.8	17.0	0.00e+00	0	58	0	680525824	47	4992
2026-01-01 01:07:23.78	256.09	17.87	-38.6	-40.7	17.1	0.00e+00	0	58	0	682622976	47	4935
2026-01-01 01:07:24.79	255.93	17.78	-38.6	-40.7	17.1	0.00e+00	0	58	0	684720128	47	4934
2026-01-01 01:07:25.80	255.78	17.69	-38.6	-40.7	17.1	0.00e+00	0	58	0	685768704	47	4939
2026-01-01 01:07:26.81	255.62	17.60	-38.6	-40.7	17.1	0.00e+00	0	58	0	687865856	47	4928
2026-01-01 01:07:27.82	255.47	17.51	-38.6	-40.6	17.2	0.00e+00	0	58	0	689963008	47	4905
2026-01-01 01:07:28.83	255.31	17.42	-38.6	-40.6	17.1	0.00e+00	0	58	0	692060160	47	4910
2026-01-01 01:07:29.84	255.16	17.33	-38.6	-40.6	17.2	0.00e+00	0	58	0	694157312	47	4891
2026-01-01 01:07:30.85	255.01	17.24	-38.6	-40.7	17.1	0.00e+00	0	58	0	695205888	47	4953
2026-01-01 01:07:31.86	254.86	17.15	-38.7	-40.7	17.1	0.00e+00	0	58	0	697303040	47	4978
2026-01-01 01:07:32.87	254.71	17.06	-38.6	-40.7	17.1	0.00e+00	0	58	0	699400192	47	4960
2026-01-01 01:07:33.88	254.56	16.97	-38.7	-40.8	17.0	0.00e+00	0	58	0	701497344	47	4989
2026-01-01 01:07:34.89	254.41	16.88	-38.7	-40.8	17.0	0.00e+00	0	58	0	703594496	47	4990
2026-01-01 01:07:35.90	254.27	16.79	-38.8	-40.9	16.9	0.00e+00	0	58	0	704643072	48	4801
2026-01-01 01:07:36.91	254.12	16.70	-38.9	-41.0	16.9	0.00e+00	0	58	0	706740224	48	4840
2026-01-01 01:07:37.92	253.98	16.61	-39.0	-41.1	16.8	0.00e+00	0	58	0	708837376	48	4893
2026-01-01 01:07:38.93	253.83	16.52	-39.0	-41.1	16.7	0.00e+00	0	58	0	710934528	48	4915
2026-01-01 01:07:39.94	253.69	16.43	-39.1	-41.2	16.6	0.00e+00	0	58	0	713031680	48	4969
2026-01-01 01:07:40.95	253.55	16.34	-39.1	-41.3	16.5	0.00e+00	0	58	0	715128832	48	5023
2026-01-01 01:07:41.96	253.41	16.26	-39.0	-41.2	16.7	0.00e+00	0	58	0	716177408	48	4929
2026-01-01 01:07:42.97	253.26	16.17	-39.1	-41.3	16.5	0.00e+00	0	58	0	718274560	48	5018
2026-01-01 01:07:43.98	253.12	16.08	-39.2	-41.4	16.4	0.00e+00	0	58	0	720371712	48	5073
2026-01-01 01:07:44.99	252.99	15.99	-39.2	-41.5	16.3	0.00e+00	0	58	0	722468864	49	4826
2026-01-01 01:07:45.99	252.85	15.90	-39.3	-41.6	16.3	0.00e+00	0	58	0	724566016	49	4885
2026-01-01 01:07:47.01	252.71	15.81	-39.2	-41.5	16.3	0.00e+00	0	58	0	725614592	49	4828
2026-01-01 01:07:48.01	252.57	15.73	-39.2	-41.4	16.4	0.00e+00	0	58	0	727711744	49	4788
2026-01-01 01:07:49.02	252.44	15.64	-39.2	-41.4	16.4	0.00e+00	0	58	0	729808896	49	4778
2026-01-01 01:07:50.03	252.30	15.55	-39.2	-41.4	16.4	0.00e+00	0	58	0	731906048	49	4765
2026-01-01 01:07:51.04	252.17	15.47	-39.0	-41.2	16.6	0.00e+00	0	58	0	732954624	49	4659
2026-01-01 01:07:52.05	252.04	15.38	-39.0	-41.1	16.7	0.00e+00	0	58	0	735051776	49	4637
2026-01-01 01:07:53.06	251.90	15.29	-39.0	-41.2	16.6	0.00e+00	0	58	0	737148928	49	4668
2026-01-01 01:07:54.07	251.77	15.21	-39.1	-41.3	16.5	0.00e+00	0	58	0	739246080	49	4734
2026-01-01 01:07:55.08	251.64	15.12	-39.1	-41.3	16.5	0.00e+00	0	58	0	741343232	49	4748
2026-01-01 01:07:56.09	251.51	15.03	-39.2	-41.5	16.3	0.00e+00	0	58	0	743440384	49	4832
2026-01-01 01:07:57.10	251.38	14.95	-39.3	-41.6	16.2	0.00e+00	0	58	0	744488960	49	4880
2026-01-01 01:07:58.11	251.25	14.86	-39.3	-41.6	16.2	0.00e+00	0	58	0	746586112	49	4904
2026-01-01 01:07:59.12	251.12	14.77	-39.4	-41.7	16.0	0.00e+00	0	58	0	748683264	49	4982
2026-01-01 01:08:00.13	251.00	14.69	-39.5	-41.8	16.0	0.00e+00	0	58	0	750780416	49	5024
2026-01-01 01:08:01.13	250.87	14.60	-39.4	-41.8	16.0	0.00e+00	0	58	0	752877568	49	5002
2026-01-01 01:08:02.14	250.75	14.52	-39.4	-41.7	16.0	0.00e+00	0	58	0	753926144	49	4965
2026-01-01 01:08:03.15	250.62	14.43	-39.4	-41.7	16.1	0.00e+00	0	58	0	756023296	49	4955
2026-01-01 01:08:04.16	250.50	14.35	-39.3	-41.6	16.2	0.00e+00	0	58	0	758120448	49	4872
2026-01-01 01:08:05.17	250.37	14.26	-39.3	-41.6	16.2	0.00e+00	0	58	0	760217600	49	4901
2026-01-01 01:08:06.18	250.25	14.18	-39.3	-41.6	16.2	0.00e+00	0	58	0	762314752	49	4899
2026-01-01 01:08:07.19	250.13	14.09	-39.3	-41.6	16.2	0.00e+00	0	58	0	763363328	49	4906
2026-01-01 01:08:08.20	250.01	14.01	-39.4	-41.8	16.0	0.00e+00	0	58	0	765460480	49	5006
2026-01-01 01:08:09.21	249.88	13.92	-39.6	-42.0	15.8	0.00e+00	0	58	0	767557632	49	5128
2026-01-01 01:08:10.22	249.76	13.84	-39.7	-42.2	15.6	0.00e+00	0	58	0	769654784	49	5222
2026-01-01 01:08:11.23	249.65	13.76	-39.8	-42.4	15.4	0.00e+00	0	58	0	771751936	50	5047
2026-01-01 01:08:12.24	249.53	13.67	-39.9	-42.5	15.3	0.00e+00	0	58	0	772800512	50	5125
2026-01-01 01:08:13.25	249.41	13.59	-40.0	-42.7	15.0	0.00e+00	0	58	0	774897664	50	5243
2026-01-01 01:08:14.26	249.29	13.51	-40.2	-42.8	14.9	0.00e+00	0	58	0	776994816	50	5338
2026-01-01 01:08:15.27	249.17	13.42	-40.1	-42.8	14.9	0.00e+00	0	58	0	779091968	50	5336
2026-01-01 01:08:16.28	249.06	13.34	-40.1	-42.8	14.9	0.00e+00	0	58	0	781189120	50	5332
2026-01-01 01:08:17.29	248.94	13.26	-40.1	-42.8	14.9	7.00e-07	0	58	0	782237696	50	5338
2026-01-01 01:08:18.29	248.83	13.17	-40.0	-42.7	15.0	0.00e+00	0	58	0	784334848	50	5241
2026-01-01 01:08:19.30	248.72	13.09	-40.1	-42.7	15.0	0.00e+00	0	58	0	786432000	50	5244
2026-01-01 01:08:20.31	248.60	13.01	-39.8	-42.3	15.4	0.00e+00	0	58	0	788529152	50	5040
2026-01-01 01:08:21.32	248.49	12.93	-39.8	-42.3	15.4	0.00e+00	0	58	0	790626304	50	5016
2026-01-01 01:08:22.33	248.38	12.84	-39.9	-42.4	15.3	0.00e+00	0	58	0	791674880	50	5079
2026-01-01 01:08:23.34	248.27	12.76	-39.8	-42.4	15.3	0.00e+00	0	58	0	793772032	50	5056
2026-01-01 01:08:24.35	248.15	12.68	-39.8	-42.3	15.4	0.00e+00	0	58	0	795869184	50	5031
2026-01-01 01:08:25.36	248.04	12.60	-39.9	-42.5	15.2	0.00e+00	0	58	0	797966336	50	5130
2026-01-01 01:08:26.37	247.93	12.52	-40.0	-42.7	15.0	0.00e+00	0	58	0	800063488	50	5253
2026-01-01 01:08:27.38	247.83	12.44	-40.1	-42.7	15.0	0.00e+00	0	58	0	801112064	50	5266
2026-01-01 01:08:28.39	247.72	12.35	-40.2	-42.9	14.8	7.00e-07	0	58	0	803209216	50	5373
2026-01-01 01:08:29.40	247.61	12.27	-40.2	-43.0	14.7	0.00e+00	0	58	0	805306368	51	5107
2026-01-01 01:08:30.41	247.50	12.19	-40.4	-43.2	14.5	7.00e-07	0	58	0	807403520	51	5240
2026-01-01 01:08:31.42	247.40	12.11	-40.3	-43.1	14.6	0.00e+00	0	58	0	809500672	51	5177
2026-01-01 01:08:32.43	247.29	12.03	-40.2	-43.0	14.7	0.00e+00	0	58	0	811597824	51	5125
2026-01-01 01:08:33.44	247.18	11.95	-40.3	-43.1	14.6	0.00e+00	0	58	0	812646400	51	5173
2026-01-01 01:08:34.45	247.08	11.87	-40.2	-43.0	14.7	0.00e+00	0	58	0	814743552	51	5127
2026-01-01 01:08:35.46	246.97	11.79	-40.1	-42.7	14.9	0.00e+00	0	58	0	816840704	51	4978
2026-01-01 01:08:36.47	246.87	11.71	-40.1	-42.8	14.9	0.00e+00	0	58	0	818937856	51	5021
2026-01-01 01:08:37.48	246.77	11.63	-40.1	-42.8	14.9	0.00e+00	0	58	0	821035008	51	5002
2026-01-01 01:08:38.49	246.67	11.55	-40.0	-42.7	14.9	0.00e+00	0	58	0	822083584	51	4964
2026-01-01 01:08:39.50	246.56	11.47	-40.1	-42.8	14.9	0.00e+00	0	58	0	824180736	51	4995
2026-01-01 01:08:40.51	246.46	11.39	-40.1	-42.9	14.8	0.00e+00	0	58	0	826277888	51	5042
2026-01-01 01:08:41.52	246.36	11.31	-40.1	-42.9	14.8	7.00e-07	0	58	0	828375040	51	5057
2026-01-01 01:08:42.54	246.26	11.24	-40.1	-42.9	14.8	0.00e+00	0	58	0	830472192	51	5061
2026-01-01 01:08:43.55	246.16	11.16	-40.2	-42.9	14.7	0.00e+00	0	58	0	831520768	51	5077
2026-01-01 01:08:44.56	246.06	11.08	-40.3	-43.2	14.5	7.00e-07	0	58	0	833617920	51	5222
2026-01-01 01:08:45.57	245.96	11.00	-40.4	-43.3	14.4	0.00e+00	0	58	0	835715072	51	5286
2026-01-01 01:08:46.58	245.86	10.92	-40.4	-43.3	14.4	0.00e+00	0	58	0	837812224	51	5290
2026-01-01 01:08:47.59	245.77	10.84	-40.4	-43.3	14.4	7.00e-07	0	58	0	839909376	51	5280
2026-01-01 01:08:48.60	245.67	10.77	-40.4	-43.3	14.3	1.50e-06	0	58	0	840957952	51	5320
2026-01-01 01:08:49.61	245.57	10.69	-40.5	-43.4	14.1	0.00e+00	0	58	0	843055104	51	5393
2026-01-01 01:08:50.62	245.48	10.61	-40.5	-43.5	14.1	7.00e-07	0	58	0	845152256	51	5409
2026-01-01 01:08:51.63	245.38	10.53	-40.5	-43.4	14.2	2.20e-06	0	58	0	847249408	51	5375
2026-01-01 01:08:52.64	245.29	10.46	-40.4	-43.3	14.3	0.00e+00	0	58	0	849346560	51	5294
2026-01-01 01:08:53.64	245.19	10.38	-40.4	-43.4	14.2	7.00e-07	0	58	0	851443712	51	5346
2026-01-01 01:08:54.65	245.10	10.30	-40.4	-43.3	14.3	1.50e-06	0	58	0	852492288	51	5285
2026-01-01 01:08:55.66	245.01	10.23	-40.3	-43.2	14.3	7.00e-07	0	58	0	854589440	51	5266
2026-01-01 01:08:56.67	244.91	10.15	-40.4	-43.3	14.2	7.00e-07	0	58	0	856686592	51	5340
2026-01-01 01:08:57.68	244.82	10.07	-40.5	-43.4	14.1	3.80e-06	0	58	0	858783744	51	5400
2026-01-01 01:08:58.70	244.73	10.00	-40.5	-43.5	14.0	0.00e+00	0	58	0	860880896	51	5422
2026-01-01 01:08:59.71	244.64	9.92	-40.5	-43.6	13.9	3.00e-06	0	58	0	861929472	51	5477
2026-01-01 01:09:00.72	244.54	9.85	-40.6	-43.6	13.9	7.00e-07	0	58	0	864026624	51	5516
2026-01-01 01:09:01.72	244.46	9.77	-40.6	-43.7	13.8	6.10e-06	0	58	0	866123776	51	5583
2026-01-01 01:09:02.73	244.37	9.69	-40.7	-43.8	13.6	3.00e-06	0	58	0	868220928	52	5333
2026-01-01 01:09:03.74	244.28	9.62	-40.7	-44.0	13.4	8.30e-06	0	58	0	869269504	52	5433
2026-01-01 01:09:04.75	244.19	9.54	-40.8	-44.1	13.4	2.44e-05	0	58	0	871366656	52	5470
2026-01-01 01:09:05.76	244.10	9.47	-40.9	-44.2	13.2	2.05e-05	0	58	0	873463808	52	5565
2026-01-01 01:09:06.77	244.01	9.39	-40.9	-44.3	13.1	3.50e-05	0	58	0	875560960	52	5642
2026-01-01 01:09:07.78	243.92	9.32	-40.9	-44.4	13.0	3.81e-05	0	58	0	877658112	52	5678
2026-01-01 01:09:08.79	243.83	9.25	-41.0	-44.4	13.0	4.57e-05	0	58	0	879755264	52	5699
2026-01-01 01:09:09.80	243.75	9.17	-40.9	-44.3	13.1	3.66e-05	0	58	0	880803840	52	5600
2026-01-01 01:09:10.81	243.66	9.10	-40.9	-44.3	13.1	3.12e-05	0	58	0	882900992	52	5640
2026-01-01 01:09:11.82	243.58	9.02	-40.8	-44.2	13.2	3.28e-05	0	58	0	884998144	52	5558
2026-01-01 01:09:12.83	243.49	8.95	-40.8	-44.2	13.1	2.51e-05	0	58	0	887095296	52	5564
2026-01-01 01:09:13.84	243.41	8.87	-40.7	-43.9	13.5	1.22e-05	0	58	0	889192448	52	5373
2026-01-01 01:09:14.85	243.32	8.80	-40.6	-43.8	13.5	6.80e-06	0	58	0	890241024	52	5331
2026-01-01 01:09:15.86	243.24	8.73	-40.6	-43.8	13.5	1.29e-05	0	58	0	892338176	52	5323
2026-01-01 01:09:16.87	243.15	8.65	-40.6	-43.7	13.6	1.67e-05	0	58	0	894435328	52	5272
2026-01-01 01:09:17.88	243.07	8.58	-40.5	-43.6	13.7	6.80e-06	0	58	0	896532480	52	5215
2026-01-01 01:09:18.89	242.99	8.51	-40.4	-43.5	13.8	5.30e-06	0	58	0	898629632	52	5116
2026-01-01 01:09:19.90	242.90	8.44	-40.4	-43.5	13.8	5.30e-06	0	58	0	899678208	52	5143
2026-01-01 01:09:20.91	242.82	8.36	-40.5	-43.6	13.7	6.80e-06	0	58	0	901775360	52	5182
2026-01-01 01:09:21.92	242.74	8.29	-40.5	-43.7	13.5	9.90e-06	0	58	0	903872512	52	5273
2026-01-01 01:09:22.93	242.66	8.22	-40.6	-43.9	13.4	1.52e-05	0	58	0	905969664	52	5364
2026-01-01 01:09:23.94	242.58	8.15	-40.7	-44.0	13.2	2.89e-05	0	58	0	908066816	52	5437
2026-01-01 01:09:24.95	242.50	8.07	-40.7	-44.1	13.2	3.66e-05	0	58	0	909115392	52	5479
2026-01-01 01:09:25.96	242.42	8.00	-44.4	-58.7	3.8	1.32e-03	0	58	104	911212544	59	19822
2026-01-01 01:09:26.97	242.34	7.93	-44.7	-59.0	3.8	1.49e+00	0	58	104	911212544	59	20438
2026-01-01 01:09:27.98	242.26	7.86	-44.7	-59.3	3.8	1.49e+00	0	58	104	911212544	60	19928
