passes_logs/2026/01/01/R2.0S_Moscow/R2.0S_Moscow__20260101_081857_NOAA_21_JPSS-2_rec.log

#Pass ID: 20260101_081857_NOAA 21 (JPSS-2)
#Satellite: NOAA 21 (JPSS-2)
#Configuration: NOAA-21
#almurnet v.1.7.20251203
#Start time: 2026-01-01 08:18:59

#Version: 2.2.20231116
#Station: R2.0S_Moscow
#Location: 37.707566 lon 55.798166 lat
#TLE: 1 54234U 22150A   25365.42224288  .00000199  00000+0  11529-3 0  9990
#TLE: 2 54234  98.7483 301.4995 0001320 356.2106   3.9060 14.19530300162743

#Time	Az	El	Level	Level2	SNR	BER	BlckErr	Temp	State	Recorded	gain1	gain2
2026-01-01 08:18:59.53	113.51	2.12	-40.2	-52.4	3.8	1.50e+00	0	48	0	0	51	15075
2026-01-01 08:19:00.54	113.44	2.18	-42.5	-54.6	3.8	1.50e+00	0	48	104	0	55	15460
2026-01-01 08:19:01.55	113.38	2.24	-40.6	-53.9	3.9	1.50e+00	0	49	104	0	56	13434
2026-01-01 08:19:02.56	113.31	2.29	-37.0	-52.6	3.8	1.49e+00	0	48	104	0	55	12239
2026-01-01 08:19:03.57	113.24	2.35	-42.7	-54.6	3.8	1.49e+00	0	49	104	0	55	15530
2026-01-01 08:19:04.58	113.18	2.41	-42.6	-54.7	4.1	1.49e+00	0	49	104	0	55	15672
2026-01-01 08:19:05.60	113.11	2.47	-37.6	-49.5	3.9	1.51e+00	0	49	104	0	43	17218
2026-01-01 08:19:06.61	113.04	2.53	-42.6	-54.2	3.9	1.50e+00	0	49	104	0	55	14863
2026-01-01 08:19:07.62	112.97	2.58	-42.8	-54.7	3.9	1.50e+00	0	49	104	0	56	14722
2026-01-01 08:19:08.63	112.91	2.64	-41.2	-54.3	3.8	1.50e+00	0	49	104	0	55	15048
2026-01-01 08:19:09.64	112.84	2.70	-41.7	-54.1	3.8	1.49e+00	0	49	104	0	56	13877
2026-01-01 08:19:10.65	112.77	2.76	-42.6	-54.7	4.1	1.49e+00	0	49	104	0	55	15748
2026-01-01 08:19:11.66	112.70	2.82	-42.3	-54.3	3.8	1.50e+00	0	49	104	0	55	15018
2026-01-01 08:19:12.68	112.63	2.88	-42.5	-54.9	3.8	1.50e+00	0	49	104	0	56	15132
2026-01-01 08:19:13.69	112.56	2.94	-41.3	-53.3	3.9	1.49e+00	0	50	104	0	54	14209
2026-01-01 08:19:14.70	112.49	2.99	-42.0	-54.0	3.9	1.49e+00	0	50	104	0	55	14515
2026-01-01 08:19:15.71	112.42	3.05	-41.9	-53.5	3.8	1.50e+00	0	50	104	0	52	16159
2026-01-01 08:19:16.72	112.35	3.11	-42.1	-53.8	4.0	1.50e+00	0	50	104	0	48	21235
2026-01-01 08:19:17.73	112.28	3.17	-41.4	-53.6	3.9	1.50e+00	0	50	104	0	54	14588
2026-01-01 08:19:18.74	112.21	3.23	-40.5	-53.1	3.8	1.50e+00	0	50	104	0	55	12987
2026-01-01 08:19:19.75	112.14	3.29	-40.0	-52.3	4.0	1.50e+00	0	50	104	0	54	12651
2026-01-01 08:19:20.76	112.07	3.35	-42.5	-53.9	3.9	1.49e+00	0	50	104	0	54	15145
2026-01-01 08:19:21.77	112.00	3.41	-42.7	-54.2	3.8	1.49e+00	0	50	104	0	54	15735
2026-01-01 08:19:22.78	111.93	3.47	-39.1	-52.9	3.8	1.50e+00	0	50	104	0	51	15947
2026-01-01 08:19:23.79	111.85	3.53	-41.0	-53.7	3.9	1.50e+00	0	50	104	0	47	22218
2026-01-01 08:19:24.81	111.78	3.59	-41.6	-53.2	4.0	1.50e+00	0	50	104	0	53	14849
2026-01-01 08:19:25.82	111.71	3.65	-40.2	-53.1	3.8	1.49e+00	0	50	104	0	52	15551
2026-01-01 08:19:26.83	111.63	3.71	-42.6	-54.6	3.8	1.49e+00	0	50	104	0	55	15466
2026-01-01 08:19:27.84	111.56	3.77	-41.2	-52.4	3.8	1.50e+00	0	50	104	0	54	12667
2026-01-01 08:19:28.85	111.49	3.83	-39.0	-51.4	4.3	1.49e+00	0	51	104	0	53	12033
2026-01-01 08:19:29.86	111.41	3.89	-39.5	-52.2	4.0	1.50e+00	0	51	104	0	51	14753
2026-01-01 08:19:30.87	111.34	3.95	-41.5	-54.0	3.7	1.50e+00	0	51	104	0	54	15335
2026-01-01 08:19:31.88	111.26	4.01	-42.7	-54.7	3.8	1.49e+00	0	51	104	0	56	14783
2026-01-01 08:19:32.89	111.19	4.07	-42.3	-54.9	3.2	1.50e+00	0	51	104	0	46	26999
2026-01-01 08:19:33.90	111.11	4.13	-41.2	-53.5	4.3	1.50e+00	0	51	104	0	55	13639
2026-01-01 08:19:34.92	111.04	4.19	-42.1	-54.2	3.4	1.50e+00	0	51	104	0	51	18599
2026-01-01 08:19:35.93	110.96	4.25	-41.6	-54.1	3.7	1.50e+00	0	51	104	0	54	15536
2026-01-01 08:19:36.94	110.89	4.31	-38.8	-51.1	3.9	1.50e+00	0	51	104	0	49	14647
2026-01-01 08:19:37.95	110.81	4.37	-41.8	-53.3	3.9	1.50e+00	0	51	104	0	54	14050
2026-01-01 08:19:38.96	110.73	4.43	-41.6	-54.0	3.9	1.49e+00	0	51	104	0	56	13600
2026-01-01 08:19:39.97	110.66	4.49	-42.7	-54.5	3.7	1.50e+00	0	51	104	0	55	15352
2026-01-01 08:19:40.98	110.58	4.55	-42.6	-54.5	3.7	1.49e+00	0	51	104	0	54	16130
2026-01-01 08:19:41.99	110.50	4.61	-42.0	-53.7	3.9	1.49e+00	0	51	104	0	55	13995
2026-01-01 08:19:43.00	110.42	4.68	-42.6	-54.6	4.0	1.49e+00	0	51	104	0	55	15489
2026-01-01 08:19:44.01	110.34	4.74	-37.7	-50.6	4.1	1.50e+00	0	52	104	0	48	14612
2026-01-01 08:19:45.03	110.26	4.80	-41.8	-54.2	3.8	1.49e+00	0	52	104	0	56	14014
2026-01-01 08:19:46.04	110.18	4.86	-41.6	-53.7	3.9	1.49e+00	0	51	104	0	54	14742
2026-01-01 08:19:47.05	110.10	4.92	-41.9	-52.9	3.9	1.50e+00	0	52	104	0	53	14343
2026-01-01 08:19:48.06	110.02	4.98	-33.6	-48.9	3.3	1.50e+00	0	52	104	0	49	11400
2026-01-01 08:19:49.07	109.94	5.05	-42.3	-54.4	4.2	1.49e+00	0	52	104	0	55	15222
2026-01-01 08:19:50.08	109.86	5.11	-41.8	-54.1	4.0	1.49e+00	0	52	104	0	55	14672
2026-01-01 08:19:51.09	109.78	5.17	-42.2	-54.3	3.8	1.50e+00	0	52	104	0	54	15836
2026-01-01 08:19:52.10	109.70	5.23	-41.7	-54.2	3.9	1.49e+00	0	52	104	0	55	14801
2026-01-01 08:19:53.12	109.62	5.29	-40.4	-53.6	3.9	1.49e+00	0	52	104	0	56	13036
2026-01-01 08:19:54.13	109.54	5.36	-41.8	-53.3	4.0	1.49e+00	0	52	104	0	56	12558
2026-01-01 08:19:55.14	109.45	5.42	-41.5	-54.5	3.9	1.49e+00	0	52	104	0	56	14387
2026-01-01 08:19:56.15	109.37	5.48	-38.3	-52.6	4.0	1.49e+00	0	52	104	0	54	13101
2026-01-01 08:19:57.16	109.29	5.54	-42.7	-54.8	3.8	1.49e+00	0	52	104	0	56	14886
2026-01-01 08:19:58.17	109.20	5.61	-42.7	-54.3	3.9	1.49e+00	0	52	104	0	55	14880
2026-01-01 08:19:59.18	109.12	5.67	-38.6	-51.1	4.0	1.50e+00	0	52	104	0	49	14623
2026-01-01 08:20:00.19	109.04	5.73	-42.7	-54.1	3.8	1.49e+00	0	52	104	0	54	15561
2026-01-01 08:20:01.20	108.95	5.79	-42.2	-54.4	3.9	1.49e+00	0	53	104	0	55	15183
2026-01-01 08:20:02.22	108.87	5.86	-42.9	-54.8	3.9	1.49e+00	0	52	104	0	56	14997
2026-01-01 08:20:03.23	108.78	5.92	-42.4	-54.4	3.9	1.49e+00	0	52	104	0	55	15188
2026-01-01 08:20:04.24	108.69	5.98	-42.8	-54.7	3.9	1.50e+00	0	52	104	0	56	14728
2026-01-01 08:20:05.25	108.61	6.05	-41.5	-53.7	3.9	1.49e+00	0	52	104	0	55	13948
2026-01-01 08:20:06.26	108.52	6.11	-42.4	-54.7	3.8	1.49e+00	0	53	104	0	56	14807
2026-01-01 08:20:07.27	108.43	6.17	-41.9	-53.3	3.9	1.49e+00	0	53	104	0	55	13338
2026-01-01 08:20:08.28	108.35	6.24	-42.4	-54.6	3.8	1.49e+00	0	53	104	0	55	15535
2026-01-01 08:20:09.29	108.26	6.30	-42.8	-54.7	3.8	1.49e+00	0	53	104	0	56	14728
2026-01-01 08:20:10.30	108.17	6.37	-42.6	-54.7	3.8	1.49e+00	0	53	104	0	56	14845
2026-01-01 08:20:11.32	108.08	6.43	-42.6	-54.8	3.9	1.49e+00	0	53	104	0	56	14967
2026-01-01 08:20:12.33	107.99	6.49	-41.8	-54.1	3.8	1.49e+00	0	53	104	0	53	16378
2026-01-01 08:20:13.34	107.90	6.56	-42.6	-54.9	3.8	1.49e+00	0	53	104	0	56	15094
2026-01-01 08:20:14.35	107.81	6.62	-42.9	-54.5	3.8	1.49e+00	0	53	104	0	56	14459
2026-01-01 08:20:15.36	107.72	6.69	-41.7	-54.5	3.9	1.49e+00	0	53	104	0	56	14432
2026-01-01 08:20:16.37	107.63	6.75	-42.5	-54.3	3.8	1.49e+00	0	53	104	0	55	15042
2026-01-01 08:20:17.38	107.54	6.81	-42.6	-54.6	3.8	1.49e+00	0	53	104	0	55	15541
2026-01-01 08:20:18.39	107.45	6.88	-39.7	-53.0	3.9	1.49e+00	0	53	104	0	53	14537
2026-01-01 08:20:19.40	107.36	6.94	-42.9	-54.4	3.9	1.49e+00	0	53	104	0	56	14217
2026-01-01 08:20:20.41	107.27	7.01	-42.3	-54.6	3.8	1.49e+00	0	53	104	0	56	14556
2026-01-01 08:20:21.42	107.17	7.07	-42.3	-54.1	4.0	1.49e+00	0	53	104	0	55	14581
2026-01-01 08:20:22.44	107.08	7.14	-42.7	-54.4	3.8	1.49e+00	0	53	104	0	55	15074
2026-01-01 08:20:23.45	106.99	7.20	-42.5	-53.9	3.9	1.49e+00	0	53	104	0	56	13428
2026-01-01 08:20:24.46	106.89	7.27	-42.3	-52.6	3.9	1.49e+00	0	53	104	0	55	12348
2026-01-01 08:20:25.47	106.80	7.33	-42.2	-52.2	3.9	1.49e+00	0	53	104	0	55	11699
2026-01-01 08:20:26.48	106.70	7.40	-41.5	-49.7	4.6	1.45e+00	0	53	104	0	54	9311
2026-01-01 08:20:27.49	106.61	7.46	-41.3	-47.3	5.7	1.23e+00	11	54	104	0	53	7530
2026-01-01 08:20:28.50	106.51	7.53	-40.7	-45.6	7.7	1.79e-01	2	54	0	2097152	52	6516
2026-01-01 08:20:29.51	106.42	7.59	-40.0	-43.5	9.8	7.07e-02	0	53	0	5242880	50	5783
2026-01-01 08:20:30.53	106.32	7.66	-38.4	-41.8	10.8	2.51e-02	0	54	0	8388608	48	5301
2026-01-01 08:20:31.53	106.22	7.73	-37.9	-40.6	12.2	2.55e-02	0	54	0	11534336	46	5210
2026-01-01 08:20:32.55	106.13	7.79	-37.5	-39.7	13.4	1.12e-02	0	54	0	14680064	45	4967
2026-01-01 08:20:33.56	106.03	7.86	-36.6	-39.1	14.1	3.43e-03	0	54	0	17825792	44	4919
2026-01-01 08:20:34.57	105.93	7.92	-36.9	-38.9	14.4	5.74e-03	0	54	0	20971520	44	4783
2026-01-01 08:20:35.58	105.83	7.99	-36.6	-38.6	13.9	2.58e-03	0	54	0	24117248	43	4898
2026-01-01 08:20:36.59	105.73	8.06	-36.6	-40.2	12.4	4.78e-03	0	54	0	27262976	45	5264
2026-01-01 08:20:37.60	105.63	8.12	-40.6	-44.5	9.1	5.24e-02	0	54	0	30408704	52	5788
2026-01-01 08:20:38.61	105.53	8.19	-37.0	-39.6	12.2	2.11e-02	0	54	0	33554432	45	4912
2026-01-01 08:20:39.62	105.43	8.25	-38.4	-42.1	8.6	2.70e-01	4	54	0	35651584	47	5841
2026-01-01 08:20:40.63	105.33	8.32	-37.2	-40.3	11.6	4.63e-02	0	54	0	38797312	45	5335
2026-01-01 08:20:41.64	105.23	8.39	-38.3	-41.1	11.3	5.81e-02	0	54	0	41943040	47	5181
2026-01-01 08:20:42.65	105.13	8.45	-37.6	-40.0	12.3	1.78e-02	0	54	0	45088768	45	5105
2026-01-01 08:20:43.66	105.02	8.52	-37.7	-40.4	11.1	2.05e-02	1	54	0	48234496	46	5092
2026-01-01 08:20:44.66	104.92	8.59	-37.7	-40.1	11.4	2.97e-02	0	54	0	51380224	45	5207
2026-01-01 08:20:45.68	104.82	8.65	-36.9	-39.6	11.8	2.57e-02	0	54	0	54525952	45	4903
2026-01-01 08:20:46.69	104.71	8.72	-37.1	-39.4	12.8	2.58e-02	0	54	0	57671680	45	4793
2026-01-01 08:20:47.70	104.61	8.79	-36.5	-39.0	12.0	3.13e-02	0	54	0	60817408	44	4835
2026-01-01 08:20:48.71	104.50	8.86	-36.5	-38.7	11.9	4.22e-02	0	54	0	63963136	43	4933
2026-01-01 08:20:49.72	104.40	8.92	-36.5	-38.9	12.3	4.05e-02	0	54	0	67108864	44	4781
2026-01-01 08:20:50.73	104.29	8.99	-37.2	-38.8	10.4	2.12e-02	0	54	0	70254592	42	5316
2026-01-01 08:20:51.74	104.19	9.06	-35.5	-38.5	13.0	2.21e-02	0	54	0	73400320	43	4856
2026-01-01 08:20:52.75	104.08	9.13	-35.3	-38.7	13.0	2.15e-02	0	54	0	76546048	43	4950
2026-01-01 08:20:53.76	103.97	9.19	-35.8	-38.6	12.3	4.20e-02	0	54	0	79691776	43	4887
2026-01-01 08:20:54.77	103.86	9.26	-36.5	-39.0	12.3	2.81e-02	0	54	0	82837504	44	4866
2026-01-01 08:20:55.78	103.76	9.33	-36.7	-39.0	11.9	3.05e-02	0	54	0	85983232	43	5123
2026-01-01 08:20:56.79	103.65	9.40	-36.2	-38.6	11.6	3.40e-02	0	54	0	89128960	40	5812
2026-01-01 08:20:57.80	103.54	9.46	-36.2	-38.8	11.9	2.05e-02	0	54	0	92274688	43	5000
2026-01-01 08:20:58.81	103.43	9.53	-34.7	-38.8	11.2	2.59e-02	0	54	0	95420416	40	5944
2026-01-01 08:20:59.82	103.32	9.60	-36.2	-38.6	12.1	7.28e-02	0	55	0	98566144	43	4893
2026-01-01 08:21:00.83	103.21	9.67	-35.2	-38.5	12.9	2.43e-02	0	55	0	101711872	43	4833
2026-01-01 08:21:01.84	103.09	9.74	-35.1	-38.4	12.4	4.27e-02	0	55	0	104857600	42	5087
2026-01-01 08:21:02.85	102.98	9.81	-35.4	-38.5	11.1	6.30e-02	0	54	0	106954752	43	4830
2026-01-01 08:21:03.87	102.87	9.87	-34.5	-38.5	9.9	5.21e-02	0	55	0	110100480	41	5407
2026-01-01 08:21:04.88	102.75	9.94	-34.7	-38.3	11.1	5.50e-02	0	54	0	114294784	42	4989
2026-01-01 08:21:05.89	102.64	10.01	-35.2	-38.3	11.0	8.18e-02	0	55	0	117440512	42	5014
2026-01-01 08:21:06.90	102.53	10.08	-34.9	-38.1	10.1	5.24e-01	4	55	0	119537664	41	5215
2026-01-01 08:21:07.91	102.41	10.15	-34.3	-38.0	10.4	1.82e-01	0	55	0	120586240	40	5421
2026-01-01 08:21:08.92	102.30	10.22	-34.3	-38.2	10.2	1.26e-01	4	55	0	122683392	40	5592
2026-01-01 08:21:09.93	102.18	10.29	-34.5	-37.9	10.2	1.91e-01	3	55	0	125829120	41	5064
2026-01-01 08:21:10.94	102.06	10.36	-30.7	-36.3	5.7	3.97e-01	4	55	0	126877696	34	6282
2026-01-01 08:21:11.95	101.95	10.43	-31.5	-39.1	4.7	3.70e-01	0	55	104	127926272	39	6521
2026-01-01 08:21:12.96	101.83	10.49	-30.9	-38.2	8.8	3.54e-01	13	55	0	127926272	38	6223
2026-01-01 08:21:13.97	101.71	10.56	-34.7	-37.9	9.5	3.09e-01	16	55	0	130023424	40	5352
2026-01-01 08:21:14.98	101.59	10.63	-33.4	-37.1	8.5	2.57e-01	17	55	0	133169152	37	5794
2026-01-01 08:21:15.99	101.47	10.70	-34.0	-37.2	9.6	2.07e-01	8	55	0	135266304	38	5575
2026-01-01 08:21:17.00	101.35	10.77	-31.1	-37.5	7.9	3.70e-01	11	55	0	137363456	36	6465
2026-01-01 08:21:18.01	101.23	10.84	-29.2	-37.3	6.1	1.39e+00	9	55	104	138412032	35	6664
2026-01-01 08:21:19.02	101.11	10.91	-34.3	-40.0	6.9	5.32e-01	3	55	0	138412032	38	7710
2026-01-01 08:21:20.03	100.99	10.98	-33.2	-41.8	4.7	1.44e+00	0	55	104	138412032	40	8434
2026-01-01 08:21:21.04	100.87	11.05	-33.2	-41.1	4.8	1.26e+00	0	55	104	138412032	40	7734
2026-01-01 08:21:22.05	100.74	11.12	-33.7	-39.6	4.8	1.44e+00	0	55	104	138412032	39	6942
2026-01-01 08:21:23.06	100.62	11.19	-33.0	-40.8	4.7	1.37e+00	0	55	104	138412032	38	8445
2026-01-01 08:21:24.07	100.50	11.26	-33.3	-40.6	4.6	1.44e+00	0	55	104	138412032	39	7798
2026-01-01 08:21:25.08	100.37	11.33	-34.4	-41.5	6.8	1.01e+00	0	55	0	138412032	40	8089
2026-01-01 08:21:26.09	100.25	11.40	-32.7	-39.2	7.6	8.91e-01	0	55	0	138412032	38	6968
2026-01-01 08:21:27.10	100.12	11.47	-28.4	-35.8	6.5	3.92e-01	25	55	0	138412032	30	7520
2026-01-01 08:21:28.11	99.99	11.54	-32.1	-36.4	9.3	1.24e+00	10	55	104	139460608	33	6747
2026-01-01 08:21:29.12	99.87	11.61	-32.7	-38.8	8.4	4.08e-01	15	55	0	140509184	40	5931
2026-01-01 08:21:30.13	99.74	11.68	-34.2	-40.0	8.3	7.80e-01	0	55	0	140509184	40	6809
2026-01-01 08:21:31.14	99.61	11.75	-29.5	-40.0	4.8	1.19e+00	0	55	104	140509184	40	6806
2026-01-01 08:21:32.15	99.48	11.82	-29.6	-38.8	8.5	1.12e+00	4	55	0	140509184	40	5945
2026-01-01 08:21:33.17	99.35	11.89	-34.2	-39.2	9.1	5.26e-01	5	55	0	140509184	40	6210
2026-01-01 08:21:34.18	99.22	11.96	-34.8	-39.6	8.3	4.20e-01	7	55	0	141557760	42	5813
2026-01-01 08:21:35.18	99.09	12.03	-34.2	-38.3	9.6	3.59e-01	7	55	0	142606336	40	5654
2026-01-01 08:21:36.19	98.96	12.11	-34.5	-38.0	5.0	9.69e-01	0	55	104	144703488	40	5426
2026-01-01 08:21:37.20	98.83	12.18	-33.9	-36.9	11.7	1.36e-01	0	56	0	145752064	40	4803
2026-01-01 08:21:38.21	98.70	12.25	-35.9	-37.8	11.7	7.41e-02	0	55	0	148897792	42	4753
2026-01-01 08:21:39.22	98.56	12.32	-35.3	-38.2	11.0	6.21e-02	0	55	0	152043520	42	4939
2026-01-01 08:21:40.23	98.43	12.39	-35.4	-37.9	12.8	5.62e-02	0	56	0	155189248	42	4762
2026-01-01 08:21:41.24	98.29	12.46	-35.2	-38.2	12.3	3.28e-02	0	55	0	158334976	42	4934
2026-01-01 08:21:42.25	98.16	12.53	-34.9	-38.0	12.7	3.68e-02	0	55	0	161480704	42	4866
2026-01-01 08:21:43.26	98.02	12.60	-36.2	-38.1	12.8	3.03e-02	0	56	0	164626432	42	4907
2026-01-01 08:21:44.27	97.88	12.67	-35.8	-38.1	12.6	8.34e-02	0	56	0	167772160	42	4903
2026-01-01 08:21:45.28	97.75	12.74	-34.5	-38.0	12.2	8.24e-02	0	56	0	170917888	41	5142
2026-01-01 08:21:46.29	97.61	12.82	-33.7	-37.8	10.0	2.59e-02	0	56	0	174063616	41	5036
2026-01-01 08:21:47.30	97.47	12.89	-36.2	-38.0	15.4	1.71e-02	0	56	0	177209344	43	4548
2026-01-01 08:21:48.31	97.33	12.96	-36.1	-37.8	16.0	1.36e-03	0	55	0	180355072	43	4449
2026-01-01 08:21:49.31	97.19	13.03	-36.1	-37.8	16.3	6.29e-04	0	56	0	183500800	42	4706
2026-01-01 08:21:50.32	97.05	13.10	-36.0	-37.7	16.1	8.67e-04	0	56	0	186646528	43	4433
2026-01-01 08:21:51.33	96.91	13.17	-35.9	-37.8	16.4	1.46e-04	0	56	0	189792256	43	4468
2026-01-01 08:21:52.34	96.77	13.24	-36.3	-37.8	16.7	2.25e-04	0	56	0	192937984	43	4481
2026-01-01 08:21:53.36	96.62	13.32	-36.3	-37.8	16.5	7.78e-05	0	56	0	196083712	43	4493
2026-01-01 08:21:54.37	96.48	13.39	-36.4	-37.9	16.8	2.13e-05	0	56	0	199229440	43	4533
2026-01-01 08:21:55.38	96.34	13.46	-36.4	-37.9	16.8	0.00e+00	0	56	0	202375168	43	4532
2026-01-01 08:21:56.39	96.19	13.53	-36.3	-37.8	17.0	0.00e+00	0	56	0	205520896	43	4459
2026-01-01 08:21:57.40	96.05	13.60	-36.2	-37.7	17.0	0.00e+00	0	56	0	208666624	43	4431
2026-01-01 08:21:58.41	95.90	13.67	-36.2	-37.7	17.0	0.00e+00	0	56	0	211812352	43	4438
2026-01-01 08:21:59.42	95.75	13.75	-36.2	-37.7	17.1	0.00e+00	0	56	0	214958080	43	4428
2026-01-01 08:22:00.43	95.60	13.82	-36.2	-37.7	17.0	0.00e+00	0	56	0	218103808	43	4428
2026-01-01 08:22:01.44	95.45	13.89	-36.2	-37.6	17.1	0.00e+00	0	56	0	221249536	43	4379
2026-01-01 08:22:02.46	95.30	13.96	-36.3	-37.8	17.0	0.00e+00	0	56	0	224395264	43	4465
2026-01-01 08:22:03.47	95.15	14.03	-36.3	-37.8	16.9	0.00e+00	0	56	0	227540992	43	4490
2026-01-01 08:22:04.48	95.00	14.10	-36.3	-37.8	17.0	0.00e+00	0	56	0	231735296	43	4449
2026-01-01 08:22:05.49	94.85	14.18	-36.3	-37.8	16.9	0.00e+00	0	56	0	234881024	43	4493
2026-01-01 08:22:06.50	94.70	14.25	-36.4	-38.0	16.8	0.00e+00	0	56	0	238026752	43	4549
2026-01-01 08:22:07.51	94.55	14.32	-36.5	-38.0	16.7	0.00e+00	0	56	0	240123904	43	4597
2026-01-01 08:22:08.52	94.39	14.39	-36.4	-38.0	16.8	0.00e+00	0	56	0	243269632	43	4577
2026-01-01 08:22:09.53	94.24	14.46	-36.5	-38.1	16.6	0.00e+00	0	56	0	247463936	43	4638
2026-01-01 08:22:10.54	94.08	14.54	-36.5	-38.1	16.7	0.00e+00	0	56	0	250609664	43	4633
2026-01-01 08:22:11.55	93.93	14.61	-36.4	-37.9	16.8	0.00e+00	0	56	0	253755392	43	4539
2026-01-01 08:22:12.56	93.77	14.68	-36.4	-37.9	16.8	0.00e+00	0	56	0	256901120	43	4540
2026-01-01 08:22:13.57	93.61	14.75	-36.4	-37.9	16.9	0.00e+00	0	56	0	260046848	43	4525
2026-01-01 08:22:14.58	93.45	14.82	-36.4	-38.0	16.8	0.00e+00	0	56	0	263192576	43	4567
2026-01-01 08:22:15.60	93.29	14.90	-36.5	-38.1	16.7	0.00e+00	0	56	0	266338304	43	4604
2026-01-01 08:22:16.61	93.13	14.97	-36.6	-38.1	16.6	0.00e+00	0	56	0	269484032	43	4650
2026-01-01 08:22:17.62	92.97	15.04	-36.7	-38.3	16.5	0.00e+00	0	56	0	272629760	43	4708
2026-01-01 08:22:18.63	92.81	15.11	-36.7	-38.3	16.5	0.00e+00	0	56	0	275775488	43	4743
2026-01-01 08:22:19.64	92.65	15.18	-36.9	-38.5	16.4	0.00e+00	0	56	0	278921216	44	4597
2026-01-01 08:22:20.65	92.49	15.25	-36.9	-38.5	16.4	0.00e+00	0	56	0	282066944	44	4590
2026-01-01 08:22:21.66	92.32	15.33	-36.9	-38.5	16.5	0.00e+00	0	56	0	285212672	44	4579
2026-01-01 08:22:22.67	92.16	15.40	-36.9	-38.5	16.5	0.00e+00	0	56	0	288358400	44	4553
2026-01-01 08:22:23.68	91.99	15.47	-36.8	-38.4	16.6	0.00e+00	0	56	0	291504128	44	4504
2026-01-01 08:22:24.68	91.83	15.54	-36.6	-38.2	16.8	0.00e+00	0	56	0	294649856	44	4393
2026-01-01 08:22:25.69	91.66	15.61	-36.5	-38.0	16.9	0.00e+00	0	56	0	297795584	44	4322
2026-01-01 08:22:26.70	91.49	15.68	-36.6	-38.1	16.9	0.00e+00	0	56	0	300941312	44	4364
2026-01-01 08:22:27.71	91.32	15.75	-36.6	-38.2	16.8	0.00e+00	0	56	0	304087040	44	4422
2026-01-01 08:22:28.72	91.15	15.83	-36.7	-38.2	16.7	0.00e+00	0	56	0	307232768	44	4436
2026-01-01 08:22:29.73	90.98	15.90	-36.6	-38.2	16.7	0.00e+00	0	56	0	310378496	44	4417
2026-01-01 08:22:30.74	90.81	15.97	-36.7	-38.3	16.7	0.00e+00	0	56	0	313524224	44	4445
2026-01-01 08:22:31.75	90.64	16.04	-36.6	-38.2	16.7	0.00e+00	0	56	0	316669952	44	4414
2026-01-01 08:22:32.76	90.47	16.11	-36.7	-38.3	16.6	0.00e+00	0	56	0	319815680	44	4452
2026-01-01 08:22:33.77	90.29	16.18	-36.5	-38.0	16.8	0.00e+00	0	56	0	322961408	44	4333
2026-01-01 08:22:34.78	90.12	16.25	-36.4	-37.9	16.9	0.00e+00	0	56	0	326107136	44	4266
2026-01-01 08:22:35.79	89.94	16.32	-36.3	-37.8	17.0	0.00e+00	0	56	0	329252864	44	4239
2026-01-01 08:22:36.80	89.77	16.40	-36.4	-38.0	16.7	0.00e+00	0	56	0	332398592	44	4327
2026-01-01 08:22:37.81	89.59	16.47	-36.6	-38.2	16.5	0.00e+00	0	56	0	335544320	44	4416
2026-01-01 08:22:38.82	89.41	16.54	-36.7	-38.3	16.3	0.00e+00	0	56	0	338690048	44	4467
2026-01-01 08:22:39.83	89.23	16.61	-36.8	-38.5	16.1	0.00e+00	0	56	0	341835776	44	4561
2026-01-01 08:22:40.84	89.06	16.68	-36.9	-38.6	15.8	0.00e+00	0	56	0	344981504	44	4647
2026-01-01 08:22:41.85	88.88	16.75	-36.8	-38.6	15.8	0.00e+00	0	56	0	348127232	44	4615
2026-01-01 08:22:42.86	88.69	16.82	-36.8	-38.6	15.6	0.00e+00	0	56	0	351272960	44	4641
2026-01-01 08:22:43.87	88.51	16.89	-36.9	-38.7	15.5	0.00e+00	0	57	0	354418688	44	4682
2026-01-01 08:22:44.88	88.33	16.96	-36.9	-38.8	15.3	0.00e+00	0	56	0	357564416	44	4728
2026-01-01 08:22:45.89	88.15	17.03	-37.1	-39.0	15.0	0.00e+00	0	56	0	360710144	44	4852
2026-01-01 08:22:46.90	87.96	17.10	-37.2	-39.2	14.8	0.00e+00	0	56	0	363855872	44	4931
2026-01-01 08:22:47.91	87.77	17.17	-37.2	-39.3	14.6	7.00e-07	0	56	0	367001600	45	4734
2026-01-01 08:22:48.92	87.59	17.24	-37.3	-39.5	14.3	7.00e-07	0	56	0	370147328	45	4827
2026-01-01 08:22:49.93	87.40	17.31	-37.5	-39.7	13.9	2.20e-06	0	56	0	373293056	45	4983
2026-01-01 08:22:50.94	87.21	17.38	-37.5	-39.9	13.7	5.30e-06	0	56	0	376438784	45	5044
2026-01-01 08:22:51.95	87.02	17.45	-37.6	-39.9	13.5	7.60e-06	0	56	0	379584512	45	5065
2026-01-01 08:22:52.96	86.83	17.52	-37.6	-40.0	13.4	1.83e-05	0	57	0	382730240	45	5113
2026-01-01 08:22:53.97	86.64	17.59	-37.6	-40.0	13.3	7.60e-06	0	56	0	385875968	45	5115
2026-01-01 08:22:54.98	86.45	17.66	-37.6	-40.0	13.3	1.90e-05	0	57	0	389021696	45	5140
2026-01-01 08:22:55.99	86.26	17.73	-37.6	-40.0	13.3	1.60e-05	0	56	0	392167424	45	5156
2026-01-01 08:22:57.00	86.07	17.80	-37.6	-40.1	13.3	1.98e-05	0	56	0	395313152	45	5171
2026-01-01 08:22:58.01	85.87	17.86	-37.7	-40.1	13.4	1.67e-05	0	56	0	398458880	45	5172
2026-01-01 08:22:59.02	85.68	17.93	-37.6	-39.9	13.6	1.14e-05	0	56	0	401604608	45	5072
2026-01-01 08:23:00.03	85.48	18.00	-37.5	-39.8	13.8	4.50e-06	0	56	0	404750336	45	5019
2026-01-01 08:23:01.04	85.28	18.07	-37.5	-39.7	14.0	1.50e-06	0	57	0	407896064	45	4964
2026-01-01 08:23:02.05	85.09	18.14	-37.4	-39.6	14.3	7.00e-07	0	56	0	411041792	45	4877
2026-01-01 08:23:03.07	84.88	18.21	-37.3	-39.3	14.6	0.00e+00	0	56	0	414187520	45	4755
2026-01-01 08:23:04.07	84.69	18.27	-37.2	-39.2	14.8	0.00e+00	0	56	0	417333248	45	4657
2026-01-01 08:23:05.08	84.49	18.34	-37.1	-39.0	15.1	7.00e-07	0	57	0	420478976	45	4572
2026-01-01 08:23:06.09	84.29	18.41	-37.1	-39.0	15.0	0.00e+00	0	57	0	423624704	45	4596
2026-01-01 08:23:07.11	84.08	18.48	-37.0	-38.9	15.2	0.00e+00	0	56	0	426770432	45	4542
2026-01-01 08:23:08.11	83.88	18.54	-37.0	-38.8	15.4	0.00e+00	0	57	0	429916160	45	4470
2026-01-01 08:23:09.13	83.67	18.61	-36.9	-38.7	15.7	0.00e+00	0	57	0	433061888	45	4419
2026-01-01 08:23:10.13	83.47	18.68	-36.9	-38.7	15.8	0.00e+00	0	57	0	436207616	45	4403
2026-01-01 08:23:11.15	83.26	18.74	-37.0	-38.7	15.8	0.00e+00	0	56	0	439353344	45	4434
2026-01-01 08:23:12.15	83.06	18.81	-37.0	-38.8	15.8	0.00e+00	0	57	0	442499072	45	4460
2026-01-01 08:23:13.17	82.85	18.88	-37.0	-38.8	15.8	0.00e+00	0	57	0	445644800	45	4462
2026-01-01 08:23:14.18	82.64	18.94	-37.0	-38.8	15.6	0.00e+00	0	56	0	448790528	45	4491
2026-01-01 08:23:15.19	82.43	19.01	-37.0	-38.9	15.5	0.00e+00	0	57	0	451936256	45	4495
2026-01-01 08:23:16.20	82.22	19.07	-37.0	-38.7	15.6	0.00e+00	0	57	0	455081984	45	4441
2026-01-01 08:23:17.21	82.01	19.14	-36.9	-38.7	15.5	0.00e+00	0	57	0	458227712	45	4421
2026-01-01 08:23:18.22	81.80	19.20	-36.9	-38.7	15.6	0.00e+00	0	57	0	461373440	45	4404
2026-01-01 08:23:19.23	81.58	19.27	-36.9	-38.8	15.4	0.00e+00	0	57	0	464519168	45	4461
2026-01-01 08:23:20.24	81.37	19.33	-37.0	-38.8	15.3	0.00e+00	0	57	0	467664896	45	4491
2026-01-01 08:23:21.25	81.15	19.40	-37.0	-38.9	15.2	0.00e+00	0	57	0	470810624	45	4505
2026-01-01 08:23:22.26	80.94	19.46	-36.9	-38.8	15.1	0.00e+00	0	57	0	473956352	45	4493
2026-01-01 08:23:23.27	80.72	19.52	-36.9	-38.9	15.1	0.00e+00	0	57	0	477102080	45	4499
2026-01-01 08:23:24.28	80.50	19.59	-36.9	-38.8	15.1	0.00e+00	0	57	0	480247808	45	4465
2026-01-01 08:23:25.29	80.28	19.65	-36.8	-38.7	15.1	7.00e-07	0	57	0	483393536	45	4441
2026-01-01 08:23:26.30	80.06	19.71	-36.8	-38.8	15.1	0.00e+00	0	57	0	486539264	45	4448
2026-01-01 08:23:27.31	79.84	19.77	-36.7	-38.6	15.2	0.00e+00	0	57	0	489684992	45	4381
2026-01-01 08:23:28.32	79.62	19.84	-36.8	-38.6	15.2	0.00e+00	0	57	0	492830720	45	4383
2026-01-01 08:23:29.33	79.40	19.90	-36.8	-38.7	15.2	0.00e+00	0	57	0	495976448	45	4427
2026-01-01 08:23:30.34	79.18	19.96	-37.5	-39.5	14.5	1.28e-02	0	57	0	499122176	46	4584
2026-01-01 08:23:31.35	78.95	20.02	-36.9	-38.8	15.2	0.00e+00	0	57	0	502267904	45	4468
2026-01-01 08:23:32.36	78.73	20.08	-36.9	-38.8	15.2	0.00e+00	0	57	0	505413632	45	4473
2026-01-01 08:23:33.37	78.50	20.14	-36.9	-38.8	15.2	0.00e+00	0	57	0	508559360	45	4487
2026-01-01 08:23:34.38	78.28	20.20	-36.8	-38.7	15.5	0.00e+00	0	57	0	511705088	45	4402
2026-01-01 08:23:35.39	78.05	20.26	-36.8	-38.6	15.7	0.00e+00	0	57	0	514850816	45	4368
2026-01-01 08:23:36.40	77.82	20.32	-36.9	-38.6	15.8	0.00e+00	0	57	0	517996544	45	4383
2026-01-01 08:23:37.41	77.59	20.38	-36.7	-38.4	16.0	0.00e+00	0	57	0	521142272	45	4264
2026-01-01 08:23:38.42	77.36	20.44	-36.6	-38.3	16.1	0.00e+00	0	57	0	524288000	45	4229
2026-01-01 08:23:39.43	77.13	20.50	-36.6	-38.3	16.1	0.00e+00	0	57	0	528482304	45	4206
2026-01-01 08:23:40.44	76.90	20.56	-36.6	-38.3	16.2	0.00e+00	0	57	0	530579456	45	4211
2026-01-01 08:23:41.45	76.66	20.62	-36.7	-38.4	16.1	0.00e+00	0	57	0	533725184	45	4251
2026-01-01 08:23:42.47	76.43	20.68	-36.8	-38.5	16.0	0.00e+00	0	57	0	536870912	45	4315
2026-01-01 08:23:43.48	76.19	20.73	-36.7	-38.4	16.1	0.00e+00	0	57	0	541065216	45	4255
2026-01-01 08:23:44.49	75.96	20.79	-36.5	-38.2	16.3	0.00e+00	0	57	0	544210944	45	4169
2026-01-01 08:23:45.50	75.72	20.85	-36.5	-38.1	16.4	0.00e+00	0	57	0	547356672	44	4369
2026-01-01 08:23:46.51	75.48	20.90	-36.5	-38.1	16.5	0.00e+00	0	57	0	550502400	44	4382
2026-01-01 08:23:47.52	75.24	20.96	-36.4	-38.0	16.6	0.00e+00	0	57	0	553648128	44	4298
2026-01-01 08:23:48.52	75.01	21.01	-36.3	-37.9	16.7	0.00e+00	0	57	0	555745280	44	4268
2026-01-01 08:23:49.53	74.77	21.07	-36.4	-38.0	16.6	0.00e+00	0	57	0	559939584	44	4326
2026-01-01 08:23:50.54	74.53	21.12	-36.4	-38.0	16.6	0.00e+00	0	57	0	563085312	44	4310
2026-01-01 08:23:51.56	74.28	21.18	-36.4	-38.1	16.5	0.00e+00	0	57	0	566231040	44	4344
2026-01-01 08:23:52.57	74.04	21.23	-36.2	-37.8	16.8	0.00e+00	0	57	0	569376768	44	4203
2026-01-01 08:23:53.58	73.80	21.28	-36.2	-37.8	16.9	0.00e+00	0	57	0	572522496	44	4199
2026-01-01 08:23:54.59	73.55	21.34	-36.2	-37.7	16.9	0.00e+00	0	57	0	575668224	44	4189
2026-01-01 08:23:55.60	73.31	21.39	-36.1	-37.7	17.0	0.00e+00	0	57	0	578813952	44	4166
2026-01-01 08:23:56.61	73.06	21.44	-36.0	-37.5	17.2	0.00e+00	0	57	0	581959680	44	4091
2026-01-01 08:23:57.62	72.82	21.49	-35.7	-37.2	17.3	0.00e+00	0	57	0	585105408	43	4166
2026-01-01 08:23:58.63	72.57	21.54	-35.6	-37.1	17.5	0.00e+00	0	57	0	588251136	43	4113
2026-01-01 08:23:59.64	72.32	21.59	-35.6	-37.1	17.5	0.00e+00	0	57	0	591396864	43	4103
2026-01-01 08:24:00.65	72.07	21.64	-35.6	-37.0	17.6	0.00e+00	0	57	0	594542592	43	4066
2026-01-01 08:24:01.66	71.82	21.69	-35.6	-37.0	17.7	0.00e+00	0	57	0	597688320	43	4077
2026-01-01 08:24:02.67	71.57	21.74	-35.5	-36.9	17.8	0.00e+00	0	57	0	600834048	43	4024
2026-01-01 08:24:03.68	71.32	21.79	-35.6	-37.0	17.8	0.00e+00	0	57	0	603979776	43	4057
2026-01-01 08:24:04.69	71.07	21.84	-35.6	-37.0	17.8	0.00e+00	0	57	0	607125504	43	4067
2026-01-01 08:24:05.70	70.81	21.88	-35.7	-37.1	17.8	0.00e+00	0	57	0	610271232	43	4105
2026-01-01 08:24:06.71	70.56	21.93	-35.7	-37.1	17.8	0.00e+00	0	57	0	613416960	43	4127
2026-01-01 08:24:07.72	70.31	21.98	-35.7	-37.1	17.8	0.00e+00	0	57	0	616562688	43	4122
2026-01-01 08:24:08.73	70.05	22.02	-35.7	-37.0	17.9	0.00e+00	0	57	0	619708416	43	4094
2026-01-01 08:24:09.74	69.79	22.07	-35.6	-37.0	18.0	0.00e+00	0	57	0	622854144	43	4071
2026-01-01 08:24:10.75	69.54	22.11	-35.7	-37.1	17.9	0.00e+00	0	57	0	625999872	43	4109
2026-01-01 08:24:11.76	69.28	22.16	-35.7	-37.0	18.0	0.00e+00	0	57	0	629145600	43	4098
2026-01-01 08:24:12.77	69.02	22.20	-35.6	-37.0	18.1	0.00e+00	0	57	0	632291328	43	4067
2026-01-01 08:24:13.78	68.76	22.25	-35.6	-37.0	18.1	0.00e+00	0	57	0	635437056	43	4065
2026-01-01 08:24:14.79	68.50	22.29	-35.6	-37.0	18.1	0.00e+00	0	57	0	638582784	43	4059
2026-01-01 08:24:15.80	68.24	22.33	-35.6	-36.9	18.2	0.00e+00	0	57	0	641728512	43	4031
2026-01-01 08:24:16.81	67.98	22.37	-35.5	-36.9	18.3	0.00e+00	0	57	0	644874240	43	4010
2026-01-01 08:24:17.82	67.72	22.41	-35.5	-36.9	18.3	0.00e+00	0	57	0	648019968	43	4021
2026-01-01 08:24:18.83	67.46	22.45	-35.6	-36.9	18.3	0.00e+00	0	57	0	651165696	43	4023
2026-01-01 08:24:19.84	67.19	22.49	-35.5	-36.9	18.3	0.00e+00	0	57	0	654311424	43	4011
2026-01-01 08:24:20.85	66.93	22.53	-35.5	-36.8	18.3	0.00e+00	0	57	0	657457152	43	3992
2026-01-01 08:24:21.86	66.67	22.57	-35.5	-36.8	18.4	0.00e+00	0	57	0	660602880	42	4210
2026-01-01 08:24:22.87	66.40	22.61	-35.4	-36.8	18.4	0.00e+00	0	57	0	663748608	42	4197
2026-01-01 08:24:23.88	66.14	22.65	-35.5	-36.8	18.4	0.00e+00	0	57	0	666894336	42	4218
2026-01-01 08:24:24.89	65.87	22.68	-35.5	-36.8	18.4	0.00e+00	0	57	0	670040064	42	4211
2026-01-01 08:24:25.90	65.60	22.72	-35.4	-36.7	18.4	0.00e+00	0	57	0	673185792	42	4192
2026-01-01 08:24:26.91	65.33	22.75	-35.3	-36.6	18.5	0.00e+00	0	57	0	676331520	42	4144
2026-01-01 08:24:27.92	65.07	22.79	-35.4	-36.7	18.5	0.00e+00	0	57	0	679477248	42	4169
2026-01-01 08:24:28.93	64.80	22.82	-35.4	-36.7	18.4	0.00e+00	0	57	0	682622976	42	4187
2026-01-01 08:24:29.94	64.53	22.86	-35.4	-36.7	18.4	0.00e+00	0	57	0	685768704	42	4190
2026-01-01 08:24:30.94	64.26	22.89	-35.5	-36.8	18.4	0.00e+00	0	57	0	688914432	42	4211
2026-01-01 08:24:31.95	63.99	22.92	-35.4	-36.8	18.4	0.00e+00	0	57	0	692060160	42	4197
2026-01-01 08:24:32.96	63.72	22.96	-35.5	-36.8	18.4	0.00e+00	0	57	0	695205888	42	4214
2026-01-01 08:24:33.97	63.45	22.99	-35.5	-36.8	18.4	0.00e+00	0	57	0	698351616	42	4216
2026-01-01 08:24:34.98	63.17	23.02	-35.5	-36.8	18.4	0.00e+00	0	57	0	701497344	42	4224
2026-01-01 08:24:35.99	62.90	23.05	-35.4	-36.7	18.4	0.00e+00	0	57	0	704643072	42	4186
2026-01-01 08:24:37.00	62.63	23.08	-35.4	-36.8	18.4	0.00e+00	0	57	0	707788800	42	4197
2026-01-01 08:24:38.01	62.35	23.10	-35.4	-36.7	18.5	0.00e+00	0	57	0	710934528	42	4164
2026-01-01 08:24:39.02	62.08	23.13	-35.3	-36.6	18.5	0.00e+00	0	57	0	714080256	42	4131
2026-01-01 08:24:40.03	61.81	23.16	-35.4	-36.7	18.5	0.00e+00	0	57	0	717225984	42	4152
2026-01-01 08:24:41.04	61.53	23.19	-35.4	-36.7	18.4	0.00e+00	0	57	0	720371712	42	4184
2026-01-01 08:24:42.05	61.25	23.21	-35.5	-36.8	18.4	0.00e+00	0	57	0	723517440	42	4209
2026-01-01 08:24:43.06	60.98	23.24	-35.6	-36.9	18.3	0.00e+00	0	57	0	726663168	42	4280
2026-01-01 08:24:44.07	60.70	23.26	-35.6	-36.9	18.3	0.00e+00	0	57	0	729808896	42	4290
2026-01-01 08:24:45.08	60.43	23.28	-35.7	-37.0	18.2	0.00e+00	0	57	0	732954624	42	4317
2026-01-01 08:24:46.10	60.15	23.31	-35.8	-37.1	18.1	0.00e+00	0	57	0	736100352	42	4367
2026-01-01 08:24:47.11	59.87	23.33	-35.7	-37.1	18.1	0.00e+00	0	57	0	739246080	42	4367
2026-01-01 08:24:48.12	59.59	23.35	-35.8	-37.1	18.1	0.00e+00	0	57	0	742391808	42	4380
2026-01-01 08:24:49.13	59.31	23.37	-35.7	-37.0	18.2	0.00e+00	0	57	0	745537536	42	4330
2026-01-01 08:24:50.14	59.03	23.39	-35.7	-37.0	18.2	0.00e+00	0	57	0	748683264	42	4335
2026-01-01 08:24:51.15	58.75	23.41	-35.7	-37.0	18.2	0.00e+00	0	57	0	751828992	42	4313
2026-01-01 08:24:52.16	58.47	23.43	-35.6	-37.0	18.3	0.00e+00	0	57	0	754974720	42	4295
2026-01-01 08:24:53.17	58.19	23.45	-35.6	-36.9	18.4	0.00e+00	0	57	0	758120448	42	4265
2026-01-01 08:24:54.18	57.91	23.47	-35.6	-36.9	18.4	0.00e+00	0	57	0	761266176	42	4268
2026-01-01 08:24:55.19	57.63	23.48	-35.6	-36.9	18.3	0.00e+00	0	57	0	764411904	42	4284
2026-01-01 08:24:56.20	57.35	23.50	-35.6	-36.9	18.4	0.00e+00	0	57	0	767557632	42	4262
2026-01-01 08:24:57.21	57.07	23.51	-35.5	-36.9	18.4	0.00e+00	0	57	0	770703360	42	4254
2026-01-01 08:24:58.22	56.79	23.53	-35.6	-36.9	18.4	0.00e+00	0	57	0	773849088	42	4265
2026-01-01 08:24:59.23	56.51	23.54	-35.5	-36.9	18.4	0.00e+00	0	57	0	776994816	42	4246
2026-01-01 08:25:00.24	56.23	23.55	-35.4	-36.8	18.5	0.00e+00	0	57	0	780140544	42	4197
2026-01-01 08:25:01.25	55.94	23.57	-35.4	-36.7	18.5	0.00e+00	0	57	0	783286272	42	4175
2026-01-01 08:25:02.26	55.66	23.58	-35.5	-36.8	18.4	0.00e+00	0	57	0	786432000	42	4218
2026-01-01 08:25:03.27	55.38	23.59	-35.6	-36.9	18.4	0.00e+00	0	57	0	789577728	42	4271
2026-01-01 08:25:04.28	55.10	23.60	-35.6	-37.0	18.3	0.00e+00	0	57	0	792723456	42	4292
2026-01-01 08:25:05.29	54.81	23.61	-35.7	-37.0	18.2	0.00e+00	0	57	0	795869184	42	4318
2026-01-01 08:25:06.30	54.53	23.62	-35.6	-36.9	18.3	0.00e+00	0	57	0	799014912	42	4291
2026-01-01 08:25:07.31	54.25	23.62	-35.6	-37.0	18.3	0.00e+00	0	57	0	802160640	42	4306
2026-01-01 08:25:08.32	53.96	23.63	-35.7	-37.1	18.2	0.00e+00	0	57	0	805306368	42	4349
2026-01-01 08:25:09.33	53.68	23.64	-35.8	-37.1	18.2	0.00e+00	0	57	0	808452096	42	4379
2026-01-01 08:25:10.34	53.40	23.64	-35.8	-37.2	18.1	0.00e+00	0	57	0	811597824	42	4404
2026-01-01 08:25:11.35	53.11	23.65	-35.9	-37.2	18.1	0.00e+00	0	57	0	814743552	42	4428
2026-01-01 08:25:12.36	52.83	23.65	-35.8	-37.2	18.1	0.00e+00	0	57	0	817889280	42	4401
2026-01-01 08:25:13.37	52.55	23.65	-35.7	-37.1	18.2	0.00e+00	0	57	0	821035008	42	4356
2026-01-01 08:25:14.38	52.26	23.66	-35.6	-36.9	18.3	0.00e+00	0	57	0	824180736	42	4288
2026-01-01 08:25:15.39	51.98	23.66	-35.6	-36.9	18.4	0.00e+00	0	57	0	827326464	42	4257
2026-01-01 08:25:16.40	51.70	23.66	-35.6	-36.9	18.4	0.00e+00	0	57	0	830472192	42	4255
2026-01-01 08:25:17.41	51.41	23.66	-35.6	-36.9	18.4	0.00e+00	0	57	0	833617920	42	4264
2026-01-01 08:25:18.42	51.13	23.66	-35.5	-36.8	18.5	0.00e+00	0	58	0	836763648	42	4213
2026-01-01 08:25:19.43	50.84	23.66	-35.5	-36.8	18.5	0.00e+00	0	57	0	840957952	42	4195
2026-01-01 08:25:20.44	50.56	23.65	-35.5	-36.8	18.5	0.00e+00	0	57	0	844103680	42	4229
2026-01-01 08:25:21.45	50.28	23.65	-35.5	-36.8	18.5	0.00e+00	0	57	0	847249408	42	4218
2026-01-01 08:25:22.46	49.99	23.65	-35.5	-36.8	18.5	0.00e+00	0	58	0	849346560	42	4210
2026-01-01 08:25:23.47	49.71	23.64	-35.5	-36.8	18.5	0.00e+00	0	58	0	852492288	42	4217
2026-01-01 08:25:24.48	49.43	23.64	-35.5	-36.8	18.5	0.00e+00	0	57	0	856686592	42	4224
2026-01-01 08:25:25.49	49.14	23.63	-35.5	-36.8	18.4	0.00e+00	0	57	0	859832320	42	4237
2026-01-01 08:25:26.50	48.86	23.63	-35.5	-36.8	18.5	0.00e+00	0	57	0	862978048	42	4199
2026-01-01 08:25:27.51	48.58	23.62	-35.4	-36.7	18.5	0.00e+00	0	57	0	866123776	42	4188
2026-01-01 08:25:28.52	48.30	23.61	-35.4	-36.7	18.5	0.00e+00	0	58	0	869269504	42	4180
2026-01-01 08:25:29.53	48.01	23.60	-35.4	-36.7	18.6	0.00e+00	0	57	0	872415232	42	4168
2026-01-01 08:25:30.54	47.73	23.59	-35.4	-36.7	18.6	0.00e+00	0	57	0	875560960	42	4156
2026-01-01 08:25:31.56	47.45	23.58	-35.4	-36.7	18.6	0.00e+00	0	57	0	878706688	42	4151
2026-01-01 08:25:32.57	47.16	23.57	-35.4	-36.7	18.5	0.00e+00	0	57	0	881852416	42	4166
2026-01-01 08:25:33.57	46.88	23.56	-35.4	-36.6	18.5	0.00e+00	0	57	0	884998144	42	4145
2026-01-01 08:25:34.58	46.60	23.54	-35.3	-36.6	18.6	0.00e+00	0	57	0	888143872	42	4118
2026-01-01 08:25:35.60	46.32	23.53	-35.3	-36.5	18.7	0.00e+00	0	57	0	891289600	42	4092
2026-01-01 08:25:36.61	46.04	23.52	-35.2	-36.5	18.8	0.00e+00	0	57	0	894435328	42	4059
2026-01-01 08:25:37.62	45.76	23.50	-35.3	-36.6	18.7	0.00e+00	0	57	0	897581056	42	4110
2026-01-01 08:25:38.63	45.48	23.49	-35.4	-36.6	18.6	0.00e+00	0	57	0	900726784	42	4145
2026-01-01 08:25:39.64	45.20	23.47	-35.3	-36.6	18.7	0.00e+00	0	57	0	903872512	42	4126
2026-01-01 08:25:40.65	44.92	23.45	-35.3	-36.6	18.6	0.00e+00	0	57	0	907018240	42	4133
2026-01-01 08:25:41.66	44.64	23.44	-35.3	-36.6	18.7	0.00e+00	0	57	0	910163968	42	4133
2026-01-01 08:25:42.67	44.36	23.42	-35.4	-36.7	18.5	0.00e+00	0	57	0	913309696	42	4164
2026-01-01 08:25:43.68	44.08	23.40	-35.4	-36.7	18.6	0.00e+00	0	57	0	916455424	42	4171
2026-01-01 08:25:44.69	43.80	23.38	-35.5	-36.8	18.5	0.00e+00	0	57	0	919601152	42	4215
2026-01-01 08:25:45.70	43.52	23.36	-35.5	-36.8	18.5	0.00e+00	0	58	0	922746880	42	4222
2026-01-01 08:25:46.71	43.24	23.34	-35.5	-36.8	18.5	0.00e+00	0	58	0	925892608	42	4229
2026-01-01 08:25:47.72	42.97	23.31	-35.5	-36.8	18.4	0.00e+00	0	58	0	929038336	42	4235
2026-01-01 08:25:48.73	42.69	23.29	-35.5	-36.8	18.5	0.00e+00	0	58	0	932184064	42	4224
2026-01-01 08:25:49.74	42.41	23.27	-35.5	-36.8	18.4	0.00e+00	0	58	0	935329792	42	4233
2026-01-01 08:25:50.75	42.14	23.24	-35.5	-36.8	18.4	0.00e+00	0	57	0	938475520	42	4238
2026-01-01 08:25:51.76	41.86	23.22	-35.5	-36.8	18.4	0.00e+00	0	58	0	941621248	42	4233
2026-01-01 08:25:52.77	41.58	23.19	-35.6	-36.9	18.4	0.00e+00	0	58	0	944766976	42	4253
2026-01-01 08:25:53.78	41.31	23.17	-35.6	-36.9	18.4	0.00e+00	0	58	0	947912704	42	4258
2026-01-01 08:25:54.79	41.04	23.14	-35.6	-36.9	18.4	0.00e+00	0	58	0	951058432	42	4268
2026-01-01 08:25:55.80	40.76	23.11	-35.5	-36.8	18.5	0.00e+00	0	57	0	954204160	42	4226
2026-01-01 08:25:56.81	40.49	23.08	-35.4	-36.7	18.6	0.00e+00	0	58	0	957349888	42	4179
2026-01-01 08:25:57.82	40.22	23.05	-35.3	-36.6	18.7	0.00e+00	0	57	0	960495616	42	4132
2026-01-01 08:25:58.83	39.94	23.02	-35.3	-36.6	18.7	0.00e+00	0	57	0	963641344	42	4107
2026-01-01 08:25:59.84	39.67	22.99	-35.4	-36.6	18.7	0.00e+00	0	58	0	966787072	42	4137
2026-01-01 08:26:00.85	39.40	22.96	-35.5	-36.7	18.6	0.00e+00	0	58	0	969932800	42	4193
2026-01-01 08:26:01.86	39.13	22.93	-35.6	-36.9	18.4	0.00e+00	0	58	0	973078528	42	4282
2026-01-01 08:26:02.87	38.86	22.90	-35.7	-37.1	18.3	0.00e+00	0	58	0	976224256	42	4343
2026-01-01 08:26:03.88	38.59	22.87	-35.8	-37.1	18.2	0.00e+00	0	58	0	979369984	42	4367
2026-01-01 08:26:04.89	38.32	22.83	-35.7	-37.0	18.3	0.00e+00	0	58	0	982515712	42	4319
2026-01-01 08:26:05.90	38.05	22.80	-35.6	-36.9	18.4	0.00e+00	0	57	0	985661440	42	4280
2026-01-01 08:26:06.91	37.78	22.76	-35.6	-37.0	18.4	0.00e+00	0	57	0	988807168	42	4293
2026-01-01 08:26:07.92	37.52	22.73	-35.7	-37.0	18.3	0.00e+00	0	58	0	991952896	42	4319
2026-01-01 08:26:08.93	37.25	22.69	-35.6	-37.0	18.3	0.00e+00	0	58	0	995098624	42	4295
2026-01-01 08:26:09.94	36.98	22.66	-35.6	-37.0	18.4	0.00e+00	0	58	0	998244352	42	4299
2026-01-01 08:26:10.95	36.72	22.62	-35.6	-36.9	18.4	0.00e+00	0	58	0	1001390080	42	4268
2026-01-01 08:26:11.96	36.45	22.58	-35.5	-36.9	18.4	0.00e+00	0	58	0	1004535808	42	4246
2026-01-01 08:26:12.97	36.19	22.54	-35.6	-36.9	18.4	0.00e+00	0	58	0	1007681536	42	4272
2026-01-01 08:26:13.98	35.93	22.50	-35.6	-37.0	18.3	0.00e+00	0	58	0	1010827264	42	4294
2026-01-01 08:26:15.00	35.66	22.46	-35.7	-37.0	18.3	0.00e+00	0	57	0	1013972992	42	4303
2026-01-01 08:26:16.01	35.40	22.42	-35.7	-37.0	18.3	0.00e+00	0	57	0	1017118720	42	4333
2026-01-01 08:26:17.02	35.14	22.38	-35.8	-37.1	18.2	0.00e+00	0	58	0	1020264448	42	4373
2026-01-01 08:26:18.03	34.88	22.34	-35.9	-37.3	18.0	0.00e+00	0	58	0	1023410176	42	4442
2026-01-01 08:26:19.04	34.62	22.30	-36.0	-37.3	18.0	0.00e+00	0	58	0	1026555904	42	4488
2026-01-01 08:26:20.05	34.36	22.26	-36.0	-37.4	17.9	0.00e+00	0	58	0	1029701632	42	4532
2026-01-01 08:26:21.06	34.10	22.21	-36.1	-37.5	17.8	0.00e+00	0	58	0	1032847360	42	4592
2026-01-01 08:26:22.07	33.84	22.17	-35.9	-37.3	18.0	0.00e+00	0	58	0	1035993088	42	4472
2026-01-01 08:26:23.08	33.59	22.13	-35.8	-37.1	18.2	0.00e+00	0	58	0	1039138816	42	4377
2026-01-01 08:26:24.09	33.33	22.08	-35.7	-37.0	18.2	0.00e+00	0	57	0	1042284544	42	4338
2026-01-01 08:26:25.10	33.07	22.04	-35.7	-37.0	18.2	0.00e+00	0	57	0	1045430272	42	4318
2026-01-01 08:26:26.11	32.82	21.99	-35.8	-37.1	18.1	0.00e+00	0	58	0	1048576000	42	4370
2026-01-01 08:26:27.12	32.57	21.94	-35.9	-37.3	18.0	0.00e+00	0	57	0	1051721728	42	4463
2026-01-01 08:26:28.13	32.31	21.90	-36.1	-37.5	17.8	0.00e+00	0	58	0	1054867456	42	4572
2026-01-01 08:26:29.14	32.06	21.85	-36.2	-37.6	17.7	0.00e+00	0	58	0	1058013184	42	4623
2026-01-01 08:26:30.15	31.81	21.80	-36.2	-37.6	17.7	0.00e+00	0	58	0	1061158912	42	4641
2026-01-01 08:26:31.16	31.56	21.75	-36.2	-37.6	17.7	0.00e+00	0	57	0	1064304640	43	4361
2026-01-01 08:26:32.17	31.31	21.71	-36.0	-37.4	17.9	0.00e+00	0	58	0	1067450368	43	4257
2026-01-01 08:26:33.18	31.06	21.66	-35.9	-37.3	18.0	0.00e+00	0	58	0	1070596096	43	4216
2026-01-01 08:26:34.19	30.81	21.61	-35.9	-37.3	18.0	0.00e+00	0	58	0	1073741824	43	4217
2026-01-01 08:26:35.20	30.56	21.56	-36.0	-37.4	18.0	0.00e+00	0	58	0	1076887552	43	4243
2026-01-01 08:26:36.21	30.32	21.51	-36.1	-37.5	17.9	0.00e+00	0	58	0	1080033280	43	4309
2026-01-01 08:26:37.22	30.07	21.46	-36.2	-37.6	17.7	0.00e+00	0	58	0	1083179008	43	4379
2026-01-01 08:26:38.23	29.83	21.40	-36.3	-37.8	17.6	0.00e+00	0	58	0	1086324736	43	4447
2026-01-01 08:26:39.24	29.58	21.35	-36.2	-37.6	17.7	0.00e+00	0	58	0	1089470464	43	4360
2026-01-01 08:26:40.25	29.34	21.30	-36.1	-37.5	17.8	0.00e+00	0	58	0	1092616192	43	4315
2026-01-01 08:26:41.26	29.10	21.25	-36.0	-37.4	17.9	0.00e+00	0	58	0	1095761920	43	4266
2026-01-01 08:26:42.27	28.85	21.19	-35.9	-37.3	18.0	0.00e+00	0	58	0	1098907648	43	4211
2026-01-01 08:26:43.28	28.61	21.14	-35.9	-37.2	18.0	0.00e+00	0	58	0	1102053376	43	4186
2026-01-01 08:26:44.29	28.37	21.09	-35.9	-37.2	18.1	0.00e+00	0	58	0	1105199104	43	4174
2026-01-01 08:26:45.30	28.13	21.03	-35.8	-37.2	18.1	0.00e+00	0	58	0	1108344832	43	4166
2026-01-01 08:26:46.31	27.90	20.98	-35.9	-37.2	18.1	0.00e+00	0	58	0	1111490560	43	4175
2026-01-01 08:26:47.32	27.66	20.92	-35.9	-37.3	18.1	0.00e+00	0	58	0	1114636288	43	4196
2026-01-01 08:26:48.33	27.42	20.86	-35.9	-37.3	18.0	0.00e+00	0	58	0	1117782016	43	4220
2026-01-01 08:26:49.34	27.19	20.81	-35.9	-37.3	18.0	0.00e+00	0	58	0	1120927744	43	4211
2026-01-01 08:26:50.35	26.95	20.75	-35.8	-37.2	18.1	0.00e+00	0	58	0	1124073472	43	4161
2026-01-01 08:26:51.36	26.72	20.69	-35.8	-37.1	18.1	0.00e+00	0	58	0	1127219200	43	4144
2026-01-01 08:26:52.37	26.48	20.64	-35.8	-37.1	18.1	0.00e+00	0	58	0	1130364928	43	4139
2026-01-01 08:26:53.38	26.25	20.58	-35.7	-37.1	18.2	0.00e+00	0	58	0	1134559232	43	4106
2026-01-01 08:26:54.39	26.02	20.52	-35.8	-37.2	18.1	0.00e+00	0	58	0	1137704960	43	4162
2026-01-01 08:26:55.40	25.79	20.46	-36.0	-37.3	17.9	0.00e+00	0	58	0	1139802112	43	4231
2026-01-01 08:26:56.41	25.56	20.40	-36.1	-37.5	17.8	0.00e+00	0	58	0	1142947840	43	4330
2026-01-01 08:26:57.42	25.33	20.35	-36.2	-37.6	17.7	0.00e+00	0	58	0	1146093568	43	4367
2026-01-01 08:26:58.43	25.10	20.29	-36.2	-37.6	17.7	0.00e+00	0	58	0	1150287872	43	4366
2026-01-01 08:26:59.44	24.88	20.23	-36.0	-37.4	17.9	0.00e+00	0	58	0	1153433600	43	4266
2026-01-01 08:27:00.45	24.65	20.17	-35.8	-37.2	18.1	0.00e+00	0	58	0	1156579328	43	4149
2026-01-01 08:27:01.46	24.43	20.11	-35.8	-37.1	18.1	0.00e+00	0	58	0	1159725056	43	4124
2026-01-01 08:27:02.47	24.20	20.05	-35.7	-37.1	18.2	0.00e+00	0	58	0	1162870784	43	4108
2026-01-01 08:27:03.48	23.98	19.98	-35.7	-37.0	18.3	0.00e+00	0	58	0	1166016512	43	4075
2026-01-01 08:27:04.49	23.76	19.92	-35.8	-37.2	18.1	0.00e+00	0	58	0	1169162240	43	4148
2026-01-01 08:27:05.50	23.53	19.86	-35.9	-37.2	18.1	0.00e+00	0	58	0	1172307968	43	4185
2026-01-01 08:27:06.51	23.31	19.80	-36.0	-37.4	17.9	0.00e+00	0	58	0	1175453696	43	4257
2026-01-01 08:27:07.52	23.09	19.74	-36.1	-37.5	17.8	0.00e+00	0	58	0	1178599424	43	4327
2026-01-01 08:27:08.53	22.88	19.68	-36.3	-37.7	17.6	0.00e+00	0	58	0	1181745152	43	4431
2026-01-01 08:27:09.54	22.66	19.61	-36.4	-37.9	17.4	0.00e+00	0	58	0	1184890880	43	4494
2026-01-01 08:27:10.55	22.44	19.55	-36.5	-38.0	17.3	0.00e+00	0	58	0	1188036608	43	4561
2026-01-01 08:27:11.57	22.22	19.49	-36.3	-37.7	17.6	0.00e+00	0	58	0	1191182336	43	4407
2026-01-01 08:27:12.57	22.01	19.42	-36.0	-37.4	17.8	0.00e+00	0	58	0	1194328064	43	4275
2026-01-01 08:27:13.59	21.79	19.36	-35.9	-37.3	17.9	0.00e+00	0	58	0	1197473792	43	4218
2026-01-01 08:27:14.60	21.58	19.29	-36.0	-37.4	17.8	0.00e+00	0	58	0	1200619520	43	4270
2026-01-01 08:27:15.61	21.37	19.23	-36.0	-37.4	17.9	0.00e+00	0	58	0	1203765248	43	4259
2026-01-01 08:27:16.62	21.16	19.17	-35.9	-37.3	17.9	0.00e+00	0	58	0	1206910976	43	4221
2026-01-01 08:27:17.63	20.95	19.10	-36.0	-37.3	17.9	0.00e+00	0	58	0	1210056704	43	4228
2026-01-01 08:27:18.64	20.74	19.04	-35.8	-37.2	18.0	0.00e+00	0	58	0	1213202432	43	4151
2026-01-01 08:27:19.65	20.53	18.97	-35.8	-37.1	18.1	0.00e+00	0	58	0	1216348160	43	4130
2026-01-01 08:27:20.66	20.32	18.90	-35.9	-37.2	18.0	0.00e+00	0	58	0	1219493888	43	4173
2026-01-01 08:27:21.67	20.11	18.84	-35.8	-37.2	18.0	0.00e+00	0	58	0	1222639616	43	4161
2026-01-01 08:27:22.68	19.91	18.77	-35.7	-37.0	18.2	0.00e+00	0	58	0	1225785344	43	4070
2026-01-01 08:27:23.70	19.70	18.71	-35.7	-37.0	18.2	0.00e+00	0	58	0	1228931072	43	4085
2026-01-01 08:27:24.71	19.50	18.64	-35.8	-37.2	18.1	0.00e+00	0	58	0	1232076800	43	4162
2026-01-01 08:27:25.72	19.29	18.57	-36.0	-37.3	17.9	0.00e+00	0	58	0	1235222528	43	4241
2026-01-01 08:27:26.73	19.09	18.51	-36.1	-37.5	17.7	0.00e+00	0	58	0	1238368256	43	4331
2026-01-01 08:27:27.74	18.89	18.44	-36.3	-37.7	17.5	0.00e+00	0	58	0	1241513984	43	4441
2026-01-01 08:27:28.75	18.69	18.37	-36.4	-37.9	17.4	0.00e+00	0	58	0	1244659712	43	4506
2026-01-01 08:27:29.76	18.49	18.31	-36.4	-37.9	17.3	0.00e+00	0	58	0	1247805440	43	4513
2026-01-01 08:27:30.77	18.29	18.24	-36.3	-37.7	17.5	0.00e+00	0	58	0	1250951168	43	4428
2026-01-01 08:27:31.78	18.09	18.17	-36.3	-37.7	17.5	0.00e+00	0	58	0	1254096896	43	4420
2026-01-01 08:27:32.79	17.89	18.10	-36.3	-37.8	17.4	0.00e+00	0	58	0	1257242624	43	4445
2026-01-01 08:27:33.80	17.70	18.03	-36.1	-37.5	17.6	0.00e+00	0	58	0	1260388352	43	4323
2026-01-01 08:27:34.81	17.50	17.97	-36.0	-37.4	17.8	0.00e+00	0	58	0	1263534080	43	4260
2026-01-01 08:27:35.82	17.31	17.90	-36.0	-37.4	17.8	0.00e+00	0	58	0	1266679808	43	4269
2026-01-01 08:27:36.83	17.12	17.83	-36.0	-37.4	17.8	0.00e+00	0	58	0	1269825536	43	4271
2026-01-01 08:27:37.84	16.92	17.76	-36.1	-37.5	17.7	0.00e+00	0	58	0	1272971264	43	4315
2026-01-01 08:27:38.85	16.73	17.69	-36.1	-37.6	17.7	0.00e+00	0	58	0	1276116992	43	4343
2026-01-01 08:27:39.86	16.54	17.62	-36.2	-37.6	17.7	0.00e+00	0	58	0	1279262720	43	4348
2026-01-01 08:27:40.87	16.35	17.55	-36.1	-37.5	17.7	0.00e+00	0	58	0	1282408448	43	4326
2026-01-01 08:27:41.88	16.16	17.49	-36.1	-37.6	17.7	0.00e+00	0	58	0	1285554176	43	4341
2026-01-01 08:27:42.89	15.97	17.42	-36.0	-37.4	17.9	0.00e+00	0	58	0	1288699904	43	4253
2026-01-01 08:27:43.90	15.79	17.35	-35.9	-37.3	17.9	0.00e+00	0	58	0	1291845632	43	4217
2026-01-01 08:27:44.91	15.60	17.28	-35.9	-37.3	18.0	0.00e+00	0	58	0	1294991360	43	4207
2026-01-01 08:27:45.92	15.41	17.21	-35.8	-37.1	18.1	0.00e+00	0	58	0	1298137088	43	4128
2026-01-01 08:27:46.93	15.23	17.14	-35.7	-37.1	18.2	0.00e+00	0	58	0	1301282816	43	4117
2026-01-01 08:27:47.94	15.05	17.07	-35.8	-37.2	18.1	0.00e+00	0	58	0	1304428544	43	4175
2026-01-01 08:27:48.95	14.86	17.00	-36.0	-37.4	17.9	0.00e+00	0	58	0	1307574272	43	4253
2026-01-01 08:27:49.96	14.68	16.93	-36.1	-37.5	17.7	0.00e+00	0	58	0	1310720000	43	4331
2026-01-01 08:27:50.97	14.50	16.86	-36.2	-37.6	17.6	0.00e+00	0	58	0	1313865728	43	4382
2026-01-01 08:27:51.98	14.32	16.79	-36.2	-37.6	17.6	0.00e+00	0	58	0	1317011456	43	4390
2026-01-01 08:27:53.00	14.14	16.72	-36.2	-37.6	17.6	0.00e+00	0	58	0	1320157184	43	4373
2026-01-01 08:27:54.01	13.96	16.65	-36.2	-37.7	17.6	0.00e+00	0	58	0	1323302912	43	4396
2026-01-01 08:27:55.02	13.78	16.58	-36.3	-37.8	17.4	0.00e+00	0	58	0	1326448640	43	4449
2026-01-01 08:27:56.03	13.61	16.51	-36.2	-37.6	17.6	0.00e+00	0	58	0	1329594368	43	4369
2026-01-01 08:27:57.04	13.43	16.44	-36.2	-37.6	17.6	0.00e+00	0	58	0	1332740096	43	4360
2026-01-01 08:27:58.05	13.25	16.37	-36.3	-37.7	17.5	0.00e+00	0	58	0	1335885824	43	4419
2026-01-01 08:27:59.06	13.08	16.29	-36.4	-37.9	17.4	0.00e+00	0	58	0	1339031552	43	4505
2026-01-01 08:28:00.07	12.91	16.22	-36.4	-37.9	17.4	0.00e+00	0	58	0	1342177280	43	4506
2026-01-01 08:28:01.08	12.73	16.15	-36.4	-37.9	17.3	0.00e+00	0	58	0	1345323008	43	4530
2026-01-01 08:28:02.09	12.56	16.08	-36.5	-38.0	17.2	0.00e+00	0	58	0	1348468736	43	4578
2026-01-01 08:28:03.10	12.39	16.01	-36.6	-38.1	17.2	0.00e+00	0	58	0	1351614464	43	4599
2026-01-01 08:28:04.11	12.22	15.94	-36.5	-38.0	17.2	0.00e+00	0	58	0	1354760192	43	4584
2026-01-01 08:28:05.12	12.05	15.87	-36.5	-38.0	17.2	0.00e+00	0	58	0	1357905920	43	4585
2026-01-01 08:28:06.14	11.88	15.80	-36.6	-38.1	17.1	0.00e+00	0	58	0	1361051648	43	4617
2026-01-01 08:28:07.15	11.71	15.73	-36.6	-38.1	17.1	0.00e+00	0	58	0	1364197376	43	4643
2026-01-01 08:28:08.16	11.55	15.65	-36.5	-38.0	17.2	0.00e+00	0	58	0	1367343104	43	4585
2026-01-01 08:28:09.17	11.38	15.58	-36.6	-38.1	17.1	0.00e+00	0	58	0	1370488832	43	4619
2026-01-01 08:28:10.18	11.22	15.51	-36.6	-38.1	17.1	0.00e+00	0	58	0	1373634560	43	4644
2026-01-01 08:28:11.19	11.05	15.44	-36.6	-38.1	17.1	0.00e+00	0	58	0	1376780288	43	4638
2026-01-01 08:28:12.20	10.89	15.37	-36.7	-38.2	17.0	0.00e+00	0	58	0	1379926016	43	4668
2026-01-01 08:28:13.21	10.72	15.30	-36.6	-38.1	17.1	0.00e+00	0	58	0	1383071744	43	4627
2026-01-01 08:28:14.22	10.56	15.23	-36.6	-38.1	17.1	0.00e+00	0	58	0	1386217472	43	4633
2026-01-01 08:28:15.23	10.40	15.16	-36.6	-38.1	17.1	0.00e+00	0	58	0	1389363200	43	4630
2026-01-01 08:28:16.24	10.24	15.08	-36.6	-38.1	17.0	0.00e+00	0	58	0	1392508928	43	4649
2026-01-01 08:28:17.25	10.08	15.01	-36.5	-38.0	17.1	0.00e+00	0	58	0	1395654656	43	4586
2026-01-01 08:28:18.26	9.92	14.94	-36.5	-37.9	17.2	0.00e+00	0	58	0	1398800384	43	4542
2026-01-01 08:28:19.27	9.76	14.87	-36.4	-37.9	17.1	0.00e+00	0	58	0	1401946112	43	4532
2026-01-01 08:28:20.28	9.61	14.80	-36.4	-37.9	17.2	0.00e+00	0	58	0	1406140416	43	4535
2026-01-01 08:28:21.29	9.45	14.73	-36.5	-38.0	17.1	0.00e+00	0	58	0	1408237568	43	4563
2026-01-01 08:28:22.30	9.29	14.66	-36.6	-38.1	16.9	0.00e+00	0	58	0	1411383296	43	4648
2026-01-01 08:28:23.31	9.14	14.58	-36.9	-38.5	16.8	0.00e+00	0	58	0	1414529024	44	4553
2026-01-01 08:28:24.32	8.98	14.51	-37.0	-38.6	16.6	0.00e+00	0	58	0	1417674752	44	4642
2026-01-01 08:28:25.33	8.83	14.44	-37.1	-38.8	16.4	0.00e+00	0	58	0	1421869056	44	4721
2026-01-01 08:28:26.34	8.68	14.37	-37.2	-38.8	16.4	0.00e+00	0	58	0	1425014784	45	4473
2026-01-01 08:28:27.35	8.53	14.30	-37.2	-38.9	16.3	0.00e+00	0	58	0	1428160512	45	4499
2026-01-01 08:28:28.36	8.37	14.23	-37.1	-38.8	16.3	0.00e+00	0	58	0	1431306240	45	4460
2026-01-01 08:28:29.37	8.22	14.16	-37.2	-38.8	16.3	0.00e+00	0	58	0	1433403392	45	4474
2026-01-01 08:28:30.38	8.07	14.08	-37.1	-38.8	16.2	0.00e+00	0	58	0	1437597696	45	4475
2026-01-01 08:28:31.39	7.92	14.01	-37.0	-38.7	16.4	0.00e+00	0	58	0	1440743424	45	4393
2026-01-01 08:28:32.40	7.78	13.94	-37.0	-38.6	16.4	0.00e+00	0	58	0	1443889152	45	4355
2026-01-01 08:28:33.41	7.63	13.87	-37.0	-38.6	16.4	0.00e+00	0	58	0	1447034880	45	4362
2026-01-01 08:28:34.42	7.48	13.80	-36.9	-38.6	16.5	0.00e+00	0	58	0	1450180608	45	4348
2026-01-01 08:28:35.43	7.33	13.73	-37.1	-38.7	16.3	0.00e+00	0	58	0	1453326336	45	4425
2026-01-01 08:28:36.44	7.19	13.66	-37.0	-38.6	16.4	0.00e+00	0	58	0	1456472064	45	4380
2026-01-01 08:28:37.45	7.04	13.58	-37.0	-38.6	16.4	0.00e+00	0	58	0	1459617792	45	4391
2026-01-01 08:28:38.46	6.90	13.51	-37.1	-38.7	16.3	0.00e+00	0	58	0	1462763520	45	4421
2026-01-01 08:28:39.47	6.76	13.44	-37.1	-38.8	16.2	0.00e+00	0	58	0	1465909248	45	4454
2026-01-01 08:28:40.48	6.61	13.37	-37.3	-39.0	16.0	0.00e+00	0	58	0	1469054976	45	4589
2026-01-01 08:28:41.49	6.47	13.30	-37.5	-39.3	15.6	0.00e+00	0	58	0	1472200704	45	4753
2026-01-01 08:28:42.50	6.33	13.23	-37.7	-39.6	15.4	0.00e+00	0	58	0	1475346432	45	4873
2026-01-01 08:28:43.52	6.19	13.16	-37.8	-39.7	15.2	0.00e+00	0	58	0	1478492160	46	4692
2026-01-01 08:28:44.53	6.05	13.09	-37.8	-39.7	15.2	0.00e+00	0	58	0	1481637888	46	4660
2026-01-01 08:28:45.54	5.91	13.01	-37.8	-39.7	15.2	0.00e+00	0	58	0	1484783616	46	4656
2026-01-01 08:28:46.55	5.77	12.94	-37.7	-39.6	15.3	0.00e+00	0	58	0	1487929344	46	4602
2026-01-01 08:28:47.56	5.63	12.87	-37.4	-39.2	15.6	0.00e+00	0	58	0	1491075072	46	4394
2026-01-01 08:28:48.57	5.50	12.80	-36.9	-38.6	16.0	0.00e+00	0	58	0	1494220800	45	4348
2026-01-01 08:28:49.58	5.36	12.73	-36.3	-38.0	16.5	0.00e+00	0	58	0	1497366528	44	4299
2026-01-01 08:28:50.59	5.22	12.66	-35.8	-37.4	16.6	0.00e+00	0	58	0	1500512256	43	4255
2026-01-01 08:28:51.60	5.09	12.59	-35.9	-37.6	16.1	0.00e+00	0	58	0	1503657984	43	4365
2026-01-01 08:28:52.60	4.96	12.52	-36.6	-38.6	14.8	0.00e+00	0	58	0	1506803712	43	4920
2026-01-01 08:28:53.62	4.82	12.45	-37.7	-40.3	12.9	8.30e-06	0	58	0	1509949440	45	5329
2026-01-01 08:28:54.63	4.69	12.38	-39.0	-42.7	10.1	1.61e-03	0	58	0	1513095168	48	5864
2026-01-01 08:28:55.64	4.56	12.31	-39.9	-45.1	7.3	5.73e-02	0	58	0	1516240896	50	6959
2026-01-01 08:28:56.65	4.42	12.24	-40.3	-47.8	5.1	4.60e-01	0	58	0	1519386624	51	8895
2026-01-01 08:28:57.66	4.29	12.16	-40.5	-50.3	4.0	1.47e+00	0	58	104	1519386624	51	11869
2026-01-01 08:28:58.67	4.16	12.09	-40.4	-52.0	3.8	1.49e+00	0	58	104	1519386624	51	14538
2026-01-01 08:28:59.68	4.03	12.02	-40.3	-52.5	3.8	1.49e+00	0	58	104	1519386624	51	15378
2026-01-01 08:29:00.69	3.90	11.95	-40.4	-52.9	3.8	1.49e+00	0	58	104	1519386624	51	16058
2026-01-01 08:29:01.70	3.77	11.88	-40.0	-52.3	3.8	1.49e+00	0	58	104	1519386624	51	15044
2026-01-01 08:29:02.71	3.65	11.81	-39.8	-52.2	3.8	1.49e+00	0	58	104	1519386624	51	14801
2026-01-01 08:29:03.72	3.52	11.74	-39.8	-52.2	3.8	1.49e+00	0	58	104	1519386624	51	14823
2026-01-01 08:29:04.73	3.39	11.67	-39.8	-52.2	3.8	1.49e+00	0	58	104	1519386624	51	14803
2026-01-01 08:29:05.74	3.27	11.60	-39.8	-52.2	3.8	1.49e+00	0	58	104	1519386624	51	14750
2026-01-01 08:29:06.75	3.14	11.53	-39.8	-52.2	3.8	1.49e+00	0	58	104	1519386624	51	14758
2026-01-01 08:29:07.76	3.02	11.46	-39.8	-52.1	3.8	1.49e+00	0	58	104	1519386624	51	14677
2026-01-01 08:29:08.77	2.89	11.39	-39.9	-52.3	3.8	1.49e+00	0	58	104	1519386624	51	14959
2026-01-01 08:29:09.78	2.77	11.32	-39.7	-52.1	3.8	1.49e+00	0	58	104	1519386624	51	14651
2026-01-01 08:29:10.79	2.64	11.25	-39.9	-52.4	3.8	1.49e+00	0	58	104	1519386624	51	15130
2026-01-01 08:29:11.80	2.52	11.18	-39.8	-52.2	3.8	1.49e+00	0	58	104	1519386624	51	14709
2026-01-01 08:29:12.81	2.40	11.11	-39.9	-52.3	3.8	1.49e+00	0	58	104	1519386624	51	15022
2026-01-01 08:29:13.82	2.28	11.05	-39.8	-52.1	3.8	1.49e+00	0	58	104	1519386624	51	14661
2026-01-01 08:29:14.83	2.16	10.98	-39.7	-52.1	3.8	1.49e+00	0	58	104	1519386624	51	14639
2026-01-01 08:29:15.84	2.04	10.91	-39.8	-52.2	3.8	1.49e+00	0	58	104	1519386624	51	14750
2026-01-01 08:29:16.85	1.92	10.84	-39.7	-52.1	3.8	1.49e+00	0	58	104	1519386624	51	14602
2026-01-01 08:29:17.86	1.80	10.77	-39.7	-52.1	3.8	1.49e+00	0	58	104	1519386624	51	14647
2026-01-01 08:29:18.87	1.68	10.70	-39.8	-52.2	3.8	1.49e+00	0	58	104	1519386624	51	14804
2026-01-01 08:29:19.88	1.56	10.63	-39.8	-52.2	3.8	1.49e+00	0	58	104	1519386624	51	14732
2026-01-01 08:29:20.89	1.45	10.56	-39.8	-52.2	3.8	1.49e+00	0	58	104	1519386624	51	14777
2026-01-01 08:29:21.90	1.33	10.49	-39.7	-52.1	3.8	1.49e+00	0	58	104	1519386624	51	14689
2026-01-01 08:29:22.91	1.21	10.42	-39.6	-52.1	3.8	1.49e+00	0	58	104	1519386624	51	14683
2026-01-01 08:29:23.92	1.10	10.35	-39.7	-52.1	3.8	1.49e+00	0	58	104	1519386624	51	14624
2026-01-01 08:29:24.93	0.98	10.29	-39.6	-52.2	3.8	1.49e+00	0	58	104	1519386624	51	14710
2026-01-01 08:29:25.94	0.87	10.22	-39.7	-52.1	3.8	1.49e+00	0	58	104	1519386624	51	14581
2026-01-01 08:29:26.95	0.75	10.15	-39.8	-52.2	3.8	1.49e+00	0	58	104	1519386624	51	14810
2026-01-01 08:29:27.96	0.64	10.08	-39.4	-52.2	3.8	1.49e+00	0	58	104	1519386624	50	15581
2026-01-01 08:29:28.97	0.53	10.01	-39.8	-52.2	3.8	1.49e+00	0	58	104	1519386624	50	15714
2026-01-01 08:29:29.98	0.42	9.94	-39.4	-52.2	3.8	1.49e+00	0	58	104	1519386624	50	15624
2026-01-01 08:29:30.99	0.30	9.88	-39.5	-52.2	3.8	1.49e+00	0	58	104	1519386624	50	15606
2026-01-01 08:29:32.00	0.19	9.81	-39.7	-52.1	3.8	1.49e+00	0	58	104	1519386624	50	15488
2026-01-01 08:29:33.02	0.08	9.74	-39.4	-52.2	3.8	1.49e+00	0	58	104	1519386624	50	15598
2026-01-01 08:29:34.03	359.97	9.67	-39.6	-52.1	3.8	1.49e+00	0	58	104	1519386624	50	15527
2026-01-01 08:29:35.04	359.86	9.60	-39.5	-52.1	3.8	1.49e+00	0	58	104	1519386624	50	15469
2026-01-01 08:29:36.05	359.75	9.54	-39.6	-52.2	3.8	1.49e+00	0	58	104	1519386624	50	15677
2026-01-01 08:29:37.06	359.64	9.47	-39.4	-52.1	3.8	1.49e+00	0	58	104	1519386624	50	15455
2026-01-01 08:29:38.06	359.54	9.40	-39.6	-52.2	3.8	1.49e+00	0	58	104	1519386624	50	15721
2026-01-01 08:29:39.08	359.43	9.33	-39.2	-52.1	3.8	1.49e+00	0	58	104	1519386624	50	15484
2026-01-01 08:29:40.09	359.32	9.26	-39.5	-52.2	3.8	1.49e+00	0	58	104	1519386624	50	15599
2026-01-01 08:29:41.10	359.22	9.20	-39.0	-52.0	3.8	1.49e+00	0	58	104	1519386624	49	16292
2026-01-01 08:29:42.11	359.11	9.13	-39.4	-52.1	3.8	1.49e+00	0	58	104	1519386624	49	16481
2026-01-01 08:29:43.12	359.00	9.06	-39.3	-52.1	3.8	1.49e+00	0	58	104	1519386624	49	16326
2026-01-01 08:29:44.13	358.90	9.00	-39.3	-52.1	3.8	1.49e+00	0	58	104	1519386624	49	16407
2026-01-01 08:29:45.14	358.80	8.93	-39.1	-52.1	3.8	1.49e+00	0	58	104	1519386624	49	16358
2026-01-01 08:29:46.15	358.69	8.86	-39.0	-52.1	3.8	1.49e+00	0	58	104	1519386624	49	16328
2026-01-01 08:29:47.16	358.59	8.80	-38.2	-51.9	3.8	1.49e+00	0	58	104	1519386624	48	17079
2026-01-01 08:29:48.17	358.49	8.73	-39.3	-52.1	3.8	1.49e+00	0	58	104	1519386624	49	16478
2026-01-01 08:29:49.18	358.38	8.66	-37.8	-51.9	3.8	1.49e+00	0	58	104	1519386624	47	17915
2026-01-01 08:29:50.19	358.28	8.60	-39.2	-52.1	3.8	1.49e+00	0	58	104	1519386624	48	17350
2026-01-01 08:29:51.20	358.18	8.53	-38.5	-52.0	3.8	1.49e+00	0	58	104	1519386624	48	17274
2026-01-01 08:29:52.21	358.08	8.46	-38.2	-52.0	3.8	1.49e+00	0	58	104	1519386624	48	17173
2026-01-01 08:29:53.22	357.98	8.40	-38.4	-52.1	3.8	1.49e+00	0	58	104	1519386624	48	17285
2026-01-01 08:29:54.23	357.88	8.33	-38.0	-51.9	3.8	1.49e+00	0	58	104	1519386624	47	18055
2026-01-01 08:29:55.24	357.78	8.26	-37.7	-51.8	3.8	1.49e+00	0	58	104	1519386624	47	17833
2026-01-01 08:29:56.25	357.68	8.20	-38.2	-51.9	3.8	1.49e+00	0	58	104	1519386624	47	17969
2026-01-01 08:29:57.26	357.58	8.13	-37.8	-51.8	3.8	1.49e+00	0	59	104	1519386624	47	17690
2026-01-01 08:29:58.27	357.48	8.07	-38.1	-51.9	3.8	1.49e+00	0	58	104	1519386624	47	17959
2026-01-01 08:29:59.28	357.38	8.00	-38.6	-51.9	3.8	1.49e+00	0	58	104	1519386624	47	18067
2026-01-01 08:30:00.30	357.29	7.93	-40.2	-52.6	3.8	1.49e+00	0	59	104	1519386624	50	16384
2026-01-01 08:30:01.31	357.19	7.87	-44.6	-56.8	3.8	1.49e+00	0	58	104	1519386624	59	15791
2026-01-01 08:30:02.32	357.09	7.80	-44.8	-57.2	3.8	1.49e+00	0	58	104	1519386624	60	15635
2026-01-01 08:30:03.33	357.00	7.74	-45.0	-57.3	3.8	1.49e+00	0	58	104	1519386624	60	15931
2026-01-01 08:30:04.34	356.90	7.67	-45.1	-57.5	3.8	1.49e+00	0	59	104	1519386624	60	16150
2026-01-01 08:30:05.35	356.81	7.61	-45.2	-57.6	3.8	1.49e+00	0	58	104	1519386624	60	16324
2026-01-01 08:30:06.36	356.71	7.54	-45.2	-57.6	3.8	1.49e+00	0	58	104	1519386624	60	16377
2026-01-01 08:30:07.37	356.62	7.48	-45.2	-57.6	3.8	1.49e+00	0	58	104	1519386624	61	15576
2026-01-01 08:30:08.38	356.52	7.41	-45.2	-57.6	3.8	1.49e+00	0	59	104	1519386624	61	15455
2026-01-01 08:30:09.40	356.43	7.35	-45.2	-57.6	3.8	1.49e+00	0	58	104	1519386624	61	15405
2026-01-01 08:30:10.41	356.34	7.28	-45.2	-57.5	3.8	1.49e+00	0	58	104	1519386624	61	15396
2026-01-01 08:30:11.42	356.24	7.22	-45.1	-57.5	3.8	1.49e+00	0	59	104	1519386624	61	15326
2026-01-01 08:30:12.43	356.15	7.15	-45.1	-57.5	3.8	1.49e+00	0	58	104	1519386624	61	15290
2026-01-01 08:30:13.44	356.06	7.09	-45.1	-57.5	3.8	1.49e+00	0	58	104	1519386624	61	15235
2026-01-01 08:30:14.45	355.97	7.02	-45.1	-57.4	3.8	1.49e+00	0	58	104	1519386624	61	15171
2026-01-01 08:30:15.46	355.88	6.96	-45.0	-57.4	3.8	1.49e+00	0	58	104	1519386624	61	15121
2026-01-01 08:30:16.47	355.79	6.89	-45.0	-57.4	3.8	1.49e+00	0	58	104	1519386624	61	15071
2026-01-01 08:30:17.48	355.70	6.83	-45.0	-57.4	3.8	1.49e+00	0	58	104	1519386624	61	15098
2026-01-01 08:30:18.49	355.61	6.77	-45.0	-57.4	3.8	1.49e+00	0	59	104	1519386624	61	15088
2026-01-01 08:30:19.51	355.52	6.70	-45.0	-57.4	3.8	1.49e+00	0	58	104	1519386624	61	15076
2026-01-01 08:30:20.52	355.43	6.64	-45.0	-57.4	3.8	1.49e+00	0	58	104	1519386624	61	15065
2026-01-01 08:30:21.53	355.34	6.57	-45.0	-57.4	3.8	1.49e+00	0	58	104	1519386624	61	15101
2026-01-01 08:30:22.54	355.25	6.51	-45.0	-57.3	3.8	1.49e+00	0	59	104	1519386624	61	15042
2026-01-01 08:30:23.55	355.17	6.45	-45.0	-57.4	3.8	1.49e+00	0	59	104	1519386624	61	15102
2026-01-01 08:30:24.56	355.08	6.38	-45.0	-57.4	3.8	1.49e+00	0	58	104	1519386624	61	15077
2026-01-01 08:30:25.57	354.99	6.32	-45.0	-57.3	3.8	1.49e+00	0	58	104	1519386624	61	15041
2026-01-01 08:30:26.58	354.91	6.26	-45.0	-57.4	3.8	1.49e+00	0	58	104	1519386624	61	15070
2026-01-01 08:30:27.59	354.82	6.19	-45.0	-57.4	3.8	1.49e+00	0	59	104	1519386624	61	15073
2026-01-01 08:30:28.61	354.73	6.13	-45.0	-57.4	3.8	1.49e+00	0	58	104	1519386624	61	15065
2026-01-01 08:30:29.62	354.65	6.07	-45.0	-57.3	3.8	1.49e+00	0	59	104	1519386624	61	15003
2026-01-01 08:30:30.63	354.56	6.00	-45.0	-57.3	3.8	1.49e+00	0	58	104	1519386624	61	15024
2026-01-01 08:30:31.64	354.48	5.94	-45.0	-57.3	3.8	1.49e+00	0	58	104	1519386624	61	15034
2026-01-01 08:30:32.65	354.40	5.88	-45.0	-57.3	3.8	1.49e+00	0	58	104	1519386624	61	15033
2026-01-01 08:30:33.66	354.31	5.82	-45.0	-57.3	3.8	1.49e+00	0	58	104	1519386624	61	15024
2026-01-01 08:30:34.67	354.23	5.75	-45.0	-57.3	3.8	1.49e+00	0	59	104	1519386624	61	15039
2026-01-01 08:30:35.68	354.15	5.69	-45.0	-57.3	3.8	1.49e+00	0	58	104	1519386624	61	15012
2026-01-01 08:30:36.69	354.06	5.63	-45.0	-57.4	3.8	1.49e+00	0	58	104	1519386624	61	15059
2026-01-01 08:30:37.70	353.98	5.57	-45.0	-57.3	3.8	1.49e+00	0	58	104	1519386624	61	14987
2026-01-01 08:30:38.71	353.90	5.50	-45.0	-57.3	3.8	1.49e+00	0	58	104	1519386624	61	15015
2026-01-01 08:30:39.72	353.82	5.44	-45.0	-57.3	3.8	1.49e+00	0	59	104	1519386624	61	15034
