passes_logs/2026/01/01/R2.0S_Moscow/R2.0S_Moscow__20260101_225825_NOAA_20_JPSS-1_rec.log

#Pass ID: 20260101_225825_NOAA 20 (JPSS-1)
#Satellite: NOAA 20 (JPSS-1)
#Configuration: NOAA 20
#almurnet v.1.7.20251203
#Start time: 2026-01-01 22:58:25

#Version: 2.2.20231116
#Station: R2.0S_Moscow
#Location: 37.707566 lon 55.798166 lat
#TLE: 1 43013U 17073A   26001.30344297  .00000183  00000+0  10758-3 0  9995
#TLE: 2 43013  98.7621 302.3885 0001938  59.1624 300.9742 14.19532032420790

#Time	Az	El	Level	Level2	SNR	BER	BlckErr	Temp	State	Recorded	gain1	gain2
2026-01-01 22:58:25.74	19.66	2.01	-40.2	-55.7	3.8	1.49e+00	0	49	0	0	52	20833
2026-01-01 22:58:26.76	19.70	2.07	-40.3	-55.7	3.8	1.49e+00	0	49	104	0	51	22232
2026-01-01 22:58:27.77	19.74	2.13	-40.3	-55.7	3.8	1.49e+00	0	49	104	0	51	22262
2026-01-01 22:58:28.78	19.77	2.19	-40.3	-55.7	3.8	1.49e+00	0	49	104	0	51	22203
2026-01-01 22:58:29.79	19.81	2.26	-40.3	-55.7	3.8	1.49e+00	0	49	104	0	51	22258
2026-01-01 22:58:30.80	19.84	2.32	-40.3	-55.8	3.8	1.49e+00	0	49	104	0	51	22298
2026-01-01 22:58:31.81	19.88	2.38	-40.3	-55.7	3.8	1.49e+00	0	49	104	0	51	22219
2026-01-01 22:58:32.82	19.92	2.45	-40.3	-55.7	3.8	1.49e+00	0	50	104	0	51	22199
2026-01-01 22:58:33.83	19.95	2.51	-40.3	-55.7	3.8	1.49e+00	0	49	104	0	51	22241
2026-01-01 22:58:34.85	19.99	2.57	-40.3	-55.7	3.8	1.49e+00	0	49	104	0	51	22240
2026-01-01 22:58:35.86	20.03	2.64	-40.3	-55.7	3.8	1.49e+00	0	49	104	0	51	22153
2026-01-01 22:58:36.87	20.06	2.70	-40.3	-55.7	3.8	1.49e+00	0	49	104	0	51	22223
2026-01-01 22:58:37.88	20.10	2.76	-40.3	-55.7	3.8	1.49e+00	0	50	104	0	51	22261
2026-01-01 22:58:38.89	20.14	2.83	-40.3	-55.7	3.8	1.49e+00	0	50	104	0	51	22240
2026-01-01 22:58:39.90	20.17	2.89	-40.3	-55.7	3.8	1.49e+00	0	50	104	0	51	22194
2026-01-01 22:58:40.91	20.21	2.96	-40.3	-55.7	3.8	1.49e+00	0	50	104	0	51	22253
2026-01-01 22:58:41.92	20.25	3.02	-40.2	-55.7	3.8	1.49e+00	0	50	104	0	51	22211
2026-01-01 22:58:42.93	20.28	3.08	-40.3	-55.7	3.8	1.49e+00	0	50	104	0	51	22144
2026-01-01 22:58:43.95	20.32	3.15	-40.3	-55.7	3.8	1.49e+00	0	50	104	0	51	22238
2026-01-01 22:58:44.96	20.36	3.21	-40.3	-55.7	3.8	1.49e+00	0	50	104	0	51	22199
2026-01-01 22:58:45.97	20.40	3.28	-40.3	-55.7	3.8	1.49e+00	0	50	104	0	51	22135
2026-01-01 22:58:46.98	20.44	3.34	-40.3	-55.7	3.8	1.49e+00	0	50	104	0	51	22215
2026-01-01 22:58:47.99	20.48	3.41	-40.3	-55.7	3.8	1.49e+00	0	50	104	0	51	22192
2026-01-01 22:58:49.00	20.51	3.48	-40.3	-55.7	3.8	1.49e+00	0	50	104	0	51	22251
2026-01-01 22:58:50.01	20.55	3.54	-40.3	-55.7	3.8	1.49e+00	0	50	104	0	51	22227
2026-01-01 22:58:51.02	20.59	3.61	-40.3	-55.7	3.8	1.49e+00	0	50	104	0	51	22257
2026-01-01 22:58:52.03	20.63	3.67	-40.3	-55.7	3.8	1.49e+00	0	50	104	0	51	22200
2026-01-01 22:58:53.04	20.67	3.74	-40.3	-55.7	3.8	1.49e+00	0	50	104	0	51	22236
2026-01-01 22:58:54.05	20.71	3.80	-40.3	-55.7	3.8	1.49e+00	0	50	104	0	51	22209
2026-01-01 22:58:55.07	20.75	3.87	-40.3	-55.7	3.8	1.49e+00	0	50	104	0	51	22243
2026-01-01 22:58:56.08	20.79	3.94	-40.3	-55.7	3.8	1.49e+00	0	51	104	0	51	22215
2026-01-01 22:58:57.09	20.83	4.00	-40.3	-55.7	3.8	1.49e+00	0	51	104	0	51	22217
2026-01-01 22:58:58.10	20.87	4.07	-40.3	-55.7	3.8	1.49e+00	0	51	104	0	51	22226
2026-01-01 22:58:59.11	20.91	4.14	-40.3	-55.7	3.8	1.49e+00	0	51	104	0	51	22157
2026-01-01 22:59:00.12	20.95	4.20	-40.3	-55.7	3.8	1.49e+00	0	51	104	0	51	22232
2026-01-01 22:59:01.13	20.99	4.27	-40.3	-55.8	3.8	1.49e+00	0	51	104	0	51	22264
2026-01-01 22:59:02.14	21.03	4.34	-40.3	-55.7	3.8	1.49e+00	0	51	104	0	51	22192
2026-01-01 22:59:03.15	21.07	4.41	-40.3	-55.7	3.8	1.49e+00	0	51	104	0	51	22148
2026-01-01 22:59:04.16	21.11	4.47	-40.3	-55.7	3.8	1.49e+00	0	51	104	0	51	22239
2026-01-01 22:59:05.17	21.15	4.54	-40.3	-55.7	3.8	1.49e+00	0	51	104	0	51	22227
2026-01-01 22:59:06.18	21.19	4.61	-40.3	-55.7	3.8	1.49e+00	0	51	104	0	51	22176
2026-01-01 22:59:07.19	21.23	4.68	-40.3	-55.7	3.8	1.49e+00	0	51	104	0	51	22185
2026-01-01 22:59:08.20	21.27	4.75	-40.3	-55.7	3.8	1.49e+00	0	51	104	0	51	22113
2026-01-01 22:59:09.22	21.32	4.82	-40.3	-55.7	3.8	1.49e+00	0	52	104	0	51	22215
2026-01-01 22:59:10.23	21.36	4.88	-40.3	-55.7	3.8	1.49e+00	0	51	104	0	51	22180
2026-01-01 22:59:11.24	21.40	4.95	-40.3	-55.7	3.8	1.49e+00	0	52	104	0	51	22230
2026-01-01 22:59:12.25	21.44	5.02	-40.3	-55.7	3.8	1.49e+00	0	52	104	0	51	22164
2026-01-01 22:59:13.26	21.48	5.09	-40.3	-55.7	3.8	1.49e+00	0	52	104	0	51	22180
2026-01-01 22:59:14.27	21.53	5.16	-40.3	-55.7	3.8	1.49e+00	0	52	104	0	51	22199
2026-01-01 22:59:15.28	21.57	5.23	-40.3	-55.7	3.8	1.49e+00	0	52	104	0	51	22194
2026-01-01 22:59:16.30	21.61	5.30	-40.3	-55.7	3.8	1.49e+00	0	52	104	0	51	22221
2026-01-01 22:59:17.31	21.66	5.37	-40.3	-55.7	3.8	1.49e+00	0	52	104	0	51	22176
2026-01-01 22:59:18.32	21.70	5.44	-40.3	-55.7	3.8	1.49e+00	0	52	104	0	51	22161
2026-01-01 22:59:19.33	21.74	5.51	-40.3	-55.7	3.8	1.49e+00	0	52	104	0	51	22204
2026-01-01 22:59:20.34	21.79	5.58	-40.3	-55.7	3.8	1.49e+00	0	52	104	0	51	22155
2026-01-01 22:59:21.35	21.83	5.65	-40.3	-55.7	3.8	1.49e+00	0	52	104	0	51	22169
2026-01-01 22:59:22.36	21.87	5.72	-40.3	-55.7	3.8	1.49e+00	0	52	104	0	51	22214
2026-01-01 22:59:23.37	21.92	5.79	-40.3	-55.7	3.8	1.49e+00	0	52	104	0	51	22255
2026-01-01 22:59:24.38	21.96	5.86	-40.3	-55.7	3.8	1.49e+00	0	53	104	0	51	22173
2026-01-01 22:59:25.39	22.01	5.94	-40.3	-55.7	3.8	1.49e+00	0	52	104	0	51	22154
2026-01-01 22:59:26.40	22.05	6.01	-40.3	-55.7	3.8	1.49e+00	0	52	104	0	51	22214
2026-01-01 22:59:27.41	22.10	6.08	-40.3	-55.7	3.8	1.49e+00	0	52	104	0	51	22190
2026-01-01 22:59:28.42	22.14	6.15	-40.3	-55.7	3.8	1.49e+00	0	53	104	0	51	22201
2026-01-01 22:59:29.44	22.19	6.22	-40.3	-55.7	3.8	1.49e+00	0	52	104	0	51	22217
2026-01-01 22:59:30.45	22.23	6.29	-40.3	-55.7	3.8	1.49e+00	0	53	104	0	51	22191
2026-01-01 22:59:31.46	22.28	6.37	-40.3	-55.7	3.8	1.49e+00	0	53	104	0	51	22144
2026-01-01 22:59:32.47	22.33	6.44	-40.3	-55.7	3.8	1.49e+00	0	52	104	0	51	22148
2026-01-01 22:59:33.48	22.37	6.51	-40.3	-55.7	3.8	1.49e+00	0	53	104	0	51	22210
2026-01-01 22:59:34.49	22.42	6.59	-40.3	-55.7	3.8	1.49e+00	0	53	104	0	51	22195
2026-01-01 22:59:35.50	22.46	6.66	-40.3	-55.7	3.8	1.49e+00	0	53	104	0	51	22053
2026-01-01 22:59:36.51	22.51	6.73	-40.3	-55.6	3.8	1.49e+00	0	53	104	0	51	22001
2026-01-01 22:59:37.52	22.56	6.81	-40.3	-55.6	3.8	1.49e+00	0	53	104	0	51	21958
2026-01-01 22:59:38.54	22.61	6.88	-40.3	-55.7	3.8	1.49e+00	0	53	104	0	51	22011
2026-01-01 22:59:39.55	22.65	6.95	-40.3	-55.7	3.8	1.49e+00	0	53	104	0	51	22040
2026-01-01 22:59:40.56	22.70	7.03	-40.3	-55.6	3.8	1.49e+00	0	53	104	0	51	21918
2026-01-01 22:59:41.57	22.75	7.10	-40.3	-55.5	3.8	1.49e+00	0	53	104	0	51	21538
2026-01-01 22:59:42.58	22.80	7.18	-40.3	-55.2	3.8	1.49e+00	0	53	104	0	51	20851
2026-01-01 22:59:43.59	22.85	7.25	-40.2	-54.8	3.8	1.49e+00	0	53	104	0	51	20007
2026-01-01 22:59:44.60	22.89	7.33	-40.3	-54.5	3.8	1.49e+00	0	53	104	0	51	19288
2026-01-01 22:59:45.61	22.94	7.40	-40.2	-54.3	3.8	1.49e+00	0	53	104	0	51	18864
2026-01-01 22:59:46.62	22.99	7.48	-40.2	-54.1	3.8	1.49e+00	0	53	104	0	51	18451
2026-01-01 22:59:47.64	23.04	7.55	-40.2	-53.6	3.8	1.49e+00	0	53	104	0	51	17469
2026-01-01 22:59:48.65	23.09	7.63	-40.1	-52.9	4.0	1.48e+00	0	53	104	0	51	16069
2026-01-01 22:59:49.66	23.14	7.71	-40.1	-52.2	4.2	1.43e+00	0	53	0	0	51	14787
2026-01-01 22:59:50.67	23.19	7.78	-40.1	-51.4	4.4	1.28e+00	65	54	0	0	51	13535
2026-01-01 22:59:51.68	23.24	7.86	-39.9	-50.6	4.8	9.13e-01	0	53	0	2097152	51	12280
2026-01-01 22:59:52.69	23.29	7.93	-39.9	-49.7	5.3	6.90e-01	0	54	0	4194304	51	11061
2026-01-01 22:59:53.70	23.34	8.01	-39.7	-48.4	6.2	3.60e-01	0	54	0	6291456	51	9523
2026-01-01 22:59:54.71	23.39	8.09	-39.7	-46.6	8.3	1.26e-01	0	53	0	7340032	51	7747
2026-01-01 22:59:55.72	23.44	8.17	-40.2	-51.0	4.6	5.94e-02	0	54	0	9437184	51	12852
2026-01-01 22:59:56.73	23.50	8.24	-39.1	-43.6	11.9	1.47e+00	0	54	0	9437184	50	5804
2026-01-01 22:59:57.74	23.55	8.32	-41.1	-45.6	11.5	1.95e-04	0	54	0	10485760	52	6501
2026-01-01 22:59:58.75	23.60	8.40	-39.6	-45.7	9.9	1.85e-03	0	54	0	12582912	50	7388
2026-01-01 22:59:59.76	23.65	8.48	-39.5	-43.5	12.5	2.51e-01	0	54	0	14680064	50	5746
2026-01-01 23:00:00.77	23.70	8.56	-40.0	-43.6	13.1	2.51e-05	0	54	0	16777216	50	5847
2026-01-01 23:00:01.78	23.76	8.63	-40.3	-44.1	12.6	5.03e-05	0	54	0	18874368	51	5831
2026-01-01 23:00:02.79	23.81	8.71	-40.4	-44.1	12.7	9.07e-05	0	54	0	19922944	51	5830
2026-01-01 23:00:03.80	23.86	8.79	-40.2	-43.8	13.1	4.57e-05	0	54	0	22020096	51	5605
2026-01-01 23:00:04.81	23.92	8.87	-39.9	-43.1	13.8	9.10e-06	0	54	0	24117248	51	5211
2026-01-01 23:00:05.82	23.97	8.95	-39.9	-43.0	13.9	6.10e-06	0	54	0	26214400	51	5155
2026-01-01 23:00:06.83	24.03	9.03	-40.1	-43.4	13.6	8.30e-06	0	54	0	28311552	51	5368
2026-01-01 23:00:07.84	24.08	9.11	-40.1	-43.3	13.7	6.10e-06	0	54	0	30408704	51	5295
2026-01-01 23:00:08.85	24.13	9.19	-39.9	-42.9	14.1	2.20e-06	0	54	0	31457280	51	5077
2026-01-01 23:00:09.86	24.19	9.27	-39.8	-42.8	14.3	7.00e-07	0	54	0	33554432	51	5008
2026-01-01 23:00:10.87	24.24	9.35	-39.9	-42.9	14.2	7.00e-07	0	54	0	35651584	51	5068
2026-01-01 23:00:11.88	24.30	9.43	-39.9	-42.8	14.3	1.50e-06	0	54	0	37748736	51	5010
2026-01-01 23:00:12.89	24.36	9.51	-39.8	-42.6	14.5	7.00e-07	0	54	0	39845888	51	4896
2026-01-01 23:00:13.90	24.41	9.60	-39.8	-42.7	14.5	0.00e+00	0	54	0	40894464	51	4930
2026-01-01 23:00:14.90	24.47	9.68	-39.8	-42.7	14.4	7.00e-07	0	54	0	42991616	51	4979
2026-01-01 23:00:15.92	24.52	9.76	-39.8	-42.6	14.6	7.00e-07	0	54	0	45088768	51	4898
2026-01-01 23:00:16.93	24.58	9.84	-39.8	-42.6	14.6	2.20e-06	0	54	0	47185920	51	4906
2026-01-01 23:00:17.94	24.64	9.92	-39.8	-42.6	14.5	0.00e+00	0	54	0	49283072	51	4925
2026-01-01 23:00:18.94	24.69	10.01	-39.8	-42.6	14.6	0.00e+00	0	54	0	50331648	51	4912
2026-01-01 23:00:19.95	24.75	10.09	-39.8	-42.7	14.6	0.00e+00	0	54	0	52428800	51	4948
2026-01-01 23:00:20.97	24.81	10.17	-39.7	-42.5	14.8	0.00e+00	0	54	0	54525952	51	4838
2026-01-01 23:00:21.97	24.87	10.26	-39.8	-42.5	14.7	7.00e-07	0	54	0	56623104	51	4856
2026-01-01 23:00:22.98	24.93	10.34	-39.7	-42.5	14.8	0.00e+00	0	54	0	58720256	51	4833
2026-01-01 23:00:23.99	24.99	10.42	-39.7	-42.4	14.8	0.00e+00	0	54	0	59768832	51	4796
2026-01-01 23:00:25.00	25.05	10.51	-39.7	-42.4	14.9	0.00e+00	0	54	0	61865984	51	4767
2026-01-01 23:00:26.01	25.11	10.59	-39.8	-42.5	14.8	0.00e+00	0	54	0	63963136	51	4829
2026-01-01 23:00:27.02	25.17	10.68	-39.7	-42.5	14.9	0.00e+00	0	54	0	66060288	51	4818
2026-01-01 23:00:28.03	25.23	10.76	-39.7	-42.3	15.0	0.00e+00	0	54	0	68157440	51	4755
2026-01-01 23:00:29.04	25.29	10.85	-39.6	-42.3	15.1	7.00e-07	0	54	0	69206016	51	4708
2026-01-01 23:00:30.05	25.35	10.93	-39.6	-42.3	15.1	0.00e+00	0	54	0	71303168	51	4713
2026-01-01 23:00:31.06	25.41	11.02	-39.6	-42.2	15.1	0.00e+00	0	55	0	73400320	51	4693
2026-01-01 23:00:32.07	25.47	11.11	-39.6	-42.2	15.1	0.00e+00	0	54	0	75497472	51	4668
2026-01-01 23:00:33.08	25.53	11.19	-39.6	-42.2	15.1	0.00e+00	0	54	0	77594624	51	4702
2026-01-01 23:00:34.09	25.59	11.28	-39.6	-42.1	15.2	0.00e+00	0	54	0	78643200	51	4646
2026-01-01 23:00:35.10	25.66	11.37	-39.6	-42.1	15.3	0.00e+00	0	55	0	80740352	51	4643
2026-01-01 23:00:36.11	25.72	11.45	-39.6	-42.2	15.2	0.00e+00	0	55	0	82837504	51	4692
2026-01-01 23:00:37.12	25.78	11.54	-39.6	-42.2	15.2	0.00e+00	0	55	0	84934656	51	4684
2026-01-01 23:00:38.13	25.85	11.63	-39.6	-42.2	15.2	0.00e+00	0	55	0	87031808	51	4669
2026-01-01 23:00:39.14	25.91	11.72	-39.5	-42.1	15.4	0.00e+00	0	55	0	88080384	51	4604
2026-01-01 23:00:40.15	25.98	11.81	-39.4	-41.9	15.6	0.00e+00	0	55	0	90177536	50	4779
2026-01-01 23:00:41.16	26.04	11.89	-39.4	-41.8	15.6	0.00e+00	0	55	0	92274688	50	4736
2026-01-01 23:00:42.17	26.11	11.98	-39.4	-41.8	15.7	0.00e+00	0	55	0	94371840	50	4742
2026-01-01 23:00:43.18	26.17	12.07	-39.3	-41.7	15.7	0.00e+00	0	55	0	96468992	50	4675
2026-01-01 23:00:44.18	26.24	12.16	-39.2	-41.6	15.8	0.00e+00	0	55	0	98566144	50	4631
2026-01-01 23:00:45.19	26.30	12.25	-39.3	-41.7	15.8	0.00e+00	0	55	0	99614720	50	4653
2026-01-01 23:00:46.20	26.37	12.34	-39.3	-41.7	15.8	0.00e+00	0	55	0	101711872	50	4659
2026-01-01 23:00:47.21	26.44	12.43	-39.3	-41.6	15.8	0.00e+00	0	55	0	103809024	50	4648
2026-01-01 23:00:48.22	26.50	12.52	-39.2	-41.6	15.9	0.00e+00	0	55	0	105906176	50	4610
2026-01-01 23:00:49.23	26.57	12.61	-39.3	-41.7	15.8	0.00e+00	0	55	0	108003328	50	4657
2026-01-01 23:00:50.24	26.64	12.71	-39.2	-41.6	15.8	0.00e+00	0	55	0	109051904	50	4632
2026-01-01 23:00:51.25	26.71	12.80	-39.2	-41.6	15.9	0.00e+00	0	55	0	111149056	50	4611
2026-01-01 23:00:52.26	26.78	12.89	-39.2	-41.6	15.8	0.00e+00	0	55	0	113246208	50	4636
2026-01-01 23:00:53.27	26.85	12.98	-39.2	-41.6	15.9	0.00e+00	0	55	0	115343360	50	4611
2026-01-01 23:00:54.28	26.92	13.07	-39.2	-41.6	15.9	0.00e+00	0	55	0	117440512	50	4613
2026-01-01 23:00:55.29	26.99	13.17	-39.2	-41.5	15.9	0.00e+00	0	55	0	118489088	50	4590
2026-01-01 23:00:56.30	27.06	13.26	-39.1	-41.5	16.0	0.00e+00	0	55	0	120586240	50	4572
2026-01-01 23:00:57.31	27.13	13.35	-39.1	-41.4	16.0	0.00e+00	0	55	0	122683392	50	4537
2026-01-01 23:00:58.32	27.20	13.45	-39.1	-41.4	16.1	0.00e+00	0	55	0	124780544	50	4518
2026-01-01 23:00:59.33	27.27	13.54	-39.0	-41.3	16.2	0.00e+00	0	55	0	126877696	50	4458
2026-01-01 23:01:00.34	27.34	13.64	-39.0	-41.3	16.2	0.00e+00	0	55	0	127926272	50	4460
2026-01-01 23:01:01.34	27.41	13.73	-39.0	-41.3	16.3	0.00e+00	0	55	0	130023424	50	4453
2026-01-01 23:01:02.35	27.49	13.83	-38.9	-41.2	16.4	0.00e+00	0	55	0	132120576	49	4660
2026-01-01 23:01:03.36	27.56	13.92	-38.9	-41.2	16.3	0.00e+00	0	55	0	134217728	49	4673
2026-01-01 23:01:04.37	27.64	14.02	-39.0	-41.2	16.3	0.00e+00	0	55	0	136314880	49	4693
2026-01-01 23:01:05.38	27.71	14.12	-39.0	-41.2	16.3	0.00e+00	0	55	0	137363456	49	4702
2026-01-01 23:01:06.39	27.79	14.21	-39.0	-41.2	16.4	0.00e+00	0	55	0	139460608	49	4686
2026-01-01 23:01:07.40	27.86	14.31	-38.9	-41.2	16.4	0.00e+00	0	55	0	141557760	49	4666
2026-01-01 23:01:08.41	27.94	14.41	-38.9	-41.1	16.5	0.00e+00	0	55	0	143654912	49	4646
2026-01-01 23:01:09.42	28.01	14.50	-38.9	-41.1	16.5	0.00e+00	0	55	0	145752064	49	4638
2026-01-01 23:01:10.43	28.09	14.60	-39.0	-41.2	16.5	0.00e+00	0	55	0	146800640	49	4661
2026-01-01 23:01:11.43	28.17	14.70	-39.0	-41.2	16.5	0.00e+00	0	55	0	148897792	49	4654
2026-01-01 23:01:12.44	28.24	14.80	-38.9	-41.1	16.5	0.00e+00	0	55	0	150994944	49	4642
2026-01-01 23:01:13.45	28.32	14.90	-39.0	-41.1	16.5	0.00e+00	0	55	0	153092096	49	4650
2026-01-01 23:01:14.46	28.40	15.00	-38.9	-41.2	16.5	0.00e+00	0	55	0	155189248	49	4656
2026-01-01 23:01:15.47	28.48	15.10	-38.9	-41.0	16.7	0.00e+00	0	55	0	156237824	49	4576
2026-01-01 23:01:16.48	28.56	15.20	-38.8	-41.0	16.7	0.00e+00	0	56	0	158334976	49	4559
2026-01-01 23:01:17.49	28.64	15.30	-38.8	-41.0	16.7	0.00e+00	0	55	0	160432128	49	4556
2026-01-01 23:01:18.50	28.72	15.40	-38.7	-40.9	16.8	0.00e+00	0	55	0	162529280	49	4504
2026-01-01 23:01:19.51	28.80	15.50	-38.7	-40.9	16.8	0.00e+00	0	55	0	164626432	49	4498
2026-01-01 23:01:20.52	28.88	15.60	-38.7	-40.8	16.9	0.00e+00	0	55	0	166723584	49	4468
2026-01-01 23:01:21.53	28.97	15.70	-38.8	-40.9	16.8	0.00e+00	0	56	0	167772160	49	4501
2026-01-01 23:01:22.54	29.05	15.81	-38.8	-40.9	16.8	0.00e+00	0	55	0	169869312	49	4528
2026-01-01 23:01:23.55	29.13	15.91	-38.8	-40.9	16.8	0.00e+00	0	55	0	171966464	49	4522
2026-01-01 23:01:24.56	29.22	16.01	-38.8	-40.9	16.8	0.00e+00	0	55	0	174063616	49	4501
2026-01-01 23:01:25.57	29.30	16.12	-38.8	-40.9	16.8	0.00e+00	0	56	0	176160768	49	4517
2026-01-01 23:01:26.58	29.39	16.22	-38.8	-40.9	16.8	0.00e+00	0	56	0	177209344	49	4523
2026-01-01 23:01:27.59	29.47	16.33	-38.8	-40.9	16.8	0.00e+00	0	55	0	179306496	49	4514
2026-01-01 23:01:28.60	29.56	16.43	-38.9	-41.0	16.7	0.00e+00	0	55	0	181403648	49	4592
2026-01-01 23:01:29.61	29.65	16.54	-38.8	-40.9	16.8	0.00e+00	0	56	0	183500800	49	4529
2026-01-01 23:01:30.62	29.73	16.64	-38.8	-41.0	16.7	0.00e+00	0	56	0	185597952	49	4557
2026-01-01 23:01:31.63	29.82	16.75	-38.9	-41.1	16.6	0.00e+00	0	55	0	186646528	49	4633
2026-01-01 23:01:32.64	29.91	16.85	-38.9	-41.1	16.7	0.00e+00	0	56	0	188743680	49	4627
2026-01-01 23:01:33.65	30.00	16.96	-39.0	-41.1	16.6	0.00e+00	0	56	0	190840832	49	4639
2026-01-01 23:01:34.66	30.09	17.07	-39.1	-41.3	16.5	0.00e+00	0	56	0	192937984	49	4715
2026-01-01 23:01:35.67	30.18	17.18	-39.1	-41.3	16.5	0.00e+00	0	56	0	195035136	49	4738
2026-01-01 23:01:36.67	30.27	17.28	-39.1	-41.3	16.5	0.00e+00	0	56	0	196083712	49	4752
2026-01-01 23:01:37.68	30.36	17.39	-39.1	-41.4	16.4	0.00e+00	0	56	0	198180864	49	4771
2026-01-01 23:01:38.69	30.45	17.50	-39.2	-41.4	16.4	0.00e+00	0	55	0	200278016	49	4799
2026-01-01 23:01:39.70	30.55	17.61	-39.2	-41.4	16.4	0.00e+00	0	55	0	202375168	49	4800
2026-01-01 23:01:40.71	30.64	17.72	-39.2	-41.5	16.3	0.00e+00	0	56	0	204472320	49	4849
2026-01-01 23:01:41.72	30.73	17.83	-39.2	-41.5	16.3	0.00e+00	0	56	0	205520896	49	4852
2026-01-01 23:01:42.73	30.83	17.94	-39.3	-41.5	16.3	0.00e+00	0	55	0	207618048	49	4860
2026-01-01 23:01:43.74	30.92	18.05	-39.3	-41.5	16.3	0.00e+00	0	56	0	209715200	49	4862
2026-01-01 23:01:44.75	31.02	18.16	-39.2	-41.5	16.4	0.00e+00	0	56	0	211812352	49	4825
2026-01-01 23:01:45.76	31.12	18.27	-39.3	-41.5	16.3	0.00e+00	0	56	0	213909504	49	4840
2026-01-01 23:01:46.77	31.21	18.39	-39.3	-41.5	16.3	0.00e+00	0	56	0	214958080	49	4850
2026-01-01 23:01:47.78	31.31	18.50	-39.2	-41.4	16.4	0.00e+00	0	56	0	217055232	49	4810
2026-01-01 23:01:48.79	31.41	18.61	-39.3	-41.6	16.3	0.00e+00	0	56	0	219152384	49	4872
2026-01-01 23:01:49.80	31.51	18.73	-39.3	-41.6	16.2	0.00e+00	0	56	0	221249536	49	4905
2026-01-01 23:01:50.81	31.61	18.84	-39.4	-41.6	16.2	0.00e+00	0	56	0	223346688	49	4912
2026-01-01 23:01:51.82	31.71	18.95	-39.4	-41.7	16.1	0.00e+00	0	56	0	224395264	49	4955
2026-01-01 23:01:52.83	31.81	19.07	-39.5	-41.8	16.1	0.00e+00	0	56	0	226492416	49	5005
2026-01-01 23:01:53.84	31.92	19.18	-39.4	-41.8	16.1	0.00e+00	0	56	0	228589568	49	4987
2026-01-01 23:01:54.85	32.02	19.30	-39.4	-41.7	16.2	0.00e+00	0	56	0	230686720	49	4957
2026-01-01 23:01:55.86	32.12	19.42	-39.5	-41.8	16.1	0.00e+00	0	56	0	232783872	49	5015
2026-01-01 23:01:56.87	32.23	19.53	-39.4	-41.7	16.2	0.00e+00	0	56	0	234881024	49	4965
2026-01-01 23:01:57.88	32.33	19.65	-39.4	-41.7	16.2	0.00e+00	0	56	0	235929600	49	4973
2026-01-01 23:01:58.89	32.44	19.77	-39.4	-41.6	16.3	0.00e+00	0	56	0	238026752	49	4923
2026-01-01 23:01:59.90	32.55	19.89	-39.4	-41.7	16.2	0.00e+00	0	56	0	240123904	49	4941
2026-01-01 23:02:00.91	32.66	20.01	-39.3	-41.6	16.4	0.00e+00	0	56	0	242221056	49	4877
2026-01-01 23:02:01.92	32.76	20.13	-39.3	-41.5	16.4	0.00e+00	0	56	0	244318208	49	4848
2026-01-01 23:02:02.92	32.87	20.24	-39.2	-41.4	16.5	0.00e+00	0	56	0	245366784	49	4787
2026-01-01 23:02:03.94	32.98	20.36	-39.2	-41.4	16.5	0.00e+00	0	56	0	247463936	49	4795
2026-01-01 23:02:04.95	33.10	20.49	-39.2	-41.4	16.5	0.00e+00	0	56	0	249561088	49	4787
2026-01-01 23:02:05.95	33.21	20.61	-39.2	-41.4	16.6	0.00e+00	0	56	0	251658240	49	4768
2026-01-01 23:02:06.96	33.32	20.73	-39.2	-41.3	16.6	0.00e+00	0	56	0	253755392	49	4756
2026-01-01 23:02:07.97	33.43	20.85	-39.1	-41.3	16.7	0.00e+00	0	56	0	254803968	49	4725
2026-01-01 23:02:08.98	33.55	20.97	-39.1	-41.3	16.6	0.00e+00	0	56	0	256901120	49	4718
2026-01-01 23:02:09.99	33.66	21.09	-39.2	-41.4	16.6	0.00e+00	0	56	0	258998272	49	4761
2026-01-01 23:02:11.00	33.78	21.22	-39.2	-41.4	16.5	0.00e+00	0	56	0	261095424	49	4780
2026-01-01 23:02:12.01	33.90	21.34	-39.2	-41.4	16.6	0.00e+00	0	56	0	263192576	49	4777
2026-01-01 23:02:13.02	34.02	21.47	-39.1	-41.3	16.6	0.00e+00	0	56	0	264241152	49	4718
2026-01-01 23:02:14.03	34.13	21.59	-39.2	-41.3	16.6	0.00e+00	0	56	0	266338304	49	4756
2026-01-01 23:02:15.04	34.25	21.72	-39.2	-41.4	16.6	0.00e+00	0	56	0	268435456	49	4766
2026-01-01 23:02:16.05	34.38	21.84	-39.1	-41.2	16.7	0.00e+00	0	56	0	270532608	49	4677
2026-01-01 23:02:17.06	34.50	21.97	-39.1	-41.3	16.6	0.00e+00	0	56	0	272629760	49	4741
2026-01-01 23:02:18.07	34.62	22.10	-39.1	-41.3	16.7	0.00e+00	0	56	0	273678336	49	4725
2026-01-01 23:02:19.08	34.74	22.22	-39.2	-41.4	16.6	0.00e+00	0	56	0	275775488	49	4762
2026-01-01 23:02:20.09	34.87	22.35	-39.2	-41.3	16.6	0.00e+00	0	56	0	277872640	49	4745
2026-01-01 23:02:21.10	35.00	22.48	-39.2	-41.3	16.6	0.00e+00	0	56	0	279969792	49	4757
2026-01-01 23:02:22.11	35.12	22.61	-39.2	-41.4	16.6	0.00e+00	0	56	0	282066944	49	4802
2026-01-01 23:02:23.12	35.25	22.74	-39.3	-41.4	16.5	0.00e+00	0	56	0	283115520	49	4812
2026-01-01 23:02:24.13	35.38	22.87	-39.2	-41.4	16.6	0.00e+00	0	56	0	285212672	49	4807
2026-01-01 23:02:25.14	35.51	23.00	-39.2	-41.4	16.6	0.00e+00	0	56	0	287309824	49	4800
2026-01-01 23:02:26.15	35.64	23.13	-39.3	-41.4	16.6	0.00e+00	0	56	0	289406976	49	4811
2026-01-01 23:02:27.16	35.77	23.26	-39.3	-41.4	16.6	0.00e+00	0	57	0	291504128	49	4810
2026-01-01 23:02:28.17	35.91	23.40	-39.1	-41.3	16.7	0.00e+00	0	56	0	292552704	49	4717
2026-01-01 23:02:29.18	36.04	23.53	-39.1	-41.2	16.8	0.00e+00	0	56	0	294649856	49	4702
2026-01-01 23:02:30.19	36.18	23.66	-39.0	-41.1	16.9	0.00e+00	0	56	0	296747008	49	4650
2026-01-01 23:02:31.20	36.31	23.80	-39.0	-41.1	16.9	0.00e+00	0	56	0	298844160	49	4618
2026-01-01 23:02:32.21	36.45	23.93	-39.0	-41.1	16.9	0.00e+00	0	56	0	300941312	49	4622
2026-01-01 23:02:33.22	36.59	24.06	-39.1	-41.2	16.9	0.00e+00	0	56	0	303038464	49	4655
2026-01-01 23:02:34.23	36.73	24.20	-39.1	-41.2	16.9	0.00e+00	0	56	0	304087040	49	4665
2026-01-01 23:02:35.24	36.87	24.34	-39.1	-41.1	16.9	0.00e+00	0	56	0	306184192	49	4649
2026-01-01 23:02:36.25	37.01	24.47	-39.1	-41.2	16.8	0.00e+00	0	56	0	308281344	49	4676
2026-01-01 23:02:37.26	37.16	24.61	-39.1	-41.2	16.8	0.00e+00	0	56	0	310378496	49	4705
2026-01-01 23:02:38.27	37.30	24.75	-39.1	-41.2	16.9	0.00e+00	0	56	0	312475648	49	4682
2026-01-01 23:02:39.28	37.45	24.89	-39.2	-41.3	16.7	0.00e+00	0	56	0	313524224	49	4757
2026-01-01 23:02:40.29	37.59	25.02	-39.2	-41.4	16.7	0.00e+00	0	56	0	315621376	49	4765
2026-01-01 23:02:41.30	37.74	25.16	-39.2	-41.3	16.7	0.00e+00	0	56	0	317718528	49	4732
2026-01-01 23:02:42.31	37.89	25.30	-39.1	-41.2	16.8	0.00e+00	0	56	0	319815680	49	4698
2026-01-01 23:02:43.32	38.04	25.44	-39.1	-41.2	16.9	0.00e+00	0	56	0	321912832	49	4675
2026-01-01 23:02:44.33	38.20	25.58	-39.2	-41.3	16.8	0.00e+00	0	56	0	322961408	49	4713
2026-01-01 23:02:45.34	38.35	25.73	-39.1	-41.2	16.9	0.00e+00	0	56	0	325058560	49	4703
2026-01-01 23:02:46.35	38.50	25.87	-39.1	-41.2	16.9	0.00e+00	0	56	0	327155712	49	4659
2026-01-01 23:02:47.36	38.66	26.01	-39.1	-41.1	16.9	0.00e+00	0	56	0	329252864	49	4651
2026-01-01 23:02:48.37	38.82	26.15	-39.1	-41.2	16.9	0.00e+00	0	56	0	331350016	49	4670
2026-01-01 23:02:49.38	38.98	26.30	-39.1	-41.2	16.8	0.00e+00	0	56	0	332398592	49	4705
2026-01-01 23:02:50.39	39.14	26.44	-39.2	-41.4	16.7	0.00e+00	0	56	0	334495744	49	4778
2026-01-01 23:02:51.40	39.30	26.59	-39.4	-41.6	16.5	0.00e+00	0	56	0	336592896	49	4900
2026-01-01 23:02:52.41	39.46	26.73	-39.5	-41.8	16.3	0.00e+00	0	56	0	338690048	49	4997
2026-01-01 23:02:53.42	39.63	26.88	-39.6	-41.9	16.2	0.00e+00	0	57	0	340787200	49	5069
2026-01-01 23:02:54.42	39.79	27.02	-39.7	-42.1	16.0	0.00e+00	0	56	0	341835776	50	4880
2026-01-01 23:02:55.43	39.96	27.17	-39.8	-42.1	16.0	0.00e+00	0	57	0	343932928	50	4902
2026-01-01 23:02:56.44	40.13	27.31	-39.8	-42.2	15.9	0.00e+00	0	57	0	346030080	50	4955
2026-01-01 23:02:57.45	40.30	27.46	-39.9	-42.3	15.8	0.00e+00	0	56	0	348127232	50	5036
2026-01-01 23:02:58.46	40.47	27.61	-40.0	-42.5	15.7	0.00e+00	0	56	0	350224384	50	5106
2026-01-01 23:02:59.47	40.65	27.76	-40.1	-42.5	15.6	0.00e+00	0	56	0	351272960	50	5145
2026-01-01 23:03:00.48	40.82	27.91	-40.0	-42.4	15.7	0.00e+00	0	57	0	353370112	50	5075
2026-01-01 23:03:01.50	41.00	28.06	-40.1	-42.5	15.6	0.00e+00	0	56	0	355467264	50	5137
2026-01-01 23:03:02.51	41.18	28.21	-40.0	-42.4	15.7	0.00e+00	0	57	0	357564416	50	5061
2026-01-01 23:03:03.52	41.36	28.36	-40.1	-42.5	15.6	0.00e+00	0	57	0	359661568	50	5158
2026-01-01 23:03:04.53	41.55	28.51	-40.2	-42.8	15.4	0.00e+00	0	57	0	360710144	50	5280
2026-01-01 23:03:05.54	41.73	28.67	-40.2	-42.8	15.3	0.00e+00	0	56	0	362807296	51	4995
2026-01-01 23:03:06.55	41.91	28.82	-40.4	-43.0	15.1	0.00e+00	0	56	0	364904448	51	5126
2026-01-01 23:03:07.56	42.10	28.97	-40.4	-43.0	15.1	0.00e+00	0	57	0	367001600	51	5130
2026-01-01 23:03:08.57	42.29	29.13	-40.4	-43.0	15.1	0.00e+00	0	57	0	369098752	51	5150
2026-01-01 23:03:09.58	42.48	29.28	-40.4	-43.0	15.1	0.00e+00	0	57	0	371195904	51	5150
2026-01-01 23:03:10.59	42.68	29.44	-40.6	-43.4	14.7	0.00e+00	0	57	0	372244480	51	5367
2026-01-01 23:03:11.60	42.87	29.59	-40.6	-43.4	14.6	0.00e+00	0	57	0	374341632	52	5097
2026-01-01 23:03:12.61	43.07	29.75	-40.8	-43.7	14.3	1.50e-06	0	57	0	376438784	52	5250
2026-01-01 23:03:13.62	43.26	29.90	-41.0	-44.0	14.1	1.50e-06	0	56	0	378535936	52	5409
2026-01-01 23:03:14.62	43.46	30.06	-40.9	-43.9	14.2	2.20e-06	0	56	0	380633088	52	5346
2026-01-01 23:03:15.63	43.66	30.22	-40.8	-43.8	14.3	0.00e+00	0	57	0	381681664	52	5284
2026-01-01 23:03:16.65	43.87	30.37	-40.7	-43.5	14.6	7.00e-07	0	57	0	383778816	52	5108
2026-01-01 23:03:17.66	44.08	30.53	-40.5	-43.2	14.8	7.00e-07	0	57	0	385875968	52	4973
2026-01-01 23:03:18.67	44.28	30.69	-40.5	-43.2	14.9	7.00e-07	0	57	0	387973120	52	4933
2026-01-01 23:03:19.68	44.49	30.85	-40.4	-43.1	15.0	0.00e+00	0	57	0	390070272	52	4897
2026-01-01 23:03:20.69	44.71	31.01	-40.3	-42.9	15.2	0.00e+00	0	56	0	391118848	52	4781
2026-01-01 23:03:21.70	44.92	31.17	-40.2	-42.7	15.3	0.00e+00	0	57	0	393216000	52	4702
2026-01-01 23:03:22.71	45.14	31.33	-40.1	-42.6	15.5	0.00e+00	0	57	0	395313152	52	4610
2026-01-01 23:03:23.71	45.35	31.49	-40.2	-42.8	15.3	0.00e+00	0	57	0	397410304	52	4707
2026-01-01 23:03:24.72	45.57	31.65	-40.2	-42.8	15.2	0.00e+00	0	57	0	399507456	52	4746
2026-01-01 23:03:25.73	45.80	31.81	-40.3	-42.9	15.2	0.00e+00	0	57	0	400556032	52	4803
2026-01-01 23:03:26.74	46.02	31.98	-40.2	-42.8	15.3	0.00e+00	0	57	0	402653184	52	4744
2026-01-01 23:03:27.75	46.25	32.14	-40.1	-42.6	15.5	0.00e+00	0	57	0	404750336	52	4641
2026-01-01 23:03:28.76	46.48	32.30	-39.5	-42.3	15.7	0.00e+00	0	57	0	406847488	51	4712
2026-01-01 23:03:29.77	46.71	32.47	-40.0	-42.3	15.8	0.00e+00	0	57	0	408944640	51	4757
2026-01-01 23:03:30.78	46.94	32.63	-39.9	-42.3	15.9	0.00e+00	0	57	0	409993216	51	4735
2026-01-01 23:03:31.79	47.18	32.79	-39.9	-42.3	15.9	0.00e+00	0	57	0	412090368	51	4707
2026-01-01 23:03:32.80	47.42	32.96	-39.9	-42.3	15.9	0.00e+00	0	57	0	414187520	51	4718
2026-01-01 23:03:33.81	47.66	33.12	-39.9	-42.3	15.9	0.00e+00	0	57	0	416284672	51	4710
2026-01-01 23:03:34.82	47.90	33.29	-40.0	-42.4	15.8	0.00e+00	0	57	0	418381824	51	4763
2026-01-01 23:03:35.83	48.15	33.45	-39.9	-42.3	15.9	0.00e+00	0	57	0	419430400	51	4743
2026-01-01 23:03:36.84	48.40	33.62	-40.0	-42.3	15.8	0.00e+00	0	57	0	421527552	51	4753
2026-01-01 23:03:37.85	48.65	33.79	-39.9	-42.3	15.8	0.00e+00	0	57	0	423624704	51	4737
2026-01-01 23:03:38.86	48.90	33.95	-40.0	-42.4	15.8	0.00e+00	0	57	0	425721856	51	4785
2026-01-01 23:03:39.87	49.16	34.12	-40.0	-42.4	15.8	0.00e+00	0	57	0	427819008	51	4797
2026-01-01 23:03:40.88	49.41	34.29	-40.1	-42.5	15.6	0.00e+00	0	57	0	428867584	51	4860
2026-01-01 23:03:41.89	49.68	34.46	-40.1	-42.6	15.6	0.00e+00	0	57	0	430964736	51	4886
2026-01-01 23:03:42.90	49.94	34.62	-40.2	-42.7	15.5	0.00e+00	0	57	0	433061888	51	4950
2026-01-01 23:03:43.91	50.21	34.79	-40.1	-42.5	15.7	0.00e+00	0	57	0	435159040	51	4850
2026-01-01 23:03:44.92	50.48	34.96	-40.0	-42.3	15.8	0.00e+00	0	57	0	437256192	51	4759
2026-01-01 23:03:45.93	50.75	35.13	-39.9	-42.2	16.0	0.00e+00	0	57	0	439353344	51	4669
2026-01-01 23:03:46.94	51.02	35.30	-40.0	-42.4	15.8	0.00e+00	0	57	0	440401920	51	4785
2026-01-01 23:03:47.95	51.30	35.47	-40.0	-42.4	15.7	0.00e+00	0	57	0	442499072	51	4798
2026-01-01 23:03:48.96	51.58	35.64	-40.2	-42.7	15.5	0.00e+00	0	57	0	444596224	51	4938
2026-01-01 23:03:49.97	51.86	35.80	-40.2	-42.8	15.4	0.00e+00	0	57	0	446693376	51	4989
2026-01-01 23:03:50.98	52.15	35.97	-40.2	-42.7	15.5	0.00e+00	0	57	0	448790528	51	4953
2026-01-01 23:03:51.99	52.44	36.14	-40.1	-42.5	15.7	0.00e+00	0	57	0	449839104	51	4852
2026-01-01 23:03:53.00	52.73	36.31	-39.7	-42.0	16.2	0.00e+00	0	57	0	451936256	51	4571
2026-01-01 23:03:54.01	53.03	36.48	-39.3	-41.4	16.8	0.00e+00	0	57	0	454033408	50	4523
2026-01-01 23:03:55.02	53.32	36.65	-39.1	-41.2	17.0	0.00e+00	0	57	0	456130560	50	4403
2026-01-01 23:03:56.03	53.62	36.82	-38.8	-40.8	17.4	0.00e+00	0	57	0	458227712	49	4462
2026-01-01 23:03:57.03	53.93	36.99	-39.0	-41.0	17.3	0.00e+00	0	57	0	459276288	49	4563
2026-01-01 23:03:58.05	54.24	37.16	-39.1	-41.2	17.0	0.00e+00	0	57	0	461373440	49	4663
2026-01-01 23:03:59.05	54.54	37.33	-39.3	-41.5	16.7	0.00e+00	0	57	0	463470592	49	4836
2026-01-01 23:04:00.06	54.86	37.50	-39.6	-41.8	16.4	0.00e+00	0	57	0	465567744	49	5007
2026-01-01 23:04:01.07	55.18	37.67	-39.7	-41.9	16.2	0.00e+00	0	57	0	467664896	49	5087
2026-01-01 23:04:02.08	55.50	37.84	-39.6	-41.8	16.5	0.00e+00	0	57	0	468713472	49	4986
2026-01-01 23:04:03.09	55.82	38.01	-39.5	-41.8	16.4	0.00e+00	0	57	0	470810624	49	4990
2026-01-01 23:04:04.10	56.15	38.18	-39.4	-41.5	16.7	0.00e+00	0	57	0	472907776	49	4859
2026-01-01 23:04:05.11	56.48	38.35	-39.3	-41.4	16.8	0.00e+00	0	57	0	475004928	49	4804
2026-01-01 23:04:06.12	56.81	38.51	-39.2	-41.3	16.9	0.00e+00	0	57	0	477102080	49	4730
2026-01-01 23:04:07.13	57.15	38.68	-39.1	-41.1	17.1	0.00e+00	0	57	0	478150656	49	4630
2026-01-01 23:04:08.14	57.49	38.85	-39.1	-41.2	17.1	0.00e+00	0	57	0	480247808	49	4672
2026-01-01 23:04:09.15	57.83	39.02	-39.2	-41.3	16.9	0.00e+00	0	57	0	482344960	49	4742
2026-01-01 23:04:10.16	58.18	39.19	-39.3	-41.5	16.8	0.00e+00	0	57	0	484442112	49	4815
2026-01-01 23:04:11.17	58.53	39.35	-39.5	-41.7	16.5	0.00e+00	0	57	0	486539264	49	4950
2026-01-01 23:04:12.18	58.89	39.52	-39.8	-42.1	16.2	0.00e+00	0	57	0	487587840	50	4879
2026-01-01 23:04:13.19	59.24	39.69	-40.0	-42.3	15.9	0.00e+00	0	57	0	489684992	50	5040
2026-01-01 23:04:14.20	59.61	39.85	-40.0	-42.4	15.9	0.00e+00	0	57	0	491782144	50	5061
2026-01-01 23:04:15.21	59.97	40.02	-40.0	-42.3	15.9	0.00e+00	0	57	0	493879296	50	5018
2026-01-01 23:04:16.22	60.34	40.18	-39.8	-42.1	16.1	0.00e+00	0	57	0	495976448	50	4901
2026-01-01 23:04:17.23	60.72	40.35	-39.6	-41.9	16.4	0.00e+00	0	57	0	497025024	50	4768
2026-01-01 23:04:18.24	61.09	40.51	-39.5	-41.7	16.5	0.00e+00	0	57	0	499122176	50	4673
2026-01-01 23:04:19.25	61.47	40.68	-39.3	-41.4	16.9	0.00e+00	0	57	0	501219328	50	4506
2026-01-01 23:04:20.26	61.86	40.84	-39.3	-41.4	16.9	0.00e+00	0	57	0	503316480	50	4512
2026-01-01 23:04:21.27	62.25	41.00	-39.4	-41.5	16.8	0.00e+00	0	57	0	505413632	50	4546
2026-01-01 23:04:22.28	62.64	41.16	-39.5	-41.6	16.7	0.00e+00	0	57	0	507510784	50	4629
2026-01-01 23:04:23.29	63.03	41.32	-39.2	-41.3	16.9	0.00e+00	0	57	0	508559360	50	4480
2026-01-01 23:04:24.30	63.43	41.48	-39.1	-41.1	17.2	0.00e+00	0	57	0	510656512	50	4360
2026-01-01 23:04:25.31	63.84	41.64	-39.0	-40.9	17.3	0.00e+00	0	57	0	512753664	49	4545
2026-01-01 23:04:26.32	64.25	41.80	-39.1	-41.1	17.2	0.00e+00	0	57	0	514850816	49	4609
2026-01-01 23:04:27.33	64.66	41.96	-39.1	-41.1	17.2	0.00e+00	0	57	0	516947968	49	4618
2026-01-01 23:04:28.34	65.07	42.11	-39.1	-41.2	17.1	0.00e+00	0	57	0	517996544	49	4660
2026-01-01 23:04:29.35	65.49	42.27	-39.3	-41.3	16.9	0.00e+00	0	57	0	520093696	49	4754
2026-01-01 23:04:30.36	65.92	42.42	-39.3	-41.4	16.8	0.00e+00	0	57	0	522190848	49	4782
2026-01-01 23:04:31.37	66.35	42.57	-39.3	-41.3	16.9	0.00e+00	0	57	0	524288000	49	4757
2026-01-01 23:04:32.37	66.77	42.72	-39.4	-41.5	16.8	0.00e+00	0	57	0	526385152	49	4819
2026-01-01 23:04:33.38	67.21	42.87	-39.5	-41.7	16.6	0.00e+00	0	57	0	527433728	49	4927
2026-01-01 23:04:34.39	67.65	43.02	-39.8	-42.0	16.2	0.00e+00	0	57	0	529530880	50	4856
2026-01-01 23:04:35.40	68.09	43.17	-40.1	-42.5	15.8	0.00e+00	0	57	0	531628032	50	5106
2026-01-01 23:04:36.41	68.54	43.32	-40.1	-42.5	15.8	0.00e+00	0	57	0	533725184	50	5134
2026-01-01 23:04:37.42	68.99	43.46	-40.1	-42.5	15.8	0.00e+00	0	57	0	535822336	50	5140
2026-01-01 23:04:38.43	69.45	43.61	-40.2	-42.6	15.7	0.00e+00	0	57	0	536870912	51	4902
2026-01-01 23:04:39.44	69.91	43.75	-40.2	-42.7	15.6	0.00e+00	0	57	0	538968064	51	4935
2026-01-01 23:04:40.45	70.38	43.89	-40.2	-42.7	15.7	0.00e+00	0	57	0	541065216	51	4929
2026-01-01 23:04:41.46	70.84	44.03	-40.2	-42.7	15.7	0.00e+00	0	57	0	543162368	51	4934
2026-01-01 23:04:42.47	71.32	44.17	-40.4	-43.0	15.3	0.00e+00	0	57	0	545259520	51	5106
2026-01-01 23:04:43.48	71.79	44.31	-40.7	-43.5	14.7	0.00e+00	0	57	0	546308096	52	5105
2026-01-01 23:04:44.49	72.27	44.44	-40.8	-43.5	14.7	1.50e-06	0	57	0	548405248	52	5157
2026-01-01 23:04:45.50	72.76	44.57	-40.5	-43.1	15.0	7.00e-07	0	57	0	550502400	52	4925
2026-01-01 23:04:46.51	73.25	44.70	-40.3	-42.8	15.4	0.00e+00	0	57	0	552599552	52	4717
2026-01-01 23:04:47.52	73.74	44.83	-40.2	-42.6	15.7	0.00e+00	0	57	0	554696704	52	4641
2026-01-01 23:04:48.53	74.24	44.96	-40.2	-42.6	15.6	0.00e+00	0	57	0	555745280	52	4639
2026-01-01 23:04:49.54	74.74	45.09	-40.2	-42.7	15.4	0.00e+00	0	58	0	557842432	52	4687
2026-01-01 23:04:50.55	75.24	45.21	-40.3	-42.9	15.3	0.00e+00	0	57	0	559939584	52	4769
2026-01-01 23:04:51.56	75.75	45.33	-40.7	-43.4	14.8	0.00e+00	0	57	0	562036736	52	5073
2026-01-01 23:04:52.57	76.26	45.45	-41.0	-44.0	14.3	1.50e-06	0	57	0	564133888	52	5407
2026-01-01 23:04:53.58	76.78	45.57	-41.1	-44.2	14.0	0.00e+00	0	57	0	565182464	52	5531
2026-01-01 23:04:54.59	77.30	45.68	-41.0	-43.9	14.2	2.20e-06	0	57	0	567279616	53	5059
2026-01-01 23:04:55.59	77.82	45.79	-40.6	-43.4	14.8	0.00e+00	0	57	0	569376768	53	4761
2026-01-01 23:04:56.60	78.34	45.90	-40.5	-43.1	15.0	0.00e+00	0	57	0	571473920	53	4644
2026-01-01 23:04:57.61	78.88	46.01	-40.7	-43.5	14.8	0.00e+00	0	57	0	573571072	53	4837
2026-01-01 23:04:58.62	79.41	46.12	-40.7	-43.5	14.7	7.00e-07	0	57	0	575668224	53	4845
2026-01-01 23:04:59.63	79.95	46.22	-40.6	-43.2	15.0	0.00e+00	0	57	0	576716800	53	4693
2026-01-01 23:05:00.64	80.49	46.32	-40.6	-43.3	14.8	7.00e-07	0	57	0	578813952	53	4742
2026-01-01 23:05:01.65	81.03	46.42	-41.0	-43.9	14.4	0.00e+00	0	57	0	580911104	53	5047
2026-01-01 23:05:02.66	81.58	46.52	-41.1	-44.1	14.1	0.00e+00	0	57	0	583008256	53	5190
2026-01-01 23:05:03.67	82.13	46.61	-40.9	-43.8	14.4	7.00e-07	0	57	0	585105408	53	5006
2026-01-01 23:05:04.68	82.69	46.70	-40.4	-43.0	15.2	0.00e+00	0	57	0	586153984	52	4842
2026-01-01 23:05:05.69	83.25	46.79	-40.2	-42.7	15.6	0.00e+00	0	57	0	588251136	52	4668
2026-01-01 23:05:06.70	83.81	46.87	-40.2	-42.6	15.6	0.00e+00	0	57	0	590348288	52	4648
2026-01-01 23:05:07.71	84.37	46.95	-40.1	-42.5	15.8	0.00e+00	0	57	0	592445440	51	4842
2026-01-01 23:05:08.72	84.94	47.03	-40.0	-42.3	16.0	0.00e+00	0	57	0	594542592	51	4745
2026-01-01 23:05:09.73	85.51	47.11	-40.1	-42.4	16.0	0.00e+00	0	57	0	595591168	51	4786
2026-01-01 23:05:10.74	86.08	47.18	-40.1	-42.4	15.9	0.00e+00	0	57	0	597688320	51	4807
2026-01-01 23:05:11.75	86.66	47.25	-40.3	-42.8	15.5	0.00e+00	0	57	0	599785472	51	5011
2026-01-01 23:05:12.76	87.24	47.32	-40.6	-43.3	14.9	0.00e+00	0	57	0	601882624	52	5024
2026-01-01 23:05:13.77	87.82	47.39	-41.2	-44.2	14.0	0.00e+00	0	57	0	603979776	52	5577
2026-01-01 23:05:14.78	88.40	47.45	-41.3	-44.5	13.6	4.50e-06	0	57	0	605028352	53	5448
2026-01-01 23:05:15.79	88.98	47.51	-40.8	-43.7	14.6	7.00e-07	0	57	0	607125504	53	4935
2026-01-01 23:05:16.80	89.57	47.56	-40.3	-42.8	15.5	0.00e+00	0	57	0	609222656	52	4707
2026-01-01 23:05:17.81	90.16	47.61	-40.4	-42.9	15.3	0.00e+00	0	57	0	611319808	52	4793
2026-01-01 23:05:18.82	90.75	47.66	-40.4	-43.0	15.4	0.00e+00	0	57	0	613416960	52	4829
2026-01-01 23:05:19.83	91.34	47.71	-40.8	-43.6	14.6	0.00e+00	0	57	0	614465536	52	5196
2026-01-01 23:05:20.84	91.94	47.75	-40.9	-43.7	14.5	1.50e-06	0	57	0	616562688	52	5237
2026-01-01 23:05:21.85	92.53	47.79	-40.7	-43.5	14.8	0.00e+00	0	57	0	618659840	52	5105
2026-01-01 23:05:22.86	93.13	47.83	-40.3	-42.8	15.5	7.00e-07	0	57	0	620756992	52	4758
2026-01-01 23:05:23.87	93.73	47.86	-39.9	-42.2	16.2	0.00e+00	0	57	0	622854144	51	4668
2026-01-01 23:05:24.88	94.33	47.89	-39.6	-41.7	16.7	0.00e+00	0	57	0	623902720	50	4677
2026-01-01 23:05:25.89	94.93	47.92	-39.4	-41.5	16.9	0.00e+00	0	57	0	625999872	50	4582
2026-01-01 23:05:26.90	95.53	47.94	-39.5	-41.6	16.7	0.00e+00	0	57	0	628097024	50	4610
2026-01-01 23:05:27.91	96.14	47.96	-39.6	-41.7	16.6	0.00e+00	0	57	0	630194176	50	4689
2026-01-01 23:05:28.92	96.74	47.98	-39.7	-41.9	16.4	0.00e+00	0	57	0	632291328	50	4775
2026-01-01 23:05:29.93	97.34	47.99	-39.8	-42.0	16.3	0.00e+00	0	57	0	633339904	50	4843
2026-01-01 23:05:30.94	97.95	48.00	-39.8	-42.1	16.2	0.00e+00	0	57	0	635437056	50	4913
2026-01-01 23:05:31.95	98.55	48.00	-40.0	-42.4	16.0	0.00e+00	0	57	0	637534208	50	5053
2026-01-01 23:05:32.96	99.16	48.01	-40.1	-42.5	15.9	0.00e+00	0	57	0	639631360	50	5136
2026-01-01 23:05:33.97	99.76	48.01	-40.1	-42.5	15.9	0.00e+00	0	57	0	641728512	50	5103
2026-01-01 23:05:34.98	100.37	48.00	-40.1	-42.5	15.8	0.00e+00	0	57	0	643825664	51	4837
2026-01-01 23:05:35.99	100.97	47.99	-40.1	-42.4	15.9	0.00e+00	0	57	0	644874240	51	4810
2026-01-01 23:05:37.00	101.58	47.98	-40.1	-42.5	15.8	0.00e+00	0	57	0	646971392	51	4838
2026-01-01 23:05:38.01	102.18	47.97	-40.1	-42.5	15.8	0.00e+00	0	57	0	649068544	51	4851
2026-01-01 23:05:39.02	102.79	47.95	-39.9	-42.3	16.0	0.00e+00	0	57	0	651165696	51	4721
2026-01-01 23:05:40.03	103.39	47.93	-39.9	-42.2	16.1	0.00e+00	0	58	0	653262848	51	4674
2026-01-01 23:05:41.04	103.99	47.91	-40.2	-42.6	15.8	0.00e+00	0	58	0	654311424	51	4876
2026-01-01 23:05:42.05	104.59	47.88	-40.3	-42.8	15.5	0.00e+00	0	57	0	656408576	51	5035
2026-01-01 23:05:43.06	105.19	47.85	-40.6	-43.2	15.1	0.00e+00	0	57	0	658505728	51	5267
2026-01-01 23:05:44.07	105.79	47.81	-40.6	-43.3	15.0	0.00e+00	0	57	0	660602880	52	5012
2026-01-01 23:05:45.08	106.39	47.77	-40.3	-42.8	15.4	0.00e+00	0	57	0	662700032	52	4756
2026-01-01 23:05:46.09	106.98	47.73	-40.1	-42.5	15.7	0.00e+00	0	57	0	663748608	52	4581
2026-01-01 23:05:47.10	107.58	47.69	-40.1	-42.6	15.6	0.00e+00	0	57	0	665845760	52	4606
2026-01-01 23:05:48.11	108.17	47.64	-40.3	-42.8	15.4	0.00e+00	0	57	0	667942912	52	4751
2026-01-01 23:05:49.12	108.76	47.59	-40.3	-42.8	15.5	0.00e+00	0	57	0	670040064	52	4707
2026-01-01 23:05:50.13	109.35	47.54	-40.1	-42.5	15.8	0.00e+00	0	57	0	672137216	52	4565
2026-01-01 23:05:51.14	109.94	47.48	-39.9	-42.1	16.2	0.00e+00	0	57	0	673185792	51	4646
2026-01-01 23:05:52.15	110.52	47.42	-40.5	-43.0	15.3	0.00e+00	0	57	0	675282944	51	5153
2026-01-01 23:05:53.16	111.10	47.36	-41.0	-43.9	14.4	0.00e+00	0	57	0	677380096	52	5345
2026-01-01 23:05:54.17	111.68	47.29	-41.4	-44.6	13.5	7.60e-06	0	57	0	679477248	53	5478
2026-01-01 23:05:55.18	112.26	47.22	-41.0	-43.9	14.4	3.00e-06	0	57	0	681574400	53	5070
2026-01-01 23:05:56.19	112.83	47.15	-40.6	-43.3	14.9	0.00e+00	0	57	0	682622976	53	4756
2026-01-01 23:05:57.20	113.41	47.08	-40.8	-43.6	14.5	7.00e-07	0	57	0	684720128	53	4925
2026-01-01 23:05:58.20	113.97	47.00	-41.6	-44.9	13.3	4.50e-06	0	57	0	686817280	53	5689
2026-01-01 23:05:59.21	114.54	46.92	-42.0	-45.7	12.5	1.14e-04	0	58	0	688914432	54	5914
2026-01-01 23:06:00.22	115.10	46.83	-41.7	-45.0	13.1	9.30e-05	0	58	0	691011584	54	5439
2026-01-01 23:06:01.22	115.66	46.75	-41.6	-44.9	13.3	1.75e-05	0	57	0	692060160	54	5380
2026-01-01 23:06:02.23	116.21	46.66	-41.9	-45.4	12.8	3.58e-05	0	57	0	694157312	54	5708
2026-01-01 23:06:03.24	116.77	46.57	-42.3	-46.2	11.9	1.24e-04	0	58	0	696254464	55	5922
2026-01-01 23:06:04.25	117.32	46.47	-42.3	-46.2	12.0	4.12e-04	0	57	0	698351616	55	5885
2026-01-01 23:06:05.26	117.87	46.38	-42.1	-45.9	12.2	2.28e-04	0	58	0	700448768	55	5721
2026-01-01 23:06:06.27	118.41	46.28	-41.8	-45.2	13.0	7.70e-05	0	57	0	701497344	55	5275
2026-01-01 23:06:07.28	118.95	46.17	-41.5	-44.7	13.5	1.60e-05	0	57	0	703594496	54	5253
2026-01-01 23:06:08.29	119.49	46.07	-41.9	-45.4	12.9	1.98e-05	0	57	0	705691648	54	5697
2026-01-01 23:06:09.30	120.02	45.96	-42.5	-46.6	11.6	2.86e-04	0	57	0	707788800	55	6192
2026-01-01 23:06:10.31	120.55	45.85	-42.0	-45.7	12.5	3.41e-04	0	58	0	709885952	55	5545
2026-01-01 23:06:11.32	121.08	45.74	-40.7	-43.4	14.8	2.20e-06	0	57	0	711983104	53	4768
2026-01-01 23:06:12.33	121.60	45.63	-40.1	-42.6	15.7	0.00e+00	0	58	0	713031680	52	4606
2026-01-01 23:06:13.34	122.12	45.51	-40.1	-42.4	15.8	0.00e+00	0	57	0	715128832	52	4540
2026-01-01 23:06:14.35	122.64	45.39	-40.2	-42.6	15.7	0.00e+00	0	57	0	717225984	52	4625
2026-01-01 23:06:15.36	123.15	45.27	-39.9	-42.1	16.2	0.00e+00	0	57	0	719323136	51	4650
2026-01-01 23:06:16.37	123.66	45.15	-39.6	-41.7	16.6	0.00e+00	0	57	0	721420288	51	4436
2026-01-01 23:06:17.38	124.16	45.03	-39.5	-41.6	16.7	0.00e+00	0	57	0	722468864	50	4632
2026-01-01 23:06:18.38	124.66	44.90	-39.4	-41.4	16.9	0.00e+00	0	57	0	724566016	50	4540
2026-01-01 23:06:19.39	125.15	44.77	-39.8	-42.1	16.2	0.00e+00	0	57	0	726663168	50	4905
2026-01-01 23:06:20.40	125.64	44.64	-40.0	-42.2	16.1	0.00e+00	0	57	0	728760320	50	4983
2026-01-01 23:06:21.42	126.14	44.51	-39.7	-41.9	16.5	0.00e+00	0	57	0	730857472	50	4764
2026-01-01 23:06:22.43	126.62	44.37	-39.3	-41.4	16.9	0.00e+00	0	58	0	731906048	50	4529
2026-01-01 23:06:23.44	127.10	44.24	-39.3	-41.4	16.9	0.00e+00	0	58	0	734003200	50	4535
2026-01-01 23:06:24.44	127.57	44.10	-39.4	-41.5	16.9	0.00e+00	0	58	0	736100352	50	4564
2026-01-01 23:06:25.46	128.05	43.96	-38.7	-40.6	17.7	0.00e+00	0	57	0	738197504	49	4361
2026-01-01 23:06:26.47	128.52	43.82	-38.0	-39.8	18.6	0.00e+00	0	57	0	740294656	48	4197
2026-01-01 23:06:27.48	128.98	43.68	-38.1	-39.8	18.5	0.00e+00	0	57	0	741343232	48	4238
2026-01-01 23:06:28.48	129.44	43.54	-38.7	-40.6	17.7	0.00e+00	0	57	0	743440384	48	4636
2026-01-01 23:06:29.50	129.90	43.39	-39.2	-41.2	17.2	0.00e+00	0	57	0	745537536	48	4966
2026-01-01 23:06:30.50	130.34	43.24	-39.1	-41.1	17.2	0.00e+00	0	58	0	747634688	49	4618
2026-01-01 23:06:31.52	130.80	43.09	-38.9	-40.8	17.5	0.00e+00	0	57	0	749731840	49	4477
2026-01-01 23:06:32.52	131.23	42.95	-39.1	-41.1	17.3	0.00e+00	0	58	0	750780416	49	4628
2026-01-01 23:06:33.54	131.68	42.79	-39.3	-41.4	16.9	0.00e+00	0	58	0	752877568	49	4790
2026-01-01 23:06:34.55	132.11	42.64	-39.6	-41.8	16.6	0.00e+00	0	57	0	754974720	49	5009
2026-01-01 23:06:35.55	132.54	42.49	-39.5	-41.6	16.7	0.00e+00	0	58	0	757071872	49	4913
2026-01-01 23:06:36.57	132.97	42.34	-39.1	-41.1	17.3	0.00e+00	0	57	0	759169024	49	4615
2026-01-01 23:06:37.58	133.39	42.18	-39.0	-40.9	17.5	0.00e+00	0	58	0	760217600	49	4532
2026-01-01 23:06:38.59	133.81	42.02	-39.5	-41.6	16.8	0.00e+00	0	58	0	762314752	49	4896
2026-01-01 23:06:39.60	134.23	41.87	-40.2	-42.7	15.7	0.00e+00	0	58	0	764411904	50	5243
2026-01-01 23:06:40.61	134.64	41.71	-40.6	-43.3	15.1	0.00e+00	0	57	0	766509056	51	5281
2026-01-01 23:06:41.61	135.04	41.55	-39.7	-42.0	16.4	0.00e+00	0	58	0	768606208	51	4563
2026-01-01 23:06:42.63	135.45	41.39	-38.9	-40.9	17.4	0.00e+00	0	58	0	769654784	49	4496
2026-01-01 23:06:43.64	135.85	41.23	-38.9	-40.8	17.5	0.00e+00	0	57	0	771751936	49	4488
2026-01-01 23:06:44.65	136.24	41.07	-39.8	-42.0	16.3	0.00e+00	0	57	0	773849088	50	4862
2026-01-01 23:06:45.66	136.64	40.91	-40.6	-43.3	15.0	0.00e+00	0	58	0	775946240	51	5318
2026-01-01 23:06:46.67	137.02	40.74	-40.5	-43.1	15.3	0.00e+00	0	58	0	778043392	51	5161
2026-01-01 23:06:47.68	137.41	40.58	-39.9	-42.2	16.1	0.00e+00	0	57	0	780140544	51	4676
2026-01-01 23:06:48.69	137.79	40.41	-39.8	-42.1	16.3	0.00e+00	0	58	0	781189120	51	4605
2026-01-01 23:06:49.70	138.16	40.25	-40.1	-42.5	15.8	0.00e+00	0	57	0	783286272	51	4860
2026-01-01 23:06:50.71	138.54	40.08	-40.7	-43.4	15.0	0.00e+00	0	57	0	785383424	51	5342
2026-01-01 23:06:51.72	138.91	39.92	-41.2	-44.3	14.0	1.50e-06	0	57	0	787480576	52	5615
2026-01-01 23:06:52.73	139.27	39.75	-40.5	-43.2	15.0	7.00e-07	0	57	0	789577728	53	4666
2026-01-01 23:06:53.74	139.63	39.58	-39.6	-41.7	16.6	0.00e+00	0	58	0	790626304	51	4432
2026-01-01 23:06:54.75	139.99	39.42	-39.1	-41.1	17.2	0.00e+00	0	57	0	792723456	50	4388
2026-01-01 23:06:55.76	140.34	39.25	-39.5	-41.7	16.6	0.00e+00	0	57	0	794820608	50	4674
2026-01-01 23:06:56.76	140.69	39.08	-40.7	-43.5	14.7	0.00e+00	0	58	0	796917760	52	5142
2026-01-01 23:06:57.77	141.04	38.91	-42.0	-45.8	12.4	2.05e-05	0	57	0	799014912	54	5941
2026-01-01 23:06:58.78	141.38	38.74	-41.9	-45.6	12.5	2.69e-04	0	58	0	800063488	55	5521
2026-01-01 23:06:59.79	141.72	38.57	-40.7	-43.5	14.7	1.50e-06	0	58	0	802160640	53	4847
2026-01-01 23:07:00.81	142.06	38.40	-40.1	-42.5	15.7	0.00e+00	0	58	0	804257792	52	4586
2026-01-01 23:07:01.82	142.39	38.23	-40.3	-42.9	15.4	0.00e+00	0	58	0	806354944	52	4771
2026-01-01 23:07:02.83	142.72	38.06	-41.0	-44.0	14.3	7.00e-07	0	57	0	808452096	52	5423
2026-01-01 23:07:03.84	143.05	37.89	-41.7	-45.2	13.0	1.52e-05	0	57	0	809500672	53	5900
2026-01-01 23:07:04.85	143.37	37.72	-41.9	-45.6	12.5	9.68e-05	0	57	0	811597824	54	5847
2026-01-01 23:07:05.86	143.69	37.55	-41.3	-44.5	13.7	1.98e-05	0	57	0	813694976	54	5155
2026-01-01 23:07:06.87	144.01	37.38	-40.8	-43.5	14.6	7.00e-07	0	58	0	815792128	53	4861
2026-01-01 23:07:07.87	144.32	37.21	-40.4	-43.0	15.2	0.00e+00	0	58	0	817889280	52	4846
2026-01-01 23:07:08.88	144.63	37.04	-40.2	-42.7	15.5	0.00e+00	0	57	0	819986432	52	4658
2026-01-01 23:07:09.90	144.94	36.87	-40.5	-43.2	15.0	0.00e+00	0	57	0	821035008	52	4955
2026-01-01 23:07:10.90	145.24	36.70	-41.3	-44.5	13.7	0.00e+00	0	58	0	823132160	53	5446
2026-01-01 23:07:11.92	145.54	36.53	-41.9	-45.6	12.6	7.17e-05	0	58	0	825229312	54	5796
2026-01-01 23:07:12.93	145.84	36.36	-41.7	-45.2	12.9	9.68e-05	0	58	0	827326464	54	5579
2026-01-01 23:07:13.94	146.13	36.19	-41.0	-43.9	14.3	6.80e-06	0	57	0	829423616	54	4781
2026-01-01 23:07:14.95	146.42	36.02	-40.1	-42.5	15.7	0.00e+00	0	57	0	830472192	52	4580
2026-01-01 23:07:15.96	146.71	35.85	-39.9	-42.2	16.1	0.00e+00	0	58	0	832569344	51	4671
2026-01-01 23:07:16.97	147.00	35.68	-40.0	-42.4	15.9	0.00e+00	0	57	0	834666496	51	4780
2026-01-01 23:07:17.98	147.28	35.51	-40.5	-43.2	15.2	0.00e+00	0	57	0	836763648	51	5222
2026-01-01 23:07:18.98	147.56	35.34	-41.3	-44.5	13.7	1.50e-06	0	57	0	838860800	53	5417
2026-01-01 23:07:19.99	147.83	35.17	-41.9	-45.5	12.7	3.43e-05	0	58	0	839909376	54	5765
2026-01-01 23:07:21.00	148.11	35.00	-41.8	-45.4	12.7	1.04e-04	0	58	0	842006528	54	5680
2026-01-01 23:07:22.01	148.38	34.83	-40.9	-43.9	14.3	6.80e-06	0	57	0	844103680	53	5042
2026-01-01 23:07:23.02	148.65	34.66	-40.3	-42.8	15.4	0.00e+00	0	57	0	846200832	52	4746
2026-01-01 23:07:24.03	148.91	34.49	-39.9	-42.2	16.0	0.00e+00	0	58	0	848297984	51	4686
2026-01-01 23:07:25.04	149.18	34.32	-39.8	-42.0	16.2	0.00e+00	0	57	0	849346560	51	4581
2026-01-01 23:07:26.05	149.44	34.15	-39.9	-42.3	16.0	0.00e+00	0	58	0	851443712	51	4731
2026-01-01 23:07:27.06	149.69	33.99	-40.7	-43.5	14.7	0.00e+00	0	57	0	853540864	52	5119
2026-01-01 23:07:28.07	149.95	33.82	-41.6	-45.1	13.0	2.20e-06	0	58	0	855638016	53	5816
2026-01-01 23:07:29.08	150.20	33.65	-42.2	-46.2	11.8	2.72e-04	0	58	0	857735168	55	5920
2026-01-01 23:07:30.09	150.45	33.48	-42.1	-45.9	12.1	5.17e-04	0	58	0	858783744	55	5712
2026-01-01 23:07:31.10	150.70	33.32	-41.1	-44.2	14.0	8.46e-05	0	57	0	860880896	54	4931
2026-01-01 23:07:32.11	150.94	33.15	-40.2	-42.7	15.4	0.00e+00	0	57	0	862978048	52	4655
2026-01-01 23:07:33.12	151.19	32.98	-39.9	-42.2	16.0	0.00e+00	0	58	0	865075200	51	4682
2026-01-01 23:07:34.13	151.43	32.82	-39.9	-42.2	16.0	0.00e+00	0	58	0	867172352	51	4681
2026-01-01 23:07:35.14	151.67	32.65	-40.3	-42.8	15.4	0.00e+00	0	57	0	868220928	51	5040
2026-01-01 23:07:36.15	151.90	32.49	-40.9	-43.8	14.3	0.00e+00	0	57	0	870318080	52	5323
2026-01-01 23:07:37.16	152.13	32.32	-41.5	-44.8	13.3	5.30e-06	0	58	0	872415232	53	5602
2026-01-01 23:07:38.17	152.36	32.16	-41.5	-44.8	13.3	3.28e-05	0	58	0	874512384	53	5612
2026-01-01 23:07:39.18	152.59	32.00	-41.1	-44.2	13.9	8.30e-06	0	57	0	876609536	53	5229
2026-01-01 23:07:40.19	152.82	31.83	-40.6	-43.4	14.7	1.50e-06	0	58	0	877658112	53	4772
2026-01-01 23:07:41.20	153.04	31.67	-40.4	-43.0	15.1	0.00e+00	0	57	0	879755264	52	4860
2026-01-01 23:07:42.21	153.27	31.51	-40.0	-42.3	15.9	0.00e+00	0	57	0	881852416	51	4735
2026-01-01 23:07:43.22	153.49	31.34	-39.7	-41.9	16.3	0.00e+00	0	57	0	883949568	51	4527
2026-01-01 23:07:44.23	153.70	31.18	-39.9	-42.2	16.0	0.00e+00	0	58	0	886046720	51	4678
2026-01-01 23:07:45.24	153.92	31.02	-40.5	-43.2	15.0	0.00e+00	0	57	0	888143872	51	5243
2026-01-01 23:07:46.25	154.13	30.86	-41.0	-44.1	14.0	0.00e+00	0	58	0	889192448	52	5483
2026-01-01 23:07:47.26	154.34	30.70	-41.7	-45.2	12.9	6.80e-06	0	57	0	891289600	53	5911
2026-01-01 23:07:48.27	154.55	30.54	-41.9	-45.6	12.5	1.30e-04	0	58	0	893386752	54	5790
2026-01-01 23:07:49.28	154.76	30.38	-41.8	-45.5	12.5	1.31e-04	0	58	0	895483904	54	5756
2026-01-01 23:07:50.29	154.96	30.22	-41.4	-44.8	13.3	4.57e-05	0	57	0	897581056	54	5292
2026-01-01 23:07:51.30	155.17	30.06	-41.2	-44.4	13.6	5.30e-06	0	57	0	898629632	54	5084
2026-01-01 23:07:52.31	155.37	29.90	-40.7	-43.5	14.5	7.00e-07	0	58	0	900726784	53	4869
2026-01-01 23:07:53.32	155.57	29.75	-40.4	-43.1	15.0	0.00e+00	0	58	0	902823936	52	4906
2026-01-01 23:07:54.33	155.77	29.59	-40.6	-43.3	14.8	7.00e-07	0	57	0	904921088	52	5040
2026-01-01 23:07:55.34	155.96	29.43	-40.5	-43.2	14.9	7.00e-07	0	58	0	907018240	52	4960
2026-01-01 23:07:56.34	156.15	29.28	-40.7	-43.6	14.5	7.00e-07	0	57	0	908066816	52	5184
2026-01-01 23:07:57.35	156.35	29.12	-40.9	-43.8	14.3	7.00e-07	0	57	0	910163968	52	5315
2026-01-01 23:07:58.36	156.54	28.97	-41.0	-44.0	14.1	3.80e-06	0	57	0	912261120	52	5421
2026-01-01 23:07:59.38	156.73	28.81	-41.1	-44.2	13.8	2.20e-06	0	58	0	914358272	52	5573
2026-01-01 23:08:00.38	156.91	28.66	-40.9	-43.9	14.2	2.20e-06	0	58	0	916455424	52	5369
2026-01-01 23:08:01.39	157.10	28.51	-40.7	-43.5	14.5	2.20e-06	0	58	0	917504000	52	5119
2026-01-01 23:08:02.41	157.28	28.35	-40.4	-43.1	14.9	0.00e+00	0	57	0	919601152	52	4923
2026-01-01 23:08:03.41	157.46	28.20	-40.3	-42.9	15.2	0.00e+00	0	58	0	921698304	52	4766
2026-01-01 23:08:04.42	157.64	28.05	-40.0	-42.4	15.6	0.00e+00	0	58	0	923795456	52	4539
2026-01-01 23:08:05.43	157.82	27.90	-39.9	-42.3	15.9	0.00e+00	0	58	0	925892608	51	4714
2026-01-01 23:08:06.44	158.00	27.75	-39.8	-42.1	16.0	0.00e+00	0	58	0	926941184	51	4646
2026-01-01 23:08:07.45	158.17	27.60	-39.6	-41.8	16.3	0.00e+00	0	58	0	929038336	51	4493
2026-01-01 23:08:08.46	158.34	27.45	-39.7	-42.0	16.1	0.00e+00	0	58	0	931135488	51	4569
2026-01-01 23:08:09.47	158.52	27.30	-39.7	-42.1	16.0	0.00e+00	0	58	0	933232640	51	4607
2026-01-01 23:08:10.48	158.69	27.15	-39.7	-42.0	16.2	0.00e+00	0	58	0	935329792	51	4566
2026-01-01 23:08:11.49	158.86	27.00	-39.9	-42.2	15.9	0.00e+00	0	58	0	936378368	51	4685
2026-01-01 23:08:12.50	159.02	26.86	-40.0	-42.4	15.7	0.00e+00	0	58	0	938475520	51	4793
2026-01-01 23:08:13.51	159.19	26.71	-40.0	-42.5	15.6	0.00e+00	0	57	0	940572672	51	4820
2026-01-01 23:08:14.52	159.35	26.56	-40.2	-42.7	15.5	0.00e+00	0	58	0	942669824	51	4930
2026-01-01 23:08:15.53	159.51	26.42	-40.0	-42.4	15.7	0.00e+00	0	57	0	944766976	51	4788
2026-01-01 23:08:16.54	159.68	26.27	-40.0	-42.4	15.7	0.00e+00	0	57	0	945815552	51	4797
2026-01-01 23:08:17.55	159.84	26.13	-39.9	-42.2	15.8	0.00e+00	0	58	0	947912704	51	4705
2026-01-01 23:08:18.56	159.99	25.98	-39.8	-42.1	15.9	0.00e+00	0	58	0	950009856	51	4644
2026-01-01 23:08:19.57	160.15	25.84	-39.8	-42.2	15.9	0.00e+00	0	57	0	952107008	51	4653
2026-01-01 23:08:20.58	160.31	25.70	-39.6	-41.9	16.2	0.00e+00	0	58	0	954204160	51	4517
2026-01-01 23:08:21.59	160.46	25.55	-39.6	-41.9	16.2	0.00e+00	0	58	0	956301312	51	4537
2026-01-01 23:08:22.60	160.61	25.41	-39.8	-42.2	15.9	0.00e+00	0	58	0	957349888	51	4682
2026-01-01 23:08:23.61	160.77	25.27	-40.0	-42.5	15.6	0.00e+00	0	58	0	959447040	51	4825
2026-01-01 23:08:24.62	160.92	25.13	-40.2	-42.8	15.3	0.00e+00	0	58	0	961544192	51	4987
2026-01-01 23:08:25.63	161.07	24.99	-40.4	-43.1	15.0	0.00e+00	0	58	0	963641344	51	5169
2026-01-01 23:08:26.64	161.21	24.85	-40.6	-43.3	14.7	0.00e+00	0	58	0	965738496	51	5331
2026-01-01 23:08:27.65	161.36	24.71	-40.6	-43.4	14.7	0.00e+00	0	58	0	966787072	51	5367
2026-01-01 23:08:28.66	161.51	24.57	-40.5	-43.3	14.8	0.00e+00	0	58	0	968884224	51	5280
2026-01-01 23:08:29.66	161.65	24.44	-40.3	-42.9	15.2	0.00e+00	0	58	0	970981376	51	5078
2026-01-01 23:08:30.67	161.79	24.30	-40.0	-42.5	15.5	0.00e+00	0	58	0	973078528	51	4861
2026-01-01 23:08:31.68	161.93	24.16	-39.8	-42.2	15.8	0.00e+00	0	58	0	974127104	51	4696
2026-01-01 23:08:32.69	162.07	24.02	-39.5	-41.8	16.2	0.00e+00	0	58	0	976224256	51	4469
2026-01-01 23:08:33.70	162.21	23.89	-39.4	-41.6	16.4	0.00e+00	0	58	0	978321408	50	4626
2026-01-01 23:08:34.71	162.35	23.75	-39.3	-41.5	16.5	0.00e+00	0	58	0	980418560	50	4585
2026-01-01 23:08:35.72	162.49	23.62	-39.3	-41.4	16.6	0.00e+00	0	58	0	982515712	50	4539
2026-01-01 23:08:36.73	162.62	23.48	-39.5	-41.7	16.4	0.00e+00	0	58	0	984612864	50	4673
2026-01-01 23:08:37.74	162.76	23.35	-39.4	-41.7	16.4	0.00e+00	0	58	0	985661440	50	4663
2026-01-01 23:08:38.75	162.89	23.22	-39.5	-41.7	16.3	0.00e+00	0	58	0	987758592	50	4692
2026-01-01 23:08:39.76	163.02	23.08	-39.6	-41.9	16.1	0.00e+00	0	58	0	989855744	50	4784
2026-01-01 23:08:40.77	163.16	22.95	-39.6	-41.9	16.2	0.00e+00	0	58	0	991952896	50	4760
2026-01-01 23:08:41.77	163.28	22.82	-39.7	-42.0	16.0	0.00e+00	0	58	0	994050048	50	4869
2026-01-01 23:08:42.79	163.41	22.69	-39.8	-42.2	15.9	0.00e+00	0	58	0	995098624	50	4930
2026-01-01 23:08:43.80	163.54	22.56	-39.8	-42.1	15.8	0.00e+00	0	58	0	997195776	50	4925
2026-01-01 23:08:44.81	163.67	22.43	-39.9	-42.3	15.7	0.00e+00	0	58	0	999292928	50	5019
2026-01-01 23:08:45.82	163.80	22.30	-39.9	-42.3	15.7	0.00e+00	0	58	0	1001390080	50	5018
2026-01-01 23:08:46.82	163.92	22.17	-40.0	-42.4	15.6	0.00e+00	0	58	0	1003487232	50	5087
2026-01-01 23:08:47.83	164.04	22.04	-40.0	-42.5	15.5	0.00e+00	0	58	0	1004535808	50	5121
2026-01-01 23:08:48.84	164.17	21.91	-40.0	-42.5	15.5	0.00e+00	0	58	0	1006632960	50	5111
2026-01-01 23:08:49.85	164.29	21.79	-40.0	-42.5	15.6	0.00e+00	0	58	0	1008730112	50	5105
2026-01-01 23:08:50.86	164.41	21.66	-39.8	-42.2	15.8	0.00e+00	0	58	0	1010827264	50	4966
2026-01-01 23:08:51.87	164.53	21.53	-39.8	-42.2	15.8	0.00e+00	0	58	0	1012924416	50	4946
2026-01-01 23:08:52.88	164.65	21.41	-39.7	-42.1	15.9	0.00e+00	0	58	0	1013972992	50	4890
2026-01-01 23:08:53.89	164.77	21.28	-39.6	-42.0	16.0	0.00e+00	0	58	0	1016070144	50	4827
2026-01-01 23:08:54.90	164.89	21.16	-39.6	-41.9	16.0	0.00e+00	0	58	0	1018167296	50	4809
2026-01-01 23:08:55.91	165.00	21.03	-39.6	-41.8	16.1	0.00e+00	0	58	0	1020264448	50	4751
2026-01-01 23:08:56.92	165.12	20.91	-39.6	-41.9	16.1	0.00e+00	0	58	0	1022361600	50	4784
2026-01-01 23:08:57.93	165.23	20.79	-39.7	-42.1	15.9	0.00e+00	0	58	0	1023410176	50	4903
2026-01-01 23:08:58.94	165.35	20.66	-39.9	-42.3	15.7	0.00e+00	0	58	0	1025507328	50	5010
2026-01-01 23:08:59.95	165.46	20.54	-39.9	-42.4	15.6	0.00e+00	0	58	0	1027604480	50	5063
2026-01-01 23:09:00.94	165.57	20.42	-40.1	-42.6	15.3	0.00e+00	0	58	0	1029701632	50	5215
2026-01-01 23:09:01.95	165.68	20.30	-40.2	-42.8	15.1	0.00e+00	0	58	0	1031798784	50	5311
2026-01-01 23:09:02.96	165.79	20.18	-40.3	-43.1	14.9	0.00e+00	0	58	0	1032847360	51	5160
2026-01-01 23:09:03.97	165.90	20.06	-40.4	-43.2	14.7	0.00e+00	0	58	0	1034944512	51	5234
2026-01-01 23:09:04.97	166.01	19.94	-40.5	-43.3	14.7	0.00e+00	0	58	0	1037041664	51	5280
2026-01-01 23:09:05.98	166.12	19.82	-40.5	-43.3	14.6	0.00e+00	0	58	0	1039138816	51	5330
2026-01-01 23:09:06.99	166.22	19.70	-40.6	-43.4	14.5	0.00e+00	0	58	0	1041235968	51	5391
2026-01-01 23:09:08.00	166.33	19.58	-40.5	-43.4	14.6	7.00e-07	0	58	0	1042284544	51	5354
2026-01-01 23:09:09.01	166.44	19.46	-40.4	-43.1	14.7	0.00e+00	0	58	0	1044381696	51	5218
2026-01-01 23:09:10.02	166.54	19.35	-40.3	-43.1	14.9	0.00e+00	0	58	0	1046478848	51	5173
2026-01-01 23:09:11.03	166.64	19.23	-40.2	-42.8	15.1	0.00e+00	0	58	0	1048576000	51	5039
2026-01-01 23:09:12.04	166.75	19.11	-39.9	-42.4	15.5	0.00e+00	0	57	0	1050673152	51	4789
2026-01-01 23:09:13.05	166.85	18.99	-39.8	-42.2	15.7	0.00e+00	0	58	0	1052770304	51	4688
2026-01-01 23:09:14.06	166.95	18.88	-39.7	-42.1	15.8	0.00e+00	0	58	0	1053818880	51	4606
2026-01-01 23:09:15.07	167.05	18.76	-39.6	-41.9	16.0	0.00e+00	0	58	0	1055916032	51	4527
2026-01-01 23:09:16.08	167.15	18.65	-39.6	-41.9	16.0	0.00e+00	0	57	0	1058013184	51	4515
2026-01-01 23:09:17.09	167.25	18.53	-39.6	-41.9	15.9	0.00e+00	0	58	0	1060110336	51	4544
2026-01-01 23:09:18.10	167.35	18.42	-39.4	-41.7	16.2	0.00e+00	0	58	0	1062207488	50	4679
2026-01-01 23:09:19.11	167.45	18.31	-39.3	-41.6	16.3	0.00e+00	0	58	0	1063256064	50	4612
2026-01-01 23:09:20.12	167.55	18.19	-39.3	-41.5	16.4	0.00e+00	0	58	0	1065353216	50	4564
2026-01-01 23:09:21.12	167.64	18.08	-39.3	-41.5	16.4	0.00e+00	0	58	0	1067450368	50	4564
2026-01-01 23:09:22.13	167.74	17.97	-39.3	-41.5	16.3	0.00e+00	0	57	0	1069547520	50	4596
2026-01-01 23:09:23.14	167.83	17.86	-39.4	-41.7	16.2	0.00e+00	0	57	0	1071644672	50	4659
2026-01-01 23:09:24.15	167.93	17.75	-39.4	-41.7	16.1	0.00e+00	0	58	0	1072693248	50	4690
2026-01-01 23:09:25.16	168.02	17.64	-39.4	-41.7	16.1	0.00e+00	0	58	0	1074790400	50	4697
2026-01-01 23:09:26.17	168.12	17.52	-39.5	-41.9	16.0	0.00e+00	0	57	0	1076887552	50	4770
2026-01-01 23:09:27.18	168.21	17.41	-39.6	-41.9	15.9	0.00e+00	0	58	0	1078984704	50	4807
2026-01-01 23:09:28.19	168.30	17.30	-39.7	-42.1	15.8	0.00e+00	0	58	0	1081081856	50	4878
2026-01-01 23:09:29.20	168.39	17.20	-39.7	-42.1	15.7	0.00e+00	0	58	0	1082130432	50	4915
2026-01-01 23:09:30.21	168.48	17.09	-39.7	-42.1	15.8	0.00e+00	0	58	0	1084227584	50	4887
2026-01-01 23:09:31.22	168.57	16.98	-39.7	-42.1	15.8	0.00e+00	0	58	0	1086324736	50	4886
2026-01-01 23:09:32.23	168.66	16.87	-39.5	-41.9	15.9	0.00e+00	0	58	0	1088421888	50	4794
2026-01-01 23:09:33.24	168.75	16.76	-39.5	-41.8	16.0	0.00e+00	0	58	0	1090519040	50	4725
2026-01-01 23:09:34.25	168.84	16.66	-39.4	-41.8	16.1	0.00e+00	0	57	0	1091567616	50	4711
2026-01-01 23:09:35.26	168.93	16.55	-39.4	-41.6	16.2	0.00e+00	0	58	0	1093664768	50	4633
2026-01-01 23:09:36.27	169.02	16.44	-39.3	-41.5	16.3	0.00e+00	0	58	0	1095761920	50	4597
2026-01-01 23:09:37.28	169.10	16.34	-39.2	-41.5	16.4	0.00e+00	0	58	0	1097859072	50	4553
2026-01-01 23:09:38.28	169.19	16.23	-39.2	-41.4	16.4	0.00e+00	0	58	0	1099956224	50	4533
2026-01-01 23:09:39.30	169.27	16.13	-39.2	-41.4	16.4	0.00e+00	0	58	0	1101004800	50	4496
2026-01-01 23:09:40.30	169.36	16.02	-39.1	-41.3	16.5	0.00e+00	0	58	0	1103101952	50	4461
2026-01-01 23:09:41.31	169.44	15.92	-39.0	-41.2	16.6	0.00e+00	0	58	0	1105199104	50	4412
2026-01-01 23:09:42.32	169.53	15.81	-39.1	-41.2	16.5	0.00e+00	0	58	0	1107296256	50	4436
2026-01-01 23:09:43.33	169.61	15.71	-39.1	-41.2	16.5	0.00e+00	0	58	0	1109393408	50	4436
2026-01-01 23:09:44.34	169.69	15.61	-39.0	-41.2	16.5	0.00e+00	0	58	0	1110441984	50	4426
2026-01-01 23:09:45.35	169.77	15.50	-39.1	-41.3	16.4	0.00e+00	0	58	0	1112539136	50	4477
2026-01-01 23:09:46.36	169.85	15.40	-39.1	-41.3	16.4	0.00e+00	0	58	0	1114636288	50	4491
2026-01-01 23:09:47.37	169.94	15.30	-39.2	-41.4	16.3	0.00e+00	0	58	0	1116733440	50	4538
2026-01-01 23:09:48.38	170.02	15.20	-39.3	-41.5	16.3	0.00e+00	0	58	0	1118830592	50	4566
2026-01-01 23:09:49.39	170.10	15.10	-39.2	-41.5	16.2	0.00e+00	0	58	0	1120927744	50	4574
2026-01-01 23:09:50.40	170.18	14.99	-39.4	-41.7	16.0	0.00e+00	0	58	0	1121976320	50	4671
2026-01-01 23:09:51.41	170.25	14.89	-39.5	-41.8	15.9	0.00e+00	0	58	0	1124073472	50	4758
2026-01-01 23:09:52.42	170.33	14.79	-39.6	-42.0	15.7	0.00e+00	0	58	0	1126170624	50	4845
2026-01-01 23:09:53.43	170.41	14.69	-39.7	-42.2	15.5	0.00e+00	0	58	0	1128267776	50	4930
2026-01-01 23:09:54.44	170.49	14.59	-39.7	-42.2	15.5	0.00e+00	0	58	0	1130364928	50	4957
2026-01-01 23:09:55.45	170.56	14.50	-39.8	-42.4	15.3	0.00e+00	0	58	0	1131413504	50	5073
2026-01-01 23:09:56.46	170.64	14.40	-39.9	-42.5	15.2	0.00e+00	0	58	0	1133510656	50	5140
2026-01-01 23:09:57.46	170.72	14.30	-39.9	-42.6	15.1	0.00e+00	0	58	0	1135607808	50	5164
2026-01-01 23:09:58.47	170.79	14.20	-40.0	-42.6	15.1	0.00e+00	0	58	0	1137704960	50	5195
2026-01-01 23:09:59.48	170.87	14.10	-40.0	-42.7	14.9	0.00e+00	0	58	0	1138753536	50	5267
2026-01-01 23:10:00.49	170.94	14.01	-40.1	-42.8	14.8	0.00e+00	0	58	0	1140850688	50	5331
2026-01-01 23:10:01.50	171.02	13.91	-40.1	-42.8	14.8	0.00e+00	0	58	0	1142947840	50	5323
2026-01-01 23:10:02.51	171.09	13.81	-40.0	-42.7	14.9	0.00e+00	0	58	0	1145044992	50	5255
2026-01-01 23:10:03.52	171.16	13.72	-39.9	-42.6	15.1	0.00e+00	0	58	0	1147142144	50	5170
2026-01-01 23:10:04.53	171.23	13.62	-39.9	-42.5	15.1	0.00e+00	0	57	0	1149239296	50	5152
2026-01-01 23:10:05.54	171.31	13.52	-39.9	-42.5	15.1	0.00e+00	0	58	0	1150287872	50	5135
2026-01-01 23:10:06.55	171.38	13.43	-39.9	-42.5	15.1	0.00e+00	0	58	0	1152385024	50	5130
2026-01-01 23:10:07.56	171.45	13.33	-39.8	-42.3	15.3	0.00e+00	0	58	0	1154482176	50	5014
