passes_logs/2026/01/01/R2.0S_Moscow/R2.0S_Moscow__20260101_070735_FENGYUN_3G_rec.log

#Pass ID: 20260101_070735_FENGYUN 3G
#Satellite: FENGYUN 3G
#Configuration: FENGYUN 3G
#almurnet v.1.7.20251203
#Start time: 2026-01-01 07:07:36

#Version: 2.2.20231116
#Station: R2.0S_Moscow
#Location: 37.707566 lon 55.798166 lat
#TLE: 1 56232U 23055A   25365.50856095  .00043589  00000+0  69982-3 0  9997
#TLE: 2 56232  49.9923 130.6499 0004081 319.7782  40.2882 15.52545779153944

#Time	Az	El	Level	Level2	SNR	BER	BlckErr	Temp	State	Recorded	gain1	gain2
2026-01-01 07:07:36.27	264.16	2.05	-44.1	-62.4	3.8	8.46e-01	0	48	0	0	60	28443
2026-01-01 07:07:37.28	264.06	2.11	-44.1	-62.4	3.8	8.44e-01	0	48	104	0	60	28481
2026-01-01 07:07:38.29	263.96	2.17	-44.1	-62.4	3.8	8.46e-01	0	48	104	0	60	28407
2026-01-01 07:07:39.30	263.86	2.23	-44.1	-62.4	3.8	8.46e-01	0	48	104	0	60	28385
2026-01-01 07:07:40.31	263.76	2.29	-44.1	-62.4	3.8	8.46e-01	0	49	104	0	60	28381
2026-01-01 07:07:41.33	263.66	2.35	-44.1	-62.4	3.8	8.46e-01	0	49	104	0	60	28442
2026-01-01 07:07:42.34	263.56	2.41	-44.1	-62.4	3.8	8.47e-01	0	49	104	0	60	28405
2026-01-01 07:07:43.35	263.46	2.48	-44.1	-62.4	3.8	8.47e-01	0	49	104	0	60	28389
2026-01-01 07:07:44.36	263.35	2.54	-44.1	-62.4	3.8	8.46e-01	0	49	104	0	60	28425
2026-01-01 07:07:45.37	263.25	2.60	-44.1	-62.3	3.8	8.47e-01	0	49	104	0	60	28305
2026-01-01 07:07:46.38	263.15	2.66	-44.1	-62.4	3.8	8.47e-01	0	49	104	0	60	28433
2026-01-01 07:07:47.39	263.04	2.72	-44.1	-62.3	3.8	8.46e-01	0	49	104	0	60	28331
2026-01-01 07:07:48.40	262.94	2.78	-44.1	-62.4	3.8	8.46e-01	0	49	104	0	60	28371
2026-01-01 07:07:49.41	262.83	2.85	-44.1	-62.4	3.8	8.46e-01	0	49	104	0	60	28356
2026-01-01 07:07:50.42	262.73	2.91	-44.1	-62.3	3.8	8.46e-01	0	49	104	0	60	28306
2026-01-01 07:07:51.44	262.62	2.97	-44.1	-62.4	3.8	8.46e-01	0	49	104	0	60	28366
2026-01-01 07:07:52.45	262.51	3.03	-44.1	-62.4	3.8	8.47e-01	0	49	104	0	60	28359
2026-01-01 07:07:53.46	262.41	3.10	-44.1	-62.3	3.8	8.47e-01	0	50	104	0	60	28327
2026-01-01 07:07:54.47	262.30	3.16	-44.1	-62.3	3.8	8.46e-01	0	50	104	0	60	28249
2026-01-01 07:07:55.48	262.19	3.22	-44.1	-62.3	3.8	8.46e-01	0	50	104	0	60	28280
2026-01-01 07:07:56.49	262.08	3.29	-44.1	-62.3	3.8	8.46e-01	0	49	104	0	60	28303
2026-01-01 07:07:57.50	261.97	3.35	-44.1	-62.3	3.8	8.47e-01	0	49	104	0	60	28254
2026-01-01 07:07:58.51	261.86	3.41	-44.1	-62.3	3.8	8.46e-01	0	50	104	0	60	28249
2026-01-01 07:07:59.52	261.74	3.48	-44.1	-62.3	3.8	8.46e-01	0	50	104	0	60	28184
2026-01-01 07:08:00.54	261.63	3.54	-44.1	-62.3	3.8	8.46e-01	0	50	104	0	60	28125
2026-01-01 07:08:01.55	261.52	3.60	-44.1	-62.3	3.8	8.46e-01	0	50	104	0	60	28106
2026-01-01 07:08:02.56	261.40	3.67	-44.1	-62.3	3.8	8.47e-01	0	50	104	0	60	28050
2026-01-01 07:08:03.57	261.29	3.73	-44.1	-62.2	3.8	8.47e-01	0	50	104	0	60	28003
2026-01-01 07:08:04.58	261.17	3.80	-44.1	-62.2	3.8	8.47e-01	0	50	104	0	60	27904
2026-01-01 07:08:05.59	261.06	3.86	-44.1	-62.1	3.8	8.46e-01	0	50	104	0	60	27507
2026-01-01 07:08:06.60	260.94	3.92	-44.1	-62.1	3.8	8.46e-01	0	50	104	0	60	27410
2026-01-01 07:08:07.61	260.82	3.99	-44.1	-61.9	3.8	8.46e-01	0	50	104	0	60	26905
2026-01-01 07:08:08.62	260.70	4.05	-44.1	-61.8	3.8	8.46e-01	0	51	104	0	60	26761
2026-01-01 07:08:09.63	260.58	4.12	-44.1	-61.7	3.8	8.46e-01	0	50	104	0	60	26377
2026-01-01 07:08:10.65	260.46	4.18	-44.1	-61.7	3.8	8.47e-01	0	51	104	0	60	26173
2026-01-01 07:08:11.66	260.34	4.25	-44.1	-61.8	3.8	8.47e-01	0	51	104	0	60	26541
2026-01-01 07:08:12.67	260.22	4.32	-44.1	-61.9	3.8	8.47e-01	0	51	104	0	60	26827
2026-01-01 07:08:13.68	260.10	4.38	-44.1	-62.1	3.8	8.45e-01	0	51	104	0	60	27399
2026-01-01 07:08:14.69	259.97	4.45	-44.1	-62.2	3.8	8.46e-01	0	51	104	0	60	27977
2026-01-01 07:08:15.70	259.85	4.51	-44.1	-62.3	3.8	8.45e-01	0	51	104	0	60	28041
2026-01-01 07:08:16.71	259.72	4.58	-44.1	-62.3	3.8	8.45e-01	0	51	104	0	60	28083
2026-01-01 07:08:17.72	259.60	4.64	-44.1	-62.3	3.8	8.45e-01	0	51	104	0	60	28181
2026-01-01 07:08:18.73	259.47	4.71	-44.1	-62.3	3.8	8.46e-01	0	51	104	0	60	28330
2026-01-01 07:08:19.74	259.34	4.78	-44.1	-62.3	3.8	8.46e-01	0	51	104	0	60	28135
2026-01-01 07:08:20.76	259.22	4.84	-44.1	-62.3	3.8	8.47e-01	0	51	104	0	60	28214
2026-01-01 07:08:21.77	259.09	4.91	-44.1	-62.3	3.8	8.46e-01	0	51	104	0	60	28203
2026-01-01 07:08:22.78	258.96	4.98	-44.1	-62.3	3.8	8.46e-01	0	51	104	0	60	28168
2026-01-01 07:08:23.79	258.83	5.05	-44.1	-62.2	3.8	8.45e-01	0	51	104	0	60	27902
2026-01-01 07:08:24.80	258.69	5.11	-44.1	-62.2	3.8	8.47e-01	0	51	104	0	60	27808
2026-01-01 07:08:25.81	258.56	5.18	-44.1	-62.1	3.8	8.47e-01	0	51	104	0	60	27461
2026-01-01 07:08:26.82	258.43	5.25	-44.1	-61.9	3.8	8.47e-01	0	52	104	0	60	26841
2026-01-01 07:08:27.83	258.29	5.31	-44.1	-61.8	3.8	8.45e-01	0	51	104	0	60	26658
2026-01-01 07:08:28.84	258.16	5.38	-44.1	-61.9	3.8	8.46e-01	0	51	104	0	60	26806
2026-01-01 07:08:29.85	258.02	5.45	-44.1	-61.8	3.8	8.46e-01	0	52	104	0	60	26668
2026-01-01 07:08:30.86	257.89	5.52	-44.1	-62.0	3.8	8.45e-01	0	52	104	0	60	27110
2026-01-01 07:08:31.87	257.75	5.59	-44.1	-62.0	3.8	8.45e-01	0	52	104	0	60	27379
2026-01-01 07:08:32.88	257.61	5.66	-44.1	-62.1	3.8	8.45e-01	0	52	104	0	60	27664
2026-01-01 07:08:33.90	257.47	5.72	-44.1	-62.1	3.8	8.45e-01	0	52	104	0	60	27625
2026-01-01 07:08:34.91	257.33	5.79	-44.1	-62.1	3.8	8.46e-01	0	52	104	0	60	27700
2026-01-01 07:08:35.92	257.19	5.86	-44.1	-62.1	3.8	8.46e-01	0	52	104	0	60	27434
2026-01-01 07:08:36.93	257.04	5.93	-44.1	-61.9	3.8	8.45e-01	0	52	104	0	60	27057
2026-01-01 07:08:37.94	256.90	6.00	-44.1	-61.8	3.8	8.46e-01	0	52	104	0	60	26552
2026-01-01 07:08:38.95	256.76	6.07	-44.1	-61.6	3.8	8.46e-01	0	52	104	0	60	25995
2026-01-01 07:08:39.96	256.61	6.14	-44.1	-61.2	3.8	8.46e-01	0	52	104	0	60	24953
2026-01-01 07:08:40.97	256.47	6.21	-44.1	-60.8	3.8	8.46e-01	0	52	104	0	60	23699
2026-01-01 07:08:41.98	256.32	6.28	-44.1	-60.6	3.8	8.45e-01	0	52	104	0	60	23255
2026-01-01 07:08:42.99	256.17	6.35	-44.1	-60.6	3.8	8.45e-01	0	52	104	0	60	23279
2026-01-01 07:08:44.01	256.02	6.42	-44.1	-60.8	3.8	8.45e-01	0	52	104	0	60	23604
2026-01-01 07:08:45.02	255.87	6.49	-44.1	-61.1	3.8	8.45e-01	0	52	104	0	60	24559
2026-01-01 07:08:46.03	255.72	6.56	-44.1	-61.5	3.8	8.45e-01	0	52	104	0	60	25764
2026-01-01 07:08:47.04	255.56	6.63	-44.1	-62.1	3.8	8.46e-01	0	52	104	0	60	27396
2026-01-01 07:08:48.05	255.41	6.70	-44.1	-62.3	3.8	8.46e-01	0	52	104	0	60	28281
2026-01-01 07:08:49.06	255.26	6.77	-44.1	-62.2	3.8	8.46e-01	0	52	104	0	60	27901
2026-01-01 07:08:50.07	255.10	6.84	-44.1	-61.7	3.8	8.45e-01	0	53	104	0	60	26396
2026-01-01 07:08:51.08	254.94	6.91	-44.1	-60.7	3.8	8.46e-01	0	52	104	0	60	23550
2026-01-01 07:08:52.09	254.79	6.98	-44.0	-59.5	3.9	8.46e-01	0	53	104	0	60	20442
2026-01-01 07:08:53.10	254.63	7.05	-44.0	-58.5	4.3	8.46e-01	0	53	0	0	60	18104
2026-01-01 07:08:54.12	254.47	7.13	-44.0	-57.4	4.7	8.35e-01	0	53	0	0	59	17022
2026-01-01 07:08:55.13	254.31	7.20	-44.0	-57.3	4.8	8.08e-01	0	53	0	0	59	16716
2026-01-01 07:08:56.14	254.14	7.27	-44.0	-57.8	4.5	8.08e-01	0	53	0	0	59	17811
2026-01-01 07:08:57.15	253.98	7.34	-44.1	-59.4	4.1	8.10e-01	0	53	0	0	59	21314
2026-01-01 07:08:58.16	253.82	7.41	-44.2	-61.5	3.8	8.40e-01	0	53	104	0	59	27091
2026-01-01 07:08:59.17	253.65	7.49	-44.1	-58.9	3.9	8.40e-01	0	53	104	0	59	20105
2026-01-01 07:09:00.18	253.48	7.56	-43.7	-53.4	7.5	8.44e-01	0	53	0	0	59	10757
2026-01-01 07:09:01.19	253.32	7.63	-42.8	-49.4	11.7	3.00e-01	0	53	0	1572864	57	7579
2026-01-01 07:09:02.20	253.15	7.70	-41.7	-46.4	14.7	3.00e-01	0	53	0	2621440	55	6031
2026-01-01 07:09:03.21	252.98	7.77	-40.4	-43.9	17.1	8.04e-04	0	53	0	3670016	52	5370
2026-01-01 07:09:04.22	252.81	7.85	-39.3	-42.1	19.1	0.00e+00	0	53	0	4718592	50	4896
2026-01-01 07:09:05.23	252.63	7.92	-38.6	-41.1	20.1	0.00e+00	0	53	0	5767168	49	4627
2026-01-01 07:09:06.24	252.46	7.99	-38.3	-40.6	20.6	0.00e+00	0	53	0	6815744	48	4636
2026-01-01 07:09:07.25	252.29	8.07	-38.2	-40.4	20.8	0.00e+00	0	53	0	8388608	48	4541
2026-01-01 07:09:08.26	252.11	8.14	-38.7	-41.2	20.2	0.00e+00	0	53	0	9437184	47	5245
2026-01-01 07:09:09.27	251.93	8.21	-39.2	-42.0	18.9	0.00e+00	0	53	0	10485760	50	4818
2026-01-01 07:09:10.28	251.75	8.29	-40.1	-43.3	17.3	0.00e+00	0	53	0	11534336	52	5007
2026-01-01 07:09:11.29	251.57	8.36	-38.6	-41.1	20.4	0.00e+00	0	53	0	12582912	48	4883
2026-01-01 07:09:12.30	251.39	8.43	-42.9	-49.9	10.5	0.00e+00	0	53	0	13631488	57	8081
2026-01-01 07:09:13.31	251.21	8.51	-37.5	-39.6	21.6	1.13e-02	0	53	0	15204352	47	4368
2026-01-01 07:09:14.32	251.03	8.58	-37.7	-39.9	21.4	0.00e+00	0	53	0	16252928	47	4499
2026-01-01 07:09:15.33	250.84	8.65	-37.7	-39.9	21.4	0.00e+00	0	53	0	17301504	47	4516
2026-01-01 07:09:16.34	250.66	8.73	-37.7	-39.9	21.3	0.00e+00	0	53	0	18350080	47	4543
2026-01-01 07:09:17.35	250.47	8.80	-38.0	-40.3	21.0	0.00e+00	0	53	0	19398656	47	4729
2026-01-01 07:09:18.36	250.28	8.88	-38.1	-40.4	20.8	0.00e+00	0	54	0	20447232	47	4814
2026-01-01 07:09:19.37	250.09	8.95	-38.1	-40.5	20.8	0.00e+00	0	54	0	22020096	47	4820
2026-01-01 07:09:20.38	249.90	9.03	-38.1	-40.4	20.8	0.00e+00	0	54	0	23068672	47	4798
2026-01-01 07:09:21.39	249.71	9.10	-37.8	-40.0	21.3	0.00e+00	0	54	0	24117248	47	4565
2026-01-01 07:09:22.40	249.51	9.18	-37.7	-39.8	21.5	0.00e+00	0	53	0	25165824	47	4461
2026-01-01 07:09:23.41	249.32	9.25	-37.7	-39.9	21.5	0.00e+00	0	54	0	26214400	47	4496
2026-01-01 07:09:24.42	249.12	9.33	-37.4	-39.5	21.8	0.00e+00	0	53	0	27262976	46	4581
2026-01-01 07:09:25.43	248.92	9.40	-37.4	-39.4	21.9	0.00e+00	0	54	0	28835840	46	4539
2026-01-01 07:09:26.44	248.72	9.48	-37.4	-39.4	21.9	0.00e+00	0	54	0	29884416	46	4534
2026-01-01 07:09:27.45	248.52	9.55	-37.3	-39.4	22.0	0.00e+00	0	53	0	30932992	46	4503
2026-01-01 07:09:28.46	248.32	9.63	-37.6	-39.8	21.6	0.00e+00	0	54	0	31981568	46	4724
2026-01-01 07:09:29.47	248.12	9.70	-37.8	-40.0	21.4	0.00e+00	0	54	0	33030144	46	4820
2026-01-01 07:09:30.48	247.91	9.78	-37.6	-39.7	21.6	0.00e+00	0	54	0	34078720	46	4691
2026-01-01 07:09:31.49	247.71	9.85	-37.4	-39.5	21.9	0.00e+00	0	54	0	35651584	46	4570
2026-01-01 07:09:32.50	247.50	9.93	-37.2	-39.2	22.2	0.00e+00	0	54	0	36700160	46	4423
2026-01-01 07:09:33.51	247.29	10.00	-37.0	-39.0	22.4	0.00e+00	0	54	0	37748736	46	4310
2026-01-01 07:09:34.52	247.08	10.08	-37.0	-38.9	22.5	0.00e+00	0	54	0	38797312	46	4285
2026-01-01 07:09:35.53	246.86	10.15	-36.8	-38.7	22.6	0.00e+00	0	54	0	39845888	45	4427
2026-01-01 07:09:36.53	246.65	10.23	-36.9	-38.8	22.6	0.00e+00	0	54	0	40894464	45	4462
2026-01-01 07:09:37.54	246.44	10.30	-37.0	-39.0	22.4	0.00e+00	0	54	0	42467328	45	4557
2026-01-01 07:09:38.55	246.22	10.38	-36.9	-38.9	22.5	0.00e+00	0	54	0	43515904	45	4497
2026-01-01 07:09:39.56	246.00	10.46	-37.0	-38.9	22.4	0.00e+00	0	54	0	44564480	45	4541
2026-01-01 07:09:40.57	245.78	10.53	-37.1	-39.1	22.3	0.00e+00	0	54	0	45613056	45	4650
2026-01-01 07:09:41.58	245.56	10.61	-37.1	-39.1	22.3	0.00e+00	0	54	0	46661632	45	4635
2026-01-01 07:09:42.59	245.34	10.68	-37.1	-39.0	22.4	0.00e+00	0	54	0	47710208	45	4587
2026-01-01 07:09:43.60	245.11	10.76	-36.9	-38.9	22.5	0.00e+00	0	54	0	49283072	45	4501
2026-01-01 07:09:44.61	244.89	10.83	-37.0	-38.9	22.5	0.00e+00	0	54	0	50331648	45	4534
2026-01-01 07:09:45.62	244.66	10.91	-36.9	-38.8	22.6	0.00e+00	0	54	0	51380224	45	4480
2026-01-01 07:09:46.63	244.43	10.99	-36.7	-38.6	22.7	0.00e+00	0	54	0	52428800	45	4379
2026-01-01 07:09:47.64	244.20	11.06	-36.5	-38.4	23.0	0.00e+00	0	54	0	53477376	45	4261
2026-01-01 07:09:48.65	243.97	11.14	-36.6	-38.5	22.9	0.00e+00	0	54	0	54525952	45	4314
2026-01-01 07:09:49.66	243.73	11.21	-36.6	-38.4	23.0	0.00e+00	0	54	0	56098816	45	4289
2026-01-01 07:09:50.68	243.49	11.29	-36.5	-38.4	23.0	0.00e+00	0	54	0	57147392	45	4247
2026-01-01 07:09:51.68	243.26	11.36	-36.5	-38.3	23.1	0.00e+00	0	54	0	58195968	45	4223
2026-01-01 07:09:52.69	243.02	11.44	-36.5	-38.4	23.1	0.00e+00	0	55	0	59244544	45	4256
2026-01-01 07:09:53.70	242.78	11.52	-36.4	-38.2	23.2	0.00e+00	0	54	0	60293120	44	4423
2026-01-01 07:09:54.71	242.54	11.59	-36.1	-37.9	23.5	0.00e+00	0	54	0	61341696	44	4246
2026-01-01 07:09:55.72	242.29	11.67	-36.1	-37.8	23.6	0.00e+00	0	54	0	62914560	44	4213
2026-01-01 07:09:56.73	242.05	11.74	-36.2	-38.0	23.5	0.00e+00	0	54	0	63963136	44	4300
2026-01-01 07:09:57.74	241.80	11.82	-36.4	-38.2	23.3	0.00e+00	0	54	0	65011712	44	4401
2026-01-01 07:09:58.75	241.55	11.89	-36.6	-38.4	23.0	0.00e+00	0	54	0	66060288	44	4539
2026-01-01 07:09:59.76	241.30	11.97	-36.8	-38.7	22.8	0.00e+00	0	54	0	67108864	44	4662
2026-01-01 07:10:00.77	241.05	12.04	-36.9	-38.8	22.7	0.00e+00	0	54	0	68157440	44	4719
2026-01-01 07:10:01.78	240.80	12.12	-36.9	-38.9	22.6	0.00e+00	0	54	0	69730304	44	4762
2026-01-01 07:10:02.79	240.54	12.19	-36.8	-38.7	22.8	0.00e+00	0	55	0	70778880	44	4684
2026-01-01 07:10:03.80	240.28	12.27	-36.7	-38.6	22.9	0.00e+00	0	54	0	71827456	44	4613
2026-01-01 07:10:04.81	240.02	12.34	-36.4	-38.2	23.2	0.00e+00	0	55	0	72876032	44	4439
2026-01-01 07:10:05.82	239.76	12.42	-36.1	-37.9	23.6	0.00e+00	0	55	0	73924608	44	4274
2026-01-01 07:10:06.83	239.50	12.49	-36.1	-37.9	23.6	0.00e+00	0	55	0	74973184	44	4265
2026-01-01 07:10:07.84	239.24	12.57	-36.2	-38.0	23.5	0.00e+00	0	55	0	76546048	44	4308
2026-01-01 07:10:08.84	238.97	12.64	-36.2	-37.9	23.5	0.00e+00	0	55	0	77594624	44	4290
2026-01-01 07:10:09.85	238.71	12.72	-36.3	-38.1	23.4	0.00e+00	0	55	0	78643200	44	4356
2026-01-01 07:10:10.86	238.44	12.79	-36.6	-38.4	23.1	0.00e+00	0	55	0	79691776	44	4541
2026-01-01 07:10:11.87	238.16	12.86	-36.3	-38.1	23.4	0.00e+00	0	55	0	80740352	44	4370
2026-01-01 07:10:12.88	237.89	12.94	-36.5	-38.3	23.2	0.00e+00	0	55	0	81788928	44	4468
2026-01-01 07:10:13.89	237.62	13.01	-36.6	-38.4	23.1	0.00e+00	0	55	0	83361792	44	4522
2026-01-01 07:10:14.90	237.34	13.08	-36.5	-38.3	23.2	0.00e+00	0	55	0	84410368	44	4481
2026-01-01 07:10:15.91	237.06	13.16	-36.6	-38.5	23.0	0.00e+00	0	55	0	85458944	44	4571
2026-01-01 07:10:16.92	236.78	13.23	-36.2	-38.0	23.5	0.00e+00	0	55	0	86507520	44	4322
2026-01-01 07:10:17.93	236.50	13.30	-35.8	-37.5	23.8	0.00e+00	0	55	0	87556096	43	4326
2026-01-01 07:10:18.94	236.21	13.37	-35.9	-37.6	23.7	0.00e+00	0	55	0	88604672	43	4365
2026-01-01 07:10:19.96	235.93	13.45	-35.7	-37.4	23.9	0.00e+00	0	55	0	90177536	43	4290
2026-01-01 07:10:20.97	235.64	13.52	-35.7	-37.4	23.9	0.00e+00	0	55	0	91226112	43	4260
2026-01-01 07:10:21.97	235.35	13.59	-35.7	-37.4	23.9	0.00e+00	0	55	0	92274688	43	4263
2026-01-01 07:10:22.98	235.06	13.66	-35.6	-37.2	24.1	0.00e+00	0	55	0	93323264	43	4190
2026-01-01 07:10:24.00	234.77	13.73	-36.0	-37.8	23.6	0.00e+00	0	55	0	94371840	43	4451
2026-01-01 07:10:25.01	234.47	13.80	-36.0	-37.8	23.5	0.00e+00	0	55	0	95420416	43	4465
2026-01-01 07:10:26.01	234.18	13.87	-36.0	-37.7	23.6	0.00e+00	0	55	0	96993280	43	4431
2026-01-01 07:10:27.02	233.88	13.94	-36.0	-37.7	23.6	0.00e+00	0	55	0	98041856	43	4436
2026-01-01 07:10:28.03	233.58	14.01	-35.8	-37.6	23.8	0.00e+00	0	55	0	99090432	43	4347
2026-01-01 07:10:29.04	233.28	14.08	-35.8	-37.5	23.9	0.00e+00	0	55	0	100139008	43	4321
2026-01-01 07:10:30.05	232.97	14.15	-35.6	-37.3	24.0	0.00e+00	0	55	0	101187584	43	4236
2026-01-01 07:10:31.06	232.67	14.22	-35.5	-37.1	24.2	0.00e+00	0	55	0	102236160	42	4386
2026-01-01 07:10:32.07	232.36	14.29	-35.4	-37.1	24.3	0.00e+00	0	55	0	103809024	42	4352
2026-01-01 07:10:33.08	232.05	14.35	-35.3	-36.9	24.4	0.00e+00	0	55	0	104857600	42	4279
2026-01-01 07:10:34.09	231.74	14.42	-35.4	-37.1	24.3	0.00e+00	0	55	0	105906176	42	4348
2026-01-01 07:10:35.10	231.43	14.49	-35.5	-37.1	24.2	0.00e+00	0	55	0	106954752	42	4375
2026-01-01 07:10:36.11	231.11	14.55	-35.3	-36.9	24.5	0.00e+00	0	55	0	108003328	42	4260
2026-01-01 07:10:37.12	230.80	14.62	-35.1	-36.7	24.6	0.00e+00	0	55	0	109051904	42	4190
2026-01-01 07:10:38.13	230.48	14.69	-34.8	-36.4	24.9	0.00e+00	0	55	0	110624768	41	4257
2026-01-01 07:10:39.14	230.16	14.75	-34.8	-36.3	25.0	0.00e+00	0	55	0	111673344	41	4232
2026-01-01 07:10:40.15	229.84	14.82	-35.0	-36.6	24.7	0.00e+00	0	55	0	112721920	41	4390
2026-01-01 07:10:41.16	229.51	14.88	-35.3	-37.0	24.3	0.00e+00	0	55	0	113770496	41	4552
2026-01-01 07:10:42.17	229.19	14.94	-35.4	-37.1	24.2	0.00e+00	0	55	0	114819072	41	4630
2026-01-01 07:10:43.18	228.86	15.01	-35.4	-37.1	24.3	0.00e+00	0	55	0	115867648	41	4612
2026-01-01 07:10:44.19	228.53	15.07	-35.3	-37.0	24.4	0.00e+00	0	55	0	117440512	41	4562
2026-01-01 07:10:45.20	228.20	15.13	-35.5	-37.2	24.2	0.00e+00	0	55	0	118489088	41	4695
2026-01-01 07:10:46.21	227.87	15.19	-35.5	-37.2	24.2	0.00e+00	0	55	0	119537664	41	4669
2026-01-01 07:10:47.22	227.54	15.25	-35.6	-37.3	24.1	0.00e+00	0	55	0	120586240	41	4713
2026-01-01 07:10:48.23	227.20	15.31	-35.4	-37.0	24.3	0.00e+00	0	55	0	121634816	41	4596
2026-01-01 07:10:49.24	226.86	15.37	-35.3	-37.0	24.4	0.00e+00	0	55	0	122683392	41	4559
2026-01-01 07:10:50.25	226.52	15.43	-35.4	-37.1	24.3	0.00e+00	0	55	0	124256256	41	4607
2026-01-01 07:10:51.26	226.18	15.49	-35.4	-37.1	24.3	0.00e+00	0	55	0	125304832	41	4620
2026-01-01 07:10:52.27	225.84	15.55	-35.6	-37.3	24.1	0.00e+00	0	55	0	126353408	41	4719
2026-01-01 07:10:53.28	225.49	15.61	-35.6	-37.2	24.1	0.00e+00	0	55	0	127401984	41	4699
2026-01-01 07:10:54.29	225.15	15.66	-35.5	-37.2	24.2	0.00e+00	0	55	0	128450560	41	4661
2026-01-01 07:10:55.30	224.80	15.72	-35.4	-37.1	24.3	0.00e+00	0	55	0	129499136	41	4600
2026-01-01 07:10:56.31	224.45	15.77	-35.5	-37.2	24.2	0.00e+00	0	55	0	131072000	41	4665
2026-01-01 07:10:57.32	224.10	15.83	-35.3	-36.9	24.4	0.00e+00	0	55	0	132120576	41	4542
2026-01-01 07:10:58.33	223.75	15.88	-35.2	-36.9	24.5	0.00e+00	0	55	0	133169152	41	4512
2026-01-01 07:10:59.34	223.39	15.93	-35.2	-36.8	24.6	0.00e+00	0	56	0	134217728	41	4484
2026-01-01 07:11:00.35	223.04	15.99	-35.2	-36.8	24.6	0.00e+00	0	55	0	135266304	41	4486
2026-01-01 07:11:01.36	222.68	16.04	-35.2	-36.8	24.6	0.00e+00	0	55	0	136314880	41	4492
2026-01-01 07:11:02.37	222.32	16.09	-35.2	-36.9	24.5	0.00e+00	0	55	0	137887744	41	4502
2026-01-01 07:11:03.38	221.96	16.14	-34.9	-36.5	24.9	0.00e+00	0	55	0	138936320	41	4313
2026-01-01 07:11:04.39	221.60	16.19	-34.9	-36.4	24.9	0.00e+00	0	56	0	139984896	41	4289
2026-01-01 07:11:05.39	221.24	16.23	-34.8	-36.4	25.0	0.00e+00	0	55	0	141033472	41	4262
2026-01-01 07:11:06.40	220.88	16.28	-34.8	-36.4	25.0	0.00e+00	0	55	0	142082048	41	4270
2026-01-01 07:11:07.41	220.51	16.33	-34.6	-36.2	25.2	0.00e+00	0	55	0	143130624	41	4157
2026-01-01 07:11:08.42	220.14	16.37	-34.6	-36.1	25.3	0.00e+00	0	56	0	144703488	41	4122
2026-01-01 07:11:09.43	219.77	16.42	-34.7	-36.2	25.2	0.00e+00	0	55	0	145752064	41	4184
2026-01-01 07:11:10.44	219.40	16.46	-34.8	-36.3	25.1	0.00e+00	0	56	0	146800640	41	4236
2026-01-01 07:11:11.45	219.03	16.51	-34.9	-36.5	24.9	0.00e+00	0	55	0	147849216	41	4303
2026-01-01 07:11:12.46	218.66	16.55	-34.8	-36.4	25.0	0.00e+00	0	56	0	148897792	41	4250
2026-01-01 07:11:13.47	218.29	16.59	-34.8	-36.3	25.1	0.00e+00	0	56	0	149946368	41	4223
2026-01-01 07:11:14.48	217.91	16.63	-34.7	-36.2	25.2	0.00e+00	0	55	0	151519232	41	4176
2026-01-01 07:11:15.49	217.53	16.67	-34.7	-36.3	25.1	0.00e+00	0	56	0	152567808	41	4194
2026-01-01 07:11:16.50	217.16	16.71	-34.6	-36.1	25.2	0.00e+00	0	56	0	153616384	41	4137
2026-01-01 07:11:17.51	216.78	16.74	-34.6	-36.2	25.2	0.00e+00	0	56	0	154664960	41	4156
2026-01-01 07:11:18.52	216.40	16.78	-34.6	-36.1	25.2	0.00e+00	0	56	0	155713536	41	4133
2026-01-01 07:11:19.53	216.02	16.82	-34.6	-36.1	25.2	0.00e+00	0	55	0	156762112	41	4127
2026-01-01 07:11:20.54	215.63	16.85	-34.6	-36.1	25.3	0.00e+00	0	56	0	158334976	41	4127
2026-01-01 07:11:21.55	215.25	16.88	-34.7	-36.2	25.2	0.00e+00	0	56	0	159383552	41	4174
2026-01-01 07:11:22.56	214.86	16.92	-34.6	-36.1	25.3	0.00e+00	0	56	0	160432128	41	4118
2026-01-01 07:11:23.57	214.48	16.95	-34.3	-35.8	25.6	0.00e+00	0	56	0	161480704	40	4231
2026-01-01 07:11:24.58	214.09	16.98	-34.3	-35.8	25.6	0.00e+00	0	56	0	162529280	40	4198
2026-01-01 07:11:25.60	213.70	17.01	-34.4	-36.0	25.4	0.00e+00	0	56	0	163577856	40	4294
2026-01-01 07:11:26.60	213.32	17.04	-34.4	-35.9	25.5	0.00e+00	0	56	0	165150720	40	4269
2026-01-01 07:11:27.61	212.93	17.06	-34.2	-35.6	25.7	0.00e+00	0	56	0	166199296	40	4142
2026-01-01 07:11:28.62	212.54	17.09	-34.3	-35.7	25.7	0.00e+00	0	56	0	167247872	40	4187
2026-01-01 07:11:29.64	212.14	17.11	-34.4	-35.9	25.5	0.00e+00	0	56	0	168296448	40	4270
2026-01-01 07:11:30.65	211.75	17.14	-34.4	-36.0	25.4	0.00e+00	0	56	0	169345024	40	4302
2026-01-01 07:11:31.65	211.36	17.16	-34.3	-35.8	25.6	0.00e+00	0	56	0	170393600	40	4215
2026-01-01 07:11:32.66	210.97	17.18	-34.3	-35.8	25.7	0.00e+00	0	56	0	171966464	40	4194
2026-01-01 07:11:33.67	210.57	17.20	-34.5	-36.0	25.5	0.00e+00	0	56	0	173015040	40	4310
2026-01-01 07:11:34.68	210.18	17.22	-34.6	-36.1	25.3	0.00e+00	0	56	0	174063616	40	4370
2026-01-01 07:11:35.69	209.78	17.24	-34.5	-36.1	25.4	0.00e+00	0	56	0	175112192	40	4347
2026-01-01 07:11:36.70	209.39	17.26	-34.6	-36.2	25.3	0.00e+00	0	56	0	176160768	40	4401
2026-01-01 07:11:37.71	208.99	17.27	-34.8	-36.4	25.1	0.00e+00	0	56	0	177209344	40	4498
2026-01-01 07:11:38.72	208.59	17.29	-34.7	-36.3	25.2	0.00e+00	0	56	0	178782208	40	4454
2026-01-01 07:11:39.73	208.20	17.30	-34.5	-36.1	25.3	0.00e+00	0	56	0	179830784	40	4349
2026-01-01 07:11:40.74	207.80	17.31	-34.6	-36.1	25.4	0.00e+00	0	56	0	180879360	40	4375
2026-01-01 07:11:41.75	207.40	17.32	-34.7	-36.2	25.2	0.00e+00	0	56	0	181927936	40	4439
2026-01-01 07:11:42.76	207.00	17.34	-34.6	-36.1	25.3	0.00e+00	0	56	0	182976512	40	4390
2026-01-01 07:11:43.77	206.60	17.34	-34.6	-36.1	25.3	0.00e+00	0	56	0	184025088	40	4371
2026-01-01 07:11:44.78	206.20	17.35	-34.6	-36.1	25.3	0.00e+00	0	56	0	185597952	40	4371
2026-01-01 07:11:45.79	205.80	17.36	-34.5	-36.0	25.4	0.00e+00	0	56	0	186646528	40	4324
2026-01-01 07:11:46.80	205.40	17.36	-34.4	-35.9	25.4	0.00e+00	0	56	0	187695104	40	4280
2026-01-01 07:11:47.80	205.01	17.37	-34.2	-35.6	25.7	0.00e+00	0	56	0	188743680	40	4145
2026-01-01 07:11:48.82	204.60	17.37	-34.1	-35.6	25.8	0.00e+00	0	56	0	189792256	40	4101
2026-01-01 07:11:49.83	204.20	17.37	-34.4	-35.9	25.5	0.00e+00	0	56	0	190840832	40	4282
2026-01-01 07:11:50.84	203.80	17.37	-34.3	-35.8	25.6	0.00e+00	0	56	0	192413696	40	4209
2026-01-01 07:11:51.84	203.41	17.37	-34.0	-35.5	25.9	0.00e+00	0	56	0	193462272	40	4082
2026-01-01 07:11:52.85	203.01	17.37	-34.2	-35.6	25.8	0.00e+00	0	56	0	194510848	40	4143
2026-01-01 07:11:53.87	202.60	17.37	-34.4	-35.9	25.5	0.00e+00	0	56	0	195559424	40	4256
2026-01-01 07:11:54.88	202.20	17.36	-34.1	-35.5	25.8	0.00e+00	0	56	0	196608000	40	4084
2026-01-01 07:11:55.88	201.81	17.36	-33.9	-35.4	26.1	0.00e+00	0	56	0	197656576	39	4262
2026-01-01 07:11:56.89	201.41	17.35	-34.1	-35.5	26.0	0.00e+00	0	56	0	199229440	39	4320
2026-01-01 07:11:57.91	201.01	17.34	-34.3	-35.8	25.7	0.00e+00	0	56	0	200278016	39	4478
2026-01-01 07:11:58.92	200.61	17.34	-34.3	-35.8	25.6	0.00e+00	0	56	0	201326592	39	4485
2026-01-01 07:11:59.93	200.21	17.33	-34.3	-35.8	25.7	0.00e+00	0	56	0	202375168	39	4479
2026-01-01 07:12:00.93	199.81	17.32	-34.5	-36.1	25.4	0.00e+00	0	56	0	203423744	39	4608
2026-01-01 07:12:01.94	199.41	17.30	-34.5	-36.0	25.4	0.00e+00	0	56	0	204472320	39	4561
2026-01-01 07:12:02.95	199.02	17.29	-34.3	-35.8	25.7	0.00e+00	0	56	0	206045184	39	4455
2026-01-01 07:12:03.96	198.62	17.27	-34.2	-35.6	25.8	0.00e+00	0	56	0	207093760	39	4375
2026-01-01 07:12:04.97	198.22	17.26	-34.4	-35.9	25.6	0.00e+00	0	56	0	208142336	39	4499
2026-01-01 07:12:05.98	197.83	17.24	-34.5	-36.0	25.5	0.00e+00	0	56	0	209190912	39	4561
2026-01-01 07:12:06.99	197.43	17.22	-34.4	-35.9	25.5	0.00e+00	0	56	0	210239488	39	4535
2026-01-01 07:12:08.00	197.04	17.20	-34.4	-35.9	25.5	0.00e+00	0	56	0	211288064	39	4541
2026-01-01 07:12:09.01	196.64	17.18	-34.6	-36.1	25.4	0.00e+00	0	56	0	212860928	39	4618
2026-01-01 07:12:10.02	196.25	17.16	-34.6	-36.1	25.3	0.00e+00	0	56	0	213909504	39	4629
2026-01-01 07:12:11.03	195.86	17.14	-34.4	-35.9	25.6	0.00e+00	0	56	0	214958080	39	4502
2026-01-01 07:12:12.03	195.47	17.12	-34.2	-35.7	25.8	0.00e+00	0	56	0	216006656	39	4397
2026-01-01 07:12:13.04	195.08	17.09	-34.2	-35.7	25.7	0.00e+00	0	56	0	217055232	39	4413
2026-01-01 07:12:14.05	194.68	17.07	-34.1	-35.6	25.8	0.00e+00	0	56	0	218103808	39	4375
2026-01-01 07:12:15.07	194.29	17.04	-34.0	-35.5	25.9	0.00e+00	0	56	0	219676672	39	4304
2026-01-01 07:12:16.08	193.90	17.01	-34.1	-35.6	25.8	0.00e+00	0	56	0	220725248	39	4360
2026-01-01 07:12:17.09	193.51	16.98	-34.4	-35.9	25.5	0.00e+00	0	56	0	221773824	39	4498
2026-01-01 07:12:18.10	193.13	16.95	-34.2	-35.7	25.7	0.00e+00	0	56	0	222822400	39	4416
2026-01-01 07:12:19.11	192.74	16.92	-34.1	-35.6	25.8	0.00e+00	0	56	0	223870976	39	4365
2026-01-01 07:12:20.12	192.36	16.89	-34.0	-35.5	26.0	0.00e+00	0	56	0	224919552	39	4307
2026-01-01 07:12:21.13	191.97	16.85	-34.3	-35.8	25.6	0.00e+00	0	56	0	226492416	39	4446
2026-01-01 07:12:22.14	191.59	16.82	-34.4	-35.9	25.6	0.00e+00	0	56	0	227540992	39	4507
2026-01-01 07:12:23.15	191.21	16.78	-34.5	-36.0	25.4	0.00e+00	0	56	0	228589568	39	4585
2026-01-01 07:12:24.16	190.83	16.75	-34.5	-36.0	25.4	0.00e+00	0	56	0	229638144	39	4590
2026-01-01 07:12:25.17	190.45	16.71	-34.5	-36.0	25.4	0.00e+00	0	56	0	230686720	39	4570
2026-01-01 07:12:26.18	190.07	16.67	-34.6	-36.1	25.3	0.00e+00	0	56	0	231735296	39	4640
2026-01-01 07:12:27.19	189.69	16.63	-34.7	-36.3	25.1	0.00e+00	0	56	0	233308160	40	4463
2026-01-01 07:12:28.20	189.31	16.59	-34.6	-36.2	25.2	0.00e+00	0	56	0	234356736	40	4403
2026-01-01 07:12:29.21	188.94	16.55	-34.5	-36.0	25.3	0.00e+00	0	56	0	235405312	40	4332
2026-01-01 07:12:30.22	188.57	16.51	-34.4	-35.9	25.4	0.00e+00	0	56	0	236453888	40	4268
2026-01-01 07:12:31.23	188.19	16.47	-34.4	-36.0	25.4	0.00e+00	0	56	0	237502464	40	4297
2026-01-01 07:12:32.24	187.82	16.42	-34.8	-36.3	25.1	0.00e+00	0	56	0	238551040	40	4473
2026-01-01 07:12:33.25	187.45	16.38	-35.0	-36.6	24.7	0.00e+00	0	56	0	240123904	40	4632
2026-01-01 07:12:34.26	187.09	16.33	-35.3	-36.9	24.5	0.00e+00	0	56	0	241172480	41	4525
2026-01-01 07:12:35.27	186.72	16.29	-35.2	-36.8	24.6	0.00e+00	0	56	0	242221056	41	4455
2026-01-01 07:12:36.28	186.35	16.24	-35.0	-36.5	24.8	0.00e+00	0	56	0	243269632	41	4339
2026-01-01 07:12:37.29	185.99	16.19	-34.8	-36.4	25.0	0.00e+00	0	56	0	244318208	41	4246
2026-01-01 07:12:38.30	185.63	16.14	-34.5	-36.1	25.2	0.00e+00	0	56	0	245366784	41	4106
2026-01-01 07:12:39.31	185.27	16.09	-34.4	-35.9	25.4	0.00e+00	0	57	0	246939648	40	4253
2026-01-01 07:12:40.32	184.91	16.04	-34.5	-36.0	25.3	0.00e+00	0	56	0	247988224	40	4325
2026-01-01 07:12:41.32	184.55	15.99	-34.6	-36.1	25.2	0.00e+00	0	56	0	249036800	40	4358
2026-01-01 07:12:42.34	184.19	15.94	-34.6	-36.2	25.1	0.00e+00	0	56	0	250085376	40	4403
2026-01-01 07:12:43.34	183.84	15.89	-34.7	-36.2	25.1	0.00e+00	0	56	0	251133952	40	4426
2026-01-01 07:12:44.35	183.49	15.83	-34.6	-36.1	25.2	0.00e+00	0	56	0	252182528	40	4369
2026-01-01 07:12:45.36	183.14	15.78	-34.4	-35.9	25.3	0.00e+00	0	56	0	253755392	40	4287
2026-01-01 07:12:46.37	182.79	15.72	-34.7	-36.3	25.0	0.00e+00	0	56	0	254803968	40	4446
2026-01-01 07:12:47.38	182.44	15.67	-34.9	-36.5	24.8	0.00e+00	0	56	0	255852544	40	4559
2026-01-01 07:12:48.39	182.09	15.61	-35.0	-36.6	24.7	0.00e+00	0	56	0	256901120	40	4641
2026-01-01 07:12:49.40	181.75	15.55	-35.4	-37.0	24.3	0.00e+00	0	57	0	257949696	41	4587
2026-01-01 07:12:50.41	181.40	15.49	-35.4	-37.1	24.2	0.00e+00	0	56	0	258998272	41	4624
2026-01-01 07:12:51.42	181.06	15.44	-35.2	-36.8	24.5	0.00e+00	0	56	0	260571136	41	4464
2026-01-01 07:12:52.44	180.72	15.38	-34.9	-36.5	24.8	0.00e+00	0	56	0	261619712	41	4306
2026-01-01 07:12:53.45	180.38	15.32	-34.8	-36.3	24.9	0.00e+00	0	56	0	262668288	41	4238
2026-01-01 07:12:54.46	180.04	15.26	-34.8	-36.3	24.9	0.00e+00	0	56	0	263716864	41	4234
2026-01-01 07:12:55.46	179.71	15.20	-34.9	-36.5	24.8	0.00e+00	0	57	0	264765440	41	4293
2026-01-01 07:12:56.47	179.38	15.14	-35.3	-37.0	24.3	0.00e+00	0	56	0	265814016	41	4568
2026-01-01 07:12:57.49	179.04	15.07	-35.7	-37.4	23.9	0.00e+00	0	57	0	267386880	41	4761
2026-01-01 07:12:58.50	178.71	15.01	-35.6	-37.3	24.0	0.00e+00	0	57	0	268435456	41	4728
2026-01-01 07:12:59.50	178.39	14.95	-35.6	-37.3	24.0	0.00e+00	0	57	0	269484032	41	4725
2026-01-01 07:13:00.51	178.06	14.88	-35.4	-37.1	24.2	0.00e+00	0	57	0	270532608	41	4609
2026-01-01 07:13:01.52	177.74	14.82	-35.2	-36.8	24.5	0.00e+00	0	56	0	271581184	41	4461
2026-01-01 07:13:02.53	177.42	14.75	-35.2	-36.8	24.4	0.00e+00	0	57	0	272629760	41	4484
2026-01-01 07:13:03.54	177.10	14.69	-35.1	-36.7	24.5	0.00e+00	0	56	0	274202624	41	4427
2026-01-01 07:13:04.56	176.77	14.62	-35.1	-36.8	24.5	0.00e+00	0	56	0	275251200	41	4448
2026-01-01 07:13:05.57	176.46	14.56	-35.3	-36.9	24.4	0.00e+00	0	57	0	276299776	41	4522
2026-01-01 07:13:06.57	176.14	14.49	-35.4	-37.1	24.2	0.00e+00	0	57	0	277348352	41	4616
2026-01-01 07:13:07.58	175.83	14.42	-35.3	-37.0	24.3	0.00e+00	0	56	0	278396928	41	4548
2026-01-01 07:13:08.59	175.52	14.36	-35.2	-36.8	24.4	0.00e+00	0	56	0	279445504	41	4481
2026-01-01 07:13:09.61	175.21	14.29	-35.1	-36.7	24.5	0.00e+00	0	56	0	281018368	41	4426
2026-01-01 07:13:10.61	174.90	14.22	-35.3	-36.9	24.3	0.00e+00	0	57	0	282066944	41	4537
2026-01-01 07:13:11.62	174.59	14.15	-35.4	-37.0	24.3	0.00e+00	0	57	0	283115520	41	4597
2026-01-01 07:13:12.63	174.29	14.08	-35.5	-37.2	24.1	0.00e+00	0	57	0	284164096	41	4688
2026-01-01 07:13:13.65	173.98	14.01	-35.7	-37.4	23.9	0.00e+00	0	57	0	285212672	41	4781
2026-01-01 07:13:14.66	173.68	13.94	-35.8	-37.5	23.8	0.00e+00	0	57	0	286261248	42	4571
2026-01-01 07:13:15.67	173.38	13.87	-35.8	-37.5	23.8	0.00e+00	0	57	0	287834112	42	4586
2026-01-01 07:13:16.67	173.09	13.80	-35.7	-37.4	23.9	0.00e+00	0	56	0	288882688	42	4504
2026-01-01 07:13:17.69	172.79	13.73	-35.8	-37.5	23.8	0.00e+00	0	57	0	289931264	42	4566
2026-01-01 07:13:18.69	172.50	13.66	-35.9	-37.6	23.9	0.00e+00	0	57	0	290979840	42	4630
2026-01-01 07:13:19.71	172.21	13.59	-35.7	-37.4	23.9	0.00e+00	0	57	0	292028416	42	4531
2026-01-01 07:13:20.72	171.92	13.52	-35.8	-37.5	23.9	0.00e+00	0	57	0	293601280	42	4567
2026-01-01 07:13:21.73	171.63	13.45	-35.9	-37.6	23.7	0.00e+00	0	57	0	294649856	42	4633
2026-01-01 07:13:22.74	171.34	13.37	-36.0	-37.8	23.6	0.00e+00	0	57	0	295698432	42	4709
2026-01-01 07:13:23.75	171.06	13.30	-36.0	-37.8	23.5	0.00e+00	0	57	0	296747008	42	4725
2026-01-01 07:13:24.76	170.77	13.23	-36.0	-37.7	23.6	0.00e+00	0	57	0	297795584	42	4698
2026-01-01 07:13:25.77	170.49	13.16	-36.1	-37.9	23.5	0.00e+00	0	57	0	298844160	42	4782
2026-01-01 07:13:26.78	170.21	13.08	-36.3	-38.1	23.3	0.00e+00	0	57	0	299892736	43	4600
2026-01-01 07:13:27.78	169.94	13.01	-36.3	-38.1	23.2	0.00e+00	0	57	0	301465600	43	4640
2026-01-01 07:13:28.79	169.66	12.94	-36.3	-38.1	23.3	0.00e+00	0	57	0	302514176	43	4620
2026-01-01 07:13:29.80	169.39	12.86	-36.3	-38.1	23.3	0.00e+00	0	57	0	303562752	43	4625
2026-01-01 07:13:30.81	169.12	12.79	-36.1	-37.9	23.5	0.00e+00	0	57	0	304611328	43	4529
2026-01-01 07:13:31.82	168.85	12.72	-36.0	-37.8	23.6	0.00e+00	0	57	0	305659904	43	4448
2026-01-01 07:13:32.83	168.58	12.64	-35.9	-37.6	23.7	0.00e+00	0	57	0	306708480	43	4379
2026-01-01 07:13:33.84	168.31	12.57	-35.9	-37.6	23.7	0.00e+00	0	57	0	308281344	43	4362
2026-01-01 07:13:34.85	168.05	12.49	-36.0	-37.7	23.7	0.00e+00	0	57	0	309329920	43	4408
2026-01-01 07:13:35.86	167.78	12.42	-36.1	-37.9	23.6	0.00e+00	0	57	0	310378496	43	4506
2026-01-01 07:13:36.87	167.52	12.34	-36.4	-38.2	23.3	0.00e+00	0	57	0	311427072	43	4658
2026-01-01 07:13:37.88	167.26	12.27	-36.3	-38.1	23.3	0.00e+00	0	57	0	312475648	43	4641
2026-01-01 07:13:38.89	167.00	12.19	-36.4	-38.2	23.2	0.00e+00	0	57	0	313524224	43	4667
2026-01-01 07:13:39.90	166.75	12.12	-36.3	-38.1	23.3	0.00e+00	0	57	0	315097088	43	4621
2026-01-01 07:13:40.91	166.49	12.04	-36.3	-38.1	23.3	0.00e+00	0	57	0	316145664	43	4630
2026-01-01 07:13:41.92	166.24	11.97	-36.3	-38.1	23.3	0.00e+00	0	57	0	317194240	43	4615
2026-01-01 07:13:42.93	165.99	11.89	-36.3	-38.1	23.3	0.00e+00	0	57	0	318242816	43	4638
2026-01-01 07:13:43.94	165.74	11.82	-36.3	-38.1	23.3	0.00e+00	0	57	0	319291392	43	4608
2026-01-01 07:13:44.95	165.49	11.74	-36.4	-38.3	23.1	0.00e+00	0	57	0	320339968	43	4706
2026-01-01 07:13:45.96	165.24	11.67	-36.6	-38.4	23.0	0.00e+00	0	57	0	321912832	43	4790
2026-01-01 07:13:46.97	165.00	11.59	-37.0	-38.9	22.7	0.00e+00	0	57	0	322961408	44	4789
2026-01-01 07:13:47.98	164.75	11.51	-37.2	-39.1	22.5	0.00e+00	0	57	0	324009984	44	4910
2026-01-01 07:13:48.99	164.51	11.44	-37.3	-39.3	22.3	0.00e+00	0	57	0	325058560	45	4719
2026-01-01 07:13:50.00	164.27	11.36	-37.3	-39.3	22.3	0.00e+00	0	57	0	326107136	45	4715
2026-01-01 07:13:51.01	164.04	11.29	-37.4	-39.4	22.2	0.00e+00	0	57	0	327155712	45	4793
2026-01-01 07:13:52.02	163.80	11.21	-37.2	-39.1	22.4	0.00e+00	0	57	0	328728576	45	4648
2026-01-01 07:13:53.03	163.56	11.13	-37.1	-39.0	22.5	0.00e+00	0	57	0	329777152	45	4580
2026-01-01 07:13:54.04	163.33	11.06	-37.0	-38.9	22.6	0.00e+00	0	57	0	330825728	45	4532
2026-01-01 07:13:55.05	163.10	10.98	-37.1	-39.0	22.5	0.00e+00	0	57	0	331874304	45	4578
2026-01-01 07:13:56.06	162.87	10.91	-37.1	-39.1	22.4	0.00e+00	0	57	0	332922880	45	4604
2026-01-01 07:13:57.06	162.64	10.83	-37.2	-39.2	22.3	0.00e+00	0	57	0	333971456	45	4690
2026-01-01 07:13:58.08	162.41	10.75	-37.3	-39.4	22.1	0.00e+00	0	57	0	335544320	45	4762
2026-01-01 07:13:59.09	162.19	10.68	-37.3	-39.3	22.1	0.00e+00	0	57	0	336592896	45	4749
2026-01-01 07:14:00.09	161.97	10.60	-37.2	-39.1	22.2	0.00e+00	0	57	0	337641472	45	4650
2026-01-01 07:14:01.10	161.74	10.53	-37.1	-39.0	22.3	0.00e+00	0	57	0	338690048	45	4596
2026-01-01 07:14:02.11	161.52	10.45	-37.0	-39.0	22.4	0.00e+00	0	57	0	339738624	45	4556
2026-01-01 07:14:03.12	161.30	10.38	-36.9	-38.8	22.5	0.00e+00	0	57	0	340787200	45	4486
2026-01-01 07:14:04.13	161.09	10.30	-36.9	-38.8	22.5	0.00e+00	0	57	0	342360064	45	4481
2026-01-01 07:14:05.14	160.87	10.22	-36.9	-38.8	22.5	0.00e+00	0	57	0	343408640	45	4459
2026-01-01 07:14:06.15	160.66	10.15	-36.9	-38.8	22.5	0.00e+00	0	57	0	344457216	45	4471
2026-01-01 07:14:07.16	160.44	10.07	-36.8	-38.7	22.5	0.00e+00	0	57	0	345505792	45	4432
2026-01-01 07:14:08.17	160.23	10.00	-36.9	-38.8	22.4	0.00e+00	0	57	0	346554368	45	4483
2026-01-01 07:14:09.18	160.02	9.92	-36.9	-38.9	22.3	0.00e+00	0	57	0	347602944	45	4529
2026-01-01 07:14:10.19	159.81	9.85	-37.1	-39.2	22.0	0.00e+00	0	57	0	349175808	45	4662
2026-01-01 07:14:11.20	159.60	9.77	-37.3	-39.3	21.9	0.00e+00	0	57	0	350224384	45	4739
2026-01-01 07:14:12.21	159.40	9.69	-37.4	-39.5	21.7	0.00e+00	0	57	0	351272960	45	4834
2026-01-01 07:14:13.22	159.19	9.62	-37.3	-39.4	21.8	0.00e+00	0	57	0	352321536	45	4790
2026-01-01 07:14:14.23	158.99	9.54	-37.2	-39.3	21.8	0.00e+00	0	57	0	353370112	45	4745
2026-01-01 07:14:15.24	158.79	9.47	-37.2	-39.2	21.9	0.00e+00	0	57	0	354418688	45	4696
2026-01-01 07:14:16.25	158.59	9.39	-36.9	-38.9	22.2	0.00e+00	0	57	0	355991552	45	4527
2026-01-01 07:14:17.26	158.39	9.32	-36.8	-38.8	22.3	0.00e+00	0	57	0	357040128	45	4455
2026-01-01 07:14:18.27	158.19	9.24	-36.9	-38.9	22.2	0.00e+00	0	57	0	358088704	45	4523
2026-01-01 07:14:19.28	158.00	9.17	-37.0	-39.1	22.1	0.00e+00	0	57	0	359137280	45	4604
2026-01-01 07:14:20.29	157.80	9.09	-37.3	-39.4	21.8	0.00e+00	0	57	0	360185856	45	4761
2026-01-01 07:14:21.30	157.61	9.02	-37.4	-39.5	21.6	0.00e+00	0	57	0	361234432	45	4840
2026-01-01 07:14:22.31	157.42	8.94	-37.5	-39.6	21.5	0.00e+00	0	57	0	362807296	45	4899
2026-01-01 07:14:23.32	157.23	8.87	-37.6	-39.7	21.4	0.00e+00	0	57	0	363855872	45	4969
2026-01-01 07:14:24.33	157.04	8.79	-37.6	-39.8	21.3	0.00e+00	0	57	0	364904448	45	5006
2026-01-01 07:14:25.34	156.85	8.72	-37.7	-40.0	21.1	0.00e+00	0	57	0	365953024	46	4821
2026-01-01 07:14:26.35	156.66	8.65	-37.8	-40.0	21.1	0.00e+00	0	57	0	367001600	46	4856
2026-01-01 07:14:27.36	156.48	8.57	-37.7	-39.9	21.1	0.00e+00	0	57	0	368050176	46	4786
2026-01-01 07:14:28.37	156.29	8.50	-37.6	-39.8	21.2	0.00e+00	0	57	0	369623040	46	4746
2026-01-01 07:14:29.38	156.11	8.42	-37.6	-39.8	21.3	0.00e+00	0	57	0	370671616	46	4722
2026-01-01 07:14:30.39	155.93	8.35	-37.6	-39.8	21.2	0.00e+00	0	57	0	371720192	46	4745
2026-01-01 07:14:31.40	155.75	8.28	-37.7	-39.9	21.1	0.00e+00	0	57	0	372768768	46	4781
2026-01-01 07:14:32.41	155.57	8.20	-37.8	-40.0	21.0	0.00e+00	0	57	0	373817344	46	4855
2026-01-01 07:14:33.42	155.39	8.13	-38.0	-40.4	20.6	0.00e+00	0	57	0	375390208	46	5063
2026-01-01 07:14:34.43	155.21	8.06	-37.9	-40.3	20.7	0.00e+00	0	57	0	376438784	46	4990
2026-01-01 07:14:35.44	155.04	7.98	-38.1	-40.5	20.7	0.00e+00	0	57	0	377487360	46	5107
2026-01-01 07:14:36.45	154.86	7.91	-44.5	-62.5	3.7	2.46e-02	0	57	104	377487360	59	30637
2026-01-01 07:14:37.46	154.69	7.84	-44.7	-62.8	3.9	8.45e-01	0	57	104	377487360	60	29776
2026-01-01 07:14:38.47	154.52	7.76	-44.9	-63.1	3.8	8.45e-01	0	57	104	377487360	60	30924
2026-01-01 07:14:39.48	154.35	7.69	-45.1	-63.3	3.8	8.47e-01	0	57	104	377487360	60	31533
2026-01-01 07:14:40.49	154.18	7.62	-45.2	-63.4	3.8	8.46e-01	0	57	104	377487360	60	31902
2026-01-01 07:14:41.50	154.01	7.55	-45.3	-63.4	3.8	8.46e-01	0	57	104	377487360	61	30339
2026-01-01 07:14:42.52	153.84	7.47	-45.3	-63.6	3.8	8.46e-01	0	57	104	377487360	61	30759
2026-01-01 07:14:43.53	153.67	7.40	-45.3	-63.5	3.8	8.46e-01	0	57	104	377487360	61	30716
2026-01-01 07:14:44.54	153.51	7.33	-45.3	-63.5	3.8	8.47e-01	0	57	104	377487360	61	30692
2026-01-01 07:14:45.55	153.35	7.26	-45.2	-63.5	3.8	8.47e-01	0	57	104	377487360	61	30558
2026-01-01 07:14:46.56	153.18	7.19	-45.2	-63.5	3.8	8.46e-01	0	57	104	377487360	61	30388
2026-01-01 07:14:47.57	153.02	7.11	-45.2	-63.4	3.8	8.46e-01	0	57	104	377487360	61	30330
2026-01-01 07:14:48.58	152.86	7.04	-45.1	-63.4	3.8	8.46e-01	0	57	104	377487360	61	30253
2026-01-01 07:14:49.59	152.70	6.97	-45.1	-63.4	3.8	8.44e-01	0	57	104	377487360	61	30255
2026-01-01 07:14:50.60	152.54	6.90	-45.1	-63.4	3.8	8.46e-01	0	57	104	377487360	61	30187
2026-01-01 07:14:51.61	152.39	6.83	-45.1	-63.4	3.8	8.46e-01	0	57	104	377487360	61	30094
2026-01-01 07:14:52.62	152.23	6.76	-45.1	-63.4	3.8	8.46e-01	0	57	104	377487360	61	30114
2026-01-01 07:14:53.64	152.07	6.69	-45.1	-63.4	3.8	8.45e-01	0	57	104	377487360	61	30137
2026-01-01 07:14:54.65	151.92	6.62	-45.1	-63.4	3.8	8.45e-01	0	57	104	377487360	61	30105
2026-01-01 07:14:55.66	151.77	6.54	-45.1	-63.4	3.8	8.46e-01	0	57	104	377487360	61	30098
2026-01-01 07:14:56.67	151.61	6.47	-45.1	-63.4	3.8	8.46e-01	0	57	104	377487360	61	30064
2026-01-01 07:14:57.68	151.46	6.40	-45.1	-63.4	3.8	8.46e-01	0	57	104	377487360	61	30035
2026-01-01 07:14:58.69	151.31	6.33	-45.1	-63.4	3.8	8.46e-01	0	57	104	377487360	60	31890
2026-01-01 07:14:59.70	151.16	6.26	-45.0	-63.4	3.8	8.47e-01	0	57	104	377487360	60	31957
2026-01-01 07:15:00.71	151.02	6.19	-45.1	-63.4	3.8	8.46e-01	0	57	104	377487360	60	31901
2026-01-01 07:15:01.72	150.87	6.12	-45.1	-63.3	3.8	8.46e-01	0	57	104	377487360	60	31787
2026-01-01 07:15:02.74	150.72	6.05	-45.0	-63.3	3.8	8.46e-01	0	57	104	377487360	60	31761
2026-01-01 07:15:03.75	150.58	5.98	-45.1	-63.3	3.8	8.46e-01	0	57	104	377487360	60	31794
2026-01-01 07:15:04.76	150.43	5.92	-45.0	-63.4	3.8	8.46e-01	0	57	104	377487360	60	31860
2026-01-01 07:15:05.77	150.29	5.85	-45.0	-63.3	3.8	8.47e-01	0	57	104	377487360	60	31797
2026-01-01 07:15:06.78	150.15	5.78	-45.0	-63.4	3.8	8.47e-01	0	57	104	377487360	60	31817
2026-01-01 07:15:07.79	150.01	5.71	-45.1	-63.3	3.8	8.47e-01	0	57	104	377487360	60	31781
2026-01-01 07:15:08.80	149.87	5.64	-45.0	-63.4	3.8	8.46e-01	0	57	104	377487360	60	31824
2026-01-01 07:15:09.81	149.73	5.57	-44.9	-63.4	3.8	8.47e-01	0	57	104	377487360	60	31817
2026-01-01 07:15:10.82	149.59	5.50	-45.0	-63.4	3.8	8.47e-01	0	57	104	377487360	60	31853
2026-01-01 07:15:11.84	149.45	5.43	-45.0	-63.4	3.8	8.47e-01	0	57	104	377487360	60	31868
2026-01-01 07:15:12.85	149.31	5.37	-45.0	-63.4	3.8	8.46e-01	0	57	104	377487360	60	31915
2026-01-01 07:15:13.86	149.18	5.30	-45.0	-63.3	3.8	8.46e-01	0	57	104	377487360	60	31795
2026-01-01 07:15:14.87	149.04	5.23	-45.0	-63.3	3.8	8.46e-01	0	57	104	377487360	60	31750
2026-01-01 07:15:15.88	148.91	5.16	-45.0	-63.3	3.8	8.47e-01	0	57	104	377487360	60	31789
2026-01-01 07:15:16.89	148.78	5.10	-45.0	-63.3	3.8	8.46e-01	0	57	104	377487360	60	31799
2026-01-01 07:15:17.90	148.64	5.03	-45.0	-63.3	3.8	8.46e-01	0	57	104	377487360	60	31789
2026-01-01 07:15:18.91	148.51	4.96	-45.0	-63.3	3.8	8.46e-01	0	57	104	377487360	60	31779
2026-01-01 07:15:19.92	148.38	4.89	-45.0	-63.4	3.8	8.48e-01	0	57	104	377487360	60	31834
2026-01-01 07:15:20.93	148.25	4.83	-45.0	-63.3	3.8	8.46e-01	0	57	104	377487360	60	31741
2026-01-01 07:15:21.94	148.12	4.76	-45.0	-63.3	3.8	8.46e-01	0	57	104	377487360	60	31740
2026-01-01 07:15:22.95	148.00	4.69	-45.0	-63.3	3.8	8.46e-01	0	57	104	377487360	60	31770
2026-01-01 07:15:23.96	147.87	4.63	-45.0	-63.4	3.8	8.46e-01	0	57	104	377487360	60	31823
2026-01-01 07:15:24.98	147.74	4.56	-45.0	-63.3	3.8	8.46e-01	0	57	104	377487360	60	31754
2026-01-01 07:15:25.99	147.62	4.49	-45.0	-63.3	3.8	8.46e-01	0	57	104	377487360	60	31764
2026-01-01 07:15:27.00	147.49	4.43	-45.0	-63.3	3.8	8.46e-01	0	57	104	377487360	60	31766
2026-01-01 07:15:28.01	147.37	4.36	-45.0	-63.3	3.8	8.46e-01	0	57	104	377487360	60	31697
2026-01-01 07:15:29.02	147.24	4.30	-45.0	-63.3	3.8	8.47e-01	0	57	104	377487360	60	31767
2026-01-01 07:15:30.03	147.12	4.23	-45.0	-63.4	3.8	8.46e-01	0	57	104	377487360	60	31850
2026-01-01 07:15:31.04	147.00	4.17	-45.0	-63.3	3.8	8.46e-01	0	57	104	377487360	60	31781
2026-01-01 07:15:32.05	146.88	4.10	-45.0	-63.3	3.8	8.45e-01	0	57	104	377487360	60	31739
2026-01-01 07:15:33.06	146.76	4.04	-45.0	-63.3	3.8	8.45e-01	0	57	104	377487360	60	31784
2026-01-01 07:15:34.07	146.64	3.97	-45.0	-63.3	3.8	8.46e-01	0	57	104	377487360	60	31721
2026-01-01 07:15:35.09	146.52	3.91	-45.0	-63.3	3.8	8.46e-01	0	57	104	377487360	60	31723
2026-01-01 07:15:36.10	146.40	3.84	-45.0	-63.4	3.8	8.47e-01	0	57	104	377487360	60	31818
2026-01-01 07:15:37.11	146.29	3.78	-45.0	-63.3	3.8	8.45e-01	0	57	104	377487360	60	31800
2026-01-01 07:15:38.12	146.17	3.71	-45.0	-63.3	3.8	8.45e-01	0	58	104	377487360	60	31771
2026-01-01 07:15:39.13	146.05	3.65	-45.0	-63.3	3.8	8.46e-01	0	57	104	377487360	60	31807
2026-01-01 07:15:40.14	145.94	3.58	-45.0	-63.3	3.8	8.45e-01	0	57	104	377487360	60	31752
2026-01-01 07:15:41.15	145.82	3.52	-45.0	-63.3	3.8	8.45e-01	0	58	104	377487360	60	31740
2026-01-01 07:15:42.16	145.71	3.46	-45.0	-63.3	3.8	8.46e-01	0	57	104	377487360	60	31756
2026-01-01 07:15:43.17	145.60	3.39	-45.0	-63.3	3.8	8.47e-01	0	57	104	377487360	60	31717
2026-01-01 07:15:44.18	145.49	3.33	-45.0	-63.3	3.8	8.47e-01	0	57	104	377487360	60	31756
2026-01-01 07:15:45.20	145.37	3.27	-45.0	-63.3	3.8	8.47e-01	0	57	104	377487360	60	31736
2026-01-01 07:15:46.21	145.26	3.20	-45.0	-63.3	3.8	8.47e-01	0	57	104	377487360	60	31726
2026-01-01 07:15:47.22	145.15	3.14	-45.0	-63.3	3.8	8.46e-01	0	58	104	377487360	60	31746
2026-01-01 07:15:48.23	145.04	3.08	-44.4	-63.3	3.8	8.46e-01	0	58	104	377487360	60	31758
2026-01-01 07:15:49.24	144.94	3.01	-45.0	-63.4	3.8	8.46e-01	0	57	104	377487360	60	31819
2026-01-01 07:15:50.25	144.83	2.95	-45.0	-63.3	3.8	8.46e-01	0	57	104	377487360	60	31728
2026-01-01 07:15:51.26	144.72	2.89	-45.0	-63.4	3.8	8.46e-01	0	57	104	377487360	60	31821
2026-01-01 07:15:52.27	144.61	2.83	-45.0	-63.3	3.8	8.46e-01	0	57	104	377487360	60	31782
2026-01-01 07:15:53.28	144.51	2.76	-45.0	-63.3	3.8	8.46e-01	0	57	104	377487360	60	31789
2026-01-01 07:15:54.29	144.40	2.70	-45.0	-63.3	3.8	8.46e-01	0	58	104	377487360	60	31712
2026-01-01 07:15:55.30	144.30	2.64	-45.0	-63.3	3.8	8.48e-01	0	57	104	377487360	60	31793
2026-01-01 07:15:56.32	144.19	2.58	-45.0	-63.3	3.8	8.45e-01	0	57	104	377487360	60	31735
2026-01-01 07:15:57.33	144.09	2.52	-45.0	-63.3	3.8	8.46e-01	0	58	104	377487360	60	31673
2026-01-01 07:15:58.34	143.99	2.45	-45.0	-63.3	3.8	8.46e-01	0	57	104	377487360	60	31787
2026-01-01 07:15:59.35	143.89	2.39	-45.0	-63.3	3.8	8.46e-01	0	57	104	377487360	60	31722
2026-01-01 07:16:00.36	143.78	2.33	-45.0	-63.3	3.8	8.46e-01	0	57	104	377487360	60	31671
2026-01-01 07:16:01.37	143.68	2.27	-45.0	-63.3	3.8	8.46e-01	0	57	104	377487360	60	31691
2026-01-01 07:16:02.38	143.58	2.21	-45.0	-63.3	3.8	8.46e-01	0	57	104	377487360	60	31706
2026-01-01 07:16:03.39	143.48	2.15	-45.0	-63.3	3.8	8.47e-01	0	57	104	377487360	60	31691
2026-01-01 07:16:04.40	143.38	2.09	-45.0	-63.3	3.8	8.47e-01	0	57	104	377487360	60	31709
2026-01-01 07:16:05.42	143.29	2.03	-45.0	-63.3	3.8	8.46e-01	0	57	104	377487360	60	31714
2026-01-01 07:16:06.43	143.19	1.97	-45.0	-63.3	3.8	8.47e-01	0	57	104	377487360	60	31611
2026-01-01 07:16:07.44	143.09	1.91	-45.0	-63.3	3.8	8.47e-01	0	57	104	377487360	60	31704

#Closed at: 2026-01-01 07:16:07
#Recorded file [377 MB]: D:/lorett/data/31039_260101_100736.dat