passes_logs/2026/01/01/R2.0S_Moscow/R2.0S_Moscow__20260101_090810_NOAA_20_JPSS-1_rec.log

#Pass ID: 20260101_090810_NOAA 20 (JPSS-1)
#Satellite: NOAA 20 (JPSS-1)
#Configuration: NOAA 20
#almurnet v.1.7.20251203
#Start time: 2026-01-01 09:08:10

#Version: 2.2.20231116
#Station: R2.0S_Moscow
#Location: 37.707566 lon 55.798166 lat
#TLE: 1 43013U 17073A   25365.45761817  .00000173  00000+0  10307-3 0  9993
#TLE: 2 43013  98.7620 301.5517 0001951  60.3814 299.7557 14.19531661420675

#Time	Az	El	Level	Level2	SNR	BER	BlckErr	Temp	State	Recorded	gain1	gain2
2026-01-01 09:08:10.17	137.87	1.96	-16.3	-30.4	3.4	1.51e+00	0	49	0	0	6	16020
2026-01-01 09:08:11.17	137.84	2.03	-20.5	-33.8	4.0	1.50e+00	0	49	104	0	11	17767
2026-01-01 09:08:12.18	137.80	2.09	-28.1	-42.6	6.0	1.51e+00	0	49	104	0	15	38790
2026-01-01 09:08:13.19	137.77	2.15	-29.8	-43.6	4.3	1.50e+00	0	49	104	0	25	24635
2026-01-01 09:08:14.20	137.74	2.22	-21.4	-36.9	3.5	1.51e+00	0	49	104	0	11	25515
2026-01-01 09:08:15.21	137.71	2.28	-21.7	-38.0	-1.7	1.50e+00	0	49	104	0	16	21708
2026-01-01 09:08:16.22	137.67	2.34	-12.0	-37.0	3.9	1.50e+00	0	49	104	0	8	30433
2026-01-01 09:08:17.23	137.64	2.41	-10.5	-36.6	3.7	1.50e+00	0	49	104	0	1	43804
2026-01-01 09:08:18.24	137.61	2.47	-27.5	-39.9	3.6	1.51e+00	0	50	104	0	1	63554
2026-01-01 09:08:19.25	137.58	2.54	-26.5	-42.9	3.2	1.51e+00	0	49	104	0	17	35873
2026-01-01 09:08:20.26	137.54	2.60	-26.4	-43.8	3.5	1.50e+00	0	50	104	0	21	31452
2026-01-01 09:08:21.27	137.51	2.67	-25.1	-40.9	3.8	1.51e+00	0	50	104	0	22	21368
2026-01-01 09:08:22.28	137.48	2.73	-24.6	-42.0	3.9	1.50e+00	0	50	104	0	18	30385
2026-01-01 09:08:23.30	137.44	2.80	-29.1	-42.9	3.4	1.50e+00	0	50	104	0	19	32054
2026-01-01 09:08:24.31	137.41	2.86	-26.1	-38.5	3.8	1.51e+00	0	50	104	0	18	20516
2026-01-01 09:08:25.32	137.37	2.93	-27.2	-44.5	4.4	1.51e+00	0	50	104	0	23	30701
2026-01-01 09:08:26.33	137.34	2.99	-19.0	-41.0	6.1	1.51e+00	0	50	104	0	10	43384
2026-01-01 09:08:27.34	137.30	3.06	-26.5	-40.3	-2.6	1.51e+00	0	50	104	0	14	31624
2026-01-01 09:08:28.35	137.27	3.12	-20.4	-40.2	4.2	1.51e+00	0	50	104	0	22	19835
2026-01-01 09:08:29.36	137.23	3.19	-25.8	-42.6	4.4	1.51e+00	0	50	104	0	21	27434
2026-01-01 09:08:30.37	137.20	3.25	-29.8	-43.2	3.9	1.51e+00	0	50	104	0	21	29637
2026-01-01 09:08:31.38	137.16	3.32	-29.4	-45.1	4.2	1.51e+00	0	51	0	0	26	27443
2026-01-01 09:08:32.39	137.13	3.39	-26.7	-39.3	3.8	1.51e+00	0	50	104	0	15	26752
2026-01-01 09:08:33.40	137.09	3.45	-29.9	-46.3	4.1	1.51e+00	0	51	104	0	26	31706
2026-01-01 09:08:34.41	137.06	3.52	-27.8	-43.3	4.0	1.51e+00	0	50	104	0	21	29810
2026-01-01 09:08:35.42	137.02	3.59	-27.1	-42.8	4.0	1.51e+00	0	51	104	0	21	28106
2026-01-01 09:08:36.44	136.99	3.65	-20.3	-39.5	3.6	1.51e+00	0	50	104	0	13	30708
2026-01-01 09:08:37.45	136.95	3.72	-27.1	-44.4	3.9	1.51e+00	0	51	104	0	22	31964
2026-01-01 09:08:38.46	136.91	3.79	-27.6	-45.5	4.1	1.51e+00	0	51	104	0	25	30499
2026-01-01 09:08:39.47	136.88	3.85	-14.2	-38.9	3.4	1.51e+00	0	51	104	0	13	28506
2026-01-01 09:08:40.48	136.84	3.92	-23.7	-40.8	3.9	1.51e+00	0	51	104	0	20	23792
2026-01-01 09:08:41.49	136.80	3.99	-19.5	-37.9	3.3	1.50e+00	0	51	104	0	18	19089
2026-01-01 09:08:42.50	136.77	4.06	-18.6	-36.6	3.4	1.49e+00	0	51	104	0	18	16501
2026-01-01 09:08:43.51	136.73	4.12	-27.3	-42.9	3.8	1.50e+00	0	51	104	0	24	23946
2026-01-01 09:08:44.52	136.69	4.19	-28.6	-42.7	5.1	1.51e+00	0	51	104	0	16	37180
2026-01-01 09:08:45.54	136.65	4.26	-20.9	-41.1	4.1	1.51e+00	0	51	104	0	21	23212
2026-01-01 09:08:46.55	136.62	4.33	-12.5	-36.2	3.6	1.51e+00	0	51	104	0	0	44025
2026-01-01 09:08:47.56	136.58	4.40	-20.9	-45.0	4.2	1.51e+00	0	51	104	0	25	28792
2026-01-01 09:08:48.57	136.54	4.47	-24.0	-42.2	4.2	1.51e+00	0	51	104	0	25	21009
2026-01-01 09:08:49.58	136.50	4.54	-29.3	-41.0	3.7	1.51e+00	0	51	104	0	24	19253
2026-01-01 09:08:50.59	136.46	4.60	-23.8	-36.5	3.9	1.50e+00	0	52	104	0	18	16209
2026-01-01 09:08:51.60	136.42	4.67	-28.9	-45.7	4.5	1.51e+00	0	51	104	0	26	29512
2026-01-01 09:08:52.61	136.39	4.74	-24.5	-44.3	4.6	1.51e+00	0	52	104	0	17	42191
2026-01-01 09:08:53.62	136.35	4.81	-14.1	-38.7	3.5	1.51e+00	0	51	104	0	10	33093
2026-01-01 09:08:54.63	136.31	4.88	-23.8	-43.0	3.4	1.51e+00	0	52	104	0	21	28902
2026-01-01 09:08:55.65	136.27	4.95	-25.2	-41.7	3.9	1.51e+00	0	52	104	0	22	23576
2026-01-01 09:08:56.66	136.23	5.02	-29.4	-47.6	3.6	1.51e+00	0	52	104	0	27	34825
2026-01-01 09:08:57.67	136.19	5.09	-23.0	-43.2	4.0	1.51e+00	0	52	0	0	14	43941
2026-01-01 09:08:58.68	136.15	5.16	-26.5	-41.3	3.8	1.51e+00	0	52	104	0	19	26714
2026-01-01 09:08:59.69	136.11	5.23	-27.1	-43.8	4.1	1.51e+00	0	52	104	0	24	26469
2026-01-01 09:09:00.69	136.07	5.30	-24.5	-43.1	3.8	1.50e+00	0	52	104	0	22	27427
2026-01-01 09:09:01.70	136.03	5.37	-25.8	-43.1	4.0	1.51e+00	0	52	104	0	22	27686
2026-01-01 09:09:02.71	135.99	5.45	-25.6	-42.1	4.0	1.51e+00	0	52	104	0	20	27505
2026-01-01 09:09:03.72	135.94	5.52	-28.2	-44.4	4.1	1.51e+00	0	52	104	0	23	30223
2026-01-01 09:09:04.73	135.90	5.59	-23.4	-43.6	4.2	1.51e+00	0	52	104	0	24	26137
2026-01-01 09:09:05.74	135.86	5.66	-28.1	-41.3	4.0	1.51e+00	0	52	0	0	22	22367
2026-01-01 09:09:06.75	135.82	5.73	-21.8	-44.3	4.2	1.51e+00	0	52	104	0	25	26478
2026-01-01 09:09:07.76	135.78	5.80	-27.6	-43.9	4.3	1.51e+00	0	52	104	0	25	25354
2026-01-01 09:09:08.77	135.73	5.88	-27.5	-47.2	4.6	1.51e+00	0	52	104	0	20	49458
2026-01-01 09:09:09.78	135.69	5.95	-20.7	-41.3	4.1	1.51e+00	0	52	104	0	21	23590
2026-01-01 09:09:10.79	135.65	6.02	-29.2	-44.6	3.5	1.50e+00	0	53	104	0	22	32606
2026-01-01 09:09:11.80	135.61	6.09	-29.0	-46.6	4.3	1.51e+00	0	53	104	0	28	29334
2026-01-01 09:09:12.81	135.56	6.17	-23.0	-47.2	6.6	1.51e+00	0	52	104	0	18	55472
2026-01-01 09:09:13.83	135.52	6.24	-29.4	-47.2	4.2	1.51e+00	0	53	104	0	23	41572
2026-01-01 09:09:14.84	135.48	6.31	-29.3	-45.3	4.7	1.51e+00	0	53	104	0	23	33572
2026-01-01 09:09:15.85	135.43	6.39	-23.0	-45.5	4.3	1.51e+00	0	53	104	0	25	30726
2026-01-01 09:09:16.85	135.39	6.46	-27.5	-45.0	3.8	1.51e+00	0	53	104	0	21	36378
2026-01-01 09:09:17.87	135.34	6.53	-28.2	-47.3	4.0	1.51e+00	0	53	104	0	26	35544
2026-01-01 09:09:18.88	135.30	6.61	-20.6	-43.5	4.0	1.50e+00	0	53	104	0	18	36517
2026-01-01 09:09:19.89	135.25	6.68	-20.5	-39.8	3.2	1.50e+00	0	53	104	0	15	28298
2026-01-01 09:09:20.90	135.21	6.76	-27.5	-48.1	4.5	1.51e+00	0	53	104	0	29	32665
2026-01-01 09:09:21.91	135.16	6.83	-30.2	-48.5	4.8	1.51e+00	0	53	104	0	19	61068
2026-01-01 09:09:22.92	135.12	6.91	-29.6	-45.7	4.3	1.51e+00	0	53	104	0	28	26263
2026-01-01 09:09:23.93	135.07	6.98	-23.3	-48.9	4.5	1.51e+00	0	53	104	0	32	30054
2026-01-01 09:09:24.94	135.03	7.06	-32.2	-48.9	4.4	1.51e+00	0	53	104	0	32	30084
2026-01-01 09:09:25.95	134.98	7.13	-15.2	-40.0	3.8	1.51e+00	0	53	104	0	9	40795
2026-01-01 09:09:26.96	134.93	7.21	-18.5	-43.2	3.8	1.51e+00	0	53	104	0	13	46939
2026-01-01 09:09:27.97	134.89	7.28	-29.2	-49.8	4.4	1.51e+00	0	53	104	0	28	42255
2026-01-01 09:09:28.98	134.84	7.36	-30.0	-45.0	3.7	1.51e+00	0	53	104	0	13	57850
2026-01-01 09:09:30.00	134.79	7.44	-29.4	-42.0	3.3	1.50e+00	0	53	104	0	12	43017
2026-01-01 09:09:31.01	134.74	7.51	-22.3	-40.5	3.3	1.50e+00	0	53	104	0	6	51018
2026-01-01 09:09:32.02	134.70	7.59	-20.8	-42.8	3.5	1.51e+00	0	53	104	0	14	42170
2026-01-01 09:09:33.03	134.65	7.67	-30.5	-49.9	4.3	1.50e+00	0	53	104	0	31	35763
2026-01-01 09:09:34.04	134.60	7.74	-21.7	-36.9	3.2	1.50e+00	0	54	104	0	24	11991
2026-01-01 09:09:35.05	134.55	7.82	-29.5	-46.9	4.1	1.50e+00	0	54	104	0	25	35973
2026-01-01 09:09:36.06	134.50	7.90	-21.4	-33.8	4.0	1.50e+00	0	53	104	0	9	19914
2026-01-01 09:09:37.07	134.45	7.98	-26.1	-41.9	3.9	1.51e+00	0	54	104	0	23	22630
2026-01-01 09:09:38.08	134.40	8.05	-31.4	-47.5	4.2	1.51e+00	0	54	104	0	26	36193
2026-01-01 09:09:39.09	134.35	8.13	-21.4	-34.9	3.6	1.49e+00	0	54	104	0	12	19016
2026-01-01 09:09:40.10	134.30	8.21	-33.2	-51.5	5.3	1.50e+00	0	54	104	0	37	30651
2026-01-01 09:09:41.11	134.25	8.29	-23.0	-39.6	3.7	1.50e+00	0	54	104	0	15	27617
2026-01-01 09:09:42.12	134.20	8.37	-27.0	-45.6	4.3	1.51e+00	0	54	104	0	24	32630
2026-01-01 09:09:43.13	134.15	8.45	-34.2	-51.1	4.4	1.51e+00	0	54	104	0	39	26134
2026-01-01 09:09:44.14	134.10	8.53	-25.8	-39.9	4.0	1.51e+00	0	54	104	0	21	20103
2026-01-01 09:09:45.16	134.05	8.61	-25.9	-40.7	3.3	1.51e+00	0	54	104	0	17	27922
2026-01-01 09:09:46.17	134.00	8.69	-25.1	-41.0	3.6	1.51e+00	0	54	104	0	22	21582
2026-01-01 09:09:47.18	133.95	8.77	-17.3	-33.0	3.4	1.50e+00	0	54	104	0	10	17259
2026-01-01 09:09:48.19	133.89	8.85	-15.8	-27.6	3.6	1.50e+00	0	54	0	0	3	13836
2026-01-01 09:09:49.20	133.84	8.93	-26.6	-43.9	4.3	1.50e+00	0	54	104	0	24	26843
2026-01-01 09:09:50.21	133.79	9.01	-25.7	-37.6	3.9	1.49e+00	0	54	104	0	18	18472
2026-01-01 09:09:51.22	133.73	9.09	-17.2	-32.3	3.5	1.50e+00	0	54	104	0	10	15884
2026-01-01 09:09:52.23	133.68	9.17	-18.6	-35.7	3.6	1.50e+00	0	54	104	0	11	22109
2026-01-01 09:09:53.24	133.63	9.25	-22.0	-36.1	3.8	1.50e+00	0	54	104	0	12	21843
2026-01-01 09:09:54.25	133.57	9.33	-22.8	-36.3	3.6	1.50e+00	0	54	104	0	12	22287
2026-01-01 09:09:55.26	133.52	9.42	-20.8	-34.9	3.6	1.50e+00	0	54	104	0	12	18978
2026-01-01 09:09:56.27	133.46	9.50	-23.5	-37.4	3.5	1.50e+00	0	54	104	0	14	22778
2026-01-01 09:09:57.28	133.41	9.58	-27.4	-41.6	4.0	1.50e+00	0	54	104	0	19	27615
2026-01-01 09:09:58.30	133.35	9.66	-21.5	-42.0	3.9	1.51e+00	0	54	104	0	19	28717
2026-01-01 09:09:59.31	133.30	9.75	-17.0	-31.0	3.5	1.50e+00	0	54	104	0	6	17165
2026-01-01 09:10:00.32	133.24	9.83	-18.1	-35.1	3.5	1.50e+00	0	54	0	0	11	20569
2026-01-01 09:10:01.33	133.18	9.91	-22.0	-37.1	3.4	1.50e+00	0	54	104	0	11	25913
2026-01-01 09:10:02.34	133.13	10.00	-17.3	-35.8	3.4	1.50e+00	0	54	104	0	11	22269
2026-01-01 09:10:03.35	133.07	10.08	-21.1	-34.2	3.3	1.50e+00	0	54	104	0	9	20995
2026-01-01 09:10:04.36	133.01	10.17	-18.3	-37.4	3.4	1.50e+00	0	55	104	0	11	26842
2026-01-01 09:10:05.37	132.95	10.25	-26.8	-41.0	3.7	1.51e+00	0	54	104	0	20	24241
2026-01-01 09:10:06.38	132.90	10.34	-17.8	-31.1	3.7	1.50e+00	0	54	104	0	9	14579
2026-01-01 09:10:07.39	132.84	10.42	-17.9	-34.8	3.8	1.50e+00	0	55	104	0	11	20009
2026-01-01 09:10:08.40	132.78	10.51	-20.2	-32.2	3.6	1.50e+00	0	54	104	0	8	17682
2026-01-01 09:10:09.41	132.72	10.59	-17.5	-28.2	3.8	1.50e+00	0	54	104	0	6	12514
2026-01-01 09:10:10.42	132.66	10.68	-19.2	-33.1	3.7	1.50e+00	0	54	104	0	11	16315
2026-01-01 09:10:11.43	132.60	10.76	-21.2	-35.1	4.0	1.50e+00	0	54	104	0	12	19597
2026-01-01 09:10:12.44	132.54	10.85	-20.3	-36.8	4.8	1.49e+00	0	55	0	0	17	17824
2026-01-01 09:10:13.45	132.48	10.94	-27.7	-40.4	4.7	1.43e+00	0	54	104	0	23	18978
2026-01-01 09:10:14.46	132.42	11.02	-21.5	-34.5	4.5	1.47e+00	0	54	104	0	13	17174
2026-01-01 09:10:15.47	132.36	11.11	-22.3	-33.9	3.6	1.49e+00	0	55	104	0	3	28381
2026-01-01 09:10:16.49	132.29	11.20	-20.6	-36.0	3.5	1.50e+00	0	55	104	0	9	25566
2026-01-01 09:10:17.50	132.23	11.29	-24.8	-38.5	3.7	1.50e+00	0	55	104	0	15	24177
2026-01-01 09:10:18.51	132.17	11.37	-22.9	-34.0	3.6	1.50e+00	0	54	104	0	10	19229
2026-01-01 09:10:19.52	132.11	11.46	-23.3	-37.4	4.3	1.50e+00	0	55	104	0	14	22543
2026-01-01 09:10:20.53	132.04	11.55	-24.9	-38.3	4.9	1.43e+00	0	55	104	0	20	17767
2026-01-01 09:10:21.54	131.98	11.64	-28.1	-39.5	5.0	1.42e+00	0	55	104	0	22	18195
2026-01-01 09:10:22.55	131.91	11.73	-24.9	-36.3	4.5	1.45e+00	0	55	104	0	15	18908
2026-01-01 09:10:23.56	131.85	11.82	-22.7	-33.7	3.4	1.49e+00	0	55	104	0	8	20986
2026-01-01 09:10:24.57	131.78	11.91	-18.4	-30.0	3.8	1.50e+00	0	55	104	0	7	14420
2026-01-01 09:10:25.58	131.72	12.00	-16.4	-28.6	3.8	1.50e+00	0	55	104	0	12	9270
2026-01-01 09:10:26.59	131.65	12.09	-16.9	-28.6	4.0	1.50e+00	0	55	104	0	6	13039
2026-01-01 09:10:27.60	131.59	12.18	-24.2	-37.5	4.3	1.49e+00	0	55	104	0	16	20352
2026-01-01 09:10:28.61	131.52	12.27	-22.8	-38.1	5.3	1.46e+00	0	55	104	0	24	13865
2026-01-01 09:10:29.62	131.45	12.36	-20.6	-34.1	4.2	1.40e+00	0	55	104	0	12	17348
2026-01-01 09:10:30.63	131.38	12.45	-21.2	-35.9	3.8	1.49e+00	0	55	104	0	16	17079
2026-01-01 09:10:31.64	131.32	12.54	-18.7	-31.7	3.5	1.50e+00	0	55	104	0	9	15598
2026-01-01 09:10:32.65	131.25	12.64	-23.0	-38.0	4.0	1.49e+00	0	55	104	0	17	20311
2026-01-01 09:10:33.66	131.18	12.73	-22.1	-36.4	3.9	1.49e+00	0	55	104	0	12	22702
2026-01-01 09:10:34.67	131.11	12.82	-26.1	-37.4	3.7	1.49e+00	0	55	104	0	11	26781
2026-01-01 09:10:35.68	131.04	12.91	-22.3	-34.6	4.2	1.48e+00	0	55	104	0	10	20541
2026-01-01 09:10:36.70	130.97	13.01	-21.5	-34.5	4.2	1.49e+00	0	55	104	0	14	16311
2026-01-01 09:10:37.71	130.90	13.10	-19.2	-33.6	3.9	1.50e+00	0	55	104	0	11	17417
2026-01-01 09:10:38.72	130.83	13.20	-26.3	-38.5	5.0	1.42e+00	0	55	104	0	19	19180
2026-01-01 09:10:39.73	130.76	13.29	-21.8	-37.6	3.8	1.50e+00	0	55	104	0	15	21836
2026-01-01 09:10:40.74	130.68	13.39	-20.9	-32.8	3.7	1.47e+00	0	55	104	0	13	14130
2026-01-01 09:10:41.75	130.61	13.48	-31.8	-41.0	5.6	1.45e+00	0	55	104	0	29	14505
2026-01-01 09:10:42.76	130.54	13.58	-20.7	-33.5	4.0	1.29e+00	0	55	104	0	13	15398
2026-01-01 09:10:43.77	130.46	13.67	-32.5	-39.6	5.4	1.34e+00	0	55	104	0	26	14687
2026-01-01 09:10:44.78	130.39	13.77	-26.3	-40.3	5.5	3.46e-01	0	55	104	0	32	11264
2026-01-01 09:10:45.79	130.31	13.86	-21.1	-35.6	4.1	1.41e+00	0	56	104	0	14	18509
2026-01-01 09:10:46.80	130.24	13.96	-25.2	-39.0	4.5	1.41e+00	0	55	104	0	18	21574
2026-01-01 09:10:47.81	130.16	14.06	-27.0	-38.7	5.1	1.37e+00	0	55	104	0	26	13173
2026-01-01 09:10:48.82	130.09	14.15	-21.9	-34.4	4.4	1.41e+00	0	56	104	0	17	13541
2026-01-01 09:10:49.83	130.01	14.25	-34.4	-41.2	9.5	9.91e-01	15	55	104	0	41	7391
2026-01-01 09:10:50.85	129.93	14.35	-29.7	-40.2	7.8	6.30e-01	25	55	0	1048576	39	7454
2026-01-01 09:10:51.85	129.86	14.45	-23.9	-37.3	7.1	1.79e-01	18	55	0	2097152	26	11190
2026-01-01 09:10:52.87	129.78	14.55	-33.4	-42.1	8.2	1.40e+00	28	55	104	2097152	39	9252
2026-01-01 09:10:53.88	129.70	14.65	-21.9	-36.3	4.1	4.08e-01	0	55	104	3145728	15	18771
2026-01-01 09:10:54.89	129.62	14.75	-37.6	-41.9	11.3	1.25e+00	5	55	104	3145728	45	6374
2026-01-01 09:10:55.90	129.54	14.85	-26.0	-40.3	5.9	1.45e+00	8	55	104	3145728	28	14093
2026-01-01 09:10:56.91	129.46	14.95	-24.0	-38.3	5.3	1.11e+00	0	56	104	3145728	26	12544
2026-01-01 09:10:57.92	129.38	15.05	-37.9	-42.1	11.4	5.02e-01	6	55	0	4194304	40	8751
2026-01-01 09:10:58.93	129.30	15.15	-25.0	-37.9	5.0	2.99e-01	0	55	0	5242880	20	16919
2026-01-01 09:10:59.94	129.21	15.25	-26.3	-37.9	5.3	2.94e-01	0	56	0	6291456	27	11381
2026-01-01 09:11:00.95	129.13	15.35	-25.0	-37.5	7.4	4.28e-01	8	56	0	7340032	28	10177
2026-01-01 09:11:01.96	129.05	15.45	-26.1	-37.6	4.6	8.98e-01	0	55	0	8388608	18	18404
2026-01-01 09:11:02.96	128.97	15.55	-31.4	-40.9	11.4	6.75e-01	6	56	0	9437184	39	8062
2026-01-01 09:11:03.98	128.88	15.66	-26.5	-38.9	5.9	4.36e-01	16	56	0	10485760	24	15064
2026-01-01 09:11:04.98	128.80	15.76	-39.2	-42.2	13.5	6.41e-01	0	56	0	11534336	49	5254
2026-01-01 09:11:06.00	128.71	15.86	-39.3	-42.2	14.5	3.36e-02	0	56	0	13631488	49	5243
2026-01-01 09:11:07.00	128.62	15.97	-39.2	-42.0	14.1	1.71e-02	0	56	0	15728640	45	6485
2026-01-01 09:11:08.01	128.54	16.07	-39.2	-41.7	15.1	3.96e-03	0	56	0	17825792	48	5276
2026-01-01 09:11:09.02	128.45	16.17	-36.3	-41.5	14.1	4.63e-03	0	56	0	19922944	46	5756
2026-01-01 09:11:10.03	128.36	16.28	-39.3	-41.8	15.6	1.20e-03	0	55	0	20971520	49	4990
2026-01-01 09:11:11.04	128.27	16.38	-39.4	-41.9	15.5	2.80e-04	0	55	0	23068672	49	5053
2026-01-01 09:11:12.05	128.18	16.49	-39.3	-41.7	15.8	1.26e-03	0	56	0	25165824	49	4966
2026-01-01 09:11:13.06	128.09	16.60	-39.2	-41.6	16.0	2.51e-05	0	56	0	27262976	49	4898
2026-01-01 09:11:14.07	128.00	16.70	-39.3	-41.6	16.0	3.89e-05	0	56	0	29360128	49	4912
2026-01-01 09:11:15.08	127.91	16.81	-39.4	-41.7	15.9	7.82e-04	0	56	0	30408704	49	4971
2026-01-01 09:11:16.09	127.82	16.92	-39.2	-41.7	15.9	1.50e-06	0	56	0	32505856	49	4964
2026-01-01 09:11:17.10	127.73	17.02	-39.3	-41.7	15.9	3.13e-04	0	56	0	34603008	49	4976
2026-01-01 09:11:18.11	127.63	17.13	-39.4	-41.8	15.9	1.22e-05	0	56	0	36700160	49	5002
2026-01-01 09:11:19.12	127.54	17.24	-39.5	-41.9	15.8	1.45e-04	0	56	0	38797312	49	5093
2026-01-01 09:11:20.13	127.44	17.35	-39.6	-42.1	15.6	2.13e-05	0	56	0	39845888	49	5183
2026-01-01 09:11:21.14	127.35	17.46	-39.6	-42.1	15.3	5.30e-06	0	56	0	41943040	49	5189
2026-01-01 09:11:22.15	127.25	17.57	-39.6	-42.1	15.6	2.75e-04	0	56	0	44040192	49	5194
2026-01-01 09:11:23.16	127.16	17.68	-39.3	-41.8	15.7	0.00e+00	0	56	0	46137344	49	5004
2026-01-01 09:11:24.17	127.06	17.79	-39.4	-41.7	16.1	1.37e-04	0	56	0	48234496	49	4940
2026-01-01 09:11:25.18	126.96	17.90	-39.4	-41.8	15.9	7.00e-07	0	56	0	49283072	49	4999
2026-01-01 09:11:26.19	126.86	18.01	-39.4	-41.7	16.1	0.00e+00	0	56	0	51380224	49	4935
2026-01-01 09:11:27.20	126.76	18.12	-39.3	-41.7	16.1	0.00e+00	0	56	0	53477376	49	4930
2026-01-01 09:11:28.21	126.66	18.23	-39.3	-41.7	16.1	7.00e-07	0	56	0	55574528	49	4928
2026-01-01 09:11:29.22	126.56	18.35	-39.3	-41.6	16.2	0.00e+00	0	56	0	57671680	49	4877
2026-01-01 09:11:30.23	126.46	18.46	-39.4	-41.7	16.0	0.00e+00	0	56	0	58720256	49	4940
2026-01-01 09:11:31.24	126.35	18.57	-39.2	-41.5	16.2	0.00e+00	0	56	0	60817408	49	4842
2026-01-01 09:11:32.25	126.25	18.69	-39.3	-41.5	16.2	3.00e-06	0	56	0	62914560	49	4854
2026-01-01 09:11:33.26	126.15	18.80	-39.3	-41.6	16.2	0.00e+00	0	56	0	65011712	49	4921
2026-01-01 09:11:34.27	126.04	18.91	-39.4	-41.7	16.1	7.00e-07	0	56	0	67108864	49	4969
2026-01-01 09:11:35.28	125.93	19.03	-39.5	-41.8	16.0	0.00e+00	0	56	0	68157440	49	5014
2026-01-01 09:11:36.29	125.83	19.14	-39.5	-41.9	16.0	0.00e+00	0	56	0	70254592	49	5051
2026-01-01 09:11:37.30	125.72	19.26	-39.4	-41.6	16.2	0.00e+00	0	56	0	72351744	49	4923
2026-01-01 09:11:38.31	125.61	19.38	-39.3	-41.6	16.3	0.00e+00	0	56	0	74448896	49	4889
2026-01-01 09:11:39.32	125.50	19.49	-39.3	-41.5	16.3	0.00e+00	0	56	0	76546048	49	4859
2026-01-01 09:11:40.33	125.39	19.61	-39.3	-41.6	16.3	2.20e-06	0	56	0	77594624	49	4871
2026-01-01 09:11:41.34	125.28	19.73	-39.4	-41.6	16.2	0.00e+00	0	56	0	79691776	49	4919
2026-01-01 09:11:42.35	125.17	19.85	-39.5	-41.8	16.1	0.00e+00	0	56	0	81788928	49	5004
2026-01-01 09:11:43.36	125.06	19.96	-39.6	-42.0	15.9	0.00e+00	0	56	0	83886080	49	5123
2026-01-01 09:11:44.37	124.94	20.08	-39.6	-41.9	15.9	0.00e+00	0	56	0	85983232	49	5088
2026-01-01 09:11:45.38	124.83	20.20	-39.6	-42.0	15.9	0.00e+00	0	56	0	88080384	49	5141
2026-01-01 09:11:46.39	124.71	20.32	-39.6	-42.0	15.9	0.00e+00	0	56	0	89128960	49	5124
2026-01-01 09:11:47.40	124.59	20.44	-39.6	-42.0	15.9	0.00e+00	0	56	0	91226112	49	5114
2026-01-01 09:11:48.41	124.48	20.56	-39.6	-41.9	15.9	0.00e+00	0	56	0	93323264	49	5092
2026-01-01 09:11:49.42	124.36	20.68	-39.5	-41.8	16.1	0.00e+00	0	56	0	95420416	49	5016
2026-01-01 09:11:50.43	124.24	20.81	-39.5	-41.8	16.1	0.00e+00	0	56	0	97517568	49	4985
2026-01-01 09:11:51.44	124.12	20.93	-39.4	-41.7	16.2	0.00e+00	0	56	0	98566144	49	4938
2026-01-01 09:11:52.45	124.00	21.05	-39.3	-41.6	16.3	0.00e+00	0	56	0	100663296	49	4890
2026-01-01 09:11:53.46	123.87	21.17	-39.4	-41.6	16.2	0.00e+00	0	56	0	102760448	49	4925
2026-01-01 09:11:54.47	123.75	21.30	-39.5	-41.8	16.1	0.00e+00	0	56	0	104857600	49	4994
2026-01-01 09:11:55.48	123.63	21.42	-39.5	-41.8	16.2	0.00e+00	0	56	0	106954752	49	4992
2026-01-01 09:11:56.49	123.50	21.55	-39.4	-41.7	16.2	0.00e+00	0	56	0	108003328	49	4944
2026-01-01 09:11:57.50	123.38	21.67	-39.5	-41.8	16.2	0.00e+00	0	56	0	110100480	49	5001
2026-01-01 09:11:58.51	123.25	21.80	-39.5	-41.8	16.2	0.00e+00	0	56	0	112197632	49	4986
2026-01-01 09:11:59.52	123.12	21.92	-39.5	-41.8	16.1	0.00e+00	0	56	0	114294784	49	5027
2026-01-01 09:12:00.53	122.99	22.05	-39.5	-41.8	16.1	0.00e+00	0	56	0	116391936	49	5034
2026-01-01 09:12:01.54	122.86	22.17	-39.6	-41.9	16.0	0.00e+00	0	56	0	117440512	49	5069
2026-01-01 09:12:02.55	122.73	22.30	-39.6	-41.9	16.1	0.00e+00	0	56	0	119537664	49	5057
2026-01-01 09:12:03.56	122.59	22.43	-39.6	-42.0	16.0	0.00e+00	0	56	0	121634816	49	5119
2026-01-01 09:12:04.57	122.46	22.56	-39.6	-41.9	16.1	0.00e+00	0	57	0	123731968	49	5074
2026-01-01 09:12:05.58	122.33	22.69	-39.5	-41.9	16.1	0.00e+00	0	56	0	125829120	49	5043
2026-01-01 09:12:06.59	122.19	22.81	-39.5	-41.8	16.1	0.00e+00	0	56	0	126877696	49	5041
2026-01-01 09:12:07.60	122.05	22.94	-39.5	-41.8	16.1	0.00e+00	0	56	0	128974848	49	5040
2026-01-01 09:12:08.62	121.91	23.08	-39.5	-41.7	16.3	0.00e+00	0	56	0	131072000	49	4964
2026-01-01 09:12:09.63	121.77	23.21	-39.4	-41.7	16.3	0.00e+00	0	57	0	133169152	49	4936
2026-01-01 09:12:10.64	121.63	23.34	-39.5	-41.7	16.2	0.00e+00	0	56	0	135266304	49	4977
2026-01-01 09:12:11.65	121.49	23.47	-39.6	-41.9	16.0	0.00e+00	0	56	0	136314880	49	5073
2026-01-01 09:12:12.66	121.35	23.60	-39.6	-41.9	16.1	0.00e+00	0	57	0	138412032	49	5045
2026-01-01 09:12:13.67	121.20	23.73	-39.6	-41.9	16.1	0.00e+00	0	56	0	140509184	49	5053
2026-01-01 09:12:14.68	121.06	23.87	-39.6	-41.9	16.1	0.00e+00	0	56	0	142606336	49	5051
2026-01-01 09:12:15.69	120.91	24.00	-39.6	-41.9	16.1	0.00e+00	0	56	0	144703488	49	5098
2026-01-01 09:12:16.70	120.76	24.13	-39.7	-42.0	16.0	0.00e+00	0	56	0	145752064	49	5133
2026-01-01 09:12:17.71	120.61	24.27	-39.7	-42.0	16.0	0.00e+00	0	56	0	147849216	49	5152
2026-01-01 09:12:18.72	120.46	24.40	-39.7	-42.0	16.0	0.00e+00	0	56	0	149946368	50	4855
2026-01-01 09:12:19.73	120.31	24.54	-39.8	-42.1	15.9	0.00e+00	0	57	0	152043520	50	4921
2026-01-01 09:12:20.74	120.15	24.67	-39.8	-42.1	15.9	0.00e+00	0	57	0	154140672	50	4904
2026-01-01 09:12:21.75	120.00	24.81	-39.7	-42.1	15.9	0.00e+00	0	56	0	156237824	50	4899
2026-01-01 09:12:22.76	119.84	24.95	-39.8	-42.1	15.9	0.00e+00	0	57	0	157286400	50	4908
2026-01-01 09:12:23.77	119.69	25.08	-39.6	-41.9	16.1	0.00e+00	0	57	0	159383552	50	4777
2026-01-01 09:12:24.78	119.53	25.22	-39.6	-41.9	16.2	0.00e+00	0	57	0	161480704	50	4790
2026-01-01 09:12:25.79	119.37	25.36	-39.6	-41.9	16.1	0.00e+00	0	57	0	163577856	50	4801
2026-01-01 09:12:26.80	119.20	25.50	-39.5	-41.8	16.3	0.00e+00	0	56	0	165675008	50	4744
2026-01-01 09:12:27.81	119.04	25.64	-39.6	-41.9	16.1	0.00e+00	0	56	0	166723584	50	4809
2026-01-01 09:12:28.82	118.88	25.78	-39.7	-42.0	16.0	0.00e+00	0	56	0	168820736	50	4857
2026-01-01 09:12:29.83	118.71	25.92	-39.8	-42.2	15.9	0.00e+00	0	56	0	170917888	50	4928
2026-01-01 09:12:30.85	118.54	26.06	-39.9	-42.3	15.7	0.00e+00	0	57	0	173015040	50	5013
2026-01-01 09:12:31.85	118.37	26.20	-39.9	-42.3	15.8	0.00e+00	0	57	0	175112192	50	5000
2026-01-01 09:12:32.86	118.20	26.34	-39.8	-42.2	15.8	0.00e+00	0	57	0	176160768	50	4965
2026-01-01 09:12:33.87	118.03	26.48	-39.8	-42.1	15.9	0.00e+00	0	57	0	178257920	50	4913
2026-01-01 09:12:34.89	117.85	26.62	-39.8	-42.2	15.8	0.00e+00	0	56	0	180355072	50	4935
2026-01-01 09:12:35.89	117.68	26.76	-39.9	-42.2	15.8	0.00e+00	0	57	0	182452224	50	4983
2026-01-01 09:12:36.90	117.50	26.91	-39.8	-42.2	15.8	0.00e+00	0	57	0	184549376	50	4966
2026-01-01 09:12:37.91	117.32	27.05	-39.8	-42.2	15.9	0.00e+00	0	57	0	185597952	50	4946
2026-01-01 09:12:38.93	117.14	27.20	-39.8	-42.2	15.9	0.00e+00	0	57	0	187695104	50	4956
2026-01-01 09:12:39.94	116.96	27.34	-39.8	-42.2	15.9	0.00e+00	0	57	0	189792256	50	4934
2026-01-01 09:12:40.94	116.78	27.48	-39.8	-42.1	15.9	0.00e+00	0	57	0	191889408	50	4908
2026-01-01 09:12:41.95	116.59	27.63	-39.9	-42.3	15.8	0.00e+00	0	57	0	193986560	50	5022
2026-01-01 09:12:42.97	116.40	27.78	-40.1	-42.6	15.5	0.00e+00	0	57	0	195035136	50	5206
2026-01-01 09:12:43.97	116.22	27.92	-40.1	-42.7	15.4	0.00e+00	0	57	0	197132288	50	5228
2026-01-01 09:12:44.98	116.03	28.07	-40.3	-42.8	15.3	0.00e+00	0	57	0	199229440	51	5032
2026-01-01 09:12:45.99	115.83	28.22	-40.2	-42.8	15.3	0.00e+00	0	56	0	201326592	51	5000
2026-01-01 09:12:47.00	115.64	28.36	-40.3	-42.9	15.1	0.00e+00	0	57	0	203423744	51	5092
2026-01-01 09:12:48.01	115.44	28.51	-40.5	-43.2	14.8	0.00e+00	0	57	0	204472320	51	5256
2026-01-01 09:12:49.03	115.24	28.66	-40.7	-43.5	14.5	0.00e+00	0	57	0	206569472	52	5136
2026-01-01 09:12:50.04	115.04	28.81	-40.8	-43.7	14.3	7.00e-07	0	57	0	208666624	52	5255
2026-01-01 09:12:51.05	114.84	28.96	-40.7	-43.6	14.4	0.00e+00	0	57	0	210763776	52	5185
2026-01-01 09:12:52.05	114.64	29.11	-40.7	-43.6	14.4	3.80e-06	0	57	0	212860928	52	5187
2026-01-01 09:12:53.06	114.44	29.26	-40.8	-43.7	14.3	0.00e+00	0	57	0	213909504	52	5232
2026-01-01 09:12:54.07	114.23	29.41	-41.0	-44.1	13.9	1.50e-06	0	57	0	216006656	52	5477
2026-01-01 09:12:55.09	114.02	29.56	-41.2	-44.4	13.6	6.10e-06	0	57	0	218103808	52	5699
2026-01-01 09:12:56.10	113.81	29.71	-41.3	-44.6	13.4	2.28e-05	0	57	0	220200960	53	5475
2026-01-01 09:12:57.11	113.59	29.86	-41.5	-45.0	13.0	3.35e-05	0	57	0	222298112	53	5751
2026-01-01 09:12:58.12	113.38	30.01	-41.6	-45.2	12.8	4.19e-05	0	57	0	224395264	53	5862
2026-01-01 09:12:59.13	113.16	30.17	-41.9	-45.6	12.4	9.46e-05	0	57	0	225443840	54	5809
2026-01-01 09:13:00.14	112.94	30.32	-42.0	-45.8	12.1	1.46e-04	0	57	0	227540992	54	5982
2026-01-01 09:13:01.15	112.72	30.47	-42.1	-46.1	11.9	2.86e-04	0	57	0	229638144	54	6163
2026-01-01 09:13:02.16	112.50	30.62	-42.0	-45.9	12.1	4.39e-04	0	57	0	231735296	54	6011
2026-01-01 09:13:03.17	112.27	30.78	-42.1	-45.9	12.0	2.99e-04	0	56	0	233832448	54	6049
2026-01-01 09:13:04.18	112.04	30.93	-42.1	-46.0	12.0	3.29e-04	0	57	0	234881024	54	6067
2026-01-01 09:13:05.19	111.81	31.08	-41.9	-45.7	12.2	2.67e-04	0	57	0	236978176	54	5898
2026-01-01 09:13:06.20	111.58	31.24	-42.0	-45.9	12.0	2.35e-04	0	57	0	239075328	54	6051
2026-01-01 09:13:07.21	111.35	31.39	-42.0	-45.8	12.1	2.75e-04	0	57	0	241172480	54	5948
2026-01-01 09:13:08.22	111.11	31.55	-41.7	-45.3	12.7	1.04e-04	0	57	0	243269632	54	5637
2026-01-01 09:13:09.23	110.87	31.70	-41.7	-45.2	12.9	6.94e-05	0	57	0	244318208	54	5531
2026-01-01 09:13:10.24	110.63	31.86	-41.6	-45.0	13.0	4.11e-05	0	57	0	246415360	54	5443
2026-01-01 09:13:11.25	110.38	32.01	-41.8	-45.4	12.6	7.93e-05	0	57	0	248512512	54	5710
2026-01-01 09:13:12.25	110.14	32.17	-41.9	-45.6	12.3	1.71e-04	0	57	0	250609664	54	5846
2026-01-01 09:13:13.26	109.89	32.32	-41.9	-45.6	12.4	1.36e-04	0	57	0	252706816	54	5797
2026-01-01 09:13:14.28	109.64	32.48	-41.8	-45.4	12.6	1.36e-04	0	57	0	253755392	54	5673
2026-01-01 09:13:15.29	109.38	32.64	-41.7	-45.3	12.7	6.86e-05	0	57	0	255852544	54	5621
2026-01-01 09:13:16.30	109.13	32.79	-41.8	-45.4	12.6	7.32e-05	0	57	0	257949696	54	5714
2026-01-01 09:13:17.31	108.87	32.95	-41.8	-45.5	12.6	7.17e-05	0	57	0	260046848	54	5726
2026-01-01 09:13:18.32	108.61	33.11	-41.9	-45.6	12.5	1.34e-04	0	57	0	262144000	54	5799
2026-01-01 09:13:19.32	108.35	33.26	-41.8	-45.4	12.6	8.92e-05	0	57	0	264241152	54	5698
2026-01-01 09:13:20.33	108.08	33.42	-41.8	-45.5	12.5	9.61e-05	0	57	0	265289728	54	5754
2026-01-01 09:13:21.34	107.81	33.58	-41.7	-45.2	12.8	1.20e-04	0	57	0	267386880	54	5580
2026-01-01 09:13:22.36	107.54	33.74	-41.5	-44.9	13.2	2.89e-05	0	57	0	269484032	54	5341
2026-01-01 09:13:23.37	107.27	33.89	-41.5	-44.8	13.3	1.98e-05	0	57	0	271581184	54	5309
2026-01-01 09:13:24.37	106.99	34.05	-41.3	-44.5	13.5	1.44e-05	0	57	0	273678336	54	5145
2026-01-01 09:13:25.38	106.71	34.21	-41.2	-44.3	13.7	9.10e-06	0	57	0	274726912	54	5018
2026-01-01 09:13:26.39	106.43	34.36	-41.0	-44.0	14.0	4.50e-06	0	57	0	276824064	54	4854
2026-01-01 09:13:27.40	106.15	34.52	-40.8	-43.7	14.4	7.00e-07	0	57	0	278921216	53	4957
2026-01-01 09:13:28.41	105.86	34.68	-40.7	-43.5	14.5	0.00e+00	0	57	0	281018368	53	4857
2026-01-01 09:13:29.42	105.57	34.84	-40.5	-43.1	14.9	0.00e+00	0	57	0	283115520	53	4650
2026-01-01 09:13:30.43	105.28	34.99	-40.5	-43.2	14.9	0.00e+00	0	57	0	284164096	52	4942
2026-01-01 09:13:31.44	104.98	35.15	-40.5	-43.2	14.9	0.00e+00	0	57	0	286261248	52	4961
2026-01-01 09:13:32.45	104.68	35.31	-40.5	-43.1	14.9	0.00e+00	0	57	0	288358400	52	4916
2026-01-01 09:13:33.47	104.38	35.46	-40.4	-43.1	14.9	0.00e+00	0	57	0	290455552	52	4880
2026-01-01 09:13:34.48	104.07	35.62	-40.4	-43.0	15.1	0.00e+00	0	57	0	292552704	52	4823
2026-01-01 09:13:35.49	103.76	35.78	-40.3	-42.8	15.3	7.00e-07	0	57	0	293601280	52	4738
2026-01-01 09:13:36.50	103.45	35.93	-40.2	-42.8	15.3	0.00e+00	0	57	0	295698432	52	4719
2026-01-01 09:13:37.51	103.14	36.09	-40.1	-42.6	15.5	0.00e+00	0	57	0	297795584	52	4633
2026-01-01 09:13:38.52	102.82	36.25	-40.2	-42.7	15.4	0.00e+00	0	57	0	299892736	52	4662
2026-01-01 09:13:39.52	102.51	36.40	-40.2	-42.8	15.3	0.00e+00	0	57	0	301989888	52	4720
2026-01-01 09:13:40.53	102.18	36.56	-40.3	-42.8	15.3	0.00e+00	0	57	0	303038464	52	4746
2026-01-01 09:13:41.54	101.86	36.71	-40.4	-43.0	15.1	0.00e+00	0	57	0	305135616	52	4851
2026-01-01 09:13:42.55	101.53	36.87	-40.4	-43.0	15.1	0.00e+00	0	57	0	307232768	52	4839
2026-01-01 09:13:43.56	101.20	37.02	-40.4	-43.0	15.1	0.00e+00	0	57	0	309329920	52	4863
2026-01-01 09:13:44.57	100.86	37.17	-40.5	-43.1	14.9	0.00e+00	0	57	0	311427072	52	4905
2026-01-01 09:13:45.58	100.52	37.33	-40.4	-43.1	15.0	0.00e+00	0	57	0	312475648	52	4873
2026-01-01 09:13:46.59	100.18	37.48	-40.6	-43.3	14.9	0.00e+00	0	57	0	314572800	52	4987
2026-01-01 09:13:47.60	99.84	37.63	-40.7	-43.5	14.6	0.00e+00	0	57	0	316669952	52	5143
2026-01-01 09:13:48.61	99.49	37.79	-40.7	-43.5	14.6	7.00e-07	0	57	0	318767104	52	5126
2026-01-01 09:13:49.62	99.14	37.94	-40.6	-43.4	14.7	7.00e-07	0	57	0	320864256	52	5068
2026-01-01 09:13:50.63	98.78	38.09	-40.7	-43.4	14.7	7.00e-07	0	57	0	321912832	52	5080
2026-01-01 09:13:51.64	98.42	38.24	-40.6	-43.3	14.8	7.00e-07	0	57	0	324009984	52	4987
2026-01-01 09:13:52.65	98.06	38.39	-40.6	-43.4	14.8	0.00e+00	0	57	0	326107136	52	5063
2026-01-01 09:13:53.67	97.69	38.54	-40.6	-43.3	14.8	7.00e-07	0	57	0	328204288	52	5021
2026-01-01 09:13:54.68	97.33	38.69	-40.7	-43.4	14.7	0.00e+00	0	57	0	330301440	52	5091
2026-01-01 09:13:55.68	96.96	38.83	-40.9	-43.7	14.5	0.00e+00	0	57	0	332398592	52	5261
2026-01-01 09:13:56.69	96.58	38.98	-40.8	-43.7	14.4	7.00e-07	0	57	0	333447168	52	5224
2026-01-01 09:13:57.70	96.20	39.13	-40.8	-43.7	14.4	0.00e+00	0	57	0	335544320	52	5221
2026-01-01 09:13:58.71	95.82	39.27	-40.6	-43.4	14.7	1.50e-06	0	57	0	337641472	52	5054
2026-01-01 09:13:59.72	95.44	39.42	-40.5	-43.1	15.0	0.00e+00	0	57	0	339738624	52	4914
2026-01-01 09:14:00.73	95.05	39.56	-40.5	-43.1	15.1	0.00e+00	0	57	0	341835776	52	4884
2026-01-01 09:14:01.74	94.66	39.70	-40.5	-43.2	14.9	0.00e+00	0	57	0	342884352	52	4952
2026-01-01 09:14:02.75	94.26	39.85	-40.5	-43.1	15.1	0.00e+00	0	57	0	344981504	52	4909
2026-01-01 09:14:03.76	93.86	39.99	-40.2	-42.7	15.4	0.00e+00	0	57	0	347078656	52	4696
2026-01-01 09:14:04.77	93.46	40.13	-40.1	-42.5	15.6	0.00e+00	0	57	0	349175808	52	4596
2026-01-01 09:14:05.78	93.05	40.26	-40.0	-42.3	15.9	0.00e+00	0	57	0	351272960	51	4732
2026-01-01 09:14:06.79	92.65	40.40	-40.0	-42.4	15.8	0.00e+00	0	57	0	352321536	51	4811
2026-01-01 09:14:07.80	92.23	40.54	-40.0	-42.3	15.9	0.00e+00	0	57	0	354418688	51	4750
2026-01-01 09:14:08.81	91.82	40.67	-39.9	-42.2	16.0	0.00e+00	0	57	0	356515840	51	4674
2026-01-01 09:14:09.82	91.40	40.81	-39.9	-42.2	16.1	0.00e+00	0	57	0	358612992	51	4656
2026-01-01 09:14:10.83	90.97	40.94	-38.9	-41.1	16.5	0.00e+00	0	57	0	360710144	50	4366
2026-01-01 09:14:11.84	90.55	41.07	-39.3	-41.4	16.9	0.00e+00	0	57	0	361758720	50	4516
2026-01-01 09:14:12.84	90.12	41.20	-39.3	-41.4	16.8	0.00e+00	0	57	0	363855872	50	4532
2026-01-01 09:14:13.85	89.69	41.33	-39.3	-41.3	16.9	0.00e+00	0	57	0	365953024	50	4478
2026-01-01 09:14:14.86	89.25	41.46	-39.4	-41.5	16.7	0.00e+00	0	57	0	368050176	50	4573
2026-01-01 09:14:15.87	88.81	41.58	-39.4	-41.6	16.7	0.00e+00	0	57	0	370147328	50	4613
2026-01-01 09:14:16.89	88.36	41.71	-39.3	-41.4	16.9	0.00e+00	0	57	0	371195904	50	4497
2026-01-01 09:14:17.90	87.91	41.83	-39.2	-41.3	17.0	0.00e+00	0	57	0	373293056	50	4457
2026-01-01 09:14:18.91	87.46	41.95	-39.2	-41.3	16.9	0.00e+00	0	57	0	375390208	50	4476
2026-01-01 09:14:19.92	87.01	42.07	-39.5	-41.7	16.6	0.00e+00	0	57	0	377487360	50	4652
2026-01-01 09:14:20.93	86.55	42.19	-39.7	-42.0	16.2	0.00e+00	0	57	0	379584512	50	4848
2026-01-01 09:14:21.94	86.09	42.31	-39.9	-42.2	16.1	0.00e+00	0	57	0	380633088	50	4968
2026-01-01 09:14:22.95	85.63	42.42	-40.1	-42.4	15.9	0.00e+00	0	57	0	382730240	50	5094
2026-01-01 09:14:23.96	85.16	42.53	-40.1	-42.5	15.8	0.00e+00	0	57	0	384827392	50	5122
2026-01-01 09:14:24.97	84.69	42.64	-40.1	-42.5	15.8	0.00e+00	0	57	0	386924544	50	5124
2026-01-01 09:14:25.98	84.21	42.75	-40.0	-42.4	15.9	0.00e+00	0	57	0	389021696	50	5077
2026-01-01 09:14:26.99	83.74	42.86	-39.8	-42.1	16.1	0.00e+00	0	57	0	390070272	50	4917
2026-01-01 09:14:28.00	83.26	42.96	-39.7	-41.9	16.3	0.00e+00	0	57	0	392167424	50	4798
2026-01-01 09:14:29.01	82.77	43.07	-39.5	-41.6	16.6	0.00e+00	0	57	0	394264576	50	4620
2026-01-01 09:14:30.02	82.29	43.17	-39.5	-41.7	16.6	0.00e+00	0	57	0	396361728	50	4672
2026-01-01 09:14:31.03	81.80	43.27	-39.6	-41.8	16.4	0.00e+00	0	57	0	398458880	50	4755
2026-01-01 09:14:32.04	81.30	43.36	-39.8	-42.1	16.2	0.00e+00	0	57	0	400556032	50	4910
2026-01-01 09:14:33.05	80.81	43.46	-39.8	-42.1	16.2	0.00e+00	0	57	0	401604608	50	4908
2026-01-01 09:14:34.06	80.31	43.55	-39.8	-42.0	16.3	0.00e+00	0	57	0	403701760	50	4852
2026-01-01 09:14:35.07	79.81	43.64	-39.9	-42.2	16.2	0.00e+00	0	57	0	405798912	50	4951
2026-01-01 09:14:36.08	79.30	43.73	-40.0	-42.4	15.9	0.00e+00	0	57	0	407896064	50	5047
2026-01-01 09:14:37.09	78.80	43.81	-39.9	-42.2	16.0	0.00e+00	0	57	0	409993216	50	4975
2026-01-01 09:14:38.10	78.29	43.90	-39.6	-41.8	16.5	0.00e+00	0	57	0	411041792	50	4753
2026-01-01 09:14:39.11	77.78	43.98	-39.4	-41.5	16.8	0.00e+00	0	57	0	413138944	50	4566
2026-01-01 09:14:40.12	77.26	44.06	-39.5	-41.6	16.7	0.00e+00	0	57	0	415236096	50	4620
2026-01-01 09:14:41.13	76.74	44.13	-39.7	-41.9	16.4	0.00e+00	0	57	0	417333248	50	4771
2026-01-01 09:14:42.14	76.22	44.21	-39.7	-41.9	16.4	0.00e+00	0	57	0	419430400	50	4801
2026-01-01 09:14:43.15	75.70	44.28	-39.7	-41.9	16.4	0.00e+00	0	57	0	420478976	50	4772
2026-01-01 09:14:44.15	75.18	44.35	-40.1	-42.4	15.9	0.00e+00	0	57	0	422576128	50	5096
2026-01-01 09:14:45.16	74.66	44.41	-40.1	-42.5	15.7	0.00e+00	0	57	0	424673280	50	5144
2026-01-01 09:14:46.17	74.13	44.48	-40.2	-42.7	15.7	0.00e+00	0	58	0	426770432	51	4931
2026-01-01 09:14:47.18	73.60	44.54	-40.3	-42.7	15.6	0.00e+00	0	57	0	428867584	51	4951
2026-01-01 09:14:48.19	73.07	44.59	-40.3	-42.8	15.5	0.00e+00	0	57	0	429916160	51	5005
2026-01-01 09:14:49.20	72.53	44.65	-40.2	-42.6	15.7	0.00e+00	0	57	0	432013312	51	4923
2026-01-01 09:14:50.21	71.99	44.70	-40.3	-42.8	15.6	0.00e+00	0	57	0	434110464	51	4985
2026-01-01 09:14:51.22	71.46	44.75	-40.3	-42.7	15.5	0.00e+00	0	57	0	436207616	51	4973
2026-01-01 09:14:52.23	70.92	44.80	-40.6	-43.2	15.2	0.00e+00	0	57	0	438304768	51	5219
2026-01-01 09:14:53.24	70.38	44.84	-40.7	-43.3	15.0	0.00e+00	0	57	0	439353344	51	5316
2026-01-01 09:14:54.25	69.83	44.89	-40.6	-43.2	15.0	0.00e+00	0	57	0	441450496	51	5266
2026-01-01 09:14:55.26	69.29	44.92	-40.5	-43.1	15.2	0.00e+00	0	57	0	443547648	51	5181
2026-01-01 09:14:56.27	68.74	44.96	-40.5	-43.0	15.3	0.00e+00	0	57	0	445644800	51	5152
2026-01-01 09:14:57.28	68.20	44.99	-40.5	-43.0	15.3	0.00e+00	0	57	0	447741952	51	5140
2026-01-01 09:14:58.29	67.65	45.02	-40.6	-43.2	15.1	0.00e+00	0	57	0	448790528	51	5235
2026-01-01 09:14:59.30	67.10	45.05	-40.6	-43.2	15.1	0.00e+00	0	57	0	450887680	51	5238
2026-01-01 09:15:00.31	66.55	45.08	-40.5	-43.1	15.2	0.00e+00	0	57	0	452984832	51	5163
2026-01-01 09:15:01.32	66.00	45.10	-40.7	-43.3	15.0	7.00e-07	0	57	0	455081984	52	5020
2026-01-01 09:15:02.33	65.45	45.12	-40.7	-43.4	14.8	0.00e+00	0	57	0	457179136	52	5070
2026-01-01 09:15:03.34	64.90	45.13	-40.7	-43.4	14.9	7.00e-07	0	57	0	458227712	52	5047
2026-01-01 09:15:04.35	64.35	45.14	-40.7	-43.4	14.9	0.00e+00	0	57	0	460324864	52	5069
2026-01-01 09:15:05.36	63.79	45.15	-40.6	-43.3	14.9	0.00e+00	0	57	0	462422016	52	5021
2026-01-01 09:15:06.37	63.24	45.16	-40.7	-43.5	14.7	0.00e+00	0	57	0	464519168	52	5118
2026-01-01 09:15:07.38	62.69	45.16	-40.9	-43.7	14.5	7.00e-07	0	57	0	466616320	52	5274
2026-01-01 09:15:08.39	62.14	45.17	-40.9	-43.8	14.4	7.00e-07	0	58	0	468713472	52	5311
2026-01-01 09:15:09.40	61.58	45.16	-41.0	-43.8	14.4	1.50e-06	0	57	0	469762048	52	5327
2026-01-01 09:15:10.41	61.03	45.16	-41.1	-44.0	14.3	0.00e+00	0	57	0	471859200	52	5414
2026-01-01 09:15:11.42	60.48	45.15	-41.1	-44.1	14.1	7.00e-07	0	58	0	473956352	52	5475
2026-01-01 09:15:12.43	59.93	45.14	-41.4	-44.6	13.7	1.06e-05	0	57	0	476053504	53	5488
2026-01-01 09:15:13.44	59.37	45.13	-41.4	-44.5	13.7	3.00e-06	0	57	0	478150656	53	5439
2026-01-01 09:15:14.45	58.82	45.11	-41.4	-44.5	13.7	7.60e-06	0	57	0	479199232	53	5421
2026-01-01 09:15:15.46	58.27	45.09	-41.6	-44.8	13.3	9.90e-06	0	57	0	481296384	53	5653
2026-01-01 09:15:16.47	57.72	45.07	-41.5	-44.7	13.4	2.05e-05	0	57	0	483393536	53	5573
2026-01-01 09:15:17.48	57.17	45.04	-41.4	-44.6	13.6	1.06e-05	0	57	0	485490688	53	5500
2026-01-01 09:15:18.49	56.63	45.01	-41.4	-44.6	13.6	6.80e-06	0	58	0	487587840	53	5469
2026-01-01 09:15:19.50	56.08	44.98	-41.7	-45.0	13.1	1.29e-05	0	57	0	488636416	53	5779
2026-01-01 09:15:20.51	55.53	44.95	-42.0	-45.6	12.6	8.92e-05	0	57	0	490733568	54	5834
2026-01-01 09:15:21.52	54.99	44.91	-42.1	-45.7	12.4	1.55e-04	0	57	0	492830720	54	5917
2026-01-01 09:15:22.53	54.45	44.87	-41.9	-45.4	12.7	9.38e-05	0	57	0	494927872	54	5716
2026-01-01 09:15:23.54	53.90	44.83	-41.8	-45.3	12.8	8.62e-05	0	57	0	497025024	54	5649
2026-01-01 09:15:24.55	53.36	44.78	-42.1	-45.8	12.4	1.05e-04	0	58	0	498073600	54	5948
2026-01-01 09:15:25.56	52.82	44.73	-42.1	-45.9	12.3	2.09e-04	0	58	0	500170752	54	6029
2026-01-01 09:15:26.57	52.29	44.68	-42.3	-46.1	12.2	2.39e-04	0	57	0	502267904	55	5844
2026-01-01 09:15:27.58	51.75	44.63	-42.3	-46.3	11.9	2.82e-04	0	57	0	504365056	55	5954
2026-01-01 09:15:28.59	51.22	44.57	-41.9	-45.4	12.7	1.65e-04	0	58	0	506462208	55	5388
2026-01-01 09:15:29.60	50.69	44.51	-41.7	-45.1	13.1	4.11e-05	0	58	0	507510784	55	5196
2026-01-01 09:15:30.61	50.16	44.45	-41.5	-44.7	13.5	1.75e-05	0	57	0	509607936	55	4982
2026-01-01 09:15:31.62	49.63	44.39	-41.3	-44.4	13.8	9.10e-06	0	58	0	511705088	54	5062
2026-01-01 09:15:32.63	49.11	44.32	-41.3	-44.3	13.9	2.20e-06	0	57	0	513802240	54	5037
2026-01-01 09:15:33.64	48.58	44.25	-41.1	-44.1	14.1	6.10e-06	0	57	0	515899392	54	4889
2026-01-01 09:15:34.65	48.06	44.18	-40.8	-43.6	14.6	7.00e-07	0	57	0	516947968	53	4888
2026-01-01 09:15:35.66	47.55	44.10	-40.9	-43.8	14.5	0.00e+00	0	58	0	519045120	53	4988
2026-01-01 09:15:36.67	47.03	44.03	-40.5	-43.1	15.0	0.00e+00	0	57	0	521142272	53	4645
2026-01-01 09:15:37.68	46.52	43.95	-40.4	-42.9	15.3	0.00e+00	0	58	0	523239424	52	4811
2026-01-01 09:15:38.69	46.01	43.86	-40.1	-42.6	15.7	0.00e+00	0	58	0	525336576	52	4608
2026-01-01 09:15:39.70	45.50	43.78	-39.8	-42.1	16.2	0.00e+00	0	57	0	526385152	51	4622
2026-01-01 09:15:40.71	45.00	43.69	-39.7	-41.8	16.5	0.00e+00	0	57	0	528482304	51	4488
2026-01-01 09:15:41.72	44.49	43.60	-39.7	-41.9	16.4	0.00e+00	0	57	0	530579456	51	4519
2026-01-01 09:15:42.73	43.99	43.51	-39.7	-41.9	16.4	0.00e+00	0	58	0	532676608	51	4510
2026-01-01 09:15:43.74	43.50	43.42	-39.7	-42.0	16.3	0.00e+00	0	58	0	534773760	51	4555
2026-01-01 09:15:44.75	43.01	43.33	-39.5	-41.7	16.6	0.00e+00	0	57	0	536870912	51	4395
2026-01-01 09:15:45.76	42.51	43.23	-39.3	-41.4	16.9	0.00e+00	0	58	0	537919488	50	4522
2026-01-01 09:15:46.77	42.03	43.13	-39.3	-41.3	17.0	0.00e+00	0	58	0	540016640	50	4473
2026-01-01 09:15:47.78	41.54	43.03	-39.0	-40.9	17.3	0.00e+00	0	58	0	542113792	50	4285
2026-01-01 09:15:48.79	41.06	42.92	-38.9	-40.9	17.4	0.00e+00	0	58	0	544210944	49	4498
2026-01-01 09:15:49.80	40.58	42.82	-38.8	-40.7	17.5	0.00e+00	0	58	0	546308096	49	4438
2026-01-01 09:15:50.81	40.11	42.71	-38.6	-40.5	17.8	0.00e+00	0	57	0	547356672	49	4313
2026-01-01 09:15:51.82	39.64	42.60	-38.5	-40.3	18.0	0.00e+00	0	58	0	549453824	49	4222
2026-01-01 09:15:52.83	39.17	42.49	-38.3	-40.1	18.1	0.00e+00	0	57	0	551550976	48	4379
2026-01-01 09:15:53.84	38.70	42.38	-38.1	-39.9	18.5	0.00e+00	0	58	0	553648128	48	4243
2026-01-01 09:15:54.85	38.24	42.26	-37.7	-39.4	18.7	0.00e+00	0	58	0	555745280	47	4275
2026-01-01 09:15:55.87	37.78	42.14	-37.5	-39.1	19.0	0.00e+00	0	57	0	556793856	47	4130
2026-01-01 09:15:56.88	37.32	42.03	-37.6	-39.2	18.9	0.00e+00	0	57	0	558891008	46	4435
2026-01-01 09:15:57.88	36.88	41.91	-37.8	-39.5	18.8	0.00e+00	0	57	0	560988160	46	4563
2026-01-01 09:15:58.89	36.43	41.78	-37.8	-39.4	18.8	0.00e+00	0	57	0	563085312	46	4533
2026-01-01 09:15:59.90	35.98	41.66	-37.8	-39.5	18.7	0.00e+00	0	58	0	565182464	46	4573
2026-01-01 09:16:00.91	35.54	41.54	-37.8	-39.5	18.7	0.00e+00	0	58	0	566231040	46	4581
2026-01-01 09:16:01.92	35.11	41.41	-37.7	-39.4	18.8	0.00e+00	0	58	0	568328192	46	4524
2026-01-01 09:16:02.93	34.67	41.28	-37.8	-39.5	18.8	0.00e+00	0	58	0	570425344	46	4546
2026-01-01 09:16:03.94	34.24	41.16	-37.6	-39.3	18.9	0.00e+00	0	57	0	572522496	46	4463
2026-01-01 09:16:04.95	33.81	41.02	-37.8	-39.5	18.7	0.00e+00	0	58	0	574619648	46	4582
2026-01-01 09:16:05.96	33.39	40.89	-38.0	-39.8	18.4	0.00e+00	0	58	0	575668224	46	4711
2026-01-01 09:16:06.97	32.97	40.76	-38.2	-40.0	18.2	0.00e+00	0	58	0	577765376	46	4852
2026-01-01 09:16:07.98	32.55	40.63	-38.0	-39.7	18.5	0.00e+00	0	58	0	579862528	46	4701
2026-01-01 09:16:08.99	32.14	40.49	-37.7	-39.4	18.8	0.00e+00	0	57	0	581959680	46	4517
2026-01-01 09:16:10.00	31.73	40.35	-37.6	-39.2	19.0	0.00e+00	0	57	0	584056832	46	4438
2026-01-01 09:16:11.01	31.32	40.22	-37.6	-39.3	18.9	0.00e+00	0	57	0	585105408	46	4465
2026-01-01 09:16:12.01	30.92	40.08	-37.7	-39.3	18.9	0.00e+00	0	57	0	587202560	46	4481
2026-01-01 09:16:13.03	30.52	39.94	-37.9	-39.7	18.6	0.00e+00	0	58	0	589299712	46	4653
2026-01-01 09:16:14.04	30.12	39.80	-38.2	-40.0	18.2	0.00e+00	0	57	0	591396864	46	4849
2026-01-01 09:16:15.05	29.73	39.66	-38.4	-40.3	17.9	0.00e+00	0	58	0	593494016	47	4714
2026-01-01 09:16:16.05	29.34	39.52	-38.4	-40.3	18.0	0.00e+00	0	57	0	594542592	47	4706
2026-01-01 09:16:17.06	28.96	39.37	-38.2	-40.1	18.2	0.00e+00	0	58	0	596639744	47	4600
2026-01-01 09:16:18.07	28.57	39.23	-38.2	-40.0	18.2	0.00e+00	0	58	0	598736896	47	4589
2026-01-01 09:16:19.08	28.19	39.08	-38.2	-40.0	18.2	0.00e+00	0	57	0	600834048	47	4577
2026-01-01 09:16:20.09	27.82	38.94	-38.1	-39.9	18.3	0.00e+00	0	57	0	602931200	47	4519
2026-01-01 09:16:21.10	27.45	38.79	-38.2	-40.0	18.3	0.00e+00	0	58	0	605028352	47	4547
2026-01-01 09:16:22.11	27.08	38.64	-38.3	-40.1	18.1	0.00e+00	0	58	0	606076928	47	4625
2026-01-01 09:16:23.13	26.71	38.49	-38.7	-40.6	17.7	0.00e+00	0	58	0	608174080	47	4902
2026-01-01 09:16:24.14	26.35	38.34	-38.9	-40.8	17.5	0.00e+00	0	57	0	610271232	48	4739
2026-01-01 09:16:25.14	25.99	38.20	-38.9	-40.9	17.4	0.00e+00	0	58	0	612368384	48	4807
2026-01-01 09:16:26.15	25.64	38.05	-39.0	-41.0	17.3	0.00e+00	0	58	0	614465536	48	4853
2026-01-01 09:16:27.16	25.28	37.90	-39.1	-41.1	17.2	0.00e+00	0	58	0	615514112	48	4896
2026-01-01 09:16:28.17	24.93	37.74	-39.0	-41.0	17.3	0.00e+00	0	58	0	617611264	48	4870
2026-01-01 09:16:29.18	24.59	37.59	-39.0	-41.0	17.3	0.00e+00	0	58	0	619708416	48	4816
2026-01-01 09:16:30.19	24.25	37.44	-38.9	-40.8	17.5	0.00e+00	0	58	0	621805568	48	4746
2026-01-01 09:16:31.20	23.91	37.29	-38.9	-40.8	17.5	0.00e+00	0	57	0	623902720	48	4733
2026-01-01 09:16:32.21	23.57	37.13	-39.0	-40.9	17.4	0.00e+00	0	58	0	624951296	48	4804
2026-01-01 09:16:33.22	23.24	36.98	-39.1	-41.1	17.2	0.00e+00	0	58	0	627048448	48	4916
2026-01-01 09:16:34.22	22.91	36.83	-39.3	-41.4	16.9	0.00e+00	0	58	0	629145600	49	4769
2026-01-01 09:16:35.24	22.58	36.67	-39.5	-41.6	16.7	0.00e+00	0	57	0	631242752	49	4906
2026-01-01 09:16:36.25	22.26	36.52	-39.7	-42.0	16.3	0.00e+00	0	58	0	633339904	49	5116
2026-01-01 09:16:37.26	21.94	36.36	-39.8	-42.1	16.2	0.00e+00	0	57	0	634388480	50	4890
2026-01-01 09:16:38.27	21.62	36.21	-40.0	-42.3	16.0	0.00e+00	0	57	0	636485632	50	5034
2026-01-01 09:16:39.28	21.31	36.05	-40.0	-42.3	16.0	0.00e+00	0	57	0	638582784	50	5026
2026-01-01 09:16:40.29	21.00	35.90	-40.1	-42.6	15.8	0.00e+00	0	58	0	640679936	50	5175
2026-01-01 09:16:41.30	20.69	35.74	-40.3	-42.7	15.5	0.00e+00	0	58	0	642777088	51	4980
2026-01-01 09:16:42.31	20.38	35.59	-40.5	-43.2	15.2	0.00e+00	0	57	0	643825664	51	5235
2026-01-01 09:16:43.32	20.08	35.43	-40.5	-43.1	15.3	7.00e-07	0	57	0	645922816	51	5162
2026-01-01 09:16:44.33	19.78	35.27	-40.7	-43.4	14.9	0.00e+00	0	58	0	648019968	51	5381
2026-01-01 09:16:45.34	19.48	35.12	-40.8	-43.6	14.7	0.00e+00	0	57	0	650117120	52	5167
2026-01-01 09:16:46.35	19.19	34.96	-41.0	-44.0	14.2	0.00e+00	0	57	0	652214272	52	5423
2026-01-01 09:16:47.36	18.90	34.80	-41.1	-44.0	14.2	1.50e-06	0	58	0	653262848	52	5464
2026-01-01 09:16:48.37	18.61	34.65	-41.2	-44.2	14.0	3.00e-06	0	57	0	655360000	52	5581
2026-01-01 09:16:49.38	18.33	34.49	-41.2	-44.3	14.0	1.50e-06	0	57	0	657457152	52	5596
2026-01-01 09:16:50.39	18.04	34.33	-41.3	-44.4	13.8	4.50e-06	0	57	0	659554304	53	5366
2026-01-01 09:16:51.40	17.76	34.18	-41.3	-44.5	13.7	6.10e-06	0	58	0	661651456	53	5451
2026-01-01 09:16:52.41	17.49	34.02	-41.6	-45.0	13.2	7.60e-06	0	57	0	662700032	53	5751
2026-01-01 09:16:53.42	17.21	33.86	-41.7	-45.2	12.9	3.89e-05	0	57	0	664797184	53	5856
2026-01-01 09:16:54.43	16.94	33.71	-41.9	-45.5	12.7	6.94e-05	0	58	0	666894336	54	5731
2026-01-01 09:16:55.44	16.67	33.55	-42.0	-45.7	12.4	7.93e-05	0	57	0	668991488	54	5885
2026-01-01 09:16:56.45	16.40	33.40	-42.2	-46.1	12.0	2.60e-04	0	58	0	671088640	54	6175
2026-01-01 09:16:57.46	16.14	33.24	-42.1	-46.0	12.1	2.46e-04	0	58	0	673185792	54	6109
2026-01-01 09:16:58.47	15.88	33.08	-42.1	-46.1	12.0	2.90e-04	0	57	0	674234368	54	6135
2026-01-01 09:16:59.48	15.62	32.93	-41.8	-45.4	12.7	1.04e-04	0	57	0	676331520	54	5713
2026-01-01 09:17:00.49	15.36	32.77	-41.8	-45.3	12.8	6.48e-05	0	57	0	678428672	54	5637
2026-01-01 09:17:01.50	15.11	32.62	-41.8	-45.3	12.8	5.87e-05	0	57	0	680525824	54	5634
2026-01-01 09:17:02.51	14.86	32.46	-41.8	-45.3	12.8	5.72e-05	0	58	0	682622976	54	5622
2026-01-01 09:17:03.52	14.61	32.30	-41.7	-45.2	12.9	6.10e-05	0	58	0	683671552	54	5565
2026-01-01 09:17:04.53	14.36	32.15	-41.8	-45.3	12.8	4.19e-05	0	57	0	685768704	54	5620
2026-01-01 09:17:05.54	14.12	31.99	-41.7	-45.2	13.0	4.34e-05	0	58	0	687865856	54	5553
2026-01-01 09:17:06.55	13.88	31.84	-41.6	-45.0	13.1	4.34e-05	0	58	0	689963008	54	5442
2026-01-01 09:17:07.56	13.64	31.69	-41.5	-44.9	13.3	2.36e-05	0	57	0	692060160	54	5365
2026-01-01 09:17:08.57	13.40	31.53	-41.4	-44.7	13.4	1.52e-05	0	58	0	693108736	54	5257
2026-01-01 09:17:09.58	13.17	31.38	-41.4	-44.6	13.5	1.75e-05	0	57	0	695205888	54	5200
2026-01-01 09:17:10.59	12.93	31.22	-41.3	-44.5	13.6	1.06e-05	0	58	0	697303040	54	5124
2026-01-01 09:17:11.60	12.70	31.07	-41.1	-44.2	13.9	4.50e-06	0	58	0	699400192	54	4948
2026-01-01 09:17:12.61	12.47	30.92	-41.0	-44.0	14.1	2.20e-06	0	58	0	701497344	54	4846
2026-01-01 09:17:13.62	12.25	30.76	-40.8	-43.6	14.5	7.00e-07	0	58	0	702545920	53	4919
2026-01-01 09:17:14.63	12.02	30.61	-40.7	-43.5	14.6	0.00e+00	0	57	0	704643072	53	4848
2026-01-01 09:17:15.64	11.80	30.46	-40.7	-43.5	14.6	0.00e+00	0	57	0	706740224	53	4830
2026-01-01 09:17:16.65	11.58	30.31	-40.7	-43.5	14.7	0.00e+00	0	57	0	708837376	53	4840
2026-01-01 09:17:17.66	11.37	30.16	-40.8	-43.7	14.4	7.00e-07	0	58	0	710934528	53	4958
2026-01-01 09:17:18.67	11.15	30.01	-41.0	-44.0	14.1	0.00e+00	0	57	0	713031680	53	5132
2026-01-01 09:17:19.68	10.94	29.85	-41.0	-44.1	14.0	1.50e-06	0	58	0	714080256	53	5168
2026-01-01 09:17:20.69	10.73	29.70	-41.0	-44.1	14.1	1.50e-06	0	58	0	716177408	53	5173
2026-01-01 09:17:21.70	10.52	29.55	-40.9	-43.9	14.2	7.00e-07	0	57	0	718274560	53	5067
2026-01-01 09:17:22.71	10.31	29.40	-40.9	-43.8	14.3	7.00e-07	0	58	0	720371712	53	5011
2026-01-01 09:17:23.72	10.10	29.25	-40.9	-43.9	14.2	1.50e-06	0	58	0	722468864	53	5064
2026-01-01 09:17:24.73	9.90	29.11	-40.9	-43.8	14.3	1.50e-06	0	58	0	723517440	53	4994
2026-01-01 09:17:25.74	9.70	28.96	-40.9	-43.8	14.3	7.00e-07	0	58	0	725614592	53	5024
2026-01-01 09:17:26.75	9.50	28.81	-40.9	-43.8	14.3	7.00e-07	0	57	0	727711744	53	5013
2026-01-01 09:17:27.76	9.30	28.66	-40.9	-43.8	14.3	0.00e+00	0	58	0	729808896	53	5004
2026-01-01 09:17:28.76	9.11	28.51	-40.7	-43.6	14.4	7.00e-07	0	58	0	730857472	53	4901
2026-01-01 09:17:29.77	8.91	28.37	-40.8	-43.8	14.4	7.00e-07	0	57	0	732954624	53	4987
2026-01-01 09:17:30.78	8.72	28.22	-40.8	-43.7	14.4	2.20e-06	0	58	0	735051776	53	4934
2026-01-01 09:17:31.79	8.53	28.08	-40.9	-43.9	14.2	2.20e-06	0	58	0	737148928	53	5044
2026-01-01 09:17:32.80	8.34	27.93	-40.7	-43.6	14.5	0.00e+00	0	58	0	739246080	53	4872
2026-01-01 09:17:33.81	8.15	27.78	-40.7	-43.6	14.5	0.00e+00	0	57	0	741343232	53	4886
2026-01-01 09:17:34.82	7.97	27.64	-40.7	-43.5	14.6	0.00e+00	0	58	0	742391808	53	4817
2026-01-01 09:17:35.83	7.78	27.49	-40.7	-43.6	14.5	7.00e-07	0	57	0	744488960	53	4906
2026-01-01 09:17:36.84	7.60	27.35	-40.8	-43.8	14.3	7.00e-07	0	58	0	746586112	53	5000
2026-01-01 09:17:37.85	7.42	27.21	-41.0	-44.0	14.0	1.50e-06	0	58	0	748683264	53	5145
2026-01-01 09:17:38.86	7.24	27.06	-41.0	-44.0	14.1	4.50e-06	0	58	0	750780416	53	5120
2026-01-01 09:17:39.87	7.06	26.92	-40.9	-43.9	14.1	0.00e+00	0	58	0	751828992	53	5070
2026-01-01 09:17:40.88	6.89	26.78	-40.8	-43.7	14.4	0.00e+00	0	58	0	753926144	53	4933
2026-01-01 09:17:41.89	6.71	26.64	-40.7	-43.6	14.4	7.00e-07	0	58	0	756023296	53	4923
2026-01-01 09:17:42.90	6.54	26.50	-40.6	-43.4	14.7	7.00e-07	0	57	0	758120448	53	4777
2026-01-01 09:17:43.91	6.37	26.35	-40.5	-43.2	14.8	0.00e+00	0	58	0	760217600	52	4952
2026-01-01 09:17:44.92	6.20	26.21	-40.5	-43.2	14.8	0.00e+00	0	58	0	761266176	52	4979
2026-01-01 09:17:45.92	6.04	26.07	-40.4	-43.2	14.9	0.00e+00	0	57	0	763363328	52	4927
2026-01-01 09:17:46.93	5.87	25.94	-40.5	-43.2	14.8	0.00e+00	0	58	0	765460480	52	4957
2026-01-01 09:17:47.94	5.70	25.80	-40.5	-43.3	14.7	0.00e+00	0	57	0	767557632	52	5016
2026-01-01 09:17:48.95	5.54	25.66	-40.5	-43.2	14.8	0.00e+00	0	57	0	769654784	52	4971
2026-01-01 09:17:49.96	5.38	25.52	-40.4	-43.1	14.9	7.00e-07	0	57	0	770703360	52	4897
2026-01-01 09:17:50.97	5.22	25.38	-40.4	-43.0	15.0	0.00e+00	0	57	0	772800512	52	4865
2026-01-01 09:17:51.98	5.06	25.24	-40.4	-43.1	14.9	0.00e+00	0	57	0	774897664	52	4909
2026-01-01 09:17:52.99	4.90	25.11	-40.5	-43.2	14.8	0.00e+00	0	58	0	776994816	52	4961
2026-01-01 09:17:54.00	4.75	24.97	-40.4	-43.1	14.9	7.00e-07	0	58	0	779091968	52	4889
2026-01-01 09:17:55.01	4.59	24.84	-40.4	-43.1	14.9	0.00e+00	0	57	0	780140544	52	4901
2026-01-01 09:17:56.02	4.44	24.70	-40.4	-43.2	14.8	0.00e+00	0	57	0	782237696	52	4936
2026-01-01 09:17:57.03	4.29	24.57	-40.5	-43.3	14.7	0.00e+00	0	58	0	784334848	52	5007
2026-01-01 09:17:58.04	4.13	24.43	-40.5	-43.3	14.7	7.00e-07	0	57	0	786432000	52	4997
2026-01-01 09:17:59.05	3.99	24.30	-40.4	-43.0	15.0	0.00e+00	0	58	0	788529152	52	4858
2026-01-01 09:18:00.06	3.84	24.16	-40.3	-43.0	15.0	0.00e+00	0	57	0	789577728	52	4861
2026-01-01 09:18:01.07	3.69	24.03	-40.3	-43.0	15.0	0.00e+00	0	58	0	791674880	52	4858
2026-01-01 09:18:02.08	3.54	23.90	-40.3	-42.9	15.1	0.00e+00	0	57	0	793772032	52	4783
2026-01-01 09:18:03.09	3.40	23.77	-40.2	-42.8	15.2	0.00e+00	0	57	0	795869184	52	4725
2026-01-01 09:18:04.10	3.26	23.63	-40.2	-42.7	15.2	0.00e+00	0	58	0	797966336	52	4702
2026-01-01 09:18:05.11	3.11	23.50	-40.1	-42.6	15.3	0.00e+00	0	58	0	799014912	52	4635
2026-01-01 09:18:06.11	2.98	23.37	-40.0	-42.6	15.4	0.00e+00	0	58	0	801112064	52	4603
2026-01-01 09:18:07.13	2.83	23.24	-40.0	-42.5	15.6	0.00e+00	0	58	0	803209216	51	4826
2026-01-01 09:18:08.14	2.70	23.11	-40.0	-42.5	15.5	0.00e+00	0	57	0	805306368	51	4850
2026-01-01 09:18:09.15	2.56	22.98	-40.1	-42.6	15.4	0.00e+00	0	58	0	807403520	51	4903
2026-01-01 09:18:10.16	2.42	22.85	-40.2	-42.8	15.3	0.00e+00	0	58	0	808452096	51	5010
2026-01-01 09:18:11.17	2.29	22.73	-40.2	-42.9	15.1	0.00e+00	0	58	0	810549248	51	5058
2026-01-01 09:18:12.17	2.16	22.60	-40.2	-42.8	15.2	0.00e+00	0	58	0	812646400	51	5040
2026-01-01 09:18:13.18	2.02	22.47	-40.3	-42.9	15.1	0.00e+00	0	58	0	814743552	51	5071
2026-01-01 09:18:14.19	1.89	22.34	-40.3	-43.0	15.0	0.00e+00	0	58	0	816840704	51	5114
2026-01-01 09:18:15.20	1.76	22.22	-40.4	-43.1	14.9	0.00e+00	0	58	0	818937856	51	5187
2026-01-01 09:18:16.21	1.63	22.09	-40.2	-42.9	15.2	0.00e+00	0	58	0	819986432	51	5048
2026-01-01 09:18:17.22	1.50	21.97	-40.0	-42.6	15.4	0.00e+00	0	58	0	822083584	51	4884
2026-01-01 09:18:18.23	1.38	21.84	-40.0	-42.5	15.4	0.00e+00	0	58	0	824180736	51	4861
2026-01-01 09:18:19.24	1.25	21.72	-40.1	-42.7	15.3	0.00e+00	0	58	0	826277888	51	4943
2026-01-01 09:18:20.25	1.12	21.59	-40.1	-42.6	15.4	0.00e+00	0	58	0	828375040	51	4912
2026-01-01 09:18:21.26	1.00	21.47	-40.0	-42.5	15.4	0.00e+00	0	58	0	829423616	51	4861
2026-01-01 09:18:22.27	0.88	21.35	-40.0	-42.6	15.3	0.00e+00	0	57	0	831520768	51	4891
2026-01-01 09:18:23.28	0.76	21.22	-40.1	-42.7	15.3	0.00e+00	0	58	0	833617920	51	4937
2026-01-01 09:18:24.29	0.63	21.10	-40.1	-42.7	15.3	0.00e+00	0	58	0	835715072	51	4933
2026-01-01 09:18:25.30	0.51	20.98	-40.1	-42.7	15.2	0.00e+00	0	57	0	837812224	51	4958
2026-01-01 09:18:26.31	0.39	20.86	-40.2	-42.8	15.1	0.00e+00	0	58	0	838860800	51	4994
2026-01-01 09:18:27.33	0.28	20.74	-40.2	-42.8	15.1	0.00e+00	0	58	0	840957952	51	5013
2026-01-01 09:18:28.34	0.16	20.62	-40.2	-42.9	15.0	0.00e+00	0	58	0	843055104	51	5065
2026-01-01 09:18:29.35	0.04	20.50	-40.3	-43.0	14.9	0.00e+00	0	57	0	845152256	51	5101
2026-01-01 09:18:30.36	359.93	20.38	-40.2	-42.9	15.0	0.00e+00	0	58	0	847249408	51	5050
2026-01-01 09:18:31.37	359.81	20.26	-40.2	-42.9	15.0	0.00e+00	0	58	0	848297984	51	5057
2026-01-01 09:18:32.38	359.70	20.14	-40.3	-43.0	14.9	0.00e+00	0	58	0	850395136	51	5114
2026-01-01 09:18:33.39	359.59	20.02	-40.2	-42.9	15.0	0.00e+00	0	58	0	852492288	51	5059
2026-01-01 09:18:34.40	359.47	19.90	-40.1	-42.8	15.1	0.00e+00	0	58	0	854589440	51	4999
2026-01-01 09:18:35.41	359.36	19.78	-40.1	-42.8	15.0	0.00e+00	0	58	0	856686592	51	5008
2026-01-01 09:18:36.42	359.25	19.67	-40.1	-42.7	15.1	0.00e+00	0	58	0	857735168	51	4947
2026-01-01 09:18:37.43	359.14	19.55	-40.2	-42.8	15.0	0.00e+00	0	58	0	859832320	51	5018
2026-01-01 09:18:38.44	359.04	19.43	-40.2	-42.9	14.9	0.00e+00	0	58	0	861929472	51	5055
2026-01-01 09:18:39.45	358.93	19.32	-40.1	-42.8	15.0	0.00e+00	0	58	0	864026624	51	5018
2026-01-01 09:18:40.46	358.82	19.20	-40.1	-42.8	15.0	0.00e+00	0	57	0	866123776	51	4995
2026-01-01 09:18:41.47	358.72	19.09	-40.2	-42.9	14.9	0.00e+00	0	58	0	867172352	51	5066
2026-01-01 09:18:42.48	358.61	18.97	-40.2	-42.9	14.8	0.00e+00	0	57	0	869269504	51	5095
2026-01-01 09:18:43.49	358.51	18.86	-40.2	-42.9	14.8	0.00e+00	0	57	0	871366656	51	5081
2026-01-01 09:18:44.50	358.40	18.75	-40.2	-42.9	14.9	7.00e-07	0	58	0	873463808	51	5054
2026-01-01 09:18:45.51	358.30	18.63	-40.1	-42.8	14.9	7.00e-07	0	58	0	875560960	51	5017
2026-01-01 09:18:46.52	358.20	18.52	-40.1	-42.7	15.0	0.00e+00	0	57	0	876609536	51	4967
2026-01-01 09:18:47.53	358.10	18.41	-40.1	-42.7	15.0	0.00e+00	0	57	0	878706688	51	4960
2026-01-01 09:18:48.54	358.00	18.30	-40.0	-42.7	15.1	0.00e+00	0	58	0	880803840	51	4937
2026-01-01 09:18:49.54	357.90	18.19	-40.1	-42.8	14.9	0.00e+00	0	58	0	882900992	51	4984
2026-01-01 09:18:50.56	357.80	18.08	-40.2	-43.0	14.7	0.00e+00	0	57	0	884998144	51	5127
2026-01-01 09:18:51.57	357.70	17.96	-40.3	-43.2	14.4	0.00e+00	0	57	0	887095296	51	5247
2026-01-01 09:18:52.58	357.61	17.85	-40.3	-43.3	14.3	7.00e-07	0	58	0	888143872	51	5283
2026-01-01 09:18:53.59	357.51	17.74	-40.5	-43.5	14.0	2.20e-06	0	58	0	890241024	51	5434
2026-01-01 09:18:54.60	357.41	17.64	-40.4	-43.4	14.2	2.20e-06	0	58	0	892338176	51	5341
2026-01-01 09:18:55.61	357.32	17.53	-40.2	-43.1	14.3	7.00e-07	0	58	0	894435328	51	5207
2026-01-01 09:18:56.61	357.22	17.42	-40.2	-43.1	14.3	0.00e+00	0	57	0	896532480	51	5202
2026-01-01 09:18:57.62	357.13	17.31	-40.1	-43.1	14.3	7.00e-07	0	58	0	897581056	51	5171
2026-01-01 09:18:58.63	357.04	17.20	-40.0	-42.9	14.4	0.00e+00	0	58	0	899678208	51	5069
2026-01-01 09:18:59.64	356.95	17.10	-39.9	-42.9	14.3	7.00e-07	0	58	0	901775360	51	5064
2026-01-01 09:19:00.65	356.85	16.99	-39.9	-43.0	14.0	3.00e-06	0	58	0	903872512	51	5136
2026-01-01 09:19:01.66	356.76	16.88	-39.8	-43.0	13.8	3.80e-06	0	57	0	905969664	51	5124
2026-01-01 09:19:02.67	356.67	16.78	-39.9	-43.3	13.4	7.60e-06	0	58	0	907018240	51	5282
2026-01-01 09:19:03.68	356.58	16.67	-40.0	-43.6	12.9	3.73e-05	0	58	0	909115392	51	5501
2026-01-01 09:19:04.69	356.49	16.56	-40.1	-43.9	12.4	9.46e-05	0	58	0	911212544	51	5663
2026-01-01 09:19:05.70	356.41	16.46	-40.2	-44.5	11.5	5.71e-04	0	58	0	913309696	51	6080
2026-01-01 09:19:06.71	356.32	16.35	-40.4	-45.0	10.7	2.05e-03	0	58	0	915406848	51	6485
2026-01-01 09:19:07.72	356.23	16.25	-40.5	-45.8	9.7	5.78e-03	0	58	0	916455424	51	7071
2026-01-01 09:19:08.73	356.14	16.15	-40.6	-46.5	8.8	2.57e-02	0	58	0	918552576	51	7643
2026-01-01 09:19:09.74	356.06	16.04	-40.7	-47.2	7.8	6.14e-02	0	57	0	920649728	51	8366
2026-01-01 09:19:10.76	355.97	15.94	-40.6	-47.9	7.0	1.23e-01	0	58	0	922746880	52	8519
2026-01-01 09:19:11.77	355.89	15.84	-40.7	-48.7	6.1	2.17e-01	0	58	0	924844032	52	9337
2026-01-01 09:19:12.78	355.80	15.73	-40.7	-49.7	5.3	4.75e-01	0	58	0	926941184	52	10459
2026-01-01 09:19:13.79	355.72	15.63	-40.6	-50.4	4.8	6.87e-01	0	58	0	927989760	52	11363
2026-01-01 09:19:14.80	355.64	15.53	-40.6	-51.3	4.4	9.37e-01	74	58	0	930086912	52	12526
2026-01-01 09:19:15.81	355.56	15.43	-40.5	-51.9	4.1	1.38e+00	0	58	0	931135488	52	13462
2026-01-01 09:19:16.82	355.47	15.33	-40.4	-52.6	3.8	1.45e+00	0	57	104	931135488	52	14708
2026-01-01 09:19:17.83	355.39	15.23	-40.4	-53.1	3.9	1.48e+00	0	58	104	931135488	52	15498
2026-01-01 09:19:18.84	355.31	15.13	-40.3	-53.5	3.8	1.49e+00	0	58	104	931135488	52	16173
2026-01-01 09:19:19.85	355.23	15.03	-40.2	-53.8	3.8	1.49e+00	0	58	104	931135488	52	16882
2026-01-01 09:19:20.86	355.15	14.93	-40.1	-54.0	3.8	1.49e+00	0	58	104	931135488	52	17212
2026-01-01 09:19:21.87	355.08	14.83	-40.1	-54.2	3.8	1.49e+00	0	58	104	931135488	52	17511
2026-01-01 09:19:22.88	355.00	14.73	-40.0	-54.3	3.8	1.49e+00	0	58	104	931135488	52	17808
2026-01-01 09:19:23.89	354.92	14.63	-40.0	-54.4	3.8	1.49e+00	0	58	104	931135488	52	18049
2026-01-01 09:19:24.90	354.84	14.53	-40.1	-54.6	3.8	1.49e+00	0	58	104	931135488	52	18317
2026-01-01 09:19:25.91	354.77	14.43	-40.0	-54.5	3.8	1.49e+00	0	58	104	931135488	52	18272
2026-01-01 09:19:26.92	354.69	14.34	-40.1	-54.7	3.8	1.49e+00	0	58	104	931135488	52	18632
2026-01-01 09:19:27.93	354.61	14.24	-40.4	-54.6	3.8	1.49e+00	0	58	104	931135488	52	18488
2026-01-01 09:19:28.94	354.54	14.14	-40.0	-54.6	3.8	1.49e+00	0	58	104	931135488	52	18468
2026-01-01 09:19:29.95	354.46	14.05	-40.3	-54.9	3.8	1.49e+00	0	57	104	931135488	52	19096
2026-01-01 09:19:30.96	354.39	13.95	-40.0	-54.8	3.8	1.49e+00	0	58	104	931135488	52	18735
2026-01-01 09:19:31.97	354.32	13.85	-40.2	-54.8	3.8	1.49e+00	0	58	104	931135488	52	18824
2026-01-01 09:19:32.98	354.24	13.76	-40.0	-54.7	3.8	1.49e+00	0	58	104	931135488	52	18661
2026-01-01 09:19:33.99	354.17	13.66	-40.3	-54.8	3.8	1.49e+00	0	58	104	931135488	52	18855
2026-01-01 09:19:35.00	354.10	13.57	-40.0	-54.8	3.8	1.49e+00	0	58	104	931135488	51	20012
2026-01-01 09:19:36.01	354.03	13.47	-40.4	-54.9	3.8	1.49e+00	0	58	104	931135488	51	20162
2026-01-01 09:19:37.02	353.96	13.38	-40.1	-54.9	3.8	1.49e+00	0	58	104	931135488	51	20218
2026-01-01 09:19:38.03	353.89	13.29	-40.2	-54.9	3.8	1.49e+00	0	58	104	931135488	51	20127
2026-01-01 09:19:39.04	353.82	13.19	-40.2	-54.9	3.8	1.49e+00	0	58	104	931135488	51	20290
2026-01-01 09:19:40.05	353.75	13.10	-40.1	-54.8	3.8	1.49e+00	0	58	104	931135488	51	20050
2026-01-01 09:19:41.06	353.68	13.01	-39.6	-54.9	3.8	1.49e+00	0	58	104	931135488	51	20237
2026-01-01 09:19:42.07	353.61	12.91	-40.2	-54.8	3.8	1.49e+00	0	58	104	931135488	51	19933
2026-01-01 09:19:43.08	353.54	12.82	-39.5	-55.0	3.8	1.49e+00	0	58	104	931135488	51	20326
2026-01-01 09:19:44.09	353.47	12.73	-40.1	-54.7	3.8	1.49e+00	0	58	104	931135488	51	19805
2026-01-01 09:19:45.10	353.41	12.64	-40.4	-55.0	3.8	1.49e+00	0	58	104	931135488	51	20493
2026-01-01 09:19:46.11	353.34	12.55	-39.6	-54.7	3.8	1.49e+00	0	58	104	931135488	51	19710
2026-01-01 09:19:47.12	353.27	12.46	-40.3	-55.1	3.8	1.49e+00	0	58	104	931135488	51	20593
2026-01-01 09:19:48.13	353.21	12.36	-39.4	-54.6	3.8	1.49e+00	0	58	104	931135488	50	20692
2026-01-01 09:19:49.14	353.14	12.27	-39.9	-55.1	3.8	1.49e+00	0	58	104	931135488	50	21859
2026-01-01 09:19:50.16	353.07	12.18	-40.0	-54.8	3.8	1.49e+00	0	58	104	931135488	50	21184
2026-01-01 09:19:51.16	353.01	12.09	-40.1	-55.1	3.8	1.49e+00	0	58	104	931135488	50	21904
2026-01-01 09:19:52.17	352.95	12.00	-39.8	-54.9	3.8	1.49e+00	0	58	104	931135488	50	21277
2026-01-01 09:19:53.18	352.88	11.92	-40.2	-55.2	3.8	1.49e+00	0	58	104	931135488	51	20801
2026-01-01 09:19:54.19	352.82	11.83	-39.5	-54.5	3.8	1.49e+00	0	58	104	931135488	50	20475
2026-01-01 09:19:55.20	352.75	11.74	-39.6	-54.5	3.8	1.49e+00	0	58	104	931135488	50	20508
2026-01-01 09:19:56.22	352.69	11.65	-39.7	-54.6	3.8	1.49e+00	0	58	104	931135488	50	20618
