passes_logs/2026/01/01/R2.0S_Moscow/R2.0S_Moscow__20260101_095744_NOAA_21_JPSS-2_rec.log

#Pass ID: 20260101_095744_NOAA 21 (JPSS-2)
#Satellite: NOAA 21 (JPSS-2)
#Configuration: NOAA-21
#almurnet v.1.7.20251203
#Start time: 2026-01-01 10:02:39

#Version: 2.2.20231116
#Station: R2.0S_Moscow
#Location: 37.707566 lon 55.798166 lat
#TLE: 1 54234U 22150A   25365.42224288  .00000199  00000+0  11529-3 0  9990
#TLE: 2 54234  98.7483 301.4995 0001320 356.2106   3.9060 14.19530300162743

#Time	Az	El	Level	Level2	SNR	BER	BlckErr	Temp	State	Recorded	gain1	gain2
2026-01-01 10:02:39.76	164.26	36.57	-44.9	-56.5	3.8	8.46e-01	0	57	0	0	60	14493
2026-01-01 10:02:40.76	164.28	36.81	-45.2	-57.5	3.8	1.49e+00	0	58	104	0	62	14530
2026-01-01 10:02:41.77	164.29	37.05	-45.2	-57.6	3.8	1.49e+00	0	58	104	0	62	14567
2026-01-01 10:02:42.78	164.31	37.30	-45.2	-57.6	3.8	1.49e+00	0	58	104	0	62	14583
2026-01-01 10:02:43.79	164.33	37.54	-45.2	-57.6	3.8	1.49e+00	0	58	104	0	62	14589
2026-01-01 10:02:44.80	164.35	37.79	-45.2	-57.5	3.8	1.49e+00	0	58	104	0	62	14524
2026-01-01 10:02:45.81	164.37	38.04	-45.2	-57.5	3.8	1.49e+00	0	58	104	0	62	14509
2026-01-01 10:02:46.82	164.39	38.30	-45.2	-57.5	3.8	1.49e+00	0	58	104	0	62	14504
2026-01-01 10:02:47.84	164.42	38.55	-45.2	-57.5	3.8	1.49e+00	0	58	104	0	62	14442
2026-01-01 10:02:48.85	164.44	38.81	-45.2	-57.5	3.8	1.49e+00	0	58	104	0	62	14437
2026-01-01 10:02:49.86	164.46	39.07	-45.2	-57.5	3.8	1.49e+00	0	58	104	0	62	14418
2026-01-01 10:02:50.87	164.48	39.33	-45.2	-57.5	3.8	1.49e+00	0	58	104	0	62	14434
2026-01-01 10:02:51.88	164.50	39.59	-45.1	-57.4	3.8	1.49e+00	0	58	104	0	62	14351
2026-01-01 10:02:52.89	164.52	39.85	-45.1	-57.5	3.8	1.49e+00	0	58	104	0	62	14423
2026-01-01 10:02:53.90	164.55	40.12	-45.1	-57.5	3.8	1.49e+00	0	58	104	0	62	14391
2026-01-01 10:02:54.91	164.57	40.39	-45.1	-57.4	3.8	1.49e+00	0	58	104	0	62	14324
2026-01-01 10:02:55.92	164.59	40.66	-45.1	-57.4	3.8	1.49e+00	0	58	104	0	62	14355
2026-01-01 10:02:56.94	164.61	40.93	-45.1	-57.4	3.8	1.49e+00	0	58	104	0	62	14344
2026-01-01 10:02:57.95	164.64	41.20	-45.1	-57.4	3.8	1.49e+00	0	58	104	0	62	14276
2026-01-01 10:02:58.96	164.66	41.48	-45.1	-57.4	3.8	1.49e+00	0	58	104	0	62	14353
2026-01-01 10:02:59.97	164.69	41.76	-45.1	-57.5	3.8	1.49e+00	0	58	104	0	62	14378
2026-01-01 10:03:00.98	164.71	42.04	-45.1	-57.4	3.8	1.49e+00	0	58	104	0	62	14331
2026-01-01 10:03:01.99	164.74	42.32	-45.1	-57.5	3.8	1.49e+00	0	58	104	0	62	14386
2026-01-01 10:03:03.00	164.76	42.61	-45.1	-57.4	3.8	1.49e+00	0	58	104	0	62	14358
2026-01-01 10:03:04.01	164.79	42.89	-45.1	-57.4	3.8	1.49e+00	0	58	104	0	62	14343
2026-01-01 10:03:05.02	164.82	43.18	-45.1	-57.4	3.8	1.49e+00	0	58	104	0	62	14305
2026-01-01 10:03:06.03	164.84	43.47	-45.1	-57.4	3.8	1.49e+00	0	58	104	0	62	14246
2026-01-01 10:03:07.05	164.87	43.77	-45.1	-57.4	3.8	1.49e+00	0	58	104	0	62	14287
2026-01-01 10:03:08.06	164.90	44.07	-45.1	-57.4	3.8	1.49e+00	0	58	104	0	62	14321
2026-01-01 10:03:09.07	164.93	44.36	-45.1	-57.4	3.8	1.49e+00	0	58	104	0	62	14303
2026-01-01 10:03:10.08	164.95	44.66	-45.1	-57.4	3.8	1.49e+00	0	58	104	0	62	14346
2026-01-01 10:03:11.09	164.98	44.97	-45.1	-57.4	3.8	1.49e+00	0	58	104	0	62	14293
2026-01-01 10:03:12.10	165.01	45.27	-45.1	-57.4	3.8	1.49e+00	0	58	104	0	62	14211
2026-01-01 10:03:13.11	165.04	45.58	-45.1	-57.4	3.8	1.49e+00	0	58	104	0	62	14262
2026-01-01 10:03:14.12	165.07	45.89	-45.1	-57.4	3.8	1.49e+00	0	58	104	0	62	14280
2026-01-01 10:03:15.14	165.11	46.20	-45.1	-57.4	3.8	1.49e+00	0	58	104	0	62	14337
2026-01-01 10:03:16.15	165.14	46.52	-45.1	-57.4	3.8	1.49e+00	0	58	104	0	62	14211
2026-01-01 10:03:17.16	165.17	46.84	-45.1	-57.4	3.8	1.49e+00	0	58	104	0	62	14241
2026-01-01 10:03:18.17	165.20	47.15	-45.1	-57.4	3.8	1.49e+00	0	58	104	0	62	14248
2026-01-01 10:03:19.18	165.24	47.48	-45.1	-57.4	3.8	1.49e+00	0	58	104	0	62	14288
2026-01-01 10:03:20.19	165.27	47.80	-45.1	-57.3	3.8	1.49e+00	0	58	104	0	62	14189
2026-01-01 10:03:21.20	165.31	48.13	-45.1	-57.2	3.8	1.49e+00	0	58	104	0	62	14005
2026-01-01 10:03:22.21	165.34	48.46	-45.0	-57.0	3.8	1.49e+00	0	58	104	0	62	13603
2026-01-01 10:03:23.22	165.38	48.79	-45.0	-57.1	3.8	1.49e+00	0	58	104	0	62	13792
2026-01-01 10:03:24.23	165.41	49.12	-45.1	-57.3	3.8	1.49e+00	0	58	104	0	62	14129
2026-01-01 10:03:25.24	165.45	49.46	-45.1	-57.3	3.8	1.49e+00	0	58	104	0	62	14145
2026-01-01 10:03:26.25	165.49	49.80	-45.0	-57.1	3.8	1.49e+00	0	58	104	0	62	13781
2026-01-01 10:03:27.26	165.53	50.14	-45.0	-56.8	3.8	1.49e+00	0	58	104	0	62	13377
2026-01-01 10:03:28.28	165.57	50.49	-45.0	-56.8	3.8	1.49e+00	0	58	104	0	62	13300
2026-01-01 10:03:29.29	165.61	50.83	-44.9	-56.4	3.8	1.49e+00	0	58	104	0	61	13428
2026-01-01 10:03:30.30	165.65	51.18	-44.5	-52.9	4.5	1.47e+00	0	58	104	0	61	8995
2026-01-01 10:03:31.31	165.69	51.53	-42.7	-46.6	9.3	7.20e-02	0	58	0	1048576	57	5488
2026-01-01 10:03:32.32	165.74	51.89	-40.0	-42.2	13.8	3.50e-05	0	58	0	4194304	51	4668
2026-01-01 10:03:33.33	165.78	52.24	-38.2	-39.8	16.2	0.00e+00	0	58	0	7340032	48	4226
2026-01-01 10:03:34.34	165.83	52.60	-38.6	-40.4	15.7	0.00e+00	0	58	0	10485760	47	4803
2026-01-01 10:03:35.35	165.88	52.97	-45.0	-56.4	3.8	1.49e+00	0	58	104	11534336	60	14214
2026-01-01 10:03:36.36	165.92	53.33	-39.8	-41.9	13.9	3.97e-02	0	58	0	12582912	51	4523
2026-01-01 10:03:37.37	165.97	53.70	-39.8	-42.0	14.1	2.28e-05	0	58	0	15728640	51	4557
2026-01-01 10:03:38.39	166.02	54.07	-39.0	-40.8	14.9	1.26e-02	0	58	0	18874368	50	4234
2026-01-01 10:03:39.40	166.07	54.44	-41.4	-44.4	11.4	3.07e-03	0	58	0	22020096	54	5077
2026-01-01 10:03:40.41	166.13	54.82	-37.4	-38.9	17.0	0.00e+00	0	58	0	25165824	46	4267
2026-01-01 10:03:41.42	166.18	55.20	-37.2	-38.7	17.3	0.00e+00	0	58	0	28311552	46	4149
2026-01-01 10:03:42.43	166.24	55.58	-37.2	-38.7	17.3	0.00e+00	0	58	0	31457280	46	4156
2026-01-01 10:03:43.44	166.29	55.96	-36.7	-38.1	17.8	0.00e+00	0	58	0	34603008	45	4099
2026-01-01 10:03:44.45	166.35	56.35	-36.5	-37.8	18.1	0.00e+00	0	58	0	37748736	44	4229
2026-01-01 10:03:45.46	166.41	56.74	-36.5	-37.9	18.0	0.00e+00	0	58	0	40894464	44	4256
2026-01-01 10:03:46.47	166.47	57.13	-36.6	-38.0	17.9	0.00e+00	0	58	0	44040192	44	4327
2026-01-01 10:03:47.48	166.53	57.52	-36.5	-37.9	18.0	0.00e+00	0	58	0	47185920	44	4279
2026-01-01 10:03:48.49	166.60	57.92	-36.6	-38.0	17.8	0.00e+00	0	58	0	50331648	44	4337
2026-01-01 10:03:49.50	166.67	58.32	-36.7	-38.1	17.8	0.00e+00	0	58	0	53477376	44	4379
2026-01-01 10:03:50.51	166.73	58.72	-36.6	-38.1	17.8	0.00e+00	0	58	0	56623104	44	4360
2026-01-01 10:03:51.52	166.81	59.13	-36.1	-37.5	18.3	0.00e+00	0	58	0	59768832	44	4061
2026-01-01 10:03:52.53	166.88	59.53	-36.1	-37.4	18.4	0.00e+00	0	58	0	62914560	44	4033
2026-01-01 10:03:53.55	166.95	59.95	-36.2	-37.6	18.3	0.00e+00	0	58	0	66060288	44	4114
2026-01-01 10:03:54.55	167.03	60.36	-36.0	-37.3	18.5	0.00e+00	0	58	0	69206016	44	3982
2026-01-01 10:03:55.57	167.11	60.78	-35.6	-36.9	18.7	0.00e+00	0	58	0	72351744	43	4048
2026-01-01 10:03:56.58	167.19	61.20	-35.5	-36.7	18.9	0.00e+00	0	58	0	75497472	42	4191
2026-01-01 10:03:57.59	167.28	61.62	-35.4	-36.7	18.9	0.00e+00	0	58	0	78643200	42	4147
2026-01-01 10:03:58.60	167.37	62.04	-35.3	-36.6	19.0	0.00e+00	0	58	0	81788928	42	4109
2026-01-01 10:03:59.61	167.46	62.47	-35.3	-36.6	19.0	0.00e+00	0	58	0	84934656	42	4117
2026-01-01 10:04:00.62	167.55	62.89	-35.2	-36.4	19.2	0.00e+00	0	58	0	88080384	42	4043
2026-01-01 10:04:01.63	167.65	63.33	-35.2	-36.5	19.1	0.00e+00	0	58	0	91226112	42	4063
2026-01-01 10:04:02.64	167.75	63.76	-35.3	-36.6	19.0	0.00e+00	0	58	0	94371840	42	4124
2026-01-01 10:04:03.65	167.85	64.20	-35.5	-36.8	18.8	0.00e+00	0	58	0	97517568	42	4242
2026-01-01 10:04:04.66	167.96	64.63	-35.6	-36.9	18.7	0.00e+00	0	58	0	100663296	42	4259
2026-01-01 10:04:05.67	168.07	65.08	-35.2	-36.5	18.9	0.00e+00	0	58	0	103809024	42	4081
2026-01-01 10:04:06.68	168.19	65.52	-34.8	-36.1	19.5	0.00e+00	0	58	0	106954752	41	4103
2026-01-01 10:04:07.69	168.31	65.97	-34.6	-35.8	19.7	0.00e+00	0	58	0	110100480	41	3959
2026-01-01 10:04:08.70	168.44	66.41	-34.7	-35.9	19.6	0.00e+00	0	58	0	113246208	41	4044
2026-01-01 10:04:09.71	168.57	66.86	-35.0	-36.3	19.3	0.00e+00	0	58	0	116391936	41	4207
2026-01-01 10:04:10.72	168.71	67.32	-35.0	-36.2	19.3	0.00e+00	0	58	0	119537664	41	4164
2026-01-01 10:04:11.73	168.85	67.77	-34.9	-36.1	19.4	0.00e+00	0	58	0	122683392	41	4108
2026-01-01 10:04:12.74	169.00	68.23	-34.9	-36.1	19.3	0.00e+00	0	58	0	125829120	41	4132
2026-01-01 10:04:13.75	169.16	68.69	-34.9	-36.1	19.3	0.00e+00	0	58	0	128974848	41	4144
2026-01-01 10:04:14.76	169.32	69.15	-35.0	-36.2	19.3	0.00e+00	0	58	0	132120576	41	4158
2026-01-01 10:04:15.78	169.49	69.62	-35.0	-36.2	19.2	0.00e+00	0	58	0	135266304	41	4187
2026-01-01 10:04:16.78	169.67	70.08	-35.1	-36.3	19.2	0.00e+00	0	57	0	138412032	41	4213
2026-01-01 10:04:17.79	169.86	70.55	-34.8	-36.0	19.5	0.00e+00	0	58	0	141557760	41	4075
2026-01-01 10:04:18.80	170.06	71.02	-34.6	-35.8	19.6	0.00e+00	0	58	0	144703488	41	3970
2026-01-01 10:04:19.82	170.27	71.50	-34.4	-35.5	19.9	0.00e+00	0	58	0	147849216	40	4096
2026-01-01 10:04:20.83	170.49	71.98	-34.3	-35.5	19.9	0.00e+00	0	58	0	150994944	40	4068
2026-01-01 10:04:21.84	170.73	72.45	-34.4	-35.5	19.9	0.00e+00	0	58	0	154140672	40	4078
2026-01-01 10:04:22.84	170.97	72.92	-34.5	-35.6	19.8	0.00e+00	0	58	0	157286400	40	4142
2026-01-01 10:04:23.85	171.23	73.40	-34.4	-35.5	19.9	0.00e+00	0	58	0	160432128	40	4076
2026-01-01 10:04:24.86	171.51	73.89	-34.4	-35.5	19.8	0.00e+00	0	58	0	163577856	40	4081
2026-01-01 10:04:25.87	171.81	74.37	-34.5	-35.7	19.6	0.00e+00	0	58	0	166723584	40	4171
2026-01-01 10:04:26.88	172.12	74.85	-34.5	-35.7	19.5	0.00e+00	0	58	0	169869312	40	4165
2026-01-01 10:04:27.89	172.46	75.34	-34.4	-35.6	19.7	0.00e+00	0	58	0	173015040	40	4108
2026-01-01 10:04:28.90	172.82	75.83	-34.3	-35.4	19.9	0.00e+00	0	58	0	176160768	40	4043
2026-01-01 10:04:29.91	173.21	76.31	-34.3	-35.4	19.9	0.00e+00	0	58	0	179306496	40	4030
2026-01-01 10:04:30.92	173.62	76.80	-34.5	-35.7	19.7	0.00e+00	0	58	0	182452224	40	4165
2026-01-01 10:04:31.92	174.07	77.29	-34.7	-35.9	19.5	0.00e+00	0	58	0	185597952	40	4248
2026-01-01 10:04:32.93	174.55	77.78	-34.9	-36.2	19.3	0.00e+00	0	58	0	188743680	40	4392
2026-01-01 10:04:33.94	175.08	78.27	-35.0	-36.2	19.2	0.00e+00	0	58	0	191889408	40	4427
2026-01-01 10:04:34.95	175.65	78.76	-35.3	-36.5	19.0	0.00e+00	0	58	0	195035136	41	4321
2026-01-01 10:04:35.96	176.28	79.25	-35.4	-36.6	18.8	0.00e+00	0	58	0	198180864	41	4387
2026-01-01 10:04:36.97	176.97	79.74	-35.2	-36.4	19.0	0.00e+00	0	58	0	201326592	41	4270
2026-01-01 10:04:37.98	177.72	80.24	-35.2	-36.4	19.0	0.00e+00	0	58	0	204472320	41	4276
2026-01-01 10:04:38.99	178.56	80.73	-35.1	-36.3	19.2	0.00e+00	0	58	0	207618048	41	4217
2026-01-01 10:04:40.00	179.50	81.22	-35.4	-36.7	18.8	0.00e+00	0	58	0	210763776	41	4413
2026-01-01 10:04:41.01	180.54	81.70	-35.6	-36.9	18.6	0.00e+00	0	58	0	213909504	41	4519
2026-01-01 10:04:42.02	181.72	82.19	-35.7	-37.0	18.5	0.00e+00	0	58	0	217055232	42	4327
2026-01-01 10:04:43.03	183.05	82.67	-35.6	-36.9	18.4	0.00e+00	0	58	0	220200960	42	4272
2026-01-01 10:04:44.04	184.57	83.15	-35.5	-36.8	18.6	0.00e+00	0	58	0	223346688	42	4210
2026-01-01 10:04:45.05	186.32	83.63	-35.4	-36.7	18.7	0.00e+00	0	58	0	226492416	42	4186
2026-01-01 10:04:46.06	188.35	84.10	-35.5	-36.8	18.7	0.00e+00	0	58	0	229638144	42	4221
2026-01-01 10:04:47.07	190.74	84.56	-35.5	-36.8	18.7	0.00e+00	0	58	0	232783872	42	4213
2026-01-01 10:04:48.08	193.56	85.01	-35.2	-36.4	18.9	0.00e+00	0	58	0	235929600	42	4044
2026-01-01 10:04:49.09	196.93	85.44	-35.2	-36.5	18.9	0.00e+00	0	58	0	239075328	42	4057
2026-01-01 10:04:50.10	200.99	85.86	-35.3	-36.5	18.9	0.00e+00	0	58	0	242221056	42	4091
2026-01-01 10:04:51.10	205.89	86.25	-35.1	-36.4	19.1	0.00e+00	0	58	0	245366784	42	4010
2026-01-01 10:04:52.11	211.94	86.61	-35.1	-36.4	19.1	0.00e+00	0	58	0	248512512	42	4007
2026-01-01 10:04:53.12	219.32	86.92	-35.5	-36.8	18.6	0.00e+00	0	58	0	251658240	42	4242
2026-01-01 10:04:54.13	228.19	87.18	-35.8	-37.1	18.4	0.00e+00	0	58	0	254803968	42	4387
2026-01-01 10:04:55.14	238.49	87.35	-35.7	-37.1	18.4	0.00e+00	0	58	0	257949696	42	4350
2026-01-01 10:04:56.15	249.81	87.43	-35.5	-36.8	18.7	0.00e+00	0	58	0	261095424	42	4236
2026-01-01 10:04:57.16	261.35	87.40	-35.5	-36.8	18.7	0.00e+00	0	58	0	264241152	42	4232
2026-01-01 10:04:58.17	272.22	87.27	-35.3	-36.6	18.9	0.00e+00	0	58	0	267386880	42	4115
2026-01-01 10:04:59.18	281.82	87.06	-35.1	-36.3	19.1	0.00e+00	0	58	0	270532608	42	3983
2026-01-01 10:05:00.19	289.91	86.77	-34.8	-36.0	19.4	0.00e+00	0	58	0	273678336	41	4080
2026-01-01 10:05:01.20	296.58	86.43	-35.1	-36.3	19.2	0.00e+00	0	57	0	276824064	41	4211
2026-01-01 10:05:02.21	302.04	86.05	-35.0	-36.2	19.3	0.00e+00	0	58	0	279969792	41	4152
2026-01-01 10:05:03.22	306.50	85.65	-35.1	-36.3	19.1	0.00e+00	0	58	0	284164096	41	4237
2026-01-01 10:05:04.22	310.15	85.22	-35.1	-36.3	19.1	0.00e+00	0	58	0	286261248	41	4229
2026-01-01 10:05:05.23	313.22	84.78	-35.0	-36.2	19.0	0.00e+00	0	57	0	289406976	41	4173
2026-01-01 10:05:06.25	315.83	84.32	-34.9	-36.1	19.1	0.00e+00	0	58	0	292552704	41	4118
2026-01-01 10:05:07.25	318.00	83.86	-34.9	-36.1	19.2	0.00e+00	0	58	0	295698432	41	4145
2026-01-01 10:05:08.26	319.88	83.39	-35.0	-36.3	19.2	0.00e+00	0	58	0	299892736	41	4198
2026-01-01 10:05:09.27	321.51	82.91	-35.5	-36.8	18.7	0.00e+00	0	58	0	303038464	41	4443
2026-01-01 10:05:10.28	322.93	82.43	-35.6	-37.0	18.5	0.00e+00	0	58	0	306184192	41	4556
2026-01-01 10:05:11.29	324.18	81.95	-35.4	-36.6	18.7	0.00e+00	0	58	0	308281344	41	4388
2026-01-01 10:05:12.30	325.28	81.46	-35.1	-36.3	19.2	0.00e+00	0	58	0	311427072	41	4200
2026-01-01 10:05:13.31	326.27	80.97	-35.0	-36.2	19.3	0.00e+00	0	58	0	315621376	41	4169
2026-01-01 10:05:14.32	327.15	80.48	-35.0	-36.2	19.3	0.00e+00	0	58	0	318767104	41	4159
2026-01-01 10:05:15.33	327.95	79.99	-35.0	-36.1	19.3	0.00e+00	0	58	0	321912832	41	4145
2026-01-01 10:05:16.34	328.67	79.50	-35.1	-36.3	19.1	0.00e+00	0	58	0	325058560	41	4225
2026-01-01 10:05:17.35	329.33	79.01	-35.3	-36.6	18.9	0.00e+00	0	58	0	328204288	41	4347
2026-01-01 10:05:18.36	329.92	78.52	-34.8	-36.0	19.5	0.00e+00	0	58	0	331350016	41	4067
2026-01-01 10:05:19.37	330.47	78.03	-34.6	-35.8	19.7	0.00e+00	0	58	0	334495744	41	3962
2026-01-01 10:05:20.38	330.98	77.54	-34.7	-35.8	19.6	0.00e+00	0	58	0	337641472	41	3994
2026-01-01 10:05:21.39	331.44	77.05	-34.6	-35.7	19.8	0.00e+00	0	58	0	340787200	40	4174
2026-01-01 10:05:22.40	331.87	76.56	-34.5	-35.7	19.8	0.00e+00	0	58	0	343932928	40	4155
2026-01-01 10:05:23.41	332.27	76.07	-34.7	-35.9	19.6	0.00e+00	0	58	0	347078656	40	4264
2026-01-01 10:05:24.42	332.65	75.58	-34.9	-36.1	19.4	0.00e+00	0	58	0	350224384	40	4367
2026-01-01 10:05:25.43	333.00	75.10	-34.8	-36.0	19.4	0.00e+00	0	58	0	353370112	40	4325
2026-01-01 10:05:26.44	333.32	74.61	-34.9	-36.1	19.4	0.00e+00	0	58	0	356515840	40	4364
2026-01-01 10:05:27.45	333.63	74.13	-34.9	-36.2	19.3	0.00e+00	0	58	0	359661568	40	4394
2026-01-01 10:05:28.46	333.91	73.65	-35.4	-36.7	18.9	0.00e+00	0	58	0	362807296	41	4394
2026-01-01 10:05:29.47	334.18	73.17	-35.1	-36.3	19.2	0.00e+00	0	58	0	365953024	41	4216
2026-01-01 10:05:30.48	334.44	72.69	-35.0	-36.2	19.3	0.00e+00	0	58	0	369098752	41	4176
2026-01-01 10:05:31.49	334.68	72.22	-34.9	-36.1	19.3	0.00e+00	0	58	0	372244480	41	4140
2026-01-01 10:05:32.50	334.90	71.74	-34.5	-35.7	19.7	0.00e+00	0	58	0	375390208	40	4190
2026-01-01 10:05:33.51	335.12	71.27	-34.2	-35.3	20.1	0.00e+00	0	58	0	378535936	40	3995
2026-01-01 10:05:34.52	335.32	70.80	-34.3	-35.5	19.9	0.00e+00	0	58	0	381681664	40	4076
2026-01-01 10:05:35.53	335.52	70.33	-34.9	-36.1	19.4	0.00e+00	0	58	0	384827392	40	4381
2026-01-01 10:05:36.54	335.70	69.87	-35.6	-36.9	18.7	0.00e+00	0	58	0	387973120	41	4533
2026-01-01 10:05:37.55	335.88	69.40	-35.9	-37.3	18.4	0.00e+00	0	58	0	391118848	42	4446
2026-01-01 10:05:38.56	336.04	68.94	-35.6	-37.1	18.4	0.00e+00	0	58	0	394264576	42	4368
2026-01-01 10:05:39.57	336.20	68.48	-34.9	-36.2	19.2	0.00e+00	0	58	0	397410304	41	4151
2026-01-01 10:05:40.58	336.36	68.02	-34.5	-35.7	19.7	0.00e+00	0	58	0	400556032	41	3937
2026-01-01 10:05:41.59	336.50	67.57	-34.4	-35.6	19.9	0.00e+00	0	58	0	403701760	40	4100
2026-01-01 10:05:42.60	336.64	67.11	-35.0	-36.2	19.4	0.00e+00	0	58	0	406847488	40	4415
2026-01-01 10:05:43.61	336.78	66.66	-35.8	-37.2	18.4	0.00e+00	0	58	0	409993216	42	4404
2026-01-01 10:05:44.62	336.91	66.21	-35.7	-37.0	18.6	0.00e+00	0	58	0	413138944	42	4312
2026-01-01 10:05:45.63	337.03	65.77	-34.9	-36.1	19.4	0.00e+00	0	58	0	416284672	41	4117
2026-01-01 10:05:46.64	337.15	65.32	-34.6	-35.8	19.6	0.00e+00	0	58	0	419430400	41	3970
2026-01-01 10:05:47.65	337.26	64.88	-34.5	-35.6	19.9	0.00e+00	0	58	0	422576128	40	4132
2026-01-01 10:05:48.66	337.37	64.44	-34.1	-35.2	20.3	0.00e+00	0	58	0	425721856	40	3934
2026-01-01 10:05:49.67	337.48	64.01	-34.2	-35.3	20.2	0.00e+00	0	58	0	428867584	40	3982
2026-01-01 10:05:50.68	337.58	63.57	-34.8	-35.9	19.6	0.00e+00	0	58	0	432013312	40	4280
2026-01-01 10:05:51.69	337.68	63.14	-35.6	-36.9	18.8	0.00e+00	0	58	0	435159040	41	4521
2026-01-01 10:05:52.70	337.78	62.72	-36.3	-37.7	18.0	0.00e+00	0	58	0	438304768	43	4419
2026-01-01 10:05:53.71	337.87	62.29	-36.4	-37.8	17.8	0.00e+00	0	58	0	441450496	43	4457
2026-01-01 10:05:54.72	337.96	61.87	-35.7	-36.9	18.6	0.00e+00	0	58	0	444596224	43	4045
2026-01-01 10:05:55.73	338.05	61.45	-35.1	-36.3	19.2	0.00e+00	0	58	0	447741952	42	3965
2026-01-01 10:05:56.74	338.13	61.03	-34.9	-36.1	19.4	0.00e+00	0	58	0	450887680	41	4122
2026-01-01 10:05:57.75	338.21	60.61	-35.2	-36.4	19.2	0.00e+00	0	58	0	454033408	41	4255
2026-01-01 10:05:58.76	338.29	60.20	-35.8	-37.1	18.6	0.00e+00	0	58	0	457179136	42	4380
2026-01-01 10:05:59.77	338.37	59.79	-36.1	-37.4	18.2	0.00e+00	0	58	0	460324864	42	4528
2026-01-01 10:06:00.79	338.44	59.38	-35.6	-36.9	18.7	0.00e+00	0	57	0	463470592	42	4264
2026-01-01 10:06:01.80	338.51	58.97	-35.3	-36.6	19.1	0.00e+00	0	58	0	466616320	42	4104
2026-01-01 10:06:02.81	338.58	58.57	-35.8	-37.1	18.6	0.00e+00	0	58	0	469762048	42	4342
2026-01-01 10:06:03.82	338.65	58.17	-35.9	-37.2	18.5	0.00e+00	0	58	0	472907776	42	4419
2026-01-01 10:06:04.83	338.72	57.77	-35.5	-36.8	18.9	0.00e+00	0	58	0	476053504	42	4194
2026-01-01 10:06:05.84	338.78	57.38	-35.4	-36.7	19.0	0.00e+00	0	58	0	479199232	42	4149
2026-01-01 10:06:06.85	338.84	56.99	-35.9	-37.2	18.5	0.00e+00	0	58	0	482344960	42	4434
2026-01-01 10:06:07.86	338.90	56.60	-36.5	-37.8	17.8	0.00e+00	0	58	0	485490688	43	4488
2026-01-01 10:06:08.87	338.96	56.21	-37.0	-38.4	17.5	0.00e+00	0	58	0	488636416	44	4532
2026-01-01 10:06:09.88	339.02	55.83	-37.3	-38.8	17.2	0.00e+00	0	58	0	491782144	45	4457
2026-01-01 10:06:10.89	339.08	55.45	-37.2	-38.7	17.2	0.00e+00	0	58	0	494927872	45	4426
2026-01-01 10:06:11.89	339.13	55.07	-37.0	-38.4	17.5	0.00e+00	0	58	0	498073600	45	4261
2026-01-01 10:06:12.91	339.18	54.70	-36.8	-38.2	17.7	0.00e+00	0	58	0	501219328	45	4171
2026-01-01 10:06:13.92	339.24	54.32	-36.7	-38.0	17.8	0.00e+00	0	58	0	504365056	45	4092
2026-01-01 10:06:14.93	339.29	53.95	-36.7	-38.1	17.6	0.00e+00	0	58	0	507510784	45	4143
2026-01-01 10:06:15.94	339.34	53.59	-36.7	-38.1	17.7	0.00e+00	0	58	0	510656512	45	4118
2026-01-01 10:06:16.95	339.39	53.22	-36.6	-38.0	17.9	0.00e+00	0	58	0	513802240	45	4075
2026-01-01 10:06:17.96	339.43	52.86	-36.5	-37.9	18.0	0.00e+00	0	58	0	516947968	45	4022
2026-01-01 10:06:18.97	339.48	52.50	-36.7	-38.1	17.8	0.00e+00	0	58	0	520093696	45	4122
2026-01-01 10:06:19.98	339.52	52.14	-37.1	-38.6	17.3	0.00e+00	0	58	0	523239424	45	4360
2026-01-01 10:06:20.99	339.57	51.79	-37.7	-39.3	16.7	0.00e+00	0	58	0	526385152	45	4706
2026-01-01 10:06:22.00	339.61	51.44	-38.2	-39.9	16.1	0.00e+00	0	58	0	529530880	46	4772
2026-01-01 10:06:23.01	339.65	51.09	-38.1	-39.7	16.2	0.00e+00	0	58	0	532676608	47	4437
2026-01-01 10:06:24.02	339.70	50.74	-38.1	-39.8	16.0	0.00e+00	0	58	0	535822336	47	4474
2026-01-01 10:06:25.03	339.74	50.40	-38.4	-40.2	15.7	0.00e+00	0	58	0	538968064	47	4660
2026-01-01 10:06:26.04	339.78	50.05	-38.4	-40.1	15.8	0.00e+00	0	58	0	542113792	47	4644
2026-01-01 10:06:27.05	339.82	49.72	-38.3	-40.0	15.9	0.00e+00	0	58	0	545259520	47	4587
2026-01-01 10:06:28.06	339.85	49.38	-38.3	-40.0	16.0	0.00e+00	0	58	0	548405248	47	4564
2026-01-01 10:06:29.07	339.89	49.05	-38.1	-39.8	16.1	0.00e+00	0	58	0	551550976	47	4477
2026-01-01 10:06:30.08	339.93	48.71	-38.0	-39.6	16.3	0.00e+00	0	58	0	554696704	47	4367
2026-01-01 10:06:31.09	339.97	48.38	-37.9	-39.6	16.3	0.00e+00	0	58	0	557842432	47	4346
2026-01-01 10:06:32.10	340.00	48.06	-38.0	-39.6	16.3	0.00e+00	0	58	0	560988160	47	4378
2026-01-01 10:06:33.11	340.04	47.73	-38.4	-40.1	15.9	0.00e+00	0	58	0	564133888	47	4632
2026-01-01 10:06:34.12	340.07	47.41	-39.0	-40.9	15.2	0.00e+00	0	58	0	567279616	48	4768
2026-01-01 10:06:35.13	340.10	47.09	-39.3	-41.3	14.8	0.00e+00	0	58	0	570425344	49	4707
2026-01-01 10:06:36.14	340.14	46.78	-39.3	-41.3	14.7	0.00e+00	0	58	0	573571072	49	4728
2026-01-01 10:06:37.15	340.17	46.46	-39.2	-41.2	14.9	7.00e-07	0	58	0	576716800	49	4682
2026-01-01 10:06:38.16	340.20	46.15	-39.0	-40.9	15.2	0.00e+00	0	58	0	579862528	49	4496
2026-01-01 10:06:39.17	340.23	45.84	-38.7	-40.4	15.5	0.00e+00	0	58	0	583008256	49	4281
2026-01-01 10:06:40.18	340.26	45.53	-38.5	-40.3	15.6	0.00e+00	0	58	0	586153984	49	4202
2026-01-01 10:06:41.20	340.29	45.23	-38.8	-40.6	15.3	0.00e+00	0	58	0	589299712	49	4391
2026-01-01 10:06:42.21	340.32	44.92	-39.3	-41.3	14.7	0.00e+00	0	58	0	592445440	49	4721
2026-01-01 10:06:43.22	340.35	44.62	-39.7	-41.8	14.2	0.00e+00	0	58	0	596639744	49	5015
2026-01-01 10:06:44.23	340.38	44.32	-40.0	-42.3	13.8	3.80e-06	0	58	0	599785472	50	5012
2026-01-01 10:06:45.24	340.41	44.03	-40.0	-42.2	13.8	8.30e-06	0	58	0	601882624	50	4969
2026-01-01 10:06:46.25	340.44	43.74	-39.8	-41.9	14.1	3.00e-06	0	58	0	605028352	50	4809
2026-01-01 10:06:47.26	340.46	43.44	-39.4	-41.5	14.6	0.00e+00	0	58	0	609222656	50	4562
2026-01-01 10:06:48.27	340.49	43.16	-39.1	-41.1	15.0	0.00e+00	0	58	0	612368384	50	4353
2026-01-01 10:06:49.28	340.52	42.87	-38.7	-40.5	15.5	0.00e+00	0	58	0	615514112	49	4339
2026-01-01 10:06:50.29	340.54	42.58	-38.6	-40.3	15.7	0.00e+00	0	58	0	618659840	49	4227
2026-01-01 10:06:51.30	340.57	42.30	-38.6	-40.4	15.6	0.00e+00	0	58	0	621805568	49	4266
2026-01-01 10:06:52.32	340.60	42.02	-38.9	-40.8	15.2	0.00e+00	0	57	0	624951296	49	4449
2026-01-01 10:06:53.33	340.62	41.74	-39.1	-41.0	14.9	0.00e+00	0	58	0	628097024	49	4565
2026-01-01 10:06:54.34	340.64	41.46	-39.0	-40.8	15.0	7.00e-07	0	58	0	631242752	49	4490
2026-01-01 10:06:55.35	340.67	41.19	-38.9	-40.8	15.2	0.00e+00	0	58	0	634388480	49	4450
2026-01-01 10:06:56.36	340.69	40.92	-39.0	-40.9	15.1	0.00e+00	0	58	0	637534208	49	4500
2026-01-01 10:06:57.37	340.72	40.65	-39.2	-41.1	14.9	0.00e+00	0	58	0	640679936	49	4623
2026-01-01 10:06:58.38	340.74	40.38	-39.0	-40.9	15.2	0.00e+00	0	58	0	643825664	49	4494
2026-01-01 10:06:59.39	340.76	40.11	-38.7	-40.4	15.6	0.00e+00	0	58	0	646971392	49	4275
2026-01-01 10:07:00.39	340.79	39.85	-38.4	-40.1	15.8	0.00e+00	0	58	0	650117120	48	4381
2026-01-01 10:07:01.40	340.81	39.59	-38.4	-40.1	15.9	0.00e+00	0	58	0	653262848	48	4383
2026-01-01 10:07:02.41	340.83	39.33	-38.5	-40.2	15.8	0.00e+00	0	58	0	656408576	48	4403
2026-01-01 10:07:03.42	340.85	39.07	-38.5	-40.3	15.7	7.00e-07	0	58	0	659554304	48	4457
2026-01-01 10:07:04.43	340.87	38.82	-38.4	-40.1	15.9	0.00e+00	0	58	0	662700032	48	4386
2026-01-01 10:07:05.44	340.89	38.56	-38.0	-39.6	16.4	0.00e+00	0	58	0	665845760	48	4136
2026-01-01 10:07:06.45	340.92	38.31	-37.7	-39.3	16.6	0.00e+00	0	58	0	668991488	47	4220
2026-01-01 10:07:07.46	340.94	38.06	-37.6	-39.2	16.7	0.00e+00	0	58	0	672137216	47	4164
2026-01-01 10:07:08.47	340.96	37.81	-37.5	-39.1	16.7	0.00e+00	0	58	0	675282944	47	4114
2026-01-01 10:07:09.48	340.98	37.56	-37.4	-38.9	16.9	0.00e+00	0	58	0	678428672	46	4283
2026-01-01 10:07:10.49	341.00	37.32	-37.2	-38.7	17.1	0.00e+00	0	58	0	681574400	46	4168
2026-01-01 10:07:11.50	341.02	37.07	-37.0	-38.5	17.3	0.00e+00	0	58	0	684720128	46	4058
2026-01-01 10:07:12.51	341.04	36.83	-36.9	-38.3	17.4	0.00e+00	0	58	0	687865856	45	4232
2026-01-01 10:07:13.52	341.05	36.59	-37.0	-38.4	17.4	0.00e+00	0	58	0	691011584	45	4286
2026-01-01 10:07:14.53	341.07	36.36	-37.1	-38.5	17.3	0.00e+00	0	58	0	694157312	45	4336
2026-01-01 10:07:15.54	341.09	36.12	-37.2	-38.7	17.2	0.00e+00	0	58	0	697303040	45	4396
2026-01-01 10:07:16.55	341.11	35.89	-37.3	-38.8	17.0	0.00e+00	0	58	0	700448768	45	4491
2026-01-01 10:07:17.56	341.13	35.65	-37.4	-38.9	16.9	0.00e+00	0	57	0	703594496	45	4518
2026-01-01 10:07:18.57	341.15	35.42	-37.4	-38.9	16.9	0.00e+00	0	58	0	706740224	45	4527
2026-01-01 10:07:19.58	341.17	35.19	-37.4	-39.0	16.9	0.00e+00	0	58	0	709885952	45	4565
2026-01-01 10:07:20.59	341.18	34.96	-37.5	-39.0	16.8	0.00e+00	0	58	0	713031680	45	4596
2026-01-01 10:07:21.60	341.20	34.74	-37.6	-39.2	16.7	0.00e+00	0	58	0	716177408	45	4680
2026-01-01 10:07:22.61	341.22	34.51	-37.6	-39.2	16.7	0.00e+00	0	58	0	719323136	45	4672
2026-01-01 10:07:23.62	341.24	34.29	-37.6	-39.2	16.6	0.00e+00	0	58	0	722468864	45	4705
2026-01-01 10:07:24.63	341.25	34.07	-37.6	-39.2	16.6	0.00e+00	0	58	0	725614592	45	4698
2026-01-01 10:07:25.64	341.27	33.85	-37.6	-39.3	16.6	0.00e+00	0	58	0	728760320	45	4708
2026-01-01 10:07:26.65	341.29	33.63	-37.5	-39.0	16.8	0.00e+00	0	58	0	731906048	45	4587
2026-01-01 10:07:27.66	341.30	33.42	-37.4	-38.9	16.9	0.00e+00	0	58	0	735051776	45	4529
2026-01-01 10:07:28.67	341.32	33.20	-37.1	-38.6	17.2	0.00e+00	0	58	0	738197504	45	4383
2026-01-01 10:07:29.68	341.34	32.99	-36.9	-38.4	17.4	0.00e+00	0	58	0	741343232	45	4265
2026-01-01 10:07:30.69	341.35	32.78	-36.7	-38.2	17.6	0.00e+00	0	58	0	744488960	45	4159
2026-01-01 10:07:31.70	341.37	32.57	-36.8	-38.2	17.6	0.00e+00	0	58	0	747634688	45	4171
2026-01-01 10:07:32.71	341.38	32.36	-36.7	-38.1	17.7	0.00e+00	0	58	0	750780416	45	4121
2026-01-01 10:07:33.72	341.40	32.15	-36.7	-38.1	17.7	0.00e+00	0	58	0	753926144	45	4117
2026-01-01 10:07:34.73	341.41	31.94	-36.6	-38.0	17.8	0.00e+00	0	58	0	757071872	45	4097
2026-01-01 10:07:35.74	341.43	31.74	-36.5	-37.9	17.9	0.00e+00	0	58	0	760217600	45	4033
2026-01-01 10:07:36.75	341.44	31.53	-36.4	-37.8	18.0	0.00e+00	0	58	0	763363328	44	4218
2026-01-01 10:07:37.76	341.46	31.33	-36.4	-37.8	18.0	0.00e+00	0	58	0	766509056	44	4220
2026-01-01 10:07:38.77	341.47	31.13	-36.4	-37.8	18.0	0.00e+00	0	58	0	769654784	44	4222
2026-01-01 10:07:39.78	341.49	30.93	-36.4	-37.8	18.0	0.00e+00	0	58	0	772800512	44	4207
2026-01-01 10:07:40.79	341.50	30.74	-36.5	-37.9	17.8	0.00e+00	0	58	0	775946240	44	4270
2026-01-01 10:07:41.80	341.52	30.54	-36.6	-38.1	17.7	0.00e+00	0	58	0	779091968	44	4341
2026-01-01 10:07:42.81	341.53	30.34	-36.7	-38.1	17.6	0.00e+00	0	58	0	782237696	44	4380
2026-01-01 10:07:43.83	341.55	30.15	-36.7	-38.1	17.6	0.00e+00	0	58	0	785383424	44	4390
2026-01-01 10:07:44.84	341.56	29.96	-36.9	-38.3	17.4	0.00e+00	0	58	0	788529152	44	4489
2026-01-01 10:07:45.85	341.57	29.77	-36.9	-38.4	17.4	0.00e+00	0	58	0	791674880	44	4495
2026-01-01 10:07:46.86	341.59	29.58	-36.9	-38.4	17.4	0.00e+00	0	58	0	794820608	44	4504
2026-01-01 10:07:47.87	341.60	29.39	-36.8	-38.3	17.4	0.00e+00	0	58	0	797966336	44	4479
2026-01-01 10:07:48.88	341.62	29.20	-36.9	-38.4	17.3	0.00e+00	0	58	0	801112064	44	4525
2026-01-01 10:07:49.89	341.63	29.01	-36.9	-38.3	17.4	0.00e+00	0	58	0	804257792	44	4490
2026-01-01 10:07:50.90	341.64	28.83	-36.8	-38.3	17.4	0.00e+00	0	58	0	807403520	44	4471
2026-01-01 10:07:51.91	341.66	28.64	-36.8	-38.3	17.3	0.00e+00	0	58	0	810549248	44	4492
2026-01-01 10:07:52.93	341.67	28.46	-36.9	-38.4	17.3	0.00e+00	0	58	0	813694976	44	4505
2026-01-01 10:07:53.94	341.68	28.28	-36.9	-38.4	17.3	0.00e+00	0	58	0	816840704	44	4508
2026-01-01 10:07:54.95	341.69	28.10	-36.9	-38.4	17.2	0.00e+00	0	58	0	819986432	44	4526
2026-01-01 10:07:55.96	341.71	27.92	-37.0	-38.5	17.1	0.00e+00	0	58	0	823132160	44	4579
2026-01-01 10:07:56.97	341.72	27.74	-36.9	-38.4	17.2	0.00e+00	0	58	0	826277888	44	4516
2026-01-01 10:07:57.98	341.73	27.57	-36.9	-38.4	17.2	0.00e+00	0	58	0	829423616	44	4494
2026-01-01 10:07:58.99	341.75	27.39	-36.7	-38.2	17.4	0.00e+00	0	58	0	832569344	44	4420
2026-01-01 10:08:00.00	341.76	27.22	-36.5	-38.0	17.6	0.00e+00	0	58	0	835715072	44	4304
2026-01-01 10:08:01.01	341.77	27.04	-36.3	-37.7	17.9	0.00e+00	0	58	0	838860800	44	4180
2026-01-01 10:08:02.02	341.78	26.87	-36.2	-37.6	18.0	0.00e+00	0	58	0	842006528	44	4125
2026-01-01 10:08:03.03	341.80	26.70	-36.2	-37.5	18.0	0.00e+00	0	58	0	845152256	44	4093
2026-01-01 10:08:04.04	341.81	26.53	-36.1	-37.4	18.1	0.00e+00	0	58	0	848297984	44	4034
2026-01-01 10:08:05.05	341.82	26.36	-36.0	-37.4	18.1	0.00e+00	0	58	0	851443712	44	4014
2026-01-01 10:08:06.06	341.83	26.19	-36.0	-37.3	18.2	0.00e+00	0	58	0	854589440	44	3990
2026-01-01 10:08:07.07	341.84	26.03	-35.7	-37.0	18.3	0.00e+00	0	58	0	857735168	43	4076
2026-01-01 10:08:08.08	341.85	25.86	-35.7	-37.0	18.3	0.00e+00	0	58	0	860880896	43	4086
2026-01-01 10:08:09.09	341.87	25.70	-35.6	-36.9	18.4	0.00e+00	0	58	0	864026624	43	4041
2026-01-01 10:08:10.10	341.88	25.53	-35.5	-36.8	18.5	0.00e+00	0	58	0	867172352	43	4000
2026-01-01 10:08:11.12	341.89	25.37	-35.6	-36.9	18.4	0.00e+00	0	58	0	870318080	43	4012
2026-01-01 10:08:12.13	341.90	25.21	-35.5	-36.8	18.5	0.00e+00	0	58	0	873463808	43	3972
2026-01-01 10:08:13.14	341.91	25.05	-35.5	-36.8	18.5	0.00e+00	0	58	0	876609536	43	3984
2026-01-01 10:08:14.15	341.92	24.89	-35.6	-36.9	18.4	0.00e+00	0	58	0	879755264	43	4021
2026-01-01 10:08:15.16	341.94	24.73	-35.6	-36.9	18.4	0.00e+00	0	58	0	882900992	43	4033
2026-01-01 10:08:16.17	341.95	24.57	-35.6	-37.0	18.3	0.00e+00	0	58	0	887095296	43	4061
2026-01-01 10:08:17.18	341.96	24.41	-35.7	-37.1	18.2	0.00e+00	0	58	0	890241024	43	4115
2026-01-01 10:08:18.19	341.97	24.26	-35.8	-37.1	18.2	0.00e+00	0	58	0	892338176	43	4138
2026-01-01 10:08:19.20	341.98	24.10	-35.8	-37.1	18.2	0.00e+00	0	58	0	895483904	43	4141
2026-01-01 10:08:20.21	341.99	23.95	-35.8	-37.1	18.2	0.00e+00	0	58	0	899678208	43	4125
2026-01-01 10:08:21.22	342.00	23.79	-35.8	-37.1	18.2	0.00e+00	0	58	0	902823936	43	4119
2026-01-01 10:08:22.23	342.01	23.64	-35.7	-37.0	18.3	0.00e+00	0	58	0	905969664	43	4065
2026-01-01 10:08:23.24	342.02	23.49	-34.2	-36.7	15.7	3.12e-02	0	58	0	909115392	39	4944
2026-01-01 10:08:24.25	342.03	23.34	-34.4	-36.8	16.2	2.58e-02	0	58	0	912261120	40	4725
2026-01-01 10:08:25.27	342.04	23.19	-34.3	-36.7	16.1	2.85e-02	0	58	0	915406848	39	4973
2026-01-01 10:08:26.28	342.05	23.04	-32.7	-36.4	15.6	3.04e-02	0	58	0	918552576	37	5399
2026-01-01 10:08:27.29	342.06	22.89	-32.4	-36.4	15.5	3.09e-02	0	58	0	921698304	36	5688
2026-01-01 10:08:28.30	342.08	22.75	-33.9	-36.6	15.8	2.99e-02	0	58	0	924844032	38	5195
2026-01-01 10:08:29.31	342.09	22.60	-34.6	-36.7	16.2	2.82e-02	0	58	0	927989760	39	4966
2026-01-01 10:08:30.32	342.10	22.45	-34.1	-36.7	16.3	2.63e-02	0	58	0	931135488	39	4938
2026-01-01 10:08:31.33	342.11	22.31	-33.6	-36.5	16.0	2.92e-02	0	58	0	934281216	37	5408
2026-01-01 10:08:32.34	342.12	22.17	-32.1	-36.1	15.6	3.02e-02	0	58	0	937426944	36	5505
2026-01-01 10:08:33.35	342.13	22.02	-32.5	-36.1	15.9	2.94e-02	0	58	0	940572672	36	5523
2026-01-01 10:08:34.36	342.14	21.88	-33.5	-36.2	16.2	2.94e-02	0	58	0	943718400	37	5255
2026-01-01 10:08:35.37	342.15	21.74	-35.2	-36.5	18.2	1.46e-02	0	58	0	946864128	40	4589
2026-01-01 10:08:36.38	342.16	21.60	-35.6	-37.0	17.6	0.00e+00	0	58	0	950009856	41	4572
2026-01-01 10:08:37.39	342.17	21.46	-36.2	-37.8	16.7	0.00e+00	0	58	0	953155584	42	4707
2026-01-01 10:08:38.40	342.18	21.32	-37.0	-38.9	15.4	0.00e+00	0	58	0	956301312	44	4784
2026-01-01 10:08:39.41	342.19	21.18	-37.8	-40.0	13.9	2.20e-06	0	58	0	959447040	46	4868
2026-01-01 10:08:40.42	342.20	21.04	-38.4	-41.2	12.2	7.93e-05	0	58	0	962592768	47	5270
2026-01-01 10:08:41.43	342.20	20.91	-39.0	-42.4	10.7	1.70e-03	0	58	0	965738496	48	5716
2026-01-01 10:08:42.44	342.21	20.77	-39.4	-43.6	9.1	1.72e-02	0	58	0	968884224	49	6193
2026-01-01 10:08:43.45	342.22	20.64	-39.8	-44.9	7.5	6.37e-02	0	58	0	972029952	50	6793
2026-01-01 10:08:44.46	342.23	20.50	-40.0	-46.3	6.1	2.98e-01	0	58	0	975175680	50	7902
2026-01-01 10:08:45.47	342.24	20.37	-40.1	-47.6	5.0	5.46e-01	0	58	0	978321408	50	9222
2026-01-01 10:08:46.49	342.25	20.23	-40.2	-48.9	4.3	1.37e+00	0	58	104	979369984	51	10168
2026-01-01 10:08:47.50	342.26	20.10	-40.3	-50.1	4.0	1.47e+00	0	58	104	979369984	51	11632
2026-01-01 10:08:48.51	342.27	19.97	-40.3	-51.1	3.9	1.48e+00	0	58	104	979369984	51	13098
2026-01-01 10:08:49.52	342.28	19.84	-40.5	-51.0	3.8	1.49e+00	0	58	104	979369984	51	12905
2026-01-01 10:08:50.53	342.29	19.71	-40.3	-52.5	3.8	1.49e+00	0	58	104	979369984	52	14429
2026-01-01 10:08:51.54	342.30	19.58	-40.0	-52.6	3.8	1.49e+00	0	58	104	979369984	51	15573
2026-01-01 10:08:52.55	342.31	19.45	-40.5	-52.2	3.8	1.49e+00	0	58	104	979369984	52	13925
2026-01-01 10:08:53.56	342.32	19.32	-40.5	-52.4	3.8	1.49e+00	0	58	104	979369984	52	14352
2026-01-01 10:08:54.57	342.33	19.19	-40.3	-52.4	3.8	1.49e+00	0	58	104	979369984	52	14313
2026-01-01 10:08:55.58	342.34	19.07	-40.2	-52.6	3.8	1.49e+00	0	58	104	979369984	52	14597
2026-01-01 10:08:56.59	342.34	18.94	-39.9	-52.8	3.8	1.49e+00	0	58	104	979369984	51	15766
2026-01-01 10:08:57.60	342.35	18.82	-39.8	-52.7	3.8	1.49e+00	0	58	104	979369984	51	15636
2026-01-01 10:08:58.61	342.36	18.69	-40.3	-52.7	3.8	1.49e+00	0	58	104	979369984	51	15690
2026-01-01 10:08:59.62	342.37	18.57	-40.4	-53.1	3.8	1.49e+00	0	58	104	979369984	51	16360
2026-01-01 10:09:00.62	342.38	18.44	-40.3	-52.7	3.8	1.49e+00	0	58	104	979369984	51	15683
2026-01-01 10:09:01.63	342.39	18.32	-40.4	-53.0	3.8	1.49e+00	0	58	104	979369984	51	16283
2026-01-01 10:09:02.64	342.40	18.20	-40.3	-52.8	3.8	1.49e+00	0	58	104	979369984	51	15853
2026-01-01 10:09:03.65	342.41	18.08	-40.1	-52.8	3.8	1.49e+00	0	58	104	979369984	51	15763
2026-01-01 10:09:04.66	342.41	17.95	-40.4	-53.1	3.8	1.49e+00	0	58	104	979369984	51	16320
2026-01-01 10:09:05.67	342.42	17.83	-40.3	-52.9	3.8	1.49e+00	0	58	104	979369984	51	16073
2026-01-01 10:09:06.68	342.43	17.71	-40.4	-53.1	3.8	1.49e+00	0	58	104	979369984	51	16444
2026-01-01 10:09:07.69	342.44	17.59	-40.5	-53.0	3.8	1.49e+00	0	58	104	979369984	51	16311
2026-01-01 10:09:08.70	342.45	17.48	-40.4	-53.1	3.8	1.49e+00	0	58	104	979369984	51	16368
2026-01-01 10:09:09.71	342.46	17.36	-40.5	-53.0	3.8	1.49e+00	0	58	104	979369984	51	16187
2026-01-01 10:09:10.72	342.47	17.24	-40.4	-53.1	3.8	1.49e+00	0	58	104	979369984	51	16415
2026-01-01 10:09:11.73	342.47	17.12	-40.2	-52.8	3.8	1.49e+00	0	58	104	979369984	51	15765
2026-01-01 10:09:12.74	342.48	17.01	-40.4	-53.0	3.8	1.49e+00	0	58	104	979369984	51	16303
2026-01-01 10:09:13.75	342.49	16.89	-40.3	-52.8	3.8	1.49e+00	0	58	104	979369984	51	15909
2026-01-01 10:09:14.76	342.50	16.77	-40.5	-53.0	3.8	1.49e+00	0	58	104	979369984	51	16171
2026-01-01 10:09:15.77	342.51	16.66	-40.7	-53.1	3.8	1.49e+00	0	58	104	979369984	52	15448
2026-01-01 10:09:16.79	342.52	16.54	-40.4	-53.0	3.8	1.49e+00	0	58	104	979369984	52	15329
2026-01-01 10:09:17.80	342.52	16.43	-40.7	-53.1	3.8	1.49e+00	0	58	104	979369984	52	15463
2026-01-01 10:09:18.81	342.53	16.32	-40.4	-52.9	3.8	1.49e+00	0	58	104	979369984	52	15215
2026-01-01 10:09:19.82	342.54	16.20	-40.3	-52.7	3.8	1.49e+00	0	58	104	979369984	52	14820
2026-01-01 10:09:20.83	342.55	16.09	-40.5	-52.9	3.8	1.49e+00	0	58	104	979369984	52	15196
2026-01-01 10:09:21.84	342.56	15.98	-40.4	-52.8	3.8	1.49e+00	0	58	104	979369984	52	14895
2026-01-01 10:09:22.85	342.56	15.87	-40.6	-52.9	3.8	1.49e+00	0	58	104	979369984	52	15186
2026-01-01 10:09:23.86	342.57	15.76	-40.4	-53.0	3.8	1.49e+00	0	58	104	979369984	52	15230
2026-01-01 10:09:24.87	342.58	15.65	-40.5	-52.9	3.8	1.49e+00	0	58	104	979369984	52	15209
2026-01-01 10:09:25.88	342.59	15.54	-40.3	-52.9	3.8	1.49e+00	0	58	104	979369984	52	15207
2026-01-01 10:09:26.89	342.60	15.43	-40.6	-53.0	3.8	1.49e+00	0	58	104	979369984	52	15241
2026-01-01 10:09:27.90	342.60	15.32	-40.3	-52.7	3.8	1.49e+00	0	58	104	979369984	52	14777
2026-01-01 10:09:28.91	342.61	15.21	-40.4	-52.9	3.8	1.49e+00	0	58	104	979369984	52	15175
2026-01-01 10:09:29.92	342.62	15.10	-40.3	-52.7	3.8	1.49e+00	0	58	104	979369984	52	14799
2026-01-01 10:09:30.93	342.63	14.99	-40.2	-52.9	3.8	1.49e+00	0	58	104	979369984	52	15123
2026-01-01 10:09:31.94	342.64	14.89	-40.5	-53.0	3.8	1.49e+00	0	58	104	979369984	52	15393
2026-01-01 10:09:32.95	342.64	14.78	-40.7	-53.1	3.8	1.49e+00	0	58	104	979369984	52	15490
2026-01-01 10:09:33.96	342.65	14.68	-40.6	-53.1	3.8	1.49e+00	0	58	104	979369984	52	15426
2026-01-01 10:09:34.97	342.66	14.57	-40.6	-53.1	3.8	1.49e+00	0	58	104	979369984	52	15402
2026-01-01 10:09:35.98	342.67	14.46	-40.4	-52.8	3.8	1.49e+00	0	58	104	979369984	52	14923
2026-01-01 10:09:36.99	342.68	14.36	-40.0	-52.9	3.8	1.49e+00	0	58	104	979369984	52	15096
2026-01-01 10:09:38.00	342.68	14.26	-40.5	-52.9	3.8	1.49e+00	0	58	104	979369984	51	15957
2026-01-01 10:09:39.01	342.69	14.15	-40.1	-53.0	3.8	1.49e+00	0	58	104	979369984	51	16237
2026-01-01 10:09:40.02	342.70	14.05	-40.6	-53.0	3.8	1.49e+00	0	58	104	979369984	51	16171
2026-01-01 10:09:41.03	342.71	13.95	-40.5	-53.1	3.8	1.49e+00	0	58	104	979369984	51	16325
2026-01-01 10:09:42.04	342.71	13.84	-40.6	-52.9	3.8	1.49e+00	0	58	104	979369984	51	16097
2026-01-01 10:09:43.05	342.72	13.74	-40.4	-53.0	3.8	1.49e+00	0	58	104	979369984	51	16262
2026-01-01 10:09:44.06	342.73	13.64	-40.4	-52.8	3.8	1.49e+00	0	58	104	979369984	51	15875
2026-01-01 10:09:45.07	342.74	13.54	-40.3	-52.9	3.8	1.49e+00	0	58	104	979369984	52	15222
2026-01-01 10:09:46.08	342.74	13.44	-40.3	-52.7	3.8	1.49e+00	0	58	104	979369984	52	14821
2026-01-01 10:09:47.10	342.75	13.34	-40.4	-52.9	3.8	1.49e+00	0	58	104	979369984	52	15163
2026-01-01 10:09:48.11	342.76	13.24	-40.4	-52.8	3.8	1.49e+00	0	58	104	979369984	52	15028
2026-01-01 10:09:49.12	342.77	13.14	-40.5	-53.0	3.8	1.49e+00	0	58	104	979369984	52	15330
2026-01-01 10:09:50.13	342.77	13.04	-40.4	-52.9	3.8	1.49e+00	0	58	104	979369984	52	15093
2026-01-01 10:09:51.14	342.78	12.94	-40.6	-53.1	3.8	1.49e+00	0	58	104	979369984	52	15410
2026-01-01 10:09:52.15	342.79	12.84	-40.3	-52.7	3.8	1.49e+00	0	58	104	979369984	52	14790
2026-01-01 10:09:53.16	342.80	12.74	-40.4	-52.8	3.8	1.49e+00	0	58	104	979369984	52	14954
2026-01-01 10:09:54.17	342.80	12.65	-40.3	-52.7	3.8	1.49e+00	0	58	104	979369984	52	14819
2026-01-01 10:09:55.18	342.81	12.55	-40.4	-52.8	3.8	1.49e+00	0	58	104	979369984	52	14929
2026-01-01 10:09:56.19	342.82	12.45	-40.4	-52.9	3.8	1.49e+00	0	58	104	979369984	52	15128
2026-01-01 10:09:57.20	342.82	12.36	-40.6	-53.0	3.8	1.49e+00	0	58	104	979369984	52	15260
2026-01-01 10:09:58.21	342.83	12.26	-40.4	-52.9	3.8	1.49e+00	0	58	104	979369984	52	15091
2026-01-01 10:09:59.22	342.84	12.17	-40.5	-52.9	3.8	1.49e+00	0	58	104	979369984	52	15133
2026-01-01 10:10:00.23	342.85	12.07	-40.4	-52.8	3.8	1.49e+00	0	58	104	979369984	52	14939
2026-01-01 10:10:01.24	342.85	11.98	-40.4	-52.8	3.8	1.49e+00	0	58	104	979369984	52	14979
2026-01-01 10:10:02.26	342.86	11.88	-40.4	-52.8	3.8	1.49e+00	0	58	104	979369984	52	14944
2026-01-01 10:10:03.26	342.87	11.79	-40.4	-52.8	3.8	1.49e+00	0	58	104	979369984	52	15018
2026-01-01 10:10:04.28	342.87	11.69	-40.1	-52.6	3.8	1.49e+00	0	58	104	979369984	52	14576
2026-01-01 10:10:05.29	342.88	11.60	-40.4	-52.8	3.8	1.49e+00	0	58	104	979369984	52	15028
2026-01-01 10:10:06.30	342.89	11.51	-40.1	-52.5	3.8	1.49e+00	0	58	104	979369984	52	14440
2026-01-01 10:10:07.31	342.90	11.41	-40.4	-52.8	3.8	1.49e+00	0	58	104	979369984	52	15017
2026-01-01 10:10:08.32	342.90	11.32	-40.4	-52.8	3.8	1.49e+00	0	58	104	979369984	52	14918
2026-01-01 10:10:09.33	342.91	11.23	-40.2	-52.7	3.8	1.49e+00	0	58	104	979369984	52	14765
2026-01-01 10:10:10.34	342.92	11.14	-40.2	-52.7	3.8	1.49e+00	0	58	104	979369984	52	14736
2026-01-01 10:10:11.35	342.92	11.05	-40.0	-52.5	3.8	1.49e+00	0	58	104	979369984	52	14478
2026-01-01 10:10:12.36	342.93	10.96	-40.1	-52.5	3.8	1.49e+00	0	58	104	979369984	51	15352
2026-01-01 10:10:13.37	342.94	10.87	-40.4	-52.9	3.8	1.49e+00	0	58	104	979369984	51	16002
2026-01-01 10:10:14.38	342.95	10.77	-40.2	-52.5	3.8	1.49e+00	0	58	104	979369984	51	15400
2026-01-01 10:10:15.39	342.95	10.69	-40.5	-52.9	3.8	1.49e+00	0	58	104	979369984	51	16103
2026-01-01 10:10:16.40	342.96	10.60	-40.1	-52.5	3.8	1.49e+00	0	58	104	979369984	51	15331
2026-01-01 10:10:17.41	342.97	10.51	-40.1	-52.5	3.8	1.49e+00	0	58	104	979369984	51	15267
2026-01-01 10:10:18.42	342.97	10.42	-40.1	-52.5	3.8	1.49e+00	0	58	104	979369984	51	15340
2026-01-01 10:10:19.43	342.98	10.33	-40.2	-52.6	3.8	1.49e+00	0	58	104	979369984	51	15421
2026-01-01 10:10:20.44	342.99	10.24	-40.4	-52.7	3.8	1.49e+00	0	58	104	979369984	51	15727
2026-01-01 10:10:21.45	342.99	10.15	-40.1	-52.5	3.8	1.49e+00	0	58	104	979369984	51	15290
2026-01-01 10:10:22.46	343.00	10.06	-40.4	-52.7	3.8	1.49e+00	0	58	104	979369984	51	15714
2026-01-01 10:10:23.47	343.01	9.98	-40.1	-52.5	3.8	1.49e+00	0	58	104	979369984	51	15371
2026-01-01 10:10:24.48	343.01	9.89	-40.4	-52.7	3.8	1.49e+00	0	58	104	979369984	51	15691
2026-01-01 10:10:25.49	343.02	9.80	-40.3	-52.7	3.8	1.49e+00	0	58	104	979369984	51	15628
2026-01-01 10:10:26.50	343.03	9.72	-40.4	-52.8	3.8	1.49e+00	0	58	104	979369984	51	15814
2026-01-01 10:10:27.51	343.03	9.63	-40.4	-52.7	3.8	1.49e+00	0	58	104	979369984	51	15680
2026-01-01 10:10:28.52	343.04	9.55	-40.5	-52.8	3.8	1.49e+00	0	58	104	979369984	51	15909
2026-01-01 10:10:29.53	343.05	9.46	-40.5	-52.8	3.8	1.49e+00	0	58	104	979369984	51	15943
2026-01-01 10:10:30.54	343.05	9.37	-40.5	-52.8	3.8	1.49e+00	0	58	104	979369984	51	15902
2026-01-01 10:10:31.55	343.06	9.29	-40.4	-52.8	3.8	1.49e+00	0	58	104	979369984	51	15900
2026-01-01 10:10:32.57	343.07	9.20	-40.4	-52.8	3.8	1.49e+00	0	58	104	979369984	51	15771
2026-01-01 10:10:33.58	343.07	9.12	-40.5	-52.8	3.8	1.49e+00	0	58	104	979369984	51	15942
2026-01-01 10:10:34.59	343.08	9.04	-40.4	-52.7	3.8	1.49e+00	0	58	104	979369984	51	15724
2026-01-01 10:10:35.60	343.09	8.95	-40.3	-52.7	3.8	1.49e+00	0	58	104	979369984	51	15651
2026-01-01 10:10:36.61	343.09	8.87	-40.4	-52.8	3.8	1.49e+00	0	58	104	979369984	51	15804
2026-01-01 10:10:37.62	343.10	8.79	-40.4	-52.7	3.8	1.49e+00	0	58	104	979369984	51	15694
2026-01-01 10:10:38.63	343.11	8.70	-40.4	-52.8	3.8	1.49e+00	0	58	104	979369984	51	15770
2026-01-01 10:10:39.64	343.11	8.62	-40.4	-52.8	3.8	1.49e+00	0	58	104	979369984	51	15803
2026-01-01 10:10:40.65	343.12	8.54	-40.3	-52.7	3.8	1.49e+00	0	58	104	979369984	51	15688
2026-01-01 10:10:41.66	343.13	8.45	-40.4	-52.8	3.8	1.49e+00	0	58	104	979369984	51	15792
2026-01-01 10:10:42.67	343.13	8.37	-40.3	-52.7	3.8	1.49e+00	0	58	104	979369984	51	15666
2026-01-01 10:10:43.68	343.14	8.29	-40.4	-52.8	3.8	1.49e+00	0	58	104	979369984	51	15805
2026-01-01 10:10:44.70	343.15	8.21	-40.4	-52.7	3.8	1.49e+00	0	58	104	979369984	51	15682
2026-01-01 10:10:45.71	343.15	8.13	-40.5	-52.8	3.8	1.49e+00	0	58	104	979369984	51	15858
2026-01-01 10:10:46.72	343.16	8.05	-40.4	-52.7	3.8	1.49e+00	0	58	104	979369984	51	15676
2026-01-01 10:10:47.73	343.17	7.97	-40.1	-52.5	3.8	1.49e+00	0	58	104	979369984	51	15343
2026-01-01 10:10:48.74	343.17	7.89	-40.1	-52.5	3.8	1.49e+00	0	58	104	979369984	51	15367
2026-01-01 10:10:49.75	343.18	7.81	-42.3	-54.6	3.9	1.49e+00	0	58	104	979369984	54	16366
2026-01-01 10:10:50.76	343.19	7.73	-44.8	-57.2	3.8	1.49e+00	0	58	104	979369984	60	15620
2026-01-01 10:10:51.77	343.19	7.65	-45.0	-57.3	3.8	1.49e+00	0	58	104	979369984	60	15930
2026-01-01 10:10:52.78	343.20	7.57	-45.1	-57.4	3.8	1.49e+00	0	58	104	979369984	60	15973
2026-01-01 10:10:53.79	343.20	7.49	-45.1	-57.5	3.8	1.49e+00	0	58	104	979369984	60	16220
2026-01-01 10:10:54.81	343.21	7.41	-45.2	-57.5	3.8	1.49e+00	0	58	104	979369984	60	16261
2026-01-01 10:10:55.82	343.22	7.33	-45.2	-57.5	3.8	1.49e+00	0	58	104	979369984	60	16280
2026-01-01 10:10:56.83	343.22	7.25	-45.2	-57.5	3.8	1.49e+00	0	58	104	979369984	60	16276
2026-01-01 10:10:57.84	343.23	7.17	-45.2	-57.5	3.8	1.49e+00	0	58	104	979369984	60	16243
2026-01-01 10:10:58.85	343.24	7.10	-45.1	-57.5	3.8	1.49e+00	0	58	104	979369984	60	16205
2026-01-01 10:10:59.86	343.24	7.02	-45.1	-57.5	3.8	1.49e+00	0	58	104	979369984	60	16146
2026-01-01 10:11:00.87	343.25	6.94	-45.1	-57.4	3.8	1.49e+00	0	58	104	979369984	60	16090
2026-01-01 10:11:01.88	343.26	6.86	-45.0	-57.4	3.8	1.49e+00	0	58	104	979369984	60	16043
2026-01-01 10:11:02.89	343.26	6.79	-45.0	-57.4	3.8	1.49e+00	0	58	104	979369984	60	16091
2026-01-01 10:11:03.90	343.27	6.71	-45.0	-57.4	3.8	1.49e+00	0	58	104	979369984	60	16028
2026-01-01 10:11:04.92	343.28	6.63	-45.0	-57.3	3.8	1.49e+00	0	58	104	979369984	60	15934
2026-01-01 10:11:05.93	343.28	6.56	-45.0	-57.4	3.8	1.49e+00	0	58	104	979369984	60	15960
2026-01-01 10:11:06.94	343.29	6.48	-45.0	-57.4	3.8	1.49e+00	0	58	104	979369984	60	15945
2026-01-01 10:11:07.95	343.29	6.41	-45.0	-57.4	3.8	1.49e+00	0	58	104	979369984	60	15978
2026-01-01 10:11:08.96	343.30	6.33	-45.0	-57.3	3.8	1.49e+00	0	58	104	979369984	60	15917
2026-01-01 10:11:09.97	343.31	6.25	-45.0	-57.4	3.8	1.49e+00	0	58	104	979369984	60	15949
2026-01-01 10:11:10.98	343.31	6.18	-45.0	-57.4	3.8	1.49e+00	0	58	104	979369984	60	15970
2026-01-01 10:11:11.99	343.32	6.10	-45.0	-57.4	3.8	1.49e+00	0	58	104	979369984	60	15951
2026-01-01 10:11:13.00	343.33	6.03	-45.0	-57.4	3.8	1.49e+00	0	58	104	979369984	60	15950
2026-01-01 10:11:14.01	343.33	5.96	-45.0	-57.4	3.8	1.49e+00	0	58	104	979369984	60	15966
2026-01-01 10:11:15.03	343.34	5.88	-45.0	-57.3	3.8	1.49e+00	0	58	104	979369984	60	15915
2026-01-01 10:11:16.04	343.34	5.81	-45.0	-57.3	3.8	1.49e+00	0	58	104	979369984	60	15921
2026-01-01 10:11:17.05	343.35	5.73	-45.0	-57.4	3.8	1.49e+00	0	59	104	979369984	60	15948
2026-01-01 10:11:18.06	343.36	5.66	-45.0	-57.3	3.8	1.49e+00	0	58	104	979369984	60	15936
2026-01-01 10:11:19.07	343.36	5.59	-45.0	-57.3	3.8	1.49e+00	0	58	104	979369984	60	15931
2026-01-01 10:11:20.08	343.37	5.51	-44.9	-57.3	3.8	1.49e+00	0	58	104	979369984	60	15931
2026-01-01 10:11:21.09	343.37	5.44	-45.0	-57.3	3.8	1.49e+00	0	58	104	979369984	60	15886
2026-01-01 10:11:22.10	343.38	5.37	-45.0	-57.3	3.8	1.49e+00	0	58	104	979369984	60	15924
2026-01-01 10:11:23.11	343.39	5.29	-45.0	-57.3	3.8	1.49e+00	0	58	104	979369984	60	15933
2026-01-01 10:11:24.12	343.39	5.22	-45.0	-57.3	3.8	1.49e+00	0	58	104	979369984	60	15937
2026-01-01 10:11:25.13	343.40	5.15	-45.0	-57.3	3.8	1.49e+00	0	58	104	979369984	60	15905
2026-01-01 10:11:26.14	343.41	5.08	-45.0	-57.3	3.8	1.49e+00	0	58	104	979369984	60	15890
2026-01-01 10:11:27.16	343.41	5.00	-45.0	-57.3	3.8	1.49e+00	0	58	104	979369984	60	15896
2026-01-01 10:11:28.17	343.42	4.93	-45.0	-57.3	3.8	1.49e+00	0	58	104	979369984	60	15905
2026-01-01 10:11:29.18	343.42	4.86	-45.0	-57.3	3.8	1.49e+00	0	58	104	979369984	60	15916
2026-01-01 10:11:30.19	343.43	4.79	-45.0	-57.3	3.8	1.49e+00	0	58	104	979369984	60	15908
2026-01-01 10:11:31.20	343.44	4.72	-45.0	-57.3	3.8	1.49e+00	0	58	104	979369984	60	15907
2026-01-01 10:11:32.21	343.44	4.65	-45.0	-57.4	3.8	1.49e+00	0	58	104	979369984	60	15954
2026-01-01 10:11:33.22	343.45	4.58	-45.0	-57.3	3.8	1.49e+00	0	58	104	979369984	60	15901
2026-01-01 10:11:34.23	343.45	4.51	-45.0	-57.3	3.8	1.49e+00	0	58	104	979369984	60	15864
2026-01-01 10:11:35.25	343.46	4.44	-45.0	-57.4	3.8	1.49e+00	0	58	104	979369984	60	15944
2026-01-01 10:11:36.26	343.47	4.37	-45.0	-57.3	3.8	1.49e+00	0	58	104	979369984	60	15882
2026-01-01 10:11:37.27	343.47	4.30	-45.0	-57.3	3.8	1.49e+00	0	58	104	979369984	60	15904
2026-01-01 10:11:38.28	343.48	4.23	-44.9	-57.3	3.8	1.49e+00	0	58	104	979369984	60	15879
2026-01-01 10:11:39.29	343.48	4.16	-44.9	-57.3	3.8	1.49e+00	0	59	104	979369984	60	15872
2026-01-01 10:11:40.30	343.49	4.09	-45.0	-57.3	3.8	1.49e+00	0	58	104	979369984	60	15919
2026-01-01 10:11:41.31	343.50	4.02	-44.9	-57.3	3.8	1.49e+00	0	58	104	979369984	60	15870
2026-01-01 10:11:42.32	343.50	3.95	-45.0	-57.3	3.8	1.49e+00	0	58	104	979369984	60	15883
2026-01-01 10:11:43.33	343.51	3.88	-45.0	-57.3	3.8	1.49e+00	0	58	104	979369984	60	15880
2026-01-01 10:11:44.34	343.51	3.81	-44.6	-57.3	3.8	1.49e+00	0	58	104	979369984	60	15834
2026-01-01 10:11:45.35	343.52	3.74	-45.0	-57.3	3.8	1.49e+00	0	58	104	979369984	60	15909
2026-01-01 10:11:46.36	343.53	3.67	-45.0	-57.3	3.8	1.49e+00	0	58	104	979369984	60	15874
2026-01-01 10:11:47.38	343.53	3.61	-45.0	-57.3	3.8	1.49e+00	0	58	104	979369984	60	15881
2026-01-01 10:11:48.39	343.54	3.54	-44.8	-57.3	3.8	1.49e+00	0	58	104	979369984	60	15843
2026-01-01 10:11:49.40	343.54	3.47	-44.8	-57.3	3.8	1.49e+00	0	58	104	979369984	60	15858
2026-01-01 10:11:50.41	343.55	3.40	-44.9	-57.3	3.8	1.49e+00	0	59	104	979369984	60	15898
2026-01-01 10:11:51.42	343.56	3.33	-45.0	-57.3	3.8	1.49e+00	0	58	104	979369984	60	15933
2026-01-01 10:11:52.43	343.56	3.27	-45.0	-57.3	3.8	1.49e+00	0	59	104	979369984	60	15871
2026-01-01 10:11:53.44	343.57	3.20	-45.0	-57.3	3.8	1.49e+00	0	59	104	979369984	60	15902
2026-01-01 10:11:54.45	343.57	3.13	-45.0	-57.3	3.8	1.49e+00	0	59	104	979369984	60	15852
2026-01-01 10:11:55.46	343.58	3.07	-44.8	-57.3	3.8	1.49e+00	0	58	104	979369984	60	15844
2026-01-01 10:11:56.48	343.59	3.00	-45.0	-57.4	3.8	1.49e+00	0	58	104	979369984	60	15950
2026-01-01 10:11:57.49	343.59	2.93	-45.0	-57.3	3.8	1.49e+00	0	58	104	979369984	60	15839
2026-01-01 10:11:58.50	343.60	2.87	-45.0	-57.3	3.8	1.49e+00	0	58	104	979369984	60	15914
2026-01-01 10:11:59.51	343.60	2.80	-45.0	-57.3	3.8	1.49e+00	0	59	104	979369984	60	15889
2026-01-01 10:12:00.52	343.61	2.73	-45.0	-57.3	3.8	1.49e+00	0	58	104	979369984	60	15884
2026-01-01 10:12:01.53	343.61	2.67	-45.0	-57.3	3.8	1.49e+00	0	58	104	979369984	60	15850
2026-01-01 10:12:02.54	343.62	2.60	-45.0	-57.3	3.8	1.49e+00	0	58	104	979369984	60	15888
2026-01-01 10:12:03.55	343.63	2.54	-45.0	-57.3	3.8	1.49e+00	0	58	104	979369984	60	15889
2026-01-01 10:12:04.57	343.63	2.47	-45.0	-57.3	3.8	1.49e+00	0	58	104	979369984	60	15882
2026-01-01 10:12:05.58	343.64	2.41	-45.0	-57.3	3.8	1.49e+00	0	58	104	979369984	60	15862
2026-01-01 10:12:06.59	343.64	2.34	-45.0	-57.3	3.8	1.49e+00	0	58	104	979369984	60	15853
2026-01-01 10:12:07.60	343.65	2.28	-45.0	-57.3	3.8	1.49e+00	0	58	104	979369984	60	15891
2026-01-01 10:12:08.61	343.66	2.21	-45.0	-57.3	3.8	1.49e+00	0	58	104	979369984	60	15891
2026-01-01 10:12:09.62	343.66	2.15	-44.9	-57.3	3.8	1.49e+00	0	59	104	979369984	60	15845
2026-01-01 10:12:10.63	343.67	2.08	-44.9	-57.3	3.8	1.49e+00	0	58	104	979369984	60	15843
2026-01-01 10:12:11.64	343.67	2.02	-45.0	-57.3	3.8	1.49e+00	0	58	104	979369984	60	15821
2026-01-01 10:12:12.65	343.68	1.95	-44.9	-57.3	3.8	1.49e+00	0	58	104	979369984	60	15812
2026-01-01 10:12:13.67	343.69	1.89	-44.9	-57.3	3.8	1.49e+00	0	58	104	979369984	60	15845

#Closed at: 2026-01-01 10:12:14
#Recorded file [979 MB]: D:/lorett/data/31039_260101_130239.dat