passes_logs/2026/01/01/R2.0S_Moscow/R2.0S_Moscow__20260101_031535_AQUA_rec.log

#Pass ID: 20260101_031535_AQUA
#Satellite: AQUA
#Configuration: AQUA
#almurnet v.1.7.20251203
#Start time: 2026-01-01 03:15:35

#Version: 2.2.20231116
#Station: R2.0S_Moscow
#Location: 37.707566 lon 55.798166 lat
#TLE: 1 27424U 02022A   25364.96158943  .00001951  00000+0  40088-3 0  9998
#TLE: 2 27424  98.4061 326.1389 0001917  95.3187 305.7939 14.61780362258696

#Time	Az	El	Level	Level2	SNR	BER	BlckErr	Temp	State	Recorded	gain1	gain2
2026-01-01 03:15:35.45	4.95	2.01	-41.2	-60.3	3.8	7.46e-01	0	48	0	0	52	35438
2026-01-01 03:15:36.46	4.86	2.06	-41.2	-60.3	3.8	7.43e-01	0	49	104	0	52	35450
2026-01-01 03:15:37.47	4.77	2.12	-41.2	-60.3	3.8	7.47e-01	0	48	104	0	52	35426
2026-01-01 03:15:38.48	4.67	2.17	-41.2	-60.3	3.8	7.43e-01	0	49	104	0	52	35416
2026-01-01 03:15:39.49	4.58	2.22	-41.2	-60.3	3.8	7.44e-01	0	49	104	0	52	35447
2026-01-01 03:15:40.50	4.49	2.28	-41.2	-60.3	3.8	7.45e-01	0	49	104	0	52	35383
2026-01-01 03:15:41.51	4.39	2.33	-41.2	-60.3	3.8	7.43e-01	0	49	104	0	52	35466
2026-01-01 03:15:42.52	4.30	2.38	-41.2	-60.3	3.8	7.43e-01	0	49	104	0	52	35425
2026-01-01 03:15:43.53	4.20	2.44	-41.2	-60.3	3.8	7.48e-01	0	49	104	0	52	35417
2026-01-01 03:15:44.54	4.11	2.49	-41.2	-60.3	3.8	7.43e-01	0	49	104	0	52	35390
2026-01-01 03:15:45.55	4.01	2.55	-41.2	-60.3	3.8	7.44e-01	0	49	104	0	52	35454
2026-01-01 03:15:46.56	3.92	2.60	-41.2	-60.3	3.8	7.45e-01	0	49	104	0	52	35389
2026-01-01 03:15:47.57	3.82	2.65	-41.2	-60.3	3.8	7.47e-01	0	49	104	0	52	35430
2026-01-01 03:15:48.59	3.72	2.71	-41.2	-60.3	3.8	7.44e-01	0	49	104	0	52	35385
2026-01-01 03:15:49.60	3.63	2.76	-41.2	-60.3	3.8	7.45e-01	0	49	104	0	52	35442
2026-01-01 03:15:50.61	3.53	2.82	-41.2	-60.3	3.8	7.43e-01	0	49	104	0	52	35394
2026-01-01 03:15:51.62	3.43	2.87	-41.2	-60.3	3.8	7.46e-01	0	49	104	0	52	35384
2026-01-01 03:15:52.63	3.33	2.93	-41.2	-60.3	3.8	7.45e-01	0	50	104	0	52	35363
2026-01-01 03:15:53.64	3.23	2.98	-41.2	-60.3	3.8	7.45e-01	0	50	104	0	52	35394
2026-01-01 03:15:54.65	3.13	3.03	-41.2	-60.3	3.8	7.45e-01	0	50	104	0	52	35414
2026-01-01 03:15:55.66	3.03	3.09	-41.2	-60.3	3.8	7.46e-01	0	50	104	0	52	35468
2026-01-01 03:15:56.67	2.93	3.14	-41.2	-60.3	3.8	7.49e-01	0	50	104	0	52	35447
2026-01-01 03:15:57.68	2.83	3.20	-41.2	-60.3	3.8	7.45e-01	0	50	104	0	52	35397
2026-01-01 03:15:58.69	2.73	3.25	-41.2	-60.3	3.8	7.45e-01	0	50	104	0	52	35474
2026-01-01 03:15:59.71	2.63	3.31	-41.2	-60.3	3.8	7.44e-01	0	50	104	0	52	35433
2026-01-01 03:16:00.72	2.53	3.36	-41.2	-60.3	3.8	7.45e-01	0	50	104	0	52	35403
2026-01-01 03:16:01.73	2.42	3.42	-41.2	-60.3	3.8	7.47e-01	0	50	104	0	52	35462
2026-01-01 03:16:02.74	2.32	3.47	-41.2	-60.3	3.8	7.43e-01	0	50	104	0	52	35451
2026-01-01 03:16:03.75	2.22	3.53	-41.2	-60.3	3.8	7.43e-01	0	50	104	0	52	35345
2026-01-01 03:16:04.76	2.11	3.58	-41.2	-60.3	3.8	7.46e-01	0	50	104	0	52	35370
2026-01-01 03:16:05.77	2.01	3.64	-41.2	-60.3	3.8	7.48e-01	0	51	104	0	52	35478
2026-01-01 03:16:06.78	1.91	3.69	-41.2	-60.3	3.8	7.44e-01	0	50	104	0	52	35378
2026-01-01 03:16:07.79	1.80	3.75	-41.2	-60.3	3.8	7.44e-01	0	50	104	0	52	35402
2026-01-01 03:16:08.80	1.70	3.80	-41.2	-60.3	3.8	7.45e-01	0	50	104	0	52	35400
2026-01-01 03:16:09.81	1.59	3.86	-41.2	-60.3	3.8	7.45e-01	0	51	104	0	52	35408
2026-01-01 03:16:10.83	1.48	3.91	-41.2	-60.3	3.8	7.41e-01	0	51	104	0	52	35390
2026-01-01 03:16:11.84	1.38	3.97	-41.2	-60.3	3.8	7.44e-01	0	51	104	0	52	35414
2026-01-01 03:16:12.85	1.27	4.02	-41.2	-60.3	3.8	7.46e-01	0	51	104	0	52	35451
2026-01-01 03:16:13.86	1.16	4.08	-41.2	-60.3	3.8	7.46e-01	0	51	104	0	52	35428
2026-01-01 03:16:14.87	1.05	4.13	-41.2	-60.3	3.8	7.46e-01	0	51	104	0	52	35374
2026-01-01 03:16:15.88	0.94	4.19	-41.2	-60.3	3.8	7.47e-01	0	51	104	0	52	35340
2026-01-01 03:16:16.89	0.84	4.24	-41.2	-60.3	3.8	7.44e-01	0	51	104	0	52	35450
2026-01-01 03:16:17.90	0.73	4.30	-41.2	-60.3	3.8	7.44e-01	0	51	104	0	52	35423
2026-01-01 03:16:18.91	0.62	4.35	-41.2	-60.3	3.8	7.42e-01	0	51	104	0	52	35477
2026-01-01 03:16:19.92	0.50	4.41	-41.2	-60.3	3.8	7.44e-01	0	51	104	0	52	35494
2026-01-01 03:16:20.94	0.39	4.46	-41.2	-60.3	3.8	7.45e-01	0	52	104	0	52	35389
2026-01-01 03:16:21.95	0.28	4.52	-41.2	-60.3	3.8	7.44e-01	0	51	104	0	52	35384
2026-01-01 03:16:22.96	0.17	4.57	-41.2	-60.3	3.8	7.44e-01	0	51	104	0	52	35382
2026-01-01 03:16:23.97	0.06	4.63	-41.2	-60.3	3.8	7.45e-01	0	52	104	0	52	35374
2026-01-01 03:16:24.98	359.94	4.69	-41.2	-60.3	3.8	7.45e-01	0	52	104	0	52	35442
2026-01-01 03:16:25.99	359.83	4.74	-41.2	-60.3	3.8	7.45e-01	0	52	104	0	52	35450
2026-01-01 03:16:27.00	359.72	4.80	-41.2	-60.3	3.8	7.48e-01	0	52	104	0	52	35409
2026-01-01 03:16:28.01	359.60	4.85	-41.2	-60.3	3.8	7.44e-01	0	52	104	0	52	35334
2026-01-01 03:16:29.02	359.49	4.91	-41.2	-60.3	3.8	7.45e-01	0	52	104	0	52	35453
2026-01-01 03:16:30.03	359.37	4.96	-41.2	-60.3	3.8	7.46e-01	0	52	104	0	52	35320
2026-01-01 03:16:31.05	359.26	5.02	-41.2	-60.3	3.8	7.44e-01	0	52	104	0	52	35390
2026-01-01 03:16:32.06	359.14	5.07	-41.2	-60.3	3.8	7.44e-01	0	52	104	0	52	35451
2026-01-01 03:16:33.07	359.02	5.13	-41.2	-60.3	3.8	7.46e-01	0	52	104	0	52	35448
2026-01-01 03:16:34.08	358.90	5.19	-41.2	-60.3	3.8	7.46e-01	0	52	104	0	52	35449
2026-01-01 03:16:35.09	358.79	5.24	-41.2	-60.3	3.8	7.50e-01	0	52	104	0	52	35454
2026-01-01 03:16:36.10	358.67	5.30	-41.2	-60.3	3.8	7.45e-01	0	52	104	0	52	35372
2026-01-01 03:16:37.11	358.55	5.35	-41.2	-60.3	3.8	7.46e-01	0	52	104	0	52	35415
2026-01-01 03:16:38.12	358.43	5.41	-41.2	-60.3	3.8	7.44e-01	0	52	104	0	52	35410
2026-01-01 03:16:39.13	358.31	5.47	-41.2	-60.3	3.8	7.49e-01	0	52	104	0	52	35459
2026-01-01 03:16:40.14	358.19	5.52	-41.2	-60.3	3.8	7.47e-01	0	52	104	0	52	35427
2026-01-01 03:16:41.16	358.07	5.58	-41.2	-60.3	3.8	7.48e-01	0	52	104	0	52	35419
2026-01-01 03:16:42.17	357.95	5.63	-41.2	-60.3	3.8	7.44e-01	0	52	104	0	52	35420
2026-01-01 03:16:43.18	357.82	5.69	-41.2	-60.3	3.8	7.45e-01	0	52	104	0	52	35481
2026-01-01 03:16:44.19	357.70	5.75	-41.2	-60.3	3.8	7.44e-01	0	52	104	0	52	35382
2026-01-01 03:16:45.20	357.58	5.80	-41.2	-60.3	3.8	7.47e-01	0	53	104	0	52	35361
2026-01-01 03:16:46.21	357.46	5.86	-41.2	-60.3	3.8	7.44e-01	0	53	104	0	52	35434
2026-01-01 03:16:47.22	357.33	5.91	-41.2	-60.3	3.8	7.45e-01	0	53	104	0	52	35431
2026-01-01 03:16:48.24	357.21	5.97	-41.2	-60.3	3.8	7.44e-01	0	53	104	0	52	35383
2026-01-01 03:16:49.25	357.08	6.03	-41.2	-60.3	3.8	7.49e-01	0	53	104	0	52	35405
2026-01-01 03:16:50.26	356.95	6.08	-41.2	-60.3	3.8	7.48e-01	0	53	104	0	52	35450
2026-01-01 03:16:51.27	356.83	6.14	-41.2	-60.3	3.8	7.48e-01	0	53	104	0	52	35403
2026-01-01 03:16:52.28	356.70	6.19	-41.2	-60.3	3.8	7.44e-01	0	53	104	0	52	35458
2026-01-01 03:16:53.29	356.57	6.25	-41.2	-60.3	3.8	7.46e-01	0	53	104	0	52	35404
2026-01-01 03:16:54.30	356.45	6.31	-41.2	-60.3	3.8	7.46e-01	0	53	104	0	52	35371
2026-01-01 03:16:55.31	356.32	6.36	-41.2	-60.3	3.8	7.43e-01	0	53	104	0	52	35442
2026-01-01 03:16:56.32	356.19	6.42	-41.2	-60.3	3.8	7.43e-01	0	53	104	0	52	35375
2026-01-01 03:16:57.33	356.06	6.47	-41.2	-60.3	3.8	7.44e-01	0	53	104	0	52	35445
2026-01-01 03:16:58.34	355.93	6.53	-41.2	-60.3	3.8	7.47e-01	0	53	104	0	52	35397
2026-01-01 03:16:59.35	355.80	6.59	-41.2	-60.3	3.8	7.44e-01	0	53	104	0	52	35441
2026-01-01 03:17:00.36	355.67	6.64	-41.2	-60.3	3.8	7.44e-01	0	53	104	0	52	35419
2026-01-01 03:17:01.37	355.53	6.70	-41.2	-60.3	3.8	7.43e-01	0	53	104	0	52	35399
2026-01-01 03:17:02.39	355.40	6.76	-41.2	-60.3	3.8	7.46e-01	0	53	104	0	52	35458
2026-01-01 03:17:03.40	355.27	6.81	-41.2	-60.3	3.8	7.45e-01	0	53	104	0	52	35448
2026-01-01 03:17:04.41	355.13	6.87	-41.2	-60.3	3.8	7.44e-01	0	53	104	0	52	35406
2026-01-01 03:17:05.42	355.00	6.92	-41.2	-60.3	3.8	7.49e-01	0	53	104	0	52	35483
2026-01-01 03:17:06.43	354.87	6.98	-41.2	-60.3	3.8	7.46e-01	0	53	104	0	52	35439
2026-01-01 03:17:07.44	354.73	7.04	-41.2	-60.3	3.8	7.45e-01	0	54	104	0	53	33432
2026-01-01 03:17:08.45	354.59	7.09	-41.2	-60.3	3.8	7.45e-01	0	53	104	0	53	33449
2026-01-01 03:17:09.46	354.46	7.15	-41.2	-60.3	3.8	7.44e-01	0	53	104	0	53	33457
2026-01-01 03:17:10.47	354.32	7.20	-41.2	-60.3	3.8	7.43e-01	0	54	104	0	53	33382
2026-01-01 03:17:11.48	354.18	7.26	-41.2	-60.3	3.8	7.44e-01	0	54	104	0	53	33346
2026-01-01 03:17:12.49	354.04	7.32	-41.2	-60.3	3.8	7.46e-01	0	54	104	0	53	33439
2026-01-01 03:17:13.50	353.91	7.37	-41.2	-60.3	3.8	7.43e-01	0	54	104	0	53	33401
2026-01-01 03:17:14.51	353.77	7.43	-41.2	-60.3	3.8	7.43e-01	0	54	104	0	53	33449
2026-01-01 03:17:15.52	353.63	7.48	-41.2	-60.3	3.8	7.43e-01	0	54	104	0	53	33416
2026-01-01 03:17:16.54	353.48	7.54	-41.2	-60.3	3.8	7.49e-01	0	54	104	0	53	33396
2026-01-01 03:17:17.55	353.34	7.60	-41.2	-60.3	3.8	7.46e-01	0	54	104	0	53	33462
2026-01-01 03:17:18.56	353.20	7.65	-41.2	-60.3	3.8	7.48e-01	0	54	104	0	53	33426
2026-01-01 03:17:19.57	353.06	7.71	-41.2	-60.3	3.8	7.44e-01	0	54	104	0	53	33313
2026-01-01 03:17:20.58	352.92	7.76	-41.2	-60.3	3.8	7.46e-01	0	54	104	0	53	33471
2026-01-01 03:17:21.59	352.77	7.82	-41.2	-60.3	3.8	7.42e-01	0	54	104	0	53	33381
2026-01-01 03:17:22.60	352.63	7.88	-41.2	-60.3	3.8	7.45e-01	0	54	104	0	53	33447
2026-01-01 03:17:23.61	352.48	7.93	-41.2	-60.3	3.8	7.43e-01	0	54	104	0	53	33432
2026-01-01 03:17:24.62	352.34	7.99	-41.2	-60.3	3.8	7.47e-01	0	54	104	0	53	33454
2026-01-01 03:17:25.63	352.19	8.04	-41.2	-60.2	3.8	7.44e-01	0	54	104	0	53	33179
2026-01-01 03:17:26.64	352.04	8.10	-41.1	-60.1	3.8	7.44e-01	0	54	104	0	53	32723
2026-01-01 03:17:27.65	351.90	8.16	-41.2	-60.2	3.8	7.43e-01	0	54	104	0	53	33148
2026-01-01 03:17:28.67	351.75	8.21	-41.3	-60.2	3.8	7.46e-01	0	54	104	0	53	33276
2026-01-01 03:17:29.68	351.60	8.27	-41.2	-60.2	3.8	7.48e-01	0	54	104	0	53	33088
2026-01-01 03:17:30.69	351.45	8.32	-41.2	-60.2	3.8	7.49e-01	0	54	104	0	53	32978
2026-01-01 03:17:31.70	351.30	8.38	-41.2	-60.2	3.8	7.46e-01	0	54	104	0	53	33013
2026-01-01 03:17:32.71	351.15	8.43	-41.1	-60.0	3.8	7.46e-01	0	54	104	0	53	32531
2026-01-01 03:17:33.72	351.00	8.49	-41.5	-60.4	3.8	7.46e-01	0	54	104	0	53	33983
2026-01-01 03:17:34.73	350.85	8.54	-41.2	-60.2	3.8	7.48e-01	0	54	104	0	53	33031
2026-01-01 03:17:35.74	350.69	8.60	-41.6	-60.5	3.8	7.43e-01	0	54	104	0	53	34335
2026-01-01 03:17:36.75	350.54	8.66	-41.1	-60.1	3.8	7.47e-01	0	55	104	0	53	32590
2026-01-01 03:17:37.76	350.39	8.71	-41.2	-60.2	3.8	7.48e-01	0	54	104	0	53	33093
2026-01-01 03:17:38.77	350.23	8.77	-41.2	-60.2	3.8	7.44e-01	0	54	104	0	53	33008
2026-01-01 03:17:39.78	350.08	8.82	-41.2	-60.2	3.8	7.44e-01	0	54	104	0	53	33077
2026-01-01 03:17:40.79	349.92	8.88	-41.4	-60.5	3.8	7.44e-01	0	55	104	0	53	34392
2026-01-01 03:17:41.80	349.76	8.93	-41.2	-60.1	3.8	7.46e-01	0	54	104	0	53	32700
2026-01-01 03:17:42.81	349.61	8.99	-41.3	-60.2	3.8	7.46e-01	0	55	104	0	53	33220
2026-01-01 03:17:43.82	349.45	9.04	-41.3	-60.2	3.8	7.45e-01	0	54	104	0	53	33302
2026-01-01 03:17:44.83	349.29	9.10	-41.8	-60.8	3.8	7.44e-01	0	55	104	0	54	33389
2026-01-01 03:17:45.84	349.13	9.15	-41.2	-60.2	3.8	7.44e-01	0	55	104	0	54	31126
2026-01-01 03:17:46.85	348.97	9.21	-41.2	-60.1	3.8	7.45e-01	0	54	104	0	54	30909
2026-01-01 03:17:47.86	348.81	9.26	-41.2	-60.2	3.8	7.46e-01	0	55	104	0	54	31239
2026-01-01 03:17:48.87	348.65	9.32	-41.4	-60.3	3.8	7.49e-01	0	55	104	0	54	31674
2026-01-01 03:17:49.88	348.49	9.37	-41.5	-60.5	3.8	7.45e-01	0	55	104	0	54	32367
2026-01-01 03:17:50.89	348.33	9.42	-41.6	-60.5	3.8	7.47e-01	0	55	104	0	54	32485
2026-01-01 03:17:51.90	348.16	9.48	-42.0	-61.0	3.8	7.48e-01	0	55	104	0	54	34338
2026-01-01 03:17:52.91	348.00	9.53	-41.8	-60.7	3.8	7.44e-01	0	55	104	0	54	33283
2026-01-01 03:17:53.92	347.84	9.59	-41.9	-60.8	3.8	7.45e-01	0	55	104	0	54	33544
2026-01-01 03:17:54.93	347.67	9.64	-41.8	-60.7	3.8	7.47e-01	0	55	104	0	54	33248
2026-01-01 03:17:55.94	347.50	9.70	-41.9	-60.8	3.8	7.43e-01	0	55	104	0	54	33512
2026-01-01 03:17:56.96	347.34	9.75	-41.7	-60.9	3.8	7.48e-01	0	55	104	0	54	33808
2026-01-01 03:17:57.97	347.17	9.80	-42.0	-61.0	3.8	7.48e-01	0	55	104	0	54	34346
2026-01-01 03:17:58.98	347.00	9.86	-41.6	-60.7	3.8	7.43e-01	0	55	104	0	54	33289
2026-01-01 03:17:59.99	346.83	9.91	-41.9	-61.0	3.8	7.44e-01	0	55	104	0	54	34120
2026-01-01 03:18:01.00	346.66	9.97	-41.6	-60.5	3.8	7.48e-01	0	55	104	0	54	32526
2026-01-01 03:18:02.01	346.49	10.02	-41.8	-60.8	3.8	7.46e-01	0	55	104	0	54	33491
2026-01-01 03:18:03.02	346.32	10.07	-41.5	-60.5	3.8	7.47e-01	0	55	104	0	54	32498
2026-01-01 03:18:04.03	346.15	10.13	-41.6	-60.6	3.8	7.45e-01	0	55	104	0	54	32715
2026-01-01 03:18:05.04	345.98	10.18	-40.7	-59.9	3.8	7.45e-01	0	55	104	0	53	32163
2026-01-01 03:18:06.05	345.81	10.23	-41.6	-60.8	3.8	7.45e-01	0	55	104	0	53	35421
2026-01-01 03:18:07.06	345.63	10.29	-40.7	-59.9	3.8	7.45e-01	0	55	104	0	53	32005
2026-01-01 03:18:08.07	345.46	10.34	-40.8	-59.9	3.8	7.44e-01	0	55	104	0	53	32043
2026-01-01 03:18:09.08	345.29	10.39	-40.8	-59.9	3.8	7.47e-01	0	55	104	0	53	32166
2026-01-01 03:18:10.09	345.11	10.44	-40.9	-59.8	3.8	7.47e-01	0	55	104	0	53	31782
2026-01-01 03:18:11.10	344.93	10.50	-41.0	-60.0	3.8	7.43e-01	0	55	104	0	53	32382
2026-01-01 03:18:12.11	344.76	10.55	-40.8	-60.0	3.8	7.43e-01	0	55	104	0	53	32366
2026-01-01 03:18:13.12	344.58	10.60	-41.4	-60.5	3.8	7.47e-01	0	55	104	0	53	34125
2026-01-01 03:18:14.13	344.40	10.65	-41.4	-60.4	3.8	7.45e-01	0	55	104	0	53	33962
2026-01-01 03:18:15.14	344.22	10.71	-41.6	-60.6	3.8	7.43e-01	0	55	104	0	53	34778
2026-01-01 03:18:16.15	344.04	10.76	-41.2	-60.1	3.8	7.43e-01	0	55	104	0	53	32871
2026-01-01 03:18:17.16	343.86	10.81	-40.9	-59.8	3.8	7.44e-01	0	55	104	0	53	31618
2026-01-01 03:18:18.17	343.68	10.86	-41.2	-60.1	3.8	7.46e-01	0	55	104	0	53	32778
2026-01-01 03:18:19.19	343.50	10.91	-40.8	-59.8	3.8	7.39e-01	0	55	104	0	53	31528
2026-01-01 03:18:20.20	343.32	10.96	-40.8	-59.8	3.8	7.42e-01	0	55	104	0	53	31468
2026-01-01 03:18:21.21	343.13	11.02	-40.8	-59.8	3.8	7.45e-01	0	55	104	0	53	31606
2026-01-01 03:18:22.22	342.95	11.07	-40.8	-59.8	3.8	7.47e-01	0	56	104	0	53	31642
2026-01-01 03:18:23.23	342.76	11.12	-40.9	-59.9	3.8	7.47e-01	0	56	104	0	53	31841
2026-01-01 03:18:24.24	342.58	11.17	-41.3	-60.3	3.8	7.47e-01	0	55	104	0	53	33576
2026-01-01 03:18:25.25	342.39	11.22	-40.6	-59.7	3.8	7.47e-01	0	55	104	0	53	31379
2026-01-01 03:18:26.26	342.21	11.27	-40.9	-59.9	3.8	7.44e-01	0	55	104	0	53	31863
2026-01-01 03:18:27.27	342.02	11.32	-40.8	-59.8	3.8	7.46e-01	0	56	104	0	53	31667
2026-01-01 03:18:28.28	341.83	11.37	-40.7	-59.7	3.8	7.42e-01	0	56	104	0	53	31283
2026-01-01 03:18:29.29	341.64	11.42	-40.5	-59.7	3.8	7.45e-01	0	56	104	0	53	31177
2026-01-01 03:18:30.30	341.45	11.47	-40.4	-59.6	3.8	7.46e-01	0	55	104	0	52	32772
2026-01-01 03:18:31.31	341.26	11.52	-40.8	-59.8	3.8	7.47e-01	0	56	104	0	52	33636
2026-01-01 03:18:32.32	341.07	11.57	-40.9	-59.6	3.8	7.43e-01	0	56	104	0	52	32859
2026-01-01 03:18:33.33	340.88	11.62	-40.9	-59.8	3.8	7.50e-01	0	56	104	0	52	33313
2026-01-01 03:18:34.34	340.69	11.67	-40.5	-59.5	3.8	7.45e-01	0	56	104	0	52	32194
2026-01-01 03:18:35.35	340.49	11.72	-40.9	-59.3	3.8	7.47e-01	0	56	104	0	52	31561
2026-01-01 03:18:36.36	340.30	11.76	-40.9	-59.2	3.8	7.43e-01	0	56	104	0	52	31193
2026-01-01 03:18:37.37	340.11	11.81	-41.3	-54.6	5.3	7.08e-01	0	56	0	0	54	16480
2026-01-01 03:18:38.38	339.91	11.86	-40.8	-58.0	3.9	7.43e-01	0	56	104	0	53	25831
2026-01-01 03:18:39.39	339.72	11.91	-42.0	-49.9	10.6	6.18e-01	0	56	0	1048576	54	9577
2026-01-01 03:18:40.40	339.52	11.96	-41.8	-48.1	12.9	6.05e-01	0	56	0	2621440	54	7801
2026-01-01 03:18:41.42	339.32	12.00	-41.5	-46.4	15.0	6.01e-01	0	56	0	4718592	54	6388
2026-01-01 03:18:42.43	339.12	12.05	-40.8	-44.7	17.0	6.03e-01	0	56	0	6291456	53	5534
2026-01-01 03:18:43.44	338.92	12.10	-40.0	-43.0	19.0	6.00e-01	0	56	0	8388608	51	5156
2026-01-01 03:18:44.45	338.72	12.15	-39.1	-41.5	20.7	6.02e-01	0	56	0	10485760	50	4597
2026-01-01 03:18:45.46	338.52	12.19	-38.3	-40.5	21.9	5.99e-01	0	56	0	12058624	48	4565
2026-01-01 03:18:46.47	338.32	12.24	-37.6	-39.6	22.5	6.04e-01	0	56	0	14155776	47	4369
2026-01-01 03:18:47.48	338.12	12.29	-37.7	-39.7	22.6	5.99e-01	0	56	0	15728640	47	4395
2026-01-01 03:18:48.49	337.92	12.33	-38.0	-40.1	22.3	6.03e-01	0	56	0	17825792	47	4604
2026-01-01 03:18:49.50	337.72	12.38	-38.3	-40.4	22.1	6.00e-01	0	56	0	19922944	47	4767
2026-01-01 03:18:50.51	337.51	12.42	-38.2	-40.3	22.2	6.01e-01	0	56	0	21495808	47	4738
2026-01-01 03:18:51.52	337.31	12.47	-38.0	-40.0	22.5	5.99e-01	0	56	0	23592960	47	4573
2026-01-01 03:18:52.53	337.10	12.51	-38.1	-40.2	22.5	6.00e-01	0	56	0	25165824	47	4652
2026-01-01 03:18:53.54	336.90	12.56	-38.2	-40.3	22.4	6.02e-01	0	56	0	27262976	47	4727
2026-01-01 03:18:54.55	336.69	12.60	-38.3	-40.4	22.3	5.99e-01	0	56	0	29360128	47	4764
2026-01-01 03:18:55.56	336.49	12.65	-38.2	-40.3	22.4	6.00e-01	0	56	0	30932992	47	4732
2026-01-01 03:18:56.57	336.28	12.69	-38.1	-40.2	22.5	6.04e-01	0	56	0	33030144	47	4652
2026-01-01 03:18:57.58	336.07	12.74	-38.1	-40.1	22.6	6.02e-01	0	56	0	35127296	47	4645
2026-01-01 03:18:58.59	335.86	12.78	-38.2	-40.2	22.5	6.05e-01	0	56	0	36700160	47	4695
2026-01-01 03:18:59.59	335.65	12.82	-38.2	-40.2	22.5	6.01e-01	0	56	0	38797312	47	4686
2026-01-01 03:19:00.60	335.44	12.87	-38.2	-40.2	22.6	6.02e-01	0	56	0	40370176	47	4662
2026-01-01 03:19:01.61	335.23	12.91	-38.2	-40.2	22.6	6.01e-01	0	56	0	42467328	47	4665
2026-01-01 03:19:02.62	335.02	12.95	-38.2	-40.2	22.5	5.99e-01	0	56	0	44564480	47	4688
2026-01-01 03:19:03.63	334.81	12.99	-38.1	-40.1	22.6	6.03e-01	0	56	0	46137344	47	4640
2026-01-01 03:19:04.64	334.60	13.03	-38.1	-40.1	22.7	6.03e-01	0	56	0	48234496	47	4612
2026-01-01 03:19:05.65	334.38	13.08	-38.2	-40.2	22.6	6.01e-01	0	56	0	49807360	47	4686
2026-01-01 03:19:06.66	334.17	13.12	-38.2	-40.2	22.5	6.05e-01	0	56	0	51904512	47	4688
2026-01-01 03:19:07.67	333.95	13.16	-38.2	-40.2	22.6	6.00e-01	0	56	0	54001664	47	4675
2026-01-01 03:19:08.68	333.74	13.20	-38.2	-40.2	22.6	6.00e-01	0	56	0	55574528	47	4653
2026-01-01 03:19:09.69	333.52	13.24	-38.1	-40.1	22.7	6.03e-01	0	56	0	57671680	47	4609
2026-01-01 03:19:10.71	333.30	13.28	-38.1	-40.1	22.7	6.00e-01	0	56	0	59768832	47	4601
2026-01-01 03:19:11.72	333.08	13.32	-38.1	-40.1	22.7	6.02e-01	0	56	0	61341696	47	4619
2026-01-01 03:19:12.73	332.87	13.36	-38.1	-40.1	22.7	6.00e-01	0	56	0	63438848	47	4619
2026-01-01 03:19:13.74	332.65	13.40	-38.1	-40.1	22.7	6.01e-01	0	56	0	65011712	47	4643
2026-01-01 03:19:14.74	332.43	13.44	-38.2	-40.2	22.6	6.01e-01	0	56	0	67108864	47	4653
2026-01-01 03:19:15.75	332.21	13.48	-38.3	-40.3	22.6	6.02e-01	0	56	0	69206016	47	4712
2026-01-01 03:19:16.76	331.99	13.51	-38.2	-40.2	22.6	6.01e-01	0	56	0	70778880	47	4675
2026-01-01 03:19:17.78	331.77	13.55	-38.1	-40.0	22.8	6.02e-01	0	56	0	72876032	47	4585
2026-01-01 03:19:18.79	331.54	13.59	-38.1	-40.1	22.7	6.02e-01	0	56	0	74448896	47	4624
2026-01-01 03:19:19.80	331.32	13.63	-38.2	-40.2	22.7	6.02e-01	0	56	0	76546048	47	4654
2026-01-01 03:19:20.81	331.10	13.66	-38.1	-40.1	22.7	6.01e-01	0	56	0	78643200	47	4618
2026-01-01 03:19:21.82	330.87	13.70	-38.2	-40.1	22.7	6.02e-01	0	56	0	80216064	47	4634
2026-01-01 03:19:22.83	330.65	13.74	-38.2	-40.2	22.7	6.00e-01	0	56	0	82313216	47	4667
2026-01-01 03:19:23.84	330.43	13.77	-38.3	-40.3	22.6	5.99e-01	0	56	0	83886080	47	4711
2026-01-01 03:19:24.85	330.20	13.81	-38.2	-40.1	22.7	6.02e-01	0	56	0	85983232	47	4641
2026-01-01 03:19:25.85	329.98	13.84	-38.1	-40.1	22.7	6.04e-01	0	56	0	88080384	47	4620
2026-01-01 03:19:26.86	329.75	13.88	-38.2	-40.1	22.8	6.03e-01	0	56	0	89653248	47	4636
2026-01-01 03:19:27.87	329.52	13.91	-38.2	-40.2	22.7	6.02e-01	0	56	0	91750400	47	4687
2026-01-01 03:19:28.88	329.29	13.95	-38.4	-40.4	22.5	5.99e-01	0	56	0	93323264	47	4776
2026-01-01 03:19:29.89	329.07	13.98	-38.2	-40.1	22.7	6.01e-01	0	56	0	95420416	47	4644
2026-01-01 03:19:30.91	328.83	14.01	-38.2	-40.2	22.7	6.00e-01	0	57	0	97517568	47	4686
2026-01-01 03:19:31.91	328.61	14.05	-38.3	-40.3	22.6	6.00e-01	0	56	0	99090432	47	4750
2026-01-01 03:19:32.92	328.38	14.08	-38.1	-40.0	22.9	6.02e-01	0	56	0	101187584	47	4583
2026-01-01 03:19:33.94	328.14	14.11	-38.2	-40.2	22.6	5.98e-01	0	56	0	103284736	47	4688
2026-01-01 03:19:34.95	327.91	14.14	-38.3	-40.3	22.5	6.00e-01	0	56	0	104857600	47	4755
2026-01-01 03:19:35.96	327.68	14.17	-38.2	-40.2	22.7	6.00e-01	0	56	0	106954752	47	4687
2026-01-01 03:19:36.96	327.45	14.20	-38.4	-40.4	22.5	6.04e-01	0	56	0	108527616	47	4785
2026-01-01 03:19:37.97	327.22	14.23	-38.4	-40.4	22.5	6.03e-01	0	57	0	110624768	47	4798
2026-01-01 03:19:38.98	326.99	14.26	-38.3	-40.2	22.7	6.01e-01	0	56	0	112721920	47	4699
2026-01-01 03:19:39.99	326.75	14.29	-38.2	-40.1	22.8	6.00e-01	0	56	0	114294784	47	4648
2026-01-01 03:19:41.00	326.52	14.32	-38.2	-40.1	22.8	6.01e-01	0	57	0	116391936	47	4645
2026-01-01 03:19:42.01	326.28	14.35	-38.1	-40.1	22.8	6.01e-01	0	56	0	117964800	47	4629
2026-01-01 03:19:43.02	326.05	14.38	-38.1	-40.1	22.8	6.02e-01	0	57	0	120061952	47	4625
2026-01-01 03:19:44.03	325.81	14.41	-38.3	-40.3	22.7	6.01e-01	0	56	0	122159104	47	4711
2026-01-01 03:19:45.04	325.58	14.44	-38.2	-40.2	22.7	6.03e-01	0	57	0	123731968	47	4678
2026-01-01 03:19:46.05	325.34	14.46	-38.2	-40.1	22.7	6.02e-01	0	56	0	125829120	47	4649
2026-01-01 03:19:47.06	325.10	14.49	-38.2	-40.1	22.8	6.00e-01	0	56	0	127926272	47	4649
2026-01-01 03:19:48.07	324.86	14.52	-38.3	-40.3	22.6	6.00e-01	0	56	0	129499136	47	4724
2026-01-01 03:19:49.08	324.63	14.54	-38.3	-40.3	22.6	6.01e-01	0	56	0	131596288	47	4750
2026-01-01 03:19:50.09	324.39	14.57	-38.3	-40.3	22.6	6.03e-01	0	57	0	133169152	47	4746
2026-01-01 03:19:51.10	324.15	14.59	-38.2	-40.2	22.8	6.04e-01	0	56	0	135266304	47	4659
2026-01-01 03:19:52.11	323.91	14.62	-38.1	-40.0	22.9	6.02e-01	0	56	0	137363456	47	4561
2026-01-01 03:19:53.12	323.67	14.64	-38.1	-40.1	22.9	6.02e-01	0	56	0	138936320	47	4609
2026-01-01 03:19:54.13	323.43	14.66	-38.2	-40.1	22.8	6.01e-01	0	56	0	141033472	47	4648
2026-01-01 03:19:55.14	323.19	14.69	-38.2	-40.2	22.8	6.03e-01	0	56	0	142606336	47	4661
2026-01-01 03:19:56.15	322.95	14.71	-38.4	-40.4	22.6	6.02e-01	0	56	0	144703488	47	4772
2026-01-01 03:19:57.16	322.71	14.73	-38.3	-40.3	22.6	6.01e-01	0	57	0	146800640	47	4746
2026-01-01 03:19:58.17	322.46	14.75	-38.2	-40.1	22.8	6.00e-01	0	56	0	148373504	47	4633
2026-01-01 03:19:59.18	322.22	14.78	-38.0	-40.0	23.0	6.00e-01	0	56	0	150470656	47	4548
2026-01-01 03:20:00.19	321.98	14.80	-38.0	-40.0	23.0	6.02e-01	0	56	0	152043520	47	4548
2026-01-01 03:20:01.20	321.74	14.82	-38.2	-40.2	22.8	6.03e-01	0	56	0	154140672	47	4656
2026-01-01 03:20:02.21	321.49	14.84	-38.3	-40.3	22.7	6.00e-01	0	56	0	156237824	47	4729
2026-01-01 03:20:03.21	321.25	14.86	-38.4	-40.4	22.5	5.99e-01	0	56	0	157810688	47	4801
2026-01-01 03:20:04.22	321.01	14.88	-38.3	-40.3	22.6	6.00e-01	0	57	0	159907840	47	4754
2026-01-01 03:20:05.23	320.76	14.89	-38.4	-40.4	22.5	6.01e-01	0	57	0	161480704	47	4805
2026-01-01 03:20:06.24	320.52	14.91	-38.0	-40.0	22.9	6.02e-01	0	57	0	163577856	47	4557
2026-01-01 03:20:07.25	320.27	14.93	-38.3	-40.3	22.6	6.01e-01	0	57	0	165675008	47	4751
2026-01-01 03:20:08.26	320.03	14.95	-38.3	-40.3	22.7	6.04e-01	0	57	0	167247872	47	4730
2026-01-01 03:20:09.27	319.78	14.96	-38.5	-40.6	22.4	5.99e-01	0	56	0	169345024	47	4871
2026-01-01 03:20:10.28	319.54	14.98	-38.3	-40.2	22.7	6.02e-01	0	57	0	171442176	47	4692
2026-01-01 03:20:11.29	319.29	15.00	-38.3	-40.2	22.8	6.03e-01	0	57	0	173015040	47	4699
2026-01-01 03:20:12.30	319.04	15.01	-38.2	-40.2	22.7	6.01e-01	0	57	0	175112192	47	4686
2026-01-01 03:20:13.31	318.80	15.03	-38.3	-40.2	22.8	6.01e-01	0	57	0	176685056	47	4687
2026-01-01 03:20:14.32	318.55	15.04	-38.5	-40.6	22.3	6.01e-01	0	57	0	178782208	47	4893
2026-01-01 03:20:15.33	318.30	15.05	-38.1	-40.0	22.9	6.03e-01	0	57	0	180879360	47	4579
2026-01-01 03:20:16.34	318.05	15.07	-38.5	-40.6	22.3	6.03e-01	0	56	0	182452224	47	4883
2026-01-01 03:20:17.35	317.81	15.08	-37.9	-39.8	23.1	5.99e-01	0	57	0	184549376	47	4446
2026-01-01 03:20:18.36	317.56	15.09	-38.4	-40.4	22.5	6.03e-01	0	57	0	186122240	47	4810
2026-01-01 03:20:19.37	317.31	15.10	-38.0	-39.9	23.0	6.01e-01	0	57	0	188219392	47	4543
2026-01-01 03:20:20.38	317.06	15.11	-38.5	-40.5	22.5	5.99e-01	0	57	0	190316544	47	4856
2026-01-01 03:20:21.39	316.81	15.12	-38.1	-40.0	22.9	5.99e-01	0	57	0	191889408	47	4589
2026-01-01 03:20:22.40	316.56	15.13	-38.5	-40.5	22.5	6.00e-01	0	57	0	193986560	47	4833
2026-01-01 03:20:23.41	316.31	15.14	-38.3	-40.3	22.6	6.00e-01	0	57	0	196083712	47	4755
2026-01-01 03:20:24.42	316.07	15.15	-38.4	-40.5	22.5	6.04e-01	0	57	0	197656576	47	4825
2026-01-01 03:20:25.43	315.82	15.16	-38.9	-41.0	22.3	6.00e-01	0	57	0	199753728	48	4847
2026-01-01 03:20:26.44	315.57	15.17	-38.7	-40.7	22.8	6.01e-01	0	57	0	201326592	48	4653
2026-01-01 03:20:27.45	315.32	15.18	-38.9	-41.0	22.4	6.03e-01	0	57	0	203423744	48	4818
2026-01-01 03:20:28.46	315.07	15.18	-38.3	-40.2	23.2	6.01e-01	0	57	0	205520896	48	4392
2026-01-01 03:20:29.47	314.82	15.19	-38.8	-40.8	22.6	6.01e-01	0	57	0	207093760	48	4730
2026-01-01 03:20:30.48	314.57	15.20	-38.2	-40.0	23.3	6.01e-01	0	57	0	209190912	48	4318
2026-01-01 03:20:31.49	314.32	15.20	-38.9	-41.0	22.4	6.04e-01	0	57	0	211288064	48	4833
2026-01-01 03:20:32.50	314.07	15.21	-38.5	-40.4	22.9	6.01e-01	0	57	0	212860928	48	4508
2026-01-01 03:20:33.51	313.82	15.21	-38.8	-40.8	22.6	6.01e-01	0	57	0	214958080	48	4756
2026-01-01 03:20:34.52	313.57	15.22	-38.6	-40.5	22.8	6.02e-01	0	57	0	216530944	48	4576
2026-01-01 03:20:35.53	313.32	15.22	-38.7	-40.7	22.7	5.99e-01	0	57	0	218628096	48	4663
2026-01-01 03:20:36.55	313.06	15.22	-38.6	-40.6	22.7	6.01e-01	0	57	0	220725248	48	4603
2026-01-01 03:20:37.56	312.81	15.22	-38.6	-40.5	22.8	5.99e-01	0	57	0	222298112	48	4595
2026-01-01 03:20:38.56	312.56	15.23	-38.7	-40.6	22.7	6.02e-01	0	57	0	224395264	48	4649
2026-01-01 03:20:39.57	312.31	15.23	-38.5	-40.5	22.9	6.00e-01	0	57	0	225968128	48	4546
2026-01-01 03:20:40.58	312.06	15.23	-38.9	-40.9	22.5	6.03e-01	0	57	0	228065280	48	4781
2026-01-01 03:20:41.59	311.81	15.23	-38.4	-40.3	23.1	5.99e-01	0	57	0	230162432	48	4472
2026-01-01 03:20:42.60	311.56	15.23	-38.9	-41.0	22.4	6.01e-01	0	57	0	231735296	48	4845
2026-01-01 03:20:43.61	311.31	15.23	-38.2	-40.0	23.2	6.00e-01	0	57	0	233832448	48	4338
2026-01-01 03:20:44.62	311.06	15.23	-38.8	-40.9	22.5	6.03e-01	0	57	0	235405312	48	4760
2026-01-01 03:20:45.63	310.81	15.22	-38.3	-40.1	23.1	6.00e-01	0	57	0	237502464	48	4388
2026-01-01 03:20:46.64	310.56	15.22	-38.8	-40.8	22.6	6.01e-01	0	57	0	239599616	48	4756
2026-01-01 03:20:47.65	310.31	15.22	-38.5	-40.4	22.9	6.01e-01	0	57	0	241172480	48	4520
2026-01-01 03:20:48.66	310.06	15.22	-38.9	-40.9	22.5	6.01e-01	0	57	0	243269632	48	4780
2026-01-01 03:20:49.67	309.81	15.21	-38.6	-40.6	22.7	6.01e-01	0	57	0	244842496	48	4624
2026-01-01 03:20:50.68	309.56	15.21	-38.6	-40.6	22.7	6.01e-01	0	57	0	246939648	48	4631
2026-01-01 03:20:51.69	309.31	15.20	-38.4	-40.3	23.0	6.02e-01	0	57	0	249036800	48	4463
2026-01-01 03:20:52.70	309.05	15.20	-38.6	-40.6	22.7	6.02e-01	0	57	0	250609664	48	4621
2026-01-01 03:20:53.71	308.80	15.19	-38.4	-40.3	23.0	6.01e-01	0	57	0	252706816	48	4487
2026-01-01 03:20:54.72	308.55	15.18	-38.8	-40.8	22.4	6.02e-01	0	57	0	254279680	48	4739
2026-01-01 03:20:55.73	308.30	15.18	-38.4	-40.3	23.0	6.02e-01	0	57	0	256376832	48	4489
2026-01-01 03:20:56.74	308.05	15.17	-38.5	-40.5	22.8	6.01e-01	0	57	0	258473984	48	4569
2026-01-01 03:20:57.75	307.81	15.16	-38.7	-40.7	22.7	6.01e-01	0	57	0	260046848	48	4676
2026-01-01 03:20:58.76	307.56	15.15	-38.4	-40.2	23.1	6.03e-01	0	57	0	262144000	48	4436
2026-01-01 03:20:59.77	307.31	15.14	-38.9	-40.9	22.4	6.02e-01	0	57	0	264241152	48	4799
2026-01-01 03:21:00.78	307.06	15.13	-38.6	-40.5	22.9	6.00e-01	0	57	0	265814016	48	4574
2026-01-01 03:21:01.79	306.81	15.12	-38.9	-40.9	22.4	6.03e-01	0	57	0	267911168	48	4792
2026-01-01 03:21:02.80	306.56	15.11	-38.8	-40.8	22.5	6.02e-01	0	57	0	269484032	48	4712
2026-01-01 03:21:03.81	306.31	15.10	-38.5	-40.5	22.9	6.03e-01	0	57	0	271581184	48	4566
2026-01-01 03:21:04.82	306.06	15.09	-38.8	-40.8	22.5	6.02e-01	0	57	0	273678336	48	4728
2026-01-01 03:21:05.83	305.81	15.08	-38.7	-40.7	22.6	6.01e-01	0	57	0	275251200	48	4701
2026-01-01 03:21:06.84	305.57	15.07	-38.5	-40.4	22.8	6.01e-01	0	57	0	277348352	48	4541
2026-01-01 03:21:07.85	305.32	15.05	-39.0	-41.1	22.2	5.98e-01	0	57	0	279445504	48	4917
2026-01-01 03:21:08.86	305.07	15.04	-38.5	-40.4	22.8	6.02e-01	0	57	0	281018368	48	4533
2026-01-01 03:21:09.87	304.82	15.03	-38.8	-40.8	22.5	6.02e-01	0	57	0	283115520	48	4724
2026-01-01 03:21:10.88	304.58	15.01	-38.8	-40.8	22.5	6.02e-01	0	57	0	284688384	48	4712
2026-01-01 03:21:11.89	304.33	15.00	-38.9	-41.0	22.4	6.02e-01	0	57	0	286785536	48	4846
2026-01-01 03:21:12.90	304.08	14.98	-38.5	-40.4	22.8	5.99e-01	0	57	0	288882688	48	4534
2026-01-01 03:21:13.92	303.83	14.96	-38.9	-41.0	22.3	6.03e-01	0	57	0	290455552	48	4851
2026-01-01 03:21:14.93	303.59	14.95	-38.4	-40.4	22.9	6.02e-01	0	57	0	292552704	48	4495
2026-01-01 03:21:15.93	303.34	14.93	-38.9	-41.0	22.3	5.99e-01	0	57	0	294125568	48	4823
2026-01-01 03:21:16.94	303.10	14.91	-39.0	-41.1	22.0	6.05e-01	0	57	0	296222720	49	4619
2026-01-01 03:21:17.95	302.85	14.89	-38.1	-40.0	23.3	6.01e-01	0	57	0	298319872	48	4306
2026-01-01 03:21:18.96	302.61	14.88	-39.0	-41.1	22.2	6.01e-01	0	57	0	299892736	48	4895
2026-01-01 03:21:19.97	302.36	14.86	-39.0	-41.1	22.1	6.02e-01	0	57	0	301989888	49	4621
2026-01-01 03:21:20.98	302.12	14.84	-38.5	-40.4	22.9	6.01e-01	0	57	0	303562752	48	4515
2026-01-01 03:21:21.99	301.88	14.82	-39.3	-41.5	21.8	6.02e-01	0	57	0	305659904	49	4863
2026-01-01 03:21:23.01	301.63	14.80	-38.9	-41.0	22.1	6.03e-01	0	57	0	307757056	49	4585
2026-01-01 03:21:24.02	301.39	14.78	-38.4	-40.2	23.0	6.02e-01	0	57	0	309329920	48	4435
2026-01-01 03:21:25.03	301.14	14.75	-38.5	-40.4	22.8	6.02e-01	0	57	0	311427072	48	4520
2026-01-01 03:21:26.04	300.90	14.73	-39.2	-41.4	21.9	5.99e-01	0	57	0	312999936	48	5080
2026-01-01 03:21:27.05	300.66	14.71	-38.1	-40.0	23.2	6.00e-01	0	57	0	315097088	48	4303
2026-01-01 03:21:28.06	300.42	14.69	-38.6	-40.6	22.6	6.01e-01	0	57	0	317194240	48	4626
2026-01-01 03:21:29.07	300.18	14.66	-39.3	-41.6	21.6	5.99e-01	0	57	0	318767104	49	4885
2026-01-01 03:21:30.08	299.94	14.64	-38.0	-39.8	23.3	6.02e-01	0	57	0	320864256	48	4222
2026-01-01 03:21:31.09	299.70	14.62	-38.7	-40.7	22.5	6.04e-01	0	57	0	322437120	48	4670
2026-01-01 03:21:32.10	299.46	14.59	-38.8	-40.9	22.4	6.01e-01	0	57	0	324534272	48	4763
2026-01-01 03:21:33.11	299.22	14.57	-38.6	-40.6	22.6	6.02e-01	0	57	0	326631424	48	4647
2026-01-01 03:21:34.12	298.98	14.54	-38.4	-40.3	22.9	6.00e-01	0	57	0	328204288	48	4476
2026-01-01 03:21:35.13	298.74	14.52	-38.5	-40.5	22.7	6.02e-01	0	57	0	330301440	48	4568
2026-01-01 03:21:36.14	298.50	14.49	-39.0	-41.1	22.1	6.03e-01	0	57	0	332398592	48	4890
2026-01-01 03:21:37.15	298.26	14.46	-38.1	-40.0	23.1	6.00e-01	0	57	0	333971456	48	4314
2026-01-01 03:21:38.16	298.03	14.44	-38.6	-40.5	22.7	6.01e-01	0	57	0	336068608	48	4588
2026-01-01 03:21:39.17	297.79	14.41	-39.4	-41.7	21.6	6.02e-01	0	57	0	337641472	49	4931
2026-01-01 03:21:40.18	297.55	14.38	-38.2	-40.0	23.1	6.02e-01	0	57	0	339738624	48	4318
2026-01-01 03:21:41.19	297.32	14.35	-38.5	-40.5	22.7	6.03e-01	0	57	0	341835776	48	4575
2026-01-01 03:21:42.20	297.08	14.32	-39.2	-41.4	21.8	6.00e-01	0	57	0	343408640	48	5055
2026-01-01 03:21:43.21	296.85	14.29	-38.8	-40.8	22.3	6.02e-01	0	57	0	345505792	48	4753
2026-01-01 03:21:44.22	296.61	14.26	-39.0	-41.1	22.1	6.02e-01	0	57	0	347602944	48	4885
2026-01-01 03:21:45.23	296.38	14.23	-39.0	-41.1	22.0	5.99e-01	0	57	0	349175808	49	4629
2026-01-01 03:21:46.24	296.14	14.20	-39.0	-41.1	22.1	6.01e-01	0	57	0	351272960	49	4639
2026-01-01 03:21:47.25	295.91	14.17	-38.8	-40.8	22.3	6.01e-01	0	57	0	352845824	49	4490
2026-01-01 03:21:48.26	295.68	14.14	-38.3	-40.3	22.9	5.98e-01	0	57	0	354942976	48	4449
2026-01-01 03:21:49.27	295.45	14.11	-38.8	-40.9	22.3	6.04e-01	0	57	0	357040128	48	4793
2026-01-01 03:21:50.28	295.22	14.08	-38.8	-40.9	22.2	6.00e-01	0	57	0	358612992	48	4793
2026-01-01 03:21:51.29	294.99	14.04	-38.4	-40.4	22.7	6.01e-01	0	57	0	360710144	48	4516
2026-01-01 03:21:52.30	294.76	14.01	-38.7	-40.8	22.4	6.01e-01	0	57	0	362283008	48	4737
2026-01-01 03:21:53.31	294.53	13.98	-38.6	-40.6	22.5	6.02e-01	0	57	0	364380160	48	4626
2026-01-01 03:21:54.32	294.30	13.94	-38.4	-40.4	22.6	6.02e-01	0	57	0	366477312	48	4527
2026-01-01 03:21:55.33	294.07	13.91	-38.8	-40.9	22.3	5.99e-01	0	57	0	368050176	48	4766
2026-01-01 03:21:56.34	293.84	13.88	-38.1	-40.0	22.9	6.00e-01	0	57	0	370147328	48	4338
2026-01-01 03:21:57.35	293.61	13.84	-38.1	-40.0	22.9	6.02e-01	0	57	0	372244480	48	4331
2026-01-01 03:21:58.36	293.39	13.81	-38.6	-40.6	22.4	6.01e-01	0	57	0	373817344	48	4647
2026-01-01 03:21:59.37	293.16	13.77	-38.3	-40.3	22.6	6.03e-01	0	57	0	375914496	48	4480
2026-01-01 03:22:00.38	292.93	13.73	-37.6	-39.5	23.1	6.04e-01	0	57	0	377487360	47	4315
2026-01-01 03:22:01.39	292.71	13.70	-37.9	-39.9	22.6	6.01e-01	0	57	0	379584512	47	4532
2026-01-01 03:22:02.40	292.48	13.66	-38.3	-40.4	22.2	5.99e-01	0	57	0	381681664	47	4767
2026-01-01 03:22:03.41	292.26	13.62	-38.0	-40.0	22.5	6.04e-01	0	57	0	383254528	47	4577
2026-01-01 03:22:04.42	292.04	13.59	-38.1	-40.2	22.2	6.03e-01	0	57	0	385351680	47	4674
2026-01-01 03:22:05.43	291.81	13.55	-38.1	-40.2	22.2	6.01e-01	0	57	0	386924544	47	4676
2026-01-01 03:22:06.44	291.59	13.51	-38.0	-40.0	22.5	6.01e-01	0	57	0	389021696	47	4555
2026-01-01 03:22:07.45	291.37	13.47	-38.0	-40.0	22.5	6.02e-01	0	57	0	391118848	47	4598
2026-01-01 03:22:08.46	291.15	13.43	-38.0	-40.0	22.5	6.03e-01	0	57	0	392691712	47	4578
2026-01-01 03:22:09.47	290.93	13.40	-38.0	-40.0	22.5	6.01e-01	0	57	0	394788864	47	4576
2026-01-01 03:22:10.48	290.71	13.36	-37.8	-39.8	22.7	6.02e-01	0	57	0	396361728	47	4457
2026-01-01 03:22:11.49	290.49	13.32	-37.9	-39.8	22.7	6.02e-01	0	57	0	398458880	47	4487
2026-01-01 03:22:12.50	290.27	13.28	-38.0	-40.1	22.4	6.02e-01	0	57	0	400556032	47	4606
2026-01-01 03:22:13.51	290.06	13.24	-38.1	-40.1	22.3	6.03e-01	0	57	0	402128896	47	4650
2026-01-01 03:22:14.52	289.84	13.20	-37.9	-39.9	22.5	6.02e-01	0	57	0	404226048	47	4533
2026-01-01 03:22:15.53	289.62	13.15	-37.6	-39.5	22.8	6.02e-01	0	57	0	405798912	47	4319
2026-01-01 03:22:16.54	289.41	13.11	-37.7	-39.7	22.7	6.01e-01	0	57	0	407896064	47	4396
2026-01-01 03:22:17.55	289.19	13.07	-38.1	-40.2	22.2	6.02e-01	0	57	0	409993216	47	4665
2026-01-01 03:22:18.56	288.98	13.03	-38.1	-40.3	22.1	6.02e-01	0	57	0	411566080	47	4712
2026-01-01 03:22:19.57	288.76	12.99	-38.0	-40.1	22.2	6.01e-01	0	57	0	413663232	47	4624
2026-01-01 03:22:20.58	288.55	12.95	-38.1	-40.2	22.1	6.01e-01	0	57	0	415760384	47	4653
2026-01-01 03:22:21.59	288.34	12.90	-38.5	-40.8	21.5	6.02e-01	0	57	0	417333248	47	5022
2026-01-01 03:22:22.60	288.13	12.86	-39.1	-41.5	21.1	5.99e-01	0	57	0	419430400	48	5158
2026-01-01 03:22:23.61	287.91	12.82	-39.0	-41.3	21.2	6.00e-01	0	57	0	421003264	48	5027
2026-01-01 03:22:24.62	287.70	12.77	-38.8	-41.1	21.4	6.02e-01	0	57	0	423100416	48	4896
2026-01-01 03:22:25.63	287.49	12.73	-39.0	-41.4	21.1	6.02e-01	0	57	0	425197568	48	5046
2026-01-01 03:22:26.64	287.28	12.69	-39.2	-41.7	20.6	6.02e-01	0	57	0	426770432	48	5270
2026-01-01 03:22:27.65	287.08	12.64	-39.3	-41.8	20.5	6.01e-01	0	57	0	428867584	49	5018
2026-01-01 03:22:28.66	286.87	12.60	-39.1	-41.6	20.5	6.03e-01	0	57	0	430440448	49	4924
2026-01-01 03:22:29.67	286.66	12.55	-39.3	-41.9	20.3	6.00e-01	0	57	0	432537600	49	5084
2026-01-01 03:22:30.68	286.45	12.51	-39.4	-42.2	20.0	6.00e-01	0	57	0	434634752	49	5242
2026-01-01 03:22:31.69	286.25	12.46	-39.5	-42.4	19.7	6.03e-01	0	57	0	436207616	49	5352
2026-01-01 03:22:32.70	286.04	12.42	-39.5	-42.3	19.8	6.01e-01	0	57	0	438304768	49	5321
2026-01-01 03:22:33.71	285.84	12.37	-39.4	-42.2	19.9	6.03e-01	0	57	0	440401920	49	5258
2026-01-01 03:22:34.72	285.64	12.32	-39.5	-42.3	19.8	6.02e-01	0	57	0	441974784	49	5328
2026-01-01 03:22:35.73	285.43	12.28	-39.6	-42.4	19.6	6.00e-01	0	57	0	444071936	49	5377
2026-01-01 03:22:36.74	285.23	12.23	-39.6	-42.5	19.5	6.00e-01	0	57	0	445644800	49	5428
2026-01-01 03:22:37.75	285.03	12.19	-39.6	-42.5	19.4	6.01e-01	0	57	0	447741952	49	5428
2026-01-01 03:22:38.76	284.83	12.14	-39.6	-42.6	19.3	6.01e-01	0	57	0	449839104	49	5465
2026-01-01 03:22:39.77	284.63	12.09	-39.6	-42.5	19.4	6.02e-01	0	57	0	451411968	49	5450
2026-01-01 03:22:40.78	284.43	12.04	-39.6	-42.6	19.4	6.00e-01	0	57	0	453509120	49	5471
2026-01-01 03:22:41.79	284.23	12.00	-39.5	-42.3	19.8	6.01e-01	0	57	0	455081984	49	5289
2026-01-01 03:22:42.79	284.03	11.95	-39.4	-42.0	20.3	6.02e-01	0	57	0	457179136	49	5112
2026-01-01 03:22:43.80	283.84	11.90	-39.3	-41.9	20.6	6.01e-01	0	57	0	459276288	49	5057
2026-01-01 03:22:44.81	283.64	11.85	-39.3	-41.8	20.8	6.01e-01	0	57	0	460849152	49	5004
2026-01-01 03:22:45.82	283.44	11.80	-39.1	-41.5	20.3	6.01e-01	0	57	0	462946304	49	4824
2026-01-01 03:22:46.83	283.25	11.76	-39.0	-41.3	21.4	6.00e-01	0	57	0	464519168	49	4725
2026-01-01 03:22:47.84	283.05	11.71	-38.9	-41.1	21.7	6.02e-01	0	57	0	466616320	49	4619
2026-01-01 03:22:48.85	282.86	11.66	-38.8	-41.0	21.8	6.01e-01	0	57	0	468713472	49	4560
2026-01-01 03:22:49.86	282.67	11.61	-38.9	-41.1	21.7	6.00e-01	0	57	0	470286336	49	4638
2026-01-01 03:22:50.87	282.47	11.56	-39.0	-41.2	21.7	6.04e-01	0	57	0	472383488	49	4686
2026-01-01 03:22:51.88	282.28	11.51	-38.8	-41.0	21.9	5.99e-01	0	57	0	473956352	49	4556
2026-01-01 03:22:52.89	282.09	11.46	-38.6	-40.8	22.1	6.02e-01	0	57	0	476053504	49	4446
2026-01-01 03:22:53.90	281.90	11.41	-38.6	-40.7	22.2	6.00e-01	0	57	0	478150656	49	4418
2026-01-01 03:22:54.91	281.71	11.36	-38.7	-40.8	22.1	6.02e-01	0	57	0	479723520	49	4462
2026-01-01 03:22:55.92	281.52	11.31	-38.7	-40.8	22.0	6.02e-01	0	57	0	481820672	49	4492
2026-01-01 03:22:56.93	281.33	11.26	-38.6	-40.7	22.1	6.01e-01	0	57	0	483917824	49	4440
2026-01-01 03:22:57.94	281.14	11.21	-38.7	-40.8	22.1	6.04e-01	0	57	0	485490688	49	4458
2026-01-01 03:22:58.95	280.96	11.16	-38.7	-40.8	22.1	6.02e-01	0	57	0	487587840	49	4480
2026-01-01 03:22:59.96	280.77	11.11	-38.8	-40.9	22.0	6.01e-01	0	57	0	489160704	49	4520
2026-01-01 03:23:00.97	280.59	11.06	-38.9	-41.1	21.9	6.04e-01	0	57	0	491257856	49	4606
2026-01-01 03:23:01.98	280.40	11.00	-38.7	-40.9	21.9	6.00e-01	0	57	0	493355008	49	4527
2026-01-01 03:23:02.99	280.22	10.95	-38.7	-40.9	21.9	6.00e-01	0	58	0	494927872	49	4499
2026-01-01 03:23:04.00	280.03	10.90	-38.5	-40.6	22.1	6.01e-01	0	57	0	497025024	49	4371
2026-01-01 03:23:05.00	279.85	10.85	-38.5	-40.6	22.1	6.03e-01	0	57	0	498597888	48	4648
2026-01-01 03:23:06.01	279.67	10.80	-38.6	-40.8	21.9	6.01e-01	0	57	0	500695040	48	4723
2026-01-01 03:23:07.02	279.49	10.75	-38.7	-40.9	21.7	6.03e-01	0	57	0	502792192	48	4784
2026-01-01 03:23:08.04	279.31	10.69	-38.7	-41.0	21.6	5.99e-01	0	57	0	504365056	48	4840
2026-01-01 03:23:09.05	279.13	10.64	-38.8	-41.2	21.3	6.03e-01	0	57	0	506462208	48	4943
2026-01-01 03:23:10.06	278.95	10.59	-38.9	-41.3	21.2	6.00e-01	0	57	0	508559360	48	4992
2026-01-01 03:23:11.07	278.77	10.54	-38.9	-41.4	21.0	6.02e-01	0	57	0	510132224	48	5047
2026-01-01 03:23:12.08	278.59	10.48	-39.1	-41.6	20.8	6.00e-01	0	57	0	512229376	48	5188
2026-01-01 03:23:13.09	278.41	10.43	-39.2	-41.7	20.6	5.98e-01	0	57	0	513802240	48	5278
2026-01-01 03:23:14.10	278.24	10.38	-39.3	-41.9	20.3	6.00e-01	0	57	0	515899392	49	5081
2026-01-01 03:23:15.11	278.06	10.33	-39.2	-41.9	20.2	6.03e-01	0	57	0	517996544	49	5093
2026-01-01 03:23:16.12	277.89	10.27	-39.3	-42.1	19.9	6.00e-01	0	57	0	519569408	49	5216
2026-01-01 03:23:17.13	277.71	10.22	-39.4	-42.3	19.6	6.02e-01	0	57	0	521666560	49	5322
2026-01-01 03:23:18.14	277.54	10.17	-39.4	-42.5	19.4	6.03e-01	0	58	0	523239424	49	5422
2026-01-01 03:23:19.15	277.37	10.11	-39.5	-42.7	19.1	6.01e-01	0	57	0	525336576	49	5580
2026-01-01 03:23:20.16	277.19	10.06	-39.6	-42.9	18.8	6.02e-01	0	57	0	527433728	49	5682
2026-01-01 03:23:21.17	277.02	10.01	-39.8	-43.3	18.4	6.01e-01	0	57	0	529006592	50	5614
2026-01-01 03:23:22.18	276.85	9.95	-39.9	-43.7	17.9	6.01e-01	0	57	0	531103744	50	5885
2026-01-01 03:23:23.19	276.68	9.90	-40.0	-43.9	17.5	6.02e-01	0	58	0	533200896	50	6018
2026-01-01 03:23:24.20	276.51	9.84	-40.1	-44.1	17.2	6.01e-01	0	57	0	534773760	50	6161
2026-01-01 03:23:25.21	276.34	9.79	-40.2	-44.5	16.7	6.02e-01	0	57	0	536870912	50	6451
2026-01-01 03:23:26.22	276.17	9.74	-40.3	-44.8	16.3	6.02e-01	0	57	0	538443776	51	6285
2026-01-01 03:23:27.23	276.01	9.68	-40.3	-45.0	16.0	6.00e-01	0	57	0	540540928	51	6464
2026-01-01 03:23:28.24	275.84	9.63	-40.5	-45.4	15.4	6.00e-01	0	57	0	542638080	51	6767
2026-01-01 03:23:29.25	275.67	9.57	-40.6	-45.9	14.9	5.99e-01	0	57	0	544210944	51	7158
2026-01-01 03:23:30.26	275.51	9.52	-40.7	-46.4	14.3	6.02e-01	0	58	0	546308096	51	7546
2026-01-01 03:23:31.27	275.34	9.46	-40.8	-46.8	13.6	6.04e-01	0	57	0	547880960	52	7525
2026-01-01 03:23:32.28	275.18	9.41	-40.9	-47.4	12.9	6.06e-01	0	58	0	549978112	52	8031
2026-01-01 03:23:33.29	275.02	9.35	-41.0	-47.9	12.4	6.05e-01	0	57	0	552075264	52	8496
2026-01-01 03:23:34.30	274.85	9.30	-41.1	-48.6	11.5	6.10e-01	0	58	0	553648128	52	9193
2026-01-01 03:23:35.31	274.69	9.24	-41.1	-49.0	11.0	6.14e-01	0	58	0	555745280	52	9635
2026-01-01 03:23:36.32	274.53	9.19	-41.1	-49.3	10.5	6.14e-01	0	58	0	557318144	52	10019
2026-01-01 03:23:37.33	274.37	9.13	-41.1	-49.8	9.8	6.20e-01	0	58	0	559415296	52	10589
2026-01-01 03:23:38.34	274.21	9.08	-41.1	-50.3	9.3	6.28e-01	0	58	0	561512448	52	11255
2026-01-01 03:23:39.35	274.05	9.02	-41.1	-50.8	8.6	6.35e-01	7	58	0	563085312	52	11906
2026-01-01 03:23:40.36	273.89	8.97	-41.1	-51.3	8.1	6.42e-01	75	58	0	565182464	52	12530
2026-01-01 03:23:41.37	273.73	8.91	-41.1	-51.7	7.6	6.52e-01	90	58	0	566755328	52	13237
2026-01-01 03:23:42.38	273.57	8.86	-41.1	-52.2	7.0	6.62e-01	92	58	0	568852480	52	13966
2026-01-01 03:23:43.39	273.42	8.80	-41.0	-52.8	6.5	6.75e-01	92	58	0	570949632	52	14891
2026-01-01 03:23:44.40	273.26	8.75	-41.0	-53.1	6.2	6.82e-01	92	58	0	572522496	52	15454
2026-01-01 03:23:45.41	273.11	8.69	-41.0	-53.4	5.9	6.85e-01	90	58	0	574095360	52	15946
2026-01-01 03:23:46.42	272.95	8.64	-41.0	-53.4	5.9	6.84e-01	90	58	0	575668224	52	16092
2026-01-01 03:23:47.43	272.80	8.58	-41.0	-53.3	6.0	6.84e-01	91	58	0	576716800	52	15808
2026-01-01 03:23:48.44	272.64	8.53	-41.1	-53.2	6.1	6.78e-01	92	58	0	578813952	52	15628
2026-01-01 03:23:49.45	272.49	8.47	-41.1	-53.1	6.2	6.76e-01	91	57	0	580386816	52	15523
2026-01-01 03:23:50.46	272.34	8.41	-41.2	-53.2	6.2	6.78e-01	90	58	0	581959680	52	15657
2026-01-01 03:23:51.47	272.19	8.36	-41.2	-53.4	6.0	6.87e-01	47	57	0	584056832	52	15977
2026-01-01 03:23:52.49	272.03	8.30	-41.1	-53.5	5.9	6.84e-01	90	58	0	585629696	52	16163
2026-01-01 03:23:53.49	271.88	8.25	-41.2	-53.2	6.2	6.80e-01	92	58	0	587202560	52	15711
2026-01-01 03:23:54.50	271.73	8.19	-41.2	-53.2	6.2	6.78e-01	47	58	0	588775424	53	14738
2026-01-01 03:23:55.51	271.59	8.14	-41.2	-53.2	6.2	6.79e-01	92	57	0	590872576	53	14761
2026-01-01 03:23:56.52	271.44	8.08	-41.3	-53.3	6.2	6.79e-01	42	58	0	592445440	53	14885
2026-01-01 03:23:57.54	271.29	8.02	-42.1	-52.6	7.3	6.55e-01	92	58	0	594018304	54	13046
2026-01-01 03:23:58.55	271.14	7.97	-45.4	-64.1	3.8	7.48e-01	0	58	104	594542592	61	32641
2026-01-01 03:23:59.56	270.99	7.91	-45.6	-64.3	3.8	7.43e-01	0	58	104	594542592	61	33658
2026-01-01 03:24:00.57	270.85	7.85	-45.7	-64.5	3.9	7.47e-01	0	58	104	594542592	62	32355
2026-01-01 03:24:01.58	270.70	7.80	-45.2	-64.4	3.8	7.46e-01	0	58	104	594542592	62	31845
2026-01-01 03:24:02.59	270.56	7.74	-45.6	-64.4	3.8	7.44e-01	0	58	104	594542592	61	34042
2026-01-01 03:24:03.60	270.41	7.69	-46.0	-64.7	3.8	7.46e-01	0	58	104	594542592	62	33221
2026-01-01 03:24:04.61	270.27	7.63	-46.0	-64.8	3.8	7.43e-01	0	58	104	594542592	62	33433
2026-01-01 03:24:05.62	270.13	7.57	-46.0	-64.8	3.8	7.41e-01	0	58	104	594542592	62	33465
2026-01-01 03:24:06.63	269.98	7.52	-46.0	-64.8	3.8	7.46e-01	0	58	104	594542592	62	33459
2026-01-01 03:24:07.64	269.84	7.46	-46.0	-64.8	3.8	7.46e-01	0	58	104	594542592	62	33511
2026-01-01 03:24:08.65	269.70	7.41	-46.0	-64.8	3.8	7.44e-01	0	58	104	594542592	62	33414
2026-01-01 03:24:09.66	269.56	7.35	-45.9	-64.7	3.8	7.48e-01	0	58	104	594542592	62	33179
2026-01-01 03:24:10.67	269.42	7.29	-45.9	-64.7	3.8	7.47e-01	0	58	104	594542592	62	33068
2026-01-01 03:24:11.68	269.28	7.24	-45.9	-64.7	3.8	7.45e-01	0	58	104	594542592	62	32988
2026-01-01 03:24:12.70	269.14	7.18	-45.9	-64.7	3.8	7.46e-01	0	58	104	594542592	62	33028
2026-01-01 03:24:13.71	269.00	7.12	-45.9	-64.7	3.8	7.45e-01	0	58	104	594542592	62	33052
2026-01-01 03:24:14.72	268.87	7.07	-45.9	-64.7	3.8	7.45e-01	0	58	104	594542592	62	32932
2026-01-01 03:24:15.73	268.73	7.01	-45.9	-64.7	3.8	7.45e-01	0	58	104	594542592	62	32968
2026-01-01 03:24:16.74	268.59	6.96	-45.9	-64.7	3.8	7.48e-01	0	58	104	594542592	62	32933
2026-01-01 03:24:17.75	268.46	6.90	-45.9	-64.6	3.8	7.48e-01	0	58	104	594542592	62	32903
2026-01-01 03:24:18.76	268.32	6.84	-45.9	-64.7	3.8	7.45e-01	0	58	104	594542592	62	32961
2026-01-01 03:24:19.77	268.19	6.79	-45.9	-64.7	3.8	7.47e-01	0	58	104	594542592	62	32969
2026-01-01 03:24:20.78	268.05	6.73	-45.9	-64.7	3.8	7.46e-01	0	58	104	594542592	62	32977
2026-01-01 03:24:21.80	267.92	6.67	-45.9	-64.6	3.8	7.48e-01	0	58	104	594542592	62	32912
2026-01-01 03:24:22.81	267.78	6.62	-45.9	-64.6	3.8	7.47e-01	0	58	104	594542592	62	32921
2026-01-01 03:24:23.82	267.65	6.56	-45.9	-64.7	3.8	7.45e-01	0	58	104	594542592	62	32983
2026-01-01 03:24:24.83	267.52	6.50	-45.9	-64.6	3.8	7.42e-01	0	58	104	594542592	62	32831
2026-01-01 03:24:25.84	267.39	6.45	-45.9	-64.6	3.8	7.48e-01	0	58	104	594542592	62	32801
2026-01-01 03:24:26.85	267.26	6.39	-45.9	-64.7	3.8	7.45e-01	0	58	104	594542592	62	32930
2026-01-01 03:24:27.86	267.13	6.34	-45.9	-64.7	3.8	7.42e-01	0	58	104	594542592	62	32950
2026-01-01 03:24:28.87	267.00	6.28	-45.8	-64.6	3.8	7.47e-01	0	58	104	594542592	62	32862
2026-01-01 03:24:29.88	266.87	6.22	-45.9	-64.6	3.8	7.46e-01	0	58	104	594542592	62	32881
2026-01-01 03:24:30.89	266.74	6.17	-45.8	-64.6	3.8	7.45e-01	0	58	104	594542592	62	32867
2026-01-01 03:24:31.90	266.61	6.11	-45.9	-64.6	3.8	7.41e-01	0	58	104	594542592	62	32896
2026-01-01 03:24:32.91	266.49	6.05	-45.9	-64.6	3.8	7.46e-01	0	58	104	594542592	62	32828
2026-01-01 03:24:33.92	266.36	6.00	-45.9	-64.6	3.8	7.47e-01	0	58	104	594542592	62	32806
2026-01-01 03:24:34.94	266.23	5.94	-45.8	-64.6	3.8	7.42e-01	0	58	104	594542592	62	32890
2026-01-01 03:24:35.95	266.11	5.88	-45.9	-64.6	3.8	7.46e-01	0	58	104	594542592	62	32876
2026-01-01 03:24:36.96	265.98	5.83	-45.9	-64.6	3.8	7.45e-01	0	58	104	594542592	62	32899
2026-01-01 03:24:37.97	265.86	5.77	-45.9	-64.6	3.8	7.44e-01	0	58	104	594542592	62	32877
2026-01-01 03:24:38.98	265.73	5.72	-45.8	-64.6	3.8	7.46e-01	0	58	104	594542592	62	32819
2026-01-01 03:24:39.99	265.61	5.66	-45.9	-64.6	3.8	7.43e-01	0	58	104	594542592	62	32895
2026-01-01 03:24:41.00	265.48	5.60	-45.8	-64.6	3.8	7.47e-01	0	58	104	594542592	62	32826
2026-01-01 03:24:42.01	265.36	5.55	-45.8	-64.6	3.8	7.46e-01	0	58	104	594542592	62	32878
2026-01-01 03:24:43.02	265.24	5.49	-45.9	-64.6	3.8	7.47e-01	0	58	104	594542592	62	32901
2026-01-01 03:24:44.03	265.12	5.44	-45.8	-64.6	3.8	7.45e-01	0	58	104	594542592	62	32795
2026-01-01 03:24:45.04	265.00	5.38	-45.9	-64.6	3.8	7.41e-01	0	58	104	594542592	62	32839
2026-01-01 03:24:46.05	264.88	5.32	-45.9	-64.6	3.8	7.44e-01	0	58	104	594542592	62	32834
2026-01-01 03:24:47.07	264.76	5.27	-45.8	-64.6	3.8	7.46e-01	0	58	104	594542592	62	32890
2026-01-01 03:24:48.08	264.64	5.21	-45.9	-64.6	3.8	7.47e-01	0	58	104	594542592	62	32854
2026-01-01 03:24:49.09	264.52	5.16	-45.9	-64.6	3.8	7.43e-01	0	58	104	594542592	62	32827
2026-01-01 03:24:50.10	264.40	5.10	-45.9	-64.6	3.8	7.41e-01	0	58	104	594542592	62	32831
2026-01-01 03:24:51.11	264.28	5.04	-45.9	-64.6	3.8	7.46e-01	0	58	104	594542592	62	32828
2026-01-01 03:24:52.12	264.16	4.99	-45.8	-64.6	3.8	7.45e-01	0	58	104	594542592	62	32815
2026-01-01 03:24:53.13	264.05	4.93	-45.8	-64.6	3.8	7.45e-01	0	58	104	594542592	62	32826
2026-01-01 03:24:54.14	263.93	4.88	-45.8	-64.6	3.8	7.45e-01	0	58	104	594542592	62	32852
2026-01-01 03:24:55.15	263.81	4.82	-45.8	-64.6	3.8	7.49e-01	0	58	104	594542592	62	32797
2026-01-01 03:24:56.17	263.70	4.76	-45.9	-64.6	3.8	7.46e-01	0	58	104	594542592	62	32848
2026-01-01 03:24:57.18	263.58	4.71	-45.8	-64.6	3.8	7.46e-01	0	58	104	594542592	62	32790
2026-01-01 03:24:58.19	263.47	4.65	-45.9	-64.6	3.8	7.48e-01	0	58	104	594542592	62	32811
2026-01-01 03:24:59.20	263.35	4.60	-45.8	-64.6	3.8	7.41e-01	0	58	104	594542592	62	32841
2026-01-01 03:25:00.21	263.24	4.54	-45.8	-64.6	3.8	7.45e-01	0	58	104	594542592	62	32832
2026-01-01 03:25:01.22	263.13	4.49	-45.8	-64.6	3.8	7.49e-01	0	58	104	594542592	62	32822
2026-01-01 03:25:02.23	263.01	4.43	-45.8	-64.6	3.8	7.47e-01	0	58	104	594542592	62	32853
2026-01-01 03:25:03.24	262.90	4.38	-45.8	-64.6	3.8	7.43e-01	0	58	104	594542592	62	32814
2026-01-01 03:25:04.25	262.79	4.32	-45.8	-64.6	3.8	7.45e-01	0	58	104	594542592	62	32844
2026-01-01 03:25:05.26	262.68	4.26	-45.8	-64.6	3.8	7.46e-01	0	58	104	594542592	62	32876
2026-01-01 03:25:06.27	262.57	4.21	-45.8	-64.6	3.8	7.40e-01	0	58	104	594542592	62	32821
2026-01-01 03:25:07.28	262.46	4.15	-45.8	-64.6	3.8	7.49e-01	0	58	104	594542592	62	32803
2026-01-01 03:25:08.30	262.35	4.10	-45.8	-64.6	3.8	7.43e-01	0	58	104	594542592	62	32799
2026-01-01 03:25:09.31	262.24	4.04	-45.8	-64.6	3.8	7.48e-01	0	58	104	594542592	62	32795
2026-01-01 03:25:10.32	262.13	3.99	-45.8	-64.6	3.8	7.46e-01	0	58	104	594542592	62	32848
2026-01-01 03:25:11.33	262.02	3.93	-45.8	-64.6	3.8	7.47e-01	0	58	104	594542592	62	32791
2026-01-01 03:25:12.34	261.91	3.88	-45.8	-64.6	3.8	7.44e-01	0	58	104	594542592	62	32855
2026-01-01 03:25:13.35	261.81	3.82	-45.8	-64.6	3.8	7.44e-01	0	58	104	594542592	62	32763
2026-01-01 03:25:14.36	261.70	3.77	-45.8	-64.6	3.8	7.44e-01	0	58	104	594542592	62	32841
2026-01-01 03:25:15.37	261.59	3.71	-45.8	-64.6	3.8	7.45e-01	0	58	104	594542592	62	32824
2026-01-01 03:25:16.38	261.49	3.66	-45.8	-64.6	3.8	7.46e-01	0	58	104	594542592	62	32815
2026-01-01 03:25:17.39	261.38	3.60	-45.8	-64.6	3.8	7.49e-01	0	58	104	594542592	62	32840
2026-01-01 03:25:18.41	261.27	3.55	-45.8	-64.6	3.8	7.44e-01	0	58	104	594542592	62	32865
2026-01-01 03:25:19.42	261.17	3.49	-45.8	-64.6	3.8	7.44e-01	0	58	104	594542592	62	32836
2026-01-01 03:25:20.43	261.07	3.44	-45.8	-64.6	3.8	7.43e-01	0	58	104	594542592	62	32796
2026-01-01 03:25:21.44	260.96	3.38	-45.8	-64.6	3.8	7.48e-01	0	58	104	594542592	62	32849
2026-01-01 03:25:22.45	260.86	3.33	-45.8	-64.6	3.8	7.45e-01	0	58	104	594542592	62	32771
2026-01-01 03:25:23.46	260.75	3.27	-45.9	-64.6	3.8	7.46e-01	0	58	104	594542592	62	32833
2026-01-01 03:25:24.47	260.65	3.22	-45.8	-64.6	3.8	7.45e-01	0	58	104	594542592	62	32778
2026-01-01 03:25:25.48	260.55	3.16	-45.8	-64.6	3.8	7.45e-01	0	58	104	594542592	62	32793
2026-01-01 03:25:26.49	260.45	3.11	-45.8	-64.6	3.8	7.45e-01	0	58	104	594542592	62	32767
2026-01-01 03:25:27.50	260.35	3.05	-45.8	-64.6	3.8	7.49e-01	0	58	104	594542592	62	32839
2026-01-01 03:25:28.52	260.25	3.00	-45.8	-64.6	3.8	7.46e-01	0	58	104	594542592	62	32748
2026-01-01 03:25:29.53	260.14	2.94	-45.8	-64.6	3.8	7.48e-01	0	58	104	594542592	62	32788
2026-01-01 03:25:30.54	260.04	2.89	-45.8	-64.6	3.8	7.46e-01	0	58	104	594542592	62	32837
2026-01-01 03:25:31.55	259.94	2.83	-45.8	-64.6	3.8	7.46e-01	0	58	104	594542592	62	32789
2026-01-01 03:25:32.56	259.85	2.78	-45.8	-64.6	3.8	7.47e-01	0	58	104	594542592	62	32826
2026-01-01 03:25:33.57	259.75	2.73	-45.8	-64.6	3.8	7.43e-01	0	58	104	594542592	62	32870
2026-01-01 03:25:34.58	259.65	2.67	-45.8	-64.6	3.8	7.47e-01	0	58	104	594542592	62	32849
2026-01-01 03:25:35.59	259.55	2.62	-45.8	-64.6	3.8	7.46e-01	0	58	104	594542592	62	32850
2026-01-01 03:25:36.60	259.45	2.56	-45.8	-64.6	3.8	7.45e-01	0	58	104	594542592	62	32792
2026-01-01 03:25:37.62	259.35	2.51	-45.8	-64.6	3.8	7.45e-01	0	58	104	594542592	62	32825
2026-01-01 03:25:38.63	259.26	2.45	-45.8	-64.6	3.8	7.43e-01	0	58	104	594542592	62	32909
2026-01-01 03:25:39.64	259.16	2.40	-45.8	-64.6	3.8	7.45e-01	0	58	104	594542592	62	32762
2026-01-01 03:25:40.65	259.07	2.35	-45.8	-64.6	3.8	7.48e-01	0	58	104	594542592	62	32799
2026-01-01 03:25:41.66	258.97	2.29	-45.8	-64.6	3.8	7.49e-01	0	58	104	594542592	62	32770
2026-01-01 03:25:42.67	258.87	2.24	-45.8	-64.6	3.8	7.48e-01	0	58	104	594542592	62	32776
2026-01-01 03:25:43.68	258.78	2.18	-45.8	-64.6	3.8	7.46e-01	0	58	104	594542592	62	32819
2026-01-01 03:25:44.69	258.69	2.13	-45.8	-64.6	3.8	7.44e-01	0	58	104	594542592	62	32763
2026-01-01 03:25:45.70	258.59	2.08	-45.8	-64.6	3.8	7.45e-01	0	58	104	594542592	62	32767
2026-01-01 03:25:46.71	258.50	2.02	-45.8	-64.6	3.8	7.41e-01	0	58	104	594542592	62	32812
2026-01-01 03:25:47.72	258.40	1.97	-45.8	-64.6	3.8	7.43e-01	0	58	104	594542592	62	32836

#Closed at: 2026-01-01 03:25:48
#Recorded file [594 MB]: D:/lorett/data/31039_260101_061535.dat