passes_logs/2026/01/01/R2.0S_Moscow/R2.0S_Moscow__20260101_095056_FENGYUN_3D_rec.log

#Pass ID: 20260101_095056_FENGYUN 3D
#Satellite: FENGYUN 3D
#Configuration: FENGYUN 3D
#almurnet v.1.7.20251203
#Start time: 2026-01-01 09:50:58

#Version: 2.2.20231116
#Station: R2.0S_Moscow
#Location: 37.707566 lon 55.798166 lat
#TLE: 1 43010U 17072A   25365.48527867  .00000101  00000+0  69745-4 0  9999
#TLE: 2 43010  98.9911 332.0787 0001837 134.4748 225.6578 14.19689788421190

#Time	Az	El	Level	Level2	SNR	BER	BlckErr	Temp	State	Recorded	gain1	gain2
2026-01-01 09:50:58.61	98.73	2.11	-40.0	-51.6	3.8	8.45e-01	0	48	0	0	51	13800
2026-01-01 09:50:59.61	98.64	2.16	-40.0	-51.6	3.8	8.46e-01	0	48	104	0	51	13866
2026-01-01 09:51:00.62	98.56	2.22	-40.0	-51.6	3.8	8.47e-01	0	48	104	0	51	13854
2026-01-01 09:51:01.64	98.48	2.27	-40.0	-51.6	3.8	8.46e-01	0	49	104	0	51	13884
2026-01-01 09:51:02.65	98.39	2.32	-40.0	-51.6	3.8	8.48e-01	0	49	104	0	51	13872
2026-01-01 09:51:03.66	98.31	2.38	-40.0	-51.6	3.8	8.47e-01	0	49	104	0	51	13816
2026-01-01 09:51:04.67	98.23	2.43	-40.0	-51.6	3.8	8.46e-01	0	49	104	0	51	13842
2026-01-01 09:51:05.68	98.14	2.48	-40.0	-51.6	3.8	8.47e-01	0	49	104	0	51	13867
2026-01-01 09:51:06.69	98.06	2.53	-40.0	-51.7	3.8	8.46e-01	0	49	104	0	51	13890
2026-01-01 09:51:07.70	97.97	2.59	-40.0	-51.6	3.8	8.46e-01	0	49	104	0	51	13845
2026-01-01 09:51:08.71	97.89	2.64	-40.0	-51.7	3.8	8.46e-01	0	49	104	0	51	13890
2026-01-01 09:51:09.72	97.80	2.69	-40.0	-51.6	3.8	8.46e-01	0	49	104	0	51	13840
2026-01-01 09:51:10.74	97.71	2.75	-40.0	-51.6	3.8	8.45e-01	0	49	104	0	51	13869
2026-01-01 09:51:11.75	97.63	2.80	-40.0	-51.6	3.8	8.46e-01	0	49	104	0	51	13869
2026-01-01 09:51:12.76	97.54	2.85	-40.0	-51.6	3.8	8.46e-01	0	49	104	0	51	13762
2026-01-01 09:51:13.77	97.45	2.90	-40.0	-51.6	3.8	8.47e-01	0	49	104	0	51	13878
2026-01-01 09:51:14.78	97.37	2.96	-40.0	-51.6	3.8	8.45e-01	0	50	104	0	51	13831
2026-01-01 09:51:15.79	97.28	3.01	-40.0	-51.6	3.8	8.46e-01	0	49	104	0	51	13828
2026-01-01 09:51:16.80	97.19	3.06	-40.0	-51.6	3.8	8.46e-01	0	50	104	0	51	13866
2026-01-01 09:51:17.81	97.10	3.12	-40.0	-51.6	3.8	8.45e-01	0	50	104	0	51	13819
2026-01-01 09:51:18.82	97.01	3.17	-40.0	-51.6	3.8	8.46e-01	0	50	104	0	51	13870
2026-01-01 09:51:19.83	96.93	3.22	-40.0	-51.6	3.8	8.46e-01	0	50	104	0	51	13849
2026-01-01 09:51:20.85	96.84	3.28	-40.0	-51.6	3.8	8.46e-01	0	50	104	0	51	13818
2026-01-01 09:51:21.86	96.75	3.33	-40.0	-51.6	3.8	8.45e-01	0	50	104	0	51	13802
2026-01-01 09:51:22.87	96.66	3.38	-40.0	-51.6	3.8	8.46e-01	0	50	104	0	51	13795
2026-01-01 09:51:23.88	96.57	3.44	-40.0	-51.6	3.8	8.46e-01	0	50	104	0	51	13872
2026-01-01 09:51:24.89	96.48	3.49	-40.0	-51.7	3.8	8.45e-01	0	50	104	0	51	13896
2026-01-01 09:51:25.90	96.39	3.55	-40.0	-51.6	3.8	8.45e-01	0	50	104	0	51	13831
2026-01-01 09:51:26.91	96.29	3.60	-40.0	-51.6	3.8	8.46e-01	0	50	104	0	51	13874
2026-01-01 09:51:27.92	96.20	3.65	-40.0	-51.6	3.8	8.46e-01	0	50	104	0	51	13882
2026-01-01 09:51:28.93	96.11	3.71	-40.0	-51.6	3.8	8.48e-01	0	51	104	0	51	13833
2026-01-01 09:51:29.94	96.02	3.76	-40.0	-51.6	3.8	8.45e-01	0	50	104	0	51	13816
2026-01-01 09:51:30.96	95.92	3.81	-40.0	-51.6	3.8	8.45e-01	0	50	104	0	51	13862
2026-01-01 09:51:31.97	95.83	3.87	-40.0	-51.6	3.8	8.46e-01	0	51	104	0	51	13833
2026-01-01 09:51:32.98	95.74	3.92	-40.0	-51.6	3.8	8.46e-01	0	51	104	0	51	13813
2026-01-01 09:51:33.99	95.64	3.98	-40.0	-51.6	3.8	8.46e-01	0	51	104	0	51	13834
2026-01-01 09:51:35.00	95.55	4.03	-40.0	-51.6	3.8	8.46e-01	0	51	104	0	51	13833
2026-01-01 09:51:36.01	95.46	4.08	-40.0	-51.6	3.8	8.45e-01	0	51	104	0	51	13849
2026-01-01 09:51:37.02	95.36	4.14	-40.0	-51.6	3.8	8.45e-01	0	51	104	0	51	13878
2026-01-01 09:51:38.03	95.27	4.19	-40.0	-51.6	3.8	8.45e-01	0	51	104	0	51	13882
2026-01-01 09:51:39.04	95.17	4.25	-40.0	-51.6	3.8	8.45e-01	0	51	104	0	51	13852
2026-01-01 09:51:40.05	95.08	4.30	-40.0	-51.6	3.8	8.46e-01	0	51	104	0	51	13823
2026-01-01 09:51:41.06	94.98	4.35	-40.0	-51.6	3.8	8.46e-01	0	51	104	0	51	13818
2026-01-01 09:51:42.08	94.88	4.41	-40.0	-51.6	3.8	8.45e-01	0	51	104	0	51	13816
2026-01-01 09:51:43.09	94.79	4.46	-40.0	-51.6	3.8	8.48e-01	0	51	104	0	51	13842
2026-01-01 09:51:44.10	94.69	4.52	-40.0	-51.6	3.8	8.45e-01	0	51	104	0	51	13822
2026-01-01 09:51:45.11	94.59	4.57	-40.0	-51.6	3.8	8.47e-01	0	51	104	0	51	13808
2026-01-01 09:51:46.12	94.49	4.62	-40.0	-51.6	3.8	8.46e-01	0	51	104	0	51	13819
2026-01-01 09:51:47.13	94.39	4.68	-40.0	-51.6	3.8	8.45e-01	0	51	104	0	51	13843
2026-01-01 09:51:48.14	94.30	4.73	-40.0	-51.6	3.8	8.46e-01	0	51	104	0	51	13849
2026-01-01 09:51:49.15	94.20	4.79	-40.0	-51.6	3.8	8.47e-01	0	51	104	0	51	13831
2026-01-01 09:51:50.16	94.10	4.84	-40.0	-51.6	3.8	8.46e-01	0	52	104	0	51	13791
2026-01-01 09:51:51.18	94.00	4.90	-40.0	-51.6	3.8	8.47e-01	0	52	104	0	51	13796
2026-01-01 09:51:52.19	93.90	4.95	-40.0	-51.6	3.8	8.47e-01	0	52	104	0	51	13824
2026-01-01 09:51:53.20	93.79	5.01	-40.0	-51.6	3.8	8.45e-01	0	52	104	0	51	13835
2026-01-01 09:51:54.21	93.69	5.06	-40.0	-51.6	3.8	8.44e-01	0	52	104	0	51	13788
2026-01-01 09:51:55.22	93.59	5.11	-40.0	-51.6	3.8	8.45e-01	0	52	104	0	51	13823
2026-01-01 09:51:56.23	93.49	5.17	-40.0	-51.6	3.8	8.47e-01	0	52	104	0	51	13866
2026-01-01 09:51:57.24	93.39	5.22	-40.0	-51.6	3.8	8.47e-01	0	52	104	0	51	13803
2026-01-01 09:51:58.25	93.29	5.28	-40.0	-51.6	3.8	8.48e-01	0	52	104	0	51	13808
2026-01-01 09:51:59.26	93.18	5.33	-40.0	-51.6	3.8	8.46e-01	0	52	104	0	51	13873
2026-01-01 09:52:00.27	93.08	5.39	-40.0	-51.6	3.8	8.45e-01	0	52	104	0	51	13867
2026-01-01 09:52:01.28	92.98	5.44	-40.0	-51.6	3.8	8.46e-01	0	52	104	0	51	13826
2026-01-01 09:52:02.29	92.87	5.50	-39.9	-51.6	3.8	8.45e-01	0	52	104	0	51	13774
2026-01-01 09:52:03.31	92.77	5.55	-40.0	-51.6	3.8	8.46e-01	0	52	104	0	51	13832
2026-01-01 09:52:04.32	92.66	5.61	-40.0	-51.6	3.8	8.47e-01	0	52	104	0	51	13852
2026-01-01 09:52:05.33	92.56	5.66	-40.0	-51.6	3.8	8.46e-01	0	52	104	0	51	13833
2026-01-01 09:52:06.34	92.45	5.72	-40.0	-51.6	3.8	8.46e-01	0	52	104	0	51	13822
2026-01-01 09:52:07.35	92.34	5.77	-40.0	-51.6	3.8	8.46e-01	0	52	104	0	51	13772
2026-01-01 09:52:08.36	92.24	5.83	-40.0	-51.6	3.8	8.45e-01	0	52	104	0	51	13861
2026-01-01 09:52:09.37	92.13	5.88	-40.0	-51.6	3.8	8.46e-01	0	53	104	0	51	13797
2026-01-01 09:52:10.38	92.02	5.94	-40.0	-51.6	3.8	8.46e-01	0	52	104	0	51	13847
2026-01-01 09:52:11.39	91.91	5.99	-40.0	-51.6	3.8	8.46e-01	0	52	104	0	51	13823
2026-01-01 09:52:12.41	91.81	6.05	-40.0	-51.6	3.8	8.47e-01	0	53	104	0	51	13867
2026-01-01 09:52:13.42	91.70	6.10	-40.0	-51.6	3.8	8.47e-01	0	53	104	0	51	13804
2026-01-01 09:52:14.43	91.59	6.16	-40.0	-51.6	3.8	8.46e-01	0	53	104	0	51	13838
2026-01-01 09:52:15.44	91.48	6.21	-40.0	-51.6	3.8	8.45e-01	0	53	104	0	51	13861
2026-01-01 09:52:16.45	91.37	6.27	-40.0	-51.6	3.8	8.45e-01	0	53	104	0	51	13822
2026-01-01 09:52:17.46	91.26	6.32	-40.0	-51.6	3.8	8.46e-01	0	53	104	0	51	13826
2026-01-01 09:52:18.47	91.15	6.38	-40.0	-51.6	3.8	8.45e-01	0	53	104	0	51	13817
2026-01-01 09:52:19.48	91.04	6.43	-40.0	-51.6	3.8	8.45e-01	0	53	104	0	51	13820
2026-01-01 09:52:20.49	90.92	6.49	-40.0	-51.6	3.8	8.45e-01	0	53	104	0	51	13863
2026-01-01 09:52:21.50	90.81	6.54	-40.0	-51.6	3.8	8.46e-01	0	53	104	0	51	13836
2026-01-01 09:52:22.51	90.70	6.60	-40.0	-51.6	3.8	8.46e-01	0	53	104	0	51	13741
2026-01-01 09:52:23.52	90.59	6.65	-40.0	-51.6	3.8	8.46e-01	0	53	104	0	51	13870
2026-01-01 09:52:24.54	90.47	6.71	-40.0	-51.6	3.8	8.47e-01	0	53	104	0	51	13744
2026-01-01 09:52:25.55	90.36	6.76	-40.0	-51.6	3.8	8.46e-01	0	53	104	0	51	13855
2026-01-01 09:52:26.56	90.24	6.82	-40.0	-51.6	3.8	8.45e-01	0	53	104	0	51	13819
2026-01-01 09:52:27.57	90.13	6.87	-40.0	-51.6	3.8	8.45e-01	0	53	104	0	51	13824
2026-01-01 09:52:28.58	90.01	6.93	-40.0	-51.6	3.8	8.45e-01	0	53	104	0	51	13849
2026-01-01 09:52:29.59	89.90	6.98	-40.0	-51.6	3.8	8.47e-01	0	53	104	0	51	13803
2026-01-01 09:52:30.60	89.78	7.04	-39.9	-51.6	3.8	8.46e-01	0	53	104	0	51	13765
2026-01-01 09:52:31.61	89.67	7.10	-40.0	-51.6	3.8	8.46e-01	0	53	104	0	51	13821
2026-01-01 09:52:32.62	89.55	7.15	-40.0	-51.6	3.8	8.46e-01	0	53	104	0	51	13801
2026-01-01 09:52:33.64	89.43	7.21	-40.0	-51.6	3.8	8.47e-01	0	53	104	0	51	13809
2026-01-01 09:52:34.65	89.31	7.26	-40.0	-51.6	3.8	8.46e-01	0	53	104	0	51	13789
2026-01-01 09:52:35.66	89.19	7.32	-40.0	-51.6	3.8	8.47e-01	0	54	104	0	51	13837
2026-01-01 09:52:36.67	89.08	7.37	-40.0	-51.6	3.8	8.46e-01	0	53	104	0	51	13839
2026-01-01 09:52:37.68	88.96	7.43	-40.0	-51.6	3.8	8.46e-01	0	54	104	0	51	13872
2026-01-01 09:52:38.69	88.84	7.48	-40.0	-51.7	3.8	8.47e-01	0	54	104	0	51	13923
2026-01-01 09:52:39.70	88.72	7.54	-40.0	-51.7	3.8	8.46e-01	0	53	104	0	51	13903
2026-01-01 09:52:40.71	88.60	7.59	-40.0	-51.6	3.8	8.47e-01	0	53	104	0	51	13854
2026-01-01 09:52:41.72	88.47	7.65	-40.0	-51.7	3.8	8.46e-01	0	54	104	0	51	13886
2026-01-01 09:52:42.73	88.35	7.70	-40.0	-51.6	3.8	8.46e-01	0	54	104	0	51	13859
2026-01-01 09:52:43.74	88.23	7.76	-40.0	-51.6	3.8	8.47e-01	0	54	104	0	51	13850
2026-01-01 09:52:44.76	88.11	7.81	-40.0	-51.7	3.8	8.46e-01	0	54	104	0	51	13887
2026-01-01 09:52:45.77	87.98	7.87	-40.0	-51.6	3.8	8.47e-01	0	54	104	0	51	13845
2026-01-01 09:52:46.78	87.86	7.93	-40.0	-51.6	3.8	8.46e-01	0	54	104	0	51	13884
2026-01-01 09:52:47.79	87.74	7.98	-40.0	-51.6	3.8	8.47e-01	0	54	104	0	51	13856
2026-01-01 09:52:48.80	87.61	8.04	-40.0	-51.6	3.8	8.47e-01	0	54	104	0	51	13859
2026-01-01 09:52:49.81	87.49	8.09	-40.6	-52.2	3.8	8.47e-01	0	54	104	0	51	14821
2026-01-01 09:52:50.82	87.36	8.15	-40.2	-51.9	3.8	8.46e-01	0	54	104	0	52	13503
2026-01-01 09:52:51.83	87.24	8.20	-40.0	-51.7	3.8	8.46e-01	0	54	104	0	51	13890
2026-01-01 09:52:52.85	87.11	8.26	-40.1	-51.9	3.8	8.45e-01	0	54	104	0	51	14297
2026-01-01 09:52:53.86	86.98	8.31	-39.9	-51.7	3.8	8.46e-01	0	54	104	0	51	13931
2026-01-01 09:52:54.86	86.86	8.37	-40.2	-51.9	3.8	8.47e-01	0	54	104	0	51	14281
2026-01-01 09:52:55.88	86.73	8.42	-40.0	-51.7	3.8	8.45e-01	0	54	104	0	51	13913
2026-01-01 09:52:56.89	86.60	8.48	-40.1	-51.8	3.8	8.46e-01	0	54	104	0	51	14142
2026-01-01 09:52:57.90	86.47	8.53	-40.1	-51.7	3.8	8.47e-01	0	54	104	0	51	13965
2026-01-01 09:52:58.91	86.34	8.59	-40.0	-51.8	3.8	8.46e-01	0	54	104	0	51	14182
2026-01-01 09:52:59.92	86.21	8.64	-40.1	-51.7	3.8	8.47e-01	0	54	104	0	51	14033
2026-01-01 09:53:00.93	86.08	8.70	-40.2	-52.0	3.8	8.45e-01	0	54	104	0	51	14388
2026-01-01 09:53:01.94	85.95	8.75	-40.0	-51.7	3.8	8.46e-01	0	54	104	0	51	13937
2026-01-01 09:53:02.95	85.82	8.81	-40.2	-52.0	3.8	8.46e-01	0	54	104	0	51	14403
2026-01-01 09:53:03.96	85.69	8.86	-40.0	-51.7	3.8	8.46e-01	0	54	104	0	51	13918
2026-01-01 09:53:04.97	85.55	8.92	-39.9	-51.7	3.8	8.46e-01	0	55	104	0	51	13946
2026-01-01 09:53:05.98	85.42	8.97	-40.1	-51.8	3.8	8.46e-01	0	54	104	0	51	14094
2026-01-01 09:53:07.00	85.29	9.03	-39.9	-51.6	3.8	8.45e-01	0	54	104	0	51	13883
2026-01-01 09:53:08.00	85.15	9.08	-40.0	-51.8	3.8	8.46e-01	0	54	104	0	51	14106
2026-01-01 09:53:09.02	85.02	9.14	-40.1	-51.8	3.8	8.45e-01	0	54	104	0	51	14130
2026-01-01 09:53:10.03	84.88	9.19	-39.9	-51.6	3.8	8.46e-01	0	54	104	0	51	13772
2026-01-01 09:53:11.04	84.75	9.25	-40.0	-51.8	3.8	8.45e-01	0	55	104	0	51	14064
2026-01-01 09:53:12.05	84.61	9.30	-39.9	-51.6	3.8	8.47e-01	0	55	104	0	51	13752
2026-01-01 09:53:13.06	84.48	9.36	-39.6	-51.5	3.8	8.46e-01	0	55	104	0	51	13591
2026-01-01 09:53:14.07	84.34	9.41	-40.0	-51.7	3.8	8.46e-01	0	55	104	0	51	13978
2026-01-01 09:53:15.08	84.20	9.47	-39.8	-51.5	3.8	8.46e-01	0	55	104	0	51	13618
2026-01-01 09:53:16.09	84.06	9.52	-39.9	-51.7	3.8	8.46e-01	0	55	104	0	51	13893
2026-01-01 09:53:17.10	83.93	9.58	-39.9	-51.6	3.8	8.46e-01	0	55	104	0	51	13799
2026-01-01 09:53:18.11	83.79	9.63	-39.8	-51.5	3.8	8.46e-01	0	55	104	0	51	13590
2026-01-01 09:53:19.12	83.65	9.69	-39.9	-51.6	3.8	8.46e-01	0	55	104	0	51	13733
2026-01-01 09:53:20.13	83.51	9.74	-39.8	-51.4	3.8	8.45e-01	0	55	104	0	51	13523
2026-01-01 09:53:21.14	83.37	9.79	-39.8	-51.5	3.8	8.45e-01	0	55	104	0	51	13611
2026-01-01 09:53:22.15	83.22	9.85	-39.7	-51.5	3.8	8.45e-01	0	55	104	0	51	13605
2026-01-01 09:53:23.16	83.08	9.90	-39.8	-51.4	3.8	8.46e-01	0	55	104	0	51	13564
2026-01-01 09:53:24.17	82.94	9.96	-39.8	-51.5	3.8	8.46e-01	0	55	104	0	51	13608
2026-01-01 09:53:25.18	82.80	10.01	-39.9	-51.6	3.8	8.46e-01	0	55	104	0	51	13783
2026-01-01 09:53:26.19	82.66	10.07	-39.8	-51.4	3.8	8.46e-01	0	55	104	0	51	13517
2026-01-01 09:53:27.20	82.51	10.12	-39.9	-51.6	3.8	8.46e-01	0	55	104	0	51	13774
2026-01-01 09:53:28.22	82.37	10.18	-39.8	-51.4	3.8	8.46e-01	0	55	104	0	51	13507
2026-01-01 09:53:29.22	82.22	10.23	-39.9	-51.5	3.8	8.46e-01	0	55	104	0	51	13686
2026-01-01 09:53:30.23	82.08	10.28	-39.8	-51.5	3.8	8.46e-01	0	55	104	0	51	13617
2026-01-01 09:53:31.24	81.93	10.34	-39.9	-51.5	3.8	8.48e-01	0	55	104	0	51	13711
2026-01-01 09:53:32.25	81.78	10.39	-39.9	-51.5	3.8	8.46e-01	0	55	104	0	51	13611
2026-01-01 09:53:33.26	81.64	10.44	-40.0	-51.6	3.8	8.46e-01	0	55	104	0	51	13766
2026-01-01 09:53:34.27	81.49	10.50	-39.9	-51.5	3.8	8.46e-01	0	55	104	0	51	13593
2026-01-01 09:53:35.28	81.34	10.55	-40.0	-51.6	3.8	8.46e-01	0	55	104	0	51	13865
2026-01-01 09:53:36.29	81.19	10.61	-39.9	-51.5	3.8	8.47e-01	0	55	104	0	51	13651
2026-01-01 09:53:37.31	81.04	10.66	-39.9	-51.5	3.8	8.46e-01	0	55	104	0	51	13722
2026-01-01 09:53:38.32	80.89	10.71	-39.9	-51.5	3.8	8.46e-01	0	55	104	0	51	13690
2026-01-01 09:53:39.33	80.74	10.77	-40.0	-51.6	3.8	8.46e-01	0	55	104	0	51	13737
2026-01-01 09:53:40.34	80.59	10.82	-39.9	-51.5	3.8	8.46e-01	0	55	104	0	51	13684
2026-01-01 09:53:41.35	80.44	10.87	-40.0	-51.6	3.8	8.46e-01	0	55	104	0	51	13769
2026-01-01 09:53:42.36	80.29	10.93	-39.9	-51.5	3.8	8.45e-01	0	56	104	0	51	13711
2026-01-01 09:53:43.37	80.13	10.98	-40.0	-51.6	3.8	8.46e-01	0	55	104	0	51	13841
2026-01-01 09:53:44.38	79.98	11.03	-40.0	-51.6	3.8	8.46e-01	0	55	104	0	51	13812
2026-01-01 09:53:45.39	79.83	11.08	-40.1	-51.7	3.8	8.46e-01	0	55	104	0	51	13945
2026-01-01 09:53:46.40	79.67	11.14	-40.0	-51.6	3.8	8.47e-01	0	55	104	0	51	13813
2026-01-01 09:53:47.41	79.52	11.19	-40.1	-51.7	3.8	8.45e-01	0	55	104	0	51	13993
2026-01-01 09:53:48.42	79.36	11.24	-40.1	-51.7	3.8	8.47e-01	0	55	104	0	51	13905
2026-01-01 09:53:49.44	79.20	11.30	-40.1	-51.8	3.8	8.46e-01	0	55	104	0	51	14061
2026-01-01 09:53:50.44	79.05	11.35	-40.2	-51.8	3.8	8.45e-01	0	55	104	0	51	14135
2026-01-01 09:53:51.45	78.89	11.40	-40.2	-51.9	3.8	8.46e-01	0	56	104	0	51	14220
2026-01-01 09:53:52.46	78.73	11.45	-40.5	-52.1	3.8	8.46e-01	0	56	104	0	51	14588
2026-01-01 09:53:53.48	78.57	11.50	-40.4	-52.0	3.8	8.45e-01	0	56	104	0	51	14461
2026-01-01 09:53:54.49	78.42	11.56	-40.4	-52.0	3.8	8.46e-01	0	55	104	0	51	14375
2026-01-01 09:53:55.50	78.26	11.61	-40.4	-52.1	3.8	8.46e-01	0	56	104	0	51	14593
2026-01-01 09:53:56.51	78.10	11.66	-40.3	-51.9	3.8	8.45e-01	0	56	104	0	51	14299
2026-01-01 09:53:57.52	77.94	11.71	-40.5	-52.1	3.8	8.45e-01	0	56	104	0	51	14630
2026-01-01 09:53:58.53	77.77	11.76	-40.5	-52.1	3.8	8.46e-01	0	56	104	0	51	14660
2026-01-01 09:53:59.54	77.61	11.82	-40.5	-52.1	3.8	8.45e-01	0	56	104	0	51	14649
2026-01-01 09:54:00.55	77.45	11.87	-40.7	-52.3	3.8	8.47e-01	0	56	104	0	51	14975
2026-01-01 09:54:01.56	77.29	11.92	-40.4	-52.1	3.8	8.47e-01	0	56	104	0	52	13754
2026-01-01 09:54:02.57	77.12	11.97	-40.5	-52.2	3.8	8.45e-01	0	56	104	0	52	13893
2026-01-01 09:54:03.58	76.96	12.02	-40.5	-52.1	3.8	8.46e-01	0	55	104	0	52	13884
2026-01-01 09:54:04.59	76.80	12.07	-40.5	-52.1	3.8	8.46e-01	0	56	104	0	52	13843
2026-01-01 09:54:05.60	76.63	12.12	-40.7	-52.4	3.8	8.47e-01	0	56	104	0	52	14342
2026-01-01 09:54:06.61	76.47	12.17	-40.7	-52.4	3.8	8.46e-01	0	56	104	0	52	14313
2026-01-01 09:54:07.62	76.30	12.22	-40.9	-52.6	3.8	8.46e-01	0	56	104	0	52	14587
2026-01-01 09:54:08.63	76.13	12.27	-41.0	-52.7	3.8	8.46e-01	0	56	104	0	52	14736
2026-01-01 09:54:09.65	75.96	12.32	-40.8	-52.6	3.8	8.47e-01	0	56	104	0	52	14559
2026-01-01 09:54:10.66	75.79	12.37	-40.9	-52.6	3.8	8.47e-01	0	56	104	0	52	14564
2026-01-01 09:54:11.66	75.63	12.42	-40.9	-52.6	3.8	8.46e-01	0	56	104	0	52	14626
2026-01-01 09:54:12.68	75.46	12.47	-40.9	-52.5	3.8	8.46e-01	0	56	104	0	52	14447
2026-01-01 09:54:13.69	75.29	12.52	-40.9	-52.5	3.8	8.46e-01	0	56	104	0	52	14513
2026-01-01 09:54:14.70	75.12	12.57	-40.9	-52.5	3.8	8.46e-01	0	56	104	0	52	14485
2026-01-01 09:54:15.71	74.95	12.62	-40.9	-52.4	3.8	8.46e-01	0	56	104	0	52	14373
2026-01-01 09:54:16.72	74.77	12.67	-40.7	-52.4	3.8	8.47e-01	0	56	104	0	52	14219
2026-01-01 09:54:17.73	74.60	12.72	-40.9	-52.5	3.8	8.46e-01	0	56	104	0	52	14399
2026-01-01 09:54:18.74	74.43	12.77	-40.7	-52.4	3.8	8.46e-01	0	56	104	0	52	14231
2026-01-01 09:54:19.75	74.26	12.82	-40.8	-52.4	3.8	8.46e-01	0	56	104	0	52	14231
2026-01-01 09:54:20.76	74.08	12.87	-40.8	-52.3	3.8	8.47e-01	0	56	104	0	52	14107
2026-01-01 09:54:21.78	73.91	12.92	-40.7	-52.3	3.8	8.46e-01	0	56	104	0	52	14154
2026-01-01 09:54:22.79	73.73	12.96	-40.8	-52.3	3.8	8.46e-01	0	56	104	0	52	14160
2026-01-01 09:54:23.80	73.56	13.01	-40.6	-52.3	3.8	8.46e-01	0	56	104	0	52	14104
2026-01-01 09:54:24.81	73.38	13.06	-40.6	-52.2	3.8	8.46e-01	0	56	104	0	52	14024
2026-01-01 09:54:25.82	73.20	13.11	-40.7	-52.3	3.8	8.46e-01	0	56	104	0	52	14165
2026-01-01 09:54:26.83	73.03	13.16	-40.6	-52.2	3.8	8.45e-01	0	56	104	0	52	13931
2026-01-01 09:54:27.84	72.85	13.20	-40.6	-52.3	3.8	8.47e-01	0	56	104	0	52	14122
2026-01-01 09:54:28.85	72.67	13.25	-40.7	-51.8	3.8	8.46e-01	0	56	104	0	52	13302
2026-01-01 09:54:29.86	72.49	13.30	-40.6	-52.2	3.8	8.47e-01	0	56	104	0	52	13902
2026-01-01 09:54:30.87	72.31	13.34	-40.6	-51.5	3.8	8.46e-01	0	56	104	0	52	12956
2026-01-01 09:54:31.88	72.13	13.39	-40.7	-51.7	3.8	8.47e-01	0	56	104	0	52	13143
2026-01-01 09:54:32.89	71.95	13.44	-40.7	-51.9	3.8	8.47e-01	0	56	104	0	52	13415
2026-01-01 09:54:33.90	71.77	13.48	-40.7	-51.8	3.8	8.46e-01	0	56	104	0	52	13370
2026-01-01 09:54:34.92	71.58	13.53	-40.8	-51.8	3.8	8.46e-01	0	56	104	0	52	13385
2026-01-01 09:54:35.93	71.40	13.58	-40.8	-51.8	3.8	8.47e-01	0	56	104	0	52	13353
2026-01-01 09:54:36.94	71.22	13.62	-40.7	-50.5	3.8	8.46e-01	0	56	104	0	52	11535
2026-01-01 09:54:37.95	71.04	13.67	-40.8	-52.3	3.8	8.45e-01	0	56	104	0	52	14147
2026-01-01 09:54:38.96	70.85	13.71	-41.1	-51.5	3.8	8.46e-01	0	56	104	0	52	12826
2026-01-01 09:54:39.97	70.67	13.76	-40.9	-52.3	3.8	8.46e-01	0	56	104	0	52	14189
2026-01-01 09:54:40.98	70.48	13.80	-41.0	-50.7	3.8	8.45e-01	0	56	104	0	52	11788
2026-01-01 09:54:41.99	70.30	13.85	-40.8	-49.0	4.3	8.41e-01	0	56	0	0	52	9628
2026-01-01 09:54:43.00	70.11	13.89	-40.4	-46.8	5.4	7.48e-01	0	57	0	0	52	7472
2026-01-01 09:54:44.01	69.92	13.94	-40.0	-45.5	6.4	3.43e-01	0	56	0	4194304	51	6826
2026-01-01 09:54:45.02	69.73	13.98	-39.8	-44.6	7.2	1.65e-01	0	56	0	9437184	51	6199
2026-01-01 09:54:46.03	69.55	14.02	-39.6	-44.2	7.6	1.29e-01	0	56	0	15728640	51	5917
2026-01-01 09:54:47.04	69.36	14.07	-39.2	-43.3	8.6	7.15e-02	0	56	0	20971520	50	5614
2026-01-01 09:54:48.05	69.17	14.11	-38.8	-42.4	9.5	2.24e-02	0	56	0	26214400	49	5394
2026-01-01 09:54:49.06	68.98	14.15	-38.4	-41.7	10.3	1.08e-02	0	56	0	32505856	48	5257
2026-01-01 09:54:50.07	68.79	14.20	-38.0	-41.0	11.2	2.68e-03	0	57	0	37748736	48	4825
2026-01-01 09:54:51.08	68.60	14.24	-37.5	-40.4	11.7	1.17e-03	0	56	0	44040192	47	4762
2026-01-01 09:54:52.09	68.41	14.28	-37.2	-39.8	12.4	2.79e-04	0	56	0	49283072	46	4743
2026-01-01 09:54:53.10	68.21	14.32	-36.9	-39.4	12.9	1.05e-04	0	57	0	54525952	45	4785
2026-01-01 09:54:54.11	68.02	14.36	-36.9	-39.3	12.9	7.66e-05	0	56	0	60817408	45	4745
2026-01-01 09:54:55.12	67.83	14.41	-36.5	-38.7	13.6	2.28e-05	0	57	0	66060288	45	4435
2026-01-01 09:54:56.13	67.64	14.45	-36.1	-38.2	14.2	1.02e-05	0	57	0	72351744	44	4405
2026-01-01 09:54:57.14	67.44	14.49	-35.5	-37.5	14.7	0.00e+00	0	57	0	77594624	43	4314
2026-01-01 09:54:58.15	67.25	14.53	-35.6	-37.6	14.7	1.10e-06	0	57	0	83886080	43	4357
2026-01-01 09:54:59.16	67.05	14.57	-35.5	-37.5	15.0	0.00e+00	0	56	0	89128960	43	4298
2026-01-01 09:55:00.17	66.86	14.61	-34.9	-36.6	15.9	0.00e+00	0	56	0	95420416	41	4386
2026-01-01 09:55:01.18	66.66	14.65	-34.2	-35.9	16.8	0.00e+00	0	57	0	100663296	40	4247
2026-01-01 09:55:02.19	66.46	14.69	-33.9	-35.4	17.4	0.00e+00	0	57	0	105906176	39	4287
2026-01-01 09:55:03.20	66.26	14.73	-34.3	-35.8	17.3	0.00e+00	0	57	0	112197632	39	4466
2026-01-01 09:55:04.21	66.07	14.77	-34.5	-36.1	17.0	0.00e+00	0	57	0	117440512	39	4632
2026-01-01 09:55:05.22	65.87	14.81	-34.7	-36.3	17.0	0.00e+00	0	57	0	123731968	39	4726
2026-01-01 09:55:06.24	65.67	14.85	-34.8	-36.4	16.9	0.00e+00	0	56	0	128974848	40	4542
2026-01-01 09:55:07.25	65.47	14.88	-34.4	-35.9	17.5	0.00e+00	0	57	0	134217728	40	4288
2026-01-01 09:55:08.26	65.27	14.92	-34.0	-35.4	18.1	0.00e+00	0	57	0	140509184	39	4280
2026-01-01 09:55:09.27	65.07	14.96	-33.8	-35.2	18.4	0.00e+00	0	56	0	145752064	39	4174
2026-01-01 09:55:10.28	64.87	15.00	-33.7	-35.1	18.5	0.00e+00	0	56	0	152043520	39	4133
2026-01-01 09:55:11.29	64.67	15.03	-33.6	-35.0	18.8	0.00e+00	0	57	0	157286400	39	4078
2026-01-01 09:55:12.30	64.46	15.07	-33.7	-35.0	18.8	0.00e+00	0	57	0	162529280	39	4084
2026-01-01 09:55:13.31	64.26	15.11	-33.4	-34.7	19.1	0.00e+00	0	57	0	168820736	38	4180
2026-01-01 09:55:14.32	64.06	15.14	-33.4	-34.7	19.1	0.00e+00	0	56	0	174063616	38	4182
2026-01-01 09:55:15.33	63.85	15.18	-33.6	-35.0	18.9	0.00e+00	0	57	0	180355072	38	4296
2026-01-01 09:55:16.34	63.65	15.22	-33.6	-34.9	19.0	0.00e+00	0	56	0	185597952	38	4281
2026-01-01 09:55:17.35	63.45	15.25	-33.7	-35.0	18.9	0.00e+00	0	57	0	191889408	38	4332
2026-01-01 09:55:18.36	63.24	15.29	-33.8	-35.1	18.8	0.00e+00	0	57	0	197132288	38	4387
2026-01-01 09:55:19.37	63.04	15.32	-33.7	-35.1	18.9	0.00e+00	0	57	0	203423744	38	4351
2026-01-01 09:55:20.38	62.83	15.36	-33.7	-35.1	18.9	0.00e+00	0	57	0	208666624	38	4349
2026-01-01 09:55:21.39	62.62	15.39	-33.8	-35.2	18.8	0.00e+00	0	56	0	213909504	38	4395
2026-01-01 09:55:22.40	62.42	15.42	-33.8	-35.1	18.8	0.00e+00	0	57	0	220200960	38	4388
2026-01-01 09:55:23.41	62.21	15.46	-33.8	-35.1	18.8	0.00e+00	0	57	0	225443840	38	4379
2026-01-01 09:55:24.42	62.00	15.49	-33.8	-35.2	18.8	0.00e+00	0	57	0	231735296	38	4429
2026-01-01 09:55:25.43	61.79	15.52	-33.8	-35.2	18.8	0.00e+00	0	57	0	236978176	38	4397
2026-01-01 09:55:26.44	61.58	15.55	-33.9	-35.2	18.7	0.00e+00	0	57	0	242221056	38	4441
2026-01-01 09:55:27.45	61.38	15.59	-33.8	-35.2	18.7	0.00e+00	0	56	0	248512512	38	4429
2026-01-01 09:55:28.46	61.17	15.62	-33.9	-35.2	18.7	0.00e+00	0	57	0	253755392	38	4430
2026-01-01 09:55:29.47	60.96	15.65	-33.7	-35.1	18.9	0.00e+00	0	57	0	260046848	38	4359
2026-01-01 09:55:30.48	60.75	15.68	-33.6	-34.9	19.0	0.00e+00	0	57	0	265289728	38	4277
2026-01-01 09:55:31.50	60.53	15.71	-33.6	-34.9	19.0	0.00e+00	0	57	0	270532608	38	4280
2026-01-01 09:55:32.51	60.32	15.74	-33.6	-34.9	19.1	0.00e+00	0	57	0	276824064	38	4272
2026-01-01 09:55:33.52	60.11	15.77	-33.6	-35.0	19.0	0.00e+00	0	57	0	282066944	38	4314
2026-01-01 09:55:34.53	59.90	15.80	-33.8	-35.2	18.8	0.00e+00	0	57	0	288358400	38	4402
2026-01-01 09:55:35.54	59.68	15.83	-33.9	-35.3	18.7	0.00e+00	0	57	0	293601280	38	4451
2026-01-01 09:55:36.55	59.47	15.86	-33.9	-35.3	18.7	0.00e+00	0	57	0	299892736	38	4465
2026-01-01 09:55:37.56	59.26	15.89	-33.9	-35.3	18.7	0.00e+00	0	57	0	305135616	38	4483
2026-01-01 09:55:38.57	59.04	15.92	-33.8	-35.2	18.8	0.00e+00	0	57	0	311427072	38	4426
2026-01-01 09:55:39.58	58.83	15.94	-33.7	-35.0	19.0	0.00e+00	0	57	0	316669952	38	4321
2026-01-01 09:55:40.59	58.62	15.97	-33.6	-35.0	19.0	0.00e+00	0	57	0	321912832	38	4296
2026-01-01 09:55:41.61	58.40	16.00	-33.6	-34.9	19.1	0.00e+00	0	57	0	328204288	38	4288
2026-01-01 09:55:42.62	58.18	16.02	-33.6	-35.0	19.0	0.00e+00	0	57	0	333447168	38	4292
2026-01-01 09:55:43.63	57.97	16.05	-33.6	-34.9	19.1	0.00e+00	0	57	0	339738624	38	4287
2026-01-01 09:55:44.64	57.75	16.08	-33.6	-35.0	19.0	0.00e+00	0	57	0	344981504	38	4312
2026-01-01 09:55:45.65	57.53	16.10	-33.6	-35.0	19.1	0.00e+00	0	57	0	350224384	38	4304
2026-01-01 09:55:46.66	57.32	16.13	-33.7	-35.0	19.0	0.00e+00	0	57	0	356515840	38	4318
2026-01-01 09:55:47.67	57.10	16.15	-33.6	-34.9	19.1	0.00e+00	0	57	0	361758720	38	4288
2026-01-01 09:55:48.68	56.88	16.18	-33.5	-34.8	19.2	0.00e+00	0	57	0	368050176	38	4236
2026-01-01 09:55:49.69	56.66	16.20	-33.6	-34.9	19.1	0.00e+00	0	56	0	373293056	38	4275
2026-01-01 09:55:50.70	56.45	16.22	-33.8	-35.0	19.5	0.00e+00	0	57	0	378535936	38	4323
2026-01-01 09:55:51.71	56.23	16.25	-33.9	-35.1	19.4	0.00e+00	0	57	0	384827392	38	4364
2026-01-01 09:55:52.72	56.01	16.27	-33.8	-35.0	19.5	0.00e+00	0	57	0	390070272	38	4305
2026-01-01 09:55:53.73	55.79	16.29	-33.8	-35.0	19.5	0.00e+00	0	57	0	396361728	38	4318
2026-01-01 09:55:54.74	55.57	16.31	-33.9	-35.1	19.5	0.00e+00	0	57	0	401604608	38	4348
2026-01-01 09:55:55.75	55.35	16.33	-33.8	-35.0	19.5	0.00e+00	0	57	0	407896064	38	4320
2026-01-01 09:55:56.76	55.13	16.36	-33.9	-35.1	19.5	0.00e+00	0	57	0	413138944	38	4346
2026-01-01 09:55:57.77	54.91	16.38	-33.6	-34.8	19.7	0.00e+00	0	57	0	419430400	38	4216
2026-01-01 09:55:58.78	54.69	16.40	-33.6	-34.8	19.7	0.00e+00	0	57	0	424673280	38	4220
2026-01-01 09:55:59.79	54.47	16.42	-33.6	-34.8	19.7	0.00e+00	0	57	0	429916160	38	4213
2026-01-01 09:56:00.80	54.25	16.44	-33.6	-34.8	19.7	0.00e+00	0	57	0	436207616	38	4204
2026-01-01 09:56:01.81	54.02	16.45	-33.4	-34.6	19.9	0.00e+00	0	57	0	441450496	38	4103
2026-01-01 09:56:02.82	53.80	16.47	-33.4	-34.5	20.0	0.00e+00	0	57	0	447741952	38	4074
2026-01-01 09:56:03.83	53.58	16.49	-33.5	-34.6	19.9	0.00e+00	0	57	0	452984832	38	4137
2026-01-01 09:56:04.84	53.36	16.51	-33.6	-34.7	19.8	0.00e+00	0	57	0	458227712	38	4183
2026-01-01 09:56:05.85	53.13	16.53	-33.7	-34.8	19.7	0.00e+00	0	57	0	464519168	38	4241
2026-01-01 09:56:06.86	52.91	16.54	-33.6	-34.8	19.8	0.00e+00	0	57	0	469762048	38	4195
2026-01-01 09:56:07.87	52.69	16.56	-33.6	-34.8	19.8	0.00e+00	0	57	0	476053504	38	4195
2026-01-01 09:56:08.88	52.46	16.58	-33.5	-34.7	19.8	0.00e+00	0	57	0	481296384	38	4163
2026-01-01 09:56:09.89	52.24	16.59	-33.5	-34.7	19.9	0.00e+00	0	57	0	486539264	38	4150
2026-01-01 09:56:10.90	52.02	16.61	-33.5	-34.7	19.9	0.00e+00	0	57	0	492830720	38	4147
2026-01-01 09:56:11.91	51.79	16.62	-33.6	-34.8	19.8	0.00e+00	0	57	0	498073600	38	4208
2026-01-01 09:56:12.92	51.57	16.63	-33.7	-34.9	19.6	0.00e+00	0	57	0	504365056	38	4273
2026-01-01 09:56:13.93	51.34	16.65	-33.9	-35.1	19.5	0.00e+00	0	57	0	509607936	38	4341
2026-01-01 09:56:14.94	51.12	16.66	-34.0	-35.2	19.4	0.00e+00	0	57	0	515899392	38	4425
2026-01-01 09:56:15.95	50.89	16.68	-33.9	-35.1	19.5	0.00e+00	0	57	0	521142272	38	4377
2026-01-01 09:56:16.96	50.67	16.69	-33.8	-35.0	19.5	0.00e+00	0	57	0	526385152	38	4328
2026-01-01 09:56:17.97	50.44	16.70	-33.8	-35.0	19.6	0.00e+00	0	57	0	532676608	38	4299
2026-01-01 09:56:18.98	50.22	16.71	-33.6	-34.8	19.7	0.00e+00	0	57	0	537919488	38	4225
2026-01-01 09:56:19.99	49.99	16.72	-33.5	-34.7	19.9	0.00e+00	0	57	0	544210944	38	4161
2026-01-01 09:56:21.00	49.77	16.73	-33.6	-34.8	19.8	0.00e+00	0	57	0	549453824	38	4199
2026-01-01 09:56:22.01	49.54	16.74	-33.5	-34.6	19.9	0.00e+00	0	57	0	555745280	38	4141
2026-01-01 09:56:23.03	49.31	16.75	-33.4	-34.5	20.0	0.00e+00	0	57	0	560988160	38	4087
2026-01-01 09:56:24.04	49.08	16.76	-33.4	-34.6	20.0	0.00e+00	0	57	0	566231040	38	4106
2026-01-01 09:56:25.05	48.86	16.77	-33.4	-34.5	20.1	0.00e+00	0	57	0	572522496	38	4078
2026-01-01 09:56:26.06	48.63	16.78	-33.3	-34.5	20.1	0.00e+00	0	57	0	577765376	38	4058
2026-01-01 09:56:27.07	48.40	16.79	-33.3	-34.4	20.1	0.00e+00	0	57	0	584056832	38	4032
2026-01-01 09:56:28.08	48.18	16.80	-33.3	-34.4	20.1	0.00e+00	0	57	0	589299712	38	4031
2026-01-01 09:56:29.09	47.95	16.80	-33.2	-34.3	20.2	0.00e+00	0	57	0	594542592	38	3997
2026-01-01 09:56:30.10	47.72	16.81	-33.2	-34.4	20.2	0.00e+00	0	57	0	600834048	38	4009
2026-01-01 09:56:31.11	47.50	16.81	-33.3	-34.4	20.1	0.00e+00	0	57	0	606076928	38	4044
2026-01-01 09:56:32.12	47.27	16.82	-33.4	-34.6	20.0	0.00e+00	0	57	0	612368384	38	4103
2026-01-01 09:56:33.13	47.04	16.83	-33.4	-34.6	20.0	0.00e+00	0	57	0	617611264	38	4104
2026-01-01 09:56:34.14	46.81	16.83	-33.5	-34.6	20.0	0.00e+00	0	57	0	623902720	38	4128
2026-01-01 09:56:35.15	46.59	16.83	-33.5	-34.7	19.9	0.00e+00	0	57	0	629145600	38	4161
2026-01-01 09:56:36.16	46.36	16.84	-33.6	-34.8	19.8	0.00e+00	0	57	0	634388480	38	4228
2026-01-01 09:56:37.16	46.13	16.84	-33.7	-34.9	19.7	0.00e+00	0	57	0	640679936	38	4253
2026-01-01 09:56:38.17	45.91	16.85	-33.7	-34.8	19.7	0.00e+00	0	57	0	645922816	38	4241
2026-01-01 09:56:39.19	45.68	16.85	-33.6	-34.7	19.8	0.00e+00	0	57	0	652214272	38	4193
2026-01-01 09:56:40.20	45.45	16.85	-33.6	-34.7	19.9	0.00e+00	0	57	0	657457152	38	4188
2026-01-01 09:56:41.21	45.22	16.85	-33.7	-34.8	19.8	0.00e+00	0	57	0	662700032	38	4238
2026-01-01 09:56:42.22	44.99	16.85	-33.8	-34.9	19.7	0.00e+00	0	57	0	668991488	38	4290
2026-01-01 09:56:43.23	44.77	16.85	-33.7	-34.9	19.7	0.00e+00	0	57	0	674234368	38	4270
2026-01-01 09:56:44.23	44.54	16.85	-33.7	-34.9	19.7	0.00e+00	0	57	0	680525824	38	4271
2026-01-01 09:56:45.25	44.31	16.85	-33.8	-35.0	19.6	0.00e+00	0	57	0	685768704	38	4294
2026-01-01 09:56:46.26	44.08	16.85	-33.7	-34.8	19.8	0.00e+00	0	57	0	691011584	38	4231
2026-01-01 09:56:47.27	43.86	16.85	-33.6	-34.8	19.8	0.00e+00	0	57	0	697303040	38	4223
2026-01-01 09:56:48.28	43.63	16.85	-33.7	-34.8	19.8	0.00e+00	0	57	0	702545920	38	4234
2026-01-01 09:56:49.29	43.40	16.85	-33.7	-34.9	19.8	0.00e+00	0	57	0	708837376	38	4243
2026-01-01 09:56:50.30	43.17	16.84	-33.6	-34.7	19.9	0.00e+00	0	57	0	714080256	38	4178
2026-01-01 09:56:51.31	42.94	16.84	-33.4	-34.6	20.0	0.00e+00	0	57	0	720371712	38	4121
2026-01-01 09:56:52.32	42.72	16.84	-33.3	-34.5	20.2	0.00e+00	0	57	0	725614592	38	4052
2026-01-01 09:56:53.33	42.49	16.83	-33.3	-34.4	20.2	0.00e+00	0	57	0	731906048	38	4027
2026-01-01 09:56:54.34	42.26	16.83	-33.3	-34.5	20.2	0.00e+00	0	57	0	737148928	38	4054
2026-01-01 09:56:55.35	42.04	16.82	-33.4	-34.6	20.0	0.00e+00	0	57	0	742391808	38	4109
2026-01-01 09:56:56.36	41.81	16.82	-33.5	-34.7	19.9	0.00e+00	0	57	0	748683264	38	4159
2026-01-01 09:56:57.37	41.58	16.81	-33.5	-34.7	19.9	0.00e+00	0	57	0	753926144	38	4177
2026-01-01 09:56:58.38	41.35	16.81	-33.4	-34.6	20.0	0.00e+00	0	57	0	760217600	38	4106
2026-01-01 09:56:59.39	41.13	16.80	-33.3	-34.5	20.1	0.00e+00	0	57	0	765460480	38	4054
2026-01-01 09:57:00.40	40.90	16.79	-33.3	-34.4	20.1	0.00e+00	0	57	0	770703360	38	4050
2026-01-01 09:57:01.41	40.67	16.79	-33.4	-34.5	20.1	0.00e+00	0	57	0	776994816	38	4089
2026-01-01 09:57:02.42	40.45	16.78	-33.5	-34.7	20.0	0.00e+00	0	57	0	782237696	38	4148
2026-01-01 09:57:03.44	40.22	16.77	-33.4	-34.6	20.0	0.00e+00	0	57	0	788529152	38	4114
2026-01-01 09:57:04.45	39.99	16.76	-33.5	-34.6	20.0	0.00e+00	0	57	0	793772032	38	4145
2026-01-01 09:57:05.46	39.77	16.75	-33.5	-34.6	20.0	0.00e+00	0	57	0	799014912	38	4131
2026-01-01 09:57:06.47	39.54	16.74	-33.5	-34.7	19.9	0.00e+00	0	57	0	805306368	38	4170
2026-01-01 09:57:07.48	39.31	16.73	-33.6	-34.8	19.8	0.00e+00	0	57	0	810549248	38	4200
2026-01-01 09:57:08.49	39.09	16.72	-33.7	-34.9	19.7	0.00e+00	0	57	0	816840704	38	4255
2026-01-01 09:57:09.50	38.86	16.71	-33.8	-35.0	19.6	0.00e+00	0	57	0	822083584	38	4321
2026-01-01 09:57:10.51	38.64	16.70	-33.9	-35.1	19.6	0.00e+00	0	57	0	828375040	38	4342
2026-01-01 09:57:11.52	38.41	16.68	-33.7	-34.9	19.7	0.00e+00	0	57	0	833617920	38	4248
2026-01-01 09:57:12.53	38.19	16.67	-33.5	-34.7	19.9	0.00e+00	0	57	0	839909376	38	4170
2026-01-01 09:57:13.54	37.96	16.66	-33.5	-34.6	20.0	0.00e+00	0	57	0	845152256	38	4137
2026-01-01 09:57:14.55	37.74	16.65	-33.5	-34.6	20.0	0.00e+00	0	57	0	850395136	38	4136
2026-01-01 09:57:15.56	37.51	16.63	-33.5	-34.6	20.0	0.00e+00	0	57	0	856686592	38	4122
2026-01-01 09:57:16.57	37.29	16.62	-33.5	-34.6	20.0	0.00e+00	0	57	0	861929472	38	4140
2026-01-01 09:57:17.58	37.07	16.60	-33.5	-34.6	20.0	0.00e+00	0	57	0	868220928	38	4145
2026-01-01 09:57:18.59	36.84	16.59	-33.5	-34.7	19.9	0.00e+00	0	57	0	873463808	38	4164
2026-01-01 09:57:19.60	36.62	16.57	-33.6	-34.8	19.8	0.00e+00	0	57	0	878706688	38	4222
2026-01-01 09:57:20.62	36.39	16.56	-33.7	-34.8	19.8	0.00e+00	0	57	0	884998144	38	4228
2026-01-01 09:57:21.63	36.17	16.54	-33.6	-34.8	19.8	0.00e+00	0	57	0	890241024	38	4227
2026-01-01 09:57:22.64	35.95	16.52	-33.7	-34.8	19.8	0.00e+00	0	57	0	896532480	38	4232
2026-01-01 09:57:23.65	35.72	16.50	-33.7	-34.8	19.8	0.00e+00	0	57	0	901775360	38	4229
2026-01-01 09:57:24.66	35.50	16.49	-33.7	-34.8	19.8	0.00e+00	0	57	0	907018240	38	4237
2026-01-01 09:57:25.67	35.28	16.47	-33.5	-34.7	19.9	0.00e+00	0	57	0	913309696	38	4169
2026-01-01 09:57:26.68	35.06	16.45	-33.5	-34.7	19.9	0.00e+00	0	57	0	918552576	38	4147
2026-01-01 09:57:27.69	34.84	16.43	-33.5	-34.7	19.9	0.00e+00	0	57	0	924844032	38	4163
2026-01-01 09:57:28.70	34.62	16.41	-33.6	-34.8	19.8	0.00e+00	0	57	0	930086912	38	4194
2026-01-01 09:57:29.71	34.40	16.39	-33.6	-34.7	19.9	0.00e+00	0	57	0	936378368	38	4190
2026-01-01 09:57:30.72	34.18	16.37	-33.6	-34.8	19.8	0.00e+00	0	57	0	941621248	38	4210
2026-01-01 09:57:31.73	33.96	16.35	-33.7	-34.9	19.7	0.00e+00	0	57	0	947912704	38	4257
2026-01-01 09:57:32.74	33.74	16.33	-33.8	-35.0	19.6	0.00e+00	0	57	0	953155584	38	4304
2026-01-01 09:57:33.75	33.52	16.31	-33.9	-35.1	19.6	0.00e+00	0	57	0	958398464	38	4350
2026-01-01 09:57:34.76	33.30	16.29	-33.9	-35.1	19.5	0.00e+00	0	57	0	964689920	38	4388
2026-01-01 09:57:35.77	33.08	16.26	-33.9	-35.1	19.5	0.00e+00	0	57	0	969932800	38	4355
2026-01-01 09:57:36.78	32.86	16.24	-33.9	-35.1	19.5	0.00e+00	0	57	0	976224256	38	4380
2026-01-01 09:57:37.79	32.64	16.22	-33.9	-35.0	19.6	0.00e+00	0	57	0	981467136	38	4328
2026-01-01 09:57:38.80	32.42	16.19	-33.7	-34.9	19.7	0.00e+00	0	57	0	986710016	38	4247
2026-01-01 09:57:39.81	32.21	16.17	-33.7	-34.9	19.7	0.00e+00	0	57	0	993001472	38	4258
2026-01-01 09:57:40.82	31.99	16.15	-33.8	-34.9	19.7	0.00e+00	0	57	0	998244352	38	4276
2026-01-01 09:57:41.83	31.77	16.12	-33.8	-34.9	19.6	0.00e+00	0	57	0	1004535808	38	4290
2026-01-01 09:57:42.84	31.56	16.10	-33.8	-35.0	19.6	0.00e+00	0	57	0	1009778688	38	4318
2026-01-01 09:57:43.85	31.34	16.07	-33.8	-35.0	19.6	0.00e+00	0	57	0	1015021568	38	4329
2026-01-01 09:57:44.86	31.12	16.04	-33.8	-35.0	19.6	0.00e+00	0	57	0	1021313024	38	4327
2026-01-01 09:57:45.88	30.91	16.02	-33.7	-34.9	19.7	0.00e+00	0	57	0	1026555904	38	4257
2026-01-01 09:57:46.88	30.69	15.99	-33.7	-34.8	19.8	0.00e+00	0	57	0	1032847360	38	4242
2026-01-01 09:57:47.90	30.48	15.96	-33.8	-35.0	19.6	0.00e+00	0	57	0	1038090240	38	4312
2026-01-01 09:57:48.91	30.26	15.94	-33.9	-35.1	19.4	0.00e+00	0	57	0	1044381696	38	4386
2026-01-01 09:57:49.92	30.05	15.91	-34.0	-35.2	19.4	0.00e+00	0	57	0	1049624576	38	4425
2026-01-01 09:57:50.92	29.84	15.88	-34.0	-35.2	19.4	0.00e+00	0	57	0	1055916032	38	4416
2026-01-01 09:57:51.93	29.62	15.85	-34.0	-35.2	19.4	0.00e+00	0	57	0	1061158912	38	4424
2026-01-01 09:57:52.94	29.41	15.82	-33.9	-35.1	19.5	0.00e+00	0	57	0	1066401792	38	4369
2026-01-01 09:57:53.95	29.20	15.79	-33.8	-35.0	19.6	0.00e+00	0	57	0	1072693248	38	4305
2026-01-01 09:57:54.96	28.99	15.77	-33.9	-35.1	19.5	0.00e+00	0	58	0	1077936128	38	4356
2026-01-01 09:57:55.97	28.78	15.74	-34.0	-35.2	19.4	0.00e+00	0	57	0	1084227584	38	4418
2026-01-01 09:57:56.98	28.57	15.70	-34.2	-35.4	19.2	0.00e+00	0	57	0	1089470464	38	4517
2026-01-01 09:57:57.99	28.36	15.67	-33.9	-35.1	19.4	0.00e+00	0	57	0	1094713344	38	4386
2026-01-01 09:57:59.01	28.14	15.64	-33.8	-35.0	19.6	0.00e+00	0	57	0	1101004800	38	4328
2026-01-01 09:58:00.02	27.94	15.61	-33.8	-35.0	19.6	0.00e+00	0	57	0	1106247680	38	4311
2026-01-01 09:58:01.02	27.73	15.58	-33.9	-35.1	19.5	0.00e+00	0	57	0	1112539136	38	4347
2026-01-01 09:58:02.03	27.52	15.55	-33.8	-35.0	19.6	0.00e+00	0	57	0	1117782016	38	4314
2026-01-01 09:58:03.04	27.31	15.52	-33.9	-35.1	19.5	0.00e+00	0	57	0	1123024896	38	4345
2026-01-01 09:58:04.06	27.10	15.48	-34.0	-35.2	19.4	0.00e+00	0	57	0	1129316352	38	4403
2026-01-01 09:58:05.07	26.89	15.45	-33.9	-35.1	19.5	0.00e+00	0	57	0	1134559232	38	4372
2026-01-01 09:58:06.08	26.69	15.42	-34.0	-35.2	19.3	0.00e+00	0	57	0	1140850688	38	4405
2026-01-01 09:58:07.09	26.48	15.38	-34.1	-35.3	19.3	0.00e+00	0	58	0	1146093568	38	4452
2026-01-01 09:58:08.10	26.28	15.35	-34.1	-35.3	19.2	0.00e+00	0	58	0	1152385024	38	4491
2026-01-01 09:58:09.11	26.07	15.31	-34.0	-35.3	19.3	0.00e+00	0	57	0	1157627904	38	4443
2026-01-01 09:58:10.12	25.87	15.28	-34.1	-35.3	19.3	0.00e+00	0	57	0	1163919360	38	4459
2026-01-01 09:58:11.13	25.66	15.24	-34.1	-35.3	19.3	0.00e+00	0	57	0	1169162240	38	4459
2026-01-01 09:58:12.14	25.46	15.21	-34.1	-35.4	19.1	0.00e+00	0	57	0	1174405120	38	4497
2026-01-01 09:58:13.15	25.25	15.17	-34.1	-35.3	19.2	0.00e+00	0	57	0	1180696576	38	4464
2026-01-01 09:58:14.16	25.05	15.14	-34.1	-35.3	19.2	0.00e+00	0	57	0	1185939456	38	4453
2026-01-01 09:58:15.17	24.85	15.10	-34.1	-35.4	19.2	0.00e+00	0	58	0	1192230912	38	4497
2026-01-01 09:58:16.18	24.65	15.06	-34.2	-35.5	19.0	0.00e+00	0	57	0	1197473792	39	4296
2026-01-01 09:58:17.19	24.45	15.03	-34.4	-35.6	18.9	0.00e+00	0	57	0	1202716672	39	4362
2026-01-01 09:58:18.20	24.25	14.99	-34.2	-35.4	19.1	0.00e+00	0	57	0	1209008128	39	4280
2026-01-01 09:58:19.21	24.05	14.95	-34.1	-35.3	19.2	0.00e+00	0	57	0	1214251008	39	4228
2026-01-01 09:58:20.22	23.85	14.92	-34.1	-35.3	19.2	0.00e+00	0	57	0	1220542464	39	4229
2026-01-01 09:58:21.23	23.65	14.88	-34.2	-35.4	19.1	0.00e+00	0	57	0	1225785344	39	4288
2026-01-01 09:58:22.24	23.45	14.84	-34.3	-35.5	19.0	0.00e+00	0	57	0	1231028224	39	4326
2026-01-01 09:58:23.25	23.25	14.80	-34.2	-35.4	19.0	0.00e+00	0	57	0	1237319680	39	4277
2026-01-01 09:58:24.26	23.05	14.76	-34.2	-35.4	19.1	0.00e+00	0	57	0	1242562560	39	4278
2026-01-01 09:58:25.27	22.85	14.72	-34.3	-35.5	19.0	0.00e+00	0	57	0	1248854016	39	4318
2026-01-01 09:58:26.28	22.66	14.68	-34.3	-35.5	19.0	0.00e+00	0	57	0	1254096896	39	4313
2026-01-01 09:58:27.30	22.46	14.64	-34.2	-35.4	19.1	0.00e+00	0	57	0	1260388352	39	4266
2026-01-01 09:58:28.31	22.26	14.60	-34.2	-35.5	19.0	0.00e+00	0	58	0	1265631232	39	4293
2026-01-01 09:58:29.32	22.07	14.56	-34.3	-35.6	18.9	0.00e+00	0	57	0	1271922688	39	4351
2026-01-01 09:58:30.33	21.88	14.52	-34.3	-35.6	18.9	0.00e+00	0	57	0	1277165568	39	4345
2026-01-01 09:58:31.34	21.68	14.48	-34.2	-35.5	19.0	0.00e+00	0	57	0	1282408448	39	4302
2026-01-01 09:58:32.35	21.49	14.44	-34.2	-35.4	19.0	0.00e+00	0	57	0	1288699904	39	4282
2026-01-01 09:58:33.36	21.30	14.40	-34.2	-35.4	19.1	0.00e+00	0	57	0	1293942784	39	4261
2026-01-01 09:58:34.37	21.10	14.36	-34.2	-35.5	19.0	0.00e+00	0	58	0	1300234240	39	4297
2026-01-01 09:58:35.38	20.91	14.32	-34.2	-35.4	19.0	0.00e+00	0	58	0	1305477120	39	4281
2026-01-01 09:58:36.39	20.72	14.27	-34.3	-35.6	18.9	0.00e+00	0	57	0	1310720000	39	4348
2026-01-01 09:58:37.40	20.53	14.23	-34.3	-35.6	18.9	0.00e+00	0	57	0	1317011456	39	4353
2026-01-01 09:58:38.41	20.34	14.19	-34.4	-35.6	18.9	0.00e+00	0	57	0	1322254336	39	4369
2026-01-01 09:58:39.42	20.15	14.15	-34.3	-35.6	18.9	0.00e+00	0	58	0	1328545792	39	4344
2026-01-01 09:58:40.43	19.96	14.10	-34.3	-35.6	18.8	0.00e+00	0	57	0	1333788672	39	4349
2026-01-01 09:58:41.44	19.77	14.06	-34.4	-35.7	18.8	0.00e+00	0	58	0	1339031552	39	4393
2026-01-01 09:58:42.46	19.58	14.02	-34.5	-35.8	18.7	0.00e+00	0	58	0	1345323008	39	4453
2026-01-01 09:58:43.47	19.40	13.97	-34.6	-35.9	18.5	0.00e+00	0	58	0	1350565888	39	4504
2026-01-01 09:58:44.48	19.21	13.93	-34.7	-36.0	18.4	0.00e+00	0	57	0	1356857344	40	4306
2026-01-01 09:58:45.49	19.02	13.88	-34.8	-36.1	18.3	0.00e+00	0	57	0	1362100224	40	4367
2026-01-01 09:58:46.50	18.84	13.84	-34.8	-36.1	18.3	0.00e+00	0	58	0	1368391680	40	4366
2026-01-01 09:58:47.51	18.65	13.80	-34.8	-36.1	18.2	0.00e+00	0	57	0	1373634560	40	4376
2026-01-01 09:58:48.52	18.47	13.75	-34.7	-36.0	18.4	0.00e+00	0	58	0	1379926016	40	4297
2026-01-01 09:58:49.53	18.28	13.71	-34.6	-35.8	18.5	0.00e+00	0	57	0	1385168896	40	4242
2026-01-01 09:58:50.54	18.10	13.66	-34.6	-35.9	18.5	0.00e+00	0	57	0	1390411776	40	4244
2026-01-01 09:58:51.55	17.92	13.61	-34.6	-35.9	18.4	0.00e+00	0	58	0	1396703232	40	4270
2026-01-01 09:58:52.56	17.74	13.57	-34.7	-36.0	18.4	0.00e+00	0	57	0	1401946112	40	4315
2026-01-01 09:58:53.57	17.55	13.52	-34.6	-35.9	18.4	0.00e+00	0	58	0	1408237568	40	4280
2026-01-01 09:58:54.58	17.37	13.48	-34.6	-35.9	18.4	0.00e+00	0	57	0	1413480448	40	4288
2026-01-01 09:58:55.59	17.19	13.43	-34.7	-36.0	18.3	0.00e+00	0	57	0	1418723328	40	4310
2026-01-01 09:58:56.60	17.01	13.38	-34.7	-36.1	18.2	0.00e+00	0	57	0	1425014784	40	4342
2026-01-01 09:58:57.61	16.83	13.34	-34.9	-36.2	18.1	0.00e+00	0	58	0	1430257664	40	4412
2026-01-01 09:58:58.62	16.65	13.29	-35.0	-36.4	17.9	0.00e+00	0	58	0	1436549120	40	4515
2026-01-01 09:58:59.63	16.48	13.24	-35.0	-36.4	17.9	0.00e+00	0	57	0	1441792000	40	4502
2026-01-01 09:59:00.65	16.30	13.20	-34.9	-36.3	18.0	0.00e+00	0	57	0	1447034880	40	4461
2026-01-01 09:59:01.66	16.12	13.15	-34.9	-36.2	18.0	0.00e+00	0	57	0	1453326336	40	4439
2026-01-01 09:59:02.67	15.94	13.10	-34.9	-36.2	18.1	0.00e+00	0	57	0	1458569216	40	4428
2026-01-01 09:59:03.68	15.77	13.05	-34.8	-36.1	18.1	0.00e+00	0	57	0	1464860672	40	4384
2026-01-01 09:59:04.69	15.59	13.01	-34.7	-36.0	18.2	0.00e+00	0	58	0	1470103552	40	4340
2026-01-01 09:59:05.70	15.42	12.96	-34.7	-36.0	18.3	0.00e+00	0	57	0	1475346432	40	4293
2026-01-01 09:59:06.71	15.24	12.91	-34.7	-36.0	18.2	0.00e+00	0	57	0	1481637888	40	4339
2026-01-01 09:59:07.72	15.07	12.86	-34.8	-36.1	18.2	0.00e+00	0	57	0	1487929344	40	4374
2026-01-01 09:59:08.73	14.90	12.81	-34.8	-36.1	18.2	0.00e+00	0	57	0	1493172224	40	4359
2026-01-01 09:59:09.74	14.72	12.76	-34.7	-36.0	18.2	0.00e+00	0	58	0	1498415104	40	4322
2026-01-01 09:59:10.75	14.55	12.72	-34.7	-36.0	18.2	0.00e+00	0	58	0	1504706560	40	4328
2026-01-01 09:59:11.76	14.38	12.67	-34.6	-35.9	18.3	0.00e+00	0	58	0	1509949440	40	4273
2026-01-01 09:59:12.77	14.21	12.62	-34.6	-36.0	18.3	0.00e+00	0	57	0	1516240896	40	4298
2026-01-01 09:59:13.78	14.04	12.57	-34.6	-35.9	18.3	0.00e+00	0	58	0	1521483776	40	4280
2026-01-01 09:59:14.78	13.87	12.52	-34.6	-35.9	18.3	0.00e+00	0	58	0	1526726656	40	4257
2026-01-01 09:59:15.80	13.70	12.47	-34.7	-36.1	18.1	0.00e+00	0	57	0	1533018112	40	4342
2026-01-01 09:59:16.81	13.53	12.42	-34.8	-36.2	18.0	0.00e+00	0	57	0	1538260992	40	4399
2026-01-01 09:59:17.82	13.37	12.37	-34.9	-36.2	17.9	0.00e+00	0	58	0	1544552448	40	4439
2026-01-01 09:59:18.83	13.20	12.32	-34.8	-36.2	18.0	0.00e+00	0	57	0	1549795328	40	4403
2026-01-01 09:59:19.84	13.03	12.27	-34.7	-36.1	18.1	0.00e+00	0	58	0	1555038208	40	4345
2026-01-01 09:59:20.85	12.87	12.22	-34.7	-36.0	18.1	0.00e+00	0	57	0	1561329664	40	4326
2026-01-01 09:59:21.86	12.70	12.17	-34.7	-36.0	18.1	0.00e+00	0	58	0	1566572544	40	4313
2026-01-01 09:59:22.87	12.54	12.12	-34.6	-36.0	18.2	0.00e+00	0	57	0	1572864000	40	4292
2026-01-01 09:59:23.88	12.37	12.07	-34.7	-36.1	18.0	0.00e+00	0	57	0	1578106880	40	4356
2026-01-01 09:59:24.89	12.21	12.02	-34.9	-36.2	17.9	0.00e+00	0	57	0	1584398336	40	4421
2026-01-01 09:59:25.90	12.05	11.97	-35.0	-36.4	17.7	0.00e+00	0	57	0	1589641216	40	4507
2026-01-01 09:59:26.91	11.88	11.92	-35.0	-36.4	17.6	0.00e+00	0	57	0	1594884096	40	4529
2026-01-01 09:59:27.92	11.72	11.86	-35.0	-36.4	17.6	0.00e+00	0	57	0	1601175552	40	4529
2026-01-01 09:59:28.93	11.56	11.81	-35.0	-36.4	17.6	0.00e+00	0	57	0	1606418432	40	4505
2026-01-01 09:59:29.94	11.40	11.76	-34.9	-36.3	17.7	0.00e+00	0	57	0	1612709888	40	4445
2026-01-01 09:59:30.95	11.24	11.71	-35.0	-36.4	17.5	0.00e+00	0	57	0	1617952768	40	4504
2026-01-01 09:59:31.96	11.08	11.66	-35.1	-36.6	17.1	0.00e+00	0	58	0	1623195648	40	4618
2026-01-01 09:59:32.97	10.92	11.61	-35.5	-37.0	16.5	0.00e+00	0	57	0	1629487104	41	4587
2026-01-01 09:59:33.98	10.76	11.55	-35.9	-37.6	15.8	0.00e+00	0	58	0	1634729984	42	4615
2026-01-01 09:59:34.99	10.60	11.50	-36.4	-38.3	14.7	0.00e+00	0	57	0	1641021440	43	4713
2026-01-01 09:59:36.00	10.45	11.45	-37.1	-39.2	13.8	1.14e-05	0	58	0	1646264320	44	4950
2026-01-01 09:59:37.01	10.29	11.40	-37.6	-40.1	12.5	8.69e-05	0	57	0	1651507200	45	5167
2026-01-01 09:59:38.02	10.13	11.35	-38.0	-40.9	11.5	9.15e-04	0	58	0	1657798656	46	5357
2026-01-01 09:59:39.03	9.98	11.29	-38.4	-41.6	10.3	4.14e-03	0	58	0	1663041536	47	5516
2026-01-01 09:59:40.04	9.82	11.24	-38.7	-42.3	9.4	1.29e-02	0	58	0	1669332992	47	5979
2026-01-01 09:59:41.05	9.67	11.19	-39.0	-43.0	8.5	3.99e-02	0	57	0	1674575872	48	6124
2026-01-01 09:59:42.06	9.51	11.14	-39.1	-43.5	7.9	7.24e-02	0	58	0	1680867328	48	6493
2026-01-01 09:59:43.07	9.36	11.08	-39.2	-44.1	7.2	1.39e-01	0	58	0	1686110208	48	6903
2026-01-01 09:59:44.08	9.21	11.03	-39.4	-44.8	6.4	2.23e-01	0	57	0	1692401664	49	7116
2026-01-01 09:59:45.09	9.06	10.98	-39.6	-45.7	5.6	5.01e-01	0	58	0	1697644544	49	7871
2026-01-01 09:59:46.10	8.90	10.93	-39.7	-46.6	4.9	7.53e-01	0	57	0	1697644544	49	8747
2026-01-01 09:59:47.11	8.75	10.87	-39.8	-47.4	4.5	8.12e-01	0	58	0	1698693120	50	9053
2026-01-01 09:59:48.12	8.60	10.82	-39.8	-48.1	4.3	8.31e-01	0	58	0	1698693120	50	9728
2026-01-01 09:59:49.13	8.45	10.77	-39.8	-48.6	4.1	8.39e-01	0	58	0	1698693120	50	10369
2026-01-01 09:59:50.14	8.30	10.71	-39.8	-49.2	3.9	8.42e-01	0	57	104	1698693120	50	11092
2026-01-01 09:59:51.15	8.15	10.66	-39.8	-49.3	4.0	8.42e-01	0	58	104	1698693120	50	11173
2026-01-01 09:59:52.17	8.00	10.61	-39.8	-49.6	3.8	8.45e-01	0	58	104	1698693120	50	11587
2026-01-01 09:59:53.18	7.86	10.55	-39.8	-49.9	3.8	8.44e-01	0	58	104	1698693120	50	12031
2026-01-01 09:59:54.19	7.71	10.50	-39.8	-50.5	3.8	8.45e-01	0	58	104	1698693120	50	12833
2026-01-01 09:59:55.20	7.56	10.44	-39.8	-50.9	3.8	8.46e-01	0	58	104	1698693120	50	13422
2026-01-01 09:59:56.21	7.42	10.39	-39.8	-51.2	3.8	8.45e-01	0	58	104	1698693120	50	13897
2026-01-01 09:59:57.22	7.27	10.34	-39.8	-51.4	3.8	8.47e-01	0	58	104	1698693120	50	14251
2026-01-01 09:59:58.23	7.13	10.28	-39.7	-51.3	3.8	8.46e-01	0	58	104	1698693120	50	14150
2026-01-01 09:59:59.24	6.98	10.23	-39.8	-51.4	3.8	8.47e-01	0	58	104	1698693120	50	14280
2026-01-01 10:00:00.25	6.84	10.18	-40.0	-51.7	3.8	8.46e-01	0	58	104	1698693120	50	14754
2026-01-01 10:00:01.26	6.69	10.12	-39.6	-51.3	3.8	8.45e-01	0	58	104	1698693120	50	14076
2026-01-01 10:00:02.27	6.55	10.07	-40.0	-51.6	3.8	8.45e-01	0	58	104	1698693120	50	14686
2026-01-01 10:00:03.28	6.41	10.01	-39.6	-51.2	3.8	8.46e-01	0	57	104	1698693120	50	14022
2026-01-01 10:00:04.29	6.27	9.96	-39.5	-51.1	3.8	8.46e-01	0	58	104	1698693120	50	13884
2026-01-01 10:00:05.30	6.13	9.91	-39.6	-51.3	3.8	8.48e-01	0	58	104	1698693120	50	14078
2026-01-01 10:00:06.31	5.98	9.85	-39.5	-51.1	3.8	8.46e-01	0	58	104	1698693120	50	13836
2026-01-01 10:00:07.32	5.84	9.80	-39.5	-51.1	3.8	8.46e-01	0	58	104	1698693120	50	13864
2026-01-01 10:00:08.33	5.71	9.74	-39.5	-51.2	3.8	8.46e-01	0	58	104	1698693120	50	13890
2026-01-01 10:00:09.34	5.57	9.69	-39.6	-51.2	3.8	8.46e-01	0	58	104	1698693120	50	13960
2026-01-01 10:00:10.35	5.43	9.63	-39.5	-51.2	3.8	8.46e-01	0	58	104	1698693120	50	13971
2026-01-01 10:00:11.36	5.29	9.58	-39.7	-51.3	3.8	8.45e-01	0	58	104	1698693120	50	14194
2026-01-01 10:00:12.37	5.15	9.52	-39.6	-51.3	3.8	8.46e-01	0	58	104	1698693120	50	14190
2026-01-01 10:00:13.38	5.01	9.47	-39.6	-51.2	3.8	8.47e-01	0	58	104	1698693120	50	14003
2026-01-01 10:00:14.39	4.88	9.42	-39.6	-51.3	3.8	8.46e-01	0	58	104	1698693120	50	14144
2026-01-01 10:00:15.40	4.74	9.36	-39.6	-51.3	3.8	8.46e-01	0	58	104	1698693120	50	14108
2026-01-01 10:00:16.41	4.61	9.31	-39.6	-51.3	3.8	8.45e-01	0	58	104	1698693120	50	14171
2026-01-01 10:00:17.42	4.47	9.25	-39.6	-51.2	3.8	8.47e-01	0	58	104	1698693120	50	14018
2026-01-01 10:00:18.44	4.34	9.20	-39.7	-51.3	3.8	8.46e-01	0	58	104	1698693120	50	14171
2026-01-01 10:00:19.45	4.20	9.14	-39.6	-51.3	3.8	8.46e-01	0	58	104	1698693120	50	14097
2026-01-01 10:00:20.46	4.07	9.09	-39.7	-51.4	3.8	8.45e-01	0	58	104	1698693120	50	14251
2026-01-01 10:00:21.47	3.94	9.03	-39.7	-51.3	3.8	8.46e-01	0	58	104	1698693120	50	14201
2026-01-01 10:00:22.48	3.80	8.98	-39.7	-51.4	3.8	8.46e-01	0	58	104	1698693120	50	14242
2026-01-01 10:00:23.49	3.67	8.92	-39.6	-51.3	3.8	8.44e-01	0	58	104	1698693120	50	14207
2026-01-01 10:00:24.50	3.54	8.87	-39.6	-51.3	3.8	8.47e-01	0	58	104	1698693120	50	14095
2026-01-01 10:00:25.51	3.41	8.81	-39.6	-51.3	3.8	8.46e-01	0	58	104	1698693120	50	14089
2026-01-01 10:00:26.52	3.28	8.76	-39.6	-51.2	3.8	8.45e-01	0	58	104	1698693120	50	14028
2026-01-01 10:00:27.53	3.15	8.70	-39.7	-51.3	3.8	8.47e-01	0	58	104	1698693120	50	14131
2026-01-01 10:00:28.54	3.02	8.65	-39.6	-51.3	3.8	8.46e-01	0	58	104	1698693120	50	14103
2026-01-01 10:00:29.55	2.89	8.59	-39.6	-51.3	3.8	8.46e-01	0	58	104	1698693120	50	14100
2026-01-01 10:00:30.57	2.76	8.54	-39.6	-51.3	3.8	8.47e-01	0	58	104	1698693120	50	14143
2026-01-01 10:00:31.58	2.63	8.48	-39.7	-51.4	3.8	8.46e-01	0	58	104	1698693120	50	14352
2026-01-01 10:00:32.59	2.51	8.43	-39.6	-51.3	3.8	8.45e-01	0	58	104	1698693120	50	14186
2026-01-01 10:00:33.60	2.38	8.37	-39.6	-51.4	3.8	8.46e-01	0	58	104	1698693120	50	14328
2026-01-01 10:00:34.61	2.25	8.32	-39.7	-51.4	3.8	8.46e-01	0	58	104	1698693120	50	14284
2026-01-01 10:00:35.62	2.13	8.26	-39.7	-51.4	3.8	8.46e-01	0	58	104	1698693120	50	14299
2026-01-01 10:00:36.63	2.00	8.21	-39.6	-51.5	3.8	8.46e-01	0	58	104	1698693120	50	14400
2026-01-01 10:00:37.64	1.88	8.15	-39.6	-51.4	3.8	8.46e-01	0	58	104	1698693120	50	14352
2026-01-01 10:00:38.65	1.75	8.10	-39.6	-51.4	3.8	8.46e-01	0	58	104	1698693120	50	14354
2026-01-01 10:00:39.66	1.63	8.04	-39.6	-51.4	3.8	8.46e-01	0	58	104	1698693120	50	14220
2026-01-01 10:00:40.68	1.51	7.99	-39.6	-51.4	3.8	8.45e-01	0	58	104	1698693120	50	14360
2026-01-01 10:00:41.69	1.38	7.93	-42.4	-54.0	3.8	8.46e-01	0	58	104	1698693120	55	14396
2026-01-01 10:00:42.70	1.26	7.88	-44.7	-56.3	3.8	8.47e-01	0	58	104	1698693120	60	14192
2026-01-01 10:00:43.71	1.14	7.82	-44.9	-56.6	3.8	8.46e-01	0	58	104	1698693120	60	14586
2026-01-01 10:00:44.72	1.02	7.77	-45.0	-56.7	3.8	8.46e-01	0	58	104	1698693120	60	14764
2026-01-01 10:00:45.73	0.90	7.71	-45.1	-56.8	3.8	8.47e-01	0	58	104	1698693120	60	14963
2026-01-01 10:00:46.74	0.77	7.66	-45.2	-56.9	3.8	8.46e-01	0	58	104	1698693120	60	15088
2026-01-01 10:00:47.75	0.65	7.60	-45.2	-56.9	3.8	8.46e-01	0	58	104	1698693120	61	14297
2026-01-01 10:00:48.76	0.53	7.55	-45.2	-56.9	3.8	8.46e-01	0	58	104	1698693120	61	14233
2026-01-01 10:00:49.77	0.42	7.49	-45.2	-56.9	3.8	8.47e-01	0	58	104	1698693120	61	14253
2026-01-01 10:00:50.79	0.30	7.43	-45.2	-56.8	3.8	8.46e-01	0	58	104	1698693120	61	14159
2026-01-01 10:00:51.79	0.18	7.38	-45.2	-56.8	3.8	8.46e-01	0	58	104	1698693120	61	14121
2026-01-01 10:00:52.81	0.06	7.32	-45.1	-56.8	3.8	8.46e-01	0	58	104	1698693120	61	14079
2026-01-01 10:00:53.82	359.94	7.27	-45.1	-56.7	3.8	8.46e-01	0	58	104	1698693120	61	13999
2026-01-01 10:00:54.83	359.83	7.21	-45.1	-56.7	3.8	8.45e-01	0	58	104	1698693120	61	13939
2026-01-01 10:00:55.83	359.71	7.16	-45.1	-56.7	3.8	8.47e-01	0	58	104	1698693120	61	13929
2026-01-01 10:00:56.84	359.59	7.10	-45.0	-56.6	3.8	8.46e-01	0	58	104	1698693120	61	13879
2026-01-01 10:00:57.85	359.48	7.05	-45.0	-56.7	3.8	8.46e-01	0	58	104	1698693120	61	13888
2026-01-01 10:00:58.86	359.36	6.99	-45.0	-56.7	3.8	8.45e-01	0	58	104	1698693120	61	13893
2026-01-01 10:00:59.87	359.25	6.94	-45.0	-56.6	3.8	8.47e-01	0	58	104	1698693120	61	13845
2026-01-01 10:01:00.88	359.14	6.88	-45.0	-56.6	3.8	8.46e-01	0	58	104	1698693120	61	13828
2026-01-01 10:01:01.89	359.02	6.83	-45.0	-56.6	3.8	8.46e-01	0	58	104	1698693120	61	13833
2026-01-01 10:01:02.91	358.91	6.77	-45.0	-56.6	3.8	8.46e-01	0	58	104	1698693120	61	13847
2026-01-01 10:01:03.92	358.79	6.72	-45.0	-56.6	3.8	8.46e-01	0	58	104	1698693120	61	13845
2026-01-01 10:01:04.93	358.68	6.66	-45.0	-56.6	3.8	8.46e-01	0	58	104	1698693120	61	13806
2026-01-01 10:01:05.94	358.57	6.61	-45.0	-56.6	3.8	8.47e-01	0	58	104	1698693120	61	13813
2026-01-01 10:01:06.95	358.46	6.55	-45.0	-56.6	3.8	8.46e-01	0	58	104	1698693120	61	13862
2026-01-01 10:01:07.96	358.35	6.50	-45.0	-56.6	3.8	8.47e-01	0	58	104	1698693120	61	13825
2026-01-01 10:01:08.97	358.24	6.44	-45.0	-56.6	3.8	8.46e-01	0	58	104	1698693120	61	13782
2026-01-01 10:01:09.98	358.13	6.39	-45.0	-56.6	3.8	8.46e-01	0	58	104	1698693120	61	13801
2026-01-01 10:01:10.99	358.02	6.33	-45.0	-56.6	3.8	8.46e-01	0	58	104	1698693120	61	13787
2026-01-01 10:01:12.00	357.91	6.28	-45.0	-56.6	3.8	8.47e-01	0	58	104	1698693120	61	13792
2026-01-01 10:01:13.02	357.80	6.22	-45.0	-56.6	3.8	8.46e-01	0	58	104	1698693120	61	13807
2026-01-01 10:01:14.03	357.69	6.17	-45.0	-56.6	3.8	8.45e-01	0	58	104	1698693120	61	13803
2026-01-01 10:01:15.04	357.58	6.11	-45.0	-56.6	3.8	8.46e-01	0	58	104	1698693120	60	14643
2026-01-01 10:01:16.05	357.47	6.06	-44.9	-56.6	3.8	8.46e-01	0	58	104	1698693120	60	14563
2026-01-01 10:01:17.06	357.37	6.00	-45.0	-56.6	3.8	8.47e-01	0	58	104	1698693120	60	14645
2026-01-01 10:01:18.07	357.26	5.95	-44.9	-56.6	3.8	8.46e-01	0	58	104	1698693120	60	14610
2026-01-01 10:01:19.08	357.15	5.89	-44.9	-56.6	3.8	8.47e-01	0	58	104	1698693120	60	14598
2026-01-01 10:01:20.09	357.05	5.84	-45.0	-56.6	3.8	8.46e-01	0	58	104	1698693120	60	14610
2026-01-01 10:01:21.10	356.94	5.78	-45.0	-56.6	3.8	8.47e-01	0	58	104	1698693120	60	14636
2026-01-01 10:01:22.12	356.84	5.73	-44.9	-56.6	3.8	8.45e-01	0	58	104	1698693120	60	14578
2026-01-01 10:01:23.13	356.73	5.67	-45.0	-56.6	3.8	8.44e-01	0	58	104	1698693120	60	14632
2026-01-01 10:01:24.14	356.63	5.62	-45.0	-56.6	3.8	8.46e-01	0	58	104	1698693120	60	14587
2026-01-01 10:01:25.15	356.52	5.56	-45.0	-56.6	3.8	8.47e-01	0	58	104	1698693120	60	14615
2026-01-01 10:01:26.16	356.42	5.51	-44.7	-56.6	3.8	8.45e-01	0	58	104	1698693120	60	14602
2026-01-01 10:01:27.17	356.32	5.46	-45.0	-56.6	3.8	8.46e-01	0	58	104	1698693120	60	14670
2026-01-01 10:01:28.18	356.21	5.40	-45.0	-56.6	3.8	8.45e-01	0	58	104	1698693120	60	14600
2026-01-01 10:01:29.19	356.11	5.35	-45.0	-56.6	3.8	8.45e-01	0	58	104	1698693120	60	14573
2026-01-01 10:01:30.20	356.01	5.29	-45.0	-56.6	3.8	8.46e-01	0	58	104	1698693120	60	14618
2026-01-01 10:01:31.21	355.91	5.24	-45.0	-56.6	3.8	8.46e-01	0	58	104	1698693120	60	14614
2026-01-01 10:01:32.23	355.81	5.18	-45.0	-56.6	3.8	8.46e-01	0	58	104	1698693120	60	14597
2026-01-01 10:01:33.24	355.70	5.13	-45.0	-56.6	3.8	8.45e-01	0	58	104	1698693120	60	14585
2026-01-01 10:01:34.25	355.60	5.07	-45.0	-56.6	3.8	8.45e-01	0	58	104	1698693120	60	14630
2026-01-01 10:01:35.26	355.50	5.02	-45.0	-56.6	3.8	8.47e-01	0	58	104	1698693120	60	14577
2026-01-01 10:01:36.27	355.40	4.96	-45.0	-56.6	3.8	8.46e-01	0	58	104	1698693120	60	14604
2026-01-01 10:01:37.28	355.31	4.91	-45.0	-56.6	3.8	8.45e-01	0	58	104	1698693120	60	14598
2026-01-01 10:01:38.29	355.21	4.86	-45.0	-56.6	3.8	8.47e-01	0	58	104	1698693120	60	14598
2026-01-01 10:01:39.30	355.11	4.80	-45.0	-56.6	3.8	8.47e-01	0	58	104	1698693120	60	14613
2026-01-01 10:01:40.31	355.01	4.75	-45.0	-56.6	3.8	8.46e-01	0	58	104	1698693120	60	14573
2026-01-01 10:01:41.32	354.91	4.69	-45.0	-56.6	3.8	8.45e-01	0	58	104	1698693120	60	14558
2026-01-01 10:01:42.33	354.81	4.64	-44.9	-56.6	3.8	8.46e-01	0	58	104	1698693120	60	14547
2026-01-01 10:01:43.35	354.72	4.58	-45.0	-56.6	3.8	8.47e-01	0	58	104	1698693120	60	14581
2026-01-01 10:01:44.36	354.62	4.53	-44.9	-56.6	3.8	8.46e-01	0	58	104	1698693120	60	14554
2026-01-01 10:01:45.37	354.52	4.48	-44.9	-56.6	3.8	8.46e-01	0	58	104	1698693120	60	14555
2026-01-01 10:01:46.38	354.43	4.42	-44.9	-56.5	3.8	8.46e-01	0	58	104	1698693120	60	14537
2026-01-01 10:01:47.39	354.33	4.37	-44.9	-56.6	3.8	8.46e-01	0	58	104	1698693120	60	14543
2026-01-01 10:01:48.40	354.24	4.31	-44.9	-56.5	3.8	8.47e-01	0	58	104	1698693120	60	14532
2026-01-01 10:01:49.41	354.14	4.26	-44.9	-56.6	3.8	8.45e-01	0	58	104	1698693120	60	14545
2026-01-01 10:01:50.42	354.05	4.21	-44.9	-56.6	3.8	8.45e-01	0	58	104	1698693120	60	14544
2026-01-01 10:01:51.43	353.95	4.15	-44.9	-56.6	3.8	8.46e-01	0	58	104	1698693120	60	14582
2026-01-01 10:01:52.44	353.86	4.10	-44.9	-56.5	3.8	8.47e-01	0	58	104	1698693120	60	14511
2026-01-01 10:01:53.45	353.77	4.04	-44.9	-56.6	3.8	8.46e-01	0	58	104	1698693120	60	14542
2026-01-01 10:01:54.46	353.67	3.99	-44.9	-56.6	3.8	8.46e-01	0	58	104	1698693120	60	14546
2026-01-01 10:01:55.47	353.58	3.94	-45.0	-56.6	3.8	8.47e-01	0	58	104	1698693120	60	14543
2026-01-01 10:01:56.48	353.49	3.88	-44.9	-56.5	3.8	8.44e-01	0	58	104	1698693120	60	14521
2026-01-01 10:01:57.50	353.40	3.83	-44.9	-56.5	3.8	8.45e-01	0	58	104	1698693120	60	14525
2026-01-01 10:01:58.50	353.31	3.78	-44.9	-56.6	3.8	8.46e-01	0	58	104	1698693120	60	14544
2026-01-01 10:01:59.51	353.22	3.72	-44.9	-56.6	3.8	8.45e-01	0	58	104	1698693120	60	14548
2026-01-01 10:02:00.52	353.12	3.67	-44.9	-56.6	3.8	8.46e-01	0	58	104	1698693120	60	14560
2026-01-01 10:02:01.54	353.03	3.61	-44.9	-56.6	3.8	8.46e-01	0	58	104	1698693120	60	14555
2026-01-01 10:02:02.54	352.94	3.56	-44.9	-56.6	3.8	8.46e-01	0	58	104	1698693120	60	14559
2026-01-01 10:02:03.56	352.85	3.51	-44.9	-56.5	3.8	8.47e-01	0	58	104	1698693120	60	14512
2026-01-01 10:02:04.57	352.76	3.45	-44.9	-56.5	3.8	8.46e-01	0	58	104	1698693120	60	14503
2026-01-01 10:02:05.58	352.67	3.40	-44.9	-56.5	3.8	8.46e-01	0	58	104	1698693120	60	14540
2026-01-01 10:02:06.59	352.59	3.35	-44.9	-56.5	3.8	8.46e-01	0	58	104	1698693120	60	14473
2026-01-01 10:02:07.60	352.50	3.29	-44.9	-56.6	3.8	8.47e-01	0	58	104	1698693120	60	14552
2026-01-01 10:02:08.61	352.41	3.24	-44.9	-56.6	3.8	8.48e-01	0	58	104	1698693120	60	14544
2026-01-01 10:02:09.62	352.32	3.19	-44.9	-56.5	3.8	8.46e-01	0	58	104	1698693120	60	14524
2026-01-01 10:02:10.63	352.23	3.13	-44.9	-56.5	3.8	8.47e-01	0	58	104	1698693120	60	14491
2026-01-01 10:02:11.64	352.15	3.08	-44.9	-56.5	3.8	8.45e-01	0	58	104	1698693120	60	14525
2026-01-01 10:02:12.66	352.06	3.03	-44.9	-56.5	3.8	8.46e-01	0	58	104	1698693120	60	14512
2026-01-01 10:02:13.67	351.97	2.97	-44.9	-56.5	3.8	8.46e-01	0	58	104	1698693120	60	14494
2026-01-01 10:02:14.68	351.89	2.92	-44.9	-56.6	3.8	8.46e-01	0	58	104	1698693120	60	14556
2026-01-01 10:02:15.69	351.80	2.87	-44.9	-56.5	3.8	8.46e-01	0	58	104	1698693120	60	14522
2026-01-01 10:02:16.70	351.72	2.82	-44.9	-56.5	3.8	8.46e-01	0	58	104	1698693120	60	14485
2026-01-01 10:02:17.71	351.63	2.76	-44.9	-56.5	3.8	8.47e-01	0	58	104	1698693120	60	14538
2026-01-01 10:02:18.72	351.55	2.71	-44.9	-56.5	3.8	8.47e-01	0	58	104	1698693120	60	14477
2026-01-01 10:02:19.73	351.46	2.66	-44.9	-56.5	3.8	8.46e-01	0	58	104	1698693120	60	14475
2026-01-01 10:02:20.74	351.38	2.60	-44.9	-56.5	3.8	8.46e-01	0	58	104	1698693120	60	14482
2026-01-01 10:02:21.75	351.29	2.55	-44.9	-56.5	3.8	8.46e-01	0	58	104	1698693120	60	14519
2026-01-01 10:02:22.76	351.21	2.50	-44.9	-56.5	3.8	8.45e-01	0	58	104	1698693120	60	14530
2026-01-01 10:02:23.78	351.13	2.45	-44.9	-56.5	3.8	8.46e-01	0	58	104	1698693120	60	14464
2026-01-01 10:02:24.79	351.04	2.39	-44.9	-56.5	3.8	8.47e-01	0	58	104	1698693120	60	14519
2026-01-01 10:02:25.80	350.96	2.34	-44.9	-56.5	3.8	8.47e-01	0	58	104	1698693120	60	14520
2026-01-01 10:02:26.81	350.88	2.29	-44.9	-56.5	3.8	8.45e-01	0	58	104	1698693120	60	14491
2026-01-01 10:02:27.82	350.80	2.24	-44.9	-56.5	3.8	8.45e-01	0	58	104	1698693120	60	14477
2026-01-01 10:02:28.83	350.71	2.18	-44.9	-56.5	3.8	8.46e-01	0	58	104	1698693120	60	14465
2026-01-01 10:02:29.84	350.63	2.13	-44.9	-56.5	3.8	8.47e-01	0	58	104	1698693120	60	14489
2026-01-01 10:02:30.85	350.55	2.08	-44.9	-56.5	3.8	8.46e-01	0	58	104	1698693120	60	14484
2026-01-01 10:02:31.86	350.47	2.03	-44.9	-56.5	3.8	8.45e-01	0	58	104	1698693120	60	14473

#Closed at: 2026-01-01 10:02:32
#Recorded file [1698 MB]: D:/lorett/data/31039_260101_125058.dat