passes_logs/2026/01/01/R2.0S_Moscow/R2.0S_Moscow__20260101_050608_FENGYUN_3E_rec.log

#Pass ID: 20260101_050608_FENGYUN 3E
#Satellite: FENGYUN 3E
#Configuration: FENGYUN 3E
#almurnet v.1.7.20251203
#Start time: 2026-01-01 05:06:10

#Version: 2.2.20231116
#Station: R2.0S_Moscow
#Location: 37.707566 lon 55.798166 lat
#TLE: 1 49008U 21062A   25365.55977344  .00000403  00000+0  21051-3 0  9995
#TLE: 2 49008  98.7483   5.8586 0001311 170.0615 190.0588 14.19883886232790

#Time	Az	El	Level	Level2	SNR	BER	BlckErr	Temp	State	Recorded	gain1	gain2
2026-01-01 05:06:10.76	11.67	2.14	-39.9	-50.8	3.8	8.46e-01	0	48	0	0	50	12563
2026-01-01 05:06:11.77	11.62	2.20	-39.9	-50.7	3.8	8.46e-01	0	49	104	0	50	12508
2026-01-01 05:06:12.79	11.57	2.26	-39.9	-50.7	3.8	8.47e-01	0	48	104	0	50	12516
2026-01-01 05:06:13.80	11.53	2.32	-39.9	-50.7	3.8	8.47e-01	0	49	104	0	50	12515
2026-01-01 05:06:14.81	11.48	2.38	-39.9	-50.8	3.8	8.46e-01	0	49	104	0	50	12530
2026-01-01 05:06:15.82	11.43	2.44	-39.9	-50.7	3.8	8.46e-01	0	49	104	0	50	12518
2026-01-01 05:06:16.83	11.39	2.51	-39.9	-50.7	3.8	8.45e-01	0	49	104	0	50	12475
2026-01-01 05:06:17.84	11.34	2.57	-39.9	-50.7	3.8	8.46e-01	0	49	104	0	50	12455
2026-01-01 05:06:18.85	11.29	2.63	-39.9	-50.8	3.8	8.46e-01	0	49	104	0	50	12576
2026-01-01 05:06:19.86	11.25	2.69	-39.9	-50.7	3.8	8.45e-01	0	49	104	0	50	12500
2026-01-01 05:06:20.87	11.20	2.75	-39.9	-50.8	3.8	8.45e-01	0	49	104	0	50	12523
2026-01-01 05:06:21.88	11.15	2.82	-39.9	-50.8	3.8	8.47e-01	0	49	104	0	50	12523
2026-01-01 05:06:22.89	11.10	2.88	-39.9	-50.8	3.8	8.46e-01	0	49	104	0	50	12529
2026-01-01 05:06:23.90	11.05	2.94	-39.9	-50.7	3.8	8.46e-01	0	49	104	0	50	12489
2026-01-01 05:06:24.91	11.01	3.00	-39.9	-50.8	3.8	8.47e-01	0	50	104	0	50	12525
2026-01-01 05:06:25.93	10.96	3.07	-39.9	-50.8	3.8	8.46e-01	0	49	104	0	50	12532
2026-01-01 05:06:26.94	10.91	3.13	-39.9	-50.7	3.8	8.46e-01	0	50	104	0	50	12509
2026-01-01 05:06:27.95	10.86	3.19	-39.9	-50.7	3.8	8.47e-01	0	50	104	0	50	12493
2026-01-01 05:06:28.96	10.81	3.26	-39.9	-50.7	3.8	8.47e-01	0	50	104	0	50	12468
2026-01-01 05:06:29.97	10.76	3.32	-39.9	-50.7	3.8	8.46e-01	0	50	104	0	50	12513
2026-01-01 05:06:30.98	10.71	3.38	-39.9	-50.8	3.8	8.46e-01	0	50	104	0	50	12531
2026-01-01 05:06:31.99	10.66	3.45	-39.9	-50.7	3.8	8.46e-01	0	50	104	0	50	12515
2026-01-01 05:06:33.00	10.61	3.51	-39.9	-50.8	3.8	8.46e-01	0	50	104	0	50	12527
2026-01-01 05:06:34.01	10.56	3.57	-39.9	-50.8	3.8	8.45e-01	0	50	104	0	50	12536
2026-01-01 05:06:35.02	10.51	3.64	-39.9	-50.7	3.8	8.44e-01	0	50	104	0	50	12511
2026-01-01 05:06:36.03	10.46	3.70	-39.9	-50.8	3.8	8.47e-01	0	50	104	0	50	12579
2026-01-01 05:06:37.04	10.41	3.77	-39.9	-50.8	3.8	8.46e-01	0	50	104	0	50	12520
2026-01-01 05:06:38.05	10.35	3.83	-39.9	-50.7	3.8	8.46e-01	0	51	104	0	50	12499
2026-01-01 05:06:39.06	10.30	3.89	-39.9	-50.7	3.8	8.46e-01	0	51	104	0	50	12517
2026-01-01 05:06:40.08	10.25	3.96	-39.9	-50.7	3.8	8.46e-01	0	51	104	0	50	12505
2026-01-01 05:06:41.09	10.20	4.02	-39.9	-50.8	3.8	8.46e-01	0	50	104	0	50	12544
2026-01-01 05:06:42.10	10.14	4.09	-39.9	-50.8	3.8	8.46e-01	0	51	104	0	50	12551
2026-01-01 05:06:43.11	10.09	4.15	-39.9	-50.8	3.8	8.47e-01	0	51	104	0	50	12526
2026-01-01 05:06:44.12	10.04	4.22	-39.9	-50.8	3.8	8.46e-01	0	51	104	0	50	12533
2026-01-01 05:06:45.13	9.99	4.28	-39.9	-50.8	3.8	8.46e-01	0	51	104	0	50	12523
2026-01-01 05:06:46.14	9.93	4.35	-39.9	-50.7	3.8	8.47e-01	0	51	104	0	50	12508
2026-01-01 05:06:47.15	9.88	4.41	-39.9	-50.7	3.8	8.46e-01	0	51	104	0	50	12507
2026-01-01 05:06:48.16	9.82	4.48	-39.9	-50.7	3.8	8.46e-01	0	51	104	0	50	12514
2026-01-01 05:06:49.18	9.77	4.55	-39.9	-50.8	3.8	8.46e-01	0	51	104	0	50	12537
2026-01-01 05:06:50.19	9.71	4.61	-39.9	-50.7	3.8	8.46e-01	0	51	104	0	50	12490
2026-01-01 05:06:51.20	9.66	4.68	-39.9	-50.7	3.8	8.46e-01	0	51	104	0	50	12497
2026-01-01 05:06:52.21	9.60	4.74	-39.9	-50.7	3.8	8.47e-01	0	51	104	0	50	12509
2026-01-01 05:06:53.22	9.55	4.81	-39.9	-50.7	3.8	8.46e-01	0	51	104	0	50	12508
2026-01-01 05:06:54.23	9.49	4.88	-39.9	-50.8	3.8	8.46e-01	0	51	104	0	50	12559
2026-01-01 05:06:55.24	9.44	4.94	-39.9	-50.8	3.8	8.47e-01	0	52	104	0	50	12542
2026-01-01 05:06:56.25	9.38	5.01	-39.9	-50.7	3.8	8.45e-01	0	52	104	0	50	12490
2026-01-01 05:06:57.26	9.32	5.08	-39.9	-50.8	3.8	8.46e-01	0	52	104	0	50	12528
2026-01-01 05:06:58.28	9.27	5.14	-39.9	-50.8	3.8	8.46e-01	0	52	104	0	50	12538
2026-01-01 05:06:59.29	9.21	5.21	-39.9	-50.7	3.8	8.47e-01	0	52	104	0	50	12502
2026-01-01 05:07:00.28	9.15	5.28	-39.9	-50.7	3.8	8.46e-01	0	52	104	0	50	12509
2026-01-01 05:07:01.29	9.10	5.34	-39.9	-50.7	3.8	8.46e-01	0	52	104	0	50	12491
2026-01-01 05:07:02.30	9.04	5.41	-39.9	-50.8	3.8	8.47e-01	0	52	104	0	50	12541
2026-01-01 05:07:03.31	8.98	5.48	-39.9	-50.7	3.8	8.46e-01	0	52	104	0	50	12496
2026-01-01 05:07:04.32	8.92	5.55	-39.9	-50.8	3.8	8.47e-01	0	52	104	0	50	12521
2026-01-01 05:07:05.33	8.86	5.62	-39.9	-50.7	3.8	8.46e-01	0	52	104	0	50	12518
2026-01-01 05:07:06.34	8.80	5.68	-39.9	-50.7	3.8	8.46e-01	0	52	104	0	50	12482
2026-01-01 05:07:07.35	8.74	5.75	-39.9	-50.7	3.8	8.46e-01	0	52	104	0	50	12491
2026-01-01 05:07:08.36	8.69	5.82	-39.9	-50.7	3.8	8.45e-01	0	52	104	0	50	12451
2026-01-01 05:07:09.37	8.63	5.89	-39.9	-50.7	3.8	8.46e-01	0	52	104	0	50	12499
2026-01-01 05:07:10.38	8.56	5.96	-39.9	-50.7	3.8	8.45e-01	0	52	104	0	50	12465
2026-01-01 05:07:11.40	8.50	6.03	-39.9	-50.7	3.8	8.46e-01	0	52	104	0	50	12506
2026-01-01 05:07:12.41	8.44	6.10	-39.9	-50.8	3.8	8.45e-01	0	53	104	0	50	12547
2026-01-01 05:07:13.42	8.38	6.17	-39.9	-50.8	3.8	8.45e-01	0	53	104	0	50	12520
2026-01-01 05:07:14.43	8.32	6.23	-39.9	-50.7	3.8	8.46e-01	0	52	104	0	50	12496
2026-01-01 05:07:15.44	8.26	6.30	-39.9	-50.7	3.8	8.46e-01	0	53	104	0	50	12489
2026-01-01 05:07:16.45	8.20	6.37	-39.9	-50.7	3.8	8.47e-01	0	53	104	0	50	12509
2026-01-01 05:07:17.46	8.13	6.44	-39.9	-50.7	3.8	8.46e-01	0	53	104	0	50	12502
2026-01-01 05:07:18.47	8.07	6.51	-39.9	-50.7	3.8	8.46e-01	0	53	104	0	50	12515
2026-01-01 05:07:19.48	8.01	6.58	-39.9	-50.7	3.8	8.45e-01	0	53	104	0	50	12486
2026-01-01 05:07:20.49	7.94	6.65	-39.9	-50.7	3.8	8.46e-01	0	53	104	0	50	12479
2026-01-01 05:07:21.50	7.88	6.72	-39.9	-50.7	3.8	8.47e-01	0	53	104	0	50	12501
2026-01-01 05:07:22.52	7.82	6.80	-39.9	-50.7	3.8	8.45e-01	0	53	104	0	50	12517
2026-01-01 05:07:23.53	7.75	6.87	-39.9	-50.7	3.8	8.45e-01	0	53	104	0	50	12484
2026-01-01 05:07:24.54	7.69	6.94	-39.9	-50.8	3.8	8.48e-01	0	53	104	0	50	12540
2026-01-01 05:07:25.55	7.62	7.01	-39.9	-50.7	3.8	8.47e-01	0	53	104	0	50	12512
2026-01-01 05:07:26.56	7.56	7.08	-39.9	-50.8	3.8	8.45e-01	0	53	104	0	50	12526
2026-01-01 05:07:27.57	7.49	7.15	-39.9	-50.8	3.8	8.45e-01	0	53	104	0	50	12522
2026-01-01 05:07:28.58	7.42	7.22	-39.9	-50.8	3.8	8.46e-01	0	53	104	0	50	12523
2026-01-01 05:07:29.60	7.36	7.29	-39.9	-50.8	3.8	8.46e-01	0	53	104	0	50	12526
2026-01-01 05:07:30.61	7.29	7.37	-39.9	-50.7	3.8	8.47e-01	0	53	104	0	50	12511
2026-01-01 05:07:31.62	7.22	7.44	-39.9	-50.7	3.8	8.46e-01	0	53	104	0	50	12498
2026-01-01 05:07:32.63	7.16	7.51	-39.9	-50.7	3.8	8.45e-01	0	53	104	0	50	12512
2026-01-01 05:07:33.64	7.09	7.58	-39.9	-50.7	3.8	8.47e-01	0	54	104	0	50	12493
2026-01-01 05:07:34.65	7.02	7.65	-39.9	-50.8	3.8	8.47e-01	0	54	104	0	50	12538
2026-01-01 05:07:35.66	6.95	7.73	-39.9	-50.7	3.8	8.45e-01	0	54	104	0	50	12483
2026-01-01 05:07:36.67	6.88	7.80	-39.9	-50.8	3.8	8.46e-01	0	54	104	0	50	12524
2026-01-01 05:07:37.68	6.81	7.87	-39.9	-50.8	3.8	8.47e-01	0	53	104	0	50	12523
2026-01-01 05:07:38.70	6.74	7.95	-39.9	-50.8	3.8	8.47e-01	0	54	104	0	50	12520
2026-01-01 05:07:39.71	6.67	8.02	-39.9	-50.8	3.8	8.47e-01	0	54	104	0	50	12575
2026-01-01 05:07:40.72	6.60	8.09	-39.9	-50.8	3.8	8.46e-01	0	54	104	0	50	12584
2026-01-01 05:07:41.73	6.53	8.17	-39.9	-50.8	3.8	8.46e-01	0	54	104	0	50	12586
2026-01-01 05:07:42.74	6.46	8.24	-40.0	-50.8	3.8	8.45e-01	0	54	104	0	50	12588
2026-01-01 05:07:43.75	6.39	8.32	-40.0	-50.9	3.8	8.46e-01	0	54	104	0	50	12699
2026-01-01 05:07:44.76	6.32	8.39	-39.9	-50.8	3.8	8.46e-01	0	54	104	0	50	12644
2026-01-01 05:07:45.77	6.24	8.46	-40.0	-50.8	3.8	8.47e-01	0	54	104	0	50	12648
2026-01-01 05:07:46.78	6.17	8.54	-39.9	-50.8	3.8	8.45e-01	0	54	104	0	50	12611
2026-01-01 05:07:47.79	6.10	8.61	-40.0	-50.8	3.8	8.46e-01	0	54	104	0	50	12644
2026-01-01 05:07:48.80	6.03	8.69	-39.9	-50.8	3.8	8.46e-01	0	54	104	0	50	12612
2026-01-01 05:07:49.81	5.95	8.76	-39.9	-50.8	3.8	8.46e-01	0	54	104	0	50	12648
2026-01-01 05:07:50.82	5.88	8.84	-40.0	-50.8	3.8	8.45e-01	0	54	104	0	50	12638
2026-01-01 05:07:51.83	5.80	8.91	-40.0	-50.9	3.8	8.46e-01	0	54	104	0	50	12705
2026-01-01 05:07:52.84	5.73	8.99	-39.9	-50.8	3.8	8.46e-01	0	54	104	0	50	12616
2026-01-01 05:07:53.85	5.65	9.07	-40.0	-50.9	3.8	8.46e-01	0	54	104	0	50	12691
2026-01-01 05:07:54.87	5.57	9.14	-39.9	-50.8	3.8	8.46e-01	0	54	104	0	50	12664
2026-01-01 05:07:55.88	5.50	9.22	-40.0	-50.9	3.8	8.46e-01	0	54	104	0	50	12726
2026-01-01 05:07:56.89	5.42	9.29	-39.9	-50.8	3.8	8.45e-01	0	54	104	0	50	12604
2026-01-01 05:07:57.90	5.34	9.37	-40.0	-50.9	3.8	8.45e-01	0	54	104	0	50	12741
2026-01-01 05:07:58.91	5.27	9.45	-39.9	-50.8	3.8	8.46e-01	0	54	104	0	50	12590
2026-01-01 05:07:59.92	5.19	9.52	-40.1	-51.0	3.8	8.46e-01	0	54	104	0	50	12933
2026-01-01 05:08:00.93	5.11	9.60	-39.9	-50.8	3.8	8.45e-01	0	54	104	0	50	12629
2026-01-01 05:08:01.94	5.03	9.68	-40.1	-51.1	3.8	8.46e-01	0	54	104	0	50	12994
2026-01-01 05:08:02.95	4.95	9.76	-40.0	-50.8	3.8	8.47e-01	0	55	104	0	50	12613
2026-01-01 05:08:03.97	4.87	9.83	-40.1	-51.0	3.8	8.46e-01	0	55	104	0	50	12862
2026-01-01 05:08:04.98	4.79	9.91	-39.9	-50.8	3.8	8.45e-01	0	55	104	0	50	12568
2026-01-01 05:08:05.98	4.71	9.99	-40.2	-51.1	3.8	8.46e-01	0	55	104	0	50	12961
2026-01-01 05:08:06.99	4.63	10.07	-39.9	-50.8	3.8	8.46e-01	0	55	104	0	50	12571
2026-01-01 05:08:08.00	4.55	10.15	-40.2	-51.1	3.8	8.47e-01	0	55	104	0	50	13019
2026-01-01 05:08:09.01	4.47	10.22	-40.0	-50.9	3.8	8.47e-01	0	55	104	0	50	12804
2026-01-01 05:08:10.02	4.38	10.30	-40.2	-51.1	3.8	8.46e-01	0	55	104	0	50	13020
2026-01-01 05:08:11.04	4.30	10.38	-40.1	-50.9	3.8	8.46e-01	0	55	104	0	50	12809
2026-01-01 05:08:12.05	4.22	10.46	-40.2	-51.0	3.8	8.46e-01	0	55	104	0	50	12935
2026-01-01 05:08:13.06	4.13	10.54	-40.0	-50.9	3.8	8.46e-01	0	55	104	0	50	12747
2026-01-01 05:08:14.06	4.05	10.62	-40.2	-51.1	3.8	8.46e-01	0	55	104	0	50	13000
2026-01-01 05:08:15.08	3.96	10.70	-40.0	-51.0	3.8	8.47e-01	0	55	104	0	50	12813
2026-01-01 05:08:16.09	3.88	10.78	-40.3	-51.1	3.8	8.47e-01	0	55	104	0	50	13108
2026-01-01 05:08:17.10	3.79	10.86	-40.1	-51.0	3.8	8.46e-01	0	55	104	0	50	12811
2026-01-01 05:08:18.10	3.71	10.94	-40.3	-51.2	3.8	8.45e-01	0	55	104	0	50	13246
2026-01-01 05:08:19.11	3.62	11.02	-40.1	-50.9	3.8	8.45e-01	0	55	104	0	50	12803
2026-01-01 05:08:20.12	3.53	11.10	-40.2	-51.1	3.8	8.47e-01	0	55	104	0	50	13095
2026-01-01 05:08:21.13	3.44	11.18	-40.1	-51.0	3.8	8.46e-01	0	55	104	0	50	12855
2026-01-01 05:08:22.14	3.36	11.26	-40.2	-51.2	3.8	8.45e-01	0	55	104	0	50	13159
2026-01-01 05:08:23.15	3.27	11.34	-40.1	-51.0	3.8	8.45e-01	0	55	104	0	50	12911
2026-01-01 05:08:24.16	3.18	11.43	-40.3	-51.3	3.8	8.47e-01	0	55	104	0	50	13375
2026-01-01 05:08:25.17	3.09	11.51	-40.0	-50.9	3.8	8.46e-01	0	55	104	0	50	12777
2026-01-01 05:08:26.18	3.00	11.59	-40.3	-51.3	3.8	8.47e-01	0	55	104	0	50	13278
2026-01-01 05:08:27.19	2.91	11.67	-40.0	-50.9	3.8	8.46e-01	0	55	104	0	50	12741
2026-01-01 05:08:28.20	2.81	11.75	-40.2	-51.2	3.8	8.46e-01	0	55	104	0	50	13160
2026-01-01 05:08:29.21	2.72	11.84	-40.2	-51.1	3.8	8.46e-01	0	55	104	0	50	12983
2026-01-01 05:08:30.22	2.63	11.92	-40.3	-51.2	3.8	8.46e-01	0	55	104	0	50	13122
2026-01-01 05:08:31.23	2.54	12.00	-40.2	-51.2	3.8	8.47e-01	0	55	104	0	50	13131
2026-01-01 05:08:32.24	2.44	12.09	-40.4	-51.1	3.8	8.45e-01	0	55	104	0	50	13010
2026-01-01 05:08:33.25	2.35	12.17	-40.0	-51.0	3.8	8.46e-01	0	55	104	0	50	12814
2026-01-01 05:08:34.26	2.25	12.25	-40.5	-50.9	3.8	8.46e-01	0	55	104	0	51	11999
2026-01-01 05:08:35.27	2.16	12.34	-40.0	-51.0	3.8	8.47e-01	0	55	104	0	51	12131
2026-01-01 05:08:36.28	2.06	12.42	-40.4	-50.6	3.8	8.46e-01	0	55	104	0	51	11627
2026-01-01 05:08:37.29	1.97	12.50	-40.2	-51.1	3.8	8.47e-01	0	55	104	0	51	12330
2026-01-01 05:08:38.30	1.87	12.59	-40.3	-50.2	3.8	8.46e-01	0	55	104	0	51	11102
2026-01-01 05:08:39.31	1.77	12.67	-40.2	-49.6	3.8	8.46e-01	0	55	104	0	51	10369
2026-01-01 05:08:40.32	1.67	12.76	-40.2	-48.8	4.0	8.45e-01	0	55	104	0	51	9426
2026-01-01 05:08:41.33	1.57	12.84	-40.6	-47.2	4.8	8.02e-01	0	55	0	0	51	7883
2026-01-01 05:08:42.33	1.48	12.93	-40.0	-46.1	5.2	7.62e-01	0	55	0	0	51	6908
2026-01-01 05:08:43.35	1.37	13.01	-40.3	-49.5	3.8	8.45e-01	0	56	104	0	50	10849
2026-01-01 05:08:44.35	1.27	13.10	-39.7	-43.2	9.0	4.92e-02	0	55	0	4194304	50	5236
2026-01-01 05:08:45.37	1.17	13.19	-39.7	-47.7	3.9	8.43e-01	0	55	104	6291456	49	9340
2026-01-01 05:08:46.38	1.07	13.27	-38.5	-41.1	11.2	3.55e-03	0	56	0	10485760	48	4625
2026-01-01 05:08:47.39	0.97	13.36	-37.9	-40.1	12.6	1.57e-04	0	56	0	16777216	46	4623
2026-01-01 05:08:48.40	0.86	13.44	-37.8	-39.8	13.4	1.02e-05	0	55	0	24117248	45	4727
2026-01-01 05:08:49.41	0.76	13.53	-36.6	-38.2	15.1	0.00e+00	0	56	0	32505856	44	4171
2026-01-01 05:08:50.42	0.66	13.62	-35.6	-37.0	16.2	0.00e+00	0	56	0	38797312	42	4083
2026-01-01 05:08:51.43	0.55	13.70	-34.9	-36.3	17.0	0.00e+00	0	56	0	46137344	40	4196
2026-01-01 05:08:52.44	0.45	13.79	-34.6	-35.9	17.4	0.00e+00	0	56	0	53477376	40	4022
2026-01-01 05:08:53.45	0.34	13.88	-34.6	-35.8	17.6	0.00e+00	0	56	0	60817408	40	4000
2026-01-01 05:08:54.46	0.23	13.97	-34.7	-35.9	17.8	0.00e+00	0	56	0	68157440	39	4288
2026-01-01 05:08:55.47	0.13	14.06	-34.7	-36.0	17.8	0.00e+00	0	56	0	75497472	39	4300
2026-01-01 05:08:56.48	0.02	14.14	-34.6	-35.8	18.0	0.00e+00	0	56	0	82837504	39	4227
2026-01-01 05:08:57.49	359.91	14.23	-34.8	-36.0	17.8	0.00e+00	0	56	0	90177536	39	4327
2026-01-01 05:08:58.50	359.80	14.32	-34.9	-36.1	17.8	0.00e+00	0	56	0	97517568	39	4365
2026-01-01 05:08:59.51	359.69	14.41	-35.1	-36.3	17.7	0.00e+00	0	56	0	104857600	39	4461
2026-01-01 05:09:00.52	359.58	14.50	-34.8	-36.0	18.0	0.00e+00	0	56	0	112197632	39	4327
2026-01-01 05:09:01.53	359.47	14.59	-34.7	-35.9	18.2	0.00e+00	0	56	0	119537664	39	4251
2026-01-01 05:09:02.54	359.35	14.68	-34.5	-35.7	18.4	0.00e+00	0	56	0	126877696	39	4162
2026-01-01 05:09:03.55	359.24	14.77	-34.4	-35.5	18.5	0.00e+00	0	56	0	134217728	39	4093
2026-01-01 05:09:04.56	359.13	14.86	-34.4	-35.6	18.5	0.00e+00	0	56	0	141557760	39	4100
2026-01-01 05:09:05.57	359.01	14.95	-34.4	-35.5	18.6	0.00e+00	0	56	0	148897792	39	4080
2026-01-01 05:09:06.58	358.90	15.04	-34.4	-35.5	18.6	0.00e+00	0	56	0	156237824	39	4085
2026-01-01 05:09:07.59	358.78	15.13	-34.4	-35.5	18.6	0.00e+00	0	56	0	163577856	39	4070
2026-01-01 05:09:08.60	358.66	15.22	-34.4	-35.5	18.6	0.00e+00	0	56	0	169869312	39	4079
2026-01-01 05:09:09.61	358.55	15.31	-34.3	-35.4	18.7	0.00e+00	0	56	0	178257920	39	4030
2026-01-01 05:09:10.62	358.43	15.40	-34.4	-35.5	18.7	0.00e+00	0	56	0	185597952	39	4083
2026-01-01 05:09:11.63	358.31	15.49	-34.3	-35.5	18.7	0.00e+00	0	56	0	191889408	39	4054
2026-01-01 05:09:12.64	358.19	15.58	-34.1	-35.3	18.9	0.00e+00	0	56	0	199229440	39	3969
2026-01-01 05:09:13.65	358.07	15.68	-34.1	-35.2	19.0	0.00e+00	0	56	0	206569472	39	3920
2026-01-01 05:09:14.66	357.95	15.77	-34.1	-35.2	18.9	0.00e+00	0	56	0	213909504	38	4190
2026-01-01 05:09:15.67	357.83	15.86	-34.1	-35.2	18.9	0.00e+00	0	56	0	221249536	38	4170
2026-01-01 05:09:16.68	357.70	15.95	-34.2	-35.3	18.8	0.00e+00	0	56	0	228589568	38	4232
2026-01-01 05:09:17.69	357.58	16.05	-34.2	-35.3	18.8	0.00e+00	0	56	0	235929600	38	4219
2026-01-01 05:09:18.70	357.46	16.14	-34.0	-35.1	18.9	0.00e+00	0	56	0	243269632	38	4144
2026-01-01 05:09:19.71	357.33	16.23	-33.5	-34.6	19.4	0.00e+00	0	56	0	250609664	38	3899
2026-01-01 05:09:20.72	357.21	16.33	-33.7	-34.8	19.2	0.00e+00	0	56	0	257949696	38	3961
2026-01-01 05:09:21.74	357.08	16.42	-33.4	-34.5	19.5	0.00e+00	0	56	0	265289728	37	4055
2026-01-01 05:09:22.75	356.95	16.51	-33.4	-34.5	19.4	0.00e+00	0	56	0	272629760	37	4064
2026-01-01 05:09:23.75	356.82	16.61	-33.4	-34.5	19.2	0.00e+00	0	56	0	279969792	37	4089
2026-01-01 05:09:24.77	356.69	16.70	-33.9	-35.0	18.6	0.00e+00	0	56	0	287309824	37	4315
2026-01-01 05:09:25.78	356.56	16.80	-34.0	-35.2	18.2	0.00e+00	0	56	0	294649856	37	4417
2026-01-01 05:09:26.79	356.43	16.89	-34.6	-35.8	17.4	0.00e+00	0	56	0	301989888	38	4487
2026-01-01 05:09:27.80	356.30	16.99	-35.2	-36.7	16.2	0.00e+00	0	56	0	309329920	40	4408
2026-01-01 05:09:28.81	356.17	17.08	-36.1	-37.8	14.7	0.00e+00	0	56	0	316669952	41	4721
2026-01-01 05:09:29.82	356.03	17.18	-36.9	-38.9	13.3	1.25e-05	0	56	0	324009984	43	4761
2026-01-01 05:09:30.83	355.90	17.27	-37.9	-40.4	11.5	5.52e-04	0	56	0	331350016	45	5091
2026-01-01 05:09:31.84	355.76	17.37	-38.7	-41.9	9.6	7.01e-03	0	56	0	337641472	46	5686
2026-01-01 05:09:32.85	355.63	17.46	-39.5	-43.5	7.8	6.58e-02	0	56	0	344981504	48	6105
2026-01-01 05:09:33.86	355.49	17.56	-39.9	-45.1	6.1	2.25e-01	0	56	0	353370112	49	6918
2026-01-01 05:09:34.87	355.35	17.66	-40.2	-46.4	5.1	7.46e-01	0	56	0	356515840	49	8065
2026-01-01 05:09:35.88	355.22	17.75	-40.4	-47.9	4.3	8.19e-01	0	56	0	356515840	50	9003
2026-01-01 05:09:36.90	355.07	17.85	-40.6	-49.3	3.9	8.44e-01	0	56	104	356515840	50	10545
2026-01-01 05:09:37.90	354.93	17.95	-40.6	-50.3	3.8	8.45e-01	0	56	104	356515840	50	11865
2026-01-01 05:09:38.91	354.79	18.04	-40.6	-50.5	3.8	8.47e-01	0	56	104	356515840	50	12171
2026-01-01 05:09:39.93	354.65	18.14	-40.6	-50.7	3.8	8.48e-01	0	56	104	356515840	50	12471
2026-01-01 05:09:40.94	354.51	18.24	-40.6	-51.2	3.8	8.46e-01	0	56	104	356515840	50	13219
2026-01-01 05:09:41.95	354.36	18.34	-40.7	-51.5	3.8	8.46e-01	0	57	104	356515840	50	13582
2026-01-01 05:09:42.96	354.22	18.44	-40.7	-51.3	3.8	8.47e-01	0	57	104	356515840	50	13294
2026-01-01 05:09:43.97	354.07	18.53	-40.6	-51.4	3.8	8.46e-01	0	57	104	356515840	50	13434
2026-01-01 05:09:44.98	353.92	18.63	-40.7	-51.6	3.8	8.46e-01	0	57	104	356515840	50	13738
2026-01-01 05:09:45.99	353.78	18.73	-40.9	-51.7	3.8	8.46e-01	0	57	104	356515840	51	13153
2026-01-01 05:09:47.00	353.63	18.83	-40.4	-51.6	3.8	8.47e-01	0	57	104	356515840	51	13039
2026-01-01 05:09:48.01	353.48	18.93	-40.9	-51.6	3.8	8.46e-01	0	57	104	356515840	51	13047
2026-01-01 05:09:49.02	353.32	19.03	-40.3	-51.7	3.8	8.45e-01	0	56	104	356515840	51	13166
2026-01-01 05:09:50.03	353.17	19.13	-40.7	-51.5	3.8	8.45e-01	0	56	104	356515840	51	12948
2026-01-01 05:09:51.04	353.02	19.23	-40.6	-51.5	3.8	8.45e-01	0	57	104	356515840	51	12814
2026-01-01 05:09:52.05	352.86	19.33	-40.7	-51.4	3.8	8.46e-01	0	57	104	356515840	51	12769
2026-01-01 05:09:53.06	352.71	19.43	-40.6	-51.5	3.8	8.46e-01	0	57	104	356515840	51	12822
2026-01-01 05:09:54.07	352.55	19.53	-40.8	-50.7	3.8	8.46e-01	0	57	104	356515840	51	11770
2026-01-01 05:09:55.08	352.40	19.63	-40.5	-51.5	3.8	8.46e-01	0	57	104	356515840	51	12892
2026-01-01 05:09:56.09	352.24	19.73	-40.8	-51.1	3.8	8.46e-01	0	57	104	356515840	51	12341
2026-01-01 05:09:57.09	352.08	19.83	-40.6	-50.0	3.8	8.44e-01	0	57	104	356515840	51	10878
2026-01-01 05:09:58.10	351.92	19.93	-40.5	-49.3	3.9	8.44e-01	0	57	104	356515840	51	9967
2026-01-01 05:09:59.11	351.76	20.03	-40.4	-48.9	4.0	8.42e-01	0	57	0	356515840	51	9580
2026-01-01 05:10:00.12	351.59	20.13	-40.4	-48.5	4.2	8.38e-01	0	57	0	356515840	51	9079
2026-01-01 05:10:01.13	351.43	20.23	-40.4	-47.6	4.5	8.29e-01	0	57	0	356515840	51	8220
2026-01-01 05:10:02.14	351.27	20.33	-40.4	-46.5	5.3	7.56e-01	0	57	0	356515840	51	7261
2026-01-01 05:10:03.15	351.10	20.43	-40.4	-45.4	6.3	3.26e-01	0	57	0	360710144	51	6404
2026-01-01 05:10:04.16	350.93	20.54	-40.1	-44.2	7.9	9.40e-02	0	57	0	368050176	51	5553
2026-01-01 05:10:05.17	350.76	20.64	-39.8	-42.9	9.6	2.09e-02	0	57	0	375390208	50	5093
2026-01-01 05:10:06.19	350.59	20.74	-39.5	-42.2	10.9	2.77e-03	0	57	0	382730240	50	4670
2026-01-01 05:10:07.19	350.42	20.84	-39.0	-41.4	11.9	5.74e-04	0	57	0	389021696	49	4505
2026-01-01 05:10:08.20	350.25	20.94	-38.6	-40.7	12.8	6.63e-05	0	57	0	396361728	48	4399
2026-01-01 05:10:09.21	350.08	21.05	-38.0	-39.9	13.6	1.02e-05	0	57	0	404750336	47	4291
2026-01-01 05:10:10.23	349.90	21.15	-37.5	-39.3	14.4	1.10e-06	0	57	0	411041792	46	4206
2026-01-01 05:10:11.24	349.73	21.25	-36.9	-38.5	15.3	0.00e+00	0	57	0	418381824	44	4318
2026-01-01 05:10:12.25	349.55	21.36	-36.4	-37.8	15.9	0.00e+00	0	57	0	425721856	43	4242
2026-01-01 05:10:13.26	349.37	21.46	-35.9	-37.3	16.7	0.00e+00	0	57	0	433061888	42	4203
2026-01-01 05:10:14.27	349.20	21.56	-35.2	-36.5	17.5	0.00e+00	0	57	0	440401920	41	4053
2026-01-01 05:10:15.28	349.02	21.67	-34.4	-35.6	18.4	0.00e+00	0	57	0	447741952	39	4128
2026-01-01 05:10:16.29	348.83	21.77	-33.7	-34.7	19.2	0.00e+00	0	57	0	455081984	38	3956
2026-01-01 05:10:17.30	348.65	21.87	-32.9	-34.0	19.9	0.00e+00	0	57	0	462422016	36	4067
2026-01-01 05:10:18.31	348.47	21.98	-32.6	-33.6	20.4	0.00e+00	0	57	0	469762048	36	3902
2026-01-01 05:10:19.32	348.28	22.08	-31.7	-32.6	20.6	0.00e+00	0	57	0	477102080	34	3912
2026-01-01 05:10:20.33	348.10	22.18	-31.5	-32.5	20.8	0.00e+00	0	57	0	484442112	33	4064
2026-01-01 05:10:21.34	347.91	22.29	-31.4	-32.4	20.8	0.00e+00	0	57	0	491782144	33	4028
2026-01-01 05:10:22.35	347.72	22.39	-31.4	-32.3	20.9	0.00e+00	0	57	0	499122176	33	4001
2026-01-01 05:10:23.36	347.53	22.50	-31.7	-32.7	20.7	0.00e+00	0	57	0	506462208	33	4150
2026-01-01 05:10:24.37	347.34	22.60	-31.8	-32.8	20.6	0.00e+00	0	57	0	513802240	33	4223
2026-01-01 05:10:25.38	347.15	22.70	-31.9	-32.9	20.5	0.00e+00	0	57	0	521142272	33	4262
2026-01-01 05:10:26.39	346.95	22.81	-32.0	-33.0	20.4	0.00e+00	0	57	0	528482304	33	4324
2026-01-01 05:10:27.40	346.76	22.91	-32.0	-33.0	20.5	0.00e+00	0	57	0	535822336	33	4300
2026-01-01 05:10:28.41	346.56	23.02	-32.0	-33.0	20.5	0.00e+00	0	57	0	543162368	33	4302
2026-01-01 05:10:29.43	346.36	23.12	-32.0	-33.0	20.6	0.00e+00	0	57	0	550502400	33	4302
2026-01-01 05:10:30.44	346.16	23.23	-31.9	-32.9	20.7	0.00e+00	0	57	0	557842432	33	4266
2026-01-01 05:10:31.45	345.96	23.33	-31.6	-32.6	21.0	0.00e+00	0	57	0	564133888	33	4123
2026-01-01 05:10:32.46	345.76	23.44	-31.7	-32.6	20.9	0.00e+00	0	57	0	571473920	33	4144
2026-01-01 05:10:33.47	345.55	23.54	-31.6	-32.6	21.0	0.00e+00	0	57	0	579862528	33	4111
2026-01-01 05:10:34.48	345.35	23.65	-31.5	-32.5	21.1	0.00e+00	0	57	0	586153984	33	4055
2026-01-01 05:10:35.49	345.14	23.75	-31.5	-32.4	21.2	0.00e+00	0	57	0	593494016	33	4030
2026-01-01 05:10:36.50	344.93	23.86	-31.4	-32.3	21.3	0.00e+00	0	57	0	600834048	33	3993
2026-01-01 05:10:37.51	344.72	23.96	-31.4	-32.3	21.3	0.00e+00	0	57	0	608174080	33	3978
2026-01-01 05:10:38.52	344.51	24.06	-31.4	-32.3	21.3	0.00e+00	0	57	0	615514112	33	3975
2026-01-01 05:10:39.53	344.30	24.17	-31.4	-32.4	21.2	0.00e+00	0	57	0	622854144	33	4007
2026-01-01 05:10:40.54	344.09	24.27	-31.4	-32.4	21.2	0.00e+00	0	57	0	630194176	33	4010
2026-01-01 05:10:41.55	343.87	24.38	-31.4	-32.4	21.3	0.00e+00	0	57	0	637534208	33	4014
2026-01-01 05:10:42.56	343.66	24.48	-31.4	-32.3	21.3	0.00e+00	0	57	0	644874240	33	4000
2026-01-01 05:10:43.57	343.44	24.59	-31.5	-32.4	21.2	0.00e+00	0	57	0	652214272	33	4032
2026-01-01 05:10:44.58	343.22	24.69	-31.3	-32.2	21.4	0.00e+00	0	57	0	659554304	33	3953
2026-01-01 05:10:45.59	343.00	24.80	-31.4	-32.3	21.4	0.00e+00	0	57	0	666894336	33	3978
2026-01-01 05:10:46.60	342.78	24.90	-31.3	-32.3	21.4	0.00e+00	0	57	0	674234368	33	3961
2026-01-01 05:10:47.61	342.55	25.01	-31.4	-32.3	21.4	0.00e+00	0	57	0	681574400	33	3989
2026-01-01 05:10:48.62	342.33	25.11	-31.3	-32.2	21.5	0.00e+00	0	57	0	688914432	33	3955
2026-01-01 05:10:49.63	342.10	25.22	-31.3	-32.2	21.4	0.00e+00	0	57	0	696254464	33	3949
2026-01-01 05:10:50.64	341.87	25.32	-31.3	-32.2	21.4	0.00e+00	0	57	0	703594496	33	3956
2026-01-01 05:10:51.65	341.64	25.42	-31.3	-32.2	21.5	0.00e+00	0	57	0	709885952	33	3935
2026-01-01 05:10:52.67	341.41	25.53	-31.3	-32.2	21.5	0.00e+00	0	57	0	718274560	33	3945
2026-01-01 05:10:53.68	341.18	25.63	-31.5	-32.4	21.3	0.00e+00	0	57	0	725614592	33	4031
2026-01-01 05:10:54.69	340.94	25.74	-31.4	-32.3	21.4	0.00e+00	0	57	0	731906048	33	3990
2026-01-01 05:10:55.70	340.70	25.84	-31.4	-32.3	21.4	0.00e+00	0	57	0	739246080	33	3976
2026-01-01 05:10:56.71	340.47	25.94	-31.4	-32.3	21.4	0.00e+00	0	57	0	747634688	33	4000
2026-01-01 05:10:57.72	340.23	26.05	-31.4	-32.4	21.4	0.00e+00	0	57	0	753926144	33	4012
2026-01-01 05:10:58.73	339.99	26.15	-31.4	-32.3	21.5	0.00e+00	0	57	0	761266176	33	3978
2026-01-01 05:10:59.74	339.74	26.25	-31.4	-32.3	21.4	0.00e+00	0	57	0	768606208	33	4004
2026-01-01 05:11:00.75	339.50	26.36	-31.5	-32.4	21.4	0.00e+00	0	57	0	775946240	33	4042
2026-01-01 05:11:01.76	339.25	26.46	-31.5	-32.4	21.4	0.00e+00	0	57	0	783286272	33	4042
2026-01-01 05:11:02.77	339.01	26.56	-31.5	-32.4	21.4	0.00e+00	0	57	0	790626304	33	4032
2026-01-01 05:11:03.78	338.76	26.66	-31.5	-32.4	21.4	0.00e+00	0	57	0	797966336	33	4025
2026-01-01 05:11:04.79	338.51	26.77	-31.3	-32.3	21.6	0.00e+00	0	57	0	805306368	33	3966
2026-01-01 05:11:05.80	338.26	26.87	-31.3	-32.2	21.6	0.00e+00	0	57	0	812646400	33	3923
2026-01-01 05:11:06.81	338.00	26.97	-31.3	-32.2	21.6	0.00e+00	0	57	0	819986432	33	3930
2026-01-01 05:11:07.82	337.75	27.07	-31.3	-32.2	21.6	0.00e+00	0	57	0	827326464	33	3930
2026-01-01 05:11:08.83	337.49	27.17	-31.4	-32.3	21.5	0.00e+00	0	57	0	834666496	33	3969
2026-01-01 05:11:09.84	337.23	27.27	-31.4	-32.4	21.4	0.00e+00	0	57	0	842006528	33	4007
2026-01-01 05:11:10.85	336.97	27.37	-31.4	-32.3	21.5	0.00e+00	0	57	0	849346560	33	3972
2026-01-01 05:11:11.86	336.71	27.47	-31.5	-32.4	21.4	0.00e+00	0	57	0	856686592	33	4024
2026-01-01 05:11:12.86	336.45	27.57	-31.6	-32.5	21.3	0.00e+00	0	57	0	864026624	33	4065
2026-01-01 05:11:13.88	336.18	27.67	-31.6	-32.5	21.3	0.00e+00	0	57	0	871366656	33	4083
2026-01-01 05:11:14.89	335.91	27.77	-31.6	-32.5	21.3	0.00e+00	0	57	0	878706688	33	4080
2026-01-01 05:11:15.89	335.64	27.87	-31.4	-32.3	21.5	0.00e+00	0	57	0	884998144	33	3970
2026-01-01 05:11:16.91	335.37	27.97	-31.3	-32.2	21.6	0.00e+00	0	57	0	892338176	33	3923
2026-01-01 05:11:17.92	335.10	28.07	-31.1	-32.0	21.8	0.00e+00	0	57	0	900726784	33	3863
2026-01-01 05:11:18.93	334.83	28.17	-31.1	-32.0	21.9	0.00e+00	0	57	0	907018240	33	3832
2026-01-01 05:11:19.94	334.55	28.26	-31.2	-32.1	21.7	0.00e+00	0	57	0	914358272	33	3874
2026-01-01 05:11:20.95	334.27	28.36	-31.1	-32.0	21.8	0.00e+00	0	57	0	921698304	33	3854
2026-01-01 05:11:21.96	333.99	28.46	-31.1	-32.0	21.8	0.00e+00	0	57	0	929038336	33	3862
2026-01-01 05:11:22.97	333.71	28.55	-31.2	-32.1	21.7	0.00e+00	0	58	0	936378368	33	3900
2026-01-01 05:11:23.98	333.43	28.65	-31.3	-32.2	21.7	0.00e+00	0	57	0	943718400	33	3922
2026-01-01 05:11:24.99	333.15	28.75	-31.3	-32.3	21.5	0.00e+00	0	57	0	951058432	33	3964
2026-01-01 05:11:26.00	332.86	28.84	-31.4	-32.4	21.5	0.00e+00	0	58	0	958398464	33	4006
2026-01-01 05:11:27.01	332.57	28.93	-31.5	-32.4	21.5	0.00e+00	0	57	0	965738496	33	4031
2026-01-01 05:11:28.02	332.28	29.03	-31.4	-32.3	21.5	0.00e+00	0	57	0	973078528	33	4001
2026-01-01 05:11:29.03	331.99	29.12	-31.4	-32.3	21.5	0.00e+00	0	58	0	980418560	33	3983
2026-01-01 05:11:30.04	331.70	29.22	-31.3	-32.3	21.6	0.00e+00	0	57	0	987758592	33	3969
2026-01-01 05:11:31.05	331.41	29.31	-31.4	-32.4	21.5	0.00e+00	0	57	0	995098624	33	4005
2026-01-01 05:11:32.06	331.11	29.40	-31.6	-32.5	21.3	0.00e+00	0	57	0	1002438656	33	4086
2026-01-01 05:11:33.07	330.81	29.49	-31.6	-32.5	21.3	0.00e+00	0	57	0	1009778688	33	4091
2026-01-01 05:11:34.08	330.51	29.58	-31.5	-32.5	21.4	0.00e+00	0	57	0	1017118720	33	4052
2026-01-01 05:11:35.09	330.21	29.67	-31.5	-32.4	21.4	0.00e+00	0	57	0	1024458752	33	4048
2026-01-01 05:11:36.10	329.91	29.76	-31.4	-32.3	21.5	0.00e+00	0	57	0	1030750208	33	3999
2026-01-01 05:11:37.11	329.60	29.85	-31.4	-32.3	21.6	0.00e+00	0	57	0	1039138816	33	3973
2026-01-01 05:11:38.12	329.30	29.94	-31.2	-32.1	21.7	0.00e+00	0	57	0	1046478848	33	3900
2026-01-01 05:11:39.13	328.99	30.03	-31.0	-31.9	21.9	0.00e+00	0	57	0	1052770304	33	3803
2026-01-01 05:11:40.14	328.68	30.11	-30.9	-31.8	22.0	0.00e+00	0	57	0	1060110336	32	3993
2026-01-01 05:11:41.15	328.37	30.20	-30.9	-31.8	22.0	0.00e+00	0	57	0	1067450368	32	3984
2026-01-01 05:11:42.16	328.05	30.28	-30.9	-31.8	22.0	0.00e+00	0	58	0	1074790400	32	3989
2026-01-01 05:11:43.17	327.74	30.37	-30.8	-31.7	22.1	0.00e+00	0	57	0	1082130432	32	3946
2026-01-01 05:11:44.18	327.42	30.45	-30.9	-31.8	22.0	0.00e+00	0	57	0	1089470464	32	3982
2026-01-01 05:11:45.19	327.11	30.54	-30.9	-31.8	22.0	0.00e+00	0	57	0	1096810496	32	3996
2026-01-01 05:11:46.20	326.79	30.62	-31.0	-31.9	21.9	0.00e+00	0	57	0	1104150528	32	4045
2026-01-01 05:11:47.21	326.46	30.70	-30.9	-31.8	22.0	0.00e+00	0	57	0	1111490560	32	4004
2026-01-01 05:11:48.22	326.14	30.78	-30.9	-31.8	22.0	0.00e+00	0	57	0	1118830592	32	3990
2026-01-01 05:11:49.23	325.82	30.86	-31.0	-31.9	21.9	0.00e+00	0	57	0	1126170624	32	4028
2026-01-01 05:11:50.25	325.49	30.94	-31.1	-32.0	21.9	0.00e+00	0	57	0	1133510656	32	4063
2026-01-01 05:11:51.26	325.16	31.02	-31.1	-32.0	21.8	0.00e+00	0	57	0	1140850688	32	4090
2026-01-01 05:11:52.27	324.83	31.10	-31.0	-31.9	21.9	0.00e+00	0	57	0	1148190720	32	4028
2026-01-01 05:11:53.28	324.50	31.18	-30.9	-31.8	22.0	0.00e+00	0	57	0	1155530752	32	3991
2026-01-01 05:11:54.29	324.17	31.25	-30.9	-31.8	22.1	0.00e+00	0	57	0	1162870784	32	3962
2026-01-01 05:11:55.30	323.83	31.33	-30.8	-31.7	22.2	0.00e+00	0	57	0	1170210816	32	3921
2026-01-01 05:11:56.31	323.50	31.40	-30.7	-31.5	22.3	0.00e+00	0	57	0	1177550848	32	3866
2026-01-01 05:11:57.32	323.16	31.47	-30.6	-31.5	22.4	0.00e+00	0	58	0	1184890880	32	3830
2026-01-01 05:11:58.33	322.82	31.55	-30.6	-31.4	22.4	0.00e+00	0	58	0	1192230912	32	3817
2026-01-01 05:11:59.34	322.48	31.62	-30.5	-31.4	22.5	0.00e+00	0	58	0	1199570944	32	3792
2026-01-01 05:12:00.35	322.14	31.69	-30.6	-31.4	22.4	0.00e+00	0	57	0	1205862400	32	3820
2026-01-01 05:12:01.36	321.79	31.76	-30.7	-31.6	22.2	0.00e+00	0	57	0	1213202432	32	3872
2026-01-01 05:12:02.36	321.45	31.82	-30.8	-31.6	22.2	0.00e+00	0	58	0	1221591040	32	3909
2026-01-01 05:12:03.37	321.11	31.89	-30.8	-31.7	22.2	0.00e+00	0	58	0	1227882496	32	3928
2026-01-01 05:12:04.38	320.76	31.96	-30.8	-31.7	22.1	0.00e+00	0	58	0	1235222528	32	3929
2026-01-01 05:12:05.39	320.41	32.02	-30.8	-31.7	22.1	0.00e+00	0	57	0	1242562560	32	3920
2026-01-01 05:12:06.41	320.05	32.09	-30.8	-31.6	22.1	0.00e+00	0	57	0	1249902592	32	3913
2026-01-01 05:12:07.42	319.70	32.15	-30.8	-31.7	22.1	0.00e+00	0	57	0	1257242624	32	3946
2026-01-01 05:12:08.43	319.35	32.21	-30.9	-31.8	22.0	0.00e+00	0	58	0	1264582656	32	3970
2026-01-01 05:12:09.44	318.99	32.27	-30.8	-31.7	22.1	0.00e+00	0	58	0	1271922688	32	3932
2026-01-01 05:12:10.45	318.64	32.33	-30.7	-31.6	22.1	0.00e+00	0	57	0	1279262720	32	3903
2026-01-01 05:12:11.46	318.28	32.39	-30.6	-31.5	22.3	0.00e+00	0	58	0	1286602752	32	3825
2026-01-01 05:12:12.46	317.92	32.45	-30.3	-31.2	22.4	0.00e+00	0	58	0	1293942784	31	3931
2026-01-01 05:12:13.47	317.56	32.51	-30.3	-31.1	22.5	0.00e+00	0	58	0	1301282816	31	3906
2026-01-01 05:12:14.48	317.20	32.56	-30.3	-31.2	22.4	0.00e+00	0	58	0	1308622848	31	3927
2026-01-01 05:12:15.49	316.84	32.61	-30.3	-31.2	22.4	0.00e+00	0	58	0	1315962880	31	3925
2026-01-01 05:12:16.51	316.47	32.67	-30.4	-31.3	22.3	0.00e+00	0	58	0	1323302912	31	3978
2026-01-01 05:12:17.52	316.11	32.72	-30.5	-31.4	22.3	0.00e+00	0	58	0	1330642944	31	4020
2026-01-01 05:12:18.53	315.74	32.77	-30.6	-31.4	22.2	0.00e+00	0	58	0	1337982976	31	4047
2026-01-01 05:12:19.54	315.37	32.82	-30.5	-31.4	22.3	0.00e+00	0	57	0	1345323008	31	4010
2026-01-01 05:12:20.55	315.01	32.87	-30.6	-31.5	22.2	0.00e+00	0	58	0	1351614464	31	4054
2026-01-01 05:12:21.56	314.64	32.91	-30.5	-31.3	22.3	0.00e+00	0	58	0	1360003072	31	4004
2026-01-01 05:12:22.57	314.27	32.96	-30.5	-31.3	22.3	0.00e+00	0	57	0	1367343104	31	4004
2026-01-01 05:12:23.58	313.89	33.00	-30.5	-31.4	22.2	0.00e+00	0	58	0	1373634560	31	4032
2026-01-01 05:12:24.59	313.52	33.04	-30.5	-31.3	22.3	0.00e+00	0	58	0	1380974592	31	3998
2026-01-01 05:12:25.60	313.15	33.08	-30.5	-31.4	22.3	0.00e+00	0	58	0	1388314624	31	4021
2026-01-01 05:12:26.61	312.77	33.12	-30.4	-31.3	22.3	0.00e+00	0	58	0	1395654656	31	3988
2026-01-01 05:12:27.62	312.40	33.16	-30.4	-31.2	22.4	0.00e+00	0	58	0	1402994688	31	3957
2026-01-01 05:12:28.63	312.02	33.20	-30.3	-31.2	22.4	0.00e+00	0	58	0	1410334720	31	3933
2026-01-01 05:12:29.64	311.65	33.24	-30.3	-31.2	22.4	0.00e+00	0	58	0	1417674752	31	3933
2026-01-01 05:12:30.66	311.26	33.27	-30.4	-31.3	22.4	0.00e+00	0	58	0	1425014784	31	3960
2026-01-01 05:12:31.67	310.89	33.30	-30.4	-31.3	22.3	0.00e+00	0	58	0	1432354816	31	3998
2026-01-01 05:12:32.68	310.51	33.34	-30.5	-31.4	22.2	0.00e+00	0	58	0	1439694848	31	4039
2026-01-01 05:12:33.69	310.13	33.37	-30.7	-31.6	22.1	0.00e+00	0	58	0	1447034880	31	4117
2026-01-01 05:12:34.70	309.74	33.40	-30.6	-31.5	22.1	0.00e+00	0	58	0	1454374912	31	4096
2026-01-01 05:12:35.71	309.36	33.42	-30.5	-31.4	22.3	0.00e+00	0	58	0	1461714944	31	4014
2026-01-01 05:12:36.72	308.98	33.45	-30.5	-31.4	22.2	0.00e+00	0	58	0	1469054976	31	4006
2026-01-01 05:12:37.73	308.60	33.47	-30.5	-31.4	22.2	0.00e+00	0	58	0	1476395008	31	4026
2026-01-01 05:12:38.74	308.21	33.50	-30.5	-31.4	22.2	0.00e+00	0	58	0	1483735040	31	4039
2026-01-01 05:12:39.75	307.83	33.52	-30.6	-31.5	22.2	0.00e+00	0	57	0	1491075072	31	4071
2026-01-01 05:12:40.76	307.45	33.54	-30.6	-31.4	22.2	0.00e+00	0	58	0	1498415104	31	4050
2026-01-01 05:12:41.77	307.06	33.56	-30.7	-31.6	22.0	0.00e+00	0	58	0	1505755136	31	4114
2026-01-01 05:12:42.78	306.67	33.58	-30.6	-31.5	22.1	0.00e+00	0	58	0	1513095168	31	4075
2026-01-01 05:12:43.79	306.29	33.59	-30.7	-31.6	22.1	0.00e+00	0	58	0	1520435200	31	4111
2026-01-01 05:12:44.80	305.90	33.61	-30.5	-31.4	22.2	0.00e+00	0	58	0	1526726656	31	4041
2026-01-01 05:12:45.81	305.52	33.62	-30.4	-31.3	22.4	0.00e+00	0	58	0	1535115264	31	3960
2026-01-01 05:12:46.83	305.13	33.63	-30.3	-31.2	22.4	0.00e+00	0	58	0	1542455296	31	3917
2026-01-01 05:12:47.84	304.74	33.64	-30.2	-31.1	22.5	0.00e+00	0	58	0	1548746752	31	3875
2026-01-01 05:12:48.84	304.35	33.65	-30.2	-31.0	22.5	0.00e+00	0	58	0	1556086784	31	3853
2026-01-01 05:12:49.85	303.97	33.66	-30.2	-31.0	22.6	0.00e+00	0	57	0	1563426816	31	3867
2026-01-01 05:12:50.86	303.58	33.66	-30.4	-31.2	22.4	0.00e+00	0	58	0	1570766848	31	3957
2026-01-01 05:12:51.87	303.19	33.67	-30.3	-31.2	22.4	0.00e+00	0	58	0	1578106880	31	3933
2026-01-01 05:12:52.89	302.80	33.67	-30.3	-31.2	22.4	0.00e+00	0	58	0	1585446912	31	3915
2026-01-01 05:12:53.90	302.41	33.67	-30.1	-31.0	22.6	0.00e+00	0	58	0	1592786944	31	3834
2026-01-01 05:12:54.91	302.02	33.67	-30.1	-31.0	22.6	0.00e+00	0	58	0	1600126976	31	3828
2026-01-01 05:12:55.92	301.64	33.67	-30.1	-31.0	22.6	0.00e+00	0	58	0	1607467008	31	3852
2026-01-01 05:12:56.93	301.25	33.66	-30.3	-31.2	22.4	0.00e+00	0	58	0	1614807040	31	3924
2026-01-01 05:12:57.94	300.86	33.66	-30.4	-31.2	22.4	0.00e+00	0	58	0	1622147072	31	3958
2026-01-01 05:12:58.95	300.47	33.65	-30.5	-31.4	22.2	0.00e+00	0	58	0	1629487104	31	4010
2026-01-01 05:12:59.96	300.08	33.64	-30.7	-31.6	22.1	0.00e+00	0	58	0	1636827136	31	4110
2026-01-01 05:13:00.97	299.70	33.64	-30.7	-31.6	22.0	0.00e+00	0	58	0	1644167168	31	4112
2026-01-01 05:13:01.98	299.31	33.62	-30.6	-31.4	22.2	0.00e+00	0	58	0	1651507200	31	4051
2026-01-01 05:13:02.99	298.92	33.61	-30.4	-31.3	22.3	0.00e+00	0	58	0	1658847232	31	3979
2026-01-01 05:13:04.00	298.54	33.60	-30.4	-31.2	22.3	0.00e+00	0	58	0	1666187264	31	3953
2026-01-01 05:13:05.01	298.15	33.58	-30.4	-31.2	22.4	0.00e+00	0	58	0	1673527296	31	3954
2026-01-01 05:13:06.02	297.76	33.57	-30.3	-31.2	22.4	0.00e+00	0	58	0	1680867328	31	3939
2026-01-01 05:13:07.03	297.38	33.55	-30.4	-31.3	22.3	0.00e+00	0	58	0	1688207360	31	3972
2026-01-01 05:13:08.04	296.99	33.53	-30.5	-31.4	22.3	0.00e+00	0	58	0	1694498816	31	4017
2026-01-01 05:13:09.05	296.61	33.51	-30.5	-31.4	22.2	0.00e+00	0	58	0	1701838848	31	4020
2026-01-01 05:13:10.06	296.22	33.49	-30.4	-31.3	22.3	0.00e+00	0	58	0	1709178880	31	3984
2026-01-01 05:13:11.07	295.84	33.46	-30.4	-31.3	22.3	0.00e+00	0	58	0	1716518912	31	3974
2026-01-01 05:13:12.08	295.46	33.44	-30.4	-31.2	22.4	0.00e+00	0	58	0	1723858944	31	3952
2026-01-01 05:13:13.09	295.08	33.41	-30.4	-31.3	22.3	0.00e+00	0	58	0	1731198976	31	3972
2026-01-01 05:13:14.10	294.69	33.38	-30.4	-31.3	22.3	0.00e+00	0	58	0	1738539008	31	3978
2026-01-01 05:13:15.11	294.31	33.35	-30.3	-31.2	22.4	0.00e+00	0	58	0	1745879040	31	3940
2026-01-01 05:13:16.12	293.93	33.32	-30.3	-31.2	22.4	0.00e+00	0	58	0	1753219072	31	3923
2026-01-01 05:13:17.13	293.55	33.29	-30.3	-31.2	22.4	0.00e+00	0	58	0	1760559104	31	3918
2026-01-01 05:13:18.14	293.17	33.25	-30.3	-31.2	22.4	0.00e+00	0	58	0	1767899136	31	3930
2026-01-01 05:13:19.15	292.80	33.22	-30.3	-31.2	22.4	0.00e+00	0	58	0	1775239168	31	3936
2026-01-01 05:13:20.16	292.42	33.18	-30.2	-31.0	22.5	0.00e+00	0	58	0	1782579200	31	3857
2026-01-01 05:13:21.17	292.04	33.14	-30.2	-31.1	22.5	0.00e+00	0	58	0	1789919232	31	3883
2026-01-01 05:13:22.18	291.67	33.11	-30.2	-31.0	22.5	0.00e+00	0	58	0	1797259264	31	3858
2026-01-01 05:13:23.19	291.29	33.06	-30.2	-31.1	22.5	0.00e+00	0	58	0	1804599296	31	3902
2026-01-01 05:13:24.20	290.92	33.02	-30.2	-31.1	22.5	0.00e+00	0	58	0	1811939328	31	3898
2026-01-01 05:13:25.21	290.55	32.98	-30.2	-31.1	22.5	0.00e+00	0	58	0	1819279360	31	3889
2026-01-01 05:13:26.23	290.17	32.93	-30.3	-31.1	22.5	0.00e+00	0	58	0	1826619392	31	3904
2026-01-01 05:13:27.24	289.80	32.89	-30.3	-31.2	22.4	0.00e+00	0	58	0	1833959424	31	3915
2026-01-01 05:13:28.25	289.43	32.84	-30.3	-31.2	22.4	0.00e+00	0	58	0	1841299456	31	3934
2026-01-01 05:13:29.26	289.06	32.79	-30.4	-31.3	22.3	0.00e+00	0	58	0	1847590912	31	3959
2026-01-01 05:13:30.27	288.69	32.74	-30.4	-31.3	22.3	0.00e+00	0	58	0	1855979520	31	3960
2026-01-01 05:13:31.28	288.33	32.69	-30.4	-31.3	22.3	0.00e+00	0	58	0	1863319552	31	3995
2026-01-01 05:13:32.29	287.96	32.64	-30.5	-31.4	22.3	0.00e+00	0	58	0	1869611008	31	4022
2026-01-01 05:13:33.30	287.60	32.59	-30.5	-31.4	22.2	0.00e+00	0	58	0	1876951040	31	4019
2026-01-01 05:13:34.31	287.24	32.53	-30.4	-31.3	22.3	0.00e+00	0	58	0	1885339648	31	3999
2026-01-01 05:13:35.32	286.87	32.48	-30.4	-31.3	22.3	0.00e+00	0	58	0	1891631104	31	3973
2026-01-01 05:13:36.33	286.51	32.42	-30.4	-31.3	22.3	0.00e+00	0	58	0	1898971136	31	3990
2026-01-01 05:13:37.34	286.16	32.36	-30.6	-31.4	22.2	0.00e+00	0	58	0	1906311168	31	4051
2026-01-01 05:13:38.35	285.80	32.30	-30.6	-31.5	22.2	0.00e+00	0	58	0	1913651200	31	4053
2026-01-01 05:13:39.36	285.44	32.24	-30.5	-31.4	22.2	0.00e+00	0	58	0	1920991232	31	4026
2026-01-01 05:13:40.37	285.09	32.18	-30.5	-31.4	22.2	0.00e+00	0	58	0	1928331264	31	4042
2026-01-01 05:13:41.38	284.73	32.12	-30.5	-31.4	22.2	0.00e+00	0	58	0	1935671296	31	4028
2026-01-01 05:13:42.39	284.38	32.05	-30.6	-31.4	22.2	0.00e+00	0	58	0	1943011328	31	4049
2026-01-01 05:13:43.40	284.03	31.99	-30.5	-31.4	22.2	0.00e+00	0	58	0	1950351360	31	4016
2026-01-01 05:13:44.41	283.68	31.92	-30.5	-31.3	22.3	0.00e+00	0	58	0	1957691392	31	3996
2026-01-01 05:13:45.42	283.33	31.86	-30.4	-31.3	22.4	0.00e+00	0	58	0	1965031424	31	3971
2026-01-01 05:13:46.43	282.99	31.79	-30.3	-31.2	22.4	0.00e+00	0	58	0	1972371456	31	3929
2026-01-01 05:13:47.44	282.64	31.72	-30.3	-31.1	22.5	0.00e+00	0	58	0	1979711488	31	3913
2026-01-01 05:13:48.45	282.30	31.65	-30.2	-31.1	22.5	0.00e+00	0	58	0	1987051520	31	3901
2026-01-01 05:13:49.46	281.95	31.58	-30.3	-31.1	22.5	0.00e+00	0	58	0	1994391552	31	3909
2026-01-01 05:13:50.47	281.61	31.51	-30.3	-31.1	22.5	0.00e+00	0	58	0	2001731584	31	3908
2026-01-01 05:13:51.48	281.27	31.43	-30.3	-31.2	22.4	0.00e+00	0	58	0	2009071616	31	3924
2026-01-01 05:13:52.49	280.94	31.36	-30.3	-31.2	22.4	0.00e+00	0	58	0	2015363072	31	3922
2026-01-01 05:13:53.51	280.60	31.28	-30.3	-31.2	22.4	0.00e+00	0	58	0	2022703104	31	3926
2026-01-01 05:13:54.52	280.26	31.21	-30.3	-31.2	22.4	0.00e+00	0	58	0	2031091712	31	3929
2026-01-01 05:13:55.53	279.93	31.13	-30.3	-31.2	22.4	0.00e+00	0	58	0	2037383168	31	3939
2026-01-01 05:13:56.54	279.60	31.05	-30.3	-31.2	22.4	0.00e+00	0	58	0	2044723200	31	3943
2026-01-01 05:13:57.55	279.27	30.98	-30.4	-31.3	22.3	0.00e+00	0	58	0	2052063232	31	3975
2026-01-01 05:13:58.56	278.94	30.90	-30.5	-31.4	22.2	0.00e+00	0	58	0	2059403264	31	4030
2026-01-01 05:13:59.57	278.61	30.82	-30.5	-31.4	22.2	0.00e+00	0	58	0	2066743296	31	4036
2026-01-01 05:14:00.58	278.29	30.74	-30.5	-31.4	22.2	0.00e+00	0	58	0	2074083328	31	4045
2026-01-01 05:14:01.59	277.97	30.65	-30.5	-31.4	22.2	0.00e+00	0	58	0	2081423360	31	4041
2026-01-01 05:14:02.60	277.64	30.57	-30.5	-31.4	22.2	0.00e+00	0	58	0	2088763392	31	4012
2026-01-01 05:14:03.61	277.32	30.49	-30.4	-31.3	22.3	0.00e+00	0	58	0	2096103424	31	3996
2026-01-01 05:14:04.62	277.01	30.40	-30.5	-31.3	22.2	0.00e+00	0	58	0	2103443456	31	4002
2026-01-01 05:14:05.63	276.69	30.32	-30.5	-31.4	22.2	0.00e+00	0	58	0	2110783488	31	4034
2026-01-01 05:14:06.64	276.37	30.23	-30.5	-31.4	22.1	0.00e+00	0	58	0	2118123520	31	4036
2026-01-01 05:14:07.65	276.06	30.15	-30.5	-31.4	22.2	0.00e+00	0	58	0	2125463552	31	4035
2026-01-01 05:14:08.66	275.75	30.06	-30.6	-31.5	22.1	0.00e+00	0	58	0	2132803584	31	4064
2026-01-01 05:14:09.68	275.44	29.97	-30.6	-31.5	22.1	0.00e+00	0	58	0	2140143616	31	4058
2026-01-01 05:14:10.69	275.13	29.88	-30.6	-31.5	22.1	0.00e+00	0	58	0	2147483648	31	4093
2026-01-01 05:14:11.70	274.82	29.79	-30.7	-31.6	22.0	0.00e+00	0	58	0	2154823680	31	4111
2026-01-01 05:14:12.71	274.52	29.71	-30.7	-31.6	22.0	0.00e+00	0	58	0	2162163712	31	4125
2026-01-01 05:14:13.72	274.21	29.62	-30.7	-31.6	22.0	0.00e+00	0	58	0	2169503744	31	4124
2026-01-01 05:14:14.73	273.91	29.52	-30.6	-31.5	22.1	0.00e+00	0	58	0	2176843776	31	4084
2026-01-01 05:14:15.74	273.61	29.43	-30.6	-31.5	22.1	0.00e+00	0	58	0	2184183808	31	4090
2026-01-01 05:14:16.75	273.31	29.34	-30.6	-31.5	22.1	0.00e+00	0	58	0	2190475264	31	4061
2026-01-01 05:14:17.76	273.02	29.25	-30.7	-31.6	21.6	0.00e+00	0	58	0	2198863872	31	4123
2026-01-01 05:14:18.77	272.72	29.16	-30.5	-31.4	22.2	0.00e+00	0	58	0	2206203904	31	4043
2026-01-01 05:14:19.79	272.43	29.06	-30.6	-31.4	22.1	0.00e+00	0	58	0	2212495360	31	4050
2026-01-01 05:14:20.80	272.14	28.97	-30.6	-31.5	22.1	0.00e+00	0	58	0	2219835392	31	4060
2026-01-01 05:14:21.81	271.85	28.87	-30.6	-31.5	22.1	0.00e+00	0	58	0	2227175424	31	4079
2026-01-01 05:14:22.82	271.56	28.78	-30.6	-31.5	22.0	0.00e+00	0	58	0	2234515456	31	4077
2026-01-01 05:14:23.83	271.27	28.68	-30.6	-31.5	22.1	0.00e+00	0	58	0	2241855488	31	4074
2026-01-01 05:14:24.84	270.99	28.59	-30.7	-31.5	22.0	0.00e+00	0	58	0	2249195520	31	4098
2026-01-01 05:14:25.85	270.71	28.49	-30.6	-31.5	22.1	0.00e+00	0	58	0	2256535552	31	4072
2026-01-01 05:14:26.86	270.42	28.39	-30.5	-31.4	22.1	0.00e+00	0	58	0	2263875584	31	4041
2026-01-01 05:14:27.87	270.14	28.29	-30.4	-31.3	22.2	0.00e+00	0	58	0	2271215616	31	3976
2026-01-01 05:14:28.88	269.87	28.20	-30.4	-31.3	22.3	0.00e+00	0	58	0	2278555648	31	3976
2026-01-01 05:14:29.89	269.59	28.10	-30.4	-31.2	22.3	0.00e+00	0	58	0	2285895680	31	3954
2026-01-01 05:14:30.90	269.32	28.00	-30.3	-31.2	22.3	0.00e+00	0	58	0	2293235712	31	3940
2026-01-01 05:14:31.91	269.04	27.90	-30.4	-31.3	22.3	0.00e+00	0	58	0	2300575744	31	3979
2026-01-01 05:14:32.92	268.77	27.80	-30.4	-31.3	22.3	0.00e+00	0	58	0	2307915776	31	3968
2026-01-01 05:14:33.93	268.50	27.70	-30.5	-31.4	22.2	0.00e+00	0	58	0	2315255808	31	4012
2026-01-01 05:14:34.94	268.24	27.60	-30.5	-31.4	22.1	0.00e+00	0	58	0	2322595840	31	4047
2026-01-01 05:14:35.95	267.97	27.50	-30.7	-31.6	22.0	0.00e+00	0	58	0	2329935872	31	4126
2026-01-01 05:14:36.96	267.71	27.40	-30.8	-31.7	21.9	0.00e+00	0	58	0	2337275904	31	4177
2026-01-01 05:14:37.97	267.45	27.30	-30.9	-31.9	21.7	0.00e+00	0	58	0	2344615936	31	4247
2026-01-01 05:14:38.98	267.18	27.20	-31.0	-31.9	21.7	0.00e+00	0	58	0	2351955968	31	4266
2026-01-01 05:14:39.99	266.93	27.10	-31.1	-32.0	21.6	0.00e+00	0	58	0	2358247424	31	4321
2026-01-01 05:14:41.00	266.67	27.00	-31.0	-32.0	21.6	0.00e+00	0	58	0	2365587456	31	4292
2026-01-01 05:14:42.01	266.41	26.89	-31.0	-31.9	21.6	0.00e+00	0	58	0	2373976064	31	4277
2026-01-01 05:14:43.02	266.16	26.79	-30.9	-31.8	21.8	0.00e+00	0	58	0	2380267520	31	4233
2026-01-01 05:14:44.03	265.91	26.69	-30.9	-31.8	21.7	0.00e+00	0	58	0	2387607552	31	4232
2026-01-01 05:14:45.04	265.65	26.59	-30.8	-31.8	21.8	0.00e+00	0	58	0	2394947584	31	4196
2026-01-01 05:14:46.05	265.41	26.48	-30.9	-31.8	21.8	0.00e+00	0	58	0	2402287616	31	4204
2026-01-01 05:14:47.06	265.16	26.38	-30.7	-31.6	21.9	0.00e+00	0	58	0	2409627648	31	4126
2026-01-01 05:14:48.08	264.91	26.28	-30.7	-31.6	21.9	0.00e+00	0	58	0	2416967680	31	4138
2026-01-01 05:14:49.09	264.66	26.17	-30.6	-31.5	22.0	0.00e+00	0	58	0	2424307712	31	4080
2026-01-01 05:14:50.10	264.42	26.07	-30.7	-31.6	22.0	0.00e+00	0	58	0	2431647744	31	4113
2026-01-01 05:14:51.11	264.18	25.97	-30.8	-31.7	21.9	0.00e+00	0	58	0	2438987776	31	4161
2026-01-01 05:14:52.12	263.94	25.86	-30.8	-31.7	21.8	0.00e+00	0	58	0	2446327808	31	4189
2026-01-01 05:14:53.13	263.70	25.76	-31.0	-31.9	21.7	0.00e+00	0	58	0	2453667840	31	4249
2026-01-01 05:14:54.14	263.47	25.65	-31.0	-32.0	21.6	0.00e+00	0	58	0	2461007872	31	4303
2026-01-01 05:14:55.15	263.23	25.55	-31.1	-32.0	21.5	0.00e+00	0	58	0	2468347904	31	4338
2026-01-01 05:14:56.16	263.00	25.44	-31.1	-32.0	21.6	0.00e+00	0	58	0	2475687936	31	4304
2026-01-01 05:14:57.17	262.77	25.34	-31.0	-31.9	21.6	0.00e+00	0	58	0	2483027968	31	4291
2026-01-01 05:14:58.18	262.54	25.23	-30.9	-31.8	21.7	0.00e+00	0	58	0	2490368000	31	4238
2026-01-01 05:14:59.19	262.31	25.13	-30.8	-31.7	21.7	0.00e+00	0	58	0	2497708032	31	4155
2026-01-01 05:15:00.20	262.08	25.03	-30.8	-31.7	21.9	0.00e+00	0	58	0	2505048064	31	4151
2026-01-01 05:15:01.21	261.85	24.92	-30.8	-31.7	21.9	0.00e+00	0	58	0	2512388096	31	4146
2026-01-01 05:15:02.22	261.63	24.82	-30.8	-31.6	21.9	0.00e+00	0	58	0	2519728128	31	4145
2026-01-01 05:15:03.23	261.41	24.71	-30.7	-31.6	21.9	0.00e+00	0	58	0	2527068160	31	4122
2026-01-01 05:15:04.24	261.19	24.60	-30.8	-31.7	21.8	0.00e+00	0	58	0	2533359616	31	4172
2026-01-01 05:15:05.25	260.97	24.50	-30.9	-31.8	21.7	0.00e+00	0	58	0	2540699648	31	4226
2026-01-01 05:15:06.27	260.75	24.39	-31.0	-31.9	21.6	0.00e+00	0	58	0	2549088256	31	4289
2026-01-01 05:15:07.28	260.53	24.29	-31.1	-32.1	21.5	0.00e+00	0	58	0	2555379712	31	4345
2026-01-01 05:15:08.29	260.31	24.18	-31.2	-32.1	21.5	0.00e+00	0	58	0	2562719744	31	4352
2026-01-01 05:15:09.30	260.10	24.08	-31.4	-32.3	21.4	0.00e+00	0	58	0	2570059776	32	4215
2026-01-01 05:15:10.31	259.89	23.97	-31.4	-32.3	21.4	0.00e+00	0	58	0	2577399808	32	4220
2026-01-01 05:15:11.32	259.68	23.87	-31.4	-32.3	21.4	0.00e+00	0	58	0	2584739840	32	4225
2026-01-01 05:15:12.33	259.47	23.76	-31.4	-32.3	21.4	0.00e+00	0	58	0	2592079872	32	4228
2026-01-01 05:15:13.34	259.26	23.66	-31.4	-32.3	21.4	0.00e+00	0	58	0	2599419904	32	4241
2026-01-01 05:15:14.35	259.05	23.55	-31.4	-32.3	21.4	0.00e+00	0	58	0	2606759936	32	4235
2026-01-01 05:15:15.36	258.85	23.45	-31.4	-32.3	21.4	0.00e+00	0	58	0	2614099968	32	4218
2026-01-01 05:15:16.37	258.64	23.34	-31.3	-32.2	21.5	0.00e+00	0	58	0	2621440000	32	4186
2026-01-01 05:15:17.38	258.44	23.24	-31.3	-32.2	21.5	0.00e+00	0	58	0	2628780032	32	4168
2026-01-01 05:15:18.39	258.24	23.13	-31.2	-32.1	21.6	0.00e+00	0	58	0	2636120064	32	4136
2026-01-01 05:15:19.40	258.04	23.03	-31.2	-32.1	21.6	0.00e+00	0	58	0	2643460096	32	4123
2026-01-01 05:15:20.41	257.84	22.92	-31.2	-32.1	21.6	0.00e+00	0	58	0	2650800128	32	4122
2026-01-01 05:15:21.42	257.64	22.82	-31.2	-32.1	21.6	0.00e+00	0	58	0	2658140160	32	4135
2026-01-01 05:15:22.43	257.45	22.71	-31.2	-32.2	21.5	0.00e+00	0	58	0	2665480192	32	4153
2026-01-01 05:15:23.44	257.25	22.61	-31.3	-32.2	21.4	0.00e+00	0	58	0	2672820224	32	4180
2026-01-01 05:15:24.45	257.06	22.50	-31.3	-32.3	21.4	0.00e+00	0	58	0	2679111680	32	4194
2026-01-01 05:15:25.46	256.87	22.40	-31.3	-32.2	21.4	0.00e+00	0	58	0	2687500288	32	4171
2026-01-01 05:15:26.48	256.67	22.29	-31.3	-32.2	21.5	0.00e+00	0	58	0	2694840320	32	4166
2026-01-01 05:15:27.49	256.49	22.19	-31.2	-32.2	21.5	0.00e+00	0	58	0	2701131776	32	4146
2026-01-01 05:15:28.50	256.30	22.08	-31.2	-32.1	21.5	0.00e+00	0	58	0	2708471808	32	4137
2026-01-01 05:15:29.51	256.11	21.98	-31.2	-32.1	21.5	0.00e+00	0	58	0	2715811840	32	4120
2026-01-01 05:15:30.52	255.92	21.87	-31.2	-32.1	21.5	0.00e+00	0	58	0	2723151872	32	4120
2026-01-01 05:15:31.53	255.74	21.77	-31.3	-32.2	21.4	0.00e+00	0	58	0	2730491904	32	4184
2026-01-01 05:15:32.54	255.56	21.67	-31.4	-32.3	21.4	0.00e+00	0	58	0	2737831936	32	4216
2026-01-01 05:15:33.55	255.38	21.56	-31.4	-32.4	21.3	0.00e+00	0	58	0	2745171968	32	4252
2026-01-01 05:15:34.56	255.20	21.46	-31.5	-32.4	21.2	0.00e+00	0	58	0	2752512000	32	4278
2026-01-01 05:15:35.57	255.02	21.35	-31.6	-32.5	21.2	0.00e+00	0	58	0	2759852032	32	4326
2026-01-01 05:15:36.58	254.84	21.25	-31.6	-32.6	21.1	0.00e+00	0	58	0	2767192064	32	4343
2026-01-01 05:15:37.59	254.66	21.15	-31.6	-32.5	21.1	0.00e+00	0	58	0	2774532096	32	4339
2026-01-01 05:15:38.60	254.49	21.04	-31.6	-32.5	21.2	0.00e+00	0	58	0	2781872128	32	4320
2026-01-01 05:15:39.62	254.31	20.94	-31.5	-32.5	21.2	0.00e+00	0	58	0	2789212160	32	4302
2026-01-01 05:15:40.62	254.14	20.84	-31.5	-32.5	21.2	0.00e+00	0	58	0	2796552192	32	4293
2026-01-01 05:15:41.64	253.96	20.74	-31.5	-32.4	21.2	0.00e+00	0	58	0	2803892224	32	4277
2026-01-01 05:15:42.65	253.79	20.63	-31.5	-32.5	21.2	0.00e+00	0	58	0	2811232256	32	4305
2026-01-01 05:15:43.66	253.62	20.53	-31.6	-32.5	21.2	0.00e+00	0	58	0	2818572288	32	4315
2026-01-01 05:15:44.67	253.45	20.43	-31.7	-32.6	21.1	0.00e+00	0	58	0	2825912320	32	4372
2026-01-01 05:15:45.68	253.29	20.33	-31.8	-32.7	21.0	0.00e+00	0	58	0	2833252352	33	4177
2026-01-01 05:15:46.69	253.12	20.22	-31.8	-32.8	20.9	0.00e+00	0	58	0	2840592384	33	4204
2026-01-01 05:15:47.70	252.95	20.12	-31.9	-32.9	20.8	0.00e+00	0	58	0	2847932416	33	4263
2026-01-01 05:15:48.71	252.79	20.02	-31.9	-32.9	20.8	0.00e+00	0	58	0	2855272448	33	4266
2026-01-01 05:15:49.72	252.63	19.92	-32.0	-32.9	20.7	0.00e+00	0	58	0	2862612480	33	4283
2026-01-01 05:15:50.73	252.46	19.82	-31.9	-32.8	20.7	0.00e+00	0	58	0	2869952512	33	4232
2026-01-01 05:15:51.74	252.30	19.72	-31.8	-32.8	20.8	0.00e+00	0	58	0	2876243968	33	4219
2026-01-01 05:15:52.75	252.14	19.61	-31.8	-32.7	20.9	0.00e+00	0	58	0	2883584000	33	4179
2026-01-01 05:15:53.76	251.98	19.51	-31.8	-32.7	20.9	0.00e+00	0	58	0	2891972608	33	4180
2026-01-01 05:15:54.77	251.83	19.41	-31.8	-32.7	20.8	0.00e+00	0	58	0	2898264064	33	4183
2026-01-01 05:15:55.78	251.67	19.31	-31.8	-32.8	20.9	0.00e+00	0	58	0	2905604096	33	4201
2026-01-01 05:15:56.79	251.51	19.21	-31.9	-32.9	20.8	0.00e+00	0	58	0	2912944128	33	4245
2026-01-01 05:15:57.81	251.36	19.11	-32.0	-32.9	20.7	0.00e+00	0	58	0	2920284160	33	4283
2026-01-01 05:15:58.82	251.20	19.01	-32.1	-33.0	20.6	0.00e+00	0	58	0	2927624192	33	4338
2026-01-01 05:15:59.83	251.05	18.91	-32.2	-33.2	20.5	0.00e+00	0	58	0	2934964224	33	4396
2026-01-01 05:16:00.84	250.90	18.81	-32.2	-33.2	20.4	0.00e+00	0	58	0	2942304256	33	4413
2026-01-01 05:16:01.85	250.75	18.71	-32.2	-33.2	20.4	0.00e+00	0	58	0	2949644288	34	4185
2026-01-01 05:16:02.86	250.60	18.61	-32.2	-33.2	20.4	0.00e+00	0	58	0	2956984320	34	4181
2026-01-01 05:16:03.87	250.45	18.51	-32.2	-33.2	20.5	0.00e+00	0	58	0	2964324352	34	4152
2026-01-01 05:16:04.88	250.30	18.42	-32.2	-33.1	20.5	0.00e+00	0	58	0	2971664384	34	4136
2026-01-01 05:16:05.89	250.16	18.32	-32.2	-33.2	20.5	0.00e+00	0	58	0	2979004416	34	4146
2026-01-01 05:16:06.90	250.01	18.22	-32.2	-33.2	20.5	0.00e+00	0	58	0	2986344448	34	4147
2026-01-01 05:16:07.91	249.87	18.12	-32.2	-33.2	20.4	0.00e+00	0	58	0	2993684480	34	4181
2026-01-01 05:16:08.92	249.72	18.02	-32.3	-33.3	20.3	0.00e+00	0	58	0	3001024512	34	4235
2026-01-01 05:16:09.93	249.58	17.93	-32.5	-33.4	20.2	0.00e+00	0	58	0	3008364544	34	4290
2026-01-01 05:16:10.94	249.44	17.83	-32.6	-33.6	20.1	0.00e+00	0	58	0	3015704576	34	4346
2026-01-01 05:16:11.95	249.30	17.73	-32.7	-33.7	19.9	0.00e+00	0	58	0	3021996032	35	4187
2026-01-01 05:16:12.96	249.16	17.63	-32.8	-33.8	19.8	0.00e+00	0	58	0	3030384640	35	4234
2026-01-01 05:16:13.97	249.02	17.54	-32.8	-33.9	19.8	0.00e+00	0	58	0	3037724672	35	4247
2026-01-01 05:16:14.98	248.88	17.44	-32.8	-33.8	19.8	0.00e+00	0	58	0	3044016128	35	4221
2026-01-01 05:16:15.99	248.74	17.34	-32.8	-33.8	19.8	0.00e+00	0	58	0	3051356160	35	4209
2026-01-01 05:16:17.00	248.60	17.25	-32.7	-33.7	19.9	0.00e+00	0	58	0	3058696192	35	4170
2026-01-01 05:16:18.01	248.47	17.15	-32.7	-33.7	19.9	0.00e+00	0	58	0	3066036224	35	4180
2026-01-01 05:16:19.02	248.33	17.05	-32.8	-33.8	19.8	0.00e+00	0	58	0	3073376256	35	4219
2026-01-01 05:16:20.03	248.20	16.96	-32.7	-33.7	19.9	0.00e+00	0	58	0	3080716288	35	4183
2026-01-01 05:16:21.04	248.07	16.86	-32.6	-33.6	20.0	0.00e+00	0	58	0	3088056320	35	4105
2026-01-01 05:16:22.05	247.93	16.77	-32.4	-33.4	20.1	0.00e+00	0	58	0	3095396352	35	4032
2026-01-01 05:16:23.07	247.80	16.67	-32.3	-33.3	20.3	0.00e+00	0	58	0	3102736384	35	3988
2026-01-01 05:16:24.08	247.67	16.58	-32.4	-33.3	20.2	0.00e+00	0	58	0	3110076416	35	4004
2026-01-01 05:16:25.09	247.54	16.48	-32.5	-33.4	20.1	0.00e+00	0	58	0	3117416448	35	4050
2026-01-01 05:16:26.10	247.41	16.39	-32.5	-33.5	20.1	0.00e+00	0	58	0	3124756480	35	4061
2026-01-01 05:16:27.11	247.28	16.29	-32.6	-33.5	20.1	0.00e+00	0	58	0	3132096512	35	4097
2026-01-01 05:16:28.12	247.16	16.20	-32.7	-33.7	19.9	0.00e+00	0	58	0	3139436544	35	4155
2026-01-01 05:16:29.13	247.03	16.11	-32.8	-33.8	19.8	0.00e+00	0	58	0	3146776576	35	4225
2026-01-01 05:16:30.14	246.90	16.01	-33.0	-34.0	19.6	0.00e+00	0	58	0	3154116608	35	4320
2026-01-01 05:16:31.15	246.78	15.92	-33.1	-34.1	19.5	0.00e+00	0	58	0	3161456640	35	4372
2026-01-01 05:16:32.16	246.66	15.83	-33.2	-34.2	19.4	0.00e+00	0	58	0	3168796672	35	4430
2026-01-01 05:16:33.17	246.53	15.73	-34.0	-35.1	19.3	0.00e+00	0	58	0	3176136704	37	4357
2026-01-01 05:16:34.18	246.41	15.64	-34.0	-35.1	19.3	0.00e+00	0	58	0	3183476736	37	4377
2026-01-01 05:16:35.19	246.29	15.55	-34.1	-35.2	19.2	0.00e+00	0	58	0	3190816768	37	4435
2026-01-01 05:16:36.20	246.17	15.46	-34.3	-35.4	19.0	0.00e+00	0	58	0	3197108224	38	4265
2026-01-01 05:16:37.21	246.05	15.36	-34.3	-35.4	19.1	0.00e+00	0	58	0	3205496832	38	4244
2026-01-01 05:16:38.22	245.93	15.27	-34.2	-35.3	19.1	0.00e+00	0	58	0	3212836864	38	4215
2026-01-01 05:16:39.23	245.81	15.18	-34.3	-35.3	19.1	0.00e+00	0	58	0	3219128320	38	4241
2026-01-01 05:16:40.24	245.69	15.09	-34.0	-35.1	19.3	0.00e+00	0	58	0	3226468352	38	4129
2026-01-01 05:16:41.25	245.57	15.00	-33.9	-34.9	19.5	0.00e+00	0	58	0	3233808384	38	4032
2026-01-01 05:16:42.26	245.46	14.91	-33.7	-34.8	19.6	0.00e+00	0	58	0	3241148416	38	3972
2026-01-01 05:16:43.27	245.34	14.82	-33.7	-34.7	19.6	0.00e+00	0	58	0	3248488448	38	3950
2026-01-01 05:16:44.28	245.23	14.73	-33.7	-34.8	19.6	0.00e+00	0	58	0	3255828480	38	3969
2026-01-01 05:16:45.29	245.11	14.64	-33.6	-34.6	19.8	0.00e+00	0	58	0	3263168512	38	3886
2026-01-01 05:16:46.30	245.00	14.55	-33.5	-34.6	19.8	0.00e+00	0	58	0	3270508544	38	3873
2026-01-01 05:16:47.31	244.88	14.46	-33.7	-34.7	19.7	0.00e+00	0	58	0	3277848576	38	3924
2026-01-01 05:16:48.32	244.77	14.37	-33.7	-34.7	19.7	0.00e+00	0	58	0	3285188608	38	3953
2026-01-01 05:16:49.33	244.66	14.28	-33.7	-34.8	19.6	0.00e+00	0	58	0	3292528640	38	3970
2026-01-01 05:16:50.34	244.55	14.19	-33.9	-35.0	19.4	0.00e+00	0	58	0	3299868672	38	4056
2026-01-01 05:16:51.35	244.44	14.10	-34.0	-35.1	19.3	0.00e+00	0	58	0	3307208704	38	4122
2026-01-01 05:16:52.36	244.33	14.01	-34.2	-35.3	19.1	0.00e+00	0	58	0	3314548736	38	4210
2026-01-01 05:16:53.37	244.22	13.92	-34.3	-35.4	18.8	0.00e+00	0	58	0	3321888768	38	4291
2026-01-01 05:16:54.38	244.11	13.83	-34.4	-35.6	18.8	0.00e+00	0	58	0	3329228800	38	4351
2026-01-01 05:16:55.39	244.01	13.75	-34.5	-35.7	18.7	0.00e+00	0	59	0	3336568832	38	4392
2026-01-01 05:16:56.40	243.90	13.66	-34.3	-35.4	18.9	0.00e+00	0	58	0	3342860288	38	4286
2026-01-01 05:16:57.41	243.79	13.57	-34.2	-35.3	19.1	0.00e+00	0	58	0	3351248896	38	4221
2026-01-01 05:16:58.42	243.69	13.48	-34.2	-35.3	19.0	0.00e+00	0	58	0	3358588928	38	4218
2026-01-01 05:16:59.43	243.58	13.40	-34.3	-35.4	19.0	0.00e+00	0	58	0	3364880384	38	4255
2026-01-01 05:17:00.44	243.48	13.31	-34.3	-35.4	19.0	0.00e+00	0	58	0	3372220416	38	4261
2026-01-01 05:17:01.45	243.37	13.22	-34.4	-35.5	18.9	0.00e+00	0	58	0	3379560448	38	4311
2026-01-01 05:17:02.46	243.27	13.14	-34.5	-35.6	18.7	0.00e+00	0	58	0	3386900480	38	4381
2026-01-01 05:17:03.47	243.17	13.05	-34.5	-35.7	18.7	0.00e+00	0	58	0	3394240512	38	4393
2026-01-01 05:17:04.48	243.07	12.96	-34.5	-35.7	18.7	0.00e+00	0	58	0	3401580544	38	4394
2026-01-01 05:17:05.49	242.96	12.88	-34.7	-35.8	18.5	0.00e+00	0	58	0	3408920576	38	4485
2026-01-01 05:17:06.50	242.86	12.79	-34.8	-35.9	18.4	0.00e+00	0	59	0	3416260608	39	4288
2026-01-01 05:17:07.51	242.76	12.71	-34.8	-35.9	18.4	0.00e+00	0	59	0	3423600640	39	4276
2026-01-01 05:17:08.52	242.66	12.62	-34.7	-35.9	18.5	0.00e+00	0	58	0	3430940672	39	4261
2026-01-01 05:17:09.53	242.56	12.54	-34.8	-36.0	18.4	0.00e+00	0	58	0	3438280704	39	4316
2026-01-01 05:17:10.54	242.47	12.45	-34.9	-36.1	18.3	0.00e+00	0	59	0	3445620736	39	4357
2026-01-01 05:17:11.55	242.37	12.37	-35.0	-36.2	18.2	0.00e+00	0	58	0	3452960768	39	4396
2026-01-01 05:17:12.56	242.27	12.28	-35.0	-36.2	18.1	0.00e+00	0	58	0	3460300800	39	4426
2026-01-01 05:17:13.58	242.17	12.20	-34.9	-36.1	18.2	0.00e+00	0	58	0	3467640832	39	4360
2026-01-01 05:17:14.59	242.08	12.11	-34.9	-36.0	18.3	0.00e+00	0	59	0	3474980864	39	4333
2026-01-01 05:17:15.60	241.98	12.03	-34.9	-36.1	18.3	0.00e+00	0	58	0	3482320896	39	4347
2026-01-01 05:17:16.61	241.89	11.95	-34.7	-35.9	18.4	0.00e+00	0	58	0	3489660928	39	4248
2026-01-01 05:17:17.62	241.79	11.86	-34.6	-35.8	18.5	0.00e+00	0	58	0	3497000960	39	4205
2026-01-01 05:17:18.63	241.70	11.78	-34.7	-35.8	18.5	0.00e+00	0	58	0	3504340992	39	4211
2026-01-01 05:17:19.64	241.61	11.70	-34.6	-35.7	18.6	0.00e+00	0	58	0	3511681024	39	4158
2026-01-01 05:17:20.65	241.51	11.61	-34.6	-35.7	18.5	0.00e+00	0	59	0	3517972480	39	4176
2026-01-01 05:17:21.66	241.42	11.53	-34.6	-35.7	18.5	0.00e+00	0	58	0	3526361088	39	4188
2026-01-01 05:17:22.67	241.33	11.45	-34.6	-35.7	18.6	0.00e+00	0	58	0	3533701120	39	4155
2026-01-01 05:17:23.68	241.24	11.37	-34.5	-35.7	18.6	0.00e+00	0	59	0	3539992576	39	4148
2026-01-01 05:17:24.69	241.15	11.28	-34.5	-35.6	18.6	0.00e+00	0	59	0	3547332608	39	4112
2026-01-01 05:17:25.70	241.06	11.20	-34.6	-35.7	18.6	0.00e+00	0	58	0	3554672640	39	4185
2026-01-01 05:17:26.71	240.97	11.12	-34.6	-35.7	18.6	0.00e+00	0	59	0	3562012672	39	4158
2026-01-01 05:17:27.72	240.88	11.04	-34.7	-35.8	18.5	0.00e+00	0	58	0	3569352704	39	4219
2026-01-01 05:17:28.73	240.79	10.96	-34.7	-35.8	18.5	0.00e+00	0	58	0	3576692736	39	4217
2026-01-01 05:17:29.75	240.70	10.88	-34.7	-35.8	18.4	0.00e+00	0	58	0	3584032768	39	4229
2026-01-01 05:17:30.76	240.61	10.80	-34.7	-35.8	18.4	0.00e+00	0	58	0	3591372800	39	4237
2026-01-01 05:17:31.77	240.52	10.72	-34.8	-36.0	18.3	0.00e+00	0	58	0	3598712832	39	4298
2026-01-01 05:17:32.78	240.44	10.64	-34.8	-36.0	18.3	0.00e+00	0	58	0	3606052864	39	4310
2026-01-01 05:17:33.79	240.35	10.56	-34.9	-36.0	18.2	0.00e+00	0	58	0	3613392896	39	4331
2026-01-01 05:17:34.80	240.27	10.48	-34.9	-36.0	18.2	0.00e+00	0	58	0	3620732928	39	4329
2026-01-01 05:17:35.81	240.18	10.40	-34.9	-36.1	18.2	0.00e+00	0	59	0	3628072960	39	4354
2026-01-01 05:17:36.82	240.10	10.32	-35.0	-36.2	18.0	0.00e+00	0	58	0	3635412992	39	4425
2026-01-01 05:17:37.83	240.01	10.24	-35.0	-36.2	18.0	0.00e+00	0	58	0	3642753024	39	4423
2026-01-01 05:17:38.84	239.93	10.16	-35.0	-36.2	18.0	0.00e+00	0	59	0	3650093056	39	4415
2026-01-01 05:17:39.85	239.84	10.08	-35.1	-36.3	17.9	0.00e+00	0	59	0	3657433088	39	4462
2026-01-01 05:17:40.86	239.76	10.00	-35.2	-36.4	17.8	0.00e+00	0	58	0	3664773120	39	4530
2026-01-01 05:17:41.87	239.68	9.92	-35.3	-36.5	17.6	0.00e+00	0	58	0	3672113152	40	4323
2026-01-01 05:17:42.88	239.60	9.84	-35.3	-36.6	17.6	0.00e+00	0	58	0	3679453184	40	4349
2026-01-01 05:17:43.89	239.52	9.77	-35.4	-36.6	17.5	0.00e+00	0	58	0	3685744640	40	4386
2026-01-01 05:17:44.90	239.44	9.69	-35.3	-36.6	17.6	0.00e+00	0	58	0	3693084672	40	4351
2026-01-01 05:17:45.91	239.35	9.61	-35.3	-36.5	17.6	0.00e+00	0	58	0	3701473280	40	4316
2026-01-01 05:17:46.92	239.27	9.53	-35.2	-36.5	17.6	0.00e+00	0	59	0	3707764736	40	4298
2026-01-01 05:17:47.93	239.19	9.45	-35.3	-36.6	17.6	0.00e+00	0	58	0	3715104768	40	4345
2026-01-01 05:17:48.94	239.12	9.38	-35.3	-36.6	17.5	0.00e+00	0	58	0	3722444800	40	4343
2026-01-01 05:17:49.95	239.04	9.30	-35.3	-36.5	17.6	0.00e+00	0	59	0	3729784832	40	4326
2026-01-01 05:17:50.96	238.96	9.22	-35.3	-36.5	17.6	0.00e+00	0	58	0	3737124864	40	4315
2026-01-01 05:17:51.97	238.88	9.15	-35.3	-36.5	17.5	0.00e+00	0	59	0	3744464896	40	4331
