passes_logs/2026/01/01/R2.0S_Moscow/R2.0S_Moscow__20260101_111129_AQUA_rec.log

#Pass ID: 20260101_111129_AQUA
#Satellite: AQUA
#Configuration: AQUA
#almurnet v.1.7.20251203
#Start time: 2026-01-01 11:11:30

#Version: 2.2.20231116
#Station: R2.0S_Moscow
#Location: 37.707566 lon 55.798166 lat
#TLE: 1 27424U 02022A   25364.96158943  .00001951  00000+0  40088-3 0  9998
#TLE: 2 27424  98.4061 326.1389 0001917  95.3187 305.7939 14.61780362258696

#Time	Az	El	Level	Level2	SNR	BER	BlckErr	Temp	State	Recorded	gain1	gain2
2026-01-01 11:11:30.08	147.47	2.01	-44.7	-63.4	3.8	7.46e-01	0	48	0	0	61	30350
2026-01-01 11:11:31.10	147.45	2.08	-44.7	-63.4	3.8	7.51e-01	0	48	104	0	60	32083
2026-01-01 11:11:32.11	147.42	2.14	-44.7	-63.4	3.8	7.42e-01	0	48	104	0	60	32090
2026-01-01 11:11:33.12	147.40	2.21	-44.7	-63.4	3.8	7.48e-01	0	49	104	0	60	32053
2026-01-01 11:11:34.13	147.38	2.28	-44.7	-63.4	3.8	7.44e-01	0	48	104	0	60	32097
2026-01-01 11:11:35.15	147.36	2.35	-44.7	-63.4	3.8	7.47e-01	0	49	104	0	60	32120
2026-01-01 11:11:36.16	147.33	2.41	-44.7	-63.4	3.8	7.46e-01	0	49	104	0	60	32052
2026-01-01 11:11:37.17	147.31	2.48	-44.7	-63.4	3.8	7.45e-01	0	49	104	0	60	32111
2026-01-01 11:11:38.18	147.29	2.55	-44.7	-63.4	3.8	7.48e-01	0	49	104	0	60	32098
2026-01-01 11:11:39.19	147.26	2.62	-44.7	-63.4	3.8	7.45e-01	0	49	104	0	60	32046
2026-01-01 11:11:40.20	147.24	2.69	-44.7	-63.4	3.8	7.47e-01	0	49	104	0	60	31969
2026-01-01 11:11:41.21	147.22	2.76	-44.7	-63.4	3.8	7.42e-01	0	49	104	0	60	32078
2026-01-01 11:11:42.22	147.19	2.82	-44.7	-63.4	3.8	7.48e-01	0	49	104	0	60	32053
2026-01-01 11:11:43.23	147.17	2.89	-44.7	-63.4	3.8	7.46e-01	0	49	104	0	60	32128
2026-01-01 11:11:44.24	147.15	2.96	-44.7	-63.4	3.8	7.46e-01	0	49	104	0	60	32058
2026-01-01 11:11:45.25	147.12	3.03	-44.7	-63.4	3.8	7.42e-01	0	49	104	0	60	32056
2026-01-01 11:11:46.26	147.10	3.10	-44.7	-63.4	3.8	7.44e-01	0	49	104	0	60	32078
2026-01-01 11:11:47.27	147.07	3.17	-44.7	-63.4	3.8	7.45e-01	0	50	104	0	60	32026
2026-01-01 11:11:48.28	147.05	3.24	-44.7	-63.4	3.8	7.46e-01	0	50	104	0	60	32058
2026-01-01 11:11:49.29	147.02	3.31	-44.7	-63.4	3.8	7.48e-01	0	50	104	0	60	32157
2026-01-01 11:11:50.30	147.00	3.38	-44.7	-63.4	3.8	7.43e-01	0	50	104	0	60	32069
2026-01-01 11:11:51.31	146.97	3.45	-44.7	-63.4	3.8	7.45e-01	0	50	104	0	60	32122
2026-01-01 11:11:52.32	146.95	3.52	-44.7	-63.4	3.8	7.44e-01	0	50	104	0	60	32103
2026-01-01 11:11:53.33	146.92	3.59	-44.7	-63.4	3.8	7.46e-01	0	50	104	0	60	32112
2026-01-01 11:11:54.34	146.90	3.66	-44.6	-63.4	3.8	7.44e-01	0	50	104	0	60	32130
2026-01-01 11:11:55.35	146.87	3.74	-44.7	-63.4	3.8	7.46e-01	0	50	104	0	60	32095
2026-01-01 11:11:56.36	146.85	3.81	-44.7	-63.4	3.8	7.48e-01	0	50	104	0	60	31993
2026-01-01 11:11:57.37	146.82	3.88	-44.7	-63.4	3.8	7.43e-01	0	50	104	0	60	32019
2026-01-01 11:11:58.39	146.80	3.95	-44.7	-63.4	3.8	7.46e-01	0	50	104	0	60	32043
2026-01-01 11:11:59.40	146.77	4.02	-44.7	-63.4	3.8	7.44e-01	0	50	104	0	60	32117
2026-01-01 11:12:00.41	146.74	4.10	-44.7	-63.4	3.8	7.44e-01	0	51	104	0	60	32060
2026-01-01 11:12:01.42	146.72	4.17	-44.7	-63.4	3.8	7.47e-01	0	50	104	0	60	32035
2026-01-01 11:12:02.43	146.69	4.24	-44.7	-63.4	3.8	7.44e-01	0	51	104	0	60	31976
2026-01-01 11:12:03.44	146.66	4.31	-44.7	-63.4	3.8	7.50e-01	0	51	104	0	60	32021
2026-01-01 11:12:04.45	146.64	4.39	-44.7	-63.4	3.8	7.45e-01	0	51	104	0	60	31889
2026-01-01 11:12:05.46	146.61	4.46	-44.7	-63.4	3.8	7.44e-01	0	51	104	0	60	31814
2026-01-01 11:12:06.47	146.58	4.53	-44.7	-63.3	3.8	7.45e-01	0	51	104	0	60	31609
2026-01-01 11:12:07.48	146.56	4.61	-44.7	-63.1	3.8	7.42e-01	0	51	104	0	60	31083
2026-01-01 11:12:08.49	146.53	4.68	-44.7	-63.0	3.8	7.45e-01	0	51	104	0	60	30502
2026-01-01 11:12:09.51	146.50	4.76	-44.7	-62.8	3.8	7.43e-01	0	51	104	0	60	29745
2026-01-01 11:12:10.52	146.47	4.83	-44.7	-62.7	3.8	7.45e-01	0	51	104	0	60	29370
2026-01-01 11:12:11.53	146.44	4.90	-44.7	-62.6	3.8	7.45e-01	0	51	104	0	60	29239
2026-01-01 11:12:12.54	146.42	4.98	-44.7	-62.7	3.8	7.44e-01	0	51	104	0	60	29497
2026-01-01 11:12:13.55	146.39	5.05	-44.7	-63.0	3.8	7.47e-01	0	51	104	0	60	30625
2026-01-01 11:12:14.56	146.36	5.13	-44.7	-63.2	3.8	7.44e-01	0	51	104	0	60	31329
2026-01-01 11:12:15.57	146.33	5.21	-44.7	-63.3	3.8	7.45e-01	0	51	104	0	60	31607
2026-01-01 11:12:16.58	146.30	5.28	-44.7	-63.3	3.8	7.45e-01	0	51	104	0	60	31617
2026-01-01 11:12:17.59	146.27	5.36	-44.7	-63.2	3.8	7.47e-01	0	51	104	0	60	31201
2026-01-01 11:12:18.60	146.24	5.43	-44.7	-63.1	3.8	7.45e-01	0	51	104	0	60	30970
2026-01-01 11:12:19.62	146.21	5.51	-44.7	-63.0	3.8	7.44e-01	0	51	104	0	60	30614
2026-01-01 11:12:20.63	146.18	5.59	-44.7	-62.9	3.8	7.43e-01	0	51	104	0	60	30212
2026-01-01 11:12:21.64	146.15	5.66	-44.7	-62.5	3.8	7.39e-01	0	51	104	0	60	28917
2026-01-01 11:12:22.65	146.12	5.74	-44.7	-62.1	3.8	7.43e-01	0	51	104	0	60	27702
2026-01-01 11:12:23.66	146.09	5.82	-44.7	-61.7	3.8	7.43e-01	0	52	104	0	60	26455
2026-01-01 11:12:24.67	146.06	5.90	-44.7	-61.4	3.8	7.47e-01	0	52	104	0	60	25374
2026-01-01 11:12:25.68	146.03	5.98	-44.6	-60.8	3.8	7.42e-01	0	52	104	0	60	23848
2026-01-01 11:12:26.69	146.00	6.05	-44.6	-60.1	4.1	7.37e-01	0	52	104	0	60	22005
2026-01-01 11:12:27.70	145.97	6.13	-44.6	-59.7	3.9	7.33e-01	0	52	104	0	60	20925
2026-01-01 11:12:28.72	145.94	6.21	-44.6	-59.1	4.5	7.25e-01	0	52	104	0	60	19451
2026-01-01 11:12:29.73	145.91	6.29	-44.6	-59.2	4.0	7.39e-01	0	52	104	0	60	19817
2026-01-01 11:12:30.74	145.88	6.37	-44.6	-58.4	4.7	7.17e-01	0	52	104	0	60	18062
2026-01-01 11:12:31.75	145.84	6.45	-44.6	-58.3	4.7	7.15e-01	0	52	104	0	60	17785
2026-01-01 11:12:32.76	145.81	6.53	-44.6	-58.1	4.9	7.13e-01	0	52	104	0	60	17417
2026-01-01 11:12:33.77	145.78	6.61	-44.5	-57.4	5.2	7.03e-01	0	52	0	0	60	16090
2026-01-01 11:12:34.78	145.75	6.69	-44.5	-57.1	5.5	6.99e-01	0	52	0	0	60	15445
2026-01-01 11:12:35.79	145.72	6.77	-44.4	-56.1	6.2	6.79e-01	92	52	0	524288	60	13785
2026-01-01 11:12:36.80	145.68	6.85	-44.3	-55.2	6.9	6.66e-01	92	52	0	2097152	60	12479
2026-01-01 11:12:37.82	145.65	6.93	-44.0	-53.7	8.4	6.42e-01	29	52	0	4194304	60	10464
2026-01-01 11:12:38.83	145.62	7.02	-44.2	-52.8	9.4	6.27e-01	0	52	0	5767168	59	10056
2026-01-01 11:12:39.84	145.58	7.10	-43.9	-51.4	11.1	6.17e-01	0	52	0	7864320	59	8550
2026-01-01 11:12:40.85	145.55	7.18	-43.6	-50.1	12.5	6.10e-01	0	53	0	9961472	59	7347
2026-01-01 11:12:41.86	145.52	7.26	-43.2	-48.8	13.8	6.09e-01	0	53	0	11534336	58	6699
2026-01-01 11:12:42.87	145.48	7.34	-42.8	-47.7	15.0	6.08e-01	0	52	0	13631488	57	6258
2026-01-01 11:12:43.88	145.45	7.43	-42.4	-46.8	16.0	6.05e-01	0	52	0	15728640	56	5930
2026-01-01 11:12:44.89	145.41	7.51	-41.8	-45.8	16.9	6.08e-01	0	52	0	17301504	55	5597
2026-01-01 11:12:45.90	145.38	7.59	-41.3	-44.8	17.8	6.06e-01	0	53	0	19398656	54	5322
2026-01-01 11:12:46.91	145.34	7.68	-40.9	-44.0	18.6	6.06e-01	0	53	0	20971520	53	5159
2026-01-01 11:12:47.92	145.31	7.76	-40.5	-43.5	19.2	6.08e-01	0	53	0	23068672	53	4830
2026-01-01 11:12:48.93	145.27	7.85	-40.2	-43.0	19.6	6.08e-01	0	53	0	25165824	52	4827
2026-01-01 11:12:49.95	145.24	7.93	-40.0	-42.6	20.1	6.06e-01	0	53	0	26738688	51	4917
2026-01-01 11:12:50.96	145.20	8.02	-39.8	-42.3	20.4	6.06e-01	0	53	0	28835840	51	4741
2026-01-01 11:12:51.97	145.16	8.10	-40.5	-43.4	19.0	6.06e-01	0	53	0	30932992	52	5076
2026-01-01 11:12:52.98	145.13	8.19	-43.8	-50.5	12.5	6.11e-01	0	53	0	32505856	58	8161
2026-01-01 11:12:53.99	145.09	8.27	-42.3	-46.7	16.1	6.08e-01	0	53	0	34603008	55	6273
2026-01-01 11:12:55.00	145.05	8.36	-43.4	-49.5	13.4	6.10e-01	0	53	0	36175872	57	7631
2026-01-01 11:12:56.01	145.02	8.45	-41.5	-45.1	17.8	6.08e-01	0	53	0	38273024	53	5822
2026-01-01 11:12:57.02	144.98	8.53	-39.7	-42.3	20.4	6.06e-01	0	53	0	40370176	51	4734
2026-01-01 11:12:58.03	144.94	8.62	-39.5	-42.0	20.7	6.07e-01	0	53	0	41943040	51	4560
2026-01-01 11:12:59.03	144.90	8.71	-39.6	-42.1	20.6	6.06e-01	0	53	0	44040192	51	4613
2026-01-01 11:13:00.04	144.86	8.79	-39.5	-41.9	20.8	6.04e-01	0	53	0	45613056	51	4527
2026-01-01 11:13:01.05	144.83	8.88	-39.4	-41.8	20.8	6.07e-01	0	53	0	47710208	50	4759
2026-01-01 11:13:02.06	144.79	8.97	-39.5	-41.9	20.8	6.07e-01	0	53	0	49807360	50	4786
2026-01-01 11:13:03.07	144.75	9.06	-39.4	-41.8	20.9	6.06e-01	0	53	0	51380224	50	4714
2026-01-01 11:13:04.08	144.71	9.15	-39.4	-41.8	21.0	6.04e-01	0	53	0	53477376	50	4707
2026-01-01 11:13:05.09	144.67	9.24	-39.3	-41.7	21.1	6.06e-01	0	53	0	55574528	50	4674
2026-01-01 11:13:06.10	144.63	9.33	-39.3	-41.7	21.1	6.09e-01	0	53	0	57147392	50	4668
2026-01-01 11:13:07.11	144.59	9.42	-39.3	-41.7	21.1	6.06e-01	0	54	0	59244544	50	4677
2026-01-01 11:13:08.12	144.55	9.51	-39.3	-41.7	21.1	6.06e-01	0	53	0	60817408	50	4658
2026-01-01 11:13:09.13	144.51	9.60	-39.3	-41.7	21.1	6.06e-01	0	54	0	62914560	50	4662
2026-01-01 11:13:10.14	144.47	9.69	-39.3	-41.6	21.2	6.05e-01	0	53	0	65011712	50	4620
2026-01-01 11:13:11.15	144.43	9.78	-39.3	-41.6	21.2	6.07e-01	0	54	0	66584576	50	4625
2026-01-01 11:13:12.16	144.38	9.88	-39.3	-41.6	21.3	6.07e-01	0	54	0	68681728	50	4610
2026-01-01 11:13:13.17	144.34	9.97	-39.2	-41.5	21.3	6.06e-01	0	53	0	70254592	50	4587
2026-01-01 11:13:14.18	144.30	10.06	-39.2	-41.5	21.4	6.07e-01	0	54	0	72351744	50	4579
2026-01-01 11:13:15.19	144.26	10.16	-39.2	-41.5	21.4	6.07e-01	0	54	0	74448896	50	4573
2026-01-01 11:13:16.20	144.21	10.25	-39.2	-41.4	21.5	6.06e-01	0	54	0	76021760	50	4529
2026-01-01 11:13:17.20	144.17	10.34	-39.2	-41.4	21.6	6.08e-01	0	54	0	78118912	50	4513
2026-01-01 11:13:18.21	144.13	10.44	-39.1	-41.4	21.6	6.06e-01	0	54	0	79691776	50	4502
2026-01-01 11:13:19.22	144.08	10.53	-39.1	-41.3	21.6	6.07e-01	0	54	0	81788928	50	4484
2026-01-01 11:13:20.24	144.04	10.63	-39.1	-41.3	21.7	6.05e-01	0	54	0	83886080	50	4457
2026-01-01 11:13:21.24	143.99	10.72	-39.0	-41.2	21.8	6.05e-01	0	54	0	85458944	50	4416
2026-01-01 11:13:22.25	143.95	10.82	-39.0	-41.2	21.8	6.07e-01	0	54	0	87556096	49	4657
2026-01-01 11:13:23.26	143.90	10.91	-39.0	-41.1	21.9	6.07e-01	0	54	0	89128960	49	4627
2026-01-01 11:13:24.27	143.86	11.01	-38.9	-41.1	21.9	6.07e-01	0	54	0	91226112	49	4622
2026-01-01 11:13:25.28	143.81	11.11	-38.9	-41.0	22.0	6.08e-01	0	54	0	93323264	49	4580
2026-01-01 11:13:26.30	143.77	11.21	-38.8	-40.9	22.1	6.07e-01	0	54	0	94896128	49	4528
2026-01-01 11:13:27.31	143.72	11.30	-38.8	-40.8	22.2	6.05e-01	0	54	0	96993280	49	4483
2026-01-01 11:13:28.31	143.67	11.40	-38.7	-40.7	22.3	6.06e-01	0	54	0	99090432	49	4432
2026-01-01 11:13:29.33	143.63	11.50	-38.7	-40.7	22.3	6.03e-01	0	54	0	100663296	49	4414
2026-01-01 11:13:30.33	143.58	11.60	-38.6	-40.6	22.4	6.08e-01	0	54	0	102760448	49	4380
2026-01-01 11:13:31.34	143.53	11.70	-38.6	-40.6	22.5	6.06e-01	0	54	0	104333312	49	4353
2026-01-01 11:13:32.35	143.48	11.80	-38.5	-40.5	22.6	6.07e-01	0	54	0	106430464	49	4319
2026-01-01 11:13:33.36	143.43	11.90	-38.5	-40.4	22.6	6.08e-01	0	54	0	108527616	48	4540
2026-01-01 11:13:34.37	143.38	12.00	-38.4	-40.4	22.7	6.06e-01	0	54	0	110100480	48	4509
2026-01-01 11:13:35.38	143.33	12.10	-38.4	-40.3	22.8	6.09e-01	0	54	0	112197632	48	4472
2026-01-01 11:13:36.39	143.28	12.20	-38.3	-40.2	22.9	6.08e-01	0	54	0	113770496	48	4426
2026-01-01 11:13:37.40	143.23	12.31	-38.3	-40.2	22.9	6.08e-01	0	54	0	115867648	48	4440
2026-01-01 11:13:38.41	143.18	12.41	-38.2	-40.2	22.9	6.05e-01	0	54	0	117964800	48	4393
2026-01-01 11:13:39.42	143.13	12.51	-38.2	-40.1	23.0	6.04e-01	0	54	0	119537664	48	4382
2026-01-01 11:13:40.43	143.08	12.62	-38.2	-40.1	23.0	6.06e-01	0	54	0	121634816	48	4378
2026-01-01 11:13:41.44	143.03	12.72	-38.2	-40.1	23.0	6.09e-01	0	54	0	123207680	48	4387
2026-01-01 11:13:42.45	142.98	12.82	-38.2	-40.1	23.0	6.08e-01	0	54	0	125304832	48	4360
2026-01-01 11:13:43.46	142.92	12.93	-38.2	-40.1	23.0	6.08e-01	0	54	0	127401984	48	4369
2026-01-01 11:13:44.47	142.87	13.04	-38.2	-40.1	23.0	6.07e-01	0	54	0	128974848	48	4369
2026-01-01 11:13:45.48	142.82	13.14	-38.2	-40.1	23.0	6.06e-01	0	54	0	131072000	48	4389
2026-01-01 11:13:46.48	142.76	13.25	-38.3	-40.1	23.0	6.07e-01	0	54	0	132644864	48	4391
2026-01-01 11:13:47.49	142.71	13.35	-38.3	-40.2	23.0	6.06e-01	0	54	0	134742016	48	4404
2026-01-01 11:13:48.50	142.65	13.46	-38.3	-40.2	23.0	6.06e-01	0	54	0	136839168	48	4417
2026-01-01 11:13:49.51	142.60	13.57	-38.3	-40.2	23.0	6.07e-01	0	55	0	138412032	48	4431
2026-01-01 11:13:50.52	142.54	13.68	-38.3	-40.2	22.9	6.05e-01	0	55	0	140509184	48	4437
2026-01-01 11:13:51.53	142.49	13.79	-38.4	-40.3	22.9	6.08e-01	0	55	0	142082048	48	4477
2026-01-01 11:13:52.55	142.43	13.90	-38.4	-40.3	22.9	6.07e-01	0	55	0	144179200	48	4486
2026-01-01 11:13:53.56	142.37	14.01	-38.4	-40.3	22.9	6.07e-01	0	55	0	146276352	48	4489
2026-01-01 11:13:54.57	142.31	14.12	-38.4	-40.3	22.9	6.06e-01	0	55	0	147849216	48	4483
2026-01-01 11:13:55.58	142.26	14.23	-38.4	-40.3	22.9	6.07e-01	0	55	0	149946368	48	4474
2026-01-01 11:13:56.59	142.20	14.34	-38.4	-40.3	22.9	6.07e-01	0	55	0	152043520	48	4476
2026-01-01 11:13:57.60	142.14	14.45	-38.4	-40.3	22.9	6.06e-01	0	55	0	153616384	48	4466
2026-01-01 11:13:58.61	142.08	14.57	-38.3	-40.2	23.0	6.06e-01	0	55	0	155713536	48	4440
2026-01-01 11:13:59.62	142.02	14.68	-38.3	-40.2	23.0	6.06e-01	0	55	0	157286400	48	4425
2026-01-01 11:14:00.63	141.96	14.79	-38.2	-40.2	23.1	6.08e-01	0	55	0	159383552	48	4397
2026-01-01 11:14:01.64	141.90	14.91	-38.2	-40.1	23.1	6.05e-01	0	55	0	161480704	48	4381
2026-01-01 11:14:02.65	141.83	15.02	-38.2	-40.0	23.2	6.06e-01	0	55	0	163053568	48	4340
2026-01-01 11:14:03.66	141.77	15.14	-38.2	-40.0	23.3	6.07e-01	0	55	0	165150720	48	4329
2026-01-01 11:14:04.67	141.71	15.26	-38.1	-40.0	23.3	6.06e-01	0	55	0	167247872	48	4314
2026-01-01 11:14:05.68	141.64	15.37	-38.1	-39.9	23.4	6.06e-01	0	55	0	168820736	48	4286
2026-01-01 11:14:06.69	141.58	15.49	-38.1	-39.9	23.4	6.05e-01	0	55	0	170917888	48	4283
2026-01-01 11:14:07.70	141.52	15.61	-38.1	-39.9	23.4	6.04e-01	0	55	0	172490752	48	4264
2026-01-01 11:14:08.71	141.45	15.73	-38.0	-39.9	23.4	6.07e-01	0	55	0	174587904	48	4250
2026-01-01 11:14:09.72	141.39	15.85	-38.0	-39.9	23.4	6.05e-01	0	55	0	176685056	48	4256
2026-01-01 11:14:10.73	141.32	15.97	-38.0	-39.9	23.5	6.05e-01	0	55	0	178257920	48	4246
2026-01-01 11:14:11.74	141.25	16.09	-38.1	-39.9	23.4	6.06e-01	0	55	0	180355072	48	4263
2026-01-01 11:14:12.75	141.18	16.21	-37.7	-39.6	23.4	6.05e-01	0	55	0	181927936	47	4357
2026-01-01 11:14:13.76	141.12	16.33	-37.7	-39.6	23.4	6.05e-01	0	55	0	184025088	47	4355
2026-01-01 11:14:14.77	141.05	16.45	-37.7	-39.6	23.4	6.05e-01	0	55	0	186122240	47	4356
2026-01-01 11:14:15.78	140.98	16.57	-37.8	-39.6	23.4	6.05e-01	0	55	0	187695104	47	4368
2026-01-01 11:14:16.79	140.91	16.70	-37.8	-39.6	23.4	6.07e-01	0	55	0	189792256	47	4373
2026-01-01 11:14:17.80	140.84	16.82	-37.8	-39.6	23.4	6.08e-01	0	55	0	191889408	47	4371
2026-01-01 11:14:18.81	140.77	16.95	-37.8	-39.6	23.4	6.06e-01	0	55	0	193462272	47	4391
2026-01-01 11:14:19.82	140.70	17.07	-37.8	-39.6	23.4	6.08e-01	0	55	0	195559424	47	4368
2026-01-01 11:14:20.83	140.62	17.20	-37.8	-39.7	23.4	6.06e-01	0	55	0	197132288	47	4394
2026-01-01 11:14:21.84	140.55	17.33	-37.7	-39.7	23.3	6.06e-01	0	55	0	199229440	47	4400
2026-01-01 11:14:22.85	140.48	17.45	-37.9	-39.7	23.3	6.07e-01	0	55	0	201326592	47	4427
2026-01-01 11:14:23.86	140.40	17.58	-37.9	-39.7	23.3	6.04e-01	0	55	0	202899456	47	4441
2026-01-01 11:14:24.87	140.33	17.71	-38.0	-39.8	23.2	6.03e-01	0	55	0	204996608	47	4477
2026-01-01 11:14:25.88	140.25	17.84	-38.0	-39.9	23.2	6.07e-01	0	55	0	206569472	47	4499
2026-01-01 11:14:26.89	140.17	17.97	-38.0	-39.9	23.2	6.06e-01	0	55	0	208666624	47	4525
2026-01-01 11:14:27.90	140.10	18.10	-38.1	-39.9	23.1	6.08e-01	0	55	0	210763776	47	4539
2026-01-01 11:14:28.90	140.02	18.23	-38.1	-40.0	23.1	6.07e-01	0	55	0	212336640	47	4547
2026-01-01 11:14:29.91	139.94	18.36	-38.1	-40.0	21.7	6.06e-01	0	55	0	214433792	47	4560
2026-01-01 11:14:30.92	139.86	18.50	-38.1	-40.0	23.1	6.07e-01	0	55	0	216006656	47	4575
2026-01-01 11:14:31.93	139.78	18.63	-38.1	-40.0	23.0	6.05e-01	0	55	0	218103808	47	4591
2026-01-01 11:14:32.94	139.70	18.77	-38.1	-40.0	23.1	6.06e-01	0	55	0	220200960	47	4594
2026-01-01 11:14:33.95	139.62	18.90	-38.1	-40.0	23.1	6.08e-01	0	55	0	221773824	47	4570
2026-01-01 11:14:34.96	139.53	19.04	-38.1	-40.0	23.1	6.06e-01	0	55	0	223870976	47	4561
2026-01-01 11:14:35.97	139.45	19.18	-38.1	-39.9	23.2	6.07e-01	0	55	0	225443840	47	4532
2026-01-01 11:14:36.98	139.37	19.31	-38.0	-39.9	23.3	6.07e-01	0	55	0	227540992	47	4510
2026-01-01 11:14:37.99	139.28	19.45	-37.9	-39.8	23.3	6.06e-01	0	55	0	229638144	47	4477
2026-01-01 11:14:39.00	139.19	19.59	-37.9	-39.8	23.4	6.07e-01	0	55	0	231211008	47	4450
2026-01-01 11:14:40.01	139.11	19.73	-37.9	-39.7	23.4	6.06e-01	0	55	0	233308160	47	4405
2026-01-01 11:14:41.02	139.02	19.87	-37.8	-39.7	23.5	6.07e-01	0	55	0	235405312	47	4398
2026-01-01 11:14:42.03	138.93	20.01	-37.9	-39.7	23.5	6.05e-01	0	55	0	236978176	47	4418
2026-01-01 11:14:43.04	138.84	20.16	-37.9	-39.8	23.4	6.06e-01	0	55	0	239075328	47	4448
2026-01-01 11:14:44.05	138.75	20.30	-38.0	-39.8	23.3	6.05e-01	0	55	0	240648192	47	4486
2026-01-01 11:14:45.06	138.66	20.44	-38.0	-39.9	23.3	6.06e-01	0	55	0	242745344	47	4515
2026-01-01 11:14:46.07	138.57	20.59	-38.1	-40.0	23.2	6.07e-01	0	55	0	244842496	47	4579
2026-01-01 11:14:47.08	138.47	20.73	-38.2	-40.1	23.1	6.07e-01	0	55	0	246415360	47	4616
2026-01-01 11:14:48.09	138.38	20.88	-38.3	-40.2	23.0	6.07e-01	0	55	0	248512512	47	4679
2026-01-01 11:14:49.09	138.29	21.03	-38.3	-40.2	23.0	6.06e-01	0	55	0	250085376	47	4676
2026-01-01 11:14:50.11	138.19	21.18	-38.3	-40.2	23.0	6.05e-01	0	55	0	252182528	47	4674
2026-01-01 11:14:51.11	138.09	21.33	-38.3	-40.2	23.0	6.05e-01	0	55	0	254279680	47	4663
2026-01-01 11:14:52.12	137.99	21.48	-38.2	-40.1	23.1	6.05e-01	0	55	0	255852544	47	4615
2026-01-01 11:14:53.13	137.89	21.63	-38.2	-40.1	23.2	6.04e-01	0	55	0	257949696	47	4603
2026-01-01 11:14:54.14	137.79	21.78	-38.2	-40.0	23.2	6.06e-01	0	56	0	260046848	47	4586
2026-01-01 11:14:55.15	137.69	21.93	-38.1	-40.0	23.2	6.08e-01	0	55	0	261619712	47	4573
2026-01-01 11:14:56.16	137.59	22.09	-38.1	-40.0	23.2	6.08e-01	0	56	0	263716864	47	4583
2026-01-01 11:14:57.17	137.49	22.24	-38.2	-40.1	23.2	6.06e-01	0	56	0	265289728	47	4601
2026-01-01 11:14:58.18	137.38	22.40	-38.2	-40.1	23.2	6.06e-01	0	56	0	267386880	47	4609
2026-01-01 11:14:59.19	137.28	22.55	-38.2	-40.1	23.2	6.06e-01	0	56	0	269484032	47	4618
2026-01-01 11:15:00.20	137.17	22.71	-38.3	-40.2	23.1	6.07e-01	0	55	0	271056896	47	4660
2026-01-01 11:15:01.21	137.06	22.87	-38.3	-40.2	23.1	6.05e-01	0	56	0	273154048	47	4688
2026-01-01 11:15:02.22	136.95	23.03	-38.3	-40.3	23.0	6.05e-01	0	56	0	274726912	47	4718
2026-01-01 11:15:03.23	136.84	23.19	-38.4	-40.3	23.0	6.07e-01	0	55	0	276824064	47	4741
2026-01-01 11:15:04.24	136.73	23.35	-38.4	-40.3	23.0	6.07e-01	0	56	0	278921216	47	4749
2026-01-01 11:15:05.25	136.62	23.51	-38.5	-40.4	22.9	6.07e-01	0	56	0	280494080	47	4786
2026-01-01 11:15:06.26	136.50	23.68	-38.5	-40.5	22.8	6.07e-01	0	56	0	282591232	47	4819
2026-01-01 11:15:07.27	136.39	23.84	-38.5	-40.4	22.8	6.07e-01	0	56	0	284164096	47	4810
2026-01-01 11:15:08.28	136.27	24.01	-38.4	-40.4	22.9	6.08e-01	0	55	0	286261248	47	4764
2026-01-01 11:15:09.29	136.15	24.17	-38.4	-40.3	23.0	6.06e-01	0	56	0	288358400	47	4745
2026-01-01 11:15:10.30	136.03	24.34	-38.3	-40.2	23.1	6.05e-01	0	56	0	289931264	47	4677
2026-01-01 11:15:11.31	135.91	24.51	-38.2	-40.1	23.2	6.05e-01	0	56	0	292028416	47	4626
2026-01-01 11:15:12.31	135.79	24.68	-38.3	-40.2	23.2	6.06e-01	0	56	0	293601280	47	4652
2026-01-01 11:15:13.32	135.67	24.85	-38.3	-40.2	23.1	6.07e-01	0	56	0	295698432	47	4661
2026-01-01 11:15:14.33	135.54	25.02	-38.4	-40.3	23.0	6.07e-01	0	56	0	297795584	47	4742
2026-01-01 11:15:15.34	135.42	25.19	-38.5	-40.4	22.9	6.08e-01	0	56	0	299368448	47	4779
2026-01-01 11:15:16.35	135.29	25.36	-38.5	-40.5	22.9	6.08e-01	0	56	0	301465600	47	4839
2026-01-01 11:15:17.36	135.16	25.54	-38.6	-40.5	22.8	6.07e-01	0	56	0	303562752	47	4842
2026-01-01 11:15:18.37	135.03	25.71	-38.5	-40.4	22.9	6.07e-01	0	56	0	305135616	47	4802
2026-01-01 11:15:19.38	134.89	25.89	-38.4	-40.3	23.0	6.05e-01	0	56	0	307232768	47	4718
2026-01-01 11:15:20.39	134.76	26.07	-38.1	-40.0	23.3	6.07e-01	0	56	0	308805632	47	4574
2026-01-01 11:15:21.40	134.62	26.25	-38.0	-39.8	23.5	6.05e-01	0	56	0	310902784	47	4478
2026-01-01 11:15:22.41	134.49	26.43	-37.9	-39.7	23.6	6.06e-01	0	56	0	312999936	47	4425
2026-01-01 11:15:23.42	134.35	26.61	-37.9	-39.7	23.6	6.05e-01	0	56	0	314572800	47	4427
2026-01-01 11:15:24.43	134.21	26.79	-38.0	-39.8	23.5	6.04e-01	0	56	0	316669952	47	4470
2026-01-01 11:15:25.44	134.07	26.98	-38.1	-40.0	23.4	6.05e-01	0	56	0	318242816	47	4555
2026-01-01 11:15:26.45	133.92	27.16	-38.1	-40.0	23.4	6.06e-01	0	56	0	320339968	47	4564
2026-01-01 11:15:27.46	133.77	27.35	-38.1	-40.0	23.4	6.06e-01	0	56	0	322437120	47	4549
2026-01-01 11:15:28.47	133.63	27.54	-38.0	-39.8	23.6	6.08e-01	0	56	0	324009984	47	4465
2026-01-01 11:15:29.48	133.48	27.72	-37.9	-39.6	23.7	6.06e-01	0	56	0	326107136	47	4391
2026-01-01 11:15:30.49	133.33	27.91	-37.8	-39.6	23.8	6.06e-01	0	56	0	328204288	47	4354
2026-01-01 11:15:31.50	133.17	28.10	-37.8	-39.6	23.8	6.04e-01	0	56	0	329777152	47	4375
2026-01-01 11:15:32.51	133.02	28.30	-38.0	-39.8	23.6	6.06e-01	0	56	0	331874304	47	4450
2026-01-01 11:15:33.51	132.86	28.49	-38.0	-39.8	23.5	6.04e-01	0	56	0	333447168	47	4483
2026-01-01 11:15:34.52	132.70	28.68	-37.9	-39.7	23.6	6.07e-01	0	56	0	335544320	47	4434
2026-01-01 11:15:35.53	132.54	28.88	-37.8	-39.6	23.8	6.05e-01	0	56	0	337117184	47	4350
2026-01-01 11:15:36.54	132.38	29.07	-37.7	-39.5	23.9	6.07e-01	0	56	0	339214336	47	4296
2026-01-01 11:15:37.55	132.21	29.27	-37.6	-39.3	24.0	6.08e-01	0	56	0	341311488	47	4227
2026-01-01 11:15:38.56	132.04	29.47	-37.6	-39.4	24.0	6.05e-01	0	56	0	342884352	47	4245
2026-01-01 11:15:39.58	131.87	29.67	-37.7	-39.4	23.9	6.06e-01	0	56	0	344981504	47	4287
2026-01-01 11:15:40.59	131.70	29.88	-37.7	-39.5	23.9	6.07e-01	0	56	0	347078656	47	4305
2026-01-01 11:15:41.60	131.53	30.08	-37.7	-39.4	24.0	6.05e-01	0	56	0	348651520	47	4263
2026-01-01 11:15:42.61	131.35	30.28	-37.7	-39.4	23.9	6.06e-01	0	56	0	350748672	47	4280
2026-01-01 11:15:43.62	131.17	30.49	-37.7	-39.4	24.0	6.04e-01	0	56	0	352321536	47	4275
2026-01-01 11:15:44.63	130.99	30.69	-37.8	-39.5	23.9	6.04e-01	0	56	0	354418688	47	4331
2026-01-01 11:15:45.64	130.80	30.90	-37.7	-39.5	23.9	6.06e-01	0	56	0	356515840	47	4300
2026-01-01 11:15:46.65	130.62	31.11	-37.7	-39.4	24.0	6.04e-01	0	56	0	358088704	47	4266
2026-01-01 11:15:47.66	130.43	31.32	-37.6	-39.3	24.1	6.06e-01	0	56	0	360185856	47	4220
2026-01-01 11:15:48.67	130.24	31.53	-37.6	-39.3	24.1	6.07e-01	0	56	0	361758720	47	4228
2026-01-01 11:15:49.68	130.04	31.75	-37.6	-39.4	24.0	6.06e-01	0	56	0	363855872	47	4254
2026-01-01 11:15:50.69	129.85	31.96	-37.7	-39.4	24.0	6.06e-01	0	56	0	365953024	47	4288
2026-01-01 11:15:51.70	129.65	32.18	-37.7	-39.4	24.0	6.09e-01	0	56	0	367525888	47	4275
2026-01-01 11:15:52.70	129.45	32.39	-37.6	-39.3	24.1	6.05e-01	0	56	0	369623040	47	4218
2026-01-01 11:15:53.71	129.24	32.61	-37.6	-39.3	24.1	6.08e-01	0	56	0	371720192	47	4225
2026-01-01 11:15:54.72	129.03	32.83	-37.6	-39.4	24.1	6.04e-01	0	56	0	373293056	47	4253
2026-01-01 11:15:55.73	128.82	33.05	-37.9	-39.7	23.8	6.05e-01	0	56	0	375390208	47	4402
2026-01-01 11:15:56.74	128.61	33.27	-38.2	-40.1	23.4	6.07e-01	0	56	0	376963072	47	4629
2026-01-01 11:15:57.75	128.39	33.50	-38.3	-40.2	23.3	6.05e-01	0	56	0	379060224	47	4669
2026-01-01 11:15:58.76	128.17	33.72	-38.2	-40.1	23.4	6.03e-01	0	56	0	381157376	47	4606
2026-01-01 11:15:59.77	127.95	33.95	-38.0	-39.8	23.6	6.05e-01	0	56	0	382730240	47	4478
2026-01-01 11:16:00.78	127.72	34.17	-37.9	-39.7	23.7	6.06e-01	0	56	0	384827392	47	4433
2026-01-01 11:16:01.79	127.49	34.40	-38.1	-39.9	23.5	6.06e-01	0	56	0	386400256	47	4510
2026-01-01 11:16:02.80	127.26	34.63	-38.3	-40.1	23.4	6.04e-01	0	56	0	388497408	47	4651
2026-01-01 11:16:03.81	127.02	34.86	-38.6	-40.5	23.0	6.04e-01	0	56	0	390594560	47	4845
2026-01-01 11:16:04.82	126.78	35.09	-39.1	-41.1	22.8	6.09e-01	0	56	0	392167424	48	4909
2026-01-01 11:16:05.84	126.53	35.33	-39.2	-41.1	22.8	6.07e-01	0	56	0	394264576	48	4925
2026-01-01 11:16:06.85	126.28	35.57	-39.0	-41.0	22.7	6.06e-01	0	56	0	396361728	48	4831
2026-01-01 11:16:07.86	126.03	35.80	-38.9	-40.8	23.1	6.05e-01	0	56	0	397934592	48	4708
2026-01-01 11:16:08.86	125.78	36.04	-38.9	-40.8	23.1	6.05e-01	0	56	0	400031744	48	4735
2026-01-01 11:16:09.87	125.52	36.27	-39.3	-41.3	22.7	6.07e-01	0	56	0	401604608	49	4715
2026-01-01 11:16:10.88	125.26	36.51	-39.5	-41.6	22.4	6.06e-01	0	56	0	403701760	49	4871
2026-01-01 11:16:11.89	124.99	36.75	-39.6	-41.6	22.3	6.07e-01	0	56	0	405798912	49	4913
2026-01-01 11:16:12.90	124.72	37.00	-39.6	-41.6	22.3	6.07e-01	0	56	0	407371776	49	4910
2026-01-01 11:16:13.91	124.45	37.24	-39.4	-41.5	22.4	6.08e-01	0	56	0	409468928	49	4822
2026-01-01 11:16:14.92	124.17	37.48	-39.6	-41.6	22.3	6.08e-01	0	56	0	411041792	49	4914
2026-01-01 11:16:15.93	123.88	37.73	-39.8	-41.9	22.0	6.05e-01	0	56	0	413138944	50	4811
2026-01-01 11:16:16.94	123.59	37.98	-39.9	-42.1	21.8	6.08e-01	0	56	0	415236096	50	4910
2026-01-01 11:16:17.94	123.31	38.22	-39.9	-42.0	21.9	6.05e-01	0	56	0	416808960	50	4866
2026-01-01 11:16:18.95	123.01	38.47	-39.7	-41.8	22.2	6.06e-01	0	56	0	418906112	50	4710
2026-01-01 11:16:19.96	122.71	38.72	-39.8	-41.9	22.0	6.06e-01	0	57	0	420478976	50	4800
2026-01-01 11:16:20.97	122.40	38.97	-40.0	-42.2	21.8	6.09e-01	0	56	0	422576128	50	4967
2026-01-01 11:16:21.98	122.09	39.22	-39.8	-41.9	22.0	6.07e-01	0	56	0	424673280	50	4810
2026-01-01 11:16:22.99	121.77	39.47	-39.7	-41.8	22.2	6.09e-01	0	56	0	426246144	50	4709
2026-01-01 11:16:24.00	121.45	39.73	-40.1	-42.3	21.7	6.07e-01	0	56	0	428343296	50	5019
2026-01-01 11:16:25.01	121.12	39.98	-39.9	-42.1	21.9	6.06e-01	0	56	0	429916160	50	4874
2026-01-01 11:16:26.02	120.79	40.24	-39.5	-41.5	22.4	6.07e-01	0	56	0	432013312	50	4587
2026-01-01 11:16:27.03	120.45	40.49	-39.6	-41.7	22.3	6.08e-01	0	56	0	434110464	50	4666
2026-01-01 11:16:28.04	120.11	40.75	-39.9	-42.1	21.9	6.04e-01	0	56	0	435683328	50	4871
2026-01-01 11:16:29.05	119.76	41.01	-39.7	-41.7	22.2	6.07e-01	0	56	0	437780480	50	4701
2026-01-01 11:16:30.06	119.40	41.27	-39.5	-41.6	22.4	6.08e-01	0	56	0	439877632	50	4620
2026-01-01 11:16:31.07	119.04	41.52	-39.7	-41.8	22.2	6.08e-01	0	56	0	441450496	50	4708
2026-01-01 11:16:32.08	118.68	41.78	-39.4	-41.4	22.5	6.07e-01	0	56	0	443547648	50	4512
2026-01-01 11:16:33.08	118.31	42.04	-39.3	-41.2	22.7	6.04e-01	0	56	0	445120512	50	4429
2026-01-01 11:16:34.09	117.93	42.30	-39.4	-41.5	22.6	6.05e-01	0	56	0	447217664	50	4547
2026-01-01 11:16:35.10	117.55	42.56	-39.5	-41.6	22.4	6.05e-01	0	57	0	449314816	50	4629
2026-01-01 11:16:36.12	117.15	42.83	-39.3	-41.3	22.7	6.07e-01	0	56	0	450887680	50	4454
2026-01-01 11:16:37.12	116.76	43.09	-39.1	-41.0	22.9	6.07e-01	0	56	0	452984832	50	4324
2026-01-01 11:16:38.13	116.35	43.35	-39.1	-41.0	22.9	6.08e-01	0	56	0	454557696	50	4332
2026-01-01 11:16:39.14	115.94	43.61	-39.2	-41.2	22.8	6.06e-01	0	56	0	456654848	50	4401
2026-01-01 11:16:40.15	115.52	43.88	-39.3	-41.3	22.6	6.06e-01	0	56	0	458752000	50	4488
2026-01-01 11:16:41.16	115.10	44.14	-39.1	-41.1	22.9	6.06e-01	0	57	0	460324864	50	4346
2026-01-01 11:16:42.17	114.66	44.40	-39.0	-40.9	23.0	6.07e-01	0	56	0	462422016	50	4274
2026-01-01 11:16:43.18	114.22	44.67	-39.0	-40.9	23.1	6.06e-01	0	56	0	463994880	49	4501
2026-01-01 11:16:44.19	113.77	44.93	-39.2	-41.2	22.8	6.07e-01	0	56	0	466092032	49	4666
2026-01-01 11:16:45.20	113.32	45.19	-39.3	-41.3	22.7	6.07e-01	0	56	0	468189184	49	4741
2026-01-01 11:16:46.22	112.85	45.46	-39.1	-41.1	22.9	6.03e-01	0	56	0	469762048	49	4609
2026-01-01 11:16:47.23	112.38	45.72	-39.0	-40.9	23.0	6.07e-01	0	57	0	471859200	49	4537
2026-01-01 11:16:48.24	111.90	45.99	-39.2	-41.1	22.9	6.05e-01	0	56	0	473432064	49	4637
2026-01-01 11:16:49.24	111.42	46.24	-39.4	-41.4	22.6	6.07e-01	0	57	0	475529216	49	4779
2026-01-01 11:16:50.26	110.92	46.51	-39.3	-41.2	22.7	6.04e-01	0	56	0	477626368	49	4695
2026-01-01 11:16:51.27	110.42	46.77	-39.1	-41.0	23.0	6.06e-01	0	56	0	479199232	49	4566
2026-01-01 11:16:52.28	109.90	47.03	-39.4	-41.4	22.6	6.07e-01	0	56	0	481296384	49	4792
2026-01-01 11:16:53.29	109.38	47.29	-39.6	-41.6	22.4	6.05e-01	0	57	0	483393536	49	4903
2026-01-01 11:16:54.30	108.85	47.55	-39.4	-41.4	22.6	6.05e-01	0	56	0	484966400	49	4776
2026-01-01 11:16:55.31	108.31	47.80	-39.4	-41.5	22.6	6.06e-01	0	56	0	487063552	49	4821
2026-01-01 11:16:56.32	107.76	48.06	-39.7	-41.7	22.3	6.05e-01	0	57	0	488636416	49	4980
2026-01-01 11:16:57.33	107.21	48.31	-39.8	-42.0	22.0	6.05e-01	0	56	0	490733568	50	4830
2026-01-01 11:16:58.34	106.64	48.57	-39.2	-41.2	22.8	6.06e-01	0	57	0	492830720	50	4392
2026-01-01 11:16:59.35	106.06	48.82	-39.3	-41.3	22.8	6.08e-01	0	57	0	494403584	50	4447
2026-01-01 11:17:00.35	105.48	49.07	-39.7	-41.7	22.3	6.07e-01	0	57	0	496500736	50	4702
2026-01-01 11:17:01.36	104.89	49.31	-39.4	-41.4	22.6	6.05e-01	0	57	0	498073600	50	4536
2026-01-01 11:17:02.38	104.28	49.56	-39.3	-41.2	22.8	6.06e-01	0	57	0	500170752	50	4437
2026-01-01 11:17:03.39	103.66	49.81	-39.2	-41.2	22.9	6.06e-01	0	57	0	502267904	50	4401
2026-01-01 11:17:04.40	103.04	50.05	-39.6	-41.6	22.5	6.07e-01	0	57	0	503840768	50	4630
2026-01-01 11:17:05.41	102.40	50.29	-39.3	-41.3	22.7	6.03e-01	0	57	0	505937920	50	4455
2026-01-01 11:17:06.42	101.75	50.53	-39.2	-41.1	23.0	6.07e-01	0	57	0	508035072	50	4358
2026-01-01 11:17:07.43	101.10	50.76	-39.2	-41.2	22.9	6.05e-01	0	57	0	509607936	50	4406
2026-01-01 11:17:08.44	100.43	50.99	-39.4	-41.3	22.7	6.08e-01	0	57	0	511705088	50	4485
2026-01-01 11:17:09.45	99.76	51.22	-39.1	-41.0	23.0	6.06e-01	0	57	0	513277952	50	4315
2026-01-01 11:17:10.46	99.07	51.45	-38.9	-40.8	23.2	6.06e-01	0	57	0	515375104	49	4477
2026-01-01 11:17:11.46	98.38	51.67	-39.1	-41.0	23.0	6.07e-01	0	56	0	517472256	49	4588
2026-01-01 11:17:12.47	97.67	51.88	-39.2	-41.2	22.9	6.09e-01	0	57	0	519045120	49	4671
2026-01-01 11:17:13.48	96.95	52.10	-38.6	-40.5	23.5	6.06e-01	0	57	0	521142272	49	4298
2026-01-01 11:17:14.49	96.22	52.31	-38.6	-40.4	23.7	6.05e-01	0	57	0	522715136	48	4513
2026-01-01 11:17:15.50	95.48	52.52	-38.9	-40.8	23.2	6.08e-01	0	57	0	524812288	48	4722
2026-01-01 11:17:16.51	94.73	52.72	-38.8	-40.7	23.4	6.08e-01	0	56	0	526909440	48	4653
2026-01-01 11:17:17.52	93.97	52.92	-38.5	-40.2	23.8	6.06e-01	0	57	0	528482304	48	4434
2026-01-01 11:17:18.53	93.20	53.12	-38.7	-40.6	23.5	6.06e-01	0	57	0	530579456	48	4602
2026-01-01 11:17:19.54	92.42	53.31	-38.6	-40.4	23.6	6.05e-01	0	57	0	532676608	48	4541
2026-01-01 11:17:20.55	91.63	53.49	-38.6	-40.4	23.6	6.05e-01	0	56	0	534249472	48	4540
2026-01-01 11:17:21.56	90.82	53.68	-38.6	-40.4	23.7	6.07e-01	0	57	0	536346624	48	4519
2026-01-01 11:17:22.57	90.01	53.85	-38.5	-40.3	23.8	6.05e-01	0	57	0	537919488	48	4468
2026-01-01 11:17:23.58	89.19	54.02	-38.8	-40.6	23.5	6.07e-01	0	57	0	540016640	48	4631
2026-01-01 11:17:24.59	88.36	54.19	-38.5	-40.3	23.8	6.05e-01	0	57	0	542113792	48	4463
2026-01-01 11:17:25.60	87.52	54.35	-38.7	-40.5	23.6	6.08e-01	0	57	0	543686656	48	4568
2026-01-01 11:17:26.61	86.67	54.50	-39.1	-41.0	23.1	6.06e-01	0	57	0	545783808	48	4838
2026-01-01 11:17:27.62	85.81	54.65	-38.7	-40.5	23.6	6.07e-01	0	57	0	547356672	48	4551
2026-01-01 11:17:28.63	84.94	54.79	-39.0	-40.9	23.2	6.06e-01	0	57	0	549453824	48	4777
2026-01-01 11:17:29.64	84.06	54.93	-39.0	-40.9	23.2	6.07e-01	0	57	0	551550976	48	4795
2026-01-01 11:17:30.65	83.18	55.06	-38.9	-40.8	23.3	6.06e-01	0	56	0	553123840	48	4709
2026-01-01 11:17:31.66	82.28	55.18	-39.2	-41.2	23.0	6.06e-01	0	57	0	555220992	48	4930
2026-01-01 11:17:32.67	81.38	55.29	-38.7	-40.6	23.6	6.07e-01	0	57	0	556793856	49	4344
2026-01-01 11:17:33.68	80.48	55.40	-39.2	-41.1	23.0	6.08e-01	0	57	0	558891008	49	4633
2026-01-01 11:17:34.69	79.56	55.51	-39.0	-40.9	23.1	6.06e-01	0	57	0	560988160	49	4534
2026-01-01 11:17:35.70	78.64	55.60	-39.0	-40.9	23.2	6.05e-01	0	57	0	562561024	49	4510
2026-01-01 11:17:36.71	77.71	55.69	-38.9	-40.8	23.3	6.06e-01	0	57	0	564658176	49	4467
2026-01-01 11:17:37.72	76.78	55.77	-39.3	-41.3	22.9	6.06e-01	0	57	0	566231040	49	4739
2026-01-01 11:17:38.73	75.84	55.84	-39.2	-41.1	22.9	6.07e-01	0	57	0	568328192	49	4629
2026-01-01 11:17:39.74	74.90	55.91	-38.9	-40.8	23.3	6.05e-01	0	57	0	570425344	49	4466
2026-01-01 11:17:40.75	73.95	55.97	-39.7	-41.7	22.4	6.06e-01	0	57	0	571998208	49	4953
2026-01-01 11:17:41.75	73.01	56.02	-39.2	-41.1	23.0	6.07e-01	0	56	0	574095360	49	4646
2026-01-01 11:17:42.76	72.05	56.06	-39.3	-41.3	22.9	6.07e-01	0	57	0	576192512	49	4723
2026-01-01 11:17:43.77	71.10	56.10	-39.3	-41.2	23.0	6.08e-01	0	56	0	577765376	49	4670
2026-01-01 11:17:44.78	70.14	56.13	-39.7	-41.8	22.4	6.06e-01	0	57	0	579862528	49	5005
2026-01-01 11:17:45.79	69.18	56.15	-39.0	-40.8	23.3	6.11e-01	0	57	0	581435392	49	4476
2026-01-01 11:17:46.80	68.22	56.16	-39.3	-41.3	22.8	6.07e-01	0	57	0	583532544	49	4740
2026-01-01 11:17:47.81	67.25	56.17	-39.7	-41.8	22.3	6.06e-01	0	57	0	585629696	50	4720
2026-01-01 11:17:48.82	66.29	56.16	-39.1	-41.0	23.1	6.07e-01	0	56	0	587202560	50	4304
2026-01-01 11:17:49.83	65.33	56.15	-39.1	-41.0	23.1	6.08e-01	0	57	0	589299712	50	4339
2026-01-01 11:17:50.84	64.37	56.13	-39.4	-41.3	22.8	6.05e-01	0	57	0	590872576	50	4489
2026-01-01 11:17:51.85	63.41	56.11	-39.2	-41.2	22.9	6.07e-01	0	57	0	592969728	50	4400
2026-01-01 11:17:52.86	62.45	56.07	-38.9	-40.8	23.4	6.02e-01	0	57	0	595066880	49	4454
2026-01-01 11:17:53.87	61.50	56.03	-39.3	-41.2	22.9	6.05e-01	0	57	0	596639744	49	4695
2026-01-01 11:17:54.88	60.54	55.98	-39.4	-41.3	22.8	6.06e-01	0	57	0	598736896	49	4756
2026-01-01 11:17:55.89	59.60	55.93	-39.1	-41.0	23.0	6.09e-01	0	57	0	600834048	49	4571
2026-01-01 11:17:56.90	58.65	55.86	-39.1	-40.9	23.1	6.08e-01	0	57	0	602406912	49	4536
2026-01-01 11:17:57.91	57.71	55.79	-39.7	-41.8	22.4	6.05e-01	0	57	0	604504064	49	5015
2026-01-01 11:17:58.92	56.78	55.71	-39.4	-41.3	22.8	6.10e-01	0	57	0	606076928	50	4479
2026-01-01 11:17:59.93	55.85	55.62	-39.3	-41.2	22.9	6.08e-01	0	57	0	608174080	50	4411
2026-01-01 11:18:00.94	54.93	55.53	-39.5	-41.6	22.6	6.05e-01	0	57	0	610271232	50	4606
2026-01-01 11:18:01.95	54.02	55.43	-39.8	-41.9	22.1	6.08e-01	0	57	0	611844096	50	4771
2026-01-01 11:18:02.96	53.11	55.32	-38.8	-40.6	23.4	6.07e-01	0	57	0	613941248	49	4388
2026-01-01 11:18:03.97	52.20	55.21	-39.4	-41.4	22.8	6.07e-01	0	57	0	615514112	49	4767
2026-01-01 11:18:04.98	51.31	55.08	-39.5	-41.6	22.5	6.07e-01	0	57	0	617611264	50	4609
2026-01-01 11:18:05.99	50.42	54.96	-38.7	-40.5	23.5	6.07e-01	0	57	0	619708416	49	4332
2026-01-01 11:18:07.00	49.55	54.82	-39.0	-40.9	23.2	6.08e-01	0	57	0	621281280	49	4519
2026-01-01 11:18:08.01	48.68	54.68	-39.2	-41.2	22.9	6.08e-01	0	57	0	623378432	49	4676
2026-01-01 11:18:09.02	47.82	54.54	-39.2	-41.2	22.9	6.06e-01	0	57	0	624951296	49	4657
2026-01-01 11:18:10.03	46.97	54.38	-39.1	-41.0	23.0	6.06e-01	0	57	0	627048448	49	4593
2026-01-01 11:18:11.04	46.12	54.23	-39.5	-41.5	22.5	6.08e-01	0	57	0	629145600	49	4854
2026-01-01 11:18:12.05	45.29	54.06	-39.6	-41.7	22.5	6.08e-01	0	57	0	630718464	50	4652
2026-01-01 11:18:13.06	44.47	53.89	-39.1	-41.0	23.1	6.07e-01	0	57	0	632815616	50	4303
2026-01-01 11:18:14.07	43.66	53.72	-38.6	-40.3	23.7	6.05e-01	0	57	0	634388480	49	4241
2026-01-01 11:18:15.08	42.85	53.54	-38.2	-40.0	24.0	6.05e-01	0	57	0	636485632	48	4295
2026-01-01 11:18:16.09	42.06	53.36	-38.6	-40.4	23.7	6.05e-01	0	57	0	638582784	48	4508
2026-01-01 11:18:17.10	41.28	53.17	-38.2	-40.0	24.0	6.07e-01	0	57	0	640155648	48	4304
2026-01-01 11:18:18.11	40.51	52.97	-37.5	-39.2	24.4	6.07e-01	0	57	0	642252800	47	4166
2026-01-01 11:18:19.11	39.75	52.78	-38.3	-40.2	23.5	6.08e-01	0	57	0	644349952	47	4667
2026-01-01 11:18:20.12	39.00	52.58	-38.2	-40.0	23.6	6.04e-01	0	57	0	645922816	47	4562
2026-01-01 11:18:21.13	38.26	52.37	-38.0	-39.7	23.8	6.05e-01	0	57	0	648019968	47	4425
2026-01-01 11:18:22.14	37.53	52.16	-37.4	-39.0	24.6	6.07e-01	0	57	0	649592832	46	4315
2026-01-01 11:18:23.15	36.81	51.94	-37.8	-39.5	24.1	6.06e-01	0	57	0	651689984	46	4589
2026-01-01 11:18:24.16	36.10	51.73	-38.2	-40.1	23.5	6.07e-01	0	57	0	653787136	47	4602
2026-01-01 11:18:25.17	35.40	51.51	-37.7	-39.4	24.2	6.05e-01	0	57	0	655360000	47	4290
2026-01-01 11:18:26.18	34.71	51.28	-38.2	-40.0	23.7	6.09e-01	0	57	0	657457152	47	4557
2026-01-01 11:18:27.19	34.03	51.05	-38.0	-39.8	23.8	6.06e-01	0	57	0	659030016	47	4464
2026-01-01 11:18:28.20	33.37	50.82	-37.9	-39.7	23.9	6.07e-01	0	57	0	661127168	47	4401
2026-01-01 11:18:29.21	32.71	50.59	-38.1	-39.9	23.7	6.06e-01	0	57	0	663224320	47	4519
2026-01-01 11:18:30.22	32.06	50.36	-38.0	-39.8	23.8	6.07e-01	0	57	0	664797184	47	4447
2026-01-01 11:18:31.23	31.43	50.12	-38.0	-39.8	23.8	6.06e-01	0	57	0	666894336	47	4469
2026-01-01 11:18:32.24	30.80	49.88	-38.1	-39.9	23.8	6.06e-01	0	57	0	668991488	47	4508
2026-01-01 11:18:33.25	30.18	49.63	-37.9	-39.7	23.9	6.05e-01	0	57	0	670564352	47	4409
2026-01-01 11:18:34.26	29.58	49.39	-37.7	-39.4	24.2	6.06e-01	0	57	0	672661504	47	4268
2026-01-01 11:18:35.27	28.98	49.14	-38.0	-39.8	23.8	6.08e-01	0	57	0	674234368	47	4455
2026-01-01 11:18:36.28	28.39	48.89	-38.1	-39.9	23.6	6.07e-01	0	57	0	676331520	47	4527
2026-01-01 11:18:37.29	27.82	48.64	-37.8	-39.5	24.1	6.05e-01	0	57	0	678428672	47	4319
2026-01-01 11:18:38.30	27.25	48.39	-38.0	-39.7	23.9	6.05e-01	0	57	0	680001536	47	4433
2026-01-01 11:18:39.31	26.69	48.14	-37.8	-39.5	24.1	6.06e-01	0	57	0	682098688	47	4316
2026-01-01 11:18:40.32	26.14	47.88	-38.0	-39.7	23.9	6.07e-01	0	57	0	683671552	47	4428
2026-01-01 11:18:41.33	25.60	47.63	-38.0	-39.8	23.8	6.04e-01	0	57	0	685768704	47	4454
2026-01-01 11:18:42.34	25.07	47.37	-37.8	-39.6	23.9	6.04e-01	0	57	0	687865856	47	4360
2026-01-01 11:18:43.35	24.55	47.11	-37.4	-39.1	24.5	6.06e-01	0	57	0	689438720	46	4342
2026-01-01 11:18:44.36	24.04	46.85	-37.7	-39.4	24.2	6.06e-01	0	57	0	691535872	46	4536
2026-01-01 11:18:45.37	23.53	46.59	-38.0	-39.8	23.8	6.07e-01	0	57	0	693108736	46	4714
2026-01-01 11:18:46.38	23.03	46.33	-38.0	-39.8	23.7	6.03e-01	0	57	0	695205888	46	4755
2026-01-01 11:18:47.39	22.55	46.07	-37.8	-39.6	24.0	6.05e-01	0	57	0	697303040	46	4615
2026-01-01 11:18:48.40	22.07	45.81	-37.6	-39.3	24.2	6.04e-01	0	57	0	698875904	46	4470
2026-01-01 11:18:49.41	21.60	45.55	-37.6	-39.3	24.3	6.06e-01	0	57	0	700973056	46	4445
2026-01-01 11:18:50.42	21.13	45.29	-38.0	-39.8	23.8	6.06e-01	0	57	0	702545920	46	4727
2026-01-01 11:18:51.43	20.68	45.03	-38.2	-40.0	23.6	6.06e-01	0	57	0	704643072	46	4837
2026-01-01 11:18:52.44	20.23	44.76	-38.0	-39.8	23.7	6.06e-01	0	57	0	706740224	46	4726
2026-01-01 11:18:53.45	19.79	44.50	-37.9	-39.6	23.9	6.06e-01	0	57	0	708313088	46	4648
2026-01-01 11:18:54.46	19.35	44.24	-38.0	-39.8	23.8	6.04e-01	0	57	0	710410240	46	4710
2026-01-01 11:18:55.47	18.93	43.98	-38.2	-40.0	23.6	6.07e-01	0	57	0	712507392	46	4845
2026-01-01 11:18:56.48	18.51	43.71	-38.3	-40.1	23.5	6.06e-01	0	57	0	714080256	47	4616
2026-01-01 11:18:57.49	18.10	43.45	-38.4	-40.3	23.3	6.06e-01	0	57	0	716177408	47	4706
2026-01-01 11:18:58.50	17.69	43.19	-38.5	-40.3	23.2	6.07e-01	0	57	0	717750272	47	4745
2026-01-01 11:18:59.51	17.29	42.93	-38.5	-40.4	23.1	6.06e-01	0	57	0	719847424	47	4796
2026-01-01 11:19:00.52	16.90	42.67	-38.3	-40.1	23.4	6.07e-01	0	57	0	721944576	47	4638
2026-01-01 11:19:01.53	16.51	42.41	-38.5	-40.4	23.1	6.06e-01	0	57	0	723517440	47	4801
2026-01-01 11:19:02.54	16.13	42.15	-39.3	-41.4	22.7	6.07e-01	0	57	0	725614592	49	4762
2026-01-01 11:19:03.55	15.76	41.89	-39.3	-41.3	22.7	6.06e-01	0	57	0	727187456	49	4713
2026-01-01 11:19:04.56	15.39	41.63	-39.1	-41.0	22.9	6.05e-01	0	57	0	729284608	49	4590
2026-01-01 11:19:05.57	15.03	41.37	-39.3	-41.3	22.7	6.07e-01	0	57	0	731381760	49	4745
2026-01-01 11:19:06.58	14.68	41.11	-39.6	-41.7	22.3	6.04e-01	0	57	0	732954624	49	4964
2026-01-01 11:19:07.59	14.33	40.86	-39.2	-41.2	22.8	6.05e-01	0	57	0	735051776	49	4672
2026-01-01 11:19:08.60	13.99	40.60	-39.2	-41.2	22.8	6.06e-01	0	57	0	737148928	49	4662
2026-01-01 11:19:09.61	13.65	40.35	-40.0	-42.2	21.9	6.05e-01	0	57	0	738721792	50	4940
2026-01-01 11:19:10.62	13.31	40.09	-39.9	-42.1	21.8	6.05e-01	0	57	0	740818944	50	4911
2026-01-01 11:19:11.63	12.99	39.84	-39.4	-41.4	22.6	6.06e-01	0	57	0	742391808	50	4521
2026-01-01 11:19:12.64	12.67	39.59	-39.5	-41.5	22.5	6.07e-01	0	57	0	744488960	50	4562
2026-01-01 11:19:13.65	12.35	39.33	-39.9	-42.1	21.9	6.07e-01	0	57	0	746586112	50	4876
2026-01-01 11:19:14.66	12.04	39.08	-40.0	-42.1	21.8	6.06e-01	0	57	0	748158976	50	4919
2026-01-01 11:19:15.67	11.73	38.83	-39.9	-42.1	21.9	6.06e-01	0	57	0	750256128	50	4893
2026-01-01 11:19:16.68	11.43	38.58	-40.0	-42.2	21.8	6.06e-01	0	57	0	751828992	50	4965
2026-01-01 11:19:17.69	11.13	38.34	-40.1	-42.4	21.6	6.07e-01	0	57	0	753926144	50	5054
2026-01-01 11:19:18.70	10.84	38.09	-40.0	-42.1	21.5	6.06e-01	0	57	0	756023296	50	4920
2026-01-01 11:19:19.71	10.55	37.84	-39.7	-41.8	22.1	6.06e-01	0	57	0	757596160	50	4733
2026-01-01 11:19:20.72	10.26	37.60	-39.6	-41.6	22.3	6.08e-01	0	57	0	759693312	50	4639
2026-01-01 11:19:21.73	9.98	37.36	-39.5	-41.6	22.4	6.06e-01	0	57	0	761266176	50	4611
2026-01-01 11:19:22.75	9.71	37.11	-39.5	-41.6	22.4	6.08e-01	0	57	0	763363328	50	4605
2026-01-01 11:19:23.75	9.44	36.87	-39.8	-42.0	22.0	6.06e-01	0	57	0	765460480	50	4815
2026-01-01 11:19:24.76	9.17	36.63	-40.0	-42.2	21.7	6.06e-01	0	57	0	767033344	50	4967
2026-01-01 11:19:25.77	8.91	36.39	-39.7	-41.8	22.1	6.07e-01	0	57	0	769130496	50	4727
2026-01-01 11:19:26.78	8.65	36.16	-39.2	-41.1	22.8	6.05e-01	0	57	0	770703360	50	4375
2026-01-01 11:19:27.79	8.39	35.92	-39.1	-41.0	22.9	6.07e-01	0	57	0	772800512	50	4311
2026-01-01 11:19:28.80	8.14	35.69	-39.2	-41.2	22.7	6.05e-01	0	57	0	774897664	50	4403
2026-01-01 11:19:29.81	7.90	35.45	-39.4	-41.4	22.5	6.05e-01	0	57	0	776470528	50	4539
2026-01-01 11:19:30.82	7.65	35.22	-39.3	-41.3	22.6	6.06e-01	0	57	0	778567680	50	4490
2026-01-01 11:19:31.83	7.41	34.99	-39.0	-40.9	23.0	6.07e-01	0	57	0	780664832	50	4281
2026-01-01 11:19:32.84	7.17	34.76	-38.9	-40.7	23.2	6.03e-01	0	57	0	782237696	49	4429
2026-01-01 11:19:33.85	6.94	34.53	-38.9	-40.8	23.1	6.06e-01	0	57	0	784334848	49	4467
2026-01-01 11:19:34.87	6.71	34.30	-39.0	-40.9	23.0	6.06e-01	0	57	0	785907712	49	4535
2026-01-01 11:19:35.87	6.48	34.07	-38.8	-40.7	23.1	6.06e-01	0	57	0	788004864	49	4439
2026-01-01 11:19:36.88	6.26	33.85	-38.6	-40.5	23.4	6.07e-01	0	57	0	790102016	49	4316
2026-01-01 11:19:37.90	6.04	33.62	-38.6	-40.4	23.4	6.06e-01	0	57	0	791674880	49	4277
2026-01-01 11:19:38.91	5.82	33.40	-38.6	-40.4	23.5	6.08e-01	0	57	0	793772032	49	4267
2026-01-01 11:19:39.92	5.61	33.18	-38.4	-40.2	23.6	6.05e-01	0	57	0	795344896	48	4416
2026-01-01 11:19:40.93	5.40	32.96	-38.1	-39.9	23.9	6.05e-01	0	57	0	797442048	48	4265
2026-01-01 11:19:41.94	5.19	32.74	-38.1	-39.8	24.0	6.06e-01	0	57	0	799539200	48	4221
2026-01-01 11:19:42.95	4.98	32.52	-38.1	-39.8	24.0	6.08e-01	0	57	0	801112064	48	4232
2026-01-01 11:19:43.96	4.78	32.31	-38.1	-39.8	24.0	6.06e-01	0	57	0	803209216	48	4216
2026-01-01 11:19:44.97	4.58	32.09	-38.1	-39.8	24.0	6.05e-01	0	57	0	805306368	48	4215
2026-01-01 11:19:45.98	4.38	31.88	-38.1	-39.8	24.0	6.07e-01	0	57	0	806879232	48	4230
2026-01-01 11:19:46.99	4.19	31.66	-38.0	-39.8	24.1	6.06e-01	0	57	0	808976384	48	4202
2026-01-01 11:19:48.00	4.00	31.45	-38.0	-39.7	24.1	6.02e-01	0	57	0	810549248	48	4186
2026-01-01 11:19:49.00	3.81	31.25	-37.5	-39.2	24.2	6.04e-01	0	57	0	812646400	47	4160
2026-01-01 11:19:50.01	3.63	31.04	-37.3	-39.0	24.3	6.06e-01	0	57	0	814743552	46	4323
2026-01-01 11:19:51.02	3.44	30.83	-37.2	-38.9	24.5	6.07e-01	0	57	0	816316416	46	4257
2026-01-01 11:19:52.03	3.26	30.62	-37.3	-38.9	24.4	6.07e-01	0	57	0	818413568	46	4287
2026-01-01 11:19:53.04	3.08	30.42	-37.5	-39.2	24.2	6.05e-01	0	57	0	819986432	46	4423
2026-01-01 11:19:54.05	2.90	30.21	-37.6	-39.3	24.1	6.07e-01	0	57	0	822083584	46	4475
2026-01-01 11:19:55.06	2.73	30.01	-37.6	-39.3	24.0	6.08e-01	0	57	0	824180736	46	4485
2026-01-01 11:19:56.07	2.56	29.81	-37.6	-39.4	24.0	6.06e-01	0	57	0	825753600	46	4498
2026-01-01 11:19:57.08	2.39	29.61	-37.6	-39.3	24.1	6.06e-01	0	57	0	827850752	46	4459
2026-01-01 11:19:58.09	2.22	29.41	-37.5	-39.3	24.1	6.05e-01	0	57	0	829947904	46	4453
2026-01-01 11:19:59.11	2.05	29.21	-37.5	-39.2	24.1	6.06e-01	0	57	0	831520768	46	4441
2026-01-01 11:20:00.11	1.89	29.02	-37.5	-39.2	24.1	6.05e-01	0	57	0	833617920	46	4411
2026-01-01 11:20:01.13	1.73	28.82	-37.5	-39.2	24.1	6.02e-01	0	57	0	835190784	46	4416
2026-01-01 11:20:02.14	1.57	28.63	-37.6	-39.3	24.0	6.01e-01	0	57	0	837287936	46	4464
2026-01-01 11:20:03.15	1.41	28.44	-37.6	-39.3	24.0	6.00e-01	0	57	0	839385088	46	4488
2026-01-01 11:20:04.16	1.26	28.24	-37.7	-39.4	23.9	6.01e-01	0	57	0	840957952	46	4533
2026-01-01 11:20:05.16	1.11	28.06	-37.7	-39.5	23.9	6.01e-01	0	57	0	843055104	46	4567
2026-01-01 11:20:06.18	0.95	27.86	-37.7	-39.4	23.9	6.01e-01	0	57	0	844627968	46	4535
2026-01-01 11:20:07.19	0.80	27.68	-37.6	-39.3	24.0	6.02e-01	0	57	0	846725120	46	4493
2026-01-01 11:20:08.20	0.66	27.49	-37.6	-39.4	24.0	6.00e-01	0	57	0	848822272	46	4494
2026-01-01 11:20:09.21	0.51	27.30	-37.6	-39.4	24.0	6.01e-01	0	57	0	850395136	46	4508
2026-01-01 11:20:10.22	0.37	27.12	-37.7	-39.5	23.8	6.02e-01	0	57	0	852492288	46	4564
2026-01-01 11:20:11.23	0.23	26.94	-37.8	-39.6	23.7	6.02e-01	0	57	0	854065152	46	4636
2026-01-01 11:20:12.24	0.08	26.75	-38.0	-39.8	23.5	6.03e-01	0	57	0	856162304	46	4732
2026-01-01 11:20:13.25	359.95	26.57	-38.1	-39.9	23.4	6.01e-01	0	57	0	858259456	46	4802
2026-01-01 11:20:14.26	359.81	26.39	-38.2	-40.1	23.3	5.98e-01	0	57	0	859832320	46	4875
2026-01-01 11:20:15.27	359.67	26.22	-38.2	-40.1	23.3	6.01e-01	0	57	0	861929472	46	4884
2026-01-01 11:20:16.27	359.54	26.04	-38.2	-40.1	23.2	6.03e-01	0	57	0	863502336	46	4876
2026-01-01 11:20:17.28	359.41	25.86	-38.1	-40.0	23.2	6.00e-01	0	57	0	865599488	46	4853
2026-01-01 11:20:18.29	359.28	25.69	-38.0	-39.9	23.3	6.00e-01	0	57	0	867696640	46	4782
2026-01-01 11:20:19.30	359.15	25.51	-38.0	-39.8	23.4	6.03e-01	0	57	0	869269504	46	4754
2026-01-01 11:20:20.31	359.02	25.34	-38.0	-39.8	23.4	6.02e-01	0	57	0	871366656	46	4757
2026-01-01 11:20:21.32	358.89	25.17	-38.0	-39.9	23.4	6.01e-01	0	57	0	873463808	46	4762
2026-01-01 11:20:22.33	358.77	25.00	-38.0	-39.9	23.4	6.02e-01	0	57	0	875036672	46	4772
2026-01-01 11:20:23.34	358.65	24.83	-38.1	-39.9	23.4	6.01e-01	0	57	0	877133824	46	4790
2026-01-01 11:20:24.35	358.53	24.66	-38.1	-39.9	23.4	6.03e-01	0	57	0	878706688	46	4793
2026-01-01 11:20:25.36	358.40	24.49	-38.1	-39.9	23.3	6.01e-01	0	57	0	880803840	46	4798
2026-01-01 11:20:26.37	358.29	24.32	-38.1	-39.9	23.3	6.02e-01	0	57	0	882900992	46	4813
2026-01-01 11:20:27.38	358.17	24.16	-38.1	-40.0	23.3	6.02e-01	0	57	0	884473856	46	4849
2026-01-01 11:20:28.39	358.05	23.99	-38.2	-40.0	23.2	6.02e-01	0	57	0	886571008	46	4869
2026-01-01 11:20:29.40	357.94	23.83	-38.2	-40.1	23.2	6.01e-01	0	57	0	888143872	46	4888
2026-01-01 11:20:30.41	357.82	23.66	-38.3	-40.2	23.0	6.00e-01	0	57	0	890241024	47	4675
2026-01-01 11:20:31.42	357.71	23.50	-38.3	-40.3	23.0	6.03e-01	0	57	0	892338176	47	4724
2026-01-01 11:20:32.43	357.60	23.34	-38.3	-40.3	22.9	6.03e-01	0	57	0	893911040	47	4723
2026-01-01 11:20:33.43	357.49	23.18	-38.3	-40.3	22.9	6.02e-01	0	57	0	896008192	47	4715
2026-01-01 11:20:34.44	357.38	23.02	-38.3	-40.2	23.0	6.01e-01	0	57	0	898105344	47	4679
2026-01-01 11:20:35.45	357.27	22.87	-38.2	-40.2	23.0	6.03e-01	0	57	0	899678208	47	4654
2026-01-01 11:20:36.46	357.17	22.71	-38.2	-40.1	23.1	6.00e-01	0	57	0	901775360	47	4605
2026-01-01 11:20:37.47	357.06	22.55	-38.1	-40.0	23.1	6.02e-01	0	57	0	903348224	47	4567
2026-01-01 11:20:38.48	356.96	22.40	-38.1	-40.0	23.1	6.01e-01	0	57	0	905445376	47	4559
2026-01-01 11:20:39.49	356.85	22.24	-38.1	-40.0	23.1	5.99e-01	0	57	0	907542528	47	4575
2026-01-01 11:20:40.50	356.75	22.09	-38.1	-40.0	23.1	6.00e-01	0	57	0	909115392	47	4551
2026-01-01 11:20:41.51	356.65	21.94	-38.1	-40.0	23.1	6.05e-01	0	57	0	911212544	47	4564
2026-01-01 11:20:42.52	356.55	21.78	-38.2	-40.1	23.0	6.01e-01	0	57	0	912785408	47	4614
2026-01-01 11:20:43.53	356.45	21.63	-38.3	-40.2	22.8	5.99e-01	0	57	0	914882560	47	4703
2026-01-01 11:20:44.54	356.35	21.48	-38.3	-40.2	22.7	6.04e-01	0	57	0	916979712	47	4704
2026-01-01 11:20:45.55	356.26	21.33	-38.2	-40.1	22.8	6.05e-01	0	57	0	918552576	47	4638
2026-01-01 11:20:46.56	356.16	21.19	-38.0	-40.0	22.9	6.00e-01	0	57	0	920649728	47	4555
2026-01-01 11:20:47.57	356.07	21.04	-38.0	-39.9	22.9	6.01e-01	0	57	0	922222592	47	4524
2026-01-01 11:20:48.58	355.97	20.89	-38.1	-40.0	22.7	6.03e-01	0	57	0	924319744	47	4590
2026-01-01 11:20:49.59	355.88	20.75	-38.3	-40.4	22.2	6.03e-01	0	57	0	926416896	47	4781
2026-01-01 11:20:50.60	355.79	20.60	-38.7	-41.0	21.4	6.03e-01	0	57	0	927989760	47	5138
2026-01-01 11:20:51.61	355.70	20.46	-39.5	-42.1	20.3	5.99e-01	0	57	0	930086912	49	5212
2026-01-01 11:20:52.62	355.61	20.32	-40.0	-43.1	18.9	6.03e-01	0	57	0	931659776	50	5512
2026-01-01 11:20:53.63	355.52	20.17	-40.4	-44.2	17.4	6.01e-01	0	57	0	933756928	51	5890
2026-01-01 11:20:54.64	355.43	20.03	-40.7	-45.2	15.8	6.03e-01	0	57	0	935854080	52	6250
2026-01-01 11:20:55.65	355.34	19.89	-40.8	-46.4	14.1	6.06e-01	0	57	0	937426944	52	7175
2026-01-01 11:20:56.66	355.26	19.75	-41.0	-47.6	12.6	6.07e-01	0	57	0	939524096	52	8179
2026-01-01 11:20:57.66	355.17	19.61	-41.1	-49.1	10.6	6.14e-01	0	57	0	941621248	52	9719
2026-01-01 11:20:58.67	355.09	19.48	-41.2	-50.3	9.1	6.28e-01	0	57	0	943194112	52	11245
2026-01-01 11:20:59.68	355.00	19.34	-41.3	-52.0	7.3	6.55e-01	92	58	0	945291264	53	12860
2026-01-01 11:21:00.69	354.92	19.20	-41.3	-53.6	5.9	6.88e-01	90	57	0	946864128	53	15502
2026-01-01 11:21:01.70	354.84	19.07	-41.3	-55.3	4.8	7.14e-01	0	57	0	947388416	53	18748
2026-01-01 11:21:02.71	354.76	18.93	-41.4	-56.7	4.2	7.31e-01	0	57	104	947388416	53	22180
2026-01-01 11:21:03.72	354.68	18.80	-41.4	-58.3	3.8	7.39e-01	0	57	104	947388416	53	26510
2026-01-01 11:21:04.73	354.60	18.66	-41.3	-59.4	3.8	7.49e-01	0	57	104	947388416	53	30198
2026-01-01 11:21:05.74	354.52	18.53	-41.6	-59.2	3.8	7.44e-01	0	57	104	947388416	53	29659
2026-01-01 11:21:06.75	354.44	18.40	-41.0	-60.1	3.8	7.45e-01	0	57	104	947388416	53	32698
2026-01-01 11:21:07.76	354.36	18.27	-41.2	-60.0	3.8	7.48e-01	0	57	104	947388416	53	32289
2026-01-01 11:21:08.77	354.28	18.13	-41.5	-59.4	3.8	7.44e-01	0	57	104	947388416	53	30074
2026-01-01 11:21:09.79	354.21	18.00	-41.7	-59.2	3.8	7.44e-01	0	57	104	947388416	53	29672
2026-01-01 11:21:10.79	354.13	17.88	-41.5	-59.5	3.8	7.42e-01	0	57	104	947388416	53	30550
2026-01-01 11:21:11.81	354.06	17.75	-41.4	-59.6	3.8	7.44e-01	0	57	104	947388416	53	31041
2026-01-01 11:21:12.82	353.98	17.62	-41.4	-59.7	3.8	7.45e-01	0	57	104	947388416	53	31136
2026-01-01 11:21:13.83	353.91	17.49	-41.0	-60.0	3.8	7.42e-01	0	57	104	947388416	53	32319
2026-01-01 11:21:14.84	353.84	17.36	-40.7	-60.1	3.8	7.45e-01	0	57	104	947388416	53	32851
2026-01-01 11:21:15.84	353.77	17.24	-40.1	-60.2	3.8	7.46e-01	0	57	104	947388416	52	34931
2026-01-01 11:21:16.86	353.69	17.11	-40.9	-60.0	3.8	7.46e-01	0	57	104	947388416	52	34320
2026-01-01 11:21:17.87	353.62	16.99	-39.9	-60.2	3.8	7.44e-01	0	57	104	947388416	51	37292
2026-01-01 11:21:18.88	353.55	16.86	-40.8	-59.9	3.8	7.46e-01	0	57	104	947388416	52	33956
2026-01-01 11:21:19.89	353.49	16.74	-40.6	-60.3	3.8	7.46e-01	0	58	104	947388416	52	35631
2026-01-01 11:21:20.90	353.42	16.62	-41.0	-60.2	3.8	7.43e-01	0	57	104	947388416	52	34900
2026-01-01 11:21:21.91	353.35	16.50	-40.4	-60.4	3.8	7.46e-01	0	57	104	947388416	52	35708
2026-01-01 11:21:22.92	353.28	16.37	-40.9	-60.1	3.8	7.41e-01	0	58	104	947388416	52	34589
2026-01-01 11:21:23.93	353.21	16.25	-40.6	-60.3	3.8	7.44e-01	0	58	104	947388416	52	35628
2026-01-01 11:21:24.94	353.15	16.13	-40.7	-60.1	3.8	7.44e-01	0	57	104	947388416	51	36694
2026-01-01 11:21:25.95	353.08	16.01	-40.9	-60.3	3.8	7.47e-01	0	57	104	947388416	52	35689
2026-01-01 11:21:26.96	353.02	15.89	-40.4	-60.1	3.8	7.45e-01	0	57	104	947388416	51	36933
2026-01-01 11:21:27.97	352.95	15.78	-40.6	-60.6	3.8	7.43e-01	0	57	104	947388416	51	38741
2026-01-01 11:21:28.98	352.89	15.66	-40.9	-60.0	3.8	7.46e-01	0	57	104	947388416	52	34206
2026-01-01 11:21:29.99	352.83	15.54	-40.9	-59.9	3.8	7.45e-01	0	57	104	947388416	52	34077
2026-01-01 11:21:31.00	352.76	15.42	-40.9	-60.0	3.8	7.44e-01	0	57	104	947388416	52	34387
2026-01-01 11:21:32.01	352.70	15.31	-40.8	-60.1	3.8	7.47e-01	0	57	104	947388416	52	34539
2026-01-01 11:21:33.02	352.64	15.19	-40.7	-60.1	3.8	7.43e-01	0	57	104	947388416	52	34768
2026-01-01 11:21:34.03	352.58	15.08	-41.3	-60.4	3.8	7.45e-01	0	57	104	947388416	53	34022
2026-01-01 11:21:35.04	352.52	14.96	-40.0	-60.3	3.8	7.45e-01	0	57	104	947388416	52	35561
2026-01-01 11:21:36.05	352.46	14.85	-41.4	-60.4	3.8	7.43e-01	0	57	104	947388416	53	33792
2026-01-01 11:21:37.07	352.40	14.74	-40.9	-60.2	3.8	7.47e-01	0	57	104	947388416	53	33241
2026-01-01 11:21:38.08	352.34	14.62	-41.2	-60.3	3.8	7.46e-01	0	57	104	947388416	53	33613
2026-01-01 11:21:39.09	352.28	14.51	-41.1	-60.3	3.8	7.44e-01	0	58	104	947388416	53	33502
2026-01-01 11:21:40.10	352.22	14.40	-41.4	-60.4	3.8	7.43e-01	0	58	104	947388416	53	33752
2026-01-01 11:21:41.11	352.16	14.29	-41.0	-60.3	3.8	7.44e-01	0	58	104	947388416	53	33626
2026-01-01 11:21:42.11	352.11	14.18	-41.3	-60.3	3.8	7.42e-01	0	58	104	947388416	53	33474
2026-01-01 11:21:43.13	352.05	14.07	-41.1	-60.3	3.8	7.42e-01	0	58	104	947388416	53	33591
2026-01-01 11:21:44.13	351.99	13.96	-41.1	-60.3	3.8	7.47e-01	0	57	104	947388416	53	33397
2026-01-01 11:21:45.14	351.94	13.85	-41.3	-60.4	3.8	7.46e-01	0	57	104	947388416	53	33986
2026-01-01 11:21:46.16	351.88	13.74	-41.2	-60.3	3.8	7.42e-01	0	57	104	947388416	53	33669
2026-01-01 11:21:47.16	351.83	13.63	-41.1	-60.4	3.8	7.45e-01	0	57	104	947388416	53	33732
2026-01-01 11:21:48.18	351.77	13.53	-41.1	-60.2	3.8	7.46e-01	0	57	104	947388416	53	33241
2026-01-01 11:21:49.19	351.72	13.42	-41.3	-60.4	3.8	7.47e-01	0	58	104	947388416	53	33975
2026-01-01 11:21:50.20	351.67	13.31	-41.2	-60.2	3.8	7.44e-01	0	57	104	947388416	53	33282
2026-01-01 11:21:51.21	351.61	13.21	-41.3	-60.4	3.8	7.47e-01	0	58	104	947388416	53	33754
2026-01-01 11:21:52.22	351.56	13.10	-41.5	-60.5	3.8	7.45e-01	0	58	104	947388416	53	34306
2026-01-01 11:21:53.23	351.51	13.00	-40.9	-60.3	3.8	7.46e-01	0	57	104	947388416	53	33655
2026-01-01 11:21:54.24	351.46	12.89	-41.5	-60.5	3.8	7.40e-01	0	58	104	947388416	53	34207
2026-01-01 11:21:55.25	351.41	12.79	-41.0	-60.4	3.8	7.43e-01	0	58	104	947388416	53	33829
2026-01-01 11:21:56.26	351.36	12.68	-41.3	-60.4	3.8	7.47e-01	0	58	104	947388416	53	33852
2026-01-01 11:21:57.27	351.31	12.58	-41.2	-60.2	3.8	7.47e-01	0	57	104	947388416	53	33138
2026-01-01 11:21:58.28	351.26	12.48	-41.4	-60.5	3.8	7.46e-01	0	58	104	947388416	53	34178
2026-01-01 11:21:59.30	351.21	12.38	-41.2	-60.2	3.8	7.46e-01	0	57	104	947388416	53	33143
2026-01-01 11:22:00.31	351.16	12.27	-41.3	-60.3	3.8	7.48e-01	0	58	104	947388416	53	33512
2026-01-01 11:22:01.32	351.11	12.17	-41.2	-60.3	3.8	7.45e-01	0	58	104	947388416	53	33382
2026-01-01 11:22:02.33	351.06	12.07	-41.3	-60.4	3.8	7.50e-01	0	58	104	947388416	53	33711
2026-01-01 11:22:03.34	351.01	11.97	-41.1	-60.1	3.8	7.49e-01	0	58	104	947388416	53	32843
2026-01-01 11:22:04.35	350.96	11.87	-41.3	-60.4	3.8	7.44e-01	0	57	104	947388416	53	33911
2026-01-01 11:22:05.36	350.92	11.77	-41.3	-60.3	3.8	7.44e-01	0	58	104	947388416	53	33637
2026-01-01 11:22:06.37	350.87	11.67	-41.2	-60.3	3.8	7.46e-01	0	58	104	947388416	53	33412
2026-01-01 11:22:07.38	350.82	11.57	-41.3	-60.3	3.8	7.48e-01	0	57	104	947388416	53	33568
2026-01-01 11:22:08.39	350.78	11.48	-41.4	-60.6	3.8	7.44e-01	0	58	104	947388416	53	34848
2026-01-01 11:22:09.40	350.73	11.38	-40.9	-59.8	3.8	7.46e-01	0	58	104	947388416	53	31785
2026-01-01 11:22:10.41	350.69	11.28	-40.9	-59.8	3.8	7.46e-01	0	58	104	947388416	53	31610
2026-01-01 11:22:11.42	350.64	11.18	-40.8	-59.8	3.8	7.46e-01	0	58	104	947388416	53	31646
2026-01-01 11:22:12.43	350.60	11.09	-40.9	-59.8	3.8	7.45e-01	0	58	104	947388416	53	31647
2026-01-01 11:22:13.44	350.55	10.99	-40.9	-59.9	3.8	7.44e-01	0	58	104	947388416	53	31894
2026-01-01 11:22:14.45	350.51	10.90	-41.0	-60.0	3.8	7.45e-01	0	58	104	947388416	53	32323
2026-01-01 11:22:15.46	350.46	10.80	-40.9	-60.0	3.8	7.43e-01	0	58	104	947388416	53	32467
2026-01-01 11:22:16.47	350.42	10.71	-40.9	-60.1	3.8	7.45e-01	0	58	104	947388416	53	32642
2026-01-01 11:22:17.48	350.38	10.61	-41.0	-60.1	3.8	7.42e-01	0	58	104	947388416	53	32676
2026-01-01 11:22:18.49	350.33	10.52	-40.9	-60.1	3.8	7.46e-01	0	58	104	947388416	53	32700
2026-01-01 11:22:19.50	350.29	10.42	-41.1	-60.3	3.8	7.46e-01	0	57	104	947388416	53	33467
2026-01-01 11:22:20.51	350.25	10.33	-41.0	-60.1	3.8	7.43e-01	0	58	104	947388416	53	32590
2026-01-01 11:22:21.52	350.21	10.24	-41.1	-60.3	3.8	7.46e-01	0	58	104	947388416	53	33332
2026-01-01 11:22:22.53	350.17	10.14	-41.1	-60.2	3.8	7.47e-01	0	58	104	947388416	53	32944
2026-01-01 11:22:23.54	350.13	10.05	-41.4	-60.5	3.8	7.42e-01	0	57	104	947388416	53	34167
2026-01-01 11:22:24.55	350.08	9.96	-41.0	-60.1	3.8	7.47e-01	0	58	104	947388416	53	32790
2026-01-01 11:22:25.56	350.04	9.87	-40.8	-60.0	3.8	7.45e-01	0	58	104	947388416	53	32291
2026-01-01 11:22:26.57	350.00	9.78	-41.1	-60.1	3.8	7.46e-01	0	58	104	947388416	53	32872
2026-01-01 11:22:27.58	349.96	9.69	-41.1	-60.1	3.8	7.48e-01	0	58	104	947388416	53	32912
2026-01-01 11:22:28.59	349.92	9.60	-41.3	-60.2	3.8	7.46e-01	0	58	104	947388416	53	33285
2026-01-01 11:22:29.60	349.88	9.50	-41.3	-60.3	3.8	7.45e-01	0	58	104	947388416	53	33511
2026-01-01 11:22:30.61	349.85	9.42	-41.4	-60.4	3.8	7.46e-01	0	58	104	947388416	53	33789
2026-01-01 11:22:31.62	349.81	9.33	-41.1	-60.0	3.8	7.46e-01	0	58	104	947388416	53	32543
2026-01-01 11:22:32.63	349.77	9.24	-41.3	-60.3	3.8	7.44e-01	0	58	104	947388416	53	33489
2026-01-01 11:22:33.64	349.73	9.15	-41.2	-60.2	3.8	7.44e-01	0	58	104	947388416	53	32974
2026-01-01 11:22:34.65	349.69	9.06	-41.3	-60.3	3.8	7.44e-01	0	58	104	947388416	53	33454
2026-01-01 11:22:35.66	349.65	8.97	-41.4	-60.3	3.8	7.43e-01	0	58	104	947388416	53	33514
2026-01-01 11:22:36.68	349.62	8.88	-41.1	-60.1	3.8	7.45e-01	0	58	104	947388416	53	32673
2026-01-01 11:22:37.69	349.58	8.80	-41.3	-60.2	3.8	7.43e-01	0	58	104	947388416	53	33280
2026-01-01 11:22:38.70	349.54	8.71	-41.2	-60.1	3.8	7.46e-01	0	58	104	947388416	53	32607
2026-01-01 11:22:39.71	349.51	8.62	-41.3	-60.2	3.8	7.45e-01	0	58	104	947388416	53	33270
2026-01-01 11:22:40.72	349.47	8.54	-41.2	-60.1	3.8	7.44e-01	0	58	104	947388416	53	32895
2026-01-01 11:22:41.73	349.43	8.45	-41.4	-60.3	3.8	7.43e-01	0	58	104	947388416	53	33550
2026-01-01 11:22:42.74	349.40	8.36	-41.2	-60.1	3.8	7.43e-01	0	58	104	947388416	53	32784
2026-01-01 11:22:43.75	349.36	8.28	-41.6	-60.5	3.8	7.44e-01	0	58	104	947388416	53	34440
2026-01-01 11:22:44.76	349.33	8.19	-41.3	-60.2	3.8	7.46e-01	0	58	104	947388416	53	33112
2026-01-01 11:22:45.77	349.29	8.11	-41.6	-60.5	3.8	7.43e-01	0	58	104	947388416	53	34284
2026-01-01 11:22:46.79	349.26	8.02	-41.4	-60.2	3.8	7.45e-01	0	58	104	947388416	54	31267
2026-01-01 11:22:47.80	349.22	7.94	-41.3	-60.2	3.8	7.47e-01	0	58	104	947388416	54	31429
2026-01-01 11:22:48.81	349.19	7.85	-41.7	-61.0	3.8	7.41e-01	0	58	104	947388416	53	36404
2026-01-01 11:22:49.82	349.15	7.77	-41.0	-60.0	3.8	7.45e-01	0	58	104	947388416	53	32502
2026-01-01 11:22:50.83	349.12	7.69	-45.5	-64.3	3.8	7.47e-01	0	58	104	947388416	61	33347
2026-01-01 11:22:51.84	349.09	7.60	-45.8	-64.5	3.8	7.47e-01	0	58	104	947388416	62	32406
2026-01-01 11:22:52.85	349.05	7.52	-45.9	-64.6	3.8	7.45e-01	0	58	104	947388416	62	32878
2026-01-01 11:22:53.86	349.02	7.44	-46.0	-64.7	3.8	7.47e-01	0	58	104	947388416	62	33241
2026-01-01 11:22:54.87	348.99	7.36	-46.0	-64.8	3.8	7.45e-01	0	58	104	947388416	62	33389
2026-01-01 11:22:55.88	348.95	7.27	-46.1	-64.8	3.8	7.44e-01	0	58	104	947388416	62	33573
2026-01-01 11:22:56.90	348.92	7.19	-46.1	-64.8	3.8	7.42e-01	0	58	104	947388416	62	33624
2026-01-01 11:22:57.91	348.89	7.11	-45.9	-64.8	3.8	7.45e-01	0	58	104	947388416	62	33588
2026-01-01 11:22:58.92	348.86	7.03	-46.1	-64.8	3.8	7.46e-01	0	58	104	947388416	62	33571
2026-01-01 11:22:59.93	348.83	6.95	-46.1	-64.8	3.8	7.50e-01	0	58	104	947388416	62	33518
2026-01-01 11:23:00.94	348.79	6.87	-46.0	-64.8	3.8	7.44e-01	0	58	104	947388416	62	33454
2026-01-01 11:23:01.95	348.76	6.79	-46.0	-64.8	3.8	7.42e-01	0	58	104	947388416	62	33396
2026-01-01 11:23:02.96	348.73	6.71	-46.0	-64.8	3.8	7.45e-01	0	58	104	947388416	62	33367
2026-01-01 11:23:03.97	348.70	6.63	-46.0	-64.8	3.8	7.45e-01	0	58	104	947388416	62	33418
2026-01-01 11:23:04.98	348.67	6.55	-46.0	-64.7	3.8	7.46e-01	0	58	104	947388416	62	33282
2026-01-01 11:23:06.00	348.64	6.47	-46.0	-64.7	3.8	7.43e-01	0	58	104	947388416	62	33252
2026-01-01 11:23:07.01	348.61	6.39	-46.0	-64.7	3.8	7.45e-01	0	58	104	947388416	62	33273
