passes_logs/2026/01/01/R2.0S_Moscow/R2.0S_Moscow__20260101_102722_SUOMI_NPP_rec.log

#Pass ID: 20260101_102722_SUOMI NPP
#Satellite: SUOMI NPP
#Configuration: NPP
#almurnet v.1.7.20251203
#Start time: 2026-01-01 10:27:22

#Version: 2.2.20231116
#Station: R2.0S_Moscow
#Location: 37.707566 lon 55.798166 lat
#TLE: 1 37849U 11061A   25364.87906317  .00000195  00000+0  11345-3 0  9992
#TLE: 2 37849  98.7794 302.0592 0002571  89.2401 270.9069 14.19520347734561

#Time	Az	El	Level	Level2	SNR	BER	BlckErr	Temp	State	Recorded	gain1	gain2
2026-01-01 10:27:22.09	174.28	1.99	-43.7	-58.0	3.8	1.49e+00	0	48	0	0	59	18264
2026-01-01 10:27:23.10	174.30	2.06	-43.7	-58.0	3.8	1.49e+00	0	48	104	0	59	18273
2026-01-01 10:27:24.12	174.33	2.12	-43.7	-58.0	3.8	1.49e+00	0	48	104	0	59	18265
2026-01-01 10:27:25.13	174.35	2.19	-43.7	-58.0	3.8	1.49e+00	0	48	104	0	59	18227
2026-01-01 10:27:26.14	174.38	2.25	-43.7	-58.0	3.8	1.49e+00	0	48	104	0	59	18224
2026-01-01 10:27:27.15	174.40	2.32	-43.7	-58.0	3.8	1.49e+00	0	48	104	0	59	18208
2026-01-01 10:27:28.16	174.42	2.38	-43.7	-58.0	3.8	1.49e+00	0	48	104	0	59	18233
2026-01-01 10:27:29.17	174.45	2.45	-43.7	-58.0	3.8	1.49e+00	0	48	104	0	59	18252
2026-01-01 10:27:30.18	174.47	2.51	-43.7	-58.0	3.8	1.49e+00	0	48	104	0	59	18236
2026-01-01 10:27:31.19	174.50	2.58	-43.7	-58.0	3.8	1.49e+00	0	48	104	0	59	18229
2026-01-01 10:27:32.20	174.52	2.64	-43.7	-58.0	3.8	1.49e+00	0	49	104	0	59	18273
2026-01-01 10:27:33.21	174.55	2.71	-43.7	-58.0	3.8	1.49e+00	0	49	104	0	59	18262
2026-01-01 10:27:34.23	174.57	2.77	-43.7	-58.0	3.8	1.49e+00	0	49	104	0	59	18244
2026-01-01 10:27:35.24	174.60	2.84	-43.7	-58.0	3.8	1.49e+00	0	49	104	0	59	18205
2026-01-01 10:27:36.25	174.62	2.91	-43.7	-58.0	3.8	1.49e+00	0	49	104	0	59	18282
2026-01-01 10:27:37.26	174.65	2.97	-43.7	-58.0	3.8	1.49e+00	0	49	104	0	59	18267
2026-01-01 10:27:38.27	174.67	3.04	-43.7	-58.0	3.8	1.49e+00	0	49	104	0	59	18221
2026-01-01 10:27:39.28	174.70	3.10	-43.7	-58.0	3.8	1.49e+00	0	49	104	0	59	18253
2026-01-01 10:27:40.29	174.72	3.17	-43.7	-58.0	3.8	1.49e+00	0	49	104	0	59	18273
2026-01-01 10:27:41.30	174.75	3.24	-43.7	-58.0	3.8	1.49e+00	0	49	104	0	59	18243
2026-01-01 10:27:42.31	174.77	3.31	-43.7	-58.0	3.8	1.49e+00	0	49	104	0	59	18198
2026-01-01 10:27:43.32	174.80	3.37	-43.7	-58.0	3.8	1.49e+00	0	49	104	0	59	18262
2026-01-01 10:27:44.33	174.83	3.44	-43.7	-58.0	3.8	1.49e+00	0	49	104	0	59	18278
2026-01-01 10:27:45.34	174.85	3.51	-43.7	-58.0	3.8	1.49e+00	0	50	104	0	59	18193
2026-01-01 10:27:46.35	174.88	3.57	-43.7	-58.0	3.8	1.49e+00	0	49	104	0	59	18266
2026-01-01 10:27:47.36	174.90	3.64	-43.7	-58.0	3.8	1.49e+00	0	50	104	0	59	18235
2026-01-01 10:27:48.37	174.93	3.71	-43.7	-58.0	3.8	1.49e+00	0	50	104	0	59	18246
2026-01-01 10:27:49.39	174.96	3.78	-43.7	-58.0	3.8	1.49e+00	0	50	104	0	59	18282
2026-01-01 10:27:50.40	174.98	3.85	-43.7	-58.0	3.8	1.49e+00	0	50	104	0	59	18239
2026-01-01 10:27:51.41	175.01	3.92	-43.7	-58.0	3.8	1.49e+00	0	50	104	0	59	18181
2026-01-01 10:27:52.42	175.04	3.98	-43.7	-58.0	3.8	1.49e+00	0	50	104	0	59	18251
2026-01-01 10:27:53.43	175.06	4.05	-43.7	-58.0	3.8	1.49e+00	0	50	104	0	59	18257
2026-01-01 10:27:54.44	175.09	4.12	-43.7	-58.0	3.8	1.49e+00	0	50	104	0	59	18232
2026-01-01 10:27:55.45	175.12	4.19	-43.7	-58.0	3.8	1.49e+00	0	50	104	0	59	18233
2026-01-01 10:27:56.46	175.14	4.26	-43.7	-58.0	3.8	1.49e+00	0	50	104	0	59	18233
2026-01-01 10:27:57.47	175.17	4.33	-43.7	-58.0	3.8	1.49e+00	0	50	104	0	59	18279
2026-01-01 10:27:58.49	175.20	4.40	-43.7	-58.0	3.8	1.49e+00	0	50	104	0	59	18244
2026-01-01 10:27:59.50	175.23	4.47	-43.7	-58.0	3.8	1.49e+00	0	50	104	0	59	18241
2026-01-01 10:28:00.51	175.26	4.54	-43.7	-58.0	3.8	1.49e+00	0	50	104	0	59	18284
2026-01-01 10:28:01.52	175.28	4.61	-43.6	-58.0	3.8	1.49e+00	0	51	104	0	59	18288
2026-01-01 10:28:02.53	175.31	4.68	-43.7	-58.0	3.8	1.49e+00	0	51	104	0	59	18228
2026-01-01 10:28:03.54	175.34	4.75	-43.7	-58.0	3.8	1.49e+00	0	51	104	0	59	18211
2026-01-01 10:28:04.55	175.37	4.82	-43.7	-58.0	3.8	1.49e+00	0	51	104	0	59	18240
2026-01-01 10:28:05.56	175.40	4.89	-43.7	-58.0	3.8	1.49e+00	0	51	104	0	59	18233
2026-01-01 10:28:06.57	175.42	4.96	-43.7	-58.0	3.8	1.49e+00	0	51	104	0	59	18211
2026-01-01 10:28:07.58	175.45	5.04	-43.7	-58.0	3.8	1.49e+00	0	51	104	0	59	18195
2026-01-01 10:28:08.59	175.48	5.11	-43.7	-58.0	3.8	1.49e+00	0	51	104	0	59	18213
2026-01-01 10:28:09.60	175.51	5.18	-43.7	-58.0	3.8	1.49e+00	0	51	104	0	59	18119
2026-01-01 10:28:10.62	175.54	5.25	-43.6	-57.9	3.8	1.49e+00	0	51	104	0	59	18051
2026-01-01 10:28:11.63	175.57	5.32	-43.6	-57.9	3.8	1.49e+00	0	51	104	0	59	18060
2026-01-01 10:28:12.64	175.60	5.40	-43.6	-57.9	3.8	1.49e+00	0	51	104	0	59	18018
2026-01-01 10:28:13.65	175.63	5.47	-43.6	-57.9	3.8	1.49e+00	0	51	104	0	59	18022
2026-01-01 10:28:14.66	175.66	5.54	-43.6	-57.9	3.8	1.49e+00	0	51	104	0	59	17957
2026-01-01 10:28:15.67	175.69	5.61	-43.6	-57.9	3.8	1.49e+00	0	51	104	0	59	17965
2026-01-01 10:28:16.68	175.71	5.69	-43.7	-57.9	3.8	1.49e+00	0	51	104	0	59	17947
2026-01-01 10:28:17.69	175.74	5.76	-43.7	-57.9	3.8	1.49e+00	0	51	104	0	59	18034
2026-01-01 10:28:18.70	175.77	5.83	-43.7	-58.0	3.8	1.49e+00	0	51	104	0	59	18100
2026-01-01 10:28:19.71	175.80	5.91	-43.7	-58.0	3.8	1.49e+00	0	51	104	0	59	18109
2026-01-01 10:28:20.73	175.84	5.98	-43.7	-58.0	3.8	1.49e+00	0	51	104	0	59	18167
2026-01-01 10:28:21.74	175.87	6.06	-43.7	-58.0	3.8	1.49e+00	0	51	104	0	59	18172
2026-01-01 10:28:22.75	175.90	6.13	-43.7	-58.0	3.8	1.49e+00	0	51	104	0	59	18250
2026-01-01 10:28:23.76	175.93	6.20	-43.7	-58.0	3.8	1.49e+00	0	51	104	0	59	18160
2026-01-01 10:28:24.77	175.96	6.28	-43.7	-57.9	3.8	1.49e+00	0	51	104	0	59	17949
2026-01-01 10:28:25.78	175.99	6.35	-43.6	-57.6	3.8	1.49e+00	0	52	104	0	59	17396
2026-01-01 10:28:26.79	176.02	6.43	-43.6	-57.0	3.8	1.49e+00	0	52	104	0	59	16309
2026-01-01 10:28:27.80	176.05	6.50	-43.6	-56.4	3.8	1.49e+00	0	52	104	0	59	15219
2026-01-01 10:28:28.81	176.08	6.58	-43.5	-55.7	3.9	1.49e+00	0	52	104	0	59	13925
2026-01-01 10:28:29.83	176.11	6.66	-43.4	-54.5	4.2	1.43e+00	0	52	0	0	58	12821
2026-01-01 10:28:30.84	176.15	6.73	-43.3	-53.6	4.5	1.33e+00	0	52	0	0	58	11559
2026-01-01 10:28:31.85	176.18	6.81	-43.2	-52.4	5.0	8.00e-01	0	52	0	2097152	58	10060
2026-01-01 10:28:32.86	176.21	6.88	-43.0	-51.4	5.7	5.23e-01	0	52	0	4194304	58	9005
2026-01-01 10:28:33.87	176.24	6.96	-42.8	-50.4	6.4	3.38e-01	0	52	0	6291456	57	8537
2026-01-01 10:28:34.88	176.27	7.04	-42.6	-49.2	7.5	1.37e-01	0	52	0	8388608	57	7400
2026-01-01 10:28:35.89	176.31	7.12	-42.3	-48.4	8.2	7.62e-02	0	52	0	10485760	56	7179
2026-01-01 10:28:36.90	176.34	7.19	-42.1	-47.5	9.1	3.68e-02	0	52	0	11534336	56	6489
2026-01-01 10:28:37.91	176.37	7.27	-41.6	-46.6	9.9	1.02e-02	0	52	0	13631488	55	6193
2026-01-01 10:28:38.92	176.41	7.35	-41.4	-45.9	10.7	4.89e-03	0	52	0	15728640	54	6050
2026-01-01 10:28:39.94	176.44	7.43	-41.1	-45.2	11.4	2.09e-03	0	52	0	17825792	54	5576
2026-01-01 10:28:40.95	176.47	7.50	-40.7	-44.5	12.1	4.92e-04	0	52	0	19922944	53	5457
2026-01-01 10:28:41.95	176.51	7.58	-40.5	-44.1	12.5	1.67e-04	0	52	0	20971520	53	5218
2026-01-01 10:28:42.97	176.54	7.66	-40.3	-43.7	13.0	4.80e-05	0	52	0	23068672	52	5266
2026-01-01 10:28:43.98	176.57	7.74	-40.2	-43.5	13.2	2.28e-05	0	53	0	25165824	52	5135
2026-01-01 10:28:44.98	176.61	7.82	-40.0	-43.2	13.6	1.29e-05	0	53	0	27262976	51	5234
2026-01-01 10:28:46.00	176.64	7.90	-40.1	-43.3	13.5	8.30e-06	0	52	0	29360128	51	5308
2026-01-01 10:28:47.01	176.68	7.98	-40.1	-43.3	13.5	1.60e-05	0	53	0	30408704	51	5303
2026-01-01 10:28:48.02	176.71	8.06	-40.1	-43.3	13.5	6.80e-06	0	53	0	32505856	51	5306
2026-01-01 10:28:49.03	176.74	8.14	-43.4	-51.3	5.8	1.76e-03	0	53	0	34603008	57	9403
2026-01-01 10:28:50.04	176.78	8.22	-42.3	-49.0	7.2	1.12e-02	0	53	0	36700160	55	8110
2026-01-01 10:28:51.05	176.81	8.30	-41.0	-44.7	12.4	1.44e-05	0	52	0	38797312	52	5894
2026-01-01 10:28:52.06	176.85	8.38	-42.5	-48.0	8.9	7.82e-04	0	53	0	39845888	55	7254
2026-01-01 10:28:53.07	176.88	8.46	-42.4	-50.1	6.5	9.00e-05	0	53	0	41943040	55	9181
2026-01-01 10:28:54.08	176.92	8.54	-40.0	-42.9	14.2	8.01e-05	0	53	0	44040192	51	5060
2026-01-01 10:28:55.09	176.96	8.63	-40.0	-42.8	14.3	0.00e+00	0	53	0	46137344	51	5040
2026-01-01 10:28:56.10	176.99	8.71	-40.0	-42.8	14.3	0.00e+00	0	53	0	48234496	51	5031
2026-01-01 10:28:57.11	177.03	8.79	-39.8	-42.6	14.6	0.00e+00	0	53	0	49283072	51	4893
2026-01-01 10:28:58.12	177.06	8.87	-39.8	-42.5	14.7	1.50e-06	0	53	0	51380224	51	4842
2026-01-01 10:28:59.13	177.10	8.95	-39.8	-42.6	14.6	0.00e+00	0	53	0	53477376	51	4903
2026-01-01 10:29:00.14	177.14	9.04	-39.7	-42.4	14.8	0.00e+00	0	53	0	55574528	51	4797
2026-01-01 10:29:01.15	177.17	9.12	-39.6	-42.2	15.0	0.00e+00	0	53	0	57671680	50	4977
2026-01-01 10:29:02.16	177.21	9.20	-39.6	-42.2	15.0	0.00e+00	0	53	0	58720256	50	4978
2026-01-01 10:29:03.17	177.25	9.29	-39.6	-42.1	15.1	7.00e-07	0	53	0	60817408	50	4923
2026-01-01 10:29:04.18	177.29	9.37	-39.6	-42.2	15.0	1.50e-06	0	53	0	62914560	50	4967
2026-01-01 10:29:05.19	177.32	9.46	-39.5	-42.1	15.2	0.00e+00	0	53	0	65011712	50	4880
2026-01-01 10:29:06.20	177.36	9.54	-39.6	-42.1	15.2	0.00e+00	0	53	0	67108864	50	4908
2026-01-01 10:29:07.21	177.40	9.63	-39.5	-42.0	15.3	0.00e+00	0	53	0	68157440	50	4828
2026-01-01 10:29:08.21	177.44	9.71	-39.5	-42.0	15.3	0.00e+00	0	53	0	70254592	50	4841
2026-01-01 10:29:09.22	177.48	9.80	-39.4	-41.9	15.4	0.00e+00	0	54	0	72351744	50	4783
2026-01-01 10:29:10.23	177.51	9.88	-39.4	-41.9	15.4	0.00e+00	0	53	0	74448896	50	4772
2026-01-01 10:29:11.25	177.55	9.97	-39.3	-41.7	15.6	0.00e+00	0	53	0	76546048	50	4700
2026-01-01 10:29:12.26	177.59	10.05	-39.5	-42.0	15.3	0.00e+00	0	53	0	78643200	50	4825
2026-01-01 10:29:13.27	177.63	10.14	-39.3	-41.7	15.6	0.00e+00	0	53	0	79691776	50	4703
2026-01-01 10:29:14.28	177.67	10.23	-39.2	-41.6	15.7	0.00e+00	0	54	0	81788928	50	4622
2026-01-01 10:29:15.29	177.71	10.32	-39.1	-41.5	15.8	0.00e+00	0	54	0	83886080	50	4556
2026-01-01 10:29:16.30	177.75	10.40	-39.1	-41.4	15.9	0.00e+00	0	54	0	85983232	50	4545
2026-01-01 10:29:17.31	177.79	10.49	-39.1	-41.4	16.0	0.00e+00	0	53	0	88080384	50	4511
2026-01-01 10:29:18.32	177.83	10.58	-39.1	-41.4	16.0	0.00e+00	0	54	0	89128960	50	4501
2026-01-01 10:29:19.33	177.87	10.67	-39.1	-41.4	15.9	0.00e+00	0	54	0	91226112	50	4544
2026-01-01 10:29:20.34	177.91	10.76	-39.1	-41.4	16.0	0.00e+00	0	54	0	93323264	50	4501
2026-01-01 10:29:21.35	177.95	10.84	-39.1	-41.4	16.0	0.00e+00	0	54	0	95420416	49	4780
2026-01-01 10:29:22.35	177.99	10.93	-39.0	-41.3	16.1	0.00e+00	0	54	0	97517568	49	4714
2026-01-01 10:29:23.37	178.04	11.02	-38.9	-41.2	16.2	0.00e+00	0	54	0	98566144	49	4652
2026-01-01 10:29:24.38	178.08	11.11	-38.8	-41.0	16.4	0.00e+00	0	54	0	100663296	49	4548
2026-01-01 10:29:25.39	178.12	11.20	-38.9	-41.1	16.3	0.00e+00	0	54	0	102760448	49	4645
2026-01-01 10:29:26.40	178.16	11.29	-38.9	-41.1	16.3	0.00e+00	0	54	0	104857600	49	4616
2026-01-01 10:29:27.41	178.21	11.39	-38.9	-41.0	16.4	0.00e+00	0	54	0	106954752	49	4592
2026-01-01 10:29:28.42	178.25	11.48	-38.7	-40.8	16.6	0.00e+00	0	54	0	108003328	49	4483
2026-01-01 10:29:29.43	178.29	11.57	-38.7	-40.8	16.6	0.00e+00	0	54	0	110100480	49	4473
2026-01-01 10:29:30.44	178.33	11.66	-38.7	-40.8	16.6	0.00e+00	0	54	0	112197632	49	4464
2026-01-01 10:29:31.44	178.38	11.75	-38.7	-40.8	16.7	0.00e+00	0	54	0	114294784	49	4445
2026-01-01 10:29:32.45	178.42	11.84	-38.7	-40.9	16.5	0.00e+00	0	54	0	116391936	49	4504
2026-01-01 10:29:33.46	178.46	11.94	-38.6	-40.7	16.8	0.00e+00	0	54	0	117440512	49	4401
2026-01-01 10:29:34.47	178.51	12.03	-38.7	-40.8	16.6	0.00e+00	0	54	0	119537664	49	4463
2026-01-01 10:29:35.48	178.55	12.12	-38.7	-40.8	16.6	0.00e+00	0	54	0	121634816	49	4479
2026-01-01 10:29:36.49	178.60	12.22	-38.7	-40.8	16.6	0.00e+00	0	54	0	123731968	49	4460
2026-01-01 10:29:37.50	178.64	12.31	-38.6	-40.7	16.7	0.00e+00	0	54	0	125829120	49	4422
2026-01-01 10:29:38.51	178.69	12.41	-38.7	-40.9	16.5	0.00e+00	0	54	0	126877696	49	4510
2026-01-01 10:29:39.52	178.73	12.50	-38.7	-40.9	16.6	0.00e+00	0	54	0	128974848	49	4506
2026-01-01 10:29:40.53	178.78	12.60	-38.6	-40.7	16.7	0.00e+00	0	54	0	131072000	49	4435
2026-01-01 10:29:41.54	178.83	12.69	-38.6	-40.7	16.8	0.00e+00	0	54	0	133169152	49	4408
2026-01-01 10:29:42.55	178.87	12.79	-38.6	-40.7	16.8	0.00e+00	0	54	0	135266304	49	4403
2026-01-01 10:29:43.56	178.92	12.89	-38.6	-40.6	16.9	0.00e+00	0	54	0	136314880	49	4369
2026-01-01 10:29:44.57	178.97	12.98	-38.5	-40.5	16.9	0.00e+00	0	54	0	138412032	48	4570
2026-01-01 10:29:45.58	179.01	13.08	-38.5	-40.5	16.9	0.00e+00	0	54	0	140509184	48	4587
2026-01-01 10:29:46.59	179.06	13.18	-38.4	-40.4	17.0	0.00e+00	0	54	0	142606336	48	4537
2026-01-01 10:29:47.60	179.11	13.28	-38.5	-40.5	17.0	0.00e+00	0	55	0	144703488	48	4566
2026-01-01 10:29:48.61	179.16	13.37	-38.5	-40.5	17.0	0.00e+00	0	55	0	146800640	48	4579
2026-01-01 10:29:49.62	179.21	13.47	-38.5	-40.5	17.0	0.00e+00	0	54	0	147849216	48	4558
2026-01-01 10:29:50.63	179.26	13.57	-38.5	-40.5	17.0	0.00e+00	0	55	0	149946368	48	4560
2026-01-01 10:29:51.64	179.30	13.67	-38.6	-40.6	16.8	0.00e+00	0	55	0	152043520	48	4644
2026-01-01 10:29:52.65	179.35	13.77	-38.5	-40.5	17.0	0.00e+00	0	55	0	154140672	48	4592
2026-01-01 10:29:53.66	179.40	13.87	-38.5	-40.5	17.0	0.00e+00	0	55	0	156237824	48	4569
2026-01-01 10:29:54.67	179.45	13.97	-38.5	-40.6	17.0	0.00e+00	0	55	0	157286400	48	4605
2026-01-01 10:29:55.68	179.50	14.07	-38.6	-40.7	16.8	0.00e+00	0	54	0	159383552	48	4670
2026-01-01 10:29:56.69	179.55	14.18	-38.6	-40.7	16.9	0.00e+00	0	55	0	161480704	48	4656
2026-01-01 10:29:57.70	179.61	14.28	-38.7	-40.8	16.8	0.00e+00	0	55	0	163577856	48	4709
2026-01-01 10:29:58.71	179.66	14.38	-38.8	-40.9	16.6	0.00e+00	0	55	0	165675008	48	4783
2026-01-01 10:29:59.72	179.71	14.48	-38.8	-40.9	16.6	0.00e+00	0	55	0	166723584	48	4803
2026-01-01 10:30:00.73	179.76	14.59	-39.0	-41.2	16.3	0.00e+00	0	55	0	168820736	48	4981
2026-01-01 10:30:01.74	179.81	14.69	-38.9	-41.1	16.4	0.00e+00	0	55	0	170917888	48	4924
2026-01-01 10:30:02.75	179.87	14.79	-39.1	-41.3	16.2	0.00e+00	0	55	0	173015040	48	5019
2026-01-01 10:30:03.76	179.92	14.90	-38.9	-41.0	16.6	0.00e+00	0	55	0	175112192	48	4864
2026-01-01 10:30:04.77	179.97	15.00	-38.9	-41.0	16.5	0.00e+00	0	55	0	176160768	48	4867
2026-01-01 10:30:05.78	180.03	15.11	-38.9	-41.1	16.5	0.00e+00	0	55	0	178257920	48	4911
2026-01-01 10:30:06.79	180.08	15.21	-39.1	-41.3	16.3	0.00e+00	0	55	0	180355072	48	5037
2026-01-01 10:30:07.79	180.13	15.32	-38.9	-41.0	16.6	0.00e+00	0	55	0	182452224	48	4847
2026-01-01 10:30:08.80	180.19	15.42	-38.9	-41.1	16.6	0.00e+00	0	55	0	184549376	48	4874
2026-01-01 10:30:09.81	180.24	15.53	-38.8	-40.9	16.7	0.00e+00	0	55	0	185597952	48	4784
2026-01-01 10:30:10.82	180.30	15.64	-39.0	-41.2	16.4	0.00e+00	0	55	0	187695104	48	4936
2026-01-01 10:30:11.83	180.36	15.75	-38.8	-41.0	16.7	0.00e+00	0	55	0	189792256	48	4815
2026-01-01 10:30:12.84	180.41	15.86	-38.8	-40.9	16.7	0.00e+00	0	55	0	191889408	48	4811
2026-01-01 10:30:13.85	180.47	15.96	-39.0	-41.2	16.4	0.00e+00	0	55	0	193986560	48	4974
2026-01-01 10:30:14.86	180.53	16.07	-39.0	-41.2	16.4	0.00e+00	0	55	0	195035136	48	4976
2026-01-01 10:30:15.87	180.58	16.18	-39.0	-41.2	16.4	0.00e+00	0	55	0	197132288	48	4973
2026-01-01 10:30:16.88	180.64	16.29	-39.0	-41.2	16.5	0.00e+00	0	55	0	199229440	48	4928
2026-01-01 10:30:17.89	180.70	16.41	-39.1	-41.3	16.3	0.00e+00	0	55	0	201326592	49	4717
2026-01-01 10:30:18.90	180.76	16.52	-39.2	-41.4	16.2	0.00e+00	0	55	0	203423744	49	4808
2026-01-01 10:30:19.91	180.82	16.63	-39.4	-41.8	15.9	0.00e+00	0	55	0	204472320	49	5032
2026-01-01 10:30:20.92	180.88	16.74	-39.3	-41.6	16.1	0.00e+00	0	55	0	206569472	49	4885
2026-01-01 10:30:21.93	180.94	16.85	-39.5	-41.9	15.7	0.00e+00	0	55	0	208666624	49	5078
2026-01-01 10:30:22.94	181.00	16.97	-39.4	-41.8	15.9	0.00e+00	0	55	0	210763776	49	5020
2026-01-01 10:30:23.95	181.06	17.08	-39.4	-41.8	15.9	0.00e+00	0	55	0	212860928	49	5009
2026-01-01 10:30:24.96	181.12	17.19	-39.4	-41.8	15.9	0.00e+00	0	55	0	214958080	49	4992
2026-01-01 10:30:25.97	181.18	17.31	-39.6	-42.0	15.7	0.00e+00	0	55	0	216006656	49	5119
2026-01-01 10:30:26.98	181.24	17.42	-39.3	-41.6	16.1	0.00e+00	0	55	0	218103808	49	4913
2026-01-01 10:30:27.98	181.31	17.54	-39.4	-41.8	15.9	0.00e+00	0	55	0	220200960	49	4993
2026-01-01 10:30:28.99	181.37	17.65	-39.4	-41.7	15.9	0.00e+00	0	55	0	222298112	49	4974
2026-01-01 10:30:30.01	181.43	17.77	-39.2	-41.4	16.2	0.00e+00	0	55	0	224395264	49	4814
2026-01-01 10:30:31.02	181.50	17.89	-39.3	-41.6	16.0	0.00e+00	0	55	0	225443840	49	4920
2026-01-01 10:30:32.03	181.56	18.01	-39.2	-41.4	16.2	0.00e+00	0	55	0	227540992	49	4793
2026-01-01 10:30:33.03	181.63	18.13	-39.2	-41.5	16.2	0.00e+00	0	55	0	229638144	49	4831
2026-01-01 10:30:34.05	181.69	18.25	-39.3	-41.5	16.2	0.00e+00	0	55	0	231735296	49	4856
2026-01-01 10:30:35.06	181.76	18.36	-39.3	-41.5	16.1	0.00e+00	0	55	0	233832448	49	4857
2026-01-01 10:30:36.07	181.82	18.48	-39.3	-41.6	16.1	0.00e+00	0	55	0	234881024	49	4880
2026-01-01 10:30:37.08	181.89	18.61	-39.3	-41.6	16.1	0.00e+00	0	56	0	236978176	49	4916
2026-01-01 10:30:38.08	181.96	18.73	-39.5	-41.8	15.9	0.00e+00	0	56	0	239075328	49	5004
2026-01-01 10:30:39.10	182.03	18.85	-39.5	-41.9	15.8	0.00e+00	0	55	0	241172480	49	5073
2026-01-01 10:30:40.11	182.09	18.97	-39.6	-41.9	15.7	0.00e+00	0	55	0	243269632	49	5083
2026-01-01 10:30:41.11	182.16	19.09	-39.5	-41.8	15.9	0.00e+00	0	55	0	244318208	49	5041
2026-01-01 10:30:42.12	182.23	19.22	-39.6	-41.9	15.7	0.00e+00	0	56	0	246415360	49	5084
2026-01-01 10:30:43.14	182.30	19.34	-39.5	-41.8	15.9	0.00e+00	0	55	0	248512512	50	4714
2026-01-01 10:30:44.14	182.37	19.46	-39.6	-42.0	15.7	0.00e+00	0	55	0	250609664	50	4845
2026-01-01 10:30:45.15	182.44	19.59	-39.5	-41.9	15.9	0.00e+00	0	56	0	252706816	50	4775
2026-01-01 10:30:46.16	182.52	19.71	-39.4	-41.7	16.0	0.00e+00	0	56	0	253755392	50	4699
2026-01-01 10:30:47.17	182.59	19.84	-39.5	-41.9	15.9	0.00e+00	0	55	0	255852544	50	4764
2026-01-01 10:30:48.18	182.66	19.97	-39.5	-41.8	15.9	0.00e+00	0	55	0	257949696	50	4742
2026-01-01 10:30:49.19	182.73	20.10	-39.5	-41.8	16.0	0.00e+00	0	56	0	260046848	50	4715
2026-01-01 10:30:50.20	182.81	20.22	-39.2	-41.4	16.3	0.00e+00	0	56	0	262144000	50	4541
2026-01-01 10:30:51.21	182.88	20.35	-39.5	-41.8	15.9	0.00e+00	0	55	0	263192576	50	4758
2026-01-01 10:30:52.22	182.96	20.48	-39.5	-41.8	15.9	0.00e+00	0	56	0	265289728	50	4758
2026-01-01 10:30:53.23	183.03	20.61	-39.5	-41.8	15.9	0.00e+00	0	56	0	267386880	50	4755
2026-01-01 10:30:54.25	183.11	20.74	-39.4	-41.7	16.1	0.00e+00	0	56	0	269484032	50	4684
2026-01-01 10:30:55.26	183.19	20.88	-39.5	-41.9	15.9	0.00e+00	0	56	0	271581184	50	4763
2026-01-01 10:30:56.26	183.27	21.01	-39.6	-42.0	15.8	0.00e+00	0	56	0	272629760	50	4835
2026-01-01 10:30:57.27	183.34	21.14	-39.7	-42.2	15.6	0.00e+00	0	55	0	274726912	50	4939
2026-01-01 10:30:58.28	183.42	21.27	-39.8	-42.3	15.5	0.00e+00	0	56	0	276824064	50	5025
2026-01-01 10:30:59.29	183.50	21.41	-39.8	-42.2	15.6	0.00e+00	0	56	0	278921216	50	4958
2026-01-01 10:31:00.30	183.58	21.54	-39.9	-42.4	15.4	0.00e+00	0	56	0	281018368	50	5072
2026-01-01 10:31:01.31	183.66	21.68	-39.7	-42.2	15.6	0.00e+00	0	56	0	283115520	50	4953
2026-01-01 10:31:02.32	183.75	21.81	-39.6	-42.0	15.7	0.00e+00	0	56	0	284164096	50	4859
2026-01-01 10:31:03.33	183.83	21.95	-39.5	-41.9	15.9	0.00e+00	0	56	0	286261248	50	4768
2026-01-01 10:31:04.34	183.91	22.08	-39.5	-41.8	16.0	0.00e+00	0	56	0	288358400	50	4721
2026-01-01 10:31:05.35	183.99	22.22	-39.4	-41.7	16.1	0.00e+00	0	56	0	290455552	50	4698
2026-01-01 10:31:06.36	184.08	22.36	-39.3	-41.6	16.3	0.00e+00	0	56	0	292552704	50	4613
2026-01-01 10:31:07.37	184.16	22.50	-39.1	-41.3	16.5	0.00e+00	0	56	0	293601280	50	4487
2026-01-01 10:31:08.38	184.25	22.64	-38.9	-41.1	16.7	0.00e+00	0	56	0	295698432	49	4604
2026-01-01 10:31:09.39	184.34	22.78	-38.8	-40.9	16.9	0.00e+00	0	56	0	297795584	49	4516
2026-01-01 10:31:10.40	184.42	22.92	-38.6	-40.6	17.2	0.00e+00	0	56	0	299892736	49	4345
2026-01-01 10:31:11.40	184.51	23.06	-38.5	-40.5	17.3	0.00e+00	0	56	0	301989888	49	4321
2026-01-01 10:31:12.41	184.60	23.21	-38.3	-40.2	17.6	0.00e+00	0	56	0	303038464	48	4407
2026-01-01 10:31:13.42	184.69	23.35	-38.3	-40.2	17.5	0.00e+00	0	56	0	305135616	48	4428
2026-01-01 10:31:14.43	184.78	23.49	-38.2	-40.1	17.7	0.00e+00	0	56	0	307232768	48	4366
2026-01-01 10:31:15.44	184.87	23.64	-38.2	-40.0	17.7	0.00e+00	0	56	0	309329920	48	4317
2026-01-01 10:31:16.46	184.96	23.79	-38.0	-39.8	17.8	0.00e+00	0	56	0	311427072	47	4493
2026-01-01 10:31:17.46	185.06	23.93	-37.9	-39.7	18.0	0.00e+00	0	56	0	312475648	47	4403
2026-01-01 10:31:18.48	185.15	24.08	-37.8	-39.5	18.1	0.00e+00	0	56	0	314572800	47	4332
2026-01-01 10:31:19.49	185.25	24.23	-37.8	-39.5	18.2	0.00e+00	0	56	0	316669952	47	4330
2026-01-01 10:31:20.50	185.34	24.38	-37.8	-39.6	18.0	0.00e+00	0	56	0	318767104	47	4379
2026-01-01 10:31:21.51	185.44	24.53	-37.8	-39.6	18.1	0.00e+00	0	56	0	320864256	47	4369
2026-01-01 10:31:22.52	185.54	24.68	-37.9	-39.8	17.9	0.00e+00	0	56	0	321912832	47	4450
2026-01-01 10:31:23.53	185.63	24.83	-38.0	-39.9	17.8	0.00e+00	0	56	0	324009984	47	4504
2026-01-01 10:31:24.54	185.73	24.98	-37.9	-39.8	17.9	0.00e+00	0	56	0	326107136	47	4452
2026-01-01 10:31:25.55	185.83	25.13	-38.0	-39.9	17.8	0.00e+00	0	56	0	328204288	47	4502
2026-01-01 10:31:26.56	185.93	25.29	-38.0	-39.9	17.8	0.00e+00	0	56	0	330301440	47	4495
2026-01-01 10:31:27.57	186.04	25.44	-37.9	-39.7	17.9	0.00e+00	0	56	0	331350016	47	4418
2026-01-01 10:31:28.58	186.14	25.60	-37.9	-39.8	17.9	0.00e+00	0	56	0	333447168	47	4456
2026-01-01 10:31:29.59	186.24	25.75	-38.0	-39.8	17.9	0.00e+00	0	56	0	335544320	47	4478
2026-01-01 10:31:30.60	186.35	25.91	-37.9	-39.7	17.9	0.00e+00	0	56	0	337641472	47	4441
2026-01-01 10:31:31.61	186.45	26.07	-38.1	-40.0	17.8	0.00e+00	0	56	0	339738624	47	4551
2026-01-01 10:31:32.62	186.56	26.22	-38.0	-39.9	17.8	0.00e+00	0	56	0	340787200	47	4502
2026-01-01 10:31:33.63	186.67	26.38	-38.1	-40.1	17.7	0.00e+00	0	56	0	342884352	47	4601
2026-01-01 10:31:34.64	186.78	26.54	-38.3	-40.2	17.5	0.00e+00	0	56	0	344981504	47	4705
2026-01-01 10:31:35.65	186.89	26.71	-38.6	-40.6	17.1	0.00e+00	0	56	0	347078656	47	4912
2026-01-01 10:31:36.66	187.00	26.87	-38.4	-40.4	17.3	0.00e+00	0	56	0	349175808	47	4812
2026-01-01 10:31:37.67	187.11	27.03	-38.5	-40.5	17.3	0.00e+00	0	56	0	351272960	47	4840
2026-01-01 10:31:38.68	187.22	27.19	-38.5	-40.5	17.2	0.00e+00	0	56	0	352321536	47	4864
2026-01-01 10:31:39.69	187.34	27.36	-38.3	-40.2	17.5	0.00e+00	0	56	0	354418688	47	4697
2026-01-01 10:31:40.70	187.45	27.52	-38.3	-40.2	17.5	0.00e+00	0	56	0	356515840	47	4680
2026-01-01 10:31:41.71	187.57	27.69	-38.3	-40.2	17.5	0.00e+00	0	56	0	358612992	47	4683
2026-01-01 10:31:42.72	187.69	27.86	-38.2	-40.1	17.6	0.00e+00	0	56	0	360710144	47	4630
2026-01-01 10:31:43.73	187.81	28.02	-38.2	-40.1	17.6	0.00e+00	0	56	0	361758720	47	4616
2026-01-01 10:31:44.74	187.93	28.19	-38.3	-40.1	17.6	0.00e+00	0	56	0	363855872	47	4651
2026-01-01 10:31:45.75	188.05	28.36	-38.3	-40.2	17.4	0.00e+00	0	56	0	365953024	47	4695
2026-01-01 10:31:46.76	188.17	28.53	-38.5	-40.5	17.3	0.00e+00	0	56	0	368050176	47	4823
2026-01-01 10:31:47.77	188.30	28.71	-38.4	-40.3	17.4	0.00e+00	0	56	0	370147328	47	4747
2026-01-01 10:31:48.78	188.42	28.88	-38.5	-40.5	17.3	0.00e+00	0	56	0	371195904	47	4855
2026-01-01 10:31:49.79	188.55	29.05	-38.8	-40.8	17.1	0.00e+00	0	56	0	373293056	48	4728
2026-01-01 10:31:50.80	188.68	29.23	-38.8	-40.8	17.0	0.00e+00	0	56	0	375390208	48	4751
2026-01-01 10:31:51.81	188.81	29.40	-38.8	-40.9	17.0	0.00e+00	0	56	0	377487360	48	4779
2026-01-01 10:31:52.82	188.94	29.58	-39.2	-41.4	16.6	0.00e+00	0	56	0	379584512	48	5059
2026-01-01 10:31:53.83	189.07	29.75	-39.3	-41.5	16.4	0.00e+00	0	56	0	380633088	49	4869
2026-01-01 10:31:54.83	189.20	29.93	-39.3	-41.5	16.4	0.00e+00	0	56	0	382730240	49	4844
2026-01-01 10:31:55.84	189.34	30.11	-39.6	-41.9	16.0	0.00e+00	0	56	0	384827392	50	4796
2026-01-01 10:31:56.85	189.47	30.29	-39.5	-41.7	16.2	0.00e+00	0	56	0	386924544	50	4679
2026-01-01 10:31:57.86	189.61	30.47	-39.6	-41.9	16.0	0.00e+00	0	56	0	389021696	50	4793
2026-01-01 10:31:58.87	189.75	30.65	-39.8	-42.2	15.8	0.00e+00	0	56	0	390070272	50	4940
2026-01-01 10:31:59.88	189.89	30.84	-39.8	-42.2	15.8	0.00e+00	0	57	0	392167424	50	4948
2026-01-01 10:32:00.89	190.04	31.02	-40.2	-42.8	15.2	0.00e+00	0	56	0	394264576	51	5008
2026-01-01 10:32:01.90	190.18	31.20	-40.3	-42.9	15.1	0.00e+00	0	56	0	396361728	51	5055
2026-01-01 10:32:02.91	190.33	31.39	-40.8	-43.8	14.1	0.00e+00	0	56	0	398458880	52	5316
2026-01-01 10:32:03.92	190.47	31.58	-41.1	-44.4	13.5	4.50e-06	0	56	0	399507456	52	5668
2026-01-01 10:32:04.94	190.62	31.77	-41.6	-45.2	12.7	4.73e-05	0	57	0	401604608	53	5910
2026-01-01 10:32:05.94	190.77	31.95	-41.7	-45.3	12.5	1.14e-04	0	56	0	403701760	54	5648
2026-01-01 10:32:06.95	190.93	32.14	-41.7	-45.4	12.4	1.33e-04	0	56	0	405798912	54	5710
2026-01-01 10:32:07.96	191.08	32.33	-41.8	-45.5	12.4	1.60e-04	0	56	0	407896064	54	5769
2026-01-01 10:32:08.98	191.24	32.53	-41.4	-44.8	13.2	9.00e-05	0	56	0	408944640	54	5295
2026-01-01 10:32:09.98	191.40	32.72	-41.5	-45.0	12.8	2.05e-05	0	56	0	411041792	54	5429
2026-01-01 10:32:11.00	191.56	32.92	-41.3	-44.5	13.5	2.89e-05	0	57	0	413138944	54	5123
2026-01-01 10:32:12.01	191.72	33.11	-41.0	-44.1	13.8	1.52e-05	0	57	0	415236096	54	4903
2026-01-01 10:32:13.02	191.88	33.31	-41.0	-44.0	13.9	2.20e-06	0	56	0	417333248	53	5113
2026-01-01 10:32:14.02	192.05	33.50	-40.6	-43.3	14.6	0.00e+00	0	57	0	419430400	53	4750
2026-01-01 10:32:15.03	192.21	33.70	-40.6	-43.3	14.6	0.00e+00	0	57	0	420478976	52	5014
2026-01-01 10:32:16.04	192.38	33.90	-40.2	-42.8	15.1	0.00e+00	0	56	0	422576128	52	4732
2026-01-01 10:32:17.05	192.56	34.10	-40.2	-42.8	15.1	7.00e-07	0	56	0	424673280	52	4707
2026-01-01 10:32:18.06	192.73	34.30	-40.1	-42.6	15.3	0.00e+00	0	56	0	426770432	52	4649
2026-01-01 10:32:19.07	192.90	34.50	-40.2	-42.7	15.2	0.00e+00	0	56	0	428867584	52	4675
2026-01-01 10:32:20.08	193.08	34.70	-40.1	-42.6	15.3	0.00e+00	0	57	0	429916160	52	4612
2026-01-01 10:32:21.09	193.26	34.91	-40.2	-42.8	15.1	0.00e+00	0	57	0	432013312	52	4731
2026-01-01 10:32:22.10	193.44	35.11	-40.5	-43.2	14.6	0.00e+00	0	57	0	434110464	52	4973
2026-01-01 10:32:23.11	193.63	35.32	-40.2	-42.7	15.2	0.00e+00	0	57	0	436207616	52	4686
2026-01-01 10:32:24.12	193.82	35.53	-40.5	-43.2	14.7	0.00e+00	0	57	0	438304768	52	4968
2026-01-01 10:32:25.14	194.01	35.74	-40.6	-43.4	14.4	0.00e+00	0	56	0	439353344	52	5090
2026-01-01 10:32:26.14	194.20	35.94	-40.6	-43.4	14.5	7.00e-07	0	57	0	441450496	52	5049
2026-01-01 10:32:27.16	194.39	36.15	-40.6	-43.3	14.6	0.00e+00	0	57	0	443547648	52	5032
2026-01-01 10:32:28.17	194.59	36.37	-40.5	-43.3	14.6	0.00e+00	0	56	0	445644800	52	4996
2026-01-01 10:32:29.18	194.79	36.58	-40.5	-43.2	14.7	7.00e-07	0	57	0	447741952	52	4981
2026-01-01 10:32:30.18	194.99	36.79	-40.6	-43.4	14.5	0.00e+00	0	57	0	448790528	52	5096
2026-01-01 10:32:31.20	195.19	37.01	-40.6	-43.4	14.6	0.00e+00	0	56	0	450887680	52	5051
2026-01-01 10:32:32.20	195.40	37.22	-40.5	-43.2	14.7	0.00e+00	0	57	0	452984832	52	4983
2026-01-01 10:32:33.21	195.61	37.43	-40.4	-43.0	14.9	0.00e+00	0	57	0	455081984	52	4836
2026-01-01 10:32:34.22	195.82	37.65	-40.6	-43.5	14.6	7.00e-07	0	56	0	457179136	52	5112
2026-01-01 10:32:35.23	196.04	37.87	-40.6	-43.3	14.7	5.30e-06	0	56	0	459276288	52	5036
2026-01-01 10:32:36.24	196.25	38.09	-40.7	-43.6	14.4	1.50e-06	0	57	0	460324864	52	5162
2026-01-01 10:32:37.25	196.47	38.31	-40.7	-43.6	14.3	0.00e+00	0	57	0	462422016	52	5196
2026-01-01 10:32:38.26	196.70	38.53	-40.3	-42.8	15.2	0.00e+00	0	57	0	464519168	52	4758
2026-01-01 10:32:39.27	196.93	38.75	-40.6	-43.4	14.6	0.00e+00	0	57	0	466616320	52	5046
2026-01-01 10:32:40.28	197.15	38.98	-40.3	-42.9	15.0	7.00e-07	0	57	0	468713472	52	4799
2026-01-01 10:32:41.29	197.39	39.20	-40.9	-43.9	14.1	7.00e-07	0	57	0	469762048	52	5356
2026-01-01 10:32:42.30	197.62	39.42	-40.9	-43.8	14.2	1.06e-05	0	57	0	471859200	53	5007
2026-01-01 10:32:43.31	197.86	39.65	-40.9	-43.9	14.1	7.00e-07	0	57	0	473956352	53	5049
2026-01-01 10:32:44.32	198.11	39.88	-40.9	-43.8	14.2	0.00e+00	0	57	0	476053504	53	5039
2026-01-01 10:32:45.33	198.35	40.10	-40.8	-43.7	14.3	5.30e-06	0	57	0	478150656	53	4944
2026-01-01 10:32:46.34	198.60	40.33	-40.7	-43.6	14.4	0.00e+00	0	57	0	479199232	53	4871
2026-01-01 10:32:47.35	198.85	40.56	-40.1	-42.6	15.3	0.00e+00	0	57	0	481296384	52	4636
2026-01-01 10:32:48.36	199.11	40.79	-40.0	-42.3	15.7	0.00e+00	0	57	0	483393536	51	4744
2026-01-01 10:32:49.37	199.37	41.02	-39.8	-42.1	15.9	0.00e+00	0	57	0	485490688	50	4922
2026-01-01 10:32:50.38	199.63	41.25	-39.2	-41.2	16.8	0.00e+00	0	56	0	487587840	50	4427
2026-01-01 10:32:51.39	199.90	41.49	-39.6	-41.7	16.3	0.00e+00	0	57	0	488636416	50	4702
2026-01-01 10:32:52.40	200.17	41.72	-39.7	-41.9	16.2	0.00e+00	0	57	0	490733568	50	4808
2026-01-01 10:32:53.41	200.45	41.96	-40.2	-42.7	15.3	0.00e+00	0	57	0	492830720	51	4973
2026-01-01 10:32:54.42	200.73	42.19	-40.5	-43.3	14.8	0.00e+00	0	57	0	494927872	51	5290
2026-01-01 10:32:55.42	201.01	42.42	-40.7	-43.4	14.6	0.00e+00	0	57	0	497025024	51	5381
2026-01-01 10:32:56.43	201.30	42.66	-40.3	-42.9	15.1	7.00e-07	0	57	0	498073600	52	4793
2026-01-01 10:32:57.44	201.59	42.90	-40.0	-42.4	15.6	0.00e+00	0	57	0	500170752	51	4804
2026-01-01 10:32:58.45	201.88	43.14	-39.9	-42.2	15.8	0.00e+00	0	57	0	502267904	51	4699
2026-01-01 10:32:59.46	202.18	43.37	-39.9	-42.2	15.9	0.00e+00	0	57	0	504365056	51	4696
2026-01-01 10:33:00.47	202.49	43.61	-39.9	-42.3	15.8	0.00e+00	0	57	0	506462208	51	4714
2026-01-01 10:33:01.48	202.80	43.85	-40.2	-42.7	15.4	0.00e+00	0	57	0	507510784	51	4961
2026-01-01 10:33:02.49	203.11	44.09	-40.4	-43.0	15.1	0.00e+00	0	57	0	509607936	51	5136
2026-01-01 10:33:03.50	203.43	44.33	-40.4	-43.1	15.1	0.00e+00	0	57	0	511705088	51	5185
2026-01-01 10:33:04.51	203.75	44.58	-40.2	-42.7	15.4	0.00e+00	0	57	0	513802240	52	4687
2026-01-01 10:33:05.52	204.08	44.82	-40.2	-42.7	15.4	0.00e+00	0	57	0	515899392	52	4674
2026-01-01 10:33:06.53	204.41	45.06	-40.4	-43.0	15.0	7.00e-07	0	57	0	516947968	52	4839
2026-01-01 10:33:07.54	204.75	45.30	-40.5	-43.2	14.9	0.00e+00	0	56	0	519045120	52	4933
2026-01-01 10:33:08.55	205.09	45.55	-40.7	-43.5	14.5	0.00e+00	0	57	0	521142272	52	5134
2026-01-01 10:33:09.56	205.44	45.79	-40.6	-43.3	14.7	0.00e+00	0	57	0	523239424	52	5039
2026-01-01 10:33:10.57	205.80	46.03	-40.1	-42.6	15.4	0.00e+00	0	57	0	525336576	52	4619
2026-01-01 10:33:11.58	206.16	46.28	-40.2	-42.7	15.4	0.00e+00	0	57	0	526385152	51	4965
2026-01-01 10:33:12.59	206.52	46.52	-39.8	-42.1	16.1	0.00e+00	0	57	0	528482304	51	4637
2026-01-01 10:33:13.60	206.89	46.77	-40.1	-42.5	15.6	0.00e+00	0	57	0	530579456	51	4863
2026-01-01 10:33:14.61	207.27	47.01	-40.1	-42.5	15.7	0.00e+00	0	57	0	532676608	51	4834
2026-01-01 10:33:15.62	207.65	47.25	-40.2	-42.7	15.5	0.00e+00	0	57	0	534773760	51	4928
2026-01-01 10:33:16.63	208.04	47.50	-40.1	-42.5	15.6	0.00e+00	0	57	0	536870912	51	4834
2026-01-01 10:33:17.64	208.43	47.74	-40.0	-42.4	15.7	0.00e+00	0	57	0	537919488	51	4763
2026-01-01 10:33:18.65	208.83	47.99	-39.2	-41.2	16.8	0.00e+00	0	57	0	540016640	50	4436
2026-01-01 10:33:19.66	209.24	48.23	-39.1	-41.2	16.9	0.00e+00	0	57	0	542113792	50	4401
2026-01-01 10:33:20.67	209.65	48.48	-39.2	-41.2	16.8	0.00e+00	0	57	0	544210944	50	4435
2026-01-01 10:33:21.68	210.07	48.72	-39.7	-42.0	16.2	0.00e+00	0	57	0	546308096	50	4839
2026-01-01 10:33:22.69	210.50	48.97	-40.1	-42.6	15.5	0.00e+00	0	57	0	547356672	50	5173
2026-01-01 10:33:23.70	210.93	49.21	-40.9	-43.8	14.3	1.50e-06	0	57	0	549453824	52	5294
2026-01-01 10:33:24.71	211.37	49.45	-41.3	-44.5	13.6	7.60e-06	0	57	0	551550976	53	5408
2026-01-01 10:33:25.72	211.82	49.70	-41.0	-43.9	14.1	2.59e-05	0	57	0	553648128	54	4800
2026-01-01 10:33:26.73	212.27	49.94	-40.5	-43.1	14.9	7.00e-07	0	57	0	555745280	52	4902
2026-01-01 10:33:27.74	212.73	50.18	-40.3	-42.8	15.2	0.00e+00	0	57	0	556793856	52	4744
2026-01-01 10:33:28.75	213.20	50.42	-40.5	-43.3	14.9	0.00e+00	0	57	0	558891008	52	4985
2026-01-01 10:33:29.75	213.67	50.66	-40.6	-43.4	14.4	7.00e-07	0	57	0	560988160	52	5068
2026-01-01 10:33:30.76	214.16	50.90	-40.4	-43.0	15.0	0.00e+00	0	57	0	563085312	52	4831
2026-01-01 10:33:31.77	214.65	51.13	-40.2	-42.8	15.2	0.00e+00	0	57	0	565182464	52	4710
2026-01-01 10:33:32.78	215.14	51.37	-40.4	-43.1	14.9	7.00e-07	0	57	0	566231040	52	4874
2026-01-01 10:33:33.79	215.65	51.61	-40.8	-43.6	14.4	7.00e-07	0	57	0	568328192	52	5193
2026-01-01 10:33:34.80	216.17	51.84	-41.2	-44.3	13.7	3.80e-06	0	57	0	570425344	53	5322
2026-01-01 10:33:35.81	216.69	52.08	-41.1	-44.1	13.9	5.30e-06	0	57	0	572522496	53	5212
2026-01-01 10:33:36.82	217.22	52.31	-40.5	-43.1	14.8	7.00e-07	0	57	0	574619648	53	4646
2026-01-01 10:33:37.83	217.76	52.54	-39.6	-41.9	16.3	0.00e+00	0	57	0	575668224	51	4499
2026-01-01 10:33:38.84	218.31	52.77	-39.4	-41.5	16.6	0.00e+00	0	57	0	577765376	50	4573
2026-01-01 10:33:39.85	218.86	53.00	-39.8	-42.0	16.1	0.00e+00	0	57	0	579862528	50	4869
2026-01-01 10:33:40.86	219.43	53.22	-40.3	-42.9	15.2	0.00e+00	0	57	0	581959680	51	5086
2026-01-01 10:33:41.87	220.00	53.45	-40.3	-42.8	15.4	0.00e+00	0	57	0	584056832	51	5006
2026-01-01 10:33:42.88	220.58	53.67	-39.9	-42.3	15.8	0.00e+00	0	57	0	585105408	51	4745
2026-01-01 10:33:43.89	221.17	53.89	-39.5	-41.8	16.4	0.00e+00	0	57	0	587202560	50	4713
2026-01-01 10:33:44.90	221.77	54.11	-39.5	-41.7	16.4	0.00e+00	0	57	0	589299712	50	4661
2026-01-01 10:33:45.91	222.38	54.32	-39.3	-41.5	16.6	0.00e+00	0	57	0	591396864	50	4557
2026-01-01 10:33:46.92	223.00	54.54	-39.0	-41.0	17.1	0.00e+00	0	57	0	593494016	49	4564
2026-01-01 10:33:47.93	223.63	54.75	-38.7	-40.6	17.4	0.00e+00	0	57	0	595591168	49	4368
2026-01-01 10:33:48.94	224.26	54.96	-38.9	-40.8	17.2	0.00e+00	0	57	0	596639744	49	4481
2026-01-01 10:33:49.95	224.91	55.16	-39.3	-41.4	16.7	0.00e+00	0	57	0	598736896	49	4795
2026-01-01 10:33:50.96	225.57	55.37	-39.4	-41.5	16.6	0.00e+00	0	57	0	600834048	49	4850
2026-01-01 10:33:51.97	226.23	55.57	-39.4	-41.6	16.5	0.00e+00	0	57	0	602931200	49	4909
2026-01-01 10:33:52.97	226.90	55.76	-39.9	-42.4	15.8	0.00e+00	0	57	0	603979776	50	5046
2026-01-01 10:33:53.99	227.59	55.96	-40.4	-43.1	15.1	0.00e+00	0	57	0	606076928	51	5178
2026-01-01 10:33:54.99	228.27	56.15	-40.6	-43.3	14.7	0.00e+00	0	57	0	608174080	52	5030
2026-01-01 10:33:56.00	228.98	56.33	-39.8	-42.2	15.9	0.00e+00	0	57	0	610271232	51	4653
2026-01-01 10:33:57.01	229.69	56.52	-39.3	-41.5	16.6	0.00e+00	0	57	0	612368384	50	4575
2026-01-01 10:33:58.02	230.41	56.70	-38.7	-40.7	17.3	0.00e+00	0	57	0	613416960	49	4408
2026-01-01 10:33:59.03	231.14	56.87	-38.8	-40.7	17.3	0.00e+00	0	57	0	615514112	49	4426
2026-01-01 10:34:00.04	231.88	57.05	-39.0	-41.0	17.1	0.00e+00	0	57	0	617611264	49	4571
2026-01-01 10:34:01.05	232.63	57.21	-39.4	-41.5	16.6	0.00e+00	0	57	0	619708416	49	4845
2026-01-01 10:34:02.06	233.38	57.38	-39.3	-41.4	16.7	0.00e+00	0	57	0	621805568	49	4784
2026-01-01 10:34:03.07	234.15	57.54	-39.2	-41.2	16.8	0.00e+00	0	57	0	623902720	49	4697
2026-01-01 10:34:04.08	234.93	57.69	-39.3	-41.5	16.5	0.00e+00	0	57	0	624951296	49	4830
2026-01-01 10:34:05.09	235.71	57.84	-39.5	-41.6	16.5	0.00e+00	0	57	0	627048448	49	4925
2026-01-01 10:34:06.10	236.50	57.99	-39.1	-41.2	16.8	0.00e+00	0	57	0	629145600	49	4668
2026-01-01 10:34:07.11	237.30	58.13	-38.9	-40.8	17.2	0.00e+00	0	57	0	631242752	49	4454
2026-01-01 10:34:08.12	238.11	58.27	-39.0	-41.0	17.0	0.00e+00	0	57	0	633339904	49	4573
2026-01-01 10:34:09.13	238.93	58.40	-39.5	-41.8	16.3	0.00e+00	0	57	0	634388480	49	4984
2026-01-01 10:34:10.14	239.76	58.53	-39.4	-41.6	16.5	0.00e+00	0	57	0	636485632	49	4876
2026-01-01 10:34:11.15	240.59	58.65	-39.2	-41.4	16.7	0.00e+00	0	57	0	638582784	49	4764
2026-01-01 10:34:12.16	241.43	58.76	-39.6	-41.8	16.3	0.00e+00	0	57	0	640679936	50	4723
2026-01-01 10:34:13.17	242.28	58.87	-39.7	-41.9	16.2	0.00e+00	0	57	0	642777088	50	4803
2026-01-01 10:34:14.18	243.13	58.98	-39.4	-41.6	16.5	0.00e+00	0	57	0	643825664	50	4601
2026-01-01 10:34:15.19	244.00	59.08	-39.7	-42.0	16.1	0.00e+00	0	57	0	645922816	50	4851
2026-01-01 10:34:16.20	244.86	59.17	-40.1	-42.5	15.6	0.00e+00	0	57	0	648019968	50	5159
2026-01-01 10:34:17.21	245.74	59.26	-40.4	-43.0	15.2	0.00e+00	0	57	0	650117120	51	5132
2026-01-01 10:34:18.22	246.62	59.34	-41.2	-44.4	13.7	4.50e-06	0	57	0	652214272	53	5354
2026-01-01 10:34:19.23	247.50	59.41	-41.4	-44.8	13.3	2.13e-05	0	57	0	653262848	53	5596
2026-01-01 10:34:20.24	248.39	59.48	-40.7	-43.5	14.6	7.60e-06	0	57	0	655360000	53	4852
2026-01-01 10:34:21.25	249.28	59.55	-40.8	-43.7	14.3	1.50e-06	0	57	0	657457152	53	4970
2026-01-01 10:34:22.26	250.18	59.60	-41.5	-44.8	13.2	7.00e-07	0	57	0	659554304	53	5621
2026-01-01 10:34:23.27	251.08	59.66	-41.8	-45.5	12.6	3.81e-05	0	57	0	661651456	54	5730
2026-01-01 10:34:24.28	251.99	59.70	-40.9	-43.8	14.3	1.14e-05	0	57	0	662700032	53	5020
2026-01-01 10:34:25.29	252.89	59.74	-40.4	-43.1	15.0	0.00e+00	0	57	0	664797184	52	4879
2026-01-01 10:34:26.30	253.80	59.77	-40.9	-43.9	14.2	0.00e+00	0	57	0	666894336	52	5350
2026-01-01 10:34:27.31	254.72	59.79	-40.9	-43.8	14.2	1.50e-06	0	57	0	668991488	52	5321
2026-01-01 10:34:28.32	255.63	59.81	-40.4	-43.0	15.1	0.00e+00	0	57	0	671088640	52	4869
2026-01-01 10:34:29.33	256.54	59.82	-39.8	-42.1	16.0	0.00e+00	0	57	0	672137216	51	4608
2026-01-01 10:34:30.34	257.46	59.83	-39.7	-41.9	16.2	0.00e+00	0	57	0	674234368	51	4531
2026-01-01 10:34:31.35	258.38	59.83	-40.2	-42.8	15.4	0.00e+00	0	57	0	676331520	51	5010
2026-01-01 10:34:32.36	259.29	59.82	-40.5	-43.1	15.1	0.00e+00	0	57	0	678428672	51	5200
2026-01-01 10:34:33.37	260.20	59.81	-40.7	-43.5	14.8	0.00e+00	0	57	0	680525824	51	5413
2026-01-01 10:34:34.38	261.12	59.79	-40.6	-43.4	14.7	0.00e+00	0	57	0	682622976	52	5090
2026-01-01 10:34:35.39	262.03	59.76	-40.0	-42.4	15.6	0.00e+00	0	57	0	683671552	52	4527
2026-01-01 10:34:36.40	262.94	59.73	-39.5	-41.6	16.5	0.00e+00	0	57	0	685768704	50	4632
2026-01-01 10:34:37.41	263.84	59.69	-39.5	-41.6	16.6	0.00e+00	0	57	0	687865856	50	4632
2026-01-01 10:34:38.42	264.75	59.64	-39.9	-42.2	15.9	0.00e+00	0	57	0	689963008	50	4969
2026-01-01 10:34:39.43	265.65	59.59	-39.6	-41.9	16.2	0.00e+00	0	57	0	692060160	50	4767
2026-01-01 10:34:40.44	266.54	59.53	-39.4	-41.5	16.7	0.00e+00	0	57	0	693108736	50	4574
2026-01-01 10:34:41.45	267.44	59.47	-39.6	-41.9	16.3	0.00e+00	0	57	0	695205888	50	4760
2026-01-01 10:34:42.46	268.32	59.39	-40.1	-42.6	15.7	0.00e+00	0	57	0	697303040	50	5171
2026-01-01 10:34:43.47	269.21	59.32	-40.3	-42.8	15.3	0.00e+00	0	57	0	699400192	51	5034
2026-01-01 10:34:44.48	270.08	59.23	-40.2	-42.6	15.5	0.00e+00	0	57	0	701497344	51	4902
2026-01-01 10:34:45.49	270.95	59.15	-40.3	-42.9	15.3	0.00e+00	0	57	0	702545920	51	5070
2026-01-01 10:34:46.50	271.82	59.05	-40.3	-42.9	15.3	0.00e+00	0	57	0	704643072	51	5077
2026-01-01 10:34:47.51	272.68	58.95	-39.9	-42.3	15.9	0.00e+00	0	57	0	706740224	51	4731
2026-01-01 10:34:48.52	273.53	58.84	-39.8	-42.1	16.0	0.00e+00	0	57	0	708837376	51	4632
2026-01-01 10:34:49.53	274.38	58.73	-40.3	-42.8	15.2	0.00e+00	0	57	0	710934528	51	5019
2026-01-01 10:34:50.54	275.21	58.62	-40.8	-43.6	14.5	0.00e+00	0	57	0	711983104	52	5203
2026-01-01 10:34:51.55	276.04	58.49	-40.6	-43.4	14.8	0.00e+00	0	57	0	714080256	52	5062
2026-01-01 10:34:52.56	276.87	58.37	-40.5	-43.2	14.9	0.00e+00	0	57	0	716177408	52	4947
2026-01-01 10:34:53.57	277.68	58.23	-40.7	-43.4	14.7	0.00e+00	0	57	0	718274560	52	5088
2026-01-01 10:34:54.58	278.49	58.10	-40.3	-42.9	15.2	7.00e-07	0	57	0	720371712	52	4777
2026-01-01 10:34:55.59	279.28	57.95	-40.0	-42.4	15.8	0.00e+00	0	57	0	721420288	51	4802
2026-01-01 10:34:56.60	280.07	57.81	-39.9	-42.3	15.9	0.00e+00	0	57	0	723517440	51	4717
2026-01-01 10:34:57.61	280.85	57.65	-39.6	-41.7	16.4	0.00e+00	0	57	0	725614592	51	4431
2026-01-01 10:34:58.62	281.63	57.50	-38.6	-40.5	17.6	0.00e+00	0	57	0	727711744	49	4309
2026-01-01 10:34:59.63	282.39	57.34	-39.0	-41.0	17.1	0.00e+00	0	57	0	729808896	49	4564
2026-01-01 10:35:00.64	283.14	57.17	-39.3	-41.5	16.7	0.00e+00	0	57	0	730857472	49	4837
2026-01-01 10:35:01.65	283.89	57.00	-39.0	-41.0	17.1	0.00e+00	0	57	0	732954624	49	4583
2026-01-01 10:35:02.66	284.62	56.83	-38.0	-39.7	18.4	0.00e+00	0	57	0	735051776	47	4433
2026-01-01 10:35:03.67	285.35	56.65	-37.7	-39.4	18.6	0.00e+00	0	57	0	737148928	47	4258
2026-01-01 10:35:04.68	286.07	56.47	-37.6	-39.3	18.7	0.00e+00	0	57	0	739246080	46	4467
2026-01-01 10:35:05.69	286.78	56.29	-38.2	-40.0	18.0	0.00e+00	0	57	0	741343232	47	4558
2026-01-01 10:35:06.70	287.47	56.10	-38.4	-40.3	17.6	0.00e+00	0	57	0	742391808	47	4752
2026-01-01 10:35:07.71	288.16	55.91	-37.4	-39.0	18.9	0.00e+00	0	57	0	744488960	46	4295
2026-01-01 10:35:08.72	288.84	55.72	-36.9	-38.4	19.5	0.00e+00	0	57	0	746586112	45	4269
2026-01-01 10:35:09.72	289.51	55.52	-37.8	-39.6	18.4	0.00e+00	0	57	0	748683264	46	4600
2026-01-01 10:35:10.73	290.17	55.32	-37.7	-39.3	18.6	0.00e+00	0	57	0	750780416	46	4493
2026-01-01 10:35:11.74	290.82	55.12	-37.0	-38.6	19.3	0.00e+00	0	57	0	751828992	46	4119
2026-01-01 10:35:12.75	291.46	54.91	-36.7	-38.2	19.7	0.00e+00	0	57	0	753926144	45	4164
2026-01-01 10:35:13.76	292.09	54.70	-37.3	-38.9	19.1	0.00e+00	0	57	0	756023296	45	4508
2026-01-01 10:35:14.77	292.72	54.49	-37.6	-39.3	18.6	0.00e+00	0	57	0	758120448	45	4713
2026-01-01 10:35:15.78	293.33	54.28	-37.8	-39.6	18.5	0.00e+00	0	57	0	760217600	46	4607
2026-01-01 10:35:16.79	293.94	54.06	-37.3	-38.8	19.0	0.00e+00	0	57	0	761266176	46	4238
2026-01-01 10:35:17.80	294.53	53.84	-37.0	-38.5	19.3	0.00e+00	0	57	0	763363328	45	4335
2026-01-01 10:35:18.81	295.12	53.62	-37.7	-39.4	18.6	0.00e+00	0	57	0	765460480	45	4805
2026-01-01 10:35:19.82	295.70	53.40	-39.0	-41.1	17.1	0.00e+00	0	57	0	767557632	48	4882
2026-01-01 10:35:20.83	296.27	53.18	-40.0	-42.5	15.8	0.00e+00	0	57	0	769654784	50	5131
2026-01-01 10:35:21.84	296.83	52.95	-40.4	-43.0	15.1	0.00e+00	0	57	0	770703360	51	5137
2026-01-01 10:35:22.85	297.38	52.72	-40.3	-43.0	15.2	0.00e+00	0	57	0	772800512	51	5103
2026-01-01 10:35:23.86	297.93	52.49	-39.2	-41.4	16.8	0.00e+00	0	57	0	774897664	50	4497
2026-01-01 10:35:24.87	298.46	52.26	-38.6	-40.5	17.6	0.00e+00	0	57	0	776994816	49	4304
2026-01-01 10:35:25.88	298.99	52.03	-38.9	-40.9	17.3	0.00e+00	0	57	0	779091968	48	4810
2026-01-01 10:35:26.89	299.51	51.80	-39.8	-42.2	16.0	0.00e+00	0	57	0	780140544	50	4951
2026-01-01 10:35:27.90	300.02	51.56	-40.4	-43.1	15.1	0.00e+00	0	57	0	782237696	51	5164
2026-01-01 10:35:28.91	300.53	51.33	-40.3	-42.9	15.3	0.00e+00	0	57	0	784334848	51	5080
2026-01-01 10:35:29.92	301.02	51.09	-41.4	-44.6	13.6	3.00e-06	0	57	0	786432000	53	5491
2026-01-01 10:35:30.93	301.51	50.85	-43.1	-48.1	10.1	2.45e-03	0	57	0	788529152	56	6947
2026-01-01 10:35:31.94	301.99	50.62	-42.2	-46.0	12.1	4.25e-03	0	57	0	789577728	56	5422
2026-01-01 10:35:32.95	302.46	50.38	-40.7	-43.5	14.5	1.50e-06	0	57	0	791674880	53	4869
2026-01-01 10:35:33.96	302.93	50.14	-40.5	-43.2	14.9	0.00e+00	0	57	0	793772032	52	4948
2026-01-01 10:35:34.97	303.39	49.90	-40.2	-42.7	15.4	0.00e+00	0	57	0	795869184	52	4678
2026-01-01 10:35:35.97	303.83	49.66	-39.6	-41.7	16.4	0.00e+00	0	57	0	797966336	51	4418
2026-01-01 10:35:36.98	304.28	49.42	-39.3	-41.3	16.8	0.00e+00	0	57	0	799014912	50	4477
2026-01-01 10:35:37.99	304.71	49.17	-40.0	-42.3	15.9	0.00e+00	0	57	0	801112064	50	5009
2026-01-01 10:35:39.00	305.15	48.93	-41.1	-44.1	14.1	0.00e+00	0	57	0	803209216	52	5479
2026-01-01 10:35:40.01	305.57	48.69	-42.1	-46.0	12.1	1.04e-04	0	57	0	805306368	54	6072
2026-01-01 10:35:41.02	305.99	48.44	-41.8	-45.5	12.7	2.91e-04	0	57	0	807403520	55	5404
2026-01-01 10:35:42.03	306.40	48.20	-41.4	-44.7	13.4	3.81e-05	0	57	0	809500672	54	5245
2026-01-01 10:35:43.04	306.80	47.96	-40.8	-43.6	14.5	7.00e-07	0	57	0	810549248	53	4911
2026-01-01 10:35:44.05	307.20	47.71	-40.4	-43.0	15.1	0.00e+00	0	57	0	812646400	52	4848
2026-01-01 10:35:45.06	307.59	47.47	-39.8	-42.0	16.1	0.00e+00	0	57	0	814743552	51	4596
2026-01-01 10:35:46.07	307.98	47.23	-39.8	-42.1	16.1	0.00e+00	0	57	0	816840704	51	4601
2026-01-01 10:35:47.08	308.36	46.98	-40.1	-42.5	15.7	0.00e+00	0	57	0	817889280	51	4843
2026-01-01 10:35:48.09	308.73	46.74	-40.8	-43.7	14.4	0.00e+00	0	57	0	819986432	52	5267
2026-01-01 10:35:49.10	309.10	46.50	-40.9	-43.9	14.2	7.00e-07	0	57	0	822083584	52	5350
2026-01-01 10:35:50.11	309.46	46.25	-40.2	-42.7	15.4	0.00e+00	0	57	0	824180736	52	4689
2026-01-01 10:35:51.12	309.82	46.01	-39.2	-41.2	16.9	0.00e+00	0	57	0	826277888	50	4420
2026-01-01 10:35:52.13	310.17	45.77	-39.1	-41.1	17.0	0.00e+00	0	57	0	828375040	50	4390
2026-01-01 10:35:53.14	310.52	45.53	-39.0	-41.1	17.1	0.00e+00	0	57	0	829423616	49	4603
2026-01-01 10:35:54.15	310.86	45.28	-39.0	-41.1	17.1	0.00e+00	0	57	0	831520768	49	4601
2026-01-01 10:35:55.16	311.20	45.04	-39.1	-41.1	16.9	0.00e+00	0	57	0	833617920	49	4648
2026-01-01 10:35:56.17	311.53	44.80	-38.9	-40.8	17.3	0.00e+00	0	57	0	835715072	49	4489
2026-01-01 10:35:57.18	311.85	44.56	-38.9	-40.9	17.3	0.00e+00	0	57	0	837812224	49	4506
2026-01-01 10:35:58.19	312.18	44.32	-39.2	-41.2	17.0	0.00e+00	0	57	0	838860800	49	4665
2026-01-01 10:35:59.20	312.49	44.08	-39.7	-41.9	16.2	0.00e+00	0	57	0	840957952	50	4804
2026-01-01 10:36:00.21	312.80	43.84	-40.1	-42.5	15.7	0.00e+00	0	57	0	843055104	50	5117
2026-01-01 10:36:01.22	313.11	43.60	-40.2	-42.7	15.5	0.00e+00	0	58	0	845152256	51	4945
2026-01-01 10:36:02.23	313.41	43.37	-41.4	-44.6	13.6	0.00e+00	0	57	0	847249408	53	5499
2026-01-01 10:36:03.24	313.71	43.13	-41.7	-45.3	12.8	5.72e-05	0	57	0	848297984	54	5598
2026-01-01 10:36:04.25	314.01	42.89	-40.6	-43.4	14.6	1.67e-05	0	57	0	850395136	53	4782
2026-01-01 10:36:05.26	314.30	42.66	-40.1	-42.5	15.7	0.00e+00	0	57	0	852492288	51	4852
2026-01-01 10:36:06.27	314.58	42.42	-40.1	-42.5	15.7	0.00e+00	0	58	0	854589440	51	4848
2026-01-01 10:36:07.28	314.87	42.19	-40.9	-43.8	14.3	0.00e+00	0	57	0	856686592	52	5328
2026-01-01 10:36:08.29	315.14	41.95	-41.8	-45.4	12.8	2.97e-05	0	57	0	857735168	54	5689
2026-01-01 10:36:09.30	315.42	41.72	-41.9	-45.7	12.4	2.04e-04	0	57	0	859832320	54	5887
2026-01-01 10:36:10.31	315.69	41.49	-41.0	-44.0	14.1	3.05e-05	0	57	0	861929472	54	4861
2026-01-01 10:36:11.32	315.95	41.26	-40.5	-43.1	14.9	2.20e-06	0	57	0	864026624	53	4629
2026-01-01 10:36:12.33	316.22	41.03	-40.3	-42.9	15.2	0.00e+00	0	57	0	866123776	52	4808
2026-01-01 10:36:13.34	316.47	40.80	-40.2	-42.7	15.4	0.00e+00	0	57	0	867172352	52	4686
2026-01-01 10:36:14.35	316.73	40.57	-40.4	-43.0	15.2	0.00e+00	0	57	0	869269504	52	4819
2026-01-01 10:36:15.36	316.98	40.34	-40.6	-43.3	14.8	0.00e+00	0	57	0	871366656	52	5004
2026-01-01 10:36:16.37	317.23	40.11	-40.8	-43.6	14.5	0.00e+00	0	57	0	873463808	52	5199
2026-01-01 10:36:17.38	317.48	39.89	-40.9	-43.7	14.4	7.00e-07	0	57	0	875560960	52	5265
2026-01-01 10:36:18.39	317.72	39.66	-41.0	-43.9	14.1	3.80e-06	0	57	0	877658112	53	5096
2026-01-01 10:36:19.40	317.96	39.44	-40.5	-43.2	14.8	7.00e-07	0	57	0	878706688	53	4694
2026-01-01 10:36:20.41	318.19	39.21	-39.7	-42.0	16.1	0.00e+00	0	57	0	880803840	51	4567
2026-01-01 10:36:21.42	318.42	38.99	-39.2	-41.3	16.8	0.00e+00	0	57	0	882900992	50	4469
2026-01-01 10:36:22.43	318.65	38.77	-39.4	-41.5	16.7	0.00e+00	0	58	0	884998144	50	4551
2026-01-01 10:36:23.44	318.88	38.55	-39.6	-41.8	16.4	0.00e+00	0	57	0	887095296	50	4713
2026-01-01 10:36:24.45	319.10	38.33	-40.5	-43.0	15.2	0.00e+00	0	57	0	888143872	51	5157
2026-01-01 10:36:25.46	319.32	38.11	-41.9	-45.6	12.6	8.30e-06	0	57	0	890241024	54	5818
2026-01-01 10:36:26.47	319.54	37.89	-43.0	-47.8	10.3	1.40e-03	0	57	0	892338176	56	6674
2026-01-01 10:36:27.48	319.75	37.67	-42.7	-47.1	11.0	2.36e-03	0	57	0	894435328	56	6183
2026-01-01 10:36:28.49	319.96	37.46	-42.0	-45.7	12.5	6.97e-04	0	57	0	896532480	56	5251
2026-01-01 10:36:29.50	320.17	37.24	-40.9	-43.9	14.1	3.80e-06	0	57	0	897581056	53	5085
2026-01-01 10:36:30.51	320.38	37.03	-40.6	-43.4	14.7	0.00e+00	0	57	0	899678208	53	4765
2026-01-01 10:36:31.52	320.58	36.82	-40.5	-43.2	14.8	7.00e-07	0	57	0	901775360	53	4656
2026-01-01 10:36:32.52	320.78	36.61	-40.5	-43.2	14.9	0.00e+00	0	57	0	903872512	52	4937
2026-01-01 10:36:33.53	320.98	36.40	-40.3	-42.9	15.2	0.00e+00	0	57	0	905969664	52	4793
2026-01-01 10:36:34.54	321.17	36.19	-39.9	-42.2	16.0	0.00e+00	0	57	0	907018240	51	4697
2026-01-01 10:36:35.55	321.37	35.98	-40.1	-42.5	15.7	0.00e+00	0	57	0	909115392	51	4852
2026-01-01 10:36:36.56	321.56	35.77	-40.1	-42.5	15.6	0.00e+00	0	57	0	911212544	51	4838
2026-01-01 10:36:37.58	321.75	35.56	-40.2	-42.7	15.5	0.00e+00	0	57	0	913309696	51	4954
2026-01-01 10:36:38.59	321.94	35.36	-40.3	-42.8	15.4	0.00e+00	0	57	0	915406848	51	5027
2026-01-01 10:36:39.60	322.12	35.15	-40.3	-42.9	15.2	0.00e+00	0	57	0	916455424	51	5090
2026-01-01 10:36:40.60	322.30	34.95	-40.3	-42.8	15.4	7.00e-07	0	57	0	918552576	51	5002
2026-01-01 10:36:41.62	322.48	34.74	-40.3	-42.8	15.3	0.00e+00	0	57	0	920649728	51	5039
2026-01-01 10:36:42.63	322.66	34.54	-40.1	-42.5	15.7	0.00e+00	0	57	0	922746880	51	4819
2026-01-01 10:36:43.64	322.83	34.34	-40.4	-42.9	15.3	0.00e+00	0	57	0	924844032	51	5051
2026-01-01 10:36:44.65	323.01	34.14	-40.5	-43.1	15.1	0.00e+00	0	58	0	925892608	51	5184
2026-01-01 10:36:45.66	323.18	33.94	-40.2	-42.7	15.4	0.00e+00	0	57	0	927989760	51	4970
2026-01-01 10:36:46.67	323.35	33.75	-40.4	-43.0	15.1	0.00e+00	0	57	0	930086912	51	5130
2026-01-01 10:36:47.68	323.51	33.55	-40.3	-42.8	15.3	0.00e+00	0	57	0	932184064	51	5033
2026-01-01 10:36:48.69	323.68	33.35	-40.4	-43.1	15.1	0.00e+00	0	57	0	934281216	51	5160
2026-01-01 10:36:49.70	323.84	33.16	-40.4	-43.1	15.1	0.00e+00	0	57	0	935329792	51	5175
2026-01-01 10:36:50.71	324.00	32.96	-40.6	-43.3	14.9	0.00e+00	0	58	0	937426944	51	5283
2026-01-01 10:36:51.72	324.16	32.77	-40.6	-43.4	14.6	0.00e+00	0	58	0	939524096	52	5093
2026-01-01 10:36:52.73	324.32	32.58	-40.6	-43.3	14.7	0.00e+00	0	57	0	941621248	52	5033
2026-01-01 10:36:53.74	324.48	32.39	-40.9	-43.9	14.2	7.00e-07	0	57	0	943718400	52	5354
2026-01-01 10:36:54.75	324.63	32.20	-40.5	-43.2	15.0	1.50e-06	0	57	0	945815552	52	4939
2026-01-01 10:36:55.76	324.78	32.01	-40.6	-43.4	14.7	0.00e+00	0	57	0	946864128	52	5055
2026-01-01 10:36:56.77	324.93	31.82	-40.2	-42.7	15.3	0.00e+00	0	57	0	948961280	52	4696
2026-01-01 10:36:57.78	325.08	31.64	-39.6	-41.8	16.3	0.00e+00	0	57	0	951058432	51	4454
2026-01-01 10:36:58.78	325.23	31.45	-39.4	-41.5	16.6	0.00e+00	0	57	0	953155584	50	4570
2026-01-01 10:36:59.79	325.37	31.27	-38.8	-40.7	17.4	0.00e+00	0	57	0	955252736	49	4414
2026-01-01 10:37:00.80	325.52	31.08	-39.0	-41.0	17.1	0.00e+00	0	58	0	956301312	49	4557
2026-01-01 10:37:01.81	325.66	30.90	-39.3	-41.5	16.6	0.00e+00	0	57	0	958398464	49	4830
2026-01-01 10:37:02.82	325.80	30.72	-39.6	-41.9	16.3	0.00e+00	0	57	0	960495616	49	5052
2026-01-01 10:37:03.83	325.94	30.54	-40.3	-42.8	15.3	0.00e+00	0	57	0	962592768	51	5030
2026-01-01 10:37:04.84	326.08	30.36	-41.0	-44.0	14.1	0.00e+00	0	57	0	964689920	52	5419
2026-01-01 10:37:05.85	326.22	30.18	-41.9	-45.7	12.4	2.67e-05	0	57	0	965738496	54	5896
2026-01-01 10:37:06.86	326.35	30.00	-42.0	-45.8	12.1	3.68e-04	0	57	0	967835648	54	5992
2026-01-01 10:37:07.87	326.49	29.83	-42.3	-46.6	11.4	4.90e-04	0	58	0	969932800	55	6143
2026-01-01 10:37:08.88	326.62	29.65	-41.9	-45.7	12.1	4.74e-04	0	57	0	972029952	55	5586
2026-01-01 10:37:09.89	326.75	29.47	-41.0	-44.0	14.0	8.30e-06	0	57	0	974127104	54	4856
2026-01-01 10:37:10.90	326.88	29.30	-40.8	-43.8	14.3	3.00e-06	0	57	0	975175680	53	4994
2026-01-01 10:37:11.91	327.01	29.13	-40.2	-42.8	15.2	0.00e+00	0	57	0	977272832	52	4742
2026-01-01 10:37:12.91	327.13	28.96	-39.8	-42.2	15.9	0.00e+00	0	57	0	979369984	51	4672
2026-01-01 10:37:13.93	327.26	28.78	-39.4	-41.5	16.5	0.00e+00	0	57	0	981467136	50	4597
2026-01-01 10:37:14.93	327.38	28.61	-39.1	-41.2	16.9	0.00e+00	0	57	0	983564288	50	4421
2026-01-01 10:37:15.94	327.50	28.44	-39.2	-41.4	16.8	0.00e+00	0	57	0	984612864	50	4499
2026-01-01 10:37:16.95	327.63	28.28	-39.0	-41.1	17.0	0.00e+00	0	57	0	986710016	49	4629
2026-01-01 10:37:17.96	327.75	28.11	-39.1	-41.2	16.8	0.00e+00	0	57	0	988807168	49	4698
2026-01-01 10:37:18.97	327.87	27.94	-39.4	-41.6	16.5	0.00e+00	0	57	0	990904320	49	4872
2026-01-01 10:37:19.98	327.98	27.77	-39.9	-42.3	15.8	0.00e+00	0	57	0	993001472	50	4991
2026-01-01 10:37:20.99	328.10	27.61	-40.2	-42.7	15.4	0.00e+00	0	57	0	994050048	51	4932
2026-01-01 10:37:22.00	328.22	27.44	-40.4	-43.0	15.1	7.00e-07	0	57	0	996147200	51	5115
2026-01-01 10:37:23.01	328.33	27.28	-40.7	-43.6	14.5	0.00e+00	0	57	0	998244352	52	5174
2026-01-01 10:37:24.02	328.44	27.12	-40.5	-43.3	14.8	0.00e+00	0	57	0	1000341504	52	4986
2026-01-01 10:37:25.03	328.56	26.96	-40.5	-43.2	14.8	0.00e+00	0	57	0	1002438656	52	4970
2026-01-01 10:37:26.04	328.67	26.80	-40.3	-43.0	15.0	7.00e-07	0	57	0	1003487232	52	4838
2026-01-01 10:37:27.05	328.78	26.64	-40.2	-42.7	15.4	0.00e+00	0	57	0	1005584384	51	4943
2026-01-01 10:37:28.06	328.89	26.48	-40.1	-42.5	15.5	0.00e+00	0	57	0	1007681536	51	4870
2026-01-01 10:37:29.07	329.00	26.32	-39.6	-41.9	16.1	0.00e+00	0	57	0	1009778688	51	4514
2026-01-01 10:37:30.08	329.10	26.16	-39.5	-41.7	16.4	0.00e+00	0	58	0	1011875840	50	4654
2026-01-01 10:37:31.09	329.21	26.00	-39.8	-42.2	15.9	0.00e+00	0	58	0	1013972992	50	4959
2026-01-01 10:37:32.11	329.31	25.85	-40.0	-42.4	15.7	0.00e+00	0	57	0	1015021568	50	5045
2026-01-01 10:37:33.11	329.42	25.69	-40.3	-42.8	15.2	0.00e+00	0	57	0	1017118720	51	5030
2026-01-01 10:37:34.12	329.52	25.54	-40.5	-43.2	14.8	0.00e+00	0	57	0	1019215872	51	5266
2026-01-01 10:37:35.13	329.62	25.39	-40.6	-43.4	14.6	7.00e-07	0	57	0	1021313024	51	5358
2026-01-01 10:37:36.14	329.72	25.23	-40.7	-43.6	14.4	7.00e-07	0	57	0	1023410176	52	5170
2026-01-01 10:37:37.15	329.82	25.08	-40.7	-43.5	14.5	0.00e+00	0	57	0	1024458752	52	5126
2026-01-01 10:37:38.16	329.92	24.93	-40.4	-43.0	14.9	7.00e-07	0	57	0	1026555904	52	4849
2026-01-01 10:37:39.17	330.02	24.78	-40.2	-42.8	15.2	0.00e+00	0	57	0	1028653056	52	4736
2026-01-01 10:37:40.18	330.12	24.63	-40.1	-42.5	15.4	0.00e+00	0	57	0	1030750208	52	4590
2026-01-01 10:37:41.19	330.22	24.48	-39.8	-42.1	15.9	0.00e+00	0	57	0	1032847360	51	4629
2026-01-01 10:37:42.20	330.31	24.33	-40.0	-42.5	15.6	0.00e+00	0	57	0	1033895936	51	4828
2026-01-01 10:37:43.21	330.41	24.19	-40.2	-42.8	15.3	0.00e+00	0	57	0	1035993088	51	5001
2026-01-01 10:37:44.22	330.50	24.04	-40.1	-42.6	15.5	0.00e+00	0	57	0	1038090240	51	4871
2026-01-01 10:37:45.23	330.59	23.89	-40.1	-42.7	15.4	0.00e+00	0	57	0	1040187392	51	4951
2026-01-01 10:37:46.24	330.69	23.75	-39.8	-42.3	15.8	0.00e+00	0	58	0	1042284544	51	4718
2026-01-01 10:37:47.25	330.78	23.60	-39.8	-42.2	15.9	0.00e+00	0	57	0	1043333120	51	4684
2026-01-01 10:37:48.26	330.87	23.46	-39.8	-42.2	15.7	0.00e+00	0	57	0	1045430272	51	4665
2026-01-01 10:37:49.27	330.96	23.32	-39.3	-41.5	16.5	0.00e+00	0	57	0	1047527424	50	4561
2026-01-01 10:37:50.28	331.05	23.18	-39.2	-41.4	16.6	0.00e+00	0	57	0	1049624576	50	4528
2026-01-01 10:37:51.29	331.14	23.04	-38.9	-41.0	17.0	0.00e+00	0	57	0	1051721728	49	4558
2026-01-01 10:37:52.30	331.22	22.89	-38.6	-40.6	17.3	0.00e+00	0	57	0	1052770304	49	4344
2026-01-01 10:37:53.30	331.31	22.76	-38.5	-40.4	17.5	0.00e+00	0	57	0	1054867456	48	4533
2026-01-01 10:37:54.31	331.40	22.62	-38.1	-40.0	18.0	0.00e+00	0	57	0	1056964608	48	4293
2026-01-01 10:37:55.32	331.48	22.48	-38.1	-39.9	18.0	0.00e+00	0	57	0	1059061760	47	4510
2026-01-01 10:37:56.33	331.57	22.34	-38.2	-40.0	17.8	0.00e+00	0	57	0	1061158912	47	4595
2026-01-01 10:37:57.34	331.65	22.20	-38.2	-40.0	17.8	0.00e+00	0	58	0	1062207488	47	4573
2026-01-01 10:37:58.35	331.74	22.07	-38.4	-40.4	17.5	0.00e+00	0	57	0	1064304640	47	4772
2026-01-01 10:37:59.36	331.82	21.93	-38.6	-40.6	17.2	0.00e+00	0	57	0	1066401792	47	4898
2026-01-01 10:38:00.37	331.90	21.80	-38.9	-40.9	17.1	0.00e+00	0	58	0	1068498944	48	4777
2026-01-01 10:38:01.39	331.98	21.66	-39.3	-41.5	16.5	0.00e+00	0	57	0	1070596096	49	4817
2026-01-01 10:38:02.39	332.06	21.53	-39.5	-41.7	16.2	0.00e+00	0	57	0	1071644672	49	4970
2026-01-01 10:38:03.41	332.14	21.39	-39.6	-41.9	16.1	0.00e+00	0	57	0	1073741824	49	5060
2026-01-01 10:38:04.41	332.22	21.26	-39.5	-41.8	16.1	0.00e+00	0	57	0	1075838976	49	5038
2026-01-01 10:38:05.43	332.30	21.13	-39.6	-42.0	15.9	0.00e+00	0	57	0	1077936128	50	4842
2026-01-01 10:38:06.43	332.38	21.00	-39.7	-42.0	16.0	0.00e+00	0	57	0	1080033280	50	4855
2026-01-01 10:38:07.44	332.46	20.87	-39.5	-41.8	16.1	0.00e+00	0	57	0	1082130432	50	4746
2026-01-01 10:38:08.45	332.53	20.74	-39.4	-41.6	16.3	0.00e+00	0	57	0	1083179008	50	4638
2026-01-01 10:38:09.46	332.61	20.61	-39.1	-41.3	16.6	0.00e+00	0	57	0	1085276160	50	4459
2026-01-01 10:38:10.48	332.69	20.48	-39.0	-41.1	16.8	0.00e+00	0	58	0	1087373312	49	4645
2026-01-01 10:38:11.49	332.76	20.35	-38.9	-41.0	16.9	0.00e+00	0	57	0	1089470464	49	4563
2026-01-01 10:38:12.49	332.83	20.22	-38.7	-40.8	17.1	0.00e+00	0	58	0	1091567616	49	4454
2026-01-01 10:38:13.50	332.91	20.10	-38.6	-40.6	17.3	0.00e+00	0	57	0	1092616192	49	4342
2026-01-01 10:38:14.52	332.98	19.97	-38.4	-40.3	17.6	0.00e+00	0	57	0	1094713344	48	4455
2026-01-01 10:38:15.53	333.05	19.84	-38.2	-40.1	17.7	0.00e+00	0	57	0	1096810496	48	4370
2026-01-01 10:38:16.53	333.13	19.72	-38.2	-40.1	17.8	0.00e+00	0	57	0	1098907648	48	4345
2026-01-01 10:38:17.54	333.20	19.60	-38.0	-39.9	18.0	0.00e+00	0	57	0	1101004800	48	4245
2026-01-01 10:38:18.55	333.27	19.47	-38.1	-40.0	17.7	0.00e+00	0	57	0	1102053376	47	4588
2026-01-01 10:38:19.56	333.34	19.35	-37.9	-39.7	18.0	0.00e+00	0	57	0	1104150528	47	4436
2026-01-01 10:38:20.57	333.41	19.23	-38.0	-39.9	17.8	0.00e+00	0	57	0	1106247680	47	4519
2026-01-01 10:38:21.58	333.48	19.10	-38.1	-40.0	17.7	0.00e+00	0	57	0	1108344832	47	4597
2026-01-01 10:38:22.59	333.55	18.98	-38.2	-40.1	17.6	0.00e+00	0	57	0	1110441984	47	4643
2026-01-01 10:38:23.60	333.62	18.86	-38.4	-40.4	17.3	0.00e+00	0	57	0	1111490560	47	4774
2026-01-01 10:38:24.61	333.68	18.74	-38.5	-40.5	17.2	0.00e+00	0	57	0	1113587712	47	4862
2026-01-01 10:38:25.62	333.75	18.62	-38.7	-40.7	17.1	0.00e+00	0	57	0	1115684864	48	4686
2026-01-01 10:38:26.63	333.82	18.50	-39.0	-41.2	16.7	0.00e+00	0	58	0	1117782016	48	4930
2026-01-01 10:38:27.64	333.89	18.38	-39.1	-41.2	16.6	0.00e+00	0	57	0	1119879168	48	4963
2026-01-01 10:38:28.65	333.95	18.26	-39.3	-41.6	16.2	0.00e+00	0	57	0	1120927744	49	4872
2026-01-01 10:38:29.66	334.02	18.15	-39.5	-41.9	15.9	0.00e+00	0	57	0	1123024896	49	5066
2026-01-01 10:38:30.67	334.08	18.03	-39.6	-42.0	15.8	0.00e+00	0	57	0	1125122048	49	5154
2026-01-01 10:38:31.68	334.15	17.91	-39.7	-42.1	15.7	0.00e+00	0	57	0	1127219200	50	4900
2026-01-01 10:38:32.69	334.21	17.80	-39.9	-42.4	15.4	0.00e+00	0	57	0	1129316352	50	5058
2026-01-01 10:38:33.70	334.27	17.68	-40.0	-42.6	15.2	0.00e+00	0	58	0	1130364928	50	5174
2026-01-01 10:38:34.71	334.34	17.57	-40.0	-42.7	15.1	0.00e+00	0	58	0	1132462080	50	5227
2026-01-01 10:38:35.72	334.40	17.45	-40.0	-42.6	15.2	0.00e+00	0	57	0	1134559232	50	5181
2026-01-01 10:38:36.73	334.46	17.34	-40.0	-42.7	15.1	0.00e+00	0	57	0	1136656384	50	5224
2026-01-01 10:38:37.74	334.53	17.22	-40.0	-42.7	15.1	0.00e+00	0	57	0	1138753536	50	5219
2026-01-01 10:38:38.76	334.59	17.11	-39.9	-42.4	15.3	0.00e+00	0	57	0	1139802112	50	5089
2026-01-01 10:38:39.77	334.65	17.00	-39.8	-42.3	15.4	0.00e+00	0	57	0	1141899264	50	5034
2026-01-01 10:38:40.77	334.71	16.89	-39.8	-42.2	15.5	0.00e+00	0	57	0	1143996416	50	4976
2026-01-01 10:38:41.78	334.77	16.77	-39.8	-42.3	15.4	0.00e+00	0	58	0	1146093568	50	5019
2026-01-01 10:38:42.79	334.83	16.66	-39.8	-42.3	15.4	0.00e+00	0	57	0	1148190720	50	5001
2026-01-01 10:38:43.80	334.89	16.55	-39.8	-42.3	15.5	0.00e+00	0	58	0	1150287872	50	5004
2026-01-01 10:38:44.81	334.95	16.44	-39.8	-42.3	15.5	0.00e+00	0	58	0	1151336448	50	4997
2026-01-01 10:38:45.82	335.01	16.33	-39.7	-42.1	15.6	0.00e+00	0	57	0	1153433600	50	4901
2026-01-01 10:38:46.83	335.06	16.22	-39.5	-41.9	15.9	0.00e+00	0	57	0	1155530752	50	4767
2026-01-01 10:38:47.84	335.12	16.11	-39.4	-41.7	16.0	0.00e+00	0	58	0	1157627904	50	4695
2026-01-01 10:38:48.85	335.18	16.01	-39.3	-41.6	16.1	0.00e+00	0	58	0	1159725056	50	4622
2026-01-01 10:38:49.86	335.24	15.90	-39.3	-41.6	16.1	0.00e+00	0	57	0	1160773632	50	4624
2026-01-01 10:38:50.87	335.29	15.79	-39.3	-41.6	16.1	0.00e+00	0	57	0	1162870784	50	4601
2026-01-01 10:38:51.88	335.35	15.68	-39.2	-41.5	16.2	0.00e+00	0	57	0	1164967936	50	4548
2026-01-01 10:38:52.89	335.40	15.58	-39.1	-41.3	16.4	0.00e+00	0	58	0	1167065088	50	4477
2026-01-01 10:38:53.90	335.46	15.47	-39.1	-41.3	16.4	0.00e+00	0	58	0	1169162240	50	4455
2026-01-01 10:38:54.91	335.52	15.36	-39.1	-41.4	16.3	0.00e+00	0	57	0	1170210816	50	4498
2026-01-01 10:38:55.92	335.57	15.26	-39.1	-41.4	16.3	0.00e+00	0	57	0	1172307968	50	4505
2026-01-01 10:38:56.93	335.62	15.15	-38.9	-41.1	16.5	0.00e+00	0	57	0	1174405120	49	4634
2026-01-01 10:38:57.94	335.68	15.05	-39.0	-41.2	16.4	0.00e+00	0	57	0	1176502272	49	4671
