passes_logs/2026/01/01/R2.0S_Moscow/R2.0S_Moscow__20260101_145641_FENGYUN_3E_rec.log

#Pass ID: 20260101_145641_FENGYUN 3E
#Satellite: FENGYUN 3E
#Configuration: FENGYUN 3E
#almurnet v.1.7.20251203
#Start time: 2026-01-01 14:56:42

#Version: 2.2.20231116
#Station: R2.0S_Moscow
#Location: 37.707566 lon 55.798166 lat
#TLE: 1 49008U 21062A   25365.98258168  .00000149  00000+0  90987-4 0  9990
#TLE: 2 49008  98.7481   6.2763 0001360 169.3782 190.7423 14.19883270232859

#Time	Az	El	Level	Level2	SNR	BER	BlckErr	Temp	State	Recorded	gain1	gain2
2026-01-01 14:56:42.71	182.65	2.09	-44.4	-55.3	3.8	8.46e-01	0	48	0	0	59	12649
2026-01-01 14:56:43.72	182.69	2.15	-44.4	-55.3	3.8	8.47e-01	0	48	104	0	59	12648
2026-01-01 14:56:44.73	182.72	2.22	-44.4	-55.4	3.8	8.46e-01	0	48	104	0	59	12700
2026-01-01 14:56:45.74	182.76	2.28	-44.4	-55.3	3.8	8.45e-01	0	49	104	0	59	12627
2026-01-01 14:56:46.75	182.80	2.34	-44.4	-55.3	3.8	8.45e-01	0	49	104	0	59	12633
2026-01-01 14:56:47.76	182.83	2.41	-44.4	-55.3	3.8	8.45e-01	0	48	104	0	59	12653
2026-01-01 14:56:48.77	182.87	2.47	-44.4	-55.3	3.8	8.46e-01	0	49	104	0	59	12632
2026-01-01 14:56:49.79	182.91	2.54	-44.4	-55.3	3.8	8.46e-01	0	49	104	0	59	12618
2026-01-01 14:56:50.80	182.95	2.60	-44.4	-55.4	3.8	8.46e-01	0	49	104	0	59	12681
2026-01-01 14:56:51.81	182.99	2.66	-44.4	-55.3	3.8	8.46e-01	0	49	104	0	59	12633
2026-01-01 14:56:52.82	183.02	2.73	-44.4	-55.3	3.8	8.46e-01	0	49	104	0	59	12645
2026-01-01 14:56:53.83	183.06	2.79	-44.4	-55.4	3.8	8.47e-01	0	49	104	0	59	12674
2026-01-01 14:56:54.84	183.10	2.86	-44.4	-55.4	3.8	8.45e-01	0	49	104	0	59	12668
2026-01-01 14:56:55.85	183.14	2.92	-44.4	-55.4	3.8	8.46e-01	0	49	104	0	59	12689
2026-01-01 14:56:56.86	183.18	2.99	-44.4	-55.4	3.8	8.46e-01	0	49	104	0	59	12684
2026-01-01 14:56:57.87	183.22	3.05	-44.4	-55.4	3.8	8.47e-01	0	49	104	0	59	12689
2026-01-01 14:56:58.88	183.26	3.12	-44.4	-55.3	3.8	8.46e-01	0	49	104	0	59	12630
2026-01-01 14:56:59.89	183.29	3.18	-44.4	-55.3	3.8	8.44e-01	0	50	104	0	59	12648
2026-01-01 14:57:00.90	183.33	3.25	-44.4	-55.3	3.8	8.45e-01	0	49	104	0	59	12657
2026-01-01 14:57:01.92	183.37	3.31	-44.4	-55.3	3.8	8.46e-01	0	50	104	0	59	12610
2026-01-01 14:57:02.92	183.41	3.38	-44.4	-55.3	3.8	8.46e-01	0	50	104	0	59	12626
2026-01-01 14:57:03.94	183.45	3.44	-44.4	-55.4	3.8	8.46e-01	0	50	104	0	59	12668
2026-01-01 14:57:04.95	183.49	3.51	-44.4	-55.3	3.8	8.46e-01	0	50	104	0	59	12653
2026-01-01 14:57:05.96	183.53	3.58	-44.4	-55.3	3.8	8.46e-01	0	50	104	0	59	12642
2026-01-01 14:57:06.97	183.57	3.64	-44.4	-55.4	3.8	8.47e-01	0	50	104	0	59	12695
2026-01-01 14:57:07.98	183.61	3.71	-44.4	-55.3	3.8	8.46e-01	0	50	104	0	59	12612
2026-01-01 14:57:08.99	183.65	3.78	-44.4	-55.3	3.8	8.46e-01	0	50	104	0	59	12574
2026-01-01 14:57:10.00	183.69	3.84	-44.4	-55.3	3.8	8.46e-01	0	50	104	0	59	12662
2026-01-01 14:57:11.01	183.74	3.91	-44.4	-55.3	3.8	8.47e-01	0	50	104	0	59	12636
2026-01-01 14:57:12.02	183.78	3.98	-44.4	-55.3	3.8	8.47e-01	0	50	104	0	59	12656
2026-01-01 14:57:13.03	183.82	4.04	-44.4	-55.3	3.8	8.47e-01	0	50	104	0	59	12623
2026-01-01 14:57:14.04	183.86	4.11	-44.4	-55.3	3.8	8.45e-01	0	50	104	0	59	12592
2026-01-01 14:57:15.05	183.90	4.18	-44.4	-55.3	3.8	8.47e-01	0	50	104	0	59	12521
2026-01-01 14:57:16.06	183.94	4.25	-44.4	-55.3	3.8	8.46e-01	0	50	104	0	59	12523
2026-01-01 14:57:17.08	183.99	4.31	-44.4	-55.3	3.8	8.46e-01	0	50	104	0	59	12527
2026-01-01 14:57:18.09	184.03	4.38	-44.4	-55.3	3.8	8.46e-01	0	51	104	0	59	12542
2026-01-01 14:57:19.10	184.07	4.45	-44.4	-55.2	3.8	8.47e-01	0	51	104	0	59	12438
2026-01-01 14:57:20.11	184.11	4.52	-44.4	-55.2	3.8	8.46e-01	0	51	104	0	59	12473
2026-01-01 14:57:21.12	184.16	4.59	-44.4	-55.1	3.8	8.46e-01	0	51	104	0	59	12364
2026-01-01 14:57:22.13	184.20	4.66	-44.4	-55.1	3.8	8.46e-01	0	51	104	0	59	12297
2026-01-01 14:57:23.14	184.24	4.72	-44.4	-55.1	3.8	8.46e-01	0	51	104	0	59	12352
2026-01-01 14:57:24.15	184.29	4.79	-44.4	-55.1	3.8	8.45e-01	0	51	104	0	59	12258
2026-01-01 14:57:25.16	184.33	4.86	-44.4	-55.1	3.8	8.46e-01	0	51	104	0	59	12322
2026-01-01 14:57:26.18	184.37	4.93	-44.4	-55.1	3.8	8.44e-01	0	51	104	0	59	12340
2026-01-01 14:57:27.19	184.42	5.00	-44.4	-55.2	3.8	8.46e-01	0	51	104	0	59	12477
2026-01-01 14:57:28.20	184.46	5.07	-44.4	-55.3	3.8	8.48e-01	0	51	104	0	59	12584
2026-01-01 14:57:29.21	184.51	5.14	-44.4	-55.3	3.8	8.47e-01	0	51	104	0	59	12597
2026-01-01 14:57:30.22	184.55	5.21	-44.4	-55.3	3.8	8.46e-01	0	51	104	0	59	12594
2026-01-01 14:57:31.23	184.59	5.28	-44.4	-55.3	3.8	8.45e-01	0	51	104	0	59	12612
2026-01-01 14:57:32.24	184.64	5.35	-44.4	-55.3	3.8	8.48e-01	0	52	104	0	59	12633
2026-01-01 14:57:33.25	184.68	5.42	-44.4	-55.3	3.8	8.46e-01	0	52	104	0	59	12570
2026-01-01 14:57:34.26	184.73	5.49	-44.4	-55.3	3.8	8.45e-01	0	52	104	0	59	12593
2026-01-01 14:57:35.27	184.78	5.56	-44.4	-55.2	3.8	8.47e-01	0	52	104	0	59	12468
2026-01-01 14:57:36.28	184.82	5.63	-44.4	-55.1	3.8	8.44e-01	0	52	104	0	59	12340
2026-01-01 14:57:37.29	184.87	5.71	-44.4	-54.9	3.8	8.46e-01	0	52	104	0	59	12054
2026-01-01 14:57:38.31	184.91	5.78	-44.3	-54.7	3.8	8.47e-01	0	52	104	0	59	11790
2026-01-01 14:57:39.32	184.96	5.85	-44.3	-54.6	3.8	8.47e-01	0	52	104	0	59	11554
2026-01-01 14:57:40.33	185.01	5.92	-44.3	-54.3	3.8	8.46e-01	0	52	104	0	59	11199
2026-01-01 14:57:41.34	185.05	5.99	-44.3	-54.2	3.8	8.46e-01	0	52	104	0	59	11073
2026-01-01 14:57:42.35	185.10	6.06	-44.2	-54.1	3.8	8.45e-01	0	52	104	0	59	10947
2026-01-01 14:57:43.36	185.15	6.14	-44.2	-54.0	3.8	8.46e-01	0	52	104	0	59	10903
2026-01-01 14:57:44.37	185.20	6.21	-44.2	-54.2	3.8	8.46e-01	0	52	104	0	59	11092
2026-01-01 14:57:45.38	185.24	6.28	-44.2	-54.2	3.8	8.46e-01	0	52	104	0	59	11133
2026-01-01 14:57:46.39	185.29	6.36	-44.3	-54.5	3.8	8.46e-01	0	52	104	0	59	11441
2026-01-01 14:57:47.40	185.34	6.43	-44.3	-54.6	3.8	8.45e-01	0	52	104	0	59	11674
2026-01-01 14:57:48.42	185.39	6.50	-44.3	-54.6	3.8	8.47e-01	0	52	104	0	59	11619
2026-01-01 14:57:49.43	185.44	6.58	-44.2	-54.1	3.8	8.45e-01	0	52	104	0	59	10940
2026-01-01 14:57:50.44	185.49	6.65	-44.1	-52.8	4.0	8.44e-01	0	53	104	0	59	9456
2026-01-01 14:57:51.45	185.53	6.72	-43.7	-51.1	4.4	8.37e-01	0	52	0	0	58	8270
2026-01-01 14:57:52.46	185.58	6.80	-43.2	-49.2	5.3	7.67e-01	0	53	0	0	57	7036
2026-01-01 14:57:53.47	185.63	6.87	-42.6	-47.4	6.7	3.03e-01	0	53	0	4194304	56	6052
2026-01-01 14:57:54.48	185.68	6.95	-41.7	-45.7	8.2	8.20e-02	0	53	0	11534336	54	5562
2026-01-01 14:57:55.49	185.73	7.02	-40.9	-44.2	9.7	1.93e-02	0	53	0	18874368	52	5246
2026-01-01 14:57:56.50	185.78	7.09	-40.0	-42.9	11.1	2.40e-03	0	53	0	26214400	51	4764
2026-01-01 14:57:57.51	185.83	7.17	-39.1	-41.6	12.4	3.59e-04	0	53	0	33554432	49	4607
2026-01-01 14:57:58.52	185.88	7.25	-38.3	-40.5	13.3	3.77e-05	0	53	0	40894464	47	4575
2026-01-01 14:57:59.53	185.94	7.32	-37.6	-39.7	14.1	6.80e-06	0	53	0	48234496	46	4418
2026-01-01 14:58:00.54	185.99	7.40	-36.9	-38.8	14.9	0.00e+00	0	53	0	55574528	44	4493
2026-01-01 14:58:01.56	186.04	7.47	-36.2	-38.1	15.5	0.00e+00	0	53	0	62914560	43	4365
2026-01-01 14:58:02.57	186.09	7.55	-35.8	-37.6	16.0	0.00e+00	0	53	0	70254592	42	4352
2026-01-01 14:58:03.58	186.14	7.62	-35.3	-37.1	16.4	0.00e+00	0	53	0	77594624	41	4347
2026-01-01 14:58:04.59	186.19	7.70	-34.8	-36.4	17.0	0.00e+00	0	53	0	84934656	40	4281
2026-01-01 14:58:05.60	186.25	7.78	-34.8	-36.6	16.9	0.00e+00	0	53	0	92274688	40	4346
2026-01-01 14:58:06.61	186.30	7.85	-34.8	-36.6	16.9	0.00e+00	0	53	0	99614720	40	4342
2026-01-01 14:58:07.62	186.35	7.93	-34.9	-36.6	16.9	0.00e+00	0	53	0	106954752	40	4376
2026-01-01 14:58:08.63	186.41	8.01	-35.1	-36.9	16.6	0.00e+00	0	53	0	114294784	40	4500
2026-01-01 14:58:09.64	186.46	8.09	-38.9	-41.4	12.9	2.20e-06	0	53	0	121634816	47	5050
2026-01-01 14:58:10.65	186.51	8.16	-35.1	-36.8	16.8	4.80e-05	0	53	0	127926272	40	4478
2026-01-01 14:58:11.66	186.57	8.24	-34.9	-36.6	17.0	0.00e+00	0	53	0	135266304	40	4376
2026-01-01 14:58:12.67	186.62	8.32	-36.6	-38.5	15.3	0.00e+00	0	53	0	142606336	43	4593
2026-01-01 14:58:13.68	186.68	8.40	-36.3	-38.3	15.4	0.00e+00	0	53	0	149946368	42	4735
2026-01-01 14:58:14.69	186.73	8.48	-35.4	-37.2	16.3	8.00e-06	0	54	0	157286400	42	4184
2026-01-01 14:58:15.70	186.79	8.56	-34.6	-36.4	17.1	0.00e+00	0	53	0	164626432	40	4243
2026-01-01 14:58:16.72	186.84	8.64	-34.6	-36.4	17.1	0.00e+00	0	53	0	171966464	40	4257
2026-01-01 14:58:17.72	186.90	8.71	-34.5	-36.2	17.2	0.00e+00	0	53	0	179306496	40	4191
2026-01-01 14:58:18.73	186.95	8.79	-34.5	-36.3	17.2	0.00e+00	0	54	0	186646528	40	4196
2026-01-01 14:58:19.74	187.01	8.87	-34.6	-36.3	17.2	0.00e+00	0	54	0	192937984	40	4228
2026-01-01 14:58:20.75	187.07	8.95	-34.6	-36.3	17.3	0.00e+00	0	54	0	200278016	39	4446
2026-01-01 14:58:21.76	187.12	9.03	-34.5	-36.2	17.3	0.00e+00	0	54	0	208666624	39	4439
2026-01-01 14:58:22.77	187.18	9.12	-34.5	-36.2	17.4	0.00e+00	0	54	0	214958080	39	4409
2026-01-01 14:58:23.78	187.24	9.20	-34.5	-36.2	17.4	0.00e+00	0	54	0	222298112	39	4408
2026-01-01 14:58:24.79	187.30	9.28	-34.4	-36.1	17.4	0.00e+00	0	54	0	229638144	39	4370
2026-01-01 14:58:25.80	187.36	9.36	-34.4	-36.1	17.5	0.00e+00	0	54	0	236978176	39	4358
2026-01-01 14:58:26.81	187.41	9.44	-34.4	-36.0	17.5	0.00e+00	0	54	0	244318208	39	4337
2026-01-01 14:58:27.83	187.47	9.52	-34.3	-36.0	17.6	0.00e+00	0	54	0	251658240	39	4312
2026-01-01 14:58:28.84	187.53	9.60	-34.2	-35.9	17.6	0.00e+00	0	54	0	258998272	39	4270
2026-01-01 14:58:29.85	187.59	9.69	-34.2	-35.9	17.7	0.00e+00	0	54	0	266338304	39	4262
2026-01-01 14:58:30.86	187.65	9.77	-34.3	-36.1	17.5	0.00e+00	0	54	0	273678336	39	4345
2026-01-01 14:58:31.87	187.71	9.85	-34.2	-35.9	17.7	0.00e+00	0	54	0	281018368	39	4243
2026-01-01 14:58:32.88	187.77	9.93	-34.2	-35.9	17.7	0.00e+00	0	54	0	288358400	39	4256
2026-01-01 14:58:33.89	187.83	10.02	-34.1	-35.7	17.8	0.00e+00	0	54	0	295698432	39	4172
2026-01-01 14:58:34.90	187.89	10.10	-34.0	-35.7	17.8	0.00e+00	0	54	0	303038464	39	4184
2026-01-01 14:58:35.91	187.96	10.18	-34.1	-35.7	17.8	0.00e+00	0	54	0	310378496	39	4174
2026-01-01 14:58:36.92	188.02	10.27	-34.1	-35.8	17.9	0.00e+00	0	54	0	317718528	38	4445
2026-01-01 14:58:37.93	188.08	10.35	-34.0	-35.7	17.9	0.00e+00	0	54	0	325058560	38	4401
2026-01-01 14:58:38.94	188.14	10.44	-34.0	-35.7	17.9	0.00e+00	0	54	0	332398592	38	4416
2026-01-01 14:58:39.95	188.20	10.52	-34.0	-35.6	18.0	0.00e+00	0	54	0	338690048	38	4389
2026-01-01 14:58:40.96	188.27	10.61	-34.0	-35.7	17.9	0.00e+00	0	54	0	347078656	38	4414
2026-01-01 14:58:41.97	188.33	10.69	-34.0	-35.6	18.0	0.00e+00	0	54	0	354418688	38	4391
2026-01-01 14:58:42.98	188.39	10.78	-33.9	-35.6	17.9	0.00e+00	0	54	0	360710144	38	4379
2026-01-01 14:58:43.99	188.46	10.86	-33.9	-35.6	18.0	0.00e+00	0	54	0	368050176	38	4360
2026-01-01 14:58:45.01	188.52	10.95	-33.9	-35.5	18.1	0.00e+00	0	54	0	375390208	38	4335
2026-01-01 14:58:46.02	188.59	11.04	-33.9	-35.6	18.0	0.00e+00	0	54	0	382730240	38	4348
2026-01-01 14:58:47.03	188.65	11.12	-33.8	-35.4	18.2	0.00e+00	0	54	0	390070272	38	4271
2026-01-01 14:58:48.04	188.72	11.21	-33.8	-35.5	18.1	0.00e+00	0	55	0	397410304	38	4320
2026-01-01 14:58:49.05	188.79	11.30	-33.8	-35.5	18.1	0.00e+00	0	55	0	404750336	38	4314
2026-01-01 14:58:50.06	188.85	11.38	-33.7	-35.4	18.2	0.00e+00	0	55	0	412090368	38	4269
2026-01-01 14:58:51.07	188.92	11.47	-33.9	-35.6	18.1	0.00e+00	0	54	0	419430400	38	4355
2026-01-01 14:58:52.08	188.99	11.56	-33.7	-35.4	18.2	0.00e+00	0	55	0	426770432	38	4261
2026-01-01 14:58:53.09	189.05	11.65	-33.7	-35.4	18.2	0.00e+00	0	54	0	434110464	38	4256
2026-01-01 14:58:54.10	189.12	11.74	-33.7	-35.4	18.2	0.00e+00	0	54	0	441450496	38	4267
2026-01-01 14:58:55.11	189.19	11.83	-33.7	-35.4	18.3	0.00e+00	0	55	0	448790528	38	4246
2026-01-01 14:58:56.12	189.26	11.92	-33.7	-35.4	18.2	0.00e+00	0	54	0	456130560	38	4279
2026-01-01 14:58:57.13	189.33	12.00	-33.4	-35.0	18.5	0.00e+00	0	54	0	463470592	37	4339
2026-01-01 14:58:58.14	189.40	12.09	-33.6	-35.3	18.3	0.00e+00	0	54	0	470810624	37	4442
2026-01-01 14:58:59.15	189.47	12.18	-33.6	-35.3	18.3	0.00e+00	0	55	0	478150656	37	4481
2026-01-01 14:59:00.16	189.54	12.27	-33.6	-35.3	18.3	0.00e+00	0	55	0	485490688	37	4463
2026-01-01 14:59:01.17	189.61	12.37	-33.6	-35.3	18.3	0.00e+00	0	55	0	492830720	37	4454
2026-01-01 14:59:02.18	189.68	12.46	-33.7	-35.5	18.1	0.00e+00	0	55	0	500170752	37	4568
2026-01-01 14:59:03.19	189.75	12.55	-33.5	-35.2	18.4	0.00e+00	0	55	0	507510784	37	4415
2026-01-01 14:59:04.20	189.82	12.64	-33.6	-35.3	18.3	0.00e+00	0	55	0	513802240	37	4468
2026-01-01 14:59:05.21	189.89	12.73	-33.5	-35.2	18.4	0.00e+00	0	55	0	522190848	37	4414
2026-01-01 14:59:06.22	189.97	12.82	-33.4	-35.1	18.5	0.00e+00	0	55	0	529530880	37	4384
2026-01-01 14:59:07.23	190.04	12.92	-33.5	-35.2	18.4	0.00e+00	0	55	0	535822336	37	4398
2026-01-01 14:59:08.24	190.11	13.01	-33.5	-35.2	18.4	0.00e+00	0	55	0	543162368	37	4430
2026-01-01 14:59:09.25	190.19	13.10	-33.4	-35.1	18.4	0.00e+00	0	55	0	550502400	37	4391
2026-01-01 14:59:10.26	190.26	13.19	-33.4	-35.1	18.4	0.00e+00	0	55	0	557842432	37	4386
2026-01-01 14:59:11.27	190.34	13.29	-33.3	-35.0	18.5	0.00e+00	0	55	0	565182464	37	4331
2026-01-01 14:59:12.28	190.41	13.38	-33.3	-35.0	18.6	0.00e+00	0	55	0	572522496	37	4301
2026-01-01 14:59:13.29	190.49	13.48	-33.3	-35.0	18.6	0.00e+00	0	55	0	579862528	37	4324
2026-01-01 14:59:14.30	190.57	13.57	-33.3	-35.0	18.6	0.00e+00	0	55	0	587202560	37	4316
2026-01-01 14:59:15.31	190.64	13.67	-33.2	-34.9	18.7	0.00e+00	0	55	0	594542592	37	4280
2026-01-01 14:59:16.32	190.72	13.76	-33.2	-34.9	18.7	0.00e+00	0	55	0	601882624	37	4278
2026-01-01 14:59:17.33	190.80	13.86	-33.2	-34.8	18.7	0.00e+00	0	55	0	609222656	37	4230
2026-01-01 14:59:18.34	190.88	13.95	-33.0	-34.7	18.9	0.00e+00	0	55	0	616562688	36	4415
2026-01-01 14:59:19.35	190.95	14.05	-33.1	-34.8	18.8	0.00e+00	0	55	0	623902720	36	4442
2026-01-01 14:59:20.36	191.03	14.15	-33.1	-34.7	18.9	0.00e+00	0	55	0	631242752	36	4441
2026-01-01 14:59:21.37	191.11	14.24	-33.0	-34.7	18.9	0.00e+00	0	55	0	638582784	36	4399
2026-01-01 14:59:22.38	191.19	14.34	-33.0	-34.7	18.9	0.00e+00	0	55	0	645922816	36	4413
2026-01-01 14:59:23.39	191.27	14.44	-33.1	-34.8	18.8	0.00e+00	0	55	0	653262848	36	4475
2026-01-01 14:59:24.40	191.36	14.54	-32.9	-34.6	19.0	0.00e+00	0	55	0	659554304	36	4356
2026-01-01 14:59:25.41	191.44	14.64	-32.9	-34.6	19.0	0.00e+00	0	55	0	667942912	36	4377
2026-01-01 14:59:26.42	191.52	14.73	-32.9	-34.5	19.1	0.00e+00	0	56	0	675282944	36	4339
2026-01-01 14:59:27.43	191.60	14.83	-32.9	-34.6	19.1	0.00e+00	0	55	0	681574400	36	4349
2026-01-01 14:59:28.44	191.69	14.93	-32.8	-34.4	19.2	0.00e+00	0	55	0	688914432	36	4279
2026-01-01 14:59:29.45	191.77	15.03	-32.9	-34.5	19.2	0.00e+00	0	55	0	696254464	36	4305
2026-01-01 14:59:30.46	191.85	15.13	-32.9	-34.5	19.1	0.00e+00	0	55	0	703594496	36	4325
2026-01-01 14:59:31.47	191.94	15.23	-32.9	-34.6	19.1	0.00e+00	0	56	0	710934528	36	4350
2026-01-01 14:59:32.48	192.03	15.33	-32.9	-34.5	19.1	0.00e+00	0	55	0	718274560	36	4327
2026-01-01 14:59:33.49	192.11	15.43	-32.9	-34.6	19.0	0.00e+00	0	55	0	725614592	36	4377
2026-01-01 14:59:34.50	192.20	15.54	-32.8	-34.4	19.2	0.00e+00	0	55	0	732954624	36	4269
2026-01-01 14:59:35.51	192.29	15.64	-32.8	-34.5	19.2	0.00e+00	0	55	0	740294656	36	4295
2026-01-01 14:59:36.52	192.37	15.74	-32.7	-34.4	19.2	0.00e+00	0	55	0	747634688	36	4261
2026-01-01 14:59:37.53	192.46	15.84	-32.7	-34.3	19.3	0.00e+00	0	56	0	754974720	36	4242
2026-01-01 14:59:38.54	192.55	15.95	-32.6	-34.2	19.4	0.00e+00	0	55	0	762314752	36	4193
2026-01-01 14:59:39.55	192.64	16.05	-31.9	-33.6	19.2	0.00e+00	0	56	0	769654784	34	4363
2026-01-01 14:59:40.56	192.73	16.15	-31.9	-33.6	19.2	0.00e+00	0	56	0	776994816	34	4370
2026-01-01 14:59:41.58	192.82	16.26	-31.9	-33.5	19.3	0.00e+00	0	55	0	784334848	34	4323
2026-01-01 14:59:42.59	192.91	16.36	-31.9	-33.5	19.2	0.00e+00	0	56	0	791674880	34	4327
2026-01-01 14:59:43.60	193.01	16.47	-31.8	-33.5	19.3	0.00e+00	0	55	0	799014912	34	4295
2026-01-01 14:59:44.61	193.10	16.57	-31.8	-33.4	19.3	0.00e+00	0	56	0	806354944	34	4287
2026-01-01 14:59:45.62	193.19	16.68	-31.8	-33.4	19.4	0.00e+00	0	56	0	813694976	34	4260
2026-01-01 14:59:46.63	193.29	16.79	-31.7	-33.4	19.4	0.00e+00	0	56	0	821035008	34	4248
2026-01-01 14:59:47.64	193.38	16.89	-31.7	-33.4	19.4	0.00e+00	0	56	0	828375040	34	4254
2026-01-01 14:59:48.65	193.47	17.00	-31.7	-33.4	19.4	0.00e+00	0	56	0	834666496	34	4255
2026-01-01 14:59:49.66	193.57	17.11	-31.9	-33.5	19.3	0.00e+00	0	56	0	843055104	33	4573
2026-01-01 14:59:50.67	193.67	17.21	-31.7	-33.3	19.5	0.00e+00	0	56	0	850395136	33	4445
2026-01-01 14:59:51.68	193.76	17.32	-31.6	-33.2	19.6	0.00e+00	0	56	0	856686592	33	4401
2026-01-01 14:59:52.69	193.86	17.43	-31.6	-33.2	19.6	0.00e+00	0	56	0	864026624	33	4405
2026-01-01 14:59:53.70	193.96	17.54	-31.6	-33.1	19.6	0.00e+00	0	56	0	871366656	33	4385
2026-01-01 14:59:54.71	194.06	17.65	-31.6	-33.2	19.5	0.00e+00	0	56	0	878706688	33	4399
2026-01-01 14:59:55.72	194.16	17.76	-31.5	-33.0	19.7	0.00e+00	0	56	0	886046720	33	4320
2026-01-01 14:59:56.73	194.26	17.87	-31.4	-33.0	19.7	0.00e+00	0	56	0	893386752	33	4299
2026-01-01 14:59:57.74	194.36	17.98	-31.3	-32.8	19.8	0.00e+00	0	56	0	900726784	33	4240
2026-01-01 14:59:58.75	194.46	18.09	-31.4	-32.9	19.8	0.00e+00	0	56	0	908066816	33	4265
2026-01-01 14:59:59.76	194.57	18.20	-31.4	-33.0	19.7	0.00e+00	0	56	0	915406848	33	4302
2026-01-01 15:00:00.77	194.67	18.31	-31.3	-32.8	19.8	0.00e+00	0	56	0	922746880	33	4234
2026-01-01 15:00:01.78	194.77	18.43	-31.3	-32.9	19.8	0.00e+00	0	56	0	930086912	33	4261
2026-01-01 15:00:02.79	194.88	18.54	-31.3	-32.8	19.8	0.00e+00	0	56	0	937426944	33	4214
2026-01-01 15:00:03.80	194.98	18.65	-31.3	-32.9	19.8	0.00e+00	0	56	0	944766976	33	4245
2026-01-01 15:00:04.81	195.09	18.77	-31.2	-32.7	19.9	0.00e+00	0	56	0	952107008	33	4180
2026-01-01 15:00:05.82	195.20	18.88	-31.2	-32.7	19.8	0.00e+00	0	56	0	959447040	33	4184
2026-01-01 15:00:06.83	195.31	18.99	-31.2	-32.8	19.8	0.00e+00	0	56	0	966787072	33	4224
2026-01-01 15:00:07.84	195.42	19.11	-31.2	-32.8	19.8	0.00e+00	0	56	0	974127104	33	4237
2026-01-01 15:00:08.85	195.52	19.22	-31.2	-32.7	19.8	0.00e+00	0	56	0	981467136	33	4192
2026-01-01 15:00:09.86	195.64	19.34	-31.1	-32.7	19.8	0.00e+00	0	56	0	988807168	33	4185
2026-01-01 15:00:10.87	195.75	19.46	-31.2	-32.8	19.8	0.00e+00	0	56	0	996147200	32	4457
2026-01-01 15:00:11.88	195.86	19.57	-31.1	-32.8	19.8	0.00e+00	0	56	0	1003487232	32	4448
2026-01-01 15:00:12.89	195.97	19.69	-31.2	-32.8	19.7	0.00e+00	0	56	0	1009778688	32	4483
2026-01-01 15:00:13.90	196.09	19.81	-31.2	-32.9	19.7	0.00e+00	0	56	0	1017118720	32	4500
2026-01-01 15:00:14.91	196.20	19.92	-31.3	-32.9	19.6	0.00e+00	0	56	0	1025507328	32	4528
2026-01-01 15:00:15.92	196.32	20.04	-31.3	-33.0	19.6	0.00e+00	0	56	0	1031798784	32	4559
2026-01-01 15:00:16.93	196.43	20.16	-31.2	-32.9	19.6	0.00e+00	0	56	0	1039138816	32	4527
2026-01-01 15:00:17.94	196.55	20.28	-31.3	-33.0	19.6	0.00e+00	0	56	0	1046478848	32	4560
2026-01-01 15:00:18.95	196.67	20.40	-31.3	-33.0	19.6	0.00e+00	0	56	0	1053818880	32	4556
2026-01-01 15:00:19.96	196.79	20.52	-31.2	-32.9	19.6	0.00e+00	0	56	0	1061158912	32	4502
2026-01-01 15:00:20.97	196.91	20.64	-30.8	-32.3	20.1	0.00e+00	0	56	0	1068498944	32	4236
2026-01-01 15:00:21.98	197.03	20.76	-31.1	-32.8	19.7	0.00e+00	0	56	0	1075838976	32	4454
2026-01-01 15:00:22.99	197.15	20.88	-31.1	-32.7	19.8	0.00e+00	0	56	0	1083179008	32	4441
2026-01-01 15:00:24.00	197.27	21.01	-31.0	-32.7	19.8	0.00e+00	0	56	0	1090519040	32	4393
2026-01-01 15:00:25.01	197.39	21.13	-30.9	-32.6	19.8	0.00e+00	0	56	0	1097859072	32	4373
2026-01-01 15:00:26.03	197.52	21.25	-31.0	-32.8	19.7	0.00e+00	0	56	0	1105199104	32	4442
2026-01-01 15:00:27.04	197.64	21.38	-30.9	-32.6	19.9	0.00e+00	0	56	0	1112539136	32	4365
2026-01-01 15:00:28.05	197.77	21.50	-30.9	-32.5	19.9	0.00e+00	0	56	0	1119879168	32	4323
2026-01-01 15:00:29.06	197.90	21.62	-30.8	-32.5	19.9	0.00e+00	0	56	0	1127219200	32	4314
2026-01-01 15:00:30.07	198.03	21.75	-30.8	-32.5	20.0	0.00e+00	0	56	0	1134559232	32	4305
2026-01-01 15:00:31.08	198.16	21.87	-30.8	-32.5	20.0	0.00e+00	0	56	0	1141899264	32	4300
2026-01-01 15:00:32.09	198.29	22.00	-30.6	-32.2	20.1	0.00e+00	0	56	0	1149239296	31	4413
2026-01-01 15:00:33.10	198.42	22.13	-30.5	-32.1	20.2	0.00e+00	0	56	0	1155530752	31	4378
2026-01-01 15:00:34.11	198.55	22.25	-30.5	-32.1	20.2	0.00e+00	0	56	0	1163919360	31	4361
2026-01-01 15:00:35.12	198.68	22.38	-30.5	-32.1	20.2	0.00e+00	0	56	0	1171259392	31	4368
2026-01-01 15:00:36.13	198.82	22.51	-30.4	-32.0	20.3	0.00e+00	0	56	0	1177550848	31	4309
2026-01-01 15:00:37.14	198.96	22.64	-30.6	-32.1	20.2	0.00e+00	0	57	0	1184890880	31	4382
2026-01-01 15:00:38.15	199.09	22.76	-30.6	-32.2	20.1	0.00e+00	0	56	0	1192230912	31	4404
2026-01-01 15:00:39.16	199.23	22.89	-30.6	-32.2	20.1	0.00e+00	0	56	0	1199570944	31	4422
2026-01-01 15:00:40.17	199.37	23.02	-30.6	-32.2	20.2	0.00e+00	0	56	0	1206910976	31	4403
2026-01-01 15:00:41.18	199.51	23.15	-30.6	-32.2	20.2	0.00e+00	0	56	0	1214251008	31	4415
2026-01-01 15:00:42.19	199.65	23.28	-30.4	-32.0	20.3	0.00e+00	0	57	0	1221591040	31	4293
2026-01-01 15:00:43.20	199.79	23.41	-30.5	-32.1	20.3	0.00e+00	0	57	0	1228931072	31	4367
2026-01-01 15:00:44.22	199.94	23.55	-30.5	-32.1	20.3	0.00e+00	0	56	0	1236271104	31	4367
2026-01-01 15:00:45.23	200.08	23.68	-30.5	-32.1	20.3	0.00e+00	0	56	0	1243611136	31	4362
2026-01-01 15:00:46.24	200.23	23.81	-30.5	-32.1	20.3	0.00e+00	0	56	0	1250951168	31	4344
2026-01-01 15:00:47.25	200.38	23.94	-30.7	-32.3	20.1	0.00e+00	0	56	0	1258291200	31	4487
2026-01-01 15:00:48.26	200.52	24.08	-30.5	-32.0	20.3	0.00e+00	0	56	0	1265631232	31	4337
2026-01-01 15:00:49.27	200.67	24.21	-30.5	-32.1	20.3	0.00e+00	0	57	0	1272971264	31	4359
2026-01-01 15:00:50.28	200.82	24.35	-30.4	-32.0	20.4	0.00e+00	0	56	0	1280311296	31	4311
2026-01-01 15:00:51.29	200.98	24.48	-30.4	-32.0	20.4	0.00e+00	0	57	0	1287651328	31	4294
2026-01-01 15:00:52.30	201.13	24.62	-30.3	-31.9	20.5	0.00e+00	0	57	0	1294991360	31	4252
2026-01-01 15:00:53.31	201.29	24.75	-30.3	-31.8	20.5	0.00e+00	0	56	0	1302331392	30	4478
2026-01-01 15:00:54.32	201.44	24.89	-30.3	-31.8	20.5	0.00e+00	0	57	0	1309671424	30	4473
2026-01-01 15:00:55.33	201.60	25.03	-30.3	-31.8	20.5	0.00e+00	0	57	0	1317011456	30	4476
2026-01-01 15:00:56.33	201.76	25.16	-30.3	-31.8	20.4	0.00e+00	0	57	0	1324351488	30	4478
2026-01-01 15:00:57.34	201.92	25.30	-30.3	-31.8	20.4	0.00e+00	0	57	0	1330642944	30	4480
2026-01-01 15:00:58.35	202.08	25.44	-30.3	-31.9	20.3	0.00e+00	0	57	0	1339031552	30	4525
2026-01-01 15:00:59.36	202.24	25.58	-30.3	-31.9	20.4	0.00e+00	0	56	0	1346371584	30	4519
2026-01-01 15:01:00.37	202.40	25.72	-30.3	-31.9	20.3	0.00e+00	0	56	0	1352663040	30	4521
2026-01-01 15:01:01.38	202.57	25.86	-30.3	-31.8	20.4	0.00e+00	0	56	0	1360003072	30	4493
2026-01-01 15:01:02.39	202.74	26.00	-30.2	-31.8	20.4	0.00e+00	0	57	0	1367343104	30	4453
2026-01-01 15:01:03.40	202.91	26.14	-30.3	-31.8	20.4	0.00e+00	0	57	0	1374683136	30	4488
2026-01-01 15:01:04.41	203.08	26.28	-30.2	-31.7	20.5	0.00e+00	0	57	0	1382023168	30	4430
2026-01-01 15:01:05.42	203.25	26.42	-30.2	-31.7	20.5	0.00e+00	0	57	0	1389363200	30	4432
2026-01-01 15:01:06.43	203.42	26.56	-30.1	-31.6	20.6	0.00e+00	0	57	0	1396703232	30	4380
2026-01-01 15:01:07.44	203.59	26.71	-30.0	-31.5	20.7	0.00e+00	0	57	0	1404043264	30	4332
2026-01-01 15:01:08.45	203.77	26.85	-30.0	-31.5	20.8	0.00e+00	0	57	0	1411383296	30	4295
2026-01-01 15:01:09.47	203.95	27.00	-29.9	-31.4	20.8	0.00e+00	0	57	0	1418723328	30	4263
2026-01-01 15:01:10.48	204.13	27.14	-29.9	-31.3	20.9	0.00e+00	0	56	0	1426063360	30	4228
2026-01-01 15:01:11.49	204.31	27.28	-29.9	-31.3	20.9	0.00e+00	0	56	0	1433403392	30	4238
2026-01-01 15:01:12.50	204.49	27.43	-29.9	-31.4	20.9	0.00e+00	0	57	0	1440743424	30	4278
2026-01-01 15:01:13.51	204.68	27.57	-29.7	-31.1	21.2	0.00e+00	0	57	0	1448083456	30	4117
2026-01-01 15:01:14.52	204.86	27.72	-29.9	-31.4	20.9	0.00e+00	0	57	0	1455423488	30	4286
2026-01-01 15:01:15.53	205.05	27.87	-30.0	-31.4	21.0	0.00e+00	0	57	0	1462763520	30	4289
2026-01-01 15:01:16.54	205.24	28.01	-29.9	-31.4	21.0	0.00e+00	0	57	0	1470103552	30	4284
2026-01-01 15:01:17.55	205.43	28.16	-30.0	-31.5	20.9	0.00e+00	0	57	0	1477443584	30	4327
2026-01-01 15:01:18.56	205.62	28.31	-29.9	-31.4	21.1	0.00e+00	0	57	0	1484783616	30	4276
2026-01-01 15:01:19.57	205.81	28.46	-29.9	-31.3	21.1	0.00e+00	0	57	0	1492123648	30	4234
2026-01-01 15:01:20.58	206.01	28.61	-29.9	-31.4	21.0	0.00e+00	0	57	0	1498415104	30	4277
2026-01-01 15:01:21.59	206.21	28.76	-29.9	-31.4	21.0	0.00e+00	0	57	0	1505755136	30	4285
2026-01-01 15:01:22.60	206.41	28.91	-30.0	-31.5	20.9	0.00e+00	0	57	0	1514143744	30	4320
2026-01-01 15:01:23.61	206.61	29.06	-29.8	-31.3	21.2	0.00e+00	0	57	0	1520435200	30	4210
2026-01-01 15:01:24.62	206.81	29.21	-29.9	-31.3	21.1	0.00e+00	0	57	0	1527775232	30	4218
2026-01-01 15:01:25.63	207.02	29.36	-29.9	-31.4	21.0	0.00e+00	0	57	0	1535115264	30	4246
2026-01-01 15:01:26.64	207.22	29.51	-29.9	-31.4	21.0	0.00e+00	0	57	0	1542455296	30	4287
2026-01-01 15:01:27.65	207.43	29.66	-30.0	-31.5	20.9	0.00e+00	0	57	0	1549795328	30	4296
2026-01-01 15:01:28.66	207.64	29.81	-30.0	-31.6	20.8	0.00e+00	0	57	0	1557135360	30	4354
2026-01-01 15:01:29.67	207.86	29.96	-30.0	-31.6	20.7	0.00e+00	0	57	0	1564475392	30	4374
2026-01-01 15:01:30.68	208.07	30.12	-30.1	-31.7	20.7	0.00e+00	0	57	0	1571815424	30	4402
2026-01-01 15:01:31.70	208.29	30.27	-30.1	-31.8	20.6	0.00e+00	0	57	0	1579155456	30	4446
2026-01-01 15:01:32.71	208.51	30.43	-30.2	-31.9	20.5	0.00e+00	0	57	0	1586495488	30	4500
2026-01-01 15:01:33.72	208.73	30.58	-30.1	-31.7	20.6	0.00e+00	0	57	0	1593835520	30	4413
2026-01-01 15:01:34.73	208.95	30.73	-30.2	-31.8	20.4	0.00e+00	0	57	0	1601175552	30	4478
2026-01-01 15:01:35.74	209.18	30.89	-29.9	-31.5	20.6	0.00e+00	0	57	0	1608515584	30	4335
2026-01-01 15:01:36.75	209.40	31.04	-29.8	-31.4	20.7	0.00e+00	0	57	0	1615855616	30	4273
2026-01-01 15:01:37.76	209.63	31.20	-29.9	-31.5	20.7	0.00e+00	0	57	0	1623195648	30	4307
2026-01-01 15:01:38.77	209.87	31.36	-29.9	-31.5	20.7	0.00e+00	0	57	0	1630535680	30	4300
2026-01-01 15:01:39.78	210.10	31.51	-29.9	-31.5	20.6	0.00e+00	0	57	0	1637875712	30	4314
2026-01-01 15:01:40.79	210.33	31.67	-29.9	-31.4	20.7	0.00e+00	0	57	0	1645215744	30	4285
2026-01-01 15:01:41.80	210.57	31.83	-29.8	-31.4	20.8	0.00e+00	0	57	0	1652555776	30	4255
2026-01-01 15:01:42.81	210.81	31.98	-29.8	-31.3	20.9	0.00e+00	0	57	0	1659895808	30	4234
2026-01-01 15:01:43.82	211.06	32.14	-29.8	-31.3	20.9	0.00e+00	0	57	0	1667235840	30	4213
2026-01-01 15:01:44.83	211.30	32.30	-29.7	-31.2	21.0	0.00e+00	0	57	0	1673527296	30	4151
2026-01-01 15:01:45.84	211.55	32.45	-29.8	-31.3	20.9	0.00e+00	0	57	0	1680867328	30	4236
2026-01-01 15:01:46.85	211.80	32.61	-29.8	-31.3	20.9	0.00e+00	0	57	0	1689255936	30	4239
2026-01-01 15:01:47.86	212.05	32.77	-29.8	-31.3	20.9	0.00e+00	0	57	0	1695547392	30	4233
2026-01-01 15:01:48.87	212.30	32.93	-29.8	-31.3	20.9	0.00e+00	0	57	0	1702887424	30	4216
2026-01-01 15:01:49.88	212.56	33.09	-29.7	-31.2	21.1	0.00e+00	0	57	0	1710227456	30	4157
2026-01-01 15:01:50.89	212.82	33.25	-29.7	-31.2	21.0	0.00e+00	0	57	0	1717567488	30	4161
2026-01-01 15:01:51.90	213.08	33.41	-29.6	-31.0	21.2	0.00e+00	0	57	0	1724907520	30	4091
2026-01-01 15:01:52.91	213.35	33.57	-29.5	-31.0	21.3	0.00e+00	0	57	0	1732247552	30	4072
2026-01-01 15:01:53.93	213.62	33.73	-29.5	-31.0	21.2	0.00e+00	0	57	0	1739587584	30	4072
2026-01-01 15:01:54.94	213.89	33.89	-29.7	-31.1	21.1	0.00e+00	0	57	0	1746927616	29	4384
2026-01-01 15:01:55.95	214.16	34.05	-29.8	-31.3	21.0	0.00e+00	0	57	0	1754267648	29	4459
2026-01-01 15:01:56.96	214.43	34.21	-29.8	-31.3	21.1	0.00e+00	0	57	0	1761607680	29	4448
2026-01-01 15:01:57.97	214.71	34.37	-29.8	-31.4	21.0	0.00e+00	0	57	0	1768947712	29	4504
2026-01-01 15:01:58.98	214.99	34.53	-29.9	-31.4	21.0	0.00e+00	0	57	0	1776287744	29	4541
2026-01-01 15:01:59.99	215.27	34.69	-29.9	-31.5	20.9	0.00e+00	0	57	0	1783627776	29	4555
2026-01-01 15:02:01.00	215.56	34.85	-29.8	-31.3	21.1	0.00e+00	0	57	0	1790967808	29	4485
2026-01-01 15:02:02.01	215.85	35.01	-29.9	-31.4	21.0	0.00e+00	0	57	0	1798307840	29	4509
2026-01-01 15:02:03.02	216.14	35.17	-30.0	-31.5	20.9	0.00e+00	0	57	0	1805647872	29	4559
2026-01-01 15:02:04.03	216.43	35.33	-30.0	-31.5	20.9	0.00e+00	0	57	0	1812987904	29	4592
2026-01-01 15:02:05.04	216.73	35.49	-30.0	-31.6	20.9	0.00e+00	0	57	0	1819279360	29	4600
2026-01-01 15:02:06.05	217.03	35.65	-30.1	-31.6	20.8	0.00e+00	0	57	0	1827667968	29	4649
2026-01-01 15:02:07.06	217.33	35.81	-29.9	-31.4	20.9	0.00e+00	0	57	0	1835008000	29	4521
2026-01-01 15:02:08.07	217.64	35.97	-30.0	-31.5	20.8	0.00e+00	0	57	0	1841299456	29	4578
2026-01-01 15:02:09.08	217.95	36.13	-30.1	-31.6	20.7	0.00e+00	0	57	0	1848639488	29	4649
2026-01-01 15:02:10.09	218.26	36.29	-30.2	-31.8	20.5	0.00e+00	0	57	0	1855979520	29	4722
2026-01-01 15:02:11.10	218.57	36.45	-30.0	-31.6	20.7	0.00e+00	0	57	0	1863319552	29	4622
2026-01-01 15:02:12.11	218.89	36.61	-30.0	-31.6	20.7	0.00e+00	0	57	0	1870659584	29	4607
2026-01-01 15:02:13.12	219.21	36.77	-30.0	-31.5	20.7	0.00e+00	0	57	0	1877999616	29	4583
2026-01-01 15:02:14.13	219.54	36.93	-30.0	-31.5	20.7	0.00e+00	0	57	0	1885339648	29	4581
2026-01-01 15:02:15.14	219.86	37.08	-30.0	-31.5	20.7	0.00e+00	0	57	0	1892679680	29	4586
2026-01-01 15:02:16.15	220.19	37.24	-29.9	-31.4	20.8	0.00e+00	0	57	0	1900019712	29	4540
2026-01-01 15:02:17.16	220.53	37.40	-30.0	-31.5	20.9	0.00e+00	0	57	0	1907359744	29	4560
2026-01-01 15:02:18.17	220.86	37.56	-30.0	-31.4	20.9	0.00e+00	0	57	0	1914699776	29	4544
2026-01-01 15:02:19.18	221.20	37.72	-30.7	-31.6	22.0	0.00e+00	0	57	0	1922039808	31	4126
2026-01-01 15:02:20.19	221.54	37.87	-30.7	-31.6	22.0	0.00e+00	0	57	0	1929379840	31	4143
2026-01-01 15:02:21.20	221.89	38.03	-30.7	-31.6	22.1	0.00e+00	0	57	0	1936719872	31	4104
2026-01-01 15:02:22.21	222.24	38.19	-30.6	-31.5	22.1	0.00e+00	0	57	0	1944059904	31	4079
2026-01-01 15:02:23.22	222.59	38.34	-30.7	-31.6	22.1	0.00e+00	0	57	0	1951399936	31	4101
2026-01-01 15:02:24.24	222.95	38.50	-30.8	-31.7	22.0	0.00e+00	0	57	0	1958739968	31	4152
2026-01-01 15:02:25.25	223.31	38.65	-30.7	-31.6	22.0	0.00e+00	0	57	0	1966080000	31	4126
2026-01-01 15:02:26.25	223.67	38.81	-30.7	-31.7	22.0	0.00e+00	0	57	0	1973420032	31	4147
2026-01-01 15:02:27.26	224.04	38.96	-30.7	-31.6	22.0	0.00e+00	0	57	0	1980760064	31	4136
2026-01-01 15:02:28.27	224.41	39.11	-30.8	-31.7	21.9	0.00e+00	0	57	0	1988100096	31	4186
2026-01-01 15:02:29.28	224.78	39.27	-30.8	-31.7	21.9	0.00e+00	0	57	0	1994391552	31	4181
2026-01-01 15:02:30.29	225.16	39.42	-30.9	-31.8	21.8	0.00e+00	0	57	0	2001731584	31	4210
2026-01-01 15:02:31.30	225.54	39.57	-30.9	-31.8	21.8	0.00e+00	0	57	0	2010120192	31	4219
2026-01-01 15:02:32.31	225.92	39.72	-30.9	-31.8	21.9	0.00e+00	0	57	0	2016411648	31	4211
2026-01-01 15:02:33.32	226.31	39.87	-30.8	-31.7	21.9	0.00e+00	0	57	0	2023751680	31	4161
2026-01-01 15:02:34.33	226.70	40.02	-30.7	-31.6	22.1	0.00e+00	0	57	0	2031091712	31	4114
2026-01-01 15:02:35.35	227.10	40.17	-30.6	-31.5	22.2	0.00e+00	0	57	0	2038431744	31	4054
2026-01-01 15:02:36.36	227.49	40.31	-30.4	-31.3	22.3	0.00e+00	0	57	0	2045771776	31	3980
2026-01-01 15:02:37.37	227.89	40.46	-30.2	-31.1	22.4	0.00e+00	0	57	0	2053111808	31	3890
2026-01-01 15:02:38.38	228.30	40.60	-30.5	-31.3	22.3	0.00e+00	0	57	0	2060451840	31	4002
2026-01-01 15:02:39.39	228.71	40.75	-30.6	-31.5	22.2	0.00e+00	0	57	0	2067791872	31	4055
2026-01-01 15:02:40.40	229.12	40.89	-30.6	-31.5	22.1	0.00e+00	0	57	0	2075131904	31	4071
2026-01-01 15:02:41.41	229.53	41.03	-30.7	-31.6	22.1	0.00e+00	0	57	0	2082471936	31	4112
2026-01-01 15:02:42.42	229.95	41.17	-30.9	-31.8	21.9	0.00e+00	0	57	0	2089811968	31	4207
2026-01-01 15:02:43.43	230.38	41.31	-30.8	-31.7	21.9	0.00e+00	0	57	0	2097152000	31	4183
2026-01-01 15:02:44.44	230.80	41.45	-30.7	-31.6	22.0	0.00e+00	0	57	0	2104492032	31	4141
2026-01-01 15:02:45.45	231.23	41.59	-30.6	-31.5	22.2	0.00e+00	0	57	0	2111832064	31	4061
2026-01-01 15:02:46.46	231.67	41.73	-30.4	-31.3	22.3	0.00e+00	0	57	0	2119172096	31	3975
2026-01-01 15:02:47.47	232.10	41.86	-30.3	-31.2	22.4	0.00e+00	0	58	0	2126512128	31	3949
2026-01-01 15:02:48.48	232.54	41.99	-30.5	-31.4	22.2	0.00e+00	0	57	0	2133852160	31	4029
2026-01-01 15:02:49.49	232.99	42.13	-30.7	-31.6	22.0	0.00e+00	0	57	0	2140143616	31	4111
2026-01-01 15:02:50.50	233.44	42.26	-30.8	-31.7	21.9	0.00e+00	0	57	0	2148532224	31	4192
2026-01-01 15:02:51.51	233.89	42.38	-30.8	-31.7	21.9	0.00e+00	0	57	0	2155872256	31	4184
2026-01-01 15:02:52.52	234.34	42.51	-30.7	-31.6	22.0	0.00e+00	0	57	0	2162163712	31	4107
2026-01-01 15:02:53.53	234.80	42.64	-30.6	-31.5	22.1	0.00e+00	0	57	0	2169503744	31	4077
2026-01-01 15:02:54.54	235.26	42.76	-30.7	-31.6	22.0	0.00e+00	0	57	0	2176843776	31	4132
2026-01-01 15:02:55.55	235.73	42.88	-30.7	-31.6	22.0	0.00e+00	0	57	0	2184183808	31	4122
2026-01-01 15:02:56.56	236.20	43.01	-30.8	-31.7	21.9	0.00e+00	0	57	0	2191523840	31	4188
2026-01-01 15:02:57.57	236.67	43.12	-30.7	-31.5	22.1	0.00e+00	0	57	0	2198863872	31	4093
2026-01-01 15:02:58.58	237.15	43.24	-30.7	-31.6	22.0	0.00e+00	0	57	0	2206203904	31	4130
2026-01-01 15:02:59.59	237.63	43.36	-30.7	-31.5	22.1	0.00e+00	0	57	0	2213543936	31	4097
2026-01-01 15:03:00.60	238.11	43.47	-30.7	-31.6	22.0	0.00e+00	0	57	0	2220883968	31	4104
2026-01-01 15:03:01.61	238.59	43.58	-30.8	-31.7	21.9	0.00e+00	0	57	0	2228224000	31	4157
2026-01-01 15:03:02.62	239.08	43.69	-31.0	-31.9	21.7	0.00e+00	0	57	0	2235564032	31	4284
2026-01-01 15:03:03.63	239.58	43.80	-31.1	-32.0	21.7	0.00e+00	0	57	0	2242904064	31	4304
2026-01-01 15:03:04.64	240.07	43.91	-31.3	-32.2	21.6	0.00e+00	0	57	0	2250244096	32	4158
2026-01-01 15:03:05.65	240.57	44.01	-31.4	-32.3	21.6	0.00e+00	0	57	0	2257584128	32	4219
2026-01-01 15:03:06.66	241.07	44.11	-31.4	-32.3	21.6	0.00e+00	0	57	0	2264924160	32	4209
2026-01-01 15:03:07.67	241.58	44.21	-31.4	-32.3	21.6	0.00e+00	0	57	0	2272264192	32	4218
2026-01-01 15:03:08.68	242.09	44.31	-31.2	-32.1	21.7	0.00e+00	0	57	0	2279604224	32	4106
2026-01-01 15:03:09.69	242.60	44.40	-31.0	-31.9	21.9	0.00e+00	0	58	0	2286944256	32	4036
2026-01-01 15:03:10.70	243.12	44.50	-30.9	-31.8	22.0	0.00e+00	0	57	0	2294284288	32	3977
2026-01-01 15:03:11.71	243.63	44.59	-31.2	-32.1	21.7	0.00e+00	0	58	0	2301624320	32	4120
2026-01-01 15:03:12.72	244.15	44.68	-31.6	-32.6	21.3	0.00e+00	0	57	0	2308964352	32	4344
2026-01-01 15:03:13.73	244.68	44.76	-31.8	-32.8	21.1	0.00e+00	0	57	0	2315255808	33	4209
2026-01-01 15:03:14.74	245.20	44.85	-31.8	-32.8	21.1	0.00e+00	0	57	0	2322595840	33	4225
2026-01-01 15:03:15.75	245.73	44.93	-31.6	-32.6	21.2	0.00e+00	0	57	0	2330984448	33	4103
2026-01-01 15:03:16.76	246.26	45.00	-31.6	-32.5	21.3	0.00e+00	0	57	0	2337275904	33	4079
2026-01-01 15:03:17.77	246.80	45.08	-31.7	-32.7	21.2	0.00e+00	0	57	0	2344615936	33	4149
2026-01-01 15:03:18.78	247.33	45.15	-31.8	-32.8	21.1	0.00e+00	0	57	0	2351955968	33	4197
2026-01-01 15:03:19.79	247.87	45.22	-31.8	-32.8	21.0	0.00e+00	0	57	0	2359296000	33	4221
2026-01-01 15:03:20.80	248.41	45.29	-31.6	-32.5	21.3	0.00e+00	0	57	0	2366636032	33	4086
2026-01-01 15:03:21.81	248.96	45.36	-31.3	-32.2	21.6	0.00e+00	0	57	0	2373976064	33	3941
2026-01-01 15:03:22.82	249.50	45.42	-31.2	-32.1	21.7	0.00e+00	0	57	0	2381316096	33	3906
2026-01-01 15:03:23.83	250.05	45.48	-31.2	-32.2	21.7	0.00e+00	0	57	0	2388656128	33	3916
2026-01-01 15:03:24.84	250.60	45.54	-31.3	-32.2	21.5	0.00e+00	0	57	0	2395996160	33	3950
2026-01-01 15:03:25.85	251.15	45.59	-31.2	-32.1	21.6	0.00e+00	0	57	0	2403336192	33	3913
2026-01-01 15:03:26.86	251.70	45.64	-31.2	-32.1	21.7	0.00e+00	0	57	0	2410676224	33	3906
2026-01-01 15:03:27.88	252.27	45.69	-31.2	-32.2	21.7	0.00e+00	0	57	0	2418016256	33	3917
2026-01-01 15:03:28.89	252.82	45.74	-31.4	-32.3	21.6	0.00e+00	0	57	0	2425356288	33	3975
2026-01-01 15:03:29.90	253.38	45.78	-31.3	-32.3	21.6	0.00e+00	0	58	0	2432696320	33	3969
2026-01-01 15:03:30.91	253.94	45.82	-31.4	-32.3	21.5	0.00e+00	0	57	0	2440036352	33	3982
2026-01-01 15:03:31.92	254.50	45.86	-31.3	-32.3	21.6	0.00e+00	0	57	0	2447376384	33	3963
2026-01-01 15:03:32.93	255.06	45.89	-31.3	-32.2	21.6	0.00e+00	0	57	0	2454716416	33	3947
2026-01-01 15:03:33.94	255.63	45.92	-31.2	-32.1	21.7	0.00e+00	0	57	0	2461007872	33	3873
2026-01-01 15:03:34.95	256.19	45.95	-31.3	-32.2	21.6	0.00e+00	0	58	0	2469396480	33	3926
2026-01-01 15:03:35.96	256.76	45.98	-31.4	-32.3	21.5	0.00e+00	0	58	0	2476736512	33	3975
2026-01-01 15:03:36.97	257.32	46.00	-31.6	-32.6	21.1	0.00e+00	0	58	0	2483027968	33	4109
2026-01-01 15:03:37.98	257.89	46.02	-31.5	-32.5	21.4	0.00e+00	0	57	0	2490368000	33	4062
2026-01-01 15:03:38.99	258.46	46.04	-31.6	-32.5	21.3	0.00e+00	0	57	0	2497708032	33	4091
2026-01-01 15:03:40.00	259.03	46.05	-31.7	-32.6	21.2	0.00e+00	0	58	0	2505048064	33	4119
2026-01-01 15:03:41.02	259.60	46.06	-31.6	-32.5	21.3	0.00e+00	0	57	0	2512388096	33	4093
2026-01-01 15:03:42.03	260.17	46.07	-31.4	-32.3	21.5	0.00e+00	0	58	0	2519728128	33	3984
2026-01-01 15:03:43.04	260.74	46.07	-31.2	-32.1	21.7	0.00e+00	0	58	0	2527068160	33	3884
2026-01-01 15:03:44.05	261.31	46.07	-31.1	-32.0	21.7	0.00e+00	0	57	0	2534408192	33	3859
2026-01-01 15:03:45.06	261.88	46.07	-31.2	-32.1	21.7	0.00e+00	0	58	0	2541748224	33	3879
2026-01-01 15:03:46.07	262.45	46.07	-31.3	-32.3	21.6	0.00e+00	0	57	0	2549088256	33	3965
2026-01-01 15:03:47.08	263.01	46.06	-31.5	-32.4	21.4	0.00e+00	0	57	0	2556428288	33	4037
2026-01-01 15:03:48.09	263.58	46.05	-31.4	-32.3	21.5	0.00e+00	0	57	0	2563768320	33	3976
2026-01-01 15:03:49.10	264.15	46.03	-31.3	-32.2	21.6	0.00e+00	0	57	0	2571108352	33	3953
2026-01-01 15:03:50.11	264.72	46.01	-31.4	-32.3	21.5	0.00e+00	0	57	0	2578448384	33	3991
2026-01-01 15:03:51.12	265.28	45.99	-31.6	-32.6	21.2	0.00e+00	0	57	0	2585788416	33	4113
2026-01-01 15:03:52.13	265.85	45.97	-31.6	-32.5	21.3	0.00e+00	0	57	0	2593128448	33	4077
2026-01-01 15:03:53.14	266.42	45.95	-31.7	-32.6	21.2	0.00e+00	0	57	0	2600468480	33	4139
2026-01-01 15:03:54.15	266.98	45.92	-31.7	-32.7	21.2	0.00e+00	0	58	0	2607808512	33	4151
2026-01-01 15:03:55.16	267.54	45.88	-31.5	-32.5	21.3	0.00e+00	0	58	0	2615148544	33	4061
2026-01-01 15:03:56.17	268.10	45.85	-31.3	-32.2	21.6	0.00e+00	0	58	0	2622488576	33	3942
2026-01-01 15:03:57.18	268.66	45.81	-31.1	-32.0	21.8	0.00e+00	0	58	0	2629828608	33	3853
2026-01-01 15:03:58.19	269.22	45.77	-31.1	-32.0	21.8	0.00e+00	0	57	0	2636120064	33	3852
2026-01-01 15:03:59.20	269.78	45.73	-31.2	-32.1	21.7	0.00e+00	0	57	0	2644508672	33	3907
2026-01-01 15:04:00.21	270.34	45.68	-31.4	-32.3	21.5	0.00e+00	0	57	0	2651848704	33	3999
2026-01-01 15:04:01.22	270.89	45.63	-31.4	-32.4	21.4	0.00e+00	0	57	0	2658140160	33	4016
2026-01-01 15:04:02.23	271.44	45.58	-31.5	-32.4	21.4	0.00e+00	0	58	0	2665480192	33	4017
2026-01-01 15:04:03.24	271.99	45.52	-31.3	-32.2	21.6	0.00e+00	0	58	0	2672820224	33	3924
2026-01-01 15:04:04.25	272.54	45.47	-31.0	-31.9	21.8	0.00e+00	0	58	0	2680160256	33	3806
2026-01-01 15:04:05.26	273.09	45.41	-31.0	-31.8	21.9	0.00e+00	0	58	0	2687500288	32	4003
2026-01-01 15:04:06.27	273.63	45.34	-31.1	-32.0	21.8	0.00e+00	0	58	0	2694840320	32	4053
2026-01-01 15:04:07.28	274.17	45.28	-31.4	-32.4	21.4	0.00e+00	0	57	0	2702180352	32	4244
2026-01-01 15:04:08.29	274.71	45.21	-31.6	-32.5	21.3	0.00e+00	0	58	0	2709520384	32	4316
2026-01-01 15:04:09.30	275.25	45.14	-31.7	-32.6	21.1	0.00e+00	0	57	0	2716860416	32	4382
2026-01-01 15:04:10.31	275.79	45.06	-31.3	-32.3	21.5	0.00e+00	0	58	0	2724200448	32	4199
2026-01-01 15:04:11.32	276.32	44.99	-31.1	-32.0	21.8	0.00e+00	0	58	0	2731540480	32	4055
2026-01-01 15:04:12.33	276.85	44.91	-30.9	-31.8	21.9	0.00e+00	0	57	0	2738880512	32	3995
2026-01-01 15:04:13.34	277.38	44.83	-31.0	-31.9	21.9	0.00e+00	0	57	0	2746220544	32	4012
2026-01-01 15:04:14.35	277.90	44.74	-31.2	-32.1	21.7	0.00e+00	0	57	0	2753560576	32	4109
2026-01-01 15:04:15.36	278.42	44.66	-31.5	-32.4	21.4	0.00e+00	0	57	0	2760900608	32	4286
2026-01-01 15:04:16.37	278.94	44.57	-31.6	-32.6	21.3	0.00e+00	0	57	0	2768240640	32	4366
2026-01-01 15:04:17.38	279.46	44.48	-31.7	-32.7	21.1	0.00e+00	0	58	0	2775580672	32	4393
2026-01-01 15:04:18.39	279.97	44.38	-31.4	-32.3	21.5	0.00e+00	0	58	0	2781872128	32	4220
2026-01-01 15:04:19.40	280.48	44.29	-31.3	-32.2	21.6	0.00e+00	0	58	0	2790260736	32	4167
2026-01-01 15:04:20.41	280.99	44.19	-31.4	-32.4	21.4	0.00e+00	0	58	0	2797600768	32	4250
2026-01-01 15:04:21.42	281.49	44.09	-31.5	-32.4	21.3	0.00e+00	0	58	0	2803892224	32	4291
2026-01-01 15:04:22.43	281.99	43.99	-31.6	-32.6	21.2	0.00e+00	0	58	0	2811232256	32	4361
2026-01-01 15:04:23.44	282.49	43.89	-31.5	-32.4	21.4	0.00e+00	0	58	0	2818572288	33	4041
2026-01-01 15:04:24.45	282.99	43.78	-31.3	-32.2	21.5	0.00e+00	0	58	0	2825912320	33	3940
2026-01-01 15:04:25.47	283.48	43.67	-31.2	-32.1	21.7	0.00e+00	0	57	0	2833252352	33	3892
2026-01-01 15:04:26.47	283.96	43.56	-31.1	-32.0	21.7	0.00e+00	0	58	0	2840592384	33	3868
2026-01-01 15:04:27.49	284.45	43.45	-31.3	-32.2	21.6	0.00e+00	0	58	0	2847932416	33	3950
2026-01-01 15:04:28.50	284.93	43.33	-31.4	-32.3	21.5	0.00e+00	0	58	0	2855272448	33	3984
2026-01-01 15:04:29.51	285.41	43.22	-31.4	-32.4	21.4	0.00e+00	0	58	0	2862612480	33	4010
2026-01-01 15:04:30.52	285.89	43.10	-31.4	-32.4	21.5	0.00e+00	0	58	0	2869952512	33	4022
2026-01-01 15:04:31.53	286.36	42.98	-31.5	-32.4	21.4	0.00e+00	0	57	0	2877292544	33	4034
2026-01-01 15:04:32.54	286.82	42.86	-31.3	-32.2	21.6	0.00e+00	0	57	0	2884632576	33	3938
2026-01-01 15:04:33.55	287.29	42.74	-31.0	-31.9	21.8	0.00e+00	0	58	0	2891972608	33	3805
2026-01-01 15:04:34.56	287.75	42.61	-30.9	-31.8	22.0	0.00e+00	0	58	0	2899312640	32	3997
2026-01-01 15:04:35.57	288.20	42.49	-30.9	-31.7	22.1	0.00e+00	0	58	0	2906652672	32	3958
2026-01-01 15:04:36.58	288.66	42.36	-31.1	-32.0	21.8	0.00e+00	0	58	0	2913992704	32	4060
2026-01-01 15:04:37.59	289.11	42.23	-31.2	-32.1	21.7	0.00e+00	0	58	0	2921332736	32	4125
2026-01-01 15:04:38.59	289.55	42.10	-31.3	-32.2	21.5	0.00e+00	0	58	0	2928672768	32	4193
2026-01-01 15:04:39.60	289.99	41.97	-31.3	-32.2	21.6	0.00e+00	0	58	0	2936012800	32	4178
2026-01-01 15:04:40.61	290.43	41.84	-31.2	-32.1	21.6	0.00e+00	0	58	0	2943352832	32	4141
2026-01-01 15:04:41.62	290.86	41.70	-31.2	-32.1	21.7	0.00e+00	0	58	0	2950692864	32	4117
2026-01-01 15:04:42.63	291.30	41.57	-31.1	-32.0	21.7	0.00e+00	0	58	0	2956984320	32	4085
2026-01-01 15:04:43.64	291.72	41.43	-31.0	-31.9	21.5	0.00e+00	0	58	0	2964324352	32	4028
2026-01-01 15:04:44.65	292.15	41.29	-30.8	-31.7	22.1	0.00e+00	0	58	0	2972712960	32	3948
2026-01-01 15:04:45.66	292.57	41.15	-30.8	-31.7	22.1	0.00e+00	0	57	0	2979004416	32	3941
2026-01-01 15:04:46.67	292.99	41.01	-30.8	-31.7	22.0	0.00e+00	0	58	0	2986344448	32	3941
2026-01-01 15:04:47.68	293.40	40.87	-30.8	-31.7	22.1	0.00e+00	0	58	0	2993684480	32	3944
2026-01-01 15:04:48.69	293.81	40.73	-30.8	-31.6	21.9	0.00e+00	0	57	0	3001024512	32	3909
2026-01-01 15:04:49.70	294.22	40.59	-31.0	-31.9	21.9	0.00e+00	0	58	0	3008364544	32	4012
2026-01-01 15:04:50.71	294.62	40.44	-31.1	-32.0	21.8	0.00e+00	0	58	0	3015704576	32	4062
2026-01-01 15:04:51.72	295.02	40.30	-31.1	-32.1	21.7	0.00e+00	0	58	0	3023044608	32	4102
2026-01-01 15:04:52.73	295.41	40.15	-31.2	-32.1	21.7	0.00e+00	0	58	0	3030384640	32	4133
2026-01-01 15:04:53.75	295.81	40.00	-31.2	-32.2	21.7	0.00e+00	0	57	0	3037724672	32	4152
2026-01-01 15:04:54.75	296.19	39.85	-31.3	-32.2	21.6	0.00e+00	0	58	0	3045064704	32	4161
2026-01-01 15:04:55.76	296.58	39.71	-31.1	-32.1	21.7	0.00e+00	0	58	0	3052404736	32	4101
2026-01-01 15:04:56.77	296.96	39.56	-31.1	-32.0	21.8	0.00e+00	0	58	0	3059744768	32	4083
2026-01-01 15:04:57.79	297.34	39.40	-31.0	-31.9	21.9	0.00e+00	0	58	0	3067084800	32	4037
2026-01-01 15:04:58.80	297.72	39.25	-31.0	-31.9	21.9	0.00e+00	0	58	0	3074424832	32	4014
2026-01-01 15:04:59.81	298.09	39.10	-30.9	-31.8	22.0	0.00e+00	0	58	0	3081764864	32	3963
2026-01-01 15:05:00.82	298.46	38.95	-30.8	-31.7	22.1	0.00e+00	0	58	0	3089104896	32	3918
2026-01-01 15:05:01.83	298.82	38.80	-30.7	-31.6	22.2	0.00e+00	0	58	0	3096444928	32	3884
2026-01-01 15:05:02.84	299.18	38.64	-30.7	-31.6	22.2	0.00e+00	0	58	0	3102736384	32	3882
2026-01-01 15:05:03.85	299.54	38.49	-30.8	-31.7	22.1	0.00e+00	0	57	0	3111124992	32	3928
2026-01-01 15:05:04.86	299.89	38.33	-30.8	-31.7	22.0	0.00e+00	0	57	0	3118465024	32	3946
2026-01-01 15:05:05.87	300.25	38.18	-30.9	-31.8	22.0	0.00e+00	0	58	0	3124756480	32	3968
2026-01-01 15:05:06.88	300.59	38.02	-30.9	-31.8	22.0	0.00e+00	0	58	0	3132096512	32	3989
2026-01-01 15:05:07.89	300.94	37.87	-30.9	-31.8	22.0	0.00e+00	0	58	0	3139436544	32	3975
2026-01-01 15:05:08.90	301.28	37.71	-30.9	-31.8	22.0	0.00e+00	0	58	0	3146776576	32	3960
2026-01-01 15:05:09.91	301.62	37.55	-30.6	-31.5	21.4	0.00e+00	0	58	0	3154116608	32	3831
2026-01-01 15:05:10.92	301.95	37.40	-30.7	-31.6	22.2	0.00e+00	0	58	0	3161456640	32	3878
2026-01-01 15:05:11.93	302.28	37.24	-30.6	-31.4	22.2	0.00e+00	0	58	0	3168796672	32	3820
2026-01-01 15:05:12.95	302.62	37.08	-30.6	-31.5	22.2	0.00e+00	0	58	0	3176136704	32	3847
2026-01-01 15:05:13.96	302.94	36.92	-30.7	-31.6	22.1	0.00e+00	0	57	0	3183476736	32	3878
2026-01-01 15:05:14.97	303.26	36.76	-30.7	-31.6	22.1	0.00e+00	0	58	0	3190816768	32	3910
2026-01-01 15:05:15.98	303.58	36.61	-30.8	-31.7	22.0	0.00e+00	0	58	0	3198156800	32	3938
2026-01-01 15:05:16.99	303.90	36.45	-30.9	-31.8	21.9	0.00e+00	0	58	0	3205496832	32	4002
2026-01-01 15:05:18.00	304.21	36.29	-30.9	-31.8	21.9	0.00e+00	0	58	0	3212836864	32	3998
2026-01-01 15:05:19.01	304.52	36.13	-30.9	-31.8	22.0	0.00e+00	0	58	0	3220176896	32	3992
2026-01-01 15:05:20.02	304.83	35.97	-30.9	-31.9	21.9	0.00e+00	0	58	0	3227516928	32	4011
2026-01-01 15:05:21.03	305.13	35.81	-30.9	-31.9	21.3	0.00e+00	0	58	0	3234856960	32	4017
2026-01-01 15:05:22.04	305.43	35.65	-30.9	-31.9	21.9	0.00e+00	0	58	0	3242196992	32	4015
2026-01-01 15:05:23.05	305.73	35.49	-30.9	-31.8	21.9	0.00e+00	0	58	0	3249537024	32	3993
2026-01-01 15:05:24.06	306.03	35.33	-30.8	-31.7	22.1	0.00e+00	0	58	0	3256877056	32	3914
2026-01-01 15:05:25.07	306.32	35.17	-30.6	-31.5	22.2	0.00e+00	0	58	0	3264217088	32	3854
2026-01-01 15:05:26.08	306.61	35.01	-30.6	-31.5	22.2	0.00e+00	0	58	0	3271557120	32	3842
2026-01-01 15:05:27.09	306.90	34.86	-30.5	-31.4	22.3	0.00e+00	0	58	0	3277848576	32	3801
2026-01-01 15:05:28.10	307.18	34.70	-30.3	-31.2	22.3	0.00e+00	0	58	0	3286237184	31	3933
2026-01-01 15:05:29.12	307.47	34.54	-30.3	-31.2	22.3	0.00e+00	0	58	0	3293577216	31	3946
2026-01-01 15:05:30.13	307.75	34.38	-30.3	-31.2	22.2	0.00e+00	0	58	0	3299868672	31	3937
2026-01-01 15:05:31.14	308.02	34.22	-30.2	-31.1	22.3	0.00e+00	0	58	0	3307208704	31	3886
2026-01-01 15:05:32.15	308.30	34.06	-30.4	-31.3	22.2	0.00e+00	0	58	0	3315597312	31	3974
2026-01-01 15:05:33.16	308.57	33.90	-30.5	-31.4	22.1	0.00e+00	0	58	0	3321888768	31	4035
2026-01-01 15:05:34.17	308.83	33.74	-30.7	-31.6	22.0	0.00e+00	0	58	0	3329228800	31	4129
2026-01-01 15:05:35.18	309.10	33.58	-30.9	-31.9	21.7	0.00e+00	0	58	0	3336568832	31	4245
2026-01-01 15:05:36.19	309.36	33.42	-31.0	-31.9	21.7	0.00e+00	0	58	0	3343908864	31	4268
2026-01-01 15:05:37.20	309.62	33.27	-31.0	-31.9	21.7	0.00e+00	0	58	0	3351248896	31	4262
2026-01-01 15:05:38.21	309.88	33.11	-30.9	-31.8	21.8	0.00e+00	0	58	0	3358588928	31	4207
2026-01-01 15:05:39.22	310.14	32.95	-30.7	-31.6	22.0	0.00e+00	0	58	0	3365928960	31	4129
2026-01-01 15:05:40.23	310.39	32.79	-30.6	-31.5	22.0	0.00e+00	0	58	0	3373268992	31	4092
2026-01-01 15:05:41.24	310.64	32.64	-30.6	-31.5	22.0	0.00e+00	0	58	0	3380609024	31	4055
2026-01-01 15:05:42.25	310.89	32.48	-30.6	-31.5	22.0	0.00e+00	0	58	0	3387949056	31	4054
2026-01-01 15:05:43.26	311.14	32.32	-30.5	-31.4	22.2	0.00e+00	0	58	0	3395289088	31	4006
2026-01-01 15:05:44.27	311.38	32.16	-30.5	-31.4	22.2	0.00e+00	0	58	0	3402629120	31	4015
2026-01-01 15:05:45.28	311.62	32.01	-30.6	-31.4	22.0	0.00e+00	0	58	0	3409969152	31	4045
2026-01-01 15:05:46.29	311.86	31.85	-30.6	-31.5	22.1	0.00e+00	0	58	0	3417309184	31	4069
2026-01-01 15:05:47.30	312.10	31.70	-30.6	-31.5	22.0	0.00e+00	0	58	0	3424649216	31	4084
2026-01-01 15:05:48.31	312.33	31.54	-30.7	-31.6	22.0	0.00e+00	0	58	0	3431989248	31	4105
2026-01-01 15:05:49.32	312.57	31.39	-30.7	-31.6	21.9	0.00e+00	0	58	0	3439329280	31	4123
2026-01-01 15:05:50.33	312.80	31.23	-30.7	-31.6	22.0	0.00e+00	0	58	0	3445620736	31	4121
2026-01-01 15:05:51.34	313.03	31.08	-30.8	-31.7	21.9	0.00e+00	0	58	0	3452960768	31	4151
2026-01-01 15:05:52.35	313.25	30.92	-30.8	-31.7	21.9	0.00e+00	0	58	0	3461349376	31	4183
2026-01-01 15:05:53.36	313.48	30.77	-30.8	-31.8	21.8	0.00e+00	0	58	0	3467640832	31	4194
2026-01-01 15:05:54.37	313.70	30.62	-30.9	-31.8	21.7	0.00e+00	0	58	0	3474980864	31	4223
2026-01-01 15:05:55.38	313.92	30.46	-30.9	-31.8	21.7	0.00e+00	0	58	0	3482320896	31	4239
2026-01-01 15:05:56.39	314.14	30.31	-30.9	-31.9	21.7	0.00e+00	0	58	0	3489660928	31	4245
2026-01-01 15:05:57.40	314.35	30.16	-30.9	-31.9	21.7	0.00e+00	0	58	0	3497000960	31	4245
2026-01-01 15:05:58.41	314.57	30.01	-31.0	-31.9	21.7	0.00e+00	0	58	0	3504340992	31	4257
2026-01-01 15:05:59.42	314.78	29.85	-30.9	-31.9	21.6	0.00e+00	0	58	0	3511681024	31	4250
2026-01-01 15:06:00.43	314.99	29.70	-30.9	-31.8	21.7	0.00e+00	0	58	0	3519021056	31	4211
2026-01-01 15:06:01.44	315.20	29.55	-30.9	-31.8	21.8	0.00e+00	0	58	0	3526361088	31	4206
2026-01-01 15:06:02.45	315.40	29.40	-30.8	-31.7	21.8	0.00e+00	0	58	0	3533701120	31	4154
2026-01-01 15:06:03.46	315.61	29.25	-30.7	-31.6	21.9	0.00e+00	0	58	0	3541041152	31	4127
2026-01-01 15:06:04.47	315.81	29.10	-30.6	-31.5	21.9	0.00e+00	0	58	0	3548381184	31	4095
2026-01-01 15:06:05.48	316.01	28.95	-30.6	-31.5	22.0	0.00e+00	0	58	0	3555721216	31	4096
2026-01-01 15:06:06.49	316.21	28.81	-30.6	-31.5	22.0	0.00e+00	0	58	0	3563061248	31	4065
2026-01-01 15:06:07.50	316.41	28.66	-30.6	-31.5	22.0	0.00e+00	0	58	0	3570401280	31	4072
2026-01-01 15:06:08.52	316.60	28.51	-30.7	-31.5	22.0	0.00e+00	0	58	0	3577741312	31	4098
2026-01-01 15:06:09.52	316.80	28.36	-30.6	-31.5	21.9	0.00e+00	0	58	0	3585081344	31	4089
2026-01-01 15:06:10.53	316.99	28.22	-30.7	-31.6	21.8	0.00e+00	0	58	0	3592421376	31	4128
2026-01-01 15:06:11.54	317.18	28.07	-30.8	-31.7	21.8	0.00e+00	0	58	0	3598712832	31	4170
2026-01-01 15:06:12.55	317.37	27.92	-30.9	-31.8	21.6	0.00e+00	0	58	0	3607101440	31	4206
2026-01-01 15:06:13.57	317.55	27.78	-30.9	-31.8	21.7	0.00e+00	0	58	0	3614441472	31	4233
2026-01-01 15:06:14.58	317.74	27.63	-31.0	-31.9	21.6	0.00e+00	0	58	0	3620732928	31	4265
2026-01-01 15:06:15.59	317.92	27.49	-31.0	-31.9	21.5	0.00e+00	0	58	0	3628072960	31	4287
2026-01-01 15:06:16.60	318.11	27.34	-31.0	-31.9	21.6	0.00e+00	0	58	0	3636461568	31	4281
2026-01-01 15:06:17.61	318.29	27.20	-31.0	-31.9	21.6	0.00e+00	0	58	0	3642753024	31	4277
2026-01-01 15:06:18.62	318.46	27.06	-31.0	-31.9	21.6	0.00e+00	0	57	0	3650093056	31	4272
2026-01-01 15:06:19.63	318.64	26.91	-31.0	-31.9	21.7	0.00e+00	0	58	0	3657433088	31	4253
2026-01-01 15:06:20.64	318.82	26.77	-30.9	-31.8	21.7	0.00e+00	0	58	0	3664773120	31	4232
2026-01-01 15:06:21.65	318.99	26.63	-30.9	-31.8	21.7	0.00e+00	0	58	0	3672113152	31	4226
2026-01-01 15:06:22.66	319.16	26.49	-30.9	-31.8	21.6	0.00e+00	0	58	0	3679453184	31	4213
2026-01-01 15:06:23.67	319.33	26.35	-30.9	-31.8	21.7	0.00e+00	0	58	0	3686793216	31	4212
2026-01-01 15:06:24.68	319.50	26.21	-30.8	-31.8	21.7	0.00e+00	0	58	0	3694133248	31	4196
2026-01-01 15:06:25.69	319.67	26.07	-30.8	-31.7	21.8	0.00e+00	0	58	0	3701473280	31	4191
2026-01-01 15:06:26.70	319.84	25.93	-30.8	-31.8	21.8	0.00e+00	0	58	0	3708813312	31	4197
2026-01-01 15:06:27.71	320.00	25.79	-30.8	-31.8	21.7	0.00e+00	0	58	0	3716153344	31	4198
2026-01-01 15:06:28.72	320.17	25.65	-30.8	-31.7	21.6	0.00e+00	0	58	0	3723493376	31	4179
2026-01-01 15:06:29.73	320.33	25.51	-30.9	-31.8	21.6	0.00e+00	0	58	0	3730833408	31	4214
2026-01-01 15:06:30.74	320.49	25.37	-30.9	-31.8	21.7	0.00e+00	0	58	0	3738173440	31	4233
2026-01-01 15:06:31.75	320.65	25.24	-31.0	-31.9	21.6	0.00e+00	0	58	0	3745513472	31	4275
2026-01-01 15:06:32.76	320.81	25.10	-31.0	-32.0	21.3	0.00e+00	0	58	0	3752853504	31	4302
2026-01-01 15:06:33.78	320.97	24.96	-31.1	-32.0	21.5	0.00e+00	0	58	0	3760193536	31	4333
2026-01-01 15:06:34.79	321.12	24.83	-31.1	-32.0	21.4	0.00e+00	0	58	0	3766484992	31	4319
2026-01-01 15:06:35.79	321.28	24.69	-31.2	-32.1	21.4	0.00e+00	0	58	0	3773825024	31	4374
2026-01-01 15:06:36.80	321.43	24.56	-31.2	-32.1	21.4	0.00e+00	0	58	0	3782213632	31	4381
2026-01-01 15:06:37.81	321.58	24.43	-31.2	-32.1	21.4	0.00e+00	0	58	0	3788505088	31	4364
2026-01-01 15:06:38.82	321.73	24.29	-31.1	-32.1	21.5	0.00e+00	0	58	0	3795845120	31	4346
2026-01-01 15:06:39.83	321.88	24.16	-31.2	-32.1	21.4	0.00e+00	0	58	0	3803185152	31	4361
2026-01-01 15:06:40.84	322.03	24.03	-31.1	-32.0	21.5	0.00e+00	0	58	0	3810525184	31	4326
2026-01-01 15:06:41.85	322.18	23.89	-31.0	-31.9	21.6	0.00e+00	0	58	0	3817865216	31	4276
2026-01-01 15:06:42.87	322.33	23.76	-31.0	-31.9	21.5	0.00e+00	0	58	0	3825205248	31	4284
2026-01-01 15:06:43.88	322.47	23.63	-30.9	-31.8	21.6	0.00e+00	0	58	0	3832545280	31	4240
2026-01-01 15:06:44.89	322.61	23.50	-30.9	-31.8	21.7	0.00e+00	0	58	0	3839885312	31	4226
2026-01-01 15:06:45.90	322.76	23.37	-30.9	-31.8	21.7	0.00e+00	0	58	0	3847225344	31	4222
2026-01-01 15:06:46.91	322.90	23.24	-31.0	-31.9	21.6	0.00e+00	0	58	0	3854565376	31	4255
2026-01-01 15:06:47.92	323.04	23.11	-31.0	-31.9	21.5	0.00e+00	0	58	0	3861905408	31	4271
2026-01-01 15:06:48.93	323.18	22.98	-31.0	-32.0	21.5	0.00e+00	0	58	0	3869245440	31	4294
2026-01-01 15:06:49.94	323.31	22.85	-31.1	-32.1	21.4	0.00e+00	0	58	0	3876585472	31	4355
2026-01-01 15:06:50.95	323.45	22.73	-31.2	-32.1	21.3	0.00e+00	0	58	0	3883925504	31	4380
2026-01-01 15:06:51.96	323.59	22.60	-31.4	-32.4	21.2	0.00e+00	0	58	0	3891265536	32	4253
2026-01-01 15:06:52.97	323.72	22.47	-31.5	-32.4	21.2	0.00e+00	0	58	0	3898605568	32	4286
2026-01-01 15:06:53.98	323.86	22.34	-31.6	-32.5	21.1	0.00e+00	0	58	0	3905945600	32	4318
2026-01-01 15:06:54.99	323.99	22.22	-31.6	-32.5	21.1	0.00e+00	0	58	0	3913285632	32	4320
2026-01-01 15:06:56.00	324.12	22.09	-31.6	-32.5	21.0	0.00e+00	0	58	0	3920625664	32	4325
2026-01-01 15:06:57.01	324.25	21.97	-31.6	-32.5	21.1	0.00e+00	0	58	0	3927965696	32	4319
2026-01-01 15:06:58.02	324.38	21.84	-31.5	-32.5	21.1	0.00e+00	0	58	0	3935305728	32	4303
2026-01-01 15:06:59.03	324.51	21.72	-31.5	-32.5	21.1	0.00e+00	0	58	0	3941597184	32	4312
2026-01-01 15:07:00.04	324.64	21.60	-31.5	-32.4	21.1	0.00e+00	0	58	0	3948937216	32	4276
2026-01-01 15:07:01.02	324.76	21.48	-31.4	-32.4	21.2	0.00e+00	0	58	0	3956277248	32	4244
2026-01-01 15:07:02.03	324.88	21.35	-31.4	-32.3	21.3	0.00e+00	0	58	0	3963617280	32	4230
2026-01-01 15:07:03.04	325.01	21.23	-31.4	-32.4	21.2	0.00e+00	0	58	0	3970957312	32	4245
2026-01-01 15:07:04.06	325.13	21.11	-31.4	-32.3	21.3	0.00e+00	0	58	0	3978297344	32	4229
2026-01-01 15:07:05.07	325.26	20.99	-31.4	-32.3	21.2	0.00e+00	0	58	0	3985637376	32	4234
2026-01-01 15:07:06.08	325.38	20.87	-31.5	-32.4	21.2	0.00e+00	0	58	0	3992977408	32	4262
2026-01-01 15:07:07.09	325.50	20.75	-31.5	-32.4	21.2	0.00e+00	0	58	0	4000317440	32	4266
2026-01-01 15:07:08.10	325.62	20.63	-31.5	-32.5	21.1	0.00e+00	0	58	0	4007657472	32	4293
2026-01-01 15:07:09.11	325.74	20.51	-31.6	-32.6	21.0	0.00e+00	0	58	0	4014997504	32	4343
2026-01-01 15:07:10.12	325.86	20.39	-31.7	-32.6	21.0	0.00e+00	0	58	0	4022337536	32	4372
2026-01-01 15:07:11.13	325.97	20.27	-31.7	-32.6	20.9	0.00e+00	0	58	0	4029677568	32	4383
2026-01-01 15:07:12.14	326.09	20.15	-31.7	-32.7	20.9	0.00e+00	0	58	0	4037017600	33	4157
2026-01-01 15:07:13.15	326.21	20.04	-31.8	-32.7	20.8	0.00e+00	0	58	0	4044357632	33	4178
2026-01-01 15:07:14.16	326.32	19.92	-31.8	-32.8	20.8	0.00e+00	0	58	0	4051697664	33	4209
2026-01-01 15:07:15.17	326.43	19.80	-31.8	-32.8	20.8	0.00e+00	0	58	0	4059037696	33	4200
2026-01-01 15:07:16.18	326.55	19.69	-31.9	-32.9	20.7	0.00e+00	0	58	0	4065329152	33	4247
2026-01-01 15:07:17.19	326.66	19.57	-31.9	-32.9	20.7	0.00e+00	0	58	0	4072669184	33	4257
2026-01-01 15:07:18.20	326.77	19.45	-32.0	-32.9	20.6	0.00e+00	0	58	0	4081057792	33	4277
2026-01-01 15:07:19.21	326.88	19.34	-32.0	-32.9	20.7	0.00e+00	0	58	0	4087349248	33	4267
2026-01-01 15:07:20.22	326.99	19.22	-32.0	-33.0	20.6	0.00e+00	0	58	0	4094689280	33	4297
2026-01-01 15:07:21.23	327.10	19.11	-32.0	-33.0	20.6	0.00e+00	0	58	0	4102029312	33	4313
2026-01-01 15:07:22.24	327.21	19.00	-32.1	-33.0	20.6	0.00e+00	0	58	0	4109369344	33	4322
2026-01-01 15:07:23.25	327.32	18.88	-32.0	-33.0	20.6	0.00e+00	0	58	0	4116709376	33	4298
2026-01-01 15:07:24.26	327.42	18.77	-32.0	-33.0	20.5	0.00e+00	0	58	0	4124049408	33	4319
2026-01-01 15:07:25.27	327.53	18.66	-32.0	-33.0	20.5	0.00e+00	0	58	0	4131389440	33	4319
2026-01-01 15:07:26.28	327.63	18.55	-32.0	-33.0	20.6	0.00e+00	0	58	0	4138729472	33	4310
2026-01-01 15:07:27.29	327.74	18.44	-32.1	-33.0	20.5	0.00e+00	0	58	0	4146069504	33	4330
2026-01-01 15:07:28.30	327.84	18.32	-32.0	-33.0	20.5	0.00e+00	0	58	0	4153409536	33	4317
2026-01-01 15:07:29.31	327.95	18.21	-32.0	-32.9	20.5	0.00e+00	0	58	0	4160749568	33	4287
2026-01-01 15:07:30.32	328.05	18.10	-32.0	-33.0	20.5	0.00e+00	0	58	0	4168089600	33	4316
2026-01-01 15:07:31.34	328.15	17.99	-32.0	-33.0	20.5	0.00e+00	0	58	0	4175429632	33	4322
2026-01-01 15:07:32.35	328.25	17.88	-32.0	-33.0	20.5	0.00e+00	0	58	0	4182769664	33	4298
2026-01-01 15:07:33.36	328.35	17.77	-32.1	-33.0	20.5	0.00e+00	0	58	0	4190109696	33	4331
2026-01-01 15:07:34.37	328.45	17.67	-32.0	-33.0	20.5	0.00e+00	0	58	0	4197449728	33	4303
2026-01-01 15:07:35.38	328.55	17.56	-32.1	-33.0	20.5	0.00e+00	0	58	0	4204789760	33	4337
2026-01-01 15:07:36.39	328.65	17.45	-32.1	-33.0	20.4	0.00e+00	0	58	0	4212129792	33	4330
2026-01-01 15:07:37.40	328.75	17.34	-32.0	-33.0	20.4	0.00e+00	0	58	0	4219469824	33	4323
2026-01-01 15:07:38.41	328.84	17.23	-32.1	-33.1	20.4	0.00e+00	0	58	0	4226809856	33	4349
2026-01-01 15:07:39.42	328.94	17.13	-32.1	-33.0	20.4	0.00e+00	0	58	0	4234149888	33	4332
2026-01-01 15:07:40.43	329.03	17.02	-32.2	-33.1	20.3	0.00e+00	0	58	0	4240441344	33	4382
2026-01-01 15:07:41.44	329.13	16.92	-32.2	-33.2	20.3	0.00e+00	0	58	0	4247781376	33	4392
2026-01-01 15:07:42.45	329.22	16.81	-32.2	-33.2	20.3	0.00e+00	0	58	0	4256169984	34	4174
2026-01-01 15:07:43.46	329.32	16.71	-32.3	-33.3	20.2	0.00e+00	0	58	0	4262461440	34	4202
2026-01-01 15:07:44.47	329.41	16.60	-32.3	-33.3	20.2	0.00e+00	0	58	0	4269801472	34	4226
2026-01-01 15:07:45.48	329.50	16.50	-32.4	-33.3	20.1	0.00e+00	0	58	0	4277141504	34	4236
2026-01-01 15:07:46.49	329.59	16.39	-32.5	-33.5	20.0	0.00e+00	0	58	0	4284481536	34	4316
2026-01-01 15:07:47.50	329.69	16.29	-32.4	-33.4	20.0	0.00e+00	0	58	0	4291821568	34	4286
2026-01-01 15:07:48.52	329.78	16.18	-32.6	-33.6	19.8	0.00e+00	0	58	0	4299161600	34	4365
2026-01-01 15:07:49.53	329.87	16.08	-32.6	-33.6	19.8	0.00e+00	0	58	0	4306501632	34	4391
2026-01-01 15:07:50.54	329.96	15.98	-32.7	-33.7	19.8	0.00e+00	0	58	0	4313841664	34	4415
2026-01-01 15:07:51.55	330.05	15.88	-32.7	-33.8	19.7	0.00e+00	0	58	0	4321181696	35	4198
2026-01-01 15:07:52.56	330.13	15.78	-32.8	-33.8	19.6	0.00e+00	0	58	0	4328521728	35	4212
2026-01-01 15:07:53.57	330.22	15.67	-32.8	-33.8	19.6	0.00e+00	0	58	0	4335861760	35	4241
2026-01-01 15:07:54.58	330.31	15.57	-32.8	-33.9	19.6	0.00e+00	0	58	0	4343201792	35	4245
2026-01-01 15:07:55.59	330.40	15.47	-32.9	-34.0	19.5	0.00e+00	0	58	0	4350541824	35	4294
2026-01-01 15:07:56.60	330.48	15.37	-32.9	-34.0	19.4	0.00e+00	0	58	0	4357881856	35	4302
2026-01-01 15:07:57.61	330.57	15.27	-33.0	-34.1	19.4	0.00e+00	0	58	0	4365221888	35	4349
2026-01-01 15:07:58.62	330.65	15.17	-33.0	-34.1	19.4	0.00e+00	0	58	0	4372561920	35	4352
2026-01-01 15:07:59.64	330.74	15.07	-33.0	-34.1	19.3	0.00e+00	0	58	0	4379901952	35	4373
2026-01-01 15:08:00.64	330.82	14.98	-33.1	-34.1	19.3	0.00e+00	0	58	0	4386193408	35	4390
2026-01-01 15:08:01.65	330.90	14.88	-33.1	-34.2	19.3	0.00e+00	0	58	0	4394582016	35	4397
2026-01-01 15:08:02.66	330.99	14.78	-33.1	-34.2	19.3	0.00e+00	0	58	0	4401922048	35	4405
2026-01-01 15:08:03.68	331.07	14.68	-33.1	-34.2	19.3	0.00e+00	0	58	0	4408213504	35	4400
2026-01-01 15:08:04.69	331.15	14.58	-33.1	-34.2	19.3	0.00e+00	0	58	0	4415553536	35	4403
2026-01-01 15:08:05.70	331.23	14.49	-33.2	-34.2	19.2	0.00e+00	0	58	0	4423942144	35	4440
2026-01-01 15:08:06.71	331.31	14.39	-33.1	-34.2	19.2	0.00e+00	0	58	0	4430233600	35	4422
2026-01-01 15:08:07.72	331.39	14.29	-33.1	-34.2	19.2	0.00e+00	0	58	0	4437573632	35	4415
2026-01-01 15:08:08.73	331.47	14.20	-33.1	-34.2	19.2	0.00e+00	0	58	0	4444913664	35	4410
2026-01-01 15:08:09.74	331.55	14.10	-33.1	-34.2	19.2	0.00e+00	0	58	0	4452253696	35	4419
2026-01-01 15:08:10.75	331.63	14.00	-33.1	-34.2	19.2	0.00e+00	0	58	0	4459593728	35	4396
2026-01-01 15:08:11.76	331.71	13.91	-33.1	-34.2	19.2	0.00e+00	0	58	0	4466933760	35	4420
2026-01-01 15:08:12.77	331.79	13.81	-33.1	-34.2	19.2	0.00e+00	0	58	0	4474273792	35	4419
2026-01-01 15:08:13.78	331.87	13.72	-33.1	-34.2	19.2	0.00e+00	0	58	0	4481613824	35	4408
