passes_logs/2026/01/01/R2.0S_Moscow/R2.0S_Moscow__20260101_053106_FENGYUN_3G_rec.log

#Pass ID: 20260101_053106_FENGYUN 3G
#Satellite: FENGYUN 3G
#Configuration: FENGYUN 3G
#almurnet v.1.7.20251203
#Start time: 2026-01-01 05:31:08

#Version: 2.2.20231116
#Station: R2.0S_Moscow
#Location: 37.707566 lon 55.798166 lat
#TLE: 1 56232U 23055A   25365.50856095  .00043589  00000+0  69982-3 0  9997
#TLE: 2 56232  49.9923 130.6499 0004081 319.7782  40.2882 15.52545779153944

#Time	Az	El	Level	Level2	SNR	BER	BlckErr	Temp	State	Recorded	gain1	gain2
2026-01-01 05:31:08.15	255.65	2.11	-44.1	-62.3	3.8	8.46e-01	0	48	0	0	60	28213
2026-01-01 05:31:09.17	255.58	2.18	-44.1	-62.3	3.8	8.43e-01	0	48	104	0	60	28206
2026-01-01 05:31:10.18	255.52	2.24	-44.1	-62.3	3.8	8.46e-01	0	48	104	0	60	28143
2026-01-01 05:31:11.19	255.46	2.31	-44.1	-62.3	3.8	8.46e-01	0	48	104	0	60	28183
2026-01-01 05:31:12.20	255.40	2.38	-44.1	-62.3	3.8	8.46e-01	0	48	104	0	60	28268
2026-01-01 05:31:13.21	255.33	2.44	-44.1	-62.3	3.8	8.47e-01	0	48	104	0	60	28229
2026-01-01 05:31:14.22	255.27	2.51	-44.1	-62.3	3.8	8.46e-01	0	48	104	0	60	28175
2026-01-01 05:31:15.23	255.20	2.58	-44.1	-62.3	3.8	8.46e-01	0	49	104	0	60	28183
2026-01-01 05:31:16.24	255.14	2.65	-44.0	-62.3	3.8	8.47e-01	0	49	104	0	60	28189
2026-01-01 05:31:17.25	255.07	2.72	-44.1	-62.3	3.8	8.45e-01	0	49	104	0	60	28112
2026-01-01 05:31:18.26	255.01	2.78	-44.1	-62.3	3.8	8.45e-01	0	49	104	0	60	28272
2026-01-01 05:31:19.28	254.94	2.85	-44.1	-62.3	3.8	8.46e-01	0	49	104	0	60	28142
2026-01-01 05:31:20.29	254.87	2.92	-44.1	-62.3	3.8	8.47e-01	0	49	104	0	60	28182
2026-01-01 05:31:21.30	254.80	2.99	-44.1	-62.3	3.8	8.47e-01	0	49	104	0	60	28197
2026-01-01 05:31:22.31	254.74	3.06	-44.1	-62.3	3.8	8.46e-01	0	49	104	0	60	28087
2026-01-01 05:31:23.32	254.67	3.13	-44.1	-62.3	3.8	8.46e-01	0	49	104	0	60	28078
2026-01-01 05:31:24.33	254.60	3.20	-44.1	-62.2	3.8	8.46e-01	0	49	104	0	60	27959
2026-01-01 05:31:25.34	254.53	3.27	-44.1	-62.2	3.8	8.46e-01	0	49	104	0	60	27901
2026-01-01 05:31:26.35	254.46	3.34	-44.1	-62.2	3.8	8.47e-01	0	49	104	0	60	27718
2026-01-01 05:31:27.36	254.39	3.41	-44.1	-62.1	3.8	8.46e-01	0	49	104	0	60	27434
2026-01-01 05:31:28.37	254.32	3.48	-44.1	-62.1	3.8	8.46e-01	0	50	104	0	60	27396
2026-01-01 05:31:29.38	254.25	3.55	-44.0	-62.0	3.8	8.45e-01	0	49	104	0	60	27146
2026-01-01 05:31:30.39	254.18	3.62	-44.0	-61.9	3.8	8.46e-01	0	50	104	0	60	26945
2026-01-01 05:31:31.41	254.10	3.69	-44.0	-61.9	3.8	8.46e-01	0	50	104	0	60	26922
2026-01-01 05:31:32.42	254.03	3.76	-44.1	-61.9	3.8	8.46e-01	0	50	104	0	60	26885
2026-01-01 05:31:33.43	253.96	3.84	-44.1	-62.0	3.8	8.45e-01	0	50	104	0	60	27077
2026-01-01 05:31:34.44	253.88	3.91	-44.1	-62.0	3.8	8.45e-01	0	50	104	0	60	27155
2026-01-01 05:31:35.45	253.81	3.98	-44.1	-62.0	3.8	8.48e-01	0	50	104	0	60	27358
2026-01-01 05:31:36.46	253.73	4.05	-44.1	-62.1	3.8	8.46e-01	0	50	104	0	60	27600
2026-01-01 05:31:37.48	253.66	4.13	-44.1	-62.2	3.8	8.46e-01	0	50	104	0	60	27993
2026-01-01 05:31:38.49	253.58	4.20	-44.1	-62.2	3.8	8.46e-01	0	50	104	0	60	28022
2026-01-01 05:31:39.50	253.50	4.27	-44.1	-62.3	3.8	8.44e-01	0	50	104	0	60	28154
2026-01-01 05:31:40.51	253.43	4.35	-44.1	-62.3	3.8	8.46e-01	0	50	104	0	60	28164
2026-01-01 05:31:41.52	253.35	4.42	-44.1	-62.3	3.8	8.46e-01	0	50	104	0	60	28237
2026-01-01 05:31:42.53	253.27	4.49	-44.1	-62.3	3.8	8.46e-01	0	50	104	0	60	28126
2026-01-01 05:31:43.54	253.19	4.57	-44.1	-62.3	3.8	8.46e-01	0	51	104	0	60	28174
2026-01-01 05:31:44.55	253.11	4.64	-44.1	-62.3	3.8	8.46e-01	0	50	104	0	60	28119
2026-01-01 05:31:45.56	253.03	4.72	-44.1	-62.2	3.8	8.46e-01	0	51	104	0	60	27969
2026-01-01 05:31:46.57	252.95	4.79	-44.1	-62.2	3.8	8.45e-01	0	51	104	0	60	27784
2026-01-01 05:31:47.59	252.87	4.87	-44.0	-62.1	3.8	8.45e-01	0	51	104	0	60	27526
2026-01-01 05:31:48.60	252.79	4.95	-44.0	-62.0	3.8	8.45e-01	0	51	104	0	60	27328
2026-01-01 05:31:49.61	252.71	5.02	-44.0	-61.8	3.8	8.45e-01	0	51	104	0	60	26667
2026-01-01 05:31:50.62	252.62	5.10	-44.1	-61.7	3.8	8.46e-01	0	51	104	0	60	26266
2026-01-01 05:31:51.63	252.54	5.17	-44.0	-61.5	3.8	8.46e-01	0	51	104	0	60	25674
2026-01-01 05:31:52.64	252.45	5.25	-44.0	-61.3	3.8	8.46e-01	0	51	104	0	60	25108
2026-01-01 05:31:53.65	252.37	5.33	-44.0	-61.2	3.8	8.46e-01	0	51	104	0	60	24885
2026-01-01 05:31:54.66	252.28	5.41	-44.0	-61.3	3.8	8.46e-01	0	51	104	0	60	25174
2026-01-01 05:31:55.67	252.20	5.48	-44.0	-61.4	3.8	8.46e-01	0	51	104	0	60	25340
2026-01-01 05:31:56.68	252.11	5.56	-44.0	-61.6	3.8	8.47e-01	0	51	104	0	60	25892
2026-01-01 05:31:57.70	252.02	5.64	-44.0	-61.7	3.8	8.47e-01	0	51	104	0	60	26339
2026-01-01 05:31:58.71	251.93	5.72	-44.0	-62.1	3.8	8.45e-01	0	51	104	0	60	27409
2026-01-01 05:31:59.72	251.84	5.80	-44.1	-62.2	3.8	8.47e-01	0	51	104	0	60	27895
2026-01-01 05:32:00.73	251.75	5.88	-44.1	-62.3	3.8	8.46e-01	0	52	104	0	60	28183
2026-01-01 05:32:01.74	251.66	5.96	-44.1	-62.2	3.8	8.46e-01	0	51	104	0	60	27978
2026-01-01 05:32:02.75	251.57	6.04	-44.1	-62.1	3.8	8.46e-01	0	51	104	0	60	27436
2026-01-01 05:32:03.76	251.48	6.12	-44.1	-61.7	3.8	8.47e-01	0	52	104	0	60	26347
2026-01-01 05:32:04.77	251.39	6.20	-44.0	-61.0	3.8	8.47e-01	0	52	104	0	60	24301
2026-01-01 05:32:05.78	251.29	6.28	-44.0	-60.3	3.8	8.45e-01	0	52	104	0	60	22412
2026-01-01 05:32:06.80	251.20	6.36	-44.0	-59.4	4.0	8.45e-01	0	51	104	0	60	20150
2026-01-01 05:32:07.81	251.10	6.44	-44.0	-58.5	4.2	8.45e-01	0	51	0	0	59	19376
2026-01-01 05:32:08.82	251.01	6.53	-44.0	-57.9	4.5	8.40e-01	0	52	0	0	59	17961
2026-01-01 05:32:09.83	250.91	6.61	-44.0	-57.2	4.8	8.25e-01	0	52	0	0	59	16614
2026-01-01 05:32:10.84	250.81	6.69	-44.0	-57.1	4.9	8.25e-01	0	52	0	0	59	16345
2026-01-01 05:32:11.85	250.72	6.77	-44.0	-57.8	4.5	7.98e-01	0	52	0	0	59	17813
2026-01-01 05:32:12.86	250.62	6.86	-44.1	-59.2	4.1	8.15e-01	0	52	0	0	59	20930
2026-01-01 05:32:13.87	250.52	6.94	-44.1	-60.1	3.9	8.42e-01	0	52	104	0	59	23240
2026-01-01 05:32:14.89	250.42	7.02	-44.1	-60.0	3.9	8.42e-01	0	52	104	0	59	22815
2026-01-01 05:32:15.90	250.32	7.11	-43.9	-57.5	4.5	8.46e-01	0	52	0	0	59	17253
2026-01-01 05:32:16.91	250.21	7.19	-43.7	-54.2	6.7	7.47e-01	0	52	0	0	59	11728
2026-01-01 05:32:17.92	250.11	7.28	-43.2	-51.0	9.9	7.47e-01	0	52	0	1572864	58	8617
2026-01-01 05:32:18.93	250.01	7.36	-42.5	-48.4	12.7	9.78e-02	0	52	0	2621440	57	6727
2026-01-01 05:32:19.94	249.90	7.45	-41.6	-46.2	14.7	1.59e-03	0	52	0	3670016	55	5914
2026-01-01 05:32:20.95	249.80	7.54	-40.8	-44.6	16.4	1.59e-03	0	52	0	4718592	53	5486
2026-01-01 05:32:21.97	249.69	7.62	-39.9	-43.0	18.2	4.23e-05	0	52	0	5767168	51	5103
2026-01-01 05:32:22.98	249.58	7.71	-39.1	-41.8	19.3	0.00e+00	0	53	0	6815744	50	4730
2026-01-01 05:32:23.99	249.47	7.80	-38.5	-41.0	20.2	0.00e+00	0	52	0	8388608	49	4554
2026-01-01 05:32:25.00	249.37	7.88	-38.2	-40.5	20.7	0.00e+00	0	53	0	9437184	48	4569
2026-01-01 05:32:26.01	249.26	7.97	-38.0	-40.3	20.9	0.00e+00	0	52	0	10485760	48	4444
2026-01-01 05:32:27.02	249.14	8.06	-38.0	-40.3	20.9	0.00e+00	0	52	0	11534336	47	4712
2026-01-01 05:32:28.03	249.03	8.15	-44.0	-56.2	5.2	0.00e+00	0	53	0	12582912	58	15652
2026-01-01 05:32:29.04	248.92	8.24	-39.1	-41.7	19.6	1.19e-01	0	53	0	13631488	49	4961
2026-01-01 05:32:30.05	248.81	8.33	-43.4	-52.6	8.6	4.50e-06	0	53	0	14680064	57	10916
2026-01-01 05:32:31.06	248.69	8.42	-40.1	-43.2	18.3	4.50e-06	0	53	0	15728640	50	5556
2026-01-01 05:32:32.07	248.58	8.51	-41.0	-45.0	16.1	4.25e-03	0	53	0	17301504	52	6078
2026-01-01 05:32:33.08	248.46	8.60	-38.0	-40.3	20.9	0.00e+00	0	53	0	18350080	48	4475
2026-01-01 05:32:34.09	248.34	8.69	-38.0	-40.3	21.0	0.00e+00	0	53	0	19398656	48	4446
2026-01-01 05:32:35.09	248.22	8.78	-37.8	-40.0	21.2	0.00e+00	0	53	0	20447232	47	4589
2026-01-01 05:32:36.11	248.10	8.87	-37.9	-40.1	21.1	0.00e+00	0	53	0	21495808	47	4640
2026-01-01 05:32:37.11	247.98	8.97	-37.8	-40.1	21.1	0.00e+00	0	53	0	22544384	47	4608
2026-01-01 05:32:38.12	247.86	9.06	-37.6	-39.7	21.5	0.00e+00	0	53	0	24117248	47	4428
2026-01-01 05:32:39.13	247.74	9.15	-37.6	-39.8	21.5	0.00e+00	0	53	0	25165824	47	4462
2026-01-01 05:32:40.14	247.61	9.24	-37.6	-39.7	21.5	0.00e+00	0	53	0	26214400	47	4414
2026-01-01 05:32:41.15	247.49	9.34	-37.4	-39.4	21.8	0.00e+00	0	53	0	27262976	46	4535
2026-01-01 05:32:42.16	247.36	9.43	-37.4	-39.4	21.8	0.00e+00	0	53	0	28311552	46	4534
2026-01-01 05:32:43.17	247.24	9.53	-37.7	-39.8	21.5	0.00e+00	0	53	0	29360128	46	4757
2026-01-01 05:32:44.18	247.11	9.62	-37.7	-39.9	21.4	0.00e+00	0	53	0	30932992	46	4773
2026-01-01 05:32:45.19	246.98	9.72	-37.6	-39.7	21.6	0.00e+00	0	53	0	31981568	46	4681
2026-01-01 05:32:46.20	246.85	9.82	-37.5	-39.7	21.6	0.00e+00	0	53	0	33030144	46	4663
2026-01-01 05:32:47.21	246.71	9.91	-37.6	-39.7	21.6	0.00e+00	0	53	0	34078720	46	4682
2026-01-01 05:32:48.22	246.58	10.01	-37.4	-39.5	21.8	0.00e+00	0	53	0	35127296	46	4581
2026-01-01 05:32:49.23	246.45	10.11	-37.2	-39.2	22.1	0.00e+00	0	53	0	36175872	46	4419
2026-01-01 05:32:50.24	246.31	10.20	-36.8	-38.8	22.5	0.00e+00	0	53	0	37748736	45	4467
2026-01-01 05:32:51.25	246.17	10.30	-36.7	-38.7	22.6	0.00e+00	0	53	0	38797312	45	4394
2026-01-01 05:32:52.26	246.04	10.40	-36.7	-38.6	22.7	0.00e+00	0	53	0	39845888	45	4360
2026-01-01 05:32:53.27	245.90	10.50	-36.4	-38.3	23.0	0.00e+00	0	53	0	40894464	44	4449
2026-01-01 05:32:54.28	245.76	10.60	-36.3	-38.1	23.2	0.00e+00	0	53	0	41943040	44	4387
2026-01-01 05:32:55.29	245.61	10.70	-36.4	-38.2	23.1	0.00e+00	0	53	0	42991616	44	4438
2026-01-01 05:32:56.30	245.47	10.80	-36.5	-38.4	23.0	0.00e+00	0	53	0	44564480	44	4507
2026-01-01 05:32:57.30	245.33	10.90	-36.5	-38.3	23.0	0.00e+00	0	53	0	45613056	44	4479
2026-01-01 05:32:58.31	245.18	11.00	-36.4	-38.3	23.1	0.00e+00	0	54	0	46661632	44	4448
2026-01-01 05:32:59.32	245.03	11.11	-36.6	-38.5	22.9	0.00e+00	0	53	0	47710208	44	4556
2026-01-01 05:33:00.34	244.88	11.21	-36.6	-38.5	22.9	0.00e+00	0	53	0	48758784	44	4555
2026-01-01 05:33:01.35	244.73	11.31	-36.5	-38.4	23.0	0.00e+00	0	54	0	49807360	44	4507
2026-01-01 05:33:02.35	244.58	11.42	-36.7	-38.6	22.8	0.00e+00	0	54	0	51380224	44	4608
2026-01-01 05:33:03.36	244.43	11.52	-36.8	-38.7	22.7	0.00e+00	0	54	0	52428800	44	4691
2026-01-01 05:33:04.37	244.28	11.62	-36.7	-38.6	22.8	0.00e+00	0	54	0	53477376	44	4639
2026-01-01 05:33:05.38	244.12	11.73	-36.7	-38.6	22.8	0.00e+00	0	54	0	54525952	44	4606
2026-01-01 05:33:06.39	243.96	11.84	-36.7	-38.6	22.8	0.00e+00	0	53	0	55574528	44	4640
2026-01-01 05:33:07.40	243.80	11.94	-36.6	-38.5	22.9	0.00e+00	0	54	0	56623104	44	4546
2026-01-01 05:33:08.41	243.64	12.05	-36.3	-38.1	23.2	0.00e+00	0	54	0	58195968	44	4387
2026-01-01 05:33:09.42	243.48	12.16	-36.1	-37.9	23.5	0.00e+00	0	54	0	59244544	44	4274
2026-01-01 05:33:10.43	243.32	12.26	-36.0	-37.7	23.7	0.00e+00	0	54	0	60293120	44	4177
2026-01-01 05:33:11.44	243.15	12.37	-35.7	-37.5	23.8	0.00e+00	0	54	0	61341696	43	4294
2026-01-01 05:33:12.45	242.99	12.48	-35.7	-37.4	23.8	0.00e+00	0	54	0	62390272	43	4250
2026-01-01 05:33:13.46	242.82	12.59	-35.7	-37.4	23.8	0.00e+00	0	54	0	63438848	43	4288
2026-01-01 05:33:14.47	242.65	12.70	-35.9	-37.7	23.6	0.00e+00	0	54	0	65011712	43	4394
2026-01-01 05:33:15.48	242.48	12.81	-35.8	-37.6	23.6	0.00e+00	0	54	0	66060288	43	4365
2026-01-01 05:33:16.49	242.30	12.92	-36.0	-37.8	23.5	0.00e+00	0	54	0	67108864	43	4465
2026-01-01 05:33:17.50	242.13	13.03	-36.1	-37.9	23.3	0.00e+00	0	54	0	68157440	43	4527
2026-01-01 05:33:18.51	241.95	13.14	-35.9	-37.6	23.6	0.00e+00	0	54	0	69206016	43	4370
2026-01-01 05:33:19.52	241.77	13.26	-35.8	-37.6	23.7	0.00e+00	0	54	0	70254592	43	4360
2026-01-01 05:33:20.53	241.59	13.37	-35.8	-37.5	23.7	0.00e+00	0	54	0	71827456	43	4340
2026-01-01 05:33:21.54	241.41	13.48	-35.6	-37.3	23.9	0.00e+00	0	54	0	72876032	43	4220
2026-01-01 05:33:22.55	241.23	13.60	-35.6	-37.3	24.0	0.00e+00	0	54	0	73924608	43	4217
2026-01-01 05:33:23.56	241.04	13.71	-35.4	-37.1	24.1	0.00e+00	0	54	0	74973184	42	4346
2026-01-01 05:33:24.57	240.85	13.83	-35.2	-36.9	24.3	0.00e+00	0	54	0	76021760	42	4259
2026-01-01 05:33:25.58	240.66	13.94	-35.3	-37.0	24.3	0.00e+00	0	54	0	77070336	42	4300
2026-01-01 05:33:26.59	240.47	14.06	-35.5	-37.1	24.2	0.00e+00	0	54	0	78643200	42	4378
2026-01-01 05:33:27.60	240.28	14.18	-35.6	-37.3	23.9	0.00e+00	0	54	0	79691776	42	4473
2026-01-01 05:33:28.61	240.08	14.29	-35.7	-37.5	23.8	0.00e+00	0	54	0	80740352	42	4564
2026-01-01 05:33:29.62	239.88	14.41	-35.9	-37.6	23.6	0.00e+00	0	54	0	81788928	42	4642
2026-01-01 05:33:30.62	239.69	14.53	-35.6	-37.3	24.0	0.00e+00	0	54	0	82837504	42	4488
2026-01-01 05:33:31.63	239.48	14.65	-35.5	-37.2	24.2	0.00e+00	0	54	0	83886080	42	4407
2026-01-01 05:33:32.64	239.28	14.77	-35.4	-37.1	24.2	0.00e+00	0	54	0	85458944	42	4349
2026-01-01 05:33:33.65	239.07	14.89	-35.2	-36.8	24.5	0.00e+00	0	54	0	86507520	42	4215
2026-01-01 05:33:34.66	238.87	15.01	-35.3	-36.9	24.4	0.00e+00	0	54	0	87556096	42	4263
2026-01-01 05:33:35.67	238.66	15.13	-35.2	-36.9	24.4	0.00e+00	0	54	0	88604672	42	4264
2026-01-01 05:33:36.68	238.44	15.25	-35.4	-37.0	24.3	0.00e+00	0	54	0	89653248	42	4325
2026-01-01 05:33:37.69	238.23	15.37	-35.6	-37.2	24.1	0.00e+00	0	54	0	90701824	42	4441
2026-01-01 05:33:38.70	238.01	15.49	-35.4	-37.1	24.2	0.00e+00	0	54	0	92274688	42	4368
2026-01-01 05:33:39.71	237.79	15.62	-35.3	-37.0	24.3	0.00e+00	0	54	0	93323264	42	4302
2026-01-01 05:33:40.72	237.57	15.74	-35.2	-36.8	24.5	0.00e+00	0	54	0	94371840	42	4219
2026-01-01 05:33:41.73	237.35	15.87	-34.8	-36.4	24.9	0.00e+00	0	54	0	95420416	41	4261
2026-01-01 05:33:42.74	237.12	15.99	-34.7	-36.3	25.0	0.00e+00	0	54	0	96468992	41	4199
2026-01-01 05:33:43.75	236.89	16.12	-34.4	-35.9	25.3	0.00e+00	0	54	0	97517568	40	4276
2026-01-01 05:33:44.75	236.66	16.24	-34.4	-35.9	25.4	0.00e+00	0	54	0	98566144	40	4268
2026-01-01 05:33:45.77	236.43	16.37	-34.5	-36.1	25.3	0.00e+00	0	54	0	100139008	40	4351
2026-01-01 05:33:46.78	236.19	16.50	-34.5	-36.0	25.3	0.00e+00	0	54	0	101187584	40	4311
2026-01-01 05:33:47.79	235.95	16.62	-34.5	-36.1	25.2	0.00e+00	0	54	0	102236160	40	4358
2026-01-01 05:33:48.80	235.71	16.75	-34.2	-35.7	25.5	0.00e+00	0	54	0	103284736	40	4178
2026-01-01 05:33:49.81	235.47	16.88	-34.1	-35.6	25.7	0.00e+00	0	54	0	104333312	40	4120
2026-01-01 05:33:50.82	235.22	17.01	-34.0	-35.5	25.8	0.00e+00	0	54	0	105906176	40	4085
2026-01-01 05:33:51.83	234.98	17.14	-34.1	-35.6	25.6	0.00e+00	0	55	0	106954752	40	4139
2026-01-01 05:33:52.84	234.72	17.27	-34.1	-35.7	25.6	0.00e+00	0	54	0	108003328	40	4146
2026-01-01 05:33:53.85	234.47	17.40	-34.1	-35.5	25.7	0.00e+00	0	55	0	109051904	40	4092
2026-01-01 05:33:54.86	234.21	17.53	-34.1	-35.6	25.7	0.00e+00	0	55	0	110100480	40	4137
2026-01-01 05:33:55.86	233.96	17.66	-34.0	-35.5	25.7	0.00e+00	0	54	0	111149056	39	4318
2026-01-01 05:33:56.87	233.69	17.79	-34.2	-35.7	25.7	0.00e+00	0	55	0	112721920	39	4394
2026-01-01 05:33:57.88	233.43	17.93	-34.2	-35.6	25.7	0.00e+00	0	55	0	113770496	39	4385
2026-01-01 05:33:58.89	233.16	18.06	-34.3	-35.8	25.4	0.00e+00	0	54	0	114819072	39	4473
2026-01-01 05:33:59.90	232.89	18.19	-34.2	-35.7	25.5	0.00e+00	0	55	0	115867648	39	4408
2026-01-01 05:34:00.91	232.61	18.33	-34.0	-35.5	25.8	0.00e+00	0	55	0	116916224	39	4320
2026-01-01 05:34:01.92	232.34	18.46	-33.9	-35.4	26.0	0.00e+00	0	54	0	117964800	39	4252
2026-01-01 05:34:02.93	232.06	18.60	-33.9	-35.4	26.0	0.00e+00	0	55	0	119537664	39	4248
2026-01-01 05:34:03.94	231.77	18.73	-34.0	-35.5	25.9	0.00e+00	0	55	0	120586240	39	4326
2026-01-01 05:34:04.95	231.49	18.87	-33.9	-35.4	26.0	0.00e+00	0	55	0	121634816	39	4271
2026-01-01 05:34:05.96	231.20	19.00	-34.0	-35.4	26.0	0.00e+00	0	55	0	122683392	39	4279
2026-01-01 05:34:06.97	230.90	19.14	-34.0	-35.4	26.0	0.00e+00	0	54	0	123731968	39	4276
2026-01-01 05:34:07.98	230.61	19.28	-34.0	-35.5	25.9	0.00e+00	0	55	0	124780544	39	4324
2026-01-01 05:34:08.99	230.31	19.41	-34.0	-35.5	25.9	0.00e+00	0	55	0	126353408	39	4327
2026-01-01 05:34:10.00	230.01	19.55	-34.0	-35.5	26.0	0.00e+00	0	55	0	127401984	39	4297
2026-01-01 05:34:11.01	229.70	19.69	-34.0	-35.5	25.9	0.00e+00	0	55	0	128450560	39	4318
2026-01-01 05:34:12.02	229.39	19.83	-34.0	-35.5	25.9	0.00e+00	0	55	0	129499136	39	4307
2026-01-01 05:34:13.03	229.08	19.97	-34.0	-35.4	26.0	0.00e+00	0	55	0	130547712	39	4283
2026-01-01 05:34:14.04	228.76	20.10	-33.8	-35.3	26.1	0.00e+00	0	55	0	131596288	39	4199
2026-01-01 05:34:15.05	228.44	20.24	-33.8	-35.2	26.2	0.00e+00	0	55	0	133169152	39	4174
2026-01-01 05:34:16.06	228.12	20.38	-33.7	-35.1	26.3	0.00e+00	0	55	0	134217728	39	4133
2026-01-01 05:34:17.07	227.79	20.52	-33.7	-35.1	26.3	0.00e+00	0	55	0	135266304	39	4117
2026-01-01 05:34:18.08	227.46	20.66	-33.8	-35.2	26.2	0.00e+00	0	55	0	136314880	39	4169
2026-01-01 05:34:19.09	227.13	20.80	-33.8	-35.3	26.2	0.00e+00	0	55	0	137363456	39	4210
2026-01-01 05:34:20.10	226.79	20.94	-34.0	-35.4	26.0	0.00e+00	0	55	0	138412032	39	4280
2026-01-01 05:34:21.11	226.45	21.08	-33.9	-35.3	26.1	0.00e+00	0	55	0	139984896	39	4215
2026-01-01 05:34:22.12	226.11	21.22	-33.8	-35.3	26.2	0.00e+00	0	55	0	141033472	39	4205
2026-01-01 05:34:23.13	225.76	21.36	-34.1	-35.5	25.9	0.00e+00	0	55	0	142082048	39	4332
2026-01-01 05:34:24.14	225.41	21.50	-34.1	-35.6	25.9	0.00e+00	0	55	0	143130624	39	4357
2026-01-01 05:34:25.15	225.05	21.64	-33.9	-35.4	26.1	0.00e+00	0	55	0	144179200	39	4259
2026-01-01 05:34:26.16	224.69	21.78	-33.7	-35.1	26.3	0.00e+00	0	55	0	145227776	39	4127
2026-01-01 05:34:27.17	224.33	21.92	-33.5	-34.9	26.5	0.00e+00	0	55	0	146800640	39	4044
2026-01-01 05:34:28.18	223.96	22.06	-33.5	-34.9	26.6	0.00e+00	0	55	0	147849216	38	4268
2026-01-01 05:34:29.19	223.59	22.21	-33.4	-34.8	26.7	0.00e+00	0	55	0	148897792	38	4221
2026-01-01 05:34:30.19	223.21	22.34	-33.2	-34.6	26.9	0.00e+00	0	55	0	149946368	38	4132
2026-01-01 05:34:31.20	222.83	22.48	-33.3	-34.7	26.8	0.00e+00	0	55	0	150994944	38	4156
2026-01-01 05:34:32.21	222.45	22.62	-33.3	-34.7	26.8	0.00e+00	0	55	0	152043520	38	4158
2026-01-01 05:34:33.22	222.06	22.76	-33.3	-34.7	26.8	0.00e+00	0	55	0	153616384	38	4173
2026-01-01 05:34:34.23	221.67	22.90	-33.4	-34.8	26.7	0.00e+00	0	55	0	154664960	38	4196
2026-01-01 05:34:35.25	221.27	23.05	-33.4	-34.8	26.7	0.00e+00	0	55	0	155713536	38	4211
2026-01-01 05:34:36.26	220.87	23.18	-33.3	-34.7	26.8	0.00e+00	0	55	0	156762112	38	4179
2026-01-01 05:34:37.27	220.46	23.32	-33.1	-34.5	26.9	0.00e+00	0	55	0	157810688	38	4076
2026-01-01 05:34:38.27	220.06	23.46	-32.8	-34.1	27.2	0.00e+00	0	55	0	158859264	37	4135
2026-01-01 05:34:39.29	219.64	23.60	-32.9	-34.3	27.1	0.00e+00	0	55	0	160432128	37	4211
2026-01-01 05:34:40.29	219.23	23.74	-33.1	-34.5	27.0	0.00e+00	0	55	0	161480704	37	4306
2026-01-01 05:34:41.31	218.80	23.87	-33.0	-34.3	27.1	0.00e+00	0	55	0	162529280	37	4231
2026-01-01 05:34:42.32	218.38	24.01	-32.9	-34.2	27.2	0.00e+00	0	55	0	163577856	37	4175
2026-01-01 05:34:43.32	217.95	24.15	-32.9	-34.2	27.2	0.00e+00	0	55	0	164626432	37	4180
2026-01-01 05:34:44.34	217.51	24.28	-32.8	-34.1	27.3	0.00e+00	0	55	0	165675008	37	4140
2026-01-01 05:34:45.35	217.07	24.42	-32.8	-34.2	27.3	0.00e+00	0	55	0	167247872	37	4146
2026-01-01 05:34:46.36	216.63	24.55	-32.7	-34.0	27.4	0.00e+00	0	55	0	168296448	37	4069
2026-01-01 05:34:47.37	216.18	24.68	-32.6	-34.0	27.5	0.00e+00	0	55	0	169345024	37	4052
2026-01-01 05:34:48.38	215.73	24.82	-32.6	-33.9	27.5	0.00e+00	0	55	0	170393600	37	4014
2026-01-01 05:34:49.39	215.27	24.95	-33.1	-34.5	27.0	0.00e+00	0	55	0	171442176	37	4293
2026-01-01 05:34:50.40	214.81	25.08	-33.0	-34.4	27.1	0.00e+00	0	55	0	172490752	37	4255
2026-01-01 05:34:51.41	214.35	25.21	-33.1	-34.4	27.0	0.00e+00	0	55	0	174063616	37	4284
2026-01-01 05:34:52.42	213.88	25.34	-32.9	-34.2	27.2	0.00e+00	0	55	0	175112192	37	4192
2026-01-01 05:34:53.43	213.40	25.47	-33.0	-34.4	27.1	0.00e+00	0	55	0	176160768	37	4253
2026-01-01 05:34:54.44	212.92	25.59	-33.0	-34.3	27.1	0.00e+00	0	55	0	177209344	37	4233
2026-01-01 05:34:55.45	212.44	25.72	-32.9	-34.2	27.2	0.00e+00	0	55	0	178257920	37	4181
2026-01-01 05:34:56.46	211.95	25.84	-33.0	-34.4	27.0	0.00e+00	0	55	0	179306496	37	4249
2026-01-01 05:34:57.47	211.46	25.96	-32.9	-34.2	27.2	0.00e+00	0	55	0	180879360	37	4187
2026-01-01 05:34:58.48	210.96	26.09	-32.6	-33.9	27.5	0.00e+00	0	55	0	181927936	37	4040
2026-01-01 05:34:59.49	210.46	26.21	-32.8	-34.1	27.4	0.00e+00	0	55	0	182976512	37	4131
2026-01-01 05:35:00.50	209.96	26.32	-32.7	-34.0	27.4	0.00e+00	0	55	0	184025088	37	4075
2026-01-01 05:35:01.51	209.45	26.44	-32.5	-33.8	27.5	0.00e+00	0	55	0	185073664	37	3998
2026-01-01 05:35:02.52	208.93	26.56	-32.3	-33.6	27.9	0.00e+00	0	55	0	186122240	36	4113
2026-01-01 05:35:03.53	208.42	26.67	-32.6	-33.9	27.5	0.00e+00	0	55	0	187695104	36	4256
2026-01-01 05:35:04.54	207.90	26.78	-32.8	-34.2	27.3	0.00e+00	0	56	0	188743680	36	4395
2026-01-01 05:35:05.55	207.37	26.89	-32.8	-34.2	27.3	0.00e+00	0	55	0	189792256	36	4394
2026-01-01 05:35:06.56	206.84	27.00	-32.8	-34.2	27.3	0.00e+00	0	56	0	190840832	36	4398
2026-01-01 05:35:07.58	206.30	27.11	-33.0	-34.3	27.2	0.00e+00	0	55	0	191889408	36	4488
2026-01-01 05:35:08.59	205.76	27.21	-32.5	-33.9	27.5	0.00e+00	0	56	0	192937984	36	4264
2026-01-01 05:35:09.60	205.22	27.32	-32.6	-34.0	27.4	0.00e+00	0	55	0	194510848	36	4305
2026-01-01 05:35:10.61	204.67	27.42	-32.5	-33.8	27.5	0.00e+00	0	56	0	195559424	36	4232
2026-01-01 05:35:11.61	204.13	27.52	-32.4	-33.7	27.7	0.00e+00	0	56	0	196608000	36	4188
2026-01-01 05:35:12.63	203.57	27.61	-32.6	-33.9	27.5	0.00e+00	0	56	0	197656576	36	4262
2026-01-01 05:35:13.64	203.01	27.71	-32.9	-34.3	27.2	0.00e+00	0	55	0	198705152	36	4467
2026-01-01 05:35:14.64	202.45	27.80	-32.4	-33.7	27.7	0.00e+00	0	56	0	199753728	36	4176
2026-01-01 05:35:15.65	201.89	27.89	-32.2	-33.5	27.9	0.00e+00	0	56	0	201326592	36	4087
2026-01-01 05:35:16.66	201.32	27.97	-32.4	-33.7	27.7	0.00e+00	0	56	0	202375168	36	4161
2026-01-01 05:35:17.67	200.75	28.06	-32.1	-33.3	28.0	0.00e+00	0	55	0	203423744	36	4001
2026-01-01 05:35:18.68	200.17	28.14	-31.4	-32.7	28.0	0.00e+00	0	56	0	204472320	34	4166
2026-01-01 05:35:19.69	199.59	28.22	-32.0	-33.3	27.5	0.00e+00	0	55	0	205520896	34	4479
2026-01-01 05:35:20.70	199.01	28.30	-31.7	-33.0	27.3	0.00e+00	0	56	0	206569472	34	4323
2026-01-01 05:35:21.71	198.43	28.37	-31.7	-33.0	27.7	0.00e+00	0	55	0	208142336	34	4314
2026-01-01 05:35:22.72	197.84	28.44	-32.1	-33.4	27.4	0.00e+00	0	55	0	209190912	34	4526
2026-01-01 05:35:23.73	197.25	28.51	-32.0	-33.4	27.5	0.00e+00	0	56	0	210239488	34	4522
2026-01-01 05:35:24.74	196.65	28.58	-32.3	-33.7	27.2	0.00e+00	0	56	0	211288064	35	4396
2026-01-01 05:35:25.75	196.06	28.64	-32.5	-33.9	27.0	0.00e+00	0	56	0	212336640	35	4499
2026-01-01 05:35:26.76	195.46	28.70	-32.2	-33.6	27.2	0.00e+00	0	56	0	213385216	35	4372
2026-01-01 05:35:27.77	194.86	28.76	-32.1	-33.4	27.5	0.00e+00	0	56	0	214958080	35	4271
2026-01-01 05:35:28.78	194.25	28.81	-31.9	-33.3	27.5	0.00e+00	0	56	0	216006656	35	4202
2026-01-01 05:35:29.79	193.65	28.86	-31.8	-33.1	27.7	0.00e+00	0	56	0	217055232	35	4121
2026-01-01 05:35:30.80	193.04	28.91	-32.2	-33.5	27.3	0.00e+00	0	56	0	218103808	35	4325
2026-01-01 05:35:31.81	192.43	28.95	-32.3	-33.7	27.1	0.00e+00	0	56	0	219152384	35	4425
2026-01-01 05:35:32.82	191.82	28.99	-32.1	-33.4	27.4	0.00e+00	0	56	0	220200960	35	4290
2026-01-01 05:35:33.83	191.20	29.03	-31.9	-33.3	27.5	0.00e+00	0	56	0	221773824	35	4214
2026-01-01 05:35:34.84	190.59	29.07	-31.6	-33.0	27.7	0.00e+00	0	56	0	222822400	35	4062
2026-01-01 05:35:35.85	189.97	29.10	-31.9	-33.2	27.6	0.00e+00	0	56	0	223870976	35	4173
2026-01-01 05:35:36.86	189.35	29.13	-32.1	-33.5	27.3	0.00e+00	0	56	0	224919552	35	4318
2026-01-01 05:35:37.87	188.73	29.15	-31.8	-33.1	27.7	0.00e+00	0	56	0	225968128	35	4133
2026-01-01 05:35:38.88	188.11	29.17	-31.8	-33.1	27.6	0.00e+00	0	56	0	227016704	35	4140
2026-01-01 05:35:39.89	187.49	29.19	-31.4	-32.8	27.7	0.00e+00	0	56	0	228589568	34	4196
2026-01-01 05:35:40.90	186.87	29.21	-31.4	-32.7	28.0	0.00e+00	0	56	0	229638144	34	4170
2026-01-01 05:35:41.91	186.25	29.22	-31.6	-32.9	27.7	0.00e+00	0	56	0	230686720	34	4283
2026-01-01 05:35:42.91	185.63	29.23	-31.8	-33.1	27.7	0.00e+00	0	56	0	231735296	34	4371
2026-01-01 05:35:43.93	185.00	29.23	-31.7	-33.0	27.8	0.00e+00	0	56	0	232783872	34	4314
2026-01-01 05:35:44.94	184.38	29.23	-31.6	-33.0	27.8	0.00e+00	0	56	0	233832448	34	4296
2026-01-01 05:35:45.95	183.76	29.23	-31.5	-32.8	27.9	0.00e+00	0	56	0	235405312	34	4231
2026-01-01 05:35:46.96	183.13	29.22	-31.7	-33.0	27.8	0.00e+00	0	56	0	236453888	34	4321
2026-01-01 05:35:47.97	182.51	29.21	-32.0	-33.4	27.4	0.00e+00	0	56	0	237502464	34	4509
2026-01-01 05:35:48.97	181.90	29.20	-32.0	-33.3	27.5	0.00e+00	0	56	0	238551040	34	4483
2026-01-01 05:35:49.98	181.27	29.19	-32.2	-33.5	27.3	0.00e+00	0	56	0	239599616	34	4593
2026-01-01 05:35:50.99	180.65	29.17	-32.0	-33.3	27.5	0.00e+00	0	56	0	240648192	34	4473
2026-01-01 05:35:52.00	180.03	29.14	-31.6	-32.9	27.8	0.00e+00	0	56	0	242221056	34	4264
2026-01-01 05:35:53.01	179.42	29.12	-31.8	-33.1	27.6	0.00e+00	0	56	0	243269632	34	4386
2026-01-01 05:35:54.02	178.80	29.09	-31.7	-33.0	27.7	0.00e+00	0	56	0	244318208	34	4330
2026-01-01 05:35:55.03	178.18	29.06	-31.8	-33.2	27.6	0.00e+00	0	56	0	245366784	34	4404
2026-01-01 05:35:56.04	177.57	29.02	-31.9	-33.2	27.6	0.00e+00	0	56	0	246415360	34	4417
2026-01-01 05:35:57.05	176.95	28.98	-31.6	-33.0	27.8	0.00e+00	0	56	0	247463936	34	4311
2026-01-01 05:35:58.06	176.34	28.94	-31.6	-32.9	27.9	0.00e+00	0	56	0	249036800	34	4269
2026-01-01 05:35:59.07	175.73	28.89	-31.9	-33.2	27.6	0.00e+00	0	56	0	250085376	34	4439
2026-01-01 05:36:00.08	175.13	28.85	-32.3	-33.8	27.1	0.00e+00	0	56	0	251133952	35	4444
2026-01-01 05:36:01.09	174.52	28.79	-32.4	-33.8	27.1	0.00e+00	0	56	0	252182528	35	4455
2026-01-01 05:36:02.10	173.92	28.74	-32.1	-33.5	27.4	0.00e+00	0	56	0	253231104	35	4307
2026-01-01 05:36:03.11	173.32	28.68	-32.1	-33.4	27.4	0.00e+00	0	56	0	254279680	35	4289
2026-01-01 05:36:04.12	172.72	28.62	-31.8	-33.2	27.6	0.00e+00	0	56	0	255852544	35	4155
2026-01-01 05:36:05.13	172.12	28.56	-32.0	-33.4	27.5	0.00e+00	0	56	0	256901120	35	4252
2026-01-01 05:36:06.14	171.53	28.49	-31.8	-33.2	27.7	0.00e+00	0	56	0	257949696	35	4158
2026-01-01 05:36:07.15	170.94	28.42	-31.5	-32.8	27.9	0.00e+00	0	56	0	258998272	35	3988
2026-01-01 05:36:08.16	170.35	28.35	-31.3	-32.7	28.1	0.00e+00	0	56	0	260046848	34	4158
2026-01-01 05:36:09.17	169.77	28.28	-31.7	-33.0	27.8	0.00e+00	0	56	0	261095424	34	4316
2026-01-01 05:36:10.19	169.18	28.20	-31.7	-33.1	27.7	0.00e+00	0	56	0	262668288	34	4349
2026-01-01 05:36:11.19	168.61	28.12	-32.1	-33.5	27.4	0.00e+00	0	56	0	263716864	34	4584
2026-01-01 05:36:12.20	168.04	28.03	-32.1	-33.5	27.3	0.00e+00	0	56	0	264765440	34	4586
2026-01-01 05:36:13.21	167.47	27.95	-31.8	-33.1	27.7	0.00e+00	0	56	0	265814016	34	4386
2026-01-01 05:36:14.23	166.89	27.86	-31.8	-33.1	27.7	0.00e+00	0	56	0	266862592	34	4389
2026-01-01 05:36:15.24	166.33	27.77	-31.7	-33.0	27.8	0.00e+00	0	56	0	267911168	34	4332
2026-01-01 05:36:16.25	165.77	27.68	-32.0	-33.4	27.5	0.00e+00	0	56	0	269484032	34	4529
2026-01-01 05:36:17.26	165.21	27.58	-32.0	-33.3	27.6	0.00e+00	0	56	0	270532608	34	4493
2026-01-01 05:36:18.26	164.66	27.49	-32.2	-33.6	27.4	0.00e+00	0	56	0	271581184	34	4606
2026-01-01 05:36:19.28	164.11	27.39	-32.2	-33.6	27.4	0.00e+00	0	56	0	272629760	34	4637
2026-01-01 05:36:20.29	163.57	27.29	-32.1	-33.5	27.5	0.00e+00	0	56	0	273678336	35	4296
2026-01-01 05:36:21.30	163.02	27.18	-32.1	-33.4	27.5	0.00e+00	0	56	0	274726912	35	4284
2026-01-01 05:36:22.31	162.49	27.08	-31.9	-33.3	27.6	0.00e+00	0	56	0	276299776	35	4217
2026-01-01 05:36:23.32	161.95	26.97	-32.2	-33.6	27.4	0.00e+00	0	56	0	277348352	35	4391
2026-01-01 05:36:24.33	161.43	26.86	-32.4	-33.8	27.2	0.00e+00	0	56	0	278396928	35	4451
2026-01-01 05:36:25.34	160.90	26.75	-32.2	-33.6	27.4	0.00e+00	0	56	0	279445504	35	4345
2026-01-01 05:36:26.35	160.38	26.64	-31.9	-33.3	27.7	0.00e+00	0	56	0	280494080	35	4199
2026-01-01 05:36:27.36	159.86	26.52	-32.5	-33.9	27.1	0.00e+00	0	56	0	282066944	35	4520
2026-01-01 05:36:28.37	159.35	26.41	-33.2	-34.6	27.0	0.00e+00	0	56	0	283115520	37	4380
2026-01-01 05:36:29.38	158.84	26.29	-33.0	-34.3	27.3	0.00e+00	0	56	0	284164096	37	4239
2026-01-01 05:36:30.39	158.34	26.17	-32.7	-34.1	27.5	0.00e+00	0	56	0	285212672	37	4114
2026-01-01 05:36:31.40	157.84	26.05	-32.6	-34.0	27.5	0.00e+00	0	56	0	286261248	37	4053
2026-01-01 05:36:32.41	157.35	25.93	-32.5	-33.8	27.8	0.00e+00	0	56	0	287309824	36	4226
2026-01-01 05:36:33.42	156.86	25.81	-32.6	-33.9	27.6	0.00e+00	0	56	0	288358400	36	4271
2026-01-01 05:36:34.43	156.37	25.68	-32.7	-34.1	27.5	0.00e+00	0	56	0	289931264	36	4365
2026-01-01 05:36:35.44	155.89	25.56	-32.7	-34.1	27.4	0.00e+00	0	56	0	290979840	36	4361
2026-01-01 05:36:36.45	155.41	25.43	-33.0	-34.4	27.2	0.00e+00	0	56	0	292028416	36	4508
2026-01-01 05:36:37.46	154.94	25.30	-33.1	-34.5	27.1	0.00e+00	0	56	0	293076992	36	4572
2026-01-01 05:36:38.47	154.47	25.17	-33.6	-35.0	26.7	0.00e+00	0	56	0	294125568	37	4577
2026-01-01 05:36:39.48	154.01	25.04	-33.4	-34.9	26.8	0.00e+00	0	56	0	295174144	37	4502
2026-01-01 05:36:40.49	153.55	24.91	-33.0	-34.4	27.1	0.00e+00	0	56	0	296747008	37	4245
2026-01-01 05:36:41.50	153.09	24.78	-32.6	-34.0	27.5	0.00e+00	0	56	0	297795584	37	4067
2026-01-01 05:36:42.51	152.64	24.65	-32.6	-34.0	27.5	0.00e+00	0	56	0	298844160	37	4068
2026-01-01 05:36:43.52	152.19	24.51	-32.8	-34.2	27.3	0.00e+00	0	56	0	299892736	37	4148
2026-01-01 05:36:44.53	151.75	24.38	-32.5	-33.9	27.6	0.00e+00	0	56	0	300941312	37	4025
2026-01-01 05:36:45.54	151.32	24.24	-32.4	-33.7	27.7	0.00e+00	0	56	0	301989888	36	4164
2026-01-01 05:36:46.55	150.88	24.11	-32.5	-33.8	27.6	0.00e+00	0	56	0	303562752	36	4230
2026-01-01 05:36:47.56	150.45	23.97	-32.7	-34.0	27.5	0.00e+00	0	56	0	304611328	36	4337
2026-01-01 05:36:48.58	150.02	23.83	-33.1	-34.5	27.1	0.00e+00	0	56	0	305659904	36	4577
2026-01-01 05:36:49.59	149.60	23.70	-33.2	-34.6	26.9	0.00e+00	0	56	0	306708480	37	4376
2026-01-01 05:36:50.60	149.19	23.56	-33.2	-34.6	26.9	0.00e+00	0	56	0	307757056	37	4388
2026-01-01 05:36:51.61	148.78	23.42	-33.2	-34.6	26.9	0.00e+00	0	56	0	309329920	37	4356
2026-01-01 05:36:52.62	148.37	23.28	-32.8	-34.2	27.2	0.00e+00	0	56	0	310378496	37	4174
2026-01-01 05:36:53.63	147.97	23.14	-32.7	-34.1	27.4	0.00e+00	0	56	0	311427072	37	4114
2026-01-01 05:36:54.64	147.57	23.00	-32.6	-34.0	27.4	0.00e+00	0	56	0	312475648	37	4086
2026-01-01 05:36:55.65	147.17	22.87	-32.8	-34.2	27.2	0.00e+00	0	56	0	313524224	37	4156
2026-01-01 05:36:56.66	146.78	22.73	-33.1	-34.5	27.0	0.00e+00	0	56	0	314572800	37	4293
2026-01-01 05:36:57.67	146.39	22.59	-33.4	-34.9	26.6	0.00e+00	0	56	0	316145664	37	4500
2026-01-01 05:36:58.68	146.01	22.45	-33.7	-35.2	26.4	0.00e+00	0	56	0	317194240	37	4653
2026-01-01 05:36:59.69	145.63	22.31	-33.7	-35.2	26.4	0.00e+00	0	56	0	318242816	37	4653
2026-01-01 05:37:00.70	145.26	22.16	-33.3	-34.8	26.7	0.00e+00	0	56	0	319291392	37	4445
2026-01-01 05:37:01.71	144.89	22.02	-32.9	-34.3	27.1	0.00e+00	0	56	0	320339968	37	4237
2026-01-01 05:37:02.72	144.52	21.88	-33.1	-34.5	27.0	0.00e+00	0	56	0	321388544	37	4318
2026-01-01 05:37:03.72	144.16	21.74	-33.5	-35.0	26.5	0.00e+00	0	56	0	322961408	37	4559
2026-01-01 05:37:04.74	143.80	21.60	-33.8	-35.2	26.3	0.00e+00	0	56	0	324009984	38	4439
2026-01-01 05:37:05.75	143.45	21.46	-33.6	-35.0	26.5	0.00e+00	0	56	0	325058560	38	4320
2026-01-01 05:37:06.76	143.10	21.32	-33.4	-34.8	26.6	0.00e+00	0	56	0	326107136	38	4236
2026-01-01 05:37:07.77	142.75	21.18	-33.4	-34.9	26.6	0.00e+00	0	56	0	327155712	38	4250
2026-01-01 05:37:08.78	142.41	21.04	-33.7	-35.2	26.3	0.00e+00	0	56	0	328204288	38	4417
2026-01-01 05:37:09.79	142.07	20.90	-34.0	-35.5	26.0	0.00e+00	0	56	0	329252864	38	4569
2026-01-01 05:37:10.80	141.73	20.76	-34.1	-35.6	25.9	0.00e+00	0	56	0	330825728	38	4651
2026-01-01 05:37:11.81	141.40	20.62	-34.0	-35.5	25.9	0.00e+00	0	56	0	331874304	38	4586
2026-01-01 05:37:12.82	141.07	20.48	-33.8	-35.3	26.1	0.00e+00	0	56	0	332922880	38	4478
2026-01-01 05:37:13.83	140.74	20.34	-33.6	-35.0	26.3	0.00e+00	0	56	0	333971456	38	4331
2026-01-01 05:37:14.84	140.42	20.20	-33.4	-34.9	26.5	0.00e+00	0	56	0	335020032	38	4246
2026-01-01 05:37:15.85	140.10	20.07	-33.5	-34.9	26.4	0.00e+00	0	56	0	336068608	38	4271
2026-01-01 05:37:16.86	139.79	19.93	-33.8	-35.3	26.1	0.00e+00	0	56	0	337641472	38	4469
2026-01-01 05:37:17.87	139.48	19.79	-34.3	-35.8	25.6	0.00e+00	0	56	0	338690048	39	4461
2026-01-01 05:37:18.88	139.17	19.65	-34.3	-35.9	25.6	0.00e+00	0	56	0	339738624	39	4495
2026-01-01 05:37:19.89	138.86	19.51	-34.3	-35.8	25.6	0.00e+00	0	56	0	340787200	39	4465
2026-01-01 05:37:20.90	138.56	19.38	-34.1	-35.6	25.8	0.00e+00	0	56	0	341835776	39	4355
2026-01-01 05:37:21.91	138.27	19.24	-34.0	-35.5	25.8	0.00e+00	0	56	0	343408640	39	4310
2026-01-01 05:37:22.92	137.97	19.10	-34.1	-35.6	25.8	0.00e+00	0	56	0	344457216	39	4349
2026-01-01 05:37:23.93	137.68	18.97	-34.3	-35.8	25.6	0.00e+00	0	56	0	345505792	39	4466
2026-01-01 05:37:24.94	137.39	18.83	-34.2	-35.7	25.7	0.00e+00	0	56	0	346554368	39	4425
2026-01-01 05:37:25.95	137.10	18.69	-34.2	-35.7	25.6	0.00e+00	0	56	0	347602944	39	4429
2026-01-01 05:37:26.96	136.82	18.56	-34.2	-35.7	25.7	0.00e+00	0	56	0	348651520	39	4423
2026-01-01 05:37:27.97	136.54	18.43	-34.1	-35.6	25.7	0.00e+00	0	56	0	350224384	39	4374
2026-01-01 05:37:28.98	136.27	18.29	-34.2	-35.7	25.7	0.00e+00	0	56	0	351272960	39	4399
2026-01-01 05:37:29.99	135.99	18.16	-34.1	-35.6	25.7	0.00e+00	0	56	0	352321536	39	4376
2026-01-01 05:37:31.00	135.72	18.02	-34.1	-35.5	25.8	0.00e+00	0	56	0	353370112	39	4335
2026-01-01 05:37:32.01	135.46	17.89	-34.0	-35.5	25.8	0.00e+00	0	56	0	354418688	39	4308
2026-01-01 05:37:33.02	135.19	17.76	-34.1	-35.6	25.7	0.00e+00	0	56	0	355467264	39	4386
2026-01-01 05:37:34.03	134.93	17.63	-34.4	-36.0	25.4	0.00e+00	0	56	0	357040128	39	4546
2026-01-01 05:37:35.04	134.67	17.50	-34.6	-36.2	25.1	0.00e+00	0	56	0	358088704	39	4674
2026-01-01 05:37:36.05	134.42	17.37	-34.5	-36.2	25.1	0.00e+00	0	56	0	359137280	39	4667
2026-01-01 05:37:37.06	134.16	17.23	-34.4	-35.9	25.3	0.00e+00	0	56	0	360185856	39	4536
2026-01-01 05:37:38.07	133.91	17.10	-34.3	-35.8	25.0	0.00e+00	0	56	0	361234432	39	4465
2026-01-01 05:37:39.08	133.66	16.98	-30.2	-34.9	22.8	2.20e-06	0	56	0	362283008	34	5398
2026-01-01 05:37:40.09	133.42	16.85	-34.1	-35.6	21.7	4.50e-06	0	56	0	363331584	38	4620
2026-01-01 05:37:41.10	133.18	16.72	-34.2	-35.7	24.3	4.50e-06	0	56	0	364904448	38	4684
2026-01-01 05:37:42.11	132.94	16.59	-34.3	-35.8	25.1	0.00e+00	0	56	0	365953024	39	4481
2026-01-01 05:37:43.12	132.70	16.46	-32.1	-36.0	24.9	1.10e-06	0	56	0	367001600	38	4820
2026-01-01 05:37:44.13	132.46	16.34	-34.7	-36.3	24.2	1.10e-06	0	56	0	368050176	40	4457
2026-01-01 05:37:45.14	132.23	16.21	-34.6	-36.5	24.4	2.51e-05	0	56	0	369098752	40	4553
2026-01-01 05:37:46.15	132.00	16.08	-34.9	-36.8	24.2	3.40e-06	0	56	0	370147328	40	4731
2026-01-01 05:37:47.16	131.77	15.96	-35.2	-36.9	20.7	3.40e-06	0	56	0	371720192	40	4806
2026-01-01 05:37:48.17	131.55	15.83	-35.0	-36.7	22.2	2.44e-04	0	56	0	372768768	40	4662
2026-01-01 05:37:49.18	131.33	15.71	-34.5	-36.3	23.5	2.51e-05	0	56	0	373817344	40	4486
2026-01-01 05:37:50.19	131.11	15.59	-34.2	-36.1	24.4	1.48e-05	0	56	0	374865920	39	4599
2026-01-01 05:37:51.20	130.89	15.46	-33.5	-35.9	24.8	1.48e-05	0	56	0	375914496	39	4525
2026-01-01 05:37:52.21	130.67	15.34	-34.2	-35.9	24.5	4.50e-06	0	56	0	377487360	38	4794
2026-01-01 05:37:53.22	130.46	15.22	-33.8	-36.3	23.8	1.94e-05	0	56	0	378535936	39	4734
2026-01-01 05:37:54.23	130.25	15.10	-34.1	-36.7	21.3	1.94e-05	0	56	0	379584512	38	5261
2026-01-01 05:37:55.24	130.04	14.98	-24.8	-36.0	15.0	3.22e-04	0	56	0	380633088	20	13695
2026-01-01 05:37:56.25	129.83	14.86	-23.8	-36.7	13.9	1.80e-02	0	56	0	381681664	26	10451
2026-01-01 05:37:57.26	129.62	14.74	-35.1	-37.7	17.2	1.80e-02	0	56	0	382730240	40	5252
2026-01-01 05:37:58.27	129.42	14.62	-34.2	-37.8	18.0	7.14e-03	0	56	0	384303104	38	5931
2026-01-01 05:37:59.28	129.22	14.50	-35.0	-37.5	20.3	2.42e-03	0	56	0	385351680	39	5444
2026-01-01 05:38:00.29	129.02	14.38	-30.8	-37.2	16.5	2.42e-03	0	56	0	386400256	35	6623
2026-01-01 05:38:01.30	128.82	14.26	-24.2	-36.0	12.4	3.26e-03	0	56	0	387448832	26	9639
2026-01-01 05:38:02.31	128.63	14.15	-32.5	-37.0	18.3	5.06e-02	0	56	0	388497408	38	5445
2026-01-01 05:38:03.32	128.44	14.03	-32.8	-37.0	17.9	7.84e-03	0	56	0	389545984	36	6063
2026-01-01 05:38:04.33	128.25	13.91	-29.8	-36.1	14.8	7.84e-03	0	56	0	390594560	31	7335
2026-01-01 05:38:05.34	128.06	13.80	-31.9	-36.7	16.0	1.25e-02	0	56	0	392167424	34	6581
2026-01-01 05:38:06.35	127.87	13.68	-28.6	-36.8	15.6	1.23e-02	0	56	0	393216000	32	7478
2026-01-01 05:38:07.36	127.68	13.57	-32.0	-36.9	15.5	1.23e-02	0	56	0	394264576	34	6739
2026-01-01 05:38:08.37	127.50	13.46	-32.0	-38.1	15.8	1.36e-01	0	56	0	395313152	38	6202
2026-01-01 05:38:09.38	127.32	13.34	-29.6	-37.5	15.5	1.61e-02	0	56	0	396361728	33	7689
2026-01-01 05:38:10.39	127.14	13.23	-31.7	-37.6	15.2	1.61e-02	0	56	0	397410304	34	7346
2026-01-01 05:38:11.40	126.96	13.12	-34.2	-38.1	16.5	1.81e-02	0	56	0	398458880	37	6519
2026-01-01 05:38:12.41	126.79	13.01	-31.6	-37.7	16.8	1.33e-02	0	56	0	399507456	37	6258
2026-01-01 05:38:13.42	126.61	12.89	-23.4	-36.1	7.0	1.33e-02	0	56	0	400556032	16	17415
2026-01-01 05:38:14.43	126.44	12.78	-34.1	-38.0	15.5	9.96e-02	0	56	0	401604608	36	6859
2026-01-01 05:38:15.44	126.27	12.67	-34.4	-38.4	15.9	3.88e-02	0	56	0	402653184	38	6416
2026-01-01 05:38:16.45	126.10	12.56	-31.6	-38.4	16.2	2.17e-02	0	57	0	404226048	38	6349
2026-01-01 05:38:17.46	125.93	12.46	-33.6	-38.2	15.2	2.17e-02	0	56	0	405274624	38	6219
2026-01-01 05:38:18.47	125.76	12.35	-34.6	-38.3	16.7	1.50e-02	0	57	0	406323200	39	5951
2026-01-01 05:38:19.48	125.60	12.24	-33.2	-38.0	12.6	4.51e-02	0	56	0	407371776	30	9614
2026-01-01 05:38:20.49	125.44	12.13	-34.6	-38.5	17.6	4.51e-02	0	56	0	408420352	40	5745
2026-01-01 05:38:21.50	125.27	12.02	-31.6	-38.1	16.7	3.29e-02	0	56	0	409468928	35	7326
2026-01-01 05:38:22.51	125.11	11.92	-33.5	-38.8	18.6	7.76e-03	0	56	0	410517504	42	5287
2026-01-01 05:38:23.52	124.96	11.81	-35.8	-38.7	18.6	7.76e-03	0	56	0	412090368	39	6208
2026-01-01 05:38:24.53	124.80	11.71	-33.8	-38.7	19.3	3.90e-03	0	56	0	413138944	42	5259
2026-01-01 05:38:25.54	124.64	11.60	-24.1	-36.6	8.5	3.03e-03	0	57	0	414187520	21	13740
2026-01-01 05:38:26.55	124.49	11.50	-34.9	-38.9	18.8	3.03e-03	0	56	0	415236096	41	5690
2026-01-01 05:38:27.56	124.34	11.39	-34.7	-38.4	19.8	2.72e-02	0	56	0	416284672	41	5368
2026-01-01 05:38:28.57	124.19	11.29	-36.3	-38.6	20.3	1.20e-03	0	57	0	417333248	43	4874
2026-01-01 05:38:29.58	124.04	11.19	-35.7	-38.6	21.4	2.15e-04	0	56	0	418906112	43	4882
2026-01-01 05:38:30.59	123.89	11.08	-35.3	-38.5	20.8	2.15e-04	0	57	0	419954688	42	5133
2026-01-01 05:38:31.60	123.74	10.98	-32.6	-38.7	19.4	1.44e-04	0	56	0	421003264	40	5923
2026-01-01 05:38:32.61	123.60	10.88	-35.0	-38.4	19.4	1.42e-03	0	56	0	422051840	42	5049
2026-01-01 05:38:33.63	123.45	10.78	-36.3	-38.4	21.7	1.42e-03	0	56	0	423100416	43	4813
2026-01-01 05:38:34.64	123.31	10.68	-36.4	-38.6	18.5	1.94e-05	0	56	0	424148992	36	7362
2026-01-01 05:38:35.65	123.17	10.58	-36.3	-38.7	21.7	6.89e-04	0	56	0	425721856	43	4927
2026-01-01 05:38:36.66	123.03	10.48	-36.4	-38.6	21.4	6.89e-04	0	56	0	426770432	42	5206
2026-01-01 05:38:37.67	122.89	10.38	-36.5	-39.3	20.1	0.00e+00	0	57	0	427819008	41	5992
2026-01-01 05:38:38.68	122.75	10.28	-36.5	-38.9	21.3	9.10e-06	0	56	0	428867584	43	5063
2026-01-01 05:38:39.68	122.61	10.18	-35.6	-38.9	21.2	9.10e-06	0	57	0	429916160	42	5347
2026-01-01 05:38:40.69	122.48	10.09	-36.6	-39.8	20.1	0.00e+00	0	57	0	430964736	43	5628
2026-01-01 05:38:41.70	122.34	9.99	-37.6	-41.4	18.4	0.00e+00	0	56	0	432537600	46	5682
2026-01-01 05:38:42.71	122.21	9.89	-35.9	-42.6	17.1	9.26e-05	0	57	0	433586176	43	7742
2026-01-01 05:38:43.72	122.08	9.80	-35.0	-44.1	14.3	9.26e-05	0	57	0	434634752	43	9262
2026-01-01 05:38:44.73	121.95	9.70	-26.4	-43.6	12.7	4.25e-03	0	57	0	435683328	32	16357
2026-01-01 05:38:45.74	121.82	9.60	-35.9	-43.1	14.9	5.99e-02	0	56	0	436731904	43	8269
2026-01-01 05:38:46.75	121.69	9.51	-36.2	-44.0	13.2	5.99e-02	0	56	0	437780480	43	9082
2026-01-01 05:38:47.76	121.57	9.41	-34.1	-45.4	13.2	1.37e-02	0	57	0	438829056	43	10739
2026-01-01 05:38:48.77	121.44	9.32	-33.2	-45.0	13.0	2.12e-02	0	57	0	440401920	42	10903
2026-01-01 05:38:49.78	121.32	9.23	-34.2	-43.9	12.8	2.12e-02	0	57	0	441450496	38	11995
2026-01-01 05:38:50.79	121.19	9.13	-31.2	-38.8	15.2	4.22e-02	0	57	0	442499072	31	10015
2026-01-01 05:38:51.80	121.07	9.04	-29.7	-36.9	17.4	1.30e-02	0	56	0	443547648	29	8987
2026-01-01 05:38:52.81	120.95	8.95	-29.2	-37.7	15.5	1.00e-02	0	57	0	444596224	26	11763
2026-01-01 05:38:53.82	120.83	8.85	-27.6	-40.2	9.7	1.00e-02	0	57	0	445644800	24	17654
2026-01-01 05:38:54.83	120.71	8.76	-27.8	-42.2	12.0	1.75e-01	0	56	0	446693376	26	19762
2026-01-01 05:38:55.84	120.59	8.67	-25.0	-41.9	10.9	1.13e-01	0	57	0	447741952	22	23885
2026-01-01 05:38:56.85	120.47	8.58	-25.6	-42.6	10.1	1.13e-01	0	57	0	448790528	22	26108
2026-01-01 05:38:57.86	120.36	8.49	-24.7	-43.2	8.7	1.39e-01	0	57	0	449839104	20	31229
2026-01-01 05:38:58.87	120.24	8.40	-24.2	-44.2	8.6	2.80e-01	0	57	0	450887680	19	37207
2026-01-01 05:38:59.88	120.13	8.31	-22.6	-43.1	8.8	2.80e-01	0	57	0	451411968	18	34733
2026-01-01 05:39:00.89	120.01	8.22	-22.2	-41.9	7.8	3.42e-01	0	57	0	452460544	18	30297
2026-01-01 05:39:01.90	119.90	8.13	-24.3	-40.3	10.2	3.33e-01	0	57	0	453509120	16	28252
2026-01-01 05:39:02.91	119.79	8.04	-20.5	-39.9	8.2	3.33e-01	0	57	0	454557696	11	35805
2026-01-01 05:39:03.92	119.68	7.96	-21.8	-46.3	3.6	2.97e-01	0	57	104	455081984	14	63339
2026-01-01 05:39:04.93	119.57	7.87	-44.2	-62.8	3.8	6.59e-01	0	56	104	455081984	59	31495
2026-01-01 05:39:05.94	119.46	7.78	-44.7	-62.9	3.8	8.46e-01	0	57	104	455081984	60	30213
2026-01-01 05:39:06.95	119.35	7.69	-45.0	-63.1	3.8	8.46e-01	0	57	104	455081984	60	30962
2026-01-01 05:39:07.97	119.24	7.61	-45.1	-63.3	3.8	8.48e-01	0	57	104	455081984	60	31473
2026-01-01 05:39:08.98	119.14	7.52	-45.2	-63.4	3.8	8.45e-01	0	57	104	455081984	60	31974
2026-01-01 05:39:09.99	119.03	7.43	-45.3	-63.5	3.8	8.45e-01	0	57	104	455081984	61	30534
2026-01-01 05:39:11.00	118.93	7.35	-45.4	-63.6	3.8	8.46e-01	0	57	104	455081984	61	30820
2026-01-01 05:39:12.01	118.82	7.26	-45.4	-63.6	3.8	8.45e-01	0	57	104	455081984	61	31032
2026-01-01 05:39:13.02	118.72	7.18	-45.4	-63.7	3.8	8.45e-01	0	57	104	455081984	61	31148
2026-01-01 05:39:14.03	118.62	7.09	-45.4	-63.6	3.8	8.46e-01	0	57	104	455081984	61	31032
2026-01-01 05:39:15.04	118.52	7.01	-45.3	-63.6	3.8	8.46e-01	0	57	104	455081984	61	30878
2026-01-01 05:39:16.05	118.42	6.93	-45.2	-63.5	3.8	8.46e-01	0	57	104	455081984	61	30650
2026-01-01 05:39:17.06	118.32	6.84	-45.2	-63.5	3.8	8.47e-01	0	57	104	455081984	61	30471
2026-01-01 05:39:18.08	118.22	6.76	-45.1	-63.5	3.8	8.46e-01	0	57	104	455081984	61	30409
2026-01-01 05:39:19.09	118.12	6.68	-45.1	-63.5	3.8	8.46e-01	0	57	104	455081984	61	30400
2026-01-01 05:39:20.10	118.03	6.59	-45.1	-63.4	3.8	8.46e-01	0	57	104	455081984	61	30163
2026-01-01 05:39:21.11	117.93	6.51	-45.1	-63.4	3.8	8.45e-01	0	57	104	455081984	61	30155
2026-01-01 05:39:22.12	117.83	6.43	-45.1	-63.4	3.8	8.46e-01	0	57	104	455081984	61	30120
2026-01-01 05:39:23.13	117.74	6.35	-45.1	-63.4	3.8	8.46e-01	0	57	104	455081984	61	30167
2026-01-01 05:39:24.14	117.65	6.27	-45.1	-63.4	3.8	8.46e-01	0	57	104	455081984	61	30047
2026-01-01 05:39:25.15	117.55	6.19	-45.1	-63.4	3.8	8.47e-01	0	57	104	455081984	61	30153
2026-01-01 05:39:26.17	117.46	6.11	-45.1	-63.4	3.8	8.47e-01	0	57	104	455081984	61	30164
2026-01-01 05:39:27.18	117.37	6.03	-45.0	-63.4	3.8	8.47e-01	0	57	104	455081984	61	30097
2026-01-01 05:39:28.19	117.28	5.95	-45.0	-63.4	3.8	8.47e-01	0	57	104	455081984	61	30067
2026-01-01 05:39:29.20	117.19	5.87	-45.1	-63.4	3.8	8.47e-01	0	57	104	455081984	61	30106
2026-01-01 05:39:30.21	117.10	5.79	-45.1	-63.4	3.8	8.47e-01	0	57	104	455081984	61	30084
2026-01-01 05:39:31.22	117.01	5.71	-45.1	-63.4	3.8	8.45e-01	0	57	104	455081984	61	30139
2026-01-01 05:39:32.23	116.92	5.63	-45.1	-63.4	3.8	8.46e-01	0	57	104	455081984	61	30150
2026-01-01 05:39:33.24	116.83	5.55	-45.1	-63.4	3.8	8.46e-01	0	57	104	455081984	61	30159
2026-01-01 05:39:34.25	116.75	5.47	-45.0	-63.4	3.8	8.44e-01	0	57	104	455081984	61	30076
2026-01-01 05:39:35.26	116.66	5.40	-45.1	-63.4	3.8	8.46e-01	0	57	104	455081984	61	30059
2026-01-01 05:39:36.27	116.57	5.32	-45.0	-63.4	3.8	8.46e-01	0	57	104	455081984	61	30110
2026-01-01 05:39:37.29	116.49	5.24	-45.1	-63.4	3.8	8.46e-01	0	57	104	455081984	61	30113
2026-01-01 05:39:38.30	116.40	5.16	-45.0	-63.4	3.8	8.45e-01	0	57	104	455081984	61	30103
2026-01-01 05:39:39.31	116.32	5.09	-45.0	-63.4	3.8	8.45e-01	0	57	104	455081984	61	30080
2026-01-01 05:39:40.32	116.24	5.01	-45.0	-63.4	3.8	8.47e-01	0	57	104	455081984	61	30106
2026-01-01 05:39:41.33	116.16	4.93	-45.0	-63.4	3.8	8.45e-01	0	57	104	455081984	61	30124
2026-01-01 05:39:42.34	116.07	4.86	-45.0	-63.4	3.8	8.47e-01	0	57	104	455081984	61	30049
2026-01-01 05:39:43.35	115.99	4.78	-45.0	-63.4	3.8	8.47e-01	0	57	104	455081984	61	30060
2026-01-01 05:39:44.36	115.91	4.71	-45.0	-63.4	3.8	8.46e-01	0	57	104	455081984	61	30105
2026-01-01 05:39:45.37	115.83	4.63	-45.0	-63.4	3.8	8.46e-01	0	57	104	455081984	61	30053
2026-01-01 05:39:46.38	115.75	4.56	-45.0	-63.4	3.8	8.46e-01	0	57	104	455081984	61	30097
2026-01-01 05:39:47.40	115.67	4.48	-45.0	-63.4	3.8	8.47e-01	0	57	104	455081984	61	30117
2026-01-01 05:39:48.41	115.59	4.41	-45.0	-63.4	3.8	8.46e-01	0	57	104	455081984	61	30110
2026-01-01 05:39:49.42	115.52	4.34	-45.0	-63.4	3.8	8.46e-01	0	57	104	455081984	61	30058
2026-01-01 05:39:50.43	115.44	4.26	-45.0	-63.3	3.8	8.45e-01	0	57	104	455081984	61	30006
2026-01-01 05:39:51.44	115.36	4.19	-45.0	-63.3	3.8	8.45e-01	0	57	104	455081984	61	30014
2026-01-01 05:39:52.45	115.29	4.12	-45.0	-63.4	3.8	8.45e-01	0	57	104	455081984	61	30061
2026-01-01 05:39:53.46	115.21	4.04	-45.0	-63.3	3.8	8.46e-01	0	57	104	455081984	61	30023
2026-01-01 05:39:54.47	115.14	3.97	-45.0	-63.3	3.8	8.46e-01	0	57	104	455081984	61	29960
2026-01-01 05:39:55.48	115.06	3.90	-45.0	-63.4	3.8	8.46e-01	0	57	104	455081984	61	30119
2026-01-01 05:39:56.49	114.99	3.83	-45.0	-63.3	3.8	8.46e-01	0	57	104	455081984	61	30005
2026-01-01 05:39:57.51	114.92	3.76	-45.0	-63.3	3.8	8.46e-01	0	57	104	455081984	61	30028
2026-01-01 05:39:58.52	114.84	3.68	-45.0	-63.3	3.8	8.46e-01	0	57	104	455081984	61	29950
2026-01-01 05:39:59.53	114.77	3.61	-45.0	-63.4	3.8	8.46e-01	0	57	104	455081984	61	30045
2026-01-01 05:40:00.54	114.70	3.54	-45.0	-63.3	3.8	8.46e-01	0	57	104	455081984	61	30027
2026-01-01 05:40:01.55	114.63	3.47	-45.0	-63.3	3.8	8.46e-01	0	57	104	455081984	61	30002
2026-01-01 05:40:02.56	114.56	3.40	-45.0	-63.3	3.8	8.46e-01	0	57	104	455081984	61	30013
2026-01-01 05:40:03.57	114.49	3.33	-45.0	-63.3	3.8	8.47e-01	0	57	104	455081984	61	29979
2026-01-01 05:40:04.58	114.42	3.26	-45.0	-63.3	3.8	8.46e-01	0	57	104	455081984	61	29968
2026-01-01 05:40:05.59	114.35	3.19	-45.0	-63.3	3.8	8.46e-01	0	57	104	455081984	61	29969
2026-01-01 05:40:06.60	114.28	3.12	-45.0	-63.3	3.8	8.46e-01	0	57	104	455081984	61	29903
2026-01-01 05:40:07.61	114.21	3.05	-45.0	-63.3	3.8	8.47e-01	0	57	104	455081984	61	29975
2026-01-01 05:40:08.63	114.14	2.98	-45.0	-63.3	3.8	8.47e-01	0	57	104	455081984	61	29998
2026-01-01 05:40:09.64	114.08	2.91	-45.0	-63.3	3.8	8.47e-01	0	57	104	455081984	61	30022
2026-01-01 05:40:10.65	114.01	2.85	-45.0	-63.3	3.8	8.46e-01	0	57	104	455081984	61	29911
2026-01-01 05:40:11.66	113.94	2.78	-45.0	-63.3	3.8	8.46e-01	0	57	104	455081984	61	29892
2026-01-01 05:40:12.67	113.88	2.71	-45.0	-63.3	3.8	8.46e-01	0	57	104	455081984	61	29972
2026-01-01 05:40:13.68	113.81	2.64	-45.0	-63.3	3.8	8.47e-01	0	57	104	455081984	61	30020
2026-01-01 05:40:14.69	113.75	2.57	-45.0	-63.3	3.8	8.47e-01	0	57	104	455081984	61	29955
2026-01-01 05:40:15.70	113.68	2.51	-45.0	-63.3	3.8	8.47e-01	0	57	104	455081984	61	30008
2026-01-01 05:40:16.71	113.62	2.44	-45.0	-63.3	3.8	8.46e-01	0	57	104	455081984	61	29989
2026-01-01 05:40:17.72	113.55	2.37	-45.0	-63.3	3.8	8.46e-01	0	57	104	455081984	61	30005
2026-01-01 05:40:18.74	113.49	2.30	-45.0	-63.3	3.8	8.46e-01	0	57	104	455081984	61	29922
2026-01-01 05:40:19.75	113.43	2.24	-45.0	-63.4	3.8	8.47e-01	0	57	104	455081984	61	30052
2026-01-01 05:40:20.76	113.36	2.17	-45.0	-63.3	3.8	8.46e-01	0	57	104	455081984	61	29977
2026-01-01 05:40:21.77	113.30	2.10	-45.0	-63.3	3.8	8.46e-01	0	57	104	455081984	61	29947
2026-01-01 05:40:22.78	113.24	2.04	-45.0	-63.3	3.8	8.46e-01	0	57	104	455081984	61	29963
2026-01-01 05:40:23.79	113.18	1.97	-45.0	-63.3	3.8	8.46e-01	0	57	104	455081984	61	29987
2026-01-01 05:40:24.80	113.12	1.91	-45.0	-63.3	3.8	8.46e-01	0	57	104	455081984	61	29905

#Closed at: 2026-01-01 05:40:24
#Recorded file [455 MB]: D:/lorett/data/31039_260101_083107.dat