passes_logs/2026/01/01/R2.0S_Moscow/R2.0S_Moscow__20260101_084750_SUOMI_NPP_rec.log

#Pass ID: 20260101_084750_SUOMI NPP
#Satellite: SUOMI NPP
#Configuration: NPP
#almurnet v.1.7.20251203
#Start time: 2026-01-01 08:47:51

#Version: 2.2.20231116
#Station: R2.0S_Moscow
#Location: 37.707566 lon 55.798166 lat
#TLE: 1 37849U 11061A   25364.87906317  .00000195  00000+0  11345-3 0  9992
#TLE: 2 37849  98.7794 302.0592 0002571  89.2401 270.9069 14.19520347734561

#Time	Az	El	Level	Level2	SNR	BER	BlckErr	Temp	State	Recorded	gain1	gain2
2026-01-01 08:47:51.39	125.77	2.06	-24.3	-44.8	3.8	1.50e+00	0	48	0	0	18	42174
2026-01-01 08:47:52.40	125.72	2.12	-25.2	-44.5	3.9	1.50e+00	0	49	104	0	18	40959
2026-01-01 08:47:53.41	125.67	2.18	-24.7	-44.7	3.9	1.49e+00	0	49	104	0	21	34886
2026-01-01 08:47:54.42	125.62	2.24	-17.3	-40.1	3.7	1.49e+00	0	49	104	0	17	25873
2026-01-01 08:47:55.43	125.57	2.30	-16.0	-37.5	3.1	1.50e+00	0	49	104	0	11	27091
2026-01-01 08:47:56.44	125.52	2.36	-24.9	-45.3	3.4	1.49e+00	0	49	104	0	19	41948
2026-01-01 08:47:57.45	125.47	2.43	-21.3	-37.9	3.3	1.49e+00	0	49	104	0	11	28422
2026-01-01 08:47:58.46	125.42	2.49	-13.4	-35.7	3.0	1.49e+00	0	49	104	0	4	32970
2026-01-01 08:47:59.47	125.37	2.55	-23.9	-42.6	3.8	1.49e+00	0	49	104	0	16	36678
2026-01-01 08:48:00.48	125.32	2.61	-17.8	-38.3	3.4	1.50e+00	0	49	104	0	15	23746
2026-01-01 08:48:01.50	125.26	2.67	-21.6	-43.0	3.9	1.49e+00	0	50	104	0	18	34249
2026-01-01 08:48:02.51	125.21	2.74	-22.1	-42.2	2.9	1.49e+00	0	49	104	0	12	44334
2026-01-01 08:48:03.52	125.16	2.80	-19.1	-40.9	3.9	1.50e+00	0	49	104	0	18	26890
2026-01-01 08:48:04.53	125.11	2.86	-17.5	-34.5	3.6	1.49e+00	0	49	104	0	6	25773
2026-01-01 08:48:05.54	125.06	2.92	-24.3	-44.2	3.7	1.49e+00	0	50	104	0	20	35036
2026-01-01 08:48:06.55	125.00	2.99	-20.8	-41.4	3.9	1.49e+00	0	50	104	0	18	28471
2026-01-01 08:48:07.56	124.95	3.05	-20.9	-39.9	3.4	1.49e+00	0	50	104	0	17	25474
2026-01-01 08:48:08.57	124.90	3.11	-16.9	-38.7	3.4	1.49e+00	0	50	104	0	16	23553
2026-01-01 08:48:09.59	124.84	3.17	-24.0	-43.1	3.3	1.49e+00	0	50	104	0	17	36836
2026-01-01 08:48:10.59	124.79	3.24	-23.8	-42.8	3.3	1.49e+00	0	50	104	0	15	39929
2026-01-01 08:48:11.60	124.74	3.30	-22.7	-43.1	3.2	1.49e+00	0	50	104	0	16	38913
2026-01-01 08:48:12.62	124.68	3.36	-22.8	-43.1	3.3	1.50e+00	0	50	104	0	15	41394
2026-01-01 08:48:13.63	124.63	3.43	-16.5	-35.9	3.9	1.50e+00	0	50	104	0	15	18018
2026-01-01 08:48:14.64	124.58	3.49	-25.0	-45.0	3.9	1.49e+00	0	50	104	0	19	40921
2026-01-01 08:48:15.65	124.52	3.55	-24.6	-45.2	3.6	1.49e+00	0	50	104	0	18	44136
2026-01-01 08:48:16.66	124.47	3.62	-25.4	-45.2	3.6	1.49e+00	0	50	104	0	20	39357
2026-01-01 08:48:17.67	124.41	3.68	-23.0	-41.1	3.6	1.49e+00	0	50	104	0	16	30792
2026-01-01 08:48:18.68	124.36	3.75	-18.9	-41.2	3.7	1.49e+00	0	50	104	0	19	26436
2026-01-01 08:48:19.69	124.30	3.81	-17.0	-37.4	3.6	1.50e+00	0	51	104	0	15	21319
2026-01-01 08:48:20.70	124.24	3.87	-24.4	-44.4	3.8	1.49e+00	0	51	104	0	18	40357
2026-01-01 08:48:21.71	124.19	3.94	-24.4	-44.3	3.2	1.49e+00	0	51	104	0	17	42205
2026-01-01 08:48:22.72	124.13	4.00	-19.3	-38.0	3.7	1.49e+00	0	51	104	0	20	17265
2026-01-01 08:48:23.74	124.08	4.07	-23.7	-43.3	3.7	1.49e+00	0	51	104	0	19	33659
2026-01-01 08:48:24.75	124.02	4.13	-24.1	-44.0	3.7	1.49e+00	0	51	104	0	18	38554
2026-01-01 08:48:25.76	123.96	4.20	-20.4	-40.2	3.9	1.50e+00	0	51	104	0	17	26209
2026-01-01 08:48:26.77	123.90	4.26	-20.7	-39.8	3.5	1.50e+00	0	51	104	0	15	28187
2026-01-01 08:48:27.78	123.85	4.33	-24.9	-44.8	3.5	1.49e+00	0	51	104	0	19	39915
2026-01-01 08:48:28.79	123.79	4.39	-23.9	-41.7	3.6	1.49e+00	0	51	104	0	14	37214
2026-01-01 08:48:29.80	123.73	4.46	-23.9	-44.4	4.1	1.50e+00	0	51	0	0	17	42505
2026-01-01 08:48:30.81	123.67	4.52	-23.9	-44.3	3.6	1.49e+00	0	51	104	0	16	44775
2026-01-01 08:48:31.82	123.61	4.59	-24.8	-41.9	3.8	1.49e+00	0	51	104	0	16	33977
2026-01-01 08:48:32.83	123.55	4.66	-15.8	-35.3	4.0	1.49e+00	0	51	104	0	11	21139
2026-01-01 08:48:33.84	123.50	4.72	-24.5	-46.0	3.9	1.50e+00	0	51	104	0	20	43019
2026-01-01 08:48:34.85	123.44	4.79	-10.8	-34.7	3.4	1.50e+00	0	51	104	0	9	22155
2026-01-01 08:48:35.86	123.38	4.85	-23.3	-42.6	3.6	1.50e+00	0	51	104	0	16	36701
2026-01-01 08:48:36.88	123.32	4.92	-24.6	-43.4	3.5	1.50e+00	0	51	104	0	18	35840
2026-01-01 08:48:37.89	123.25	4.99	-18.6	-39.9	3.4	1.50e+00	0	51	104	0	16	27052
2026-01-01 08:48:38.90	123.19	5.05	-17.5	-37.9	3.7	1.50e+00	0	52	104	0	12	26903
2026-01-01 08:48:39.91	123.13	5.12	-24.0	-41.1	4.5	1.50e+00	0	52	104	0	15	32772
2026-01-01 08:48:40.92	123.07	5.19	-24.8	-46.3	3.8	1.50e+00	0	51	104	0	19	47554
2026-01-01 08:48:41.93	123.01	5.26	-19.8	-40.6	3.7	1.50e+00	0	51	104	0	19	24555
2026-01-01 08:48:42.94	122.95	5.32	-24.2	-45.3	3.9	1.50e+00	0	52	104	0	19	42409
2026-01-01 08:48:43.95	122.89	5.39	-25.9	-43.9	3.8	1.49e+00	0	52	104	0	19	35932
2026-01-01 08:48:44.96	122.82	5.46	-20.5	-40.5	3.8	1.49e+00	0	52	104	0	18	25809
2026-01-01 08:48:45.98	122.76	5.53	-20.9	-40.5	3.3	1.49e+00	0	52	104	0	17	27244
2026-01-01 08:48:46.99	122.70	5.59	-24.9	-45.9	3.8	1.50e+00	0	52	104	0	20	42680
2026-01-01 08:48:48.00	122.63	5.66	-23.9	-41.7	3.6	1.49e+00	0	52	104	0	16	33105
2026-01-01 08:48:49.01	122.57	5.73	-24.5	-44.3	4.0	1.50e+00	0	52	104	0	19	37563
2026-01-01 08:48:50.02	122.51	5.80	-24.3	-45.2	-1.9	1.49e+00	0	52	104	0	20	39542
2026-01-01 08:48:51.03	122.44	5.87	-24.5	-44.6	3.7	1.49e+00	0	52	104	0	18	41377
2026-01-01 08:48:52.04	122.38	5.93	-23.7	-41.5	3.5	1.49e+00	0	52	104	0	14	36324
2026-01-01 08:48:53.05	122.31	6.00	-24.6	-44.1	3.8	1.49e+00	0	52	104	0	18	38817
2026-01-01 08:48:54.06	122.25	6.07	-26.2	-44.0	3.9	1.49e+00	0	52	104	0	19	36218
2026-01-01 08:48:55.07	122.18	6.14	-23.2	-42.5	4.1	1.49e+00	0	52	104	0	17	34466
2026-01-01 08:48:56.09	122.12	6.21	-25.0	-45.6	3.9	1.49e+00	0	52	104	0	20	41087
2026-01-01 08:48:57.10	122.05	6.28	-18.4	-39.7	3.4	1.49e+00	0	52	104	0	16	26240
2026-01-01 08:48:58.11	121.98	6.35	-18.0	-40.2	3.5	1.49e+00	0	52	104	0	16	27836
2026-01-01 08:48:59.12	121.92	6.42	-21.4	-35.4	3.1	1.49e+00	0	53	104	0	4	31851
2026-01-01 08:49:00.13	121.85	6.49	-19.3	-43.2	3.9	1.50e+00	0	52	104	0	19	33009
2026-01-01 08:49:01.14	121.78	6.56	-23.0	-41.9	3.6	1.50e+00	0	52	104	0	16	33735
2026-01-01 08:49:02.15	121.71	6.63	-25.5	-44.3	3.7	1.49e+00	0	53	104	0	17	42408
2026-01-01 08:49:03.16	121.65	6.70	-24.9	-44.8	3.2	1.49e+00	0	53	104	0	19	39712
2026-01-01 08:49:04.18	121.58	6.77	-21.0	-41.5	3.9	1.50e+00	0	53	104	0	19	27115
2026-01-01 08:49:05.19	121.51	6.84	-24.7	-45.2	4.0	1.50e+00	0	53	104	0	20	39574
2026-01-01 08:49:06.20	121.44	6.91	-25.3	-45.8	3.9	1.49e+00	0	53	104	0	21	39733
2026-01-01 08:49:07.21	121.37	6.98	-23.9	-41.8	3.5	1.49e+00	0	53	104	0	15	35381
2026-01-01 08:49:08.22	121.30	7.05	-9.7	-34.0	3.8	1.50e+00	0	53	104	0	0	34452
2026-01-01 08:49:09.23	121.23	7.12	-9.1	-35.1	3.8	1.50e+00	0	53	104	0	0	38854
2026-01-01 08:49:10.24	121.16	7.19	-20.4	-39.1	3.7	1.50e+00	0	53	104	0	15	26152
2026-01-01 08:49:11.25	121.09	7.26	-9.5	-39.9	4.1	1.50e+00	0	53	104	0	6	47863
2026-01-01 08:49:12.26	121.02	7.34	-25.5	-44.7	4.3	1.49e+00	0	53	104	0	20	37294
2026-01-01 08:49:13.27	120.94	7.41	-24.5	-42.6	4.5	1.48e+00	0	53	104	0	19	30995
2026-01-01 08:49:14.28	120.87	7.48	-25.4	-44.1	4.3	1.48e+00	0	53	104	0	21	32643
2026-01-01 08:49:15.29	120.80	7.55	-24.7	-44.2	4.5	1.48e+00	0	53	104	0	20	34921
2026-01-01 08:49:16.31	120.73	7.62	-19.4	-40.8	4.6	1.48e+00	0	53	104	0	21	22506
2026-01-01 08:49:17.32	120.65	7.70	-18.1	-39.5	4.1	1.47e+00	0	53	104	0	17	24306
2026-01-01 08:49:18.33	120.58	7.77	-25.4	-44.2	4.8	1.46e+00	0	53	104	0	21	33270
2026-01-01 08:49:19.34	120.50	7.84	-14.8	-34.9	3.8	1.47e+00	0	53	104	0	10	21421
2026-01-01 08:49:20.35	120.43	7.91	-25.4	-42.5	4.5	1.43e+00	0	53	104	0	21	27124
2026-01-01 08:49:21.36	120.36	7.99	-24.2	-42.1	5.0	1.40e+00	0	54	104	0	18	30869
2026-01-01 08:49:22.37	120.28	8.06	-25.8	-43.4	4.9	1.44e+00	0	53	104	0	19	34048
2026-01-01 08:49:23.38	120.21	8.13	-30.7	-51.6	4.2	1.50e+00	0	53	104	0	34	36593
2026-01-01 08:49:24.39	120.13	8.21	-25.0	-42.4	4.2	1.48e+00	0	54	104	0	18	31984
2026-01-01 08:49:25.40	120.05	8.28	-26.4	-44.8	4.7	1.48e+00	0	54	104	0	23	31609
2026-01-01 08:49:26.41	119.98	8.35	-25.5	-42.6	4.7	1.47e+00	0	53	104	0	22	26142
2026-01-01 08:49:27.42	119.90	8.43	-16.3	-37.9	3.5	1.49e+00	0	54	104	0	11	28567
2026-01-01 08:49:28.43	119.82	8.50	-24.9	-40.2	4.9	1.44e+00	0	54	104	0	18	24817
2026-01-01 08:49:29.45	119.74	8.58	-18.1	-36.4	4.5	1.40e+00	0	53	104	0	13	21307
2026-01-01 08:49:30.46	119.66	8.65	-22.7	-37.2	4.2	1.44e+00	0	54	104	0	13	23456
2026-01-01 08:49:31.47	119.59	8.73	-23.0	-39.7	4.9	1.42e+00	0	54	104	0	17	24713
2026-01-01 08:49:32.48	119.51	8.80	-23.7	-39.4	5.0	1.43e+00	0	54	104	0	17	23888
2026-01-01 08:49:33.49	119.43	8.88	-21.3	-39.4	4.1	1.43e+00	0	54	104	0	9	37835
2026-01-01 08:49:34.50	119.35	8.95	-22.6	-37.8	4.9	1.44e+00	0	54	104	0	17	19853
2026-01-01 08:49:35.51	119.27	9.03	-18.0	-37.4	4.9	1.43e+00	0	54	104	0	17	19100
2026-01-01 08:49:36.52	119.19	9.10	-14.0	-30.4	4.0	1.41e+00	0	54	104	0	6	16049
2026-01-01 08:49:37.53	119.10	9.18	-24.9	-40.0	4.9	1.42e+00	0	54	104	0	17	25758
2026-01-01 08:49:38.54	119.02	9.25	-19.5	-36.3	4.8	1.43e+00	0	54	104	0	16	17723
2026-01-01 08:49:39.55	118.94	9.33	-24.0	-39.2	4.6	1.39e+00	0	54	104	0	18	22180
2026-01-01 08:49:40.56	118.86	9.41	-23.4	-39.0	4.7	1.41e+00	0	54	104	0	17	22878
2026-01-01 08:49:41.57	118.78	9.48	-19.1	-34.3	3.8	1.42e+00	0	54	104	0	10	19924
2026-01-01 08:49:42.58	118.69	9.56	-18.9	-35.7	4.7	1.43e+00	0	54	104	0	17	15704
2026-01-01 08:49:43.59	118.61	9.64	-22.3	-39.6	4.8	1.42e+00	0	54	104	0	17	24580
2026-01-01 08:49:44.60	118.52	9.71	-24.7	-39.2	4.7	1.44e+00	0	54	104	0	18	22243
2026-01-01 08:49:45.61	118.44	9.79	-22.7	-36.1	4.3	1.47e+00	0	54	104	0	15	18359
2026-01-01 08:49:46.62	118.35	9.87	-24.1	-39.8	4.7	1.44e+00	0	54	0	0	18	23647
2026-01-01 08:49:47.63	118.27	9.94	-24.0	-39.3	4.7	1.46e+00	0	54	104	0	19	21161
2026-01-01 08:49:48.64	118.18	10.02	-15.9	-30.9	3.8	1.45e+00	0	54	104	0	8	15169
2026-01-01 08:49:49.65	118.09	10.10	-23.4	-39.8	4.3	1.45e+00	0	54	104	0	20	21075
2026-01-01 08:49:50.66	118.01	10.18	-24.6	-39.6	4.6	1.45e+00	0	54	104	0	20	20553
2026-01-01 08:49:51.68	117.92	10.26	-25.1	-39.6	4.6	1.45e+00	0	54	104	0	20	20714
2026-01-01 08:49:52.69	117.83	10.34	-25.0	-40.2	4.3	1.45e+00	0	54	104	0	21	20886
2026-01-01 08:49:53.70	117.74	10.41	-24.4	-39.8	4.7	1.45e+00	0	55	104	0	20	21229
2026-01-01 08:49:54.71	117.65	10.49	-20.7	-37.8	4.5	1.46e+00	0	55	104	0	22	14897
2026-01-01 08:49:55.71	117.56	10.57	-20.7	-37.1	4.1	1.47e+00	0	54	104	0	22	13756
2026-01-01 08:49:56.72	117.47	10.65	-24.8	-41.0	4.6	1.47e+00	0	55	104	0	24	19261
2026-01-01 08:49:57.73	117.38	10.73	-21.0	-36.3	4.2	1.47e+00	0	55	104	0	20	14179
2026-01-01 08:49:58.74	117.29	10.81	-28.0	-41.6	4.4	1.47e+00	0	55	104	0	23	21816
2026-01-01 08:49:59.75	117.20	10.89	-29.2	-42.2	4.5	1.46e+00	0	55	104	0	27	18599
2026-01-01 08:50:00.76	117.11	10.97	-27.0	-41.7	4.5	1.47e+00	0	55	104	0	26	18680
2026-01-01 08:50:01.77	117.02	11.05	-25.7	-40.4	4.5	1.46e+00	0	55	104	0	28	14259
2026-01-01 08:50:02.78	116.92	11.13	-27.0	-41.3	4.5	1.45e+00	0	55	104	0	28	15936
2026-01-01 08:50:03.79	116.83	11.21	-29.1	-41.9	4.8	1.44e+00	0	55	104	0	31	14236
2026-01-01 08:50:04.80	116.74	11.29	-25.9	-40.1	4.3	1.43e+00	0	55	104	0	26	15465
2026-01-01 08:50:05.81	116.64	11.37	-29.4	-41.3	4.7	1.41e+00	0	55	104	0	28	15799
2026-01-01 08:50:06.82	116.55	11.45	-32.5	-41.1	6.6	1.32e+00	0	55	0	0	31	13086
2026-01-01 08:50:07.83	116.45	11.53	-28.7	-40.3	5.6	6.61e-01	0	55	0	1048576	31	11903
2026-01-01 08:50:08.84	116.35	11.61	-33.6	-42.7	7.4	5.22e-01	0	55	0	3145728	38	10451
2026-01-01 08:50:09.85	116.26	11.69	-35.0	-42.3	8.5	3.78e-01	0	55	0	5242880	37	10596
2026-01-01 08:50:10.87	116.16	11.78	-32.7	-42.0	8.3	2.86e-01	0	55	0	7340032	38	9610
2026-01-01 08:50:11.87	116.06	11.86	-34.8	-42.8	7.4	2.99e-01	0	55	0	8388608	38	10538
2026-01-01 08:50:12.88	115.96	11.94	-34.4	-43.6	8.3	3.73e-01	0	55	0	10485760	41	9792
2026-01-01 08:50:13.89	115.86	12.02	-31.9	-42.3	8.5	4.81e-01	0	55	0	12582912	42	7986
2026-01-01 08:50:14.90	115.76	12.10	-30.7	-41.8	7.5	2.12e-01	0	55	0	14680064	41	7963
2026-01-01 08:50:15.91	115.66	12.19	-28.6	-41.9	9.3	2.33e-01	0	55	0	15728640	41	7997
2026-01-01 08:50:16.92	115.56	12.27	-34.7	-41.9	8.4	3.90e-01	0	55	0	17825792	39	9022
2026-01-01 08:50:17.93	115.46	12.35	-32.1	-41.7	8.5	2.05e-01	0	55	0	19922944	37	9856
2026-01-01 08:50:18.94	115.36	12.44	-35.5	-42.4	9.4	2.23e-01	0	55	0	22020096	41	8498
2026-01-01 08:50:19.95	115.26	12.52	-36.2	-42.6	10.5	1.17e-01	0	55	0	24117248	44	7301
2026-01-01 08:50:20.96	115.15	12.60	-33.8	-42.3	10.2	1.11e-01	0	55	0	25165824	42	7950
2026-01-01 08:50:21.97	115.05	12.69	-34.5	-42.9	8.7	1.17e-01	0	55	0	27262976	42	8483
2026-01-01 08:50:22.98	114.94	12.77	-32.8	-42.9	8.7	1.53e-01	0	55	0	29360128	38	10665
2026-01-01 08:50:23.99	114.84	12.86	-36.4	-43.5	9.1	1.05e-01	0	55	0	31457280	43	8645
2026-01-01 08:50:25.00	114.73	12.94	-37.7	-43.2	11.5	7.57e-02	0	55	0	33554432	46	6968
2026-01-01 08:50:26.01	114.63	13.02	-37.3	-42.4	12.2	3.39e-02	0	55	0	34603008	45	6744
2026-01-01 08:50:27.02	114.52	13.11	-38.3	-42.1	13.5	4.18e-02	0	55	0	36700160	47	5855
2026-01-01 08:50:28.03	114.41	13.19	-30.2	-41.7	11.2	6.09e-02	0	55	0	38797312	39	8802
2026-01-01 08:50:29.04	114.30	13.28	-31.1	-42.2	13.4	2.04e-02	0	55	0	40894464	44	6986
2026-01-01 08:50:30.05	114.20	13.37	-32.0	-43.0	12.5	8.36e-02	0	55	0	42991616	48	6096
2026-01-01 08:50:31.06	114.09	13.45	-39.3	-43.2	11.5	2.13e-02	0	55	0	44040192	45	7429
2026-01-01 08:50:32.07	113.98	13.54	-35.2	-43.5	12.4	2.11e-02	0	55	0	46137344	48	6473
2026-01-01 08:50:33.08	113.87	13.62	-39.2	-43.4	12.8	1.65e-02	0	55	0	48234496	49	6050
2026-01-01 08:50:34.09	113.75	13.71	-39.4	-43.0	13.7	8.38e-04	0	55	0	50331648	50	5428
2026-01-01 08:50:35.10	113.64	13.80	-39.9	-42.7	14.6	8.92e-05	0	56	0	52428800	50	5256
2026-01-01 08:50:36.11	113.53	13.88	-39.9	-42.7	14.6	2.97e-05	0	56	0	53477376	50	5265
2026-01-01 08:50:37.12	113.42	13.97	-39.7	-42.5	14.9	2.13e-05	0	55	0	55574528	50	5135
2026-01-01 08:50:38.13	113.30	14.06	-40.1	-43.0	14.4	1.50e-06	0	55	0	57671680	51	5117
2026-01-01 08:50:39.13	113.19	14.14	-40.1	-42.8	14.6	6.10e-06	0	55	0	59768832	51	5030
2026-01-01 08:50:40.14	113.07	14.23	-40.1	-42.9	14.5	7.00e-07	0	56	0	61865984	51	5047
2026-01-01 08:50:41.16	112.96	14.32	-40.1	-42.9	14.5	7.00e-07	0	56	0	63963136	51	5064
2026-01-01 08:50:42.17	112.84	14.41	-39.9	-42.6	14.7	0.00e+00	0	56	0	65011712	51	4914
2026-01-01 08:50:43.18	112.72	14.49	-39.9	-42.5	14.9	0.00e+00	0	56	0	67108864	51	4870
2026-01-01 08:50:44.19	112.60	14.58	-40.1	-42.9	14.6	3.80e-06	0	56	0	69206016	51	5072
2026-01-01 08:50:45.20	112.48	14.67	-39.9	-42.7	14.8	3.00e-06	0	56	0	71303168	51	4934
2026-01-01 08:50:46.21	112.36	14.76	-40.2	-43.1	14.4	6.10e-06	0	56	0	73400320	51	5175
2026-01-01 08:50:47.22	112.24	14.85	-39.9	-42.8	14.6	5.30e-06	0	56	0	74448896	51	4988
2026-01-01 08:50:48.23	112.12	14.94	-39.7	-42.3	15.2	3.28e-05	0	56	0	76546048	50	5019
2026-01-01 08:50:49.24	112.00	15.03	-39.5	-42.0	15.5	9.10e-06	0	56	0	78643200	50	4816
2026-01-01 08:50:50.25	111.88	15.11	-39.0	-41.3	16.2	1.67e-05	0	56	0	80740352	50	4445
2026-01-01 08:50:51.26	111.75	15.20	-39.3	-41.7	15.8	6.10e-06	0	56	0	82837504	49	4941
2026-01-01 08:50:52.27	111.63	15.29	-39.5	-42.0	15.4	1.50e-06	0	56	0	83886080	49	5142
2026-01-01 08:50:53.28	111.51	15.38	-39.6	-42.2	15.4	6.80e-06	0	56	0	85983232	49	5227
2026-01-01 08:50:54.29	111.38	15.47	-39.9	-42.5	15.0	6.80e-06	0	56	0	88080384	50	5153
2026-01-01 08:50:55.30	111.25	15.56	-39.9	-42.5	15.0	0.00e+00	0	56	0	90177536	50	5155
2026-01-01 08:50:56.31	111.13	15.65	-39.6	-42.0	15.6	0.00e+00	0	56	0	92274688	50	4836
2026-01-01 08:50:57.32	111.00	15.75	-39.5	-42.0	15.6	0.00e+00	0	56	0	93323264	50	4828
2026-01-01 08:50:58.33	110.87	15.84	-39.4	-41.7	15.8	0.00e+00	0	56	0	95420416	50	4685
2026-01-01 08:50:59.34	110.74	15.93	-39.9	-42.5	15.1	0.00e+00	0	56	0	97517568	50	5102
2026-01-01 08:51:00.35	110.61	16.02	-40.2	-43.1	14.5	0.00e+00	0	56	0	99614720	51	5185
2026-01-01 08:51:01.36	110.48	16.11	-40.6	-43.7	14.0	0.00e+00	0	56	0	101711872	51	5538
2026-01-01 08:51:02.37	110.35	16.20	-40.6	-43.8	13.8	6.80e-06	0	56	0	102760448	51	5611
2026-01-01 08:51:03.38	110.21	16.29	-40.4	-43.4	14.2	7.00e-07	0	56	0	104857600	51	5372
2026-01-01 08:51:04.39	110.08	16.39	-40.1	-42.8	14.8	0.00e+00	0	56	0	106954752	51	4990
2026-01-01 08:51:05.40	109.94	16.48	-40.1	-42.9	14.8	0.00e+00	0	56	0	109051904	51	5043
2026-01-01 08:51:06.41	109.81	16.57	-39.8	-42.3	15.3	0.00e+00	0	56	0	111149056	51	4728
2026-01-01 08:51:07.42	109.67	16.66	-40.5	-43.5	14.2	0.00e+00	0	56	0	112197632	51	5408
2026-01-01 08:51:08.43	109.54	16.76	-40.7	-43.8	13.8	2.20e-06	0	56	0	114294784	51	5612
2026-01-01 08:51:09.44	109.40	16.85	-40.6	-43.7	13.9	1.50e-06	0	56	0	116391936	51	5558
2026-01-01 08:51:10.45	109.26	16.94	-40.6	-43.6	14.0	3.00e-06	0	56	0	118489088	51	5482
2026-01-01 08:51:11.46	109.12	17.03	-40.3	-43.2	14.5	1.50e-06	0	56	0	120586240	51	5232
2026-01-01 08:51:12.47	108.98	17.13	-40.2	-42.9	14.6	1.50e-06	0	56	0	121634816	51	5088
2026-01-01 08:51:13.48	108.84	17.22	-40.2	-42.9	14.7	3.00e-06	0	56	0	123731968	51	5074
2026-01-01 08:51:14.49	108.69	17.32	-40.0	-42.6	15.1	8.30e-06	0	56	0	125829120	51	4890
2026-01-01 08:51:15.50	108.55	17.41	-40.2	-43.1	14.6	1.14e-05	0	56	0	127926272	51	5161
2026-01-01 08:51:16.51	108.41	17.50	-40.4	-43.3	14.3	2.20e-06	0	56	0	130023424	51	5286
2026-01-01 08:51:17.52	108.26	17.60	-40.0	-42.7	14.9	0.00e+00	0	56	0	132120576	51	4965
2026-01-01 08:51:18.53	108.12	17.69	-39.9	-42.5	15.1	0.00e+00	0	56	0	133169152	51	4823
2026-01-01 08:51:19.54	107.97	17.79	-40.0	-42.6	15.0	0.00e+00	0	56	0	135266304	51	4898
2026-01-01 08:51:20.55	107.82	17.88	-39.9	-42.4	15.2	0.00e+00	0	56	0	137363456	51	4791
2026-01-01 08:51:21.56	107.67	17.98	-39.8	-42.4	15.3	0.00e+00	0	56	0	139460608	51	4772
2026-01-01 08:51:22.57	107.52	18.07	-39.7	-42.2	15.4	0.00e+00	0	56	0	141557760	51	4698
2026-01-01 08:51:23.58	107.37	18.17	-39.6	-42.0	15.6	0.00e+00	0	56	0	142606336	51	4573
2026-01-01 08:51:24.60	107.22	18.26	-39.4	-41.8	15.8	7.00e-07	0	56	0	144703488	50	4715
2026-01-01 08:51:25.60	107.07	18.36	-39.3	-41.6	16.0	0.00e+00	0	56	0	146800640	50	4617
2026-01-01 08:51:26.61	106.91	18.46	-39.3	-41.7	16.0	0.00e+00	0	56	0	148897792	50	4654
2026-01-01 08:51:27.62	106.76	18.55	-39.3	-41.6	16.0	0.00e+00	0	56	0	150994944	50	4599
2026-01-01 08:51:28.63	106.60	18.65	-39.4	-41.8	15.9	0.00e+00	0	56	0	152043520	50	4706
2026-01-01 08:51:29.64	106.45	18.74	-39.4	-41.7	16.0	0.00e+00	0	56	0	154140672	50	4678
2026-01-01 08:51:30.65	106.29	18.84	-39.4	-41.7	15.9	0.00e+00	0	56	0	156237824	50	4689
2026-01-01 08:51:31.66	106.13	18.94	-39.4	-41.7	16.0	0.00e+00	0	56	0	158334976	50	4678
2026-01-01 08:51:32.67	105.97	19.03	-39.3	-41.6	16.1	0.00e+00	0	56	0	160432128	50	4620
2026-01-01 08:51:33.68	105.81	19.13	-39.5	-41.9	15.8	0.00e+00	0	56	0	161480704	50	4771
2026-01-01 08:51:34.69	105.65	19.23	-39.6	-42.0	15.6	0.00e+00	0	56	0	163577856	50	4864
2026-01-01 08:51:35.70	105.49	19.32	-39.4	-41.7	15.9	0.00e+00	0	56	0	165675008	50	4695
2026-01-01 08:51:36.71	105.32	19.42	-39.5	-41.9	15.8	0.00e+00	0	56	0	167772160	50	4762
2026-01-01 08:51:37.72	105.16	19.52	-39.5	-41.8	15.8	0.00e+00	0	56	0	169869312	50	4741
2026-01-01 08:51:38.73	104.99	19.62	-39.6	-42.0	15.6	0.00e+00	0	56	0	170917888	50	4866
2026-01-01 08:51:39.74	104.82	19.72	-39.5	-41.9	15.8	0.00e+00	0	56	0	173015040	50	4763
2026-01-01 08:51:40.75	104.66	19.81	-39.5	-41.9	15.8	0.00e+00	0	56	0	175112192	50	4780
2026-01-01 08:51:41.76	104.49	19.91	-39.7	-42.2	15.5	0.00e+00	0	57	0	177209344	50	4956
2026-01-01 08:51:42.77	104.32	20.01	-39.7	-42.2	15.4	0.00e+00	0	56	0	179306496	50	4968
2026-01-01 08:51:43.78	104.15	20.11	-39.6	-42.1	15.6	0.00e+00	0	56	0	180355072	50	4913
2026-01-01 08:51:44.79	103.97	20.21	-39.5	-41.9	15.8	0.00e+00	0	56	0	182452224	50	4789
2026-01-01 08:51:45.79	103.80	20.30	-39.4	-41.7	15.9	0.00e+00	0	56	0	184549376	50	4697
2026-01-01 08:51:46.80	103.63	20.40	-39.2	-41.4	16.3	0.00e+00	0	56	0	186646528	50	4508
2026-01-01 08:51:47.81	103.45	20.50	-38.9	-41.0	16.6	0.00e+00	0	56	0	188743680	49	4588
2026-01-01 08:51:48.82	103.27	20.60	-39.1	-41.2	16.4	0.00e+00	0	56	0	189792256	49	4690
2026-01-01 08:51:49.83	103.10	20.70	-39.3	-41.6	16.1	0.00e+00	0	56	0	191889408	49	4881
2026-01-01 08:51:50.84	102.92	20.80	-39.3	-41.5	16.1	0.00e+00	0	56	0	193986560	49	4857
2026-01-01 08:51:51.85	102.74	20.90	-39.0	-41.2	16.4	0.00e+00	0	57	0	196083712	49	4680
2026-01-01 08:51:52.86	102.55	21.00	-38.7	-40.8	16.9	0.00e+00	0	57	0	198180864	49	4458
2026-01-01 08:51:53.87	102.37	21.09	-38.8	-40.8	16.8	0.00e+00	0	56	0	200278016	49	4475
2026-01-01 08:51:54.88	102.19	21.19	-39.0	-41.1	16.6	0.00e+00	0	57	0	201326592	49	4627
2026-01-01 08:51:55.89	102.00	21.29	-39.4	-41.8	15.9	0.00e+00	0	56	0	203423744	49	4993
2026-01-01 08:51:56.90	101.82	21.39	-39.6	-42.0	15.6	0.00e+00	0	57	0	205520896	50	4836
2026-01-01 08:51:57.91	101.63	21.49	-39.8	-42.3	15.4	0.00e+00	0	56	0	207618048	50	5026
2026-01-01 08:51:58.92	101.44	21.59	-39.5	-41.9	15.8	0.00e+00	0	56	0	209715200	50	4780
2026-01-01 08:51:59.93	101.25	21.69	-39.5	-41.8	15.9	0.00e+00	0	56	0	210763776	50	4710
2026-01-01 08:52:00.94	101.06	21.79	-39.6	-42.0	15.7	0.00e+00	0	57	0	212860928	50	4868
2026-01-01 08:52:01.95	100.86	21.89	-39.7	-42.2	15.5	0.00e+00	0	56	0	214958080	50	4953
2026-01-01 08:52:02.96	100.67	21.99	-39.7	-42.2	15.5	0.00e+00	0	56	0	217055232	50	4947
2026-01-01 08:52:03.97	100.48	22.09	-39.5	-41.8	16.0	0.00e+00	0	57	0	219152384	50	4724
2026-01-01 08:52:04.98	100.28	22.19	-39.3	-41.5	16.2	0.00e+00	0	57	0	220200960	50	4572
2026-01-01 08:52:05.99	100.08	22.29	-39.2	-41.5	16.2	0.00e+00	0	57	0	222298112	50	4552
2026-01-01 08:52:07.00	99.88	22.39	-39.2	-41.4	16.3	0.00e+00	0	57	0	224395264	50	4530
2026-01-01 08:52:08.01	99.68	22.49	-39.2	-41.4	16.3	0.00e+00	0	56	0	226492416	50	4544
2026-01-01 08:52:09.01	99.48	22.59	-39.2	-41.3	16.4	0.00e+00	0	57	0	228589568	50	4492
2026-01-01 08:52:10.02	99.28	22.69	-39.3	-41.5	16.2	0.00e+00	0	57	0	229638144	50	4564
2026-01-01 08:52:11.03	99.08	22.79	-39.2	-41.4	16.3	0.00e+00	0	57	0	231735296	50	4529
2026-01-01 08:52:12.04	98.87	22.89	-39.3	-41.6	16.2	0.00e+00	0	57	0	233832448	50	4618
2026-01-01 08:52:13.05	98.66	22.99	-39.7	-42.1	15.6	0.00e+00	0	57	0	235929600	50	4923
2026-01-01 08:52:14.07	98.45	23.09	-39.8	-42.2	15.5	0.00e+00	0	57	0	238026752	50	4970
2026-01-01 08:52:15.08	98.24	23.19	-39.6	-42.0	15.7	0.00e+00	0	56	0	239075328	50	4845
2026-01-01 08:52:16.08	98.04	23.29	-39.5	-41.9	15.9	0.00e+00	0	57	0	241172480	50	4796
2026-01-01 08:52:17.09	97.82	23.39	-39.5	-41.9	15.9	0.00e+00	0	57	0	243269632	50	4781
2026-01-01 08:52:18.10	97.61	23.49	-39.4	-41.7	16.0	0.00e+00	0	57	0	245366784	50	4687
2026-01-01 08:52:19.12	97.39	23.59	-39.5	-41.9	15.9	0.00e+00	0	56	0	247463936	50	4786
2026-01-01 08:52:20.12	97.18	23.69	-39.6	-41.9	15.8	0.00e+00	0	57	0	248512512	50	4805
2026-01-01 08:52:21.14	96.96	23.79	-39.8	-42.2	15.5	0.00e+00	0	57	0	250609664	50	4973
2026-01-01 08:52:22.15	96.74	23.89	-39.9	-42.5	15.3	0.00e+00	0	57	0	252706816	50	5127
2026-01-01 08:52:23.16	96.52	23.99	-40.2	-42.8	14.9	0.00e+00	0	57	0	254803968	50	5338
2026-01-01 08:52:24.16	96.30	24.08	-40.2	-42.9	15.0	0.00e+00	0	57	0	256901120	51	5045
2026-01-01 08:52:25.18	96.07	24.18	-40.2	-42.9	14.9	7.00e-07	0	57	0	257949696	51	5042
2026-01-01 08:52:26.19	95.85	24.28	-39.8	-42.3	15.4	0.00e+00	0	57	0	260046848	51	4744
2026-01-01 08:52:27.20	95.62	24.38	-39.7	-42.1	15.6	0.00e+00	0	57	0	262144000	51	4629
2026-01-01 08:52:28.21	95.40	24.48	-39.6	-42.0	15.7	0.00e+00	0	57	0	264241152	51	4578
2026-01-01 08:52:29.22	95.17	24.58	-39.4	-41.7	16.1	0.00e+00	0	57	0	266338304	50	4690
2026-01-01 08:52:30.23	94.94	24.68	-39.3	-41.6	16.2	0.00e+00	0	57	0	268435456	50	4600
2026-01-01 08:52:31.23	94.71	24.78	-39.3	-41.6	16.2	0.00e+00	0	57	0	269484032	50	4634
2026-01-01 08:52:32.24	94.47	24.88	-39.2	-41.4	16.4	0.00e+00	0	57	0	271581184	50	4498
2026-01-01 08:52:33.25	94.24	24.97	-39.0	-41.2	16.6	0.00e+00	0	57	0	273678336	50	4407
2026-01-01 08:52:34.26	94.00	25.07	-38.7	-40.8	16.8	0.00e+00	0	57	0	275775488	49	4447
2026-01-01 08:52:35.27	93.76	25.17	-38.5	-40.5	17.2	0.00e+00	0	57	0	277872640	49	4310
2026-01-01 08:52:36.28	93.52	25.27	-38.4	-40.4	17.4	0.00e+00	0	57	0	278921216	48	4495
2026-01-01 08:52:37.29	93.28	25.36	-38.6	-40.6	17.1	0.00e+00	0	57	0	281018368	48	4649
2026-01-01 08:52:38.30	93.04	25.46	-38.5	-40.4	17.3	0.00e+00	0	57	0	283115520	48	4520
2026-01-01 08:52:39.31	92.80	25.56	-38.4	-40.4	17.4	0.00e+00	0	57	0	285212672	48	4502
2026-01-01 08:52:40.32	92.55	25.66	-38.7	-40.7	17.1	0.00e+00	0	57	0	287309824	48	4673
2026-01-01 08:52:41.33	92.30	25.75	-38.6	-40.6	17.1	0.00e+00	0	57	0	288358400	48	4637
2026-01-01 08:52:42.34	92.06	25.85	-38.8	-40.9	16.9	0.00e+00	0	57	0	290455552	48	4777
2026-01-01 08:52:43.35	91.81	25.95	-39.0	-41.1	16.7	0.00e+00	0	57	0	292552704	48	4879
2026-01-01 08:52:44.35	91.56	26.04	-39.0	-41.1	16.7	0.00e+00	0	57	0	294649856	48	4907
2026-01-01 08:52:45.36	91.30	26.14	-39.1	-41.2	16.6	0.00e+00	0	57	0	296747008	49	4672
2026-01-01 08:52:46.37	91.05	26.23	-39.3	-41.6	16.2	0.00e+00	0	57	0	297795584	49	4872
2026-01-01 08:52:47.39	90.79	26.33	-39.6	-42.0	15.9	0.00e+00	0	57	0	299892736	49	5105
2026-01-01 08:52:48.39	90.54	26.42	-39.6	-42.0	15.8	0.00e+00	0	57	0	301989888	49	5115
2026-01-01 08:52:49.40	90.28	26.52	-39.8	-42.2	15.6	0.00e+00	0	57	0	304087040	50	4941
2026-01-01 08:52:50.41	90.02	26.61	-39.4	-41.7	16.2	0.00e+00	0	57	0	306184192	50	4669
2026-01-01 08:52:51.42	89.75	26.70	-39.2	-41.4	16.4	0.00e+00	0	57	0	307232768	50	4519
2026-01-01 08:52:52.43	89.49	26.80	-39.4	-41.6	16.2	0.00e+00	0	57	0	309329920	50	4636
2026-01-01 08:52:53.44	89.23	26.89	-39.6	-42.0	15.9	0.00e+00	0	57	0	311427072	50	4833
2026-01-01 08:52:54.45	88.96	26.98	-39.6	-41.9	16.0	0.00e+00	0	57	0	313524224	50	4768
2026-01-01 08:52:55.46	88.69	27.08	-39.7	-42.0	15.8	0.00e+00	0	57	0	315621376	50	4847
2026-01-01 08:52:56.47	88.42	27.17	-39.6	-41.9	15.9	0.00e+00	0	57	0	316669952	50	4808
2026-01-01 08:52:57.48	88.15	27.26	-39.5	-42.1	15.8	0.00e+00	0	57	0	318767104	50	4872
2026-01-01 08:52:58.49	87.88	27.35	-39.7	-42.3	15.4	0.00e+00	0	57	0	320864256	50	4998
2026-01-01 08:52:59.50	87.60	27.44	-39.7	-42.4	15.3	0.00e+00	0	57	0	322961408	50	5046
2026-01-01 08:53:00.51	87.32	27.53	-39.6	-42.3	15.4	0.00e+00	0	57	0	325058560	50	4998
2026-01-01 08:53:01.52	87.05	27.62	-39.3	-41.7	15.9	0.00e+00	0	57	0	326107136	50	4684
2026-01-01 08:53:02.53	86.77	27.71	-39.2	-41.6	16.1	0.00e+00	0	57	0	328204288	50	4642
2026-01-01 08:53:03.54	86.49	27.80	-39.2	-41.6	16.1	0.00e+00	0	57	0	330301440	50	4648
2026-01-01 08:53:04.55	86.20	27.89	-39.4	-41.9	15.7	0.00e+00	0	57	0	332398592	50	4797
2026-01-01 08:53:05.56	85.92	27.98	-39.6	-42.2	15.5	0.00e+00	0	57	0	334495744	50	4974
2026-01-01 08:53:06.57	85.63	28.06	-39.7	-42.4	15.3	0.00e+00	0	57	0	336592896	50	5078
2026-01-01 08:53:07.58	85.35	28.15	-39.8	-42.6	15.1	0.00e+00	0	57	0	337641472	50	5172
2026-01-01 08:53:08.59	85.06	28.24	-40.0	-42.8	14.9	0.00e+00	0	57	0	339738624	50	5311
2026-01-01 08:53:09.60	84.77	28.32	-40.5	-43.6	14.1	7.00e-07	0	57	0	341835776	51	5528
2026-01-01 08:53:10.61	84.48	28.41	-40.5	-43.8	14.0	2.20e-06	0	57	0	343932928	51	5600
2026-01-01 08:53:11.62	84.18	28.49	-40.6	-43.7	14.1	2.20e-06	0	57	0	346030080	51	5583
2026-01-01 08:53:12.63	83.89	28.58	-40.5	-43.6	14.1	6.10e-06	0	57	0	347078656	52	5216
2026-01-01 08:53:13.64	83.59	28.66	-40.5	-43.7	14.0	3.00e-06	0	57	0	349175808	52	5254
2026-01-01 08:53:14.65	83.29	28.74	-40.5	-43.7	14.0	4.50e-06	0	57	0	351272960	52	5246
2026-01-01 08:53:15.66	82.99	28.83	-40.3	-43.3	14.5	2.20e-06	0	57	0	353370112	52	4984
2026-01-01 08:53:16.67	82.69	28.91	-40.2	-43.1	14.7	0.00e+00	0	57	0	355467264	51	5191
2026-01-01 08:53:17.68	82.39	28.99	-40.2	-43.0	14.8	0.00e+00	0	57	0	356515840	51	5154
2026-01-01 08:53:18.69	82.09	29.07	-40.0	-42.7	15.0	7.00e-07	0	57	0	358612992	51	4973
2026-01-01 08:53:19.70	81.78	29.15	-39.7	-42.3	15.5	0.00e+00	0	57	0	360710144	51	4710
2026-01-01 08:53:20.71	81.47	29.23	-39.9	-42.6	15.2	0.00e+00	0	57	0	362807296	51	4882
2026-01-01 08:53:21.72	81.16	29.31	-39.9	-42.7	14.9	0.00e+00	0	57	0	364904448	51	4981
2026-01-01 08:53:22.73	80.85	29.38	-40.2	-43.2	14.5	7.00e-07	0	57	0	365953024	51	5279
2026-01-01 08:53:23.74	80.54	29.46	-40.0	-43.0	14.7	2.20e-06	0	57	0	368050176	51	5136
2026-01-01 08:53:24.75	80.23	29.54	-39.9	-42.8	14.9	0.00e+00	0	57	0	370147328	51	4994
2026-01-01 08:53:25.76	79.91	29.61	-40.1	-43.0	14.7	0.00e+00	0	57	0	372244480	51	5144
2026-01-01 08:53:26.77	79.60	29.69	-40.0	-43.0	14.7	0.00e+00	0	57	0	374341632	51	5122
2026-01-01 08:53:27.78	79.28	29.76	-40.1	-43.0	14.7	0.00e+00	0	57	0	376438784	51	5158
2026-01-01 08:53:28.79	78.96	29.83	-40.0	-43.0	14.7	7.00e-07	0	57	0	377487360	51	5115
2026-01-01 08:53:29.80	78.64	29.90	-39.7	-42.4	15.3	0.00e+00	0	57	0	379584512	51	4791
2026-01-01 08:53:30.81	78.32	29.98	-39.6	-42.3	15.5	0.00e+00	0	57	0	381681664	51	4747
2026-01-01 08:53:31.82	77.99	30.05	-39.6	-42.2	15.5	0.00e+00	0	57	0	383778816	51	4680
2026-01-01 08:53:32.83	77.67	30.12	-39.8	-42.5	15.2	0.00e+00	0	57	0	385875968	51	4845
2026-01-01 08:53:33.84	77.34	30.18	-39.7	-42.4	15.3	0.00e+00	0	57	0	386924544	51	4779
2026-01-01 08:53:34.85	77.02	30.25	-39.6	-42.2	15.5	0.00e+00	0	57	0	389021696	51	4688
2026-01-01 08:53:35.86	76.69	30.32	-39.7	-42.4	15.4	0.00e+00	0	57	0	391118848	51	4770
2026-01-01 08:53:36.87	76.36	30.39	-39.6	-42.2	15.5	0.00e+00	0	57	0	393216000	51	4699
2026-01-01 08:53:37.88	76.02	30.45	-39.4	-41.9	15.8	0.00e+00	0	57	0	395313152	50	4785
2026-01-01 08:53:38.89	75.69	30.51	-39.5	-42.1	15.7	0.00e+00	0	57	0	396361728	50	4892
2026-01-01 08:53:39.90	75.36	30.58	-40.0	-42.9	14.8	0.00e+00	0	57	0	398458880	50	5391
2026-01-01 08:53:40.91	75.02	30.64	-40.2	-43.2	14.5	0.00e+00	0	57	0	400556032	51	5229
2026-01-01 08:53:41.92	74.68	30.70	-40.3	-43.5	14.1	1.50e-06	0	57	0	402653184	51	5443
2026-01-01 08:53:42.93	74.35	30.76	-40.0	-43.0	14.8	0.00e+00	0	57	0	404750336	51	5104
2026-01-01 08:53:43.94	74.01	30.82	-39.7	-42.5	15.2	0.00e+00	0	57	0	405798912	51	4836
2026-01-01 08:53:44.95	73.67	30.88	-39.4	-42.0	15.7	0.00e+00	0	57	0	407896064	50	4858
2026-01-01 08:53:45.96	73.32	30.94	-39.3	-41.8	16.0	0.00e+00	0	57	0	409993216	50	4719
2026-01-01 08:53:46.97	72.98	30.99	-39.1	-41.4	16.3	0.00e+00	0	57	0	412090368	50	4543
2026-01-01 08:53:47.98	72.64	31.05	-39.0	-41.4	16.4	0.00e+00	0	57	0	414187520	50	4499
2026-01-01 08:53:48.99	72.29	31.10	-39.1	-41.5	16.2	0.00e+00	0	57	0	415236096	50	4568
2026-01-01 08:53:50.00	71.95	31.15	-38.9	-41.2	16.5	0.00e+00	0	57	0	417333248	49	4691
2026-01-01 08:53:51.01	71.60	31.21	-38.9	-41.1	16.6	0.00e+00	0	57	0	419430400	49	4651
2026-01-01 08:53:52.02	71.25	31.26	-39.1	-41.5	16.3	0.00e+00	0	57	0	421527552	49	4828
2026-01-01 08:53:53.03	70.90	31.31	-39.3	-41.8	16.0	0.00e+00	0	57	0	423624704	49	4998
2026-01-01 08:53:54.04	70.55	31.36	-39.5	-42.1	15.7	0.00e+00	0	57	0	424673280	49	5168
2026-01-01 08:53:55.05	70.20	31.40	-39.8	-42.6	15.3	7.00e-07	0	57	0	426770432	50	5164
2026-01-01 08:53:56.06	69.84	31.45	-40.1	-43.1	14.8	0.00e+00	0	57	0	428867584	50	5465
2026-01-01 08:53:57.07	69.49	31.49	-40.2	-43.2	14.6	0.00e+00	0	57	0	430964736	51	5225
2026-01-01 08:53:58.07	69.14	31.54	-40.3	-43.4	14.4	7.00e-07	0	57	0	433061888	51	5373
2026-01-01 08:53:59.08	68.78	31.58	-40.0	-42.9	14.9	0.00e+00	0	57	0	434110464	51	5065
2026-01-01 08:54:00.09	68.42	31.62	-39.6	-42.3	15.5	0.00e+00	0	57	0	436207616	51	4738
2026-01-01 08:54:01.10	68.07	31.66	-39.4	-42.0	15.8	0.00e+00	0	57	0	438304768	50	4841
2026-01-01 08:54:02.11	67.71	31.70	-39.7	-42.4	15.4	0.00e+00	0	57	0	440401920	50	5077
2026-01-01 08:54:03.12	67.35	31.74	-40.1	-43.1	14.8	7.00e-07	0	57	0	442499072	50	5484
2026-01-01 08:54:04.13	66.99	31.78	-40.4	-43.4	14.4	7.00e-07	0	57	0	444596224	51	5399
2026-01-01 08:54:05.14	66.63	31.81	-40.4	-43.5	14.3	7.00e-07	0	57	0	445644800	51	5422
2026-01-01 08:54:06.15	66.27	31.85	-40.0	-42.8	15.0	0.00e+00	0	57	0	447741952	51	5011
2026-01-01 08:54:07.16	65.90	31.88	-39.7	-42.3	15.5	0.00e+00	0	57	0	449839104	51	4747
2026-01-01 08:54:08.17	65.54	31.91	-39.5	-41.9	15.9	0.00e+00	0	57	0	451936256	50	4805
2026-01-01 08:54:09.18	65.18	31.94	-39.6	-42.2	15.7	0.00e+00	0	57	0	452984832	50	4943
2026-01-01 08:54:10.19	64.81	31.97	-39.9	-42.6	15.2	0.00e+00	0	57	0	455081984	50	5218
2026-01-01 08:54:11.20	64.45	32.00	-40.4	-43.4	14.4	0.00e+00	0	57	0	457179136	51	5366
2026-01-01 08:54:12.21	64.08	32.02	-40.5	-43.6	14.2	0.00e+00	0	57	0	459276288	51	5486
2026-01-01 08:54:13.22	63.71	32.05	-40.3	-43.3	14.6	7.00e-07	0	57	0	461373440	51	5296
2026-01-01 08:54:14.23	63.35	32.07	-40.0	-42.7	15.1	0.00e+00	0	57	0	463470592	51	4973
2026-01-01 08:54:15.24	62.98	32.10	-39.5	-42.0	15.9	0.00e+00	0	57	0	464519168	51	4551
2026-01-01 08:54:16.25	62.61	32.12	-39.5	-41.9	16.0	0.00e+00	0	57	0	466616320	50	4803
2026-01-01 08:54:17.26	62.24	32.14	-39.5	-42.1	15.8	0.00e+00	0	57	0	468713472	50	4886
2026-01-01 08:54:18.27	61.87	32.16	-40.0	-42.8	15.2	0.00e+00	0	57	0	470810624	50	5311
2026-01-01 08:54:19.28	61.50	32.17	-40.1	-43.0	14.8	0.00e+00	0	57	0	472907776	50	5445
2026-01-01 08:54:20.29	61.13	32.19	-40.2	-43.1	14.7	0.00e+00	0	57	0	473956352	50	5503
2026-01-01 08:54:21.30	60.76	32.20	-40.3	-43.3	14.6	7.00e-07	0	57	0	476053504	51	5286
2026-01-01 08:54:22.31	60.39	32.22	-40.4	-43.5	14.4	7.00e-07	0	58	0	478150656	51	5415
2026-01-01 08:54:23.32	60.02	32.23	-40.5	-43.6	14.2	2.20e-06	0	57	0	480247808	51	5496
2026-01-01 08:54:24.33	59.65	32.24	-40.5	-43.7	14.1	1.50e-06	0	57	0	482344960	52	5240
2026-01-01 08:54:25.34	59.28	32.25	-40.7	-44.0	13.9	6.10e-06	0	57	0	483393536	52	5423
2026-01-01 08:54:26.35	58.91	32.26	-40.7	-44.0	13.8	3.00e-06	0	58	0	485490688	52	5443
2026-01-01 08:54:27.36	58.54	32.26	-40.5	-43.7	14.1	1.50e-06	0	57	0	487587840	52	5260
2026-01-01 08:54:28.37	58.17	32.27	-40.3	-43.4	14.3	0.00e+00	0	57	0	489684992	52	5075
2026-01-01 08:54:29.38	57.80	32.27	-40.0	-42.8	14.9	7.00e-07	0	57	0	491782144	52	4737
2026-01-01 08:54:30.38	57.43	32.28	-39.8	-42.5	15.3	0.00e+00	0	58	0	492830720	51	4866
2026-01-01 08:54:31.40	57.05	32.28	-39.7	-42.4	15.4	0.00e+00	0	57	0	494927872	51	4767
2026-01-01 08:54:32.41	56.68	32.28	-39.5	-42.0	15.8	0.00e+00	0	58	0	497025024	50	4854
2026-01-01 08:54:33.42	56.31	32.27	-39.3	-41.6	16.2	0.00e+00	0	57	0	499122176	50	4642
2026-01-01 08:54:34.42	55.94	32.27	-39.2	-41.6	16.2	0.00e+00	0	57	0	501219328	49	4904
2026-01-01 08:54:35.43	55.57	32.27	-39.3	-41.7	16.2	0.00e+00	0	58	0	502267904	49	4969
2026-01-01 08:54:36.44	55.20	32.26	-39.7	-42.2	15.6	0.00e+00	0	57	0	504365056	50	4971
2026-01-01 08:54:37.45	54.83	32.25	-40.2	-43.2	14.8	0.00e+00	0	57	0	506462208	51	5269
2026-01-01 08:54:38.46	54.45	32.25	-40.5	-43.5	14.4	0.00e+00	0	58	0	508559360	51	5440
2026-01-01 08:54:39.47	54.08	32.24	-40.4	-43.4	14.4	3.00e-06	0	58	0	510656512	51	5396
2026-01-01 08:54:40.48	53.71	32.23	-40.4	-43.4	14.4	7.00e-07	0	58	0	512753664	52	5082
2026-01-01 08:54:41.49	53.34	32.21	-40.2	-43.2	14.6	0.00e+00	0	58	0	513802240	52	4938
2026-01-01 08:54:42.50	52.97	32.20	-40.4	-43.4	14.4	0.00e+00	0	57	0	515899392	52	5076
2026-01-01 08:54:43.51	52.60	32.18	-40.3	-43.3	14.6	0.00e+00	0	58	0	517996544	52	5029
2026-01-01 08:54:44.52	52.23	32.17	-40.5	-43.5	14.3	7.00e-07	0	58	0	520093696	52	5151
2026-01-01 08:54:45.53	51.86	32.15	-40.6	-43.7	14.1	0.00e+00	0	58	0	521142272	52	5272
2026-01-01 08:54:46.54	51.50	32.13	-40.4	-43.5	14.3	0.00e+00	0	58	0	523239424	52	5148
2026-01-01 08:54:47.55	51.13	32.11	-40.4	-43.5	14.5	0.00e+00	0	58	0	525336576	52	5104
2026-01-01 08:54:48.56	50.76	32.09	-40.0	-42.8	15.1	0.00e+00	0	58	0	527433728	51	5033
2026-01-01 08:54:49.57	50.39	32.07	-40.0	-42.8	15.1	0.00e+00	0	58	0	529530880	51	5010
2026-01-01 08:54:50.58	50.03	32.04	-40.1	-43.0	14.9	0.00e+00	0	58	0	530579456	51	5116
2026-01-01 08:54:51.59	49.66	32.02	-40.0	-42.8	15.0	0.00e+00	0	57	0	532676608	51	5011
2026-01-01 08:54:52.59	49.30	31.99	-40.1	-43.0	14.9	0.00e+00	0	58	0	534773760	51	5132
2026-01-01 08:54:53.60	48.93	31.96	-40.1	-43.0	14.8	7.00e-07	0	58	0	536870912	51	5148
2026-01-01 08:54:54.61	48.57	31.93	-40.2	-43.2	14.6	0.00e+00	0	58	0	538968064	51	5252
2026-01-01 08:54:55.62	48.21	31.90	-40.0	-42.8	14.9	7.00e-07	0	58	0	541065216	51	5032
2026-01-01 08:54:56.63	47.84	31.87	-40.0	-42.9	15.0	0.00e+00	0	58	0	542113792	51	5086
2026-01-01 08:54:57.64	47.48	31.83	-39.6	-42.2	15.6	0.00e+00	0	58	0	544210944	51	4670
2026-01-01 08:54:58.65	47.12	31.80	-39.6	-42.2	15.6	0.00e+00	0	58	0	546308096	51	4690
2026-01-01 08:54:59.66	46.76	31.76	-39.4	-42.0	15.8	0.00e+00	0	58	0	548405248	50	4855
2026-01-01 08:55:00.67	46.40	31.73	-39.7	-42.5	15.4	0.00e+00	0	58	0	550502400	50	5109
2026-01-01 08:55:01.69	46.04	31.69	-40.3	-43.4	14.6	0.00e+00	0	58	0	551550976	51	5353
2026-01-01 08:55:02.70	45.68	31.65	-40.2	-43.3	14.6	0.00e+00	0	58	0	553648128	51	5296
2026-01-01 08:55:03.70	45.33	31.61	-39.7	-42.3	15.5	0.00e+00	0	58	0	555745280	51	4757
2026-01-01 08:55:04.71	44.97	31.57	-39.5	-42.1	15.7	0.00e+00	0	57	0	557842432	50	4917
2026-01-01 08:55:05.72	44.62	31.52	-39.7	-42.4	15.4	0.00e+00	0	58	0	559939584	50	5091
2026-01-01 08:55:06.73	44.26	31.48	-40.1	-43.1	14.8	0.00e+00	0	58	0	560988160	50	5509
2026-01-01 08:55:07.74	43.91	31.43	-40.3	-43.4	14.5	0.00e+00	0	58	0	563085312	51	5364
2026-01-01 08:55:08.75	43.56	31.39	-40.0	-43.0	14.8	0.00e+00	0	58	0	565182464	51	5134
2026-01-01 08:55:09.76	43.21	31.34	-39.9	-42.7	15.1	0.00e+00	0	58	0	567279616	51	4968
2026-01-01 08:55:10.77	42.86	31.29	-39.4	-42.0	15.8	0.00e+00	0	58	0	569376768	50	4839
2026-01-01 08:55:11.78	42.51	31.24	-39.2	-41.7	16.1	0.00e+00	0	58	0	570425344	50	4675
2026-01-01 08:55:12.79	42.16	31.19	-39.5	-42.0	15.8	0.00e+00	0	58	0	572522496	50	4858
2026-01-01 08:55:13.80	41.81	31.14	-39.5	-42.0	15.7	0.00e+00	0	58	0	574619648	50	4851
2026-01-01 08:55:14.81	41.47	31.08	-39.7	-42.5	15.5	0.00e+00	0	58	0	576716800	50	5102
2026-01-01 08:55:15.82	41.12	31.03	-39.6	-42.2	15.7	0.00e+00	0	58	0	578813952	50	4938
2026-01-01 08:55:16.83	40.78	30.97	-39.9	-42.7	15.3	0.00e+00	0	58	0	580911104	50	5234
2026-01-01 08:55:17.84	40.44	30.92	-39.9	-42.6	15.2	0.00e+00	0	58	0	581959680	50	5212
2026-01-01 08:55:18.85	40.10	30.86	-40.0	-42.8	15.0	0.00e+00	0	58	0	584056832	50	5300
2026-01-01 08:55:19.86	39.76	30.80	-40.1	-43.1	14.8	0.00e+00	0	58	0	586153984	50	5488
2026-01-01 08:55:20.87	39.42	30.74	-40.5	-43.7	14.2	0.00e+00	0	58	0	588251136	51	5531
2026-01-01 08:55:21.88	39.08	30.68	-40.6	-43.9	13.9	1.50e-06	0	58	0	590348288	51	5716
2026-01-01 08:55:22.89	38.75	30.62	-40.7	-44.1	13.7	3.80e-06	0	58	0	591396864	52	5478
2026-01-01 08:55:23.90	38.41	30.56	-40.7	-44.2	13.5	8.30e-06	0	58	0	593494016	52	5541
2026-01-01 08:55:24.91	38.08	30.49	-40.7	-44.1	13.4	1.06e-05	0	58	0	595591168	52	5527
2026-01-01 08:55:25.92	37.75	30.43	-40.7	-44.2	13.5	4.50e-06	0	58	0	597688320	52	5550
2026-01-01 08:55:26.93	37.42	30.37	-40.9	-44.4	13.3	1.29e-05	0	58	0	598736896	52	5703
2026-01-01 08:55:27.94	37.09	30.30	-41.1	-44.8	12.9	1.14e-05	0	58	0	600834048	52	5970
2026-01-01 08:55:28.95	36.76	30.23	-40.8	-44.3	13.5	3.50e-05	0	58	0	602931200	52	5609
2026-01-01 08:55:29.96	36.43	30.16	-40.8	-44.3	13.5	1.75e-05	0	58	0	605028352	52	5623
2026-01-01 08:55:30.97	36.11	30.09	-40.8	-44.2	13.5	3.80e-06	0	58	0	607125504	52	5591
2026-01-01 08:55:31.98	35.79	30.03	-40.6	-43.8	13.9	6.80e-06	0	58	0	609222656	52	5322
2026-01-01 08:55:32.99	35.46	29.95	-40.3	-43.4	14.3	3.00e-06	0	58	0	610271232	52	5090
2026-01-01 08:55:34.00	35.14	29.88	-40.2	-43.3	14.5	0.00e+00	0	58	0	612368384	52	4985
2026-01-01 08:55:35.01	34.82	29.81	-40.4	-43.5	14.3	1.50e-06	0	58	0	614465536	52	5148
2026-01-01 08:55:36.02	34.51	29.74	-40.5	-43.7	14.1	6.80e-06	0	58	0	616562688	52	5247
2026-01-01 08:55:37.03	34.19	29.66	-40.3	-43.4	14.4	1.50e-06	0	58	0	618659840	52	5042
2026-01-01 08:55:38.03	33.88	29.59	-40.0	-42.8	15.0	0.00e+00	0	58	0	619708416	51	5015
2026-01-01 08:55:39.04	33.57	29.52	-39.8	-42.5	15.3	0.00e+00	0	58	0	621805568	51	4850
2026-01-01 08:55:40.05	33.25	29.44	-39.7	-42.4	15.4	0.00e+00	0	58	0	623902720	51	4810
2026-01-01 08:55:41.06	32.94	29.36	-39.2	-41.7	16.1	0.00e+00	0	58	0	625999872	50	4663
2026-01-01 08:55:42.07	32.63	29.28	-38.8	-41.1	16.6	0.00e+00	0	58	0	628097024	49	4648
2026-01-01 08:55:43.08	32.33	29.21	-38.7	-40.9	16.9	0.00e+00	0	58	0	629145600	49	4514
2026-01-01 08:55:44.09	32.02	29.13	-38.6	-40.9	16.9	0.00e+00	0	58	0	631242752	48	4773
2026-01-01 08:55:45.10	31.72	29.05	-38.7	-41.0	16.8	0.00e+00	0	58	0	633339904	48	4837
2026-01-01 08:55:46.11	31.41	28.97	-39.0	-41.4	16.4	0.00e+00	0	58	0	635437056	48	5064
2026-01-01 08:55:47.12	31.11	28.89	-39.2	-41.7	16.1	0.00e+00	0	58	0	637534208	49	4945
2026-01-01 08:55:48.13	30.81	28.80	-39.4	-41.9	15.8	0.00e+00	0	58	0	638582784	49	5099
2026-01-01 08:55:49.14	30.51	28.72	-39.9	-42.7	15.1	7.00e-07	0	58	0	640679936	50	5248
2026-01-01 08:55:50.15	30.22	28.64	-40.7	-44.2	13.7	7.00e-07	0	58	0	642777088	52	5537
2026-01-01 08:55:51.16	29.92	28.56	-40.7	-44.0	13.7	6.80e-06	0	58	0	644874240	52	5446
2026-01-01 08:55:52.17	29.63	28.47	-40.0	-42.9	14.9	7.00e-07	0	58	0	646971392	52	4766
2026-01-01 08:55:53.18	29.34	28.39	-39.5	-42.0	15.9	0.00e+00	0	58	0	649068544	51	4578
2026-01-01 08:55:54.19	29.05	28.30	-39.6	-42.1	16.0	0.00e+00	0	58	0	650117120	50	4887
2026-01-01 08:55:55.20	28.76	28.22	-39.7	-42.3	15.6	0.00e+00	0	58	0	652214272	50	5018
2026-01-01 08:55:56.21	28.47	28.13	-40.3	-43.4	14.5	0.00e+00	0	58	0	654311424	51	5354
2026-01-01 08:55:57.22	28.19	28.04	-41.0	-44.7	13.2	6.10e-06	0	58	0	656408576	52	5867
2026-01-01 08:55:58.23	27.90	27.96	-41.6	-45.9	11.9	1.04e-04	0	58	0	657457152	53	6366
2026-01-01 08:55:59.24	27.62	27.87	-41.6	-45.8	12.0	3.87e-04	0	58	0	659554304	53	6305
2026-01-01 08:56:00.25	27.34	27.78	-41.3	-45.0	12.8	8.77e-05	0	58	0	661651456	53	5767
2026-01-01 08:56:01.26	27.06	27.69	-41.1	-44.7	13.1	6.56e-05	0	58	0	663748608	53	5577
2026-01-01 08:56:02.27	26.78	27.60	-40.6	-43.9	14.0	9.10e-06	0	58	0	665845760	53	5052
2026-01-01 08:56:03.28	26.50	27.51	-40.5	-43.6	14.3	2.20e-06	0	58	0	667942912	52	5189
2026-01-01 08:56:04.29	26.23	27.42	-40.3	-43.3	14.6	7.00e-07	0	58	0	668991488	52	4993
2026-01-01 08:56:05.30	25.96	27.33	-40.4	-43.4	14.5	7.00e-07	0	58	0	671088640	52	5064
2026-01-01 08:56:06.31	25.68	27.24	-40.3	-43.2	14.7	7.00e-07	0	58	0	673185792	52	4979
2026-01-01 08:56:07.32	25.41	27.15	-40.6	-43.7	14.2	1.50e-06	0	58	0	675282944	52	5263
2026-01-01 08:56:08.33	25.15	27.06	-40.3	-43.2	14.7	0.00e+00	0	58	0	677380096	52	4954
2026-01-01 08:56:09.35	24.88	26.96	-40.0	-42.7	15.2	0.00e+00	0	58	0	678428672	52	4674
2026-01-01 08:56:10.35	24.61	26.87	-39.4	-41.8	16.1	0.00e+00	0	58	0	680525824	50	4714
2026-01-01 08:56:11.37	24.35	26.78	-38.9	-41.0	16.8	0.00e+00	0	58	0	682622976	49	4587
2026-01-01 08:56:12.38	24.09	26.69	-38.8	-41.0	16.9	0.00e+00	0	58	0	684720128	49	4564
2026-01-01 08:56:13.39	23.82	26.59	-38.9	-41.1	16.8	0.00e+00	0	58	0	686817280	49	4605
2026-01-01 08:56:14.40	23.57	26.50	-38.7	-40.9	17.0	0.00e+00	0	58	0	687865856	49	4515
2026-01-01 08:56:15.40	23.31	26.40	-38.6	-40.8	17.0	0.00e+00	0	58	0	689963008	49	4449
2026-01-01 08:56:16.41	23.05	26.31	-38.9	-41.2	16.7	0.00e+00	0	58	0	692060160	49	4668
2026-01-01 08:56:17.42	22.80	26.22	-39.1	-41.5	16.5	0.00e+00	0	58	0	694157312	49	4823
2026-01-01 08:56:18.43	22.55	26.12	-39.3	-41.7	16.2	0.00e+00	0	58	0	696254464	49	4948
2026-01-01 08:56:19.45	22.29	26.02	-39.4	-41.8	16.0	0.00e+00	0	58	0	697303040	49	5037
2026-01-01 08:56:20.46	22.04	25.93	-39.6	-42.1	15.8	0.00e+00	0	58	0	699400192	49	5207
2026-01-01 08:56:21.47	21.80	25.83	-39.4	-41.8	16.1	0.00e+00	0	58	0	701497344	49	5036
2026-01-01 08:56:22.48	21.55	25.74	-39.5	-41.9	15.9	0.00e+00	0	58	0	703594496	49	5097
2026-01-01 08:56:23.49	21.30	25.64	-39.3	-41.7	16.2	0.00e+00	0	58	0	705691648	49	4927
2026-01-01 08:56:24.50	21.06	25.54	-39.2	-41.6	16.3	0.00e+00	0	58	0	706740224	49	4920
2026-01-01 08:56:25.51	20.82	25.45	-39.4	-41.9	16.0	0.00e+00	0	58	0	708837376	49	5053
2026-01-01 08:56:26.52	20.58	25.35	-39.4	-42.0	16.0	0.00e+00	0	58	0	710934528	49	5101
2026-01-01 08:56:27.53	20.34	25.25	-39.5	-42.0	15.9	0.00e+00	0	58	0	713031680	49	5126
2026-01-01 08:56:28.53	20.10	25.16	-39.4	-41.9	16.0	0.00e+00	0	58	0	715128832	49	5051
2026-01-01 08:56:29.54	19.87	25.06	-39.2	-41.5	16.3	0.00e+00	0	58	0	716177408	49	4858
2026-01-01 08:56:30.55	19.63	24.96	-38.8	-41.1	16.7	0.00e+00	0	58	0	718274560	49	4615
2026-01-01 08:56:31.56	19.40	24.86	-38.4	-40.5	17.4	0.00e+00	0	58	0	720371712	48	4553
2026-01-01 08:56:32.57	19.17	24.76	-38.1	-40.1	17.7	0.00e+00	0	58	0	722468864	48	4369
2026-01-01 08:56:33.58	18.94	24.67	-37.9	-39.8	17.9	0.00e+00	0	58	0	724566016	47	4479
2026-01-01 08:56:34.59	18.71	24.57	-37.5	-39.3	18.4	0.00e+00	0	58	0	726663168	47	4221
2026-01-01 08:56:35.60	18.48	24.47	-37.6	-39.4	18.3	0.00e+00	0	58	0	727711744	47	4263
2026-01-01 08:56:36.61	18.25	24.37	-37.7	-39.5	18.2	0.00e+00	0	58	0	729808896	47	4332
2026-01-01 08:56:37.62	18.03	24.27	-38.0	-39.9	17.8	0.00e+00	0	58	0	731906048	47	4528
2026-01-01 08:56:38.63	17.81	24.17	-38.2	-40.2	17.5	0.00e+00	0	58	0	734003200	47	4684
2026-01-01 08:56:39.64	17.58	24.08	-38.6	-40.7	17.1	0.00e+00	0	58	0	736100352	47	4959
2026-01-01 08:56:40.65	17.36	23.98	-38.6	-40.7	17.0	0.00e+00	0	58	0	737148928	47	4983
2026-01-01 08:56:41.65	17.15	23.88	-38.3	-40.4	17.4	0.00e+00	0	58	0	739246080	47	4778
2026-01-01 08:56:42.67	16.93	23.78	-37.8	-39.7	18.0	0.00e+00	0	58	0	741343232	47	4420
2026-01-01 08:56:43.68	16.71	23.68	-37.8	-39.7	18.0	0.00e+00	0	58	0	743440384	47	4417
2026-01-01 08:56:44.69	16.50	23.58	-37.9	-39.8	17.9	0.00e+00	0	58	0	745537536	47	4491
2026-01-01 08:56:45.70	16.28	23.48	-38.0	-40.0	17.7	0.00e+00	0	58	0	746586112	47	4549
2026-01-01 08:56:46.71	16.07	23.38	-38.0	-40.0	17.7	0.00e+00	0	58	0	748683264	47	4559
2026-01-01 08:56:47.72	15.86	23.28	-38.2	-40.3	17.4	0.00e+00	0	58	0	750780416	47	4724
2026-01-01 08:56:48.73	15.65	23.18	-38.3	-40.3	17.4	0.00e+00	0	58	0	752877568	47	4738
2026-01-01 08:56:49.74	15.44	23.08	-38.1	-40.1	17.6	0.00e+00	0	58	0	754974720	47	4605
2026-01-01 08:56:50.75	15.24	22.98	-38.2	-40.2	17.5	0.00e+00	0	58	0	756023296	47	4695
2026-01-01 08:56:51.76	15.03	22.88	-38.3	-40.4	17.3	0.00e+00	0	58	0	758120448	47	4765
2026-01-01 08:56:52.77	14.83	22.78	-38.5	-40.6	17.1	0.00e+00	0	58	0	760217600	47	4903
2026-01-01 08:56:53.78	14.62	22.68	-38.5	-40.6	17.1	0.00e+00	0	58	0	762314752	47	4924
2026-01-01 08:56:54.79	14.42	22.59	-38.6	-40.8	16.9	0.00e+00	0	58	0	764411904	47	4996
2026-01-01 08:56:55.80	14.22	22.49	-38.3	-40.4	17.3	0.00e+00	0	58	0	765460480	47	4770
2026-01-01 08:56:56.81	14.02	22.39	-38.3	-40.3	17.4	0.00e+00	0	58	0	767557632	47	4747
2026-01-01 08:56:57.82	13.83	22.29	-38.1	-40.1	17.6	0.00e+00	0	58	0	769654784	47	4606
2026-01-01 08:56:58.83	13.63	22.19	-38.3	-40.3	17.4	0.00e+00	0	58	0	771751936	47	4739
2026-01-01 08:56:59.84	13.43	22.09	-38.2	-40.3	17.5	0.00e+00	0	58	0	773849088	47	4706
2026-01-01 08:57:00.85	13.24	21.99	-38.4	-40.5	17.3	0.00e+00	0	58	0	774897664	47	4859
2026-01-01 08:57:01.85	13.05	21.89	-38.6	-40.7	17.0	0.00e+00	0	58	0	776994816	47	4974
2026-01-01 08:57:02.87	12.86	21.79	-38.6	-40.7	17.1	0.00e+00	0	58	0	779091968	47	4957
2026-01-01 08:57:03.88	12.67	21.69	-38.7	-40.9	16.9	0.00e+00	0	58	0	781189120	47	5051
2026-01-01 08:57:04.89	12.48	21.59	-38.8	-41.0	16.8	0.00e+00	0	58	0	783286272	48	4839
2026-01-01 08:57:05.90	12.29	21.49	-38.8	-40.9	16.9	0.00e+00	0	58	0	784334848	48	4810
2026-01-01 08:57:06.91	12.11	21.39	-38.6	-40.7	17.2	0.00e+00	0	58	0	786432000	48	4660
2026-01-01 08:57:07.92	11.92	21.29	-38.8	-41.0	16.8	0.00e+00	0	58	0	788529152	48	4832
2026-01-01 08:57:08.93	11.74	21.20	-38.9	-41.1	16.6	0.00e+00	0	58	0	790626304	48	4883
2026-01-01 08:57:09.93	11.56	21.10	-38.9	-41.1	16.7	0.00e+00	0	58	0	792723456	48	4878
2026-01-01 08:57:10.94	11.37	21.00	-38.9	-41.0	16.8	0.00e+00	0	58	0	794820608	48	4867
2026-01-01 08:57:11.95	11.19	20.90	-39.0	-41.3	16.6	0.00e+00	0	58	0	795869184	48	4990
2026-01-01 08:57:12.96	11.02	20.80	-38.8	-41.0	16.8	0.00e+00	0	58	0	797966336	48	4858
2026-01-01 08:57:13.97	10.84	20.70	-38.9	-41.1	16.8	0.00e+00	0	58	0	800063488	48	4909
2026-01-01 08:57:14.98	10.66	20.60	-39.1	-41.3	16.5	0.00e+00	0	58	0	802160640	48	5027
2026-01-01 08:57:15.99	10.48	20.51	-39.3	-41.7	16.2	0.00e+00	0	58	0	804257792	49	4950
2026-01-01 08:57:17.00	10.31	20.41	-39.4	-41.9	16.0	0.00e+00	0	58	0	805306368	49	5047
2026-01-01 08:57:18.01	10.14	20.31	-39.7	-42.2	15.7	0.00e+00	0	58	0	807403520	49	5244
2026-01-01 08:57:19.02	9.96	20.21	-39.9	-42.6	15.2	0.00e+00	0	58	0	809500672	50	5205
2026-01-01 08:57:20.03	9.79	20.11	-39.9	-42.6	15.2	0.00e+00	0	58	0	811597824	50	5197
2026-01-01 08:57:21.04	9.62	20.02	-39.9	-42.5	15.3	0.00e+00	0	58	0	813694976	50	5154
2026-01-01 08:57:22.05	9.45	19.92	-39.7	-42.2	15.6	0.00e+00	0	58	0	814743552	50	4943
2026-01-01 08:57:23.06	9.29	19.82	-39.4	-41.8	16.1	0.00e+00	0	58	0	816840704	50	4738
2026-01-01 08:57:24.07	9.12	19.72	-39.0	-41.3	16.6	0.00e+00	0	58	0	818937856	50	4442
2026-01-01 08:57:25.08	8.95	19.63	-39.1	-41.4	16.4	0.00e+00	0	58	0	821035008	50	4501
2026-01-01 08:57:26.09	8.79	19.53	-38.9	-41.1	16.6	0.00e+00	0	58	0	823132160	49	4623
2026-01-01 08:57:27.10	8.63	19.43	-39.0	-41.2	16.5	0.00e+00	0	58	0	824180736	49	4671
2026-01-01 08:57:28.11	8.46	19.34	-39.3	-41.6	16.1	0.00e+00	0	58	0	826277888	49	4919
2026-01-01 08:57:29.12	8.30	19.24	-39.3	-41.7	16.0	0.00e+00	0	58	0	828375040	49	4971
2026-01-01 08:57:30.13	8.14	19.14	-39.3	-41.7	15.9	0.00e+00	0	58	0	830472192	49	4968
2026-01-01 08:57:31.14	7.98	19.05	-39.5	-42.0	15.7	0.00e+00	0	58	0	832569344	49	5140
2026-01-01 08:57:32.15	7.83	18.95	-39.6	-42.1	15.7	0.00e+00	0	58	0	833617920	49	5185
2026-01-01 08:57:33.16	7.67	18.85	-39.1	-41.4	16.3	0.00e+00	0	58	0	835715072	49	4782
2026-01-01 08:57:34.17	7.51	18.76	-39.0	-41.3	16.4	0.00e+00	0	58	0	837812224	49	4745
2026-01-01 08:57:35.18	7.36	18.66	-38.9	-41.2	16.5	0.00e+00	0	58	0	839909376	49	4657
2026-01-01 08:57:36.19	7.20	18.57	-38.9	-41.1	16.6	0.00e+00	0	58	0	842006528	49	4644
2026-01-01 08:57:37.20	7.05	18.47	-38.7	-40.9	16.8	0.00e+00	0	58	0	843055104	49	4508
2026-01-01 08:57:38.21	6.90	18.37	-38.7	-40.9	16.9	0.00e+00	0	58	0	845152256	49	4531
2026-01-01 08:57:39.22	6.75	18.28	-38.7	-40.9	16.8	0.00e+00	0	58	0	847249408	49	4520
2026-01-01 08:57:40.23	6.59	18.18	-38.6	-40.7	16.9	0.00e+00	0	58	0	849346560	49	4432
2026-01-01 08:57:41.24	6.45	18.09	-38.8	-41.0	16.7	0.00e+00	0	58	0	851443712	49	4590
2026-01-01 08:57:42.25	6.30	17.99	-38.7	-40.9	16.8	0.00e+00	0	58	0	852492288	49	4506
2026-01-01 08:57:43.26	6.15	17.90	-38.8	-41.1	16.6	0.00e+00	0	58	0	854589440	49	4609
2026-01-01 08:57:44.27	6.00	17.81	-38.6	-40.7	16.9	0.00e+00	0	58	0	856686592	49	4432
2026-01-01 08:57:45.28	5.86	17.71	-38.8	-41.0	16.6	0.00e+00	0	58	0	858783744	49	4581
2026-01-01 08:57:46.29	5.71	17.62	-38.7	-40.9	16.7	0.00e+00	0	58	0	860880896	49	4535
2026-01-01 08:57:47.30	5.57	17.52	-38.9	-41.1	16.5	0.00e+00	0	58	0	862978048	49	4637
2026-01-01 08:57:48.31	5.43	17.43	-38.9	-41.1	16.4	0.00e+00	0	58	0	864026624	49	4635
2026-01-01 08:57:49.32	5.28	17.34	-38.6	-40.8	16.8	0.00e+00	0	58	0	866123776	49	4451
2026-01-01 08:57:50.33	5.14	17.24	-38.7	-40.9	16.7	0.00e+00	0	58	0	868220928	49	4506
2026-01-01 08:57:51.34	5.00	17.15	-38.6	-40.8	16.8	0.00e+00	0	58	0	870318080	49	4451
2026-01-01 08:57:52.35	4.86	17.06	-38.7	-40.9	16.7	0.00e+00	0	58	0	872415232	49	4498
2026-01-01 08:57:53.36	4.73	16.96	-38.6	-40.8	16.7	0.00e+00	0	58	0	873463808	49	4467
2026-01-01 08:57:54.37	4.59	16.87	-38.9	-41.2	16.3	0.00e+00	0	58	0	875560960	49	4681
2026-01-01 08:57:55.38	4.45	16.78	-39.1	-41.5	16.1	0.00e+00	0	58	0	877658112	49	4827
2026-01-01 08:57:56.39	4.32	16.69	-39.4	-41.9	15.7	0.00e+00	0	58	0	879755264	49	5052
2026-01-01 08:57:57.40	4.18	16.59	-40.0	-42.8	14.7	0.00e+00	0	58	0	881852416	50	5299
2026-01-01 08:57:58.41	4.05	16.50	-40.3	-43.4	14.2	7.00e-07	0	58	0	882900992	51	5347
2026-01-01 08:57:59.42	3.91	16.41	-40.4	-43.6	13.9	2.20e-06	0	58	0	884998144	51	5465
2026-01-01 08:58:00.43	3.78	16.32	-40.6	-43.9	13.6	4.50e-06	0	58	0	887095296	51	5692
2026-01-01 08:58:01.44	3.65	16.23	-40.6	-43.8	13.6	6.80e-06	0	58	0	889192448	51	5655
2026-01-01 08:58:02.45	3.52	16.14	-40.4	-43.4	14.1	3.80e-06	0	58	0	891289600	51	5398
2026-01-01 08:58:03.46	3.39	16.05	-40.0	-42.9	14.5	7.00e-07	0	58	0	892338176	51	5065
2026-01-01 08:58:04.47	3.26	15.95	-39.6	-42.3	15.2	0.00e+00	0	58	0	894435328	51	4707
2026-01-01 08:58:05.48	3.13	15.86	-39.3	-41.8	15.7	0.00e+00	0	58	0	896532480	50	4724
2026-01-01 08:58:06.49	3.00	15.77	-39.1	-41.4	16.0	0.00e+00	0	58	0	898629632	50	4542
2026-01-01 08:58:07.50	2.88	15.68	-38.7	-40.9	16.5	0.00e+00	0	58	0	900726784	49	4524
2026-01-01 08:58:08.51	2.75	15.59	-38.8	-41.1	16.3	0.00e+00	0	58	0	901775360	49	4645
2026-01-01 08:58:09.52	2.63	15.50	-38.8	-41.2	16.2	0.00e+00	0	58	0	903872512	49	4661
2026-01-01 08:58:10.53	2.50	15.41	-39.0	-41.4	16.0	0.00e+00	0	58	0	905969664	49	4792
2026-01-01 08:58:11.54	2.38	15.32	-39.3	-41.9	15.5	0.00e+00	0	58	0	908066816	49	5061
2026-01-01 08:58:12.55	2.25	15.23	-39.6	-42.3	15.0	0.00e+00	0	58	0	910163968	49	5326
2026-01-01 08:58:13.55	2.13	15.15	-39.7	-42.6	14.8	0.00e+00	0	58	0	911212544	50	5169
2026-01-01 08:58:14.56	2.01	15.06	-40.1	-43.2	14.2	0.00e+00	0	58	0	913309696	50	5535
2026-01-01 08:58:15.57	1.89	14.97	-40.2	-43.4	14.0	2.20e-06	0	58	0	915406848	51	5367
2026-01-01 08:58:16.58	1.77	14.88	-40.2	-43.4	13.9	3.00e-06	0	58	0	917504000	51	5385
2026-01-01 08:58:17.59	1.65	14.79	-40.0	-43.1	14.2	7.60e-06	0	58	0	919601152	51	5186
2026-01-01 08:58:18.60	1.53	14.70	-39.9	-43.0	14.3	2.20e-06	0	58	0	920649728	51	5131
2026-01-01 08:58:19.61	1.42	14.62	-39.9	-42.8	14.4	0.00e+00	0	58	0	922746880	51	5037
2026-01-01 08:58:20.62	1.30	14.53	-39.9	-42.9	14.3	7.00e-07	0	58	0	924844032	51	5073
2026-01-01 08:58:21.63	1.18	14.44	-39.9	-43.1	14.1	1.50e-06	0	58	0	926941184	51	5171
2026-01-01 08:58:22.64	1.07	14.35	-39.8	-42.9	14.2	2.20e-06	0	58	0	929038336	51	5088
2026-01-01 08:58:23.65	0.95	14.27	-39.8	-42.9	14.2	2.20e-06	0	58	0	931135488	51	5097
2026-01-01 08:58:24.66	0.84	14.18	-39.7	-42.7	14.3	0.00e+00	0	58	0	932184064	51	4983
2026-01-01 08:58:25.67	0.72	14.09	-39.6	-42.7	14.2	7.00e-07	0	58	0	934281216	51	4946
2026-01-01 08:58:26.68	0.61	14.01	-39.3	-42.3	14.4	0.00e+00	0	58	0	936378368	50	5040
2026-01-01 08:58:27.69	0.50	13.92	-39.1	-42.1	14.5	0.00e+00	0	58	0	938475520	50	4891
2026-01-01 08:58:28.70	0.39	13.83	-39.1	-42.2	14.3	0.00e+00	0	58	0	940572672	50	4929
2026-01-01 08:58:29.71	0.28	13.75	-39.2	-42.5	13.8	2.20e-06	0	58	0	941621248	50	5105
2026-01-01 08:58:30.72	0.17	13.66	-39.5	-43.2	12.8	1.44e-05	0	58	0	943718400	50	5545
2026-01-01 08:58:31.73	0.06	13.58	-39.8	-44.0	11.7	3.38e-04	0	58	0	945815552	50	6106
2026-01-01 08:58:32.74	359.95	13.49	-40.1	-45.0	10.3	1.85e-03	0	58	0	947912704	50	6872
2026-01-01 08:58:33.75	359.84	13.41	-40.3	-45.9	9.2	1.05e-02	0	58	0	950009856	51	7182
2026-01-01 08:58:34.76	359.73	13.32	-40.4	-46.9	8.0	5.02e-02	0	58	0	951058432	51	7999
2026-01-01 08:58:35.77	359.62	13.24	-40.5	-48.1	6.7	1.45e-01	0	58	0	953155584	51	9207
2026-01-01 08:58:36.79	359.52	13.15	-40.6	-49.6	5.3	3.17e-01	0	58	0	955252736	51	11024
2026-01-01 08:58:37.80	359.41	13.07	-40.6	-50.7	4.7	8.25e-01	0	58	0	957349888	51	12439
2026-01-01 08:58:38.81	359.31	12.98	-40.5	-51.1	4.4	1.03e+00	0	58	0	959447040	51	12997
2026-01-01 08:58:39.82	359.20	12.90	-40.4	-51.5	4.3	1.27e+00	0	58	0	960495616	51	13594
2026-01-01 08:58:40.83	359.10	12.81	-40.4	-51.9	4.1	1.39e+00	0	58	0	960495616	51	14248
2026-01-01 08:58:41.84	359.00	12.73	-40.3	-52.4	4.0	1.47e+00	0	58	104	960495616	51	15174
2026-01-01 08:58:42.85	358.89	12.65	-40.3	-52.9	3.9	1.48e+00	0	58	104	960495616	51	16053
2026-01-01 08:58:43.86	358.79	12.56	-40.3	-53.2	3.8	1.49e+00	0	58	104	960495616	51	16559
2026-01-01 08:58:44.87	358.69	12.48	-40.2	-53.4	3.8	1.49e+00	0	58	104	960495616	51	16905
2026-01-01 08:58:45.88	358.59	12.40	-40.2	-53.4	3.8	1.49e+00	0	58	104	960495616	51	16972
2026-01-01 08:58:46.89	358.49	12.31	-40.2	-53.5	3.8	1.49e+00	0	58	104	960495616	51	17108
2026-01-01 08:58:47.90	358.39	12.23	-40.2	-53.4	3.8	1.49e+00	0	58	104	960495616	51	16999
2026-01-01 08:58:48.91	358.29	12.15	-40.1	-53.5	3.8	1.49e+00	0	58	104	960495616	51	17128
2026-01-01 08:58:49.92	358.19	12.07	-40.0	-53.7	3.8	1.49e+00	0	58	104	960495616	51	17562
2026-01-01 08:58:50.93	358.09	11.99	-40.0	-54.0	3.8	1.49e+00	0	58	104	960495616	51	18117
2026-01-01 08:58:51.94	358.00	11.90	-40.7	-54.5	3.8	1.49e+00	0	58	104	960495616	51	19378
2026-01-01 08:58:52.95	357.90	11.82	-39.6	-54.4	3.8	1.49e+00	0	58	104	960495616	51	19041
2026-01-01 08:58:53.96	357.80	11.74	-39.3	-54.3	3.8	1.49e+00	0	58	104	960495616	50	19924
2026-01-01 08:58:54.97	357.71	11.66	-39.7	-54.5	3.8	1.49e+00	0	58	104	960495616	50	20371
2026-01-01 08:58:55.98	357.61	11.58	-39.1	-54.2	3.8	1.49e+00	0	58	104	960495616	50	19797
2026-01-01 08:58:56.99	357.52	11.50	-39.7	-54.5	3.8	1.49e+00	0	58	104	960495616	50	20342
2026-01-01 08:58:58.00	357.42	11.42	-40.2	-54.8	3.8	1.49e+00	0	58	104	960495616	50	21198
2026-01-01 08:58:59.01	357.33	11.34	-39.2	-54.4	3.8	1.49e+00	0	58	104	960495616	50	20076
2026-01-01 08:59:00.02	357.24	11.26	-40.1	-54.8	3.8	1.49e+00	0	58	104	960495616	50	21192
2026-01-01 08:59:01.03	357.14	11.18	-38.9	-54.3	3.8	1.49e+00	0	58	104	960495616	49	21185
2026-01-01 08:59:02.04	357.05	11.10	-38.3	-54.2	3.8	1.49e+00	0	58	104	960495616	48	22051
2026-01-01 08:59:03.05	356.96	11.02	-39.5	-54.3	3.8	1.49e+00	0	58	104	960495616	49	21244
2026-01-01 08:59:04.06	356.87	10.94	-38.4	-54.2	3.8	1.49e+00	0	58	104	960495616	48	22076
2026-01-01 08:59:05.08	356.78	10.86	-39.4	-54.3	3.8	1.49e+00	0	58	104	960495616	49	21181
2026-01-01 08:59:06.09	356.69	10.78	-39.7	-54.4	3.8	1.49e+00	0	58	104	960495616	50	20278
2026-01-01 08:59:07.09	356.60	10.70	-38.4	-54.2	3.8	1.49e+00	0	58	104	960495616	48	22217
2026-01-01 08:59:08.10	356.51	10.62	-39.6	-54.4	3.8	1.49e+00	0	58	104	960495616	49	21261
2026-01-01 08:59:09.11	356.42	10.54	-38.5	-54.2	3.8	1.49e+00	0	58	104	960495616	48	22149
2026-01-01 08:59:10.12	356.33	10.46	-38.9	-54.2	3.8	1.49e+00	0	58	104	960495616	48	22219
2026-01-01 08:59:11.13	356.25	10.39	-38.8	-54.2	3.8	1.49e+00	0	58	104	960495616	48	22122
2026-01-01 08:59:12.14	356.16	10.31	-39.2	-54.2	3.8	1.49e+00	0	58	104	960495616	49	20973
2026-01-01 08:59:13.15	356.07	10.23	-38.6	-54.2	3.8	1.49e+00	0	58	104	960495616	48	22055
2026-01-01 08:59:14.16	355.99	10.15	-39.3	-54.3	3.8	1.49e+00	0	58	104	960495616	49	21114
2026-01-01 08:59:15.17	355.90	10.08	-39.2	-54.2	3.8	1.49e+00	0	58	104	960495616	49	20877
2026-01-01 08:59:16.18	355.82	10.00	-39.3	-54.3	3.8	1.49e+00	0	58	104	960495616	49	21125
2026-01-01 08:59:17.19	355.73	9.92	-39.5	-54.3	3.8	1.49e+00	0	58	104	960495616	49	21077
2026-01-01 08:59:18.20	355.65	9.84	-39.7	-54.3	3.8	1.49e+00	0	58	104	960495616	49	21188
2026-01-01 08:59:19.21	355.56	9.77	-38.4	-54.2	3.8	1.49e+00	0	58	104	960495616	48	22069
2026-01-01 08:59:20.22	355.48	9.69	-39.7	-54.4	3.8	1.49e+00	0	58	104	960495616	50	20095
2026-01-01 08:59:21.23	355.40	9.61	-38.6	-54.2	3.8	1.49e+00	0	58	104	960495616	48	22089
2026-01-01 08:59:22.24	355.32	9.54	-39.6	-54.3	3.8	1.49e+00	0	58	104	960495616	49	21098
2026-01-01 08:59:23.25	355.23	9.46	-39.7	-54.4	3.8	1.49e+00	0	58	104	960495616	49	21409
2026-01-01 08:59:24.26	355.15	9.39	-39.7	-54.3	3.8	1.49e+00	0	58	104	960495616	49	21227
2026-01-01 08:59:25.27	355.07	9.31	-39.8	-54.5	3.8	1.49e+00	0	58	104	960495616	50	20534
2026-01-01 08:59:26.29	354.99	9.23	-39.9	-54.5	3.8	1.49e+00	0	58	104	960495616	50	20434
2026-01-01 08:59:27.29	354.91	9.16	-39.6	-54.3	3.8	1.49e+00	0	58	104	960495616	50	19902
2026-01-01 08:59:28.30	354.83	9.08	-39.9	-54.5	3.8	1.49e+00	0	58	104	960495616	50	20504
2026-01-01 08:59:29.31	354.75	9.01	-39.6	-54.3	3.8	1.49e+00	0	58	104	960495616	50	19957
2026-01-01 08:59:30.32	354.67	8.93	-39.8	-54.4	3.8	1.49e+00	0	58	104	960495616	50	20123
2026-01-01 08:59:31.33	354.60	8.86	-40.0	-54.6	3.8	1.49e+00	0	58	104	960495616	50	20620
2026-01-01 08:59:32.34	354.52	8.79	-39.8	-54.4	3.8	1.49e+00	0	58	104	960495616	50	20262
2026-01-01 08:59:33.35	354.44	8.71	-40.0	-54.5	3.8	1.49e+00	0	58	104	960495616	50	20462
2026-01-01 08:59:34.36	354.36	8.64	-40.0	-54.6	3.8	1.49e+00	0	58	104	960495616	50	20717
2026-01-01 08:59:35.37	354.29	8.56	-39.9	-54.5	3.8	1.49e+00	0	58	104	960495616	50	20380
2026-01-01 08:59:36.38	354.21	8.49	-40.0	-54.6	3.8	1.49e+00	0	58	104	960495616	50	20703
2026-01-01 08:59:37.39	354.13	8.42	-39.8	-54.4	3.8	1.49e+00	0	58	104	960495616	50	20300
