passes_logs/2026/01/01/R2.0S_Moscow/R2.0S_Moscow__20260101_130949_FENGYUN_3D_rec.log

#Pass ID: 20260101_130949_FENGYUN 3D
#Satellite: FENGYUN 3D
#Configuration: FENGYUN 3D
#almurnet v.1.7.20251203
#Start time: 2026-01-01 13:09:51

#Version: 2.2.20231116
#Station: R2.0S_Moscow
#Location: 37.707566 lon 55.798166 lat
#TLE: 1 43010U 17072A   25365.97861918  .00000231  00000+0  13096-3 0  9992
#TLE: 2 43010  98.9911 332.5795 0001872 134.7521 225.3807 14.19690547421260

#Time	Az	El	Level	Level2	SNR	BER	BlckErr	Temp	State	Recorded	gain1	gain2
2026-01-01 13:09:51.53	197.23	2.14	-44.1	-55.5	3.8	8.46e-01	0	48	0	0	59	13598
2026-01-01 13:09:52.54	197.29	2.19	-44.1	-55.5	3.8	8.46e-01	0	49	104	0	59	13619
2026-01-01 13:09:53.55	197.35	2.25	-44.1	-55.5	3.8	8.47e-01	0	49	104	0	59	13634
2026-01-01 13:09:54.57	197.41	2.31	-44.1	-55.5	3.8	8.46e-01	0	49	104	0	59	13638
2026-01-01 13:09:55.58	197.47	2.37	-44.1	-55.5	3.8	8.46e-01	0	49	104	0	59	13626
2026-01-01 13:09:56.59	197.53	2.43	-44.1	-55.5	3.8	8.46e-01	0	49	104	0	59	13599
2026-01-01 13:09:57.60	197.59	2.49	-44.0	-55.4	3.8	8.46e-01	0	49	104	0	59	13565
2026-01-01 13:09:58.61	197.65	2.55	-44.0	-55.5	3.8	8.46e-01	0	49	104	0	59	13635
2026-01-01 13:09:59.62	197.71	2.61	-44.1	-55.5	3.8	8.45e-01	0	49	104	0	59	13640
2026-01-01 13:10:00.63	197.78	2.67	-44.1	-55.5	3.8	8.46e-01	0	49	104	0	59	13618
2026-01-01 13:10:01.64	197.84	2.73	-44.1	-55.5	3.8	8.47e-01	0	49	104	0	59	13583
2026-01-01 13:10:02.65	197.90	2.79	-44.1	-55.4	3.8	8.46e-01	0	49	104	0	59	13565
2026-01-01 13:10:03.66	197.96	2.85	-44.1	-55.5	3.8	8.47e-01	0	49	104	0	59	13596
2026-01-01 13:10:04.67	198.02	2.91	-44.1	-55.5	3.8	8.46e-01	0	50	104	0	59	13597
2026-01-01 13:10:05.68	198.08	2.98	-44.0	-55.5	3.8	8.46e-01	0	49	104	0	59	13588
2026-01-01 13:10:06.70	198.15	3.04	-44.1	-55.5	3.8	8.47e-01	0	49	104	0	59	13633
2026-01-01 13:10:07.71	198.21	3.10	-44.1	-55.5	3.8	8.47e-01	0	50	104	0	59	13595
2026-01-01 13:10:08.72	198.27	3.16	-44.0	-55.5	3.8	8.46e-01	0	50	104	0	59	13585
2026-01-01 13:10:09.73	198.34	3.22	-44.0	-55.5	3.8	8.47e-01	0	50	104	0	59	13576
2026-01-01 13:10:10.74	198.40	3.28	-44.1	-55.5	3.8	8.46e-01	0	50	104	0	59	13608
2026-01-01 13:10:11.75	198.46	3.34	-44.0	-55.5	3.8	8.46e-01	0	50	104	0	59	13602
2026-01-01 13:10:12.76	198.53	3.40	-44.0	-55.4	3.8	8.46e-01	0	50	104	0	59	13566
2026-01-01 13:10:13.77	198.59	3.46	-44.1	-55.5	3.8	8.45e-01	0	50	104	0	59	13641
2026-01-01 13:10:14.78	198.66	3.53	-44.1	-55.5	3.8	8.47e-01	0	50	104	0	59	13582
2026-01-01 13:10:15.79	198.72	3.59	-44.1	-55.5	3.8	8.47e-01	0	50	104	0	59	13579
2026-01-01 13:10:16.81	198.79	3.65	-44.1	-55.5	3.8	8.46e-01	0	50	104	0	59	13596
2026-01-01 13:10:17.82	198.85	3.71	-44.1	-55.5	3.8	8.47e-01	0	50	104	0	59	13596
2026-01-01 13:10:18.83	198.92	3.77	-44.1	-55.5	3.8	8.47e-01	0	50	104	0	59	13597
2026-01-01 13:10:19.84	198.98	3.84	-44.0	-55.4	3.8	8.45e-01	0	51	104	0	59	13568
2026-01-01 13:10:20.85	199.05	3.90	-44.1	-55.5	3.8	8.47e-01	0	51	104	0	59	13602
2026-01-01 13:10:21.86	199.11	3.96	-44.1	-55.5	3.8	8.46e-01	0	51	104	0	59	13628
2026-01-01 13:10:22.87	199.18	4.02	-44.1	-55.5	3.8	8.46e-01	0	51	104	0	59	13613
2026-01-01 13:10:23.88	199.25	4.09	-44.0	-55.5	3.8	8.46e-01	0	51	104	0	59	13571
2026-01-01 13:10:24.89	199.32	4.15	-44.1	-55.4	3.8	8.46e-01	0	51	104	0	59	13561
2026-01-01 13:10:25.90	199.38	4.21	-44.0	-55.4	3.8	8.46e-01	0	51	104	0	59	13568
2026-01-01 13:10:26.91	199.45	4.27	-44.0	-55.5	3.8	8.47e-01	0	51	104	0	59	13594
2026-01-01 13:10:27.93	199.52	4.34	-44.1	-55.5	3.8	8.46e-01	0	51	104	0	59	13604
2026-01-01 13:10:28.93	199.59	4.40	-44.1	-55.5	3.8	8.46e-01	0	51	104	0	59	13576
2026-01-01 13:10:29.95	199.66	4.46	-44.0	-55.5	3.8	8.46e-01	0	51	104	0	59	13582
2026-01-01 13:10:30.96	199.72	4.53	-44.0	-55.5	3.8	8.47e-01	0	51	104	0	59	13641
2026-01-01 13:10:31.97	199.79	4.59	-44.0	-55.5	3.8	8.45e-01	0	51	104	0	59	13597
2026-01-01 13:10:32.98	199.86	4.66	-44.0	-55.5	3.8	8.47e-01	0	51	104	0	59	13577
2026-01-01 13:10:33.99	199.93	4.72	-44.1	-55.5	3.8	8.47e-01	0	51	104	0	59	13604
2026-01-01 13:10:35.00	200.00	4.78	-44.1	-55.5	3.8	8.47e-01	0	52	104	0	59	13584
2026-01-01 13:10:36.01	200.07	4.85	-44.1	-55.5	3.8	8.46e-01	0	52	104	0	59	13577
2026-01-01 13:10:37.02	200.14	4.91	-44.0	-55.5	3.8	8.46e-01	0	51	104	0	59	13644
2026-01-01 13:10:38.04	200.21	4.98	-44.0	-55.5	3.8	8.47e-01	0	52	104	0	59	13616
2026-01-01 13:10:39.05	200.29	5.04	-44.0	-55.4	3.8	8.45e-01	0	51	104	0	59	13489
2026-01-01 13:10:40.06	200.36	5.10	-44.0	-55.4	3.8	8.46e-01	0	52	104	0	59	13518
2026-01-01 13:10:41.07	200.43	5.17	-44.0	-55.4	3.8	8.46e-01	0	52	104	0	59	13518
2026-01-01 13:10:42.08	200.50	5.23	-44.0	-55.4	3.8	8.46e-01	0	52	104	0	59	13542
2026-01-01 13:10:43.09	200.57	5.30	-44.0	-55.4	3.8	8.46e-01	0	52	104	0	59	13473
2026-01-01 13:10:44.10	200.65	5.36	-44.1	-55.5	3.8	8.47e-01	0	52	104	0	59	13572
2026-01-01 13:10:45.11	200.72	5.43	-44.0	-55.4	3.8	8.47e-01	0	52	104	0	59	13563
2026-01-01 13:10:46.12	200.79	5.49	-44.0	-55.4	3.8	8.46e-01	0	52	104	0	59	13557
2026-01-01 13:10:47.13	200.87	5.56	-44.0	-55.5	3.8	8.45e-01	0	52	104	0	59	13595
2026-01-01 13:10:48.15	200.94	5.63	-44.1	-55.4	3.8	8.46e-01	0	52	104	0	59	13557
2026-01-01 13:10:49.16	201.01	5.69	-44.0	-55.4	3.8	8.45e-01	0	52	104	0	59	13502
2026-01-01 13:10:50.17	201.09	5.76	-44.1	-55.4	3.8	8.46e-01	0	52	104	0	59	13504
2026-01-01 13:10:51.18	201.16	5.82	-44.0	-55.4	3.8	8.48e-01	0	52	104	0	59	13454
2026-01-01 13:10:52.19	201.24	5.89	-44.0	-55.4	3.8	8.46e-01	0	52	104	0	59	13436
2026-01-01 13:10:53.20	201.31	5.95	-44.0	-55.3	3.8	8.46e-01	0	52	104	0	59	13366
2026-01-01 13:10:54.21	201.39	6.02	-44.0	-55.2	3.8	8.46e-01	0	52	104	0	59	13211
2026-01-01 13:10:55.22	201.47	6.09	-44.0	-55.1	3.8	8.47e-01	0	52	104	0	59	13081
2026-01-01 13:10:56.23	201.54	6.15	-44.0	-55.1	3.8	8.45e-01	0	52	104	0	59	13058
2026-01-01 13:10:57.25	201.62	6.22	-44.0	-55.0	3.8	8.47e-01	0	52	104	0	59	12905
2026-01-01 13:10:58.26	201.70	6.29	-44.0	-54.9	3.8	8.47e-01	0	53	104	0	59	12799
2026-01-01 13:10:59.27	201.78	6.35	-44.0	-54.7	3.8	8.47e-01	0	53	104	0	59	12517
2026-01-01 13:11:00.28	201.85	6.42	-44.0	-54.8	3.8	8.46e-01	0	53	104	0	59	12560
2026-01-01 13:11:01.29	201.93	6.49	-44.0	-54.7	3.8	8.45e-01	0	53	104	0	59	12507
2026-01-01 13:11:02.30	202.01	6.56	-44.0	-54.7	3.8	8.45e-01	0	53	104	0	59	12470
2026-01-01 13:11:03.31	202.09	6.62	-44.0	-54.7	3.8	8.44e-01	0	53	104	0	59	12485
2026-01-01 13:11:04.32	202.17	6.69	-44.0	-54.8	3.8	8.45e-01	0	53	104	0	59	12600
2026-01-01 13:11:05.33	202.25	6.76	-44.0	-54.9	3.8	8.46e-01	0	53	104	0	59	12745
2026-01-01 13:11:06.34	202.33	6.83	-44.0	-54.8	3.8	8.46e-01	0	53	104	0	59	12597
2026-01-01 13:11:07.36	202.41	6.89	-43.9	-54.2	3.8	8.45e-01	0	53	104	0	59	11716
2026-01-01 13:11:08.37	202.49	6.96	-43.7	-53.0	3.8	8.45e-01	0	53	104	0	59	10219
2026-01-01 13:11:09.38	202.57	7.03	-43.4	-51.1	4.4	8.31e-01	0	53	0	0	58	8714
2026-01-01 13:11:10.39	202.65	7.10	-43.0	-49.2	5.4	7.67e-01	0	53	0	0	58	6971
2026-01-01 13:11:11.40	202.73	7.17	-42.3	-47.2	6.9	2.26e-01	0	53	0	4194304	56	6228
2026-01-01 13:11:12.41	202.82	7.24	-41.3	-45.2	8.8	6.27e-02	0	53	0	9437184	54	5574
2026-01-01 13:11:13.42	202.90	7.31	-40.5	-43.8	10.3	1.39e-02	0	53	0	15728640	53	4987
2026-01-01 13:11:14.43	202.98	7.37	-39.8	-42.5	11.6	1.66e-03	0	53	0	20971520	51	4849
2026-01-01 13:11:15.44	203.06	7.44	-38.9	-41.3	12.9	1.99e-04	0	53	0	27262976	49	4725
2026-01-01 13:11:16.45	203.15	7.51	-38.1	-40.2	14.0	9.10e-06	0	53	0	32505856	48	4410
2026-01-01 13:11:17.47	203.23	7.58	-37.4	-39.4	14.7	2.20e-06	0	53	0	38797312	46	4514
2026-01-01 13:11:18.48	203.32	7.65	-36.9	-38.7	15.3	0.00e+00	0	53	0	44040192	45	4429
2026-01-01 13:11:19.49	203.40	7.72	-36.4	-38.2	15.9	0.00e+00	0	53	0	50331648	44	4415
2026-01-01 13:11:20.50	203.49	7.79	-36.1	-37.9	16.2	0.00e+00	0	53	0	55574528	44	4243
2026-01-01 13:11:21.51	203.57	7.86	-36.0	-37.7	16.4	0.00e+00	0	53	0	60817408	44	4151
2026-01-01 13:11:22.52	203.66	7.93	-35.7	-37.4	16.5	0.00e+00	0	53	0	67108864	43	4262
2026-01-01 13:11:23.53	203.75	8.00	-35.9	-37.6	16.2	0.00e+00	0	53	0	72351744	43	4374
2026-01-01 13:11:24.54	203.83	8.07	-35.6	-37.2	16.7	0.00e+00	0	54	0	78643200	43	4185
2026-01-01 13:11:25.55	203.92	8.14	-37.8	-39.9	14.3	0.00e+00	0	53	0	83886080	46	4800
2026-01-01 13:11:26.56	204.01	8.21	-36.0	-37.7	16.3	3.72e-03	0	53	0	89128960	44	4168
2026-01-01 13:11:27.57	204.09	8.28	-37.9	-40.0	14.3	1.02e-05	0	53	0	95420416	47	4572
2026-01-01 13:11:28.59	204.18	8.35	-36.2	-37.9	16.3	0.00e+00	0	54	0	100663296	44	4271
2026-01-01 13:11:29.60	204.27	8.42	-37.6	-39.5	14.6	2.59e-04	0	54	0	106954752	47	4335
2026-01-01 13:11:30.61	204.36	8.50	-36.5	-38.2	15.9	0.00e+00	0	54	0	112197632	44	4416
2026-01-01 13:11:31.62	204.45	8.57	-36.2	-37.8	16.3	0.00e+00	0	54	0	117440512	44	4234
2026-01-01 13:11:32.63	204.54	8.64	-36.1	-37.8	16.3	0.00e+00	0	54	0	123731968	44	4219
2026-01-01 13:11:33.64	204.63	8.71	-36.2	-37.9	16.2	0.00e+00	0	54	0	128974848	44	4267
2026-01-01 13:11:34.65	204.72	8.78	-36.1	-37.8	16.3	0.00e+00	0	54	0	135266304	44	4211
2026-01-01 13:11:35.66	204.81	8.85	-36.1	-37.8	16.3	0.00e+00	0	54	0	140509184	44	4222
2026-01-01 13:11:36.67	204.91	8.93	-36.2	-37.9	16.2	0.00e+00	0	54	0	146800640	44	4279
2026-01-01 13:11:37.68	205.00	9.00	-36.2	-37.8	16.3	0.00e+00	0	54	0	152043520	44	4242
2026-01-01 13:11:38.69	205.09	9.07	-36.2	-37.8	16.4	0.00e+00	0	54	0	158334976	44	4223
2026-01-01 13:11:39.70	205.18	9.14	-36.0	-37.7	16.5	0.00e+00	0	54	0	163577856	44	4166
2026-01-01 13:11:40.71	205.28	9.22	-35.5	-37.1	16.9	0.00e+00	0	54	0	168820736	43	4108
2026-01-01 13:11:41.72	205.37	9.29	-35.3	-36.8	17.2	0.00e+00	0	54	0	175112192	42	4223
2026-01-01 13:11:42.73	205.47	9.36	-35.2	-36.7	17.3	0.00e+00	0	54	0	180355072	42	4185
2026-01-01 13:11:43.74	205.56	9.43	-35.2	-36.7	17.3	0.00e+00	0	54	0	186646528	42	4190
2026-01-01 13:11:44.75	205.66	9.51	-35.0	-36.5	17.5	0.00e+00	0	54	0	191889408	42	4072
2026-01-01 13:11:45.76	205.75	9.58	-34.9	-36.3	17.6	0.00e+00	0	54	0	197132288	41	4236
2026-01-01 13:11:46.77	205.85	9.65	-34.9	-36.3	17.7	0.00e+00	0	54	0	203423744	41	4225
2026-01-01 13:11:47.78	205.95	9.73	-34.8	-36.2	17.8	0.00e+00	0	54	0	208666624	41	4178
2026-01-01 13:11:48.79	206.04	9.80	-34.7	-36.2	17.8	0.00e+00	0	54	0	214958080	41	4156
2026-01-01 13:11:49.80	206.14	9.87	-34.7	-36.2	17.8	0.00e+00	0	54	0	220200960	41	4146
2026-01-01 13:11:50.81	206.24	9.95	-34.6	-36.0	17.9	0.00e+00	0	54	0	225443840	41	4088
2026-01-01 13:11:51.82	206.34	10.02	-34.6	-36.0	17.9	0.00e+00	0	54	0	231735296	41	4092
2026-01-01 13:11:52.83	206.44	10.10	-34.6	-36.0	17.9	0.00e+00	0	54	0	236978176	41	4090
2026-01-01 13:11:53.85	206.54	10.17	-34.6	-36.0	18.0	0.00e+00	0	54	0	243269632	41	4091
2026-01-01 13:11:54.86	206.64	10.25	-34.6	-36.1	17.9	0.00e+00	0	54	0	248512512	41	4113
2026-01-01 13:11:55.87	206.74	10.32	-34.7	-36.2	17.8	0.00e+00	0	54	0	254803968	41	4151
2026-01-01 13:11:56.88	206.84	10.40	-34.7	-36.1	17.9	0.00e+00	0	54	0	260046848	41	4131
2026-01-01 13:11:57.89	206.94	10.47	-34.7	-36.2	17.8	0.00e+00	0	55	0	266338304	41	4162
2026-01-01 13:11:58.90	207.04	10.55	-34.7	-36.1	17.9	0.00e+00	0	54	0	271581184	41	4136
2026-01-01 13:11:59.91	207.15	10.62	-34.7	-36.1	17.9	0.00e+00	0	54	0	276824064	41	4134
2026-01-01 13:12:00.92	207.25	10.70	-34.7	-36.1	17.9	0.00e+00	0	54	0	283115520	41	4123
2026-01-01 13:12:01.93	207.35	10.77	-34.7	-36.1	17.9	0.00e+00	0	55	0	288358400	41	4123
2026-01-01 13:12:02.94	207.46	10.85	-34.6	-36.0	18.0	0.00e+00	0	55	0	294649856	41	4090
2026-01-01 13:12:03.95	207.56	10.93	-34.6	-36.1	18.0	0.00e+00	0	55	0	299892736	41	4103
2026-01-01 13:12:04.96	207.67	11.00	-34.6	-36.1	18.0	0.00e+00	0	55	0	305135616	41	4100
2026-01-01 13:12:05.97	207.77	11.08	-34.6	-36.0	18.0	0.00e+00	0	55	0	311427072	41	4076
2026-01-01 13:12:06.98	207.88	11.15	-34.6	-36.0	18.0	0.00e+00	0	55	0	316669952	41	4083
2026-01-01 13:12:07.99	207.99	11.23	-34.6	-36.0	18.0	0.00e+00	0	55	0	322961408	41	4074
2026-01-01 13:12:09.00	208.09	11.31	-34.5	-35.9	18.1	0.00e+00	0	55	0	328204288	41	4048
2026-01-01 13:12:10.01	208.20	11.38	-34.5	-35.9	18.2	0.00e+00	0	55	0	333447168	41	4027
2026-01-01 13:12:11.02	208.31	11.46	-34.5	-35.9	18.1	0.00e+00	0	54	0	339738624	40	4270
2026-01-01 13:12:12.03	208.42	11.54	-34.4	-35.8	18.2	0.00e+00	0	55	0	344981504	40	4221
2026-01-01 13:12:13.04	208.53	11.62	-34.4	-35.8	18.3	0.00e+00	0	55	0	351272960	40	4212
2026-01-01 13:12:14.05	208.64	11.69	-34.4	-35.8	18.3	0.00e+00	0	55	0	356515840	40	4209
2026-01-01 13:12:15.07	208.75	11.77	-34.4	-35.8	18.3	0.00e+00	0	55	0	362807296	40	4202
2026-01-01 13:12:16.08	208.86	11.85	-34.3	-35.7	18.3	0.00e+00	0	55	0	368050176	40	4192
2026-01-01 13:12:17.08	208.97	11.93	-34.3	-35.7	18.3	0.00e+00	0	55	0	374341632	40	4193
2026-01-01 13:12:18.09	209.09	12.01	-34.3	-35.7	18.4	0.00e+00	0	55	0	379584512	40	4170
2026-01-01 13:12:19.10	209.20	12.08	-34.3	-35.6	18.4	0.00e+00	0	55	0	384827392	40	4145
2026-01-01 13:12:20.11	209.31	12.16	-34.2	-35.6	18.5	0.00e+00	0	55	0	391118848	40	4126
2026-01-01 13:12:21.12	209.43	12.24	-34.2	-35.6	18.5	0.00e+00	0	55	0	396361728	40	4105
2026-01-01 13:12:22.14	209.54	12.32	-34.2	-35.5	18.5	0.00e+00	0	55	0	402653184	40	4091
2026-01-01 13:12:23.15	209.66	12.40	-34.2	-35.5	18.5	0.00e+00	0	55	0	407896064	40	4096
2026-01-01 13:12:24.16	209.77	12.48	-34.1	-35.5	18.6	0.00e+00	0	55	0	413138944	40	4060
2026-01-01 13:12:25.17	209.89	12.56	-34.2	-35.5	18.5	0.00e+00	0	55	0	419430400	40	4091
2026-01-01 13:12:26.18	210.01	12.64	-34.1	-35.5	18.6	0.00e+00	0	55	0	424673280	40	4086
2026-01-01 13:12:27.19	210.13	12.72	-34.2	-35.5	18.5	0.00e+00	0	55	0	430964736	40	4090
2026-01-01 13:12:28.20	210.24	12.80	-34.2	-35.5	18.6	0.00e+00	0	55	0	436207616	40	4096
2026-01-01 13:12:29.21	210.36	12.88	-34.1	-35.5	18.6	0.00e+00	0	55	0	441450496	40	4081
2026-01-01 13:12:30.22	210.48	12.96	-34.1	-35.5	18.6	0.00e+00	0	55	0	447741952	40	4076
2026-01-01 13:12:31.23	210.60	13.04	-34.1	-35.5	18.6	0.00e+00	0	55	0	452984832	40	4070
2026-01-01 13:12:32.24	210.72	13.12	-34.1	-35.5	18.6	0.00e+00	0	55	0	459276288	40	4068
2026-01-01 13:12:33.25	210.85	13.20	-34.1	-35.5	18.6	0.00e+00	0	55	0	464519168	40	4068
2026-01-01 13:12:34.26	210.97	13.28	-34.1	-35.5	18.6	0.00e+00	0	55	0	470810624	40	4057
2026-01-01 13:12:35.27	211.09	13.36	-34.1	-35.4	18.7	0.00e+00	0	55	0	476053504	40	4048
2026-01-01 13:12:36.28	211.21	13.44	-34.0	-35.4	18.7	0.00e+00	0	55	0	482344960	40	4031
2026-01-01 13:12:37.29	211.34	13.52	-34.0	-35.4	18.8	0.00e+00	0	55	0	487587840	39	4251
2026-01-01 13:12:38.30	211.46	13.60	-34.0	-35.3	18.8	0.00e+00	0	55	0	492830720	39	4239
2026-01-01 13:12:39.31	211.59	13.68	-33.9	-35.3	18.9	0.00e+00	0	55	0	499122176	39	4203
2026-01-01 13:12:40.32	211.71	13.76	-33.9	-35.2	18.9	0.00e+00	0	55	0	504365056	39	4183
2026-01-01 13:12:41.33	211.84	13.84	-33.8	-35.1	19.0	0.00e+00	0	55	0	510656512	39	4141
2026-01-01 13:12:42.34	211.97	13.93	-33.8	-35.2	19.0	0.00e+00	0	55	0	515899392	39	4151
2026-01-01 13:12:43.35	212.10	14.01	-33.8	-35.2	19.0	0.00e+00	0	55	0	521142272	39	4150
2026-01-01 13:12:44.36	212.23	14.09	-33.8	-35.1	19.0	0.00e+00	0	55	0	527433728	39	4144
2026-01-01 13:12:45.37	212.36	14.17	-33.8	-35.2	19.0	0.00e+00	0	55	0	532676608	39	4155
2026-01-01 13:12:46.38	212.49	14.26	-33.8	-35.1	19.1	0.00e+00	0	56	0	538968064	39	4131
2026-01-01 13:12:47.39	212.62	14.34	-33.8	-35.1	19.1	0.00e+00	0	55	0	544210944	39	4124
2026-01-01 13:12:48.41	212.75	14.42	-33.7	-35.0	19.1	0.00e+00	0	56	0	549453824	39	4098
2026-01-01 13:12:49.41	212.88	14.50	-33.7	-35.0	19.2	0.00e+00	0	55	0	555745280	39	4064
2026-01-01 13:12:50.43	213.02	14.59	-33.7	-35.0	19.2	0.00e+00	0	56	0	560988160	39	4080
2026-01-01 13:12:51.44	213.15	14.67	-33.7	-35.0	19.1	0.00e+00	0	56	0	567279616	39	4089
2026-01-01 13:12:52.45	213.28	14.75	-33.7	-35.0	19.2	0.00e+00	0	55	0	572522496	39	4078
2026-01-01 13:12:53.45	213.42	14.84	-33.7	-35.0	19.2	0.00e+00	0	55	0	578813952	39	4075
2026-01-01 13:12:54.47	213.55	14.92	-33.7	-35.0	19.2	0.00e+00	0	55	0	584056832	39	4073
2026-01-01 13:12:55.48	213.69	15.00	-33.7	-35.0	19.2	0.00e+00	0	56	0	590348288	39	4070
2026-01-01 13:12:56.49	213.83	15.09	-33.7	-35.0	19.2	0.00e+00	0	55	0	595591168	39	4084
2026-01-01 13:12:57.50	213.97	15.17	-33.7	-35.0	19.2	0.00e+00	0	56	0	600834048	39	4087
2026-01-01 13:12:58.51	214.11	15.25	-33.7	-35.0	19.2	0.00e+00	0	56	0	607125504	39	4071
2026-01-01 13:12:59.52	214.25	15.34	-33.6	-34.9	19.2	0.00e+00	0	56	0	612368384	39	4049
2026-01-01 13:13:00.53	214.39	15.42	-33.6	-34.9	19.2	0.00e+00	0	56	0	618659840	39	4040
2026-01-01 13:13:01.54	214.53	15.51	-33.6	-34.9	19.3	0.00e+00	0	56	0	623902720	39	4023
2026-01-01 13:13:02.55	214.67	15.59	-33.6	-34.9	19.3	0.00e+00	0	55	0	629145600	39	4023
2026-01-01 13:13:03.56	214.81	15.68	-33.5	-34.8	19.3	0.00e+00	0	56	0	635437056	39	3994
2026-01-01 13:13:04.58	214.96	15.76	-33.5	-34.8	19.4	0.00e+00	0	56	0	640679936	39	3988
2026-01-01 13:13:05.59	215.10	15.85	-33.5	-34.8	19.3	0.00e+00	0	56	0	646971392	39	3996
2026-01-01 13:13:06.60	215.25	15.93	-33.5	-34.9	19.3	0.00e+00	0	56	0	652214272	39	4009
2026-01-01 13:13:07.61	215.39	16.02	-33.5	-34.8	19.3	0.00e+00	0	56	0	657457152	39	4004
2026-01-01 13:13:08.62	215.54	16.10	-33.5	-34.9	19.3	0.00e+00	0	56	0	663748608	39	4009
2026-01-01 13:13:09.63	215.69	16.19	-33.5	-34.8	19.3	0.00e+00	0	56	0	668991488	39	3997
2026-01-01 13:13:10.63	215.84	16.27	-33.4	-34.8	19.4	0.00e+00	0	56	0	675282944	38	4199
2026-01-01 13:13:11.64	215.99	16.36	-33.4	-34.6	19.5	0.00e+00	0	56	0	680525824	38	4144
2026-01-01 13:13:12.66	216.14	16.44	-33.2	-34.5	19.7	0.00e+00	0	56	0	686817280	38	4075
2026-01-01 13:13:13.67	216.29	16.53	-33.2	-34.4	19.8	0.00e+00	0	56	0	692060160	38	4033
2026-01-01 13:13:14.68	216.44	16.62	-33.0	-34.3	19.9	0.00e+00	0	56	0	698351616	38	3975
2026-01-01 13:13:15.68	216.59	16.70	-33.0	-34.2	20.0	0.00e+00	0	56	0	703594496	38	3943
2026-01-01 13:13:16.70	216.75	16.79	-32.9	-34.1	20.0	0.00e+00	0	56	0	708837376	37	4139
2026-01-01 13:13:17.71	216.90	16.88	-32.9	-34.2	20.0	0.00e+00	0	56	0	715128832	37	4158
2026-01-01 13:13:18.72	217.06	16.96	-33.0	-34.2	19.9	0.00e+00	0	56	0	720371712	37	4182
2026-01-01 13:13:19.73	217.21	17.05	-33.0	-34.2	20.0	0.00e+00	0	56	0	726663168	37	4175
2026-01-01 13:13:20.74	217.37	17.13	-33.0	-34.3	19.9	0.00e+00	0	56	0	731906048	37	4212
2026-01-01 13:13:21.75	217.53	17.22	-33.0	-34.3	19.9	0.00e+00	0	56	0	737148928	37	4216
2026-01-01 13:13:22.76	217.69	17.31	-33.0	-34.3	19.9	0.00e+00	0	56	0	743440384	37	4196
2026-01-01 13:13:23.77	217.84	17.40	-33.0	-34.3	19.9	0.00e+00	0	56	0	748683264	37	4201
2026-01-01 13:13:24.78	218.01	17.48	-33.0	-34.2	19.9	0.00e+00	0	56	0	754974720	37	4188
2026-01-01 13:13:25.79	218.17	17.57	-33.0	-34.3	19.9	0.00e+00	0	56	0	760217600	37	4197
2026-01-01 13:13:26.80	218.33	17.66	-33.0	-34.3	19.9	0.00e+00	0	56	0	765460480	37	4220
2026-01-01 13:13:27.81	218.49	17.74	-33.1	-34.4	19.8	0.00e+00	0	56	0	771751936	37	4243
2026-01-01 13:13:28.82	218.66	17.83	-33.1	-34.4	19.8	0.00e+00	0	56	0	776994816	37	4270
2026-01-01 13:13:29.83	218.82	17.92	-33.1	-34.4	19.8	0.00e+00	0	56	0	783286272	37	4265
2026-01-01 13:13:30.84	218.99	18.01	-33.1	-34.4	19.8	0.00e+00	0	56	0	788529152	37	4269
2026-01-01 13:13:31.85	219.15	18.09	-33.1	-34.4	19.8	0.00e+00	0	56	0	794820608	37	4250
2026-01-01 13:13:32.86	219.32	18.18	-33.1	-34.3	19.8	0.00e+00	0	56	0	800063488	37	4242
2026-01-01 13:13:33.87	219.49	18.27	-33.0	-34.3	19.9	0.00e+00	0	56	0	805306368	37	4198
2026-01-01 13:13:34.89	219.66	18.36	-33.0	-34.3	19.9	0.00e+00	0	56	0	811597824	37	4199
2026-01-01 13:13:35.90	219.83	18.45	-33.0	-34.3	19.9	0.00e+00	0	56	0	816840704	37	4197
2026-01-01 13:13:36.91	220.01	18.53	-32.9	-34.2	20.0	0.00e+00	0	56	0	823132160	37	4164
2026-01-01 13:13:37.92	220.18	18.62	-32.9	-34.2	20.0	0.00e+00	0	56	0	828375040	37	4153
2026-01-01 13:13:38.93	220.35	18.71	-32.8	-34.1	19.7	0.00e+00	0	56	0	834666496	37	4103
2026-01-01 13:13:39.94	220.53	18.80	-32.8	-34.0	19.7	0.00e+00	0	56	0	839909376	37	4096
2026-01-01 13:13:40.95	220.70	18.89	-32.7	-34.0	19.5	0.00e+00	0	56	0	845152256	37	4074
2026-01-01 13:13:41.96	220.88	18.98	-32.7	-34.0	19.7	0.00e+00	0	56	0	851443712	37	4057
2026-01-01 13:13:42.97	221.06	19.06	-32.6	-33.9	19.8	0.00e+00	0	56	0	856686592	37	4036
2026-01-01 13:13:43.98	221.24	19.15	-32.7	-33.9	19.6	0.00e+00	0	56	0	862978048	37	4042
2026-01-01 13:13:44.99	221.42	19.24	-32.6	-33.9	19.7	0.00e+00	0	56	0	868220928	37	4008
2026-01-01 13:13:46.00	221.60	19.33	-32.6	-33.9	19.9	0.00e+00	0	56	0	873463808	37	4009
2026-01-01 13:13:47.01	221.78	19.42	-32.6	-33.8	19.7	0.00e+00	0	56	0	879755264	37	3997
2026-01-01 13:13:48.02	221.96	19.51	-32.5	-33.8	19.7	0.00e+00	0	56	0	884998144	37	3972
2026-01-01 13:13:49.03	222.14	19.59	-32.5	-33.8	20.0	0.00e+00	0	56	0	891289600	37	3963
2026-01-01 13:13:50.04	222.33	19.68	-32.5	-33.7	20.1	0.00e+00	0	56	0	896532480	37	3948
2026-01-01 13:13:51.06	222.52	19.77	-32.5	-33.7	20.0	0.00e+00	0	56	0	902823936	36	4178
2026-01-01 13:13:52.07	222.70	19.86	-32.4	-33.7	20.1	0.00e+00	0	56	0	908066816	36	4169
2026-01-01 13:13:53.08	222.89	19.95	-32.4	-33.6	20.2	0.00e+00	0	56	0	914358272	36	4143
2026-01-01 13:13:54.09	223.08	20.04	-32.4	-33.6	20.5	0.00e+00	0	56	0	919601152	36	4139
2026-01-01 13:13:55.10	223.27	20.13	-32.5	-33.7	20.4	0.00e+00	0	56	0	924844032	36	4168
2026-01-01 13:13:56.11	223.46	20.22	-32.5	-33.7	20.4	0.00e+00	0	56	0	931135488	36	4183
2026-01-01 13:13:57.12	223.65	20.30	-32.5	-33.8	20.2	0.00e+00	0	56	0	936378368	36	4216
2026-01-01 13:13:58.13	223.85	20.39	-32.5	-33.7	20.2	0.00e+00	0	57	0	942669824	36	4193
2026-01-01 13:13:59.14	224.04	20.48	-32.5	-33.8	20.2	0.00e+00	0	56	0	947912704	36	4194
2026-01-01 13:14:00.15	224.24	20.57	-32.4	-33.7	20.3	0.00e+00	0	57	0	953155584	36	4165
2026-01-01 13:14:01.16	224.43	20.66	-32.4	-33.6	20.2	0.00e+00	0	56	0	959447040	36	4137
2026-01-01 13:14:02.17	224.63	20.75	-32.3	-33.5	20.3	0.00e+00	0	56	0	964689920	36	4095
2026-01-01 13:14:03.18	224.83	20.84	-32.4	-33.6	20.2	0.00e+00	0	56	0	970981376	36	4135
2026-01-01 13:14:04.19	225.03	20.92	-32.4	-33.7	20.2	0.00e+00	0	56	0	976224256	36	4147
2026-01-01 13:14:05.20	225.23	21.01	-32.5	-33.7	20.1	0.00e+00	0	56	0	981467136	36	4171
2026-01-01 13:14:06.21	225.43	21.10	-32.4	-33.7	20.1	0.00e+00	0	56	0	987758592	36	4149
2026-01-01 13:14:07.22	225.64	21.19	-32.3	-33.6	20.2	0.00e+00	0	56	0	993001472	36	4116
2026-01-01 13:14:08.23	225.84	21.28	-32.3	-33.6	20.2	0.00e+00	0	57	0	999292928	36	4100
2026-01-01 13:14:09.24	226.05	21.37	-32.3	-33.5	20.3	0.00e+00	0	56	0	1004535808	36	4097
2026-01-01 13:14:10.25	226.25	21.45	-32.3	-33.6	20.2	0.00e+00	0	57	0	1010827264	36	4101
2026-01-01 13:14:11.27	226.46	21.54	-32.3	-33.5	20.2	0.00e+00	0	57	0	1016070144	36	4096
2026-01-01 13:14:12.27	226.67	21.63	-32.3	-33.5	20.6	0.00e+00	0	56	0	1022361600	36	4065
2026-01-01 13:14:13.29	226.88	21.72	-32.3	-33.5	20.6	0.00e+00	0	56	0	1027604480	36	4078
2026-01-01 13:14:14.30	227.10	21.81	-32.3	-33.5	20.6	0.00e+00	0	57	0	1032847360	36	4087
2026-01-01 13:14:15.31	227.31	21.90	-32.4	-33.6	20.5	0.00e+00	0	57	0	1039138816	36	4120
2026-01-01 13:14:16.32	227.52	21.98	-32.4	-33.6	20.5	0.00e+00	0	56	0	1044381696	36	4108
2026-01-01 13:14:17.33	227.74	22.07	-32.2	-33.4	20.7	0.00e+00	0	56	0	1050673152	36	4051
2026-01-01 13:14:18.34	227.95	22.16	-32.2	-33.4	20.8	0.00e+00	0	57	0	1055916032	36	4015
2026-01-01 13:14:19.35	228.17	22.25	-32.1	-33.3	20.8	0.00e+00	0	56	0	1061158912	36	3975
2026-01-01 13:14:20.36	228.39	22.33	-32.1	-33.2	20.9	0.00e+00	0	56	0	1067450368	36	3953
2026-01-01 13:14:21.37	228.61	22.42	-32.0	-33.2	20.9	0.00e+00	0	56	0	1072693248	36	3945
2026-01-01 13:14:22.38	228.83	22.51	-32.1	-33.2	20.9	0.00e+00	0	57	0	1078984704	36	3952
2026-01-01 13:14:23.39	229.05	22.59	-32.0	-33.2	20.9	0.00e+00	0	57	0	1084227584	36	3947
2026-01-01 13:14:24.40	229.28	22.68	-32.0	-33.2	20.8	0.00e+00	0	56	0	1089470464	36	3943
2026-01-01 13:14:25.41	229.50	22.77	-31.4	-32.6	20.7	0.00e+00	0	57	0	1095761920	34	4104
2026-01-01 13:14:26.43	229.73	22.86	-31.3	-32.5	20.8	0.00e+00	0	56	0	1101004800	34	4053
2026-01-01 13:14:27.44	229.96	22.94	-31.3	-32.5	20.7	0.00e+00	0	56	0	1107296256	34	4078
2026-01-01 13:14:28.45	230.18	23.03	-31.4	-32.6	20.6	0.00e+00	0	57	0	1112539136	34	4128
2026-01-01 13:14:29.46	230.41	23.11	-31.5	-32.7	20.5	0.00e+00	0	57	0	1118830592	34	4193
2026-01-01 13:14:30.47	230.64	23.20	-31.5	-32.8	20.4	0.00e+00	0	57	0	1124073472	34	4220
2026-01-01 13:14:31.48	230.88	23.28	-31.5	-32.8	20.4	0.00e+00	0	57	0	1130364928	34	4203
2026-01-01 13:14:32.49	231.11	23.37	-31.4	-32.6	20.5	0.00e+00	0	57	0	1135607808	34	4140
2026-01-01 13:14:33.50	231.34	23.46	-31.3	-32.5	20.7	0.00e+00	0	57	0	1140850688	34	4056
2026-01-01 13:14:34.51	231.58	23.54	-31.2	-32.4	20.8	0.00e+00	0	56	0	1147142144	34	4038
2026-01-01 13:14:35.52	231.82	23.62	-31.2	-32.4	20.8	0.00e+00	0	57	0	1152385024	34	4026
2026-01-01 13:14:36.53	232.05	23.71	-31.2	-32.4	20.8	0.00e+00	0	56	0	1158676480	34	4025
2026-01-01 13:14:37.54	232.29	23.79	-31.3	-32.5	20.8	0.00e+00	0	57	0	1163919360	34	4060
2026-01-01 13:14:38.55	232.53	23.88	-31.3	-32.5	20.7	0.00e+00	0	57	0	1169162240	34	4081
2026-01-01 13:14:39.56	232.78	23.96	-31.3	-32.5	20.7	0.00e+00	0	56	0	1175453696	34	4089
2026-01-01 13:14:40.57	233.02	24.04	-31.3	-32.5	20.7	0.00e+00	0	57	0	1180696576	34	4085
2026-01-01 13:14:41.58	233.26	24.13	-31.4	-32.6	20.6	0.00e+00	0	57	0	1186988032	34	4126
2026-01-01 13:14:42.59	233.51	24.21	-31.3	-32.5	20.7	0.00e+00	0	57	0	1192230912	34	4083
2026-01-01 13:14:43.60	233.76	24.29	-31.1	-32.3	20.9	0.00e+00	0	56	0	1197473792	34	3989
2026-01-01 13:14:44.62	234.01	24.38	-30.9	-32.1	21.1	0.00e+00	0	57	0	1203765248	33	4123
2026-01-01 13:14:45.63	234.26	24.46	-30.8	-31.9	21.2	0.00e+00	0	57	0	1209008128	33	4043
2026-01-01 13:14:46.64	234.51	24.54	-30.8	-31.9	21.3	0.00e+00	0	57	0	1215299584	33	4038
2026-01-01 13:14:47.65	234.76	24.62	-30.9	-32.1	21.2	0.00e+00	0	56	0	1220542464	33	4100
2026-01-01 13:14:48.66	235.01	24.70	-31.1	-32.3	21.0	0.00e+00	0	57	0	1226833920	33	4197
2026-01-01 13:14:49.67	235.27	24.78	-31.2	-32.5	20.8	0.00e+00	0	57	0	1232076800	33	4295
2026-01-01 13:14:50.68	235.52	24.86	-31.2	-32.5	20.8	0.00e+00	0	57	0	1238368256	33	4294
2026-01-01 13:14:51.69	235.78	24.94	-31.2	-32.4	20.9	0.00e+00	0	57	0	1243611136	33	4272
2026-01-01 13:14:52.70	236.04	25.02	-31.0	-32.2	21.0	0.00e+00	0	57	0	1248854016	33	4187
2026-01-01 13:14:53.71	236.30	25.10	-30.9	-32.1	21.2	0.00e+00	0	57	0	1255145472	33	4115
2026-01-01 13:14:54.72	236.56	25.18	-30.8	-32.0	21.2	0.00e+00	0	57	0	1260388352	33	4080
2026-01-01 13:14:55.73	236.82	25.26	-30.9	-32.1	21.2	0.00e+00	0	56	0	1266679808	33	4102
2026-01-01 13:14:56.74	237.09	25.34	-30.9	-32.1	21.1	0.00e+00	0	57	0	1271922688	33	4128
2026-01-01 13:14:57.75	237.35	25.42	-31.0	-32.2	21.0	0.00e+00	0	57	0	1277165568	33	4183
2026-01-01 13:14:58.77	237.62	25.50	-31.1	-32.3	21.0	0.00e+00	0	57	0	1283457024	33	4205
2026-01-01 13:14:59.78	237.89	25.57	-31.0	-32.3	21.0	0.00e+00	0	57	0	1288699904	33	4198
2026-01-01 13:15:00.79	238.16	25.65	-31.0	-32.2	21.1	0.00e+00	0	57	0	1294991360	33	4155
2026-01-01 13:15:01.80	238.43	25.73	-30.8	-32.0	21.2	0.00e+00	0	57	0	1300234240	33	4062
2026-01-01 13:15:02.81	238.70	25.80	-30.7	-31.9	21.3	0.00e+00	0	57	0	1305477120	33	4015
2026-01-01 13:15:03.82	238.97	25.88	-30.7	-31.8	21.4	0.00e+00	0	57	0	1311768576	33	4001
2026-01-01 13:15:04.83	239.25	25.95	-30.6	-31.8	21.4	0.00e+00	0	57	0	1317011456	33	3981
2026-01-01 13:15:05.84	239.52	26.03	-30.6	-31.8	21.4	0.00e+00	0	57	0	1323302912	33	3968
2026-01-01 13:15:06.85	239.80	26.10	-30.6	-31.8	21.4	0.00e+00	0	57	0	1328545792	33	3985
2026-01-01 13:15:07.86	240.07	26.17	-30.6	-31.8	21.4	0.00e+00	0	57	0	1333788672	33	3971
2026-01-01 13:15:08.87	240.35	26.25	-30.5	-31.7	21.5	0.00e+00	0	57	0	1340080128	33	3918
2026-01-01 13:15:09.88	240.63	26.32	-30.5	-31.6	21.5	0.00e+00	0	57	0	1345323008	32	4144
2026-01-01 13:15:10.89	240.92	26.39	-30.5	-31.7	21.5	0.00e+00	0	57	0	1351614464	32	4162
2026-01-01 13:15:11.90	241.20	26.46	-30.5	-31.7	21.5	0.00e+00	0	57	0	1356857344	32	4169
2026-01-01 13:15:12.91	241.48	26.53	-30.5	-31.7	21.5	0.00e+00	0	57	0	1363148800	32	4160
2026-01-01 13:15:13.92	241.77	26.60	-30.5	-31.7	21.4	0.00e+00	0	57	0	1368391680	32	4164
2026-01-01 13:15:14.93	242.05	26.67	-30.6	-31.7	21.4	0.00e+00	0	57	0	1374683136	32	4185
2026-01-01 13:15:15.94	242.34	26.74	-30.7	-31.9	21.4	0.00e+00	0	57	0	1379926016	32	4246
2026-01-01 13:15:16.95	242.63	26.81	-30.8	-31.9	21.3	0.00e+00	0	57	0	1385168896	32	4290
2026-01-01 13:15:17.96	242.92	26.88	-30.8	-32.0	21.2	0.00e+00	0	57	0	1391460352	32	4301
2026-01-01 13:15:18.97	243.21	26.94	-30.7	-31.9	21.3	0.00e+00	0	57	0	1396703232	32	4267
2026-01-01 13:15:19.98	243.50	27.01	-30.6	-31.8	21.4	0.00e+00	0	57	0	1402994688	32	4228
2026-01-01 13:15:20.99	243.80	27.08	-30.7	-31.8	21.3	0.00e+00	0	57	0	1408237568	32	4235
2026-01-01 13:15:22.00	244.09	27.14	-30.7	-31.9	21.3	0.00e+00	0	57	0	1413480448	32	4245
2026-01-01 13:15:23.01	244.39	27.20	-30.7	-31.9	21.3	0.00e+00	0	57	0	1419771904	32	4259
2026-01-01 13:15:24.03	244.69	27.27	-30.7	-31.9	21.2	0.00e+00	0	57	0	1425014784	32	4281
2026-01-01 13:15:25.04	244.99	27.33	-30.7	-31.9	21.2	0.00e+00	0	57	0	1431306240	32	4277
2026-01-01 13:15:26.05	245.28	27.40	-30.7	-31.8	21.3	0.00e+00	0	57	0	1436549120	32	4236
2026-01-01 13:15:27.05	245.58	27.46	-30.6	-31.8	21.3	0.00e+00	0	57	0	1441792000	32	4217
2026-01-01 13:15:28.06	245.88	27.52	-30.6	-31.8	21.4	0.00e+00	0	57	0	1448083456	32	4203
2026-01-01 13:15:29.07	246.19	27.58	-30.6	-31.8	21.3	0.00e+00	0	57	0	1453326336	32	4227
2026-01-01 13:15:30.08	246.49	27.64	-30.6	-31.8	21.4	0.00e+00	0	57	0	1459617792	32	4216
2026-01-01 13:15:31.09	246.80	27.70	-30.6	-31.8	21.3	0.00e+00	0	57	0	1464860672	32	4227
2026-01-01 13:15:32.10	247.10	27.76	-30.6	-31.8	21.3	0.00e+00	0	57	0	1471152128	32	4226
2026-01-01 13:15:33.11	247.41	27.81	-30.6	-31.7	21.4	0.00e+00	0	57	0	1476395008	32	4193
2026-01-01 13:15:34.12	247.72	27.87	-30.5	-31.7	21.5	0.00e+00	0	57	0	1481637888	32	4153
2026-01-01 13:15:35.13	248.03	27.93	-30.5	-31.6	21.6	0.00e+00	0	57	0	1487929344	32	4135
2026-01-01 13:15:36.14	248.34	27.98	-30.5	-31.6	21.6	0.00e+00	0	57	0	1493172224	32	4141
2026-01-01 13:15:37.15	248.65	28.04	-30.5	-31.7	21.5	0.00e+00	0	57	0	1499463680	32	4164
2026-01-01 13:15:38.16	248.96	28.09	-30.8	-31.8	22.1	0.00e+00	0	57	0	1504706560	32	4214
2026-01-01 13:15:39.17	249.27	28.14	-30.8	-31.8	22.1	0.00e+00	0	57	0	1509949440	32	4229
2026-01-01 13:15:40.18	249.59	28.19	-30.7	-31.7	22.2	0.00e+00	0	57	0	1516240896	32	4165
2026-01-01 13:15:41.19	249.90	28.25	-30.5	-31.5	22.4	0.00e+00	0	57	0	1521483776	32	4073
2026-01-01 13:15:42.20	250.22	28.30	-30.3	-31.3	22.6	0.00e+00	0	57	0	1527775232	32	3969
2026-01-01 13:15:43.21	250.54	28.34	-30.2	-31.2	22.7	0.00e+00	0	57	0	1533018112	32	3923
2026-01-01 13:15:44.23	250.86	28.39	-30.4	-31.4	22.6	0.00e+00	0	57	0	1539309568	32	4018
2026-01-01 13:15:45.24	251.18	28.44	-30.7	-31.7	22.3	0.00e+00	0	57	0	1544552448	32	4157
2026-01-01 13:15:46.25	251.50	28.49	-30.8	-31.8	22.1	0.00e+00	0	57	0	1549795328	32	4231
2026-01-01 13:15:47.26	251.82	28.53	-30.8	-31.9	22.1	0.00e+00	0	57	0	1556086784	32	4244
2026-01-01 13:15:48.27	252.14	28.58	-30.8	-31.8	22.2	0.00e+00	0	57	0	1561329664	32	4212
2026-01-01 13:15:49.28	252.46	28.62	-30.7	-31.7	22.2	0.00e+00	0	57	0	1567621120	32	4173
2026-01-01 13:15:50.29	252.79	28.67	-30.7	-31.7	22.2	0.00e+00	0	57	0	1572864000	32	4190
2026-01-01 13:15:51.30	253.11	28.71	-30.8	-31.8	22.2	0.00e+00	0	57	0	1579155456	32	4200
2026-01-01 13:15:52.31	253.44	28.75	-30.7	-31.7	22.3	0.00e+00	0	57	0	1584398336	32	4152
2026-01-01 13:15:53.32	253.76	28.79	-30.7	-31.7	22.3	0.00e+00	0	57	0	1589641216	32	4152
2026-01-01 13:15:54.33	254.09	28.83	-30.6	-31.7	22.3	0.00e+00	0	57	0	1595932672	32	4147
2026-01-01 13:15:55.34	254.42	28.87	-30.7	-31.7	22.3	0.00e+00	0	57	0	1601175552	32	4162
2026-01-01 13:15:56.35	254.75	28.91	-30.6	-31.7	22.3	0.00e+00	0	57	0	1607467008	32	4150
2026-01-01 13:15:57.36	255.08	28.95	-30.5	-31.5	22.4	0.00e+00	0	57	0	1612709888	32	4091
2026-01-01 13:15:58.37	255.41	28.98	-30.5	-31.5	22.4	0.00e+00	0	57	0	1617952768	32	4092
2026-01-01 13:15:59.39	255.74	29.02	-30.6	-31.6	22.3	0.00e+00	0	57	0	1624244224	32	4143
2026-01-01 13:16:00.39	256.07	29.05	-30.7	-31.7	22.3	0.00e+00	0	57	0	1629487104	32	4175
2026-01-01 13:16:01.40	256.40	29.08	-30.6	-31.6	22.4	0.00e+00	0	57	0	1635778560	32	4115
2026-01-01 13:16:02.41	256.73	29.11	-30.6	-31.6	22.4	0.00e+00	0	57	0	1641021440	32	4102
2026-01-01 13:16:03.43	257.07	29.15	-30.7	-31.7	22.3	0.00e+00	0	57	0	1647312896	32	4174
2026-01-01 13:16:04.44	257.40	29.18	-30.8	-31.8	22.2	0.00e+00	0	57	0	1652555776	32	4218
2026-01-01 13:16:05.45	257.74	29.20	-30.8	-31.9	22.1	0.00e+00	0	57	0	1657798656	32	4245
2026-01-01 13:16:06.46	258.07	29.23	-30.8	-31.8	22.1	0.00e+00	0	57	0	1664090112	32	4229
2026-01-01 13:16:07.47	258.41	29.26	-30.7	-31.8	22.2	0.00e+00	0	57	0	1669332992	32	4202
2026-01-01 13:16:08.48	258.75	29.29	-30.7	-31.7	22.2	0.00e+00	0	57	0	1675624448	32	4180
2026-01-01 13:16:09.49	259.08	29.31	-30.7	-31.8	22.2	0.00e+00	0	57	0	1680867328	32	4199
2026-01-01 13:16:10.50	259.42	29.33	-30.8	-31.8	22.2	0.00e+00	0	57	0	1687158784	32	4220
2026-01-01 13:16:11.51	259.76	29.36	-30.8	-31.8	22.1	0.00e+00	0	57	0	1692401664	32	4230
2026-01-01 13:16:12.52	260.10	29.38	-30.9	-31.9	22.1	0.00e+00	0	57	0	1697644544	32	4278
2026-01-01 13:16:13.53	260.43	29.40	-30.9	-32.0	22.0	0.00e+00	0	57	0	1703936000	32	4304
2026-01-01 13:16:14.54	260.77	29.42	-30.9	-31.9	22.1	0.00e+00	0	57	0	1709178880	32	4281
2026-01-01 13:16:15.55	261.11	29.44	-30.8	-31.8	22.2	0.00e+00	0	57	0	1715470336	32	4224
2026-01-01 13:16:16.56	261.45	29.45	-30.7	-31.6	22.3	0.00e+00	0	57	0	1720713216	32	4145
2026-01-01 13:16:17.57	261.79	29.47	-30.5	-31.5	22.4	0.00e+00	0	57	0	1725956096	32	4079
2026-01-01 13:16:18.58	262.13	29.49	-30.6	-31.6	22.3	0.00e+00	0	57	0	1732247552	32	4138
2026-01-01 13:16:19.60	262.48	29.50	-30.8	-31.8	22.2	0.00e+00	0	57	0	1737490432	32	4198
2026-01-01 13:16:20.61	262.82	29.51	-30.8	-31.8	22.2	0.00e+00	0	57	0	1743781888	32	4224
2026-01-01 13:16:21.62	263.16	29.53	-30.8	-31.8	22.2	0.00e+00	0	57	0	1749024768	32	4206
2026-01-01 13:16:22.63	263.50	29.54	-30.7	-31.7	22.3	0.00e+00	0	57	0	1755316224	32	4179
2026-01-01 13:16:23.64	263.84	29.55	-30.6	-31.6	22.3	0.00e+00	0	57	0	1760559104	32	4139
2026-01-01 13:16:24.65	264.18	29.55	-30.5	-31.5	22.4	0.00e+00	0	57	0	1765801984	32	4086
2026-01-01 13:16:25.66	264.53	29.56	-30.5	-31.5	22.4	0.00e+00	0	57	0	1772093440	32	4087
2026-01-01 13:16:26.67	264.87	29.57	-30.5	-31.5	22.4	0.00e+00	0	57	0	1777336320	32	4096
2026-01-01 13:16:27.68	265.21	29.57	-30.6	-31.6	22.3	0.00e+00	0	57	0	1783627776	32	4136
2026-01-01 13:16:28.69	265.55	29.58	-30.7	-31.7	22.3	0.00e+00	0	57	0	1788870656	32	4167
2026-01-01 13:16:29.70	265.90	29.58	-30.7	-31.7	22.3	0.00e+00	0	57	0	1795162112	32	4163
2026-01-01 13:16:30.71	266.24	29.58	-30.7	-31.7	22.3	0.00e+00	0	57	0	1800404992	32	4155
2026-01-01 13:16:31.72	266.58	29.58	-30.6	-31.6	22.3	0.00e+00	0	57	0	1805647872	32	4123
2026-01-01 13:16:32.73	266.92	29.58	-30.6	-31.6	22.4	0.00e+00	0	57	0	1811939328	32	4106
2026-01-01 13:16:33.74	267.27	29.58	-30.5	-31.5	22.4	0.00e+00	0	57	0	1817182208	32	4098
2026-01-01 13:16:34.75	267.61	29.58	-30.6	-31.6	22.4	0.00e+00	0	57	0	1823473664	32	4113
2026-01-01 13:16:35.77	267.95	29.58	-30.6	-31.5	22.4	0.00e+00	0	57	0	1828716544	32	4097
2026-01-01 13:16:36.78	268.30	29.57	-30.6	-31.6	22.4	0.00e+00	0	57	0	1835008000	32	4127
2026-01-01 13:16:37.79	268.64	29.57	-30.7	-31.7	22.3	0.00e+00	0	57	0	1840250880	32	4154
2026-01-01 13:16:38.80	268.98	29.56	-30.7	-31.8	22.2	0.00e+00	0	57	0	1845493760	32	4196
2026-01-01 13:16:39.81	269.32	29.55	-30.7	-31.8	22.2	0.00e+00	0	57	0	1851785216	32	4196
2026-01-01 13:16:40.82	269.66	29.54	-30.7	-31.7	22.3	0.00e+00	0	57	0	1857028096	32	4166
2026-01-01 13:16:41.83	270.01	29.53	-30.5	-31.5	22.4	0.00e+00	0	57	0	1863319552	32	4090
2026-01-01 13:16:42.84	270.35	29.52	-30.5	-31.5	22.4	0.00e+00	0	57	0	1868562432	32	4077
2026-01-01 13:16:43.85	270.69	29.51	-30.6	-31.6	22.4	0.00e+00	0	57	0	1873805312	32	4112
2026-01-01 13:16:44.86	271.03	29.50	-30.7	-31.7	22.2	0.00e+00	0	57	0	1880096768	32	4186
2026-01-01 13:16:45.87	271.37	29.48	-30.8	-31.9	22.1	0.00e+00	0	57	0	1885339648	32	4247
2026-01-01 13:16:46.88	271.71	29.47	-30.9	-31.9	22.0	0.00e+00	0	57	0	1891631104	32	4280
2026-01-01 13:16:47.89	272.05	29.45	-30.8	-31.8	22.2	0.00e+00	0	57	0	1896873984	32	4218
2026-01-01 13:16:48.90	272.39	29.44	-30.7	-31.7	22.3	0.00e+00	0	57	0	1903165440	32	4164
2026-01-01 13:16:49.91	272.73	29.42	-30.6	-31.6	22.3	0.00e+00	0	57	0	1908408320	32	4144
2026-01-01 13:16:50.92	273.07	29.40	-30.7	-31.7	22.3	0.00e+00	0	57	0	1913651200	32	4161
2026-01-01 13:16:51.93	273.40	29.38	-30.8	-31.8	22.2	0.00e+00	0	57	0	1919942656	32	4206
2026-01-01 13:16:52.94	273.74	29.35	-30.8	-31.8	22.1	0.00e+00	0	57	0	1925185536	32	4229
2026-01-01 13:16:53.95	274.08	29.33	-30.8	-31.8	22.2	0.00e+00	0	57	0	1931476992	32	4215
2026-01-01 13:16:54.96	274.42	29.31	-30.7	-31.7	22.2	0.00e+00	0	57	0	1936719872	32	4187
2026-01-01 13:16:55.97	274.75	29.28	-30.7	-31.7	22.3	0.00e+00	0	57	0	1941962752	32	4151
2026-01-01 13:16:56.98	275.09	29.26	-30.7	-31.7	22.3	0.00e+00	0	57	0	1948254208	32	4156
2026-01-01 13:16:57.99	275.42	29.23	-30.8	-31.8	22.1	0.00e+00	0	57	0	1953497088	32	4223
2026-01-01 13:16:59.00	275.76	29.20	-30.9	-31.9	22.1	0.00e+00	0	57	0	1959788544	32	4271
2026-01-01 13:17:00.01	276.09	29.17	-30.9	-31.9	22.1	0.00e+00	0	58	0	1965031424	32	4267
2026-01-01 13:17:01.02	276.43	29.14	-30.9	-31.9	22.1	0.00e+00	0	57	0	1971322880	32	4260
2026-01-01 13:17:02.04	276.76	29.11	-30.8	-31.9	22.1	0.00e+00	0	57	0	1976565760	32	4249
2026-01-01 13:17:03.05	277.09	29.08	-30.8	-31.8	22.1	0.00e+00	0	57	0	1981808640	32	4232
2026-01-01 13:17:04.05	277.42	29.05	-30.8	-31.8	22.2	0.00e+00	0	57	0	1988100096	32	4208
2026-01-01 13:17:05.06	277.75	29.01	-30.7	-31.7	22.2	0.00e+00	0	57	0	1993342976	32	4180
2026-01-01 13:17:06.07	278.08	28.98	-30.7	-31.7	22.2	0.00e+00	0	57	0	1999634432	32	4182
2026-01-01 13:17:07.09	278.42	28.94	-30.8	-31.8	22.2	0.00e+00	0	57	0	2004877312	32	4211
2026-01-01 13:17:08.10	278.75	28.91	-30.8	-31.8	22.2	0.00e+00	0	57	0	2011168768	32	4215
2026-01-01 13:17:09.11	279.07	28.87	-30.7	-31.7	22.2	0.00e+00	0	57	0	2016411648	32	4189
2026-01-01 13:17:10.12	279.40	28.83	-30.7	-31.7	22.2	0.00e+00	0	57	0	2021654528	32	4171
2026-01-01 13:17:11.13	279.73	28.79	-30.7	-31.7	22.3	0.00e+00	0	57	0	2027945984	32	4167
2026-01-01 13:17:12.14	280.05	28.75	-30.7	-31.7	22.3	0.00e+00	0	57	0	2033188864	32	4170
2026-01-01 13:17:13.15	280.38	28.71	-30.7	-31.8	22.2	0.00e+00	0	57	0	2039480320	32	4198
2026-01-01 13:17:14.16	280.70	28.67	-30.8	-31.8	22.2	0.00e+00	0	57	0	2044723200	32	4204
2026-01-01 13:17:15.17	281.02	28.62	-30.7	-31.7	22.3	0.00e+00	0	58	0	2049966080	32	4181
2026-01-01 13:17:16.18	281.35	28.58	-30.6	-31.6	22.3	0.00e+00	0	57	0	2056257536	32	4127
2026-01-01 13:17:17.18	281.66	28.53	-30.5	-31.5	22.4	0.00e+00	0	57	0	2061500416	32	4080
2026-01-01 13:17:18.19	281.98	28.49	-30.5	-31.5	22.4	0.00e+00	0	57	0	2067791872	32	4067
2026-01-01 13:17:19.20	282.30	28.44	-30.6	-31.6	22.4	0.00e+00	0	57	0	2073034752	32	4109
2026-01-01 13:17:20.21	282.62	28.39	-30.7	-31.7	22.2	0.00e+00	0	57	0	2078277632	32	4182
2026-01-01 13:17:21.22	282.94	28.35	-30.8	-31.8	22.1	0.00e+00	0	57	0	2084569088	32	4237
2026-01-01 13:17:22.23	283.26	28.30	-30.9	-31.9	22.1	0.00e+00	0	57	0	2089811968	32	4262
2026-01-01 13:17:23.24	283.57	28.25	-30.8	-31.9	22.1	0.00e+00	0	57	0	2096103424	32	4250
2026-01-01 13:17:24.25	283.89	28.19	-30.8	-31.9	22.1	0.00e+00	0	57	0	2101346304	32	4243
2026-01-01 13:17:25.26	284.20	28.14	-30.9	-31.9	22.1	0.00e+00	0	57	0	2107637760	32	4246
2026-01-01 13:17:26.27	284.51	28.09	-30.9	-31.9	22.0	0.00e+00	0	57	0	2112880640	32	4276
2026-01-01 13:17:27.28	284.82	28.04	-31.0	-32.0	21.9	0.00e+00	0	57	0	2119172096	32	4327
2026-01-01 13:17:28.29	285.13	27.98	-31.1	-32.1	21.9	0.00e+00	0	57	0	2124414976	32	4366
2026-01-01 13:17:29.30	285.44	27.93	-31.1	-32.1	21.9	0.00e+00	0	57	0	2129657856	32	4378
2026-01-01 13:17:30.31	285.75	27.87	-31.1	-32.1	21.9	0.00e+00	0	57	0	2135949312	32	4363
2026-01-01 13:17:31.32	286.06	27.81	-31.0	-32.1	21.9	0.00e+00	0	57	0	2141192192	32	4344
2026-01-01 13:17:32.33	286.37	27.76	-31.0	-32.0	22.0	0.00e+00	0	57	0	2147483648	32	4317
2026-01-01 13:17:33.34	286.67	27.70	-30.9	-32.0	22.0	0.00e+00	0	57	0	2152726528	32	4293
2026-01-01 13:17:34.36	286.98	27.64	-30.9	-31.9	22.1	0.00e+00	0	57	0	2157969408	32	4275
2026-01-01 13:17:35.37	287.28	27.58	-30.9	-31.9	22.1	0.00e+00	0	57	0	2164260864	32	4260
2026-01-01 13:17:36.38	287.58	27.52	-30.9	-31.9	22.0	0.00e+00	0	57	0	2169503744	32	4274
2026-01-01 13:17:37.38	287.88	27.46	-30.9	-31.9	22.1	0.00e+00	0	57	0	2175795200	32	4260
2026-01-01 13:17:38.40	288.18	27.40	-30.9	-31.9	22.0	0.00e+00	0	57	0	2181038080	32	4273
2026-01-01 13:17:39.40	288.48	27.34	-30.9	-31.9	22.0	0.00e+00	0	57	0	2186280960	32	4279
2026-01-01 13:17:40.41	288.78	27.27	-31.0	-32.0	22.0	0.00e+00	0	57	0	2192572416	32	4306
2026-01-01 13:17:41.43	289.08	27.21	-31.0	-32.1	21.9	0.00e+00	0	57	0	2197815296	32	4342
2026-01-01 13:17:42.44	289.37	27.14	-31.0	-32.1	21.9	0.00e+00	0	57	0	2204106752	32	4358
2026-01-01 13:17:43.45	289.66	27.08	-31.1	-32.1	21.9	0.00e+00	0	57	0	2209349632	32	4380
2026-01-01 13:17:44.46	289.96	27.01	-31.1	-32.1	21.9	0.00e+00	0	57	0	2215641088	32	4381
2026-01-01 13:17:45.47	290.25	26.95	-31.1	-32.1	21.8	0.00e+00	0	57	0	2220883968	32	4388
2026-01-01 13:17:46.48	290.54	26.88	-31.0	-32.1	21.9	0.00e+00	0	57	0	2227175424	32	4348
2026-01-01 13:17:47.49	290.83	26.81	-30.9	-32.0	22.0	0.00e+00	0	57	0	2232418304	32	4295
2026-01-01 13:17:48.50	291.12	26.75	-30.8	-31.8	22.2	0.00e+00	0	57	0	2237661184	32	4204
2026-01-01 13:17:49.51	291.40	26.68	-30.7	-31.7	22.2	0.00e+00	0	57	0	2243952640	32	4180
2026-01-01 13:17:50.52	291.69	26.61	-30.7	-31.7	22.2	0.00e+00	0	57	0	2249195520	32	4189
2026-01-01 13:17:51.53	291.97	26.54	-30.9	-32.0	22.0	0.00e+00	0	57	0	2255486976	32	4300
2026-01-01 13:17:52.54	292.25	26.47	-31.1	-32.1	21.8	0.00e+00	0	57	0	2260729856	32	4383
2026-01-01 13:17:53.55	292.54	26.40	-31.2	-32.3	21.7	0.00e+00	0	57	0	2265972736	32	4448
2026-01-01 13:17:54.56	292.82	26.33	-31.2	-32.2	21.7	0.00e+00	0	57	0	2272264192	32	4424
2026-01-01 13:17:55.57	293.09	26.25	-31.1	-32.1	21.8	0.00e+00	0	57	0	2277507072	32	4365
2026-01-01 13:17:56.58	293.37	26.18	-30.9	-31.9	22.0	0.00e+00	0	57	0	2283798528	32	4286
2026-01-01 13:17:57.59	293.65	26.11	-30.9	-31.9	22.0	0.00e+00	0	57	0	2289041408	32	4285
2026-01-01 13:17:58.60	293.92	26.04	-31.0	-32.0	21.9	0.00e+00	0	57	0	2294284288	32	4313
2026-01-01 13:17:59.61	294.20	25.96	-31.0	-32.0	21.9	0.00e+00	0	57	0	2300575744	32	4336
2026-01-01 13:18:00.63	294.47	25.89	-31.1	-32.1	21.8	0.00e+00	0	57	0	2305818624	32	4371
2026-01-01 13:18:01.64	294.75	25.81	-31.1	-32.2	21.8	0.00e+00	0	57	0	2312110080	32	4408
2026-01-01 13:18:02.65	295.02	25.74	-31.2	-32.3	21.7	0.00e+00	0	57	0	2317352960	32	4445
2026-01-01 13:18:03.66	295.29	25.66	-31.2	-32.3	21.7	0.00e+00	0	57	0	2323644416	33	4218
2026-01-01 13:18:04.67	295.55	25.59	-31.3	-32.3	21.6	0.00e+00	0	57	0	2328887296	33	4229
2026-01-01 13:18:05.68	295.82	25.51	-31.3	-32.3	21.6	0.00e+00	0	57	0	2335178752	33	4221
2026-01-01 13:18:06.69	296.09	25.43	-31.2	-32.3	21.7	0.00e+00	0	57	0	2340421632	33	4194
2026-01-01 13:18:07.70	296.35	25.35	-31.2	-32.2	21.7	0.00e+00	0	58	0	2345664512	33	4187
2026-01-01 13:18:08.71	296.61	25.28	-31.2	-32.2	21.7	0.00e+00	0	57	0	2351955968	33	4165
2026-01-01 13:18:09.72	296.87	25.20	-31.2	-32.2	21.7	0.00e+00	0	57	0	2357198848	33	4174
2026-01-01 13:18:10.73	297.13	25.12	-31.2	-32.2	21.7	0.00e+00	0	57	0	2363490304	33	4186
2026-01-01 13:18:11.74	297.39	25.04	-31.2	-32.3	21.7	0.00e+00	0	58	0	2368733184	33	4210
2026-01-01 13:18:12.75	297.65	24.96	-31.3	-32.3	21.6	0.00e+00	0	57	0	2373976064	33	4238
2026-01-01 13:18:13.76	297.91	24.88	-31.4	-32.4	21.5	0.00e+00	0	57	0	2380267520	33	4286
2026-01-01 13:18:14.77	298.16	24.80	-31.4	-32.5	21.4	0.00e+00	0	57	0	2385510400	33	4312
2026-01-01 13:18:15.78	298.42	24.72	-31.5	-32.5	21.4	0.00e+00	0	57	0	2391801856	33	4333
2026-01-01 13:18:16.79	298.67	24.64	-31.5	-32.5	21.4	0.00e+00	0	57	0	2397044736	33	4340
2026-01-01 13:18:17.80	298.92	24.56	-31.5	-32.5	21.4	0.00e+00	0	58	0	2402287616	33	4334
2026-01-01 13:18:18.81	299.17	24.48	-31.5	-32.5	21.4	0.00e+00	0	57	0	2408579072	33	4331
2026-01-01 13:18:19.82	299.42	24.40	-31.5	-32.5	21.4	0.00e+00	0	57	0	2413821952	33	4326
2026-01-01 13:18:20.83	299.66	24.32	-31.4	-32.5	21.5	0.00e+00	0	57	0	2420113408	33	4296
2026-01-01 13:18:21.84	299.91	24.23	-31.4	-32.4	21.5	0.00e+00	0	57	0	2425356288	33	4272
2026-01-01 13:18:22.85	300.16	24.15	-31.3	-32.4	21.6	0.00e+00	0	57	0	2431647744	33	4243
2026-01-01 13:18:23.86	300.40	24.07	-31.4	-32.4	21.5	0.00e+00	0	57	0	2436890624	33	4268
2026-01-01 13:18:24.87	300.64	23.99	-31.4	-32.5	21.5	0.00e+00	0	58	0	2442133504	33	4298
2026-01-01 13:18:25.88	300.88	23.90	-31.5	-32.6	21.4	0.00e+00	0	57	0	2448424960	33	4365
2026-01-01 13:18:26.89	301.12	23.82	-31.5	-32.6	21.3	0.00e+00	0	57	0	2453667840	33	4376
2026-01-01 13:18:27.90	301.36	23.74	-31.5	-32.6	21.3	0.00e+00	0	57	0	2459959296	33	4360
2026-01-01 13:18:28.91	301.60	23.65	-31.4	-32.5	21.4	0.00e+00	0	58	0	2465202176	33	4299
2026-01-01 13:18:29.93	301.84	23.57	-31.4	-32.4	21.5	0.00e+00	0	57	0	2471493632	33	4268
2026-01-01 13:18:30.94	302.07	23.48	-31.3	-32.4	21.5	0.00e+00	0	57	0	2476736512	33	4255
2026-01-01 13:18:31.95	302.31	23.40	-31.4	-32.4	21.5	0.00e+00	0	58	0	2481979392	33	4289
2026-01-01 13:18:32.96	302.54	23.31	-31.4	-32.5	21.4	0.00e+00	0	58	0	2488270848	33	4313
2026-01-01 13:18:33.97	302.77	23.23	-31.5	-32.5	21.4	0.00e+00	0	57	0	2493513728	33	4336
2026-01-01 13:18:34.98	303.00	23.14	-31.5	-32.6	21.3	0.00e+00	0	57	0	2499805184	33	4355
2026-01-01 13:18:35.99	303.23	23.06	-31.5	-32.6	21.4	0.00e+00	0	57	0	2505048064	33	4345
2026-01-01 13:18:37.00	303.46	22.97	-31.5	-32.6	21.3	0.00e+00	0	57	0	2510290944	33	4349
2026-01-01 13:18:38.01	303.68	22.89	-31.5	-32.6	21.3	0.00e+00	0	57	0	2516582400	33	4370
2026-01-01 13:18:39.02	303.91	22.80	-31.6	-32.6	21.3	0.00e+00	0	57	0	2521825280	33	4388
2026-01-01 13:18:40.03	304.13	22.71	-31.6	-32.7	21.2	0.00e+00	0	57	0	2528116736	33	4402
2026-01-01 13:18:41.04	304.35	22.63	-31.6	-32.7	21.2	0.00e+00	0	58	0	2533359616	33	4422
2026-01-01 13:18:42.05	304.57	22.54	-31.6	-32.7	21.2	0.00e+00	0	57	0	2539651072	33	4397
2026-01-01 13:18:43.07	304.80	22.46	-31.6	-32.6	21.3	0.00e+00	0	57	0	2544893952	33	4377
2026-01-01 13:18:44.08	305.02	22.37	-31.6	-32.7	21.2	0.00e+00	0	57	0	2551185408	33	4395
2026-01-01 13:18:45.09	305.23	22.28	-31.7	-32.8	21.1	0.00e+00	0	57	0	2556428288	34	4213
2026-01-01 13:18:46.10	305.45	22.20	-31.9	-33.0	21.0	0.00e+00	0	57	0	2561671168	34	4307
2026-01-01 13:18:47.11	305.67	22.11	-32.1	-33.1	20.8	0.00e+00	0	57	0	2567962624	34	4391
2026-01-01 13:18:48.12	305.88	22.02	-32.2	-33.3	20.7	0.00e+00	0	57	0	2573205504	34	4454
2026-01-01 13:18:49.13	306.09	21.93	-32.2	-33.3	20.6	0.00e+00	0	58	0	2579496960	34	4482
2026-01-01 13:18:50.14	306.30	21.85	-32.2	-33.3	20.7	0.00e+00	0	57	0	2584739840	34	4461
2026-01-01 13:18:51.15	306.52	21.76	-32.1	-33.2	20.7	0.00e+00	0	57	0	2589982720	34	4414
2026-01-01 13:18:52.16	306.73	21.67	-32.0	-33.1	20.9	0.00e+00	0	58	0	2596274176	34	4359
2026-01-01 13:18:53.17	306.93	21.59	-31.9	-33.0	20.9	0.00e+00	0	57	0	2601517056	34	4318
2026-01-01 13:18:54.18	307.14	21.50	-31.9	-32.9	21.0	0.00e+00	0	57	0	2607808512	34	4287
2026-01-01 13:18:55.19	307.35	21.41	-31.8	-32.9	21.0	0.00e+00	0	57	0	2613051392	34	4271
2026-01-01 13:18:56.20	307.55	21.32	-31.9	-32.9	21.0	0.00e+00	0	57	0	2618294272	34	4279
2026-01-01 13:18:57.21	307.76	21.24	-31.9	-33.0	20.9	0.00e+00	0	58	0	2624585728	34	4298
2026-01-01 13:18:58.22	307.96	21.15	-32.0	-33.0	20.9	0.00e+00	0	57	0	2629828608	34	4334
2026-01-01 13:18:59.23	308.16	21.06	-32.0	-33.1	20.8	0.00e+00	0	57	0	2636120064	34	4386
2026-01-01 13:19:00.24	308.36	20.97	-32.1	-33.2	20.7	0.00e+00	0	58	0	2641362944	34	4440
2026-01-01 13:19:01.25	308.56	20.88	-32.2	-33.3	20.6	0.00e+00	0	57	0	2647654400	34	4474
2026-01-01 13:19:02.26	308.76	20.80	-32.2	-33.3	20.6	0.00e+00	0	57	0	2652897280	35	4234
2026-01-01 13:19:03.27	308.96	20.71	-32.2	-33.3	20.6	0.00e+00	0	57	0	2658140160	35	4219
2026-01-01 13:19:04.28	309.15	20.62	-32.2	-33.3	20.6	0.00e+00	0	57	0	2664431616	35	4206
2026-01-01 13:19:05.29	309.35	20.53	-32.1	-33.2	20.7	0.00e+00	0	57	0	2669674496	35	4176
2026-01-01 13:19:06.30	309.54	20.44	-32.1	-33.2	20.7	0.00e+00	0	57	0	2675965952	35	4181
2026-01-01 13:19:07.31	309.73	20.36	-32.2	-33.2	20.7	0.00e+00	0	57	0	2681208832	35	4191
2026-01-01 13:19:08.32	309.92	20.27	-32.3	-33.4	20.6	0.00e+00	0	57	0	2686451712	35	4247
2026-01-01 13:19:09.33	310.12	20.18	-32.3	-33.5	20.4	0.00e+00	0	57	0	2692743168	35	4295
2026-01-01 13:19:10.34	310.31	20.09	-32.4	-33.5	20.4	0.00e+00	0	57	0	2697986048	35	4331
2026-01-01 13:19:11.35	310.49	20.00	-32.4	-33.6	20.4	0.00e+00	0	57	0	2704277504	35	4348
2026-01-01 13:19:12.36	310.68	19.92	-32.4	-33.5	20.4	0.00e+00	0	58	0	2709520384	35	4338
2026-01-01 13:19:13.37	310.87	19.83	-32.4	-33.5	20.4	0.00e+00	0	57	0	2714763264	35	4322
2026-01-01 13:19:14.38	311.05	19.74	-32.4	-33.6	20.4	0.00e+00	0	57	0	2721054720	35	4341
2026-01-01 13:19:15.39	311.24	19.65	-32.5	-33.6	20.3	0.00e+00	0	57	0	2726297600	35	4354
2026-01-01 13:19:16.40	311.42	19.57	-32.5	-33.6	20.3	0.00e+00	0	57	0	2732589056	35	4374
2026-01-01 13:19:17.41	311.60	19.48	-32.6	-33.7	20.2	0.00e+00	0	58	0	2737831936	35	4410
2026-01-01 13:19:18.42	311.78	19.39	-32.6	-33.8	20.1	0.00e+00	0	58	0	2744123392	35	4454
2026-01-01 13:19:19.43	311.96	19.30	-32.7	-33.9	20.0	0.00e+00	0	57	0	2749366272	35	4498
2026-01-01 13:19:20.45	312.15	19.21	-33.3	-34.5	20.1	0.00e+00	0	57	0	2755657728	37	4315
2026-01-01 13:19:21.45	312.32	19.13	-33.4	-34.5	20.1	0.00e+00	0	57	0	2760900608	37	4331
2026-01-01 13:19:22.46	312.50	19.04	-33.4	-34.6	20.0	0.00e+00	0	57	0	2766143488	37	4355
2026-01-01 13:19:23.47	312.68	18.95	-33.4	-34.6	20.0	0.00e+00	0	57	0	2772434944	37	4364
2026-01-01 13:19:24.48	312.85	18.86	-33.5	-34.6	20.0	0.00e+00	0	57	0	2777677824	37	4378
2026-01-01 13:19:25.49	313.02	18.78	-33.5	-34.6	20.0	0.00e+00	0	57	0	2783969280	37	4382
2026-01-01 13:19:26.50	313.20	18.69	-33.5	-34.7	19.9	0.00e+00	0	57	0	2789212160	37	4400
2026-01-01 13:19:27.52	313.37	18.60	-33.5	-34.6	20.0	0.00e+00	0	58	0	2794455040	37	4391
2026-01-01 13:19:28.53	313.54	18.51	-33.4	-34.6	20.0	0.00e+00	0	57	0	2800746496	37	4349
2026-01-01 13:19:29.54	313.71	18.43	-33.4	-34.5	20.1	0.00e+00	0	58	0	2805989376	37	4323
2026-01-01 13:19:30.55	313.88	18.34	-33.4	-34.5	20.1	0.00e+00	0	57	0	2812280832	37	4321
2026-01-01 13:19:31.56	314.05	18.25	-33.4	-34.5	20.1	0.00e+00	0	57	0	2817523712	37	4325
2026-01-01 13:19:32.57	314.22	18.17	-33.4	-34.6	20.0	0.00e+00	0	57	0	2822766592	37	4341
2026-01-01 13:19:33.58	314.39	18.08	-33.4	-34.6	20.0	0.00e+00	0	58	0	2829058048	37	4361
2026-01-01 13:19:34.59	314.55	17.99	-33.5	-34.7	19.9	0.00e+00	0	57	0	2834300928	37	4399
2026-01-01 13:19:35.60	314.72	17.90	-33.6	-34.7	19.9	0.00e+00	0	57	0	2840592384	37	4438
2026-01-01 13:19:36.61	314.88	17.82	-33.7	-34.9	19.7	0.00e+00	0	57	0	2845835264	37	4496
2026-01-01 13:19:37.62	315.04	17.73	-33.7	-34.9	19.7	0.00e+00	0	58	0	2852126720	37	4506
2026-01-01 13:19:38.63	315.21	17.64	-33.6	-34.8	19.8	0.00e+00	0	58	0	2857369600	37	4482
2026-01-01 13:19:39.64	315.37	17.56	-33.6	-34.8	19.8	0.00e+00	0	57	0	2863661056	37	4450
2026-01-01 13:19:40.65	315.53	17.47	-33.5	-34.7	19.9	0.00e+00	0	57	0	2868903936	37	4398
2026-01-01 13:19:41.67	315.69	17.39	-33.4	-34.6	20.0	0.00e+00	0	58	0	2874146816	37	4360
2026-01-01 13:19:42.67	315.85	17.30	-33.4	-34.5	20.0	0.00e+00	0	58	0	2880438272	37	4331
2026-01-01 13:19:43.68	316.00	17.21	-33.4	-34.5	20.0	0.00e+00	0	57	0	2885681152	37	4340
2026-01-01 13:19:44.69	316.16	17.13	-33.4	-34.6	20.0	0.00e+00	0	58	0	2891972608	37	4356
2026-01-01 13:19:45.70	316.32	17.04	-33.5	-34.7	19.9	0.00e+00	0	57	0	2897215488	37	4400
2026-01-01 13:19:46.71	316.47	16.96	-33.6	-34.8	19.8	0.00e+00	0	57	0	2902458368	37	4455
2026-01-01 13:19:47.72	316.62	16.87	-33.6	-34.8	19.8	0.00e+00	0	57	0	2908749824	37	4463
2026-01-01 13:19:48.73	316.78	16.79	-33.7	-34.9	19.7	0.00e+00	0	57	0	2913992704	37	4500
2026-01-01 13:19:49.74	316.93	16.70	-33.7	-34.9	19.7	0.00e+00	0	57	0	2920284160	37	4505
2026-01-01 13:19:50.75	317.08	16.61	-33.7	-34.9	19.7	0.00e+00	0	57	0	2925527040	37	4499
2026-01-01 13:19:51.76	317.23	16.53	-33.6	-34.8	19.7	0.00e+00	0	57	0	2930769920	37	4476
2026-01-01 13:19:52.78	317.38	16.44	-33.6	-34.8	19.7	0.00e+00	0	58	0	2937061376	37	4471
2026-01-01 13:19:53.79	317.53	16.36	-33.6	-34.8	19.7	0.00e+00	0	57	0	2942304256	37	4472
2026-01-01 13:19:54.80	317.68	16.27	-33.7	-34.8	19.7	0.00e+00	0	58	0	2948595712	37	4490
2026-01-01 13:19:55.81	317.83	16.19	-33.7	-34.9	19.7	0.00e+00	0	58	0	2953838592	37	4494
2026-01-01 13:19:56.82	317.98	16.10	-33.8	-35.0	19.6	0.00e+00	0	57	0	2960130048	38	4310
2026-01-01 13:19:57.83	318.12	16.02	-33.8	-35.0	19.5	0.00e+00	0	57	0	2965372928	38	4338
2026-01-01 13:19:58.84	318.27	15.94	-33.9	-35.1	19.4	0.00e+00	0	57	0	2971664384	38	4384
2026-01-01 13:19:59.85	318.41	15.85	-34.0	-35.2	19.4	0.00e+00	0	58	0	2976907264	38	4413
2026-01-01 13:20:00.86	318.56	15.77	-34.0	-35.2	19.4	0.00e+00	0	57	0	2982150144	38	4416
2026-01-01 13:20:01.87	318.70	15.68	-34.0	-35.2	19.3	0.00e+00	0	57	0	2988441600	38	4432
2026-01-01 13:20:02.88	318.84	15.60	-34.0	-35.2	19.3	0.00e+00	0	57	0	2993684480	38	4422
2026-01-01 13:20:03.89	318.98	15.52	-34.0	-35.2	19.3	0.00e+00	0	58	0	2999975936	38	4408
2026-01-01 13:20:04.90	319.12	15.43	-34.0	-35.2	19.3	0.00e+00	0	57	0	3005218816	38	4417
2026-01-01 13:20:05.91	319.26	15.35	-34.0	-35.2	19.3	0.00e+00	0	57	0	3010461696	38	4413
2026-01-01 13:20:06.92	319.40	15.27	-34.0	-35.2	19.3	0.00e+00	0	58	0	3016753152	38	4416
2026-01-01 13:20:07.93	319.54	15.18	-34.0	-35.2	19.3	0.00e+00	0	57	0	3021996032	38	4438
2026-01-01 13:20:08.94	319.68	15.10	-34.1	-35.3	19.2	0.00e+00	0	58	0	3028287488	38	4461
2026-01-01 13:20:09.95	319.81	15.02	-34.2	-35.4	19.1	0.00e+00	0	57	0	3033530368	38	4517
2026-01-01 13:20:10.96	319.95	14.93	-34.3	-35.5	19.0	0.00e+00	0	58	0	3038773248	39	4303
2026-01-01 13:20:11.97	320.08	14.85	-34.3	-35.5	19.0	0.00e+00	0	58	0	3045064704	39	4327
2026-01-01 13:20:12.98	320.22	14.77	-34.3	-35.6	18.9	0.00e+00	0	58	0	3050307584	39	4365
2026-01-01 13:20:14.00	320.35	14.69	-34.4	-35.7	18.9	0.00e+00	0	57	0	3056599040	39	4398
2026-01-01 13:20:15.01	320.49	14.60	-34.4	-35.7	18.8	0.00e+00	0	58	0	3061841920	39	4421
2026-01-01 13:20:16.02	320.62	14.52	-34.4	-35.7	18.8	0.00e+00	0	57	0	3068133376	39	4405
2026-01-01 13:20:17.03	320.75	14.44	-34.4	-35.7	18.8	0.00e+00	0	58	0	3073376256	39	4427
2026-01-01 13:20:18.04	320.88	14.36	-34.4	-35.7	18.8	0.00e+00	0	58	0	3079667712	39	4405
2026-01-01 13:20:19.05	321.01	14.28	-34.4	-35.7	18.8	0.00e+00	0	58	0	3084910592	39	4393
2026-01-01 13:20:20.06	321.14	14.19	-34.4	-35.6	18.8	0.00e+00	0	57	0	3090153472	39	4390
2026-01-01 13:20:21.07	321.27	14.11	-34.4	-35.6	18.9	0.00e+00	0	58	0	3096444928	39	4382
2026-01-01 13:20:22.08	321.40	14.03	-34.3	-35.6	18.9	0.00e+00	0	58	0	3101687808	39	4359
2026-01-01 13:20:23.09	321.53	13.95	-34.3	-35.6	18.9	0.00e+00	0	57	0	3107979264	39	4366
2026-01-01 13:20:24.10	321.65	13.87	-34.3	-35.6	18.9	0.00e+00	0	58	0	3113222144	39	4349
2026-01-01 13:20:25.11	321.78	13.79	-34.3	-35.5	19.0	0.00e+00	0	57	0	3118465024	39	4325
2026-01-01 13:20:26.12	321.91	13.71	-34.3	-35.5	18.9	0.00e+00	0	57	0	3124756480	39	4320
2026-01-01 13:20:27.13	322.03	13.63	-34.3	-35.5	19.0	0.00e+00	0	57	0	3129999360	39	4307
2026-01-01 13:20:28.14	322.16	13.55	-34.3	-35.5	19.0	0.00e+00	0	57	0	3136290816	39	4306
2026-01-01 13:20:29.15	322.28	13.47	-34.3	-35.5	19.0	0.00e+00	0	58	0	3141533696	39	4322
2026-01-01 13:20:30.16	322.40	13.39	-34.3	-35.5	18.9	0.00e+00	0	57	0	3146776576	39	4334
2026-01-01 13:20:31.17	322.52	13.31	-34.4	-35.6	18.8	0.00e+00	0	57	0	3153068032	39	4368
2026-01-01 13:20:32.18	322.65	13.23	-34.4	-35.6	18.8	0.00e+00	0	57	0	3158310912	39	4359
2026-01-01 13:20:33.19	322.77	13.15	-34.4	-35.7	18.8	0.00e+00	0	57	0	3164602368	39	4399
2026-01-01 13:20:34.20	322.89	13.07	-34.4	-35.7	18.8	0.00e+00	0	58	0	3169845248	39	4409
2026-01-01 13:20:35.21	323.01	12.99	-34.5	-35.7	18.7	0.00e+00	0	58	0	3176136704	39	4438
2026-01-01 13:20:36.22	323.13	12.91	-34.5	-35.8	18.6	0.00e+00	0	57	0	3181379584	39	4474
2026-01-01 13:20:37.23	323.25	12.83	-34.6	-35.9	18.6	0.00e+00	0	58	0	3187671040	39	4502
2026-01-01 13:20:38.24	323.36	12.75	-34.6	-35.9	18.6	0.00e+00	0	58	0	3192913920	39	4494
2026-01-01 13:20:39.25	323.48	12.67	-34.6	-35.8	18.6	0.00e+00	0	58	0	3198156800	39	4492
2026-01-01 13:20:40.26	323.60	12.60	-34.6	-35.8	18.6	0.00e+00	0	57	0	3204448256	39	4492
2026-01-01 13:20:41.27	323.71	12.52	-34.6	-35.9	18.6	0.00e+00	0	58	0	3209691136	39	4494
2026-01-01 13:20:42.28	323.83	12.44	-34.5	-35.8	18.6	0.00e+00	0	57	0	3215982592	39	4482
2026-01-01 13:20:43.29	323.95	12.36	-34.6	-35.8	18.6	0.00e+00	0	58	0	3221225472	39	4484
2026-01-01 13:20:44.30	324.06	12.28	-34.5	-35.8	18.6	0.00e+00	0	58	0	3226468352	39	4475
2026-01-01 13:20:45.31	324.17	12.20	-34.5	-35.8	18.6	0.00e+00	0	58	0	3232759808	39	4477
2026-01-01 13:20:46.32	324.29	12.13	-34.6	-35.9	18.5	0.00e+00	0	58	0	3238002688	39	4512
2026-01-01 13:20:47.34	324.40	12.05	-34.6	-35.9	18.5	0.00e+00	0	58	0	3244294144	39	4505
2026-01-01 13:20:48.35	324.51	11.97	-34.6	-35.9	18.5	0.00e+00	0	58	0	3249537024	39	4540
2026-01-01 13:20:49.36	324.62	11.89	-34.7	-36.0	18.4	0.00e+00	0	57	0	3254779904	39	4563
2026-01-01 13:20:50.37	324.74	11.82	-34.7	-36.0	18.3	0.00e+00	0	58	0	3261071360	40	4322
2026-01-01 13:20:51.38	324.85	11.74	-34.8	-36.1	18.2	0.00e+00	0	57	0	3266314240	40	4379
2026-01-01 13:20:52.39	324.96	11.66	-34.9	-36.2	18.1	0.00e+00	0	58	0	3272605696	40	4421
2026-01-01 13:20:53.40	325.07	11.59	-34.9	-36.2	18.1	0.00e+00	0	57	0	3277848576	40	4427
2026-01-01 13:20:54.41	325.17	11.51	-34.9	-36.3	18.0	0.00e+00	0	58	0	3284140032	40	4458
2026-01-01 13:20:55.42	325.28	11.43	-35.0	-36.4	18.0	0.00e+00	0	57	0	3289382912	40	4496
2026-01-01 13:20:56.43	325.39	11.36	-35.0	-36.4	18.0	0.00e+00	0	58	0	3295674368	40	4497
2026-01-01 13:20:57.44	325.50	11.28	-35.0	-36.4	17.9	0.00e+00	0	57	0	3300917248	40	4513
2026-01-01 13:20:58.45	325.60	11.21	-35.0	-36.4	17.9	0.00e+00	0	57	0	3306160128	40	4502
2026-01-01 13:20:59.46	325.71	11.13	-35.0	-36.3	18.0	0.00e+00	0	58	0	3312451584	40	4493
2026-01-01 13:21:00.47	325.82	11.06	-35.0	-36.4	18.0	0.00e+00	0	57	0	3317694464	40	4500
2026-01-01 13:21:01.48	325.92	10.98	-35.0	-36.3	18.0	0.00e+00	0	58	0	3323985920	40	4474
2026-01-01 13:21:02.49	326.03	10.90	-35.0	-36.3	18.0	0.00e+00	0	57	0	3329228800	40	4474
2026-01-01 13:21:03.50	326.13	10.83	-35.0	-36.4	17.9	0.00e+00	0	58	0	3334471680	40	4509
2026-01-01 13:21:04.51	326.23	10.75	-35.0	-36.4	17.9	0.00e+00	0	58	0	3340763136	40	4502
2026-01-01 13:21:05.52	326.34	10.68	-35.0	-36.4	17.9	0.00e+00	0	58	0	3346006016	40	4503
2026-01-01 13:21:06.54	326.44	10.60	-35.1	-36.5	17.8	0.00e+00	0	58	0	3352297472	40	4547
2026-01-01 13:21:07.55	326.54	10.53	-35.1	-36.5	17.8	0.00e+00	0	58	0	3357540352	40	4569
2026-01-01 13:21:08.56	326.64	10.46	-35.1	-36.5	17.7	0.00e+00	0	58	0	3362783232	40	4584
2026-01-01 13:21:09.57	326.74	10.38	-35.2	-36.6	17.7	0.00e+00	0	57	0	3369074688	40	4629
2026-01-01 13:21:10.58	326.84	10.31	-35.2	-36.6	17.6	0.00e+00	0	58	0	3374317568	41	4391
2026-01-01 13:21:11.59	326.95	10.23	-35.3	-36.7	17.5	0.00e+00	0	58	0	3380609024	41	4435
2026-01-01 13:21:12.60	327.04	10.16	-35.4	-36.8	17.5	0.00e+00	0	58	0	3385851904	41	4455
2026-01-01 13:21:13.61	327.14	10.09	-35.4	-36.8	17.4	0.00e+00	0	58	0	3392143360	41	4488
2026-01-01 13:21:14.62	327.24	10.01	-35.5	-36.9	17.3	0.00e+00	0	58	0	3397386240	41	4531
2026-01-01 13:21:15.63	327.34	9.94	-35.5	-36.9	17.3	0.00e+00	0	58	0	3403677696	41	4518
2026-01-01 13:21:16.64	327.44	9.87	-35.5	-36.9	17.3	0.00e+00	0	57	0	3408920576	41	4536
2026-01-01 13:21:17.66	327.54	9.79	-35.6	-37.0	17.2	0.00e+00	0	58	0	3414163456	41	4595
2026-01-01 13:21:18.67	327.63	9.72	-35.6	-37.1	17.1	0.00e+00	0	57	0	3420454912	41	4633
2026-01-01 13:21:19.68	327.73	9.65	-35.6	-37.1	17.1	0.00e+00	0	58	0	3425697792	41	4601
2026-01-01 13:21:20.68	327.82	9.58	-35.6	-37.1	17.1	0.00e+00	0	58	0	3431989248	41	4601
2026-01-01 13:21:21.70	327.92	9.50	-35.6	-37.0	17.2	0.00e+00	0	58	0	3437232128	41	4587
2026-01-01 13:21:22.71	328.02	9.43	-35.6	-37.1	17.1	0.00e+00	0	57	0	3442475008	41	4631
2026-01-01 13:21:23.72	328.11	9.36	-35.7	-37.1	17.1	0.00e+00	0	58	0	3448766464	41	4636
