passes_logs/2026/01/01/R2.0S_Moscow/R2.0S_Moscow__20260101_234823_NOAA_21_JPSS-2_rec.log

#Pass ID: 20260101_234823_NOAA 21 (JPSS-2)
#Satellite: NOAA 21 (JPSS-2)
#Configuration: NOAA-21
#almurnet v.1.7.20251203
#Start time: 2026-01-01 23:48:24

#Version: 2.2.20231116
#Station: R2.0S_Moscow
#Location: 37.707566 lon 55.798166 lat
#TLE: 1 54234U 22150A   26001.26806856  .00000185  00000+0  10843-3 0  9990
#TLE: 2 54234  98.7484 302.3349 0001277 353.3887   6.7272 14.19530660162860

#Time	Az	El	Level	Level2	SNR	BER	BlckErr	Temp	State	Recorded	gain1	gain2
2026-01-01 23:48:24.25	15.52	2.08	-42.7	-55.2	3.8	1.49e+00	0	48	0	0	57	14715
2026-01-01 23:48:25.25	15.52	2.14	-42.7	-55.2	3.8	1.49e+00	0	48	104	0	56	15581
2026-01-01 23:48:26.26	15.52	2.21	-42.7	-55.1	3.8	1.49e+00	0	48	104	0	56	15550
2026-01-01 23:48:27.27	15.52	2.27	-42.7	-55.1	3.8	1.49e+00	0	48	104	0	56	15525
2026-01-01 23:48:28.28	15.51	2.34	-42.7	-55.1	3.8	1.49e+00	0	48	104	0	56	15550
2026-01-01 23:48:29.30	15.51	2.41	-42.7	-55.1	3.8	1.49e+00	0	49	104	0	56	15518
2026-01-01 23:48:30.31	15.51	2.47	-42.7	-55.1	3.8	1.49e+00	0	49	104	0	56	15546
2026-01-01 23:48:31.32	15.51	2.54	-42.7	-55.1	3.8	1.49e+00	0	49	104	0	56	15541
2026-01-01 23:48:32.33	15.50	2.60	-42.7	-55.1	3.8	1.49e+00	0	49	104	0	56	15472
2026-01-01 23:48:33.34	15.50	2.67	-42.7	-55.1	3.8	1.49e+00	0	49	104	0	56	15522
2026-01-01 23:48:34.35	15.50	2.73	-42.7	-55.1	3.8	1.49e+00	0	49	104	0	56	15506
2026-01-01 23:48:35.36	15.50	2.80	-42.7	-55.1	3.8	1.49e+00	0	49	104	0	56	15512
2026-01-01 23:48:36.38	15.49	2.87	-42.7	-55.1	3.8	1.49e+00	0	49	104	0	56	15579
2026-01-01 23:48:37.39	15.49	2.93	-42.7	-55.1	3.8	1.49e+00	0	49	104	0	56	15510
2026-01-01 23:48:38.40	15.49	3.00	-42.7	-55.1	3.8	1.49e+00	0	49	104	0	56	15496
2026-01-01 23:48:39.41	15.49	3.07	-42.7	-55.1	3.8	1.49e+00	0	49	104	0	56	15546
2026-01-01 23:48:40.42	15.48	3.13	-42.7	-55.1	3.8	1.49e+00	0	49	104	0	56	15529
2026-01-01 23:48:41.43	15.48	3.20	-42.7	-55.1	3.8	1.49e+00	0	50	104	0	56	15493
2026-01-01 23:48:42.44	15.48	3.27	-42.7	-55.1	3.8	1.49e+00	0	49	104	0	56	15500
2026-01-01 23:48:43.45	15.47	3.34	-42.7	-55.1	3.8	1.49e+00	0	49	104	0	56	15462
2026-01-01 23:48:44.46	15.47	3.40	-42.7	-55.1	3.8	1.49e+00	0	49	104	0	56	15482
2026-01-01 23:48:45.48	15.47	3.47	-42.7	-55.1	3.8	1.49e+00	0	50	104	0	56	15515
2026-01-01 23:48:46.49	15.47	3.54	-42.7	-55.1	3.8	1.49e+00	0	50	104	0	56	15517
2026-01-01 23:48:47.50	15.46	3.61	-42.7	-55.1	3.8	1.49e+00	0	50	104	0	56	15471
2026-01-01 23:48:48.51	15.46	3.68	-42.7	-55.1	3.8	1.49e+00	0	50	104	0	56	15485
2026-01-01 23:48:49.52	15.46	3.74	-42.7	-55.1	3.8	1.49e+00	0	50	104	0	56	15426
2026-01-01 23:48:50.53	15.45	3.81	-42.7	-55.1	3.8	1.49e+00	0	50	104	0	56	15463
2026-01-01 23:48:51.54	15.45	3.88	-42.7	-55.1	3.8	1.49e+00	0	50	104	0	56	15461
2026-01-01 23:48:52.55	15.45	3.95	-42.7	-55.1	3.8	1.49e+00	0	50	104	0	56	15493
2026-01-01 23:48:53.56	15.44	4.02	-42.7	-55.1	3.8	1.49e+00	0	50	104	0	56	15440
2026-01-01 23:48:54.57	15.44	4.09	-42.7	-55.1	3.8	1.49e+00	0	50	104	0	56	15444
2026-01-01 23:48:55.59	15.44	4.16	-42.7	-55.1	3.8	1.49e+00	0	50	104	0	56	15444
2026-01-01 23:48:56.60	15.43	4.23	-42.7	-55.1	3.8	1.49e+00	0	51	104	0	56	15436
2026-01-01 23:48:57.61	15.43	4.30	-42.7	-55.1	3.8	1.49e+00	0	50	104	0	56	15407
2026-01-01 23:48:58.62	15.43	4.37	-42.7	-55.1	3.8	1.49e+00	0	50	104	0	56	15418
2026-01-01 23:48:59.63	15.42	4.44	-42.7	-55.0	3.8	1.49e+00	0	51	104	0	56	15401
2026-01-01 23:49:00.64	15.42	4.51	-42.7	-55.1	3.8	1.49e+00	0	50	104	0	56	15429
2026-01-01 23:49:01.65	15.42	4.58	-42.7	-55.0	3.8	1.49e+00	0	51	104	0	56	15360
2026-01-01 23:49:02.66	15.41	4.65	-42.7	-55.0	3.8	1.49e+00	0	51	104	0	56	15347
2026-01-01 23:49:03.67	15.41	4.72	-42.7	-55.1	3.8	1.49e+00	0	51	104	0	56	15409
2026-01-01 23:49:04.68	15.40	4.79	-42.7	-55.1	3.8	1.49e+00	0	51	104	0	56	15415
2026-01-01 23:49:05.69	15.40	4.86	-42.7	-55.0	3.8	1.49e+00	0	51	104	0	56	15392
2026-01-01 23:49:06.71	15.40	4.94	-42.7	-55.0	3.8	1.49e+00	0	51	104	0	56	15363
2026-01-01 23:49:07.72	15.39	5.01	-42.7	-55.0	3.8	1.49e+00	0	51	104	0	56	15385
2026-01-01 23:49:08.73	15.39	5.08	-42.7	-55.1	3.8	1.49e+00	0	51	104	0	56	15451
2026-01-01 23:49:09.74	15.39	5.15	-42.7	-55.1	3.8	1.49e+00	0	51	104	0	56	15420
2026-01-01 23:49:10.75	15.38	5.22	-42.7	-55.1	3.8	1.49e+00	0	51	104	0	56	15413
2026-01-01 23:49:11.76	15.38	5.30	-42.7	-55.1	3.8	1.49e+00	0	51	104	0	56	15431
2026-01-01 23:49:12.77	15.37	5.37	-42.7	-55.0	3.8	1.49e+00	0	51	104	0	56	15353
2026-01-01 23:49:13.79	15.37	5.44	-42.7	-55.0	3.8	1.49e+00	0	51	104	0	56	15341
2026-01-01 23:49:14.80	15.37	5.52	-42.7	-55.0	3.8	1.49e+00	0	51	104	0	56	15372
2026-01-01 23:49:15.81	15.36	5.59	-42.7	-55.0	3.8	1.49e+00	0	51	104	0	56	15382
2026-01-01 23:49:16.82	15.36	5.66	-42.7	-55.0	3.8	1.49e+00	0	52	104	0	56	15360
2026-01-01 23:49:17.83	15.35	5.74	-42.7	-55.0	3.8	1.49e+00	0	52	104	0	56	15263
2026-01-01 23:49:18.84	15.35	5.81	-42.7	-55.0	3.8	1.49e+00	0	52	104	0	56	15281
2026-01-01 23:49:19.85	15.34	5.88	-42.7	-54.9	3.8	1.49e+00	0	52	104	0	56	15204
2026-01-01 23:49:20.86	15.34	5.96	-42.7	-54.9	3.8	1.49e+00	0	52	104	0	56	15105
2026-01-01 23:49:21.88	15.34	6.03	-42.7	-54.7	3.8	1.49e+00	0	52	104	0	56	14877
2026-01-01 23:49:22.89	15.33	6.11	-42.7	-54.7	3.8	1.49e+00	0	52	104	0	56	14792
2026-01-01 23:49:23.90	15.33	6.18	-42.7	-54.6	3.8	1.49e+00	0	52	104	0	56	14631
2026-01-01 23:49:24.91	15.32	6.26	-42.7	-54.5	3.8	1.49e+00	0	52	104	0	56	14508
2026-01-01 23:49:25.92	15.32	6.33	-42.7	-54.4	3.8	1.49e+00	0	52	104	0	56	14247
2026-01-01 23:49:26.93	15.31	6.41	-42.6	-54.1	3.8	1.49e+00	0	52	104	0	56	13760
2026-01-01 23:49:27.94	15.31	6.49	-42.6	-53.6	3.8	1.49e+00	0	52	104	0	56	13051
2026-01-01 23:49:28.95	15.30	6.56	-42.5	-53.1	3.8	1.49e+00	0	52	104	0	56	12283
2026-01-01 23:49:29.96	15.30	6.64	-42.4	-52.3	3.9	1.47e+00	0	52	104	0	56	11254
2026-01-01 23:49:30.97	15.29	6.71	-42.3	-51.2	4.3	1.45e+00	0	52	104	0	56	9939
2026-01-01 23:49:31.98	15.29	6.79	-42.2	-50.3	4.1	1.22e+00	0	52	104	0	56	8889
2026-01-01 23:49:32.99	15.28	6.87	-41.8	-48.9	5.3	6.72e-01	0	52	0	2097152	55	8050
2026-01-01 23:49:34.01	15.28	6.95	-41.4	-47.5	6.3	3.68e-01	0	52	0	5242880	54	7241
2026-01-01 23:49:35.02	15.27	7.02	-40.9	-46.0	7.6	1.40e-01	0	53	0	8388608	53	6479
2026-01-01 23:49:36.03	15.27	7.10	-40.4	-44.7	9.0	3.47e-02	0	52	0	11534336	52	5868
2026-01-01 23:49:37.04	15.26	7.18	-39.8	-43.3	10.5	5.95e-03	0	52	0	14680064	51	5285
2026-01-01 23:49:38.05	15.26	7.26	-38.9	-41.7	12.2	4.83e-04	0	52	0	17825792	49	4942
2026-01-01 23:49:39.06	15.25	7.34	-38.1	-40.6	13.3	2.51e-05	0	52	0	20971520	48	4601
2026-01-01 23:49:40.07	15.25	7.41	-37.2	-39.4	14.5	7.00e-07	0	53	0	24117248	46	4496
2026-01-01 23:49:41.08	15.24	7.49	-36.8	-38.8	15.0	7.00e-07	0	53	0	27262976	45	4486
2026-01-01 23:49:42.10	15.24	7.57	-36.6	-38.5	15.3	0.00e+00	0	53	0	30408704	45	4323
2026-01-01 23:49:43.10	15.23	7.65	-36.9	-38.9	15.0	0.00e+00	0	53	0	33554432	45	4509
2026-01-01 23:49:44.12	15.23	7.73	-37.5	-39.7	14.1	7.00e-07	0	53	0	36700160	45	4975
2026-01-01 23:49:45.13	15.22	7.81	-38.3	-40.9	12.9	2.82e-05	0	53	0	39845888	47	5056
2026-01-01 23:49:46.14	15.22	7.89	-38.5	-41.2	12.6	1.07e-04	0	53	0	42991616	47	5232
2026-01-01 23:49:47.15	15.21	7.97	-38.2	-40.8	13.0	4.57e-05	0	53	0	46137344	47	5008
2026-01-01 23:49:48.16	15.20	8.05	-38.2	-40.7	13.1	2.67e-05	0	53	0	49283072	47	4977
2026-01-01 23:49:49.17	15.20	8.13	-38.5	-40.9	13.6	1.06e-05	0	53	0	52428800	47	5055
2026-01-01 23:49:50.18	15.19	8.21	-38.4	-40.5	14.3	4.50e-06	0	53	0	55574528	48	4581
2026-01-01 23:49:51.19	15.19	8.30	-41.1	-51.1	4.0	1.49e+00	0	53	104	57671680	53	11574
2026-01-01 23:49:52.20	15.18	8.38	-39.5	-42.3	12.2	8.79e-04	0	53	0	59768832	51	4716
2026-01-01 23:49:53.21	15.18	8.46	-39.7	-42.5	12.1	4.20e-04	0	53	0	62914560	50	5149
2026-01-01 23:49:54.22	15.17	8.54	-38.1	-40.2	14.5	1.50e-06	0	53	0	66060288	48	4398
2026-01-01 23:49:55.22	15.16	8.62	-38.1	-40.1	14.6	1.50e-06	0	53	0	69206016	48	4369
2026-01-01 23:49:56.23	15.16	8.71	-38.1	-40.2	14.5	7.00e-07	0	53	0	72351744	48	4411
2026-01-01 23:49:57.25	15.15	8.79	-38.2	-40.2	14.5	0.00e+00	0	53	0	75497472	48	4435
2026-01-01 23:49:58.26	15.14	8.87	-37.8	-39.8	14.9	0.00e+00	0	53	0	78643200	47	4465
2026-01-01 23:49:59.27	15.14	8.96	-37.8	-39.7	15.0	7.00e-07	0	53	0	81788928	47	4424
2026-01-01 23:50:00.28	15.13	9.04	-37.6	-39.5	15.2	0.00e+00	0	53	0	84934656	47	4328
2026-01-01 23:50:01.29	15.13	9.12	-37.6	-39.5	15.2	0.00e+00	0	53	0	88080384	47	4312
2026-01-01 23:50:02.30	15.12	9.21	-37.6	-39.5	15.3	0.00e+00	0	53	0	91226112	47	4306
2026-01-01 23:50:03.31	15.11	9.29	-37.5	-39.4	15.4	0.00e+00	0	53	0	94371840	47	4245
2026-01-01 23:50:04.32	15.11	9.38	-37.6	-39.4	15.3	0.00e+00	0	53	0	97517568	47	4283
2026-01-01 23:50:05.33	15.10	9.46	-37.6	-39.4	15.3	0.00e+00	0	53	0	100663296	47	4286
2026-01-01 23:50:06.34	15.09	9.55	-37.6	-39.4	15.4	0.00e+00	0	53	0	103809024	47	4279
2026-01-01 23:50:07.35	15.09	9.64	-37.6	-39.4	15.4	0.00e+00	0	53	0	106954752	47	4271
2026-01-01 23:50:08.36	15.08	9.72	-37.5	-39.3	15.5	0.00e+00	0	53	0	110100480	47	4220
2026-01-01 23:50:09.37	15.07	9.81	-37.4	-39.2	15.7	0.00e+00	0	53	0	113246208	46	4393
2026-01-01 23:50:10.38	15.06	9.89	-37.4	-39.2	15.7	0.00e+00	0	54	0	116391936	46	4406
2026-01-01 23:50:11.39	15.06	9.98	-37.2	-38.9	15.9	0.00e+00	0	53	0	119537664	46	4283
2026-01-01 23:50:12.41	15.05	10.07	-37.2	-38.9	15.9	0.00e+00	0	54	0	122683392	46	4268
2026-01-01 23:50:13.41	15.04	10.16	-37.2	-38.9	15.9	0.00e+00	0	54	0	125829120	46	4269
2026-01-01 23:50:14.43	15.04	10.25	-37.1	-38.9	16.0	0.00e+00	0	54	0	128974848	46	4245
2026-01-01 23:50:15.44	15.03	10.33	-37.1	-38.8	16.0	0.00e+00	0	54	0	132120576	46	4238
2026-01-01 23:50:16.45	15.02	10.42	-37.1	-38.8	16.0	0.00e+00	0	54	0	135266304	46	4242
2026-01-01 23:50:17.46	15.01	10.51	-37.1	-38.8	16.1	0.00e+00	0	54	0	138412032	46	4213
2026-01-01 23:50:18.47	15.01	10.60	-37.0	-38.7	16.1	0.00e+00	0	54	0	141557760	46	4177
2026-01-01 23:50:19.48	15.00	10.69	-37.0	-38.7	16.2	0.00e+00	0	54	0	144703488	45	4395
2026-01-01 23:50:20.49	14.99	10.78	-37.0	-38.7	16.1	0.00e+00	0	54	0	147849216	45	4428
2026-01-01 23:50:21.50	14.98	10.87	-37.0	-38.6	16.2	0.00e+00	0	54	0	150994944	45	4388
2026-01-01 23:50:22.51	14.98	10.96	-36.9	-38.6	16.3	0.00e+00	0	54	0	154140672	45	4343
2026-01-01 23:50:23.52	14.97	11.05	-37.0	-38.6	16.2	0.00e+00	0	54	0	157286400	45	4389
2026-01-01 23:50:24.53	14.96	11.14	-37.0	-38.7	16.2	0.00e+00	0	54	0	160432128	45	4403
2026-01-01 23:50:25.54	14.95	11.24	-37.0	-38.7	16.2	0.00e+00	0	54	0	163577856	45	4415
2026-01-01 23:50:26.55	14.94	11.33	-37.0	-38.7	16.3	0.00e+00	0	54	0	166723584	45	4395
2026-01-01 23:50:27.56	14.93	11.42	-37.0	-38.7	16.3	0.00e+00	0	54	0	169869312	45	4412
2026-01-01 23:50:28.57	14.93	11.51	-37.0	-38.7	16.3	0.00e+00	0	54	0	173015040	45	4430
2026-01-01 23:50:29.58	14.92	11.60	-37.1	-38.8	16.2	0.00e+00	0	54	0	176160768	45	4467
2026-01-01 23:50:30.59	14.91	11.70	-36.9	-38.5	16.4	0.00e+00	0	54	0	179306496	45	4323
2026-01-01 23:50:31.59	14.90	11.79	-36.9	-38.6	16.4	0.00e+00	0	54	0	182452224	45	4350
2026-01-01 23:50:32.60	14.89	11.89	-36.8	-38.4	16.6	0.00e+00	0	54	0	185597952	45	4280
2026-01-01 23:50:33.61	14.88	11.98	-36.8	-38.4	16.6	0.00e+00	0	54	0	188743680	45	4267
2026-01-01 23:50:34.63	14.87	12.08	-36.8	-38.4	16.6	0.00e+00	0	54	0	191889408	45	4257
2026-01-01 23:50:35.64	14.87	12.17	-36.8	-38.5	16.5	0.00e+00	0	54	0	195035136	45	4295
2026-01-01 23:50:36.65	14.86	12.27	-36.7	-38.3	16.7	0.00e+00	0	54	0	198180864	45	4225
2026-01-01 23:50:37.66	14.85	12.36	-36.6	-38.2	16.8	0.00e+00	0	54	0	201326592	45	4177
2026-01-01 23:50:38.67	14.84	12.46	-36.6	-38.1	16.9	0.00e+00	0	54	0	204472320	45	4134
2026-01-01 23:50:39.68	14.83	12.55	-36.5	-38.1	16.9	0.00e+00	0	54	0	207618048	45	4111
2026-01-01 23:50:40.69	14.82	12.65	-36.5	-38.1	16.9	0.00e+00	0	54	0	210763776	45	4123
2026-01-01 23:50:41.70	14.81	12.75	-36.5	-38.1	16.9	0.00e+00	0	54	0	213909504	45	4125
2026-01-01 23:50:42.71	14.80	12.85	-36.5	-38.0	17.0	0.00e+00	0	54	0	217055232	44	4331
2026-01-01 23:50:43.71	14.79	12.94	-36.5	-38.0	17.0	0.00e+00	0	54	0	220200960	44	4318
2026-01-01 23:50:44.73	14.78	13.04	-36.4	-37.9	17.0	0.00e+00	0	54	0	223346688	44	4291
2026-01-01 23:50:45.74	14.77	13.14	-36.4	-37.9	17.1	0.00e+00	0	54	0	226492416	44	4279
2026-01-01 23:50:46.75	14.76	13.24	-36.4	-37.9	17.1	0.00e+00	0	55	0	229638144	44	4288
2026-01-01 23:50:47.76	14.75	13.34	-36.4	-37.9	17.2	0.00e+00	0	55	0	232783872	44	4253
2026-01-01 23:50:48.77	14.74	13.44	-36.3	-37.8	17.3	0.00e+00	0	54	0	235929600	44	4239
2026-01-01 23:50:49.78	14.73	13.54	-36.3	-37.8	17.3	0.00e+00	0	55	0	239075328	44	4226
2026-01-01 23:50:50.79	14.72	13.64	-36.2	-37.7	17.4	0.00e+00	0	54	0	242221056	44	4176
2026-01-01 23:50:51.80	14.71	13.75	-36.3	-37.8	17.3	0.00e+00	0	55	0	245366784	44	4210
2026-01-01 23:50:52.81	14.70	13.85	-36.3	-37.7	17.4	0.00e+00	0	55	0	248512512	44	4181
2026-01-01 23:50:53.82	14.69	13.95	-36.2	-37.7	17.4	0.00e+00	0	55	0	251658240	44	4172
2026-01-01 23:50:54.83	14.68	14.05	-36.3	-37.7	17.4	0.00e+00	0	55	0	254803968	44	4184
2026-01-01 23:50:55.83	14.67	14.15	-36.3	-37.7	17.4	0.00e+00	0	55	0	257949696	44	4179
2026-01-01 23:50:56.84	14.66	14.26	-36.3	-37.8	17.4	0.00e+00	0	55	0	261095424	44	4199
2026-01-01 23:50:57.85	14.65	14.36	-36.3	-37.7	17.5	0.00e+00	0	55	0	265289728	44	4180
2026-01-01 23:50:58.86	14.64	14.47	-36.2	-37.7	17.5	0.00e+00	0	55	0	267386880	44	4151
2026-01-01 23:50:59.87	14.62	14.57	-36.3	-37.7	17.5	0.00e+00	0	55	0	270532608	44	4179
2026-01-01 23:51:00.88	14.61	14.68	-36.2	-37.6	17.6	0.00e+00	0	55	0	273678336	44	4125
2026-01-01 23:51:01.89	14.60	14.78	-36.2	-37.7	17.5	0.00e+00	0	55	0	276824064	44	4160
2026-01-01 23:51:02.90	14.59	14.89	-36.2	-37.7	17.5	0.00e+00	0	55	0	281018368	44	4160
2026-01-01 23:51:03.91	14.58	15.00	-36.3	-37.7	17.5	0.00e+00	0	55	0	284164096	44	4169
2026-01-01 23:51:04.92	14.57	15.10	-36.2	-37.7	17.5	0.00e+00	0	55	0	287309824	44	4164
2026-01-01 23:51:05.93	14.56	15.21	-36.3	-37.7	17.5	0.00e+00	0	55	0	290455552	44	4184
2026-01-01 23:51:06.94	14.54	15.32	-36.2	-37.6	17.5	0.00e+00	0	55	0	292552704	44	4130
2026-01-01 23:51:07.95	14.53	15.43	-36.3	-37.7	17.5	0.00e+00	0	55	0	296747008	44	4176
2026-01-01 23:51:08.96	14.52	15.54	-36.2	-37.6	17.6	0.00e+00	0	55	0	299892736	44	4130
2026-01-01 23:51:09.97	14.51	15.65	-36.2	-37.7	17.5	0.00e+00	0	55	0	303038464	44	4165
2026-01-01 23:51:10.98	14.49	15.76	-36.2	-37.7	17.5	0.00e+00	0	55	0	306184192	44	4157
2026-01-01 23:51:11.99	14.48	15.87	-36.2	-37.7	17.5	0.00e+00	0	55	0	309329920	44	4153
2026-01-01 23:51:13.00	14.47	15.98	-36.1	-37.6	17.6	0.00e+00	0	55	0	312475648	44	4102
2026-01-01 23:51:14.01	14.46	16.09	-36.2	-37.6	17.6	0.00e+00	0	55	0	315621376	44	4135
2026-01-01 23:51:15.02	14.44	16.20	-36.2	-37.6	17.6	0.00e+00	0	55	0	318767104	44	4133
2026-01-01 23:51:16.03	14.43	16.32	-36.3	-37.7	17.6	0.00e+00	0	55	0	321912832	44	4168
2026-01-01 23:51:17.04	14.42	16.43	-36.2	-37.7	17.6	0.00e+00	0	55	0	325058560	44	4151
2026-01-01 23:51:18.05	14.40	16.54	-36.2	-37.7	17.6	0.00e+00	0	55	0	328204288	44	4151
2026-01-01 23:51:19.06	14.39	16.66	-36.2	-37.7	17.6	0.00e+00	0	55	0	331350016	44	4149
2026-01-01 23:51:20.07	14.38	16.77	-36.2	-37.6	17.7	0.00e+00	0	55	0	334495744	44	4139
2026-01-01 23:51:21.08	14.36	16.89	-36.2	-37.7	17.6	0.00e+00	0	55	0	337641472	44	4153
2026-01-01 23:51:22.09	14.35	17.00	-36.2	-37.7	17.7	0.00e+00	0	55	0	340787200	44	4147
2026-01-01 23:51:23.10	14.34	17.12	-36.3	-37.7	17.6	0.00e+00	0	55	0	343932928	44	4169
2026-01-01 23:51:24.11	14.32	17.24	-36.3	-37.7	17.6	0.00e+00	0	55	0	347078656	44	4183
2026-01-01 23:51:25.11	14.31	17.35	-36.2	-37.7	17.6	0.00e+00	0	55	0	350224384	44	4155
2026-01-01 23:51:26.12	14.29	17.47	-36.3	-37.7	17.6	0.00e+00	0	55	0	353370112	44	4159
2026-01-01 23:51:27.13	14.28	17.59	-36.2	-37.7	17.7	0.00e+00	0	55	0	356515840	44	4148
2026-01-01 23:51:28.15	14.26	17.71	-36.2	-37.6	17.7	0.00e+00	0	55	0	359661568	44	4141
2026-01-01 23:51:29.15	14.25	17.83	-36.2	-37.7	17.7	0.00e+00	0	55	0	362807296	44	4155
2026-01-01 23:51:30.16	14.23	17.95	-36.3	-37.7	17.6	0.00e+00	0	55	0	365953024	44	4177
2026-01-01 23:51:31.17	14.22	18.07	-36.3	-37.8	17.6	0.00e+00	0	55	0	369098752	44	4210
2026-01-01 23:51:32.18	14.20	18.19	-36.3	-37.8	17.6	0.00e+00	0	55	0	372244480	44	4202
2026-01-01 23:51:33.19	14.19	18.32	-36.3	-37.8	17.6	0.00e+00	0	55	0	375390208	44	4194
2026-01-01 23:51:34.20	14.17	18.44	-36.3	-37.7	17.6	0.00e+00	0	55	0	378535936	44	4173
2026-01-01 23:51:35.21	14.16	18.56	-36.3	-37.7	17.6	0.00e+00	0	55	0	381681664	44	4174
2026-01-01 23:51:36.22	14.14	18.69	-36.3	-37.7	17.6	0.00e+00	0	55	0	384827392	44	4181
2026-01-01 23:51:37.23	14.12	18.81	-36.3	-37.7	17.7	0.00e+00	0	55	0	387973120	44	4154
2026-01-01 23:51:38.24	14.11	18.94	-36.2	-37.6	17.7	0.00e+00	0	56	0	391118848	44	4135
2026-01-01 23:51:39.25	14.09	19.06	-36.3	-37.7	17.7	0.00e+00	0	55	0	394264576	44	4169
2026-01-01 23:51:40.26	14.07	19.19	-36.2	-37.7	17.7	0.00e+00	0	56	0	397410304	44	4146
2026-01-01 23:51:41.27	14.06	19.32	-36.2	-37.6	17.8	0.00e+00	0	55	0	400556032	44	4115
2026-01-01 23:51:42.28	14.04	19.44	-36.1	-37.5	17.8	0.00e+00	0	56	0	403701760	44	4082
2026-01-01 23:51:43.29	14.02	19.57	-36.1	-37.5	17.8	0.00e+00	0	55	0	406847488	44	4084
2026-01-01 23:51:44.30	14.01	19.70	-36.1	-37.4	17.9	0.00e+00	0	56	0	409993216	44	4051
2026-01-01 23:51:45.31	13.99	19.83	-36.0	-37.4	17.9	0.00e+00	0	56	0	413138944	44	4034
2026-01-01 23:51:46.32	13.97	19.96	-35.8	-37.2	18.0	0.00e+00	0	55	0	416284672	43	4150
2026-01-01 23:51:47.33	13.95	20.09	-35.8	-37.1	18.0	0.00e+00	0	56	0	419430400	43	4140
2026-01-01 23:51:48.34	13.94	20.23	-35.8	-37.1	18.1	0.00e+00	0	55	0	422576128	43	4132
2026-01-01 23:51:49.35	13.92	20.36	-35.7	-37.0	18.2	0.00e+00	0	55	0	425721856	43	4076
2026-01-01 23:51:50.36	13.90	20.49	-35.6	-36.9	18.2	0.00e+00	0	56	0	428867584	43	4044
2026-01-01 23:51:51.36	13.88	20.63	-35.6	-36.9	18.3	0.00e+00	0	55	0	432013312	43	4016
2026-01-01 23:51:52.37	13.86	20.76	-35.5	-36.8	18.4	0.00e+00	0	55	0	435159040	43	3984
2026-01-01 23:51:53.38	13.84	20.90	-35.4	-36.7	18.4	0.00e+00	0	56	0	438304768	42	4187
2026-01-01 23:51:54.39	13.82	21.03	-35.3	-36.6	18.5	0.00e+00	0	56	0	441450496	42	4136
2026-01-01 23:51:55.40	13.80	21.17	-35.4	-36.7	18.5	0.00e+00	0	55	0	444596224	42	4161
2026-01-01 23:51:56.41	13.78	21.31	-35.3	-36.6	18.6	0.00e+00	0	56	0	447741952	42	4117
2026-01-01 23:51:57.42	13.76	21.45	-35.2	-36.5	18.6	0.00e+00	0	55	0	450887680	42	4079
2026-01-01 23:51:58.43	13.74	21.58	-35.2	-36.4	18.8	0.00e+00	0	56	0	454033408	42	4042
2026-01-01 23:51:59.44	13.72	21.72	-35.1	-36.4	18.8	0.00e+00	0	55	0	457179136	42	4025
2026-01-01 23:52:00.45	13.70	21.87	-35.1	-36.3	18.9	0.00e+00	0	56	0	460324864	42	3986
2026-01-01 23:52:01.46	13.68	22.01	-35.0	-36.2	18.9	0.00e+00	0	56	0	463470592	42	3955
2026-01-01 23:52:02.47	13.66	22.15	-34.9	-36.2	19.0	0.00e+00	0	56	0	466616320	41	4146
2026-01-01 23:52:03.48	13.64	22.29	-34.9	-36.1	19.0	0.00e+00	0	56	0	469762048	41	4143
2026-01-01 23:52:04.49	13.62	22.44	-34.8	-36.1	19.1	0.00e+00	0	56	0	472907776	41	4099
2026-01-01 23:52:05.50	13.60	22.58	-34.8	-36.0	19.2	0.00e+00	0	56	0	476053504	41	4064
2026-01-01 23:52:06.51	13.57	22.73	-34.7	-35.9	19.3	0.00e+00	0	56	0	479199232	41	4032
2026-01-01 23:52:07.52	13.55	22.87	-34.7	-35.9	19.3	0.00e+00	0	56	0	482344960	41	4016
2026-01-01 23:52:08.53	13.53	23.02	-34.6	-35.8	19.3	0.00e+00	0	56	0	485490688	41	3998
2026-01-01 23:52:09.54	13.51	23.17	-34.6	-35.8	19.4	0.00e+00	0	56	0	488636416	41	3974
2026-01-01 23:52:10.55	13.48	23.32	-34.5	-35.7	19.4	0.00e+00	0	56	0	491782144	41	3951
2026-01-01 23:52:11.56	13.46	23.47	-34.6	-35.8	19.3	0.00e+00	0	56	0	494927872	41	3977
2026-01-01 23:52:12.57	13.44	23.62	-34.5	-35.7	19.4	0.00e+00	0	56	0	498073600	41	3950
2026-01-01 23:52:13.58	13.41	23.77	-34.5	-35.7	19.4	0.00e+00	0	56	0	501219328	41	3943
2026-01-01 23:52:14.59	13.39	23.92	-34.5	-35.7	19.5	0.00e+00	0	56	0	504365056	41	3927
2026-01-01 23:52:15.60	13.37	24.08	-34.5	-35.7	19.4	0.00e+00	0	56	0	507510784	41	3943
2026-01-01 23:52:16.61	13.34	24.23	-34.6	-35.8	19.4	0.00e+00	0	56	0	510656512	41	3970
2026-01-01 23:52:17.62	13.32	24.39	-34.7	-35.9	19.3	0.00e+00	0	56	0	513802240	41	4015
2026-01-01 23:52:18.63	13.29	24.54	-34.7	-35.9	19.3	0.00e+00	0	56	0	516947968	41	4029
2026-01-01 23:52:19.64	13.27	24.70	-34.8	-36.0	19.2	0.00e+00	0	56	0	520093696	41	4077
2026-01-01 23:52:20.64	13.24	24.86	-34.8	-36.0	19.1	0.00e+00	0	56	0	523239424	41	4097
2026-01-01 23:52:21.65	13.22	25.02	-34.9	-36.1	19.1	0.00e+00	0	56	0	526385152	41	4132
2026-01-01 23:52:22.66	13.19	25.18	-35.0	-36.3	19.0	0.00e+00	0	56	0	529530880	41	4197
2026-01-01 23:52:23.67	13.16	25.34	-35.1	-36.3	18.9	0.00e+00	0	56	0	532676608	41	4232
2026-01-01 23:52:24.68	13.14	25.50	-35.1	-36.4	18.9	0.00e+00	0	56	0	535822336	41	4266
2026-01-01 23:52:25.69	13.11	25.66	-35.3	-36.6	18.7	0.00e+00	0	56	0	538968064	41	4353
2026-01-01 23:52:26.70	13.08	25.83	-35.3	-36.6	18.7	0.00e+00	0	56	0	542113792	41	4372
2026-01-01 23:52:27.71	13.05	25.99	-35.5	-36.8	18.5	0.00e+00	0	56	0	545259520	41	4465
2026-01-01 23:52:28.72	13.02	26.16	-35.5	-36.8	18.5	0.00e+00	0	56	0	548405248	41	4474
2026-01-01 23:52:29.74	13.00	26.32	-35.5	-36.9	18.5	0.00e+00	0	56	0	551550976	41	4501
2026-01-01 23:52:30.75	12.97	26.49	-35.6	-37.0	18.4	0.00e+00	0	56	0	554696704	41	4551
2026-01-01 23:52:31.75	12.94	26.66	-35.7	-37.0	18.3	0.00e+00	0	56	0	557842432	41	4588
2026-01-01 23:52:32.76	12.91	26.83	-35.7	-37.1	18.3	0.00e+00	0	56	0	560988160	42	4343
2026-01-01 23:52:33.77	12.88	27.00	-35.8	-37.2	18.2	0.00e+00	0	56	0	564133888	42	4414
2026-01-01 23:52:34.78	12.85	27.17	-35.8	-37.2	18.1	0.00e+00	0	56	0	567279616	42	4409
2026-01-01 23:52:35.79	12.82	27.35	-35.9	-37.3	18.1	0.00e+00	0	56	0	570425344	42	4471
2026-01-01 23:52:36.80	12.79	27.52	-36.0	-37.3	18.0	0.00e+00	0	56	0	573571072	42	4481
2026-01-01 23:52:37.81	12.76	27.70	-36.0	-37.3	18.1	0.00e+00	0	56	0	576716800	42	4481
2026-01-01 23:52:38.82	12.72	27.87	-35.9	-37.3	18.1	0.00e+00	0	56	0	579862528	42	4457
2026-01-01 23:52:39.83	12.69	28.05	-36.0	-37.3	18.1	0.00e+00	0	56	0	583008256	42	4485
2026-01-01 23:52:40.84	12.66	28.23	-36.0	-37.3	18.1	0.00e+00	0	56	0	586153984	42	4475
2026-01-01 23:52:41.85	12.63	28.41	-36.0	-37.4	18.0	0.00e+00	0	56	0	589299712	42	4498
2026-01-01 23:52:42.86	12.59	28.59	-36.0	-37.4	18.0	0.00e+00	0	56	0	592445440	42	4514
2026-01-01 23:52:43.87	12.56	28.77	-35.9	-37.3	18.1	0.00e+00	0	56	0	595591168	42	4469
2026-01-01 23:52:44.88	12.52	28.96	-36.0	-37.3	18.1	0.00e+00	0	56	0	598736896	42	4487
2026-01-01 23:52:45.89	12.49	29.14	-35.9	-37.2	18.2	0.00e+00	0	56	0	601882624	42	4426
2026-01-01 23:52:46.90	12.45	29.33	-35.8	-37.2	18.2	0.00e+00	0	56	0	605028352	42	4400
2026-01-01 23:52:47.91	12.42	29.51	-35.8	-37.2	18.2	0.00e+00	0	56	0	608174080	42	4408
2026-01-01 23:52:48.92	12.38	29.70	-35.9	-37.2	18.2	0.00e+00	0	56	0	611319808	42	4407
2026-01-01 23:52:49.93	12.35	29.89	-35.9	-37.3	18.1	0.00e+00	0	56	0	614465536	42	4453
2026-01-01 23:52:50.94	12.31	30.08	-35.9	-37.3	18.1	0.00e+00	0	56	0	617611264	42	4453
2026-01-01 23:52:51.95	12.27	30.28	-35.9	-37.2	18.2	0.00e+00	0	56	0	621805568	42	4419
2026-01-01 23:52:52.96	12.23	30.47	-35.8	-37.2	18.2	0.00e+00	0	56	0	624951296	42	4395
2026-01-01 23:52:53.97	12.20	30.66	-35.8	-37.1	18.3	0.00e+00	0	56	0	628097024	42	4366
2026-01-01 23:52:54.98	12.16	30.86	-35.7	-37.1	18.3	0.00e+00	0	56	0	631242752	42	4349
2026-01-01 23:52:55.99	12.12	31.06	-35.7	-37.1	18.3	0.00e+00	0	56	0	633339904	42	4342
2026-01-01 23:52:57.00	12.08	31.26	-35.8	-37.1	18.3	0.00e+00	0	56	0	636485632	42	4376
2026-01-01 23:52:58.01	12.04	31.46	-35.8	-37.2	18.2	0.00e+00	0	56	0	640679936	42	4397
2026-01-01 23:52:59.02	11.99	31.66	-35.9	-37.3	18.1	0.00e+00	0	56	0	643825664	42	4461
2026-01-01 23:53:00.03	11.95	31.86	-35.9	-37.2	18.2	0.00e+00	0	56	0	646971392	42	4432
2026-01-01 23:53:01.04	11.91	32.07	-36.0	-37.4	18.1	0.00e+00	0	56	0	650117120	42	4517
2026-01-01 23:53:02.05	11.87	32.27	-36.0	-37.4	18.0	0.00e+00	0	56	0	653262848	42	4535
2026-01-01 23:53:03.06	11.82	32.48	-36.0	-37.4	18.0	0.00e+00	0	56	0	656408576	42	4543
2026-01-01 23:53:04.07	11.78	32.69	-36.2	-37.6	17.9	0.00e+00	0	56	0	659554304	42	4612
2026-01-01 23:53:05.08	11.74	32.90	-36.3	-37.7	17.8	0.00e+00	0	56	0	662700032	43	4416
2026-01-01 23:53:06.09	11.69	33.11	-36.5	-37.9	17.5	0.00e+00	0	56	0	665845760	43	4545
2026-01-01 23:53:07.10	11.64	33.32	-36.6	-38.1	17.4	0.00e+00	0	56	0	668991488	43	4628
2026-01-01 23:53:08.11	11.60	33.53	-36.6	-38.1	17.4	0.00e+00	0	56	0	672137216	43	4617
2026-01-01 23:53:09.12	11.55	33.75	-36.9	-38.4	17.2	0.00e+00	0	56	0	675282944	44	4537
2026-01-01 23:53:10.13	11.50	33.97	-37.0	-38.5	17.2	0.00e+00	0	56	0	678428672	44	4552
2026-01-01 23:53:11.14	11.45	34.19	-37.0	-38.5	17.2	0.00e+00	0	56	0	681574400	44	4571
2026-01-01 23:53:12.15	11.40	34.41	-37.0	-38.5	17.2	0.00e+00	0	56	0	684720128	44	4568
2026-01-01 23:53:13.16	11.35	34.63	-37.1	-38.7	17.0	0.00e+00	0	56	0	687865856	44	4657
2026-01-01 23:53:14.17	11.30	34.85	-37.3	-38.9	16.8	0.00e+00	0	56	0	691011584	45	4509
2026-01-01 23:53:15.18	11.25	35.08	-37.5	-39.2	16.5	0.00e+00	0	56	0	694157312	45	4652
2026-01-01 23:53:16.19	11.20	35.30	-37.5	-39.1	16.5	0.00e+00	0	56	0	697303040	45	4615
2026-01-01 23:53:17.20	11.15	35.53	-37.7	-39.4	16.2	0.00e+00	0	56	0	700448768	46	4523
2026-01-01 23:53:18.21	11.09	35.76	-37.8	-39.5	16.2	0.00e+00	0	56	0	703594496	46	4559
2026-01-01 23:53:19.22	11.04	35.99	-37.9	-39.6	16.1	0.00e+00	0	56	0	706740224	46	4629
2026-01-01 23:53:20.23	10.98	36.23	-38.0	-39.8	15.9	0.00e+00	0	56	0	709885952	46	4708
2026-01-01 23:53:21.24	10.92	36.46	-38.1	-39.9	15.9	0.00e+00	0	56	0	713031680	46	4776
2026-01-01 23:53:22.25	10.87	36.70	-38.0	-39.8	16.0	0.00e+00	0	56	0	716177408	46	4713
2026-01-01 23:53:23.26	10.81	36.94	-38.2	-40.0	15.8	0.00e+00	0	56	0	719323136	46	4844
2026-01-01 23:53:24.26	10.75	37.17	-38.0	-39.7	16.0	0.00e+00	0	56	0	722468864	46	4699
2026-01-01 23:53:25.27	10.69	37.41	-38.1	-39.9	15.9	0.00e+00	0	56	0	725614592	46	4765
2026-01-01 23:53:26.28	10.63	37.66	-38.0	-39.8	16.0	0.00e+00	0	56	0	728760320	46	4706
2026-01-01 23:53:27.30	10.57	37.91	-37.9	-39.6	16.2	0.00e+00	0	56	0	731906048	46	4624
2026-01-01 23:53:28.30	10.50	38.15	-37.9	-39.6	16.1	0.00e+00	0	56	0	735051776	46	4629
2026-01-01 23:53:29.31	10.44	38.40	-37.9	-39.5	16.2	0.00e+00	0	56	0	738197504	46	4595
2026-01-01 23:53:30.32	10.37	38.65	-37.8	-39.5	16.3	0.00e+00	0	56	0	741343232	46	4565
2026-01-01 23:53:31.34	10.31	38.90	-37.9	-39.6	16.1	0.00e+00	0	56	0	744488960	46	4648
2026-01-01 23:53:32.34	10.24	39.16	-37.8	-39.4	16.4	0.00e+00	0	56	0	747634688	46	4519
2026-01-01 23:53:33.35	10.17	39.41	-37.8	-39.5	16.2	0.00e+00	0	57	0	750780416	46	4567
2026-01-01 23:53:34.37	10.10	39.67	-37.9	-39.5	16.2	0.00e+00	0	56	0	753926144	46	4586
2026-01-01 23:53:35.38	10.03	39.93	-37.9	-39.6	16.1	0.00e+00	0	56	0	757071872	46	4604
2026-01-01 23:53:36.39	9.96	40.19	-38.1	-39.8	15.9	0.00e+00	0	56	0	760217600	46	4728
2026-01-01 23:53:37.40	9.89	40.46	-38.1	-39.9	15.9	0.00e+00	0	56	0	763363328	46	4778
2026-01-01 23:53:38.41	9.81	40.72	-38.1	-39.8	15.9	0.00e+00	0	56	0	766509056	46	4741
2026-01-01 23:53:39.42	9.74	40.99	-38.2	-39.9	15.8	0.00e+00	0	56	0	769654784	47	4544
2026-01-01 23:53:40.42	9.66	41.26	-38.0	-39.7	16.0	0.00e+00	0	56	0	772800512	47	4425
2026-01-01 23:53:41.43	9.58	41.53	-38.1	-39.9	15.8	0.00e+00	0	56	0	775946240	47	4524
2026-01-01 23:53:42.44	9.50	41.80	-38.0	-39.7	16.0	0.00e+00	0	56	0	779091968	47	4436
2026-01-01 23:53:43.45	9.42	42.07	-38.1	-39.9	15.9	0.00e+00	0	56	0	782237696	47	4510
2026-01-01 23:53:44.46	9.34	42.35	-38.2	-39.9	15.8	0.00e+00	0	56	0	785383424	47	4512
2026-01-01 23:53:45.47	9.25	42.63	-38.2	-39.9	15.8	0.00e+00	0	56	0	788529152	47	4542
2026-01-01 23:53:46.48	9.17	42.91	-38.1	-39.8	15.9	0.00e+00	0	57	0	791674880	47	4482
2026-01-01 23:53:47.49	9.08	43.20	-38.2	-39.9	15.7	0.00e+00	0	57	0	794820608	47	4533
2026-01-01 23:53:48.50	8.99	43.48	-38.1	-39.8	15.8	0.00e+00	0	56	0	797966336	47	4466
2026-01-01 23:53:49.51	8.90	43.77	-38.3	-40.1	15.5	0.00e+00	0	56	0	801112064	47	4600
2026-01-01 23:53:50.52	8.81	44.06	-38.4	-40.2	15.4	0.00e+00	0	56	0	804257792	47	4681
2026-01-01 23:53:51.53	8.71	44.35	-38.5	-40.4	15.2	0.00e+00	0	56	0	807403520	47	4777
2026-01-01 23:53:52.54	8.62	44.64	-38.7	-40.6	15.1	0.00e+00	0	57	0	810549248	47	4924
2026-01-01 23:53:53.55	8.52	44.94	-38.9	-40.9	15.0	0.00e+00	0	57	0	813694976	48	4776
2026-01-01 23:53:54.55	8.42	45.23	-39.0	-40.9	15.0	0.00e+00	0	57	0	816840704	48	4785
2026-01-01 23:53:55.56	8.32	45.53	-39.1	-41.1	14.8	0.00e+00	0	56	0	819986432	48	4888
2026-01-01 23:53:56.57	8.22	45.84	-39.0	-40.9	14.9	0.00e+00	0	56	0	823132160	48	4806
2026-01-01 23:53:57.59	8.11	46.14	-39.0	-40.9	15.0	7.00e-07	0	57	0	826277888	48	4785
2026-01-01 23:53:58.59	8.00	46.45	-39.0	-41.0	14.9	0.00e+00	0	57	0	829423616	48	4829
2026-01-01 23:53:59.60	7.89	46.75	-38.7	-40.6	15.3	0.00e+00	0	56	0	832569344	48	4602
2026-01-01 23:54:00.61	7.78	47.07	-38.6	-40.4	15.5	0.00e+00	0	57	0	835715072	48	4526
2026-01-01 23:54:01.63	7.66	47.38	-38.5	-40.3	15.6	7.00e-07	0	57	0	838860800	48	4450
2026-01-01 23:54:02.63	7.55	47.69	-38.4	-40.2	15.7	0.00e+00	0	57	0	842006528	48	4407
2026-01-01 23:54:03.65	7.43	48.01	-38.2	-39.9	16.0	0.00e+00	0	57	0	845152256	48	4253
2026-01-01 23:54:04.66	7.31	48.33	-37.9	-39.7	16.1	0.00e+00	0	57	0	848297984	47	4394
2026-01-01 23:54:05.67	7.18	48.66	-37.8	-39.5	16.3	0.00e+00	0	56	0	851443712	47	4329
2026-01-01 23:54:06.68	7.05	48.98	-37.8	-39.5	16.3	0.00e+00	0	57	0	854589440	47	4306
2026-01-01 23:54:07.69	6.92	49.31	-37.8	-39.5	16.3	0.00e+00	0	56	0	857735168	47	4304
2026-01-01 23:54:08.70	6.79	49.63	-38.0	-39.7	16.2	0.00e+00	0	56	0	860880896	47	4399
2026-01-01 23:54:09.71	6.65	49.97	-38.1	-39.9	15.9	0.00e+00	0	57	0	864026624	47	4516
2026-01-01 23:54:10.72	6.51	50.30	-38.4	-40.2	15.5	0.00e+00	0	57	0	867172352	47	4702
2026-01-01 23:54:11.73	6.37	50.63	-38.5	-40.3	15.5	0.00e+00	0	57	0	870318080	47	4748
2026-01-01 23:54:12.74	6.23	50.97	-38.3	-40.1	15.7	0.00e+00	0	57	0	873463808	47	4642
2026-01-01 23:54:13.75	6.08	51.31	-38.2	-39.9	15.8	0.00e+00	0	57	0	876609536	47	4543
2026-01-01 23:54:14.76	5.92	51.65	-38.0	-39.7	16.1	0.00e+00	0	56	0	879755264	47	4397
2026-01-01 23:54:15.77	5.77	52.00	-37.9	-39.5	16.2	0.00e+00	0	57	0	882900992	47	4326
2026-01-01 23:54:16.77	5.61	52.34	-37.9	-39.6	16.1	0.00e+00	0	57	0	886046720	47	4354
2026-01-01 23:54:17.79	5.44	52.69	-37.6	-39.2	16.6	0.00e+00	0	57	0	889192448	47	4173
2026-01-01 23:54:18.80	5.27	53.04	-37.4	-38.9	16.9	0.00e+00	0	57	0	892338176	46	4284
2026-01-01 23:54:19.81	5.10	53.40	-37.3	-38.8	16.9	0.00e+00	0	57	0	895483904	46	4231
2026-01-01 23:54:20.81	4.93	53.75	-37.3	-38.8	16.9	0.00e+00	0	56	0	898629632	46	4205
2026-01-01 23:54:21.82	4.75	54.11	-37.3	-38.8	17.0	0.00e+00	0	56	0	901775360	46	4215
2026-01-01 23:54:22.83	4.56	54.47	-37.4	-38.9	16.8	0.00e+00	0	57	0	904921088	46	4280
2026-01-01 23:54:23.84	4.37	54.83	-37.3	-38.8	17.0	0.00e+00	0	57	0	908066816	46	4222
2026-01-01 23:54:24.85	4.17	55.19	-37.1	-38.7	17.1	0.00e+00	0	57	0	911212544	46	4147
2026-01-01 23:54:25.86	3.97	55.56	-36.8	-38.3	17.4	0.00e+00	0	57	0	914358272	45	4227
2026-01-01 23:54:26.87	3.77	55.93	-36.6	-38.0	17.7	0.00e+00	0	57	0	917504000	45	4079
2026-01-01 23:54:27.88	3.56	56.30	-36.5	-37.9	17.8	0.00e+00	0	56	0	920649728	44	4268
2026-01-01 23:54:28.89	3.34	56.67	-36.2	-37.6	18.1	0.00e+00	0	57	0	923795456	44	4106
2026-01-01 23:54:29.90	3.11	57.05	-36.1	-37.4	18.3	0.00e+00	0	57	0	926941184	44	4029
2026-01-01 23:54:30.91	2.88	57.42	-35.8	-37.1	18.4	0.00e+00	0	56	0	930086912	43	4134
2026-01-01 23:54:31.92	2.65	57.80	-35.5	-36.8	18.7	0.00e+00	0	57	0	933232640	43	3977
2026-01-01 23:54:32.93	2.40	58.18	-35.4	-36.6	18.9	0.00e+00	0	57	0	936378368	42	4142
2026-01-01 23:54:33.94	2.15	58.57	-35.5	-36.7	18.8	0.00e+00	0	57	0	939524096	42	4184
2026-01-01 23:54:34.95	1.89	58.95	-35.4	-36.6	18.9	0.00e+00	0	57	0	943718400	42	4142
2026-01-01 23:54:35.96	1.63	59.34	-35.4	-36.7	18.8	0.00e+00	0	57	0	946864128	42	4150
2026-01-01 23:54:36.98	1.35	59.73	-35.6	-36.9	18.6	0.00e+00	0	57	0	948961280	42	4289
2026-01-01 23:54:37.98	1.07	60.12	-35.7	-37.0	18.5	4.50e-06	0	57	0	952107008	42	4335
2026-01-01 23:54:38.99	0.78	60.51	-35.6	-36.9	18.6	0.00e+00	0	57	0	955252736	42	4277
2026-01-01 23:54:40.01	0.48	60.91	-35.4	-36.6	18.8	0.00e+00	0	57	0	959447040	42	4144
2026-01-01 23:54:41.02	0.17	61.30	-35.2	-36.4	19.0	0.00e+00	0	57	0	962592768	42	4049
2026-01-01 23:54:42.03	359.85	61.70	-34.9	-36.1	19.3	0.00e+00	0	57	0	965738496	41	4106
2026-01-01 23:54:43.04	359.51	62.10	-34.6	-35.8	19.6	0.00e+00	0	57	0	968884224	41	3964
2026-01-01 23:54:44.05	359.17	62.50	-34.5	-35.7	19.7	0.00e+00	0	57	0	972029952	41	3922
2026-01-01 23:54:45.05	358.82	62.90	-34.4	-35.6	19.8	0.00e+00	0	57	0	975175680	40	4099
2026-01-01 23:54:46.06	358.45	63.30	-34.5	-35.7	19.7	0.00e+00	0	57	0	978321408	40	4160
2026-01-01 23:54:47.08	358.07	63.71	-34.7	-35.9	19.5	0.00e+00	0	57	0	981467136	40	4258
2026-01-01 23:54:48.09	357.68	64.12	-34.7	-35.9	19.5	0.00e+00	0	57	0	984612864	40	4270
2026-01-01 23:54:49.10	357.27	64.52	-34.8	-36.0	19.4	0.00e+00	0	57	0	987758592	40	4325
2026-01-01 23:54:50.11	356.85	64.93	-34.9	-36.1	19.3	0.00e+00	0	57	0	990904320	40	4385
2026-01-01 23:54:51.12	356.41	65.34	-34.9	-36.2	19.3	0.00e+00	0	57	0	994050048	40	4392
2026-01-01 23:54:52.13	355.96	65.75	-34.7	-35.9	19.5	0.00e+00	0	57	0	997195776	40	4269
2026-01-01 23:54:53.14	355.49	66.16	-34.7	-35.9	19.5	0.00e+00	0	57	0	1000341504	40	4277
2026-01-01 23:54:54.15	355.00	66.57	-34.6	-35.8	19.6	0.00e+00	0	57	0	1003487232	40	4236
2026-01-01 23:54:55.16	354.49	66.98	-34.4	-35.5	19.9	0.00e+00	0	57	0	1006632960	40	4087
2026-01-01 23:54:56.17	353.96	67.39	-34.3	-35.5	19.9	0.00e+00	0	57	0	1009778688	40	4073
2026-01-01 23:54:57.18	353.40	67.80	-34.3	-35.4	19.9	0.00e+00	0	57	0	1012924416	40	4043
2026-01-01 23:54:58.19	352.83	68.22	-34.3	-35.4	19.9	0.00e+00	0	57	0	1016070144	40	4046
2026-01-01 23:54:59.20	352.23	68.63	-34.4	-35.6	19.8	0.00e+00	0	57	0	1019215872	40	4109
2026-01-01 23:55:00.21	351.61	69.04	-34.6	-35.8	19.5	0.00e+00	0	57	0	1022361600	40	4222
2026-01-01 23:55:01.22	350.96	69.45	-34.6	-35.8	19.4	0.00e+00	0	57	0	1025507328	40	4215
2026-01-01 23:55:02.23	350.28	69.86	-34.5	-35.7	19.5	0.00e+00	0	57	0	1028653056	40	4149
2026-01-01 23:55:03.24	349.57	70.27	-34.4	-35.5	19.5	0.00e+00	0	57	0	1031798784	40	4097
2026-01-01 23:55:04.25	348.82	70.68	-34.3	-35.5	19.7	0.00e+00	0	57	0	1034944512	40	4052
2026-01-01 23:55:05.26	348.05	71.08	-33.9	-35.0	20.1	0.00e+00	0	57	0	1038090240	39	4067
2026-01-01 23:55:06.27	347.23	71.49	-33.9	-35.0	20.1	0.00e+00	0	57	0	1041235968	39	4072
2026-01-01 23:55:07.28	346.38	71.89	-34.0	-35.1	20.1	0.00e+00	0	57	0	1044381696	39	4113
2026-01-01 23:55:08.29	345.49	72.29	-34.2	-35.3	19.8	0.00e+00	0	57	0	1047527424	39	4241
2026-01-01 23:55:09.30	344.55	72.68	-34.4	-35.6	19.7	0.00e+00	0	57	0	1050673152	39	4343
2026-01-01 23:55:10.31	343.57	73.08	-34.0	-35.1	20.2	0.00e+00	0	57	0	1053818880	39	4101
2026-01-01 23:55:11.32	342.54	73.47	-34.0	-35.1	20.2	0.00e+00	0	57	0	1056964608	39	4106
2026-01-01 23:55:12.33	341.45	73.85	-34.1	-35.1	20.1	0.00e+00	0	57	0	1060110336	39	4145
2026-01-01 23:55:13.34	340.32	74.23	-34.3	-35.4	19.8	0.00e+00	0	57	0	1063256064	39	4287
2026-01-01 23:55:14.35	339.12	74.61	-34.0	-35.1	20.1	0.00e+00	0	57	0	1066401792	39	4124
2026-01-01 23:55:15.36	337.86	74.98	-34.0	-35.1	20.3	0.00e+00	0	57	0	1069547520	39	4106
2026-01-01 23:55:16.37	336.53	75.34	-33.8	-34.9	20.4	0.00e+00	0	57	0	1072693248	39	4015
2026-01-01 23:55:17.38	335.14	75.70	-33.5	-34.6	20.7	0.00e+00	0	57	0	1075838976	39	3883
2026-01-01 23:55:18.39	333.67	76.05	-34.0	-35.2	20.2	0.00e+00	0	57	0	1078984704	39	4146
2026-01-01 23:55:19.40	332.12	76.39	-34.5	-35.6	19.6	0.00e+00	0	57	0	1082130432	39	4387
2026-01-01 23:55:20.41	330.50	76.72	-34.7	-35.9	19.4	0.00e+00	0	57	0	1085276160	40	4245
2026-01-01 23:55:21.42	328.78	77.04	-34.4	-35.6	19.7	0.00e+00	0	57	0	1088421888	40	4127
2026-01-01 23:55:22.43	326.99	77.35	-34.5	-35.6	19.7	0.00e+00	0	57	0	1091567616	40	4140
2026-01-01 23:55:23.44	325.09	77.65	-34.7	-35.8	19.4	0.00e+00	0	57	0	1094713344	40	4241
2026-01-01 23:55:24.44	323.13	77.93	-34.8	-36.0	19.3	0.00e+00	0	57	0	1097859072	40	4315
2026-01-01 23:55:25.45	321.05	78.20	-34.5	-35.7	19.5	0.00e+00	0	57	0	1101004800	40	4182
2026-01-01 23:55:26.46	318.88	78.45	-34.3	-35.5	19.8	0.00e+00	0	57	0	1104150528	40	4056
2026-01-01 23:55:27.47	316.60	78.69	-34.3	-35.4	19.8	0.00e+00	0	57	0	1107296256	40	4038
2026-01-01 23:55:28.48	314.23	78.91	-34.7	-36.0	19.2	0.00e+00	0	57	0	1110441984	40	4308
2026-01-01 23:55:29.49	311.77	79.11	-35.0	-36.3	19.0	0.00e+00	0	57	0	1113587712	40	4459
2026-01-01 23:55:30.50	309.22	79.29	-35.1	-36.3	18.9	0.00e+00	0	57	0	1116733440	40	4489
2026-01-01 23:55:31.51	306.58	79.45	-35.1	-36.3	18.9	0.00e+00	0	57	0	1119879168	40	4485
2026-01-01 23:55:32.52	303.87	79.59	-35.0	-36.3	18.9	0.00e+00	0	57	0	1123024896	40	4477
2026-01-01 23:55:33.53	301.08	79.70	-35.1	-36.4	18.8	0.00e+00	0	57	0	1126170624	41	4277
2026-01-01 23:55:34.54	298.25	79.79	-34.9	-36.1	19.1	0.00e+00	0	57	0	1129316352	41	4141
2026-01-01 23:55:35.55	295.37	79.85	-34.8	-36.0	19.2	0.00e+00	0	57	0	1132462080	41	4081
2026-01-01 23:55:36.56	292.46	79.89	-34.7	-35.9	19.3	0.00e+00	0	57	0	1135607808	41	4036
2026-01-01 23:55:37.57	289.53	79.90	-35.0	-36.3	19.0	0.00e+00	0	57	0	1138753536	41	4206
2026-01-01 23:55:38.58	286.61	79.89	-35.0	-36.2	19.0	0.00e+00	0	57	0	1141899264	41	4181
2026-01-01 23:55:39.59	283.70	79.85	-34.6	-35.8	19.4	0.00e+00	0	57	0	1145044992	41	3967
2026-01-01 23:55:40.60	280.82	79.78	-34.5	-35.6	19.6	0.00e+00	0	57	0	1148190720	40	4145
2026-01-01 23:55:41.60	278.01	79.70	-35.0	-36.2	19.1	0.00e+00	0	57	0	1151336448	40	4416
2026-01-01 23:55:42.61	275.24	79.58	-35.0	-36.2	19.0	0.00e+00	0	57	0	1154482176	40	4416
2026-01-01 23:55:43.62	272.53	79.44	-34.8	-35.9	19.2	0.00e+00	0	57	0	1157627904	40	4288
2026-01-01 23:55:44.63	269.89	79.28	-34.5	-35.6	19.5	0.00e+00	0	57	0	1160773632	40	4143
2026-01-01 23:55:45.64	267.34	79.10	-34.0	-35.2	19.8	0.00e+00	0	57	0	1163919360	40	3916
2026-01-01 23:55:46.65	264.88	78.90	-34.1	-35.2	19.9	0.00e+00	0	57	0	1167065088	39	4193
2026-01-01 23:55:47.67	262.49	78.68	-34.3	-35.5	19.8	0.00e+00	0	57	0	1170210816	39	4322
2026-01-01 23:55:48.68	260.22	78.44	-34.4	-35.6	19.7	0.00e+00	0	57	0	1173356544	39	4347
2026-01-01 23:55:49.68	258.07	78.19	-34.5	-35.6	19.7	0.00e+00	0	57	0	1176502272	39	4383
2026-01-01 23:55:50.69	256.00	77.91	-34.7	-35.9	19.3	0.00e+00	0	57	0	1179648000	40	4275
2026-01-01 23:55:51.70	254.02	77.63	-34.5	-35.7	19.5	0.00e+00	0	57	0	1182793728	40	4180
2026-01-01 23:55:52.71	252.13	77.33	-34.2	-35.3	19.8	0.00e+00	0	57	0	1185939456	40	4004
2026-01-01 23:55:53.72	250.33	77.02	-34.1	-35.2	19.9	0.00e+00	0	57	0	1189085184	40	3954
2026-01-01 23:55:54.74	248.61	76.69	-34.1	-35.2	20.0	0.00e+00	0	57	0	1192230912	40	3941
2026-01-01 23:55:55.75	246.99	76.36	-34.1	-35.3	19.7	0.00e+00	0	57	0	1195376640	40	3975
2026-01-01 23:55:56.76	245.45	76.02	-34.2	-35.4	19.5	0.00e+00	0	57	0	1198522368	40	4021
2026-01-01 23:55:57.77	243.98	75.67	-34.3	-35.4	19.4	0.00e+00	0	57	0	1201668096	40	4051
2026-01-01 23:55:58.78	242.59	75.31	-34.3	-35.5	19.6	0.00e+00	0	57	0	1204813824	40	4066
2026-01-01 23:55:59.79	241.27	74.95	-33.9	-35.0	20.1	0.00e+00	0	57	0	1207959552	39	4090
2026-01-01 23:56:00.80	240.01	74.58	-34.0	-35.1	20.2	0.00e+00	0	57	0	1211105280	39	4103
2026-01-01 23:56:01.81	238.82	74.20	-34.3	-35.4	19.7	0.00e+00	0	57	0	1214251008	39	4288
2026-01-01 23:56:02.82	237.68	73.82	-34.7	-35.9	19.4	0.00e+00	0	57	0	1217396736	40	4243
2026-01-01 23:56:03.83	236.60	73.43	-34.7	-35.9	19.3	0.00e+00	0	57	0	1220542464	40	4287
2026-01-01 23:56:04.84	235.57	73.04	-34.4	-35.6	19.5	0.00e+00	0	57	0	1223688192	40	4126
2026-01-01 23:56:05.85	234.59	72.65	-34.1	-35.2	19.9	0.00e+00	0	57	0	1226833920	40	3940
2026-01-01 23:56:06.86	233.66	72.25	-34.5	-35.6	19.5	0.00e+00	0	57	0	1229979648	40	4124
2026-01-01 23:56:07.87	232.77	71.85	-35.2	-36.4	18.8	0.00e+00	0	57	0	1233125376	40	4526
2026-01-01 23:56:08.88	231.92	71.45	-35.0	-36.3	19.0	0.00e+00	0	57	0	1236271104	40	4456
2026-01-01 23:56:09.89	231.11	71.04	-34.5	-35.6	19.6	0.00e+00	0	57	0	1239416832	40	4144
2026-01-01 23:56:10.91	230.32	70.63	-33.9	-35.0	20.1	0.00e+00	0	57	0	1242562560	39	4074
2026-01-01 23:56:11.91	229.59	70.23	-33.7	-34.8	20.1	0.00e+00	0	57	0	1245708288	39	3961
2026-01-01 23:56:12.92	228.88	69.82	-33.7	-34.8	20.2	0.00e+00	0	57	0	1248854016	39	3991
2026-01-01 23:56:13.93	228.20	69.41	-34.5	-35.7	19.5	0.00e+00	0	57	0	1251999744	39	4427
2026-01-01 23:56:14.94	227.55	69.00	-35.5	-36.8	18.5	0.00e+00	0	57	0	1255145472	41	4463
2026-01-01 23:56:15.95	226.93	68.58	-35.7	-37.1	18.2	0.00e+00	0	57	0	1259339776	42	4371
2026-01-01 23:56:16.96	226.33	68.17	-35.2	-36.5	18.6	0.00e+00	0	57	0	1262485504	42	4080
2026-01-01 23:56:17.97	225.76	67.76	-34.9	-36.1	18.9	0.00e+00	0	57	0	1265631232	41	4124
2026-01-01 23:56:18.98	225.21	67.35	-34.4	-35.5	19.5	0.00e+00	0	57	0	1267728384	40	4093
2026-01-01 23:56:19.99	224.68	66.93	-34.5	-35.7	19.4	0.00e+00	0	57	0	1270874112	40	4179
2026-01-01 23:56:21.00	224.17	66.52	-34.8	-36.0	19.1	0.00e+00	0	57	0	1275068416	40	4336
2026-01-01 23:56:22.01	223.68	66.11	-35.3	-36.6	18.6	0.00e+00	0	57	0	1278214144	41	4373
2026-01-01 23:56:23.02	223.21	65.70	-35.9	-37.4	18.0	0.00e+00	0	57	0	1281359872	42	4495
2026-01-01 23:56:24.03	222.76	65.29	-36.2	-37.6	17.7	0.00e+00	0	57	0	1284505600	43	4391
2026-01-01 23:56:25.04	222.32	64.88	-35.4	-36.8	18.6	0.00e+00	0	57	0	1287651328	42	4195
2026-01-01 23:56:26.05	221.90	64.47	-34.8	-36.0	19.3	0.00e+00	0	57	0	1289748480	41	4052
2026-01-01 23:56:27.06	221.49	64.06	-34.6	-35.7	19.5	0.00e+00	0	57	0	1293942784	41	3938
2026-01-01 23:56:28.06	221.10	63.66	-34.7	-35.8	19.4	0.00e+00	0	57	0	1297088512	40	4236
2026-01-01 23:56:29.07	220.73	63.25	-35.7	-37.0	18.4	0.00e+00	0	57	0	1300234240	41	4570
2026-01-01 23:56:30.08	220.36	62.85	-36.5	-38.0	17.4	0.00e+00	0	57	0	1303379968	43	4567
2026-01-01 23:56:31.09	220.01	62.45	-37.3	-38.9	16.7	0.00e+00	0	57	0	1306525696	45	4544
2026-01-01 23:56:32.10	219.66	62.04	-37.2	-38.8	16.9	0.00e+00	0	57	0	1309671424	45	4463
2026-01-01 23:56:33.11	219.33	61.64	-35.5	-37.0	18.2	0.00e+00	0	57	0	1312817152	43	4059
2026-01-01 23:56:34.12	219.01	61.25	-34.8	-36.0	19.3	0.00e+00	0	57	0	1315962880	41	4056
2026-01-01 23:56:35.13	218.70	60.85	-34.6	-35.8	19.5	0.00e+00	0	57	0	1319108608	41	3988
2026-01-01 23:56:36.14	218.40	60.45	-35.0	-36.2	19.2	0.00e+00	0	57	0	1322254336	41	4148
2026-01-01 23:56:37.15	218.11	60.06	-35.5	-36.7	18.6	0.00e+00	0	57	0	1325400064	41	4424
2026-01-01 23:56:38.16	217.83	59.67	-36.1	-37.4	17.9	0.00e+00	0	57	0	1328545792	42	4525
2026-01-01 23:56:39.17	217.55	59.28	-37.1	-38.7	16.5	0.00e+00	0	57	0	1331691520	44	4656
2026-01-01 23:56:40.18	217.29	58.89	-37.8	-39.5	15.7	0.00e+00	0	57	0	1334837248	46	4591
2026-01-01 23:56:41.19	217.03	58.51	-37.3	-38.9	16.4	0.00e+00	0	57	0	1337982976	46	4291
2026-01-01 23:56:42.20	216.78	58.12	-36.4	-37.8	17.5	0.00e+00	0	57	0	1341128704	44	4216
2026-01-01 23:56:43.21	216.54	57.74	-35.4	-36.7	18.5	0.00e+00	0	57	0	1344274432	42	4150
2026-01-01 23:56:44.22	216.30	57.36	-35.1	-36.3	18.9	0.00e+00	0	57	0	1347420160	42	3996
2026-01-01 23:56:45.22	216.07	56.98	-35.8	-37.2	18.2	0.00e+00	0	57	0	1350565888	42	4402
2026-01-01 23:56:46.23	215.85	56.61	-37.3	-38.8	16.7	0.00e+00	0	57	0	1353711616	45	4485
2026-01-01 23:56:47.24	215.63	56.23	-38.0	-39.7	15.9	0.00e+00	0	57	0	1356857344	46	4690
2026-01-01 23:56:48.26	215.41	55.86	-38.6	-40.5	15.2	0.00e+00	0	57	0	1360003072	47	4836
2026-01-01 23:56:49.27	215.21	55.49	-38.1	-39.9	15.8	0.00e+00	0	57	0	1363148800	47	4501
2026-01-01 23:56:50.27	215.01	55.13	-37.2	-38.8	16.9	0.00e+00	0	57	0	1366294528	46	4208
2026-01-01 23:56:51.28	214.81	54.76	-36.6	-38.0	17.6	0.00e+00	0	57	0	1369440256	45	4056
2026-01-01 23:56:52.29	214.62	54.40	-36.2	-37.5	18.0	0.00e+00	0	57	0	1372585984	44	4088
2026-01-01 23:56:53.30	214.44	54.04	-36.1	-37.4	18.1	0.00e+00	0	57	0	1375731712	44	4042
2026-01-01 23:56:54.31	214.26	53.68	-36.3	-37.7	17.8	0.00e+00	0	57	0	1378877440	44	4168
2026-01-01 23:56:55.32	214.08	53.32	-36.8	-38.2	17.4	0.00e+00	0	57	0	1382023168	44	4436
2026-01-01 23:56:56.33	213.91	52.97	-37.4	-39.0	16.7	0.00e+00	0	57	0	1385168896	45	4571
2026-01-01 23:56:57.34	213.74	52.62	-38.2	-40.0	15.6	0.00e+00	0	57	0	1388314624	46	4816
2026-01-01 23:56:58.35	213.57	52.27	-38.6	-40.5	15.2	0.00e+00	0	57	0	1391460352	47	4828
2026-01-01 23:56:59.36	213.41	51.92	-38.4	-40.3	15.3	0.00e+00	0	57	0	1394606080	47	4746
2026-01-01 23:57:00.37	213.26	51.57	-38.2	-40.0	15.4	0.00e+00	0	57	0	1397751808	47	4585
2026-01-01 23:57:01.38	213.10	51.23	-37.8	-39.4	16.0	0.00e+00	0	57	0	1400897536	47	4282
2026-01-01 23:57:02.39	212.96	50.89	-37.1	-38.6	16.9	0.00e+00	0	57	0	1404043264	46	4142
2026-01-01 23:57:03.40	212.81	50.55	-37.2	-38.7	16.9	0.00e+00	0	57	0	1407188992	46	4172
2026-01-01 23:57:04.41	212.67	50.21	-37.7	-39.3	16.3	0.00e+00	0	57	0	1410334720	46	4491
2026-01-01 23:57:05.42	212.53	49.88	-38.1	-39.9	15.9	0.00e+00	0	57	0	1413480448	46	4767
2026-01-01 23:57:06.43	212.39	49.55	-37.9	-39.6	16.1	0.00e+00	0	57	0	1416626176	46	4604
2026-01-01 23:57:07.44	212.26	49.22	-37.5	-39.1	16.6	0.00e+00	0	57	0	1419771904	46	4365
2026-01-01 23:57:08.45	212.13	48.89	-37.4	-39.0	16.7	0.00e+00	0	57	0	1422917632	46	4304
2026-01-01 23:57:09.46	212.00	48.57	-37.6	-39.2	16.5	0.00e+00	0	57	0	1426063360	46	4392
2026-01-01 23:57:10.47	211.87	48.24	-37.9	-39.6	16.1	0.00e+00	0	57	0	1429209088	46	4636
2026-01-01 23:57:11.48	211.75	47.92	-38.3	-40.1	15.5	0.00e+00	0	57	0	1432354816	47	4648
2026-01-01 23:57:12.49	211.63	47.60	-38.6	-40.5	15.0	0.00e+00	0	57	0	1435500544	47	4826
2026-01-01 23:57:13.50	211.51	47.29	-38.6	-40.5	15.0	0.00e+00	0	57	0	1438646272	47	4816
2026-01-01 23:57:14.51	211.40	46.97	-38.2	-40.0	15.5	0.00e+00	0	57	0	1441792000	47	4566
2026-01-01 23:57:15.52	211.29	46.66	-37.9	-39.5	16.0	0.00e+00	0	57	0	1444937728	47	4330
2026-01-01 23:57:16.53	211.18	46.35	-37.5	-39.1	16.5	0.00e+00	0	57	0	1448083456	47	4117
2026-01-01 23:57:17.54	211.07	46.05	-37.1	-38.6	17.0	0.00e+00	0	57	0	1451229184	46	4121
2026-01-01 23:57:18.55	210.96	45.74	-36.9	-38.3	17.3	0.00e+00	0	57	0	1454374912	45	4241
2026-01-01 23:57:19.56	210.86	45.44	-37.3	-38.8	16.8	0.00e+00	0	57	0	1457520640	45	4472
2026-01-01 23:57:20.57	210.76	45.14	-38.1	-39.8	15.8	0.00e+00	0	57	0	1460666368	46	4734
2026-01-01 23:57:21.58	210.66	44.84	-38.7	-40.6	14.9	0.00e+00	0	57	0	1463812096	47	4925
2026-01-01 23:57:22.59	210.56	44.54	-39.2	-41.3	14.4	0.00e+00	0	57	0	1466957824	48	5002
2026-01-01 23:57:23.60	210.46	44.25	-39.4	-41.5	14.2	7.00e-07	0	57	0	1470103552	49	4866
2026-01-01 23:57:24.61	210.37	43.95	-39.3	-41.4	14.3	2.20e-06	0	57	0	1473249280	49	4772
2026-01-01 23:57:25.62	210.28	43.66	-39.1	-41.1	14.4	1.50e-06	0	57	0	1476395008	49	4642
2026-01-01 23:57:26.63	210.18	43.38	-39.1	-41.1	14.6	0.00e+00	0	57	0	1479540736	49	4615
2026-01-01 23:57:27.64	210.10	43.09	-39.2	-41.3	14.5	0.00e+00	0	57	0	1482686464	49	4729
2026-01-01 23:57:28.65	210.01	42.81	-39.4	-41.5	14.3	1.50e-06	0	57	0	1485832192	49	4855
2026-01-01 23:57:29.66	209.92	42.52	-39.1	-41.1	14.7	0.00e+00	0	57	0	1488977920	49	4639
2026-01-01 23:57:30.67	209.84	42.24	-38.6	-40.5	15.3	0.00e+00	0	57	0	1492123648	49	4304
2026-01-01 23:57:31.68	209.75	41.97	-38.2	-39.9	15.7	0.00e+00	0	57	0	1495269376	48	4252
2026-01-01 23:57:32.69	209.67	41.69	-37.8	-39.4	16.1	0.00e+00	0	57	0	1498415104	47	4274
2026-01-01 23:57:33.70	209.59	41.42	-37.2	-38.7	16.8	0.00e+00	0	57	0	1501560832	46	4192
2026-01-01 23:57:34.71	209.51	41.14	-37.0	-38.4	17.1	0.00e+00	0	57	0	1504706560	46	4045
2026-01-01 23:57:35.71	209.44	40.88	-37.3	-38.8	16.8	0.00e+00	0	57	0	1507852288	46	4216
2026-01-01 23:57:36.72	209.36	40.61	-37.8	-39.5	16.1	0.00e+00	0	57	0	1510998016	46	4566
2026-01-01 23:57:37.73	209.29	40.34	-38.2	-40.0	15.6	0.00e+00	0	57	0	1514143744	47	4569
2026-01-01 23:57:38.74	209.21	40.08	-38.4	-40.2	15.5	0.00e+00	0	57	0	1517289472	47	4657
2026-01-01 23:57:39.75	209.14	39.82	-38.4	-40.2	15.4	0.00e+00	0	57	0	1520435200	47	4698
2026-01-01 23:57:40.76	209.07	39.55	-38.2	-39.9	15.7	0.00e+00	0	57	0	1523580928	47	4536
2026-01-01 23:57:41.77	209.00	39.30	-38.0	-39.8	15.9	0.00e+00	0	57	0	1526726656	47	4457
2026-01-01 23:57:42.78	208.93	39.04	-38.0	-39.7	15.9	0.00e+00	0	57	0	1529872384	47	4424
2026-01-01 23:57:43.79	208.86	38.78	-38.1	-39.9	15.8	0.00e+00	0	57	0	1533018112	47	4506
2026-01-01 23:57:44.80	208.80	38.53	-38.1	-39.9	15.8	0.00e+00	0	57	0	1536163840	47	4519
2026-01-01 23:57:45.81	208.73	38.28	-38.1	-39.8	15.9	0.00e+00	0	57	0	1539309568	47	4462
2026-01-01 23:57:46.82	208.67	38.03	-38.0	-39.7	15.9	0.00e+00	0	57	0	1542455296	47	4434
2026-01-01 23:57:47.83	208.60	37.78	-38.0	-39.8	15.9	0.00e+00	0	57	0	1545601024	47	4460
2026-01-01 23:57:48.84	208.54	37.54	-38.1	-39.8	15.8	0.00e+00	0	57	0	1548746752	47	4490
2026-01-01 23:57:49.85	208.48	37.29	-38.1	-39.9	15.8	0.00e+00	0	57	0	1551892480	47	4494
2026-01-01 23:57:50.86	208.42	37.05	-38.0	-39.8	15.9	0.00e+00	0	57	0	1555038208	47	4443
2026-01-01 23:57:51.87	208.36	36.81	-37.8	-39.6	16.1	0.00e+00	0	57	0	1558183936	47	4341
2026-01-01 23:57:52.88	208.30	36.57	-37.7	-39.3	16.3	0.00e+00	0	57	0	1561329664	47	4233
2026-01-01 23:57:53.89	208.24	36.33	-37.5	-39.1	16.5	0.00e+00	0	57	0	1564475392	47	4134
2026-01-01 23:57:54.90	208.19	36.10	-37.2	-38.7	16.9	0.00e+00	0	57	0	1567621120	46	4187
2026-01-01 23:57:55.91	208.13	35.87	-37.0	-38.5	17.1	0.00e+00	0	57	0	1570766848	46	4075
2026-01-01 23:57:56.92	208.07	35.63	-36.8	-38.2	17.4	0.00e+00	0	57	0	1573912576	45	4170
2026-01-01 23:57:57.93	208.02	35.40	-36.6	-38.0	17.6	0.00e+00	0	57	0	1577058304	45	4082
2026-01-01 23:57:58.94	207.97	35.17	-36.7	-38.1	17.5	0.00e+00	0	57	0	1580204032	45	4132
2026-01-01 23:57:59.95	207.91	34.95	-37.0	-38.5	17.2	0.00e+00	0	57	0	1583349760	45	4298
2026-01-01 23:58:00.96	207.86	34.72	-37.2	-38.8	16.9	0.00e+00	0	57	0	1586495488	45	4461
2026-01-01 23:58:01.97	207.81	34.50	-37.4	-39.0	16.6	0.00e+00	0	57	0	1589641216	45	4576
2026-01-01 23:58:02.97	207.76	34.28	-37.6	-39.2	16.4	0.00e+00	0	57	0	1592786944	45	4692
2026-01-01 23:58:03.98	207.71	34.06	-37.6	-39.2	16.4	0.00e+00	0	57	0	1595932672	45	4704
2026-01-01 23:58:04.99	207.66	33.84	-37.5	-39.1	16.5	0.00e+00	0	57	0	1599078400	45	4629
2026-01-01 23:58:06.01	207.61	33.62	-37.5	-39.1	16.5	0.00e+00	0	57	0	1603272704	45	4605
2026-01-01 23:58:07.01	207.56	33.40	-37.4	-39.0	16.6	0.00e+00	0	57	0	1605369856	45	4574
2026-01-01 23:58:08.02	207.52	33.19	-37.3	-38.8	16.7	0.00e+00	0	57	0	1608515584	45	4484
2026-01-01 23:58:09.03	207.47	32.97	-37.1	-38.7	16.9	0.00e+00	0	57	0	1611661312	45	4407
2026-01-01 23:58:10.04	207.43	32.76	-36.9	-38.4	17.1	0.00e+00	0	57	0	1614807040	45	4272
2026-01-01 23:58:11.05	207.38	32.55	-36.6	-38.1	17.4	0.00e+00	0	57	0	1619001344	45	4108
2026-01-01 23:58:12.06	207.34	32.34	-36.6	-38.0	17.4	0.00e+00	0	57	0	1622147072	45	4087
2026-01-01 23:58:13.07	207.29	32.13	-36.5	-37.9	17.4	0.00e+00	0	57	0	1625292800	45	4044
2026-01-01 23:58:14.08	207.25	31.93	-36.5	-37.9	17.5	0.00e+00	0	57	0	1627389952	45	4030
2026-01-01 23:58:15.09	207.21	31.72	-36.3	-37.7	17.7	0.00e+00	0	57	0	1630535680	44	4178
2026-01-01 23:58:16.11	207.16	31.52	-36.1	-37.4	18.0	0.00e+00	0	57	0	1634729984	44	4048
2026-01-01 23:58:17.12	207.12	31.32	-35.7	-37.0	18.3	0.00e+00	0	57	0	1637875712	43	4071
2026-01-01 23:58:18.13	207.08	31.12	-35.7	-37.0	18.3	0.00e+00	0	57	0	1641021440	43	4055
2026-01-01 23:58:19.14	207.04	30.92	-35.5	-36.8	18.4	0.00e+00	0	57	0	1644167168	43	3989
2026-01-01 23:58:20.14	207.00	30.72	-35.5	-36.7	18.5	0.00e+00	0	57	0	1647312896	42	4186
2026-01-01 23:58:21.15	206.96	30.52	-35.5	-36.7	18.6	0.00e+00	0	57	0	1650458624	42	4193
2026-01-01 23:58:22.16	206.92	30.33	-35.4	-36.7	18.6	0.00e+00	0	57	0	1653604352	42	4165
2026-01-01 23:58:23.17	206.88	30.13	-35.4	-36.7	18.6	0.00e+00	0	57	0	1656750080	42	4160
2026-01-01 23:58:24.18	206.84	29.94	-35.4	-36.7	18.6	0.00e+00	0	57	0	1659895808	42	4167
2026-01-01 23:58:25.19	206.81	29.75	-35.4	-36.7	18.6	0.00e+00	0	57	0	1663041536	42	4163
2026-01-01 23:58:26.20	206.77	29.56	-35.4	-36.6	18.7	0.00e+00	0	57	0	1666187264	42	4135
2026-01-01 23:58:27.21	206.73	29.37	-35.4	-36.7	18.6	0.00e+00	0	57	0	1669332992	42	4168
2026-01-01 23:58:28.22	206.70	29.18	-35.3	-36.6	18.7	0.00e+00	0	57	0	1672478720	42	4108
2026-01-01 23:58:29.23	206.66	29.00	-35.3	-36.6	18.7	0.00e+00	0	57	0	1675624448	42	4111
2026-01-01 23:58:30.24	206.63	28.81	-35.3	-36.6	18.8	0.00e+00	0	57	0	1678770176	42	4104
2026-01-01 23:58:31.26	206.59	28.62	-35.4	-36.7	18.7	0.00e+00	0	57	0	1681915904	42	4150
2026-01-01 23:58:32.26	206.56	28.44	-35.4	-36.7	18.6	0.00e+00	0	57	0	1685061632	42	4172
2026-01-01 23:58:33.27	206.52	28.26	-35.4	-36.7	18.6	0.00e+00	0	57	0	1688207360	42	4168
2026-01-01 23:58:34.28	206.49	28.08	-35.5	-36.7	18.6	0.00e+00	0	57	0	1691353088	42	4192
2026-01-01 23:58:35.30	206.46	27.90	-35.5	-36.8	18.5	0.00e+00	0	57	0	1694498816	42	4221
2026-01-01 23:58:36.31	206.42	27.72	-35.5	-36.8	18.5	0.00e+00	0	57	0	1697644544	42	4222
2026-01-01 23:58:37.32	206.39	27.55	-35.6	-36.9	18.4	0.00e+00	0	57	0	1700790272	42	4277
2026-01-01 23:58:38.33	206.36	27.37	-35.7	-37.1	18.2	0.00e+00	0	57	0	1703936000	42	4343
2026-01-01 23:58:39.34	206.33	27.19	-35.7	-37.0	18.3	0.00e+00	0	57	0	1707081728	42	4332
2026-01-01 23:58:40.35	206.30	27.02	-35.8	-37.1	18.2	0.00e+00	0	57	0	1710227456	42	4362
2026-01-01 23:58:41.36	206.27	26.85	-35.8	-37.2	18.2	0.00e+00	0	57	0	1713373184	42	4398
2026-01-01 23:58:42.37	206.24	26.68	-35.8	-37.1	18.2	0.00e+00	0	57	0	1716518912	42	4384
2026-01-01 23:58:43.38	206.21	26.51	-35.7	-37.1	18.2	0.00e+00	0	57	0	1719664640	42	4358
2026-01-01 23:58:44.39	206.18	26.34	-35.7	-37.1	18.2	0.00e+00	0	57	0	1722810368	42	4343
2026-01-01 23:58:45.40	206.15	26.17	-35.7	-37.1	18.2	0.00e+00	0	57	0	1725956096	42	4348
2026-01-01 23:58:46.41	206.12	26.00	-35.7	-37.0	18.3	0.00e+00	0	57	0	1729101824	42	4315
2026-01-01 23:58:47.41	206.09	25.84	-35.7	-37.0	18.3	0.00e+00	0	57	0	1732247552	42	4332
2026-01-01 23:58:48.42	206.06	25.67	-35.6	-37.0	18.3	0.00e+00	0	57	0	1735393280	42	4294
2026-01-01 23:58:49.43	206.03	25.51	-35.6	-36.9	18.4	0.00e+00	0	57	0	1738539008	42	4265
2026-01-01 23:58:50.44	206.00	25.34	-35.6	-36.9	18.4	0.00e+00	0	57	0	1741684736	42	4267
2026-01-01 23:58:51.45	205.98	25.18	-35.5	-36.8	18.4	0.00e+00	0	57	0	1744830464	42	4236
2026-01-01 23:58:52.46	205.95	25.02	-35.5	-36.8	18.4	0.00e+00	0	57	0	1747976192	42	4234
2026-01-01 23:58:53.47	205.92	24.86	-35.5	-36.8	18.4	0.00e+00	0	57	0	1751121920	42	4230
2026-01-01 23:58:54.48	205.90	24.70	-35.6	-36.9	18.3	0.00e+00	0	57	0	1754267648	42	4272
2026-01-01 23:58:55.49	205.87	24.54	-35.6	-36.9	18.2	0.00e+00	0	57	0	1757413376	42	4278
2026-01-01 23:58:56.50	205.84	24.38	-35.6	-37.0	18.2	0.00e+00	0	57	0	1760559104	42	4313
2026-01-01 23:58:57.51	205.82	24.23	-35.7	-37.1	18.1	0.00e+00	0	57	0	1763704832	42	4343
2026-01-01 23:58:58.52	205.79	24.07	-35.8	-37.1	18.0	0.00e+00	0	57	0	1766850560	42	4386
2026-01-01 23:58:59.53	205.77	23.92	-35.8	-37.2	17.9	0.00e+00	0	57	0	1769996288	42	4436
2026-01-01 23:59:00.54	205.74	23.76	-35.8	-37.2	17.9	0.00e+00	0	57	0	1773142016	42	4430
2026-01-01 23:59:01.55	205.72	23.61	-35.8	-37.2	18.0	0.00e+00	0	57	0	1776287744	42	4394
2026-01-01 23:59:02.56	205.69	23.46	-35.7	-37.1	18.0	0.00e+00	0	57	0	1779433472	42	4376
2026-01-01 23:59:03.57	205.67	23.31	-35.8	-37.2	18.0	0.00e+00	0	57	0	1782579200	42	4400
2026-01-01 23:59:04.58	205.65	23.16	-35.7	-37.1	18.1	0.00e+00	0	57	0	1785724928	42	4354
2026-01-01 23:59:05.58	205.62	23.01	-35.6	-36.9	18.2	0.00e+00	0	57	0	1788870656	42	4289
2026-01-01 23:59:06.59	205.60	22.86	-35.6	-36.9	18.3	0.00e+00	0	57	0	1792016384	42	4270
2026-01-01 23:59:07.60	205.58	22.71	-35.5	-36.9	18.3	0.00e+00	0	57	0	1795162112	42	4243
2026-01-01 23:59:08.61	205.55	22.57	-35.4	-36.7	18.5	0.00e+00	0	57	0	1798307840	42	4181
2026-01-01 23:59:09.62	205.53	22.42	-35.4	-36.7	18.5	0.00e+00	0	57	0	1801453568	42	4157
2026-01-01 23:59:10.63	205.51	22.27	-35.3	-36.6	18.5	0.00e+00	0	57	0	1804599296	42	4134
2026-01-01 23:59:11.64	205.49	22.13	-35.3	-36.6	18.6	0.00e+00	0	57	0	1807745024	42	4117
2026-01-01 23:59:12.65	205.46	21.99	-35.2	-36.5	18.7	0.00e+00	0	57	0	1810890752	42	4074
2026-01-01 23:59:13.66	205.44	21.84	-35.2	-36.4	18.7	0.00e+00	0	57	0	1814036480	42	4039
2026-01-01 23:59:14.66	205.42	21.70	-35.1	-36.4	18.8	0.00e+00	0	57	0	1817182208	42	4012
2026-01-01 23:59:15.67	205.40	21.56	-35.1	-36.4	18.8	0.00e+00	0	57	0	1820327936	42	4012
2026-01-01 23:59:16.68	205.38	21.42	-35.0	-36.3	18.9	0.00e+00	0	57	0	1823473664	42	3966
2026-01-01 23:59:17.69	205.36	21.28	-35.0	-36.2	18.9	0.00e+00	0	57	0	1826619392	42	3951
2026-01-01 23:59:18.70	205.34	21.14	-35.0	-36.2	18.9	0.00e+00	0	57	0	1829765120	42	3949
2026-01-01 23:59:19.71	205.32	21.00	-34.9	-36.2	19.0	0.00e+00	0	57	0	1832910848	41	4157
2026-01-01 23:59:20.72	205.30	20.87	-34.9	-36.2	19.0	0.00e+00	0	57	0	1836056576	41	4159
2026-01-01 23:59:21.73	205.28	20.73	-35.0	-36.2	18.9	0.00e+00	0	57	0	1839202304	41	4172
2026-01-01 23:59:22.74	205.26	20.59	-35.0	-36.2	18.9	0.00e+00	0	57	0	1842348032	41	4183
2026-01-01 23:59:23.75	205.24	20.46	-34.9	-36.2	19.0	0.00e+00	0	57	0	1845493760	41	4154
2026-01-01 23:59:24.76	205.22	20.32	-35.0	-36.2	18.9	0.00e+00	0	57	0	1848639488	41	4186
2026-01-01 23:59:25.77	205.20	20.19	-35.0	-36.3	18.9	0.00e+00	0	57	0	1851785216	41	4203
2026-01-01 23:59:26.78	205.18	20.06	-35.0	-36.3	18.9	0.00e+00	0	57	0	1854930944	41	4196
2026-01-01 23:59:27.79	205.16	19.93	-35.0	-36.3	18.8	0.00e+00	0	57	0	1858076672	41	4207
2026-01-01 23:59:28.80	205.14	19.79	-35.0	-36.3	18.9	0.00e+00	0	57	0	1861222400	41	4203
2026-01-01 23:59:29.81	205.13	19.66	-35.1	-36.3	18.8	0.00e+00	0	57	0	1864368128	41	4232
2026-01-01 23:59:30.82	205.11	19.53	-35.1	-36.4	18.7	0.00e+00	0	57	0	1867513856	41	4267
2026-01-01 23:59:31.83	205.09	19.40	-35.1	-36.4	18.7	0.00e+00	0	57	0	1870659584	41	4267
2026-01-01 23:59:32.83	205.07	19.27	-35.2	-36.5	18.6	0.00e+00	0	57	0	1873805312	41	4325
2026-01-01 23:59:33.84	205.05	19.15	-35.3	-36.5	18.6	0.00e+00	0	57	0	1876951040	41	4328
2026-01-01 23:59:34.85	205.04	19.02	-35.3	-36.6	18.6	0.00e+00	0	57	0	1880096768	41	4347
2026-01-01 23:59:35.87	205.02	18.89	-35.3	-36.6	18.6	0.00e+00	0	57	0	1883242496	41	4348
2026-01-01 23:59:36.87	205.00	18.77	-35.4	-36.7	18.5	0.00e+00	0	57	0	1886388224	41	4396
2026-01-01 23:59:37.89	204.98	18.64	-35.4	-36.7	18.4	0.00e+00	0	57	0	1889533952	41	4428
2026-01-01 23:59:38.89	204.97	18.51	-35.4	-36.7	18.4	0.00e+00	0	57	0	1892679680	41	4423
2026-01-01 23:59:39.90	204.95	18.39	-35.5	-36.8	18.4	0.00e+00	0	57	0	1895825408	41	4448
2026-01-01 23:59:40.91	204.93	18.27	-35.5	-36.8	18.3	0.00e+00	0	57	0	1898971136	41	4465
2026-01-01 23:59:41.92	204.92	18.14	-35.5	-36.8	18.3	0.00e+00	0	57	0	1902116864	41	4478
2026-01-01 23:59:42.93	204.90	18.02	-35.6	-36.9	18.2	0.00e+00	0	57	0	1905262592	41	4525
2026-01-01 23:59:43.95	204.89	17.90	-35.6	-36.9	18.2	0.00e+00	0	57	0	1908408320	41	4515
2026-01-01 23:59:44.96	204.87	17.78	-35.6	-37.0	18.2	0.00e+00	0	57	0	1911554048	41	4555
2026-01-01 23:59:45.97	204.85	17.66	-35.7	-37.0	18.1	0.00e+00	0	57	0	1914699776	41	4593
2026-01-01 23:59:46.98	204.84	17.54	-35.7	-37.1	18.1	0.00e+00	0	57	0	1917845504	41	4612
2026-01-01 23:59:47.98	204.82	17.42	-35.7	-37.1	18.0	0.00e+00	0	57	0	1920991232	42	4369
2026-01-01 23:59:48.99	204.81	17.30	-35.8	-37.1	18.0	0.00e+00	0	57	0	1924136960	42	4391
2026-01-01 23:59:50.00	204.79	17.18	-35.8	-37.2	18.0	0.00e+00	0	57	0	1927282688	42	4406
2026-01-01 23:59:51.01	204.78	17.06	-35.9	-37.2	17.9	0.00e+00	0	57	0	1930428416	42	4434
2026-01-01 23:59:52.02	204.76	16.94	-36.0	-37.4	17.8	0.00e+00	0	58	0	1933574144	42	4500
2026-01-01 23:59:53.03	204.75	16.83	-36.0	-37.4	17.7	0.00e+00	0	57	0	1936719872	42	4515
2026-01-01 23:59:54.05	204.73	16.71	-36.1	-37.5	17.6	0.00e+00	0	57	0	1939865600	42	4574
2026-01-01 23:59:55.06	204.72	16.59	-36.2	-37.6	17.5	0.00e+00	0	57	0	1943011328	42	4618
2026-01-01 23:59:56.07	204.70	16.48	-36.2	-37.6	17.5	0.00e+00	0	57	0	1946157056	42	4632
2026-01-01 23:59:57.08	204.69	16.36	-36.3	-37.7	17.4	0.00e+00	0	57	0	1949302784	43	4423
2026-01-01 23:59:58.09	204.68	16.25	-36.3	-37.7	17.4	0.00e+00	0	57	0	1952448512	43	4424
2026-01-01 23:59:59.10	204.66	16.14	-36.3	-37.8	17.4	0.00e+00	0	57	0	1955594240	43	4442
2026-01-02 00:00:00.11	204.65	16.02	-36.4	-37.8	17.3	0.00e+00	0	57	0	1959788544	43	4489
2026-01-02 00:00:01.12	204.63	15.91	-36.3	-37.8	17.3	0.00e+00	0	57	0	1962934272	43	4475
2026-01-02 00:00:02.13	204.62	15.80	-36.4	-37.9	17.2	0.00e+00	0	57	0	1966080000	43	4509
