passes_logs/2026/01/01/R2.0S_Moscow/R2.0S_Moscow__20260101_003647_SUOMI_NPP_rec.log

#Pass ID: 20260101_003647_SUOMI NPP
#Satellite: SUOMI NPP
#Configuration: NPP
#almurnet v.1.7.20251203
#Start time: 2026-01-01 00:36:46

#Version: 2.2.20231116
#Station: R2.0S_Moscow
#Location: 37.707566 lon 55.798166 lat
#TLE: 1 37849U 11061A   25364.87906317  .00000195  00000+0  11345-3 0  9992
#TLE: 2 37849  98.7794 302.0592 0002571  89.2401 270.9069 14.19520347734561

#Time	Az	El	Level	Level2	SNR	BER	BlckErr	Temp	State	Recorded	gain1	gain2
2026-01-01 00:36:46.92	12.80	1.96	-39.8	-54.5	3.8	1.49e+00	0	48	0	0	51	19224
2026-01-01 00:36:47.92	12.76	2.03	-39.8	-54.5	3.8	1.49e+00	0	49	104	0	51	19170
2026-01-01 00:36:48.94	12.73	2.09	-39.8	-54.4	3.8	1.49e+00	0	48	104	0	51	19142
2026-01-01 00:36:49.95	12.70	2.15	-39.8	-54.4	3.8	1.49e+00	0	49	104	0	51	19142
2026-01-01 00:36:50.96	12.66	2.22	-39.8	-54.4	3.8	1.49e+00	0	49	104	0	51	19135
2026-01-01 00:36:51.97	12.63	2.28	-39.8	-54.5	3.8	1.49e+00	0	49	104	0	51	19189
2026-01-01 00:36:52.98	12.59	2.34	-39.8	-54.4	3.8	1.49e+00	0	49	104	0	51	19160
2026-01-01 00:36:53.99	12.56	2.40	-39.8	-54.4	3.8	1.49e+00	0	49	104	0	51	19140
2026-01-01 00:36:55.00	12.52	2.47	-39.8	-54.4	3.8	1.49e+00	0	49	104	0	51	19135
2026-01-01 00:36:56.01	12.49	2.53	-39.8	-54.5	3.8	1.49e+00	0	49	104	0	51	19200
2026-01-01 00:36:57.02	12.45	2.60	-39.8	-54.5	3.8	1.49e+00	0	49	104	0	51	19218
2026-01-01 00:36:58.03	12.42	2.66	-39.8	-54.4	3.8	1.49e+00	0	49	104	0	51	19156
2026-01-01 00:36:59.04	12.38	2.72	-39.8	-54.5	3.8	1.49e+00	0	49	104	0	51	19211
2026-01-01 00:37:00.06	12.35	2.79	-39.8	-54.4	3.8	1.49e+00	0	49	104	0	51	19147
2026-01-01 00:37:01.07	12.31	2.85	-39.8	-54.4	3.8	1.49e+00	0	49	104	0	51	19129
2026-01-01 00:37:02.08	12.28	2.92	-39.8	-54.5	3.8	1.49e+00	0	49	104	0	51	19180
2026-01-01 00:37:03.09	12.24	2.98	-39.8	-54.5	3.8	1.49e+00	0	49	104	0	51	19169
2026-01-01 00:37:04.10	12.20	3.04	-39.8	-54.4	3.8	1.49e+00	0	49	104	0	51	19132
2026-01-01 00:37:05.11	12.17	3.11	-39.8	-54.4	3.8	1.49e+00	0	50	104	0	51	19099
2026-01-01 00:37:06.12	12.13	3.17	-39.8	-54.4	3.8	1.49e+00	0	50	104	0	51	19132
2026-01-01 00:37:07.13	12.09	3.24	-39.8	-54.5	3.8	1.49e+00	0	50	104	0	51	19202
2026-01-01 00:37:08.14	12.06	3.30	-39.8	-54.5	3.8	1.49e+00	0	50	104	0	51	19168
2026-01-01 00:37:09.15	12.02	3.37	-39.8	-54.4	3.8	1.49e+00	0	50	104	0	51	19125
2026-01-01 00:37:10.17	11.98	3.44	-39.8	-54.4	3.8	1.49e+00	0	50	104	0	51	19163
2026-01-01 00:37:11.18	11.94	3.50	-39.8	-54.4	3.8	1.49e+00	0	50	104	0	51	19157
2026-01-01 00:37:12.19	11.91	3.57	-39.8	-54.4	3.8	1.49e+00	0	50	104	0	51	19102
2026-01-01 00:37:13.20	11.87	3.63	-39.8	-54.4	3.8	1.49e+00	0	50	104	0	51	19100
2026-01-01 00:37:14.21	11.83	3.70	-39.8	-54.4	3.8	1.49e+00	0	50	104	0	51	19076
2026-01-01 00:37:15.22	11.79	3.77	-39.8	-54.4	3.8	1.49e+00	0	50	104	0	51	19052
2026-01-01 00:37:16.23	11.75	3.83	-39.8	-54.4	3.8	1.49e+00	0	50	104	0	51	19044
2026-01-01 00:37:17.24	11.71	3.90	-39.7	-54.4	3.8	1.49e+00	0	50	104	0	51	19077
2026-01-01 00:37:18.25	11.67	3.96	-39.8	-54.4	3.8	1.49e+00	0	50	104	0	51	19078
2026-01-01 00:37:19.26	11.64	4.03	-39.8	-54.4	3.8	1.49e+00	0	51	104	0	51	19020
2026-01-01 00:37:20.28	11.60	4.10	-39.8	-54.4	3.8	1.49e+00	0	50	104	0	51	19019
2026-01-01 00:37:21.28	11.56	4.17	-39.8	-54.4	3.8	1.49e+00	0	51	104	0	51	18979
2026-01-01 00:37:22.30	11.52	4.23	-39.8	-54.4	3.8	1.49e+00	0	50	104	0	51	18992
2026-01-01 00:37:23.31	11.48	4.30	-39.8	-54.4	3.8	1.49e+00	0	51	104	0	51	19021
2026-01-01 00:37:24.32	11.44	4.37	-39.8	-54.4	3.8	1.49e+00	0	51	104	0	51	19081
2026-01-01 00:37:25.33	11.40	4.44	-39.8	-54.4	3.8	1.49e+00	0	51	104	0	51	19070
2026-01-01 00:37:26.34	11.36	4.50	-39.8	-54.4	3.8	1.49e+00	0	51	104	0	51	19038
2026-01-01 00:37:27.35	11.31	4.57	-39.8	-54.4	3.8	1.49e+00	0	51	104	0	51	19072
2026-01-01 00:37:28.36	11.27	4.64	-39.8	-54.4	3.8	1.49e+00	0	51	104	0	51	19129
2026-01-01 00:37:29.37	11.23	4.71	-39.8	-54.4	3.8	1.49e+00	0	51	104	0	51	19091
2026-01-01 00:37:30.38	11.19	4.78	-39.8	-54.4	3.8	1.49e+00	0	51	104	0	51	19069
2026-01-01 00:37:31.39	11.15	4.84	-39.8	-54.4	3.8	1.49e+00	0	51	104	0	51	19124
2026-01-01 00:37:32.40	11.11	4.91	-39.8	-54.4	3.8	1.49e+00	0	51	104	0	51	19100
2026-01-01 00:37:33.41	11.07	4.98	-39.8	-54.4	3.8	1.49e+00	0	51	104	0	51	19075
2026-01-01 00:37:34.42	11.02	5.05	-39.8	-54.4	3.8	1.49e+00	0	51	104	0	51	19091
2026-01-01 00:37:35.43	10.98	5.12	-39.8	-54.4	3.8	1.49e+00	0	51	104	0	51	19116
2026-01-01 00:37:36.45	10.94	5.19	-39.8	-54.4	3.8	1.49e+00	0	51	104	0	51	19080
2026-01-01 00:37:37.46	10.90	5.26	-39.8	-54.4	3.8	1.49e+00	0	51	104	0	51	19148
2026-01-01 00:37:38.47	10.85	5.33	-39.8	-54.4	3.8	1.49e+00	0	52	104	0	51	19067
2026-01-01 00:37:39.48	10.81	5.40	-39.8	-54.4	3.8	1.49e+00	0	52	104	0	51	19129
2026-01-01 00:37:40.49	10.76	5.47	-39.8	-54.4	3.8	1.49e+00	0	52	104	0	51	19113
2026-01-01 00:37:41.50	10.72	5.54	-39.8	-54.4	3.8	1.49e+00	0	52	104	0	51	19064
2026-01-01 00:37:42.51	10.68	5.61	-39.8	-54.4	3.8	1.49e+00	0	52	104	0	51	19149
2026-01-01 00:37:43.52	10.63	5.68	-39.7	-54.4	3.8	1.49e+00	0	52	104	0	51	19133
2026-01-01 00:37:44.53	10.59	5.75	-39.7	-54.4	3.8	1.49e+00	0	52	104	0	51	19151
2026-01-01 00:37:45.55	10.54	5.82	-39.7	-54.4	3.8	1.49e+00	0	52	104	0	51	19060
2026-01-01 00:37:46.56	10.50	5.89	-39.8	-54.4	3.8	1.49e+00	0	52	104	0	51	19115
2026-01-01 00:37:47.57	10.45	5.97	-39.8	-54.4	3.8	1.49e+00	0	52	104	0	51	19153
2026-01-01 00:37:48.58	10.41	6.04	-39.8	-54.4	3.8	1.49e+00	0	52	104	0	51	19104
2026-01-01 00:37:49.59	10.36	6.11	-39.8	-54.4	3.8	1.49e+00	0	52	104	0	51	19095
2026-01-01 00:37:50.60	10.32	6.18	-39.8	-54.4	3.8	1.49e+00	0	52	104	0	51	19092
2026-01-01 00:37:51.61	10.27	6.25	-39.8	-54.4	3.8	1.49e+00	0	52	104	0	51	19111
2026-01-01 00:37:52.62	10.22	6.33	-39.7	-54.4	3.8	1.49e+00	0	52	104	0	51	19052
2026-01-01 00:37:53.63	10.18	6.40	-39.8	-54.4	3.8	1.49e+00	0	52	104	0	51	19085
2026-01-01 00:37:54.64	10.13	6.47	-39.8	-54.4	3.8	1.49e+00	0	52	104	0	51	19084
2026-01-01 00:37:55.65	10.08	6.54	-39.8	-54.4	3.8	1.49e+00	0	52	104	0	51	19074
2026-01-01 00:37:56.67	10.03	6.62	-39.8	-54.4	3.8	1.49e+00	0	53	104	0	51	19096
2026-01-01 00:37:57.68	9.99	6.69	-39.8	-54.4	3.8	1.49e+00	0	52	104	0	51	19107
2026-01-01 00:37:58.69	9.94	6.76	-39.7	-54.4	3.8	1.49e+00	0	53	104	0	51	19107
2026-01-01 00:37:59.70	9.89	6.84	-39.8	-54.4	3.8	1.49e+00	0	52	104	0	51	19091
2026-01-01 00:38:00.71	9.84	6.91	-39.8	-54.4	3.8	1.49e+00	0	52	104	0	51	19085
2026-01-01 00:38:01.72	9.79	6.98	-39.8	-54.4	3.8	1.49e+00	0	53	104	0	51	19164
2026-01-01 00:38:02.73	9.74	7.06	-39.7	-54.4	3.8	1.49e+00	0	53	104	0	51	19120
2026-01-01 00:38:03.74	9.69	7.13	-39.7	-54.4	3.8	1.49e+00	0	53	104	0	51	19110
2026-01-01 00:38:04.75	9.64	7.21	-39.8	-54.4	3.8	1.49e+00	0	53	104	0	51	19128
2026-01-01 00:38:05.77	9.59	7.28	-39.8	-54.4	3.8	1.49e+00	0	52	104	0	51	19080
2026-01-01 00:38:06.78	9.54	7.36	-39.8	-54.4	3.8	1.49e+00	0	53	104	0	51	19128
2026-01-01 00:38:07.79	9.49	7.43	-39.8	-54.4	3.8	1.49e+00	0	53	104	0	51	19059
2026-01-01 00:38:08.80	9.44	7.51	-39.8	-54.4	3.8	1.49e+00	0	53	104	0	51	19095
2026-01-01 00:38:09.81	9.39	7.58	-39.7	-54.4	3.8	1.49e+00	0	53	104	0	51	19100
2026-01-01 00:38:10.82	9.34	7.66	-39.8	-54.4	3.8	1.49e+00	0	53	104	0	51	19117
2026-01-01 00:38:11.83	9.29	7.73	-39.8	-54.4	3.8	1.49e+00	0	53	104	0	51	19160
2026-01-01 00:38:12.84	9.24	7.81	-39.8	-54.4	3.8	1.49e+00	0	53	104	0	51	19085
2026-01-01 00:38:13.85	9.18	7.89	-39.8	-54.4	3.8	1.49e+00	0	53	104	0	51	19119
2026-01-01 00:38:14.86	9.13	7.96	-39.8	-54.5	3.8	1.49e+00	0	53	104	0	51	19201
2026-01-01 00:38:15.88	9.08	8.04	-39.8	-54.4	3.8	1.49e+00	0	53	104	0	51	19086
2026-01-01 00:38:16.88	9.03	8.12	-39.8	-54.4	3.8	1.49e+00	0	53	104	0	51	18956
2026-01-01 00:38:17.90	8.97	8.19	-39.8	-54.4	3.8	1.49e+00	0	53	104	0	51	19016
2026-01-01 00:38:18.91	8.92	8.27	-39.8	-54.4	3.8	1.49e+00	0	53	104	0	51	19091
2026-01-01 00:38:19.92	8.86	8.35	-39.8	-54.4	3.8	1.49e+00	0	53	104	0	51	19006
2026-01-01 00:38:20.93	8.81	8.43	-39.7	-54.4	3.8	1.49e+00	0	53	104	0	51	18952
2026-01-01 00:38:21.94	8.76	8.50	-39.8	-54.3	3.8	1.49e+00	0	53	104	0	51	18939
2026-01-01 00:38:22.95	8.70	8.58	-39.7	-54.3	3.8	1.49e+00	0	53	104	0	51	18895
2026-01-01 00:38:23.96	8.65	8.66	-39.8	-54.4	3.8	1.49e+00	0	54	104	0	51	18962
2026-01-01 00:38:24.97	8.59	8.74	-39.8	-54.5	3.8	1.49e+00	0	53	104	0	51	19244
2026-01-01 00:38:25.98	8.53	8.82	-39.8	-54.4	3.8	1.49e+00	0	53	104	0	51	18996
2026-01-01 00:38:26.99	8.48	8.90	-39.8	-54.5	3.8	1.49e+00	0	53	104	0	51	19221
2026-01-01 00:38:28.00	8.42	8.98	-39.7	-54.3	3.8	1.49e+00	0	53	104	0	51	18875
2026-01-01 00:38:29.01	8.36	9.06	-39.7	-54.3	3.8	1.49e+00	0	54	104	0	51	18799
2026-01-01 00:38:30.02	8.31	9.14	-39.7	-54.3	3.8	1.49e+00	0	53	104	0	51	18936
2026-01-01 00:38:31.03	8.25	9.22	-39.7	-54.3	3.8	1.49e+00	0	53	104	0	51	18833
2026-01-01 00:38:32.04	8.19	9.30	-39.8	-54.4	3.8	1.49e+00	0	54	104	0	51	18974
2026-01-01 00:38:33.05	8.13	9.38	-39.8	-54.4	3.8	1.49e+00	0	53	104	0	51	19037
2026-01-01 00:38:34.05	8.08	9.46	-39.8	-54.4	3.8	1.49e+00	0	54	104	0	51	19040
2026-01-01 00:38:35.07	8.02	9.54	-39.7	-54.3	3.8	1.49e+00	0	54	104	0	51	18899
2026-01-01 00:38:36.08	7.96	9.62	-39.8	-54.4	3.8	1.49e+00	0	54	104	0	51	18958
2026-01-01 00:38:37.09	7.90	9.70	-39.7	-54.3	3.8	1.49e+00	0	54	104	0	51	18779
2026-01-01 00:38:38.10	7.84	9.78	-39.8	-54.4	3.8	1.49e+00	0	54	104	0	51	18987
2026-01-01 00:38:39.11	7.78	9.86	-39.7	-54.2	3.8	1.49e+00	0	54	104	0	51	18725
2026-01-01 00:38:40.12	7.72	9.95	-39.9	-54.5	3.8	1.49e+00	0	54	104	0	51	19169
2026-01-01 00:38:41.13	7.65	10.03	-39.7	-54.3	3.8	1.49e+00	0	54	104	0	51	18845
2026-01-01 00:38:42.14	7.59	10.11	-40.0	-54.4	3.8	1.49e+00	0	54	104	0	51	19138
2026-01-01 00:38:43.15	7.53	10.19	-39.7	-54.3	3.8	1.49e+00	0	54	104	0	51	18781
2026-01-01 00:38:44.16	7.47	10.28	-39.9	-54.3	3.8	1.49e+00	0	54	104	0	51	18883
2026-01-01 00:38:45.17	7.41	10.36	-39.7	-54.3	3.8	1.49e+00	0	54	104	0	51	18777
2026-01-01 00:38:46.18	7.34	10.44	-40.0	-54.3	3.8	1.49e+00	0	54	104	0	51	18935
2026-01-01 00:38:47.19	7.28	10.53	-39.7	-54.3	3.8	1.49e+00	0	54	104	0	51	18852
2026-01-01 00:38:48.20	7.22	10.61	-40.2	-54.6	3.8	1.49e+00	0	54	104	0	51	19430
2026-01-01 00:38:49.22	7.15	10.70	-39.8	-54.3	3.8	1.49e+00	0	54	104	0	51	18839
2026-01-01 00:38:50.23	7.09	10.78	-40.3	-54.6	3.8	1.49e+00	0	54	104	0	51	19457
2026-01-01 00:38:51.24	7.02	10.86	-39.8	-54.3	3.8	1.49e+00	0	54	104	0	51	18800
2026-01-01 00:38:52.25	6.96	10.95	-40.4	-53.5	3.8	1.49e+00	0	54	104	0	52	16248
2026-01-01 00:38:53.26	6.89	11.03	-39.8	-54.4	3.8	1.49e+00	0	54	104	0	51	19002
2026-01-01 00:38:54.27	6.83	11.12	-40.5	-52.4	4.0	1.48e+00	0	54	104	0	51	15205
2026-01-01 00:38:55.28	6.76	11.21	-40.7	-51.8	4.2	1.43e+00	0	54	0	0	51	14114
2026-01-01 00:38:56.29	6.69	11.29	-40.9	-51.2	4.5	1.22e+00	0	54	0	1048576	52	12492
2026-01-01 00:38:57.30	6.62	11.38	-41.2	-50.6	5.0	7.50e-01	0	54	0	3145728	52	11645
2026-01-01 00:38:58.31	6.56	11.46	-41.4	-50.2	5.4	6.00e-01	0	54	0	4194304	53	10507
2026-01-01 00:38:59.32	6.49	11.55	-41.2	-49.7	5.7	4.78e-01	0	54	0	6291456	53	9888
2026-01-01 00:39:00.33	6.42	11.64	-41.1	-49.2	6.0	3.38e-01	0	55	0	8388608	53	9318
2026-01-01 00:39:01.34	6.35	11.73	-40.9	-48.6	6.5	2.59e-01	0	54	0	10485760	53	8724
2026-01-01 00:39:02.35	6.28	11.81	-41.0	-48.1	7.2	1.99e-01	0	55	0	12582912	53	8178
2026-01-01 00:39:03.35	6.21	11.90	-41.0	-47.0	8.5	8.65e-02	0	54	0	13631488	53	7222
2026-01-01 00:39:04.36	6.14	11.99	-40.8	-46.0	9.8	1.37e-02	0	55	0	15728640	53	6479
2026-01-01 00:39:05.37	6.07	12.08	-40.7	-45.2	10.9	4.11e-03	0	55	0	17825792	53	5891
2026-01-01 00:39:06.38	6.00	12.17	-40.4	-44.3	12.1	8.58e-04	0	54	0	19922944	52	5646
2026-01-01 00:39:07.39	5.93	12.25	-40.4	-44.2	12.5	1.47e-04	0	55	0	22020096	52	5530
2026-01-01 00:39:08.40	5.86	12.34	-40.3	-44.0	12.8	1.38e-04	0	55	0	23068672	52	5413
2026-01-01 00:39:09.41	5.78	12.43	-40.1	-43.5	13.4	2.82e-05	0	55	0	25165824	51	5426
2026-01-01 00:39:10.42	5.71	12.52	-39.9	-43.1	13.8	5.30e-06	0	54	0	27262976	51	5218
2026-01-01 00:39:11.44	5.64	12.61	-39.7	-42.8	14.1	1.50e-06	0	55	0	29360128	51	5036
2026-01-01 00:39:12.45	5.56	12.70	-39.4	-42.3	14.7	1.50e-06	0	55	0	31457280	50	4992
2026-01-01 00:39:13.46	5.49	12.80	-39.4	-42.3	14.7	0.00e+00	0	55	0	32505856	50	5028
2026-01-01 00:39:14.47	5.41	12.89	-39.2	-42.0	15.0	0.00e+00	0	55	0	34603008	50	4853
2026-01-01 00:39:15.47	5.34	12.98	-39.6	-42.6	14.5	0.00e+00	0	55	0	36700160	50	5161
2026-01-01 00:39:16.48	5.26	13.07	-39.6	-42.6	14.5	7.00e-07	0	55	0	38797312	50	5164
2026-01-01 00:39:17.49	5.18	13.16	-39.5	-42.5	14.6	0.00e+00	0	55	0	40894464	50	5103
2026-01-01 00:39:18.50	5.11	13.25	-39.6	-42.5	14.6	0.00e+00	0	55	0	42991616	50	5131
2026-01-01 00:39:19.51	5.03	13.34	-39.3	-42.1	15.0	0.00e+00	0	55	0	44040192	50	4879
2026-01-01 00:39:20.52	4.95	13.44	-38.9	-41.5	15.6	0.00e+00	0	55	0	46137344	49	4845
2026-01-01 00:39:21.53	4.87	13.53	-38.9	-41.4	15.6	0.00e+00	0	55	0	48234496	49	4813
2026-01-01 00:39:22.54	4.79	13.62	-38.9	-41.5	15.6	0.00e+00	0	55	0	50331648	49	4842
2026-01-01 00:39:23.55	4.72	13.72	-38.8	-41.4	15.7	0.00e+00	0	55	0	52428800	49	4778
2026-01-01 00:39:24.56	4.64	13.81	-38.9	-41.5	15.6	0.00e+00	0	55	0	53477376	49	4851
2026-01-01 00:39:25.57	4.55	13.91	-38.9	-41.4	15.7	0.00e+00	0	55	0	55574528	49	4802
2026-01-01 00:39:26.58	4.47	14.00	-39.0	-41.6	15.6	0.00e+00	0	55	0	57671680	49	4892
2026-01-01 00:39:27.59	4.39	14.10	-39.1	-41.7	15.5	0.00e+00	0	55	0	59768832	49	4968
2026-01-01 00:39:28.60	4.31	14.19	-39.2	-41.9	15.4	0.00e+00	0	55	0	61865984	49	5071
2026-01-01 00:39:29.61	4.23	14.29	-39.2	-41.8	15.5	0.00e+00	0	55	0	62914560	49	5016
2026-01-01 00:39:30.62	4.14	14.38	-39.1	-41.7	15.6	0.00e+00	0	55	0	65011712	49	4945
2026-01-01 00:39:31.63	4.06	14.48	-39.0	-41.5	15.8	0.00e+00	0	55	0	67108864	49	4818
2026-01-01 00:39:32.64	3.97	14.57	-38.9	-41.4	15.9	0.00e+00	0	55	0	69206016	49	4761
2026-01-01 00:39:33.65	3.89	14.67	-39.0	-41.5	15.9	0.00e+00	0	55	0	71303168	49	4832
2026-01-01 00:39:34.66	3.80	14.77	-39.1	-41.7	15.7	0.00e+00	0	55	0	72351744	49	4928
2026-01-01 00:39:35.67	3.72	14.87	-39.3	-41.8	15.5	0.00e+00	0	55	0	74448896	49	5040
2026-01-01 00:39:36.68	3.63	14.96	-39.1	-41.7	15.7	0.00e+00	0	55	0	76546048	49	4939
2026-01-01 00:39:37.69	3.54	15.06	-39.1	-41.6	15.8	0.00e+00	0	55	0	78643200	49	4908
2026-01-01 00:39:38.70	3.46	15.16	-39.2	-41.8	15.6	0.00e+00	0	55	0	80740352	49	5000
2026-01-01 00:39:39.71	3.37	15.26	-39.3	-41.9	15.5	0.00e+00	0	55	0	81788928	49	5060
2026-01-01 00:39:40.72	3.28	15.36	-39.2	-41.7	15.7	0.00e+00	0	55	0	83886080	49	4971
2026-01-01 00:39:41.73	3.19	15.46	-39.2	-41.7	15.8	0.00e+00	0	55	0	85983232	49	4946
2026-01-01 00:39:42.74	3.10	15.56	-39.3	-41.8	15.6	0.00e+00	0	55	0	88080384	49	5033
2026-01-01 00:39:43.75	3.01	15.66	-39.5	-42.1	15.3	0.00e+00	0	55	0	90177536	49	5200
2026-01-01 00:39:44.76	2.91	15.76	-39.2	-41.8	15.7	0.00e+00	0	55	0	91226112	49	4984
2026-01-01 00:39:45.77	2.82	15.86	-39.3	-41.8	15.7	0.00e+00	0	55	0	93323264	49	5010
2026-01-01 00:39:46.78	2.73	15.96	-39.3	-41.9	15.6	0.00e+00	0	55	0	95420416	49	5052
2026-01-01 00:39:47.79	2.63	16.06	-39.2	-41.7	15.8	0.00e+00	0	55	0	97517568	49	4961
2026-01-01 00:39:48.80	2.54	16.16	-39.2	-41.7	15.8	0.00e+00	0	55	0	99614720	49	4936
2026-01-01 00:39:49.81	2.45	16.26	-39.2	-41.7	15.7	0.00e+00	0	55	0	100663296	49	4979
2026-01-01 00:39:50.82	2.35	16.37	-39.1	-41.6	15.8	0.00e+00	0	55	0	102760448	49	4898
2026-01-01 00:39:51.83	2.25	16.47	-39.3	-41.8	15.7	0.00e+00	0	55	0	104857600	49	5017
2026-01-01 00:39:52.83	2.16	16.57	-39.2	-41.7	15.7	0.00e+00	0	56	0	106954752	49	4958
2026-01-01 00:39:53.84	2.06	16.67	-39.3	-41.8	15.7	0.00e+00	0	56	0	109051904	49	5005
2026-01-01 00:39:54.85	1.96	16.78	-39.0	-41.5	16.0	0.00e+00	0	56	0	111149056	49	4818
2026-01-01 00:39:55.86	1.86	16.88	-39.1	-41.6	15.9	0.00e+00	0	55	0	112197632	49	4873
2026-01-01 00:39:56.87	1.76	16.99	-39.2	-41.8	15.7	0.00e+00	0	56	0	114294784	49	4996
2026-01-01 00:39:57.88	1.66	17.09	-39.1	-41.7	15.8	0.00e+00	0	56	0	116391936	49	4927
2026-01-01 00:39:58.89	1.56	17.20	-39.3	-41.8	15.7	0.00e+00	0	56	0	118489088	49	5035
2026-01-01 00:39:59.90	1.46	17.30	-39.6	-42.3	15.2	0.00e+00	0	55	0	120586240	49	5322
2026-01-01 00:40:00.91	1.35	17.41	-39.5	-42.1	15.4	0.00e+00	0	55	0	121634816	49	5206
2026-01-01 00:40:01.92	1.25	17.52	-39.4	-42.0	15.5	0.00e+00	0	55	0	123731968	49	5137
2026-01-01 00:40:02.93	1.15	17.62	-39.4	-42.1	15.4	0.00e+00	0	55	0	125829120	50	4881
2026-01-01 00:40:03.94	1.04	17.73	-39.6	-42.4	15.2	0.00e+00	0	55	0	127926272	50	5047
2026-01-01 00:40:04.95	0.94	17.84	-39.8	-42.6	15.0	0.00e+00	0	56	0	130023424	50	5201
2026-01-01 00:40:05.96	0.83	17.94	-39.6	-42.3	15.2	0.00e+00	0	56	0	131072000	50	5014
2026-01-01 00:40:06.97	0.72	18.05	-39.7	-42.5	15.1	0.00e+00	0	56	0	133169152	50	5104
2026-01-01 00:40:07.98	0.61	18.16	-39.8	-42.5	15.0	0.00e+00	0	56	0	135266304	50	5155
2026-01-01 00:40:08.99	0.50	18.27	-39.8	-42.6	15.0	7.00e-07	0	56	0	137363456	50	5214
2026-01-01 00:40:10.00	0.39	18.38	-39.6	-42.2	15.4	1.50e-06	0	56	0	139460608	50	4952
2026-01-01 00:40:11.01	0.28	18.49	-39.5	-42.1	15.5	7.00e-07	0	56	0	140509184	50	4906
2026-01-01 00:40:12.02	0.17	18.60	-39.6	-42.2	15.4	0.00e+00	0	56	0	142606336	50	4941
2026-01-01 00:40:13.03	0.06	18.71	-39.7	-42.4	15.2	0.00e+00	0	56	0	144703488	50	5071
2026-01-01 00:40:14.04	359.95	18.82	-39.4	-41.8	15.8	0.00e+00	0	56	0	146800640	50	4751
2026-01-01 00:40:15.05	359.83	18.93	-39.5	-42.0	15.6	0.00e+00	0	56	0	148897792	50	4857
2026-01-01 00:40:16.06	359.72	19.04	-39.4	-41.9	15.7	0.00e+00	0	56	0	149946368	50	4799
2026-01-01 00:40:17.07	359.60	19.15	-39.6	-42.1	15.5	0.00e+00	0	56	0	152043520	50	4885
2026-01-01 00:40:18.08	359.48	19.27	-39.8	-42.5	15.2	0.00e+00	0	56	0	154140672	50	5127
2026-01-01 00:40:19.09	359.37	19.38	-39.6	-42.1	15.5	0.00e+00	0	56	0	156237824	50	4918
2026-01-01 00:40:20.10	359.25	19.49	-39.7	-42.3	15.3	0.00e+00	0	56	0	158334976	50	5039
2026-01-01 00:40:21.11	359.13	19.61	-40.0	-42.8	14.8	0.00e+00	0	56	0	159383552	50	5339
2026-01-01 00:40:22.12	359.01	19.72	-39.9	-42.6	15.0	0.00e+00	0	56	0	161480704	50	5215
2026-01-01 00:40:23.13	358.89	19.83	-39.7	-42.4	15.2	0.00e+00	0	56	0	163577856	50	5055
2026-01-01 00:40:24.14	358.77	19.95	-39.8	-42.4	15.2	0.00e+00	0	56	0	165675008	50	5090
2026-01-01 00:40:25.15	358.64	20.06	-39.8	-42.4	15.2	0.00e+00	0	56	0	167772160	50	5091
2026-01-01 00:40:26.16	358.52	20.18	-39.9	-42.5	15.2	0.00e+00	0	56	0	168820736	50	5148
2026-01-01 00:40:27.17	358.39	20.30	-39.7	-42.4	15.3	0.00e+00	0	56	0	170917888	50	5053
2026-01-01 00:40:28.18	358.27	20.41	-39.8	-42.5	15.2	7.00e-07	0	56	0	173015040	50	5101
2026-01-01 00:40:29.20	358.14	20.53	-39.8	-42.4	15.2	0.00e+00	0	56	0	175112192	50	5084
2026-01-01 00:40:30.21	358.01	20.65	-39.5	-42.0	15.6	0.00e+00	0	56	0	177209344	50	4868
2026-01-01 00:40:31.21	357.88	20.76	-39.4	-41.9	15.8	0.00e+00	0	56	0	179306496	50	4791
2026-01-01 00:40:32.22	357.75	20.88	-39.2	-41.7	16.0	0.00e+00	0	56	0	180355072	50	4655
2026-01-01 00:40:33.23	357.62	21.00	-39.3	-41.7	16.0	0.00e+00	0	56	0	182452224	50	4693
2026-01-01 00:40:34.24	357.49	21.12	-39.3	-41.8	16.0	0.00e+00	0	56	0	184549376	50	4728
2026-01-01 00:40:35.25	357.36	21.24	-39.3	-41.7	16.0	0.00e+00	0	56	0	186646528	50	4663
2026-01-01 00:40:36.26	357.22	21.36	-39.4	-41.9	15.8	0.00e+00	0	56	0	188743680	50	4776
2026-01-01 00:40:37.27	357.09	21.47	-39.4	-41.9	15.9	0.00e+00	0	56	0	189792256	50	4766
2026-01-01 00:40:38.28	356.95	21.60	-39.5	-42.1	15.6	0.00e+00	0	56	0	191889408	50	4884
2026-01-01 00:40:39.29	356.81	21.72	-39.6	-42.2	15.5	0.00e+00	0	56	0	193986560	50	4976
2026-01-01 00:40:40.30	356.68	21.84	-39.7	-42.3	15.4	0.00e+00	0	56	0	196083712	50	5006
2026-01-01 00:40:41.30	356.54	21.96	-39.6	-42.2	15.5	0.00e+00	0	56	0	198180864	50	4953
2026-01-01 00:40:42.31	356.40	22.08	-39.8	-42.5	15.2	0.00e+00	0	56	0	199229440	50	5146
2026-01-01 00:40:43.32	356.25	22.20	-39.8	-42.5	15.2	0.00e+00	0	56	0	201326592	50	5130
2026-01-01 00:40:44.33	356.11	22.32	-39.9	-42.6	15.1	0.00e+00	0	56	0	203423744	50	5197
2026-01-01 00:40:45.34	355.97	22.45	-40.0	-42.7	15.0	0.00e+00	0	56	0	205520896	50	5261
2026-01-01 00:40:46.35	355.82	22.57	-40.1	-42.9	14.8	7.00e-07	0	56	0	207618048	50	5385
2026-01-01 00:40:47.36	355.68	22.69	-40.0	-42.8	15.0	7.00e-07	0	56	0	208666624	50	5313
2026-01-01 00:40:48.37	355.53	22.82	-39.9	-42.6	15.1	0.00e+00	0	56	0	210763776	50	5199
2026-01-01 00:40:49.38	355.38	22.94	-39.8	-42.5	15.2	0.00e+00	0	56	0	212860928	50	5155
2026-01-01 00:40:50.39	355.23	23.07	-39.8	-42.6	15.2	0.00e+00	0	56	0	214958080	50	5167
2026-01-01 00:40:51.40	355.08	23.19	-39.8	-42.5	15.3	0.00e+00	0	56	0	217055232	50	5125
2026-01-01 00:40:52.41	354.92	23.32	-39.8	-42.4	15.3	0.00e+00	0	56	0	218103808	50	5086
2026-01-01 00:40:53.42	354.77	23.44	-39.7	-42.4	15.4	0.00e+00	0	56	0	220200960	50	5071
2026-01-01 00:40:54.43	354.62	23.57	-39.9	-42.6	15.2	0.00e+00	0	56	0	222298112	50	5196
2026-01-01 00:40:55.44	354.46	23.70	-39.8	-42.5	15.1	0.00e+00	0	56	0	224395264	50	5148
2026-01-01 00:40:56.45	354.30	23.82	-40.0	-42.8	14.9	0.00e+00	0	56	0	226492416	50	5335
2026-01-01 00:40:57.46	354.14	23.95	-40.1	-43.0	14.8	1.50e-06	0	56	0	227540992	50	5456
2026-01-01 00:40:58.47	353.98	24.08	-40.1	-43.0	14.8	0.00e+00	0	56	0	229638144	50	5421
2026-01-01 00:40:59.48	353.82	24.21	-39.9	-42.7	15.0	0.00e+00	0	56	0	231735296	50	5274
2026-01-01 00:41:00.49	353.66	24.34	-39.9	-42.7	15.0	0.00e+00	0	56	0	233832448	50	5276
2026-01-01 00:41:01.50	353.49	24.47	-39.9	-42.8	15.0	0.00e+00	0	56	0	235929600	50	5283
2026-01-01 00:41:02.51	353.33	24.59	-39.8	-42.6	15.1	0.00e+00	0	56	0	236978176	50	5175
2026-01-01 00:41:03.52	353.16	24.72	-39.8	-42.6	15.2	0.00e+00	0	56	0	239075328	50	5209
2026-01-01 00:41:04.53	352.99	24.86	-40.0	-43.0	14.8	0.00e+00	0	56	0	241172480	50	5414
2026-01-01 00:41:05.54	352.82	24.99	-39.8	-42.6	15.2	0.00e+00	0	56	0	243269632	50	5195
2026-01-01 00:41:06.55	352.65	25.12	-39.8	-42.6	15.2	0.00e+00	0	56	0	245366784	50	5170
2026-01-01 00:41:07.56	352.48	25.25	-39.7	-42.5	15.3	0.00e+00	0	56	0	247463936	50	5104
2026-01-01 00:41:08.57	352.30	25.38	-39.6	-42.3	15.5	0.00e+00	0	56	0	248512512	50	5018
2026-01-01 00:41:09.58	352.12	25.51	-39.9	-42.7	15.1	0.00e+00	0	56	0	250609664	50	5253
2026-01-01 00:41:10.58	351.95	25.64	-39.7	-42.4	15.4	0.00e+00	0	56	0	252706816	50	5082
2026-01-01 00:41:11.60	351.77	25.78	-39.7	-42.4	15.4	0.00e+00	0	56	0	254803968	50	5090
2026-01-01 00:41:12.61	351.59	25.91	-39.9	-42.7	15.1	0.00e+00	0	56	0	256901120	50	5255
2026-01-01 00:41:13.62	351.41	26.04	-39.8	-42.5	15.3	0.00e+00	0	57	0	257949696	50	5137
2026-01-01 00:41:14.63	351.22	26.18	-39.8	-42.6	15.3	0.00e+00	0	56	0	260046848	50	5163
2026-01-01 00:41:15.63	351.04	26.31	-39.7	-42.4	15.4	0.00e+00	0	56	0	262144000	50	5064
2026-01-01 00:41:16.64	350.85	26.44	-39.6	-42.2	15.6	0.00e+00	0	56	0	264241152	50	4982
2026-01-01 00:41:17.65	350.66	26.58	-39.7	-42.3	15.4	0.00e+00	0	56	0	266338304	50	5032
2026-01-01 00:41:18.66	350.47	26.71	-39.8	-42.4	15.4	0.00e+00	0	56	0	267386880	50	5100
2026-01-01 00:41:19.67	350.28	26.85	-39.8	-42.5	15.3	0.00e+00	0	56	0	269484032	50	5138
2026-01-01 00:41:20.68	350.09	26.99	-39.9	-42.7	15.1	0.00e+00	0	56	0	271581184	50	5229
2026-01-01 00:41:21.69	349.89	27.12	-40.0	-42.9	14.9	0.00e+00	0	56	0	273678336	50	5384
2026-01-01 00:41:22.70	349.70	27.26	-40.1	-43.1	14.7	0.00e+00	0	57	0	275775488	51	5174
2026-01-01 00:41:23.71	349.50	27.40	-40.4	-43.5	14.3	2.20e-06	0	56	0	276824064	51	5438
2026-01-01 00:41:24.72	349.30	27.53	-40.4	-43.6	14.2	0.00e+00	0	57	0	278921216	51	5486
2026-01-01 00:41:25.73	349.09	27.67	-40.5	-43.7	14.1	5.30e-06	0	56	0	281018368	51	5537
2026-01-01 00:41:26.74	348.89	27.81	-40.6	-44.0	13.8	3.80e-06	0	56	0	283115520	51	5740
2026-01-01 00:41:27.75	348.69	27.95	-40.8	-44.3	13.4	7.60e-06	0	57	0	285212672	52	5641
2026-01-01 00:41:28.76	348.48	28.08	-40.5	-43.7	14.0	4.50e-06	0	56	0	286261248	52	5269
2026-01-01 00:41:29.77	348.27	28.22	-40.4	-43.6	14.1	7.00e-07	0	57	0	288358400	52	5171
2026-01-01 00:41:30.78	348.06	28.36	-40.1	-43.1	14.7	7.00e-07	0	57	0	290455552	52	4893
2026-01-01 00:41:31.79	347.84	28.50	-40.1	-43.1	14.8	0.00e+00	0	56	0	292552704	52	4871
2026-01-01 00:41:32.79	347.63	28.64	-40.2	-43.2	14.7	0.00e+00	0	57	0	294649856	52	4934
2026-01-01 00:41:33.81	347.41	28.78	-40.4	-43.3	14.5	1.50e-06	0	56	0	295698432	52	5031
2026-01-01 00:41:34.82	347.19	28.92	-40.5	-43.5	14.3	7.00e-07	0	57	0	297795584	52	5135
2026-01-01 00:41:35.83	346.97	29.06	-40.9	-44.3	13.4	7.00e-07	0	57	0	299892736	52	5648
2026-01-01 00:41:36.84	346.75	29.20	-40.8	-44.1	13.7	4.50e-06	0	57	0	301989888	52	5493
2026-01-01 00:41:37.85	346.53	29.34	-40.9	-44.3	13.5	7.60e-06	0	57	0	304087040	52	5619
2026-01-01 00:41:38.86	346.30	29.48	-41.0	-44.5	13.4	2.67e-05	0	57	0	305135616	53	5436
2026-01-01 00:41:39.86	346.07	29.62	-41.0	-44.5	13.3	3.20e-05	0	57	0	307232768	53	5440
2026-01-01 00:41:40.87	345.84	29.76	-40.9	-44.4	13.5	1.60e-05	0	57	0	309329920	53	5365
2026-01-01 00:41:41.88	345.61	29.90	-41.1	-44.7	13.1	1.83e-05	0	57	0	311427072	53	5585
2026-01-01 00:41:42.89	345.38	30.04	-41.3	-45.0	12.8	4.34e-05	0	56	0	313524224	53	5763
2026-01-01 00:41:43.90	345.14	30.18	-41.7	-45.9	11.8	1.68e-04	0	57	0	315621376	54	6040
2026-01-01 00:41:44.91	344.90	30.32	-41.7	-45.9	11.9	3.87e-04	0	57	0	316669952	54	6014
2026-01-01 00:41:45.92	344.66	30.47	-41.7	-46.0	11.9	4.12e-04	0	57	0	318767104	54	6078
2026-01-01 00:41:46.93	344.42	30.61	-41.7	-45.8	12.0	4.81e-04	0	57	0	320864256	54	5978
2026-01-01 00:41:47.94	344.17	30.75	-41.5	-45.5	12.4	2.10e-04	0	56	0	322961408	54	5748
2026-01-01 00:41:48.95	343.92	30.89	-41.3	-45.1	12.9	7.47e-05	0	57	0	325058560	54	5520
2026-01-01 00:41:49.96	343.67	31.03	-41.2	-44.9	12.9	5.41e-05	0	57	0	326107136	54	5386
2026-01-01 00:41:50.97	343.42	31.17	-41.2	-44.9	12.9	4.88e-05	0	57	0	328204288	54	5379
2026-01-01 00:41:51.98	343.17	31.32	-41.3	-45.1	12.7	5.72e-05	0	57	0	330301440	54	5506
2026-01-01 00:41:52.99	342.91	31.46	-41.8	-46.2	11.7	2.66e-04	0	57	0	332398592	54	6209
2026-01-01 00:41:54.00	342.65	31.60	-42.0	-46.5	11.4	6.20e-04	0	57	0	334495744	54	6490
2026-01-01 00:41:55.01	342.39	31.74	-42.0	-46.6	11.2	1.52e-03	0	57	0	335544320	54	6519
2026-01-01 00:41:56.02	342.13	31.89	-42.0	-46.4	11.4	1.14e-03	0	57	0	337641472	54	6395
2026-01-01 00:41:57.03	341.86	32.03	-41.8	-45.9	11.9	3.62e-04	0	57	0	339738624	54	6043
2026-01-01 00:41:58.03	341.60	32.17	-41.6	-45.4	12.5	6.71e-05	0	57	0	341835776	54	5710
2026-01-01 00:41:59.04	341.32	32.31	-41.5	-45.2	12.8	5.64e-05	0	57	0	343932928	54	5541
2026-01-01 00:42:00.05	341.05	32.45	-41.5	-45.1	12.7	9.46e-05	0	57	0	344981504	54	5522
2026-01-01 00:42:01.06	340.78	32.60	-41.7	-45.6	12.3	6.10e-05	0	57	0	347078656	54	5846
2026-01-01 00:42:02.07	340.50	32.74	-42.0	-46.3	11.6	2.59e-04	0	57	0	349175808	54	6339
2026-01-01 00:42:03.08	340.22	32.88	-41.8	-45.9	12.0	3.24e-04	0	57	0	351272960	54	6045
2026-01-01 00:42:04.09	339.94	33.02	-41.8	-45.9	12.0	2.82e-04	0	57	0	353370112	54	6010
2026-01-01 00:42:05.10	339.65	33.16	-41.4	-45.0	13.0	8.54e-05	0	57	0	354418688	54	5414
2026-01-01 00:42:06.11	339.36	33.30	-40.9	-44.1	13.8	2.05e-05	0	57	0	356515840	53	5211
2026-01-01 00:42:07.12	339.07	33.45	-40.7	-43.8	14.1	3.00e-06	0	57	0	358612992	53	5026
2026-01-01 00:42:08.13	338.78	33.59	-40.4	-43.3	14.6	2.20e-06	0	57	0	360710144	52	5011
2026-01-01 00:42:09.14	338.48	33.73	-40.3	-43.2	14.7	0.00e+00	0	57	0	362807296	52	4936
2026-01-01 00:42:10.15	338.19	33.87	-40.3	-43.1	14.8	0.00e+00	0	57	0	363855872	52	4885
2026-01-01 00:42:11.16	337.88	34.01	-40.5	-43.5	14.4	7.00e-07	0	57	0	365953024	52	5137
2026-01-01 00:42:12.17	337.58	34.15	-40.6	-43.7	14.3	0.00e+00	0	57	0	368050176	52	5271
2026-01-01 00:42:13.18	337.28	34.29	-40.6	-43.8	14.1	3.00e-06	0	57	0	370147328	52	5316
2026-01-01 00:42:14.19	336.97	34.43	-40.7	-43.9	14.0	2.20e-06	0	57	0	372244480	52	5392
2026-01-01 00:42:15.20	336.66	34.57	-40.6	-43.8	14.2	0.00e+00	0	57	0	373293056	52	5301
2026-01-01 00:42:16.21	336.34	34.71	-40.4	-43.4	14.5	3.80e-06	0	57	0	375390208	52	5065
2026-01-01 00:42:17.22	336.02	34.85	-40.5	-43.5	14.5	7.00e-07	0	57	0	377487360	52	5137
2026-01-01 00:42:18.23	335.70	34.98	-40.5	-43.6	14.2	0.00e+00	0	57	0	379584512	52	5169
2026-01-01 00:42:19.24	335.38	35.12	-40.5	-43.7	14.2	7.00e-07	0	57	0	381681664	52	5220
2026-01-01 00:42:20.25	335.06	35.26	-40.7	-43.9	14.0	3.00e-06	0	57	0	383778816	52	5382
2026-01-01 00:42:21.26	334.73	35.40	-40.8	-44.1	13.8	3.00e-06	0	57	0	384827392	52	5469
2026-01-01 00:42:22.27	334.40	35.53	-40.8	-44.1	13.9	6.10e-06	0	57	0	386924544	52	5488
2026-01-01 00:42:23.28	334.07	35.67	-40.9	-44.2	13.7	5.30e-06	0	57	0	389021696	52	5573
2026-01-01 00:42:24.29	333.73	35.80	-40.7	-43.9	14.1	5.30e-06	0	57	0	391118848	52	5347
2026-01-01 00:42:25.30	333.39	35.94	-40.8	-44.1	13.9	3.00e-06	0	57	0	393216000	52	5491
2026-01-01 00:42:26.31	333.05	36.07	-40.9	-44.4	13.6	6.80e-06	0	57	0	394264576	52	5685
2026-01-01 00:42:27.32	332.70	36.20	-41.2	-44.9	13.0	1.60e-05	0	57	0	396361728	53	5703
2026-01-01 00:42:28.33	332.36	36.34	-41.4	-45.3	12.6	1.11e-04	0	57	0	398458880	53	5980
2026-01-01 00:42:29.34	332.01	36.47	-41.4	-45.3	12.6	2.23e-04	0	57	0	400556032	53	5985
2026-01-01 00:42:30.34	331.66	36.60	-41.7	-46.0	11.8	3.11e-04	0	57	0	402653184	53	6469
2026-01-01 00:42:31.35	331.30	36.73	-41.6	-46.1	11.8	5.23e-04	0	57	0	403701760	54	6140
2026-01-01 00:42:32.36	330.94	36.86	-41.7	-46.2	11.6	1.05e-03	0	57	0	405798912	54	6272
2026-01-01 00:42:33.37	330.58	36.99	-41.9	-46.8	11.0	1.18e-03	0	57	0	407896064	54	6711
2026-01-01 00:42:34.38	330.22	37.12	-41.9	-46.9	10.9	9.85e-04	0	57	0	409993216	54	6724
2026-01-01 00:42:35.39	329.85	37.25	-41.4	-45.7	12.1	6.19e-04	0	57	0	412090368	54	5863
2026-01-01 00:42:36.40	329.48	37.37	-41.1	-45.1	12.8	2.07e-04	0	57	0	413138944	54	5470
2026-01-01 00:42:37.41	329.10	37.50	-41.1	-44.8	12.9	2.89e-05	0	57	0	415236096	53	5650
2026-01-01 00:42:38.42	328.73	37.62	-41.0	-44.7	13.2	2.13e-05	0	57	0	417333248	53	5551
2026-01-01 00:42:39.43	328.35	37.75	-40.9	-44.5	13.3	2.51e-05	0	57	0	419430400	53	5436
2026-01-01 00:42:40.44	327.97	37.87	-40.9	-44.5	13.3	6.10e-06	0	57	0	421527552	53	5447
2026-01-01 00:42:41.45	327.58	37.99	-40.6	-44.0	13.8	1.14e-05	0	57	0	422576128	53	5115
2026-01-01 00:42:42.46	327.19	38.11	-40.4	-43.5	14.3	2.20e-06	0	57	0	424673280	52	5153
2026-01-01 00:42:43.47	326.80	38.23	-40.7	-44.0	13.9	1.50e-06	0	57	0	426770432	52	5408
2026-01-01 00:42:44.48	326.41	38.35	-40.8	-44.3	13.6	8.30e-06	0	57	0	428867584	52	5627
2026-01-01 00:42:45.49	326.01	38.47	-40.7	-44.1	13.7	1.90e-05	0	57	0	430964736	52	5497
2026-01-01 00:42:46.50	325.61	38.59	-40.3	-43.5	14.4	0.00e+00	0	57	0	432013312	52	5117
2026-01-01 00:42:47.51	325.21	38.70	-40.1	-43.1	14.9	0.00e+00	0	57	0	434110464	51	5201
2026-01-01 00:42:48.52	324.80	38.81	-39.4	-42.0	15.9	0.00e+00	0	57	0	436207616	50	4831
2026-01-01 00:42:49.53	324.39	38.93	-39.4	-42.0	15.9	0.00e+00	0	57	0	438304768	50	4848
2026-01-01 00:42:50.54	323.98	39.04	-39.4	-42.0	15.9	0.00e+00	0	57	0	440401920	50	4854
2026-01-01 00:42:51.55	323.57	39.15	-39.8	-42.6	15.3	0.00e+00	0	57	0	441450496	50	5211
2026-01-01 00:42:52.56	323.15	39.26	-40.2	-43.3	14.6	0.00e+00	0	57	0	443547648	51	5300
2026-01-01 00:42:53.57	322.73	39.36	-40.3	-43.6	14.3	0.00e+00	0	57	0	445644800	51	5475
2026-01-01 00:42:54.58	322.31	39.47	-40.4	-43.8	14.2	1.50e-06	0	57	0	447741952	51	5611
2026-01-01 00:42:55.59	321.89	39.57	-39.9	-43.0	14.9	1.50e-06	0	57	0	449839104	51	5152
2026-01-01 00:42:56.60	321.46	39.68	-39.9	-43.0	14.9	0.00e+00	0	57	0	450887680	51	5114
2026-01-01 00:42:57.61	321.03	39.78	-39.7	-42.7	15.1	0.00e+00	0	57	0	452984832	51	4960
2026-01-01 00:42:58.62	320.59	39.88	-39.7	-42.5	15.3	0.00e+00	0	57	0	455081984	51	4868
2026-01-01 00:42:59.63	320.16	39.98	-39.3	-42.1	15.8	0.00e+00	0	57	0	457179136	50	4871
2026-01-01 00:43:00.64	319.72	40.07	-39.4	-42.1	15.8	0.00e+00	0	57	0	459276288	50	4912
2026-01-01 00:43:01.65	319.28	40.17	-39.6	-42.5	15.3	0.00e+00	0	57	0	461373440	50	5114
2026-01-01 00:43:02.66	318.84	40.26	-40.3	-43.7	14.3	0.00e+00	0	57	0	462422016	51	5542
2026-01-01 00:43:03.67	318.39	40.35	-39.9	-43.1	14.8	7.00e-07	0	57	0	464519168	51	5169
2026-01-01 00:43:04.68	317.94	40.44	-39.4	-42.3	15.5	0.00e+00	0	57	0	466616320	50	4987
2026-01-01 00:43:05.68	317.49	40.53	-38.9	-41.4	16.4	0.00e+00	0	57	0	468713472	49	4775
2026-01-01 00:43:06.69	317.04	40.62	-38.6	-40.9	16.9	0.00e+00	0	57	0	470810624	49	4527
2026-01-01 00:43:07.70	316.58	40.70	-38.5	-40.8	17.1	0.00e+00	0	57	0	471859200	48	4734
2026-01-01 00:43:08.71	316.12	40.78	-38.3	-40.6	17.2	0.00e+00	0	57	0	473956352	48	4630
2026-01-01 00:43:09.73	315.66	40.86	-37.7	-39.8	17.8	0.00e+00	0	57	0	476053504	47	4483
2026-01-01 00:43:10.74	315.20	40.94	-37.6	-39.7	18.0	0.00e+00	0	57	0	478150656	47	4399
2026-01-01 00:43:11.74	314.73	41.02	-37.8	-39.9	17.8	0.00e+00	0	57	0	480247808	47	4537
2026-01-01 00:43:12.76	314.26	41.09	-38.2	-40.4	17.4	0.00e+00	0	57	0	481296384	47	4782
2026-01-01 00:43:13.77	313.79	41.17	-38.4	-40.8	16.9	0.00e+00	0	57	0	483393536	47	5022
2026-01-01 00:43:14.78	313.32	41.24	-38.7	-41.1	16.7	0.00e+00	0	57	0	485490688	48	4925
2026-01-01 00:43:15.79	312.85	41.31	-38.9	-41.3	16.5	0.00e+00	0	57	0	487587840	48	5033
2026-01-01 00:43:16.80	312.37	41.37	-39.2	-41.8	16.1	0.00e+00	0	57	0	489684992	49	5009
2026-01-01 00:43:17.81	311.89	41.44	-39.6	-42.3	15.6	0.00e+00	0	57	0	490733568	49	5310
2026-01-01 00:43:18.82	311.41	41.50	-39.5	-42.2	15.6	0.00e+00	0	57	0	492830720	49	5246
2026-01-01 00:43:19.82	310.94	41.56	-39.8	-42.6	15.3	0.00e+00	0	57	0	494927872	50	5202
2026-01-01 00:43:20.84	310.45	41.62	-39.8	-42.7	15.2	0.00e+00	0	57	0	497025024	50	5274
2026-01-01 00:43:21.85	309.96	41.67	-40.2	-43.3	14.7	0.00e+00	0	57	0	499122176	50	5648
2026-01-01 00:43:22.86	309.48	41.73	-40.3	-43.5	14.4	2.20e-06	0	57	0	500170752	51	5441
2026-01-01 00:43:23.87	308.99	41.78	-40.1	-43.2	14.7	1.50e-06	0	57	0	502267904	51	5277
2026-01-01 00:43:24.88	308.50	41.82	-39.6	-42.3	15.7	0.00e+00	0	57	0	504365056	51	4730
2026-01-01 00:43:25.89	308.01	41.87	-39.1	-41.7	16.3	0.00e+00	0	57	0	506462208	50	4652
2026-01-01 00:43:26.90	307.51	41.92	-38.8	-41.2	16.6	0.00e+00	0	57	0	508559360	49	4690
2026-01-01 00:43:27.91	307.02	41.96	-38.8	-41.3	16.7	0.00e+00	0	57	0	509607936	49	4706
2026-01-01 00:43:28.92	306.52	42.00	-38.6	-40.8	16.9	0.00e+00	0	57	0	511705088	49	4479
2026-01-01 00:43:29.93	306.03	42.03	-39.0	-41.4	16.5	0.00e+00	0	57	0	513802240	49	4772
2026-01-01 00:43:30.94	305.53	42.07	-39.6	-42.4	15.6	0.00e+00	0	57	0	515899392	49	5374
2026-01-01 00:43:31.95	305.03	42.10	-39.9	-42.7	15.2	0.00e+00	0	57	0	517996544	50	5256
2026-01-01 00:43:32.96	304.53	42.13	-39.8	-42.7	15.3	0.00e+00	0	57	0	519045120	50	5238
2026-01-01 00:43:33.97	304.03	42.16	-39.4	-41.9	15.9	0.00e+00	0	57	0	521142272	50	4811
2026-01-01 00:43:34.98	303.53	42.18	-38.8	-41.0	16.8	0.00e+00	0	57	0	523239424	49	4596
2026-01-01 00:43:35.99	303.03	42.20	-38.5	-40.7	17.2	0.00e+00	0	57	0	525336576	48	4657
2026-01-01 00:43:37.00	302.52	42.22	-38.5	-40.7	17.2	0.00e+00	0	57	0	527433728	48	4685
2026-01-01 00:43:38.01	302.02	42.24	-39.0	-41.4	16.5	0.00e+00	0	57	0	529530880	48	5050
2026-01-01 00:43:39.02	301.51	42.26	-39.3	-41.8	16.2	0.00e+00	0	57	0	530579456	49	5033
2026-01-01 00:43:40.03	301.01	42.27	-39.3	-41.7	16.2	0.00e+00	0	57	0	532676608	49	4980
2026-01-01 00:43:41.04	300.51	42.28	-39.4	-42.0	16.0	0.00e+00	0	57	0	534773760	49	5117
2026-01-01 00:43:42.05	300.00	42.29	-39.8	-42.7	15.3	0.00e+00	0	57	0	536870912	50	5240
2026-01-01 00:43:43.06	299.49	42.29	-39.9	-42.8	15.3	0.00e+00	0	57	0	538968064	50	5291
2026-01-01 00:43:44.07	298.99	42.29	-39.4	-42.0	15.9	0.00e+00	0	57	0	540016640	50	4863
2026-01-01 00:43:45.08	298.48	42.29	-39.3	-41.8	16.2	0.00e+00	0	57	0	542113792	50	4730
2026-01-01 00:43:46.09	297.98	42.29	-39.5	-42.1	15.8	0.00e+00	0	57	0	544210944	50	4918
2026-01-01 00:43:47.10	297.47	42.29	-39.9	-42.9	15.1	0.00e+00	0	57	0	546308096	50	5349
2026-01-01 00:43:48.11	296.97	42.28	-40.0	-43.1	14.9	0.00e+00	0	57	0	548405248	51	5169
2026-01-01 00:43:49.12	296.46	42.27	-40.1	-43.2	14.7	7.00e-07	0	57	0	549453824	51	5263
2026-01-01 00:43:50.13	295.96	42.26	-40.2	-43.3	14.7	0.00e+00	0	57	0	551550976	51	5326
2026-01-01 00:43:51.14	295.45	42.24	-40.0	-43.1	14.8	0.00e+00	0	57	0	553648128	51	5193
2026-01-01 00:43:52.15	294.95	42.22	-39.8	-42.8	15.2	0.00e+00	0	57	0	555745280	51	5026
2026-01-01 00:43:53.16	294.45	42.20	-39.7	-42.5	15.4	0.00e+00	0	57	0	557842432	51	4840
2026-01-01 00:43:54.17	293.94	42.18	-40.0	-43.0	14.9	7.00e-07	0	57	0	558891008	51	5144
2026-01-01 00:43:55.19	293.44	42.15	-40.6	-44.2	13.8	0.00e+00	0	57	0	560988160	51	5890
2026-01-01 00:43:56.20	292.94	42.13	-40.7	-44.4	13.4	9.10e-06	0	57	0	563085312	52	5660
2026-01-01 00:43:57.21	292.44	42.10	-41.0	-45.0	12.8	2.82e-05	0	57	0	565182464	52	6130
2026-01-01 00:43:58.21	291.94	42.06	-41.2	-45.4	12.4	1.45e-04	0	57	0	567279616	53	6034
2026-01-01 00:43:59.23	291.44	42.03	-41.1	-45.2	12.6	1.07e-04	0	57	0	569376768	53	5865
2026-01-01 00:44:00.24	290.94	41.99	-40.7	-44.3	13.5	1.06e-05	0	57	0	570425344	53	5327
2026-01-01 00:44:01.25	290.45	41.95	-40.9	-44.7	13.2	1.50e-06	0	57	0	572522496	52	5889
2026-01-01 00:44:02.26	289.95	41.91	-41.0	-44.8	12.9	7.09e-05	0	57	0	574619648	53	5644
2026-01-01 00:44:03.27	289.46	41.87	-41.4	-45.8	12.0	2.43e-04	0	57	0	576716800	53	6289
2026-01-01 00:44:04.27	288.97	41.82	-41.2	-45.3	12.4	2.14e-04	0	57	0	578813952	53	5980
2026-01-01 00:44:05.29	288.48	41.77	-41.2	-45.6	12.1	1.17e-04	0	57	0	579862528	53	6174
2026-01-01 00:44:06.30	287.99	41.72	-41.1	-45.2	12.6	8.01e-05	0	57	0	581959680	53	5864
2026-01-01 00:44:07.31	287.50	41.67	-41.3	-45.8	12.2	1.06e-04	0	57	0	584056832	53	6306
2026-01-01 00:44:08.31	287.02	41.61	-41.4	-46.0	11.7	8.83e-04	0	57	0	586153984	53	6475
2026-01-01 00:44:09.32	286.54	41.55	-42.0	-47.5	10.3	4.78e-03	0	57	0	588251136	54	7209
2026-01-01 00:44:10.33	286.06	41.49	-41.8	-47.0	10.6	6.13e-03	0	57	0	589299712	54	6835
2026-01-01 00:44:11.34	285.57	41.43	-42.0	-47.6	10.2	3.54e-03	0	57	0	591396864	54	7343
2026-01-01 00:44:12.36	285.09	41.36	-41.8	-47.4	10.2	4.69e-03	0	57	0	593494016	54	7150
2026-01-01 00:44:13.36	284.62	41.30	-41.6	-46.9	10.6	3.97e-03	0	57	0	595591168	54	6778
2026-01-01 00:44:14.37	284.15	41.23	-40.9	-45.1	12.5	6.08e-04	0	57	0	597688320	53	5801
2026-01-01 00:44:15.38	283.67	41.16	-40.9	-45.1	12.5	1.14e-04	0	57	0	598736896	53	5831
2026-01-01 00:44:16.39	283.20	41.09	-41.2	-45.8	12.1	3.71e-04	0	57	0	600834048	53	6276
2026-01-01 00:44:17.40	282.73	41.01	-41.1	-45.7	11.9	2.19e-04	0	57	0	602931200	53	6269
2026-01-01 00:44:18.41	282.27	40.93	-40.9	-45.3	12.3	3.02e-04	0	57	0	605028352	53	5929
2026-01-01 00:44:19.42	281.80	40.85	-41.2	-46.0	11.7	5.17e-04	0	57	0	607125504	53	6443
2026-01-01 00:44:20.43	281.34	40.77	-41.1	-45.5	12.0	6.58e-04	0	57	0	608174080	53	6116
2026-01-01 00:44:21.44	280.88	40.69	-40.4	-44.0	13.7	5.18e-05	0	57	0	610271232	52	5435
2026-01-01 00:44:22.45	280.43	40.61	-39.8	-42.8	15.0	0.00e+00	0	57	0	612368384	51	5023
2026-01-01 00:44:23.46	279.97	40.52	-39.8	-42.7	15.1	0.00e+00	0	57	0	614465536	51	4961
2026-01-01 00:44:24.47	279.52	40.43	-39.7	-42.7	15.2	0.00e+00	0	57	0	616562688	51	4968
2026-01-01 00:44:25.48	279.07	40.34	-39.5	-42.3	15.5	0.00e+00	0	57	0	617611264	51	4757
2026-01-01 00:44:26.49	278.62	40.25	-38.9	-41.4	16.4	0.00e+00	0	57	0	619708416	49	4783
2026-01-01 00:44:27.50	278.18	40.16	-39.3	-42.0	16.0	0.00e+00	0	57	0	621805568	49	5101
2026-01-01 00:44:28.51	277.74	40.06	-39.1	-41.6	16.3	0.00e+00	0	57	0	623902720	49	4911
2026-01-01 00:44:29.52	277.30	39.96	-39.1	-41.6	16.2	0.00e+00	0	57	0	625999872	49	4921
2026-01-01 00:44:30.53	276.86	39.86	-38.8	-41.2	16.6	0.00e+00	0	57	0	627048448	49	4668
2026-01-01 00:44:31.55	276.42	39.76	-38.6	-40.9	17.0	0.00e+00	0	57	0	629145600	48	4789
2026-01-01 00:44:32.55	276.00	39.66	-38.1	-40.3	17.4	0.00e+00	0	57	0	631242752	48	4486
2026-01-01 00:44:33.56	275.57	39.56	-37.5	-39.5	18.1	0.00e+00	0	57	0	633339904	47	4313
2026-01-01 00:44:34.58	275.14	39.45	-37.6	-39.6	18.0	0.00e+00	0	57	0	635437056	46	4648
2026-01-01 00:44:35.58	274.72	39.35	-37.7	-39.8	17.9	0.00e+00	0	57	0	637534208	46	4757
2026-01-01 00:44:36.59	274.30	39.24	-37.8	-39.9	17.8	0.00e+00	0	57	0	638582784	46	4784
2026-01-01 00:44:37.60	273.88	39.13	-37.7	-39.9	17.8	0.00e+00	0	57	0	640679936	46	4760
2026-01-01 00:44:38.61	273.47	39.02	-37.6	-39.7	17.9	0.00e+00	0	57	0	642777088	46	4677
2026-01-01 00:44:39.62	273.06	38.91	-37.4	-39.4	18.3	0.00e+00	0	57	0	644874240	46	4502
2026-01-01 00:44:40.63	272.65	38.80	-37.7	-39.7	18.0	0.00e+00	0	57	0	646971392	46	4682
2026-01-01 00:44:41.64	272.24	38.68	-37.4	-39.4	18.3	0.00e+00	0	57	0	648019968	46	4496
2026-01-01 00:44:42.65	271.84	38.57	-37.3	-39.2	18.4	0.00e+00	0	57	0	650117120	46	4429
2026-01-01 00:44:43.66	271.44	38.45	-37.5	-39.5	18.1	0.00e+00	0	57	0	652214272	46	4585
2026-01-01 00:44:44.67	271.04	38.33	-38.1	-40.4	17.3	0.00e+00	0	57	0	654311424	46	5069
2026-01-01 00:44:45.68	270.65	38.21	-38.9	-41.5	16.4	0.00e+00	0	57	0	656408576	48	5120
2026-01-01 00:44:46.69	270.25	38.09	-38.9	-41.5	16.4	0.00e+00	0	57	0	657457152	48	5109
2026-01-01 00:44:47.70	269.87	37.97	-39.0	-41.5	16.3	0.00e+00	0	57	0	659554304	48	5132
2026-01-01 00:44:48.71	269.48	37.85	-38.8	-41.3	16.6	0.00e+00	0	57	0	661651456	48	4986
2026-01-01 00:44:49.72	269.10	37.72	-38.5	-40.8	17.1	0.00e+00	0	57	0	663748608	48	4722
2026-01-01 00:44:50.73	268.72	37.60	-38.0	-40.1	17.7	0.00e+00	0	57	0	665845760	48	4367
2026-01-01 00:44:51.74	268.34	37.47	-37.9	-40.0	17.7	0.00e+00	0	57	0	666894336	47	4569
2026-01-01 00:44:52.75	267.96	37.35	-38.9	-40.9	17.2	0.00e+00	0	57	0	668991488	48	4761
2026-01-01 00:44:53.76	267.59	37.22	-39.4	-41.5	16.6	0.00e+00	0	57	0	671088640	49	4868
2026-01-01 00:44:54.77	267.23	37.09	-39.6	-41.9	16.2	0.00e+00	0	57	0	673185792	49	5083
2026-01-01 00:44:55.78	266.86	36.96	-39.0	-41.1	17.0	0.00e+00	0	57	0	675282944	49	4635
2026-01-01 00:44:56.79	266.50	36.83	-38.4	-40.2	17.8	0.00e+00	0	57	0	676331520	48	4417
2026-01-01 00:44:57.80	266.14	36.70	-38.3	-40.1	17.9	0.00e+00	0	57	0	678428672	48	4381
2026-01-01 00:44:58.81	265.78	36.57	-38.0	-39.8	18.2	0.00e+00	0	57	0	680525824	48	4207
2026-01-01 00:44:59.82	265.43	36.44	-37.9	-39.7	18.3	0.00e+00	0	57	0	682622976	47	4394
2026-01-01 00:45:00.83	265.08	36.31	-38.1	-39.9	18.0	0.00e+00	0	57	0	684720128	47	4523
2026-01-01 00:45:01.83	264.73	36.18	-38.5	-40.4	17.6	0.00e+00	0	57	0	685768704	47	4801
2026-01-01 00:45:02.84	264.39	36.04	-39.5	-41.7	16.4	0.00e+00	0	57	0	687865856	49	4958
2026-01-01 00:45:03.85	264.04	35.91	-39.8	-42.1	16.0	0.00e+00	0	57	0	689963008	50	4899
2026-01-01 00:45:04.86	263.70	35.77	-39.1	-41.2	16.8	0.00e+00	0	57	0	692060160	50	4435
2026-01-01 00:45:05.87	263.37	35.64	-38.6	-40.6	17.4	0.00e+00	0	57	0	694157312	49	4350
2026-01-01 00:45:06.88	263.03	35.50	-38.7	-40.7	17.4	0.00e+00	0	57	0	695205888	49	4410
2026-01-01 00:45:07.89	262.70	35.36	-39.1	-41.2	16.9	0.00e+00	0	57	0	697303040	49	4660
2026-01-01 00:45:08.90	262.37	35.23	-39.4	-41.6	16.7	0.00e+00	0	57	0	699400192	49	4892
2026-01-01 00:45:09.91	262.05	35.09	-39.4	-41.6	16.5	0.00e+00	0	57	0	701497344	49	4876
2026-01-01 00:45:10.92	261.72	34.95	-39.4	-41.6	16.5	0.00e+00	0	57	0	703594496	49	4905
2026-01-01 00:45:11.93	261.40	34.81	-39.4	-41.5	16.5	0.00e+00	0	57	0	705691648	49	4856
2026-01-01 00:45:12.95	261.08	34.67	-39.9	-42.3	15.9	0.00e+00	0	57	0	706740224	50	4986
2026-01-01 00:45:13.96	260.77	34.53	-39.8	-42.2	15.9	0.00e+00	0	57	0	708837376	50	4956
2026-01-01 00:45:14.97	260.46	34.39	-39.9	-42.3	15.8	0.00e+00	0	57	0	710934528	50	4988
2026-01-01 00:45:15.98	260.15	34.25	-40.2	-42.7	15.4	0.00e+00	0	57	0	713031680	51	4936
2026-01-01 00:45:16.99	259.84	34.11	-40.5	-43.3	14.7	0.00e+00	0	57	0	715128832	52	4989
2026-01-01 00:45:18.00	259.54	33.97	-40.9	-43.9	14.1	1.50e-06	0	57	0	716177408	52	5384
2026-01-01 00:45:19.01	259.23	33.83	-40.8	-43.6	14.3	3.00e-06	0	57	0	718274560	52	5203
2026-01-01 00:45:20.02	258.93	33.69	-40.3	-42.9	15.1	0.00e+00	0	57	0	720371712	52	4814
2026-01-01 00:45:21.03	258.64	33.55	-40.3	-42.9	15.1	0.00e+00	0	57	0	722468864	52	4808
2026-01-01 00:45:22.04	258.34	33.40	-40.6	-43.4	14.6	0.00e+00	0	57	0	724566016	52	5092
2026-01-01 00:45:23.05	258.05	33.26	-40.8	-43.6	14.4	7.00e-07	0	57	0	725614592	52	5215
2026-01-01 00:45:24.06	257.77	33.12	-40.4	-43.0	15.0	0.00e+00	0	57	0	727711744	52	4842
2026-01-01 00:45:25.07	257.48	32.98	-40.0	-42.5	15.5	0.00e+00	0	58	0	729808896	52	4561
2026-01-01 00:45:26.08	257.20	32.84	-40.4	-43.0	15.0	0.00e+00	0	57	0	731906048	52	4842
2026-01-01 00:45:27.09	256.91	32.69	-40.9	-43.8	14.2	7.00e-07	0	57	0	734003200	52	5333
2026-01-01 00:45:28.10	256.64	32.55	-40.8	-43.8	14.2	3.00e-06	0	57	0	735051776	52	5314
2026-01-01 00:45:29.11	256.36	32.41	-41.2	-44.4	13.6	7.60e-06	0	57	0	737148928	53	5389
2026-01-01 00:45:30.11	256.09	32.27	-40.8	-43.7	14.2	2.20e-06	0	57	0	739246080	53	4961
2026-01-01 00:45:31.12	255.82	32.12	-40.7	-43.6	14.4	1.50e-06	0	57	0	741343232	53	4879
2026-01-01 00:45:32.13	255.55	31.98	-40.6	-43.3	14.7	7.00e-07	0	57	0	743440384	52	5003
2026-01-01 00:45:33.14	255.28	31.84	-40.6	-43.3	14.8	7.00e-07	0	57	0	744488960	52	5007
2026-01-01 00:45:34.15	255.02	31.69	-40.9	-43.9	14.1	0.00e+00	0	57	0	746586112	52	5350
2026-01-01 00:45:35.16	254.76	31.55	-41.3	-44.5	13.5	8.30e-06	0	57	0	748683264	53	5431
2026-01-01 00:45:36.17	254.50	31.41	-41.6	-45.1	13.0	1.83e-05	0	57	0	750780416	53	5793
2026-01-01 00:45:37.18	254.24	31.27	-42.1	-46.2	11.8	2.51e-04	0	57	0	752877568	54	6213
2026-01-01 00:45:38.19	253.98	31.12	-42.5	-47.1	10.6	1.26e-03	0	57	0	753926144	55	6508
2026-01-01 00:45:39.20	253.73	30.98	-42.9	-47.8	10.2	4.09e-03	0	57	0	756023296	56	6669
2026-01-01 00:45:40.21	253.48	30.84	-42.5	-46.8	11.2	2.18e-03	0	57	0	758120448	56	5950
2026-01-01 00:45:41.22	253.23	30.70	-41.9	-45.6	12.4	5.07e-04	0	57	0	760217600	55	5490
2026-01-01 00:45:42.23	252.99	30.55	-41.5	-45.0	13.0	8.16e-05	0	58	0	762314752	54	5427
2026-01-01 00:45:43.24	252.74	30.41	-41.4	-44.8	13.2	2.67e-05	0	57	0	763363328	54	5296
2026-01-01 00:45:44.25	252.50	30.27	-41.6	-45.2	12.8	7.24e-05	0	57	0	765460480	54	5555
2026-01-01 00:45:45.26	252.26	30.13	-41.6	-45.2	12.8	8.08e-05	0	57	0	767557632	54	5539
2026-01-01 00:45:46.27	252.02	29.98	-41.6	-45.1	13.0	4.19e-05	0	57	0	769654784	54	5470
2026-01-01 00:45:47.28	251.79	29.84	-41.3	-44.6	13.4	2.74e-05	0	57	0	771751936	54	5169
2026-01-01 00:45:48.29	251.55	29.70	-41.3	-44.5	13.5	1.44e-05	0	58	0	773849088	54	5145
2026-01-01 00:45:49.30	251.32	29.56	-41.1	-44.2	13.8	6.80e-06	0	58	0	774897664	53	5243
2026-01-01 00:45:50.31	251.09	29.42	-41.5	-44.9	13.0	1.83e-05	0	57	0	776994816	53	5692
2026-01-01 00:45:51.32	250.87	29.28	-41.3	-44.6	13.4	2.21e-05	0	57	0	779091968	53	5507
2026-01-01 00:45:52.33	250.64	29.14	-41.2	-44.4	13.5	8.30e-06	0	57	0	781189120	53	5392
2026-01-01 00:45:53.34	250.42	29.00	-40.6	-43.4	14.5	7.00e-07	0	57	0	783286272	53	4782
2026-01-01 00:45:54.35	250.20	28.86	-40.5	-43.3	14.7	0.00e+00	0	57	0	784334848	52	5001
2026-01-01 00:45:55.36	249.98	28.72	-40.3	-42.9	15.0	7.00e-07	0	57	0	786432000	52	4777
2026-01-01 00:45:56.37	249.76	28.58	-40.3	-42.9	15.0	0.00e+00	0	58	0	788529152	52	4800
2026-01-01 00:45:57.38	249.54	28.44	-40.4	-43.0	14.9	0.00e+00	0	57	0	790626304	52	4856
2026-01-01 00:45:58.39	249.33	28.30	-40.4	-43.0	14.9	0.00e+00	0	57	0	792723456	52	4859
2026-01-01 00:45:59.40	249.12	28.16	-40.4	-43.0	14.8	0.00e+00	0	57	0	793772032	52	4858
2026-01-01 00:46:00.41	248.91	28.02	-40.3	-43.0	14.9	0.00e+00	0	57	0	795869184	52	4823
2026-01-01 00:46:01.42	248.70	27.88	-40.3	-43.0	14.9	0.00e+00	0	57	0	797966336	52	4831
2026-01-01 00:46:02.44	248.49	27.74	-40.0	-42.5	15.5	7.00e-07	0	57	0	800063488	51	4834
2026-01-01 00:46:03.44	248.29	27.60	-39.9	-42.3	15.7	0.00e+00	0	57	0	802160640	51	4715
2026-01-01 00:46:04.45	248.09	27.46	-39.7	-42.1	15.9	0.00e+00	0	57	0	803209216	51	4604
2026-01-01 00:46:05.46	247.89	27.33	-39.8	-42.1	15.8	0.00e+00	0	57	0	805306368	51	4628
2026-01-01 00:46:06.48	247.69	27.19	-39.6	-41.8	16.1	0.00e+00	0	57	0	807403520	51	4487
2026-01-01 00:46:07.48	247.49	27.05	-39.4	-41.6	16.4	0.00e+00	0	58	0	809500672	50	4629
2026-01-01 00:46:08.50	247.29	26.91	-39.3	-41.5	16.5	0.00e+00	0	57	0	811597824	50	4550
2026-01-01 00:46:09.50	247.10	26.78	-39.6	-41.9	16.1	0.00e+00	0	58	0	812646400	50	4780
2026-01-01 00:46:10.51	246.91	26.64	-39.3	-41.5	16.5	0.00e+00	0	57	0	814743552	50	4551
2026-01-01 00:46:11.52	246.72	26.51	-39.7	-41.9	16.1	0.00e+00	0	58	0	816840704	50	4806
2026-01-01 00:46:12.53	246.53	26.37	-39.6	-41.9	16.1	0.00e+00	0	57	0	818937856	50	4768
2026-01-01 00:46:13.54	246.34	26.24	-39.8	-42.1	15.9	0.00e+00	0	58	0	821035008	50	4896
2026-01-01 00:46:14.55	246.15	26.10	-40.0	-42.5	15.5	0.00e+00	0	57	0	822083584	50	5137
2026-01-01 00:46:15.56	245.97	25.97	-40.4	-43.1	15.0	0.00e+00	0	57	0	824180736	51	5212
2026-01-01 00:46:16.57	245.79	25.83	-40.4	-43.1	14.9	0.00e+00	0	57	0	826277888	51	5191
2026-01-01 00:46:17.58	245.61	25.70	-40.6	-43.4	14.6	0.00e+00	0	57	0	828375040	51	5390
2026-01-01 00:46:18.59	245.43	25.57	-40.9	-44.1	13.8	3.00e-06	0	57	0	830472192	52	5483
2026-01-01 00:46:19.60	245.25	25.43	-40.9	-44.0	13.9	5.30e-06	0	57	0	831520768	52	5434
2026-01-01 00:46:20.61	245.07	25.30	-41.2	-44.6	13.2	1.44e-05	0	58	0	833617920	53	5495
2026-01-01 00:46:21.62	244.90	25.17	-41.0	-44.1	13.8	1.22e-05	0	57	0	835715072	53	5183
2026-01-01 00:46:22.63	244.72	25.04	-41.1	-44.3	13.6	7.60e-06	0	57	0	837812224	53	5315
2026-01-01 00:46:23.64	244.55	24.91	-40.9	-44.0	13.9	1.06e-05	0	57	0	839909376	53	5121
2026-01-01 00:46:24.65	244.38	24.78	-40.9	-43.9	13.9	7.00e-07	0	58	0	842006528	53	5088
2026-01-01 00:46:25.66	244.21	24.65	-40.9	-44.0	13.9	6.10e-06	0	58	0	843055104	53	5113
2026-01-01 00:46:26.67	244.04	24.51	-40.8	-43.8	14.1	1.50e-06	0	57	0	845152256	53	4999
2026-01-01 00:46:27.68	243.87	24.38	-40.6	-43.4	14.5	2.20e-06	0	57	0	847249408	53	4796
2026-01-01 00:46:28.69	243.71	24.26	-40.4	-43.2	14.8	0.00e+00	0	57	0	849346560	52	4929
2026-01-01 00:46:29.70	243.55	24.13	-40.4	-43.2	14.7	1.50e-06	0	57	0	851443712	52	4935
2026-01-01 00:46:30.71	243.38	24.00	-40.1	-42.7	15.2	0.00e+00	0	58	0	852492288	52	4652
2026-01-01 00:46:31.72	243.22	23.87	-40.0	-42.5	15.4	0.00e+00	0	57	0	854589440	51	4866
2026-01-01 00:46:32.73	243.06	23.74	-39.9	-42.3	15.7	0.00e+00	0	57	0	856686592	51	4725
2026-01-01 00:46:33.73	242.91	23.61	-39.7	-42.0	15.9	0.00e+00	0	58	0	858783744	51	4574
2026-01-01 00:46:34.75	242.75	23.49	-39.6	-41.9	16.0	0.00e+00	0	58	0	860880896	51	4502
2026-01-01 00:46:35.76	242.59	23.36	-40.0	-42.4	15.5	0.00e+00	0	57	0	861929472	51	4803
2026-01-01 00:46:36.77	242.44	23.23	-39.9	-42.3	15.6	0.00e+00	0	58	0	864026624	51	4755
2026-01-01 00:46:37.78	242.28	23.11	-40.0	-42.4	15.6	0.00e+00	0	57	0	866123776	51	4803
2026-01-01 00:46:38.79	242.13	22.98	-39.8	-42.2	15.7	7.00e-07	0	58	0	868220928	51	4684
2026-01-01 00:46:39.80	241.98	22.86	-39.7	-42.1	15.9	0.00e+00	0	57	0	870318080	51	4601
2026-01-01 00:46:40.81	241.83	22.73	-39.4	-41.6	16.3	0.00e+00	0	57	0	871366656	50	4610
2026-01-01 00:46:41.82	241.68	22.61	-39.3	-41.5	16.4	0.00e+00	0	57	0	873463808	50	4570
2026-01-01 00:46:42.83	241.53	22.48	-39.3	-41.5	16.4	0.00e+00	0	58	0	875560960	50	4587
2026-01-01 00:46:43.84	241.39	22.36	-39.2	-41.4	16.5	0.00e+00	0	57	0	877658112	50	4511
2026-01-01 00:46:44.85	241.24	22.23	-39.2	-41.3	16.4	0.00e+00	0	58	0	879755264	50	4486
2026-01-01 00:46:45.86	241.10	22.11	-39.4	-41.7	16.2	0.00e+00	0	57	0	880803840	50	4696
2026-01-01 00:46:46.87	240.96	21.99	-40.0	-42.5	15.5	0.00e+00	0	57	0	882900992	50	5146
2026-01-01 00:46:47.88	240.82	21.87	-40.4	-43.1	14.9	0.00e+00	0	57	0	884998144	51	5177
2026-01-01 00:46:48.89	240.68	21.75	-40.7	-43.7	14.2	7.00e-07	0	58	0	887095296	52	5227
2026-01-01 00:46:49.89	240.54	21.62	-41.1	-44.4	13.4	6.10e-06	0	57	0	889192448	52	5681
2026-01-01 00:46:50.90	240.40	21.50	-41.3	-44.7	13.1	2.44e-05	0	58	0	890241024	53	5574
2026-01-01 00:46:51.91	240.26	21.38	-41.4	-44.9	12.9	4.57e-05	0	57	0	892338176	53	5693
2026-01-01 00:46:52.92	240.13	21.26	-41.2	-44.5	13.1	3.43e-05	0	57	0	894435328	53	5462
2026-01-01 00:46:53.93	239.99	21.14	-41.2	-44.4	13.4	9.90e-06	0	57	0	896532480	53	5381
2026-01-01 00:46:54.94	239.86	21.02	-40.9	-43.9	13.9	2.20e-06	0	58	0	898629632	53	5092
2026-01-01 00:46:55.95	239.72	20.91	-40.8	-43.9	13.9	2.20e-06	0	57	0	899678208	53	5055
2026-01-01 00:46:56.96	239.59	20.79	-40.5	-43.3	14.4	1.50e-06	0	58	0	901775360	52	5041
2026-01-01 00:46:57.97	239.46	20.67	-40.3	-43.0	14.8	0.00e+00	0	57	0	903872512	52	4855
2026-01-01 00:46:58.98	239.33	20.55	-40.3	-43.0	14.8	0.00e+00	0	58	0	905969664	52	4837
2026-01-01 00:46:59.99	239.20	20.43	-40.2	-42.8	15.0	0.00e+00	0	57	0	908066816	52	4729
2026-01-01 00:47:01.00	239.08	20.32	-40.2	-42.8	15.0	0.00e+00	0	57	0	910163968	51	5029
2026-01-01 00:47:02.01	238.95	20.20	-40.3	-42.9	14.9	0.00e+00	0	57	0	911212544	51	5093
2026-01-01 00:47:03.02	238.82	20.08	-40.3	-42.9	14.9	0.00e+00	0	57	0	913309696	51	5088
2026-01-01 00:47:04.03	238.70	19.97	-40.2	-42.8	14.9	7.00e-07	0	58	0	915406848	51	5041
2026-01-01 00:47:05.04	238.57	19.85	-40.5	-43.2	14.6	0.00e+00	0	57	0	917504000	51	5261
2026-01-01 00:47:06.05	238.45	19.74	-40.6	-43.5	14.4	7.00e-07	0	58	0	919601152	51	5418
2026-01-01 00:47:07.06	238.33	19.62	-40.7	-43.6	14.2	7.00e-07	0	58	0	920649728	52	5185
2026-01-01 00:47:08.07	238.21	19.51	-40.6	-43.5	14.3	7.00e-07	0	57	0	922746880	52	5108
2026-01-01 00:47:09.08	238.09	19.39	-40.3	-43.0	14.8	0.00e+00	0	58	0	924844032	52	4865
2026-01-01 00:47:10.09	237.97	19.28	-40.1	-42.7	15.1	0.00e+00	0	58	0	926941184	52	4680
2026-01-01 00:47:11.10	237.85	19.17	-39.9	-42.4	15.5	0.00e+00	0	58	0	929038336	51	4761
2026-01-01 00:47:12.11	237.73	19.06	-39.7	-42.0	15.8	0.00e+00	0	58	0	930086912	51	4598
2026-01-01 00:47:13.12	237.62	18.94	-39.2	-41.3	16.5	0.00e+00	0	57	0	932184064	50	4477
2026-01-01 00:47:14.13	237.50	18.83	-39.0	-41.1	16.6	0.00e+00	0	57	0	934281216	50	4382
2026-01-01 00:47:15.14	237.39	18.72	-38.9	-41.0	16.8	0.00e+00	0	57	0	936378368	49	4589
2026-01-01 00:47:16.15	237.27	18.61	-39.0	-41.2	16.7	0.00e+00	0	57	0	938475520	49	4670
2026-01-01 00:47:17.16	237.16	18.50	-39.3	-41.5	16.3	0.00e+00	0	57	0	939524096	49	4846
2026-01-01 00:47:18.17	237.05	18.39	-39.6	-41.9	15.9	0.00e+00	0	57	0	941621248	49	5075
2026-01-01 00:47:19.18	236.94	18.28	-39.9	-42.3	15.5	7.00e-07	0	58	0	943718400	50	5031
2026-01-01 00:47:20.19	236.83	18.17	-39.9	-42.4	15.4	0.00e+00	0	58	0	945815552	50	5078
2026-01-01 00:47:21.20	236.72	18.06	-40.3	-42.9	14.9	0.00e+00	0	58	0	947912704	51	5100
2026-01-01 00:47:22.21	236.61	17.95	-40.4	-43.2	14.6	0.00e+00	0	58	0	948961280	51	5238
2026-01-01 00:47:23.22	236.50	17.84	-40.4	-43.2	14.7	0.00e+00	0	58	0	951058432	51	5237
2026-01-01 00:47:24.23	236.39	17.73	-40.4	-43.2	14.7	0.00e+00	0	58	0	953155584	51	5227
2026-01-01 00:47:25.24	236.28	17.63	-40.3	-43.0	14.7	0.00e+00	0	58	0	955252736	51	5107
2026-01-01 00:47:26.25	236.18	17.52	-40.3	-42.9	14.9	0.00e+00	0	57	0	957349888	51	5093
2026-01-01 00:47:27.26	236.07	17.41	-40.0	-42.5	15.3	0.00e+00	0	58	0	958398464	51	4848
2026-01-01 00:47:28.27	235.97	17.30	-40.0	-42.5	15.3	0.00e+00	0	58	0	960495616	51	4856
2026-01-01 00:47:29.28	235.86	17.20	-39.9	-42.3	15.5	0.00e+00	0	58	0	962592768	51	4755
2026-01-01 00:47:30.29	235.76	17.09	-39.8	-42.2	15.6	0.00e+00	0	57	0	964689920	51	4705
2026-01-01 00:47:31.30	235.66	16.99	-39.7	-42.1	15.6	0.00e+00	0	58	0	966787072	51	4635
2026-01-01 00:47:32.31	235.56	16.88	-39.9	-42.3	15.4	0.00e+00	0	58	0	967835648	51	4753
2026-01-01 00:47:33.32	235.46	16.78	-39.9	-42.4	15.4	0.00e+00	0	58	0	969932800	51	4809
2026-01-01 00:47:34.33	235.36	16.67	-39.9	-42.4	15.4	0.00e+00	0	58	0	972029952	51	4811
2026-01-01 00:47:35.34	235.26	16.57	-40.0	-42.5	15.3	0.00e+00	0	58	0	974127104	51	4849
2026-01-01 00:47:36.34	235.16	16.46	-39.8	-42.3	15.5	0.00e+00	0	57	0	976224256	51	4727
2026-01-01 00:47:37.36	235.06	16.36	-39.9	-42.4	15.3	0.00e+00	0	58	0	978321408	51	4790
2026-01-01 00:47:38.36	234.97	16.26	-39.9	-42.4	15.4	0.00e+00	0	58	0	979369984	51	4762
2026-01-01 00:47:39.37	234.87	16.16	-39.9	-42.4	15.3	0.00e+00	0	58	0	981467136	51	4788
2026-01-01 00:47:40.39	234.77	16.05	-40.0	-42.6	15.1	0.00e+00	0	58	0	983564288	51	4877
2026-01-01 00:47:41.40	234.68	15.95	-40.1	-42.8	15.0	0.00e+00	0	58	0	985661440	51	4999
2026-01-01 00:47:42.40	234.58	15.85	-40.3	-43.0	14.7	7.00e-07	0	58	0	987758592	51	5136
2026-01-01 00:47:43.41	234.49	15.75	-40.3	-43.1	14.6	7.00e-07	0	57	0	988807168	51	5174
2026-01-01 00:47:44.42	234.40	15.65	-40.5	-43.4	14.3	0.00e+00	0	58	0	990904320	51	5384
2026-01-01 00:47:45.43	234.30	15.55	-40.5	-43.5	14.1	3.00e-06	0	58	0	993001472	52	5124
2026-01-01 00:47:46.44	234.21	15.45	-40.7	-43.8	13.9	2.20e-06	0	57	0	995098624	52	5280
2026-01-01 00:47:47.45	234.12	15.35	-40.8	-44.0	13.7	4.50e-06	0	57	0	997195776	52	5418
2026-01-01 00:47:48.46	234.03	15.25	-40.6	-43.7	13.9	6.80e-06	0	58	0	998244352	52	5235
2026-01-01 00:47:49.47	233.94	15.15	-40.7	-43.7	13.9	3.80e-06	0	58	0	1000341504	52	5264
2026-01-01 00:47:50.48	233.85	15.05	-40.5	-43.4	14.2	7.00e-07	0	58	0	1002438656	52	5083
2026-01-01 00:47:51.49	233.76	14.95	-40.4	-43.2	14.4	1.50e-06	0	58	0	1004535808	52	4964
2026-01-01 00:47:52.50	233.67	14.85	-40.4	-43.2	14.4	7.00e-07	0	58	0	1006632960	52	4973
2026-01-01 00:47:53.51	233.59	14.75	-40.1	-42.8	14.9	7.00e-07	0	58	0	1007681536	52	4706
2026-01-01 00:47:54.51	233.50	14.66	-40.0	-42.6	15.1	0.00e+00	0	58	0	1009778688	51	4896
2026-01-01 00:47:55.53	233.41	14.56	-39.8	-42.2	15.5	0.00e+00	0	58	0	1011875840	51	4701
2026-01-01 00:47:56.53	233.33	14.46	-39.8	-42.3	15.4	0.00e+00	0	57	0	1013972992	51	4713
2026-01-01 00:47:57.54	233.24	14.37	-39.5	-41.9	15.8	0.00e+00	0	58	0	1016070144	51	4527
2026-01-01 00:47:58.55	233.16	14.27	-39.5	-41.9	15.8	0.00e+00	0	58	0	1017118720	51	4506
2026-01-01 00:47:59.56	233.07	14.17	-39.6	-42.0	15.8	0.00e+00	0	58	0	1019215872	51	4559
2026-01-01 00:48:00.57	232.99	14.08	-39.5	-41.9	15.8	0.00e+00	0	58	0	1021313024	50	4794
2026-01-01 00:48:01.58	232.91	13.98	-39.5	-41.9	15.8	0.00e+00	0	58	0	1023410176	50	4761
2026-01-01 00:48:02.59	232.82	13.89	-39.7	-42.2	15.6	0.00e+00	0	58	0	1025507328	50	4927
2026-01-01 00:48:03.60	232.74	13.79	-39.6	-42.1	15.6	0.00e+00	0	58	0	1026555904	50	4877
2026-01-01 00:48:04.61	232.66	13.70	-39.7	-42.1	15.5	0.00e+00	0	58	0	1028653056	50	4913
2026-01-01 00:48:05.62	232.58	13.60	-39.8	-42.4	15.3	0.00e+00	0	58	0	1030750208	50	5044
2026-01-01 00:48:06.63	232.50	13.51	-39.9	-42.4	15.3	0.00e+00	0	58	0	1032847360	50	5072
2026-01-01 00:48:07.64	232.42	13.42	-40.0	-42.6	15.1	0.00e+00	0	57	0	1034944512	50	5174
2026-01-01 00:48:08.65	232.34	13.32	-40.0	-42.5	15.1	0.00e+00	0	58	0	1035993088	50	5148
2026-01-01 00:48:09.66	232.26	13.23	-39.9	-42.5	15.2	7.00e-07	0	58	0	1038090240	50	5113
2026-01-01 00:48:10.67	232.18	13.14	-39.9	-42.5	15.2	0.00e+00	0	58	0	1040187392	50	5107
2026-01-01 00:48:11.68	232.10	13.04	-39.9	-42.4	15.2	0.00e+00	0	58	0	1042284544	50	5097
2026-01-01 00:48:12.69	232.03	12.95	-40.0	-42.5	15.1	0.00e+00	0	58	0	1044381696	50	5153
2026-01-01 00:48:13.70	231.95	12.86	-39.9	-42.4	15.3	0.00e+00	0	58	0	1046478848	50	5066
2026-01-01 00:48:14.71	231.87	12.77	-40.0	-42.6	15.1	0.00e+00	0	58	0	1047527424	50	5163
2026-01-01 00:48:15.72	231.80	12.68	-39.8	-42.3	15.3	7.00e-07	0	58	0	1049624576	50	5039
2026-01-01 00:48:16.73	231.72	12.59	-40.0	-42.6	15.0	0.00e+00	0	58	0	1051721728	50	5197
2026-01-01 00:48:17.74	231.65	12.50	-40.1	-42.7	14.9	0.00e+00	0	58	0	1053818880	50	5263
2026-01-01 00:48:18.75	231.57	12.41	-40.1	-42.7	14.9	0.00e+00	0	58	0	1055916032	50	5264
2026-01-01 00:48:19.76	231.50	12.32	-40.2	-42.9	14.8	7.00e-07	0	58	0	1056964608	50	5354
2026-01-01 00:48:20.77	231.43	12.23	-40.2	-42.9	14.7	1.50e-06	0	58	0	1059061760	51	5057
2026-01-01 00:48:21.78	231.35	12.14	-40.3	-43.0	14.6	1.50e-06	0	58	0	1061158912	51	5153
2026-01-01 00:48:22.79	231.28	12.05	-40.3	-43.1	14.5	0.00e+00	0	58	0	1063256064	51	5196
2026-01-01 00:48:23.80	231.21	11.96	-40.4	-43.2	14.4	7.00e-07	0	58	0	1065353216	51	5266
2026-01-01 00:48:24.81	231.14	11.87	-40.4	-43.2	14.3	1.50e-06	0	58	0	1066401792	51	5270
2026-01-01 00:48:25.82	231.06	11.78	-40.4	-43.3	14.2	0.00e+00	0	57	0	1068498944	51	5328
2026-01-01 00:48:26.83	230.99	11.69	-40.5	-43.4	14.2	7.00e-07	0	58	0	1070596096	51	5358
2026-01-01 00:48:27.84	230.92	11.61	-40.5	-43.4	14.2	7.00e-07	0	58	0	1072693248	51	5375
2026-01-01 00:48:28.85	230.85	11.52	-40.5	-43.4	14.2	3.00e-06	0	57	0	1074790400	51	5348
2026-01-01 00:48:29.86	230.78	11.43	-40.4	-43.3	14.2	7.00e-07	0	58	0	1075838976	51	5332
2026-01-01 00:48:30.87	230.71	11.34	-40.4	-43.3	14.2	2.20e-06	0	58	0	1077936128	51	5321
