passes_logs/2026/01/01/R2.0S_Moscow/R2.0S_Moscow__20260101_104829_NOAA_20_JPSS-1_rec.log

#Pass ID: 20260101_104829_NOAA 20 (JPSS-1)
#Satellite: NOAA 20 (JPSS-1)
#Configuration: NOAA 20
#almurnet v.1.7.20251203
#Start time: 2026-01-01 10:48:28

#Version: 2.2.20231116
#Station: R2.0S_Moscow
#Location: 37.707566 lon 55.798166 lat
#TLE: 1 43013U 17073A   25365.45761817  .00000173  00000+0  10307-3 0  9993
#TLE: 2 43013  98.7620 301.5517 0001951  60.3814 299.7557 14.19531661420675

#Time	Az	El	Level	Level2	SNR	BER	BlckErr	Temp	State	Recorded	gain1	gain2
2026-01-01 10:48:28.89	186.94	1.97	-44.2	-58.7	3.8	1.49e+00	0	49	0	0	60	18545
2026-01-01 10:48:29.89	186.98	2.03	-44.1	-58.7	3.8	1.49e+00	0	49	104	0	60	18601
2026-01-01 10:48:30.90	187.02	2.09	-44.1	-58.7	3.8	1.49e+00	0	49	104	0	60	18559
2026-01-01 10:48:31.91	187.07	2.15	-44.2	-58.7	3.8	1.49e+00	0	49	104	0	60	18535
2026-01-01 10:48:32.92	187.11	2.21	-44.1	-58.7	3.8	1.49e+00	0	49	104	0	60	18548
2026-01-01 10:48:33.93	187.15	2.28	-44.1	-58.7	3.8	1.49e+00	0	49	104	0	60	18546
2026-01-01 10:48:34.95	187.20	2.34	-44.1	-58.7	3.8	1.49e+00	0	49	104	0	60	18570
2026-01-01 10:48:35.96	187.24	2.40	-44.1	-58.7	3.8	1.49e+00	0	49	104	0	60	18541
2026-01-01 10:48:36.97	187.29	2.46	-44.2	-58.7	3.8	1.49e+00	0	49	104	0	60	18550
2026-01-01 10:48:37.98	187.33	2.53	-44.1	-58.6	3.8	1.49e+00	0	49	104	0	60	18511
2026-01-01 10:48:38.99	187.37	2.59	-44.1	-58.7	3.8	1.49e+00	0	49	104	0	60	18591
2026-01-01 10:48:40.00	187.42	2.65	-44.1	-58.6	3.8	1.49e+00	0	49	104	0	60	18472
2026-01-01 10:48:41.01	187.46	2.72	-44.1	-58.7	3.8	1.49e+00	0	50	104	0	60	18538
2026-01-01 10:48:42.02	187.51	2.78	-44.1	-58.6	3.8	1.49e+00	0	50	104	0	60	18516
2026-01-01 10:48:43.04	187.55	2.84	-44.1	-58.7	3.8	1.49e+00	0	50	104	0	60	18554
2026-01-01 10:48:44.05	187.60	2.91	-44.1	-58.7	3.8	1.49e+00	0	50	104	0	60	18531
2026-01-01 10:48:45.06	187.65	2.97	-44.1	-58.7	3.8	1.49e+00	0	50	104	0	60	18531
2026-01-01 10:48:46.07	187.69	3.04	-44.1	-58.7	3.8	1.49e+00	0	50	104	0	60	18538
2026-01-01 10:48:47.08	187.74	3.10	-44.1	-58.7	3.8	1.49e+00	0	50	104	0	60	18537
2026-01-01 10:48:48.09	187.78	3.16	-44.1	-58.7	3.8	1.49e+00	0	50	104	0	60	18537
2026-01-01 10:48:49.10	187.83	3.23	-44.1	-58.7	3.8	1.49e+00	0	50	104	0	60	18529
2026-01-01 10:48:50.11	187.88	3.29	-44.1	-58.7	3.8	1.49e+00	0	50	104	0	60	18534
2026-01-01 10:48:51.12	187.92	3.36	-44.2	-58.7	3.8	1.49e+00	0	50	104	0	60	18543
2026-01-01 10:48:52.13	187.97	3.42	-44.1	-58.7	3.8	1.49e+00	0	50	104	0	60	18544
2026-01-01 10:48:53.15	188.02	3.49	-44.1	-58.6	3.8	1.49e+00	0	50	104	0	60	18504
2026-01-01 10:48:54.16	188.07	3.55	-44.1	-58.7	3.8	1.49e+00	0	50	104	0	60	18519
2026-01-01 10:48:55.17	188.11	3.62	-44.1	-58.6	3.8	1.49e+00	0	51	104	0	60	18478
2026-01-01 10:48:56.18	188.16	3.68	-44.1	-58.6	3.8	1.49e+00	0	50	104	0	60	18515
2026-01-01 10:48:57.19	188.21	3.75	-44.1	-58.7	3.8	1.49e+00	0	51	104	0	60	18537
2026-01-01 10:48:58.20	188.26	3.81	-44.1	-58.6	3.8	1.49e+00	0	51	104	0	60	18457
2026-01-01 10:48:59.21	188.31	3.88	-44.1	-58.6	3.8	1.49e+00	0	50	104	0	60	18497
2026-01-01 10:49:00.23	188.36	3.95	-44.1	-58.6	3.8	1.49e+00	0	51	104	0	60	18473
2026-01-01 10:49:01.24	188.40	4.01	-44.1	-58.6	3.8	1.49e+00	0	51	104	0	60	18514
2026-01-01 10:49:02.25	188.45	4.08	-44.1	-58.6	3.8	1.49e+00	0	51	104	0	60	18508
2026-01-01 10:49:03.26	188.50	4.14	-44.1	-58.6	3.8	1.49e+00	0	51	104	0	60	18491
2026-01-01 10:49:04.27	188.55	4.21	-44.1	-58.7	3.8	1.49e+00	0	51	104	0	60	18522
2026-01-01 10:49:05.28	188.60	4.28	-44.1	-58.6	3.8	1.49e+00	0	51	104	0	60	18440
2026-01-01 10:49:06.29	188.65	4.34	-44.1	-58.6	3.8	1.49e+00	0	51	104	0	60	18425
2026-01-01 10:49:07.30	188.70	4.41	-44.1	-58.6	3.8	1.49e+00	0	51	104	0	60	18435
2026-01-01 10:49:08.31	188.75	4.48	-44.1	-58.6	3.8	1.49e+00	0	51	104	0	60	18445
2026-01-01 10:49:09.32	188.80	4.54	-44.1	-58.6	3.8	1.49e+00	0	51	104	0	60	18306
2026-01-01 10:49:10.33	188.85	4.61	-44.1	-58.6	3.8	1.49e+00	0	51	104	0	60	18353
2026-01-01 10:49:11.34	188.90	4.68	-44.1	-58.6	3.8	1.49e+00	0	51	104	0	60	18348
2026-01-01 10:49:12.36	188.96	4.75	-44.1	-58.6	3.8	1.49e+00	0	52	104	0	60	18387
2026-01-01 10:49:13.37	189.01	4.82	-44.1	-58.6	3.8	1.49e+00	0	51	104	0	60	18348
2026-01-01 10:49:14.38	189.06	4.88	-44.1	-58.6	3.8	1.49e+00	0	51	104	0	60	18442
2026-01-01 10:49:15.39	189.11	4.95	-44.1	-58.6	3.8	1.49e+00	0	52	104	0	60	18415
2026-01-01 10:49:16.40	189.16	5.02	-44.1	-58.6	3.8	1.49e+00	0	52	104	0	60	18497
2026-01-01 10:49:17.41	189.22	5.09	-44.1	-58.6	3.8	1.49e+00	0	52	104	0	60	18452
2026-01-01 10:49:18.42	189.27	5.16	-44.1	-58.6	3.8	1.49e+00	0	52	104	0	60	18517
2026-01-01 10:49:19.43	189.32	5.23	-44.1	-58.6	3.8	1.49e+00	0	52	104	0	60	18439
2026-01-01 10:49:20.44	189.37	5.29	-44.1	-58.6	3.8	1.49e+00	0	52	104	0	60	18498
2026-01-01 10:49:21.45	189.43	5.36	-44.1	-58.6	3.8	1.49e+00	0	52	104	0	60	18446
2026-01-01 10:49:22.47	189.48	5.43	-44.1	-58.6	3.8	1.49e+00	0	52	104	0	60	18408
2026-01-01 10:49:23.47	189.53	5.50	-44.1	-58.6	3.8	1.49e+00	0	52	104	0	60	18336
2026-01-01 10:49:24.49	189.59	5.57	-44.1	-58.5	3.8	1.49e+00	0	52	104	0	60	18301
2026-01-01 10:49:25.50	189.64	5.64	-44.1	-58.5	3.8	1.49e+00	0	52	104	0	60	18262
2026-01-01 10:49:26.51	189.70	5.71	-44.1	-58.5	3.8	1.49e+00	0	52	104	0	60	18155
2026-01-01 10:49:27.52	189.75	5.78	-44.1	-58.5	3.8	1.49e+00	0	52	104	0	60	18140
2026-01-01 10:49:28.53	189.81	5.85	-44.1	-58.5	3.8	1.49e+00	0	52	104	0	60	18099
2026-01-01 10:49:29.54	189.86	5.92	-44.1	-58.4	3.8	1.49e+00	0	52	104	0	60	18000
2026-01-01 10:49:30.55	189.92	5.99	-44.1	-58.4	3.8	1.49e+00	0	52	104	0	60	17898
2026-01-01 10:49:31.56	189.97	6.06	-44.1	-58.3	3.8	1.49e+00	0	52	104	0	60	17880
2026-01-01 10:49:32.57	190.03	6.13	-44.1	-58.2	3.8	1.49e+00	0	53	104	0	60	17642
2026-01-01 10:49:33.58	190.09	6.21	-44.1	-58.2	3.8	1.49e+00	0	53	104	0	60	17606
2026-01-01 10:49:34.59	190.14	6.28	-44.1	-58.3	3.8	1.49e+00	0	52	104	0	60	17727
2026-01-01 10:49:35.60	190.20	6.35	-44.1	-58.2	3.8	1.49e+00	0	52	104	0	60	17618
2026-01-01 10:49:36.61	190.26	6.42	-44.1	-58.2	3.8	1.49e+00	0	53	104	0	60	17601
2026-01-01 10:49:37.62	190.31	6.49	-44.1	-58.3	3.8	1.49e+00	0	52	104	0	60	17834
2026-01-01 10:49:38.64	190.37	6.56	-44.1	-58.3	3.8	1.49e+00	0	52	104	0	60	17833
2026-01-01 10:49:39.64	190.43	6.64	-44.1	-58.1	3.8	1.49e+00	0	53	104	0	60	17421
2026-01-01 10:49:40.66	190.49	6.71	-44.1	-57.7	3.8	1.49e+00	0	53	104	0	60	16674
2026-01-01 10:49:41.67	190.55	6.78	-44.0	-57.0	3.8	1.49e+00	0	53	104	0	60	15312
2026-01-01 10:49:42.68	190.61	6.85	-44.1	-55.8	4.0	1.49e+00	0	53	104	0	59	14060
2026-01-01 10:49:43.69	190.66	6.93	-43.9	-54.4	4.4	1.41e+00	77	53	0	0	59	11967
2026-01-01 10:49:44.70	190.72	7.00	-43.7	-52.8	5.1	7.77e-01	0	53	0	2097152	59	10032
2026-01-01 10:49:45.71	190.78	7.07	-43.5	-51.6	5.9	4.82e-01	0	53	0	3145728	59	8690
2026-01-01 10:49:46.72	190.84	7.15	-43.2	-50.2	7.1	2.45e-01	0	53	0	5242880	58	7813
2026-01-01 10:49:47.73	190.90	7.22	-42.9	-49.1	8.1	7.31e-02	0	53	0	7340032	57	7297
2026-01-01 10:49:48.74	190.96	7.29	-42.6	-48.0	9.2	3.03e-02	0	53	0	9437184	57	6447
2026-01-01 10:49:49.75	191.02	7.37	-42.3	-47.0	10.3	1.06e-02	0	53	0	11534336	56	6122
2026-01-01 10:49:50.76	191.09	7.44	-41.7	-46.1	11.1	2.02e-03	0	53	0	12582912	55	5790
2026-01-01 10:49:51.78	191.15	7.52	-41.4	-45.4	11.8	7.52e-04	0	53	0	14680064	54	5697
2026-01-01 10:49:52.79	191.21	7.59	-41.2	-44.8	12.4	2.29e-04	0	53	0	16777216	54	5328
2026-01-01 10:49:53.80	191.27	7.67	-40.9	-44.4	12.9	8.08e-05	0	53	0	18874368	53	5352
2026-01-01 10:49:54.81	191.33	7.74	-40.7	-44.1	13.2	3.20e-05	0	53	0	20971520	53	5173
2026-01-01 10:49:55.82	191.40	7.82	-40.6	-43.9	13.4	2.05e-05	0	53	0	22020096	53	5065
2026-01-01 10:49:56.83	191.46	7.89	-40.6	-43.8	13.5	1.22e-05	0	53	0	24117248	53	5004
2026-01-01 10:49:57.84	191.52	7.97	-40.6	-43.8	13.5	9.10e-06	0	54	0	26214400	53	5014
2026-01-01 10:49:58.85	191.59	8.04	-40.7	-44.0	13.3	1.67e-05	0	53	0	28311552	53	5142
2026-01-01 10:49:59.86	191.65	8.12	-41.5	-45.5	11.9	1.37e-05	0	53	0	30408704	53	6096
2026-01-01 10:50:00.87	191.71	8.19	-41.9	-46.3	11.0	1.18e-03	0	53	0	32505856	54	6277
2026-01-01 10:50:01.88	191.78	8.27	-43.1	-49.8	7.9	8.92e-05	0	54	0	33554432	56	8445
2026-01-01 10:50:02.89	191.84	8.35	-43.4	-51.0	6.4	2.10e-01	0	54	0	35651584	57	9170
2026-01-01 10:50:03.90	191.91	8.42	-41.6	-45.7	11.7	6.33e-05	0	54	0	37748736	53	6248
2026-01-01 10:50:04.91	191.97	8.50	-40.7	-44.0	13.3	3.66e-04	0	54	0	39845888	53	5119
2026-01-01 10:50:05.92	192.04	8.58	-40.7	-43.9	13.4	1.52e-05	0	54	0	41943040	53	5059
2026-01-01 10:50:06.93	192.10	8.65	-40.5	-43.6	13.7	8.30e-06	0	54	0	42991616	53	4886
2026-01-01 10:50:07.94	192.17	8.73	-40.3	-43.3	14.1	5.30e-06	0	53	0	45088768	52	5014
2026-01-01 10:50:08.95	192.24	8.81	-40.3	-43.3	14.1	1.50e-06	0	54	0	47185920	52	4992
2026-01-01 10:50:09.96	192.30	8.89	-40.3	-43.3	14.1	3.00e-06	0	54	0	49283072	52	5012
2026-01-01 10:50:10.97	192.37	8.97	-40.3	-43.2	14.2	1.50e-06	0	54	0	51380224	52	4965
2026-01-01 10:50:11.98	192.44	9.04	-40.3	-43.2	14.2	2.20e-06	0	54	0	52428800	52	4983
2026-01-01 10:50:12.99	192.51	9.12	-40.2	-43.1	14.4	3.00e-06	0	54	0	54525952	52	4881
2026-01-01 10:50:14.00	192.58	9.20	-40.2	-43.0	14.4	0.00e+00	0	54	0	56623104	52	4844
2026-01-01 10:50:15.01	192.64	9.28	-40.1	-43.0	14.5	2.20e-06	0	54	0	58720256	52	4824
2026-01-01 10:50:16.02	192.71	9.36	-40.1	-42.9	14.5	1.50e-06	0	54	0	60817408	52	4796
2026-01-01 10:50:17.03	192.78	9.44	-40.1	-42.9	14.6	1.50e-06	0	54	0	61865984	52	4763
2026-01-01 10:50:18.04	192.85	9.52	-40.1	-42.9	14.6	7.00e-07	0	54	0	63963136	52	4776
2026-01-01 10:50:19.05	192.92	9.60	-40.1	-42.9	14.6	0.00e+00	0	54	0	66060288	52	4776
2026-01-01 10:50:20.06	192.99	9.68	-40.1	-42.8	14.6	0.00e+00	0	54	0	68157440	52	4750
2026-01-01 10:50:21.07	193.06	9.76	-40.0	-42.8	14.7	1.50e-06	0	54	0	70254592	52	4727
2026-01-01 10:50:22.08	193.14	9.84	-40.0	-42.8	14.7	0.00e+00	0	54	0	71303168	52	4718
2026-01-01 10:50:23.09	193.21	9.92	-40.0	-42.7	14.7	0.00e+00	0	54	0	73400320	52	4692
2026-01-01 10:50:24.10	193.28	10.00	-40.0	-42.7	14.8	0.00e+00	0	54	0	75497472	51	4969
2026-01-01 10:50:25.11	193.35	10.08	-40.0	-42.7	14.8	0.00e+00	0	54	0	77594624	51	4961
2026-01-01 10:50:26.12	193.43	10.16	-40.0	-42.7	14.8	0.00e+00	0	54	0	79691776	51	4941
2026-01-01 10:50:27.13	193.50	10.25	-40.0	-42.7	14.8	0.00e+00	0	54	0	80740352	51	4941
2026-01-01 10:50:28.14	193.57	10.33	-40.0	-42.6	14.8	7.00e-07	0	55	0	82837504	51	4924
2026-01-01 10:50:29.15	193.65	10.41	-40.0	-42.7	14.8	7.00e-07	0	55	0	84934656	51	4946
2026-01-01 10:50:30.16	193.72	10.49	-40.0	-42.7	14.8	0.00e+00	0	55	0	87031808	51	4939
2026-01-01 10:50:31.17	193.80	10.58	-39.9	-42.6	14.9	7.00e-07	0	54	0	89128960	51	4885
2026-01-01 10:50:32.18	193.87	10.66	-39.9	-42.6	14.9	0.00e+00	0	54	0	90177536	51	4873
2026-01-01 10:50:33.19	193.95	10.74	-39.9	-42.5	15.0	0.00e+00	0	54	0	92274688	51	4859
2026-01-01 10:50:34.20	194.02	10.83	-39.8	-42.4	15.1	0.00e+00	0	55	0	94371840	51	4808
2026-01-01 10:50:35.21	194.10	10.91	-39.8	-42.4	15.1	0.00e+00	0	55	0	96468992	51	4788
2026-01-01 10:50:36.22	194.18	10.99	-39.8	-42.4	15.1	0.00e+00	0	55	0	98566144	51	4802
2026-01-01 10:50:37.23	194.25	11.08	-39.8	-42.4	15.1	0.00e+00	0	55	0	100663296	51	4790
2026-01-01 10:50:38.24	194.33	11.16	-39.8	-42.4	15.1	0.00e+00	0	54	0	101711872	51	4814
2026-01-01 10:50:39.25	194.41	11.25	-39.8	-42.4	15.1	0.00e+00	0	55	0	103809024	51	4801
2026-01-01 10:50:40.26	194.49	11.33	-39.8	-42.4	15.1	0.00e+00	0	55	0	105906176	51	4805
2026-01-01 10:50:41.27	194.57	11.42	-39.8	-42.4	15.1	0.00e+00	0	55	0	108003328	51	4792
2026-01-01 10:50:42.28	194.65	11.50	-39.8	-42.4	15.2	0.00e+00	0	55	0	110100480	51	4762
2026-01-01 10:50:43.29	194.73	11.59	-39.8	-42.3	15.2	0.00e+00	0	55	0	111149056	51	4747
2026-01-01 10:50:44.30	194.81	11.67	-39.8	-42.4	15.1	0.00e+00	0	55	0	113246208	51	4779
2026-01-01 10:50:45.31	194.89	11.76	-39.8	-42.3	15.2	0.00e+00	0	55	0	115343360	51	4752
2026-01-01 10:50:46.32	194.97	11.84	-39.7	-42.2	15.3	0.00e+00	0	55	0	117440512	51	4700
2026-01-01 10:50:47.33	195.05	11.93	-39.7	-42.2	15.3	0.00e+00	0	55	0	119537664	51	4703
2026-01-01 10:50:48.34	195.13	12.02	-39.8	-42.3	15.3	0.00e+00	0	55	0	120586240	51	4724
2026-01-01 10:50:49.35	195.22	12.11	-39.8	-42.3	15.3	0.00e+00	0	55	0	122683392	51	4747
2026-01-01 10:50:50.36	195.30	12.19	-39.7	-42.2	15.4	0.00e+00	0	55	0	124780544	51	4678
2026-01-01 10:50:51.37	195.38	12.28	-39.7	-42.1	15.5	0.00e+00	0	55	0	126877696	51	4634
2026-01-01 10:50:52.38	195.47	12.37	-39.7	-42.2	15.4	0.00e+00	0	55	0	128974848	51	4685
2026-01-01 10:50:53.39	195.55	12.46	-39.7	-42.2	15.5	0.00e+00	0	55	0	130023424	51	4676
2026-01-01 10:50:54.40	195.64	12.54	-39.6	-42.1	15.6	0.00e+00	0	55	0	132120576	51	4609
2026-01-01 10:50:55.41	195.72	12.63	-39.6	-42.1	15.6	0.00e+00	0	55	0	134217728	51	4611
2026-01-01 10:50:56.42	195.81	12.72	-39.6	-42.1	15.7	0.00e+00	0	55	0	136314880	51	4599
2026-01-01 10:50:57.43	195.89	12.81	-39.6	-42.0	15.7	0.00e+00	0	55	0	138412032	51	4572
2026-01-01 10:50:58.44	195.98	12.90	-39.6	-42.0	15.8	0.00e+00	0	55	0	140509184	51	4554
2026-01-01 10:50:59.45	196.07	12.99	-39.6	-41.9	15.8	0.00e+00	0	55	0	141557760	51	4540
2026-01-01 10:51:00.46	196.16	13.08	-39.5	-41.8	15.9	0.00e+00	0	55	0	143654912	50	4733
2026-01-01 10:51:01.47	196.25	13.17	-39.4	-41.7	16.0	0.00e+00	0	55	0	145752064	50	4669
2026-01-01 10:51:02.48	196.33	13.26	-39.4	-41.6	16.1	0.00e+00	0	55	0	147849216	50	4649
2026-01-01 10:51:03.49	196.42	13.35	-39.3	-41.6	16.2	0.00e+00	0	55	0	149946368	50	4607
2026-01-01 10:51:04.50	196.51	13.44	-39.2	-41.5	16.3	0.00e+00	0	55	0	150994944	50	4550
2026-01-01 10:51:05.51	196.61	13.54	-39.2	-41.5	16.3	0.00e+00	0	55	0	153092096	50	4558
2026-01-01 10:51:06.52	196.70	13.63	-39.3	-41.5	16.3	0.00e+00	0	55	0	155189248	50	4570
2026-01-01 10:51:07.53	196.79	13.72	-39.2	-41.5	16.2	0.00e+00	0	55	0	157286400	50	4552
2026-01-01 10:51:08.54	196.88	13.81	-39.2	-41.4	16.3	0.00e+00	0	55	0	158334976	50	4533
2026-01-01 10:51:09.55	196.97	13.90	-39.2	-41.4	16.4	0.00e+00	0	55	0	160432128	50	4511
2026-01-01 10:51:10.56	197.07	14.00	-39.2	-41.4	16.4	0.00e+00	0	55	0	162529280	50	4507
2026-01-01 10:51:11.57	197.16	14.09	-39.2	-41.4	16.4	0.00e+00	0	55	0	164626432	50	4512
2026-01-01 10:51:12.58	197.26	14.18	-39.2	-41.4	16.5	0.00e+00	0	55	0	166723584	50	4501
2026-01-01 10:51:13.59	197.35	14.28	-39.2	-41.3	16.5	0.00e+00	0	55	0	168820736	50	4488
2026-01-01 10:51:14.60	197.45	14.37	-39.1	-41.3	16.5	0.00e+00	0	55	0	169869312	50	4475
2026-01-01 10:51:15.61	197.54	14.47	-39.1	-41.3	16.5	0.00e+00	0	55	0	171966464	50	4475
2026-01-01 10:51:16.62	197.64	14.56	-39.2	-41.4	16.5	0.00e+00	0	55	0	174063616	50	4499
2026-01-01 10:51:17.63	197.74	14.65	-39.2	-41.4	16.5	0.00e+00	0	55	0	176160768	50	4511
2026-01-01 10:51:18.64	197.84	14.75	-39.2	-41.4	16.4	0.00e+00	0	55	0	178257920	50	4538
2026-01-01 10:51:19.65	197.93	14.85	-39.2	-41.4	16.4	0.00e+00	0	55	0	179306496	50	4537
2026-01-01 10:51:20.66	198.03	14.94	-39.3	-41.5	16.4	0.00e+00	0	55	0	181403648	50	4566
2026-01-01 10:51:21.67	198.13	15.04	-39.3	-41.5	16.3	0.00e+00	0	56	0	183500800	50	4572
2026-01-01 10:51:22.68	198.23	15.13	-39.3	-41.5	16.3	0.00e+00	0	55	0	185597952	50	4588
2026-01-01 10:51:23.69	198.34	15.23	-39.3	-41.6	16.2	0.00e+00	0	55	0	187695104	50	4633
2026-01-01 10:51:24.70	198.44	15.33	-39.4	-41.6	16.1	0.00e+00	0	56	0	188743680	50	4651
2026-01-01 10:51:25.71	198.54	15.42	-39.4	-41.7	16.1	0.00e+00	0	55	0	190840832	50	4672
2026-01-01 10:51:26.72	198.64	15.52	-39.4	-41.7	16.1	0.00e+00	0	55	0	192937984	50	4676
2026-01-01 10:51:27.73	198.75	15.62	-39.5	-41.8	16.0	0.00e+00	0	56	0	195035136	50	4723
2026-01-01 10:51:28.74	198.85	15.72	-39.5	-41.8	16.0	0.00e+00	0	55	0	197132288	50	4732
2026-01-01 10:51:29.75	198.96	15.82	-39.5	-41.9	15.9	0.00e+00	0	55	0	198180864	50	4763
2026-01-01 10:51:30.76	199.06	15.92	-39.6	-41.9	15.9	0.00e+00	0	56	0	200278016	50	4786
2026-01-01 10:51:31.78	199.17	16.02	-39.5	-41.8	16.0	0.00e+00	0	56	0	202375168	50	4737
2026-01-01 10:51:32.78	199.28	16.11	-39.6	-41.9	15.9	0.00e+00	0	55	0	204472320	50	4791
2026-01-01 10:51:33.79	199.38	16.21	-39.6	-41.9	15.9	0.00e+00	0	56	0	206569472	50	4806
2026-01-01 10:51:34.80	199.49	16.31	-39.6	-41.9	16.0	0.00e+00	0	56	0	208666624	50	4786
2026-01-01 10:51:35.82	199.60	16.42	-39.6	-41.9	16.0	0.00e+00	0	56	0	209715200	50	4783
2026-01-01 10:51:36.82	199.71	16.52	-39.6	-41.9	16.0	0.00e+00	0	56	0	211812352	50	4785
2026-01-01 10:51:37.84	199.82	16.62	-39.5	-41.8	16.1	0.00e+00	0	56	0	213909504	50	4734
2026-01-01 10:51:38.85	199.93	16.72	-39.4	-41.7	16.2	0.00e+00	0	56	0	216006656	50	4680
2026-01-01 10:51:39.86	200.05	16.82	-39.4	-41.7	16.2	0.00e+00	0	56	0	218103808	50	4671
2026-01-01 10:51:40.86	200.16	16.92	-39.3	-41.5	16.4	0.00e+00	0	56	0	219152384	50	4596
2026-01-01 10:51:41.87	200.27	17.02	-39.3	-41.5	16.4	0.00e+00	0	56	0	221249536	50	4579
2026-01-01 10:51:42.89	200.39	17.13	-39.3	-41.4	16.5	0.00e+00	0	56	0	223346688	50	4539
2026-01-01 10:51:43.90	200.50	17.23	-39.2	-41.4	16.6	0.00e+00	0	56	0	225443840	50	4497
2026-01-01 10:51:44.91	200.62	17.33	-39.1	-41.3	16.7	0.00e+00	0	56	0	227540992	50	4461
2026-01-01 10:51:45.92	200.74	17.44	-39.1	-41.2	16.7	0.00e+00	0	56	0	228589568	50	4439
2026-01-01 10:51:46.93	200.85	17.54	-39.1	-41.3	16.6	0.00e+00	0	56	0	230686720	50	4459
2026-01-01 10:51:47.94	200.97	17.65	-39.1	-41.2	16.7	0.00e+00	0	56	0	232783872	50	4436
2026-01-01 10:51:48.95	201.09	17.75	-39.1	-41.3	16.7	0.00e+00	0	56	0	234881024	50	4455
2026-01-01 10:51:49.96	201.21	17.86	-39.1	-41.2	16.8	0.00e+00	0	56	0	236978176	50	4412
2026-01-01 10:51:50.97	201.33	17.96	-39.1	-41.2	16.8	0.00e+00	0	56	0	238026752	50	4420
2026-01-01 10:51:51.98	201.45	18.07	-39.1	-41.3	16.7	0.00e+00	0	56	0	240123904	50	4447
2026-01-01 10:51:52.99	201.57	18.17	-39.1	-41.2	16.7	0.00e+00	0	56	0	242221056	50	4426
2026-01-01 10:51:54.00	201.70	18.28	-39.2	-41.3	16.7	0.00e+00	0	56	0	244318208	50	4463
2026-01-01 10:51:55.01	201.82	18.39	-39.2	-41.4	16.6	0.00e+00	0	56	0	246415360	50	4508
2026-01-01 10:51:56.01	201.95	18.49	-39.2	-41.4	16.6	0.00e+00	0	56	0	247463936	50	4512
2026-01-01 10:51:57.02	202.07	18.60	-39.3	-41.4	16.6	0.00e+00	0	56	0	249561088	50	4525
2026-01-01 10:51:58.03	202.20	18.71	-39.3	-41.5	16.5	0.00e+00	0	56	0	251658240	50	4568
2026-01-01 10:51:59.04	202.32	18.81	-39.3	-41.5	16.5	0.00e+00	0	56	0	253755392	50	4588
2026-01-01 10:52:00.05	202.45	18.92	-39.4	-41.6	16.4	0.00e+00	0	56	0	255852544	50	4635
2026-01-01 10:52:01.06	202.58	19.03	-39.4	-41.7	16.3	0.00e+00	0	56	0	256901120	50	4673
2026-01-01 10:52:02.07	202.71	19.14	-39.4	-41.6	16.4	0.00e+00	0	56	0	258998272	50	4634
2026-01-01 10:52:03.08	202.84	19.25	-39.5	-41.8	16.3	0.00e+00	0	56	0	261095424	50	4724
2026-01-01 10:52:04.09	202.97	19.36	-39.6	-41.9	16.2	0.00e+00	0	56	0	263192576	50	4765
2026-01-01 10:52:05.10	203.11	19.47	-39.6	-41.9	16.2	0.00e+00	0	56	0	265289728	50	4768
2026-01-01 10:52:06.11	203.24	19.58	-39.6	-41.9	16.1	0.00e+00	0	56	0	266338304	50	4801
2026-01-01 10:52:07.12	203.38	19.69	-39.6	-42.0	16.1	0.00e+00	0	56	0	268435456	50	4815
2026-01-01 10:52:08.13	203.51	19.80	-39.7	-42.0	16.0	0.00e+00	0	56	0	270532608	50	4848
2026-01-01 10:52:09.14	203.65	19.91	-39.7	-42.0	16.1	0.00e+00	0	56	0	272629760	50	4829
2026-01-01 10:52:10.15	203.79	20.02	-39.8	-42.1	16.0	0.00e+00	0	56	0	274726912	50	4896
2026-01-01 10:52:11.16	203.92	20.14	-39.7	-42.0	16.0	0.00e+00	0	56	0	276824064	50	4865
2026-01-01 10:52:12.17	204.06	20.25	-39.8	-42.1	16.0	0.00e+00	0	56	0	277872640	50	4896
2026-01-01 10:52:13.18	204.20	20.36	-39.7	-42.1	16.0	0.00e+00	0	56	0	279969792	50	4877
2026-01-01 10:52:14.18	204.34	20.47	-39.7	-42.1	16.0	0.00e+00	0	56	0	282066944	50	4887
2026-01-01 10:52:15.19	204.49	20.59	-39.8	-42.1	16.0	0.00e+00	0	56	0	284164096	50	4902
2026-01-01 10:52:16.20	204.63	20.70	-39.7	-42.0	16.0	0.00e+00	0	57	0	286261248	50	4869
2026-01-01 10:52:17.21	204.77	20.82	-39.8	-42.2	15.9	0.00e+00	0	56	0	287309824	50	4931
2026-01-01 10:52:18.22	204.92	20.93	-39.9	-42.2	15.8	0.00e+00	0	56	0	289406976	50	4979
2026-01-01 10:52:19.23	205.07	21.04	-39.8	-42.2	15.9	0.00e+00	0	56	0	291504128	50	4931
2026-01-01 10:52:20.24	205.21	21.16	-39.8	-42.1	15.9	0.00e+00	0	56	0	293601280	50	4917
2026-01-01 10:52:21.25	205.36	21.27	-39.8	-42.1	16.0	0.00e+00	0	56	0	295698432	50	4913
2026-01-01 10:52:22.26	205.51	21.39	-39.8	-42.1	16.0	0.00e+00	0	56	0	296747008	50	4888
2026-01-01 10:52:23.27	205.66	21.51	-39.8	-42.1	16.0	0.00e+00	0	56	0	298844160	50	4924
2026-01-01 10:52:24.28	205.82	21.62	-39.7	-42.0	16.0	0.00e+00	0	56	0	300941312	50	4860
2026-01-01 10:52:25.29	205.97	21.74	-39.7	-41.9	16.1	0.00e+00	0	56	0	303038464	50	4811
2026-01-01 10:52:26.29	206.12	21.86	-39.7	-42.0	16.1	0.00e+00	0	56	0	305135616	50	4849
2026-01-01 10:52:27.31	206.28	21.97	-39.7	-42.0	16.0	0.00e+00	0	56	0	306184192	50	4863
2026-01-01 10:52:28.31	206.43	22.09	-39.8	-42.2	16.0	0.00e+00	0	56	0	308281344	50	4927
2026-01-01 10:52:29.32	206.59	22.21	-39.8	-42.1	16.0	0.00e+00	0	56	0	310378496	50	4917
2026-01-01 10:52:30.33	206.75	22.33	-39.9	-42.2	15.9	0.00e+00	0	56	0	312475648	50	4981
2026-01-01 10:52:31.35	206.91	22.45	-39.8	-42.2	16.0	0.00e+00	0	56	0	314572800	50	4933
2026-01-01 10:52:32.36	207.07	22.57	-39.9	-42.2	15.9	0.00e+00	0	56	0	315621376	50	4977
2026-01-01 10:52:33.36	207.23	22.69	-39.8	-42.2	16.0	0.00e+00	0	56	0	317718528	50	4927
2026-01-01 10:52:34.37	207.40	22.80	-39.8	-42.2	15.9	0.00e+00	0	56	0	319815680	50	4944
2026-01-01 10:52:35.38	207.56	22.92	-39.8	-42.1	16.0	0.00e+00	0	56	0	321912832	50	4924
2026-01-01 10:52:36.39	207.73	23.05	-39.8	-42.1	16.1	0.00e+00	0	56	0	324009984	50	4884
2026-01-01 10:52:37.40	207.90	23.17	-39.8	-42.1	16.1	0.00e+00	0	56	0	325058560	50	4881
2026-01-01 10:52:38.42	208.07	23.29	-39.8	-42.1	16.0	0.00e+00	0	56	0	327155712	50	4888
2026-01-01 10:52:39.42	208.24	23.41	-39.8	-42.1	16.1	0.00e+00	0	57	0	329252864	50	4881
2026-01-01 10:52:40.43	208.41	23.53	-39.8	-42.1	16.1	0.00e+00	0	56	0	331350016	50	4884
2026-01-01 10:52:41.45	208.58	23.65	-39.7	-42.1	16.1	0.00e+00	0	56	0	333447168	50	4876
2026-01-01 10:52:42.45	208.75	23.77	-39.7	-42.0	16.1	0.00e+00	0	56	0	334495744	50	4848
2026-01-01 10:52:43.46	208.93	23.90	-39.8	-42.1	16.1	0.00e+00	0	56	0	336592896	50	4876
2026-01-01 10:52:44.47	209.11	24.02	-39.8	-42.1	16.0	0.00e+00	0	56	0	338690048	50	4888
2026-01-01 10:52:45.48	209.28	24.14	-39.8	-42.1	16.1	0.00e+00	0	56	0	340787200	50	4891
2026-01-01 10:52:46.49	209.46	24.27	-39.7	-42.0	16.1	0.00e+00	0	56	0	342884352	50	4843
2026-01-01 10:52:47.50	209.64	24.39	-39.7	-42.0	16.1	0.00e+00	0	56	0	344981504	50	4867
2026-01-01 10:52:48.51	209.83	24.51	-39.8	-42.1	16.0	0.00e+00	0	56	0	346030080	50	4907
2026-01-01 10:52:49.52	210.01	24.64	-39.9	-42.2	16.0	0.00e+00	0	56	0	348127232	50	4956
2026-01-01 10:52:50.53	210.19	24.76	-39.9	-42.3	15.9	0.00e+00	0	56	0	350224384	50	5006
2026-01-01 10:52:51.54	210.38	24.89	-39.9	-42.3	15.8	0.00e+00	0	56	0	352321536	50	5032
2026-01-01 10:52:52.55	210.57	25.01	-39.9	-42.2	15.9	0.00e+00	0	56	0	354418688	50	4979
2026-01-01 10:52:53.56	210.76	25.14	-39.9	-42.3	15.9	0.00e+00	0	57	0	355467264	50	4998
2026-01-01 10:52:54.57	210.95	25.27	-39.9	-42.3	15.9	0.00e+00	0	57	0	357564416	50	4988
2026-01-01 10:52:55.58	211.14	25.39	-39.9	-42.2	15.9	0.00e+00	0	56	0	359661568	50	4975
2026-01-01 10:52:56.58	211.33	25.52	-39.9	-42.3	15.9	0.00e+00	0	56	0	361758720	50	4990
2026-01-01 10:52:57.59	211.53	25.64	-39.9	-42.3	15.8	0.00e+00	0	57	0	363855872	50	5016
2026-01-01 10:52:58.61	211.73	25.77	-40.0	-42.4	15.8	0.00e+00	0	57	0	364904448	50	5049
2026-01-01 10:52:59.62	211.92	25.90	-39.9	-42.3	15.9	0.00e+00	0	57	0	367001600	50	5020
2026-01-01 10:53:00.62	212.12	26.02	-39.9	-42.3	15.8	0.00e+00	0	56	0	369098752	50	5021
2026-01-01 10:53:01.64	212.33	26.15	-39.9	-42.3	15.9	0.00e+00	0	56	0	371195904	50	5000
2026-01-01 10:53:02.65	212.53	26.28	-40.1	-42.5	15.6	0.00e+00	0	57	0	373293056	50	5157
2026-01-01 10:53:03.66	212.73	26.41	-40.2	-42.7	15.5	0.00e+00	0	56	0	374341632	50	5232
2026-01-01 10:53:04.67	212.94	26.54	-40.2	-42.7	15.5	0.00e+00	0	57	0	376438784	51	4968
2026-01-01 10:53:05.68	213.15	26.67	-40.2	-42.7	15.4	0.00e+00	0	57	0	378535936	51	4977
2026-01-01 10:53:06.69	213.36	26.79	-40.2	-42.8	15.4	0.00e+00	0	57	0	380633088	51	4987
2026-01-01 10:53:07.70	213.57	26.92	-40.2	-42.7	15.5	0.00e+00	0	57	0	382730240	51	4957
2026-01-01 10:53:08.70	213.78	27.05	-40.2	-42.7	15.5	0.00e+00	0	57	0	383778816	51	4929
2026-01-01 10:53:09.71	213.99	27.18	-40.1	-42.5	15.7	0.00e+00	0	57	0	385875968	51	4848
2026-01-01 10:53:10.72	214.21	27.31	-40.0	-42.4	15.8	0.00e+00	0	57	0	387973120	51	4796
2026-01-01 10:53:11.73	214.43	27.44	-40.2	-42.6	15.6	0.00e+00	0	56	0	390070272	51	4906
2026-01-01 10:53:12.74	214.65	27.57	-40.1	-42.5	15.6	0.00e+00	0	57	0	392167424	51	4870
2026-01-01 10:53:13.75	214.87	27.70	-40.2	-42.6	15.6	0.00e+00	0	57	0	393216000	51	4921
2026-01-01 10:53:14.76	215.09	27.83	-40.3	-42.8	15.3	0.00e+00	0	57	0	395313152	51	5016
2026-01-01 10:53:15.77	215.32	27.96	-40.4	-43.0	15.2	0.00e+00	0	57	0	397410304	51	5148
2026-01-01 10:53:16.78	215.54	28.09	-40.4	-43.0	15.2	0.00e+00	0	57	0	399507456	51	5111
2026-01-01 10:53:17.79	215.77	28.22	-40.5	-43.1	15.2	0.00e+00	0	57	0	401604608	51	5174
2026-01-01 10:53:18.80	216.00	28.35	-40.4	-43.0	15.2	0.00e+00	0	57	0	402653184	51	5117
2026-01-01 10:53:19.81	216.24	28.48	-40.4	-43.0	15.2	0.00e+00	0	57	0	404750336	51	5142
2026-01-01 10:53:20.82	216.47	28.61	-40.3	-42.9	15.3	0.00e+00	0	57	0	406847488	51	5063
2026-01-01 10:53:21.83	216.71	28.75	-40.4	-42.9	15.3	0.00e+00	0	57	0	408944640	51	5077
2026-01-01 10:53:22.84	216.94	28.88	-40.4	-43.0	15.2	0.00e+00	0	57	0	411041792	51	5153
2026-01-01 10:53:23.85	217.18	29.01	-40.4	-43.0	15.2	7.00e-07	0	57	0	413138944	51	5123
2026-01-01 10:53:24.86	217.43	29.14	-40.4	-42.9	15.2	0.00e+00	0	57	0	414187520	51	5093
2026-01-01 10:53:25.86	217.67	29.27	-40.4	-43.0	15.2	0.00e+00	0	57	0	416284672	51	5142
2026-01-01 10:53:26.87	217.91	29.40	-40.5	-43.1	15.1	0.00e+00	0	57	0	418381824	51	5200
2026-01-01 10:53:27.88	218.16	29.53	-40.4	-43.0	15.2	0.00e+00	0	57	0	420478976	51	5153
2026-01-01 10:53:28.89	218.41	29.66	-40.4	-43.0	15.1	0.00e+00	0	57	0	422576128	51	5153
2026-01-01 10:53:29.90	218.66	29.80	-40.4	-43.0	15.2	0.00e+00	0	57	0	423624704	51	5134
2026-01-01 10:53:30.91	218.92	29.93	-40.5	-43.1	15.1	0.00e+00	0	57	0	425721856	51	5186
2026-01-01 10:53:31.92	219.17	30.06	-40.6	-43.2	15.0	0.00e+00	0	57	0	427819008	51	5257
2026-01-01 10:53:32.93	219.43	30.19	-40.6	-43.3	14.9	0.00e+00	0	57	0	429916160	51	5327
2026-01-01 10:53:33.94	219.69	30.32	-40.7	-43.4	14.8	0.00e+00	0	57	0	432013312	51	5354
2026-01-01 10:53:34.95	219.95	30.45	-40.6	-43.3	14.8	0.00e+00	0	57	0	433061888	51	5322
2026-01-01 10:53:35.96	220.21	30.58	-40.5	-43.1	15.1	0.00e+00	0	57	0	435159040	51	5199
2026-01-01 10:53:36.97	220.48	30.72	-40.4	-43.0	15.2	0.00e+00	0	57	0	437256192	51	5103
2026-01-01 10:53:37.98	220.75	30.85	-40.3	-42.9	15.3	0.00e+00	0	57	0	439353344	51	5063
2026-01-01 10:53:38.99	221.02	30.98	-40.3	-42.8	15.4	0.00e+00	0	57	0	441450496	51	5005
2026-01-01 10:53:40.00	221.29	31.11	-40.4	-43.0	15.3	0.00e+00	0	57	0	442499072	51	5116
2026-01-01 10:53:41.01	221.57	31.24	-40.4	-43.0	15.2	0.00e+00	0	57	0	444596224	51	5137
2026-01-01 10:53:42.02	221.84	31.37	-40.5	-43.2	15.0	0.00e+00	0	57	0	446693376	51	5224
2026-01-01 10:53:43.03	222.12	31.50	-40.6	-43.2	15.0	0.00e+00	0	57	0	448790528	51	5274
2026-01-01 10:53:44.04	222.40	31.63	-40.6	-43.2	14.9	0.00e+00	0	57	0	450887680	51	5271
2026-01-01 10:53:45.05	222.69	31.76	-40.6	-43.3	14.9	0.00e+00	0	57	0	451936256	51	5337
2026-01-01 10:53:46.06	222.97	31.89	-40.6	-43.4	14.7	0.00e+00	0	57	0	454033408	52	5058
2026-01-01 10:53:47.07	223.26	32.02	-40.7	-43.5	14.6	0.00e+00	0	57	0	456130560	52	5141
2026-01-01 10:53:48.08	223.55	32.15	-40.9	-43.8	14.3	0.00e+00	0	57	0	458227712	52	5304
2026-01-01 10:53:49.09	223.84	32.28	-41.0	-44.0	14.1	7.00e-07	0	57	0	460324864	52	5405
2026-01-01 10:53:50.10	224.14	32.41	-41.2	-44.2	13.9	3.00e-06	0	57	0	461373440	52	5577
2026-01-01 10:53:51.11	224.44	32.54	-41.1	-44.1	14.0	3.00e-06	0	57	0	463470592	52	5521
2026-01-01 10:53:52.12	224.74	32.67	-41.1	-44.1	14.0	1.50e-06	0	57	0	465567744	52	5472
2026-01-01 10:53:53.13	225.04	32.80	-41.1	-44.1	14.0	7.00e-07	0	57	0	467664896	52	5475
2026-01-01 10:53:54.14	225.34	32.93	-41.2	-44.2	13.9	3.80e-06	0	57	0	469762048	52	5565
2026-01-01 10:53:55.15	225.65	33.05	-41.3	-44.5	13.6	7.60e-06	0	57	0	470810624	53	5440
2026-01-01 10:53:56.16	225.96	33.18	-41.4	-44.5	13.5	7.60e-06	0	57	0	472907776	53	5462
2026-01-01 10:53:57.17	226.27	33.31	-41.5	-44.8	13.3	1.14e-05	0	57	0	475004928	53	5622
2026-01-01 10:53:58.18	226.58	33.44	-41.5	-44.9	13.2	1.90e-05	0	57	0	477102080	53	5680
2026-01-01 10:53:59.19	226.90	33.56	-41.6	-45.1	13.0	1.52e-05	0	57	0	479199232	53	5794
2026-01-01 10:54:00.21	227.22	33.69	-41.8	-45.3	12.8	6.02e-05	0	57	0	481296384	54	5626
2026-01-01 10:54:01.21	227.54	33.81	-41.8	-45.4	12.7	9.38e-05	0	57	0	482344960	54	5691
2026-01-01 10:54:02.22	227.86	33.94	-41.9	-45.6	12.5	1.08e-04	0	57	0	484442112	54	5796
2026-01-01 10:54:03.23	228.19	34.06	-42.1	-46.0	12.0	1.50e-04	0	57	0	486539264	54	6122
2026-01-01 10:54:04.24	228.52	34.19	-42.3	-46.2	11.8	3.42e-04	0	57	0	488636416	55	5911
2026-01-01 10:54:05.26	228.85	34.31	-42.3	-46.2	11.8	4.63e-04	0	57	0	490733568	55	5914
2026-01-01 10:54:06.27	229.18	34.43	-42.1	-45.9	12.2	3.76e-04	0	57	0	491782144	55	5665
2026-01-01 10:54:07.28	229.52	34.55	-42.1	-45.8	12.2	1.98e-04	0	57	0	493879296	55	5641
2026-01-01 10:54:08.29	229.86	34.68	-42.0	-45.7	12.2	2.19e-04	0	57	0	495976448	55	5579
2026-01-01 10:54:09.30	230.20	34.80	-42.0	-45.7	12.4	1.68e-04	0	57	0	498073600	55	5534
2026-01-01 10:54:10.31	230.54	34.92	-41.9	-45.6	12.5	1.34e-04	0	57	0	500170752	55	5511
2026-01-01 10:54:11.32	230.89	35.04	-42.0	-45.7	12.3	1.52e-04	0	57	0	501219328	55	5574
2026-01-01 10:54:12.33	231.24	35.16	-42.0	-45.7	12.4	1.40e-04	0	57	0	503316480	55	5534
2026-01-01 10:54:13.34	231.59	35.27	-42.0	-45.7	12.4	1.69e-04	0	57	0	505413632	55	5540
2026-01-01 10:54:14.35	231.94	35.39	-42.0	-45.7	12.4	1.70e-04	0	57	0	507510784	55	5555
2026-01-01 10:54:15.36	232.30	35.51	-42.1	-45.8	12.2	2.04e-04	0	57	0	509607936	55	5655
2026-01-01 10:54:16.37	232.65	35.62	-42.0	-45.7	12.4	1.73e-04	0	57	0	510656512	55	5533
2026-01-01 10:54:17.38	233.01	35.74	-41.9	-45.5	12.6	1.17e-04	0	57	0	512753664	55	5420
2026-01-01 10:54:18.39	233.38	35.85	-41.7	-45.1	12.9	7.70e-05	0	57	0	514850816	55	5212
2026-01-01 10:54:19.40	233.74	35.96	-41.5	-44.9	13.2	2.67e-05	0	57	0	516947968	55	5045
2026-01-01 10:54:20.41	234.11	36.08	-41.5	-44.8	13.3	2.21e-05	0	57	0	519045120	55	5023
2026-01-01 10:54:21.42	234.48	36.19	-41.5	-44.7	13.4	1.52e-05	0	57	0	520093696	55	4972
2026-01-01 10:54:22.43	234.86	36.30	-41.5	-44.8	13.3	1.29e-05	0	57	0	522190848	54	5325
2026-01-01 10:54:23.44	235.23	36.41	-41.8	-45.2	12.9	3.58e-05	0	57	0	524288000	54	5583
2026-01-01 10:54:24.45	235.61	36.52	-41.9	-45.5	12.6	9.53e-05	0	57	0	526385152	54	5752
2026-01-01 10:54:25.46	235.99	36.62	-41.9	-45.5	12.5	1.03e-04	0	57	0	528482304	54	5779
2026-01-01 10:54:26.47	236.37	36.73	-41.8	-45.3	12.8	7.24e-05	0	57	0	529530880	54	5640
2026-01-01 10:54:27.48	236.76	36.84	-41.6	-44.9	13.2	3.35e-05	0	57	0	531628032	54	5398
2026-01-01 10:54:28.49	237.15	36.94	-41.2	-44.2	13.9	9.10e-06	0	57	0	533725184	54	4969
2026-01-01 10:54:29.50	237.54	37.04	-41.0	-43.9	14.3	1.50e-06	0	57	0	535822336	53	5060
2026-01-01 10:54:30.51	237.93	37.15	-40.7	-43.5	14.6	0.00e+00	0	57	0	537919488	53	4827
2026-01-01 10:54:31.52	238.32	37.25	-40.7	-43.5	14.6	0.00e+00	0	57	0	538968064	53	4858
2026-01-01 10:54:32.53	238.72	37.35	-40.7	-43.5	14.6	0.00e+00	0	57	0	541065216	53	4854
2026-01-01 10:54:33.54	239.12	37.44	-40.7	-43.5	14.7	7.00e-07	0	57	0	543162368	53	4849
2026-01-01 10:54:34.55	239.52	37.54	-40.7	-43.4	14.7	0.00e+00	0	57	0	545259520	53	4807
2026-01-01 10:54:35.56	239.93	37.64	-40.6	-43.3	14.8	0.00e+00	0	57	0	547356672	53	4746
2026-01-01 10:54:36.57	240.34	37.73	-40.3	-42.8	15.3	0.00e+00	0	57	0	549453824	52	4740
2026-01-01 10:54:37.58	240.75	37.82	-40.2	-42.7	15.5	0.00e+00	0	57	0	550502400	52	4668
2026-01-01 10:54:38.60	241.16	37.92	-40.1	-42.5	15.6	0.00e+00	0	57	0	552599552	52	4572
2026-01-01 10:54:39.60	241.57	38.01	-40.3	-42.8	15.4	0.00e+00	0	57	0	554696704	52	4742
2026-01-01 10:54:40.61	241.99	38.09	-40.5	-43.1	15.0	0.00e+00	0	57	0	556793856	52	4913
2026-01-01 10:54:41.62	242.40	38.18	-40.6	-43.4	14.7	7.00e-07	0	57	0	558891008	52	5059
2026-01-01 10:54:42.63	242.83	38.27	-40.7	-43.4	14.7	7.00e-07	0	57	0	559939584	52	5062
2026-01-01 10:54:43.64	243.25	38.35	-40.7	-43.4	14.7	0.00e+00	0	57	0	562036736	52	5084
2026-01-01 10:54:44.66	243.68	38.44	-40.7	-43.5	14.7	0.00e+00	0	57	0	564133888	52	5130
2026-01-01 10:54:45.67	244.10	38.52	-40.7	-43.5	14.6	0.00e+00	0	57	0	566231040	52	5150
2026-01-01 10:54:46.68	244.53	38.60	-40.8	-43.6	14.5	0.00e+00	0	57	0	568328192	52	5190
2026-01-01 10:54:47.69	244.96	38.68	-40.7	-43.4	14.7	0.00e+00	0	57	0	569376768	52	5082
2026-01-01 10:54:48.70	245.40	38.75	-40.6	-43.3	14.9	0.00e+00	0	57	0	571473920	52	5006
2026-01-01 10:54:49.70	245.83	38.83	-40.6	-43.2	14.9	0.00e+00	0	57	0	573571072	52	4967
2026-01-01 10:54:50.71	246.27	38.90	-40.7	-43.5	14.6	0.00e+00	0	57	0	575668224	52	5140
2026-01-01 10:54:51.72	246.70	38.97	-40.9	-43.8	14.3	1.50e-06	0	57	0	577765376	52	5323
2026-01-01 10:54:52.73	247.14	39.04	-40.9	-43.8	14.3	0.00e+00	0	57	0	578813952	52	5311
2026-01-01 10:54:53.74	247.59	39.11	-40.8	-43.6	14.5	1.50e-06	0	57	0	580911104	52	5181
2026-01-01 10:54:54.75	248.03	39.18	-40.7	-43.4	14.7	0.00e+00	0	57	0	583008256	52	5062
2026-01-01 10:54:55.76	248.48	39.24	-40.7	-43.5	14.7	7.00e-07	0	57	0	585105408	52	5128
2026-01-01 10:54:56.77	248.93	39.30	-40.7	-43.5	14.7	0.00e+00	0	57	0	587202560	52	5101
2026-01-01 10:54:57.78	249.38	39.36	-40.7	-43.4	14.8	7.00e-07	0	57	0	588251136	52	5050
2026-01-01 10:54:58.79	249.83	39.42	-40.5	-43.1	15.1	0.00e+00	0	57	0	590348288	52	4898
2026-01-01 10:54:59.80	250.28	39.48	-40.4	-43.0	15.2	0.00e+00	0	57	0	592445440	52	4822
2026-01-01 10:55:00.81	250.73	39.54	-40.3	-42.8	15.4	0.00e+00	0	57	0	594542592	52	4727
2026-01-01 10:55:01.82	251.19	39.59	-40.4	-43.0	15.2	0.00e+00	0	57	0	596639744	52	4825
2026-01-01 10:55:02.83	251.65	39.64	-40.7	-43.5	14.7	0.00e+00	0	57	0	597688320	52	5106
2026-01-01 10:55:03.84	252.11	39.69	-41.0	-43.9	14.2	1.50e-06	0	57	0	599785472	52	5396
2026-01-01 10:55:04.85	252.57	39.74	-41.1	-44.1	14.1	7.00e-07	0	57	0	601882624	52	5487
2026-01-01 10:55:05.86	253.03	39.78	-40.8	-43.6	14.5	7.00e-07	0	57	0	603979776	52	5177
2026-01-01 10:55:06.87	253.49	39.83	-40.5	-43.2	15.0	7.00e-07	0	57	0	606076928	52	4937
2026-01-01 10:55:07.88	253.95	39.87	-40.1	-42.6	15.6	0.00e+00	0	57	0	607125504	52	4609
2026-01-01 10:55:08.89	254.42	39.91	-40.1	-42.4	15.8	0.00e+00	0	57	0	609222656	51	4793
2026-01-01 10:55:09.90	254.89	39.95	-40.0	-42.3	16.0	0.00e+00	0	57	0	611319808	51	4757
2026-01-01 10:55:10.91	255.35	39.98	-40.3	-42.7	15.5	0.00e+00	0	57	0	613416960	51	4975
2026-01-01 10:55:11.92	255.82	40.02	-40.6	-43.3	14.9	0.00e+00	0	57	0	615514112	51	5306
2026-01-01 10:55:12.93	256.29	40.05	-40.7	-43.5	14.6	7.00e-07	0	57	0	617611264	52	5130
2026-01-01 10:55:13.94	256.76	40.08	-40.7	-43.4	14.7	0.00e+00	0	57	0	618659840	52	5072
2026-01-01 10:55:14.95	257.23	40.10	-40.5	-43.2	15.0	0.00e+00	0	57	0	620756992	52	4931
2026-01-01 10:55:15.96	257.70	40.13	-40.5	-43.1	15.1	0.00e+00	0	57	0	622854144	52	4912
2026-01-01 10:55:16.97	258.17	40.15	-40.6	-43.2	14.9	0.00e+00	0	57	0	624951296	52	4968
2026-01-01 10:55:17.98	258.65	40.17	-40.9	-43.7	14.4	0.00e+00	0	57	0	627048448	52	5265
2026-01-01 10:55:18.99	259.12	40.19	-41.4	-44.6	13.5	6.10e-06	0	57	0	628097024	53	5492
2026-01-01 10:55:20.00	259.59	40.21	-41.9	-45.4	12.7	3.05e-05	0	57	0	630194176	54	5698
2026-01-01 10:55:21.01	260.07	40.22	-42.2	-46.1	12.0	1.72e-04	0	57	0	632291328	54	6179
2026-01-01 10:55:22.02	260.54	40.23	-42.4	-46.5	11.5	6.16e-04	0	57	0	634388480	55	6078
2026-01-01 10:55:23.03	261.02	40.24	-42.3	-46.4	11.7	6.58e-04	0	57	0	636485632	55	5993
2026-01-01 10:55:24.04	261.49	40.25	-42.4	-46.4	11.7	5.77e-04	0	57	0	637534208	55	6042
2026-01-01 10:55:25.05	261.97	40.26	-42.2	-46.2	11.9	4.94e-04	0	57	0	639631360	55	5882
2026-01-01 10:55:26.06	262.44	40.26	-42.1	-45.9	12.2	2.49e-04	0	57	0	641728512	55	5673
2026-01-01 10:55:27.07	262.92	40.26	-42.0	-45.7	12.4	2.04e-04	0	57	0	643825664	55	5535
2026-01-01 10:55:28.08	263.39	40.26	-41.8	-45.4	12.7	6.56e-05	0	57	0	645922816	55	5350
2026-01-01 10:55:29.09	263.87	40.26	-41.8	-45.4	12.7	6.63e-05	0	57	0	646971392	55	5369
2026-01-01 10:55:30.10	264.34	40.25	-41.8	-45.3	12.8	5.11e-05	0	57	0	649068544	55	5289
2026-01-01 10:55:31.11	264.82	40.25	-41.6	-44.9	13.2	3.50e-05	0	57	0	651165696	55	5085
2026-01-01 10:55:32.12	265.29	40.24	-41.4	-44.5	13.6	1.06e-05	0	57	0	653262848	54	5139
2026-01-01 10:55:33.13	265.77	40.23	-41.0	-43.8	14.3	2.20e-06	0	57	0	655360000	54	4758
2026-01-01 10:55:34.14	266.24	40.21	-40.9	-43.7	14.4	0.00e+00	0	57	0	656408576	53	4966
2026-01-01 10:55:35.15	266.71	40.20	-40.9	-43.8	14.4	0.00e+00	0	57	0	658505728	53	5009
2026-01-01 10:55:36.16	267.19	40.18	-40.9	-43.8	14.4	0.00e+00	0	57	0	660602880	53	5009
2026-01-01 10:55:37.17	267.66	40.16	-41.0	-43.9	14.2	2.20e-06	0	57	0	662700032	53	5075
2026-01-01 10:55:38.18	268.13	40.14	-41.0	-43.9	14.2	7.00e-07	0	57	0	664797184	53	5092
2026-01-01 10:55:39.19	268.60	40.11	-41.1	-44.1	14.1	7.00e-07	0	57	0	665845760	53	5161
2026-01-01 10:55:40.20	269.07	40.08	-40.9	-43.8	14.3	1.50e-06	0	57	0	667942912	53	5029
2026-01-01 10:55:41.21	269.54	40.06	-40.8	-43.5	14.6	0.00e+00	0	57	0	670040064	53	4856
2026-01-01 10:55:42.22	270.01	40.02	-40.7	-43.4	14.7	0.00e+00	0	57	0	672137216	53	4789
2026-01-01 10:55:43.23	270.48	39.99	-40.9	-43.7	14.5	0.00e+00	0	57	0	674234368	53	4968
2026-01-01 10:55:44.24	270.95	39.96	-41.2	-44.2	13.9	2.20e-06	0	57	0	675282944	53	5263
2026-01-01 10:55:45.25	271.41	39.92	-41.3	-44.3	13.8	8.30e-06	0	57	0	677380096	53	5339
2026-01-01 10:55:46.26	271.88	39.88	-41.1	-44.1	14.0	5.30e-06	0	57	0	679477248	53	5179
2026-01-01 10:55:47.27	272.34	39.84	-40.9	-43.7	14.4	1.50e-06	0	57	0	681574400	53	4980
2026-01-01 10:55:48.28	272.80	39.80	-40.9	-43.8	14.3	1.50e-06	0	57	0	683671552	53	5004
2026-01-01 10:55:49.29	273.26	39.75	-41.3	-44.4	13.7	3.00e-06	0	57	0	685768704	53	5366
2026-01-01 10:55:50.30	273.72	39.70	-41.6	-44.9	13.2	1.60e-05	0	57	0	686817280	53	5699
2026-01-01 10:55:51.31	274.18	39.66	-41.5	-44.8	13.3	2.05e-05	0	57	0	688914432	53	5596
2026-01-01 10:55:52.32	274.64	39.60	-41.5	-44.8	13.3	2.28e-05	0	57	0	691011584	53	5656
2026-01-01 10:55:53.33	275.09	39.55	-41.6	-44.9	13.3	3.35e-05	0	57	0	693108736	53	5708
2026-01-01 10:55:54.34	275.55	39.50	-41.7	-45.1	13.0	2.74e-05	0	57	0	695205888	53	5808
2026-01-01 10:55:55.35	276.00	39.44	-41.9	-45.5	12.7	6.48e-05	0	57	0	696254464	54	5726
2026-01-01 10:55:56.36	276.45	39.38	-42.0	-45.8	12.4	8.77e-05	0	57	0	698351616	54	5932
2026-01-01 10:55:57.37	276.90	39.32	-41.7	-45.1	13.0	7.09e-05	0	57	0	700448768	54	5510
2026-01-01 10:55:58.38	277.35	39.26	-41.4	-44.5	13.7	9.90e-06	0	57	0	702545920	54	5142
2026-01-01 10:55:59.39	277.79	39.20	-41.1	-44.1	14.0	3.80e-06	0	57	0	704643072	54	4921
2026-01-01 10:56:00.40	278.24	39.13	-41.4	-44.5	13.6	3.00e-06	0	57	0	705691648	54	5159
2026-01-01 10:56:01.41	278.68	39.06	-41.7	-45.1	13.0	2.74e-05	0	57	0	707788800	54	5494
2026-01-01 10:56:02.42	279.12	38.99	-41.6	-44.9	13.2	4.27e-05	0	57	0	709885952	54	5386
2026-01-01 10:56:03.43	279.56	38.92	-41.1	-44.0	14.1	1.06e-05	0	57	0	711983104	54	4841
2026-01-01 10:56:04.44	280.00	38.85	-40.6	-43.3	14.9	0.00e+00	0	57	0	714080256	53	4716
2026-01-01 10:56:05.45	280.43	38.78	-40.7	-43.4	14.8	0.00e+00	0	57	0	715128832	53	4770
2026-01-01 10:56:06.46	280.86	38.70	-41.0	-43.9	14.3	0.00e+00	0	57	0	717225984	53	5055
2026-01-01 10:56:07.47	281.29	38.62	-41.3	-44.4	13.7	8.30e-06	0	57	0	719323136	53	5356
2026-01-01 10:56:08.49	281.73	38.54	-40.9	-43.7	14.4	1.50e-06	0	57	0	721420288	53	4979
2026-01-01 10:56:09.50	282.15	38.46	-40.5	-43.1	15.1	7.00e-07	0	57	0	723517440	52	4895
2026-01-01 10:56:10.51	282.58	38.38	-40.3	-42.8	15.3	0.00e+00	0	57	0	725614592	52	4739
2026-01-01 10:56:11.52	283.00	38.30	-40.2	-42.8	15.4	0.00e+00	0	58	0	726663168	52	4708
2026-01-01 10:56:12.53	283.42	38.21	-40.7	-43.4	14.7	0.00e+00	0	57	0	728760320	52	5095
2026-01-01 10:56:13.54	283.84	38.12	-41.0	-43.9	14.3	7.00e-07	0	58	0	730857472	52	5402
2026-01-01 10:56:14.55	284.25	38.04	-40.8	-43.5	14.6	7.00e-07	0	57	0	732954624	52	5159
2026-01-01 10:56:15.56	284.67	37.95	-40.3	-42.8	15.3	0.00e+00	0	57	0	735051776	52	4742
2026-01-01 10:56:16.57	285.08	37.85	-40.0	-42.3	15.8	0.00e+00	0	57	0	736100352	52	4486
2026-01-01 10:56:17.58	285.49	37.76	-39.9	-42.2	16.0	0.00e+00	0	57	0	738197504	51	4699
2026-01-01 10:56:18.59	285.89	37.67	-40.2	-42.6	15.7	0.00e+00	0	57	0	740294656	51	4917
2026-01-01 10:56:19.60	286.30	37.57	-40.0	-42.3	15.9	0.00e+00	0	57	0	742391808	51	4751
2026-01-01 10:56:20.60	286.70	37.48	-39.3	-41.5	16.8	0.00e+00	0	57	0	744488960	50	4552
2026-01-01 10:56:21.61	287.10	37.38	-38.6	-40.5	17.7	0.00e+00	0	57	0	745537536	49	4316
2026-01-01 10:56:22.63	287.50	37.28	-38.5	-40.4	17.9	0.00e+00	0	57	0	747634688	48	4504
2026-01-01 10:56:23.64	287.89	37.18	-38.7	-40.6	17.6	0.00e+00	0	57	0	749731840	48	4636
2026-01-01 10:56:24.65	288.28	37.08	-39.3	-41.4	16.9	0.00e+00	0	57	0	751828992	49	4776
2026-01-01 10:56:25.66	288.67	36.98	-39.9	-42.2	16.1	0.00e+00	0	57	0	753926144	50	4937
2026-01-01 10:56:26.67	289.06	36.87	-39.9	-42.2	16.0	0.00e+00	0	57	0	754974720	50	4979
2026-01-01 10:56:27.68	289.45	36.77	-39.3	-41.4	16.9	0.00e+00	0	57	0	757071872	50	4500
2026-01-01 10:56:28.69	289.83	36.66	-38.7	-40.6	17.6	0.00e+00	0	58	0	759169024	49	4368
2026-01-01 10:56:29.70	290.21	36.56	-38.6	-40.5	17.8	0.00e+00	0	58	0	761266176	49	4308
2026-01-01 10:56:30.71	290.59	36.45	-38.8	-40.7	17.5	0.00e+00	0	57	0	763363328	49	4415
2026-01-01 10:56:31.72	290.96	36.34	-38.8	-40.8	17.5	0.00e+00	0	57	0	764411904	49	4445
2026-01-01 10:56:32.73	291.33	36.23	-38.7	-40.6	17.7	0.00e+00	0	57	0	766509056	49	4363
2026-01-01 10:56:33.74	291.71	36.12	-38.5	-40.3	17.9	0.00e+00	0	58	0	768606208	48	4475
2026-01-01 10:56:34.75	292.07	36.01	-38.4	-40.2	18.0	0.00e+00	0	57	0	770703360	48	4412
2026-01-01 10:56:35.76	292.44	35.90	-38.7	-40.6	17.7	0.00e+00	0	58	0	772800512	48	4607
2026-01-01 10:56:36.77	292.80	35.78	-39.1	-41.1	17.1	0.00e+00	0	57	0	773849088	48	4926
2026-01-01 10:56:37.78	293.16	35.67	-39.4	-41.5	16.8	0.00e+00	0	58	0	775946240	49	4842
2026-01-01 10:56:38.79	293.52	35.56	-39.3	-41.4	16.9	0.00e+00	0	57	0	778043392	49	4762
2026-01-01 10:56:39.80	293.87	35.44	-39.1	-41.1	17.2	0.00e+00	0	57	0	780140544	49	4621
2026-01-01 10:56:40.81	294.23	35.32	-38.8	-40.7	17.5	0.00e+00	0	57	0	782237696	49	4405
2026-01-01 10:56:41.82	294.58	35.21	-39.0	-41.0	17.2	0.00e+00	0	57	0	783286272	49	4563
2026-01-01 10:56:42.83	294.92	35.09	-39.5	-41.6	16.6	0.00e+00	0	58	0	785383424	49	4924
2026-01-01 10:56:43.84	295.27	34.97	-40.1	-42.6	15.7	0.00e+00	0	58	0	787480576	50	5162
2026-01-01 10:56:44.85	295.61	34.85	-40.3	-42.8	15.4	0.00e+00	0	57	0	789577728	51	5040
2026-01-01 10:56:45.86	295.95	34.73	-40.1	-42.6	15.7	0.00e+00	0	57	0	791674880	51	4880
2026-01-01 10:56:46.87	296.29	34.61	-40.0	-42.3	16.0	0.00e+00	0	57	0	792723456	51	4738
2026-01-01 10:56:47.88	296.63	34.49	-39.8	-42.1	16.2	0.00e+00	0	58	0	794820608	51	4627
2026-01-01 10:56:48.89	296.96	34.37	-40.1	-42.5	15.8	0.00e+00	0	58	0	796917760	51	4859
2026-01-01 10:56:49.90	297.29	34.25	-40.4	-43.0	15.2	0.00e+00	0	57	0	799014912	51	5139
2026-01-01 10:56:50.91	297.62	34.12	-40.6	-43.2	15.0	0.00e+00	0	58	0	801112064	51	5264
2026-01-01 10:56:51.92	297.94	34.00	-40.2	-42.7	15.6	0.00e+00	0	58	0	803209216	51	4949
2026-01-01 10:56:52.93	298.27	33.87	-40.1	-42.6	15.7	0.00e+00	0	57	0	804257792	51	4873
2026-01-01 10:56:53.94	298.59	33.75	-40.1	-42.5	15.8	0.00e+00	0	57	0	806354944	51	4830
2026-01-01 10:56:54.95	298.91	33.63	-40.6	-43.2	15.0	0.00e+00	0	57	0	808452096	51	5273
2026-01-01 10:56:55.96	299.22	33.50	-41.0	-44.0	14.2	7.00e-07	0	57	0	810549248	52	5418
2026-01-01 10:56:56.97	299.53	33.37	-41.3	-44.4	13.7	4.50e-06	0	57	0	812646400	53	5371
2026-01-01 10:56:57.98	299.85	33.25	-41.2	-44.2	13.9	5.30e-06	0	58	0	813694976	53	5269
2026-01-01 10:56:58.99	300.15	33.12	-41.0	-43.9	14.2	7.00e-07	0	58	0	815792128	53	5076
2026-01-01 10:57:00.00	300.46	33.00	-40.9	-43.8	14.3	1.50e-06	0	57	0	817889280	53	5002
2026-01-01 10:57:01.01	300.76	32.87	-40.8	-43.7	14.5	0.00e+00	0	57	0	819986432	53	4927
2026-01-01 10:57:02.02	301.07	32.74	-41.2	-44.3	13.8	7.00e-07	0	57	0	822083584	53	5311
2026-01-01 10:57:03.03	301.37	32.61	-41.8	-45.4	12.6	3.20e-05	0	57	0	823132160	54	5720
2026-01-01 10:57:04.04	301.66	32.48	-42.0	-45.8	12.3	1.56e-04	0	58	0	825229312	54	5945
2026-01-01 10:57:05.05	301.96	32.36	-41.4	-44.6	13.5	2.82e-05	0	57	0	827326464	54	5169
2026-01-01 10:57:06.06	302.25	32.23	-40.7	-43.5	14.7	7.00e-07	0	58	0	829423616	53	4825
2026-01-01 10:57:07.07	302.54	32.10	-40.3	-42.8	15.4	0.00e+00	0	57	0	831520768	52	4715
2026-01-01 10:57:08.08	302.83	31.97	-40.3	-42.8	15.4	0.00e+00	0	58	0	832569344	52	4730
2026-01-01 10:57:09.09	303.11	31.84	-40.8	-43.6	14.5	0.00e+00	0	58	0	834666496	52	5188
2026-01-01 10:57:10.10	303.40	31.71	-41.5	-44.9	13.3	3.80e-06	0	57	0	836763648	53	5664
2026-01-01 10:57:11.10	303.68	31.58	-41.7	-45.2	12.9	4.11e-05	0	58	0	838860800	54	5550
2026-01-01 10:57:12.11	303.95	31.45	-41.3	-44.4	13.7	1.14e-05	0	58	0	840957952	54	5094
2026-01-01 10:57:13.12	304.23	31.32	-40.9	-43.8	14.3	1.50e-06	0	57	0	842006528	53	4997
2026-01-01 10:57:14.13	304.51	31.19	-40.7	-43.5	14.7	7.00e-07	0	58	0	844103680	53	4818
2026-01-01 10:57:15.14	304.78	31.06	-40.7	-43.4	14.7	0.00e+00	0	58	0	846200832	53	4794
2026-01-01 10:57:16.15	305.05	30.93	-41.2	-44.2	13.9	7.00e-07	0	58	0	848297984	53	5275
2026-01-01 10:57:17.16	305.32	30.80	-42.0	-45.7	12.4	2.21e-05	0	57	0	850395136	54	5869
2026-01-01 10:57:18.17	305.58	30.67	-42.4	-46.7	11.3	9.18e-04	0	58	0	851443712	55	6243
2026-01-01 10:57:19.18	305.85	30.54	-42.4	-46.6	11.4	1.40e-03	0	58	0	853540864	55	6183
2026-01-01 10:57:20.19	306.11	30.41	-41.9	-45.5	12.5	3.84e-04	0	58	0	855638016	55	5459
2026-01-01 10:57:21.20	306.37	30.28	-41.2	-44.3	13.8	1.29e-05	0	58	0	857735168	54	5022
2026-01-01 10:57:22.21	306.63	30.15	-41.1	-44.2	13.9	1.50e-06	0	57	0	859832320	54	4936
2026-01-01 10:57:23.22	306.88	30.02	-40.9	-43.9	14.2	1.50e-06	0	58	0	860880896	53	5047
2026-01-01 10:57:24.23	307.13	29.89	-41.3	-44.5	13.6	1.50e-06	0	58	0	862978048	53	5435
2026-01-01 10:57:25.24	307.39	29.76	-41.9	-45.6	12.5	6.33e-05	0	57	0	865075200	54	5793
2026-01-01 10:57:26.25	307.64	29.63	-42.1	-46.0	12.0	2.68e-04	0	57	0	867172352	54	6077
2026-01-01 10:57:27.26	307.88	29.50	-41.5	-44.9	13.1	1.64e-04	0	58	0	869269504	54	5385
2026-01-01 10:57:28.27	308.13	29.37	-40.6	-43.3	14.7	3.80e-06	0	57	0	871366656	53	4744
2026-01-01 10:57:29.28	308.37	29.23	-40.0	-42.3	15.9	0.00e+00	0	58	0	872415232	51	4731
2026-01-01 10:57:30.29	308.61	29.10	-39.7	-42.0	16.2	0.00e+00	0	58	0	874512384	51	4557
2026-01-01 10:57:31.30	308.85	28.97	-40.1	-42.4	15.7	0.00e+00	0	58	0	876609536	51	4810
2026-01-01 10:57:32.31	309.09	28.84	-40.6	-43.2	14.9	0.00e+00	0	58	0	878706688	51	5278
2026-01-01 10:57:33.32	309.33	28.71	-40.9	-43.8	14.2	0.00e+00	0	58	0	880803840	52	5337
2026-01-01 10:57:34.33	309.56	28.58	-40.9	-43.9	14.2	2.20e-06	0	57	0	881852416	52	5374
2026-01-01 10:57:35.34	309.79	28.45	-40.1	-42.6	15.4	0.00e+00	0	58	0	883949568	52	4638
2026-01-01 10:57:36.35	310.03	28.32	-39.3	-41.5	16.7	0.00e+00	0	57	0	886046720	50	4551
2026-01-01 10:57:37.36	310.25	28.19	-38.8	-40.7	17.5	0.00e+00	0	58	0	888143872	49	4414
2026-01-01 10:57:38.37	310.48	28.06	-38.6	-40.6	17.6	0.00e+00	0	58	0	890241024	49	4343
2026-01-01 10:57:39.38	310.71	27.93	-38.9	-40.8	17.3	0.00e+00	0	57	0	891289600	49	4483
2026-01-01 10:57:40.40	310.93	27.80	-39.2	-41.3	16.8	0.00e+00	0	58	0	893386752	49	4736
2026-01-01 10:57:41.41	311.15	27.67	-39.6	-41.9	16.3	0.00e+00	0	58	0	895483904	49	5070
2026-01-01 10:57:42.42	311.37	27.55	-39.8	-42.2	16.0	0.00e+00	0	58	0	897581056	50	4945
2026-01-01 10:57:43.43	311.59	27.42	-39.7	-42.1	16.1	0.00e+00	0	58	0	899678208	50	4873
2026-01-01 10:57:44.44	311.81	27.29	-39.4	-41.5	16.6	0.00e+00	0	57	0	900726784	50	4584
2026-01-01 10:57:45.45	312.02	27.16	-39.1	-41.1	17.0	0.00e+00	0	58	0	902823936	50	4367
2026-01-01 10:57:46.46	312.23	27.03	-38.9	-40.9	17.2	0.00e+00	0	58	0	904921088	49	4531
2026-01-01 10:57:47.47	312.45	26.90	-38.9	-40.9	17.2	0.00e+00	0	58	0	907018240	49	4530
2026-01-01 10:57:48.48	312.66	26.78	-38.9	-40.9	17.2	0.00e+00	0	58	0	909115392	49	4523
2026-01-01 10:57:49.49	312.86	26.65	-39.1	-41.2	17.0	0.00e+00	0	58	0	910163968	49	4654
2026-01-01 10:57:50.50	313.07	26.52	-39.3	-41.4	16.7	0.00e+00	0	58	0	912261120	49	4813
2026-01-01 10:57:51.51	313.27	26.39	-39.3	-41.4	16.7	0.00e+00	0	58	0	914358272	49	4810
2026-01-01 10:57:52.52	313.48	26.27	-38.8	-40.8	17.3	0.00e+00	0	58	0	916455424	49	4490
2026-01-01 10:57:53.53	313.68	26.14	-38.2	-40.0	18.1	0.00e+00	0	57	0	918552576	48	4331
2026-01-01 10:57:54.54	313.88	26.01	-37.6	-39.3	18.7	0.00e+00	0	58	0	919601152	47	4208
2026-01-01 10:57:55.55	314.08	25.89	-37.2	-38.8	19.2	0.00e+00	0	58	0	921698304	46	4234
2026-01-01 10:57:56.56	314.27	25.76	-37.2	-38.8	19.2	0.00e+00	0	58	0	923795456	46	4227
2026-01-01 10:57:57.57	314.47	25.64	-37.4	-39.0	19.0	0.00e+00	0	58	0	925892608	46	4335
2026-01-01 10:57:58.58	314.66	25.51	-37.7	-39.4	18.6	0.00e+00	0	58	0	927989760	46	4512
2026-01-01 10:57:59.59	314.86	25.38	-38.1	-39.9	18.1	0.00e+00	0	58	0	929038336	46	4788
2026-01-01 10:58:00.60	315.05	25.26	-38.5	-40.4	17.6	0.00e+00	0	58	0	931135488	47	4791
2026-01-01 10:58:01.61	315.24	25.13	-38.8	-40.8	17.3	0.00e+00	0	58	0	933232640	48	4732
2026-01-01 10:58:02.62	315.42	25.01	-38.7	-40.6	17.4	0.00e+00	0	58	0	935329792	48	4646
2026-01-01 10:58:03.63	315.61	24.89	-38.5	-40.4	17.7	0.00e+00	0	57	0	937426944	48	4533
2026-01-01 10:58:04.63	315.79	24.76	-38.3	-40.1	17.9	0.00e+00	0	58	0	939524096	48	4375
2026-01-01 10:58:05.64	315.98	24.64	-38.2	-40.0	18.0	0.00e+00	0	57	0	940572672	48	4339
2026-01-01 10:58:06.65	316.16	24.52	-37.9	-39.6	18.3	0.00e+00	0	58	0	942669824	47	4367
2026-01-01 10:58:07.66	316.34	24.39	-37.6	-39.3	18.6	0.00e+00	0	58	0	944766976	47	4221
2026-01-01 10:58:08.67	316.52	24.27	-37.7	-39.4	18.6	0.00e+00	0	58	0	946864128	47	4257
2026-01-01 10:58:09.68	316.70	24.15	-37.9	-39.7	18.2	0.00e+00	0	58	0	948961280	47	4431
2026-01-01 10:58:10.69	316.87	24.03	-38.3	-40.2	17.8	0.00e+00	0	58	0	950009856	47	4673
2026-01-01 10:58:11.70	317.05	23.90	-38.5	-40.5	17.5	0.00e+00	0	58	0	952107008	47	4833
2026-01-01 10:58:12.72	317.23	23.78	-38.6	-40.6	17.4	0.00e+00	0	58	0	954204160	47	4916
2026-01-01 10:58:13.72	317.40	23.66	-38.4	-40.3	17.7	0.00e+00	0	58	0	956301312	47	4745
2026-01-01 10:58:14.73	317.57	23.54	-38.1	-39.9	18.0	0.00e+00	0	58	0	958398464	47	4525
2026-01-01 10:58:15.74	317.74	23.42	-37.9	-39.6	18.3	0.00e+00	0	58	0	959447040	47	4379
2026-01-01 10:58:16.76	317.91	23.30	-37.7	-39.4	18.6	0.00e+00	0	57	0	961544192	47	4260
2026-01-01 10:58:17.77	318.08	23.18	-37.8	-39.5	18.4	0.00e+00	0	58	0	963641344	47	4323
2026-01-01 10:58:18.77	318.24	23.06	-37.8	-39.6	18.3	0.00e+00	0	58	0	965738496	47	4362
2026-01-01 10:58:19.79	318.41	22.94	-37.8	-39.6	18.4	0.00e+00	0	58	0	967835648	47	4364
2026-01-01 10:58:20.79	318.57	22.82	-38.1	-40.0	18.0	0.00e+00	0	58	0	968884224	47	4564
2026-01-01 10:58:21.80	318.73	22.70	-38.4	-40.3	17.6	0.00e+00	0	58	0	970981376	47	4759
2026-01-01 10:58:22.81	318.89	22.59	-38.6	-40.6	17.3	0.00e+00	0	58	0	973078528	47	4918
2026-01-01 10:58:23.82	319.05	22.47	-38.8	-40.9	17.2	0.00e+00	0	58	0	975175680	48	4770
2026-01-01 10:58:24.83	319.21	22.35	-38.9	-40.9	17.1	0.00e+00	0	58	0	977272832	48	4800
2026-01-01 10:58:25.84	319.37	22.23	-38.8	-40.8	17.2	0.00e+00	0	58	0	979369984	48	4732
2026-01-01 10:58:26.85	319.53	22.12	-38.6	-40.5	17.5	0.00e+00	0	58	0	980418560	48	4594
2026-01-01 10:58:27.86	319.68	22.00	-38.4	-40.2	17.8	0.00e+00	0	58	0	982515712	48	4441
2026-01-01 10:58:28.87	319.84	21.88	-38.4	-40.2	17.8	0.00e+00	0	58	0	984612864	48	4440
2026-01-01 10:58:29.88	319.99	21.77	-38.5	-40.4	17.7	0.00e+00	0	58	0	986710016	48	4502
2026-01-01 10:58:30.89	320.15	21.65	-38.5	-40.4	17.6	0.00e+00	0	58	0	988807168	48	4514
2026-01-01 10:58:31.90	320.30	21.54	-38.6	-40.6	17.5	0.00e+00	0	58	0	989855744	48	4599
2026-01-01 10:58:32.91	320.45	21.42	-38.7	-40.7	17.3	0.00e+00	0	58	0	991952896	48	4691
2026-01-01 10:58:33.92	320.60	21.31	-38.8	-40.8	17.2	0.00e+00	0	58	0	994050048	48	4747
2026-01-01 10:58:34.93	320.74	21.19	-38.8	-40.9	17.2	0.00e+00	0	58	0	996147200	48	4760
2026-01-01 10:58:35.94	320.89	21.08	-38.9	-40.9	17.1	0.00e+00	0	57	0	998244352	48	4787
2026-01-01 10:58:36.95	321.04	20.96	-38.9	-40.9	17.1	0.00e+00	0	58	0	999292928	48	4796
2026-01-01 10:58:37.96	321.18	20.85	-38.8	-40.8	17.2	0.00e+00	0	58	0	1001390080	48	4732
2026-01-01 10:58:38.97	321.33	20.74	-38.4	-40.2	17.7	0.00e+00	0	57	0	1003487232	48	4441
2026-01-01 10:58:39.98	321.47	20.62	-38.1	-39.9	18.1	0.00e+00	0	58	0	1005584384	48	4266
2026-01-01 10:58:40.99	321.61	20.51	-38.1	-40.0	18.0	0.00e+00	0	58	0	1007681536	48	4292
2026-01-01 10:58:42.00	321.75	20.40	-38.3	-40.1	17.9	0.00e+00	0	58	0	1008730112	48	4366
2026-01-01 10:58:43.01	321.89	20.29	-38.4	-40.3	17.7	0.00e+00	0	58	0	1010827264	48	4467
2026-01-01 10:58:44.02	322.03	20.18	-38.7	-40.7	17.3	0.00e+00	0	58	0	1012924416	48	4682
2026-01-01 10:58:45.03	322.17	20.07	-38.9	-40.9	17.1	0.00e+00	0	57	0	1015021568	48	4797
2026-01-01 10:58:46.04	322.30	19.95	-39.2	-41.3	16.7	0.00e+00	0	58	0	1017118720	48	5026
2026-01-01 10:58:47.05	322.44	19.84	-39.2	-41.4	16.5	0.00e+00	0	58	0	1018167296	49	4793
2026-01-01 10:58:48.06	322.58	19.73	-39.2	-41.4	16.6	0.00e+00	0	58	0	1020264448	49	4784
2026-01-01 10:58:49.07	322.71	19.62	-39.3	-41.5	16.5	0.00e+00	0	58	0	1022361600	49	4833
2026-01-01 10:58:50.08	322.84	19.52	-39.2	-41.4	16.6	0.00e+00	0	58	0	1024458752	49	4790
2026-01-01 10:58:51.09	322.97	19.41	-39.2	-41.4	16.5	0.00e+00	0	58	0	1026555904	49	4796
2026-01-01 10:58:52.09	323.10	19.30	-39.2	-41.4	16.6	0.00e+00	0	58	0	1027604480	49	4781
2026-01-01 10:58:53.11	323.24	19.19	-39.1	-41.2	16.7	0.00e+00	0	58	0	1029701632	49	4694
2026-01-01 10:58:54.11	323.36	19.08	-39.3	-41.5	16.4	0.00e+00	0	58	0	1031798784	49	4852
2026-01-01 10:58:55.12	323.49	18.97	-39.4	-41.7	16.2	0.00e+00	0	58	0	1033895936	49	4963
2026-01-01 10:58:56.13	323.62	18.87	-39.6	-42.0	15.9	0.00e+00	0	58	0	1035993088	49	5130
2026-01-01 10:58:57.14	323.75	18.76	-40.0	-42.5	15.5	0.00e+00	0	58	0	1037041664	50	5119
2026-01-01 10:58:58.15	323.87	18.65	-40.1	-42.6	15.3	0.00e+00	0	58	0	1039138816	50	5212
2026-01-01 10:58:59.16	324.00	18.55	-40.1	-42.7	15.3	0.00e+00	0	58	0	1041235968	50	5238
2026-01-01 10:59:00.17	324.12	18.44	-40.1	-42.7	15.2	0.00e+00	0	58	0	1043333120	50	5258
2026-01-01 10:59:01.18	324.25	18.34	-40.0	-42.6	15.4	0.00e+00	0	58	0	1045430272	50	5183
2026-01-01 10:59:02.19	324.37	18.23	-40.0	-42.5	15.5	0.00e+00	0	58	0	1046478848	50	5113
2026-01-01 10:59:03.20	324.49	18.13	-39.6	-41.9	16.0	0.00e+00	0	58	0	1048576000	50	4812
2026-01-01 10:59:04.21	324.61	18.02	-39.4	-41.6	16.3	0.00e+00	0	58	0	1050673152	50	4640
2026-01-01 10:59:05.22	324.73	17.92	-39.3	-41.5	16.4	0.00e+00	0	58	0	1052770304	50	4571
2026-01-01 10:59:06.23	324.85	17.81	-39.2	-41.3	16.6	0.00e+00	0	58	0	1054867456	50	4489
2026-01-01 10:59:07.24	324.97	17.71	-39.1	-41.3	16.7	0.00e+00	0	58	0	1055916032	50	4448
2026-01-01 10:59:08.25	325.09	17.61	-39.2	-41.3	16.6	0.00e+00	0	58	0	1058013184	50	4481
2026-01-01 10:59:09.26	325.21	17.50	-39.2	-41.4	16.5	0.00e+00	0	58	0	1060110336	50	4535
2026-01-01 10:59:10.27	325.32	17.40	-39.4	-41.7	16.3	0.00e+00	0	58	0	1062207488	50	4652
2026-01-01 10:59:11.28	325.44	17.30	-39.5	-41.7	16.2	0.00e+00	0	58	0	1064304640	50	4696
2026-01-01 10:59:12.28	325.55	17.20	-39.5	-41.8	16.1	0.00e+00	0	58	0	1065353216	50	4717
2026-01-01 10:59:13.29	325.67	17.09	-39.5	-41.9	16.0	0.00e+00	0	58	0	1067450368	50	4775
2026-01-01 10:59:14.30	325.78	16.99	-39.7	-42.1	15.7	0.00e+00	0	58	0	1069547520	50	4919
2026-01-01 10:59:15.31	325.89	16.89	-39.7	-42.1	15.8	0.00e+00	0	58	0	1071644672	50	4923
2026-01-01 10:59:16.32	326.01	16.79	-39.8	-42.2	15.7	0.00e+00	0	58	0	1073741824	50	4965
2026-01-01 10:59:17.33	326.12	16.69	-39.8	-42.3	15.6	0.00e+00	0	58	0	1075838976	50	5013
2026-01-01 10:59:18.34	326.23	16.59	-39.8	-42.3	15.6	0.00e+00	0	58	0	1076887552	50	5016
2026-01-01 10:59:19.35	326.34	16.49	-39.9	-42.3	15.5	0.00e+00	0	58	0	1078984704	50	5032
2026-01-01 10:59:20.36	326.45	16.39	-39.7	-42.1	15.8	0.00e+00	0	58	0	1081081856	50	4876
2026-01-01 10:59:21.37	326.55	16.29	-39.5	-41.8	16.0	0.00e+00	0	57	0	1083179008	50	4752
2026-01-01 10:59:22.38	326.66	16.19	-39.5	-41.8	16.1	0.00e+00	0	58	0	1085276160	50	4710
2026-01-01 10:59:23.39	326.77	16.09	-39.4	-41.6	16.2	0.00e+00	0	58	0	1086324736	50	4636
2026-01-01 10:59:24.40	326.88	16.00	-39.4	-41.7	16.2	0.00e+00	0	58	0	1088421888	50	4669
2026-01-01 10:59:25.41	326.98	15.90	-39.4	-41.7	16.2	0.00e+00	0	58	0	1090519040	50	4680
2026-01-01 10:59:26.42	327.09	15.80	-39.4	-41.7	16.2	0.00e+00	0	58	0	1092616192	50	4657
2026-01-01 10:59:27.43	327.19	15.70	-39.5	-41.9	16.0	0.00e+00	0	58	0	1094713344	50	4769
2026-01-01 10:59:28.44	327.29	15.61	-39.5	-41.9	16.0	0.00e+00	0	57	0	1095761920	50	4764
2026-01-01 10:59:29.45	327.40	15.51	-39.6	-41.9	15.9	0.00e+00	0	58	0	1097859072	50	4809
2026-01-01 10:59:30.46	327.50	15.41	-39.8	-42.2	15.6	0.00e+00	0	58	0	1099956224	50	4958
2026-01-01 10:59:31.47	327.60	15.32	-39.7	-42.1	15.7	0.00e+00	0	58	0	1102053376	50	4925
2026-01-01 10:59:32.47	327.70	15.22	-39.9	-42.4	15.4	0.00e+00	0	58	0	1104150528	50	5048
2026-01-01 10:59:33.49	327.80	15.13	-39.9	-42.5	15.4	0.00e+00	0	58	0	1105199104	50	5106
2026-01-01 10:59:34.49	327.90	15.03	-39.9	-42.5	15.3	0.00e+00	0	58	0	1107296256	50	5134
2026-01-01 10:59:35.50	328.00	14.94	-40.0	-42.6	15.2	0.00e+00	0	58	0	1109393408	50	5215
2026-01-01 10:59:36.51	328.10	14.84	-40.0	-42.6	15.2	0.00e+00	0	58	0	1111490560	50	5184
2026-01-01 10:59:37.52	328.20	14.75	-40.0	-42.6	15.2	0.00e+00	0	58	0	1113587712	50	5208
2026-01-01 10:59:38.53	328.30	14.65	-40.0	-42.6	15.2	7.00e-07	0	58	0	1114636288	50	5186
2026-01-01 10:59:39.54	328.39	14.56	-40.0	-42.6	15.2	0.00e+00	0	58	0	1116733440	50	5216
2026-01-01 10:59:40.55	328.49	14.47	-39.8	-42.3	15.5	0.00e+00	0	58	0	1118830592	50	5020
2026-01-01 10:59:41.56	328.59	14.37	-39.7	-42.1	15.7	0.00e+00	0	58	0	1120927744	50	4915
2026-01-01 10:59:42.57	328.68	14.28	-39.5	-41.9	15.9	0.00e+00	0	58	0	1123024896	50	4760
2026-01-01 10:59:43.58	328.78	14.19	-39.5	-41.9	15.9	0.00e+00	0	58	0	1124073472	50	4761
2026-01-01 10:59:44.59	328.87	14.09	-39.4	-41.7	16.0	0.00e+00	0	58	0	1126170624	50	4678
2026-01-01 10:59:45.60	328.96	14.00	-39.4	-41.8	16.0	0.00e+00	0	58	0	1128267776	50	4720
2026-01-01 10:59:46.61	329.06	13.91	-39.5	-41.8	15.9	0.00e+00	0	58	0	1130364928	50	4746
2026-01-01 10:59:47.62	329.15	13.82	-39.5	-41.8	15.9	0.00e+00	0	58	0	1132462080	50	4748
2026-01-01 10:59:48.63	329.24	13.73	-39.5	-41.8	15.9	0.00e+00	0	58	0	1133510656	50	4740
2026-01-01 10:59:49.64	329.33	13.64	-39.5	-41.9	15.8	0.00e+00	0	58	0	1135607808	50	4784
2026-01-01 10:59:50.65	329.42	13.55	-39.6	-42.1	15.7	0.00e+00	0	58	0	1137704960	50	4872
2026-01-01 10:59:51.66	329.51	13.46	-39.8	-42.2	15.5	0.00e+00	0	58	0	1139802112	50	4983
2026-01-01 10:59:52.67	329.60	13.37	-39.8	-42.3	15.4	0.00e+00	0	58	0	1141899264	50	5022
2026-01-01 10:59:53.68	329.69	13.28	-39.8	-42.4	15.3	0.00e+00	0	58	0	1143996416	50	5054
2026-01-01 10:59:54.69	329.78	13.19	-39.9	-42.5	15.2	0.00e+00	0	58	0	1145044992	50	5126
2026-01-01 10:59:55.70	329.87	13.10	-40.0	-42.6	15.1	0.00e+00	0	58	0	1147142144	50	5204
2026-01-01 10:59:56.71	329.96	13.01	-40.1	-42.8	14.9	0.00e+00	0	58	0	1149239296	50	5308
2026-01-01 10:59:57.72	330.05	12.92	-40.1	-42.8	14.9	0.00e+00	0	58	0	1151336448	50	5298
2026-01-01 10:59:58.73	330.13	12.83	-40.0	-42.7	14.9	0.00e+00	0	58	0	1153433600	50	5266
2026-01-01 10:59:59.74	330.22	12.74	-40.0	-42.7	15.0	0.00e+00	0	58	0	1154482176	50	5261
2026-01-01 11:00:00.75	330.31	12.66	-40.0	-42.6	15.0	0.00e+00	0	58	0	1156579328	50	5208
2026-01-01 11:00:01.76	330.39	12.57	-39.9	-42.5	15.1	0.00e+00	0	58	0	1158676480	50	5154
2026-01-01 11:00:02.77	330.48	12.48	-39.9	-42.6	15.1	0.00e+00	0	58	0	1160773632	50	5167
2026-01-01 11:00:03.78	330.56	12.39	-39.9	-42.5	15.2	0.00e+00	0	58	0	1162870784	50	5126
2026-01-01 11:00:04.79	330.64	12.31	-39.9	-42.5	15.2	0.00e+00	0	58	0	1163919360	50	5106
