passes_logs/2026/01/01/R2.0S_Moscow/R2.0S_Moscow__20260101_000712_NOAA_21_JPSS-2_rec.log

#Pass ID: 20260101_000712_NOAA 21 (JPSS-2)
#Satellite: NOAA 21 (JPSS-2)
#Configuration: NOAA-21
#almurnet v.1.7.20251203
#Start time: 2026-01-01 00:10:37

#Version: 2.2.20231116
#Station: R2.0S_Moscow
#Location: 37.707566 lon 55.798166 lat
#TLE: 1 54234U 22150A   25365.42224288  .00000199  00000+0  11529-3 0  9990
#TLE: 2 54234  98.7483 301.4995 0001320 356.2106   3.9060 14.19530300162743

#Time	Az	El	Level	Level2	SNR	BER	BlckErr	Temp	State	Recorded	gain1	gain2
2026-01-01 00:10:37.64	7.64	19.85	-44.9	-56.5	3.8	8.46e-01	0	58	0	0	61	13719
2026-01-01 00:10:38.64	7.58	19.97	-45.3	-57.7	3.8	1.49e+00	0	58	104	0	62	14727
2026-01-01 00:10:39.65	7.52	20.10	-45.3	-57.7	3.8	1.49e+00	0	59	104	0	62	14746
2026-01-01 00:10:40.66	7.45	20.23	-45.3	-57.7	3.8	1.49e+00	0	58	104	0	62	14733
2026-01-01 00:10:41.67	7.39	20.35	-45.2	-57.6	3.8	1.49e+00	0	58	104	0	62	14702
2026-01-01 00:10:42.68	7.32	20.48	-45.2	-57.6	3.8	1.49e+00	0	58	104	0	62	14601
2026-01-01 00:10:43.69	7.25	20.61	-45.1	-57.5	3.8	1.49e+00	0	58	104	0	62	14507
2026-01-01 00:10:44.71	7.19	20.75	-45.1	-57.5	3.8	1.49e+00	0	58	104	0	62	14425
2026-01-01 00:10:45.72	7.12	20.88	-45.0	-57.3	3.8	1.49e+00	0	58	104	0	62	14182
2026-01-01 00:10:46.73	7.05	21.01	-44.9	-57.1	3.8	1.49e+00	0	58	104	0	61	14595
2026-01-01 00:10:47.74	6.98	21.14	-44.9	-57.0	3.8	1.49e+00	0	58	104	0	61	14434
2026-01-01 00:10:48.75	6.91	21.27	-44.9	-56.8	3.8	1.49e+00	0	58	104	0	61	14158
2026-01-01 00:10:49.76	6.84	21.41	-44.9	-56.7	3.8	1.49e+00	0	58	104	0	61	14013
2026-01-01 00:10:50.77	6.77	21.54	-44.8	-56.6	3.8	1.49e+00	0	58	104	0	61	13746
2026-01-01 00:10:51.78	6.70	21.68	-44.8	-56.4	3.8	1.49e+00	0	58	104	0	61	13527
2026-01-01 00:10:52.80	6.63	21.81	-44.9	-56.4	3.8	1.49e+00	0	58	104	0	61	13489
2026-01-01 00:10:53.81	6.56	21.95	-44.8	-56.5	3.8	1.49e+00	0	58	104	0	61	13644
2026-01-01 00:10:54.82	6.48	22.09	-44.9	-56.6	3.8	1.49e+00	0	58	104	0	61	13837
2026-01-01 00:10:55.83	6.41	22.23	-44.9	-56.8	3.8	1.49e+00	0	58	104	0	61	14124
2026-01-01 00:10:56.84	6.34	22.36	-44.9	-56.9	3.8	1.49e+00	0	58	104	0	61	14360
2026-01-01 00:10:57.85	6.26	22.50	-44.9	-57.1	3.8	1.49e+00	0	58	104	0	61	14653
2026-01-01 00:10:58.86	6.19	22.64	-44.9	-57.2	3.8	1.49e+00	0	58	104	0	61	14789
2026-01-01 00:10:59.87	6.11	22.78	-44.9	-57.2	3.8	1.49e+00	0	58	104	0	61	14832
2026-01-01 00:11:00.88	6.03	22.93	-44.9	-57.2	3.8	1.49e+00	0	58	104	0	61	14829
2026-01-01 00:11:01.89	5.95	23.07	-44.9	-57.1	3.8	1.49e+00	0	58	104	0	61	14687
2026-01-01 00:11:02.91	5.87	23.21	-44.9	-57.0	3.8	1.49e+00	0	58	104	0	61	14439
2026-01-01 00:11:03.92	5.79	23.36	-44.9	-56.7	3.8	1.49e+00	0	58	104	0	61	14001
2026-01-01 00:11:04.93	5.71	23.50	-44.8	-56.4	3.8	1.49e+00	0	59	104	0	61	13424
2026-01-01 00:11:05.94	5.63	23.65	-44.8	-56.0	3.8	1.49e+00	0	58	104	0	61	12913
2026-01-01 00:11:06.95	5.55	23.79	-44.8	-55.8	3.8	1.49e+00	0	58	104	0	61	12605
2026-01-01 00:11:07.96	5.47	23.94	-44.8	-55.8	3.8	1.49e+00	0	58	104	0	61	12542
2026-01-01 00:11:08.97	5.38	24.09	-44.8	-56.0	3.8	1.49e+00	0	58	104	0	61	12911
2026-01-01 00:11:09.98	5.30	24.23	-44.8	-56.4	3.8	1.49e+00	0	58	104	0	61	13455
2026-01-01 00:11:10.99	5.21	24.38	-44.9	-56.8	3.8	1.49e+00	0	58	104	0	61	14092
2026-01-01 00:11:12.00	5.13	24.53	-44.9	-57.1	3.8	1.49e+00	0	58	104	0	61	14589
2026-01-01 00:11:13.02	5.04	24.68	-44.9	-57.2	3.8	1.49e+00	0	58	104	0	61	14865
2026-01-01 00:11:14.03	4.95	24.84	-44.9	-57.2	3.8	1.49e+00	0	59	104	0	61	14869
2026-01-01 00:11:15.04	4.86	24.99	-44.9	-57.1	3.8	1.49e+00	0	58	104	0	61	14636
2026-01-01 00:11:16.05	4.77	25.14	-44.8	-56.8	3.8	1.49e+00	0	58	104	0	61	14094
2026-01-01 00:11:17.06	4.68	25.29	-44.8	-56.3	3.8	1.49e+00	0	58	104	0	61	13330
2026-01-01 00:11:18.07	4.59	25.45	-44.7	-55.7	3.8	1.49e+00	0	59	104	0	61	12503
2026-01-01 00:11:19.08	4.50	25.60	-44.7	-55.2	3.9	1.49e+00	0	58	104	0	61	11756
2026-01-01 00:11:20.09	4.41	25.76	-44.6	-54.6	4.0	1.48e+00	0	58	104	0	61	10980
2026-01-01 00:11:21.10	4.31	25.92	-44.6	-54.7	3.9	1.48e+00	0	59	104	0	61	11033
2026-01-01 00:11:22.11	4.22	26.07	-44.4	-53.1	4.4	1.46e+00	0	58	104	0	60	9751
2026-01-01 00:11:23.13	4.12	26.23	-43.9	-50.2	5.8	4.90e-01	0	58	0	1048576	59	7457
2026-01-01 00:11:24.14	4.02	26.39	-42.8	-47.1	8.8	4.78e-02	0	58	0	4194304	57	5796
2026-01-01 00:11:25.15	3.92	26.55	-41.1	-44.0	11.8	1.01e-03	0	58	0	7340032	54	4853
2026-01-01 00:11:26.16	3.83	26.72	-39.7	-41.9	14.0	1.52e-05	0	58	0	10485760	51	4525
2026-01-01 00:11:27.17	3.72	26.88	-38.4	-40.2	15.7	0.00e+00	0	58	0	13631488	48	4420
2026-01-01 00:11:28.18	3.62	27.04	-37.4	-39.0	16.8	0.00e+00	0	58	0	16777216	46	4318
2026-01-01 00:11:29.19	3.52	27.20	-36.9	-38.4	17.4	0.00e+00	0	58	0	19922944	45	4261
2026-01-01 00:11:30.20	3.42	27.37	-36.7	-38.1	17.7	0.00e+00	0	58	0	23068672	45	4129
2026-01-01 00:11:31.21	3.31	27.53	-37.0	-38.5	17.3	0.00e+00	0	58	0	26214400	45	4321
2026-01-01 00:11:32.22	3.21	27.70	-37.6	-39.2	16.6	0.00e+00	0	59	0	29360128	45	4656
2026-01-01 00:11:33.23	3.10	27.87	-37.4	-38.9	16.9	0.00e+00	0	59	0	32505856	45	4535
2026-01-01 00:11:34.24	2.99	28.04	-37.7	-39.2	16.5	0.00e+00	0	58	0	35651584	47	4191
2026-01-01 00:11:35.25	2.88	28.21	-43.5	-48.6	7.0	3.47e-01	0	59	0	38797312	58	6568
2026-01-01 00:11:36.27	2.77	28.38	-39.2	-41.2	14.7	2.05e-05	0	58	0	41943040	50	4393
2026-01-01 00:11:37.28	2.66	28.55	-41.4	-44.4	11.3	4.78e-03	0	58	0	45088768	54	5046
2026-01-01 00:11:38.29	2.55	28.72	-37.5	-39.1	16.7	0.00e+00	0	58	0	48234496	46	4344
2026-01-01 00:11:39.30	2.43	28.89	-37.2	-38.7	17.1	0.00e+00	0	58	0	51380224	46	4157
2026-01-01 00:11:40.31	2.32	29.07	-36.9	-38.3	17.5	0.00e+00	0	58	0	54525952	45	4230
2026-01-01 00:11:41.32	2.20	29.24	-36.8	-38.2	17.6	0.00e+00	0	58	0	57671680	45	4166
2026-01-01 00:11:42.33	2.08	29.42	-36.6	-38.1	17.7	0.00e+00	0	58	0	60817408	45	4106
2026-01-01 00:11:43.34	1.96	29.60	-36.5	-37.9	17.8	0.00e+00	0	58	0	63963136	45	4051
2026-01-01 00:11:44.35	1.84	29.77	-36.5	-37.8	18.0	0.00e+00	0	58	0	67108864	44	4230
2026-01-01 00:11:45.36	1.72	29.95	-36.4	-37.8	18.0	0.00e+00	0	58	0	70254592	44	4214
2026-01-01 00:11:46.37	1.59	30.13	-36.4	-37.8	18.0	0.00e+00	0	58	0	73400320	44	4233
2026-01-01 00:11:47.38	1.47	30.31	-36.4	-37.8	18.0	0.00e+00	0	58	0	76546048	44	4216
2026-01-01 00:11:48.39	1.34	30.49	-36.3	-37.7	18.1	0.00e+00	0	58	0	79691776	44	4149
2026-01-01 00:11:49.40	1.21	30.68	-36.3	-37.7	18.2	0.00e+00	0	58	0	82837504	44	4147
2026-01-01 00:11:50.41	1.09	30.86	-36.2	-37.5	18.3	0.00e+00	0	58	0	85983232	44	4075
2026-01-01 00:11:51.42	0.95	31.04	-36.2	-37.5	18.3	0.00e+00	0	58	0	89128960	44	4069
2026-01-01 00:11:52.43	0.82	31.23	-36.2	-37.5	18.3	0.00e+00	0	58	0	92274688	44	4078
2026-01-01 00:11:53.44	0.69	31.42	-36.2	-37.6	18.2	0.00e+00	0	58	0	96468992	44	4114
2026-01-01 00:11:54.46	0.55	31.61	-36.3	-37.7	18.2	0.00e+00	0	58	0	99614720	44	4155
2026-01-01 00:11:55.47	0.41	31.80	-36.4	-37.7	18.1	0.00e+00	0	58	0	102760448	44	4191
2026-01-01 00:11:56.48	0.27	31.98	-36.4	-37.8	18.0	0.00e+00	0	58	0	105906176	44	4227
2026-01-01 00:11:57.49	0.13	32.18	-36.6	-38.0	17.8	0.00e+00	0	58	0	108003328	44	4330
2026-01-01 00:11:58.50	359.99	32.37	-36.7	-38.1	17.8	0.00e+00	0	58	0	112197632	44	4363
2026-01-01 00:11:59.51	359.85	32.56	-36.7	-38.1	17.7	0.00e+00	0	58	0	115343360	44	4386
2026-01-01 00:12:00.52	359.70	32.75	-36.7	-38.1	17.7	0.00e+00	0	58	0	118489088	44	4384
2026-01-01 00:12:01.53	359.55	32.95	-36.7	-38.1	17.7	0.00e+00	0	58	0	121634816	44	4372
2026-01-01 00:12:02.54	359.40	33.14	-36.7	-38.1	17.7	0.00e+00	0	58	0	124780544	44	4379
2026-01-01 00:12:03.55	359.25	33.34	-36.7	-38.1	17.8	0.00e+00	0	58	0	127926272	44	4359
2026-01-01 00:12:04.56	359.10	33.54	-36.6	-38.0	17.8	0.00e+00	0	58	0	131072000	44	4322
2026-01-01 00:12:05.57	358.94	33.74	-36.7	-38.0	17.8	0.00e+00	0	58	0	134217728	44	4339
2026-01-01 00:12:06.58	358.79	33.94	-36.7	-38.1	17.7	0.00e+00	0	58	0	137363456	44	4370
2026-01-01 00:12:07.59	358.63	34.14	-36.8	-38.3	17.6	0.00e+00	0	58	0	140509184	44	4451
2026-01-01 00:12:08.60	358.47	34.34	-37.0	-38.5	17.4	0.00e+00	0	58	0	143654912	44	4549
2026-01-01 00:12:09.62	358.30	34.55	-37.1	-38.6	17.3	0.00e+00	0	58	0	146800640	44	4648
2026-01-01 00:12:10.62	358.14	34.75	-37.3	-38.9	17.0	0.00e+00	0	58	0	149946368	45	4502
2026-01-01 00:12:11.64	357.97	34.96	-37.4	-38.9	17.0	0.00e+00	0	58	0	153092096	45	4530
2026-01-01 00:12:12.65	357.80	35.16	-37.6	-39.1	16.7	0.00e+00	0	58	0	156237824	45	4651
2026-01-01 00:12:13.66	357.63	35.37	-37.8	-39.4	16.5	0.00e+00	0	58	0	159383552	46	4525
2026-01-01 00:12:14.67	357.45	35.58	-38.0	-39.6	16.3	0.00e+00	0	58	0	162529280	46	4640
2026-01-01 00:12:15.68	357.28	35.79	-38.2	-39.9	16.0	0.00e+00	0	58	0	165675008	46	4780
2026-01-01 00:12:16.69	357.10	36.00	-38.3	-40.0	15.9	0.00e+00	0	58	0	168820736	47	4579
2026-01-01 00:12:17.70	356.92	36.21	-38.3	-40.1	15.8	0.00e+00	0	58	0	171966464	47	4640
2026-01-01 00:12:18.71	356.73	36.42	-38.4	-40.2	15.7	0.00e+00	0	58	0	175112192	47	4699
2026-01-01 00:12:19.72	356.55	36.64	-38.3	-40.1	15.8	0.00e+00	0	58	0	178257920	47	4619
2026-01-01 00:12:20.73	356.36	36.85	-38.4	-40.2	15.7	0.00e+00	0	58	0	181403648	47	4654
2026-01-01 00:12:21.74	356.17	37.07	-38.4	-40.1	15.8	0.00e+00	0	58	0	184549376	47	4644
2026-01-01 00:12:22.75	355.97	37.29	-38.4	-40.2	15.7	0.00e+00	0	58	0	187695104	47	4699
2026-01-01 00:12:23.76	355.78	37.50	-38.5	-40.3	15.6	0.00e+00	0	58	0	190840832	47	4759
2026-01-01 00:12:24.77	355.58	37.72	-38.6	-40.4	15.5	0.00e+00	0	58	0	193986560	47	4791
2026-01-01 00:12:25.78	355.38	37.94	-38.8	-40.6	15.4	0.00e+00	0	58	0	197132288	48	4650
2026-01-01 00:12:26.79	355.17	38.16	-38.8	-40.7	15.3	0.00e+00	0	58	0	200278016	48	4658
2026-01-01 00:12:27.80	354.96	38.39	-38.6	-40.4	15.6	0.00e+00	0	58	0	203423744	48	4511
2026-01-01 00:12:28.81	354.75	38.61	-38.6	-40.4	15.6	0.00e+00	0	58	0	206569472	48	4523
2026-01-01 00:12:29.82	354.54	38.83	-38.8	-40.6	15.4	0.00e+00	0	58	0	209715200	48	4629
2026-01-01 00:12:30.83	354.32	39.06	-38.8	-40.7	15.3	0.00e+00	0	58	0	212860928	48	4665
2026-01-01 00:12:31.84	354.10	39.29	-39.0	-40.9	15.1	0.00e+00	0	58	0	216006656	48	4813
2026-01-01 00:12:32.85	353.88	39.51	-39.1	-41.1	14.9	0.00e+00	0	58	0	219152384	48	4888
2026-01-01 00:12:33.86	353.66	39.74	-39.0	-41.0	15.0	0.00e+00	0	58	0	222298112	48	4828
2026-01-01 00:12:34.87	353.43	39.97	-38.9	-40.8	15.2	0.00e+00	0	58	0	225443840	48	4753
2026-01-01 00:12:35.88	353.19	40.20	-38.7	-40.5	15.5	7.00e-07	0	58	0	228589568	48	4597
2026-01-01 00:12:36.89	352.96	40.43	-38.5	-40.2	15.8	0.00e+00	0	58	0	231735296	48	4419
2026-01-01 00:12:37.90	352.72	40.67	-38.2	-39.8	16.2	0.00e+00	0	58	0	234881024	48	4222
2026-01-01 00:12:38.91	352.48	40.90	-37.8	-39.4	16.5	0.00e+00	0	58	0	238026752	47	4277
2026-01-01 00:12:39.92	352.23	41.13	-37.9	-39.5	16.4	0.00e+00	0	58	0	241172480	47	4307
2026-01-01 00:12:40.93	351.98	41.37	-38.1	-39.8	16.1	0.00e+00	0	58	0	244318208	47	4465
2026-01-01 00:12:41.94	351.73	41.60	-38.2	-39.9	16.0	0.00e+00	0	58	0	247463936	47	4534
2026-01-01 00:12:42.95	351.47	41.84	-38.4	-40.2	15.8	0.00e+00	0	58	0	250609664	47	4672
2026-01-01 00:12:43.97	351.21	42.08	-38.6	-40.4	15.6	0.00e+00	0	58	0	253755392	47	4792
2026-01-01 00:12:44.98	350.94	42.32	-38.6	-40.4	15.6	0.00e+00	0	58	0	256901120	47	4770
2026-01-01 00:12:45.99	350.67	42.56	-38.4	-40.1	15.9	0.00e+00	0	58	0	260046848	47	4631
2026-01-01 00:12:47.00	350.40	42.80	-38.5	-40.2	15.7	0.00e+00	0	58	0	263192576	47	4692
2026-01-01 00:12:48.01	350.12	43.04	-38.6	-40.5	15.4	0.00e+00	0	58	0	266338304	47	4827
2026-01-01 00:12:49.02	349.84	43.28	-38.9	-40.8	15.1	0.00e+00	0	58	0	269484032	48	4735
2026-01-01 00:12:50.03	349.55	43.52	-39.0	-40.8	15.1	0.00e+00	0	58	0	272629760	48	4759
2026-01-01 00:12:51.04	349.26	43.77	-39.2	-41.1	15.0	0.00e+00	0	58	0	275775488	48	4887
2026-01-01 00:12:52.05	348.97	44.01	-39.4	-41.4	14.7	7.00e-07	0	58	0	278921216	49	4781
2026-01-01 00:12:53.06	348.67	44.25	-39.4	-41.5	14.6	7.00e-07	0	58	0	282066944	49	4815
2026-01-01 00:12:54.07	348.36	44.50	-39.2	-41.2	14.8	0.00e+00	0	58	0	285212672	49	4666
2026-01-01 00:12:55.08	348.05	44.75	-39.1	-41.0	15.1	0.00e+00	0	58	0	288358400	49	4546
2026-01-01 00:12:56.09	347.74	44.99	-38.7	-40.5	15.5	0.00e+00	0	58	0	291504128	49	4330
2026-01-01 00:12:57.10	347.42	45.24	-38.6	-40.3	15.8	0.00e+00	0	58	0	294649856	49	4232
2026-01-01 00:12:58.11	347.10	45.49	-38.6	-40.3	15.7	0.00e+00	0	58	0	297795584	49	4234
2026-01-01 00:12:59.12	346.77	45.73	-38.5	-40.2	15.8	0.00e+00	0	58	0	300941312	48	4407
2026-01-01 00:13:00.13	346.43	45.98	-38.4	-40.1	15.9	0.00e+00	0	58	0	304087040	48	4378
2026-01-01 00:13:01.14	346.09	46.23	-38.4	-40.1	15.9	0.00e+00	0	58	0	307232768	48	4358
2026-01-01 00:13:02.15	345.75	46.48	-38.1	-39.8	16.3	0.00e+00	0	58	0	310378496	48	4201
2026-01-01 00:13:03.16	345.40	46.73	-38.0	-39.6	16.3	0.00e+00	0	58	0	313524224	48	4139
2026-01-01 00:13:04.18	345.04	46.98	-37.9	-39.6	16.3	0.00e+00	0	58	0	316669952	47	4352
2026-01-01 00:13:05.18	344.68	47.23	-38.1	-39.7	16.2	0.00e+00	0	58	0	319815680	47	4437
2026-01-01 00:13:06.19	344.31	47.48	-38.2	-39.9	16.0	0.00e+00	0	58	0	322961408	47	4512
2026-01-01 00:13:07.21	343.93	47.73	-38.3	-40.0	15.9	0.00e+00	0	58	0	326107136	47	4585
2026-01-01 00:13:08.22	343.55	47.98	-38.3	-40.0	15.9	0.00e+00	0	58	0	329252864	47	4598
2026-01-01 00:13:09.23	343.17	48.23	-38.2	-40.0	16.0	0.00e+00	0	58	0	332398592	47	4556
2026-01-01 00:13:10.24	342.77	48.48	-38.3	-40.0	15.9	0.00e+00	0	58	0	335544320	47	4592
2026-01-01 00:13:11.25	342.37	48.73	-38.4	-40.1	15.9	0.00e+00	0	58	0	338690048	47	4621
2026-01-01 00:13:12.26	341.97	48.99	-38.6	-40.4	15.6	0.00e+00	0	58	0	341835776	47	4789
2026-01-01 00:13:13.27	341.55	49.24	-39.0	-40.9	15.1	0.00e+00	0	58	0	344981504	48	4801
2026-01-01 00:13:14.28	341.13	49.49	-39.1	-41.0	15.0	0.00e+00	0	58	0	348127232	48	4858
2026-01-01 00:13:15.29	340.71	49.74	-38.9	-40.7	15.3	0.00e+00	0	58	0	351272960	48	4694
2026-01-01 00:13:16.30	340.27	49.98	-38.5	-40.3	15.7	0.00e+00	0	58	0	354418688	48	4445
2026-01-01 00:13:17.31	339.83	50.23	-38.5	-40.2	15.8	0.00e+00	0	58	0	357564416	48	4421
2026-01-01 00:13:18.32	339.38	50.48	-38.6	-40.3	15.8	0.00e+00	0	58	0	360710144	48	4488
2026-01-01 00:13:19.33	338.93	50.73	-38.8	-40.6	15.5	0.00e+00	0	58	0	363855872	48	4621
2026-01-01 00:13:20.35	338.46	50.98	-39.0	-40.9	15.2	0.00e+00	0	58	0	368050176	48	4787
2026-01-01 00:13:21.36	337.99	51.23	-38.7	-40.5	15.6	0.00e+00	0	58	0	371195904	48	4550
2026-01-01 00:13:22.37	337.51	51.47	-38.5	-40.2	15.8	0.00e+00	0	58	0	374341632	48	4409
2026-01-01 00:13:23.37	337.03	51.71	-38.3	-40.0	16.1	0.00e+00	0	58	0	376438784	48	4318
2026-01-01 00:13:24.38	336.53	51.96	-38.3	-40.0	16.1	0.00e+00	0	58	0	379584512	48	4300
2026-01-01 00:13:25.39	336.03	52.20	-38.4	-40.1	16.0	0.00e+00	0	58	0	382730240	48	4369
2026-01-01 00:13:26.40	335.52	52.44	-38.3	-39.9	16.1	0.00e+00	0	58	0	386924544	48	4289
2026-01-01 00:13:27.41	335.00	52.68	-37.5	-39.0	17.0	0.00e+00	0	58	0	390070272	47	4083
2026-01-01 00:13:28.42	334.47	52.92	-37.0	-38.4	17.5	0.00e+00	0	58	0	393216000	45	4272
2026-01-01 00:13:29.43	333.93	53.16	-36.8	-38.2	17.7	0.00e+00	0	58	0	396361728	45	4187
2026-01-01 00:13:30.44	333.38	53.40	-37.0	-38.4	17.5	0.00e+00	0	58	0	398458880	45	4290
2026-01-01 00:13:31.45	332.83	53.63	-37.2	-38.7	17.2	0.00e+00	0	58	0	402653184	45	4439
2026-01-01 00:13:32.46	332.26	53.87	-37.3	-38.8	17.1	0.00e+00	0	58	0	405798912	45	4466
2026-01-01 00:13:33.47	331.69	54.10	-37.1	-38.6	17.4	0.00e+00	0	58	0	408944640	45	4347
2026-01-01 00:13:34.48	331.10	54.33	-36.9	-38.4	17.6	0.00e+00	0	58	0	412090368	45	4243
2026-01-01 00:13:35.49	330.51	54.55	-37.0	-38.5	17.5	0.00e+00	0	58	0	415236096	45	4308
2026-01-01 00:13:36.51	329.90	54.78	-37.2	-38.7	17.2	0.00e+00	0	58	0	418381824	45	4427
2026-01-01 00:13:37.52	329.29	55.00	-37.5	-39.0	16.9	0.00e+00	0	58	0	421527552	45	4594
2026-01-01 00:13:38.53	328.67	55.22	-37.4	-39.0	16.9	0.00e+00	0	58	0	424673280	45	4569
2026-01-01 00:13:39.54	328.04	55.44	-37.0	-38.5	17.5	0.00e+00	0	58	0	427819008	45	4301
2026-01-01 00:13:40.55	327.40	55.66	-36.8	-38.2	17.6	0.00e+00	0	58	0	430964736	45	4187
2026-01-01 00:13:41.56	326.74	55.87	-36.8	-38.3	17.4	0.00e+00	0	58	0	434110464	45	4203
2026-01-01 00:13:42.57	326.08	56.08	-37.1	-38.6	17.1	0.00e+00	0	58	0	437256192	45	4353
2026-01-01 00:13:43.58	325.41	56.29	-37.0	-38.5	17.3	0.00e+00	0	58	0	440401920	45	4299
2026-01-01 00:13:44.59	324.73	56.49	-36.7	-38.1	17.7	0.00e+00	0	58	0	443547648	45	4129
2026-01-01 00:13:45.60	324.04	56.69	-36.3	-37.7	18.2	0.00e+00	0	58	0	446693376	44	4151
2026-01-01 00:13:46.61	323.34	56.89	-36.2	-37.5	18.3	0.00e+00	0	58	0	449839104	44	4092
2026-01-01 00:13:47.62	322.63	57.08	-36.4	-37.8	18.1	0.00e+00	0	58	0	452984832	44	4215
2026-01-01 00:13:48.63	321.90	57.27	-36.6	-38.0	17.9	0.00e+00	0	58	0	456130560	44	4328
2026-01-01 00:13:49.64	321.17	57.46	-36.4	-37.8	18.1	0.00e+00	0	58	0	459276288	44	4210
2026-01-01 00:13:50.65	320.43	57.64	-36.0	-37.3	18.5	0.00e+00	0	58	0	462422016	44	3983
2026-01-01 00:13:51.66	319.68	57.82	-35.8	-37.1	18.6	0.00e+00	0	58	0	465567744	43	4101
2026-01-01 00:13:52.67	318.92	57.99	-35.8	-37.0	18.6	0.00e+00	0	58	0	468713472	43	4092
2026-01-01 00:13:53.68	318.15	58.16	-35.9	-37.2	18.5	0.00e+00	0	58	0	471859200	43	4159
2026-01-01 00:13:54.69	317.36	58.33	-36.0	-37.3	18.3	0.00e+00	0	58	0	475004928	43	4221
2026-01-01 00:13:55.70	316.57	58.49	-35.9	-37.2	18.5	0.00e+00	0	58	0	478150656	43	4158
2026-01-01 00:13:56.71	315.77	58.64	-36.1	-37.4	18.3	0.00e+00	0	58	0	481296384	43	4289
2026-01-01 00:13:57.73	314.95	58.79	-35.9	-37.2	18.4	0.00e+00	0	58	0	484442112	43	4172
2026-01-01 00:13:58.74	314.14	58.94	-35.4	-36.6	19.0	0.00e+00	0	58	0	487587840	42	4114
2026-01-01 00:13:59.74	313.32	59.08	-35.1	-36.3	19.3	0.00e+00	0	58	0	490733568	42	3986
2026-01-01 00:14:00.75	312.48	59.22	-35.1	-36.3	19.3	0.00e+00	0	58	0	493879296	42	3985
2026-01-01 00:14:01.76	311.63	59.35	-35.2	-36.4	19.3	0.00e+00	0	58	0	497025024	42	4010
2026-01-01 00:14:02.77	310.78	59.47	-35.2	-36.4	19.2	0.00e+00	0	58	0	500170752	42	4038
2026-01-01 00:14:03.78	309.92	59.59	-35.4	-36.6	18.9	0.00e+00	0	58	0	503316480	42	4137
2026-01-01 00:14:04.79	309.05	59.70	-35.3	-36.5	19.0	0.00e+00	0	58	0	506462208	42	4093
2026-01-01 00:14:05.80	308.17	59.81	-35.1	-36.3	19.2	0.00e+00	0	58	0	509607936	42	3989
2026-01-01 00:14:06.81	307.29	59.91	-35.3	-36.5	19.1	0.00e+00	0	58	0	512753664	42	4057
2026-01-01 00:14:07.82	306.39	60.01	-35.6	-36.8	18.8	0.00e+00	0	58	0	515899392	42	4224
2026-01-01 00:14:08.84	305.49	60.10	-35.8	-37.1	18.5	0.00e+00	0	58	0	519045120	42	4367
2026-01-01 00:14:09.85	304.58	60.18	-35.7	-37.0	18.7	0.00e+00	0	58	0	522190848	42	4305
2026-01-01 00:14:10.85	303.68	60.26	-35.4	-36.6	19.0	0.00e+00	0	58	0	525336576	42	4116
2026-01-01 00:14:11.86	302.77	60.33	-35.4	-36.6	19.0	0.00e+00	0	58	0	528482304	42	4111
2026-01-01 00:14:12.87	301.85	60.39	-35.3	-36.6	19.0	0.00e+00	0	58	0	531628032	42	4108
2026-01-01 00:14:13.89	300.92	60.45	-35.4	-36.7	18.9	0.00e+00	0	58	0	534773760	42	4151
2026-01-01 00:14:14.90	299.99	60.50	-35.1	-36.3	19.3	0.00e+00	0	58	0	537919488	42	3967
2026-01-01 00:14:15.91	299.06	60.54	-35.2	-36.4	19.2	0.00e+00	0	58	0	541065216	42	4013
2026-01-01 00:14:16.92	298.12	60.58	-35.3	-36.5	19.1	0.00e+00	0	58	0	544210944	42	4071
2026-01-01 00:14:17.93	297.18	60.61	-35.3	-36.5	19.1	0.00e+00	0	58	0	547356672	42	4069
2026-01-01 00:14:18.94	296.24	60.63	-35.3	-36.5	19.1	0.00e+00	0	58	0	550502400	42	4089
2026-01-01 00:14:19.95	295.30	60.65	-35.4	-36.6	19.1	0.00e+00	0	58	0	553648128	42	4115
2026-01-01 00:14:20.96	294.36	60.66	-35.6	-36.9	18.7	0.00e+00	0	58	0	556793856	42	4255
2026-01-01 00:14:21.97	293.42	60.66	-35.5	-36.8	18.7	0.00e+00	0	58	0	559939584	42	4201
2026-01-01 00:14:22.98	292.48	60.66	-35.8	-37.1	18.5	0.00e+00	0	58	0	563085312	42	4365
2026-01-01 00:14:23.99	291.54	60.65	-35.6	-36.9	18.7	0.00e+00	0	58	0	566231040	42	4273
2026-01-01 00:14:25.00	290.60	60.63	-35.5	-36.8	18.7	0.00e+00	0	58	0	569376768	42	4222
2026-01-01 00:14:26.01	289.66	60.60	-35.3	-36.6	18.9	0.00e+00	0	58	0	572522496	42	4119
2026-01-01 00:14:27.02	288.72	60.57	-35.5	-36.8	18.8	0.00e+00	0	58	0	575668224	42	4206
2026-01-01 00:14:28.03	287.79	60.53	-35.6	-36.9	18.7	0.00e+00	0	58	0	578813952	42	4260
2026-01-01 00:14:29.04	286.86	60.49	-35.5	-36.8	18.8	0.00e+00	0	58	0	581959680	42	4210
2026-01-01 00:14:30.05	285.93	60.44	-35.5	-36.8	18.8	0.00e+00	0	58	0	585105408	42	4206
2026-01-01 00:14:31.06	285.00	60.38	-35.5	-36.7	18.8	0.00e+00	0	58	0	588251136	42	4179
2026-01-01 00:14:32.07	284.08	60.31	-35.5	-36.7	18.8	0.00e+00	0	58	0	591396864	42	4177
2026-01-01 00:14:33.08	283.17	60.24	-35.4	-36.7	18.9	0.00e+00	0	58	0	594542592	42	4146
2026-01-01 00:14:34.09	282.26	60.17	-35.9	-37.2	18.4	0.00e+00	0	58	0	597688320	42	4422
2026-01-01 00:14:35.10	281.36	60.08	-36.3	-37.8	17.9	0.00e+00	0	58	0	600834048	43	4445
2026-01-01 00:14:36.11	280.46	59.99	-36.9	-38.4	17.5	0.00e+00	0	58	0	603979776	44	4527
2026-01-01 00:14:37.12	279.57	59.89	-37.0	-38.5	17.3	0.00e+00	0	58	0	607125504	44	4572
2026-01-01 00:14:38.13	278.68	59.79	-36.2	-37.6	18.2	0.00e+00	0	58	0	610271232	44	4115
2026-01-01 00:14:39.14	277.81	59.68	-36.1	-37.4	18.4	0.00e+00	0	58	0	613416960	44	4048
2026-01-01 00:14:40.15	276.94	59.57	-36.5	-37.9	18.0	0.00e+00	0	58	0	616562688	44	4275
2026-01-01 00:14:41.16	276.08	59.45	-36.7	-38.1	17.7	0.00e+00	0	58	0	619708416	44	4374
2026-01-01 00:14:42.17	275.22	59.32	-36.3	-37.7	18.1	0.00e+00	0	58	0	622854144	44	4157
2026-01-01 00:14:43.18	274.38	59.19	-36.1	-37.4	18.4	0.00e+00	0	58	0	625999872	44	4039
2026-01-01 00:14:44.20	273.53	59.05	-36.4	-37.8	18.1	0.00e+00	0	58	0	629145600	44	4195
2026-01-01 00:14:45.21	272.71	58.91	-36.3	-37.6	18.2	0.00e+00	0	58	0	632291328	44	4134
2026-01-01 00:14:46.22	271.89	58.77	-36.2	-37.6	18.1	0.00e+00	0	58	0	635437056	44	4115
2026-01-01 00:14:47.23	271.08	58.61	-36.4	-37.8	18.0	0.00e+00	0	58	0	638582784	44	4227
2026-01-01 00:14:48.24	270.28	58.46	-36.8	-38.3	17.6	0.00e+00	0	58	0	641728512	44	4459
2026-01-01 00:14:49.25	269.49	58.29	-36.6	-38.0	17.8	0.00e+00	0	58	0	644874240	44	4328
2026-01-01 00:14:50.26	268.71	58.13	-36.3	-37.7	18.2	0.00e+00	0	58	0	648019968	44	4152
2026-01-01 00:14:51.27	267.94	57.96	-36.4	-37.7	18.0	0.00e+00	0	58	0	651165696	44	4181
2026-01-01 00:14:52.28	267.18	57.78	-36.6	-38.0	17.8	0.00e+00	0	58	0	654311424	44	4339
2026-01-01 00:14:53.29	266.42	57.60	-36.6	-38.0	17.8	0.00e+00	0	58	0	657457152	44	4312
2026-01-01 00:14:54.30	265.68	57.42	-36.4	-37.7	18.1	0.00e+00	0	58	0	661651456	44	4173
2026-01-01 00:14:55.31	264.95	57.23	-36.6	-38.0	17.8	0.00e+00	0	58	0	664797184	44	4292
2026-01-01 00:14:56.32	264.23	57.04	-36.8	-38.2	17.6	0.00e+00	0	58	0	667942912	44	4433
2026-01-01 00:14:57.33	263.52	56.85	-36.5	-37.9	17.9	0.00e+00	0	58	0	670040064	44	4262
2026-01-01 00:14:58.34	262.82	56.65	-36.2	-37.6	18.2	0.00e+00	0	58	0	674234368	44	4101
2026-01-01 00:14:59.35	262.13	56.45	-36.1	-37.4	18.4	0.00e+00	0	58	0	677380096	44	4013
2026-01-01 00:15:00.36	261.45	56.24	-36.2	-37.5	18.3	0.00e+00	0	58	0	680525824	44	4059
2026-01-01 00:15:01.37	260.78	56.04	-36.5	-37.9	17.9	0.00e+00	0	58	0	683671552	44	4256
2026-01-01 00:15:02.39	260.11	55.82	-37.3	-38.8	17.1	0.00e+00	0	58	0	686817280	45	4456
2026-01-01 00:15:03.39	259.47	55.61	-37.8	-39.5	16.4	0.00e+00	0	58	0	689963008	46	4573
2026-01-01 00:15:04.40	258.83	55.39	-37.8	-39.5	16.3	0.00e+00	0	58	0	693108736	46	4550
2026-01-01 00:15:05.42	258.19	55.17	-37.6	-39.1	16.5	0.00e+00	0	58	0	696254464	46	4388
2026-01-01 00:15:06.42	257.57	54.95	-37.1	-38.6	17.1	0.00e+00	0	58	0	699400192	46	4119
2026-01-01 00:15:07.44	256.96	54.73	-36.8	-38.2	17.6	0.00e+00	0	58	0	702545920	45	4183
2026-01-01 00:15:08.45	256.35	54.50	-36.9	-38.3	17.6	0.00e+00	0	58	0	705691648	45	4223
2026-01-01 00:15:09.46	255.76	54.27	-37.8	-39.5	16.5	0.00e+00	0	58	0	708837376	46	4549
2026-01-01 00:15:10.47	255.18	54.04	-38.4	-40.2	15.8	0.00e+00	0	58	0	711983104	47	4652
2026-01-01 00:15:11.48	254.61	53.81	-38.9	-40.8	15.2	0.00e+00	0	58	0	715128832	48	4747
2026-01-01 00:15:12.49	254.04	53.58	-39.0	-41.0	15.0	7.00e-07	0	58	0	718274560	48	4817
2026-01-01 00:15:13.50	253.49	53.34	-38.2	-39.9	16.0	0.00e+00	0	58	0	721420288	48	4288
2026-01-01 00:15:14.51	252.94	53.10	-37.2	-38.6	17.2	0.00e+00	0	58	0	724566016	46	4144
2026-01-01 00:15:15.52	252.40	52.86	-36.8	-38.3	17.6	0.00e+00	0	58	0	727711744	45	4194
2026-01-01 00:15:16.53	251.87	52.62	-36.9	-38.3	17.4	0.00e+00	0	58	0	730857472	45	4240
2026-01-01 00:15:17.54	251.35	52.38	-38.2	-39.9	16.0	0.00e+00	0	58	0	734003200	46	4763
2026-01-01 00:15:18.55	250.84	52.14	-39.3	-41.4	14.7	0.00e+00	0	58	0	737148928	49	4765
2026-01-01 00:15:19.56	250.34	51.90	-39.6	-41.7	14.1	1.50e-06	0	58	0	740294656	49	4968
2026-01-01 00:15:20.57	249.84	51.65	-39.1	-41.0	14.8	0.00e+00	0	58	0	743440384	49	4554
2026-01-01 00:15:21.58	249.36	51.40	-38.7	-40.5	15.3	0.00e+00	0	58	0	746586112	49	4317
2026-01-01 00:15:22.59	248.88	51.16	-38.4	-40.1	15.7	0.00e+00	0	58	0	749731840	48	4375
2026-01-01 00:15:23.60	248.41	50.91	-38.1	-39.8	16.0	0.00e+00	0	58	0	752877568	48	4199
2026-01-01 00:15:24.61	247.95	50.66	-37.7	-39.4	16.4	0.00e+00	0	58	0	756023296	47	4244
2026-01-01 00:15:25.62	247.49	50.41	-38.1	-39.7	16.1	0.00e+00	0	58	0	759169024	47	4425
2026-01-01 00:15:26.63	247.04	50.16	-38.6	-40.4	15.4	0.00e+00	0	58	0	762314752	47	4773
2026-01-01 00:15:27.64	246.60	49.91	-39.5	-41.5	14.4	0.00e+00	0	58	0	765460480	49	4859
2026-01-01 00:15:28.65	246.17	49.66	-39.7	-41.8	14.0	1.50e-06	0	58	0	768606208	50	4744
2026-01-01 00:15:29.66	245.74	49.41	-39.1	-41.0	14.9	0.00e+00	0	58	0	771751936	50	4321
2026-01-01 00:15:30.67	245.32	49.16	-38.6	-40.4	15.6	7.00e-07	0	58	0	774897664	49	4247
2026-01-01 00:15:31.68	244.91	48.91	-38.5	-40.3	15.7	0.00e+00	0	58	0	778043392	49	4208
2026-01-01 00:15:32.69	244.50	48.66	-38.9	-40.7	15.2	0.00e+00	0	58	0	781189120	49	4432
2026-01-01 00:15:33.71	244.10	48.41	-39.5	-41.6	14.4	0.00e+00	0	58	0	784334848	49	4889
2026-01-01 00:15:34.72	243.71	48.15	-39.7	-41.8	14.2	1.50e-06	0	58	0	787480576	50	4706
2026-01-01 00:15:35.72	243.32	47.90	-39.1	-41.0	14.9	0.00e+00	0	58	0	790626304	50	4339
2026-01-01 00:15:36.74	242.94	47.65	-39.1	-41.0	15.0	0.00e+00	0	58	0	793772032	50	4330
2026-01-01 00:15:37.75	242.57	47.40	-39.4	-41.5	14.5	7.00e-07	0	58	0	796917760	50	4560
2026-01-01 00:15:38.76	242.20	47.15	-39.0	-40.9	15.0	0.00e+00	0	58	0	800063488	50	4271
2026-01-01 00:15:39.77	241.84	46.90	-37.8	-39.3	16.4	0.00e+00	0	58	0	803209216	47	4236
2026-01-01 00:15:40.78	241.48	46.65	-37.2	-38.7	17.0	0.00e+00	0	58	0	806354944	46	4161
2026-01-01 00:15:41.79	241.13	46.40	-37.4	-38.9	16.9	0.00e+00	0	58	0	809500672	46	4279
2026-01-01 00:15:42.80	240.78	46.15	-38.0	-39.6	16.1	0.00e+00	0	58	0	812646400	46	4632
2026-01-01 00:15:43.81	240.44	45.90	-38.6	-40.5	15.3	0.00e+00	0	58	0	815792128	47	4821
2026-01-01 00:15:44.82	240.11	45.65	-39.6	-41.7	14.2	0.00e+00	0	58	0	818937856	49	4961
2026-01-01 00:15:45.83	239.78	45.40	-40.0	-42.3	13.7	3.80e-06	0	58	0	822083584	50	5001
2026-01-01 00:15:46.84	239.46	45.15	-39.5	-41.6	14.4	1.50e-06	0	58	0	825229312	50	4629
2026-01-01 00:15:47.85	239.14	44.90	-38.9	-40.8	15.2	0.00e+00	0	58	0	828375040	49	4467
2026-01-01 00:15:48.86	238.82	44.66	-38.7	-40.5	15.3	0.00e+00	0	58	0	831520768	49	4310
2026-01-01 00:15:49.87	238.52	44.41	-38.4	-40.2	15.5	0.00e+00	0	58	0	834666496	48	4404
2026-01-01 00:15:50.88	238.21	44.16	-37.8	-39.5	16.1	0.00e+00	0	58	0	837812224	47	4314
2026-01-01 00:15:51.89	237.91	43.92	-37.4	-38.9	16.9	0.00e+00	0	58	0	840957952	46	4258
2026-01-01 00:15:52.90	237.62	43.67	-37.6	-39.1	16.7	0.00e+00	0	58	0	844103680	46	4364
2026-01-01 00:15:53.92	237.32	43.43	-38.4	-40.1	15.8	0.00e+00	0	58	0	847249408	47	4625
2026-01-01 00:15:54.93	237.04	43.18	-39.4	-41.5	14.3	7.00e-07	0	58	0	850395136	49	4852
2026-01-01 00:15:55.94	236.76	42.94	-40.1	-42.5	13.3	7.60e-06	0	58	0	853540864	50	5129
2026-01-01 00:15:56.95	236.48	42.70	-40.7	-43.4	12.6	6.33e-05	0	58	0	856686592	51	5354
2026-01-01 00:15:57.96	236.21	42.46	-40.4	-42.9	12.9	7.01e-05	0	58	0	859832320	51	5100
2026-01-01 00:15:58.97	235.94	42.22	-39.9	-42.1	13.7	9.90e-06	0	58	0	862978048	51	4610
2026-01-01 00:15:59.98	235.67	41.98	-39.3	-41.3	14.5	7.00e-07	0	58	0	866123776	50	4470
2026-01-01 00:16:00.99	235.41	41.74	-38.9	-40.8	15.1	0.00e+00	0	58	0	869269504	49	4442
2026-01-01 00:16:02.00	235.15	41.50	-39.1	-41.0	14.9	0.00e+00	0	58	0	872415232	49	4580
2026-01-01 00:16:03.01	234.90	41.27	-39.3	-41.4	14.6	0.00e+00	0	58	0	875560960	49	4763
2026-01-01 00:16:04.02	234.65	41.03	-39.4	-41.4	14.5	7.00e-07	0	58	0	878706688	49	4810
2026-01-01 00:16:05.03	234.40	40.80	-39.3	-41.3	14.7	0.00e+00	0	58	0	881852416	49	4741
2026-01-01 00:16:06.04	234.16	40.56	-38.8	-40.6	15.3	0.00e+00	0	58	0	884998144	49	4387
2026-01-01 00:16:07.05	233.92	40.33	-38.5	-40.3	15.6	0.00e+00	0	58	0	888143872	49	4227
2026-01-01 00:16:08.06	233.69	40.10	-38.8	-40.7	15.3	0.00e+00	0	58	0	891289600	49	4400
2026-01-01 00:16:09.07	233.45	39.87	-39.4	-41.4	14.6	0.00e+00	0	58	0	894435328	49	4809
2026-01-01 00:16:10.08	233.22	39.64	-39.6	-41.8	14.1	0.00e+00	0	58	0	897581056	49	5019
2026-01-01 00:16:11.09	233.00	39.41	-39.5	-41.7	14.2	2.20e-06	0	58	0	900726784	49	4941
2026-01-01 00:16:12.10	232.78	39.18	-39.1	-41.1	14.7	0.00e+00	0	58	0	903872512	49	4615
2026-01-01 00:16:13.11	232.56	38.95	-38.7	-40.5	15.3	0.00e+00	0	58	0	907018240	49	4330
2026-01-01 00:16:14.12	232.34	38.73	-38.5	-40.3	15.6	0.00e+00	0	58	0	910163968	49	4217
2026-01-01 00:16:15.14	232.12	38.50	-38.4	-40.1	15.8	0.00e+00	0	58	0	913309696	48	4369
2026-01-01 00:16:16.15	231.91	38.28	-38.4	-40.2	15.7	0.00e+00	0	58	0	916455424	48	4392
2026-01-01 00:16:17.16	231.71	38.05	-38.7	-40.5	15.4	0.00e+00	0	58	0	919601152	48	4560
2026-01-01 00:16:18.17	231.50	37.83	-39.1	-41.0	14.8	0.00e+00	0	58	0	922746880	48	4866
2026-01-01 00:16:19.18	231.30	37.61	-39.0	-40.9	15.0	0.00e+00	0	58	0	925892608	48	4786
2026-01-01 00:16:20.19	231.10	37.39	-38.6	-40.4	15.6	0.00e+00	0	58	0	929038336	48	4504
2026-01-01 00:16:21.20	230.90	37.17	-38.3	-40.0	15.8	0.00e+00	0	58	0	933232640	48	4327
2026-01-01 00:16:22.21	230.71	36.95	-38.1	-39.7	16.1	0.00e+00	0	58	0	936378368	48	4191
2026-01-01 00:16:23.22	230.52	36.74	-37.9	-39.6	16.2	0.00e+00	0	58	0	938475520	47	4368
2026-01-01 00:16:24.23	230.33	36.52	-38.0	-39.6	16.2	0.00e+00	0	58	0	941621248	47	4390
2026-01-01 00:16:25.24	230.14	36.31	-38.3	-40.0	15.8	0.00e+00	0	58	0	944766976	47	4596
2026-01-01 00:16:26.25	229.96	36.09	-38.5	-40.3	15.5	0.00e+00	0	58	0	948961280	47	4758
2026-01-01 00:16:27.26	229.78	35.88	-38.4	-40.3	15.6	0.00e+00	0	58	0	952107008	47	4718
2026-01-01 00:16:28.27	229.60	35.67	-38.2	-40.0	15.8	0.00e+00	0	58	0	955252736	47	4563
2026-01-01 00:16:29.28	229.42	35.46	-37.8	-39.5	16.3	0.00e+00	0	58	0	958398464	47	4308
2026-01-01 00:16:30.29	229.25	35.25	-37.5	-39.1	16.7	0.00e+00	0	58	0	960495616	47	4116
2026-01-01 00:16:31.30	229.08	35.04	-37.3	-38.8	17.0	0.00e+00	0	58	0	964689920	46	4235
2026-01-01 00:16:32.31	228.91	34.83	-37.2	-38.7	17.2	0.00e+00	0	58	0	967835648	46	4153
2026-01-01 00:16:33.32	228.74	34.63	-36.9	-38.4	17.4	0.00e+00	0	58	0	970981376	45	4243
2026-01-01 00:16:34.33	228.57	34.42	-36.9	-38.4	17.4	0.00e+00	0	58	0	974127104	45	4268
2026-01-01 00:16:35.34	228.41	34.22	-36.9	-38.3	17.5	0.00e+00	0	58	0	977272832	45	4225
2026-01-01 00:16:36.35	228.25	34.02	-36.8	-38.3	17.5	0.00e+00	0	58	0	980418560	45	4206
2026-01-01 00:16:37.36	228.09	33.82	-36.8	-38.2	17.6	0.00e+00	0	58	0	983564288	45	4190
2026-01-01 00:16:38.38	227.93	33.61	-36.8	-38.2	17.5	0.00e+00	0	58	0	986710016	45	4191
2026-01-01 00:16:39.39	227.77	33.41	-36.8	-38.2	17.6	0.00e+00	0	58	0	989855744	45	4161
2026-01-01 00:16:40.40	227.62	33.21	-36.6	-37.9	17.8	0.00e+00	0	58	0	993001472	45	4051
2026-01-01 00:16:41.41	227.47	33.02	-36.5	-37.9	17.9	0.00e+00	0	58	0	996147200	44	4243
2026-01-01 00:16:42.42	227.32	32.82	-36.5	-37.9	17.9	0.00e+00	0	58	0	999292928	44	4249
2026-01-01 00:16:43.43	227.17	32.63	-36.5	-37.8	17.9	0.00e+00	0	58	0	1002438656	44	4240
2026-01-01 00:16:44.44	227.03	32.43	-36.4	-37.8	18.0	0.00e+00	0	58	0	1005584384	44	4202
2026-01-01 00:16:45.45	226.88	32.24	-36.4	-37.8	17.9	0.00e+00	0	58	0	1008730112	44	4234
2026-01-01 00:16:46.46	226.74	32.05	-36.6	-38.0	17.8	0.00e+00	0	58	0	1011875840	44	4298
2026-01-01 00:16:47.47	226.60	31.85	-36.8	-38.3	17.5	0.00e+00	0	58	0	1015021568	44	4450
2026-01-01 00:16:48.48	226.46	31.66	-37.0	-38.6	17.3	0.00e+00	0	58	0	1018167296	44	4599
2026-01-01 00:16:49.49	226.32	31.48	-37.2	-38.8	17.0	0.00e+00	0	58	0	1021313024	44	4709
2026-01-01 00:16:50.50	226.18	31.29	-37.2	-38.7	17.1	0.00e+00	0	58	0	1024458752	44	4676
2026-01-01 00:16:51.51	226.05	31.10	-37.0	-38.5	17.3	0.00e+00	0	58	0	1027604480	44	4569
2026-01-01 00:16:52.52	225.92	30.91	-36.9	-38.3	17.4	0.00e+00	0	58	0	1030750208	44	4492
2026-01-01 00:16:53.53	225.79	30.73	-36.7	-38.2	17.6	0.00e+00	0	58	0	1033895936	44	4403
2026-01-01 00:16:54.54	225.66	30.54	-36.5	-37.9	17.8	0.00e+00	0	58	0	1037041664	44	4281
2026-01-01 00:16:55.55	225.53	30.36	-36.5	-37.9	17.8	0.00e+00	0	58	0	1040187392	44	4267
2026-01-01 00:16:56.57	225.40	30.18	-36.4	-37.8	17.9	0.00e+00	0	58	0	1043333120	44	4203
2026-01-01 00:16:57.58	225.27	30.00	-36.3	-37.7	18.0	0.00e+00	0	58	0	1046478848	44	4146
2026-01-01 00:16:58.59	225.15	29.82	-36.3	-37.7	17.9	0.00e+00	0	58	0	1049624576	44	4168
2026-01-01 00:16:59.60	225.03	29.64	-36.2	-37.5	18.0	0.00e+00	0	58	0	1052770304	44	4083
2026-01-01 00:17:00.61	224.91	29.46	-36.2	-37.6	18.1	0.00e+00	0	58	0	1055916032	44	4102
2026-01-01 00:17:01.62	224.79	29.28	-36.3	-37.7	17.9	0.00e+00	0	58	0	1059061760	44	4183
2026-01-01 00:17:02.63	224.67	29.11	-36.5	-37.9	17.8	0.00e+00	0	58	0	1062207488	44	4248
2026-01-01 00:17:03.64	224.55	28.93	-36.4	-37.8	17.8	0.00e+00	0	58	0	1065353216	44	4236
2026-01-01 00:17:04.65	224.43	28.76	-36.4	-37.8	17.9	0.00e+00	0	58	0	1068498944	44	4232
2026-01-01 00:17:05.66	224.32	28.58	-36.5	-37.9	17.8	0.00e+00	0	58	0	1071644672	44	4245
2026-01-01 00:17:06.67	224.21	28.41	-36.5	-37.9	17.8	0.00e+00	0	58	0	1074790400	44	4254
2026-01-01 00:17:07.68	224.09	28.24	-36.6	-38.0	17.6	0.00e+00	0	58	0	1077936128	44	4339
2026-01-01 00:17:08.69	223.98	28.07	-36.6	-38.0	17.7	0.00e+00	0	58	0	1081081856	44	4313
2026-01-01 00:17:09.70	223.87	27.90	-36.6	-38.0	17.7	0.00e+00	0	58	0	1084227584	44	4326
2026-01-01 00:17:10.71	223.76	27.73	-36.6	-38.0	17.7	0.00e+00	0	58	0	1087373312	44	4309
2026-01-01 00:17:11.73	223.66	27.56	-36.4	-37.8	17.9	0.00e+00	0	58	0	1090519040	44	4216
2026-01-01 00:17:12.74	223.55	27.39	-36.1	-37.5	18.2	0.00e+00	0	58	0	1093664768	44	4063
2026-01-01 00:17:13.74	223.45	27.23	-36.0	-37.4	18.3	0.00e+00	0	58	0	1096810496	44	4017
2026-01-01 00:17:14.76	223.34	27.06	-35.9	-37.2	18.3	0.00e+00	0	58	0	1099956224	43	4170
2026-01-01 00:17:15.76	223.24	26.90	-35.9	-37.2	18.3	0.00e+00	0	58	0	1103101952	43	4183
2026-01-01 00:17:16.78	223.14	26.73	-35.8	-37.1	18.4	0.00e+00	0	58	0	1106247680	43	4125
2026-01-01 00:17:17.79	223.03	26.57	-35.8	-37.2	18.3	0.00e+00	0	58	0	1109393408	43	4149
2026-01-01 00:17:18.80	222.94	26.41	-35.9	-37.3	18.2	0.00e+00	0	58	0	1112539136	43	4211
2026-01-01 00:17:19.81	222.84	26.25	-36.0	-37.4	18.1	0.00e+00	0	58	0	1115684864	43	4263
2026-01-01 00:17:20.82	222.74	26.09	-36.0	-37.4	18.1	0.00e+00	0	58	0	1118830592	43	4273
2026-01-01 00:17:21.83	222.64	25.93	-36.1	-37.4	18.1	0.00e+00	0	58	0	1121976320	43	4283
2026-01-01 00:17:22.84	222.55	25.77	-36.1	-37.5	18.1	0.00e+00	0	58	0	1125122048	43	4302
2026-01-01 00:17:23.85	222.45	25.62	-36.1	-37.5	18.0	0.00e+00	0	58	0	1128267776	43	4316
2026-01-01 00:17:24.86	222.36	25.46	-36.0	-37.3	18.2	0.00e+00	0	58	0	1131413504	43	4240
2026-01-01 00:17:25.87	222.26	25.30	-35.9	-37.3	18.2	0.00e+00	0	58	0	1134559232	43	4218
2026-01-01 00:17:26.88	222.17	25.15	-35.9	-37.3	18.2	0.00e+00	0	58	0	1137704960	43	4207
2026-01-01 00:17:27.89	222.08	24.99	-36.0	-37.3	18.1	0.00e+00	0	58	0	1140850688	43	4241
2026-01-01 00:17:28.90	221.99	24.84	-35.8	-37.1	18.4	0.00e+00	0	58	0	1143996416	43	4106
2026-01-01 00:17:29.91	221.90	24.69	-35.6	-36.9	18.6	0.00e+00	0	58	0	1147142144	43	4022
2026-01-01 00:17:30.93	221.81	24.54	-35.6	-36.9	18.6	0.00e+00	0	58	0	1150287872	43	4021
2026-01-01 00:17:31.94	221.73	24.38	-35.5	-36.7	18.7	0.00e+00	0	58	0	1153433600	42	4182
2026-01-01 00:17:32.95	221.64	24.23	-35.4	-36.6	18.8	0.00e+00	0	58	0	1156579328	42	4141
2026-01-01 00:17:33.96	221.55	24.09	-35.4	-36.6	18.8	0.00e+00	0	58	0	1159725056	42	4126
2026-01-01 00:17:34.97	221.47	23.94	-35.4	-36.6	18.8	0.00e+00	0	58	0	1162870784	42	4136
2026-01-01 00:17:35.98	221.38	23.79	-35.3	-36.6	18.9	0.00e+00	0	58	0	1166016512	42	4106
2026-01-01 00:17:36.99	221.30	23.64	-35.3	-36.6	18.9	0.00e+00	0	58	0	1169162240	42	4107
2026-01-01 00:17:38.00	221.22	23.50	-35.3	-36.6	18.9	0.00e+00	0	58	0	1172307968	42	4107
2026-01-01 00:17:39.01	221.14	23.35	-35.4	-36.7	18.8	0.00e+00	0	58	0	1175453696	42	4153
2026-01-01 00:17:40.02	221.06	23.21	-35.5	-36.7	18.7	0.00e+00	0	58	0	1178599424	42	4189
2026-01-01 00:17:41.03	220.98	23.06	-35.4	-36.7	18.7	0.00e+00	0	58	0	1181745152	42	4175
2026-01-01 00:17:42.04	220.90	22.92	-35.5	-36.8	18.6	0.00e+00	0	58	0	1184890880	42	4215
2026-01-01 00:17:43.05	220.82	22.78	-35.7	-37.0	18.5	0.00e+00	0	58	0	1188036608	42	4293
2026-01-01 00:17:44.06	220.74	22.63	-35.8	-37.1	18.4	0.00e+00	0	58	0	1191182336	42	4362
2026-01-01 00:17:45.07	220.66	22.49	-35.9	-37.2	18.2	0.00e+00	0	58	0	1194328064	42	4429
2026-01-01 00:17:46.08	220.59	22.35	-36.0	-37.4	18.1	0.00e+00	0	58	0	1197473792	42	4521
2026-01-01 00:17:47.09	220.51	22.21	-36.0	-37.3	18.1	0.00e+00	0	58	0	1200619520	42	4479
2026-01-01 00:17:48.10	220.44	22.07	-36.0	-37.4	18.1	0.00e+00	0	58	0	1203765248	42	4494
2026-01-01 00:17:49.11	220.36	21.94	-36.0	-37.4	18.1	0.00e+00	0	58	0	1206910976	42	4496
2026-01-01 00:17:50.12	220.29	21.80	-36.0	-37.3	18.1	0.00e+00	0	58	0	1210056704	42	4489
2026-01-01 00:17:51.13	220.21	21.66	-35.9	-37.3	18.2	0.00e+00	0	58	0	1213202432	42	4470
2026-01-01 00:17:52.14	220.14	21.53	-36.0	-37.3	18.1	0.00e+00	0	58	0	1217396736	42	4477
2026-01-01 00:17:53.16	220.07	21.39	-36.0	-37.3	18.1	0.00e+00	0	58	0	1220542464	42	4489
2026-01-01 00:17:54.17	220.00	21.25	-35.9	-37.3	18.1	0.00e+00	0	58	0	1223688192	42	4473
2026-01-01 00:17:55.18	219.93	21.12	-36.1	-37.5	18.0	0.00e+00	0	58	0	1226833920	42	4547
2026-01-01 00:17:56.19	219.86	20.99	-36.0	-37.4	18.1	0.00e+00	0	58	0	1228931072	42	4500
2026-01-01 00:17:57.20	219.79	20.85	-36.0	-37.3	18.1	0.00e+00	0	58	0	1233125376	42	4485
2026-01-01 00:17:58.21	219.72	20.72	-36.0	-37.4	18.0	0.00e+00	0	58	0	1236271104	42	4531
2026-01-01 00:17:59.22	219.65	20.59	-36.1	-37.4	18.0	0.00e+00	0	58	0	1239416832	42	4544
2026-01-01 00:18:00.23	219.59	20.46	-36.0	-37.3	18.1	0.00e+00	0	58	0	1242562560	42	4493
2026-01-01 00:18:01.24	219.52	20.33	-36.0	-37.3	18.1	0.00e+00	0	58	0	1245708288	42	4478
2026-01-01 00:18:02.25	219.45	20.20	-36.0	-37.3	18.1	0.00e+00	0	58	0	1248854016	42	4485
2026-01-01 00:18:03.26	219.39	20.07	-35.9	-37.2	18.2	0.00e+00	0	58	0	1251999744	42	4420
2026-01-01 00:18:04.27	219.32	19.94	-35.9	-37.2	18.2	0.00e+00	0	58	0	1255145472	42	4431
2026-01-01 00:18:05.28	219.26	19.82	-35.9	-37.2	18.2	0.00e+00	0	58	0	1258291200	42	4421
2026-01-01 00:18:06.29	219.19	19.69	-35.9	-37.3	18.1	0.00e+00	0	58	0	1261436928	42	4442
2026-01-01 00:18:07.30	219.13	19.56	-36.0	-37.3	18.0	0.00e+00	0	58	0	1264582656	42	4487
2026-01-01 00:18:08.31	219.07	19.44	-36.0	-37.4	17.9	0.00e+00	0	58	0	1267728384	42	4506
2026-01-01 00:18:09.32	219.00	19.31	-36.1	-37.4	17.9	0.00e+00	0	58	0	1270874112	42	4542
2026-01-01 00:18:10.33	218.94	19.19	-36.0	-37.4	17.9	0.00e+00	0	58	0	1274019840	42	4524
2026-01-01 00:18:11.35	218.88	19.06	-35.9	-37.3	18.0	0.00e+00	0	58	0	1277165568	42	4464
2026-01-01 00:18:12.36	218.82	18.94	-35.9	-37.3	18.0	0.00e+00	0	58	0	1280311296	42	4453
2026-01-01 00:18:13.37	218.76	18.81	-35.9	-37.3	18.0	0.00e+00	0	58	0	1283457024	42	4457
2026-01-01 00:18:14.38	218.70	18.69	-35.9	-37.3	18.0	0.00e+00	0	58	0	1286602752	42	4459
2026-01-01 00:18:15.39	218.64	18.57	-36.0	-37.3	18.0	0.00e+00	0	58	0	1289748480	42	4483
2026-01-01 00:18:16.40	218.58	18.45	-36.1	-37.5	17.8	0.00e+00	0	58	0	1292894208	42	4563
2026-01-01 00:18:17.41	218.52	18.33	-36.0	-37.4	17.9	0.00e+00	0	58	0	1296039936	42	4527
2026-01-01 00:18:18.42	218.47	18.21	-35.9	-37.3	18.0	0.00e+00	0	58	0	1299185664	42	4460
2026-01-01 00:18:19.43	218.41	18.09	-35.9	-37.2	18.1	0.00e+00	0	58	0	1302331392	42	4428
2026-01-01 00:18:20.44	218.35	17.97	-35.9	-37.3	18.0	0.00e+00	0	58	0	1305477120	42	4449
2026-01-01 00:18:21.45	218.30	17.85	-36.0	-37.3	18.0	0.00e+00	0	58	0	1308622848	42	4493
2026-01-01 00:18:22.46	218.24	17.73	-36.0	-37.4	17.9	0.00e+00	0	58	0	1311768576	42	4521
2026-01-01 00:18:23.47	218.18	17.62	-36.1	-37.4	17.9	0.00e+00	0	58	0	1314914304	42	4543
2026-01-01 00:18:24.48	218.13	17.50	-36.0	-37.4	17.9	0.00e+00	0	58	0	1318060032	42	4521
2026-01-01 00:18:25.49	218.07	17.38	-36.1	-37.5	17.9	0.00e+00	0	58	0	1321205760	42	4564
2026-01-01 00:18:26.50	218.02	17.27	-36.2	-37.6	17.7	0.00e+00	0	58	0	1324351488	42	4632
2026-01-01 00:18:27.51	217.97	17.15	-36.2	-37.6	17.7	0.00e+00	0	58	0	1327497216	42	4622
2026-01-01 00:18:28.51	217.91	17.04	-36.2	-37.6	17.7	0.00e+00	0	58	0	1330642944	43	4347
2026-01-01 00:18:29.52	217.86	16.92	-36.1	-37.5	17.8	0.00e+00	0	58	0	1333788672	43	4320
2026-01-01 00:18:30.54	217.81	16.81	-36.2	-37.6	17.7	0.00e+00	0	58	0	1336934400	43	4361
2026-01-01 00:18:31.55	217.76	16.70	-36.3	-37.7	17.7	0.00e+00	0	58	0	1340080128	43	4395
2026-01-01 00:18:32.56	217.70	16.58	-36.3	-37.8	17.6	0.00e+00	0	58	0	1343225856	43	4451
2026-01-01 00:18:33.57	217.65	16.47	-36.2	-37.7	17.7	0.00e+00	0	58	0	1346371584	43	4404
2026-01-01 00:18:34.58	217.60	16.36	-36.4	-37.8	17.5	0.00e+00	0	58	0	1349517312	43	4467
2026-01-01 00:18:35.59	217.55	16.25	-36.4	-37.9	17.4	0.00e+00	0	58	0	1352663040	43	4518
2026-01-01 00:18:36.60	217.50	16.14	-36.4	-37.9	17.5	0.00e+00	0	58	0	1355808768	43	4503
2026-01-01 00:18:37.61	217.45	16.03	-36.4	-37.9	17.4	0.00e+00	0	58	0	1358954496	43	4506
2026-01-01 00:18:38.62	217.40	15.92	-36.5	-37.9	17.4	0.00e+00	0	58	0	1362100224	43	4534
2026-01-01 00:18:39.63	217.35	15.81	-36.5	-38.0	17.3	0.00e+00	0	58	0	1365245952	43	4563
2026-01-01 00:18:40.64	217.31	15.70	-36.6	-38.0	17.3	0.00e+00	0	58	0	1368391680	43	4591
2026-01-01 00:18:41.65	217.26	15.59	-36.5	-38.0	17.3	0.00e+00	0	58	0	1371537408	43	4584
2026-01-01 00:18:42.66	217.21	15.48	-36.5	-38.0	17.3	0.00e+00	0	58	0	1374683136	43	4563
2026-01-01 00:18:43.67	217.16	15.37	-36.6	-38.1	17.2	0.00e+00	0	58	0	1377828864	43	4630
2026-01-01 00:18:44.68	217.12	15.27	-36.6	-38.1	17.1	0.00e+00	0	58	0	1380974592	43	4645
2026-01-01 00:18:45.69	217.07	15.16	-36.7	-38.2	17.1	0.00e+00	0	58	0	1384120320	43	4672
2026-01-01 00:18:46.70	217.02	15.05	-36.9	-38.4	17.1	0.00e+00	0	58	0	1387266048	44	4532
2026-01-01 00:18:47.71	216.98	14.95	-36.9	-38.4	17.1	0.00e+00	0	58	0	1390411776	44	4512
2026-01-01 00:18:48.73	216.93	14.84	-36.8	-38.2	17.2	0.00e+00	0	58	0	1393557504	44	4436
2026-01-01 00:18:49.73	216.89	14.74	-36.8	-38.3	17.2	0.00e+00	0	58	0	1396703232	44	4453
2026-01-01 00:18:50.74	216.84	14.63	-36.8	-38.3	17.1	0.00e+00	0	58	0	1399848960	44	4472
2026-01-01 00:18:51.75	216.80	14.53	-36.8	-38.2	17.2	0.00e+00	0	58	0	1402994688	44	4440
2026-01-01 00:18:52.76	216.75	14.43	-36.8	-38.3	17.2	0.00e+00	0	58	0	1406140416	44	4444
2026-01-01 00:18:53.77	216.71	14.32	-36.8	-38.2	17.2	0.00e+00	0	58	0	1409286144	44	4435
2026-01-01 00:18:54.78	216.66	14.22	-36.7	-38.1	17.3	0.00e+00	0	58	0	1412431872	44	4383
2026-01-01 00:18:55.79	216.62	14.12	-36.8	-38.3	17.2	0.00e+00	0	58	0	1415577600	44	4451
2026-01-01 00:18:56.80	216.58	14.02	-36.6	-38.1	17.3	0.00e+00	0	58	0	1418723328	44	4361
2026-01-01 00:18:57.81	216.53	13.91	-36.7	-38.2	17.2	0.00e+00	0	58	0	1421869056	44	4428
2026-01-01 00:18:58.82	216.49	13.81	-36.7	-38.2	17.2	0.00e+00	0	58	0	1425014784	44	4413
2026-01-01 00:18:59.83	216.45	13.71	-36.6	-38.1	17.3	0.00e+00	0	58	0	1428160512	44	4371
2026-01-01 00:19:00.85	216.41	13.61	-36.7	-38.2	17.1	0.00e+00	0	58	0	1431306240	44	4439
2026-01-01 00:19:01.86	216.37	13.51	-36.7	-38.1	17.2	0.00e+00	0	58	0	1434451968	44	4389
2026-01-01 00:19:02.87	216.32	13.41	-36.6	-38.1	17.3	0.00e+00	0	58	0	1437597696	44	4353
2026-01-01 00:19:03.88	216.28	13.31	-36.6	-38.1	17.3	0.00e+00	0	58	0	1440743424	44	4342
2026-01-01 00:19:04.89	216.24	13.21	-36.6	-38.1	17.3	0.00e+00	0	58	0	1443889152	44	4361
2026-01-01 00:19:05.90	216.20	13.12	-36.7	-38.2	17.2	0.00e+00	0	58	0	1447034880	44	4418
2026-01-01 00:19:06.91	216.16	13.02	-36.8	-38.3	17.0	0.00e+00	0	58	0	1450180608	44	4493
2026-01-01 00:19:07.92	216.12	12.92	-36.7	-38.1	17.2	0.00e+00	0	58	0	1453326336	44	4380
2026-01-01 00:19:08.93	216.08	12.82	-36.6	-38.1	17.3	0.00e+00	0	58	0	1456472064	44	4348
2026-01-01 00:19:09.94	216.04	12.73	-36.7	-38.1	17.2	0.00e+00	0	58	0	1459617792	44	4390
2026-01-01 00:19:10.95	216.01	12.63	-36.6	-38.1	17.2	0.00e+00	0	58	0	1462763520	44	4369
2026-01-01 00:19:11.96	215.97	12.53	-36.7	-38.2	17.1	0.00e+00	0	58	0	1465909248	44	4401
2026-01-01 00:19:12.97	215.93	12.44	-36.7	-38.2	17.2	0.00e+00	0	58	0	1469054976	44	4394
2026-01-01 00:19:13.98	215.89	12.34	-36.7	-38.2	17.1	0.00e+00	0	58	0	1472200704	44	4433
2026-01-01 00:19:14.99	215.85	12.25	-36.7	-38.1	17.2	0.00e+00	0	58	0	1475346432	44	4388
2026-01-01 00:19:16.00	215.81	12.15	-36.6	-38.1	17.2	0.00e+00	0	58	0	1478492160	44	4378
2026-01-01 00:19:17.01	215.78	12.06	-36.7	-38.2	17.1	0.00e+00	0	58	0	1481637888	44	4439
2026-01-01 00:19:18.02	215.74	11.96	-36.7	-38.2	17.1	0.00e+00	0	58	0	1484783616	44	4426
2026-01-01 00:19:19.03	215.70	11.87	-36.8	-38.3	17.0	0.00e+00	0	58	0	1487929344	44	4455
2026-01-01 00:19:20.04	215.67	11.78	-36.8	-38.3	17.0	0.00e+00	0	58	0	1492123648	44	4465
2026-01-01 00:19:21.06	215.63	11.68	-36.8	-38.3	17.0	0.00e+00	0	58	0	1495269376	44	4444
2026-01-01 00:19:22.07	215.59	11.59	-36.8	-38.3	17.0	0.00e+00	0	58	0	1497366528	44	4468
2026-01-01 00:19:23.07	215.56	11.50	-36.9	-38.5	16.8	0.00e+00	0	58	0	1500512256	44	4554
2026-01-01 00:19:24.08	215.52	11.41	-37.0	-38.6	16.7	0.00e+00	0	58	0	1503657984	44	4611
2026-01-01 00:19:25.09	215.49	11.32	-37.1	-38.7	16.6	0.00e+00	0	58	0	1506803712	44	4652
2026-01-01 00:19:26.10	215.45	11.22	-36.9	-38.5	16.8	0.00e+00	0	58	0	1510998016	44	4569
2026-01-01 00:19:27.11	215.42	11.13	-36.9	-38.5	16.8	0.00e+00	0	58	0	1514143744	44	4553
2026-01-01 00:19:28.12	215.38	11.04	-37.0	-38.6	16.7	0.00e+00	0	58	0	1517289472	44	4609
2026-01-01 00:19:29.13	215.35	10.95	-36.9	-38.5	16.7	0.00e+00	0	58	0	1519386624	44	4568
2026-01-01 00:19:30.14	215.31	10.86	-37.0	-38.6	16.7	0.00e+00	0	58	0	1522532352	44	4608
2026-01-01 00:19:31.15	215.28	10.77	-37.0	-38.6	16.7	0.00e+00	0	58	0	1526726656	44	4601
2026-01-01 00:19:32.16	215.25	10.68	-37.0	-38.6	16.6	0.00e+00	0	58	0	1529872384	44	4605
2026-01-01 00:19:33.17	215.21	10.59	-37.1	-38.7	16.5	0.00e+00	0	58	0	1533018112	44	4683
2026-01-01 00:19:34.19	215.18	10.51	-37.1	-38.8	16.5	0.00e+00	0	58	0	1536163840	44	4707
2026-01-01 00:19:35.20	215.14	10.42	-37.2	-38.8	16.4	0.00e+00	0	58	0	1539309568	45	4489
2026-01-01 00:19:36.20	215.11	10.33	-37.2	-38.9	16.3	0.00e+00	0	58	0	1542455296	45	4513
2026-01-01 00:19:37.22	215.08	10.24	-37.3	-39.0	16.2	0.00e+00	0	58	0	1545601024	45	4571
2026-01-01 00:19:38.22	215.05	10.15	-37.2	-38.9	16.3	0.00e+00	0	58	0	1548746752	45	4512
2026-01-01 00:19:39.23	215.01	10.07	-37.2	-38.8	16.4	0.00e+00	0	58	0	1551892480	45	4465
2026-01-01 00:19:40.24	214.98	9.98	-37.2	-38.8	16.3	0.00e+00	0	58	0	1555038208	45	4475
2026-01-01 00:19:41.25	214.95	9.89	-37.2	-38.8	16.3	0.00e+00	0	58	0	1558183936	45	4478
2026-01-01 00:19:42.26	214.92	9.81	-37.3	-38.9	16.2	0.00e+00	0	58	0	1561329664	45	4545
2026-01-01 00:19:43.27	214.89	9.72	-37.4	-39.0	16.1	0.00e+00	0	58	0	1564475392	45	4591
2026-01-01 00:19:44.28	214.86	9.64	-37.3	-39.0	16.1	0.00e+00	0	58	0	1567621120	45	4560
2026-01-01 00:19:45.29	214.82	9.55	-37.2	-38.9	16.2	0.00e+00	0	58	0	1570766848	45	4526
2026-01-01 00:19:46.31	214.79	9.46	-37.3	-39.0	16.1	0.00e+00	0	58	0	1573912576	45	4563
2026-01-01 00:19:47.31	214.76	9.38	-37.3	-39.0	16.1	0.00e+00	0	58	0	1577058304	45	4577
2026-01-01 00:19:48.33	214.73	9.29	-37.4	-39.1	16.0	0.00e+00	0	58	0	1580204032	45	4628
2026-01-01 00:19:49.34	214.70	9.21	-37.4	-39.1	16.0	0.00e+00	0	58	0	1583349760	45	4620
2026-01-01 00:19:50.35	214.67	9.13	-37.5	-39.2	15.9	0.00e+00	0	58	0	1586495488	45	4667
2026-01-01 00:19:51.36	214.64	9.04	-37.6	-39.3	15.7	0.00e+00	0	58	0	1589641216	45	4759
2026-01-01 00:19:52.37	214.61	8.96	-37.5	-39.3	15.7	0.00e+00	0	58	0	1592786944	45	4740
2026-01-01 00:19:53.38	214.58	8.88	-37.5	-39.2	15.8	0.00e+00	0	58	0	1595932672	45	4702
2026-01-01 00:19:54.39	214.55	8.79	-37.6	-39.4	15.7	0.00e+00	0	58	0	1599078400	45	4764
2026-01-01 00:19:55.40	214.52	8.71	-37.7	-39.4	15.6	0.00e+00	0	58	0	1602224128	45	4813
2026-01-01 00:19:56.41	214.49	8.63	-37.7	-39.5	15.6	0.00e+00	0	58	0	1605369856	45	4820
2026-01-01 00:19:57.42	214.47	8.55	-37.7	-39.5	15.6	0.00e+00	0	58	0	1608515584	45	4819
2026-01-01 00:19:58.43	214.44	8.46	-37.6	-39.4	15.6	0.00e+00	0	58	0	1611661312	45	4794
2026-01-01 00:19:59.45	214.41	8.38	-37.7	-39.5	15.5	0.00e+00	0	58	0	1614807040	45	4821
2026-01-01 00:20:00.46	214.38	8.30	-37.7	-39.6	15.5	0.00e+00	0	58	0	1617952768	46	4600
2026-01-01 00:20:01.47	214.35	8.22	-37.7	-39.5	15.5	0.00e+00	0	58	0	1621098496	46	4562
2026-01-01 00:20:02.48	214.32	8.14	-37.8	-39.6	15.4	0.00e+00	0	58	0	1624244224	46	4628
2026-01-01 00:20:03.49	214.30	8.06	-37.9	-39.8	15.2	0.00e+00	0	58	0	1627389952	46	4737
2026-01-01 00:20:04.50	214.27	7.98	-40.0	-42.6	12.8	0.00e+00	0	58	0	1630535680	50	5161
2026-01-01 00:20:05.51	214.24	7.90	-44.5	-56.7	3.8	1.49e+00	0	58	104	1630535680	59	15703
2026-01-01 00:20:06.52	214.21	7.82	-44.8	-57.1	3.8	1.49e+00	0	58	104	1630535680	60	15443
2026-01-01 00:20:07.53	214.19	7.74	-44.8	-57.2	3.8	1.49e+00	0	58	104	1630535680	60	15681
2026-01-01 00:20:08.54	214.16	7.66	-45.0	-57.3	3.8	1.49e+00	0	58	104	1630535680	60	15890
2026-01-01 00:20:09.56	214.13	7.58	-45.0	-57.4	3.8	1.49e+00	0	58	104	1630535680	60	15987
2026-01-01 00:20:10.57	214.11	7.50	-45.1	-57.4	3.8	1.49e+00	0	58	104	1630535680	60	15994
2026-01-01 00:20:11.58	214.08	7.42	-45.1	-57.4	3.8	1.49e+00	0	58	104	1630535680	60	16095
2026-01-01 00:20:12.59	214.05	7.34	-45.1	-57.4	3.8	1.49e+00	0	58	104	1630535680	60	16127
2026-01-01 00:20:13.60	214.03	7.26	-45.1	-57.4	3.8	1.49e+00	0	58	104	1630535680	60	16053
2026-01-01 00:20:14.61	214.00	7.19	-45.1	-57.4	3.8	1.49e+00	0	58	104	1630535680	60	16036
2026-01-01 00:20:15.62	213.97	7.11	-45.0	-57.4	3.8	1.49e+00	0	58	104	1630535680	60	15967
2026-01-01 00:20:16.63	213.95	7.03	-45.0	-57.4	3.8	1.49e+00	0	58	104	1630535680	60	15956
2026-01-01 00:20:17.64	213.92	6.95	-45.0	-57.4	3.8	1.49e+00	0	58	104	1630535680	60	15983
2026-01-01 00:20:18.65	213.90	6.88	-45.0	-57.3	3.8	1.49e+00	0	58	104	1630535680	60	15928
2026-01-01 00:20:19.66	213.87	6.80	-45.0	-57.3	3.8	1.49e+00	0	58	104	1630535680	60	15928
2026-01-01 00:20:20.67	213.85	6.72	-45.0	-57.3	3.8	1.49e+00	0	58	104	1630535680	60	15887
2026-01-01 00:20:21.68	213.82	6.65	-45.0	-57.3	3.8	1.49e+00	0	59	104	1630535680	60	15863
2026-01-01 00:20:22.69	213.80	6.57	-45.0	-57.3	3.8	1.49e+00	0	58	104	1630535680	60	15902
2026-01-01 00:20:23.71	213.77	6.49	-45.0	-57.3	3.8	1.49e+00	0	58	104	1630535680	60	15899
2026-01-01 00:20:24.72	213.75	6.42	-45.0	-57.3	3.8	1.49e+00	0	58	104	1630535680	60	15938
2026-01-01 00:20:25.72	213.72	6.34	-45.0	-57.3	3.8	1.49e+00	0	58	104	1630535680	60	15869
2026-01-01 00:20:26.74	213.70	6.27	-45.0	-57.3	3.8	1.49e+00	0	58	104	1630535680	60	15891
2026-01-01 00:20:27.75	213.67	6.19	-45.0	-57.3	3.8	1.49e+00	0	58	104	1630535680	60	15881
2026-01-01 00:20:28.76	213.65	6.12	-45.0	-57.3	3.8	1.49e+00	0	58	104	1630535680	60	15880
2026-01-01 00:20:29.77	213.63	6.04	-45.0	-57.3	3.8	1.49e+00	0	58	104	1630535680	60	15869
2026-01-01 00:20:30.78	213.60	5.97	-45.0	-57.3	3.8	1.49e+00	0	58	104	1630535680	60	15851
2026-01-01 00:20:31.79	213.58	5.89	-44.9	-57.2	3.8	1.49e+00	0	59	104	1630535680	60	15741
2026-01-01 00:20:32.80	213.56	5.82	-44.9	-57.3	3.8	1.49e+00	0	59	104	1630535680	60	15795
2026-01-01 00:20:33.81	213.53	5.75	-44.9	-57.3	3.8	1.49e+00	0	59	104	1630535680	60	15829
2026-01-01 00:20:34.82	213.51	5.67	-44.9	-57.3	3.8	1.49e+00	0	58	104	1630535680	60	15836
2026-01-01 00:20:35.84	213.49	5.60	-44.9	-57.3	3.8	1.49e+00	0	59	104	1630535680	60	15851
2026-01-01 00:20:36.85	213.46	5.52	-44.9	-57.3	3.8	1.49e+00	0	58	104	1630535680	60	15823
2026-01-01 00:20:37.86	213.44	5.45	-44.9	-57.3	3.8	1.49e+00	0	58	104	1630535680	60	15783
2026-01-01 00:20:38.87	213.42	5.38	-44.9	-57.3	3.8	1.49e+00	0	59	104	1630535680	60	15770
2026-01-01 00:20:39.88	213.39	5.31	-44.9	-57.3	3.8	1.49e+00	0	58	104	1630535680	60	15809
2026-01-01 00:20:40.89	213.37	5.23	-44.9	-57.3	3.8	1.49e+00	0	58	104	1630535680	60	15814
2026-01-01 00:20:41.90	213.35	5.16	-44.9	-57.3	3.8	1.49e+00	0	58	104	1630535680	60	15842
2026-01-01 00:20:42.91	213.33	5.09	-44.9	-57.3	3.8	1.49e+00	0	58	104	1630535680	60	15771
2026-01-01 00:20:43.92	213.30	5.02	-44.9	-57.3	3.8	1.49e+00	0	58	104	1630535680	60	15815
2026-01-01 00:20:44.93	213.28	4.95	-44.9	-57.3	3.8	1.49e+00	0	58	104	1630535680	60	15811
2026-01-01 00:20:45.94	213.26	4.87	-44.9	-57.3	3.8	1.49e+00	0	58	104	1630535680	60	15778
2026-01-01 00:20:46.96	213.24	4.80	-44.9	-57.3	3.8	1.49e+00	0	58	104	1630535680	60	15787
2026-01-01 00:20:47.97	213.22	4.73	-44.9	-57.3	3.8	1.49e+00	0	59	104	1630535680	60	15815
2026-01-01 00:20:48.98	213.20	4.66	-44.9	-57.3	3.8	1.49e+00	0	59	104	1630535680	60	15823
2026-01-01 00:20:49.99	213.17	4.59	-44.9	-57.3	3.8	1.49e+00	0	58	104	1630535680	60	15827
2026-01-01 00:20:51.00	213.15	4.52	-44.9	-57.3	3.8	1.49e+00	0	59	104	1630535680	60	15779
2026-01-01 00:20:52.01	213.13	4.45	-44.9	-57.3	3.8	1.49e+00	0	58	104	1630535680	60	15783
2026-01-01 00:20:53.02	213.11	4.38	-44.9	-57.3	3.8	1.49e+00	0	59	104	1630535680	60	15809
2026-01-01 00:20:54.03	213.09	4.31	-44.9	-57.3	3.8	1.49e+00	0	58	104	1630535680	60	15797
2026-01-01 00:20:55.04	213.07	4.24	-44.9	-57.2	3.8	1.49e+00	0	58	104	1630535680	60	15759
2026-01-01 00:20:56.06	213.05	4.17	-44.9	-57.3	3.8	1.49e+00	0	58	104	1630535680	60	15788
2026-01-01 00:20:57.07	213.03	4.10	-44.9	-57.3	3.8	1.49e+00	0	59	104	1630535680	60	15783
2026-01-01 00:20:58.08	213.01	4.03	-44.9	-57.3	3.8	1.49e+00	0	58	104	1630535680	60	15807
2026-01-01 00:20:59.09	212.99	3.96	-44.9	-57.3	3.8	1.49e+00	0	58	104	1630535680	60	15787
2026-01-01 00:21:00.10	212.97	3.89	-44.9	-57.3	3.8	1.49e+00	0	59	104	1630535680	60	15776
2026-01-01 00:21:01.11	212.95	3.82	-44.9	-57.2	3.8	1.49e+00	0	59	104	1630535680	60	15745
2026-01-01 00:21:02.12	212.93	3.75	-44.9	-57.3	3.8	1.49e+00	0	59	104	1630535680	60	15818
2026-01-01 00:21:03.13	212.91	3.69	-44.9	-57.3	3.8	1.49e+00	0	59	104	1630535680	60	15775
2026-01-01 00:21:04.14	212.89	3.62	-44.9	-57.3	3.8	1.49e+00	0	59	104	1630535680	60	15811
2026-01-01 00:21:05.15	212.87	3.55	-44.9	-57.3	3.8	1.49e+00	0	59	104	1630535680	60	15799
2026-01-01 00:21:06.16	212.85	3.48	-44.9	-57.2	3.8	1.49e+00	0	58	104	1630535680	60	15758
2026-01-01 00:21:07.18	212.83	3.41	-44.9	-57.3	3.8	1.49e+00	0	58	104	1630535680	60	15819
2026-01-01 00:21:08.19	212.81	3.35	-44.9	-57.2	3.8	1.49e+00	0	59	104	1630535680	60	15738
2026-01-01 00:21:09.20	212.79	3.28	-44.9	-57.3	3.8	1.49e+00	0	59	104	1630535680	60	15789
2026-01-01 00:21:10.21	212.77	3.21	-44.9	-57.2	3.8	1.49e+00	0	58	104	1630535680	60	15747
2026-01-01 00:21:11.22	212.75	3.14	-44.9	-57.3	3.8	1.49e+00	0	58	104	1630535680	60	15799
2026-01-01 00:21:12.23	212.73	3.08	-44.9	-57.3	3.8	1.49e+00	0	58	104	1630535680	60	15790
2026-01-01 00:21:13.24	212.71	3.01	-44.9	-57.3	3.8	1.49e+00	0	59	104	1630535680	60	15777
2026-01-01 00:21:14.25	212.69	2.94	-44.9	-57.3	3.8	1.49e+00	0	59	104	1630535680	60	15775
2026-01-01 00:21:15.26	212.67	2.88	-44.9	-57.3	3.8	1.49e+00	0	59	104	1630535680	60	15783
2026-01-01 00:21:16.27	212.65	2.81	-44.9	-57.3	3.8	1.49e+00	0	58	104	1630535680	60	15769
2026-01-01 00:21:17.29	212.64	2.74	-44.9	-57.3	3.8	1.49e+00	0	58	104	1630535680	60	15784
2026-01-01 00:21:18.30	212.62	2.68	-44.9	-57.2	3.8	1.49e+00	0	58	104	1630535680	60	15757
2026-01-01 00:21:19.31	212.60	2.61	-44.9	-57.2	3.8	1.49e+00	0	58	104	1630535680	60	15759
2026-01-01 00:21:20.32	212.58	2.55	-44.9	-57.3	3.8	1.49e+00	0	58	104	1630535680	60	15770
2026-01-01 00:21:21.33	212.56	2.48	-44.9	-57.3	3.8	1.49e+00	0	58	104	1630535680	60	15761
2026-01-01 00:21:22.34	212.54	2.41	-44.9	-57.3	3.8	1.49e+00	0	59	104	1630535680	60	15792
2026-01-01 00:21:23.35	212.53	2.35	-44.9	-57.3	3.8	1.49e+00	0	59	104	1630535680	60	15809
2026-01-01 00:21:24.36	212.51	2.28	-44.9	-57.3	3.8	1.49e+00	0	58	104	1630535680	60	15771
2026-01-01 00:21:25.37	212.49	2.22	-44.9	-57.3	3.8	1.49e+00	0	59	104	1630535680	60	15771
2026-01-01 00:21:26.39	212.47	2.15	-44.9	-57.3	3.8	1.49e+00	0	58	104	1630535680	60	15772
2026-01-01 00:21:27.40	212.45	2.09	-44.9	-57.3	3.8	1.49e+00	0	58	104	1630535680	60	15820
2026-01-01 00:21:28.41	212.44	2.02	-44.9	-57.2	3.8	1.49e+00	0	59	104	1630535680	60	15732
2026-01-01 00:21:29.42	212.42	1.96	-44.9	-57.3	3.8	1.49e+00	0	58	104	1630535680	60	15785

#Closed at: 2026-01-01 00:21:30
#Recorded file [1630 MB]: D:/lorett/data/31039_260101_031037.dat