passes_logs/2026/01/01/R2.0S_Moscow/R2.0S_Moscow__20260101_014750_NOAA_21_JPSS-2_rec.log

#Pass ID: 20260101_014750_NOAA 21 (JPSS-2)
#Satellite: NOAA 21 (JPSS-2)
#Configuration: NOAA-21
#almurnet v.1.7.20251203
#Start time: 2026-01-01 01:50:32

#Version: 2.2.20231116
#Station: R2.0S_Moscow
#Location: 37.707566 lon 55.798166 lat
#TLE: 1 54234U 22150A   25365.42224288  .00000199  00000+0  11529-3 0  9990
#TLE: 2 54234  98.7483 301.4995 0001320 356.2106   3.9060 14.19530300162743

#Time	Az	El	Level	Level2	SNR	BER	BlckErr	Temp	State	Recorded	gain1	gain2
2026-01-01 01:50:32.12	351.23	10.62	-45.8	-64.6	3.8	7.47e-01	0	57	0	0	62	32707
2026-01-01 01:50:33.12	351.08	10.68	-45.1	-57.4	3.8	1.49e+00	0	57	104	0	62	14320
2026-01-01 01:50:34.13	350.93	10.73	-45.1	-57.4	3.8	1.49e+00	0	57	104	0	62	14346
2026-01-01 01:50:35.14	350.78	10.78	-45.1	-57.4	3.8	1.49e+00	0	57	104	0	62	14315
2026-01-01 01:50:36.15	350.63	10.84	-45.0	-57.4	3.8	1.49e+00	0	58	104	0	62	14256
2026-01-01 01:50:37.16	350.48	10.89	-45.0	-57.3	3.8	1.49e+00	0	58	104	0	62	14202
2026-01-01 01:50:38.17	350.33	10.94	-45.0	-57.3	3.8	1.49e+00	0	57	104	0	62	14147
2026-01-01 01:50:39.18	350.18	10.99	-44.9	-57.2	3.8	1.49e+00	0	58	104	0	61	14818
2026-01-01 01:50:40.20	350.02	11.05	-44.8	-57.1	3.8	1.49e+00	0	58	104	0	61	14636
2026-01-01 01:50:41.21	349.87	11.10	-40.5	-53.1	3.8	1.49e+00	0	58	104	0	53	14541
2026-01-01 01:50:42.22	349.72	11.15	-40.6	-53.0	3.8	1.49e+00	0	58	104	0	52	15316
2026-01-01 01:50:43.23	349.56	11.20	-40.6	-53.0	3.8	1.49e+00	0	58	104	0	52	15329
2026-01-01 01:50:44.24	349.41	11.25	-40.6	-53.0	3.8	1.49e+00	0	58	104	0	52	15324
2026-01-01 01:50:45.25	349.25	11.31	-40.6	-53.0	3.8	1.49e+00	0	58	104	0	52	15303
2026-01-01 01:50:46.26	349.09	11.36	-40.6	-53.0	3.8	1.49e+00	0	57	104	0	52	15329
2026-01-01 01:50:47.27	348.94	11.41	-40.6	-53.0	3.8	1.49e+00	0	58	104	0	52	15326
2026-01-01 01:50:48.28	348.78	11.46	-40.6	-53.0	3.8	1.49e+00	0	58	104	0	52	15288
2026-01-01 01:50:49.30	348.62	11.51	-40.6	-53.0	3.8	1.49e+00	0	58	104	0	52	15329
2026-01-01 01:50:50.31	348.46	11.56	-40.6	-53.0	3.8	1.49e+00	0	58	104	0	52	15322
2026-01-01 01:50:51.32	348.30	11.62	-40.6	-53.0	3.8	1.49e+00	0	58	104	0	52	15263
2026-01-01 01:50:52.33	348.14	11.67	-40.6	-53.0	3.8	1.49e+00	0	58	104	0	52	15314
2026-01-01 01:50:53.34	347.98	11.72	-40.6	-53.0	3.8	1.49e+00	0	58	104	0	52	15330
2026-01-01 01:50:54.35	347.82	11.77	-40.6	-53.0	3.8	1.49e+00	0	58	104	0	52	15265
2026-01-01 01:50:55.36	347.66	11.82	-40.6	-53.0	3.8	1.49e+00	0	58	104	0	52	15285
2026-01-01 01:50:56.37	347.50	11.87	-40.6	-53.0	3.8	1.49e+00	0	58	104	0	52	15303
2026-01-01 01:50:57.38	347.34	11.92	-40.6	-53.0	3.8	1.49e+00	0	58	104	0	52	15281
2026-01-01 01:50:58.39	347.18	11.97	-40.6	-53.0	3.8	1.49e+00	0	58	104	0	52	15267
2026-01-01 01:50:59.41	347.01	12.02	-40.6	-53.0	3.8	1.49e+00	0	58	104	0	52	15284
2026-01-01 01:51:00.42	346.85	12.07	-40.6	-53.0	3.8	1.49e+00	0	58	104	0	52	15297
2026-01-01 01:51:01.43	346.68	12.12	-40.6	-53.0	3.8	1.49e+00	0	58	104	0	52	15312
2026-01-01 01:51:02.44	346.52	12.17	-40.6	-53.0	3.8	1.49e+00	0	58	104	0	52	15292
2026-01-01 01:51:03.45	346.35	12.22	-40.6	-53.0	3.8	1.49e+00	0	58	104	0	52	15300
2026-01-01 01:51:04.46	346.18	12.27	-40.6	-53.0	3.8	1.49e+00	0	58	104	0	52	15241
2026-01-01 01:51:05.47	346.02	12.32	-40.6	-53.0	3.8	1.49e+00	0	58	104	0	52	15299
2026-01-01 01:51:06.48	345.85	12.37	-40.6	-53.0	3.8	1.49e+00	0	58	104	0	52	15254
2026-01-01 01:51:07.49	345.68	12.42	-40.6	-53.0	3.8	1.49e+00	0	58	104	0	52	15281
2026-01-01 01:51:08.50	345.51	12.47	-40.6	-53.0	3.8	1.49e+00	0	58	104	0	52	15306
2026-01-01 01:51:09.51	345.34	12.52	-40.6	-53.0	3.8	1.49e+00	0	58	104	0	52	15248
2026-01-01 01:51:10.52	345.17	12.57	-40.6	-53.0	3.8	1.49e+00	0	58	104	0	52	15302
2026-01-01 01:51:11.54	345.00	12.62	-40.6	-53.0	3.8	1.49e+00	0	58	104	0	52	15299
2026-01-01 01:51:12.55	344.83	12.67	-40.6	-53.0	3.8	1.49e+00	0	58	104	0	52	15287
2026-01-01 01:51:13.56	344.66	12.71	-40.6	-53.0	3.8	1.49e+00	0	58	104	0	52	15304
2026-01-01 01:51:14.57	344.49	12.76	-40.6	-53.0	3.8	1.49e+00	0	58	104	0	52	15253
2026-01-01 01:51:15.58	344.32	12.81	-40.6	-53.0	3.8	1.49e+00	0	58	104	0	52	15253
2026-01-01 01:51:16.59	344.14	12.86	-40.6	-53.0	3.8	1.49e+00	0	58	104	0	52	15285
2026-01-01 01:51:17.60	343.97	12.91	-40.6	-53.0	3.8	1.49e+00	0	58	104	0	52	15259
2026-01-01 01:51:18.61	343.79	12.95	-40.6	-53.0	3.8	1.49e+00	0	58	104	0	52	15267
2026-01-01 01:51:19.62	343.62	13.00	-40.6	-53.0	3.8	1.49e+00	0	58	104	0	52	15270
2026-01-01 01:51:20.63	343.44	13.05	-40.6	-53.0	3.8	1.49e+00	0	58	104	0	52	15286
2026-01-01 01:51:21.64	343.27	13.09	-40.6	-53.0	3.8	1.49e+00	0	58	104	0	52	15342
2026-01-01 01:51:22.65	343.09	13.14	-40.6	-53.0	3.8	1.49e+00	0	58	104	0	52	15350
2026-01-01 01:51:23.67	342.91	13.19	-40.6	-53.0	3.8	1.49e+00	0	58	104	0	52	15306
2026-01-01 01:51:24.68	342.73	13.23	-40.6	-53.0	3.8	1.49e+00	0	58	104	0	52	15270
2026-01-01 01:51:25.69	342.56	13.28	-40.6	-53.0	3.8	1.49e+00	0	58	104	0	52	15277
2026-01-01 01:51:26.70	342.38	13.33	-40.6	-52.9	3.8	1.49e+00	0	58	104	0	52	15213
2026-01-01 01:51:27.71	342.20	13.37	-40.0	-52.6	3.8	1.49e+00	0	58	104	0	52	14642
2026-01-01 01:51:28.72	342.02	13.42	-40.7	-53.0	3.8	1.49e+00	0	58	104	0	51	16279
2026-01-01 01:51:29.73	341.84	13.46	-40.5	-52.9	3.8	1.49e+00	0	58	104	0	52	15082
2026-01-01 01:51:30.74	341.65	13.51	-40.1	-52.6	3.8	1.49e+00	0	58	104	0	51	15462
2026-01-01 01:51:31.75	341.47	13.55	-40.2	-52.8	3.8	1.49e+00	0	58	104	0	51	15796
2026-01-01 01:51:32.76	341.29	13.60	-40.0	-52.5	3.8	1.49e+00	0	58	104	0	51	15309
2026-01-01 01:51:33.78	341.11	13.65	-40.0	-52.6	3.8	1.49e+00	0	58	104	0	51	15440
2026-01-01 01:51:34.79	340.92	13.69	-39.9	-52.6	3.8	1.49e+00	0	58	104	0	51	15512
2026-01-01 01:51:35.80	340.74	13.73	-40.3	-52.5	3.8	1.49e+00	0	58	104	0	51	15359
2026-01-01 01:51:36.81	340.55	13.78	-39.9	-52.6	3.8	1.49e+00	0	58	104	0	51	15432
2026-01-01 01:51:37.82	340.37	13.82	-40.1	-52.4	3.8	1.49e+00	0	58	104	0	51	15076
2026-01-01 01:51:38.83	340.18	13.87	-40.1	-52.5	3.8	1.49e+00	0	58	104	0	51	15363
2026-01-01 01:51:39.84	340.00	13.91	-40.2	-51.7	3.8	1.49e+00	0	58	104	0	51	13942
2026-01-01 01:51:40.85	339.81	13.95	-40.4	-52.3	3.8	1.48e+00	0	58	104	0	51	14895
2026-01-01 01:51:41.86	339.62	13.99	-41.3	-47.7	5.9	1.48e+00	0	58	104	0	53	7832
2026-01-01 01:51:42.87	339.43	14.04	-40.0	-50.7	3.8	7.39e-01	0	58	104	2097152	52	11735
2026-01-01 01:51:43.88	339.25	14.08	-39.8	-44.1	8.8	2.65e-01	0	58	0	2097152	51	5853
2026-01-01 01:51:44.89	339.06	14.12	-39.1	-42.0	11.8	1.02e-03	0	58	0	5242880	50	4870
2026-01-01 01:51:45.90	338.87	14.16	-38.2	-40.5	13.7	9.10e-06	0	58	0	8388608	48	4567
2026-01-01 01:51:46.91	338.68	14.21	-37.4	-39.4	15.0	0.00e+00	0	58	0	11534336	46	4499
2026-01-01 01:51:47.92	338.49	14.25	-36.9	-38.7	15.8	0.00e+00	0	58	0	14680064	45	4416
2026-01-01 01:51:48.93	338.30	14.29	-36.9	-38.6	16.0	0.00e+00	0	58	0	17825792	45	4388
2026-01-01 01:51:49.94	338.10	14.33	-37.2	-38.9	15.9	0.00e+00	0	58	0	20971520	45	4530
2026-01-01 01:51:50.95	337.91	14.37	-37.7	-39.6	15.3	0.00e+00	0	58	0	24117248	46	4635
2026-01-01 01:51:51.96	337.72	14.41	-37.9	-39.8	15.2	0.00e+00	0	58	0	27262976	46	4748
2026-01-01 01:51:52.97	337.53	14.45	-37.8	-39.6	15.5	0.00e+00	0	58	0	30408704	46	4638
2026-01-01 01:51:53.98	337.33	14.49	-37.5	-39.2	15.9	0.00e+00	0	58	0	33554432	46	4415
2026-01-01 01:51:54.99	337.14	14.53	-37.5	-39.2	15.9	0.00e+00	0	58	0	36700160	46	4431
2026-01-01 01:51:56.00	336.94	14.57	-37.4	-39.1	16.1	0.00e+00	0	58	0	39845888	46	4364
2026-01-01 01:51:57.01	336.75	14.61	-37.0	-38.6	16.5	0.00e+00	0	58	0	42991616	46	4136
2026-01-01 01:51:58.02	336.55	14.65	-36.8	-38.3	16.8	0.00e+00	0	58	0	46137344	45	4236
2026-01-01 01:51:59.03	336.35	14.69	-36.7	-38.2	17.0	0.00e+00	0	58	0	49283072	45	4187
2026-01-01 01:52:00.04	336.16	14.73	-36.6	-38.2	17.0	0.00e+00	0	58	0	52428800	45	4161
2026-01-01 01:52:01.05	335.96	14.76	-36.6	-38.1	17.1	0.00e+00	0	58	0	55574528	45	4119
2026-01-01 01:52:02.06	335.76	14.80	-36.6	-38.1	17.1	0.00e+00	0	58	0	58720256	45	4100
2026-01-01 01:52:03.07	335.56	14.84	-36.5	-38.0	17.2	0.00e+00	0	58	0	61865984	45	4090
2026-01-01 01:52:04.08	335.36	14.88	-36.5	-38.0	17.2	0.00e+00	0	58	0	65011712	45	4081
2026-01-01 01:52:05.09	335.16	14.91	-36.6	-38.2	17.1	0.00e+00	0	58	0	68157440	45	4152
2026-01-01 01:52:06.10	334.96	14.95	-36.8	-38.3	16.9	0.00e+00	0	58	0	71303168	45	4211
2026-01-01 01:52:07.11	334.76	14.99	-36.9	-38.4	16.8	0.00e+00	0	58	0	74448896	45	4273
2026-01-01 01:52:08.12	334.56	15.02	-37.0	-38.5	16.7	0.00e+00	0	58	0	77594624	45	4340
2026-01-01 01:52:09.13	334.36	15.06	-36.8	-38.3	16.9	0.00e+00	0	58	0	80740352	45	4214
2026-01-01 01:52:10.14	334.16	15.09	-36.7	-38.2	17.1	0.00e+00	0	58	0	83886080	45	4158
2026-01-01 01:52:11.15	333.96	15.13	-36.5	-38.0	17.2	0.00e+00	0	58	0	87031808	45	4092
2026-01-01 01:52:12.16	333.75	15.16	-36.6	-38.1	17.1	0.00e+00	0	58	0	90177536	45	4112
2026-01-01 01:52:13.18	333.55	15.20	-36.7	-38.2	17.1	0.00e+00	0	58	0	94371840	45	4162
2026-01-01 01:52:14.19	333.34	15.23	-36.8	-38.3	16.9	0.00e+00	0	58	0	97517568	45	4225
2026-01-01 01:52:15.20	333.14	15.27	-36.9	-38.4	16.8	0.00e+00	0	58	0	99614720	45	4279
2026-01-01 01:52:16.21	332.93	15.30	-37.0	-38.6	16.7	0.00e+00	0	58	0	102760448	45	4345
2026-01-01 01:52:17.22	332.73	15.33	-36.9	-38.5	16.8	0.00e+00	0	58	0	106954752	45	4314
2026-01-01 01:52:18.23	332.52	15.37	-36.9	-38.4	16.9	0.00e+00	0	58	0	110100480	45	4276
2026-01-01 01:52:19.24	332.32	15.40	-36.8	-38.3	17.0	0.00e+00	0	58	0	113246208	45	4220
2026-01-01 01:52:20.25	332.11	15.43	-36.8	-38.4	16.9	0.00e+00	0	58	0	116391936	45	4246
2026-01-01 01:52:21.26	331.90	15.46	-36.8	-38.3	16.9	0.00e+00	0	58	0	119537664	45	4237
2026-01-01 01:52:22.27	331.69	15.50	-36.9	-38.4	16.9	0.00e+00	0	58	0	122683392	45	4290
2026-01-01 01:52:23.28	331.49	15.53	-36.8	-38.4	17.0	0.00e+00	0	58	0	125829120	45	4251
2026-01-01 01:52:24.29	331.28	15.56	-36.9	-38.4	16.9	0.00e+00	0	58	0	128974848	45	4273
2026-01-01 01:52:25.30	331.07	15.59	-36.9	-38.4	16.9	0.00e+00	0	58	0	132120576	45	4259
2026-01-01 01:52:26.31	330.86	15.62	-36.8	-38.4	17.0	0.00e+00	0	58	0	135266304	45	4257
2026-01-01 01:52:27.32	330.65	15.65	-36.9	-38.4	16.9	0.00e+00	0	58	0	138412032	45	4266
2026-01-01 01:52:28.33	330.44	15.68	-36.8	-38.3	17.0	0.00e+00	0	58	0	141557760	45	4235
2026-01-01 01:52:29.34	330.23	15.71	-36.8	-38.3	17.1	0.00e+00	0	58	0	144703488	45	4217
2026-01-01 01:52:30.35	330.02	15.74	-36.6	-38.1	17.2	0.00e+00	0	58	0	147849216	45	4138
2026-01-01 01:52:31.36	329.80	15.76	-36.6	-38.1	17.3	0.00e+00	0	58	0	150994944	45	4103
2026-01-01 01:52:32.37	329.59	15.79	-36.5	-38.0	17.3	0.00e+00	0	58	0	154140672	45	4090
2026-01-01 01:52:33.38	329.38	15.82	-36.6	-38.1	17.3	0.00e+00	0	58	0	157286400	45	4101
2026-01-01 01:52:34.39	329.17	15.85	-36.6	-38.1	17.3	0.00e+00	0	58	0	160432128	45	4129
2026-01-01 01:52:35.40	328.95	15.87	-36.6	-38.1	17.2	0.00e+00	0	58	0	163577856	45	4145
2026-01-01 01:52:36.41	328.74	15.90	-36.7	-38.2	17.2	0.00e+00	0	58	0	166723584	45	4152
2026-01-01 01:52:37.42	328.53	15.93	-36.7	-38.3	17.1	0.00e+00	0	58	0	169869312	45	4200
2026-01-01 01:52:38.43	328.31	15.95	-36.8	-38.3	17.0	0.00e+00	0	58	0	173015040	45	4231
2026-01-01 01:52:39.44	328.10	15.98	-36.9	-38.4	17.0	0.00e+00	0	58	0	176160768	45	4267
2026-01-01 01:52:40.45	327.88	16.00	-36.9	-38.4	16.9	0.00e+00	0	58	0	179306496	45	4291
2026-01-01 01:52:41.46	327.67	16.03	-36.9	-38.4	17.0	0.00e+00	0	58	0	182452224	45	4271
2026-01-01 01:52:42.48	327.45	16.05	-36.8	-38.3	17.0	0.00e+00	0	58	0	185597952	45	4239
2026-01-01 01:52:43.48	327.24	16.08	-36.8	-38.3	17.1	0.00e+00	0	58	0	188743680	45	4218
2026-01-01 01:52:44.50	327.02	16.10	-36.8	-38.3	17.1	0.00e+00	0	58	0	191889408	45	4223
2026-01-01 01:52:45.50	326.80	16.12	-36.8	-38.3	17.1	0.00e+00	0	58	0	195035136	45	4210
2026-01-01 01:52:46.52	326.58	16.15	-36.7	-38.3	17.1	0.00e+00	0	58	0	198180864	45	4194
2026-01-01 01:52:47.52	326.37	16.17	-36.8	-38.3	17.1	0.00e+00	0	58	0	201326592	45	4236
2026-01-01 01:52:48.54	326.15	16.19	-36.8	-38.4	17.0	0.00e+00	0	58	0	204472320	45	4255
2026-01-01 01:52:49.55	325.93	16.21	-36.8	-38.4	17.0	0.00e+00	0	58	0	207618048	45	4247
2026-01-01 01:52:50.56	325.71	16.23	-36.8	-38.3	17.0	0.00e+00	0	58	0	210763776	45	4240
2026-01-01 01:52:51.57	325.49	16.25	-36.7	-38.3	17.1	0.00e+00	0	58	0	213909504	45	4195
2026-01-01 01:52:52.58	325.27	16.27	-36.8	-38.3	17.1	0.00e+00	0	58	0	217055232	45	4201
2026-01-01 01:52:53.59	325.05	16.29	-36.6	-38.1	17.3	0.00e+00	0	58	0	220200960	45	4127
2026-01-01 01:52:54.60	324.83	16.31	-36.5	-38.0	17.4	0.00e+00	0	58	0	223346688	45	4081
2026-01-01 01:52:55.61	324.61	16.33	-36.6	-38.1	17.3	0.00e+00	0	58	0	226492416	45	4104
2026-01-01 01:52:56.62	324.39	16.35	-36.6	-38.1	17.3	0.00e+00	0	58	0	229638144	45	4107
2026-01-01 01:52:57.63	324.17	16.37	-36.5	-37.9	17.4	0.00e+00	0	58	0	232783872	45	4046
2026-01-01 01:52:58.64	323.95	16.39	-36.4	-37.9	17.5	0.00e+00	0	58	0	235929600	44	4262
2026-01-01 01:52:59.65	323.73	16.40	-36.6	-38.0	17.4	0.00e+00	0	58	0	239075328	44	4331
2026-01-01 01:53:00.66	323.51	16.42	-36.6	-38.1	17.3	0.00e+00	0	58	0	242221056	44	4379
2026-01-01 01:53:01.67	323.29	16.44	-36.7	-38.2	17.2	0.00e+00	0	58	0	245366784	44	4407
2026-01-01 01:53:02.68	323.07	16.45	-36.6	-38.1	17.3	0.00e+00	0	58	0	248512512	44	4388
2026-01-01 01:53:03.69	322.84	16.47	-36.6	-38.1	17.3	0.00e+00	0	58	0	251658240	44	4362
2026-01-01 01:53:04.70	322.62	16.49	-36.6	-38.1	17.3	0.00e+00	0	58	0	254803968	44	4359
2026-01-01 01:53:05.71	322.40	16.50	-36.7	-38.2	17.2	0.00e+00	0	58	0	257949696	44	4403
2026-01-01 01:53:06.72	322.18	16.51	-36.8	-38.3	17.1	0.00e+00	0	58	0	261095424	44	4457
2026-01-01 01:53:07.73	321.95	16.53	-36.9	-38.4	17.0	0.00e+00	0	58	0	264241152	44	4531
2026-01-01 01:53:08.75	321.73	16.54	-36.8	-38.4	17.1	0.00e+00	0	58	0	267386880	44	4503
2026-01-01 01:53:09.76	321.50	16.56	-36.8	-38.3	17.1	0.00e+00	0	58	0	270532608	44	4487
2026-01-01 01:53:10.77	321.28	16.57	-36.8	-38.3	17.1	0.00e+00	0	58	0	273678336	44	4457
2026-01-01 01:53:11.78	321.06	16.58	-36.8	-38.3	17.1	0.00e+00	0	58	0	276824064	44	4461
2026-01-01 01:53:12.79	320.83	16.59	-36.8	-38.3	17.1	0.00e+00	0	58	0	279969792	44	4464
2026-01-01 01:53:13.80	320.61	16.60	-36.9	-38.4	17.0	0.00e+00	0	58	0	283115520	44	4518
2026-01-01 01:53:14.81	320.38	16.61	-36.7	-38.2	17.2	0.00e+00	0	58	0	286261248	44	4407
2026-01-01 01:53:15.82	320.16	16.63	-36.7	-38.2	17.3	0.00e+00	0	58	0	289406976	44	4393
2026-01-01 01:53:16.83	319.93	16.64	-36.6	-38.1	17.3	0.00e+00	0	58	0	292552704	44	4370
2026-01-01 01:53:17.84	319.71	16.64	-36.6	-38.1	17.3	0.00e+00	0	58	0	295698432	44	4354
2026-01-01 01:53:18.85	319.49	16.65	-36.6	-38.1	17.3	0.00e+00	0	58	0	298844160	44	4354
2026-01-01 01:53:19.86	319.26	16.66	-36.5	-38.0	17.4	0.00e+00	0	58	0	301989888	44	4292
2026-01-01 01:53:20.87	319.03	16.67	-36.5	-37.9	17.5	0.00e+00	0	58	0	305135616	44	4270
2026-01-01 01:53:21.89	318.81	16.68	-36.5	-38.0	17.4	0.00e+00	0	58	0	308281344	44	4300
2026-01-01 01:53:22.89	318.58	16.69	-36.5	-38.0	17.4	0.00e+00	0	58	0	311427072	44	4320
2026-01-01 01:53:23.91	318.36	16.69	-36.6	-38.1	17.3	0.00e+00	0	58	0	314572800	44	4376
2026-01-01 01:53:24.92	318.13	16.70	-36.7	-38.2	17.1	0.00e+00	0	58	0	317718528	44	4439
2026-01-01 01:53:25.93	317.90	16.71	-36.9	-38.4	16.9	0.00e+00	0	58	0	320864256	44	4544
2026-01-01 01:53:26.94	317.68	16.71	-37.0	-38.6	16.8	0.00e+00	0	58	0	324009984	44	4639
2026-01-01 01:53:27.95	317.45	16.72	-37.0	-38.6	16.8	0.00e+00	0	58	0	327155712	44	4641
2026-01-01 01:53:28.96	317.23	16.72	-37.1	-38.6	16.8	0.00e+00	0	58	0	330301440	44	4647
2026-01-01 01:53:29.97	317.00	16.73	-37.1	-38.6	16.8	0.00e+00	0	58	0	333447168	44	4642
2026-01-01 01:53:30.97	316.78	16.73	-36.9	-38.4	17.0	0.00e+00	0	58	0	336592896	44	4532
2026-01-01 01:53:31.98	316.55	16.73	-36.9	-38.4	17.0	0.00e+00	0	58	0	339738624	44	4521
2026-01-01 01:53:32.99	316.32	16.74	-36.9	-38.4	17.0	0.00e+00	0	58	0	342884352	44	4534
2026-01-01 01:53:34.00	316.10	16.74	-36.8	-38.4	17.0	0.00e+00	0	58	0	346030080	44	4508
2026-01-01 01:53:35.01	315.87	16.74	-36.9	-38.4	17.0	0.00e+00	0	58	0	349175808	44	4530
2026-01-01 01:53:36.02	315.64	16.74	-36.9	-38.5	16.9	0.00e+00	0	58	0	352321536	44	4559
2026-01-01 01:53:37.03	315.42	16.74	-36.9	-38.5	16.9	0.00e+00	0	58	0	355467264	44	4569
2026-01-01 01:53:38.04	315.19	16.74	-37.0	-38.6	16.8	0.00e+00	0	58	0	358612992	44	4640
2026-01-01 01:53:39.05	314.97	16.74	-37.1	-38.6	16.8	0.00e+00	0	58	0	361758720	44	4634
2026-01-01 01:53:40.06	314.74	16.74	-37.0	-38.5	16.9	0.00e+00	0	58	0	364904448	44	4579
2026-01-01 01:53:41.07	314.51	16.74	-36.8	-38.3	17.1	0.00e+00	0	58	0	369098752	44	4477
2026-01-01 01:53:42.08	314.29	16.74	-36.7	-38.2	17.2	0.00e+00	0	58	0	371195904	44	4408
2026-01-01 01:53:43.09	314.06	16.74	-36.7	-38.2	17.2	0.00e+00	0	58	0	374341632	44	4427
2026-01-01 01:53:44.10	313.83	16.74	-36.7	-38.1	17.2	0.00e+00	0	58	0	377487360	44	4391
2026-01-01 01:53:45.11	313.61	16.73	-36.6	-38.0	17.4	0.00e+00	0	58	0	380633088	44	4328
2026-01-01 01:53:46.12	313.38	16.73	-36.6	-38.1	17.3	0.00e+00	0	58	0	384827392	44	4343
2026-01-01 01:53:47.13	313.15	16.73	-36.6	-38.1	17.3	0.00e+00	0	58	0	387973120	44	4378
2026-01-01 01:53:48.14	312.93	16.72	-36.8	-38.3	17.1	0.00e+00	0	58	0	391118848	44	4450
2026-01-01 01:53:49.16	312.70	16.72	-36.7	-38.2	17.2	0.00e+00	0	58	0	393216000	44	4431
2026-01-01 01:53:50.17	312.47	16.71	-36.8	-38.3	17.1	0.00e+00	0	58	0	396361728	44	4469
2026-01-01 01:53:51.18	312.25	16.71	-36.9	-38.5	16.9	0.00e+00	0	58	0	400556032	44	4547
2026-01-01 01:53:52.19	312.02	16.70	-37.0	-38.6	16.9	0.00e+00	0	58	0	403701760	44	4607
2026-01-01 01:53:53.20	311.80	16.70	-37.1	-38.6	16.8	0.00e+00	0	58	0	406847488	44	4644
2026-01-01 01:53:54.21	311.57	16.69	-37.0	-38.6	16.9	0.00e+00	0	58	0	409993216	44	4599
2026-01-01 01:53:55.22	311.34	16.68	-36.9	-38.4	17.0	0.00e+00	0	58	0	413138944	44	4531
2026-01-01 01:53:56.23	311.12	16.68	-36.7	-38.2	17.2	0.00e+00	0	58	0	416284672	44	4426
2026-01-01 01:53:57.24	310.89	16.67	-36.6	-38.1	17.3	0.00e+00	0	58	0	419430400	44	4372
2026-01-01 01:53:58.25	310.67	16.66	-36.6	-38.1	17.3	0.00e+00	0	58	0	422576128	44	4378
2026-01-01 01:53:59.26	310.44	16.65	-36.7	-38.1	17.2	0.00e+00	0	58	0	425721856	44	4390
2026-01-01 01:54:00.27	310.22	16.64	-36.5	-38.0	17.3	0.00e+00	0	58	0	428867584	44	4323
2026-01-01 01:54:01.28	309.99	16.63	-36.4	-37.9	17.5	0.00e+00	0	58	0	432013312	44	4247
2026-01-01 01:54:02.30	309.77	16.62	-36.5	-37.9	17.4	0.00e+00	0	58	0	435159040	44	4282
2026-01-01 01:54:03.31	309.54	16.61	-36.4	-37.9	17.5	0.00e+00	0	58	0	438304768	44	4263
2026-01-01 01:54:04.32	309.32	16.60	-36.5	-37.9	17.5	0.00e+00	0	58	0	441450496	44	4275
2026-01-01 01:54:05.33	309.09	16.59	-36.5	-38.0	17.4	0.00e+00	0	58	0	444596224	44	4314
2026-01-01 01:54:06.34	308.87	16.57	-36.6	-38.1	17.3	0.00e+00	0	58	0	447741952	44	4375
2026-01-01 01:54:07.35	308.64	16.56	-36.6	-38.1	17.3	0.00e+00	0	58	0	450887680	44	4354
2026-01-01 01:54:08.36	308.42	16.55	-36.6	-38.1	17.2	0.00e+00	0	58	0	454033408	44	4385
2026-01-01 01:54:09.37	308.20	16.54	-36.7	-38.2	17.2	0.00e+00	0	58	0	457179136	44	4397
2026-01-01 01:54:10.38	307.97	16.52	-36.7	-38.2	17.2	0.00e+00	0	58	0	460324864	44	4414
2026-01-01 01:54:11.39	307.75	16.51	-36.7	-38.2	17.1	0.00e+00	0	58	0	463470592	44	4416
2026-01-01 01:54:12.40	307.53	16.49	-36.8	-38.3	17.1	0.00e+00	0	58	0	466616320	44	4458
2026-01-01 01:54:13.41	307.30	16.48	-36.7	-38.2	17.2	0.00e+00	0	58	0	469762048	44	4392
2026-01-01 01:54:14.42	307.08	16.46	-36.7	-38.2	17.2	0.00e+00	0	58	0	472907776	44	4439
2026-01-01 01:54:15.43	306.86	16.45	-36.6	-38.1	17.2	0.00e+00	0	58	0	476053504	44	4383
2026-01-01 01:54:16.44	306.64	16.43	-36.5	-38.0	17.4	0.00e+00	0	58	0	479199232	44	4301
2026-01-01 01:54:17.45	306.42	16.41	-36.4	-37.9	17.5	0.00e+00	0	58	0	482344960	44	4252
2026-01-01 01:54:18.46	306.19	16.40	-36.3	-37.7	17.6	0.00e+00	0	58	0	485490688	44	4172
2026-01-01 01:54:19.48	305.97	16.38	-36.3	-37.7	17.7	0.00e+00	0	58	0	488636416	44	4156
2026-01-01 01:54:20.49	305.75	16.36	-36.4	-37.8	17.5	0.00e+00	0	58	0	491782144	44	4216
2026-01-01 01:54:21.50	305.53	16.34	-36.4	-37.8	17.5	0.00e+00	0	58	0	494927872	44	4228
2026-01-01 01:54:22.51	305.31	16.32	-36.5	-37.9	17.5	0.00e+00	0	58	0	498073600	44	4281
2026-01-01 01:54:23.52	305.09	16.30	-36.6	-38.1	17.2	0.00e+00	0	58	0	501219328	44	4378
2026-01-01 01:54:24.53	304.87	16.28	-36.8	-38.3	17.1	0.00e+00	0	58	0	504365056	44	4456
2026-01-01 01:54:25.54	304.65	16.26	-36.9	-38.4	16.9	0.00e+00	0	58	0	507510784	44	4530
2026-01-01 01:54:26.55	304.43	16.24	-36.8	-38.4	17.0	0.00e+00	0	58	0	510656512	44	4512
2026-01-01 01:54:27.56	304.21	16.22	-36.7	-38.2	17.1	0.00e+00	0	58	0	513802240	44	4435
2026-01-01 01:54:28.57	303.99	16.20	-36.7	-38.2	17.1	0.00e+00	0	58	0	516947968	44	4421
2026-01-01 01:54:29.58	303.77	16.18	-36.7	-38.2	17.2	0.00e+00	0	58	0	520093696	44	4412
2026-01-01 01:54:30.59	303.56	16.16	-36.7	-38.2	17.1	0.00e+00	0	58	0	523239424	44	4431
2026-01-01 01:54:31.60	303.34	16.13	-36.6	-38.1	17.3	0.00e+00	0	58	0	526385152	44	4355
2026-01-01 01:54:32.61	303.12	16.11	-36.6	-38.1	17.2	0.00e+00	0	58	0	529530880	44	4370
2026-01-01 01:54:33.62	302.90	16.09	-36.7	-38.2	17.2	0.00e+00	0	58	0	532676608	44	4408
2026-01-01 01:54:34.63	302.69	16.06	-36.8	-38.3	17.1	0.00e+00	0	58	0	535822336	44	4468
2026-01-01 01:54:35.64	302.47	16.04	-36.9	-38.5	16.8	0.00e+00	0	57	0	538968064	44	4578
2026-01-01 01:54:36.65	302.25	16.02	-36.9	-38.4	16.9	0.00e+00	0	58	0	542113792	44	4526
2026-01-01 01:54:37.66	302.04	15.99	-36.7	-38.3	17.0	0.00e+00	0	58	0	545259520	44	4460
2026-01-01 01:54:38.67	301.82	15.96	-36.7	-38.2	17.1	0.00e+00	0	58	0	548405248	44	4423
2026-01-01 01:54:39.68	301.61	15.94	-36.7	-38.3	17.1	0.00e+00	0	58	0	551550976	44	4445
2026-01-01 01:54:40.69	301.39	15.91	-36.6	-38.1	17.2	0.00e+00	0	58	0	554696704	44	4386
2026-01-01 01:54:41.70	301.18	15.89	-36.7	-38.2	17.1	0.00e+00	0	58	0	557842432	44	4404
2026-01-01 01:54:42.71	300.97	15.86	-36.7	-38.3	17.0	0.00e+00	0	58	0	560988160	44	4448
2026-01-01 01:54:43.72	300.75	15.83	-36.7	-38.2	17.0	0.00e+00	0	58	0	564133888	44	4437
2026-01-01 01:54:44.73	300.54	15.81	-36.6	-38.1	17.2	0.00e+00	0	58	0	567279616	44	4347
2026-01-01 01:54:45.74	300.33	15.78	-36.5	-37.9	17.3	0.00e+00	0	58	0	570425344	44	4288
2026-01-01 01:54:46.75	300.11	15.75	-36.4	-37.9	17.4	0.00e+00	0	58	0	573571072	44	4264
2026-01-01 01:54:47.76	299.90	15.72	-36.4	-37.9	17.4	0.00e+00	0	58	0	576716800	44	4266
2026-01-01 01:54:48.77	299.69	15.69	-36.4	-37.9	17.4	0.00e+00	0	58	0	579862528	44	4243
2026-01-01 01:54:49.78	299.48	15.66	-36.4	-37.9	17.4	0.00e+00	0	58	0	583008256	44	4246
2026-01-01 01:54:50.79	299.27	15.63	-36.5	-38.0	17.3	0.00e+00	0	58	0	586153984	44	4292
2026-01-01 01:54:51.80	299.06	15.60	-36.5	-38.0	17.3	0.00e+00	0	58	0	589299712	44	4315
2026-01-01 01:54:52.81	298.85	15.57	-36.6	-38.1	17.2	0.00e+00	0	58	0	592445440	44	4353
2026-01-01 01:54:53.83	298.64	15.54	-36.6	-38.1	17.2	0.00e+00	0	58	0	595591168	44	4359
2026-01-01 01:54:54.83	298.43	15.51	-36.5	-38.0	17.3	0.00e+00	0	58	0	598736896	44	4299
2026-01-01 01:54:55.84	298.22	15.48	-36.4	-37.9	17.4	0.00e+00	0	58	0	601882624	44	4246
2026-01-01 01:54:56.86	298.01	15.45	-36.3	-37.8	17.5	0.00e+00	0	58	0	605028352	44	4205
2026-01-01 01:54:57.87	297.81	15.41	-36.3	-37.7	17.5	0.00e+00	0	58	0	608174080	44	4183
2026-01-01 01:54:58.87	297.60	15.38	-36.3	-37.8	17.4	0.00e+00	0	58	0	611319808	44	4211
2026-01-01 01:54:59.89	297.39	15.35	-36.4	-37.9	17.3	0.00e+00	0	58	0	614465536	44	4275
2026-01-01 01:55:00.90	297.19	15.32	-36.5	-38.0	17.2	0.00e+00	0	58	0	617611264	44	4328
2026-01-01 01:55:01.91	296.98	15.28	-36.6	-38.1	17.1	0.00e+00	0	58	0	620756992	44	4368
2026-01-01 01:55:02.92	296.77	15.25	-36.6	-38.1	17.1	0.00e+00	0	58	0	623902720	44	4388
2026-01-01 01:55:03.93	296.57	15.21	-36.7	-38.2	17.0	0.00e+00	0	58	0	627048448	44	4406
2026-01-01 01:55:04.94	296.36	15.18	-36.7	-38.2	17.0	0.00e+00	0	58	0	630194176	44	4430
2026-01-01 01:55:05.95	296.16	15.14	-36.6	-38.1	17.1	0.00e+00	0	58	0	633339904	44	4369
2026-01-01 01:55:06.96	295.96	15.11	-36.5	-38.0	17.1	0.00e+00	0	58	0	636485632	44	4330
2026-01-01 01:55:07.97	295.75	15.07	-36.4	-37.9	17.2	0.00e+00	0	58	0	639631360	44	4281
2026-01-01 01:55:08.98	295.55	15.04	-36.5	-38.0	17.0	0.00e+00	0	58	0	642777088	44	4313
2026-01-01 01:55:09.99	295.35	15.00	-36.3	-37.8	17.1	0.00e+00	0	58	0	645922816	44	4214
2026-01-01 01:55:11.00	295.15	14.97	-36.2	-37.8	17.0	0.00e+00	0	58	0	649068544	44	4199
2026-01-01 01:55:12.01	294.95	14.93	-36.2	-37.8	16.9	0.00e+00	0	58	0	652214272	44	4212
2026-01-01 01:55:13.02	294.75	14.89	-36.3	-37.8	16.8	0.00e+00	0	58	0	656408576	44	4234
2026-01-01 01:55:14.03	294.55	14.86	-36.3	-37.9	16.9	0.00e+00	0	58	0	659554304	44	4251
2026-01-01 01:55:15.04	294.35	14.82	-36.4	-37.9	17.0	0.00e+00	0	58	0	661651456	44	4272
2026-01-01 01:55:16.05	294.15	14.78	-36.4	-37.8	17.1	0.00e+00	0	58	0	664797184	44	4240
2026-01-01 01:55:17.06	293.95	14.74	-36.3	-37.8	17.2	0.00e+00	0	58	0	667942912	44	4223
2026-01-01 01:55:18.07	293.75	14.70	-36.4	-37.8	17.2	0.00e+00	0	58	0	672137216	44	4235
2026-01-01 01:55:19.09	293.55	14.67	-36.5	-38.0	17.1	0.00e+00	0	58	0	675282944	44	4314
2026-01-01 01:55:20.10	293.36	14.63	-36.5	-38.0	17.1	0.00e+00	0	58	0	678428672	44	4322
2026-01-01 01:55:21.10	293.16	14.59	-36.5	-38.0	17.2	0.00e+00	0	58	0	681574400	44	4307
2026-01-01 01:55:22.12	292.96	14.55	-36.6	-38.1	17.1	0.00e+00	0	58	0	684720128	44	4344
2026-01-01 01:55:23.13	292.77	14.51	-36.7	-38.2	16.9	0.00e+00	0	58	0	687865856	44	4435
2026-01-01 01:55:24.14	292.57	14.47	-36.8	-38.4	16.8	0.00e+00	0	58	0	691011584	44	4514
2026-01-01 01:55:25.14	292.38	14.43	-36.9	-38.5	16.7	0.00e+00	0	58	0	694157312	44	4573
2026-01-01 01:55:26.16	292.19	14.39	-37.0	-38.6	16.6	0.00e+00	0	58	0	697303040	44	4610
2026-01-01 01:55:27.17	291.99	14.35	-37.0	-38.7	16.5	0.00e+00	0	58	0	700448768	44	4659
2026-01-01 01:55:28.18	291.80	14.31	-36.9	-38.5	16.7	0.00e+00	0	58	0	703594496	44	4573
2026-01-01 01:55:29.19	291.61	14.26	-36.8	-38.4	16.7	0.00e+00	0	58	0	706740224	44	4532
2026-01-01 01:55:30.20	291.42	14.22	-36.8	-38.3	16.8	0.00e+00	0	58	0	709885952	44	4492
2026-01-01 01:55:31.21	291.23	14.18	-36.7	-38.3	16.8	0.00e+00	0	58	0	713031680	44	4462
2026-01-01 01:55:32.22	291.03	14.14	-36.7	-38.2	16.9	0.00e+00	0	58	0	716177408	44	4425
2026-01-01 01:55:33.23	290.84	14.10	-36.7	-38.2	16.9	0.00e+00	0	58	0	719323136	44	4429
2026-01-01 01:55:34.24	290.66	14.05	-36.8	-38.4	16.7	0.00e+00	0	58	0	722468864	44	4502
2026-01-01 01:55:35.25	290.47	14.01	-36.6	-38.2	16.9	0.00e+00	0	58	0	725614592	44	4407
2026-01-01 01:55:36.26	290.28	13.97	-36.6	-38.1	16.9	0.00e+00	0	58	0	728760320	44	4381
2026-01-01 01:55:37.27	290.09	13.93	-36.5	-38.1	17.0	0.00e+00	0	58	0	731906048	44	4346
2026-01-01 01:55:38.28	289.90	13.88	-36.5	-38.0	17.0	0.00e+00	0	58	0	735051776	44	4324
2026-01-01 01:55:39.29	289.72	13.84	-36.4	-37.9	17.1	0.00e+00	0	58	0	738197504	44	4287
2026-01-01 01:55:40.30	289.53	13.79	-36.4	-37.9	17.1	0.00e+00	0	58	0	741343232	44	4286
2026-01-01 01:55:41.31	289.34	13.75	-36.4	-37.9	17.1	0.00e+00	0	58	0	744488960	44	4257
2026-01-01 01:55:42.32	289.16	13.71	-36.4	-37.9	17.0	0.00e+00	0	58	0	747634688	44	4281
2026-01-01 01:55:43.33	288.97	13.66	-36.3	-37.8	17.1	0.00e+00	0	58	0	750780416	44	4236
2026-01-01 01:55:44.35	288.79	13.62	-36.3	-37.8	17.2	0.00e+00	0	58	0	753926144	44	4220
2026-01-01 01:55:45.36	288.61	13.57	-36.3	-37.8	17.2	0.00e+00	0	58	0	757071872	44	4196
2026-01-01 01:55:46.37	288.42	13.53	-36.2	-37.7	17.3	0.00e+00	0	58	0	760217600	44	4146
2026-01-01 01:55:47.38	288.24	13.48	-36.1	-37.6	17.3	0.00e+00	0	58	0	763363328	44	4117
2026-01-01 01:55:48.39	288.06	13.44	-36.0	-37.4	17.4	0.00e+00	0	58	0	766509056	44	4048
2026-01-01 01:55:49.40	287.88	13.39	-35.8	-37.3	17.4	0.00e+00	0	58	0	769654784	43	4202
2026-01-01 01:55:50.41	287.70	13.34	-35.8	-37.3	17.3	0.00e+00	0	58	0	772800512	43	4209
2026-01-01 01:55:51.42	287.52	13.30	-35.9	-37.3	17.2	0.00e+00	0	58	0	775946240	43	4236
2026-01-01 01:55:52.43	287.34	13.25	-36.0	-37.5	17.1	0.00e+00	0	58	0	779091968	43	4309
2026-01-01 01:55:53.44	287.16	13.20	-36.1	-37.6	16.9	0.00e+00	0	58	0	782237696	43	4386
2026-01-01 01:55:54.46	286.98	13.16	-36.3	-37.8	16.6	0.00e+00	0	58	0	785383424	43	4488
2026-01-01 01:55:55.46	286.80	13.11	-36.4	-38.0	16.5	0.00e+00	0	58	0	788529152	43	4578
2026-01-01 01:55:56.48	286.62	13.06	-36.5	-38.1	16.4	0.00e+00	0	58	0	791674880	43	4625
2026-01-01 01:55:57.49	286.45	13.02	-36.6	-38.2	16.2	0.00e+00	0	58	0	794820608	43	4703
2026-01-01 01:55:58.50	286.27	12.97	-36.7	-38.4	16.1	0.00e+00	0	58	0	797966336	43	4797
2026-01-01 01:55:59.51	286.10	12.92	-37.0	-38.8	15.9	0.00e+00	0	58	0	801112064	44	4708
2026-01-01 01:56:00.52	285.92	12.87	-37.1	-38.9	15.8	0.00e+00	0	58	0	804257792	44	4791
2026-01-01 01:56:01.53	285.75	12.83	-37.2	-39.0	15.6	0.00e+00	0	58	0	807403520	44	4862
2026-01-01 01:56:02.54	285.57	12.78	-37.4	-39.2	15.4	0.00e+00	0	58	0	810549248	45	4692
2026-01-01 01:56:03.55	285.40	12.73	-37.5	-39.4	15.2	0.00e+00	0	58	0	813694976	45	4792
2026-01-01 01:56:04.56	285.23	12.68	-37.5	-39.5	15.2	0.00e+00	0	58	0	816840704	45	4830
2026-01-01 01:56:05.57	285.06	12.63	-37.6	-39.5	15.1	7.00e-07	0	58	0	819986432	45	4849
2026-01-01 01:56:06.58	284.88	12.58	-37.6	-39.5	15.1	0.00e+00	0	58	0	823132160	45	4843
2026-01-01 01:56:07.59	284.71	12.53	-37.6	-39.5	15.1	0.00e+00	0	58	0	826277888	45	4850
2026-01-01 01:56:08.60	284.54	12.49	-37.5	-39.4	15.2	0.00e+00	0	58	0	829423616	45	4764
2026-01-01 01:56:09.61	284.37	12.44	-37.4	-39.3	15.2	0.00e+00	0	58	0	832569344	45	4738
2026-01-01 01:56:10.62	284.20	12.39	-37.5	-39.4	15.1	0.00e+00	0	58	0	835715072	45	4807
2026-01-01 01:56:11.63	284.04	12.34	-37.5	-39.4	15.2	0.00e+00	0	58	0	838860800	45	4786
2026-01-01 01:56:12.65	283.87	12.29	-37.6	-39.5	15.1	0.00e+00	0	58	0	842006528	45	4842
2026-01-01 01:56:13.66	283.70	12.24	-37.6	-39.5	15.2	0.00e+00	0	58	0	845152256	45	4861
2026-01-01 01:56:14.67	283.53	12.19	-37.6	-39.6	15.2	0.00e+00	0	58	0	848297984	45	4882
2026-01-01 01:56:15.68	283.37	12.14	-37.7	-39.7	15.0	0.00e+00	0	58	0	851443712	45	4934
2026-01-01 01:56:16.69	283.20	12.09	-37.8	-39.8	14.9	0.00e+00	0	58	0	854589440	46	4747
2026-01-01 01:56:17.70	283.03	12.04	-37.8	-39.7	15.0	0.00e+00	0	58	0	857735168	46	4704
2026-01-01 01:56:18.71	282.87	11.99	-37.6	-39.5	15.2	0.00e+00	0	58	0	860880896	46	4560
2026-01-01 01:56:19.72	282.71	11.94	-37.5	-39.3	15.4	0.00e+00	0	58	0	864026624	46	4476
2026-01-01 01:56:20.73	282.54	11.89	-37.4	-39.2	15.6	0.00e+00	0	57	0	867172352	46	4405
2026-01-01 01:56:21.74	282.38	11.84	-37.4	-39.1	15.7	0.00e+00	0	58	0	870318080	46	4386
2026-01-01 01:56:22.75	282.22	11.78	-37.2	-38.9	15.9	0.00e+00	0	58	0	873463808	46	4278
2026-01-01 01:56:23.76	282.06	11.73	-37.1	-38.8	16.1	0.00e+00	0	58	0	876609536	46	4205
2026-01-01 01:56:24.77	281.89	11.68	-37.1	-38.8	16.1	0.00e+00	0	58	0	879755264	46	4228
2026-01-01 01:56:25.79	281.73	11.63	-37.1	-38.8	16.2	0.00e+00	0	58	0	882900992	46	4205
2026-01-01 01:56:26.80	281.57	11.58	-37.1	-38.7	16.2	0.00e+00	0	58	0	886046720	46	4181
2026-01-01 01:56:27.81	281.41	11.53	-36.9	-38.6	16.4	0.00e+00	0	58	0	889192448	45	4355
2026-01-01 01:56:28.82	281.25	11.48	-36.9	-38.6	16.3	0.00e+00	0	58	0	892338176	45	4358
2026-01-01 01:56:29.83	281.10	11.42	-37.0	-38.7	16.3	0.00e+00	0	58	0	895483904	45	4394
2026-01-01 01:56:30.84	280.94	11.37	-37.0	-38.7	16.2	0.00e+00	0	58	0	898629632	45	4409
2026-01-01 01:56:31.85	280.78	11.32	-37.0	-38.7	16.2	0.00e+00	0	58	0	901775360	45	4415
2026-01-01 01:56:32.86	280.62	11.27	-37.1	-38.7	16.1	0.00e+00	0	58	0	904921088	45	4432
2026-01-01 01:56:33.87	280.47	11.22	-37.0	-38.7	16.2	0.00e+00	0	58	0	908066816	45	4393
2026-01-01 01:56:34.88	280.31	11.16	-37.1	-38.8	16.1	0.00e+00	0	58	0	911212544	45	4455
2026-01-01 01:56:35.89	280.16	11.11	-37.1	-38.8	16.1	0.00e+00	0	58	0	914358272	45	4447
2026-01-01 01:56:36.90	280.00	11.06	-37.1	-38.8	16.1	0.00e+00	0	58	0	917504000	45	4451
2026-01-01 01:56:37.91	279.85	11.01	-37.1	-38.8	16.0	0.00e+00	0	58	0	920649728	45	4450
2026-01-01 01:56:38.92	279.70	10.95	-37.1	-38.8	16.0	0.00e+00	0	58	0	924844032	45	4466
2026-01-01 01:56:39.93	279.54	10.90	-37.1	-38.8	15.9	0.00e+00	0	58	0	927989760	45	4488
2026-01-01 01:56:40.94	279.39	10.85	-37.0	-38.8	15.9	0.00e+00	0	58	0	930086912	45	4454
2026-01-01 01:56:41.95	279.24	10.80	-37.1	-38.9	15.8	0.00e+00	0	58	0	933232640	45	4508
2026-01-01 01:56:42.96	279.09	10.74	-37.2	-39.0	15.6	0.00e+00	0	58	0	936378368	45	4556
2026-01-01 01:56:43.98	278.94	10.69	-37.3	-39.2	15.4	0.00e+00	0	58	0	940572672	45	4674
2026-01-01 01:56:44.99	278.79	10.64	-37.5	-39.4	15.1	0.00e+00	0	58	0	943718400	45	4812
2026-01-01 01:56:46.00	278.64	10.58	-37.7	-39.7	14.8	0.00e+00	0	58	0	946864128	45	4942
2026-01-01 01:56:47.01	278.49	10.53	-37.9	-40.0	14.5	0.00e+00	0	58	0	950009856	46	4833
2026-01-01 01:56:48.01	278.34	10.48	-38.1	-40.2	14.3	2.20e-06	0	58	0	953155584	46	4942
2026-01-01 01:56:49.02	278.19	10.42	-38.2	-40.4	14.1	1.50e-06	0	58	0	956301312	46	5072
2026-01-01 01:56:50.03	278.05	10.37	-38.3	-40.6	13.8	2.20e-06	0	58	0	959447040	47	4901
2026-01-01 01:56:51.04	277.90	10.32	-38.3	-40.6	13.6	5.30e-06	0	58	0	962592768	47	4924
2026-01-01 01:56:52.05	277.75	10.26	-38.3	-40.7	13.5	1.22e-05	0	58	0	965738496	47	4935
2026-01-01 01:56:53.06	277.61	10.21	-38.2	-40.6	13.6	7.60e-06	0	57	0	968884224	47	4917
2026-01-01 01:56:54.07	277.46	10.16	-38.1	-40.5	13.5	7.60e-06	0	58	0	972029952	47	4863
2026-01-01 01:56:55.08	277.32	10.10	-38.2	-40.6	13.4	8.30e-06	0	58	0	975175680	47	4893
2026-01-01 01:56:56.09	277.17	10.05	-38.2	-40.7	13.2	2.05e-05	0	58	0	978321408	47	4970
2026-01-01 01:56:57.10	277.03	10.00	-38.3	-40.9	13.0	3.12e-05	0	58	0	981467136	47	5059
2026-01-01 01:56:58.11	276.89	9.94	-38.4	-41.1	12.7	6.86e-05	0	58	0	984612864	47	5176
2026-01-01 01:56:59.12	276.75	9.89	-38.5	-41.3	12.4	1.50e-04	0	58	0	987758592	47	5317
2026-01-01 01:57:00.13	276.60	9.83	-38.6	-41.6	12.0	2.87e-04	0	58	0	990904320	47	5478
2026-01-01 01:57:01.14	276.46	9.78	-38.8	-41.9	11.6	5.26e-04	0	58	0	994050048	48	5366
2026-01-01 01:57:02.15	276.32	9.73	-39.0	-42.3	11.2	1.18e-03	0	58	0	997195776	48	5598
2026-01-01 01:57:03.16	276.18	9.67	-39.2	-42.7	10.6	2.57e-03	0	58	0	1000341504	48	5863
2026-01-01 01:57:04.17	276.04	9.62	-39.4	-43.1	10.1	6.70e-03	0	58	0	1003487232	49	5849
2026-01-01 01:57:05.18	275.90	9.56	-39.6	-43.7	9.4	1.40e-02	0	58	0	1006632960	49	6207
2026-01-01 01:57:06.19	275.76	9.51	-39.7	-44.1	8.9	2.64e-02	0	58	0	1009778688	49	6501
2026-01-01 01:57:07.20	275.63	9.45	-39.9	-44.6	8.3	4.26e-02	0	58	0	1012924416	50	6502
2026-01-01 01:57:08.21	275.49	9.40	-40.0	-45.0	7.8	7.41e-02	0	58	0	1016070144	50	6832
2026-01-01 01:57:09.23	275.35	9.35	-40.0	-45.4	7.3	1.03e-01	0	58	0	1019215872	50	7131
2026-01-01 01:57:10.24	275.21	9.29	-40.1	-45.7	6.9	1.59e-01	0	58	0	1022361600	50	7429
2026-01-01 01:57:11.25	275.08	9.24	-40.2	-46.1	6.5	2.10e-01	0	58	0	1025507328	50	7746
2026-01-01 01:57:12.26	274.94	9.18	-40.2	-46.4	6.2	2.87e-01	0	58	0	1028653056	50	8010
2026-01-01 01:57:13.27	274.81	9.13	-40.2	-46.8	5.8	3.71e-01	0	58	0	1031798784	51	7939
2026-01-01 01:57:14.28	274.67	9.07	-40.3	-47.1	5.5	4.30e-01	0	58	0	1034944512	51	8240
2026-01-01 01:57:15.29	274.54	9.02	-40.3	-47.4	5.3	5.47e-01	0	58	0	1038090240	51	8486
2026-01-01 01:57:16.30	274.40	8.96	-40.3	-47.7	5.1	6.37e-01	0	58	0	1041235968	51	8835
2026-01-01 01:57:17.31	274.27	8.91	-40.3	-48.1	4.2	1.42e+00	0	58	104	1043333120	51	9205
2026-01-01 01:57:18.32	274.14	8.85	-40.3	-48.6	4.0	1.01e+00	0	58	104	1043333120	51	9763
2026-01-01 01:57:19.33	274.01	8.80	-40.3	-48.7	4.5	1.27e+00	5	58	104	1043333120	51	9929
2026-01-01 01:57:20.34	273.87	8.75	-40.3	-49.1	4.0	1.44e+00	0	58	104	1043333120	51	10397
2026-01-01 01:57:21.35	273.74	8.69	-40.4	-48.9	4.4	1.46e+00	0	58	104	1043333120	51	10111
2026-01-01 01:57:22.36	273.61	8.64	-40.5	-49.2	4.1	9.85e-01	0	58	104	1043333120	52	9934
2026-01-01 01:57:23.37	273.48	8.58	-39.8	-51.8	3.8	1.49e+00	0	58	104	1043333120	51	14073
2026-01-01 01:57:24.37	273.35	8.53	-40.7	-51.4	3.8	1.49e+00	0	58	104	1043333120	52	12685
2026-01-01 01:57:25.39	273.22	8.47	-41.1	-50.6	3.9	1.46e+00	0	58	104	1043333120	52	11667
2026-01-01 01:57:26.39	273.10	8.42	-40.8	-49.8	4.3	1.46e+00	0	58	104	1043333120	52	10552
2026-01-01 01:57:27.40	272.97	8.36	-40.7	-50.5	3.9	1.47e+00	0	58	104	1043333120	52	11467
2026-01-01 01:57:28.41	272.84	8.31	-40.6	-50.2	4.1	1.47e+00	0	58	104	1043333120	52	11036
2026-01-01 01:57:29.42	272.71	8.25	-40.5	-50.7	3.9	1.48e+00	0	58	104	1043333120	52	11684
2026-01-01 01:57:30.43	272.59	8.20	-40.0	-50.9	3.9	1.48e+00	0	58	104	1043333120	52	12071
2026-01-01 01:57:31.44	272.46	8.14	-39.8	-52.0	3.8	1.49e+00	0	58	104	1043333120	51	14409
2026-01-01 01:57:32.45	272.34	8.09	-40.6	-51.0	3.8	1.49e+00	0	58	104	1043333120	52	12209
2026-01-01 01:57:33.46	272.21	8.03	-40.7	-51.4	3.8	1.49e+00	0	58	104	1043333120	52	12759
2026-01-01 01:57:34.47	272.09	7.98	-41.2	-50.9	3.9	1.48e+00	0	58	104	1043333120	52	11959
2026-01-01 01:57:35.48	271.96	7.92	-44.5	-56.6	3.8	1.49e+00	0	58	104	1043333120	59	15524
2026-01-01 01:57:36.49	271.84	7.87	-44.7	-56.9	3.8	1.49e+00	0	58	104	1043333120	59	15981
2026-01-01 01:57:37.50	271.71	7.81	-44.8	-57.1	3.8	1.49e+00	0	58	104	1043333120	60	15489
2026-01-01 01:57:38.51	271.59	7.76	-44.9	-57.2	3.8	1.49e+00	0	58	104	1043333120	60	15697
2026-01-01 01:57:39.53	271.47	7.70	-44.9	-57.3	3.8	1.49e+00	0	58	104	1043333120	60	15793
2026-01-01 01:57:40.54	271.35	7.65	-45.0	-57.3	3.8	1.49e+00	0	58	104	1043333120	60	15935
2026-01-01 01:57:41.55	271.22	7.59	-45.0	-57.4	3.8	1.49e+00	0	58	104	1043333120	60	15963
2026-01-01 01:57:42.56	271.10	7.54	-45.0	-57.4	3.8	1.49e+00	0	58	104	1043333120	60	16017
2026-01-01 01:57:43.57	270.98	7.48	-45.0	-57.4	3.8	1.49e+00	0	58	104	1043333120	60	15951
2026-01-01 01:57:44.58	270.86	7.43	-45.0	-57.4	3.8	1.49e+00	0	58	104	1043333120	60	16003
2026-01-01 01:57:45.59	270.74	7.37	-45.0	-57.3	3.8	1.49e+00	0	58	104	1043333120	60	15918
2026-01-01 01:57:46.60	270.62	7.32	-45.0	-57.3	3.8	1.49e+00	0	58	104	1043333120	60	15845
2026-01-01 01:57:47.61	270.51	7.26	-44.9	-57.3	3.8	1.49e+00	0	58	104	1043333120	60	15811
2026-01-01 01:57:48.62	270.39	7.21	-44.9	-57.3	3.8	1.49e+00	0	58	104	1043333120	60	15785
2026-01-01 01:57:49.64	270.27	7.15	-44.9	-57.3	3.8	1.49e+00	0	58	104	1043333120	60	15775
2026-01-01 01:57:50.65	270.15	7.10	-45.0	-57.3	3.8	1.49e+00	0	58	104	1043333120	60	15836
2026-01-01 01:57:51.66	270.03	7.04	-44.9	-57.2	3.8	1.49e+00	0	58	104	1043333120	60	15754
2026-01-01 01:57:52.67	269.92	6.99	-44.9	-57.3	3.8	1.49e+00	0	58	104	1043333120	60	15764
2026-01-01 01:57:53.68	269.80	6.93	-44.9	-57.3	3.8	1.49e+00	0	58	104	1043333120	60	15801
2026-01-01 01:57:54.69	269.69	6.88	-44.9	-57.3	3.8	1.49e+00	0	58	104	1043333120	60	15764
2026-01-01 01:57:55.70	269.57	6.82	-44.9	-57.2	3.8	1.49e+00	0	58	104	1043333120	60	15758
2026-01-01 01:57:56.72	269.46	6.77	-44.9	-57.2	3.8	1.49e+00	0	58	104	1043333120	60	15754
2026-01-01 01:57:57.72	269.34	6.71	-44.9	-57.3	3.8	1.49e+00	0	58	104	1043333120	60	15794
2026-01-01 01:57:58.73	269.23	6.66	-44.9	-57.2	3.8	1.49e+00	0	58	104	1043333120	60	15744
2026-01-01 01:57:59.75	269.12	6.60	-44.9	-57.3	3.8	1.49e+00	0	58	104	1043333120	60	15782
2026-01-01 01:58:00.76	269.00	6.55	-44.9	-57.2	3.8	1.49e+00	0	58	104	1043333120	60	15756
2026-01-01 01:58:01.77	268.89	6.49	-44.9	-57.2	3.8	1.49e+00	0	58	104	1043333120	60	15745
2026-01-01 01:58:02.78	268.78	6.44	-44.9	-57.2	3.8	1.49e+00	0	58	104	1043333120	60	15743
2026-01-01 01:58:03.79	268.67	6.38	-44.9	-57.3	3.8	1.49e+00	0	58	104	1043333120	60	15768
2026-01-01 01:58:04.80	268.56	6.33	-44.9	-57.2	3.8	1.49e+00	0	58	104	1043333120	60	15739
2026-01-01 01:58:05.81	268.44	6.27	-44.9	-57.2	3.8	1.49e+00	0	58	104	1043333120	60	15721
2026-01-01 01:58:06.82	268.33	6.22	-44.9	-57.2	3.8	1.49e+00	0	58	104	1043333120	60	15726
2026-01-01 01:58:07.83	268.22	6.16	-44.9	-57.2	3.8	1.49e+00	0	58	104	1043333120	60	15734
2026-01-01 01:58:08.85	268.11	6.11	-44.9	-57.2	3.8	1.49e+00	0	58	104	1043333120	60	15704
2026-01-01 01:58:09.86	268.00	6.05	-44.9	-57.2	3.8	1.49e+00	0	58	104	1043333120	60	15681
2026-01-01 01:58:10.87	267.90	6.00	-44.9	-57.2	3.8	1.49e+00	0	58	104	1043333120	60	15666
2026-01-01 01:58:11.88	267.79	5.94	-44.9	-57.2	3.8	1.49e+00	0	58	104	1043333120	60	15703
2026-01-01 01:58:12.89	267.68	5.89	-44.9	-57.2	3.8	1.49e+00	0	58	104	1043333120	60	15716
2026-01-01 01:58:13.90	267.57	5.83	-44.9	-57.2	3.8	1.49e+00	0	58	104	1043333120	60	15680
2026-01-01 01:58:14.91	267.47	5.78	-44.9	-57.2	3.8	1.49e+00	0	58	104	1043333120	60	15730
2026-01-01 01:58:15.92	267.36	5.73	-44.9	-57.2	3.8	1.49e+00	0	58	104	1043333120	60	15689
2026-01-01 01:58:16.93	267.25	5.67	-44.8	-57.2	3.8	1.49e+00	0	58	104	1043333120	60	15713
2026-01-01 01:58:17.95	267.15	5.62	-44.9	-57.2	3.8	1.49e+00	0	58	104	1043333120	60	15661
2026-01-01 01:58:18.96	267.04	5.56	-44.9	-57.2	3.8	1.49e+00	0	58	104	1043333120	60	15633
2026-01-01 01:58:19.97	266.94	5.51	-44.8	-57.2	3.8	1.49e+00	0	58	104	1043333120	60	15679
2026-01-01 01:58:20.98	266.83	5.45	-44.9	-57.2	3.8	1.49e+00	0	58	104	1043333120	60	15705
2026-01-01 01:58:21.99	266.73	5.40	-44.9	-57.2	3.8	1.49e+00	0	58	104	1043333120	60	15637
2026-01-01 01:58:23.00	266.62	5.34	-44.9	-57.2	3.8	1.49e+00	0	58	104	1043333120	60	15660
2026-01-01 01:58:24.01	266.52	5.29	-44.9	-57.2	3.8	1.49e+00	0	58	104	1043333120	60	15686
2026-01-01 01:58:25.02	266.42	5.23	-44.9	-57.2	3.8	1.49e+00	0	58	104	1043333120	60	15635
2026-01-01 01:58:26.03	266.32	5.18	-44.9	-57.2	3.8	1.49e+00	0	58	104	1043333120	60	15687
2026-01-01 01:58:27.04	266.21	5.13	-44.9	-57.2	3.8	1.49e+00	0	58	104	1043333120	60	15655
2026-01-01 01:58:28.05	266.11	5.07	-44.8	-57.2	3.8	1.49e+00	0	58	104	1043333120	60	15696
2026-01-01 01:58:29.06	266.01	5.02	-44.8	-57.2	3.8	1.49e+00	0	58	104	1043333120	60	15634
2026-01-01 01:58:30.08	265.91	4.96	-44.9	-57.2	3.8	1.49e+00	0	58	104	1043333120	60	15677
2026-01-01 01:58:31.09	265.81	4.91	-44.9	-57.2	3.8	1.49e+00	0	58	104	1043333120	60	15658
2026-01-01 01:58:32.10	265.71	4.85	-44.9	-57.2	3.8	1.49e+00	0	58	104	1043333120	60	15676
2026-01-01 01:58:33.11	265.61	4.80	-44.9	-57.2	3.8	1.49e+00	0	58	104	1043333120	60	15667
2026-01-01 01:58:34.12	265.51	4.75	-44.9	-57.2	3.8	1.49e+00	0	58	104	1043333120	60	15712
2026-01-01 01:58:35.13	265.41	4.69	-44.8	-57.2	3.8	1.49e+00	0	58	104	1043333120	60	15702
2026-01-01 01:58:36.14	265.31	4.64	-44.9	-57.2	3.8	1.49e+00	0	58	104	1043333120	60	15630
2026-01-01 01:58:37.15	265.21	4.58	-44.9	-57.2	3.8	1.49e+00	0	58	104	1043333120	60	15684
2026-01-01 01:58:38.16	265.11	4.53	-44.9	-57.2	3.8	1.49e+00	0	58	104	1043333120	60	15671
2026-01-01 01:58:39.18	265.02	4.47	-44.8	-57.2	3.8	1.49e+00	0	58	104	1043333120	60	15696
2026-01-01 01:58:40.18	264.92	4.42	-44.8	-57.2	3.8	1.49e+00	0	58	104	1043333120	60	15657
2026-01-01 01:58:41.20	264.82	4.37	-44.9	-57.2	3.8	1.49e+00	0	58	104	1043333120	60	15678
2026-01-01 01:58:42.21	264.72	4.31	-44.8	-57.2	3.8	1.49e+00	0	58	104	1043333120	60	15653
2026-01-01 01:58:43.22	264.63	4.26	-44.9	-57.2	3.8	1.49e+00	0	58	104	1043333120	60	15694
2026-01-01 01:58:44.23	264.53	4.20	-44.8	-57.2	3.8	1.49e+00	0	58	104	1043333120	60	15649
2026-01-01 01:58:45.24	264.44	4.15	-44.8	-57.2	3.8	1.49e+00	0	58	104	1043333120	60	15690
2026-01-01 01:58:46.25	264.34	4.10	-44.8	-57.2	3.8	1.49e+00	0	58	104	1043333120	60	15630
2026-01-01 01:58:47.26	264.25	4.04	-44.8	-57.2	3.8	1.49e+00	0	58	104	1043333120	60	15681
2026-01-01 01:58:48.27	264.15	3.99	-44.8	-57.2	3.8	1.49e+00	0	58	104	1043333120	60	15682
2026-01-01 01:58:49.29	264.06	3.94	-44.8	-57.2	3.8	1.49e+00	0	58	104	1043333120	60	15680
2026-01-01 01:58:50.29	263.97	3.88	-44.8	-57.2	3.8	1.49e+00	0	58	104	1043333120	60	15633
2026-01-01 01:58:51.31	263.87	3.83	-44.8	-57.2	3.8	1.49e+00	0	58	104	1043333120	60	15677
2026-01-01 01:58:52.32	263.78	3.77	-44.9	-57.2	3.8	1.49e+00	0	58	104	1043333120	60	15689
2026-01-01 01:58:53.33	263.69	3.72	-44.8	-57.2	3.8	1.49e+00	0	58	104	1043333120	60	15660
2026-01-01 01:58:54.34	263.59	3.67	-44.9	-57.2	3.8	1.49e+00	0	58	104	1043333120	60	15703
2026-01-01 01:58:55.35	263.50	3.61	-44.8	-57.2	3.8	1.49e+00	0	58	104	1043333120	60	15678
2026-01-01 01:58:56.36	263.41	3.56	-44.8	-57.2	3.8	1.49e+00	0	58	104	1043333120	60	15678
2026-01-01 01:58:57.37	263.32	3.51	-44.8	-57.2	3.8	1.49e+00	0	58	104	1043333120	60	15680
2026-01-01 01:58:58.38	263.23	3.45	-44.8	-57.2	3.8	1.49e+00	0	58	104	1043333120	60	15680
2026-01-01 01:58:59.39	263.14	3.40	-44.8	-57.2	3.8	1.49e+00	0	58	104	1043333120	60	15687
2026-01-01 01:59:00.41	263.05	3.35	-44.8	-57.2	3.8	1.49e+00	0	58	104	1043333120	60	15665
2026-01-01 01:59:01.42	262.96	3.29	-44.8	-57.2	3.8	1.49e+00	0	58	104	1043333120	60	15642
2026-01-01 01:59:02.43	262.87	3.24	-44.8	-57.2	3.8	1.49e+00	0	58	104	1043333120	60	15672
2026-01-01 01:59:03.44	262.78	3.19	-44.9	-57.2	3.8	1.49e+00	0	58	104	1043333120	60	15650
2026-01-01 01:59:04.45	262.69	3.13	-44.8	-57.2	3.8	1.49e+00	0	58	104	1043333120	60	15658
2026-01-01 01:59:05.46	262.60	3.08	-44.8	-57.2	3.8	1.49e+00	0	58	104	1043333120	60	15619
2026-01-01 01:59:06.47	262.51	3.03	-44.8	-57.2	3.8	1.49e+00	0	58	104	1043333120	60	15674
2026-01-01 01:59:07.48	262.42	2.98	-44.8	-57.2	3.8	1.49e+00	0	58	104	1043333120	60	15637
2026-01-01 01:59:08.49	262.34	2.92	-44.8	-57.2	3.8	1.49e+00	0	58	104	1043333120	60	15634
2026-01-01 01:59:09.50	262.25	2.87	-44.8	-57.2	3.8	1.49e+00	0	58	104	1043333120	60	15588
2026-01-01 01:59:10.52	262.16	2.82	-44.9	-57.2	3.8	1.49e+00	0	58	104	1043333120	60	15633
2026-01-01 01:59:11.53	262.07	2.76	-44.8	-57.2	3.8	1.49e+00	0	58	104	1043333120	60	15633
2026-01-01 01:59:12.54	261.99	2.71	-44.8	-57.2	3.8	1.49e+00	0	58	104	1043333120	60	15690
2026-01-01 01:59:13.55	261.90	2.66	-44.8	-57.2	3.8	1.49e+00	0	58	104	1043333120	60	15628
2026-01-01 01:59:14.56	261.82	2.60	-44.8	-57.2	3.8	1.49e+00	0	58	104	1043333120	60	15636
2026-01-01 01:59:15.57	261.73	2.55	-44.8	-57.2	3.8	1.49e+00	0	58	104	1043333120	60	15629
2026-01-01 01:59:16.58	261.65	2.50	-44.8	-57.2	3.8	1.49e+00	0	58	104	1043333120	60	15638
2026-01-01 01:59:17.59	261.56	2.45	-44.8	-57.2	3.8	1.49e+00	0	58	104	1043333120	60	15644
2026-01-01 01:59:18.60	261.48	2.39	-44.8	-57.2	3.8	1.49e+00	0	58	104	1043333120	60	15650
2026-01-01 01:59:19.61	261.39	2.34	-44.8	-57.2	3.8	1.49e+00	0	58	104	1043333120	60	15703
2026-01-01 01:59:20.62	261.31	2.29	-44.8	-57.2	3.8	1.49e+00	0	58	104	1043333120	60	15619
2026-01-01 01:59:21.63	261.23	2.24	-44.8	-57.2	3.8	1.49e+00	0	58	104	1043333120	60	15626
2026-01-01 01:59:22.64	261.14	2.18	-44.8	-57.2	3.8	1.49e+00	0	58	104	1043333120	60	15653
2026-01-01 01:59:23.65	261.06	2.13	-44.8	-57.2	3.8	1.49e+00	0	58	104	1043333120	60	15622
2026-01-01 01:59:24.66	260.98	2.08	-44.8	-57.2	3.8	1.49e+00	0	58	104	1043333120	60	15661
2026-01-01 01:59:25.67	260.89	2.03	-44.8	-57.2	3.8	1.49e+00	0	58	104	1043333120	60	15658
2026-01-01 01:59:26.69	260.81	1.98	-44.8	-57.2	3.8	1.49e+00	0	58	104	1043333120	60	15608

#Closed at: 2026-01-01 01:59:27
#Recorded file [1043 MB]: D:/lorett/data/31039_260101_045031.dat