passes_logs/2026/01/01/R2.0S_Moscow/R2.0S_Moscow__20260101_013740_AQUA_rec.log

#Pass ID: 20260101_013740_AQUA
#Satellite: AQUA
#Configuration: AQUA
#almurnet v.1.7.20251203
#Start time: 2026-01-01 01:37:40

#Version: 2.2.20231116
#Station: R2.0S_Moscow
#Location: 37.707566 lon 55.798166 lat
#TLE: 1 27424U 02022A   25364.96158943  .00001951  00000+0  40088-3 0  9998
#TLE: 2 27424  98.4061 326.1389 0001917  95.3187 305.7939 14.61780362258696

#Time	Az	El	Level	Level2	SNR	BER	BlckErr	Temp	State	Recorded	gain1	gain2
2026-01-01 01:37:40.99	13.76	2.05	-44.3	-63.0	3.8	7.45e-01	0	48	0	0	60	30625
2026-01-01 01:37:41.99	13.75	2.11	-44.5	-63.4	3.8	7.44e-01	0	48	104	0	59	33770
2026-01-01 01:37:43.00	13.74	2.18	-44.5	-63.3	3.8	7.45e-01	0	48	104	0	59	33686
2026-01-01 01:37:44.02	13.72	2.25	-44.5	-63.4	3.8	7.48e-01	0	48	104	0	59	33787
2026-01-01 01:37:45.03	13.71	2.32	-44.5	-63.4	3.8	7.46e-01	0	48	104	0	59	33735
2026-01-01 01:37:46.04	13.70	2.38	-44.5	-63.4	3.8	7.47e-01	0	48	104	0	59	33819
2026-01-01 01:37:47.05	13.68	2.45	-44.5	-63.4	3.8	7.46e-01	0	49	104	0	59	33783
2026-01-01 01:37:48.06	13.67	2.52	-44.5	-63.4	3.8	7.45e-01	0	49	104	0	59	33782
2026-01-01 01:37:49.07	13.66	2.59	-44.5	-63.4	3.8	7.45e-01	0	49	104	0	59	33744
2026-01-01 01:37:50.08	13.64	2.65	-44.5	-63.4	3.8	7.45e-01	0	49	104	0	59	33788
2026-01-01 01:37:51.09	13.63	2.72	-44.5	-63.4	3.8	7.48e-01	0	49	104	0	59	33783
2026-01-01 01:37:52.11	13.62	2.79	-44.5	-63.4	3.8	7.49e-01	0	49	104	0	59	33783
2026-01-01 01:37:53.12	13.60	2.86	-44.5	-63.4	3.8	7.49e-01	0	49	104	0	59	33724
2026-01-01 01:37:54.13	13.59	2.93	-44.5	-63.4	3.8	7.44e-01	0	49	104	0	59	33708
2026-01-01 01:37:55.14	13.57	3.00	-44.5	-63.3	3.8	7.46e-01	0	49	104	0	59	33678
2026-01-01 01:37:56.15	13.56	3.07	-44.5	-63.4	3.8	7.45e-01	0	49	104	0	59	33745
2026-01-01 01:37:57.16	13.55	3.14	-44.5	-63.4	3.8	7.47e-01	0	49	104	0	59	33704
2026-01-01 01:37:58.17	13.53	3.21	-44.5	-63.4	3.8	7.46e-01	0	49	104	0	59	33745
2026-01-01 01:37:59.18	13.52	3.28	-44.5	-63.3	3.8	7.45e-01	0	49	104	0	59	33628
2026-01-01 01:38:00.19	13.50	3.35	-44.5	-63.3	3.8	7.46e-01	0	50	104	0	59	33605
2026-01-01 01:38:01.20	13.49	3.42	-44.5	-63.3	3.8	7.47e-01	0	50	104	0	59	33530
2026-01-01 01:38:02.22	13.47	3.49	-44.5	-63.3	3.8	7.42e-01	0	49	104	0	59	33496
2026-01-01 01:38:03.23	13.46	3.56	-44.5	-63.3	3.8	7.47e-01	0	50	104	0	59	33468
2026-01-01 01:38:04.24	13.44	3.63	-44.5	-63.3	3.8	7.43e-01	0	50	104	0	59	33362
2026-01-01 01:38:05.25	13.43	3.70	-44.5	-63.3	3.8	7.47e-01	0	50	104	0	59	33383
2026-01-01 01:38:06.26	13.41	3.77	-44.5	-63.3	3.8	7.45e-01	0	50	104	0	59	33453
2026-01-01 01:38:07.27	13.40	3.84	-44.5	-63.3	3.8	7.46e-01	0	50	104	0	59	33350
2026-01-01 01:38:08.28	13.38	3.91	-44.5	-63.3	3.8	7.47e-01	0	50	104	0	59	33400
2026-01-01 01:38:09.29	13.37	3.99	-44.5	-63.3	3.8	7.44e-01	0	50	104	0	59	33374
2026-01-01 01:38:10.30	13.35	4.06	-44.5	-63.3	3.8	7.46e-01	0	50	104	0	59	33380
2026-01-01 01:38:11.31	13.34	4.13	-44.5	-63.3	3.8	7.48e-01	0	50	104	0	59	33349
2026-01-01 01:38:12.33	13.32	4.20	-44.5	-63.3	3.8	7.47e-01	0	50	104	0	59	33427
2026-01-01 01:38:13.34	13.30	4.28	-44.5	-63.3	3.8	7.45e-01	0	50	104	0	59	33480
2026-01-01 01:38:14.35	13.29	4.35	-44.5	-63.3	3.8	7.46e-01	0	51	104	0	59	33648
2026-01-01 01:38:15.36	13.27	4.42	-44.5	-63.4	3.8	7.43e-01	0	50	104	0	59	33727
2026-01-01 01:38:16.37	13.26	4.50	-44.5	-63.3	3.8	7.39e-01	0	50	104	0	59	33681
2026-01-01 01:38:17.38	13.24	4.57	-44.5	-63.3	3.8	7.44e-01	0	51	104	0	59	33682
2026-01-01 01:38:18.39	13.22	4.64	-44.5	-63.4	3.8	7.44e-01	0	51	104	0	59	33705
2026-01-01 01:38:19.40	13.21	4.72	-44.5	-63.3	3.8	7.43e-01	0	51	104	0	59	33691
2026-01-01 01:38:20.42	13.19	4.79	-44.5	-63.3	3.8	7.44e-01	0	51	104	0	59	33668
2026-01-01 01:38:21.43	13.17	4.87	-44.5	-63.3	3.8	7.45e-01	0	51	104	0	59	33643
2026-01-01 01:38:22.44	13.16	4.94	-44.5	-63.3	3.8	7.45e-01	0	51	104	0	59	33506
2026-01-01 01:38:23.45	13.14	5.02	-44.5	-63.3	3.8	7.46e-01	0	51	104	0	59	33538
2026-01-01 01:38:24.46	13.12	5.09	-44.5	-63.2	3.8	7.45e-01	0	51	104	0	59	33233
2026-01-01 01:38:25.47	13.10	5.17	-44.5	-63.2	3.8	7.46e-01	0	51	104	0	59	32959
2026-01-01 01:38:26.48	13.09	5.24	-44.5	-63.1	3.8	7.45e-01	0	51	104	0	59	32774
2026-01-01 01:38:27.49	13.07	5.32	-44.4	-63.0	3.8	7.42e-01	0	51	104	0	59	32439
2026-01-01 01:38:28.50	13.05	5.39	-44.4	-62.9	3.8	7.46e-01	0	51	104	0	59	32040
2026-01-01 01:38:29.51	13.03	5.47	-44.4	-62.7	3.8	7.45e-01	0	51	104	0	59	31398
2026-01-01 01:38:30.52	13.02	5.55	-44.4	-62.7	3.8	7.45e-01	0	51	104	0	59	31178
2026-01-01 01:38:31.54	13.00	5.62	-44.4	-62.6	3.8	7.44e-01	0	51	104	0	59	30881
2026-01-01 01:38:32.55	12.98	5.70	-44.4	-62.5	3.8	7.46e-01	0	52	104	0	59	30605
2026-01-01 01:38:33.56	12.96	5.78	-44.4	-62.5	3.8	7.45e-01	0	51	104	0	59	30440
2026-01-01 01:38:34.57	12.94	5.86	-44.3	-62.4	3.8	7.49e-01	0	51	104	0	59	30072
2026-01-01 01:38:35.58	12.92	5.93	-44.3	-62.3	3.8	7.43e-01	0	51	104	0	59	29910
2026-01-01 01:38:36.59	12.91	6.01	-44.3	-62.2	3.8	7.45e-01	0	52	104	0	59	29574
2026-01-01 01:38:37.60	12.89	6.09	-44.3	-62.1	3.8	7.46e-01	0	52	104	0	59	29171
2026-01-01 01:38:38.61	12.87	6.17	-44.2	-61.9	3.8	7.41e-01	0	52	104	0	59	28646
2026-01-01 01:38:39.62	12.85	6.25	-44.2	-61.7	3.8	7.46e-01	0	52	104	0	59	27803
2026-01-01 01:38:40.63	12.83	6.33	-44.1	-61.2	3.8	7.46e-01	0	52	104	0	59	26349
2026-01-01 01:38:41.64	12.81	6.41	-43.9	-60.5	3.8	7.44e-01	0	52	104	0	59	24334
2026-01-01 01:38:42.65	12.79	6.49	-43.7	-59.7	3.8	7.46e-01	0	52	104	0	59	22199
2026-01-01 01:38:43.66	12.77	6.57	-43.5	-58.9	3.8	7.45e-01	0	52	104	0	58	21390
2026-01-01 01:38:44.67	12.75	6.65	-43.1	-57.9	3.8	7.44e-01	0	52	104	0	58	19050
2026-01-01 01:38:45.69	12.73	6.73	-42.7	-57.0	3.8	7.45e-01	0	52	104	0	57	18196
2026-01-01 01:38:46.70	12.71	6.81	-42.3	-56.1	3.8	7.47e-01	0	52	104	0	56	17400
2026-01-01 01:38:47.71	12.69	6.89	-41.8	-55.2	3.8	7.46e-01	0	52	104	0	55	16580
2026-01-01 01:38:48.72	12.67	6.97	-41.4	-54.4	3.8	7.49e-01	0	52	104	0	54	16031
2026-01-01 01:38:49.73	12.65	7.05	-41.0	-53.8	3.8	7.43e-01	0	52	104	0	54	14914
2026-01-01 01:38:50.74	12.63	7.13	-40.6	-53.2	3.8	7.45e-01	0	52	104	0	53	14719
2026-01-01 01:38:51.75	12.61	7.22	-40.3	-52.7	3.8	7.43e-01	0	52	104	0	52	14729
2026-01-01 01:38:52.76	12.59	7.30	-40.0	-52.2	3.8	7.44e-01	0	52	104	0	52	13908
2026-01-01 01:38:53.77	12.57	7.38	-39.9	-51.9	3.8	7.47e-01	0	52	104	0	51	14320
2026-01-01 01:38:54.78	12.55	7.46	-39.8	-51.8	3.8	7.45e-01	0	52	104	0	51	14099
2026-01-01 01:38:55.80	12.52	7.55	-39.6	-51.5	3.8	7.46e-01	0	52	104	0	51	13718
2026-01-01 01:38:56.81	12.50	7.63	-39.6	-51.6	3.8	7.42e-01	0	52	104	0	51	13760
2026-01-01 01:38:57.82	12.48	7.72	-39.7	-51.6	3.8	7.44e-01	0	52	104	0	51	13818
2026-01-01 01:38:58.83	12.46	7.80	-39.7	-51.7	3.8	7.44e-01	0	53	104	0	51	13977
2026-01-01 01:38:59.84	12.44	7.88	-39.9	-52.0	3.8	7.44e-01	0	52	104	0	51	14413
2026-01-01 01:39:00.85	12.41	7.97	-40.2	-52.4	3.8	7.44e-01	0	53	104	0	51	15098
2026-01-01 01:39:01.86	12.39	8.05	-40.4	-52.7	3.8	7.44e-01	0	52	104	0	51	15693
2026-01-01 01:39:02.87	12.37	8.14	-43.0	-57.1	3.8	7.44e-01	0	53	104	0	56	19427
2026-01-01 01:39:03.89	12.35	8.23	-41.8	-54.9	3.8	7.43e-01	0	53	104	0	55	16110
2026-01-01 01:39:04.89	12.32	8.31	-42.5	-57.1	3.8	7.47e-01	0	53	104	0	55	20745
2026-01-01 01:39:05.91	12.30	8.40	-40.2	-52.3	3.8	7.46e-01	0	53	104	0	51	14995
2026-01-01 01:39:06.92	12.28	8.49	-44.1	-60.9	3.8	7.48e-01	0	53	104	0	58	26901
2026-01-01 01:39:07.93	12.25	8.57	-39.4	-51.2	3.8	7.46e-01	0	53	104	0	50	13948
2026-01-01 01:39:08.94	12.23	8.66	-39.1	-50.8	3.8	7.43e-01	0	53	104	0	50	13362
2026-01-01 01:39:09.95	12.21	8.75	-39.0	-50.7	3.8	7.46e-01	0	53	104	0	50	13211
2026-01-01 01:39:10.96	12.18	8.84	-42.6	-56.7	3.8	7.48e-01	0	53	104	0	55	19739
2026-01-01 01:39:11.97	12.16	8.93	-40.0	-52.1	3.8	7.45e-01	0	53	104	0	52	13850
2026-01-01 01:39:12.98	12.13	9.01	-44.2	-61.3	3.8	7.47e-01	0	53	104	0	58	28032
2026-01-01 01:39:13.99	12.11	9.10	-41.5	-54.2	3.8	7.45e-01	0	53	104	0	53	16688
2026-01-01 01:39:15.00	12.08	9.19	-40.9	-54.7	3.8	7.44e-01	0	53	104	0	52	18623
2026-01-01 01:39:16.01	12.06	9.28	-39.3	-51.2	3.8	7.43e-01	0	53	104	0	50	14038
2026-01-01 01:39:17.02	12.03	9.37	-39.2	-51.1	3.8	7.43e-01	0	53	104	0	50	13817
2026-01-01 01:39:18.03	12.01	9.46	-39.1	-51.0	3.8	7.39e-01	0	53	104	0	50	13585
2026-01-01 01:39:19.04	11.98	9.55	-39.2	-50.9	3.8	7.48e-01	0	53	104	0	49	14271
2026-01-01 01:39:20.05	11.96	9.65	-41.8	-56.8	3.8	7.46e-01	0	53	104	0	54	21206
2026-01-01 01:39:21.06	11.93	9.74	-41.7	-54.6	3.8	7.46e-01	0	53	104	0	54	16479
2026-01-01 01:39:22.08	11.90	9.83	-41.3	-54.0	3.9	7.47e-01	0	53	104	0	53	16159
2026-01-01 01:39:23.08	11.88	9.92	-44.3	-61.0	3.9	7.49e-01	0	53	104	0	59	25830
2026-01-01 01:39:24.09	11.85	10.01	-40.0	-52.1	3.8	7.45e-01	0	53	104	0	52	13750
2026-01-01 01:39:25.10	11.82	10.11	-39.8	-51.7	3.8	7.41e-01	0	53	104	0	51	14009
2026-01-01 01:39:26.12	11.80	10.20	-39.6	-51.5	3.8	7.49e-01	0	54	104	0	51	13620
2026-01-01 01:39:27.13	11.77	10.30	-40.7	-53.1	3.8	7.44e-01	0	53	104	0	52	15551
2026-01-01 01:39:28.14	11.74	10.39	-39.2	-51.1	3.8	7.43e-01	0	53	104	0	50	13798
2026-01-01 01:39:29.15	11.71	10.49	-44.2	-61.4	3.8	7.43e-01	0	54	104	0	59	26769
2026-01-01 01:39:30.16	11.69	10.58	-40.9	-53.4	3.9	7.42e-01	0	54	104	0	53	15093
2026-01-01 01:39:31.17	11.66	10.68	-40.5	-54.1	3.9	7.42e-01	0	54	104	0	52	17460
2026-01-01 01:39:32.18	11.63	10.77	-39.1	-50.9	3.8	7.46e-01	0	54	104	0	50	13503
2026-01-01 01:39:33.19	11.60	10.87	-39.1	-50.9	3.8	7.43e-01	0	54	104	0	50	13488
2026-01-01 01:39:34.20	11.57	10.97	-39.1	-50.9	3.8	7.47e-01	0	54	104	0	50	13490
2026-01-01 01:39:35.21	11.54	11.06	-40.2	-53.2	3.8	7.46e-01	0	54	104	0	50	17674
2026-01-01 01:39:36.22	11.51	11.16	-41.2	-55.5	3.8	7.41e-01	0	54	104	0	53	19203
2026-01-01 01:39:37.23	11.48	11.26	-41.5	-54.2	3.8	7.40e-01	0	54	104	0	54	15660
2026-01-01 01:39:38.24	11.46	11.36	-40.8	-53.1	3.9	7.44e-01	0	54	104	0	53	14689
2026-01-01 01:39:39.25	11.43	11.46	-44.2	-60.8	3.8	7.43e-01	0	54	104	0	59	25245
2026-01-01 01:39:40.26	11.39	11.56	-39.9	-51.8	3.8	7.46e-01	0	54	104	0	51	14198
2026-01-01 01:39:41.27	11.36	11.66	-39.7	-51.5	3.8	7.42e-01	0	54	104	0	51	13685
2026-01-01 01:39:42.28	11.33	11.76	-39.5	-51.3	3.8	7.45e-01	0	54	104	0	51	13325
2026-01-01 01:39:43.29	11.30	11.86	-41.3	-53.9	3.8	7.44e-01	0	54	104	0	54	15126
2026-01-01 01:39:44.31	11.27	11.96	-38.9	-50.4	3.8	7.44e-01	0	54	104	0	49	13456
2026-01-01 01:39:45.32	11.24	12.06	-43.7	-59.2	3.9	7.42e-01	0	54	104	0	58	22142
2026-01-01 01:39:46.33	11.21	12.16	-39.8	-51.6	3.8	7.46e-01	0	54	104	0	51	13879
2026-01-01 01:39:47.34	11.18	12.27	-41.2	-54.1	3.9	7.42e-01	0	54	104	0	54	15405
2026-01-01 01:39:48.35	11.14	12.37	-38.9	-50.5	3.8	7.42e-01	0	54	104	0	49	13601
2026-01-01 01:39:49.36	11.11	12.47	-38.8	-50.4	3.8	7.41e-01	0	54	104	0	49	13418
2026-01-01 01:39:50.37	11.08	12.58	-39.0	-50.6	3.8	7.47e-01	0	54	104	0	49	13796
2026-01-01 01:39:51.38	11.04	12.68	-40.2	-52.2	3.8	7.43e-01	0	54	104	0	52	14032
2026-01-01 01:39:52.39	11.01	12.79	-38.8	-50.3	3.8	7.43e-01	0	54	104	0	49	13286
2026-01-01 01:39:53.40	10.98	12.89	-42.8	-56.6	3.9	7.44e-01	0	54	104	0	57	17378
2026-01-01 01:39:54.41	10.94	13.00	-38.9	-50.2	3.8	7.44e-01	0	54	104	0	49	13175
2026-01-01 01:39:55.42	10.91	13.10	-40.4	-52.3	3.8	7.43e-01	0	54	104	0	52	14115
2026-01-01 01:39:56.43	10.87	13.21	-38.5	-49.9	3.8	7.41e-01	0	54	104	0	49	12731
2026-01-01 01:39:57.44	10.84	13.32	-38.5	-49.9	3.8	7.42e-01	0	54	104	0	49	12781
2026-01-01 01:39:58.45	10.80	13.43	-39.1	-50.6	3.8	7.45e-01	0	54	104	0	49	13729
2026-01-01 01:39:59.46	10.77	13.53	-39.4	-50.9	3.8	7.47e-01	0	54	104	0	50	13481
2026-01-01 01:40:00.47	10.73	13.64	-38.8	-50.2	3.8	7.44e-01	0	54	104	0	49	13204
2026-01-01 01:40:01.49	10.70	13.75	-42.5	-55.8	3.9	7.45e-01	0	55	104	0	57	15920
2026-01-01 01:40:02.49	10.66	13.86	-38.5	-49.9	3.8	7.41e-01	0	55	104	0	49	12701
2026-01-01 01:40:03.51	10.62	13.98	-40.4	-52.2	3.8	7.45e-01	0	54	104	0	52	13922
2026-01-01 01:40:04.52	10.59	14.09	-39.0	-50.5	3.8	7.42e-01	0	54	104	0	49	13721
2026-01-01 01:40:05.53	10.55	14.20	-39.0	-50.5	3.8	7.47e-01	0	54	104	0	49	13705
2026-01-01 01:40:06.54	10.51	14.31	-38.6	-50.0	3.8	7.42e-01	0	55	104	0	49	12843
2026-01-01 01:40:07.55	10.47	14.42	-39.1	-50.5	3.9	7.41e-01	0	55	104	0	49	13621
2026-01-01 01:40:08.56	10.43	14.54	-40.3	-52.0	3.7	7.48e-01	0	55	104	0	50	15291
2026-01-01 01:40:09.57	10.39	14.65	-40.6	-43.4	18.6	5.99e-01	0	55	0	524288	53	4763
2026-01-01 01:40:10.58	10.35	14.77	-38.2	-40.1	23.1	6.01e-01	0	55	0	2097152	48	4341
2026-01-01 01:40:11.59	10.32	14.88	-39.0	-41.2	21.5	6.01e-01	0	54	0	4194304	50	4402
2026-01-01 01:40:12.60	10.28	15.00	-38.1	-39.9	23.2	6.01e-01	0	54	0	5767168	48	4291
2026-01-01 01:40:13.61	10.23	15.11	-38.0	-39.9	23.3	6.03e-01	0	55	0	7864320	48	4259
2026-01-01 01:40:14.62	10.19	15.23	-38.1	-39.9	23.3	6.02e-01	0	55	0	9961472	48	4269
2026-01-01 01:40:15.63	10.15	15.35	-38.1	-39.9	23.3	6.00e-01	0	55	0	11534336	48	4270
2026-01-01 01:40:16.64	10.11	15.47	-38.0	-39.8	23.4	6.02e-01	0	55	0	13631488	48	4233
2026-01-01 01:40:17.65	10.07	15.59	-37.6	-39.4	23.4	6.02e-01	0	55	0	15728640	47	4275
2026-01-01 01:40:18.66	10.03	15.71	-37.6	-39.4	23.4	6.00e-01	0	55	0	17301504	47	4281
2026-01-01 01:40:19.67	9.99	15.83	-37.5	-39.4	23.5	6.02e-01	0	55	0	19398656	47	4245
2026-01-01 01:40:20.68	9.94	15.95	-37.6	-39.4	23.5	5.99e-01	0	55	0	20971520	47	4268
2026-01-01 01:40:21.69	9.90	16.07	-37.5	-39.4	23.5	6.00e-01	0	55	0	23068672	47	4248
2026-01-01 01:40:22.70	9.85	16.19	-37.5	-39.4	23.5	6.03e-01	0	55	0	25165824	47	4250
2026-01-01 01:40:23.71	9.81	16.31	-37.6	-39.4	23.5	6.00e-01	0	55	0	26738688	47	4254
2026-01-01 01:40:24.72	9.77	16.44	-37.5	-39.3	23.6	6.04e-01	0	55	0	28835840	47	4226
2026-01-01 01:40:25.72	9.72	16.56	-37.5	-39.3	23.6	6.05e-01	0	55	0	30408704	47	4237
2026-01-01 01:40:26.73	9.68	16.68	-37.5	-39.3	23.6	5.99e-01	0	55	0	32505856	47	4230
2026-01-01 01:40:27.74	9.63	16.81	-37.6	-39.4	23.6	6.00e-01	0	55	0	34078720	47	4247
2026-01-01 01:40:28.75	9.58	16.94	-37.6	-39.4	23.6	6.00e-01	0	55	0	36175872	47	4245
2026-01-01 01:40:29.76	9.54	17.06	-37.6	-39.4	23.5	6.01e-01	0	55	0	38273024	47	4273
2026-01-01 01:40:30.77	9.49	17.19	-37.6	-39.4	23.5	6.00e-01	0	55	0	39845888	47	4266
2026-01-01 01:40:31.78	9.44	17.32	-37.6	-39.4	23.5	6.05e-01	0	55	0	41943040	47	4287
2026-01-01 01:40:32.79	9.39	17.45	-37.6	-39.5	23.5	6.03e-01	0	55	0	44040192	47	4297
2026-01-01 01:40:33.80	9.34	17.58	-37.6	-39.5	23.5	6.02e-01	0	55	0	45613056	47	4303
2026-01-01 01:40:34.81	9.29	17.71	-37.6	-39.4	23.5	6.02e-01	0	55	0	47710208	47	4290
2026-01-01 01:40:35.82	9.25	17.84	-37.6	-39.4	23.5	6.02e-01	0	55	0	49283072	47	4276
2026-01-01 01:40:36.83	9.20	17.97	-37.6	-39.5	23.5	6.04e-01	0	55	0	51380224	47	4293
2026-01-01 01:40:37.84	9.14	18.11	-37.6	-39.4	23.6	6.03e-01	0	55	0	53477376	47	4268
2026-01-01 01:40:38.85	9.09	18.24	-37.6	-39.5	23.5	6.02e-01	0	55	0	55050240	47	4294
2026-01-01 01:40:39.85	9.04	18.37	-37.6	-39.4	23.6	6.02e-01	0	55	0	57147392	47	4262
2026-01-01 01:40:40.86	8.99	18.51	-37.6	-39.4	23.6	6.01e-01	0	55	0	58720256	47	4253
2026-01-01 01:40:41.87	8.94	18.64	-37.6	-39.3	23.6	6.02e-01	0	55	0	60817408	47	4237
2026-01-01 01:40:42.88	8.88	18.78	-37.5	-39.3	23.6	6.05e-01	0	55	0	62914560	47	4234
2026-01-01 01:40:43.89	8.83	18.92	-37.6	-39.4	23.6	6.01e-01	0	55	0	64487424	47	4243
2026-01-01 01:40:44.90	8.78	19.06	-37.5	-39.3	23.7	6.00e-01	0	55	0	66584576	47	4227
2026-01-01 01:40:45.91	8.72	19.20	-37.5	-39.3	23.7	6.04e-01	0	55	0	68681728	47	4210
2026-01-01 01:40:46.92	8.66	19.34	-37.6	-39.3	23.7	6.02e-01	0	55	0	70254592	47	4238
2026-01-01 01:40:47.93	8.61	19.48	-37.6	-39.4	23.7	5.99e-01	0	55	0	72351744	47	4245
2026-01-01 01:40:48.94	8.55	19.62	-37.6	-39.4	23.6	5.99e-01	0	55	0	73924608	47	4252
2026-01-01 01:40:49.95	8.49	19.76	-37.6	-39.4	23.6	6.02e-01	0	55	0	76021760	47	4261
2026-01-01 01:40:50.96	8.44	19.90	-37.6	-39.4	23.6	6.02e-01	0	55	0	78118912	47	4280
2026-01-01 01:40:51.97	8.38	20.05	-37.6	-39.4	23.7	6.02e-01	0	55	0	79691776	47	4269
2026-01-01 01:40:52.98	8.32	20.19	-37.7	-39.5	23.6	6.01e-01	0	55	0	81788928	47	4301
2026-01-01 01:40:53.99	8.26	20.34	-37.6	-39.4	23.6	6.02e-01	0	55	0	83361792	47	4281
2026-01-01 01:40:55.00	8.20	20.49	-37.6	-39.4	23.6	6.01e-01	0	55	0	85458944	47	4289
2026-01-01 01:40:56.01	8.14	20.63	-37.7	-39.5	23.6	6.02e-01	0	55	0	87556096	47	4308
2026-01-01 01:40:57.02	8.08	20.78	-37.7	-39.5	23.6	6.01e-01	0	55	0	89128960	47	4319
2026-01-01 01:40:58.03	8.01	20.93	-37.7	-39.5	23.6	6.01e-01	0	55	0	91226112	47	4312
2026-01-01 01:40:59.04	7.95	21.08	-37.7	-39.5	23.6	6.01e-01	0	55	0	92798976	47	4311
2026-01-01 01:41:00.05	7.89	21.24	-37.7	-39.5	23.6	6.00e-01	0	55	0	94896128	47	4295
2026-01-01 01:41:01.06	7.82	21.39	-37.6	-39.4	23.6	6.04e-01	0	56	0	96993280	47	4282
2026-01-01 01:41:02.07	7.76	21.54	-37.6	-39.4	23.7	6.03e-01	0	55	0	98566144	47	4250
2026-01-01 01:41:03.08	7.69	21.70	-37.6	-39.4	23.7	6.03e-01	0	56	0	100663296	47	4256
2026-01-01 01:41:04.09	7.62	21.85	-37.5	-39.3	23.8	6.01e-01	0	55	0	102236160	47	4219
2026-01-01 01:41:05.10	7.56	22.01	-37.5	-39.3	23.8	6.02e-01	0	55	0	104333312	47	4218
2026-01-01 01:41:06.10	7.49	22.17	-37.5	-39.3	23.8	6.01e-01	0	56	0	106430464	47	4200
2026-01-01 01:41:07.12	7.42	22.33	-37.6	-39.4	23.7	6.00e-01	0	55	0	108003328	47	4246
2026-01-01 01:41:08.13	7.35	22.49	-37.5	-39.3	23.8	6.02e-01	0	55	0	110100480	47	4225
2026-01-01 01:41:09.14	7.28	22.65	-37.6	-39.4	23.7	6.02e-01	0	55	0	112197632	47	4253
2026-01-01 01:41:10.15	7.21	22.81	-37.7	-39.4	23.6	6.01e-01	0	55	0	113770496	47	4287
2026-01-01 01:41:11.16	7.14	22.97	-37.7	-39.5	23.6	6.01e-01	0	56	0	115867648	47	4305
2026-01-01 01:41:12.17	7.06	23.14	-37.7	-39.5	23.6	6.02e-01	0	56	0	117440512	47	4303
2026-01-01 01:41:13.18	6.99	23.30	-37.7	-39.5	23.6	6.01e-01	0	56	0	119537664	47	4314
2026-01-01 01:41:14.18	6.91	23.47	-37.8	-39.6	23.5	6.02e-01	0	56	0	121634816	47	4349
2026-01-01 01:41:15.19	6.84	23.63	-37.8	-39.7	23.5	6.01e-01	0	55	0	123207680	47	4393
2026-01-01 01:41:16.20	6.76	23.80	-37.9	-39.8	23.4	6.02e-01	0	55	0	125304832	47	4458
2026-01-01 01:41:17.21	6.69	23.97	-37.9	-39.8	23.4	6.03e-01	0	56	0	126877696	47	4464
2026-01-01 01:41:18.23	6.61	24.14	-38.0	-39.8	23.3	6.01e-01	0	56	0	128974848	47	4480
2026-01-01 01:41:19.24	6.53	24.32	-37.9	-39.8	23.4	6.03e-01	0	56	0	131072000	47	4457
2026-01-01 01:41:20.25	6.45	24.49	-37.9	-39.7	23.4	6.02e-01	0	56	0	132644864	47	4413
2026-01-01 01:41:21.25	6.37	24.66	-37.8	-39.6	23.5	6.01e-01	0	56	0	134742016	47	4379
2026-01-01 01:41:22.26	6.28	24.84	-37.7	-39.5	23.6	5.99e-01	0	56	0	136839168	47	4340
2026-01-01 01:41:23.27	6.20	25.01	-37.7	-39.5	23.7	6.02e-01	0	56	0	138412032	47	4308
2026-01-01 01:41:24.28	6.12	25.19	-37.7	-39.5	23.7	6.04e-01	0	55	0	140509184	47	4304
2026-01-01 01:41:25.29	6.03	25.37	-37.7	-39.5	23.6	6.02e-01	0	56	0	142082048	47	4315
2026-01-01 01:41:26.30	5.95	25.55	-37.7	-39.5	23.7	6.04e-01	0	56	0	144179200	47	4307
2026-01-01 01:41:27.31	5.86	25.73	-37.7	-39.5	23.7	6.04e-01	0	56	0	146276352	47	4306
2026-01-01 01:41:28.32	5.77	25.92	-37.6	-39.4	23.7	6.04e-01	0	56	0	147849216	47	4283
2026-01-01 01:41:29.34	5.68	26.10	-37.6	-39.4	23.8	6.01e-01	0	56	0	149946368	47	4268
2026-01-01 01:41:30.34	5.59	26.29	-37.6	-39.4	23.8	6.03e-01	0	56	0	151519232	47	4251
2026-01-01 01:41:31.35	5.50	26.47	-37.6	-39.4	23.8	6.02e-01	0	56	0	153616384	47	4247
2026-01-01 01:41:32.37	5.40	26.66	-37.6	-39.3	23.8	5.99e-01	0	56	0	155713536	47	4233
2026-01-01 01:41:33.37	5.31	26.85	-37.5	-39.3	23.9	6.02e-01	0	56	0	157286400	47	4215
2026-01-01 01:41:34.38	5.21	27.04	-37.5	-39.2	24.0	6.01e-01	0	56	0	159383552	47	4174
2026-01-01 01:41:35.39	5.12	27.23	-37.5	-39.2	24.0	6.05e-01	0	56	0	160956416	46	4407
2026-01-01 01:41:36.41	5.02	27.43	-37.4	-39.2	24.0	6.04e-01	0	56	0	163053568	46	4409
2026-01-01 01:41:37.41	4.92	27.62	-37.4	-39.2	23.9	6.01e-01	0	56	0	165150720	46	4404
2026-01-01 01:41:38.42	4.82	27.82	-37.4	-39.1	24.1	6.01e-01	0	56	0	166723584	46	4363
2026-01-01 01:41:39.44	4.72	28.02	-37.3	-39.0	24.2	6.01e-01	0	56	0	168820736	46	4313
2026-01-01 01:41:40.44	4.61	28.22	-37.2	-38.9	24.3	6.00e-01	0	56	0	170917888	46	4279
2026-01-01 01:41:41.46	4.51	28.42	-37.2	-38.9	24.3	6.01e-01	0	56	0	172490752	46	4270
2026-01-01 01:41:42.46	4.40	28.62	-37.3	-39.0	24.2	5.99e-01	0	56	0	174587904	46	4302
2026-01-01 01:41:43.48	4.29	28.82	-37.3	-39.1	24.2	6.01e-01	0	56	0	176160768	46	4341
2026-01-01 01:41:44.48	4.19	29.03	-37.4	-39.1	24.1	6.00e-01	0	56	0	178257920	46	4360
2026-01-01 01:41:45.49	4.08	29.23	-37.3	-39.1	24.2	6.01e-01	0	56	0	180355072	46	4343
2026-01-01 01:41:46.50	3.96	29.44	-37.3	-39.0	24.3	6.03e-01	0	56	0	181927936	46	4305
2026-01-01 01:41:47.52	3.85	29.65	-37.1	-38.8	24.4	6.02e-01	0	56	0	184025088	46	4230
2026-01-01 01:41:48.52	3.73	29.86	-37.0	-38.7	24.5	6.01e-01	0	56	0	185597952	46	4162
2026-01-01 01:41:49.53	3.62	30.08	-37.0	-38.6	24.6	6.02e-01	0	56	0	187695104	45	4365
2026-01-01 01:41:50.54	3.50	30.29	-37.0	-38.6	24.6	6.02e-01	0	56	0	189792256	45	4376
2026-01-01 01:41:51.55	3.38	30.51	-37.1	-38.8	24.4	6.01e-01	0	56	0	191365120	45	4463
2026-01-01 01:41:52.56	3.26	30.73	-37.2	-38.9	24.3	6.02e-01	0	56	0	193462272	45	4521
2026-01-01 01:41:53.57	3.13	30.94	-37.3	-39.0	24.2	6.02e-01	0	56	0	195035136	45	4564
2026-01-01 01:41:54.58	3.01	31.17	-37.3	-39.0	24.2	6.02e-01	0	56	0	197132288	45	4576
2026-01-01 01:41:55.59	2.88	31.39	-37.3	-39.0	24.2	6.00e-01	0	56	0	199229440	45	4554
2026-01-01 01:41:56.60	2.75	31.61	-37.3	-38.9	24.3	6.00e-01	0	56	0	200802304	45	4539
2026-01-01 01:41:57.61	2.62	31.84	-37.2	-38.9	24.4	6.03e-01	0	56	0	202899456	45	4524
2026-01-01 01:41:58.62	2.49	32.07	-37.2	-38.9	24.4	6.00e-01	0	56	0	204996608	45	4505
2026-01-01 01:41:59.63	2.35	32.30	-37.3	-39.0	24.3	6.01e-01	0	56	0	206569472	45	4571
2026-01-01 01:42:00.64	2.21	32.53	-37.3	-39.0	24.2	6.00e-01	0	56	0	208666624	45	4582
2026-01-01 01:42:01.65	2.08	32.76	-37.3	-39.0	24.3	6.00e-01	0	56	0	210239488	45	4552
2026-01-01 01:42:02.66	1.93	32.99	-37.2	-38.9	24.4	6.01e-01	0	56	0	212336640	45	4510
2026-01-01 01:42:03.67	1.79	33.23	-37.2	-38.9	24.4	6.01e-01	0	56	0	214433792	45	4512
2026-01-01 01:42:04.68	1.65	33.47	-37.3	-39.0	24.3	6.01e-01	0	56	0	216006656	45	4569
2026-01-01 01:42:05.69	1.50	33.71	-37.4	-39.1	24.2	6.02e-01	0	56	0	218103808	45	4617
2026-01-01 01:42:06.70	1.35	33.95	-37.6	-39.4	24.0	6.04e-01	0	56	0	220200960	45	4763
2026-01-01 01:42:07.72	1.19	34.20	-37.9	-39.7	23.6	6.03e-01	0	56	0	221773824	46	4675
2026-01-01 01:42:08.72	1.04	34.44	-38.1	-39.9	23.4	6.00e-01	0	56	0	223870976	46	4789
2026-01-01 01:42:09.73	0.88	34.69	-38.0	-39.9	23.4	6.02e-01	0	56	0	225443840	46	4770
2026-01-01 01:42:10.75	0.72	34.94	-38.0	-39.8	23.6	6.01e-01	0	56	0	227540992	46	4712
2026-01-01 01:42:11.75	0.56	35.18	-38.0	-39.8	23.6	6.05e-01	0	56	0	229638144	46	4739
2026-01-01 01:42:12.76	0.39	35.44	-38.0	-39.8	23.5	6.01e-01	0	56	0	231211008	46	4749
2026-01-01 01:42:13.77	0.22	35.69	-38.1	-39.9	23.2	6.02e-01	0	56	0	233308160	46	4803
2026-01-01 01:42:14.78	0.05	35.95	-38.4	-40.3	23.1	6.02e-01	0	56	0	234881024	47	4740
2026-01-01 01:42:15.79	359.88	36.21	-39.2	-41.2	22.7	6.01e-01	0	56	0	236978176	48	4931
2026-01-01 01:42:16.80	359.70	36.47	-39.6	-41.7	22.1	6.03e-01	0	56	0	239075328	49	4949
2026-01-01 01:42:17.81	359.52	36.73	-39.6	-41.7	22.1	6.02e-01	0	56	0	240648192	49	4945
2026-01-01 01:42:18.82	359.34	36.99	-39.3	-41.3	22.5	6.02e-01	0	56	0	242745344	49	4729
2026-01-01 01:42:19.83	359.16	37.26	-39.2	-41.1	22.6	5.98e-01	0	56	0	244318208	49	4651
2026-01-01 01:42:20.84	358.97	37.53	-39.3	-41.3	22.5	6.02e-01	0	56	0	246415360	49	4740
2026-01-01 01:42:21.85	358.77	37.80	-39.7	-41.8	22.1	6.03e-01	0	56	0	248512512	49	5010
2026-01-01 01:42:22.86	358.58	38.07	-40.0	-42.2	21.7	6.01e-01	0	56	0	250085376	50	4946
2026-01-01 01:42:23.87	358.38	38.34	-40.0	-42.2	21.6	6.02e-01	0	56	0	252182528	50	4968
2026-01-01 01:42:24.88	358.18	38.62	-39.8	-41.9	21.9	6.01e-01	0	56	0	253755392	50	4810
2026-01-01 01:42:25.89	357.97	38.90	-39.5	-41.6	22.2	6.06e-01	0	56	0	255852544	50	4625
2026-01-01 01:42:26.90	357.76	39.18	-39.5	-41.6	22.3	6.03e-01	0	56	0	257949696	50	4610
2026-01-01 01:42:27.91	357.55	39.46	-39.6	-41.6	22.2	6.01e-01	0	56	0	259522560	50	4645
2026-01-01 01:42:28.92	357.33	39.74	-39.8	-42.0	21.9	6.00e-01	0	56	0	261619712	50	4839
2026-01-01 01:42:29.93	357.11	40.03	-40.0	-42.2	21.6	6.00e-01	0	56	0	263192576	50	4981
2026-01-01 01:42:30.95	356.88	40.32	-39.7	-41.8	22.0	6.02e-01	0	56	0	265289728	50	4732
2026-01-01 01:42:31.96	356.65	40.61	-39.5	-41.6	22.2	6.01e-01	0	56	0	267386880	50	4637
2026-01-01 01:42:32.97	356.42	40.90	-39.5	-41.6	22.3	6.03e-01	0	56	0	268959744	50	4621
2026-01-01 01:42:33.98	356.18	41.19	-39.4	-41.4	22.4	6.00e-01	0	56	0	271056896	50	4532
2026-01-01 01:42:34.99	355.93	41.49	-39.3	-41.3	22.5	6.00e-01	0	56	0	273154048	50	4492
2026-01-01 01:42:36.00	355.69	41.79	-39.4	-41.4	22.4	6.01e-01	0	56	0	274726912	50	4537
2026-01-01 01:42:37.01	355.43	42.09	-39.3	-41.3	22.6	6.00e-01	0	56	0	276824064	50	4468
2026-01-01 01:42:38.02	355.18	42.39	-39.1	-41.1	22.8	6.01e-01	0	56	0	278396928	50	4363
2026-01-01 01:42:39.03	354.91	42.69	-39.0	-40.9	22.9	6.03e-01	0	56	0	280494080	50	4277
2026-01-01 01:42:40.04	354.65	43.00	-38.8	-40.6	23.2	6.00e-01	0	56	0	282591232	49	4380
2026-01-01 01:42:41.05	354.37	43.30	-38.6	-40.4	23.4	6.02e-01	0	56	0	284164096	49	4291
2026-01-01 01:42:42.06	354.10	43.61	-38.8	-40.7	23.2	6.03e-01	0	56	0	286261248	49	4411
2026-01-01 01:42:43.07	353.81	43.92	-38.7	-40.6	23.3	6.01e-01	0	56	0	288358400	49	4351
2026-01-01 01:42:44.08	353.52	44.24	-38.4	-40.2	23.6	6.02e-01	0	56	0	289931264	48	4430
2026-01-01 01:42:45.09	353.23	44.55	-38.3	-40.1	23.7	6.02e-01	0	56	0	292028416	48	4367
2026-01-01 01:42:46.10	352.92	44.87	-38.8	-40.7	23.2	6.01e-01	0	57	0	293601280	48	4668
2026-01-01 01:42:47.11	352.62	45.18	-38.6	-40.5	23.3	6.03e-01	0	56	0	295698432	48	4567
2026-01-01 01:42:48.12	352.30	45.50	-38.2	-40.0	23.8	6.00e-01	0	56	0	297795584	48	4304
2026-01-01 01:42:49.13	351.98	45.83	-38.3	-40.1	23.8	6.00e-01	0	56	0	299368448	48	4343
2026-01-01 01:42:50.14	351.65	46.15	-38.9	-40.8	23.1	6.03e-01	0	56	0	301465600	48	4717
2026-01-01 01:42:51.15	351.32	46.47	-38.8	-40.7	23.2	6.00e-01	0	56	0	303038464	48	4662
2026-01-01 01:42:52.16	350.98	46.80	-38.5	-40.3	23.5	6.02e-01	0	56	0	305135616	48	4479
2026-01-01 01:42:53.17	350.63	47.13	-38.4	-40.2	23.7	6.02e-01	0	56	0	307232768	48	4416
2026-01-01 01:42:54.18	350.27	47.46	-38.4	-40.2	23.7	6.02e-01	0	56	0	308805632	48	4416
2026-01-01 01:42:55.19	349.91	47.79	-38.7	-40.5	23.4	6.02e-01	0	56	0	310902784	48	4584
2026-01-01 01:42:56.20	349.53	48.12	-38.7	-40.6	23.3	6.03e-01	0	56	0	312999936	48	4608
2026-01-01 01:42:57.21	349.15	48.46	-38.5	-40.3	23.6	5.99e-01	0	57	0	314572800	48	4468
2026-01-01 01:42:58.22	348.76	48.79	-38.6	-40.4	23.5	6.03e-01	0	57	0	316669952	48	4537
2026-01-01 01:42:59.23	348.36	49.13	-38.4	-40.2	23.6	6.02e-01	0	56	0	318242816	48	4412
2026-01-01 01:43:00.24	347.96	49.46	-38.5	-40.3	23.6	6.02e-01	0	56	0	320339968	48	4480
2026-01-01 01:43:01.25	347.54	49.80	-38.8	-40.7	23.2	6.03e-01	0	56	0	322437120	48	4653
2026-01-01 01:43:02.26	347.11	50.14	-38.4	-40.1	23.7	5.99e-01	0	56	0	324009984	48	4379
2026-01-01 01:43:03.27	346.68	50.48	-38.2	-40.0	23.9	5.99e-01	0	57	0	326107136	48	4317
2026-01-01 01:43:04.28	346.23	50.82	-38.2	-39.9	23.9	6.03e-01	0	56	0	327680000	48	4283
2026-01-01 01:43:05.29	345.77	51.17	-38.1	-39.8	24.0	6.01e-01	0	56	0	329777152	48	4222
2026-01-01 01:43:06.30	345.31	51.51	-37.6	-39.3	24.2	6.03e-01	0	56	0	331874304	47	4230
2026-01-01 01:43:07.31	344.83	51.85	-37.5	-39.2	24.2	6.01e-01	0	57	0	333447168	46	4403
2026-01-01 01:43:08.32	344.34	52.20	-37.6	-39.3	24.1	6.01e-01	0	57	0	335544320	46	4492
2026-01-01 01:43:09.33	343.84	52.54	-37.4	-39.0	24.4	5.99e-01	0	56	0	337117184	46	4323
2026-01-01 01:43:10.34	343.32	52.88	-37.3	-39.0	24.5	6.03e-01	0	56	0	339214336	46	4323
2026-01-01 01:43:11.35	342.80	53.23	-37.6	-39.4	24.1	6.01e-01	0	57	0	341311488	46	4499
2026-01-01 01:43:12.36	342.26	53.57	-37.1	-38.7	24.7	6.02e-01	0	56	0	342884352	46	4154
2026-01-01 01:43:13.37	341.70	53.92	-37.3	-39.0	24.4	6.02e-01	0	56	0	344981504	46	4306
2026-01-01 01:43:14.38	341.14	54.26	-37.1	-38.7	24.7	6.01e-01	0	56	0	346554368	46	4189
2026-01-01 01:43:15.39	340.56	54.61	-37.3	-39.0	24.4	5.99e-01	0	57	0	348651520	46	4309
2026-01-01 01:43:16.40	339.96	54.95	-37.2	-38.8	24.6	6.05e-01	0	57	0	350748672	46	4224
2026-01-01 01:43:17.41	339.36	55.29	-37.4	-39.0	24.4	6.00e-01	0	56	0	352321536	46	4326
2026-01-01 01:43:18.42	338.73	55.63	-37.6	-39.3	24.1	6.01e-01	0	57	0	354418688	46	4461
2026-01-01 01:43:19.43	338.09	55.97	-37.6	-39.4	24.1	5.99e-01	0	56	0	356515840	46	4502
2026-01-01 01:43:20.44	337.44	56.31	-37.7	-39.5	24.0	6.01e-01	0	56	0	358088704	46	4560
2026-01-01 01:43:21.45	336.77	56.65	-37.9	-39.6	23.9	6.01e-01	0	57	0	360185856	46	4636
2026-01-01 01:43:22.46	336.08	56.98	-38.2	-40.0	23.4	6.03e-01	0	57	0	361758720	46	4869
2026-01-01 01:43:23.47	335.37	57.31	-38.2	-40.0	23.5	6.03e-01	0	57	0	363855872	46	4829
2026-01-01 01:43:24.48	334.65	57.64	-38.4	-40.3	23.2	6.02e-01	0	56	0	365953024	47	4721
2026-01-01 01:43:25.49	333.91	57.97	-38.4	-40.3	23.2	6.03e-01	0	56	0	367525888	47	4711
2026-01-01 01:43:26.50	333.15	58.30	-38.4	-40.3	23.2	5.99e-01	0	57	0	369623040	47	4719
2026-01-01 01:43:27.51	332.37	58.62	-38.6	-40.6	22.9	6.00e-01	0	56	0	371195904	47	4888
2026-01-01 01:43:28.52	331.57	58.94	-38.9	-40.9	23.0	6.00e-01	0	56	0	373293056	48	4764
2026-01-01 01:43:29.53	330.76	59.26	-38.9	-40.8	23.1	6.02e-01	0	57	0	375390208	48	4750
2026-01-01 01:43:30.54	329.92	59.57	-38.9	-40.7	23.2	6.02e-01	0	57	0	376963072	48	4695
2026-01-01 01:43:31.55	329.06	59.88	-39.3	-41.3	22.6	6.01e-01	0	56	0	379060224	49	4738
2026-01-01 01:43:32.56	328.18	60.18	-38.9	-40.8	22.9	6.05e-01	0	56	0	381157376	49	4460
2026-01-01 01:43:33.57	327.28	60.48	-39.1	-41.1	22.8	6.02e-01	0	56	0	382730240	49	4620
2026-01-01 01:43:34.58	326.36	60.77	-39.5	-41.5	22.3	6.02e-01	0	56	0	384827392	49	4846
2026-01-01 01:43:35.59	325.42	61.06	-39.5	-41.5	22.3	6.02e-01	0	57	0	386400256	49	4868
2026-01-01 01:43:36.60	324.45	61.35	-39.3	-41.3	22.6	6.02e-01	0	56	0	388497408	49	4714
2026-01-01 01:43:37.61	323.46	61.62	-39.9	-42.1	21.8	6.01e-01	0	56	0	390594560	50	4887
2026-01-01 01:43:38.62	322.46	61.89	-39.7	-41.8	22.1	6.03e-01	0	57	0	392167424	50	4706
2026-01-01 01:43:39.63	321.42	62.16	-39.7	-41.8	22.1	6.02e-01	0	57	0	394264576	50	4759
2026-01-01 01:43:40.64	320.37	62.42	-39.5	-41.6	22.3	6.02e-01	0	57	0	395837440	50	4623
2026-01-01 01:43:41.65	319.29	62.66	-40.0	-42.2	21.6	6.03e-01	0	56	0	397934592	50	4971
2026-01-01 01:43:42.66	318.19	62.91	-39.6	-41.6	22.3	6.04e-01	0	57	0	400031744	50	4636
2026-01-01 01:43:43.67	317.07	63.14	-39.8	-42.0	22.0	6.02e-01	0	57	0	401604608	50	4822
2026-01-01 01:43:44.68	315.93	63.37	-40.4	-42.8	21.2	6.04e-01	0	57	0	403701760	51	5004
2026-01-01 01:43:45.69	314.76	63.58	-40.2	-42.5	21.4	6.03e-01	0	57	0	405274624	51	4828
2026-01-01 01:43:46.70	313.57	63.79	-40.2	-42.4	21.5	6.02e-01	0	57	0	407371776	51	4787
2026-01-01 01:43:47.71	312.37	63.99	-40.7	-43.2	20.8	6.00e-01	0	57	0	409468928	51	5245
2026-01-01 01:43:48.72	311.14	64.17	-40.9	-43.6	20.2	6.00e-01	0	57	0	411041792	52	5171
2026-01-01 01:43:49.73	309.89	64.35	-40.3	-42.6	21.2	5.98e-01	0	57	0	413138944	52	4649
2026-01-01 01:43:50.74	308.62	64.52	-40.9	-43.5	20.5	6.01e-01	0	57	0	414711808	52	5125
2026-01-01 01:43:51.75	307.34	64.67	-41.1	-43.8	20.1	6.00e-01	0	57	0	416808960	53	5008
2026-01-01 01:43:52.76	306.04	64.82	-41.0	-43.7	20.1	6.00e-01	0	57	0	418906112	53	4957
2026-01-01 01:43:53.77	304.72	64.95	-41.2	-43.9	19.9	6.02e-01	0	57	0	420478976	53	5070
2026-01-01 01:43:54.78	303.38	65.07	-41.1	-43.8	20.1	6.02e-01	0	56	0	422576128	53	4990
2026-01-01 01:43:55.79	302.04	65.18	-40.8	-43.4	20.4	6.02e-01	0	57	0	424673280	53	4781
2026-01-01 01:43:56.80	300.68	65.28	-41.0	-43.6	20.2	6.03e-01	0	57	0	426246144	53	4922
2026-01-01 01:43:57.81	299.30	65.36	-41.0	-43.6	20.2	6.03e-01	0	57	0	428343296	53	4916
2026-01-01 01:43:58.82	297.92	65.43	-41.1	-43.8	20.1	6.02e-01	0	57	0	429916160	53	5037
2026-01-01 01:43:59.83	296.53	65.49	-41.2	-44.0	20.0	6.06e-01	0	57	0	432013312	53	5105
2026-01-01 01:44:00.84	295.14	65.54	-41.4	-44.2	19.6	6.02e-01	0	57	0	434110464	53	5272
2026-01-01 01:44:01.85	293.74	65.57	-41.0	-43.7	20.2	6.01e-01	0	57	0	435683328	53	4927
2026-01-01 01:44:02.86	292.33	65.59	-41.6	-44.6	19.3	6.04e-01	0	57	0	437780480	53	5505
2026-01-01 01:44:03.87	290.93	65.59	-41.5	-44.4	19.5	6.00e-01	0	57	0	439353344	53	5377
2026-01-01 01:44:04.88	289.52	65.59	-41.6	-44.5	19.4	6.01e-01	0	57	0	441450496	54	5139
2026-01-01 01:44:05.89	288.12	65.57	-41.7	-44.7	19.2	6.03e-01	0	57	0	443547648	54	5219
2026-01-01 01:44:06.90	286.72	65.53	-41.9	-45.0	18.8	6.03e-01	0	57	0	445120512	54	5433
2026-01-01 01:44:07.91	285.32	65.48	-41.3	-44.0	19.9	5.99e-01	0	57	0	447217664	54	4861
2026-01-01 01:44:08.92	283.93	65.42	-41.7	-44.7	19.3	6.00e-01	0	57	0	449314816	54	5237
2026-01-01 01:44:09.93	282.55	65.35	-41.3	-44.1	19.8	6.02e-01	0	57	0	450887680	54	4882
2026-01-01 01:44:10.94	281.18	65.27	-41.5	-44.4	19.4	6.01e-01	0	57	0	452984832	54	5091
2026-01-01 01:44:11.95	279.82	65.17	-41.4	-44.2	19.7	6.01e-01	0	57	0	454557696	54	4959
2026-01-01 01:44:12.96	278.47	65.06	-41.7	-44.7	19.3	6.01e-01	0	57	0	456654848	54	5220
2026-01-01 01:44:13.97	277.14	64.93	-41.5	-44.4	19.5	6.01e-01	0	57	0	458752000	54	5076
2026-01-01 01:44:14.98	275.82	64.80	-41.9	-45.0	19.0	6.03e-01	0	57	0	460324864	54	5433
2026-01-01 01:44:15.99	274.52	64.65	-41.5	-44.3	19.6	6.02e-01	0	57	0	462422016	54	5023
2026-01-01 01:44:17.00	273.24	64.49	-41.9	-45.0	18.9	5.99e-01	0	57	0	463994880	54	5413
2026-01-01 01:44:18.01	271.97	64.33	-41.5	-44.4	19.5	6.02e-01	0	57	0	466092032	54	5075
2026-01-01 01:44:19.02	270.73	64.15	-41.8	-44.8	19.1	6.02e-01	0	57	0	468189184	54	5334
2026-01-01 01:44:20.03	269.50	63.96	-41.3	-44.1	19.8	6.01e-01	0	57	0	469762048	54	4915
2026-01-01 01:44:21.04	268.29	63.76	-41.3	-44.0	19.8	6.01e-01	0	57	0	471859200	54	4855
2026-01-01 01:44:22.05	267.11	63.55	-41.1	-43.8	19.8	6.02e-01	0	57	0	473956352	54	4736
2026-01-01 01:44:23.06	265.95	63.33	-41.4	-44.2	19.7	6.01e-01	0	57	0	475529216	54	4970
2026-01-01 01:44:24.07	264.80	63.11	-40.7	-43.2	20.6	6.02e-01	0	57	0	477626368	53	4696
2026-01-01 01:44:25.08	263.68	62.87	-40.6	-43.0	20.9	6.02e-01	0	57	0	479199232	53	4571
2026-01-01 01:44:26.08	262.60	62.63	-41.0	-43.7	20.2	6.00e-01	0	57	0	481296384	53	4936
2026-01-01 01:44:27.09	261.52	62.38	-40.6	-43.0	20.7	6.01e-01	0	57	0	482869248	53	4597
2026-01-01 01:44:28.10	260.47	62.12	-40.0	-42.3	21.6	6.00e-01	0	57	0	484966400	52	4450
2026-01-01 01:44:29.11	259.44	61.85	-41.0	-43.7	20.2	6.00e-01	0	57	0	487063552	52	5227
2026-01-01 01:44:30.12	258.43	61.58	-40.4	-42.8	21.0	6.00e-01	0	57	0	488636416	52	4739
2026-01-01 01:44:31.13	257.44	61.30	-40.1	-42.3	21.6	6.00e-01	0	57	0	490733568	51	4751
2026-01-01 01:44:32.14	256.48	61.02	-40.4	-42.8	21.2	6.02e-01	0	57	0	492830720	51	4998
2026-01-01 01:44:33.15	255.54	60.73	-40.4	-42.8	21.1	6.01e-01	0	57	0	494403584	51	5033
2026-01-01 01:44:34.16	254.62	60.43	-39.8	-41.9	21.9	6.04e-01	0	57	0	496500736	51	4522
2026-01-01 01:44:35.17	253.72	60.13	-40.0	-42.2	21.8	6.03e-01	0	57	0	498073600	51	4666
2026-01-01 01:44:36.18	252.84	59.83	-40.1	-42.3	21.6	6.03e-01	0	57	0	500170752	51	4753
2026-01-01 01:44:37.19	251.99	59.52	-39.7	-41.8	22.1	6.01e-01	0	57	0	502267904	51	4492
2026-01-01 01:44:38.20	251.15	59.20	-39.6	-41.6	22.2	6.02e-01	0	57	0	503840768	51	4390
2026-01-01 01:44:39.21	250.34	58.89	-39.4	-41.4	22.5	6.04e-01	0	57	0	505937920	50	4520
2026-01-01 01:44:40.22	249.54	58.57	-39.4	-41.5	22.5	6.04e-01	0	57	0	507510784	50	4555
2026-01-01 01:44:41.23	248.76	58.24	-39.3	-41.4	22.5	6.02e-01	0	57	0	509607936	50	4506
2026-01-01 01:44:42.24	248.00	57.91	-38.9	-40.8	23.1	6.01e-01	0	57	0	511705088	49	4458
2026-01-01 01:44:43.25	247.26	57.58	-38.8	-40.7	23.2	6.01e-01	0	57	0	513277952	49	4418
2026-01-01 01:44:44.26	246.54	57.25	-39.0	-40.9	23.0	6.00e-01	0	57	0	515375104	49	4534
2026-01-01 01:44:45.27	245.84	56.92	-38.9	-40.8	23.1	6.01e-01	0	57	0	517472256	49	4476
2026-01-01 01:44:46.28	245.15	56.58	-38.3	-40.1	23.7	6.01e-01	0	57	0	519045120	48	4341
2026-01-01 01:44:47.29	244.48	56.24	-38.1	-39.8	23.9	6.00e-01	0	57	0	521142272	48	4237
2026-01-01 01:44:48.30	243.83	55.90	-38.4	-40.2	23.7	6.04e-01	0	57	0	522715136	48	4394
2026-01-01 01:44:49.31	243.19	55.56	-38.4	-40.2	23.6	6.03e-01	0	57	0	524812288	48	4436
2026-01-01 01:44:50.32	242.56	55.22	-38.1	-39.8	24.0	6.00e-01	0	57	0	526909440	48	4214
2026-01-01 01:44:51.33	241.96	54.88	-37.5	-39.2	24.2	6.02e-01	0	57	0	528482304	47	4176
2026-01-01 01:44:52.34	241.36	54.53	-37.6	-39.4	24.1	6.03e-01	0	57	0	530579456	46	4500
2026-01-01 01:44:53.35	240.79	54.19	-37.7	-39.4	24.0	6.02e-01	0	57	0	532152320	46	4525
2026-01-01 01:44:54.36	240.22	53.84	-37.3	-38.9	24.5	6.02e-01	0	57	0	534249472	46	4264
2026-01-01 01:44:55.37	239.67	53.50	-37.4	-39.0	24.4	6.00e-01	0	57	0	536346624	46	4336
2026-01-01 01:44:56.38	239.13	53.15	-37.2	-38.9	24.5	6.02e-01	0	57	0	537919488	46	4267
2026-01-01 01:44:57.39	238.61	52.81	-37.1	-38.7	24.7	6.01e-01	0	57	0	540016640	46	4193
2026-01-01 01:44:58.40	238.09	52.46	-37.3	-39.0	24.4	6.03e-01	0	57	0	542113792	46	4295
2026-01-01 01:44:59.41	237.59	52.12	-37.4	-39.1	24.4	6.03e-01	0	57	0	543686656	46	4347
2026-01-01 01:45:00.42	237.10	51.77	-36.9	-38.5	24.9	6.04e-01	0	57	0	545783808	45	4326
2026-01-01 01:45:01.43	236.62	51.43	-36.9	-38.5	24.9	6.04e-01	0	57	0	547356672	45	4303
2026-01-01 01:45:02.44	236.16	51.08	-37.0	-38.6	24.8	6.03e-01	0	57	0	549453824	45	4353
2026-01-01 01:45:03.45	235.70	50.74	-37.6	-39.4	24.1	6.01e-01	0	57	0	551550976	45	4770
2026-01-01 01:45:04.46	235.26	50.40	-37.5	-39.2	24.2	6.02e-01	0	57	0	553123840	45	4669
2026-01-01 01:45:05.47	234.82	50.06	-37.2	-38.9	24.6	6.01e-01	0	57	0	555220992	45	4494
2026-01-01 01:45:06.48	234.39	49.72	-37.3	-39.0	24.5	6.01e-01	0	57	0	556793856	45	4550
2026-01-01 01:45:07.49	233.98	49.38	-37.7	-39.5	24.0	6.02e-01	0	57	0	558891008	45	4818
2026-01-01 01:45:08.50	233.57	49.04	-37.8	-39.6	23.8	6.03e-01	0	57	0	560988160	46	4627
2026-01-01 01:45:09.51	233.17	48.70	-37.7	-39.4	24.0	6.01e-01	0	57	0	562561024	46	4531
2026-01-01 01:45:10.53	232.78	48.36	-37.8	-39.6	23.8	5.99e-01	0	57	0	564658176	46	4646
2026-01-01 01:45:11.53	232.40	48.03	-37.4	-39.0	24.3	6.02e-01	0	57	0	566231040	46	4324
2026-01-01 01:45:12.54	232.03	47.69	-37.4	-39.1	24.3	6.01e-01	0	57	0	568328192	46	4370
2026-01-01 01:45:13.55	231.67	47.36	-37.7	-39.4	24.1	6.04e-01	0	57	0	570425344	46	4524
2026-01-01 01:45:14.56	231.31	47.03	-37.9	-39.7	23.8	6.01e-01	0	57	0	571998208	46	4654
2026-01-01 01:45:15.57	230.96	46.70	-38.0	-39.8	23.7	6.01e-01	0	57	0	574095360	46	4745
2026-01-01 01:45:16.58	230.62	46.38	-37.8	-39.6	23.8	6.02e-01	0	57	0	575668224	46	4618
2026-01-01 01:45:17.59	230.28	46.05	-37.8	-39.6	23.8	6.01e-01	0	57	0	577765376	46	4645
2026-01-01 01:45:18.60	229.96	45.73	-37.3	-39.0	24.4	6.01e-01	0	57	0	579862528	46	4298
2026-01-01 01:45:19.61	229.64	45.40	-37.2	-38.9	24.5	6.01e-01	0	57	0	581435392	46	4264
2026-01-01 01:45:20.62	229.32	45.08	-37.7	-39.5	24.0	6.04e-01	0	57	0	583532544	46	4558
2026-01-01 01:45:21.63	229.01	44.76	-37.9	-39.8	23.7	6.01e-01	0	57	0	585629696	46	4711
2026-01-01 01:45:22.64	228.71	44.45	-37.9	-39.7	23.8	6.03e-01	0	57	0	587202560	46	4659
2026-01-01 01:45:23.65	228.42	44.13	-37.8	-39.6	23.8	6.01e-01	0	57	0	589299712	46	4604
2026-01-01 01:45:24.66	228.13	43.82	-37.7	-39.4	24.0	6.03e-01	0	57	0	590872576	46	4513
2026-01-01 01:45:25.67	227.84	43.50	-37.7	-39.5	24.0	6.03e-01	0	57	0	592969728	46	4569
2026-01-01 01:45:26.68	227.56	43.19	-37.8	-39.5	24.0	6.01e-01	0	57	0	595066880	46	4581
2026-01-01 01:45:27.69	227.29	42.89	-37.8	-39.5	23.9	6.04e-01	0	57	0	596639744	46	4598
2026-01-01 01:45:28.70	227.02	42.58	-38.1	-40.0	23.5	6.04e-01	0	57	0	598736896	46	4837
2026-01-01 01:45:29.71	226.76	42.28	-38.4	-40.3	23.2	6.03e-01	0	57	0	600309760	47	4738
2026-01-01 01:45:30.72	226.50	41.97	-38.5	-40.4	23.1	6.01e-01	0	57	0	602406912	47	4797
2026-01-01 01:45:31.73	226.25	41.67	-38.5	-40.4	23.0	6.02e-01	0	57	0	604504064	47	4802
2026-01-01 01:45:32.74	226.00	41.37	-38.5	-40.5	23.0	6.01e-01	0	57	0	606076928	47	4815
2026-01-01 01:45:33.75	225.76	41.08	-38.5	-40.4	23.1	6.01e-01	0	57	0	608174080	47	4771
2026-01-01 01:45:34.76	225.52	40.78	-38.5	-40.4	23.1	5.99e-01	0	57	0	610271232	47	4765
2026-01-01 01:45:35.77	225.29	40.49	-38.7	-40.6	22.9	6.02e-01	0	57	0	611844096	47	4908
2026-01-01 01:45:36.78	225.06	40.20	-39.1	-41.1	22.8	6.02e-01	0	57	0	613941248	48	4906
2026-01-01 01:45:37.79	224.83	39.91	-39.3	-41.3	22.6	6.03e-01	0	57	0	615514112	49	4728
2026-01-01 01:45:38.80	224.61	39.63	-39.4	-41.4	22.5	6.01e-01	0	57	0	617611264	49	4801
2026-01-01 01:45:39.81	224.39	39.34	-39.4	-41.5	22.4	6.00e-01	0	57	0	619708416	49	4838
2026-01-01 01:45:40.82	224.18	39.06	-39.5	-41.5	22.3	6.00e-01	0	57	0	621281280	49	4863
2026-01-01 01:45:41.82	223.97	38.78	-39.5	-41.5	22.4	6.03e-01	0	57	0	623378432	49	4853
2026-01-01 01:45:42.84	223.76	38.50	-39.4	-41.5	22.4	6.01e-01	0	57	0	624951296	49	4815
2026-01-01 01:45:43.85	223.56	38.22	-39.3	-41.3	22.5	6.04e-01	0	57	0	627048448	49	4757
2026-01-01 01:45:44.86	223.36	37.95	-39.5	-41.6	22.3	6.01e-01	0	57	0	629145600	49	4887
2026-01-01 01:45:45.87	223.17	37.68	-39.5	-41.5	22.3	6.00e-01	0	57	0	630718464	49	4869
2026-01-01 01:45:46.88	222.97	37.40	-39.7	-41.8	22.1	6.03e-01	0	57	0	632815616	49	5013
2026-01-01 01:45:47.89	222.79	37.14	-39.7	-41.8	22.1	6.00e-01	0	57	0	634388480	49	5028
2026-01-01 01:45:48.90	222.60	36.87	-39.6	-41.8	22.1	6.04e-01	0	57	0	636485632	49	4985
2026-01-01 01:45:49.91	222.42	36.60	-39.4	-41.5	22.4	6.03e-01	0	56	0	638582784	49	4821
2026-01-01 01:45:50.92	222.24	36.34	-39.2	-41.3	22.6	6.04e-01	0	57	0	640155648	49	4714
2026-01-01 01:45:51.93	222.06	36.08	-39.1	-41.1	22.7	6.01e-01	0	57	0	642252800	49	4640
2026-01-01 01:45:52.94	221.89	35.82	-39.1	-41.1	22.8	6.03e-01	0	57	0	643825664	49	4602
2026-01-01 01:45:53.95	221.72	35.56	-39.0	-41.0	22.8	6.02e-01	0	57	0	645922816	49	4571
2026-01-01 01:45:54.96	221.55	35.31	-38.9	-40.8	23.0	6.01e-01	0	57	0	648019968	49	4484
2026-01-01 01:45:55.96	221.38	35.06	-38.7	-40.6	23.2	6.01e-01	0	57	0	649592832	49	4356
2026-01-01 01:45:56.97	221.22	34.81	-38.6	-40.4	23.4	6.03e-01	0	57	0	651689984	49	4264
2026-01-01 01:45:57.98	221.06	34.56	-38.5	-40.3	23.5	5.99e-01	0	57	0	653787136	49	4238
2026-01-01 01:45:58.99	220.90	34.31	-38.5	-40.4	23.5	6.04e-01	0	57	0	655360000	49	4244
2026-01-01 01:46:00.00	220.75	34.06	-38.6	-40.4	23.4	6.02e-01	0	57	0	657457152	49	4287
2026-01-01 01:46:01.01	220.59	33.82	-38.5	-40.4	23.4	6.05e-01	0	57	0	659030016	49	4255
2026-01-01 01:46:02.02	220.44	33.58	-38.3	-40.2	23.6	6.02e-01	0	57	0	661127168	48	4396
2026-01-01 01:46:03.03	220.29	33.34	-38.1	-39.9	23.9	6.00e-01	0	57	0	663224320	48	4262
2026-01-01 01:46:04.04	220.15	33.10	-37.5	-39.3	24.1	6.01e-01	0	57	0	664797184	47	4197
2026-01-01 01:46:05.05	220.01	32.86	-37.5	-39.2	24.2	6.01e-01	0	57	0	666894336	47	4169
2026-01-01 01:46:06.06	219.86	32.63	-37.4	-39.1	24.2	6.02e-01	0	57	0	668467200	46	4375
2026-01-01 01:46:07.07	219.72	32.39	-37.3	-39.0	24.4	6.00e-01	0	57	0	670564352	46	4295
2026-01-01 01:46:08.08	219.59	32.16	-37.2	-38.9	24.5	6.01e-01	0	57	0	672661504	46	4256
2026-01-01 01:46:09.09	219.45	31.93	-37.2	-38.9	24.5	5.99e-01	0	57	0	674234368	46	4257
2026-01-01 01:46:10.10	219.32	31.70	-37.3	-39.0	24.4	6.02e-01	0	57	0	676331520	46	4311
2026-01-01 01:46:11.11	219.19	31.48	-37.4	-39.1	24.3	6.04e-01	0	57	0	678428672	46	4347
2026-01-01 01:46:12.12	219.06	31.25	-37.4	-39.1	24.3	5.99e-01	0	57	0	680001536	46	4350
2026-01-01 01:46:13.13	218.93	31.03	-37.3	-39.0	24.3	6.04e-01	0	57	0	682098688	46	4333
2026-01-01 01:46:14.14	218.80	30.81	-37.2	-38.9	24.4	6.01e-01	0	57	0	683671552	46	4268
2026-01-01 01:46:15.15	218.68	30.59	-37.2	-38.9	24.5	6.02e-01	0	57	0	685768704	46	4253
2026-01-01 01:46:16.16	218.56	30.37	-37.3	-38.9	24.4	6.04e-01	0	57	0	687865856	46	4283
2026-01-01 01:46:17.18	218.44	30.15	-37.3	-39.0	24.3	6.02e-01	0	57	0	689438720	46	4333
2026-01-01 01:46:18.18	218.32	29.94	-37.5	-39.3	24.1	6.04e-01	0	57	0	691535872	46	4448
2026-01-01 01:46:19.19	218.20	29.72	-37.5	-39.2	24.2	6.00e-01	0	57	0	693108736	46	4415
2026-01-01 01:46:20.20	218.08	29.51	-37.4	-39.1	24.2	6.02e-01	0	57	0	695205888	46	4358
2026-01-01 01:46:21.21	217.97	29.30	-37.3	-39.0	24.3	6.00e-01	0	57	0	697303040	46	4303
2026-01-01 01:46:22.22	217.86	29.09	-37.3	-38.9	24.3	6.01e-01	0	57	0	698875904	46	4290
2026-01-01 01:46:23.23	217.75	28.88	-37.3	-38.9	24.4	6.01e-01	0	57	0	700973056	46	4278
2026-01-01 01:46:24.24	217.64	28.68	-37.2	-38.9	24.4	6.01e-01	0	57	0	702545920	46	4276
2026-01-01 01:46:25.25	217.53	28.47	-37.3	-39.0	24.3	6.00e-01	0	57	0	704643072	46	4312
2026-01-01 01:46:26.26	217.42	28.27	-37.4	-39.1	24.2	5.99e-01	0	57	0	706740224	46	4350
2026-01-01 01:46:27.27	217.32	28.07	-37.4	-39.1	24.2	6.02e-01	0	57	0	708313088	46	4358
2026-01-01 01:46:28.28	217.21	27.87	-37.4	-39.1	24.2	6.05e-01	0	57	0	710410240	46	4366
2026-01-01 01:46:29.29	217.11	27.67	-37.5	-39.2	24.1	6.01e-01	0	57	0	711983104	46	4432
2026-01-01 01:46:30.30	217.01	27.47	-37.5	-39.2	24.1	6.04e-01	0	57	0	714080256	46	4435
2026-01-01 01:46:31.31	216.91	27.28	-37.6	-39.4	24.0	6.04e-01	0	57	0	716177408	46	4503
2026-01-01 01:46:32.32	216.81	27.08	-37.7	-39.5	23.8	6.02e-01	0	57	0	717750272	46	4591
2026-01-01 01:46:33.33	216.72	26.89	-37.8	-39.6	23.7	6.03e-01	0	57	0	719847424	46	4625
2026-01-01 01:46:34.34	216.62	26.70	-37.8	-39.6	23.7	6.00e-01	0	57	0	721944576	46	4621
2026-01-01 01:46:35.35	216.53	26.51	-37.8	-39.6	23.7	6.01e-01	0	57	0	723517440	46	4611
2026-01-01 01:46:36.36	216.43	26.32	-37.7	-39.5	23.8	6.01e-01	0	57	0	725614592	46	4577
2026-01-01 01:46:37.37	216.34	26.13	-37.7	-39.5	23.8	6.04e-01	0	57	0	727187456	46	4556
2026-01-01 01:46:38.38	216.25	25.95	-37.7	-39.5	23.8	6.00e-01	0	57	0	729284608	46	4558
2026-01-01 01:46:39.39	216.16	25.76	-37.7	-39.5	23.8	6.03e-01	0	57	0	731381760	46	4573
2026-01-01 01:46:40.40	216.07	25.58	-37.8	-39.6	23.7	6.01e-01	0	57	0	732954624	46	4617
2026-01-01 01:46:41.41	215.98	25.40	-37.8	-39.6	23.7	6.01e-01	0	57	0	735051776	46	4619
2026-01-01 01:46:42.42	215.89	25.22	-37.9	-39.7	23.6	6.04e-01	0	57	0	736624640	46	4669
2026-01-01 01:46:43.43	215.81	25.04	-37.9	-39.8	23.5	5.99e-01	0	57	0	738721792	46	4718
2026-01-01 01:46:44.44	215.72	24.86	-38.0	-39.8	23.5	6.01e-01	0	57	0	740818944	46	4742
2026-01-01 01:46:45.46	215.64	24.68	-38.1	-39.9	23.4	6.02e-01	0	57	0	742391808	46	4787
2026-01-01 01:46:46.47	215.56	24.50	-38.1	-39.9	23.4	6.01e-01	0	57	0	744488960	46	4795
2026-01-01 01:46:47.48	215.48	24.33	-38.1	-40.0	23.3	6.03e-01	0	57	0	746586112	46	4821
2026-01-01 01:46:48.48	215.40	24.16	-38.1	-40.0	23.3	6.00e-01	0	57	0	748158976	46	4835
2026-01-01 01:46:49.49	215.32	23.99	-38.2	-40.0	23.3	6.01e-01	0	57	0	750256128	46	4853
2026-01-01 01:46:50.50	215.24	23.81	-38.2	-40.0	23.3	5.99e-01	0	57	0	751828992	46	4858
2026-01-01 01:46:51.51	215.16	23.64	-38.2	-40.0	23.2	6.03e-01	0	57	0	753926144	46	4869
2026-01-01 01:46:52.52	215.08	23.47	-38.1	-40.0	23.3	6.02e-01	0	57	0	756023296	46	4843
2026-01-01 01:46:53.53	215.01	23.31	-38.1	-40.0	23.3	6.03e-01	0	57	0	757596160	46	4822
2026-01-01 01:46:54.54	214.93	23.14	-38.1	-40.0	23.3	6.03e-01	0	57	0	759693312	46	4829
2026-01-01 01:46:55.55	214.86	22.98	-38.1	-40.0	23.3	6.02e-01	0	57	0	761790464	46	4823
2026-01-01 01:46:56.56	214.78	22.81	-38.1	-40.0	23.3	6.03e-01	0	57	0	763363328	46	4832
2026-01-01 01:46:57.57	214.71	22.65	-38.1	-40.0	23.3	6.03e-01	0	57	0	765460480	46	4841
2026-01-01 01:46:58.58	214.64	22.49	-38.2	-40.0	23.2	6.03e-01	0	57	0	767033344	46	4868
2026-01-01 01:46:59.59	214.57	22.32	-38.2	-40.1	23.2	6.00e-01	0	57	0	769130496	46	4882
2026-01-01 01:47:00.60	214.50	22.16	-38.2	-40.2	23.1	6.03e-01	0	57	0	771227648	47	4659
2026-01-01 01:47:01.61	214.43	22.00	-38.3	-40.2	23.0	6.01e-01	0	57	0	772800512	47	4703
2026-01-01 01:47:02.62	214.36	21.85	-38.3	-40.3	23.0	5.98e-01	0	57	0	774897664	47	4715
2026-01-01 01:47:03.63	214.29	21.69	-38.3	-40.3	23.0	6.02e-01	0	57	0	776470528	47	4726
2026-01-01 01:47:04.64	214.22	21.53	-38.3	-40.2	23.0	5.99e-01	0	57	0	778567680	47	4693
2026-01-01 01:47:05.65	214.16	21.38	-38.3	-40.2	23.0	6.03e-01	0	57	0	780664832	47	4686
2026-01-01 01:47:06.66	214.09	21.22	-38.3	-40.2	23.0	6.01e-01	0	57	0	782237696	47	4660
2026-01-01 01:47:07.67	214.03	21.07	-38.2	-40.1	23.1	6.01e-01	0	57	0	784334848	47	4609
2026-01-01 01:47:08.68	213.96	20.92	-38.1	-40.0	23.2	6.02e-01	0	57	0	785907712	47	4553
2026-01-01 01:47:09.69	213.90	20.77	-38.0	-39.9	23.3	6.03e-01	0	57	0	788004864	47	4515
2026-01-01 01:47:10.70	213.84	20.62	-38.0	-39.8	23.3	6.01e-01	0	57	0	790102016	47	4480
2026-01-01 01:47:11.71	213.77	20.47	-38.0	-39.8	23.4	6.02e-01	0	57	0	791674880	47	4476
2026-01-01 01:47:12.72	213.71	20.32	-38.0	-39.8	23.4	6.01e-01	0	57	0	793772032	47	4468
2026-01-01 01:47:13.73	213.65	20.17	-38.0	-39.8	23.3	6.03e-01	0	57	0	795344896	47	4492
2026-01-01 01:47:14.74	213.59	20.03	-38.0	-39.9	23.3	6.01e-01	0	57	0	797442048	47	4519
2026-01-01 01:47:15.75	213.53	19.88	-38.1	-39.9	23.3	6.03e-01	0	57	0	799539200	47	4530
2026-01-01 01:47:16.77	213.47	19.73	-38.1	-40.0	23.2	5.98e-01	0	57	0	801112064	47	4552
2026-01-01 01:47:17.77	213.41	19.59	-38.1	-40.0	23.2	6.00e-01	0	57	0	803209216	47	4586
2026-01-01 01:47:18.79	213.35	19.45	-38.2	-40.1	23.1	6.02e-01	0	57	0	804782080	47	4613
2026-01-01 01:47:19.79	213.30	19.31	-38.2	-40.1	23.1	6.02e-01	0	57	0	806879232	47	4621
2026-01-01 01:47:20.80	213.24	19.17	-38.2	-40.1	23.1	6.02e-01	0	57	0	808976384	47	4636
2026-01-01 01:47:21.81	213.19	19.03	-38.2	-40.1	23.0	6.02e-01	0	57	0	810549248	47	4651
2026-01-01 01:47:22.82	213.13	18.89	-38.2	-40.1	23.0	6.03e-01	0	57	0	812646400	47	4638
2026-01-01 01:47:23.83	213.07	18.75	-38.1	-40.0	23.1	6.02e-01	0	57	0	814743552	47	4582
2026-01-01 01:47:24.84	213.02	18.61	-38.1	-40.0	23.2	6.02e-01	0	57	0	816316416	47	4565
2026-01-01 01:47:25.85	212.97	18.47	-38.1	-40.0	23.2	6.00e-01	0	57	0	818413568	47	4546
2026-01-01 01:47:26.86	212.91	18.34	-38.0	-39.9	23.2	6.04e-01	0	57	0	819986432	47	4518
2026-01-01 01:47:27.87	212.86	18.20	-38.0	-39.8	23.3	6.02e-01	0	57	0	822083584	47	4492
2026-01-01 01:47:28.88	212.81	18.07	-38.0	-39.8	23.3	5.99e-01	0	57	0	824180736	47	4491
2026-01-01 01:47:29.89	212.76	17.93	-38.0	-39.8	23.3	6.04e-01	0	57	0	825753600	47	4475
2026-01-01 01:47:30.90	212.70	17.80	-37.9	-39.8	23.3	6.03e-01	0	57	0	827850752	47	4461
2026-01-01 01:47:31.91	212.65	17.67	-37.9	-39.7	23.4	6.02e-01	0	57	0	829947904	47	4441
2026-01-01 01:47:32.92	212.60	17.54	-37.9	-39.8	23.4	6.02e-01	0	57	0	831520768	47	4460
2026-01-01 01:47:33.93	212.55	17.40	-37.9	-39.7	23.3	5.99e-01	0	57	0	833617920	47	4441
2026-01-01 01:47:34.94	212.50	17.27	-37.9	-39.8	23.3	6.02e-01	0	57	0	835190784	47	4460
2026-01-01 01:47:35.95	212.46	17.15	-37.9	-39.8	23.3	6.01e-01	0	57	0	837287936	47	4455
2026-01-01 01:47:36.96	212.41	17.02	-38.0	-39.9	23.3	6.00e-01	0	57	0	839385088	47	4500
2026-01-01 01:47:37.97	212.36	16.89	-38.0	-39.8	23.3	6.01e-01	0	57	0	840957952	47	4484
2026-01-01 01:47:38.98	212.31	16.76	-38.0	-39.9	23.2	6.00e-01	0	57	0	843055104	47	4497
2026-01-01 01:47:39.99	212.26	16.64	-38.0	-39.9	23.2	6.00e-01	0	57	0	844627968	47	4500
2026-01-01 01:47:41.00	212.22	16.51	-38.0	-39.9	23.2	6.03e-01	0	57	0	846725120	47	4511
2026-01-01 01:47:42.01	212.17	16.38	-38.0	-39.9	23.2	6.03e-01	0	57	0	848822272	47	4500
2026-01-01 01:47:43.02	212.13	16.26	-38.0	-39.9	23.2	6.02e-01	0	57	0	850395136	47	4525
2026-01-01 01:47:44.03	212.08	16.14	-38.0	-39.9	23.2	6.00e-01	0	57	0	852492288	47	4519
2026-01-01 01:47:45.04	212.04	16.01	-38.1	-40.0	23.1	6.03e-01	0	57	0	854065152	47	4547
2026-01-01 01:47:46.05	211.99	15.89	-38.1	-40.0	23.1	6.04e-01	0	57	0	856162304	47	4551
2026-01-01 01:47:47.06	211.95	15.77	-38.2	-40.1	23.0	6.04e-01	0	57	0	858259456	47	4610
2026-01-01 01:47:48.07	211.90	15.65	-38.1	-40.0	23.1	6.02e-01	0	57	0	859832320	47	4596
2026-01-01 01:47:49.07	211.86	15.53	-38.1	-40.0	23.1	6.02e-01	0	57	0	861929472	47	4588
2026-01-01 01:47:50.08	211.82	15.41	-38.1	-40.1	23.0	6.03e-01	0	57	0	863502336	47	4614
2026-01-01 01:47:51.09	211.77	15.29	-38.2	-40.1	23.0	6.04e-01	0	57	0	865599488	47	4621
2026-01-01 01:47:52.10	211.73	15.17	-38.2	-40.1	22.9	6.03e-01	0	57	0	867696640	47	4645
2026-01-01 01:47:53.11	211.69	15.05	-38.2	-40.2	22.9	6.02e-01	0	57	0	869269504	47	4663
2026-01-01 01:47:54.12	211.65	14.94	-38.2	-40.1	22.9	6.04e-01	0	57	0	871366656	47	4630
2026-01-01 01:47:55.13	211.61	14.82	-38.2	-40.1	22.9	6.00e-01	0	57	0	872939520	47	4641
2026-01-01 01:47:56.14	211.57	14.70	-38.2	-40.2	22.9	6.00e-01	0	57	0	875036672	47	4656
2026-01-01 01:47:57.15	211.53	14.59	-38.2	-40.1	22.9	5.99e-01	0	57	0	877133824	47	4650
2026-01-01 01:47:58.16	211.49	14.47	-38.2	-40.2	22.9	6.02e-01	0	57	0	878706688	47	4658
2026-01-01 01:47:59.17	211.45	14.36	-38.2	-40.2	22.8	6.01e-01	0	57	0	880803840	47	4667
2026-01-01 01:48:00.18	211.41	14.24	-38.2	-40.1	22.8	6.05e-01	0	57	0	882900992	47	4651
2026-01-01 01:48:01.19	211.37	14.13	-38.2	-40.2	22.8	6.00e-01	0	57	0	884473856	47	4655
2026-01-01 01:48:02.20	211.33	14.02	-38.2	-40.1	22.8	6.02e-01	0	57	0	886571008	47	4651
2026-01-01 01:48:03.21	211.29	13.91	-38.2	-40.1	22.8	6.02e-01	0	57	0	888143872	47	4639
2026-01-01 01:48:04.22	211.25	13.80	-38.2	-40.1	22.8	6.03e-01	0	57	0	890241024	47	4627
2026-01-01 01:48:05.23	211.22	13.68	-38.1	-40.1	22.9	6.03e-01	0	57	0	892338176	47	4618
2026-01-01 01:48:06.24	211.18	13.57	-38.2	-40.1	22.8	6.02e-01	0	57	0	893911040	47	4630
2026-01-01 01:48:07.25	211.14	13.46	-38.1	-40.1	22.9	6.03e-01	0	57	0	896008192	47	4607
2026-01-01 01:48:08.26	211.11	13.35	-38.2	-40.1	22.9	6.01e-01	0	57	0	897581056	47	4621
2026-01-01 01:48:09.27	211.07	13.25	-38.2	-40.1	22.8	6.04e-01	0	57	0	899678208	47	4628
2026-01-01 01:48:10.28	211.03	13.14	-38.2	-40.1	22.8	6.00e-01	0	57	0	901775360	47	4631
2026-01-01 01:48:11.29	211.00	13.03	-38.2	-40.1	22.8	6.00e-01	0	57	0	903348224	47	4638
2026-01-01 01:48:12.31	210.96	12.92	-38.2	-40.1	22.8	6.00e-01	0	57	0	905445376	47	4643
2026-01-01 01:48:13.31	210.93	12.82	-38.3	-40.3	22.7	6.02e-01	0	57	0	907542528	47	4715
2026-01-01 01:48:14.33	210.89	12.71	-38.3	-40.2	22.6	6.02e-01	0	57	0	909115392	47	4703
2026-01-01 01:48:15.34	210.86	12.60	-38.2	-40.2	22.7	6.02e-01	0	57	0	911212544	47	4703
2026-01-01 01:48:16.35	210.82	12.50	-38.3	-40.3	22.6	6.01e-01	0	57	0	912785408	47	4750
2026-01-01 01:48:17.36	210.79	12.39	-38.3	-40.3	22.6	6.02e-01	0	57	0	914882560	47	4739
2026-01-01 01:48:18.37	210.76	12.29	-38.3	-40.3	22.6	6.02e-01	0	57	0	916979712	47	4720
2026-01-01 01:48:19.38	210.72	12.19	-38.3	-40.3	22.5	6.02e-01	0	57	0	918552576	47	4739
2026-01-01 01:48:20.39	210.69	12.08	-38.2	-40.2	22.6	6.03e-01	0	57	0	920649728	47	4702
2026-01-01 01:48:21.40	210.66	11.98	-38.3	-40.3	22.6	6.03e-01	0	57	0	922746880	47	4708
2026-01-01 01:48:22.41	210.62	11.88	-38.2	-40.2	22.6	6.03e-01	0	57	0	924319744	47	4701
2026-01-01 01:48:23.42	210.59	11.78	-38.2	-40.2	22.6	6.02e-01	0	57	0	926416896	47	4672
2026-01-01 01:48:24.43	210.56	11.67	-38.2	-40.2	22.6	6.04e-01	0	57	0	927989760	47	4693
2026-01-01 01:48:25.44	210.53	11.57	-38.2	-40.2	22.6	6.03e-01	0	57	0	930086912	47	4694
2026-01-01 01:48:26.45	210.50	11.47	-38.2	-40.2	22.6	6.02e-01	0	57	0	932184064	47	4689
2026-01-01 01:48:27.46	210.46	11.37	-38.3	-40.3	22.5	6.02e-01	0	57	0	933756928	47	4719
2026-01-01 01:48:28.47	210.43	11.27	-38.3	-40.3	22.5	6.01e-01	0	57	0	935854080	47	4721
2026-01-01 01:48:29.49	210.40	11.17	-38.3	-40.3	22.5	6.04e-01	0	57	0	937426944	47	4714
2026-01-01 01:48:30.49	210.37	11.07	-38.3	-40.3	22.5	5.99e-01	0	57	0	939524096	47	4750
2026-01-01 01:48:31.50	210.34	10.98	-38.3	-40.3	22.5	6.05e-01	0	57	0	941621248	47	4734
2026-01-01 01:48:32.51	210.31	10.88	-38.3	-40.4	22.4	6.00e-01	0	57	0	943194112	47	4778
2026-01-01 01:48:33.52	210.28	10.78	-38.3	-40.4	22.4	6.02e-01	0	57	0	945291264	47	4772
2026-01-01 01:48:34.53	210.25	10.68	-38.3	-40.4	22.4	6.00e-01	0	57	0	946864128	47	4763
2026-01-01 01:48:35.54	210.22	10.59	-38.3	-40.4	22.4	6.03e-01	0	57	0	948961280	47	4780
2026-01-01 01:48:36.55	210.19	10.49	-38.3	-40.4	22.4	6.04e-01	0	57	0	951058432	47	4764
2026-01-01 01:48:37.56	210.16	10.40	-38.4	-40.4	22.3	6.04e-01	0	57	0	952631296	47	4801
2026-01-01 01:48:38.57	210.14	10.30	-38.4	-40.5	22.3	6.02e-01	0	57	0	954728448	47	4832
2026-01-01 01:48:39.58	210.11	10.21	-38.4	-40.4	22.3	6.03e-01	0	57	0	956301312	47	4806
2026-01-01 01:48:40.59	210.08	10.11	-38.4	-40.5	22.2	6.02e-01	0	57	0	958398464	47	4848
2026-01-01 01:48:41.60	210.05	10.02	-38.5	-40.6	22.2	6.00e-01	0	57	0	960495616	47	4882
2026-01-01 01:48:42.61	210.02	9.92	-38.5	-40.6	22.1	6.03e-01	0	57	0	962068480	47	4907
2026-01-01 01:48:43.62	209.99	9.83	-38.6	-40.7	22.0	6.01e-01	0	57	0	964165632	47	4965
2026-01-01 01:48:44.62	209.97	9.74	-38.5	-40.6	22.1	6.02e-01	0	57	0	965738496	47	4910
2026-01-01 01:48:45.63	209.94	9.65	-38.6	-40.8	21.9	6.01e-01	0	57	0	967835648	47	4989
2026-01-01 01:48:46.64	209.91	9.55	-38.6	-40.8	21.9	5.98e-01	0	57	0	969932800	47	4993
2026-01-01 01:48:47.65	209.89	9.46	-38.6	-40.8	21.9	6.01e-01	0	57	0	971505664	47	5018
2026-01-01 01:48:48.66	209.86	9.37	-38.6	-40.8	21.9	6.02e-01	0	57	0	973602816	47	5006
2026-01-01 01:48:49.67	209.83	9.28	-38.7	-40.9	21.8	6.02e-01	0	57	0	975699968	47	5045
2026-01-01 01:48:50.68	209.81	9.19	-38.7	-40.9	21.8	6.01e-01	0	57	0	977272832	47	5054
2026-01-01 01:48:51.69	209.78	9.10	-38.6	-40.8	21.8	6.02e-01	0	57	0	979369984	47	5030
2026-01-01 01:48:52.70	209.75	9.01	-38.7	-40.9	21.7	6.02e-01	0	58	0	980942848	47	5091
2026-01-01 01:48:53.71	209.73	8.92	-39.1	-41.3	21.7	6.02e-01	0	57	0	983040000	48	5011
2026-01-01 01:48:54.72	209.70	8.83	-39.1	-41.3	21.7	6.01e-01	0	57	0	985137152	48	5005
2026-01-01 01:48:55.73	209.68	8.74	-39.0	-41.2	21.7	6.03e-01	0	57	0	986710016	48	4977
2026-01-01 01:48:56.75	209.65	8.65	-39.1	-41.3	21.7	5.98e-01	0	57	0	988807168	48	5001
2026-01-01 01:48:57.76	209.63	8.56	-39.1	-41.3	21.7	6.03e-01	0	57	0	990904320	48	5007
2026-01-01 01:48:58.77	209.60	8.47	-39.0	-41.3	21.7	6.01e-01	0	57	0	992477184	48	4999
2026-01-01 01:48:59.78	209.58	8.39	-39.1	-41.4	21.6	6.02e-01	0	57	0	994574336	48	5054
2026-01-01 01:49:00.79	209.55	8.30	-39.1	-41.3	21.6	6.01e-01	0	57	0	996147200	48	5022
2026-01-01 01:49:01.80	209.53	8.21	-39.0	-41.2	21.7	6.00e-01	0	57	0	998244352	48	4979
2026-01-01 01:49:02.80	209.51	8.13	-39.1	-41.4	21.5	6.02e-01	0	57	0	1000341504	48	5066
2026-01-01 01:49:03.81	209.48	8.04	-39.1	-41.4	21.5	6.02e-01	0	57	0	1001914368	48	5075
2026-01-01 01:49:04.82	209.46	7.95	-45.0	-61.0	4.0	7.41e-01	0	57	104	1003487232	60	24174
2026-01-01 01:49:05.84	209.43	7.87	-45.4	-64.0	3.8	7.47e-01	0	57	104	1003487232	61	32278
2026-01-01 01:49:06.84	209.41	7.78	-45.6	-64.4	3.8	7.43e-01	0	57	104	1003487232	61	33765
2026-01-01 01:49:07.86	209.39	7.70	-45.8	-64.5	3.8	7.44e-01	0	57	104	1003487232	62	32528
2026-01-01 01:49:08.87	209.36	7.61	-45.9	-64.6	3.8	7.48e-01	0	57	104	1003487232	62	32759
2026-01-01 01:49:09.88	209.34	7.53	-46.0	-64.7	3.8	7.48e-01	0	57	104	1003487232	62	33265
2026-01-01 01:49:10.89	209.32	7.44	-46.0	-64.8	3.8	7.48e-01	0	57	104	1003487232	62	33443
2026-01-01 01:49:11.89	209.30	7.36	-46.0	-64.8	3.8	7.47e-01	0	58	104	1003487232	62	33533
2026-01-01 01:49:12.91	209.27	7.28	-46.0	-64.8	3.8	7.48e-01	0	58	104	1003487232	62	33628
2026-01-01 01:49:13.92	209.25	7.19	-46.0	-64.8	3.8	7.43e-01	0	57	104	1003487232	62	33435
2026-01-01 01:49:14.93	209.23	7.11	-45.9	-64.7	3.8	7.46e-01	0	58	104	1003487232	62	33306
2026-01-01 01:49:15.94	209.21	7.03	-45.9	-64.7	3.8	7.46e-01	0	57	104	1003487232	62	33151
2026-01-01 01:49:16.95	209.19	6.95	-45.9	-64.7	3.8	7.43e-01	0	58	104	1003487232	62	33086
2026-01-01 01:49:17.96	209.16	6.86	-45.9	-64.7	3.8	7.46e-01	0	57	104	1003487232	62	33006
2026-01-01 01:49:18.97	209.14	6.78	-45.9	-64.7	3.8	7.48e-01	0	58	104	1003487232	62	33021
2026-01-01 01:49:19.98	209.12	6.70	-45.9	-64.7	3.8	7.44e-01	0	57	104	1003487232	62	33123
2026-01-01 01:49:20.99	209.10	6.62	-45.9	-64.7	3.8	7.46e-01	0	58	104	1003487232	62	33041
2026-01-01 01:49:22.00	209.08	6.54	-45.9	-64.7	3.8	7.43e-01	0	57	104	1003487232	62	33005
2026-01-01 01:49:23.01	209.06	6.46	-45.9	-64.7	3.8	7.46e-01	0	58	104	1003487232	62	33014
2026-01-01 01:49:24.02	209.04	6.38	-45.9	-64.7	3.8	7.45e-01	0	57	104	1003487232	62	33029
2026-01-01 01:49:25.03	209.02	6.30	-45.9	-64.7	3.8	7.46e-01	0	57	104	1003487232	62	33083
2026-01-01 01:49:26.04	209.00	6.22	-45.9	-64.7	3.8	7.44e-01	0	58	104	1003487232	62	33001
2026-01-01 01:49:27.06	208.98	6.14	-45.9	-64.7	3.8	7.45e-01	0	57	104	1003487232	62	33025
