passes_logs/2026/01/01/R2.0S_Moscow/R2.0S_Moscow__20260101_113949_NOAA_21_JPSS-2_rec.log

#Pass ID: 20260101_113949_NOAA 21 (JPSS-2)
#Satellite: NOAA 21 (JPSS-2)
#Configuration: NOAA-21
#almurnet v.1.7.20251203
#Start time: 2026-01-01 11:43:15

#Version: 2.2.20231116
#Station: R2.0S_Moscow
#Location: 37.707566 lon 55.798166 lat
#TLE: 1 54234U 22150A   25365.42224288  .00000199  00000+0  11529-3 0  9990
#TLE: 2 54234  98.7483 301.4995 0001320 356.2106   3.9060 14.19530300162743

#Time	Az	El	Level	Level2	SNR	BER	BlckErr	Temp	State	Recorded	gain1	gain2
2026-01-01 11:43:15.62	238.85	13.48	-44.8	-56.4	3.8	8.46e-01	0	58	0	0	60	14329
2026-01-01 11:43:16.62	239.02	13.53	-45.0	-57.3	3.8	1.49e+00	0	58	104	0	61	15003
2026-01-01 11:43:17.63	239.19	13.59	-45.0	-57.4	3.8	1.49e+00	0	58	104	0	61	15071
2026-01-01 11:43:18.65	239.37	13.64	-45.0	-57.4	3.8	1.49e+00	0	58	104	0	61	15098
2026-01-01 11:43:19.65	239.54	13.69	-45.0	-57.4	3.8	1.49e+00	0	58	104	0	61	15052
2026-01-01 11:43:20.67	239.72	13.75	-45.0	-57.3	3.8	1.49e+00	0	58	104	0	61	15048
2026-01-01 11:43:21.68	239.90	13.80	-45.0	-57.3	3.8	1.49e+00	0	58	104	0	61	14925
2026-01-01 11:43:22.69	240.07	13.86	-44.9	-57.2	3.8	1.49e+00	0	58	104	0	61	14871
2026-01-01 11:43:23.70	240.25	13.91	-44.9	-57.2	3.8	1.49e+00	0	58	104	0	61	14811
2026-01-01 11:43:24.71	240.43	13.96	-44.8	-57.1	3.8	1.49e+00	0	58	104	0	61	14634
2026-01-01 11:43:25.72	240.61	14.02	-44.7	-57.0	3.8	1.49e+00	0	58	104	0	61	14392
2026-01-01 11:43:26.73	240.79	14.07	-44.6	-56.9	3.8	1.49e+00	0	58	104	0	61	14273
2026-01-01 11:43:27.74	240.97	14.12	-44.6	-56.9	3.8	1.49e+00	0	58	104	0	61	14270
2026-01-01 11:43:28.75	241.15	14.18	-44.6	-56.9	3.8	1.49e+00	0	58	104	0	61	14253
2026-01-01 11:43:29.76	241.33	14.23	-44.6	-56.9	3.8	1.49e+00	0	58	104	0	61	14260
2026-01-01 11:43:30.78	241.51	14.28	-44.6	-56.9	3.8	1.49e+00	0	58	104	0	61	14242
2026-01-01 11:43:31.79	241.70	14.33	-44.6	-56.9	3.8	1.49e+00	0	58	104	0	61	14229
2026-01-01 11:43:32.80	241.88	14.39	-44.6	-56.9	3.8	1.49e+00	0	58	104	0	61	14245
2026-01-01 11:43:33.81	242.06	14.44	-44.6	-56.9	3.8	1.49e+00	0	58	104	0	61	14222
2026-01-01 11:43:34.82	242.25	14.49	-44.6	-56.8	3.8	1.49e+00	0	58	104	0	61	14141
2026-01-01 11:43:35.83	242.43	14.54	-44.6	-56.8	3.8	1.49e+00	0	58	104	0	61	14183
2026-01-01 11:43:36.84	242.62	14.59	-44.6	-56.8	3.8	1.49e+00	0	58	104	0	61	14167
2026-01-01 11:43:37.85	242.80	14.64	-44.6	-56.8	3.8	1.49e+00	0	58	104	0	61	14167
2026-01-01 11:43:38.86	242.99	14.69	-44.6	-56.9	3.8	1.49e+00	0	58	104	0	61	14233
2026-01-01 11:43:39.88	243.18	14.75	-44.6	-56.9	3.8	1.49e+00	0	58	104	0	61	14293
2026-01-01 11:43:40.89	243.37	14.80	-44.6	-56.9	3.8	1.49e+00	0	58	104	0	61	14266
2026-01-01 11:43:41.90	243.56	14.85	-44.6	-56.9	3.8	1.49e+00	0	58	104	0	61	14211
2026-01-01 11:43:42.91	243.75	14.90	-44.6	-56.8	3.8	1.49e+00	0	58	104	0	61	14116
2026-01-01 11:43:43.92	243.94	14.95	-44.5	-56.8	3.8	1.49e+00	0	58	104	0	61	14054
2026-01-01 11:43:44.93	244.13	15.00	-44.5	-56.8	3.8	1.49e+00	0	58	104	0	61	14074
2026-01-01 11:43:45.94	244.32	15.05	-44.5	-56.8	3.8	1.49e+00	0	58	104	0	61	14049
2026-01-01 11:43:46.95	244.51	15.10	-44.5	-56.7	3.8	1.49e+00	0	58	104	0	61	13979
2026-01-01 11:43:47.96	244.70	15.15	-44.5	-56.6	3.8	1.49e+00	0	58	104	0	61	13819
2026-01-01 11:43:48.97	244.90	15.20	-44.5	-56.6	3.8	1.49e+00	0	58	104	0	61	13768
2026-01-01 11:43:49.99	245.09	15.25	-44.5	-56.6	3.8	1.49e+00	0	58	104	0	61	13779
2026-01-01 11:43:51.00	245.29	15.29	-44.5	-56.7	3.8	1.49e+00	0	58	104	0	61	13974
2026-01-01 11:43:52.01	245.48	15.34	-44.6	-56.8	3.8	1.49e+00	0	58	104	0	61	14207
2026-01-01 11:43:53.02	245.68	15.39	-44.6	-56.9	3.8	1.49e+00	0	58	104	0	61	14259
2026-01-01 11:43:54.03	245.87	15.44	-44.5	-56.7	3.8	1.49e+00	0	58	104	0	61	14035
2026-01-01 11:43:55.04	246.07	15.49	-44.5	-56.5	3.8	1.49e+00	0	58	104	0	61	13593
2026-01-01 11:43:56.05	246.27	15.54	-44.5	-56.3	3.8	1.49e+00	0	58	104	0	61	13353
2026-01-01 11:43:57.06	246.46	15.58	-44.5	-56.1	3.8	1.49e+00	0	58	104	0	61	13094
2026-01-01 11:43:58.07	246.66	15.63	-44.5	-56.1	3.8	1.49e+00	0	58	104	0	60	13784
2026-01-01 11:43:59.08	246.86	15.68	-44.5	-56.1	3.8	1.49e+00	0	58	104	0	60	13805
2026-01-01 11:44:00.10	247.06	15.72	-44.5	-56.2	3.8	1.49e+00	0	58	104	0	60	13937
2026-01-01 11:44:01.11	247.27	15.77	-44.5	-56.2	3.8	1.49e+00	0	58	104	0	60	13902
2026-01-01 11:44:02.12	247.47	15.82	-44.3	-54.9	3.8	1.49e+00	0	58	104	0	60	12078
2026-01-01 11:44:03.13	247.67	15.86	-43.9	-51.2	5.0	8.67e-01	0	58	104	0	59	8355
2026-01-01 11:44:04.14	247.87	15.91	-42.9	-47.8	7.7	2.12e-01	0	58	0	2097152	57	6281
2026-01-01 11:44:05.15	248.07	15.95	-41.4	-44.7	10.7	9.78e-03	0	58	0	5242880	54	5237
2026-01-01 11:44:06.16	248.28	16.00	-39.9	-42.3	13.2	1.09e-04	0	58	0	9437184	51	4752
2026-01-01 11:44:07.17	248.48	16.04	-38.7	-40.6	15.0	7.00e-07	0	58	0	12582912	49	4353
2026-01-01 11:44:08.18	248.68	16.09	-37.7	-39.4	16.1	0.00e+00	0	58	0	15728640	47	4247
2026-01-01 11:44:09.19	248.89	16.13	-37.1	-38.7	16.8	0.00e+00	0	58	0	18874368	46	4165
2026-01-01 11:44:10.20	249.10	16.18	-36.9	-38.4	17.0	0.00e+00	0	58	0	20971520	45	4287
2026-01-01 11:44:11.21	249.30	16.22	-44.7	-56.8	3.8	1.49e+00	0	58	104	22020096	60	15007
2026-01-01 11:44:12.22	249.51	16.27	-38.5	-40.3	15.2	1.75e-05	0	58	0	23068672	49	4212
2026-01-01 11:44:13.23	249.72	16.31	-40.5	-43.1	12.4	7.17e-05	0	58	0	25165824	51	5189
2026-01-01 11:44:14.24	249.93	16.35	-42.5	-46.8	8.4	2.28e-01	0	58	0	28311552	57	5628
2026-01-01 11:44:15.25	250.13	16.40	-39.5	-41.8	13.9	1.37e-05	0	58	0	31457280	50	4707
2026-01-01 11:44:16.26	250.34	16.44	-37.4	-39.0	16.4	0.00e+00	0	58	0	35651584	46	4322
2026-01-01 11:44:17.27	250.55	16.48	-37.3	-38.9	16.5	0.00e+00	0	58	0	38797312	46	4274
2026-01-01 11:44:18.28	250.76	16.52	-37.2	-38.8	16.6	0.00e+00	0	58	0	41943040	46	4223
2026-01-01 11:44:19.29	250.97	16.56	-36.9	-38.5	16.9	0.00e+00	0	58	0	45088768	45	4294
2026-01-01 11:44:20.30	251.19	16.61	-36.9	-38.4	17.0	0.00e+00	0	58	0	48234496	45	4256
2026-01-01 11:44:21.31	251.40	16.65	-36.8	-38.3	17.1	0.00e+00	0	58	0	51380224	45	4215
2026-01-01 11:44:22.32	251.61	16.69	-36.7	-38.2	17.2	0.00e+00	0	58	0	54525952	45	4173
2026-01-01 11:44:23.33	251.82	16.73	-36.6	-38.1	17.3	0.00e+00	0	58	0	57671680	45	4127
2026-01-01 11:44:24.34	252.04	16.77	-36.6	-38.0	17.3	0.00e+00	0	58	0	60817408	45	4096
2026-01-01 11:44:25.35	252.25	16.81	-36.6	-38.1	17.3	0.00e+00	0	58	0	63963136	45	4118
2026-01-01 11:44:26.36	252.47	16.85	-36.6	-38.0	17.3	0.00e+00	0	58	0	67108864	45	4095
2026-01-01 11:44:27.37	252.68	16.89	-36.5	-38.0	17.4	0.00e+00	0	58	0	70254592	45	4056
2026-01-01 11:44:28.38	252.90	16.93	-36.6	-38.1	17.3	0.00e+00	0	58	0	73400320	45	4112
2026-01-01 11:44:29.39	253.12	16.96	-36.5	-38.0	17.3	0.00e+00	0	58	0	76546048	45	4068
2026-01-01 11:44:30.40	253.33	17.00	-36.6	-38.0	17.4	0.00e+00	0	58	0	79691776	45	4083
2026-01-01 11:44:31.41	253.55	17.04	-36.4	-37.9	17.5	0.00e+00	0	58	0	82837504	44	4262
2026-01-01 11:44:32.43	253.77	17.08	-36.3	-37.8	17.6	0.00e+00	0	58	0	85983232	44	4205
2026-01-01 11:44:33.44	253.99	17.11	-36.4	-37.8	17.6	0.00e+00	0	58	0	89128960	44	4213
2026-01-01 11:44:34.45	254.21	17.15	-36.4	-37.8	17.5	0.00e+00	0	58	0	92274688	44	4233
2026-01-01 11:44:35.46	254.43	17.19	-36.3	-37.7	17.7	0.00e+00	0	58	0	95420416	44	4174
2026-01-01 11:44:36.47	254.65	17.22	-36.2	-37.6	17.7	0.00e+00	0	58	0	98566144	44	4137
2026-01-01 11:44:37.48	254.87	17.26	-36.2	-37.5	17.8	0.00e+00	0	58	0	101711872	44	4097
2026-01-01 11:44:38.49	255.09	17.30	-36.1	-37.5	17.8	0.00e+00	0	58	0	104857600	44	4082
2026-01-01 11:44:39.50	255.31	17.33	-36.2	-37.6	17.8	0.00e+00	0	58	0	108003328	44	4106
2026-01-01 11:44:40.51	255.53	17.37	-36.2	-37.6	17.8	0.00e+00	0	58	0	111149056	44	4108
2026-01-01 11:44:41.52	255.76	17.40	-36.2	-37.6	17.7	0.00e+00	0	58	0	114294784	44	4120
2026-01-01 11:44:42.53	255.98	17.43	-36.2	-37.6	17.7	0.00e+00	0	58	0	117440512	44	4131
2026-01-01 11:44:43.54	256.20	17.47	-36.3	-37.7	17.7	0.00e+00	0	58	0	120586240	44	4152
2026-01-01 11:44:44.55	256.43	17.50	-36.2	-37.6	17.7	0.00e+00	0	58	0	123731968	44	4123
2026-01-01 11:44:45.56	256.65	17.53	-36.2	-37.6	17.7	0.00e+00	0	58	0	126877696	44	4121
2026-01-01 11:44:46.58	256.88	17.57	-36.2	-37.6	17.8	0.00e+00	0	58	0	130023424	44	4110
2026-01-01 11:44:47.59	257.11	17.60	-36.1	-37.5	17.8	0.00e+00	0	58	0	133169152	44	4094
2026-01-01 11:44:48.60	257.33	17.63	-36.1	-37.5	17.8	0.00e+00	0	58	0	136314880	44	4090
2026-01-01 11:44:49.61	257.56	17.66	-36.1	-37.5	17.8	0.00e+00	0	58	0	139460608	44	4082
2026-01-01 11:44:50.62	257.78	17.69	-36.1	-37.4	17.9	0.00e+00	0	58	0	142606336	44	4041
2026-01-01 11:44:51.63	258.01	17.72	-36.1	-37.4	17.9	0.00e+00	0	58	0	145752064	44	4049
2026-01-01 11:44:52.64	258.24	17.75	-36.1	-37.5	17.9	0.00e+00	0	58	0	148897792	44	4058
2026-01-01 11:44:53.65	258.47	17.78	-36.0	-37.4	18.0	0.00e+00	0	58	0	152043520	44	4012
2026-01-01 11:44:54.66	258.70	17.81	-35.8	-37.1	18.1	0.00e+00	0	58	0	155189248	43	4132
2026-01-01 11:44:55.67	258.93	17.84	-35.7	-37.0	18.1	0.00e+00	0	58	0	158334976	43	4075
2026-01-01 11:44:56.68	259.16	17.87	-35.7	-37.1	18.1	0.00e+00	0	58	0	161480704	43	4113
2026-01-01 11:44:57.69	259.39	17.90	-35.7	-37.1	18.1	0.00e+00	0	58	0	164626432	43	4115
2026-01-01 11:44:58.70	259.62	17.92	-35.8	-37.2	18.0	0.00e+00	0	58	0	167772160	43	4158
2026-01-01 11:44:59.71	259.85	17.95	-35.8	-37.1	18.1	0.00e+00	0	58	0	170917888	43	4130
2026-01-01 11:45:00.72	260.08	17.98	-35.8	-37.1	18.1	0.00e+00	0	58	0	174063616	43	4125
2026-01-01 11:45:01.73	260.31	18.01	-35.7	-37.1	18.1	0.00e+00	0	58	0	177209344	43	4119
2026-01-01 11:45:02.74	260.54	18.03	-35.7	-37.0	18.2	0.00e+00	0	58	0	180355072	43	4098
2026-01-01 11:45:03.75	260.77	18.06	-35.7	-37.0	18.2	0.00e+00	0	58	0	183500800	43	4090
2026-01-01 11:45:04.76	261.01	18.08	-35.7	-37.0	18.2	0.00e+00	0	58	0	186646528	43	4076
2026-01-01 11:45:05.77	261.24	18.11	-35.7	-37.0	18.1	0.00e+00	0	58	0	189792256	43	4080
2026-01-01 11:45:06.78	261.47	18.13	-35.7	-37.0	18.1	0.00e+00	0	58	0	192937984	43	4095
2026-01-01 11:45:07.79	261.71	18.15	-35.8	-37.2	18.0	0.00e+00	0	58	0	196083712	43	4156
2026-01-01 11:45:08.80	261.94	18.18	-35.8	-37.2	18.0	0.00e+00	0	58	0	199229440	43	4158
2026-01-01 11:45:09.81	262.18	18.20	-35.8	-37.1	18.0	0.00e+00	0	58	0	202375168	43	4140
2026-01-01 11:45:10.82	262.41	18.22	-35.8	-37.1	18.1	0.00e+00	0	58	0	205520896	43	4130
2026-01-01 11:45:11.83	262.65	18.25	-35.7	-37.0	18.2	0.00e+00	0	58	0	208666624	43	4062
2026-01-01 11:45:12.84	262.88	18.27	-35.6	-36.9	18.2	0.00e+00	0	58	0	211812352	43	4029
2026-01-01 11:45:13.85	263.12	18.29	-35.5	-36.9	18.3	0.00e+00	0	58	0	214958080	43	4006
2026-01-01 11:45:14.86	263.35	18.31	-35.6	-36.9	18.3	0.00e+00	0	58	0	218103808	43	4013
2026-01-01 11:45:15.87	263.59	18.33	-35.6	-36.9	18.3	0.00e+00	0	58	0	221249536	43	4035
2026-01-01 11:45:16.88	263.83	18.35	-35.6	-37.0	18.2	0.00e+00	0	58	0	224395264	43	4055
2026-01-01 11:45:17.89	264.06	18.37	-35.6	-37.0	18.2	0.00e+00	0	58	0	227540992	43	4061
2026-01-01 11:45:18.90	264.30	18.39	-35.7	-37.1	18.1	0.00e+00	0	58	0	230686720	43	4102
2026-01-01 11:45:19.92	264.54	18.41	-35.7	-37.0	18.1	0.00e+00	0	58	0	233832448	43	4087
2026-01-01 11:45:20.93	264.78	18.42	-35.7	-37.1	18.1	0.00e+00	0	58	0	236978176	43	4112
2026-01-01 11:45:21.94	265.02	18.44	-35.8	-37.1	18.1	0.00e+00	0	58	0	240123904	43	4127
2026-01-01 11:45:22.95	265.25	18.46	-35.7	-37.1	18.1	0.00e+00	0	58	0	243269632	43	4118
2026-01-01 11:45:23.96	265.49	18.47	-35.8	-37.1	18.1	0.00e+00	0	58	0	246415360	43	4128
2026-01-01 11:45:24.97	265.73	18.49	-35.8	-37.2	18.0	0.00e+00	0	58	0	249561088	43	4172
2026-01-01 11:45:25.98	265.97	18.51	-35.9	-37.3	17.9	0.00e+00	0	58	0	252706816	43	4197
2026-01-01 11:45:26.99	266.21	18.52	-35.9	-37.3	17.9	0.00e+00	0	58	0	255852544	43	4203
2026-01-01 11:45:28.00	266.45	18.54	-36.0	-37.4	17.8	0.00e+00	0	58	0	258998272	43	4249
2026-01-01 11:45:29.01	266.69	18.55	-35.9	-37.3	17.9	0.00e+00	0	58	0	262144000	43	4234
2026-01-01 11:45:30.02	266.93	18.56	-35.9	-37.3	17.9	0.00e+00	0	58	0	265289728	43	4225
2026-01-01 11:45:31.03	267.17	18.58	-35.9	-37.2	18.0	0.00e+00	0	58	0	268435456	43	4190
2026-01-01 11:45:32.04	267.41	18.59	-35.9	-37.3	18.0	0.00e+00	0	58	0	271581184	43	4210
2026-01-01 11:45:33.05	267.65	18.60	-35.9	-37.3	17.9	0.00e+00	0	58	0	274726912	43	4207
2026-01-01 11:45:34.06	267.89	18.61	-35.9	-37.3	17.9	0.00e+00	0	58	0	277872640	43	4225
2026-01-01 11:45:35.07	268.13	18.62	-36.0	-37.4	17.9	0.00e+00	0	58	0	281018368	43	4256
2026-01-01 11:45:36.08	268.37	18.64	-36.1	-37.5	17.8	0.00e+00	0	58	0	284164096	43	4302
2026-01-01 11:45:37.09	268.61	18.65	-36.1	-37.5	17.8	0.00e+00	0	58	0	287309824	43	4316
2026-01-01 11:45:38.10	268.86	18.66	-36.1	-37.5	17.7	0.00e+00	0	58	0	290455552	43	4319
2026-01-01 11:45:39.11	269.10	18.66	-36.1	-37.5	17.8	0.00e+00	0	58	0	294649856	43	4304
2026-01-01 11:45:40.12	269.34	18.67	-36.0	-37.4	17.8	0.00e+00	0	58	0	296747008	43	4269
2026-01-01 11:45:41.13	269.58	18.68	-36.0	-37.4	17.9	0.00e+00	0	58	0	299892736	43	4246
2026-01-01 11:45:42.15	269.82	18.69	-36.0	-37.4	17.9	0.00e+00	0	58	0	303038464	43	4245
2026-01-01 11:45:43.16	270.07	18.70	-35.9	-37.3	17.9	0.00e+00	0	58	0	306184192	43	4224
2026-01-01 11:45:44.17	270.31	18.70	-36.0	-37.3	17.8	0.00e+00	0	58	0	310378496	43	4241
2026-01-01 11:45:45.18	270.55	18.71	-36.0	-37.4	17.8	0.00e+00	0	58	0	313524224	43	4250
2026-01-01 11:45:46.19	270.79	18.72	-36.0	-37.4	17.8	0.00e+00	0	58	0	316669952	43	4262
2026-01-01 11:45:47.20	271.04	18.72	-36.0	-37.3	17.9	0.00e+00	0	58	0	318767104	43	4236
2026-01-01 11:45:48.21	271.28	18.73	-35.9	-37.3	17.9	0.00e+00	0	58	0	321912832	43	4221
2026-01-01 11:45:49.22	271.52	18.73	-35.9	-37.3	17.9	0.00e+00	0	58	0	326107136	43	4221
2026-01-01 11:45:50.23	271.76	18.73	-35.9	-37.3	17.9	0.00e+00	0	58	0	329252864	43	4211
2026-01-01 11:45:51.24	272.01	18.74	-36.0	-37.4	17.8	0.00e+00	0	58	0	332398592	43	4246
2026-01-01 11:45:52.25	272.25	18.74	-36.0	-37.4	17.8	0.00e+00	0	58	0	335544320	43	4274
2026-01-01 11:45:53.26	272.49	18.74	-36.0	-37.5	17.8	0.00e+00	0	58	0	338690048	43	4293
2026-01-01 11:45:54.27	272.73	18.74	-36.0	-37.3	17.9	0.00e+00	0	58	0	341835776	43	4240
2026-01-01 11:45:55.28	272.98	18.75	-35.9	-37.3	17.9	0.00e+00	0	58	0	344981504	43	4206
2026-01-01 11:45:56.29	273.22	18.75	-35.9	-37.3	17.9	0.00e+00	0	58	0	348127232	43	4200
2026-01-01 11:45:57.30	273.46	18.75	-35.9	-37.3	17.9	0.00e+00	0	58	0	351272960	43	4212
2026-01-01 11:45:58.31	273.70	18.75	-35.9	-37.3	17.9	0.00e+00	0	58	0	354418688	43	4224
2026-01-01 11:45:59.32	273.95	18.75	-36.0	-37.4	17.8	0.00e+00	0	58	0	357564416	43	4266
2026-01-01 11:46:00.33	274.19	18.74	-36.0	-37.4	17.8	0.00e+00	0	58	0	360710144	43	4264
2026-01-01 11:46:01.34	274.43	18.74	-36.0	-37.3	17.8	0.00e+00	0	58	0	363855872	43	4238
2026-01-01 11:46:02.35	274.67	18.74	-35.9	-37.3	17.9	0.00e+00	0	58	0	367001600	43	4235
2026-01-01 11:46:03.36	274.92	18.74	-35.9	-37.2	17.9	0.00e+00	0	58	0	370147328	43	4191
2026-01-01 11:46:04.38	275.16	18.73	-35.9	-37.3	17.9	0.00e+00	0	58	0	373293056	43	4213
2026-01-01 11:46:05.39	275.40	18.73	-35.9	-37.3	17.9	0.00e+00	0	58	0	376438784	43	4205
2026-01-01 11:46:06.40	275.65	18.73	-36.0	-37.4	17.9	0.00e+00	0	58	0	379584512	43	4244
2026-01-01 11:46:07.41	275.89	18.72	-35.9	-37.3	17.9	0.00e+00	0	58	0	382730240	43	4207
2026-01-01 11:46:08.42	276.13	18.72	-35.9	-37.2	17.9	0.00e+00	0	58	0	385875968	43	4191
2026-01-01 11:46:09.43	276.37	18.71	-35.8	-37.2	18.0	0.00e+00	0	58	0	389021696	43	4172
2026-01-01 11:46:10.44	276.62	18.70	-35.9	-37.2	17.9	0.00e+00	0	58	0	392167424	43	4192
2026-01-01 11:46:11.45	276.86	18.70	-35.9	-37.3	17.9	0.00e+00	0	58	0	395313152	43	4216
2026-01-01 11:46:12.46	277.10	18.69	-36.0	-37.4	17.8	0.00e+00	0	58	0	398458880	43	4243
2026-01-01 11:46:13.47	277.34	18.68	-36.0	-37.4	17.7	0.00e+00	0	58	0	401604608	43	4280
2026-01-01 11:46:14.48	277.58	18.67	-36.0	-37.4	17.8	0.00e+00	0	58	0	404750336	43	4266
2026-01-01 11:46:15.50	277.83	18.67	-36.0	-37.4	17.8	0.00e+00	0	58	0	407896064	43	4269
2026-01-01 11:46:16.51	278.07	18.66	-35.9	-37.3	17.9	0.00e+00	0	58	0	411041792	43	4232
2026-01-01 11:46:17.52	278.31	18.65	-35.8	-37.2	17.9	0.00e+00	0	58	0	414187520	43	4176
2026-01-01 11:46:18.53	278.55	18.64	-35.9	-37.2	17.9	0.00e+00	0	58	0	417333248	43	4173
2026-01-01 11:46:19.54	278.79	18.63	-35.9	-37.2	17.9	0.00e+00	0	58	0	420478976	43	4191
2026-01-01 11:46:20.55	279.03	18.62	-36.0	-37.4	17.8	0.00e+00	0	58	0	423624704	43	4260
2026-01-01 11:46:21.56	279.27	18.60	-36.0	-37.5	17.7	0.00e+00	0	58	0	426770432	43	4294
2026-01-01 11:46:22.57	279.51	18.59	-36.0	-37.5	17.7	0.00e+00	0	58	0	429916160	43	4292
2026-01-01 11:46:23.58	279.75	18.58	-36.0	-37.5	17.7	0.00e+00	0	58	0	433061888	43	4294
2026-01-01 11:46:24.59	279.99	18.57	-36.0	-37.4	17.8	0.00e+00	0	58	0	436207616	43	4255
2026-01-01 11:46:25.60	280.23	18.55	-35.9	-37.3	17.9	0.00e+00	0	58	0	439353344	43	4215
2026-01-01 11:46:26.61	280.47	18.54	-35.9	-37.3	17.9	0.00e+00	0	58	0	442499072	43	4211
2026-01-01 11:46:27.62	280.71	18.52	-35.8	-37.2	18.0	0.00e+00	0	58	0	445644800	43	4166
2026-01-01 11:46:28.63	280.95	18.51	-35.9	-37.2	17.9	0.00e+00	0	58	0	448790528	43	4190
2026-01-01 11:46:29.64	281.19	18.49	-35.9	-37.3	17.8	0.00e+00	0	58	0	451936256	43	4232
2026-01-01 11:46:30.65	281.43	18.48	-36.0	-37.4	17.7	0.00e+00	0	58	0	455081984	43	4291
2026-01-01 11:46:31.66	281.66	18.46	-36.0	-37.5	17.7	0.00e+00	0	58	0	458227712	43	4296
2026-01-01 11:46:32.67	281.90	18.44	-35.9	-37.3	17.8	0.00e+00	0	58	0	461373440	43	4232
2026-01-01 11:46:33.68	282.14	18.43	-35.9	-37.3	17.9	0.00e+00	0	58	0	464519168	43	4195
2026-01-01 11:46:34.69	282.38	18.41	-35.8	-37.2	18.0	0.00e+00	0	58	0	467664896	43	4149
2026-01-01 11:46:35.70	282.61	18.39	-35.9	-37.3	17.9	0.00e+00	0	58	0	470810624	43	4195
2026-01-01 11:46:36.71	282.85	18.37	-36.0	-37.4	17.7	0.00e+00	0	58	0	473956352	43	4284
2026-01-01 11:46:37.72	283.09	18.35	-36.2	-37.6	17.6	0.00e+00	0	58	0	477102080	43	4378
2026-01-01 11:46:38.73	283.32	18.33	-36.2	-37.7	17.5	0.00e+00	0	58	0	480247808	43	4412
2026-01-01 11:46:39.74	283.56	18.31	-36.3	-37.7	17.5	0.00e+00	0	58	0	483393536	43	4428
2026-01-01 11:46:40.75	283.79	18.29	-36.1	-37.6	17.6	0.00e+00	0	58	0	486539264	43	4355
2026-01-01 11:46:41.77	284.03	18.27	-36.0	-37.5	17.7	0.00e+00	0	58	0	489684992	43	4298
2026-01-01 11:46:42.78	284.27	18.25	-36.0	-37.4	17.7	0.00e+00	0	58	0	492830720	43	4254
2026-01-01 11:46:43.79	284.50	18.23	-35.8	-37.2	17.8	0.00e+00	0	58	0	495976448	43	4188
2026-01-01 11:46:44.80	284.74	18.21	-35.9	-37.2	17.8	0.00e+00	0	58	0	499122176	43	4189
2026-01-01 11:46:45.81	284.97	18.18	-35.8	-37.2	17.9	0.00e+00	0	58	0	502267904	43	4153
2026-01-01 11:46:46.82	285.20	18.16	-35.7	-37.1	18.0	0.00e+00	0	58	0	505413632	43	4107
2026-01-01 11:46:47.83	285.44	18.14	-35.7	-37.1	18.1	0.00e+00	0	58	0	508559360	43	4115
2026-01-01 11:46:48.84	285.67	18.11	-35.7	-37.1	18.1	0.00e+00	0	58	0	511705088	43	4106
2026-01-01 11:46:49.85	285.90	18.09	-35.7	-37.0	18.1	0.00e+00	0	58	0	514850816	43	4095
2026-01-01 11:46:50.86	286.13	18.06	-35.7	-37.1	18.1	0.00e+00	0	58	0	517996544	43	4099
2026-01-01 11:46:51.87	286.37	18.04	-35.8	-37.1	18.0	0.00e+00	0	58	0	521142272	43	4132
2026-01-01 11:46:52.88	286.60	18.01	-35.8	-37.2	17.9	0.00e+00	0	58	0	524288000	43	4170
2026-01-01 11:46:53.89	286.83	17.99	-35.8	-37.2	17.9	0.00e+00	0	58	0	527433728	43	4166
2026-01-01 11:46:54.90	287.06	17.96	-35.8	-37.2	17.9	0.00e+00	0	58	0	530579456	43	4175
2026-01-01 11:46:55.91	287.29	17.93	-35.7	-37.1	18.0	0.00e+00	0	58	0	533725184	43	4121
2026-01-01 11:46:56.92	287.52	17.90	-35.7	-37.1	18.1	0.00e+00	0	58	0	536870912	43	4111
2026-01-01 11:46:57.93	287.75	17.88	-35.7	-37.0	18.1	0.00e+00	0	58	0	540016640	43	4094
2026-01-01 11:46:58.94	287.98	17.85	-35.7	-37.0	18.1	0.00e+00	0	58	0	543162368	43	4078
2026-01-01 11:46:59.95	288.21	17.82	-35.7	-37.0	18.1	0.00e+00	0	58	0	546308096	43	4071
2026-01-01 11:47:00.96	288.43	17.79	-35.7	-37.0	18.1	0.00e+00	0	58	0	549453824	43	4076
2026-01-01 11:47:01.97	288.66	17.76	-35.7	-37.0	18.1	0.00e+00	0	58	0	552599552	43	4075
2026-01-01 11:47:02.98	288.89	17.73	-35.7	-37.0	18.1	0.00e+00	0	58	0	555745280	43	4097
2026-01-01 11:47:03.99	289.11	17.70	-35.7	-37.1	18.0	0.00e+00	0	58	0	558891008	43	4106
2026-01-01 11:47:05.00	289.34	17.67	-35.8	-37.1	18.0	0.00e+00	0	58	0	562036736	43	4126
2026-01-01 11:47:06.01	289.57	17.64	-35.8	-37.1	18.0	0.00e+00	0	58	0	565182464	43	4140
2026-01-01 11:47:07.02	289.79	17.61	-35.8	-37.2	17.9	0.00e+00	0	58	0	568328192	43	4162
2026-01-01 11:47:08.03	290.02	17.58	-35.8	-37.2	17.9	0.00e+00	0	58	0	571473920	43	4168
2026-01-01 11:47:09.04	290.24	17.54	-35.9	-37.3	17.8	0.00e+00	0	58	0	574619648	43	4197
2026-01-01 11:47:10.05	290.47	17.51	-35.9	-37.3	17.8	0.00e+00	0	58	0	577765376	43	4213
2026-01-01 11:47:11.06	290.69	17.48	-35.9	-37.3	17.8	0.00e+00	0	58	0	581959680	43	4205
2026-01-01 11:47:12.07	290.91	17.44	-35.8	-37.2	17.9	0.00e+00	0	58	0	585105408	43	4169
2026-01-01 11:47:13.08	291.13	17.41	-35.7	-37.1	18.0	0.00e+00	0	58	0	587202560	43	4107
2026-01-01 11:47:14.10	291.36	17.38	-35.7	-37.0	18.1	0.00e+00	0	58	0	590348288	43	4081
2026-01-01 11:47:15.10	291.58	17.34	-35.7	-37.0	18.1	0.00e+00	0	58	0	593494016	43	4090
2026-01-01 11:47:16.11	291.80	17.31	-35.7	-37.1	18.0	0.00e+00	0	58	0	597688320	43	4118
2026-01-01 11:47:17.13	292.02	17.27	-35.7	-37.1	18.0	0.00e+00	0	58	0	600834048	43	4104
2026-01-01 11:47:18.13	292.24	17.24	-35.7	-37.1	18.0	0.00e+00	0	58	0	603979776	43	4102
2026-01-01 11:47:19.14	292.46	17.20	-35.6	-37.0	18.1	0.00e+00	0	58	0	607125504	43	4066
2026-01-01 11:47:20.16	292.68	17.16	-35.6	-36.9	18.2	0.00e+00	0	58	0	610271232	43	4028
2026-01-01 11:47:21.17	292.90	17.13	-35.6	-36.9	18.2	0.00e+00	0	58	0	613416960	43	4031
2026-01-01 11:47:22.17	293.11	17.09	-35.6	-36.9	18.2	0.00e+00	0	58	0	616562688	43	4024
2026-01-01 11:47:23.19	293.33	17.05	-35.6	-36.9	18.2	0.00e+00	0	58	0	619708416	43	4046
2026-01-01 11:47:24.20	293.55	17.02	-35.6	-37.0	18.1	0.00e+00	0	58	0	622854144	43	4064
2026-01-01 11:47:25.21	293.77	16.98	-35.6	-37.0	18.1	0.00e+00	0	58	0	625999872	43	4071
2026-01-01 11:47:26.22	293.98	16.94	-35.7	-37.1	18.0	0.00e+00	0	58	0	629145600	43	4100
2026-01-01 11:47:27.23	294.20	16.90	-35.7	-37.1	18.0	0.00e+00	0	58	0	632291328	43	4120
2026-01-01 11:47:28.24	294.41	16.86	-35.7	-37.1	18.0	0.00e+00	0	58	0	635437056	43	4117
2026-01-01 11:47:29.25	294.63	16.82	-35.7	-37.1	18.0	0.00e+00	0	58	0	638582784	43	4131
2026-01-01 11:47:30.26	294.84	16.78	-35.7	-37.1	18.0	0.00e+00	0	58	0	641728512	43	4115
2026-01-01 11:47:31.27	295.05	16.74	-35.7	-37.0	18.0	0.00e+00	0	58	0	644874240	43	4093
2026-01-01 11:47:32.28	295.26	16.70	-35.7	-37.0	18.0	0.00e+00	0	58	0	648019968	43	4096
2026-01-01 11:47:33.29	295.48	16.66	-35.7	-37.1	18.0	0.00e+00	0	58	0	651165696	43	4103
2026-01-01 11:47:34.30	295.69	16.62	-35.6	-37.0	18.1	0.00e+00	0	58	0	654311424	43	4055
2026-01-01 11:47:35.31	295.90	16.58	-35.6	-36.9	18.1	0.00e+00	0	58	0	657457152	43	4044
2026-01-01 11:47:36.32	296.11	16.54	-35.7	-37.0	18.0	0.00e+00	0	58	0	660602880	43	4082
2026-01-01 11:47:37.33	296.32	16.50	-35.7	-37.0	18.0	0.00e+00	0	58	0	663748608	43	4082
2026-01-01 11:47:38.34	296.53	16.46	-35.7	-37.1	18.0	0.00e+00	0	58	0	666894336	43	4103
2026-01-01 11:47:39.35	296.74	16.42	-35.8	-37.2	17.9	0.00e+00	0	58	0	670040064	43	4147
2026-01-01 11:47:40.36	296.94	16.37	-35.8	-37.2	17.8	0.00e+00	0	58	0	673185792	43	4180
2026-01-01 11:47:41.37	297.15	16.33	-35.8	-37.2	17.9	0.00e+00	0	58	0	676331520	43	4163
2026-01-01 11:47:42.38	297.36	16.29	-35.8	-37.2	17.9	0.00e+00	0	58	0	679477248	43	4149
2026-01-01 11:47:43.39	297.56	16.24	-35.8	-37.2	17.9	0.00e+00	0	58	0	682622976	43	4176
2026-01-01 11:47:44.40	297.77	16.20	-35.8	-37.2	17.9	0.00e+00	0	58	0	685768704	43	4182
2026-01-01 11:47:45.41	297.97	16.16	-35.8	-37.2	17.9	0.00e+00	0	58	0	688914432	43	4175
2026-01-01 11:47:46.43	298.18	16.11	-35.8	-37.2	17.8	0.00e+00	0	58	0	692060160	43	4183
2026-01-01 11:47:47.43	298.38	16.07	-35.8	-37.2	17.9	0.00e+00	0	58	0	695205888	43	4163
2026-01-01 11:47:48.45	298.59	16.02	-35.8	-37.1	17.9	0.00e+00	0	58	0	698351616	43	4137
2026-01-01 11:47:49.46	298.79	15.98	-35.8	-37.2	17.9	0.00e+00	0	58	0	701497344	43	4151
2026-01-01 11:47:50.47	298.99	15.93	-35.9	-37.3	17.8	0.00e+00	0	58	0	704643072	43	4215
2026-01-01 11:47:51.48	299.19	15.89	-36.0	-37.4	17.7	0.00e+00	0	58	0	707788800	43	4272
2026-01-01 11:47:52.49	299.40	15.84	-36.0	-37.5	17.6	0.00e+00	0	58	0	710934528	43	4303
2026-01-01 11:47:53.50	299.60	15.80	-36.1	-37.5	17.6	0.00e+00	0	58	0	714080256	43	4315
2026-01-01 11:47:54.51	299.80	15.75	-36.1	-37.6	17.5	0.00e+00	0	58	0	717225984	43	4359
2026-01-01 11:47:55.52	299.99	15.70	-36.2	-37.6	17.4	0.00e+00	0	58	0	720371712	43	4390
2026-01-01 11:47:56.53	300.19	15.66	-36.2	-37.6	17.5	0.00e+00	0	58	0	723517440	43	4372
2026-01-01 11:47:57.54	300.39	15.61	-36.2	-37.7	17.4	0.00e+00	0	58	0	726663168	43	4394
2026-01-01 11:47:58.55	300.59	15.56	-36.2	-37.6	17.5	0.00e+00	0	58	0	729808896	43	4383
2026-01-01 11:47:59.56	300.78	15.52	-36.1	-37.6	17.5	0.00e+00	0	58	0	732954624	43	4351
2026-01-01 11:48:00.57	300.98	15.47	-36.1	-37.5	17.5	0.00e+00	0	58	0	736100352	43	4332
2026-01-01 11:48:01.58	301.18	15.42	-36.1	-37.5	17.6	0.00e+00	0	58	0	739246080	43	4322
2026-01-01 11:48:02.59	301.37	15.37	-36.1	-37.5	17.6	0.00e+00	0	58	0	742391808	43	4328
2026-01-01 11:48:03.60	301.56	15.32	-36.1	-37.5	17.6	0.00e+00	0	58	0	745537536	43	4316
2026-01-01 11:48:04.61	301.76	15.28	-36.1	-37.5	17.6	0.00e+00	0	58	0	748683264	43	4312
2026-01-01 11:48:05.62	301.95	15.23	-36.2	-37.7	17.4	0.00e+00	0	58	0	751828992	43	4400
2026-01-01 11:48:06.63	302.14	15.18	-36.3	-37.8	17.3	0.00e+00	0	58	0	754974720	43	4454
2026-01-01 11:48:07.64	302.33	15.13	-36.4	-37.9	17.2	0.00e+00	0	58	0	758120448	43	4524
2026-01-01 11:48:08.66	302.53	15.08	-36.5	-38.0	17.1	0.00e+00	0	57	0	761266176	43	4569
2026-01-01 11:48:09.67	302.72	15.03	-36.5	-38.0	17.1	0.00e+00	0	57	0	764411904	43	4587
2026-01-01 11:48:10.68	302.91	14.98	-36.5	-38.0	17.1	0.00e+00	0	58	0	767557632	43	4554
2026-01-01 11:48:11.69	303.10	14.93	-36.5	-38.0	17.1	0.00e+00	0	58	0	770703360	43	4556
2026-01-01 11:48:12.70	303.29	14.88	-36.4	-37.9	17.1	0.00e+00	0	57	0	773849088	43	4535
2026-01-01 11:48:13.71	303.47	14.83	-36.4	-37.9	17.2	0.00e+00	0	58	0	776994816	43	4519
2026-01-01 11:48:14.72	303.66	14.78	-36.4	-37.8	17.2	0.00e+00	0	58	0	780140544	43	4488
2026-01-01 11:48:15.73	303.85	14.73	-36.3	-37.7	17.3	0.00e+00	0	58	0	783286272	43	4439
2026-01-01 11:48:16.74	304.03	14.68	-36.3	-37.7	17.3	0.00e+00	0	58	0	786432000	43	4438
2026-01-01 11:48:17.75	304.22	14.63	-36.2	-37.7	17.3	0.00e+00	0	58	0	789577728	43	4418
2026-01-01 11:48:18.76	304.40	14.58	-36.2	-37.7	17.3	0.00e+00	0	58	0	792723456	43	4416
2026-01-01 11:48:19.77	304.59	14.53	-36.3	-37.8	17.3	0.00e+00	0	58	0	795869184	43	4455
2026-01-01 11:48:20.78	304.77	14.48	-36.3	-37.8	17.2	0.00e+00	0	58	0	799014912	43	4473
2026-01-01 11:48:21.79	304.95	14.43	-36.4	-37.9	17.1	0.00e+00	0	58	0	802160640	43	4520
2026-01-01 11:48:22.80	305.14	14.37	-36.4	-37.9	17.1	0.00e+00	0	58	0	805306368	43	4526
2026-01-01 11:48:23.81	305.32	14.32	-36.5	-38.0	17.1	0.00e+00	0	58	0	808452096	43	4562
2026-01-01 11:48:24.82	305.50	14.27	-36.5	-38.0	17.0	0.00e+00	0	58	0	811597824	43	4580
2026-01-01 11:48:25.83	305.68	14.22	-36.5	-38.0	17.0	0.00e+00	0	58	0	814743552	43	4575
2026-01-01 11:48:26.84	305.86	14.17	-36.5	-38.0	17.0	0.00e+00	0	57	0	817889280	43	4584
2026-01-01 11:48:27.85	306.04	14.11	-36.5	-38.0	17.0	0.00e+00	0	58	0	821035008	43	4590
2026-01-01 11:48:28.86	306.22	14.06	-36.5	-38.1	17.0	0.00e+00	0	58	0	824180736	43	4608
2026-01-01 11:48:29.87	306.40	14.01	-36.5	-38.0	17.0	0.00e+00	0	58	0	827326464	43	4572
2026-01-01 11:48:30.88	306.57	13.96	-36.4	-37.9	17.1	0.00e+00	0	58	0	830472192	43	4532
2026-01-01 11:48:31.88	306.75	13.90	-36.4	-37.8	17.2	0.00e+00	0	58	0	833617920	43	4491
2026-01-01 11:48:32.89	306.92	13.85	-36.4	-37.8	17.2	0.00e+00	0	58	0	836763648	43	4483
2026-01-01 11:48:33.90	307.10	13.80	-36.3	-37.8	17.2	0.00e+00	0	58	0	839909376	43	4466
2026-01-01 11:48:34.91	307.28	13.74	-36.3	-37.8	17.2	0.00e+00	0	58	0	843055104	43	4461
2026-01-01 11:48:35.92	307.45	13.69	-36.4	-37.9	17.1	0.00e+00	0	58	0	846200832	43	4509
2026-01-01 11:48:36.93	307.62	13.64	-36.4	-37.9	17.1	0.00e+00	0	57	0	849346560	43	4537
2026-01-01 11:48:37.94	307.80	13.58	-36.4	-38.0	17.1	0.00e+00	0	58	0	852492288	43	4553
2026-01-01 11:48:38.96	307.97	13.53	-36.5	-38.0	17.0	0.00e+00	0	58	0	855638016	43	4594
2026-01-01 11:48:39.97	308.14	13.48	-36.6	-38.1	16.9	0.00e+00	0	58	0	858783744	43	4621
2026-01-01 11:48:40.98	308.31	13.42	-36.6	-38.1	16.9	0.00e+00	0	58	0	861929472	43	4646
2026-01-01 11:48:41.99	308.48	13.37	-36.7	-38.2	16.8	0.00e+00	0	58	0	865075200	43	4703
2026-01-01 11:48:43.00	308.65	13.31	-36.9	-38.5	16.7	0.00e+00	0	58	0	868220928	44	4573
2026-01-01 11:48:44.01	308.82	13.26	-36.9	-38.5	16.7	0.00e+00	0	58	0	871366656	44	4579
2026-01-01 11:48:45.02	308.99	13.20	-36.9	-38.5	16.7	0.00e+00	0	58	0	875560960	44	4556
2026-01-01 11:48:46.03	309.16	13.15	-36.9	-38.5	16.7	0.00e+00	0	57	0	878706688	44	4560
2026-01-01 11:48:47.04	309.33	13.10	-36.9	-38.4	16.7	0.00e+00	0	58	0	880803840	44	4536
2026-01-01 11:48:48.05	309.50	13.04	-36.9	-38.5	16.7	0.00e+00	0	58	0	883949568	44	4564
2026-01-01 11:48:49.06	309.66	12.99	-36.9	-38.4	16.7	0.00e+00	0	58	0	888143872	44	4534
2026-01-01 11:48:50.07	309.83	12.93	-36.9	-38.4	16.7	0.00e+00	0	58	0	891289600	44	4537
2026-01-01 11:48:51.09	310.00	12.88	-36.9	-38.4	16.7	0.00e+00	0	57	0	894435328	44	4537
2026-01-01 11:48:52.10	310.16	12.82	-36.8	-38.4	16.8	0.00e+00	0	58	0	897581056	44	4496
2026-01-01 11:48:53.11	310.32	12.77	-36.8	-38.4	16.8	0.00e+00	0	58	0	900726784	44	4503
2026-01-01 11:48:54.12	310.49	12.71	-36.8	-38.3	16.8	0.00e+00	0	58	0	903872512	44	4491
2026-01-01 11:48:55.13	310.65	12.65	-36.8	-38.3	16.9	0.00e+00	0	58	0	907018240	44	4467
2026-01-01 11:48:56.14	310.81	12.60	-36.8	-38.3	16.9	0.00e+00	0	58	0	910163968	44	4482
2026-01-01 11:48:57.15	310.97	12.54	-36.8	-38.4	16.8	0.00e+00	0	58	0	913309696	44	4514
2026-01-01 11:48:58.16	311.14	12.49	-36.9	-38.4	16.7	0.00e+00	0	58	0	916455424	44	4544
2026-01-01 11:48:59.17	311.30	12.43	-37.0	-38.6	16.6	0.00e+00	0	58	0	919601152	44	4599
2026-01-01 11:49:00.18	311.46	12.38	-36.9	-38.5	16.7	0.00e+00	0	58	0	922746880	44	4557
2026-01-01 11:49:01.19	311.61	12.32	-36.9	-38.4	16.7	0.00e+00	0	58	0	925892608	44	4529
2026-01-01 11:49:02.20	311.77	12.27	-36.9	-38.4	16.7	0.00e+00	0	58	0	929038336	44	4544
2026-01-01 11:49:03.21	311.93	12.21	-36.9	-38.4	16.7	0.00e+00	0	58	0	932184064	44	4545
2026-01-01 11:49:04.22	312.09	12.15	-36.9	-38.4	16.7	0.00e+00	0	58	0	935329792	44	4532
2026-01-01 11:49:05.23	312.25	12.10	-36.9	-38.4	16.7	0.00e+00	0	58	0	938475520	44	4530
2026-01-01 11:49:06.24	312.40	12.04	-36.8	-38.4	16.8	0.00e+00	0	58	0	941621248	44	4502
2026-01-01 11:49:07.25	312.56	11.99	-36.8	-38.3	16.8	0.00e+00	0	58	0	944766976	44	4489
2026-01-01 11:49:08.26	312.71	11.93	-36.8	-38.3	16.8	0.00e+00	0	58	0	947912704	44	4463
2026-01-01 11:49:09.27	312.87	11.87	-36.8	-38.3	16.8	0.00e+00	0	58	0	951058432	44	4474
2026-01-01 11:49:10.28	313.02	11.82	-36.7	-38.3	16.9	0.00e+00	0	58	0	954204160	44	4448
2026-01-01 11:49:11.29	313.18	11.76	-36.7	-38.3	16.8	0.00e+00	0	58	0	957349888	44	4450
2026-01-01 11:49:12.30	313.33	11.70	-36.7	-38.2	16.9	0.00e+00	0	58	0	960495616	44	4419
2026-01-01 11:49:13.31	313.48	11.65	-36.7	-38.3	16.8	0.00e+00	0	58	0	963641344	44	4460
2026-01-01 11:49:14.32	313.63	11.59	-36.8	-38.3	16.8	0.00e+00	0	58	0	966787072	44	4469
2026-01-01 11:49:15.34	313.79	11.53	-36.8	-38.4	16.7	0.00e+00	0	58	0	969932800	44	4506
2026-01-01 11:49:16.35	313.94	11.48	-36.8	-38.4	16.7	0.00e+00	0	58	0	973078528	44	4514
2026-01-01 11:49:17.36	314.09	11.42	-36.9	-38.5	16.6	0.00e+00	0	58	0	976224256	44	4550
2026-01-01 11:49:18.37	314.24	11.36	-37.0	-38.6	16.6	0.00e+00	0	58	0	979369984	44	4599
2026-01-01 11:49:19.38	314.38	11.31	-36.9	-38.5	16.6	0.00e+00	0	58	0	982515712	44	4578
2026-01-01 11:49:20.39	314.53	11.25	-36.9	-38.5	16.6	0.00e+00	0	58	0	985661440	44	4560
2026-01-01 11:49:21.40	314.68	11.19	-36.9	-38.5	16.5	0.00e+00	0	58	0	988807168	44	4590
2026-01-01 11:49:22.41	314.83	11.14	-37.0	-38.6	16.4	0.00e+00	0	58	0	991952896	44	4649
2026-01-01 11:49:23.42	314.98	11.08	-37.0	-38.7	16.4	0.00e+00	0	58	0	995098624	44	4653
2026-01-01 11:49:24.43	315.12	11.02	-37.0	-38.7	16.4	0.00e+00	0	58	0	998244352	44	4673
2026-01-01 11:49:25.44	315.27	10.97	-37.1	-38.7	16.4	0.00e+00	0	58	0	1001390080	44	4684
2026-01-01 11:49:26.45	315.41	10.91	-37.1	-38.7	16.4	0.00e+00	0	58	0	1004535808	44	4677
2026-01-01 11:49:27.46	315.56	10.85	-37.1	-38.8	16.3	0.00e+00	0	58	0	1007681536	44	4712
2026-01-01 11:49:28.47	315.70	10.79	-37.0	-38.6	16.5	0.00e+00	0	58	0	1010827264	44	4620
2026-01-01 11:49:29.48	315.84	10.74	-36.9	-38.5	16.6	0.00e+00	0	58	0	1013972992	44	4585
2026-01-01 11:49:30.49	315.99	10.68	-37.0	-38.6	16.5	0.00e+00	0	58	0	1017118720	44	4624
2026-01-01 11:49:31.51	316.13	10.62	-37.0	-38.6	16.5	0.00e+00	0	58	0	1020264448	44	4623
2026-01-01 11:49:32.52	316.27	10.57	-37.0	-38.6	16.5	0.00e+00	0	58	0	1023410176	44	4624
2026-01-01 11:49:33.53	316.41	10.51	-37.0	-38.6	16.5	0.00e+00	0	58	0	1026555904	44	4620
2026-01-01 11:49:34.54	316.55	10.45	-37.0	-38.7	16.4	0.00e+00	0	58	0	1029701632	44	4666
2026-01-01 11:49:35.55	316.69	10.39	-37.0	-38.6	16.5	0.00e+00	0	58	0	1032847360	44	4621
2026-01-01 11:49:36.56	316.83	10.34	-37.0	-38.6	16.5	0.00e+00	0	58	0	1035993088	44	4604
2026-01-01 11:49:37.57	316.97	10.28	-36.9	-38.6	16.5	0.00e+00	0	58	0	1039138816	44	4600
2026-01-01 11:49:38.58	317.11	10.22	-37.0	-38.6	16.4	0.00e+00	0	58	0	1042284544	44	4641
2026-01-01 11:49:39.59	317.25	10.17	-37.0	-38.6	16.4	0.00e+00	0	58	0	1045430272	44	4637
2026-01-01 11:49:40.60	317.39	10.11	-37.0	-38.7	16.4	0.00e+00	0	58	0	1048576000	44	4664
2026-01-01 11:49:41.62	317.53	10.05	-37.1	-38.7	16.3	0.00e+00	0	58	0	1051721728	44	4693
2026-01-01 11:49:42.63	317.66	9.99	-37.1	-38.8	16.2	0.00e+00	0	58	0	1054867456	44	4721
2026-01-01 11:49:43.64	317.80	9.94	-37.2	-38.8	16.2	0.00e+00	0	58	0	1058013184	44	4743
2026-01-01 11:49:44.65	317.93	9.88	-37.2	-38.9	16.2	0.00e+00	0	58	0	1061158912	45	4504
2026-01-01 11:49:45.66	318.07	9.82	-37.3	-38.9	16.1	0.00e+00	0	58	0	1064304640	45	4540
2026-01-01 11:49:46.67	318.20	9.76	-37.3	-39.0	16.0	0.00e+00	0	58	0	1067450368	45	4571
2026-01-01 11:49:47.68	318.34	9.71	-37.4	-39.1	15.9	0.00e+00	0	58	0	1070596096	45	4624
2026-01-01 11:49:48.69	318.47	9.65	-37.5	-39.2	15.8	0.00e+00	0	57	0	1073741824	45	4673
2026-01-01 11:49:49.70	318.60	9.59	-37.6	-39.3	15.7	0.00e+00	0	58	0	1076887552	45	4750
2026-01-01 11:49:50.71	318.74	9.54	-37.5	-39.3	15.8	0.00e+00	0	58	0	1080033280	45	4710
2026-01-01 11:49:51.72	318.87	9.48	-37.4	-39.2	15.9	0.00e+00	0	58	0	1083179008	45	4657
2026-01-01 11:49:52.73	319.00	9.42	-37.6	-39.4	15.7	7.00e-07	0	58	0	1086324736	45	4763
2026-01-01 11:49:53.74	319.13	9.36	-37.5	-39.3	15.7	0.00e+00	0	58	0	1089470464	45	4721
2026-01-01 11:49:54.75	319.26	9.31	-37.6	-39.3	15.7	0.00e+00	0	58	0	1092616192	45	4748
2026-01-01 11:49:55.76	319.39	9.25	-37.7	-39.5	15.5	0.00e+00	0	58	0	1095761920	45	4822
2026-01-01 11:49:56.77	319.52	9.19	-37.6	-39.5	15.5	0.00e+00	0	58	0	1098907648	45	4815
2026-01-01 11:49:57.79	319.65	9.13	-37.7	-39.5	15.5	0.00e+00	0	58	0	1102053376	45	4838
2026-01-01 11:49:58.80	319.78	9.08	-37.8	-39.6	15.4	7.00e-07	0	58	0	1105199104	46	4625
2026-01-01 11:49:59.81	319.91	9.02	-37.8	-39.6	15.4	0.00e+00	0	58	0	1108344832	46	4650
2026-01-01 11:50:00.82	320.04	8.96	-37.7	-39.6	15.4	0.00e+00	0	58	0	1111490560	46	4611
2026-01-01 11:50:01.83	320.16	8.91	-37.8	-39.6	15.4	0.00e+00	0	58	0	1114636288	46	4628
2026-01-01 11:50:02.84	320.29	8.85	-37.8	-39.6	15.3	0.00e+00	0	58	0	1117782016	46	4647
2026-01-01 11:50:03.85	320.42	8.79	-37.9	-39.8	15.2	0.00e+00	0	58	0	1120927744	46	4716
2026-01-01 11:50:04.86	320.54	8.73	-37.9	-39.8	15.2	0.00e+00	0	58	0	1124073472	46	4745
2026-01-01 11:50:05.87	320.67	8.68	-37.9	-39.8	15.2	0.00e+00	0	58	0	1127219200	46	4726
2026-01-01 11:50:06.88	320.79	8.62	-37.9	-39.8	15.1	0.00e+00	0	58	0	1130364928	46	4756
2026-01-01 11:50:07.89	320.92	8.56	-38.0	-39.9	15.1	0.00e+00	0	58	0	1133510656	46	4788
2026-01-01 11:50:08.90	321.04	8.51	-38.0	-39.9	15.1	0.00e+00	0	58	0	1136656384	46	4782
2026-01-01 11:50:09.91	321.16	8.45	-37.9	-39.8	15.2	0.00e+00	0	58	0	1140850688	46	4724
2026-01-01 11:50:10.92	321.29	8.39	-37.9	-39.8	15.1	0.00e+00	0	58	0	1143996416	46	4745
2026-01-01 11:50:11.93	321.41	8.34	-37.9	-39.7	15.2	0.00e+00	0	58	0	1147142144	46	4701
2026-01-01 11:50:12.94	321.53	8.28	-37.9	-39.8	15.1	0.00e+00	0	58	0	1149239296	46	4751
2026-01-01 11:50:13.95	321.65	8.22	-37.9	-39.8	15.1	0.00e+00	0	58	0	1152385024	46	4718
2026-01-01 11:50:14.96	321.77	8.16	-37.9	-39.8	15.1	0.00e+00	0	58	0	1156579328	46	4720
2026-01-01 11:50:15.97	321.89	8.11	-38.0	-39.9	15.0	0.00e+00	0	58	0	1159725056	46	4780
2026-01-01 11:50:16.98	322.01	8.05	-38.0	-39.9	15.0	0.00e+00	0	58	0	1162870784	46	4784
2026-01-01 11:50:17.99	322.13	7.99	-44.3	-56.4	3.8	4.80e-01	0	58	104	1164967936	59	15125
2026-01-01 11:50:19.00	322.25	7.94	-44.5	-56.5	3.8	1.49e+00	0	58	104	1164967936	59	15263
2026-01-01 11:50:20.01	322.37	7.88	-44.7	-56.8	3.8	1.49e+00	0	58	104	1164967936	59	15919
2026-01-01 11:50:21.02	322.49	7.82	-44.7	-57.0	3.8	1.49e+00	0	58	104	1164967936	60	15379
2026-01-01 11:50:22.03	322.61	7.77	-44.9	-57.2	3.8	1.49e+00	0	58	104	1164967936	60	15711
2026-01-01 11:50:23.04	322.72	7.71	-45.0	-57.3	3.8	1.49e+00	0	58	104	1164967936	60	15860
2026-01-01 11:50:24.05	322.84	7.65	-45.0	-57.3	3.8	1.49e+00	0	58	104	1164967936	60	15926
2026-01-01 11:50:25.07	322.96	7.60	-45.0	-57.3	3.8	1.49e+00	0	58	104	1164967936	60	15937
2026-01-01 11:50:26.08	323.07	7.54	-45.0	-57.4	3.8	1.49e+00	0	58	104	1164967936	60	15980
2026-01-01 11:50:27.09	323.19	7.48	-45.0	-57.3	3.8	1.49e+00	0	58	104	1164967936	60	15937
2026-01-01 11:50:28.10	323.31	7.43	-45.0	-57.3	3.8	1.49e+00	0	58	104	1164967936	60	15833
2026-01-01 11:50:29.11	323.42	7.37	-44.9	-57.3	3.8	1.49e+00	0	58	104	1164967936	60	15816
2026-01-01 11:50:30.12	323.54	7.31	-44.9	-57.3	3.8	1.49e+00	0	58	104	1164967936	60	15803
2026-01-01 11:50:31.13	323.65	7.26	-44.9	-57.3	3.8	1.49e+00	0	58	104	1164967936	60	15814
2026-01-01 11:50:32.14	323.76	7.20	-45.0	-57.3	3.8	1.49e+00	0	58	104	1164967936	60	15930
2026-01-01 11:50:33.15	323.88	7.14	-44.9	-57.3	3.8	1.49e+00	0	58	104	1164967936	60	15806
2026-01-01 11:50:34.16	323.99	7.09	-44.9	-57.3	3.8	1.49e+00	0	58	104	1164967936	60	15809
2026-01-01 11:50:35.17	324.10	7.03	-44.9	-57.3	3.8	1.49e+00	0	58	104	1164967936	60	15804
2026-01-01 11:50:36.18	324.21	6.97	-44.9	-57.3	3.8	1.49e+00	0	58	104	1164967936	60	15793
2026-01-01 11:50:37.19	324.32	6.92	-44.9	-57.3	3.8	1.49e+00	0	58	104	1164967936	60	15762
2026-01-01 11:50:38.20	324.44	6.86	-44.9	-57.3	3.8	1.49e+00	0	58	104	1164967936	60	15831
2026-01-01 11:50:39.21	324.55	6.81	-44.9	-57.3	3.8	1.49e+00	0	58	104	1164967936	60	15817
2026-01-01 11:50:40.23	324.66	6.75	-44.9	-57.3	3.8	1.49e+00	0	58	104	1164967936	60	15786
2026-01-01 11:50:41.24	324.77	6.69	-44.9	-57.3	3.8	1.49e+00	0	58	104	1164967936	60	15781
2026-01-01 11:50:42.25	324.88	6.64	-44.9	-57.3	3.8	1.49e+00	0	58	104	1164967936	60	15788
2026-01-01 11:50:43.26	324.99	6.58	-44.9	-57.3	3.8	1.49e+00	0	58	104	1164967936	60	15770
2026-01-01 11:50:44.27	325.09	6.52	-44.9	-57.3	3.8	1.49e+00	0	58	104	1164967936	60	15802
2026-01-01 11:50:45.28	325.20	6.47	-44.9	-57.3	3.8	1.49e+00	0	58	104	1164967936	60	15774
2026-01-01 11:50:46.29	325.31	6.41	-44.9	-57.3	3.8	1.49e+00	0	58	104	1164967936	60	15772
2026-01-01 11:50:47.30	325.42	6.36	-44.9	-57.2	3.8	1.49e+00	0	58	104	1164967936	60	15728
2026-01-01 11:50:48.31	325.52	6.30	-44.9	-57.3	3.8	1.49e+00	0	58	104	1164967936	60	15764
2026-01-01 11:50:49.32	325.63	6.24	-44.9	-57.3	3.8	1.49e+00	0	58	104	1164967936	60	15761
2026-01-01 11:50:50.33	325.74	6.19	-44.9	-57.3	3.8	1.49e+00	0	58	104	1164967936	60	15771
2026-01-01 11:50:51.35	325.84	6.13	-44.9	-57.3	3.8	1.49e+00	0	58	104	1164967936	60	15772
2026-01-01 11:50:52.36	325.95	6.08	-44.9	-57.3	3.8	1.49e+00	0	58	104	1164967936	60	15770
2026-01-01 11:50:53.37	326.05	6.02	-44.9	-57.3	3.8	1.49e+00	0	58	104	1164967936	60	15764
2026-01-01 11:50:54.38	326.16	5.97	-44.9	-57.2	3.8	1.49e+00	0	58	104	1164967936	60	15742
2026-01-01 11:50:55.39	326.26	5.91	-44.9	-57.2	3.8	1.49e+00	0	58	104	1164967936	60	15729
2026-01-01 11:50:56.40	326.37	5.85	-44.9	-57.3	3.8	1.49e+00	0	58	104	1164967936	60	15782
2026-01-01 11:50:57.41	326.47	5.80	-44.9	-57.3	3.8	1.49e+00	0	58	104	1164967936	60	15773
2026-01-01 11:50:58.42	326.57	5.74	-44.9	-57.3	3.8	1.49e+00	0	58	104	1164967936	60	15766
2026-01-01 11:50:59.43	326.68	5.69	-44.9	-57.2	3.8	1.49e+00	0	58	104	1164967936	60	15744
2026-01-01 11:51:00.45	326.78	5.63	-44.9	-57.3	3.8	1.49e+00	0	58	104	1164967936	60	15767
2026-01-01 11:51:01.46	326.88	5.58	-44.9	-57.2	3.8	1.49e+00	0	58	104	1164967936	60	15722
2026-01-01 11:51:02.47	326.98	5.52	-44.9	-57.2	3.8	1.49e+00	0	58	104	1164967936	60	15709
2026-01-01 11:51:03.48	327.09	5.47	-44.9	-57.2	3.8	1.49e+00	0	58	104	1164967936	60	15741
2026-01-01 11:51:04.49	327.19	5.41	-44.9	-57.2	3.8	1.49e+00	0	58	104	1164967936	60	15690
2026-01-01 11:51:05.50	327.29	5.36	-44.9	-57.2	3.8	1.49e+00	0	58	104	1164967936	60	15704
2026-01-01 11:51:06.51	327.39	5.30	-44.9	-57.2	3.8	1.49e+00	0	58	104	1164967936	60	15727
2026-01-01 11:51:07.52	327.49	5.25	-44.9	-57.2	3.8	1.49e+00	0	58	104	1164967936	60	15659
2026-01-01 11:51:08.53	327.59	5.19	-44.9	-57.2	3.8	1.49e+00	0	58	104	1164967936	60	15721
2026-01-01 11:51:09.55	327.69	5.14	-44.9	-57.2	3.8	1.49e+00	0	58	104	1164967936	60	15725
2026-01-01 11:51:10.56	327.79	5.08	-44.9	-57.2	3.8	1.49e+00	0	58	104	1164967936	60	15723
2026-01-01 11:51:11.56	327.88	5.03	-44.9	-57.2	3.8	1.49e+00	0	58	104	1164967936	60	15703
2026-01-01 11:51:12.58	327.98	4.97	-44.9	-57.2	3.8	1.49e+00	0	58	104	1164967936	60	15713
2026-01-01 11:51:13.59	328.08	4.92	-44.9	-57.2	3.8	1.49e+00	0	58	104	1164967936	60	15707
2026-01-01 11:51:14.60	328.18	4.86	-44.9	-57.2	3.8	1.49e+00	0	58	104	1164967936	60	15733
2026-01-01 11:51:15.61	328.27	4.81	-44.9	-57.2	3.8	1.49e+00	0	58	104	1164967936	60	15689
2026-01-01 11:51:16.62	328.37	4.75	-44.9	-57.2	3.8	1.49e+00	0	58	104	1164967936	60	15706
2026-01-01 11:51:17.63	328.47	4.70	-44.9	-57.2	3.8	1.49e+00	0	58	104	1164967936	60	15645
2026-01-01 11:51:18.64	328.56	4.64	-44.9	-57.2	3.8	1.49e+00	0	58	104	1164967936	60	15709
2026-01-01 11:51:19.65	328.66	4.59	-44.9	-57.2	3.8	1.49e+00	0	58	104	1164967936	60	15711
2026-01-01 11:51:20.66	328.75	4.53	-44.9	-57.2	3.8	1.49e+00	0	58	104	1164967936	60	15684
2026-01-01 11:51:21.67	328.85	4.48	-44.9	-57.2	3.8	1.49e+00	0	58	104	1164967936	60	15757
2026-01-01 11:51:22.69	328.95	4.42	-44.9	-57.2	3.8	1.49e+00	0	58	104	1164967936	60	15694
2026-01-01 11:51:23.70	329.04	4.37	-44.9	-57.2	3.8	1.49e+00	0	58	104	1164967936	60	15711
2026-01-01 11:51:24.71	329.13	4.32	-44.9	-57.2	3.8	1.49e+00	0	58	104	1164967936	60	15735
2026-01-01 11:51:25.72	329.23	4.26	-44.9	-57.2	3.8	1.49e+00	0	58	104	1164967936	60	15705
2026-01-01 11:51:26.73	329.32	4.21	-44.9	-57.2	3.8	1.49e+00	0	58	104	1164967936	60	15665
2026-01-01 11:51:27.74	329.41	4.15	-44.9	-57.2	3.8	1.49e+00	0	58	104	1164967936	60	15651
2026-01-01 11:51:28.75	329.51	4.10	-44.9	-57.2	3.8	1.49e+00	0	58	104	1164967936	60	15712
2026-01-01 11:51:29.76	329.60	4.04	-44.9	-57.2	3.8	1.49e+00	0	58	104	1164967936	60	15701
2026-01-01 11:51:30.77	329.69	3.99	-44.9	-57.2	3.8	1.49e+00	0	58	104	1164967936	60	15725
2026-01-01 11:51:31.78	329.78	3.94	-44.9	-57.2	3.8	1.49e+00	0	58	104	1164967936	60	15692
2026-01-01 11:51:32.80	329.88	3.88	-44.9	-57.2	3.8	1.49e+00	0	58	104	1164967936	60	15713
2026-01-01 11:51:33.81	329.97	3.83	-44.9	-57.2	3.8	1.49e+00	0	58	104	1164967936	60	15715
2026-01-01 11:51:34.82	330.06	3.78	-44.9	-57.2	3.8	1.49e+00	0	58	104	1164967936	60	15720
2026-01-01 11:51:35.83	330.15	3.72	-44.9	-57.2	3.8	1.49e+00	0	58	104	1164967936	60	15738
2026-01-01 11:51:36.84	330.24	3.67	-44.9	-57.2	3.8	1.49e+00	0	58	104	1164967936	60	15713
2026-01-01 11:51:37.85	330.33	3.61	-44.9	-57.2	3.8	1.49e+00	0	58	104	1164967936	60	15741
2026-01-01 11:51:38.86	330.42	3.56	-44.9	-57.2	3.8	1.49e+00	0	58	104	1164967936	60	15687
2026-01-01 11:51:39.87	330.51	3.51	-44.9	-57.2	3.8	1.49e+00	0	58	104	1164967936	60	15753
2026-01-01 11:51:40.88	330.60	3.45	-44.9	-57.2	3.8	1.49e+00	0	58	104	1164967936	60	15709
2026-01-01 11:51:41.89	330.68	3.40	-44.9	-57.2	3.8	1.49e+00	0	58	104	1164967936	60	15680
2026-01-01 11:51:42.90	330.77	3.35	-44.9	-57.2	3.8	1.49e+00	0	58	104	1164967936	60	15726
2026-01-01 11:51:43.92	330.86	3.29	-44.9	-57.2	3.8	1.49e+00	0	58	104	1164967936	60	15701
2026-01-01 11:51:44.93	330.95	3.24	-44.8	-57.2	3.8	1.49e+00	0	58	104	1164967936	60	15646
2026-01-01 11:51:45.94	331.04	3.19	-44.9	-57.2	3.8	1.49e+00	0	58	104	1164967936	60	15673
2026-01-01 11:51:46.95	331.12	3.13	-44.9	-57.2	3.8	1.49e+00	0	58	104	1164967936	60	15672
2026-01-01 11:51:47.96	331.21	3.08	-44.9	-57.2	3.8	1.49e+00	0	58	104	1164967936	60	15703
2026-01-01 11:51:48.97	331.30	3.03	-44.9	-57.2	3.8	1.49e+00	0	58	104	1164967936	60	15654
2026-01-01 11:51:49.98	331.38	2.97	-44.9	-57.2	3.8	1.49e+00	0	58	104	1164967936	60	15695
2026-01-01 11:51:50.99	331.47	2.92	-44.9	-57.2	3.8	1.49e+00	0	58	104	1164967936	60	15730
2026-01-01 11:51:52.00	331.55	2.87	-44.9	-57.2	3.8	1.49e+00	0	58	104	1164967936	60	15696
2026-01-01 11:51:53.02	331.64	2.82	-44.9	-57.2	3.8	1.49e+00	0	58	104	1164967936	60	15688
2026-01-01 11:51:54.02	331.72	2.76	-44.9	-57.2	3.8	1.49e+00	0	58	104	1164967936	60	15669
2026-01-01 11:51:55.04	331.81	2.71	-44.9	-57.2	3.8	1.49e+00	0	58	104	1164967936	60	15723
2026-01-01 11:51:56.05	331.89	2.66	-44.9	-57.2	3.8	1.49e+00	0	58	104	1164967936	60	15726
2026-01-01 11:51:57.06	331.98	2.60	-44.9	-57.2	3.8	1.49e+00	0	58	104	1164967936	60	15675
2026-01-01 11:51:58.07	332.06	2.55	-44.8	-57.2	3.8	1.49e+00	0	58	104	1164967936	60	15689
2026-01-01 11:51:59.08	332.15	2.50	-44.9	-57.2	3.8	1.49e+00	0	58	104	1164967936	60	15691
2026-01-01 11:52:00.09	332.23	2.45	-44.8	-57.2	3.8	1.49e+00	0	58	104	1164967936	60	15695
2026-01-01 11:52:01.10	332.31	2.39	-44.9	-57.2	3.8	1.49e+00	0	58	104	1164967936	60	15701
2026-01-01 11:52:02.11	332.40	2.34	-44.9	-57.2	3.8	1.49e+00	0	58	104	1164967936	60	15716
2026-01-01 11:52:03.13	332.48	2.29	-44.9	-57.2	3.8	1.49e+00	0	58	104	1164967936	60	15674
2026-01-01 11:52:04.14	332.56	2.24	-44.9	-57.2	3.8	1.49e+00	0	58	104	1164967936	60	15706
2026-01-01 11:52:05.15	332.64	2.18	-44.9	-57.2	3.8	1.49e+00	0	58	104	1164967936	60	15690
2026-01-01 11:52:06.16	332.73	2.13	-44.9	-57.2	3.8	1.49e+00	0	58	104	1164967936	60	15646
2026-01-01 11:52:07.17	332.81	2.08	-44.9	-57.2	3.8	1.49e+00	0	58	104	1164967936	60	15694
2026-01-01 11:52:08.18	332.89	2.03	-44.9	-57.2	3.8	1.49e+00	0	58	104	1164967936	60	15671
2026-01-01 11:52:09.19	332.97	1.98	-44.9	-57.2	3.8	1.49e+00	0	58	104	1164967936	60	15742
2026-01-01 11:52:10.20	333.05	1.92	-44.9	-57.2	3.8	1.49e+00	0	58	104	1164967936	60	15712

#Closed at: 2026-01-01 11:52:10
#Recorded file [1164 MB]: D:/lorett/data/31039_260101_144315.dat