passes_logs/2026/01/01/R2.0S_Moscow/R2.0S_Moscow__20260101_124938_AQUA_rec.log

#Pass ID: 20260101_124938_AQUA
#Satellite: AQUA
#Configuration: AQUA
#almurnet v.1.7.20251203
#Start time: 2026-01-01 12:49:39

#Version: 2.2.20231116
#Station: R2.0S_Moscow
#Location: 37.707566 lon 55.798166 lat
#TLE: 1 27424U 02022A   25365.92641128  .00002078  00000+0  42628-3 0  9990
#TLE: 2 27424  98.4058 327.1196 0001962  94.7781 340.6230 14.61783896258835

#Time	Az	El	Level	Level2	SNR	BER	BlckErr	Temp	State	Recorded	gain1	gain2
2026-01-01 12:49:39.14	199.31	2.06	-44.9	-63.7	3.8	7.43e-01	0	48	0	0	61	31130
2026-01-01 12:49:40.15	199.38	2.13	-44.9	-63.6	3.8	7.46e-01	0	48	104	0	60	32909
2026-01-01 12:49:41.16	199.45	2.19	-44.9	-63.6	3.8	7.41e-01	0	48	104	0	60	32924
2026-01-01 12:49:42.17	199.52	2.25	-44.9	-63.7	3.8	7.46e-01	0	48	104	0	60	32943
2026-01-01 12:49:43.18	199.59	2.31	-44.9	-63.6	3.8	7.41e-01	0	48	104	0	60	32919
2026-01-01 12:49:44.19	199.66	2.37	-44.9	-63.7	3.8	7.45e-01	0	48	104	0	60	33000
2026-01-01 12:49:45.20	199.73	2.43	-44.9	-63.7	3.8	7.46e-01	0	48	104	0	60	32947
2026-01-01 12:49:46.21	199.80	2.49	-44.9	-63.6	3.8	7.46e-01	0	48	104	0	60	32899
2026-01-01 12:49:47.22	199.87	2.55	-44.9	-63.6	3.8	7.48e-01	0	48	104	0	60	32895
2026-01-01 12:49:48.23	199.94	2.62	-44.9	-63.6	3.8	7.43e-01	0	48	104	0	60	32918
2026-01-01 12:49:49.25	200.01	2.68	-44.9	-63.6	3.8	7.43e-01	0	48	104	0	60	32897
2026-01-01 12:49:50.26	200.08	2.74	-44.9	-63.7	3.8	7.48e-01	0	49	104	0	60	32949
2026-01-01 12:49:51.27	200.15	2.80	-44.9	-63.6	3.8	7.48e-01	0	49	104	0	60	32886
2026-01-01 12:49:52.28	200.23	2.86	-44.9	-63.6	3.8	7.44e-01	0	49	104	0	60	32870
2026-01-01 12:49:53.29	200.30	2.93	-44.9	-63.6	3.8	7.44e-01	0	49	104	0	60	32898
2026-01-01 12:49:54.30	200.37	2.99	-44.9	-63.7	3.8	7.47e-01	0	49	104	0	60	32999
2026-01-01 12:49:55.31	200.44	3.05	-44.9	-63.6	3.8	7.46e-01	0	49	104	0	60	32925
2026-01-01 12:49:56.32	200.52	3.11	-44.9	-63.6	3.8	7.49e-01	0	49	104	0	60	32895
2026-01-01 12:49:57.33	200.59	3.18	-44.9	-63.6	3.8	7.41e-01	0	49	104	0	60	32850
2026-01-01 12:49:58.34	200.67	3.24	-44.9	-63.6	3.8	7.46e-01	0	49	104	0	60	32890
2026-01-01 12:49:59.36	200.74	3.30	-44.9	-63.6	3.8	7.46e-01	0	49	104	0	60	32898
2026-01-01 12:50:00.37	200.82	3.37	-44.9	-63.6	3.8	7.41e-01	0	49	104	0	60	32906
2026-01-01 12:50:01.38	200.89	3.43	-44.9	-63.6	3.8	7.46e-01	0	49	104	0	60	32821
2026-01-01 12:50:02.39	200.97	3.49	-44.9	-63.6	3.8	7.42e-01	0	49	104	0	60	32926
2026-01-01 12:50:03.40	201.04	3.56	-44.9	-63.7	3.8	7.46e-01	0	50	104	0	60	32940
2026-01-01 12:50:04.41	201.12	3.62	-44.9	-63.6	3.8	7.46e-01	0	50	104	0	60	32900
2026-01-01 12:50:05.42	201.20	3.68	-44.9	-63.6	3.8	7.45e-01	0	50	104	0	60	32865
2026-01-01 12:50:06.43	201.27	3.75	-44.9	-63.6	3.8	7.48e-01	0	50	104	0	60	32870
2026-01-01 12:50:07.44	201.35	3.81	-44.9	-63.6	3.8	7.44e-01	0	50	104	0	60	32862
2026-01-01 12:50:08.45	201.43	3.88	-44.9	-63.6	3.8	7.46e-01	0	50	104	0	60	32895
2026-01-01 12:50:09.46	201.51	3.94	-44.9	-63.6	3.8	7.47e-01	0	50	104	0	60	32872
2026-01-01 12:50:10.47	201.59	4.01	-44.9	-63.6	3.8	7.47e-01	0	50	104	0	60	32875
2026-01-01 12:50:11.49	201.66	4.07	-44.9	-63.6	3.8	7.47e-01	0	50	104	0	60	32877
2026-01-01 12:50:12.50	201.74	4.13	-44.9	-63.6	3.8	7.46e-01	0	50	104	0	60	32888
2026-01-01 12:50:13.50	201.82	4.20	-44.9	-63.6	3.8	7.46e-01	0	50	104	0	60	32877
2026-01-01 12:50:14.51	201.90	4.26	-44.9	-63.6	3.8	7.45e-01	0	50	104	0	60	32869
2026-01-01 12:50:15.53	201.98	4.33	-44.9	-63.6	3.8	7.46e-01	0	50	104	0	60	32926
2026-01-01 12:50:16.54	202.06	4.40	-44.9	-63.6	3.8	7.47e-01	0	50	104	0	60	32848
2026-01-01 12:50:17.55	202.15	4.46	-44.9	-63.7	3.8	7.45e-01	0	50	104	0	60	32936
2026-01-01 12:50:18.56	202.23	4.53	-44.9	-63.6	3.8	7.45e-01	0	50	104	0	60	32896
2026-01-01 12:50:19.57	202.31	4.59	-44.9	-63.6	3.8	7.42e-01	0	50	104	0	60	32899
2026-01-01 12:50:20.58	202.39	4.66	-44.9	-63.6	3.8	7.47e-01	0	50	104	0	60	32853
2026-01-01 12:50:21.59	202.47	4.72	-44.9	-63.6	3.8	7.43e-01	0	50	104	0	60	32904
2026-01-01 12:50:22.60	202.56	4.79	-44.9	-63.6	3.8	7.42e-01	0	51	104	0	60	32698
2026-01-01 12:50:23.62	202.64	4.86	-44.9	-63.6	3.8	7.46e-01	0	51	104	0	60	32715
2026-01-01 12:50:24.63	202.72	4.92	-44.9	-63.6	3.8	7.46e-01	0	51	104	0	60	32841
2026-01-01 12:50:25.64	202.81	4.99	-44.9	-63.6	3.8	7.43e-01	0	51	104	0	60	32769
2026-01-01 12:50:26.65	202.89	5.06	-44.9	-63.6	3.8	7.46e-01	0	51	104	0	60	32805
2026-01-01 12:50:27.66	202.98	5.12	-44.9	-63.7	3.8	7.43e-01	0	51	104	0	60	32953
2026-01-01 12:50:28.67	203.06	5.19	-44.9	-63.6	3.8	7.45e-01	0	51	104	0	60	32679
2026-01-01 12:50:29.68	203.15	5.26	-44.9	-63.6	3.8	7.46e-01	0	51	104	0	60	32747
2026-01-01 12:50:30.69	203.23	5.32	-44.9	-63.5	3.8	7.44e-01	0	51	104	0	60	32399
2026-01-01 12:50:31.70	203.32	5.39	-44.9	-63.4	3.8	7.44e-01	0	51	104	0	60	31960
2026-01-01 12:50:32.71	203.41	5.46	-44.9	-63.4	3.8	7.47e-01	0	51	104	0	60	31954
2026-01-01 12:50:33.72	203.50	5.53	-44.9	-63.2	3.8	7.44e-01	0	51	104	0	60	31397
2026-01-01 12:50:34.74	203.58	5.59	-44.8	-63.0	3.8	7.46e-01	0	51	104	0	60	30509
2026-01-01 12:50:35.75	203.67	5.66	-44.9	-62.9	3.8	7.45e-01	0	51	104	0	60	30170
2026-01-01 12:50:36.76	203.76	5.73	-44.9	-62.8	3.8	7.46e-01	0	51	104	0	60	29856
2026-01-01 12:50:37.77	203.85	5.80	-44.8	-62.8	3.8	7.44e-01	0	51	104	0	60	29846
2026-01-01 12:50:38.78	203.94	5.87	-44.9	-62.9	3.8	7.47e-01	0	52	104	0	60	30037
2026-01-01 12:50:39.79	204.03	5.93	-44.9	-63.0	3.8	7.45e-01	0	52	104	0	60	30722
2026-01-01 12:50:40.80	204.12	6.00	-44.9	-63.3	3.8	7.45e-01	0	52	104	0	60	31495
2026-01-01 12:50:41.81	204.21	6.07	-44.9	-63.4	3.8	7.46e-01	0	52	104	0	60	32110
2026-01-01 12:50:42.82	204.30	6.14	-44.9	-63.5	3.8	7.45e-01	0	52	104	0	60	32205
2026-01-01 12:50:43.83	204.40	6.21	-44.9	-63.2	3.8	7.44e-01	0	52	104	0	60	31412
2026-01-01 12:50:44.85	204.49	6.28	-44.9	-63.2	3.8	7.45e-01	0	52	104	0	60	31136
2026-01-01 12:50:45.86	204.58	6.35	-44.9	-63.0	3.8	7.46e-01	0	52	104	0	60	30579
2026-01-01 12:50:46.87	204.67	6.42	-44.8	-62.5	3.8	7.47e-01	0	52	104	0	60	28925
2026-01-01 12:50:47.88	204.77	6.49	-44.8	-62.0	3.8	7.46e-01	0	52	104	0	60	27077
2026-01-01 12:50:48.89	204.86	6.56	-44.8	-61.3	4.0	7.40e-01	0	52	104	0	60	25077
2026-01-01 12:50:49.90	204.96	6.63	-44.8	-61.4	3.8	7.46e-01	0	52	104	0	60	25523
2026-01-01 12:50:50.91	205.05	6.70	-44.8	-61.0	3.9	7.40e-01	0	52	104	0	60	24193
2026-01-01 12:50:51.92	205.15	6.77	-44.8	-61.3	3.8	7.39e-01	0	52	104	0	60	25087
2026-01-01 12:50:52.93	205.24	6.84	-44.8	-61.4	3.9	7.42e-01	0	52	104	0	60	25349
2026-01-01 12:50:53.94	205.34	6.91	-44.8	-62.2	3.8	7.43e-01	0	52	104	0	60	27832
2026-01-01 12:50:54.95	205.44	6.98	-44.8	-62.6	3.8	7.47e-01	0	52	104	0	60	29247
2026-01-01 12:50:55.96	205.54	7.05	-44.8	-62.4	3.8	7.42e-01	0	52	104	0	60	28399
2026-01-01 12:50:56.97	205.63	7.12	-44.8	-59.6	4.3	7.26e-01	0	52	104	0	60	20591
2026-01-01 12:50:57.98	205.73	7.19	-44.6	-56.4	6.0	6.82e-01	91	52	0	0	60	14331
2026-01-01 12:50:59.00	205.83	7.26	-44.3	-53.5	8.7	6.36e-01	1	52	0	2097152	60	10280
2026-01-01 12:51:00.01	205.93	7.34	-44.1	-51.4	11.3	6.14e-01	0	52	0	3670016	59	8515
2026-01-01 12:51:01.02	206.03	7.41	-43.5	-49.3	13.6	6.09e-01	0	52	0	5767168	59	6664
2026-01-01 12:51:02.03	206.13	7.48	-42.8	-47.4	15.5	6.07e-01	0	52	0	7340032	57	6048
2026-01-01 12:51:03.04	206.23	7.55	-42.0	-45.8	17.2	6.05e-01	0	53	0	9437184	56	5307
2026-01-01 12:51:04.05	206.34	7.62	-41.2	-44.5	18.4	6.06e-01	0	53	0	11534336	54	5116
2026-01-01 12:51:05.06	206.44	7.70	-40.6	-43.5	19.4	6.08e-01	0	53	0	13107200	53	4835
2026-01-01 12:51:06.07	206.54	7.77	-40.1	-42.7	20.2	6.05e-01	0	53	0	15204352	52	4674
2026-01-01 12:51:07.08	206.64	7.84	-39.8	-42.3	20.6	6.06e-01	0	53	0	17301504	51	4746
2026-01-01 12:51:08.09	206.75	7.91	-39.6	-42.1	20.9	6.05e-01	0	53	0	18874368	51	4600
2026-01-01 12:51:09.10	206.85	7.99	-39.6	-42.0	20.9	6.06e-01	0	53	0	20971520	51	4581
2026-01-01 12:51:10.11	206.96	8.06	-39.8	-42.3	20.6	6.06e-01	0	53	0	22544384	51	4745
2026-01-01 12:51:11.12	207.06	8.13	-39.4	-41.8	21.2	6.06e-01	0	53	0	24641536	50	4707
2026-01-01 12:51:12.13	207.17	8.21	-40.7	-43.7	19.1	6.07e-01	0	53	0	26738688	52	5234
2026-01-01 12:51:13.14	207.28	8.28	-43.3	-48.9	13.9	6.07e-01	0	53	0	28311552	57	7129
2026-01-01 12:51:14.15	207.38	8.35	-44.0	-51.2	10.6	6.18e-01	0	53	0	30408704	59	8353
2026-01-01 12:51:15.16	207.49	8.43	-41.7	-45.3	17.8	6.07e-01	0	53	0	32505856	53	5943
2026-01-01 12:51:16.17	207.60	8.50	-39.8	-42.3	20.9	6.07e-01	0	53	0	34078720	51	4715
2026-01-01 12:51:17.18	207.71	8.58	-39.6	-42.1	21.0	6.07e-01	0	53	0	36175872	51	4603
2026-01-01 12:51:18.19	207.82	8.65	-39.4	-41.8	21.3	6.04e-01	0	53	0	37748736	50	4708
2026-01-01 12:51:19.20	207.93	8.72	-39.2	-41.5	21.6	6.07e-01	0	53	0	39845888	50	4561
2026-01-01 12:51:20.21	208.04	8.80	-39.3	-41.5	21.5	6.07e-01	0	53	0	41943040	50	4592
2026-01-01 12:51:21.22	208.15	8.87	-39.2	-41.4	21.6	6.04e-01	0	53	0	43515904	50	4542
2026-01-01 12:51:22.23	208.26	8.95	-39.2	-41.5	21.6	6.06e-01	0	53	0	45613056	50	4561
2026-01-01 12:51:23.24	208.37	9.02	-39.2	-41.5	21.6	6.08e-01	0	53	0	47185920	50	4567
2026-01-01 12:51:24.25	208.49	9.10	-39.2	-41.4	21.6	6.07e-01	0	53	0	49283072	50	4544
2026-01-01 12:51:25.26	208.60	9.17	-39.2	-41.4	21.7	6.05e-01	0	53	0	51380224	50	4530
2026-01-01 12:51:26.27	208.71	9.25	-39.1	-41.3	21.8	6.06e-01	0	54	0	52953088	50	4472
2026-01-01 12:51:27.28	208.83	9.33	-39.1	-41.3	21.8	6.07e-01	0	54	0	55050240	50	4467
2026-01-01 12:51:28.29	208.95	9.40	-39.0	-41.2	21.9	6.07e-01	0	53	0	57147392	50	4408
2026-01-01 12:51:29.30	209.06	9.48	-39.0	-41.2	21.9	6.06e-01	0	53	0	58720256	50	4408
2026-01-01 12:51:30.31	209.18	9.55	-39.0	-41.2	21.9	6.06e-01	0	53	0	60817408	50	4404
2026-01-01 12:51:31.32	209.30	9.63	-39.0	-41.1	22.0	6.04e-01	0	54	0	62390272	50	4381
2026-01-01 12:51:32.33	209.41	9.71	-39.0	-41.2	22.0	6.06e-01	0	54	0	64487424	50	4404
2026-01-01 12:51:33.34	209.53	9.78	-39.0	-41.2	21.9	6.06e-01	0	54	0	66584576	50	4413
2026-01-01 12:51:34.35	209.65	9.86	-39.0	-41.2	22.0	6.06e-01	0	53	0	68157440	50	4393
2026-01-01 12:51:35.36	209.77	9.94	-39.0	-41.1	22.0	6.08e-01	0	54	0	70254592	50	4385
2026-01-01 12:51:36.37	209.89	10.01	-39.0	-41.1	22.1	6.06e-01	0	54	0	71827456	50	4365
2026-01-01 12:51:37.38	210.01	10.09	-38.9	-41.0	22.1	6.07e-01	0	54	0	73924608	49	4587
2026-01-01 12:51:38.39	210.14	10.17	-38.9	-41.0	22.2	6.06e-01	0	54	0	76021760	49	4570
2026-01-01 12:51:39.40	210.26	10.25	-38.9	-41.0	22.2	6.05e-01	0	54	0	77594624	49	4565
2026-01-01 12:51:40.41	210.38	10.33	-38.9	-41.0	22.2	6.08e-01	0	54	0	79691776	49	4588
2026-01-01 12:51:41.42	210.51	10.40	-38.9	-41.0	22.2	6.07e-01	0	54	0	81264640	49	4576
2026-01-01 12:51:42.43	210.63	10.48	-38.9	-41.0	22.2	6.06e-01	0	54	0	83361792	49	4575
2026-01-01 12:51:43.44	210.76	10.56	-38.9	-40.9	22.2	6.06e-01	0	54	0	85458944	49	4545
2026-01-01 12:51:44.45	210.88	10.64	-38.8	-40.9	22.3	6.07e-01	0	54	0	87031808	49	4524
2026-01-01 12:51:45.46	211.01	10.72	-38.8	-40.8	22.4	6.08e-01	0	54	0	89128960	49	4484
2026-01-01 12:51:46.47	211.14	10.80	-38.8	-40.8	22.4	6.06e-01	0	54	0	90701824	49	4489
2026-01-01 12:51:47.48	211.27	10.88	-38.8	-40.9	22.3	6.06e-01	0	54	0	92798976	49	4519
2026-01-01 12:51:48.49	211.40	10.95	-38.8	-40.9	22.3	6.08e-01	0	54	0	94896128	49	4523
2026-01-01 12:51:49.50	211.53	11.03	-38.8	-40.9	22.4	6.06e-01	0	54	0	96468992	49	4498
2026-01-01 12:51:50.51	211.66	11.11	-38.8	-40.9	22.4	6.07e-01	0	54	0	98566144	49	4509
2026-01-01 12:51:51.52	211.79	11.19	-38.8	-40.9	22.4	6.09e-01	0	54	0	100663296	49	4503
2026-01-01 12:51:52.53	211.92	11.27	-38.8	-40.8	22.4	6.05e-01	0	54	0	102236160	49	4480
2026-01-01 12:51:53.54	212.05	11.35	-38.8	-40.8	22.5	6.06e-01	0	54	0	104333312	49	4461
2026-01-01 12:51:54.55	212.19	11.43	-38.7	-40.8	22.5	6.05e-01	0	54	0	105906176	49	4445
2026-01-01 12:51:55.56	212.32	11.51	-38.7	-40.8	22.5	6.05e-01	0	54	0	108003328	49	4449
2026-01-01 12:51:56.57	212.46	11.59	-38.7	-40.7	22.6	6.08e-01	0	54	0	110100480	49	4414
2026-01-01 12:51:57.58	212.59	11.67	-38.6	-40.6	22.7	6.08e-01	0	54	0	111673344	49	4368
2026-01-01 12:51:58.59	212.73	11.76	-38.6	-40.6	22.7	6.06e-01	0	54	0	113770496	49	4367
2026-01-01 12:51:59.60	212.87	11.84	-38.6	-40.6	22.6	6.08e-01	0	54	0	115343360	49	4383
2026-01-01 12:52:00.61	213.00	11.92	-38.6	-40.6	22.7	6.08e-01	0	54	0	117440512	49	4377
2026-01-01 12:52:01.62	213.14	12.00	-38.6	-40.6	22.7	6.06e-01	0	54	0	119537664	49	4371
2026-01-01 12:52:02.63	213.28	12.08	-38.6	-40.6	22.6	6.05e-01	0	54	0	121110528	49	4388
2026-01-01 12:52:03.64	213.42	12.16	-38.7	-40.6	22.6	6.04e-01	0	54	0	123207680	49	4390
2026-01-01 12:52:04.65	213.57	12.24	-38.6	-40.6	22.7	6.07e-01	0	54	0	125304832	49	4366
2026-01-01 12:52:05.66	213.71	12.33	-38.7	-40.7	22.6	6.07e-01	0	54	0	126877696	49	4418
2026-01-01 12:52:06.67	213.85	12.41	-38.7	-40.7	22.2	6.06e-01	0	54	0	128974848	49	4398
2026-01-01 12:52:07.68	213.99	12.49	-38.6	-40.6	22.7	6.09e-01	0	54	0	130547712	49	4355
2026-01-01 12:52:08.69	214.14	12.57	-38.5	-40.5	22.8	6.06e-01	0	54	0	132644864	49	4308
2026-01-01 12:52:09.70	214.29	12.66	-38.5	-40.4	22.9	6.07e-01	0	54	0	134742016	49	4286
2026-01-01 12:52:10.71	214.43	12.74	-38.5	-40.4	22.9	6.06e-01	0	54	0	136314880	48	4530
2026-01-01 12:52:11.72	214.58	12.82	-38.5	-40.5	22.9	6.04e-01	0	54	0	138412032	48	4557
2026-01-01 12:52:12.73	214.73	12.90	-38.6	-40.5	22.8	6.06e-01	0	54	0	139984896	48	4577
2026-01-01 12:52:13.74	214.88	12.99	-38.6	-40.6	22.8	6.05e-01	0	55	0	142082048	48	4600
2026-01-01 12:52:14.75	215.03	13.07	-38.5	-40.5	22.9	6.06e-01	0	54	0	144179200	48	4557
2026-01-01 12:52:15.76	215.18	13.15	-38.5	-40.5	22.9	6.05e-01	0	54	0	145752064	48	4555
2026-01-01 12:52:16.77	215.33	13.24	-38.5	-40.4	22.9	6.06e-01	0	55	0	147849216	48	4542
2026-01-01 12:52:17.78	215.48	13.32	-38.5	-40.4	22.9	6.06e-01	0	55	0	149946368	48	4521
2026-01-01 12:52:18.79	215.64	13.41	-38.5	-40.5	22.9	6.06e-01	0	54	0	151519232	48	4572
2026-01-01 12:52:19.81	215.79	13.49	-38.5	-40.4	22.9	6.07e-01	0	54	0	153616384	48	4537
2026-01-01 12:52:20.81	215.95	13.57	-38.5	-40.4	23.0	6.07e-01	0	54	0	155189248	48	4531
2026-01-01 12:52:21.82	216.10	13.66	-38.5	-40.4	22.9	6.06e-01	0	55	0	157286400	48	4528
2026-01-01 12:52:22.83	216.26	13.74	-38.5	-40.4	23.0	6.06e-01	0	54	0	159383552	48	4523
2026-01-01 12:52:23.85	216.42	13.83	-38.4	-40.3	23.0	6.05e-01	0	55	0	160956416	48	4492
2026-01-01 12:52:24.86	216.58	13.91	-38.4	-40.3	23.0	6.08e-01	0	55	0	163053568	48	4487
2026-01-01 12:52:25.87	216.74	14.00	-38.4	-40.3	23.0	6.04e-01	0	55	0	164626432	48	4492
2026-01-01 12:52:26.87	216.90	14.08	-38.5	-40.4	23.0	6.08e-01	0	55	0	166723584	48	4509
2026-01-01 12:52:27.89	217.06	14.17	-38.5	-40.4	23.0	6.07e-01	0	55	0	168820736	48	4510
2026-01-01 12:52:28.89	217.22	14.25	-38.4	-40.3	23.1	6.05e-01	0	55	0	170393600	48	4491
2026-01-01 12:52:29.90	217.39	14.34	-38.4	-40.3	23.1	6.04e-01	0	55	0	172490752	48	4472
2026-01-01 12:52:30.91	217.55	14.42	-38.4	-40.3	23.2	6.05e-01	0	55	0	174063616	48	4453
2026-01-01 12:52:31.92	217.72	14.51	-38.4	-40.2	23.2	6.06e-01	0	55	0	176160768	48	4439
2026-01-01 12:52:32.93	217.89	14.59	-38.3	-40.2	23.2	6.05e-01	0	55	0	178257920	48	4433
2026-01-01 12:52:33.94	218.05	14.68	-38.3	-40.2	23.2	6.06e-01	0	55	0	179830784	48	4431
2026-01-01 12:52:34.95	218.22	14.77	-38.3	-40.2	23.3	6.06e-01	0	55	0	181927936	48	4406
2026-01-01 12:52:35.96	218.39	14.85	-38.3	-40.1	23.3	6.04e-01	0	55	0	183500800	48	4367
2026-01-01 12:52:36.97	218.56	14.94	-38.2	-40.1	23.3	6.08e-01	0	55	0	185597952	48	4360
2026-01-01 12:52:37.98	218.74	15.02	-38.2	-40.1	23.4	6.06e-01	0	55	0	187695104	48	4348
2026-01-01 12:52:38.99	218.91	15.11	-38.3	-40.2	23.3	6.07e-01	0	55	0	189267968	48	4392
2026-01-01 12:52:40.00	219.08	15.20	-38.3	-40.2	23.2	6.06e-01	0	55	0	191365120	48	4418
2026-01-01 12:52:41.01	219.26	15.28	-38.4	-40.2	23.2	6.07e-01	0	55	0	193462272	48	4441
2026-01-01 12:52:42.02	219.43	15.37	-38.3	-40.2	23.3	6.07e-01	0	55	0	195035136	48	4420
2026-01-01 12:52:43.03	219.61	15.46	-38.3	-40.2	23.3	6.06e-01	0	55	0	197132288	48	4411
2026-01-01 12:52:44.05	219.79	15.55	-38.3	-40.1	23.3	6.05e-01	0	55	0	198705152	48	4375
2026-01-01 12:52:45.05	219.97	15.63	-38.3	-40.1	23.3	6.04e-01	0	55	0	200802304	48	4375
2026-01-01 12:52:46.06	220.15	15.72	-38.2	-40.1	23.4	6.07e-01	0	55	0	202899456	48	4358
2026-01-01 12:52:47.07	220.33	15.81	-38.1	-40.0	23.5	6.04e-01	0	55	0	204472320	48	4303
2026-01-01 12:52:48.09	220.52	15.89	-38.1	-39.9	23.5	6.06e-01	0	55	0	206569472	48	4271
2026-01-01 12:52:49.10	220.70	15.98	-38.1	-39.9	23.6	6.07e-01	0	55	0	208666624	48	4264
2026-01-01 12:52:50.10	220.88	16.07	-38.0	-39.9	23.6	6.07e-01	0	55	0	210239488	48	4249
2026-01-01 12:52:51.11	221.07	16.16	-38.1	-39.9	23.6	6.06e-01	0	55	0	212336640	48	4261
2026-01-01 12:52:52.12	221.26	16.24	-38.1	-39.9	23.5	6.04e-01	0	55	0	213909504	48	4286
2026-01-01 12:52:53.13	221.44	16.33	-38.1	-40.0	23.5	6.07e-01	0	55	0	216006656	48	4293
2026-01-01 12:52:54.14	221.63	16.42	-38.1	-40.0	23.5	6.07e-01	0	55	0	218103808	48	4305
2026-01-01 12:52:55.15	221.83	16.51	-38.2	-40.0	23.5	6.06e-01	0	55	0	219676672	48	4317
2026-01-01 12:52:56.16	222.02	16.59	-38.2	-40.0	23.5	6.06e-01	0	55	0	221773824	48	4312
2026-01-01 12:52:57.17	222.21	16.68	-38.2	-40.0	23.5	6.04e-01	0	55	0	223346688	48	4323
2026-01-01 12:52:58.18	222.40	16.77	-38.2	-40.0	23.5	6.06e-01	0	55	0	225443840	48	4319
2026-01-01 12:52:59.19	222.60	16.86	-38.1	-39.9	23.6	6.05e-01	0	55	0	227540992	48	4274
2026-01-01 12:53:00.20	222.80	16.95	-38.1	-39.9	23.6	6.06e-01	0	55	0	229113856	48	4246
2026-01-01 12:53:01.21	222.99	17.03	-38.1	-39.9	23.6	6.05e-01	0	55	0	231211008	48	4259
2026-01-01 12:53:02.22	223.19	17.12	-38.1	-39.9	23.6	6.05e-01	0	55	0	232783872	48	4279
2026-01-01 12:53:03.23	223.39	17.21	-38.1	-39.9	23.6	6.05e-01	0	55	0	234881024	48	4258
2026-01-01 12:53:04.24	223.59	17.30	-38.0	-39.8	23.6	6.06e-01	0	55	0	236978176	48	4241
2026-01-01 12:53:05.25	223.80	17.39	-38.1	-39.9	23.6	6.05e-01	0	55	0	238551040	48	4264
2026-01-01 12:53:06.26	224.00	17.47	-38.2	-40.0	23.6	6.06e-01	0	55	0	240648192	48	4302
2026-01-01 12:53:07.27	224.21	17.56	-38.2	-40.1	23.5	6.10e-01	0	55	0	242221056	48	4342
2026-01-01 12:53:08.28	224.41	17.65	-38.2	-40.0	23.5	6.07e-01	0	55	0	244318208	48	4334
2026-01-01 12:53:09.29	224.62	17.74	-38.1	-40.0	23.6	6.07e-01	0	55	0	246415360	48	4301
2026-01-01 12:53:10.30	224.83	17.83	-38.1	-39.9	23.6	6.07e-01	0	55	0	247988224	48	4272
2026-01-01 12:53:11.31	225.04	17.92	-38.1	-39.9	23.6	6.06e-01	0	55	0	250085376	48	4270
2026-01-01 12:53:12.32	225.25	18.00	-38.1	-39.9	23.6	6.06e-01	0	55	0	251658240	48	4269
2026-01-01 12:53:13.33	225.46	18.09	-38.1	-39.9	23.6	6.06e-01	0	56	0	253755392	48	4262
2026-01-01 12:53:14.34	225.68	18.18	-38.1	-39.9	23.6	6.07e-01	0	55	0	255852544	48	4279
2026-01-01 12:53:15.35	225.89	18.27	-38.2	-40.0	23.5	6.08e-01	0	55	0	257425408	48	4327
2026-01-01 12:53:16.37	226.11	18.36	-38.1	-39.9	23.6	6.06e-01	0	55	0	259522560	48	4282
2026-01-01 12:53:17.38	226.33	18.45	-38.2	-40.0	23.5	6.07e-01	0	56	0	261619712	48	4324
2026-01-01 12:53:18.39	226.55	18.53	-38.2	-40.0	23.6	6.05e-01	0	55	0	263192576	48	4319
2026-01-01 12:53:19.40	226.77	18.62	-38.2	-40.0	23.6	6.06e-01	0	56	0	265289728	48	4312
2026-01-01 12:53:20.41	226.99	18.71	-38.1	-39.9	23.6	6.06e-01	0	55	0	266862592	48	4284
2026-01-01 12:53:21.42	227.21	18.80	-38.1	-39.9	23.6	6.07e-01	0	56	0	268959744	48	4268
2026-01-01 12:53:22.43	227.44	18.89	-38.1	-39.9	23.7	6.04e-01	0	55	0	271056896	48	4251
2026-01-01 12:53:23.44	227.66	18.97	-38.1	-39.9	23.6	6.07e-01	0	56	0	272629760	48	4273
2026-01-01 12:53:24.45	227.89	19.06	-38.1	-39.9	23.7	6.06e-01	0	55	0	274726912	48	4256
2026-01-01 12:53:25.46	228.12	19.15	-38.1	-39.9	23.7	6.07e-01	0	56	0	276824064	48	4251
2026-01-01 12:53:26.47	228.35	19.24	-38.1	-39.9	23.7	6.06e-01	0	55	0	278396928	48	4253
2026-01-01 12:53:27.48	228.58	19.32	-38.2	-40.0	23.5	6.06e-01	0	56	0	280494080	48	4337
2026-01-01 12:53:28.49	228.81	19.41	-38.2	-40.0	23.5	6.08e-01	0	55	0	282066944	48	4340
2026-01-01 12:53:29.50	229.05	19.50	-38.2	-40.0	23.6	6.04e-01	0	55	0	284164096	48	4324
2026-01-01 12:53:30.51	229.28	19.59	-38.1	-39.9	23.6	6.07e-01	0	55	0	286261248	48	4281
2026-01-01 12:53:31.52	229.52	19.67	-38.1	-39.9	23.6	6.04e-01	0	56	0	287834112	48	4284
2026-01-01 12:53:32.53	229.76	19.76	-38.1	-39.9	23.6	6.05e-01	0	56	0	289931264	48	4272
2026-01-01 12:53:33.54	229.99	19.85	-38.1	-39.9	23.7	6.05e-01	0	55	0	291504128	48	4267
2026-01-01 12:53:34.55	230.24	19.93	-38.2	-40.0	23.6	6.06e-01	0	56	0	293601280	48	4299
2026-01-01 12:53:35.56	230.48	20.02	-38.2	-40.0	23.5	6.07e-01	0	56	0	295698432	48	4325
2026-01-01 12:53:36.57	230.72	20.11	-38.2	-40.0	23.6	6.06e-01	0	56	0	297271296	48	4315
2026-01-01 12:53:37.58	230.97	20.19	-38.2	-40.0	23.6	6.02e-01	0	56	0	299368448	48	4308
2026-01-01 12:53:38.59	231.21	20.28	-38.1	-39.9	23.6	6.06e-01	0	56	0	301465600	48	4287
2026-01-01 12:53:39.60	231.46	20.36	-38.2	-40.0	23.5	6.07e-01	0	56	0	303038464	48	4340
2026-01-01 12:53:40.61	231.71	20.45	-38.3	-40.1	23.5	6.07e-01	0	56	0	305135616	48	4367
2026-01-01 12:53:41.62	231.96	20.53	-38.2	-40.0	23.6	6.06e-01	0	56	0	306708480	48	4320
2026-01-01 12:53:42.63	232.21	20.62	-38.1	-39.9	23.6	6.04e-01	0	56	0	308805632	48	4286
2026-01-01 12:53:43.63	232.46	20.70	-38.2	-40.1	23.5	6.04e-01	0	56	0	310902784	48	4347
2026-01-01 12:53:44.64	232.72	20.79	-38.2	-40.1	23.5	6.04e-01	0	56	0	312475648	48	4354
2026-01-01 12:53:45.66	232.98	20.87	-38.2	-40.0	23.6	6.07e-01	0	55	0	314572800	48	4324
2026-01-01 12:53:46.66	233.23	20.96	-38.2	-40.1	23.5	6.08e-01	0	56	0	316145664	48	4349
2026-01-01 12:53:47.68	233.50	21.04	-38.3	-40.1	23.4	6.08e-01	0	56	0	318242816	48	4387
2026-01-01 12:53:48.69	233.76	21.12	-38.3	-40.1	23.4	6.07e-01	0	56	0	320339968	48	4380
2026-01-01 12:53:49.70	234.02	21.21	-38.2	-40.0	23.5	6.07e-01	0	56	0	321912832	48	4339
2026-01-01 12:53:50.71	234.28	21.29	-38.2	-40.1	23.5	6.07e-01	0	56	0	324009984	48	4348
2026-01-01 12:53:51.72	234.55	21.37	-38.2	-40.1	23.5	6.06e-01	0	56	0	325582848	48	4349
2026-01-01 12:53:52.73	234.81	21.46	-38.2	-40.1	23.5	6.07e-01	0	56	0	327680000	48	4352
2026-01-01 12:53:53.74	235.08	21.54	-38.2	-40.0	23.6	6.07e-01	0	56	0	329777152	48	4330
2026-01-01 12:53:54.75	235.35	21.62	-38.3	-40.2	23.4	6.03e-01	0	56	0	331350016	48	4395
2026-01-01 12:53:55.75	235.62	21.70	-38.3	-40.1	23.4	6.07e-01	0	56	0	333447168	48	4385
2026-01-01 12:53:56.76	235.89	21.78	-38.3	-40.1	23.5	6.06e-01	0	56	0	335020032	48	4363
2026-01-01 12:53:57.77	236.17	21.86	-38.4	-40.2	23.4	6.06e-01	0	56	0	337117184	48	4424
2026-01-01 12:53:58.78	236.44	21.94	-38.3	-40.2	23.4	6.03e-01	0	56	0	339214336	48	4415
2026-01-01 12:53:59.79	236.72	22.02	-38.3	-40.1	23.5	6.07e-01	0	56	0	340787200	48	4354
2026-01-01 12:54:00.80	237.00	22.10	-38.3	-40.2	23.4	6.06e-01	0	56	0	342884352	48	4407
2026-01-01 12:54:01.81	237.28	22.18	-38.4	-40.2	23.4	6.08e-01	0	56	0	344981504	48	4423
2026-01-01 12:54:02.82	237.56	22.26	-38.4	-40.3	23.3	6.07e-01	0	56	0	346554368	48	4455
2026-01-01 12:54:03.83	237.84	22.34	-38.4	-40.3	23.3	6.05e-01	0	56	0	348651520	48	4458
2026-01-01 12:54:04.84	238.13	22.42	-38.5	-40.4	23.3	6.05e-01	0	56	0	350224384	48	4501
2026-01-01 12:54:05.85	238.41	22.49	-38.4	-40.3	23.3	6.06e-01	0	56	0	352321536	48	4472
2026-01-01 12:54:06.86	238.70	22.57	-38.4	-40.3	23.4	6.07e-01	0	56	0	354418688	48	4449
2026-01-01 12:54:07.87	238.99	22.65	-38.3	-40.2	23.4	6.06e-01	0	56	0	355991552	48	4408
2026-01-01 12:54:08.88	239.28	22.72	-38.5	-40.3	23.3	6.05e-01	0	56	0	358088704	48	4488
2026-01-01 12:54:09.89	239.57	22.80	-38.4	-40.3	23.3	6.04e-01	0	56	0	359661568	48	4461
2026-01-01 12:54:10.90	239.86	22.88	-38.4	-40.3	23.3	6.09e-01	0	56	0	361758720	48	4465
2026-01-01 12:54:11.91	240.16	22.95	-38.4	-40.3	23.3	6.04e-01	0	56	0	363855872	48	4474
2026-01-01 12:54:12.92	240.45	23.02	-38.4	-40.3	23.3	6.05e-01	0	56	0	365428736	48	4469
2026-01-01 12:54:13.93	240.75	23.10	-38.4	-40.3	23.3	6.05e-01	0	56	0	367525888	48	4466
2026-01-01 12:54:14.94	241.05	23.17	-38.4	-40.3	23.3	6.06e-01	0	56	0	369623040	48	4447
2026-01-01 12:54:15.95	241.35	23.24	-38.4	-40.2	23.4	6.06e-01	0	56	0	371195904	48	4421
2026-01-01 12:54:16.96	241.65	23.32	-38.4	-40.3	23.3	6.06e-01	0	56	0	373293056	48	4453
2026-01-01 12:54:17.97	241.95	23.39	-38.5	-40.4	23.2	6.06e-01	0	56	0	374865920	48	4523
2026-01-01 12:54:18.99	242.26	23.46	-38.5	-40.4	23.2	6.06e-01	0	56	0	376963072	48	4502
2026-01-01 12:54:20.00	242.57	23.53	-38.3	-40.2	23.5	6.06e-01	0	56	0	379060224	48	4406
2026-01-01 12:54:21.00	242.87	23.60	-38.3	-40.1	23.5	6.07e-01	0	56	0	380633088	48	4372
2026-01-01 12:54:22.01	243.18	23.67	-38.5	-40.4	23.2	6.07e-01	0	56	0	382730240	48	4501
2026-01-01 12:54:23.02	243.49	23.74	-38.4	-40.3	23.3	6.06e-01	0	56	0	384303104	48	4458
2026-01-01 12:54:24.03	243.80	23.80	-38.5	-40.3	23.3	6.06e-01	0	56	0	386400256	48	4492
2026-01-01 12:54:25.04	244.11	23.87	-38.6	-40.5	23.1	6.04e-01	0	56	0	388497408	48	4553
2026-01-01 12:54:26.05	244.43	23.94	-38.5	-40.4	23.2	6.08e-01	0	56	0	390070272	48	4511
2026-01-01 12:54:27.06	244.74	24.00	-38.5	-40.3	23.3	6.05e-01	0	56	0	392167424	48	4479
2026-01-01 12:54:28.07	245.06	24.07	-38.6	-40.5	23.1	6.06e-01	0	56	0	393740288	48	4558
2026-01-01 12:54:29.08	245.38	24.13	-38.5	-40.4	23.2	6.05e-01	0	56	0	395837440	48	4538
2026-01-01 12:54:30.09	245.70	24.20	-38.4	-40.2	23.4	6.07e-01	0	56	0	397934592	48	4441
2026-01-01 12:54:31.10	246.02	24.26	-38.6	-40.5	23.1	6.07e-01	0	56	0	399507456	48	4590
2026-01-01 12:54:32.11	246.34	24.32	-38.6	-40.5	23.2	6.06e-01	0	56	0	401604608	48	4557
2026-01-01 12:54:33.12	246.66	24.38	-38.6	-40.5	23.2	6.04e-01	0	56	0	403177472	48	4558
2026-01-01 12:54:34.13	246.99	24.44	-38.6	-40.5	23.1	6.06e-01	0	56	0	405274624	48	4585
2026-01-01 12:54:35.14	247.31	24.50	-38.6	-40.5	23.1	6.05e-01	0	56	0	407371776	48	4576
2026-01-01 12:54:36.15	247.64	24.56	-38.6	-40.5	23.2	6.04e-01	0	56	0	408944640	48	4552
2026-01-01 12:54:37.16	247.97	24.62	-38.7	-40.7	23.0	6.08e-01	0	56	0	411041792	48	4653
2026-01-01 12:54:38.17	248.30	24.68	-38.7	-40.6	23.0	6.07e-01	0	56	0	413138944	48	4651
2026-01-01 12:54:39.18	248.63	24.73	-38.4	-40.2	23.4	6.06e-01	0	56	0	414711808	48	4423
2026-01-01 12:54:40.19	248.96	24.79	-38.7	-40.6	23.1	6.08e-01	0	56	0	416808960	48	4609
2026-01-01 12:54:41.20	249.30	24.85	-38.7	-40.6	23.0	6.05e-01	0	56	0	418381824	48	4643
2026-01-01 12:54:42.21	249.63	24.90	-38.5	-40.4	23.2	6.07e-01	0	56	0	420478976	48	4520
2026-01-01 12:54:43.22	249.97	24.95	-38.6	-40.5	23.1	6.06e-01	0	56	0	422576128	48	4577
2026-01-01 12:54:44.23	250.30	25.01	-38.7	-40.6	23.1	6.06e-01	0	56	0	424148992	48	4622
2026-01-01 12:54:45.24	250.64	25.06	-38.5	-40.3	23.3	6.06e-01	0	56	0	426246144	48	4483
2026-01-01 12:54:46.25	250.98	25.11	-38.5	-40.4	23.2	6.06e-01	0	56	0	427819008	48	4523
2026-01-01 12:54:47.26	251.32	25.16	-38.6	-40.5	23.1	6.05e-01	0	56	0	429916160	48	4580
2026-01-01 12:54:48.27	251.66	25.21	-38.5	-40.4	23.2	6.08e-01	0	56	0	432013312	48	4526
2026-01-01 12:54:49.28	252.00	25.25	-38.6	-40.4	23.2	6.06e-01	0	56	0	433586176	48	4540
2026-01-01 12:54:50.29	252.35	25.30	-38.7	-40.6	23.0	6.08e-01	0	56	0	435683328	48	4637
2026-01-01 12:54:51.30	252.69	25.35	-38.5	-40.4	23.2	6.07e-01	0	56	0	437780480	48	4517
2026-01-01 12:54:52.30	253.03	25.39	-38.5	-40.3	23.3	6.06e-01	0	56	0	439353344	48	4489
2026-01-01 12:54:53.32	253.38	25.44	-38.6	-40.5	23.1	6.06e-01	0	56	0	441450496	48	4584
2026-01-01 12:54:54.33	253.73	25.48	-38.4	-40.3	23.4	6.05e-01	0	56	0	443023360	48	4463
2026-01-01 12:54:55.34	254.08	25.52	-38.5	-40.3	23.3	6.05e-01	0	56	0	445120512	48	4483
2026-01-01 12:54:56.35	254.43	25.56	-38.6	-40.5	23.2	6.05e-01	0	56	0	447217664	48	4569
2026-01-01 12:54:57.36	254.78	25.60	-38.6	-40.4	23.2	6.02e-01	0	56	0	448790528	48	4528
2026-01-01 12:54:58.37	255.13	25.64	-38.5	-40.4	23.3	6.07e-01	0	56	0	450887680	48	4526
2026-01-01 12:54:59.38	255.48	25.68	-38.5	-40.4	23.3	6.06e-01	0	56	0	452460544	48	4513
2026-01-01 12:55:00.39	255.83	25.72	-38.5	-40.4	23.3	6.06e-01	0	56	0	454557696	48	4501
2026-01-01 12:55:01.40	256.19	25.75	-38.5	-40.3	23.3	6.07e-01	0	56	0	456654848	48	4483
2026-01-01 12:55:02.41	256.54	25.79	-38.4	-40.3	23.3	6.07e-01	0	56	0	458227712	48	4459
2026-01-01 12:55:03.42	256.90	25.82	-38.4	-40.3	23.3	6.08e-01	0	56	0	460324864	48	4468
2026-01-01 12:55:04.43	257.25	25.85	-38.5	-40.3	23.3	6.07e-01	0	56	0	461897728	48	4488
2026-01-01 12:55:05.44	257.61	25.88	-38.5	-40.3	23.3	6.03e-01	0	56	0	463994880	48	4477
2026-01-01 12:55:06.45	257.97	25.91	-38.4	-40.2	23.4	6.08e-01	0	56	0	466092032	48	4426
2026-01-01 12:55:07.46	258.32	25.94	-38.5	-40.3	23.3	6.06e-01	0	56	0	467664896	48	4476
2026-01-01 12:55:08.47	258.68	25.97	-38.4	-40.2	23.4	6.08e-01	0	56	0	469762048	48	4439
2026-01-01 12:55:09.48	259.04	26.00	-38.4	-40.3	23.4	6.07e-01	0	56	0	471334912	48	4462
2026-01-01 12:55:10.49	259.40	26.02	-38.5	-40.3	23.2	6.05e-01	0	56	0	473432064	48	4490
2026-01-01 12:55:11.50	259.76	26.05	-38.3	-40.2	23.4	6.07e-01	0	56	0	475529216	48	4406
2026-01-01 12:55:12.51	260.12	26.07	-38.4	-40.3	23.4	6.06e-01	0	56	0	477102080	48	4457
2026-01-01 12:55:13.52	260.48	26.10	-38.4	-40.3	23.3	6.07e-01	0	56	0	479199232	48	4469
2026-01-01 12:55:14.53	260.85	26.12	-38.4	-40.2	23.4	6.06e-01	0	56	0	481296384	48	4417
2026-01-01 12:55:15.54	261.21	26.14	-38.4	-40.2	23.5	6.06e-01	0	56	0	482869248	48	4416
2026-01-01 12:55:16.55	261.57	26.16	-38.6	-40.5	23.2	6.06e-01	0	56	0	484966400	48	4562
2026-01-01 12:55:17.56	261.93	26.17	-38.4	-40.2	23.4	6.08e-01	0	56	0	486539264	48	4430
2026-01-01 12:55:18.57	262.30	26.19	-38.3	-40.2	21.8	6.04e-01	0	56	0	488636416	48	4406
2026-01-01 12:55:19.58	262.66	26.21	-38.4	-40.3	23.3	6.06e-01	0	56	0	490733568	48	4469
2026-01-01 12:55:20.59	263.03	26.22	-38.4	-40.3	23.4	6.06e-01	0	56	0	492306432	48	4459
2026-01-01 12:55:21.60	263.39	26.24	-38.4	-40.2	23.5	6.06e-01	0	56	0	494403584	48	4412
2026-01-01 12:55:22.61	263.76	26.25	-38.4	-40.2	23.5	6.05e-01	0	56	0	495976448	48	4413
2026-01-01 12:55:23.62	264.12	26.26	-38.4	-40.2	23.4	6.06e-01	0	56	0	498073600	48	4425
2026-01-01 12:55:24.63	264.49	26.27	-38.3	-40.1	23.5	6.07e-01	0	56	0	500170752	48	4374
2026-01-01 12:55:25.64	264.85	26.28	-38.4	-40.2	23.4	6.03e-01	0	56	0	501743616	48	4433
2026-01-01 12:55:26.65	265.22	26.28	-38.4	-40.2	23.4	6.05e-01	0	57	0	503840768	48	4424
2026-01-01 12:55:27.66	265.58	26.29	-38.4	-40.3	23.4	6.05e-01	0	56	0	505937920	48	4462
2026-01-01 12:55:28.67	265.95	26.29	-38.4	-40.2	23.4	6.06e-01	0	56	0	507510784	48	4441
2026-01-01 12:55:29.68	266.32	26.30	-38.2	-40.0	23.6	6.06e-01	0	56	0	509607936	48	4335
2026-01-01 12:55:30.69	266.68	26.30	-38.3	-40.1	23.5	6.05e-01	0	56	0	511180800	48	4372
2026-01-01 12:55:31.70	267.05	26.30	-38.5	-40.3	23.4	6.05e-01	0	56	0	513277952	48	4485
2026-01-01 12:55:32.71	267.42	26.30	-38.5	-40.3	23.4	6.07e-01	0	56	0	515375104	48	4479
2026-01-01 12:55:33.72	267.78	26.30	-38.4	-40.2	23.4	6.05e-01	0	56	0	516947968	48	4430
2026-01-01 12:55:34.73	268.15	26.30	-38.3	-40.1	23.1	6.05e-01	0	56	0	519045120	48	4371
2026-01-01 12:55:35.74	268.52	26.30	-38.2	-40.0	23.7	6.04e-01	0	57	0	521142272	48	4308
2026-01-01 12:55:36.75	268.88	26.29	-38.2	-40.0	23.7	6.06e-01	0	56	0	522715136	48	4317
2026-01-01 12:55:37.76	269.25	26.29	-38.5	-40.3	23.3	6.04e-01	0	56	0	524812288	48	4490
2026-01-01 12:55:38.77	269.61	26.28	-38.3	-40.2	23.5	6.06e-01	0	57	0	526385152	48	4396
2026-01-01 12:55:39.78	269.98	26.27	-38.3	-40.2	23.5	6.05e-01	0	56	0	528482304	48	4401
2026-01-01 12:55:40.79	270.34	26.26	-38.3	-40.1	23.5	6.07e-01	0	57	0	530579456	48	4378
2026-01-01 12:55:41.80	270.71	26.25	-38.2	-40.0	23.7	6.08e-01	0	57	0	532152320	48	4322
2026-01-01 12:55:42.81	271.07	26.24	-38.3	-40.1	23.5	6.07e-01	0	56	0	534249472	48	4369
2026-01-01 12:55:43.82	271.44	26.23	-38.4	-40.2	23.4	6.05e-01	0	57	0	535822336	48	4420
2026-01-01 12:55:44.83	271.80	26.21	-38.3	-40.1	23.5	6.06e-01	0	57	0	537919488	48	4377
2026-01-01 12:55:45.84	272.17	26.20	-38.2	-40.0	23.6	6.07e-01	0	57	0	540016640	48	4307
2026-01-01 12:55:46.85	272.53	26.18	-38.4	-40.2	23.5	6.07e-01	0	56	0	541589504	48	4415
2026-01-01 12:55:47.86	272.89	26.16	-38.2	-39.9	23.7	6.09e-01	0	57	0	543686656	48	4289
2026-01-01 12:55:48.87	273.26	26.14	-38.2	-40.0	23.6	6.06e-01	0	56	0	545259520	48	4336
2026-01-01 12:55:49.88	273.62	26.12	-38.3	-40.1	23.5	6.08e-01	0	57	0	547356672	48	4376
2026-01-01 12:55:50.89	273.98	26.10	-38.2	-40.0	23.6	6.05e-01	0	57	0	549453824	48	4327
2026-01-01 12:55:51.90	274.34	26.08	-38.2	-40.0	23.6	6.07e-01	0	57	0	551026688	48	4309
2026-01-01 12:55:52.91	274.70	26.06	-38.3	-40.1	23.5	6.04e-01	0	56	0	553123840	48	4372
2026-01-01 12:55:53.92	275.06	26.03	-38.2	-39.9	23.7	6.03e-01	0	56	0	554696704	48	4290
2026-01-01 12:55:54.93	275.42	26.01	-38.1	-39.9	23.7	6.08e-01	0	56	0	556793856	48	4273
2026-01-01 12:55:55.94	275.78	25.98	-38.3	-40.1	23.5	6.05e-01	0	56	0	558891008	48	4362
2026-01-01 12:55:56.95	276.14	25.95	-38.2	-40.0	23.6	6.05e-01	0	56	0	560463872	48	4316
2026-01-01 12:55:57.96	276.50	25.93	-38.3	-40.1	23.6	6.07e-01	0	57	0	562561024	48	4369
2026-01-01 12:55:58.97	276.85	25.90	-38.3	-40.2	23.4	6.08e-01	0	57	0	564133888	48	4409
2026-01-01 12:55:59.98	277.21	25.86	-38.2	-40.1	23.6	6.07e-01	0	57	0	566231040	48	4347
2026-01-01 12:56:00.99	277.57	25.83	-38.2	-39.9	23.7	6.07e-01	0	56	0	568328192	48	4286
2026-01-01 12:56:02.00	277.92	25.80	-38.2	-40.0	23.7	6.06e-01	0	57	0	569901056	48	4296
2026-01-01 12:56:03.01	278.27	25.76	-38.3	-40.1	23.5	6.04e-01	0	57	0	571998208	48	4362
2026-01-01 12:56:04.02	278.63	25.73	-38.2	-40.0	23.5	6.07e-01	0	57	0	574095360	48	4338
2026-01-01 12:56:05.03	278.98	25.69	-38.2	-40.0	23.6	6.05e-01	0	56	0	575668224	48	4305
2026-01-01 12:56:06.04	279.33	25.66	-38.3	-40.1	23.5	6.07e-01	0	56	0	577765376	48	4363
2026-01-01 12:56:07.04	279.68	25.62	-38.2	-40.0	23.6	6.08e-01	0	57	0	579338240	48	4327
2026-01-01 12:56:08.05	280.03	25.58	-38.0	-39.8	23.8	6.06e-01	0	57	0	581435392	48	4218
2026-01-01 12:56:09.06	280.38	25.54	-38.1	-39.9	23.8	6.04e-01	0	57	0	583532544	48	4245
2026-01-01 12:56:10.07	280.72	25.50	-38.2	-40.0	23.6	6.06e-01	0	56	0	585105408	48	4324
2026-01-01 12:56:11.08	281.07	25.45	-38.2	-40.0	23.7	6.06e-01	0	56	0	587202560	48	4299
2026-01-01 12:56:12.09	281.42	25.41	-38.2	-40.0	23.7	6.04e-01	0	57	0	588775424	48	4298
2026-01-01 12:56:13.10	281.76	25.37	-38.2	-40.0	23.6	6.07e-01	0	57	0	590872576	48	4305
2026-01-01 12:56:14.11	282.11	25.32	-38.2	-40.0	23.6	6.07e-01	0	57	0	592969728	48	4293
2026-01-01 12:56:15.12	282.45	25.27	-38.1	-39.8	23.7	6.05e-01	0	57	0	594542592	48	4241
2026-01-01 12:56:16.13	282.79	25.23	-38.1	-39.9	23.7	6.04e-01	0	56	0	596639744	48	4247
2026-01-01 12:56:17.14	283.13	25.18	-38.2	-40.0	23.6	6.05e-01	0	57	0	598736896	48	4322
2026-01-01 12:56:18.15	283.47	25.13	-38.2	-40.0	23.6	6.05e-01	0	56	0	600309760	48	4339
2026-01-01 12:56:19.16	283.81	25.08	-38.2	-40.0	23.6	6.07e-01	0	57	0	602406912	48	4320
2026-01-01 12:56:20.17	284.15	25.03	-38.1	-39.9	23.7	6.09e-01	0	57	0	603979776	48	4280
2026-01-01 12:56:21.18	284.48	24.98	-38.2	-40.0	23.6	6.05e-01	0	56	0	606076928	48	4306
2026-01-01 12:56:22.19	284.82	24.92	-38.1	-39.9	23.7	6.07e-01	0	57	0	608174080	48	4250
2026-01-01 12:56:23.20	285.15	24.87	-38.0	-39.8	23.8	6.05e-01	0	57	0	609746944	48	4225
2026-01-01 12:56:24.21	285.48	24.82	-38.2	-40.0	23.6	6.05e-01	0	56	0	611844096	48	4332
2026-01-01 12:56:25.22	285.82	24.76	-38.2	-40.1	23.6	6.04e-01	0	57	0	613416960	48	4347
2026-01-01 12:56:26.23	286.15	24.70	-38.2	-40.0	23.7	6.07e-01	0	57	0	615514112	48	4294
2026-01-01 12:56:27.24	286.48	24.65	-38.2	-40.0	23.5	6.07e-01	0	56	0	617611264	48	4337
2026-01-01 12:56:28.25	286.80	24.59	-38.2	-40.0	23.6	6.04e-01	0	57	0	619184128	48	4336
2026-01-01 12:56:29.26	287.13	24.53	-38.1	-39.9	23.6	6.07e-01	0	57	0	621281280	48	4286
2026-01-01 12:56:30.27	287.46	24.47	-38.0	-39.8	23.8	6.06e-01	0	57	0	622854144	48	4204
2026-01-01 12:56:31.28	287.78	24.41	-38.1	-39.9	23.7	6.09e-01	0	57	0	624951296	48	4279
2026-01-01 12:56:32.29	288.10	24.35	-38.3	-40.1	23.5	6.07e-01	0	56	0	627048448	48	4362
2026-01-01 12:56:33.30	288.42	24.29	-38.2	-40.1	23.5	6.07e-01	0	57	0	628621312	48	4350
2026-01-01 12:56:34.31	288.74	24.23	-38.2	-39.9	23.6	6.06e-01	0	57	0	630718464	48	4289
2026-01-01 12:56:35.32	289.06	24.16	-38.2	-40.0	23.6	6.05e-01	0	57	0	632291328	48	4310
2026-01-01 12:56:36.33	289.38	24.10	-38.1	-39.9	23.7	6.06e-01	0	56	0	634388480	48	4265
2026-01-01 12:56:37.34	289.70	24.04	-38.1	-39.9	23.7	6.06e-01	0	57	0	636485632	48	4243
2026-01-01 12:56:38.35	290.01	23.97	-38.0	-39.8	23.8	6.08e-01	0	57	0	638058496	48	4229
2026-01-01 12:56:39.36	290.32	23.91	-38.1	-39.9	23.7	6.06e-01	0	57	0	640155648	48	4250
2026-01-01 12:56:40.37	290.64	23.84	-38.2	-40.1	23.5	6.07e-01	0	57	0	642252800	48	4343
2026-01-01 12:56:41.38	290.95	23.77	-38.2	-40.1	23.5	6.06e-01	0	56	0	643825664	48	4341
2026-01-01 12:56:42.39	291.26	23.70	-38.1	-39.9	23.7	6.07e-01	0	57	0	645922816	48	4260
2026-01-01 12:56:43.40	291.57	23.64	-38.1	-39.9	23.7	6.04e-01	0	57	0	647495680	48	4247
2026-01-01 12:56:44.41	291.87	23.57	-38.2	-40.0	23.5	6.05e-01	0	57	0	649592832	48	4297
2026-01-01 12:56:45.42	292.18	23.50	-38.2	-40.0	23.6	6.06e-01	0	57	0	651689984	48	4307
2026-01-01 12:56:46.43	292.48	23.43	-38.1	-39.9	23.7	6.06e-01	0	57	0	653262848	48	4263
2026-01-01 12:56:47.44	292.78	23.36	-38.1	-39.8	23.7	6.05e-01	0	57	0	655360000	48	4242
2026-01-01 12:56:48.45	293.08	23.28	-38.1	-39.9	23.6	6.05e-01	0	57	0	656932864	48	4268
2026-01-01 12:56:49.45	293.38	23.21	-38.2	-40.0	23.5	6.05e-01	0	57	0	659030016	48	4334
2026-01-01 12:56:50.46	293.68	23.14	-38.2	-40.0	23.5	6.06e-01	0	57	0	661127168	48	4335
2026-01-01 12:56:51.47	293.98	23.07	-38.2	-40.1	23.5	6.08e-01	0	57	0	662700032	48	4341
2026-01-01 12:56:52.48	294.27	22.99	-38.2	-40.0	23.5	6.04e-01	0	57	0	664797184	48	4326
2026-01-01 12:56:53.49	294.56	22.92	-38.1	-39.9	23.6	6.04e-01	0	57	0	666894336	48	4287
2026-01-01 12:56:54.50	294.86	22.85	-38.1	-39.9	23.7	6.05e-01	0	57	0	668467200	48	4252
2026-01-01 12:56:55.51	295.15	22.77	-38.1	-39.9	23.7	6.05e-01	0	57	0	670564352	48	4251
2026-01-01 12:56:56.52	295.44	22.69	-38.1	-39.8	23.7	6.08e-01	0	57	0	672137216	48	4236
2026-01-01 12:56:57.53	295.73	22.62	-38.1	-40.0	23.6	6.06e-01	0	57	0	674234368	48	4293
2026-01-01 12:56:58.54	296.01	22.54	-38.2	-40.1	23.5	6.07e-01	0	57	0	676331520	48	4346
2026-01-01 12:56:59.55	296.30	22.47	-38.2	-40.1	23.5	6.04e-01	0	57	0	677904384	48	4348
2026-01-01 12:57:00.56	296.58	22.39	-38.2	-40.0	23.5	6.06e-01	0	57	0	680001536	48	4326
2026-01-01 12:57:01.57	296.86	22.31	-38.1	-39.9	23.6	6.06e-01	0	57	0	681574400	48	4270
2026-01-01 12:57:02.58	297.14	22.23	-38.0	-39.8	23.7	6.04e-01	0	57	0	683671552	48	4225
2026-01-01 12:57:03.59	297.42	22.15	-38.0	-39.8	23.7	6.06e-01	0	57	0	685768704	48	4207
2026-01-01 12:57:04.61	297.70	22.07	-38.0	-39.8	23.7	6.07e-01	0	57	0	687341568	48	4242
2026-01-01 12:57:05.62	297.98	21.99	-38.1	-39.9	23.6	6.06e-01	0	57	0	689438720	48	4259
2026-01-01 12:57:06.63	298.25	21.92	-38.0	-39.8	23.7	6.06e-01	0	57	0	691011584	48	4230
2026-01-01 12:57:07.64	298.53	21.84	-37.6	-39.4	23.7	6.07e-01	0	57	0	693108736	47	4261
2026-01-01 12:57:08.65	298.80	21.75	-37.7	-39.5	23.7	6.08e-01	0	56	0	695205888	47	4302
2026-01-01 12:57:09.66	299.07	21.67	-37.8	-39.6	23.5	6.06e-01	0	57	0	696778752	47	4375
2026-01-01 12:57:10.66	299.34	21.59	-37.7	-39.6	23.6	6.06e-01	0	57	0	698875904	47	4344
2026-01-01 12:57:11.67	299.60	21.51	-37.6	-39.5	23.7	6.05e-01	0	56	0	700448768	47	4292
2026-01-01 12:57:12.68	299.87	21.43	-37.6	-39.3	23.7	6.05e-01	0	57	0	702545920	47	4240
2026-01-01 12:57:13.69	300.13	21.35	-37.6	-39.3	23.8	6.07e-01	0	57	0	704643072	47	4237
2026-01-01 12:57:14.70	300.40	21.27	-37.7	-39.5	23.6	6.06e-01	0	57	0	706215936	47	4310
2026-01-01 12:57:15.71	300.66	21.18	-37.8	-39.6	23.5	6.07e-01	0	57	0	708313088	47	4353
2026-01-01 12:57:16.72	300.92	21.10	-37.7	-39.5	23.6	6.05e-01	0	57	0	710410240	47	4337
2026-01-01 12:57:17.73	301.18	21.02	-37.7	-39.5	23.6	6.06e-01	0	57	0	711983104	47	4305
2026-01-01 12:57:18.74	301.44	20.93	-37.6	-39.4	23.7	6.04e-01	0	57	0	714080256	47	4256
2026-01-01 12:57:19.75	301.69	20.85	-37.6	-39.3	23.7	6.05e-01	0	57	0	715653120	47	4242
2026-01-01 12:57:20.76	301.95	20.77	-37.6	-39.4	23.7	6.06e-01	0	57	0	717750272	47	4261
2026-01-01 12:57:21.77	302.20	20.68	-37.6	-39.4	23.6	6.06e-01	0	57	0	719847424	47	4290
2026-01-01 12:57:22.78	302.45	20.60	-37.6	-39.4	23.6	6.07e-01	0	57	0	721420288	47	4281
2026-01-01 12:57:23.79	302.70	20.51	-37.6	-39.4	23.6	6.07e-01	0	57	0	723517440	47	4273
2026-01-01 12:57:24.80	302.95	20.43	-37.6	-39.5	23.6	6.06e-01	0	57	0	725090304	47	4295
2026-01-01 12:57:25.81	303.20	20.34	-37.7	-39.5	23.6	6.07e-01	0	57	0	727187456	47	4316
2026-01-01 12:57:26.82	303.44	20.26	-37.7	-39.5	23.6	6.05e-01	0	57	0	729284608	47	4309
2026-01-01 12:57:27.83	303.69	20.17	-37.6	-39.5	23.6	6.07e-01	0	57	0	730857472	47	4294
2026-01-01 12:57:28.84	303.93	20.09	-37.6	-39.4	23.7	6.06e-01	0	57	0	732954624	47	4278
2026-01-01 12:57:29.85	304.17	20.00	-37.5	-39.3	23.7	6.07e-01	0	57	0	735051776	47	4233
2026-01-01 12:57:30.86	304.41	19.92	-37.5	-39.3	23.7	6.08e-01	0	57	0	736624640	47	4205
2026-01-01 12:57:31.87	304.65	19.83	-37.5	-39.3	23.8	6.05e-01	0	57	0	738721792	47	4205
2026-01-01 12:57:32.88	304.89	19.75	-37.6	-39.4	23.7	6.05e-01	0	57	0	740294656	47	4252
2026-01-01 12:57:33.89	305.13	19.66	-37.6	-39.4	23.6	6.07e-01	0	57	0	742391808	47	4288
2026-01-01 12:57:34.90	305.36	19.57	-37.6	-39.4	23.6	6.07e-01	0	57	0	744488960	47	4276
2026-01-01 12:57:35.91	305.59	19.49	-37.6	-39.4	23.6	6.07e-01	0	57	0	746061824	47	4285
2026-01-01 12:57:36.92	305.83	19.40	-37.6	-39.4	23.7	6.07e-01	0	57	0	748158976	47	4255
2026-01-01 12:57:37.93	306.06	19.31	-37.5	-39.3	23.7	6.04e-01	0	57	0	749731840	47	4214
2026-01-01 12:57:38.94	306.29	19.23	-37.5	-39.2	23.8	6.07e-01	0	57	0	751828992	46	4434
2026-01-01 12:57:39.95	306.51	19.14	-37.5	-39.3	23.7	6.06e-01	0	57	0	753926144	46	4476
2026-01-01 12:57:40.96	306.74	19.05	-37.6	-39.4	23.7	6.06e-01	0	57	0	755499008	46	4526
2026-01-01 12:57:41.97	306.97	18.97	-37.6	-39.4	23.7	6.05e-01	0	57	0	757596160	46	4523
2026-01-01 12:57:42.98	307.19	18.88	-37.5	-39.3	23.7	6.04e-01	0	57	0	759169024	46	4482
2026-01-01 12:57:43.99	307.41	18.79	-37.5	-39.3	23.8	6.06e-01	0	57	0	761266176	46	4444
2026-01-01 12:57:45.00	307.63	18.70	-37.5	-39.3	23.8	6.05e-01	0	57	0	763363328	46	4451
2026-01-01 12:57:46.01	307.85	18.62	-37.4	-39.2	23.8	6.07e-01	0	57	0	764936192	46	4416
2026-01-01 12:57:47.02	308.07	18.53	-37.5	-39.3	23.8	6.05e-01	0	57	0	767033344	46	4453
2026-01-01 12:57:48.03	308.29	18.44	-37.5	-39.3	23.7	6.07e-01	0	57	0	768606208	46	4463
2026-01-01 12:57:49.04	308.51	18.35	-37.5	-39.3	23.7	6.05e-01	0	57	0	770703360	46	4480
2026-01-01 12:57:50.05	308.72	18.27	-37.5	-39.3	23.7	6.07e-01	0	57	0	772800512	46	4481
2026-01-01 12:57:51.06	308.94	18.18	-37.6	-39.4	23.7	6.06e-01	0	57	0	774373376	46	4497
2026-01-01 12:57:52.07	309.15	18.09	-37.5	-39.3	23.7	6.07e-01	0	57	0	776470528	46	4487
2026-01-01 12:57:53.07	309.36	18.01	-37.5	-39.3	23.7	6.04e-01	0	57	0	778567680	46	4483
2026-01-01 12:57:54.08	309.57	17.92	-37.4	-39.2	23.8	6.06e-01	0	57	0	780140544	46	4422
2026-01-01 12:57:55.09	309.78	17.83	-37.4	-39.2	23.8	6.05e-01	0	57	0	782237696	46	4405
2026-01-01 12:57:56.10	309.98	17.74	-37.4	-39.1	23.9	6.05e-01	0	57	0	783810560	46	4391
2026-01-01 12:57:57.11	310.19	17.66	-37.4	-39.2	23.8	6.04e-01	0	57	0	785907712	46	4429
2026-01-01 12:57:58.12	310.39	17.57	-37.4	-39.2	23.8	6.06e-01	0	57	0	788004864	46	4413
2026-01-01 12:57:59.13	310.60	17.48	-37.5	-39.2	23.8	6.07e-01	0	57	0	789577728	46	4430
2026-01-01 12:58:00.14	310.80	17.39	-37.5	-39.2	23.8	6.08e-01	0	57	0	791674880	46	4439
2026-01-01 12:58:01.15	311.00	17.31	-37.5	-39.3	23.7	6.07e-01	0	57	0	793247744	46	4476
2026-01-01 12:58:02.16	311.20	17.22	-37.5	-39.4	23.6	6.06e-01	0	57	0	795344896	46	4494
2026-01-01 12:58:03.17	311.40	17.13	-37.5	-39.3	23.7	6.05e-01	0	57	0	797442048	46	4477
2026-01-01 12:58:04.18	311.60	17.04	-37.5	-39.3	23.7	6.06e-01	0	57	0	799014912	46	4444
2026-01-01 12:58:05.19	311.79	16.96	-37.4	-39.2	23.8	6.07e-01	0	57	0	801112064	46	4417
2026-01-01 12:58:06.20	311.99	16.87	-37.4	-39.2	23.8	6.04e-01	0	57	0	803209216	46	4410
2026-01-01 12:58:07.21	312.18	16.78	-37.5	-39.3	23.7	6.05e-01	0	57	0	804782080	46	4443
2026-01-01 12:58:08.22	312.37	16.69	-37.5	-39.3	23.7	6.07e-01	0	57	0	806879232	46	4465
2026-01-01 12:58:09.23	312.57	16.61	-37.5	-39.3	23.7	6.05e-01	0	57	0	808452096	46	4484
2026-01-01 12:58:10.24	312.76	16.52	-37.6	-39.4	23.6	6.07e-01	0	57	0	810549248	46	4524
2026-01-01 12:58:11.24	312.94	16.43	-37.6	-39.4	23.6	6.05e-01	0	57	0	812646400	46	4505
2026-01-01 12:58:12.25	313.13	16.35	-37.5	-39.3	23.6	6.04e-01	0	57	0	814219264	46	4478
2026-01-01 12:58:13.26	313.32	16.26	-37.5	-39.3	23.7	6.06e-01	0	57	0	816316416	46	4459
2026-01-01 12:58:14.28	313.51	16.17	-37.4	-39.2	23.7	6.05e-01	0	57	0	817889280	46	4426
2026-01-01 12:58:15.29	313.69	16.09	-37.4	-39.1	23.8	6.06e-01	0	57	0	819986432	46	4390
2026-01-01 12:58:16.30	313.88	16.00	-37.4	-39.2	23.7	6.07e-01	0	57	0	822083584	46	4420
2026-01-01 12:58:17.31	314.06	15.91	-37.4	-39.2	23.7	6.09e-01	0	57	0	823656448	46	4437
2026-01-01 12:58:18.31	314.24	15.83	-37.5	-39.3	23.7	6.07e-01	0	57	0	825753600	46	4460
2026-01-01 12:58:19.32	314.42	15.74	-37.5	-39.3	23.6	6.05e-01	0	57	0	827326464	46	4478
2026-01-01 12:58:20.33	314.60	15.65	-37.5	-39.3	23.6	6.05e-01	0	57	0	829423616	46	4460
2026-01-01 12:58:21.34	314.78	15.57	-37.5	-39.3	23.6	6.05e-01	0	57	0	831520768	46	4459
2026-01-01 12:58:22.35	314.95	15.48	-37.5	-39.4	23.6	6.08e-01	0	57	0	833093632	46	4503
2026-01-01 12:58:23.36	315.13	15.40	-37.6	-39.4	23.5	6.06e-01	0	57	0	835190784	46	4532
2026-01-01 12:58:24.37	315.31	15.31	-37.6	-39.5	23.4	6.06e-01	0	57	0	836763648	46	4554
2026-01-01 12:58:25.38	315.48	15.22	-37.7	-39.5	23.4	6.08e-01	0	57	0	838860800	46	4590
2026-01-01 12:58:26.39	315.65	15.14	-37.6	-39.5	23.4	6.06e-01	0	57	0	840957952	46	4564
2026-01-01 12:58:27.40	315.83	15.05	-37.6	-39.5	23.4	6.08e-01	0	57	0	842530816	46	4568
2026-01-01 12:58:28.41	316.00	14.97	-37.6	-39.4	23.5	6.07e-01	0	57	0	844627968	46	4538
2026-01-01 12:58:29.42	316.17	14.88	-37.6	-39.4	23.5	6.06e-01	0	57	0	846725120	46	4538
2026-01-01 12:58:30.43	316.34	14.80	-37.6	-39.4	23.5	6.07e-01	0	57	0	848297984	46	4515
2026-01-01 12:58:31.44	316.50	14.71	-37.6	-39.4	23.5	6.06e-01	0	57	0	850395136	46	4530
2026-01-01 12:58:32.45	316.67	14.63	-37.6	-39.4	23.5	6.04e-01	0	57	0	851968000	46	4509
2026-01-01 12:58:33.46	316.84	14.54	-37.6	-39.4	23.5	6.06e-01	0	57	0	854065152	46	4502
2026-01-01 12:58:34.47	317.00	14.46	-37.5	-39.3	23.5	6.06e-01	0	57	0	856162304	46	4488
2026-01-01 12:58:35.48	317.17	14.37	-37.5	-39.4	23.5	6.00e-01	0	57	0	857735168	46	4498
2026-01-01 12:58:36.49	317.33	14.29	-37.6	-39.4	23.5	6.01e-01	0	57	0	859832320	46	4537
2026-01-01 12:58:37.50	317.49	14.20	-37.6	-39.5	23.4	6.04e-01	0	57	0	861405184	46	4549
2026-01-01 12:58:38.51	317.65	14.12	-37.6	-39.5	23.4	6.02e-01	0	57	0	863502336	46	4562
2026-01-01 12:58:39.52	317.81	14.04	-37.6	-39.4	23.4	6.02e-01	0	57	0	865599488	46	4545
2026-01-01 12:58:40.53	317.97	13.95	-37.6	-39.4	23.4	6.01e-01	0	57	0	867172352	46	4531
2026-01-01 12:58:41.54	318.13	13.87	-37.6	-39.4	23.5	6.03e-01	0	57	0	869269504	46	4525
2026-01-01 12:58:42.55	318.29	13.78	-37.6	-39.4	23.5	6.03e-01	0	57	0	871366656	46	4536
2026-01-01 12:58:43.56	318.44	13.70	-37.6	-39.5	23.4	6.01e-01	0	57	0	872939520	46	4570
2026-01-01 12:58:44.57	318.60	13.62	-37.7	-39.6	23.3	6.02e-01	0	57	0	875036672	46	4614
2026-01-01 12:58:45.58	318.75	13.53	-37.7	-39.6	23.3	6.02e-01	0	57	0	876609536	46	4623
2026-01-01 12:58:46.59	318.91	13.45	-37.7	-39.6	23.2	6.01e-01	0	57	0	878706688	46	4633
2026-01-01 12:58:47.60	319.06	13.37	-37.7	-39.6	23.2	6.01e-01	0	57	0	880803840	46	4634
2026-01-01 12:58:48.61	319.21	13.28	-37.8	-39.6	23.2	6.02e-01	0	57	0	882376704	46	4643
2026-01-01 12:58:49.62	319.36	13.20	-37.7	-39.6	23.2	6.02e-01	0	57	0	884473856	46	4635
2026-01-01 12:58:50.63	319.51	13.12	-37.7	-39.6	23.2	6.04e-01	0	57	0	886571008	46	4634
2026-01-01 12:58:51.65	319.66	13.03	-37.8	-39.7	23.2	6.01e-01	0	57	0	888143872	46	4668
2026-01-01 12:58:52.66	319.81	12.95	-37.9	-39.8	23.1	6.02e-01	0	57	0	890241024	46	4718
2026-01-01 12:58:53.67	319.96	12.87	-37.9	-39.8	23.0	6.03e-01	0	57	0	891813888	46	4725
2026-01-01 12:58:54.68	320.11	12.79	-37.9	-39.8	23.0	6.01e-01	0	57	0	893911040	46	4758
2026-01-01 12:58:55.69	320.25	12.71	-37.9	-39.8	23.0	6.01e-01	0	57	0	896008192	46	4749
2026-01-01 12:58:56.70	320.40	12.62	-37.9	-39.8	23.0	6.03e-01	0	57	0	897581056	46	4738
2026-01-01 12:58:57.71	320.54	12.54	-37.9	-39.8	23.0	6.02e-01	0	57	0	899678208	46	4735
2026-01-01 12:58:58.72	320.69	12.46	-37.9	-39.8	23.0	6.01e-01	0	57	0	901251072	46	4720
2026-01-01 12:58:59.73	320.83	12.38	-37.9	-39.8	23.0	6.01e-01	0	57	0	903348224	46	4713
2026-01-01 12:59:00.74	320.97	12.30	-37.9	-39.8	23.0	6.01e-01	0	57	0	905445376	46	4741
2026-01-01 12:59:01.75	321.11	12.22	-38.0	-39.9	22.9	6.02e-01	0	57	0	907018240	46	4784
2026-01-01 12:59:02.76	321.25	12.14	-37.9	-39.9	22.9	6.01e-01	0	57	0	909115392	46	4762
2026-01-01 12:59:03.77	321.39	12.06	-37.9	-39.9	22.9	6.04e-01	0	57	0	910688256	46	4774
2026-01-01 12:59:04.78	321.53	11.98	-38.0	-39.9	22.9	6.02e-01	0	57	0	912785408	46	4802
2026-01-01 12:59:05.79	321.67	11.90	-38.0	-39.9	22.9	6.01e-01	0	57	0	914882560	46	4787
2026-01-01 12:59:06.80	321.80	11.82	-38.0	-40.0	22.9	6.03e-01	0	57	0	916455424	46	4815
2026-01-01 12:59:07.81	321.94	11.74	-37.9	-39.9	22.9	6.01e-01	0	57	0	918552576	46	4777
2026-01-01 12:59:08.82	322.07	11.66	-37.9	-39.9	22.9	6.02e-01	0	57	0	920125440	46	4763
2026-01-01 12:59:09.83	322.21	11.58	-37.9	-39.9	22.9	6.03e-01	0	57	0	922222592	46	4778
2026-01-01 12:59:10.84	322.34	11.50	-37.9	-39.9	22.9	6.03e-01	0	57	0	924319744	46	4786
2026-01-01 12:59:11.85	322.48	11.42	-38.0	-40.0	22.8	6.00e-01	0	57	0	925892608	46	4830
2026-01-01 12:59:12.86	322.61	11.34	-38.0	-40.0	22.8	6.01e-01	0	57	0	927989760	46	4849
2026-01-01 12:59:13.87	322.74	11.26	-38.1	-40.0	22.7	6.01e-01	0	57	0	929562624	46	4862
2026-01-01 12:59:14.88	322.87	11.18	-38.1	-40.1	22.6	6.03e-01	0	57	0	931659776	46	4916
2026-01-01 12:59:15.89	323.00	11.10	-38.1	-40.1	22.6	6.02e-01	0	57	0	933756928	46	4916
2026-01-01 12:59:16.90	323.13	11.02	-38.2	-40.2	22.6	6.04e-01	0	57	0	935329792	46	4943
2026-01-01 12:59:17.91	323.26	10.94	-38.1	-40.2	22.6	6.01e-01	0	57	0	937426944	46	4931
2026-01-01 12:59:18.92	323.39	10.87	-38.2	-40.2	22.5	6.02e-01	0	57	0	939524096	46	4981
2026-01-01 12:59:19.93	323.52	10.79	-38.3	-40.3	22.4	6.01e-01	0	57	0	941096960	47	4749
2026-01-01 12:59:20.94	323.64	10.71	-38.4	-40.5	22.3	6.03e-01	0	57	0	943194112	47	4815
2026-01-01 12:59:21.95	323.77	10.63	-38.4	-40.4	22.3	6.01e-01	0	57	0	944766976	47	4806
2026-01-01 12:59:22.96	323.89	10.55	-38.4	-40.5	22.3	6.01e-01	0	57	0	946864128	47	4825
2026-01-01 12:59:23.97	324.02	10.48	-38.5	-40.6	22.2	6.00e-01	0	57	0	948961280	47	4886
2026-01-01 12:59:24.97	324.14	10.40	-38.4	-40.5	22.2	6.01e-01	0	57	0	950534144	47	4816
2026-01-01 12:59:25.98	324.26	10.32	-38.4	-40.4	22.3	6.03e-01	0	57	0	952631296	47	4806
2026-01-01 12:59:27.00	324.39	10.24	-38.4	-40.4	22.3	6.04e-01	0	57	0	954728448	47	4803
2026-01-01 12:59:28.01	324.51	10.17	-38.5	-40.6	22.1	6.00e-01	0	57	0	956301312	47	4907
2026-01-01 12:59:29.01	324.63	10.09	-38.5	-40.6	22.1	6.00e-01	0	57	0	958398464	47	4916
2026-01-01 12:59:30.02	324.75	10.02	-38.5	-40.7	22.0	6.02e-01	0	57	0	959971328	47	4949
2026-01-01 12:59:31.03	324.87	9.94	-38.4	-40.5	22.2	6.00e-01	0	57	0	962068480	47	4839
2026-01-01 12:59:32.04	324.99	9.86	-38.4	-40.5	22.2	5.99e-01	0	57	0	964165632	47	4848
2026-01-01 12:59:33.05	325.11	9.79	-38.4	-40.5	22.2	6.00e-01	0	57	0	965738496	47	4822
2026-01-01 12:59:34.06	325.22	9.71	-38.4	-40.5	22.2	6.02e-01	0	57	0	967835648	47	4854
2026-01-01 12:59:35.07	325.34	9.64	-38.4	-40.5	22.2	6.03e-01	0	57	0	969408512	47	4852
2026-01-01 12:59:36.08	325.46	9.56	-38.4	-40.5	22.2	6.03e-01	0	57	0	971505664	47	4855
2026-01-01 12:59:37.09	325.57	9.48	-38.5	-40.6	22.1	6.03e-01	0	57	0	973602816	47	4876
2026-01-01 12:59:38.10	325.69	9.41	-38.4	-40.5	22.2	6.01e-01	0	57	0	975175680	47	4839
2026-01-01 12:59:39.11	325.81	9.33	-38.5	-40.6	22.1	6.03e-01	0	57	0	977272832	47	4879
2026-01-01 12:59:40.12	325.92	9.26	-38.6	-40.7	22.0	6.03e-01	0	57	0	978845696	47	4950
2026-01-01 12:59:41.13	326.03	9.18	-38.6	-40.8	21.9	6.01e-01	0	57	0	980942848	47	4988
2026-01-01 12:59:42.14	326.15	9.11	-38.5	-40.7	22.0	5.99e-01	0	57	0	983040000	47	4949
2026-01-01 12:59:43.15	326.26	9.04	-38.6	-40.8	21.9	6.01e-01	0	57	0	984612864	47	5014
2026-01-01 12:59:44.16	326.37	8.96	-38.6	-40.7	21.9	6.01e-01	0	57	0	986710016	47	4962
2026-01-01 12:59:45.17	326.48	8.89	-38.6	-40.7	21.9	6.00e-01	0	57	0	988282880	47	4977
2026-01-01 12:59:46.18	326.59	8.81	-38.6	-40.8	21.8	5.99e-01	0	57	0	990380032	47	5025
2026-01-01 12:59:47.19	326.70	8.74	-38.6	-40.8	21.8	6.01e-01	0	57	0	992477184	47	5005
2026-01-01 12:59:48.20	326.81	8.67	-38.5	-40.7	21.9	6.00e-01	0	57	0	994050048	47	4951
2026-01-01 12:59:49.21	326.92	8.59	-38.6	-40.8	21.8	6.04e-01	0	57	0	996147200	47	5015
2026-01-01 12:59:50.21	327.03	8.52	-38.6	-40.8	21.8	6.03e-01	0	57	0	997720064	47	5030
2026-01-01 12:59:51.22	327.13	8.45	-38.6	-40.8	21.8	6.00e-01	0	57	0	999817216	47	5037
2026-01-01 12:59:52.23	327.24	8.37	-38.7	-40.9	21.7	6.01e-01	0	57	0	1001914368	47	5074
2026-01-01 12:59:53.24	327.35	8.30	-39.1	-41.3	21.6	6.00e-01	0	57	0	1003487232	48	5027
2026-01-01 12:59:54.25	327.45	8.23	-39.2	-41.4	21.5	6.05e-01	0	57	0	1005584384	48	5098
2026-01-01 12:59:55.26	327.56	8.16	-39.2	-41.4	21.5	6.01e-01	0	57	0	1007681536	49	4802
2026-01-01 12:59:56.27	327.67	8.08	-39.1	-41.4	21.6	6.02e-01	0	57	0	1009254400	49	4782
2026-01-01 12:59:57.28	327.77	8.01	-39.2	-41.5	21.4	6.01e-01	0	57	0	1011351552	49	4836
2026-01-01 12:59:58.29	327.87	7.94	-45.2	-63.2	3.8	7.49e-01	0	57	104	1011875840	60	31235
2026-01-01 12:59:59.30	327.98	7.87	-45.4	-64.0	3.8	7.45e-01	0	57	104	1011875840	61	32196
2026-01-01 13:00:00.31	328.08	7.80	-45.6	-64.3	3.8	7.44e-01	0	57	104	1011875840	61	33511
2026-01-01 13:00:01.32	328.18	7.72	-45.8	-64.5	3.9	7.42e-01	0	57	104	1011875840	62	32468
2026-01-01 13:00:02.33	328.28	7.65	-45.9	-64.6	3.8	7.45e-01	0	57	104	1011875840	62	32838
2026-01-01 13:00:03.35	328.39	7.58	-46.0	-64.7	3.8	7.48e-01	0	57	104	1011875840	62	33308
2026-01-01 13:00:04.35	328.49	7.51	-46.0	-64.8	3.8	7.44e-01	0	57	104	1011875840	62	33519
2026-01-01 13:00:05.37	328.59	7.44	-46.0	-64.8	3.8	7.46e-01	0	57	104	1011875840	62	33571
2026-01-01 13:00:06.37	328.69	7.37	-42.1	-64.9	3.6	7.47e-01	0	57	104	1011875840	55	50840
2026-01-01 13:00:07.39	328.79	7.30	-46.0	-64.8	3.8	7.49e-01	0	57	104	1011875840	62	33485
2026-01-01 13:00:08.39	328.88	7.23	-46.0	-64.7	3.8	7.45e-01	0	57	104	1011875840	62	33272
2026-01-01 13:00:09.40	328.98	7.16	-46.0	-64.7	3.8	7.47e-01	0	57	104	1011875840	62	33261
2026-01-01 13:00:10.41	329.08	7.09	-46.0	-64.7	3.8	7.44e-01	0	57	104	1011875840	62	33241
2026-01-01 13:00:11.42	329.18	7.02	-46.0	-64.8	3.8	7.46e-01	0	57	104	1011875840	62	33353
2026-01-01 13:00:12.43	329.27	6.95	-45.8	-64.7	3.8	7.47e-01	0	57	104	1011875840	62	33115
2026-01-01 13:00:13.45	329.37	6.88	-45.9	-64.7	3.8	7.42e-01	0	57	104	1011875840	62	33095
2026-01-01 13:00:14.46	329.47	6.81	-45.9	-64.7	3.8	7.47e-01	0	57	104	1011875840	62	33087
2026-01-01 13:00:15.47	329.56	6.74	-45.9	-64.7	3.8	7.45e-01	0	57	104	1011875840	62	33117
2026-01-01 13:00:16.48	329.66	6.67	-45.9	-64.7	3.8	7.46e-01	0	57	104	1011875840	62	33091
2026-01-01 13:00:17.49	329.75	6.60	-45.9	-64.7	3.8	7.47e-01	0	57	104	1011875840	62	33175
2026-01-01 13:00:18.50	329.85	6.53	-45.9	-64.7	3.8	7.43e-01	0	57	104	1011875840	62	33133
2026-01-01 13:00:19.51	329.94	6.46	-45.9	-64.7	3.8	7.44e-01	0	57	104	1011875840	62	33147
2026-01-01 13:00:20.52	330.03	6.39	-45.9	-64.7	3.8	7.48e-01	0	57	104	1011875840	62	33071
2026-01-01 13:00:21.53	330.13	6.32	-45.9	-64.7	3.8	7.43e-01	0	58	104	1011875840	62	33039
2026-01-01 13:00:22.54	330.22	6.26	-45.9	-64.7	3.8	7.47e-01	0	57	104	1011875840	62	33023
2026-01-01 13:00:23.56	330.31	6.19	-45.8	-64.7	3.8	7.45e-01	0	57	104	1011875840	62	33078
2026-01-01 13:00:24.57	330.40	6.12	-45.9	-64.7	3.8	7.46e-01	0	57	104	1011875840	62	33078
2026-01-01 13:00:25.58	330.49	6.05	-45.9	-64.7	3.8	7.45e-01	0	57	104	1011875840	62	33054
2026-01-01 13:00:26.59	330.58	5.98	-45.9	-64.7	3.8	7.45e-01	0	57	104	1011875840	62	33033
2026-01-01 13:00:27.60	330.67	5.92	-45.9	-64.7	3.8	7.44e-01	0	57	104	1011875840	62	33022
2026-01-01 13:00:28.61	330.76	5.85	-45.9	-64.7	3.8	7.48e-01	0	57	104	1011875840	62	33068
2026-01-01 13:00:29.62	330.85	5.78	-45.9	-64.7	3.8	7.45e-01	0	57	104	1011875840	62	33037
2026-01-01 13:00:30.63	330.94	5.71	-45.9	-64.7	3.8	7.46e-01	0	57	104	1011875840	62	33055
2026-01-01 13:00:31.64	331.03	5.65	-45.9	-64.7	3.8	7.48e-01	0	57	104	1011875840	62	33069
2026-01-01 13:00:32.65	331.12	5.58	-45.9	-64.7	3.8	7.44e-01	0	57	104	1011875840	62	32960
2026-01-01 13:00:33.66	331.20	5.51	-45.9	-64.7	3.8	7.47e-01	0	57	104	1011875840	62	32992
2026-01-01 13:00:34.67	331.29	5.45	-45.9	-64.7	3.8	7.47e-01	0	57	104	1011875840	62	33020
2026-01-01 13:00:35.69	331.38	5.38	-45.9	-64.7	3.8	7.44e-01	0	57	104	1011875840	62	33053
2026-01-01 13:00:36.70	331.46	5.31	-45.9	-64.7	3.8	7.45e-01	0	58	104	1011875840	62	32974
2026-01-01 13:00:37.71	331.55	5.25	-45.9	-64.7	3.8	7.44e-01	0	58	104	1011875840	62	33018
2026-01-01 13:00:38.72	331.63	5.18	-45.9	-64.7	3.8	7.45e-01	0	57	104	1011875840	62	32984
2026-01-01 13:00:39.73	331.72	5.11	-45.9	-64.7	3.8	7.43e-01	0	57	104	1011875840	62	32934
2026-01-01 13:00:40.74	331.80	5.05	-45.9	-64.7	3.8	7.43e-01	0	57	104	1011875840	62	32988
2026-01-01 13:00:41.75	331.89	4.98	-45.9	-64.7	3.8	7.45e-01	0	57	104	1011875840	62	32988
2026-01-01 13:00:42.76	331.97	4.92	-45.9	-64.7	3.8	7.48e-01	0	58	104	1011875840	62	32978
2026-01-01 13:00:43.77	332.06	4.85	-45.9	-64.7	3.8	7.44e-01	0	57	104	1011875840	62	32943
2026-01-01 13:00:44.79	332.14	4.78	-45.9	-64.7	3.8	7.46e-01	0	57	104	1011875840	62	32977
2026-01-01 13:00:45.80	332.22	4.72	-45.9	-64.7	3.8	7.48e-01	0	58	104	1011875840	62	33022
2026-01-01 13:00:46.81	332.30	4.65	-45.9	-64.7	3.8	7.46e-01	0	58	104	1011875840	62	32983
2026-01-01 13:00:47.82	332.39	4.59	-45.9	-64.7	3.8	7.42e-01	0	58	104	1011875840	62	32987
2026-01-01 13:00:48.83	332.47	4.53	-45.9	-64.7	3.8	7.48e-01	0	57	104	1011875840	62	33021
2026-01-01 13:00:49.84	332.55	4.46	-45.9	-64.7	3.8	7.44e-01	0	58	104	1011875840	62	32930
2026-01-01 13:00:50.85	332.63	4.40	-45.9	-64.7	3.8	7.43e-01	0	57	104	1011875840	62	32977
2026-01-01 13:00:51.86	332.71	4.33	-45.9	-64.7	3.8	7.49e-01	0	58	104	1011875840	62	32970
2026-01-01 13:00:52.87	332.79	4.27	-45.9	-64.7	3.8	7.47e-01	0	57	104	1011875840	62	32938
2026-01-01 13:00:53.88	332.87	4.20	-45.9	-64.7	3.8	7.45e-01	0	58	104	1011875840	62	32969
2026-01-01 13:00:54.89	332.95	4.14	-45.8	-64.7	3.8	7.44e-01	0	57	104	1011875840	62	32958
2026-01-01 13:00:55.89	333.03	4.08	-45.9	-64.6	3.8	7.43e-01	0	58	104	1011875840	62	32901
2026-01-01 13:00:56.90	333.11	4.01	-45.9	-64.7	3.8	7.43e-01	0	58	104	1011875840	62	32982
2026-01-01 13:00:57.92	333.19	3.95	-45.9	-64.7	3.8	7.46e-01	0	58	104	1011875840	62	32931
2026-01-01 13:00:58.93	333.26	3.88	-45.9	-64.7	3.8	7.46e-01	0	58	104	1011875840	62	32990
2026-01-01 13:00:59.94	333.34	3.82	-45.9	-64.7	3.8	7.46e-01	0	57	104	1011875840	62	32954
2026-01-01 13:01:00.95	333.42	3.76	-45.9	-64.6	3.8	7.44e-01	0	57	104	1011875840	62	32915
2026-01-01 13:01:01.96	333.49	3.69	-45.9	-64.7	3.8	7.46e-01	0	57	104	1011875840	62	32959
2026-01-01 13:01:02.97	333.57	3.63	-45.9	-64.7	3.8	7.47e-01	0	58	104	1011875840	62	32930
2026-01-01 13:01:03.98	333.65	3.57	-45.9	-64.6	3.8	7.44e-01	0	58	104	1011875840	62	32925
2026-01-01 13:01:04.99	333.72	3.51	-45.9	-64.7	3.8	7.43e-01	0	58	104	1011875840	62	32955
2026-01-01 13:01:06.00	333.80	3.44	-45.9	-64.6	3.8	7.47e-01	0	58	104	1011875840	62	32912
2026-01-01 13:01:07.01	333.87	3.38	-45.9	-64.7	3.8	7.45e-01	0	58	104	1011875840	62	32960
2026-01-01 13:01:08.03	333.95	3.32	-45.8	-64.7	3.8	7.45e-01	0	58	104	1011875840	62	32933
2026-01-01 13:01:09.04	334.02	3.26	-45.9	-64.6	3.8	7.43e-01	0	57	104	1011875840	62	32915
2026-01-01 13:01:10.05	334.10	3.19	-45.8	-64.6	3.8	7.46e-01	0	58	104	1011875840	62	32923
2026-01-01 13:01:11.06	334.17	3.13	-45.9	-64.6	3.8	7.44e-01	0	58	104	1011875840	62	32928
2026-01-01 13:01:12.07	334.25	3.07	-45.9	-64.6	3.8	7.46e-01	0	58	104	1011875840	62	32923
2026-01-01 13:01:13.08	334.32	3.01	-45.9	-64.6	3.8	7.49e-01	0	58	104	1011875840	62	32853
2026-01-01 13:01:14.09	334.39	2.95	-45.8	-64.6	3.8	7.43e-01	0	58	104	1011875840	62	32904
2026-01-01 13:01:15.10	334.46	2.88	-45.8	-64.7	3.8	7.47e-01	0	58	104	1011875840	62	32959
