passes_logs/2026/01/01/R2.0S_Moscow/R2.0S_Moscow__20260101_220819_NOAA_21_JPSS-2_rec.log

#Pass ID: 20260101_220819_NOAA 21 (JPSS-2)
#Satellite: NOAA 21 (JPSS-2)
#Configuration: NOAA-21
#almurnet v.1.7.20251203
#Start time: 2026-01-01 22:08:20

#Version: 2.2.20231116
#Station: R2.0S_Moscow
#Location: 37.707566 lon 55.798166 lat
#TLE: 1 54234U 22150A   26001.26806856  .00000185  00000+0  10843-3 0  9990
#TLE: 2 54234  98.7484 302.3349 0001277 353.3887   6.7272 14.19530660162860

#Time	Az	El	Level	Level2	SNR	BER	BlckErr	Temp	State	Recorded	gain1	gain2
2026-01-01 22:08:20.99	25.54	2.09	-41.3	-54.1	3.8	1.49e+00	0	47	0	0	54	15412
2026-01-01 22:08:22.00	25.61	2.14	-41.3	-54.0	3.8	1.49e+00	0	48	104	0	54	15400
2026-01-01 22:08:23.02	25.68	2.20	-41.3	-54.0	3.8	1.49e+00	0	47	104	0	54	15373
2026-01-01 22:08:24.03	25.76	2.25	-41.3	-54.1	3.8	1.49e+00	0	48	104	0	54	15429
2026-01-01 22:08:25.04	25.83	2.31	-41.3	-54.0	3.8	1.49e+00	0	48	104	0	54	15384
2026-01-01 22:08:26.05	25.91	2.36	-41.3	-54.0	3.8	1.49e+00	0	48	104	0	54	15396
2026-01-01 22:08:27.06	25.98	2.42	-41.3	-54.0	3.8	1.49e+00	0	48	104	0	54	15357
2026-01-01 22:08:28.07	26.06	2.48	-41.3	-54.0	3.8	1.49e+00	0	48	104	0	54	15380
2026-01-01 22:08:29.08	26.13	2.53	-41.3	-54.1	3.8	1.49e+00	0	48	104	0	54	15415
2026-01-01 22:08:30.09	26.21	2.59	-41.3	-54.0	3.8	1.49e+00	0	48	104	0	54	15391
2026-01-01 22:08:31.10	26.28	2.64	-41.3	-54.0	3.8	1.49e+00	0	49	104	0	54	15370
2026-01-01 22:08:32.12	26.36	2.70	-41.3	-54.0	3.8	1.49e+00	0	49	104	0	54	15387
2026-01-01 22:08:33.13	26.44	2.75	-41.3	-54.1	3.8	1.49e+00	0	49	104	0	54	15423
2026-01-01 22:08:34.14	26.51	2.81	-41.3	-54.0	3.8	1.49e+00	0	49	104	0	54	15359
2026-01-01 22:08:35.15	26.59	2.86	-41.3	-54.0	3.8	1.49e+00	0	49	104	0	54	15353
2026-01-01 22:08:36.16	26.67	2.92	-41.3	-54.0	3.8	1.49e+00	0	49	104	0	54	15391
2026-01-01 22:08:37.17	26.74	2.98	-41.3	-54.0	3.8	1.49e+00	0	49	104	0	54	15397
2026-01-01 22:08:38.18	26.82	3.03	-41.3	-54.0	3.8	1.49e+00	0	49	104	0	54	15385
2026-01-01 22:08:39.19	26.90	3.09	-41.3	-54.0	3.8	1.49e+00	0	49	104	0	54	15397
2026-01-01 22:08:40.20	26.98	3.14	-41.3	-54.0	3.8	1.49e+00	0	49	104	0	54	15376
2026-01-01 22:08:41.21	27.05	3.20	-41.3	-54.1	3.8	1.49e+00	0	49	104	0	54	15418
2026-01-01 22:08:42.22	27.13	3.26	-41.3	-54.1	3.8	1.49e+00	0	49	104	0	54	15417
2026-01-01 22:08:43.23	27.21	3.31	-41.3	-54.1	3.8	1.49e+00	0	49	104	0	54	15432
2026-01-01 22:08:44.25	27.29	3.37	-41.3	-54.0	3.8	1.49e+00	0	49	104	0	54	15397
2026-01-01 22:08:45.26	27.37	3.42	-41.3	-54.1	3.8	1.49e+00	0	49	104	0	54	15404
2026-01-01 22:08:46.27	27.45	3.48	-41.3	-54.0	3.8	1.49e+00	0	49	104	0	54	15358
2026-01-01 22:08:47.28	27.53	3.54	-41.3	-54.0	3.8	1.49e+00	0	49	104	0	54	15387
2026-01-01 22:08:48.29	27.61	3.59	-41.3	-54.0	3.8	1.49e+00	0	49	104	0	54	15357
2026-01-01 22:08:49.30	27.69	3.65	-41.3	-54.1	3.8	1.49e+00	0	50	104	0	54	15434
2026-01-01 22:08:50.31	27.77	3.71	-41.3	-54.0	3.8	1.49e+00	0	50	104	0	54	15399
2026-01-01 22:08:51.32	27.86	3.76	-41.3	-54.0	3.8	1.49e+00	0	50	104	0	54	15399
2026-01-01 22:08:52.34	27.94	3.82	-41.3	-54.0	3.8	1.49e+00	0	50	104	0	54	15371
2026-01-01 22:08:53.35	28.02	3.88	-41.3	-54.0	3.8	1.49e+00	0	50	104	0	54	15387
2026-01-01 22:08:54.36	28.10	3.94	-41.3	-54.1	3.8	1.49e+00	0	50	104	0	54	15411
2026-01-01 22:08:55.37	28.18	3.99	-41.3	-54.0	3.8	1.49e+00	0	50	104	0	54	15396
2026-01-01 22:08:56.38	28.27	4.05	-41.3	-54.0	3.8	1.49e+00	0	50	104	0	54	15368
2026-01-01 22:08:57.39	28.35	4.11	-41.3	-54.0	3.8	1.49e+00	0	50	104	0	54	15398
2026-01-01 22:08:58.40	28.43	4.17	-41.3	-54.0	3.8	1.49e+00	0	50	104	0	54	15367
2026-01-01 22:08:59.41	28.52	4.22	-41.3	-54.0	3.8	1.49e+00	0	50	104	0	54	15360
2026-01-01 22:09:00.41	28.60	4.28	-41.3	-54.1	3.8	1.49e+00	0	50	104	0	54	15413
2026-01-01 22:09:01.42	28.69	4.34	-41.3	-54.0	3.8	1.49e+00	0	50	104	0	54	15399
2026-01-01 22:09:02.43	28.77	4.39	-41.3	-54.1	3.8	1.49e+00	0	50	104	0	54	15434
2026-01-01 22:09:03.44	28.85	4.45	-41.3	-54.0	3.8	1.49e+00	0	50	104	0	54	15356
2026-01-01 22:09:04.45	28.94	4.51	-41.3	-54.1	3.8	1.49e+00	0	50	104	0	54	15417
2026-01-01 22:09:05.46	29.03	4.57	-41.3	-54.1	3.8	1.49e+00	0	50	104	0	54	15424
2026-01-01 22:09:06.47	29.11	4.63	-41.3	-54.0	3.8	1.49e+00	0	51	104	0	54	15351
2026-01-01 22:09:07.48	29.20	4.68	-41.3	-54.0	3.8	1.49e+00	0	51	104	0	54	15375
2026-01-01 22:09:08.50	29.29	4.74	-41.3	-54.0	3.8	1.49e+00	0	51	104	0	54	15367
2026-01-01 22:09:09.51	29.37	4.80	-41.3	-54.1	3.8	1.49e+00	0	51	104	0	54	15402
2026-01-01 22:09:10.52	29.46	4.86	-41.3	-54.0	3.8	1.49e+00	0	51	104	0	54	15381
2026-01-01 22:09:11.53	29.55	4.92	-41.3	-54.0	3.8	1.49e+00	0	51	104	0	54	15357
2026-01-01 22:09:12.54	29.63	4.98	-41.3	-54.1	3.8	1.49e+00	0	51	104	0	54	15402
2026-01-01 22:09:13.55	29.72	5.03	-41.3	-54.0	3.8	1.49e+00	0	51	104	0	54	15391
2026-01-01 22:09:14.56	29.81	5.09	-41.3	-54.0	3.8	1.49e+00	0	51	104	0	54	15378
2026-01-01 22:09:15.58	29.90	5.15	-41.3	-54.1	3.8	1.49e+00	0	51	104	0	54	15443
2026-01-01 22:09:16.58	29.99	5.21	-41.3	-54.1	3.8	1.49e+00	0	51	104	0	54	15407
2026-01-01 22:09:17.60	30.08	5.27	-41.3	-54.0	3.8	1.49e+00	0	51	104	0	54	15395
2026-01-01 22:09:18.61	30.17	5.33	-41.3	-54.0	3.8	1.49e+00	0	51	104	0	54	15364
2026-01-01 22:09:19.62	30.26	5.39	-41.3	-54.1	3.8	1.49e+00	0	51	104	0	54	15425
2026-01-01 22:09:20.63	30.35	5.45	-41.3	-54.0	3.8	1.49e+00	0	51	104	0	54	15379
2026-01-01 22:09:21.64	30.44	5.51	-41.3	-54.1	3.8	1.49e+00	0	51	104	0	54	15402
2026-01-01 22:09:22.65	30.53	5.56	-41.3	-54.1	3.8	1.49e+00	0	52	104	0	54	15407
2026-01-01 22:09:23.66	30.63	5.62	-41.3	-54.1	3.8	1.49e+00	0	52	104	0	54	15407
2026-01-01 22:09:24.67	30.72	5.68	-41.3	-54.0	3.8	1.49e+00	0	52	104	0	54	15355
2026-01-01 22:09:25.68	30.81	5.74	-41.3	-54.0	3.8	1.49e+00	0	52	104	0	54	15399
2026-01-01 22:09:26.69	30.90	5.80	-41.3	-54.1	3.8	1.49e+00	0	52	104	0	54	15410
2026-01-01 22:09:27.70	31.00	5.86	-41.3	-54.1	3.8	1.49e+00	0	52	104	0	54	15402
2026-01-01 22:09:28.72	31.09	5.92	-41.3	-54.0	3.8	1.49e+00	0	52	104	0	54	15369
2026-01-01 22:09:29.73	31.18	5.98	-41.3	-54.0	3.8	1.49e+00	0	52	104	0	54	15364
2026-01-01 22:09:30.74	31.28	6.04	-41.3	-54.0	3.8	1.49e+00	0	52	104	0	54	15380
2026-01-01 22:09:31.75	31.37	6.10	-41.3	-54.0	3.8	1.49e+00	0	52	104	0	54	15389
2026-01-01 22:09:32.76	31.47	6.16	-41.3	-54.1	3.8	1.49e+00	0	52	104	0	54	15412
2026-01-01 22:09:33.77	31.56	6.22	-41.3	-54.0	3.8	1.49e+00	0	52	104	0	54	15375
2026-01-01 22:09:34.78	31.66	6.28	-41.3	-54.1	3.8	1.49e+00	0	52	104	0	54	15425
2026-01-01 22:09:35.80	31.75	6.34	-41.3	-54.0	3.8	1.49e+00	0	52	104	0	54	15321
2026-01-01 22:09:36.80	31.85	6.40	-41.3	-54.0	3.8	1.49e+00	0	52	104	0	54	15386
2026-01-01 22:09:37.81	31.95	6.46	-41.3	-54.0	3.8	1.49e+00	0	52	104	0	54	15357
2026-01-01 22:09:38.82	32.04	6.52	-41.3	-54.0	3.8	1.49e+00	0	52	104	0	54	15292
2026-01-01 22:09:39.84	32.14	6.58	-41.3	-54.1	3.8	1.49e+00	0	52	104	0	54	15407
2026-01-01 22:09:40.85	32.24	6.64	-41.3	-54.0	3.8	1.49e+00	0	52	104	0	54	15387
2026-01-01 22:09:41.86	32.34	6.70	-41.3	-54.0	3.8	1.49e+00	0	52	104	0	54	15331
2026-01-01 22:09:42.87	32.44	6.76	-41.3	-54.1	3.8	1.49e+00	0	52	104	0	54	15407
2026-01-01 22:09:43.88	32.54	6.83	-41.3	-54.0	3.8	1.49e+00	0	53	104	0	54	15261
2026-01-01 22:09:44.89	32.64	6.89	-41.3	-54.0	3.8	1.49e+00	0	52	104	0	54	15379
2026-01-01 22:09:45.90	32.74	6.95	-41.3	-54.0	3.8	1.49e+00	0	53	104	0	54	15328
2026-01-01 22:09:46.91	32.84	7.01	-41.3	-54.0	3.8	1.49e+00	0	53	104	0	54	15350
2026-01-01 22:09:47.92	32.94	7.07	-41.3	-54.0	3.8	1.49e+00	0	53	104	0	54	15341
2026-01-01 22:09:48.94	33.04	7.13	-41.3	-54.0	3.8	1.49e+00	0	53	104	0	54	15378
2026-01-01 22:09:49.95	33.14	7.19	-41.3	-54.0	3.8	1.49e+00	0	53	104	0	54	15288
2026-01-01 22:09:50.96	33.24	7.25	-41.3	-53.4	3.8	1.49e+00	0	53	104	0	54	14288
2026-01-01 22:09:51.97	33.35	7.31	-41.2	-52.9	3.8	1.49e+00	0	53	104	0	54	13518
2026-01-01 22:09:52.98	33.45	7.38	-41.1	-51.3	4.0	1.49e+00	0	53	104	0	54	11201
2026-01-01 22:09:53.99	33.55	7.44	-40.7	-48.7	4.9	1.21e+00	0	53	104	0	53	8778
2026-01-01 22:09:55.00	33.65	7.50	-39.9	-45.2	7.5	1.55e-01	0	53	0	3145728	51	6630
2026-01-01 22:09:56.01	33.76	7.56	-39.4	-44.0	8.8	4.06e-02	0	53	0	6291456	50	6096
2026-01-01 22:09:57.02	33.86	7.62	-38.7	-42.4	10.4	4.64e-03	0	53	0	9437184	49	5392
2026-01-01 22:09:58.03	33.97	7.68	-38.7	-42.5	10.3	4.94e-03	0	53	0	12582912	49	5438
2026-01-01 22:09:59.04	34.07	7.75	-38.4	-41.9	11.0	2.24e-03	0	53	0	15728640	48	5357
2026-01-01 22:10:00.06	34.18	7.81	-38.7	-42.4	10.5	3.44e-03	0	53	0	18874368	48	5685
2026-01-01 22:10:01.07	34.29	7.87	-38.8	-42.6	10.2	6.18e-03	0	53	0	22020096	48	5843
2026-01-01 22:10:02.08	34.39	7.93	-37.9	-41.0	11.8	9.13e-04	0	53	0	25165824	47	5144
2026-01-01 22:10:03.09	34.50	7.99	-36.9	-39.4	13.5	1.98e-05	0	53	0	28311552	45	4800
2026-01-01 22:10:04.10	34.61	8.06	-36.9	-39.4	13.5	9.10e-06	0	53	0	31457280	45	4787
2026-01-01 22:10:05.11	34.72	8.12	-38.1	-40.5	13.9	7.00e-07	0	53	0	34603008	47	4819
2026-01-01 22:10:06.12	34.82	8.18	-38.3	-41.2	12.2	1.37e-04	0	53	0	37748736	47	5242
2026-01-01 22:10:07.13	34.93	8.24	-40.1	-46.2	6.5	4.09e-02	0	53	0	40894464	50	7816
2026-01-01 22:10:08.14	35.04	8.31	-40.3	-51.6	3.8	1.49e+00	0	53	104	41943040	51	13858
2026-01-01 22:10:09.15	35.15	8.37	-39.1	-41.6	13.1	4.50e-06	0	53	0	42991616	48	5168
2026-01-01 22:10:10.16	35.26	8.43	-38.3	-40.5	14.1	7.00e-07	0	53	0	46137344	48	4589
2026-01-01 22:10:11.17	35.37	8.49	-38.3	-40.5	14.1	2.20e-06	0	53	0	49283072	48	4549
2026-01-01 22:10:12.18	35.48	8.56	-38.4	-40.6	14.1	1.50e-06	0	53	0	52428800	48	4612
2026-01-01 22:10:13.19	35.59	8.62	-38.4	-40.6	14.0	7.00e-07	0	53	0	55574528	48	4629
2026-01-01 22:10:14.20	35.71	8.68	-38.3	-40.5	14.2	7.00e-07	0	53	0	58720256	48	4568
2026-01-01 22:10:15.21	35.82	8.75	-38.3	-40.4	14.3	7.00e-07	0	54	0	61865984	48	4516
2026-01-01 22:10:16.22	35.93	8.81	-38.1	-40.2	14.5	7.00e-07	0	53	0	65011712	48	4397
2026-01-01 22:10:17.23	36.04	8.87	-37.8	-39.9	14.7	0.00e+00	0	54	0	68157440	47	4494
2026-01-01 22:10:18.24	36.16	8.93	-37.8	-39.8	14.8	7.00e-07	0	54	0	71303168	47	4478
2026-01-01 22:10:19.25	36.27	9.00	-37.8	-39.7	14.9	0.00e+00	0	53	0	74448896	47	4434
2026-01-01 22:10:20.26	36.39	9.06	-38.0	-40.0	14.6	0.00e+00	0	54	0	77594624	47	4597
2026-01-01 22:10:21.26	36.50	9.12	-38.1	-40.1	14.6	1.50e-06	0	53	0	80740352	47	4639
2026-01-01 22:10:22.27	36.62	9.19	-37.9	-40.0	14.8	0.00e+00	0	53	0	83886080	47	4554
2026-01-01 22:10:23.28	36.73	9.25	-37.9	-39.9	14.9	7.00e-07	0	54	0	87031808	47	4494
2026-01-01 22:10:24.30	36.85	9.32	-37.9	-39.9	14.8	0.00e+00	0	54	0	90177536	47	4535
2026-01-01 22:10:25.31	36.97	9.38	-37.9	-39.9	14.8	0.00e+00	0	54	0	93323264	47	4519
2026-01-01 22:10:26.32	37.09	9.44	-37.8	-39.8	14.9	0.00e+00	0	54	0	96468992	47	4466
2026-01-01 22:10:27.33	37.20	9.51	-37.7	-39.6	15.2	0.00e+00	0	54	0	99614720	47	4361
2026-01-01 22:10:28.34	37.32	9.57	-37.6	-39.4	15.3	0.00e+00	0	54	0	102760448	47	4282
2026-01-01 22:10:29.35	37.44	9.63	-37.5	-39.4	15.4	0.00e+00	0	54	0	105906176	47	4255
2026-01-01 22:10:30.36	37.56	9.70	-37.6	-39.5	15.4	0.00e+00	0	54	0	109051904	47	4305
2026-01-01 22:10:31.37	37.68	9.76	-37.5	-39.3	15.5	0.00e+00	0	54	0	112197632	47	4239
2026-01-01 22:10:32.38	37.80	9.83	-37.6	-39.4	15.4	0.00e+00	0	54	0	115343360	47	4265
2026-01-01 22:10:33.39	37.92	9.89	-37.4	-39.3	15.6	0.00e+00	0	54	0	118489088	46	4442
2026-01-01 22:10:34.40	38.05	9.95	-37.4	-39.2	15.7	0.00e+00	0	54	0	121634816	46	4397
2026-01-01 22:10:35.41	38.17	10.02	-37.3	-39.0	15.8	0.00e+00	0	54	0	124780544	46	4335
2026-01-01 22:10:36.41	38.29	10.08	-37.3	-39.1	15.8	0.00e+00	0	54	0	127926272	46	4341
2026-01-01 22:10:37.42	38.41	10.15	-37.2	-38.9	16.0	0.00e+00	0	54	0	131072000	46	4262
2026-01-01 22:10:38.43	38.54	10.21	-37.2	-38.9	16.0	0.00e+00	0	54	0	134217728	46	4263
2026-01-01 22:10:39.44	38.66	10.27	-37.1	-38.8	16.1	0.00e+00	0	54	0	137363456	46	4223
2026-01-01 22:10:40.45	38.79	10.34	-37.1	-38.7	16.2	0.00e+00	0	54	0	140509184	46	4185
2026-01-01 22:10:41.46	38.91	10.40	-37.0	-38.6	16.3	0.00e+00	0	54	0	143654912	45	4366
2026-01-01 22:10:42.47	39.04	10.47	-36.9	-38.5	16.4	0.00e+00	0	54	0	146800640	45	4307
2026-01-01 22:10:43.48	39.16	10.53	-36.8	-38.4	16.4	0.00e+00	0	54	0	149946368	45	4289
2026-01-01 22:10:44.49	39.29	10.60	-36.8	-38.5	16.5	0.00e+00	0	54	0	153092096	45	4295
2026-01-01 22:10:45.50	39.42	10.66	-36.8	-38.4	16.5	0.00e+00	0	54	0	156237824	45	4249
2026-01-01 22:10:46.51	39.55	10.73	-36.7	-38.3	16.6	0.00e+00	0	54	0	159383552	45	4219
2026-01-01 22:10:47.53	39.68	10.79	-36.8	-38.4	16.5	0.00e+00	0	54	0	162529280	45	4271
2026-01-01 22:10:48.53	39.80	10.86	-36.8	-38.4	16.6	0.00e+00	0	54	0	165675008	45	4252
2026-01-01 22:10:49.55	39.93	10.92	-36.8	-38.3	16.6	0.00e+00	0	54	0	169869312	45	4242
2026-01-01 22:10:50.56	40.06	10.99	-36.8	-38.4	16.5	0.00e+00	0	55	0	171966464	45	4264
2026-01-01 22:10:51.57	40.20	11.05	-36.8	-38.4	16.5	0.00e+00	0	54	0	175112192	45	4256
2026-01-01 22:10:52.58	40.33	11.12	-36.8	-38.4	16.5	0.00e+00	0	54	0	178257920	45	4256
2026-01-01 22:10:53.59	40.46	11.18	-36.8	-38.4	16.5	0.00e+00	0	54	0	181403648	45	4288
2026-01-01 22:10:54.60	40.59	11.25	-36.7	-38.3	16.6	0.00e+00	0	54	0	185597952	45	4220
2026-01-01 22:10:55.61	40.72	11.31	-36.7	-38.3	16.7	0.00e+00	0	54	0	188743680	45	4198
2026-01-01 22:10:56.62	40.86	11.38	-36.8	-38.3	16.6	0.00e+00	0	54	0	191889408	45	4238
2026-01-01 22:10:57.63	40.99	11.44	-36.7	-38.3	16.6	0.00e+00	0	54	0	195035136	45	4213
2026-01-01 22:10:58.64	41.13	11.51	-36.7	-38.3	16.6	0.00e+00	0	54	0	197132288	45	4207
2026-01-01 22:10:59.65	41.26	11.57	-36.7	-38.3	16.6	0.00e+00	0	55	0	201326592	45	4211
2026-01-01 22:11:00.65	41.40	11.64	-36.7	-38.3	16.7	0.00e+00	0	54	0	204472320	45	4206
2026-01-01 22:11:01.66	41.53	11.70	-36.8	-38.3	16.6	0.00e+00	0	54	0	207618048	45	4241
2026-01-01 22:11:02.67	41.67	11.77	-36.8	-38.4	16.6	0.00e+00	0	54	0	210763776	45	4264
2026-01-01 22:11:03.69	41.81	11.83	-36.8	-38.4	16.6	0.00e+00	0	55	0	213909504	45	4281
2026-01-01 22:11:04.69	41.95	11.90	-36.9	-38.5	16.4	0.00e+00	0	55	0	217055232	45	4337
2026-01-01 22:11:05.70	42.09	11.96	-37.0	-38.6	16.4	0.00e+00	0	55	0	220200960	45	4368
2026-01-01 22:11:06.71	42.22	12.03	-37.0	-38.6	16.4	0.00e+00	0	55	0	223346688	45	4371
2026-01-01 22:11:07.72	42.37	12.10	-37.0	-38.6	16.4	0.00e+00	0	55	0	226492416	45	4360
2026-01-01 22:11:08.73	42.51	12.16	-36.9	-38.6	16.5	0.00e+00	0	55	0	229638144	45	4353
2026-01-01 22:11:09.74	42.65	12.23	-36.9	-38.6	16.5	0.00e+00	0	55	0	232783872	45	4352
2026-01-01 22:11:10.75	42.79	12.29	-36.9	-38.5	16.5	0.00e+00	0	55	0	235929600	45	4308
2026-01-01 22:11:11.76	42.93	12.36	-36.8	-38.4	16.6	0.00e+00	0	55	0	239075328	45	4290
2026-01-01 22:11:12.77	43.07	12.42	-36.8	-38.4	16.6	0.00e+00	0	55	0	242221056	45	4283
2026-01-01 22:11:13.78	43.22	12.49	-36.7	-38.3	16.7	0.00e+00	0	55	0	245366784	45	4213
2026-01-01 22:11:14.79	43.36	12.56	-36.7	-38.2	16.9	0.00e+00	0	55	0	248512512	45	4171
2026-01-01 22:11:15.80	43.51	12.62	-36.6	-38.2	16.9	0.00e+00	0	55	0	251658240	45	4157
2026-01-01 22:11:16.81	43.65	12.69	-36.6	-38.1	16.9	0.00e+00	0	55	0	254803968	45	4119
2026-01-01 22:11:17.82	43.80	12.75	-36.5	-38.1	17.0	0.00e+00	0	55	0	257949696	45	4108
2026-01-01 22:11:18.83	43.95	12.82	-36.5	-38.1	17.0	0.00e+00	0	55	0	261095424	45	4104
2026-01-01 22:11:19.84	44.09	12.88	-36.6	-38.1	16.9	0.00e+00	0	55	0	264241152	45	4143
2026-01-01 22:11:20.85	44.24	12.95	-36.6	-38.1	17.0	0.00e+00	0	55	0	267386880	45	4112
2026-01-01 22:11:21.86	44.39	13.02	-36.6	-38.2	16.9	0.00e+00	0	55	0	270532608	45	4146
2026-01-01 22:11:22.87	44.54	13.08	-36.6	-38.1	16.9	0.00e+00	0	55	0	273678336	45	4124
2026-01-01 22:11:23.88	44.69	13.15	-36.6	-38.1	16.9	0.00e+00	0	55	0	276824064	45	4139
2026-01-01 22:11:24.89	44.84	13.21	-36.6	-38.1	17.0	0.00e+00	0	55	0	279969792	45	4112
2026-01-01 22:11:25.90	44.99	13.28	-36.5	-38.0	17.0	0.00e+00	0	55	0	283115520	45	4090
2026-01-01 22:11:26.91	45.15	13.34	-36.5	-38.0	17.0	0.00e+00	0	55	0	286261248	45	4096
2026-01-01 22:11:27.92	45.30	13.41	-36.5	-38.0	17.1	0.00e+00	0	55	0	289406976	44	4306
2026-01-01 22:11:28.93	45.45	13.48	-36.4	-37.9	17.2	0.00e+00	0	55	0	292552704	44	4268
2026-01-01 22:11:29.93	45.60	13.54	-36.5	-38.0	17.1	0.00e+00	0	55	0	295698432	44	4302
2026-01-01 22:11:30.94	45.76	13.61	-36.5	-38.0	17.2	0.00e+00	0	55	0	298844160	44	4294
2026-01-01 22:11:31.95	45.91	13.67	-36.4	-37.9	17.2	0.00e+00	0	55	0	301989888	44	4279
2026-01-01 22:11:32.96	46.07	13.74	-36.4	-37.9	17.2	0.00e+00	0	55	0	305135616	44	4291
2026-01-01 22:11:33.98	46.23	13.80	-36.5	-38.0	17.2	0.00e+00	0	55	0	308281344	44	4305
2026-01-01 22:11:34.98	46.38	13.87	-36.4	-38.0	17.2	0.00e+00	0	55	0	311427072	44	4294
2026-01-01 22:11:35.99	46.54	13.93	-36.5	-38.0	17.1	0.00e+00	0	55	0	314572800	44	4328
2026-01-01 22:11:37.00	46.70	14.00	-36.5	-38.0	17.1	0.00e+00	0	55	0	317718528	44	4298
2026-01-01 22:11:38.01	46.86	14.07	-36.4	-37.9	17.2	0.00e+00	0	55	0	320864256	44	4276
2026-01-01 22:11:39.02	47.02	14.13	-36.4	-37.9	17.2	0.00e+00	0	55	0	324009984	44	4279
2026-01-01 22:11:40.03	47.18	14.20	-36.4	-37.9	17.2	0.00e+00	0	55	0	327155712	44	4263
2026-01-01 22:11:41.04	47.34	14.26	-36.3	-37.8	17.3	0.00e+00	0	55	0	330301440	44	4205
2026-01-01 22:11:42.05	47.51	14.33	-36.4	-37.9	17.3	0.00e+00	0	55	0	333447168	44	4243
2026-01-01 22:11:43.06	47.67	14.39	-36.3	-37.8	17.3	0.00e+00	0	55	0	336592896	44	4221
2026-01-01 22:11:44.06	47.83	14.46	-36.4	-37.9	17.3	0.00e+00	0	55	0	339738624	44	4244
2026-01-01 22:11:45.07	47.99	14.52	-36.4	-37.9	17.2	0.00e+00	0	55	0	342884352	44	4269
2026-01-01 22:11:46.09	48.16	14.59	-36.4	-37.9	17.2	0.00e+00	0	55	0	346030080	44	4280
2026-01-01 22:11:47.10	48.33	14.66	-36.5	-38.0	17.1	0.00e+00	0	55	0	349175808	44	4318
2026-01-01 22:11:48.11	48.49	14.72	-36.5	-38.1	17.1	0.00e+00	0	55	0	352321536	44	4343
2026-01-01 22:11:49.12	48.66	14.79	-36.4	-37.9	17.2	0.00e+00	0	55	0	355467264	44	4287
2026-01-01 22:11:50.13	48.83	14.85	-36.5	-38.0	17.2	0.00e+00	0	55	0	358612992	44	4302
2026-01-01 22:11:51.13	49.00	14.92	-36.5	-38.0	17.2	0.00e+00	0	55	0	361758720	44	4302
2026-01-01 22:11:52.14	49.16	14.98	-36.4	-37.9	17.3	0.00e+00	0	56	0	364904448	44	4267
2026-01-01 22:11:53.15	49.33	15.05	-36.4	-37.9	17.2	0.00e+00	0	55	0	368050176	44	4286
2026-01-01 22:11:54.16	49.51	15.11	-36.5	-37.9	17.2	0.00e+00	0	56	0	371195904	44	4289
2026-01-01 22:11:55.17	49.68	15.18	-36.4	-37.9	17.2	0.00e+00	0	55	0	374341632	44	4284
2026-01-01 22:11:56.18	49.85	15.24	-36.5	-38.0	17.2	0.00e+00	0	55	0	377487360	44	4322
2026-01-01 22:11:57.19	50.02	15.30	-36.6	-38.1	17.1	0.00e+00	0	55	0	380633088	44	4362
2026-01-01 22:11:58.20	50.20	15.37	-36.5	-38.0	17.2	0.00e+00	0	55	0	383778816	44	4325
2026-01-01 22:11:59.21	50.37	15.43	-36.5	-38.0	17.1	0.00e+00	0	55	0	386924544	44	4339
2026-01-01 22:12:00.22	50.54	15.50	-36.5	-38.0	17.2	0.00e+00	0	55	0	390070272	44	4325
2026-01-01 22:12:01.23	50.72	15.56	-36.5	-38.0	17.2	0.00e+00	0	55	0	393216000	44	4325
2026-01-01 22:12:02.24	50.90	15.63	-36.5	-38.0	17.2	0.00e+00	0	55	0	396361728	44	4298
2026-01-01 22:12:03.25	51.07	15.69	-36.4	-37.9	17.3	0.00e+00	0	56	0	399507456	44	4265
2026-01-01 22:12:04.26	51.25	15.76	-36.4	-37.9	17.3	0.00e+00	0	55	0	402653184	44	4254
2026-01-01 22:12:05.27	51.43	15.82	-36.4	-37.9	17.3	0.00e+00	0	56	0	405798912	44	4269
2026-01-01 22:12:06.28	51.61	15.88	-36.4	-37.9	17.3	0.00e+00	0	55	0	408944640	44	4274
2026-01-01 22:12:07.29	51.79	15.95	-36.5	-38.0	17.2	0.00e+00	0	56	0	412090368	44	4310
2026-01-01 22:12:08.30	51.97	16.01	-36.5	-38.0	17.2	0.00e+00	0	56	0	415236096	44	4313
2026-01-01 22:12:09.31	52.15	16.08	-36.6	-38.1	17.1	0.00e+00	0	56	0	418381824	44	4364
2026-01-01 22:12:10.32	52.34	16.14	-36.6	-38.2	17.1	0.00e+00	0	55	0	421527552	44	4393
2026-01-01 22:12:11.33	52.52	16.20	-36.7	-38.2	17.0	0.00e+00	0	56	0	424673280	44	4413
2026-01-01 22:12:12.35	52.71	16.27	-36.6	-38.2	17.1	0.00e+00	0	56	0	427819008	44	4409
2026-01-01 22:12:13.36	52.89	16.33	-36.6	-38.1	17.2	0.00e+00	0	55	0	430964736	44	4350
2026-01-01 22:12:14.37	53.08	16.39	-36.6	-38.1	17.1	0.00e+00	0	56	0	434110464	44	4360
2026-01-01 22:12:15.37	53.26	16.46	-36.5	-38.1	17.2	0.00e+00	0	56	0	437256192	44	4346
2026-01-01 22:12:16.38	53.45	16.52	-36.4	-37.9	17.3	0.00e+00	0	56	0	440401920	44	4273
2026-01-01 22:12:17.39	53.64	16.58	-36.4	-37.9	17.3	0.00e+00	0	56	0	443547648	44	4267
2026-01-01 22:12:18.40	53.83	16.64	-36.3	-37.8	17.4	0.00e+00	0	56	0	446693376	44	4216
2026-01-01 22:12:19.41	54.01	16.71	-36.3	-37.7	17.5	0.00e+00	0	56	0	449839104	44	4191
2026-01-01 22:12:20.42	54.20	16.77	-36.2	-37.7	17.5	0.00e+00	0	56	0	452984832	44	4158
2026-01-01 22:12:21.43	54.40	16.83	-36.3	-37.7	17.5	0.00e+00	0	56	0	456130560	44	4177
2026-01-01 22:12:22.44	54.59	16.89	-36.2	-37.7	17.6	0.00e+00	0	56	0	459276288	44	4154
2026-01-01 22:12:23.45	54.78	16.96	-36.2	-37.7	17.5	0.00e+00	0	56	0	462422016	44	4168
2026-01-01 22:12:24.46	54.97	17.02	-36.3	-37.7	17.5	0.00e+00	0	56	0	465567744	44	4191
2026-01-01 22:12:25.47	55.17	17.08	-36.4	-37.9	17.3	0.00e+00	0	56	0	468713472	44	4251
2026-01-01 22:12:26.48	55.36	17.14	-36.5	-38.0	17.3	0.00e+00	0	56	0	471859200	44	4298
2026-01-01 22:12:27.50	55.56	17.20	-36.5	-38.0	17.2	0.00e+00	0	56	0	475004928	44	4331
2026-01-01 22:12:28.51	55.76	17.26	-36.5	-38.1	17.2	0.00e+00	0	56	0	478150656	44	4344
2026-01-01 22:12:29.52	55.95	17.33	-36.6	-38.1	17.2	0.00e+00	0	56	0	481296384	44	4353
2026-01-01 22:12:30.53	56.15	17.39	-36.5	-38.0	17.3	0.00e+00	0	56	0	484442112	44	4295
2026-01-01 22:12:31.54	56.35	17.45	-36.4	-37.9	17.4	0.00e+00	0	56	0	487587840	44	4247
2026-01-01 22:12:32.55	56.55	17.51	-36.3	-37.8	17.5	0.00e+00	0	56	0	490733568	44	4216
2026-01-01 22:12:33.56	56.75	17.57	-36.2	-37.7	17.5	0.00e+00	0	56	0	493879296	44	4160
2026-01-01 22:12:34.56	56.95	17.63	-36.2	-37.6	17.6	0.00e+00	0	56	0	497025024	44	4142
2026-01-01 22:12:35.57	57.15	17.69	-36.2	-37.7	17.6	0.00e+00	0	56	0	500170752	44	4157
2026-01-01 22:12:36.59	57.36	17.75	-36.2	-37.6	17.6	0.00e+00	0	56	0	503316480	44	4143
2026-01-01 22:12:37.60	57.56	17.81	-36.2	-37.6	17.6	0.00e+00	0	56	0	507510784	44	4118
2026-01-01 22:12:38.61	57.76	17.87	-36.3	-37.7	17.5	0.00e+00	0	56	0	510656512	44	4167
2026-01-01 22:12:39.62	57.97	17.93	-36.2	-37.7	17.5	0.00e+00	0	56	0	512753664	44	4160
2026-01-01 22:12:40.63	58.18	17.98	-36.3	-37.7	17.5	0.00e+00	0	56	0	515899392	44	4179
2026-01-01 22:12:41.64	58.38	18.04	-36.2	-37.7	17.5	0.00e+00	0	56	0	519045120	44	4153
2026-01-01 22:12:42.65	58.59	18.10	-36.2	-37.7	17.6	0.00e+00	0	56	0	523239424	44	4163
2026-01-01 22:12:43.66	58.80	18.16	-36.2	-37.7	17.6	0.00e+00	0	56	0	526385152	44	4150
2026-01-01 22:12:44.67	59.01	18.22	-36.2	-37.6	17.6	0.00e+00	0	56	0	529530880	44	4127
2026-01-01 22:12:45.68	59.22	18.28	-36.2	-37.6	17.7	0.00e+00	0	56	0	532676608	44	4131
2026-01-01 22:12:46.69	59.43	18.33	-36.2	-37.6	17.7	0.00e+00	0	56	0	535822336	44	4116
2026-01-01 22:12:47.70	59.64	18.39	-36.2	-37.6	17.7	0.00e+00	0	56	0	538968064	44	4120
2026-01-01 22:12:48.71	59.85	18.45	-36.2	-37.6	17.7	0.00e+00	0	56	0	542113792	44	4106
2026-01-01 22:12:49.72	60.06	18.51	-36.1	-37.5	17.8	0.00e+00	0	56	0	545259520	44	4066
2026-01-01 22:12:50.73	60.28	18.56	-36.1	-37.5	17.8	0.00e+00	0	56	0	548405248	44	4068
2026-01-01 22:12:51.74	60.49	18.62	-36.1	-37.5	17.8	0.00e+00	0	56	0	551550976	44	4057
2026-01-01 22:12:52.75	60.71	18.67	-36.1	-37.5	17.7	0.00e+00	0	56	0	554696704	44	4084
2026-01-01 22:12:53.76	60.92	18.73	-36.1	-37.6	17.7	0.00e+00	0	56	0	557842432	44	4107
2026-01-01 22:12:54.77	61.14	18.79	-36.1	-37.5	17.7	0.00e+00	0	56	0	560988160	44	4093
2026-01-01 22:12:55.78	61.36	18.84	-36.2	-37.6	17.7	0.00e+00	0	56	0	564133888	44	4124
2026-01-01 22:12:56.79	61.58	18.90	-36.1	-37.5	17.7	0.00e+00	0	56	0	567279616	44	4080
2026-01-01 22:12:57.80	61.79	18.95	-36.1	-37.5	17.8	0.00e+00	0	56	0	570425344	44	4060
2026-01-01 22:12:58.81	62.01	19.01	-36.1	-37.4	17.8	0.00e+00	0	56	0	573571072	44	4051
2026-01-01 22:12:59.82	62.24	19.06	-35.7	-37.1	18.0	0.00e+00	0	56	0	576716800	43	4134
2026-01-01 22:13:00.83	62.46	19.11	-35.7	-37.1	18.0	0.00e+00	0	56	0	579862528	43	4120
2026-01-01 22:13:01.84	62.68	19.17	-35.7	-37.1	18.0	0.00e+00	0	56	0	583008256	43	4119
2026-01-01 22:13:02.85	62.90	19.22	-35.7	-37.1	18.0	0.00e+00	0	56	0	586153984	43	4107
2026-01-01 22:13:03.86	63.13	19.27	-35.8	-37.1	17.9	0.00e+00	0	56	0	589299712	43	4138
2026-01-01 22:13:04.87	63.35	19.33	-35.8	-37.2	17.9	0.00e+00	0	56	0	592445440	43	4155
2026-01-01 22:13:05.88	63.58	19.38	-35.8	-37.2	17.9	0.00e+00	0	56	0	595591168	43	4163
2026-01-01 22:13:06.89	63.80	19.43	-35.8	-37.2	17.9	0.00e+00	0	56	0	598736896	43	4184
2026-01-01 22:13:07.90	64.03	19.48	-35.8	-37.2	17.9	0.00e+00	0	56	0	601882624	43	4191
2026-01-01 22:13:08.91	64.26	19.53	-35.7	-37.1	18.0	0.00e+00	0	56	0	605028352	43	4119
2026-01-01 22:13:09.93	64.49	19.58	-35.6	-37.0	18.1	0.00e+00	0	56	0	608174080	43	4067
2026-01-01 22:13:10.93	64.71	19.63	-35.6	-37.0	18.1	0.00e+00	0	56	0	611319808	43	4071
2026-01-01 22:13:11.94	64.94	19.69	-35.6	-37.0	18.1	0.00e+00	0	56	0	614465536	43	4054
2026-01-01 22:13:12.95	65.17	19.74	-35.6	-37.0	18.0	0.00e+00	0	56	0	617611264	43	4073
2026-01-01 22:13:13.97	65.41	19.79	-35.6	-37.0	18.1	0.00e+00	0	56	0	620756992	43	4056
2026-01-01 22:13:14.97	65.64	19.83	-35.6	-37.0	18.1	0.00e+00	0	56	0	623902720	43	4052
2026-01-01 22:13:15.98	65.87	19.88	-35.5	-36.9	18.1	0.00e+00	0	56	0	627048448	43	4022
2026-01-01 22:13:16.99	66.10	19.93	-35.5	-36.8	18.2	0.00e+00	0	56	0	630194176	43	4003
2026-01-01 22:13:18.00	66.34	19.98	-35.5	-36.8	18.2	0.00e+00	0	56	0	633339904	43	4004
2026-01-01 22:13:19.01	66.57	20.03	-35.4	-36.8	18.3	0.00e+00	0	56	0	636485632	42	4196
2026-01-01 22:13:20.02	66.81	20.07	-35.4	-36.7	18.3	0.00e+00	0	56	0	639631360	42	4180
2026-01-01 22:13:21.03	67.04	20.12	-35.4	-36.7	18.3	0.00e+00	0	56	0	642777088	42	4166
2026-01-01 22:13:22.04	67.28	20.17	-35.4	-36.8	18.3	0.00e+00	0	56	0	645922816	42	4195
2026-01-01 22:13:23.05	67.52	20.21	-35.5	-36.9	18.1	0.00e+00	0	56	0	649068544	42	4261
2026-01-01 22:13:24.06	67.76	20.26	-35.6	-37.0	18.0	0.00e+00	0	56	0	652214272	42	4304
2026-01-01 22:13:25.07	68.00	20.31	-35.6	-37.0	18.0	0.00e+00	0	56	0	655360000	42	4307
2026-01-01 22:13:26.07	68.23	20.35	-35.6	-37.0	18.0	0.00e+00	0	56	0	658505728	42	4318
2026-01-01 22:13:27.09	68.48	20.39	-35.6	-37.0	18.0	0.00e+00	0	56	0	661651456	42	4305
2026-01-01 22:13:28.10	68.72	20.44	-35.5	-36.9	18.0	0.00e+00	0	56	0	664797184	42	4252
2026-01-01 22:13:29.11	68.96	20.48	-35.5	-36.9	18.0	0.00e+00	0	56	0	667942912	42	4249
2026-01-01 22:13:30.11	69.20	20.53	-35.4	-36.8	18.0	0.00e+00	0	56	0	671088640	42	4224
2026-01-01 22:13:31.13	69.45	20.57	-35.5	-36.8	17.9	0.00e+00	0	56	0	674234368	42	4230
2026-01-01 22:13:32.14	69.69	20.61	-35.5	-36.9	17.8	0.00e+00	0	56	0	677380096	42	4285
2026-01-01 22:13:33.15	69.94	20.65	-35.7	-37.1	17.6	0.00e+00	0	56	0	680525824	42	4386
2026-01-01 22:13:34.16	70.18	20.69	-35.8	-37.2	17.4	0.00e+00	0	56	0	683671552	42	4439
2026-01-01 22:13:35.17	70.43	20.74	-35.8	-37.3	17.3	0.00e+00	0	56	0	686817280	42	4477
2026-01-01 22:13:36.17	70.67	20.78	-35.8	-37.3	17.2	0.00e+00	0	56	0	689963008	42	4485
2026-01-01 22:13:37.18	70.92	20.82	-35.8	-37.3	17.2	0.00e+00	0	56	0	693108736	42	4460
2026-01-01 22:13:38.19	71.17	20.86	-35.7	-37.2	17.2	0.00e+00	0	56	0	696254464	42	4420
2026-01-01 22:13:39.21	71.42	20.90	-35.7	-37.2	17.2	0.00e+00	0	56	0	699400192	42	4424
2026-01-01 22:13:40.21	71.66	20.93	-35.8	-37.3	17.1	0.00e+00	0	56	0	702545920	42	4472
2026-01-01 22:13:41.22	71.91	20.97	-35.8	-37.3	17.1	0.00e+00	0	56	0	705691648	42	4448
2026-01-01 22:13:42.23	72.16	21.01	-35.8	-37.3	17.1	0.00e+00	0	56	0	708837376	42	4452
2026-01-01 22:13:43.25	72.42	21.05	-35.8	-37.3	17.1	0.00e+00	0	56	0	711983104	42	4479
2026-01-01 22:13:44.25	72.67	21.08	-35.9	-37.4	17.0	0.00e+00	0	56	0	715128832	42	4526
2026-01-01 22:13:45.27	72.92	21.12	-35.9	-37.5	17.0	0.00e+00	0	56	0	718274560	42	4554
2026-01-01 22:13:46.28	73.17	21.16	-36.0	-37.5	16.9	0.00e+00	0	56	0	721420288	42	4581
2026-01-01 22:13:47.29	73.43	21.19	-35.9	-37.4	17.1	0.00e+00	0	56	0	724566016	42	4527
2026-01-01 22:13:48.30	73.68	21.23	-35.9	-37.4	17.1	0.00e+00	0	56	0	727711744	42	4525
2026-01-01 22:13:49.31	73.93	21.26	-35.8	-37.3	17.2	0.00e+00	0	56	0	730857472	42	4480
2026-01-01 22:13:50.32	74.19	21.29	-35.9	-37.4	17.1	0.00e+00	0	56	0	734003200	42	4502
2026-01-01 22:13:51.33	74.44	21.33	-36.0	-37.5	17.0	0.00e+00	0	56	0	737148928	42	4588
2026-01-01 22:13:52.34	74.70	21.36	-36.0	-37.6	17.0	0.00e+00	0	56	0	740294656	42	4608
2026-01-01 22:13:53.35	74.96	21.39	-35.9	-37.4	17.1	0.00e+00	0	57	0	743440384	42	4538
2026-01-01 22:13:54.36	75.21	21.42	-35.9	-37.4	17.2	0.00e+00	0	56	0	746586112	42	4531
2026-01-01 22:13:55.37	75.47	21.45	-35.8	-37.3	17.3	0.00e+00	0	56	0	749731840	42	4490
2026-01-01 22:13:56.37	75.73	21.48	-35.8	-37.2	17.4	0.00e+00	0	57	0	752877568	42	4434
2026-01-01 22:13:57.38	75.99	21.51	-35.8	-37.2	17.4	0.00e+00	0	56	0	756023296	42	4439
2026-01-01 22:13:58.39	76.24	21.54	-35.9	-37.3	17.3	0.00e+00	0	56	0	759169024	42	4493
2026-01-01 22:13:59.40	76.50	21.57	-35.9	-37.3	17.3	0.00e+00	0	57	0	762314752	42	4490
2026-01-01 22:14:00.41	76.76	21.60	-35.9	-37.4	17.2	0.00e+00	0	56	0	765460480	42	4523
2026-01-01 22:14:01.42	77.02	21.63	-35.9	-37.4	17.3	0.00e+00	0	57	0	768606208	42	4500
2026-01-01 22:14:02.43	77.29	21.66	-35.9	-37.4	17.3	0.00e+00	0	56	0	771751936	42	4496
2026-01-01 22:14:03.44	77.55	21.68	-35.7	-37.2	17.6	0.00e+00	0	56	0	774897664	42	4394
2026-01-01 22:14:04.45	77.81	21.71	-35.6	-37.1	17.7	0.00e+00	0	57	0	778043392	42	4342
2026-01-01 22:14:05.46	78.07	21.73	-35.5	-37.0	17.7	0.00e+00	0	57	0	781189120	42	4293
2026-01-01 22:14:06.47	78.33	21.76	-35.6	-37.0	17.8	0.00e+00	0	56	0	784334848	42	4299
2026-01-01 22:14:07.48	78.60	21.78	-35.5	-36.9	17.8	0.00e+00	0	56	0	787480576	42	4267
2026-01-01 22:14:08.49	78.86	21.81	-35.4	-36.8	17.9	0.00e+00	0	57	0	790626304	42	4227
2026-01-01 22:14:09.50	79.12	21.83	-35.5	-36.9	17.8	0.00e+00	0	56	0	793772032	42	4279
2026-01-01 22:14:10.51	79.39	21.85	-35.4	-36.8	18.0	0.00e+00	0	56	0	796917760	42	4230
2026-01-01 22:14:11.52	79.65	21.87	-35.5	-36.8	18.0	0.00e+00	0	56	0	800063488	42	4234
2026-01-01 22:14:12.53	79.92	21.90	-35.4	-36.8	18.0	0.00e+00	0	56	0	803209216	42	4224
2026-01-01 22:14:13.54	80.18	21.92	-35.5	-36.9	17.9	0.00e+00	0	57	0	806354944	42	4260
2026-01-01 22:14:14.55	80.45	21.94	-35.6	-37.0	17.8	0.00e+00	0	57	0	809500672	42	4333
2026-01-01 22:14:15.56	80.72	21.96	-35.7	-37.1	17.8	0.00e+00	0	57	0	812646400	42	4377
2026-01-01 22:14:16.57	80.98	21.97	-35.7	-37.1	17.8	0.00e+00	0	56	0	815792128	42	4348
2026-01-01 22:14:17.58	81.25	21.99	-35.4	-36.8	18.1	0.00e+00	0	56	0	818937856	42	4218
2026-01-01 22:14:18.59	81.52	22.01	-35.4	-36.8	18.1	0.00e+00	0	56	0	823132160	42	4200
2026-01-01 22:14:19.60	81.78	22.03	-35.4	-36.7	18.2	0.00e+00	0	57	0	826277888	42	4176
2026-01-01 22:14:20.61	82.05	22.04	-35.3	-36.6	18.2	0.00e+00	0	56	0	828375040	42	4140
2026-01-01 22:14:21.62	82.32	22.06	-35.3	-36.6	18.3	0.00e+00	0	57	0	831520768	42	4121
2026-01-01 22:14:22.63	82.59	22.08	-35.3	-36.6	18.3	0.00e+00	0	56	0	834666496	42	4128
2026-01-01 22:14:23.64	82.86	22.09	-35.3	-36.7	18.2	0.00e+00	0	56	0	837812224	42	4162
2026-01-01 22:14:24.65	83.13	22.10	-35.3	-36.7	18.2	0.00e+00	0	57	0	842006528	42	4158
2026-01-01 22:14:25.66	83.39	22.12	-35.4	-36.8	18.0	0.00e+00	0	57	0	845152256	42	4231
2026-01-01 22:14:26.67	83.66	22.13	-35.4	-36.8	17.9	0.00e+00	0	57	0	848297984	42	4233
2026-01-01 22:14:27.68	83.93	22.14	-35.4	-36.8	17.9	0.00e+00	0	56	0	851443712	42	4211
2026-01-01 22:14:28.69	84.20	22.15	-35.5	-36.9	17.9	0.00e+00	0	57	0	853540864	42	4249
2026-01-01 22:14:29.70	84.47	22.16	-35.5	-36.9	17.7	0.00e+00	0	57	0	857735168	42	4291
2026-01-01 22:14:30.71	84.74	22.17	-35.6	-37.0	17.6	0.00e+00	0	57	0	860880896	42	4337
2026-01-01 22:14:31.72	85.01	22.18	-35.6	-37.0	17.6	0.00e+00	0	56	0	864026624	42	4324
2026-01-01 22:14:32.73	85.28	22.19	-35.5	-37.0	17.6	0.00e+00	0	57	0	867172352	42	4295
2026-01-01 22:14:33.74	85.55	22.20	-35.4	-36.9	17.7	0.00e+00	0	57	0	870318080	42	4250
2026-01-01 22:14:34.75	85.82	22.21	-35.4	-36.8	17.7	0.00e+00	0	57	0	873463808	42	4221
2026-01-01 22:14:35.76	86.09	22.22	-35.4	-36.8	17.7	0.00e+00	0	56	0	876609536	42	4239
2026-01-01 22:14:36.77	86.37	22.22	-35.6	-37.0	17.5	0.00e+00	0	56	0	879755264	42	4333
2026-01-01 22:14:37.78	86.64	22.23	-35.7	-37.1	17.4	0.00e+00	0	57	0	882900992	42	4390
2026-01-01 22:14:38.79	86.91	22.23	-35.7	-37.2	17.4	0.00e+00	0	57	0	886046720	42	4427
2026-01-01 22:14:39.80	87.18	22.24	-35.8	-37.3	17.3	0.00e+00	0	57	0	889192448	42	4454
2026-01-01 22:14:40.81	87.45	22.24	-35.8	-37.2	17.4	0.00e+00	0	57	0	892338176	42	4433
2026-01-01 22:14:41.82	87.72	22.24	-35.7	-37.2	17.5	0.00e+00	0	56	0	895483904	42	4403
2026-01-01 22:14:42.83	87.99	22.25	-35.8	-37.2	17.4	0.00e+00	0	57	0	898629632	42	4440
2026-01-01 22:14:43.84	88.26	22.25	-35.8	-37.3	17.5	0.00e+00	0	57	0	901775360	42	4442
2026-01-01 22:14:44.84	88.53	22.25	-35.7	-37.1	17.6	0.00e+00	0	57	0	904921088	42	4371
2026-01-01 22:14:45.85	88.80	22.25	-35.7	-37.1	17.7	0.00e+00	0	56	0	908066816	42	4359
2026-01-01 22:14:46.86	89.08	22.25	-35.7	-37.1	17.7	0.00e+00	0	57	0	911212544	42	4356
2026-01-01 22:14:47.87	89.35	22.25	-35.6	-37.0	17.8	0.00e+00	0	57	0	914358272	42	4332
2026-01-01 22:14:48.88	89.62	22.25	-35.5	-36.9	17.9	0.00e+00	0	56	0	917504000	42	4250
2026-01-01 22:14:49.89	89.89	22.24	-35.5	-36.8	18.0	0.00e+00	0	57	0	920649728	42	4235
2026-01-01 22:14:50.90	90.16	22.24	-35.5	-36.8	18.1	0.00e+00	0	57	0	923795456	42	4234
2026-01-01 22:14:51.91	90.43	22.24	-35.5	-36.8	18.1	0.00e+00	0	57	0	926941184	42	4228
2026-01-01 22:14:52.92	90.70	22.23	-35.4	-36.8	18.2	0.00e+00	0	57	0	930086912	42	4199
2026-01-01 22:14:53.93	90.98	22.23	-35.4	-36.7	18.3	0.00e+00	0	57	0	933232640	42	4177
2026-01-01 22:14:54.94	91.25	22.22	-35.3	-36.6	18.4	0.00e+00	0	57	0	936378368	42	4124
2026-01-01 22:14:55.95	91.52	22.22	-35.2	-36.5	18.6	0.00e+00	0	57	0	939524096	42	4059
2026-01-01 22:14:56.96	91.79	22.21	-35.1	-36.4	18.6	0.00e+00	0	57	0	942669824	42	4016
2026-01-01 22:14:57.97	92.06	22.20	-35.2	-36.5	18.6	0.00e+00	0	57	0	945815552	42	4055
2026-01-01 22:14:58.98	92.33	22.20	-35.2	-36.5	18.6	0.00e+00	0	57	0	948961280	42	4053
2026-01-01 22:14:59.99	92.60	22.19	-35.1	-36.4	18.6	0.00e+00	0	56	0	952107008	42	4040
2026-01-01 22:15:01.00	92.87	22.18	-35.1	-36.4	18.7	0.00e+00	0	57	0	955252736	42	4014
2026-01-01 22:15:02.01	93.14	22.17	-35.1	-36.4	18.7	0.00e+00	0	56	0	958398464	42	4021
2026-01-01 22:15:03.02	93.41	22.16	-35.2	-36.5	18.6	0.00e+00	0	57	0	961544192	42	4092
2026-01-01 22:15:04.03	93.68	22.15	-35.3	-36.6	18.5	0.00e+00	0	57	0	964689920	42	4108
2026-01-01 22:15:05.04	93.95	22.14	-35.3	-36.6	18.5	0.00e+00	0	57	0	967835648	42	4124
2026-01-01 22:15:06.05	94.22	22.12	-35.2	-36.5	18.6	0.00e+00	0	57	0	970981376	42	4085
2026-01-01 22:15:07.06	94.49	22.11	-35.1	-36.4	18.7	0.00e+00	0	56	0	974127104	42	4007
2026-01-01 22:15:08.07	94.76	22.10	-35.0	-36.3	18.8	0.00e+00	0	57	0	977272832	42	3972
2026-01-01 22:15:09.08	95.03	22.08	-35.0	-36.2	18.8	0.00e+00	0	57	0	980418560	41	4180
2026-01-01 22:15:10.09	95.30	22.07	-35.0	-36.3	18.7	0.00e+00	0	57	0	983564288	41	4222
2026-01-01 22:15:11.10	95.57	22.05	-35.2	-36.5	18.6	0.00e+00	0	57	0	986710016	41	4295
2026-01-01 22:15:12.11	95.83	22.03	-35.3	-36.6	18.5	0.00e+00	0	57	0	989855744	41	4350
2026-01-01 22:15:13.12	96.10	22.02	-35.3	-36.6	18.4	0.00e+00	0	57	0	993001472	41	4388
2026-01-01 22:15:14.13	96.37	22.00	-35.3	-36.6	18.4	0.00e+00	0	57	0	996147200	41	4389
2026-01-01 22:15:15.14	96.64	21.98	-35.2	-36.5	18.6	0.00e+00	0	57	0	999292928	41	4317
2026-01-01 22:15:16.15	96.90	21.96	-35.1	-36.4	18.7	0.00e+00	0	57	0	1002438656	41	4269
2026-01-01 22:15:17.16	97.17	21.94	-35.2	-36.5	18.6	0.00e+00	0	57	0	1005584384	41	4297
2026-01-01 22:15:18.17	97.44	21.92	-35.3	-36.6	18.5	0.00e+00	0	57	0	1008730112	41	4347
2026-01-01 22:15:19.18	97.70	21.90	-35.3	-36.6	18.5	0.00e+00	0	57	0	1011875840	41	4387
2026-01-01 22:15:20.19	97.97	21.88	-35.4	-36.7	18.4	0.00e+00	0	57	0	1015021568	41	4405
2026-01-01 22:15:21.20	98.23	21.86	-35.3	-36.6	18.5	0.00e+00	0	57	0	1018167296	41	4352
2026-01-01 22:15:22.21	98.50	21.84	-35.2	-36.5	18.6	0.00e+00	0	57	0	1021313024	41	4336
2026-01-01 22:15:23.22	98.76	21.82	-35.3	-36.6	18.5	0.00e+00	0	57	0	1024458752	41	4355
2026-01-01 22:15:24.23	99.03	21.79	-35.3	-36.6	18.5	0.00e+00	0	57	0	1027604480	41	4368
2026-01-01 22:15:25.24	99.29	21.77	-35.3	-36.6	18.6	0.00e+00	0	57	0	1030750208	41	4361
2026-01-01 22:15:26.25	99.55	21.74	-35.3	-36.7	18.5	0.00e+00	0	57	0	1033895936	41	4397
2026-01-01 22:15:27.26	99.82	21.72	-35.4	-36.7	18.4	0.00e+00	0	57	0	1037041664	41	4419
2026-01-01 22:15:28.27	100.08	21.69	-35.3	-36.6	18.5	0.00e+00	0	57	0	1040187392	41	4357
2026-01-01 22:15:29.28	100.34	21.67	-35.2	-36.5	18.6	0.00e+00	0	57	0	1043333120	41	4335
2026-01-01 22:15:30.29	100.60	21.64	-35.2	-36.5	18.6	0.00e+00	0	57	0	1046478848	41	4320
2026-01-01 22:15:31.30	100.87	21.61	-35.2	-36.5	18.6	0.00e+00	0	57	0	1049624576	41	4308
2026-01-01 22:15:32.31	101.13	21.58	-35.3	-36.6	18.5	0.00e+00	0	57	0	1052770304	41	4390
2026-01-01 22:15:33.32	101.39	21.55	-35.3	-36.6	18.5	0.00e+00	0	57	0	1055916032	41	4376
2026-01-01 22:15:34.33	101.65	21.53	-35.3	-36.6	18.5	0.00e+00	0	57	0	1059061760	41	4344
2026-01-01 22:15:35.34	101.91	21.50	-35.2	-36.5	18.6	0.00e+00	0	57	0	1062207488	41	4324
2026-01-01 22:15:36.35	102.17	21.47	-35.1	-36.4	18.7	0.00e+00	0	57	0	1065353216	41	4279
2026-01-01 22:15:37.36	102.42	21.43	-35.1	-36.3	18.7	0.00e+00	0	57	0	1068498944	41	4241
2026-01-01 22:15:38.37	102.68	21.40	-35.1	-36.3	18.8	0.00e+00	0	57	0	1071644672	41	4232
2026-01-01 22:15:39.38	102.94	21.37	-35.1	-36.3	18.7	0.00e+00	0	57	0	1074790400	41	4238
2026-01-01 22:15:40.39	103.20	21.34	-35.1	-36.4	18.7	0.00e+00	0	57	0	1077936128	41	4252
2026-01-01 22:15:41.40	103.45	21.30	-35.2	-36.5	18.6	0.00e+00	0	57	0	1081081856	41	4322
2026-01-01 22:15:42.41	103.71	21.27	-35.3	-36.6	18.5	0.00e+00	0	57	0	1084227584	41	4354
2026-01-01 22:15:43.42	103.96	21.24	-35.3	-36.6	18.6	0.00e+00	0	57	0	1087373312	41	4351
2026-01-01 22:15:44.43	104.22	21.20	-35.3	-36.6	18.5	0.00e+00	0	57	0	1090519040	41	4368
2026-01-01 22:15:45.44	104.47	21.17	-35.3	-36.6	18.5	0.00e+00	0	57	0	1093664768	41	4361
2026-01-01 22:15:46.45	104.73	21.13	-35.3	-36.6	18.5	0.00e+00	0	57	0	1096810496	41	4362
2026-01-01 22:15:47.46	104.98	21.10	-35.4	-36.7	18.4	0.00e+00	0	57	0	1099956224	41	4400
2026-01-01 22:15:48.47	105.23	21.06	-35.3	-36.6	18.5	0.00e+00	0	57	0	1103101952	41	4377
2026-01-01 22:15:49.48	105.48	21.02	-35.2	-36.5	18.6	0.00e+00	0	57	0	1106247680	41	4323
2026-01-01 22:15:50.49	105.73	20.98	-35.1	-36.4	18.7	0.00e+00	0	57	0	1109393408	41	4278
2026-01-01 22:15:51.50	105.99	20.95	-35.1	-36.4	18.7	0.00e+00	0	57	0	1112539136	41	4265
2026-01-01 22:15:52.51	106.24	20.91	-35.2	-36.4	18.6	0.00e+00	0	57	0	1115684864	41	4289
2026-01-01 22:15:53.52	106.48	20.87	-35.2	-36.5	18.6	0.00e+00	0	57	0	1118830592	41	4325
2026-01-01 22:15:54.53	106.73	20.83	-35.3	-36.6	18.4	0.00e+00	0	57	0	1121976320	41	4382
2026-01-01 22:15:55.54	106.98	20.79	-35.4	-36.7	18.4	0.00e+00	0	57	0	1125122048	41	4409
2026-01-01 22:15:56.55	107.23	20.75	-35.4	-36.8	18.3	0.00e+00	0	57	0	1128267776	41	4444
2026-01-01 22:15:57.55	107.47	20.71	-35.4	-36.8	18.4	0.00e+00	0	57	0	1131413504	41	4443
2026-01-01 22:15:58.56	107.72	20.66	-35.4	-36.8	18.3	0.00e+00	0	57	0	1134559232	41	4449
2026-01-01 22:15:59.57	107.97	20.62	-35.4	-36.8	18.3	0.00e+00	0	57	0	1137704960	41	4452
2026-01-01 22:16:00.58	108.21	20.58	-35.3	-36.7	18.4	0.00e+00	0	57	0	1140850688	41	4395
2026-01-01 22:16:01.59	108.46	20.54	-35.4	-36.7	18.4	0.00e+00	0	57	0	1145044992	41	4414
2026-01-01 22:16:02.60	108.70	20.49	-35.4	-36.7	18.3	0.00e+00	0	57	0	1147142144	41	4437
2026-01-01 22:16:03.61	108.94	20.45	-35.4	-36.7	18.4	0.00e+00	0	57	0	1150287872	41	4417
2026-01-01 22:16:04.62	109.18	20.41	-35.3	-36.6	18.4	0.00e+00	0	57	0	1153433600	41	4385
2026-01-01 22:16:05.63	109.43	20.36	-35.3	-36.6	18.4	0.00e+00	0	57	0	1156579328	41	4389
2026-01-01 22:16:06.64	109.67	20.32	-35.4	-36.8	18.3	0.00e+00	0	57	0	1159725056	41	4444
2026-01-01 22:16:07.64	109.91	20.27	-35.5	-36.8	18.3	0.00e+00	0	57	0	1163919360	41	4464
2026-01-01 22:16:08.65	110.14	20.23	-35.4	-36.7	18.3	0.00e+00	0	57	0	1167065088	41	4433
2026-01-01 22:16:09.66	110.38	20.18	-35.3	-36.6	18.4	0.00e+00	0	57	0	1169162240	41	4387
2026-01-01 22:16:10.67	110.62	20.13	-35.4	-36.7	18.3	0.00e+00	0	57	0	1172307968	41	4433
2026-01-01 22:16:11.68	110.86	20.09	-35.5	-36.8	18.3	0.00e+00	0	57	0	1175453696	41	4479
2026-01-01 22:16:12.70	111.10	20.04	-35.5	-36.9	18.2	0.00e+00	0	57	0	1179648000	41	4495
2026-01-01 22:16:13.71	111.33	19.99	-35.5	-36.8	18.3	0.00e+00	0	57	0	1182793728	41	4461
2026-01-01 22:16:14.72	111.57	19.94	-35.5	-36.8	18.3	0.00e+00	0	57	0	1185939456	41	4470
2026-01-01 22:16:15.72	111.80	19.89	-35.6	-36.9	18.2	0.00e+00	0	57	0	1189085184	41	4532
2026-01-01 22:16:16.74	112.04	19.84	-35.6	-37.0	18.1	0.00e+00	0	57	0	1192230912	41	4579
2026-01-01 22:16:17.75	112.27	19.79	-35.6	-37.0	18.1	0.00e+00	0	57	0	1195376640	41	4569
2026-01-01 22:16:18.75	112.50	19.75	-35.6	-37.0	18.1	0.00e+00	0	57	0	1198522368	41	4573
2026-01-01 22:16:19.77	112.74	19.69	-35.6	-37.0	18.2	0.00e+00	0	57	0	1201668096	41	4547
2026-01-01 22:16:20.78	112.97	19.64	-35.6	-37.0	18.1	0.00e+00	0	57	0	1204813824	41	4557
2026-01-01 22:16:21.79	113.20	19.59	-35.4	-36.8	18.3	0.00e+00	0	57	0	1207959552	41	4462
2026-01-01 22:16:22.79	113.42	19.54	-35.4	-36.7	18.4	0.00e+00	0	57	0	1211105280	41	4413
2026-01-01 22:16:23.80	113.65	19.49	-35.3	-36.7	18.4	0.00e+00	0	57	0	1214251008	41	4400
2026-01-01 22:16:24.81	113.88	19.44	-35.4	-36.7	18.3	0.00e+00	0	57	0	1217396736	41	4428
2026-01-01 22:16:25.82	114.11	19.39	-35.4	-36.7	18.4	0.00e+00	0	57	0	1220542464	41	4412
2026-01-01 22:16:26.83	114.33	19.33	-35.4	-36.7	18.4	7.00e-07	0	57	0	1223688192	41	4409
2026-01-01 22:16:27.84	114.56	19.28	-35.4	-36.7	18.4	0.00e+00	0	57	0	1226833920	41	4405
2026-01-01 22:16:28.85	114.79	19.23	-35.4	-36.8	18.3	1.75e-05	0	57	0	1229979648	41	4448
2026-01-01 22:16:29.86	115.01	19.17	-35.5	-36.8	18.3	0.00e+00	0	57	0	1233125376	41	4487
2026-01-01 22:16:30.87	115.23	19.12	-35.6	-36.9	18.2	0.00e+00	0	57	0	1236271104	41	4537
2026-01-01 22:16:31.88	115.46	19.07	-35.6	-37.0	18.1	0.00e+00	0	57	0	1239416832	41	4572
2026-01-01 22:16:32.89	115.68	19.01	-35.7	-37.1	18.0	0.00e+00	0	57	0	1242562560	42	4373
2026-01-01 22:16:33.90	115.90	18.96	-35.8	-37.2	17.9	0.00e+00	0	57	0	1245708288	42	4415
2026-01-01 22:16:34.91	116.12	18.90	-35.8	-37.2	17.9	0.00e+00	0	57	0	1248854016	42	4429
2026-01-01 22:16:35.92	116.34	18.85	-35.8	-37.1	18.0	0.00e+00	0	57	0	1251999744	42	4376
2026-01-01 22:16:36.93	116.56	18.79	-35.7	-37.1	18.0	0.00e+00	0	57	0	1255145472	42	4356
2026-01-01 22:16:37.94	116.78	18.74	-35.7	-37.1	18.0	0.00e+00	0	57	0	1258291200	42	4347
2026-01-01 22:16:38.95	116.99	18.68	-35.7	-37.1	18.0	0.00e+00	0	57	0	1261436928	42	4374
2026-01-01 22:16:39.96	117.21	18.62	-35.7	-37.1	18.0	0.00e+00	0	57	0	1264582656	42	4356
2026-01-01 22:16:40.97	117.43	18.57	-35.8	-37.1	18.0	0.00e+00	0	57	0	1267728384	42	4378
2026-01-01 22:16:41.98	117.64	18.51	-35.8	-37.1	18.0	0.00e+00	0	57	0	1270874112	42	4377
2026-01-01 22:16:42.99	117.85	18.45	-35.8	-37.2	17.9	0.00e+00	0	57	0	1274019840	42	4431
2026-01-01 22:16:44.00	118.07	18.39	-35.8	-37.2	17.9	0.00e+00	0	57	0	1277165568	42	4417
2026-01-01 22:16:45.01	118.28	18.34	-35.8	-37.2	17.9	0.00e+00	0	57	0	1280311296	42	4409
2026-01-01 22:16:46.02	118.49	18.28	-35.9	-37.3	17.8	0.00e+00	0	57	0	1283457024	42	4455
2026-01-01 22:16:47.03	118.70	18.22	-36.0	-37.4	17.7	0.00e+00	0	57	0	1286602752	42	4498
2026-01-01 22:16:48.04	118.91	18.16	-36.0	-37.4	17.6	0.00e+00	0	57	0	1289748480	42	4540
2026-01-01 22:16:49.05	119.12	18.10	-36.0	-37.5	17.6	0.00e+00	0	57	0	1292894208	42	4546
2026-01-01 22:16:50.06	119.33	18.04	-36.0	-37.4	17.7	0.00e+00	0	57	0	1296039936	42	4522
2026-01-01 22:16:51.07	119.54	17.99	-35.9	-37.3	17.8	0.00e+00	0	57	0	1299185664	42	4461
2026-01-01 22:16:52.08	119.75	17.93	-35.8	-37.2	17.9	0.00e+00	0	57	0	1302331392	42	4400
2026-01-01 22:16:53.09	119.95	17.87	-35.7	-37.1	18.0	0.00e+00	0	57	0	1305477120	42	4357
2026-01-01 22:16:54.10	120.16	17.81	-35.7	-37.1	17.9	0.00e+00	0	57	0	1308622848	42	4342
2026-01-01 22:16:55.11	120.36	17.75	-35.6	-37.0	17.9	0.00e+00	0	57	0	1311768576	42	4313
2026-01-01 22:16:56.13	120.57	17.69	-35.6	-37.0	18.0	1.50e-06	0	57	0	1314914304	42	4301
2026-01-01 22:16:57.14	120.77	17.63	-35.7	-37.1	17.9	0.00e+00	0	57	0	1318060032	42	4360
2026-01-01 22:16:58.15	120.97	17.56	-35.7	-37.2	17.9	8.30e-06	0	57	0	1321205760	42	4392
2026-01-01 22:16:59.16	121.18	17.50	-35.8	-37.2	17.9	0.00e+00	0	57	0	1324351488	42	4395
2026-01-01 22:17:00.17	121.38	17.44	-35.9	-37.3	17.7	0.00e+00	0	57	0	1327497216	42	4470
2026-01-01 22:17:01.18	121.58	17.38	-35.9	-37.3	17.7	0.00e+00	0	57	0	1330642944	42	4481
2026-01-01 22:17:02.19	121.77	17.32	-36.0	-37.4	17.6	0.00e+00	0	57	0	1333788672	42	4513
2026-01-01 22:17:03.20	121.97	17.26	-35.9	-37.4	17.7	0.00e+00	0	57	0	1336934400	42	4497
2026-01-01 22:17:04.21	122.17	17.20	-35.8	-37.3	17.7	0.00e+00	0	57	0	1340080128	42	4455
2026-01-01 22:17:05.22	122.37	17.14	-35.8	-37.2	17.8	0.00e+00	0	57	0	1343225856	42	4413
2026-01-01 22:17:06.23	122.56	17.07	-35.7	-37.1	17.9	0.00e+00	0	57	0	1346371584	42	4380
2026-01-01 22:17:07.24	122.76	17.01	-35.7	-37.1	17.9	0.00e+00	0	57	0	1349517312	42	4382
2026-01-01 22:17:08.25	122.95	16.95	-35.8	-37.2	17.8	0.00e+00	0	57	0	1352663040	42	4414
2026-01-01 22:17:09.26	123.15	16.89	-35.8	-37.3	17.8	0.00e+00	0	57	0	1355808768	42	4445
2026-01-01 22:17:10.27	123.34	16.82	-35.9	-37.3	17.7	0.00e+00	0	57	0	1358954496	42	4476
2026-01-01 22:17:11.28	123.53	16.76	-35.9	-37.3	17.7	0.00e+00	0	57	0	1362100224	42	4492
2026-01-01 22:17:12.29	123.72	16.70	-36.0	-37.4	17.6	0.00e+00	0	57	0	1365245952	42	4542
2026-01-01 22:17:13.30	123.91	16.63	-36.0	-37.4	17.6	0.00e+00	0	57	0	1368391680	42	4530
2026-01-01 22:17:14.31	124.10	16.57	-36.0	-37.4	17.6	0.00e+00	0	57	0	1371537408	42	4539
2026-01-01 22:17:15.32	124.29	16.51	-36.0	-37.4	17.6	0.00e+00	0	57	0	1374683136	42	4502
2026-01-01 22:17:16.33	124.48	16.44	-35.9	-37.3	17.6	0.00e+00	0	57	0	1377828864	42	4472
2026-01-01 22:17:17.34	124.67	16.38	-35.9	-37.3	17.7	0.00e+00	0	57	0	1380974592	42	4463
2026-01-01 22:17:18.35	124.85	16.32	-35.9	-37.3	17.7	0.00e+00	0	57	0	1384120320	42	4466
2026-01-01 22:17:19.36	125.04	16.25	-35.9	-37.3	17.7	0.00e+00	0	57	0	1387266048	42	4464
2026-01-01 22:17:20.37	125.23	16.19	-35.9	-37.3	17.7	0.00e+00	0	57	0	1390411776	42	4477
2026-01-01 22:17:21.38	125.41	16.13	-35.9	-37.4	17.5	0.00e+00	0	57	0	1393557504	42	4498
2026-01-01 22:17:22.39	125.59	16.06	-36.0	-37.4	17.6	0.00e+00	0	57	0	1396703232	42	4522
2026-01-01 22:17:23.40	125.78	16.00	-36.0	-37.5	17.5	3.00e-06	0	57	0	1399848960	42	4552
2026-01-01 22:17:24.41	125.96	15.93	-36.0	-37.4	17.5	4.50e-06	0	57	0	1402994688	42	4525
2026-01-01 22:17:25.41	126.14	15.87	-35.9	-37.4	17.5	3.80e-06	0	57	0	1406140416	42	4511
2026-01-01 22:17:26.42	126.32	15.80	-35.9	-37.4	17.6	4.50e-06	0	57	0	1409286144	42	4512
2026-01-01 22:17:27.43	126.50	15.74	-35.9	-37.4	17.6	0.00e+00	0	57	0	1412431872	42	4509
2026-01-01 22:17:28.44	126.68	15.67	-36.0	-37.5	17.5	2.20e-06	0	57	0	1415577600	42	4549
2026-01-01 22:17:29.45	126.86	15.61	-36.0	-37.4	17.5	4.50e-06	0	57	0	1418723328	42	4537
2026-01-01 22:17:30.46	127.03	15.54	-36.0	-37.5	17.5	5.64e-04	0	57	0	1421869056	42	4550
2026-01-01 22:17:31.47	127.21	15.48	-34.2	-37.4	13.4	4.73e-03	0	57	0	1425014784	41	4769
2026-01-01 22:17:32.48	127.39	15.41	-36.5	-37.8	9.3	1.03e-01	0	57	0	1428160512	37	6276
2026-01-01 22:17:33.49	127.56	15.35	-32.0	-36.9	11.2	5.07e-02	0	57	0	1431306240	38	5353
2026-01-01 22:17:34.50	127.74	15.28	-35.8	-37.3	16.5	9.94e-02	0	57	0	1434451968	42	4442
2026-01-01 22:17:35.51	127.91	15.22	-36.3	-37.4	14.2	1.88e-03	0	57	0	1437597696	40	5082
2026-01-01 22:17:36.52	128.08	15.15	-35.5	-37.2	17.1	1.79e-03	0	57	0	1440743424	42	4426
2026-01-01 22:17:37.53	128.26	15.09	-35.7	-37.2	17.1	2.83e-03	0	57	0	1443889152	42	4437
2026-01-01 22:17:38.54	128.43	15.02	-35.8	-37.3	16.7	3.88e-03	0	57	0	1447034880	42	4472
2026-01-01 22:17:39.55	128.60	14.96	-35.4	-37.4	15.8	7.54e-03	0	57	0	1450180608	42	4516
2026-01-01 22:17:40.56	128.77	14.89	-34.3	-37.3	14.4	9.41e-03	1	57	0	1453326336	41	4725
2026-01-01 22:17:41.57	128.94	14.83	-35.1	-37.5	15.4	1.54e-02	0	57	0	1456472064	42	4553
2026-01-01 22:17:42.58	129.11	14.76	-34.4	-37.4	15.3	1.99e-02	2	57	0	1459617792	41	4788
2026-01-01 22:17:43.59	129.28	14.69	-34.7	-37.5	13.7	2.16e-02	1	57	0	1462763520	41	4836
2026-01-01 22:17:44.60	129.44	14.63	-34.9	-37.5	13.9	7.92e-02	2	57	0	1465909248	40	5114
2026-01-01 22:17:45.61	129.61	14.56	-35.5	-37.8	14.0	5.89e-02	7	57	0	1469054976	41	5029
2026-01-01 22:17:46.62	129.77	14.50	-31.9	-38.0	4.6	4.53e-02	0	57	104	1471152128	33	8138
2026-01-01 22:17:47.63	129.94	14.43	-34.6	-37.8	12.3	1.10e-01	11	57	0	1472200704	39	5637
2026-01-01 22:17:48.64	130.10	14.36	-34.9	-37.8	12.9	8.76e-02	5	57	0	1474297856	40	5338
2026-01-01 22:17:49.65	130.27	14.30	-34.4	-37.9	12.7	1.92e-01	2	57	0	1477443584	39	5670
2026-01-01 22:17:50.66	130.43	14.23	-34.8	-37.8	13.3	1.78e-01	2	57	0	1479540736	41	5006
2026-01-01 22:17:51.67	130.59	14.17	-26.6	-36.0	4.9	1.96e-01	0	57	104	1481637888	31	7237
2026-01-01 22:17:52.68	130.76	14.10	-33.8	-37.8	12.3	2.18e-01	4	57	0	1482686464	40	5317
2026-01-01 22:17:53.69	130.92	14.03	-32.5	-38.0	12.1	1.64e-01	5	57	0	1484783616	39	5734
2026-01-01 22:17:54.70	131.08	13.97	-34.4	-38.0	11.9	1.62e-01	11	57	0	1484783616	39	5734
2026-01-01 22:17:55.71	131.24	13.90	-33.0	-37.8	11.4	2.04e-01	11	57	0	1486880768	37	6306
2026-01-01 22:17:56.72	131.39	13.83	-34.8	-38.1	12.0	1.61e-01	7	57	0	1490026496	38	6184
2026-01-01 22:17:57.73	131.55	13.77	-32.6	-38.5	11.2	1.36e+00	8	57	104	1491075072	39	6083
2026-01-01 22:17:58.74	131.71	13.70	-34.8	-38.2	11.7	2.53e-01	5	57	0	1492123648	39	5865
2026-01-01 22:17:59.75	131.87	13.64	-34.1	-38.2	5.6	1.11e+00	0	57	104	1493172224	39	5859
2026-01-01 22:18:00.76	132.02	13.57	-35.0	-38.2	10.9	5.70e-01	16	57	0	1494220800	37	6638
2026-01-01 22:18:01.77	132.18	13.50	-34.2	-38.0	11.6	3.28e-01	16	57	0	1495269376	39	5751
2026-01-01 22:18:02.78	132.33	13.44	-33.7	-38.0	11.7	3.61e-01	7	57	104	1496317952	38	6082
2026-01-01 22:18:03.79	132.49	13.37	-33.2	-37.6	11.5	2.10e-01	8	57	0	1498415104	38	5850
2026-01-01 22:18:04.80	132.64	13.30	-33.0	-37.8	11.2	1.73e-01	12	57	0	1500512256	37	6329
2026-01-01 22:18:05.81	132.79	13.24	-34.1	-37.7	12.7	1.29e-01	5	57	0	1503657984	40	5276
2026-01-01 22:18:06.82	132.95	13.17	-33.9	-37.9	12.2	1.18e-01	14	57	0	1505755136	38	6030
2026-01-01 22:18:07.83	133.10	13.10	-34.5	-37.8	12.2	1.14e-01	12	58	0	1506803712	40	5307
2026-01-01 22:18:08.84	133.25	13.04	-34.9	-37.8	13.2	1.26e-01	7	57	0	1508900864	40	5330
2026-01-01 22:18:09.85	133.40	12.97	-35.1	-37.9	13.1	7.44e-01	3	57	104	1510998016	41	5054
2026-01-01 22:18:10.86	133.55	12.90	-35.2	-38.1	13.3	1.55e-01	7	57	0	1513095168	39	5817
2026-01-01 22:18:11.87	133.70	12.84	-35.7	-38.3	13.3	1.47e-01	8	57	0	1515192320	41	5301
2026-01-01 22:18:12.88	133.84	12.77	-35.8	-38.3	12.0	5.05e-02	4	57	0	1518338048	42	5010
2026-01-01 22:18:13.89	133.99	12.71	-34.2	-38.3	13.7	9.30e-02	2	58	0	1520435200	42	4996
2026-01-01 22:18:14.90	134.14	12.64	-34.8	-38.4	12.9	6.13e-02	5	57	0	1523580928	42	5046
2026-01-01 22:18:15.91	134.28	12.57	-35.8	-38.9	13.0	1.26e-01	4	57	0	1526726656	43	5043
2026-01-01 22:18:16.92	134.43	12.51	-34.4	-38.5	14.0	3.14e-02	5	57	0	1529872384	42	5113
2026-01-01 22:18:17.93	134.58	12.44	-36.8	-38.6	13.7	4.92e-02	0	57	0	1531969536	42	5205
2026-01-01 22:18:18.94	134.72	12.37	-35.3	-38.6	14.4	1.80e-02	5	57	0	1535115264	41	5466
2026-01-01 22:18:19.95	134.86	12.31	-36.4	-38.5	13.8	1.25e+00	6	57	104	1536163840	43	4828
2026-01-01 22:18:20.96	135.01	12.24	-36.3	-38.6	14.9	1.71e-02	3	58	0	1538260992	43	4895
2026-01-01 22:18:21.97	135.15	12.17	-36.0	-38.5	14.8	2.97e-01	0	57	0	1541406720	43	4854
2026-01-01 22:18:22.98	135.29	12.11	-36.5	-38.7	15.5	1.09e-02	0	57	0	1544552448	44	4658
2026-01-01 22:18:23.99	135.43	12.04	-36.5	-38.4	14.9	8.88e-03	1	57	0	1547698176	42	5064
2026-01-01 22:18:25.00	135.57	11.98	-36.5	-38.4	15.2	1.03e-02	0	57	0	1550843904	43	4793
2026-01-01 22:18:26.01	135.71	11.91	-36.5	-38.4	15.3	2.00e-02	0	57	0	1552941056	43	4769
2026-01-01 22:18:27.02	135.85	11.84	-36.5	-38.4	15.2	2.42e-02	0	57	0	1556086784	43	4783
2026-01-01 22:18:28.03	135.99	11.78	-36.7	-38.5	12.0	1.48e-01	0	57	0	1559232512	43	4842
2026-01-01 22:18:29.04	136.13	11.71	-36.9	-38.7	15.5	2.63e-03	0	57	0	1562378240	44	4671
2026-01-01 22:18:30.05	136.27	11.65	-32.2	-37.6	8.8	3.42e-02	4	57	0	1565523968	35	6880
2026-01-01 22:18:31.05	136.40	11.58	-36.5	-39.0	14.7	3.54e-03	0	58	0	1568669696	45	4594
2026-01-01 22:18:32.06	136.54	11.51	-37.2	-39.0	15.2	3.60e-03	0	57	0	1571815424	45	4578
2026-01-01 22:18:33.08	136.68	11.45	-37.1	-39.0	15.6	1.36e-03	0	57	0	1574961152	44	4817
2026-01-01 22:18:34.08	136.81	11.38	-37.3	-39.2	15.3	1.21e-03	0	57	0	1578106880	45	4657
2026-01-01 22:18:35.10	136.95	11.32	-37.4	-39.2	12.8	1.28e-03	0	57	0	1581252608	44	4971
2026-01-01 22:18:36.10	137.08	11.25	-37.0	-38.8	15.6	6.59e-04	0	57	0	1584398336	44	4708
2026-01-01 22:18:37.11	137.21	11.18	-36.6	-38.3	15.9	2.56e-04	0	57	0	1587544064	43	4740
2026-01-01 22:18:38.12	137.34	11.12	-37.1	-38.9	15.5	2.78e-04	0	57	0	1590689792	44	4792
2026-01-01 22:18:39.13	137.48	11.05	-37.4	-39.4	14.9	3.94e-04	0	57	0	1593835520	45	4790
2026-01-01 22:18:40.14	137.61	10.99	-37.7	-39.8	14.4	9.07e-04	0	57	0	1596981248	46	4743
2026-01-01 22:18:41.15	137.74	10.92	-36.6	-38.3	15.6	5.95e-04	0	57	0	1600126976	44	4488
2026-01-01 22:18:42.16	137.87	10.86	-32.3	-37.5	9.9	6.91e-02	0	57	0	1603272704	36	6441
2026-01-01 22:18:43.17	138.00	10.79	-36.4	-38.8	15.0	1.98e-02	0	57	0	1606418432	44	4731
2026-01-01 22:18:44.18	138.13	10.73	-38.0	-40.3	12.8	3.98e-01	0	57	0	1609564160	46	5020
2026-01-01 22:18:45.19	138.26	10.66	-38.4	-41.0	12.6	1.23e-04	0	57	0	1612709888	47	5107
2026-01-01 22:18:46.20	138.39	10.59	-39.1	-42.2	11.5	3.78e-04	0	57	0	1615855616	48	5534
2026-01-01 22:18:47.21	138.52	10.53	-39.6	-43.1	10.3	4.48e-03	0	57	0	1619001344	49	5855
2026-01-01 22:18:48.21	138.64	10.46	-39.4	-42.8	10.7	3.76e-03	0	57	0	1622147072	49	5608
2026-01-01 22:18:49.22	138.77	10.40	-39.9	-43.8	9.7	8.99e-03	0	57	0	1625292800	50	5926
2026-01-01 22:18:50.23	138.89	10.33	-40.0	-43.9	9.6	1.73e-02	0	57	0	1628438528	50	6001
2026-01-01 22:18:51.24	139.02	10.27	-39.3	-42.3	11.5	1.82e-03	0	57	0	1631584256	50	5014
2026-01-01 22:18:52.25	139.14	10.20	-39.5	-42.5	11.4	1.12e-03	0	57	0	1634729984	50	5145
2026-01-01 22:18:53.26	139.27	10.14	-39.2	-42.0	12.0	4.60e-04	0	57	0	1637875712	50	4841
2026-01-01 22:18:54.27	139.39	10.07	-38.0	-40.3	13.6	3.20e-05	0	57	0	1641021440	47	4747
2026-01-01 22:18:55.28	139.52	10.01	-36.8	-38.6	15.4	0.00e+00	0	57	0	1644167168	45	4387
2026-01-01 22:18:56.29	139.64	9.94	-36.4	-38.2	15.9	0.00e+00	0	57	0	1647312896	44	4400
2026-01-01 22:18:57.30	139.76	9.88	-37.9	-40.0	14.3	7.00e-07	0	57	0	1651507200	46	4828
2026-01-01 22:18:58.31	139.88	9.81	-37.9	-40.0	14.3	3.58e-05	0	58	0	1654652928	47	4584
2026-01-01 22:18:59.32	140.01	9.75	-37.1	-38.9	15.6	0.00e+00	0	57	0	1657798656	46	4246
2026-01-01 22:19:00.33	140.13	9.68	-38.0	-40.0	14.5	0.00e+00	0	57	0	1659895808	46	4841
2026-01-01 22:19:01.33	140.25	9.62	-37.4	-39.2	15.4	0.00e+00	0	57	0	1663041536	46	4417
2026-01-01 22:19:02.34	140.37	9.56	-37.8	-39.7	15.0	0.00e+00	0	57	0	1667235840	46	4684
2026-01-01 22:19:03.35	140.48	9.49	-37.3	-39.1	15.7	0.00e+00	0	57	0	1670381568	46	4370
2026-01-01 22:19:04.36	140.60	9.43	-37.4	-39.3	15.5	0.00e+00	0	57	0	1673527296	46	4445
2026-01-01 22:19:05.37	140.72	9.36	-37.4	-39.2	15.6	0.00e+00	0	57	0	1676673024	46	4396
2026-01-01 22:19:06.38	140.84	9.30	-37.3	-39.1	15.7	0.00e+00	0	57	0	1679818752	46	4373
2026-01-01 22:19:07.39	140.96	9.23	-37.3	-39.1	15.7	0.00e+00	0	57	0	1682964480	46	4364
2026-01-01 22:19:08.40	141.07	9.17	-37.2	-38.9	15.8	0.00e+00	0	57	0	1686110208	46	4291
2026-01-01 22:19:09.41	141.19	9.11	-37.3	-39.0	15.7	0.00e+00	0	57	0	1689255936	46	4334
2026-01-01 22:19:10.42	141.31	9.04	-37.2	-39.0	15.8	0.00e+00	0	57	0	1692401664	46	4292
2026-01-01 22:19:11.43	141.42	8.98	-37.2	-38.9	15.9	0.00e+00	0	57	0	1695547392	46	4273
2026-01-01 22:19:12.44	141.54	8.91	-37.2	-39.0	15.8	0.00e+00	0	57	0	1698693120	46	4297
2026-01-01 22:19:13.45	141.65	8.85	-37.2	-38.9	15.9	0.00e+00	0	57	0	1701838848	46	4259
2026-01-01 22:19:14.46	141.76	8.79	-37.2	-38.9	15.8	0.00e+00	0	57	0	1704984576	46	4288
2026-01-01 22:19:15.47	141.88	8.72	-37.2	-39.0	15.8	0.00e+00	0	57	0	1708130304	46	4300
2026-01-01 22:19:16.48	141.99	8.66	-37.2	-38.9	15.8	0.00e+00	0	57	0	1711276032	46	4290
2026-01-01 22:19:17.49	142.10	8.59	-37.3	-39.0	15.7	0.00e+00	0	57	0	1714421760	46	4318
2026-01-01 22:19:18.50	142.21	8.53	-37.3	-39.0	15.7	0.00e+00	0	57	0	1717567488	46	4325
2026-01-01 22:19:19.51	142.33	8.47	-37.4	-39.1	15.6	7.00e-07	0	57	0	1720713216	46	4382
2026-01-01 22:19:20.52	142.44	8.40	-37.3	-39.1	15.6	7.00e-07	0	57	0	1723858944	46	4374
2026-01-01 22:19:21.53	142.55	8.34	-37.4	-39.3	15.5	0.00e+00	0	57	0	1727004672	46	4447
2026-01-01 22:19:22.54	142.66	8.28	-37.4	-39.3	15.4	0.00e+00	0	57	0	1730150400	46	4451
2026-01-01 22:19:23.55	142.77	8.21	-37.6	-39.5	15.2	0.00e+00	0	57	0	1733296128	46	4579
2026-01-01 22:19:24.56	142.88	8.15	-37.6	-39.4	15.3	0.00e+00	0	57	0	1736441856	46	4525
2026-01-01 22:19:25.56	142.98	8.09	-37.6	-39.5	15.2	0.00e+00	0	57	0	1739587584	46	4559
2026-01-01 22:19:26.58	143.09	8.03	-40.4	-43.5	11.7	0.00e+00	0	57	0	1742733312	51	5427
2026-01-01 22:19:27.59	143.20	7.96	-44.2	-56.1	3.8	1.49e+00	0	57	104	1742733312	58	15408
2026-01-01 22:19:28.60	143.31	7.90	-44.6	-56.7	3.8	1.49e+00	0	57	104	1742733312	59	15738
2026-01-01 22:19:29.61	143.42	7.84	-44.8	-57.1	3.8	1.49e+00	0	57	104	1742733312	60	15536
2026-01-01 22:19:30.62	143.52	7.77	-45.0	-57.3	3.8	1.49e+00	0	57	104	1742733312	60	15861
2026-01-01 22:19:31.63	143.63	7.71	-45.1	-57.5	3.8	1.49e+00	0	58	104	1742733312	60	16138
2026-01-01 22:19:32.64	143.73	7.65	-45.2	-57.6	3.8	1.49e+00	0	58	104	1742733312	60	16386
2026-01-01 22:19:33.65	143.84	7.59	-45.2	-57.6	3.8	1.49e+00	0	58	104	1742733312	61	15529
2026-01-01 22:19:34.66	143.94	7.52	-45.3	-57.6	3.8	1.49e+00	0	57	104	1742733312	61	15487
2026-01-01 22:19:35.67	144.05	7.46	-45.3	-57.6	3.8	1.49e+00	0	57	104	1742733312	61	15478
2026-01-01 22:19:36.68	144.15	7.40	-45.2	-57.5	3.8	1.49e+00	0	57	104	1742733312	61	15398
2026-01-01 22:19:37.69	144.26	7.34	-45.1	-57.5	3.8	1.49e+00	0	57	104	1742733312	61	15277
2026-01-01 22:19:38.70	144.36	7.27	-45.1	-57.4	3.8	1.49e+00	0	57	104	1742733312	61	15150
2026-01-01 22:19:39.71	144.46	7.21	-45.0	-57.4	3.8	1.49e+00	0	58	104	1742733312	61	15122
2026-01-01 22:19:40.72	144.56	7.15	-45.0	-57.3	3.8	1.49e+00	0	57	104	1742733312	61	15013
2026-01-01 22:19:41.73	144.67	7.09	-44.9	-57.3	3.8	1.49e+00	0	58	104	1742733312	61	14903
2026-01-01 22:19:42.74	144.77	7.03	-44.9	-57.3	3.8	1.49e+00	0	58	104	1742733312	61	14916
2026-01-01 22:19:43.75	144.87	6.97	-44.9	-57.3	3.8	1.49e+00	0	58	104	1742733312	61	14945
2026-01-01 22:19:44.77	144.97	6.90	-44.9	-57.3	3.8	1.49e+00	0	58	104	1742733312	61	14886
2026-01-01 22:19:45.78	145.07	6.84	-44.9	-57.3	3.8	1.49e+00	0	58	104	1742733312	61	14917
2026-01-01 22:19:46.79	145.17	6.78	-44.9	-57.3	3.8	1.49e+00	0	58	104	1742733312	61	14906
2026-01-01 22:19:47.80	145.27	6.72	-44.9	-57.3	3.8	1.49e+00	0	58	104	1742733312	61	14934
2026-01-01 22:19:48.81	145.37	6.66	-44.9	-57.3	3.8	1.49e+00	0	58	104	1742733312	61	14898
2026-01-01 22:19:49.82	145.47	6.60	-44.9	-57.3	3.8	1.49e+00	0	58	104	1742733312	61	14901
2026-01-01 22:19:50.83	145.56	6.53	-44.9	-57.2	3.8	1.49e+00	0	58	104	1742733312	61	14878
2026-01-01 22:19:51.84	145.66	6.47	-44.9	-57.3	3.8	1.49e+00	0	58	104	1742733312	61	14880
2026-01-01 22:19:52.85	145.76	6.41	-44.9	-57.3	3.8	1.49e+00	0	58	104	1742733312	60	15821
2026-01-01 22:19:53.86	145.86	6.35	-44.9	-57.2	3.8	1.49e+00	0	57	104	1742733312	60	15708
2026-01-01 22:19:54.88	145.95	6.29	-44.9	-57.2	3.8	1.49e+00	0	58	104	1742733312	60	15754
2026-01-01 22:19:55.89	146.05	6.23	-44.9	-57.2	3.8	1.49e+00	0	58	104	1742733312	60	15754
2026-01-01 22:19:56.90	146.15	6.17	-44.9	-57.3	3.8	1.49e+00	0	57	104	1742733312	60	15761
2026-01-01 22:19:57.91	146.24	6.11	-44.9	-57.3	3.8	1.49e+00	0	58	104	1742733312	60	15764
2026-01-01 22:19:58.92	146.34	6.05	-44.9	-57.2	3.8	1.49e+00	0	58	104	1742733312	60	15760
2026-01-01 22:19:59.93	146.43	5.99	-44.9	-57.3	3.8	1.49e+00	0	58	104	1742733312	60	15790
2026-01-01 22:20:00.94	146.53	5.93	-44.9	-57.3	3.8	1.49e+00	0	58	104	1742733312	60	15775
