passes_logs/2026/01/01/R2.0S_Moscow/R2.0S_Moscow__20260101_032542_FENGYUN_3E_rec.log

#Pass ID: 20260101_032542_FENGYUN 3E
#Satellite: FENGYUN 3E
#Configuration: FENGYUN 3E
#almurnet v.1.7.20251203
#Start time: 2026-01-01 03:31:36

#Version: 2.2.20231116
#Station: R2.0S_Moscow
#Location: 37.707566 lon 55.798166 lat
#TLE: 1 49008U 21062A   25365.55977344  .00000403  00000+0  21051-3 0  9995
#TLE: 2 49008  98.7483   5.8586 0001311 170.0615 190.0588 14.19883886232790

#Time	Az	El	Level	Level2	SNR	BER	BlckErr	Temp	State	Recorded	gain1	gain2
2026-01-01 03:31:36.61	53.84	45.20	-44.9	-56.5	3.8	8.47e-01	0	58	0	0	60	14400
2026-01-01 03:31:37.61	54.22	45.42	-45.6	-56.8	3.8	8.45e-01	0	59	104	0	62	12550
2026-01-01 03:31:38.62	54.60	45.65	-45.7	-56.9	3.8	8.47e-01	0	59	104	0	62	12686
2026-01-01 03:31:39.63	54.99	45.87	-45.7	-56.9	3.8	8.46e-01	0	58	104	0	62	12672
2026-01-01 03:31:40.64	55.39	46.09	-45.7	-56.8	3.8	8.46e-01	0	58	104	0	62	12609
2026-01-01 03:31:41.65	55.79	46.31	-45.7	-56.8	3.8	8.47e-01	0	58	104	0	62	12651
2026-01-01 03:31:42.66	56.20	46.53	-45.7	-56.8	3.8	8.47e-01	0	58	104	0	62	12560
2026-01-01 03:31:43.67	56.61	46.75	-45.7	-56.8	3.8	8.47e-01	0	58	104	0	62	12597
2026-01-01 03:31:44.69	57.04	46.98	-45.7	-56.8	3.8	8.46e-01	0	59	104	0	62	12600
2026-01-01 03:31:45.70	57.46	47.20	-45.7	-56.8	3.8	8.46e-01	0	58	104	0	62	12597
2026-01-01 03:31:46.71	57.89	47.42	-45.7	-56.8	3.8	8.46e-01	0	59	104	0	62	12592
2026-01-01 03:31:47.72	58.33	47.64	-45.7	-56.8	3.8	8.45e-01	0	59	104	0	62	12599
2026-01-01 03:31:48.73	58.77	47.85	-45.7	-56.8	3.8	8.47e-01	0	58	104	0	62	12584
2026-01-01 03:31:49.74	59.22	48.07	-45.7	-56.8	3.8	8.46e-01	0	58	104	0	62	12589
2026-01-01 03:31:50.75	59.68	48.29	-45.6	-56.8	3.8	8.46e-01	0	59	104	0	62	12620
2026-01-01 03:31:51.76	60.14	48.50	-45.6	-56.8	3.8	8.46e-01	0	59	104	0	62	12615
2026-01-01 03:31:52.77	60.61	48.72	-45.6	-56.8	3.8	8.46e-01	0	58	104	0	62	12635
2026-01-01 03:31:53.78	61.09	48.93	-45.6	-56.8	3.8	8.46e-01	0	58	104	0	62	12553
2026-01-01 03:31:54.79	61.57	49.15	-45.6	-56.8	3.8	8.46e-01	0	59	104	0	62	12557
2026-01-01 03:31:55.80	62.06	49.36	-45.6	-56.7	3.8	8.46e-01	0	59	104	0	62	12473
2026-01-01 03:31:56.82	62.56	49.57	-45.6	-56.7	3.8	8.47e-01	0	59	104	0	62	12517
2026-01-01 03:31:57.83	63.06	49.78	-45.6	-56.8	3.8	8.46e-01	0	59	104	0	62	12545
2026-01-01 03:31:58.84	63.57	49.99	-45.6	-56.8	3.8	8.47e-01	0	58	104	0	62	12569
2026-01-01 03:31:59.85	64.09	50.19	-45.6	-56.8	3.8	8.47e-01	0	58	104	0	62	12526
2026-01-01 03:32:00.86	64.61	50.40	-45.6	-56.7	3.8	8.47e-01	0	58	104	0	62	12509
2026-01-01 03:32:01.87	65.14	50.60	-45.6	-56.8	3.8	8.46e-01	0	59	104	0	62	12558
2026-01-01 03:32:02.88	65.68	50.81	-45.6	-56.8	3.8	8.46e-01	0	58	104	0	62	12521
2026-01-01 03:32:03.89	66.22	51.01	-45.6	-56.7	3.8	8.45e-01	0	59	104	0	62	12501
2026-01-01 03:32:04.90	66.77	51.20	-45.6	-56.7	3.8	8.47e-01	0	58	104	0	62	12454
2026-01-01 03:32:05.91	67.33	51.40	-45.6	-56.7	3.8	8.47e-01	0	58	104	0	62	12470
2026-01-01 03:32:06.93	67.90	51.60	-45.6	-56.7	3.8	8.46e-01	0	58	104	0	62	12466
2026-01-01 03:32:07.94	68.48	51.79	-45.6	-56.7	3.8	8.47e-01	0	58	104	0	62	12416
2026-01-01 03:32:08.95	69.06	51.98	-45.6	-56.7	3.8	8.45e-01	0	58	104	0	62	12455
2026-01-01 03:32:09.96	69.65	52.17	-45.6	-56.7	3.8	8.47e-01	0	59	104	0	62	12392
2026-01-01 03:32:10.97	70.24	52.35	-45.6	-56.7	3.8	8.46e-01	0	59	104	0	62	12401
2026-01-01 03:32:11.98	70.85	52.53	-45.6	-56.7	3.8	8.46e-01	0	58	104	0	62	12492
2026-01-01 03:32:12.99	71.46	52.71	-45.6	-56.7	3.8	8.46e-01	0	59	104	0	62	12477
2026-01-01 03:32:14.00	72.08	52.89	-45.6	-56.7	3.8	8.46e-01	0	58	104	0	62	12438
2026-01-01 03:32:15.01	72.70	53.07	-45.6	-56.7	3.8	8.46e-01	0	58	104	0	62	12409
2026-01-01 03:32:16.02	73.34	53.24	-45.5	-56.5	3.8	8.46e-01	0	59	104	0	62	12146
2026-01-01 03:32:17.04	73.98	53.41	-45.6	-56.7	3.8	8.47e-01	0	59	104	0	62	12381
2026-01-01 03:32:18.05	74.63	53.57	-45.6	-56.7	3.8	8.46e-01	0	59	104	0	62	12414
2026-01-01 03:32:19.06	75.29	53.74	-45.6	-56.7	3.8	8.46e-01	0	59	104	0	62	12380
2026-01-01 03:32:20.07	75.95	53.90	-45.6	-56.6	3.8	8.47e-01	0	59	104	0	62	12308
2026-01-01 03:32:21.08	76.62	54.05	-45.4	-55.9	3.8	8.46e-01	0	59	104	0	61	12043
2026-01-01 03:32:22.09	77.30	54.21	-45.4	-55.8	3.8	8.46e-01	0	58	104	0	61	11865
2026-01-01 03:32:23.10	77.98	54.36	-45.5	-56.5	3.8	8.46e-01	0	58	104	0	61	12824
2026-01-01 03:32:24.11	78.67	54.50	-45.5	-56.7	3.8	8.45e-01	0	59	104	0	61	13135
2026-01-01 03:32:25.12	79.37	54.64	-45.4	-55.8	3.8	8.46e-01	0	59	104	0	61	11857
2026-01-01 03:32:26.13	80.08	54.78	-45.2	-54.0	3.9	8.43e-01	0	59	104	0	61	9628
2026-01-01 03:32:27.14	80.79	54.91	-45.4	-55.5	3.8	8.45e-01	0	59	104	0	61	11465
2026-01-01 03:32:28.15	81.51	55.04	-42.8	-46.2	9.0	8.56e-02	0	59	0	2097152	56	5229
2026-01-01 03:32:29.17	82.24	55.17	-37.0	-38.3	16.9	0.00e+00	0	59	0	9437184	45	3991
2026-01-01 03:32:30.18	82.97	55.29	-33.7	-34.7	20.3	0.00e+00	0	58	0	16777216	38	3929
2026-01-01 03:32:31.19	83.71	55.41	-33.1	-34.0	21.0	0.00e+00	0	59	0	24117248	36	4078
2026-01-01 03:32:32.20	84.45	55.52	-33.0	-33.9	21.0	0.00e+00	0	59	0	31457280	36	4035
2026-01-01 03:32:33.21	85.20	55.63	-37.3	-38.7	16.5	0.00e+00	0	58	0	38797312	45	4155
2026-01-01 03:32:34.22	85.96	55.74	-39.5	-41.3	14.0	3.40e-06	0	58	0	46137344	50	4198
2026-01-01 03:32:35.23	86.72	55.83	-37.5	-38.9	16.2	1.25e-05	0	59	0	53477376	46	4027
2026-01-01 03:32:36.24	87.48	55.93	-41.0	-43.3	12.1	5.95e-05	0	59	0	60817408	51	5009
2026-01-01 03:32:37.25	88.26	56.02	-35.3	-36.4	18.7	0.00e+00	0	59	0	67108864	40	4268
2026-01-01 03:32:38.26	89.03	56.10	-34.7	-35.8	19.2	0.00e+00	0	58	0	75497472	40	3975
2026-01-01 03:32:39.27	89.81	56.18	-34.1	-35.1	20.0	0.00e+00	0	59	0	82837504	39	3893
2026-01-01 03:32:40.28	90.60	56.26	-33.6	-34.6	20.5	0.00e+00	0	59	0	89128960	38	3890
2026-01-01 03:32:41.29	91.39	56.33	-33.4	-34.4	20.7	0.00e+00	0	59	0	96468992	37	4022
2026-01-01 03:32:42.30	92.18	56.39	-33.5	-34.4	20.6	0.00e+00	0	59	0	103809024	37	4036
2026-01-01 03:32:43.31	92.98	56.45	-33.7	-34.7	20.4	0.00e+00	0	59	0	111149056	37	4169
2026-01-01 03:32:44.32	93.78	56.51	-33.9	-35.0	20.1	0.00e+00	0	59	0	118489088	37	4296
2026-01-01 03:32:45.33	94.58	56.55	-34.0	-35.0	20.1	0.00e+00	0	59	0	125829120	37	4331
2026-01-01 03:32:46.34	95.38	56.60	-33.7	-34.7	20.4	0.00e+00	0	59	0	133169152	37	4171
2026-01-01 03:32:47.35	96.19	56.64	-33.5	-34.4	20.6	0.00e+00	0	59	0	140509184	37	4045
2026-01-01 03:32:48.36	97.00	56.67	-33.4	-34.3	20.7	0.00e+00	0	59	0	147849216	37	3992
2026-01-01 03:32:49.37	97.81	56.70	-33.4	-34.3	20.7	0.00e+00	0	59	0	155189248	37	3996
2026-01-01 03:32:50.38	98.63	56.72	-33.3	-34.3	20.8	0.00e+00	0	59	0	162529280	37	3985
2026-01-01 03:32:51.39	99.44	56.73	-33.2	-34.1	20.9	0.00e+00	0	59	0	169869312	37	3912
2026-01-01 03:32:52.40	100.26	56.75	-33.3	-34.2	20.5	0.00e+00	0	59	0	177209344	37	3950
2026-01-01 03:32:53.41	101.07	56.75	-33.4	-34.4	20.6	0.00e+00	0	59	0	184549376	37	4024
2026-01-01 03:32:54.42	101.89	56.75	-33.6	-34.5	20.4	0.00e+00	0	59	0	191889408	37	4096
2026-01-01 03:32:55.43	102.70	56.75	-33.6	-34.6	20.4	0.00e+00	0	59	0	199229440	37	4132
2026-01-01 03:32:56.44	103.52	56.73	-33.7	-34.7	20.2	0.00e+00	0	59	0	206569472	37	4173
2026-01-01 03:32:57.45	104.33	56.72	-33.6	-34.6	20.4	0.00e+00	0	59	0	213909504	37	4130
2026-01-01 03:32:58.46	105.15	56.70	-33.4	-34.4	20.6	0.00e+00	0	59	0	221249536	37	4014
2026-01-01 03:32:59.47	105.96	56.67	-33.4	-34.4	20.6	0.00e+00	0	59	0	228589568	37	4013
2026-01-01 03:33:00.48	106.77	56.64	-33.5	-34.5	20.5	0.00e+00	0	59	0	235929600	37	4059
2026-01-01 03:33:01.49	107.58	56.60	-33.4	-34.4	20.6	0.00e+00	0	59	0	242221056	37	4018
2026-01-01 03:33:02.50	108.38	56.55	-33.5	-34.5	20.5	0.00e+00	0	59	0	249561088	37	4065
2026-01-01 03:33:03.51	109.19	56.50	-33.7	-34.7	20.2	0.00e+00	0	59	0	257949696	37	4184
2026-01-01 03:33:04.52	109.99	56.45	-33.5	-34.5	20.4	0.00e+00	0	59	0	264241152	37	4082
2026-01-01 03:33:05.53	110.78	56.39	-33.4	-34.4	20.6	0.00e+00	0	59	0	271581184	37	4030
2026-01-01 03:33:06.54	111.58	56.33	-33.3	-34.3	20.6	0.00e+00	0	59	0	278921216	37	3970
2026-01-01 03:33:07.55	112.37	56.26	-33.3	-34.3	20.7	0.00e+00	0	59	0	286261248	37	3981
2026-01-01 03:33:08.56	113.15	56.18	-33.3	-34.2	20.8	0.00e+00	0	58	0	293601280	37	3952
2026-01-01 03:33:09.57	113.93	56.10	-33.3	-34.3	20.7	0.00e+00	0	58	0	300941312	37	3960
2026-01-01 03:33:10.58	114.71	56.02	-33.3	-34.3	20.7	0.00e+00	0	58	0	308281344	37	3971
2026-01-01 03:33:11.59	115.48	55.93	-33.2	-34.2	20.7	0.00e+00	0	59	0	315621376	37	3937
2026-01-01 03:33:12.60	116.25	55.83	-33.3	-34.3	20.7	0.00e+00	0	59	0	322961408	37	3977
2026-01-01 03:33:13.61	117.01	55.73	-33.3	-34.3	20.6	0.00e+00	0	59	0	330301440	37	3965
2026-01-01 03:33:14.62	117.77	55.63	-33.3	-34.2	20.7	0.00e+00	0	59	0	337641472	37	3952
2026-01-01 03:33:15.63	118.52	55.52	-33.4	-34.3	20.6	0.00e+00	0	59	0	344981504	37	3989
2026-01-01 03:33:16.65	119.27	55.40	-33.6	-34.6	20.4	0.00e+00	0	59	0	352321536	37	4102
2026-01-01 03:33:17.66	120.01	55.29	-33.6	-34.5	20.4	0.00e+00	0	58	0	359661568	37	4094
2026-01-01 03:33:18.67	120.74	55.16	-33.5	-34.5	20.5	0.00e+00	0	59	0	367001600	37	4072
2026-01-01 03:33:19.68	121.47	55.04	-33.2	-34.2	20.8	0.00e+00	0	59	0	374341632	37	3920
2026-01-01 03:33:20.69	122.19	54.91	-33.0	-33.9	21.0	0.00e+00	0	59	0	381681664	37	3814
2026-01-01 03:33:21.70	122.90	54.77	-33.0	-34.0	21.0	0.00e+00	0	59	0	387973120	36	4058
2026-01-01 03:33:22.71	123.60	54.64	-33.2	-34.1	20.8	0.00e+00	0	59	0	396361728	36	4137
2026-01-01 03:33:23.72	124.30	54.49	-33.2	-34.2	20.7	0.00e+00	0	59	0	403701760	36	4159
2026-01-01 03:33:24.73	125.00	54.35	-33.5	-34.4	20.5	0.00e+00	0	58	0	409993216	36	4283
2026-01-01 03:33:25.74	125.68	54.20	-33.8	-34.9	20.0	0.00e+00	0	59	0	417333248	37	4260
2026-01-01 03:33:26.75	126.36	54.04	-33.7	-34.7	20.3	0.00e+00	0	59	0	424673280	37	4178
2026-01-01 03:33:27.76	127.03	53.89	-33.4	-34.4	20.5	0.00e+00	0	59	0	432013312	37	4022
2026-01-01 03:33:28.78	127.70	53.73	-33.4	-34.4	20.5	0.00e+00	0	59	0	439353344	37	4025
2026-01-01 03:33:29.78	128.35	53.56	-33.5	-34.5	20.5	0.00e+00	0	59	0	446693376	37	4053
2026-01-01 03:33:30.79	129.00	53.40	-33.6	-34.6	20.4	0.00e+00	0	59	0	454033408	37	4108
2026-01-01 03:33:31.80	129.64	53.23	-33.7	-34.7	20.3	0.00e+00	0	59	0	461373440	37	4152
2026-01-01 03:33:32.82	130.28	53.05	-33.4	-34.4	20.6	0.00e+00	0	59	0	468713472	37	4014
2026-01-01 03:33:33.82	130.90	52.88	-33.2	-34.2	20.8	0.00e+00	0	59	0	476053504	37	3914
2026-01-01 03:33:34.83	131.52	52.70	-33.1	-34.0	20.9	0.00e+00	0	59	0	483393536	37	3848
2026-01-01 03:33:35.85	132.14	52.52	-33.3	-34.2	20.7	0.00e+00	0	59	0	490733568	37	3955
2026-01-01 03:33:36.86	132.75	52.34	-33.3	-34.3	20.7	0.00e+00	0	59	0	498073600	37	3963
2026-01-01 03:33:37.86	133.34	52.15	-33.5	-34.5	20.5	0.00e+00	0	59	0	505413632	37	4088
2026-01-01 03:33:38.87	133.93	51.96	-33.6	-34.6	20.4	0.00e+00	0	59	0	512753664	37	4142
2026-01-01 03:33:39.88	134.51	51.77	-33.5	-34.5	20.5	0.00e+00	0	59	0	520093696	37	4064
2026-01-01 03:33:40.90	135.09	51.58	-33.3	-34.2	20.7	0.00e+00	0	59	0	527433728	37	3946
2026-01-01 03:33:41.91	135.66	51.38	-33.2	-34.1	20.8	0.00e+00	0	59	0	533725184	37	3905
2026-01-01 03:33:42.92	136.22	51.18	-33.4	-34.4	20.6	0.00e+00	0	59	0	542113792	37	4032
2026-01-01 03:33:43.93	136.77	50.99	-33.8	-34.9	20.1	0.00e+00	0	59	0	549453824	37	4246
2026-01-01 03:33:44.94	137.32	50.78	-34.0	-35.0	20.0	0.00e+00	0	59	0	556793856	37	4330
2026-01-01 03:33:45.95	137.85	50.58	-33.8	-34.8	20.2	0.00e+00	0	59	0	563085312	37	4202
2026-01-01 03:33:46.96	138.39	50.38	-33.5	-34.5	20.5	0.00e+00	0	59	0	571473920	37	4071
2026-01-01 03:33:47.97	138.91	50.17	-33.5	-34.5	20.6	0.00e+00	0	59	0	578813952	37	4054
2026-01-01 03:33:48.98	139.43	49.96	-33.5	-34.5	20.4	0.00e+00	0	59	0	585105408	37	4075
2026-01-01 03:33:49.99	139.94	49.75	-33.5	-34.5	20.6	0.00e+00	0	59	0	592445440	37	4067
2026-01-01 03:33:51.00	140.44	49.54	-33.4	-34.4	20.7	0.00e+00	0	59	0	599785472	37	4006
2026-01-01 03:33:52.01	140.94	49.33	-33.2	-34.2	20.8	0.00e+00	0	59	0	607125504	37	3926
2026-01-01 03:33:53.02	141.43	49.12	-33.0	-34.0	21.0	0.00e+00	0	58	0	614465536	37	3845
2026-01-01 03:33:54.03	141.91	48.91	-32.9	-33.8	21.0	0.00e+00	0	59	0	621805568	36	3989
2026-01-01 03:33:55.04	142.39	48.69	-32.9	-33.9	21.0	0.00e+00	0	59	0	629145600	36	4010
2026-01-01 03:33:56.05	142.86	48.47	-32.8	-33.7	21.0	0.00e+00	0	59	0	636485632	36	3950
2026-01-01 03:33:57.07	143.32	48.26	-33.0	-33.9	21.1	0.00e+00	0	59	0	643825664	36	4038
2026-01-01 03:33:58.08	143.78	48.04	-33.2	-34.1	20.9	0.00e+00	0	59	0	651165696	36	4126
2026-01-01 03:33:59.09	144.23	47.82	-33.3	-34.3	20.6	0.00e+00	0	59	0	658505728	36	4215
2026-01-01 03:34:00.10	144.68	47.60	-33.4	-34.4	20.6	0.00e+00	0	59	0	665845760	36	4283
2026-01-01 03:34:01.11	145.11	47.38	-33.2	-34.2	20.9	0.00e+00	0	59	0	673185792	36	4164
2026-01-01 03:34:02.12	145.55	47.16	-32.9	-33.8	21.0	0.00e+00	0	59	0	680525824	36	3997
2026-01-01 03:34:03.13	145.97	46.94	-32.7	-33.6	21.3	0.00e+00	0	59	0	687865856	36	3898
2026-01-01 03:34:04.14	146.39	46.72	-32.6	-33.5	21.3	0.00e+00	0	59	0	695205888	36	3851
2026-01-01 03:34:05.15	146.81	46.49	-31.9	-32.8	21.3	0.00e+00	0	59	0	702545920	34	3996
2026-01-01 03:34:06.16	147.21	46.27	-31.8	-32.8	21.3	0.00e+00	0	59	0	709885952	34	3968
2026-01-01 03:34:07.17	147.62	46.05	-31.8	-32.8	21.3	0.00e+00	0	59	0	717225984	34	3964
2026-01-01 03:34:08.18	148.01	45.83	-31.7	-32.6	21.5	0.00e+00	0	59	0	724566016	34	3888
2026-01-01 03:34:09.19	148.41	45.60	-31.7	-32.6	21.5	0.00e+00	0	59	0	730857472	34	3889
2026-01-01 03:34:10.20	148.79	45.38	-31.8	-32.7	21.4	0.00e+00	0	59	0	738197504	34	3938
2026-01-01 03:34:11.21	149.17	45.15	-31.8	-32.8	21.3	0.00e+00	0	59	0	746586112	34	3972
2026-01-01 03:34:12.23	149.55	44.93	-31.8	-32.7	21.4	0.00e+00	0	59	0	752877568	34	3938
2026-01-01 03:34:13.23	149.92	44.71	-31.7	-32.6	21.5	0.00e+00	0	59	0	760217600	34	3876
2026-01-01 03:34:14.25	150.29	44.48	-31.6	-32.5	21.6	0.00e+00	0	59	0	767557632	34	3829
2026-01-01 03:34:15.26	150.65	44.26	-31.5	-32.4	21.7	0.00e+00	0	59	0	774897664	33	4006
2026-01-01 03:34:16.27	151.00	44.03	-31.3	-32.2	21.8	0.00e+00	0	59	0	782237696	33	3942
2026-01-01 03:34:17.28	151.36	43.81	-31.2	-32.1	21.9	0.00e+00	0	59	0	789577728	33	3880
2026-01-01 03:34:18.29	151.70	43.59	-31.1	-32.0	22.0	0.00e+00	0	59	0	796917760	33	3858
2026-01-01 03:34:19.30	152.04	43.36	-31.2	-32.1	22.0	0.00e+00	0	59	0	804257792	33	3883
2026-01-01 03:34:20.31	152.38	43.14	-31.4	-32.3	21.6	0.00e+00	0	59	0	811597824	33	3971
2026-01-01 03:34:21.32	152.71	42.92	-31.6	-32.5	21.6	0.00e+00	0	58	0	818937856	33	4055
2026-01-01 03:34:22.33	153.04	42.69	-31.7	-32.6	21.5	0.00e+00	0	59	0	826277888	33	4130
2026-01-01 03:34:23.34	153.36	42.47	-31.7	-32.7	21.4	0.00e+00	0	59	0	833617920	33	4147
2026-01-01 03:34:24.35	153.68	42.25	-31.6	-32.5	21.5	0.00e+00	0	59	0	840957952	33	4093
2026-01-01 03:34:25.36	153.99	42.03	-31.6	-32.5	21.0	0.00e+00	0	59	0	848297984	33	4092
2026-01-01 03:34:26.37	154.30	41.81	-31.4	-32.3	21.7	0.00e+00	0	59	0	855638016	33	3993
2026-01-01 03:34:27.38	154.61	41.59	-31.4	-32.3	21.7	0.00e+00	0	59	0	862978048	33	3987
2026-01-01 03:34:28.39	154.91	41.37	-31.3	-32.2	21.8	0.00e+00	0	59	0	870318080	33	3942
2026-01-01 03:34:29.40	155.21	41.15	-31.4	-32.3	21.7	0.00e+00	0	59	0	877658112	33	3984
2026-01-01 03:34:30.41	155.50	40.93	-31.4	-32.3	21.7	0.00e+00	0	59	0	884998144	33	3962
2026-01-01 03:34:31.42	155.79	40.71	-31.3	-32.2	21.7	0.00e+00	0	59	0	892338176	33	3957
2026-01-01 03:34:32.43	156.08	40.49	-31.5	-32.4	21.6	0.00e+00	0	59	0	899678208	33	4015
2026-01-01 03:34:33.44	156.36	40.27	-31.6	-32.5	21.5	0.00e+00	0	59	0	905969664	33	4072
2026-01-01 03:34:34.45	156.64	40.05	-31.6	-32.5	21.5	0.00e+00	0	59	0	913309696	33	4098
2026-01-01 03:34:35.46	156.91	39.84	-31.7	-32.6	21.4	0.00e+00	0	59	0	921698304	33	4112
2026-01-01 03:34:36.47	157.18	39.62	-31.8	-32.7	21.2	0.00e+00	0	59	0	927989760	33	4178
2026-01-01 03:34:37.49	157.46	39.40	-31.7	-32.7	21.4	0.00e+00	0	59	0	935329792	33	4151
2026-01-01 03:34:38.49	157.72	39.19	-31.7	-32.6	21.5	0.00e+00	0	59	0	942669824	33	4119
2026-01-01 03:34:39.51	157.98	38.98	-31.5	-32.4	21.6	0.00e+00	0	59	0	950009856	33	4046
2026-01-01 03:34:40.52	158.24	38.76	-31.4	-32.3	21.6	0.00e+00	0	59	0	957349888	33	3995
2026-01-01 03:34:41.53	158.49	38.55	-31.3	-32.2	21.7	0.00e+00	0	59	0	964689920	33	3944
2026-01-01 03:34:42.54	158.74	38.34	-31.2	-32.1	21.9	0.00e+00	0	59	0	972029952	33	3909
2026-01-01 03:34:43.55	158.99	38.13	-31.3	-32.2	21.8	0.00e+00	0	59	0	979369984	33	3931
2026-01-01 03:34:44.56	159.24	37.92	-31.3	-32.2	21.8	0.00e+00	0	59	0	986710016	33	3932
2026-01-01 03:34:45.57	159.48	37.71	-31.3	-32.2	21.8	0.00e+00	0	59	0	994050048	33	3942
2026-01-01 03:34:46.58	159.72	37.50	-31.4	-32.3	21.6	0.00e+00	0	59	0	1001390080	33	3996
2026-01-01 03:34:47.59	159.95	37.29	-31.4	-32.3	21.7	0.00e+00	0	59	0	1008730112	33	3990
2026-01-01 03:34:48.60	160.18	37.08	-31.4	-32.3	21.5	0.00e+00	0	59	0	1016070144	33	3978
2026-01-01 03:34:49.61	160.41	36.88	-31.3	-32.3	21.7	0.00e+00	0	59	0	1023410176	33	3960
2026-01-01 03:34:50.62	160.64	36.67	-31.3	-32.3	21.8	0.00e+00	0	59	0	1030750208	33	3961
2026-01-01 03:34:51.63	160.87	36.47	-31.3	-32.2	21.7	0.00e+00	0	59	0	1038090240	33	3954
2026-01-01 03:34:52.64	161.09	36.26	-31.3	-32.3	21.8	0.00e+00	0	59	0	1045430272	33	3962
2026-01-01 03:34:53.66	161.31	36.06	-31.4	-32.3	21.7	0.00e+00	0	59	0	1051721728	33	3986
2026-01-01 03:34:54.67	161.52	35.85	-31.5	-32.4	21.6	0.00e+00	0	59	0	1060110336	33	4031
2026-01-01 03:34:55.67	161.74	35.65	-31.5	-32.5	21.6	0.00e+00	0	59	0	1067450368	33	4060
2026-01-01 03:34:56.68	161.95	35.45	-31.5	-32.4	21.5	0.00e+00	0	59	0	1073741824	33	4046
2026-01-01 03:34:57.70	162.16	35.25	-31.4	-32.3	21.6	0.00e+00	0	59	0	1081081856	33	3968
2026-01-01 03:34:58.71	162.36	35.05	-31.3	-32.2	21.8	0.00e+00	0	59	0	1088421888	33	3943
2026-01-01 03:34:59.72	162.57	34.85	-31.1	-32.0	21.9	0.00e+00	0	59	0	1095761920	33	3859
2026-01-01 03:35:00.73	162.77	34.66	-31.0	-31.9	22.0	0.00e+00	0	59	0	1103101952	33	3804
2026-01-01 03:35:01.74	162.97	34.46	-30.9	-31.8	22.1	0.00e+00	0	59	0	1110441984	32	3991
2026-01-01 03:35:02.75	163.16	34.26	-30.9	-31.8	22.2	0.00e+00	0	59	0	1117782016	32	3971
2026-01-01 03:35:03.76	163.36	34.07	-30.9	-31.8	22.2	0.00e+00	0	59	0	1125122048	32	3965
2026-01-01 03:35:04.77	163.55	33.88	-30.9	-31.8	22.0	0.00e+00	0	59	0	1132462080	32	3976
2026-01-01 03:35:05.78	163.74	33.68	-31.0	-31.9	22.1	0.00e+00	0	59	0	1139802112	32	4027
2026-01-01 03:35:06.79	163.93	33.49	-31.1	-32.0	21.7	0.00e+00	0	59	0	1147142144	32	4071
2026-01-01 03:35:07.80	164.11	33.30	-31.3	-32.2	21.8	0.00e+00	0	59	0	1154482176	32	4153
2026-01-01 03:35:08.81	164.30	33.11	-31.4	-32.3	21.7	0.00e+00	0	59	0	1161822208	32	4211
2026-01-01 03:35:09.82	164.48	32.92	-31.4	-32.3	21.6	0.00e+00	0	59	0	1169162240	32	4224
2026-01-01 03:35:10.83	164.66	32.73	-31.4	-32.3	21.7	0.00e+00	0	59	0	1176502272	32	4218
2026-01-01 03:35:11.84	164.83	32.54	-31.3	-32.2	21.7	0.00e+00	0	59	0	1183842304	32	4191
2026-01-01 03:35:12.85	165.01	32.36	-31.2	-32.1	21.8	0.00e+00	0	59	0	1191182336	32	4123
2026-01-01 03:35:13.86	165.18	32.17	-31.1	-32.0	22.0	0.00e+00	0	59	0	1198522368	32	4066
2026-01-01 03:35:14.87	165.35	31.98	-31.0	-31.9	22.1	0.00e+00	0	59	0	1205862400	32	4032
2026-01-01 03:35:15.88	165.52	31.80	-30.9	-31.8	22.1	0.00e+00	0	58	0	1213202432	32	3976
2026-01-01 03:35:16.90	165.69	31.62	-30.8	-31.7	22.2	0.00e+00	0	59	0	1220542464	32	3944
2026-01-01 03:35:17.91	165.86	31.43	-30.8	-31.7	22.2	0.00e+00	0	59	0	1226833920	32	3930
2026-01-01 03:35:18.92	166.02	31.25	-30.8	-31.7	22.1	0.00e+00	0	58	0	1235222528	32	3943
2026-01-01 03:35:19.92	166.18	31.07	-30.8	-31.7	22.1	0.00e+00	0	59	0	1242562560	32	3942
2026-01-01 03:35:20.94	166.34	30.89	-30.9	-31.8	22.1	0.00e+00	0	59	0	1248854016	32	3996
2026-01-01 03:35:21.95	166.50	30.71	-31.0	-31.9	22.0	0.00e+00	0	59	0	1256194048	32	4021
2026-01-01 03:35:22.96	166.66	30.53	-31.0	-31.9	22.0	0.00e+00	0	59	0	1263534080	32	4031
2026-01-01 03:35:23.97	166.81	30.36	-31.1	-32.0	21.9	0.00e+00	0	59	0	1270874112	32	4081
2026-01-01 03:35:24.98	166.97	30.18	-31.1	-32.1	21.9	0.00e+00	0	59	0	1278214144	32	4099
2026-01-01 03:35:25.99	167.12	30.00	-31.2	-32.1	21.8	0.00e+00	0	59	0	1285554176	32	4117
2026-01-01 03:35:27.00	167.27	29.83	-31.2	-32.1	21.8	0.00e+00	0	59	0	1292894208	32	4138
2026-01-01 03:35:28.01	167.42	29.66	-31.3	-32.2	21.7	0.00e+00	0	59	0	1300234240	32	4168
2026-01-01 03:35:29.02	167.56	29.48	-31.3	-32.2	21.7	0.00e+00	0	59	0	1307574272	32	4187
2026-01-01 03:35:30.03	167.71	29.31	-31.4	-32.3	21.7	0.00e+00	0	59	0	1314914304	32	4218
2026-01-01 03:35:31.04	167.85	29.14	-31.3	-32.3	21.5	0.00e+00	0	59	0	1322254336	32	4195
2026-01-01 03:35:32.05	168.00	28.97	-31.4	-32.3	21.6	0.00e+00	0	59	0	1329594368	32	4227
2026-01-01 03:35:33.06	168.14	28.80	-31.4	-32.3	21.6	0.00e+00	0	59	0	1336934400	32	4238
2026-01-01 03:35:34.07	168.28	28.63	-31.4	-32.3	21.6	0.00e+00	0	59	0	1344274432	32	4240
2026-01-01 03:35:35.08	168.42	28.46	-31.4	-32.3	21.6	0.00e+00	0	59	0	1351614464	32	4216
2026-01-01 03:35:36.09	168.55	28.30	-31.4	-32.3	21.6	0.00e+00	0	59	0	1358954496	32	4236
2026-01-01 03:35:37.10	168.69	28.13	-31.4	-32.4	21.6	0.00e+00	0	59	0	1366294528	32	4251
2026-01-01 03:35:38.11	168.82	27.96	-31.5	-32.4	21.6	0.00e+00	0	59	0	1373634560	32	4253
2026-01-01 03:35:39.12	168.96	27.80	-31.5	-32.4	21.5	0.00e+00	0	59	0	1380974592	32	4266
2026-01-01 03:35:40.13	169.09	27.64	-31.5	-32.5	21.4	0.00e+00	0	59	0	1388314624	32	4299
2026-01-01 03:35:41.14	169.22	27.47	-31.6	-32.5	21.4	0.00e+00	0	59	0	1394606080	32	4306
2026-01-01 03:35:42.15	169.35	27.31	-31.6	-32.5	21.4	0.00e+00	0	59	0	1401946112	32	4324
2026-01-01 03:35:43.17	169.48	27.15	-31.6	-32.5	21.4	0.00e+00	0	59	0	1410334720	32	4308
2026-01-01 03:35:44.18	169.60	26.99	-31.5	-32.4	21.3	0.00e+00	0	59	0	1416626176	32	4286
2026-01-01 03:35:45.19	169.73	26.83	-31.5	-32.4	21.5	0.00e+00	0	59	0	1423966208	32	4275
2026-01-01 03:35:46.20	169.85	26.67	-31.5	-32.4	21.5	0.00e+00	0	59	0	1431306240	32	4266
2026-01-01 03:35:47.21	169.98	26.51	-31.5	-32.4	21.4	0.00e+00	0	59	0	1438646272	32	4260
2026-01-01 03:35:48.22	170.10	26.35	-31.4	-32.3	21.4	0.00e+00	0	59	0	1445986304	32	4203
2026-01-01 03:35:49.23	170.22	26.20	-31.4	-32.3	21.6	0.00e+00	0	59	0	1453326336	32	4216
2026-01-01 03:35:50.24	170.34	26.04	-31.4	-32.3	21.4	0.00e+00	0	59	0	1460666368	32	4241
2026-01-01 03:35:51.25	170.46	25.89	-31.4	-32.3	21.6	0.00e+00	0	59	0	1468006400	32	4205
2026-01-01 03:35:52.26	170.57	25.73	-31.4	-32.3	21.6	0.00e+00	0	59	0	1475346432	32	4209
2026-01-01 03:35:53.27	170.69	25.58	-31.4	-32.3	21.6	0.00e+00	0	59	0	1482686464	32	4216
2026-01-01 03:35:54.28	170.80	25.43	-31.4	-32.3	21.6	0.00e+00	0	59	0	1490026496	32	4215
2026-01-01 03:35:55.29	170.92	25.27	-31.3	-32.3	21.6	0.00e+00	0	59	0	1497366528	32	4194
2026-01-01 03:35:56.30	171.03	25.12	-31.3	-32.3	21.6	0.00e+00	0	59	0	1504706560	32	4197
2026-01-01 03:35:57.31	171.14	24.97	-31.3	-32.2	21.6	0.00e+00	0	59	0	1512046592	32	4186
2026-01-01 03:35:58.33	171.25	24.82	-31.3	-32.2	21.6	0.00e+00	0	59	0	1519386624	32	4185
2026-01-01 03:35:59.34	171.36	24.67	-31.3	-32.2	21.6	0.00e+00	0	59	0	1526726656	32	4190
2026-01-01 03:36:00.35	171.47	24.52	-31.3	-32.2	21.6	0.00e+00	0	59	0	1534066688	32	4187
2026-01-01 03:36:01.36	171.58	24.38	-31.4	-32.3	21.6	0.00e+00	0	59	0	1541406720	32	4208
2026-01-01 03:36:02.37	171.69	24.23	-31.4	-32.3	21.6	0.00e+00	0	59	0	1548746752	32	4226
2026-01-01 03:36:03.38	171.79	24.08	-31.4	-32.4	21.5	0.00e+00	0	59	0	1556086784	32	4253
2026-01-01 03:36:04.39	171.90	23.94	-31.5	-32.5	21.4	0.00e+00	0	59	0	1563426816	32	4292
2026-01-01 03:36:05.40	172.00	23.79	-31.6	-32.5	21.4	0.00e+00	0	59	0	1569718272	32	4320
2026-01-01 03:36:06.41	172.11	23.65	-31.6	-32.5	21.3	0.00e+00	0	59	0	1578106880	32	4339
2026-01-01 03:36:07.42	172.21	23.51	-31.7	-32.6	21.2	0.00e+00	0	59	0	1585446912	32	4378
2026-01-01 03:36:08.43	172.31	23.37	-31.7	-32.7	21.2	0.00e+00	0	59	0	1591738368	33	4154
2026-01-01 03:36:09.44	172.41	23.22	-31.8	-32.7	21.0	0.00e+00	0	59	0	1599078400	33	4180
2026-01-01 03:36:10.45	172.51	23.08	-31.8	-32.7	21.1	0.00e+00	0	58	0	1606418432	33	4177
2026-01-01 03:36:11.46	172.61	22.94	-31.8	-32.7	20.9	0.00e+00	0	59	0	1613758464	33	4179
2026-01-01 03:36:12.47	172.71	22.80	-31.8	-32.7	21.1	0.00e+00	0	59	0	1621098496	33	4191
2026-01-01 03:36:13.48	172.80	22.66	-31.8	-32.7	21.1	0.00e+00	0	59	0	1628438528	33	4190
2026-01-01 03:36:14.50	172.90	22.52	-31.8	-32.8	21.0	0.00e+00	0	59	0	1635778560	33	4204
2026-01-01 03:36:15.51	173.00	22.39	-31.8	-32.7	21.1	0.00e+00	0	59	0	1643118592	33	4187
2026-01-01 03:36:16.52	173.09	22.25	-31.8	-32.8	21.0	0.00e+00	0	59	0	1650458624	33	4201
2026-01-01 03:36:17.53	173.18	22.11	-31.8	-32.8	21.1	0.00e+00	0	59	0	1657798656	33	4206
2026-01-01 03:36:18.54	173.28	21.98	-31.8	-32.8	21.1	0.00e+00	0	59	0	1665138688	33	4196
2026-01-01 03:36:19.55	173.37	21.84	-31.8	-32.7	21.0	0.00e+00	0	59	0	1672478720	33	4191
2026-01-01 03:36:20.56	173.46	21.71	-31.9	-32.8	20.9	0.00e+00	0	59	0	1679818752	33	4233
2026-01-01 03:36:21.57	173.55	21.57	-31.9	-32.8	21.0	0.00e+00	0	59	0	1687158784	33	4214
2026-01-01 03:36:22.58	173.64	21.44	-31.9	-32.8	21.0	0.00e+00	0	59	0	1694498816	33	4233
2026-01-01 03:36:23.59	173.73	21.31	-31.9	-32.8	20.9	0.00e+00	0	59	0	1701838848	33	4222
2026-01-01 03:36:24.60	173.82	21.18	-31.9	-32.9	20.9	0.00e+00	0	59	0	1709178880	33	4245
2026-01-01 03:36:25.61	173.91	21.05	-31.9	-32.9	20.9	0.00e+00	0	59	0	1715470336	33	4261
2026-01-01 03:36:26.62	173.99	20.91	-32.0	-32.9	20.9	0.00e+00	0	59	0	1723858944	33	4271
2026-01-01 03:36:27.63	174.08	20.78	-32.0	-32.9	20.9	0.00e+00	0	59	0	1731198976	33	4276
2026-01-01 03:36:28.64	174.17	20.66	-32.0	-33.0	20.8	0.00e+00	0	59	0	1737490432	33	4308
2026-01-01 03:36:29.65	174.25	20.53	-32.0	-33.0	20.8	0.00e+00	0	59	0	1744830464	33	4313
2026-01-01 03:36:30.66	174.34	20.40	-32.1	-33.1	20.7	0.00e+00	0	59	0	1753219072	33	4349
2026-01-01 03:36:31.67	174.42	20.27	-32.1	-33.1	20.6	0.00e+00	0	59	0	1759510528	33	4365
2026-01-01 03:36:32.68	174.50	20.14	-32.2	-33.2	20.6	0.00e+00	0	59	0	1766850560	33	4398
2026-01-01 03:36:33.69	174.58	20.02	-32.2	-33.2	20.6	0.00e+00	0	59	0	1774190592	34	4173
2026-01-01 03:36:34.70	174.67	19.89	-32.3	-33.3	20.5	0.00e+00	0	59	0	1781530624	34	4199
2026-01-01 03:36:35.71	174.75	19.77	-32.3	-33.3	20.5	0.00e+00	0	59	0	1788870656	34	4214
2026-01-01 03:36:36.73	174.83	19.64	-32.3	-33.3	20.4	0.00e+00	0	59	0	1796210688	34	4228
2026-01-01 03:36:37.74	174.91	19.52	-32.4	-33.4	20.3	0.00e+00	0	59	0	1803550720	34	4264
2026-01-01 03:36:38.75	174.99	19.39	-32.5	-33.5	20.3	0.00e+00	0	59	0	1810890752	34	4309
2026-01-01 03:36:39.76	175.07	19.27	-32.5	-33.5	20.2	0.00e+00	0	59	0	1818230784	34	4317
2026-01-01 03:36:40.77	175.14	19.15	-32.5	-33.5	20.2	0.00e+00	0	59	0	1825570816	34	4313
2026-01-01 03:36:41.78	175.22	19.03	-32.6	-33.6	20.1	0.00e+00	0	59	0	1832910848	34	4364
2026-01-01 03:36:42.79	175.30	18.90	-32.8	-33.8	20.0	0.00e+00	0	59	0	1840250880	35	4204
2026-01-01 03:36:43.80	175.37	18.78	-32.7	-33.7	20.1	0.00e+00	0	59	0	1847590912	35	4158
2026-01-01 03:36:44.81	175.45	18.66	-32.6	-33.6	20.1	0.00e+00	0	59	0	1854930944	35	4139
2026-01-01 03:36:45.82	175.52	18.54	-32.5	-33.5	20.2	0.00e+00	0	59	0	1862270976	35	4082
2026-01-01 03:36:46.84	175.60	18.42	-32.5	-33.5	20.2	0.00e+00	0	59	0	1869611008	35	4089
2026-01-01 03:36:47.85	175.67	18.30	-32.6	-33.6	20.2	0.00e+00	0	59	0	1876951040	35	4105
2026-01-01 03:36:48.85	175.75	18.19	-32.6	-33.6	20.1	0.00e+00	0	59	0	1883242496	35	4138
2026-01-01 03:36:49.87	175.82	18.07	-32.8	-33.8	19.9	0.00e+00	0	59	0	1891631104	35	4212
2026-01-01 03:36:50.88	175.89	17.95	-32.8	-33.8	19.9	0.00e+00	0	59	0	1898971136	35	4209
2026-01-01 03:36:51.89	175.96	17.84	-32.8	-33.8	20.0	0.00e+00	0	59	0	1905262592	35	4207
2026-01-01 03:36:52.90	176.04	17.72	-32.7	-33.7	20.1	0.00e+00	0	59	0	1912602624	35	4152
2026-01-01 03:36:53.90	176.11	17.60	-32.6	-33.6	20.1	0.00e+00	0	59	0	1919942656	35	4137
2026-01-01 03:36:54.91	176.18	17.49	-32.6	-33.6	20.0	0.00e+00	0	59	0	1927282688	35	4140
2026-01-01 03:36:55.92	176.25	17.38	-32.7	-33.7	20.1	0.00e+00	0	59	0	1934622720	35	4155
2026-01-01 03:36:56.93	176.31	17.26	-32.7	-33.7	20.0	0.00e+00	0	59	0	1941962752	35	4185
2026-01-01 03:36:57.94	176.38	17.15	-32.7	-33.7	20.0	0.00e+00	0	59	0	1949302784	35	4189
2026-01-01 03:36:58.95	176.45	17.03	-32.8	-33.8	20.0	0.00e+00	0	59	0	1956642816	35	4202
2026-01-01 03:36:59.96	176.52	16.92	-32.9	-33.9	19.8	0.00e+00	0	59	0	1963982848	35	4262
2026-01-01 03:37:00.98	176.59	16.81	-32.9	-34.0	19.8	0.00e+00	0	59	0	1971322880	35	4293
2026-01-01 03:37:01.99	176.65	16.70	-33.0	-34.0	19.7	0.00e+00	0	59	0	1978662912	35	4312
2026-01-01 03:37:03.00	176.72	16.59	-33.1	-34.1	19.6	0.00e+00	0	59	0	1986002944	35	4361
2026-01-01 03:37:04.01	176.79	16.48	-33.0	-34.0	19.7	0.00e+00	0	59	0	1993342976	35	4337
2026-01-01 03:37:05.02	176.85	16.37	-33.1	-34.2	19.5	0.00e+00	0	59	0	2000683008	35	4416
2026-01-01 03:37:06.03	176.92	16.26	-33.2	-34.2	19.5	0.00e+00	0	59	0	2008023040	35	4419
2026-01-01 03:37:07.04	176.98	16.15	-33.9	-35.0	19.5	0.00e+00	0	59	0	2015363072	37	4313
2026-01-01 03:37:08.05	177.05	16.04	-34.0	-35.0	19.5	0.00e+00	0	59	0	2022703104	37	4320
2026-01-01 03:37:09.06	177.11	15.93	-34.0	-35.0	19.5	0.00e+00	0	59	0	2030043136	37	4333
2026-01-01 03:37:10.07	177.17	15.82	-34.1	-35.1	19.4	0.00e+00	0	59	0	2037383168	37	4377
2026-01-01 03:37:11.08	177.23	15.71	-33.9	-34.9	19.5	0.00e+00	0	59	0	2044723200	37	4290
2026-01-01 03:37:12.09	177.30	15.61	-33.7	-34.7	19.7	0.00e+00	0	59	0	2052063232	37	4191
2026-01-01 03:37:13.10	177.36	15.50	-33.7	-34.7	19.7	0.00e+00	0	59	0	2058354688	37	4187
2026-01-01 03:37:14.11	177.42	15.39	-33.7	-34.8	19.7	0.00e+00	0	59	0	2066743296	37	4202
2026-01-01 03:37:15.12	177.48	15.29	-33.8	-34.8	19.6	0.00e+00	0	59	0	2074083328	37	4229
2026-01-01 03:37:16.13	177.54	15.18	-33.9	-35.0	19.5	0.00e+00	0	59	0	2080374784	37	4301
2026-01-01 03:37:17.14	177.60	15.08	-33.9	-34.9	19.6	0.00e+00	0	59	0	2087714816	37	4267
2026-01-01 03:37:18.15	177.66	14.97	-33.8	-34.9	19.6	0.00e+00	0	59	0	2095054848	37	4260
2026-01-01 03:37:19.16	177.72	14.87	-33.9	-34.9	19.5	0.00e+00	0	59	0	2102394880	37	4280
2026-01-01 03:37:20.17	177.78	14.77	-33.9	-35.0	19.5	0.00e+00	0	59	0	2109734912	37	4311
2026-01-01 03:37:21.19	177.84	14.66	-34.1	-35.1	19.3	0.00e+00	0	59	0	2117074944	37	4374
2026-01-01 03:37:22.20	177.90	14.56	-34.1	-35.1	19.3	0.00e+00	0	59	0	2124414976	37	4383
2026-01-01 03:37:23.21	177.96	14.46	-34.0	-35.0	19.4	0.00e+00	0	59	0	2131755008	37	4340
2026-01-01 03:37:24.22	178.01	14.36	-34.0	-35.1	19.4	0.00e+00	0	59	0	2139095040	37	4354
2026-01-01 03:37:25.23	178.07	14.25	-33.9	-35.0	19.4	0.00e+00	0	59	0	2146435072	37	4310
2026-01-01 03:37:26.24	178.13	14.15	-34.0	-35.1	19.4	0.00e+00	0	59	0	2153775104	37	4356
2026-01-01 03:37:27.25	178.18	14.05	-34.0	-35.0	19.4	0.00e+00	0	59	0	2161115136	37	4335
2026-01-01 03:37:28.26	178.24	13.95	-34.0	-35.1	19.4	0.00e+00	0	59	0	2168455168	37	4348
2026-01-01 03:37:29.27	178.30	13.85	-34.0	-35.1	19.3	0.00e+00	0	59	0	2175795200	37	4378
2026-01-01 03:37:30.28	178.35	13.75	-34.0	-35.1	19.3	0.00e+00	0	59	0	2183135232	37	4365
2026-01-01 03:37:31.29	178.41	13.65	-34.0	-35.1	19.3	0.00e+00	0	59	0	2190475264	37	4371
2026-01-01 03:37:32.30	178.46	13.55	-34.1	-35.1	19.3	0.00e+00	0	59	0	2197815296	37	4388
2026-01-01 03:37:33.31	178.52	13.46	-34.1	-35.1	19.3	0.00e+00	0	59	0	2205155328	37	4375
2026-01-01 03:37:34.33	178.57	13.36	-34.1	-35.2	19.2	0.00e+00	0	59	0	2212495360	37	4424
2026-01-01 03:37:35.34	178.62	13.26	-34.2	-35.3	19.2	0.00e+00	0	59	0	2219835392	37	4451
2026-01-01 03:37:36.35	178.68	13.16	-34.2	-35.3	19.1	0.00e+00	0	59	0	2226126848	37	4449
2026-01-01 03:37:37.36	178.73	13.06	-34.2	-35.3	19.1	0.00e+00	0	59	0	2233466880	37	4454
2026-01-01 03:37:38.37	178.78	12.97	-34.3	-35.4	19.0	0.00e+00	0	59	0	2241855488	38	4255
2026-01-01 03:37:39.38	178.84	12.87	-34.4	-35.5	18.9	0.00e+00	0	59	0	2248146944	38	4313
2026-01-01 03:37:40.39	178.89	12.78	-34.4	-35.5	18.9	0.00e+00	0	59	0	2255486976	38	4340
2026-01-01 03:37:41.40	178.94	12.68	-34.4	-35.5	18.9	0.00e+00	0	59	0	2262827008	38	4301
2026-01-01 03:37:42.41	178.99	12.59	-34.4	-35.5	18.8	0.00e+00	0	59	0	2270167040	38	4337
2026-01-01 03:37:43.42	179.04	12.49	-34.5	-35.6	18.7	0.00e+00	0	59	0	2277507072	38	4385
2026-01-01 03:37:44.43	179.09	12.40	-34.5	-35.6	18.8	0.00e+00	0	59	0	2284847104	38	4372
2026-01-01 03:37:45.44	179.14	12.30	-34.6	-35.7	18.7	0.00e+00	0	59	0	2292187136	38	4422
2026-01-01 03:37:46.45	179.19	12.21	-34.7	-35.8	18.6	0.00e+00	0	59	0	2299527168	38	4462
2026-01-01 03:37:47.46	179.24	12.11	-34.7	-35.8	18.6	0.00e+00	0	59	0	2306867200	38	4467
2026-01-01 03:37:48.47	179.29	12.02	-34.7	-35.9	18.5	0.00e+00	0	59	0	2314207232	38	4502
2026-01-01 03:37:49.48	179.34	11.93	-34.8	-35.9	18.5	0.00e+00	0	59	0	2321547264	39	4271
2026-01-01 03:37:50.49	179.39	11.84	-34.8	-36.0	18.4	0.00e+00	0	59	0	2328887296	39	4320
2026-01-01 03:37:51.50	179.44	11.74	-35.0	-36.2	18.2	0.00e+00	0	59	0	2336227328	39	4397
2026-01-01 03:37:52.51	179.49	11.65	-34.9	-36.1	18.2	0.00e+00	0	59	0	2343567360	39	4373
2026-01-01 03:37:53.52	179.54	11.56	-35.0	-36.2	18.2	0.00e+00	0	59	0	2350907392	39	4399
2026-01-01 03:37:54.53	179.58	11.47	-35.0	-36.2	18.2	0.00e+00	0	59	0	2358247424	39	4411
2026-01-01 03:37:55.54	179.63	11.38	-35.1	-36.3	18.0	0.00e+00	0	59	0	2365587456	39	4463
2026-01-01 03:37:56.56	179.68	11.29	-35.1	-36.3	18.0	0.00e+00	0	59	0	2372927488	39	4484
2026-01-01 03:37:57.57	179.73	11.20	-35.1	-36.3	18.0	0.00e+00	0	59	0	2380267520	39	4477
2026-01-01 03:37:58.58	179.77	11.11	-35.1	-36.3	18.0	0.00e+00	0	59	0	2387607552	39	4471
2026-01-01 03:37:59.59	179.82	11.02	-35.2	-36.4	18.0	0.00e+00	0	59	0	2394947584	39	4508
2026-01-01 03:38:00.60	179.87	10.93	-35.1	-36.3	17.9	0.00e+00	0	59	0	2401239040	40	4232
2026-01-01 03:38:01.60	179.91	10.84	-35.1	-36.3	18.0	0.00e+00	0	59	0	2408579072	40	4209
2026-01-01 03:38:02.62	179.96	10.75	-35.0	-36.2	18.1	0.00e+00	0	59	0	2416967680	40	4176
2026-01-01 03:38:03.63	180.00	10.66	-35.1	-36.3	18.0	0.00e+00	0	59	0	2423259136	40	4200
2026-01-01 03:38:04.64	180.05	10.58	-35.1	-36.4	17.9	0.00e+00	0	59	0	2430599168	40	4244
2026-01-01 03:38:05.65	180.09	10.49	-35.2	-36.4	17.8	0.00e+00	0	59	0	2437939200	40	4263
2026-01-01 03:38:06.66	180.14	10.40	-35.0	-36.2	18.0	0.00e+00	0	59	0	2445279232	40	4190
2026-01-01 03:38:07.67	180.18	10.31	-35.0	-36.2	18.0	0.00e+00	0	59	0	2452619264	40	4188
2026-01-01 03:38:08.68	180.23	10.23	-35.1	-36.3	17.9	0.00e+00	0	59	0	2459959296	40	4222
2026-01-01 03:38:09.69	180.27	10.14	-35.1	-36.3	17.9	0.00e+00	0	59	0	2467299328	40	4211
2026-01-01 03:38:10.70	180.32	10.05	-35.2	-36.4	17.9	0.00e+00	0	59	0	2474639360	40	4255
2026-01-01 03:38:11.71	180.36	9.97	-35.1	-36.3	18.0	0.00e+00	0	59	0	2481979392	40	4201
2026-01-01 03:38:12.72	180.40	9.88	-35.1	-36.3	18.0	0.00e+00	0	59	0	2489319424	40	4199
2026-01-01 03:38:13.73	180.44	9.80	-35.2	-36.4	17.8	0.00e+00	0	59	0	2496659456	40	4252
2026-01-01 03:38:14.74	180.49	9.71	-35.1	-36.3	17.8	0.00e+00	0	59	0	2503999488	40	4236
2026-01-01 03:38:15.75	180.53	9.63	-35.0	-36.2	18.0	0.00e+00	0	59	0	2511339520	40	4170
2026-01-01 03:38:16.76	180.57	9.54	-35.1	-36.3	17.9	0.00e+00	0	59	0	2518679552	40	4234
2026-01-01 03:38:17.77	180.61	9.46	-35.2	-36.4	17.8	0.00e+00	0	59	0	2526019584	40	4256
2026-01-01 03:38:18.78	180.66	9.38	-35.3	-36.5	17.6	0.00e+00	0	59	0	2533359616	40	4340
2026-01-01 03:38:19.79	180.70	9.29	-35.4	-36.7	17.5	0.00e+00	0	59	0	2540699648	40	4399
2026-01-01 03:38:20.80	180.74	9.21	-35.2	-36.5	17.7	0.00e+00	0	59	0	2546991104	40	4294
2026-01-01 03:38:21.81	180.78	9.13	-35.3	-36.5	17.7	0.00e+00	0	59	0	2555379712	40	4319
2026-01-01 03:38:22.82	180.82	9.04	-35.4	-36.6	17.5	0.00e+00	0	59	0	2562719744	40	4390
2026-01-01 03:38:23.83	180.86	8.96	-35.3	-36.5	17.6	0.00e+00	0	59	0	2569011200	40	4336
2026-01-01 03:38:24.85	180.90	8.88	-35.4	-36.6	17.6	0.00e+00	0	59	0	2576351232	40	4359
2026-01-01 03:38:25.86	180.94	8.79	-35.3	-36.5	17.6	0.00e+00	0	59	0	2583691264	40	4335
2026-01-01 03:38:26.86	180.98	8.71	-35.3	-36.6	17.5	0.00e+00	0	59	0	2591031296	40	4351
2026-01-01 03:38:27.88	181.02	8.63	-35.5	-36.7	17.4	0.00e+00	0	59	0	2598371328	40	4435
2026-01-01 03:38:28.89	181.06	8.55	-35.6	-36.8	17.3	0.00e+00	0	59	0	2605711360	40	4483
2026-01-01 03:38:29.90	181.10	8.47	-35.6	-36.8	17.3	0.00e+00	0	59	0	2613051392	40	4481
2026-01-01 03:38:30.91	181.14	8.39	-35.5	-36.7	17.4	0.00e+00	0	59	0	2620391424	40	4421
2026-01-01 03:38:31.92	181.18	8.31	-35.6	-36.8	17.3	0.00e+00	0	59	0	2627731456	40	4485
2026-01-01 03:38:32.93	181.22	8.23	-35.5	-36.8	17.3	0.00e+00	0	59	0	2635071488	40	4458
2026-01-01 03:38:33.94	181.26	8.15	-35.6	-36.8	17.3	0.00e+00	0	59	0	2642411520	40	4486
2026-01-01 03:38:34.95	181.30	8.07	-35.5	-36.8	17.3	0.00e+00	0	59	0	2649751552	40	4463
2026-01-01 03:38:35.96	181.34	7.99	-44.8	-55.7	3.8	5.98e-01	0	59	104	2654994432	59	13223
2026-01-01 03:38:36.97	181.37	7.91	-45.0	-55.9	3.8	8.47e-01	0	59	104	2654994432	59	13499
2026-01-01 03:38:37.98	181.41	7.83	-45.2	-56.1	3.8	8.45e-01	0	59	104	2654994432	59	13762
2026-01-01 03:38:38.99	181.45	7.75	-45.2	-56.4	3.8	8.47e-01	0	59	104	2654994432	60	13522
2026-01-01 03:38:40.01	181.49	7.67	-45.2	-56.4	3.8	8.46e-01	0	59	104	2654994432	60	13540
2026-01-01 03:38:41.02	181.53	7.59	-45.3	-56.5	3.8	8.47e-01	0	59	104	2654994432	60	13639
2026-01-01 03:38:42.03	181.56	7.51	-45.3	-56.6	3.8	8.45e-01	0	59	104	2654994432	60	13728
2026-01-01 03:38:43.04	181.60	7.44	-45.4	-56.6	3.8	8.47e-01	0	59	104	2654994432	60	13879
2026-01-01 03:38:44.05	181.64	7.36	-45.4	-56.7	3.8	8.47e-01	0	59	104	2654994432	60	13894
2026-01-01 03:38:45.06	181.67	7.28	-45.4	-56.7	3.8	8.45e-01	0	59	104	2654994432	60	13896
2026-01-01 03:38:46.07	181.71	7.20	-45.5	-56.7	3.8	8.47e-01	0	59	104	2654994432	60	13939
2026-01-01 03:38:47.08	181.75	7.13	-45.4	-56.6	3.8	8.46e-01	0	59	104	2654994432	60	13765
2026-01-01 03:38:48.09	181.78	7.05	-45.4	-56.6	3.8	8.45e-01	0	59	104	2654994432	60	13742
2026-01-01 03:38:49.10	181.82	6.97	-45.4	-56.5	3.8	8.46e-01	0	59	104	2654994432	60	13698
2026-01-01 03:38:50.11	181.85	6.90	-45.4	-56.6	3.8	8.46e-01	0	59	104	2654994432	60	13761
2026-01-01 03:38:51.12	181.89	6.82	-45.4	-56.5	3.8	8.47e-01	0	59	104	2654994432	60	13624
2026-01-01 03:38:52.13	181.93	6.75	-45.4	-56.5	3.8	8.46e-01	0	59	104	2654994432	60	13621
2026-01-01 03:38:53.14	181.96	6.67	-45.4	-56.5	3.8	8.46e-01	0	59	104	2654994432	60	13611
2026-01-01 03:38:54.15	182.00	6.59	-45.4	-56.5	3.8	8.46e-01	0	59	104	2654994432	60	13677
2026-01-01 03:38:55.16	182.03	6.52	-45.4	-56.5	3.8	8.47e-01	0	59	104	2654994432	60	13623
2026-01-01 03:38:56.17	182.07	6.44	-45.3	-56.5	3.8	8.46e-01	0	59	104	2654994432	60	13702
2026-01-01 03:38:57.18	182.10	6.37	-45.3	-56.5	3.8	8.46e-01	0	59	104	2654994432	60	13600
2026-01-01 03:38:58.19	182.13	6.29	-45.3	-56.4	3.8	8.46e-01	0	59	104	2654994432	60	13569
2026-01-01 03:38:59.20	182.17	6.22	-45.3	-56.4	3.8	8.47e-01	0	59	104	2654994432	60	13479
2026-01-01 03:39:00.21	182.20	6.15	-45.3	-56.5	3.8	8.47e-01	0	59	104	2654994432	60	13581
2026-01-01 03:39:01.23	182.24	6.07	-45.3	-56.4	3.8	8.46e-01	0	59	104	2654994432	60	13525
2026-01-01 03:39:02.24	182.27	6.00	-45.3	-56.4	3.8	8.47e-01	0	59	104	2654994432	60	13525
2026-01-01 03:39:03.25	182.30	5.92	-45.3	-56.4	3.8	8.45e-01	0	59	104	2654994432	60	13501
2026-01-01 03:39:04.26	182.34	5.85	-45.3	-56.4	3.8	8.45e-01	0	59	104	2654994432	60	13558
2026-01-01 03:39:05.27	182.37	5.78	-45.3	-56.4	3.8	8.46e-01	0	59	104	2654994432	60	13511
2026-01-01 03:39:06.28	182.40	5.70	-45.3	-56.4	3.8	8.46e-01	0	59	104	2654994432	60	13545
2026-01-01 03:39:07.29	182.44	5.63	-45.3	-56.4	3.8	8.47e-01	0	59	104	2654994432	60	13426
2026-01-01 03:39:08.30	182.47	5.56	-45.3	-56.4	3.8	8.47e-01	0	59	104	2654994432	60	13523
2026-01-01 03:39:09.31	182.50	5.49	-45.3	-56.4	3.8	8.46e-01	0	59	104	2654994432	60	13554
2026-01-01 03:39:10.32	182.54	5.41	-45.3	-56.4	3.8	8.46e-01	0	59	104	2654994432	60	13493
2026-01-01 03:39:11.34	182.57	5.34	-45.3	-56.4	3.8	8.47e-01	0	59	104	2654994432	60	13505
2026-01-01 03:39:12.35	182.60	5.27	-45.3	-56.4	3.8	8.46e-01	0	59	104	2654994432	60	13452
2026-01-01 03:39:13.36	182.63	5.20	-45.3	-56.4	3.8	8.46e-01	0	59	104	2654994432	60	13429
2026-01-01 03:39:14.37	182.67	5.13	-45.3	-56.4	3.8	8.46e-01	0	59	104	2654994432	60	13457
2026-01-01 03:39:15.38	182.70	5.05	-45.3	-56.4	3.8	8.47e-01	0	59	104	2654994432	60	13542
2026-01-01 03:39:16.39	182.73	4.98	-45.3	-56.4	3.8	8.46e-01	0	59	104	2654994432	60	13476
2026-01-01 03:39:17.40	182.76	4.91	-45.3	-56.4	3.8	8.46e-01	0	59	104	2654994432	60	13476
2026-01-01 03:39:18.41	182.79	4.84	-45.3	-56.4	3.8	8.47e-01	0	59	104	2654994432	60	13519
2026-01-01 03:39:19.42	182.82	4.77	-45.2	-56.4	3.8	8.46e-01	0	59	104	2654994432	60	13525
2026-01-01 03:39:20.43	182.85	4.70	-45.3	-56.4	3.8	8.46e-01	0	59	104	2654994432	60	13450
2026-01-01 03:39:21.44	182.89	4.63	-45.2	-56.4	3.8	8.47e-01	0	59	104	2654994432	60	13468
2026-01-01 03:39:22.46	182.92	4.56	-45.3	-56.4	3.8	8.46e-01	0	59	104	2654994432	60	13507
2026-01-01 03:39:23.47	182.95	4.49	-45.3	-56.4	3.8	8.47e-01	0	59	104	2654994432	60	13467
2026-01-01 03:39:24.48	182.98	4.42	-45.3	-56.3	3.8	8.45e-01	0	59	104	2654994432	60	13389
2026-01-01 03:39:25.49	183.01	4.35	-45.3	-56.4	3.8	8.46e-01	0	59	104	2654994432	60	13433
2026-01-01 03:39:26.50	183.04	4.28	-45.3	-56.4	3.8	8.46e-01	0	59	104	2654994432	60	13511
2026-01-01 03:39:27.51	183.07	4.21	-45.2	-56.4	3.8	8.45e-01	0	59	104	2654994432	60	13437
2026-01-01 03:39:28.52	183.10	4.14	-45.3	-56.4	3.8	8.46e-01	0	59	104	2654994432	60	13512
2026-01-01 03:39:29.53	183.13	4.07	-45.2	-56.4	3.8	8.44e-01	0	59	104	2654994432	60	13455
2026-01-01 03:39:30.54	183.16	4.01	-45.3	-56.4	3.8	8.46e-01	0	59	104	2654994432	60	13548
2026-01-01 03:39:31.56	183.19	3.94	-45.3	-56.4	3.8	8.46e-01	0	59	104	2654994432	60	13489
2026-01-01 03:39:32.57	183.22	3.87	-45.3	-56.4	3.8	8.46e-01	0	59	104	2654994432	60	13494
2026-01-01 03:39:33.58	183.25	3.80	-45.3	-56.3	3.8	8.46e-01	0	59	104	2654994432	60	13388
2026-01-01 03:39:34.59	183.28	3.73	-45.3	-56.4	3.8	8.46e-01	0	59	104	2654994432	60	13488
2026-01-01 03:39:35.60	183.31	3.66	-45.2	-56.4	3.8	8.46e-01	0	59	104	2654994432	60	13480
2026-01-01 03:39:36.61	183.34	3.60	-45.3	-56.4	3.8	8.44e-01	0	59	104	2654994432	60	13436
2026-01-01 03:39:37.62	183.36	3.53	-45.3	-56.4	3.8	8.46e-01	0	59	104	2654994432	60	13462
2026-01-01 03:39:38.63	183.39	3.46	-45.3	-56.4	3.8	8.47e-01	0	59	104	2654994432	60	13558
2026-01-01 03:39:39.64	183.42	3.40	-45.3	-56.4	3.8	8.46e-01	0	59	104	2654994432	60	13493
2026-01-01 03:39:40.65	183.45	3.33	-45.3	-56.4	3.8	8.48e-01	0	59	104	2654994432	60	13470
2026-01-01 03:39:41.67	183.48	3.26	-45.2	-56.4	3.8	8.46e-01	0	59	104	2654994432	60	13460
2026-01-01 03:39:42.68	183.51	3.19	-45.2	-56.4	3.8	8.45e-01	0	59	104	2654994432	60	13506
2026-01-01 03:39:43.69	183.54	3.13	-45.2	-56.4	3.8	8.46e-01	0	59	104	2654994432	60	13465
2026-01-01 03:39:44.70	183.56	3.06	-45.3	-56.4	3.8	8.46e-01	0	59	104	2654994432	60	13466
2026-01-01 03:39:45.71	183.59	3.00	-45.3	-56.4	3.8	8.46e-01	0	59	104	2654994432	60	13426
2026-01-01 03:39:46.72	183.62	2.93	-45.3	-56.4	3.8	8.46e-01	0	59	104	2654994432	60	13436
2026-01-01 03:39:47.73	183.65	2.86	-45.3	-56.3	3.8	8.45e-01	0	59	104	2654994432	60	13407
2026-01-01 03:39:48.74	183.68	2.80	-45.3	-56.4	3.8	8.45e-01	0	59	104	2654994432	60	13420
2026-01-01 03:39:49.75	183.70	2.73	-45.2	-56.4	3.8	8.45e-01	0	59	104	2654994432	60	13435
2026-01-01 03:39:50.77	183.73	2.67	-45.2	-56.4	3.8	8.46e-01	0	59	104	2654994432	60	13492
2026-01-01 03:39:51.78	183.76	2.60	-45.3	-56.4	3.8	8.46e-01	0	59	104	2654994432	60	13469
2026-01-01 03:39:52.79	183.79	2.54	-45.3	-56.4	3.8	8.47e-01	0	59	104	2654994432	60	13457
2026-01-01 03:39:53.80	183.81	2.47	-45.2	-56.4	3.8	8.47e-01	0	59	104	2654994432	60	13457
2026-01-01 03:39:54.81	183.84	2.41	-45.2	-56.3	3.8	8.46e-01	0	59	104	2654994432	60	13413
2026-01-01 03:39:55.82	183.87	2.34	-45.3	-56.4	3.8	8.44e-01	0	59	104	2654994432	60	13443
2026-01-01 03:39:56.83	183.89	2.28	-45.2	-56.4	3.8	8.47e-01	0	59	104	2654994432	60	13452
2026-01-01 03:39:57.84	183.92	2.21	-45.2	-56.4	3.8	8.46e-01	0	59	104	2654994432	60	13488
2026-01-01 03:39:58.85	183.95	2.15	-45.2	-56.4	3.8	8.47e-01	0	59	104	2654994432	60	13438
2026-01-01 03:39:59.86	183.97	2.08	-45.2	-56.4	3.8	8.45e-01	0	59	104	2654994432	60	13472
2026-01-01 03:40:00.88	184.00	2.02	-45.2	-56.4	3.8	8.46e-01	0	59	104	2654994432	60	13417

#Closed at: 2026-01-01 03:40:01
#Recorded file [2654 MB]: D:/lorett/data/31039_260101_063136.dat