passes_logs/2026/01/01/R2.0S_Moscow/R2.0S_Moscow__20260101_223742_SUOMI_NPP_rec.log

#Pass ID: 20260101_223742_SUOMI NPP
#Satellite: SUOMI NPP
#Configuration: NPP
#almurnet v.1.7.20251203
#Start time: 2026-01-01 22:37:42

#Version: 2.2.20231116
#Station: R2.0S_Moscow
#Location: 37.707566 lon 55.798166 lat
#TLE: 1 37849U 11061A   26001.07732418  .00000182  00000+0  10735-3 0  9990
#TLE: 2 37849  98.7795 303.2470 0002580  87.2016 272.9455 14.19520779734739

#Time	Az	El	Level	Level2	SNR	BER	BlckErr	Temp	State	Recorded	gain1	gain2
2026-01-01 22:37:42.78	22.36	2.03	-42.7	-57.5	3.8	1.49e+00	0	48	0	0	57	19198
2026-01-01 22:37:43.78	22.41	2.08	-42.7	-57.5	3.8	1.49e+00	0	48	104	0	56	20388
2026-01-01 22:37:44.79	22.47	2.14	-42.7	-57.5	3.8	1.49e+00	0	48	104	0	56	20363
2026-01-01 22:37:45.80	22.52	2.20	-42.7	-57.5	3.8	1.49e+00	0	48	104	0	56	20413
2026-01-01 22:37:46.81	22.58	2.26	-42.7	-57.5	3.8	1.49e+00	0	48	104	0	56	20387
2026-01-01 22:37:47.82	22.63	2.32	-42.7	-57.5	3.8	1.49e+00	0	48	104	0	56	20380
2026-01-01 22:37:48.83	22.69	2.38	-42.6	-57.5	3.8	1.49e+00	0	48	104	0	56	20382
2026-01-01 22:37:49.85	22.74	2.44	-42.6	-57.4	3.8	1.49e+00	0	48	104	0	56	20301
2026-01-01 22:37:50.86	22.80	2.50	-42.7	-57.5	3.8	1.49e+00	0	48	104	0	56	20323
2026-01-01 22:37:51.87	22.86	2.56	-42.7	-57.5	3.8	1.49e+00	0	48	104	0	56	20344
2026-01-01 22:37:52.88	22.91	2.62	-42.7	-57.5	3.8	1.49e+00	0	49	104	0	56	20337
2026-01-01 22:37:53.89	22.97	2.68	-42.6	-57.5	3.8	1.49e+00	0	49	104	0	56	20354
2026-01-01 22:37:54.90	23.03	2.74	-42.7	-57.5	3.8	1.49e+00	0	49	104	0	56	20313
2026-01-01 22:37:55.91	23.08	2.80	-42.7	-57.5	3.8	1.49e+00	0	49	104	0	56	20340
2026-01-01 22:37:56.92	23.14	2.86	-42.7	-57.5	3.8	1.49e+00	0	49	104	0	56	20309
2026-01-01 22:37:57.93	23.20	2.93	-42.6	-57.5	3.8	1.49e+00	0	49	104	0	56	20373
2026-01-01 22:37:58.95	23.26	2.99	-42.7	-57.5	3.8	1.49e+00	0	49	104	0	56	20435
2026-01-01 22:37:59.96	23.31	3.05	-42.7	-57.5	3.8	1.49e+00	0	49	104	0	56	20323
2026-01-01 22:38:00.97	23.37	3.11	-42.7	-57.5	3.8	1.49e+00	0	49	104	0	56	20391
2026-01-01 22:38:01.98	23.43	3.17	-42.7	-57.5	3.8	1.49e+00	0	49	104	0	56	20354
2026-01-01 22:38:02.99	23.49	3.23	-42.7	-57.5	3.8	1.49e+00	0	49	104	0	56	20350
2026-01-01 22:38:04.00	23.55	3.29	-42.7	-57.5	3.8	1.49e+00	0	49	104	0	56	20362
2026-01-01 22:38:05.01	23.61	3.35	-42.7	-57.5	3.8	1.49e+00	0	49	104	0	56	20319
2026-01-01 22:38:06.03	23.67	3.42	-42.7	-57.5	3.8	1.49e+00	0	49	104	0	56	20314
2026-01-01 22:38:07.04	23.73	3.48	-42.6	-57.5	3.8	1.49e+00	0	50	104	0	56	20325
2026-01-01 22:38:08.05	23.79	3.54	-42.7	-57.4	3.8	1.49e+00	0	50	104	0	56	20286
2026-01-01 22:38:09.06	23.85	3.60	-42.6	-57.4	3.8	1.49e+00	0	50	104	0	56	20299
2026-01-01 22:38:10.07	23.91	3.66	-42.6	-57.5	3.8	1.49e+00	0	50	104	0	56	20357
2026-01-01 22:38:11.08	23.97	3.73	-42.6	-57.5	3.8	1.49e+00	0	50	104	0	56	20324
2026-01-01 22:38:12.09	24.03	3.79	-42.7	-57.5	3.8	1.49e+00	0	50	104	0	56	20338
2026-01-01 22:38:13.10	24.09	3.85	-42.7	-57.5	3.8	1.49e+00	0	50	104	0	56	20329
2026-01-01 22:38:14.12	24.15	3.91	-42.7	-57.5	3.8	1.49e+00	0	50	104	0	56	20312
2026-01-01 22:38:15.13	24.21	3.98	-42.6	-57.5	3.8	1.49e+00	0	50	104	0	56	20326
2026-01-01 22:38:16.14	24.27	4.04	-42.6	-57.4	3.8	1.49e+00	0	50	104	0	56	20271
2026-01-01 22:38:17.15	24.33	4.10	-42.7	-57.4	3.8	1.49e+00	0	50	104	0	56	20292
2026-01-01 22:38:18.16	24.40	4.17	-42.7	-57.5	3.8	1.49e+00	0	50	104	0	56	20314
2026-01-01 22:38:19.17	24.46	4.23	-42.7	-57.5	3.8	1.49e+00	0	50	104	0	56	20326
2026-01-01 22:38:20.18	24.52	4.29	-42.7	-57.4	3.8	1.49e+00	0	50	104	0	56	20290
2026-01-01 22:38:21.19	24.58	4.36	-42.6	-57.5	3.8	1.49e+00	0	50	104	0	56	20306
2026-01-01 22:38:22.21	24.65	4.42	-42.6	-57.5	3.8	1.49e+00	0	50	104	0	56	20340
2026-01-01 22:38:23.22	24.71	4.48	-42.7	-57.5	3.8	1.49e+00	0	51	104	0	56	20343
2026-01-01 22:38:24.23	24.78	4.55	-42.6	-57.5	3.8	1.49e+00	0	51	104	0	56	20315
2026-01-01 22:38:25.24	24.84	4.61	-42.6	-57.5	3.8	1.49e+00	0	51	104	0	56	20335
2026-01-01 22:38:26.25	24.90	4.68	-42.7	-57.5	3.8	1.49e+00	0	51	104	0	56	20306
2026-01-01 22:38:27.26	24.97	4.74	-42.7	-57.4	3.8	1.49e+00	0	51	104	0	56	20259
2026-01-01 22:38:28.27	25.03	4.81	-42.7	-57.5	3.8	1.49e+00	0	51	104	0	56	20368
2026-01-01 22:38:29.28	25.10	4.87	-42.6	-57.5	3.8	1.49e+00	0	51	104	0	56	20328
2026-01-01 22:38:30.29	25.16	4.93	-42.7	-57.4	3.8	1.49e+00	0	51	104	0	56	20264
2026-01-01 22:38:31.30	25.23	5.00	-42.7	-57.5	3.8	1.49e+00	0	51	104	0	56	20334
2026-01-01 22:38:32.32	25.29	5.06	-42.7	-57.4	3.8	1.49e+00	0	51	104	0	56	20250
2026-01-01 22:38:33.33	25.36	5.13	-42.7	-57.4	3.8	1.49e+00	0	51	104	0	56	20234
2026-01-01 22:38:34.34	25.43	5.19	-42.7	-57.4	3.8	1.49e+00	0	51	104	0	56	20289
2026-01-01 22:38:35.35	25.49	5.26	-42.7	-57.4	3.8	1.49e+00	0	51	104	0	56	20298
2026-01-01 22:38:36.36	25.56	5.33	-42.7	-57.5	3.8	1.49e+00	0	51	104	0	56	20306
2026-01-01 22:38:37.37	25.63	5.39	-42.7	-57.4	3.8	1.49e+00	0	51	104	0	56	20254
2026-01-01 22:38:38.38	25.70	5.46	-42.7	-57.4	3.8	1.49e+00	0	51	104	0	56	20261
2026-01-01 22:38:39.39	25.76	5.52	-42.7	-57.4	3.8	1.49e+00	0	51	104	0	56	20277
2026-01-01 22:38:40.41	25.83	5.59	-42.7	-57.5	3.8	1.49e+00	0	51	104	0	56	20326
2026-01-01 22:38:41.42	25.90	5.66	-42.7	-57.4	3.8	1.49e+00	0	52	104	0	56	20264
2026-01-01 22:38:42.43	25.97	5.72	-42.7	-57.4	3.8	1.49e+00	0	51	104	0	56	20290
2026-01-01 22:38:43.44	26.04	5.79	-42.6	-57.5	3.8	1.49e+00	0	52	104	0	56	20308
2026-01-01 22:38:44.45	26.11	5.85	-42.6	-57.4	3.8	1.49e+00	0	52	104	0	56	20299
2026-01-01 22:38:45.46	26.18	5.92	-42.7	-57.4	3.8	1.49e+00	0	52	104	0	56	20286
2026-01-01 22:38:46.47	26.25	5.99	-42.6	-57.4	3.8	1.49e+00	0	52	104	0	56	20285
2026-01-01 22:38:47.48	26.32	6.05	-42.6	-57.4	3.8	1.49e+00	0	52	104	0	56	20293
2026-01-01 22:38:48.49	26.39	6.12	-42.7	-57.5	3.8	1.49e+00	0	52	104	0	56	20341
2026-01-01 22:38:49.50	26.46	6.19	-42.7	-57.5	3.8	1.49e+00	0	52	104	0	56	20329
2026-01-01 22:38:50.51	26.53	6.26	-42.6	-57.4	3.8	1.49e+00	0	52	104	0	56	20249
2026-01-01 22:38:51.53	26.60	6.32	-42.6	-57.4	3.8	1.49e+00	0	52	104	0	56	20243
2026-01-01 22:38:52.54	26.67	6.39	-42.6	-57.4	3.8	1.49e+00	0	52	104	0	56	20252
2026-01-01 22:38:53.55	26.74	6.46	-42.7	-57.4	3.8	1.49e+00	0	52	104	0	56	20295
2026-01-01 22:38:54.56	26.82	6.53	-42.7	-57.4	3.8	1.49e+00	0	52	104	0	56	20238
2026-01-01 22:38:55.57	26.89	6.60	-42.7	-57.5	3.8	1.49e+00	0	52	104	0	56	20314
2026-01-01 22:38:56.58	26.96	6.66	-42.6	-57.4	3.8	1.49e+00	0	52	104	0	56	20202
2026-01-01 22:38:57.59	27.03	6.73	-42.7	-57.3	3.8	1.49e+00	0	52	104	0	56	19878
2026-01-01 22:38:58.60	27.11	6.80	-42.7	-57.2	3.8	1.49e+00	0	52	104	0	56	19837
2026-01-01 22:38:59.62	27.18	6.87	-42.7	-57.3	3.8	1.49e+00	0	52	104	0	56	19951
2026-01-01 22:39:00.63	27.26	6.94	-42.7	-57.0	3.8	1.49e+00	0	52	104	0	56	19233
2026-01-01 22:39:01.64	27.33	7.01	-42.5	-54.3	3.9	1.49e+00	0	52	104	0	56	14152
2026-01-01 22:39:02.65	27.41	7.08	-42.3	-52.4	4.7	1.07e+00	0	53	0	1048576	56	11326
2026-01-01 22:39:03.66	27.48	7.15	-42.1	-51.1	5.5	6.68e-01	0	52	0	2097152	56	9733
2026-01-01 22:39:04.67	27.56	7.22	-41.6	-48.9	7.1	2.23e-01	0	52	0	4194304	55	8033
2026-01-01 22:39:05.68	27.63	7.29	-41.0	-46.5	9.5	3.87e-02	0	52	0	6291456	54	6465
2026-01-01 22:39:06.69	27.71	7.35	-40.7	-45.8	10.2	7.51e-03	0	52	0	8388608	53	6293
2026-01-01 22:39:07.70	27.78	7.42	-40.6	-45.5	10.5	3.63e-03	0	52	0	10485760	53	6079
2026-01-01 22:39:08.71	27.86	7.49	-40.4	-45.2	10.8	2.95e-03	0	53	0	11534336	52	6236
2026-01-01 22:39:09.72	27.94	7.56	-40.2	-44.5	11.5	1.52e-03	0	53	0	13631488	52	5780
2026-01-01 22:39:10.74	28.02	7.64	-39.9	-43.7	12.4	2.40e-04	0	53	0	15728640	51	5586
2026-01-01 22:39:11.75	28.09	7.71	-39.7	-43.4	12.8	9.46e-05	0	53	0	17825792	51	5400
2026-01-01 22:39:12.76	28.17	7.78	-39.9	-43.8	12.3	9.76e-05	0	53	0	19922944	51	5645
2026-01-01 22:39:13.77	28.25	7.85	-39.6	-43.3	12.8	1.69e-04	0	53	0	20971520	51	5300
2026-01-01 22:39:14.78	28.33	7.92	-39.6	-43.2	13.0	2.28e-05	0	53	0	23068672	50	5541
2026-01-01 22:39:15.79	28.41	7.99	-39.8	-43.7	12.5	4.27e-05	0	53	0	25165824	50	5892
2026-01-01 22:39:16.80	28.49	8.06	-39.7	-43.2	13.2	1.40e-04	0	53	0	27262976	50	5576
2026-01-01 22:39:17.81	28.57	8.13	-40.5	-52.0	4.4	1.47e-01	0	53	0	29360128	52	13601
2026-01-01 22:39:18.82	28.65	8.20	-39.5	-42.4	14.4	6.03e-01	0	53	0	29360128	51	4795
2026-01-01 22:39:19.83	28.73	8.28	-41.3	-45.8	11.3	2.05e-05	0	53	0	31457280	53	6284
2026-01-01 22:39:20.84	28.81	8.35	-41.2	-46.0	11.1	2.44e-05	0	53	0	33554432	52	6804
2026-01-01 22:39:21.85	28.89	8.42	-40.1	-43.5	13.2	5.96e-03	0	53	0	34603008	52	5147
2026-01-01 22:39:22.86	28.97	8.49	-39.9	-43.0	13.8	2.20e-06	0	53	0	36700160	51	5156
2026-01-01 22:39:23.87	29.06	8.56	-39.8	-42.8	14.1	3.00e-06	0	53	0	38797312	51	5034
2026-01-01 22:39:24.88	29.14	8.64	-39.8	-42.8	14.1	3.80e-06	0	53	0	40894464	51	5034
2026-01-01 22:39:25.89	29.22	8.71	-39.7	-42.7	14.3	1.50e-06	0	53	0	42991616	51	4929
2026-01-01 22:39:26.90	29.31	8.78	-39.6	-42.5	14.4	1.50e-06	0	53	0	45088768	51	4861
2026-01-01 22:39:27.91	29.39	8.85	-39.8	-42.8	14.1	3.80e-06	0	53	0	46137344	51	5030
2026-01-01 22:39:28.92	29.47	8.93	-39.7	-42.6	14.3	7.00e-07	0	54	0	48234496	51	4904
2026-01-01 22:39:29.93	29.56	9.00	-39.8	-42.8	14.2	0.00e+00	0	53	0	50331648	51	5022
2026-01-01 22:39:30.94	29.64	9.07	-39.8	-42.7	14.3	0.00e+00	0	53	0	52428800	51	4960
2026-01-01 22:39:31.95	29.73	9.15	-39.8	-42.8	14.2	0.00e+00	0	53	0	54525952	51	4995
2026-01-01 22:39:32.96	29.82	9.22	-39.8	-42.7	14.2	2.20e-06	0	54	0	55574528	51	4977
2026-01-01 22:39:33.97	29.90	9.30	-39.8	-42.7	14.3	1.50e-06	0	53	0	57671680	51	4975
2026-01-01 22:39:34.98	29.99	9.37	-39.8	-42.7	14.3	0.00e+00	0	54	0	59768832	51	4955
2026-01-01 22:39:35.98	30.08	9.44	-39.9	-42.9	14.2	0.00e+00	0	54	0	61865984	51	5056
2026-01-01 22:39:36.99	30.16	9.52	-39.9	-42.8	14.3	1.50e-06	0	54	0	63963136	51	5013
2026-01-01 22:39:38.00	30.25	9.59	-40.0	-43.0	14.1	7.00e-07	0	54	0	65011712	51	5116
2026-01-01 22:39:39.01	30.34	9.67	-40.0	-43.0	14.1	0.00e+00	0	54	0	67108864	51	5104
2026-01-01 22:39:40.02	30.43	9.74	-39.9	-42.9	14.2	7.00e-07	0	54	0	69206016	51	5083
2026-01-01 22:39:41.03	30.52	9.82	-39.9	-42.8	14.2	0.00e+00	0	54	0	71303168	51	5033
2026-01-01 22:39:42.04	30.61	9.89	-39.8	-42.7	14.3	2.20e-06	0	54	0	73400320	51	4957
2026-01-01 22:39:43.05	30.70	9.97	-39.9	-42.8	14.2	1.50e-06	0	54	0	74448896	51	5024
2026-01-01 22:39:44.06	30.79	10.04	-39.6	-42.3	14.8	0.00e+00	0	54	0	76546048	51	4731
2026-01-01 22:39:45.07	30.88	10.12	-39.7	-42.4	14.7	0.00e+00	0	54	0	78643200	51	4808
2026-01-01 22:39:46.07	30.97	10.20	-39.6	-42.4	14.7	7.00e-07	0	54	0	80740352	51	4767
2026-01-01 22:39:47.09	31.06	10.27	-39.7	-42.5	14.6	1.50e-06	0	54	0	82837504	51	4843
2026-01-01 22:39:48.10	31.15	10.35	-39.6	-42.3	14.8	7.00e-07	0	54	0	83886080	51	4753
2026-01-01 22:39:49.11	31.25	10.43	-39.5	-42.1	15.0	0.00e+00	0	54	0	85983232	50	4914
2026-01-01 22:39:50.11	31.34	10.50	-39.3	-41.8	15.3	0.00e+00	0	54	0	88080384	50	4753
2026-01-01 22:39:51.13	31.43	10.58	-39.3	-41.8	15.3	0.00e+00	0	54	0	90177536	50	4759
2026-01-01 22:39:52.13	31.53	10.66	-39.2	-41.7	15.4	0.00e+00	0	54	0	92274688	50	4697
2026-01-01 22:39:53.15	31.62	10.73	-39.3	-41.9	15.3	0.00e+00	0	54	0	93323264	50	4761
2026-01-01 22:39:54.16	31.72	10.81	-39.3	-41.8	15.4	0.00e+00	0	54	0	95420416	50	4706
2026-01-01 22:39:55.17	31.81	10.89	-39.0	-41.4	15.8	0.00e+00	0	54	0	97517568	49	4764
2026-01-01 22:39:56.18	31.91	10.97	-39.0	-41.4	15.8	0.00e+00	0	54	0	99614720	49	4766
2026-01-01 22:39:57.18	32.01	11.04	-39.0	-41.4	15.8	0.00e+00	0	54	0	101711872	49	4785
2026-01-01 22:39:58.20	32.10	11.12	-39.2	-41.6	15.6	0.00e+00	0	55	0	102760448	49	4907
2026-01-01 22:39:59.21	32.20	11.20	-39.1	-41.5	15.8	0.00e+00	0	54	0	104857600	49	4833
2026-01-01 22:40:00.22	32.30	11.28	-39.2	-41.6	15.6	0.00e+00	0	54	0	106954752	49	4907
2026-01-01 22:40:01.22	32.40	11.36	-39.2	-41.7	15.6	0.00e+00	0	54	0	109051904	49	4952
2026-01-01 22:40:02.23	32.50	11.44	-39.3	-41.8	15.4	0.00e+00	0	54	0	111149056	49	5017
2026-01-01 22:40:03.24	32.60	11.52	-39.4	-41.9	15.4	0.00e+00	0	54	0	113246208	49	5059
2026-01-01 22:40:04.25	32.70	11.59	-39.4	-41.9	15.4	7.00e-07	0	54	0	114294784	49	5072
2026-01-01 22:40:05.26	32.80	11.67	-39.2	-41.7	15.6	0.00e+00	0	54	0	116391936	49	4956
2026-01-01 22:40:06.27	32.90	11.75	-39.3	-41.8	15.5	0.00e+00	0	54	0	118489088	49	4985
2026-01-01 22:40:07.28	33.00	11.83	-39.2	-41.6	15.7	0.00e+00	0	55	0	120586240	49	4891
2026-01-01 22:40:08.29	33.10	11.91	-39.2	-41.7	15.7	0.00e+00	0	54	0	122683392	49	4927
2026-01-01 22:40:09.30	33.21	11.99	-39.2	-41.6	15.7	0.00e+00	0	55	0	123731968	49	4913
2026-01-01 22:40:10.31	33.31	12.07	-39.1	-41.4	15.9	0.00e+00	0	55	0	125829120	49	4808
2026-01-01 22:40:11.32	33.41	12.15	-39.1	-41.5	15.8	0.00e+00	0	55	0	127926272	49	4867
2026-01-01 22:40:12.33	33.52	12.23	-39.1	-41.5	15.8	0.00e+00	0	55	0	130023424	49	4858
2026-01-01 22:40:13.34	33.62	12.32	-39.0	-41.3	16.0	0.00e+00	0	55	0	132120576	49	4753
2026-01-01 22:40:14.35	33.73	12.40	-39.0	-41.3	16.0	0.00e+00	0	54	0	133169152	49	4737
2026-01-01 22:40:15.36	33.83	12.48	-39.0	-41.3	16.0	0.00e+00	0	55	0	135266304	49	4751
2026-01-01 22:40:16.37	33.94	12.56	-38.8	-41.1	16.2	0.00e+00	0	55	0	137363456	49	4617
2026-01-01 22:40:17.38	34.05	12.64	-38.8	-41.0	16.3	0.00e+00	0	55	0	139460608	49	4594
2026-01-01 22:40:18.39	34.16	12.72	-38.9	-41.1	16.3	0.00e+00	0	55	0	141557760	49	4629
2026-01-01 22:40:19.39	34.26	12.80	-38.8	-40.9	16.4	0.00e+00	0	55	0	142606336	49	4541
2026-01-01 22:40:20.40	34.37	12.89	-38.7	-40.9	16.4	0.00e+00	0	55	0	144703488	49	4534
2026-01-01 22:40:21.41	34.48	12.97	-38.8	-40.9	16.4	0.00e+00	0	55	0	146800640	49	4545
2026-01-01 22:40:22.42	34.59	13.05	-38.8	-41.0	16.3	0.00e+00	0	55	0	148897792	49	4594
2026-01-01 22:40:23.43	34.70	13.13	-38.9	-41.2	16.2	0.00e+00	0	55	0	150994944	49	4687
2026-01-01 22:40:24.44	34.81	13.22	-39.0	-41.2	16.1	0.00e+00	0	55	0	152043520	49	4689
2026-01-01 22:40:25.45	34.93	13.30	-39.0	-41.2	16.2	0.00e+00	0	55	0	154140672	49	4686
2026-01-01 22:40:26.46	35.04	13.38	-39.1	-41.4	16.0	0.00e+00	0	55	0	156237824	49	4777
2026-01-01 22:40:27.47	35.15	13.47	-39.0	-41.3	16.1	0.00e+00	0	55	0	158334976	49	4711
2026-01-01 22:40:28.48	35.27	13.55	-39.1	-41.4	16.0	0.00e+00	0	55	0	160432128	49	4799
2026-01-01 22:40:29.49	35.38	13.63	-39.2	-41.6	15.8	0.00e+00	0	55	0	161480704	49	4901
2026-01-01 22:40:30.50	35.50	13.72	-39.1	-41.5	15.9	0.00e+00	0	55	0	163577856	49	4823
2026-01-01 22:40:31.51	35.61	13.80	-39.2	-41.5	15.9	0.00e+00	0	55	0	165675008	49	4858
2026-01-01 22:40:32.52	35.73	13.89	-39.2	-41.5	15.9	0.00e+00	0	55	0	167772160	49	4855
2026-01-01 22:40:33.53	35.84	13.97	-39.1	-41.4	16.0	0.00e+00	0	55	0	169869312	49	4787
2026-01-01 22:40:34.54	35.96	14.06	-39.1	-41.5	16.0	0.00e+00	0	55	0	170917888	49	4829
2026-01-01 22:40:35.55	36.08	14.14	-39.1	-41.4	16.0	0.00e+00	0	55	0	173015040	49	4798
2026-01-01 22:40:36.56	36.20	14.23	-39.1	-41.5	16.0	0.00e+00	0	55	0	175112192	49	4828
2026-01-01 22:40:37.57	36.32	14.31	-39.0	-41.3	16.1	0.00e+00	0	55	0	177209344	49	4749
2026-01-01 22:40:38.58	36.44	14.40	-39.2	-41.6	15.9	0.00e+00	0	55	0	179306496	49	4903
2026-01-01 22:40:39.59	36.56	14.48	-39.2	-41.5	15.9	0.00e+00	0	55	0	181403648	49	4867
2026-01-01 22:40:40.60	36.68	14.57	-39.1	-41.4	16.0	0.00e+00	0	55	0	182452224	49	4802
2026-01-01 22:40:41.61	36.80	14.66	-39.2	-41.5	15.9	0.00e+00	0	55	0	184549376	49	4863
2026-01-01 22:40:42.62	36.93	14.74	-39.2	-41.6	15.9	0.00e+00	0	55	0	186646528	49	4883
2026-01-01 22:40:43.63	37.05	14.83	-39.3	-41.7	15.8	0.00e+00	0	55	0	188743680	49	4949
2026-01-01 22:40:44.64	37.17	14.92	-39.3	-41.7	15.8	0.00e+00	0	55	0	190840832	49	4954
2026-01-01 22:40:45.65	37.30	15.00	-39.3	-41.8	15.7	0.00e+00	0	55	0	191889408	49	5001
2026-01-01 22:40:46.66	37.42	15.09	-39.3	-41.7	15.8	0.00e+00	0	55	0	193986560	49	4969
2026-01-01 22:40:47.67	37.55	15.18	-39.4	-41.8	15.7	0.00e+00	0	55	0	196083712	49	4990
2026-01-01 22:40:48.68	37.68	15.27	-39.4	-41.9	15.6	0.00e+00	0	55	0	198180864	49	5063
2026-01-01 22:40:49.69	37.81	15.35	-39.4	-41.8	15.7	0.00e+00	0	55	0	200278016	49	5028
2026-01-01 22:40:50.70	37.93	15.44	-39.4	-41.9	15.7	0.00e+00	0	55	0	201326592	49	5043
2026-01-01 22:40:51.70	38.06	15.53	-39.5	-41.9	15.6	0.00e+00	0	55	0	203423744	49	5080
2026-01-01 22:40:52.71	38.19	15.62	-39.5	-41.9	15.6	0.00e+00	0	55	0	205520896	49	5088
2026-01-01 22:40:53.72	38.32	15.71	-39.4	-41.9	15.7	0.00e+00	0	55	0	207618048	49	5046
2026-01-01 22:40:54.73	38.45	15.79	-39.4	-41.9	15.7	0.00e+00	0	55	0	209715200	49	5065
2026-01-01 22:40:55.74	38.59	15.88	-39.4	-41.8	15.8	0.00e+00	0	55	0	210763776	49	5005
2026-01-01 22:40:56.75	38.72	15.97	-39.4	-41.8	15.7	0.00e+00	0	55	0	212860928	49	5040
2026-01-01 22:40:57.76	38.85	16.06	-39.4	-41.8	15.8	0.00e+00	0	55	0	214958080	49	5022
2026-01-01 22:40:58.77	38.99	16.15	-39.4	-41.8	15.9	0.00e+00	0	55	0	217055232	49	4993
2026-01-01 22:40:59.79	39.13	16.24	-39.4	-41.7	15.9	0.00e+00	0	55	0	219152384	49	4982
2026-01-01 22:41:00.79	39.26	16.33	-39.3	-41.6	16.0	0.00e+00	0	55	0	220200960	49	4902
2026-01-01 22:41:01.80	39.40	16.42	-39.2	-41.5	16.1	0.00e+00	0	55	0	222298112	49	4837
2026-01-01 22:41:02.81	39.53	16.51	-39.2	-41.5	16.1	0.00e+00	0	55	0	224395264	49	4817
2026-01-01 22:41:03.82	39.67	16.60	-39.1	-41.4	16.2	0.00e+00	0	56	0	226492416	49	4771
2026-01-01 22:41:04.83	39.81	16.69	-39.1	-41.4	16.3	0.00e+00	0	55	0	228589568	49	4778
2026-01-01 22:41:05.84	39.95	16.78	-39.0	-41.2	16.4	0.00e+00	0	55	0	229638144	49	4700
2026-01-01 22:41:06.85	40.09	16.87	-39.0	-41.2	16.5	0.00e+00	0	56	0	231735296	49	4662
2026-01-01 22:41:07.86	40.24	16.96	-38.7	-40.8	16.8	0.00e+00	0	56	0	233832448	49	4488
2026-01-01 22:41:08.87	40.38	17.05	-38.9	-41.0	16.6	0.00e+00	0	55	0	235929600	49	4584
2026-01-01 22:41:09.88	40.52	17.15	-38.9	-41.0	16.6	0.00e+00	0	55	0	238026752	49	4590
2026-01-01 22:41:10.89	40.67	17.24	-38.7	-40.8	16.8	0.00e+00	0	56	0	239075328	49	4460
2026-01-01 22:41:11.90	40.81	17.33	-38.7	-40.9	16.8	0.00e+00	0	56	0	241172480	49	4495
2026-01-01 22:41:12.91	40.96	17.42	-38.8	-41.0	16.6	0.00e+00	0	56	0	243269632	49	4570
2026-01-01 22:41:13.91	41.10	17.51	-38.7	-40.8	16.8	0.00e+00	0	56	0	245366784	49	4478
2026-01-01 22:41:14.92	41.25	17.60	-38.7	-40.8	16.8	0.00e+00	0	56	0	247463936	49	4465
2026-01-01 22:41:15.93	41.40	17.70	-38.8	-40.9	16.8	0.00e+00	0	56	0	249561088	49	4512
2026-01-01 22:41:16.94	41.55	17.79	-38.8	-41.0	16.7	0.00e+00	0	56	0	250609664	49	4550
2026-01-01 22:41:17.95	41.70	17.88	-38.7	-40.8	16.9	0.00e+00	0	55	0	252706816	49	4456
2026-01-01 22:41:18.96	41.85	17.97	-38.7	-40.8	16.8	0.00e+00	0	56	0	254803968	49	4467
2026-01-01 22:41:19.97	42.00	18.07	-38.7	-40.8	16.8	0.00e+00	0	56	0	256901120	49	4486
2026-01-01 22:41:20.98	42.16	18.16	-38.8	-40.9	16.8	0.00e+00	0	56	0	258998272	49	4501
2026-01-01 22:41:21.99	42.31	18.25	-38.6	-40.6	17.0	0.00e+00	0	56	0	260046848	49	4386
2026-01-01 22:41:23.00	42.46	18.35	-38.6	-40.7	17.0	0.00e+00	0	56	0	262144000	49	4405
2026-01-01 22:41:24.01	42.62	18.44	-38.7	-40.7	16.9	0.00e+00	0	56	0	264241152	49	4439
2026-01-01 22:41:25.02	42.78	18.54	-38.5	-40.5	17.1	0.00e+00	0	56	0	266338304	49	4340
2026-01-01 22:41:26.03	42.94	18.63	-38.6	-40.6	17.1	0.00e+00	0	56	0	267386880	49	4360
2026-01-01 22:41:27.04	43.09	18.72	-38.5	-40.5	17.1	0.00e+00	0	56	0	269484032	49	4329
2026-01-01 22:41:28.04	43.25	18.82	-38.6	-40.6	17.1	0.00e+00	0	56	0	271581184	48	4621
2026-01-01 22:41:29.06	43.41	18.91	-38.5	-40.5	17.1	0.00e+00	0	56	0	273678336	48	4592
2026-01-01 22:41:30.06	43.57	19.01	-38.5	-40.5	17.3	0.00e+00	0	56	0	275775488	48	4547
2026-01-01 22:41:31.08	43.74	19.10	-38.5	-40.5	17.2	0.00e+00	0	56	0	277872640	48	4546
2026-01-01 22:41:32.09	43.90	19.20	-38.4	-40.4	17.2	0.00e+00	0	56	0	278921216	48	4537
2026-01-01 22:41:33.10	44.07	19.29	-38.3	-40.3	17.4	0.00e+00	0	56	0	281018368	48	4452
2026-01-01 22:41:34.10	44.23	19.39	-38.3	-40.2	17.4	0.00e+00	0	56	0	283115520	48	4414
2026-01-01 22:41:35.12	44.40	19.48	-38.3	-40.3	17.4	0.00e+00	0	56	0	285212672	48	4452
2026-01-01 22:41:36.13	44.57	19.58	-38.2	-40.2	17.5	0.00e+00	0	56	0	287309824	48	4403
2026-01-01 22:41:37.14	44.74	19.67	-38.1	-40.0	17.7	0.00e+00	0	56	0	288358400	48	4293
2026-01-01 22:41:38.15	44.91	19.77	-38.1	-39.9	17.7	0.00e+00	0	56	0	290455552	48	4275
2026-01-01 22:41:39.16	45.08	19.87	-38.0	-39.9	17.7	0.00e+00	0	56	0	292552704	47	4520
2026-01-01 22:41:40.17	45.25	19.96	-37.8	-39.7	17.9	0.00e+00	0	56	0	294649856	47	4412
2026-01-01 22:41:41.18	45.42	20.06	-37.9	-39.7	17.9	0.00e+00	0	56	0	296747008	47	4425
2026-01-01 22:41:42.19	45.59	20.15	-38.0	-39.9	17.7	0.00e+00	0	56	0	297795584	47	4505
2026-01-01 22:41:43.20	45.77	20.25	-37.9	-39.8	17.8	0.00e+00	0	56	0	299892736	47	4445
2026-01-01 22:41:44.20	45.94	20.35	-37.9	-39.8	17.8	0.00e+00	0	56	0	301989888	47	4480
2026-01-01 22:41:45.21	46.12	20.44	-37.8	-39.7	17.9	0.00e+00	0	56	0	304087040	47	4401
2026-01-01 22:41:46.22	46.30	20.54	-37.9	-39.8	17.7	0.00e+00	0	56	0	306184192	47	4472
2026-01-01 22:41:47.23	46.48	20.64	-37.8	-39.6	18.0	0.00e+00	0	56	0	307232768	47	4371
2026-01-01 22:41:48.24	46.66	20.73	-37.8	-39.6	18.0	0.00e+00	0	56	0	309329920	47	4391
2026-01-01 22:41:49.25	46.84	20.83	-37.8	-39.6	17.9	0.00e+00	0	56	0	311427072	47	4370
2026-01-01 22:41:50.26	47.02	20.93	-37.8	-39.6	18.0	0.00e+00	0	56	0	313524224	47	4368
2026-01-01 22:41:51.27	47.21	21.02	-37.8	-39.6	18.0	0.00e+00	0	56	0	315621376	47	4353
2026-01-01 22:41:52.28	47.39	21.12	-37.6	-39.4	18.2	0.00e+00	0	56	0	316669952	47	4288
2026-01-01 22:41:53.29	47.58	21.22	-37.7	-39.5	18.0	0.00e+00	0	56	0	318767104	47	4329
2026-01-01 22:41:54.30	47.76	21.32	-37.6	-39.4	18.2	0.00e+00	0	56	0	320864256	47	4273
2026-01-01 22:41:55.31	47.95	21.41	-37.8	-39.6	18.0	0.00e+00	0	56	0	322961408	47	4389
2026-01-01 22:41:56.31	48.14	21.51	-37.8	-39.7	18.0	0.00e+00	0	56	0	325058560	47	4402
2026-01-01 22:41:57.33	48.33	21.61	-37.9	-39.8	17.8	0.00e+00	0	56	0	326107136	47	4465
2026-01-01 22:41:58.33	48.52	21.70	-38.0	-39.9	17.7	0.00e+00	0	56	0	328204288	47	4524
2026-01-01 22:41:59.34	48.72	21.80	-38.0	-39.9	17.8	0.00e+00	0	56	0	330301440	47	4498
2026-01-01 22:42:00.35	48.91	21.90	-38.2	-40.1	17.5	0.00e+00	0	56	0	332398592	47	4632
2026-01-01 22:42:01.36	49.11	22.00	-38.4	-40.4	17.3	0.00e+00	0	56	0	334495744	47	4765
2026-01-01 22:42:02.37	49.30	22.10	-38.3	-40.3	17.4	0.00e+00	0	56	0	335544320	47	4743
2026-01-01 22:42:03.38	49.50	22.19	-38.5	-40.5	17.2	0.00e+00	0	56	0	337641472	47	4834
2026-01-01 22:42:04.39	49.70	22.29	-38.6	-40.7	17.0	0.00e+00	0	56	0	339738624	47	4930
2026-01-01 22:42:05.40	49.90	22.39	-38.6	-40.7	16.9	0.00e+00	0	56	0	341835776	47	4971
2026-01-01 22:42:06.41	50.10	22.49	-38.8	-40.9	16.9	0.00e+00	0	56	0	343932928	48	4795
2026-01-01 22:42:07.42	50.30	22.59	-38.7	-40.7	17.0	0.00e+00	0	56	0	346030080	48	4704
2026-01-01 22:42:08.43	50.51	22.68	-38.8	-40.9	16.9	0.00e+00	0	56	0	347078656	48	4774
2026-01-01 22:42:09.44	50.71	22.78	-38.6	-40.6	17.1	0.00e+00	0	56	0	349175808	48	4636
2026-01-01 22:42:10.44	50.92	22.88	-38.6	-40.6	17.1	0.00e+00	0	56	0	351272960	48	4649
2026-01-01 22:42:11.45	51.13	22.98	-38.5	-40.4	17.3	0.00e+00	0	56	0	353370112	48	4534
2026-01-01 22:42:12.46	51.33	23.07	-38.5	-40.5	17.3	0.00e+00	0	56	0	355467264	48	4565
2026-01-01 22:42:13.47	51.54	23.17	-38.4	-40.3	17.5	0.00e+00	0	56	0	356515840	48	4489
2026-01-01 22:42:14.48	51.76	23.27	-38.3	-40.2	17.5	0.00e+00	0	56	0	358612992	48	4435
2026-01-01 22:42:15.49	51.97	23.37	-38.4	-40.3	17.4	0.00e+00	0	56	0	360710144	48	4480
2026-01-01 22:42:16.50	52.18	23.47	-38.4	-40.3	17.5	0.00e+00	0	56	0	362807296	48	4485
2026-01-01 22:42:17.51	52.40	23.56	-38.4	-40.4	17.4	0.00e+00	0	56	0	364904448	48	4528
2026-01-01 22:42:18.52	52.62	23.66	-38.4	-40.4	17.4	0.00e+00	0	56	0	365953024	48	4497
2026-01-01 22:42:19.53	52.83	23.76	-38.3	-40.2	17.5	0.00e+00	0	56	0	368050176	48	4433
2026-01-01 22:42:20.54	53.05	23.86	-38.4	-40.3	17.4	0.00e+00	0	56	0	370147328	48	4481
2026-01-01 22:42:21.55	53.28	23.96	-38.4	-40.3	17.6	0.00e+00	0	56	0	372244480	48	4458
2026-01-01 22:42:22.56	53.50	24.05	-38.2	-40.1	17.7	0.00e+00	0	56	0	374341632	48	4359
2026-01-01 22:42:23.57	53.72	24.15	-38.1	-40.0	17.8	0.00e+00	0	56	0	375390208	48	4300
2026-01-01 22:42:24.58	53.95	24.25	-38.2	-40.0	17.8	0.00e+00	0	56	0	377487360	48	4330
2026-01-01 22:42:25.59	54.17	24.35	-37.9	-39.7	18.0	0.00e+00	0	56	0	379584512	47	4419
2026-01-01 22:42:26.60	54.40	24.44	-37.7	-39.6	18.1	0.00e+00	0	56	0	381681664	47	4344
2026-01-01 22:42:27.61	54.63	24.54	-37.8	-39.6	18.1	0.00e+00	0	56	0	383778816	47	4372
2026-01-01 22:42:28.61	54.86	24.64	-37.8	-39.6	18.1	0.00e+00	0	56	0	384827392	47	4356
2026-01-01 22:42:29.62	55.09	24.73	-37.8	-39.6	18.1	0.00e+00	0	56	0	386924544	47	4346
2026-01-01 22:42:30.63	55.32	24.83	-37.9	-39.7	18.0	0.00e+00	0	56	0	389021696	47	4425
2026-01-01 22:42:31.64	55.56	24.93	-38.0	-39.9	17.8	0.00e+00	0	56	0	391118848	47	4505
2026-01-01 22:42:32.65	55.79	25.02	-38.2	-40.1	17.7	0.00e+00	0	56	0	393216000	47	4599
2026-01-01 22:42:33.66	56.03	25.12	-38.4	-40.4	17.3	0.00e+00	0	56	0	394264576	47	4800
2026-01-01 22:42:34.67	56.27	25.22	-38.6	-40.6	17.0	0.00e+00	0	56	0	396361728	47	4908
2026-01-01 22:42:35.68	56.51	25.31	-38.8	-40.9	16.9	0.00e+00	0	56	0	398458880	48	4798
2026-01-01 22:42:36.69	56.75	25.41	-38.8	-40.9	16.9	0.00e+00	0	56	0	400556032	48	4796
2026-01-01 22:42:37.70	57.00	25.51	-38.9	-41.0	16.8	0.00e+00	0	56	0	402653184	48	4857
2026-01-01 22:42:38.71	57.24	25.60	-38.7	-40.7	17.1	0.00e+00	0	57	0	403701760	48	4683
2026-01-01 22:42:39.72	57.49	25.70	-38.5	-40.5	17.3	0.00e+00	0	56	0	405798912	48	4567
2026-01-01 22:42:40.73	57.74	25.79	-38.5	-40.4	17.4	0.00e+00	0	56	0	407896064	48	4524
2026-01-01 22:42:41.74	57.99	25.89	-38.5	-40.5	17.2	0.00e+00	0	56	0	409993216	48	4596
2026-01-01 22:42:42.75	58.24	25.98	-38.4	-40.3	17.5	0.00e+00	0	56	0	412090368	48	4470
2026-01-01 22:42:43.76	58.49	26.08	-38.4	-40.4	17.4	0.00e+00	0	56	0	414187520	48	4514
2026-01-01 22:42:44.77	58.74	26.17	-38.4	-40.3	17.5	0.00e+00	0	56	0	415236096	48	4462
2026-01-01 22:42:45.78	59.00	26.26	-38.4	-40.3	17.5	0.00e+00	0	56	0	417333248	48	4476
2026-01-01 22:42:46.79	59.25	26.36	-38.4	-40.3	17.5	0.00e+00	0	56	0	419430400	48	4464
2026-01-01 22:42:47.80	59.51	26.45	-38.3	-40.2	17.5	0.00e+00	0	57	0	421527552	48	4428
2026-01-01 22:42:48.81	59.77	26.54	-38.6	-40.6	17.2	0.00e+00	0	56	0	423624704	48	4632
2026-01-01 22:42:49.82	60.03	26.64	-38.6	-40.6	17.2	0.00e+00	0	56	0	424673280	48	4630
2026-01-01 22:42:50.83	60.30	26.73	-38.5	-40.5	17.2	0.00e+00	0	56	0	426770432	48	4577
2026-01-01 22:42:51.84	60.56	26.82	-38.4	-40.3	17.5	0.00e+00	0	57	0	428867584	48	4445
2026-01-01 22:42:52.84	60.82	26.91	-38.2	-40.0	17.7	0.00e+00	0	57	0	430964736	48	4337
2026-01-01 22:42:53.85	61.09	27.00	-38.2	-40.1	17.7	0.00e+00	0	56	0	433061888	48	4376
2026-01-01 22:42:54.86	61.36	27.10	-38.3	-40.2	17.6	0.00e+00	0	57	0	434110464	48	4402
2026-01-01 22:42:55.87	61.63	27.19	-38.3	-40.2	17.6	0.00e+00	0	56	0	436207616	48	4412
2026-01-01 22:42:56.88	61.90	27.28	-38.6	-40.5	17.4	0.00e+00	0	56	0	438304768	48	4589
2026-01-01 22:42:57.90	62.18	27.37	-38.6	-40.6	17.2	0.00e+00	0	57	0	440401920	48	4630
2026-01-01 22:42:58.90	62.45	27.46	-38.7	-40.8	17.1	0.00e+00	0	56	0	442499072	48	4706
2026-01-01 22:42:59.92	62.73	27.55	-38.7	-40.7	17.2	0.00e+00	0	56	0	443547648	48	4661
2026-01-01 22:43:00.92	63.00	27.64	-38.6	-40.5	17.3	0.00e+00	0	57	0	445644800	48	4580
2026-01-01 22:43:01.93	63.28	27.72	-38.7	-40.6	17.2	0.00e+00	0	56	0	447741952	48	4645
2026-01-01 22:43:02.94	63.56	27.81	-38.7	-40.7	17.2	0.00e+00	0	56	0	449839104	48	4676
2026-01-01 22:43:03.95	63.84	27.90	-38.6	-40.5	17.3	0.00e+00	0	57	0	451936256	48	4597
2026-01-01 22:43:04.96	64.13	27.99	-38.6	-40.6	17.3	0.00e+00	0	56	0	452984832	48	4631
2026-01-01 22:43:05.97	64.41	28.07	-38.4	-40.3	17.5	0.00e+00	0	56	0	455081984	48	4469
2026-01-01 22:43:06.98	64.70	28.16	-38.4	-40.3	17.6	0.00e+00	0	56	0	457179136	48	4448
2026-01-01 22:43:07.99	64.99	28.25	-38.4	-40.3	17.6	0.00e+00	0	56	0	459276288	48	4449
2026-01-01 22:43:09.00	65.28	28.33	-38.4	-40.4	17.5	0.00e+00	0	56	0	461373440	48	4504
2026-01-01 22:43:10.01	65.57	28.42	-38.6	-40.6	17.3	0.00e+00	0	56	0	462422016	48	4620
2026-01-01 22:43:11.02	65.86	28.50	-38.6	-40.6	17.3	0.00e+00	0	57	0	464519168	48	4619
2026-01-01 22:43:12.03	66.16	28.58	-38.6	-40.6	17.3	0.00e+00	0	57	0	466616320	48	4606
2026-01-01 22:43:13.04	66.45	28.67	-38.8	-40.8	17.1	0.00e+00	0	57	0	468713472	48	4749
2026-01-01 22:43:14.05	66.75	28.75	-39.1	-41.2	16.7	0.00e+00	0	56	0	470810624	48	4968
2026-01-01 22:43:15.05	67.05	28.83	-39.3	-41.5	16.4	0.00e+00	0	57	0	471859200	49	4847
2026-01-01 22:43:16.06	67.35	28.91	-39.5	-41.8	16.1	0.00e+00	0	57	0	473956352	49	4994
2026-01-01 22:43:17.08	67.65	28.99	-39.4	-41.6	16.3	0.00e+00	0	57	0	476053504	49	4891
2026-01-01 22:43:18.09	67.96	29.07	-39.3	-41.5	16.5	0.00e+00	0	57	0	478150656	49	4822
2026-01-01 22:43:19.09	68.26	29.15	-39.0	-41.1	16.7	0.00e+00	0	57	0	480247808	49	4626
2026-01-01 22:43:20.10	68.57	29.23	-39.2	-41.3	16.6	0.00e+00	0	57	0	482344960	49	4750
2026-01-01 22:43:21.11	68.87	29.31	-39.5	-41.7	16.2	0.00e+00	0	57	0	483393536	49	4968
2026-01-01 22:43:22.12	69.18	29.39	-39.9	-42.3	15.7	0.00e+00	0	57	0	485490688	50	5035
2026-01-01 22:43:23.13	69.50	29.46	-40.0	-42.5	15.5	0.00e+00	0	57	0	487587840	50	5129
2026-01-01 22:43:24.14	69.81	29.54	-40.0	-42.5	15.3	0.00e+00	0	56	0	489684992	50	5142
2026-01-01 22:43:25.15	70.12	29.61	-39.7	-42.1	15.8	0.00e+00	0	57	0	491782144	50	4904
2026-01-01 22:43:26.16	70.44	29.69	-39.5	-41.8	16.2	0.00e+00	0	57	0	492830720	50	4730
2026-01-01 22:43:27.17	70.75	29.76	-39.7	-42.0	15.9	0.00e+00	0	57	0	494927872	50	4841
2026-01-01 22:43:28.17	71.07	29.84	-39.8	-42.2	15.7	0.00e+00	0	57	0	497025024	50	4971
2026-01-01 22:43:29.18	71.39	29.91	-40.3	-42.9	15.1	0.00e+00	0	57	0	499122176	51	5091
2026-01-01 22:43:30.19	71.71	29.98	-40.4	-43.1	15.0	0.00e+00	0	56	0	501219328	51	5186
2026-01-01 22:43:31.20	72.03	30.05	-40.4	-43.1	14.9	0.00e+00	0	56	0	502267904	51	5183
2026-01-01 22:43:32.21	72.36	30.12	-40.8	-43.7	14.1	7.00e-07	0	57	0	504365056	52	5265
2026-01-01 22:43:33.22	72.68	30.19	-41.1	-44.3	13.5	1.50e-06	0	57	0	506462208	52	5631
2026-01-01 22:43:34.23	73.01	30.26	-41.4	-44.8	13.0	3.66e-05	0	57	0	508559360	53	5642
2026-01-01 22:43:35.24	73.34	30.33	-41.5	-44.9	12.9	5.64e-05	0	57	0	510656512	53	5700
2026-01-01 22:43:36.25	73.67	30.39	-41.0	-44.2	13.7	9.90e-06	0	57	0	511705088	53	5230
2026-01-01 22:43:37.26	74.00	30.46	-40.8	-43.8	14.0	3.80e-06	0	57	0	513802240	53	5023
2026-01-01 22:43:38.27	74.33	30.52	-40.8	-43.8	14.2	1.50e-06	0	57	0	515899392	53	4992
2026-01-01 22:43:39.27	74.66	30.59	-40.9	-43.9	14.0	7.00e-07	0	57	0	517996544	53	5060
2026-01-01 22:43:40.29	75.00	30.65	-41.2	-44.5	13.4	5.30e-06	0	57	0	520093696	53	5410
2026-01-01 22:43:41.30	75.33	30.71	-41.3	-44.6	13.3	1.60e-05	0	57	0	521142272	53	5481
2026-01-01 22:43:42.31	75.67	30.78	-41.2	-44.5	13.4	1.14e-05	0	57	0	523239424	53	5427
2026-01-01 22:43:43.32	76.01	30.84	-41.1	-44.2	13.7	6.10e-06	0	57	0	525336576	53	5226
2026-01-01 22:43:44.33	76.35	30.89	-40.9	-43.9	14.1	2.20e-06	0	57	0	527433728	53	5043
2026-01-01 22:43:45.34	76.69	30.95	-40.9	-44.0	13.9	2.20e-06	0	57	0	529530880	53	5108
2026-01-01 22:43:46.34	77.03	31.01	-40.6	-43.4	14.4	7.00e-07	0	57	0	530579456	53	4814
2026-01-01 22:43:47.35	77.37	31.07	-40.4	-43.1	14.7	1.50e-06	0	57	0	532676608	52	4922
2026-01-01 22:43:48.36	77.72	31.12	-39.9	-42.3	15.6	0.00e+00	0	57	0	534773760	51	4756
2026-01-01 22:43:49.37	78.06	31.18	-40.0	-42.4	15.5	0.00e+00	0	57	0	536870912	51	4813
2026-01-01 22:43:50.38	78.41	31.23	-40.4	-43.1	14.8	0.00e+00	0	57	0	538968064	51	5210
2026-01-01 22:43:51.39	78.76	31.28	-40.8	-43.7	14.2	0.00e+00	0	57	0	540016640	52	5275
2026-01-01 22:43:52.40	79.11	31.33	-40.8	-43.9	14.0	4.50e-06	0	57	0	542113792	52	5359
2026-01-01 22:43:53.41	79.46	31.38	-40.7	-43.6	14.3	7.00e-07	0	57	0	544210944	52	5163
2026-01-01 22:43:54.42	79.81	31.43	-40.3	-43.0	14.9	7.00e-07	0	57	0	546308096	52	4826
2026-01-01 22:43:55.43	80.16	31.48	-40.3	-43.0	14.9	0.00e+00	0	57	0	548405248	52	4851
2026-01-01 22:43:56.43	80.51	31.53	-40.2	-42.7	15.3	0.00e+00	0	57	0	549453824	51	4967
2026-01-01 22:43:57.44	80.86	31.57	-40.0	-42.5	15.5	0.00e+00	0	57	0	551550976	51	4855
2026-01-01 22:43:58.45	81.22	31.62	-39.8	-42.2	15.7	0.00e+00	0	57	0	553648128	51	4691
2026-01-01 22:43:59.47	81.58	31.66	-39.5	-41.7	16.2	0.00e+00	0	57	0	555745280	51	4432
2026-01-01 22:44:00.47	81.93	31.71	-39.4	-41.6	16.4	0.00e+00	0	57	0	557842432	50	4627
2026-01-01 22:44:01.48	82.29	31.75	-39.8	-42.1	16.0	0.00e+00	0	57	0	559939584	50	4897
2026-01-01 22:44:02.49	82.65	31.79	-40.1	-42.6	15.4	0.00e+00	0	57	0	560988160	50	5185
2026-01-01 22:44:03.50	83.01	31.83	-40.4	-43.1	14.9	0.00e+00	0	57	0	563085312	51	5173
2026-01-01 22:44:04.51	83.37	31.86	-40.6	-43.3	14.7	7.00e-07	0	57	0	565182464	51	5329
2026-01-01 22:44:05.52	83.73	31.90	-40.4	-43.1	14.8	0.00e+00	0	57	0	567279616	52	4887
2026-01-01 22:44:06.53	84.09	31.94	-40.3	-43.0	14.9	0.00e+00	0	57	0	569376768	52	4839
2026-01-01 22:44:07.54	84.46	31.97	-40.1	-42.6	15.3	0.00e+00	0	57	0	570425344	52	4644
2026-01-01 22:44:08.55	84.82	32.00	-40.0	-42.4	15.6	0.00e+00	0	57	0	572522496	51	4762
2026-01-01 22:44:09.56	85.19	32.04	-39.7	-42.1	15.9	0.00e+00	0	57	0	574619648	51	4605
2026-01-01 22:44:10.57	85.55	32.07	-39.4	-41.7	16.3	0.00e+00	0	57	0	576716800	50	4660
2026-01-01 22:44:11.58	85.92	32.10	-39.5	-41.8	16.3	0.00e+00	0	57	0	578813952	50	4715
2026-01-01 22:44:12.59	86.28	32.12	-39.6	-41.8	16.2	0.00e+00	0	57	0	579862528	50	4748
2026-01-01 22:44:13.60	86.65	32.15	-39.7	-42.0	16.0	0.00e+00	0	57	0	581959680	50	4822
2026-01-01 22:44:14.61	87.02	32.18	-40.1	-42.5	15.5	0.00e+00	0	57	0	584056832	50	5143
2026-01-01 22:44:15.62	87.39	32.20	-40.3	-42.9	15.2	0.00e+00	0	57	0	586153984	51	5065
2026-01-01 22:44:16.63	87.76	32.22	-40.1	-42.6	15.4	0.00e+00	0	57	0	588251136	51	4880
2026-01-01 22:44:17.64	88.13	32.25	-39.8	-42.1	15.9	0.00e+00	0	57	0	589299712	51	4645
2026-01-01 22:44:18.65	88.50	32.27	-39.6	-41.8	16.1	0.00e+00	0	57	0	591396864	51	4476
2026-01-01 22:44:19.66	88.87	32.29	-39.9	-42.2	15.8	0.00e+00	0	57	0	593494016	51	4699
2026-01-01 22:44:20.67	89.24	32.30	-39.9	-42.2	15.8	0.00e+00	0	57	0	595591168	51	4695
2026-01-01 22:44:21.68	89.61	32.32	-39.6	-41.9	16.1	0.00e+00	0	57	0	597688320	51	4504
2026-01-01 22:44:22.69	89.98	32.34	-39.7	-42.0	15.9	0.00e+00	0	57	0	598736896	51	4597
2026-01-01 22:44:23.70	90.35	32.35	-39.8	-42.1	15.8	0.00e+00	0	57	0	600834048	51	4648
2026-01-01 22:44:24.71	90.73	32.36	-39.8	-42.1	15.9	0.00e+00	0	57	0	602931200	51	4639
2026-01-01 22:44:25.71	91.10	32.37	-39.8	-42.2	15.8	0.00e+00	0	57	0	605028352	51	4652
2026-01-01 22:44:26.72	91.47	32.38	-39.8	-42.2	15.8	0.00e+00	0	57	0	607125504	51	4676
2026-01-01 22:44:27.73	91.84	32.39	-40.1	-42.6	15.5	0.00e+00	0	57	0	608174080	51	4880
2026-01-01 22:44:28.74	92.21	32.40	-40.3	-42.9	15.2	0.00e+00	0	57	0	610271232	51	5075
2026-01-01 22:44:29.75	92.59	32.41	-40.0	-42.5	15.5	0.00e+00	0	57	0	612368384	51	4846
2026-01-01 22:44:30.76	92.96	32.41	-40.0	-42.4	15.6	0.00e+00	0	57	0	614465536	51	4812
2026-01-01 22:44:31.77	93.34	32.41	-40.0	-42.5	15.5	0.00e+00	0	57	0	616562688	51	4832
2026-01-01 22:44:32.78	93.71	32.42	-39.9	-42.4	15.6	0.00e+00	0	57	0	617611264	51	4775
2026-01-01 22:44:33.79	94.08	32.42	-39.9	-42.4	15.7	0.00e+00	0	57	0	619708416	51	4782
2026-01-01 22:44:34.80	94.46	32.42	-40.2	-42.8	15.2	0.00e+00	0	57	0	621805568	51	5008
2026-01-01 22:44:35.81	94.83	32.42	-40.3	-42.9	15.1	0.00e+00	0	57	0	623902720	51	5088
2026-01-01 22:44:36.82	95.21	32.41	-40.0	-42.4	15.6	0.00e+00	0	57	0	625999872	51	4798
2026-01-01 22:44:37.83	95.58	32.41	-39.6	-41.8	16.1	0.00e+00	0	57	0	627048448	51	4475
2026-01-01 22:44:38.83	95.95	32.40	-39.5	-41.7	16.3	0.00e+00	0	57	0	629145600	50	4660
2026-01-01 22:44:39.84	96.32	32.39	-38.8	-40.8	17.1	0.00e+00	0	57	0	631242752	49	4493
2026-01-01 22:44:40.85	96.70	32.39	-38.8	-40.7	17.3	0.00e+00	0	57	0	633339904	49	4430
2026-01-01 22:44:41.86	97.07	32.38	-39.3	-41.5	16.5	0.00e+00	0	57	0	635437056	49	4838
2026-01-01 22:44:42.87	97.44	32.37	-39.8	-42.1	15.9	0.00e+00	0	57	0	636485632	50	4924
2026-01-01 22:44:43.88	97.81	32.35	-39.7	-42.0	16.0	0.00e+00	0	57	0	638582784	50	4816
2026-01-01 22:44:44.89	98.19	32.34	-39.7	-42.0	16.0	0.00e+00	0	57	0	640679936	50	4831
2026-01-01 22:44:45.90	98.56	32.32	-39.9	-42.3	15.7	0.00e+00	0	57	0	642777088	50	5001
2026-01-01 22:44:46.91	98.93	32.31	-40.0	-42.4	15.6	0.00e+00	0	57	0	644874240	50	5065
2026-01-01 22:44:47.92	99.30	32.29	-40.1	-42.5	15.5	0.00e+00	0	57	0	645922816	51	4854
2026-01-01 22:44:48.93	99.67	32.27	-39.8	-42.2	15.8	0.00e+00	0	57	0	648019968	51	4664
2026-01-01 22:44:49.94	100.04	32.25	-39.6	-41.9	16.1	0.00e+00	0	57	0	650117120	51	4517
2026-01-01 22:44:50.95	100.41	32.23	-39.6	-41.8	16.2	0.00e+00	0	57	0	652214272	50	4758
2026-01-01 22:44:51.96	100.78	32.21	-39.8	-42.1	15.9	0.00e+00	0	57	0	654311424	50	4921
2026-01-01 22:44:52.97	101.15	32.18	-40.2	-42.7	15.4	0.00e+00	0	57	0	656408576	51	4972
2026-01-01 22:44:53.98	101.52	32.16	-40.4	-43.0	15.0	0.00e+00	0	57	0	657457152	51	5125
2026-01-01 22:44:54.99	101.89	32.13	-40.5	-43.3	14.7	7.00e-07	0	57	0	659554304	52	4989
2026-01-01 22:44:56.00	102.26	32.10	-40.2	-42.8	15.2	0.00e+00	0	57	0	661651456	52	4742
2026-01-01 22:44:57.00	102.62	32.08	-40.1	-42.6	15.3	0.00e+00	0	57	0	663748608	52	4612
2026-01-01 22:44:58.01	102.99	32.04	-40.2	-42.8	15.1	7.00e-07	0	57	0	665845760	52	4709
2026-01-01 22:44:59.02	103.35	32.01	-40.2	-42.9	15.1	0.00e+00	0	57	0	666894336	52	4760
2026-01-01 22:45:00.03	103.72	31.98	-40.2	-42.9	15.1	0.00e+00	0	57	0	668991488	52	4769
2026-01-01 22:45:01.04	104.08	31.95	-39.8	-42.2	15.8	0.00e+00	0	57	0	671088640	51	4675
2026-01-01 22:45:02.05	104.44	31.91	-39.6	-41.8	16.2	0.00e+00	0	57	0	673185792	51	4477
2026-01-01 22:45:03.06	104.81	31.88	-39.5	-41.7	16.2	0.00e+00	0	57	0	675282944	50	4678
2026-01-01 22:45:04.07	105.17	31.84	-39.9	-42.3	15.7	0.00e+00	0	57	0	676331520	50	5005
2026-01-01 22:45:05.08	105.53	31.80	-40.5	-43.2	14.9	0.00e+00	0	57	0	678428672	51	5236
2026-01-01 22:45:06.09	105.89	31.76	-40.8	-43.7	14.1	1.50e-06	0	57	0	680525824	52	5251
2026-01-01 22:45:07.10	106.25	31.72	-40.3	-42.9	15.1	7.00e-07	0	57	0	682622976	52	4798
2026-01-01 22:45:08.11	106.60	31.68	-40.0	-42.5	15.5	0.00e+00	0	57	0	684720128	52	4567
2026-01-01 22:45:09.12	106.96	31.63	-40.1	-42.6	15.4	0.00e+00	0	57	0	685768704	51	4885
2026-01-01 22:45:10.13	107.32	31.59	-39.8	-42.2	15.8	0.00e+00	0	57	0	687865856	51	4659
2026-01-01 22:45:11.14	107.67	31.54	-40.0	-42.5	15.5	0.00e+00	0	57	0	689963008	51	4827
2026-01-01 22:45:12.15	108.03	31.49	-39.9	-42.2	15.8	0.00e+00	0	57	0	692060160	51	4694
2026-01-01 22:45:13.16	108.38	31.45	-39.5	-41.8	16.2	0.00e+00	0	57	0	694157312	51	4445
2026-01-01 22:45:14.17	108.73	31.40	-39.2	-41.3	16.7	0.00e+00	0	57	0	695205888	50	4466
2026-01-01 22:45:15.18	109.09	31.35	-39.2	-41.2	16.8	0.00e+00	0	57	0	697303040	50	4436
2026-01-01 22:45:16.19	109.44	31.30	-39.3	-41.4	16.6	0.00e+00	0	57	0	699400192	50	4508
2026-01-01 22:45:17.20	109.78	31.24	-39.3	-41.4	16.7	0.00e+00	0	57	0	701497344	50	4505
2026-01-01 22:45:18.21	110.13	31.19	-39.5	-41.8	16.2	0.00e+00	0	57	0	703594496	50	4714
2026-01-01 22:45:19.22	110.48	31.14	-39.6	-41.8	16.3	0.00e+00	0	57	0	704643072	50	4729
2026-01-01 22:45:20.23	110.82	31.08	-39.1	-41.2	16.8	0.00e+00	0	57	0	706740224	50	4408
2026-01-01 22:45:21.24	111.17	31.02	-39.0	-41.0	17.0	0.00e+00	0	57	0	708837376	50	4322
2026-01-01 22:45:22.25	111.51	30.97	-39.1	-41.2	16.8	0.00e+00	0	57	0	710934528	50	4409
2026-01-01 22:45:23.26	111.85	30.91	-39.3	-41.5	16.6	0.00e+00	0	57	0	713031680	50	4556
2026-01-01 22:45:24.27	112.20	30.85	-39.7	-42.0	16.1	0.00e+00	0	57	0	714080256	50	4824
2026-01-01 22:45:25.28	112.54	30.79	-39.6	-41.8	16.3	0.00e+00	0	57	0	716177408	50	4749
2026-01-01 22:45:26.29	112.87	30.73	-39.3	-41.4	16.7	0.00e+00	0	57	0	718274560	50	4532
2026-01-01 22:45:27.30	113.21	30.67	-38.8	-40.8	17.1	0.00e+00	0	57	0	720371712	49	4484
2026-01-01 22:45:28.31	113.55	30.60	-38.8	-40.8	17.2	0.00e+00	0	57	0	722468864	49	4474
2026-01-01 22:45:29.32	113.88	30.54	-39.0	-41.1	16.9	0.00e+00	0	57	0	724566016	49	4615
2026-01-01 22:45:30.33	114.22	30.47	-39.5	-41.8	16.2	0.00e+00	0	57	0	725614592	49	5041
2026-01-01 22:45:31.34	114.55	30.41	-39.9	-42.4	15.7	0.00e+00	0	57	0	727711744	50	5066
2026-01-01 22:45:32.35	114.88	30.34	-39.7	-42.0	16.1	0.00e+00	0	57	0	729808896	50	4850
2026-01-01 22:45:33.36	115.21	30.27	-39.3	-41.4	16.6	0.00e+00	0	57	0	731906048	50	4542
2026-01-01 22:45:34.37	115.54	30.20	-39.0	-41.0	17.0	0.00e+00	0	57	0	734003200	50	4322
2026-01-01 22:45:35.38	115.86	30.14	-39.0	-41.1	16.9	0.00e+00	0	57	0	735051776	49	4614
2026-01-01 22:45:36.39	116.19	30.07	-39.3	-41.5	16.6	0.00e+00	0	57	0	737148928	49	4815
2026-01-01 22:45:37.40	116.51	29.99	-39.6	-41.9	16.1	0.00e+00	0	57	0	739246080	49	5079
2026-01-01 22:45:38.41	116.83	29.92	-40.0	-42.5	15.6	0.00e+00	0	57	0	741343232	50	5132
2026-01-01 22:45:39.42	117.15	29.85	-39.8	-42.2	15.8	0.00e+00	0	57	0	743440384	50	4983
2026-01-01 22:45:40.43	117.47	29.78	-39.6	-41.9	16.1	0.00e+00	0	57	0	744488960	50	4779
2026-01-01 22:45:41.44	117.79	29.70	-39.2	-41.4	16.7	0.00e+00	0	57	0	746586112	50	4503
2026-01-01 22:45:42.45	118.11	29.63	-39.3	-41.4	16.5	0.00e+00	0	57	0	748683264	50	4545
2026-01-01 22:45:43.46	118.42	29.55	-39.5	-41.8	16.2	0.00e+00	0	57	0	750780416	50	4714
2026-01-01 22:45:44.47	118.74	29.48	-39.7	-42.0	16.0	0.00e+00	0	57	0	752877568	50	4857
2026-01-01 22:45:45.48	119.05	29.40	-39.9	-42.4	15.7	0.00e+00	0	57	0	753926144	50	5045
2026-01-01 22:45:46.49	119.36	29.32	-40.1	-42.5	15.5	0.00e+00	0	57	0	756023296	51	4866
2026-01-01 22:45:47.50	119.67	29.24	-39.9	-42.3	15.8	0.00e+00	0	57	0	758120448	51	4727
2026-01-01 22:45:48.51	119.98	29.16	-39.6	-41.9	16.1	0.00e+00	0	57	0	760217600	51	4526
2026-01-01 22:45:49.51	120.28	29.08	-39.6	-41.9	16.2	0.00e+00	0	57	0	762314752	51	4508
2026-01-01 22:45:50.52	120.59	29.00	-39.5	-41.7	16.3	0.00e+00	0	57	0	763363328	50	4697
2026-01-01 22:45:51.53	120.89	28.92	-40.1	-42.6	15.6	0.00e+00	0	57	0	765460480	50	5177
2026-01-01 22:45:52.54	121.19	28.84	-40.5	-43.1	14.9	0.00e+00	0	57	0	767557632	51	5199
2026-01-01 22:45:53.55	121.49	28.76	-40.6	-43.3	14.7	0.00e+00	0	57	0	769654784	51	5306
2026-01-01 22:45:54.56	121.79	28.68	-40.1	-42.6	15.3	0.00e+00	0	57	0	771751936	51	4922
2026-01-01 22:45:55.57	122.09	28.59	-39.9	-42.3	15.7	0.00e+00	0	57	0	772800512	51	4741
2026-01-01 22:45:56.58	122.39	28.51	-39.8	-42.2	15.9	0.00e+00	0	57	0	774897664	51	4660
2026-01-01 22:45:57.59	122.68	28.42	-39.8	-42.2	15.8	0.00e+00	0	57	0	776994816	51	4667
2026-01-01 22:45:58.60	122.97	28.34	-39.8	-42.2	15.8	0.00e+00	0	57	0	779091968	51	4664
2026-01-01 22:45:59.61	123.26	28.25	-39.8	-42.1	16.0	0.00e+00	0	57	0	781189120	51	4616
2026-01-01 22:46:00.62	123.55	28.17	-39.6	-41.8	16.2	0.00e+00	0	57	0	782237696	51	4490
2026-01-01 22:46:01.63	123.84	28.08	-39.6	-41.8	16.2	0.00e+00	0	57	0	784334848	50	4750
2026-01-01 22:46:02.64	124.13	27.99	-39.9	-42.2	15.8	0.00e+00	0	57	0	786432000	50	4957
2026-01-01 22:46:03.64	124.41	27.91	-40.2	-42.7	15.3	0.00e+00	0	57	0	788529152	50	5265
2026-01-01 22:46:04.65	124.70	27.82	-40.7	-43.5	14.5	0.00e+00	0	57	0	790626304	51	5441
2026-01-01 22:46:05.66	124.98	27.73	-41.0	-44.0	14.0	3.80e-06	0	57	0	792723456	52	5429
2026-01-01 22:46:06.67	125.26	27.64	-41.5	-44.9	13.0	8.30e-06	0	57	0	793772032	53	5682
2026-01-01 22:46:07.68	125.54	27.55	-41.2	-44.5	13.4	5.79e-05	0	57	0	795869184	53	5403
2026-01-01 22:46:08.69	125.81	27.46	-40.6	-43.5	14.5	6.80e-06	0	57	0	797966336	53	4821
2026-01-01 22:46:09.70	126.09	27.37	-40.3	-43.0	14.9	7.00e-07	0	57	0	800063488	52	4834
2026-01-01 22:46:10.71	126.37	27.28	-40.3	-42.9	15.0	0.00e+00	0	57	0	802160640	52	4760
2026-01-01 22:46:11.72	126.64	27.19	-40.5	-43.3	14.7	0.00e+00	0	57	0	803209216	52	4995
2026-01-01 22:46:12.73	126.91	27.10	-40.9	-44.0	14.0	0.00e+00	0	57	0	805306368	52	5403
2026-01-01 22:46:13.74	127.18	27.01	-41.5	-45.0	12.9	3.12e-05	0	57	0	807403520	53	5785
2026-01-01 22:46:14.75	127.45	26.91	-41.4	-44.7	13.2	9.84e-05	0	57	0	809500672	54	5254
2026-01-01 22:46:15.76	127.72	26.82	-41.0	-44.1	13.8	7.60e-06	0	57	0	811597824	53	5190
2026-01-01 22:46:16.76	127.98	26.73	-40.8	-43.8	14.1	1.50e-06	0	57	0	812646400	53	5004
2026-01-01 22:46:17.77	128.24	26.64	-40.5	-43.3	14.6	0.00e+00	0	57	0	814743552	52	5003
2026-01-01 22:46:18.78	128.50	26.54	-40.7	-43.6	14.3	2.20e-06	0	57	0	816840704	52	5179
2026-01-01 22:46:19.80	128.77	26.45	-40.8	-43.7	14.3	0.00e+00	0	57	0	818937856	52	5220
2026-01-01 22:46:20.80	129.03	26.36	-41.2	-44.4	13.6	4.50e-06	0	57	0	821035008	52	5684
2026-01-01 22:46:21.81	129.28	26.26	-41.5	-44.9	12.9	4.19e-05	0	57	0	822083584	53	5718
2026-01-01 22:46:22.82	129.54	26.17	-41.3	-44.7	13.3	2.97e-05	0	57	0	824180736	53	5536
2026-01-01 22:46:23.83	129.79	26.07	-41.1	-44.2	13.7	3.80e-06	0	57	0	826277888	53	5264
2026-01-01 22:46:24.84	130.05	25.98	-40.9	-43.8	14.1	0.00e+00	0	57	0	828375040	53	5034
2026-01-01 22:46:25.85	130.30	25.88	-41.2	-44.5	13.4	3.00e-06	0	57	0	830472192	53	5413
2026-01-01 22:46:26.86	130.55	25.79	-41.4	-44.8	13.1	3.20e-05	0	57	0	831520768	53	5630
2026-01-01 22:46:27.87	130.80	25.69	-42.1	-46.2	11.7	1.59e-04	0	57	0	833617920	54	6227
2026-01-01 22:46:28.88	131.05	25.59	-42.5	-47.1	10.7	1.74e-03	0	57	0	835715072	55	6511
2026-01-01 22:46:29.89	131.29	25.50	-42.1	-46.1	11.7	8.60e-04	0	57	0	837812224	55	5831
2026-01-01 22:46:30.90	131.54	25.40	-41.8	-45.5	12.4	3.59e-04	0	57	0	839909376	55	5442
2026-01-01 22:46:31.92	131.78	25.30	-41.4	-44.7	13.2	3.81e-05	0	57	0	840957952	54	5243
2026-01-01 22:46:32.92	132.02	25.21	-41.0	-44.1	13.8	5.30e-06	0	57	0	843055104	53	5191
2026-01-01 22:46:33.93	132.26	25.11	-41.1	-44.3	13.6	7.60e-06	0	57	0	845152256	53	5314
2026-01-01 22:46:34.94	132.50	25.01	-41.6	-45.2	12.6	1.44e-05	0	57	0	847249408	53	5914
2026-01-01 22:46:35.96	132.74	24.92	-42.0	-45.9	11.9	3.84e-04	0	57	0	849346560	54	6048
2026-01-01 22:46:36.96	132.98	24.82	-41.7	-45.4	12.4	3.58e-04	0	57	0	850395136	54	5714
2026-01-01 22:46:37.97	133.21	24.72	-41.0	-44.2	13.6	5.72e-05	0	57	0	852492288	54	4947
2026-01-01 22:46:38.98	133.44	24.62	-40.3	-43.0	14.9	3.00e-06	0	57	0	854589440	52	4851
2026-01-01 22:46:39.99	133.67	24.53	-40.3	-42.9	15.1	0.00e+00	0	57	0	856686592	51	5045
2026-01-01 22:46:41.00	133.90	24.43	-40.3	-42.9	15.0	0.00e+00	0	57	0	858783744	51	5099
2026-01-01 22:46:42.01	134.13	24.33	-40.6	-43.3	14.6	7.00e-07	0	57	0	860880896	51	5340
2026-01-01 22:46:43.02	134.36	24.23	-41.0	-44.1	13.7	3.00e-06	0	57	0	861929472	52	5515
2026-01-01 22:46:44.03	134.59	24.13	-41.2	-44.6	13.3	2.36e-05	0	57	0	864026624	53	5466
2026-01-01 22:46:45.04	134.81	24.04	-40.9	-43.9	13.9	1.29e-05	0	57	0	866123776	53	5067
2026-01-01 22:46:46.05	135.04	23.94	-40.7	-43.6	14.3	7.00e-07	0	57	0	868220928	53	4875
2026-01-01 22:46:47.06	135.26	23.84	-40.1	-42.7	15.2	0.00e+00	0	57	0	870318080	52	4655
2026-01-01 22:46:48.07	135.48	23.74	-40.1	-42.6	15.3	0.00e+00	0	58	0	871366656	51	4925
2026-01-01 22:46:49.08	135.70	23.64	-40.2	-42.8	15.1	0.00e+00	0	57	0	873463808	51	5030
2026-01-01 22:46:50.09	135.92	23.54	-40.7	-43.6	14.2	0.00e+00	0	57	0	875560960	52	5187
2026-01-01 22:46:51.10	136.13	23.44	-41.2	-44.5	13.3	1.50e-06	0	57	0	877658112	53	5454
2026-01-01 22:46:52.11	136.35	23.35	-41.7	-45.5	12.4	5.64e-05	0	57	0	879755264	54	5735
2026-01-01 22:46:53.12	136.56	23.25	-41.6	-45.3	12.5	1.81e-04	0	58	0	880803840	54	5637
2026-01-01 22:46:54.13	136.77	23.15	-41.3	-44.7	13.1	7.85e-05	0	57	0	882900992	54	5234
2026-01-01 22:46:55.14	136.99	23.05	-40.9	-44.0	13.8	6.80e-06	0	57	0	884998144	53	5152
2026-01-01 22:46:56.15	137.20	22.95	-40.3	-43.0	14.9	7.00e-07	0	57	0	887095296	52	4850
2026-01-01 22:46:57.16	137.40	22.85	-40.0	-42.5	15.4	0.00e+00	0	58	0	889192448	51	4840
2026-01-01 22:46:58.18	137.61	22.75	-39.9	-42.4	15.5	0.00e+00	0	57	0	890241024	51	4763
2026-01-01 22:46:59.19	137.82	22.65	-39.7	-42.1	15.8	0.00e+00	0	57	0	892338176	51	4620
2026-01-01 22:47:00.19	138.02	22.56	-39.3	-41.5	16.4	0.00e+00	0	57	0	894435328	50	4569
2026-01-01 22:47:01.20	138.23	22.46	-38.9	-40.9	16.9	0.00e+00	0	57	0	896532480	49	4544
2026-01-01 22:47:02.21	138.43	22.36	-38.3	-40.2	17.6	0.00e+00	0	57	0	898629632	48	4416
2026-01-01 22:47:03.22	138.63	22.26	-37.8	-39.5	18.2	0.00e+00	0	57	0	899678208	47	4340
2026-01-01 22:47:04.23	138.83	22.16	-37.6	-39.3	18.4	0.00e+00	0	57	0	901775360	47	4221
2026-01-01 22:47:05.24	139.03	22.06	-37.5	-39.2	18.5	0.00e+00	0	57	0	903872512	46	4404
2026-01-01 22:47:06.25	139.23	21.96	-37.9	-39.7	18.0	0.00e+00	0	57	0	905969664	46	4702
2026-01-01 22:47:07.26	139.42	21.86	-38.3	-40.3	17.5	0.00e+00	0	57	0	908066816	47	4723
2026-01-01 22:47:08.27	139.62	21.77	-39.0	-41.1	16.8	0.00e+00	0	57	0	909115392	48	4920
2026-01-01 22:47:09.28	139.81	21.67	-39.6	-42.0	15.9	0.00e+00	0	58	0	911212544	49	5133
2026-01-01 22:47:10.29	140.00	21.57	-39.9	-42.4	15.5	0.00e+00	0	57	0	913309696	50	5080
2026-01-01 22:47:11.30	140.19	21.47	-39.9	-42.4	15.5	0.00e+00	0	57	0	915406848	50	5097
2026-01-01 22:47:12.31	140.38	21.37	-39.8	-42.2	15.7	0.00e+00	0	57	0	917504000	50	4947
2026-01-01 22:47:13.32	140.57	21.27	-39.6	-42.0	15.9	0.00e+00	0	57	0	918552576	50	4822
2026-01-01 22:47:14.33	140.76	21.18	-39.4	-41.7	16.2	0.00e+00	0	57	0	920649728	50	4675
2026-01-01 22:47:15.34	140.95	21.08	-39.2	-41.4	16.5	0.00e+00	0	57	0	922746880	50	4514
2026-01-01 22:47:16.35	141.13	20.98	-39.1	-41.2	16.6	0.00e+00	0	57	0	924844032	50	4441
2026-01-01 22:47:17.36	141.32	20.88	-38.9	-41.1	16.8	0.00e+00	0	57	0	926941184	49	4606
2026-01-01 22:47:18.36	141.50	20.79	-39.1	-41.3	16.6	0.00e+00	0	57	0	929038336	49	4712
2026-01-01 22:47:19.37	141.68	20.69	-39.1	-41.2	16.7	0.00e+00	0	57	0	930086912	49	4688
2026-01-01 22:47:20.38	141.86	20.59	-38.9	-41.0	16.8	0.00e+00	0	57	0	932184064	49	4592
2026-01-01 22:47:21.39	142.04	20.49	-38.9	-41.0	16.8	0.00e+00	0	57	0	934281216	49	4575
2026-01-01 22:47:22.40	142.22	20.39	-38.7	-40.7	17.1	0.00e+00	0	57	0	936378368	49	4432
2026-01-01 22:47:23.41	142.40	20.30	-38.7	-40.8	17.1	0.00e+00	0	57	0	938475520	49	4445
2026-01-01 22:47:24.42	142.58	20.20	-38.7	-40.7	17.1	0.00e+00	0	57	0	939524096	49	4416
2026-01-01 22:47:25.43	142.75	20.10	-38.6	-40.6	17.2	0.00e+00	0	57	0	941621248	49	4354
2026-01-01 22:47:26.44	142.93	20.01	-38.6	-40.6	17.2	0.00e+00	0	57	0	943718400	49	4354
2026-01-01 22:47:27.44	143.10	19.91	-38.6	-40.6	17.3	0.00e+00	0	57	0	945815552	49	4353
2026-01-01 22:47:28.45	143.27	19.81	-38.5	-40.5	17.3	0.00e+00	0	57	0	947912704	49	4301
2026-01-01 22:47:29.46	143.44	19.72	-38.6	-40.6	17.2	0.00e+00	0	57	0	948961280	48	4624
2026-01-01 22:47:30.47	143.61	19.62	-38.5	-40.5	17.3	0.00e+00	0	57	0	951058432	48	4593
2026-01-01 22:47:31.48	143.78	19.52	-38.6	-40.6	17.1	0.00e+00	0	57	0	953155584	48	4642
2026-01-01 22:47:32.49	143.95	19.43	-38.8	-40.9	16.9	0.00e+00	0	57	0	955252736	48	4768
2026-01-01 22:47:33.50	144.12	19.33	-38.9	-41.0	16.8	0.00e+00	0	57	0	957349888	48	4827
2026-01-01 22:47:34.51	144.28	19.24	-38.9	-41.0	16.8	0.00e+00	0	57	0	958398464	48	4866
2026-01-01 22:47:35.52	144.45	19.14	-39.0	-41.2	16.6	0.00e+00	0	57	0	960495616	48	4964
2026-01-01 22:47:36.54	144.61	19.04	-38.7	-40.8	17.0	0.00e+00	0	57	0	962592768	48	4710
2026-01-01 22:47:37.55	144.78	18.95	-38.6	-40.6	17.1	0.00e+00	0	57	0	964689920	48	4649
2026-01-01 22:47:38.55	144.94	18.85	-38.4	-40.4	17.3	0.00e+00	0	57	0	966787072	48	4528
2026-01-01 22:47:39.56	145.10	18.76	-38.0	-39.8	17.9	0.00e+00	0	57	0	967835648	48	4234
2026-01-01 22:47:40.58	145.26	18.66	-37.9	-39.7	18.0	0.00e+00	0	57	0	969932800	47	4410
2026-01-01 22:47:41.58	145.42	18.57	-37.7	-39.5	18.2	0.00e+00	0	57	0	972029952	47	4306
2026-01-01 22:47:42.60	145.58	18.47	-37.8	-39.6	18.0	0.00e+00	0	57	0	974127104	47	4368
2026-01-01 22:47:43.60	145.73	18.38	-38.0	-39.9	17.8	0.00e+00	0	57	0	976224256	47	4496
2026-01-01 22:47:44.61	145.89	18.28	-38.0	-39.9	17.8	0.00e+00	0	57	0	977272832	47	4502
2026-01-01 22:47:45.62	146.04	18.19	-38.1	-40.0	17.6	0.00e+00	0	57	0	979369984	47	4579
2026-01-01 22:47:46.63	146.20	18.10	-38.1	-40.0	17.7	0.00e+00	0	57	0	981467136	47	4553
2026-01-01 22:47:47.64	146.35	18.00	-38.2	-40.1	17.5	0.00e+00	0	57	0	983564288	47	4628
2026-01-01 22:47:48.65	146.50	17.91	-38.3	-40.3	17.3	0.00e+00	0	57	0	985661440	47	4737
2026-01-01 22:47:49.66	146.66	17.81	-38.1	-40.0	17.6	0.00e+00	0	57	0	986710016	47	4588
2026-01-01 22:47:50.67	146.81	17.72	-38.2	-40.2	17.5	0.00e+00	0	57	0	988807168	47	4673
2026-01-01 22:47:51.69	146.96	17.63	-38.3	-40.3	17.3	0.00e+00	0	57	0	990904320	47	4740
2026-01-01 22:47:52.69	147.11	17.53	-38.3	-40.2	17.4	0.00e+00	0	57	0	993001472	47	4680
2026-01-01 22:47:53.71	147.26	17.44	-38.6	-40.7	16.9	0.00e+00	0	57	0	995098624	47	4955
2026-01-01 22:47:54.71	147.40	17.35	-38.9	-41.0	16.7	0.00e+00	0	57	0	997195776	48	4819
2026-01-01 22:47:55.72	147.55	17.26	-39.1	-41.4	16.4	0.00e+00	0	57	0	998244352	48	5048
2026-01-01 22:47:56.73	147.69	17.16	-39.4	-41.8	16.0	0.00e+00	0	57	0	1000341504	49	4984
2026-01-01 22:47:57.74	147.84	17.07	-39.4	-41.6	16.1	0.00e+00	0	57	0	1002438656	49	4921
2026-01-01 22:47:58.75	147.98	16.98	-40.2	-42.4	15.6	0.00e+00	0	57	0	1004535808	50	5072
2026-01-01 22:47:59.76	148.12	16.89	-40.0	-42.6	15.1	0.00e+00	0	57	0	1006632960	50	5208
2026-01-01 22:48:00.77	148.27	16.79	-40.0	-42.6	15.2	0.00e+00	0	58	0	1007681536	50	5187
2026-01-01 22:48:01.78	148.41	16.70	-40.0	-42.7	15.0	0.00e+00	0	57	0	1009778688	50	5244
2026-01-01 22:48:02.79	148.55	16.61	-40.0	-42.7	15.0	0.00e+00	0	57	0	1011875840	50	5244
2026-01-01 22:48:03.80	148.69	16.52	-40.1	-42.8	15.0	0.00e+00	0	57	0	1013972992	50	5307
2026-01-01 22:48:04.81	148.83	16.43	-40.1	-42.7	15.0	0.00e+00	0	57	0	1016070144	50	5275
2026-01-01 22:48:05.82	148.96	16.34	-39.8	-42.3	15.5	0.00e+00	0	58	0	1017118720	50	4990
2026-01-01 22:48:06.83	149.10	16.25	-39.8	-42.3	15.5	0.00e+00	0	58	0	1019215872	50	5011
2026-01-01 22:48:07.84	149.24	16.16	-39.6	-42.0	15.8	0.00e+00	0	58	0	1021313024	50	4818
2026-01-01 22:48:08.85	149.37	16.07	-39.4	-41.8	16.0	0.00e+00	0	57	0	1023410176	50	4728
2026-01-01 22:48:09.86	149.51	15.98	-39.4	-41.7	16.0	0.00e+00	0	57	0	1025507328	50	4663
2026-01-01 22:48:10.87	149.64	15.89	-39.1	-41.3	16.2	0.00e+00	0	58	0	1026555904	50	4493
2026-01-01 22:48:11.88	149.77	15.80	-39.5	-41.9	15.8	0.00e+00	0	57	0	1028653056	50	4764
2026-01-01 22:48:12.89	149.91	15.71	-39.5	-41.9	15.8	0.00e+00	0	58	0	1030750208	50	4803
2026-01-01 22:48:13.90	150.04	15.62	-39.5	-42.0	15.8	0.00e+00	0	58	0	1032847360	50	4816
2026-01-01 22:48:14.91	150.17	15.53	-39.7	-42.1	15.6	0.00e+00	0	58	0	1034944512	50	4912
2026-01-01 22:48:15.92	150.30	15.44	-39.7	-42.1	15.6	0.00e+00	0	57	0	1035993088	50	4911
2026-01-01 22:48:16.93	150.43	15.35	-39.9	-42.4	15.3	0.00e+00	0	58	0	1038090240	50	5082
2026-01-01 22:48:17.94	150.56	15.26	-39.9	-42.6	15.1	0.00e+00	0	57	0	1040187392	50	5165
2026-01-01 22:48:18.95	150.69	15.17	-39.8	-42.3	15.4	0.00e+00	0	58	0	1042284544	50	5018
2026-01-01 22:48:19.96	150.81	15.09	-39.8	-42.3	15.3	7.00e-07	0	58	0	1044381696	50	5030
2026-01-01 22:48:20.97	150.94	15.00	-39.5	-41.9	15.7	0.00e+00	0	57	0	1045430272	50	4783
2026-01-01 22:48:21.98	151.06	14.91	-39.3	-41.7	16.0	0.00e+00	0	58	0	1047527424	50	4663
2026-01-01 22:48:22.99	151.19	14.82	-39.3	-41.6	16.0	0.00e+00	0	57	0	1049624576	50	4651
2026-01-01 22:48:23.99	151.31	14.74	-39.2	-41.4	16.2	0.00e+00	0	58	0	1051721728	50	4539
2026-01-01 22:48:25.00	151.44	14.65	-39.2	-41.5	16.2	0.00e+00	0	58	0	1053818880	50	4546
2026-01-01 22:48:26.01	151.56	14.56	-39.0	-41.2	16.4	0.00e+00	0	57	0	1054867456	50	4438
2026-01-01 22:48:27.02	151.68	14.47	-38.8	-40.9	16.7	0.00e+00	0	57	0	1056964608	49	4509
2026-01-01 22:48:28.03	151.80	14.39	-39.0	-41.2	16.4	0.00e+00	0	58	0	1059061760	49	4653
2026-01-01 22:48:29.04	151.92	14.30	-39.2	-41.4	16.2	0.00e+00	0	57	0	1061158912	49	4800
2026-01-01 22:48:30.05	152.04	14.21	-39.3	-41.6	16.0	0.00e+00	0	57	0	1063256064	49	4910
2026-01-01 22:48:31.06	152.16	14.13	-39.4	-41.8	15.8	0.00e+00	0	57	0	1065353216	49	5028
2026-01-01 22:48:32.07	152.28	14.04	-39.5	-42.0	15.6	0.00e+00	0	58	0	1066401792	49	5108
2026-01-01 22:48:33.08	152.40	13.96	-39.5	-42.0	15.6	0.00e+00	0	57	0	1068498944	49	5119
2026-01-01 22:48:34.09	152.52	13.87	-39.5	-42.0	15.6	0.00e+00	0	57	0	1070596096	49	5136
2026-01-01 22:48:35.10	152.63	13.79	-39.4	-41.8	15.8	0.00e+00	0	57	0	1072693248	49	5016
2026-01-01 22:48:36.11	152.75	13.70	-39.4	-41.9	15.7	0.00e+00	0	57	0	1074790400	49	5056
2026-01-01 22:48:37.12	152.87	13.62	-39.4	-41.8	15.7	0.00e+00	0	58	0	1075838976	49	5014
2026-01-01 22:48:38.13	152.98	13.53	-39.2	-41.6	15.9	0.00e+00	0	57	0	1077936128	49	4882
2026-01-01 22:48:39.14	153.10	13.45	-39.1	-41.5	16.1	0.00e+00	0	57	0	1080033280	49	4817
2026-01-01 22:48:40.15	153.21	13.36	-38.9	-41.2	16.3	0.00e+00	0	57	0	1082130432	49	4663
2026-01-01 22:48:41.16	153.32	13.28	-39.0	-41.3	16.3	0.00e+00	0	57	0	1084227584	49	4709
2026-01-01 22:48:42.17	153.43	13.19	-39.1	-41.3	16.2	0.00e+00	0	57	0	1085276160	49	4756
2026-01-01 22:48:43.18	153.55	13.11	-39.0	-41.2	16.3	0.00e+00	0	57	0	1087373312	49	4705
2026-01-01 22:48:44.19	153.66	13.03	-39.2	-41.5	16.0	0.00e+00	0	57	0	1089470464	49	4847
2026-01-01 22:48:45.20	153.77	12.94	-39.2	-41.6	15.9	0.00e+00	0	57	0	1091567616	49	4884
2026-01-01 22:48:46.21	153.88	12.86	-39.2	-41.5	16.0	0.00e+00	0	57	0	1093664768	49	4852
2026-01-01 22:48:47.22	153.99	12.78	-39.3	-41.7	15.8	0.00e+00	0	57	0	1094713344	49	4948
2026-01-01 22:48:48.23	154.10	12.69	-39.3	-41.8	15.7	0.00e+00	0	57	0	1096810496	49	4987
2026-01-01 22:48:49.24	154.20	12.61	-39.6	-42.1	15.4	0.00e+00	0	57	0	1098907648	49	5217
2026-01-01 22:48:50.24	154.31	12.53	-39.8	-42.4	15.2	7.00e-07	0	57	0	1101004800	50	5050
2026-01-01 22:48:51.25	154.42	12.45	-39.6	-42.2	15.3	0.00e+00	0	57	0	1103101952	50	4948
2026-01-01 22:48:52.26	154.52	12.36	-39.7	-42.3	15.2	0.00e+00	0	57	0	1104150528	50	4990
2026-01-01 22:48:53.27	154.63	12.28	-39.5	-42.0	15.5	0.00e+00	0	57	0	1106247680	50	4825
2026-01-01 22:48:54.28	154.73	12.20	-39.5	-42.0	15.4	0.00e+00	0	58	0	1108344832	50	4848
2026-01-01 22:48:55.29	154.84	12.12	-39.5	-42.0	15.4	0.00e+00	0	58	0	1110441984	50	4860
2026-01-01 22:48:56.30	154.94	12.04	-39.4	-41.9	15.6	0.00e+00	0	57	0	1112539136	50	4783
2026-01-01 22:48:57.31	155.05	11.96	-39.4	-41.9	15.5	0.00e+00	0	58	0	1113587712	50	4785
2026-01-01 22:48:58.32	155.15	11.88	-39.4	-41.9	15.5	0.00e+00	0	57	0	1115684864	50	4802
2026-01-01 22:48:59.33	155.25	11.79	-39.5	-42.0	15.5	0.00e+00	0	58	0	1117782016	50	4841
2026-01-01 22:49:00.34	155.36	11.71	-39.5	-42.0	15.4	0.00e+00	0	57	0	1119879168	50	4824
2026-01-01 22:49:01.35	155.46	11.63	-39.4	-41.9	15.5	0.00e+00	0	58	0	1121976320	50	4785
2026-01-01 22:49:02.36	155.56	11.55	-39.4	-41.9	15.5	0.00e+00	0	58	0	1123024896	50	4791
2026-01-01 22:49:03.37	155.66	11.47	-39.5	-42.0	15.4	0.00e+00	0	58	0	1125122048	50	4861
2026-01-01 22:49:04.38	155.76	11.39	-39.6	-42.1	15.3	0.00e+00	0	57	0	1127219200	50	4899
2026-01-01 22:49:05.39	155.86	11.31	-39.7	-42.3	15.1	0.00e+00	0	57	0	1129316352	50	5006
2026-01-01 22:49:06.40	155.96	11.23	-39.8	-42.5	14.9	0.00e+00	0	58	0	1131413504	50	5130
2026-01-01 22:49:07.40	156.05	11.16	-39.7	-42.4	15.0	0.00e+00	0	58	0	1133510656	50	5055
2026-01-01 22:49:08.42	156.15	11.08	-39.8	-42.5	14.9	7.00e-07	0	58	0	1134559232	50	5115
2026-01-01 22:49:09.42	156.25	11.00	-39.6	-42.2	15.1	0.00e+00	0	57	0	1136656384	50	4967
2026-01-01 22:49:10.44	156.35	10.92	-39.7	-42.3	15.1	0.00e+00	0	57	0	1138753536	50	5011
2026-01-01 22:49:11.45	156.44	10.84	-39.7	-42.3	15.1	0.00e+00	0	58	0	1140850688	50	5016
2026-01-01 22:49:12.46	156.54	10.76	-39.7	-42.3	15.1	0.00e+00	0	57	0	1142947840	50	5009
2026-01-01 22:49:13.46	156.63	10.68	-39.6	-42.3	15.1	0.00e+00	0	58	0	1143996416	50	4999
2026-01-01 22:49:14.47	156.73	10.61	-39.6	-42.2	15.1	0.00e+00	0	58	0	1146093568	50	4977
2026-01-01 22:49:15.48	156.82	10.53	-39.5	-42.1	15.2	0.00e+00	0	58	0	1148190720	50	4899
2026-01-01 22:49:16.49	156.92	10.45	-39.4	-41.9	15.4	0.00e+00	0	58	0	1150287872	50	4778
2026-01-01 22:49:17.50	157.01	10.37	-39.2	-41.6	15.7	0.00e+00	0	57	0	1152385024	50	4627
2026-01-01 22:49:18.51	157.10	10.30	-39.3	-41.7	15.6	0.00e+00	0	57	0	1153433600	50	4689
2026-01-01 22:49:19.52	157.19	10.22	-39.2	-41.6	15.6	0.00e+00	0	58	0	1155530752	50	4633
2026-01-01 22:49:20.53	157.29	10.14	-39.2	-41.6	15.7	0.00e+00	0	58	0	1157627904	50	4630
2026-01-01 22:49:21.54	157.38	10.06	-39.2	-41.6	15.7	0.00e+00	0	58	0	1159725056	50	4615
2026-01-01 22:49:22.55	157.47	9.99	-39.2	-41.6	15.7	0.00e+00	0	58	0	1161822208	50	4618
2026-01-01 22:49:23.56	157.56	9.91	-39.3	-41.7	15.5	0.00e+00	0	57	0	1162870784	50	4678
