passes_logs/2025/01/06/LEX_Murmansk/LEX_Murmansk__20250106_180041_NOAA_18_rec.log

#Pass ID: 20250106_180041_NOAA 18
#Satellite: NOAA 18
#Configuration: NOAA 18
#Start time: 2025-01-06 18:00:36.617029

#LorettStation: 1.0.0 05.05.2024
#Station: LEX_Murmansk
#Location: 33.156738 lon 68.926811 lat
#TLE: 1 28654U 05018A   25005.81892802  .00000565  00000+0  32357-3 0  9997
#TLE: 2 28654  98.8581  86.9638 0013924 205.2694 154.7799 14.13478522 11802

#Time	Az	El	Level	SNR
2025-01-06 18:00:48.846671	126.0	16.3	-92.6	12.0
2025-01-06 18:00:50.003911	126.0	16.4	-92.8	12.8
2025-01-06 18:00:51.157306	125.9	16.5	-91.9	10.6
2025-01-06 18:00:52.316616	125.8	16.7	-92.0	13.4
2025-01-06 18:00:53.472166	125.8	16.8	-92.4	10.3
2025-01-06 18:00:54.635235	125.7	16.9	-92.3	6.3
2025-01-06 18:00:55.789099	125.7	17.0	-92.5	7.3
2025-01-06 18:00:56.940653	125.6	17.2	-92.6	4.4
2025-01-06 18:00:58.096716	125.5	17.3	-92.2	3.0
2025-01-06 18:00:59.256127	125.5	17.4	-92.1	5.2
2025-01-06 18:01:00.397379	125.4	17.5	-92.8	6.9
2025-01-06 18:01:01.548725	125.3	17.7	-92.7	7.7
2025-01-06 18:01:02.707645	125.3	17.8	-92.7	5.9
2025-01-06 18:01:03.863853	125.2	17.9	-92.9	7.7
2025-01-06 18:01:05.013295	125.1	18.1	-92.5	8.1
2025-01-06 18:01:06.163879	125.1	18.2	-92.6	13.4
2025-01-06 18:01:07.328541	125.0	18.3	-92.4	13.7
2025-01-06 18:01:08.480547	124.9	18.5	-92.7	14.6
2025-01-06 18:01:09.638124	124.9	18.6	-93.0	12.6
2025-01-06 18:01:10.794632	124.8	18.7	-92.4	15.3
2025-01-06 18:01:11.949488	124.7	18.9	-92.7	6.8
2025-01-06 18:01:13.103909	124.7	19.0	-91.8	5.6
2025-01-06 18:01:14.263590	124.6	19.2	-92.1	14.4
2025-01-06 18:01:15.418760	124.5	19.3	-92.2	13.9
2025-01-06 18:01:16.575277	124.4	19.4	-92.7	15.2
2025-01-06 18:01:17.735341	124.4	19.6	-92.3	15.9
2025-01-06 18:01:18.891813	124.3	19.7	-92.3	15.8
2025-01-06 18:01:20.040932	124.2	19.9	-92.2	12.8
2025-01-06 18:01:21.199334	124.1	20.0	-92.1	14.9
2025-01-06 18:01:22.353536	124.1	20.1	-92.3	15.0
2025-01-06 18:01:23.509700	124.0	20.3	-92.7	15.5
2025-01-06 18:01:24.659342	123.9	20.4	-91.6	13.8
2025-01-06 18:01:25.812471	123.8	20.6	-92.6	14.7
2025-01-06 18:01:26.964115	123.7	20.7	-92.8	11.2
2025-01-06 18:01:28.115181	123.7	20.9	-92.4	7.4
2025-01-06 18:01:29.273538	123.6	21.0	-92.0	15.7
2025-01-06 18:01:30.424156	123.5	21.2	-92.7	8.9
2025-01-06 18:01:31.588991	123.4	21.3	-92.6	7.0
2025-01-06 18:01:32.745910	123.3	21.5	-92.4	13.8
2025-01-06 18:01:33.907321	123.2	21.6	-92.9	14.2
2025-01-06 18:01:35.062328	123.2	21.8	-90.8	11.9
2025-01-06 18:01:36.216324	123.1	21.9	-90.3	12.3
2025-01-06 18:01:37.376988	123.0	22.1	-90.8	12.4
2025-01-06 18:01:38.527124	122.9	22.2	-90.8	9.2
2025-01-06 18:01:39.682405	122.8	22.4	-90.9	11.8
2025-01-06 18:01:40.846300	122.7	22.5	-90.6	11.5
2025-01-06 18:01:41.996859	122.6	22.7	-92.6	13.1
2025-01-06 18:01:43.150406	122.5	22.8	-92.2	8.2
2025-01-06 18:01:44.305663	122.4	23.0	-92.3	9.9
2025-01-06 18:01:45.467907	122.3	23.2	-92.8	6.5
2025-01-06 18:01:46.633866	122.2	23.3	-92.7	8.0
2025-01-06 18:01:47.795330	122.2	23.5	-92.6	15.0
2025-01-06 18:01:48.954644	122.1	23.6	-92.6	14.3
2025-01-06 18:01:50.118431	122.0	23.8	-91.9	16.5
2025-01-06 18:01:51.272261	121.9	24.0	-91.9	16.0
2025-01-06 18:01:52.420421	121.8	24.1	-92.6	15.8
2025-01-06 18:01:53.575120	121.7	24.3	-91.2	13.3
2025-01-06 18:01:54.729139	121.6	24.5	-92.8	18.0
2025-01-06 18:01:55.886627	121.4	24.6	-93.0	16.1
2025-01-06 18:01:57.048225	121.3	24.8	-92.1	17.0
2025-01-06 18:01:58.198014	121.2	25.0	-92.2	12.5
2025-01-06 18:01:59.352355	121.1	25.1	-92.4	9.9
2025-01-06 18:02:00.500392	121.0	25.3	-93.1	6.8
2025-01-06 18:02:01.651119	120.9	25.5	-92.4	6.6
2025-01-06 18:02:02.806267	120.8	25.7	-93.0	6.7
2025-01-06 18:02:03.964622	120.7	25.8	-92.7	4.2
2025-01-06 18:02:05.121516	120.6	26.0	-92.3	4.9
2025-01-06 18:02:06.283296	120.5	26.2	-92.7	7.1
2025-01-06 18:02:07.432966	120.3	26.4	-93.0	8.3
2025-01-06 18:02:08.586979	120.2	26.5	-92.6	4.6
2025-01-06 18:02:09.743687	120.1	26.7	-92.7	5.5
2025-01-06 18:02:10.898900	120.0	26.9	-91.5	5.0
2025-01-06 18:02:12.056453	119.9	27.1	-92.6	6.2
2025-01-06 18:02:13.210295	119.7	27.3	-92.5	6.7
2025-01-06 18:02:14.371646	119.6	27.4	-92.9	6.7
2025-01-06 18:02:15.528707	119.5	27.6	-93.1	7.2
2025-01-06 18:02:16.688714	119.4	27.8	-92.8	6.8
2025-01-06 18:02:17.843680	119.2	28.0	-93.0	9.6
2025-01-06 18:02:18.993630	119.1	28.2	-91.9	4.3
2025-01-06 18:02:20.143595	119.0	28.4	-92.1	5.2
2025-01-06 18:02:21.301266	118.8	28.6	-92.1	4.9
2025-01-06 18:02:22.459142	118.7	28.8	-92.7	3.7
2025-01-06 18:02:23.614038	118.6	28.9	-92.9	5.7
2025-01-06 18:02:24.771740	118.4	29.1	-91.3	6.8
2025-01-06 18:02:25.926665	118.3	29.3	-92.8	9.1
2025-01-06 18:02:27.080298	118.2	29.5	-92.3	9.0
2025-01-06 18:02:28.238524	118.0	29.7	-92.6	12.5
2025-01-06 18:02:29.397159	117.9	29.9	-92.8	10.4
2025-01-06 18:02:30.543843	117.7	30.1	-92.2	12.9
2025-01-06 18:02:31.697915	117.6	30.3	-92.6	15.1
2025-01-06 18:02:32.862238	117.4	30.5	-92.5	11.0
2025-01-06 18:02:34.015403	117.3	30.7	-91.0	11.1
2025-01-06 18:02:35.165278	117.1	30.9	-92.2	10.6
2025-01-06 18:02:36.313632	117.0	31.1	-91.3	11.5
2025-01-06 18:02:37.475899	116.8	31.3	-92.9	4.8
2025-01-06 18:02:38.630347	116.6	31.5	-92.5	3.2
2025-01-06 18:02:39.788824	116.5	31.7	-92.7	8.5
2025-01-06 18:02:40.947013	116.3	32.0	-92.9	7.1
2025-01-06 18:02:42.103019	116.1	32.2	-92.0	8.3
2025-01-06 18:02:43.259586	116.0	32.4	-92.0	12.2
2025-01-06 18:02:44.427604	115.8	32.6	-91.4	13.3
2025-01-06 18:02:45.583761	115.6	32.8	-93.1	12.8
2025-01-06 18:02:46.747451	115.4	33.0	-93.0	17.2
2025-01-06 18:02:47.915241	115.3	33.2	-93.0	13.3
2025-01-06 18:02:49.072683	115.1	33.5	-92.4	13.9
2025-01-06 18:02:50.229144	114.9	33.7	-92.3	17.3
2025-01-06 18:02:51.380715	114.7	33.9	-92.7	16.3
2025-01-06 18:02:52.534678	114.5	34.1	-92.5	15.5
2025-01-06 18:02:53.685488	114.3	34.3	-92.8	16.2
2025-01-06 18:02:54.833034	114.1	34.6	-93.1	16.9
2025-01-06 18:02:55.987043	113.9	34.8	-92.8	8.6
2025-01-06 18:02:57.146871	113.7	35.0	-92.5	12.4
2025-01-06 18:02:58.296989	113.5	35.2	-92.6	15.5
2025-01-06 18:02:59.459141	113.3	35.5	-91.9	10.4
2025-01-06 18:03:00.609616	113.1	35.7	-92.8	12.9
2025-01-06 18:03:01.759058	112.9	35.9	-92.7	13.7
2025-01-06 18:03:02.917280	112.7	36.2	-91.5	12.4
2025-01-06 18:03:04.069313	112.5	36.4	-92.5	13.9
2025-01-06 18:03:05.232230	112.3	36.6	-92.6	13.0
2025-01-06 18:03:06.379002	112.0	36.9	-93.1	14.6
2025-01-06 18:03:07.530675	111.8	37.1	-91.7	11.1
2025-01-06 18:03:08.688936	111.6	37.3	-92.3	14.5
2025-01-06 18:03:09.852480	111.3	37.6	-91.3	18.0
2025-01-06 18:03:11.013181	111.1	37.8	-93.1	20.4
2025-01-06 18:03:12.172727	110.9	38.0	-92.5	19.9
2025-01-06 18:03:13.327113	110.6	38.3	-92.5	19.3
2025-01-06 18:03:14.481129	110.4	38.5	-93.1	11.1
2025-01-06 18:03:15.635368	110.1	38.8	-92.7	10.3
2025-01-06 18:03:16.795075	109.9	39.0	-92.6	14.4
2025-01-06 18:03:17.963220	109.6	39.3	-92.8	5.5
2025-01-06 18:03:19.116158	109.3	39.5	-92.6	7.1
2025-01-06 18:03:20.263297	109.1	39.8	-92.5	10.5
2025-01-06 18:03:21.414885	108.8	40.0	-92.8	10.4
2025-01-06 18:03:22.574005	108.5	40.3	-92.8	17.1
2025-01-06 18:03:23.731395	108.2	40.5	-93.2	13.5
2025-01-06 18:03:24.890974	108.0	40.8	-93.2	16.4
2025-01-06 18:03:26.051100	107.7	41.0	-92.8	13.6
2025-01-06 18:03:27.205518	107.4	41.3	-92.6	15.7
2025-01-06 18:03:28.361540	107.1	41.5	-92.9	19.9
2025-01-06 18:03:29.522953	106.8	41.8	-92.7	14.2
2025-01-06 18:03:30.674243	106.5	42.0	-93.0	11.8
2025-01-06 18:03:31.824659	106.1	42.3	-92.8	12.9
2025-01-06 18:03:32.982658	105.8	42.6	-92.8	14.2
2025-01-06 18:03:34.139017	105.5	42.8	-92.7	12.0
2025-01-06 18:03:35.278278	105.2	43.1	-92.8	16.8
2025-01-06 18:03:36.430368	104.8	43.3	-92.8	9.4
2025-01-06 18:03:37.587466	104.5	43.6	-92.7	5.1
2025-01-06 18:03:38.742095	104.2	43.9	-93.0	8.9
2025-01-06 18:03:39.899697	103.8	44.1	-92.6	5.7
2025-01-06 18:03:41.061449	103.4	44.4	-92.4	9.9
2025-01-06 18:03:42.217082	103.1	44.6	-91.3	14.0
2025-01-06 18:03:43.379811	102.7	44.9	-92.6	5.0
2025-01-06 18:03:44.535411	102.3	45.2	-93.1	5.7
2025-01-06 18:03:45.691373	102.0	45.4	-92.9	6.4
2025-01-06 18:03:46.834887	101.6	45.7	-92.9	8.7
2025-01-06 18:03:47.985607	101.2	46.0	-92.5	7.4
2025-01-06 18:03:49.131579	100.8	46.2	-92.4	7.0
2025-01-06 18:03:50.282912	100.4	46.5	-92.5	7.2
2025-01-06 18:03:51.454315	100.0	46.8	-92.8	6.3
2025-01-06 18:03:52.606396	99.5	47.0	-92.2	15.1
2025-01-06 18:03:53.758405	99.1	47.3	-92.9	8.8
2025-01-06 18:03:54.914264	98.7	47.6	-92.6	12.2
2025-01-06 18:03:56.062445	98.2	47.8	-92.1	16.7
2025-01-06 18:03:57.227523	97.8	48.1	-92.3	13.4
2025-01-06 18:03:58.384703	97.3	48.3	-92.1	14.3
2025-01-06 18:03:59.549108	96.8	48.6	-92.8	11.2
2025-01-06 18:04:00.711331	96.4	48.9	-92.9	16.9
2025-01-06 18:04:01.868403	95.9	49.1	-92.8	8.9
2025-01-06 18:04:03.026910	95.4	49.4	-92.2	2.9
2025-01-06 18:04:04.190494	94.9	49.7	-92.6	10.1
2025-01-06 18:04:05.345450	94.4	49.9	-92.6	3.8
2025-01-06 18:04:06.494032	93.8	50.2	-91.5	7.6
2025-01-06 18:04:07.656892	93.3	50.4	-92.5	12.3
2025-01-06 18:04:08.807539	92.8	50.7	-92.5	14.5
2025-01-06 18:04:09.962765	92.2	50.9	-92.6	7.8
2025-01-06 18:04:11.116804	91.7	51.2	-92.3	7.2
2025-01-06 18:04:12.273974	91.1	51.5	-92.1	3.8
2025-01-06 18:04:13.427267	90.5	51.7	-91.3	9.2
2025-01-06 18:04:14.585344	89.9	51.9	-92.8	6.4
2025-01-06 18:04:15.734488	89.3	52.2	-92.8	15.3
2025-01-06 18:04:16.890389	88.7	52.4	-93.1	11.7
2025-01-06 18:04:18.042313	88.1	52.7	-92.4	10.2
2025-01-06 18:04:19.201661	87.5	52.9	-92.1	13.0
2025-01-06 18:04:20.351250	86.9	53.2	-91.7	11.1
2025-01-06 18:04:21.504062	86.2	53.4	-93.0	12.8
2025-01-06 18:04:22.657870	85.6	53.6	-92.8	8.2
2025-01-06 18:04:23.813681	84.9	53.9	-92.5	15.5
2025-01-06 18:04:24.966077	84.2	54.1	-92.1	16.1
2025-01-06 18:04:26.119065	83.5	54.3	-90.9	11.7
2025-01-06 18:04:27.275641	82.8	54.5	-92.2	13.1
2025-01-06 18:04:28.433324	82.1	54.7	-92.2	12.4
2025-01-06 18:04:29.586724	81.4	54.9	-91.8	9.1
2025-01-06 18:04:30.750225	80.7	55.2	-92.5	12.1
2025-01-06 18:04:31.899971	79.9	55.4	-93.0	12.8
2025-01-06 18:04:33.055382	79.2	55.6	-92.5	11.4
2025-01-06 18:04:34.214819	78.4	55.8	-92.5	19.8
2025-01-06 18:04:35.372714	77.6	56.0	-91.1	18.1
2025-01-06 18:04:36.525357	76.9	56.1	-91.3	8.8
2025-01-06 18:04:37.684517	76.1	56.3	-91.8	14.4
2025-01-06 18:04:38.838856	75.3	56.5	-89.6	14.8
2025-01-06 18:04:39.993773	74.4	56.7	-91.3	11.5
2025-01-06 18:04:41.148171	73.6	56.8	-90.5	17.3
2025-01-06 18:04:42.305038	72.8	57.0	-92.2	18.9
2025-01-06 18:04:43.457712	71.9	57.2	-92.7	19.1
2025-01-06 18:04:44.615712	71.1	57.3	-93.0	20.5
2025-01-06 18:04:45.773225	70.2	57.5	-92.8	18.1
2025-01-06 18:04:46.922251	69.3	57.6	-92.5	14.1
2025-01-06 18:04:48.073627	68.5	57.7	-92.7	13.2
2025-01-06 18:04:49.229760	67.6	57.9	-92.3	18.8
2025-01-06 18:04:50.387227	66.7	58.0	-92.7	19.5
2025-01-06 18:04:51.546019	65.8	58.1	-92.7	13.4
2025-01-06 18:04:52.697098	64.8	58.2	-92.6	20.1
2025-01-06 18:04:53.852711	63.9	58.3	-92.6	18.2
2025-01-06 18:04:55.016838	63.0	58.4	-91.2	8.3
2025-01-06 18:04:56.172274	62.0	58.5	-92.4	16.0
2025-01-06 18:04:57.327734	61.1	58.6	-92.0	17.9
2025-01-06 18:04:58.485425	60.2	58.6	-92.8	9.9
2025-01-06 18:04:59.644353	59.2	58.7	-91.4	14.2
2025-01-06 18:05:00.791391	58.3	58.8	-92.5	22.5
2025-01-06 18:05:01.947892	57.3	58.8	-93.0	19.0
2025-01-06 18:05:03.105296	56.3	58.9	-92.4	17.1
2025-01-06 18:05:04.255642	55.4	58.9	-92.1	19.2
2025-01-06 18:05:05.415119	54.4	58.9	-92.3	21.7
2025-01-06 18:05:06.575199	53.4	58.9	-92.5	21.3
2025-01-06 18:05:07.728759	52.4	59.0	-92.4	19.5
2025-01-06 18:05:08.889684	51.5	59.0	-92.9	20.4
2025-01-06 18:05:10.050021	50.5	59.0	-92.2	17.8
2025-01-06 18:05:11.197694	49.5	59.0	-92.6	18.5
2025-01-06 18:05:12.356909	48.5	58.9	-92.2	18.9
2025-01-06 18:05:13.510110	47.6	58.9	-93.0	18.4
2025-01-06 18:05:14.667875	46.6	58.9	-93.3	18.7
2025-01-06 18:05:15.823831	45.6	58.8	-93.2	15.2
2025-01-06 18:05:16.975529	44.7	58.8	-92.1	14.9
2025-01-06 18:05:18.134405	43.7	58.7	-91.8	15.0
2025-01-06 18:05:19.294158	42.8	58.7	-92.9	14.9
2025-01-06 18:05:20.448177	41.8	58.6	-92.9	11.8
2025-01-06 18:05:21.605888	40.9	58.5	-92.8	12.4
2025-01-06 18:05:22.760005	39.9	58.4	-93.1	15.9
2025-01-06 18:05:23.919536	39.0	58.3	-93.2	12.3
2025-01-06 18:05:25.075429	38.1	58.2	-92.7	11.0
2025-01-06 18:05:26.220700	37.2	58.1	-92.6	11.8
2025-01-06 18:05:27.372158	36.2	58.0	-93.3	8.6
2025-01-06 18:05:28.527250	35.3	57.9	-92.8	6.4
2025-01-06 18:05:29.684776	34.4	57.8	-91.9	8.7
2025-01-06 18:05:30.850615	33.5	57.7	-92.4	11.3
2025-01-06 18:05:32.006815	32.7	57.5	-93.0	8.8
2025-01-06 18:05:33.159241	31.8	57.4	-92.4	15.3
2025-01-06 18:05:34.311475	30.9	57.2	-92.9	16.7
2025-01-06 18:05:35.471937	30.1	57.1	-92.2	7.1
2025-01-06 18:05:36.617782	29.3	56.9	-93.4	8.9
2025-01-06 18:05:37.779065	28.4	56.7	-93.0	12.6
2025-01-06 18:05:38.925156	27.6	56.6	-92.9	7.9
2025-01-06 18:05:40.077719	26.8	56.4	-92.6	7.4
2025-01-06 18:05:41.237397	26.0	56.2	-92.2	12.4
2025-01-06 18:05:42.390084	25.2	56.0	-93.0	15.2
2025-01-06 18:05:43.545173	24.4	55.8	-93.1	10.3
2025-01-06 18:05:44.711272	23.7	55.6	-93.3	15.1
2025-01-06 18:05:45.870861	22.9	55.4	-93.3	16.4
2025-01-06 18:05:47.022385	22.1	55.2	-93.2	9.3
2025-01-06 18:05:48.188551	21.4	55.0	-92.8	12.2
2025-01-06 18:05:49.342772	20.7	54.8	-93.1	16.7
2025-01-06 18:05:50.499391	20.0	54.6	-93.1	9.1
2025-01-06 18:05:51.656619	19.3	54.4	-93.3	10.5
2025-01-06 18:05:52.803486	18.6	54.2	-92.6	15.3
2025-01-06 18:05:53.959537	17.9	53.9	-93.1	7.9
2025-01-06 18:05:55.117532	17.2	53.7	-92.9	12.2
2025-01-06 18:05:56.269288	16.6	53.5	-92.9	9.7
2025-01-06 18:05:57.419045	15.9	53.3	-92.7	11.9
2025-01-06 18:05:58.568934	15.3	53.0	-92.5	8.5
2025-01-06 18:05:59.720938	14.7	52.8	-93.0	15.7
2025-01-06 18:06:00.860846	14.0	52.5	-93.1	13.0
2025-01-06 18:06:02.020327	13.4	52.3	-93.4	13.9
2025-01-06 18:06:03.178488	12.8	52.1	-93.1	15.8
2025-01-06 18:06:04.338119	12.2	51.8	-92.7	15.5
2025-01-06 18:06:05.491834	11.7	51.6	-92.7	12.9
2025-01-06 18:06:06.644754	11.1	51.3	-93.2	14.4
2025-01-06 18:06:07.793064	10.5	51.1	-93.1	17.1
2025-01-06 18:06:08.946344	10.0	50.8	-93.0	16.1
2025-01-06 18:06:10.101893	9.4	50.5	-92.5	18.3
2025-01-06 18:06:11.257995	8.9	50.3	-92.5	17.1
2025-01-06 18:06:12.408283	8.4	50.0	-92.6	14.7
2025-01-06 18:06:13.555456	7.9	49.8	-93.2	11.9
2025-01-06 18:06:14.710978	7.4	49.5	-93.1	14.1
2025-01-06 18:06:15.869459	6.9	49.3	-93.0	10.9
2025-01-06 18:06:17.022559	6.4	49.0	-92.5	15.8
2025-01-06 18:06:18.174899	5.9	48.7	-92.8	14.4
2025-01-06 18:06:19.322571	5.4	48.5	-92.5	16.9
2025-01-06 18:06:20.477806	5.0	48.2	-92.7	16.7
2025-01-06 18:06:21.633050	4.5	47.9	-93.1	12.6
2025-01-06 18:06:22.795010	4.1	47.7	-92.9	15.5
2025-01-06 18:06:23.943427	3.6	47.4	-93.0	12.9
2025-01-06 18:06:25.101315	3.2	47.1	-92.5	16.3
2025-01-06 18:06:26.255663	2.8	46.9	-92.1	18.0
2025-01-06 18:06:27.409929	2.3	46.6	-93.2	8.1
2025-01-06 18:06:28.564301	1.9	46.4	-93.1	12.4
2025-01-06 18:06:29.717128	1.5	46.1	-93.0	18.1
2025-01-06 18:06:30.874236	1.1	45.8	-93.1	14.8
2025-01-06 18:06:32.022075	0.7	45.6	-92.6	12.6
2025-01-06 18:06:33.170767	0.4	45.3	-92.3	17.3
2025-01-06 18:06:34.325543	360.0	45.0	-92.7	16.3
2025-01-06 18:06:35.487422	359.6	44.8	-93.1	10.7
2025-01-06 18:06:36.640105	359.2	44.5	-92.6	11.7
2025-01-06 18:06:37.796312	358.9	44.2	-92.7	19.6
2025-01-06 18:06:38.957658	358.5	44.0	-93.2	11.6
2025-01-06 18:06:40.112644	358.2	43.7	-91.8	14.3
2025-01-06 18:06:41.273606	357.8	43.5	-92.4	18.3
2025-01-06 18:06:42.427083	357.5	43.2	-92.8	13.4
2025-01-06 18:06:43.571923	357.2	42.9	-93.0	16.2
2025-01-06 18:06:44.698354	356.9	42.7	-93.1	21.2
2025-01-06 18:06:45.819924	356.5	42.4	-93.0	20.5
2025-01-06 18:06:46.943269	356.2	42.2	-93.0	22.0
2025-01-06 18:06:48.063292	355.9	41.9	-92.4	20.6
2025-01-06 18:06:49.184440	355.6	41.7	-92.5	20.7
2025-01-06 18:06:50.305000	355.3	41.4	-92.6	21.5
2025-01-06 18:06:51.431710	355.1	41.2	-92.8	20.1
2025-01-06 18:06:52.551655	354.8	40.9	-92.9	21.5
2025-01-06 18:06:53.704138	354.5	40.7	-92.8	22.8
2025-01-06 18:06:54.857364	354.2	40.4	-93.0	20.5
2025-01-06 18:06:56.016863	353.9	40.2	-92.2	14.6
2025-01-06 18:06:57.167612	353.6	39.9	-92.4	20.2
2025-01-06 18:06:58.319192	353.4	39.7	-93.0	20.0
2025-01-06 18:06:59.479844	353.1	39.4	-92.4	14.0
2025-01-06 18:07:00.622962	352.8	39.2	-92.8	13.5
2025-01-06 18:07:01.779619	352.6	39.0	-92.7	21.4
2025-01-06 18:07:02.936655	352.3	38.7	-92.9	13.2
2025-01-06 18:07:04.091420	352.1	38.5	-92.5	12.7
2025-01-06 18:07:05.243797	351.8	38.2	-92.1	15.3
2025-01-06 18:07:06.399013	351.6	38.0	-93.0	15.0
2025-01-06 18:07:07.547450	351.4	37.7	-92.8	16.9
2025-01-06 18:07:08.707289	351.1	37.5	-91.8	13.0
2025-01-06 18:07:09.871668	350.9	37.3	-93.1	18.6
2025-01-06 18:07:11.021195	350.7	37.0	-92.9	18.0
2025-01-06 18:07:12.168465	350.4	36.8	-92.5	19.3
2025-01-06 18:07:13.320553	350.2	36.6	-90.7	11.0
2025-01-06 18:07:14.476543	350.0	36.3	-93.0	16.5
2025-01-06 18:07:15.628412	349.8	36.1	-93.3	16.8
2025-01-06 18:07:16.784373	349.6	35.9	-93.3	17.9
2025-01-06 18:07:17.948860	349.3	35.6	-93.2	12.3
2025-01-06 18:07:19.107379	349.1	35.4	-92.9	10.4
2025-01-06 18:07:20.268416	348.9	35.2	-93.1	15.1
2025-01-06 18:07:21.421793	348.7	34.9	-93.3	12.2
2025-01-06 18:07:22.569152	348.5	34.7	-90.8	9.6
2025-01-06 18:07:23.725155	348.3	34.5	-93.5	17.9
2025-01-06 18:07:24.891220	348.1	34.3	-93.0	15.8
2025-01-06 18:07:26.050164	348.0	34.0	-92.9	9.9
2025-01-06 18:07:27.205235	347.8	33.8	-92.7	17.5
2025-01-06 18:07:28.360685	347.6	33.6	-92.8	16.2
2025-01-06 18:07:29.514052	347.4	33.4	-92.9	15.4
2025-01-06 18:07:30.674766	347.2	33.2	-92.6	12.7
2025-01-06 18:07:31.833442	347.0	33.0	-92.2	14.7
2025-01-06 18:07:32.988261	346.9	32.7	-93.3	16.5
2025-01-06 18:07:34.140677	346.7	32.5	-92.8	12.8
2025-01-06 18:07:35.298063	346.5	32.3	-90.8	17.5
2025-01-06 18:07:36.449950	346.3	32.1	-91.4	12.8
2025-01-06 18:07:37.600589	346.2	31.9	-92.0	10.6
2025-01-06 18:07:38.757727	346.0	31.7	-92.0	16.6
2025-01-06 18:07:39.912764	345.9	31.5	-92.0	12.3
2025-01-06 18:07:41.060652	345.7	31.3	-91.8	11.7
2025-01-06 18:07:42.213225	345.5	31.1	-91.7	12.7
2025-01-06 18:07:43.374894	345.4	30.9	-91.7	18.9
2025-01-06 18:07:44.528485	345.2	30.7	-91.5	14.6
2025-01-06 18:07:45.689508	345.1	30.5	-92.2	19.2
2025-01-06 18:07:46.840516	344.9	30.3	-90.6	15.1
2025-01-06 18:07:48.008209	344.8	30.1	-91.2	13.8
2025-01-06 18:07:49.169240	344.6	29.9	-91.1	13.3
2025-01-06 18:07:50.318638	344.5	29.7	-91.1	16.0
2025-01-06 18:07:51.471591	344.3	29.5	-92.7	12.9
2025-01-06 18:07:52.632377	344.2	29.3	-91.8	10.9
2025-01-06 18:07:53.785430	344.1	29.1	-92.3	16.3
2025-01-06 18:07:54.941165	343.9	28.9	-93.2	12.4
2025-01-06 18:07:56.098982	343.8	28.7	-92.9	10.7
2025-01-06 18:07:57.254106	343.7	28.5	-92.7	11.4
2025-01-06 18:07:58.410848	343.5	28.3	-93.0	6.1
2025-01-06 18:07:59.561769	343.4	28.1	-93.0	5.0
2025-01-06 18:08:00.710685	343.3	27.9	-92.8	9.1
2025-01-06 18:08:01.863247	343.1	27.8	-92.9	14.1
2025-01-06 18:08:03.016624	343.0	27.6	-93.2	9.1
2025-01-06 18:08:04.174502	342.9	27.4	-92.4	9.9
2025-01-06 18:08:05.337388	342.8	27.2	-92.6	13.0
2025-01-06 18:08:06.488864	342.6	27.0	-93.2	12.1
2025-01-06 18:08:07.646088	342.5	26.8	-92.8	8.3
2025-01-06 18:08:08.814440	342.4	26.7	-93.2	11.8
2025-01-06 18:08:09.970332	342.3	26.5	-93.0	11.1
2025-01-06 18:08:11.123163	342.2	26.3	-92.9	7.5
2025-01-06 18:08:12.277919	342.0	26.1	-92.5	12.3
2025-01-06 18:08:13.433757	341.9	26.0	-92.8	9.9
2025-01-06 18:08:14.588469	341.8	25.8	-93.0	10.5
2025-01-06 18:08:15.748696	341.7	25.6	-92.6	13.3
2025-01-06 18:08:16.901140	341.6	25.4	-92.6	12.9
2025-01-06 18:08:18.062490	341.5	25.3	-92.5	8.8
2025-01-06 18:08:19.222792	341.4	25.1	-92.2	12.3
2025-01-06 18:08:20.375008	341.3	24.9	-92.2	11.8
2025-01-06 18:08:21.522281	341.2	24.8	-92.9	8.4
2025-01-06 18:08:22.676592	341.1	24.6	-92.3	4.4
2025-01-06 18:08:23.831336	341.0	24.4	-92.8	10.8
2025-01-06 18:08:24.991371	340.9	24.3	-92.2	5.5
2025-01-06 18:08:26.149388	340.8	24.1	-91.3	7.6
2025-01-06 18:08:27.302879	340.7	23.9	-91.7	12.0
2025-01-06 18:08:28.460601	340.6	23.8	-91.9	5.9
2025-01-06 18:08:29.612771	340.5	23.6	-92.4	7.3
2025-01-06 18:08:30.765864	340.4	23.4	-92.8	10.0
2025-01-06 18:08:31.927471	340.3	23.3	-92.7	10.7
2025-01-06 18:08:33.086564	340.2	23.1	-92.0	8.6
2025-01-06 18:08:34.245486	340.1	23.0	-92.0	13.6
2025-01-06 18:08:35.400221	340.0	22.8	-92.3	11.3
2025-01-06 18:08:36.553439	339.9	22.6	-92.4	8.9
2025-01-06 18:08:37.709901	339.8	22.5	-92.2	11.2
2025-01-06 18:08:38.858298	339.7	22.3	-92.0	13.2
2025-01-06 18:08:40.004523	339.6	22.2	-92.4	9.6
2025-01-06 18:08:41.156592	339.5	22.0	-92.3	12.8
2025-01-06 18:08:42.308175	339.5	21.9	-92.5	10.3
2025-01-06 18:08:43.466213	339.4	21.7	-92.0	11.5
2025-01-06 18:08:44.617368	339.3	21.6	-92.6	11.6
2025-01-06 18:08:45.772075	339.2	21.4	-92.3	17.5
2025-01-06 18:08:46.932236	339.1	21.3	-91.9	7.9
2025-01-06 18:08:48.086147	339.0	21.1	-92.1	10.7
2025-01-06 18:08:49.238110	339.0	21.0	-92.1	14.3
2025-01-06 18:08:50.392871	338.9	20.8	-92.4	14.7
2025-01-06 18:08:51.543695	338.8	20.7	-92.6	17.3
2025-01-06 18:08:52.702364	338.7	20.5	-92.5	10.5
2025-01-06 18:08:53.851757	338.6	20.4	-92.7	6.5
2025-01-06 18:08:55.002945	338.6	20.2	-92.4	9.9
2025-01-06 18:08:56.156315	338.5	20.1	-92.2	8.3
2025-01-06 18:08:57.308066	338.4	20.0	-92.4	12.4
2025-01-06 18:08:58.467651	338.3	19.8	-91.4	5.3
2025-01-06 18:08:59.618443	338.3	19.7	-92.9	5.0
2025-01-06 18:09:00.763727	338.2	19.5	-92.3	10.7
2025-01-06 18:09:01.919887	338.1	19.4	-92.4	10.1
2025-01-06 18:09:03.075242	338.0	19.3	-92.1	6.0
2025-01-06 18:09:04.233584	338.0	19.1	-92.0	13.7
2025-01-06 18:09:05.383221	337.9	19.0	-90.5	7.2
2025-01-06 18:09:06.537860	337.8	18.8	-91.4	5.7
2025-01-06 18:09:07.690803	337.7	18.7	-92.1	8.5
2025-01-06 18:09:08.844005	337.7	18.6	-91.9	7.8
2025-01-06 18:09:10.001103	337.6	18.4	-92.7	6.2
2025-01-06 18:09:11.155686	337.5	18.3	-91.9	15.7
2025-01-06 18:09:12.309406	337.5	18.2	-92.2	14.0
2025-01-06 18:09:13.469071	337.4	18.0	-92.8	6.5
2025-01-06 18:09:14.624800	337.3	17.9	-92.7	12.0
2025-01-06 18:09:15.789465	337.3	17.8	-92.6	5.3
2025-01-06 18:09:16.946569	337.2	17.6	-93.3	11.6
2025-01-06 18:09:18.097053	337.1	17.5	-92.4	3.5
2025-01-06 18:09:19.256333	337.1	17.4	-92.3	3.7
2025-01-06 18:09:20.414083	337.0	17.3	-93.0	4.3
2025-01-06 18:09:21.580148	337.0	17.1	-93.2	4.3
2025-01-06 18:09:22.740976	336.9	17.0	-92.8	3.8
2025-01-06 18:09:23.901203	336.8	16.9	-92.6	6.0
2025-01-06 18:09:25.053003	336.8	16.7	-92.8	5.6
2025-01-06 18:09:26.210441	336.7	16.6	-92.6	8.7
2025-01-06 18:09:27.357748	336.6	16.5	-92.7	4.5
2025-01-06 18:09:28.508970	336.6	16.4	-93.0	4.4
2025-01-06 18:09:29.679081	336.5	16.2	-93.5	5.2
2025-01-06 18:09:30.842295	336.5	16.1	-93.2	5.0
2025-01-06 18:09:31.989253	336.4	16.0	-92.5	5.3
2025-01-06 18:09:33.144022	336.4	15.9	-92.7	3.9
2025-01-06 18:09:34.300484	336.3	15.8	-92.6	5.4
2025-01-06 18:09:35.452620	336.2	15.6	-93.1	9.3
2025-01-06 18:09:36.605397	336.2	15.5	-92.9	3.4
2025-01-06 18:09:37.762211	336.1	15.4	-93.3	5.0
2025-01-06 18:09:38.914800	336.1	15.3	-92.7	4.0
2025-01-06 18:09:40.069336	336.0	15.2	-92.6	3.3
2025-01-06 18:09:41.226780	336.0	15.0	-92.8	5.8
2025-01-06 18:09:42.374335	335.9	14.9	-92.3	3.4
2025-01-06 18:09:43.525240	335.9	14.8	-93.0	5.3
2025-01-06 18:09:44.684192	335.8	14.7	-93.1	3.9
2025-01-06 18:09:45.841848	335.8	14.6	-93.2	8.6
#Closed at: 2025-01-06 18:00:41.647634