passes_logs/2025/01/06/LEX_Murmansk/LEX_Murmansk__20250106_194125_NOAA_18_rec.log

#Pass ID: 20250106_194125_NOAA 18
#Satellite: NOAA 18
#Configuration: NOAA 18
#Start time: 2025-01-06 19:41:20.584288

#LorettStation: 1.0.0 05.05.2024
#Station: LEX_Murmansk
#Location: 33.156738 lon 68.926811 lat
#TLE: 1 28654U 05018A   25005.81892802  .00000565  00000+0  32357-3 0  9997
#TLE: 2 28654  98.8581  86.9638 0013924 205.2694 154.7799 14.13478522 11802

#Time	Az	El	Level	SNR
2025-01-06 19:41:32.739314	177.9	16.3	-91.9	4.6
2025-01-06 19:41:33.896092	178.0	16.4	-92.2	5.8
2025-01-06 19:41:35.046524	178.1	16.5	-91.8	3.7
2025-01-06 19:41:36.207592	178.2	16.6	-91.5	3.7
2025-01-06 19:41:37.363029	178.2	16.8	-91.8	5.2
2025-01-06 19:41:38.518063	178.3	16.9	-90.6	6.0
2025-01-06 19:41:39.684553	178.4	17.0	-91.5	3.2
2025-01-06 19:41:40.844563	178.4	17.1	-89.9	5.4
2025-01-06 19:41:42.003831	178.5	17.3	-91.2	3.9
2025-01-06 19:41:43.162291	178.6	17.4	-91.5	4.0
2025-01-06 19:41:44.317208	178.7	17.5	-91.7	1.8
2025-01-06 19:41:45.472219	178.7	17.6	-92.2	4.5
2025-01-06 19:41:46.627196	178.8	17.8	-91.1	4.6
2025-01-06 19:41:47.782151	178.9	17.9	-92.8	5.8
2025-01-06 19:41:48.937729	179.0	18.0	-92.2	7.3
2025-01-06 19:41:50.099963	179.0	18.2	-92.1	5.5
2025-01-06 19:41:51.256765	179.1	18.3	-92.2	5.4
2025-01-06 19:41:52.412425	179.2	18.4	-92.5	5.0
2025-01-06 19:41:53.559615	179.3	18.6	-92.0	6.2
2025-01-06 19:41:54.711895	179.3	18.7	-92.4	7.5
2025-01-06 19:41:55.864472	179.4	18.8	-92.3	7.5
2025-01-06 19:41:57.016324	179.5	19.0	-92.7	9.7
2025-01-06 19:41:58.171036	179.6	19.1	-92.1	8.8
2025-01-06 19:41:59.292661	179.7	19.2	-92.3	12.1
2025-01-06 19:42:00.414407	179.7	19.4	-92.8	12.2
2025-01-06 19:42:01.535776	179.8	19.5	-92.9	11.3
2025-01-06 19:42:02.656835	179.9	19.6	-92.7	10.8
2025-01-06 19:42:03.778257	180.0	19.8	-92.6	10.6
2025-01-06 19:42:04.899132	180.1	19.9	-92.4	11.5
2025-01-06 19:42:06.020662	180.1	20.1	-92.7	7.2
2025-01-06 19:42:07.141081	180.2	20.2	-91.7	3.8
2025-01-06 19:42:08.266190	180.3	20.3	-91.8	10.3
2025-01-06 19:42:09.403834	180.4	20.5	-92.2	7.9
2025-01-06 19:42:10.542428	180.5	20.6	-92.6	8.4
2025-01-06 19:42:11.686301	180.6	20.8	-92.2	12.3
2025-01-06 19:42:12.830686	180.7	20.9	-92.7	11.6
2025-01-06 19:42:13.975208	180.8	21.0	-92.9	11.3
2025-01-06 19:42:15.129510	180.8	21.2	-92.1	7.3
2025-01-06 19:42:16.279318	180.9	21.3	-92.4	10.0
2025-01-06 19:42:17.433402	181.0	21.5	-92.3	10.9
2025-01-06 19:42:18.590312	181.1	21.6	-93.0	10.2
2025-01-06 19:42:19.753638	181.2	21.8	-93.0	11.3
2025-01-06 19:42:20.910090	181.3	21.9	-92.7	8.2
2025-01-06 19:42:22.064886	181.4	22.1	-92.3	7.3
2025-01-06 19:42:23.215578	181.5	22.2	-92.5	8.5
2025-01-06 19:42:24.373871	181.6	22.4	-92.6	8.6
2025-01-06 19:42:25.530037	181.7	22.6	-93.0	5.4
2025-01-06 19:42:26.684253	181.8	22.7	-92.4	8.6
2025-01-06 19:42:27.838597	181.9	22.9	-92.7	8.3
2025-01-06 19:42:28.987476	182.0	23.0	-92.6	9.4
2025-01-06 19:42:30.139112	182.1	23.2	-92.3	10.1
2025-01-06 19:42:31.272562	182.2	23.3	-91.8	10.3
2025-01-06 19:42:32.406414	182.3	23.5	-92.6	8.1
2025-01-06 19:42:33.557392	182.4	23.6	-92.2	7.4
2025-01-06 19:42:34.699878	182.5	23.8	-92.7	10.1
2025-01-06 19:42:35.849555	182.6	24.0	-92.8	11.3
2025-01-06 19:42:36.996617	182.7	24.1	-92.3	12.7
2025-01-06 19:42:38.119712	182.9	24.3	-92.1	9.3
2025-01-06 19:42:39.266793	183.0	24.4	-92.2	11.3
2025-01-06 19:42:40.405560	183.1	24.6	-92.7	12.4
2025-01-06 19:42:41.553177	183.2	24.8	-92.7	7.4
2025-01-06 19:42:42.702637	183.3	24.9	-93.0	13.2
2025-01-06 19:42:43.847821	183.4	25.1	-92.8	12.4
2025-01-06 19:42:45.000268	183.5	25.3	-92.5	9.7
2025-01-06 19:42:46.135095	183.6	25.4	-91.9	10.7
2025-01-06 19:42:47.274385	183.8	25.6	-91.8	7.4
2025-01-06 19:42:48.421642	183.9	25.8	-92.1	10.0
2025-01-06 19:42:49.567365	184.0	26.0	-92.4	8.6
2025-01-06 19:42:50.714885	184.1	26.1	-91.8	10.5
2025-01-06 19:42:51.863571	184.3	26.3	-92.6	11.7
2025-01-06 19:42:53.013709	184.4	26.5	-92.2	11.6
2025-01-06 19:42:54.171497	184.5	26.7	-92.3	9.3
2025-01-06 19:42:55.326888	184.6	26.8	-92.3	8.5
2025-01-06 19:42:56.481098	184.8	27.0	-92.8	6.8
2025-01-06 19:42:57.632339	184.9	27.2	-91.3	4.1
2025-01-06 19:42:58.788335	185.0	27.4	-92.5	11.5
2025-01-06 19:42:59.946348	185.2	27.6	-92.5	6.8
2025-01-06 19:43:01.093319	185.3	27.7	-92.4	6.3
2025-01-06 19:43:02.251266	185.4	27.9	-92.7	11.1
2025-01-06 19:43:03.411152	185.6	28.1	-92.6	10.9
2025-01-06 19:43:04.568134	185.7	28.3	-92.8	12.2
2025-01-06 19:43:05.722939	185.9	28.5	-92.8	11.0
2025-01-06 19:43:06.880221	186.0	28.7	-92.2	12.6
2025-01-06 19:43:08.031396	186.1	28.9	-92.6	8.5
2025-01-06 19:43:09.187172	186.3	29.0	-91.5	7.7
2025-01-06 19:43:10.340057	186.4	29.2	-92.0	6.6
2025-01-06 19:43:11.493100	186.6	29.4	-92.6	7.3
2025-01-06 19:43:12.645238	186.7	29.6	-92.8	8.6
2025-01-06 19:43:13.796391	186.9	29.8	-93.0	10.5
2025-01-06 19:43:14.951378	187.0	30.0	-92.5	7.7
2025-01-06 19:43:16.104515	187.2	30.2	-92.3	4.4
2025-01-06 19:43:17.263036	187.4	30.4	-89.2	9.1
2025-01-06 19:43:18.419596	187.5	30.6	-92.3	12.6
2025-01-06 19:43:19.579626	187.7	30.8	-92.5	8.4
2025-01-06 19:43:20.730154	187.9	31.0	-92.5	11.4
2025-01-06 19:43:21.883831	188.0	31.2	-92.7	9.9
2025-01-06 19:43:23.035757	188.2	31.4	-92.8	8.0
2025-01-06 19:43:24.192826	188.4	31.6	-92.0	7.2
2025-01-06 19:43:25.338413	188.5	31.8	-92.0	6.7
2025-01-06 19:43:26.479487	188.7	32.0	-93.0	6.6
2025-01-06 19:43:27.599673	188.9	32.2	-92.4	5.7
2025-01-06 19:43:28.721122	189.0	32.4	-92.4	11.7
2025-01-06 19:43:29.842553	189.2	32.6	-92.5	7.9
2025-01-06 19:43:30.963135	189.4	32.8	-92.9	10.8
2025-01-06 19:43:32.084633	189.6	33.1	-92.3	8.4
2025-01-06 19:43:33.206252	189.8	33.3	-92.5	9.8
2025-01-06 19:43:34.327393	190.0	33.5	-92.5	10.3
2025-01-06 19:43:35.460979	190.1	33.7	-92.3	5.2
2025-01-06 19:43:36.611760	190.3	33.9	-92.3	7.5
2025-01-06 19:43:37.762413	190.5	34.1	-92.7	9.4
2025-01-06 19:43:38.911280	190.7	34.3	-91.0	7.1
2025-01-06 19:43:40.067507	190.9	34.6	-91.8	5.4
2025-01-06 19:43:41.222342	191.1	34.8	-92.1	4.8
2025-01-06 19:43:42.382983	191.4	35.0	-92.4	7.0
2025-01-06 19:43:43.537583	191.6	35.2	-92.5	9.4
2025-01-06 19:43:44.690204	191.8	35.4	-92.6	10.0
2025-01-06 19:43:45.847413	192.0	35.7	-92.9	7.3
2025-01-06 19:43:47.004760	192.2	35.9	-92.8	8.4
2025-01-06 19:43:48.161657	192.4	36.1	-92.4	13.4
2025-01-06 19:43:49.309297	192.7	36.4	-92.6	14.4
2025-01-06 19:43:50.462659	192.9	36.6	-93.2	13.7
2025-01-06 19:43:51.632601	193.1	36.8	-92.8	10.7
2025-01-06 19:43:52.789757	193.4	37.1	-92.4	13.6
2025-01-06 19:43:53.946381	193.6	37.3	-92.9	6.7
2025-01-06 19:43:55.097267	193.8	37.5	-92.5	5.4
2025-01-06 19:43:56.251291	194.1	37.8	-92.3	11.7
2025-01-06 19:43:57.412133	194.3	38.0	-92.7	10.5
2025-01-06 19:43:58.576053	194.6	38.2	-93.0	12.5
2025-01-06 19:43:59.732669	194.9	38.5	-93.2	12.8
2025-01-06 19:44:00.871520	195.1	38.7	-92.6	14.5
2025-01-06 19:44:01.995612	195.4	39.0	-93.0	14.3
2025-01-06 19:44:03.144563	195.6	39.2	-92.7	11.7
2025-01-06 19:44:04.288190	195.9	39.4	-92.3	17.1
2025-01-06 19:44:05.441389	196.2	39.7	-92.6	13.2
2025-01-06 19:44:06.600951	196.5	39.9	-92.8	13.8
2025-01-06 19:44:07.751015	196.7	40.2	-92.7	17.8
2025-01-06 19:44:08.899219	197.0	40.4	-93.0	19.1
2025-01-06 19:44:10.056364	197.3	40.7	-92.1	19.2
2025-01-06 19:44:11.186276	197.6	40.9	-92.0	16.9
2025-01-06 19:44:12.323662	197.9	41.2	-92.2	20.2
2025-01-06 19:44:13.465493	198.2	41.4	-92.5	12.8
2025-01-06 19:44:14.608964	198.5	41.7	-92.6	8.1
2025-01-06 19:44:15.734629	198.8	41.9	-92.6	17.4
2025-01-06 19:44:16.882911	199.1	42.2	-92.5	18.2
2025-01-06 19:44:18.031987	199.5	42.4	-92.3	12.1
2025-01-06 19:44:19.174943	199.8	42.7	-92.2	17.3
2025-01-06 19:44:20.338424	200.1	42.9	-92.5	18.0
2025-01-06 19:44:21.477514	200.5	43.2	-92.2	20.1
2025-01-06 19:44:22.632583	200.8	43.4	-92.8	18.8
2025-01-06 19:44:23.775288	201.2	43.7	-88.9	15.8
2025-01-06 19:44:24.902310	201.5	43.9	-92.4	18.7
2025-01-06 19:44:26.052992	201.9	44.2	-92.7	14.0
2025-01-06 19:44:27.197738	202.2	44.4	-92.2	15.9
2025-01-06 19:44:28.349125	202.6	44.7	-92.4	20.7
2025-01-06 19:44:29.502593	203.0	45.0	-92.5	19.3
2025-01-06 19:44:30.654498	203.4	45.2	-92.4	19.8
2025-01-06 19:44:31.804694	203.8	45.5	-92.1	19.9
2025-01-06 19:44:32.956837	204.2	45.7	-92.7	15.5
2025-01-06 19:44:34.113157	204.6	46.0	-92.2	14.0
2025-01-06 19:44:35.264069	205.0	46.3	-92.4	15.5
2025-01-06 19:44:36.417098	205.4	46.5	-91.6	10.2
2025-01-06 19:44:37.568361	205.8	46.8	-92.7	8.3
2025-01-06 19:44:38.723701	206.3	47.0	-92.9	15.6
2025-01-06 19:44:39.857582	206.7	47.3	-92.8	17.9
2025-01-06 19:44:41.002368	207.1	47.6	-92.5	10.2
2025-01-06 19:44:42.161751	207.6	47.8	-91.9	12.5
2025-01-06 19:44:43.302414	208.1	48.1	-92.2	16.2
2025-01-06 19:44:44.453024	208.5	48.3	-92.6	16.9
2025-01-06 19:44:45.601667	209.0	48.6	-91.4	14.0
2025-01-06 19:44:46.760990	209.5	48.8	-92.3	15.4
2025-01-06 19:44:47.915781	210.0	49.1	-92.4	15.7
2025-01-06 19:44:49.066926	210.5	49.4	-92.0	12.7
2025-01-06 19:44:50.222232	211.0	49.6	-92.1	15.9
2025-01-06 19:44:51.370849	211.5	49.9	-92.3	15.8
2025-01-06 19:44:52.530137	212.0	50.1	-92.9	11.2
2025-01-06 19:44:53.678937	212.6	50.4	-92.5	14.2
2025-01-06 19:44:54.829868	213.1	50.6	-92.8	16.7
2025-01-06 19:44:55.976018	213.7	50.9	-92.8	16.5
2025-01-06 19:44:57.135476	214.2	51.1	-92.4	16.3
2025-01-06 19:44:58.295031	214.8	51.4	-92.4	15.8
2025-01-06 19:44:59.452525	215.4	51.6	-92.9	15.5
2025-01-06 19:45:00.604205	216.0	51.8	-92.7	16.0
2025-01-06 19:45:01.759261	216.6	52.1	-92.7	19.5
2025-01-06 19:45:02.912110	217.2	52.3	-93.0	14.9
2025-01-06 19:45:04.066464	217.8	52.6	-92.3	9.4
2025-01-06 19:45:05.217122	218.4	52.8	-92.3	15.0
2025-01-06 19:45:06.374631	219.1	53.0	-92.3	19.8
2025-01-06 19:45:07.527263	219.7	53.3	-92.5	9.0
2025-01-06 19:45:08.683334	220.4	53.5	-92.9	15.7
2025-01-06 19:45:09.828502	221.0	53.7	-92.7	21.6
2025-01-06 19:45:10.981091	221.7	53.9	-92.8	18.4
2025-01-06 19:45:12.118782	222.4	54.1	-92.4	21.0
2025-01-06 19:45:13.258530	223.1	54.4	-92.3	25.3
2025-01-06 19:45:14.407491	223.8	54.6	-92.8	21.7
2025-01-06 19:45:15.548413	224.5	54.8	-92.9	21.7
2025-01-06 19:45:16.702965	225.2	55.0	-92.7	23.3
2025-01-06 19:45:17.859362	226.0	55.2	-92.7	25.5
2025-01-06 19:45:19.015308	226.7	55.4	-92.2	16.3
2025-01-06 19:45:20.174675	227.5	55.6	-92.0	23.6
2025-01-06 19:45:21.332169	228.3	55.7	-92.1	25.5
2025-01-06 19:45:22.493541	229.1	55.9	-92.6	21.2
2025-01-06 19:45:23.648251	229.9	56.1	-92.8	14.3
2025-01-06 19:45:24.799781	230.7	56.3	-93.1	23.2
2025-01-06 19:45:25.954717	231.5	56.4	-93.1	19.7
2025-01-06 19:45:27.111753	232.3	56.6	-92.3	15.4
2025-01-06 19:45:28.270019	233.1	56.8	-92.5	24.3
2025-01-06 19:45:29.427396	234.0	56.9	-92.8	20.5
2025-01-06 19:45:30.584492	234.8	57.1	-93.0	15.1
2025-01-06 19:45:31.739830	235.7	57.2	-92.3	24.9
2025-01-06 19:45:32.889271	236.6	57.3	-92.7	20.9
2025-01-06 19:45:34.044388	237.4	57.5	-92.7	14.4
2025-01-06 19:45:35.200121	238.3	57.6	-92.4	12.6
2025-01-06 19:45:36.350757	239.2	57.7	-92.3	18.4
2025-01-06 19:45:37.504998	240.1	57.8	-92.9	19.8
2025-01-06 19:45:38.660054	241.0	57.9	-93.1	10.4
2025-01-06 19:45:39.815330	241.9	58.0	-92.7	10.0
2025-01-06 19:45:40.971169	242.9	58.1	-92.6	14.9
2025-01-06 19:45:42.120557	243.8	58.2	-92.4	10.6
2025-01-06 19:45:43.268287	244.7	58.3	-92.3	12.2
2025-01-06 19:45:44.429400	245.6	58.4	-92.3	16.4
2025-01-06 19:45:45.558226	246.6	58.4	-92.6	10.1
2025-01-06 19:45:46.708956	247.5	58.5	-92.8	10.6
2025-01-06 19:45:47.848978	248.4	58.5	-92.7	11.4
2025-01-06 19:45:48.995937	249.4	58.6	-92.4	11.4
2025-01-06 19:45:50.149177	250.4	58.6	-92.4	4.7
2025-01-06 19:45:51.290032	251.3	58.6	-92.3	6.5
2025-01-06 19:45:52.437308	252.3	58.7	-92.5	10.3
2025-01-06 19:45:53.563563	253.2	58.7	-92.5	11.8
2025-01-06 19:45:54.717327	254.2	58.7	-92.1	15.1
2025-01-06 19:45:55.861634	255.1	58.7	-92.7	13.9
2025-01-06 19:45:57.010760	256.1	58.7	-93.1	9.6
2025-01-06 19:45:58.158495	257.0	58.7	-91.8	19.4
2025-01-06 19:45:59.303608	258.0	58.6	-92.4	14.7
2025-01-06 19:46:00.453611	258.9	58.6	-92.7	19.6
2025-01-06 19:46:01.611516	259.9	58.6	-92.2	12.7
2025-01-06 19:46:02.765981	260.8	58.5	-92.4	14.1
2025-01-06 19:46:03.920994	261.8	58.5	-92.5	14.7
2025-01-06 19:46:05.076804	262.7	58.4	-92.2	11.9
2025-01-06 19:46:06.228237	263.7	58.3	-92.4	16.9
2025-01-06 19:46:07.390657	264.6	58.3	-92.4	15.3
2025-01-06 19:46:08.538581	265.5	58.2	-92.8	17.7
2025-01-06 19:46:09.708427	266.5	58.1	-92.3	15.4
2025-01-06 19:46:10.858014	267.4	58.0	-92.4	19.0
2025-01-06 19:46:12.023159	268.3	57.9	-92.7	19.8
2025-01-06 19:46:13.181104	269.2	57.8	-92.3	15.9
2025-01-06 19:46:14.339698	270.1	57.7	-92.2	18.5
2025-01-06 19:46:15.487315	271.0	57.6	-92.3	11.9
2025-01-06 19:46:16.638181	271.9	57.4	-92.5	11.2
2025-01-06 19:46:17.788461	272.8	57.3	-92.6	17.5
2025-01-06 19:46:18.946858	273.6	57.2	-92.4	12.0
2025-01-06 19:46:20.102340	274.5	57.0	-91.9	18.2
2025-01-06 19:46:21.260462	275.3	56.9	-91.7	20.1
2025-01-06 19:46:22.413416	276.2	56.7	-92.4	16.8
2025-01-06 19:46:23.570524	277.0	56.6	-92.7	15.7
2025-01-06 19:46:24.724440	277.8	56.4	-92.4	20.0
2025-01-06 19:46:25.881263	278.6	56.2	-92.5	22.2
2025-01-06 19:46:27.039063	279.4	56.1	-92.5	7.8
2025-01-06 19:46:28.197849	280.2	55.9	-92.0	8.2
2025-01-06 19:46:29.356253	281.0	55.7	-92.0	13.6
2025-01-06 19:46:30.507921	281.8	55.5	-91.7	13.8
2025-01-06 19:46:31.657808	282.5	55.3	-92.0	15.3
2025-01-06 19:46:32.821055	283.3	55.1	-91.9	22.0
2025-01-06 19:46:33.970397	284.0	54.9	-92.2	7.0
2025-01-06 19:46:35.128943	284.8	54.7	-91.9	17.0
2025-01-06 19:46:36.286942	285.5	54.5	-91.5	14.2
2025-01-06 19:46:37.447530	286.2	54.3	-92.3	8.7
2025-01-06 19:46:38.599291	286.9	54.1	-92.4	11.2
2025-01-06 19:46:39.755840	287.6	53.9	-92.3	12.3
2025-01-06 19:46:40.917686	288.3	53.6	-92.0	15.6
2025-01-06 19:46:42.067273	288.9	53.4	-92.0	8.9
2025-01-06 19:46:43.225964	289.6	53.2	-91.8	15.1
2025-01-06 19:46:44.382235	290.2	53.0	-91.6	10.3
2025-01-06 19:46:45.544373	290.9	52.7	-92.2	18.2
2025-01-06 19:46:46.705662	291.5	52.5	-92.7	17.0
2025-01-06 19:46:47.857159	292.1	52.2	-92.5	13.4
2025-01-06 19:46:49.004462	292.7	52.0	-92.3	16.6
2025-01-06 19:46:50.159106	293.3	51.8	-92.0	11.3
2025-01-06 19:46:51.311032	293.9	51.5	-92.0	15.8
2025-01-06 19:46:52.468164	294.5	51.3	-92.1	21.3
2025-01-06 19:46:53.625924	295.0	51.0	-92.3	21.2
2025-01-06 19:46:54.783663	295.6	50.8	-92.7	14.6
2025-01-06 19:46:55.944771	296.2	50.5	-92.4	16.5
2025-01-06 19:46:57.097750	296.7	50.3	-91.9	13.5
2025-01-06 19:46:58.249212	297.2	50.0	-91.8	15.4
2025-01-06 19:46:59.414004	297.8	49.8	-91.8	17.1
2025-01-06 19:47:00.554826	298.3	49.5	-92.8	9.8
2025-01-06 19:47:01.711522	298.8	49.3	-92.6	11.8
2025-01-06 19:47:02.864097	299.3	49.0	-92.6	11.7
2025-01-06 19:47:04.016069	299.8	48.8	-92.3	14.7
2025-01-06 19:47:05.169001	300.2	48.5	-91.7	8.5
2025-01-06 19:47:06.322230	300.7	48.2	-91.8	14.7
2025-01-06 19:47:07.470760	301.2	48.0	-92.6	10.4
2025-01-06 19:47:08.624229	301.6	47.7	-92.5	13.7
2025-01-06 19:47:09.773456	302.1	47.5	-92.2	15.8
2025-01-06 19:47:10.923735	302.5	47.2	-92.5	11.6
2025-01-06 19:47:12.072470	303.0	47.0	-91.8	12.3
2025-01-06 19:47:13.222350	303.4	46.7	-91.9	17.3
2025-01-06 19:47:14.381781	303.8	46.4	-91.7	13.1
2025-01-06 19:47:15.533186	304.2	46.2	-92.1	9.0
2025-01-06 19:47:16.687638	304.7	45.9	-92.2	17.7
2025-01-06 19:47:17.839783	305.1	45.7	-91.8	14.5
2025-01-06 19:47:19.003036	305.5	45.4	-92.2	11.6
2025-01-06 19:47:20.157045	305.8	45.1	-91.8	8.9
2025-01-06 19:47:21.313626	306.2	44.9	-91.8	6.9
2025-01-06 19:47:22.461064	306.6	44.6	-92.4	7.9
2025-01-06 19:47:23.614195	307.0	44.4	-92.0	10.7
2025-01-06 19:47:24.768587	307.3	44.1	-92.0	19.0
2025-01-06 19:47:25.919118	307.7	43.8	-92.1	13.4
2025-01-06 19:47:27.076966	308.1	43.6	-91.6	12.9
2025-01-06 19:47:28.238361	308.4	43.3	-91.6	19.1
2025-01-06 19:47:29.388175	308.8	43.1	-91.6	17.4
2025-01-06 19:47:30.538445	309.1	42.8	-92.4	14.2
2025-01-06 19:47:31.667172	309.4	42.6	-92.4	16.8
2025-01-06 19:47:32.787474	309.7	42.3	-92.6	14.8
2025-01-06 19:47:33.909306	310.0	42.1	-92.1	13.5
2025-01-06 19:47:35.029938	310.4	41.8	-92.3	16.8
2025-01-06 19:47:36.150803	310.7	41.6	-91.9	16.8
2025-01-06 19:47:37.271784	311.0	41.3	-92.0	15.7
2025-01-06 19:47:38.391885	311.3	41.1	-92.1	18.0
2025-01-06 19:47:39.516710	311.6	40.9	-92.6	13.0
2025-01-06 19:47:40.657545	311.8	40.6	-92.5	12.8
2025-01-06 19:47:41.806583	312.1	40.4	-92.5	18.0
2025-01-06 19:47:42.958113	312.4	40.1	-92.3	8.5
2025-01-06 19:47:44.109023	312.7	39.9	-92.3	7.9
2025-01-06 19:47:45.266425	313.0	39.6	-92.0	14.9
2025-01-06 19:47:46.420110	313.3	39.4	-92.5	15.7
2025-01-06 19:47:47.573032	313.5	39.1	-92.8	9.1
2025-01-06 19:47:48.728482	313.8	38.9	-92.3	14.5
2025-01-06 19:47:49.882128	314.1	38.7	-92.0	15.2
2025-01-06 19:47:51.038627	314.3	38.4	-92.3	9.6
2025-01-06 19:47:52.192970	314.6	38.2	-91.8	8.9
2025-01-06 19:47:53.345345	314.8	37.9	-92.1	11.3
2025-01-06 19:47:54.502613	315.1	37.7	-91.9	11.5
2025-01-06 19:47:55.652189	315.3	37.5	-92.1	11.2
2025-01-06 19:47:56.807748	315.6	37.2	-92.5	9.0
2025-01-06 19:47:57.967831	315.8	37.0	-92.8	7.6
2025-01-06 19:47:59.120213	316.0	36.8	-92.4	4.6
2025-01-06 19:48:00.266137	316.3	36.5	-91.8	10.4
2025-01-06 19:48:01.409387	316.5	36.3	-92.4	9.9
2025-01-06 19:48:02.538812	316.7	36.1	-92.5	9.3
2025-01-06 19:48:03.693709	316.9	35.9	-92.4	12.9
2025-01-06 19:48:04.844488	317.2	35.6	-92.9	10.6
2025-01-06 19:48:05.995573	317.4	35.4	-92.3	7.7
2025-01-06 19:48:07.136911	317.6	35.2	-92.2	7.1
2025-01-06 19:48:08.292763	317.8	35.0	-92.3	13.7
2025-01-06 19:48:09.438495	318.0	34.7	-92.1	10.4
2025-01-06 19:48:10.586913	318.2	34.5	-92.4	11.3
2025-01-06 19:48:11.748211	318.4	34.3	-92.3	16.7
2025-01-06 19:48:12.899626	318.6	34.1	-92.4	15.9
2025-01-06 19:48:14.045723	318.8	33.9	-92.8	13.7
2025-01-06 19:48:15.193993	319.0	33.7	-92.6	18.4
2025-01-06 19:48:16.326949	319.2	33.4	-92.7	18.5
2025-01-06 19:48:17.462726	319.4	33.2	-93.0	17.2
2025-01-06 19:48:18.616657	319.6	33.0	-92.7	17.9
2025-01-06 19:48:19.753035	319.7	32.8	-92.9	15.7
2025-01-06 19:48:20.887548	319.9	32.6	-92.8	18.1
2025-01-06 19:48:22.036684	320.1	32.4	-92.4	10.8
2025-01-06 19:48:23.177493	320.3	32.2	-92.5	11.1
2025-01-06 19:48:24.321411	320.5	32.0	-92.5	13.1
2025-01-06 19:48:25.470897	320.6	31.8	-92.7	10.3
2025-01-06 19:48:26.621936	320.8	31.6	-92.6	9.2
2025-01-06 19:48:27.772262	321.0	31.4	-92.8	9.5
2025-01-06 19:48:28.921941	321.1	31.2	-92.7	15.8
2025-01-06 19:48:30.078577	321.3	31.0	-92.4	9.8
2025-01-06 19:48:31.236888	321.5	30.8	-92.1	20.8
2025-01-06 19:48:32.385662	321.6	30.6	-92.0	11.8
2025-01-06 19:48:33.545257	321.8	30.4	-92.6	15.1
2025-01-06 19:48:34.693933	321.9	30.2	-92.8	12.6
2025-01-06 19:48:35.847054	322.1	30.0	-93.1	17.1
2025-01-06 19:48:37.001168	322.3	29.8	-93.0	17.9
2025-01-06 19:48:38.138009	322.4	29.6	-92.1	12.2
2025-01-06 19:48:39.275167	322.6	29.4	-92.2	20.1
2025-01-06 19:48:40.399832	322.7	29.2	-92.5	17.2
2025-01-06 19:48:41.546250	322.9	29.0	-92.6	13.9
2025-01-06 19:48:42.684479	323.0	28.8	-93.4	11.1
2025-01-06 19:48:43.844017	323.1	28.6	-92.9	11.9
2025-01-06 19:48:44.988627	323.3	28.5	-92.6	7.2
2025-01-06 19:48:46.142296	323.4	28.3	-92.5	9.1
2025-01-06 19:48:47.273405	323.6	28.1	-92.2	10.6
2025-01-06 19:48:48.412886	323.7	27.9	-92.6	4.8
2025-01-06 19:48:49.573148	323.8	27.7	-92.5	12.1
2025-01-06 19:48:50.712389	324.0	27.5	-92.8	15.3
2025-01-06 19:48:51.863898	324.1	27.4	-92.9	12.7
2025-01-06 19:48:53.017364	324.2	27.2	-92.4	12.4
2025-01-06 19:48:54.171041	324.4	27.0	-92.2	12.4
2025-01-06 19:48:55.326757	324.5	26.8	-92.1	10.4
2025-01-06 19:48:56.480487	324.6	26.6	-93.0	9.5
2025-01-06 19:48:57.629833	324.8	26.5	-92.9	8.5
2025-01-06 19:48:58.787160	324.9	26.3	-92.8	7.5
2025-01-06 19:48:59.939908	325.0	26.1	-93.0	9.0
2025-01-06 19:49:01.087462	325.1	25.9	-92.3	3.6
2025-01-06 19:49:02.249084	325.2	25.8	-92.1	5.1
2025-01-06 19:49:03.403705	325.4	25.6	-92.3	8.0
2025-01-06 19:49:04.555694	325.5	25.4	-92.7	9.5
2025-01-06 19:49:05.709569	325.6	25.3	-92.7	12.4
2025-01-06 19:49:06.872643	325.7	25.1	-92.4	14.5
2025-01-06 19:49:08.019938	325.8	24.9	-92.7	16.1
2025-01-06 19:49:09.170581	326.0	24.8	-92.2	5.4
2025-01-06 19:49:10.329953	326.1	24.6	-92.0	10.1
2025-01-06 19:49:11.494364	326.2	24.4	-92.5	8.1
2025-01-06 19:49:12.654111	326.3	24.3	-92.9	9.4
2025-01-06 19:49:13.811444	326.4	24.1	-92.4	8.2
2025-01-06 19:49:14.958702	326.5	23.9	-92.7	6.2
2025-01-06 19:49:16.117441	326.6	23.8	-92.3	4.5
2025-01-06 19:49:17.253855	326.7	23.6	-91.9	7.6
2025-01-06 19:49:18.385246	326.8	23.5	-92.6	7.5
2025-01-06 19:49:19.530512	326.9	23.3	-92.2	13.3
2025-01-06 19:49:20.674206	327.0	23.1	-93.0	10.0
2025-01-06 19:49:21.832639	327.1	23.0	-92.7	9.1
2025-01-06 19:49:22.985066	327.2	22.8	-92.8	7.6
2025-01-06 19:49:24.139048	327.3	22.7	-92.5	6.5
2025-01-06 19:49:25.299383	327.4	22.5	-92.2	12.5
2025-01-06 19:49:26.459963	327.5	22.4	-93.1	6.5
2025-01-06 19:49:27.614494	327.6	22.2	-93.0	7.3
2025-01-06 19:49:28.775333	327.7	22.1	-92.8	13.8
2025-01-06 19:49:29.929674	327.8	21.9	-92.7	4.6
2025-01-06 19:49:31.074567	327.9	21.8	-92.4	3.7
2025-01-06 19:49:32.230673	328.0	21.6	-92.0	15.6
2025-01-06 19:49:33.383022	328.1	21.5	-92.1	12.5
2025-01-06 19:49:34.535671	328.2	21.3	-93.0	7.4
2025-01-06 19:49:35.681251	328.3	21.2	-92.2	10.3
2025-01-06 19:49:36.838489	328.4	21.0	-92.2	14.0
2025-01-06 19:49:37.996210	328.5	20.9	-92.7	9.2
2025-01-06 19:49:39.150724	328.6	20.7	-92.4	12.4
2025-01-06 19:49:40.295483	328.7	20.6	-92.3	8.0
2025-01-06 19:49:41.452619	328.8	20.4	-92.6	3.0
2025-01-06 19:49:42.602023	328.8	20.3	-93.0	3.3
2025-01-06 19:49:43.759215	328.9	20.2	-92.6	7.6
2025-01-06 19:49:44.910786	329.0	20.0	-92.6	6.0
2025-01-06 19:49:46.068236	329.1	19.9	-92.3	4.6
2025-01-06 19:49:47.232892	329.2	19.7	-92.2	6.2
2025-01-06 19:49:48.392113	329.3	19.6	-91.9	4.4
2025-01-06 19:49:49.547208	329.4	19.5	-92.9	5.6
2025-01-06 19:49:50.701826	329.4	19.3	-92.8	2.5
2025-01-06 19:49:51.862779	329.5	19.2	-92.7	5.6
2025-01-06 19:49:53.018217	329.6	19.1	-92.7	5.5
2025-01-06 19:49:54.176258	329.7	18.9	-92.1	8.6
2025-01-06 19:49:55.333084	329.8	18.8	-92.4	9.8
2025-01-06 19:49:56.486366	329.8	18.6	-92.8	7.9
2025-01-06 19:49:57.639443	329.9	18.5	-92.7	5.3
2025-01-06 19:49:58.800045	330.0	18.4	-92.7	5.7
2025-01-06 19:49:59.950305	330.1	18.2	-92.5	5.3
2025-01-06 19:50:01.096283	330.2	18.1	-92.5	3.8
2025-01-06 19:50:02.245010	330.2	18.0	-92.5	4.7
2025-01-06 19:50:03.402858	330.3	17.9	-92.4	6.8
2025-01-06 19:50:04.552449	330.4	17.7	-92.4	6.9
2025-01-06 19:50:05.704668	330.5	17.6	-92.7	5.7
2025-01-06 19:50:06.859561	330.5	17.5	-92.9	3.5
2025-01-06 19:50:08.028178	330.6	17.3	-92.6	4.6
2025-01-06 19:50:09.186949	330.7	17.2	-92.0	3.9
2025-01-06 19:50:10.338047	330.7	17.1	-92.0	5.5
2025-01-06 19:50:11.484227	330.8	17.0	-93.0	4.1
2025-01-06 19:50:12.641230	330.9	16.8	-93.0	4.2
2025-01-06 19:50:13.798436	331.0	16.7	-92.8	3.8
2025-01-06 19:50:14.947255	331.0	16.6	-92.9	4.7
2025-01-06 19:50:16.092978	331.1	16.5	-92.1	3.0
2025-01-06 19:50:17.242145	331.2	16.3	-92.4	3.8
2025-01-06 19:50:18.405039	331.2	16.2	-92.3	5.8
2025-01-06 19:50:19.554881	331.3	16.1	-92.8	8.0
2025-01-06 19:50:20.711141	331.4	16.0	-92.7	5.9
2025-01-06 19:50:21.865585	331.4	15.9	-93.2	3.6
2025-01-06 19:50:23.012978	331.5	15.7	-93.0	5.6
2025-01-06 19:50:24.168791	331.6	15.6	-92.3	3.5
2025-01-06 19:50:25.323681	331.6	15.5	-92.6	4.4
2025-01-06 19:50:26.476864	331.7	15.4	-92.9	3.0
2025-01-06 19:50:27.625612	331.8	15.3	-92.5	5.1
2025-01-06 19:50:28.778905	331.8	15.1	-92.2	7.6
2025-01-06 19:50:29.938407	331.9	15.0	-92.2	7.0
2025-01-06 19:50:31.091053	332.0	14.9	-91.9	5.2
2025-01-06 19:50:32.246312	332.0	14.8	-92.0	4.9
2025-01-06 19:50:33.396758	332.1	14.7	-92.1	4.3
2025-01-06 19:50:34.548934	332.1	14.6	-92.7	7.2
#Closed at: 2025-01-06 19:41:25.537308