passes_logs/2025/01/06/LEX_Murmansk/LEX_Murmansk__20250106_091413_NOAA_19_rec.log

#Pass ID: 20250106_091413_NOAA 19
#Satellite: NOAA 19
#Configuration: NOAA 19
#Start time: 2025-01-06 09:14:09.035920

#LorettStation: 1.0.0 05.05.2024
#Station: LEX_Murmansk
#Location: 33.156738 lon 68.926811 lat
#TLE: 1 33591U 09005A   25005.80039681  .00000456  00000+0  26725-3 0  9991
#TLE: 2 33591  99.0212  69.4911 0014675  82.0274 278.2563 14.13252095819982

#Time	Az	El	Level	SNR
2025-01-06 09:14:21.203029	25.0	16.3	-92.0	0.1
2025-01-06 09:14:22.361968	25.0	16.4	-92.4	2.2
2025-01-06 09:14:23.523272	25.0	16.6	-92.6	3.4
2025-01-06 09:14:24.801243	24.9	16.7	-92.4	1.7
2025-01-06 09:14:25.963809	24.9	16.9	-92.4	0.9
2025-01-06 09:14:27.123438	24.9	17.0	-92.5	1.8
2025-01-06 09:14:28.285172	24.9	17.1	-92.3	1.4
2025-01-06 09:14:29.454966	24.9	17.3	-92.7	3.1
2025-01-06 09:14:30.629050	24.8	17.4	-92.6	5.1
2025-01-06 09:14:31.793507	24.8	17.5	-92.5	5.5
2025-01-06 09:14:32.952942	24.8	17.7	-92.5	6.1
2025-01-06 09:14:34.113022	24.8	17.8	-92.4	3.9
2025-01-06 09:14:35.285407	24.7	17.9	-92.6	3.2
2025-01-06 09:14:36.445134	24.7	18.1	-92.5	5.8
2025-01-06 09:14:37.609806	24.7	18.2	-92.7	10.1
2025-01-06 09:14:38.778849	24.7	18.4	-92.2	4.5
2025-01-06 09:14:39.938542	24.7	18.5	-90.8	5.2
2025-01-06 09:14:41.100965	24.6	18.6	-92.0	2.8
2025-01-06 09:14:42.263263	24.6	18.8	-91.1	1.7
2025-01-06 09:14:43.420916	24.6	18.9	-92.3	2.5
2025-01-06 09:14:44.577776	24.6	19.1	-92.5	3.4
2025-01-06 09:14:45.742005	24.5	19.2	-92.5	5.5
2025-01-06 09:14:46.904768	24.5	19.4	-92.3	5.9
2025-01-06 09:14:48.065924	24.5	19.5	-92.2	6.4
2025-01-06 09:14:49.231938	24.5	19.6	-92.1	3.1
2025-01-06 09:14:50.398107	24.4	19.8	-92.3	4.0
2025-01-06 09:14:51.566783	24.4	19.9	-92.5	6.6
2025-01-06 09:14:52.731434	24.4	20.1	-92.1	6.9
2025-01-06 09:14:53.895844	24.4	20.2	-91.9	8.7
2025-01-06 09:14:55.062017	24.3	20.4	-92.0	5.6
2025-01-06 09:14:56.228508	24.3	20.5	-92.0	2.6
2025-01-06 09:14:57.389344	24.3	20.7	-91.7	0.5
2025-01-06 09:14:58.552703	24.2	20.9	-92.1	2.9
2025-01-06 09:14:59.729085	24.2	21.0	-91.6	1.6
2025-01-06 09:15:00.879282	24.2	21.2	-91.9	5.4
2025-01-06 09:15:02.038756	24.2	21.3	-92.3	11.9
2025-01-06 09:15:03.201282	24.1	21.5	-91.6	9.5
2025-01-06 09:15:04.359139	24.1	21.6	-91.5	6.1
2025-01-06 09:15:05.523336	24.1	21.8	-91.8	5.9
2025-01-06 09:15:06.680133	24.0	22.0	-91.8	6.9
2025-01-06 09:15:07.845533	24.0	22.1	-92.0	4.8
2025-01-06 09:15:09.006943	24.0	22.3	-91.8	9.3
2025-01-06 09:15:10.174243	23.9	22.5	-91.6	12.8
2025-01-06 09:15:11.329708	23.9	22.6	-91.9	7.2
2025-01-06 09:15:12.465674	23.9	22.8	-91.6	3.7
2025-01-06 09:15:13.591792	23.8	22.9	-92.0	2.1
2025-01-06 09:15:14.749746	23.8	23.1	-92.0	1.3
2025-01-06 09:15:15.917052	23.8	23.3	-91.8	3.6
2025-01-06 09:15:17.078629	23.7	23.5	-91.7	6.8
2025-01-06 09:15:18.242297	23.7	23.6	-91.0	10.1
2025-01-06 09:15:19.405479	23.7	23.8	-91.6	13.0
2025-01-06 09:15:20.573191	23.6	24.0	-92.7	11.1
2025-01-06 09:15:21.743372	23.6	24.1	-92.6	7.9
2025-01-06 09:15:22.904929	23.6	24.3	-91.8	7.4
2025-01-06 09:15:24.068204	23.5	24.5	-91.6	9.1
2025-01-06 09:15:25.231271	23.5	24.7	-91.7	12.4
2025-01-06 09:15:26.394210	23.5	24.9	-91.8	10.0
2025-01-06 09:15:27.558247	23.4	25.0	-92.2	9.0
2025-01-06 09:15:28.725469	23.4	25.2	-92.3	4.4
2025-01-06 09:15:29.884227	23.3	25.4	-92.6	1.2
2025-01-06 09:15:31.044739	23.3	25.6	-92.0	2.5
2025-01-06 09:15:32.215996	23.3	25.8	-92.1	1.9
2025-01-06 09:15:33.374782	23.2	26.0	-91.9	4.1
2025-01-06 09:15:34.532605	23.2	26.2	-92.8	8.9
2025-01-06 09:15:35.705617	23.1	26.3	-92.6	9.4
2025-01-06 09:15:36.862455	23.1	26.5	-93.1	7.5
2025-01-06 09:15:38.027411	23.0	26.7	-92.9	9.7
2025-01-06 09:15:39.199324	23.0	26.9	-92.5	4.2
2025-01-06 09:15:40.361058	23.0	27.1	-92.8	5.0
2025-01-06 09:15:41.528917	22.9	27.3	-92.8	7.7
2025-01-06 09:15:42.691730	22.9	27.5	-92.7	10.4
2025-01-06 09:15:43.857752	22.8	27.7	-92.6	6.4
2025-01-06 09:15:45.018949	22.8	27.9	-92.6	3.6
2025-01-06 09:15:46.182825	22.7	28.1	-92.3	3.5
2025-01-06 09:15:47.356460	22.7	28.3	-92.7	0.6
2025-01-06 09:15:48.524109	22.6	28.5	-92.9	2.7
2025-01-06 09:15:49.685139	22.6	28.7	-92.9	3.7
2025-01-06 09:15:50.847972	22.5	28.9	-92.9	10.6
2025-01-06 09:15:52.021240	22.5	29.2	-92.7	9.9
2025-01-06 09:15:53.188069	22.4	29.4	-92.6	11.4
2025-01-06 09:15:54.347319	22.4	29.6	-92.5	7.3
2025-01-06 09:15:55.514302	22.3	29.8	-92.6	5.6
2025-01-06 09:15:56.679729	22.3	30.0	-92.8	6.0
2025-01-06 09:15:57.838000	22.2	30.2	-92.5	7.8
2025-01-06 09:15:59.001605	22.2	30.4	-92.5	7.7
2025-01-06 09:16:00.158431	22.1	30.7	-92.2	7.8
2025-01-06 09:16:01.313053	22.0	30.9	-92.6	6.5
2025-01-06 09:16:02.476406	22.0	31.1	-92.2	2.9
2025-01-06 09:16:03.635174	21.9	31.3	-93.0	2.4
2025-01-06 09:16:04.794550	21.9	31.6	-92.9	1.7
2025-01-06 09:16:05.954814	21.8	31.8	-92.9	2.1
2025-01-06 09:16:07.119669	21.7	32.0	-92.7	4.7
2025-01-06 09:16:08.283366	21.7	32.3	-92.5	6.8
2025-01-06 09:16:09.446458	21.6	32.5	-92.3	10.1
2025-01-06 09:16:10.613538	21.6	32.7	-93.0	8.6
2025-01-06 09:16:11.777677	21.5	33.0	-92.8	9.3
2025-01-06 09:16:12.947013	21.4	33.2	-92.4	10.2
2025-01-06 09:16:14.114362	21.3	33.5	-92.5	9.6
2025-01-06 09:16:15.276712	21.3	33.7	-92.6	9.5
2025-01-06 09:16:16.444814	21.2	33.9	-92.7	10.2
2025-01-06 09:16:17.610358	21.1	34.2	-93.1	12.4
2025-01-06 09:16:18.776699	21.1	34.4	-92.9	8.8
2025-01-06 09:16:19.938851	21.0	34.7	-92.6	6.5
2025-01-06 09:16:21.101442	20.9	35.0	-92.2	4.5
2025-01-06 09:16:22.259735	20.8	35.2	-92.6	1.3
2025-01-06 09:16:23.417574	20.8	35.5	-92.5	4.8
2025-01-06 09:16:24.581860	20.7	35.7	-92.9	7.0
2025-01-06 09:16:25.745491	20.6	36.0	-92.5	11.2
2025-01-06 09:16:26.911505	20.5	36.3	-91.8	12.4
2025-01-06 09:16:28.076425	20.4	36.5	-92.5	15.1
2025-01-06 09:16:29.237292	20.4	36.8	-92.7	9.9
2025-01-06 09:16:30.404245	20.3	37.1	-93.2	10.7
2025-01-06 09:16:31.559810	20.2	37.3	-93.1	13.3
2025-01-06 09:16:32.723138	20.1	37.6	-92.5	10.5
2025-01-06 09:16:33.883946	20.0	37.9	-92.8	13.2
2025-01-06 09:16:35.049178	19.9	38.2	-92.8	16.5
2025-01-06 09:16:36.214132	19.8	38.4	-92.6	16.4
2025-01-06 09:16:37.374413	19.7	38.7	-92.2	8.4
2025-01-06 09:16:38.533680	19.6	39.0	-92.6	4.9
2025-01-06 09:16:39.699336	19.5	39.3	-93.1	1.9
2025-01-06 09:16:40.855105	19.4	39.6	-92.3	2.5
2025-01-06 09:16:42.017462	19.3	39.9	-92.3	7.9
2025-01-06 09:16:43.178877	19.2	40.2	-92.3	8.8
2025-01-06 09:16:44.336043	19.1	40.5	-92.4	12.0
2025-01-06 09:16:45.496940	19.0	40.8	-92.5	14.2
2025-01-06 09:16:46.660067	18.9	41.1	-93.0	15.7
2025-01-06 09:16:47.823170	18.8	41.4	-92.6	11.6
2025-01-06 09:16:48.980595	18.7	41.7	-92.9	14.5
2025-01-06 09:16:50.144547	18.6	42.0	-92.7	14.4
2025-01-06 09:16:51.309665	18.4	42.3	-92.5	10.9
2025-01-06 09:16:52.478271	18.3	42.6	-92.7	19.1
2025-01-06 09:16:53.644883	18.2	42.9	-92.2	19.7
2025-01-06 09:16:54.804453	18.1	43.3	-92.6	19.0
2025-01-06 09:16:55.965152	17.9	43.6	-93.1	17.6
2025-01-06 09:16:57.142474	17.8	43.9	-91.9	12.2
2025-01-06 09:16:58.306443	17.7	44.2	-92.4	4.0
2025-01-06 09:16:59.464155	17.5	44.6	-92.8	4.6
2025-01-06 09:17:00.612475	17.4	44.9	-92.9	6.0
2025-01-06 09:17:01.768287	17.2	45.2	-92.9	5.1
2025-01-06 09:17:02.930947	17.1	45.6	-92.5	10.1
2025-01-06 09:17:04.103182	16.9	45.9	-92.4	15.6
2025-01-06 09:17:05.266911	16.8	46.2	-91.6	19.7
2025-01-06 09:17:06.431078	16.6	46.6	-92.0	18.3
2025-01-06 09:17:07.590752	16.5	46.9	-91.3	15.8
2025-01-06 09:17:08.754205	16.3	47.3	-91.3	10.0
2025-01-06 09:17:09.917771	16.1	47.6	-92.0	8.3
2025-01-06 09:17:11.083179	16.0	48.0	-92.6	14.6
2025-01-06 09:17:12.246554	15.8	48.3	-92.8	12.0
2025-01-06 09:17:13.408269	15.6	48.7	-92.7	16.5
2025-01-06 09:17:14.562367	15.4	49.1	-92.9	16.9
2025-01-06 09:17:15.725325	15.2	49.4	-92.5	8.6
2025-01-06 09:17:16.888516	15.0	49.8	-92.7	7.3
2025-01-06 09:17:18.053108	14.8	50.2	-92.7	3.5
2025-01-06 09:17:19.212934	14.6	50.6	-92.5	3.6
2025-01-06 09:17:20.382571	14.4	50.9	-92.2	4.7
2025-01-06 09:17:21.540774	14.2	51.3	-92.4	4.1
2025-01-06 09:17:22.705585	14.0	51.7	-93.0	6.7
2025-01-06 09:17:23.873171	13.8	52.1	-93.1	9.2
2025-01-06 09:17:25.028119	13.5	52.5	-93.1	12.3
2025-01-06 09:17:26.190942	13.3	52.9	-92.5	7.8
2025-01-06 09:17:27.353015	13.0	53.2	-92.1	12.2
2025-01-06 09:17:28.511425	12.8	53.6	-92.7	11.7
2025-01-06 09:17:29.672449	12.5	54.0	-93.1	5.1
2025-01-06 09:17:30.847597	12.3	54.4	-92.9	1.3
2025-01-06 09:17:32.005180	12.0	54.8	-93.1	4.1
2025-01-06 09:17:33.173760	11.7	55.2	-92.7	4.8
2025-01-06 09:17:34.335888	11.4	55.6	-92.7	6.4
2025-01-06 09:17:35.501602	11.1	56.1	-92.9	16.4
2025-01-06 09:17:36.663320	10.8	56.5	-91.6	14.9
2025-01-06 09:17:37.827872	10.5	56.9	-92.8	12.8
2025-01-06 09:17:39.004780	10.2	57.3	-92.5	10.5
2025-01-06 09:17:40.165522	9.8	57.7	-92.8	7.8
2025-01-06 09:17:41.324233	9.5	58.1	-92.3	1.6
2025-01-06 09:17:42.487707	9.1	58.6	-92.2	7.5
2025-01-06 09:17:43.646359	8.7	59.0	-92.1	5.9
2025-01-06 09:17:44.803386	8.4	59.4	-92.3	3.5
2025-01-06 09:17:45.966505	8.0	59.8	-90.4	8.8
2025-01-06 09:17:47.130184	7.5	60.3	-92.0	9.6
2025-01-06 09:17:48.290529	7.1	60.7	-92.1	10.6
2025-01-06 09:17:49.456462	6.7	61.1	-92.5	14.4
2025-01-06 09:17:50.620897	6.2	61.6	-92.8	15.8
2025-01-06 09:17:51.801805	5.7	62.0	-92.6	14.2
2025-01-06 09:17:52.966347	5.2	62.4	-92.8	13.7
2025-01-06 09:17:54.128239	4.7	62.9	-92.7	16.9
2025-01-06 09:17:55.292641	4.2	63.3	-92.6	8.8
2025-01-06 09:17:56.457490	3.7	63.7	-93.1	15.1
2025-01-06 09:17:57.625061	3.1	64.2	-93.1	13.9
2025-01-06 09:17:58.786574	2.5	64.6	-92.4	9.7
2025-01-06 09:17:59.940468	1.9	65.1	-93.0	16.6
2025-01-06 09:18:01.091741	1.3	65.5	-92.4	15.3
2025-01-06 09:18:02.259487	0.6	65.9	-92.5	13.9
2025-01-06 09:18:03.425577	359.9	66.4	-92.5	12.9
2025-01-06 09:18:04.590951	359.2	66.8	-92.7	15.0
2025-01-06 09:18:05.756383	358.4	67.2	-92.6	14.3
2025-01-06 09:18:06.924550	357.6	67.7	-92.7	18.7
2025-01-06 09:18:08.096392	356.8	68.1	-92.6	15.4
2025-01-06 09:18:09.265643	356.0	68.5	-92.5	13.7
2025-01-06 09:18:10.421093	355.1	69.0	-92.6	12.4
2025-01-06 09:18:11.579785	354.1	69.4	-92.5	11.4
2025-01-06 09:18:12.746916	353.2	69.8	-92.0	4.7
2025-01-06 09:18:13.908113	352.1	70.2	-92.4	5.4
2025-01-06 09:18:15.062680	351.1	70.6	-92.1	6.7
2025-01-06 09:18:16.214812	350.0	71.0	-92.1	3.2
2025-01-06 09:18:17.373623	348.8	71.4	-91.8	2.5
2025-01-06 09:18:18.535942	347.6	71.8	-92.3	4.2
2025-01-06 09:18:19.698824	346.3	72.2	-92.1	5.1
2025-01-06 09:18:20.854697	345.0	72.6	-92.6	7.2
2025-01-06 09:18:22.002363	343.6	73.0	-92.8	10.9
2025-01-06 09:18:23.165833	342.2	73.3	-92.8	13.8
2025-01-06 09:18:24.321726	340.6	73.7	-92.9	12.0
2025-01-06 09:18:25.480679	339.1	74.0	-93.0	9.8
2025-01-06 09:18:26.640698	337.4	74.4	-92.8	13.4
2025-01-06 09:18:27.800281	335.6	74.7	-92.1	8.8
2025-01-06 09:18:28.964860	333.8	75.0	-92.5	6.5
2025-01-06 09:18:30.134291	331.9	75.3	-91.2	10.5
2025-01-06 09:18:31.294587	329.9	75.5	-91.9	8.7
2025-01-06 09:18:32.456846	327.9	75.8	-92.8	11.8
2025-01-06 09:18:33.611266	325.8	76.0	-92.5	10.8
2025-01-06 09:18:34.774665	323.6	76.3	-92.8	9.5
2025-01-06 09:18:35.938630	321.3	76.5	-92.7	12.5
2025-01-06 09:18:37.104101	318.9	76.7	-92.7	11.0
2025-01-06 09:18:38.265680	316.5	76.8	-92.2	6.9
2025-01-06 09:18:39.427097	314.1	76.9	-92.7	10.7
2025-01-06 09:18:40.594019	311.6	77.1	-92.9	11.4
2025-01-06 09:18:41.753951	309.0	77.1	-92.6	10.9
2025-01-06 09:18:42.917945	306.4	77.2	-92.2	11.2
2025-01-06 09:18:44.080640	303.8	77.2	-92.2	15.2
2025-01-06 09:18:45.239038	301.2	77.3	-92.1	12.8
2025-01-06 09:18:46.404279	298.6	77.2	-91.9	13.4
2025-01-06 09:18:47.561850	296.0	77.2	-92.1	19.3
2025-01-06 09:18:48.720958	293.5	77.1	-92.4	17.9
2025-01-06 09:18:49.876756	290.9	77.0	-92.3	20.5
2025-01-06 09:18:51.017150	288.5	76.9	-92.2	23.7
2025-01-06 09:18:52.180272	286.0	76.8	-92.4	20.8
2025-01-06 09:18:53.345280	283.6	76.6	-92.2	21.8
2025-01-06 09:18:54.498921	281.3	76.4	-92.4	22.4
2025-01-06 09:18:55.660335	279.0	76.2	-92.3	24.4
2025-01-06 09:18:56.830104	276.8	76.0	-92.0	25.0
2025-01-06 09:18:57.994481	274.7	75.8	-92.4	20.7
2025-01-06 09:18:59.160256	272.7	75.5	-92.0	23.9
2025-01-06 09:19:00.315802	270.7	75.2	-91.7	22.4
2025-01-06 09:19:01.473164	268.8	74.9	-92.3	24.3
2025-01-06 09:19:02.640847	267.0	74.6	-92.5	20.6
2025-01-06 09:19:03.800955	265.3	74.3	-92.2	20.4
2025-01-06 09:19:04.961496	263.6	74.0	-92.8	24.2
2025-01-06 09:19:06.119390	262.0	73.6	-92.4	22.4
2025-01-06 09:19:07.275786	260.5	73.3	-92.5	26.1
2025-01-06 09:19:08.439837	259.1	72.9	-92.4	21.7
2025-01-06 09:19:09.597937	257.7	72.5	-92.6	21.8
2025-01-06 09:19:10.758060	256.4	72.2	-92.5	21.8
2025-01-06 09:19:11.926387	255.1	71.8	-92.9	23.2
2025-01-06 09:19:13.093367	253.9	71.4	-92.5	23.7
2025-01-06 09:19:14.269754	252.7	71.0	-92.3	23.3
2025-01-06 09:19:15.427830	251.6	70.6	-92.9	23.5
2025-01-06 09:19:16.589644	250.6	70.1	-92.8	19.7
2025-01-06 09:19:17.754863	249.5	69.7	-92.6	20.2
2025-01-06 09:19:18.919219	248.6	69.3	-93.0	16.4
2025-01-06 09:19:20.078134	247.7	68.9	-93.0	18.7
2025-01-06 09:19:21.240881	246.8	68.5	-92.4	16.2
2025-01-06 09:19:22.395087	245.9	68.0	-92.7	22.8
2025-01-06 09:19:23.561846	245.1	67.6	-92.8	17.4
2025-01-06 09:19:24.720063	244.3	67.2	-93.1	23.8
2025-01-06 09:19:25.887537	243.6	66.7	-92.2	23.2
2025-01-06 09:19:27.048527	242.9	66.3	-92.6	21.8
2025-01-06 09:19:28.215864	242.2	65.9	-92.5	21.0
2025-01-06 09:19:29.376160	241.5	65.4	-92.6	20.2
2025-01-06 09:19:30.538316	240.9	65.0	-92.9	20.3
2025-01-06 09:19:31.693958	240.3	64.5	-92.5	23.9
2025-01-06 09:19:32.861604	239.7	64.1	-93.0	19.2
2025-01-06 09:19:34.019613	239.1	63.7	-92.8	19.4
2025-01-06 09:19:35.179347	238.6	63.2	-92.3	17.6
2025-01-06 09:19:36.336408	238.1	62.8	-92.8	15.1
2025-01-06 09:19:37.500843	237.6	62.4	-92.9	17.4
2025-01-06 09:19:38.671176	237.1	61.9	-93.1	13.7
2025-01-06 09:19:39.835417	236.6	61.5	-93.0	10.2
2025-01-06 09:19:40.999744	236.1	61.1	-92.9	16.3
2025-01-06 09:19:42.162733	235.7	60.6	-92.5	11.3
2025-01-06 09:19:43.328519	235.3	60.2	-92.5	9.1
2025-01-06 09:19:44.492477	234.9	59.8	-93.1	11.0
2025-01-06 09:19:45.647592	234.5	59.3	-92.7	9.9
2025-01-06 09:19:46.809057	234.1	58.9	-92.9	7.4
2025-01-06 09:19:47.972454	233.7	58.5	-92.8	10.3
2025-01-06 09:19:49.133236	233.4	58.1	-92.9	12.5
2025-01-06 09:19:50.283927	233.0	57.7	-92.4	8.0
2025-01-06 09:19:51.445281	232.7	57.2	-92.1	9.3
2025-01-06 09:19:52.604378	232.4	56.8	-92.5	11.2
2025-01-06 09:19:53.765527	232.0	56.4	-92.9	21.1
2025-01-06 09:19:54.919475	231.7	56.0	-92.8	14.3
2025-01-06 09:19:56.086345	231.4	55.6	-92.6	12.1
2025-01-06 09:19:57.248830	231.1	55.2	-92.9	21.4
2025-01-06 09:19:58.407993	230.9	54.8	-92.5	14.6
2025-01-06 09:19:59.562447	230.6	54.4	-92.8	10.6
2025-01-06 09:20:00.711036	230.3	54.0	-92.8	17.7
2025-01-06 09:20:01.875849	230.1	53.6	-93.3	17.4
2025-01-06 09:20:03.043963	229.8	53.2	-92.9	13.4
2025-01-06 09:20:04.208425	229.6	52.8	-92.8	15.6
2025-01-06 09:20:05.366461	229.3	52.4	-92.7	15.6
2025-01-06 09:20:06.532061	229.1	52.0	-92.8	16.9
2025-01-06 09:20:07.689265	228.9	51.6	-92.7	13.6
2025-01-06 09:20:08.855692	228.6	51.3	-92.1	14.0
2025-01-06 09:20:10.021007	228.4	50.9	-92.3	14.6
2025-01-06 09:20:11.187922	228.2	50.5	-92.7	15.9
2025-01-06 09:20:12.351707	228.0	50.1	-93.0	20.0
2025-01-06 09:20:13.518797	227.8	49.7	-93.2	13.8
2025-01-06 09:20:14.674414	227.6	49.4	-92.5	16.4
2025-01-06 09:20:15.826471	227.4	49.0	-93.0	18.5
2025-01-06 09:20:16.992086	227.2	48.7	-93.1	10.6
2025-01-06 09:20:18.164104	227.1	48.3	-92.5	12.8
2025-01-06 09:20:19.330174	226.9	47.9	-92.4	8.6
2025-01-06 09:20:20.497256	226.7	47.6	-92.5	6.9
2025-01-06 09:20:21.656642	226.5	47.2	-92.7	7.7
2025-01-06 09:20:22.825368	226.4	46.9	-93.0	9.1
2025-01-06 09:20:23.987886	226.2	46.5	-92.9	5.1
2025-01-06 09:20:25.143845	226.1	46.2	-92.9	0.8
2025-01-06 09:20:26.303189	225.9	45.8	-91.5	1.5
2025-01-06 09:20:27.463066	225.8	45.5	-92.7	5.4
2025-01-06 09:20:28.628225	225.6	45.2	-93.3	4.9
2025-01-06 09:20:29.787607	225.5	44.8	-93.0	8.0
2025-01-06 09:20:30.950474	225.3	44.5	-93.1	9.6
2025-01-06 09:20:32.107880	225.2	44.2	-92.3	9.3
2025-01-06 09:20:33.271310	225.1	43.8	-92.6	7.1
2025-01-06 09:20:34.431539	224.9	43.5	-92.7	7.2
2025-01-06 09:20:35.580592	224.8	43.2	-92.7	6.0
2025-01-06 09:20:36.735835	224.7	42.9	-92.6	8.3
2025-01-06 09:20:37.898511	224.5	42.6	-92.8	3.2
2025-01-06 09:20:39.064895	224.4	42.3	-92.9	2.6
2025-01-06 09:20:40.225475	224.3	41.9	-92.7	7.9
2025-01-06 09:20:41.389549	224.2	41.6	-92.6	7.8
2025-01-06 09:20:42.548661	224.1	41.3	-93.1	5.5
2025-01-06 09:20:43.711109	224.0	41.0	-92.8	9.7
2025-01-06 09:20:44.875677	223.8	40.7	-92.1	9.6
2025-01-06 09:20:46.029976	223.7	40.4	-92.8	9.9
2025-01-06 09:20:47.195070	223.6	40.1	-92.3	12.6
2025-01-06 09:20:48.354238	223.5	39.8	-92.6	14.8
2025-01-06 09:20:49.520555	223.4	39.5	-92.5	17.3
2025-01-06 09:20:50.682464	223.3	39.2	-92.6	16.4
2025-01-06 09:20:51.846503	223.2	39.0	-92.5	17.5
2025-01-06 09:20:53.008124	223.1	38.7	-92.8	15.5
2025-01-06 09:20:54.171269	223.0	38.4	-92.6	13.4
2025-01-06 09:20:55.329230	222.9	38.1	-92.9	16.7
2025-01-06 09:20:56.490656	222.9	37.8	-92.5	11.4
2025-01-06 09:20:57.648822	222.8	37.6	-92.8	17.3
2025-01-06 09:20:58.812911	222.7	37.3	-92.6	17.9
2025-01-06 09:20:59.978186	222.6	37.0	-92.6	12.0
2025-01-06 09:21:01.137050	222.5	36.7	-92.0	13.5
2025-01-06 09:21:02.297448	222.4	36.5	-92.7	18.4
2025-01-06 09:21:03.466439	222.3	36.2	-92.9	16.7
2025-01-06 09:21:04.632095	222.3	35.9	-92.5	16.7
2025-01-06 09:21:05.795321	222.2	35.7	-92.9	15.3
2025-01-06 09:21:06.954445	222.1	35.4	-92.8	16.8
2025-01-06 09:21:08.120399	222.0	35.2	-92.7	13.8
2025-01-06 09:21:09.295896	221.9	34.9	-92.5	15.9
2025-01-06 09:21:10.458237	221.9	34.6	-92.6	10.1
2025-01-06 09:21:11.621722	221.8	34.4	-92.0	10.9
2025-01-06 09:21:12.791095	221.7	34.1	-92.5	14.1
2025-01-06 09:21:13.949467	221.6	33.9	-92.3	5.1
2025-01-06 09:21:15.109546	221.6	33.6	-92.2	5.9
2025-01-06 09:21:16.265319	221.5	33.4	-92.2	10.7
2025-01-06 09:21:17.426143	221.4	33.2	-92.4	8.4
2025-01-06 09:21:18.586237	221.4	32.9	-92.3	9.3
2025-01-06 09:21:19.749017	221.3	32.7	-92.5	15.9
2025-01-06 09:21:20.908735	221.2	32.4	-92.1	12.3
2025-01-06 09:21:22.075756	221.2	32.2	-92.1	11.1
2025-01-06 09:21:23.234833	221.1	32.0	-92.6	14.1
2025-01-06 09:21:24.396530	221.1	31.7	-91.8	15.0
2025-01-06 09:21:25.559510	221.0	31.5	-92.3	12.7
2025-01-06 09:21:26.720353	220.9	31.3	-92.3	14.1
2025-01-06 09:21:27.890064	220.9	31.1	-92.4	13.3
2025-01-06 09:21:29.049191	220.8	30.8	-92.6	5.8
2025-01-06 09:21:30.209706	220.8	30.6	-92.3	9.4
2025-01-06 09:21:31.370728	220.7	30.4	-92.8	6.7
2025-01-06 09:21:32.538475	220.6	30.2	-92.9	7.9
2025-01-06 09:21:33.698639	220.6	30.0	-92.9	10.8
2025-01-06 09:21:34.866596	220.5	29.7	-92.9	8.8
2025-01-06 09:21:36.025472	220.5	29.5	-93.0	4.9
2025-01-06 09:21:37.189332	220.4	29.3	-92.6	7.2
2025-01-06 09:21:38.353290	220.4	29.1	-92.4	5.0
2025-01-06 09:21:39.516632	220.3	28.9	-92.2	3.8
2025-01-06 09:21:40.684225	220.3	28.7	-92.2	3.3
2025-01-06 09:21:41.847105	220.2	28.5	-93.0	8.4
2025-01-06 09:21:43.014615	220.2	28.3	-91.9	2.0
2025-01-06 09:21:44.173603	220.1	28.1	-92.9	1.4
2025-01-06 09:21:45.345939	220.1	27.9	-92.3	2.9
2025-01-06 09:21:46.510002	220.0	27.7	-92.2	1.4
2025-01-06 09:21:47.684668	220.0	27.5	-92.2	1.1
2025-01-06 09:21:48.849169	219.9	27.3	-93.0	1.2
2025-01-06 09:21:50.010413	219.9	27.1	-93.1	2.9
2025-01-06 09:21:51.173284	219.9	26.9	-93.1	5.1
2025-01-06 09:21:52.347801	219.8	26.7	-92.6	5.2
2025-01-06 09:21:53.507242	219.8	26.5	-92.8	4.7
2025-01-06 09:21:54.668630	219.7	26.3	-93.1	8.6
2025-01-06 09:21:55.831147	219.7	26.1	-92.5	4.9
2025-01-06 09:21:56.993086	219.6	25.9	-92.7	3.6
2025-01-06 09:21:58.159070	219.6	25.7	-92.7	4.8
2025-01-06 09:21:59.318707	219.6	25.5	-92.4	5.4
2025-01-06 09:22:00.470762	219.5	25.4	-93.0	2.9
2025-01-06 09:22:01.630781	219.5	25.2	-92.9	3.5
2025-01-06 09:22:02.789747	219.4	25.0	-92.3	4.4
2025-01-06 09:22:03.952614	219.4	24.8	-93.0	4.7
2025-01-06 09:22:05.118305	219.4	24.6	-92.5	7.0
2025-01-06 09:22:06.280894	219.3	24.4	-92.7	7.0
2025-01-06 09:22:07.441922	219.3	24.3	-92.9	5.5
2025-01-06 09:22:08.606492	219.2	24.1	-91.9	8.2
2025-01-06 09:22:09.766554	219.2	23.9	-92.1	7.5
2025-01-06 09:22:10.929481	219.2	23.7	-92.6	7.7
2025-01-06 09:22:12.093235	219.1	23.6	-92.3	4.6
2025-01-06 09:22:13.266184	219.1	23.4	-92.8	9.3
2025-01-06 09:22:14.432712	219.1	23.2	-92.9	4.8
2025-01-06 09:22:15.599447	219.0	23.1	-92.4	1.2
2025-01-06 09:22:16.767844	219.0	22.9	-92.9	10.2
2025-01-06 09:22:17.930999	219.0	22.7	-92.5	4.9
2025-01-06 09:22:19.092961	218.9	22.6	-92.7	7.3
2025-01-06 09:22:20.257067	218.9	22.4	-92.1	9.1
2025-01-06 09:22:21.422840	218.9	22.2	-92.7	9.2
2025-01-06 09:22:22.590969	218.8	22.1	-92.5	9.3
2025-01-06 09:22:23.753225	218.8	21.9	-92.9	10.5
2025-01-06 09:22:24.922839	218.8	21.7	-92.3	8.7
2025-01-06 09:22:26.079110	218.7	21.6	-92.4	7.4
2025-01-06 09:22:27.241968	218.7	21.4	-92.1	9.6
2025-01-06 09:22:28.398400	218.7	21.3	-92.2	5.2
2025-01-06 09:22:29.564302	218.7	21.1	-92.9	6.0
2025-01-06 09:22:30.725841	218.6	20.9	-92.7	10.5
2025-01-06 09:22:31.885625	218.6	20.8	-92.6	10.6
2025-01-06 09:22:33.047218	218.6	20.6	-92.4	8.9
2025-01-06 09:22:34.208996	218.5	20.5	-92.4	7.6
2025-01-06 09:22:35.373368	218.5	20.3	-92.6	7.1
2025-01-06 09:22:36.533574	218.5	20.2	-93.1	9.5
2025-01-06 09:22:37.697029	218.5	20.0	-92.9	10.2
2025-01-06 09:22:38.862178	218.4	19.9	-92.5	8.8
2025-01-06 09:22:40.026329	218.4	19.7	-92.6	4.1
2025-01-06 09:22:41.192482	218.4	19.6	-92.0	8.9
2025-01-06 09:22:42.353679	218.3	19.4	-92.1	8.8
2025-01-06 09:22:43.514719	218.3	19.3	-92.6	3.5
2025-01-06 09:22:44.682268	218.3	19.1	-92.0	9.0
2025-01-06 09:22:45.849650	218.3	19.0	-92.9	9.2
2025-01-06 09:22:47.008437	218.2	18.9	-93.1	7.8
2025-01-06 09:22:48.171120	218.2	18.7	-93.0	8.5
2025-01-06 09:22:49.335975	218.2	18.6	-92.4	9.2
2025-01-06 09:22:50.508204	218.2	18.4	-93.1	9.2
2025-01-06 09:22:51.670687	218.1	18.3	-92.9	10.0
2025-01-06 09:22:52.839468	218.1	18.1	-92.8	9.7
2025-01-06 09:22:54.001917	218.1	18.0	-93.2	5.9
2025-01-06 09:22:55.167055	218.1	17.9	-92.7	5.7
2025-01-06 09:22:56.326872	218.1	17.7	-92.3	4.5
2025-01-06 09:22:57.477842	218.0	17.6	-92.5	3.7
2025-01-06 09:22:58.638793	218.0	17.5	-92.9	4.6
2025-01-06 09:22:59.802500	218.0	17.3	-92.9	7.4
2025-01-06 09:23:00.944855	218.0	17.2	-93.1	7.0
2025-01-06 09:23:02.109562	217.9	17.1	-92.6	7.1
2025-01-06 09:23:03.283092	217.9	16.9	-92.5	6.9
2025-01-06 09:23:04.446975	217.9	16.8	-92.5	5.1
2025-01-06 09:23:05.606799	217.9	16.7	-92.9	4.0
2025-01-06 09:23:06.780941	217.9	16.5	-92.6	6.4
2025-01-06 09:23:07.945988	217.8	16.4	-93.0	3.0
2025-01-06 09:23:09.103700	217.8	16.3	-92.4	4.3
2025-01-06 09:23:10.265067	217.8	16.1	-92.7	5.3
2025-01-06 09:23:11.426934	217.8	16.0	-92.7	1.2
2025-01-06 09:23:12.588366	217.8	15.9	-92.4	3.5
2025-01-06 09:23:13.748937	217.7	15.8	-92.7	4.1
2025-01-06 09:23:14.915287	217.7	15.6	-92.7	4.2
2025-01-06 09:23:16.071214	217.7	15.5	-92.7	4.2
2025-01-06 09:23:17.233170	217.7	15.4	-92.6	4.0
2025-01-06 09:23:18.395600	217.7	15.3	-92.4	3.5
2025-01-06 09:23:19.559921	217.6	15.1	-92.9	2.9
2025-01-06 09:23:20.722020	217.6	15.0	-92.7	3.4
2025-01-06 09:23:21.879630	217.6	14.9	-92.9	3.9
2025-01-06 09:23:23.034025	217.6	14.8	-93.0	0.8
2025-01-06 09:23:24.200783	217.6	14.6	-92.7	2.0
2025-01-06 09:23:25.357145	217.5	14.5	-92.8	2.3
#Closed at: 2025-01-06 09:14:13.989051