passes_logs/2025/01/06/LEX_Murmansk/LEX_Murmansk__20250106_094119_NOAA_18_rec.log

#Pass ID: 20250106_094119_NOAA 18
#Satellite: NOAA 18
#Configuration: NOAA 18
#Start time: 2025-01-06 09:41:14.832339

#LorettStation: 1.0.0 05.05.2024
#Station: LEX_Murmansk
#Location: 33.156738 lon 68.926811 lat
#TLE: 1 28654U 05018A   25005.81892802  .00000565  00000+0  32357-3 0  9997
#TLE: 2 28654  98.8581  86.9638 0013924 205.2694 154.7799 14.13478522 11802

#Time	Az	El	Level	SNR
2025-01-06 09:41:27.096399	26.8	16.3	-92.6	5.0
2025-01-06 09:41:28.245767	26.8	16.4	-92.4	9.6
2025-01-06 09:41:29.387473	26.8	16.6	-92.9	9.9
2025-01-06 09:41:30.540498	26.9	16.7	-93.1	8.7
2025-01-06 09:41:31.696286	26.9	16.8	-92.9	12.3
2025-01-06 09:41:32.846854	26.9	16.9	-93.0	11.1
2025-01-06 09:41:33.998469	27.0	17.1	-93.2	7.5
2025-01-06 09:41:35.144582	27.0	17.2	-92.5	9.7
2025-01-06 09:41:36.295100	27.0	17.3	-92.1	10.9
2025-01-06 09:41:37.443315	27.1	17.5	-92.9	11.6
2025-01-06 09:41:38.593895	27.1	17.6	-93.1	7.8
2025-01-06 09:41:39.742486	27.1	17.7	-93.5	8.3
2025-01-06 09:41:40.885471	27.2	17.9	-93.0	11.7
2025-01-06 09:41:42.033093	27.2	18.0	-93.1	5.4
2025-01-06 09:41:43.179285	27.3	18.1	-92.3	6.3
2025-01-06 09:41:44.324392	27.3	18.3	-92.6	8.2
2025-01-06 09:41:45.470679	27.3	18.4	-93.3	10.6
2025-01-06 09:41:46.618510	27.4	18.5	-93.0	9.8
2025-01-06 09:41:47.763480	27.4	18.7	-93.2	10.2
2025-01-06 09:41:48.910705	27.4	18.8	-93.4	8.6
2025-01-06 09:41:50.058857	27.5	18.9	-92.9	10.1
2025-01-06 09:41:51.198826	27.5	19.1	-92.3	12.3
2025-01-06 09:41:52.342611	27.6	19.2	-92.9	10.3
2025-01-06 09:41:53.489534	27.6	19.4	-92.6	9.2
2025-01-06 09:41:54.632961	27.6	19.5	-93.3	6.5
2025-01-06 09:41:55.779410	27.7	19.6	-93.1	10.0
2025-01-06 09:41:56.932543	27.7	19.8	-93.3	4.9
2025-01-06 09:41:58.079232	27.8	19.9	-92.6	4.3
2025-01-06 09:41:59.229679	27.8	20.1	-92.8	11.2
2025-01-06 09:42:00.374309	27.8	20.2	-92.9	11.5
2025-01-06 09:42:01.524555	27.9	20.4	-93.0	12.3
2025-01-06 09:42:02.668233	27.9	20.5	-92.8	11.9
2025-01-06 09:42:03.818763	28.0	20.7	-93.0	14.2
2025-01-06 09:42:04.966359	28.0	20.8	-92.0	8.5
2025-01-06 09:42:06.114447	28.0	21.0	-91.7	11.2
2025-01-06 09:42:07.265950	28.1	21.1	-92.0	12.2
2025-01-06 09:42:08.413510	28.1	21.3	-92.4	10.9
2025-01-06 09:42:09.555190	28.2	21.4	-92.8	11.9
2025-01-06 09:42:10.710077	28.2	21.6	-92.4	11.8
2025-01-06 09:42:11.854547	28.3	21.7	-93.0	10.6
2025-01-06 09:42:12.998259	28.3	21.9	-93.1	4.9
2025-01-06 09:42:14.142624	28.3	22.0	-92.8	4.5
2025-01-06 09:42:15.287419	28.4	22.2	-92.5	12.9
2025-01-06 09:42:16.435164	28.4	22.4	-92.9	12.1
2025-01-06 09:42:17.576944	28.5	22.5	-93.3	14.0
2025-01-06 09:42:18.728562	28.5	22.7	-91.2	14.9
2025-01-06 09:42:19.870993	28.6	22.8	-92.0	12.7
2025-01-06 09:42:21.014856	28.6	23.0	-92.1	8.5
2025-01-06 09:42:22.159596	28.7	23.2	-91.7	9.9
2025-01-06 09:42:23.306103	28.7	23.3	-91.4	12.0
2025-01-06 09:42:24.458872	28.8	23.5	-91.8	14.5
2025-01-06 09:42:25.603021	28.8	23.7	-93.1	12.1
2025-01-06 09:42:26.751610	28.9	23.8	-93.0	11.1
2025-01-06 09:42:27.908892	28.9	24.0	-93.2	9.7
2025-01-06 09:42:29.057481	29.0	24.2	-92.9	5.7
2025-01-06 09:42:30.207606	29.0	24.3	-92.9	11.4
2025-01-06 09:42:31.350994	29.1	24.5	-92.3	10.3
2025-01-06 09:42:32.496095	29.1	24.7	-93.1	10.9
2025-01-06 09:42:33.650295	29.2	24.9	-93.1	14.2
2025-01-06 09:42:34.797712	29.2	25.0	-92.9	11.4
2025-01-06 09:42:35.943295	29.3	25.2	-93.0	12.7
2025-01-06 09:42:37.094245	29.3	25.4	-92.7	9.5
2025-01-06 09:42:38.242649	29.4	25.6	-92.3	11.6
2025-01-06 09:42:39.387581	29.5	25.7	-92.4	12.3
2025-01-06 09:42:40.531759	29.5	25.9	-93.2	12.3
2025-01-06 09:42:41.681750	29.6	26.1	-93.2	8.8
2025-01-06 09:42:42.827041	29.6	26.3	-92.8	9.0
2025-01-06 09:42:43.981712	29.7	26.5	-93.0	4.2
2025-01-06 09:42:45.127458	29.7	26.7	-92.8	4.3
2025-01-06 09:42:46.274732	29.8	26.8	-92.6	8.7
2025-01-06 09:42:47.423054	29.9	27.0	-92.9	7.9
2025-01-06 09:42:48.570113	29.9	27.2	-93.3	9.6
2025-01-06 09:42:49.716773	30.0	27.4	-93.1	12.5
2025-01-06 09:42:50.863868	30.0	27.6	-93.1	15.2
2025-01-06 09:42:52.016754	30.1	27.8	-93.2	14.8
2025-01-06 09:42:53.160688	30.2	28.0	-92.8	13.4
2025-01-06 09:42:54.311131	30.2	28.2	-92.6	13.8
2025-01-06 09:42:55.460877	30.3	28.4	-93.2	9.4
2025-01-06 09:42:56.608105	30.4	28.6	-93.4	12.5
2025-01-06 09:42:57.759272	30.4	28.8	-93.1	11.7
2025-01-06 09:42:58.904801	30.5	29.0	-93.2	10.9
2025-01-06 09:43:00.050475	30.6	29.2	-93.1	9.1
2025-01-06 09:43:01.190319	30.6	29.4	-92.5	9.2
2025-01-06 09:43:02.335105	30.7	29.6	-92.6	10.2
2025-01-06 09:43:03.487138	30.8	29.8	-93.3	5.5
2025-01-06 09:43:04.635773	30.9	30.0	-93.2	6.8
2025-01-06 09:43:05.782891	30.9	30.2	-93.0	10.1
2025-01-06 09:43:06.928354	31.0	30.4	-93.2	12.3
2025-01-06 09:43:08.075123	31.1	30.7	-93.1	11.8
2025-01-06 09:43:09.217593	31.1	30.9	-92.3	11.4
2025-01-06 09:43:10.372592	31.2	31.1	-92.8	9.1
2025-01-06 09:43:11.520681	31.3	31.3	-93.3	9.8
2025-01-06 09:43:12.669846	31.4	31.5	-93.0	12.9
2025-01-06 09:43:13.821344	31.5	31.7	-92.8	14.7
2025-01-06 09:43:14.965927	31.5	32.0	-93.2	16.9
2025-01-06 09:43:16.116934	31.6	32.2	-92.4	16.2
2025-01-06 09:43:17.269986	31.7	32.4	-92.2	16.3
2025-01-06 09:43:18.421878	31.8	32.6	-92.5	12.4
2025-01-06 09:43:19.572111	31.9	32.9	-92.8	6.6
2025-01-06 09:43:20.719677	31.9	33.1	-93.1	13.7
2025-01-06 09:43:21.867486	32.0	33.3	-92.8	16.2
2025-01-06 09:43:23.013642	32.1	33.6	-93.2	11.7
2025-01-06 09:43:24.168660	32.2	33.8	-91.9	13.9
2025-01-06 09:43:25.313839	32.3	34.1	-92.7	17.8
2025-01-06 09:43:26.464082	32.4	34.3	-92.7	17.5
2025-01-06 09:43:27.614547	32.5	34.5	-93.0	14.2
2025-01-06 09:43:28.762104	32.6	34.8	-93.1	17.5
2025-01-06 09:43:29.914525	32.7	35.0	-93.2	16.0
2025-01-06 09:43:31.063024	32.8	35.3	-92.9	15.6
2025-01-06 09:43:32.207715	32.9	35.5	-92.4	17.7
2025-01-06 09:43:33.352405	33.0	35.8	-92.6	16.0
2025-01-06 09:43:34.500137	33.1	36.0	-92.7	14.2
2025-01-06 09:43:35.647978	33.2	36.3	-93.0	8.4
2025-01-06 09:43:36.798208	33.3	36.5	-93.3	13.4
2025-01-06 09:43:37.949579	33.4	36.8	-93.0	8.6
2025-01-06 09:43:39.099723	33.5	37.1	-92.9	7.6
2025-01-06 09:43:40.246956	33.6	37.3	-91.9	13.4
2025-01-06 09:43:41.393147	33.7	37.6	-92.7	16.4
2025-01-06 09:43:42.548283	33.8	37.8	-93.2	17.9
2025-01-06 09:43:43.696155	33.9	38.1	-92.8	16.6
2025-01-06 09:43:44.849905	34.0	38.4	-92.8	16.9
2025-01-06 09:43:45.995174	34.2	38.7	-93.2	13.2
2025-01-06 09:43:47.140974	34.3	38.9	-91.1	9.8
2025-01-06 09:43:48.285875	34.4	39.2	-92.4	16.7
2025-01-06 09:43:49.431179	34.5	39.5	-92.4	17.0
2025-01-06 09:43:50.580468	34.6	39.8	-92.5	18.1
2025-01-06 09:43:51.726752	34.8	40.0	-92.6	21.7
2025-01-06 09:43:52.875195	34.9	40.3	-93.2	19.3
2025-01-06 09:43:54.022968	35.0	40.6	-92.9	12.4
2025-01-06 09:43:55.168902	35.2	40.9	-92.6	11.4
2025-01-06 09:43:56.316035	35.3	41.2	-92.7	17.1
2025-01-06 09:43:57.463041	35.4	41.5	-93.0	10.1
2025-01-06 09:43:58.613691	35.6	41.8	-93.2	10.2
2025-01-06 09:43:59.762682	35.7	42.1	-92.7	16.6
2025-01-06 09:44:00.900004	35.9	42.4	-93.2	17.8
2025-01-06 09:44:02.049339	36.0	42.7	-92.8	18.8
2025-01-06 09:44:03.189082	36.2	43.0	-92.6	18.7
2025-01-06 09:44:04.344659	36.3	43.3	-92.8	18.8
2025-01-06 09:44:05.487975	36.5	43.6	-93.0	13.9
2025-01-06 09:44:06.633459	36.6	43.9	-93.0	11.9
2025-01-06 09:44:07.784787	36.8	44.2	-93.5	18.4
2025-01-06 09:44:08.937144	37.0	44.6	-93.2	16.1
2025-01-06 09:44:10.084616	37.1	44.9	-92.5	15.8
2025-01-06 09:44:11.224062	37.3	45.2	-92.7	17.9
2025-01-06 09:44:12.375374	37.5	45.5	-92.7	16.3
2025-01-06 09:44:13.523993	37.7	45.8	-92.8	11.9
2025-01-06 09:44:14.675837	37.9	46.2	-92.8	12.5
2025-01-06 09:44:15.825642	38.0	46.5	-93.1	15.3
2025-01-06 09:44:16.975327	38.2	46.8	-93.1	9.0
2025-01-06 09:44:18.126787	38.4	47.2	-92.7	7.0
2025-01-06 09:44:19.278091	38.6	47.5	-92.0	11.8
2025-01-06 09:44:20.435900	38.8	47.8	-92.9	11.3
2025-01-06 09:44:21.576820	39.0	48.2	-92.7	13.7
2025-01-06 09:44:22.724405	39.3	48.5	-92.7	10.5
2025-01-06 09:44:23.875757	39.5	48.9	-93.0	7.8
2025-01-06 09:44:25.023234	39.7	49.2	-93.3	7.5
2025-01-06 09:44:26.177212	39.9	49.6	-92.6	12.8
2025-01-06 09:44:27.321315	40.2	49.9	-92.2	15.4
2025-01-06 09:44:28.467924	40.4	50.3	-92.0	10.8
2025-01-06 09:44:29.614833	40.6	50.6	-92.7	6.7
2025-01-06 09:44:30.762478	40.9	51.0	-92.8	9.8
2025-01-06 09:44:31.909393	41.1	51.4	-93.0	9.0
2025-01-06 09:44:33.055328	41.4	51.7	-92.6	10.3
2025-01-06 09:44:34.202752	41.7	52.1	-92.3	12.9
2025-01-06 09:44:35.342171	41.9	52.5	-92.6	16.2
2025-01-06 09:44:36.487609	42.2	52.8	-92.5	9.8
2025-01-06 09:44:37.637298	42.5	53.2	-92.6	6.7
2025-01-06 09:44:38.787140	42.8	53.6	-92.6	10.4
2025-01-06 09:44:39.933473	43.1	53.9	-92.9	10.9
2025-01-06 09:44:41.076861	43.4	54.3	-92.2	9.0
2025-01-06 09:44:42.222272	43.7	54.7	-92.2	13.5
2025-01-06 09:44:43.367116	44.1	55.1	-92.5	14.2
2025-01-06 09:44:44.513855	44.4	55.5	-92.5	13.9
2025-01-06 09:44:45.663089	44.7	55.9	-93.1	15.8
2025-01-06 09:44:46.823903	45.1	56.3	-92.8	14.4
2025-01-06 09:44:47.973692	45.5	56.6	-92.8	18.2
2025-01-06 09:44:49.121986	45.8	57.0	-92.0	13.9
2025-01-06 09:44:50.268422	46.2	57.4	-92.0	16.3
2025-01-06 09:44:51.417585	46.6	57.8	-92.5	16.6
2025-01-06 09:44:52.565482	47.0	58.2	-92.6	12.9
2025-01-06 09:44:53.713846	47.5	58.6	-92.7	17.7
2025-01-06 09:44:54.864428	47.9	59.0	-92.7	17.3
2025-01-06 09:44:56.006421	48.3	59.4	-92.9	15.2
2025-01-06 09:44:57.160009	48.8	59.8	-92.4	20.8
2025-01-06 09:44:58.309546	49.3	60.2	-91.8	17.6
2025-01-06 09:44:59.455376	49.8	60.6	-92.5	18.3
2025-01-06 09:45:00.591851	50.3	61.0	-92.7	13.2
2025-01-06 09:45:01.733183	50.8	61.4	-92.7	15.3
2025-01-06 09:45:02.877103	51.3	61.8	-92.8	15.1
2025-01-06 09:45:04.021396	51.9	62.2	-92.6	11.0
2025-01-06 09:45:05.168424	52.5	62.6	-92.4	10.7
2025-01-06 09:45:06.317820	53.1	63.0	-92.4	19.4
2025-01-06 09:45:07.463669	53.7	63.4	-92.7	10.4
2025-01-06 09:45:08.608732	54.3	63.8	-92.6	11.2
2025-01-06 09:45:09.758864	55.0	64.2	-92.8	19.0
2025-01-06 09:45:10.906317	55.7	64.6	-92.5	16.4
2025-01-06 09:45:12.051877	56.4	65.0	-92.5	14.0
2025-01-06 09:45:13.198675	57.1	65.4	-92.5	13.8
2025-01-06 09:45:14.341068	57.8	65.8	-92.1	16.5
2025-01-06 09:45:15.489363	58.6	66.2	-92.6	14.9
2025-01-06 09:45:16.633484	59.4	66.6	-92.6	12.2
2025-01-06 09:45:17.783162	60.3	67.0	-92.5	14.2
2025-01-06 09:45:18.930046	61.2	67.4	-91.8	11.2
2025-01-06 09:45:20.078717	62.1	67.8	-91.8	6.4
2025-01-06 09:45:21.231381	63.0	68.2	-91.5	11.3
2025-01-06 09:45:22.376756	64.0	68.5	-91.3	12.1
2025-01-06 09:45:23.519105	65.0	68.9	-92.0	12.2
2025-01-06 09:45:24.661337	66.1	69.3	-91.8	10.7
2025-01-06 09:45:25.808670	67.2	69.6	-92.8	12.5
2025-01-06 09:45:26.957161	68.3	70.0	-92.8	9.6
2025-01-06 09:45:28.104914	69.5	70.3	-91.9	11.8
2025-01-06 09:45:29.255141	70.7	70.7	-92.1	13.5
2025-01-06 09:45:30.402968	72.0	71.0	-92.6	12.6
2025-01-06 09:45:31.548163	73.3	71.3	-92.7	14.9
2025-01-06 09:45:32.689305	74.7	71.7	-92.7	16.3
2025-01-06 09:45:33.836696	76.1	72.0	-92.4	14.2
2025-01-06 09:45:34.990406	77.6	72.3	-92.9	12.9
2025-01-06 09:45:36.136169	79.1	72.6	-91.9	10.2
2025-01-06 09:45:37.284224	80.7	72.8	-92.0	16.2
2025-01-06 09:45:38.437536	82.3	73.1	-92.6	12.2
2025-01-06 09:45:39.584411	84.0	73.4	-92.4	9.9
2025-01-06 09:45:40.732341	85.8	73.6	-92.5	18.6
2025-01-06 09:45:41.877094	87.6	73.8	-92.9	19.2
2025-01-06 09:45:43.031284	89.4	74.0	-93.0	12.6
2025-01-06 09:45:44.177773	91.3	74.2	-92.2	16.0
2025-01-06 09:45:45.325899	93.2	74.4	-92.1	18.4
2025-01-06 09:45:46.475488	95.2	74.6	-92.7	13.6
2025-01-06 09:45:47.619350	97.3	74.7	-92.5	13.6
2025-01-06 09:45:48.768814	99.3	74.8	-92.5	22.1
2025-01-06 09:45:49.915813	101.4	74.9	-92.8	13.3
2025-01-06 09:45:51.062431	103.5	75.0	-92.6	12.3
2025-01-06 09:45:52.210602	105.7	75.1	-91.7	17.6
2025-01-06 09:45:53.356705	107.8	75.1	-92.3	18.0
2025-01-06 09:45:54.508351	110.0	75.2	-92.7	20.6
2025-01-06 09:45:55.653828	112.2	75.2	-92.3	18.7
2025-01-06 09:45:56.799699	114.4	75.1	-92.5	21.1
2025-01-06 09:45:57.946500	116.5	75.1	-92.9	21.5
2025-01-06 09:45:59.095040	118.7	75.0	-91.9	15.0
2025-01-06 09:46:00.240762	120.8	75.0	-92.2	16.9
2025-01-06 09:46:01.379023	122.9	74.9	-92.2	17.7
2025-01-06 09:46:02.526335	125.0	74.8	-92.4	10.3
2025-01-06 09:46:03.672071	127.0	74.6	-92.8	19.8
2025-01-06 09:46:04.818974	129.0	74.5	-92.6	18.8
2025-01-06 09:46:05.965827	131.0	74.3	-91.8	16.7
2025-01-06 09:46:07.114686	132.9	74.1	-91.8	14.8
2025-01-06 09:46:08.260854	134.8	73.9	-92.1	16.2
2025-01-06 09:46:09.408859	136.6	73.7	-91.9	21.2
2025-01-06 09:46:10.555255	138.3	73.5	-92.3	10.5
2025-01-06 09:46:11.703403	140.0	73.2	-89.0	15.9
2025-01-06 09:46:12.848684	141.7	72.9	-92.4	23.8
2025-01-06 09:46:13.988807	143.3	72.7	-92.4	18.4
2025-01-06 09:46:15.134760	144.9	72.4	-91.9	16.7
2025-01-06 09:46:16.279889	146.3	72.1	-92.0	20.6
2025-01-06 09:46:17.427923	147.8	71.8	-92.2	18.9
2025-01-06 09:46:18.574488	149.2	71.5	-92.3	16.2
2025-01-06 09:46:19.720960	150.5	71.1	-92.4	18.5
2025-01-06 09:46:20.865547	151.8	70.8	-92.4	20.5
2025-01-06 09:46:22.012015	153.1	70.5	-91.8	16.3
2025-01-06 09:46:23.161504	154.3	70.1	-91.5	13.8
2025-01-06 09:46:24.308921	155.4	69.8	-91.9	20.7
2025-01-06 09:46:25.456279	156.6	69.4	-91.7	14.4
2025-01-06 09:46:26.600568	157.6	69.0	-92.3	14.1
2025-01-06 09:46:27.745345	158.7	68.7	-92.7	20.6
2025-01-06 09:46:28.869963	159.6	68.3	-92.5	15.9
2025-01-06 09:46:29.990402	160.6	67.9	-92.1	14.1
2025-01-06 09:46:31.111747	161.5	67.6	-92.1	15.6
2025-01-06 09:46:32.232547	162.4	67.2	-92.0	19.3
2025-01-06 09:46:33.353529	163.2	66.8	-92.2	20.2
2025-01-06 09:46:34.473917	164.0	66.4	-92.0	13.5
2025-01-06 09:46:35.596569	164.8	66.0	-92.5	15.6
2025-01-06 09:46:36.717414	165.6	65.6	-92.6	20.7
2025-01-06 09:46:37.861510	166.3	65.2	-92.2	15.7
2025-01-06 09:46:39.008957	167.0	64.8	-92.3	16.7
2025-01-06 09:46:40.148085	167.7	64.4	-92.1	14.7
2025-01-06 09:46:41.291506	168.4	64.0	-92.2	13.5
2025-01-06 09:46:42.438620	169.1	63.6	-92.0	15.6
2025-01-06 09:46:43.585048	169.7	63.2	-92.4	17.3
2025-01-06 09:46:44.732679	170.3	62.8	-92.8	17.8
2025-01-06 09:46:45.880534	170.9	62.4	-92.5	20.6
2025-01-06 09:46:47.031162	171.4	62.0	-92.6	16.6
2025-01-06 09:46:48.177710	172.0	61.6	-92.3	19.1
2025-01-06 09:46:49.329508	172.5	61.2	-91.6	14.6
2025-01-06 09:46:50.478192	173.1	60.8	-92.5	19.3
2025-01-06 09:46:51.626890	173.6	60.4	-92.7	16.9
2025-01-06 09:46:52.773558	174.0	60.0	-92.1	18.7
2025-01-06 09:46:53.924332	174.5	59.6	-92.2	17.6
2025-01-06 09:46:55.095842	175.0	59.2	-92.3	15.1
2025-01-06 09:46:56.246466	175.4	58.8	-91.7	15.5
2025-01-06 09:46:57.393507	175.8	58.4	-92.1	14.5
2025-01-06 09:46:58.536153	176.3	58.0	-91.9	10.3
2025-01-06 09:46:59.683694	176.7	57.6	-92.1	16.6
2025-01-06 09:47:00.825861	177.1	57.2	-92.8	18.1
2025-01-06 09:47:01.972537	177.4	56.8	-92.2	13.9
2025-01-06 09:47:03.137687	177.8	56.4	-92.1	11.0
2025-01-06 09:47:04.283211	178.2	56.0	-91.7	13.4
2025-01-06 09:47:05.428375	178.5	55.6	-92.3	12.0
2025-01-06 09:47:06.577952	178.9	55.2	-92.5	10.9
2025-01-06 09:47:07.726911	179.2	54.8	-91.7	11.2
2025-01-06 09:47:08.876098	179.5	54.5	-92.1	12.4
2025-01-06 09:47:10.026041	179.8	54.1	-92.2	9.5
2025-01-06 09:47:11.172668	180.1	53.7	-91.8	7.9
2025-01-06 09:47:12.326984	180.4	53.3	-92.4	11.6
2025-01-06 09:47:13.472217	180.7	52.9	-92.4	10.6
2025-01-06 09:47:14.620045	181.0	52.6	-92.5	8.9
2025-01-06 09:47:15.769549	181.3	52.2	-92.1	17.8
2025-01-06 09:47:16.913060	181.6	51.8	-91.9	12.8
2025-01-06 09:47:18.067143	181.8	51.5	-92.2	9.5
2025-01-06 09:47:19.217261	182.1	51.1	-92.1	15.2
2025-01-06 09:47:20.371870	182.4	50.7	-92.5	16.3
2025-01-06 09:47:21.515557	182.6	50.4	-92.8	18.0
2025-01-06 09:47:22.659951	182.8	50.0	-92.8	16.0
2025-01-06 09:47:23.805471	183.1	49.7	-92.4	17.3
2025-01-06 09:47:24.951565	183.3	49.3	-92.8	18.1
2025-01-06 09:47:26.098802	183.5	49.0	-92.5	15.3
2025-01-06 09:47:27.250922	183.7	48.6	-91.9	14.7
2025-01-06 09:47:28.396420	184.0	48.3	-92.4	18.4
2025-01-06 09:47:29.542608	184.2	47.9	-92.8	15.8
2025-01-06 09:47:30.691248	184.4	47.6	-93.1	19.0
2025-01-06 09:47:31.839386	184.6	47.2	-93.1	20.2
2025-01-06 09:47:32.987349	184.8	46.9	-92.5	12.1
2025-01-06 09:47:34.136021	185.0	46.6	-92.8	8.3
2025-01-06 09:47:35.279813	185.2	46.2	-92.7	14.8
2025-01-06 09:47:36.427864	185.3	45.9	-92.7	8.9
2025-01-06 09:47:37.577350	185.5	45.6	-93.1	10.0
2025-01-06 09:47:38.723593	185.7	45.2	-93.3	16.8
2025-01-06 09:47:39.874352	185.9	44.9	-93.0	16.6
2025-01-06 09:47:41.024839	186.1	44.6	-92.8	11.7
2025-01-06 09:47:42.169946	186.2	44.3	-93.0	13.3
2025-01-06 09:47:43.322796	186.4	44.0	-92.6	17.8
2025-01-06 09:47:44.473014	186.6	43.6	-92.7	15.1
2025-01-06 09:47:45.620909	186.7	43.3	-92.7	16.2
2025-01-06 09:47:46.765326	186.9	43.0	-93.4	17.6
2025-01-06 09:47:47.916207	187.0	42.7	-93.0	19.5
2025-01-06 09:47:49.070373	187.2	42.4	-92.3	18.8
2025-01-06 09:47:50.215463	187.3	42.1	-92.5	19.0
2025-01-06 09:47:51.358650	187.5	41.8	-92.6	18.5
2025-01-06 09:47:52.508338	187.6	41.5	-92.7	15.1
2025-01-06 09:47:53.651534	187.7	41.2	-93.0	10.7
2025-01-06 09:47:54.799988	187.9	40.9	-93.2	13.3
2025-01-06 09:47:55.948072	188.0	40.6	-93.0	8.3
2025-01-06 09:47:57.097598	188.1	40.3	-92.8	7.7
2025-01-06 09:47:58.244388	188.3	40.0	-92.7	10.5
2025-01-06 09:47:59.392157	188.4	39.8	-92.5	8.0
2025-01-06 09:48:00.533020	188.5	39.5	-93.2	5.3
2025-01-06 09:48:01.679434	188.7	39.2	-93.5	13.4
2025-01-06 09:48:02.828632	188.8	38.9	-92.7	14.4
2025-01-06 09:48:03.976086	188.9	38.6	-93.1	16.6
2025-01-06 09:48:05.123903	189.0	38.4	-92.7	15.4
2025-01-06 09:48:06.271597	189.1	38.1	-92.2	11.9
2025-01-06 09:48:07.424630	189.2	37.8	-92.9	13.9
2025-01-06 09:48:08.575718	189.4	37.5	-93.1	11.1
2025-01-06 09:48:09.726642	189.5	37.3	-93.2	12.7
2025-01-06 09:48:10.870594	189.6	37.0	-92.8	10.8
2025-01-06 09:48:12.016886	189.7	36.8	-92.7	6.4
2025-01-06 09:48:13.167217	189.8	36.5	-92.4	7.7
2025-01-06 09:48:14.316619	189.9	36.2	-92.6	14.6
2025-01-06 09:48:15.464466	190.0	36.0	-93.0	6.6
2025-01-06 09:48:16.609981	190.1	35.7	-92.9	9.2
2025-01-06 09:48:17.753218	190.2	35.5	-93.2	13.0
2025-01-06 09:48:18.900698	190.3	35.2	-92.8	12.6
2025-01-06 09:48:20.044431	190.4	35.0	-93.2	8.2
2025-01-06 09:48:21.191063	190.5	34.7	-92.2	7.5
2025-01-06 09:48:22.326117	190.6	34.5	-92.6	10.8
2025-01-06 09:48:23.471301	190.7	34.2	-93.0	12.6
2025-01-06 09:48:24.620145	190.8	34.0	-93.0	9.0
2025-01-06 09:48:25.759746	190.9	33.8	-93.1	13.0
2025-01-06 09:48:26.907440	190.9	33.5	-92.9	12.9
2025-01-06 09:48:28.063779	191.0	33.3	-92.6	12.2
2025-01-06 09:48:29.211373	191.1	33.0	-92.3	13.8
2025-01-06 09:48:30.358811	191.2	32.8	-92.2	14.1
2025-01-06 09:48:31.507839	191.3	32.6	-93.2	9.4
2025-01-06 09:48:32.651375	191.4	32.3	-93.2	8.8
2025-01-06 09:48:33.808599	191.5	32.1	-92.9	14.1
2025-01-06 09:48:34.955060	191.5	31.9	-93.2	10.5
2025-01-06 09:48:36.105321	191.6	31.7	-92.5	11.6
2025-01-06 09:48:37.248000	191.7	31.4	-92.4	14.3
2025-01-06 09:48:38.394186	191.8	31.2	-92.7	14.5
2025-01-06 09:48:39.543700	191.9	31.0	-93.2	12.2
2025-01-06 09:48:40.690369	191.9	30.8	-93.0	12.6
2025-01-06 09:48:41.838424	192.0	30.6	-93.5	12.6
2025-01-06 09:48:42.985896	192.1	30.4	-93.3	10.5
2025-01-06 09:48:44.131169	192.1	30.1	-92.8	6.9
2025-01-06 09:48:45.278072	192.2	29.9	-92.9	7.3
2025-01-06 09:48:46.423322	192.3	29.7	-93.1	5.9
2025-01-06 09:48:47.572859	192.4	29.5	-92.9	3.3
2025-01-06 09:48:48.724938	192.4	29.3	-93.2	8.7
2025-01-06 09:48:49.871790	192.5	29.1	-93.4	5.6
2025-01-06 09:48:51.018985	192.6	28.9	-93.2	5.3
2025-01-06 09:48:52.160999	192.6	28.7	-93.0	5.0
2025-01-06 09:48:53.306885	192.7	28.5	-92.9	9.2
2025-01-06 09:48:54.449254	192.8	28.3	-92.9	10.4
2025-01-06 09:48:55.592041	192.8	28.1	-93.0	7.4
2025-01-06 09:48:56.739588	192.9	27.9	-93.5	9.1
2025-01-06 09:48:57.883957	193.0	27.7	-93.2	9.6
2025-01-06 09:48:59.031066	193.0	27.5	-93.4	10.0
2025-01-06 09:49:00.180459	193.1	27.3	-92.9	9.9
2025-01-06 09:49:01.322189	193.1	27.1	-92.6	11.2
2025-01-06 09:49:02.468513	193.2	26.9	-93.4	9.7
2025-01-06 09:49:03.618548	193.3	26.7	-92.7	8.9
2025-01-06 09:49:04.765839	193.3	26.5	-93.2	13.3
2025-01-06 09:49:05.914190	193.4	26.4	-93.1	11.0
2025-01-06 09:49:07.064648	193.4	26.2	-92.8	10.4
2025-01-06 09:49:08.205296	193.5	26.0	-92.7	13.2
2025-01-06 09:49:09.349081	193.6	25.8	-92.8	14.1
2025-01-06 09:49:10.498080	193.6	25.6	-93.1	13.0
2025-01-06 09:49:11.648704	193.7	25.4	-93.2	11.5
2025-01-06 09:49:12.793560	193.7	25.3	-93.3	10.9
2025-01-06 09:49:13.940278	193.8	25.1	-93.2	7.6
2025-01-06 09:49:15.086277	193.8	24.9	-92.7	6.0
2025-01-06 09:49:16.231943	193.9	24.7	-92.7	8.4
2025-01-06 09:49:17.378275	193.9	24.5	-92.7	5.4
2025-01-06 09:49:18.524343	194.0	24.4	-92.6	3.9
2025-01-06 09:49:19.674799	194.0	24.2	-93.0	6.0
2025-01-06 09:49:20.820469	194.1	24.0	-93.3	8.6
2025-01-06 09:49:21.971824	194.1	23.9	-92.6	8.0
2025-01-06 09:49:23.115304	194.2	23.7	-92.6	10.4
2025-01-06 09:49:24.257471	194.2	23.5	-92.9	13.2
2025-01-06 09:49:25.404124	194.3	23.3	-92.8	13.3
2025-01-06 09:49:26.546622	194.3	23.2	-93.0	14.0
2025-01-06 09:49:27.699666	194.4	23.0	-93.2	13.3
2025-01-06 09:49:28.849380	194.4	22.8	-92.8	14.1
2025-01-06 09:49:30.014721	194.5	22.7	-92.7	10.1
2025-01-06 09:49:31.157715	194.5	22.5	-92.6	8.4
2025-01-06 09:49:32.299099	194.6	22.4	-92.7	13.6
2025-01-06 09:49:33.442189	194.6	22.2	-92.9	9.7
2025-01-06 09:49:34.586425	194.7	22.0	-92.9	10.4
2025-01-06 09:49:35.733292	194.7	21.9	-93.1	13.3
2025-01-06 09:49:36.882014	194.8	21.7	-92.8	14.0
2025-01-06 09:49:38.036457	194.8	21.6	-92.9	13.4
2025-01-06 09:49:39.182662	194.9	21.4	-92.8	13.2
2025-01-06 09:49:40.332582	194.9	21.3	-92.7	13.1
2025-01-06 09:49:41.482159	194.9	21.1	-92.9	9.6
2025-01-06 09:49:42.630870	195.0	20.9	-92.7	7.9
2025-01-06 09:49:43.783256	195.0	20.8	-92.4	10.7
2025-01-06 09:49:44.928041	195.1	20.6	-92.9	6.3
2025-01-06 09:49:46.070817	195.1	20.5	-93.1	5.9
2025-01-06 09:49:47.221947	195.2	20.3	-92.8	8.0
2025-01-06 09:49:48.362356	195.2	20.2	-92.4	5.8
2025-01-06 09:49:49.511593	195.2	20.0	-93.5	5.4
2025-01-06 09:49:50.647153	195.3	19.9	-92.7	7.1
2025-01-06 09:49:51.793116	195.3	19.8	-92.8	7.9
2025-01-06 09:49:52.939884	195.4	19.6	-93.1	8.1
2025-01-06 09:49:54.087211	195.4	19.5	-93.0	9.4
2025-01-06 09:49:55.226670	195.4	19.3	-92.8	7.7
2025-01-06 09:49:56.371792	195.5	19.2	-92.7	11.2
2025-01-06 09:49:57.522243	195.5	19.0	-92.5	8.3
2025-01-06 09:49:58.670677	195.5	18.9	-92.6	9.5
2025-01-06 09:49:59.823081	195.6	18.8	-93.4	10.2
2025-01-06 09:50:00.961388	195.6	18.6	-92.7	7.1
2025-01-06 09:50:02.110379	195.7	18.5	-93.1	8.8
2025-01-06 09:50:03.253215	195.7	18.3	-92.8	9.4
2025-01-06 09:50:04.399244	195.7	18.2	-92.5	9.3
2025-01-06 09:50:05.552671	195.8	18.1	-93.1	9.8
2025-01-06 09:50:06.699960	195.8	17.9	-92.9	9.8
2025-01-06 09:50:07.849432	195.8	17.8	-93.1	10.8
2025-01-06 09:50:08.996882	195.9	17.7	-92.9	8.6
2025-01-06 09:50:10.145296	195.9	17.5	-92.2	6.3
2025-01-06 09:50:11.292547	195.9	17.4	-91.9	6.1
2025-01-06 09:50:12.440020	196.0	17.3	-92.8	6.4
2025-01-06 09:50:13.587043	196.0	17.1	-92.9	3.4
2025-01-06 09:50:14.731090	196.0	17.0	-93.0	6.3
2025-01-06 09:50:15.884141	196.1	16.9	-93.2	5.3
2025-01-06 09:50:17.031370	196.1	16.7	-92.6	4.2
2025-01-06 09:50:18.174817	196.1	16.6	-92.4	5.2
2025-01-06 09:50:19.323712	196.2	16.5	-92.6	4.5
2025-01-06 09:50:20.470431	196.2	16.4	-92.7	5.1
2025-01-06 09:50:21.617129	196.2	16.2	-93.0	4.8
2025-01-06 09:50:22.766168	196.3	16.1	-92.5	5.4
2025-01-06 09:50:23.914059	196.3	16.0	-92.7	3.1
2025-01-06 09:50:25.061139	196.3	15.8	-92.6	2.8
2025-01-06 09:50:26.206675	196.4	15.7	-92.5	3.8
2025-01-06 09:50:27.353055	196.4	15.6	-92.2	3.4
2025-01-06 09:50:28.494612	196.4	15.5	-92.6	3.0
2025-01-06 09:50:29.641872	196.5	15.4	-92.9	4.4
2025-01-06 09:50:30.789627	196.5	15.2	-92.9	4.8
2025-01-06 09:50:31.933388	196.5	15.1	-92.9	4.6
2025-01-06 09:50:33.082069	196.6	15.0	-92.8	3.1
2025-01-06 09:50:34.230857	196.6	14.9	-92.5	1.8
2025-01-06 09:50:35.375792	196.6	14.7	-92.4	5.2
2025-01-06 09:50:36.523416	196.7	14.6	-93.2	4.9
2025-01-06 09:50:37.667451	196.7	14.5	-93.2	5.5
2025-01-06 09:50:38.840130	196.7	14.4	-92.9	4.4
#Closed at: 2025-01-06 09:41:19.897205