passes_logs/2026/01/19/XPeterburg/XPeterburg__20260119_091314_FENGYUN_3F_rec.log

#Pass ID: 20260119_091314_FENGYUN 3F
#Satellite: FENGYUN 3F
#Configuration: FENGYUN 3F
#Start time: 2026-01-19 09:13:09

#Version: 1.5.20200625
#Station: XPeterburg
#Location: 30.318091 lon 59.932769 lat
#TLE: 1 57490U 23111A   26015.97897389  .00000023  00000+0  31269-4 0  9996
#TLE: 2 57490  98.7032  88.7121 0001260 114.8854 245.2453 14.19903552127265

#Time	Az	El	Level	Level2	SNR	BER	Gain	Gain2
2026-01-19 09:13:09.35	16.76	68.07	-38.9	-41.2	3.3	8387065	96	6380
2026-01-19 09:13:09.56	16.75	68.17	-38.2	-56.5	3.6	6647850	65	40571
2026-01-19 09:13:09.76	16.74	68.26	-39.3	-44.3	3.5	8375953	92	8689
2026-01-19 09:13:09.96	16.73	68.35	-38.7	-41.8	3.3	8445590	94	7016
2026-01-19 09:13:10.16	16.71	68.44	-38.7	-41.8	3.3	8374992	94	6995
2026-01-19 09:13:10.36	16.70	68.53	-38.7	-43.2	3.6	8405296	94	8257
2026-01-19 09:13:10.56	16.69	68.62	-38.7	-42.8	3.6	8442192	94	7922
2026-01-19 09:13:10.76	16.68	68.72	-38.7	-41.9	3.4	8424613	94	7095
2026-01-19 09:13:10.96	16.67	68.81	-38.6	-41.5	3.3	8424613	94	6822
2026-01-19 09:13:11.16	16.65	68.90	-38.6	-42.7	3.6	8399791	94	7847
2026-01-19 09:13:11.36	16.64	68.99	-38.5	-42.4	3.6	8410995	94	7705
2026-01-19 09:13:11.56	16.63	69.08	-38.5	-41.2	3.4	8446060	94	6737
2026-01-19 09:13:11.77	16.61	69.18	-38.4	-40.6	3.3	8399608	94	6359
2026-01-19 09:13:11.97	16.60	69.27	-38.4	-40.6	3.3	8395008	94	6316
2026-01-19 09:13:12.17	16.59	69.36	-38.4	-41.9	3.6	8428504	94	7397
2026-01-19 09:13:12.37	16.57	69.46	-38.3	-41.0	3.4	8444057	94	6651
2026-01-19 09:13:12.57	16.56	69.55	-38.2	-39.8	3.3	8444057	94	5956
2026-01-19 09:13:12.77	16.55	69.64	-37.9	-39.0	3.4	8410686	94	5604
2026-01-19 09:13:12.97	16.53	69.74	-37.8	-40.5	3.6	8392639	93	6683
2026-01-19 09:13:13.17	16.52	69.83	-37.6	-39.3	3.8	8428722	93	5956
2026-01-19 09:13:13.37	16.50	69.92	-37.5	-38.1	3.7	8389904	93	5269
2026-01-19 09:13:13.57	16.49	70.01	-37.5	-38.1	3.7	8355617	93	5289
2026-01-19 09:13:13.77	16.48	70.11	-37.5	-38.2	3.7	8345729	93	5346
2026-01-19 09:13:13.98	16.46	70.20	-37.6	-38.6	3.6	8354530	93	5509
2026-01-19 09:13:14.18	16.45	70.30	-37.6	-38.6	3.6	8354530	93	5480
2026-01-19 09:13:14.38	16.43	70.39	-37.5	-39.5	3.7	8359039	93	6199
2026-01-19 09:13:14.58	16.42	70.48	-37.2	-38.6	4.0	8400547	92	5813
2026-01-19 09:13:14.78	16.40	70.58	-36.9	-37.0	4.2	8370769	92	4979
2026-01-19 09:13:14.98	16.39	70.67	-36.5	-36.5	4.5	8209705	91	4886
2026-01-19 09:13:15.18	16.37	70.77	-36.4	-36.2	4.6	7950656	91	4773
2026-01-19 09:13:15.38	16.35	70.86	-36.3	-35.8	4.8	7753154	91	4644
2026-01-19 09:13:15.58	16.34	70.95	-36.4	-36.0	4.7	7625278	91	4713
2026-01-19 09:13:15.78	16.32	71.05	-36.6	-36.6	4.5	7806953	91	4926
2026-01-19 09:13:15.98	16.31	71.14	-36.7	-37.0	4.3	7806953	91	5090
2026-01-19 09:13:16.18	16.29	71.23	-37.0	-37.7	4.1	7991775	91	5349
2026-01-19 09:13:16.39	16.27	71.33	-37.0	-37.7	4.1	8150859	91	5347
2026-01-19 09:13:16.59	16.26	71.43	-37.0	-37.7	4.1	8210449	91	5318
2026-01-19 09:13:16.79	16.24	71.52	-37.0	-37.6	4.2	8197769	91	5320
2026-01-19 09:13:16.99	16.22	71.62	-36.8	-37.3	4.3	8176322	91	5169
2026-01-19 09:13:17.19	16.20	71.71	-36.8	-37.2	4.3	8079643	91	5132
2026-01-19 09:13:17.39	16.19	71.81	-36.7	-36.8	4.4	8051879	91	5004
2026-01-19 09:13:17.59	16.17	71.90	-36.6	-36.6	4.5	8051879	91	4906
2026-01-19 09:13:17.79	16.15	72.00	-36.7	-36.7	4.4	7946022	91	4952
2026-01-19 09:13:17.99	16.13	72.09	-36.6	-36.6	4.4	7938400	91	4917
2026-01-19 09:13:18.19	16.11	72.19	-36.7	-36.7	4.4	7955532	91	4917
2026-01-19 09:13:18.39	16.10	72.28	-36.7	-36.7	4.4	7951011	91	4916
2026-01-19 09:13:18.60	16.08	72.38	-36.5	-36.2	4.5	8007568	91	4767
2026-01-19 09:13:18.80	16.06	72.48	-36.5	-36.0	4.6	7905349	91	4664
2026-01-19 09:13:19.00	16.04	72.57	-36.3	-35.7	4.7	7801105	91	4572
2026-01-19 09:13:19.20	16.02	72.67	-35.8	-35.4	5.0	7612632	89	4713
2026-01-19 09:13:19.40	16.00	72.76	-35.6	-35.0	5.2	7229667	89	4580
2026-01-19 09:13:19.60	15.98	72.86	-35.5	-34.8	5.3	6826572	89	4523
2026-01-19 09:13:19.80	15.96	72.95	-35.4	-34.6	5.4	6826572	89	4486
2026-01-19 09:13:20.00	15.94	73.05	-35.5	-34.7	5.3	6197822	89	4505
2026-01-19 09:13:20.20	15.92	73.14	-35.6	-35.0	5.2	6458587	89	4565
2026-01-19 09:13:20.41	15.90	73.24	-35.8	-35.5	4.9	7107753	89	4752
2026-01-19 09:13:20.61	15.87	73.34	-36.0	-35.9	4.8	7410301	89	4846
2026-01-19 09:13:20.81	15.85	73.44	-36.0	-35.9	4.8	7618400	89	4833
2026-01-19 09:13:21.01	15.83	73.53	-36.1	-36.0	4.8	7627372	89	4897
2026-01-19 09:13:21.21	15.81	73.63	-36.0	-35.8	4.9	7587032	89	4824
2026-01-19 09:13:21.41	15.79	73.72	-35.8	-35.5	5.1	7587032	89	4724
2026-01-19 09:13:21.61	15.76	73.82	-35.8	-35.4	5.2	7384082	89	4692
2026-01-19 09:13:21.81	15.74	73.92	-35.8	-35.4	5.1	7217147	89	4713
2026-01-19 09:13:22.01	15.72	74.01	-35.9	-35.8	5.0	7230091	89	4864
2026-01-19 09:13:22.21	15.69	74.11	-36.1	-36.3	4.8	7323944	89	5000
2026-01-19 09:13:22.41	15.67	74.21	-36.2	-36.5	4.8	7561386	89	5065
2026-01-19 09:13:22.61	15.65	74.30	-36.5	-37.2	4.5	7711647	89	5342
2026-01-19 09:13:22.82	15.62	74.40	-36.4	-36.6	4.5	7924026	90	5000
2026-01-19 09:13:23.02	15.60	74.50	-36.5	-36.7	4.5	7924026	90	5034
2026-01-19 09:13:23.22	15.57	74.60	-36.4	-36.6	4.6	7906196	90	5016
2026-01-19 09:13:23.42	15.55	74.70	-36.2	-36.1	4.8	7900119	90	4838
2026-01-19 09:13:23.62	15.52	74.79	-36.1	-35.7	4.9	7688793	90	4697
2026-01-19 09:13:23.82	15.49	74.89	-36.1	-35.8	4.9	7489597	90	4744
2026-01-19 09:13:24.02	15.47	74.99	-36.0	-35.5	5.1	7437561	90	4631
2026-01-19 09:13:24.22	15.44	75.08	-36.1	-35.9	4.9	7309169	90	4777
2026-01-19 09:13:24.42	15.41	75.18	-36.2	-35.9	4.9	7457084	90	4780
2026-01-19 09:13:24.62	15.38	75.28	-36.4	-36.4	4.7	7611499	90	4934
2026-01-19 09:13:24.82	15.36	75.38	-36.5	-36.8	4.6	7611499	90	5057
2026-01-19 09:13:25.02	15.33	75.47	-36.7	-37.3	4.4	7785049	90	5250
2026-01-19 09:13:25.22	15.30	75.57	-36.7	-37.3	4.4	7947292	90	5267
2026-01-19 09:13:25.43	15.27	75.67	-36.8	-37.4	4.4	7993331	90	5298
2026-01-19 09:13:25.63	15.24	75.77	-36.6	-37.0	4.5	8027801	90	5147
2026-01-19 09:13:25.83	15.21	75.87	-36.5	-36.9	4.6	7907203	90	5109
2026-01-19 09:13:26.03	15.18	75.97	-36.5	-36.7	4.7	7803543	90	5062
2026-01-19 09:13:26.23	15.15	76.06	-36.4	-36.5	4.8	7709987	90	4966
2026-01-19 09:13:26.43	15.12	76.16	-36.5	-36.8	4.7	7709987	90	5073
2026-01-19 09:13:26.63	15.08	76.26	-36.6	-37.0	4.6	7664932	90	5155
2026-01-19 09:13:26.83	15.05	76.36	-36.8	-37.6	4.4	7811828	90	5373
2026-01-19 09:13:27.03	15.02	76.46	-36.9	-37.9	4.3	7901607	90	5509
2026-01-19 09:13:27.23	14.98	76.56	-37.3	-38.2	4.2	8093879	91	5494
2026-01-19 09:13:27.43	14.95	76.65	-37.3	-38.2	4.2	8181266	91	5479
2026-01-19 09:13:27.64	14.91	76.76	-37.2	-37.9	4.3	8150344	91	5331
2026-01-19 09:13:27.84	14.88	76.86	-37.1	-37.6	4.4	8061206	91	5237
2026-01-19 09:13:28.04	14.84	76.95	-37.1	-37.7	4.4	7998985	91	5261
2026-01-19 09:13:28.24	14.81	77.05	-37.1	-37.6	4.4	7998985	91	5248
2026-01-19 09:13:28.44	14.77	77.15	-37.3	-38.2	4.2	8024345	91	5484
2026-01-19 09:13:28.64	14.73	77.25	-37.4	-38.7	4.0	8105472	91	5687
2026-01-19 09:13:28.84	14.69	77.35	-37.5	-38.4	3.9	8227844	92	5425
2026-01-19 09:13:29.04	14.66	77.45	-37.5	-39.7	3.8	8302986	92	6333
2026-01-19 09:13:29.24	14.62	77.55	-37.4	-39.2	4.1	8404735	92	6064
2026-01-19 09:13:29.44	14.58	77.64	-37.3	-37.9	4.1	8306076	92	5316
2026-01-19 09:13:29.64	14.54	77.74	-37.2	-37.3	4.1	8242561	92	5009
2026-01-19 09:13:29.85	14.49	77.85	-37.2	-37.2	4.1	8203651	92	4939
2026-01-19 09:13:30.05	14.45	77.95	-37.2	-37.4	4.1	8186759	92	4998
2026-01-19 09:13:30.25	14.41	78.05	-37.3	-37.6	4.1	8186759	92	5057
2026-01-19 09:13:30.45	14.36	78.14	-37.6	-38.2	3.9	8208698	92	5293
2026-01-19 09:13:30.65	14.32	78.24	-37.8	-38.8	3.8	8264316	92	5518
2026-01-19 09:13:30.85	14.27	78.34	-37.9	-40.4	3.7	8341735	92	6630
2026-01-19 09:13:31.05	14.23	78.44	-37.9	-39.7	3.7	8407024	92	6054
2026-01-19 09:13:31.25	14.18	78.54	-37.8	-38.7	3.8	8362472	92	5491
2026-01-19 09:13:31.45	14.13	78.64	-37.6	-38.3	3.9	8319877	92	5308
2026-01-19 09:13:31.65	14.08	78.74	-37.4	-37.7	4.1	8259395	92	5093
2026-01-19 09:13:31.86	14.03	78.85	-37.0	-36.7	4.4	8259395	92	4719
2026-01-19 09:13:32.06	13.98	78.94	-36.8	-36.1	4.6	8128532	92	4532
2026-01-19 09:13:32.26	13.93	79.04	-36.8	-36.6	4.6	7934062	91	4817
2026-01-19 09:13:32.46	13.88	79.14	-36.9	-36.8	4.5	7787475	91	4877
2026-01-19 09:13:32.66	13.83	79.24	-37.1	-37.5	4.3	7925765	91	5145
2026-01-19 09:13:32.86	13.77	79.34	-37.4	-38.1	4.0	8134185	91	5366
2026-01-19 09:13:33.06	13.72	79.44	-37.6	-38.4	3.8	8266891	92	5359
2026-01-19 09:13:33.26	13.66	79.54	-37.8	-40.1	3.7	8359371	92	6444
2026-01-19 09:13:33.46	13.60	79.64	-37.8	-39.7	3.9	8398715	92	6101
2026-01-19 09:13:33.67	13.54	79.75	-37.6	-38.5	3.9	8398715	92	5419
2026-01-19 09:13:33.87	13.48	79.85	-37.5	-38.1	4.0	8341884	92	5252
2026-01-19 09:13:34.07	13.42	79.95	-37.6	-38.2	4.0	8288967	92	5290
2026-01-19 09:13:34.27	13.36	80.05	-37.7	-38.5	3.9	8278827	92	5404
2026-01-19 09:13:34.47	13.29	80.15	-37.9	-40.5	3.7	8299415	92	6623
2026-01-19 09:13:34.67	13.23	80.25	-37.9	-40.5	3.7	8393165	92	6630
2026-01-19 09:13:34.87	13.16	80.35	-38.1	-39.4	3.7	8384147	93	5751
2026-01-19 09:13:35.07	13.09	80.45	-38.0	-39.0	3.6	8378929	93	5517
2026-01-19 09:13:35.27	13.02	80.55	-38.2	-39.4	3.5	8378929	93	5635
2026-01-19 09:13:35.47	12.95	80.65	-38.2	-40.9	3.6	8375793	93	6697
2026-01-19 09:13:35.67	12.88	80.75	-38.3	-40.1	3.6	8427703	93	6115
2026-01-19 09:13:35.88	12.80	80.85	-38.4	-40.0	3.5	8409667	93	5896
2026-01-19 09:13:36.08	12.73	80.96	-38.5	-39.9	3.4	8399230	94	5765
2026-01-19 09:13:36.28	12.65	81.06	-38.7	-41.8	3.6	8389698	94	7031
2026-01-19 09:13:36.48	12.57	81.16	-38.7	-41.3	3.5	8431228	94	6674
2026-01-19 09:13:36.68	12.49	81.26	-38.7	-40.6	3.3	8408672	94	6117
2026-01-19 09:13:36.88	12.40	81.36	-38.6	-40.2	3.4	8408672	94	5918
2026-01-19 09:13:37.08	12.32	81.46	-38.3	-40.8	3.6	8396255	94	6499
2026-01-19 09:13:37.28	12.23	81.56	-38.2	-40.0	3.8	8407035	94	6062
2026-01-19 09:13:37.48	12.14	81.66	-38.0	-38.6	3.7	8422027	94	5273
2026-01-19 09:13:37.68	12.05	81.76	-38.0	-38.4	3.6	8374431	94	5151
2026-01-19 09:13:37.88	11.95	81.86	-37.9	-39.7	3.7	8355182	94	6003
2026-01-19 09:13:38.08	11.86	81.96	-38.2	-40.3	3.6	8412105	94	6293
2026-01-19 09:13:38.29	11.75	82.07	-38.3	-39.7	3.5	8423274	94	5789
2026-01-19 09:13:38.49	11.65	82.17	-38.4	-39.5	3.4	8386791	94	5618
2026-01-19 09:13:38.69	11.55	82.27	-38.5	-39.8	3.4	8386791	94	5753
2026-01-19 09:13:38.89	11.44	82.37	-38.5	-41.2	3.6	8386974	94	6747
2026-01-19 09:13:39.09	11.33	82.47	-38.3	-40.1	3.5	8437637	94	6008
2026-01-19 09:13:39.29	11.22	82.57	-38.2	-39.0	3.5	8405788	94	5390
2026-01-19 09:13:39.49	11.10	82.67	-38.2	-38.9	3.5	8377143	94	5367
2026-01-19 09:13:39.69	10.98	82.77	-38.3	-40.6	3.6	8390773	94	6436
2026-01-19 09:13:39.89	10.86	82.87	-38.3	-40.2	3.6	8426868	94	6104
2026-01-19 09:13:40.10	10.73	82.98	-38.5	-39.9	3.4	8393817	94	5819
2026-01-19 09:13:40.30	10.59	83.08	-38.4	-39.6	3.4	8384181	94	5651
2026-01-19 09:13:40.50	10.46	83.18	-38.4	-41.0	3.6	8413169	94	6642
2026-01-19 09:13:40.70	10.32	83.28	-38.2	-39.7	3.7	8413169	94	5875
2026-01-19 09:13:40.90	10.18	83.38	-38.1	-38.7	3.6	8422256	94	5309
2026-01-19 09:13:41.10	10.03	83.48	-37.8	-37.8	3.7	8379776	94	4942
2026-01-19 09:13:41.30	9.88	83.58	-37.8	-38.4	3.8	8357631	93	5272
2026-01-19 09:13:41.50	9.72	83.68	-38.0	-40.2	3.7	8337959	93	6360
2026-01-19 09:13:41.70	9.56	83.78	-38.1	-40.7	3.7	8397045	93	6626
2026-01-19 09:13:41.90	9.39	83.88	-38.3	-40.1	3.6	8407894	93	6096
2026-01-19 09:13:42.11	9.21	83.99	-38.4	-40.1	3.5	8374076	93	5976
2026-01-19 09:13:42.31	9.03	84.09	-38.3	-39.8	3.5	8376274	93	5880
2026-01-19 09:13:42.51	8.85	84.19	-38.1	-40.5	3.7	8376274	93	6512
2026-01-19 09:13:42.71	8.65	84.29	-37.6	-38.4	4.1	8422885	93	5364
2026-01-19 09:13:42.91	8.45	84.39	-37.6	-37.8	4.0	8335533	93	5009
2026-01-19 09:13:43.11	8.25	84.49	-37.6	-37.7	4.0	8241542	93	4999
2026-01-19 09:13:43.31	8.03	84.59	-37.6	-37.8	3.9	8261100	93	5062
2026-01-19 09:13:43.51	7.81	84.69	-37.9	-38.7	3.7	8287216	93	5418
2026-01-19 09:13:43.71	7.58	84.79	-38.0	-40.4	3.7	8380119	93	6485
2026-01-19 09:13:43.91	7.34	84.89	-38.3	-40.3	3.6	8424419	93	6244
2026-01-19 09:13:44.11	7.09	84.99	-38.2	-39.8	3.6	8424419	93	5859
2026-01-19 09:13:44.31	6.83	85.09	-38.4	-40.1	3.5	8381973	93	6018
2026-01-19 09:13:44.52	6.54	85.20	-38.2	-40.9	3.6	8383483	93	6737
2026-01-19 09:13:44.72	6.26	85.30	-38.1	-40.2	3.8	8418537	93	6221
2026-01-19 09:13:44.92	5.96	85.40	-38.0	-38.9	3.7	8397983	93	5490
2026-01-19 09:13:45.12	5.65	85.50	-37.9	-38.7	3.8	8353351	93	5355
2026-01-19 09:13:45.32	5.33	85.60	-37.7	-38.1	3.9	8328575	93	5132
2026-01-19 09:13:45.52	4.99	85.70	-37.6	-37.9	3.9	8294082	93	5059
2026-01-19 09:13:45.72	4.64	85.80	-37.8	-38.2	3.8	8294082	93	5165
2026-01-19 09:13:45.92	4.27	85.90	-37.8	-38.4	3.8	8291141	93	5270
2026-01-19 09:13:46.12	3.88	86.00	-37.9	-38.6	3.8	8317016	93	5334
2026-01-19 09:13:46.32	3.47	86.09	-38.0	-38.8	3.7	8331035	93	5409
2026-01-19 09:13:46.52	3.04	86.19	-37.9	-38.4	3.8	8333747	93	5242
2026-01-19 09:13:46.72	2.58	86.29	-38.0	-40.2	3.7	8314098	93	6352
2026-01-19 09:13:46.93	2.08	86.39	-37.9	-39.9	3.7	8401691	93	6167
2026-01-19 09:13:47.13	1.57	86.49	-38.0	-39.1	3.8	8368148	93	5604
2026-01-19 09:13:47.33	1.03	86.59	-38.1	-39.1	3.6	8350456	93	5533
2026-01-19 09:13:47.53	0.47	86.69	-38.2	-39.5	3.6	8350456	93	5664
2026-01-19 09:13:47.73	359.86	86.79	-38.4	-41.4	3.6	8367279	93	6913
2026-01-19 09:13:47.93	359.22	86.88	-38.4	-40.6	3.6	8429397	93	6344
2026-01-19 09:13:48.13	358.54	86.98	-38.5	-39.7	3.4	8410022	94	5701
2026-01-19 09:13:48.33	357.82	87.07	-38.4	-39.7	3.4	8382476	94	5681
2026-01-19 09:13:48.53	357.04	87.17	-38.3	-40.7	3.6	8405788	94	6455
2026-01-19 09:13:48.74	356.17	87.27	-38.2	-39.7	3.7	8435588	94	5853
2026-01-19 09:13:48.94	355.27	87.36	-38.2	-38.9	3.6	8383781	94	5312
2026-01-19 09:13:49.14	354.32	87.46	-38.2	-38.8	3.6	8383781	94	5307
2026-01-19 09:13:49.34	353.28	87.55	-38.1	-40.1	3.7	8376857	94	6176
2026-01-19 09:13:49.54	352.17	87.64	-38.3	-40.4	3.7	8402538	94	6249
2026-01-19 09:13:49.74	350.97	87.73	-38.3	-39.5	3.6	8415527	94	5637
2026-01-19 09:13:49.94	349.67	87.82	-38.3	-39.2	3.5	8391014	94	5470
2026-01-19 09:13:50.14	348.25	87.91	-38.3	-40.4	3.6	8365573	94	6314
2026-01-19 09:13:50.34	346.71	88.00	-38.2	-40.4	3.6	8417118	94	6320
2026-01-19 09:13:50.54	345.03	88.08	-38.2	-39.3	3.7	8404895	94	5568
2026-01-19 09:13:50.74	343.20	88.17	-38.1	-38.5	3.7	8373172	94	5175
2026-01-19 09:13:50.94	341.19	88.25	-38.0	-38.3	3.7	8373172	94	5105
2026-01-19 09:13:51.15	338.87	88.33	-38.3	-40.6	3.6	8350570	94	6380
2026-01-19 09:13:51.35	336.44	88.41	-38.5	-40.2	3.6	8403751	94	6036
2026-01-19 09:13:51.55	333.77	88.48	-38.5	-39.9	3.5	8407424	94	5764
2026-01-19 09:13:51.75	330.83	88.55	-38.6	-40.1	3.4	8380451	94	5842
2026-01-19 09:13:51.95	327.60	88.62	-38.7	-41.7	3.6	8395637	94	6957
2026-01-19 09:13:52.15	324.07	88.68	-38.7	-41.0	3.5	8444183	94	6446
2026-01-19 09:13:52.35	320.20	88.74	-38.6	-40.1	3.4	8417404	94	5881
2026-01-19 09:13:52.55	316.00	88.79	-38.6	-40.2	3.3	8390190	94	5901
2026-01-19 09:13:52.75	311.47	88.83	-38.6	-41.6	3.6	8407070	94	6936
2026-01-19 09:13:52.95	306.64	88.86	-38.6	-41.1	3.6	8407070	94	6614
2026-01-19 09:13:53.15	301.54	88.89	-38.5	-39.8	3.6	8417129	94	5744
2026-01-19 09:13:53.35	296.25	88.90	-38.6	-39.8	3.5	8398601	94	5675
2026-01-19 09:13:53.56	290.57	88.91	-38.4	-40.9	3.6	8382041	94	6546
2026-01-19 09:13:53.76	285.14	88.91	-38.4	-40.9	3.6	8405548	94	6527
2026-01-19 09:13:53.96	279.79	88.90	-38.2	-39.3	3.7	8422531	94	5545
2026-01-19 09:13:54.16	274.61	88.87	-38.2	-38.8	3.7	8379947	94	5290
2026-01-19 09:13:54.36	269.67	88.84	-38.0	-38.3	3.7	8349586	94	5064
2026-01-19 09:13:54.56	265.01	88.80	-37.8	-37.8	3.9	8349586	94	4923
2026-01-19 09:13:54.76	260.69	88.76	-37.9	-38.4	3.9	8319042	93	5239
2026-01-19 09:13:54.96	256.69	88.70	-37.5	-37.5	4.1	8299541	93	4875
2026-01-19 09:13:55.16	253.03	88.64	-37.5	-37.4	4.1	8244575	93	4870
2026-01-19 09:13:55.37	249.52	88.58	-37.4	-37.1	4.3	8184345	93	4748
2026-01-19 09:13:55.57	246.49	88.51	-37.3	-37.0	4.3	8117397	93	4718
2026-01-19 09:13:55.77	243.73	88.44	-37.3	-36.7	4.4	8089656	93	4644
2026-01-19 09:13:55.97	241.22	88.36	-37.4	-37.6	4.3	8060314	92	5034
2026-01-19 09:13:56.17	238.93	88.28	-37.5	-38.0	4.1	8110965	92	5186
2026-01-19 09:13:56.37	236.85	88.20	-37.7	-38.4	3.9	8110965	92	5364
2026-01-19 09:13:56.57	234.95	88.12	-38.0	-39.3	3.8	8233188	92	5691
2026-01-19 09:13:56.77	233.22	88.03	-38.1	-39.1	3.7	8320026	93	5520
2026-01-19 09:13:56.97	231.62	87.95	-38.3	-40.9	3.7	8353866	93	6658
2026-01-19 09:13:57.18	230.09	87.85	-38.3	-40.5	3.7	8421249	93	6320
2026-01-19 09:13:57.38	228.75	87.76	-38.3	-39.6	3.7	8392341	93	5727
2026-01-19 09:13:57.58	227.52	87.67	-38.3	-39.6	3.6	8358146	93	5732
2026-01-19 09:13:57.78	226.38	87.58	-38.2	-40.6	3.7	8386138	93	6488
2026-01-19 09:13:57.98	225.32	87.49	-38.0	-40.0	4.0	8386138	93	6137
2026-01-19 09:13:58.18	224.34	87.39	-38.1	-39.2	3.8	8402320	93	5595
2026-01-19 09:13:58.38	223.42	87.30	-38.0	-38.7	3.8	8359268	93	5333
2026-01-19 09:13:58.58	222.57	87.21	-38.2	-39.3	3.7	8323139	93	5561
2026-01-19 09:13:58.78	221.77	87.11	-38.1	-40.5	3.7	8367679	93	6470
2026-01-19 09:13:58.98	221.03	87.02	-38.4	-40.5	3.7	8413696	93	6269
2026-01-19 09:13:59.18	220.33	86.92	-38.5	-39.8	3.5	8372108	94	5703
2026-01-19 09:13:59.39	219.64	86.82	-38.4	-39.6	3.5	8366306	94	5608
2026-01-19 09:13:59.59	219.03	86.72	-38.4	-40.9	3.6	8366306	94	6546
2026-01-19 09:13:59.79	218.45	86.62	-38.4	-40.2	3.7	8411499	94	6097
2026-01-19 09:13:59.99	217.90	86.53	-38.3	-39.3	3.6	8413558	94	5535
2026-01-19 09:14:00.19	217.38	86.43	-38.3	-39.1	3.6	8380554	94	5416
2026-01-19 09:14:00.39	216.89	86.33	-38.3	-40.6	3.6	8354335	94	6443
2026-01-19 09:14:00.59	216.43	86.23	-38.2	-40.1	3.8	8414886	94	6136
2026-01-19 09:14:00.79	215.99	86.13	-38.3	-39.5	3.6	8418285	94	5663
2026-01-19 09:14:00.99	215.57	86.03	-38.3	-39.2	3.6	8374752	94	5454
2026-01-19 09:14:01.19	215.18	85.93	-38.2	-40.5	3.6	8364463	94	6374
2026-01-19 09:14:01.40	214.78	85.83	-38.2	-40.1	3.8	8424819	94	6141
2026-01-19 09:14:01.60	214.42	85.73	-38.1	-38.8	3.7	8378139	94	5334
2026-01-19 09:14:01.80	214.08	85.63	-38.1	-38.7	3.7	8378139	94	5258
2026-01-19 09:14:02.00	213.75	85.53	-38.2	-38.9	3.6	8351028	94	5379
2026-01-19 09:14:02.20	213.43	85.43	-38.2	-39.2	3.6	8373332	94	5501
2026-01-19 09:14:02.40	213.13	85.33	-38.4	-39.8	3.5	8369556	94	5764
2026-01-19 09:14:02.60	212.85	85.23	-38.3	-40.9	3.6	8374065	94	6632
2026-01-19 09:14:02.80	212.57	85.13	-38.5	-41.1	3.7	8428813	94	6663
2026-01-19 09:14:03.00	212.31	85.03	-38.4	-39.8	3.6	8403877	94	5820
2026-01-19 09:14:03.20	212.05	84.93	-38.2	-39.3	3.5	8388931	94	5535
2026-01-19 09:14:03.40	211.81	84.83	-38.1	-40.3	3.7	8388931	94	6313
2026-01-19 09:14:03.61	211.56	84.73	-38.2	-40.3	3.7	8378608	94	6320
2026-01-19 09:14:03.81	211.34	84.63	-38.2	-39.5	3.6	8418949	94	5677
2026-01-19 09:14:04.01	211.12	84.52	-38.2	-39.2	3.5	8385326	94	5511
2026-01-19 09:14:04.21	210.91	84.42	-38.2	-39.1	3.6	8383243	94	5444
2026-01-19 09:14:04.41	210.71	84.32	-38.2	-40.7	3.6	8389629	94	6530
2026-01-19 09:14:04.61	210.51	84.22	-38.4	-40.4	3.6	8411155	94	6174
2026-01-19 09:14:04.81	210.33	84.12	-38.5	-39.9	3.4	8388725	94	5806
2026-01-19 09:14:05.01	210.14	84.02	-38.6	-40.2	3.4	8388725	94	5966
2026-01-19 09:14:05.21	209.97	83.92	-38.5	-41.6	3.6	8388725	94	6991
2026-01-19 09:14:05.41	209.80	83.82	-38.5	-40.8	3.6	8430484	94	6428
2026-01-19 09:14:05.61	209.63	83.72	-38.4	-39.8	3.5	8425712	94	5754
2026-01-19 09:14:05.82	209.47	83.61	-38.3	-39.5	3.5	8379077	94	5612
2026-01-19 09:14:06.02	209.31	83.51	-38.2	-40.3	3.6	8394149	94	6293
2026-01-19 09:14:06.22	209.17	83.41	-38.1	-40.0	3.8	8429821	94	6110
2026-01-19 09:14:06.42	209.02	83.31	-38.1	-39.1	3.6	8402904	94	5470
2026-01-19 09:14:06.62	208.88	83.21	-38.3	-39.3	3.5	8373573	94	5539
2026-01-19 09:14:06.82	208.75	83.11	-38.2	-40.5	3.6	8373573	94	6423
2026-01-19 09:14:07.02	208.61	83.01	-38.2	-40.4	3.6	8392375	94	6322
2026-01-19 09:14:07.22	208.48	82.91	-38.2	-39.4	3.6	8418777	94	5668
2026-01-19 09:14:07.42	208.36	82.81	-38.1	-38.8	3.6	8382934	94	5300
2026-01-19 09:14:07.62	208.24	82.71	-37.9	-38.2	3.7	8362953	94	5096
2026-01-19 09:14:07.82	208.12	82.61	-37.8	-38.2	3.8	8350147	93	5182
2026-01-19 09:14:08.03	208.00	82.50	-37.7	-38.1	3.8	8313526	93	5123
2026-01-19 09:14:08.23	207.89	82.40	-37.8	-38.2	3.8	8329605	93	5163
2026-01-19 09:14:08.43	207.78	82.30	-37.8	-38.3	3.8	8329605	93	5189
2026-01-19 09:14:08.63	207.68	82.20	-37.8	-38.2	3.8	8336963	93	5183
2026-01-19 09:14:08.83	207.57	82.10	-37.8	-39.7	3.7	8327728	93	6110
2026-01-19 09:14:09.03	207.47	82.00	-37.8	-39.5	3.8	8352104	93	6008
2026-01-19 09:14:09.23	207.38	81.90	-37.7	-38.4	3.9	8385589	93	5323
2026-01-19 09:14:09.43	207.28	81.79	-37.7	-38.1	3.8	8323963	93	5135
2026-01-19 09:14:09.63	207.19	81.69	-37.6	-37.7	3.9	8322864	93	4996
2026-01-19 09:14:09.83	207.10	81.59	-37.7	-38.0	3.8	8290958	93	5085
2026-01-19 09:14:10.03	207.01	81.49	-37.9	-40.0	3.7	8336540	93	6243
2026-01-19 09:14:10.24	206.92	81.39	-38.1	-40.6	3.7	8336540	93	6534
2026-01-19 09:14:10.44	206.84	81.29	-38.3	-40.1	3.6	8420276	93	6024
2026-01-19 09:14:10.64	206.75	81.19	-38.4	-40.1	3.5	8391666	93	5983
2026-01-19 09:14:10.84	206.67	81.09	-38.5	-39.9	3.4	8383026	94	5807
2026-01-19 09:14:11.04	206.60	80.98	-38.5	-41.4	3.6	8400203	94	6826
2026-01-19 09:14:11.24	206.52	80.88	-38.4	-40.2	3.5	8433174	94	6040
2026-01-19 09:14:11.44	206.44	80.78	-38.4	-39.4	3.5	8403568	94	5555
2026-01-19 09:14:11.64	206.37	80.68	-38.3	-39.3	3.5	8378322	94	5510
2026-01-19 09:14:11.85	206.30	80.58	-38.4	-41.1	3.6	8414497	94	6666
2026-01-19 09:14:12.05	206.23	80.48	-38.5	-40.5	3.6	8432167	94	6158
2026-01-19 09:14:12.25	206.16	80.38	-38.6	-40.0	3.4	8432167	94	5826
2026-01-19 09:14:12.45	206.09	80.28	-38.5	-39.9	3.4	8406761	94	5775
2026-01-19 09:14:12.65	206.02	80.18	-38.5	-41.3	3.6	8401382	94	6749
2026-01-19 09:14:12.85	205.96	80.08	-38.4	-40.4	3.6	8436664	94	6217
2026-01-19 09:14:13.05	205.90	79.98	-38.4	-39.5	3.5	8422096	94	5592
2026-01-19 09:14:13.25	205.83	79.88	-38.3	-39.3	3.5	8389343	94	5484
2026-01-19 09:14:13.45	205.77	79.78	-38.3	-40.5	3.6	8388942	94	6359
2026-01-19 09:14:13.65	205.72	79.68	-38.3	-40.4	3.7	8426685	94	6225
2026-01-19 09:14:13.86	205.65	79.57	-38.3	-39.6	3.5	8426685	94	5696
2026-01-19 09:14:14.06	205.60	79.47	-38.4	-39.7	3.4	8402332	94	5677
2026-01-19 09:14:14.26	205.54	79.37	-38.5	-41.2	3.6	8388427	94	6747
2026-01-19 09:14:14.46	205.49	79.27	-38.6	-41.5	3.6	8415172	94	6865
2026-01-19 09:14:14.66	205.43	79.17	-38.4	-40.0	3.5	8426914	94	5928
2026-01-19 09:14:14.86	205.38	79.07	-38.5	-39.8	3.4	8398189	94	5752
2026-01-19 09:14:15.06	205.33	78.97	-38.3	-39.2	3.5	8381938	94	5461
2026-01-19 09:14:15.26	205.28	78.87	-38.2	-40.4	3.6	8418926	94	6314
2026-01-19 09:14:15.46	205.23	78.77	-38.2	-39.3	3.7	8426010	94	5636
2026-01-19 09:14:15.67	205.18	78.67	-38.1	-38.7	3.6	8426010	94	5269
2026-01-19 09:14:15.87	205.13	78.57	-38.1	-38.7	3.6	8380668	94	5267
2026-01-19 09:14:16.07	205.08	78.47	-38.2	-40.2	3.6	8366924	94	6222
2026-01-19 09:14:16.27	205.04	78.37	-38.1	-39.5	3.7	8427875	94	5801
2026-01-19 09:14:16.47	204.99	78.27	-38.1	-38.9	3.6	8407276	94	5351
2026-01-19 09:14:16.67	204.95	78.17	-38.2	-38.9	3.5	8375976	94	5365
2026-01-19 09:14:16.87	204.90	78.07	-38.1	-40.2	3.6	8393028	94	6232
2026-01-19 09:14:17.07	204.86	77.97	-38.0	-39.5	3.8	8429145	94	5859
2026-01-19 09:14:17.27	204.82	77.87	-37.8	-38.2	3.7	8429145	94	5101
2026-01-19 09:14:17.47	204.77	77.77	-37.8	-37.8	3.7	8385990	94	4921
2026-01-19 09:14:17.68	204.73	77.67	-37.9	-38.6	3.7	8359611	93	5314
2026-01-19 09:14:17.88	204.69	77.57	-37.9	-38.5	3.7	8338794	93	5292
2026-01-19 09:14:18.08	204.65	77.47	-37.9	-38.6	3.7	8342433	93	5340
2026-01-19 09:14:18.28	204.61	77.37	-37.9	-40.0	3.7	8351840	93	6290
2026-01-19 09:14:18.48	204.57	77.27	-37.8	-39.9	3.7	8400089	93	6244
2026-01-19 09:14:18.68	204.54	77.18	-37.9	-39.0	3.7	8398796	93	5611
2026-01-19 09:14:18.88	204.50	77.08	-37.7	-38.1	3.8	8340248	93	5155
2026-01-19 09:14:19.08	204.46	76.98	-37.6	-37.9	3.8	8340248	93	5089
2026-01-19 09:14:19.28	204.43	76.88	-37.6	-38.0	3.8	8325862	93	5102
2026-01-19 09:14:19.48	204.39	76.78	-37.5	-37.8	3.9	8320610	93	5066
2026-01-19 09:14:19.69	204.36	76.68	-37.5	-37.7	3.9	8299324	93	5021
2026-01-19 09:14:19.89	204.32	76.58	-37.5	-37.6	4.0	8294586	93	4989
2026-01-19 09:14:20.09	204.29	76.48	-37.5	-37.8	3.9	8283931	93	5048
2026-01-19 09:14:20.29	204.25	76.38	-37.6	-37.9	3.8	8289951	93	5102
2026-01-19 09:14:20.49	204.22	76.28	-37.6	-37.9	3.8	8307723	93	5098
2026-01-19 09:14:20.69	204.19	76.19	-37.5	-37.7	3.9	8307723	93	5018
2026-01-19 09:14:20.89	204.16	76.09	-37.4	-37.4	3.9	8304393	93	4923
2026-01-19 09:14:21.09	204.13	75.99	-37.3	-37.1	4.0	8293087	93	4800
2026-01-19 09:14:21.29	204.10	75.89	-37.3	-37.1	4.1	8257461	93	4799
2026-01-19 09:14:21.49	204.07	75.79	-37.2	-37.3	4.1	8231872	92	4991
2026-01-19 09:14:21.69	204.04	75.70	-37.1	-37.1	4.2	8214477	92	4893
2026-01-19 09:14:21.89	204.01	75.60	-37.1	-37.0	4.2	8169456	92	4879
2026-01-19 09:14:22.10	203.98	75.49	-37.0	-36.8	4.2	8139862	92	4820
2026-01-19 09:14:22.30	203.95	75.40	-37.0	-36.7	4.3	8122375	92	4764
2026-01-19 09:14:22.50	203.92	75.30	-36.9	-36.6	4.3	8100288	92	4744
2026-01-19 09:14:22.70	203.89	75.20	-36.8	-36.3	4.4	8100288	92	4631
2026-01-19 09:14:22.90	203.86	75.10	-36.9	-36.7	4.3	8035583	92	4773
2026-01-19 09:14:23.10	203.84	75.01	-36.9	-36.6	4.3	8041408	92	4746
2026-01-19 09:14:23.30	203.81	74.91	-37.0	-36.8	4.3	8063999	92	4829
2026-01-19 09:14:23.50	203.78	74.81	-37.1	-37.0	4.2	8109603	92	4882
2026-01-19 09:14:23.70	203.76	74.72	-37.1	-37.1	4.1	8137104	92	4946
2026-01-19 09:14:23.90	203.73	74.62	-37.1	-37.2	4.1	8183692	92	4966
2026-01-19 09:14:24.10	203.71	74.52	-37.1	-37.3	4.1	8207508	92	5007
2026-01-19 09:14:24.31	203.68	74.42	-37.1	-37.2	4.1	8206272	92	4991
2026-01-19 09:14:24.51	203.66	74.32	-37.1	-37.1	4.1	8206272	92	4967
2026-01-19 09:14:24.71	203.63	74.23	-37.1	-37.2	4.2	8200504	92	4963
2026-01-19 09:14:24.91	203.61	74.13	-37.2	-37.5	4.1	8196178	92	5122
2026-01-19 09:14:25.11	203.58	74.03	-37.2	-37.4	4.1	8226985	92	5050
2026-01-19 09:14:25.31	203.56	73.94	-37.1	-37.2	4.1	8220989	92	4976
2026-01-19 09:14:25.51	203.54	73.84	-37.1	-37.2	4.1	8207462	92	4985
2026-01-19 09:14:25.71	203.51	73.74	-37.1	-37.2	4.1	8213939	92	4977
2026-01-19 09:14:25.91	203.49	73.65	-37.1	-37.1	4.1	8215610	92	4944
2026-01-19 09:14:26.11	203.47	73.55	-37.0	-36.9	4.1	8215610	92	4879
2026-01-19 09:14:26.31	203.45	73.45	-37.0	-36.8	4.1	8224067	92	4847
2026-01-19 09:14:26.52	203.43	73.35	-36.9	-36.6	4.2	8187526	92	4761
2026-01-19 09:14:26.72	203.40	73.26	-36.9	-36.5	4.2	8160449	92	4728
2026-01-19 09:14:26.92	203.38	73.16	-36.8	-36.3	4.3	8139152	92	4644
2026-01-19 09:14:27.12	203.36	73.06	-36.8	-36.7	4.3	8077102	91	4861
2026-01-19 09:14:27.32	203.34	72.97	-36.6	-36.1	4.5	7989875	91	4676
2026-01-19 09:14:27.52	203.32	72.87	-36.4	-35.8	4.7	7839134	91	4570
2026-01-19 09:14:27.72	203.30	72.78	-36.4	-35.8	4.6	7780872	91	4595
2026-01-19 09:14:27.92	203.28	72.68	-36.4	-35.9	4.6	7780872	91	4604
2026-01-19 09:14:28.12	203.26	72.59	-36.4	-35.8	4.6	7815101	91	4579
2026-01-19 09:14:28.32	203.24	72.49	-36.6	-36.1	4.5	7826866	91	4684
2026-01-19 09:14:28.52	203.22	72.40	-36.7	-36.4	4.4	7876190	91	4777
2026-01-19 09:14:28.73	203.20	72.30	-36.8	-36.8	4.3	8003013	91	4917
2026-01-19 09:14:28.93	203.18	72.20	-36.8	-36.8	4.2	8112522	91	4891
2026-01-19 09:14:29.13	203.17	72.10	-36.9	-37.1	4.1	8142848	91	5002
2026-01-19 09:14:29.33	203.15	72.01	-37.0	-37.2	4.1	8202964	91	5028
2026-01-19 09:14:29.53	203.13	71.91	-37.1	-37.4	4.0	8202964	91	5111
2026-01-19 09:14:29.73	203.11	71.82	-37.1	-37.5	4.0	8225200	91	5154
2026-01-19 09:14:29.93	203.09	71.73	-37.1	-37.6	3.9	8253925	91	5204
2026-01-19 09:14:30.13	203.08	71.63	-37.2	-37.7	3.9	8272281	91	5255
2026-01-19 09:14:30.33	203.06	71.54	-37.2	-37.8	3.9	8292961	91	5288
2026-01-19 09:14:30.53	203.04	71.44	-37.5	-38.6	3.7	8306510	91	5591
2026-01-19 09:14:30.73	203.03	71.35	-37.5	-39.7	3.7	8358547	92	6311
2026-01-19 09:14:30.94	203.01	71.25	-37.7	-39.9	3.8	8414588	92	6341
2026-01-19 09:14:31.14	202.99	71.15	-37.7	-38.9	3.6	8414588	92	5668
2026-01-19 09:14:31.34	202.98	71.06	-37.8	-39.0	3.6	8401760	92	5655
2026-01-19 09:14:31.54	202.96	70.97	-37.7	-40.2	3.7	8367473	92	6539
2026-01-19 09:14:31.74	202.94	70.87	-37.5	-39.8	3.7	8389434	92	6354
2026-01-19 09:14:31.94	202.93	70.78	-37.3	-38.2	3.8	8421707	92	5413
2026-01-19 09:14:32.14	202.91	70.68	-37.3	-37.8	3.8	8335578	92	5190
2026-01-19 09:14:32.34	202.90	70.59	-38.5	-40.6	3.3	8334777	93	6257
2026-01-19 09:14:32.54	202.88	70.50	-38.7	-42.3	3.6	8424819	94	7436
2026-01-19 09:14:32.75	202.87	70.40	-39.0	-41.9	3.4	8442993	94	6931
2026-01-19 09:14:32.95	202.85	70.30	-39.2	-41.6	3.3	8406040	95	6457

#Closed at: 2026-01-19 09:14:33