passes_logs/2026/01/29/R3.2S_Murmansk_2ch/R3.2S_Murmansk_2ch__20260129_212434_JL1KF02B01_rec.log

#Pass ID: 20260129_212434_JL1KF02B01
#Satellite: JL1KF02B01
#Configuration: 01B_900M
#almurnet v.1.7.20251203
#Start time: 2026-01-29 21:24:34

#Version: 2.2.20231116
#Station: R3.2S_Murmansk_2ch
#Location: 33.079688 lon 68.888172 lat
#TLE: 1 61191U 24169C   26028.95513050  .00007507  00000+0  46820-3 0  9997
#TLE: 2 61191  97.5609 120.3307 0014645  79.9682 280.3199 15.09725114 74821

#Time	Az	El	Level	Level2	SNR	BER	BlckErr	Temp	State	Recorded	gain1	gain2
2026-01-29 21:24:34.57	200.36	2.02	-47.8	-50.4	6.2	0.00e+00	0	43	0	0	67	19056
2026-01-29 21:24:35.57	200.43	2.08	-47.8	-50.3	6.2	0.00e+00	0	43	104	0	67	19002
2026-01-29 21:24:36.58	200.51	2.15	-47.8	-50.3	6.2	0.00e+00	0	43	104	0	67	18957
2026-01-29 21:24:37.59	200.59	2.21	-47.8	-50.3	6.2	0.00e+00	0	43	104	0	67	19006
2026-01-29 21:24:38.60	200.66	2.27	-47.8	-50.3	6.2	0.00e+00	0	43	104	0	67	19025
2026-01-29 21:24:39.60	200.74	2.34	-47.8	-50.3	6.2	0.00e+00	0	43	104	0	67	18935
2026-01-29 21:24:40.61	200.82	2.40	-47.8	-50.3	6.2	0.00e+00	0	43	104	0	67	18971
2026-01-29 21:24:41.62	200.90	2.47	-47.8	-50.3	6.2	0.00e+00	0	43	104	0	67	18974
2026-01-29 21:24:42.63	200.98	2.53	-47.9	-50.4	6.2	0.00e+00	0	43	104	0	67	19175
2026-01-29 21:24:43.64	201.06	2.60	-48.0	-50.6	6.2	0.00e+00	0	43	104	0	67	19492
2026-01-29 21:24:44.65	201.14	2.66	-48.1	-50.6	6.2	0.00e+00	0	43	104	0	67	19678
2026-01-29 21:24:45.66	201.22	2.73	-48.1	-50.7	6.2	0.00e+00	0	43	104	0	67	19771
2026-01-29 21:24:46.67	201.30	2.79	-48.1	-50.7	6.2	0.00e+00	0	43	104	0	67	19784
2026-01-29 21:24:47.68	201.38	2.86	-48.1	-50.7	6.2	0.00e+00	0	43	104	0	67	19710
2026-01-29 21:24:48.69	201.46	2.92	-48.1	-50.6	6.2	0.00e+00	0	43	104	0	67	19670
2026-01-29 21:24:49.70	201.54	2.99	-48.1	-50.6	6.2	0.00e+00	0	43	104	0	67	19611
2026-01-29 21:24:50.71	201.63	3.06	-48.0	-50.6	6.2	0.00e+00	0	43	104	0	67	19536
2026-01-29 21:24:51.72	201.71	3.12	-48.0	-50.5	6.2	0.00e+00	0	43	104	0	67	19424
2026-01-29 21:24:52.73	201.79	3.19	-48.0	-50.5	6.2	0.00e+00	0	43	104	0	67	19331
2026-01-29 21:24:53.74	201.88	3.26	-47.9	-50.4	6.2	0.00e+00	0	43	104	0	67	19239
2026-01-29 21:24:54.75	201.96	3.32	-47.8	-50.4	6.2	0.00e+00	0	44	104	0	67	19189
2026-01-29 21:24:55.76	202.05	3.39	-47.8	-50.4	6.2	0.00e+00	0	44	104	0	67	19050
2026-01-29 21:24:56.77	202.13	3.46	-47.8	-50.3	6.2	0.00e+00	0	44	104	0	67	18980
2026-01-29 21:24:57.78	202.22	3.53	-47.7	-50.3	6.2	0.00e+00	0	44	104	0	67	18828
2026-01-29 21:24:58.79	202.30	3.59	-47.6	-50.2	6.2	0.00e+00	0	43	104	0	67	18735
2026-01-29 21:24:59.80	202.39	3.66	-47.5	-50.1	6.2	0.00e+00	0	43	104	0	67	18512
2026-01-29 21:25:00.81	202.48	3.73	-47.4	-49.9	6.2	0.00e+00	0	43	104	0	66	19228
2026-01-29 21:25:01.82	202.57	3.80	-47.3	-49.8	6.2	0.00e+00	0	43	104	0	66	19003
2026-01-29 21:25:02.83	202.65	3.86	-47.1	-49.7	6.2	0.00e+00	0	44	104	0	66	18659
2026-01-29 21:25:03.84	202.74	3.93	-46.9	-49.4	6.2	0.00e+00	0	44	104	0	65	19167
2026-01-29 21:25:04.85	202.83	4.00	-46.4	-49.0	6.2	0.00e+00	0	44	104	0	64	19347
2026-01-29 21:25:05.86	202.92	4.07	-46.1	-48.6	6.2	0.00e+00	0	44	104	0	64	18567
2026-01-29 21:25:06.87	203.01	4.14	-46.1	-48.6	6.2	0.00e+00	0	44	104	0	64	18483
2026-01-29 21:25:07.88	203.10	4.21	-46.1	-48.6	6.2	0.00e+00	0	44	104	0	64	18572
2026-01-29 21:25:08.88	203.19	4.28	-46.0	-48.6	6.2	0.00e+00	0	44	104	0	64	18501
2026-01-29 21:25:09.90	203.29	4.35	-46.0	-48.6	6.2	0.00e+00	0	44	104	0	64	18478
2026-01-29 21:25:10.90	203.38	4.42	-46.0	-48.6	6.2	0.00e+00	0	44	104	0	64	18446
2026-01-29 21:25:11.92	203.47	4.49	-46.0	-48.6	6.2	0.00e+00	0	44	104	0	64	18457
2026-01-29 21:25:12.93	203.56	4.56	-46.0	-48.6	6.2	0.00e+00	0	44	104	0	64	18417
2026-01-29 21:25:13.94	203.66	4.63	-46.0	-48.6	6.2	0.00e+00	0	44	104	0	64	18409
2026-01-29 21:25:14.94	203.75	4.70	-46.0	-48.6	6.2	0.00e+00	0	44	104	0	64	18393
2026-01-29 21:25:15.96	203.85	4.77	-46.0	-48.5	6.2	0.00e+00	0	44	104	0	64	18351
2026-01-29 21:25:16.96	203.94	4.84	-40.3	-48.0	6.2	0.00e+00	0	44	104	0	50	38458
2026-01-29 21:25:17.97	204.04	4.91	-40.2	-48.4	6.3	0.00e+00	0	44	104	0	52	36045
2026-01-29 21:25:18.98	204.13	4.98	-42.3	-48.5	6.3	0.00e+00	0	44	104	0	55	30833
2026-01-29 21:25:19.99	204.23	5.05	-43.1	-48.6	6.2	0.00e+00	0	44	104	0	57	27632
2026-01-29 21:25:21.00	204.33	5.12	-43.2	-48.6	6.2	0.00e+00	0	44	104	0	57	27601
2026-01-29 21:25:22.01	204.43	5.20	-45.2	-48.7	6.2	0.00e+00	0	44	104	0	61	22358
2026-01-29 21:25:23.02	204.53	5.27	-45.8	-48.7	6.2	0.00e+00	0	44	104	0	62	21004
2026-01-29 21:25:24.03	204.63	5.34	-46.0	-48.6	6.2	0.00e+00	0	44	104	0	62	20729
2026-01-29 21:25:25.04	204.73	5.41	-45.9	-48.5	6.2	0.00e+00	0	44	104	0	62	20572
2026-01-29 21:25:26.05	204.83	5.48	-46.1	-48.7	6.2	0.00e+00	0	44	104	0	62	21102
2026-01-29 21:25:27.06	204.93	5.56	-45.9	-48.7	6.2	0.00e+00	0	44	104	0	62	20951
2026-01-29 21:25:28.06	205.03	5.63	-45.7	-48.6	6.2	0.00e+00	0	44	104	0	62	20697
2026-01-29 21:25:29.07	205.13	5.70	-45.5	-48.5	6.2	0.00e+00	0	44	104	0	62	20594
2026-01-29 21:25:30.08	205.23	5.78	-46.0	-48.8	6.2	0.00e+00	0	44	104	0	62	21145
2026-01-29 21:25:31.09	205.34	5.85	-46.0	-48.7	6.2	0.00e+00	0	44	104	0	62	21049
2026-01-29 21:25:32.10	205.44	5.92	-45.9	-48.6	6.2	0.00e+00	0	44	104	0	62	20757
2026-01-29 21:25:33.11	205.55	6.00	-45.9	-48.6	6.2	0.00e+00	0	44	104	0	62	20657
2026-01-29 21:25:34.12	205.65	6.07	-46.1	-48.8	6.2	0.00e+00	0	44	104	0	62	21147
2026-01-29 21:25:35.13	205.76	6.15	-46.2	-48.7	6.2	0.00e+00	0	44	104	0	62	21082
2026-01-29 21:25:36.14	205.86	6.22	-46.1	-48.6	6.2	0.00e+00	0	44	104	0	62	20848
2026-01-29 21:25:37.15	205.97	6.29	-46.0	-48.6	6.2	0.00e+00	0	44	104	0	62	20705
2026-01-29 21:25:38.16	206.08	6.37	-46.2	-48.8	6.2	0.00e+00	0	44	104	0	62	21218
2026-01-29 21:25:39.17	206.19	6.44	-46.2	-48.7	6.2	0.00e+00	0	45	104	0	62	21032
2026-01-29 21:25:40.18	206.30	6.52	-46.1	-48.6	6.2	0.00e+00	0	44	104	0	62	20866
2026-01-29 21:25:41.19	206.41	6.60	-46.0	-48.6	6.2	0.00e+00	0	45	104	0	62	20763
2026-01-29 21:25:42.20	206.52	6.67	-46.2	-48.8	6.2	0.00e+00	0	45	104	0	62	21251
2026-01-29 21:25:43.21	206.63	6.75	-46.1	-48.7	6.2	0.00e+00	0	44	104	0	62	21113
2026-01-29 21:25:44.22	206.74	6.82	-46.1	-48.7	6.2	0.00e+00	0	44	104	0	62	20957
2026-01-29 21:25:45.23	206.86	6.90	-46.1	-48.6	6.2	0.00e+00	0	45	104	0	62	20842
2026-01-29 21:25:46.24	206.97	6.98	-46.3	-48.8	6.2	0.00e+00	0	45	104	0	63	20109
2026-01-29 21:25:47.25	207.08	7.05	-46.3	-48.8	6.2	0.00e+00	0	45	104	0	63	20160
2026-01-29 21:25:48.26	207.20	7.13	-46.2	-48.7	6.2	0.00e+00	0	45	104	0	63	19926
2026-01-29 21:25:49.27	207.31	7.21	-46.1	-48.7	6.2	0.00e+00	0	45	104	0	63	19881
2026-01-29 21:25:50.27	207.43	7.28	-46.3	-48.9	6.2	0.00e+00	0	45	104	0	63	20232
2026-01-29 21:25:51.28	207.55	7.36	-46.2	-48.8	6.2	0.00e+00	0	45	104	0	63	20089
2026-01-29 21:25:52.30	207.66	7.44	-46.2	-48.8	6.2	0.00e+00	0	45	104	0	63	20030
2026-01-29 21:25:53.31	207.78	7.52	-46.1	-48.8	6.2	0.00e+00	0	45	104	0	63	19944
2026-01-29 21:25:54.32	207.90	7.60	-46.3	-48.9	6.2	0.00e+00	0	45	104	0	63	20289
2026-01-29 21:25:55.33	208.02	7.68	-46.2	-48.9	6.2	0.00e+00	0	45	104	0	63	20209
2026-01-29 21:25:56.33	208.14	7.75	-46.2	-48.8	6.2	0.00e+00	0	45	104	0	63	20032
2026-01-29 21:25:57.35	208.27	7.83	-46.2	-48.8	6.2	0.00e+00	0	45	104	0	63	19996
2026-01-29 21:25:58.35	208.39	7.91	-46.3	-48.9	6.2	0.00e+00	0	45	104	0	63	20276
2026-01-29 21:25:59.36	208.51	7.99	-46.3	-48.9	6.2	0.00e+00	0	45	104	0	63	20270
2026-01-29 21:26:00.37	208.63	8.07	-46.3	-48.8	6.2	0.00e+00	0	45	104	0	63	20156
2026-01-29 21:26:01.38	208.76	8.15	-46.3	-48.8	6.2	0.00e+00	0	45	104	0	63	20105
2026-01-29 21:26:02.39	208.88	8.23	-46.3	-48.9	6.2	0.00e+00	0	45	104	0	63	20346
2026-01-29 21:26:03.40	209.01	8.31	-46.4	-48.9	6.2	0.00e+00	0	45	104	0	63	20334
2026-01-29 21:26:04.41	209.14	8.39	-46.3	-48.9	6.2	0.00e+00	0	45	104	0	63	20168
2026-01-29 21:26:05.42	209.27	8.48	-46.2	-48.7	6.2	0.00e+00	0	45	104	0	63	19758
2026-01-29 21:26:06.43	209.39	8.56	-40.0	-40.7	6.6	0.00e+00	0	45	104	0	52	14936
2026-01-29 21:26:07.44	209.52	8.64	-41.3	-42.2	6.5	0.00e+00	0	45	104	0	54	15803
2026-01-29 21:26:08.45	209.66	8.72	-41.1	-42.1	6.5	0.00e+00	0	45	104	0	53	16504
2026-01-29 21:26:09.46	209.79	8.80	-39.8	-40.7	6.6	0.00e+00	0	45	104	0	51	15669
2026-01-29 21:26:10.47	209.92	8.88	-39.5	-40.3	6.6	0.00e+00	0	45	104	0	50	15947
2026-01-29 21:26:11.48	210.05	8.97	-39.1	-39.9	6.6	0.00e+00	0	45	104	0	50	15291
2026-01-29 21:26:12.49	210.19	9.05	-38.8	-39.4	6.7	0.00e+00	0	45	104	0	49	15221
2026-01-29 21:26:13.50	210.32	9.13	-43.4	-44.7	6.4	0.00e+00	0	45	104	0	57	17646
2026-01-29 21:26:14.51	210.46	9.21	-46.2	-48.6	6.2	0.00e+00	0	45	104	0	63	19666
2026-01-29 21:26:15.52	210.59	9.30	-40.7	-41.5	6.7	0.00e+00	0	45	104	0	53	15339
2026-01-29 21:26:16.53	210.73	9.38	-40.9	-41.8	6.5	0.00e+00	0	45	104	0	53	15941
2026-01-29 21:26:17.54	210.87	9.46	-39.7	-40.4	6.6	0.00e+00	0	45	104	0	51	15247
2026-01-29 21:26:18.55	211.01	9.55	-39.0	-39.6	7.1	0.00e+00	0	45	104	0	49	15537
2026-01-29 21:26:19.56	211.15	9.63	-38.3	-38.7	7.0	0.00e+00	0	45	104	0	48	14906
2026-01-29 21:26:20.56	211.29	9.72	-37.6	-38.2	7.2	0.00e+00	0	45	104	0	46	15715
2026-01-29 21:26:21.57	211.43	9.80	-36.8	-37.1	9.5	8.39e-05	0	45	104	0	43	16569
2026-01-29 21:26:22.58	211.58	9.89	-42.2	-43.1	7.0	0.00e+00	0	45	104	0	56	15623
2026-01-29 21:26:23.60	211.72	9.97	-39.7	-40.2	8.1	0.00e+00	0	45	104	0	51	14902
2026-01-29 21:26:24.60	211.87	10.06	-42.0	-42.8	7.2	0.00e+00	0	45	104	0	56	15054
2026-01-29 21:26:25.61	212.01	10.14	-39.2	-39.7	8.7	0.00e+00	0	45	104	0	50	14866
2026-01-29 21:26:26.62	212.16	10.23	-34.3	-34.4	11.8	4.07e-03	0	45	0	67108864	40	14423
2026-01-29 21:26:27.63	212.31	10.32	-29.0	-29.1	14.4	2.80e-04	0	45	0	184549376	30	13872
2026-01-29 21:26:28.64	212.46	10.40	-26.4	-26.5	16.4	1.33e-05	0	45	0	293601280	24	14492
2026-01-29 21:26:29.65	212.61	10.49	-24.3	-24.3	17.7	0.00e+00	0	45	0	402653184	20	14256
2026-01-29 21:26:30.66	212.76	10.58	-22.8	-22.9	18.4	0.00e+00	0	45	0	520093696	17	14383
2026-01-29 21:26:31.67	212.91	10.66	-21.5	-21.6	18.8	0.00e+00	0	45	0	637534208	15	13872
2026-01-29 21:26:32.68	213.07	10.75	-20.7	-20.8	18.8	0.00e+00	0	45	0	746586112	13	14178
2026-01-29 21:26:33.69	213.22	10.84	-20.3	-20.3	18.8	0.00e+00	0	45	0	864026624	12	14231
2026-01-29 21:26:34.70	213.38	10.93	-20.2	-20.3	18.7	0.00e+00	0	46	0	973078528	12	14132
2026-01-29 21:26:35.70	213.53	11.01	-20.1	-20.2	18.8	0.00e+00	0	45	0	1082130432	11	14800
2026-01-29 21:26:36.72	213.69	11.10	-20.2	-20.3	18.8	0.00e+00	0	45	0	1199570944	11	14972
2026-01-29 21:26:37.73	213.85	11.19	-20.2	-20.2	18.8	0.00e+00	0	45	0	1317011456	11	14889
2026-01-29 21:26:38.74	214.01	11.28	-20.3	-20.3	18.7	0.00e+00	0	45	0	1426063360	11	15092
2026-01-29 21:26:39.75	214.17	11.37	-20.0	-20.1	18.9	0.00e+00	0	45	0	1543503872	11	14654
2026-01-29 21:26:40.76	214.33	11.46	-20.0	-20.1	18.9	0.00e+00	0	45	0	1652555776	11	14647
2026-01-29 21:26:41.77	214.50	11.55	-20.0	-20.0	18.9	0.00e+00	0	46	0	1769996288	11	14597
2026-01-29 21:26:42.78	214.66	11.64	-20.0	-20.0	18.9	0.00e+00	0	45	0	1887436800	11	14598
2026-01-29 21:26:43.79	214.83	11.73	-20.0	-20.1	18.9	0.00e+00	0	45	0	1996488704	11	14718
2026-01-29 21:26:44.79	214.99	11.82	-19.9	-20.0	19.0	0.00e+00	0	46	0	2113929216	11	14532
2026-01-29 21:26:45.80	215.16	11.91	-19.9	-20.0	19.0	0.00e+00	0	46	0	2222981120	11	14470
2026-01-29 21:26:46.82	215.33	12.00	-19.8	-19.9	18.8	0.00e+00	0	46	0	2332033024	11	14285
2026-01-29 21:26:47.82	215.50	12.09	-19.8	-19.8	19.0	0.00e+00	0	46	0	2449473536	11	14225
2026-01-29 21:26:48.83	215.67	12.18	-19.7	-19.7	19.0	0.00e+00	0	46	0	2566914048	11	14067
2026-01-29 21:26:49.84	215.85	12.27	-19.7	-19.8	19.0	0.00e+00	0	45	0	2675965952	11	14153
2026-01-29 21:26:50.85	216.02	12.36	-19.6	-19.7	19.1	0.00e+00	0	45	0	2793406464	11	14027
2026-01-29 21:26:51.86	216.20	12.46	-19.6	-19.7	19.2	0.00e+00	0	46	0	2902458368	11	13970
2026-01-29 21:26:52.87	216.37	12.55	-19.5	-19.6	19.1	0.00e+00	0	46	0	3019898880	11	13855
2026-01-29 21:26:53.89	216.55	12.64	-19.6	-19.7	19.1	0.00e+00	0	45	0	3137339392	11	13986
2026-01-29 21:26:54.89	216.73	12.73	-19.7	-19.8	19.1	0.00e+00	0	46	0	3246391296	11	14145
2026-01-29 21:26:55.90	216.91	12.83	-19.6	-19.7	19.2	0.00e+00	0	46	0	3355443200	11	13957
2026-01-29 21:26:56.91	217.09	12.92	-19.4	-19.5	19.1	0.00e+00	0	45	0	3472883712	10	14502
2026-01-29 21:26:57.92	217.28	13.01	-19.4	-19.5	19.2	0.00e+00	0	46	0	3590324224	10	14476
2026-01-29 21:26:58.93	217.46	13.11	-19.4	-19.5	19.2	0.00e+00	0	46	0	3699376128	10	14441
2026-01-29 21:26:59.94	217.65	13.20	-19.4	-19.5	19.4	0.00e+00	0	46	0	3816816640	10	14551
2026-01-29 21:27:00.95	217.83	13.29	-19.4	-19.4	19.3	0.00e+00	0	46	0	3925868544	10	14392
2026-01-29 21:27:01.96	218.02	13.39	-19.3	-19.4	19.2	0.00e+00	0	46	0	4043309056	10	14278
2026-01-29 21:27:02.97	218.21	13.48	-19.4	-19.4	19.3	0.00e+00	0	46	0	4160749568	10	14437
2026-01-29 21:27:03.98	218.40	13.58	-19.4	-19.5	19.3	0.00e+00	0	46	0	4269801472	10	14565
2026-01-29 21:27:04.99	218.60	13.67	-19.3	-19.3	19.3	0.00e+00	0	46	0	4378853376	10	14257
2026-01-29 21:27:06.00	218.79	13.77	-19.4	-19.4	19.2	0.00e+00	0	46	0	4496293888	10	14386
2026-01-29 21:27:07.01	218.99	13.86	-19.2	-19.3	19.2	0.00e+00	0	46	0	4605345792	10	14181
2026-01-29 21:27:08.02	219.18	13.96	-19.1	-19.2	19.3	0.00e+00	0	46	0	4722786304	10	14059
2026-01-29 21:27:09.02	219.38	14.05	-18.9	-19.0	19.2	0.00e+00	0	46	0	4840226816	9	14554
2026-01-29 21:27:10.03	219.58	14.15	-18.9	-19.0	19.3	0.00e+00	0	46	0	4949278720	9	14524
2026-01-29 21:27:11.04	219.78	14.24	-18.9	-19.0	19.3	0.00e+00	0	46	0	5066719232	9	14531
2026-01-29 21:27:12.05	219.99	14.34	-18.9	-18.9	19.3	0.00e+00	0	46	0	5175771136	9	14394
2026-01-29 21:27:13.06	220.19	14.44	-18.9	-19.0	19.3	0.00e+00	0	46	0	5284823040	9	14505
2026-01-29 21:27:14.07	220.40	14.53	-18.9	-18.9	19.3	0.00e+00	0	46	0	5402263552	9	14430
2026-01-29 21:27:15.08	220.61	14.63	-18.8	-18.8	19.3	0.00e+00	0	46	0	5519704064	9	14228
2026-01-29 21:27:16.09	220.81	14.73	-18.8	-18.9	19.4	0.00e+00	0	46	0	5628755968	9	14283
2026-01-29 21:27:17.10	221.03	14.82	-18.8	-18.8	19.4	0.00e+00	0	46	0	5746196480	9	14226
2026-01-29 21:27:18.11	221.24	14.92	-18.7	-18.7	19.4	0.00e+00	0	46	0	5855248384	9	14109
2026-01-29 21:27:19.12	221.45	15.02	-18.7	-18.8	19.4	0.00e+00	0	46	0	5972688896	9	14186
2026-01-29 21:27:20.13	221.67	15.12	-18.6	-18.6	19.4	0.00e+00	0	46	0	6090129408	9	13948
2026-01-29 21:27:21.14	221.88	15.22	-18.7	-18.7	19.4	0.00e+00	0	46	0	6199181312	9	14092
2026-01-29 21:27:22.15	222.10	15.31	-18.5	-18.6	19.3	0.00e+00	0	46	0	6308233216	9	13802
2026-01-29 21:27:23.16	222.32	15.41	-18.4	-18.5	19.3	0.00e+00	0	46	0	6425673728	8	14487
2026-01-29 21:27:24.17	222.55	15.51	-18.5	-18.5	19.3	0.00e+00	0	46	0	6543114240	8	14559
2026-01-29 21:27:25.18	222.77	15.61	-18.4	-18.4	19.3	0.00e+00	0	46	0	6652166144	8	14383
2026-01-29 21:27:26.19	222.99	15.71	-18.2	-18.3	19.4	0.00e+00	0	46	0	6769606656	8	14133
2026-01-29 21:27:27.20	223.22	15.80	-18.2	-18.3	19.4	0.00e+00	0	46	0	6878658560	8	14163
2026-01-29 21:27:28.21	223.45	15.90	-18.3	-18.3	19.3	0.00e+00	0	46	0	6996099072	8	14240
2026-01-29 21:27:29.22	223.68	16.00	-18.2	-18.3	19.3	0.00e+00	0	46	0	7105150976	8	14196
2026-01-29 21:27:30.23	223.91	16.10	-18.2	-18.3	19.1	0.00e+00	0	46	0	7222591488	8	14211
2026-01-29 21:27:31.24	224.15	16.20	-18.1	-18.2	19.2	0.00e+00	0	46	0	7331643392	8	14034
2026-01-29 21:27:32.25	224.38	16.30	-18.1	-18.2	19.2	0.00e+00	0	46	0	7449083904	8	13999
2026-01-29 21:27:33.26	224.62	16.40	-18.0	-18.1	19.2	0.00e+00	0	46	0	7558135808	8	13806
2026-01-29 21:27:34.27	224.86	16.50	-18.0	-18.1	19.2	0.00e+00	0	46	0	7675576320	7	14655
2026-01-29 21:27:35.28	225.10	16.60	-18.0	-18.1	19.2	0.00e+00	0	46	0	7793016832	7	14608
2026-01-29 21:27:36.29	225.34	16.70	-17.9	-17.9	19.2	0.00e+00	0	46	0	7902068736	7	14433
2026-01-29 21:27:37.30	225.59	16.80	-17.8	-17.8	19.1	0.00e+00	0	46	0	8019509248	7	14247
2026-01-29 21:27:38.31	225.84	16.90	-17.7	-17.8	19.1	0.00e+00	0	46	0	8128561152	7	14215
2026-01-29 21:27:39.32	226.08	17.00	-17.8	-17.8	19.2	0.00e+00	0	46	0	8237613056	7	14274
2026-01-29 21:27:40.32	226.33	17.10	-17.7	-17.8	19.2	0.00e+00	0	46	0	8363442176	7	14167
2026-01-29 21:27:41.33	226.58	17.20	-17.7	-17.8	19.2	0.00e+00	0	46	0	8472494080	7	14141
2026-01-29 21:27:42.34	226.84	17.30	-17.7	-17.8	19.2	0.00e+00	0	46	0	8581545984	7	14199
2026-01-29 21:27:43.35	227.09	17.39	-17.7	-17.7	19.2	0.00e+00	0	46	0	8698986496	7	14104
2026-01-29 21:27:44.36	227.35	17.49	-17.6	-17.7	19.1	0.00e+00	0	46	0	8808038400	7	13968
2026-01-29 21:27:45.37	227.61	17.59	-17.5	-17.6	19.1	0.00e+00	0	46	0	8925478912	7	13802
2026-01-29 21:27:46.38	227.87	17.69	-17.6	-17.7	19.1	0.00e+00	0	46	0	9042919424	7	13966
2026-01-29 21:27:47.39	228.14	17.79	-17.6	-17.6	19.0	0.00e+00	0	46	0	9151971328	7	13887
2026-01-29 21:27:48.40	228.40	17.89	-17.5	-17.6	19.1	0.00e+00	0	46	0	9261023232	7	13795
2026-01-29 21:27:49.41	228.67	17.99	-17.4	-17.4	19.0	0.00e+00	0	46	0	9378463744	6	14413
2026-01-29 21:27:50.42	228.94	18.09	-17.2	-17.3	19.2	0.00e+00	0	46	0	9487515648	6	14179
2026-01-29 21:27:51.43	229.21	18.19	-17.3	-17.4	19.0	0.00e+00	0	46	0	9604956160	6	14333
2026-01-29 21:27:52.44	229.48	18.29	-17.3	-17.3	19.0	0.00e+00	0	46	0	9722396672	6	14237
2026-01-29 21:27:53.45	229.76	18.39	-17.2	-17.3	19.0	0.00e+00	0	46	0	9831448576	6	14182
2026-01-29 21:27:54.46	230.04	18.49	-17.2	-17.3	19.0	0.00e+00	0	46	0	9948889088	6	14181
2026-01-29 21:27:55.47	230.32	18.59	-17.3	-17.4	18.9	0.00e+00	0	46	0	10057940992	6	14354
2026-01-29 21:27:56.48	230.60	18.69	-17.2	-17.3	19.1	0.00e+00	0	46	0	10175381504	6	14205
2026-01-29 21:27:57.49	230.88	18.79	-17.1	-17.2	19.1	0.00e+00	0	46	0	10292822016	6	14014
2026-01-29 21:27:58.50	231.17	18.89	-17.2	-17.3	18.9	0.00e+00	0	46	0	10401873920	6	14143
2026-01-29 21:27:59.51	231.45	18.99	-17.3	-17.3	18.9	0.00e+00	0	46	0	10510925824	6	14233
2026-01-29 21:28:00.52	231.74	19.09	-17.1	-17.2	18.8	0.00e+00	0	46	0	10628366336	6	14036
2026-01-29 21:28:01.53	232.04	19.18	-17.2	-17.2	18.7	0.00e+00	0	46	0	10745806848	6	14084
2026-01-29 21:28:02.54	232.33	19.28	-17.1	-17.2	18.6	0.00e+00	0	46	0	10854858752	6	14006
2026-01-29 21:28:03.55	232.63	19.38	-17.0	-17.1	18.8	0.00e+00	0	46	0	10972299264	6	13877
2026-01-29 21:28:04.56	232.92	19.48	-17.1	-17.1	18.6	0.00e+00	0	46	0	11081351168	6	13886
2026-01-29 21:28:05.57	233.22	19.58	-17.1	-17.1	18.7	0.00e+00	0	46	0	11198791680	6	13911
2026-01-29 21:28:06.58	233.53	19.67	-16.9	-17.0	18.5	0.00e+00	0	46	0	11316232192	5	14502
2026-01-29 21:28:07.59	233.83	19.77	-16.9	-16.9	18.6	0.00e+00	0	46	0	11425284096	5	14407
2026-01-29 21:28:08.60	234.14	19.87	-17.0	-17.0	18.4	0.00e+00	0	46	0	11534336000	5	14542
2026-01-29 21:28:09.60	234.44	19.96	-16.8	-16.9	18.6	0.00e+00	0	46	0	11651776512	5	14375
2026-01-29 21:28:10.61	234.75	20.06	-16.9	-17.0	18.3	0.00e+00	0	46	0	11760828416	5	14474
2026-01-29 21:28:11.63	235.07	20.16	-16.9	-17.0	18.3	0.00e+00	0	46	0	11878268928	5	14477
2026-01-29 21:28:12.63	235.38	20.25	-16.8	-16.9	18.6	0.00e+00	0	46	0	11995709440	5	14280
2026-01-29 21:28:13.64	235.70	20.35	-16.8	-16.9	18.7	0.00e+00	0	46	0	12104761344	5	14339
2026-01-29 21:28:14.65	236.02	20.44	-16.8	-16.9	18.2	0.00e+00	0	46	0	12222201856	5	14356
2026-01-29 21:28:15.66	236.34	20.54	-16.7	-16.7	18.2	0.00e+00	0	46	0	12331253760	5	14064
2026-01-29 21:28:16.67	236.67	20.63	-16.6	-16.7	18.2	0.00e+00	0	46	0	12448694272	5	13989
2026-01-29 21:28:17.68	236.99	20.73	-16.6	-16.7	18.2	0.00e+00	0	46	0	12557746176	5	13959
2026-01-29 21:28:18.69	237.32	20.82	-16.6	-16.7	18.2	0.00e+00	0	46	0	12675186688	5	13951
2026-01-29 21:28:19.70	237.65	20.91	-16.4	-16.4	18.2	0.00e+00	0	46	0	12784238592	4	14383
2026-01-29 21:28:20.71	237.98	21.00	-16.4	-16.5	18.3	0.00e+00	0	46	0	12901679104	4	14444
2026-01-29 21:28:21.72	238.32	21.10	-16.5	-16.5	18.2	0.00e+00	0	46	0	13010731008	4	14547
2026-01-29 21:28:22.73	238.66	21.19	-16.3	-16.4	17.9	0.00e+00	0	46	0	13128171520	4	14300
2026-01-29 21:28:23.74	239.00	21.28	-16.2	-16.3	17.8	0.00e+00	0	46	0	13245612032	4	14148
2026-01-29 21:28:24.75	239.34	21.37	-16.3	-16.3	17.9	0.00e+00	0	46	0	13354663936	4	14220
2026-01-29 21:28:25.75	239.68	21.46	-16.4	-16.5	17.9	0.00e+00	0	46	0	13463715840	4	14475
2026-01-29 21:28:26.76	240.02	21.55	-16.2	-16.3	18.0	0.00e+00	0	46	0	13581156352	4	14184
2026-01-29 21:28:27.77	240.37	21.64	-16.2	-16.2	17.9	0.00e+00	0	46	0	13698596864	4	14095
2026-01-29 21:28:28.78	240.72	21.72	-16.1	-16.2	17.8	0.00e+00	0	46	0	13807648768	4	13965
2026-01-29 21:28:29.79	241.08	21.81	-16.0	-16.1	17.5	0.00e+00	0	46	0	13925089280	4	13846
2026-01-29 21:28:30.79	241.43	21.90	-16.0	-16.1	17.6	0.00e+00	0	47	0	14034141184	4	13794
2026-01-29 21:28:31.80	241.78	21.98	-16.3	-16.3	17.4	0.00e+00	0	46	0	14151581696	3	15114
2026-01-29 21:28:32.82	242.15	22.07	-16.3	-16.4	17.2	0.00e+00	0	46	0	14260633600	3	15168
2026-01-29 21:28:33.83	242.51	22.16	-16.2	-16.3	17.2	0.00e+00	0	46	0	14378074112	3	14980
2026-01-29 21:28:34.83	242.87	22.24	-16.2	-16.2	17.2	0.00e+00	0	46	0	14487126016	3	14899
2026-01-29 21:28:35.84	243.23	22.32	-16.2	-16.2	17.0	0.00e+00	0	46	0	14604566528	3	14944
2026-01-29 21:28:36.85	243.60	22.41	-16.1	-16.2	17.2	0.00e+00	0	46	0	14713618432	3	14811
2026-01-29 21:28:37.86	243.97	22.49	-16.2	-16.3	16.9	0.00e+00	0	46	0	14831058944	3	14966
2026-01-29 21:28:38.87	244.34	22.57	-16.1	-16.1	17.1	0.00e+00	0	46	0	14948499456	3	14771
2026-01-29 21:28:39.88	244.72	22.65	-16.1	-16.2	17.4	0.00e+00	0	46	0	15057551360	3	14872
2026-01-29 21:28:40.89	245.09	22.73	-15.9	-16.0	17.0	0.00e+00	0	46	0	15174991872	3	14520
2026-01-29 21:28:41.90	245.47	22.81	-16.0	-16.0	16.7	0.00e+00	0	46	0	15284043776	3	14561
2026-01-29 21:28:42.91	245.85	22.88	-15.9	-16.0	16.9	0.00e+00	0	46	0	15393095680	3	14511
2026-01-29 21:28:43.91	246.23	22.96	-15.9	-16.0	16.9	0.00e+00	0	46	0	15510536192	3	14516
2026-01-29 21:28:44.92	246.61	23.04	-15.9	-16.0	16.8	0.00e+00	0	46	0	15627976704	3	14471
2026-01-29 21:28:45.93	247.00	23.11	-15.8	-15.9	16.9	0.00e+00	0	46	0	15737028608	3	14346
2026-01-29 21:28:46.94	247.39	23.18	-15.9	-15.9	16.8	0.00e+00	0	46	0	15854469120	3	14408
2026-01-29 21:28:47.95	247.78	23.26	-15.8	-15.9	16.7	0.00e+00	0	47	0	15963521024	3	14292
2026-01-29 21:28:48.96	248.17	23.33	-15.9	-16.0	16.8	0.00e+00	0	46	0	16080961536	3	14513
2026-01-29 21:28:49.97	248.57	23.40	-15.9	-15.9	16.9	0.00e+00	0	46	0	16198402048	3	14389
2026-01-29 21:28:50.98	248.96	23.47	-15.7	-15.8	16.7	0.00e+00	0	46	0	16307453952	3	14116
2026-01-29 21:28:51.99	249.36	23.54	-15.7	-15.8	16.7	0.00e+00	0	46	0	16416505856	3	14155
2026-01-29 21:28:53.00	249.76	23.60	-15.7	-15.7	16.9	0.00e+00	0	46	0	16533946368	3	14084
2026-01-29 21:28:54.01	250.16	23.67	-15.7	-15.7	16.5	0.00e+00	0	46	0	16642998272	3	14103
2026-01-29 21:28:55.02	250.57	23.74	-15.7	-15.8	16.5	0.00e+00	0	46	0	16760438784	3	14149
2026-01-29 21:28:56.03	250.97	23.80	-15.8	-15.8	16.8	0.00e+00	0	46	0	16877879296	3	14216
2026-01-29 21:28:57.04	251.38	23.86	-15.7	-15.8	16.8	0.00e+00	0	46	0	16986931200	3	14219
2026-01-29 21:28:58.05	251.79	23.92	-15.9	-16.0	16.4	0.00e+00	0	46	0	17104371712	3	14443
2026-01-29 21:28:59.06	252.20	23.99	-15.8	-15.8	16.7	0.00e+00	0	46	0	17213423616	3	14216
2026-01-29 21:29:00.07	252.61	24.04	-15.7	-15.7	17.1	0.00e+00	0	46	0	17322475520	3	14111
2026-01-29 21:29:01.08	253.03	24.10	-15.8	-15.9	16.7	0.00e+00	0	47	0	17439916032	3	14332
2026-01-29 21:29:02.08	253.44	24.16	-15.8	-15.8	17.0	0.00e+00	0	46	0	17557356544	3	14269
2026-01-29 21:29:03.10	253.86	24.21	-15.6	-15.7	16.7	0.00e+00	0	46	0	17666408448	3	14027
2026-01-29 21:29:04.11	254.28	24.27	-15.7	-15.7	17.3	0.00e+00	0	46	0	17783848960	3	14111
2026-01-29 21:29:05.12	254.70	24.32	-15.7	-15.7	17.2	0.00e+00	0	46	0	17901289472	3	14109
2026-01-29 21:29:06.13	255.12	24.37	-15.6	-15.7	16.9	0.00e+00	0	47	0	18010341376	3	13971
2026-01-29 21:29:07.14	255.54	24.42	-15.6	-15.7	17.5	0.00e+00	0	46	0	18127781888	3	13970
2026-01-29 21:29:08.15	255.97	24.47	-15.6	-15.7	17.1	0.00e+00	0	46	0	18236833792	3	13983
2026-01-29 21:29:09.16	256.39	24.52	-15.6	-15.7	17.2	0.00e+00	0	46	0	18345885696	3	14024
2026-01-29 21:29:10.17	256.82	24.56	-15.7	-15.7	17.1	0.00e+00	0	46	0	18463326208	3	14056
2026-01-29 21:29:11.18	257.25	24.61	-15.7	-15.8	17.3	0.00e+00	0	46	0	18580766720	3	14125
2026-01-29 21:29:12.19	257.68	24.65	-15.6	-15.7	17.3	0.00e+00	0	47	0	18689818624	3	14013
2026-01-29 21:29:13.20	258.11	24.69	-15.6	-15.7	17.2	0.00e+00	0	47	0	18807259136	3	13989
2026-01-29 21:29:14.21	258.55	24.73	-15.6	-15.7	16.9	0.00e+00	0	46	0	18916311040	3	13986
2026-01-29 21:29:15.22	258.98	24.77	-15.7	-15.8	17.2	0.00e+00	0	46	0	19033751552	3	14124
2026-01-29 21:29:16.23	259.41	24.81	-15.6	-15.7	17.3	0.00e+00	0	47	0	19151192064	3	14039
2026-01-29 21:29:17.24	259.85	24.84	-15.6	-15.7	17.5	0.00e+00	0	46	0	19260243968	3	13994
2026-01-29 21:29:18.25	260.29	24.88	-15.6	-15.6	17.4	0.00e+00	0	46	0	19369295872	3	13864
2026-01-29 21:29:19.26	260.73	24.91	-15.6	-15.7	17.5	0.00e+00	0	46	0	19486736384	3	13983
2026-01-29 21:29:20.27	261.16	24.94	-15.7	-15.8	17.8	0.00e+00	0	46	0	19604176896	3	14164
2026-01-29 21:29:21.27	261.60	24.97	-15.8	-15.9	17.8	0.00e+00	0	47	0	19713228800	3	14327
2026-01-29 21:29:22.29	262.05	24.99	-15.7	-15.7	17.4	0.00e+00	0	46	0	19830669312	3	14082
2026-01-29 21:29:23.30	262.49	25.02	-15.5	-15.5	17.5	0.00e+00	0	46	0	19939721216	2	14579
2026-01-29 21:29:24.31	262.93	25.04	-15.5	-15.5	17.8	0.00e+00	0	46	0	20048773120	2	14553
2026-01-29 21:29:25.32	263.37	25.07	-15.5	-15.6	17.9	0.00e+00	0	46	0	20166213632	2	14644
2026-01-29 21:29:26.33	263.82	25.09	-15.4	-15.5	17.9	0.00e+00	0	46	0	20283654144	2	14536
2026-01-29 21:29:27.34	264.26	25.11	-15.5	-15.5	18.1	0.00e+00	0	47	0	20392706048	2	14586
2026-01-29 21:29:28.35	264.70	25.12	-15.5	-15.6	18.0	0.00e+00	0	46	0	20510146560	2	14612
2026-01-29 21:29:29.36	265.15	25.14	-15.6	-15.6	18.4	0.00e+00	0	46	0	20619198464	2	14723
2026-01-29 21:29:30.36	265.59	25.15	-15.6	-15.7	18.4	0.00e+00	0	47	0	20736638976	2	14869
2026-01-29 21:29:31.37	266.04	25.17	-15.8	-15.8	18.5	0.00e+00	0	46	0	20854079488	2	15088
2026-01-29 21:29:32.38	266.48	25.18	-15.8	-15.8	18.7	0.00e+00	0	46	0	20963131392	2	15084
2026-01-29 21:29:33.39	266.93	25.19	-15.8	-15.9	18.4	0.00e+00	0	46	0	21080571904	2	15163
2026-01-29 21:29:34.40	267.38	25.19	-15.8	-15.8	18.6	0.00e+00	0	47	0	21189623808	2	15068
2026-01-29 21:29:35.41	267.82	25.20	-15.9	-16.0	18.8	0.00e+00	0	46	0	21298675712	2	15336
2026-01-29 21:29:36.42	268.27	25.20	-15.8	-15.8	18.9	0.00e+00	0	46	0	21424504832	2	15102
2026-01-29 21:29:37.43	268.72	25.21	-15.8	-15.8	19.2	0.00e+00	0	46	0	21533556736	2	15083
2026-01-29 21:29:38.44	269.17	25.21	-15.7	-15.8	19.2	0.00e+00	0	47	0	21642608640	2	15050
2026-01-29 21:29:39.45	269.61	25.21	-15.8	-15.9	19.1	0.00e+00	0	47	0	21760049152	2	15149
2026-01-29 21:29:40.46	270.06	25.20	-15.8	-15.8	19.3	0.00e+00	0	47	0	21869101056	2	15055
2026-01-29 21:29:41.47	270.51	25.20	-15.8	-15.8	19.5	0.00e+00	0	47	0	21986541568	2	15113
2026-01-29 21:29:42.48	270.95	25.19	-15.8	-15.8	19.5	0.00e+00	0	46	0	22103982080	2	15099
2026-01-29 21:29:43.49	271.40	25.18	-15.8	-15.9	19.6	0.00e+00	0	47	0	22213033984	2	15180
2026-01-29 21:29:44.50	271.85	25.17	-15.8	-15.9	19.6	0.00e+00	0	47	0	22322085888	2	15171
2026-01-29 21:29:45.51	272.29	25.16	-15.8	-15.9	19.7	0.00e+00	0	46	0	22439526400	2	15137
2026-01-29 21:29:46.52	272.74	25.15	-15.9	-15.9	19.7	0.00e+00	0	46	0	22556966912	2	15232
2026-01-29 21:29:47.53	273.18	25.14	-15.9	-15.9	19.6	0.00e+00	0	46	0	22666018816	2	15283
2026-01-29 21:29:48.54	273.63	25.12	-15.9	-16.0	19.6	0.00e+00	0	46	0	22783459328	2	15360
2026-01-29 21:29:49.55	274.07	25.10	-15.9	-16.0	19.9	0.00e+00	0	47	0	22892511232	2	15408
2026-01-29 21:29:50.56	274.52	25.08	-15.9	-16.0	19.9	0.00e+00	0	46	0	23009951744	2	15312
2026-01-29 21:29:51.56	274.96	25.06	-16.0	-16.1	19.6	0.00e+00	0	46	0	23119003648	2	15488
2026-01-29 21:29:52.57	275.40	25.04	-16.0	-16.1	19.9	0.00e+00	0	46	0	23236444160	2	15528
2026-01-29 21:29:53.58	275.84	25.02	-15.9	-15.9	19.7	0.00e+00	0	46	0	23353884672	2	15292
2026-01-29 21:29:54.59	276.28	24.99	-15.9	-16.0	19.7	0.00e+00	0	47	0	23462936576	2	15407
2026-01-29 21:29:55.60	276.72	24.96	-15.9	-16.0	19.6	0.00e+00	0	46	0	23571988480	2	15361
2026-01-29 21:29:56.61	277.16	24.93	-16.0	-16.0	19.7	0.00e+00	0	46	0	23689428992	2	15442
2026-01-29 21:29:57.62	277.60	24.90	-15.9	-16.0	19.6	0.00e+00	0	46	0	23806869504	2	15389
2026-01-29 21:29:58.63	278.04	24.87	-16.0	-16.0	19.5	0.00e+00	0	46	0	23915921408	2	15463
2026-01-29 21:29:59.64	278.47	24.84	-16.0	-16.0	19.7	0.00e+00	0	47	0	24033361920	2	15436
2026-01-29 21:30:00.65	278.91	24.80	-16.1	-16.1	19.4	0.00e+00	0	46	0	24142413824	2	15633
2026-01-29 21:30:01.66	279.34	24.76	-16.0	-16.1	19.5	0.00e+00	0	46	0	24251465728	2	15560
2026-01-29 21:30:02.67	279.78	24.72	-16.1	-16.2	19.7	0.00e+00	0	47	0	24377294848	2	15679
2026-01-29 21:30:03.68	280.21	24.68	-16.1	-16.2	19.8	0.00e+00	0	47	0	24486346752	2	15709
2026-01-29 21:30:04.69	280.64	24.64	-16.2	-16.2	19.7	0.00e+00	0	47	0	24595398656	2	15813
2026-01-29 21:30:05.70	281.07	24.60	-16.1	-16.2	19.6	0.00e+00	0	46	0	24712839168	2	15770
2026-01-29 21:30:06.71	281.50	24.56	-16.2	-16.2	19.6	0.00e+00	0	47	0	24821891072	2	15818
2026-01-29 21:30:07.72	281.92	24.51	-16.3	-16.4	19.7	0.00e+00	0	46	0	24939331584	3	15175
2026-01-29 21:30:08.73	282.35	24.46	-16.3	-16.4	19.6	0.00e+00	0	47	0	25056772096	3	15123
2026-01-29 21:30:09.74	282.77	24.41	-16.3	-16.4	19.6	0.00e+00	0	46	0	25165824000	3	15186
2026-01-29 21:30:10.75	283.19	24.36	-16.4	-16.5	19.5	0.00e+00	0	46	0	25283264512	3	15314
2026-01-29 21:30:11.76	283.61	24.31	-16.3	-16.4	19.6	0.00e+00	0	46	0	25392316416	3	15223
2026-01-29 21:30:12.77	284.03	24.26	-16.4	-16.5	19.5	0.00e+00	0	46	0	25509756928	3	15391
2026-01-29 21:30:13.78	284.45	24.21	-16.4	-16.5	19.7	0.00e+00	0	47	0	25618808832	3	15302
2026-01-29 21:30:14.80	284.87	24.15	-16.4	-16.5	19.7	0.00e+00	0	46	0	25736249344	3	15348
2026-01-29 21:30:15.81	285.29	24.09	-16.4	-16.4	19.6	0.00e+00	0	47	0	25845301248	3	15288
2026-01-29 21:30:16.82	285.70	24.04	-16.5	-16.6	19.3	0.00e+00	0	46	0	25962741760	3	15543
2026-01-29 21:30:17.83	286.11	23.98	-16.4	-16.5	19.5	0.00e+00	0	47	0	26080182272	3	15379
2026-01-29 21:30:18.84	286.52	23.92	-16.4	-16.5	19.6	0.00e+00	0	46	0	26189234176	3	15356
2026-01-29 21:30:19.84	286.92	23.86	-16.5	-16.6	19.6	0.00e+00	0	46	0	26306674688	3	15516
2026-01-29 21:30:20.86	287.34	23.79	-16.6	-16.6	19.5	0.00e+00	0	47	0	26415726592	3	15638
2026-01-29 21:30:21.87	287.74	23.73	-16.5	-16.5	19.8	0.00e+00	0	46	0	26524778496	3	15393
2026-01-29 21:30:22.88	288.14	23.66	-16.6	-16.7	19.8	0.00e+00	0	46	0	26642219008	3	15739
2026-01-29 21:30:23.89	288.54	23.60	-16.5	-16.6	19.8	0.00e+00	0	47	0	26759659520	3	15597
2026-01-29 21:30:24.90	288.94	23.53	-16.6	-16.7	19.9	0.00e+00	0	46	0	26868711424	3	15734
2026-01-29 21:30:25.91	289.34	23.46	-16.4	-16.4	19.9	0.00e+00	0	46	0	26986151936	4	14399
2026-01-29 21:30:26.92	289.73	23.39	-16.4	-16.5	20.1	0.00e+00	0	46	0	27095203840	4	14459
2026-01-29 21:30:27.93	290.13	23.32	-16.6	-16.6	20.0	0.00e+00	0	46	0	27212644352	4	14775
2026-01-29 21:30:28.93	290.51	23.25	-16.5	-16.6	19.9	0.00e+00	0	47	0	27330084864	4	14610
2026-01-29 21:30:29.94	290.90	23.18	-16.5	-16.5	20.0	0.00e+00	0	46	0	27439136768	4	14602
2026-01-29 21:30:30.95	291.29	23.10	-16.5	-16.5	20.1	0.00e+00	0	47	0	27548188672	4	14590
2026-01-29 21:30:31.96	291.67	23.03	-16.6	-16.6	20.0	0.00e+00	0	46	0	27665629184	4	14745
2026-01-29 21:30:32.97	292.06	22.95	-16.5	-16.6	20.1	0.00e+00	0	46	0	27783069696	4	14651
2026-01-29 21:30:33.98	292.44	22.88	-16.5	-16.6	20.0	0.00e+00	0	46	0	27892121600	4	14665
2026-01-29 21:30:34.99	292.82	22.80	-16.6	-16.7	20.0	0.00e+00	0	46	0	28009562112	4	14810
2026-01-29 21:30:36.00	293.19	22.72	-16.7	-16.7	20.1	0.00e+00	0	46	0	28118614016	4	14916
2026-01-29 21:30:37.01	293.57	22.64	-16.7	-16.8	20.1	0.00e+00	0	46	0	28236054528	4	15019
2026-01-29 21:30:38.02	293.94	22.56	-16.9	-16.9	20.0	0.00e+00	0	46	0	28353495040	4	15253
2026-01-29 21:30:39.03	294.31	22.48	-16.8	-16.8	20.1	0.00e+00	0	46	0	28462546944	4	15067
2026-01-29 21:30:40.04	294.68	22.40	-16.7	-16.8	20.2	0.00e+00	0	46	0	28571598848	4	14987
2026-01-29 21:30:41.05	295.05	22.32	-16.7	-16.8	20.2	0.00e+00	0	46	0	28689039360	4	15029
2026-01-29 21:30:42.06	295.41	22.23	-16.7	-16.8	20.2	0.00e+00	0	46	0	28798091264	4	15011
2026-01-29 21:30:43.07	295.77	22.15	-16.8	-16.8	20.3	0.00e+00	0	47	0	28915531776	4	15109
2026-01-29 21:30:44.08	296.13	22.06	-16.7	-16.8	20.3	0.00e+00	0	47	0	29032972288	4	15019
2026-01-29 21:30:45.09	296.49	21.98	-16.8	-16.9	20.2	0.00e+00	0	46	0	29142024192	4	15150
2026-01-29 21:30:46.10	296.84	21.89	-16.8	-16.9	20.2	0.00e+00	0	46	0	29259464704	4	15137
2026-01-29 21:30:47.11	297.20	21.81	-16.9	-17.0	20.4	0.00e+00	0	46	0	29368516608	4	15395
2026-01-29 21:30:48.12	297.55	21.72	-16.9	-17.0	20.2	0.00e+00	0	47	0	29485957120	4	15398
2026-01-29 21:30:49.13	297.90	21.63	-16.9	-16.9	20.3	0.00e+00	0	47	0	29595009024	4	15276
2026-01-29 21:30:50.14	298.24	21.54	-16.9	-17.0	20.2	0.00e+00	0	46	0	29712449536	4	15301
2026-01-29 21:30:51.15	298.59	21.45	-16.9	-17.0	20.2	0.00e+00	0	46	0	29821501440	4	15345
2026-01-29 21:30:52.16	298.93	21.36	-17.0	-17.1	20.1	0.00e+00	0	46	0	29938941952	4	15493
2026-01-29 21:30:53.17	299.27	21.27	-17.0	-17.1	20.2	0.00e+00	0	46	0	30056382464	4	15510
2026-01-29 21:30:54.18	299.61	21.18	-17.1	-17.2	20.0	0.00e+00	0	46	0	30165434368	4	15758
2026-01-29 21:30:55.19	299.95	21.09	-16.9	-17.0	20.0	0.00e+00	0	47	0	30282874880	4	15391
2026-01-29 21:30:56.20	300.28	21.00	-17.0	-17.1	20.0	0.00e+00	0	46	0	30391926784	4	15531
2026-01-29 21:30:57.21	300.61	20.91	-17.1	-17.2	19.8	0.00e+00	0	46	0	30500978688	4	15653
2026-01-29 21:30:58.22	300.94	20.82	-17.0	-17.0	19.9	0.00e+00	0	47	0	30626807808	4	15458
2026-01-29 21:30:59.23	301.27	20.72	-17.0	-17.1	19.9	0.00e+00	0	46	0	30735859712	4	15529
2026-01-29 21:31:00.24	301.59	20.63	-17.1	-17.1	19.8	0.00e+00	0	47	0	30844911616	4	15634
2026-01-29 21:31:01.25	301.91	20.54	-17.1	-17.2	19.8	0.00e+00	0	46	0	30962352128	4	15668
2026-01-29 21:31:02.26	302.23	20.44	-17.1	-17.2	19.8	0.00e+00	0	46	0	31071404032	4	15696
2026-01-29 21:31:03.27	302.55	20.35	-17.1	-17.2	19.8	0.00e+00	0	47	0	31188844544	4	15704
2026-01-29 21:31:04.28	302.87	20.25	-17.2	-17.3	19.7	0.00e+00	0	47	0	31306285056	4	15860
2026-01-29 21:31:05.29	303.18	20.16	-17.0	-17.1	19.6	0.00e+00	0	47	0	31415336960	4	15572
2026-01-29 21:31:06.30	303.49	20.06	-17.1	-17.1	19.6	0.00e+00	0	46	0	31524388864	4	15642
2026-01-29 21:31:07.31	303.80	19.97	-17.1	-17.2	19.5	0.00e+00	0	46	0	31641829376	4	15750
2026-01-29 21:31:08.32	304.11	19.87	-17.2	-17.3	19.4	0.00e+00	0	47	0	31759269888	4	15867
2026-01-29 21:31:09.33	304.42	19.77	-17.3	-17.4	19.4	0.00e+00	0	46	0	31868321792	5	15183
2026-01-29 21:31:10.34	304.72	19.68	-17.3	-17.3	19.4	0.00e+00	0	47	0	31985762304	5	15078
2026-01-29 21:31:11.35	305.02	19.58	-17.3	-17.4	19.3	0.00e+00	0	47	0	32094814208	5	15225
2026-01-29 21:31:12.35	305.32	19.48	-17.3	-17.4	19.2	0.00e+00	0	46	0	32212254720	5	15225
2026-01-29 21:31:13.37	305.62	19.38	-17.4	-17.5	19.3	0.00e+00	0	46	0	32321306624	5	15307
2026-01-29 21:31:14.37	305.91	19.29	-17.3	-17.4	19.1	0.00e+00	0	46	0	32438747136	5	15205
2026-01-29 21:31:15.38	306.20	19.19	-17.4	-17.4	19.3	0.00e+00	0	47	0	32556187648	5	15271
2026-01-29 21:31:16.40	306.49	19.09	-17.4	-17.5	19.3	0.00e+00	0	47	0	32665239552	5	15407
2026-01-29 21:31:17.41	306.78	18.99	-17.5	-17.6	19.2	0.00e+00	0	46	0	32774291456	5	15578
2026-01-29 21:31:18.41	307.07	18.90	-17.5	-17.6	19.4	0.00e+00	0	47	0	32891731968	5	15481
2026-01-29 21:31:19.42	307.35	18.80	-17.6	-17.6	19.4	0.00e+00	0	47	0	33009172480	5	15632
2026-01-29 21:31:20.44	307.63	18.70	-17.6	-17.6	19.2	0.00e+00	0	46	0	33118224384	5	15583
2026-01-29 21:31:21.45	307.91	18.60	-17.7	-17.8	19.1	0.00e+00	0	47	0	33235664896	5	15888
2026-01-29 21:31:22.46	308.19	18.50	-17.9	-17.9	19.3	0.00e+00	0	47	0	33344716800	6	15246
2026-01-29 21:31:23.47	308.47	18.40	-17.9	-18.0	19.0	0.00e+00	0	47	0	33453768704	6	15374
2026-01-29 21:31:24.48	308.74	18.30	-17.8	-17.9	19.1	0.00e+00	0	46	0	33579597824	6	15146
2026-01-29 21:31:25.49	309.01	18.20	-18.0	-18.0	18.9	0.00e+00	0	47	0	33688649728	6	15412
2026-01-29 21:31:26.50	309.28	18.10	-17.9	-18.0	19.0	0.00e+00	0	46	0	33797701632	6	15357
2026-01-29 21:31:27.51	309.55	18.00	-17.9	-18.0	19.1	0.00e+00	0	46	0	33915142144	6	15334
2026-01-29 21:31:28.52	309.82	17.91	-18.0	-18.1	19.1	0.00e+00	0	47	0	34024194048	6	15563
2026-01-29 21:31:29.52	310.08	17.81	-18.0	-18.0	19.0	0.00e+00	0	47	0	34141634560	6	15473
2026-01-29 21:31:30.54	310.35	17.71	-18.2	-18.2	19.2	0.00e+00	0	46	0	34259075072	6	15773
2026-01-29 21:31:31.54	310.60	17.61	-18.0	-18.1	19.0	0.00e+00	0	47	0	34368126976	6	15515
2026-01-29 21:31:32.55	310.86	17.51	-18.1	-18.2	18.9	0.00e+00	0	46	0	34485567488	6	15693
2026-01-29 21:31:33.57	311.12	17.41	-18.1	-18.2	18.9	0.00e+00	0	47	0	34594619392	6	15684
2026-01-29 21:31:34.58	311.38	17.31	-18.2	-18.3	19.2	0.00e+00	0	46	0	34712059904	7	15049
2026-01-29 21:31:35.59	311.63	17.21	-18.3	-18.3	18.9	0.00e+00	0	47	0	34821111808	7	15095
2026-01-29 21:31:36.60	311.88	17.11	-18.4	-18.5	18.5	0.00e+00	0	46	0	34938552320	7	15352
2026-01-29 21:31:37.61	312.13	17.01	-18.3	-18.4	18.7	0.00e+00	0	46	0	35047604224	7	15161
2026-01-29 21:31:38.62	312.38	16.91	-18.4	-18.5	18.6	0.00e+00	0	46	0	35165044736	7	15327
2026-01-29 21:31:39.63	312.62	16.81	-18.4	-18.5	18.6	0.00e+00	0	47	0	35282485248	7	15368
2026-01-29 21:31:40.64	312.86	16.72	-18.5	-18.6	18.3	0.00e+00	0	47	0	35391537152	7	15533
2026-01-29 21:31:41.65	313.11	16.62	-18.5	-18.6	18.4	0.00e+00	0	47	0	35508977664	7	15478
2026-01-29 21:31:42.66	313.35	16.52	-18.6	-18.7	18.2	0.00e+00	0	47	0	35618029568	7	15695
2026-01-29 21:31:43.67	313.58	16.42	-18.7	-18.7	18.1	0.00e+00	0	47	0	35735470080	7	15824
2026-01-29 21:31:44.68	313.82	16.32	-18.7	-18.7	18.4	0.00e+00	0	47	0	35844521984	8	14906
2026-01-29 21:31:45.68	314.05	16.22	-18.7	-18.8	18.2	0.00e+00	0	47	0	35961962496	8	15054
2026-01-29 21:31:46.70	314.29	16.12	-18.7	-18.8	18.1	0.00e+00	0	47	0	36071014400	8	14974
2026-01-29 21:31:47.71	314.52	16.02	-18.7	-18.8	18.2	0.00e+00	0	47	0	36188454912	8	15070
2026-01-29 21:31:48.72	314.75	15.93	-18.8	-18.9	18.3	0.00e+00	0	47	0	36305895424	8	15227
2026-01-29 21:31:49.73	314.98	15.83	-18.9	-18.9	18.2	0.00e+00	0	46	0	36414947328	8	15293
2026-01-29 21:31:50.74	315.20	15.73	-18.8	-18.9	18.2	0.00e+00	0	47	0	36532387840	8	15196
2026-01-29 21:31:51.75	315.43	15.63	-18.8	-18.9	18.1	0.00e+00	0	46	0	36641439744	8	15197
2026-01-29 21:31:52.76	315.65	15.53	-18.9	-18.9	18.1	0.00e+00	0	47	0	36750491648	8	15235
2026-01-29 21:31:53.77	315.87	15.44	-18.9	-19.0	18.4	0.00e+00	0	46	0	36876320768	8	15408
2026-01-29 21:31:54.78	316.09	15.34	-19.0	-19.0	18.4	0.00e+00	0	46	0	36985372672	8	15426
2026-01-29 21:31:55.79	316.31	15.24	-19.0	-19.0	18.5	0.00e+00	0	47	0	37094424576	8	15451
2026-01-29 21:31:56.80	316.52	15.14	-19.0	-19.1	18.6	0.00e+00	0	47	0	37211865088	8	15533
2026-01-29 21:31:57.81	316.74	15.05	-19.0	-19.1	18.5	0.00e+00	0	47	0	37320916992	8	15483
2026-01-29 21:31:58.82	316.95	14.95	-19.2	-19.2	18.5	0.00e+00	0	47	0	37438357504	8	15781
2026-01-29 21:31:59.83	317.16	14.85	-19.2	-19.3	18.6	0.00e+00	0	46	0	37555798016	9	14949
2026-01-29 21:32:00.84	317.37	14.76	-19.2	-19.3	18.3	0.00e+00	0	46	0	37664849920	9	15046
2026-01-29 21:32:01.85	317.58	14.66	-19.3	-19.3	18.2	0.00e+00	0	47	0	37773901824	9	15062
2026-01-29 21:32:02.86	317.79	14.57	-19.2	-19.3	18.2	0.00e+00	0	47	0	37891342336	9	14999
2026-01-29 21:32:03.87	317.99	14.47	-19.2	-19.3	18.2	0.00e+00	0	46	0	38000394240	9	14982
2026-01-29 21:32:04.87	318.20	14.37	-19.3	-19.3	18.3	0.00e+00	0	46	0	38117834752	9	15069
2026-01-29 21:32:05.88	318.40	14.28	-19.5	-19.5	18.0	0.00e+00	0	47	0	38235275264	9	15395
2026-01-29 21:32:06.89	318.60	14.18	-19.3	-19.4	18.3	0.00e+00	0	47	0	38344327168	9	15184
2026-01-29 21:32:07.90	318.80	14.09	-19.4	-19.5	18.0	0.00e+00	0	46	0	38461767680	9	15331
2026-01-29 21:32:08.91	319.00	13.99	-19.4	-19.5	18.4	0.00e+00	0	47	0	38570819584	9	15348
2026-01-29 21:32:09.92	319.19	13.90	-19.4	-19.5	18.4	0.00e+00	0	47	0	38688260096	9	15409
2026-01-29 21:32:10.93	319.39	13.80	-19.6	-19.7	18.2	0.00e+00	0	46	0	38797312000	9	15731
2026-01-29 21:32:11.94	319.58	13.71	-19.5	-19.6	18.3	0.00e+00	0	47	0	38914752512	9	15554
2026-01-29 21:32:12.95	319.77	13.61	-19.8	-19.9	18.5	0.00e+00	0	46	0	39023804416	10	15158
2026-01-29 21:32:13.96	319.96	13.52	-19.7	-19.8	18.4	0.00e+00	0	46	0	39141244928	10	14967
2026-01-29 21:32:14.97	320.15	13.43	-19.6	-19.7	18.5	0.00e+00	0	46	0	39258685440	10	14810
2026-01-29 21:32:15.98	320.34	13.33	-19.7	-19.8	18.5	0.00e+00	0	47	0	39367737344	10	14979
2026-01-29 21:32:16.99	320.53	13.24	-19.7	-19.8	18.6	0.00e+00	0	47	0	39485177856	10	15041
2026-01-29 21:32:18.00	320.71	13.15	-19.8	-19.9	18.5	0.00e+00	0	47	0	39594229760	10	15180
2026-01-29 21:32:19.00	320.90	13.05	-19.7	-19.8	18.5	0.00e+00	0	46	0	39703281664	10	14994
2026-01-29 21:32:20.02	321.08	12.96	-19.9	-20.0	18.5	0.00e+00	0	47	0	39820722176	10	15309
2026-01-29 21:32:21.02	321.26	12.87	-19.8	-19.9	18.4	0.00e+00	0	47	0	39938162688	10	15226
2026-01-29 21:32:22.04	321.44	12.78	-19.9	-20.0	18.2	0.00e+00	0	46	0	40047214592	10	15315
2026-01-29 21:32:23.05	321.62	12.68	-20.0	-20.0	18.3	0.00e+00	0	47	0	40164655104	10	15432
2026-01-29 21:32:24.06	321.80	12.59	-20.0	-20.1	18.4	0.00e+00	0	46	0	40273707008	10	15477
2026-01-29 21:32:25.07	321.97	12.50	-20.0	-20.0	18.2	0.00e+00	0	47	0	40391147520	10	15419
2026-01-29 21:32:26.08	322.15	12.41	-20.1	-20.2	18.3	0.00e+00	0	47	0	40508588032	10	15669
2026-01-29 21:32:27.09	322.32	12.32	-20.1	-20.2	18.2	0.00e+00	0	47	0	40617639936	10	15750
2026-01-29 21:32:28.10	322.49	12.23	-20.1	-20.1	18.0	0.00e+00	0	47	0	40726691840	10	15616
2026-01-29 21:32:29.11	322.67	12.14	-20.1	-20.2	18.3	0.00e+00	0	47	0	40844132352	10	15691
2026-01-29 21:32:30.12	322.84	12.05	-20.3	-20.4	18.3	0.00e+00	0	47	0	40961572864	11	15232
2026-01-29 21:32:31.13	323.01	11.96	-20.3	-20.4	18.1	0.00e+00	0	47	0	41070624768	11	15131
2026-01-29 21:32:32.14	323.17	11.87	-20.4	-20.5	18.2	0.00e+00	0	47	0	41188065280	11	15335
2026-01-29 21:32:33.15	323.34	11.78	-20.5	-20.6	17.9	0.00e+00	0	47	0	41297117184	11	15537
2026-01-29 21:32:34.16	323.50	11.69	-20.6	-20.6	18.2	0.00e+00	0	47	0	41414557696	11	15622
2026-01-29 21:32:35.17	323.67	11.60	-20.4	-20.5	18.1	0.00e+00	0	46	0	41531998208	11	15407
2026-01-29 21:32:36.18	323.83	11.51	-20.5	-20.6	18.2	0.00e+00	0	46	0	41641050112	11	15569
2026-01-29 21:32:37.19	323.99	11.42	-20.7	-20.7	18.0	0.00e+00	0	46	0	41758490624	11	15797
2026-01-29 21:32:38.20	324.15	11.33	-20.5	-20.6	18.1	0.00e+00	0	47	0	41867542528	12	14669
2026-01-29 21:32:39.21	324.31	11.24	-20.6	-20.6	18.3	0.00e+00	0	47	0	41976594432	12	14748
2026-01-29 21:32:40.22	324.47	11.15	-20.5	-20.6	20.0	0.00e+00	0	46	0	42094034944	12	14696
2026-01-29 21:32:41.23	324.63	11.07	-46.6	-49.2	6.2	0.00e+00	0	46	104	42110812160	63	21006
2026-01-29 21:32:42.24	324.79	10.98	-46.6	-49.2	6.2	0.00e+00	0	46	104	42110812160	63	21025
2026-01-29 21:32:43.25	324.94	10.89	-46.6	-49.2	6.2	0.00e+00	0	46	104	42110812160	63	20978
2026-01-29 21:32:44.26	325.10	10.80	-46.6	-49.2	6.2	0.00e+00	0	46	104	42110812160	64	19709
2026-01-29 21:32:45.26	325.25	10.72	-46.6	-49.2	6.2	0.00e+00	0	46	104	42110812160	64	19705
2026-01-29 21:32:46.27	325.40	10.63	-46.6	-49.2	6.2	0.00e+00	0	46	104	42110812160	64	19827
2026-01-29 21:32:47.28	325.55	10.55	-46.4	-49.1	6.2	0.00e+00	0	46	104	42110812160	64	19521
2026-01-29 21:32:48.29	325.70	10.46	-46.6	-49.1	6.2	0.00e+00	0	46	104	42110812160	64	19612
2026-01-29 21:32:49.30	325.85	10.37	-46.5	-49.1	6.2	0.00e+00	0	46	104	42110812160	64	19550
2026-01-29 21:32:50.32	326.00	10.29	-46.6	-49.2	6.2	0.00e+00	0	46	104	42110812160	64	19732
2026-01-29 21:32:51.32	326.14	10.20	-46.4	-49.0	6.2	0.00e+00	0	46	104	42110812160	64	19408
2026-01-29 21:32:52.34	326.29	10.12	-46.5	-49.1	6.2	0.00e+00	0	46	104	42110812160	64	19530
2026-01-29 21:32:53.35	326.44	10.03	-46.5	-49.0	6.2	0.00e+00	0	46	104	42110812160	64	19408
2026-01-29 21:32:54.36	326.58	9.95	-46.5	-49.1	6.2	0.00e+00	0	46	104	42110812160	64	19560
2026-01-29 21:32:55.37	326.72	9.86	-46.4	-49.0	6.2	0.00e+00	0	46	104	42110812160	64	19378
2026-01-29 21:32:56.38	326.87	9.78	-46.4	-49.0	6.2	0.00e+00	0	46	104	42110812160	64	19364
2026-01-29 21:32:57.39	327.01	9.69	-46.4	-49.0	6.2	0.00e+00	0	46	104	42110812160	64	19330
2026-01-29 21:32:58.40	327.15	9.61	-46.4	-49.0	6.2	0.00e+00	0	46	104	42110812160	64	19444
2026-01-29 21:32:59.41	327.29	9.53	-46.3	-48.9	6.2	0.00e+00	0	46	104	42110812160	64	19213
2026-01-29 21:33:00.42	327.42	9.44	-46.4	-48.9	6.2	0.00e+00	0	46	104	42110812160	64	19231
2026-01-29 21:33:01.43	327.56	9.36	-46.4	-48.9	6.2	0.00e+00	0	46	104	42110812160	64	19203
2026-01-29 21:33:02.44	327.70	9.28	-46.4	-49.0	6.2	0.00e+00	0	46	104	42110812160	64	19284
2026-01-29 21:33:03.45	327.83	9.19	-46.3	-48.9	6.2	0.00e+00	0	46	104	42110812160	64	19147
2026-01-29 21:33:04.46	327.97	9.11	-46.3	-48.9	6.2	0.00e+00	0	46	104	42110812160	64	19149
2026-01-29 21:33:05.47	328.10	9.03	-46.3	-48.9	6.2	0.00e+00	0	46	104	42110812160	64	19203
2026-01-29 21:33:06.48	328.24	8.95	-46.3	-48.9	6.2	0.00e+00	0	46	104	42110812160	64	19162
2026-01-29 21:33:07.49	328.37	8.87	-46.3	-48.9	6.2	0.00e+00	0	46	104	42110812160	64	19093
2026-01-29 21:33:08.50	328.50	8.79	-46.3	-48.8	6.2	0.00e+00	0	46	104	42110812160	64	18991
2026-01-29 21:33:09.51	328.63	8.70	-46.3	-48.9	6.2	0.00e+00	0	46	104	42110812160	64	19072
2026-01-29 21:33:10.52	328.76	8.62	-46.2	-48.8	6.2	0.00e+00	0	46	104	42110812160	64	19021
2026-01-29 21:33:11.53	328.89	8.54	-46.2	-48.8	6.2	0.00e+00	0	46	104	42110812160	64	19004
2026-01-29 21:33:12.54	329.02	8.46	-46.3	-48.8	6.2	0.00e+00	0	46	104	42110812160	64	18966
2026-01-29 21:33:13.55	329.14	8.38	-46.3	-48.8	6.2	0.00e+00	0	46	104	42110812160	64	18959
2026-01-29 21:33:14.56	329.27	8.30	-46.2	-48.8	6.2	0.00e+00	0	46	104	42110812160	64	18948
2026-01-29 21:33:15.57	329.39	8.22	-46.2	-48.8	6.2	0.00e+00	0	46	104	42110812160	64	18905
2026-01-29 21:33:16.58	329.52	8.14	-46.2	-48.8	6.2	0.00e+00	0	46	104	42110812160	64	18890
2026-01-29 21:33:17.59	329.64	8.06	-46.2	-48.8	6.2	0.00e+00	0	46	104	42110812160	64	18948
2026-01-29 21:33:18.60	329.77	7.98	-46.2	-48.8	6.2	0.00e+00	0	46	104	42110812160	64	18899
2026-01-29 21:33:19.61	329.89	7.91	-46.2	-48.7	6.2	0.00e+00	0	46	104	42110812160	64	18770
2026-01-29 21:33:20.62	330.01	7.83	-46.2	-48.7	6.2	0.00e+00	0	46	104	42110812160	64	18773
2026-01-29 21:33:21.63	330.13	7.75	-46.2	-48.8	6.2	0.00e+00	0	46	104	42110812160	64	18867
2026-01-29 21:33:22.64	330.25	7.67	-46.1	-48.7	6.2	0.00e+00	0	46	104	42110812160	64	18680
2026-01-29 21:33:23.65	330.37	7.59	-46.2	-48.7	6.2	0.00e+00	0	46	104	42110812160	64	18742
2026-01-29 21:33:24.66	330.49	7.51	-46.1	-48.7	6.2	0.00e+00	0	46	104	42110812160	64	18655
2026-01-29 21:33:25.66	330.60	7.44	-46.2	-48.7	6.2	0.00e+00	0	46	104	42110812160	64	18788
2026-01-29 21:33:26.68	330.72	7.36	-46.0	-48.7	6.2	0.00e+00	0	46	104	42110812160	64	18610
2026-01-29 21:33:27.69	330.84	7.28	-46.1	-48.7	6.2	0.00e+00	0	46	104	42110812160	64	18674
2026-01-29 21:33:28.70	330.95	7.21	-46.1	-48.6	6.2	0.00e+00	0	46	104	42110812160	64	18585
2026-01-29 21:33:29.71	331.07	7.13	-46.1	-48.7	6.2	0.00e+00	0	46	104	42110812160	64	18702
2026-01-29 21:33:30.72	331.18	7.05	-46.0	-48.6	6.2	0.00e+00	0	46	104	42110812160	64	18555
2026-01-29 21:33:31.73	331.30	6.98	-46.1	-48.6	6.2	0.00e+00	0	46	104	42110812160	64	18588
2026-01-29 21:33:32.74	331.41	6.90	-46.0	-48.6	6.2	0.00e+00	0	46	104	42110812160	64	18487
2026-01-29 21:33:33.75	331.52	6.82	-46.1	-48.7	6.2	0.00e+00	0	46	104	42110812160	64	18615
2026-01-29 21:33:34.75	331.63	6.75	-46.0	-48.6	6.2	0.00e+00	0	46	104	42110812160	64	18462
2026-01-29 21:33:35.77	331.74	6.67	-46.1	-48.6	6.2	0.00e+00	0	46	104	42110812160	64	18541
2026-01-29 21:33:36.78	331.85	6.60	-46.0	-48.5	6.2	0.00e+00	0	46	104	42110812160	64	18359
2026-01-29 21:33:37.79	331.96	6.52	-46.1	-48.7	6.2	0.00e+00	0	46	104	42110812160	64	18611
2026-01-29 21:33:38.80	332.07	6.45	-46.0	-48.6	6.2	0.00e+00	0	46	104	42110812160	63	19589
2026-01-29 21:33:39.81	332.18	6.37	-46.1	-48.7	6.2	0.00e+00	0	46	104	42110812160	63	19729
2026-01-29 21:33:40.82	332.29	6.30	-46.0	-48.6	6.2	0.00e+00	0	46	104	42110812160	63	19553
2026-01-29 21:33:41.83	332.39	6.23	-46.1	-48.7	6.2	0.00e+00	0	46	104	42110812160	63	19875
2026-01-29 21:33:42.84	332.50	6.15	-45.9	-48.6	6.2	0.00e+00	0	46	104	42110812160	63	19495
2026-01-29 21:33:43.85	332.61	6.08	-46.1	-48.6	6.2	0.00e+00	0	46	104	42110812160	63	19620
2026-01-29 21:33:44.86	332.71	6.00	-46.0	-48.5	6.2	0.00e+00	0	46	104	42110812160	63	19440
2026-01-29 21:33:45.87	332.82	5.93	-46.1	-48.6	6.2	0.00e+00	0	46	104	42110812160	63	19703
2026-01-29 21:33:46.88	332.92	5.86	-45.9	-48.5	6.2	0.00e+00	0	46	104	42110812160	63	19350
2026-01-29 21:33:47.89	333.02	5.79	-46.0	-48.6	6.2	0.00e+00	0	46	104	42110812160	63	19516
2026-01-29 21:33:48.90	333.12	5.71	-45.9	-48.5	6.2	0.00e+00	0	46	104	42110812160	63	19279
2026-01-29 21:33:49.91	333.23	5.64	-46.0	-48.6	6.2	0.00e+00	0	46	104	42110812160	63	19570
2026-01-29 21:33:50.92	333.33	5.57	-45.9	-48.4	6.2	0.00e+00	0	46	104	42110812160	63	19227
2026-01-29 21:33:51.92	333.43	5.50	-46.0	-48.5	6.2	0.00e+00	0	46	104	42110812160	63	19366
2026-01-29 21:33:52.93	333.53	5.42	-45.8	-48.4	6.2	0.00e+00	0	46	104	42110812160	63	19144
2026-01-29 21:33:53.94	333.63	5.35	-46.0	-48.5	6.2	0.00e+00	0	46	104	42110812160	63	19459
2026-01-29 21:33:54.95	333.73	5.28	-45.8	-48.4	6.2	0.00e+00	0	46	104	42110812160	63	19053
2026-01-29 21:33:55.96	333.82	5.21	-45.9	-48.5	6.2	0.00e+00	0	46	104	42110812160	63	19310
2026-01-29 21:33:56.97	333.92	5.14	-45.7	-48.3	6.2	0.00e+00	0	46	104	42110812160	63	18919
2026-01-29 21:33:57.98	334.02	5.07	-45.9	-48.5	6.2	0.00e+00	0	46	104	42110812160	63	19357
2026-01-29 21:33:58.99	334.12	5.00	-46.4	-48.9	6.2	0.00e+00	0	46	104	42110812160	63	20375
2026-01-29 21:34:00.00	334.21	4.93	-46.6	-49.2	6.2	0.00e+00	0	46	104	42110812160	64	19807
2026-01-29 21:34:01.01	334.31	4.86	-46.9	-49.5	6.2	0.00e+00	0	46	104	42110812160	64	20445
2026-01-29 21:34:02.02	334.40	4.79	-47.1	-49.6	6.2	0.00e+00	0	46	104	42110812160	64	20806
2026-01-29 21:34:03.03	334.50	4.72	-47.2	-49.8	6.2	0.00e+00	0	46	104	42110812160	64	21115
2026-01-29 21:34:04.04	334.59	4.65	-47.3	-49.8	6.2	0.00e+00	0	46	104	42110812160	65	20136
2026-01-29 21:34:05.05	334.68	4.58	-47.4	-49.9	6.2	0.00e+00	0	46	104	42110812160	65	20263
2026-01-29 21:34:06.06	334.78	4.51	-47.4	-49.9	6.2	0.00e+00	0	46	104	42110812160	65	20326
2026-01-29 21:34:07.07	334.87	4.44	-47.4	-49.9	6.2	0.00e+00	0	46	104	42110812160	65	20310
2026-01-29 21:34:08.08	334.96	4.37	-47.3	-49.9	6.2	0.00e+00	0	46	104	42110812160	65	20192
2026-01-29 21:34:09.09	335.05	4.30	-47.2	-49.7	6.2	0.00e+00	0	46	104	42110812160	65	19820
2026-01-29 21:34:10.10	335.14	4.23	-47.1	-49.6	6.2	0.00e+00	0	46	104	42110812160	65	19556
2026-01-29 21:34:11.11	335.23	4.16	-46.9	-49.4	6.2	0.00e+00	0	46	104	42110812160	65	19098
2026-01-29 21:34:12.12	335.32	4.09	-47.1	-49.6	6.2	0.00e+00	0	46	104	42110812160	65	19541
2026-01-29 21:34:13.12	335.41	4.03	-47.2	-49.7	6.2	0.00e+00	0	46	104	42110812160	65	19922
2026-01-29 21:34:14.13	335.50	3.96	-47.3	-49.8	6.2	0.00e+00	0	46	104	42110812160	65	20062
2026-01-29 21:34:15.14	335.59	3.89	-47.3	-49.9	6.2	0.00e+00	0	46	104	42110812160	65	20233
2026-01-29 21:34:16.15	335.68	3.82	-47.3	-49.9	6.2	0.00e+00	0	46	104	42110812160	65	20238
2026-01-29 21:34:17.16	335.77	3.75	-47.4	-49.9	6.2	0.00e+00	0	46	104	42110812160	65	20253
2026-01-29 21:34:18.17	335.85	3.69	-47.4	-49.9	6.2	0.00e+00	0	46	104	42110812160	65	20260
2026-01-29 21:34:19.19	335.94	3.62	-47.4	-49.9	6.2	0.00e+00	0	46	104	42110812160	65	20323
2026-01-29 21:34:20.20	336.03	3.55	-47.3	-49.8	6.2	0.00e+00	0	46	104	42110812160	65	20129
2026-01-29 21:34:21.21	336.11	3.49	-47.2	-49.8	6.2	0.00e+00	0	46	104	42110812160	65	20049
2026-01-29 21:34:22.22	336.20	3.42	-47.2	-49.8	6.2	0.00e+00	0	46	104	42110812160	65	19990
2026-01-29 21:34:23.23	336.28	3.35	-47.2	-49.8	6.2	0.00e+00	0	46	104	42110812160	65	19936
2026-01-29 21:34:24.24	336.37	3.29	-47.2	-49.8	6.2	0.00e+00	0	46	104	42110812160	65	19995
2026-01-29 21:34:25.25	336.45	3.22	-47.2	-49.7	6.2	0.00e+00	0	46	104	42110812160	65	19875
2026-01-29 21:34:26.26	336.53	3.15	-47.2	-49.7	6.2	0.00e+00	0	46	104	42110812160	65	19899
2026-01-29 21:34:27.27	336.62	3.09	-47.2	-49.7	6.2	0.00e+00	0	46	104	42110812160	65	19819
2026-01-29 21:34:28.27	336.70	3.02	-47.2	-49.7	6.2	0.00e+00	0	46	104	42110812160	65	19814
2026-01-29 21:34:29.28	336.78	2.96	-47.2	-49.7	6.2	0.00e+00	0	46	104	42110812160	65	19816
2026-01-29 21:34:30.29	336.86	2.89	-47.1	-49.7	6.2	0.00e+00	0	46	104	42110812160	65	19790
2026-01-29 21:34:31.30	336.94	2.83	-47.1	-49.7	6.2	0.00e+00	0	46	104	42110812160	65	19752
2026-01-29 21:34:32.31	337.02	2.76	-47.1	-49.7	6.2	0.00e+00	0	46	104	42110812160	65	19716
2026-01-29 21:34:33.32	337.10	2.70	-47.1	-49.6	6.2	0.00e+00	0	46	104	42110812160	65	19694
2026-01-29 21:34:34.33	337.18	2.63	-47.1	-49.7	6.2	0.00e+00	0	46	104	42110812160	65	19721
2026-01-29 21:34:35.34	337.26	2.57	-47.1	-49.6	6.2	0.00e+00	0	46	104	42110812160	65	19655
2026-01-29 21:34:36.35	337.34	2.50	-47.1	-49.7	6.2	0.00e+00	0	46	104	42110812160	65	19711
2026-01-29 21:34:37.36	337.42	2.44	-47.1	-49.7	6.2	0.00e+00	0	46	104	42110812160	65	19726
2026-01-29 21:34:38.37	337.50	2.37	-47.1	-49.7	6.2	0.00e+00	0	46	104	42110812160	65	19748
2026-01-29 21:34:39.38	337.58	2.31	-47.1	-49.6	6.2	0.00e+00	0	46	104	42110812160	65	19642
2026-01-29 21:34:40.39	337.66	2.25	-47.1	-49.6	6.2	0.00e+00	0	46	104	42110812160	65	19655
2026-01-29 21:34:41.40	337.73	2.18	-47.1	-49.6	6.2	0.00e+00	0	46	104	42110812160	65	19625
2026-01-29 21:34:42.41	337.81	2.12	-47.1	-49.6	6.2	0.00e+00	0	46	104	42110812160	65	19626
2026-01-29 21:34:43.42	337.89	2.06	-47.1	-49.6	6.2	0.00e+00	0	46	104	42110812160	65	19643
2026-01-29 21:34:44.43	337.96	1.99	-47.1	-49.6	6.2	0.00e+00	0	46	104	42110812160	65	19608
2026-01-29 21:34:45.44	338.04	1.93	-47.1	-49.6	6.2	0.00e+00	0	46	104	42110812160	65	19661

#Closed at: 2026-01-29 21:34:46
#Recorded file [42110 MB]: D:/lorett/data/31045_260130_002434.dat