passes_logs/2026/01/29/R3.2S_Murmansk_2ch/R3.2S_Murmansk_2ch__20260129_214546_JL1KF02B02_rec.log

#Pass ID: 20260129_214546_JL1KF02B02
#Satellite: JL1KF02B02
#Configuration: 01B_900M
#almurnet v.1.7.20251203
#Start time: 2026-01-29 21:45:46

#Version: 2.2.20231116
#Station: R3.2S_Murmansk_2ch
#Location: 33.079688 lon 68.888172 lat
#TLE: 1 61193U 24169E   26028.96955180  .00008208  00000+0  51534-3 0  9991
#TLE: 2 61193  97.5623 120.6623 0012912  84.4227 275.8475 15.09469698 74833

#Time	Az	El	Level	Level2	SNR	BER	BlckErr	Temp	State	Recorded	gain1	gain2
2026-01-29 21:45:46.84	210.22	2.00	-47.7	-50.2	6.2	0.00e+00	0	44	0	0	67	18751
2026-01-29 21:45:47.81	210.31	2.05	-47.0	-49.6	6.2	0.00e+00	0	44	104	0	66	18407
2026-01-29 21:45:48.77	210.40	2.11	-46.7	-49.2	6.2	0.00e+00	0	44	104	0	65	18779
2026-01-29 21:45:49.74	210.48	2.17	-46.3	-48.9	6.2	0.00e+00	0	44	104	0	64	19050
2026-01-29 21:45:50.71	210.57	2.23	-46.3	-48.9	6.2	0.00e+00	0	44	104	0	64	19047
2026-01-29 21:45:51.68	210.66	2.29	-46.3	-48.8	6.2	0.00e+00	0	44	104	0	64	18986
2026-01-29 21:45:52.65	210.75	2.35	-46.3	-48.8	6.2	0.00e+00	0	44	104	0	64	18940
2026-01-29 21:45:53.62	210.84	2.41	-46.3	-48.8	6.2	0.00e+00	0	44	104	0	64	18963
2026-01-29 21:45:54.59	210.93	2.46	-46.2	-48.8	6.2	0.00e+00	0	44	104	0	64	18870
2026-01-29 21:45:55.56	211.02	2.52	-46.2	-48.8	6.2	0.00e+00	0	44	104	0	64	18855
2026-01-29 21:45:56.52	211.11	2.58	-46.2	-48.8	6.2	0.00e+00	0	44	104	0	64	18899
2026-01-29 21:45:57.49	211.21	2.64	-46.2	-48.8	6.2	0.00e+00	0	44	104	0	64	18843
2026-01-29 21:45:58.46	211.30	2.70	-46.2	-48.8	6.2	0.00e+00	0	44	104	0	64	18824
2026-01-29 21:45:59.43	211.39	2.76	-46.2	-48.7	6.2	0.00e+00	0	44	104	0	64	18812
2026-01-29 21:46:00.39	211.48	2.82	-46.2	-48.8	6.2	0.00e+00	0	44	104	0	64	18888
2026-01-29 21:46:01.36	211.58	2.88	-46.2	-48.8	6.2	0.00e+00	0	44	104	0	64	18894
2026-01-29 21:46:02.33	211.67	2.94	-46.2	-48.8	6.2	0.00e+00	0	44	104	0	64	18839
2026-01-29 21:46:03.30	211.77	3.00	-46.2	-48.8	6.2	0.00e+00	0	44	104	0	64	18848
2026-01-29 21:46:04.27	211.86	3.06	-46.2	-48.7	6.2	0.00e+00	0	44	104	0	64	18793
2026-01-29 21:46:05.23	211.96	3.12	-46.2	-48.7	6.2	0.00e+00	0	44	104	0	64	18757
2026-01-29 21:46:06.20	212.05	3.18	-46.2	-48.8	6.2	0.00e+00	0	44	104	0	64	18825
2026-01-29 21:46:07.17	212.15	3.24	-46.2	-48.8	6.2	0.00e+00	0	44	104	0	64	18828
2026-01-29 21:46:08.14	212.25	3.30	-46.2	-48.7	6.2	0.00e+00	0	44	104	0	64	18733
2026-01-29 21:46:09.11	212.34	3.36	-46.2	-48.7	6.2	0.00e+00	0	44	104	0	64	18746
2026-01-29 21:46:10.08	212.44	3.42	-46.2	-48.7	6.2	0.00e+00	0	44	104	0	64	18761
2026-01-29 21:46:11.05	212.54	3.48	-46.2	-48.7	6.2	0.00e+00	0	44	104	0	64	18777
2026-01-29 21:46:12.02	212.64	3.54	-46.2	-48.7	6.2	0.00e+00	0	44	104	0	64	18748
2026-01-29 21:46:12.98	212.74	3.60	-46.2	-48.7	6.2	0.00e+00	0	44	104	0	64	18769
2026-01-29 21:46:13.96	212.84	3.67	-46.2	-48.7	6.2	0.00e+00	0	45	104	0	64	18770
2026-01-29 21:46:14.92	212.94	3.73	-46.2	-48.7	6.2	0.00e+00	0	44	104	0	64	18687
2026-01-29 21:46:15.89	213.04	3.79	-46.2	-48.7	6.2	0.00e+00	0	44	104	0	64	18744
2026-01-29 21:46:16.86	213.14	3.85	-46.2	-48.7	6.2	0.00e+00	0	44	104	0	64	18759
2026-01-29 21:46:17.84	213.24	3.91	-46.2	-48.7	6.2	0.00e+00	0	45	104	0	64	18736
2026-01-29 21:46:18.81	213.34	3.97	-46.2	-48.7	6.2	0.00e+00	0	45	104	0	64	18749
2026-01-29 21:46:19.78	213.45	4.04	-46.2	-48.7	6.2	0.00e+00	0	44	104	0	64	18732
2026-01-29 21:46:20.74	213.55	4.10	-46.2	-48.7	6.2	0.00e+00	0	45	104	0	64	18737
2026-01-29 21:46:21.71	213.65	4.16	-46.1	-48.7	6.2	0.00e+00	0	45	104	0	64	18726
2026-01-29 21:46:22.68	213.76	4.22	-46.2	-48.7	6.2	0.00e+00	0	44	104	0	64	18726
2026-01-29 21:46:23.65	213.86	4.29	-46.1	-48.7	6.2	0.00e+00	0	45	104	0	64	18760
2026-01-29 21:46:24.62	213.97	4.35	-46.1	-48.7	6.2	0.00e+00	0	45	104	0	64	18670
2026-01-29 21:46:25.58	214.07	4.41	-46.2	-48.7	6.2	0.00e+00	0	45	104	0	64	18681
2026-01-29 21:46:26.55	214.18	4.47	-46.2	-48.7	6.2	0.00e+00	0	45	104	0	64	18699
2026-01-29 21:46:27.52	214.29	4.54	-46.1	-48.7	6.2	0.00e+00	0	45	104	0	64	18676
2026-01-29 21:46:28.50	214.40	4.60	-46.1	-48.7	6.2	0.00e+00	0	45	104	0	64	18685
2026-01-29 21:46:29.47	214.51	4.66	-46.1	-48.7	6.2	0.00e+00	0	45	104	0	64	18648
2026-01-29 21:46:30.44	214.61	4.73	-46.1	-48.7	6.2	0.00e+00	0	45	104	0	64	18630
2026-01-29 21:46:31.40	214.72	4.79	-46.1	-48.6	6.2	0.00e+00	0	45	104	0	64	18598
2026-01-29 21:46:32.37	214.83	4.85	-46.1	-48.7	6.2	0.00e+00	0	45	104	0	64	18630
2026-01-29 21:46:33.34	214.94	4.92	-46.1	-48.6	6.2	0.00e+00	0	45	104	0	64	18595
2026-01-29 21:46:34.31	215.05	4.98	-46.1	-48.7	6.2	0.00e+00	0	45	104	0	64	18629
2026-01-29 21:46:35.28	215.17	5.04	-46.3	-48.9	6.2	0.00e+00	0	45	104	0	64	19074
2026-01-29 21:46:36.32	215.29	5.11	-46.1	-48.6	6.2	0.00e+00	0	45	104	0	64	18552
2026-01-29 21:46:37.29	215.40	5.18	-46.2	-48.8	6.2	0.00e+00	0	45	104	0	64	18889
2026-01-29 21:46:38.26	215.51	5.24	-46.2	-48.7	6.2	0.00e+00	0	45	104	0	64	18740
2026-01-29 21:46:39.23	215.63	5.31	-46.1	-48.6	6.2	0.00e+00	0	45	104	0	64	18575
2026-01-29 21:46:40.20	215.74	5.37	-46.0	-48.6	6.2	0.00e+00	0	45	104	0	64	18522
2026-01-29 21:46:41.16	215.86	5.43	-46.2	-48.8	6.2	0.00e+00	0	45	104	0	64	18909
2026-01-29 21:46:42.13	215.97	5.50	-46.2	-48.8	6.2	0.00e+00	0	45	104	0	64	18824
2026-01-29 21:46:43.11	216.09	5.56	-46.1	-48.7	6.2	0.00e+00	0	45	104	0	64	18634
2026-01-29 21:46:44.08	216.21	5.63	-46.1	-48.6	6.2	0.00e+00	0	45	104	0	64	18549
2026-01-29 21:46:45.04	216.32	5.69	-46.2	-48.8	6.2	0.00e+00	0	45	104	0	64	18850
2026-01-29 21:46:46.02	216.44	5.76	-46.2	-48.8	6.2	0.00e+00	0	45	104	0	64	18840
2026-01-29 21:46:46.99	216.56	5.83	-46.1	-48.7	6.2	0.00e+00	0	45	104	0	64	18605
2026-01-29 21:46:47.96	216.68	5.89	-46.1	-48.6	6.2	0.00e+00	0	45	104	0	64	18548
2026-01-29 21:46:48.93	216.80	5.96	-46.2	-48.8	6.2	0.00e+00	0	45	104	0	64	18874
2026-01-29 21:46:49.90	216.92	6.02	-46.2	-48.8	6.2	0.00e+00	0	45	104	0	64	18869
2026-01-29 21:46:50.87	217.04	6.09	-46.1	-48.7	6.2	0.00e+00	0	45	104	0	64	18736
2026-01-29 21:46:51.84	217.17	6.15	-46.1	-48.7	6.2	0.00e+00	0	45	104	0	64	18612
2026-01-29 21:46:52.81	217.29	6.22	-46.2	-48.7	6.2	0.00e+00	0	45	104	0	64	18791
2026-01-29 21:46:53.78	217.41	6.29	-46.3	-48.8	6.2	0.00e+00	0	45	104	0	64	18971
2026-01-29 21:46:54.75	217.54	6.35	-46.2	-48.8	6.2	0.00e+00	0	45	104	0	64	18839
2026-01-29 21:46:55.73	217.66	6.42	-46.1	-48.7	6.2	0.00e+00	0	45	104	0	64	18674
2026-01-29 21:46:56.69	217.79	6.49	-46.2	-48.7	6.2	0.00e+00	0	45	104	0	64	18768
2026-01-29 21:46:57.66	217.91	6.55	-46.3	-48.8	6.2	0.00e+00	0	45	104	0	64	19016
2026-01-29 21:46:58.64	218.04	6.62	-46.2	-48.8	6.2	0.00e+00	0	45	104	0	64	18926
2026-01-29 21:46:59.61	218.17	6.69	-46.2	-48.7	6.2	0.00e+00	0	45	104	0	64	18746
2026-01-29 21:47:00.58	218.30	6.75	-46.2	-48.7	6.2	0.00e+00	0	45	104	0	64	18779
2026-01-29 21:47:01.55	218.43	6.82	-46.3	-48.9	6.2	0.00e+00	0	45	104	0	64	19057
2026-01-29 21:47:02.51	218.56	6.89	-46.3	-48.8	6.2	0.00e+00	0	46	104	0	64	18968
2026-01-29 21:47:03.49	218.69	6.96	-46.2	-48.8	6.2	0.00e+00	0	45	104	0	64	18829
2026-01-29 21:47:04.45	218.82	7.02	-46.2	-48.8	6.2	0.00e+00	0	45	104	0	64	18822
2026-01-29 21:47:05.42	218.95	7.09	-46.3	-48.9	6.2	0.00e+00	0	45	104	0	64	19143
2026-01-29 21:47:06.39	219.08	7.16	-46.3	-48.8	6.2	0.00e+00	0	45	104	0	64	18982
2026-01-29 21:47:07.36	219.21	7.23	-46.2	-48.8	6.2	0.00e+00	0	45	104	0	64	18934
2026-01-29 21:47:08.33	219.35	7.30	-46.2	-48.7	6.2	0.00e+00	0	45	104	0	64	18806
2026-01-29 21:47:09.30	219.48	7.36	-46.4	-48.9	6.2	0.00e+00	0	45	104	0	64	19168
2026-01-29 21:47:10.28	219.62	7.43	-46.3	-48.9	6.2	0.00e+00	0	45	104	0	64	19134
2026-01-29 21:47:11.25	219.76	7.50	-46.2	-48.8	6.2	0.00e+00	0	45	104	0	64	18911
2026-01-29 21:47:12.22	219.89	7.57	-46.2	-48.8	6.2	0.00e+00	0	45	104	0	64	18924
2026-01-29 21:47:13.19	220.03	7.64	-46.4	-48.9	6.2	0.00e+00	0	45	104	0	64	19224
2026-01-29 21:47:14.16	220.17	7.71	-46.4	-48.9	6.2	0.00e+00	0	45	104	0	64	19148
2026-01-29 21:47:15.13	220.31	7.78	-46.2	-48.8	6.2	0.00e+00	0	45	104	0	64	18978
2026-01-29 21:47:16.10	220.45	7.85	-46.3	-48.8	6.2	0.00e+00	0	45	104	0	64	18946
2026-01-29 21:47:17.07	220.59	7.92	-46.4	-48.9	6.2	0.00e+00	0	46	104	0	64	19234
2026-01-29 21:47:18.04	220.73	7.98	-46.4	-48.9	6.2	0.00e+00	0	45	104	0	64	19220
2026-01-29 21:47:19.01	220.88	8.05	-46.3	-48.9	6.2	0.00e+00	0	45	104	0	64	19036
2026-01-29 21:47:19.98	221.02	8.12	-46.3	-48.8	6.2	0.00e+00	0	45	104	0	64	18990
2026-01-29 21:47:20.95	221.16	8.19	-46.4	-48.9	6.2	0.00e+00	0	46	104	0	64	19226
2026-01-29 21:47:21.92	221.31	8.26	-46.4	-49.0	6.2	0.00e+00	0	46	104	0	64	19296
2026-01-29 21:47:22.88	221.45	8.33	-46.3	-48.9	6.2	0.00e+00	0	45	104	0	64	19092
2026-01-29 21:47:23.85	221.60	8.40	-46.3	-48.9	6.2	0.00e+00	0	46	104	0	64	19120
2026-01-29 21:47:24.82	221.75	8.47	-46.4	-48.9	6.2	0.00e+00	0	46	104	0	64	19218
2026-01-29 21:47:25.79	221.89	8.54	-46.4	-49.0	6.2	0.00e+00	0	46	104	0	64	19365
2026-01-29 21:47:26.76	222.04	8.61	-46.4	-48.9	6.2	0.00e+00	0	46	104	0	64	19186
2026-01-29 21:47:27.73	222.19	8.68	-46.3	-48.8	6.2	0.00e+00	0	46	104	0	63	20074
2026-01-29 21:47:28.69	222.34	8.75	-42.9	-44.0	6.7	0.00e+00	0	45	104	0	58	15455
2026-01-29 21:47:29.66	222.50	8.82	-44.9	-46.7	6.3	0.00e+00	0	45	104	0	60	18784
2026-01-29 21:47:30.63	222.65	8.89	-43.7	-45.0	6.6	0.00e+00	0	46	104	0	59	16275
2026-01-29 21:47:31.60	222.80	8.97	-39.3	-40.0	7.4	0.00e+00	0	46	104	0	50	15326
2026-01-29 21:47:32.57	222.96	9.04	-39.4	-40.1	7.4	0.00e+00	0	46	104	0	50	15491
2026-01-29 21:47:33.55	223.11	9.11	-39.6	-40.2	7.3	0.00e+00	0	45	104	0	50	15805
2026-01-29 21:47:34.52	223.27	9.18	-39.7	-40.4	7.4	0.00e+00	0	46	104	0	50	16054
2026-01-29 21:47:35.49	223.43	9.25	-39.8	-40.5	7.3	0.00e+00	0	46	104	0	50	16324
2026-01-29 21:47:36.46	223.58	9.32	-41.5	-42.4	7.1	0.00e+00	0	46	104	0	53	17023
2026-01-29 21:47:37.43	223.74	9.39	-45.9	-48.1	6.2	0.00e+00	0	45	104	0	63	18591
2026-01-29 21:47:38.40	223.90	9.47	-46.0	-48.3	6.2	0.00e+00	0	45	104	0	63	18867
2026-01-29 21:47:39.36	224.06	9.54	-41.5	-42.3	7.0	0.00e+00	0	46	104	0	53	16898
2026-01-29 21:47:40.33	224.22	9.61	-40.7	-41.5	7.2	0.00e+00	0	45	104	0	53	15380
2026-01-29 21:47:41.29	224.38	9.68	-40.5	-41.2	8.1	0.00e+00	0	46	104	0	52	15678
2026-01-29 21:47:42.26	224.55	9.75	-40.7	-41.4	8.0	0.00e+00	0	46	104	0	52	16108
2026-01-29 21:47:43.23	224.71	9.82	-41.5	-42.3	7.7	0.00e+00	0	45	104	0	53	16823
2026-01-29 21:47:44.20	224.88	9.90	-21.9	-22.0	11.9	3.17e-04	0	46	104	0	34	4873
2026-01-29 21:47:45.17	225.04	9.97	-38.0	-38.5	9.0	1.90e-05	0	46	0	41943040	46	16257
2026-01-29 21:47:46.14	225.21	10.04	-39.9	-40.5	8.2	1.14e-05	0	46	0	109051904	50	16237
2026-01-29 21:47:47.11	225.38	10.11	-21.6	-21.7	18.1	0.00e+00	0	46	0	150994944	13	15714
2026-01-29 21:47:48.07	225.55	10.18	-20.3	-20.4	18.5	0.00e+00	0	46	0	260046848	12	14412
2026-01-29 21:47:49.04	225.72	10.26	-20.2	-20.3	18.6	0.00e+00	0	46	0	369098752	12	14202
2026-01-29 21:47:50.01	225.89	10.33	-20.0	-20.1	18.6	0.00e+00	0	46	0	478150656	12	13851
2026-01-29 21:47:50.97	226.06	10.40	-20.1	-20.1	18.7	0.00e+00	0	46	0	587202560	11	14767
2026-01-29 21:47:51.94	226.23	10.47	-20.0	-20.1	18.7	0.00e+00	0	46	0	696254464	11	14619
2026-01-29 21:47:52.91	226.40	10.55	-20.0	-20.1	18.7	0.00e+00	0	46	0	805306368	11	14680
2026-01-29 21:47:53.89	226.58	10.62	-19.9	-20.0	18.7	0.00e+00	0	46	0	914358272	11	14466
2026-01-29 21:47:54.87	226.76	10.69	-19.8	-19.9	18.7	0.00e+00	0	46	0	1023410176	11	14379
2026-01-29 21:47:55.86	226.94	10.77	-19.8	-19.9	18.7	0.00e+00	0	46	0	1140850688	11	14401
2026-01-29 21:47:56.84	227.12	10.84	-19.8	-19.9	18.7	0.00e+00	0	46	0	1241513984	11	14288
2026-01-29 21:47:57.82	227.30	10.92	-19.7	-19.8	18.7	0.00e+00	0	46	0	1358954496	11	14220
2026-01-29 21:47:58.80	227.48	10.99	-19.8	-19.9	18.6	0.00e+00	0	46	0	1468006400	11	14350
2026-01-29 21:47:59.78	227.67	11.07	-19.7	-19.8	18.7	0.00e+00	0	46	0	1577058304	11	14233
2026-01-29 21:48:00.76	227.85	11.14	-19.7	-19.8	18.7	0.00e+00	0	46	0	1686110208	11	14211
2026-01-29 21:48:01.75	228.04	11.21	-19.7	-19.7	18.7	0.00e+00	0	46	0	1795162112	11	14091
2026-01-29 21:48:02.73	228.22	11.29	-19.7	-19.8	18.7	0.00e+00	0	46	0	1912602624	11	14166
2026-01-29 21:48:03.72	228.41	11.36	-19.5	-19.6	18.7	0.00e+00	0	46	0	2021654528	11	13883
2026-01-29 21:48:04.70	228.60	11.44	-19.6	-19.7	18.7	0.00e+00	0	46	0	2130706432	11	13974
2026-01-29 21:48:05.68	228.79	11.51	-19.6	-19.6	18.7	0.00e+00	0	46	0	2239758336	11	13934
2026-01-29 21:48:06.66	228.98	11.59	-19.6	-19.6	18.6	0.00e+00	0	46	0	2357198848	11	13922
2026-01-29 21:48:07.65	229.18	11.66	-19.6	-19.7	18.7	0.00e+00	0	46	0	2457862144	11	13987
2026-01-29 21:48:08.63	229.37	11.74	-19.4	-19.4	18.7	0.00e+00	0	46	0	2575302656	10	14433
2026-01-29 21:48:09.62	229.57	11.81	-19.4	-19.5	18.6	0.00e+00	0	46	0	2684354560	10	14510
2026-01-29 21:48:10.60	229.76	11.89	-19.4	-19.4	18.6	0.00e+00	0	46	0	2793406464	10	14425
2026-01-29 21:48:11.58	229.96	11.96	-19.4	-19.5	18.6	0.00e+00	0	46	0	2902458368	10	14490
2026-01-29 21:48:12.56	230.16	12.04	-19.4	-19.5	18.6	0.00e+00	0	46	0	3019898880	10	14480
2026-01-29 21:48:13.55	230.36	12.11	-19.3	-19.4	18.6	0.00e+00	0	46	0	3120562176	10	14341
2026-01-29 21:48:14.53	230.56	12.19	-19.1	-19.2	18.6	0.00e+00	0	46	0	3238002688	10	14073
2026-01-29 21:48:15.51	230.76	12.26	-19.2	-19.2	18.6	0.00e+00	0	46	0	3347054592	10	14082
2026-01-29 21:48:16.49	230.96	12.34	-19.3	-19.4	18.5	0.00e+00	0	46	0	3456106496	10	14347
2026-01-29 21:48:17.48	231.17	12.41	-19.2	-19.3	18.6	0.00e+00	0	46	0	3565158400	10	14141
2026-01-29 21:48:18.46	231.37	12.49	-19.2	-19.3	18.7	0.00e+00	0	46	0	3682598912	10	14212
2026-01-29 21:48:19.44	231.58	12.56	-19.1	-19.2	18.7	0.00e+00	0	46	0	3791650816	10	14065
2026-01-29 21:48:20.43	231.79	12.64	-19.2	-19.2	18.7	0.00e+00	0	46	0	3900702720	10	14086
2026-01-29 21:48:21.41	232.00	12.71	-19.0	-19.1	18.7	0.00e+00	0	46	0	4009754624	10	13891
2026-01-29 21:48:22.40	232.21	12.79	-19.1	-19.2	18.8	0.00e+00	0	46	0	4118806528	10	13989
2026-01-29 21:48:23.38	232.42	12.86	-19.0	-19.1	18.8	0.00e+00	0	46	0	4236247040	10	13871
2026-01-29 21:48:24.37	232.63	12.94	-18.9	-19.0	18.8	0.00e+00	0	46	0	4345298944	9	14520
2026-01-29 21:48:25.35	232.85	13.01	-18.9	-18.9	18.8	0.00e+00	0	46	0	4454350848	9	14437
2026-01-29 21:48:26.34	233.07	13.09	-18.8	-18.9	18.8	0.00e+00	0	46	0	4563402752	9	14358
2026-01-29 21:48:27.32	233.28	13.16	-18.8	-18.9	18.7	0.00e+00	0	46	0	4680843264	9	14399
2026-01-29 21:48:28.31	233.50	13.24	-18.8	-18.9	18.8	0.00e+00	0	46	0	4789895168	9	14385
2026-01-29 21:48:29.30	233.72	13.31	-18.8	-18.8	18.8	0.00e+00	0	46	0	4898947072	9	14268
2026-01-29 21:48:30.29	233.94	13.39	-18.7	-18.8	18.8	0.00e+00	0	46	0	5007998976	9	14185
2026-01-29 21:48:31.28	234.17	13.46	-18.7	-18.8	18.7	0.00e+00	0	46	0	5117050880	9	14120
2026-01-29 21:48:32.26	234.39	13.54	-18.7	-18.8	18.8	0.00e+00	0	46	0	5234491392	9	14194
2026-01-29 21:48:33.25	234.62	13.61	-18.7	-18.8	18.7	0.00e+00	0	46	0	5343543296	9	14123
2026-01-29 21:48:34.23	234.84	13.69	-18.8	-18.9	18.6	0.00e+00	0	46	0	5452595200	9	14367
2026-01-29 21:48:35.21	235.07	13.76	-18.6	-18.7	18.7	0.00e+00	0	46	0	5561647104	9	14021
2026-01-29 21:48:36.19	235.29	13.83	-18.6	-18.6	18.7	0.00e+00	0	46	0	5670699008	9	13931
2026-01-29 21:48:37.18	235.53	13.91	-18.6	-18.7	18.6	0.00e+00	0	46	0	5788139520	9	13985
2026-01-29 21:48:38.16	235.76	13.98	-18.4	-18.5	18.6	0.00e+00	0	46	0	5897191424	8	14467
2026-01-29 21:48:39.14	235.99	14.06	-18.5	-18.6	18.7	0.00e+00	0	46	0	6006243328	8	14626
2026-01-29 21:48:40.13	236.22	14.13	-18.4	-18.5	18.6	0.00e+00	0	46	0	6115295232	8	14566
2026-01-29 21:48:41.11	236.46	14.20	-18.3	-18.4	18.7	0.00e+00	0	47	0	6232735744	8	14342
2026-01-29 21:48:42.11	236.70	14.28	-18.4	-18.5	18.6	0.00e+00	0	46	0	6333399040	8	14579
2026-01-29 21:48:43.09	236.93	14.35	-18.3	-18.3	18.6	0.00e+00	0	46	0	6450839552	8	14270
2026-01-29 21:48:44.07	237.17	14.43	-18.3	-18.4	18.6	0.00e+00	0	46	0	6559891456	8	14327
2026-01-29 21:48:45.05	237.41	14.50	-18.3	-18.4	18.6	0.00e+00	0	46	0	6668943360	8	14379
2026-01-29 21:48:46.04	237.65	14.57	-18.3	-18.4	18.6	0.00e+00	0	46	0	6777995264	8	14276
2026-01-29 21:48:47.03	237.90	14.65	-18.2	-18.3	18.5	0.00e+00	0	46	0	6895435776	8	14209
2026-01-29 21:48:48.01	238.14	14.72	-18.3	-18.3	18.3	0.00e+00	0	46	0	6996099072	8	14273
2026-01-29 21:48:48.99	238.39	14.79	-18.4	-18.4	18.3	0.00e+00	0	46	0	7113539584	8	14417
2026-01-29 21:48:49.98	238.64	14.86	-18.2	-18.3	18.3	0.00e+00	0	47	0	7222591488	8	14191
2026-01-29 21:48:50.96	238.88	14.94	-18.2	-18.3	18.3	0.00e+00	0	47	0	7340032000	8	14149
2026-01-29 21:48:51.94	239.13	15.01	-18.2	-18.3	18.4	0.00e+00	0	46	0	7440695296	8	14117
2026-01-29 21:48:52.92	239.38	15.08	-18.3	-18.4	18.3	0.00e+00	0	46	0	7558135808	8	14397
2026-01-29 21:48:53.90	239.64	15.15	-18.2	-18.3	18.2	0.00e+00	0	46	0	7667187712	8	14181
2026-01-29 21:48:54.88	239.89	15.22	-18.3	-18.3	18.2	0.00e+00	0	46	0	7776239616	8	14269
2026-01-29 21:48:55.86	240.14	15.29	-18.2	-18.3	18.3	0.00e+00	0	46	0	7885291520	8	14147
2026-01-29 21:48:56.85	240.40	15.36	-18.1	-18.2	18.1	0.00e+00	0	46	0	7994343424	8	14020
2026-01-29 21:48:57.83	240.66	15.44	-18.1	-18.2	18.3	0.00e+00	0	46	0	8111783936	8	13990
2026-01-29 21:48:58.81	240.92	15.51	-18.2	-18.3	18.3	0.00e+00	0	46	0	8220835840	8	14152
2026-01-29 21:48:59.80	241.18	15.58	-18.2	-18.2	18.1	0.00e+00	0	47	0	8329887744	8	14079
2026-01-29 21:49:00.79	241.44	15.65	-18.2	-18.3	18.2	0.00e+00	0	46	0	8438939648	8	14160
2026-01-29 21:49:01.78	241.71	15.72	-18.0	-18.1	18.1	0.00e+00	0	46	0	8556380160	8	13861
2026-01-29 21:49:02.76	241.97	15.79	-18.0	-18.1	18.3	0.00e+00	0	47	0	8665432064	8	13916
2026-01-29 21:49:03.74	242.24	15.86	-18.0	-18.1	18.1	0.00e+00	0	46	0	8774483968	8	13882
2026-01-29 21:49:04.72	242.51	15.93	-18.0	-18.1	18.2	0.00e+00	0	46	0	8883535872	8	13830
2026-01-29 21:49:05.71	242.78	15.99	-18.1	-18.1	18.1	0.00e+00	0	46	0	9000976384	7	14749
2026-01-29 21:49:06.69	243.05	16.06	-18.2	-18.2	18.3	0.00e+00	0	46	0	9101639680	7	14936
2026-01-29 21:49:07.69	243.32	16.13	-18.1	-18.1	18.0	0.00e+00	0	47	0	9219080192	7	14775
2026-01-29 21:49:08.67	243.60	16.20	-18.0	-18.0	18.0	0.00e+00	0	46	0	9328132096	7	14585
2026-01-29 21:49:09.65	243.87	16.27	-17.8	-17.9	18.0	0.00e+00	0	46	0	9437184000	7	14316
2026-01-29 21:49:10.63	244.15	16.33	-17.9	-17.9	17.6	0.00e+00	0	46	0	9546235904	7	14407
2026-01-29 21:49:11.62	244.43	16.40	-17.8	-17.9	17.9	0.00e+00	0	47	0	9663676416	7	14339
2026-01-29 21:49:12.61	244.71	16.47	-17.8	-17.8	18.0	0.00e+00	0	47	0	9764339712	7	14260
2026-01-29 21:49:13.59	244.99	16.54	-17.7	-17.7	17.5	0.00e+00	0	47	0	9881780224	7	14092
2026-01-29 21:49:14.56	245.27	16.60	-17.8	-17.8	17.6	0.00e+00	0	47	0	9990832128	7	14253
2026-01-29 21:49:15.54	245.55	16.67	-17.7	-17.7	17.7	0.00e+00	0	47	0	10099884032	7	14107
2026-01-29 21:49:16.53	245.83	16.73	-17.6	-17.7	17.7	0.00e+00	0	47	0	10208935936	7	14043
2026-01-29 21:49:17.51	246.12	16.80	-17.6	-17.7	17.5	0.00e+00	0	47	0	10317987840	7	14042
2026-01-29 21:49:18.49	246.41	16.86	-17.6	-17.7	17.2	0.00e+00	0	47	0	10427039744	7	14000
2026-01-29 21:49:19.47	246.69	16.92	-17.6	-17.7	17.4	0.00e+00	0	47	0	10544480256	7	14030
2026-01-29 21:49:20.46	246.99	16.99	-17.6	-17.6	17.7	0.00e+00	0	47	0	10653532160	7	13923
2026-01-29 21:49:21.45	247.28	17.05	-17.7	-17.8	17.6	0.00e+00	0	47	0	10762584064	7	14129
2026-01-29 21:49:22.43	247.57	17.11	-17.6	-17.7	17.5	0.00e+00	0	46	0	10871635968	7	14007
2026-01-29 21:49:23.42	247.87	17.18	-17.6	-17.7	17.2	0.00e+00	0	47	0	10989076480	7	14022
2026-01-29 21:49:24.40	248.16	17.24	-17.5	-17.6	17.4	0.00e+00	0	47	0	11098128384	7	13817
2026-01-29 21:49:25.37	248.46	17.30	-17.6	-17.7	17.0	0.00e+00	0	47	0	11207180288	7	14058
2026-01-29 21:49:26.36	248.76	17.36	-17.4	-17.5	16.9	0.00e+00	0	47	0	11316232192	6	14494
2026-01-29 21:49:27.34	249.05	17.42	-17.5	-17.6	17.2	0.00e+00	0	46	0	11425284096	6	14655
2026-01-29 21:49:28.32	249.35	17.48	-17.5	-17.6	16.9	0.00e+00	0	46	0	11542724608	6	14682
2026-01-29 21:49:29.31	249.66	17.54	-17.4	-17.4	17.1	0.00e+00	0	47	0	11643387904	6	14428
2026-01-29 21:49:30.29	249.96	17.60	-17.3	-17.4	17.0	0.00e+00	0	46	0	11760828416	6	14315
2026-01-29 21:49:31.27	250.27	17.65	-17.3	-17.4	17.1	0.00e+00	0	46	0	11869880320	6	14293
2026-01-29 21:49:32.26	250.57	17.71	-17.3	-17.3	17.1	0.00e+00	0	47	0	11987320832	6	14244
2026-01-29 21:49:33.24	250.88	17.77	-17.2	-17.3	16.8	0.00e+00	0	47	0	12087984128	6	14165
2026-01-29 21:49:34.23	251.19	17.83	-17.2	-17.3	16.9	0.00e+00	0	47	0	12205424640	6	14131
2026-01-29 21:49:35.21	251.50	17.88	-17.2	-17.2	16.7	0.00e+00	0	47	0	12314476544	6	14104
2026-01-29 21:49:36.19	251.81	17.94	-17.2	-17.3	16.5	0.00e+00	0	47	0	12423528448	6	14180
2026-01-29 21:49:37.17	252.12	17.99	-17.1	-17.2	16.7	0.00e+00	0	47	0	12532580352	6	14019
2026-01-29 21:49:38.15	252.44	18.05	-17.1	-17.2	16.9	0.00e+00	0	47	0	12641632256	6	13959
2026-01-29 21:49:39.14	252.75	18.10	-17.1	-17.1	16.7	0.00e+00	0	47	0	12750684160	6	13912
2026-01-29 21:49:40.12	253.07	18.15	-17.2	-17.2	16.4	0.00e+00	0	47	0	12868124672	6	14097
2026-01-29 21:49:41.11	253.39	18.20	-17.1	-17.1	16.8	0.00e+00	0	47	0	12977176576	6	13948
2026-01-29 21:49:42.08	253.70	18.26	-17.1	-17.1	16.8	0.00e+00	0	46	0	13086228480	6	13919
2026-01-29 21:49:43.07	254.02	18.31	-17.1	-17.2	16.4	0.00e+00	0	47	0	13195280384	6	13987
2026-01-29 21:49:44.05	254.34	18.36	-17.1	-17.2	16.6	0.00e+00	0	47	0	13304332288	6	14057
2026-01-29 21:49:45.04	254.67	18.41	-17.1	-17.2	16.7	0.00e+00	0	47	0	13421772800	6	14060
2026-01-29 21:49:46.02	254.99	18.46	-17.2	-17.2	16.5	0.00e+00	0	47	0	13530824704	6	14065
2026-01-29 21:49:47.01	255.32	18.50	-17.0	-17.1	16.7	0.00e+00	0	47	0	13639876608	6	13833
2026-01-29 21:49:47.98	255.64	18.55	-16.9	-17.0	16.7	0.00e+00	0	47	0	13748928512	5	14446
2026-01-29 21:49:48.97	255.97	18.60	-16.9	-17.0	16.5	0.00e+00	0	46	0	13866369024	5	14507
2026-01-29 21:49:49.95	256.30	18.64	-16.9	-17.0	16.9	0.00e+00	0	47	0	13967032320	5	14453
2026-01-29 21:49:50.93	256.63	18.69	-16.9	-17.0	16.6	0.00e+00	0	47	0	14084472832	5	14477
2026-01-29 21:49:51.92	256.96	18.73	-16.9	-17.0	16.8	0.00e+00	0	47	0	14193524736	5	14560
2026-01-29 21:49:52.91	257.29	18.78	-16.9	-17.0	16.6	0.00e+00	0	47	0	14310965248	5	14523
2026-01-29 21:49:53.88	257.62	18.82	-16.9	-17.0	17.0	0.00e+00	0	47	0	14411628544	5	14526
2026-01-29 21:49:54.87	257.96	18.86	-17.0	-17.1	16.5	0.00e+00	0	47	0	14529069056	5	14621
2026-01-29 21:49:55.85	258.29	18.91	-17.0	-17.1	16.9	0.00e+00	0	47	0	14629732352	5	14648
2026-01-29 21:49:56.84	258.63	18.95	-17.0	-17.1	16.6	0.00e+00	0	47	0	14747172864	5	14730
2026-01-29 21:49:57.82	258.96	18.99	-16.8	-16.9	17.1	0.00e+00	0	46	0	14856224768	5	14342
2026-01-29 21:49:58.80	259.30	19.03	-16.8	-16.9	17.0	0.00e+00	0	47	0	14965276672	5	14408
2026-01-29 21:49:59.79	259.64	19.06	-16.8	-16.9	16.8	0.00e+00	0	47	0	15074328576	5	14361
2026-01-29 21:50:00.77	259.98	19.10	-16.8	-16.9	17.2	0.00e+00	0	47	0	15191769088	5	14344
2026-01-29 21:50:01.76	260.32	19.14	-16.8	-16.9	16.8	0.00e+00	0	47	0	15300820992	5	14377
2026-01-29 21:50:02.74	260.66	19.17	-16.8	-16.9	17.1	0.00e+00	0	47	0	15409872896	5	14306
2026-01-29 21:50:03.72	261.00	19.21	-16.8	-16.8	17.3	0.00e+00	0	47	0	15518924800	5	14262
2026-01-29 21:50:04.70	261.34	19.24	-16.8	-16.9	17.0	0.00e+00	0	47	0	15627976704	5	14305
2026-01-29 21:50:05.68	261.68	19.28	-16.8	-16.9	17.0	0.00e+00	0	47	0	15737028608	5	14285
2026-01-29 21:50:06.66	262.03	19.31	-16.8	-16.9	17.3	0.00e+00	0	47	0	15854469120	5	14277
2026-01-29 21:50:07.65	262.38	19.34	-16.8	-16.9	17.0	0.00e+00	0	46	0	15963521024	5	14346
2026-01-29 21:50:08.63	262.72	19.37	-16.8	-16.9	16.8	0.00e+00	0	47	0	16072572928	5	14329
2026-01-29 21:50:09.60	263.06	19.40	-16.8	-16.9	17.0	0.00e+00	0	47	0	16181624832	5	14313
2026-01-29 21:50:10.57	263.41	19.43	-16.8	-16.9	17.4	0.00e+00	0	47	0	16290676736	5	14284
2026-01-29 21:50:11.54	263.75	19.46	-16.8	-16.9	17.5	0.00e+00	0	46	0	16399728640	5	14275
2026-01-29 21:50:12.51	264.09	19.48	-16.8	-16.9	17.3	0.00e+00	0	47	0	16508780544	5	14356
2026-01-29 21:50:13.47	264.44	19.51	-16.8	-16.9	17.0	0.00e+00	0	47	0	16617832448	5	14330
2026-01-29 21:50:14.44	264.78	19.53	-16.7	-16.8	17.1	0.00e+00	0	47	0	16726884352	5	14216
2026-01-29 21:50:15.41	265.13	19.56	-16.8	-16.8	17.2	0.00e+00	0	47	0	16835936256	5	14230
2026-01-29 21:50:16.38	265.47	19.58	-16.7	-16.8	17.1	0.00e+00	0	47	0	16944988160	5	14116
2026-01-29 21:50:17.35	265.82	19.60	-16.8	-16.8	17.1	0.00e+00	0	47	0	17054040064	5	14250
2026-01-29 21:50:18.32	266.17	19.63	-16.7	-16.8	17.3	0.00e+00	0	47	0	17163091968	5	14125
2026-01-29 21:50:19.29	266.52	19.65	-16.7	-16.8	17.4	0.00e+00	0	47	0	17272143872	5	14209
2026-01-29 21:50:20.26	266.87	19.67	-16.7	-16.8	17.4	0.00e+00	0	47	0	17381195776	5	14142
2026-01-29 21:50:21.23	267.22	19.68	-16.7	-16.8	17.5	0.00e+00	0	47	0	17490247680	5	14170
2026-01-29 21:50:22.19	267.56	19.70	-16.7	-16.8	17.5	0.00e+00	0	47	0	17599299584	5	14131
2026-01-29 21:50:23.16	267.91	19.72	-16.7	-16.8	17.6	0.00e+00	0	47	0	17708351488	5	14193
2026-01-29 21:50:24.13	268.26	19.73	-16.7	-16.8	17.7	0.00e+00	0	47	0	17817403392	5	14171
2026-01-29 21:50:25.10	268.61	19.75	-16.7	-16.8	17.6	0.00e+00	0	47	0	17926455296	5	14188
2026-01-29 21:50:26.07	268.97	19.76	-16.8	-16.9	17.8	0.00e+00	0	47	0	18035507200	5	14281
2026-01-29 21:50:27.03	269.31	19.77	-16.9	-16.9	17.8	0.00e+00	0	47	0	18144559104	5	14428
2026-01-29 21:50:28.00	269.67	19.79	-16.8	-16.9	17.9	0.00e+00	0	47	0	18253611008	5	14307
2026-01-29 21:50:28.97	270.02	19.80	-16.9	-17.0	18.0	0.00e+00	0	47	0	18362662912	5	14458
2026-01-29 21:50:29.94	270.37	19.81	-17.0	-17.0	18.3	0.00e+00	0	47	0	18471714816	5	14606
2026-01-29 21:50:30.91	270.72	19.82	-16.9	-17.0	18.4	0.00e+00	0	47	0	18580766720	5	14572
2026-01-29 21:50:31.88	271.08	19.82	-16.9	-17.0	18.3	0.00e+00	0	47	0	18689818624	5	14449
2026-01-29 21:50:32.84	271.43	19.83	-16.8	-16.9	18.2	0.00e+00	0	47	0	18798870528	5	14352
2026-01-29 21:50:33.82	271.78	19.84	-16.9	-17.0	18.3	0.00e+00	0	47	0	18907922432	5	14518
2026-01-29 21:50:34.78	272.13	19.84	-16.8	-16.9	18.4	0.00e+00	0	47	0	19016974336	5	14367
2026-01-29 21:50:35.76	272.49	19.85	-16.8	-16.9	18.6	0.00e+00	0	47	0	19117637632	5	14337
2026-01-29 21:50:36.72	272.84	19.85	-16.9	-17.0	18.7	0.00e+00	0	47	0	19235078144	5	14529
2026-01-29 21:50:37.70	273.20	19.85	-17.0	-17.1	18.7	0.00e+00	0	47	0	19344130048	5	14624
2026-01-29 21:50:38.67	273.55	19.85	-17.0	-17.1	18.6	0.00e+00	0	47	0	19453181952	5	14625
2026-01-29 21:50:39.64	273.90	19.85	-17.0	-17.0	18.8	0.00e+00	0	47	0	19562233856	5	14591
2026-01-29 21:50:40.61	274.26	19.85	-17.0	-17.1	18.9	0.00e+00	0	47	0	19671285760	5	14699
2026-01-29 21:50:41.58	274.61	19.85	-17.0	-17.0	18.8	0.00e+00	0	47	0	19780337664	5	14575
2026-01-29 21:50:42.55	274.96	19.85	-17.0	-17.0	19.1	0.00e+00	0	47	0	19889389568	5	14585
2026-01-29 21:50:43.53	275.32	19.84	-16.9	-17.0	19.2	0.00e+00	0	47	0	19998441472	5	14553
2026-01-29 21:50:44.50	275.68	19.84	-17.0	-17.1	19.1	0.00e+00	0	47	0	20107493376	5	14728
2026-01-29 21:50:45.47	276.03	19.83	-17.1	-17.1	19.1	0.00e+00	0	47	0	20216545280	5	14754
2026-01-29 21:50:46.43	276.38	19.82	-17.0	-17.0	19.1	0.00e+00	0	47	0	20325597184	5	14596
2026-01-29 21:50:47.41	276.73	19.82	-17.0	-17.1	19.1	0.00e+00	0	47	0	20434649088	5	14728
2026-01-29 21:50:48.38	277.09	19.81	-17.1	-17.1	19.3	0.00e+00	0	47	0	20543700992	5	14763
2026-01-29 21:50:49.35	277.44	19.80	-17.1	-17.2	19.0	0.00e+00	0	47	0	20652752896	5	14861
2026-01-29 21:50:50.32	277.79	19.79	-17.2	-17.2	19.2	0.00e+00	0	47	0	20761804800	5	14920
2026-01-29 21:50:51.29	278.14	19.78	-17.2	-17.3	19.2	0.00e+00	0	47	0	20870856704	5	15066
2026-01-29 21:50:52.26	278.49	19.76	-17.2	-17.3	19.2	0.00e+00	0	47	0	20979908608	5	14952
2026-01-29 21:50:53.22	278.84	19.75	-17.3	-17.3	19.1	0.00e+00	0	47	0	21088960512	5	15099
2026-01-29 21:50:54.19	279.19	19.73	-17.2	-17.3	19.2	0.00e+00	0	47	0	21198012416	5	15083
2026-01-29 21:50:55.16	279.54	19.72	-17.2	-17.3	19.2	0.00e+00	0	47	0	21307064320	5	14981
2026-01-29 21:50:56.13	279.89	19.70	-17.2	-17.3	19.4	0.00e+00	0	47	0	21416116224	5	14976
2026-01-29 21:50:57.09	280.24	19.69	-17.2	-17.3	19.3	0.00e+00	0	47	0	21525168128	5	15045
2026-01-29 21:50:58.07	280.59	19.67	-17.2	-17.3	19.2	0.00e+00	0	47	0	21634220032	5	14958
2026-01-29 21:50:59.03	280.94	19.65	-17.3	-17.4	18.9	0.00e+00	0	47	0	21743271936	5	15200
2026-01-29 21:51:00.00	281.29	19.63	-17.3	-17.4	19.2	0.00e+00	0	47	0	21852323840	5	15225
2026-01-29 21:51:00.97	281.63	19.61	-17.3	-17.3	19.1	0.00e+00	0	47	0	21961375744	5	15104
2026-01-29 21:51:01.94	281.98	19.58	-17.3	-17.4	19.1	0.00e+00	0	47	0	22070427648	5	15175
2026-01-29 21:51:02.90	282.32	19.56	-17.4	-17.5	19.2	0.00e+00	0	47	0	22179479552	5	15368
2026-01-29 21:51:03.87	282.67	19.54	-17.3	-17.4	19.0	0.00e+00	0	47	0	22288531456	5	15140
2026-01-29 21:51:04.84	283.01	19.51	-17.3	-17.4	19.0	0.00e+00	0	47	0	22397583360	5	15153
2026-01-29 21:51:05.81	283.36	19.49	-17.4	-17.5	18.9	0.00e+00	0	47	0	22506635264	5	15322
2026-01-29 21:51:06.78	283.70	19.46	-17.4	-17.5	18.9	0.00e+00	0	47	0	22615687168	5	15313
2026-01-29 21:51:07.75	284.04	19.43	-17.4	-17.5	19.1	0.00e+00	0	47	0	22724739072	5	15383
2026-01-29 21:51:08.72	284.39	19.40	-17.4	-17.4	18.9	0.00e+00	0	47	0	22833790976	5	15276
2026-01-29 21:51:09.69	284.73	19.38	-17.5	-17.6	18.6	0.00e+00	0	47	0	22942842880	5	15526
2026-01-29 21:51:10.67	285.07	19.34	-17.5	-17.6	19.0	0.00e+00	0	47	0	23051894784	5	15491
2026-01-29 21:51:11.64	285.41	19.31	-17.5	-17.6	19.0	0.00e+00	0	47	0	23160946688	5	15515
2026-01-29 21:51:12.61	285.75	19.28	-17.5	-17.6	18.7	0.00e+00	0	47	0	23269998592	5	15613
2026-01-29 21:51:13.58	286.09	19.25	-17.6	-17.7	18.7	0.00e+00	0	47	0	23379050496	5	15789
2026-01-29 21:51:14.55	286.43	19.22	-17.6	-17.7	18.8	0.00e+00	0	47	0	23488102400	5	15658
2026-01-29 21:51:15.52	286.77	19.18	-17.8	-17.9	19.1	0.00e+00	0	47	0	23597154304	6	15127
2026-01-29 21:51:16.48	287.10	19.15	-17.8	-17.9	19.0	0.00e+00	0	47	0	23706206208	6	15164
2026-01-29 21:51:17.46	287.44	19.11	-17.7	-17.8	18.7	0.00e+00	0	47	0	23815258112	6	15058
2026-01-29 21:51:18.42	287.77	19.07	-17.7	-17.8	18.5	0.00e+00	0	47	0	23924310016	6	15027
2026-01-29 21:51:19.39	288.10	19.04	-17.8	-17.9	18.4	0.00e+00	0	47	0	24033361920	6	15144
2026-01-29 21:51:20.36	288.43	19.00	-17.8	-17.9	18.7	0.00e+00	0	47	0	24142413824	6	15127
2026-01-29 21:51:21.33	288.77	18.96	-17.8	-17.9	18.8	0.00e+00	0	47	0	24251465728	6	15220
2026-01-29 21:51:22.30	289.10	18.92	-17.8	-17.9	18.7	0.00e+00	0	47	0	24360517632	6	15211
2026-01-29 21:51:23.27	289.43	18.88	-17.9	-17.9	18.5	0.00e+00	0	47	0	24469569536	6	15265
2026-01-29 21:51:24.23	289.75	18.84	-18.0	-18.0	18.3	0.00e+00	0	47	0	24578621440	6	15440
2026-01-29 21:51:25.20	290.08	18.79	-17.9	-18.0	18.3	0.00e+00	0	47	0	24687673344	6	15330
2026-01-29 21:51:26.17	290.41	18.75	-17.9	-18.0	18.1	0.00e+00	0	47	0	24796725248	6	15406
2026-01-29 21:51:27.14	290.73	18.71	-18.0	-18.1	18.0	0.00e+00	0	47	0	24905777152	6	15550
2026-01-29 21:51:28.10	291.05	18.66	-18.0	-18.1	18.0	0.00e+00	0	47	0	25014829056	6	15610
2026-01-29 21:51:29.08	291.38	18.62	-17.9	-18.0	18.2	0.00e+00	0	47	0	25123880960	6	15362
2026-01-29 21:51:30.04	291.70	18.57	-17.9	-18.0	18.2	0.00e+00	0	47	0	25232932864	6	15411
2026-01-29 21:51:31.01	292.02	18.53	-17.9	-18.0	18.2	0.00e+00	0	47	0	25341984768	6	15438
2026-01-29 21:51:31.98	292.34	18.48	-18.0	-18.1	18.2	0.00e+00	0	47	0	25451036672	6	15485
2026-01-29 21:51:32.95	292.66	18.43	-18.1	-18.2	18.3	0.00e+00	0	47	0	25560088576	6	15751
2026-01-29 21:51:33.92	292.98	18.38	-18.1	-18.1	18.3	0.00e+00	0	47	0	25669140480	6	15641
2026-01-29 21:51:34.89	293.29	18.33	-18.1	-18.2	18.2	0.00e+00	0	47	0	25778192384	6	15783
2026-01-29 21:51:35.86	293.61	18.28	-18.0	-18.1	18.2	0.00e+00	0	47	0	25887244288	6	15510
2026-01-29 21:51:36.83	293.92	18.23	-18.1	-18.2	18.3	0.00e+00	0	47	0	25996296192	6	15659
2026-01-29 21:51:37.79	294.23	18.18	-18.2	-18.3	18.6	0.00e+00	0	47	0	26105348096	6	15879
2026-01-29 21:51:38.77	294.55	18.13	-18.1	-18.2	18.6	0.00e+00	0	47	0	26214400000	6	15658
2026-01-29 21:51:39.74	294.86	18.08	-18.1	-18.2	18.6	0.00e+00	0	47	0	26323451904	6	15727
2026-01-29 21:51:40.71	295.17	18.03	-18.2	-18.3	18.6	0.00e+00	0	47	0	26432503808	7	15009
2026-01-29 21:51:41.68	295.48	17.97	-18.1	-18.2	18.6	0.00e+00	0	47	0	26541555712	7	14797
2026-01-29 21:51:42.65	295.78	17.92	-18.1	-18.2	18.4	0.00e+00	0	47	0	26650607616	7	14802
2026-01-29 21:51:43.62	296.09	17.86	-18.2	-18.3	18.3	0.00e+00	0	47	0	26759659520	7	15000
2026-01-29 21:51:44.59	296.39	17.81	-18.1	-18.2	18.4	0.00e+00	0	47	0	26868711424	7	14884
2026-01-29 21:51:45.56	296.70	17.75	-18.2	-18.3	18.5	0.00e+00	0	47	0	26977763328	7	14979
2026-01-29 21:51:46.53	297.00	17.70	-18.2	-18.2	18.7	0.00e+00	0	47	0	27086815232	7	14927
2026-01-29 21:51:47.50	297.30	17.64	-18.3	-18.4	18.7	0.00e+00	0	47	0	27195867136	7	15230
2026-01-29 21:51:48.47	297.60	17.58	-18.4	-18.5	18.6	0.00e+00	0	47	0	27304919040	7	15305
2026-01-29 21:51:49.44	297.90	17.53	-18.3	-18.4	18.6	0.00e+00	0	47	0	27413970944	7	15169
2026-01-29 21:51:50.41	298.20	17.47	-18.3	-18.4	18.8	0.00e+00	0	47	0	27523022848	7	15243
2026-01-29 21:51:51.37	298.49	17.41	-18.5	-18.6	18.8	0.00e+00	0	47	0	27632074752	7	15503
2026-01-29 21:51:52.34	298.78	17.35	-18.6	-18.6	18.6	0.00e+00	0	47	0	27741126656	8	14768
2026-01-29 21:51:53.32	299.08	17.29	-18.4	-18.4	18.7	0.00e+00	0	47	0	27850178560	8	14380
2026-01-29 21:51:54.29	299.37	17.23	-18.2	-18.3	18.9	0.00e+00	0	47	0	27959230464	8	14164
2026-01-29 21:51:55.25	299.66	17.17	-18.3	-18.3	18.8	0.00e+00	0	47	0	28068282368	8	14273
2026-01-29 21:51:56.23	299.95	17.11	-18.3	-18.3	18.7	0.00e+00	0	47	0	28177334272	8	14257
2026-01-29 21:51:57.20	300.24	17.05	-18.4	-18.5	19.0	0.00e+00	0	47	0	28286386176	8	14572
2026-01-29 21:51:58.17	300.52	16.98	-18.2	-18.3	19.1	0.00e+00	0	47	0	28395438080	8	14212
2026-01-29 21:51:59.14	300.81	16.92	-18.3	-18.4	18.9	0.00e+00	0	47	0	28504489984	8	14305
2026-01-29 21:52:00.11	301.09	16.86	-18.3	-18.4	19.2	0.00e+00	0	47	0	28613541888	8	14379
2026-01-29 21:52:01.08	301.37	16.80	-18.3	-18.4	19.2	0.00e+00	0	47	0	28722593792	8	14282
2026-01-29 21:52:02.05	301.66	16.73	-18.3	-18.3	19.2	0.00e+00	0	47	0	28831645696	8	14273
2026-01-29 21:52:03.02	301.94	16.67	-18.2	-18.3	19.3	0.00e+00	0	47	0	28940697600	8	14156
2026-01-29 21:52:03.99	302.21	16.60	-18.1	-18.2	19.2	0.00e+00	0	47	0	29049749504	8	13971
2026-01-29 21:52:04.97	302.49	16.54	-18.2	-18.2	19.3	0.00e+00	0	47	0	29158801408	8	14093
2026-01-29 21:52:05.93	302.77	16.47	-18.3	-18.4	19.1	0.00e+00	0	47	0	29267853312	8	14324
2026-01-29 21:52:06.91	303.04	16.41	-18.1	-18.2	19.3	0.00e+00	0	47	0	29376905216	8	13994
2026-01-29 21:52:07.88	303.32	16.34	-18.2	-18.3	19.1	0.00e+00	0	47	0	29485957120	8	14241
2026-01-29 21:52:08.85	303.59	16.28	-18.2	-18.3	19.3	0.00e+00	0	47	0	29595009024	8	14181
2026-01-29 21:52:09.82	303.86	16.21	-18.3	-18.3	19.1	0.00e+00	0	47	0	29704060928	8	14248
2026-01-29 21:52:10.79	304.13	16.14	-18.5	-18.6	19.2	0.00e+00	0	47	0	29813112832	8	14630
2026-01-29 21:52:11.76	304.39	16.08	-18.3	-18.4	19.1	0.00e+00	0	47	0	29930553344	8	14388
2026-01-29 21:52:12.73	304.66	16.01	-18.3	-18.4	19.2	0.00e+00	0	47	0	30031216640	8	14370
2026-01-29 21:52:13.69	304.92	15.94	-18.4	-18.4	19.1	0.00e+00	0	47	0	30140268544	8	14433
2026-01-29 21:52:14.66	305.19	15.87	-18.3	-18.4	19.1	0.00e+00	0	47	0	30257709056	8	14329
2026-01-29 21:52:15.63	305.45	15.81	-18.4	-18.5	19.1	0.00e+00	0	47	0	30358372352	8	14516
2026-01-29 21:52:16.60	305.71	15.74	-18.4	-18.5	19.0	0.00e+00	0	47	0	30467424256	8	14494
2026-01-29 21:52:17.57	305.97	15.67	-18.5	-18.6	19.1	0.00e+00	0	47	0	30576476160	8	14617
2026-01-29 21:52:18.55	306.23	15.60	-18.4	-18.5	19.0	0.00e+00	0	47	0	30685528064	8	14451
2026-01-29 21:52:19.51	306.48	15.53	-18.4	-18.5	19.0	0.00e+00	0	47	0	30802968576	8	14542
2026-01-29 21:52:20.48	306.74	15.46	-18.5	-18.5	19.1	0.00e+00	0	47	0	30903631872	8	14590
2026-01-29 21:52:21.45	306.99	15.39	-18.6	-18.7	18.9	0.00e+00	0	47	0	31012683776	8	14863
2026-01-29 21:52:22.42	307.25	15.32	-18.6	-18.7	19.0	0.00e+00	0	47	0	31121735680	8	14785
2026-01-29 21:52:23.39	307.50	15.25	-18.6	-18.7	19.0	0.00e+00	0	47	0	31230787584	8	14875
2026-01-29 21:52:24.36	307.75	15.18	-18.6	-18.7	19.0	0.00e+00	0	47	0	31339839488	8	14794
2026-01-29 21:52:25.32	307.99	15.11	-18.6	-18.7	18.8	0.00e+00	0	47	0	31448891392	8	14781
2026-01-29 21:52:26.29	308.24	15.04	-18.6	-18.7	19.0	0.00e+00	0	47	0	31557943296	8	14858
2026-01-29 21:52:27.26	308.49	14.97	-18.6	-18.7	18.9	0.00e+00	0	47	0	31666995200	8	14863
2026-01-29 21:52:28.23	308.73	14.90	-18.7	-18.8	18.8	0.00e+00	0	47	0	31776047104	8	15005
2026-01-29 21:52:29.20	308.97	14.83	-18.8	-18.9	18.8	0.00e+00	0	47	0	31885099008	8	15222
2026-01-29 21:52:30.17	309.22	14.76	-18.8	-18.9	19.0	0.00e+00	0	47	0	31994150912	8	15163
2026-01-29 21:52:31.14	309.46	14.69	-18.7	-18.8	18.9	0.00e+00	0	47	0	32103202816	8	14971
2026-01-29 21:52:32.11	309.70	14.62	-18.9	-19.0	18.9	0.00e+00	0	47	0	32220643328	8	15301
2026-01-29 21:52:33.08	309.93	14.54	-18.8	-18.9	18.8	0.00e+00	0	47	0	32321306624	8	15191
2026-01-29 21:52:34.05	310.17	14.47	-18.8	-18.9	18.8	0.00e+00	0	47	0	32430358528	8	15220
2026-01-29 21:52:35.02	310.41	14.40	-18.9	-19.0	18.9	0.00e+00	0	47	0	32539410432	8	15361
2026-01-29 21:52:35.99	310.64	14.33	-18.9	-19.0	19.0	0.00e+00	0	47	0	32648462336	8	15389
2026-01-29 21:52:36.96	310.87	14.26	-18.9	-19.0	18.9	0.00e+00	0	47	0	32757514240	8	15313
2026-01-29 21:52:37.93	311.10	14.18	-18.9	-19.0	18.8	0.00e+00	0	47	0	32866566144	8	15396
2026-01-29 21:52:38.90	311.33	14.11	-18.9	-19.0	18.9	0.00e+00	0	47	0	32975618048	8	15443
2026-01-29 21:52:39.86	311.56	14.04	-19.0	-19.1	18.8	0.00e+00	0	47	0	33084669952	8	15544
2026-01-29 21:52:40.83	311.79	13.97	-19.1	-19.2	18.7	0.00e+00	0	47	0	33193721856	8	15734
2026-01-29 21:52:41.80	312.01	13.89	-19.0	-19.1	18.8	0.00e+00	0	47	0	33302773760	8	15568
2026-01-29 21:52:42.78	312.24	13.82	-19.1	-19.2	18.6	0.00e+00	0	47	0	33411825664	8	15723
2026-01-29 21:52:43.74	312.46	13.75	-19.0	-19.1	18.7	0.00e+00	0	47	0	33520877568	8	15541
2026-01-29 21:52:44.72	312.69	13.67	-19.0	-19.1	18.7	0.00e+00	0	47	0	33638318080	8	15561
2026-01-29 21:52:45.68	312.91	13.60	-19.2	-19.2	18.6	0.00e+00	0	47	0	33738981376	8	15816
2026-01-29 21:52:46.66	313.13	13.53	-19.3	-19.4	18.7	0.00e+00	0	47	0	33856421888	9	15160
2026-01-29 21:52:47.62	313.35	13.46	-19.3	-19.4	18.7	0.00e+00	0	47	0	33957085184	9	15129
2026-01-29 21:52:48.59	313.56	13.38	-19.3	-19.3	18.6	0.00e+00	0	47	0	34066137088	9	15084
2026-01-29 21:52:49.56	313.78	13.31	-19.3	-19.4	18.7	0.00e+00	0	47	0	34183577600	9	15167
2026-01-29 21:52:50.53	313.99	13.24	-19.2	-19.3	18.8	0.00e+00	0	47	0	34284240896	9	15057
2026-01-29 21:52:51.50	314.21	13.16	-19.2	-19.3	18.8	0.00e+00	0	47	0	34393292800	9	15082
2026-01-29 21:52:52.47	314.42	13.09	-19.2	-19.3	18.8	0.00e+00	0	47	0	34502344704	9	15020
2026-01-29 21:52:53.43	314.63	13.02	-19.4	-19.4	18.7	0.00e+00	0	47	0	34611396608	9	15264
2026-01-29 21:52:54.40	314.84	12.94	-19.3	-19.4	18.6	0.00e+00	0	47	0	34720448512	9	15244
2026-01-29 21:52:55.37	315.05	12.87	-19.4	-19.5	18.5	0.00e+00	0	47	0	34829500416	9	15321
2026-01-29 21:52:56.34	315.26	12.80	-19.4	-19.5	18.6	0.00e+00	0	47	0	34938552320	9	15357
2026-01-29 21:52:57.32	315.47	12.72	-19.5	-19.6	18.7	0.00e+00	0	47	0	35047604224	9	15510
2026-01-29 21:52:58.28	315.67	12.65	-19.5	-19.6	18.6	0.00e+00	0	47	0	35156656128	9	15522
2026-01-29 21:52:59.25	315.87	12.58	-19.4	-19.5	18.3	0.00e+00	0	47	0	35265708032	9	15421
2026-01-29 21:53:00.22	316.08	12.50	-19.4	-19.5	18.2	0.00e+00	0	47	0	35374759936	9	15388
2026-01-29 21:53:01.19	316.28	12.43	-19.5	-19.6	18.2	0.00e+00	0	47	0	35483811840	9	15595
2026-01-29 21:53:02.17	316.48	12.36	-19.5	-19.6	18.2	0.00e+00	0	47	0	35601252352	9	15601
2026-01-29 21:53:03.14	316.68	12.28	-19.5	-19.6	18.2	0.00e+00	0	47	0	35701915648	9	15562
2026-01-29 21:53:04.11	316.88	12.21	-19.7	-19.7	18.1	0.00e+00	0	47	0	35819356160	9	15800
2026-01-29 21:53:05.08	317.08	12.13	-19.8	-19.9	17.8	0.00e+00	0	47	0	35920019456	10	15141
2026-01-29 21:53:06.05	317.27	12.06	-19.8	-19.9	18.0	0.00e+00	0	47	0	36029071360	10	15224
2026-01-29 21:53:07.02	317.47	11.99	-19.7	-19.7	17.9	0.00e+00	0	47	0	36146511872	10	14935
2026-01-29 21:53:07.99	317.66	11.91	-19.9	-20.0	17.7	0.00e+00	0	47	0	36247175168	10	15329
2026-01-29 21:53:08.95	317.85	11.84	-19.8	-19.9	18.0	0.00e+00	0	47	0	36356227072	10	15133
2026-01-29 21:53:09.92	318.04	11.77	-19.9	-20.0	18.0	0.00e+00	0	47	0	36465278976	10	15360
2026-01-29 21:53:10.89	318.24	11.70	-19.8	-19.9	17.8	0.00e+00	0	47	0	36574330880	10	15264
2026-01-29 21:53:11.86	318.42	11.62	-19.9	-20.0	18.0	0.00e+00	0	47	0	36683382784	10	15299
2026-01-29 21:53:12.82	318.61	11.55	-20.0	-20.1	18.0	0.00e+00	0	47	0	36792434688	10	15500
2026-01-29 21:53:13.80	318.80	11.48	-20.0	-20.1	17.9	0.00e+00	0	47	0	36901486592	10	15568
2026-01-29 21:53:14.76	318.98	11.40	-20.1	-20.2	18.2	0.00e+00	0	47	0	37010538496	10	15750
2026-01-29 21:53:15.74	319.17	11.33	-20.1	-20.1	18.0	0.00e+00	0	47	0	37119590400	10	15625
2026-01-29 21:53:16.70	319.35	11.26	-20.1	-20.1	18.2	0.00e+00	0	47	0	37228642304	10	15627
2026-01-29 21:53:17.66	319.53	11.18	-20.1	-20.2	18.0	0.00e+00	0	47	0	37337694208	10	15694
2026-01-29 21:53:18.64	319.72	11.11	-20.2	-20.2	18.1	0.00e+00	0	47	0	37446746112	10	15827
2026-01-29 21:53:19.60	319.90	11.04	-20.1	-20.2	18.1	0.00e+00	0	47	0	37555798016	10	15724
2026-01-29 21:53:20.57	320.08	10.97	-20.4	-20.5	18.1	0.00e+00	0	47	0	37664849920	11	15371
2026-01-29 21:53:21.54	320.26	10.89	-20.4	-20.5	18.2	0.00e+00	0	47	0	37773901824	11	15326
2026-01-29 21:53:22.51	320.43	10.82	-20.5	-20.6	18.2	0.00e+00	0	47	0	37882953728	11	15501
2026-01-29 21:53:23.48	320.61	10.75	-20.4	-20.4	18.1	0.00e+00	0	47	0	37992005632	11	15271
2026-01-29 21:53:24.44	320.78	10.68	-20.3	-20.4	18.1	0.00e+00	0	47	0	38101057536	11	15165
2026-01-29 21:53:25.42	320.96	10.60	-20.4	-20.5	18.2	0.00e+00	0	47	0	38210109440	11	15397
2026-01-29 21:53:26.39	321.14	10.53	-20.5	-20.6	18.3	0.00e+00	0	47	0	38319161344	11	15562
2026-01-29 21:53:27.36	321.31	10.46	-20.6	-20.7	18.1	0.00e+00	0	47	0	38428213248	11	15667
2026-01-29 21:53:28.33	321.48	10.39	-20.5	-20.6	18.3	0.00e+00	0	47	0	38537265152	11	15524
2026-01-29 21:53:29.31	321.65	10.31	-20.4	-20.5	18.2	0.00e+00	0	47	0	38646317056	11	15433
2026-01-29 21:53:30.28	321.82	10.24	-20.6	-20.7	18.1	0.00e+00	0	47	0	38755368960	11	15654
2026-01-29 21:53:31.25	321.99	10.17	-20.7	-20.8	19.5	0.00e+00	0	47	0	38864420864	11	15842
2026-01-29 21:53:32.22	322.16	10.10	-46.5	-49.2	6.2	0.00e+00	0	47	104	38889586688	63	20904
2026-01-29 21:53:33.19	322.33	10.02	-46.5	-49.1	6.2	0.00e+00	0	47	104	38889586688	63	20806
2026-01-29 21:53:34.16	322.49	9.95	-46.6	-49.2	6.2	0.00e+00	0	47	104	38889586688	63	20994
2026-01-29 21:53:35.12	322.65	9.88	-46.6	-49.2	6.2	0.00e+00	0	47	104	38889586688	63	20888
2026-01-29 21:53:36.09	322.82	9.81	-46.6	-49.2	6.2	0.00e+00	0	47	104	38889586688	63	20890
2026-01-29 21:53:37.06	322.98	9.74	-46.6	-49.2	6.2	0.00e+00	0	47	104	38889586688	63	20996
2026-01-29 21:53:38.04	323.15	9.67	-46.6	-49.1	6.2	0.00e+00	0	47	104	38889586688	63	20744
2026-01-29 21:53:39.01	323.31	9.59	-46.6	-49.2	6.2	0.00e+00	0	47	104	38889586688	63	21041
2026-01-29 21:53:39.98	323.47	9.52	-46.6	-49.1	6.2	0.00e+00	0	47	104	38889586688	63	20815
2026-01-29 21:53:40.95	323.63	9.45	-46.6	-49.1	6.2	0.00e+00	0	47	104	38889586688	63	20740
2026-01-29 21:53:41.92	323.79	9.38	-46.5	-49.1	6.2	0.00e+00	0	47	104	38889586688	63	20758
2026-01-29 21:53:42.90	323.94	9.31	-46.5	-49.2	6.2	0.00e+00	0	47	104	38889586688	63	20890
2026-01-29 21:53:43.86	324.10	9.24	-46.5	-49.1	6.2	0.00e+00	0	47	104	38889586688	63	20742
2026-01-29 21:53:44.83	324.26	9.17	-46.5	-49.1	6.2	0.00e+00	0	47	104	38889586688	63	20662
2026-01-29 21:53:45.80	324.41	9.10	-46.5	-49.0	6.2	0.00e+00	0	47	104	38889586688	63	20584
2026-01-29 21:53:46.77	324.56	9.03	-46.5	-49.1	6.2	0.00e+00	0	47	104	38889586688	63	20671
2026-01-29 21:53:47.74	324.72	8.96	-46.4	-49.0	6.2	0.00e+00	0	47	104	38889586688	63	20518
2026-01-29 21:53:48.70	324.87	8.89	-46.4	-49.0	6.2	0.00e+00	0	47	104	38889586688	63	20484
2026-01-29 21:53:49.68	325.02	8.82	-46.4	-48.9	6.2	0.00e+00	0	47	104	38889586688	63	20393
2026-01-29 21:53:50.65	325.17	8.75	-46.4	-49.0	6.2	0.00e+00	0	47	104	38889586688	63	20454
2026-01-29 21:53:51.62	325.32	8.68	-46.3	-49.0	6.2	0.00e+00	0	47	104	38889586688	63	20474
2026-01-29 21:53:52.58	325.47	8.61	-46.4	-48.9	6.2	0.00e+00	0	47	104	38889586688	63	20325
2026-01-29 21:53:53.55	325.62	8.54	-46.4	-48.9	6.2	0.00e+00	0	47	104	38889586688	63	20312
2026-01-29 21:53:54.52	325.76	8.47	-46.4	-48.9	6.2	0.00e+00	0	47	104	38889586688	63	20307
2026-01-29 21:53:55.49	325.91	8.40	-46.3	-49.0	6.2	0.00e+00	0	47	104	38889586688	63	20405
2026-01-29 21:53:56.46	326.06	8.33	-46.3	-48.9	6.2	0.00e+00	0	47	104	38889586688	63	20207
2026-01-29 21:53:57.44	326.20	8.26	-46.3	-48.9	6.2	0.00e+00	0	46	104	38889586688	63	20169
2026-01-29 21:53:58.41	326.35	8.19	-46.3	-48.9	6.2	0.00e+00	0	47	104	38889586688	63	20233
2026-01-29 21:53:59.38	326.49	8.12	-46.3	-48.9	6.2	0.00e+00	0	47	104	38889586688	63	20310
2026-01-29 21:54:00.35	326.63	8.05	-46.3	-48.8	6.2	0.00e+00	0	47	104	38889586688	63	20153
2026-01-29 21:54:01.32	326.77	7.98	-46.3	-48.9	6.2	0.00e+00	0	47	104	38889586688	63	20164
2026-01-29 21:54:02.29	326.91	7.91	-46.3	-48.8	6.2	0.00e+00	0	47	104	38889586688	63	20016
2026-01-29 21:54:03.25	327.05	7.85	-46.3	-48.9	6.2	0.00e+00	0	47	104	38889586688	63	20269
2026-01-29 21:54:04.22	327.19	7.78	-46.2	-48.8	6.2	0.00e+00	0	46	104	38889586688	63	20120
2026-01-29 21:54:05.19	327.33	7.71	-46.3	-48.8	6.2	0.00e+00	0	46	104	38889586688	63	20049
2026-01-29 21:54:06.16	327.47	7.64	-46.2	-48.8	6.2	0.00e+00	0	46	104	38889586688	63	19994
2026-01-29 21:54:07.13	327.61	7.57	-46.3	-48.9	6.2	0.00e+00	0	47	104	38889586688	63	20224
2026-01-29 21:54:08.10	327.74	7.50	-46.2	-48.8	6.2	0.00e+00	0	46	104	38889586688	63	19986
2026-01-29 21:54:09.07	327.88	7.44	-46.2	-48.8	6.2	0.00e+00	0	47	104	38889586688	63	19979
2026-01-29 21:54:10.04	328.01	7.37	-46.2	-48.7	6.2	0.00e+00	0	47	104	38889586688	63	19887
2026-01-29 21:54:11.00	328.15	7.30	-46.2	-48.8	6.2	0.00e+00	0	47	104	38889586688	63	20091
2026-01-29 21:54:11.97	328.28	7.23	-46.2	-48.7	6.2	0.00e+00	0	46	104	38889586688	63	19904
2026-01-29 21:54:12.94	328.41	7.17	-46.2	-48.7	6.2	0.00e+00	0	47	104	38889586688	63	19879
2026-01-29 21:54:13.91	328.54	7.10	-46.1	-48.7	6.2	0.00e+00	0	46	104	38889586688	63	19777
2026-01-29 21:54:14.87	328.67	7.03	-46.2	-48.8	6.2	0.00e+00	0	47	104	38889586688	63	19964
2026-01-29 21:54:15.84	328.80	6.96	-46.1	-48.7	6.2	0.00e+00	0	46	104	38889586688	63	19848
2026-01-29 21:54:16.81	328.93	6.90	-46.1	-48.7	6.2	0.00e+00	0	47	104	38889586688	63	19838
2026-01-29 21:54:17.78	329.06	6.83	-46.1	-48.6	6.2	0.00e+00	0	46	104	38889586688	63	19666
2026-01-29 21:54:18.75	329.19	6.76	-46.1	-48.7	6.2	0.00e+00	0	47	104	38889586688	63	19864
2026-01-29 21:54:19.72	329.32	6.70	-46.1	-48.6	6.2	0.00e+00	0	46	104	38889586688	63	19698
2026-01-29 21:54:20.69	329.44	6.63	-46.1	-48.6	6.2	0.00e+00	0	47	104	38889586688	63	19659
2026-01-29 21:54:21.66	329.57	6.56	-46.0	-48.6	6.2	0.00e+00	0	47	104	38889586688	63	19602
2026-01-29 21:54:22.63	329.70	6.50	-46.1	-48.6	6.2	0.00e+00	0	46	104	38889586688	63	19640
2026-01-29 21:54:23.60	329.82	6.43	-46.1	-48.6	6.2	0.00e+00	0	47	104	38889586688	63	19677
2026-01-29 21:54:24.57	329.95	6.37	-46.0	-48.6	6.2	0.00e+00	0	46	104	38889586688	63	19506
2026-01-29 21:54:25.54	330.07	6.30	-46.0	-48.6	6.2	0.00e+00	0	47	104	38889586688	63	19515
2026-01-29 21:54:26.51	330.19	6.23	-46.0	-48.5	6.2	0.00e+00	0	47	104	38889586688	63	19442
2026-01-29 21:54:27.48	330.31	6.17	-46.0	-48.6	6.2	0.00e+00	0	46	104	38889586688	63	19583
2026-01-29 21:54:28.44	330.43	6.10	-46.0	-48.5	6.2	0.00e+00	0	47	104	38889586688	63	19425
2026-01-29 21:54:29.42	330.56	6.04	-46.0	-48.5	6.2	0.00e+00	0	47	104	38889586688	63	19445
2026-01-29 21:54:30.38	330.68	5.97	-45.9	-48.5	6.2	0.00e+00	0	47	104	38889586688	63	19289
2026-01-29 21:54:31.35	330.80	5.91	-46.0	-48.6	6.2	0.00e+00	0	47	104	38889586688	63	19521
2026-01-29 21:54:32.32	330.91	5.84	-45.9	-48.5	6.2	0.00e+00	0	46	104	38889586688	63	19323
2026-01-29 21:54:33.29	331.03	5.78	-46.0	-48.5	6.2	0.00e+00	0	46	104	38889586688	63	19384
2026-01-29 21:54:34.26	331.15	5.71	-45.9	-48.4	6.2	0.00e+00	0	47	104	38889586688	63	19143
2026-01-29 21:54:35.23	331.27	5.65	-46.0	-48.6	6.2	0.00e+00	0	46	104	38889586688	63	19489
2026-01-29 21:54:36.20	331.38	5.58	-45.9	-48.4	6.2	0.00e+00	0	46	104	38889586688	63	19234
2026-01-29 21:54:37.16	331.50	5.52	-45.9	-48.5	6.2	0.00e+00	0	46	104	38889586688	63	19333
2026-01-29 21:54:38.14	331.62	5.46	-45.8	-48.3	6.2	0.00e+00	0	47	104	38889586688	63	19021
2026-01-29 21:54:39.11	331.73	5.39	-45.9	-48.5	6.2	0.00e+00	0	47	104	38889586688	63	19438
2026-01-29 21:54:40.07	331.84	5.33	-45.8	-48.3	6.2	0.00e+00	0	46	104	38889586688	63	19024
2026-01-29 21:54:41.04	331.96	5.26	-45.8	-48.4	6.2	0.00e+00	0	47	104	38889586688	63	19181
2026-01-29 21:54:42.01	332.07	5.20	-45.7	-48.3	6.2	0.00e+00	0	46	104	38889586688	63	18907
2026-01-29 21:54:42.98	332.18	5.14	-45.9	-48.5	6.2	0.00e+00	0	47	104	38889586688	63	19270
2026-01-29 21:54:43.95	332.29	5.07	-45.8	-48.3	6.2	0.00e+00	0	47	104	38889586688	63	18937
2026-01-29 21:54:44.92	332.41	5.01	-45.8	-48.4	6.2	0.00e+00	0	46	104	38889586688	63	19108
2026-01-29 21:54:45.89	332.52	4.95	-46.3	-48.9	6.2	0.00e+00	0	46	104	38889586688	63	20229
2026-01-29 21:54:46.85	332.63	4.88	-46.7	-49.2	6.2	0.00e+00	0	47	104	38889586688	63	21034
2026-01-29 21:54:47.83	332.74	4.82	-46.8	-49.4	6.2	0.00e+00	0	46	104	38889586688	64	20250
2026-01-29 21:54:48.79	332.84	4.76	-47.0	-49.6	6.2	0.00e+00	0	46	104	38889586688	64	20655
2026-01-29 21:54:49.77	332.95	4.69	-47.2	-49.7	6.2	0.00e+00	0	46	104	38889586688	64	21029
2026-01-29 21:54:50.74	333.06	4.63	-47.2	-49.8	6.2	0.00e+00	0	46	104	38889586688	65	20074
2026-01-29 21:54:51.70	333.17	4.57	-47.3	-49.9	6.2	0.00e+00	0	46	104	38889586688	65	20275
2026-01-29 21:54:52.67	333.28	4.51	-47.4	-49.9	6.2	0.00e+00	0	46	104	38889586688	65	20299
2026-01-29 21:54:53.64	333.38	4.44	-47.4	-49.9	6.2	0.00e+00	0	46	104	38889586688	65	20318
2026-01-29 21:54:54.61	333.49	4.38	-47.3	-49.9	6.2	0.00e+00	0	46	104	38889586688	65	20211
2026-01-29 21:54:55.58	333.59	4.32	-47.2	-49.8	6.2	0.00e+00	0	46	104	38889586688	65	19937
2026-01-29 21:54:56.54	333.70	4.26	-47.1	-49.6	6.2	0.00e+00	0	46	104	38889586688	65	19686
2026-01-29 21:54:57.51	333.80	4.20	-47.1	-49.7	6.2	0.00e+00	0	46	104	38889586688	65	19717
2026-01-29 21:54:58.48	333.90	4.13	-47.2	-49.7	6.2	0.00e+00	0	46	104	38889586688	65	19901
2026-01-29 21:54:59.45	334.01	4.07	-47.2	-49.8	6.2	0.00e+00	0	46	104	38889586688	65	19953
2026-01-29 21:55:00.42	334.11	4.01	-47.3	-49.8	6.2	0.00e+00	0	46	104	38889586688	65	20105
2026-01-29 21:55:01.40	334.21	3.95	-47.3	-49.9	6.2	0.00e+00	0	46	104	38889586688	65	20167
2026-01-29 21:55:02.36	334.31	3.89	-47.3	-49.9	6.2	0.00e+00	0	46	104	38889586688	65	20225
2026-01-29 21:55:03.33	334.41	3.83	-47.3	-49.9	6.2	0.00e+00	0	46	104	38889586688	65	20254
2026-01-29 21:55:04.30	334.52	3.77	-47.3	-49.9	6.2	0.00e+00	0	47	104	38889586688	65	20216
2026-01-29 21:55:05.27	334.62	3.71	-47.4	-49.9	6.2	0.00e+00	0	46	104	38889586688	65	20306
2026-01-29 21:55:06.24	334.72	3.64	-47.4	-49.9	6.2	0.00e+00	0	46	104	38889586688	65	20314
2026-01-29 21:55:07.21	334.81	3.58	-47.3	-49.9	6.2	0.00e+00	0	46	104	38889586688	65	20191
2026-01-29 21:55:08.18	334.91	3.52	-47.3	-49.8	6.2	0.00e+00	0	46	104	38889586688	65	20060
2026-01-29 21:55:09.15	335.01	3.46	-47.2	-49.8	6.2	0.00e+00	0	46	104	38889586688	65	20100
2026-01-29 21:55:10.11	335.11	3.40	-47.2	-49.8	6.2	0.00e+00	0	46	104	38889586688	65	19992
2026-01-29 21:55:11.08	335.21	3.34	-47.2	-49.8	6.2	0.00e+00	0	46	104	38889586688	65	19979
2026-01-29 21:55:12.05	335.30	3.28	-47.2	-49.7	6.2	0.00e+00	0	46	104	38889586688	65	19933
2026-01-29 21:55:13.02	335.40	3.22	-47.2	-49.8	6.2	0.00e+00	0	46	104	38889586688	65	19956
2026-01-29 21:55:13.99	335.49	3.16	-47.2	-49.7	6.2	0.00e+00	0	47	104	38889586688	65	19922
2026-01-29 21:55:14.96	335.59	3.10	-47.2	-49.7	6.2	0.00e+00	0	46	104	38889586688	65	19829
2026-01-29 21:55:15.92	335.68	3.04	-47.2	-49.7	6.2	0.00e+00	0	46	104	38889586688	65	19800
2026-01-29 21:55:16.89	335.78	2.98	-47.2	-49.7	6.2	0.00e+00	0	46	104	38889586688	65	19812
2026-01-29 21:55:17.87	335.87	2.92	-47.1	-49.7	6.2	0.00e+00	0	46	104	38889586688	65	19814
2026-01-29 21:55:18.84	335.97	2.86	-47.1	-49.7	6.2	0.00e+00	0	46	104	38889586688	65	19773
2026-01-29 21:55:19.80	336.06	2.81	-47.1	-49.7	6.2	0.00e+00	0	46	104	38889586688	65	19751
2026-01-29 21:55:20.77	336.15	2.75	-47.1	-49.7	6.2	0.00e+00	0	46	104	38889586688	65	19759
2026-01-29 21:55:21.73	336.24	2.69	-47.1	-49.7	6.2	0.00e+00	0	46	104	38889586688	65	19727
2026-01-29 21:55:22.71	336.34	2.63	-47.1	-49.7	6.2	0.00e+00	0	46	104	38889586688	65	19779
2026-01-29 21:55:23.68	336.43	2.57	-47.1	-49.6	6.2	0.00e+00	0	46	104	38889586688	65	19683
2026-01-29 21:55:24.64	336.52	2.51	-47.1	-49.6	6.2	0.00e+00	0	46	104	38889586688	65	19696
2026-01-29 21:55:25.61	336.61	2.45	-47.1	-49.7	6.2	0.00e+00	0	46	104	38889586688	65	19732
2026-01-29 21:55:26.58	336.70	2.39	-47.1	-49.7	6.2	0.00e+00	0	46	104	38889586688	65	19711
2026-01-29 21:55:27.55	336.79	2.34	-47.1	-49.6	6.2	0.00e+00	0	46	104	38889586688	65	19701
2026-01-29 21:55:28.52	336.88	2.28	-47.1	-49.6	6.2	0.00e+00	0	46	104	38889586688	65	19667
2026-01-29 21:55:29.49	336.97	2.22	-47.1	-49.6	6.2	0.00e+00	0	46	104	38889586688	65	19635
2026-01-29 21:55:30.46	337.05	2.16	-47.1	-49.6	6.2	0.00e+00	0	46	104	38889586688	65	19665
2026-01-29 21:55:31.43	337.14	2.10	-47.1	-49.6	6.2	0.00e+00	0	46	104	38889586688	65	19607
2026-01-29 21:55:32.40	337.23	2.05	-47.1	-49.6	6.2	0.00e+00	0	46	104	38889586688	65	19613
2026-01-29 21:55:33.37	337.32	1.99	-47.1	-49.6	6.2	0.00e+00	0	46	104	38889586688	65	19613

#Closed at: 2026-01-29 21:55:33
#Recorded file [38889 MB]: D:/lorett/data/31045_260130_004546.dat