passes_logs/2026/01/28/R4.6S_Anadyr/R4.6S_Anadyr__20260128_124059_NOAA_20_JPSS-1_rec.log

#Pass ID: 20260128_124059_NOAA 20 (JPSS-1)
#Satellite: NOAA 20 (JPSS-1)
#Configuration: NOAA 20
#almurnet v.1.7.20251203
#Start time: 2026-01-28 12:41:00

#Version: 2.2.20231116
#Station: R4.6S_Anadyr
#Location: 177.4865 lon 64.73178 lat
#TLE: 1 43013U 17073A   26027.80586608  .00000156  00000+0  94940-4 0  9998
#TLE: 2 43013  98.7647 328.6108 0000947  21.3465 338.7750 14.19541216424550

#Time	Az	El	Level	Level2	SNR	BER	BlckErr	Temp	State	Recorded	gain1	gain2
2026-01-28 12:41:00.30	18.85	0.06	-48.6	-63.4	3.5	1.51e+00	0	30	0	0	60	53708
2026-01-28 12:41:01.31	18.91	0.11	-48.6	-63.8	3.6	1.51e+00	0	31	104	0	60	55932
2026-01-28 12:41:02.32	18.98	0.16	-48.6	-63.9	3.6	1.51e+00	0	31	104	0	60	56374
2026-01-28 12:41:03.33	19.04	0.22	-48.6	-63.8	3.6	1.51e+00	0	31	104	0	60	56095
2026-01-28 12:41:04.34	19.11	0.27	-48.6	-63.8	3.6	1.51e+00	0	32	104	0	60	56293
2026-01-28 12:41:05.35	19.18	0.32	-48.6	-63.8	3.5	1.51e+00	0	32	104	0	60	56145
2026-01-28 12:41:06.36	19.24	0.37	-48.6	-63.9	3.6	1.51e+00	0	32	104	0	60	56360
2026-01-28 12:41:07.37	19.31	0.42	-48.5	-63.9	3.6	1.51e+00	0	32	104	0	60	56511
2026-01-28 12:41:08.38	19.38	0.48	-48.6	-63.9	3.6	1.51e+00	0	32	104	0	60	56853
2026-01-28 12:41:09.39	19.45	0.53	-48.7	-63.9	3.6	1.51e+00	0	32	104	0	60	56751
2026-01-28 12:41:10.40	19.51	0.58	-48.7	-63.9	3.6	1.51e+00	0	32	104	0	60	56908
2026-01-28 12:41:11.41	19.58	0.63	-48.7	-63.9	3.6	1.51e+00	0	32	104	0	60	56825
2026-01-28 12:41:12.42	19.65	0.69	-48.7	-63.9	3.6	1.51e+00	0	32	104	0	60	56543
2026-01-28 12:41:13.42	19.72	0.74	-48.4	-63.9	3.6	1.51e+00	0	32	104	0	60	56345
2026-01-28 12:41:14.44	19.79	0.79	-48.6	-63.8	3.6	1.51e+00	0	32	104	0	60	55871
2026-01-28 12:41:15.44	19.85	0.85	-48.6	-63.8	3.5	1.51e+00	0	32	104	0	60	56060
2026-01-28 12:41:16.45	19.92	0.90	-48.5	-63.7	3.6	1.51e+00	0	32	104	0	60	55627
2026-01-28 12:41:17.47	19.99	0.95	-48.5	-63.7	3.6	1.51e+00	0	32	104	0	60	55349
2026-01-28 12:41:18.47	20.06	1.00	-48.3	-63.5	3.6	1.51e+00	0	32	104	0	60	53930
2026-01-28 12:41:19.48	20.13	1.06	-48.2	-63.4	3.6	1.51e+00	0	32	104	0	60	53580
2026-01-28 12:41:20.49	20.20	1.11	-48.1	-63.4	3.6	1.51e+00	0	32	104	0	60	53251
2026-01-28 12:41:21.50	20.27	1.16	-48.0	-63.2	3.6	1.51e+00	0	32	104	0	60	52387
2026-01-28 12:41:22.51	20.34	1.22	-47.9	-63.1	3.6	1.51e+00	0	32	104	0	60	51691
2026-01-28 12:41:23.53	20.41	1.27	-47.7	-62.9	3.6	1.51e+00	0	32	104	0	60	50291
2026-01-28 12:41:24.54	20.48	1.32	-47.4	-62.6	3.6	1.51e+00	0	32	104	0	60	48763
2026-01-28 12:41:25.54	20.55	1.38	-47.1	-62.3	3.6	1.51e+00	0	32	104	0	60	47283
2026-01-28 12:41:26.56	20.62	1.43	-47.1	-62.3	3.6	1.51e+00	0	32	104	0	60	47229
2026-01-28 12:41:27.57	20.70	1.48	-47.1	-62.2	3.6	1.51e+00	0	32	104	0	60	46813
2026-01-28 12:41:28.58	20.77	1.54	-47.1	-62.3	3.6	1.51e+00	0	32	104	0	60	46953
2026-01-28 12:41:29.58	20.84	1.59	-47.1	-62.3	3.6	1.51e+00	0	32	104	0	60	47166
2026-01-28 12:41:30.60	20.91	1.65	-47.1	-62.3	3.6	1.51e+00	0	32	104	0	60	47036
2026-01-28 12:41:31.61	20.98	1.70	-47.1	-62.3	3.6	1.51e+00	0	32	104	0	60	46926
2026-01-28 12:41:32.62	21.06	1.75	-47.1	-62.2	3.6	1.51e+00	0	32	104	0	60	46393
2026-01-28 12:41:33.62	21.13	1.81	-47.1	-62.1	3.6	1.51e+00	0	32	104	0	60	45814
2026-01-28 12:41:34.63	21.20	1.86	-47.1	-62.1	3.6	1.51e+00	0	32	104	0	60	45799
2026-01-28 12:41:35.64	21.28	1.91	-47.1	-62.1	3.6	1.51e+00	0	32	104	0	60	46287
2026-01-28 12:41:36.65	21.35	1.97	-47.1	-62.2	3.6	1.51e+00	0	32	104	0	60	46633
2026-01-28 12:41:37.66	21.42	2.02	-47.1	-62.2	3.6	1.51e+00	0	32	104	0	60	46661
2026-01-28 12:41:38.67	21.50	2.08	-47.1	-62.2	3.6	1.51e+00	0	32	104	0	60	46390
2026-01-28 12:41:39.68	21.57	2.13	-47.1	-62.2	3.6	1.51e+00	0	32	104	0	60	46485
2026-01-28 12:41:40.69	21.65	2.19	-47.1	-62.2	3.6	1.51e+00	0	32	104	0	60	46509
2026-01-28 12:41:41.70	21.72	2.24	-47.1	-62.0	3.6	1.51e+00	0	32	104	0	60	45719
2026-01-28 12:41:42.71	21.80	2.30	-47.1	-61.5	3.6	1.51e+00	0	32	104	0	60	42999
2026-01-28 12:41:43.72	21.87	2.35	-47.0	-61.0	3.6	1.51e+00	0	32	104	0	60	40394
2026-01-28 12:41:44.73	21.95	2.41	-47.1	-61.1	3.6	1.51e+00	0	32	104	0	60	40877
2026-01-28 12:41:45.74	22.02	2.46	-47.1	-61.7	3.6	1.51e+00	0	32	104	0	60	44201
2026-01-28 12:41:46.75	22.10	2.51	-47.0	-61.0	3.6	1.51e+00	0	32	104	0	60	40745
2026-01-28 12:41:47.76	22.18	2.57	-46.7	-56.5	5.1	1.49e+00	71	32	104	0	60	24209
2026-01-28 12:41:48.77	22.25	2.62	-45.9	-51.8	9.5	1.73e-01	45	32	0	0	60	14089
2026-01-28 12:41:49.78	22.33	2.68	-44.7	-48.6	12.8	6.65e-03	37	32	0	2097152	60	9683
2026-01-28 12:41:50.79	22.41	2.74	-43.3	-45.9	16.2	7.00e-07	44	32	0	4194304	60	7122
2026-01-28 12:41:51.80	22.48	2.79	-42.0	-43.9	17.3	0.00e+00	52	32	0	6291456	58	6390
2026-01-28 12:41:52.81	22.56	2.85	-41.0	-42.7	18.7	0.00e+00	37	32	0	7340032	56	6200
2026-01-28 12:41:53.82	22.64	2.90	-40.8	-42.4	18.9	0.00e+00	92	32	0	9437184	56	6005
2026-01-28 12:41:54.83	22.72	2.96	-40.6	-42.1	19.0	0.00e+00	45	32	0	11534336	54	6513
2026-01-28 12:41:55.84	22.80	3.01	-40.7	-42.3	18.8	0.00e+00	0	32	0	13631488	54	6680
2026-01-28 12:41:56.85	22.88	3.07	-42.3	-44.4	16.8	0.00e+00	0	32	0	15728640	56	7561
2026-01-28 12:41:57.85	22.95	3.12	-43.5	-46.3	14.7	0.00e+00	44	32	0	16777216	58	8398
2026-01-28 12:41:58.86	23.03	3.18	-41.5	-43.2	18.2	0.00e+00	76	32	0	18874368	56	6597
2026-01-28 12:41:59.87	23.11	3.23	-46.9	-59.2	3.6	4.08e-01	0	32	104	20971520	60	33068
2026-01-28 12:42:00.88	23.19	3.29	-45.5	-50.3	10.2	6.32e-02	92	32	104	20971520	60	11829
2026-01-28 12:42:01.89	23.27	3.35	-45.4	-49.8	11.4	3.84e-02	0	32	0	22020096	60	11191
2026-01-28 12:42:02.90	23.35	3.40	-47.2	-61.9	3.6	7.04e-01	0	32	104	24117248	60	45200
2026-01-28 12:42:03.91	23.44	3.46	-45.5	-50.4	5.5	1.49e+00	0	32	104	24117248	60	11977
2026-01-28 12:42:04.92	23.52	3.51	-44.7	-48.3	13.3	4.77e-04	0	32	0	24117248	60	9417
2026-01-28 12:42:05.92	23.60	3.57	-44.7	-48.3	13.2	9.10e-06	0	32	0	26214400	60	9403
2026-01-28 12:42:06.93	23.68	3.63	-44.6	-48.2	12.8	5.03e-05	31	32	0	27262976	60	9245
2026-01-28 12:42:07.94	23.76	3.68	-44.7	-48.2	13.9	1.83e-05	92	32	0	29360128	60	9275
2026-01-28 12:42:08.95	23.84	3.74	-44.6	-48.1	13.3	3.20e-05	31	32	0	31457280	60	9152
2026-01-28 12:42:09.95	23.93	3.79	-44.2	-47.3	14.2	0.00e+00	91	32	0	33554432	60	8379
2026-01-28 12:42:10.96	24.01	3.85	-44.0	-46.9	14.3	0.00e+00	0	32	0	35651584	60	8040
2026-01-28 12:42:11.98	24.09	3.91	-43.9	-46.7	15.0	3.80e-06	37	32	0	37748736	60	7812
2026-01-28 12:42:12.99	24.18	3.97	-43.6	-46.3	15.2	0.00e+00	42	32	0	38797312	60	7473
2026-01-28 12:42:14.00	24.26	4.02	-43.8	-46.5	15.1	7.00e-07	39	32	0	40894464	60	7672
2026-01-28 12:42:15.01	24.34	4.08	-43.9	-46.8	15.3	7.00e-07	92	32	0	42991616	60	7864
2026-01-28 12:42:16.02	24.43	4.14	-43.3	-45.8	15.8	0.00e+00	43	32	0	45088768	60	7069
2026-01-28 12:42:17.03	24.51	4.19	-43.4	-45.9	15.7	0.00e+00	91	32	0	47185920	60	7138
2026-01-28 12:42:18.04	24.60	4.25	-43.0	-45.3	16.2	0.00e+00	0	32	0	48234496	60	6674
2026-01-28 12:42:19.05	24.68	4.31	-42.7	-44.9	16.6	0.00e+00	35	32	0	50331648	58	7135
2026-01-28 12:42:20.06	24.77	4.36	-43.0	-45.4	16.2	0.00e+00	43	32	0	52428800	58	7529
2026-01-28 12:42:21.07	24.86	4.42	-42.2	-44.2	17.2	0.00e+00	0	32	0	54525952	58	6588
2026-01-28 12:42:22.08	24.94	4.48	-41.9	-43.7	17.8	0.00e+00	0	32	0	56623104	58	6215
2026-01-28 12:42:23.08	25.03	4.54	-41.7	-43.4	18.4	0.00e+00	0	32	0	57671680	56	6726
2026-01-28 12:42:24.09	25.12	4.59	-41.5	-43.2	18.5	0.00e+00	92	32	0	59768832	56	6578
2026-01-28 12:42:25.10	25.20	4.65	-41.4	-43.0	18.7	0.00e+00	0	32	0	61865984	56	6457
2026-01-28 12:42:26.11	25.29	4.71	-41.3	-42.9	18.7	0.00e+00	92	32	0	63963136	56	6347
2026-01-28 12:42:27.12	25.38	4.77	-40.9	-42.4	19.0	0.00e+00	2	32	0	66060288	54	6759
2026-01-28 12:42:28.13	25.47	4.82	-40.6	-42.0	19.3	0.00e+00	39	32	0	67108864	54	6448
2026-01-28 12:42:29.13	25.55	4.88	-40.9	-42.4	19.0	0.00e+00	0	32	0	69206016	54	6758
2026-01-28 12:42:30.14	25.64	4.94	-40.9	-42.4	19.1	0.00e+00	0	32	0	71303168	54	6746
2026-01-28 12:42:31.15	25.73	5.00	-40.9	-42.4	19.3	0.00e+00	92	32	0	73400320	54	6709
2026-01-28 12:42:32.16	25.82	5.05	-40.9	-42.5	19.1	0.00e+00	35	32	0	75497472	54	6779
2026-01-28 12:42:33.17	25.91	5.11	-41.2	-42.8	18.8	0.00e+00	92	32	0	76546048	54	7046
2026-01-28 12:42:34.18	26.00	5.17	-40.4	-41.8	19.8	0.00e+00	0	32	0	78643200	54	6301
2026-01-28 12:42:35.19	26.09	5.23	-40.8	-42.3	19.4	0.00e+00	0	32	0	80740352	54	6641
2026-01-28 12:42:36.20	26.18	5.29	-40.9	-42.4	19.2	0.00e+00	39	32	0	82837504	54	6761
2026-01-28 12:42:37.21	26.28	5.35	-40.8	-42.3	19.5	0.00e+00	38	32	0	84934656	54	6629
2026-01-28 12:42:38.22	26.37	5.40	-40.6	-42.1	19.6	0.00e+00	35	32	0	85983232	54	6488
2026-01-28 12:42:39.23	26.46	5.46	-40.2	-41.6	20.1	0.00e+00	0	32	0	88080384	54	6115
2026-01-28 12:42:40.24	26.55	5.52	-40.5	-41.9	19.8	0.00e+00	92	32	0	90177536	54	6361
2026-01-28 12:42:41.25	26.64	5.58	-40.5	-41.9	19.8	0.00e+00	49	32	0	92274688	54	6365
2026-01-28 12:42:42.26	26.74	5.64	-40.7	-42.1	19.6	0.00e+00	0	32	0	94371840	54	6523
2026-01-28 12:42:43.27	26.83	5.70	-40.7	-42.2	19.4	0.00e+00	0	33	0	95420416	54	6579
2026-01-28 12:42:44.27	26.92	5.76	-40.6	-42.0	19.7	0.00e+00	2	32	0	97517568	54	6447
2026-01-28 12:42:45.28	27.02	5.82	-40.5	-41.9	19.8	0.00e+00	11	33	0	99614720	54	6372
2026-01-28 12:42:46.29	27.11	5.87	-40.4	-41.8	20.0	0.00e+00	0	32	0	101711872	54	6277
2026-01-28 12:42:47.30	27.21	5.93	-40.4	-41.8	19.9	0.00e+00	91	32	0	103809024	54	6291
2026-01-28 12:42:48.31	27.30	5.99	-40.4	-41.7	20.0	0.00e+00	0	32	0	104857600	54	6234
2026-01-28 12:42:49.32	27.40	6.05	-40.1	-41.4	20.3	0.00e+00	91	32	0	106954752	54	6029
2026-01-28 12:42:50.33	27.49	6.11	-40.1	-41.5	20.2	0.00e+00	0	32	0	109051904	54	6048
2026-01-28 12:42:51.34	27.59	6.17	-40.1	-41.4	20.3	0.00e+00	0	32	0	111149056	54	6018
2026-01-28 12:42:52.35	27.69	6.23	-40.4	-41.7	20.0	0.00e+00	0	33	0	113246208	54	6232
2026-01-28 12:42:53.36	27.78	6.29	-40.1	-41.4	20.3	0.00e+00	38	32	0	114294784	54	6000
2026-01-28 12:42:54.36	27.88	6.35	-40.2	-41.6	20.1	0.00e+00	91	32	0	116391936	54	6124
2026-01-28 12:42:55.37	27.98	6.41	-40.0	-41.3	20.3	0.00e+00	47	32	0	118489088	54	5901
2026-01-28 12:42:56.38	28.08	6.47	-40.2	-41.5	20.3	0.00e+00	92	32	0	120586240	54	6055
2026-01-28 12:42:57.39	28.18	6.53	-40.3	-41.6	20.2	0.00e+00	49	32	0	122683392	54	6159
2026-01-28 12:42:58.40	28.28	6.59	-40.0	-41.3	20.5	0.00e+00	0	32	0	123731968	54	5917
2026-01-28 12:42:59.41	28.37	6.65	-40.0	-41.3	20.6	0.00e+00	0	32	0	125829120	54	5914
2026-01-28 12:43:00.42	28.47	6.71	-39.9	-41.2	20.6	0.00e+00	43	32	0	127926272	52	6578
2026-01-28 12:43:01.43	28.57	6.77	-39.8	-41.1	20.6	0.00e+00	92	32	0	130023424	52	6497
2026-01-28 12:43:02.44	28.68	6.83	-39.9	-41.2	20.7	0.00e+00	44	32	0	132120576	52	6576
2026-01-28 12:43:03.45	28.78	6.89	-39.9	-41.2	20.7	0.00e+00	92	32	0	134217728	52	6570
2026-01-28 12:43:04.46	28.88	6.95	-39.8	-41.0	20.8	0.00e+00	6	33	0	135266304	52	6432
2026-01-28 12:43:05.47	28.98	7.01	-39.8	-41.0	20.9	0.00e+00	92	32	0	137363456	52	6437
2026-01-28 12:43:06.47	29.08	7.07	-39.8	-41.0	20.9	0.00e+00	6	33	0	139460608	52	6440
2026-01-28 12:43:07.48	29.18	7.13	-39.7	-40.9	20.9	0.00e+00	5	33	0	141557760	52	6340
2026-01-28 12:43:08.49	29.29	7.19	-39.8	-41.0	20.9	0.00e+00	0	32	0	143654912	52	6422
2026-01-28 12:43:09.50	29.39	7.25	-39.9	-41.1	20.9	0.00e+00	5	33	0	144703488	52	6528
2026-01-28 12:43:10.51	29.49	7.31	-39.6	-40.8	21.1	0.00e+00	90	33	0	146800640	52	6258
2026-01-28 12:43:11.52	29.60	7.37	-39.8	-41.0	20.9	0.00e+00	33	32	0	148897792	52	6404
2026-01-28 12:43:12.53	29.70	7.43	-39.7	-40.9	20.9	0.00e+00	92	33	0	150994944	52	6390
2026-01-28 12:43:13.54	29.81	7.50	-39.9	-41.1	20.8	0.00e+00	5	32	0	153092096	52	6511
2026-01-28 12:43:14.55	29.91	7.56	-39.9	-41.1	20.8	0.00e+00	38	33	0	154140672	52	6515
2026-01-28 12:43:15.56	30.02	7.62	-39.8	-41.0	20.8	0.00e+00	17	33	0	156237824	52	6434
2026-01-28 12:43:16.57	30.12	7.68	-39.9	-41.2	20.6	0.00e+00	48	33	0	158334976	52	6572
2026-01-28 12:43:17.58	30.23	7.74	-39.8	-41.0	21.0	0.00e+00	92	33	0	160432128	52	6406
2026-01-28 12:43:18.59	30.34	7.80	-39.5	-40.7	21.2	0.00e+00	48	33	0	162529280	52	6199
2026-01-28 12:43:19.60	30.45	7.86	-39.5	-40.7	21.1	0.00e+00	92	32	0	163577856	52	6177
2026-01-28 12:43:20.61	30.55	7.92	-39.3	-40.5	21.3	0.00e+00	55	32	0	165675008	52	6070
2026-01-28 12:43:21.62	30.66	7.99	-39.4	-40.5	21.3	0.00e+00	7	33	0	167772160	52	6075
2026-01-28 12:43:22.63	30.77	8.05	-39.5	-40.6	21.3	0.00e+00	49	33	0	169869312	52	6158
2026-01-28 12:43:23.64	30.88	8.11	-39.4	-40.6	21.2	0.00e+00	48	33	0	171966464	52	6145
2026-01-28 12:43:24.65	30.99	8.17	-39.7	-40.9	21.0	0.00e+00	92	33	0	173015040	52	6361
2026-01-28 12:43:25.66	31.10	8.23	-39.3	-40.5	21.4	0.00e+00	8	32	0	175112192	52	6056
2026-01-28 12:43:26.66	31.21	8.29	-39.1	-40.2	21.7	0.00e+00	92	33	0	177209344	52	5867
2026-01-28 12:43:27.67	31.32	8.35	-38.8	-39.9	22.0	0.00e+00	0	33	0	179306496	52	5665
2026-01-28 12:43:28.68	31.43	8.42	-39.0	-40.1	21.8	0.00e+00	44	33	0	181403648	52	5822
2026-01-28 12:43:29.69	31.55	8.48	-39.2	-40.3	21.6	0.00e+00	0	33	0	182452224	52	5939
2026-01-28 12:43:30.70	31.66	8.54	-39.0	-40.1	21.7	0.00e+00	7	33	0	184549376	52	5810
2026-01-28 12:43:31.71	31.77	8.60	-39.0	-40.1	21.8	0.00e+00	7	33	0	186646528	52	5800
2026-01-28 12:43:32.72	31.88	8.67	-39.2	-40.3	21.5	0.00e+00	0	33	0	188743680	52	5933
2026-01-28 12:43:33.73	32.00	8.73	-39.2	-40.3	21.6	0.00e+00	92	32	0	190840832	52	5955
2026-01-28 12:43:34.74	32.11	8.79	-39.2	-40.3	21.6	0.00e+00	39	32	0	191889408	52	5960
2026-01-28 12:43:35.75	32.23	8.85	-39.2	-40.3	21.6	0.00e+00	92	33	0	193986560	52	5949
2026-01-28 12:43:36.76	32.34	8.91	-39.1	-40.2	21.7	0.00e+00	35	33	0	196083712	52	5868
2026-01-28 12:43:37.76	32.46	8.98	-39.1	-40.2	21.9	0.00e+00	39	33	0	198180864	52	5838
2026-01-28 12:43:38.77	32.57	9.04	-39.1	-40.2	21.7	0.00e+00	38	33	0	200278016	52	5859
2026-01-28 12:43:39.78	32.69	9.10	-39.0	-40.1	21.9	0.00e+00	43	33	0	202375168	52	5780
2026-01-28 12:43:40.79	32.81	9.16	-39.1	-40.2	21.7	0.00e+00	92	33	0	203423744	52	5895
2026-01-28 12:43:41.80	32.92	9.23	-39.1	-40.2	21.7	0.00e+00	40	33	0	205520896	52	5881
2026-01-28 12:43:42.81	33.04	9.29	-39.2	-40.2	21.8	0.00e+00	92	33	0	207618048	52	5894
2026-01-28 12:43:43.82	33.16	9.35	-38.9	-40.0	22.0	0.00e+00	2	33	0	209715200	52	5707
2026-01-28 12:43:44.83	33.28	9.42	-39.0	-40.1	21.9	0.00e+00	0	33	0	211812352	52	5800
2026-01-28 12:43:45.84	33.40	9.48	-39.0	-40.1	21.8	0.00e+00	46	33	0	212860928	52	5790
2026-01-28 12:43:46.85	33.52	9.54	-39.0	-40.1	21.9	0.00e+00	42	33	0	214958080	52	5794
2026-01-28 12:43:47.86	33.64	9.60	-39.1	-40.2	21.8	0.00e+00	75	33	0	217055232	52	5866
2026-01-28 12:43:48.87	33.76	9.67	-39.0	-40.1	21.9	0.00e+00	0	33	0	219152384	52	5766
2026-01-28 12:43:49.87	33.88	9.73	-38.9	-39.9	22.0	0.00e+00	92	33	0	221249536	52	5690
2026-01-28 12:43:50.89	34.01	9.79	-38.9	-40.0	22.0	0.00e+00	0	33	0	222298112	52	5700
2026-01-28 12:43:51.89	34.13	9.86	-38.9	-40.0	22.0	0.00e+00	71	32	0	224395264	52	5714
2026-01-28 12:43:52.90	34.25	9.92	-38.7	-39.7	22.3	0.00e+00	0	33	0	226492416	50	6214
2026-01-28 12:43:53.91	34.37	9.98	-38.7	-39.7	22.2	0.00e+00	40	33	0	228589568	50	6231
2026-01-28 12:43:54.92	34.50	10.05	-38.6	-39.6	22.3	0.00e+00	0	33	0	230686720	50	6124
2026-01-28 12:43:55.93	34.62	10.11	-38.6	-39.7	22.3	0.00e+00	0	33	0	231735296	50	6179
2026-01-28 12:43:56.94	34.75	10.17	-38.5	-39.5	22.4	0.00e+00	92	33	0	233832448	50	6073
2026-01-28 12:43:57.95	34.87	10.24	-38.6	-39.6	22.4	0.00e+00	40	33	0	235929600	50	6136
2026-01-28 12:43:58.96	35.00	10.30	-38.4	-39.4	22.6	0.00e+00	91	33	0	238026752	50	6019
2026-01-28 12:43:59.97	35.13	10.36	-38.4	-39.4	22.6	0.00e+00	36	33	0	240123904	50	5966
2026-01-28 12:44:00.98	35.25	10.43	-38.4	-39.4	22.6	0.00e+00	47	33	0	241172480	50	5984
2026-01-28 12:44:01.99	35.38	10.49	-38.2	-39.2	22.6	0.00e+00	39	33	0	243269632	50	5881
2026-01-28 12:44:03.00	35.51	10.56	-38.3	-39.3	22.4	0.00e+00	4	33	0	245366784	50	5916
2026-01-28 12:44:04.01	35.64	10.62	-38.3	-39.3	22.7	0.00e+00	40	33	0	247463936	50	5903
2026-01-28 12:44:05.02	35.77	10.68	-38.3	-39.2	21.9	0.00e+00	41	33	0	249561088	50	5895
2026-01-28 12:44:06.03	35.90	10.75	-38.3	-39.3	22.7	0.00e+00	90	33	0	250609664	50	5907
2026-01-28 12:44:07.04	36.03	10.81	-38.3	-39.3	22.5	0.00e+00	2	33	0	252706816	50	5923
2026-01-28 12:44:08.05	36.16	10.87	-38.3	-39.3	22.7	0.00e+00	75	33	0	254803968	50	5903
2026-01-28 12:44:09.06	36.29	10.94	-38.1	-39.0	22.8	0.00e+00	47	33	0	256901120	50	5760
2026-01-28 12:44:10.07	36.42	11.00	-38.1	-39.1	22.8	0.00e+00	0	33	0	258998272	50	5800
2026-01-28 12:44:11.07	36.56	11.07	-38.3	-39.3	22.7	0.00e+00	0	33	0	260046848	50	5920
2026-01-28 12:44:12.08	36.69	11.13	-38.3	-39.3	22.7	0.00e+00	0	33	0	262144000	50	5936
2026-01-28 12:44:13.09	36.82	11.19	-38.3	-39.3	22.7	0.00e+00	92	33	0	264241152	50	5913
2026-01-28 12:44:14.10	36.96	11.26	-38.3	-39.3	22.6	0.00e+00	0	33	0	266338304	50	5943
2026-01-28 12:44:15.11	37.09	11.32	-38.5	-39.5	22.5	0.00e+00	92	33	0	268435456	50	6040
2026-01-28 12:44:16.12	37.23	11.39	-38.6	-39.7	22.4	0.00e+00	35	33	0	270532608	50	6179
2026-01-28 12:44:17.13	37.36	11.45	-38.7	-39.8	22.3	0.00e+00	0	33	0	271581184	50	6256
2026-01-28 12:44:18.14	37.50	11.52	-38.6	-39.6	22.4	0.00e+00	0	32	0	273678336	50	6156
2026-01-28 12:44:19.15	37.64	11.58	-38.6	-39.6	22.5	0.00e+00	0	33	0	275775488	50	6163
2026-01-28 12:44:20.16	37.78	11.64	-38.4	-39.4	22.6	0.00e+00	92	33	0	277872640	50	6006
2026-01-28 12:44:21.17	37.91	11.71	-38.5	-39.5	22.6	0.00e+00	40	33	0	279969792	50	6059
2026-01-28 12:44:22.18	38.05	11.77	-38.3	-39.3	22.8	0.00e+00	92	33	0	281018368	50	5899
2026-01-28 12:44:23.19	38.19	11.84	-38.2	-39.2	22.8	0.00e+00	36	33	0	283115520	50	5869
2026-01-28 12:44:24.20	38.33	11.90	-38.2	-39.1	22.8	0.00e+00	45	33	0	285212672	50	5821
2026-01-28 12:44:25.21	38.47	11.97	-38.3	-39.3	22.6	0.00e+00	46	33	0	287309824	50	5939
2026-01-28 12:44:26.22	38.61	12.03	-38.3	-39.3	22.7	0.00e+00	0	33	0	289406976	50	5932
2026-01-28 12:44:27.23	38.76	12.09	-38.3	-39.2	22.7	0.00e+00	90	33	0	290455552	50	5887
2026-01-28 12:44:28.24	38.90	12.16	-38.3	-39.3	22.7	0.00e+00	2	33	0	292552704	50	5934
2026-01-28 12:44:29.25	39.04	12.22	-38.5	-39.5	22.6	0.00e+00	92	33	0	294649856	50	6044
2026-01-28 12:44:30.26	39.19	12.29	-38.5	-39.5	22.6	0.00e+00	0	33	0	296747008	50	6099
2026-01-28 12:44:31.27	39.33	12.35	-38.4	-39.4	22.7	0.00e+00	0	33	0	298844160	50	5996
2026-01-28 12:44:32.28	39.48	12.42	-38.5	-39.5	22.6	0.00e+00	0	33	0	299892736	50	6047
2026-01-28 12:44:33.29	39.62	12.48	-38.3	-39.3	22.7	0.00e+00	0	33	0	301989888	50	5943
2026-01-28 12:44:34.29	39.77	12.55	-38.4	-39.4	22.6	0.00e+00	26	33	0	304087040	50	5982
2026-01-28 12:44:35.30	39.91	12.61	-38.2	-39.2	22.8	0.00e+00	0	33	0	306184192	50	5841
2026-01-28 12:44:36.31	40.06	12.67	-38.0	-39.0	22.9	0.00e+00	92	33	0	308281344	50	5713
2026-01-28 12:44:37.32	40.21	12.74	-38.0	-39.0	23.1	0.00e+00	40	33	0	309329920	50	5712
2026-01-28 12:44:38.33	40.36	12.80	-38.0	-38.9	23.1	0.00e+00	93	33	0	311427072	50	5665
2026-01-28 12:44:39.34	40.51	12.87	-38.0	-38.9	23.0	0.00e+00	0	33	0	313524224	50	5686
2026-01-28 12:44:40.35	40.66	12.93	-37.9	-38.8	23.2	0.00e+00	0	33	0	315621376	50	5603
2026-01-28 12:44:41.36	40.81	13.00	-38.0	-39.0	23.0	0.00e+00	0	33	0	317718528	50	5738
2026-01-28 12:44:42.37	40.96	13.06	-37.8	-38.7	23.1	0.00e+00	0	33	0	318767104	48	6240
2026-01-28 12:44:43.38	41.11	13.13	-37.9	-38.8	23.1	0.00e+00	92	33	0	320864256	48	6300
2026-01-28 12:44:44.39	41.26	13.19	-38.1	-39.0	23.0	0.00e+00	39	33	0	322961408	48	6447
2026-01-28 12:44:45.40	41.42	13.26	-38.2	-39.1	22.9	0.00e+00	92	33	0	325058560	48	6530
2026-01-28 12:44:46.41	41.57	13.32	-38.0	-38.9	23.1	0.00e+00	41	33	0	327155712	48	6368
2026-01-28 12:44:47.41	41.72	13.38	-38.1	-39.0	23.0	0.00e+00	47	33	0	328204288	48	6450
2026-01-28 12:44:48.42	41.88	13.45	-37.8	-38.8	23.1	0.00e+00	44	33	0	330301440	48	6287
2026-01-28 12:44:49.43	42.03	13.51	-37.9	-38.9	23.1	0.00e+00	47	33	0	332398592	48	6353
2026-01-28 12:44:50.44	42.19	13.58	-38.1	-39.1	22.8	0.00e+00	75	33	0	334495744	48	6468
2026-01-28 12:44:51.45	42.35	13.64	-38.2	-39.1	23.0	0.00e+00	5	33	0	336592896	48	6527
2026-01-28 12:44:52.46	42.51	13.71	-38.2	-39.1	22.8	0.00e+00	88	33	0	337641472	48	6539
2026-01-28 12:44:53.47	42.66	13.77	-38.5	-39.5	22.6	0.00e+00	6	33	0	339738624	48	6792
2026-01-28 12:44:54.48	42.82	13.83	-38.4	-39.4	22.8	0.00e+00	15	33	0	341835776	48	6707
2026-01-28 12:44:55.49	42.98	13.90	-38.2	-39.2	22.9	0.00e+00	0	33	0	343932928	48	6552
2026-01-28 12:44:56.50	43.14	13.96	-38.0	-39.0	23.1	0.00e+00	6	33	0	346030080	48	6424
2026-01-28 12:44:57.51	43.31	14.03	-38.1	-39.0	23.0	0.00e+00	5	33	0	347078656	48	6439
2026-01-28 12:44:58.52	43.47	14.09	-38.2	-39.1	23.0	0.00e+00	40	33	0	349175808	48	6512
2026-01-28 12:44:59.53	43.63	14.16	-38.1	-39.0	23.0	0.00e+00	92	33	0	351272960	48	6462
2026-01-28 12:45:00.54	43.79	14.22	-37.9	-38.9	23.2	0.00e+00	0	33	0	353370112	48	6338
2026-01-28 12:45:01.55	43.96	14.28	-37.9	-38.9	23.2	0.00e+00	92	33	0	355467264	48	6334
2026-01-28 12:45:02.56	44.12	14.35	-38.0	-39.0	23.1	0.00e+00	0	33	0	356515840	48	6411
2026-01-28 12:45:03.56	44.29	14.41	-38.2	-39.2	23.0	0.00e+00	34	33	0	358612992	48	6565
2026-01-28 12:45:04.57	44.45	14.48	-38.2	-39.2	22.9	0.00e+00	34	33	0	360710144	48	6589
2026-01-28 12:45:05.58	44.62	14.54	-38.1	-39.1	23.0	0.00e+00	0	33	0	362807296	48	6502
2026-01-28 12:45:06.59	44.79	14.60	-37.9	-38.9	23.2	0.00e+00	90	33	0	364904448	48	6343
2026-01-28 12:45:07.59	44.95	14.67	-37.9	-38.8	23.3	0.00e+00	38	33	0	367001600	48	6316
2026-01-28 12:45:08.61	45.12	14.73	-37.8	-38.7	23.3	0.00e+00	92	33	0	368050176	48	6214
2026-01-28 12:45:09.62	45.29	14.79	-37.5	-38.4	23.7	0.00e+00	46	33	0	370147328	48	6006
2026-01-28 12:45:10.62	45.46	14.86	-37.6	-38.5	23.6	0.00e+00	8	33	0	372244480	48	6074
2026-01-28 12:45:11.63	45.63	14.92	-37.6	-38.5	23.4	0.00e+00	6	33	0	374341632	48	6100
2026-01-28 12:45:12.65	45.80	14.98	-37.3	-38.2	23.4	0.00e+00	49	33	0	376438784	48	5890
2026-01-28 12:45:13.65	45.97	15.05	-37.2	-38.1	23.7	0.00e+00	49	33	0	377487360	48	5814
2026-01-28 12:45:14.66	46.15	15.11	-37.5	-38.4	23.6	0.00e+00	7	33	0	379584512	48	6004
2026-01-28 12:45:15.67	46.32	15.17	-37.1	-38.0	24.0	0.00e+00	91	33	0	381681664	48	5698
2026-01-28 12:45:16.68	46.50	15.24	-37.0	-37.8	24.1	0.00e+00	0	33	0	383778816	48	5600
2026-01-28 12:45:17.69	46.67	15.30	-36.9	-37.7	24.2	0.00e+00	39	33	0	385875968	48	5543
2026-01-28 12:45:18.70	46.85	15.36	-36.9	-37.8	24.2	0.00e+00	0	33	0	386924544	48	5575
2026-01-28 12:45:19.71	47.02	15.43	-36.9	-37.7	24.2	0.00e+00	6	33	0	389021696	48	5545
2026-01-28 12:45:20.72	47.20	15.49	-36.8	-37.7	24.2	0.00e+00	42	33	0	391118848	48	5532
2026-01-28 12:45:21.73	47.38	15.55	-36.8	-37.7	24.3	0.00e+00	0	33	0	393216000	48	5538
2026-01-28 12:45:22.74	47.56	15.61	-36.7	-37.5	24.3	0.00e+00	92	33	0	395313152	46	6079
2026-01-28 12:45:23.75	47.74	15.68	-36.8	-37.6	24.3	0.00e+00	42	33	0	396361728	46	6134
2026-01-28 12:45:24.76	47.92	15.74	-36.7	-37.5	24.4	0.00e+00	92	33	0	398458880	46	6057
2026-01-28 12:45:25.76	48.10	15.80	-36.7	-37.6	24.3	0.00e+00	42	33	0	400556032	46	6119
2026-01-28 12:45:26.77	48.28	15.86	-36.6	-37.4	24.5	0.00e+00	41	33	0	402653184	46	6014
2026-01-28 12:45:27.78	48.46	15.93	-36.7	-37.5	24.4	0.00e+00	31	33	0	404750336	46	6088
2026-01-28 12:45:28.79	48.64	15.99	-36.6	-37.4	24.6	0.00e+00	39	33	0	405798912	46	6015
2026-01-28 12:45:29.80	48.83	16.05	-36.8	-37.6	24.2	0.00e+00	92	33	0	407896064	46	6131
2026-01-28 12:45:30.81	49.01	16.11	-36.6	-37.4	24.3	0.00e+00	40	33	0	409993216	46	6003
2026-01-28 12:45:31.82	49.20	16.17	-36.7	-37.5	24.4	0.00e+00	92	33	0	412090368	46	6098
2026-01-28 12:45:32.83	49.38	16.23	-36.7	-37.6	24.4	0.00e+00	0	33	0	414187520	46	6122
2026-01-28 12:45:33.84	49.57	16.30	-36.9	-37.7	24.2	0.00e+00	39	33	0	415236096	46	6227
2026-01-28 12:45:34.85	49.76	16.36	-37.0	-37.8	24.1	0.00e+00	41	33	0	417333248	46	6300
2026-01-28 12:45:35.86	49.95	16.42	-36.9	-37.8	24.3	0.00e+00	39	33	0	419430400	46	6251
2026-01-28 12:45:36.87	50.14	16.48	-36.9	-37.7	24.2	0.00e+00	81	33	0	421527552	46	6208
2026-01-28 12:45:37.87	50.32	16.54	-36.8	-37.7	24.3	0.00e+00	0	33	0	423624704	46	6180
2026-01-28 12:45:38.88	50.51	16.60	-36.8	-37.6	24.4	0.00e+00	90	33	0	424673280	46	6136
2026-01-28 12:45:39.89	50.71	16.66	-36.8	-37.7	24.3	0.00e+00	0	33	0	426770432	46	6197
2026-01-28 12:45:40.90	50.90	16.72	-36.8	-37.6	24.4	0.00e+00	47	33	0	428867584	46	6151
2026-01-28 12:45:41.91	51.09	16.78	-37.0	-37.8	24.2	0.00e+00	2	33	0	430964736	46	6290
2026-01-28 12:45:42.92	51.28	16.84	-37.0	-37.8	24.1	0.00e+00	41	33	0	433061888	46	6300
2026-01-28 12:45:43.93	51.48	16.90	-37.1	-37.9	24.1	0.00e+00	0	33	0	435159040	46	6371
2026-01-28 12:45:44.94	51.67	16.96	-37.2	-38.0	24.0	0.00e+00	0	33	0	436207616	46	6464
2026-01-28 12:45:45.95	51.87	17.02	-37.4	-38.2	23.8	0.00e+00	90	33	0	438304768	46	6615
2026-01-28 12:45:46.96	52.07	17.08	-37.3	-38.2	23.8	0.00e+00	3	33	0	440401920	46	6578
2026-01-28 12:45:47.97	52.26	17.14	-37.3	-38.1	23.9	0.00e+00	92	33	0	442499072	46	6526
2026-01-28 12:45:48.97	52.46	17.20	-37.4	-38.3	23.7	0.00e+00	41	33	0	444596224	46	6625
2026-01-28 12:45:49.98	52.66	17.26	-37.2	-38.1	23.9	0.00e+00	43	33	0	445644800	46	6500
2026-01-28 12:45:50.99	52.86	17.31	-37.4	-38.2	23.8	0.00e+00	39	33	0	447741952	46	6599
2026-01-28 12:45:52.00	53.06	17.37	-37.3	-38.2	23.8	0.00e+00	39	33	0	449839104	46	6588
2026-01-28 12:45:53.01	53.26	17.43	-37.5	-38.4	23.8	0.00e+00	91	33	0	451936256	46	6714
2026-01-28 12:45:54.02	53.46	17.49	-37.4	-38.3	23.8	0.00e+00	0	33	0	454033408	46	6674
2026-01-28 12:45:55.03	53.66	17.55	-37.5	-38.4	23.7	0.00e+00	90	33	0	455081984	46	6701
2026-01-28 12:45:56.03	53.87	17.60	-37.6	-38.5	23.6	0.00e+00	40	33	0	457179136	46	6814
2026-01-28 12:45:57.04	54.07	17.66	-37.7	-38.6	23.5	0.00e+00	39	33	0	459276288	46	6894
2026-01-28 12:45:58.05	54.27	17.72	-37.6	-38.5	23.6	0.00e+00	39	33	0	461373440	46	6827
2026-01-28 12:45:59.06	54.48	17.78	-37.7	-38.6	23.5	0.00e+00	0	33	0	463470592	46	6879
2026-01-28 12:46:00.07	54.69	17.83	-37.9	-38.8	23.3	0.00e+00	92	33	0	464519168	48	6264
2026-01-28 12:46:01.08	54.89	17.89	-37.9	-38.8	22.9	0.00e+00	0	33	0	466616320	48	6292
2026-01-28 12:46:02.09	55.10	17.95	-37.8	-38.7	23.4	0.00e+00	91	33	0	468713472	48	6237
2026-01-28 12:46:03.10	55.31	18.00	-38.0	-38.9	23.1	0.00e+00	0	33	0	470810624	48	6375
2026-01-28 12:46:04.11	55.52	18.06	-38.2	-39.1	23.1	0.00e+00	92	33	0	472907776	48	6504
2026-01-28 12:46:05.12	55.73	18.11	-38.3	-39.3	22.9	0.00e+00	0	33	0	473956352	48	6649
2026-01-28 12:46:06.13	55.94	18.17	-38.1	-39.1	23.1	0.00e+00	37	33	0	476053504	48	6468
2026-01-28 12:46:07.14	56.15	18.22	-38.3	-39.3	22.9	0.00e+00	0	33	0	478150656	48	6621
2026-01-28 12:46:08.15	56.37	18.28	-38.4	-39.4	22.7	0.00e+00	37	33	0	480247808	48	6707
2026-01-28 12:46:09.16	56.58	18.33	-38.5	-39.5	22.6	0.00e+00	92	33	0	482344960	48	6818
2026-01-28 12:46:10.16	56.79	18.39	-38.7	-39.7	22.4	0.00e+00	2	33	0	483393536	48	7005
2026-01-28 12:46:11.17	57.01	18.44	-38.7	-39.8	22.5	0.00e+00	92	33	0	485490688	48	7016
2026-01-28 12:46:12.18	57.22	18.50	-38.9	-39.9	22.4	0.00e+00	40	33	0	487587840	50	6349
2026-01-28 12:46:13.19	57.44	18.55	-38.8	-39.9	22.3	0.00e+00	39	33	0	489684992	50	6342
2026-01-28 12:46:14.20	57.65	18.60	-38.8	-39.8	22.4	0.00e+00	43	33	0	491782144	50	6271
2026-01-28 12:46:15.21	57.87	18.66	-38.8	-39.8	22.2	0.00e+00	39	33	0	492830720	50	6315
2026-01-28 12:46:16.22	58.09	18.71	-39.0	-40.0	22.2	0.00e+00	92	33	0	494927872	50	6424
2026-01-28 12:46:17.23	58.31	18.76	-39.0	-40.0	22.3	0.00e+00	0	33	0	497025024	50	6436
2026-01-28 12:46:18.24	58.53	18.81	-39.1	-40.2	22.0	0.00e+00	88	33	0	499122176	50	6564
2026-01-28 12:46:19.25	58.75	18.87	-39.2	-40.3	22.0	0.00e+00	0	33	0	501219328	50	6638
2026-01-28 12:46:20.26	58.97	18.92	-39.2	-40.3	22.0	0.00e+00	77	33	0	502267904	50	6660
2026-01-28 12:46:21.27	59.19	18.97	-39.1	-40.2	22.0	0.00e+00	2	33	0	504365056	50	6551
2026-01-28 12:46:22.28	59.42	19.02	-39.1	-40.1	22.1	0.00e+00	0	33	0	506462208	50	6512
2026-01-28 12:46:23.29	59.64	19.07	-38.9	-39.9	22.4	0.00e+00	29	33	0	508559360	50	6384
2026-01-28 12:46:24.30	59.86	19.12	-38.8	-39.9	22.4	0.00e+00	0	33	0	510656512	50	6322
2026-01-28 12:46:25.30	60.09	19.17	-38.9	-39.9	22.3	0.00e+00	92	33	0	511705088	50	6364
2026-01-28 12:46:26.31	60.31	19.22	-38.6	-39.6	22.6	0.00e+00	2	33	0	513802240	50	6136
2026-01-28 12:46:27.32	60.54	19.27	-38.6	-39.6	22.6	0.00e+00	0	33	0	515899392	50	6127
2026-01-28 12:46:28.33	60.77	19.32	-38.6	-39.6	22.5	0.00e+00	42	33	0	517996544	50	6146
2026-01-28 12:46:29.34	61.00	19.37	-38.7	-39.7	22.5	0.00e+00	0	33	0	520093696	50	6231
2026-01-28 12:46:30.35	61.22	19.41	-38.7	-39.8	22.5	0.00e+00	0	33	0	521142272	50	6287
2026-01-28 12:46:31.36	61.45	19.46	-38.5	-39.6	22.7	0.00e+00	0	33	0	523239424	50	6121
2026-01-28 12:46:32.37	61.68	19.51	-38.5	-39.6	22.6	0.00e+00	91	33	0	525336576	50	6149
2026-01-28 12:46:33.38	61.91	19.56	-38.6	-39.7	22.5	0.00e+00	46	33	0	527433728	50	6235
2026-01-28 12:46:34.39	62.15	19.60	-38.5	-39.5	22.7	0.00e+00	69	33	0	529530880	50	6100
2026-01-28 12:46:35.40	62.38	19.65	-38.5	-39.5	22.7	0.00e+00	0	33	0	531628032	50	6087
2026-01-28 12:46:36.41	62.61	19.70	-38.5	-39.5	22.7	0.00e+00	46	33	0	532676608	50	6066
2026-01-28 12:46:37.41	62.84	19.74	-38.4	-39.4	22.8	0.00e+00	44	33	0	534773760	50	6001
2026-01-28 12:46:38.42	63.08	19.79	-38.5	-39.5	22.7	0.00e+00	47	33	0	536870912	50	6044
2026-01-28 12:46:39.43	63.31	19.83	-38.4	-39.4	22.8	0.00e+00	92	33	0	538968064	50	6017
2026-01-28 12:46:40.44	63.55	19.88	-38.3	-39.3	22.6	0.00e+00	5	33	0	541065216	50	5897
2026-01-28 12:46:41.45	63.78	19.92	-38.2	-39.2	23.0	0.00e+00	92	33	0	542113792	50	5866
2026-01-28 12:46:42.46	64.02	19.96	-38.1	-39.2	23.0	0.00e+00	8	33	0	544210944	50	5829
2026-01-28 12:46:43.47	64.26	20.01	-38.1	-39.1	23.1	0.00e+00	0	33	0	546308096	50	5818
2026-01-28 12:46:44.48	64.50	20.05	-38.1	-39.1	23.1	0.00e+00	0	33	0	548405248	50	5789
2026-01-28 12:46:45.49	64.73	20.09	-38.1	-39.0	23.1	0.00e+00	5	33	0	550502400	50	5760
2026-01-28 12:46:46.50	64.97	20.14	-38.2	-39.2	23.0	0.00e+00	0	33	0	551550976	50	5850
2026-01-28 12:46:47.51	65.21	20.18	-38.3	-39.3	22.9	0.00e+00	6	33	0	553648128	50	5949
2026-01-28 12:46:48.51	65.45	20.22	-38.4	-39.4	22.8	0.00e+00	92	33	0	555745280	50	6011
2026-01-28 12:46:49.52	65.69	20.26	-38.5	-39.5	22.7	0.00e+00	0	33	0	557842432	50	6056
2026-01-28 12:46:50.53	65.94	20.30	-38.4	-39.4	22.8	0.00e+00	40	33	0	559939584	50	5999
2026-01-28 12:46:51.54	66.18	20.34	-38.4	-39.4	22.9	0.00e+00	0	33	0	560988160	50	5972
2026-01-28 12:46:52.55	66.42	20.38	-38.4	-39.4	22.9	0.00e+00	0	33	0	563085312	50	5972
2026-01-28 12:46:53.56	66.67	20.42	-38.0	-39.0	23.1	0.00e+00	0	33	0	565182464	50	5737
2026-01-28 12:46:54.57	66.91	20.46	-37.8	-38.8	23.3	0.00e+00	45	33	0	567279616	50	5586
2026-01-28 12:46:55.58	67.16	20.49	-37.9	-38.8	23.3	0.00e+00	92	33	0	569376768	50	5615
2026-01-28 12:46:56.59	67.40	20.53	-37.8	-38.8	23.4	0.00e+00	44	33	0	570425344	50	5576
2026-01-28 12:46:57.60	67.65	20.57	-37.8	-38.7	23.4	0.00e+00	92	33	0	572522496	48	6208
2026-01-28 12:46:58.61	67.89	20.61	-37.8	-38.7	23.6	0.00e+00	44	33	0	574619648	48	6180
2026-01-28 12:46:59.62	68.14	20.64	-37.8	-38.7	23.4	0.00e+00	47	33	0	576716800	48	6230
2026-01-28 12:47:00.63	68.39	20.68	-37.8	-38.7	23.5	0.00e+00	46	33	0	578813952	48	6231
2026-01-28 12:47:01.64	68.64	20.71	-37.8	-38.8	23.4	0.00e+00	7	33	0	579862528	48	6251
2026-01-28 12:47:02.65	68.89	20.75	-37.7	-38.6	23.4	0.00e+00	92	33	0	581959680	48	6165
2026-01-28 12:47:03.66	69.14	20.78	-37.7	-38.6	23.5	0.00e+00	0	33	0	584056832	48	6127
2026-01-28 12:47:04.67	69.39	20.82	-37.6	-38.5	23.6	0.00e+00	92	33	0	586153984	48	6071
2026-01-28 12:47:05.68	69.64	20.85	-37.6	-38.5	23.7	0.00e+00	0	33	0	588251136	48	6041
2026-01-28 12:47:06.69	69.89	20.88	-37.6	-38.5	23.7	0.00e+00	7	33	0	589299712	48	6046
2026-01-28 12:47:07.70	70.14	20.91	-37.5	-38.4	23.7	0.00e+00	0	33	0	591396864	48	6003
2026-01-28 12:47:08.71	70.39	20.95	-37.5	-38.4	23.7	0.00e+00	0	33	0	593494016	48	6007
2026-01-28 12:47:09.72	70.65	20.98	-37.4	-38.3	23.7	0.00e+00	45	33	0	595591168	48	5929
2026-01-28 12:47:10.73	70.90	21.01	-37.5	-38.3	23.8	0.00e+00	42	33	0	597688320	48	5963
2026-01-28 12:47:11.74	71.15	21.04	-37.3	-38.2	23.9	0.00e+00	92	33	0	599785472	48	5833
2026-01-28 12:47:12.75	71.41	21.07	-37.4	-38.3	23.8	0.00e+00	43	33	0	600834048	48	5913
2026-01-28 12:47:13.75	71.66	21.10	-37.5	-38.4	23.7	0.00e+00	74	33	0	602931200	48	6033
2026-01-28 12:47:14.76	71.92	21.13	-37.5	-38.4	23.6	0.00e+00	43	33	0	605028352	48	6005
2026-01-28 12:47:15.77	72.17	21.15	-37.7	-38.6	23.3	0.00e+00	40	33	0	607125504	48	6164
2026-01-28 12:47:16.78	72.43	21.18	-37.6	-38.6	23.5	0.00e+00	21	33	0	609222656	48	6110
2026-01-28 12:47:17.79	72.69	21.21	-37.5	-38.4	23.7	0.00e+00	38	33	0	610271232	48	5991
2026-01-28 12:47:18.80	72.94	21.24	-37.5	-38.4	23.7	0.00e+00	92	33	0	612368384	48	6022
2026-01-28 12:47:19.81	73.20	21.26	-37.7	-38.6	23.6	0.00e+00	41	33	0	614465536	48	6149
2026-01-28 12:47:20.81	73.46	21.29	-37.7	-38.7	23.4	0.00e+00	91	33	0	616562688	48	6186
2026-01-28 12:47:21.83	73.72	21.31	-37.9	-38.9	23.3	0.00e+00	40	33	0	618659840	48	6325
2026-01-28 12:47:22.84	73.98	21.34	-38.1	-39.1	23.1	0.00e+00	38	33	0	619708416	48	6490
2026-01-28 12:47:23.85	74.23	21.36	-38.3	-39.3	22.9	0.00e+00	39	33	0	621805568	48	6617
2026-01-28 12:47:24.86	74.49	21.38	-38.3	-39.3	22.9	0.00e+00	40	33	0	623902720	48	6660
2026-01-28 12:47:25.87	74.75	21.41	-38.5	-39.5	22.7	0.00e+00	90	33	0	625999872	48	6819
2026-01-28 12:47:26.87	75.01	21.43	-38.4	-39.4	22.7	0.00e+00	0	33	0	628097024	48	6720
2026-01-28 12:47:27.88	75.27	21.45	-38.5	-39.5	22.6	0.00e+00	90	33	0	629145600	48	6783
2026-01-28 12:47:28.89	75.53	21.47	-38.1	-39.1	23.1	0.00e+00	0	33	0	631242752	48	6474
2026-01-28 12:47:29.90	75.80	21.49	-38.2	-39.2	23.1	0.00e+00	0	33	0	633339904	48	6542
2026-01-28 12:47:30.91	76.06	21.51	-37.7	-38.6	23.5	0.00e+00	0	33	0	635437056	48	6140
2026-01-28 12:47:31.92	76.32	21.53	-37.6	-38.5	23.5	0.00e+00	0	33	0	637534208	48	6097
2026-01-28 12:47:32.93	76.58	21.55	-37.6	-38.5	23.5	0.00e+00	0	33	0	638582784	48	6063
2026-01-28 12:47:33.94	76.84	21.57	-37.6	-38.5	23.5	0.00e+00	38	33	0	640679936	48	6087
2026-01-28 12:47:34.95	77.11	21.58	-37.8	-38.8	23.3	0.00e+00	91	33	0	642777088	48	6263
2026-01-28 12:47:35.96	77.37	21.60	-37.9	-38.9	23.2	0.00e+00	37	33	0	644874240	48	6330
2026-01-28 12:47:36.97	77.63	21.62	-38.0	-39.0	23.1	0.00e+00	91	33	0	646971392	48	6408
2026-01-28 12:47:37.98	77.90	21.63	-38.3	-39.3	22.9	0.00e+00	45	33	0	648019968	48	6653
2026-01-28 12:47:38.99	78.16	21.65	-38.3	-39.2	22.9	0.00e+00	0	33	0	650117120	48	6598
2026-01-28 12:47:40.00	78.43	21.66	-38.4	-39.4	22.9	0.00e+00	30	33	0	652214272	48	6736
2026-01-28 12:47:41.01	78.69	21.68	-38.4	-39.4	22.9	0.00e+00	42	33	0	654311424	48	6734
2026-01-28 12:47:42.02	78.96	21.69	-38.2	-39.2	23.0	0.00e+00	92	33	0	656408576	48	6548
2026-01-28 12:47:43.03	79.22	21.70	-38.2	-39.2	23.1	0.00e+00	0	33	0	657457152	48	6596
2026-01-28 12:47:44.04	79.49	21.71	-37.8	-38.8	23.4	0.00e+00	92	33	0	659554304	48	6252
2026-01-28 12:47:45.04	79.75	21.72	-37.8	-38.8	23.4	0.00e+00	39	33	0	661651456	48	6259
2026-01-28 12:47:46.05	80.01	21.73	-37.8	-38.7	23.5	0.00e+00	0	33	0	663748608	48	6236
2026-01-28 12:47:47.06	80.28	21.75	-37.9	-38.9	23.3	0.00e+00	0	33	0	665845760	48	6340
2026-01-28 12:47:48.07	80.55	21.75	-38.2	-39.1	23.0	0.00e+00	0	33	0	667942912	48	6518
2026-01-28 12:47:49.09	80.82	21.76	-38.4	-39.3	22.9	0.00e+00	92	33	0	668991488	48	6678
2026-01-28 12:47:50.09	81.08	21.77	-38.3	-39.3	22.9	0.00e+00	0	33	0	671088640	48	6680
2026-01-28 12:47:51.10	81.35	21.78	-38.3	-39.3	22.9	0.00e+00	92	33	0	673185792	48	6647
2026-01-28 12:47:52.11	81.61	21.79	-38.5	-39.5	22.8	0.00e+00	0	33	0	675282944	48	6777
2026-01-28 12:47:53.12	81.88	21.79	-38.1	-39.1	23.1	0.00e+00	50	33	0	677380096	48	6494
2026-01-28 12:47:54.14	82.15	21.80	-37.9	-38.9	23.3	0.00e+00	0	33	0	678428672	48	6320
2026-01-28 12:47:55.14	82.41	21.80	-37.8	-38.7	23.6	0.00e+00	0	33	0	680525824	48	6192
2026-01-28 12:47:56.15	82.68	21.81	-37.6	-38.5	23.6	0.00e+00	0	33	0	682622976	48	6093
2026-01-28 12:47:57.16	82.95	21.81	-37.5	-38.4	23.7	0.00e+00	43	33	0	684720128	48	6015
2026-01-28 12:47:58.17	83.21	21.82	-37.6	-38.5	23.6	0.00e+00	92	33	0	686817280	48	6081
2026-01-28 12:47:59.18	83.48	21.82	-37.3	-38.1	24.0	0.00e+00	39	33	0	687865856	48	5823
2026-01-28 12:48:00.19	83.75	21.82	-37.3	-38.2	23.8	0.00e+00	92	33	0	689963008	48	5879
2026-01-28 12:48:01.20	84.02	21.82	-37.5	-38.4	23.8	0.00e+00	42	33	0	692060160	48	5971
2026-01-28 12:48:02.21	84.28	21.82	-37.9	-38.8	23.4	0.00e+00	0	33	0	694157312	48	6265
2026-01-28 12:48:03.22	84.55	21.82	-37.9	-38.8	23.3	0.00e+00	0	33	0	696254464	48	6296
2026-01-28 12:48:04.23	84.82	21.82	-38.1	-39.0	23.2	0.00e+00	44	33	0	697303040	48	6462
2026-01-28 12:48:05.24	85.09	21.82	-38.2	-39.2	23.0	0.00e+00	92	33	0	699400192	48	6545
2026-01-28 12:48:06.25	85.35	21.82	-38.3	-39.3	23.0	0.00e+00	45	33	0	701497344	48	6642
2026-01-28 12:48:07.25	85.62	21.82	-38.3	-39.3	22.9	0.00e+00	92	33	0	703594496	48	6626
2026-01-28 12:48:08.26	85.88	21.81	-38.4	-39.4	22.3	0.00e+00	0	33	0	705691648	48	6723
2026-01-28 12:48:09.27	86.15	21.81	-38.4	-39.4	22.7	0.00e+00	27	33	0	706740224	48	6696
2026-01-28 12:48:10.28	86.42	21.81	-38.4	-39.4	22.8	0.00e+00	0	33	0	708837376	48	6712
2026-01-28 12:48:11.29	86.69	21.80	-38.4	-39.4	22.6	0.00e+00	0	33	0	710934528	48	6743
2026-01-28 12:48:12.30	86.95	21.80	-38.4	-39.3	22.8	0.00e+00	92	33	0	713031680	48	6667
2026-01-28 12:48:13.31	87.22	21.79	-38.4	-39.4	22.7	0.00e+00	38	33	0	715128832	48	6710
2026-01-28 12:48:14.32	87.49	21.78	-38.3	-39.3	22.9	0.00e+00	92	33	0	716177408	48	6627
2026-01-28 12:48:15.33	87.75	21.78	-37.9	-38.8	23.3	0.00e+00	40	33	0	718274560	48	6312
2026-01-28 12:48:16.34	88.02	21.77	-38.0	-38.9	23.3	0.00e+00	87	33	0	720371712	48	6358
2026-01-28 12:48:17.35	88.29	21.76	-38.0	-38.9	23.2	0.00e+00	41	33	0	722468864	48	6375
2026-01-28 12:48:18.36	88.55	21.75	-38.0	-39.0	23.2	0.00e+00	0	33	0	724566016	48	6404
2026-01-28 12:48:19.37	88.82	21.74	-38.2	-39.2	23.0	0.00e+00	0	33	0	725614592	48	6575
2026-01-28 12:48:20.38	89.09	21.73	-38.3	-39.2	22.9	0.00e+00	41	33	0	727711744	48	6612
2026-01-28 12:48:21.39	89.35	21.72	-38.4	-39.4	22.8	0.00e+00	92	33	0	729808896	48	6756
2026-01-28 12:48:22.40	89.62	21.71	-38.3	-39.3	22.9	0.00e+00	42	33	0	731906048	48	6666
2026-01-28 12:48:23.41	89.88	21.70	-38.2	-39.2	22.9	0.00e+00	92	33	0	734003200	48	6592
2026-01-28 12:48:24.42	90.15	21.68	-38.2	-39.2	23.0	0.00e+00	6	33	0	736100352	48	6594
2026-01-28 12:48:25.43	90.41	21.67	-38.1	-39.0	23.2	0.00e+00	5	33	0	737148928	48	6432
2026-01-28 12:48:26.44	90.68	21.66	-37.8	-38.7	23.4	0.00e+00	0	33	0	739246080	48	6242
2026-01-28 12:48:27.45	90.94	21.64	-37.8	-38.8	23.5	0.00e+00	0	33	0	741343232	48	6268
2026-01-28 12:48:28.46	91.21	21.63	-37.9	-38.9	23.2	0.00e+00	92	33	0	743440384	48	6334
2026-01-28 12:48:29.47	91.47	21.61	-37.6	-38.6	23.2	0.00e+00	5	33	0	745537536	48	6113
2026-01-28 12:48:30.47	91.73	21.59	-37.8	-38.7	23.4	0.00e+00	92	33	0	746586112	48	6199
2026-01-28 12:48:31.49	92.00	21.58	-37.6	-38.6	23.6	0.00e+00	5	33	0	748683264	48	6108
2026-01-28 12:48:32.49	92.26	21.56	-37.6	-38.5	23.6	0.00e+00	0	33	0	750780416	48	6084
2026-01-28 12:48:33.50	92.52	21.54	-37.6	-38.5	23.6	0.00e+00	5	33	0	752877568	48	6056
2026-01-28 12:48:34.51	92.78	21.52	-37.4	-38.3	23.8	0.00e+00	6	33	0	753926144	48	5935
2026-01-28 12:48:35.52	93.05	21.50	-37.5	-38.4	23.6	0.00e+00	81	33	0	756023296	48	6030
2026-01-28 12:48:36.53	93.31	21.48	-37.6	-38.5	23.6	0.00e+00	35	33	0	758120448	48	6064
2026-01-28 12:48:37.54	93.57	21.46	-37.5	-38.4	23.7	0.00e+00	92	33	0	760217600	48	5977
2026-01-28 12:48:38.55	93.83	21.44	-37.5	-38.4	23.7	0.00e+00	35	33	0	762314752	48	5999
2026-01-28 12:48:39.56	94.09	21.42	-37.4	-38.2	23.8	0.00e+00	40	33	0	764411904	48	5882
2026-01-28 12:48:40.57	94.35	21.40	-37.1	-38.0	24.0	0.00e+00	39	33	0	765460480	48	5699
2026-01-28 12:48:41.58	94.61	21.37	-37.0	-37.9	24.2	0.00e+00	0	33	0	767557632	48	5652
2026-01-28 12:48:42.59	94.87	21.35	-37.1	-38.0	24.0	0.00e+00	22	33	0	769654784	48	5724
2026-01-28 12:48:43.60	95.13	21.33	-37.3	-38.2	23.8	0.00e+00	47	33	0	771751936	48	5875
2026-01-28 12:48:44.61	95.39	21.30	-37.5	-38.4	23.6	0.00e+00	92	33	0	773849088	48	5983
2026-01-28 12:48:45.61	95.65	21.28	-37.6	-38.6	23.5	0.00e+00	8	33	0	774897664	48	6118
2026-01-28 12:48:46.62	95.91	21.25	-37.8	-38.7	23.5	0.00e+00	92	33	0	776994816	48	6230
2026-01-28 12:48:47.63	96.16	21.22	-37.8	-38.8	23.4	0.00e+00	45	33	0	779091968	48	6260
2026-01-28 12:48:48.64	96.42	21.20	-37.4	-38.4	23.8	0.00e+00	6	33	0	781189120	48	5969
2026-01-28 12:48:49.65	96.68	21.17	-37.6	-38.5	23.6	0.00e+00	5	33	0	783286272	48	6080
2026-01-28 12:48:50.66	96.93	21.14	-37.1	-38.0	23.9	0.00e+00	7	33	0	784334848	48	5707
2026-01-28 12:48:51.67	97.19	21.11	-37.0	-37.8	24.2	0.00e+00	92	33	0	786432000	48	5621
2026-01-28 12:48:52.68	97.45	21.08	-37.1	-38.0	24.0	0.00e+00	0	33	0	788529152	48	5737
2026-01-28 12:48:53.69	97.70	21.05	-36.7	-37.6	24.4	0.00e+00	90	33	0	790626304	48	5450
2026-01-28 12:48:54.70	97.96	21.02	-36.6	-37.4	24.6	0.00e+00	6	33	0	792723456	46	6000
2026-01-28 12:48:55.71	98.21	20.99	-36.1	-36.9	25.0	0.00e+00	0	33	0	793772032	46	5669
2026-01-28 12:48:56.72	98.46	20.96	-36.1	-36.9	25.0	0.00e+00	42	33	0	795869184	46	5639
2026-01-28 12:48:57.73	98.72	20.93	-36.0	-36.8	25.0	0.00e+00	40	33	0	797966336	46	5573
2026-01-28 12:48:58.74	98.97	20.90	-36.1	-36.9	24.9	0.00e+00	66	33	0	800063488	46	5662
2026-01-28 12:48:59.75	99.22	20.87	-36.3	-37.1	24.8	0.00e+00	0	33	0	802160640	46	5799
2026-01-28 12:49:00.76	99.47	20.83	-36.4	-37.3	24.6	0.00e+00	92	33	0	804257792	46	5915
2026-01-28 12:49:01.77	99.73	20.80	-36.7	-37.5	24.4	0.00e+00	44	33	0	805306368	46	6060
2026-01-28 12:49:02.78	99.98	20.77	-36.7	-37.5	24.4	0.00e+00	92	33	0	807403520	46	6086
2026-01-28 12:49:03.79	100.23	20.73	-36.6	-37.4	24.6	0.00e+00	37	33	0	809500672	46	6018
2026-01-28 12:49:04.80	100.48	20.70	-36.5	-37.4	24.5	0.00e+00	44	33	0	811597824	46	5974
2026-01-28 12:49:05.81	100.72	20.66	-36.4	-37.3	24.7	0.00e+00	35	33	0	812646400	46	5912
2026-01-28 12:49:06.82	100.97	20.62	-36.4	-37.2	24.7	0.00e+00	0	33	0	814743552	46	5844
2026-01-28 12:49:07.83	101.22	20.59	-36.4	-37.2	24.8	0.00e+00	92	33	0	816840704	46	5846
2026-01-28 12:49:08.84	101.47	20.55	-36.3	-37.2	24.8	0.00e+00	45	33	0	818937856	46	5831
2026-01-28 12:49:09.85	101.71	20.51	-36.1	-36.9	25.0	0.00e+00	91	33	0	821035008	46	5648
2026-01-28 12:49:10.86	101.96	20.47	-35.8	-36.6	25.3	0.00e+00	0	33	0	823132160	46	5451
2026-01-28 12:49:11.87	102.21	20.44	-35.7	-36.5	25.3	0.00e+00	0	33	0	824180736	44	6050
2026-01-28 12:49:12.88	102.45	20.40	-35.6	-36.4	25.4	0.00e+00	0	33	0	826277888	44	5996
2026-01-28 12:49:13.89	102.70	20.36	-35.5	-36.3	25.5	0.00e+00	0	33	0	828375040	44	5915
2026-01-28 12:49:14.89	102.94	20.32	-35.3	-36.0	25.6	0.00e+00	92	33	0	830472192	44	5750
2026-01-28 12:49:15.90	103.18	20.28	-35.4	-36.1	25.6	0.00e+00	0	33	0	832569344	44	5816
2026-01-28 12:49:16.91	103.42	20.24	-35.4	-36.1	25.5	0.00e+00	92	33	0	833617920	44	5804
2026-01-28 12:49:17.92	103.66	20.20	-35.5	-36.2	25.4	0.00e+00	41	33	0	835715072	44	5888
2026-01-28 12:49:18.93	103.91	20.15	-35.7	-36.4	25.3	0.00e+00	0	33	0	837812224	44	6027
2026-01-28 12:49:19.93	104.14	20.11	-35.8	-36.6	25.1	0.00e+00	0	33	0	839909376	44	6173
2026-01-28 12:49:20.94	104.38	20.07	-35.7	-36.5	25.2	0.00e+00	41	33	0	842006528	44	6092
2026-01-28 12:49:21.95	104.62	20.03	-35.9	-36.8	25.0	0.00e+00	39	33	0	843055104	44	6260
2026-01-28 12:49:22.96	104.86	19.98	-36.1	-37.0	24.9	0.00e+00	0	33	0	845152256	44	6430
2026-01-28 12:49:23.97	105.10	19.94	-36.4	-37.3	24.6	0.00e+00	92	33	0	847249408	44	6616
2026-01-28 12:49:24.98	105.34	19.90	-36.6	-37.5	24.3	0.00e+00	42	33	0	849346560	44	6792
2026-01-28 12:49:25.99	105.57	19.85	-36.7	-37.5	24.4	0.00e+00	92	33	0	851443712	44	6848
2026-01-28 12:49:27.00	105.81	19.81	-36.6	-37.5	24.3	0.00e+00	40	33	0	852492288	44	6798
2026-01-28 12:49:28.01	106.05	19.76	-36.5	-37.4	24.2	0.00e+00	0	33	0	854589440	44	6709
2026-01-28 12:49:29.02	106.28	19.72	-36.5	-37.3	24.4	0.00e+00	0	33	0	856686592	44	6688
2026-01-28 12:49:30.03	106.51	19.67	-36.4	-37.3	24.6	0.00e+00	40	33	0	858783744	44	6647
2026-01-28 12:49:31.04	106.75	19.62	-36.2	-37.1	24.7	0.00e+00	90	33	0	860880896	44	6467
2026-01-28 12:49:32.05	106.98	19.58	-36.2	-37.0	24.7	0.00e+00	0	33	0	861929472	44	6436
2026-01-28 12:49:33.06	107.21	19.53	-36.2	-36.9	24.8	0.00e+00	92	33	0	864026624	44	6389
2026-01-28 12:49:34.07	107.44	19.48	-36.1	-36.9	25.0	0.00e+00	0	33	0	866123776	44	6345
2026-01-28 12:49:35.08	107.67	19.43	-36.1	-36.9	25.0	0.00e+00	0	33	0	868220928	44	6328
2026-01-28 12:49:36.09	107.90	19.39	-36.1	-36.9	24.9	0.00e+00	0	33	0	870318080	44	6372
2026-01-28 12:49:37.10	108.13	19.34	-36.3	-37.1	24.5	0.00e+00	2	33	0	871366656	44	6531
2026-01-28 12:49:38.11	108.36	19.29	-36.6	-37.5	24.4	0.00e+00	92	33	0	873463808	44	6787
2026-01-28 12:49:39.12	108.59	19.24	-37.0	-37.9	24.0	0.00e+00	0	33	0	875560960	46	6347
2026-01-28 12:49:40.13	108.82	19.19	-37.4	-38.3	23.7	0.00e+00	92	33	0	877658112	46	6631
2026-01-28 12:49:41.14	109.04	19.14	-37.6	-38.5	23.5	0.00e+00	41	33	0	879755264	46	6785
2026-01-28 12:49:42.15	109.27	19.09	-37.7	-38.7	23.4	0.00e+00	92	33	0	880803840	46	6928
2026-01-28 12:49:43.16	109.49	19.04	-37.7	-38.6	23.5	0.00e+00	0	33	0	882900992	48	6144
2026-01-28 12:49:44.17	109.72	18.99	-37.6	-38.5	23.5	0.00e+00	42	33	0	884998144	48	6061
2026-01-28 12:49:45.17	109.94	18.94	-37.7	-38.6	23.5	0.00e+00	0	33	0	887095296	48	6148
2026-01-28 12:49:46.18	110.16	18.88	-37.8	-38.8	23.3	0.00e+00	0	33	0	889192448	48	6255
2026-01-28 12:49:47.19	110.38	18.83	-37.8	-38.8	23.2	0.00e+00	92	33	0	890241024	48	6288
2026-01-28 12:49:48.20	110.60	18.78	-37.7	-38.7	23.5	0.00e+00	39	33	0	892338176	48	6199
2026-01-28 12:49:49.21	110.82	18.73	-37.7	-38.6	23.5	0.00e+00	92	33	0	894435328	48	6139
2026-01-28 12:49:50.22	111.04	18.67	-37.6	-38.5	23.5	0.00e+00	2	33	0	896532480	48	6099
2026-01-28 12:49:51.23	111.26	18.62	-37.4	-38.3	23.8	0.00e+00	2	33	0	898629632	48	5933
2026-01-28 12:49:52.24	111.48	18.57	-37.1	-38.0	24.0	0.00e+00	41	33	0	900726784	48	5723
2026-01-28 12:49:53.25	111.70	18.51	-37.2	-38.1	24.0	0.00e+00	42	33	0	901775360	48	5779
2026-01-28 12:49:54.26	111.91	18.46	-37.0	-37.9	24.1	0.00e+00	90	33	0	903872512	48	5634
2026-01-28 12:49:55.27	112.13	18.40	-37.1	-38.0	24.0	0.00e+00	0	33	0	905969664	48	5707
2026-01-28 12:49:56.28	112.34	18.35	-37.2	-38.1	23.9	0.00e+00	90	33	0	908066816	48	5819
2026-01-28 12:49:57.28	112.56	18.30	-37.4	-38.3	23.7	0.00e+00	0	33	0	910163968	48	5948
2026-01-28 12:49:58.29	112.77	18.24	-37.5	-38.4	23.6	0.00e+00	47	33	0	911212544	48	5979
2026-01-28 12:49:59.30	112.98	18.19	-37.6	-38.5	23.5	0.00e+00	0	33	0	913309696	48	6053
2026-01-28 12:50:00.31	113.20	18.13	-37.7	-38.6	23.4	0.00e+00	0	33	0	915406848	48	6162
2026-01-28 12:50:01.32	113.41	18.07	-37.8	-38.7	23.3	0.00e+00	92	33	0	917504000	48	6217
2026-01-28 12:50:02.33	113.62	18.02	-37.8	-38.8	23.2	0.00e+00	2	33	0	919601152	48	6264
2026-01-28 12:50:03.34	113.83	17.96	-37.9	-38.8	23.1	0.00e+00	90	33	0	920649728	48	6307
2026-01-28 12:50:04.35	114.04	17.90	-38.0	-38.9	23.1	0.00e+00	35	33	0	922746880	48	6377
2026-01-28 12:50:05.36	114.25	17.85	-37.8	-38.7	23.4	0.00e+00	90	33	0	924844032	48	6217
2026-01-28 12:50:06.37	114.45	17.79	-37.6	-38.5	23.6	0.00e+00	33	33	0	926941184	48	6051
2026-01-28 12:50:07.38	114.66	17.73	-37.6	-38.5	23.5	0.00e+00	34	33	0	929038336	48	6064
2026-01-28 12:50:08.38	114.86	17.68	-37.1	-38.0	23.9	0.00e+00	2	33	0	930086912	48	5734
2026-01-28 12:50:09.39	115.07	17.62	-37.0	-37.9	24.0	0.00e+00	34	33	0	932184064	48	5646
2026-01-28 12:50:10.40	115.27	17.56	-37.0	-37.9	24.0	0.00e+00	90	33	0	934281216	48	5639
2026-01-28 12:50:11.41	115.48	17.50	-37.2	-38.0	23.9	0.00e+00	0	33	0	936378368	48	5755
2026-01-28 12:50:12.42	115.68	17.44	-37.1	-38.0	24.0	0.00e+00	92	33	0	938475520	48	5736
2026-01-28 12:50:13.43	115.88	17.39	-37.2	-38.1	23.9	0.00e+00	41	33	0	939524096	48	5779
2026-01-28 12:50:14.44	116.08	17.33	-37.4	-38.3	23.7	0.00e+00	41	33	0	941621248	48	5943
2026-01-28 12:50:15.45	116.29	17.27	-37.2	-38.1	23.9	0.00e+00	43	33	0	943718400	48	5763
2026-01-28 12:50:16.46	116.49	17.21	-37.1	-37.9	24.0	0.00e+00	5	33	0	945815552	48	5687
2026-01-28 12:50:17.47	116.68	17.15	-37.1	-38.0	23.9	0.00e+00	92	33	0	947912704	48	5723
2026-01-28 12:50:18.48	116.88	17.09	-37.1	-38.0	23.8	0.00e+00	0	33	0	948961280	48	5705
2026-01-28 12:50:19.49	117.08	17.03	-37.3	-38.2	23.8	0.00e+00	92	33	0	951058432	48	5855
2026-01-28 12:50:20.50	117.28	16.97	-37.5	-38.4	23.6	0.00e+00	6	33	0	953155584	48	5980
2026-01-28 12:50:21.50	117.47	16.91	-37.6	-38.5	23.4	0.00e+00	0	33	0	955252736	48	6095
2026-01-28 12:50:22.51	117.67	16.85	-38.0	-38.9	22.9	0.00e+00	0	33	0	957349888	48	6390
2026-01-28 12:50:23.52	117.86	16.79	-37.9	-38.8	23.2	0.00e+00	38	33	0	958398464	48	6314
2026-01-28 12:50:24.53	118.06	16.73	-38.0	-39.0	23.0	0.00e+00	92	33	0	960495616	48	6420
2026-01-28 12:50:25.53	118.25	16.67	-37.6	-38.6	23.4	0.00e+00	7	33	0	962592768	48	6161
2026-01-28 12:50:26.54	118.44	16.61	-37.7	-38.7	23.3	0.00e+00	92	33	0	964689920	48	6188
2026-01-28 12:50:27.55	118.63	16.55	-37.6	-38.5	23.4	0.00e+00	37	33	0	966787072	48	6075
2026-01-28 12:50:28.56	118.82	16.49	-37.4	-38.4	23.6	0.00e+00	58	33	0	967835648	48	5975
2026-01-28 12:50:29.56	119.01	16.42	-37.7	-38.6	23.3	0.00e+00	48	33	0	969932800	48	6142
2026-01-28 12:50:30.57	119.20	16.36	-37.8	-38.7	23.2	0.00e+00	37	33	0	972029952	48	6199
2026-01-28 12:50:31.58	119.39	16.30	-37.8	-38.7	23.2	0.00e+00	14	33	0	974127104	48	6238
2026-01-28 12:50:32.59	119.58	16.24	-37.7	-38.6	23.4	0.00e+00	33	33	0	976224256	48	6144
2026-01-28 12:50:33.60	119.76	16.18	-37.5	-38.4	23.5	0.00e+00	90	33	0	977272832	48	5983
2026-01-28 12:50:34.61	119.95	16.12	-37.3	-38.2	23.7	0.00e+00	51	33	0	979369984	48	5866
2026-01-28 12:50:35.62	120.14	16.05	-37.2	-38.1	23.8	0.00e+00	70	33	0	981467136	48	5816
2026-01-28 12:50:36.63	120.32	15.99	-37.0	-37.8	24.0	0.00e+00	6	33	0	983564288	48	5619
2026-01-28 12:50:37.64	120.51	15.93	-37.0	-37.9	23.9	0.00e+00	6	33	0	985661440	48	5671
2026-01-28 12:50:38.65	120.69	15.87	-37.2	-38.1	23.6	0.00e+00	0	33	0	986710016	48	5807
2026-01-28 12:50:39.66	120.87	15.80	-37.5	-38.4	23.5	0.00e+00	0	33	0	988807168	48	5986
2026-01-28 12:50:40.67	121.05	15.74	-37.7	-38.7	23.2	0.00e+00	92	33	0	990904320	48	6197
2026-01-28 12:50:41.68	121.24	15.68	-38.0	-39.0	23.1	0.00e+00	7	33	0	993001472	48	6394
2026-01-28 12:50:42.69	121.42	15.62	-37.9	-38.9	23.1	0.00e+00	92	33	0	995098624	48	6384
2026-01-28 12:50:43.70	121.60	15.55	-37.8	-38.9	23.1	0.00e+00	7	33	0	997195776	48	6342
2026-01-28 12:50:44.71	121.77	15.49	-38.0	-39.1	23.0	0.00e+00	92	33	0	998244352	48	6477
2026-01-28 12:50:45.72	121.95	15.43	-37.4	-38.4	23.5	0.00e+00	33	33	0	1000341504	48	6013
2026-01-28 12:50:46.73	122.13	15.36	-37.2	-38.2	23.7	0.00e+00	0	33	0	1002438656	48	5860
2026-01-28 12:50:47.74	122.31	15.30	-37.4	-38.4	23.5	0.00e+00	76	33	0	1004535808	48	5975
2026-01-28 12:50:48.75	122.48	15.24	-37.2	-38.2	23.7	0.00e+00	0	33	0	1006632960	48	5879
2026-01-28 12:50:49.75	122.66	15.17	-37.6	-38.6	23.4	0.00e+00	92	33	0	1007681536	48	6111
2026-01-28 12:50:50.76	122.83	15.11	-37.7	-38.7	23.3	0.00e+00	40	33	0	1009778688	48	6208
2026-01-28 12:50:51.77	123.01	15.05	-37.8	-38.8	23.1	0.00e+00	92	33	0	1011875840	48	6307
2026-01-28 12:50:52.78	123.18	14.98	-37.9	-38.9	23.1	0.00e+00	38	33	0	1013972992	48	6323
2026-01-28 12:50:53.79	123.35	14.92	-37.7	-38.6	23.3	0.00e+00	42	33	0	1016070144	48	6162
2026-01-28 12:50:54.80	123.52	14.85	-37.6	-38.6	23.3	0.00e+00	0	33	0	1017118720	48	6111
2026-01-28 12:50:55.81	123.69	14.79	-37.3	-38.2	23.7	0.00e+00	43	33	0	1019215872	48	5833
2026-01-28 12:50:56.82	123.86	14.73	-37.2	-38.1	23.8	0.00e+00	92	33	0	1021313024	48	5789
2026-01-28 12:50:57.83	124.03	14.66	-37.1	-38.0	23.8	0.00e+00	2	33	0	1023410176	48	5743
2026-01-28 12:50:58.84	124.20	14.60	-37.2	-38.1	23.8	0.00e+00	92	33	0	1025507328	48	5796
2026-01-28 12:50:59.85	124.37	14.53	-37.5	-38.4	23.6	0.00e+00	0	33	0	1026555904	48	5992
2026-01-28 12:51:00.85	124.54	14.47	-37.7	-38.6	23.3	0.00e+00	49	33	0	1028653056	48	6172
2026-01-28 12:51:01.86	124.70	14.40	-38.0	-38.9	23.1	0.00e+00	47	33	0	1030750208	48	6356
2026-01-28 12:51:02.87	124.87	14.34	-38.3	-39.3	22.8	0.00e+00	0	33	0	1032847360	48	6616
2026-01-28 12:51:03.88	125.04	14.28	-38.1	-39.1	22.9	0.00e+00	92	33	0	1034944512	48	6522
2026-01-28 12:51:04.89	125.20	14.21	-38.2	-39.2	22.9	0.00e+00	0	33	0	1035993088	48	6542
2026-01-28 12:51:05.90	125.36	14.15	-37.9	-38.9	23.1	0.00e+00	92	33	0	1038090240	48	6324
2026-01-28 12:51:06.91	125.53	14.08	-38.0	-39.0	23.1	0.00e+00	2	33	0	1040187392	48	6393
2026-01-28 12:51:07.92	125.69	14.02	-37.6	-38.6	23.4	0.00e+00	0	33	0	1042284544	48	6104
2026-01-28 12:51:08.93	125.85	13.95	-37.6	-38.6	23.4	0.00e+00	0	33	0	1044381696	48	6115
2026-01-28 12:51:09.94	126.01	13.89	-37.9	-38.9	23.1	0.00e+00	0	33	0	1045430272	48	6342
2026-01-28 12:51:10.95	126.17	13.82	-38.1	-39.1	22.9	0.00e+00	2	33	0	1047527424	48	6498
2026-01-28 12:51:11.96	126.33	13.76	-38.2	-39.2	22.8	0.00e+00	38	33	0	1049624576	48	6548
2026-01-28 12:51:12.97	126.49	13.69	-38.3	-39.3	22.7	0.00e+00	91	33	0	1051721728	48	6680
2026-01-28 12:51:13.98	126.65	13.63	-38.2	-39.3	22.9	0.00e+00	37	33	0	1053818880	48	6618
2026-01-28 12:51:14.99	126.81	13.56	-38.2	-39.2	22.8	0.00e+00	91	33	0	1054867456	48	6547
2026-01-28 12:51:16.00	126.97	13.50	-38.0	-39.0	23.0	0.00e+00	45	33	0	1056964608	48	6431
2026-01-28 12:51:17.01	127.12	13.43	-37.9	-38.8	23.1	0.00e+00	46	33	0	1059061760	48	6275
2026-01-28 12:51:18.02	127.28	13.37	-37.8	-38.8	23.2	0.00e+00	70	33	0	1061158912	48	6266
2026-01-28 12:51:19.03	127.44	13.30	-37.5	-38.4	23.5	0.00e+00	0	33	0	1063256064	48	6011
2026-01-28 12:51:20.04	127.59	13.24	-37.5	-38.4	23.5	0.00e+00	92	33	0	1065353216	48	6018
2026-01-28 12:51:21.05	127.74	13.17	-37.5	-38.4	23.4	0.00e+00	2	33	0	1066401792	48	6024
2026-01-28 12:51:22.05	127.90	13.11	-37.7	-38.6	23.2	0.00e+00	91	33	0	1068498944	48	6164
2026-01-28 12:51:23.06	128.05	13.04	-38.0	-39.0	23.0	0.00e+00	0	33	0	1070596096	48	6407
2026-01-28 12:51:24.07	128.20	12.98	-38.2	-39.2	22.8	0.00e+00	0	33	0	1072693248	48	6549
2026-01-28 12:51:25.08	128.35	12.91	-38.4	-39.4	22.6	0.00e+00	0	33	0	1074790400	48	6737
2026-01-28 12:51:26.09	128.50	12.85	-38.4	-39.4	22.7	0.00e+00	0	33	0	1075838976	48	6712
2026-01-28 12:51:27.09	128.65	12.78	-38.3	-39.3	22.7	0.00e+00	90	33	0	1077936128	48	6676
2026-01-28 12:51:28.10	128.80	12.72	-38.1	-39.1	22.9	0.00e+00	0	33	0	1080033280	48	6525
2026-01-28 12:51:29.11	128.95	12.65	-38.1	-39.1	22.9	0.00e+00	92	33	0	1082130432	48	6465
2026-01-28 12:51:30.12	129.10	12.59	-37.9	-38.8	23.1	0.00e+00	0	33	0	1084227584	48	6311
2026-01-28 12:51:31.13	129.25	12.52	-37.9	-38.8	23.1	0.00e+00	0	33	0	1085276160	48	6279
2026-01-28 12:51:32.14	129.39	12.46	-37.8	-38.8	23.2	0.00e+00	32	33	0	1087373312	48	6246
2026-01-28 12:51:33.15	129.54	12.39	-37.9	-38.9	23.0	0.00e+00	0	33	0	1089470464	48	6322
2026-01-28 12:51:34.16	129.69	12.33	-38.1	-39.1	22.9	0.00e+00	32	33	0	1091567616	48	6472
2026-01-28 12:51:35.17	129.83	12.26	-38.2	-39.2	22.7	0.00e+00	48	33	0	1093664768	48	6565
2026-01-28 12:51:36.18	129.97	12.20	-38.4	-39.4	22.6	0.00e+00	91	33	0	1094713344	48	6708
2026-01-28 12:51:37.19	130.12	12.13	-38.3	-39.3	22.6	0.00e+00	50	33	0	1096810496	48	6651
2026-01-28 12:51:38.20	130.26	12.07	-38.3	-39.3	22.7	0.00e+00	92	33	0	1098907648	48	6617
2026-01-28 12:51:39.21	130.40	12.00	-38.4	-39.4	22.0	0.00e+00	0	33	0	1101004800	48	6705
2026-01-28 12:51:40.22	130.55	11.94	-38.3	-39.3	22.5	0.00e+00	45	33	0	1103101952	48	6640
2026-01-28 12:51:41.22	130.69	11.87	-38.2	-39.2	22.6	0.00e+00	0	33	0	1104150528	48	6611
2026-01-28 12:51:42.23	130.83	11.81	-38.2	-39.1	22.7	0.00e+00	0	33	0	1106247680	48	6530
2026-01-28 12:51:43.24	130.97	11.74	-38.3	-39.3	22.6	0.00e+00	92	33	0	1108344832	48	6672
2026-01-28 12:51:44.25	131.11	11.68	-38.3	-39.3	22.5	0.00e+00	0	33	0	1110441984	48	6672
2026-01-28 12:51:45.26	131.25	11.61	-38.4	-39.4	22.6	0.00e+00	90	33	0	1112539136	48	6700
2026-01-28 12:51:46.27	131.38	11.55	-38.6	-39.7	22.2	0.00e+00	0	33	0	1113587712	48	6960
2026-01-28 12:51:47.28	131.52	11.48	-38.7	-39.8	22.2	0.00e+00	0	33	0	1115684864	50	6272
2026-01-28 12:51:48.29	131.66	11.42	-38.9	-40.0	22.0	0.00e+00	0	33	0	1117782016	50	6442
2026-01-28 12:51:49.29	131.80	11.36	-39.1	-40.2	21.8	0.00e+00	0	33	0	1119879168	50	6589
2026-01-28 12:51:50.30	131.93	11.29	-39.2	-40.3	21.7	0.00e+00	92	33	0	1121976320	50	6674
2026-01-28 12:51:51.31	132.07	11.23	-39.1	-40.3	21.7	0.00e+00	36	33	0	1123024896	50	6636
2026-01-28 12:51:52.32	132.20	11.16	-39.1	-40.2	21.8	0.00e+00	92	33	0	1125122048	50	6584
2026-01-28 12:51:53.33	132.34	11.10	-38.9	-40.0	21.9	0.00e+00	34	33	0	1127219200	50	6405
2026-01-28 12:51:54.34	132.47	11.03	-38.9	-40.0	22.1	0.00e+00	2	33	0	1129316352	50	6412
2026-01-28 12:51:55.35	132.60	10.97	-38.6	-39.7	22.4	0.00e+00	2	33	0	1131413504	50	6177
2026-01-28 12:51:56.36	132.74	10.90	-38.5	-39.5	22.4	0.00e+00	37	33	0	1132462080	50	6057
2026-01-28 12:51:57.37	132.87	10.84	-38.5	-39.6	22.3	0.00e+00	20	33	0	1134559232	50	6113
2026-01-28 12:51:58.38	133.00	10.77	-38.4	-39.4	22.5	0.00e+00	35	33	0	1136656384	50	5981
2026-01-28 12:51:59.39	133.13	10.71	-38.4	-39.4	22.5	0.00e+00	92	33	0	1138753536	50	6026
2026-01-28 12:52:00.40	133.26	10.64	-38.5	-39.5	22.4	0.00e+00	45	33	0	1140850688	50	6075
2026-01-28 12:52:01.41	133.39	10.58	-38.5	-39.5	22.4	0.00e+00	92	33	0	1141899264	50	6097
2026-01-28 12:52:02.42	133.52	10.52	-38.5	-39.5	22.4	0.00e+00	6	33	0	1143996416	50	6098
2026-01-28 12:52:03.43	133.65	10.45	-38.6	-39.6	22.3	0.00e+00	0	33	0	1146093568	50	6136
2026-01-28 12:52:04.43	133.78	10.39	-39.1	-40.1	22.0	0.00e+00	0	33	0	1148190720	50	6538
2026-01-28 12:52:05.44	133.90	10.32	-38.4	-39.4	22.5	0.00e+00	49	33	0	1150287872	50	6022
2026-01-28 12:52:06.45	134.03	10.26	-38.5	-39.5	22.4	0.00e+00	92	33	0	1151336448	50	6070
2026-01-28 12:52:07.46	134.16	10.20	-38.5	-39.5	22.4	0.00e+00	5	33	0	1153433600	50	6093
2026-01-28 12:52:08.47	134.28	10.13	-38.6	-39.6	22.2	0.00e+00	92	33	0	1155530752	50	6161
2026-01-28 12:52:09.48	134.41	10.07	-38.7	-39.8	22.1	0.00e+00	6	33	0	1157627904	50	6268
2026-01-28 12:52:10.49	134.53	10.00	-38.9	-39.9	22.0	0.00e+00	6	33	0	1159725056	50	6381
2026-01-28 12:52:11.50	134.66	9.94	-39.0	-40.0	21.9	0.00e+00	6	33	0	1161822208	50	6459
2026-01-28 12:52:12.51	134.78	9.88	-39.1	-40.2	21.7	0.00e+00	5	33	0	1162870784	50	6597
2026-01-28 12:52:13.52	134.91	9.81	-39.2	-40.3	21.6	0.00e+00	92	33	0	1164967936	50	6653
2026-01-28 12:52:14.53	135.03	9.75	-39.4	-40.5	21.4	0.00e+00	34	33	0	1167065088	50	6833
2026-01-28 12:52:15.54	135.15	9.68	-39.2	-40.3	21.6	0.00e+00	92	33	0	1169162240	50	6687
2026-01-28 12:52:16.54	135.27	9.62	-39.5	-40.7	21.2	0.00e+00	34	33	0	1171259392	50	6962
2026-01-28 12:52:17.56	135.40	9.56	-39.3	-40.5	21.4	0.00e+00	27	33	0	1172307968	50	6821
2026-01-28 12:52:18.57	135.52	9.49	-39.2	-40.4	21.5	0.00e+00	34	33	0	1174405120	50	6722
2026-01-28 12:52:19.57	135.64	9.43	-39.3	-40.4	21.5	0.00e+00	34	33	0	1176502272	50	6732
2026-01-28 12:52:20.58	135.76	9.37	-39.4	-40.6	21.4	0.00e+00	0	33	0	1178599424	50	6889
2026-01-28 12:52:21.59	135.88	9.30	-39.0	-40.1	21.7	0.00e+00	51	33	0	1180696576	50	6501
2026-01-28 12:52:22.60	135.99	9.24	-39.1	-40.2	21.6	0.00e+00	92	33	0	1181745152	50	6589
2026-01-28 12:52:23.61	136.11	9.18	-39.1	-40.2	21.7	0.00e+00	51	33	0	1183842304	50	6591
2026-01-28 12:52:24.62	136.23	9.11	-39.5	-40.7	21.4	0.00e+00	92	33	0	1185939456	50	6934
2026-01-28 12:52:25.63	136.35	9.05	-39.4	-40.5	21.4	0.00e+00	0	33	0	1188036608	50	6822
2026-01-28 12:52:26.64	136.46	8.99	-39.1	-40.2	21.6	0.00e+00	6	33	0	1190133760	50	6610
2026-01-28 12:52:27.65	136.58	8.92	-39.4	-40.5	21.3	0.00e+00	53	33	0	1191182336	50	6820
2026-01-28 12:52:28.66	136.70	8.86	-39.2	-40.4	21.5	0.00e+00	6	33	0	1193279488	50	6708
2026-01-28 12:52:29.66	136.81	8.80	-39.3	-40.4	21.5	0.00e+00	92	33	0	1195376640	50	6753
2026-01-28 12:52:30.67	136.93	8.74	-39.4	-40.6	21.3	0.00e+00	0	33	0	1197473792	50	6878
2026-01-28 12:52:31.68	137.04	8.67	-39.4	-40.6	21.2	0.00e+00	92	33	0	1199570944	50	6917
2026-01-28 12:52:32.69	137.16	8.61	-39.7	-40.9	20.9	0.00e+00	6	33	0	1200619520	50	7148
2026-01-28 12:52:33.70	137.27	8.55	-39.7	-40.9	20.9	0.00e+00	0	33	0	1202716672	52	6385
2026-01-28 12:52:34.71	137.38	8.48	-39.7	-40.9	20.9	0.00e+00	5	33	0	1204813824	52	6382
2026-01-28 12:52:35.72	137.49	8.42	-39.7	-40.9	20.9	0.00e+00	30	33	0	1206910976	52	6354
