passes_logs/2026/01/28/R4.6S_Anadyr/R4.6S_Anadyr__20260128_185157_AQUA_rec.log

#Pass ID: 20260128_185157_AQUA
#Satellite: AQUA
#Configuration: AQUA
#almurnet v.1.7.20251203
#Start time: 2026-01-28 18:51:58

#Version: 2.2.20231116
#Station: R4.6S_Anadyr
#Location: 177.4865 lon 64.73178 lat
#TLE: 1 27424U 02022A   26027.88561574  .00001798  00000+0  36942-3 0  9997
#TLE: 2 27424  98.4102 354.5311 0001840  63.5604 322.5877 14.61868111262779

#Time	Az	El	Level	Level2	SNR	BER	BlckErr	Temp	State	Recorded	gain1	gain2
2026-01-28 18:51:58.10	26.56	0.03	-48.5	-60.2	3.5	8.45e-01	0	30	0	0	60	37014
2026-01-28 18:51:59.10	26.49	0.09	-49.1	-66.9	3.5	3.03e+01	0	31	104	0	60	85189
2026-01-28 18:52:00.11	26.43	0.14	-49.1	-66.9	3.5	3.03e+01	0	31	104	0	60	85561
2026-01-28 18:52:01.12	26.36	0.20	-49.0	-66.9	3.5	3.03e+01	0	31	104	0	60	85422
2026-01-28 18:52:02.14	26.29	0.25	-49.0	-66.9	3.5	3.03e+01	0	31	104	0	60	85069
2026-01-28 18:52:03.14	26.22	0.31	-49.1	-67.0	3.5	3.03e+01	0	31	104	0	60	85902
2026-01-28 18:52:04.15	26.15	0.36	-49.1	-67.0	3.5	3.03e+01	0	31	104	0	60	85937
2026-01-28 18:52:05.16	26.08	0.42	-49.1	-67.0	3.5	3.03e+01	0	31	104	0	60	85990
2026-01-28 18:52:06.17	26.02	0.47	-49.1	-67.0	3.5	3.03e+01	0	31	104	0	60	85789
2026-01-28 18:52:07.18	25.95	0.53	-49.2	-67.0	3.5	3.03e+01	0	31	104	0	60	86013
2026-01-28 18:52:08.19	25.88	0.58	-49.0	-67.0	3.5	3.03e+01	0	31	104	0	60	85893
2026-01-28 18:52:09.20	25.81	0.64	-49.1	-67.0	3.5	3.03e+01	0	32	104	0	60	85873
2026-01-28 18:52:10.21	25.74	0.69	-49.0	-66.9	3.5	3.03e+01	0	32	104	0	60	85377
2026-01-28 18:52:11.22	25.66	0.75	-48.8	-66.9	3.5	3.03e+01	0	31	104	0	60	85081
2026-01-28 18:52:12.23	25.59	0.81	-48.9	-66.9	3.5	3.03e+01	0	32	104	0	60	84732
2026-01-28 18:52:13.24	25.52	0.86	-48.9	-66.8	3.5	3.03e+01	0	31	104	0	60	84206
2026-01-28 18:52:14.25	25.45	0.92	-48.6	-66.7	3.5	3.03e+01	0	32	104	0	60	83348
2026-01-28 18:52:15.26	25.38	0.97	-48.7	-66.7	3.5	3.03e+01	0	32	104	0	60	82782
2026-01-28 18:52:16.27	25.31	1.03	-48.6	-66.5	3.5	3.03e+01	0	32	104	0	60	81266
2026-01-28 18:52:17.28	25.23	1.09	-47.1	-66.4	3.5	3.03e+01	0	32	104	0	60	79962
2026-01-28 18:52:18.29	25.16	1.14	-48.3	-66.2	3.5	3.03e+01	0	32	104	0	60	78189
2026-01-28 18:52:19.30	25.09	1.20	-48.2	-66.0	3.5	3.03e+01	0	32	104	0	60	76696
2026-01-28 18:52:20.31	25.01	1.25	-48.0	-65.9	3.5	3.03e+01	0	32	104	0	60	75872
2026-01-28 18:52:21.32	24.94	1.31	-47.8	-65.7	3.5	3.03e+01	0	32	104	0	60	74070
2026-01-28 18:52:22.33	24.87	1.37	-47.5	-65.4	3.5	3.03e+01	0	32	104	0	60	71613
2026-01-28 18:52:23.34	24.79	1.42	-47.5	-65.4	3.5	3.03e+01	0	32	104	0	60	71749
2026-01-28 18:52:24.35	24.72	1.48	-47.5	-65.5	3.5	3.03e+01	0	32	104	0	60	72080
2026-01-28 18:52:25.36	24.64	1.54	-47.5	-65.4	3.5	3.03e+01	0	32	104	0	60	71684
2026-01-28 18:52:26.37	24.57	1.60	-47.5	-65.4	3.5	3.03e+01	0	32	104	0	60	71476
2026-01-28 18:52:27.38	24.49	1.65	-47.5	-65.4	3.5	3.03e+01	0	32	104	0	60	71608
2026-01-28 18:52:28.39	24.41	1.71	-47.5	-65.4	3.5	3.03e+01	0	32	104	0	60	71705
2026-01-28 18:52:29.40	24.34	1.77	-47.5	-65.3	3.5	3.03e+01	0	32	104	0	60	71098
2026-01-28 18:52:30.41	24.26	1.82	-47.5	-65.4	3.5	3.03e+01	0	32	104	0	60	71407
2026-01-28 18:52:31.42	24.18	1.88	-47.5	-65.3	3.5	3.03e+01	0	32	104	0	60	71171
2026-01-28 18:52:32.43	24.10	1.94	-47.5	-65.4	3.5	3.03e+01	0	32	104	0	60	71323
2026-01-28 18:52:33.44	24.03	2.00	-47.5	-65.4	3.5	3.03e+01	0	32	104	0	60	71669
2026-01-28 18:52:34.45	23.95	2.05	-47.5	-65.4	3.5	3.03e+01	0	32	104	0	60	71837
2026-01-28 18:52:35.46	23.87	2.11	-47.5	-65.4	3.5	3.03e+01	0	32	104	0	60	71539
2026-01-28 18:52:36.47	23.79	2.17	-47.5	-65.3	3.5	3.03e+01	0	32	104	0	60	71111
2026-01-28 18:52:37.48	23.71	2.23	-47.5	-65.3	3.5	3.03e+01	0	32	104	0	60	71116
2026-01-28 18:52:38.49	23.63	2.28	-47.5	-65.3	3.5	3.03e+01	0	32	104	0	60	70961
2026-01-28 18:52:39.50	23.55	2.34	-47.5	-65.2	3.5	3.03e+01	0	32	104	0	60	70404
2026-01-28 18:52:40.51	23.47	2.40	-47.5	-65.3	3.5	3.03e+01	0	32	104	0	60	71179
2026-01-28 18:52:41.51	23.39	2.46	-47.5	-65.3	3.5	3.03e+01	0	32	104	0	60	70994
2026-01-28 18:52:42.53	23.31	2.52	-47.5	-65.4	3.5	3.03e+01	0	32	104	0	60	71438
2026-01-28 18:52:43.54	23.23	2.58	-47.5	-65.3	3.5	3.03e+01	0	32	104	0	60	71079
2026-01-28 18:52:44.55	23.15	2.63	-47.5	-65.3	3.5	3.03e+01	0	32	104	0	60	71050
2026-01-28 18:52:45.56	23.06	2.69	-47.5	-65.3	3.5	3.03e+01	0	32	104	0	60	70695
2026-01-28 18:52:46.57	22.98	2.75	-47.5	-65.4	3.5	3.03e+01	0	32	104	0	60	71509
2026-01-28 18:52:47.58	22.90	2.81	-47.5	-65.2	3.5	3.03e+01	0	32	104	0	60	70115
2026-01-28 18:52:48.59	22.81	2.87	-47.4	-64.9	3.5	3.03e+01	0	32	104	0	60	67486
2026-01-28 18:52:49.59	22.73	2.93	-47.4	-64.8	3.5	3.03e+01	0	32	104	0	60	66774
2026-01-28 18:52:50.60	22.65	2.99	-47.4	-65.0	3.5	3.03e+01	0	32	104	0	60	68518
2026-01-28 18:52:51.61	22.56	3.04	-47.4	-65.2	3.5	3.03e+01	0	32	104	0	60	69813
2026-01-28 18:52:52.62	22.48	3.10	-47.0	-63.0	3.5	3.03e+01	0	32	104	0	60	54133
2026-01-28 18:52:53.63	22.39	3.16	-46.0	-60.0	3.5	3.03e+01	0	32	104	0	60	38328
2026-01-28 18:52:54.64	22.31	3.22	-44.3	-56.5	3.5	3.03e+01	0	32	104	0	60	25683
2026-01-28 18:52:55.65	22.22	3.28	-43.3	-54.9	3.5	3.03e+01	0	32	104	0	60	21336
2026-01-28 18:52:56.66	22.13	3.34	-42.3	-53.5	3.5	3.03e+01	0	32	104	0	60	18304
2026-01-28 18:52:57.67	22.05	3.40	-41.6	-52.7	3.6	3.03e+01	0	32	104	0	60	16538
2026-01-28 18:52:58.68	21.96	3.46	-39.7	-50.3	3.5	3.03e+01	0	32	104	0	54	17820
2026-01-28 18:52:59.68	21.87	3.52	-47.3	-64.0	3.5	3.03e+01	0	32	104	0	60	60926
2026-01-28 18:53:00.69	21.78	3.58	-41.4	-52.4	3.5	3.03e+01	0	32	104	0	60	16054
2026-01-28 18:53:01.70	21.70	3.64	-39.6	-50.3	3.5	3.03e+01	0	32	104	0	54	17770
2026-01-28 18:53:02.71	21.61	3.70	-38.4	-48.9	3.5	3.03e+01	0	32	104	0	52	16944
2026-01-28 18:53:03.72	21.52	3.76	-38.6	-49.1	3.5	3.03e+01	0	32	104	0	52	17340
2026-01-28 18:53:04.73	21.43	3.82	-38.1	-48.6	3.5	3.03e+01	0	32	104	0	52	16504
2026-01-28 18:53:05.74	21.34	3.88	-39.1	-49.7	3.5	3.03e+01	0	32	104	0	50	20908
2026-01-28 18:53:06.75	21.25	3.94	-41.3	-52.3	3.5	3.03e+01	0	32	104	0	56	19994
2026-01-28 18:53:07.76	21.15	4.00	-45.7	-59.2	3.5	3.03e+01	0	32	104	0	60	35155
2026-01-28 18:53:08.77	21.06	4.06	-42.3	-53.5	3.5	3.03e+01	0	32	104	0	58	20515
2026-01-28 18:53:09.78	20.97	4.12	-47.4	-64.2	3.5	3.03e+01	0	32	104	0	60	62389
2026-01-28 18:53:10.79	20.88	4.18	-42.6	-54.0	3.6	3.03e+01	0	32	104	0	60	19292
2026-01-28 18:53:11.80	20.79	4.24	-42.1	-53.3	3.5	3.03e+01	0	32	104	0	60	17754
2026-01-28 18:53:12.81	20.69	4.30	-45.5	-58.7	3.5	3.03e+01	0	32	104	0	60	33032
2026-01-28 18:53:13.82	20.60	4.36	-45.0	-57.7	3.5	3.03e+01	0	32	104	0	60	29676
2026-01-28 18:53:14.83	20.50	4.42	-44.0	-56.0	3.5	3.03e+01	0	32	104	0	54	34237
2026-01-28 18:53:15.84	20.41	4.48	-47.4	-63.8	3.5	3.03e+01	0	32	104	0	60	59726
2026-01-28 18:53:16.85	20.32	4.55	-40.2	-50.9	3.6	3.03e+01	0	32	104	0	56	17068
2026-01-28 18:53:17.86	20.22	4.61	-41.0	-51.9	3.5	3.03e+01	0	32	104	0	56	19016
2026-01-28 18:53:18.87	20.12	4.67	-40.5	-51.3	3.5	3.03e+01	0	32	104	0	56	17851
2026-01-28 18:53:19.88	20.03	4.73	-39.9	-50.6	3.5	3.03e+01	0	32	104	0	56	16436
2026-01-28 18:53:20.89	19.93	4.79	-39.8	-50.4	3.5	3.03e+01	0	32	104	0	54	17996
2026-01-28 18:53:21.90	19.83	4.85	-40.9	-51.8	3.5	3.03e+01	0	32	104	0	54	21143
2026-01-28 18:53:22.91	19.74	4.91	-43.6	-55.2	3.5	3.03e+01	0	32	104	0	56	27972
2026-01-28 18:53:23.92	19.64	4.97	-42.9	-54.2	3.5	3.03e+01	0	32	104	0	60	19732
2026-01-28 18:53:24.93	19.54	5.04	-45.5	-58.4	3.5	3.03e+01	0	32	104	0	58	35897
2026-01-28 18:53:25.94	19.44	5.10	-41.3	-52.1	3.5	3.03e+01	0	32	104	0	60	15583
2026-01-28 18:53:26.95	19.34	5.16	-39.1	-49.7	3.5	3.03e+01	0	32	104	0	52	18595
2026-01-28 18:53:27.96	19.24	5.22	-38.0	-48.3	3.5	3.03e+01	0	32	104	0	50	17871
2026-01-28 18:53:28.97	19.14	5.28	-47.4	-63.3	3.5	3.03e+01	0	32	104	0	60	55993
2026-01-28 18:53:29.98	19.04	5.35	-39.5	-50.1	3.5	3.03e+01	0	32	104	0	52	19530
2026-01-28 18:53:30.99	18.94	5.41	-47.8	-65.0	3.5	3.03e+01	0	32	104	0	60	68443
2026-01-28 18:53:32.00	18.83	5.47	-47.5	-63.3	3.5	3.03e+01	0	32	104	0	60	56427
2026-01-28 18:53:33.01	18.73	5.53	-37.4	-47.8	3.5	3.03e+01	0	32	104	0	50	16789
2026-01-28 18:53:34.02	18.63	5.60	-37.1	-47.5	3.5	3.03e+01	0	32	104	0	50	16211
2026-01-28 18:53:35.03	18.52	5.66	-37.1	-47.5	3.6	3.03e+01	0	32	104	0	50	16273
2026-01-28 18:53:36.04	18.42	5.72	-37.0	-47.3	3.5	3.03e+01	0	32	104	0	48	17757
2026-01-28 18:53:37.05	18.32	5.78	-39.7	-50.3	3.5	3.03e+01	0	32	104	0	52	19905
2026-01-28 18:53:38.05	18.21	5.85	-42.6	-54.0	3.5	3.03e+01	0	32	104	0	58	21575
2026-01-28 18:53:39.07	18.10	5.91	-47.8	-65.6	3.5	3.03e+01	0	32	104	0	60	73110
2026-01-28 18:53:40.07	18.00	5.97	-47.9	-65.3	3.5	3.03e+01	0	32	104	0	60	70525
2026-01-28 18:53:41.08	17.89	6.04	-39.6	-50.1	3.5	3.03e+01	0	32	104	0	52	19542
2026-01-28 18:53:42.09	17.79	6.10	-39.4	-50.0	3.5	3.03e+01	0	32	104	0	54	17149
2026-01-28 18:53:43.10	17.68	6.16	-39.5	-50.1	3.6	3.03e+01	0	32	104	0	54	17452
2026-01-28 18:53:44.11	17.57	6.22	-37.5	-47.9	3.5	3.03e+01	0	32	104	0	50	16949
2026-01-28 18:53:45.13	17.46	6.29	-37.0	-47.4	3.5	3.03e+01	0	32	104	0	50	15978
2026-01-28 18:53:46.13	17.35	6.35	-40.8	-51.7	3.5	3.03e+01	0	32	104	0	54	20810
2026-01-28 18:53:47.14	17.24	6.42	-47.9	-65.1	3.5	3.03e+01	0	32	104	0	60	69323
2026-01-28 18:53:48.15	17.13	6.48	-42.4	-53.6	3.5	3.03e+01	0	32	104	0	60	18336
2026-01-28 18:53:49.16	17.02	6.54	-47.8	-65.3	3.5	3.03e+01	0	32	104	0	60	70983
2026-01-28 18:53:50.17	16.91	6.61	-40.2	-50.9	3.5	3.03e+01	0	32	104	0	56	16902
2026-01-28 18:53:51.18	16.80	6.67	-38.8	-49.3	3.6	3.03e+01	0	32	104	0	52	17724
2026-01-28 18:53:52.19	16.68	6.73	-38.9	-49.4	3.5	3.03e+01	0	32	104	0	52	17911
2026-01-28 18:53:53.20	16.57	6.80	-45.2	-57.8	3.5	3.03e+01	0	32	104	0	60	29809
2026-01-28 18:53:54.21	16.46	6.86	-43.1	-54.5	3.5	3.03e+01	0	32	104	0	60	20449
2026-01-28 18:53:55.22	16.34	6.93	-47.8	-65.2	3.5	3.03e+01	0	32	104	0	60	69649
2026-01-28 18:53:56.23	16.23	6.99	-48.0	-65.8	3.5	3.03e+01	0	32	104	0	60	74994
2026-01-28 18:53:57.24	16.11	7.05	-40.2	-50.9	3.5	3.03e+01	0	32	104	0	52	21359
2026-01-28 18:53:58.25	16.00	7.12	-38.8	-49.3	3.5	3.03e+01	0	32	104	0	52	17769
2026-01-28 18:53:59.26	15.88	7.18	-38.5	-49.0	3.5	3.03e+01	0	32	104	0	52	17137
2026-01-28 18:54:00.27	15.76	7.25	-37.2	-47.6	3.6	3.03e+01	0	32	104	0	50	16372
2026-01-28 18:54:01.27	15.65	7.31	-38.0	-48.4	3.6	3.03e+01	0	32	104	0	50	17913
2026-01-28 18:54:02.28	15.53	7.38	-40.8	-51.6	3.5	3.03e+01	0	32	104	0	54	20551
2026-01-28 18:54:03.29	15.41	7.44	-48.0	-65.8	3.5	3.03e+01	0	32	104	0	60	74782
2026-01-28 18:54:04.31	15.29	7.51	-42.6	-53.8	3.6	3.03e+01	0	32	104	0	60	18936
2026-01-28 18:54:05.32	15.17	7.57	-47.9	-65.0	3.5	3.03e+01	0	32	104	0	60	68819
2026-01-28 18:54:06.32	15.05	7.64	-40.1	-50.7	3.5	3.03e+01	0	32	104	0	56	16686
2026-01-28 18:54:07.33	14.93	7.70	-40.4	-51.0	3.6	3.03e+01	0	32	104	0	54	19294
2026-01-28 18:54:08.34	14.80	7.77	-40.2	-50.8	3.5	3.03e+01	0	32	104	0	54	18839
2026-01-28 18:54:09.35	14.68	7.83	-48.0	-65.2	3.5	3.03e+01	0	32	104	0	60	70373
2026-01-28 18:54:10.36	14.56	7.90	-42.8	-53.9	3.5	3.03e+01	0	32	104	0	60	19106
2026-01-28 18:54:11.37	14.44	7.96	-47.9	-65.1	3.5	3.03e+01	0	32	104	0	60	69394
2026-01-28 18:54:12.38	14.31	8.03	-48.2	-65.8	3.5	3.03e+01	0	32	104	0	60	75171
2026-01-28 18:54:13.39	14.19	8.09	-40.3	-51.0	3.5	3.03e+01	0	32	104	0	54	19380
2026-01-28 18:54:14.40	14.06	8.16	-39.2	-49.7	3.6	3.03e+01	0	32	104	0	54	16662
2026-01-28 18:54:15.41	13.93	8.22	-38.7	-49.1	3.5	3.03e+01	0	32	104	0	52	17394
2026-01-28 18:54:16.42	13.81	8.29	-37.9	-48.3	3.5	3.03e+01	0	32	104	0	52	15776
2026-01-28 18:54:17.43	13.68	8.36	-37.4	-47.7	3.5	3.03e+01	0	32	104	0	50	16542
2026-01-28 18:54:18.44	13.55	8.42	-40.5	-51.2	3.5	3.03e+01	0	32	104	0	54	19804
2026-01-28 18:54:19.44	13.42	8.49	-48.2	-65.8	3.5	3.03e+01	0	32	104	0	60	75437
2026-01-28 18:54:20.45	13.29	8.55	-39.2	-49.7	3.6	3.03e+01	0	32	104	0	56	14817
2026-01-28 18:54:21.45	13.17	8.62	-48.0	-65.3	3.5	3.03e+01	0	32	104	0	60	70765
2026-01-28 18:54:22.46	13.03	8.68	-36.8	-47.2	3.5	3.03e+01	0	32	104	0	48	17508
2026-01-28 18:54:23.47	12.90	8.75	-36.6	-47.0	3.5	3.03e+01	0	32	104	0	48	17113
2026-01-28 18:54:24.49	12.77	8.82	-37.2	-47.6	3.5	3.03e+01	0	32	104	0	48	18396
2026-01-28 18:54:25.49	12.64	8.88	-47.6	-63.5	3.5	3.03e+01	0	32	104	0	60	57746
2026-01-28 18:54:26.50	12.51	8.95	-39.6	-50.1	3.4	3.03e+01	0	32	104	0	56	15570
2026-01-28 18:54:27.51	12.37	9.01	-48.1	-65.3	3.5	3.03e+01	0	32	104	0	60	70748
2026-01-28 18:54:28.52	12.24	9.08	-47.0	-61.2	3.5	3.03e+01	0	32	104	0	60	43943
2026-01-28 18:54:29.53	12.10	9.15	-37.3	-47.6	3.5	3.03e+01	0	32	104	0	48	18484
2026-01-28 18:54:30.54	11.96	9.21	-36.9	-47.2	3.5	3.03e+01	0	32	104	0	48	17628
2026-01-28 18:54:31.55	11.83	9.28	-36.6	-46.8	3.5	3.03e+01	0	32	104	0	48	16889
2026-01-28 18:54:32.56	11.69	9.35	-36.7	-47.0	3.5	3.03e+01	0	32	104	0	48	17187
2026-01-28 18:54:33.57	11.55	9.41	-36.8	-47.1	3.5	3.03e+01	0	32	104	0	48	17333
2026-01-28 18:54:34.58	11.41	9.48	-39.7	-50.2	3.5	3.03e+01	0	32	104	0	54	17682
2026-01-28 18:54:35.59	11.27	9.55	-47.4	-63.5	3.5	3.03e+01	0	32	104	0	60	57905
2026-01-28 18:54:36.60	11.13	9.61	-38.6	-49.1	3.5	3.03e+01	0	32	104	0	54	15496
2026-01-28 18:54:37.60	10.99	9.68	-48.1	-65.4	3.5	3.03e+01	0	33	104	0	60	71770
2026-01-28 18:54:38.61	10.85	9.75	-39.6	-50.2	3.5	3.03e+01	0	32	104	0	54	17569
2026-01-28 18:54:39.62	10.71	9.81	-38.9	-49.4	3.5	3.03e+01	0	32	104	0	52	17962
2026-01-28 18:54:40.63	10.57	9.88	-40.1	-50.8	3.7	3.03e+01	0	32	104	0	52	21040
2026-01-28 18:54:41.64	10.42	9.95	-41.6	-52.5	3.5	3.03e+01	0	32	104	0	60	16305
2026-01-28 18:54:42.65	10.28	10.01	-39.1	-49.6	3.6	3.03e+01	0	32	104	0	54	16333
2026-01-28 18:54:43.66	10.13	10.08	-45.7	-58.3	3.5	3.03e+01	0	32	104	0	60	31716
2026-01-28 18:54:44.67	9.99	10.15	-37.7	-48.0	3.5	3.03e+01	0	32	104	0	50	17154
2026-01-28 18:54:45.68	9.84	10.21	-48.1	-64.9	3.5	3.03e+01	0	32	104	0	60	67584
2026-01-28 18:54:46.69	9.69	10.28	-39.2	-49.7	3.5	3.03e+01	0	32	104	0	54	16573
2026-01-28 18:54:47.70	9.54	10.35	-38.1	-48.5	3.5	3.03e+01	0	32	104	0	52	16202
2026-01-28 18:54:48.71	9.39	10.41	-40.6	-51.3	3.5	3.03e+01	0	32	104	0	52	22455
2026-01-28 18:54:49.72	9.24	10.48	-43.7	-55.3	3.5	3.03e+01	0	32	104	0	60	22323
2026-01-28 18:54:50.73	9.09	10.55	-38.5	-48.9	3.5	3.03e+01	0	32	104	0	52	17065
2026-01-28 18:54:51.74	8.94	10.62	-48.2	-64.9	3.5	3.03e+01	0	32	104	0	60	67582
2026-01-28 18:54:52.75	8.79	10.68	-40.7	-51.4	3.6	3.03e+01	0	32	104	0	60	14255
2026-01-28 18:54:53.76	8.64	10.75	-36.7	-47.0	3.5	3.03e+01	0	32	104	0	48	17150
2026-01-28 18:54:54.77	8.48	10.82	-36.2	-46.4	3.6	3.03e+01	0	32	104	0	48	16053
2026-01-28 18:54:55.78	8.33	10.89	-36.4	-46.6	3.6	3.03e+01	0	32	104	0	48	16462
2026-01-28 18:54:56.79	8.17	10.95	-35.9	-46.1	3.5	3.03e+01	0	32	104	0	46	17457
2026-01-28 18:54:57.80	8.02	11.02	-36.8	-47.1	3.5	3.03e+01	0	32	104	0	48	17298
2026-01-28 18:54:58.80	7.86	11.09	-39.5	-49.9	3.5	3.03e+01	0	32	104	0	52	19146
2026-01-28 18:54:59.81	7.70	11.15	-42.7	-53.9	3.6	3.03e+01	0	32	104	0	60	19071
2026-01-28 18:55:00.82	7.54	11.22	-43.5	-54.8	3.5	3.03e+01	0	32	104	0	52	33499
2026-01-28 18:55:01.83	7.39	11.29	-46.0	-58.7	3.5	3.03e+01	0	32	104	0	60	33249
2026-01-28 18:55:02.84	7.23	11.36	-38.8	-49.2	3.5	3.03e+01	0	32	104	0	52	17653
2026-01-28 18:55:03.85	7.06	11.42	-37.8	-48.2	3.5	3.03e+01	0	32	104	0	52	15716
2026-01-28 18:55:04.86	6.90	11.49	-46.8	-60.5	3.5	3.03e+01	0	32	104	0	60	40779
2026-01-28 18:55:05.87	6.74	11.56	-43.1	-54.4	3.5	3.03e+01	0	32	104	0	60	20123
2026-01-28 18:55:06.88	6.58	11.62	-44.8	-56.6	3.4	3.03e+01	0	32	104	0	54	36795
2026-01-28 18:55:07.88	6.41	11.69	-48.5	-66.1	3.5	3.03e+01	0	32	104	0	60	77338
2026-01-28 18:55:08.90	6.25	11.76	-38.7	-49.1	3.5	3.03e+01	0	32	104	0	54	15482
2026-01-28 18:55:09.90	6.08	11.83	-38.9	-49.3	3.5	3.03e+01	0	32	104	0	54	15848
2026-01-28 18:55:10.91	5.92	11.89	-38.5	-48.9	3.6	3.03e+01	0	32	104	0	52	17022
2026-01-28 18:55:11.92	5.75	11.96	-38.4	-48.8	3.6	3.03e+01	0	32	104	0	52	16736
2026-01-28 18:55:12.93	5.58	12.03	-35.7	-45.9	3.5	3.03e+01	0	32	104	0	46	17012
2026-01-28 18:55:13.94	5.41	12.09	-37.7	-48.0	3.5	3.03e+01	0	32	104	0	46	21746
2026-01-28 18:55:14.95	5.24	12.16	-44.4	-56.0	3.5	3.03e+01	0	32	104	0	54	34282
2026-01-28 18:55:15.96	5.07	12.23	-40.7	-51.4	3.5	3.03e+01	0	32	104	0	56	17957
2026-01-28 18:55:16.97	4.90	12.29	-48.4	-65.5	3.5	3.03e+01	0	32	104	0	60	72833
2026-01-28 18:55:17.98	4.73	12.36	-39.1	-49.6	3.5	3.03e+01	0	33	104	0	56	14645
2026-01-28 18:55:18.99	4.55	12.43	-37.2	-47.5	3.5	3.03e+01	0	33	104	0	50	16242
2026-01-28 18:55:20.00	4.38	12.50	-36.6	-46.9	3.5	3.03e+01	0	32	104	0	48	17044
2026-01-28 18:55:21.01	4.20	12.56	-47.8	-63.0	3.5	3.03e+01	0	33	104	0	60	54660
2026-01-28 18:55:22.02	4.03	12.63	-40.7	-51.4	3.5	3.03e+01	0	32	104	0	56	17972
2026-01-28 18:55:23.03	3.85	12.70	-48.4	-65.5	3.5	3.03e+01	0	33	104	0	60	72181
2026-01-28 18:55:24.03	3.67	12.76	-48.4	-65.6	3.5	3.03e+01	0	33	104	0	60	73585
2026-01-28 18:55:25.04	3.50	12.83	-38.9	-49.3	3.6	3.03e+01	0	33	104	0	52	17706
2026-01-28 18:55:26.05	3.32	12.90	-39.1	-49.6	3.5	3.03e+01	0	33	104	0	54	16324
2026-01-28 18:55:27.06	3.14	12.96	-38.2	-48.6	3.5	3.03e+01	0	33	104	0	52	16366
2026-01-28 18:55:28.07	2.95	13.03	-37.8	-48.2	3.5	3.03e+01	0	32	104	0	50	17512
2026-01-28 18:55:29.08	2.77	13.09	-37.8	-48.1	3.5	3.03e+01	0	32	104	0	50	17486
2026-01-28 18:55:30.09	2.59	13.16	-40.4	-51.0	3.5	3.03e+01	0	33	104	0	52	21657
2026-01-28 18:55:31.10	2.41	13.23	-47.6	-62.4	3.5	3.03e+01	0	33	104	0	60	50508
2026-01-28 18:55:32.11	2.22	13.29	-39.9	-50.5	3.6	3.03e+01	0	33	104	0	54	18243
2026-01-28 18:55:33.12	2.03	13.36	-48.2	-64.4	3.5	3.03e+01	0	33	104	0	60	64160
2026-01-28 18:55:34.13	1.85	13.42	-40.1	-50.7	3.3	3.03e+01	0	32	104	0	58	14724
2026-01-28 18:55:35.14	1.66	13.49	-38.6	-48.9	3.5	3.03e+01	0	32	104	0	52	17075
2026-01-28 18:55:36.15	1.47	13.56	-37.2	-47.5	3.5	3.03e+01	0	33	104	0	50	16139
2026-01-28 18:55:37.16	1.28	13.62	-45.0	-57.0	3.5	3.03e+01	0	33	104	0	60	27312
2026-01-28 18:55:38.17	1.09	13.69	-40.4	-51.0	3.6	3.03e+01	0	33	104	0	56	17285
2026-01-28 18:55:39.18	0.90	13.75	-48.3	-64.6	3.5	3.03e+01	0	33	104	0	60	65465
2026-01-28 18:55:40.19	0.71	13.82	-47.7	-62.6	3.5	3.03e+01	0	32	104	0	60	51810
2026-01-28 18:55:41.20	0.52	13.88	-37.2	-47.5	3.5	3.03e+01	0	33	104	0	46	20379
2026-01-28 18:55:42.21	0.32	13.95	-35.8	-46.1	3.5	3.03e+01	0	32	104	0	46	17337
2026-01-28 18:55:43.22	0.13	14.01	-36.0	-46.2	3.5	3.03e+01	0	32	104	0	46	17659
2026-01-28 18:55:44.23	359.93	14.08	-35.6	-45.8	3.5	3.03e+01	0	32	104	0	46	16818
2026-01-28 18:55:45.24	359.73	14.14	-37.3	-47.6	3.5	3.03e+01	0	33	104	0	48	18393
2026-01-28 18:55:46.24	359.54	14.21	-42.0	-52.9	3.5	3.03e+01	0	32	104	0	56	21470
2026-01-28 18:55:47.25	359.34	14.27	-48.0	-63.6	3.6	3.03e+01	0	32	104	0	60	58487
2026-01-28 18:55:48.26	359.14	14.34	-38.9	-49.4	3.5	3.03e+01	0	32	104	0	52	18004
2026-01-28 18:55:49.27	358.94	14.40	-48.2	-64.9	3.5	3.03e+01	0	33	104	0	60	67424
2026-01-28 18:55:50.28	358.74	14.46	-36.7	-47.0	3.5	3.03e+01	0	32	104	0	50	15274
2026-01-28 18:55:51.29	358.53	14.53	-36.3	-46.6	3.5	3.03e+01	0	32	104	0	48	16361
2026-01-28 18:55:52.30	358.33	14.59	-36.2	-46.4	3.5	3.03e+01	0	32	104	0	48	15985
2026-01-28 18:55:53.31	358.13	14.66	-46.0	-58.6	3.5	3.03e+01	0	32	104	0	60	32838
2026-01-28 18:55:54.32	357.92	14.72	-39.4	-49.8	3.6	3.03e+01	0	32	104	0	56	15045
2026-01-28 18:55:55.33	357.71	14.78	-48.4	-65.0	3.5	3.03e+01	0	32	104	0	60	68105
2026-01-28 18:55:56.34	357.51	14.85	-47.6	-62.3	3.6	3.03e+01	0	32	104	0	60	49944
2026-01-28 18:55:57.35	357.30	14.91	-42.2	-53.1	3.6	3.03e+01	0	32	104	0	56	21898
2026-01-28 18:55:58.36	357.09	14.97	-38.9	-49.3	3.5	3.03e+01	0	32	104	0	52	17760
2026-01-28 18:55:59.37	356.88	15.03	-38.6	-49.0	3.5	3.03e+01	0	32	104	0	52	17124
2026-01-28 18:56:00.38	356.67	15.10	-37.9	-48.2	3.5	3.03e+01	0	33	104	0	52	15749
2026-01-28 18:56:01.38	356.46	15.16	-37.5	-47.8	3.6	3.03e+01	0	32	104	0	50	16834
2026-01-28 18:56:02.40	356.24	15.22	-42.8	-53.9	3.5	3.03e+01	0	32	104	0	58	21456
2026-01-28 18:56:03.41	356.03	15.28	-47.1	-61.1	3.6	3.03e+01	0	32	104	0	60	43451
2026-01-28 18:56:04.42	355.82	15.34	-38.1	-48.5	3.7	3.03e+01	0	32	104	0	52	16251
2026-01-28 18:56:05.43	355.60	15.40	-48.4	-65.2	3.5	3.03e+01	0	32	104	0	60	70047
2026-01-28 18:56:06.44	355.38	15.47	-36.2	-46.4	3.5	3.03e+01	0	32	104	0	48	16026
2026-01-28 18:56:07.45	355.16	15.53	-36.0	-46.2	3.5	3.03e+01	0	32	104	0	46	17595
2026-01-28 18:56:08.46	354.95	15.59	-35.5	-45.7	3.5	3.03e+01	0	32	104	0	46	16692
2026-01-28 18:56:09.47	354.73	15.65	-44.6	-56.3	3.5	3.03e+01	0	33	104	0	60	25199
2026-01-28 18:56:10.48	354.51	15.71	-36.8	-47.0	3.5	3.03e+01	0	32	104	0	50	15409
2026-01-28 18:56:11.48	354.29	15.77	-48.4	-65.8	3.5	3.03e+01	0	32	104	0	60	75187
2026-01-28 18:56:12.50	354.06	15.83	-43.0	-54.2	3.5	3.03e+01	0	32	104	0	60	19769
2026-01-28 18:56:13.51	353.84	15.89	-39.5	-50.0	3.5	3.03e+01	0	32	104	0	54	17148
2026-01-28 18:56:14.52	353.61	15.95	-36.3	-46.5	3.5	3.03e+01	0	32	104	0	48	16249
2026-01-28 18:56:15.52	353.39	16.00	-36.0	-46.2	3.5	3.03e+01	0	32	104	0	48	15728
2026-01-28 18:56:16.53	353.16	16.06	-35.7	-45.9	3.5	3.03e+01	0	32	104	0	46	16976
2026-01-28 18:56:17.54	352.94	16.12	-36.4	-46.7	3.5	3.03e+01	0	33	104	0	48	16640
2026-01-28 18:56:18.55	352.71	16.18	-41.5	-52.3	3.5	3.03e+01	0	33	104	0	60	15846
2026-01-28 18:56:19.56	352.48	16.24	-45.5	-57.8	3.5	3.03e+01	0	33	104	0	60	29777
2026-01-28 18:56:20.57	352.25	16.29	-37.9	-48.2	3.5	3.03e+01	0	33	104	0	54	13945
2026-01-28 18:56:21.58	352.02	16.35	-48.6	-65.9	3.5	3.03e+01	0	32	104	0	60	75898
2026-01-28 18:56:22.59	351.79	16.41	-39.5	-49.9	3.5	3.03e+01	0	33	104	0	54	17086
2026-01-28 18:56:23.60	351.55	16.46	-39.7	-50.2	3.5	3.03e+01	0	32	104	0	54	17672
2026-01-28 18:56:24.61	351.32	16.52	-38.1	-48.6	3.5	3.03e+01	0	32	104	0	52	16420
2026-01-28 18:56:25.62	351.08	16.58	-40.5	-51.1	3.5	3.03e+01	0	33	104	0	54	19502
2026-01-28 18:56:26.63	350.85	16.63	-40.9	-51.6	3.5	3.03e+01	0	32	104	0	60	14630
2026-01-28 18:56:27.64	350.61	16.69	-39.5	-50.0	3.5	3.03e+01	0	32	104	0	58	13645
2026-01-28 18:56:28.65	350.37	16.74	-36.5	-46.7	3.5	3.03e+01	0	32	104	0	48	16649
2026-01-28 18:56:29.66	350.14	16.80	-48.6	-66.2	3.6	3.03e+01	0	32	104	0	60	78151
2026-01-28 18:56:30.67	349.90	16.85	-38.4	-48.7	3.5	3.03e+01	0	32	104	0	52	16535
2026-01-28 18:56:31.68	349.66	16.90	-37.6	-47.9	3.5	3.03e+01	0	32	104	0	50	16924
2026-01-28 18:56:32.69	349.41	16.96	-35.9	-46.1	3.5	3.03e+01	0	32	104	0	48	15568
2026-01-28 18:56:33.69	349.17	17.01	-36.7	-46.9	3.5	3.03e+01	0	32	104	0	50	15227
2026-01-28 18:56:34.70	348.93	17.06	-39.1	-49.5	3.5	3.03e+01	0	33	104	0	56	14469
2026-01-28 18:56:35.71	348.69	17.11	-41.9	-52.9	3.5	3.03e+01	0	32	104	0	60	16972
2026-01-28 18:56:36.72	348.44	17.17	-37.5	-47.8	3.5	3.03e+01	0	32	104	0	50	16871
2026-01-28 18:56:37.73	348.20	17.22	-47.6	-62.3	3.6	3.03e+01	0	33	104	0	60	50182
2026-01-28 18:56:38.74	347.95	17.27	-37.0	-47.3	3.5	3.03e+01	0	32	104	0	50	15827
2026-01-28 18:56:39.75	347.70	17.32	-36.3	-46.5	3.5	3.03e+01	0	33	104	0	48	16248
2026-01-28 18:56:40.76	347.45	17.37	-39.4	-49.8	3.6	3.03e+01	0	33	104	0	48	23842
2026-01-28 18:56:41.77	347.20	17.42	-41.4	-52.2	3.4	3.03e+01	0	33	104	0	60	15596
2026-01-28 18:56:42.78	346.95	17.47	-40.2	-50.8	3.9	3.03e+01	0	32	104	0	46	29855
2026-01-28 18:56:43.79	346.70	17.52	-45.0	-56.9	3.6	3.03e+01	0	32	104	0	60	26971
2026-01-28 18:56:44.80	346.45	17.57	-35.7	-45.9	3.6	3.03e+01	0	33	104	0	48	15171
2026-01-28 18:56:45.81	346.20	17.62	-36.8	-47.1	3.5	3.03e+01	0	32	104	0	52	13740
2026-01-28 18:56:46.82	345.94	17.66	-35.9	-46.1	3.5	3.03e+01	0	32	104	0	46	17402
2026-01-28 18:56:47.83	345.69	17.71	-35.8	-46.0	3.5	3.03e+01	0	33	104	0	46	17121
2026-01-28 18:56:48.84	345.43	17.76	-37.8	-48.2	3.5	3.03e+01	0	32	104	0	46	22074
2026-01-28 18:56:49.85	345.17	17.80	-39.1	-49.6	3.5	3.03e+01	0	32	104	0	54	16339
2026-01-28 18:56:50.86	344.92	17.85	-42.3	-53.1	3.5	3.03e+01	0	33	104	0	48	34533
2026-01-28 18:56:51.86	344.66	17.89	-46.9	-60.5	3.5	3.03e+01	0	32	104	0	60	40667
2026-01-28 18:56:52.87	344.40	17.94	-37.8	-48.1	3.5	3.03e+01	0	32	104	0	50	17442
2026-01-28 18:56:53.88	344.14	17.98	-40.5	-51.1	3.5	3.03e+01	0	32	104	0	58	15488
2026-01-28 18:56:54.89	343.88	18.03	-39.0	-49.4	3.5	3.03e+01	0	32	104	0	54	16018
2026-01-28 18:56:55.90	343.62	18.07	-39.5	-49.9	3.5	3.03e+01	0	32	104	0	52	19163
2026-01-28 18:56:56.91	343.36	18.11	-37.2	-47.5	3.5	3.03e+01	0	33	104	0	50	16223
2026-01-28 18:56:57.92	343.10	18.16	-39.0	-49.5	3.4	3.03e+01	0	33	104	0	48	22812
2026-01-28 18:56:58.93	342.83	18.20	-40.4	-51.0	3.3	3.03e+01	0	33	104	0	52	21532
2026-01-28 18:56:59.94	342.57	18.24	-40.3	-50.9	3.5	3.03e+01	0	33	104	0	56	17012
2026-01-28 18:57:00.95	342.30	18.28	-45.2	-57.3	3.4	3.03e+01	0	33	104	0	54	39649
2026-01-28 18:57:01.96	342.04	18.32	-40.8	-51.4	3.5	3.03e+01	0	33	104	0	60	14341
2026-01-28 18:57:02.97	341.77	18.36	-37.1	-47.5	3.5	3.03e+01	0	33	104	0	50	16142
2026-01-28 18:57:03.97	341.50	18.40	-36.9	-47.3	3.5	3.03e+01	0	33	104	0	48	17737
2026-01-28 18:57:04.98	341.24	18.44	-48.4	-65.5	3.5	3.03e+01	0	33	104	0	60	72883
2026-01-28 18:57:05.99	340.97	18.47	-41.5	-52.2	3.5	3.03e+01	0	33	104	0	60	15745
2026-01-28 18:57:07.00	340.70	18.51	-48.3	-64.3	3.5	3.03e+01	0	33	104	0	60	63235
2026-01-28 18:57:08.00	340.43	18.55	-44.8	-56.7	3.5	3.03e+01	0	33	104	0	60	26412
2026-01-28 18:57:09.01	340.16	18.59	-37.3	-47.6	3.5	3.03e+01	0	32	104	0	46	20666
2026-01-28 18:57:10.02	339.89	18.62	-36.1	-46.3	3.5	3.03e+01	0	33	104	0	48	15897
2026-01-28 18:57:11.03	339.61	18.66	-35.9	-46.1	3.5	3.03e+01	0	33	104	0	46	17483
2026-01-28 18:57:12.04	339.34	18.69	-35.9	-46.0	3.5	3.03e+01	0	33	104	0	46	17250
2026-01-28 18:57:13.05	339.07	18.73	-39.4	-49.8	3.5	3.03e+01	0	33	104	0	50	21261
2026-01-28 18:57:14.06	338.79	18.76	-39.2	-49.6	3.5	3.03e+01	0	32	104	0	52	18356
2026-01-28 18:57:15.07	338.52	18.79	-48.4	-65.0	3.5	3.03e+01	0	33	104	0	60	68154
2026-01-28 18:57:16.08	338.24	18.82	-46.6	-59.9	3.5	3.03e+01	0	33	104	0	60	38127
2026-01-28 18:57:17.08	337.97	18.85	-39.9	-50.5	3.5	3.03e+01	0	32	104	0	50	22799
2026-01-28 18:57:18.09	337.69	18.89	-39.2	-49.7	3.5	3.03e+01	0	33	104	0	54	16558
2026-01-28 18:57:19.10	337.41	18.92	-39.2	-49.6	3.5	3.03e+01	0	33	104	0	54	16500
2026-01-28 18:57:20.11	337.13	18.95	-37.8	-48.2	3.5	3.03e+01	0	33	104	0	50	17614
2026-01-28 18:57:21.11	336.86	18.97	-36.3	-46.6	3.5	3.03e+01	0	32	104	0	46	18372
2026-01-28 18:57:22.12	336.58	19.00	-42.8	-53.9	3.7	3.03e+01	0	32	104	0	56	23891
2026-01-28 18:57:23.13	336.30	19.03	-46.4	-59.4	3.5	3.03e+01	0	32	104	0	60	35817
2026-01-28 18:57:24.14	336.02	19.06	-41.4	-52.1	3.5	3.03e+01	0	33	104	0	56	19443
2026-01-28 18:57:25.15	335.74	19.08	-48.2	-64.2	3.5	3.03e+01	0	32	104	0	60	62233
2026-01-28 18:57:26.16	335.46	19.11	-40.0	-50.7	3.5	3.03e+01	0	33	104	0	56	16534
2026-01-28 18:57:27.17	335.17	19.14	-39.0	-49.4	3.5	3.03e+01	0	33	104	0	52	18079
2026-01-28 18:57:28.18	334.89	19.16	-38.2	-48.5	3.4	3.03e+01	0	32	104	0	50	18170
2026-01-28 18:57:29.19	334.61	19.18	-48.7	-66.5	3.5	3.03e+01	0	33	104	0	60	80932
2026-01-28 18:57:30.20	334.33	19.21	-47.6	-62.0	3.5	3.03e+01	0	33	104	0	60	48704
2026-01-28 18:57:31.20	334.04	19.23	-42.8	-45.4	5.2	3.03e+01	0	32	104	0	58	8030
2026-01-28 18:57:32.21	333.76	19.25	-43.5	-46.3	18.6	3.03e+01	0	33	104	0	60	7969
2026-01-28 18:57:33.22	333.48	19.27	-48.6	-61.9	3.7	3.03e+01	0	33	104	524288	60	48032
2026-01-28 18:57:34.23	333.19	19.29	-43.0	-45.3	20.5	3.03e+01	0	33	0	524288	60	7118
2026-01-28 18:57:35.24	332.90	19.31	-42.0	-44.0	22.3	3.03e+01	0	32	0	2621440	60	6133
2026-01-28 18:57:36.25	332.62	19.33	-41.1	-42.9	23.3	3.03e+01	0	32	0	4194304	58	6062
2026-01-28 18:57:37.26	332.33	19.35	-41.3	-43.2	22.9	3.03e+01	0	32	0	6291456	56	6981
2026-01-28 18:57:38.27	332.05	19.37	-41.3	-43.2	23.3	3.03e+01	0	32	0	8388608	56	6963
2026-01-28 18:57:39.28	331.76	19.38	-40.4	-42.1	24.1	3.03e+01	0	33	0	9961472	56	6187
2026-01-28 18:57:40.28	331.47	19.40	-38.6	-40.0	26.0	3.03e+01	0	32	0	12058624	52	6115
2026-01-28 18:57:41.29	331.19	19.42	-37.4	-38.7	27.3	3.03e+01	0	33	0	14155776	50	5895
2026-01-28 18:57:42.30	330.90	19.43	-36.2	-37.5	28.3	3.03e+01	0	32	0	15728640	48	5759
2026-01-28 18:57:43.31	330.61	19.45	-35.6	-36.8	28.9	3.03e+01	0	33	0	17825792	46	5955
2026-01-28 18:57:44.32	330.32	19.46	-35.5	-36.8	28.9	3.03e+01	0	32	0	19398656	46	5939
2026-01-28 18:57:45.33	330.03	19.47	-35.7	-36.9	28.8	3.03e+01	0	33	0	21495808	46	6022
2026-01-28 18:57:46.34	329.74	19.48	-35.7	-36.9	28.9	3.03e+01	0	32	0	23592960	46	6021
2026-01-28 18:57:47.35	329.45	19.49	-35.8	-37.0	28.7	3.03e+01	0	32	0	25165824	46	6112
2026-01-28 18:57:48.36	329.16	19.51	-35.7	-36.9	28.8	3.03e+01	0	33	0	27262976	46	6052
2026-01-28 18:57:49.37	328.87	19.51	-35.6	-36.8	28.9	3.03e+01	0	32	0	28835840	46	5977
2026-01-28 18:57:50.38	328.58	19.52	-35.7	-36.9	28.9	3.03e+01	0	32	0	30932992	46	6016
2026-01-28 18:57:51.39	328.29	19.53	-35.8	-37.0	28.7	3.03e+01	0	32	0	33030144	46	6087
2026-01-28 18:57:52.39	328.01	19.54	-35.9	-37.1	28.6	3.03e+01	0	32	0	34603008	46	6164
2026-01-28 18:57:53.40	327.72	19.55	-35.7	-36.9	28.8	3.03e+01	0	32	0	36700160	46	6047
2026-01-28 18:57:54.41	327.43	19.55	-35.8	-37.0	28.7	3.03e+01	0	33	0	38797312	46	6100
2026-01-28 18:57:55.42	327.14	19.56	-35.8	-37.0	28.7	3.03e+01	0	32	0	40370176	46	6125
2026-01-28 18:57:56.43	326.84	19.56	-35.8	-37.0	28.7	3.03e+01	0	32	0	42467328	46	6134
2026-01-28 18:57:57.44	326.55	19.57	-35.6	-36.9	28.9	3.03e+01	0	32	0	44040192	46	6032
2026-01-28 18:57:58.45	326.26	19.57	-35.7	-36.9	28.8	3.03e+01	0	32	0	46137344	46	6031
2026-01-28 18:57:59.46	325.97	19.57	-35.7	-37.0	28.8	3.03e+01	0	32	0	48234496	46	6089
2026-01-28 18:58:00.47	325.68	19.57	-35.9	-37.1	28.6	3.03e+01	0	32	0	49807360	46	6193
2026-01-28 18:58:01.48	325.39	19.58	-36.0	-37.2	28.5	3.03e+01	0	32	0	51904512	46	6251
2026-01-28 18:58:02.49	325.10	19.58	-35.9	-37.2	28.5	3.03e+01	0	32	0	53477376	46	6216
2026-01-28 18:58:03.50	324.81	19.57	-35.8	-37.0	28.7	3.03e+01	0	32	0	55574528	46	6107
2026-01-28 18:58:04.51	324.52	19.57	-35.7	-36.9	28.8	3.03e+01	0	32	0	57147392	46	6034
2026-01-28 18:58:05.51	324.23	19.57	-35.8	-37.0	28.7	3.03e+01	0	32	0	59244544	46	6131
2026-01-28 18:58:06.52	323.94	19.57	-35.7	-36.9	28.7	3.03e+01	0	33	0	61341696	46	6054
2026-01-28 18:58:07.53	323.65	19.57	-35.7	-36.9	28.8	3.03e+01	0	32	0	62914560	46	6041
2026-01-28 18:58:08.54	323.35	19.56	-35.6	-36.9	28.9	3.03e+01	0	32	0	65011712	46	6018
2026-01-28 18:58:09.55	323.06	19.56	-35.8	-37.0	28.7	3.03e+01	0	33	0	67108864	46	6115
2026-01-28 18:58:10.56	322.77	19.55	-35.9	-37.2	28.5	3.03e+01	0	32	0	68681728	46	6210
2026-01-28 18:58:11.57	322.48	19.54	-35.8	-37.0	28.7	3.03e+01	0	32	0	70778880	46	6131
2026-01-28 18:58:12.58	322.19	19.54	-35.7	-36.9	28.8	3.03e+01	0	32	0	72351744	46	6037
2026-01-28 18:58:13.59	321.90	19.53	-35.6	-36.8	28.8	3.03e+01	0	32	0	74448896	46	5967
2026-01-28 18:58:14.60	321.61	19.52	-35.7	-36.9	28.8	3.03e+01	0	32	0	76546048	46	6055
2026-01-28 18:58:15.61	321.32	19.51	-36.0	-37.3	28.4	3.03e+01	0	32	0	78118912	46	6301
2026-01-28 18:58:16.62	321.03	19.50	-35.9	-37.1	28.6	3.03e+01	0	32	0	80216064	46	6189
2026-01-28 18:58:17.63	320.74	19.49	-35.8	-37.1	28.6	3.03e+01	0	33	0	82313216	46	6151
2026-01-28 18:58:18.64	320.45	19.48	-35.7	-37.0	28.7	3.03e+01	0	33	0	83886080	46	6073
2026-01-28 18:58:19.65	320.16	19.47	-35.8	-37.0	28.8	3.03e+01	0	33	0	85983232	46	6129
2026-01-28 18:58:20.66	319.87	19.45	-35.9	-37.1	28.7	3.03e+01	0	33	0	87556096	46	6195
2026-01-28 18:58:21.67	319.59	19.44	-35.9	-37.2	28.6	3.03e+01	0	33	0	89653248	46	6230
2026-01-28 18:58:22.68	319.30	19.43	-35.7	-36.9	28.8	3.03e+01	0	33	0	91750400	46	6025
2026-01-28 18:58:23.69	319.01	19.41	-35.7	-36.9	28.8	3.03e+01	0	32	0	93323264	46	6036
2026-01-28 18:58:24.70	318.72	19.39	-35.9	-37.1	28.7	3.03e+01	0	33	0	95420416	46	6186
2026-01-28 18:58:25.70	318.44	19.38	-35.7	-36.9	28.8	3.03e+01	0	32	0	96993280	46	6056
2026-01-28 18:58:26.71	318.15	19.36	-35.9	-37.1	28.7	3.03e+01	0	32	0	99090432	46	6193
2026-01-28 18:58:27.72	317.86	19.34	-36.0	-37.2	28.6	3.03e+01	0	32	0	101187584	46	6256
2026-01-28 18:58:28.73	317.58	19.32	-35.9	-37.1	28.6	3.03e+01	0	32	0	102760448	46	6186
2026-01-28 18:58:29.74	317.29	19.31	-35.9	-37.2	28.6	3.03e+01	0	33	0	104857600	46	6248
2026-01-28 18:58:30.75	317.01	19.29	-35.7	-36.9	28.8	3.03e+01	0	32	0	106430464	46	6027
2026-01-28 18:58:31.76	316.72	19.26	-35.7	-36.9	28.8	3.03e+01	0	32	0	108527616	46	6052
2026-01-28 18:58:32.77	316.44	19.24	-36.0	-37.3	28.6	3.03e+01	0	32	0	110624768	46	6285
2026-01-28 18:58:33.78	316.15	19.22	-36.0	-37.3	28.5	3.03e+01	0	32	0	112197632	46	6306
2026-01-28 18:58:34.79	315.87	19.20	-36.2	-37.5	28.4	3.03e+01	0	33	0	114294784	46	6428
2026-01-28 18:58:35.80	315.58	19.17	-35.8	-37.0	28.8	3.03e+01	0	33	0	115867648	46	6100
2026-01-28 18:58:36.81	315.30	19.15	-35.9	-37.1	28.7	3.03e+01	0	32	0	117964800	46	6172
2026-01-28 18:58:37.82	315.02	19.13	-35.8	-37.1	28.8	3.03e+01	0	32	0	120061952	46	6135
2026-01-28 18:58:38.83	314.74	19.10	-35.6	-36.8	28.9	3.03e+01	0	32	0	121634816	46	5949
2026-01-28 18:58:39.83	314.46	19.07	-35.9	-37.2	28.6	3.03e+01	0	32	0	123731968	46	6213
2026-01-28 18:58:40.84	314.18	19.05	-35.9	-37.2	28.6	3.03e+01	0	32	0	125304832	46	6211
2026-01-28 18:58:41.85	313.90	19.02	-35.9	-37.1	28.6	3.03e+01	0	32	0	127401984	46	6194
2026-01-28 18:58:42.86	313.62	18.99	-36.3	-37.6	28.4	3.03e+01	0	32	0	129499136	46	6499
2026-01-28 18:58:43.87	313.34	18.96	-35.7	-36.9	28.8	3.03e+01	0	32	0	131072000	46	6044
2026-01-28 18:58:44.88	313.06	18.93	-35.8	-37.0	28.8	3.03e+01	0	32	0	133169152	46	6099
2026-01-28 18:58:45.89	312.78	18.90	-35.7	-37.0	28.9	3.03e+01	0	32	0	135266304	46	6072
2026-01-28 18:58:46.90	312.50	18.87	-35.8	-37.1	28.7	3.03e+01	0	33	0	136839168	46	6135
2026-01-28 18:58:47.91	312.22	18.84	-35.8	-37.0	28.7	3.03e+01	0	33	0	138936320	46	6120
2026-01-28 18:58:48.92	311.95	18.81	-36.0	-37.3	28.6	3.03e+01	0	33	0	140509184	46	6307
2026-01-28 18:58:49.93	311.67	18.78	-35.9	-37.1	28.6	3.03e+01	0	32	0	142606336	46	6182
2026-01-28 18:58:50.94	311.40	18.74	-35.5	-36.7	29.0	3.03e+01	0	32	0	144703488	46	5895
2026-01-28 18:58:51.95	311.12	18.71	-36.2	-37.5	28.3	3.03e+01	0	32	0	146276352	46	6486
2026-01-28 18:58:52.96	310.85	18.68	-36.0	-37.3	28.4	3.03e+01	0	32	0	148373504	46	6316
2026-01-28 18:58:53.97	310.57	18.64	-35.7	-37.0	28.8	3.03e+01	0	32	0	150470656	46	6077
2026-01-28 18:58:54.98	310.30	18.61	-36.1	-37.4	28.4	3.03e+01	0	32	0	152043520	46	6408
2026-01-28 18:58:55.99	310.03	18.57	-35.8	-37.0	28.8	3.03e+01	0	32	0	154140672	46	6105
2026-01-28 18:58:57.00	309.76	18.53	-35.9	-37.1	28.7	3.03e+01	0	32	0	155713536	46	6191
2026-01-28 18:58:58.00	309.49	18.50	-35.5	-36.8	28.9	3.03e+01	0	33	0	157810688	46	5940
2026-01-28 18:58:59.01	309.22	18.46	-35.7	-36.9	28.8	3.03e+01	0	32	0	159907840	46	6030
2026-01-28 18:59:00.02	308.95	18.42	-36.4	-37.8	28.1	3.03e+01	0	32	0	161480704	46	6660
2026-01-28 18:59:01.03	308.68	18.38	-35.1	-36.3	29.1	3.03e+01	0	32	0	163577856	46	5599
2026-01-28 18:59:02.04	308.42	18.34	-36.0	-37.3	28.4	3.03e+01	0	32	0	165150720	46	6291
2026-01-28 18:59:03.05	308.15	18.30	-36.2	-37.5	28.3	3.03e+01	0	32	0	167247872	46	6496
2026-01-28 18:59:04.06	307.88	18.26	-35.7	-37.0	28.7	3.03e+01	0	32	0	168820736	46	6107
2026-01-28 18:59:05.07	307.62	18.22	-35.9	-37.2	28.5	3.03e+01	0	32	0	170917888	46	6237
2026-01-28 18:59:06.08	307.35	18.18	-35.0	-36.1	29.4	3.03e+01	0	32	0	173015040	46	5527
2026-01-28 18:59:07.09	307.09	18.14	-36.8	-38.2	27.3	3.03e+01	0	32	0	174587904	46	7019
2026-01-28 18:59:08.10	306.82	18.09	-35.2	-36.4	28.4	3.03e+01	0	32	0	176685056	44	6423
2026-01-28 18:59:09.11	306.56	18.05	-35.7	-36.9	28.6	3.03e+01	0	32	0	178782208	46	6028
2026-01-28 18:59:10.11	306.30	18.01	-36.4	-37.7	28.2	3.03e+01	0	32	0	180355072	46	6636
2026-01-28 18:59:11.12	306.04	17.96	-35.7	-36.9	28.8	3.03e+01	0	32	0	182452224	46	6034
2026-01-28 18:59:12.13	305.78	17.92	-35.9	-37.2	28.6	3.03e+01	0	32	0	184025088	46	6256
2026-01-28 18:59:13.14	305.52	17.87	-35.5	-36.7	28.9	3.03e+01	0	32	0	186122240	46	5924
2026-01-28 18:59:14.15	305.27	17.83	-36.8	-38.2	27.5	3.03e+01	0	32	0	188219392	46	7025
2026-01-28 18:59:15.16	305.01	17.78	-35.4	-36.7	28.6	3.03e+01	0	32	0	189792256	46	5869
2026-01-28 18:59:16.17	304.75	17.74	-36.0	-37.3	28.2	3.03e+01	0	32	0	191889408	46	6328
2026-01-28 18:59:17.18	304.50	17.69	-36.6	-37.9	28.0	3.03e+01	0	32	0	193462272	46	6765
2026-01-28 18:59:18.19	304.24	17.64	-35.8	-37.1	28.6	3.03e+01	0	32	0	195559424	46	6136
2026-01-28 18:59:19.20	303.99	17.59	-35.9	-37.1	28.5	3.03e+01	0	32	0	197656576	46	6183
2026-01-28 18:59:20.21	303.73	17.55	-35.8	-37.0	28.8	3.03e+01	0	32	0	199229440	46	6133
2026-01-28 18:59:21.22	303.48	17.50	-36.2	-37.6	28.2	3.03e+01	0	32	0	201326592	46	6512
2026-01-28 18:59:22.23	303.23	17.45	-35.7	-37.0	28.7	3.03e+01	0	32	0	203423744	46	6086
2026-01-28 18:59:23.24	302.98	17.40	-36.6	-37.9	28.0	3.03e+01	0	32	0	204996608	46	6788
2026-01-28 18:59:24.25	302.73	17.35	-36.0	-37.3	28.5	3.03e+01	0	32	0	207093760	46	6299
2026-01-28 18:59:25.26	302.48	17.30	-35.8	-37.1	28.7	3.03e+01	0	32	0	208666624	46	6146
2026-01-28 18:59:26.27	302.23	17.25	-35.9	-37.2	28.5	3.03e+01	0	32	0	210763776	46	6221
2026-01-28 18:59:27.28	301.99	17.19	-36.5	-37.8	27.8	3.03e+01	0	32	0	212860928	46	6678
2026-01-28 18:59:28.29	301.74	17.14	-36.0	-37.2	28.3	3.03e+01	0	32	0	214433792	46	6242
2026-01-28 18:59:29.30	301.49	17.09	-36.7	-38.1	27.9	3.03e+01	0	32	0	216530944	46	6899
2026-01-28 18:59:30.31	301.25	17.04	-36.2	-37.5	28.2	3.03e+01	0	33	0	218103808	46	6435
2026-01-28 18:59:31.32	301.01	16.99	-36.6	-38.0	27.9	3.03e+01	0	32	0	220200960	46	6840
2026-01-28 18:59:32.33	300.76	16.93	-35.6	-36.8	28.8	3.03e+01	0	32	0	222298112	46	5972
2026-01-28 18:59:33.33	300.52	16.88	-36.0	-37.3	28.4	3.03e+01	0	32	0	223870976	46	6294
2026-01-28 18:59:34.34	300.28	16.82	-35.8	-37.0	28.6	3.03e+01	0	32	0	225968128	46	6116
2026-01-28 18:59:35.35	300.04	16.77	-36.2	-37.4	28.3	3.03e+01	0	32	0	227540992	46	6409
2026-01-28 18:59:36.36	299.81	16.72	-35.7	-36.9	28.7	3.03e+01	0	32	0	229638144	46	6049
2026-01-28 18:59:37.37	299.57	16.66	-35.7	-36.9	28.8	3.03e+01	0	32	0	231735296	46	6018
2026-01-28 18:59:38.38	299.33	16.61	-35.8	-37.1	28.6	3.03e+01	0	32	0	233308160	46	6135
2026-01-28 18:59:39.39	299.09	16.55	-35.7	-36.9	28.6	3.03e+01	0	32	0	235405312	46	6044
2026-01-28 18:59:40.40	298.86	16.49	-36.1	-37.4	28.1	3.03e+01	0	32	0	236978176	46	6412
2026-01-28 18:59:41.41	298.62	16.44	-35.5	-36.8	28.7	3.03e+01	0	32	0	239075328	46	5935
2026-01-28 18:59:42.42	298.39	16.38	-36.1	-37.4	28.2	3.03e+01	0	32	0	241172480	46	6356
2026-01-28 18:59:43.43	298.16	16.32	-35.8	-37.0	28.5	3.03e+01	0	32	0	242745344	46	6111
2026-01-28 18:59:44.44	297.93	16.27	-36.0	-37.2	28.3	3.03e+01	0	32	0	244842496	46	6272
2026-01-28 18:59:45.45	297.70	16.21	-35.5	-36.7	28.7	3.03e+01	0	32	0	246939648	46	5881
2026-01-28 18:59:46.46	297.47	16.15	-35.8	-37.0	28.5	3.03e+01	0	32	0	248512512	46	6111
2026-01-28 18:59:47.47	297.24	16.09	-36.1	-37.4	28.4	3.03e+01	0	32	0	250609664	46	6358
2026-01-28 18:59:48.48	297.01	16.03	-35.6	-36.8	28.8	3.03e+01	0	32	0	252182528	46	5945
2026-01-28 18:59:49.48	296.79	15.98	-35.9	-37.1	28.4	3.03e+01	0	32	0	254279680	46	6205
2026-01-28 18:59:50.49	296.56	15.92	-35.6	-36.9	28.6	3.03e+01	0	32	0	256376832	46	5999
2026-01-28 18:59:51.50	296.34	15.86	-36.3	-37.6	27.9	3.03e+01	0	32	0	257949696	46	6558
2026-01-28 18:59:52.51	296.11	15.80	-35.7	-36.9	28.5	3.03e+01	0	32	0	260046848	46	6053
2026-01-28 18:59:53.52	295.89	15.74	-36.0	-37.3	28.0	3.03e+01	0	32	0	261619712	46	6279
2026-01-28 18:59:54.53	295.67	15.68	-35.9	-37.1	28.0	3.03e+01	0	32	0	263716864	46	6197
2026-01-28 18:59:55.54	295.45	15.62	-35.5	-36.7	28.4	3.03e+01	0	32	0	265814016	46	5918
2026-01-28 18:59:56.55	295.23	15.56	-36.2	-37.5	27.7	3.03e+01	0	32	0	267386880	46	6444
2026-01-28 18:59:57.56	295.01	15.50	-35.3	-36.5	28.8	3.03e+01	0	32	0	269484032	46	5747
2026-01-28 18:59:58.57	294.79	15.43	-36.1	-37.4	28.1	3.03e+01	0	32	0	271581184	46	6395
2026-01-28 18:59:59.58	294.57	15.37	-35.3	-36.5	28.9	3.03e+01	0	32	0	273154048	46	5742
2026-01-28 19:00:00.58	294.36	15.31	-36.3	-37.6	28.1	3.03e+01	0	32	0	275251200	46	6532
2026-01-28 19:00:01.59	294.15	15.25	-36.3	-37.5	28.1	3.03e+01	0	32	0	276824064	46	6447
2026-01-28 19:00:02.61	293.93	15.19	-36.8	-38.1	27.5	3.03e+01	0	32	0	278921216	46	6929
2026-01-28 19:00:03.62	293.72	15.13	-35.7	-36.9	28.7	3.03e+01	0	32	0	281018368	46	6008
2026-01-28 19:00:04.63	293.50	15.06	-36.1	-37.4	28.2	3.03e+01	0	32	0	282591232	46	6389
2026-01-28 19:00:05.64	293.29	15.00	-35.8	-37.0	28.5	3.03e+01	0	32	0	284688384	46	6124
2026-01-28 19:00:06.65	293.08	14.94	-36.4	-37.7	27.7	3.03e+01	0	32	0	286261248	46	6623
2026-01-28 19:00:07.66	292.87	14.88	-36.2	-37.5	28.0	3.03e+01	0	32	0	288358400	46	6447
2026-01-28 19:00:08.66	292.67	14.81	-36.1	-37.3	28.1	3.03e+01	0	33	0	290455552	46	6320
2026-01-28 19:00:09.67	292.46	14.75	-36.9	-38.3	27.0	3.03e+01	0	32	0	292028416	48	6317
2026-01-28 19:00:10.68	292.25	14.69	-36.5	-37.7	27.8	3.03e+01	0	32	0	294125568	48	5887
2026-01-28 19:00:11.68	292.05	14.62	-37.2	-38.6	27.1	3.03e+01	0	32	0	295698432	48	6505
2026-01-28 19:00:12.69	291.84	14.56	-36.6	-37.9	27.7	3.03e+01	0	32	0	297795584	48	5999
2026-01-28 19:00:13.70	291.64	14.50	-35.9	-37.2	28.4	3.03e+01	0	32	0	299892736	46	6225
2026-01-28 19:00:14.71	291.44	14.43	-36.1	-37.4	28.2	3.03e+01	0	33	0	301465600	46	6385
2026-01-28 19:00:15.72	291.24	14.37	-35.9	-37.2	28.4	3.03e+01	0	32	0	303562752	46	6215
2026-01-28 19:00:16.73	291.04	14.30	-35.8	-37.0	28.5	3.03e+01	0	32	0	305135616	46	6117
2026-01-28 19:00:17.73	290.84	14.24	-35.8	-37.0	28.6	3.03e+01	0	32	0	307232768	46	6103
2026-01-28 19:00:18.74	290.64	14.17	-35.8	-37.0	28.5	3.03e+01	0	32	0	309329920	46	6112
2026-01-28 19:00:19.75	290.44	14.11	-36.0	-37.2	28.3	3.03e+01	0	32	0	310902784	46	6267
2026-01-28 19:00:20.76	290.24	14.04	-36.0	-37.3	28.3	3.03e+01	0	32	0	312999936	46	6299
2026-01-28 19:00:21.77	290.05	13.98	-35.9	-37.1	28.5	3.03e+01	0	32	0	315097088	46	6178
2026-01-28 19:00:22.78	289.85	13.91	-36.2	-37.4	28.2	3.03e+01	0	32	0	316669952	46	6407
2026-01-28 19:00:23.79	289.66	13.85	-36.3	-37.6	28.1	3.03e+01	0	32	0	318767104	46	6504
2026-01-28 19:00:24.80	289.46	13.78	-36.1	-37.4	28.1	3.03e+01	0	32	0	320339968	46	6390
2026-01-28 19:00:25.81	289.27	13.72	-36.2	-37.4	28.1	3.03e+01	0	32	0	322437120	46	6421
2026-01-28 19:00:26.82	289.08	13.65	-36.6	-37.9	27.7	3.03e+01	0	32	0	324534272	46	6739
2026-01-28 19:00:27.83	288.89	13.59	-36.8	-38.1	27.4	3.03e+01	0	32	0	326107136	46	6947
2026-01-28 19:00:28.84	288.70	13.52	-35.7	-36.9	28.5	3.03e+01	0	32	0	328204288	46	6047
2026-01-28 19:00:29.85	288.51	13.45	-35.7	-37.0	28.5	3.03e+01	0	32	0	329777152	46	6085
2026-01-28 19:00:30.86	288.32	13.39	-36.2	-37.5	28.1	3.03e+01	0	32	0	331874304	46	6454
2026-01-28 19:00:31.87	288.14	13.32	-36.1	-37.4	28.1	3.03e+01	0	32	0	333971456	46	6401
2026-01-28 19:00:32.88	287.95	13.26	-36.0	-37.3	28.2	3.03e+01	0	33	0	335544320	46	6280
2026-01-28 19:00:33.88	287.77	13.19	-35.9	-37.2	28.3	3.03e+01	0	33	0	337641472	46	6243
2026-01-28 19:00:34.90	287.58	13.12	-36.0	-37.2	28.2	3.03e+01	0	33	0	339214336	46	6255
2026-01-28 19:00:35.90	287.40	13.06	-36.2	-37.5	28.0	3.03e+01	0	32	0	341311488	46	6452
2026-01-28 19:00:36.91	287.22	12.99	-36.0	-37.2	28.3	3.03e+01	0	32	0	343408640	46	6253
2026-01-28 19:00:37.92	287.03	12.92	-35.9	-37.2	28.2	3.03e+01	0	32	0	344981504	46	6232
2026-01-28 19:00:38.93	286.85	12.86	-36.1	-37.4	28.1	3.03e+01	0	32	0	347078656	46	6377
2026-01-28 19:00:39.93	286.68	12.79	-36.2	-37.5	28.0	3.03e+01	0	32	0	348651520	46	6477
2026-01-28 19:00:40.94	286.50	12.72	-36.3	-37.6	27.9	3.03e+01	0	32	0	350748672	46	6506
2026-01-28 19:00:41.95	286.32	12.66	-36.2	-37.4	28.0	3.03e+01	0	32	0	352845824	46	6414
2026-01-28 19:00:42.96	286.14	12.59	-35.8	-37.0	28.3	3.03e+01	0	32	0	354418688	46	6107
2026-01-28 19:00:43.96	285.97	12.52	-35.8	-37.0	28.4	3.03e+01	0	32	0	356515840	46	6133
2026-01-28 19:00:44.97	285.79	12.46	-36.1	-37.4	28.0	3.03e+01	0	32	0	358088704	46	6409
2026-01-28 19:00:45.98	285.62	12.39	-36.3	-37.6	27.8	3.03e+01	0	32	0	360185856	46	6558
2026-01-28 19:00:46.99	285.44	12.32	-36.2	-37.5	27.9	3.03e+01	0	32	0	362283008	46	6448
2026-01-28 19:00:48.00	285.27	12.26	-36.0	-37.3	28.1	3.03e+01	0	32	0	363855872	46	6291
2026-01-28 19:00:49.01	285.10	12.19	-36.1	-37.4	28.1	3.03e+01	0	32	0	365953024	46	6362
2026-01-28 19:00:50.02	284.93	12.12	-36.3	-37.6	27.8	3.03e+01	0	32	0	368050176	46	6503
2026-01-28 19:00:51.03	284.76	12.05	-36.2	-37.5	27.9	3.03e+01	0	32	0	369623040	46	6450
2026-01-28 19:00:52.04	284.59	11.99	-36.0	-37.3	28.2	3.03e+01	0	32	0	371720192	46	6284
2026-01-28 19:00:53.05	284.42	11.92	-36.4	-37.8	27.7	3.03e+01	0	32	0	373293056	46	6652
2026-01-28 19:00:54.05	284.25	11.85	-36.5	-37.8	27.6	3.03e+01	0	32	0	375390208	46	6682
2026-01-28 19:00:55.06	284.08	11.79	-36.2	-37.5	27.9	3.03e+01	0	32	0	377487360	46	6462
2026-01-28 19:00:56.07	283.92	11.72	-35.8	-37.0	28.3	3.03e+01	0	32	0	379060224	46	6128
2026-01-28 19:00:57.08	283.75	11.65	-36.1	-37.4	28.0	3.03e+01	0	32	0	381157376	46	6395
2026-01-28 19:00:58.09	283.59	11.58	-36.5	-37.8	27.6	3.03e+01	0	32	0	382730240	46	6717
2026-01-28 19:00:59.10	283.42	11.52	-36.2	-37.5	27.9	3.03e+01	0	32	0	384827392	46	6457
2026-01-28 19:01:00.11	283.26	11.45	-36.3	-37.6	27.8	3.03e+01	0	32	0	386400256	46	6509
2026-01-28 19:01:01.12	283.10	11.38	-36.2	-37.4	28.0	3.03e+01	0	32	0	388497408	46	6420
2026-01-28 19:01:02.13	282.94	11.31	-36.4	-37.7	27.6	3.03e+01	0	32	0	390594560	46	6641
2026-01-28 19:01:03.14	282.78	11.25	-36.7	-38.0	27.5	3.03e+01	0	32	0	392167424	46	6852
2026-01-28 19:01:04.14	282.62	11.18	-36.7	-38.0	27.4	3.03e+01	0	32	0	394264576	46	6845
2026-01-28 19:01:05.15	282.46	11.11	-36.2	-37.4	27.9	3.03e+01	0	32	0	396361728	46	6421
2026-01-28 19:01:06.16	282.30	11.05	-36.0	-37.3	28.0	3.03e+01	0	32	0	397934592	46	6310
2026-01-28 19:01:07.17	282.15	10.98	-36.4	-37.7	27.7	3.03e+01	0	32	0	400031744	46	6586
2026-01-28 19:01:08.18	281.99	10.91	-36.7	-38.1	27.4	3.03e+01	0	32	0	401604608	46	6914
2026-01-28 19:01:09.19	281.83	10.84	-36.3	-37.7	27.7	3.03e+01	0	32	0	403701760	46	6575
2026-01-28 19:01:10.20	281.68	10.78	-36.3	-37.6	27.8	3.03e+01	0	32	0	405798912	46	6504
2026-01-28 19:01:11.21	281.52	10.71	-36.2	-37.4	27.9	3.03e+01	0	32	0	407371776	46	6421
2026-01-28 19:01:12.22	281.37	10.64	-36.6	-37.9	27.4	3.03e+01	0	32	0	409468928	46	6791
2026-01-28 19:01:13.22	281.22	10.57	-36.7	-38.1	27.3	3.03e+01	0	32	0	411566080	46	6901
2026-01-28 19:01:14.23	281.07	10.51	-36.6	-38.0	27.3	3.03e+01	0	32	0	413138944	46	6821
2026-01-28 19:01:15.24	280.92	10.44	-36.5	-37.8	27.4	3.03e+01	0	32	0	415236096	46	6702
2026-01-28 19:01:16.25	280.77	10.37	-36.2	-37.4	27.9	3.03e+01	0	32	0	416808960	46	6415
2026-01-28 19:01:17.26	280.62	10.31	-36.1	-37.4	27.9	3.03e+01	0	32	0	418906112	46	6359
2026-01-28 19:01:18.27	280.47	10.24	-36.5	-37.8	27.5	3.03e+01	0	32	0	421003264	46	6680
2026-01-28 19:01:19.28	280.32	10.17	-36.9	-38.2	27.2	3.03e+01	0	33	0	422576128	46	7035
2026-01-28 19:01:20.29	280.17	10.10	-37.0	-38.4	27.0	3.03e+01	0	32	0	424673280	46	7169
2026-01-28 19:01:21.30	280.03	10.04	-36.8	-38.2	27.0	3.03e+01	0	32	0	426246144	48	6250
2026-01-28 19:01:22.31	279.88	9.97	-36.5	-37.8	27.4	3.03e+01	0	32	0	428343296	48	5982
2026-01-28 19:01:23.32	279.74	9.90	-36.6	-37.9	27.4	3.03e+01	0	32	0	430440448	48	6021
2026-01-28 19:01:24.33	279.59	9.84	-36.2	-37.5	27.8	3.03e+01	0	32	0	432013312	48	5752
2026-01-28 19:01:25.34	279.45	9.77	-36.9	-38.3	26.9	3.03e+01	0	32	0	434110464	48	6312
2026-01-28 19:01:26.34	279.31	9.70	-37.1	-38.6	26.8	3.03e+01	0	32	0	435683328	48	6500
2026-01-28 19:01:27.35	279.16	9.63	-37.1	-38.5	26.8	3.03e+01	0	32	0	437780480	48	6454
2026-01-28 19:01:28.36	279.02	9.57	-36.9	-38.3	26.8	3.03e+01	0	32	0	439877632	48	6320
2026-01-28 19:01:29.37	278.88	9.50	-36.8	-38.1	27.0	3.03e+01	0	32	0	441450496	48	6169
2026-01-28 19:01:30.38	278.74	9.43	-36.5	-37.8	27.3	3.03e+01	0	33	0	443547648	48	5965
2026-01-28 19:01:31.39	278.60	9.37	-36.3	-37.5	27.7	3.03e+01	0	32	0	445120512	48	5777
2026-01-28 19:01:32.40	278.46	9.30	-36.5	-37.8	27.4	3.03e+01	0	32	0	447217664	48	5972
2026-01-28 19:01:33.41	278.33	9.23	-36.8	-38.2	27.1	3.03e+01	0	32	0	449314816	48	6232
2026-01-28 19:01:34.42	278.19	9.17	-37.0	-38.3	27.0	3.03e+01	0	32	0	450887680	48	6347
2026-01-28 19:01:35.43	278.05	9.10	-37.2	-38.6	26.7	3.03e+01	0	32	0	452984832	48	6509
2026-01-28 19:01:36.44	277.92	9.03	-37.1	-38.5	26.6	3.03e+01	0	32	0	454557696	48	6450
2026-01-28 19:01:37.45	277.78	8.97	-36.9	-38.2	26.9	3.03e+01	0	32	0	456654848	48	6262
2026-01-28 19:01:38.46	277.65	8.90	-36.9	-38.2	26.9	3.03e+01	0	32	0	458752000	48	6268
2026-01-28 19:01:39.47	277.51	8.84	-36.7	-38.1	27.2	3.03e+01	0	32	0	460324864	48	6148
2026-01-28 19:01:40.48	277.38	8.77	-36.7	-38.0	27.3	3.03e+01	0	32	0	462422016	48	6065
2026-01-28 19:01:41.49	277.25	8.70	-36.8	-38.1	27.2	3.03e+01	0	32	0	464519168	48	6198
2026-01-28 19:01:42.50	277.12	8.64	-36.8	-38.1	27.1	3.03e+01	0	32	0	466092032	48	6195
2026-01-28 19:01:43.51	276.98	8.57	-37.0	-38.4	26.8	3.03e+01	0	32	0	468189184	48	6396
2026-01-28 19:01:44.52	276.85	8.50	-37.2	-38.6	26.7	3.03e+01	0	32	0	469762048	48	6520
2026-01-28 19:01:45.53	276.72	8.44	-37.1	-38.4	26.8	3.03e+01	0	32	0	471859200	48	6411
2026-01-28 19:01:46.53	276.60	8.37	-37.3	-38.7	26.5	3.03e+01	0	32	0	473956352	48	6610
2026-01-28 19:01:47.54	276.47	8.31	-37.2	-38.5	26.7	3.03e+01	0	32	0	475529216	48	6486
2026-01-28 19:01:48.56	276.34	8.24	-37.1	-38.4	26.8	3.03e+01	0	32	0	477626368	48	6407
2026-01-28 19:01:49.57	276.21	8.18	-37.0	-38.3	26.9	3.03e+01	0	32	0	479723520	48	6306
2026-01-28 19:01:50.57	276.09	8.11	-36.9	-38.2	27.0	3.03e+01	0	32	0	481296384	48	6258
2026-01-28 19:01:51.58	275.96	8.04	-37.0	-38.4	26.8	3.03e+01	0	32	0	483393536	48	6370
2026-01-28 19:01:52.59	275.83	7.98	-37.3	-38.7	26.7	3.03e+01	0	32	0	484966400	48	6582
2026-01-28 19:01:53.60	275.71	7.91	-37.4	-38.8	26.4	3.03e+01	0	32	0	487063552	48	6658
2026-01-28 19:01:54.61	275.59	7.85	-37.2	-38.6	26.7	3.03e+01	0	32	0	488636416	48	6513
2026-01-28 19:01:55.62	275.46	7.78	-37.2	-38.6	26.5	3.03e+01	0	32	0	490733568	48	6569
2026-01-28 19:01:56.63	275.34	7.72	-37.3	-38.7	26.5	3.03e+01	0	32	0	492830720	48	6590
2026-01-28 19:01:57.64	275.22	7.65	-37.3	-38.7	26.4	3.03e+01	0	32	0	494403584	48	6585
2026-01-28 19:01:58.64	275.10	7.59	-37.2	-38.6	26.5	3.03e+01	0	32	0	496500736	48	6547
2026-01-28 19:01:59.65	274.97	7.52	-37.2	-38.6	26.5	3.03e+01	0	32	0	498073600	48	6561
2026-01-28 19:02:00.66	274.85	7.46	-37.2	-38.6	26.5	3.03e+01	0	32	0	500170752	48	6547
2026-01-28 19:02:01.67	274.73	7.39	-37.2	-38.6	26.5	3.03e+01	0	32	0	502267904	48	6527
2026-01-28 19:02:02.68	274.62	7.33	-37.2	-38.6	26.6	3.03e+01	0	32	0	503840768	48	6532
2026-01-28 19:02:03.69	274.50	7.26	-37.2	-38.6	26.6	3.03e+01	0	32	0	505937920	48	6520
2026-01-28 19:02:04.69	274.38	7.20	-37.2	-38.6	26.5	3.03e+01	0	32	0	508035072	48	6555
2026-01-28 19:02:05.70	274.26	7.13	-37.2	-38.6	26.6	3.03e+01	0	32	0	509607936	48	6534
2026-01-28 19:02:06.71	274.14	7.07	-37.6	-39.1	26.1	3.03e+01	0	32	0	511705088	48	6898
2026-01-28 19:02:07.72	274.03	7.01	-37.8	-39.3	25.9	3.03e+01	0	32	0	513277952	48	7050
2026-01-28 19:02:08.73	273.91	6.94	-37.6	-39.0	26.1	3.03e+01	0	32	0	515375104	48	6850
2026-01-28 19:02:09.74	273.80	6.88	-37.8	-39.3	25.9	3.03e+01	0	32	0	517472256	48	7087
2026-01-28 19:02:10.75	273.68	6.81	-37.9	-39.4	25.7	3.03e+01	0	32	0	519045120	48	7162
2026-01-28 19:02:11.76	273.57	6.75	-38.1	-39.6	25.6	3.03e+01	0	32	0	521142272	50	6552
2026-01-28 19:02:12.76	273.46	6.68	-38.0	-39.5	25.7	3.03e+01	0	32	0	522715136	50	6439
2026-01-28 19:02:13.77	273.34	6.62	-38.2	-39.6	25.5	3.03e+01	0	32	0	524812288	50	6567
2026-01-28 19:02:14.78	273.23	6.56	-37.9	-39.4	25.8	3.03e+01	0	32	0	526909440	50	6358
2026-01-28 19:02:15.79	273.12	6.49	-38.3	-39.7	25.5	3.03e+01	0	32	0	528482304	50	6644
2026-01-28 19:02:16.80	273.01	6.43	-38.1	-39.6	25.5	3.03e+01	0	32	0	530579456	50	6543
2026-01-28 19:02:17.81	272.90	6.37	-37.7	-39.1	25.9	3.03e+01	0	32	0	532152320	50	6181
2026-01-28 19:02:18.82	272.79	6.30	-37.8	-39.3	25.9	3.03e+01	0	32	0	534249472	50	6308
2026-01-28 19:02:19.82	272.68	6.24	-37.9	-39.4	25.8	3.03e+01	0	32	0	536346624	50	6371
2026-01-28 19:02:20.83	272.57	6.18	-38.1	-39.6	25.6	3.03e+01	0	32	0	537919488	50	6536
2026-01-28 19:02:21.84	272.46	6.11	-37.8	-39.2	25.9	3.03e+01	0	32	0	540016640	50	6250
2026-01-28 19:02:22.85	272.35	6.05	-37.7	-39.2	25.9	3.03e+01	0	32	0	541589504	50	6229
2026-01-28 19:02:23.86	272.24	5.99	-37.7	-39.2	25.9	3.03e+01	0	32	0	543686656	50	6226
2026-01-28 19:02:24.87	272.14	5.92	-38.0	-39.5	25.8	3.03e+01	0	32	0	545783808	50	6424
2026-01-28 19:02:25.87	272.03	5.86	-37.7	-39.1	26.1	3.03e+01	0	32	0	547356672	50	6201
2026-01-28 19:02:26.88	271.92	5.80	-37.9	-39.4	25.9	3.03e+01	0	32	0	549453824	50	6357
2026-01-28 19:02:27.89	271.82	5.73	-37.2	-38.6	26.5	3.03e+01	0	32	0	551026688	50	5845
2026-01-28 19:02:28.90	271.71	5.67	-37.8	-39.3	25.9	3.03e+01	0	32	0	553123840	50	6296
2026-01-28 19:02:29.91	271.61	5.61	-38.0	-39.5	25.7	3.03e+01	0	32	0	555220992	50	6442
2026-01-28 19:02:30.92	271.50	5.55	-37.5	-38.9	26.2	3.03e+01	0	32	0	556793856	50	6035
2026-01-28 19:02:31.93	271.40	5.48	-37.8	-39.3	25.9	3.03e+01	0	32	0	558891008	50	6299
2026-01-28 19:02:32.94	271.30	5.42	-37.7	-39.1	26.0	3.03e+01	0	32	0	560988160	50	6191
2026-01-28 19:02:33.95	271.20	5.36	-38.0	-39.4	25.7	3.03e+01	0	32	0	562561024	50	6398
2026-01-28 19:02:34.96	271.09	5.30	-37.7	-39.1	26.0	3.03e+01	0	32	0	564658176	50	6186
2026-01-28 19:02:35.96	270.99	5.23	-37.9	-39.3	26.0	3.03e+01	0	32	0	566231040	50	6319
2026-01-28 19:02:36.97	270.89	5.17	-37.9	-39.4	25.7	3.03e+01	0	32	0	568328192	50	6381
2026-01-28 19:02:37.99	270.79	5.11	-38.2	-39.7	25.1	3.03e+01	0	32	0	570425344	50	6625
2026-01-28 19:02:39.00	270.69	5.05	-38.3	-39.8	25.4	3.03e+01	0	32	0	571998208	50	6663
2026-01-28 19:02:40.01	270.59	4.99	-38.0	-39.5	25.6	3.03e+01	0	32	0	574095360	50	6452
2026-01-28 19:02:41.02	270.49	4.92	-38.4	-39.9	25.2	3.03e+01	0	32	0	576192512	50	6782
2026-01-28 19:02:42.02	270.39	4.86	-38.0	-39.5	25.6	3.03e+01	0	32	0	577765376	50	6470
2026-01-28 19:02:43.03	270.29	4.80	-38.0	-39.5	25.7	3.03e+01	0	32	0	579862528	50	6459
2026-01-28 19:02:44.04	270.20	4.74	-37.8	-39.3	25.8	3.03e+01	0	32	0	581435392	50	6290
2026-01-28 19:02:45.05	270.10	4.68	-38.1	-39.6	25.5	3.03e+01	0	32	0	583532544	50	6544
2026-01-28 19:02:46.06	270.00	4.62	-38.2	-39.7	25.2	3.03e+01	0	32	0	585629696	50	6644
2026-01-28 19:02:47.07	269.91	4.55	-38.1	-39.5	25.7	3.03e+01	0	33	0	587202560	50	6498
2026-01-28 19:02:48.08	269.81	4.49	-38.3	-39.8	25.4	3.03e+01	0	32	0	589299712	50	6722
2026-01-28 19:02:49.09	269.71	4.43	-37.9	-39.3	25.8	3.03e+01	0	33	0	590872576	50	6339
2026-01-28 19:02:50.09	269.62	4.37	-37.6	-39.1	25.9	3.03e+01	0	32	0	592969728	50	6144
2026-01-28 19:02:51.10	269.53	4.31	-38.3	-39.8	25.2	3.03e+01	0	32	0	594542592	50	6689
2026-01-28 19:02:52.11	269.43	4.25	-38.1	-39.6	25.5	3.03e+01	0	32	0	596639744	50	6557
2026-01-28 19:02:53.12	269.34	4.19	-38.5	-40.0	25.1	3.03e+01	0	32	0	598736896	50	6866
2026-01-28 19:02:54.13	269.24	4.13	-38.6	-40.2	24.8	3.03e+01	0	32	0	600309760	50	7012
2026-01-28 19:02:55.14	269.15	4.07	-38.6	-40.2	24.9	3.03e+01	0	32	0	602406912	50	6983
2026-01-28 19:02:56.15	269.06	4.01	-38.8	-40.4	24.6	3.03e+01	0	33	0	604504064	50	7194
2026-01-28 19:02:57.16	268.97	3.95	-38.5	-40.0	25.2	3.03e+01	0	33	0	606076928	52	6094
2026-01-28 19:02:58.17	268.88	3.89	-38.3	-39.8	25.3	3.03e+01	0	32	0	608174080	52	5936
2026-01-28 19:02:59.18	268.78	3.83	-38.2	-39.7	25.3	3.03e+01	0	32	0	609746944	52	5912
2026-01-28 19:03:00.18	268.69	3.77	-38.2	-39.7	25.4	3.03e+01	0	32	0	611844096	50	6574
2026-01-28 19:03:01.18	268.61	3.71	-37.9	-39.4	25.6	3.03e+01	0	32	0	613941248	50	6365
2026-01-28 19:03:02.19	268.52	3.65	-38.3	-39.8	25.3	3.03e+01	0	32	0	615514112	50	6663
2026-01-28 19:03:03.20	268.43	3.59	-38.2	-39.7	25.2	3.03e+01	0	33	0	617611264	50	6635
2026-01-28 19:03:04.21	268.34	3.53	-38.1	-39.6	25.3	3.03e+01	0	32	0	619184128	50	6536
2026-01-28 19:03:05.22	268.25	3.47	-38.5	-40.0	25.0	3.03e+01	0	32	0	621281280	50	6865
2026-01-28 19:03:06.23	268.16	3.41	-38.4	-39.9	25.1	3.03e+01	0	32	0	623378432	50	6754
2026-01-28 19:03:07.24	268.07	3.35	-38.4	-39.9	25.1	3.03e+01	0	33	0	624951296	50	6784
2026-01-28 19:03:08.25	267.98	3.29	-38.7	-40.3	24.6	3.03e+01	0	32	0	627048448	52	6337
2026-01-28 19:03:09.26	267.90	3.23	-39.1	-40.7	24.4	3.03e+01	0	32	0	628621312	52	6626
2026-01-28 19:03:10.27	267.81	3.17	-38.9	-40.4	24.7	3.03e+01	0	32	0	630718464	52	6415
2026-01-28 19:03:11.28	267.72	3.11	-39.0	-40.6	24.4	3.03e+01	0	32	0	632815616	52	6541
2026-01-28 19:03:12.29	267.64	3.05	-38.7	-40.3	24.6	3.03e+01	0	32	0	634388480	52	6288
2026-01-28 19:03:13.30	267.55	2.99	-38.9	-40.5	24.4	3.03e+01	0	32	0	636485632	52	6436
2026-01-28 19:03:14.30	267.47	2.93	-48.1	-65.6	3.5	3.03e+01	0	32	104	637009920	60	73657
2026-01-28 19:03:15.31	267.38	2.87	-48.2	-66.0	3.5	3.03e+01	0	32	104	637009920	60	76430
2026-01-28 19:03:16.32	267.30	2.82	-48.5	-66.3	3.5	3.03e+01	0	33	104	637009920	60	79907
2026-01-28 19:03:17.33	267.22	2.76	-48.8	-66.5	3.5	3.03e+01	0	33	104	637009920	60	81268
2026-01-28 19:03:18.34	267.13	2.70	-49.0	-66.8	3.5	3.03e+01	0	32	104	637009920	60	83767
2026-01-28 19:03:19.35	267.05	2.64	-49.1	-66.9	3.5	3.03e+01	0	33	104	637009920	60	85064
2026-01-28 19:03:20.36	266.97	2.58	-49.2	-67.0	3.5	3.03e+01	0	33	104	637009920	60	86316
2026-01-28 19:03:21.37	266.88	2.52	-49.2	-67.0	3.5	3.03e+01	0	33	104	637009920	60	86401
2026-01-28 19:03:22.38	266.80	2.46	-49.2	-67.0	3.5	3.03e+01	0	33	104	637009920	60	86527
2026-01-28 19:03:23.39	266.72	2.41	-49.3	-67.1	3.5	3.03e+01	0	33	104	637009920	60	87031
2026-01-28 19:03:24.40	266.64	2.35	-49.3	-67.1	3.5	3.03e+01	0	33	104	637009920	60	87090
2026-01-28 19:03:25.41	266.56	2.29	-49.2	-67.1	3.5	3.03e+01	0	33	104	637009920	60	86971
2026-01-28 19:03:26.42	266.48	2.23	-49.3	-67.1	3.5	3.03e+01	0	32	104	637009920	60	87598
2026-01-28 19:03:27.43	266.40	2.17	-49.2	-67.1	3.5	3.03e+01	0	32	104	637009920	60	87429
2026-01-28 19:03:28.44	266.32	2.12	-49.2	-67.1	3.5	3.03e+01	0	33	104	637009920	60	87375
2026-01-28 19:03:29.45	266.24	2.06	-49.0	-67.1	3.5	3.03e+01	0	32	104	637009920	60	87175
2026-01-28 19:03:30.46	266.16	2.00	-48.9	-67.1	3.5	3.03e+01	0	33	104	637009920	60	87158
2026-01-28 19:03:31.47	266.08	1.94	-49.1	-67.1	3.5	3.03e+01	0	33	104	637009920	60	87302
2026-01-28 19:03:32.48	266.00	1.88	-48.9	-67.0	3.5	3.03e+01	0	33	104	637009920	60	86061
2026-01-28 19:03:33.49	265.92	1.83	-49.0	-67.0	3.5	3.03e+01	0	33	104	637009920	60	86534
2026-01-28 19:03:34.50	265.84	1.77	-49.0	-66.9	3.5	3.03e+01	0	33	104	637009920	60	85626
2026-01-28 19:03:35.51	265.77	1.71	-49.1	-67.0	3.5	3.03e+01	0	33	104	637009920	60	85912
2026-01-28 19:03:36.52	265.69	1.66	-49.1	-67.0	3.5	3.03e+01	0	33	104	637009920	60	85852
2026-01-28 19:03:37.53	265.61	1.60	-48.8	-66.9	3.5	3.03e+01	0	33	104	637009920	60	85445
2026-01-28 19:03:38.54	265.54	1.54	-49.1	-66.9	3.5	3.03e+01	0	33	104	637009920	60	85636
2026-01-28 19:03:39.55	265.46	1.48	-49.3	-67.1	3.5	3.03e+01	0	33	104	637009920	60	87129
2026-01-28 19:03:40.56	265.38	1.43	-49.2	-67.0	3.5	3.03e+01	0	33	104	637009920	60	86536
2026-01-28 19:03:41.58	265.31	1.37	-49.2	-67.0	3.5	3.03e+01	0	33	104	637009920	60	86263
2026-01-28 19:03:42.59	265.23	1.31	-49.1	-67.0	3.5	3.03e+01	0	33	104	637009920	60	86627
2026-01-28 19:03:43.60	265.16	1.26	-49.1	-67.0	3.5	3.03e+01	0	33	104	637009920	60	85799
2026-01-28 19:03:44.61	265.08	1.20	-49.2	-67.0	3.5	3.03e+01	0	33	104	637009920	60	85872
2026-01-28 19:03:45.62	265.01	1.14	-49.1	-67.0	3.5	3.03e+01	0	33	104	637009920	60	86233
2026-01-28 19:03:46.63	264.94	1.09	-49.1	-67.0	3.5	3.03e+01	0	33	104	637009920	60	86328
2026-01-28 19:03:47.64	264.86	1.03	-49.1	-67.0	3.5	3.03e+01	0	33	104	637009920	60	85738
2026-01-28 19:03:48.65	264.79	0.97	-49.1	-67.0	3.5	3.03e+01	0	33	104	637009920	60	86202
2026-01-28 19:03:49.66	264.72	0.92	-49.1	-67.0	3.5	3.03e+01	0	33	104	637009920	60	86026
2026-01-28 19:03:50.67	264.64	0.86	-49.1	-67.0	3.5	3.03e+01	0	33	104	637009920	60	86131
2026-01-28 19:03:51.68	264.57	0.81	-49.1	-66.9	3.5	3.03e+01	0	33	104	637009920	60	85640
2026-01-28 19:03:52.69	264.50	0.75	-49.1	-67.0	3.5	3.03e+01	0	33	104	637009920	60	85870
2026-01-28 19:03:53.70	264.43	0.69	-49.1	-67.0	3.5	3.03e+01	0	33	104	637009920	60	86108
2026-01-28 19:03:54.71	264.36	0.64	-49.1	-67.0	3.5	3.03e+01	0	33	104	637009920	60	85844
2026-01-28 19:03:55.72	264.29	0.58	-49.1	-67.0	3.5	3.03e+01	0	33	104	637009920	60	85713
2026-01-28 19:03:56.73	264.21	0.53	-49.1	-66.9	3.5	3.03e+01	0	33	104	637009920	60	85306
2026-01-28 19:03:57.73	264.14	0.47	-49.1	-66.9	3.5	3.03e+01	0	33	104	637009920	60	85409
