passes_logs/2026/01/28/R4.6S_Anadyr/R4.6S_Anadyr__20260128_030921_NOAA_21_JPSS-2_rec.log

#Pass ID: 20260128_030921_NOAA 21 (JPSS-2)
#Satellite: NOAA 21 (JPSS-2)
#Configuration: NOAA-21
#almurnet v.1.7.20251203
#Start time: 2026-01-28 03:09:23

#Version: 2.2.20231116
#Station: R4.6S_Anadyr
#Location: 177.4865 lon 64.73178 lat
#TLE: 1 54234U 22150A   26027.55906748  .00000170  00000+0  10132-3 0  9996
#TLE: 2 54234  98.7510 328.3076 0000860 204.4692 155.6443 14.19540154166599

#Time	Az	El	Level	Level2	SNR	BER	BlckErr	Temp	State	Recorded	gain1	gain2
2026-01-28 03:09:23.74	235.16	0.08	-48.8	-60.5	3.5	8.45e-01	0	32	0	0	60	38330
2026-01-28 03:09:24.74	235.25	0.13	-49.0	-61.8	3.5	1.52e+00	0	33	104	0	60	43381
2026-01-28 03:09:25.75	235.34	0.17	-48.9	-61.9	3.5	1.52e+00	0	33	104	0	60	43444
2026-01-28 03:09:26.76	235.43	0.21	-49.1	-62.0	3.5	1.52e+00	0	33	104	0	60	43948
2026-01-28 03:09:27.78	235.52	0.26	-49.0	-61.9	3.5	1.52e+00	0	33	104	0	60	43859
2026-01-28 03:09:28.78	235.61	0.30	-49.0	-61.9	3.5	1.51e+00	0	33	104	0	60	43449
2026-01-28 03:09:29.79	235.70	0.35	-49.0	-61.9	3.5	1.51e+00	0	33	104	0	60	43681
2026-01-28 03:09:30.80	235.80	0.39	-49.0	-61.9	3.5	1.52e+00	0	34	104	0	60	43774
2026-01-28 03:09:31.81	235.89	0.43	-49.0	-61.9	3.5	1.52e+00	0	34	104	0	60	43786
2026-01-28 03:09:32.82	235.98	0.48	-49.0	-61.9	3.5	1.52e+00	0	34	104	0	60	43733
2026-01-28 03:09:33.83	236.07	0.52	-49.0	-61.9	3.5	1.52e+00	0	34	104	0	60	43909
2026-01-28 03:09:34.84	236.16	0.57	-49.0	-62.0	3.5	1.52e+00	0	34	104	0	60	43997
2026-01-28 03:09:35.85	236.26	0.61	-49.1	-62.0	3.5	1.52e+00	0	34	104	0	60	44068
2026-01-28 03:09:36.86	236.35	0.65	-49.1	-62.0	3.5	1.52e+00	0	34	104	0	60	44207
2026-01-28 03:09:37.87	236.44	0.70	-49.1	-62.0	3.5	1.52e+00	0	34	104	0	60	44251
2026-01-28 03:09:38.88	236.54	0.74	-49.1	-62.1	3.5	1.52e+00	0	34	104	0	60	44602
2026-01-28 03:09:39.89	236.63	0.79	-49.1	-62.0	3.5	1.52e+00	0	34	104	0	60	44296
2026-01-28 03:09:40.90	236.72	0.83	-49.1	-62.0	3.5	1.52e+00	0	34	104	0	60	44176
2026-01-28 03:09:41.91	236.82	0.88	-49.1	-62.0	3.5	1.52e+00	0	34	104	0	60	44053
2026-01-28 03:09:42.92	236.91	0.92	-49.1	-61.9	3.5	1.52e+00	0	34	104	0	60	43919
2026-01-28 03:09:43.93	237.01	0.96	-49.0	-61.9	3.5	1.51e+00	0	34	104	0	60	43482
2026-01-28 03:09:44.94	237.10	1.01	-48.9	-61.8	3.5	1.52e+00	0	34	104	0	60	43069
2026-01-28 03:09:45.95	237.20	1.05	-48.7	-61.5	3.6	1.52e+00	0	34	104	0	60	41889
2026-01-28 03:09:46.96	237.29	1.10	-48.3	-61.1	3.5	1.52e+00	0	34	104	0	60	39940
2026-01-28 03:09:47.97	237.39	1.14	-47.9	-60.7	3.5	1.52e+00	0	34	104	0	60	37905
2026-01-28 03:09:48.98	237.48	1.18	-47.0	-59.8	3.5	1.52e+00	0	34	104	0	60	34388
2026-01-28 03:09:49.99	237.58	1.23	-46.8	-59.6	3.5	1.52e+00	0	34	104	0	60	33679
2026-01-28 03:09:51.00	237.68	1.27	-46.8	-59.6	3.5	1.52e+00	0	34	104	0	60	33381
2026-01-28 03:09:52.01	237.77	1.32	-46.8	-59.6	3.5	1.52e+00	0	34	104	0	60	33499
2026-01-28 03:09:53.02	237.87	1.36	-46.8	-59.6	3.5	1.52e+00	0	34	104	0	60	33383
2026-01-28 03:09:54.03	237.97	1.40	-46.8	-59.6	3.5	1.52e+00	0	34	104	0	60	33368
2026-01-28 03:09:55.04	238.07	1.45	-46.8	-59.6	3.5	1.52e+00	0	34	104	0	60	33466
2026-01-28 03:09:56.05	238.16	1.49	-46.8	-59.6	3.5	1.52e+00	0	34	104	0	60	33431
2026-01-28 03:09:57.06	238.26	1.54	-46.8	-59.5	3.5	1.52e+00	0	34	104	0	60	33224
2026-01-28 03:09:58.07	238.36	1.58	-46.8	-59.6	3.5	1.52e+00	0	34	104	0	60	33395
2026-01-28 03:09:59.08	238.46	1.63	-46.8	-59.6	3.5	1.52e+00	0	34	104	0	60	33402
2026-01-28 03:10:00.09	238.56	1.67	-46.8	-59.6	3.5	1.51e+00	0	34	104	0	60	33340
2026-01-28 03:10:01.10	238.66	1.71	-46.8	-59.6	3.5	1.52e+00	0	34	104	0	60	33371
2026-01-28 03:10:02.11	238.76	1.76	-46.8	-59.5	3.5	1.52e+00	0	34	104	0	60	33196
2026-01-28 03:10:03.12	238.86	1.80	-46.8	-59.5	3.5	1.52e+00	0	34	104	0	60	33271
2026-01-28 03:10:04.13	238.96	1.85	-46.8	-59.4	3.5	1.52e+00	0	34	104	0	60	32938
2026-01-28 03:10:05.14	239.06	1.89	-46.8	-59.5	3.5	1.51e+00	0	34	104	0	60	33066
2026-01-28 03:10:06.15	239.16	1.93	-46.8	-59.5	3.5	1.52e+00	0	34	104	0	60	33033
2026-01-28 03:10:07.16	239.26	1.98	-46.8	-59.3	3.5	1.52e+00	0	34	104	0	60	32521
2026-01-28 03:10:08.17	239.36	2.02	-46.8	-59.4	3.5	1.52e+00	0	34	104	0	60	32835
2026-01-28 03:10:09.18	239.46	2.07	-46.8	-59.3	3.5	1.52e+00	0	34	104	0	60	32510
2026-01-28 03:10:10.18	239.56	2.11	-46.8	-59.2	3.5	1.52e+00	0	34	104	0	60	32012
2026-01-28 03:10:11.19	239.67	2.15	-46.8	-59.3	3.5	1.52e+00	0	34	104	0	60	32350
2026-01-28 03:10:12.20	239.77	2.20	-46.8	-59.2	3.5	1.51e+00	0	34	104	0	60	31998
2026-01-28 03:10:13.21	239.87	2.24	-46.7	-59.0	3.5	1.52e+00	0	34	104	0	60	31447
2026-01-28 03:10:14.22	239.98	2.29	-46.8	-59.0	3.5	1.52e+00	0	34	104	0	60	31263
2026-01-28 03:10:15.24	240.08	2.33	-46.7	-58.9	3.5	1.52e+00	0	34	104	0	60	31100
2026-01-28 03:10:16.25	240.18	2.38	-46.7	-58.7	3.5	1.52e+00	0	34	104	0	60	30389
2026-01-28 03:10:17.25	240.29	2.42	-46.7	-58.6	3.5	1.52e+00	0	34	104	0	60	29848
2026-01-28 03:10:18.26	240.39	2.46	-46.7	-58.5	3.5	1.51e+00	0	34	104	0	60	29693
2026-01-28 03:10:19.27	240.50	2.51	-46.7	-58.4	3.5	1.51e+00	0	34	104	0	60	29054
2026-01-28 03:10:20.28	240.60	2.55	-46.7	-58.3	3.5	1.51e+00	0	34	104	0	60	28872
2026-01-28 03:10:21.29	240.71	2.60	-46.7	-58.2	3.5	1.52e+00	0	34	104	0	60	28682
2026-01-28 03:10:22.30	240.81	2.64	-46.7	-58.5	3.5	1.51e+00	0	34	104	0	60	29384
2026-01-28 03:10:23.31	240.92	2.68	-46.7	-58.4	3.5	1.51e+00	0	34	104	0	60	29313
2026-01-28 03:10:24.33	241.02	2.73	-46.7	-58.6	3.5	1.52e+00	0	34	104	0	60	29705
2026-01-28 03:10:25.34	241.13	2.77	-46.7	-58.5	3.5	1.51e+00	0	34	104	0	60	29392
2026-01-28 03:10:26.34	241.24	2.82	-46.7	-58.5	3.5	1.51e+00	0	34	104	0	60	29490
2026-01-28 03:10:27.35	241.34	2.86	-46.7	-58.4	3.5	1.51e+00	0	34	104	0	60	29060
2026-01-28 03:10:28.37	241.45	2.90	-46.7	-58.3	3.5	1.51e+00	0	34	104	0	60	28760
2026-01-28 03:10:29.38	241.56	2.95	-46.7	-58.1	3.5	1.51e+00	0	34	104	0	60	28193
2026-01-28 03:10:30.39	241.67	2.99	-46.6	-57.9	3.5	1.51e+00	0	34	104	0	60	27472
2026-01-28 03:10:31.40	241.77	3.04	-46.2	-54.4	6.5	1.51e+00	0	34	104	0	60	18427
2026-01-28 03:10:32.41	241.88	3.08	-45.7	-51.9	6.7	8.89e-01	120	34	104	0	60	13883
2026-01-28 03:10:33.42	241.99	3.12	-46.7	-58.8	3.5	1.51e+00	0	34	104	0	60	30617
2026-01-28 03:10:34.43	242.10	3.17	-45.3	-50.4	8.9	1.91e-02	120	34	104	0	60	11636
2026-01-28 03:10:35.44	242.21	3.21	-45.2	-49.5	9.0	1.81e-02	122	34	0	2097152	60	10476
2026-01-28 03:10:36.45	242.32	3.26	-45.6	-50.6	8.4	1.69e-01	122	34	0	5242880	60	11852
2026-01-28 03:10:37.46	242.43	3.30	-44.7	-48.5	10.5	5.73e-03	122	34	0	8388608	60	9307
2026-01-28 03:10:38.47	242.54	3.34	-44.6	-48.1	10.8	3.92e-03	123	34	0	11534336	60	8964
2026-01-28 03:10:39.47	242.65	3.39	-44.6	-48.1	10.9	2.56e-03	123	34	0	14680064	60	8945
2026-01-28 03:10:40.48	242.76	3.43	-44.6	-48.0	11.0	2.35e-03	122	34	0	17825792	60	8859
2026-01-28 03:10:41.49	242.87	3.48	-44.7	-48.3	10.9	2.26e-03	123	34	0	20971520	60	9100
2026-01-28 03:10:42.50	242.99	3.52	-44.1	-47.2	12.1	5.35e-04	123	34	0	24117248	60	8014
2026-01-28 03:10:43.51	243.10	3.56	-43.8	-46.7	12.6	9.15e-05	120	34	0	27262976	60	7615
2026-01-28 03:10:44.52	243.21	3.61	-43.9	-46.8	12.6	1.75e-04	123	34	0	30408704	60	7672
2026-01-28 03:10:45.53	243.32	3.65	-43.4	-46.1	13.3	3.73e-05	122	34	0	33554432	60	7092
2026-01-28 03:10:46.54	243.44	3.69	-43.6	-46.3	13.1	2.89e-05	122	34	0	36700160	60	7272
2026-01-28 03:10:47.55	243.55	3.74	-43.1	-45.6	13.9	6.80e-06	122	34	0	39845888	60	6658
2026-01-28 03:10:48.56	243.66	3.78	-43.2	-45.6	13.9	8.30e-06	122	34	0	42991616	60	6725
2026-01-28 03:10:49.57	243.78	3.83	-43.3	-45.9	13.7	7.00e-07	123	34	0	46137344	60	6890
2026-01-28 03:10:50.58	243.89	3.87	-43.3	-45.7	13.8	4.50e-06	123	34	0	49283072	60	6778
2026-01-28 03:10:51.59	244.00	3.91	-42.7	-44.9	14.4	1.50e-06	122	34	0	52428800	58	6958
2026-01-28 03:10:52.60	244.12	3.96	-42.4	-44.5	15.1	0.00e+00	123	34	0	55574528	58	6644
2026-01-28 03:10:53.61	244.24	4.00	-42.7	-44.9	14.7	0.00e+00	123	34	0	58720256	58	6937
2026-01-28 03:10:54.62	244.35	4.04	-42.9	-45.2	14.3	1.50e-06	123	34	0	61865984	58	7138
2026-01-28 03:10:55.63	244.47	4.09	-42.8	-45.1	14.4	0.00e+00	120	34	0	65011712	58	7072
2026-01-28 03:10:56.63	244.58	4.13	-42.1	-44.1	15.5	0.00e+00	122	34	0	68157440	58	6296
2026-01-28 03:10:57.64	244.70	4.17	-41.8	-43.7	15.9	0.00e+00	123	34	0	71303168	58	6012
2026-01-28 03:10:58.66	244.82	4.22	-41.7	-43.5	16.1	0.00e+00	123	34	0	74448896	56	6612
2026-01-28 03:10:59.66	244.93	4.26	-41.3	-43.1	16.8	0.00e+00	120	34	0	77594624	56	6288
2026-01-28 03:11:00.67	245.05	4.30	-41.3	-43.1	16.7	0.00e+00	122	34	0	80740352	56	6284
2026-01-28 03:11:01.68	245.17	4.35	-41.4	-43.2	16.8	0.00e+00	123	34	0	83886080	56	6351
2026-01-28 03:11:02.69	245.29	4.39	-41.2	-42.8	17.0	0.00e+00	123	34	0	87031808	56	6122
2026-01-28 03:11:03.71	245.41	4.43	-41.0	-42.7	17.3	0.00e+00	123	34	0	90177536	56	6002
2026-01-28 03:11:04.72	245.52	4.48	-40.4	-41.9	17.9	0.00e+00	123	34	0	93323264	54	6194
2026-01-28 03:11:05.73	245.64	4.52	-40.0	-41.4	18.0	0.00e+00	123	34	0	96468992	54	5854
2026-01-28 03:11:06.74	245.76	4.56	-40.3	-41.8	18.0	0.00e+00	120	34	0	99614720	54	6095
2026-01-28 03:11:07.75	245.88	4.61	-40.1	-41.6	18.1	0.00e+00	122	34	0	102760448	54	5939
2026-01-28 03:11:08.76	246.00	4.65	-39.7	-41.1	18.6	0.00e+00	120	34	0	105906176	54	5612
2026-01-28 03:11:09.77	246.12	4.69	-39.9	-41.3	18.5	0.00e+00	122	34	0	109051904	52	6438
2026-01-28 03:11:10.78	246.25	4.74	-39.6	-41.0	18.8	0.00e+00	123	34	0	112197632	52	6240
2026-01-28 03:11:11.79	246.37	4.78	-39.7	-41.0	18.7	0.00e+00	122	34	0	115343360	52	6276
2026-01-28 03:11:12.80	246.49	4.82	-39.3	-40.7	19.1	0.00e+00	122	34	0	118489088	52	6000
2026-01-28 03:11:13.81	246.61	4.87	-39.2	-40.5	19.4	0.00e+00	122	34	0	121634816	52	5870
2026-01-28 03:11:14.82	246.73	4.91	-39.3	-40.6	19.2	0.00e+00	120	34	0	124780544	52	5991
2026-01-28 03:11:15.83	246.86	4.95	-39.2	-40.5	19.3	0.00e+00	123	34	0	127926272	52	5920
2026-01-28 03:11:16.84	246.98	5.00	-39.2	-40.5	19.4	0.00e+00	123	34	0	131072000	52	5865
2026-01-28 03:11:17.85	247.10	5.04	-39.3	-40.6	19.3	0.00e+00	123	34	0	134217728	52	5960
2026-01-28 03:11:18.86	247.23	5.08	-39.2	-40.5	19.4	0.00e+00	123	34	0	137363456	52	5885
2026-01-28 03:11:19.87	247.35	5.12	-39.0	-40.2	19.7	0.00e+00	123	34	0	140509184	52	5714
2026-01-28 03:11:20.88	247.47	5.17	-39.0	-40.3	19.7	0.00e+00	123	34	0	143654912	52	5742
2026-01-28 03:11:21.89	247.60	5.21	-38.8	-40.0	19.7	0.00e+00	123	34	0	146800640	50	6269
2026-01-28 03:11:22.90	247.72	5.25	-38.7	-40.0	20.0	0.00e+00	122	34	0	149946368	50	6222
2026-01-28 03:11:23.91	247.85	5.29	-38.8	-40.1	19.8	0.00e+00	123	34	0	154140672	50	6294
2026-01-28 03:11:24.92	247.98	5.34	-38.5	-39.8	20.1	0.00e+00	123	34	0	156237824	50	6070
2026-01-28 03:11:25.93	248.10	5.38	-38.4	-39.6	20.3	0.00e+00	123	34	0	159383552	50	5963
2026-01-28 03:11:26.94	248.23	5.42	-38.3	-39.5	20.4	0.00e+00	123	34	0	162529280	50	5896
2026-01-28 03:11:27.95	248.35	5.46	-38.2	-39.4	20.5	0.00e+00	122	34	0	165675008	50	5821
2026-01-28 03:11:28.96	248.48	5.51	-38.3	-39.5	20.5	0.00e+00	123	34	0	169869312	50	5878
2026-01-28 03:11:29.97	248.61	5.55	-38.1	-39.3	20.6	0.00e+00	122	34	0	173015040	50	5770
2026-01-28 03:11:30.98	248.74	5.59	-38.1	-39.2	20.7	0.00e+00	122	34	0	176160768	50	5708
2026-01-28 03:11:31.99	248.87	5.63	-38.1	-39.2	20.7	0.00e+00	123	34	0	179306496	50	5692
2026-01-28 03:11:33.00	248.99	5.68	-37.9	-39.0	20.9	0.00e+00	123	34	0	181403648	50	5565
2026-01-28 03:11:34.01	249.12	5.72	-38.0	-39.1	20.9	0.00e+00	122	34	0	185597952	50	5652
2026-01-28 03:11:35.02	249.25	5.76	-38.0	-39.2	20.8	0.00e+00	120	34	0	188743680	50	5667
2026-01-28 03:11:36.02	249.38	5.80	-37.9	-39.0	20.9	0.00e+00	120	34	0	191889408	50	5594
2026-01-28 03:11:37.03	249.51	5.84	-37.7	-38.9	21.1	0.00e+00	122	34	0	195035136	48	6148
2026-01-28 03:11:38.05	249.64	5.89	-37.6	-38.7	21.2	0.00e+00	122	34	0	198180864	48	6017
2026-01-28 03:11:39.05	249.77	5.93	-37.7	-38.8	21.2	0.00e+00	123	34	0	201326592	48	6070
2026-01-28 03:11:40.07	249.90	5.97	-37.6	-38.7	21.2	0.00e+00	122	34	0	204472320	48	6048
2026-01-28 03:11:41.08	250.04	6.01	-37.7	-38.8	21.2	0.00e+00	123	34	0	207618048	48	6109
2026-01-28 03:11:42.08	250.17	6.05	-37.6	-38.7	21.2	0.00e+00	122	34	0	210763776	48	6063
2026-01-28 03:11:43.10	250.30	6.09	-37.5	-38.5	21.4	0.00e+00	122	34	0	213909504	48	5911
2026-01-28 03:11:44.11	250.43	6.14	-37.3	-38.4	21.5	0.00e+00	120	34	0	217055232	48	5810
2026-01-28 03:11:45.12	250.57	6.18	-37.4	-38.5	21.3	0.00e+00	122	34	0	220200960	48	5889
2026-01-28 03:11:46.13	250.70	6.22	-37.8	-38.9	21.1	0.00e+00	120	34	0	223346688	48	6175
2026-01-28 03:11:47.14	250.83	6.26	-37.9	-39.0	21.1	0.00e+00	123	34	0	226492416	48	6235
2026-01-28 03:11:48.15	250.97	6.30	-37.9	-39.0	21.1	0.00e+00	123	34	0	229638144	48	6265
2026-01-28 03:11:49.16	251.10	6.34	-37.7	-38.8	21.1	0.00e+00	122	34	0	232783872	48	6127
2026-01-28 03:11:50.17	251.24	6.38	-37.3	-38.3	21.5	0.00e+00	123	34	0	235929600	48	5771
2026-01-28 03:11:51.18	251.37	6.42	-37.1	-38.2	21.7	0.00e+00	123	34	0	239075328	48	5664
2026-01-28 03:11:52.19	251.51	6.47	-37.1	-38.1	21.7	0.00e+00	123	34	0	242221056	48	5637
2026-01-28 03:11:53.20	251.64	6.51	-37.3	-38.3	21.5	0.00e+00	120	34	0	245366784	48	5785
2026-01-28 03:11:54.21	251.78	6.55	-37.2	-38.2	21.6	0.00e+00	120	34	0	248512512	48	5716
2026-01-28 03:11:55.22	251.92	6.59	-37.4	-38.5	21.5	0.00e+00	122	34	0	251658240	48	5876
2026-01-28 03:11:56.23	252.05	6.63	-37.4	-38.5	21.4	0.00e+00	120	34	0	254803968	48	5903
2026-01-28 03:11:57.24	252.19	6.67	-37.1	-38.2	21.7	0.00e+00	123	34	0	257949696	48	5670
2026-01-28 03:11:58.25	252.33	6.71	-37.2	-38.3	21.6	0.00e+00	123	34	0	261095424	48	5753
2026-01-28 03:11:59.26	252.47	6.75	-37.3	-38.3	21.6	0.00e+00	122	34	0	264241152	48	5788
2026-01-28 03:12:00.27	252.60	6.79	-37.3	-38.4	21.7	0.00e+00	120	34	0	267386880	48	5801
2026-01-28 03:12:01.28	252.74	6.83	-36.9	-38.0	21.9	0.00e+00	122	34	0	270532608	48	5544
2026-01-28 03:12:02.29	252.88	6.87	-36.9	-37.9	22.0	0.00e+00	122	34	0	273678336	48	5515
2026-01-28 03:12:03.30	253.02	6.91	-36.8	-37.9	22.1	0.00e+00	120	34	0	276824064	48	5482
2026-01-28 03:12:04.31	253.16	6.95	-37.0	-38.0	21.9	0.00e+00	123	34	0	279969792	48	5578
2026-01-28 03:12:05.32	253.30	6.99	-36.8	-37.9	22.0	0.00e+00	123	34	0	283115520	48	5469
2026-01-28 03:12:06.33	253.44	7.03	-37.0	-38.0	21.9	0.00e+00	123	34	0	286261248	48	5584
2026-01-28 03:12:07.34	253.58	7.07	-36.9	-37.9	22.0	0.00e+00	122	34	0	289406976	48	5525
2026-01-28 03:12:08.35	253.72	7.11	-36.9	-38.0	22.0	0.00e+00	120	34	0	292552704	48	5538
2026-01-28 03:12:09.37	253.87	7.15	-36.9	-38.0	21.9	0.00e+00	123	34	0	295698432	48	5536
2026-01-28 03:12:10.38	254.01	7.19	-37.0	-38.0	21.9	0.00e+00	123	34	0	298844160	48	5572
2026-01-28 03:12:11.39	254.15	7.23	-36.7	-37.8	22.2	0.00e+00	120	34	0	301989888	48	5424
2026-01-28 03:12:12.40	254.30	7.27	-36.9	-37.9	22.1	0.00e+00	123	34	0	305135616	46	6202
2026-01-28 03:12:13.41	254.44	7.31	-37.0	-38.1	21.9	0.00e+00	120	34	0	308281344	46	6307
2026-01-28 03:12:14.42	254.58	7.35	-37.0	-38.0	22.0	0.00e+00	121	34	0	311427072	46	6232
2026-01-28 03:12:15.43	254.73	7.39	-36.9	-37.9	22.0	0.00e+00	123	34	0	314572800	46	6187
2026-01-28 03:12:16.44	254.87	7.43	-37.0	-38.1	21.9	0.00e+00	120	34	0	317718528	46	6296
2026-01-28 03:12:17.45	255.02	7.47	-37.0	-38.1	21.9	0.00e+00	123	34	0	320864256	46	6306
2026-01-28 03:12:18.46	255.16	7.51	-37.1	-38.1	21.7	0.00e+00	123	34	0	324009984	46	6344
2026-01-28 03:12:19.47	255.31	7.54	-37.1	-38.2	21.8	0.00e+00	123	34	0	327155712	46	6371
2026-01-28 03:12:20.47	255.45	7.58	-37.2	-38.3	21.7	0.00e+00	120	34	0	330301440	46	6460
2026-01-28 03:12:21.48	255.60	7.62	-37.1	-38.2	21.8	0.00e+00	123	34	0	333447168	46	6378
2026-01-28 03:12:22.49	255.74	7.66	-37.0	-38.0	21.9	0.00e+00	120	34	0	336592896	46	6251
2026-01-28 03:12:23.50	255.89	7.70	-36.8	-37.8	22.2	0.00e+00	120	34	0	339738624	46	6112
2026-01-28 03:12:24.51	256.04	7.74	-36.9	-37.9	22.1	0.00e+00	123	34	0	342884352	46	6176
2026-01-28 03:12:25.52	256.19	7.77	-37.0	-38.1	22.0	0.00e+00	123	34	0	346030080	46	6283
2026-01-28 03:12:26.53	256.33	7.81	-36.8	-37.8	22.1	0.00e+00	120	34	0	349175808	46	6088
2026-01-28 03:12:27.54	256.48	7.85	-37.0	-38.1	22.0	0.00e+00	120	34	0	352321536	46	6279
2026-01-28 03:12:28.55	256.63	7.89	-36.7	-37.7	22.2	0.00e+00	123	34	0	355467264	46	6058
2026-01-28 03:12:29.56	256.78	7.93	-36.7	-37.7	22.2	0.00e+00	122	34	0	358612992	46	6052
2026-01-28 03:12:30.57	256.93	7.96	-37.0	-38.0	22.0	0.00e+00	123	34	0	361758720	46	6268
2026-01-28 03:12:31.58	257.08	8.00	-37.0	-38.0	22.1	0.00e+00	123	34	0	364904448	46	6264
2026-01-28 03:12:32.59	257.23	8.04	-37.0	-38.0	22.1	0.00e+00	121	34	0	368050176	46	6262
2026-01-28 03:12:33.60	257.38	8.08	-36.8	-37.8	22.2	0.00e+00	123	34	0	371195904	46	6101
2026-01-28 03:12:34.61	257.53	8.11	-36.9	-37.9	22.1	0.00e+00	123	34	0	374341632	46	6203
2026-01-28 03:12:35.62	257.68	8.15	-36.9	-37.9	22.1	0.00e+00	122	34	0	377487360	46	6158
2026-01-28 03:12:36.63	257.84	8.19	-36.6	-37.6	22.4	0.00e+00	123	34	0	380633088	46	5960
2026-01-28 03:12:37.64	257.99	8.22	-36.7	-37.7	22.3	0.00e+00	122	34	0	383778816	46	6029
2026-01-28 03:12:38.65	258.14	8.26	-36.3	-37.3	22.6	0.00e+00	123	34	0	386924544	46	5782
2026-01-28 03:12:39.66	258.29	8.30	-36.4	-37.4	22.6	0.00e+00	123	34	0	390070272	46	5822
2026-01-28 03:12:40.67	258.45	8.33	-36.6	-37.6	22.4	0.00e+00	122	34	0	393216000	46	5949
2026-01-28 03:12:41.68	258.60	8.37	-36.7	-37.7	22.3	0.00e+00	122	34	0	396361728	46	6051
2026-01-28 03:12:42.69	258.75	8.41	-36.4	-37.4	22.6	0.00e+00	123	34	0	399507456	46	5799
2026-01-28 03:12:43.70	258.91	8.44	-36.4	-37.3	22.7	0.00e+00	123	34	0	402653184	46	5789
2026-01-28 03:12:44.71	259.06	8.48	-36.4	-37.4	22.6	0.00e+00	123	34	0	405798912	46	5824
2026-01-28 03:12:45.72	259.22	8.51	-36.6	-37.6	22.5	0.00e+00	122	34	0	408944640	46	5943
2026-01-28 03:12:46.73	259.37	8.55	-36.4	-37.4	22.6	0.00e+00	123	34	0	412090368	46	5826
2026-01-28 03:12:47.74	259.53	8.59	-36.5	-37.5	22.5	0.00e+00	122	34	0	415236096	46	5878
2026-01-28 03:12:48.75	259.69	8.62	-36.6	-37.6	22.5	0.00e+00	123	34	0	418381824	46	5935
2026-01-28 03:12:49.76	259.84	8.66	-36.5	-37.5	22.5	0.00e+00	120	34	0	421527552	46	5914
2026-01-28 03:12:50.78	260.00	8.69	-36.6	-37.6	22.4	0.00e+00	122	34	0	424673280	46	5976
2026-01-28 03:12:51.78	260.16	8.73	-36.7	-37.7	22.4	0.00e+00	120	34	0	427819008	46	6003
2026-01-28 03:12:52.79	260.31	8.76	-36.5	-37.5	22.6	0.00e+00	123	34	0	430964736	46	5863
2026-01-28 03:12:53.80	260.47	8.80	-36.6	-37.5	22.5	0.00e+00	123	34	0	434110464	46	5924
2026-01-28 03:12:54.81	260.63	8.83	-36.5	-37.5	22.5	0.00e+00	122	34	0	437256192	46	5915
2026-01-28 03:12:55.82	260.79	8.87	-36.3	-37.3	22.8	0.00e+00	122	34	0	440401920	46	5754
2026-01-28 03:12:56.83	260.95	8.90	-36.2	-37.1	22.8	0.00e+00	123	34	0	443547648	46	5646
2026-01-28 03:12:57.84	261.11	8.93	-36.2	-37.2	22.9	0.00e+00	123	34	0	446693376	46	5660
2026-01-28 03:12:58.85	261.27	8.97	-36.2	-37.2	22.8	0.00e+00	123	34	0	449839104	46	5701
2026-01-28 03:12:59.86	261.43	9.00	-36.3	-37.3	22.8	0.00e+00	120	34	0	452984832	46	5732
2026-01-28 03:13:00.87	261.59	9.04	-36.2	-37.2	22.8	0.00e+00	121	34	0	456130560	46	5697
2026-01-28 03:13:01.88	261.75	9.07	-36.2	-37.2	22.8	0.00e+00	123	34	0	459276288	46	5688
2026-01-28 03:13:02.89	261.91	9.10	-36.4	-37.4	22.6	0.00e+00	122	34	0	462422016	46	5830
2026-01-28 03:13:03.90	262.07	9.14	-36.5	-37.5	22.5	0.00e+00	123	34	0	465567744	46	5887
2026-01-28 03:13:04.91	262.23	9.17	-36.6	-37.6	22.5	0.00e+00	122	34	0	469762048	46	5964
2026-01-28 03:13:05.92	262.40	9.20	-36.6	-37.6	22.5	0.00e+00	123	34	0	472907776	46	5941
2026-01-28 03:13:06.93	262.56	9.23	-36.6	-37.6	22.4	0.00e+00	123	34	0	475004928	46	5965
2026-01-28 03:13:07.94	262.72	9.27	-36.7	-37.7	22.3	0.00e+00	123	34	0	478150656	46	6038
2026-01-28 03:13:08.95	262.89	9.30	-36.6	-37.6	22.4	0.00e+00	123	34	0	481296384	46	5964
2026-01-28 03:13:09.96	263.05	9.33	-36.5	-37.5	22.6	0.00e+00	120	34	0	485490688	46	5917
2026-01-28 03:13:10.97	263.21	9.36	-36.5	-37.5	22.6	0.00e+00	122	34	0	488636416	46	5860
2026-01-28 03:13:11.98	263.38	9.40	-36.5	-37.5	22.6	0.00e+00	120	34	0	491782144	46	5917
2026-01-28 03:13:12.99	263.54	9.43	-36.3	-37.3	22.7	0.00e+00	123	34	0	494927872	46	5774
2026-01-28 03:13:14.00	263.71	9.46	-36.3	-37.3	22.7	0.00e+00	120	34	0	497025024	46	5756
2026-01-28 03:13:15.01	263.87	9.49	-36.3	-37.3	22.7	0.00e+00	123	34	0	501219328	46	5755
2026-01-28 03:13:16.02	264.04	9.52	-36.3	-37.3	22.7	0.00e+00	123	34	0	504365056	46	5779
2026-01-28 03:13:17.03	264.21	9.55	-36.3	-37.3	22.7	0.00e+00	120	34	0	507510784	46	5739
2026-01-28 03:13:18.04	264.37	9.59	-36.5	-37.5	22.5	0.00e+00	123	34	0	510656512	46	5898
2026-01-28 03:13:19.05	264.54	9.62	-36.5	-37.5	22.5	0.00e+00	122	34	0	513802240	46	5862
2026-01-28 03:13:20.06	264.71	9.65	-37.6	-38.7	22.6	0.00e+00	123	34	0	516947968	46	6784
2026-01-28 03:13:21.07	264.87	9.68	-36.6	-37.6	22.6	7.00e-07	120	34	0	520093696	46	5991
2026-01-28 03:13:22.08	265.04	9.71	-36.6	-37.6	22.6	0.00e+00	122	34	0	523239424	46	5993
2026-01-28 03:13:23.09	265.21	9.74	-36.4	-37.4	22.6	0.00e+00	123	34	0	526385152	46	5852
2026-01-28 03:13:24.10	265.38	9.77	-36.6	-37.6	22.6	0.00e+00	122	34	0	529530880	46	5979
2026-01-28 03:13:25.11	265.55	9.80	-36.3	-37.2	22.8	0.00e+00	120	34	0	532676608	46	5723
2026-01-28 03:13:26.12	265.72	9.83	-36.2	-37.2	22.8	0.00e+00	123	34	0	535822336	46	5689
2026-01-28 03:13:27.13	265.89	9.86	-36.3	-37.3	22.7	0.00e+00	120	34	0	538968064	46	5751
2026-01-28 03:13:28.14	266.06	9.89	-36.5	-37.5	22.5	0.00e+00	123	34	0	542113792	46	5873
2026-01-28 03:13:29.15	266.23	9.92	-36.4	-37.4	22.7	0.00e+00	122	34	0	545259520	46	5798
2026-01-28 03:13:30.16	266.40	9.94	-36.3	-37.3	22.8	0.00e+00	120	34	0	548405248	46	5731
2026-01-28 03:13:31.17	266.57	9.97	-36.3	-37.3	22.7	0.00e+00	120	34	0	551550976	46	5781
2026-01-28 03:13:32.18	266.74	10.00	-36.5	-37.5	22.5	0.00e+00	123	34	0	554696704	46	5898
2026-01-28 03:13:33.19	266.91	10.03	-36.4	-37.4	22.6	0.00e+00	120	34	0	557842432	46	5839
2026-01-28 03:13:34.20	267.08	10.06	-36.5	-37.5	22.6	0.00e+00	122	34	0	560988160	46	5870
2026-01-28 03:13:35.21	267.25	10.09	-36.5	-37.6	22.5	0.00e+00	120	34	0	564133888	46	5927
2026-01-28 03:13:36.22	267.43	10.11	-36.5	-37.5	22.5	0.00e+00	123	34	0	567279616	46	5921
2026-01-28 03:13:37.23	267.60	10.14	-36.5	-37.5	22.5	0.00e+00	122	34	0	570425344	46	5925
2026-01-28 03:13:38.24	267.77	10.17	-36.6	-37.6	22.6	0.00e+00	122	34	0	573571072	46	5950
2026-01-28 03:13:39.25	267.94	10.20	-36.4	-37.4	22.7	0.00e+00	120	34	0	576716800	46	5814
2026-01-28 03:13:40.26	268.12	10.22	-36.4	-37.4	22.7	0.00e+00	123	34	0	579862528	46	5824
2026-01-28 03:13:41.27	268.29	10.25	-36.4	-37.4	22.6	0.00e+00	123	34	0	583008256	46	5847
2026-01-28 03:13:42.29	268.47	10.28	-36.4	-37.4	22.7	0.00e+00	120	34	0	586153984	46	5851
2026-01-28 03:13:43.30	268.64	10.30	-36.1	-37.1	22.9	0.00e+00	123	34	0	589299712	46	5630
2026-01-28 03:13:44.31	268.82	10.33	-36.2	-37.2	22.9	0.00e+00	123	34	0	592445440	46	5699
2026-01-28 03:13:45.32	268.99	10.35	-36.3	-37.3	22.8	0.00e+00	120	34	0	595591168	46	5743
2026-01-28 03:13:46.33	269.17	10.38	-36.4	-37.4	22.7	0.00e+00	122	34	0	598736896	46	5798
2026-01-28 03:13:47.34	269.34	10.41	-36.2	-37.1	23.0	0.00e+00	123	34	0	601882624	46	5656
2026-01-28 03:13:48.35	269.52	10.43	-36.2	-37.2	22.9	0.00e+00	122	34	0	605028352	46	5683
2026-01-28 03:13:49.36	269.70	10.46	-36.1	-37.1	23.0	0.00e+00	123	34	0	608174080	46	5627
2026-01-28 03:13:50.37	269.87	10.48	-36.2	-37.2	22.9	0.00e+00	120	34	0	611319808	46	5675
2026-01-28 03:13:51.38	270.05	10.50	-36.3	-37.3	22.8	0.00e+00	123	34	0	614465536	46	5742
2026-01-28 03:13:52.39	270.23	10.53	-36.2	-37.1	22.9	0.00e+00	122	34	0	617611264	46	5645
2026-01-28 03:13:53.40	270.40	10.55	-36.3	-37.2	22.9	0.00e+00	123	34	0	620756992	46	5724
2026-01-28 03:13:54.41	270.58	10.58	-36.3	-37.3	22.8	0.00e+00	123	34	0	623902720	46	5753
2026-01-28 03:13:55.42	270.76	10.60	-36.5	-37.5	22.6	0.00e+00	123	34	0	627048448	46	5885
2026-01-28 03:13:56.43	270.94	10.62	-36.3	-37.3	22.8	0.00e+00	122	34	0	630194176	46	5726
2026-01-28 03:13:57.44	271.12	10.65	-36.3	-37.2	22.8	0.00e+00	120	34	0	633339904	46	5724
2026-01-28 03:13:58.44	271.29	10.67	-36.3	-37.3	22.8	0.00e+00	123	34	0	636485632	46	5749
2026-01-28 03:13:59.45	271.47	10.69	-36.2	-37.2	22.8	0.00e+00	122	34	0	639631360	46	5665
2026-01-28 03:14:00.46	271.65	10.72	-36.3	-37.2	22.8	0.00e+00	123	34	0	642777088	46	5707
2026-01-28 03:14:01.47	271.83	10.74	-36.2	-37.2	22.9	0.00e+00	122	34	0	645922816	46	5672
2026-01-28 03:14:02.48	272.01	10.76	-36.2	-37.2	22.8	0.00e+00	123	34	0	649068544	46	5667
2026-01-28 03:14:03.49	272.19	10.78	-36.2	-37.1	22.9	0.00e+00	120	34	0	652214272	46	5656
2026-01-28 03:14:04.50	272.37	10.80	-36.3	-37.2	22.8	0.00e+00	122	34	0	655360000	46	5696
2026-01-28 03:14:05.51	272.55	10.83	-36.1	-37.1	23.0	0.00e+00	123	34	0	658505728	46	5603
2026-01-28 03:14:06.52	272.73	10.85	-36.1	-37.1	23.0	0.00e+00	123	34	0	661651456	46	5644
2026-01-28 03:14:07.54	272.92	10.87	-36.2	-37.2	22.9	0.00e+00	123	34	0	664797184	46	5663
2026-01-28 03:14:08.54	273.10	10.89	-36.2	-37.2	22.9	0.00e+00	123	34	0	667942912	46	5666
2026-01-28 03:14:09.56	273.28	10.91	-36.3	-37.2	22.8	0.00e+00	120	34	0	671088640	46	5714
2026-01-28 03:14:10.57	273.46	10.93	-36.2	-37.2	22.8	0.00e+00	122	34	0	674234368	46	5698
2026-01-28 03:14:11.58	273.64	10.95	-36.4	-37.4	22.7	0.00e+00	123	34	0	677380096	46	5797
2026-01-28 03:14:12.59	273.83	10.97	-36.3	-37.3	22.7	0.00e+00	123	34	0	680525824	46	5775
2026-01-28 03:14:13.60	274.01	10.99	-36.2	-37.1	22.9	0.00e+00	122	34	0	683671552	46	5659
2026-01-28 03:14:14.61	274.19	11.01	-36.1	-37.1	22.9	0.00e+00	123	34	0	686817280	46	5646
2026-01-28 03:14:15.62	274.38	11.03	-36.3	-37.3	22.8	0.00e+00	123	34	0	689963008	46	5727
2026-01-28 03:14:16.63	274.56	11.05	-36.1	-37.0	22.9	0.00e+00	123	34	0	693108736	46	5594
2026-01-28 03:14:17.64	274.74	11.07	-36.1	-37.0	23.1	0.00e+00	122	34	0	696254464	46	5587
2026-01-28 03:14:18.65	274.93	11.08	-36.1	-37.1	23.0	0.00e+00	123	34	0	699400192	46	5626
2026-01-28 03:14:19.66	275.11	11.10	-36.1	-37.0	23.0	0.00e+00	123	34	0	702545920	46	5573
2026-01-28 03:14:20.67	275.29	11.12	-36.1	-37.0	22.9	0.00e+00	123	34	0	705691648	46	5579
2026-01-28 03:14:21.68	275.48	11.14	-36.2	-37.2	22.8	0.00e+00	123	34	0	708837376	46	5718
2026-01-28 03:14:22.69	275.66	11.15	-36.3	-37.3	22.7	0.00e+00	123	34	0	711983104	46	5772
2026-01-28 03:14:23.70	275.85	11.17	-36.4	-37.4	22.7	0.00e+00	123	34	0	715128832	46	5802
2026-01-28 03:14:24.72	276.03	11.19	-36.4	-37.4	22.8	0.00e+00	123	34	0	718274560	46	5792
2026-01-28 03:14:25.73	276.22	11.21	-36.4	-37.4	22.8	0.00e+00	123	34	0	721420288	46	5804
2026-01-28 03:14:26.74	276.41	11.22	-36.3	-37.3	22.8	0.00e+00	123	34	0	724566016	46	5788
2026-01-28 03:14:27.74	276.59	11.24	-36.3	-37.3	22.7	0.00e+00	122	34	0	727711744	46	5776
2026-01-28 03:14:28.75	276.77	11.25	-36.2	-37.1	22.9	0.00e+00	123	34	0	730857472	46	5649
2026-01-28 03:14:29.77	276.96	11.27	-36.3	-37.3	22.9	0.00e+00	120	34	0	734003200	46	5733
2026-01-28 03:14:30.78	277.15	11.28	-36.2	-37.2	22.9	0.00e+00	123	34	0	737148928	46	5707
2026-01-28 03:14:31.79	277.34	11.30	-36.1	-37.1	22.9	0.00e+00	123	34	0	740294656	46	5632
2026-01-28 03:14:32.80	277.52	11.31	-36.2	-37.1	22.9	0.00e+00	123	34	0	743440384	46	5649
2026-01-28 03:14:33.81	277.71	11.33	-36.3	-37.2	22.8	0.00e+00	120	34	0	746586112	46	5722
2026-01-28 03:14:34.82	277.90	11.34	-36.3	-37.3	22.7	0.00e+00	123	34	0	749731840	46	5765
2026-01-28 03:14:35.83	278.08	11.36	-36.3	-37.3	22.8	0.00e+00	122	34	0	752877568	46	5769
2026-01-28 03:14:36.84	278.27	11.37	-36.2	-37.2	22.8	0.00e+00	122	34	0	756023296	46	5720
2026-01-28 03:14:37.85	278.46	11.38	-36.3	-37.3	22.8	0.00e+00	122	34	0	759169024	46	5771
2026-01-28 03:14:38.86	278.64	11.40	-36.1	-37.1	23.0	0.00e+00	122	34	0	763363328	46	5627
2026-01-28 03:14:39.87	278.83	11.41	-36.1	-37.1	23.0	0.00e+00	123	34	0	765460480	46	5621
2026-01-28 03:14:40.88	279.02	11.42	-36.0	-36.9	23.1	0.00e+00	122	34	0	768606208	46	5518
2026-01-28 03:14:41.89	279.21	11.44	-35.9	-36.8	23.1	0.00e+00	122	34	0	771751936	46	5452
2026-01-28 03:14:42.90	279.40	11.45	-35.8	-36.7	23.2	0.00e+00	122	34	0	774897664	44	6053
2026-01-28 03:14:43.91	279.59	11.46	-35.8	-36.7	23.2	0.00e+00	123	34	0	779091968	44	6057
2026-01-28 03:14:44.92	279.77	11.47	-35.8	-36.8	23.0	0.00e+00	123	34	0	782237696	44	6113
2026-01-28 03:14:45.93	279.96	11.48	-35.8	-36.8	23.1	0.00e+00	123	34	0	785383424	44	6088
2026-01-28 03:14:46.94	280.15	11.49	-35.9	-36.9	23.1	0.00e+00	123	34	0	788529152	44	6166
2026-01-28 03:14:47.95	280.34	11.50	-35.9	-36.9	23.0	0.00e+00	123	34	0	790626304	44	6171
2026-01-28 03:14:48.96	280.53	11.51	-36.1	-37.1	22.9	0.00e+00	120	34	0	794820608	44	6343
2026-01-28 03:14:49.97	280.72	11.52	-36.0	-36.9	23.1	0.00e+00	120	34	0	797966336	44	6205
2026-01-28 03:14:50.98	280.91	11.53	-36.0	-36.9	23.1	0.00e+00	122	34	0	801112064	44	6197
2026-01-28 03:14:51.99	281.10	11.54	-35.9	-36.8	23.2	0.00e+00	123	34	0	804257792	44	6111
2026-01-28 03:14:53.00	281.29	11.55	-35.9	-36.8	23.1	0.00e+00	123	34	0	807403520	44	6114
2026-01-28 03:14:54.01	281.48	11.56	-35.8	-36.8	23.1	0.00e+00	120	34	0	810549248	44	6099
2026-01-28 03:14:55.02	281.67	11.57	-35.9	-36.8	23.1	0.00e+00	123	34	0	813694976	44	6123
2026-01-28 03:14:56.03	281.86	11.58	-36.0	-36.9	23.0	0.00e+00	122	34	0	816840704	44	6205
2026-01-28 03:14:57.04	282.05	11.59	-36.1	-37.0	23.0	0.00e+00	123	34	0	819986432	44	6268
2026-01-28 03:14:58.06	282.24	11.60	-36.2	-37.1	22.8	0.00e+00	123	34	0	823132160	44	6345
2026-01-28 03:14:59.06	282.43	11.60	-36.2	-37.2	22.9	0.00e+00	123	34	0	826277888	44	6406
2026-01-28 03:15:00.07	282.62	11.61	-36.1	-37.1	22.9	0.00e+00	123	34	0	829423616	44	6317
2026-01-28 03:15:01.08	282.81	11.62	-36.2	-37.1	22.9	0.00e+00	123	34	0	832569344	44	6332
2026-01-28 03:15:02.10	283.00	11.63	-36.2	-37.1	23.0	0.00e+00	123	34	0	835715072	44	6342
2026-01-28 03:15:03.11	283.19	11.63	-36.1	-37.1	23.0	0.00e+00	123	34	0	838860800	44	6285
2026-01-28 03:15:04.12	283.38	11.64	-35.9	-36.8	23.1	0.00e+00	122	34	0	842006528	44	6127
2026-01-28 03:15:05.12	283.57	11.64	-35.8	-36.8	23.1	0.00e+00	122	34	0	845152256	44	6072
2026-01-28 03:15:06.13	283.76	11.65	-35.8	-36.8	23.1	0.00e+00	121	34	0	848297984	44	6103
2026-01-28 03:15:07.14	283.95	11.66	-35.8	-36.8	23.1	0.00e+00	122	34	0	851443712	44	6093
2026-01-28 03:15:08.16	284.14	11.66	-35.8	-36.7	23.2	0.00e+00	122	34	0	854589440	44	6041
2026-01-28 03:15:09.17	284.33	11.67	-35.7	-36.6	23.3	0.00e+00	120	34	0	857735168	44	5969
2026-01-28 03:15:10.18	284.52	11.67	-35.6	-36.5	23.4	0.00e+00	120	34	0	860880896	44	5899
2026-01-28 03:15:11.19	284.71	11.68	-35.5	-36.5	23.4	0.00e+00	123	34	0	864026624	44	5875
2026-01-28 03:15:12.20	284.91	11.68	-35.5	-36.4	23.4	0.00e+00	122	34	0	867172352	44	5838
2026-01-28 03:15:13.21	285.10	11.68	-35.5	-36.5	23.4	0.00e+00	123	34	0	870318080	44	5871
2026-01-28 03:15:14.22	285.29	11.69	-35.6	-36.5	23.4	0.00e+00	123	34	0	873463808	44	5904
2026-01-28 03:15:15.23	285.48	11.69	-35.5	-36.4	23.4	0.00e+00	123	34	0	876609536	44	5831
2026-01-28 03:15:16.24	285.67	11.69	-35.6	-36.5	23.3	0.00e+00	122	34	0	879755264	44	5892
2026-01-28 03:15:17.25	285.86	11.70	-35.5	-36.5	23.5	0.00e+00	123	34	0	882900992	44	5887
2026-01-28 03:15:18.26	286.05	11.70	-35.6	-36.5	23.4	0.00e+00	123	34	0	886046720	44	5890
2026-01-28 03:15:19.27	286.24	11.70	-35.7	-36.7	23.2	0.00e+00	120	34	0	889192448	44	6002
2026-01-28 03:15:20.28	286.44	11.70	-35.7	-36.6	23.3	0.00e+00	123	34	0	892338176	44	5965
2026-01-28 03:15:21.29	286.63	11.70	-35.7	-36.6	23.2	0.00e+00	123	34	0	895483904	44	5973
2026-01-28 03:15:22.30	286.82	11.70	-35.7	-36.6	23.3	0.00e+00	122	34	0	898629632	44	5982
2026-01-28 03:15:23.31	287.01	11.71	-35.8	-36.8	23.2	0.00e+00	123	34	0	901775360	44	6069
2026-01-28 03:15:24.32	287.20	11.71	-35.8	-36.7	23.2	0.00e+00	123	34	0	904921088	44	6061
2026-01-28 03:15:25.33	287.39	11.71	-35.8	-36.7	23.2	0.00e+00	123	34	0	908066816	44	6048
2026-01-28 03:15:26.34	287.58	11.71	-35.7	-36.7	23.2	0.00e+00	123	34	0	911212544	44	6018
2026-01-28 03:15:27.35	287.78	11.71	-35.8	-36.8	23.2	0.00e+00	123	34	0	914358272	44	6068
2026-01-28 03:15:28.36	287.97	11.71	-35.8	-36.7	23.3	0.00e+00	120	34	0	917504000	44	6034
2026-01-28 03:15:29.37	288.16	11.70	-35.7	-36.6	23.2	0.00e+00	123	34	0	920649728	44	5992
2026-01-28 03:15:30.38	288.35	11.70	-35.8	-36.8	23.2	0.00e+00	123	34	0	923795456	44	6101
2026-01-28 03:15:31.39	288.54	11.70	-36.0	-36.9	23.1	0.00e+00	120	34	0	926941184	44	6172
2026-01-28 03:15:32.40	288.73	11.70	-35.7	-36.7	23.3	0.00e+00	123	34	0	930086912	44	6010
2026-01-28 03:15:33.41	288.92	11.70	-35.6	-36.6	23.3	0.00e+00	120	34	0	933232640	44	5932
2026-01-28 03:15:34.42	289.11	11.70	-35.8	-36.7	23.2	0.00e+00	123	34	0	936378368	44	6045
2026-01-28 03:15:35.43	289.31	11.69	-35.6	-36.5	23.3	0.00e+00	120	34	0	939524096	44	5926
2026-01-28 03:15:36.45	289.50	11.69	-35.7	-36.6	23.2	0.00e+00	122	34	0	942669824	44	5980
2026-01-28 03:15:37.46	289.69	11.69	-35.7	-36.7	23.1	0.00e+00	120	34	0	945815552	44	6019
2026-01-28 03:15:38.47	289.88	11.68	-35.7	-36.6	23.2	0.00e+00	123	34	0	948961280	44	5983
2026-01-28 03:15:39.48	290.07	11.68	-35.7	-36.7	23.2	0.00e+00	122	34	0	952107008	44	6010
2026-01-28 03:15:40.49	290.26	11.68	-35.7	-36.6	23.3	0.00e+00	122	34	0	955252736	44	5958
2026-01-28 03:15:41.50	290.45	11.67	-35.7	-36.7	23.4	0.00e+00	122	34	0	958398464	44	5996
2026-01-28 03:15:42.51	290.64	11.67	-35.6	-36.5	23.4	0.00e+00	122	34	0	961544192	44	5926
2026-01-28 03:15:43.52	290.84	11.66	-35.6	-36.5	23.3	0.00e+00	123	34	0	964689920	44	5918
2026-01-28 03:15:44.53	291.03	11.66	-35.7	-36.6	23.3	0.00e+00	123	34	0	967835648	44	5992
2026-01-28 03:15:45.54	291.22	11.65	-35.7	-36.6	23.3	0.00e+00	122	34	0	970981376	44	5986
2026-01-28 03:15:46.55	291.41	11.65	-35.8	-36.7	23.2	0.00e+00	118	34	0	974127104	44	6057
2026-01-28 03:15:47.56	291.60	11.64	-35.8	-36.7	23.3	0.00e+00	122	34	0	977272832	44	6049
2026-01-28 03:15:48.57	291.79	11.64	-35.8	-36.8	23.2	0.00e+00	122	34	0	980418560	44	6089
2026-01-28 03:15:49.58	291.98	11.63	-35.9	-36.9	23.2	0.00e+00	122	34	0	983564288	44	6165
2026-01-28 03:15:50.59	292.17	11.62	-35.8	-36.7	23.3	0.00e+00	123	34	0	986710016	44	6040
2026-01-28 03:15:51.60	292.36	11.62	-35.9	-36.9	23.1	0.00e+00	123	34	0	989855744	44	6175
2026-01-28 03:15:52.61	292.55	11.61	-35.8	-36.7	23.2	0.00e+00	124	34	0	993001472	44	6062
2026-01-28 03:15:53.62	292.74	11.60	-35.7	-36.7	23.2	0.00e+00	123	34	0	996147200	44	6002
2026-01-28 03:15:54.63	292.93	11.59	-35.7	-36.7	23.2	0.00e+00	124	34	0	999292928	44	6015
2026-01-28 03:15:55.64	293.12	11.58	-35.9	-36.8	23.1	0.00e+00	123	34	0	1002438656	44	6114
2026-01-28 03:15:56.65	293.31	11.58	-35.8	-36.8	23.1	0.00e+00	122	34	0	1005584384	44	6075
2026-01-28 03:15:57.66	293.50	11.57	-35.9	-36.8	23.1	0.00e+00	120	34	0	1008730112	44	6125
2026-01-28 03:15:58.67	293.69	11.56	-35.9	-36.9	23.2	0.00e+00	123	34	0	1011875840	44	6143
2026-01-28 03:15:59.69	293.88	11.55	-35.8	-36.8	23.2	0.00e+00	122	34	0	1015021568	44	6090
2026-01-28 03:16:00.69	294.07	11.54	-36.0	-36.9	23.1	0.00e+00	123	34	0	1018167296	44	6175
2026-01-28 03:16:01.71	294.26	11.53	-36.0	-36.9	23.2	0.00e+00	120	34	0	1021313024	44	6187
2026-01-28 03:16:02.72	294.45	11.52	-36.0	-37.0	23.1	0.00e+00	123	34	0	1024458752	44	6239
2026-01-28 03:16:03.73	294.63	11.51	-36.0	-37.0	23.1	0.00e+00	121	34	0	1027604480	44	6206
2026-01-28 03:16:04.74	294.82	11.50	-36.0	-37.0	23.1	0.00e+00	123	34	0	1030750208	44	6208
2026-01-28 03:16:05.75	295.01	11.49	-35.9	-36.8	23.3	0.00e+00	123	34	0	1033895936	44	6124
2026-01-28 03:16:06.76	295.20	11.48	-35.8	-36.8	23.2	0.00e+00	122	34	0	1037041664	44	6090
2026-01-28 03:16:07.76	295.39	11.47	-35.9	-36.8	23.2	0.00e+00	122	34	0	1040187392	44	6116
2026-01-28 03:16:08.78	295.58	11.45	-35.9	-36.8	23.2	0.00e+00	123	34	0	1043333120	44	6127
2026-01-28 03:16:09.79	295.76	11.44	-36.0	-37.0	23.1	0.00e+00	123	34	0	1046478848	44	6221
2026-01-28 03:16:10.80	295.95	11.43	-35.9	-36.9	23.2	0.00e+00	123	34	0	1049624576	44	6157
2026-01-28 03:16:11.81	296.14	11.42	-35.9	-36.9	23.2	0.00e+00	123	34	0	1053818880	44	6173
2026-01-28 03:16:12.82	296.33	11.40	-36.0	-36.9	23.1	0.00e+00	123	34	0	1055916032	44	6196
2026-01-28 03:16:13.83	296.51	11.39	-35.9	-36.9	23.2	0.00e+00	120	34	0	1059061760	44	6137
2026-01-28 03:16:14.84	296.70	11.38	-36.0	-37.0	23.0	0.00e+00	123	34	0	1062207488	44	6260
2026-01-28 03:16:15.85	296.89	11.36	-36.1	-37.1	23.0	0.00e+00	123	34	0	1065353216	44	6326
2026-01-28 03:16:16.86	297.08	11.35	-36.0	-37.0	23.0	0.00e+00	123	34	0	1069547520	44	6225
2026-01-28 03:16:17.87	297.26	11.34	-35.8	-36.8	23.2	0.00e+00	122	34	0	1072693248	44	6102
2026-01-28 03:16:18.88	297.45	11.32	-35.7	-36.7	23.3	0.00e+00	123	34	0	1075838976	44	6018
2026-01-28 03:16:19.89	297.64	11.31	-35.8	-36.8	23.2	0.00e+00	120	34	0	1078984704	44	6083
2026-01-28 03:16:20.90	297.82	11.29	-35.7	-36.7	23.2	0.00e+00	124	34	0	1081081856	44	6011
2026-01-28 03:16:21.91	298.01	11.28	-35.8	-36.7	23.3	0.00e+00	123	34	0	1085276160	44	6024
2026-01-28 03:16:22.92	298.19	11.26	-35.8	-36.8	23.2	0.00e+00	123	34	0	1088421888	44	6071
2026-01-28 03:16:23.93	298.38	11.25	-36.0	-36.9	23.1	0.00e+00	123	34	0	1091567616	44	6190
2026-01-28 03:16:24.94	298.56	11.23	-35.9	-36.9	23.2	0.00e+00	120	34	0	1094713344	44	6147
2026-01-28 03:16:25.95	298.75	11.21	-36.1	-37.1	23.0	0.00e+00	123	34	0	1097859072	44	6323
2026-01-28 03:16:26.96	298.93	11.20	-36.0	-36.9	23.1	0.00e+00	123	34	0	1101004800	44	6205
2026-01-28 03:16:27.97	299.12	11.18	-36.1	-37.1	23.0	0.00e+00	123	34	0	1104150528	44	6279
2026-01-28 03:16:28.98	299.30	11.16	-36.0	-36.9	23.1	0.00e+00	122	34	0	1107296256	44	6195
2026-01-28 03:16:29.99	299.49	11.15	-36.0	-36.9	23.1	0.00e+00	122	34	0	1110441984	44	6176
2026-01-28 03:16:31.00	299.67	11.13	-35.9	-36.8	23.1	0.00e+00	123	34	0	1113587712	44	6118
2026-01-28 03:16:32.01	299.86	11.11	-35.9	-36.9	23.1	0.00e+00	122	34	0	1116733440	44	6151
2026-01-28 03:16:33.02	300.04	11.09	-35.8	-36.8	23.2	0.00e+00	122	34	0	1119879168	44	6080
2026-01-28 03:16:34.03	300.22	11.08	-35.8	-36.8	23.1	0.00e+00	123	34	0	1123024896	44	6106
2026-01-28 03:16:35.04	300.41	11.06	-36.0	-37.0	23.1	0.00e+00	120	34	0	1126170624	44	6208
2026-01-28 03:16:36.04	300.59	11.04	-35.9	-36.9	23.1	0.00e+00	123	34	0	1129316352	44	6154
2026-01-28 03:16:37.05	300.77	11.02	-36.0	-36.9	23.0	0.00e+00	122	34	0	1132462080	44	6196
2026-01-28 03:16:38.06	300.95	11.00	-35.8	-36.8	23.2	0.00e+00	122	34	0	1135607808	44	6093
2026-01-28 03:16:39.08	301.14	10.98	-36.0	-36.9	23.1	0.00e+00	123	34	0	1138753536	44	6180
2026-01-28 03:16:40.09	301.32	10.96	-35.8	-36.7	23.2	0.00e+00	122	34	0	1141899264	44	6050
2026-01-28 03:16:41.10	301.50	10.94	-35.9	-36.8	23.1	0.00e+00	122	34	0	1145044992	44	6118
2026-01-28 03:16:42.11	301.68	10.92	-36.1	-37.1	23.0	0.00e+00	123	34	0	1148190720	44	6298
2026-01-28 03:16:43.12	301.86	10.90	-36.0	-37.0	23.0	0.00e+00	120	34	0	1151336448	44	6229
2026-01-28 03:16:44.13	302.04	10.88	-36.0	-37.0	23.1	0.00e+00	123	34	0	1154482176	44	6210
2026-01-28 03:16:45.14	302.23	10.86	-36.0	-37.0	23.1	0.00e+00	122	34	0	1157627904	44	6241
2026-01-28 03:16:46.15	302.41	10.84	-35.9	-36.8	23.1	0.00e+00	123	34	0	1160773632	44	6104
2026-01-28 03:16:47.15	302.58	10.82	-35.9	-36.9	23.1	0.00e+00	120	34	0	1163919360	44	6177
2026-01-28 03:16:48.16	302.76	10.80	-35.9	-36.9	23.1	0.00e+00	127	34	0	1167065088	44	6183
2026-01-28 03:16:49.17	302.94	10.78	-36.1	-37.1	23.0	0.00e+00	122	34	0	1170210816	44	6312
2026-01-28 03:16:50.18	303.12	10.75	-35.9	-36.9	23.0	0.00e+00	123	34	0	1173356544	44	6169
2026-01-28 03:16:51.20	303.31	10.73	-35.9	-36.9	23.1	0.00e+00	121	34	0	1176502272	44	6160
2026-01-28 03:16:52.21	303.48	10.71	-36.2	-37.1	22.8	0.00e+00	123	34	0	1179648000	44	6343
2026-01-28 03:16:53.22	303.66	10.69	-36.0	-36.9	23.0	0.00e+00	123	34	0	1182793728	44	6191
2026-01-28 03:16:54.23	303.84	10.66	-36.1	-37.0	22.9	0.00e+00	123	34	0	1185939456	44	6277
2026-01-28 03:16:55.24	304.02	10.64	-36.0	-37.0	23.0	0.00e+00	120	34	0	1189085184	44	6244
2026-01-28 03:16:56.25	304.20	10.62	-36.1	-37.1	22.9	0.00e+00	120	34	0	1192230912	44	6291
2026-01-28 03:16:57.26	304.38	10.59	-36.0	-37.0	23.0	0.00e+00	122	34	0	1195376640	44	6232
2026-01-28 03:16:58.27	304.55	10.57	-36.1	-37.0	23.1	0.00e+00	120	34	0	1198522368	44	6272
2026-01-28 03:16:59.28	304.73	10.55	-36.0	-36.9	23.0	0.00e+00	120	34	0	1201668096	44	6199
2026-01-28 03:17:00.29	304.91	10.52	-36.0	-36.9	23.2	0.00e+00	122	34	0	1204813824	44	6191
2026-01-28 03:17:01.30	305.08	10.50	-36.0	-37.0	23.1	0.00e+00	123	34	0	1207959552	44	6225
2026-01-28 03:17:02.31	305.26	10.47	-36.2	-37.2	23.0	0.00e+00	122	34	0	1211105280	44	6358
2026-01-28 03:17:03.32	305.43	10.45	-36.1	-37.1	22.9	0.00e+00	122	34	0	1214251008	44	6299
2026-01-28 03:17:04.33	305.61	10.42	-36.4	-37.4	22.7	0.00e+00	120	34	0	1217396736	44	6525
2026-01-28 03:17:05.34	305.79	10.40	-36.6	-37.5	22.7	0.00e+00	123	34	0	1220542464	44	6648
2026-01-28 03:17:06.35	305.96	10.37	-36.5	-37.5	22.5	0.00e+00	121	34	0	1223688192	44	6628
2026-01-28 03:17:07.36	306.14	10.35	-36.7	-37.6	22.5	0.00e+00	123	34	0	1226833920	46	5993
2026-01-28 03:17:08.37	306.31	10.32	-36.7	-37.7	22.5	0.00e+00	123	34	0	1229979648	46	6005
2026-01-28 03:17:09.38	306.48	10.29	-36.4	-37.4	22.7	0.00e+00	123	34	0	1233125376	46	5836
2026-01-28 03:17:10.39	306.66	10.27	-36.7	-37.7	22.5	0.00e+00	120	34	0	1236271104	46	6056
2026-01-28 03:17:11.40	306.83	10.24	-36.8	-37.9	22.6	0.00e+00	122	34	0	1239416832	46	6145
2026-01-28 03:17:12.41	307.01	10.22	-36.6	-37.6	22.5	0.00e+00	123	34	0	1242562560	46	5975
2026-01-28 03:17:13.42	307.18	10.19	-36.4	-37.4	22.8	0.00e+00	123	34	0	1245708288	46	5799
2026-01-28 03:17:14.43	307.35	10.16	-36.3	-37.2	22.8	0.00e+00	120	34	0	1248854016	46	5725
2026-01-28 03:17:15.44	307.52	10.13	-36.2	-37.1	22.9	0.00e+00	122	34	0	1251999744	46	5645
2026-01-28 03:17:16.45	307.69	10.11	-36.2	-37.1	22.9	0.00e+00	120	34	0	1255145472	46	5655
2026-01-28 03:17:17.46	307.87	10.08	-35.9	-36.9	23.2	0.00e+00	123	34	0	1258291200	46	5475
2026-01-28 03:17:18.47	308.04	10.05	-36.0	-36.9	23.1	0.00e+00	120	34	0	1261436928	46	5523
2026-01-28 03:17:19.48	308.21	10.02	-36.1	-37.0	23.0	0.00e+00	122	34	0	1264582656	46	5577
2026-01-28 03:17:20.49	308.38	10.00	-36.0	-36.9	23.1	0.00e+00	122	34	0	1267728384	46	5509
2026-01-28 03:17:21.50	308.55	9.97	-36.2	-37.2	23.0	0.00e+00	123	34	0	1270874112	46	5698
2026-01-28 03:17:22.51	308.72	9.94	-36.4	-37.4	22.8	0.00e+00	120	34	0	1274019840	46	5818
2026-01-28 03:17:23.52	308.89	9.91	-36.3	-37.3	22.8	0.00e+00	122	34	0	1277165568	46	5765
2026-01-28 03:17:24.54	309.06	9.88	-36.4	-37.3	22.7	0.00e+00	120	34	0	1280311296	46	5776
2026-01-28 03:17:25.55	309.23	9.85	-36.3	-37.2	22.8	0.00e+00	122	34	0	1283457024	46	5715
2026-01-28 03:17:26.56	309.40	9.82	-36.4	-37.3	22.8	0.00e+00	122	34	0	1286602752	46	5785
2026-01-28 03:17:27.57	309.57	9.79	-36.7	-37.7	22.6	0.00e+00	122	34	0	1289748480	46	6017
2026-01-28 03:17:28.58	309.74	9.76	-36.3	-37.3	22.8	0.00e+00	122	34	0	1292894208	46	5756
2026-01-28 03:17:29.59	309.90	9.73	-36.5	-37.5	22.5	0.00e+00	123	34	0	1296039936	46	5908
2026-01-28 03:17:30.60	310.07	9.70	-36.7	-37.7	22.5	0.00e+00	122	34	0	1299185664	46	6006
2026-01-28 03:17:31.61	310.24	9.67	-36.7	-37.8	22.1	0.00e+00	122	34	0	1302331392	46	6065
2026-01-28 03:17:32.62	310.40	9.64	-36.8	-37.8	22.4	0.00e+00	123	34	0	1305477120	46	6106
2026-01-28 03:17:33.63	310.57	9.61	-36.9	-38.0	22.0	0.00e+00	123	34	0	1308622848	46	6209
2026-01-28 03:17:34.64	310.74	9.58	-37.0	-38.0	22.3	0.00e+00	122	34	0	1311768576	46	6232
2026-01-28 03:17:35.65	310.90	9.55	-36.7	-37.7	22.4	0.00e+00	120	34	0	1314914304	46	6005
2026-01-28 03:17:36.66	311.07	9.52	-36.7	-37.7	22.5	0.00e+00	123	34	0	1318060032	46	6026
2026-01-28 03:17:37.66	311.23	9.49	-36.7	-37.7	22.5	0.00e+00	120	34	0	1321205760	46	6005
2026-01-28 03:17:38.67	311.40	9.46	-36.3	-37.2	22.8	0.00e+00	123	34	0	1324351488	46	5718
2026-01-28 03:17:39.68	311.56	9.42	-36.4	-37.4	22.7	0.00e+00	122	34	0	1327497216	46	5819
2026-01-28 03:17:40.69	311.72	9.39	-36.5	-37.4	22.5	0.00e+00	121	34	0	1330642944	46	5848
2026-01-28 03:17:41.70	311.89	9.36	-36.4	-37.4	22.6	0.00e+00	123	34	0	1333788672	46	5846
2026-01-28 03:17:42.71	312.05	9.33	-36.3	-37.3	22.7	0.00e+00	123	34	0	1336934400	46	5772
2026-01-28 03:17:43.72	312.21	9.30	-36.5	-37.5	22.5	0.00e+00	122	34	0	1340080128	46	5865
2026-01-28 03:17:44.73	312.38	9.26	-36.5	-37.5	22.5	0.00e+00	122	34	0	1343225856	46	5886
2026-01-28 03:17:45.74	312.54	9.23	-36.4	-37.4	22.6	0.00e+00	122	34	0	1346371584	46	5810
2026-01-28 03:17:46.75	312.70	9.20	-36.3	-37.3	22.7	0.00e+00	123	34	0	1349517312	46	5746
2026-01-28 03:17:47.76	312.86	9.17	-36.2	-37.2	22.7	0.00e+00	123	34	0	1352663040	46	5664
2026-01-28 03:17:48.77	313.02	9.13	-36.2	-37.2	22.7	0.00e+00	123	34	0	1355808768	46	5699
2026-01-28 03:17:49.79	313.19	9.10	-36.2	-37.3	22.7	0.00e+00	122	34	0	1358954496	46	5729
2026-01-28 03:17:50.79	313.35	9.07	-36.2	-37.2	22.7	0.00e+00	123	34	0	1362100224	46	5683
2026-01-28 03:17:51.80	313.51	9.03	-36.1	-37.1	22.7	0.00e+00	121	34	0	1366294528	46	5653
2026-01-28 03:17:52.82	313.67	9.00	-36.1	-37.1	22.8	0.00e+00	123	34	0	1369440256	46	5636
2026-01-28 03:17:53.82	313.82	8.97	-36.2	-37.1	23.0	0.00e+00	120	34	0	1372585984	46	5658
2026-01-28 03:17:54.83	313.98	8.93	-36.2	-37.2	22.6	0.00e+00	125	34	0	1374683136	46	5692
2026-01-28 03:17:55.84	314.14	8.90	-36.2	-37.2	22.8	0.00e+00	122	34	0	1377828864	46	5689
2026-01-28 03:17:56.85	314.30	8.86	-36.3	-37.3	22.8	0.00e+00	123	34	0	1382023168	46	5752
2026-01-28 03:17:57.86	314.46	8.83	-36.3	-37.3	22.7	0.00e+00	123	34	0	1385168896	46	5762
2026-01-28 03:17:58.87	314.62	8.80	-36.5	-37.5	22.6	0.00e+00	123	34	0	1388314624	46	5915
2026-01-28 03:17:59.88	314.77	8.76	-36.5	-37.5	22.6	0.00e+00	122	34	0	1391460352	46	5870
2026-01-28 03:18:00.89	314.93	8.73	-36.6	-37.6	22.5	0.00e+00	122	34	0	1394606080	46	5935
2026-01-28 03:18:01.90	315.09	8.69	-36.7	-37.7	22.2	0.00e+00	123	34	0	1397751808	46	6037
2026-01-28 03:18:02.91	315.24	8.66	-36.8	-37.8	22.3	0.00e+00	123	34	0	1400897536	46	6080
2026-01-28 03:18:03.92	315.40	8.62	-36.6	-37.6	22.5	0.00e+00	122	34	0	1404043264	46	5948
2026-01-28 03:18:04.93	315.56	8.59	-36.6	-37.6	22.4	0.00e+00	123	34	0	1407188992	46	5974
2026-01-28 03:18:05.94	315.71	8.55	-36.6	-37.7	22.3	0.00e+00	122	34	0	1410334720	46	5996
2026-01-28 03:18:06.95	315.86	8.52	-36.5	-37.5	22.4	0.00e+00	122	34	0	1413480448	46	5905
2026-01-28 03:18:07.96	316.02	8.48	-36.6	-37.6	22.4	0.00e+00	123	34	0	1416626176	46	5937
2026-01-28 03:18:08.97	316.17	8.44	-36.6	-37.6	22.4	0.00e+00	122	34	0	1419771904	46	5944
2026-01-28 03:18:09.98	316.33	8.41	-36.5	-37.5	22.4	0.00e+00	120	34	0	1422917632	46	5918
2026-01-28 03:18:10.99	316.48	8.37	-36.7	-37.7	22.3	0.00e+00	122	34	0	1426063360	46	6018
2026-01-28 03:18:12.00	316.63	8.34	-36.8	-37.8	22.3	0.00e+00	120	34	0	1429209088	46	6114
2026-01-28 03:18:13.01	316.79	8.30	-36.8	-37.9	22.2	0.00e+00	123	34	0	1432354816	46	6141
2026-01-28 03:18:14.02	316.94	8.26	-36.6	-37.7	22.3	0.00e+00	123	34	0	1435500544	46	6006
2026-01-28 03:18:15.03	317.09	8.23	-36.7	-37.7	22.3	0.00e+00	123	34	0	1438646272	46	6044
2026-01-28 03:18:16.04	317.24	8.19	-36.8	-37.8	22.2	0.00e+00	123	34	0	1441792000	46	6121
2026-01-28 03:18:17.05	317.39	8.15	-36.7	-37.8	22.3	0.00e+00	123	34	0	1444937728	46	6068
2026-01-28 03:18:18.06	317.54	8.12	-36.6	-37.6	22.3	0.00e+00	123	34	0	1448083456	46	5991
2026-01-28 03:18:19.07	317.69	8.08	-36.9	-37.9	22.2	0.00e+00	123	34	0	1451229184	46	6167
2026-01-28 03:18:20.08	317.84	8.04	-36.9	-38.0	22.1	0.00e+00	123	34	0	1454374912	46	6237
2026-01-28 03:18:21.09	317.99	8.01	-37.0	-38.1	22.0	0.00e+00	123	34	0	1457520640	46	6296
2026-01-28 03:18:22.10	318.14	7.97	-37.2	-38.2	21.8	0.00e+00	122	34	0	1460666368	46	6400
2026-01-28 03:18:23.11	318.29	7.93	-37.0	-38.1	21.9	0.00e+00	122	34	0	1463812096	46	6300
2026-01-28 03:18:24.12	318.44	7.89	-37.0	-38.1	21.9	0.00e+00	123	34	0	1466957824	46	6300
2026-01-28 03:18:25.13	318.59	7.86	-37.0	-38.1	21.9	0.00e+00	123	34	0	1470103552	46	6321
2026-01-28 03:18:26.14	318.74	7.82	-37.1	-38.1	21.9	0.00e+00	120	34	0	1473249280	46	6319
2026-01-28 03:18:27.15	318.88	7.78	-37.1	-38.2	21.9	0.00e+00	122	34	0	1476395008	46	6367
2026-01-28 03:18:28.15	319.03	7.74	-37.2	-38.2	21.8	0.00e+00	123	34	0	1479540736	46	6405
2026-01-28 03:18:29.17	319.18	7.71	-36.9	-38.0	22.0	0.00e+00	123	34	0	1482686464	46	6207
2026-01-28 03:18:30.18	319.32	7.67	-36.7	-37.7	22.2	0.00e+00	122	34	0	1485832192	46	6044
2026-01-28 03:18:31.19	319.47	7.63	-36.6	-37.5	22.4	0.00e+00	123	34	0	1488977920	46	5926
2026-01-28 03:18:32.20	319.61	7.59	-36.6	-37.6	22.3	0.00e+00	120	34	0	1492123648	46	5988
2026-01-28 03:18:33.21	319.76	7.55	-36.7	-37.7	22.2	0.00e+00	122	34	0	1495269376	46	6061
2026-01-28 03:18:34.22	319.90	7.51	-36.7	-37.7	22.2	0.00e+00	122	34	0	1498415104	46	6024
2026-01-28 03:18:35.23	320.05	7.48	-36.9	-37.9	22.1	0.00e+00	123	34	0	1501560832	46	6159
2026-01-28 03:18:36.24	320.19	7.44	-36.8	-37.8	22.1	0.00e+00	121	34	0	1504706560	46	6131
2026-01-28 03:18:37.25	320.34	7.40	-36.9	-37.9	22.0	0.00e+00	123	34	0	1507852288	46	6180
2026-01-28 03:18:38.26	320.48	7.36	-37.0	-38.0	21.9	0.00e+00	122	34	0	1510998016	46	6263
2026-01-28 03:18:39.27	320.62	7.32	-37.0	-38.0	21.9	0.00e+00	123	34	0	1514143744	46	6264
2026-01-28 03:18:40.28	320.76	7.28	-37.2	-38.2	21.8	0.00e+00	123	34	0	1517289472	46	6397
2026-01-28 03:18:41.28	320.91	7.24	-37.2	-38.3	21.7	0.00e+00	122	34	0	1520435200	46	6457
2026-01-28 03:18:42.29	321.05	7.20	-37.2	-38.2	21.8	0.00e+00	122	34	0	1523580928	46	6386
2026-01-28 03:18:43.31	321.19	7.16	-37.2	-38.2	21.8	0.00e+00	120	34	0	1526726656	46	6400
2026-01-28 03:18:44.31	321.33	7.12	-37.4	-38.5	21.6	0.00e+00	123	34	0	1529872384	46	6590
2026-01-28 03:18:45.32	321.47	7.08	-37.5	-38.6	21.4	0.00e+00	123	34	0	1533018112	46	6718
2026-01-28 03:18:46.33	321.61	7.05	-37.7	-38.8	21.3	0.00e+00	123	34	0	1536163840	46	6810
2026-01-28 03:18:47.34	321.75	7.01	-37.4	-38.5	21.4	0.00e+00	123	34	0	1539309568	46	6629
2026-01-28 03:18:48.35	321.89	6.97	-37.2	-38.3	21.7	0.00e+00	120	34	0	1542455296	46	6467
2026-01-28 03:18:49.36	322.03	6.93	-37.1	-38.2	21.8	0.00e+00	123	34	0	1545601024	46	6370
2026-01-28 03:18:50.37	322.17	6.89	-36.9	-37.9	21.8	0.00e+00	123	34	0	1548746752	46	6197
2026-01-28 03:18:51.38	322.31	6.85	-37.2	-38.2	21.7	0.00e+00	122	34	0	1551892480	46	6420
2026-01-28 03:18:52.39	322.45	6.81	-37.2	-38.2	21.7	0.00e+00	120	34	0	1555038208	46	6398
2026-01-28 03:18:53.40	322.58	6.77	-37.1	-38.1	21.8	0.00e+00	122	34	0	1558183936	46	6341
2026-01-28 03:18:54.41	322.72	6.73	-37.2	-38.3	21.7	0.00e+00	121	34	0	1561329664	46	6444
2026-01-28 03:18:55.42	322.86	6.69	-37.2	-38.3	21.6	0.00e+00	124	34	0	1564475392	46	6452
2026-01-28 03:18:56.43	322.99	6.65	-37.0	-38.1	21.9	0.00e+00	123	34	0	1567621120	46	6282
2026-01-28 03:18:57.44	323.13	6.61	-37.1	-38.2	21.7	0.00e+00	122	34	0	1570766848	46	6390
2026-01-28 03:18:58.45	323.27	6.56	-36.9	-38.0	21.9	0.00e+00	123	34	0	1573912576	46	6237
2026-01-28 03:18:59.46	323.40	6.52	-37.1	-38.2	21.7	0.00e+00	123	34	0	1577058304	46	6380
2026-01-28 03:19:00.47	323.54	6.48	-37.2	-38.3	21.6	0.00e+00	123	34	0	1580204032	46	6426
2026-01-28 03:19:01.48	323.67	6.44	-37.2	-38.2	21.6	0.00e+00	122	34	0	1583349760	46	6417
2026-01-28 03:19:02.49	323.81	6.40	-37.2	-38.3	21.7	0.00e+00	123	34	0	1586495488	46	6445
2026-01-28 03:19:03.50	323.94	6.36	-37.0	-38.0	21.8	0.00e+00	123	34	0	1589641216	46	6254
2026-01-28 03:19:04.51	324.08	6.32	-37.2	-38.2	21.6	0.00e+00	122	34	0	1592786944	46	6415
2026-01-28 03:19:05.52	324.21	6.28	-37.2	-38.3	21.6	0.00e+00	123	34	0	1595932672	46	6437
2026-01-28 03:19:06.53	324.34	6.24	-37.2	-38.2	21.6	0.00e+00	120	34	0	1599078400	46	6398
2026-01-28 03:19:07.54	324.47	6.20	-37.1	-38.1	21.8	0.00e+00	123	34	0	1602224128	46	6312
2026-01-28 03:19:08.55	324.61	6.16	-37.1	-38.1	21.8	0.00e+00	121	34	0	1605369856	46	6314
2026-01-28 03:19:09.56	324.74	6.12	-37.0	-38.0	21.8	0.00e+00	123	34	0	1608515584	46	6250
2026-01-28 03:19:10.56	324.87	6.07	-37.0	-38.1	21.7	0.00e+00	120	34	0	1611661312	46	6305
2026-01-28 03:19:11.57	325.00	6.03	-37.2	-38.3	21.5	0.00e+00	122	34	0	1614807040	46	6442
2026-01-28 03:19:12.58	325.13	5.99	-37.1	-38.2	21.6	0.00e+00	123	34	0	1617952768	46	6389
2026-01-28 03:19:13.60	325.26	5.95	-37.3	-38.3	21.5	0.00e+00	122	34	0	1621098496	46	6476
2026-01-28 03:19:14.61	325.39	5.91	-37.0	-38.1	21.8	0.00e+00	122	34	0	1624244224	46	6312
2026-01-28 03:19:15.62	325.52	5.87	-37.3	-38.3	21.6	0.00e+00	122	34	0	1627389952	46	6485
2026-01-28 03:19:16.62	325.65	5.83	-37.3	-38.3	21.4	0.00e+00	123	34	0	1630535680	46	6481
2026-01-28 03:19:17.64	325.78	5.78	-37.1	-38.1	21.6	0.00e+00	123	34	0	1633681408	46	6349
2026-01-28 03:19:18.65	325.91	5.74	-37.3	-38.3	21.5	0.00e+00	122	34	0	1636827136	46	6490
2026-01-28 03:19:19.66	326.04	5.70	-37.5	-38.5	21.3	0.00e+00	122	34	0	1639972864	46	6649
2026-01-28 03:19:20.67	326.17	5.66	-37.2	-38.3	21.5	0.00e+00	123	34	0	1643118592	46	6438
2026-01-28 03:19:21.68	326.30	5.62	-37.5	-38.6	21.3	0.00e+00	123	34	0	1646264320	46	6712
2026-01-28 03:19:22.68	326.42	5.58	-37.5	-38.6	21.1	0.00e+00	122	34	0	1649410048	46	6694
2026-01-28 03:19:23.70	326.55	5.53	-37.6	-38.7	21.1	0.00e+00	123	34	0	1652555776	46	6804
2026-01-28 03:19:24.71	326.68	5.49	-37.8	-38.9	21.0	0.00e+00	120	34	0	1655701504	48	6155
2026-01-28 03:19:25.72	326.80	5.45	-37.5	-38.6	21.1	0.00e+00	123	34	0	1658847232	48	5977
2026-01-28 03:19:26.73	326.93	5.41	-37.7	-38.8	21.2	0.00e+00	120	34	0	1661992960	48	6065
2026-01-28 03:19:27.73	327.05	5.37	-37.8	-38.9	21.0	0.00e+00	123	34	0	1665138688	48	6178
2026-01-28 03:19:28.74	327.18	5.32	-37.8	-39.0	20.9	0.00e+00	122	34	0	1668284416	48	6218
2026-01-28 03:19:29.75	327.30	5.28	-37.8	-39.0	21.0	0.00e+00	123	34	0	1671430144	48	6217
2026-01-28 03:19:30.76	327.43	5.24	-37.7	-38.8	20.9	0.00e+00	123	34	0	1674575872	48	6106
2026-01-28 03:19:31.77	327.55	5.20	-37.9	-39.0	20.9	0.00e+00	122	34	0	1677721600	48	6271
2026-01-28 03:19:32.79	327.68	5.15	-37.6	-38.8	21.0	0.00e+00	122	34	0	1680867328	48	6067
2026-01-28 03:19:33.79	327.80	5.11	-37.5	-38.6	21.1	0.00e+00	123	34	0	1684013056	48	5947
2026-01-28 03:19:34.81	327.92	5.07	-37.8	-39.0	20.8	0.00e+00	122	34	0	1688207360	48	6227
2026-01-28 03:19:35.82	328.05	5.03	-37.8	-38.9	20.8	0.00e+00	122	34	0	1690304512	48	6204
2026-01-28 03:19:36.83	328.17	4.98	-37.9	-39.0	20.8	0.00e+00	123	34	0	1693450240	48	6252
2026-01-28 03:19:37.84	328.29	4.94	-37.9	-39.1	20.6	0.00e+00	123	34	0	1696595968	48	6303
2026-01-28 03:19:38.85	328.41	4.90	-37.8	-38.9	20.9	0.00e+00	123	34	0	1699741696	48	6183
2026-01-28 03:19:39.86	328.54	4.86	-37.6	-38.7	21.0	0.00e+00	123	34	0	1703936000	48	6013
2026-01-28 03:19:40.87	328.66	4.81	-37.9	-39.0	20.8	0.00e+00	120	34	0	1707081728	48	6268
2026-01-28 03:19:41.88	328.78	4.77	-37.9	-39.1	20.6	0.00e+00	122	34	0	1710227456	48	6297
2026-01-28 03:19:42.89	328.90	4.73	-38.1	-39.3	20.5	0.00e+00	120	34	0	1712324608	48	6461
2026-01-28 03:19:43.90	329.02	4.69	-37.9	-39.0	20.7	0.00e+00	122	34	0	1715470336	48	6268
2026-01-28 03:19:44.91	329.14	4.64	-37.9	-39.0	20.6	0.00e+00	123	34	0	1719664640	48	6245
2026-01-28 03:19:45.92	329.26	4.60	-37.5	-38.7	20.8	0.00e+00	123	34	0	1722810368	48	6010
2026-01-28 03:19:46.92	329.38	4.56	-37.9	-39.0	20.7	0.00e+00	123	34	0	1725956096	48	6250
2026-01-28 03:19:47.93	329.49	4.52	-37.9	-39.1	20.7	0.00e+00	123	34	0	1729101824	48	6286
2026-01-28 03:19:48.94	329.61	4.47	-38.0	-39.1	20.5	0.00e+00	123	34	0	1732247552	48	6334
2026-01-28 03:19:49.95	329.73	4.43	-38.1	-39.3	20.4	0.00e+00	123	34	0	1735393280	48	6467
2026-01-28 03:19:50.97	329.85	4.39	-37.7	-38.9	20.7	0.00e+00	123	34	0	1738539008	48	6137
2026-01-28 03:19:51.98	329.97	4.34	-37.6	-38.7	20.8	0.00e+00	123	34	0	1741684736	48	6058
2026-01-28 03:19:52.99	330.09	4.30	-37.7	-38.9	20.7	0.00e+00	123	34	0	1744830464	48	6153
2026-01-28 03:19:54.00	330.20	4.26	-37.7	-38.9	20.7	0.00e+00	122	34	0	1747976192	48	6140
2026-01-28 03:19:55.01	330.32	4.21	-37.4	-38.5	20.9	0.00e+00	123	34	0	1751121920	48	5905
2026-01-28 03:19:56.02	330.43	4.17	-37.8	-39.0	20.6	0.00e+00	123	34	0	1754267648	48	6234
2026-01-28 03:19:57.03	330.55	4.13	-37.6	-38.8	20.7	0.00e+00	122	34	0	1757413376	48	6082
2026-01-28 03:19:58.04	330.67	4.08	-37.8	-38.9	20.5	0.00e+00	123	34	0	1760559104	48	6200
2026-01-28 03:19:59.05	330.78	4.04	-37.5	-38.6	20.5	0.00e+00	122	34	0	1763704832	48	5972
2026-01-28 03:20:00.06	330.90	4.00	-38.0	-39.2	20.1	0.00e+00	122	34	0	1766850560	48	6369
2026-01-28 03:20:01.07	331.01	3.96	-38.1	-39.3	19.8	0.00e+00	122	34	0	1769996288	48	6491
2026-01-28 03:20:02.08	331.13	3.91	-38.2	-39.5	19.6	0.00e+00	123	34	0	1773142016	48	6598
2026-01-28 03:20:03.09	331.24	3.87	-39.0	-40.4	18.5	0.00e+00	123	34	0	1776287744	50	6556
2026-01-28 03:20:04.10	331.35	3.83	-39.3	-40.8	18.0	0.00e+00	122	34	0	1779433472	50	6807
2026-01-28 03:20:05.11	331.47	3.78	-39.8	-41.4	17.0	0.00e+00	120	34	0	1782579200	50	7340
2026-01-28 03:20:06.12	331.58	3.74	-40.4	-42.3	15.8	0.00e+00	123	34	0	1785724928	52	7224
2026-01-28 03:20:07.13	331.69	3.70	-40.9	-43.1	14.6	0.00e+00	120	34	0	1788870656	54	7048
2026-01-28 03:20:08.14	331.80	3.65	-41.6	-44.3	12.7	1.37e-05	122	34	0	1792016384	54	8127
2026-01-28 03:20:09.15	331.92	3.61	-42.1	-45.3	11.3	8.28e-04	122	34	0	1795162112	56	8174
2026-01-28 03:20:10.16	332.03	3.57	-42.7	-46.9	9.2	1.26e-02	123	34	0	1798307840	56	9732
2026-01-28 03:20:11.17	332.14	3.52	-43.1	-48.2	7.5	5.77e-02	122	34	0	1801453568	58	10070
2026-01-28 03:20:12.18	332.25	3.48	-43.3	-49.4	5.9	2.30e-01	122	34	0	1804599296	58	11563
2026-01-28 03:20:13.19	332.36	3.44	-43.5	-52.0	4.8	6.60e-01	120	34	104	1804599296	58	15641
2026-01-28 03:20:14.20	332.47	3.39	-43.7	-53.4	4.1	1.30e+00	0	34	104	1804599296	58	18462
2026-01-28 03:20:15.21	332.58	3.35	-43.8	-54.6	3.6	1.49e+00	0	34	104	1804599296	58	21059
2026-01-28 03:20:16.22	332.69	3.31	-43.8	-56.0	3.5	1.51e+00	0	34	104	1804599296	60	22187
2026-01-28 03:20:17.23	332.80	3.26	-43.9	-55.8	3.5	1.51e+00	0	34	104	1804599296	60	21655
2026-01-28 03:20:18.24	332.91	3.22	-43.9	-56.7	3.5	1.52e+00	0	34	104	1804599296	60	23882
2026-01-28 03:20:19.24	333.02	3.18	-43.9	-56.6	3.5	1.52e+00	0	34	104	1804599296	60	23755
2026-01-28 03:20:20.25	333.13	3.13	-43.9	-56.3	3.5	1.52e+00	0	34	104	1804599296	60	22935
2026-01-28 03:20:21.26	333.24	3.09	-43.8	-56.5	3.5	1.51e+00	0	34	104	1804599296	60	23523
2026-01-28 03:20:22.27	333.34	3.04	-43.8	-56.6	3.5	1.52e+00	0	34	104	1804599296	60	23747
2026-01-28 03:20:23.28	333.45	3.00	-43.8	-56.6	3.5	1.52e+00	0	34	104	1804599296	60	23840
2026-01-28 03:20:24.29	333.56	2.96	-47.8	-60.7	3.5	1.52e+00	0	34	104	1804599296	60	38189
2026-01-28 03:20:25.30	333.67	2.91	-48.3	-61.1	3.5	1.52e+00	0	34	104	1804599296	60	39932
2026-01-28 03:20:26.31	333.77	2.87	-48.5	-61.4	3.5	1.52e+00	0	34	104	1804599296	60	41142
2026-01-28 03:20:27.32	333.88	2.83	-48.7	-61.5	3.5	1.52e+00	0	34	104	1804599296	60	41887
2026-01-28 03:20:28.33	333.99	2.78	-48.9	-61.7	3.5	1.51e+00	0	34	104	1804599296	60	42777
2026-01-28 03:20:29.33	334.09	2.74	-48.9	-61.8	3.5	1.52e+00	0	34	104	1804599296	60	42989
2026-01-28 03:20:30.34	334.20	2.70	-49.0	-61.9	3.5	1.52e+00	0	34	104	1804599296	60	43469
2026-01-28 03:20:31.35	334.30	2.65	-49.1	-61.9	3.5	1.52e+00	0	34	104	1804599296	60	43888
2026-01-28 03:20:32.36	334.41	2.61	-49.1	-61.9	3.5	1.52e+00	0	34	104	1804599296	60	43862
2026-01-28 03:20:33.37	334.51	2.57	-49.1	-62.0	3.5	1.52e+00	0	34	104	1804599296	60	44169
2026-01-28 03:20:34.38	334.62	2.52	-49.2	-62.0	3.5	1.52e+00	0	34	104	1804599296	60	44215
2026-01-28 03:20:35.39	334.72	2.48	-49.1	-62.0	3.5	1.51e+00	0	34	104	1804599296	60	44208
2026-01-28 03:20:36.40	334.82	2.43	-49.1	-62.0	3.5	1.51e+00	0	34	104	1804599296	60	44024
2026-01-28 03:20:37.41	334.93	2.39	-49.1	-62.0	3.5	1.52e+00	0	34	104	1804599296	60	44204
2026-01-28 03:20:38.42	335.03	2.35	-49.1	-62.0	3.5	1.52e+00	0	34	104	1804599296	60	44155
2026-01-28 03:20:39.43	335.13	2.30	-49.0	-61.9	3.5	1.52e+00	0	34	104	1804599296	60	43739
2026-01-28 03:20:40.44	335.24	2.26	-49.0	-61.9	3.5	1.52e+00	0	34	104	1804599296	60	43498
2026-01-28 03:20:41.45	335.34	2.22	-49.0	-61.9	3.5	1.52e+00	0	34	104	1804599296	60	43719
2026-01-28 03:20:42.46	335.44	2.17	-49.0	-61.9	3.5	1.51e+00	0	34	104	1804599296	60	43690
2026-01-28 03:20:43.47	335.54	2.13	-49.0	-61.9	3.5	1.52e+00	0	34	104	1804599296	60	43614
2026-01-28 03:20:44.48	335.64	2.09	-49.0	-61.8	3.5	1.52e+00	0	34	104	1804599296	60	43215
2026-01-28 03:20:45.49	335.74	2.04	-49.0	-61.8	3.5	1.52e+00	0	34	104	1804599296	60	43392
2026-01-28 03:20:46.50	335.85	2.00	-49.0	-61.8	3.5	1.52e+00	0	34	104	1804599296	60	43306
