passes_logs/2026/01/28/R4.6S_Anadyr/R4.6S_Anadyr__20260128_140051_SUOMI_NPP_rec.log

#Pass ID: 20260128_140051_SUOMI NPP
#Satellite: SUOMI NPP
#Configuration: NPP
#almurnet v.1.7.20251203
#Start time: 2026-01-28 14:00:53

#Version: 2.2.20231116
#Station: R4.6S_Anadyr
#Location: 177.4865 lon 64.73178 lat
#TLE: 1 37849U 11061A   26027.86188320  .00000172  00000+0  10275-3 0  9990
#TLE: 2 37849  98.7823 329.8005 0002088  41.4184 318.7150 14.19530883738530

#Time	Az	El	Level	Level2	SNR	BER	BlckErr	Temp	State	Recorded	gain1	gain2
2026-01-28 14:00:53.00	19.31	0.07	-48.6	-61.2	3.5	1.52e+00	0	30	0	0	60	40128
2026-01-28 14:00:54.01	19.34	0.13	-48.7	-63.9	3.6	1.51e+00	0	31	104	0	60	56385
2026-01-28 14:00:55.02	19.37	0.19	-48.7	-63.9	3.6	1.51e+00	0	31	104	0	60	56831
2026-01-28 14:00:56.03	19.40	0.25	-48.7	-63.9	3.6	1.51e+00	0	31	104	0	60	56769
2026-01-28 14:00:57.04	19.43	0.30	-48.7	-63.9	3.6	1.51e+00	0	31	104	0	60	56778
2026-01-28 14:00:58.05	19.46	0.36	-48.7	-63.9	3.6	1.51e+00	0	31	104	0	60	56834
2026-01-28 14:00:59.06	19.48	0.42	-48.7	-64.0	3.6	1.51e+00	0	31	104	0	60	57032
2026-01-28 14:01:00.07	19.51	0.48	-48.7	-64.0	3.6	1.51e+00	0	31	104	0	60	56992
2026-01-28 14:01:01.08	19.54	0.54	-48.8	-64.0	3.6	1.51e+00	0	31	104	0	60	57041
2026-01-28 14:01:02.09	19.57	0.60	-48.8	-64.0	3.6	1.51e+00	0	31	104	0	60	57403
2026-01-28 14:01:03.10	19.60	0.66	-48.8	-64.0	3.6	1.51e+00	0	31	104	0	60	57222
2026-01-28 14:01:04.11	19.63	0.72	-48.8	-64.0	3.6	1.51e+00	0	31	104	0	60	57192
2026-01-28 14:01:05.12	19.66	0.78	-48.8	-64.0	3.6	1.51e+00	0	31	104	0	60	56974
2026-01-28 14:01:06.13	19.69	0.84	-48.8	-63.9	3.6	1.51e+00	0	31	104	0	60	56849
2026-01-28 14:01:07.14	19.72	0.90	-48.7	-63.9	3.6	1.51e+00	0	31	104	0	60	56802
2026-01-28 14:01:08.15	19.75	0.96	-48.6	-63.8	3.6	1.51e+00	0	31	104	0	60	56279
2026-01-28 14:01:09.16	19.78	1.02	-48.6	-63.8	3.6	1.51e+00	0	31	104	0	60	56224
2026-01-28 14:01:10.17	19.81	1.09	-48.5	-63.7	3.6	1.51e+00	0	31	104	0	60	55327
2026-01-28 14:01:11.18	19.83	1.15	-48.4	-63.7	3.6	1.51e+00	0	31	104	0	60	55028
2026-01-28 14:01:12.19	19.86	1.21	-48.3	-63.5	3.6	1.51e+00	0	32	104	0	60	54069
2026-01-28 14:01:13.20	19.89	1.27	-48.1	-63.4	3.6	1.51e+00	0	31	104	0	60	53573
2026-01-28 14:01:14.21	19.92	1.33	-48.1	-63.3	3.6	1.51e+00	0	31	104	0	60	53144
2026-01-28 14:01:15.22	19.95	1.39	-48.0	-63.2	3.6	1.51e+00	0	32	104	0	60	51975
2026-01-28 14:01:16.23	19.99	1.45	-47.8	-63.0	3.6	1.51e+00	0	32	104	0	60	51048
2026-01-28 14:01:17.24	20.02	1.51	-47.6	-62.8	3.6	1.51e+00	0	31	104	0	60	49691
2026-01-28 14:01:18.25	20.05	1.58	-47.4	-62.5	3.6	1.51e+00	0	32	104	0	60	48275
2026-01-28 14:01:19.26	20.08	1.64	-47.4	-62.5	3.6	1.51e+00	0	31	104	0	60	47927
2026-01-28 14:01:20.27	20.11	1.70	-47.4	-62.5	3.6	1.51e+00	0	32	104	0	60	47992
2026-01-28 14:01:21.27	20.14	1.76	-47.4	-62.6	3.6	1.51e+00	0	32	104	0	60	48508
2026-01-28 14:01:22.28	20.17	1.82	-47.4	-62.6	3.6	1.51e+00	0	32	104	0	60	48592
2026-01-28 14:01:23.29	20.20	1.89	-47.4	-62.6	3.6	1.51e+00	0	32	104	0	60	48484
2026-01-28 14:01:24.30	20.23	1.95	-47.4	-62.6	3.6	1.51e+00	0	32	104	0	60	48505
2026-01-28 14:01:25.31	20.26	2.01	-47.4	-62.5	3.6	1.51e+00	0	32	104	0	60	48390
2026-01-28 14:01:26.32	20.29	2.07	-47.4	-62.5	3.6	1.51e+00	0	32	104	0	60	48362
2026-01-28 14:01:27.33	20.32	2.14	-47.4	-62.6	3.6	1.51e+00	0	32	104	0	60	48581
2026-01-28 14:01:28.34	20.36	2.20	-47.4	-62.5	3.6	1.51e+00	0	32	104	0	60	48442
2026-01-28 14:01:29.35	20.39	2.26	-47.4	-62.5	3.6	1.51e+00	0	32	104	0	60	48095
2026-01-28 14:01:30.36	20.42	2.33	-47.4	-62.3	3.6	1.51e+00	0	32	104	0	60	47328
2026-01-28 14:01:31.37	20.45	2.39	-47.3	-61.9	3.6	1.51e+00	0	32	104	0	60	44778
2026-01-28 14:01:32.38	20.48	2.45	-47.3	-61.5	3.6	1.51e+00	0	32	104	0	60	43161
2026-01-28 14:01:33.39	20.52	2.52	-47.3	-61.3	3.6	1.51e+00	0	32	104	0	60	41891
2026-01-28 14:01:34.40	20.55	2.58	-47.3	-61.5	3.6	1.51e+00	0	32	104	0	60	42823
2026-01-28 14:01:35.41	20.58	2.65	-47.3	-61.6	3.6	1.51e+00	0	32	104	0	60	43627
2026-01-28 14:01:36.42	20.61	2.71	-47.3	-61.7	3.6	1.51e+00	0	32	104	0	60	43793
2026-01-28 14:01:37.43	20.65	2.77	-47.2	-60.0	3.7	1.51e+00	0	32	104	0	60	36324
2026-01-28 14:01:38.44	20.68	2.84	-46.8	-55.5	5.9	1.01e+00	0	32	0	0	60	21542
2026-01-28 14:01:39.45	20.71	2.90	-46.6	-53.2	7.5	2.79e-01	0	32	0	1048576	60	16529
2026-01-28 14:01:40.46	20.74	2.97	-45.6	-50.3	10.8	2.40e-02	0	32	0	3145728	60	11885
2026-01-28 14:01:41.46	20.78	3.03	-44.9	-48.7	12.8	1.69e-04	0	32	0	5242880	60	9858
2026-01-28 14:01:42.47	20.81	3.10	-44.0	-47.0	14.9	7.00e-07	40	32	0	7340032	60	8093
2026-01-28 14:01:43.48	20.84	3.16	-42.7	-44.8	16.3	0.00e+00	0	32	0	9437184	60	6312
2026-01-28 14:01:44.49	20.88	3.23	-41.9	-43.8	17.6	0.00e+00	92	32	0	10485760	58	6307
2026-01-28 14:01:45.50	20.91	3.29	-42.2	-44.2	17.6	0.00e+00	0	32	0	12582912	58	6543
2026-01-28 14:01:46.51	20.94	3.36	-42.1	-44.0	17.7	0.00e+00	0	32	0	14680064	56	7211
2026-01-28 14:01:47.52	20.98	3.43	-41.7	-43.6	17.9	0.00e+00	0	32	0	16777216	56	6851
2026-01-28 14:01:48.53	21.01	3.49	-42.4	-44.5	17.0	0.00e+00	0	32	0	18874368	56	7610
2026-01-28 14:01:49.54	21.05	3.56	-42.7	-45.0	16.1	0.00e+00	44	32	0	19922944	58	7190
2026-01-28 14:01:50.55	21.08	3.62	-43.6	-46.4	14.4	0.00e+00	0	32	0	22020096	58	8465
2026-01-28 14:01:51.56	21.12	3.69	-42.1	-43.9	18.1	7.00e-07	92	32	0	24117248	58	6387
2026-01-28 14:01:52.57	21.15	3.76	-42.2	-44.2	16.4	0.00e+00	0	32	0	26214400	56	7413
2026-01-28 14:01:53.58	21.18	3.82	-43.8	-46.4	14.6	7.04e-03	0	32	0	28311552	60	7588
2026-01-28 14:01:54.59	21.22	3.89	-45.3	-48.9	12.9	5.18e-01	0	32	0	30408704	60	10099
2026-01-28 14:01:55.60	21.25	3.96	-45.1	-49.1	10.8	5.72e-05	0	32	0	31457280	60	10358
2026-01-28 14:01:56.61	21.29	4.02	-46.8	-55.4	4.8	1.51e+00	0	32	104	32505856	60	21354
2026-01-28 14:01:57.61	21.32	4.09	-44.5	-47.9	13.2	0.00e+00	0	32	104	32505856	60	8928
2026-01-28 14:01:58.63	21.36	4.16	-44.2	-47.3	14.2	1.22e-05	75	32	0	33554432	60	8332
2026-01-28 14:01:59.63	21.39	4.23	-44.7	-48.0	13.3	4.50e-06	0	32	0	35651584	60	9106
2026-01-28 14:02:00.61	21.43	4.29	-44.3	-47.3	14.3	1.50e-06	77	32	0	37748736	60	8418
2026-01-28 14:02:01.62	21.47	4.36	-44.3	-47.3	14.5	7.00e-07	0	32	0	39845888	60	8361
2026-01-28 14:02:02.63	21.50	4.43	-43.9	-46.6	15.0	7.00e-07	0	32	0	40894464	60	7762
2026-01-28 14:02:03.64	21.54	4.50	-44.0	-46.8	14.9	0.00e+00	25	32	0	42991616	60	7945
2026-01-28 14:02:04.64	21.57	4.56	-43.7	-46.3	15.3	0.00e+00	0	32	0	45088768	60	7481
2026-01-28 14:02:05.65	21.61	4.63	-44.1	-47.0	15.1	0.00e+00	42	32	0	47185920	60	8077
2026-01-28 14:02:06.66	21.65	4.70	-43.5	-46.0	15.9	7.00e-07	0	32	0	48234496	60	7186
2026-01-28 14:02:07.67	21.68	4.77	-43.9	-46.7	15.1	0.00e+00	42	32	0	50331648	60	7821
2026-01-28 14:02:08.68	21.72	4.84	-43.8	-46.5	14.9	0.00e+00	0	32	0	52428800	60	7664
2026-01-28 14:02:09.69	21.76	4.91	-44.0	-46.8	14.8	0.00e+00	0	32	0	54525952	60	7950
2026-01-28 14:02:10.70	21.79	4.98	-44.1	-46.9	14.9	0.00e+00	0	32	0	56623104	60	8029
2026-01-28 14:02:11.71	21.83	5.05	-43.9	-46.6	15.4	0.00e+00	0	32	0	57671680	60	7742
2026-01-28 14:02:12.72	21.87	5.12	-42.8	-45.0	16.8	0.00e+00	92	32	0	59768832	60	6399
2026-01-28 14:02:13.73	21.91	5.19	-42.9	-45.1	16.8	0.00e+00	0	32	0	61865984	60	6471
2026-01-28 14:02:14.74	21.94	5.26	-42.5	-44.5	17.1	0.00e+00	90	32	0	63963136	58	6840
2026-01-28 14:02:15.75	21.98	5.33	-42.9	-45.1	16.7	0.00e+00	0	32	0	66060288	58	7274
2026-01-28 14:02:16.76	22.02	5.40	-42.6	-44.6	17.3	0.00e+00	0	32	0	68157440	58	6858
2026-01-28 14:02:17.77	22.06	5.47	-42.0	-43.8	18.0	0.00e+00	0	32	0	69206016	58	6253
2026-01-28 14:02:18.78	22.10	5.54	-42.5	-44.5	17.5	0.00e+00	0	32	0	71303168	58	6774
2026-01-28 14:02:19.78	22.13	5.61	-42.5	-44.5	17.1	0.00e+00	52	32	0	73400320	58	6803
2026-01-28 14:02:20.79	22.17	5.68	-41.9	-43.6	18.2	0.00e+00	0	32	0	75497472	58	6154
2026-01-28 14:02:21.80	22.21	5.75	-41.7	-43.3	18.5	0.00e+00	87	32	0	77594624	56	6680
2026-01-28 14:02:22.81	22.25	5.83	-41.1	-42.6	19.1	0.00e+00	0	32	0	78643200	56	6157
2026-01-28 14:02:23.82	22.29	5.90	-41.0	-42.5	19.3	0.00e+00	0	32	0	80740352	56	6068
2026-01-28 14:02:24.83	22.33	5.97	-40.8	-42.3	19.4	0.00e+00	0	32	0	82837504	54	6643
2026-01-28 14:02:25.84	22.37	6.04	-40.7	-42.1	19.4	0.00e+00	0	32	0	84934656	54	6527
2026-01-28 14:02:26.85	22.41	6.11	-40.5	-41.9	19.7	0.00e+00	44	32	0	87031808	54	6339
2026-01-28 14:02:27.86	22.45	6.19	-40.3	-41.7	19.9	0.00e+00	0	32	0	88080384	54	6210
2026-01-28 14:02:28.87	22.49	6.26	-40.4	-41.8	19.9	0.00e+00	75	32	0	90177536	54	6291
2026-01-28 14:02:29.88	22.53	6.33	-40.2	-41.5	20.0	0.00e+00	0	32	0	92274688	54	6079
2026-01-28 14:02:30.89	22.57	6.41	-40.3	-41.6	19.9	0.00e+00	5	32	0	94371840	54	6154
2026-01-28 14:02:31.90	22.61	6.48	-40.3	-41.6	19.9	0.00e+00	0	32	0	96468992	54	6158
2026-01-28 14:02:32.91	22.65	6.55	-40.2	-41.6	20.1	0.00e+00	0	32	0	97517568	54	6106
2026-01-28 14:02:33.91	22.69	6.63	-40.1	-41.4	20.1	0.00e+00	0	32	0	99614720	54	6022
2026-01-28 14:02:34.92	22.73	6.70	-40.2	-41.6	20.0	0.00e+00	0	32	0	101711872	54	6113
2026-01-28 14:02:35.93	22.77	6.77	-40.2	-41.5	20.2	0.00e+00	47	32	0	103809024	52	6810
2026-01-28 14:02:36.94	22.82	6.85	-39.9	-41.2	20.3	0.00e+00	0	32	0	105906176	52	6544
2026-01-28 14:02:37.95	22.86	6.92	-40.1	-41.4	20.1	0.00e+00	86	32	0	106954752	52	6764
2026-01-28 14:02:38.96	22.90	7.00	-40.1	-41.4	20.0	0.00e+00	0	32	0	109051904	52	6743
2026-01-28 14:02:39.97	22.94	7.07	-39.9	-41.2	20.4	0.00e+00	0	32	0	111149056	52	6549
2026-01-28 14:02:40.98	22.98	7.15	-39.8	-41.0	20.7	0.00e+00	50	32	0	113246208	52	6405
2026-01-28 14:02:41.98	23.03	7.22	-39.9	-41.2	20.1	0.00e+00	0	32	0	115343360	52	6574
2026-01-28 14:02:42.99	23.07	7.30	-39.3	-40.4	21.1	0.00e+00	47	32	0	116391936	52	5999
2026-01-28 14:02:44.00	23.11	7.37	-39.8	-41.0	20.4	0.00e+00	0	32	0	118489088	52	6435
2026-01-28 14:02:45.01	23.15	7.45	-39.9	-41.1	20.5	0.00e+00	92	32	0	120586240	52	6501
2026-01-28 14:02:46.02	23.20	7.53	-39.6	-40.8	20.5	0.00e+00	0	32	0	122683392	52	6304
2026-01-28 14:02:47.03	23.24	7.60	-39.3	-40.4	21.0	0.00e+00	0	32	0	124780544	52	6013
2026-01-28 14:02:48.04	23.29	7.68	-39.4	-40.6	21.1	0.00e+00	0	32	0	125829120	52	6143
2026-01-28 14:02:49.05	23.33	7.76	-38.9	-40.1	21.3	0.00e+00	0	32	0	127926272	52	5765
2026-01-28 14:02:50.06	23.37	7.83	-39.5	-40.7	21.0	0.00e+00	36	32	0	130023424	52	6218
2026-01-28 14:02:51.07	23.42	7.91	-39.1	-40.2	21.4	0.00e+00	0	32	0	132120576	52	5857
2026-01-28 14:02:52.08	23.46	7.99	-39.3	-40.4	21.2	0.00e+00	52	32	0	134217728	52	6033
2026-01-28 14:02:53.09	23.51	8.07	-39.2	-40.4	21.3	0.00e+00	0	32	0	136314880	52	5987
2026-01-28 14:02:54.10	23.55	8.15	-39.1	-40.3	21.3	0.00e+00	32	32	0	137363456	52	5901
2026-01-28 14:02:55.11	23.60	8.22	-39.3	-40.4	21.3	0.00e+00	0	32	0	139460608	52	6020
2026-01-28 14:02:56.11	23.64	8.30	-38.9	-39.9	21.6	0.00e+00	0	32	0	141557760	52	5693
2026-01-28 14:02:57.12	23.69	8.38	-39.2	-40.3	21.5	0.00e+00	31	32	0	143654912	52	5906
2026-01-28 14:02:58.13	23.73	8.46	-39.2	-40.3	21.2	0.00e+00	0	32	0	145752064	52	5953
2026-01-28 14:02:59.14	23.78	8.54	-39.1	-40.2	21.5	0.00e+00	53	32	0	146800640	52	5886
2026-01-28 14:03:00.16	23.83	8.62	-39.0	-40.1	21.5	0.00e+00	0	32	0	148897792	52	5793
2026-01-28 14:03:01.16	23.87	8.70	-39.2	-40.3	21.4	0.00e+00	0	32	0	150994944	52	5921
2026-01-28 14:03:02.17	23.92	8.78	-39.3	-40.4	21.4	0.00e+00	0	32	0	153092096	52	6026
2026-01-28 14:03:03.18	23.97	8.86	-39.1	-40.2	21.4	0.00e+00	0	32	0	155189248	52	5846
2026-01-28 14:03:04.19	24.01	8.94	-39.2	-40.3	21.4	0.00e+00	53	32	0	156237824	52	5954
2026-01-28 14:03:05.20	24.06	9.02	-39.0	-40.1	21.5	0.00e+00	0	32	0	158334976	52	5793
2026-01-28 14:03:06.21	24.11	9.10	-39.2	-40.4	21.4	0.00e+00	92	32	0	160432128	52	5981
2026-01-28 14:03:07.22	24.16	9.18	-39.1	-40.3	21.5	0.00e+00	0	32	0	162529280	52	5899
2026-01-28 14:03:08.22	24.20	9.26	-39.0	-40.1	21.5	0.00e+00	71	32	0	164626432	52	5812
2026-01-28 14:03:09.23	24.25	9.34	-39.0	-40.1	21.6	0.00e+00	0	32	0	165675008	52	5803
2026-01-28 14:03:10.24	24.30	9.43	-39.2	-40.4	21.4	0.00e+00	0	32	0	167772160	52	5978
2026-01-28 14:03:11.25	24.35	9.51	-39.0	-40.1	21.6	0.00e+00	0	32	0	169869312	52	5799
2026-01-28 14:03:12.27	24.40	9.59	-39.1	-40.3	21.4	0.00e+00	0	32	0	171966464	52	5923
2026-01-28 14:03:13.28	24.45	9.67	-39.0	-40.1	21.5	0.00e+00	92	32	0	174063616	52	5799
2026-01-28 14:03:14.29	24.50	9.76	-39.2	-40.3	21.5	0.00e+00	0	32	0	175112192	52	5946
2026-01-28 14:03:15.30	24.55	9.84	-39.2	-40.4	21.4	0.00e+00	54	32	0	177209344	52	5965
2026-01-28 14:03:16.31	24.60	9.92	-39.1	-40.2	21.6	0.00e+00	33	32	0	179306496	52	5868
2026-01-28 14:03:17.32	24.65	10.01	-39.0	-40.2	21.6	0.00e+00	0	32	0	181403648	52	5831
2026-01-28 14:03:18.32	24.70	10.09	-39.0	-40.2	21.5	0.00e+00	0	32	0	183500800	52	5830
2026-01-28 14:03:19.33	24.75	10.18	-39.1	-40.2	21.6	0.00e+00	0	32	0	184549376	52	5840
2026-01-28 14:03:20.34	24.80	10.26	-39.0	-40.1	21.6	0.00e+00	92	32	0	186646528	52	5815
2026-01-28 14:03:21.35	24.85	10.34	-39.0	-40.1	21.8	0.00e+00	0	32	0	188743680	52	5792
2026-01-28 14:03:22.36	24.91	10.43	-38.9	-40.0	21.8	0.00e+00	60	32	0	190840832	50	6398
2026-01-28 14:03:23.37	24.96	10.52	-38.7	-39.7	22.0	0.00e+00	0	32	0	192937984	50	6239
2026-01-28 14:03:24.38	25.01	10.60	-38.7	-39.8	22.0	0.00e+00	0	32	0	193986560	50	6277
2026-01-28 14:03:25.39	25.06	10.69	-38.9	-40.0	21.9	0.00e+00	0	32	0	196083712	50	6409
2026-01-28 14:03:26.40	25.11	10.77	-38.8	-39.9	21.7	0.00e+00	0	32	0	198180864	50	6351
2026-01-28 14:03:27.41	25.17	10.86	-38.7	-39.8	21.9	0.00e+00	51	32	0	200278016	50	6274
2026-01-28 14:03:28.42	25.22	10.95	-38.6	-39.7	22.0	0.00e+00	0	32	0	202375168	50	6206
2026-01-28 14:03:29.43	25.28	11.03	-38.6	-39.6	22.1	0.00e+00	67	32	0	204472320	50	6150
2026-01-28 14:03:30.44	25.33	11.12	-38.4	-39.5	22.2	0.00e+00	0	32	0	205520896	50	6053
2026-01-28 14:03:31.45	25.38	11.21	-38.4	-39.4	22.3	0.00e+00	0	32	0	207618048	50	5996
2026-01-28 14:03:32.46	25.44	11.30	-38.5	-39.5	22.2	0.00e+00	0	32	0	209715200	50	6059
2026-01-28 14:03:33.47	25.49	11.39	-38.5	-39.5	22.2	0.00e+00	0	32	0	211812352	50	6067
2026-01-28 14:03:34.48	25.55	11.47	-38.5	-39.5	22.1	0.00e+00	20	32	0	213909504	50	6097
2026-01-28 14:03:35.49	25.60	11.56	-38.6	-39.6	22.0	0.00e+00	0	32	0	214958080	50	6173
2026-01-28 14:03:36.50	25.66	11.65	-38.4	-39.5	22.2	0.00e+00	79	32	0	217055232	50	6039
2026-01-28 14:03:37.51	25.72	11.74	-38.8	-39.8	22.0	0.00e+00	0	32	0	219152384	50	6314
2026-01-28 14:03:38.52	25.77	11.83	-38.2	-39.2	22.5	0.00e+00	0	32	0	221249536	50	5871
2026-01-28 14:03:39.53	25.83	11.92	-38.5	-39.6	22.2	0.00e+00	0	32	0	223346688	50	6113
2026-01-28 14:03:40.54	25.89	12.01	-38.4	-39.4	22.3	0.00e+00	0	32	0	224395264	50	6012
2026-01-28 14:03:41.54	25.94	12.10	-38.3	-39.3	22.4	0.00e+00	41	32	0	226492416	50	5922
2026-01-28 14:03:42.56	26.00	12.19	-38.4	-39.5	22.3	0.00e+00	0	32	0	228589568	50	6046
2026-01-28 14:03:43.57	26.06	12.29	-38.1	-39.0	22.6	0.00e+00	75	32	0	230686720	50	5758
2026-01-28 14:03:44.58	26.12	12.38	-38.1	-39.1	22.5	0.00e+00	0	32	0	232783872	50	5824
2026-01-28 14:03:45.59	26.18	12.47	-38.1	-39.1	22.7	0.00e+00	0	32	0	233832448	50	5780
2026-01-28 14:03:46.59	26.24	12.56	-38.2	-39.2	22.5	0.00e+00	0	32	0	235929600	50	5891
2026-01-28 14:03:47.60	26.30	12.65	-38.1	-39.1	22.6	0.00e+00	0	32	0	238026752	50	5781
2026-01-28 14:03:48.61	26.36	12.75	-38.0	-39.0	22.7	0.00e+00	49	32	0	240123904	50	5714
2026-01-28 14:03:49.62	26.42	12.84	-37.7	-38.7	22.9	0.00e+00	0	32	0	242221056	50	5524
2026-01-28 14:03:50.63	26.48	12.93	-37.9	-38.8	22.8	0.00e+00	90	32	0	243269632	48	6315
2026-01-28 14:03:51.64	26.54	13.03	-37.7	-38.7	22.9	0.00e+00	0	32	0	245366784	48	6200
2026-01-28 14:03:52.65	26.60	13.12	-37.8	-38.8	22.9	0.00e+00	64	32	0	247463936	48	6256
2026-01-28 14:03:53.66	26.66	13.22	-37.9	-38.8	22.8	0.00e+00	0	32	0	249561088	48	6304
2026-01-28 14:03:54.67	26.72	13.31	-37.7	-38.6	23.0	0.00e+00	0	32	0	251658240	48	6159
2026-01-28 14:03:55.68	26.78	13.41	-37.7	-38.7	22.9	0.00e+00	0	32	0	252706816	48	6196
2026-01-28 14:03:56.69	26.85	13.50	-37.7	-38.7	22.9	0.00e+00	0	32	0	254803968	48	6191
2026-01-28 14:03:57.70	26.91	13.60	-37.4	-38.4	23.2	0.00e+00	10	32	0	256901120	48	5965
2026-01-28 14:03:58.71	26.97	13.69	-37.3	-38.2	23.4	0.00e+00	0	32	0	258998272	48	5839
2026-01-28 14:03:59.72	27.04	13.79	-37.4	-38.3	23.2	0.00e+00	91	32	0	261095424	48	5932
2026-01-28 14:04:00.72	27.10	13.89	-37.3	-38.2	23.3	0.00e+00	0	32	0	262144000	48	5832
2026-01-28 14:04:01.73	27.17	13.99	-37.3	-38.2	23.3	0.00e+00	0	32	0	264241152	48	5877
2026-01-28 14:04:02.74	27.23	14.08	-37.2	-38.1	23.4	0.00e+00	0	32	0	266338304	48	5819
2026-01-28 14:04:03.75	27.30	14.18	-37.2	-38.1	23.4	0.00e+00	0	32	0	268435456	48	5806
2026-01-28 14:04:04.76	27.36	14.28	-37.2	-38.1	23.4	0.00e+00	38	32	0	270532608	48	5804
2026-01-28 14:04:05.76	27.43	14.38	-37.4	-38.3	23.2	0.00e+00	0	32	0	272629760	48	5930
2026-01-28 14:04:06.77	27.49	14.48	-37.3	-38.2	23.4	0.00e+00	64	32	0	273678336	48	5841
2026-01-28 14:04:07.78	27.56	14.58	-37.4	-38.3	23.3	0.00e+00	0	32	0	275775488	48	5903
2026-01-28 14:04:08.79	27.63	14.68	-37.3	-38.2	23.3	0.00e+00	0	32	0	277872640	48	5860
2026-01-28 14:04:09.79	27.70	14.78	-37.0	-37.8	23.6	0.00e+00	0	32	0	279969792	48	5622
2026-01-28 14:04:10.80	27.76	14.88	-37.0	-37.9	23.5	0.00e+00	0	32	0	281018368	48	5646
2026-01-28 14:04:11.81	27.83	14.98	-37.2	-38.1	23.3	0.00e+00	51	32	0	283115520	48	5783
2026-01-28 14:04:12.82	27.90	15.08	-37.2	-38.1	23.5	0.00e+00	0	32	0	285212672	48	5764
2026-01-28 14:04:13.83	27.97	15.18	-37.0	-37.9	23.6	0.00e+00	68	32	0	287309824	48	5658
2026-01-28 14:04:14.84	28.04	15.28	-37.1	-38.0	23.5	0.00e+00	0	32	0	289406976	48	5708
2026-01-28 14:04:15.85	28.11	15.39	-36.8	-37.7	23.8	0.00e+00	0	32	0	290455552	48	5522
2026-01-28 14:04:16.86	28.18	15.49	-36.8	-37.7	23.7	0.00e+00	0	32	0	292552704	48	5512
2026-01-28 14:04:17.87	28.25	15.59	-36.8	-37.7	23.7	0.00e+00	0	32	0	294649856	46	6224
2026-01-28 14:04:18.88	28.33	15.70	-36.8	-37.6	23.8	0.00e+00	55	32	0	296747008	46	6172
2026-01-28 14:04:19.89	28.40	15.80	-36.7	-37.6	23.8	0.00e+00	0	32	0	298844160	46	6128
2026-01-28 14:04:20.90	28.47	15.91	-36.8	-37.6	23.7	0.00e+00	92	32	0	300941312	46	6152
2026-01-28 14:04:21.91	28.54	16.01	-36.7	-37.5	23.8	0.00e+00	0	32	0	301989888	46	6085
2026-01-28 14:04:22.92	28.62	16.12	-36.9	-37.8	23.7	0.00e+00	85	32	0	304087040	46	6255
2026-01-28 14:04:23.92	28.69	16.22	-36.8	-37.7	23.6	0.00e+00	0	32	0	306184192	46	6208
2026-01-28 14:04:24.93	28.77	16.33	-36.9	-37.7	23.7	0.00e+00	0	32	0	308281344	46	6228
2026-01-28 14:04:25.95	28.84	16.44	-36.9	-37.8	23.7	0.00e+00	0	32	0	310378496	46	6247
2026-01-28 14:04:26.95	28.92	16.54	-36.9	-37.8	23.8	0.00e+00	0	32	0	311427072	46	6252
2026-01-28 14:04:27.96	28.99	16.65	-36.9	-37.8	23.8	0.00e+00	54	32	0	313524224	46	6274
2026-01-28 14:04:28.96	29.07	16.76	-36.8	-37.7	23.8	0.00e+00	0	32	0	315621376	46	6216
2026-01-28 14:04:29.98	29.15	16.87	-36.8	-37.7	23.7	0.00e+00	92	32	0	317718528	46	6215
2026-01-28 14:04:30.98	29.23	16.98	-36.8	-37.7	23.8	0.00e+00	0	32	0	319815680	46	6200
2026-01-28 14:04:31.99	29.30	17.09	-36.6	-37.4	24.0	0.00e+00	0	32	0	320864256	46	6021
2026-01-28 14:04:33.00	29.38	17.20	-36.7	-37.5	23.9	0.00e+00	0	32	0	322961408	46	6096
2026-01-28 14:04:34.01	29.46	17.31	-36.5	-37.3	24.1	0.00e+00	0	32	0	325058560	46	5949
2026-01-28 14:04:35.02	29.54	17.42	-36.5	-37.3	24.0	0.00e+00	59	32	0	327155712	46	5951
2026-01-28 14:04:36.03	29.62	17.53	-36.4	-37.3	24.0	0.00e+00	0	32	0	329252864	46	5919
2026-01-28 14:04:37.04	29.70	17.64	-36.5	-37.3	23.9	0.00e+00	89	32	0	330301440	46	5933
2026-01-28 14:04:38.05	29.79	17.75	-36.3	-37.2	24.1	0.00e+00	0	32	0	332398592	46	5852
2026-01-28 14:04:39.06	29.87	17.87	-36.7	-37.6	23.8	0.00e+00	0	32	0	334495744	46	6126
2026-01-28 14:04:40.07	29.95	17.98	-36.6	-37.4	24.0	0.00e+00	0	32	0	336592896	46	6025
2026-01-28 14:04:41.08	30.03	18.09	-36.6	-37.5	24.0	0.00e+00	0	32	0	338690048	46	6064
2026-01-28 14:04:42.08	30.12	18.21	-36.8	-37.7	23.8	0.00e+00	35	32	0	339738624	46	6188
2026-01-28 14:04:43.09	30.20	18.32	-36.9	-37.8	23.7	0.00e+00	0	32	0	341835776	46	6249
2026-01-28 14:04:44.10	30.29	18.44	-36.8	-37.7	23.8	0.00e+00	61	32	0	343932928	46	6180
2026-01-28 14:04:45.11	30.37	18.55	-36.8	-37.7	23.8	0.00e+00	0	32	0	346030080	46	6215
2026-01-28 14:04:46.11	30.46	18.67	-36.9	-37.8	23.8	0.00e+00	35	32	0	348127232	46	6246
2026-01-28 14:04:47.12	30.55	18.78	-37.0	-37.9	23.7	0.00e+00	0	32	0	349175808	46	6327
2026-01-28 14:04:48.13	30.63	18.90	-37.1	-38.0	23.6	0.00e+00	0	32	0	351272960	46	6404
2026-01-28 14:04:49.14	30.72	19.02	-36.9	-37.8	23.8	0.00e+00	36	32	0	353370112	46	6269
2026-01-28 14:04:50.15	30.81	19.13	-37.0	-37.9	23.7	0.00e+00	0	32	0	355467264	46	6350
2026-01-28 14:04:51.15	30.90	19.25	-36.7	-37.5	23.9	0.00e+00	90	32	0	357564416	46	6079
2026-01-28 14:04:52.16	30.99	19.37	-36.8	-37.7	23.9	0.00e+00	0	32	0	358612992	46	6191
2026-01-28 14:04:53.17	31.08	19.49	-36.6	-37.5	24.1	0.00e+00	0	32	0	360710144	46	6048
2026-01-28 14:04:54.18	31.17	19.61	-36.6	-37.5	24.0	0.00e+00	0	32	0	362807296	46	6035
2026-01-28 14:04:55.19	31.27	19.73	-36.7	-37.5	23.9	0.00e+00	33	32	0	364904448	46	6090
2026-01-28 14:04:56.20	31.36	19.85	-36.7	-37.6	23.8	0.00e+00	0	32	0	367001600	46	6109
2026-01-28 14:04:57.21	31.45	19.97	-36.6	-37.4	24.0	0.00e+00	0	32	0	368050176	46	6003
2026-01-28 14:04:58.21	31.55	20.10	-36.7	-37.5	23.9	0.00e+00	90	32	0	370147328	46	6072
2026-01-28 14:04:59.23	31.64	20.22	-36.8	-37.7	23.9	0.00e+00	0	32	0	372244480	46	6199
2026-01-28 14:05:00.23	31.74	20.34	-36.7	-37.6	23.9	0.00e+00	92	32	0	374341632	46	6105
2026-01-28 14:05:01.24	31.83	20.46	-36.5	-37.3	24.2	0.00e+00	0	32	0	376438784	46	5927
2026-01-28 14:05:02.25	31.93	20.59	-36.6	-37.5	24.1	0.00e+00	0	32	0	377487360	46	6050
2026-01-28 14:05:03.26	32.03	20.71	-36.4	-37.2	24.3	0.00e+00	0	32	0	379584512	46	5876
2026-01-28 14:05:04.27	32.13	20.84	-36.5	-37.4	24.1	0.00e+00	0	32	0	381681664	46	6001
2026-01-28 14:05:05.28	32.23	20.96	-36.2	-37.0	24.3	0.00e+00	69	32	0	383778816	46	5726
2026-01-28 14:05:06.29	32.33	21.09	-36.1	-36.9	24.5	0.00e+00	0	32	0	385875968	46	5655
2026-01-28 14:05:07.29	32.43	21.22	-36.4	-37.2	24.3	0.00e+00	78	32	0	386924544	46	5860
2026-01-28 14:05:08.30	32.53	21.34	-36.2	-37.1	24.3	0.00e+00	0	32	0	389021696	46	5765
2026-01-28 14:05:09.32	32.64	21.47	-36.4	-37.3	24.2	0.00e+00	33	32	0	391118848	46	5911
2026-01-28 14:05:10.32	32.74	21.60	-36.7	-37.6	24.1	0.00e+00	0	32	0	393216000	46	6120
2026-01-28 14:05:11.33	32.84	21.73	-36.5	-37.4	24.1	0.00e+00	0	32	0	395313152	46	6000
2026-01-28 14:05:12.34	32.95	21.86	-36.5	-37.3	24.1	0.00e+00	25	32	0	397410304	46	5958
2026-01-28 14:05:13.35	33.06	21.99	-36.5	-37.3	24.1	0.00e+00	0	32	0	398458880	46	5953
2026-01-28 14:05:14.36	33.16	22.12	-36.7	-37.6	23.9	0.00e+00	64	32	0	400556032	46	6142
2026-01-28 14:05:15.37	33.27	22.25	-36.5	-37.3	24.2	0.00e+00	0	32	0	402653184	46	5944
2026-01-28 14:05:16.38	33.38	22.39	-36.2	-37.1	24.3	0.00e+00	0	32	0	404750336	46	5764
2026-01-28 14:05:17.38	33.49	22.52	-36.5	-37.3	24.2	0.00e+00	0	32	0	406847488	46	5939
2026-01-28 14:05:18.39	33.60	22.65	-36.2	-37.1	24.4	0.00e+00	0	32	0	407896064	46	5767
2026-01-28 14:05:19.40	33.71	22.78	-36.3	-37.1	24.3	0.00e+00	54	32	0	409993216	46	5826
2026-01-28 14:05:20.41	33.82	22.92	-36.3	-37.2	24.3	0.00e+00	0	32	0	412090368	46	5842
2026-01-28 14:05:21.42	33.94	23.05	-36.2	-37.0	24.4	0.00e+00	90	32	0	414187520	46	5757
2026-01-28 14:05:22.43	34.05	23.19	-36.4	-37.3	24.3	0.00e+00	0	32	0	416284672	46	5898
2026-01-28 14:05:23.44	34.17	23.33	-36.6	-37.4	24.1	0.00e+00	0	32	0	417333248	46	6020
2026-01-28 14:05:24.45	34.28	23.46	-36.6	-37.5	24.0	0.00e+00	0	32	0	419430400	46	6052
2026-01-28 14:05:25.46	34.40	23.60	-36.5	-37.3	24.1	0.00e+00	0	32	0	421527552	46	5934
2026-01-28 14:05:26.47	34.52	23.74	-36.7	-37.6	23.9	0.00e+00	49	32	0	423624704	46	6131
2026-01-28 14:05:27.47	34.64	23.88	-36.6	-37.4	23.8	0.00e+00	0	32	0	425721856	46	6032
2026-01-28 14:05:28.48	34.76	24.02	-37.0	-37.9	23.8	0.00e+00	92	32	0	426770432	46	6344
2026-01-28 14:05:29.49	34.88	24.16	-37.1	-38.0	23.6	0.00e+00	0	32	0	428867584	46	6451
2026-01-28 14:05:30.50	35.00	24.30	-36.8	-37.6	24.0	0.00e+00	92	32	0	430964736	46	6164
2026-01-28 14:05:31.51	35.12	24.44	-36.9	-37.8	23.8	0.00e+00	0	32	0	433061888	46	6276
2026-01-28 14:05:32.51	35.25	24.58	-36.9	-37.8	23.8	0.00e+00	0	32	0	435159040	46	6289
2026-01-28 14:05:33.52	35.37	24.72	-36.8	-37.6	24.0	0.00e+00	0	32	0	436207616	46	6157
2026-01-28 14:05:34.53	35.50	24.86	-37.0	-37.8	23.9	0.00e+00	0	32	0	438304768	46	6314
2026-01-28 14:05:35.54	35.63	25.01	-36.9	-37.8	23.8	0.00e+00	51	32	0	440401920	46	6247
2026-01-28 14:05:36.55	35.76	25.15	-36.9	-37.7	24.0	0.00e+00	0	32	0	442499072	46	6214
2026-01-28 14:05:37.56	35.89	25.30	-36.8	-37.6	24.0	0.00e+00	58	32	0	444596224	46	6172
2026-01-28 14:05:38.57	36.02	25.44	-37.0	-37.8	23.9	0.00e+00	0	32	0	445644800	46	6314
2026-01-28 14:05:39.58	36.15	25.59	-36.8	-37.7	24.0	0.00e+00	0	32	0	447741952	46	6186
2026-01-28 14:05:40.59	36.28	25.74	-37.0	-37.9	23.7	0.00e+00	0	32	0	449839104	46	6329
2026-01-28 14:05:41.59	36.42	25.88	-36.9	-37.7	23.9	0.00e+00	0	32	0	451936256	46	6232
2026-01-28 14:05:42.60	36.55	26.03	-37.2	-38.0	23.6	0.00e+00	16	32	0	454033408	46	6461
2026-01-28 14:05:43.61	36.69	26.18	-37.2	-38.1	23.7	0.00e+00	0	32	0	455081984	46	6500
2026-01-28 14:05:44.62	36.83	26.33	-37.0	-37.8	23.8	0.00e+00	74	32	0	457179136	46	6306
2026-01-28 14:05:45.63	36.97	26.48	-37.0	-37.8	23.8	0.00e+00	0	32	0	459276288	46	6299
2026-01-28 14:05:46.64	37.11	26.63	-37.2	-38.1	23.5	0.00e+00	0	32	0	461373440	46	6511
2026-01-28 14:05:47.65	37.25	26.78	-37.0	-37.9	23.7	0.00e+00	0	32	0	463470592	46	6376
2026-01-28 14:05:48.66	37.39	26.94	-37.0	-37.9	23.8	0.00e+00	0	32	0	464519168	46	6338
2026-01-28 14:05:49.67	37.54	27.09	-37.2	-38.1	23.6	0.00e+00	55	32	0	466616320	46	6474
2026-01-28 14:05:50.68	37.69	27.24	-37.2	-38.0	23.5	0.00e+00	0	32	0	468713472	46	6456
2026-01-28 14:05:51.69	37.83	27.40	-37.1	-38.0	23.6	0.00e+00	80	32	0	470810624	46	6391
2026-01-28 14:05:52.70	37.98	27.55	-37.5	-38.4	23.5	0.00e+00	0	32	0	472907776	46	6745
2026-01-28 14:05:53.71	38.13	27.71	-37.5	-38.4	23.5	0.00e+00	50	32	0	473956352	46	6703
2026-01-28 14:05:54.72	38.29	27.87	-37.6	-38.5	23.4	0.00e+00	0	32	0	476053504	46	6789
2026-01-28 14:05:55.73	38.44	28.02	-37.7	-38.6	21.8	0.00e+00	0	32	0	478150656	46	6923
2026-01-28 14:05:56.74	38.59	28.18	-37.9	-38.8	23.0	0.00e+00	49	32	0	480247808	48	6302
2026-01-28 14:05:57.75	38.75	28.34	-38.0	-39.0	22.8	0.00e+00	0	32	0	482344960	48	6392
2026-01-28 14:05:58.75	38.91	28.50	-38.3	-39.3	22.6	0.00e+00	49	32	0	483393536	48	6673
2026-01-28 14:05:59.76	39.07	28.66	-38.7	-39.7	22.5	0.00e+00	0	32	0	485490688	48	6974
2026-01-28 14:06:00.77	39.23	28.82	-38.7	-39.7	22.3	0.00e+00	90	32	0	487587840	50	6201
2026-01-28 14:06:01.78	39.39	28.98	-39.0	-40.1	22.2	0.00e+00	0	32	0	489684992	50	6469
2026-01-28 14:06:02.79	39.55	29.14	-39.4	-40.6	21.7	0.00e+00	0	32	0	491782144	50	6861
2026-01-28 14:06:03.80	39.72	29.30	-39.6	-40.7	21.5	0.00e+00	9	32	0	493879296	50	6984
2026-01-28 14:06:04.81	39.89	29.47	-40.1	-41.3	21.0	0.00e+00	0	32	0	494927872	52	6670
2026-01-28 14:06:05.82	40.06	29.63	-40.3	-41.6	20.9	0.00e+00	52	32	0	497025024	52	6852
2026-01-28 14:06:06.83	40.23	29.80	-40.1	-41.4	21.0	0.00e+00	0	32	0	499122176	52	6699
2026-01-28 14:06:07.84	40.40	29.96	-39.9	-41.1	21.2	0.00e+00	56	32	0	501219328	52	6479
2026-01-28 14:06:08.85	40.57	30.13	-39.9	-41.1	21.0	0.00e+00	0	32	0	503316480	52	6536
2026-01-28 14:06:09.86	40.75	30.29	-39.7	-40.8	21.3	0.00e+00	0	32	0	504365056	52	6311
2026-01-28 14:06:10.87	40.93	30.46	-39.5	-40.7	21.7	0.00e+00	0	32	0	506462208	52	6190
2026-01-28 14:06:11.88	41.11	30.63	-39.5	-40.6	21.9	0.00e+00	0	32	0	508559360	52	6147
2026-01-28 14:06:12.89	41.29	30.80	-39.0	-40.0	22.1	0.00e+00	35	32	0	510656512	52	5725
2026-01-28 14:06:13.90	41.47	30.97	-38.9	-40.0	22.2	0.00e+00	0	32	0	512753664	52	5720
2026-01-28 14:06:14.91	41.66	31.14	-39.0	-40.0	22.2	0.00e+00	75	32	0	513802240	52	5736
2026-01-28 14:06:15.92	41.84	31.31	-38.7	-39.7	22.4	0.00e+00	0	32	0	515899392	52	5563
2026-01-28 14:06:16.93	42.03	31.48	-38.6	-39.6	22.6	0.00e+00	33	32	0	517996544	50	6107
2026-01-28 14:06:17.94	42.22	31.65	-38.5	-39.5	22.6	0.00e+00	0	32	0	520093696	50	6067
2026-01-28 14:06:18.95	42.42	31.83	-38.3	-39.2	22.8	0.00e+00	0	32	0	522190848	50	5865
2026-01-28 14:06:19.96	42.61	32.00	-38.7	-39.7	22.4	0.00e+00	54	32	0	523239424	50	6187
2026-01-28 14:06:20.97	42.81	32.18	-38.5	-39.5	22.6	0.00e+00	0	32	0	525336576	50	6085
2026-01-28 14:06:21.98	43.01	32.35	-38.4	-39.4	22.7	0.00e+00	66	33	0	527433728	50	6027
2026-01-28 14:06:22.99	43.21	32.53	-38.6	-39.6	22.7	0.00e+00	0	32	0	529530880	50	6118
2026-01-28 14:06:24.00	43.41	32.70	-38.6	-39.6	22.4	0.00e+00	0	32	0	531628032	50	6142
2026-01-28 14:06:25.01	43.62	32.88	-38.4	-39.4	22.5	0.00e+00	0	32	0	532676608	50	5965
2026-01-28 14:06:26.02	43.83	33.06	-38.7	-39.7	22.4	0.00e+00	0	32	0	534773760	50	6205
2026-01-28 14:06:27.03	44.04	33.24	-38.2	-39.2	22.6	0.00e+00	57	32	0	536870912	50	5854
2026-01-28 14:06:28.04	44.25	33.41	-37.9	-38.9	23.1	0.00e+00	0	32	0	538968064	50	5658
2026-01-28 14:06:29.05	44.46	33.59	-37.7	-38.6	23.4	0.00e+00	55	32	0	541065216	48	6157
2026-01-28 14:06:30.06	44.68	33.77	-37.4	-38.2	23.4	0.00e+00	0	32	0	542113792	48	5872
2026-01-28 14:06:31.07	44.90	33.96	-37.5	-38.3	23.4	0.00e+00	0	32	0	544210944	48	5958
2026-01-28 14:06:32.08	45.12	34.14	-37.5	-38.3	23.5	0.00e+00	0	32	0	546308096	48	5957
2026-01-28 14:06:33.08	45.34	34.32	-37.7	-38.7	23.2	0.00e+00	0	32	0	548405248	48	6183
2026-01-28 14:06:34.10	45.57	34.50	-37.9	-38.9	23.1	0.00e+00	0	32	0	550502400	48	6323
2026-01-28 14:06:35.10	45.80	34.68	-38.0	-39.0	23.0	0.00e+00	0	32	0	551550976	48	6415
2026-01-28 14:06:36.11	46.03	34.87	-38.1	-39.1	22.9	0.00e+00	22	32	0	553648128	48	6507
2026-01-28 14:06:37.12	46.27	35.05	-38.3	-39.3	22.6	0.00e+00	0	32	0	555745280	48	6620
2026-01-28 14:06:38.13	46.50	35.24	-38.4	-39.4	22.1	0.00e+00	62	32	0	557842432	48	6706
2026-01-28 14:06:39.14	46.74	35.42	-37.8	-38.7	23.0	0.00e+00	0	32	0	559939584	48	6242
2026-01-28 14:06:40.15	46.98	35.61	-38.1	-39.1	22.8	0.00e+00	0	32	0	562036736	48	6487
2026-01-28 14:06:41.16	47.23	35.79	-37.7	-38.6	23.3	0.00e+00	0	32	0	563085312	48	6133
2026-01-28 14:06:42.17	47.48	35.98	-37.3	-38.1	23.7	0.00e+00	0	32	0	565182464	48	5819
2026-01-28 14:06:43.18	47.73	36.17	-37.0	-37.8	23.8	0.00e+00	59	32	0	567279616	48	5618
2026-01-28 14:06:44.19	47.98	36.36	-37.1	-37.9	23.8	0.00e+00	0	32	0	569376768	48	5687
2026-01-28 14:06:45.20	48.24	36.55	-37.0	-37.9	23.8	0.00e+00	92	32	0	571473920	46	6322
2026-01-28 14:06:46.21	48.50	36.73	-36.9	-37.7	23.9	0.00e+00	0	32	0	572522496	46	6237
2026-01-28 14:06:47.22	48.76	36.92	-37.5	-38.4	23.4	0.00e+00	0	32	0	574619648	46	6705
2026-01-28 14:06:48.23	49.02	37.11	-37.4	-38.3	23.5	0.00e+00	0	32	0	576716800	46	6639
2026-01-28 14:06:49.24	49.29	37.30	-37.1	-37.9	23.9	0.00e+00	0	32	0	578813952	46	6387
2026-01-28 14:06:50.25	49.56	37.49	-37.0	-37.9	23.6	0.00e+00	22	32	0	580911104	46	6344
2026-01-28 14:06:51.25	49.83	37.68	-36.8	-37.6	24.1	0.00e+00	0	32	0	581959680	46	6172
2026-01-28 14:06:52.27	50.11	37.88	-36.7	-37.5	24.0	0.00e+00	92	32	0	584056832	46	6063
2026-01-28 14:06:53.27	50.39	38.07	-36.4	-37.3	24.3	0.00e+00	0	32	0	586153984	46	5904
2026-01-28 14:06:54.28	50.68	38.26	-36.6	-37.5	24.1	0.00e+00	0	32	0	588251136	46	6052
2026-01-28 14:06:55.29	50.96	38.45	-36.5	-37.4	24.2	0.00e+00	0	32	0	590348288	46	5977
2026-01-28 14:06:56.30	51.25	38.65	-36.8	-37.7	24.0	0.00e+00	0	32	0	591396864	46	6178
2026-01-28 14:06:57.31	51.55	38.84	-37.1	-38.0	23.7	0.00e+00	58	32	0	593494016	46	6457
2026-01-28 14:06:58.32	51.85	39.03	-37.5	-38.5	23.3	0.00e+00	0	32	0	595591168	46	6799
2026-01-28 14:06:59.33	52.15	39.23	-37.6	-38.5	23.4	0.00e+00	68	32	0	597688320	46	6844
2026-01-28 14:07:00.34	52.45	39.42	-37.4	-38.3	23.5	0.00e+00	0	32	0	599785472	46	6674
2026-01-28 14:07:01.35	52.76	39.61	-37.5	-38.4	23.5	0.00e+00	6	32	0	600834048	46	6724
2026-01-28 14:07:02.35	53.07	39.81	-37.4	-38.3	23.6	0.00e+00	0	32	0	602931200	46	6621
2026-01-28 14:07:03.36	53.39	40.00	-37.2	-38.1	23.7	0.00e+00	0	32	0	605028352	46	6506
2026-01-28 14:07:04.37	53.71	40.19	-37.3	-38.2	23.9	0.00e+00	57	32	0	607125504	46	6574
2026-01-28 14:07:05.38	54.03	40.39	-37.0	-37.9	23.8	0.00e+00	0	32	0	609222656	46	6359
2026-01-28 14:07:06.39	54.36	40.58	-37.3	-38.2	23.6	0.00e+00	92	32	0	610271232	46	6543
2026-01-28 14:07:07.40	54.69	40.78	-36.7	-37.5	24.1	0.00e+00	0	32	0	612368384	46	6065
2026-01-28 14:07:08.41	55.02	40.97	-36.8	-37.6	24.0	0.00e+00	54	32	0	614465536	46	6125
2026-01-28 14:07:09.41	55.36	41.17	-36.9	-37.7	23.8	0.00e+00	0	32	0	616562688	46	6212
2026-01-28 14:07:10.42	55.70	41.36	-37.3	-38.2	23.3	0.00e+00	0	32	0	618659840	46	6562
2026-01-28 14:07:11.43	56.05	41.56	-37.5	-38.4	23.4	0.00e+00	0	32	0	619708416	46	6755
2026-01-28 14:07:12.44	56.40	41.75	-38.0	-39.0	22.9	0.00e+00	0	32	0	621805568	48	6453
2026-01-28 14:07:13.45	56.75	41.94	-37.6	-38.6	23.3	0.00e+00	92	32	0	623902720	48	6120
2026-01-28 14:07:14.46	57.11	42.14	-37.6	-38.6	23.3	0.00e+00	0	32	0	625999872	48	6113
2026-01-28 14:07:15.47	57.48	42.33	-37.2	-38.1	23.7	0.00e+00	52	32	0	628097024	48	5792
2026-01-28 14:07:16.48	57.85	42.53	-37.2	-38.1	23.7	0.00e+00	0	32	0	630194176	48	5789
2026-01-28 14:07:17.49	58.22	42.72	-37.1	-38.0	23.6	0.00e+00	0	32	0	631242752	48	5733
2026-01-28 14:07:18.50	58.60	42.91	-37.2	-38.2	23.5	0.00e+00	0	32	0	633339904	48	5831
2026-01-28 14:07:19.51	58.98	43.10	-36.9	-37.8	23.8	0.00e+00	0	32	0	635437056	48	5607
2026-01-28 14:07:20.52	59.36	43.30	-36.9	-37.8	24.0	0.00e+00	86	32	0	637534208	46	6303
2026-01-28 14:07:21.52	59.75	43.49	-36.8	-37.7	24.1	0.00e+00	0	32	0	639631360	46	6183
2026-01-28 14:07:22.53	60.15	43.68	-37.2	-38.1	23.7	0.00e+00	92	32	0	640679936	46	6469
2026-01-28 14:07:23.54	60.55	43.87	-37.6	-38.5	23.3	0.00e+00	0	32	0	642777088	46	6832
2026-01-28 14:07:24.55	60.95	44.06	-37.3	-38.2	23.7	0.00e+00	0	32	0	644874240	46	6558
2026-01-28 14:07:25.56	61.36	44.25	-37.4	-38.3	23.5	0.00e+00	0	32	0	646971392	46	6679
2026-01-28 14:07:26.57	61.77	44.44	-37.3	-38.3	23.4	0.00e+00	0	32	0	649068544	46	6620
2026-01-28 14:07:27.58	62.19	44.63	-37.6	-38.5	23.2	0.00e+00	55	32	0	650117120	46	6806
2026-01-28 14:07:28.59	62.62	44.81	-38.0	-39.0	23.2	0.00e+00	0	32	0	652214272	48	6464
2026-01-28 14:07:29.60	63.05	45.00	-38.1	-39.1	22.9	0.00e+00	69	32	0	654311424	48	6491
2026-01-28 14:07:30.61	63.48	45.18	-38.4	-39.4	22.8	0.00e+00	0	32	0	656408576	48	6710
2026-01-28 14:07:31.61	63.92	45.37	-38.8	-39.9	22.3	0.00e+00	21	32	0	658505728	50	6346
2026-01-28 14:07:32.62	64.36	45.55	-38.8	-39.9	22.3	0.00e+00	0	32	0	659554304	50	6333
2026-01-28 14:07:33.63	64.81	45.73	-39.0	-40.0	22.2	0.00e+00	0	32	0	661651456	50	6458
2026-01-28 14:07:34.64	65.27	45.92	-38.2	-39.2	22.6	0.00e+00	9	32	0	663748608	50	5850
2026-01-28 14:07:35.65	65.73	46.10	-37.9	-38.9	23.0	0.00e+00	0	32	0	665845760	50	5672
2026-01-28 14:07:36.66	66.19	46.28	-37.3	-38.2	23.4	0.00e+00	92	32	0	667942912	48	5888
2026-01-28 14:07:37.68	66.67	46.45	-37.3	-38.2	23.6	0.00e+00	0	32	0	668991488	48	5891
2026-01-28 14:07:38.69	67.14	46.63	-37.0	-37.8	23.9	0.00e+00	31	32	0	671088640	48	5630
2026-01-28 14:07:39.70	67.62	46.81	-37.1	-38.0	23.8	0.00e+00	0	32	0	673185792	48	5707
2026-01-28 14:07:40.71	68.11	46.98	-36.6	-37.5	24.2	0.00e+00	0	32	0	675282944	46	6036
2026-01-28 14:07:41.71	68.60	47.15	-36.8	-37.7	24.0	0.00e+00	60	32	0	677380096	46	6191
2026-01-28 14:07:42.72	69.09	47.32	-36.8	-37.6	24.1	0.00e+00	0	32	0	678428672	46	6148
2026-01-28 14:07:43.73	69.60	47.49	-37.0	-37.9	23.8	0.00e+00	58	32	0	680525824	46	6335
2026-01-28 14:07:44.74	70.10	47.66	-36.6	-37.5	24.2	0.00e+00	0	32	0	682622976	46	6048
2026-01-28 14:07:45.75	70.62	47.82	-36.6	-37.5	24.2	0.00e+00	82	32	0	684720128	46	6045
2026-01-28 14:07:46.76	71.14	47.99	-36.4	-37.2	24.0	0.00e+00	0	32	0	686817280	46	5869
2026-01-28 14:07:47.77	71.66	48.15	-37.2	-38.1	23.8	0.00e+00	0	32	0	687865856	46	6471
2026-01-28 14:07:48.78	72.19	48.31	-37.2	-38.0	23.6	0.00e+00	41	32	0	689963008	46	6456
2026-01-28 14:07:49.79	72.72	48.47	-37.1	-38.0	23.8	0.00e+00	0	32	0	692060160	46	6414
2026-01-28 14:07:50.80	73.26	48.62	-37.0	-37.9	23.8	0.00e+00	38	32	0	694157312	46	6320
2026-01-28 14:07:51.81	73.81	48.78	-36.9	-37.7	23.9	0.00e+00	0	33	0	696254464	46	6215
2026-01-28 14:07:52.81	74.36	48.93	-37.7	-38.6	23.2	0.00e+00	77	32	0	697303040	46	6917
2026-01-28 14:07:53.82	74.91	49.08	-37.5	-38.5	23.5	0.00e+00	0	32	0	699400192	46	6773
2026-01-28 14:07:54.83	75.48	49.22	-36.7	-37.6	24.1	0.00e+00	0	33	0	701497344	46	6125
2026-01-28 14:07:55.84	76.04	49.37	-36.5	-37.3	23.6	0.00e+00	0	32	0	703594496	46	5938
2026-01-28 14:07:56.85	76.62	49.51	-36.8	-37.7	23.9	0.00e+00	0	32	0	705691648	46	6174
2026-01-28 14:07:57.86	77.19	49.65	-37.0	-37.9	23.7	0.00e+00	57	32	0	706740224	46	6363
2026-01-28 14:07:58.87	77.78	49.79	-37.5	-38.4	23.6	0.00e+00	0	32	0	708837376	46	6716
2026-01-28 14:07:59.88	78.36	49.92	-37.4	-38.3	23.5	0.00e+00	92	32	0	710934528	46	6651
2026-01-28 14:08:00.89	78.96	50.05	-37.3	-38.1	23.6	0.00e+00	0	32	0	713031680	46	6528
2026-01-28 14:08:01.90	79.56	50.18	-37.8	-38.7	23.2	0.00e+00	0	32	0	715128832	48	6213
2026-01-28 14:08:02.91	80.16	50.30	-37.4	-38.3	23.6	0.00e+00	0	32	0	716177408	48	5918
2026-01-28 14:08:03.92	80.77	50.43	-37.4	-38.3	23.5	0.00e+00	0	33	0	718274560	48	5944
2026-01-28 14:08:04.93	81.38	50.55	-38.3	-39.3	22.7	0.00e+00	60	33	0	720371712	48	6685
2026-01-28 14:08:05.94	82.00	50.66	-38.8	-39.9	22.3	0.00e+00	0	32	0	722468864	50	6338
2026-01-28 14:08:06.94	82.62	50.77	-38.8	-39.9	22.2	0.00e+00	92	32	0	724566016	50	6335
2026-01-28 14:08:07.95	83.24	50.88	-38.7	-39.8	22.3	0.00e+00	0	32	0	726663168	50	6291
2026-01-28 14:08:08.96	83.88	50.99	-38.2	-39.2	22.8	0.00e+00	0	32	0	727711744	50	5864
2026-01-28 14:08:09.97	84.51	51.09	-38.4	-39.4	22.7	0.00e+00	0	32	0	729808896	50	5988
2026-01-28 14:08:10.97	85.15	51.19	-37.8	-38.7	23.3	0.00e+00	0	32	0	731906048	50	5558
2026-01-28 14:08:11.98	85.79	51.29	-37.5	-38.4	23.4	0.00e+00	0	32	0	734003200	48	5993
2026-01-28 14:08:12.99	86.44	51.38	-36.7	-37.6	24.0	0.00e+00	0	32	0	736100352	48	5485
2026-01-28 14:08:14.00	87.09	51.47	-37.2	-38.1	23.7	0.00e+00	62	32	0	737148928	46	6533
2026-01-28 14:08:15.01	87.75	51.56	-36.1	-36.9	24.6	0.00e+00	0	32	0	739246080	46	5633
2026-01-28 14:08:16.02	88.41	51.64	-35.7	-36.5	24.8	0.00e+00	66	32	0	741343232	44	6072
2026-01-28 14:08:17.03	89.07	51.72	-36.1	-36.9	24.4	0.00e+00	0	32	0	743440384	44	6377
2026-01-28 14:08:18.04	89.74	51.79	-36.8	-37.7	24.0	0.00e+00	0	32	0	745537536	44	6952
2026-01-28 14:08:19.05	90.41	51.86	-37.3	-38.2	23.6	0.00e+00	0	32	0	746586112	46	6600
2026-01-28 14:08:20.06	91.08	51.93	-37.0	-37.9	23.7	0.00e+00	0	32	0	748683264	46	6365
2026-01-28 14:08:21.07	91.76	51.99	-37.1	-38.0	23.7	0.00e+00	86	32	0	750780416	46	6430
2026-01-28 14:08:22.08	92.44	52.05	-37.0	-37.9	23.9	0.00e+00	0	32	0	752877568	46	6363
2026-01-28 14:08:23.09	93.12	52.10	-36.1	-36.8	24.6	0.00e+00	92	32	0	754974720	46	5624
2026-01-28 14:08:24.10	93.80	52.15	-35.5	-36.3	25.0	0.00e+00	0	32	0	756023296	46	5269
2026-01-28 14:08:25.11	94.49	52.20	-36.1	-36.9	24.4	0.00e+00	0	32	0	758120448	44	6367
2026-01-28 14:08:26.12	95.18	52.24	-37.0	-37.9	23.8	0.00e+00	0	32	0	760217600	46	6346
2026-01-28 14:08:27.13	95.87	52.28	-36.9	-37.8	23.8	0.00e+00	0	32	0	762314752	46	6274
2026-01-28 14:08:28.14	96.56	52.31	-37.0	-37.9	23.8	0.00e+00	39	32	0	764411904	46	6321
2026-01-28 14:08:29.15	97.25	52.34	-37.3	-38.2	23.6	0.00e+00	0	32	0	765460480	46	6585
2026-01-28 14:08:30.16	97.95	52.37	-38.0	-39.0	23.1	0.00e+00	92	32	0	767557632	48	6419
2026-01-28 14:08:31.17	98.65	52.39	-37.9	-38.8	22.9	0.00e+00	0	32	0	769654784	48	6276
2026-01-28 14:08:32.17	99.33	52.40	-36.7	-37.6	23.9	0.00e+00	0	32	0	771751936	46	6107
2026-01-28 14:08:33.18	100.03	52.42	-37.4	-38.3	23.4	0.00e+00	33	32	0	773849088	46	6640
2026-01-28 14:08:34.19	100.73	52.42	-38.3	-39.3	22.6	0.00e+00	0	32	0	774897664	48	6621
2026-01-28 14:08:35.20	101.43	52.43	-38.5	-39.5	22.6	0.00e+00	60	32	0	776994816	48	6822
2026-01-28 14:08:36.21	102.13	52.43	-37.2	-38.1	23.8	0.00e+00	33	32	0	779091968	48	5763
2026-01-28 14:08:37.22	102.82	52.42	-37.1	-38.0	23.8	0.00e+00	92	32	0	781189120	46	6397
2026-01-28 14:08:38.23	103.52	52.41	-37.4	-38.3	23.3	0.00e+00	0	32	0	783286272	46	6625
2026-01-28 14:08:39.24	104.22	52.40	-38.4	-39.4	22.5	0.00e+00	33	32	0	784334848	48	6737
2026-01-28 14:08:40.25	104.92	52.38	-38.2	-39.2	22.8	0.00e+00	0	32	0	786432000	48	6549
2026-01-28 14:08:41.26	105.61	52.36	-37.5	-38.5	23.3	0.00e+00	0	32	0	788529152	48	6044
2026-01-28 14:08:42.27	106.31	52.33	-36.9	-37.8	23.9	0.00e+00	42	32	0	790626304	48	5572
2026-01-28 14:08:43.28	107.00	52.30	-36.2	-37.0	24.5	0.00e+00	0	32	0	792723456	46	5708
2026-01-28 14:08:44.29	107.69	52.27	-35.8	-36.6	24.6	0.00e+00	92	32	0	794820608	46	5476
2026-01-28 14:08:45.30	108.38	52.23	-36.2	-37.0	24.1	0.00e+00	0	32	0	795869184	46	5735
2026-01-28 14:08:46.31	109.07	52.19	-36.3	-37.1	24.4	0.00e+00	0	32	0	797966336	46	5799
2026-01-28 14:08:47.32	109.76	52.14	-36.2	-37.1	24.5	0.00e+00	0	32	0	800063488	46	5769
2026-01-28 14:08:48.33	110.44	52.09	-36.0	-36.8	24.7	0.00e+00	0	32	0	802160640	46	5612
2026-01-28 14:08:49.33	111.11	52.03	-35.8	-36.6	24.9	0.00e+00	0	32	0	804257792	44	6171
2026-01-28 14:08:50.34	111.79	51.97	-35.6	-36.4	25.0	0.00e+00	0	32	0	805306368	44	5990
2026-01-28 14:08:51.35	112.47	51.91	-35.4	-36.1	25.0	0.00e+00	91	32	0	807403520	44	5821
2026-01-28 14:08:52.36	113.14	51.84	-35.5	-36.3	25.0	0.00e+00	0	32	0	809500672	44	5926
2026-01-28 14:08:53.37	113.81	51.77	-35.9	-36.7	24.7	0.00e+00	83	32	0	811597824	44	6194
2026-01-28 14:08:54.38	114.48	51.70	-36.2	-37.0	24.3	0.00e+00	0	32	0	813694976	44	6462
2026-01-28 14:08:55.39	115.14	51.62	-36.4	-37.2	24.3	0.00e+00	0	32	0	814743552	44	6605
2026-01-28 14:08:56.40	115.80	51.53	-36.1	-36.9	24.5	0.00e+00	33	32	0	816840704	44	6345
2026-01-28 14:08:57.41	116.46	51.45	-36.2	-37.0	24.3	0.00e+00	0	33	0	818937856	44	6421
2026-01-28 14:08:58.42	117.11	51.36	-37.4	-38.4	23.5	0.00e+00	91	32	0	821035008	46	6698
2026-01-28 14:08:59.43	117.76	51.26	-38.0	-39.0	23.0	0.00e+00	0	33	0	823132160	48	6445
2026-01-28 14:09:00.44	118.40	51.17	-37.6	-38.5	23.3	0.00e+00	60	32	0	824180736	48	6082
2026-01-28 14:09:01.44	119.04	51.07	-37.1	-38.0	23.6	0.00e+00	0	32	0	826277888	48	5729
2026-01-28 14:09:02.45	119.67	50.96	-36.7	-37.5	24.1	0.00e+00	0	32	0	828375040	46	6100
2026-01-28 14:09:03.46	120.30	50.85	-37.2	-38.1	23.5	0.00e+00	0	32	0	830472192	46	6478
2026-01-28 14:09:04.47	120.93	50.74	-36.6	-37.4	24.3	0.00e+00	0	33	0	832569344	46	6027
2026-01-28 14:09:05.48	121.55	50.63	-35.7	-36.5	24.8	0.00e+00	45	33	0	833617920	46	5391
2026-01-28 14:09:06.49	122.17	50.51	-36.0	-36.9	24.6	0.00e+00	0	33	0	835715072	44	6323
2026-01-28 14:09:07.50	122.78	50.39	-37.1	-38.0	23.9	0.00e+00	91	33	0	837812224	46	6444
2026-01-28 14:09:08.51	123.39	50.27	-37.9	-38.8	23.2	0.00e+00	0	33	0	839909376	48	6276
2026-01-28 14:09:09.51	123.99	50.14	-37.6	-38.5	23.3	0.00e+00	0	32	0	842006528	48	6094
2026-01-28 14:09:10.52	124.59	50.01	-37.4	-38.4	23.6	0.00e+00	0	32	0	843055104	48	5965
2026-01-28 14:09:11.53	125.18	49.88	-36.8	-37.6	23.9	0.00e+00	0	32	0	845152256	48	5493
2026-01-28 14:09:12.54	125.77	49.75	-36.8	-37.6	24.3	0.00e+00	31	32	0	847249408	46	6142
2026-01-28 14:09:13.55	126.35	49.61	-36.8	-37.6	24.0	0.00e+00	0	32	0	849346560	46	6170
2026-01-28 14:09:14.56	126.93	49.47	-37.5	-38.4	23.6	0.00e+00	92	32	0	851443712	46	6729
2026-01-28 14:09:15.57	127.50	49.33	-37.6	-38.5	23.4	0.00e+00	0	32	0	852492288	46	6833
2026-01-28 14:09:16.58	128.07	49.18	-37.3	-38.2	23.6	0.00e+00	0	32	0	854589440	46	6565
2026-01-28 14:09:17.59	128.63	49.03	-37.6	-38.5	23.3	0.00e+00	0	32	0	856686592	48	6076
2026-01-28 14:09:18.60	129.18	48.88	-37.6	-38.6	23.1	0.00e+00	0	32	0	858783744	48	6120
2026-01-28 14:09:19.60	129.73	48.73	-37.6	-38.5	23.4	0.00e+00	53	32	0	860880896	48	6049
2026-01-28 14:09:20.61	130.27	48.58	-36.7	-37.6	24.2	0.00e+00	0	32	0	861929472	48	5442
2026-01-28 14:09:21.62	130.81	48.42	-36.2	-37.1	24.4	0.00e+00	92	32	0	864026624	46	5775
2026-01-28 14:09:22.63	131.35	48.26	-36.8	-37.7	23.9	0.00e+00	0	32	0	866123776	46	6218
2026-01-28 14:09:23.63	131.87	48.10	-38.2	-39.2	22.9	0.00e+00	36	32	0	868220928	48	6552
2026-01-28 14:09:24.64	132.40	47.94	-39.2	-40.3	22.1	0.00e+00	0	33	0	870318080	50	6626
2026-01-28 14:09:25.65	132.92	47.77	-40.2	-41.4	21.0	0.00e+00	0	32	0	871366656	52	6754
2026-01-28 14:09:26.66	133.43	47.61	-40.3	-41.5	20.9	0.00e+00	0	32	0	873463808	52	6844
2026-01-28 14:09:27.67	133.94	47.44	-39.9	-41.1	21.2	0.00e+00	0	33	0	875560960	52	6503
2026-01-28 14:09:28.68	134.44	47.27	-39.3	-40.4	21.8	0.00e+00	86	32	0	877658112	52	6004
2026-01-28 14:09:29.69	134.93	47.10	-39.4	-40.4	21.8	0.00e+00	0	32	0	879755264	52	6027
2026-01-28 14:09:30.70	135.43	46.92	-40.6	-41.9	20.4	0.00e+00	92	32	0	880803840	52	7138
2026-01-28 14:09:31.71	135.91	46.75	-43.3	-45.5	17.0	0.00e+00	0	32	0	882900992	58	7622
2026-01-28 14:09:32.72	136.39	46.57	-43.4	-45.6	17.6	0.00e+00	0	32	0	884998144	60	6866
2026-01-28 14:09:33.73	136.87	46.40	-42.0	-43.6	19.4	0.00e+00	0	32	0	887095296	58	6167
2026-01-28 14:09:34.74	137.34	46.22	-40.5	-41.8	20.3	0.00e+00	0	32	0	889192448	56	5573
2026-01-28 14:09:35.75	137.80	46.04	-41.2	-42.6	19.8	0.00e+00	54	32	0	891289600	54	6902
2026-01-28 14:09:36.76	138.26	45.86	-42.0	-43.7	18.7	0.00e+00	0	32	0	892338176	56	6977
2026-01-28 14:09:37.76	138.71	45.67	-41.9	-43.6	19.0	0.00e+00	92	33	0	894435328	56	6893
2026-01-28 14:09:38.77	139.16	45.49	-41.8	-43.5	19.2	0.00e+00	0	32	0	896532480	56	6828
2026-01-28 14:09:39.78	139.60	45.31	-42.4	-44.2	18.6	0.00e+00	0	32	0	898629632	56	7387
2026-01-28 14:09:40.79	140.04	45.12	-42.5	-44.4	18.5	0.00e+00	0	32	0	900726784	56	7517
2026-01-28 14:09:41.80	140.48	44.93	-42.8	-44.7	18.2	0.00e+00	0	32	0	901775360	58	6984
2026-01-28 14:09:42.81	140.90	44.75	-42.2	-44.0	18.7	0.00e+00	49	33	0	903872512	58	6400
2026-01-28 14:09:43.82	141.33	44.56	-42.3	-44.0	18.7	0.00e+00	0	33	0	905969664	58	6421
2026-01-28 14:09:44.83	141.75	44.37	-41.8	-43.4	19.2	0.00e+00	90	33	0	908066816	56	6749
2026-01-28 14:09:45.84	142.16	44.18	-42.0	-43.7	19.0	0.00e+00	0	33	0	910163968	56	6956
2026-01-28 14:09:46.85	142.57	43.99	-41.8	-43.4	19.3	0.00e+00	0	33	0	911212544	56	6750
2026-01-28 14:09:47.86	142.97	43.80	-41.4	-42.9	19.8	0.00e+00	0	32	0	913309696	56	6353
2026-01-28 14:09:48.87	143.37	43.61	-41.3	-42.8	20.2	0.00e+00	0	32	0	915406848	56	6284
2026-01-28 14:09:49.88	143.77	43.41	-41.1	-42.5	19.8	0.00e+00	56	33	0	917504000	56	6084
2026-01-28 14:09:50.89	144.16	43.22	-41.1	-42.5	19.8	0.00e+00	0	33	0	919601152	56	6042
2026-01-28 14:09:51.89	144.54	43.03	-41.8	-43.5	19.0	0.00e+00	92	33	0	920649728	56	6770
2026-01-28 14:09:52.90	144.92	42.84	-42.7	-44.8	17.9	0.00e+00	0	33	0	922746880	56	7915
2026-01-28 14:09:53.91	145.30	42.64	-42.9	-44.9	18.1	0.00e+00	92	33	0	924844032	58	7125
2026-01-28 14:09:54.92	145.67	42.45	-41.6	-43.2	19.5	0.00e+00	0	32	0	926941184	56	6564
2026-01-28 14:09:55.93	146.04	42.26	-40.4	-41.7	20.8	0.00e+00	0	33	0	929038336	54	6189
2026-01-28 14:09:56.94	146.40	42.06	-39.6	-40.7	21.7	0.00e+00	17	33	0	930086912	52	6206
2026-01-28 14:09:57.95	146.76	41.87	-39.9	-41.1	21.2	0.00e+00	0	32	0	932184064	52	6494
2026-01-28 14:09:58.96	147.12	41.67	-41.9	-43.6	19.0	0.00e+00	54	32	0	934281216	54	7712
2026-01-28 14:09:59.97	147.47	41.48	-41.8	-43.4	19.3	0.00e+00	0	32	0	936378368	56	6722
2026-01-28 14:10:00.98	147.81	41.28	-40.4	-41.7	20.8	0.00e+00	90	33	0	938475520	54	6187
2026-01-28 14:10:01.99	148.16	41.08	-39.1	-40.2	22.2	0.00e+00	0	32	0	939524096	52	5836
2026-01-28 14:10:03.00	148.49	40.89	-38.3	-39.3	22.9	0.00e+00	0	33	0	941621248	50	5908
2026-01-28 14:10:04.01	148.83	40.69	-37.6	-38.5	23.4	0.00e+00	0	33	0	943718400	48	6084
2026-01-28 14:10:05.02	149.16	40.50	-38.4	-39.4	22.7	0.00e+00	0	33	0	945815552	48	6744
2026-01-28 14:10:06.03	149.49	40.30	-40.3	-41.6	20.7	0.00e+00	53	32	0	947912704	52	6882
2026-01-28 14:10:07.03	149.81	40.11	-40.3	-41.6	21.0	0.00e+00	0	32	0	948961280	52	6908
2026-01-28 14:10:08.04	150.12	39.91	-38.7	-39.8	22.4	0.00e+00	92	32	0	951058432	50	6271
2026-01-28 14:10:09.05	150.44	39.72	-37.3	-38.2	23.8	0.00e+00	0	32	0	953155584	48	5852
2026-01-28 14:10:10.06	150.75	39.52	-36.8	-37.6	24.2	0.00e+00	0	32	0	955252736	48	5472
2026-01-28 14:10:11.07	151.06	39.33	-37.3	-38.2	23.5	0.00e+00	0	33	0	957349888	46	6552
2026-01-28 14:10:12.08	151.36	39.13	-39.7	-40.9	20.5	0.00e+00	0	33	0	959447040	50	7108
2026-01-28 14:10:13.09	151.66	38.94	-41.4	-43.0	19.5	0.00e+00	27	32	0	960495616	54	7220
2026-01-28 14:10:14.10	151.96	38.75	-40.2	-41.6	20.9	0.00e+00	0	32	0	962592768	54	6150
2026-01-28 14:10:15.11	152.25	38.55	-39.0	-40.1	22.1	0.00e+00	61	33	0	964689920	52	5817
2026-01-28 14:10:16.12	152.55	38.36	-38.5	-39.5	22.6	0.00e+00	0	32	0	966787072	50	6089
2026-01-28 14:10:17.12	152.83	38.17	-37.8	-38.7	23.2	0.00e+00	0	32	0	968884224	48	6234
2026-01-28 14:10:18.13	153.11	37.97	-37.7	-38.6	23.1	0.00e+00	0	32	0	969932800	48	6150
2026-01-28 14:10:19.14	153.39	37.78	-38.2	-39.2	22.9	0.00e+00	0	32	0	972029952	48	6576
2026-01-28 14:10:20.15	153.67	37.59	-38.9	-39.9	22.3	0.00e+00	35	32	0	974127104	50	6389
2026-01-28 14:10:21.16	153.94	37.40	-39.5	-40.7	21.5	0.00e+00	0	33	0	976224256	52	6226
2026-01-28 14:10:22.17	154.21	37.21	-39.0	-40.2	22.1	0.00e+00	92	32	0	978321408	52	5837
2026-01-28 14:10:23.18	154.48	37.01	-38.9	-40.0	22.3	0.00e+00	33	33	0	979369984	50	6402
2026-01-28 14:10:24.19	154.75	36.82	-37.7	-38.7	23.3	0.00e+00	73	33	0	981467136	48	6192
2026-01-28 14:10:25.20	155.01	36.63	-37.1	-37.9	23.8	0.00e+00	0	32	0	983564288	48	5673
2026-01-28 14:10:26.21	155.27	36.44	-36.6	-37.4	24.3	0.00e+00	0	32	0	985661440	46	5989
2026-01-28 14:10:27.22	155.52	36.25	-36.9	-37.8	23.8	0.00e+00	53	32	0	987758592	46	6283
2026-01-28 14:10:28.23	155.78	36.07	-37.7	-38.6	23.4	0.00e+00	0	32	0	988807168	46	6908
2026-01-28 14:10:29.24	156.03	35.88	-38.5	-39.6	22.6	0.00e+00	90	33	0	990904320	48	6875
2026-01-28 14:10:30.25	156.27	35.69	-38.5	-39.5	22.7	0.00e+00	0	33	0	993001472	48	6843
2026-01-28 14:10:31.26	156.52	35.50	-37.7	-38.6	23.3	0.00e+00	92	33	0	995098624	48	6149
2026-01-28 14:10:32.27	156.76	35.32	-37.9	-38.8	23.3	0.00e+00	0	32	0	997195776	48	6296
2026-01-28 14:10:33.28	157.00	35.13	-37.9	-38.9	23.2	0.00e+00	0	32	0	998244352	48	6320
2026-01-28 14:10:34.29	157.23	34.94	-38.2	-39.1	22.9	0.00e+00	54	33	0	1000341504	48	6513
2026-01-28 14:10:35.30	157.47	34.76	-38.5	-39.5	22.7	0.00e+00	0	32	0	1002438656	50	6073
2026-01-28 14:10:36.31	157.70	34.57	-39.0	-40.0	22.2	0.00e+00	70	32	0	1004535808	50	6438
2026-01-28 14:10:37.32	157.93	34.39	-39.9	-41.1	21.2	0.00e+00	0	32	0	1006632960	50	7301
2026-01-28 14:10:38.33	158.15	34.21	-40.6	-41.9	20.5	0.00e+00	92	33	0	1007681536	52	7127
2026-01-28 14:10:39.34	158.38	34.02	-41.4	-42.9	19.6	0.00e+00	0	33	0	1009778688	54	7127
2026-01-28 14:10:40.34	158.60	33.84	-42.3	-44.1	18.6	0.00e+00	0	33	0	1011875840	56	7259
2026-01-28 14:10:41.35	158.82	33.66	-42.0	-43.6	19.1	0.00e+00	0	32	0	1013972992	56	6911
2026-01-28 14:10:42.36	159.03	33.48	-40.7	-42.0	20.4	0.00e+00	0	33	0	1016070144	56	5740
2026-01-28 14:10:43.37	159.25	33.30	-39.8	-40.9	21.4	0.00e+00	51	33	0	1017118720	54	5679
2026-01-28 14:10:44.38	159.46	33.12	-38.8	-39.8	22.5	0.00e+00	0	33	0	1019215872	52	5587
2026-01-28 14:10:45.39	159.67	32.94	-38.0	-38.9	23.1	0.00e+00	90	33	0	1021313024	50	5683
2026-01-28 14:10:46.39	159.87	32.77	-37.8	-38.7	22.7	0.00e+00	0	33	0	1023410176	48	6231
2026-01-28 14:10:47.40	160.08	32.59	-38.5	-39.5	22.6	0.00e+00	0	32	0	1025507328	48	6795
2026-01-28 14:10:48.41	160.28	32.41	-39.2	-40.3	22.0	0.00e+00	0	33	0	1026555904	50	6640
2026-01-28 14:10:49.42	160.48	32.24	-40.4	-41.7	20.7	0.00e+00	0	32	0	1028653056	52	6928
2026-01-28 14:10:50.43	160.68	32.06	-40.7	-42.0	20.1	0.00e+00	54	32	0	1030750208	54	6452
2026-01-28 14:10:51.44	160.88	31.89	-40.6	-42.0	20.7	0.00e+00	0	32	0	1032847360	54	6407
2026-01-28 14:10:52.45	161.07	31.71	-40.6	-41.9	20.7	0.00e+00	92	32	0	1034944512	54	6318
2026-01-28 14:10:53.45	161.26	31.54	-39.5	-40.6	21.7	0.00e+00	0	32	0	1035993088	52	6121
2026-01-28 14:10:54.46	161.45	31.37	-38.8	-39.8	22.3	0.00e+00	0	32	0	1038090240	52	5623
2026-01-28 14:10:55.47	161.64	31.19	-38.2	-39.2	23.0	0.00e+00	0	32	0	1040187392	50	5838
2026-01-28 14:10:56.48	161.83	31.02	-37.8	-38.7	23.4	0.00e+00	0	32	0	1042284544	50	5553
2026-01-28 14:10:57.49	162.01	30.85	-37.5	-38.4	23.4	0.00e+00	3	32	0	1044381696	48	5990
2026-01-28 14:10:58.50	162.20	30.68	-37.4	-38.3	23.7	0.00e+00	0	33	0	1045430272	48	5901
2026-01-28 14:10:59.51	162.38	30.51	-37.6	-38.5	23.3	0.00e+00	92	32	0	1047527424	48	6082
2026-01-28 14:11:00.52	162.56	30.34	-37.9	-38.8	23.1	0.00e+00	0	32	0	1049624576	48	6266
2026-01-28 14:11:01.52	162.73	30.18	-38.9	-40.0	22.1	0.00e+00	4	32	0	1051721728	50	6397
2026-01-28 14:11:02.53	162.91	30.01	-39.7	-40.8	21.5	0.00e+00	0	33	0	1053818880	50	7044
2026-01-28 14:11:03.54	163.08	29.84	-40.2	-41.4	21.1	0.00e+00	0	32	0	1055916032	52	6742
2026-01-28 14:11:04.55	163.25	29.68	-41.0	-42.4	20.1	0.00e+00	0	33	0	1056964608	54	6743
2026-01-28 14:11:05.56	163.42	29.51	-40.6	-42.0	20.6	0.00e+00	0	33	0	1059061760	54	6391
2026-01-28 14:11:06.57	163.59	29.35	-41.0	-42.3	20.1	0.00e+00	92	32	0	1061158912	54	6677
2026-01-28 14:11:07.58	163.76	29.18	-40.4	-41.6	20.9	0.00e+00	0	33	0	1063256064	54	6154
2026-01-28 14:11:08.59	163.92	29.02	-39.4	-40.5	21.7	0.00e+00	92	32	0	1065353216	52	6085
2026-01-28 14:11:09.60	164.09	28.86	-39.2	-40.2	22.0	0.00e+00	0	32	0	1066401792	52	5886
2026-01-28 14:11:10.61	164.25	28.69	-38.3	-39.3	22.7	0.00e+00	0	33	0	1068498944	50	5936
2026-01-28 14:11:11.62	164.41	28.53	-37.9	-38.8	23.3	0.00e+00	0	33	0	1070596096	50	5583
2026-01-28 14:11:12.62	164.57	28.37	-37.5	-38.4	23.4	0.00e+00	0	32	0	1072693248	48	6012
2026-01-28 14:11:13.63	164.73	28.21	-37.5	-38.4	23.4	0.00e+00	46	33	0	1074790400	48	5984
2026-01-28 14:11:14.64	164.88	28.06	-37.5	-38.4	23.5	0.00e+00	0	32	0	1075838976	48	5998
2026-01-28 14:11:15.65	165.04	27.90	-37.8	-38.7	23.1	0.00e+00	92	33	0	1077936128	48	6230
2026-01-28 14:11:16.66	165.19	27.74	-38.6	-39.7	22.4	0.00e+00	0	32	0	1080033280	48	6989
2026-01-28 14:11:17.67	165.34	27.58	-39.1	-40.2	22.0	0.00e+00	0	32	0	1082130432	50	6586
2026-01-28 14:11:18.68	165.49	27.43	-39.0	-40.2	22.1	0.00e+00	0	32	0	1084227584	50	6590
2026-01-28 14:11:19.69	165.64	27.27	-38.8	-40.0	22.2	0.00e+00	0	33	0	1085276160	50	6399
2026-01-28 14:11:20.70	165.79	27.12	-38.4	-39.5	22.6	0.00e+00	24	33	0	1087373312	50	6035
2026-01-28 14:11:21.71	165.93	26.96	-38.0	-39.0	22.8	0.00e+00	0	33	0	1089470464	50	5751
2026-01-28 14:11:22.72	166.08	26.81	-37.7	-38.6	23.2	0.00e+00	59	32	0	1091567616	48	6169
2026-01-28 14:11:23.73	166.22	26.65	-37.5	-38.4	23.5	0.00e+00	0	32	0	1093664768	48	6004
2026-01-28 14:11:24.74	166.36	26.50	-37.0	-37.9	23.8	0.00e+00	0	32	0	1094713344	48	5653
2026-01-28 14:11:25.75	166.50	26.35	-36.4	-37.2	24.4	0.00e+00	0	32	0	1096810496	46	5888
2026-01-28 14:11:26.76	166.64	26.20	-36.9	-37.7	24.0	0.00e+00	0	33	0	1098907648	46	6216
2026-01-28 14:11:27.77	166.78	26.05	-37.1	-38.0	23.7	0.00e+00	23	33	0	1101004800	46	6400
2026-01-28 14:11:28.78	166.92	25.90	-37.7	-38.6	23.2	0.00e+00	0	33	0	1103101952	46	6911
2026-01-28 14:11:29.79	167.05	25.75	-38.5	-39.5	22.6	0.00e+00	92	32	0	1104150528	48	6791
2026-01-28 14:11:30.80	167.19	25.60	-39.1	-40.1	22.1	0.00e+00	0	33	0	1106247680	50	6531
2026-01-28 14:11:31.81	167.32	25.46	-40.1	-41.3	20.9	0.00e+00	42	33	0	1108344832	52	6659
2026-01-28 14:11:32.82	167.45	25.31	-41.1	-42.6	19.9	0.00e+00	0	32	0	1110441984	54	6884
2026-01-28 14:11:33.83	167.58	25.16	-41.2	-42.7	19.7	0.00e+00	0	33	0	1112539136	54	6998
2026-01-28 14:11:34.84	167.71	25.02	-42.2	-43.9	18.9	0.00e+00	15	33	0	1113587712	56	7090
2026-01-28 14:11:35.85	167.84	24.87	-41.9	-43.5	19.2	0.00e+00	0	33	0	1115684864	56	6810
2026-01-28 14:11:36.86	167.97	24.73	-41.4	-42.9	19.5	0.00e+00	92	33	0	1117782016	56	6379
2026-01-28 14:11:37.87	168.09	24.58	-41.0	-42.4	20.1	0.00e+00	0	33	0	1119879168	56	5965
2026-01-28 14:11:38.88	168.22	24.44	-40.1	-41.3	21.1	0.00e+00	0	33	0	1121976320	54	5962
2026-01-28 14:11:39.88	168.34	24.30	-39.4	-40.5	21.9	0.00e+00	0	32	0	1124073472	52	6057
2026-01-28 14:11:40.89	168.46	24.16	-38.8	-39.8	22.4	0.00e+00	0	33	0	1125122048	52	5626
2026-01-28 14:11:41.90	168.59	24.02	-38.5	-39.5	22.7	0.00e+00	53	33	0	1127219200	50	6083
2026-01-28 14:11:42.90	168.71	23.88	-37.9	-38.9	22.9	0.00e+00	0	33	0	1129316352	50	5631
2026-01-28 14:11:43.91	168.83	23.74	-37.6	-38.5	23.3	0.00e+00	64	32	0	1131413504	48	6091
2026-01-28 14:11:44.92	168.94	23.60	-37.6	-38.5	23.3	0.00e+00	0	33	0	1133510656	48	6092
2026-01-28 14:11:45.93	169.06	23.46	-37.6	-38.5	23.4	0.00e+00	92	33	0	1134559232	48	6059
2026-01-28 14:11:46.94	169.18	23.32	-37.3	-38.2	23.4	0.00e+00	0	32	0	1136656384	48	5849
2026-01-28 14:11:47.95	169.29	23.18	-37.4	-38.3	23.3	0.00e+00	0	33	0	1138753536	48	5941
2026-01-28 14:11:48.96	169.41	23.05	-37.6	-38.5	23.1	0.00e+00	0	32	0	1140850688	48	6059
2026-01-28 14:11:49.97	169.52	22.91	-37.8	-38.8	23.0	0.00e+00	0	33	0	1142947840	48	6293
2026-01-28 14:11:50.98	169.64	22.78	-38.1	-39.1	22.8	0.00e+00	38	33	0	1143996416	48	6471
2026-01-28 14:11:51.99	169.75	22.64	-38.4	-39.5	22.6	0.00e+00	0	32	0	1146093568	48	6798
2026-01-28 14:11:52.99	169.86	22.51	-38.4	-39.5	22.5	0.00e+00	90	32	0	1148190720	48	6778
2026-01-28 14:11:54.00	169.97	22.38	-38.5	-39.6	22.5	0.00e+00	0	33	0	1150287872	48	6859
2026-01-28 14:11:55.01	170.08	22.24	-38.4	-39.5	22.4	0.00e+00	0	33	0	1152385024	48	6812
2026-01-28 14:11:56.02	170.19	22.11	-38.3	-39.3	22.6	0.00e+00	0	33	0	1153433600	48	6669
2026-01-28 14:11:57.03	170.29	21.98	-38.6	-39.7	22.3	0.00e+00	0	33	0	1155530752	48	6981
2026-01-28 14:11:58.04	170.40	21.85	-38.3	-39.4	22.6	0.00e+00	52	33	0	1157627904	48	6745
2026-01-28 14:11:59.05	170.51	21.72	-38.3	-39.4	22.7	0.00e+00	0	33	0	1159725056	48	6705
2026-01-28 14:12:00.06	170.61	21.59	-38.0	-39.1	22.8	0.00e+00	92	32	0	1161822208	48	6478
2026-01-28 14:12:01.07	170.71	21.46	-37.8	-38.7	23.1	0.00e+00	0	33	0	1162870784	48	6241
2026-01-28 14:12:02.08	170.82	21.33	-37.6	-38.6	23.1	0.00e+00	0	33	0	1164967936	48	6150
2026-01-28 14:12:03.08	170.92	21.20	-37.8	-38.8	23.1	0.00e+00	0	33	0	1167065088	48	6288
2026-01-28 14:12:04.09	171.02	21.07	-37.8	-38.8	22.9	0.00e+00	0	33	0	1169162240	48	6261
2026-01-28 14:12:05.10	171.12	20.94	-37.7	-38.6	23.1	0.00e+00	30	32	0	1171259392	48	6145
2026-01-28 14:12:06.12	171.22	20.82	-37.8	-38.7	23.1	0.00e+00	0	33	0	1172307968	48	6212
2026-01-28 14:12:07.12	171.32	20.69	-37.6	-38.5	23.1	0.00e+00	92	33	0	1174405120	48	6103
2026-01-28 14:12:08.13	171.42	20.57	-37.6	-38.5	23.2	0.00e+00	0	33	0	1176502272	48	6063
2026-01-28 14:12:09.14	171.52	20.44	-37.5	-38.5	23.2	0.00e+00	43	33	0	1178599424	48	6039
2026-01-28 14:12:10.15	171.61	20.32	-37.5	-38.4	23.3	0.00e+00	0	33	0	1180696576	48	5977
2026-01-28 14:12:11.16	171.71	20.19	-37.2	-38.1	23.6	0.00e+00	0	33	0	1181745152	48	5813
2026-01-28 14:12:12.17	171.80	20.07	-37.1	-38.0	23.6	0.00e+00	47	33	0	1183842304	48	5739
2026-01-28 14:12:13.18	171.90	19.94	-37.1	-38.0	23.4	0.00e+00	33	32	0	1185939456	48	5737
2026-01-28 14:12:14.18	171.99	19.82	-37.1	-38.0	23.6	0.00e+00	90	32	0	1188036608	48	5735
2026-01-28 14:12:15.20	172.09	19.70	-37.1	-38.0	23.6	0.00e+00	0	33	0	1190133760	48	5732
2026-01-28 14:12:16.21	172.18	19.58	-37.2	-38.1	23.5	0.00e+00	90	33	0	1191182336	48	5784
2026-01-28 14:12:17.22	172.27	19.46	-37.0	-37.9	23.6	0.00e+00	33	32	0	1193279488	48	5642
2026-01-28 14:12:18.23	172.36	19.34	-37.0	-37.9	23.7	0.00e+00	0	33	0	1195376640	48	5643
2026-01-28 14:12:19.24	172.45	19.22	-37.1	-38.0	23.7	0.00e+00	0	32	0	1197473792	48	5716
2026-01-28 14:12:20.25	172.54	19.10	-37.0	-37.9	23.7	0.00e+00	33	32	0	1199570944	48	5690
2026-01-28 14:12:21.26	172.63	18.98	-37.0	-38.0	23.6	0.00e+00	89	33	0	1200619520	48	5700
2026-01-28 14:12:22.27	172.72	18.86	-37.0	-37.9	23.7	0.00e+00	0	33	0	1202716672	48	5657
2026-01-28 14:12:23.27	172.81	18.74	-37.0	-37.9	23.7	0.00e+00	92	33	0	1204813824	48	5685
2026-01-28 14:12:24.29	172.89	18.63	-37.0	-37.9	23.7	0.00e+00	0	33	0	1206910976	48	5639
2026-01-28 14:12:25.30	172.98	18.51	-37.1	-38.0	23.7	0.00e+00	0	33	0	1209008128	48	5719
2026-01-28 14:12:26.31	173.07	18.39	-37.1	-38.0	23.6	0.00e+00	0	33	0	1210056704	48	5723
2026-01-28 14:12:27.32	173.15	18.28	-37.1	-38.0	23.6	0.00e+00	0	33	0	1212153856	48	5737
2026-01-28 14:12:28.32	173.24	18.16	-37.2	-38.1	23.5	0.00e+00	50	33	0	1214251008	48	5808
2026-01-28 14:12:29.33	173.32	18.05	-37.0	-37.9	23.6	0.00e+00	0	33	0	1216348160	48	5681
