passes_logs/2026/01/28/R4.6S_Anadyr/R4.6S_Anadyr__20260128_084141_KOSAR1-5_rec.log

#Pass ID: 20260128_084141_KOSAR1-5
#Satellite: KOSAR1-5
#Configuration: KOSAR1-5
#almurnet v.1.7.20251203
#Start time: 2026-01-28 08:41:45

#Version: 2.2.20231116
#Station: R4.6S_Anadyr
#Location: 177.4865 lon 64.73178 lat
#TLE: 1 67264U 25313S   26027.76143924  .00010916  00000+0  50329-3 0  9990
#TLE: 2 67264  97.4176 104.7207 0016474 138.6036 221.6451 15.20309833  4594

#Time	Az	El	Level	Level2	SNR	BER	BlckErr	Temp	State	Recorded	gain1	gain2
2026-01-28 08:41:45.52	136.27	0.27	-49.0	-50.5	5.7	0.00e+00	0	30	0	0	60	41032
2026-01-28 08:41:46.52	136.23	0.33	-45.5	-60.2	3.6	1.51e+00	0	31	104	0	60	41716
2026-01-28 08:41:47.53	136.20	0.39	-45.5	-60.3	3.6	1.51e+00	0	31	104	0	60	41799
2026-01-28 08:41:48.54	136.16	0.46	-45.6	-60.3	3.6	1.51e+00	0	31	104	0	60	41885
2026-01-28 08:41:49.55	136.12	0.52	-45.6	-60.3	3.6	1.51e+00	0	31	104	0	60	42008
2026-01-28 08:41:50.56	136.09	0.59	-45.6	-60.3	3.6	1.51e+00	0	31	104	0	60	41788
2026-01-28 08:41:51.57	136.05	0.65	-45.7	-60.4	3.6	1.51e+00	0	31	104	0	60	42485
2026-01-28 08:41:52.58	136.01	0.72	-45.7	-60.3	3.6	1.51e+00	0	31	104	0	60	42083
2026-01-28 08:41:53.59	135.98	0.78	-45.6	-60.4	3.6	1.51e+00	0	31	104	0	60	42389
2026-01-28 08:41:54.60	135.94	0.85	-45.6	-60.3	3.6	1.51e+00	0	31	104	0	60	42019
2026-01-28 08:41:55.61	135.90	0.91	-45.7	-60.4	3.5	1.51e+00	0	31	104	0	60	42242
2026-01-28 08:41:56.62	135.86	0.98	-45.6	-60.3	3.6	1.51e+00	0	31	104	0	60	42034
2026-01-28 08:41:57.62	135.82	1.04	-45.6	-60.3	3.6	1.51e+00	0	31	104	0	60	41931
2026-01-28 08:41:58.64	135.78	1.11	-45.6	-60.2	3.6	1.51e+00	0	31	104	0	60	41696
2026-01-28 08:41:59.65	135.74	1.18	-45.6	-60.3	3.6	1.51e+00	0	31	104	0	60	42217
2026-01-28 08:42:00.66	135.71	1.24	-45.4	-60.1	3.6	1.51e+00	0	31	104	0	60	41014
2026-01-28 08:42:01.67	135.67	1.31	-45.4	-60.1	3.6	1.51e+00	0	31	104	0	60	41076
2026-01-28 08:42:02.68	135.63	1.38	-45.3	-60.0	3.6	1.51e+00	0	31	104	0	60	40651
2026-01-28 08:42:03.69	135.59	1.44	-45.2	-60.0	3.6	1.51e+00	0	31	104	0	60	40436
2026-01-28 08:42:04.70	135.55	1.51	-45.0	-59.8	3.6	1.51e+00	0	31	104	0	60	39588
2026-01-28 08:42:05.71	135.51	1.58	-45.0	-59.7	3.6	1.51e+00	0	31	104	0	60	39079
2026-01-28 08:42:06.72	135.46	1.64	-44.7	-59.5	3.6	1.51e+00	0	31	104	0	60	38245
2026-01-28 08:42:07.73	135.42	1.71	-44.4	-59.2	3.6	1.51e+00	0	31	104	0	60	37177
2026-01-28 08:42:08.74	135.38	1.78	-44.4	-59.2	3.6	1.51e+00	0	31	104	0	60	36953
2026-01-28 08:42:09.75	135.34	1.85	-44.4	-59.1	3.6	1.51e+00	0	31	104	0	60	36774
2026-01-28 08:42:10.76	135.30	1.92	-44.4	-59.2	3.6	1.51e+00	0	31	104	0	60	36793
2026-01-28 08:42:11.76	135.26	1.98	-44.4	-59.2	3.6	1.51e+00	0	31	104	0	60	36989
2026-01-28 08:42:12.77	135.22	2.05	-44.4	-59.2	3.6	1.51e+00	0	31	104	0	60	37112
2026-01-28 08:42:13.78	135.17	2.12	-44.4	-59.1	3.6	1.51e+00	0	31	104	0	60	36764
2026-01-28 08:42:14.79	135.13	2.19	-44.4	-59.2	3.6	1.51e+00	0	31	104	0	60	36780
2026-01-28 08:42:15.80	135.09	2.26	-44.4	-59.2	3.6	1.51e+00	0	32	104	0	60	36967
2026-01-28 08:42:16.81	135.04	2.33	-44.4	-59.1	3.6	1.51e+00	0	31	104	0	60	36761
2026-01-28 08:42:17.82	135.00	2.40	-44.4	-59.2	3.6	1.51e+00	0	31	104	0	60	36905
2026-01-28 08:42:18.83	134.96	2.47	-44.4	-59.2	3.6	1.51e+00	0	31	104	0	60	36918
2026-01-28 08:42:19.84	134.91	2.54	-44.4	-59.2	3.6	1.51e+00	0	31	104	0	60	36863
2026-01-28 08:42:20.85	134.87	2.61	-44.4	-59.2	3.6	1.51e+00	0	31	104	0	60	36879
2026-01-28 08:42:21.86	134.82	2.68	-44.4	-59.1	3.6	1.51e+00	0	32	104	0	60	36762
2026-01-28 08:42:22.87	134.78	2.75	-44.4	-59.2	3.6	1.51e+00	0	31	104	0	60	36889
2026-01-28 08:42:23.88	134.73	2.82	-44.4	-59.2	3.6	1.51e+00	0	32	104	0	60	36847
2026-01-28 08:42:24.89	134.69	2.89	-44.4	-59.2	3.6	1.51e+00	0	32	104	0	60	36848
2026-01-28 08:42:25.90	134.64	2.97	-44.4	-59.1	3.6	1.51e+00	0	32	104	0	60	36770
2026-01-28 08:42:26.91	134.59	3.04	-44.4	-59.2	3.6	1.51e+00	0	32	104	0	60	36800
2026-01-28 08:42:27.92	134.55	3.11	-44.4	-59.1	3.6	1.51e+00	0	32	104	0	60	36750
2026-01-28 08:42:28.93	134.50	3.18	-44.4	-59.2	3.6	1.51e+00	0	32	104	0	60	36887
2026-01-28 08:42:29.94	134.45	3.25	-44.4	-59.1	3.6	1.51e+00	0	32	104	0	60	36663
2026-01-28 08:42:30.95	134.40	3.33	-44.4	-59.2	3.6	1.51e+00	0	32	104	0	60	36844
2026-01-28 08:42:31.96	134.36	3.40	-44.4	-59.2	3.6	1.51e+00	0	32	104	0	60	36808
2026-01-28 08:42:32.97	134.31	3.47	-44.4	-59.2	3.6	1.51e+00	0	32	104	0	60	36888
2026-01-28 08:42:33.98	134.26	3.55	-44.4	-59.2	3.6	1.51e+00	0	32	104	0	60	36813
2026-01-28 08:42:34.99	134.21	3.62	-44.4	-59.1	3.6	1.51e+00	0	32	104	0	60	36722
2026-01-28 08:42:36.00	134.16	3.69	-44.4	-59.1	3.6	1.51e+00	0	32	104	0	60	36604
2026-01-28 08:42:37.01	134.11	3.77	-44.4	-59.1	3.6	1.51e+00	0	32	104	0	60	36675
2026-01-28 08:42:38.02	134.06	3.84	-44.4	-59.2	3.6	1.51e+00	0	32	104	0	60	36909
2026-01-28 08:42:39.03	134.01	3.92	-44.4	-59.1	3.6	1.51e+00	0	32	104	0	60	36766
2026-01-28 08:42:40.04	133.96	3.99	-44.4	-59.1	3.6	1.51e+00	0	32	104	0	60	36604
2026-01-28 08:42:41.05	133.91	4.07	-44.6	-59.3	3.6	1.51e+00	0	32	104	0	60	37504
2026-01-28 08:42:42.06	133.86	4.14	-44.5	-59.2	3.6	1.51e+00	0	32	104	0	60	36989
2026-01-28 08:42:43.07	133.81	4.22	-44.3	-59.1	3.6	1.51e+00	0	32	104	0	60	36766
2026-01-28 08:42:44.07	133.75	4.29	-44.6	-59.3	3.6	1.51e+00	0	32	104	0	60	37270
2026-01-28 08:42:45.08	133.70	4.37	-44.4	-59.1	3.6	1.51e+00	0	32	104	0	60	36601
2026-01-28 08:42:46.09	133.65	4.45	-44.5	-59.3	3.6	1.51e+00	0	32	104	0	60	37341
2026-01-28 08:42:47.10	133.60	4.52	-44.3	-59.2	3.6	1.51e+00	0	32	104	0	60	36917
2026-01-28 08:42:48.11	133.54	4.60	-44.5	-59.3	3.6	1.51e+00	0	32	104	0	60	37356
2026-01-28 08:42:49.12	133.49	4.68	-44.4	-59.2	3.6	1.51e+00	0	32	104	0	60	36807
2026-01-28 08:42:50.13	133.43	4.76	-44.5	-59.3	3.6	1.51e+00	0	32	104	0	60	37452
2026-01-28 08:42:51.14	133.38	4.83	-44.4	-59.2	3.6	1.51e+00	0	32	104	0	60	36875
2026-01-28 08:42:52.15	133.32	4.91	-44.6	-59.3	3.6	1.51e+00	0	32	104	0	60	37397
2026-01-28 08:42:53.15	133.27	4.99	-44.5	-59.2	3.6	1.51e+00	0	32	104	0	60	37136
2026-01-28 08:42:54.16	133.21	5.07	-44.6	-59.3	3.6	1.51e+00	0	32	104	0	60	37427
2026-01-28 08:42:55.17	133.16	5.15	-44.5	-59.2	3.6	1.51e+00	0	32	104	0	60	37000
2026-01-28 08:42:56.18	133.10	5.23	-44.6	-59.3	3.6	1.51e+00	0	32	104	0	60	37476
2026-01-28 08:42:57.19	133.04	5.31	-44.5	-59.2	3.6	1.51e+00	0	32	104	0	60	37192
2026-01-28 08:42:58.20	132.99	5.39	-44.6	-59.3	3.6	1.51e+00	0	32	104	0	60	37572
2026-01-28 08:42:59.21	132.93	5.47	-44.5	-59.2	3.6	1.51e+00	0	32	104	0	60	37147
2026-01-28 08:43:00.22	132.87	5.55	-44.6	-59.4	3.6	1.51e+00	0	32	104	0	60	37670
2026-01-28 08:43:01.23	132.81	5.63	-44.6	-59.3	3.6	1.51e+00	0	32	104	0	60	37213
2026-01-28 08:43:02.24	132.75	5.71	-44.7	-59.3	3.6	1.51e+00	0	32	104	0	60	37631
2026-01-28 08:43:03.25	132.69	5.79	-44.6	-59.3	3.6	1.51e+00	0	32	104	0	60	37261
2026-01-28 08:43:04.25	132.63	5.87	-44.6	-59.3	3.6	1.51e+00	0	32	104	0	60	37612
2026-01-28 08:43:05.26	132.57	5.95	-44.6	-59.3	3.6	1.51e+00	0	32	104	0	60	37302
2026-01-28 08:43:06.27	132.51	6.04	-44.7	-59.4	3.6	1.51e+00	0	32	104	0	60	37845
2026-01-28 08:43:07.28	132.45	6.12	-44.6	-59.3	3.6	1.51e+00	0	32	104	0	60	37404
2026-01-28 08:43:08.29	132.39	6.20	-44.7	-59.4	3.6	1.51e+00	0	32	104	0	60	37834
2026-01-28 08:43:09.30	132.32	6.29	-44.6	-59.3	3.6	1.51e+00	0	32	104	0	60	37471
2026-01-28 08:43:10.31	132.26	6.37	-44.7	-59.4	3.6	1.51e+00	0	32	104	0	60	37839
2026-01-28 08:43:11.32	132.20	6.45	-44.6	-59.3	3.6	1.51e+00	0	32	104	0	60	37557
2026-01-28 08:43:12.33	132.13	6.54	-44.7	-59.5	3.6	1.51e+00	0	32	104	0	60	38184
2026-01-28 08:43:13.34	132.07	6.62	-44.6	-59.4	3.6	1.51e+00	0	32	104	0	60	37696
2026-01-28 08:43:14.35	132.01	6.71	-44.6	-59.5	3.6	1.51e+00	0	32	104	0	60	38112
2026-01-28 08:43:15.36	131.94	6.79	-44.7	-59.5	3.6	1.51e+00	0	32	104	0	60	38112
2026-01-28 08:43:16.37	131.87	6.88	-44.7	-59.5	3.6	1.51e+00	0	32	104	0	60	38071
2026-01-28 08:43:17.38	131.81	6.96	-44.6	-59.4	3.6	1.51e+00	0	32	104	0	60	37909
2026-01-28 08:43:18.39	131.74	7.05	-44.7	-59.5	3.6	1.51e+00	0	32	104	0	60	38143
2026-01-28 08:43:19.39	131.67	7.14	-44.7	-59.5	3.6	1.51e+00	0	32	104	0	60	38076
2026-01-28 08:43:20.40	131.61	7.22	-44.8	-59.5	3.6	1.51e+00	0	32	104	0	60	38220
2026-01-28 08:43:21.41	131.54	7.31	-44.7	-59.5	3.6	1.51e+00	0	32	104	0	60	38153
2026-01-28 08:43:22.42	131.47	7.40	-44.8	-59.5	3.6	1.51e+00	0	32	104	0	60	38375
2026-01-28 08:43:23.43	131.40	7.49	-44.8	-59.5	3.6	1.51e+00	0	32	104	0	60	38234
2026-01-28 08:43:24.44	131.33	7.58	-44.8	-59.5	3.6	1.51e+00	0	32	104	0	60	38181
2026-01-28 08:43:25.45	131.26	7.67	-44.8	-59.5	3.6	1.51e+00	0	32	104	0	60	38296
2026-01-28 08:43:26.46	131.19	7.76	-44.8	-59.5	3.6	1.51e+00	0	32	104	0	60	38180
2026-01-28 08:43:27.47	131.12	7.85	-44.8	-59.5	3.6	1.51e+00	0	32	104	0	60	38437
2026-01-28 08:43:28.48	131.04	7.94	-44.8	-59.5	3.6	1.51e+00	0	32	104	0	60	38328
2026-01-28 08:43:29.49	130.97	8.03	-44.8	-59.5	3.6	1.51e+00	0	32	104	0	60	38206
2026-01-28 08:43:30.50	130.90	8.12	-44.8	-59.5	3.6	1.51e+00	0	32	104	0	60	38428
2026-01-28 08:43:31.51	130.82	8.21	-44.7	-59.6	3.6	1.51e+00	0	32	104	0	60	38584
2026-01-28 08:43:32.51	130.75	8.30	-44.9	-59.6	3.6	1.51e+00	0	32	104	0	60	38615
2026-01-28 08:43:33.52	130.67	8.39	-44.8	-59.5	3.6	1.51e+00	0	32	104	0	60	38419
2026-01-28 08:43:34.53	130.60	8.48	-44.8	-59.6	3.6	1.51e+00	0	32	104	0	60	38571
2026-01-28 08:43:35.54	130.52	8.58	-44.9	-59.6	3.6	1.51e+00	0	32	104	0	60	38598
2026-01-28 08:43:36.55	130.44	8.67	-44.8	-59.6	3.6	1.51e+00	0	32	104	0	60	38608
2026-01-28 08:43:37.56	130.36	8.76	-44.8	-59.6	3.6	1.51e+00	0	32	104	0	60	38799
2026-01-28 08:43:38.57	130.29	8.86	-44.8	-59.6	3.6	1.51e+00	0	32	104	0	60	38607
2026-01-28 08:43:39.58	130.21	8.95	-44.8	-59.6	3.6	1.51e+00	0	32	104	0	60	38662
2026-01-28 08:43:40.59	130.13	9.05	-44.8	-59.6	3.6	1.51e+00	0	32	104	0	60	38650
2026-01-28 08:43:41.60	130.05	9.14	-44.8	-59.6	3.6	1.51e+00	0	32	104	0	60	38620
2026-01-28 08:43:42.60	129.97	9.24	-44.9	-59.6	3.6	1.51e+00	0	32	104	0	60	38682
2026-01-28 08:43:43.61	129.88	9.34	-44.6	-59.6	3.6	1.51e+00	0	32	104	0	60	38711
2026-01-28 08:43:44.62	129.80	9.43	-44.7	-59.6	3.6	1.51e+00	0	32	104	0	60	38715
2026-01-28 08:43:45.63	129.72	9.53	-44.7	-59.6	3.6	1.51e+00	0	32	104	0	60	38684
2026-01-28 08:43:46.64	129.63	9.63	-44.6	-59.6	3.6	1.51e+00	0	32	104	0	60	38839
2026-01-28 08:43:47.65	129.55	9.73	-44.6	-59.6	3.6	1.51e+00	0	32	104	0	60	38954
2026-01-28 08:43:48.66	129.46	9.83	-44.5	-59.7	3.6	1.51e+00	0	32	104	0	60	38998
2026-01-28 08:43:49.67	129.38	9.92	-44.7	-59.7	3.6	1.51e+00	0	32	104	0	60	39026
2026-01-28 08:43:50.68	129.29	10.02	-44.6	-59.6	3.6	1.51e+00	0	32	104	0	60	38935
2026-01-28 08:43:51.69	129.20	10.12	-44.9	-59.7	3.6	1.51e+00	0	32	104	0	60	39012
2026-01-28 08:43:52.70	129.11	10.23	-44.7	-59.7	3.6	1.51e+00	0	32	104	0	60	38966
2026-01-28 08:43:53.71	129.03	10.33	-44.8	-59.7	3.6	1.51e+00	0	32	104	0	60	38980
2026-01-28 08:43:54.72	128.94	10.43	-44.9	-59.7	3.6	1.51e+00	0	32	104	0	60	38968
2026-01-28 08:43:55.73	128.84	10.53	-45.0	-59.7	3.6	1.51e+00	0	32	104	0	60	39143
2026-01-28 08:43:56.74	128.75	10.63	-44.8	-59.6	3.6	1.51e+00	0	32	104	0	60	38794
2026-01-28 08:43:57.75	128.66	10.74	-45.0	-59.7	3.6	1.51e+00	0	32	104	0	60	39061
2026-01-28 08:43:58.76	128.57	10.84	-44.9	-59.7	3.6	1.51e+00	0	32	104	0	60	39033
2026-01-28 08:43:59.76	128.47	10.94	-45.0	-59.8	3.6	1.51e+00	0	32	104	0	60	39599
2026-01-28 08:44:00.78	128.38	11.05	-44.9	-59.7	3.6	1.51e+00	0	32	104	0	60	39166
2026-01-28 08:44:01.78	128.28	11.15	-45.0	-59.8	3.6	1.51e+00	0	32	104	0	60	39455
2026-01-28 08:44:02.80	128.18	11.26	-44.9	-59.7	3.6	1.51e+00	0	32	104	0	60	39045
2026-01-28 08:44:03.80	128.09	11.37	-44.9	-59.7	3.6	1.51e+00	0	32	104	0	60	39290
2026-01-28 08:44:04.82	127.99	11.47	-44.9	-59.7	3.6	1.51e+00	0	32	104	0	60	39319
2026-01-28 08:44:05.82	127.89	11.58	-45.0	-59.7	3.6	1.51e+00	0	32	104	0	60	39230
2026-01-28 08:44:06.83	127.79	11.69	-45.0	-59.7	3.6	1.51e+00	0	32	104	0	60	39245
2026-01-28 08:44:07.84	127.69	11.80	-45.0	-59.7	3.6	1.51e+00	0	32	104	0	60	39256
2026-01-28 08:44:08.85	127.59	11.91	-44.9	-59.7	3.6	1.51e+00	0	32	104	0	60	39257
2026-01-28 08:44:09.86	127.48	12.02	-45.0	-59.7	3.6	1.51e+00	0	32	104	0	60	39378
2026-01-28 08:44:10.87	127.38	12.13	-45.0	-59.7	3.6	1.51e+00	0	32	104	0	60	39320
2026-01-28 08:44:11.88	127.27	12.24	-45.0	-59.7	3.6	1.51e+00	0	32	104	0	60	39399
2026-01-28 08:44:12.89	127.17	12.35	-45.0	-59.7	3.6	1.51e+00	0	32	104	0	60	39356
2026-01-28 08:44:13.90	127.06	12.46	-45.0	-59.7	3.6	1.51e+00	0	32	104	0	60	39259
2026-01-28 08:44:14.91	126.95	12.57	-45.0	-59.7	3.6	1.51e+00	0	32	104	0	60	39341
2026-01-28 08:44:15.92	126.84	12.69	-45.0	-59.7	3.6	1.51e+00	0	32	104	0	60	39229
2026-01-28 08:44:16.93	126.73	12.80	-45.0	-59.7	3.6	1.51e+00	0	32	104	0	60	39171
2026-01-28 08:44:17.93	126.62	12.91	-45.0	-59.7	3.6	1.51e+00	0	32	104	0	60	39331
2026-01-28 08:44:18.94	126.51	13.03	-44.9	-59.7	3.6	1.51e+00	0	32	104	0	60	39291
2026-01-28 08:44:19.95	126.40	13.14	-45.0	-59.7	3.6	1.51e+00	0	32	104	0	60	39259
2026-01-28 08:44:20.96	126.28	13.26	-45.0	-59.7	3.6	1.51e+00	0	32	104	0	60	39194
2026-01-28 08:44:21.97	126.17	13.38	-45.0	-59.8	3.6	1.51e+00	0	32	104	0	60	39577
2026-01-28 08:44:22.98	126.05	13.49	-44.9	-59.8	3.6	1.51e+00	0	32	104	0	60	39458
2026-01-28 08:44:23.99	125.93	13.61	-45.0	-59.7	3.6	1.51e+00	0	32	104	0	60	39396
2026-01-28 08:44:24.99	125.82	13.73	-45.0	-59.7	3.6	1.51e+00	0	32	104	0	60	39319
2026-01-28 08:44:26.00	125.69	13.85	-45.1	-59.8	3.6	1.51e+00	0	32	104	0	60	39702
2026-01-28 08:44:27.01	125.57	13.97	-45.0	-59.7	3.6	1.51e+00	0	32	104	0	60	39383
2026-01-28 08:44:28.02	125.45	14.09	-45.0	-59.8	3.6	1.51e+00	0	32	104	0	60	39543
2026-01-28 08:44:29.03	125.33	14.21	-45.0	-59.7	3.6	1.51e+00	0	32	104	0	60	39233
2026-01-28 08:44:30.04	125.20	14.33	-45.1	-59.8	3.6	1.51e+00	0	32	104	0	60	39637
2026-01-28 08:44:31.05	125.08	14.46	-45.0	-59.8	3.6	1.51e+00	0	32	104	0	60	39524
2026-01-28 08:44:32.06	124.95	14.58	-45.1	-59.8	3.6	1.51e+00	0	32	104	0	60	39765
2026-01-28 08:44:33.07	124.82	14.71	-45.0	-59.8	3.6	1.51e+00	0	32	104	0	60	39502
2026-01-28 08:44:34.08	124.69	14.83	-45.0	-59.8	3.6	1.51e+00	0	32	104	0	60	39712
2026-01-28 08:44:35.08	124.56	14.95	-45.0	-59.8	3.6	1.51e+00	0	32	104	0	60	39650
2026-01-28 08:44:36.09	124.43	15.08	-45.1	-59.8	3.5	1.51e+00	0	32	104	0	60	39822
2026-01-28 08:44:37.10	124.29	15.21	-45.1	-59.8	3.6	1.51e+00	0	32	104	0	60	39673
2026-01-28 08:44:38.11	124.16	15.34	-45.1	-59.9	3.6	1.51e+00	0	32	104	0	60	40148
2026-01-28 08:44:39.12	124.02	15.46	-45.0	-59.8	3.6	1.51e+00	0	32	104	0	60	39792
2026-01-28 08:44:40.13	123.88	15.59	-45.1	-59.9	3.6	1.51e+00	0	32	104	0	60	39942
2026-01-28 08:44:41.14	123.74	15.72	-45.1	-59.8	3.6	1.51e+00	0	32	104	0	60	39833
2026-01-28 08:44:42.15	123.60	15.85	-44.9	-59.9	3.6	1.51e+00	0	32	104	0	60	39990
2026-01-28 08:44:43.16	123.46	15.99	-45.1	-59.8	3.6	1.51e+00	0	32	104	0	60	39781
2026-01-28 08:44:44.17	123.31	16.12	-45.1	-59.9	3.6	1.51e+00	0	32	104	0	60	40050
2026-01-28 08:44:45.18	123.16	16.25	-45.1	-59.8	3.6	1.51e+00	0	32	104	0	60	39850
2026-01-28 08:44:46.19	123.02	16.39	-45.1	-59.9	3.6	1.51e+00	0	32	104	0	60	40245
2026-01-28 08:44:47.20	122.87	16.52	-45.1	-59.8	3.6	1.51e+00	0	32	104	0	60	39837
2026-01-28 08:44:48.21	122.72	16.65	-44.9	-59.9	3.6	1.51e+00	0	32	104	0	60	39953
2026-01-28 08:44:49.22	122.56	16.79	-45.1	-59.9	3.6	1.51e+00	0	32	104	0	60	39877
2026-01-28 08:44:50.22	122.41	16.93	-44.9	-59.9	3.6	1.51e+00	0	32	104	0	60	40047
2026-01-28 08:44:51.24	122.25	17.07	-45.0	-59.9	3.6	1.51e+00	0	32	104	0	60	40079
2026-01-28 08:44:52.25	122.10	17.20	-45.1	-59.9	3.6	1.51e+00	0	32	104	0	60	40123
2026-01-28 08:44:53.26	121.94	17.34	-45.0	-59.9	3.6	1.51e+00	0	32	104	0	60	39923
2026-01-28 08:44:54.26	121.78	17.48	-45.1	-59.9	3.6	1.51e+00	0	32	104	0	60	40080
2026-01-28 08:44:55.27	121.62	17.62	-45.0	-59.9	3.6	1.51e+00	0	32	104	0	60	39903
2026-01-28 08:44:56.28	121.45	17.77	-45.2	-59.9	3.5	1.51e+00	0	32	104	0	60	40228
2026-01-28 08:44:57.29	121.29	17.91	-45.2	-59.9	3.6	1.51e+00	0	32	104	0	60	39948
2026-01-28 08:44:58.30	121.12	18.05	-45.2	-59.9	3.6	1.51e+00	0	32	104	0	60	40139
2026-01-28 08:44:59.31	120.95	18.20	-45.2	-59.9	3.6	1.51e+00	0	32	104	0	60	40162
2026-01-28 08:45:00.32	120.77	18.34	-45.2	-60.0	3.6	1.51e+00	0	32	104	0	60	40445
2026-01-28 08:45:01.32	120.60	18.49	-45.2	-59.9	3.6	1.51e+00	0	32	104	0	60	40098
2026-01-28 08:45:02.34	120.42	18.63	-45.1	-59.9	3.6	1.51e+00	0	32	104	0	60	40268
2026-01-28 08:45:03.34	120.25	18.78	-45.0	-59.9	3.6	1.51e+00	0	32	104	0	60	40203
2026-01-28 08:45:04.36	120.07	18.93	-45.1	-59.9	3.6	1.51e+00	0	32	104	0	60	40179
2026-01-28 08:45:05.36	119.89	19.08	-45.1	-59.9	3.6	1.51e+00	0	32	104	0	60	40113
2026-01-28 08:45:06.38	119.70	19.23	-45.1	-59.9	3.6	1.51e+00	0	32	104	0	60	40272
2026-01-28 08:45:07.39	119.51	19.38	-45.2	-59.9	3.6	1.51e+00	0	32	104	0	60	40238
2026-01-28 08:45:08.40	119.33	19.53	-45.1	-59.9	3.6	1.51e+00	0	32	104	0	60	40257
2026-01-28 08:45:09.41	119.14	19.69	-45.1	-59.9	3.6	1.51e+00	0	32	104	0	60	40147
2026-01-28 08:45:10.42	118.94	19.84	-45.2	-60.0	3.6	1.51e+00	0	32	104	0	60	40444
2026-01-28 08:45:11.43	118.75	20.00	-45.1	-60.0	3.6	1.51e+00	0	32	104	0	60	40401
2026-01-28 08:45:12.43	118.55	20.15	-45.2	-60.0	3.6	1.51e+00	0	32	104	0	60	40449
2026-01-28 08:45:13.44	118.35	20.31	-45.1	-59.9	3.6	1.51e+00	0	32	104	0	60	40136
2026-01-28 08:45:14.45	118.15	20.46	-45.3	-59.9	3.5	1.51e+00	0	32	104	0	60	40180
2026-01-28 08:45:15.46	117.94	20.62	-45.2	-60.0	3.6	1.51e+00	0	32	104	0	60	40367
2026-01-28 08:45:16.47	117.74	20.78	-45.2	-59.9	3.6	1.51e+00	0	32	104	0	60	40304
2026-01-28 08:45:17.48	117.53	20.94	-45.2	-60.0	3.6	1.51e+00	0	32	104	0	60	40348
2026-01-28 08:45:18.49	117.32	21.10	-45.2	-60.0	3.6	1.51e+00	0	32	104	0	60	40404
2026-01-28 08:45:19.50	117.10	21.27	-45.3	-60.0	3.6	1.51e+00	0	32	104	0	60	40499
2026-01-28 08:45:20.51	116.88	21.43	-45.3	-60.0	3.6	1.51e+00	0	32	104	0	60	40349
2026-01-28 08:45:21.52	116.66	21.59	-45.3	-60.0	3.6	1.51e+00	0	32	104	0	60	40478
2026-01-28 08:45:22.53	116.44	21.76	-45.3	-60.0	3.6	1.51e+00	0	32	104	0	60	40580
2026-01-28 08:45:23.54	116.22	21.92	-45.3	-60.0	3.6	1.51e+00	0	32	104	0	60	40649
2026-01-28 08:45:24.55	115.99	22.09	-45.2	-60.0	3.6	1.51e+00	0	32	104	0	60	40467
2026-01-28 08:45:25.56	115.76	22.26	-45.1	-60.0	3.6	1.51e+00	0	32	104	0	60	40391
2026-01-28 08:45:26.56	115.53	22.42	-45.3	-60.0	3.6	1.51e+00	0	32	104	0	60	40622
2026-01-28 08:45:27.57	115.29	22.59	-45.2	-60.0	3.6	1.51e+00	0	32	104	0	60	40655
2026-01-28 08:45:28.58	115.05	22.76	-45.1	-60.0	3.6	1.51e+00	0	32	104	0	60	40648
2026-01-28 08:45:29.59	114.81	22.93	-45.3	-60.0	3.6	1.51e+00	0	32	104	0	60	40518
2026-01-28 08:45:30.60	114.56	23.11	-45.3	-60.0	3.6	1.51e+00	0	32	104	0	60	40600
2026-01-28 08:45:31.61	114.31	23.28	-45.2	-60.0	3.6	1.51e+00	0	32	104	0	60	40756
2026-01-28 08:45:32.62	114.06	23.45	-45.2	-60.0	3.6	1.51e+00	0	32	104	0	60	40644
2026-01-28 08:45:33.63	113.80	23.63	-45.2	-60.0	3.6	1.51e+00	0	32	104	0	60	40489
2026-01-28 08:45:34.64	113.55	23.80	-45.2	-60.0	3.6	1.51e+00	0	32	104	0	60	40682
2026-01-28 08:45:35.65	113.28	23.98	-45.3	-60.0	3.6	1.51e+00	0	32	104	0	60	40509
2026-01-28 08:45:36.66	113.02	24.16	-45.3	-60.0	3.6	1.51e+00	0	32	104	0	60	40701
2026-01-28 08:45:37.67	112.75	24.34	-45.3	-60.0	3.6	1.51e+00	0	32	104	0	60	40499
2026-01-28 08:45:38.68	112.48	24.52	-45.3	-60.0	3.6	1.51e+00	0	32	104	0	60	40751
2026-01-28 08:45:39.69	112.20	24.70	-45.3	-60.1	3.6	1.51e+00	0	32	104	0	60	40845
2026-01-28 08:45:40.70	111.92	24.88	-45.3	-60.1	3.6	1.51e+00	0	32	104	0	60	40797
2026-01-28 08:45:41.71	111.64	25.06	-45.3	-60.0	3.6	1.51e+00	0	32	104	0	60	40737
2026-01-28 08:45:42.71	111.36	25.24	-45.2	-60.0	3.6	1.51e+00	0	32	104	0	60	40643
2026-01-28 08:45:43.72	111.07	25.42	-45.2	-60.0	3.6	1.51e+00	0	32	104	0	60	40789
2026-01-28 08:45:44.73	110.77	25.61	-45.2	-60.0	3.6	1.51e+00	0	32	104	0	60	40649
2026-01-28 08:45:45.74	110.48	25.79	-45.1	-60.0	3.6	1.51e+00	0	32	104	0	60	40662
2026-01-28 08:45:46.75	110.18	25.98	-45.4	-60.1	3.6	1.51e+00	0	32	104	0	60	40937
2026-01-28 08:45:47.76	109.87	26.16	-45.3	-60.0	3.6	1.51e+00	0	32	104	0	60	40722
2026-01-28 08:45:48.77	109.56	26.35	-45.3	-60.0	3.6	1.51e+00	0	32	104	0	60	40698
2026-01-28 08:45:49.77	109.25	26.54	-45.3	-60.1	3.6	1.51e+00	0	32	104	0	60	40869
2026-01-28 08:45:50.78	108.93	26.73	-45.4	-60.1	3.6	1.51e+00	0	32	104	0	60	40990
2026-01-28 08:45:51.79	108.61	26.92	-45.3	-60.1	3.6	1.51e+00	0	32	104	0	60	40792
2026-01-28 08:45:52.80	108.28	27.11	-45.3	-60.1	3.6	1.51e+00	0	32	104	0	60	40817
2026-01-28 08:45:53.81	107.95	27.30	-45.4	-60.1	3.5	1.51e+00	0	32	104	0	60	40989
2026-01-28 08:45:54.82	107.62	27.49	-45.2	-60.1	3.6	1.51e+00	0	32	104	0	60	40884
2026-01-28 08:45:55.82	107.28	27.68	-45.4	-60.1	3.6	1.51e+00	0	32	104	0	60	41006
2026-01-28 08:45:56.84	106.93	27.87	-45.3	-60.1	3.6	1.51e+00	0	32	104	0	60	40892
2026-01-28 08:45:57.84	106.59	28.06	-45.2	-60.0	3.6	1.51e+00	0	33	104	0	60	40564
2026-01-28 08:45:58.85	106.24	28.26	-45.3	-60.1	3.6	1.51e+00	0	32	104	0	60	40944
2026-01-28 08:45:59.86	105.88	28.45	-45.1	-60.1	3.6	1.51e+00	0	32	104	0	60	41005
2026-01-28 08:46:00.87	105.52	28.64	-45.2	-60.1	3.6	1.51e+00	0	32	104	0	60	40902
2026-01-28 08:46:01.88	105.15	28.84	-45.3	-60.1	3.6	1.51e+00	0	32	104	0	60	41110
2026-01-28 08:46:02.89	104.78	29.03	-45.3	-60.1	3.6	1.51e+00	0	32	104	0	60	41007
2026-01-28 08:46:03.90	104.40	29.23	-45.2	-60.1	3.6	1.51e+00	0	32	104	0	60	41094
2026-01-28 08:46:04.90	104.02	29.42	-44.7	-60.0	3.6	1.51e+00	0	32	104	0	60	40747
2026-01-28 08:46:05.91	103.63	29.62	-45.3	-60.1	3.5	1.51e+00	0	32	104	0	60	40962
2026-01-28 08:46:06.92	103.24	29.82	-45.2	-60.1	3.6	1.51e+00	0	32	104	0	60	41019
2026-01-28 08:46:07.93	102.84	30.01	-45.4	-60.2	3.6	1.51e+00	0	32	104	0	60	41309
2026-01-28 08:46:08.94	102.44	30.21	-45.4	-60.1	3.6	1.51e+00	0	32	104	0	60	41056
2026-01-28 08:46:09.95	102.03	30.41	-45.2	-60.1	3.6	1.51e+00	0	32	104	0	60	40944
2026-01-28 08:46:10.96	101.61	30.60	-45.3	-60.1	3.6	1.51e+00	0	32	104	0	60	41160
2026-01-28 08:46:11.96	101.20	30.80	-45.2	-60.1	3.6	1.51e+00	0	32	104	0	60	41164
2026-01-28 08:46:12.97	100.77	30.99	-45.2	-60.1	3.6	1.51e+00	0	32	104	0	60	41068
2026-01-28 08:46:13.98	100.34	31.19	-45.1	-60.1	3.6	1.51e+00	0	33	104	0	60	41257
2026-01-28 08:46:14.99	99.90	31.39	-45.3	-60.1	3.6	1.51e+00	0	32	104	0	60	41187
2026-01-28 08:46:16.00	99.46	31.58	-45.4	-60.2	3.6	1.51e+00	0	32	104	0	60	41383
2026-01-28 08:46:17.01	99.01	31.78	-45.4	-60.1	3.6	1.51e+00	0	32	104	0	60	41213
2026-01-28 08:46:18.02	98.56	31.98	-45.4	-60.1	3.6	1.51e+00	0	32	104	0	60	41204
2026-01-28 08:46:19.03	98.10	32.17	-45.4	-60.1	3.6	1.51e+00	0	33	104	0	60	40981
2026-01-28 08:46:20.03	97.64	32.36	-45.3	-60.1	3.6	1.51e+00	0	32	104	0	60	41242
2026-01-28 08:46:21.04	97.17	32.56	-45.3	-60.1	3.6	1.51e+00	0	32	104	0	60	41044
2026-01-28 08:46:22.05	96.69	32.75	-45.4	-60.2	3.6	1.51e+00	0	32	104	0	60	41275
2026-01-28 08:46:23.05	96.21	32.94	-45.3	-60.1	3.6	1.51e+00	0	33	104	0	60	41106
2026-01-28 08:46:24.06	95.72	33.13	-45.1	-60.2	3.6	1.51e+00	0	32	104	0	60	41490
2026-01-28 08:46:25.07	95.22	33.32	-45.2	-60.1	3.6	1.51e+00	0	33	104	0	60	41143
2026-01-28 08:46:26.08	94.72	33.51	-45.2	-60.2	3.6	1.51e+00	0	33	104	0	60	41398
2026-01-28 08:46:27.09	94.21	33.70	-45.3	-60.1	3.6	1.51e+00	0	33	104	0	60	41234
2026-01-28 08:46:28.10	93.69	33.89	-45.3	-60.2	3.6	1.51e+00	0	33	104	0	60	41272
2026-01-28 08:46:29.11	93.17	34.08	-45.2	-60.1	3.6	1.51e+00	0	33	104	0	60	41123
2026-01-28 08:46:30.12	92.64	34.26	-45.4	-60.2	3.6	1.51e+00	0	32	104	0	60	41355
2026-01-28 08:46:31.13	92.11	34.45	-45.5	-60.2	3.6	1.51e+00	0	33	104	0	60	41330
2026-01-28 08:46:32.13	91.57	34.63	-45.4	-60.1	3.6	1.51e+00	0	33	104	0	60	41174
2026-01-28 08:46:33.14	91.02	34.81	-45.4	-60.2	3.6	1.51e+00	0	33	104	0	60	41431
2026-01-28 08:46:34.15	90.47	34.99	-45.3	-60.2	3.6	1.51e+00	0	33	104	0	60	41464
2026-01-28 08:46:35.16	89.91	35.17	-45.3	-60.2	3.6	1.51e+00	0	33	104	0	60	41266
2026-01-28 08:46:36.17	89.34	35.34	-44.1	-60.2	3.6	1.51e+00	0	32	104	0	60	41476
2026-01-28 08:46:37.18	88.76	35.52	-45.0	-60.2	3.6	1.51e+00	0	32	104	0	60	41346
2026-01-28 08:46:38.19	88.18	35.69	-45.3	-60.2	3.6	1.51e+00	0	33	104	0	60	41348
2026-01-28 08:46:39.20	87.60	35.86	-45.3	-60.2	3.6	1.51e+00	0	33	104	0	60	41404
2026-01-28 08:46:40.21	87.00	36.03	-45.2	-60.2	3.6	1.51e+00	0	33	104	0	60	41390
2026-01-28 08:46:41.22	86.40	36.19	-45.4	-60.2	3.6	1.51e+00	0	33	104	0	60	41298
2026-01-28 08:46:42.23	85.80	36.35	-45.3	-60.2	3.6	1.51e+00	0	32	104	0	60	41636
2026-01-28 08:46:43.23	85.19	36.51	-44.9	-60.2	3.6	1.51e+00	0	33	104	0	60	41557
2026-01-28 08:46:44.24	84.57	36.67	-45.4	-60.2	3.6	1.51e+00	0	33	104	0	60	41737
2026-01-28 08:46:45.25	83.94	36.83	-45.4	-60.2	3.6	1.51e+00	0	33	104	0	60	41708
2026-01-28 08:46:46.26	83.31	36.98	-45.4	-60.2	3.6	1.51e+00	0	33	104	0	60	41321
2026-01-28 08:46:47.27	82.67	37.13	-45.3	-60.2	3.6	1.51e+00	0	33	104	0	60	41548
2026-01-28 08:46:48.28	82.03	37.27	-45.5	-60.2	3.6	1.51e+00	0	33	104	0	60	41542
2026-01-28 08:46:49.29	81.38	37.41	-45.4	-60.2	3.6	1.51e+00	0	33	104	0	60	41375
2026-01-28 08:46:50.30	80.72	37.55	-45.5	-60.2	3.6	1.51e+00	0	33	104	0	60	41448
2026-01-28 08:46:51.31	80.06	37.69	-45.5	-60.2	3.6	1.51e+00	0	32	104	0	60	41547
2026-01-28 08:46:52.32	79.39	37.82	-45.5	-60.2	3.6	1.51e+00	0	32	104	0	60	41650
2026-01-28 08:46:53.33	78.72	37.95	-45.4	-60.2	3.6	1.51e+00	0	33	104	0	60	41418
2026-01-28 08:46:54.33	78.05	38.07	-45.4	-60.2	3.6	1.51e+00	0	32	104	0	60	41497
2026-01-28 08:46:55.35	77.36	38.19	-45.4	-60.2	3.6	1.51e+00	0	32	104	0	60	41567
2026-01-28 08:46:56.35	76.67	38.31	-45.6	-60.2	3.6	1.51e+00	0	32	104	0	60	41558
2026-01-28 08:46:57.36	75.98	38.42	-45.5	-60.2	3.6	1.51e+00	0	33	104	0	60	41655
2026-01-28 08:46:58.37	75.28	38.53	-45.4	-60.2	3.6	1.51e+00	0	33	104	0	60	41671
2026-01-28 08:46:59.38	74.57	38.63	-45.5	-60.2	3.6	1.51e+00	0	33	104	0	60	41530
2026-01-28 08:47:00.39	73.86	38.73	-45.5	-60.2	3.6	1.51e+00	0	32	104	0	60	41716
2026-01-28 08:47:01.40	73.15	38.83	-45.4	-60.2	3.6	1.51e+00	0	33	104	0	60	41452
2026-01-28 08:47:02.41	72.43	38.92	-45.5	-60.2	3.6	1.51e+00	0	33	104	0	60	41591
2026-01-28 08:47:03.42	71.71	39.00	-45.5	-60.3	3.6	1.51e+00	0	33	104	0	60	41833
2026-01-28 08:47:04.43	70.98	39.08	-45.5	-60.2	3.6	1.51e+00	0	33	104	0	60	41518
2026-01-28 08:47:05.44	70.25	39.16	-45.5	-60.2	3.6	1.51e+00	0	32	104	0	60	41676
2026-01-28 08:47:06.45	69.52	39.23	-45.6	-60.2	3.6	1.51e+00	0	33	104	0	60	41544
2026-01-28 08:47:07.46	68.78	39.30	-45.5	-60.3	3.6	1.51e+00	0	33	104	0	60	41844
2026-01-28 08:47:08.47	68.04	39.36	-45.5	-60.3	3.6	1.51e+00	0	32	104	0	60	41791
2026-01-28 08:47:09.48	67.30	39.42	-45.4	-60.3	3.6	1.51e+00	0	33	104	0	60	41831
2026-01-28 08:47:10.49	66.56	39.47	-45.6	-60.3	3.6	1.51e+00	0	33	104	0	60	41862
2026-01-28 08:47:11.50	65.81	39.51	-45.6	-60.3	3.6	1.51e+00	0	33	104	0	60	42075
2026-01-28 08:47:12.51	65.06	39.55	-45.5	-60.2	3.6	1.51e+00	0	33	104	0	60	41625
2026-01-28 08:47:13.52	64.31	39.59	-45.2	-60.2	3.6	1.51e+00	0	33	104	0	60	41681
2026-01-28 08:47:14.53	63.55	39.62	-45.5	-60.3	3.6	1.51e+00	0	33	104	0	60	41962
2026-01-28 08:47:15.54	62.80	39.64	-45.6	-60.3	3.6	1.51e+00	0	33	104	0	60	41794
2026-01-28 08:47:16.55	62.04	39.66	-45.4	-60.2	3.6	1.51e+00	0	33	104	0	60	41635
2026-01-28 08:47:17.56	61.29	39.68	-45.4	-60.3	3.6	1.51e+00	0	33	104	0	60	41807
2026-01-28 08:47:18.57	60.53	39.69	-45.5	-60.3	3.6	1.51e+00	0	33	104	0	60	41869
2026-01-28 08:47:19.58	59.77	39.69	-45.5	-60.3	3.6	1.51e+00	0	33	104	0	60	41939
2026-01-28 08:47:20.59	59.02	39.69	-45.5	-60.3	3.6	1.51e+00	0	33	104	0	60	41834
2026-01-28 08:47:21.60	58.26	39.68	-45.6	-60.2	3.6	1.51e+00	0	33	104	0	60	41721
2026-01-28 08:47:22.61	57.50	39.66	-45.5	-60.3	3.6	1.51e+00	0	33	104	0	60	41843
2026-01-28 08:47:23.62	56.75	39.65	-45.5	-60.2	3.6	1.51e+00	0	33	104	0	60	41436
2026-01-28 08:47:24.62	56.00	39.62	-45.5	-60.2	3.6	1.51e+00	0	33	104	0	60	41513
2026-01-28 08:47:25.63	55.25	39.59	-45.5	-60.2	3.6	1.51e+00	0	33	104	0	60	41463
2026-01-28 08:47:26.64	54.49	39.56	-45.5	-60.2	3.6	1.51e+00	0	33	104	0	60	41707
2026-01-28 08:47:27.65	53.75	39.52	-45.5	-60.2	3.6	1.51e+00	0	33	104	0	60	41390
2026-01-28 08:47:28.66	53.00	39.47	-45.5	-60.2	3.6	1.51e+00	0	33	104	0	60	41561
2026-01-28 08:47:29.67	52.25	39.42	-45.5	-60.2	3.6	1.51e+00	0	33	104	0	60	41578
2026-01-28 08:47:30.68	51.51	39.37	-45.6	-60.2	3.6	1.51e+00	0	33	104	0	60	41535
2026-01-28 08:47:31.69	50.77	39.31	-45.4	-60.3	3.6	1.51e+00	0	33	104	0	60	41747
2026-01-28 08:47:32.70	50.03	39.24	-45.4	-60.2	3.6	1.51e+00	0	33	104	0	60	41464
2026-01-28 08:47:33.71	49.30	39.17	-45.4	-60.2	3.6	1.51e+00	0	33	104	0	60	41524
2026-01-28 08:47:34.72	48.57	39.09	-45.4	-60.2	3.6	1.51e+00	0	33	104	0	60	41508
2026-01-28 08:47:35.73	47.84	39.01	-44.9	-60.2	3.6	1.51e+00	0	33	104	0	60	41719
2026-01-28 08:47:36.74	47.12	38.93	-45.1	-60.2	3.6	1.51e+00	0	33	104	0	60	41720
2026-01-28 08:47:37.74	46.41	38.84	-45.5	-60.2	3.6	1.51e+00	0	32	104	0	60	41524
2026-01-28 08:47:38.75	45.69	38.74	-44.6	-60.2	3.6	1.51e+00	0	33	104	0	60	41675
2026-01-28 08:47:39.76	44.98	38.64	-44.1	-60.2	3.6	1.51e+00	0	33	104	0	60	41635
2026-01-28 08:47:40.77	44.28	38.54	-44.7	-60.2	3.6	1.51e+00	0	33	104	0	60	41571
2026-01-28 08:47:41.78	43.58	38.43	-45.3	-60.2	3.6	1.51e+00	0	33	104	0	60	41665
2026-01-28 08:47:42.79	42.88	38.32	-45.3	-60.2	3.6	1.51e+00	0	33	104	0	60	41643
2026-01-28 08:47:43.80	42.19	38.20	-45.2	-60.2	3.6	1.51e+00	0	33	104	0	60	41496
2026-01-28 08:47:44.81	41.50	38.08	-45.2	-60.2	3.6	1.51e+00	0	33	104	0	60	41425
2026-01-28 08:47:45.82	40.82	37.96	-45.4	-60.2	3.6	1.51e+00	0	33	104	0	60	41527
2026-01-28 08:47:46.83	40.15	37.83	-45.5	-60.2	3.6	1.51e+00	0	33	104	0	60	41548
2026-01-28 08:47:47.84	39.48	37.70	-45.5	-60.2	3.6	1.51e+00	0	33	104	0	60	41608
2026-01-28 08:47:48.85	38.82	37.57	-45.5	-60.2	3.6	1.51e+00	0	33	104	0	60	41347
2026-01-28 08:47:49.86	38.16	37.43	-45.5	-60.2	3.6	1.51e+00	0	33	104	0	60	41590
2026-01-28 08:47:50.86	37.52	37.29	-45.5	-60.2	3.6	1.51e+00	0	33	104	0	60	41596
2026-01-28 08:47:51.87	36.87	37.14	-45.5	-60.2	3.6	1.51e+00	0	33	104	0	60	41712
2026-01-28 08:47:52.88	36.23	36.99	-45.5	-60.2	3.6	1.51e+00	0	33	104	0	60	41615
2026-01-28 08:47:53.89	35.60	36.84	-45.4	-60.2	3.6	1.51e+00	0	33	104	0	60	41590
2026-01-28 08:47:54.90	34.97	36.69	-45.5	-60.2	3.6	1.51e+00	0	33	104	0	60	41549
2026-01-28 08:47:55.91	34.35	36.53	-45.5	-60.2	3.6	1.51e+00	0	33	104	0	60	41556
2026-01-28 08:47:56.92	33.74	36.37	-45.5	-60.2	3.6	1.51e+00	0	33	104	0	60	41522
2026-01-28 08:47:57.93	33.13	36.21	-45.6	-60.2	3.6	1.51e+00	0	33	104	0	60	41702
2026-01-28 08:47:58.94	32.53	36.04	-45.6	-60.2	3.6	1.51e+00	0	33	104	0	60	41719
2026-01-28 08:47:59.95	31.94	35.87	-45.5	-60.2	3.6	1.51e+00	0	33	104	0	60	41739
2026-01-28 08:48:00.96	31.35	35.71	-45.5	-60.2	3.6	1.51e+00	0	33	104	0	60	41595
2026-01-28 08:48:01.97	30.77	35.53	-45.5	-60.3	3.6	1.51e+00	0	33	104	0	60	41752
2026-01-28 08:48:02.97	30.20	35.36	-45.5	-60.2	3.6	1.51e+00	0	32	104	0	60	41702
2026-01-28 08:48:03.98	29.63	35.19	-45.4	-60.2	3.6	1.51e+00	0	33	104	0	60	41736
2026-01-28 08:48:04.99	29.07	35.01	-45.5	-60.2	3.6	1.51e+00	0	33	104	0	60	41408
2026-01-28 08:48:06.00	28.51	34.83	-45.5	-60.2	3.6	1.51e+00	0	33	104	0	60	41623
2026-01-28 08:48:07.01	27.96	34.65	-45.5	-60.2	3.6	1.51e+00	0	33	104	0	60	41567
2026-01-28 08:48:08.02	27.42	34.46	-45.5	-60.3	3.6	1.51e+00	0	33	104	0	60	41748
2026-01-28 08:48:09.03	26.88	34.28	-45.5	-60.1	3.6	1.51e+00	0	33	104	0	60	41136
2026-01-28 08:48:10.04	26.36	34.09	-45.5	-60.3	3.6	1.51e+00	0	33	104	0	60	41840
2026-01-28 08:48:11.05	25.83	33.91	-45.4	-60.2	3.6	1.51e+00	0	33	104	0	60	41682
2026-01-28 08:48:12.06	25.32	33.72	-45.3	-60.2	3.6	1.51e+00	0	33	104	0	60	41456
2026-01-28 08:48:13.07	24.81	33.53	-45.3	-60.2	3.6	1.51e+00	0	33	104	0	60	41438
2026-01-28 08:48:14.08	24.30	33.34	-45.5	-60.2	3.6	1.51e+00	0	33	104	0	60	41637
2026-01-28 08:48:15.08	23.81	33.15	-45.4	-60.2	3.6	1.51e+00	0	33	104	0	60	41726
2026-01-28 08:48:16.09	23.32	32.96	-45.5	-60.2	3.6	1.51e+00	0	33	104	0	60	41444
2026-01-28 08:48:17.10	22.83	32.77	-45.4	-60.2	3.6	1.51e+00	0	33	104	0	60	41279
2026-01-28 08:48:18.11	22.35	32.57	-45.5	-60.2	3.6	1.51e+00	0	33	104	0	60	41424
2026-01-28 08:48:19.12	21.88	32.38	-45.5	-60.2	3.6	1.51e+00	0	33	104	0	60	41463
2026-01-28 08:48:20.13	21.41	32.18	-45.4	-60.2	3.6	1.51e+00	0	33	104	0	60	41726
2026-01-28 08:48:21.14	20.95	31.99	-45.3	-60.2	3.6	1.51e+00	0	33	104	0	60	41473
2026-01-28 08:48:22.15	20.50	31.79	-45.4	-60.2	3.6	1.51e+00	0	33	104	0	60	41454
2026-01-28 08:48:23.16	20.05	31.60	-45.5	-60.2	3.6	1.51e+00	0	33	104	0	60	41420
2026-01-28 08:48:24.16	19.61	31.40	-45.5	-60.2	3.6	1.51e+00	0	33	104	0	60	41618
2026-01-28 08:48:25.17	19.17	31.21	-45.5	-60.2	3.6	1.51e+00	0	33	104	0	60	41356
2026-01-28 08:48:26.18	18.74	31.01	-45.5	-60.2	3.6	1.51e+00	0	33	104	0	60	41665
2026-01-28 08:48:27.19	18.32	30.81	-45.5	-60.2	3.6	1.51e+00	0	33	104	0	60	41391
2026-01-28 08:48:28.20	17.90	30.62	-45.5	-60.2	3.6	1.51e+00	0	33	104	0	60	41550
2026-01-28 08:48:29.21	17.48	30.42	-45.5	-60.2	3.6	1.51e+00	0	33	104	0	60	41321
2026-01-28 08:48:30.22	17.07	30.22	-45.5	-60.2	3.6	1.51e+00	0	33	104	0	60	41631
2026-01-28 08:48:31.23	16.67	30.03	-45.5	-60.2	3.6	1.51e+00	0	33	104	0	60	41464
2026-01-28 08:48:32.24	16.27	29.83	-45.5	-60.2	3.6	1.51e+00	0	33	104	0	60	41566
2026-01-28 08:48:33.25	15.88	29.63	-45.4	-60.1	3.6	1.51e+00	0	33	104	0	60	41067
2026-01-28 08:48:34.25	15.49	29.44	-45.5	-60.2	3.6	1.51e+00	0	33	104	0	60	41352
2026-01-28 08:48:35.26	15.11	29.24	-45.5	-60.2	3.6	1.51e+00	0	33	104	0	60	41568
2026-01-28 08:48:36.27	14.73	29.05	-45.5	-60.2	3.6	1.51e+00	0	33	104	0	60	41405
2026-01-28 08:48:37.28	14.36	28.85	-45.5	-60.2	3.6	1.51e+00	0	33	104	0	60	41346
2026-01-28 08:48:38.29	13.99	28.66	-45.5	-60.2	3.6	1.51e+00	0	33	104	0	60	41536
2026-01-28 08:48:39.30	13.63	28.46	-45.4	-60.1	3.6	1.51e+00	0	33	104	0	60	41177
2026-01-28 08:48:40.31	13.27	28.27	-45.5	-60.2	3.6	1.51e+00	0	33	104	0	60	41450
2026-01-28 08:48:41.32	12.91	28.07	-45.4	-60.1	3.6	1.51e+00	0	33	104	0	60	41239
2026-01-28 08:48:42.33	12.57	27.88	-45.5	-60.2	3.6	1.51e+00	0	33	104	0	60	41345
2026-01-28 08:48:43.34	12.22	27.69	-45.5	-60.2	3.6	1.51e+00	0	33	104	0	60	41471
2026-01-28 08:48:44.35	11.88	27.50	-45.4	-60.2	3.6	1.51e+00	0	33	104	0	60	41431
2026-01-28 08:48:45.36	11.55	27.30	-45.4	-60.2	3.6	1.51e+00	0	33	104	0	60	41406
2026-01-28 08:48:46.37	11.21	27.11	-45.5	-60.2	3.6	1.51e+00	0	33	104	0	60	41526
2026-01-28 08:48:47.38	10.89	26.92	-45.5	-60.3	3.6	1.51e+00	0	33	104	0	60	41763
2026-01-28 08:48:48.38	10.57	26.74	-45.5	-60.2	3.6	1.51e+00	0	33	104	0	60	41481
2026-01-28 08:48:49.40	10.25	26.55	-45.5	-60.2	3.6	1.51e+00	0	33	104	0	60	41430
2026-01-28 08:48:50.40	9.94	26.36	-45.5	-60.3	3.6	1.51e+00	0	33	104	0	60	41843
2026-01-28 08:48:51.41	9.63	26.17	-45.5	-60.2	3.6	1.51e+00	0	33	104	0	60	41675
2026-01-28 08:48:52.42	9.32	25.98	-45.5	-60.3	3.6	1.51e+00	0	33	104	0	60	41869
2026-01-28 08:48:53.43	9.02	25.80	-45.4	-60.3	3.6	1.51e+00	0	33	104	0	60	41787
2026-01-28 08:48:54.44	8.72	25.61	-45.4	-60.3	3.6	1.51e+00	0	33	104	0	60	41807
2026-01-28 08:48:55.45	8.43	25.43	-45.5	-60.3	3.6	1.51e+00	0	33	104	0	60	41842
2026-01-28 08:48:56.46	8.14	25.25	-45.4	-60.3	3.6	1.51e+00	0	33	104	0	60	41850
2026-01-28 08:48:57.47	7.85	25.06	-45.2	-60.2	3.6	1.51e+00	0	33	104	0	60	41741
2026-01-28 08:48:58.48	7.57	24.88	-45.4	-60.3	3.6	1.51e+00	0	33	104	0	60	41856
2026-01-28 08:48:59.49	7.29	24.70	-45.4	-60.3	3.6	1.51e+00	0	33	104	0	60	42080
2026-01-28 08:49:00.50	7.01	24.52	-45.4	-60.3	3.6	1.51e+00	0	33	104	0	60	41757
2026-01-28 08:49:01.51	6.74	24.34	-45.5	-60.2	3.6	1.51e+00	0	33	104	0	60	41534
2026-01-28 08:49:02.52	6.47	24.16	-45.5	-60.2	3.6	1.51e+00	0	32	104	0	60	41587
2026-01-28 08:49:03.53	6.21	23.98	-45.3	-60.2	3.6	1.51e+00	0	33	104	0	60	41471
2026-01-28 08:49:04.54	5.95	23.81	-45.5	-60.1	3.6	1.51e+00	0	33	104	0	60	41237
2026-01-28 08:49:05.54	5.69	23.63	-45.5	-60.2	3.6	1.51e+00	0	33	104	0	60	41568
2026-01-28 08:49:06.55	5.43	23.46	-45.4	-60.1	3.6	1.51e+00	0	32	104	0	60	41173
2026-01-28 08:49:07.56	5.18	23.28	-45.4	-60.1	3.6	1.51e+00	0	33	104	0	60	41077
2026-01-28 08:49:08.57	4.93	23.11	-45.4	-60.2	3.6	1.51e+00	0	33	104	0	60	41298
2026-01-28 08:49:09.58	4.69	22.94	-45.4	-60.1	3.6	1.51e+00	0	33	104	0	60	41125
2026-01-28 08:49:10.59	4.44	22.77	-45.4	-60.1	3.6	1.51e+00	0	33	104	0	60	40951
2026-01-28 08:49:11.60	4.20	22.60	-45.4	-60.1	3.6	1.51e+00	0	33	104	0	60	41077
2026-01-28 08:49:12.61	3.97	22.43	-45.4	-60.1	3.6	1.51e+00	0	33	104	0	60	40920
2026-01-28 08:49:13.62	3.73	22.26	-45.4	-60.1	3.6	1.51e+00	0	33	104	0	60	41028
2026-01-28 08:49:14.63	3.50	22.09	-45.4	-60.1	3.6	1.51e+00	0	33	104	0	60	40837
2026-01-28 08:49:15.64	3.28	21.92	-45.3	-60.0	3.6	1.51e+00	0	33	104	0	60	40787
2026-01-28 08:49:16.65	3.05	21.76	-45.3	-60.1	3.6	1.51e+00	0	33	104	0	60	40972
2026-01-28 08:49:17.66	2.83	21.59	-45.4	-60.1	3.6	1.51e+00	0	33	104	0	60	40884
2026-01-28 08:49:18.66	2.61	21.43	-45.4	-60.0	3.6	1.51e+00	0	33	104	0	60	40788
2026-01-28 08:49:19.67	2.39	21.27	-45.3	-60.1	3.6	1.51e+00	0	33	104	0	60	40806
2026-01-28 08:49:20.69	2.18	21.10	-45.3	-60.1	3.6	1.51e+00	0	33	104	0	60	40812
2026-01-28 08:49:21.70	1.96	20.94	-45.4	-60.1	3.6	1.51e+00	0	33	104	0	60	40954
2026-01-28 08:49:22.70	1.76	20.78	-45.4	-60.0	3.6	1.51e+00	0	33	104	0	60	40761
2026-01-28 08:49:23.71	1.55	20.62	-45.3	-60.0	3.6	1.51e+00	0	33	104	0	60	40609
2026-01-28 08:49:24.72	1.34	20.46	-45.3	-60.0	3.6	1.51e+00	0	33	104	0	60	40774
2026-01-28 08:49:25.73	1.14	20.31	-45.3	-60.1	3.6	1.51e+00	0	33	104	0	60	40873
2026-01-28 08:49:26.74	0.94	20.15	-45.3	-60.0	3.6	1.51e+00	0	33	104	0	60	40645
2026-01-28 08:49:27.75	0.74	19.99	-45.3	-60.0	3.6	1.51e+00	0	33	104	0	60	40621
2026-01-28 08:49:28.76	0.55	19.84	-45.3	-60.0	3.6	1.51e+00	0	33	104	0	60	40743
2026-01-28 08:49:29.77	0.36	19.69	-45.4	-60.0	3.6	1.51e+00	0	33	104	0	60	40769
2026-01-28 08:49:30.78	0.17	19.53	-45.3	-60.0	3.6	1.51e+00	0	33	104	0	60	40535
2026-01-28 08:49:31.79	359.98	19.38	-45.3	-60.1	3.6	1.51e+00	0	33	104	0	60	40807
2026-01-28 08:49:32.80	359.79	19.23	-45.3	-60.0	3.6	1.51e+00	0	33	104	0	60	40752
2026-01-28 08:49:33.81	359.61	19.08	-45.3	-60.0	3.6	1.51e+00	0	33	104	0	60	40721
2026-01-28 08:49:34.82	359.42	18.93	-45.3	-60.0	3.6	1.51e+00	0	33	104	0	60	40462
2026-01-28 08:49:35.82	359.25	18.78	-45.3	-59.9	3.6	1.51e+00	0	33	104	0	60	40280
2026-01-28 08:49:36.83	359.07	18.63	-45.3	-60.0	3.6	1.51e+00	0	33	104	0	60	40497
2026-01-28 08:49:37.84	358.89	18.49	-45.3	-60.0	3.6	1.51e+00	0	33	104	0	60	40578
2026-01-28 08:49:38.86	358.72	18.34	-45.3	-60.0	3.6	1.51e+00	0	33	104	0	60	40623
2026-01-28 08:49:39.86	358.55	18.19	-45.3	-60.0	3.6	1.51e+00	0	33	104	0	60	40446
2026-01-28 08:49:40.87	358.38	18.05	-45.3	-60.0	3.6	1.51e+00	0	33	104	0	60	40610
2026-01-28 08:49:41.88	358.21	17.91	-45.3	-60.0	3.6	1.51e+00	0	33	104	0	60	40669
2026-01-28 08:49:42.89	358.04	17.76	-45.3	-60.0	3.6	1.51e+00	0	33	104	0	60	40359
2026-01-28 08:49:43.90	357.88	17.62	-45.3	-60.0	3.6	1.51e+00	0	32	104	0	60	40364
2026-01-28 08:49:44.91	357.72	17.48	-45.3	-60.0	3.6	1.51e+00	0	33	104	0	60	40399
2026-01-28 08:49:45.92	357.55	17.34	-45.3	-60.0	3.6	1.51e+00	0	33	104	0	60	40436
2026-01-28 08:49:46.93	357.40	17.20	-45.3	-60.0	3.6	1.51e+00	0	32	104	0	60	40346
2026-01-28 08:49:47.94	357.24	17.06	-45.2	-60.0	3.6	1.51e+00	0	32	104	0	60	40559
2026-01-28 08:49:48.95	357.08	16.92	-45.3	-60.0	3.6	1.51e+00	0	33	104	0	60	40534
2026-01-28 08:49:49.96	356.93	16.79	-45.3	-60.0	3.6	1.51e+00	0	33	104	0	60	40465
2026-01-28 08:49:50.97	356.78	16.65	-45.3	-59.9	3.6	1.51e+00	0	33	104	0	60	40297
2026-01-28 08:49:51.98	356.63	16.51	-45.3	-60.0	3.6	1.51e+00	0	33	104	0	60	40448
2026-01-28 08:49:52.99	356.48	16.38	-45.2	-60.0	3.6	1.51e+00	0	33	104	0	60	40431
2026-01-28 08:49:54.00	356.33	16.25	-45.3	-60.0	3.6	1.51e+00	0	33	104	0	60	40646
2026-01-28 08:49:55.01	356.18	16.11	-45.3	-59.9	3.6	1.51e+00	0	33	104	0	60	40076
2026-01-28 08:49:56.02	356.04	15.98	-45.3	-60.0	3.6	1.51e+00	0	33	104	0	60	40447
2026-01-28 08:49:57.02	355.90	15.85	-45.3	-59.9	3.6	1.51e+00	0	32	104	0	60	40229
2026-01-28 08:49:58.03	355.76	15.72	-45.2	-60.0	3.6	1.51e+00	0	33	104	0	60	40510
2026-01-28 08:49:59.04	355.62	15.59	-45.1	-60.0	3.6	1.51e+00	0	33	104	0	60	40340
2026-01-28 08:50:00.05	355.48	15.46	-45.3	-60.0	3.6	1.51e+00	0	33	104	0	60	40632
2026-01-28 08:50:01.06	355.34	15.33	-45.3	-60.0	3.6	1.51e+00	0	33	104	0	60	40599
2026-01-28 08:50:02.07	355.21	15.20	-45.3	-60.0	3.6	1.51e+00	0	32	104	0	60	40548
2026-01-28 08:50:03.08	355.07	15.08	-45.2	-59.9	3.6	1.51e+00	0	33	104	0	60	40125
2026-01-28 08:50:04.08	354.94	14.95	-45.2	-59.9	3.6	1.51e+00	0	33	104	0	60	40087
2026-01-28 08:50:05.10	354.81	14.82	-45.2	-59.9	3.6	1.51e+00	0	32	104	0	60	40231
2026-01-28 08:50:06.11	354.68	14.70	-45.3	-59.9	3.6	1.51e+00	0	32	104	0	60	40273
2026-01-28 08:50:07.11	354.55	14.57	-45.2	-59.9	3.6	1.51e+00	0	32	104	0	60	40134
2026-01-28 08:50:08.12	354.42	14.45	-45.2	-59.9	3.6	1.51e+00	0	32	104	0	60	40222
2026-01-28 08:50:09.13	354.30	14.33	-45.2	-60.0	3.6	1.51e+00	0	33	104	0	60	40453
2026-01-28 08:50:10.14	354.17	14.21	-45.3	-59.9	3.6	1.51e+00	0	33	104	0	60	40307
2026-01-28 08:50:11.15	354.05	14.08	-45.2	-59.9	3.6	1.51e+00	0	33	104	0	60	40147
2026-01-28 08:50:12.16	353.93	13.96	-45.3	-60.0	3.6	1.51e+00	0	33	104	0	60	40542
2026-01-28 08:50:13.17	353.81	13.84	-45.3	-60.0	3.6	1.51e+00	0	33	104	0	60	40457
2026-01-28 08:50:14.18	353.69	13.72	-45.3	-60.0	3.6	1.51e+00	0	33	104	0	60	40559
2026-01-28 08:50:15.19	353.57	13.60	-45.3	-59.9	3.6	1.51e+00	0	33	104	0	60	40274
2026-01-28 08:50:16.20	353.45	13.49	-45.4	-60.0	3.6	1.51e+00	0	33	104	0	60	40702
2026-01-28 08:50:17.21	353.33	13.37	-45.4	-60.1	3.6	1.51e+00	0	33	104	0	60	40997
2026-01-28 08:50:18.22	353.22	13.25	-45.4	-60.1	3.6	1.51e+00	0	33	104	0	60	40830
2026-01-28 08:50:19.23	353.10	13.13	-45.3	-60.0	3.6	1.51e+00	0	32	104	0	60	40398
2026-01-28 08:50:20.24	352.99	13.02	-45.3	-60.0	3.6	1.51e+00	0	33	104	0	60	40748
2026-01-28 08:50:21.25	352.88	12.90	-45.4	-60.1	3.6	1.51e+00	0	33	104	0	60	40849
2026-01-28 08:50:22.26	352.77	12.79	-45.3	-60.0	3.6	1.51e+00	0	33	104	0	60	40677
2026-01-28 08:50:23.27	352.66	12.68	-45.3	-59.9	3.6	1.51e+00	0	33	104	0	60	40282
2026-01-28 08:50:24.28	352.55	12.56	-45.3	-59.9	3.6	1.51e+00	0	33	104	0	60	40198
2026-01-28 08:50:25.29	352.44	12.45	-45.4	-60.1	3.6	1.51e+00	0	33	104	0	60	40903
2026-01-28 08:50:26.30	352.33	12.34	-45.8	-60.4	3.6	1.51e+00	0	33	104	0	60	42706
2026-01-28 08:50:27.31	352.23	12.23	-45.4	-60.1	3.6	1.51e+00	0	33	104	0	60	41151
2026-01-28 08:50:28.32	352.12	12.11	-45.5	-60.1	3.6	1.51e+00	0	33	104	0	60	41183
2026-01-28 08:50:29.33	352.02	12.00	-45.3	-60.0	3.6	1.51e+00	0	33	104	0	60	40410
2026-01-28 08:50:30.34	351.92	11.89	-45.3	-59.9	3.6	1.51e+00	0	33	104	0	60	40299
2026-01-28 08:50:31.35	351.81	11.79	-45.3	-59.9	3.6	1.51e+00	0	33	104	0	60	40170
2026-01-28 08:50:32.36	351.71	11.68	-45.2	-59.9	3.6	1.51e+00	0	33	104	0	60	40264
2026-01-28 08:50:33.37	351.61	11.57	-45.2	-59.9	3.6	1.51e+00	0	33	104	0	60	40265
2026-01-28 08:50:34.38	351.51	11.46	-45.2	-59.9	3.6	1.51e+00	0	33	104	0	60	40198
2026-01-28 08:50:35.39	351.42	11.35	-45.3	-60.0	3.6	1.51e+00	0	33	104	0	60	40575
2026-01-28 08:50:36.40	351.32	11.25	-45.4	-60.1	3.6	1.51e+00	0	33	104	0	60	40899
2026-01-28 08:50:37.41	351.22	11.14	-45.3	-60.1	3.6	1.51e+00	0	33	104	0	60	40930
2026-01-28 08:50:38.42	351.13	11.04	-45.2	-59.9	3.6	1.51e+00	0	32	104	0	60	40060
2026-01-28 08:50:39.42	351.03	10.93	-45.2	-60.0	3.6	1.51e+00	0	33	104	0	60	40415
2026-01-28 08:50:40.43	350.94	10.83	-45.3	-60.1	3.6	1.51e+00	0	33	104	0	60	40948
2026-01-28 08:50:41.44	350.85	10.72	-45.4	-60.1	3.6	1.51e+00	0	33	104	0	60	41044
2026-01-28 08:50:42.45	350.75	10.62	-45.2	-59.9	3.6	1.51e+00	0	33	104	0	60	40317
2026-01-28 08:50:43.46	350.66	10.52	-45.2	-59.9	3.6	1.51e+00	0	33	104	0	60	40114
2026-01-28 08:50:44.47	350.57	10.42	-45.2	-60.1	3.6	1.51e+00	0	32	104	0	60	40838
2026-01-28 08:50:45.48	350.48	10.31	-45.4	-60.1	3.6	1.51e+00	0	33	104	0	60	41021
2026-01-28 08:50:46.49	350.39	10.21	-45.1	-59.9	3.6	1.51e+00	0	33	104	0	60	40108
2026-01-28 08:50:47.50	350.31	10.11	-45.2	-59.9	3.6	1.51e+00	0	33	104	0	60	40088
2026-01-28 08:50:48.51	350.22	10.01	-45.3	-60.0	3.6	1.51e+00	0	32	104	0	60	40677
2026-01-28 08:50:49.52	350.13	9.91	-45.4	-60.1	3.6	1.51e+00	0	33	104	0	60	41195
2026-01-28 08:50:50.53	350.05	9.81	-45.2	-59.8	3.6	1.51e+00	0	32	104	0	60	39858
2026-01-28 08:50:51.54	349.96	9.71	-45.2	-59.9	3.6	1.51e+00	0	33	104	0	60	40154
2026-01-28 08:50:52.55	349.88	9.62	-45.3	-60.1	3.6	1.51e+00	0	33	104	0	60	40823
2026-01-28 08:50:53.56	349.79	9.52	-45.5	-60.1	3.6	1.51e+00	0	33	104	0	60	41222
2026-01-28 08:50:54.57	349.71	9.42	-45.2	-59.9	3.6	1.51e+00	0	33	104	0	60	39880
2026-01-28 08:50:55.58	349.63	9.32	-45.2	-59.9	3.6	1.51e+00	0	33	104	0	60	39953
2026-01-28 08:50:56.59	349.55	9.23	-45.3	-60.0	3.6	1.51e+00	0	33	104	0	60	40745
2026-01-28 08:50:57.60	349.47	9.13	-45.4	-60.1	3.5	1.51e+00	0	33	104	0	60	41038
2026-01-28 08:50:58.61	349.39	9.03	-45.1	-59.8	3.6	1.51e+00	0	33	104	0	60	39765
2026-01-28 08:50:59.62	349.31	8.94	-45.2	-59.8	3.6	1.51e+00	0	33	104	0	60	39793
2026-01-28 08:51:00.62	349.23	8.85	-45.4	-60.1	3.5	1.51e+00	0	33	104	0	60	41002
2026-01-28 08:51:01.63	349.15	8.75	-45.3	-60.1	3.6	1.51e+00	0	33	104	0	60	40991
2026-01-28 08:51:02.64	349.07	8.66	-45.2	-59.8	3.5	1.51e+00	0	33	104	0	60	39761
2026-01-28 08:51:03.65	349.00	8.56	-45.1	-59.8	3.6	1.51e+00	0	33	104	0	60	39846
2026-01-28 08:51:04.66	348.92	8.47	-45.4	-60.1	3.6	1.51e+00	0	33	104	0	60	40979
2026-01-28 08:51:05.67	348.84	8.38	-45.4	-60.1	3.6	1.51e+00	0	33	104	0	60	41178
2026-01-28 08:51:06.68	348.77	8.29	-45.2	-59.9	3.6	1.51e+00	0	33	104	0	60	40272
2026-01-28 08:51:07.69	348.70	8.19	-45.2	-59.9	3.6	1.51e+00	0	33	104	0	60	40232
2026-01-28 08:51:08.70	348.62	8.10	-45.4	-60.1	3.6	1.51e+00	0	33	104	0	60	41092
2026-01-28 08:51:09.71	348.55	8.01	-45.4	-60.2	3.6	1.51e+00	0	33	104	0	60	41422
2026-01-28 08:51:10.72	348.48	7.92	-45.2	-59.9	3.6	1.51e+00	0	33	104	0	60	40027
2026-01-28 08:51:11.73	348.40	7.83	-45.1	-59.9	3.6	1.51e+00	0	33	104	0	60	40025
2026-01-28 08:51:12.74	348.33	7.74	-45.3	-60.1	3.6	1.51e+00	0	33	104	0	60	41196
2026-01-28 08:51:13.74	348.26	7.65	-45.4	-60.1	3.6	1.51e+00	0	33	104	0	60	40932
2026-01-28 08:51:14.76	348.19	7.56	-45.1	-59.8	3.6	1.51e+00	0	33	104	0	60	39730
2026-01-28 08:51:15.76	348.12	7.47	-45.1	-59.8	3.6	1.51e+00	0	33	104	0	60	39464
2026-01-28 08:51:16.77	348.05	7.39	-45.3	-60.1	3.6	1.51e+00	0	33	104	0	60	40916
2026-01-28 08:51:17.78	347.99	7.30	-45.3	-60.1	3.6	1.51e+00	0	33	104	0	60	40901
2026-01-28 08:51:18.80	347.92	7.21	-45.1	-59.8	3.6	1.51e+00	0	33	104	0	60	39629
2026-01-28 08:51:19.80	347.85	7.12	-45.0	-59.7	3.6	1.51e+00	0	33	104	0	60	39257
2026-01-28 08:51:20.81	347.78	7.04	-45.3	-60.1	3.6	1.51e+00	0	32	104	0	60	40961
2026-01-28 08:51:21.82	347.72	6.95	-45.3	-60.0	3.6	1.51e+00	0	33	104	0	60	40586
2026-01-28 08:51:22.83	347.65	6.86	-45.0	-59.7	3.6	1.51e+00	0	33	104	0	60	39032
2026-01-28 08:51:23.84	347.59	6.78	-45.0	-59.7	3.6	1.51e+00	0	33	104	0	60	39261
2026-01-28 08:51:24.85	347.52	6.69	-45.3	-60.0	3.6	1.51e+00	0	33	104	0	60	40780
2026-01-28 08:51:25.86	347.46	6.61	-45.2	-60.0	3.6	1.51e+00	0	33	104	0	60	40621
2026-01-28 08:51:26.87	347.39	6.52	-45.0	-59.7	3.6	1.51e+00	0	33	104	0	60	39250
2026-01-28 08:51:27.88	347.33	6.44	-45.2	-59.9	3.6	1.51e+00	0	33	104	0	60	40133
2026-01-28 08:51:28.89	347.27	6.35	-45.2	-60.0	3.6	1.51e+00	0	33	104	0	60	40429
2026-01-28 08:51:29.90	347.20	6.27	-45.3	-60.0	3.6	1.51e+00	0	33	104	0	60	40540
2026-01-28 08:51:30.91	347.14	6.19	-45.0	-59.7	3.6	1.51e+00	0	33	104	0	60	39146
2026-01-28 08:51:31.92	347.08	6.10	-44.6	-59.4	3.6	1.51e+00	0	33	104	0	60	38044
2026-01-28 08:51:32.93	347.02	6.02	-45.2	-60.0	3.6	1.51e+00	0	33	104	0	60	40461
2026-01-28 08:51:33.94	346.96	5.94	-45.1	-59.9	3.6	1.51e+00	0	33	104	0	60	40126
2026-01-28 08:51:34.95	346.90	5.86	-44.6	-59.4	3.6	1.51e+00	0	33	104	0	60	37839
2026-01-28 08:51:35.96	346.84	5.77	-44.3	-59.0	3.5	1.51e+00	0	33	104	0	60	36304
2026-01-28 08:51:36.96	346.78	5.69	-45.0	-59.8	3.6	1.51e+00	0	33	104	0	60	39738
2026-01-28 08:51:37.97	346.72	5.61	-44.5	-59.2	3.5	1.51e+00	0	33	104	0	60	37088
2026-01-28 08:51:38.98	346.66	5.53	-43.7	-58.6	3.6	1.51e+00	0	33	104	0	60	34457
2026-01-28 08:51:39.99	346.61	5.45	-43.2	-58.0	3.6	1.51e+00	0	33	104	0	60	32069
2026-01-28 08:51:41.00	346.55	5.37	-41.4	-56.1	3.6	1.51e+00	0	33	104	0	58	28967
2026-01-28 08:51:42.01	346.49	5.29	-43.5	-58.3	3.5	1.51e+00	0	33	104	0	60	33173
2026-01-28 08:51:43.02	346.43	5.21	-44.8	-59.5	3.6	1.51e+00	0	33	104	0	60	38466
2026-01-28 08:51:44.03	346.38	5.13	-44.1	-58.8	3.6	1.51e+00	0	33	104	0	60	35477
2026-01-28 08:51:45.04	346.32	5.05	-42.1	-57.0	3.6	1.51e+00	0	32	104	0	60	28634
2026-01-28 08:51:46.05	346.27	4.97	-41.9	-56.7	3.6	1.51e+00	0	33	104	0	60	27801
2026-01-28 08:51:47.06	346.21	4.89	-41.6	-56.3	3.6	1.51e+00	0	33	104	0	58	29708
2026-01-28 08:51:48.07	346.16	4.82	-41.3	-56.0	3.6	1.51e+00	0	33	104	0	58	28714
2026-01-28 08:51:49.08	346.10	4.74	-41.0	-55.6	3.6	1.51e+00	0	32	104	0	58	27463
2026-01-28 08:51:50.09	346.05	4.66	-42.0	-56.9	3.6	1.51e+00	0	33	104	0	58	31851
2026-01-28 08:51:51.10	346.00	4.58	-43.3	-58.0	3.6	1.51e+00	0	33	104	0	60	32215
2026-01-28 08:51:52.11	345.94	4.51	-41.3	-56.0	3.6	1.51e+00	0	33	104	0	58	28757
2026-01-28 08:51:53.12	345.89	4.43	-42.8	-57.5	3.6	1.51e+00	0	33	104	0	60	30371
2026-01-28 08:51:54.13	345.84	4.35	-41.3	-56.0	3.6	1.51e+00	0	33	104	0	58	28672
2026-01-28 08:51:55.14	345.79	4.28	-40.8	-55.5	3.6	1.51e+00	0	33	104	0	58	27129
2026-01-28 08:51:56.15	345.74	4.20	-40.7	-55.4	3.6	1.51e+00	0	33	104	0	56	30080
2026-01-28 08:51:57.15	345.69	4.13	-40.6	-55.3	3.6	1.51e+00	0	33	104	0	56	29882
2026-01-28 08:51:58.16	345.63	4.05	-41.3	-56.0	3.6	1.51e+00	0	33	104	0	56	32165
2026-01-28 08:51:59.18	345.58	3.97	-42.3	-57.0	3.6	1.51e+00	0	33	104	0	58	32283
2026-01-28 08:52:00.18	345.53	3.90	-41.4	-56.1	3.6	1.51e+00	0	33	104	0	58	29152
2026-01-28 08:52:01.20	345.48	3.82	-40.8	-55.5	3.6	1.51e+00	0	32	104	0	56	30295
2026-01-28 08:52:02.20	345.44	3.75	-40.6	-55.4	3.6	1.51e+00	0	33	104	0	56	29929
2026-01-28 08:52:03.22	345.39	3.68	-40.6	-55.3	3.6	1.51e+00	0	33	104	0	56	29745
2026-01-28 08:52:04.22	345.34	3.60	-40.5	-55.3	3.6	1.51e+00	0	33	104	0	56	29596
2026-01-28 08:52:05.23	345.29	3.53	-40.5	-55.2	3.6	1.51e+00	0	33	104	0	56	29401
2026-01-28 08:52:06.24	345.24	3.45	-40.7	-55.4	3.6	1.51e+00	0	33	104	0	56	30083
2026-01-28 08:52:07.25	345.19	3.38	-41.2	-55.9	3.6	1.51e+00	0	33	104	0	56	32025
2026-01-28 08:52:08.26	345.15	3.31	-40.9	-55.7	3.6	1.51e+00	0	33	104	0	56	31006
2026-01-28 08:52:09.27	345.10	3.24	-40.6	-55.3	3.6	1.51e+00	0	33	104	0	56	29827
2026-01-28 08:52:10.28	345.05	3.16	-40.7	-55.4	3.6	1.51e+00	0	33	104	0	56	30008
2026-01-28 08:52:11.29	345.01	3.09	-40.5	-55.3	3.6	1.51e+00	0	33	104	0	56	29575
2026-01-28 08:52:12.30	344.96	3.02	-40.6	-55.3	3.6	1.51e+00	0	33	104	0	56	29584
2026-01-28 08:52:13.31	344.91	2.95	-41.5	-56.2	3.6	1.51e+00	0	33	104	0	56	33076
2026-01-28 08:52:14.32	344.87	2.88	-44.8	-59.6	3.6	1.51e+00	0	33	104	0	60	38628
2026-01-28 08:52:15.33	344.82	2.80	-45.2	-59.9	3.6	1.51e+00	0	33	104	0	60	40204
2026-01-28 08:52:16.34	344.78	2.73	-45.4	-60.1	3.6	1.51e+00	0	33	104	0	60	41229
2026-01-28 08:52:17.35	344.73	2.66	-45.4	-60.3	3.6	1.51e+00	0	33	104	0	60	41819
2026-01-28 08:52:18.36	344.69	2.59	-45.7	-60.4	3.6	1.51e+00	0	33	104	0	60	42337
2026-01-28 08:52:19.37	344.65	2.52	-45.7	-60.4	3.6	1.51e+00	0	33	104	0	60	42474
2026-01-28 08:52:20.38	344.60	2.45	-45.8	-60.6	3.6	1.51e+00	0	33	104	0	60	43217
2026-01-28 08:52:21.39	344.56	2.38	-45.9	-60.6	3.6	1.51e+00	0	33	104	0	60	43504
2026-01-28 08:52:22.40	344.52	2.31	-45.9	-60.6	3.6	1.51e+00	0	33	104	0	60	43696
2026-01-28 08:52:23.40	344.47	2.24	-46.0	-60.7	3.6	1.51e+00	0	33	104	0	60	44037
2026-01-28 08:52:24.41	344.43	2.17	-46.1	-60.9	3.6	1.51e+00	0	33	104	0	60	44973
2026-01-28 08:52:25.42	344.39	2.10	-45.9	-60.7	3.6	1.51e+00	0	33	104	0	60	44088
2026-01-28 08:52:26.43	344.35	2.03	-46.0	-60.7	3.6	1.51e+00	0	33	104	0	60	44046
2026-01-28 08:52:27.44	344.31	1.97	-45.8	-60.5	3.6	1.51e+00	0	32	104	0	60	43032
2026-01-28 08:52:28.45	344.26	1.90	-46.0	-60.8	3.6	1.51e+00	0	33	104	0	60	44409
2026-01-28 08:52:29.46	344.22	1.83	-45.7	-60.5	3.6	1.51e+00	0	33	104	0	60	43045
2026-01-28 08:52:30.47	344.18	1.76	-45.7	-60.4	3.6	1.51e+00	0	33	104	0	60	42384
2026-01-28 08:52:31.48	344.14	1.69	-45.5	-60.3	3.6	1.51e+00	0	33	104	0	60	42161
2026-01-28 08:52:32.49	344.10	1.62	-45.4	-60.3	3.6	1.51e+00	0	33	104	0	60	41781
2026-01-28 08:52:33.50	344.06	1.56	-45.5	-60.3	3.6	1.51e+00	0	33	104	0	60	41806
2026-01-28 08:52:34.51	344.02	1.49	-45.7	-60.4	3.6	1.51e+00	0	33	104	0	60	42572
2026-01-28 08:52:35.52	343.98	1.42	-45.6	-60.4	3.6	1.51e+00	0	33	104	0	60	42454
2026-01-28 08:52:36.53	343.94	1.36	-45.6	-60.3	3.6	1.51e+00	0	33	104	0	60	41938
2026-01-28 08:52:37.54	343.90	1.29	-45.6	-60.3	3.6	1.51e+00	0	33	104	0	60	42048
2026-01-28 08:52:38.55	343.87	1.22	-45.6	-60.3	3.6	1.51e+00	0	33	104	0	60	41815
2026-01-28 08:52:39.56	343.83	1.16	-45.5	-60.3	3.6	1.51e+00	0	33	104	0	60	41881
2026-01-28 08:52:40.57	343.79	1.09	-45.5	-60.2	3.6	1.51e+00	0	33	104	0	60	41647
2026-01-28 08:52:41.58	343.75	1.02	-45.5	-60.2	3.6	1.51e+00	0	33	104	0	60	41712
2026-01-28 08:52:42.59	343.71	0.96	-45.5	-60.2	3.6	1.51e+00	0	33	104	0	60	41645
2026-01-28 08:52:43.60	343.68	0.89	-45.5	-60.2	3.6	1.51e+00	0	33	104	0	60	41740
2026-01-28 08:52:44.61	343.64	0.83	-45.5	-60.3	3.6	1.51e+00	0	33	104	0	60	41805
2026-01-28 08:52:45.62	343.60	0.76	-45.5	-60.2	3.6	1.51e+00	0	33	104	0	60	41580
2026-01-28 08:52:46.63	343.56	0.70	-45.5	-60.2	3.6	1.51e+00	0	33	104	0	60	41576
2026-01-28 08:52:47.64	343.53	0.63	-45.5	-60.2	3.6	1.51e+00	0	33	104	0	60	41470
2026-01-28 08:52:48.65	343.49	0.57	-45.5	-60.2	3.6	1.51e+00	0	33	104	0	60	41510
2026-01-28 08:52:49.66	343.45	0.50	-45.5	-60.2	3.6	1.51e+00	0	33	104	0	60	41553
2026-01-28 08:52:50.67	343.42	0.44	-45.5	-60.2	3.6	1.51e+00	0	33	104	0	60	41552
2026-01-28 08:52:51.68	343.38	0.37	-45.5	-60.2	3.6	1.51e+00	0	33	104	0	60	41403
2026-01-28 08:52:52.69	343.35	0.31	-45.5	-60.2	3.6	1.51e+00	0	33	104	0	60	41426
2026-01-28 08:52:53.70	343.31	0.24	-45.5	-60.2	3.6	1.51e+00	0	33	104	0	60	41462
2026-01-28 08:52:54.71	343.28	0.18	-45.5	-60.2	3.6	1.51e+00	0	33	104	0	60	41286
2026-01-28 08:52:55.72	343.24	0.12	-45.5	-60.2	3.6	1.51e+00	0	33	104	0	60	41444
2026-01-28 08:52:56.73	343.21	0.05	-45.5	-60.2	3.6	1.51e+00	0	33	104	0	60	41706
2026-01-28 08:52:57.74	343.17	-0.01	-45.5	-60.2	3.6	1.51e+00	0	33	104	0	60	41487

#Closed at: 2026-01-28 08:52:58
#Recorded file [0 MB]: D:/lorett/data/35029_260128_204145.dat