passes_logs/2026/01/28/R4.6S_Anadyr/R4.6S_Anadyr__20260128_235615_SUOMI_NPP_rec.log

#Pass ID: 20260128_235615_SUOMI NPP
#Satellite: SUOMI NPP
#Configuration: NPP
#almurnet v.1.7.20251203
#Start time: 2026-01-28 23:56:17

#Version: 2.2.20231116
#Station: R4.6S_Anadyr
#Location: 177.4865 lon 64.73178 lat
#TLE: 1 37849U 11061A   26027.93236865  .00000148  00000+0  91411-4 0  9991
#TLE: 2 37849  98.7823 329.8704 0002085  41.3231 318.8102 14.19530777738546

#Time	Az	El	Level	Level2	SNR	BER	BlckErr	Temp	State	Recorded	gain1	gain2
2026-01-28 23:56:17.89	147.34	0.18	-48.9	-61.3	3.5	1.52e+00	0	30	0	0	60	40948
2026-01-28 23:56:18.90	147.34	0.24	-48.8	-64.0	3.6	1.51e+00	0	31	104	0	60	57322
2026-01-28 23:56:19.91	147.33	0.30	-48.7	-63.9	3.6	1.51e+00	0	31	104	0	60	56662
2026-01-28 23:56:20.92	147.32	0.36	-48.7	-64.0	3.6	1.51e+00	0	31	104	0	60	57150
2026-01-28 23:56:21.93	147.32	0.42	-48.8	-64.0	3.6	1.51e+00	0	31	104	0	60	57015
2026-01-28 23:56:22.94	147.31	0.48	-48.8	-64.0	3.5	1.51e+00	0	31	104	0	60	57407
2026-01-28 23:56:23.95	147.30	0.54	-48.8	-64.0	3.6	1.51e+00	0	31	104	0	60	57022
2026-01-28 23:56:24.96	147.30	0.60	-48.8	-64.0	3.6	1.51e+00	0	31	104	0	60	57059
2026-01-28 23:56:25.97	147.29	0.67	-48.8	-64.0	3.6	1.51e+00	0	31	104	0	60	57541
2026-01-28 23:56:26.98	147.28	0.73	-48.9	-64.0	3.6	1.51e+00	0	31	104	0	60	57516
2026-01-28 23:56:27.99	147.28	0.79	-48.8	-64.0	3.6	1.51e+00	0	32	104	0	60	57428
2026-01-28 23:56:29.00	147.27	0.85	-48.8	-64.0	3.6	1.51e+00	0	32	104	0	60	57533
2026-01-28 23:56:30.01	147.26	0.92	-48.8	-64.0	3.6	1.51e+00	0	32	104	0	60	57209
2026-01-28 23:56:31.02	147.25	0.98	-48.8	-63.9	3.6	1.51e+00	0	31	104	0	60	56682
2026-01-28 23:56:32.03	147.25	1.04	-48.4	-63.9	3.6	1.51e+00	0	31	104	0	60	56462
2026-01-28 23:56:33.04	147.24	1.10	-48.6	-63.8	3.6	1.51e+00	0	31	104	0	60	56036
2026-01-28 23:56:34.05	147.23	1.17	-48.2	-63.6	3.6	1.51e+00	0	32	104	0	60	54934
2026-01-28 23:56:35.06	147.22	1.23	-48.3	-63.5	3.6	1.51e+00	0	32	104	0	60	54113
2026-01-28 23:56:36.07	147.22	1.29	-48.2	-63.4	3.6	1.51e+00	0	32	104	0	60	53499
2026-01-28 23:56:37.07	147.21	1.36	-48.0	-63.2	3.6	1.51e+00	0	32	104	0	60	52408
2026-01-28 23:56:38.08	147.20	1.42	-47.9	-63.1	3.6	1.51e+00	0	32	104	0	60	51738
2026-01-28 23:56:39.10	147.19	1.48	-47.8	-63.1	3.6	1.51e+00	0	32	104	0	60	51563
2026-01-28 23:56:40.11	147.19	1.55	-47.6	-62.9	3.6	1.51e+00	0	32	104	0	60	50187
2026-01-28 23:56:41.11	147.18	1.61	-47.2	-62.6	3.6	1.51e+00	0	32	104	0	60	48636
2026-01-28 23:56:42.12	147.17	1.67	-46.5	-62.1	3.6	1.51e+00	0	32	104	0	60	45885
2026-01-28 23:56:43.13	147.16	1.74	-46.4	-62.1	3.6	1.51e+00	0	32	104	0	60	45972
2026-01-28 23:56:44.14	147.16	1.80	-46.5	-62.1	3.6	1.51e+00	0	32	104	0	60	45914
2026-01-28 23:56:45.15	147.15	1.87	-46.5	-62.1	3.5	1.51e+00	0	32	104	0	60	45812
2026-01-28 23:56:46.16	147.14	1.93	-46.5	-62.0	3.6	1.51e+00	0	32	104	0	60	45699
2026-01-28 23:56:47.17	147.13	2.00	-46.5	-62.0	3.6	1.51e+00	0	32	104	0	60	45297
2026-01-28 23:56:48.18	147.12	2.06	-46.4	-62.1	3.6	1.51e+00	0	32	104	0	60	45799
2026-01-28 23:56:49.19	147.12	2.13	-46.4	-62.1	3.6	1.51e+00	0	32	104	0	60	45874
2026-01-28 23:56:50.20	147.11	2.19	-46.4	-62.1	3.6	1.51e+00	0	32	104	0	60	45918
2026-01-28 23:56:51.21	147.10	2.26	-46.4	-62.1	3.6	1.51e+00	0	32	104	0	60	46032
2026-01-28 23:56:52.22	147.09	2.32	-46.4	-62.1	3.6	1.51e+00	0	32	104	0	60	45858
2026-01-28 23:56:53.23	147.08	2.39	-46.4	-62.2	3.6	1.51e+00	0	32	104	0	60	46340
2026-01-28 23:56:54.25	147.07	2.45	-46.4	-62.2	3.6	1.51e+00	0	32	104	0	60	46535
2026-01-28 23:56:55.25	147.07	2.52	-46.4	-62.1	3.6	1.51e+00	0	32	104	0	60	46141
2026-01-28 23:56:56.26	147.06	2.59	-46.4	-62.1	3.6	1.51e+00	0	32	104	0	60	45834
2026-01-28 23:56:57.27	147.05	2.65	-46.4	-62.0	3.6	1.51e+00	0	32	104	0	60	45688
2026-01-28 23:56:58.29	147.04	2.72	-46.4	-62.0	3.6	1.51e+00	0	32	104	0	60	45584
2026-01-28 23:56:59.30	147.03	2.79	-46.4	-61.9	3.6	1.51e+00	0	32	104	0	60	44756
2026-01-28 23:57:00.31	147.02	2.85	-46.4	-62.0	3.6	1.51e+00	0	32	104	0	60	45442
2026-01-28 23:57:01.32	147.02	2.92	-46.4	-62.0	3.6	1.51e+00	0	32	104	0	60	45659
2026-01-28 23:57:02.33	147.01	2.99	-46.3	-62.2	3.6	1.51e+00	0	32	104	0	60	46368
2026-01-28 23:57:03.34	147.00	3.05	-46.4	-62.3	3.6	1.51e+00	0	32	104	0	60	47068
2026-01-28 23:57:04.35	146.99	3.12	-46.4	-62.1	3.6	1.51e+00	0	32	104	0	60	45956
2026-01-28 23:57:05.35	146.98	3.19	-46.4	-61.4	3.6	1.51e+00	0	32	104	0	60	42419
2026-01-28 23:57:06.36	146.97	3.26	-46.3	-59.5	3.7	1.51e+00	0	32	104	0	60	34167
2026-01-28 23:57:07.37	146.96	3.32	-46.1	-57.0	4.8	1.22e+00	92	32	104	0	60	25736
2026-01-28 23:57:08.38	146.95	3.39	-45.9	-54.3	6.0	5.42e-01	92	32	0	1048576	60	18713
2026-01-28 23:57:09.39	146.94	3.46	-45.4	-51.8	9.1	6.46e-02	54	32	0	3145728	60	14022
2026-01-28 23:57:10.40	146.93	3.53	-45.1	-50.7	10.0	5.32e-03	91	32	0	5242880	60	12419
2026-01-28 23:57:11.41	146.93	3.60	-44.1	-48.0	13.1	1.84e-03	0	32	0	7340032	60	9083
2026-01-28 23:57:12.42	146.92	3.67	-43.5	-46.9	14.2	9.90e-06	91	32	0	8388608	60	7966
2026-01-28 23:57:13.43	146.91	3.73	-43.0	-46.0	15.1	7.00e-07	0	32	0	10485760	60	7186
2026-01-28 23:57:14.44	146.90	3.80	-42.1	-44.6	16.5	0.00e+00	92	32	0	12582912	58	6860
2026-01-28 23:57:15.45	146.89	3.87	-42.4	-44.9	16.1	0.00e+00	0	32	0	14680064	58	7146
2026-01-28 23:57:16.46	146.88	3.94	-45.7	-52.7	5.3	7.00e-07	13	32	0	16777216	60	15534
2026-01-28 23:57:17.47	146.87	4.01	-45.8	-51.6	5.7	1.51e+00	0	32	104	16777216	60	13766
2026-01-28 23:57:18.48	146.86	4.08	-41.1	-43.0	17.1	4.90e-01	0	32	104	16777216	54	7172
2026-01-28 23:57:19.49	146.85	4.15	-45.9	-51.5	9.3	3.40e-01	92	32	0	17825792	60	13654
2026-01-28 23:57:20.50	146.84	4.22	-42.2	-44.3	16.9	3.26e-01	0	32	0	19922944	60	5908
2026-01-28 23:57:21.51	146.83	4.29	-43.4	-46.5	15.9	1.86e-02	91	32	0	22020096	60	7636
2026-01-28 23:57:22.51	146.82	4.36	-41.8	-43.9	17.7	0.00e+00	0	32	0	24117248	56	7145
2026-01-28 23:57:23.52	146.81	4.43	-41.6	-43.5	17.7	0.00e+00	92	32	0	25165824	56	6774
2026-01-28 23:57:24.53	146.80	4.50	-41.4	-43.2	17.7	0.00e+00	91	32	0	27262976	56	6577
2026-01-28 23:57:25.54	146.79	4.57	-41.3	-43.0	18.1	0.00e+00	0	32	0	29360128	56	6426
2026-01-28 23:57:26.55	146.78	4.65	-41.0	-42.6	18.8	0.00e+00	76	32	0	31457280	56	6130
2026-01-28 23:57:27.56	146.77	4.72	-40.8	-42.4	18.9	0.00e+00	0	32	0	33554432	56	6006
2026-01-28 23:57:28.57	146.76	4.79	-40.7	-42.3	19.0	0.00e+00	91	32	0	35651584	54	6630
2026-01-28 23:57:29.58	146.75	4.86	-40.6	-42.1	19.1	0.00e+00	0	32	0	36700160	54	6482
2026-01-28 23:57:30.59	146.74	4.93	-40.5	-42.0	19.4	0.00e+00	91	32	0	38797312	54	6457
2026-01-28 23:57:31.60	146.73	5.00	-40.2	-41.7	19.5	0.00e+00	91	32	0	40894464	54	6188
2026-01-28 23:57:32.61	146.72	5.08	-40.4	-41.9	19.4	0.00e+00	0	32	0	42991616	54	6327
2026-01-28 23:57:33.62	146.71	5.15	-40.5	-42.0	19.4	0.00e+00	89	32	0	45088768	54	6404
2026-01-28 23:57:34.63	146.70	5.22	-40.4	-41.9	19.5	0.00e+00	0	32	0	46137344	54	6364
2026-01-28 23:57:35.64	146.69	5.30	-40.2	-41.7	19.6	0.00e+00	92	32	0	48234496	54	6209
2026-01-28 23:57:36.65	146.68	5.37	-40.3	-41.7	19.5	0.00e+00	0	32	0	50331648	54	6239
2026-01-28 23:57:37.65	146.66	5.44	-40.3	-41.7	19.6	0.00e+00	92	32	0	52428800	54	6218
2026-01-28 23:57:38.66	146.65	5.51	-39.8	-41.2	20.0	0.00e+00	92	32	0	54525952	54	5849
2026-01-28 23:57:39.67	146.64	5.59	-39.8	-41.1	20.2	0.00e+00	0	32	0	55574528	54	5794
2026-01-28 23:57:40.68	146.63	5.66	-40.0	-41.3	20.0	0.00e+00	92	32	0	57671680	54	5930
2026-01-28 23:57:41.69	146.62	5.74	-40.0	-41.3	20.1	0.00e+00	0	32	0	59768832	54	5938
2026-01-28 23:57:42.70	146.61	5.81	-39.7	-41.0	20.2	0.00e+00	74	32	0	61865984	52	6446
2026-01-28 23:57:43.71	146.60	5.89	-40.1	-41.5	20.0	0.00e+00	0	32	0	63963136	52	6776
2026-01-28 23:57:44.72	146.59	5.96	-39.8	-41.1	20.2	0.00e+00	92	32	0	65011712	52	6473
2026-01-28 23:57:45.73	146.57	6.04	-39.6	-40.9	20.5	0.00e+00	39	32	0	67108864	52	6346
2026-01-28 23:57:46.73	146.56	6.11	-39.5	-40.8	20.4	0.00e+00	13	32	0	69206016	52	6288
2026-01-28 23:57:47.74	146.55	6.19	-39.4	-40.7	20.6	0.00e+00	90	32	0	71303168	52	6206
2026-01-28 23:57:48.75	146.54	6.26	-39.5	-40.7	20.7	0.00e+00	0	32	0	73400320	52	6234
2026-01-28 23:57:49.76	146.53	6.34	-39.5	-40.7	20.8	0.00e+00	92	32	0	74448896	52	6205
2026-01-28 23:57:50.77	146.52	6.41	-39.2	-40.4	20.9	0.00e+00	0	32	0	76546048	52	6013
2026-01-28 23:57:51.78	146.50	6.49	-39.1	-40.3	21.1	0.00e+00	90	32	0	78643200	52	5902
2026-01-28 23:57:52.79	146.49	6.57	-39.3	-40.5	20.8	0.00e+00	73	32	0	80740352	52	6077
2026-01-28 23:57:53.80	146.48	6.64	-39.2	-40.5	20.9	0.00e+00	91	32	0	82837504	52	6079
2026-01-28 23:57:54.81	146.47	6.72	-39.2	-40.5	20.8	0.00e+00	91	32	0	83886080	52	6048
2026-01-28 23:57:55.81	146.46	6.80	-39.0	-40.2	21.1	0.00e+00	0	32	0	85983232	52	5856
2026-01-28 23:57:56.82	146.44	6.87	-39.5	-40.8	20.5	0.00e+00	92	32	0	88080384	52	6285
2026-01-28 23:57:57.83	146.43	6.95	-39.1	-40.4	21.0	0.00e+00	0	32	0	90177536	52	5980
2026-01-28 23:57:58.84	146.42	7.03	-39.3	-40.6	20.7	0.00e+00	92	32	0	92274688	52	6150
2026-01-28 23:57:59.85	146.41	7.11	-39.4	-40.6	20.8	0.00e+00	41	32	0	93323264	52	6139
2026-01-28 23:58:00.86	146.39	7.19	-39.6	-40.9	20.5	0.00e+00	92	32	0	95420416	52	6331
2026-01-28 23:58:01.87	146.38	7.27	-39.7	-41.0	20.5	0.00e+00	90	32	0	97517568	52	6464
2026-01-28 23:58:02.87	146.37	7.34	-39.7	-41.0	20.3	0.00e+00	0	32	0	99614720	52	6452
2026-01-28 23:58:03.88	146.36	7.42	-40.0	-41.4	20.2	0.00e+00	84	32	0	101711872	52	6730
2026-01-28 23:58:04.89	146.34	7.50	-40.1	-41.5	20.1	0.00e+00	0	32	0	102760448	52	6805
2026-01-28 23:58:05.90	146.33	7.58	-40.0	-41.3	20.2	0.00e+00	92	32	0	104857600	52	6676
2026-01-28 23:58:06.91	146.32	7.66	-39.9	-41.2	20.2	0.00e+00	9	32	0	106954752	52	6601
2026-01-28 23:58:07.92	146.30	7.74	-39.6	-40.9	20.5	0.00e+00	92	32	0	109051904	52	6384
2026-01-28 23:58:08.93	146.29	7.82	-39.6	-41.0	20.5	0.00e+00	91	32	0	111149056	52	6415
2026-01-28 23:58:09.94	146.28	7.90	-39.7	-41.1	20.4	0.00e+00	0	32	0	112197632	52	6476
2026-01-28 23:58:10.95	146.26	7.98	-39.6	-40.9	20.6	0.00e+00	90	32	0	114294784	52	6362
2026-01-28 23:58:11.95	146.25	8.06	-39.4	-40.6	20.8	0.00e+00	0	32	0	116391936	52	6143
2026-01-28 23:58:12.96	146.24	8.15	-39.0	-40.2	21.2	0.00e+00	91	32	0	118489088	52	5877
2026-01-28 23:58:13.97	146.22	8.23	-38.7	-39.9	21.5	0.00e+00	0	32	0	120586240	52	5648
2026-01-28 23:58:14.98	146.21	8.31	-38.8	-39.9	21.4	0.00e+00	92	32	0	121634816	50	6372
2026-01-28 23:58:15.99	146.19	8.39	-38.6	-39.7	21.7	0.00e+00	92	32	0	123731968	50	6189
2026-01-28 23:58:16.99	146.18	8.47	-38.5	-39.6	21.6	0.00e+00	0	32	0	125829120	50	6159
2026-01-28 23:58:18.00	146.17	8.56	-38.5	-39.6	21.7	0.00e+00	91	32	0	127926272	50	6158
2026-01-28 23:58:19.01	146.15	8.64	-38.6	-39.7	21.7	0.00e+00	0	32	0	130023424	50	6221
2026-01-28 23:58:20.02	146.14	8.72	-38.4	-39.5	21.8	0.00e+00	91	32	0	132120576	50	6062
2026-01-28 23:58:21.03	146.12	8.81	-38.6	-39.7	21.8	0.00e+00	0	32	0	133169152	50	6208
2026-01-28 23:58:22.04	146.11	8.89	-38.5	-39.6	21.7	0.00e+00	90	32	0	135266304	50	6162
2026-01-28 23:58:23.05	146.09	8.97	-39.0	-40.1	21.3	0.00e+00	47	32	0	137363456	50	6528
2026-01-28 23:58:24.06	146.08	9.06	-39.2	-40.4	21.2	0.00e+00	0	32	0	139460608	50	6731
2026-01-28 23:58:25.07	146.06	9.14	-39.3	-40.5	21.0	0.00e+00	90	32	0	141557760	50	6803
2026-01-28 23:58:26.08	146.05	9.23	-39.4	-40.6	20.8	0.00e+00	0	32	0	142606336	50	6877
2026-01-28 23:58:27.09	146.03	9.31	-39.2	-40.4	21.2	0.00e+00	92	32	0	144703488	50	6723
2026-01-28 23:58:28.10	146.02	9.40	-39.3	-40.5	21.2	0.00e+00	0	32	0	146800640	50	6790
2026-01-28 23:58:29.11	146.00	9.49	-38.6	-39.7	21.7	0.00e+00	92	32	0	148897792	50	6214
2026-01-28 23:58:30.12	145.99	9.57	-38.8	-39.9	21.5	0.00e+00	0	32	0	150994944	50	6355
2026-01-28 23:58:31.13	145.97	9.66	-38.4	-39.5	21.8	0.00e+00	92	32	0	152043520	50	6075
2026-01-28 23:58:32.14	145.96	9.74	-38.1	-39.2	22.1	0.00e+00	92	32	0	154140672	50	5838
2026-01-28 23:58:33.14	145.94	9.83	-38.2	-39.2	22.1	0.00e+00	0	32	0	156237824	50	5891
2026-01-28 23:58:34.15	145.93	9.92	-38.1	-39.1	22.2	0.00e+00	88	32	0	158334976	50	5821
2026-01-28 23:58:35.16	145.91	10.01	-37.9	-38.8	22.4	0.00e+00	0	32	0	160432128	50	5616
2026-01-28 23:58:36.17	145.89	10.09	-37.9	-38.9	22.3	0.00e+00	92	32	0	161480704	50	5685
2026-01-28 23:58:37.18	145.88	10.18	-37.8	-38.8	22.4	0.00e+00	0	32	0	163577856	50	5616
2026-01-28 23:58:38.19	145.86	10.27	-38.0	-39.0	22.2	0.00e+00	95	32	0	165675008	50	5715
2026-01-28 23:58:39.19	145.84	10.36	-38.0	-39.0	22.3	0.00e+00	84	32	0	167772160	50	5707
2026-01-28 23:58:40.21	145.83	10.45	-38.0	-39.1	22.2	0.00e+00	0	32	0	169869312	50	5770
2026-01-28 23:58:41.22	145.81	10.54	-38.1	-39.1	22.2	0.00e+00	78	32	0	170917888	50	5805
2026-01-28 23:58:42.22	145.79	10.63	-38.2	-39.3	22.1	0.00e+00	0	32	0	173015040	50	5959
2026-01-28 23:58:43.23	145.78	10.72	-38.3	-39.4	22.0	0.00e+00	92	32	0	175112192	50	5992
2026-01-28 23:58:44.24	145.76	10.81	-38.4	-39.5	21.8	0.00e+00	0	32	0	177209344	50	6101
2026-01-28 23:58:45.25	145.74	10.90	-38.3	-39.4	22.0	0.00e+00	92	32	0	179306496	50	5990
2026-01-28 23:58:46.26	145.73	10.99	-38.5	-39.6	21.8	0.00e+00	76	32	0	180355072	50	6133
2026-01-28 23:58:47.27	145.71	11.08	-38.3	-39.4	21.9	0.00e+00	0	32	0	182452224	50	5988
2026-01-28 23:58:48.28	145.69	11.17	-38.1	-39.2	22.1	0.00e+00	92	32	0	184549376	50	5869
2026-01-28 23:58:49.29	145.67	11.27	-38.0	-39.0	22.4	0.00e+00	0	32	0	186646528	50	5724
2026-01-28 23:58:50.30	145.65	11.36	-38.0	-39.0	22.4	0.00e+00	92	32	0	188743680	50	5731
2026-01-28 23:58:51.31	145.64	11.45	-37.8	-38.8	22.6	0.00e+00	0	32	0	189792256	48	6247
2026-01-28 23:58:52.31	145.62	11.54	-37.3	-38.2	23.0	0.00e+00	92	32	0	191889408	48	5884
2026-01-28 23:58:53.32	145.60	11.64	-37.5	-38.5	22.8	0.00e+00	0	32	0	193986560	48	6066
2026-01-28 23:58:54.33	145.58	11.73	-37.0	-37.9	23.2	0.00e+00	92	32	0	196083712	48	5692
2026-01-28 23:58:55.34	145.56	11.83	-37.0	-37.9	23.2	0.00e+00	92	32	0	198180864	48	5689
2026-01-28 23:58:56.35	145.55	11.92	-37.1	-38.0	23.1	0.00e+00	0	32	0	199229440	48	5743
2026-01-28 23:58:57.36	145.53	12.02	-37.2	-38.1	23.0	0.00e+00	90	32	0	201326592	48	5828
2026-01-28 23:58:58.37	145.51	12.11	-37.4	-38.3	22.9	0.00e+00	0	32	0	203423744	48	5926
2026-01-28 23:58:59.38	145.49	12.21	-37.5	-38.4	22.8	0.00e+00	92	32	0	205520896	48	6028
2026-01-28 23:59:00.39	145.47	12.30	-37.3	-38.3	22.9	0.00e+00	0	32	0	207618048	48	5903
2026-01-28 23:59:01.40	145.45	12.40	-37.2	-38.1	23.1	0.00e+00	92	32	0	208666624	48	5786
2026-01-28 23:59:02.41	145.43	12.50	-37.1	-38.0	23.1	0.00e+00	92	32	0	210763776	48	5752
2026-01-28 23:59:03.41	145.41	12.59	-37.0	-38.0	23.2	0.00e+00	0	32	0	212860928	48	5705
2026-01-28 23:59:04.42	145.39	12.69	-37.1	-38.0	23.2	0.00e+00	90	32	0	214958080	48	5722
2026-01-28 23:59:05.43	145.37	12.79	-37.0	-37.9	23.3	0.00e+00	0	32	0	217055232	48	5665
2026-01-28 23:59:06.44	145.35	12.89	-37.0	-37.9	23.3	0.00e+00	92	32	0	218103808	48	5644
2026-01-28 23:59:07.45	145.33	12.99	-36.8	-37.7	23.5	0.00e+00	9	32	0	220200960	48	5512
2026-01-28 23:59:08.46	145.31	13.09	-36.7	-37.6	23.5	0.00e+00	92	32	0	222298112	46	6131
2026-01-28 23:59:09.47	145.29	13.19	-36.7	-37.5	23.6	0.00e+00	92	32	0	224395264	46	6082
2026-01-28 23:59:10.48	145.27	13.29	-36.6	-37.4	23.7	0.00e+00	0	32	0	226492416	46	6014
2026-01-28 23:59:11.49	145.25	13.39	-36.7	-37.6	23.6	0.00e+00	73	32	0	228589568	46	6140
2026-01-28 23:59:12.50	145.23	13.49	-36.8	-37.7	23.4	0.00e+00	0	32	0	229638144	46	6200
2026-01-28 23:59:13.51	145.21	13.59	-36.8	-37.7	23.5	0.00e+00	92	32	0	231735296	46	6179
2026-01-28 23:59:14.52	145.18	13.69	-36.9	-37.7	23.5	0.00e+00	17	32	0	233832448	46	6227
2026-01-28 23:59:15.53	145.16	13.79	-36.8	-37.6	23.6	0.00e+00	90	32	0	235929600	46	6165
2026-01-28 23:59:16.53	145.14	13.89	-36.9	-37.8	23.5	0.00e+00	92	32	0	238026752	46	6251
2026-01-28 23:59:17.54	145.12	14.00	-36.7	-37.5	23.6	0.00e+00	0	32	0	239075328	46	6083
2026-01-28 23:59:18.55	145.10	14.10	-36.7	-37.6	23.6	0.00e+00	92	32	0	241172480	46	6137
2026-01-28 23:59:19.56	145.07	14.20	-36.8	-37.7	23.5	0.00e+00	0	32	0	243269632	46	6232
2026-01-28 23:59:20.57	145.05	14.31	-36.5	-37.4	23.8	0.00e+00	92	32	0	245366784	46	5977
2026-01-28 23:59:21.58	145.03	14.41	-36.7	-37.5	23.6	0.00e+00	0	32	0	247463936	46	6092
2026-01-28 23:59:22.59	145.01	14.52	-36.4	-37.3	23.8	0.00e+00	92	32	0	248512512	46	5912
2026-01-28 23:59:23.61	144.98	14.63	-36.5	-37.3	23.8	0.00e+00	90	32	0	250609664	46	5934
2026-01-28 23:59:24.62	144.96	14.73	-36.4	-37.2	23.9	0.00e+00	0	32	0	252706816	46	5886
2026-01-28 23:59:25.63	144.94	14.84	-36.5	-37.4	23.9	0.00e+00	90	32	0	254803968	46	5967
2026-01-28 23:59:26.64	144.91	14.95	-36.2	-37.1	24.0	0.00e+00	0	32	0	256901120	46	5764
2026-01-28 23:59:27.65	144.89	15.05	-36.4	-37.2	23.9	0.00e+00	92	32	0	257949696	46	5878
2026-01-28 23:59:28.66	144.87	15.16	-36.2	-37.1	23.9	0.00e+00	0	32	0	260046848	46	5769
2026-01-28 23:59:29.67	144.84	15.27	-36.1	-36.9	24.1	0.00e+00	90	32	0	262144000	46	5688
2026-01-28 23:59:30.68	144.82	15.38	-36.0	-36.8	24.0	0.00e+00	71	32	0	264241152	46	5612
2026-01-28 23:59:31.69	144.79	15.49	-36.1	-36.9	23.8	0.00e+00	92	32	0	266338304	46	5693
2026-01-28 23:59:32.70	144.77	15.60	-36.3	-37.2	23.9	0.00e+00	92	32	0	267386880	46	5849
2026-01-28 23:59:33.71	144.74	15.71	-36.2	-37.1	23.5	0.00e+00	0	32	0	269484032	46	5785
2026-01-28 23:59:34.71	144.72	15.82	-36.1	-37.0	24.2	0.00e+00	92	32	0	271581184	46	5698
2026-01-28 23:59:35.72	144.69	15.93	-36.3	-37.1	23.8	0.00e+00	0	32	0	273678336	46	5796
2026-01-28 23:59:36.73	144.67	16.04	-36.2	-37.1	24.1	0.00e+00	92	32	0	275775488	46	5795
2026-01-28 23:59:37.74	144.64	16.15	-36.3	-37.2	24.0	0.00e+00	0	32	0	276824064	46	5840
2026-01-28 23:59:38.75	144.61	16.27	-36.2	-37.0	24.1	0.00e+00	92	32	0	278921216	46	5734
2026-01-28 23:59:39.76	144.59	16.38	-36.0	-36.9	24.2	0.00e+00	92	32	0	281018368	46	5650
2026-01-28 23:59:40.77	144.56	16.49	-36.2	-37.1	24.0	0.00e+00	0	32	0	283115520	46	5768
2026-01-28 23:59:41.78	144.54	16.61	-36.0	-36.8	24.2	0.00e+00	73	32	0	285212672	46	5611
2026-01-28 23:59:42.79	144.51	16.72	-36.2	-37.0	24.0	0.00e+00	0	32	0	286261248	46	5736
2026-01-28 23:59:43.80	144.48	16.84	-36.0	-36.8	24.3	0.00e+00	92	32	0	288358400	46	5572
2026-01-28 23:59:44.81	144.45	16.96	-35.9	-36.7	24.4	0.00e+00	80	32	0	290455552	46	5510
2026-01-28 23:59:45.82	144.43	17.07	-36.0	-36.9	24.2	0.00e+00	92	32	0	292552704	46	5631
2026-01-28 23:59:46.83	144.40	17.19	-36.1	-37.0	24.1	0.00e+00	90	32	0	294649856	46	5703
2026-01-28 23:59:47.84	144.37	17.31	-36.1	-37.0	24.2	0.00e+00	0	32	0	296747008	46	5709
2026-01-28 23:59:48.84	144.34	17.43	-36.4	-37.3	24.0	0.00e+00	92	32	0	297795584	46	5908
2026-01-28 23:59:49.85	144.31	17.54	-36.5	-37.3	24.0	0.00e+00	0	32	0	299892736	46	5952
2026-01-28 23:59:50.86	144.28	17.66	-36.6	-37.5	23.9	0.00e+00	92	32	0	301989888	46	6034
2026-01-28 23:59:51.87	144.26	17.78	-36.5	-37.4	23.9	0.00e+00	0	32	0	304087040	46	6008
2026-01-28 23:59:52.88	144.23	17.90	-36.5	-37.4	23.8	0.00e+00	92	32	0	306184192	46	5984
2026-01-28 23:59:53.89	144.20	18.03	-36.4	-37.3	24.0	0.00e+00	92	32	0	307232768	46	5907
2026-01-28 23:59:54.90	144.17	18.15	-36.4	-37.2	24.0	0.00e+00	84	32	0	309329920	46	5891
2026-01-28 23:59:55.91	144.14	18.27	-36.3	-37.2	24.0	0.00e+00	92	32	0	311427072	46	5845
2026-01-28 23:59:56.92	144.11	18.39	-36.3	-37.2	24.1	0.00e+00	0	32	0	313524224	46	5830
2026-01-28 23:59:57.93	144.08	18.52	-36.5	-37.3	23.9	0.00e+00	90	32	0	315621376	46	5961
2026-01-28 23:59:58.94	144.04	18.64	-36.1	-36.9	24.2	0.00e+00	0	32	0	316669952	46	5672
2026-01-28 23:59:59.95	144.01	18.77	-36.0	-36.8	24.3	0.00e+00	92	32	0	318767104	46	5605
2026-01-29 00:00:00.96	143.98	18.89	-36.0	-36.9	24.3	0.00e+00	91	32	0	320864256	46	5645
2026-01-29 00:00:01.97	143.95	19.02	-36.1	-36.9	24.4	0.00e+00	17	32	0	322961408	46	5661
2026-01-29 00:00:02.98	143.92	19.14	-36.1	-37.0	24.2	0.00e+00	92	32	0	325058560	46	5705
2026-01-29 00:00:03.99	143.88	19.27	-36.1	-37.0	24.3	0.00e+00	0	32	0	326107136	46	5715
2026-01-29 00:00:04.99	143.85	19.40	-36.2	-37.1	24.3	0.00e+00	92	32	0	328204288	46	5766
2026-01-29 00:00:06.00	143.82	19.53	-36.1	-36.9	24.3	0.00e+00	0	32	0	330301440	46	5686
2026-01-29 00:00:07.01	143.79	19.66	-36.3	-37.2	24.2	0.00e+00	92	32	0	332398592	46	5850
2026-01-29 00:00:08.02	143.75	19.79	-36.2	-37.0	24.2	0.00e+00	0	32	0	334495744	46	5744
2026-01-29 00:00:09.03	143.72	19.92	-36.3	-37.1	24.1	0.00e+00	92	32	0	335544320	46	5812
2026-01-29 00:00:10.04	143.68	20.05	-36.3	-37.1	24.1	0.00e+00	90	32	0	337641472	46	5827
2026-01-29 00:00:11.05	143.65	20.18	-36.4	-37.3	24.1	0.00e+00	0	32	0	339738624	46	5910
2026-01-29 00:00:12.06	143.61	20.31	-36.1	-37.0	24.2	0.00e+00	89	32	0	341835776	46	5707
2026-01-29 00:00:13.07	143.58	20.45	-36.1	-36.9	24.4	0.00e+00	0	32	0	343932928	46	5667
2026-01-29 00:00:14.08	143.54	20.58	-36.0	-36.8	24.3	0.00e+00	77	32	0	344981504	46	5601
2026-01-29 00:00:15.09	143.51	20.72	-35.9	-36.7	24.4	0.00e+00	0	32	0	347078656	46	5555
2026-01-29 00:00:16.10	143.47	20.85	-35.8	-36.6	24.5	0.00e+00	92	32	0	349175808	46	5486
2026-01-29 00:00:17.11	143.43	20.99	-35.9	-36.7	24.6	0.00e+00	92	32	0	351272960	46	5514
2026-01-29 00:00:18.12	143.40	21.13	-35.8	-36.6	24.7	0.00e+00	0	32	0	353370112	46	5447
2026-01-29 00:00:19.13	143.36	21.26	-35.7	-36.5	24.6	0.00e+00	92	32	0	354418688	44	6073
2026-01-29 00:00:20.14	143.32	21.40	-35.8	-36.6	24.5	0.00e+00	32	32	0	356515840	44	6124
2026-01-29 00:00:21.15	143.28	21.54	-35.6	-36.4	24.7	0.00e+00	92	32	0	358612992	44	5991
2026-01-29 00:00:22.16	143.25	21.68	-36.0	-36.8	24.4	0.00e+00	0	32	0	360710144	44	6299
2026-01-29 00:00:23.17	143.21	21.82	-35.8	-36.5	24.5	0.00e+00	92	33	0	362807296	44	6101
2026-01-29 00:00:24.18	143.17	21.96	-35.9	-36.7	24.4	0.00e+00	92	32	0	364904448	44	6195
2026-01-29 00:00:25.19	143.13	22.11	-36.0	-36.8	24.4	0.00e+00	0	32	0	365953024	44	6313
2026-01-29 00:00:26.20	143.09	22.25	-36.3	-37.1	24.2	0.00e+00	92	32	0	368050176	44	6524
2026-01-29 00:00:27.21	143.05	22.39	-36.3	-37.1	24.3	0.00e+00	0	32	0	370147328	44	6501
2026-01-29 00:00:28.22	143.01	22.54	-36.4	-37.2	24.1	0.00e+00	91	32	0	372244480	44	6588
2026-01-29 00:00:29.23	142.97	22.68	-36.4	-37.2	24.1	0.00e+00	0	32	0	374341632	44	6601
2026-01-29 00:00:30.24	142.92	22.83	-36.7	-37.6	23.9	0.00e+00	92	32	0	375390208	46	6113
2026-01-29 00:00:31.25	142.88	22.98	-36.5	-37.3	24.1	0.00e+00	78	32	0	377487360	46	5957
2026-01-29 00:00:32.26	142.84	23.12	-36.5	-37.4	24.1	0.00e+00	3	32	0	379584512	46	5966
2026-01-29 00:00:33.26	142.80	23.27	-36.2	-37.1	24.3	0.00e+00	91	32	0	381681664	46	5777
2026-01-29 00:00:34.27	142.75	23.42	-36.2	-37.0	24.4	0.00e+00	0	32	0	383778816	46	5741
2026-01-29 00:00:35.28	142.71	23.57	-36.1	-37.0	24.3	0.00e+00	91	32	0	384827392	46	5711
2026-01-29 00:00:36.29	142.67	23.72	-36.1	-36.9	24.4	0.00e+00	0	32	0	386924544	46	5675
2026-01-29 00:00:37.30	142.62	23.87	-35.7	-36.5	24.5	0.00e+00	92	32	0	389021696	44	6098
2026-01-29 00:00:38.31	142.58	24.03	-35.8	-36.6	24.5	0.00e+00	79	32	0	391118848	44	6158
2026-01-29 00:00:39.32	142.53	24.18	-35.9	-36.7	24.4	0.00e+00	91	32	0	393216000	44	6240
2026-01-29 00:00:40.33	142.48	24.34	-36.3	-37.2	24.1	0.00e+00	92	32	0	394264576	44	6541
2026-01-29 00:00:41.34	142.44	24.49	-36.5	-37.4	24.0	0.00e+00	0	32	0	396361728	44	6734
2026-01-29 00:00:42.35	142.39	24.65	-36.9	-37.8	23.6	0.00e+00	90	32	0	398458880	46	6279
2026-01-29 00:00:43.36	142.34	24.81	-37.3	-38.2	23.4	0.00e+00	0	32	0	400556032	46	6589
2026-01-29 00:00:44.37	142.29	24.96	-38.0	-39.0	22.8	0.00e+00	90	32	0	402653184	48	6407
2026-01-29 00:00:45.38	142.25	25.12	-37.6	-38.6	23.1	0.00e+00	49	32	0	403701760	48	6127
2026-01-29 00:00:46.39	142.20	25.28	-37.8	-38.8	22.9	0.00e+00	92	32	0	405798912	48	6269
2026-01-29 00:00:47.40	142.15	25.45	-37.4	-38.3	23.4	0.00e+00	92	32	0	407896064	48	5944
2026-01-29 00:00:48.41	142.10	25.61	-37.1	-38.0	23.7	0.00e+00	0	32	0	409993216	48	5703
2026-01-29 00:00:49.41	142.05	25.77	-37.0	-37.8	23.7	0.00e+00	92	32	0	412090368	48	5620
2026-01-29 00:00:50.42	141.99	25.93	-36.8	-37.6	23.9	0.00e+00	0	32	0	413138944	48	5498
2026-01-29 00:00:51.43	141.94	26.10	-37.1	-38.0	23.6	0.00e+00	92	33	0	415236096	46	6439
2026-01-29 00:00:52.44	141.89	26.27	-37.3	-38.2	23.5	0.00e+00	9	32	0	417333248	46	6552
2026-01-29 00:00:53.45	141.84	26.43	-36.8	-37.6	23.9	0.00e+00	92	32	0	419430400	46	6148
2026-01-29 00:00:54.46	141.78	26.60	-37.4	-38.3	23.3	0.00e+00	92	32	0	421527552	46	6684
2026-01-29 00:00:55.47	141.73	26.77	-37.3	-38.2	23.4	0.00e+00	0	32	0	422576128	46	6592
2026-01-29 00:00:56.48	141.67	26.94	-37.5	-38.4	23.3	0.00e+00	92	32	0	424673280	46	6742
2026-01-29 00:00:57.49	141.62	27.11	-37.8	-38.8	23.0	0.00e+00	0	32	0	426770432	48	6260
2026-01-29 00:00:58.50	141.56	27.28	-37.8	-38.7	23.1	0.00e+00	92	32	0	428867584	48	6204
2026-01-29 00:00:59.51	141.51	27.46	-38.4	-39.5	22.5	0.00e+00	9	32	0	430964736	48	6771
2026-01-29 00:01:00.52	141.45	27.63	-38.5	-39.5	22.5	0.00e+00	92	32	0	433061888	48	6801
2026-01-29 00:01:01.53	141.39	27.81	-38.2	-39.2	22.6	0.00e+00	90	32	0	434110464	48	6599
2026-01-29 00:01:02.54	141.33	27.98	-38.3	-39.4	22.6	0.00e+00	70	32	0	436207616	48	6695
2026-01-29 00:01:03.54	141.27	28.16	-38.5	-39.5	22.6	0.00e+00	90	32	0	438304768	48	6779
2026-01-29 00:01:04.55	141.21	28.34	-38.4	-39.4	22.5	0.00e+00	0	32	0	440401920	48	6738
2026-01-29 00:01:05.56	141.15	28.52	-38.5	-39.5	22.4	0.00e+00	92	32	0	442499072	48	6833
2026-01-29 00:01:06.57	141.09	28.70	-37.7	-38.7	23.1	0.00e+00	0	32	0	443547648	48	6202
2026-01-29 00:01:07.58	141.03	28.88	-38.1	-39.1	22.8	0.00e+00	92	32	0	445644800	48	6500
2026-01-29 00:01:08.59	140.96	29.07	-38.2	-39.2	22.7	0.00e+00	92	32	0	447741952	48	6565
2026-01-29 00:01:09.60	140.90	29.25	-38.3	-39.3	22.6	0.00e+00	1	32	0	449839104	48	6642
2026-01-29 00:01:10.62	140.83	29.44	-38.4	-39.4	22.6	0.00e+00	92	32	0	451936256	48	6731
2026-01-29 00:01:11.63	140.77	29.62	-38.7	-39.7	22.4	0.00e+00	32	32	0	452984832	48	7004
2026-01-29 00:01:12.64	140.70	29.81	-38.7	-39.7	22.3	0.00e+00	92	32	0	455081984	48	6974
2026-01-29 00:01:13.64	140.64	30.00	-38.7	-39.7	22.3	0.00e+00	0	32	0	457179136	48	6992
2026-01-29 00:01:14.66	140.57	30.19	-38.3	-39.3	22.6	0.00e+00	92	32	0	459276288	50	5943
2026-01-29 00:01:15.67	140.50	30.38	-38.6	-39.6	22.5	0.00e+00	79	32	0	461373440	50	6144
2026-01-29 00:01:16.67	140.43	30.57	-38.6	-39.6	22.5	0.00e+00	71	32	0	462422016	50	6145
2026-01-29 00:01:17.68	140.36	30.77	-38.7	-39.8	22.3	0.00e+00	92	32	0	464519168	50	6249
2026-01-29 00:01:18.69	140.29	30.96	-38.7	-39.7	22.2	0.00e+00	33	32	0	466616320	50	6220
2026-01-29 00:01:19.70	140.22	31.16	-39.0	-40.1	22.1	0.00e+00	87	32	0	468713472	50	6523
2026-01-29 00:01:20.71	140.14	31.36	-39.0	-40.0	21.9	0.00e+00	0	32	0	470810624	50	6462
2026-01-29 00:01:21.72	140.07	31.56	-39.3	-40.4	21.8	0.00e+00	92	32	0	471859200	50	6746
2026-01-29 00:01:22.73	139.99	31.76	-39.5	-40.6	21.3	0.00e+00	0	32	0	473956352	50	6885
2026-01-29 00:01:23.74	139.92	31.96	-39.9	-41.1	21.2	0.00e+00	92	32	0	476053504	52	6497
2026-01-29 00:01:24.75	139.84	32.16	-40.1	-41.2	20.9	0.00e+00	92	32	0	478150656	52	6596
2026-01-29 00:01:25.76	139.76	32.37	-40.4	-41.7	20.6	0.00e+00	0	32	0	480247808	54	6204
2026-01-29 00:01:26.77	139.68	32.57	-40.1	-41.2	21.0	0.00e+00	92	32	0	481296384	54	5896
2026-01-29 00:01:27.78	139.60	32.78	-40.0	-41.2	21.2	0.00e+00	0	32	0	483393536	54	5831
2026-01-29 00:01:28.79	139.52	32.99	-40.0	-41.2	21.1	0.00e+00	92	32	0	485490688	54	5830
2026-01-29 00:01:29.80	139.44	33.20	-39.8	-41.0	21.3	0.00e+00	0	32	0	487587840	54	5703
2026-01-29 00:01:30.81	139.36	33.41	-40.0	-41.2	21.1	0.00e+00	90	32	0	489684992	52	6540
2026-01-29 00:01:31.82	139.27	33.62	-40.2	-41.4	21.1	0.00e+00	92	32	0	490733568	52	6748
2026-01-29 00:01:32.82	139.19	33.84	-40.4	-41.7	20.9	0.00e+00	0	32	0	492830720	52	6928
2026-01-29 00:01:33.83	139.10	34.05	-40.6	-41.9	20.5	0.00e+00	88	32	0	494927872	52	7124
2026-01-29 00:01:34.84	139.01	34.27	-40.6	-41.8	20.6	0.00e+00	0	32	0	497025024	54	6300
2026-01-29 00:01:35.85	138.92	34.49	-40.0	-41.1	21.0	0.00e+00	92	32	0	499122176	54	5828
2026-01-29 00:01:36.86	138.83	34.71	-40.6	-41.8	20.6	0.00e+00	0	32	0	501219328	54	6317
2026-01-29 00:01:37.87	138.74	34.93	-40.1	-41.3	21.1	0.00e+00	92	32	0	502267904	54	5942
2026-01-29 00:01:38.88	138.65	35.15	-39.8	-41.0	21.4	0.00e+00	82	32	0	504365056	52	6414
2026-01-29 00:01:39.89	138.55	35.38	-39.8	-40.9	21.4	0.00e+00	0	32	0	506462208	52	6384
2026-01-29 00:01:40.90	138.45	35.60	-39.8	-41.0	21.5	0.00e+00	85	32	0	508559360	52	6411
2026-01-29 00:01:41.91	138.36	35.83	-39.9	-41.1	21.2	0.00e+00	0	32	0	510656512	52	6480
2026-01-29 00:01:42.92	138.26	36.06	-40.1	-41.3	21.0	0.00e+00	92	32	0	511705088	52	6668
2026-01-29 00:01:43.93	138.16	36.29	-40.2	-41.4	20.9	0.00e+00	0	33	0	513802240	52	6754
2026-01-29 00:01:44.94	138.06	36.52	-40.4	-41.7	20.6	0.00e+00	92	32	0	515899392	54	6209
2026-01-29 00:01:45.95	137.95	36.75	-40.6	-41.9	20.5	0.00e+00	82	32	0	517996544	54	6379
2026-01-29 00:01:46.96	137.85	36.99	-40.5	-41.8	20.5	0.00e+00	0	32	0	520093696	54	6268
2026-01-29 00:01:47.97	137.74	37.22	-40.0	-41.3	21.0	0.00e+00	92	32	0	521142272	54	5897
2026-01-29 00:01:48.97	137.64	37.46	-31.8	-40.8	16.0	0.00e+00	4	33	0	523239424	42	11188
2026-01-29 00:01:49.99	137.53	37.70	-30.6	-40.4	17.3	4.97e-02	90	32	0	525336576	34	16894
2026-01-29 00:01:51.00	137.41	37.94	-31.9	-39.8	17.8	2.39e-02	0	32	0	527433728	36	14106
2026-01-29 00:01:52.01	137.30	38.19	-32.3	-40.2	17.1	3.14e-02	90	32	0	529530880	36	14686
2026-01-29 00:01:53.02	137.19	38.43	-32.5	-39.9	18.1	2.88e-02	63	32	0	530579456	36	14145
2026-01-29 00:01:54.03	137.07	38.68	-33.1	-39.4	19.0	2.66e-02	92	32	0	532676608	38	11963
2026-01-29 00:01:55.03	136.95	38.92	-39.0	-40.0	22.1	6.09e-03	92	32	0	534773760	52	5724
2026-01-29 00:01:56.04	136.83	39.17	-39.7	-40.8	21.4	0.00e+00	0	32	0	536870912	52	6293
2026-01-29 00:01:57.05	136.71	39.42	-40.1	-41.3	21.0	0.00e+00	92	32	0	538968064	52	6631
2026-01-29 00:01:58.06	136.59	39.68	-39.8	-41.0	21.3	0.00e+00	0	32	0	540016640	52	6431
2026-01-29 00:01:59.07	136.46	39.93	-39.5	-40.6	21.7	0.00e+00	92	32	0	542113792	52	6152
2026-01-29 00:02:00.08	136.33	40.19	-39.8	-41.0	21.3	0.00e+00	0	32	0	544210944	52	6415
2026-01-29 00:02:01.09	136.20	40.45	-39.7	-40.9	21.3	0.00e+00	92	32	0	546308096	52	6348
2026-01-29 00:02:02.10	136.07	40.71	-40.0	-41.2	21.2	0.00e+00	92	32	0	548405248	52	6580
2026-01-29 00:02:03.11	135.94	40.97	-39.8	-40.9	21.4	0.00e+00	0	32	0	549453824	52	6359
2026-01-29 00:02:04.12	135.80	41.23	-39.8	-41.0	21.1	0.00e+00	84	32	0	551550976	52	6422
2026-01-29 00:02:05.12	135.66	41.49	-39.3	-40.4	21.9	0.00e+00	0	32	0	553648128	52	5973
2026-01-29 00:02:06.13	135.52	41.76	-39.2	-40.2	22.0	0.00e+00	92	32	0	555745280	52	5852
2026-01-29 00:02:07.14	135.38	42.03	-39.6	-40.7	21.6	0.00e+00	39	32	0	557842432	52	6174
2026-01-29 00:02:08.15	135.23	42.30	-39.9	-41.0	21.2	0.00e+00	92	32	0	558891008	52	6439
2026-01-29 00:02:09.16	135.08	42.57	-40.0	-41.1	21.2	0.00e+00	92	32	0	560988160	52	6524
2026-01-29 00:02:10.17	134.93	42.84	-40.2	-41.4	20.7	0.00e+00	0	32	0	563085312	52	6696
2026-01-29 00:02:11.18	134.78	43.12	-40.1	-41.3	21.0	0.00e+00	91	32	0	565182464	52	6676
2026-01-29 00:02:12.19	134.62	43.39	-40.1	-41.3	21.0	0.00e+00	0	32	0	567279616	52	6637
2026-01-29 00:02:13.20	134.46	43.67	-39.7	-40.8	21.5	0.00e+00	92	32	0	568328192	52	6309
2026-01-29 00:02:14.21	134.30	43.95	-40.4	-41.8	20.7	0.00e+00	0	32	0	570425344	52	7032
2026-01-29 00:02:15.22	134.13	44.24	-40.5	-41.9	20.5	0.00e+00	92	32	0	572522496	52	7148
2026-01-29 00:02:16.23	133.97	44.52	-40.0	-41.2	21.1	0.00e+00	92	32	0	574619648	52	6575
2026-01-29 00:02:17.24	133.79	44.81	-39.7	-40.9	21.6	0.00e+00	91	32	0	576716800	52	6326
2026-01-29 00:02:18.25	133.62	45.09	-38.9	-40.0	22.3	0.00e+00	92	32	0	577765376	52	5747
2026-01-29 00:02:19.26	133.44	45.38	-38.2	-39.2	22.7	0.00e+00	0	32	0	579862528	50	5834
2026-01-29 00:02:20.27	133.26	45.67	-38.2	-39.2	22.8	0.00e+00	88	32	0	581959680	50	5833
2026-01-29 00:02:21.27	133.08	45.96	-38.7	-39.8	22.3	0.00e+00	0	33	0	584056832	50	6282
2026-01-29 00:02:22.28	132.89	46.26	-38.7	-39.7	22.4	0.00e+00	92	32	0	586153984	50	6224
2026-01-29 00:02:23.29	132.70	46.56	-38.5	-39.5	22.5	0.00e+00	76	32	0	587202560	50	6071
2026-01-29 00:02:24.30	132.50	46.85	-38.4	-39.4	22.7	0.00e+00	92	32	0	589299712	50	5987
2026-01-29 00:02:25.31	132.30	47.15	-38.3	-39.3	22.7	0.00e+00	92	32	0	591396864	50	5951
2026-01-29 00:02:26.31	132.10	47.45	-38.2	-39.1	22.9	0.00e+00	0	32	0	593494016	50	5812
2026-01-29 00:02:27.32	131.90	47.76	-38.0	-39.0	23.2	0.00e+00	90	33	0	595591168	50	5716
2026-01-29 00:02:28.33	131.68	48.06	-37.6	-38.4	23.3	0.00e+00	0	32	0	597688320	48	6031
2026-01-29 00:02:29.34	131.47	48.37	-37.6	-38.5	23.3	0.00e+00	92	32	0	598736896	48	6082
2026-01-29 00:02:30.35	131.25	48.68	-37.9	-38.8	23.0	0.00e+00	0	32	0	600834048	48	6279
2026-01-29 00:02:31.36	131.02	48.99	-38.1	-39.1	22.6	0.00e+00	92	32	0	602931200	48	6538
2026-01-29 00:02:32.37	130.80	49.30	-38.0	-39.1	23.0	0.00e+00	92	32	0	605028352	48	6475
2026-01-29 00:02:33.38	130.56	49.61	-37.5	-38.5	23.4	0.00e+00	0	33	0	607125504	48	6034
2026-01-29 00:02:34.39	130.32	49.93	-37.6	-38.6	23.2	0.00e+00	86	32	0	608174080	48	6141
2026-01-29 00:02:35.39	130.08	50.24	-37.8	-38.8	23.2	0.00e+00	0	32	0	610271232	48	6288
2026-01-29 00:02:36.41	129.83	50.56	-37.7	-38.7	23.1	0.00e+00	92	32	0	612368384	48	6228
2026-01-29 00:02:37.41	129.58	50.88	-37.9	-39.0	22.9	0.00e+00	69	32	0	614465536	48	6395
2026-01-29 00:02:38.42	129.32	51.20	-37.4	-38.4	23.4	0.00e+00	91	32	0	616562688	48	5991
2026-01-29 00:02:39.43	129.05	51.53	-37.1	-38.0	23.7	0.00e+00	90	32	0	617611264	48	5725
2026-01-29 00:02:40.45	128.78	51.85	-37.7	-38.7	23.2	0.00e+00	0	32	0	619708416	48	6208
2026-01-29 00:02:41.45	128.50	52.18	-38.3	-39.4	22.7	0.00e+00	92	32	0	621805568	48	6729
2026-01-29 00:02:42.46	128.22	52.51	-38.6	-39.7	22.5	0.00e+00	0	32	0	623902720	48	6976
2026-01-29 00:02:43.47	127.93	52.84	-37.8	-38.7	23.2	0.00e+00	92	32	0	625999872	48	6227
2026-01-29 00:02:44.48	127.63	53.17	-36.8	-37.6	24.0	0.00e+00	0	33	0	627048448	48	5455
2026-01-29 00:02:45.49	127.33	53.50	-36.6	-37.4	24.2	0.00e+00	92	32	0	629145600	46	5968
2026-01-29 00:02:46.50	127.01	53.83	-37.3	-38.1	23.6	0.00e+00	79	32	0	631242752	46	6514
2026-01-29 00:02:47.50	126.70	54.16	-38.4	-39.4	22.8	0.00e+00	0	32	0	633339904	48	6735
2026-01-29 00:02:48.51	126.37	54.50	-38.4	-39.4	22.4	0.00e+00	84	32	0	635437056	48	6718
2026-01-29 00:02:49.52	126.04	54.84	-38.0	-38.9	22.9	0.00e+00	0	32	0	636485632	48	6368
2026-01-29 00:02:50.53	125.70	55.17	-37.6	-38.5	23.3	0.00e+00	95	32	0	638582784	48	6067
2026-01-29 00:02:51.54	125.35	55.51	-38.0	-38.9	22.9	0.00e+00	0	32	0	640679936	48	6363
2026-01-29 00:02:52.55	124.99	55.85	-38.1	-39.0	22.9	0.00e+00	92	33	0	642777088	48	6439
2026-01-29 00:02:53.55	124.62	56.19	-38.5	-39.5	22.6	0.00e+00	77	32	0	644874240	48	6787
2026-01-29 00:02:54.56	124.25	56.53	-38.9	-39.9	22.2	0.00e+00	0	32	0	645922816	50	6361
2026-01-29 00:02:55.57	123.86	56.88	-38.1	-39.1	22.8	0.00e+00	92	33	0	648019968	50	5811
2026-01-29 00:02:56.58	123.46	57.22	-38.2	-39.1	22.6	0.00e+00	0	32	0	650117120	50	5807
2026-01-29 00:02:57.59	123.05	57.57	-38.3	-39.3	22.8	0.00e+00	80	32	0	652214272	50	5907
2026-01-29 00:02:58.59	122.64	57.91	-38.2	-39.2	22.9	0.00e+00	0	32	0	654311424	50	5853
2026-01-29 00:02:59.61	122.21	58.26	-38.0	-39.0	22.9	0.00e+00	92	33	0	655360000	48	6406
2026-01-29 00:03:00.60	121.78	58.60	-38.1	-39.0	23.1	0.00e+00	0	32	0	657457152	48	6462
2026-01-29 00:03:01.61	121.33	58.94	-38.3	-39.3	22.7	0.00e+00	90	32	0	659554304	48	6656
2026-01-29 00:03:02.62	120.86	59.29	-38.4	-39.4	22.6	0.00e+00	92	32	0	661651456	48	6765
2026-01-29 00:03:03.62	120.39	59.63	-38.4	-39.5	22.6	0.00e+00	0	33	0	663748608	48	6780
2026-01-29 00:03:04.63	119.90	59.98	-37.9	-38.9	23.0	0.00e+00	81	32	0	664797184	48	6320
2026-01-29 00:03:05.64	119.40	60.33	-37.9	-38.9	23.1	0.00e+00	0	33	0	666894336	48	6351
2026-01-29 00:03:06.65	118.89	60.68	-38.4	-39.5	22.6	0.00e+00	91	33	0	668991488	48	6793
2026-01-29 00:03:07.66	118.36	61.02	-38.8	-39.9	22.1	0.00e+00	0	33	0	671088640	50	6375
2026-01-29 00:03:08.67	117.81	61.37	-38.9	-39.9	22.3	0.00e+00	92	33	0	673185792	50	6366
2026-01-29 00:03:09.68	117.25	61.71	-38.5	-39.5	22.5	0.00e+00	92	32	0	674234368	50	6046
2026-01-29 00:03:10.69	116.67	62.06	-38.4	-39.3	22.8	0.00e+00	0	33	0	676331520	50	5963
2026-01-29 00:03:11.70	116.08	62.40	-37.9	-38.9	23.1	0.00e+00	56	33	0	678428672	48	6332
2026-01-29 00:03:12.71	115.47	62.75	-37.1	-38.0	23.7	0.00e+00	33	33	0	680525824	48	5724
2026-01-29 00:03:13.72	114.84	63.09	-36.4	-37.2	24.5	0.00e+00	88	33	0	682622976	46	5875
2026-01-29 00:03:14.72	114.20	63.43	-35.2	-36.0	25.3	0.00e+00	0	32	0	683671552	44	5702
2026-01-29 00:03:15.73	113.54	63.77	-34.9	-35.6	25.3	0.00e+00	92	33	0	685768704	44	5472
2026-01-29 00:03:16.74	112.85	64.10	-35.6	-36.3	24.8	0.00e+00	90	32	0	687865856	44	5959
2026-01-29 00:03:17.75	112.15	64.44	-36.4	-37.2	24.2	0.00e+00	0	32	0	689963008	44	6614
2026-01-29 00:03:18.76	111.42	64.77	-36.0	-36.8	24.6	0.00e+00	54	32	0	692060160	44	6263
2026-01-29 00:03:19.77	110.67	65.11	-35.7	-36.5	24.7	0.00e+00	0	33	0	694157312	44	6077
2026-01-29 00:03:20.78	109.90	65.43	-35.9	-36.7	24.4	0.00e+00	79	32	0	695205888	44	6211
2026-01-29 00:03:21.79	109.11	65.76	-37.1	-38.0	23.7	0.00e+00	0	32	0	697303040	46	6415
2026-01-29 00:03:22.80	108.29	66.08	-38.6	-39.7	22.3	0.00e+00	90	33	0	699400192	48	6981
2026-01-29 00:03:23.81	107.45	66.40	-39.2	-40.4	21.8	0.00e+00	92	33	0	701497344	50	6704
2026-01-29 00:03:24.82	106.58	66.72	-40.0	-41.2	20.9	0.00e+00	0	33	0	703594496	52	6613
2026-01-29 00:03:25.83	105.68	67.03	-40.5	-41.8	20.4	0.00e+00	92	33	0	704643072	54	6315
2026-01-29 00:03:26.84	104.76	67.34	-41.5	-43.1	19.4	0.00e+00	0	33	0	706740224	54	7285
2026-01-29 00:03:27.85	103.81	67.64	-41.7	-43.4	19.1	0.00e+00	92	33	0	708837376	56	6726
2026-01-29 00:03:28.85	102.85	67.94	-41.2	-42.7	19.9	0.00e+00	0	33	0	710934528	56	6193
2026-01-29 00:03:29.86	101.84	68.23	-40.2	-41.4	20.9	0.00e+00	92	32	0	713031680	54	6012
2026-01-29 00:03:30.87	100.81	68.52	-39.5	-40.6	21.8	0.00e+00	86	33	0	714080256	52	6151
2026-01-29 00:03:31.88	99.74	68.80	-39.1	-40.2	22.1	0.00e+00	0	33	0	716177408	52	5853
2026-01-29 00:03:32.89	98.64	69.08	-39.8	-41.1	21.3	0.00e+00	91	33	0	718274560	52	6489
2026-01-29 00:03:33.90	97.52	69.35	-39.8	-40.9	21.5	0.00e+00	0	32	0	720371712	52	6362
2026-01-29 00:03:34.91	96.36	69.61	-39.2	-40.2	22.1	0.00e+00	86	33	0	722468864	52	5843
2026-01-29 00:03:35.92	95.17	69.87	-38.5	-39.5	22.6	0.00e+00	0	33	0	723517440	50	6080
2026-01-29 00:03:36.93	93.94	70.12	-39.7	-40.9	21.4	0.00e+00	92	32	0	725614592	50	7143
2026-01-29 00:03:37.94	92.69	70.36	-39.4	-40.5	21.7	0.00e+00	0	32	0	727711744	50	6818
2026-01-29 00:03:38.95	91.40	70.59	-38.8	-39.9	22.4	0.00e+00	92	32	0	729808896	50	6340
2026-01-29 00:03:39.96	90.08	70.81	-38.3	-39.3	22.6	0.00e+00	92	33	0	731906048	50	5915
2026-01-29 00:03:40.97	88.72	71.02	-39.0	-40.0	22.1	0.00e+00	0	32	0	732954624	50	6445
2026-01-29 00:03:41.98	87.34	71.22	-38.4	-39.4	22.6	0.00e+00	86	33	0	735051776	50	5985
2026-01-29 00:03:42.99	85.92	71.42	-38.4	-39.4	22.6	0.00e+00	0	32	0	737148928	50	5992
2026-01-29 00:03:44.00	84.47	71.60	-38.5	-39.5	22.7	0.00e+00	86	32	0	739246080	50	6059
2026-01-29 00:03:45.01	82.99	71.77	-38.5	-39.6	22.3	0.00e+00	0	32	0	741343232	50	6104
2026-01-29 00:03:46.02	81.49	71.93	-40.1	-41.4	20.7	0.00e+00	92	32	0	742391808	52	6723
2026-01-29 00:03:47.03	79.95	72.08	-40.5	-41.8	20.7	0.00e+00	92	33	0	744488960	52	7080
2026-01-29 00:03:48.04	78.39	72.21	-41.2	-42.6	19.8	0.00e+00	0	33	0	746586112	54	6910
2026-01-29 00:03:49.05	76.81	72.33	-42.5	-44.3	18.2	0.00e+00	58	33	0	748683264	56	7488
2026-01-29 00:03:50.06	75.21	72.44	-40.8	-42.2	20.3	0.00e+00	0	32	0	750780416	56	5852
2026-01-29 00:03:51.07	73.58	72.54	-40.0	-41.2	21.0	0.00e+00	90	32	0	751828992	54	5893
2026-01-29 00:03:52.08	71.94	72.62	-41.1	-42.5	20.0	0.00e+00	0	33	0	753926144	54	6804
2026-01-29 00:03:53.09	70.28	72.69	-41.2	-42.7	20.2	0.00e+00	92	32	0	756023296	54	6954
2026-01-29 00:03:54.10	68.61	72.75	-39.9	-41.2	20.6	0.00e+00	65	33	0	758120448	54	5839
2026-01-29 00:03:55.11	66.93	72.79	-39.8	-41.1	21.2	0.00e+00	0	33	0	760217600	52	6527
2026-01-29 00:03:56.12	65.24	72.82	-40.3	-41.7	20.8	0.00e+00	32	33	0	762314752	52	6931
2026-01-29 00:03:57.13	63.55	72.83	-39.6	-40.8	21.6	0.00e+00	0	32	0	763363328	52	6267
2026-01-29 00:03:58.14	61.85	72.83	-38.8	-39.8	22.3	0.00e+00	90	32	0	765460480	52	5613
2026-01-29 00:03:59.15	60.16	72.81	-38.2	-39.2	22.7	0.00e+00	0	33	0	767557632	50	5880
2026-01-29 00:04:00.16	58.48	72.78	-37.9	-38.9	22.9	0.00e+00	92	32	0	769654784	48	6326
2026-01-29 00:04:01.17	56.80	72.74	-37.9	-38.9	23.1	0.00e+00	81	33	0	771751936	48	6326
2026-01-29 00:04:02.18	55.13	72.68	-36.9	-37.8	23.9	0.00e+00	0	33	0	772800512	46	6249
2026-01-29 00:04:03.19	53.47	72.61	-37.0	-37.8	23.9	0.00e+00	38	32	0	774897664	46	6300
2026-01-29 00:04:04.19	51.85	72.52	-37.9	-38.8	22.6	0.00e+00	0	32	0	776994816	46	7031
2026-01-29 00:04:05.20	50.23	72.43	-37.6	-38.5	23.2	0.00e+00	92	32	0	779091968	48	6045
2026-01-29 00:04:06.21	48.63	72.31	-38.9	-40.0	22.1	0.00e+00	0	32	0	781189120	50	6392
2026-01-29 00:04:07.22	47.05	72.19	-37.9	-38.9	23.1	0.00e+00	92	33	0	782237696	50	5634
2026-01-29 00:04:08.22	45.51	72.05	-36.6	-37.4	24.2	0.00e+00	83	32	0	784334848	48	5372
2026-01-29 00:04:09.23	43.98	71.90	-37.6	-38.5	23.4	0.00e+00	0	33	0	786432000	46	6822
2026-01-29 00:04:10.24	42.48	71.74	-39.1	-40.1	21.9	0.00e+00	90	33	0	788529152	50	6490
2026-01-29 00:04:11.25	41.01	71.57	-39.1	-40.1	21.8	0.00e+00	0	32	0	790626304	50	6527
2026-01-29 00:04:12.26	39.57	71.39	-40.1	-41.3	21.1	0.00e+00	83	32	0	791674880	52	6655
2026-01-29 00:04:13.27	38.16	71.19	-40.6	-41.8	20.7	0.00e+00	0	32	0	793772032	52	7084
2026-01-29 00:04:14.28	36.78	70.99	-41.1	-42.4	20.0	0.00e+00	92	32	0	795869184	54	6753
2026-01-29 00:04:15.29	35.43	70.77	-42.4	-44.2	18.3	0.00e+00	0	32	0	797966336	56	7342
2026-01-29 00:04:16.30	34.12	70.55	-42.6	-44.3	18.5	0.00e+00	29	32	0	800063488	58	6663
2026-01-29 00:04:17.31	32.83	70.32	-42.1	-43.8	18.5	0.00e+00	92	33	0	801112064	58	6257
2026-01-29 00:04:18.31	31.60	70.08	-42.7	-44.5	17.4	0.00e+00	0	32	0	803209216	58	6825
2026-01-29 00:04:19.32	30.38	69.83	-41.6	-43.2	19.3	0.00e+00	79	33	0	805306368	56	6563
2026-01-29 00:04:20.33	29.19	69.58	-41.5	-43.1	19.5	0.00e+00	0	32	0	807403520	56	6484
2026-01-29 00:04:21.34	28.04	69.31	-41.7	-43.2	19.3	0.00e+00	85	33	0	809500672	56	6614
2026-01-29 00:04:22.35	26.92	69.04	-40.6	-41.9	20.6	0.00e+00	0	33	0	810549248	54	6370
2026-01-29 00:04:23.36	25.83	68.76	-39.7	-40.9	21.4	0.00e+00	92	32	0	812646400	52	6325
2026-01-29 00:04:24.37	24.77	68.48	-39.5	-40.5	21.9	0.00e+00	92	33	0	814743552	52	6093
2026-01-29 00:04:25.38	23.74	68.19	-38.2	-39.2	22.9	0.00e+00	0	32	0	816840704	50	5830
2026-01-29 00:04:26.39	22.74	67.90	-38.0	-38.8	22.9	0.00e+00	86	32	0	818937856	50	5624
2026-01-29 00:04:27.40	21.77	67.60	-38.9	-40.0	21.9	0.00e+00	0	33	0	819986432	50	6396
2026-01-29 00:04:28.41	20.83	67.30	-39.2	-40.3	21.9	0.00e+00	81	33	0	822083584	52	5907
2026-01-29 00:04:29.42	19.91	66.99	-37.7	-38.6	23.0	0.00e+00	0	33	0	824180736	50	5496
2026-01-29 00:04:30.43	19.02	66.68	-37.8	-38.7	23.0	0.00e+00	91	32	0	826277888	48	6215
2026-01-29 00:04:31.44	18.16	66.36	-38.2	-39.1	22.8	0.00e+00	90	33	0	828375040	48	6529
2026-01-29 00:04:32.45	17.32	66.04	-37.9	-38.8	23.3	0.00e+00	0	33	0	829423616	48	6292
2026-01-29 00:04:33.45	16.52	65.72	-37.6	-38.6	23.3	0.00e+00	56	33	0	831520768	48	6125
2026-01-29 00:04:34.47	15.72	65.39	-36.0	-36.8	24.7	0.00e+00	0	33	0	833617920	46	5571
2026-01-29 00:04:35.48	14.95	65.06	-35.5	-36.3	24.8	0.00e+00	92	33	0	835715072	44	5910
2026-01-29 00:04:36.48	14.22	64.73	-36.0	-36.8	24.7	0.00e+00	0	32	0	837812224	44	6278
2026-01-29 00:04:37.49	13.49	64.40	-36.0	-36.8	24.5	0.00e+00	92	33	0	838860800	44	6317
2026-01-29 00:04:38.50	12.79	64.07	-35.6	-36.4	24.9	0.00e+00	90	33	0	840957952	44	6001
2026-01-29 00:04:39.51	12.11	63.73	-35.4	-36.1	25.3	0.00e+00	0	32	0	843055104	44	5799
2026-01-29 00:04:40.52	11.45	63.39	-36.1	-36.9	24.5	0.00e+00	92	32	0	845152256	44	6353
2026-01-29 00:04:41.53	10.81	63.05	-37.5	-38.4	23.3	0.00e+00	0	32	0	847249408	46	6768
2026-01-29 00:04:42.54	10.18	62.71	-37.0	-37.9	23.8	0.00e+00	84	32	0	848297984	46	6347
2026-01-29 00:04:43.55	9.57	62.37	-37.4	-38.4	23.4	0.00e+00	0	32	0	850395136	46	6707
2026-01-29 00:04:44.56	8.98	62.02	-38.6	-39.7	22.3	0.00e+00	92	32	0	852492288	48	6977
2026-01-29 00:04:45.57	8.41	61.68	-37.9	-38.9	23.0	0.00e+00	78	32	0	854589440	48	6328
2026-01-29 00:04:46.58	7.85	61.33	-38.1	-39.2	22.3	0.00e+00	0	33	0	856686592	48	6556
2026-01-29 00:04:47.59	7.31	60.99	-38.9	-40.1	21.6	0.00e+00	92	32	0	858783744	50	6476
2026-01-29 00:04:48.60	6.78	60.64	-38.5	-39.6	22.4	0.00e+00	0	33	0	859832320	50	6114
2026-01-29 00:04:49.61	6.27	60.29	-37.9	-38.9	22.9	0.00e+00	80	32	0	861929472	50	5658
2026-01-29 00:04:50.62	5.77	59.95	-38.6	-39.7	22.7	0.00e+00	0	32	0	864026624	50	6207
2026-01-29 00:04:51.63	5.29	59.60	-37.3	-38.2	23.6	0.00e+00	90	32	0	866123776	48	5855
2026-01-29 00:04:52.63	4.82	59.26	-37.2	-38.1	23.5	0.00e+00	0	32	0	868220928	48	5810
2026-01-29 00:04:53.64	4.36	58.91	-38.2	-39.1	22.9	0.00e+00	92	32	0	869269504	48	6525
2026-01-29 00:04:54.65	3.91	58.57	-39.4	-40.5	21.8	0.00e+00	92	32	0	871366656	50	6804
2026-01-29 00:04:55.66	3.47	58.22	-38.5	-39.5	22.5	0.00e+00	0	32	0	873463808	50	6066
2026-01-29 00:04:56.67	3.05	57.88	-38.3	-39.3	22.8	0.00e+00	80	32	0	875560960	50	5939
2026-01-29 00:04:57.68	2.63	57.53	-36.8	-37.7	24.1	0.00e+00	0	32	0	877658112	48	5508
2026-01-29 00:04:58.69	2.23	57.19	-35.8	-36.6	24.6	0.00e+00	69	32	0	878706688	46	5485
2026-01-29 00:04:59.70	1.83	56.85	-35.8	-36.6	24.6	0.00e+00	0	32	0	880803840	44	6129
2026-01-29 00:05:00.71	1.45	56.50	-36.3	-37.2	24.0	0.00e+00	92	32	0	882900992	44	6555
2026-01-29 00:05:01.71	1.08	56.17	-37.0	-37.9	23.5	0.00e+00	92	32	0	884998144	46	6339
2026-01-29 00:05:02.72	0.71	55.83	-37.7	-38.7	23.3	0.00e+00	0	32	0	887095296	46	6946
2026-01-29 00:05:03.73	0.35	55.49	-37.4	-38.3	23.8	0.00e+00	82	32	0	888143872	48	5943
2026-01-29 00:05:04.74	0.00	55.15	-37.5	-38.4	23.3	0.00e+00	0	32	0	890241024	48	5988
2026-01-29 00:05:05.75	359.66	54.81	-38.3	-39.4	22.4	0.00e+00	81	32	0	892338176	48	6710
2026-01-29 00:05:06.76	359.33	54.48	-38.7	-39.7	22.4	0.00e+00	0	33	0	894435328	50	6213
2026-01-29 00:05:07.77	359.01	54.14	-38.8	-39.8	22.3	0.00e+00	92	33	0	896532480	50	6288
2026-01-29 00:05:08.78	358.69	53.81	-37.8	-38.7	23.0	0.00e+00	92	33	0	897581056	50	5559
2026-01-29 00:05:09.79	358.38	53.48	-36.7	-37.5	24.0	0.00e+00	0	33	0	899678208	46	6100
2026-01-29 00:05:10.80	358.08	53.14	-36.2	-37.0	24.5	0.00e+00	90	32	0	901775360	46	5707
2026-01-29 00:05:11.81	357.78	52.82	-36.2	-37.0	24.4	0.00e+00	0	32	0	903872512	46	5751
2026-01-29 00:05:12.82	357.49	52.49	-35.7	-36.5	24.8	0.00e+00	83	33	0	905969664	46	5395
2026-01-29 00:05:13.83	357.21	52.16	-35.3	-36.0	25.1	0.00e+00	0	32	0	907018240	44	5735
2026-01-29 00:05:14.83	356.94	51.84	-35.5	-36.2	24.9	0.00e+00	92	32	0	909115392	44	5866
2026-01-29 00:05:15.84	356.67	51.52	-36.7	-37.5	24.0	0.00e+00	83	32	0	911212544	44	6807
2026-01-29 00:05:16.85	356.40	51.19	-37.2	-38.1	24.0	0.00e+00	3	32	0	913309696	46	6527
2026-01-29 00:05:17.86	356.15	50.87	-36.7	-37.5	23.9	0.00e+00	92	32	0	915406848	46	6081
2026-01-29 00:05:18.87	355.89	50.55	-37.6	-38.5	23.3	0.00e+00	0	32	0	916455424	46	6791
2026-01-29 00:05:19.88	355.64	50.24	-38.5	-39.5	22.6	0.00e+00	86	32	0	918552576	48	6843
2026-01-29 00:05:20.89	355.40	49.92	-38.9	-40.0	22.2	0.00e+00	0	32	0	920649728	50	6399
2026-01-29 00:05:21.90	355.16	49.61	-38.8	-39.8	22.5	0.00e+00	90	32	0	922746880	50	6265
2026-01-29 00:05:22.91	354.93	49.29	-39.6	-40.7	21.5	0.00e+00	83	33	0	924844032	52	6198
2026-01-29 00:05:23.92	354.70	48.98	-40.3	-41.6	20.7	0.00e+00	0	32	0	926941184	52	6906
2026-01-29 00:05:24.93	354.48	48.67	-40.2	-41.4	20.9	0.00e+00	92	33	0	927989760	52	6753
2026-01-29 00:05:25.93	354.26	48.37	-40.1	-41.4	21.0	0.00e+00	0	32	0	930086912	52	6735
2026-01-29 00:05:26.94	354.05	48.06	-40.5	-41.9	20.6	0.00e+00	62	32	0	932184064	54	6345
2026-01-29 00:05:27.95	353.84	47.76	-41.5	-43.1	19.2	0.00e+00	0	32	0	934281216	54	7296
2026-01-29 00:05:28.96	353.63	47.46	-42.1	-43.9	18.9	0.00e+00	91	33	0	936378368	56	7115
2026-01-29 00:05:29.97	353.43	47.16	-40.9	-42.3	20.3	0.00e+00	0	32	0	937426944	56	5936
2026-01-29 00:05:30.98	353.23	46.86	-39.6	-40.7	21.8	0.00e+00	13	33	0	939524096	54	5539
2026-01-29 00:05:31.99	353.04	46.56	-38.5	-39.5	22.5	0.00e+00	92	32	0	941621248	50	6044
2026-01-29 00:05:33.00	352.85	46.27	-38.8	-39.8	22.5	0.00e+00	0	32	0	943718400	50	6282
2026-01-29 00:05:34.01	352.66	45.97	-39.2	-40.3	22.0	0.00e+00	38	33	0	945815552	50	6630
2026-01-29 00:05:35.02	352.48	45.68	-38.9	-40.0	22.3	0.00e+00	0	33	0	946864128	50	6416
2026-01-29 00:05:36.03	352.30	45.39	-38.4	-39.4	22.8	0.00e+00	80	32	0	948961280	50	5996
2026-01-29 00:05:37.04	352.12	45.10	-39.0	-40.1	22.0	0.00e+00	0	32	0	951058432	50	6495
2026-01-29 00:05:38.05	351.95	44.82	-40.2	-41.5	20.9	0.00e+00	0	32	0	953155584	52	6804
2026-01-29 00:05:39.06	351.78	44.53	-40.3	-41.5	20.9	0.00e+00	61	32	0	955252736	54	6089
2026-01-29 00:05:40.07	351.61	44.25	-38.6	-39.6	22.6	0.00e+00	0	33	0	956301312	52	5444
2026-01-29 00:05:41.08	351.44	43.97	-38.8	-39.8	22.3	0.00e+00	63	32	0	958398464	50	6302
2026-01-29 00:05:42.09	351.28	43.69	-38.9	-39.9	22.2	0.00e+00	0	33	0	960495616	50	6386
2026-01-29 00:05:43.10	351.12	43.41	-39.6	-40.8	20.4	0.00e+00	92	32	0	962592768	50	7009
2026-01-29 00:05:44.11	350.97	43.14	-39.4	-40.6	21.5	0.00e+00	0	33	0	964689920	52	6111
2026-01-29 00:05:45.12	350.82	42.86	-39.9	-41.0	21.1	0.00e+00	34	33	0	965738496	52	6446
2026-01-29 00:05:46.13	350.66	42.59	-40.1	-41.2	21.2	0.00e+00	92	33	0	967835648	52	6599
2026-01-29 00:05:47.14	350.52	42.32	-40.2	-41.4	21.0	0.00e+00	0	33	0	969932800	52	6694
2026-01-29 00:05:48.15	350.37	42.05	-39.5	-40.6	21.6	0.00e+00	77	33	0	972029952	52	6148
2026-01-29 00:05:49.16	350.23	41.78	-39.7	-40.9	21.5	0.00e+00	0	33	0	974127104	52	6345
2026-01-29 00:05:50.17	350.09	41.52	-38.5	-39.4	22.6	0.00e+00	92	32	0	975175680	50	6032
2026-01-29 00:05:51.18	349.95	41.26	-38.7	-39.7	22.4	0.00e+00	0	33	0	977272832	50	6238
2026-01-29 00:05:52.19	349.81	40.99	-39.7	-40.9	21.2	0.00e+00	77	32	0	979369984	50	7136
2026-01-29 00:05:53.19	349.68	40.74	-41.3	-42.9	19.5	0.00e+00	14	32	0	981467136	54	7108
2026-01-29 00:05:54.20	349.55	40.48	-43.4	-45.8	18.5	0.00e+00	0	33	0	983564288	58	7891
2026-01-29 00:05:55.21	349.42	40.22	-42.9	-44.9	17.9	0.00e+00	81	33	0	984612864	58	7146
2026-01-29 00:05:56.22	349.29	39.97	-41.9	-43.5	19.0	0.00e+00	0	32	0	986710016	58	6077
2026-01-29 00:05:57.23	349.17	39.71	-40.6	-41.9	20.8	0.00e+00	81	32	0	988807168	54	6381
2026-01-29 00:05:58.24	349.05	39.46	-38.9	-40.0	22.2	0.00e+00	0	33	0	990904320	52	5730
2026-01-29 00:05:59.25	348.92	39.21	-38.7	-39.7	22.5	0.00e+00	92	33	0	993001472	50	6193
2026-01-29 00:06:00.26	348.81	38.96	-38.2	-39.1	22.8	0.00e+00	73	32	0	995098624	50	5819
2026-01-29 00:06:01.27	348.69	38.72	-37.7	-38.6	23.4	0.00e+00	0	33	0	996147200	48	6153
2026-01-29 00:06:02.28	348.57	38.47	-37.7	-38.7	23.2	0.00e+00	92	33	0	998244352	48	6194
2026-01-29 00:06:03.29	348.46	38.23	-37.0	-37.9	23.9	0.00e+00	0	32	0	1000341504	48	5662
2026-01-29 00:06:04.30	348.35	37.98	-37.3	-38.2	23.5	0.00e+00	88	32	0	1002438656	48	5886
2026-01-29 00:06:05.31	348.24	37.74	-37.6	-38.5	23.3	0.00e+00	0	32	0	1004535808	48	6095
2026-01-29 00:06:06.31	348.13	37.51	-38.6	-39.6	22.3	0.00e+00	75	32	0	1005584384	48	6924
2026-01-29 00:06:07.32	348.02	37.27	-39.9	-41.1	21.1	0.00e+00	57	32	0	1007681536	52	6537
2026-01-29 00:06:08.33	347.92	37.04	-40.7	-42.1	20.2	0.00e+00	0	33	0	1009778688	52	7279
2026-01-29 00:06:09.34	347.81	36.80	-40.7	-42.2	20.3	0.00e+00	91	33	0	1011875840	54	6542
2026-01-29 00:06:10.35	347.71	36.57	-40.5	-41.8	20.6	0.00e+00	0	32	0	1012924416	54	6299
2026-01-29 00:06:11.36	347.61	36.34	-39.7	-40.9	21.5	0.00e+00	72	32	0	1015021568	54	5657
2026-01-29 00:06:12.37	347.51	36.11	-39.4	-40.5	21.9	0.00e+00	0	32	0	1017118720	52	6103
2026-01-29 00:06:13.38	347.41	35.88	-39.9	-41.1	21.1	0.00e+00	86	33	0	1019215872	52	6525
2026-01-29 00:06:14.39	347.31	35.65	-40.1	-41.3	21.1	0.00e+00	0	33	0	1021313024	52	6682
2026-01-29 00:06:15.40	347.22	35.43	-40.3	-41.6	20.8	0.00e+00	0	32	0	1023410176	52	6891
2026-01-29 00:06:16.41	347.12	35.21	-40.5	-41.9	20.6	0.00e+00	90	32	0	1024458752	54	6326
2026-01-29 00:06:17.42	347.03	34.98	-40.6	-42.0	20.5	0.00e+00	0	32	0	1026555904	54	6410
2026-01-29 00:06:18.43	346.94	34.76	-40.5	-41.8	20.6	0.00e+00	31	32	0	1028653056	54	6308
2026-01-29 00:06:19.44	346.85	34.55	-40.5	-41.7	20.7	0.00e+00	0	32	0	1030750208	54	6241
2026-01-29 00:06:20.45	346.76	34.33	-39.8	-41.0	21.4	0.00e+00	92	33	0	1032847360	54	5708
2026-01-29 00:06:21.45	346.68	34.11	-39.1	-40.2	22.1	0.00e+00	0	32	0	1033895936	52	5842
2026-01-29 00:06:22.46	346.59	33.90	-38.9	-40.0	22.1	0.00e+00	22	32	0	1035993088	52	5721
2026-01-29 00:06:23.47	346.50	33.69	-38.5	-39.5	22.5	0.00e+00	92	33	0	1038090240	50	6037
2026-01-29 00:06:24.48	346.42	33.47	-38.8	-39.8	22.4	0.00e+00	0	32	0	1040187392	50	6276
2026-01-29 00:06:25.49	346.34	33.26	-38.5	-39.5	22.5	0.00e+00	22	32	0	1042284544	50	6097
2026-01-29 00:06:26.50	346.25	33.06	-38.7	-39.7	22.4	0.00e+00	0	33	0	1043333120	50	6231
2026-01-29 00:06:27.51	346.17	32.85	-39.2	-40.3	22.0	0.00e+00	91	32	0	1045430272	50	6656
2026-01-29 00:06:28.52	346.09	32.64	-39.2	-40.3	22.0	0.00e+00	0	32	0	1047527424	50	6632
2026-01-29 00:06:29.53	346.02	32.44	-39.5	-40.5	21.7	0.00e+00	73	32	0	1049624576	50	6845
2026-01-29 00:06:30.54	345.94	32.23	-40.0	-41.1	21.2	0.00e+00	78	32	0	1051721728	52	6518
2026-01-29 00:06:31.54	345.86	32.03	-41.0	-42.3	20.9	0.00e+00	0	33	0	1052770304	52	7483
2026-01-29 00:06:32.55	345.79	31.83	-40.7	-42.0	20.3	0.00e+00	66	32	0	1054867456	54	6453
2026-01-29 00:06:33.56	345.71	31.63	-41.8	-43.3	19.3	0.00e+00	0	32	0	1056964608	54	7471
2026-01-29 00:06:34.57	345.64	31.43	-42.1	-43.7	19.0	0.00e+00	85	32	0	1059061760	56	6978
2026-01-29 00:06:35.58	345.57	31.24	-41.8	-43.3	19.4	0.00e+00	0	32	0	1061158912	56	6648
2026-01-29 00:06:36.59	345.49	31.04	-41.2	-42.5	20.2	0.00e+00	84	33	0	1062207488	56	6091
2026-01-29 00:06:37.60	345.42	30.85	-40.1	-41.3	21.0	0.00e+00	0	32	0	1064304640	54	5916
2026-01-29 00:06:38.61	345.35	30.65	-39.7	-40.8	21.5	0.00e+00	0	33	0	1066401792	52	6275
2026-01-29 00:06:39.62	345.28	30.46	-39.6	-40.7	21.7	0.00e+00	49	32	0	1068498944	52	6190
2026-01-29 00:06:40.63	345.22	30.27	-38.7	-39.6	22.4	0.00e+00	0	32	0	1070596096	52	5497
2026-01-29 00:06:41.64	345.15	30.08	-38.7	-39.7	22.3	0.00e+00	83	32	0	1071644672	50	6184
2026-01-29 00:06:42.65	345.08	29.89	-38.7	-39.7	22.3	0.00e+00	0	33	0	1073741824	50	6176
2026-01-29 00:06:43.66	345.02	29.70	-38.4	-39.4	22.5	0.00e+00	81	33	0	1075838976	50	5988
2026-01-29 00:06:44.67	344.95	29.52	-38.5	-39.4	22.5	0.00e+00	0	32	0	1077936128	50	6017
2026-01-29 00:06:45.67	344.89	29.33	-38.5	-39.5	22.4	0.00e+00	0	32	0	1080033280	50	6082
2026-01-29 00:06:46.68	344.82	29.15	-38.4	-39.4	22.6	0.00e+00	90	32	0	1081081856	50	6017
2026-01-29 00:06:47.69	344.76	28.97	-38.2	-39.1	22.7	0.00e+00	0	32	0	1083179008	50	5822
2026-01-29 00:06:48.70	344.70	28.79	-38.6	-39.6	22.5	0.00e+00	82	32	0	1085276160	50	6119
2026-01-29 00:06:49.71	344.64	28.61	-38.3	-39.3	22.7	0.00e+00	0	32	0	1087373312	50	5902
2026-01-29 00:06:50.72	344.58	28.43	-38.1	-39.1	23.0	0.00e+00	81	32	0	1089470464	50	5769
2026-01-29 00:06:51.73	344.52	28.25	-37.8	-38.8	23.1	0.00e+00	0	32	0	1091567616	50	5582
2026-01-29 00:06:52.74	344.46	28.07	-37.7	-38.7	23.2	0.00e+00	0	32	0	1092616192	50	5508
2026-01-29 00:06:53.75	344.40	27.90	-37.9	-38.8	23.1	0.00e+00	69	32	0	1094713344	48	6276
2026-01-29 00:06:54.75	344.34	27.72	-38.1	-39.1	22.8	0.00e+00	0	32	0	1096810496	48	6504
2026-01-29 00:06:55.76	344.29	27.55	-38.8	-39.8	22.3	0.00e+00	43	32	0	1098907648	50	6270
2026-01-29 00:06:56.77	344.23	27.38	-39.2	-40.3	22.0	0.00e+00	0	32	0	1101004800	50	6632
2026-01-29 00:06:57.78	344.18	27.21	-39.5	-40.6	21.6	0.00e+00	92	32	0	1102053376	50	6925
2026-01-29 00:06:58.79	344.12	27.03	-39.7	-40.8	21.5	0.00e+00	0	32	0	1104150528	50	7068
2026-01-29 00:06:59.79	344.07	26.87	-39.4	-40.6	21.7	0.00e+00	79	32	0	1106247680	50	6860
2026-01-29 00:07:00.80	344.01	26.70	-39.2	-40.3	21.9	0.00e+00	75	32	0	1108344832	50	6668
2026-01-29 00:07:01.81	343.96	26.53	-38.6	-39.6	22.5	0.00e+00	0	32	0	1110441984	50	6157
2026-01-29 00:07:02.82	343.91	26.36	-38.6	-39.6	22.5	0.00e+00	4	33	0	1111490560	50	6125
2026-01-29 00:07:03.83	343.86	26.20	-37.8	-38.7	23.2	0.00e+00	0	32	0	1113587712	50	5527
2026-01-29 00:07:04.84	343.80	26.03	-37.2	-38.1	23.5	0.00e+00	79	32	0	1115684864	48	5793
2026-01-29 00:07:05.85	343.75	25.87	-37.2	-38.1	23.7	0.00e+00	0	32	0	1117782016	48	5763
2026-01-29 00:07:06.86	343.70	25.71	-37.1	-37.9	23.8	0.00e+00	39	32	0	1119879168	48	5687
2026-01-29 00:07:07.86	343.65	25.55	-37.0	-37.9	23.7	0.00e+00	73	32	0	1120927744	48	5664
2026-01-29 00:07:08.87	343.60	25.39	-37.1	-38.0	23.7	0.00e+00	0	32	0	1123024896	48	5732
2026-01-29 00:07:09.88	343.56	25.23	-37.0	-37.8	23.8	0.00e+00	20	32	0	1125122048	48	5622
2026-01-29 00:07:10.89	343.51	25.07	-37.1	-38.0	23.6	0.00e+00	0	32	0	1127219200	48	5700
2026-01-29 00:07:11.90	343.46	24.91	-37.6	-38.5	23.2	0.00e+00	79	32	0	1129316352	48	6098
2026-01-29 00:07:12.91	343.41	24.75	-37.7	-38.6	23.2	0.00e+00	0	32	0	1130364928	48	6112
2026-01-29 00:07:13.91	343.37	24.60	-37.6	-38.5	23.2	0.00e+00	79	32	0	1132462080	48	6100
2026-01-29 00:07:14.92	343.32	24.44	-37.7	-38.7	23.2	0.00e+00	0	32	0	1134559232	48	6178
2026-01-29 00:07:15.93	343.27	24.29	-37.8	-38.7	23.1	0.00e+00	0	33	0	1136656384	48	6232
2026-01-29 00:07:16.94	343.23	24.14	-38.0	-38.9	22.9	0.00e+00	92	32	0	1138753536	48	6366
2026-01-29 00:07:17.95	343.18	23.98	-38.5	-39.4	22.5	0.00e+00	0	32	0	1139802112	48	6769
2026-01-29 00:07:18.95	343.14	23.83	-37.7	-38.6	23.2	0.00e+00	25	32	0	1141899264	48	6127
2026-01-29 00:07:19.96	343.10	23.68	-37.5	-38.4	23.3	0.00e+00	0	32	0	1143996416	48	5982
2026-01-29 00:07:20.97	343.05	23.53	-37.6	-38.6	23.1	0.00e+00	92	32	0	1146093568	48	6116
2026-01-29 00:07:21.98	343.01	23.38	-37.9	-38.8	23.0	0.00e+00	0	32	0	1148190720	48	6274
2026-01-29 00:07:22.99	342.97	23.24	-37.9	-38.9	22.9	0.00e+00	0	32	0	1149239296	48	6326
2026-01-29 00:07:24.00	342.93	23.09	-38.2	-39.2	22.8	0.00e+00	78	32	0	1151336448	48	6570
2026-01-29 00:07:25.01	342.89	22.94	-38.2	-39.2	22.7	0.00e+00	0	32	0	1153433600	48	6556
2026-01-29 00:07:26.02	342.84	22.80	-38.3	-39.3	22.5	0.00e+00	9	32	0	1155530752	48	6680
2026-01-29 00:07:27.03	342.80	22.65	-38.9	-39.9	22.1	0.00e+00	0	32	0	1157627904	50	6351
2026-01-29 00:07:28.03	342.76	22.51	-38.8	-39.9	22.1	0.00e+00	62	32	0	1158676480	50	6343
2026-01-29 00:07:29.04	342.72	22.36	-38.7	-39.7	22.3	0.00e+00	0	32	0	1160773632	50	6189
2026-01-29 00:07:30.05	342.68	22.22	-38.5	-39.5	22.4	0.00e+00	33	32	0	1162870784	50	6056
2026-01-29 00:07:31.06	342.65	22.08	-38.6	-39.6	22.4	0.00e+00	91	32	0	1164967936	50	6165
2026-01-29 00:07:32.07	342.61	21.94	-38.4	-39.4	22.6	0.00e+00	0	32	0	1167065088	50	6005
2026-01-29 00:07:33.08	342.57	21.80	-38.4	-39.4	22.7	0.00e+00	47	32	0	1168113664	50	5996
2026-01-29 00:07:34.09	342.53	21.66	-38.3	-39.3	22.6	0.00e+00	0	32	0	1170210816	50	5946
2026-01-29 00:07:35.10	342.49	21.52	-38.3	-39.3	22.8	0.00e+00	0	32	0	1172307968	50	5930
2026-01-29 00:07:36.11	342.46	21.38	-38.6	-39.6	22.3	0.00e+00	0	33	0	1174405120	50	6133
2026-01-29 00:07:37.11	342.42	21.25	-38.5	-39.5	22.4	0.00e+00	0	33	0	1176502272	50	6072
2026-01-29 00:07:38.12	342.38	21.11	-38.7	-39.7	22.2	0.00e+00	75	32	0	1177550848	50	6239
2026-01-29 00:07:39.13	342.35	20.97	-38.7	-39.7	22.4	0.00e+00	0	32	0	1179648000	50	6195
2026-01-29 00:07:40.14	342.31	20.84	-38.8	-39.8	22.2	0.00e+00	92	32	0	1181745152	50	6275
2026-01-29 00:07:41.15	342.28	20.70	-38.8	-39.8	22.2	0.00e+00	0	32	0	1183842304	50	6285
2026-01-29 00:07:42.16	342.24	20.57	-38.6	-39.6	22.4	0.00e+00	0	32	0	1185939456	50	6134
2026-01-29 00:07:43.17	342.21	20.44	-38.5	-39.5	22.4	0.00e+00	0	32	0	1188036608	50	6068
2026-01-29 00:07:44.18	342.17	20.31	-38.4	-39.3	22.6	0.00e+00	0	32	0	1189085184	50	5953
2026-01-29 00:07:45.18	342.14	20.18	-38.6	-39.6	22.3	0.00e+00	55	32	0	1191182336	50	6168
2026-01-29 00:07:46.19	342.10	20.04	-38.5	-39.5	22.4	0.00e+00	0	32	0	1193279488	50	6044
2026-01-29 00:07:47.20	342.07	19.91	-38.3	-39.3	22.6	0.00e+00	71	32	0	1195376640	50	5928
2026-01-29 00:07:48.21	342.04	19.78	-38.1	-39.1	22.7	0.00e+00	0	32	0	1197473792	50	5763
