passes_logs/2026/01/28/R4.6S_Anadyr/R4.6S_Anadyr__20260128_181814_FENGYUN_3D_rec.log

#Pass ID: 20260128_181814_FENGYUN 3D
#Satellite: FENGYUN 3D
#Configuration: FENGYUN 3D
#almurnet v.1.7.20251203
#Start time: 2026-01-28 18:18:16

#Version: 2.2.20231116
#Station: R4.6S_Anadyr
#Location: 177.4865 lon 64.73178 lat
#TLE: 1 43010U 17072A   26027.90082829  .00000305  00000+0  16579-3 0  9998
#TLE: 2 43010  98.9960 359.9183 0002511  88.1058 272.0405 14.19701796425082

#Time	Az	El	Level	Level2	SNR	BER	BlckErr	Temp	State	Recorded	gain1	gain2
2026-01-28 18:18:16.97	25.55	0.16	-48.7	-63.6	3.5	1.51e+00	0	30	0	0	60	54640
2026-01-28 18:18:17.97	25.51	0.21	-48.6	-60.7	3.6	8.46e-01	0	31	104	0	60	39279
2026-01-28 18:18:18.99	25.48	0.27	-48.6	-60.7	3.6	8.45e-01	0	31	104	0	60	38973
2026-01-28 18:18:20.00	25.44	0.33	-48.6	-60.7	3.6	8.45e-01	0	31	104	0	60	39132
2026-01-28 18:18:21.01	25.41	0.39	-48.6	-60.7	3.6	8.45e-01	0	31	104	0	60	39208
2026-01-28 18:18:22.02	25.37	0.45	-48.6	-60.7	3.6	8.46e-01	0	31	104	0	60	39308
2026-01-28 18:18:23.03	25.34	0.51	-48.6	-60.8	3.6	8.46e-01	0	31	104	0	60	39519
2026-01-28 18:18:24.04	25.30	0.57	-48.7	-60.8	3.6	8.46e-01	0	31	104	0	60	39525
2026-01-28 18:18:25.05	25.27	0.63	-48.7	-60.8	3.6	8.46e-01	0	31	104	0	60	39518
2026-01-28 18:18:26.06	25.23	0.69	-48.7	-60.8	3.5	8.45e-01	0	31	104	0	60	39617
2026-01-28 18:18:27.07	25.20	0.74	-48.7	-60.8	3.6	8.44e-01	0	31	104	0	60	39484
2026-01-28 18:18:28.08	25.16	0.80	-48.6	-60.8	3.6	8.46e-01	0	31	104	0	60	39558
2026-01-28 18:18:29.08	25.13	0.86	-48.6	-60.7	3.6	8.45e-01	0	31	104	0	60	39146
2026-01-28 18:18:30.10	25.09	0.92	-48.5	-60.7	3.6	8.45e-01	0	31	104	0	60	39200
2026-01-28 18:18:31.11	25.06	0.98	-48.5	-60.6	3.6	8.46e-01	0	31	104	0	60	38822
2026-01-28 18:18:32.12	25.02	1.04	-48.5	-60.6	3.6	8.45e-01	0	31	104	0	60	38653
2026-01-28 18:18:33.13	24.98	1.10	-48.3	-60.5	3.6	8.46e-01	0	31	104	0	60	38111
2026-01-28 18:18:34.14	24.95	1.16	-48.3	-60.3	3.6	8.46e-01	0	31	104	0	60	37540
2026-01-28 18:18:35.15	24.91	1.22	-48.1	-60.2	3.5	8.44e-01	0	31	104	0	60	37142
2026-01-28 18:18:36.16	24.87	1.28	-48.0	-60.1	3.6	8.45e-01	0	31	104	0	60	36431
2026-01-28 18:18:37.17	24.83	1.34	-47.9	-60.0	3.6	8.45e-01	0	31	104	0	60	36329
2026-01-28 18:18:38.17	24.80	1.40	-47.8	-59.9	3.6	8.45e-01	0	31	104	0	60	35562
2026-01-28 18:18:39.18	24.76	1.47	-47.6	-59.6	3.6	8.46e-01	0	31	104	0	60	34534
2026-01-28 18:18:40.19	24.72	1.53	-47.4	-59.4	3.6	8.45e-01	0	31	104	0	60	33773
2026-01-28 18:18:41.20	24.68	1.59	-47.2	-59.4	3.6	8.45e-01	0	31	104	0	60	33586
2026-01-28 18:18:42.21	24.65	1.65	-47.2	-59.3	3.6	8.45e-01	0	31	104	0	60	33252
2026-01-28 18:18:43.22	24.61	1.71	-47.2	-59.3	3.6	8.46e-01	0	31	104	0	60	33175
2026-01-28 18:18:44.23	24.57	1.77	-47.2	-59.3	3.6	8.45e-01	0	32	104	0	60	33321
2026-01-28 18:18:45.24	24.53	1.83	-47.2	-59.3	3.6	8.45e-01	0	31	104	0	60	33257
2026-01-28 18:18:46.25	24.49	1.89	-47.2	-59.3	3.6	8.44e-01	0	31	104	0	60	33196
2026-01-28 18:18:47.26	24.45	1.96	-47.2	-59.2	3.6	8.45e-01	0	31	104	0	60	33067
2026-01-28 18:18:48.27	24.41	2.02	-47.2	-59.2	3.6	8.45e-01	0	31	104	0	60	32834
2026-01-28 18:18:49.28	24.38	2.08	-47.2	-59.1	3.6	8.46e-01	0	32	104	0	60	32583
2026-01-28 18:18:50.29	24.34	2.14	-47.2	-59.1	3.6	8.46e-01	0	32	104	0	60	32755
2026-01-28 18:18:51.30	24.30	2.20	-47.2	-59.1	3.6	8.45e-01	0	32	104	0	60	32648
2026-01-28 18:18:52.31	24.26	2.27	-47.2	-59.1	3.6	8.45e-01	0	32	104	0	60	32691
2026-01-28 18:18:53.31	24.22	2.33	-47.2	-59.2	3.6	8.46e-01	0	32	104	0	60	33094
2026-01-28 18:18:54.32	24.18	2.39	-47.2	-59.2	3.6	8.45e-01	0	32	104	0	60	32999
2026-01-28 18:18:55.33	24.14	2.45	-47.2	-59.2	3.6	8.46e-01	0	32	104	0	60	33080
2026-01-28 18:18:56.34	24.10	2.52	-47.2	-59.2	3.6	8.44e-01	0	32	104	0	60	32944
2026-01-28 18:18:57.35	24.05	2.58	-47.2	-59.2	3.6	8.45e-01	0	32	104	0	60	33044
2026-01-28 18:18:58.36	24.01	2.64	-47.2	-59.2	3.6	8.46e-01	0	32	104	0	60	32895
2026-01-28 18:18:59.37	23.97	2.70	-47.2	-59.0	3.6	8.45e-01	0	32	104	0	60	32282
2026-01-28 18:19:00.38	23.93	2.77	-47.1	-58.7	3.6	8.45e-01	0	32	104	0	60	30965
2026-01-28 18:19:01.39	23.89	2.83	-47.1	-58.0	3.6	8.45e-01	0	32	104	0	60	28747
2026-01-28 18:19:02.40	23.85	2.89	-47.0	-57.6	3.6	8.44e-01	0	32	104	0	60	27524
2026-01-28 18:19:03.41	23.81	2.96	-47.0	-57.2	3.6	8.45e-01	0	32	104	0	60	26219
2026-01-28 18:19:04.42	23.76	3.02	-47.0	-57.4	3.6	8.43e-01	0	32	104	0	60	26844
2026-01-28 18:19:05.43	23.72	3.09	-47.1	-58.8	3.6	8.45e-01	0	32	104	0	60	31492
2026-01-28 18:19:06.44	23.68	3.15	-47.2	-59.1	3.6	8.44e-01	0	32	104	0	60	32447
2026-01-28 18:19:07.45	23.64	3.21	-46.9	-56.4	3.7	8.45e-01	0	32	104	0	60	23871
2026-01-28 18:19:08.46	23.59	3.28	-46.0	-51.7	6.5	3.52e-01	0	32	104	0	60	13972
2026-01-28 18:19:09.47	23.55	3.34	-44.6	-47.9	10.0	2.96e-02	0	32	0	4194304	60	8995
2026-01-28 18:19:10.48	23.51	3.41	-42.9	-45.0	13.2	1.93e-04	0	32	0	10485760	60	6428
2026-01-28 18:19:11.49	23.46	3.47	-41.0	-42.5	15.8	6.80e-06	0	32	0	15728640	56	6096
2026-01-28 18:19:12.50	23.42	3.54	-40.8	-42.3	15.9	0.00e+00	0	32	0	20971520	54	6636
2026-01-28 18:19:13.51	23.38	3.60	-39.5	-40.7	17.6	0.00e+00	0	32	0	27262976	52	6187
2026-01-28 18:19:14.52	23.33	3.67	-39.3	-40.5	17.8	0.00e+00	0	32	0	32505856	52	6102
2026-01-28 18:19:15.53	23.29	3.73	-41.4	-43.1	14.4	0.00e+00	0	32	0	38797312	52	8203
2026-01-28 18:19:16.54	23.24	3.80	-37.0	-38.0	20.6	8.69e-05	0	32	0	44040192	48	5724
2026-01-28 18:19:17.55	23.20	3.86	-40.2	-41.6	14.0	0.00e+00	0	32	0	49283072	46	9698
2026-01-28 18:19:18.56	23.15	3.93	-45.0	-49.0	5.2	8.46e-01	0	32	104	50331648	60	10145
2026-01-28 18:19:19.57	23.11	4.00	-38.3	-39.3	17.7	2.28e-05	0	32	104	50331648	50	5964
2026-01-28 18:19:20.58	23.06	4.06	-41.3	-42.8	16.0	1.58e-03	0	32	0	54525952	58	5625
2026-01-28 18:19:21.59	23.02	4.13	-39.6	-40.8	18.0	0.00e+00	0	32	0	60817408	52	6304
2026-01-28 18:19:22.60	22.97	4.19	-40.1	-41.5	17.0	0.00e+00	0	32	0	66060288	52	6814
2026-01-28 18:19:23.61	22.92	4.26	-40.3	-41.7	16.8	0.00e+00	0	32	0	72351744	54	6216
2026-01-28 18:19:24.62	22.88	4.33	-39.3	-40.5	17.3	0.00e+00	0	32	0	77594624	52	6069
2026-01-28 18:19:25.63	22.83	4.39	-38.6	-39.7	18.9	0.00e+00	0	32	0	82837504	52	5553
2026-01-28 18:19:26.64	22.78	4.46	-38.2	-39.3	19.1	0.00e+00	0	32	0	89128960	50	5909
2026-01-28 18:19:27.65	22.74	4.53	-39.4	-40.6	18.3	0.00e+00	0	32	0	94371840	50	6888
2026-01-28 18:19:28.66	22.69	4.59	-39.0	-40.2	18.0	0.00e+00	0	32	0	100663296	52	5858
2026-01-28 18:19:29.67	22.64	4.66	-37.4	-38.3	19.8	0.00e+00	0	32	0	105906176	50	5269
2026-01-28 18:19:30.68	22.59	4.73	-37.4	-38.4	20.4	0.00e+00	0	32	0	111149056	48	5976
2026-01-28 18:19:31.69	22.54	4.80	-37.1	-38.0	20.4	0.00e+00	0	32	0	117440512	48	5757
2026-01-28 18:19:32.70	22.50	4.86	-37.2	-38.1	20.2	0.00e+00	0	32	0	122683392	48	5824
2026-01-28 18:19:33.71	22.45	4.93	-37.9	-38.9	19.5	0.00e+00	0	32	0	128974848	46	7154
2026-01-28 18:19:34.72	22.40	5.00	-36.9	-37.9	20.5	0.00e+00	0	32	0	134217728	46	6333
2026-01-28 18:19:35.73	22.35	5.07	-36.0	-36.9	21.3	0.00e+00	0	32	0	139460608	46	5644
2026-01-28 18:19:36.74	22.30	5.14	-36.3	-37.2	21.1	0.00e+00	0	32	0	145752064	46	5845
2026-01-28 18:19:37.75	22.25	5.21	-36.1	-36.9	21.5	0.00e+00	0	32	0	150994944	46	5681
2026-01-28 18:19:38.76	22.20	5.27	-36.1	-37.0	21.2	0.00e+00	0	32	0	157286400	46	5715
2026-01-28 18:19:39.77	22.15	5.34	-35.6	-36.5	21.9	0.00e+00	0	32	0	162529280	44	6041
2026-01-28 18:19:40.78	22.10	5.41	-34.8	-35.6	22.6	0.00e+00	0	32	0	168820736	42	6167
2026-01-28 18:19:41.79	22.05	5.48	-34.7	-35.5	22.9	0.00e+00	0	32	0	174063616	42	6062
2026-01-28 18:19:42.80	22.00	5.55	-34.5	-35.3	23.1	0.00e+00	0	32	0	180355072	42	5910
2026-01-28 18:19:43.81	21.95	5.62	-34.8	-35.5	23.0	0.00e+00	0	32	0	185597952	42	6090
2026-01-28 18:19:44.81	21.90	5.69	-34.7	-35.5	22.9	0.00e+00	0	32	0	190840832	42	6053
2026-01-28 18:19:45.83	21.85	5.76	-34.8	-35.6	22.8	0.00e+00	0	32	0	197132288	42	6130
2026-01-28 18:19:46.84	21.79	5.83	-34.5	-35.3	23.1	0.00e+00	0	32	0	202375168	42	5918
2026-01-28 18:19:47.85	21.74	5.90	-34.7	-35.4	23.1	0.00e+00	0	32	0	208666624	42	6013
2026-01-28 18:19:48.85	21.69	5.97	-34.5	-35.2	23.2	0.00e+00	0	32	0	213909504	42	5881
2026-01-28 18:19:49.86	21.64	6.04	-34.8	-35.6	22.9	0.00e+00	0	32	0	219152384	42	6141
2026-01-28 18:19:50.87	21.58	6.11	-34.6	-35.3	23.2	0.00e+00	0	32	0	225443840	42	5928
2026-01-28 18:19:51.88	21.53	6.18	-34.9	-35.7	22.9	0.00e+00	0	32	0	230686720	42	6177
2026-01-28 18:19:52.89	21.48	6.25	-35.1	-35.9	22.6	0.00e+00	0	32	0	236978176	42	6353
2026-01-28 18:19:53.90	21.42	6.32	-34.7	-35.5	22.9	0.00e+00	0	32	0	242221056	42	6071
2026-01-28 18:19:54.91	21.37	6.39	-34.8	-35.5	23.1	0.00e+00	0	32	0	247463936	42	6074
2026-01-28 18:19:55.92	21.31	6.46	-34.8	-35.6	23.0	0.00e+00	0	32	0	253755392	42	6106
2026-01-28 18:19:56.94	21.26	6.54	-34.6	-35.3	23.1	0.00e+00	0	32	0	258998272	42	5957
2026-01-28 18:19:57.94	21.20	6.61	-34.7	-35.5	23.2	0.00e+00	0	32	0	265289728	42	6063
2026-01-28 18:19:58.95	21.15	6.68	-34.6	-35.3	23.2	0.00e+00	0	32	0	270532608	42	5959
2026-01-28 18:19:59.96	21.09	6.75	-34.7	-35.5	23.0	0.00e+00	0	32	0	276824064	42	6054
2026-01-28 18:20:00.97	21.04	6.82	-34.5	-35.3	23.2	0.00e+00	0	32	0	282066944	42	5934
2026-01-28 18:20:01.98	20.98	6.90	-34.7	-35.5	23.1	0.00e+00	0	32	0	287309824	42	6074
2026-01-28 18:20:02.99	20.92	6.97	-34.6	-35.3	23.2	0.00e+00	0	32	0	293601280	42	5956
2026-01-28 18:20:03.99	20.87	7.04	-34.3	-35.1	23.5	0.00e+00	0	32	0	298844160	42	5783
2026-01-28 18:20:05.00	20.81	7.11	-34.5	-35.3	23.3	0.00e+00	0	32	0	305135616	42	5933
2026-01-28 18:20:06.01	20.75	7.19	-34.4	-35.2	23.3	0.00e+00	0	32	0	310378496	42	5842
2026-01-28 18:20:07.02	20.70	7.26	-34.5	-35.2	23.3	0.00e+00	0	32	0	315621376	42	5863
2026-01-28 18:20:08.03	20.64	7.33	-34.3	-35.0	23.6	0.00e+00	0	32	0	321912832	42	5756
2026-01-28 18:20:09.04	20.58	7.41	-34.1	-34.9	23.6	0.00e+00	0	32	0	327155712	42	5638
2026-01-28 18:20:10.05	20.52	7.48	-34.3	-35.1	23.5	0.00e+00	0	32	0	333447168	42	5768
2026-01-28 18:20:11.06	20.46	7.56	-34.2	-35.0	23.6	0.00e+00	0	32	0	338690048	42	5707
2026-01-28 18:20:12.07	20.40	7.63	-34.3	-35.0	23.5	0.00e+00	0	32	0	343932928	42	5735
2026-01-28 18:20:13.08	20.34	7.71	-34.5	-35.2	23.4	0.00e+00	0	32	0	350224384	42	5888
2026-01-28 18:20:14.09	20.28	7.78	-34.8	-35.6	23.1	0.00e+00	0	32	0	355467264	42	6129
2026-01-28 18:20:15.10	20.22	7.85	-34.6	-35.3	23.5	0.00e+00	0	32	0	361758720	42	5946
2026-01-28 18:20:16.11	20.16	7.93	-34.4	-35.1	23.4	0.00e+00	0	32	0	367001600	42	5803
2026-01-28 18:20:17.12	20.10	8.00	-34.4	-35.1	23.6	0.00e+00	0	32	0	373293056	42	5813
2026-01-28 18:20:18.13	20.04	8.08	-34.2	-34.9	23.7	0.00e+00	0	32	0	378535936	42	5652
2026-01-28 18:20:19.14	19.98	8.16	-34.1	-34.8	23.7	0.00e+00	0	32	0	384827392	42	5614
2026-01-28 18:20:20.15	19.92	8.23	-34.2	-34.9	23.7	0.00e+00	0	32	0	390070272	42	5667
2026-01-28 18:20:21.16	19.85	8.31	-34.0	-34.7	23.9	0.00e+00	0	32	0	395313152	42	5547
2026-01-28 18:20:22.16	19.79	8.38	-33.9	-34.7	24.0	0.00e+00	0	32	0	401604608	42	5516
2026-01-28 18:20:23.17	19.73	8.46	-34.1	-34.8	23.8	0.00e+00	0	32	0	406847488	42	5625
2026-01-28 18:20:24.18	19.67	8.54	-33.9	-34.6	24.0	0.00e+00	0	32	0	413138944	42	5490
2026-01-28 18:20:25.19	19.60	8.61	-33.8	-34.5	24.1	0.00e+00	0	32	0	418381824	42	5407
2026-01-28 18:20:26.20	19.54	8.69	-33.7	-34.5	24.2	0.00e+00	0	32	0	423624704	40	6056
2026-01-28 18:20:27.21	19.47	8.77	-33.7	-34.4	24.2	0.00e+00	0	32	0	429916160	40	6032
2026-01-28 18:20:28.22	19.41	8.84	-33.8	-34.6	24.1	0.00e+00	0	32	0	435159040	40	6106
2026-01-28 18:20:29.23	19.34	8.92	-33.8	-34.5	24.1	0.00e+00	0	32	0	440401920	40	6097
2026-01-28 18:20:30.24	19.28	9.00	-34.0	-34.7	23.9	0.00e+00	0	32	0	446693376	40	6230
2026-01-28 18:20:31.25	19.21	9.08	-33.7	-34.4	24.1	0.00e+00	0	32	0	451936256	40	5978
2026-01-28 18:20:32.26	19.15	9.16	-33.6	-34.3	24.2	0.00e+00	0	32	0	458227712	40	5954
2026-01-28 18:20:33.27	19.08	9.23	-33.5	-34.1	24.4	0.00e+00	0	32	0	463470592	40	5824
2026-01-28 18:20:34.28	19.01	9.31	-33.5	-34.2	24.3	0.00e+00	0	32	0	469762048	40	5887
2026-01-28 18:20:35.28	18.95	9.39	-33.7	-34.4	24.4	0.00e+00	0	32	0	475004928	40	6002
2026-01-28 18:20:36.29	18.88	9.47	-33.6	-34.3	24.3	0.00e+00	0	32	0	481296384	40	5935
2026-01-28 18:20:37.30	18.81	9.55	-33.4	-34.1	24.5	0.00e+00	0	32	0	486539264	40	5825
2026-01-28 18:20:38.31	18.74	9.63	-33.4	-34.1	24.4	0.00e+00	0	32	0	491782144	40	5808
2026-01-28 18:20:39.32	18.67	9.71	-33.8	-34.5	24.3	0.00e+00	0	32	0	498073600	40	6044
2026-01-28 18:20:40.33	18.60	9.79	-33.7	-34.4	24.3	0.00e+00	0	32	0	503316480	40	5983
2026-01-28 18:20:41.34	18.53	9.87	-33.5	-34.2	24.4	0.00e+00	0	32	0	509607936	40	5854
2026-01-28 18:20:42.35	18.46	9.95	-33.4	-34.2	24.5	0.00e+00	0	32	0	514850816	40	5835
2026-01-28 18:20:43.36	18.39	10.03	-33.4	-34.1	24.5	0.00e+00	0	32	0	520093696	40	5820
2026-01-28 18:20:44.37	18.32	10.11	-33.4	-34.2	24.5	0.00e+00	0	32	0	526385152	40	5836
2026-01-28 18:20:45.38	18.25	10.19	-33.7	-34.4	24.3	0.00e+00	0	32	0	531628032	40	5979
2026-01-28 18:20:46.39	18.18	10.27	-33.3	-34.0	24.6	0.00e+00	0	32	0	537919488	40	5707
2026-01-28 18:20:47.39	18.11	10.35	-33.5	-34.2	24.6	0.00e+00	0	32	0	543162368	40	5855
2026-01-28 18:20:48.40	18.03	10.43	-33.4	-34.0	24.6	0.00e+00	0	32	0	548405248	40	5756
2026-01-28 18:20:49.41	17.96	10.52	-33.4	-34.1	24.5	0.00e+00	0	32	0	554696704	40	5817
2026-01-28 18:20:50.42	17.89	10.60	-33.3	-34.0	24.7	0.00e+00	0	32	0	559939584	40	5739
2026-01-28 18:20:51.43	17.81	10.68	-33.3	-34.0	24.6	0.00e+00	0	32	0	566231040	40	5738
2026-01-28 18:20:52.44	17.74	10.76	-33.5	-34.2	24.5	0.00e+00	0	32	0	571473920	40	5866
2026-01-28 18:20:53.46	17.66	10.85	-33.4	-34.1	24.6	0.00e+00	0	32	0	577765376	40	5815
2026-01-28 18:20:54.47	17.59	10.93	-33.2	-33.8	24.7	0.00e+00	0	32	0	583008256	40	5630
2026-01-28 18:20:55.48	17.51	11.01	-33.3	-34.0	24.6	0.00e+00	0	32	0	588251136	40	5711
2026-01-28 18:20:56.49	17.44	11.10	-33.2	-33.9	24.8	0.00e+00	0	32	0	594542592	40	5684
2026-01-28 18:20:57.50	17.36	11.18	-33.2	-33.9	24.8	0.00e+00	0	32	0	599785472	40	5644
2026-01-28 18:20:58.51	17.28	11.26	-33.0	-33.7	24.9	0.00e+00	0	32	0	606076928	40	5548
2026-01-28 18:20:59.52	17.21	11.35	-33.0	-33.6	25.0	0.00e+00	0	32	0	611319808	40	5502
2026-01-28 18:21:00.53	17.13	11.43	-33.0	-33.7	25.0	0.00e+00	0	32	0	616562688	40	5517
2026-01-28 18:21:01.54	17.05	11.52	-32.9	-33.6	25.2	0.00e+00	0	32	0	622854144	40	5442
2026-01-28 18:21:02.55	16.97	11.60	-32.8	-33.5	25.1	0.00e+00	0	32	0	628097024	38	6068
2026-01-28 18:21:03.56	16.89	11.69	-32.9	-33.6	25.0	0.00e+00	0	32	0	634388480	38	6143
2026-01-28 18:21:04.57	16.81	11.77	-32.7	-33.4	25.3	0.00e+00	0	32	0	639631360	38	6005
2026-01-28 18:21:05.58	16.73	11.86	-32.9	-33.6	25.1	0.00e+00	0	32	0	644874240	38	6158
2026-01-28 18:21:06.59	16.65	11.94	-32.8	-33.5	25.2	0.00e+00	0	32	0	651165696	38	6053
2026-01-28 18:21:07.60	16.57	12.03	-32.8	-33.5	25.2	0.00e+00	0	32	0	656408576	38	6051
2026-01-28 18:21:08.61	16.49	12.12	-32.8	-33.4	25.3	0.00e+00	0	32	0	662700032	38	5997
2026-01-28 18:21:09.61	16.40	12.20	-32.9	-33.7	25.1	0.00e+00	0	32	0	667942912	38	6177
2026-01-28 18:21:10.62	16.32	12.29	-32.8	-33.5	25.2	0.00e+00	0	32	0	674234368	38	6039
2026-01-28 18:21:11.63	16.24	12.38	-32.8	-33.5	25.2	0.00e+00	0	32	0	679477248	38	6061
2026-01-28 18:21:12.64	16.15	12.46	-32.8	-33.5	25.2	0.00e+00	0	32	0	685768704	38	6078
2026-01-28 18:21:13.65	16.07	12.55	-32.7	-33.4	25.3	0.00e+00	0	32	0	691011584	38	5996
2026-01-28 18:21:14.65	15.98	12.64	-32.8	-33.5	25.3	0.00e+00	0	32	0	696254464	38	6050
2026-01-28 18:21:15.66	15.90	12.72	-32.7	-33.4	25.2	0.00e+00	0	32	0	702545920	38	6019
2026-01-28 18:21:16.67	15.81	12.81	-32.8	-33.5	25.3	0.00e+00	0	32	0	707788800	38	6046
2026-01-28 18:21:17.68	15.73	12.90	-32.5	-33.2	25.5	0.00e+00	0	32	0	714080256	38	5839
2026-01-28 18:21:18.69	15.64	12.99	-32.5	-33.2	25.5	0.00e+00	0	32	0	719323136	38	5847
2026-01-28 18:21:19.70	15.55	13.08	-32.5	-33.2	25.5	0.00e+00	0	32	0	724566016	38	5864
2026-01-28 18:21:20.71	15.46	13.17	-32.6	-33.3	25.4	0.00e+00	0	32	0	730857472	38	5927
2026-01-28 18:21:21.72	15.37	13.26	-32.6	-33.2	25.5	0.00e+00	0	32	0	736100352	38	5879
2026-01-28 18:21:22.73	15.28	13.35	-32.7	-33.4	25.4	0.00e+00	0	32	0	742391808	38	5977
2026-01-28 18:21:23.74	15.19	13.44	-32.4	-33.0	25.7	0.00e+00	0	32	0	747634688	38	5729
2026-01-28 18:21:24.75	15.10	13.53	-32.5	-33.1	25.5	0.00e+00	0	32	0	752877568	38	5810
2026-01-28 18:21:25.76	15.01	13.62	-32.3	-33.0	25.7	0.00e+00	0	32	0	759169024	38	5712
2026-01-28 18:21:26.77	14.92	13.71	-32.3	-33.0	25.7	0.00e+00	0	32	0	764411904	38	5704
2026-01-28 18:21:27.78	14.83	13.80	-32.4	-33.0	25.6	0.00e+00	0	32	0	770703360	38	5756
2026-01-28 18:21:28.79	14.74	13.89	-32.4	-33.1	25.6	0.00e+00	0	32	0	775946240	38	5777
2026-01-28 18:21:29.80	14.64	13.98	-32.6	-33.3	25.5	0.00e+00	0	32	0	782237696	38	5898
2026-01-28 18:21:30.81	14.55	14.08	-32.5	-33.2	25.4	0.00e+00	0	32	0	787480576	38	5871
2026-01-28 18:21:31.82	14.45	14.17	-32.5	-33.2	25.6	0.00e+00	0	32	0	792723456	38	5844
2026-01-28 18:21:32.83	14.36	14.26	-32.6	-33.3	25.5	0.00e+00	0	32	0	799014912	38	5955
2026-01-28 18:21:33.84	14.26	14.35	-32.4	-33.0	25.7	0.00e+00	0	32	0	804257792	38	5761
2026-01-28 18:21:34.85	14.17	14.45	-32.4	-33.1	25.7	0.00e+00	0	32	0	810549248	38	5791
2026-01-28 18:21:35.85	14.07	14.54	-32.4	-33.1	25.7	0.00e+00	0	32	0	815792128	38	5779
2026-01-28 18:21:36.86	13.97	14.63	-32.4	-33.1	25.7	0.00e+00	0	32	0	821035008	38	5786
2026-01-28 18:21:37.88	13.87	14.73	-32.5	-33.2	25.6	0.00e+00	0	32	0	827326464	38	5829
2026-01-28 18:21:38.88	13.77	14.82	-32.4	-33.1	25.6	0.00e+00	0	32	0	832569344	38	5824
2026-01-28 18:21:39.89	13.67	14.92	-32.4	-33.1	25.7	0.00e+00	0	32	0	838860800	38	5762
2026-01-28 18:21:40.90	13.57	15.01	-32.4	-33.1	25.7	0.00e+00	0	32	0	844103680	38	5793
2026-01-28 18:21:41.91	13.47	15.10	-32.4	-33.1	25.7	0.00e+00	0	32	0	849346560	38	5776
2026-01-28 18:21:42.92	13.37	15.20	-32.2	-32.9	25.8	0.00e+00	0	32	0	855638016	38	5655
2026-01-28 18:21:43.94	13.27	15.30	-32.2	-32.9	25.9	0.00e+00	0	32	0	860880896	38	5639
2026-01-28 18:21:44.94	13.17	15.39	-32.2	-32.9	25.8	0.00e+00	0	32	0	867172352	38	5650
2026-01-28 18:21:45.95	13.06	15.49	-32.2	-32.8	25.8	0.00e+00	0	32	0	872415232	38	5615
2026-01-28 18:21:46.96	12.96	15.58	-32.1	-32.8	25.9	0.00e+00	0	32	0	878706688	38	5569
2026-01-28 18:21:47.97	12.85	15.68	-32.0	-32.7	26.1	0.00e+00	0	32	0	883949568	38	5505
2026-01-28 18:21:48.98	12.75	15.78	-32.1	-32.8	26.0	0.00e+00	0	32	0	889192448	38	5588
2026-01-28 18:21:49.99	12.64	15.87	-31.9	-32.6	26.1	0.00e+00	0	32	0	895483904	38	5462
2026-01-28 18:21:51.00	12.53	15.97	-31.9	-32.6	26.2	0.00e+00	0	32	0	900726784	38	5464
2026-01-28 18:21:52.01	12.42	16.07	-31.8	-32.4	26.3	0.00e+00	0	32	0	907018240	38	5348
2026-01-28 18:21:53.02	12.32	16.17	-31.7	-32.4	26.4	0.00e+00	0	32	0	912261120	36	5989
2026-01-28 18:21:54.03	12.21	16.27	-31.7	-32.3	26.3	0.00e+00	0	32	0	917504000	36	5952
2026-01-28 18:21:55.04	12.10	16.36	-31.7	-32.4	26.3	0.00e+00	0	32	0	923795456	36	5989
2026-01-28 18:21:56.05	11.98	16.46	-31.7	-32.4	26.4	0.00e+00	0	32	0	929038336	36	5965
2026-01-28 18:21:57.05	11.87	16.56	-31.8	-32.4	26.3	0.00e+00	0	32	0	935329792	36	5982
2026-01-28 18:21:58.06	11.76	16.66	-31.7	-32.4	26.4	0.00e+00	0	32	0	940572672	36	5983
2026-01-28 18:21:59.07	11.65	16.76	-31.6	-32.2	26.5	0.00e+00	0	32	0	945815552	36	5871
2026-01-28 18:22:00.08	11.53	16.86	-31.6	-32.2	26.4	0.00e+00	0	32	0	952107008	36	5888
2026-01-28 18:22:01.09	11.42	16.96	-31.7	-32.4	26.5	0.00e+00	0	32	0	957349888	36	5985
2026-01-28 18:22:02.10	11.30	17.06	-31.4	-32.1	26.6	0.00e+00	0	32	0	963641344	36	5765
2026-01-28 18:22:03.11	11.19	17.16	-31.6	-32.3	26.5	0.00e+00	0	32	0	968884224	36	5914
2026-01-28 18:22:04.12	11.07	17.26	-31.5	-32.2	26.5	0.00e+00	0	32	0	975175680	36	5832
2026-01-28 18:22:05.13	10.95	17.37	-31.8	-32.4	26.4	0.00e+00	0	32	0	980418560	36	6023
2026-01-28 18:22:06.14	10.83	17.47	-31.8	-32.4	26.3	0.00e+00	0	32	0	986710016	36	5999
2026-01-28 18:22:07.15	10.71	17.57	-31.5	-32.2	26.5	0.00e+00	0	32	0	991952896	36	5846
2026-01-28 18:22:08.16	10.59	17.67	-31.5	-32.2	26.5	0.00e+00	0	32	0	997195776	36	5836
2026-01-28 18:22:09.17	10.47	17.77	-31.6	-32.3	26.4	0.00e+00	0	32	0	1003487232	36	5929
2026-01-28 18:22:10.18	10.35	17.88	-31.4	-32.1	26.6	0.00e+00	0	32	0	1008730112	36	5794
2026-01-28 18:22:11.19	10.22	17.98	-31.4	-32.0	26.6	0.00e+00	0	32	0	1015021568	36	5761
2026-01-28 18:22:12.20	10.10	18.08	-31.4	-32.1	26.7	0.00e+00	0	32	0	1020264448	36	5769
2026-01-28 18:22:13.21	9.98	18.19	-31.4	-32.0	26.6	0.00e+00	0	32	0	1025507328	36	5755
2026-01-28 18:22:14.22	9.85	18.29	-31.5	-32.1	26.5	0.00e+00	0	32	0	1031798784	36	5809
2026-01-28 18:22:15.23	9.72	18.40	-31.2	-31.9	26.8	0.00e+00	0	32	0	1037041664	36	5649
2026-01-28 18:22:16.24	9.60	18.50	-31.2	-31.9	26.9	0.00e+00	0	32	0	1043333120	36	5656
2026-01-28 18:22:17.25	9.47	18.61	-31.1	-31.8	26.9	0.00e+00	0	32	0	1048576000	36	5588
2026-01-28 18:22:18.26	9.34	18.71	-31.2	-31.9	26.9	0.00e+00	0	32	0	1053818880	36	5655
2026-01-28 18:22:19.27	9.21	18.82	-31.2	-31.8	26.8	0.00e+00	0	32	0	1060110336	36	5622
2026-01-28 18:22:20.28	9.08	18.92	-31.1	-31.7	26.9	0.00e+00	0	32	0	1065353216	36	5544
2026-01-28 18:22:21.29	8.94	19.03	-31.2	-31.8	26.9	0.00e+00	0	32	0	1071644672	36	5603
2026-01-28 18:22:22.29	8.81	19.14	-31.1	-31.7	26.9	0.00e+00	0	32	0	1076887552	36	5556
2026-01-28 18:22:23.31	8.68	19.24	-31.1	-31.7	27.0	0.00e+00	0	32	0	1083179008	36	5557
2026-01-28 18:22:24.32	8.54	19.35	-31.1	-31.7	26.9	0.00e+00	0	32	0	1088421888	36	5557
2026-01-28 18:22:25.33	8.41	19.46	-31.1	-31.7	27.0	0.00e+00	0	32	0	1093664768	36	5541
2026-01-28 18:22:26.34	8.27	19.57	-30.9	-31.6	27.0	0.00e+00	0	32	0	1099956224	36	5448
2026-01-28 18:22:27.35	8.13	19.67	-30.5	-31.1	27.4	0.00e+00	0	32	0	1105199104	34	5826
2026-01-28 18:22:28.36	7.99	19.78	-30.6	-31.3	27.3	0.00e+00	0	32	0	1111490560	34	5908
2026-01-28 18:22:29.37	7.85	19.89	-30.7	-31.3	27.3	0.00e+00	0	32	0	1116733440	34	5914
2026-01-28 18:22:30.38	7.71	20.00	-30.5	-31.2	27.4	0.00e+00	0	32	0	1121976320	34	5834
2026-01-28 18:22:31.39	7.57	20.11	-30.5	-31.2	27.4	0.00e+00	0	32	0	1128267776	34	5852
2026-01-28 18:22:32.40	7.42	20.22	-30.7	-31.3	27.3	0.00e+00	0	32	0	1133510656	34	5934
2026-01-28 18:22:33.41	7.28	20.33	-30.7	-31.4	27.2	0.00e+00	0	32	0	1139802112	34	5982
2026-01-28 18:22:34.42	7.14	20.44	-30.8	-31.5	27.2	0.00e+00	0	32	0	1145044992	34	6045
2026-01-28 18:22:35.43	6.99	20.55	-30.8	-31.4	27.1	0.00e+00	0	32	0	1150287872	34	6025
2026-01-28 18:22:36.44	6.84	20.66	-31.0	-31.6	27.1	0.00e+00	0	32	0	1156579328	34	6144
2026-01-28 18:22:37.45	6.69	20.77	-30.8	-31.5	27.2	0.00e+00	0	32	0	1161822208	34	6036
2026-01-28 18:22:38.46	6.54	20.88	-30.9	-31.5	27.0	0.00e+00	0	32	0	1168113664	34	6099
2026-01-28 18:22:39.47	6.39	20.99	-30.8	-31.4	27.2	0.00e+00	0	32	0	1173356544	34	6022
2026-01-28 18:22:40.48	6.24	21.10	-30.8	-31.4	27.3	0.00e+00	0	32	0	1179648000	34	6007
2026-01-28 18:22:41.48	6.09	21.22	-30.7	-31.3	27.3	0.00e+00	0	32	0	1184890880	34	5961
2026-01-28 18:22:42.49	5.94	21.33	-30.6	-31.2	27.4	0.00e+00	0	32	0	1191182336	34	5850
2026-01-28 18:22:43.50	5.78	21.44	-30.6	-31.3	27.3	0.00e+00	0	32	0	1196425216	34	5910
2026-01-28 18:22:44.51	5.62	21.55	-30.4	-31.0	27.6	0.00e+00	0	32	0	1201668096	34	5744
2026-01-28 18:22:45.52	5.47	21.67	-30.3	-30.9	27.5	0.00e+00	0	32	0	1207959552	34	5670
2026-01-28 18:22:46.53	5.31	21.78	-30.1	-30.7	27.7	0.00e+00	0	32	0	1213202432	34	5555
2026-01-28 18:22:47.54	5.15	21.89	-30.1	-30.7	27.8	0.00e+00	0	32	0	1219493888	34	5551
2026-01-28 18:22:48.55	4.99	22.01	-30.2	-30.8	27.8	0.00e+00	0	32	0	1224736768	34	5629
2026-01-28 18:22:49.56	4.82	22.12	-30.0	-30.6	27.8	0.00e+00	0	32	0	1229979648	34	5487
2026-01-28 18:22:50.56	4.66	22.23	-30.0	-30.7	27.8	0.00e+00	0	32	0	1236271104	34	5507
2026-01-28 18:22:51.57	4.50	22.35	-30.1	-30.7	27.8	0.00e+00	0	32	0	1241513984	34	5532
2026-01-28 18:22:52.58	4.33	22.46	-30.0	-30.6	27.9	0.00e+00	0	32	0	1247805440	34	5493
2026-01-28 18:22:53.59	4.16	22.58	-30.3	-30.9	27.7	0.00e+00	0	32	0	1253048320	34	5654
2026-01-28 18:22:54.60	4.00	22.69	-30.3	-31.0	27.6	0.00e+00	0	32	0	1258291200	34	5703
2026-01-28 18:22:55.61	3.83	22.81	-30.3	-30.9	27.8	0.00e+00	0	32	0	1264582656	34	5689
2026-01-28 18:22:56.62	3.65	22.93	-30.3	-30.9	27.5	0.00e+00	0	32	0	1269825536	34	5676
2026-01-28 18:22:57.63	3.48	23.04	-30.4	-31.0	27.6	0.00e+00	0	32	0	1276116992	34	5716
2026-01-28 18:22:58.64	3.31	23.16	-30.4	-31.1	27.5	0.00e+00	0	32	0	1281359872	34	5780
2026-01-28 18:22:59.65	3.13	23.28	-30.6	-31.3	27.3	0.00e+00	0	32	0	1287651328	34	5902
2026-01-28 18:23:00.66	2.96	23.39	-30.5	-31.2	27.5	0.00e+00	0	32	0	1292894208	34	5829
2026-01-28 18:23:01.67	2.78	23.51	-30.1	-30.7	27.9	0.00e+00	0	32	0	1298137088	34	5539
2026-01-28 18:23:02.68	2.60	23.63	-30.1	-30.8	27.8	0.00e+00	0	32	0	1304428544	34	5581
2026-01-28 18:23:03.69	2.42	23.74	-30.2	-30.9	27.7	0.00e+00	0	32	0	1309671424	34	5637
2026-01-28 18:23:04.70	2.24	23.86	-30.1	-30.7	27.8	0.00e+00	0	32	0	1315962880	34	5528
2026-01-28 18:23:05.71	2.05	23.98	-30.2	-30.8	27.7	0.00e+00	0	32	0	1321205760	34	5596
2026-01-28 18:23:06.72	1.87	24.10	-30.2	-30.9	27.6	0.00e+00	0	32	0	1326448640	34	5644
2026-01-28 18:23:07.73	1.68	24.22	-30.3	-31.0	27.6	0.00e+00	0	32	0	1332740096	34	5701
2026-01-28 18:23:08.74	1.50	24.34	-30.4	-31.0	27.6	0.00e+00	0	32	0	1337982976	34	5756
2026-01-28 18:23:09.75	1.31	24.45	-30.0	-30.6	27.8	0.00e+00	0	32	0	1344274432	34	5500
2026-01-28 18:23:10.76	1.12	24.57	-30.0	-30.7	27.8	0.00e+00	0	32	0	1349517312	34	5512
2026-01-28 18:23:11.77	0.92	24.69	-30.0	-30.6	27.9	0.00e+00	0	32	0	1354760192	34	5472
2026-01-28 18:23:12.78	0.73	24.81	-29.9	-30.5	27.9	0.00e+00	0	32	0	1361051648	34	5408
2026-01-28 18:23:13.79	0.54	24.93	-30.1	-30.7	27.8	0.00e+00	0	32	0	1366294528	34	5513
2026-01-28 18:23:14.80	0.34	25.05	-29.8	-30.4	27.9	0.00e+00	0	32	0	1372585984	34	5374
2026-01-28 18:23:15.81	0.14	25.17	-29.8	-30.5	28.0	0.00e+00	0	32	0	1377828864	32	6059
2026-01-28 18:23:16.81	359.94	25.29	-29.7	-30.3	28.1	0.00e+00	0	32	0	1384120320	32	5914
2026-01-28 18:23:17.82	359.74	25.41	-29.7	-30.3	28.1	0.00e+00	0	32	0	1389363200	32	5940
2026-01-28 18:23:18.83	359.54	25.53	-29.7	-30.3	28.1	0.00e+00	0	32	0	1395654656	32	5964
2026-01-28 18:23:19.84	359.34	25.65	-29.9	-30.5	28.0	0.00e+00	0	32	0	1400897536	32	6103
2026-01-28 18:23:20.85	359.13	25.77	-29.8	-30.5	28.0	0.00e+00	0	32	0	1406140416	32	6063
2026-01-28 18:23:21.86	358.92	25.89	-29.6	-30.3	28.2	0.00e+00	0	32	0	1412431872	32	5904
2026-01-28 18:23:22.87	358.71	26.01	-29.8	-30.4	28.0	0.00e+00	0	32	0	1417674752	32	5986
2026-01-28 18:23:23.88	358.50	26.14	-29.8	-30.4	28.1	0.00e+00	0	32	0	1423966208	32	6012
2026-01-28 18:23:24.89	358.29	26.26	-29.9	-30.6	27.9	0.00e+00	0	32	0	1429209088	32	6115
2026-01-28 18:23:25.90	358.08	26.38	-29.7	-30.3	28.1	0.00e+00	0	32	0	1434451968	32	5944
2026-01-28 18:23:26.91	357.86	26.50	-29.7	-30.3	28.1	0.00e+00	0	32	0	1440743424	32	5964
2026-01-28 18:23:27.92	357.64	26.62	-29.8	-30.4	28.1	0.00e+00	0	32	0	1445986304	32	6014
2026-01-28 18:23:28.93	357.42	26.74	-29.7	-30.3	28.2	0.00e+00	0	32	0	1451229184	32	5925
2026-01-28 18:23:29.94	357.20	26.86	-29.5	-30.2	28.3	0.00e+00	0	32	0	1457520640	32	5838
2026-01-28 18:23:30.95	356.98	26.99	-29.4	-30.1	28.4	0.00e+00	0	32	0	1462763520	32	5786
2026-01-28 18:23:31.96	356.76	27.11	-29.6	-30.2	28.2	0.00e+00	0	32	0	1469054976	32	5876
2026-01-28 18:23:32.97	356.53	27.23	-29.6	-30.2	28.2	0.00e+00	0	32	0	1474297856	32	5870
2026-01-28 18:23:33.98	356.30	27.35	-29.5	-30.1	28.4	0.00e+00	0	32	0	1480589312	32	5793
2026-01-28 18:23:34.99	356.07	27.47	-29.7	-30.3	28.2	0.00e+00	0	32	0	1485832192	32	5931
2026-01-28 18:23:36.00	355.84	27.59	-29.5	-30.1	28.3	0.00e+00	0	32	0	1492123648	32	5768
2026-01-28 18:23:37.01	355.61	27.72	-29.4	-30.0	28.4	0.00e+00	0	32	0	1497366528	32	5732
2026-01-28 18:23:38.02	355.38	27.84	-29.3	-30.0	28.3	0.00e+00	0	32	0	1502609408	32	5699
2026-01-28 18:23:39.03	355.14	27.96	-29.3	-30.0	28.4	0.00e+00	0	32	0	1508900864	32	5706
2026-01-28 18:23:40.04	354.90	28.08	-29.5	-30.0	28.3	0.00e+00	0	32	0	1514143744	32	5760
2026-01-28 18:23:41.05	354.66	28.20	-29.5	-30.1	28.3	0.00e+00	0	32	0	1520435200	32	5765
2026-01-28 18:23:42.06	354.42	28.33	-29.5	-30.1	28.3	0.00e+00	0	32	0	1525678080	32	5791
2026-01-28 18:23:43.07	354.17	28.45	-29.6	-30.2	28.3	0.00e+00	0	32	0	1530920960	32	5856
2026-01-28 18:23:44.08	353.93	28.57	-29.8	-30.4	28.1	0.00e+00	0	32	0	1537212416	32	6008
2026-01-28 18:23:45.09	353.68	28.69	-29.5	-30.1	28.3	0.00e+00	0	32	0	1542455296	32	5791
2026-01-28 18:23:46.09	353.43	28.81	-29.5	-30.2	28.3	0.00e+00	0	32	0	1548746752	32	5835
2026-01-28 18:23:47.10	353.18	28.93	-29.4	-30.0	28.4	0.00e+00	0	32	0	1553989632	32	5705
2026-01-28 18:23:48.11	352.93	29.06	-29.2	-29.8	28.5	0.00e+00	0	32	0	1559232512	32	5591
2026-01-28 18:23:49.12	352.67	29.18	-29.3	-29.9	28.5	0.00e+00	0	32	0	1565523968	32	5670
2026-01-28 18:23:50.13	352.42	29.30	-29.1	-29.7	28.6	0.00e+00	0	32	0	1570766848	32	5539
2026-01-28 18:23:51.14	352.16	29.42	-29.0	-29.7	28.6	0.00e+00	0	32	0	1577058304	32	5508
2026-01-28 18:23:52.15	351.89	29.54	-29.2	-29.8	28.5	0.00e+00	0	32	0	1582301184	32	5619
2026-01-28 18:23:53.16	351.63	29.66	-29.3	-29.9	28.5	0.00e+00	0	32	0	1588592640	32	5649
2026-01-28 18:23:54.17	351.37	29.78	-29.3	-30.0	28.4	0.00e+00	0	32	0	1593835520	32	5724
2026-01-28 18:23:55.18	351.10	29.90	-29.3	-29.9	28.4	0.00e+00	0	32	0	1599078400	32	5683
2026-01-28 18:23:56.19	350.83	30.02	-29.3	-29.9	28.5	0.00e+00	0	32	0	1605369856	32	5695
2026-01-28 18:23:57.20	350.56	30.14	-29.3	-30.0	28.3	0.00e+00	0	32	0	1610612736	32	5716
2026-01-28 18:23:58.21	350.28	30.26	-29.3	-30.0	28.4	0.00e+00	0	32	0	1616904192	32	5714
2026-01-28 18:23:59.22	350.01	30.38	-29.4	-30.0	28.3	0.00e+00	0	32	0	1622147072	32	5742
2026-01-28 18:24:00.23	349.73	30.50	-29.4	-30.0	28.4	0.00e+00	0	32	0	1627389952	32	5723
2026-01-28 18:24:01.24	349.45	30.62	-29.3	-30.0	28.4	0.00e+00	0	32	0	1633681408	32	5698
2026-01-28 18:24:02.25	349.17	30.74	-29.3	-29.9	28.5	0.00e+00	0	32	0	1638924288	32	5685
2026-01-28 18:24:03.26	348.88	30.86	-29.4	-30.0	28.3	0.00e+00	0	32	0	1645215744	32	5719
2026-01-28 18:24:04.27	348.60	30.98	-29.2	-29.8	28.6	0.00e+00	0	32	0	1650458624	32	5577
2026-01-28 18:24:05.28	348.31	31.09	-29.2	-29.8	28.6	0.00e+00	0	32	0	1655701504	32	5567
2026-01-28 18:24:06.29	348.02	31.21	-29.1	-29.7	28.6	0.00e+00	0	32	0	1661992960	32	5548
2026-01-28 18:24:07.29	347.73	31.33	-29.1	-29.7	28.6	0.00e+00	0	33	0	1667235840	32	5542
2026-01-28 18:24:08.30	347.44	31.44	-29.1	-29.7	28.6	0.00e+00	0	32	0	1673527296	32	5535
2026-01-28 18:24:09.31	347.14	31.56	-29.1	-29.8	28.6	0.00e+00	0	32	0	1678770176	32	5572
2026-01-28 18:24:10.32	346.84	31.68	-29.1	-29.7	28.5	0.00e+00	0	32	0	1685061632	32	5556
2026-01-28 18:24:11.33	346.54	31.79	-29.0	-29.6	28.6	0.00e+00	0	32	0	1690304512	32	5488
2026-01-28 18:24:12.34	346.24	31.91	-29.0	-29.6	28.7	0.00e+00	0	32	0	1696595968	32	5474
2026-01-28 18:24:13.35	345.93	32.02	-29.1	-29.7	28.6	0.00e+00	0	32	0	1701838848	32	5564
2026-01-28 18:24:14.36	345.62	32.13	-29.0	-29.6	28.6	0.00e+00	0	32	0	1707081728	32	5476
2026-01-28 18:24:15.37	345.31	32.25	-29.1	-29.7	28.5	0.00e+00	0	32	0	1713373184	32	5536
2026-01-28 18:24:16.38	345.00	32.36	-28.9	-29.5	28.6	0.00e+00	0	32	0	1718616064	32	5426
2026-01-28 18:24:17.39	344.69	32.47	-29.0	-29.6	28.6	0.00e+00	0	32	0	1724907520	32	5502
2026-01-28 18:24:18.40	344.37	32.58	-29.0	-29.6	28.8	0.00e+00	0	32	0	1730150400	32	5452
2026-01-28 18:24:19.41	344.05	32.70	-28.9	-29.5	28.7	0.00e+00	0	32	0	1735393280	32	5416
2026-01-28 18:24:20.41	343.74	32.81	-28.8	-29.4	28.7	0.00e+00	0	32	0	1741684736	32	5365
2026-01-28 18:24:21.42	343.41	32.92	-28.7	-29.4	28.9	0.00e+00	0	32	0	1746927616	32	5321
2026-01-28 18:24:22.43	343.09	33.03	-28.8	-29.4	28.8	0.00e+00	0	32	0	1753219072	30	6029
2026-01-28 18:24:23.44	342.76	33.13	-28.8	-29.4	28.9	0.00e+00	0	32	0	1758461952	30	5975
2026-01-28 18:24:24.45	342.43	33.24	-28.9	-29.5	28.7	0.00e+00	0	32	0	1763704832	30	6045
2026-01-28 18:24:25.46	342.10	33.35	-28.9	-29.5	28.7	0.00e+00	0	32	0	1769996288	30	6103
2026-01-28 18:24:26.47	341.76	33.46	-28.9	-29.5	28.7	0.00e+00	0	32	0	1775239168	30	6077
2026-01-28 18:24:27.47	341.43	33.56	-28.9	-29.6	28.7	0.00e+00	0	32	0	1781530624	30	6105
2026-01-28 18:24:28.48	341.09	33.67	-29.0	-29.7	28.7	0.00e+00	0	32	0	1786773504	30	6184
2026-01-28 18:24:29.49	340.75	33.77	-29.1	-29.7	28.5	0.00e+00	0	32	0	1793064960	30	6193
2026-01-28 18:24:30.50	340.41	33.87	-29.2	-29.8	28.5	0.00e+00	0	32	0	1798307840	30	6291
2026-01-28 18:24:31.51	340.07	33.98	-29.2	-29.8	28.5	0.00e+00	0	32	0	1803550720	30	6290
2026-01-28 18:24:32.52	339.72	34.08	-29.2	-29.8	28.7	0.00e+00	0	32	0	1809842176	30	6295
2026-01-28 18:24:33.53	339.37	34.18	-29.2	-29.8	28.5	0.00e+00	0	32	0	1815085056	30	6288
2026-01-28 18:24:34.54	339.02	34.28	-29.3	-29.9	28.5	0.00e+00	0	32	0	1821376512	30	6363
2026-01-28 18:24:35.55	338.66	34.38	-29.2	-29.8	28.5	0.00e+00	0	32	0	1826619392	30	6285
2026-01-28 18:24:36.56	338.31	34.48	-29.2	-29.8	28.6	0.00e+00	0	32	0	1831862272	30	6294
2026-01-28 18:24:37.57	337.95	34.57	-28.9	-29.5	28.8	0.00e+00	0	32	0	1838153728	30	6076
2026-01-28 18:24:38.58	337.59	34.67	-29.1	-29.7	28.7	0.00e+00	0	32	0	1843396608	30	6183
2026-01-28 18:24:39.58	337.23	34.76	-28.8	-29.4	28.8	0.00e+00	0	32	0	1849688064	30	6014
2026-01-28 18:24:40.59	336.87	34.86	-28.8	-29.5	28.8	0.00e+00	0	32	0	1854930944	30	6041
2026-01-28 18:24:41.60	336.50	34.95	-28.9	-29.6	28.6	0.00e+00	0	32	0	1860173824	30	6117
2026-01-28 18:24:42.61	336.13	35.04	-28.7	-29.4	28.9	0.00e+00	0	32	0	1866465280	30	5975
2026-01-28 18:24:43.61	335.76	35.13	-28.7	-29.3	28.9	0.00e+00	0	32	0	1871708160	30	5951
2026-01-28 18:24:44.62	335.39	35.22	-28.7	-29.4	28.9	0.00e+00	0	32	0	1877999616	30	5970
2026-01-28 18:24:45.63	335.02	35.31	-28.9	-29.5	28.8	0.00e+00	0	32	0	1883242496	30	6077
2026-01-28 18:24:46.65	334.64	35.40	-29.0	-29.6	28.7	0.00e+00	0	32	0	1889533952	30	6129
2026-01-28 18:24:47.65	334.26	35.49	-28.9	-29.5	28.8	0.00e+00	0	32	0	1894776832	30	6047
2026-01-28 18:24:48.66	333.88	35.57	-28.7	-29.3	28.9	0.00e+00	0	32	0	1900019712	30	5955
2026-01-28 18:24:49.67	333.50	35.66	-29.0	-29.6	28.7	0.00e+00	0	32	0	1906311168	30	6128
2026-01-28 18:24:50.68	333.11	35.74	-29.0	-29.6	28.7	0.00e+00	0	32	0	1911554048	30	6155
2026-01-28 18:24:51.69	332.72	35.82	-29.1	-29.7	28.7	0.00e+00	0	32	0	1917845504	30	6228
2026-01-28 18:24:52.70	332.34	35.90	-29.1	-29.7	28.6	0.00e+00	0	32	0	1923088384	30	6227
2026-01-28 18:24:53.71	331.94	35.98	-29.0	-29.7	28.7	0.00e+00	0	32	0	1928331264	30	6202
2026-01-28 18:24:54.72	331.55	36.06	-29.1	-29.7	28.6	0.00e+00	0	32	0	1934622720	30	6228
2026-01-28 18:24:55.73	331.16	36.13	-29.2	-29.8	28.5	0.00e+00	0	32	0	1939865600	30	6295
2026-01-28 18:24:56.74	330.76	36.21	-29.3	-29.9	28.4	0.00e+00	0	32	0	1946157056	30	6372
2026-01-28 18:24:57.75	330.36	36.28	-29.1	-29.8	28.7	0.00e+00	0	32	0	1951399936	30	6249
2026-01-28 18:24:58.76	329.96	36.35	-29.0	-29.6	28.7	0.00e+00	0	32	0	1956642816	30	6145
2026-01-28 18:24:59.77	329.56	36.42	-29.0	-29.5	28.8	0.00e+00	0	32	0	1962934272	30	6089
2026-01-28 18:25:00.78	329.16	36.49	-28.9	-29.5	28.7	0.00e+00	0	32	0	1968177152	30	6057
2026-01-28 18:25:01.79	328.75	36.56	-28.8	-29.5	28.9	0.00e+00	0	32	0	1974468608	30	6048
2026-01-28 18:25:02.80	328.34	36.63	-28.9	-29.5	28.8	0.00e+00	0	32	0	1979711488	30	6060
2026-01-28 18:25:03.81	327.94	36.69	-28.9	-29.6	28.8	0.00e+00	0	32	0	1986002944	30	6110
2026-01-28 18:25:04.82	327.53	36.75	-29.0	-29.7	28.7	0.00e+00	0	32	0	1991245824	30	6207
2026-01-28 18:25:05.83	327.11	36.82	-29.2	-29.8	28.6	0.00e+00	0	32	0	1996488704	30	6252
2026-01-28 18:25:06.84	326.70	36.88	-29.2	-29.8	28.6	0.00e+00	0	33	0	2002780160	30	6274
2026-01-28 18:25:07.85	326.29	36.93	-29.3	-30.0	28.5	0.00e+00	0	32	0	2008023040	30	6402
2026-01-28 18:25:08.86	325.87	36.99	-28.9	-29.5	28.8	0.00e+00	0	33	0	2014314496	30	6102
2026-01-28 18:25:09.87	325.45	37.05	-29.1	-29.8	28.7	0.00e+00	0	32	0	2019557376	30	6248
2026-01-28 18:25:10.88	325.03	37.10	-29.2	-29.8	28.6	0.00e+00	0	32	0	2025848832	30	6309
2026-01-28 18:25:11.89	324.61	37.15	-29.2	-29.8	28.6	0.00e+00	0	32	0	2031091712	30	6299
2026-01-28 18:25:12.90	324.19	37.20	-29.0	-29.6	28.7	0.00e+00	0	32	0	2036334592	30	6119
2026-01-28 18:25:13.91	323.77	37.25	-28.9	-29.5	28.8	0.00e+00	0	33	0	2042626048	30	6053
2026-01-28 18:25:14.92	323.34	37.30	-29.0	-29.6	28.6	0.00e+00	0	32	0	2047868928	30	6146
2026-01-28 18:25:15.93	322.92	37.34	-29.1	-29.7	28.7	0.00e+00	0	33	0	2054160384	30	6225
2026-01-28 18:25:16.94	322.49	37.38	-29.0	-29.6	28.7	0.00e+00	0	32	0	2059403264	30	6145
2026-01-28 18:25:17.95	322.06	37.42	-29.0	-29.6	28.8	0.00e+00	0	33	0	2064646144	30	6144
2026-01-28 18:25:18.96	321.63	37.46	-28.6	-29.2	29.0	0.00e+00	0	32	0	2070937600	30	5857
2026-01-28 18:25:19.97	321.20	37.50	-28.6	-29.2	29.0	0.00e+00	0	33	0	2076180480	30	5887
2026-01-28 18:25:20.98	320.77	37.54	-28.8	-29.4	28.9	0.00e+00	0	32	0	2082471936	30	6031
2026-01-28 18:25:21.99	320.34	37.57	-28.9	-29.5	28.7	0.00e+00	0	32	0	2087714816	30	6059
2026-01-28 18:25:23.00	319.91	37.60	-28.9	-29.5	28.8	0.00e+00	0	32	0	2094006272	30	6078
2026-01-28 18:25:24.01	319.47	37.63	-29.0	-29.6	28.7	0.00e+00	0	33	0	2099249152	30	6139
2026-01-28 18:25:25.02	319.04	37.66	-29.1	-29.7	28.7	0.00e+00	0	33	0	2104492032	30	6231
2026-01-28 18:25:26.03	318.60	37.69	-29.1	-29.7	28.6	0.00e+00	0	32	0	2110783488	30	6233
2026-01-28 18:25:27.04	318.17	37.71	-29.2	-29.7	28.6	0.00e+00	0	32	0	2116026368	30	6242
2026-01-28 18:25:28.05	317.73	37.74	-29.1	-29.7	28.7	0.00e+00	0	33	0	2122317824	30	6234
2026-01-28 18:25:29.06	317.29	37.76	-29.2	-29.8	28.6	0.00e+00	0	33	0	2127560704	30	6278
2026-01-28 18:25:30.07	316.85	37.78	-29.3	-30.0	28.4	0.00e+00	0	32	0	2132803584	30	6405
2026-01-28 18:25:31.08	316.42	37.80	-29.3	-29.9	28.5	0.00e+00	0	32	0	2139095040	30	6390
2026-01-28 18:25:32.09	315.98	37.81	-29.1	-29.7	28.6	0.00e+00	0	32	0	2144337920	30	6220
2026-01-28 18:25:33.10	315.54	37.82	-29.0	-29.6	28.7	0.00e+00	0	32	0	2150629376	30	6147
2026-01-28 18:25:34.11	315.10	37.84	-29.1	-29.7	28.7	0.00e+00	0	32	0	2155872256	30	6175
2026-01-28 18:25:35.12	314.66	37.85	-28.8	-29.5	28.9	0.00e+00	0	32	0	2161115136	30	6038
2026-01-28 18:25:36.13	314.22	37.85	-28.9	-29.6	28.7	0.00e+00	0	32	0	2167406592	30	6124
2026-01-28 18:25:37.14	313.78	37.86	-28.9	-29.5	28.9	0.00e+00	0	32	0	2172649472	30	6066
2026-01-28 18:25:38.14	313.34	37.86	-28.9	-29.5	28.7	0.00e+00	0	32	0	2178940928	30	6047
2026-01-28 18:25:39.15	312.90	37.86	-28.8	-29.4	28.8	0.00e+00	0	32	0	2184183808	30	5995
2026-01-28 18:25:40.16	312.46	37.86	-29.2	-29.8	28.7	0.00e+00	0	32	0	2190475264	30	6290
2026-01-28 18:25:41.17	312.02	37.86	-29.2	-29.9	28.6	0.00e+00	0	33	0	2195718144	30	6334
2026-01-28 18:25:42.18	311.58	37.86	-29.1	-29.7	28.5	0.00e+00	0	32	0	2200961024	30	6215
2026-01-28 18:25:43.19	311.14	37.85	-29.0	-29.7	28.7	0.00e+00	0	32	0	2207252480	30	6220
2026-01-28 18:25:44.20	310.70	37.85	-29.1	-29.7	28.6	0.00e+00	0	32	0	2212495360	30	6192
2026-01-28 18:25:45.21	310.26	37.84	-29.2	-29.9	28.5	0.00e+00	0	32	0	2218786816	30	6341
2026-01-28 18:25:46.22	309.82	37.82	-29.2	-29.8	28.5	0.00e+00	0	32	0	2224029696	30	6266
2026-01-28 18:25:47.23	309.38	37.81	-29.1	-29.7	28.5	0.00e+00	0	32	0	2229272576	30	6180
2026-01-28 18:25:48.24	308.94	37.80	-29.1	-29.7	28.7	0.00e+00	0	33	0	2235564032	30	6241
2026-01-28 18:25:49.25	308.51	37.78	-29.0	-29.6	28.5	0.00e+00	0	32	0	2240806912	30	6139
2026-01-28 18:25:50.26	308.07	37.76	-29.1	-29.7	28.6	0.00e+00	0	33	0	2247098368	30	6229
2026-01-28 18:25:51.27	307.63	37.74	-29.0	-29.6	28.6	0.00e+00	0	32	0	2252341248	30	6139
2026-01-28 18:25:52.27	307.20	37.72	-29.0	-29.6	28.7	0.00e+00	0	32	0	2257584128	30	6169
2026-01-28 18:25:53.28	306.76	37.69	-29.0	-29.7	28.6	0.00e+00	0	32	0	2263875584	30	6177
2026-01-28 18:25:54.29	306.33	37.66	-28.9	-29.5	28.8	0.00e+00	0	32	0	2269118464	30	6100
2026-01-28 18:25:55.30	305.89	37.64	-28.9	-29.5	28.8	0.00e+00	0	32	0	2275409920	30	6077
2026-01-28 18:25:56.31	305.46	37.61	-28.8	-29.5	28.9	0.00e+00	0	32	0	2280652800	30	6050
2026-01-28 18:25:57.32	305.02	37.57	-28.8	-29.4	28.8	0.00e+00	0	32	0	2286944256	30	5967
2026-01-28 18:25:58.33	304.59	37.54	-28.8	-29.4	28.8	0.00e+00	0	32	0	2292187136	30	5999
2026-01-28 18:25:59.34	304.16	37.50	-28.8	-29.3	28.8	0.00e+00	0	32	0	2298478592	30	5959
2026-01-28 18:26:00.35	303.73	37.47	-29.0	-29.6	28.7	0.00e+00	0	32	0	2303721472	30	6137
2026-01-28 18:26:01.36	303.30	37.43	-29.0	-29.7	28.7	0.00e+00	0	33	0	2308964352	30	6219
2026-01-28 18:26:02.37	302.87	37.38	-29.0	-29.6	28.7	0.00e+00	0	33	0	2315255808	30	6115
2026-01-28 18:26:03.38	302.44	37.34	-29.1	-29.7	28.6	0.00e+00	0	32	0	2320498688	30	6225
2026-01-28 18:26:04.39	302.02	37.30	-29.1	-29.7	28.8	0.00e+00	0	32	0	2326790144	30	6226
2026-01-28 18:26:05.40	301.59	37.25	-29.1	-29.7	28.7	0.00e+00	0	32	0	2332033024	30	6229
2026-01-28 18:26:06.41	301.17	37.20	-28.9	-29.5	28.7	0.00e+00	0	32	0	2337275904	30	6043
2026-01-28 18:26:07.42	300.75	37.15	-28.8	-29.4	28.8	0.00e+00	0	32	0	2343567360	30	5987
2026-01-28 18:26:08.43	300.33	37.10	-29.0	-29.6	28.7	0.00e+00	0	32	0	2348810240	30	6128
2026-01-28 18:26:09.44	299.91	37.05	-29.1	-29.7	28.6	0.00e+00	0	32	0	2355101696	30	6237
2026-01-28 18:26:10.45	299.49	36.99	-28.8	-29.5	28.8	0.00e+00	0	32	0	2360344576	30	6039
2026-01-28 18:26:11.46	299.07	36.94	-28.6	-29.2	29.0	0.00e+00	0	32	0	2365587456	30	5861
2026-01-28 18:26:12.47	298.66	36.88	-28.6	-29.2	29.0	0.00e+00	0	32	0	2371878912	30	5886
2026-01-28 18:26:13.48	298.24	36.82	-28.6	-29.2	28.9	0.00e+00	0	32	0	2377121792	30	5878
2026-01-28 18:26:14.49	297.83	36.76	-28.7	-29.3	28.8	0.00e+00	0	32	0	2383413248	30	5927
2026-01-28 18:26:15.50	297.42	36.69	-28.8	-29.4	28.8	0.00e+00	0	32	0	2388656128	30	6000
2026-01-28 18:26:16.51	297.01	36.63	-28.9	-29.5	28.7	0.00e+00	0	32	0	2394947584	30	6082
2026-01-28 18:26:17.52	296.60	36.56	-28.9	-29.6	28.6	0.00e+00	0	32	0	2400190464	30	6152
2026-01-28 18:26:18.54	296.19	36.49	-29.0	-29.5	28.6	0.00e+00	0	32	0	2406481920	30	6101
2026-01-28 18:26:19.54	295.79	36.42	-29.0	-29.6	28.6	0.00e+00	0	33	0	2411724800	30	6119
2026-01-28 18:26:20.55	295.39	36.35	-29.1	-29.7	28.5	0.00e+00	0	32	0	2416967680	30	6216
2026-01-28 18:26:21.56	294.99	36.28	-29.0	-29.5	28.7	0.00e+00	0	32	0	2423259136	30	6091
2026-01-28 18:26:22.57	294.59	36.21	-28.8	-29.5	28.9	0.00e+00	0	32	0	2428502016	30	6050
2026-01-28 18:26:23.58	294.19	36.13	-28.5	-29.2	29.0	0.00e+00	0	33	0	2434793472	30	5859
2026-01-28 18:26:24.59	293.80	36.06	-28.7	-29.3	28.9	0.00e+00	0	33	0	2440036352	30	5898
2026-01-28 18:26:25.60	293.40	35.98	-28.8	-29.4	28.8	0.00e+00	0	32	0	2445279232	30	6001
2026-01-28 18:26:26.61	293.01	35.90	-28.7	-29.3	28.8	0.00e+00	0	33	0	2451570688	30	5912
2026-01-28 18:26:27.62	292.62	35.82	-28.7	-29.2	28.9	0.00e+00	0	33	0	2456813568	30	5872
2026-01-28 18:26:28.63	292.24	35.74	-28.6	-29.1	29.0	0.00e+00	0	32	0	2462056448	30	5802
2026-01-28 18:26:29.64	291.85	35.66	-29.0	-29.5	28.8	0.00e+00	0	32	0	2468347904	30	6093
2026-01-28 18:26:30.65	291.47	35.57	-28.8	-29.3	28.8	0.00e+00	0	32	0	2473590784	30	5962
2026-01-28 18:26:31.66	291.08	35.49	-29.0	-29.6	28.7	0.00e+00	0	32	0	2479882240	30	6157
2026-01-28 18:26:32.67	290.70	35.40	-28.8	-29.4	28.7	0.00e+00	0	32	0	2485125120	30	5984
2026-01-28 18:26:33.68	290.33	35.31	-28.8	-29.5	28.9	0.00e+00	0	33	0	2491416576	30	6040
2026-01-28 18:26:34.69	289.95	35.22	-28.8	-29.5	28.8	0.00e+00	0	32	0	2496659456	30	6045
2026-01-28 18:26:35.70	289.58	35.13	-28.9	-29.6	28.7	0.00e+00	0	33	0	2502950912	30	6128
2026-01-28 18:26:36.71	289.21	35.04	-28.9	-29.6	28.6	0.00e+00	0	32	0	2508193792	30	6164
2026-01-28 18:26:37.72	288.84	34.95	-28.8	-29.4	28.7	0.00e+00	0	32	0	2513436672	30	6032
2026-01-28 18:26:38.73	288.47	34.86	-28.7	-29.4	28.9	0.00e+00	0	33	0	2519728128	30	6005
2026-01-28 18:26:39.73	288.11	34.76	-28.5	-29.2	29.0	0.00e+00	0	32	0	2524971008	30	5830
2026-01-28 18:26:40.74	287.75	34.67	-28.6	-29.3	28.9	0.00e+00	0	32	0	2531262464	30	5900
2026-01-28 18:26:41.76	287.38	34.57	-28.5	-29.1	29.0	0.00e+00	0	32	0	2536505344	30	5795
2026-01-28 18:26:42.77	287.02	34.47	-28.6	-29.2	28.9	0.00e+00	0	32	0	2541748224	30	5834
2026-01-28 18:26:43.77	286.67	34.38	-28.7	-29.4	29.0	0.00e+00	0	32	0	2548039680	30	5965
2026-01-28 18:26:44.78	286.31	34.28	-28.4	-29.1	29.0	0.00e+00	0	32	0	2553282560	30	5772
2026-01-28 18:26:45.79	285.96	34.18	-28.4	-29.1	29.0	0.00e+00	0	32	0	2559574016	30	5784
2026-01-28 18:26:46.80	285.61	34.07	-28.5	-29.0	29.0	0.00e+00	0	32	0	2564816896	30	5755
2026-01-28 18:26:47.81	285.26	33.97	-28.6	-29.2	28.9	0.00e+00	0	32	0	2570059776	30	5832
2026-01-28 18:26:48.82	284.92	33.87	-28.6	-29.1	29.0	0.00e+00	0	33	0	2576351232	30	5808
2026-01-28 18:26:49.83	284.57	33.77	-28.5	-29.0	29.0	0.00e+00	0	33	0	2581594112	30	5761
2026-01-28 18:26:50.84	284.23	33.66	-28.6	-29.2	28.9	0.00e+00	0	33	0	2587885568	30	5845
2026-01-28 18:26:51.85	283.89	33.56	-28.7	-29.4	28.9	0.00e+00	0	32	0	2593128448	30	6024
2026-01-28 18:26:52.86	283.56	33.45	-28.8	-29.5	28.8	0.00e+00	0	32	0	2599419904	30	6055
2026-01-28 18:26:53.87	283.22	33.34	-28.6	-29.3	28.8	0.00e+00	0	32	0	2604662784	30	5908
2026-01-28 18:26:54.88	282.89	33.23	-28.7	-29.2	28.9	0.00e+00	0	32	0	2609905664	30	5889
2026-01-28 18:26:55.89	282.56	33.13	-28.8	-29.4	28.8	0.00e+00	0	32	0	2616197120	30	5988
2026-01-28 18:26:56.90	282.23	33.02	-28.8	-29.3	28.8	0.00e+00	0	32	0	2621440000	30	5960
2026-01-28 18:26:57.91	281.91	32.91	-29.0	-29.6	28.6	0.00e+00	0	32	0	2627731456	30	6130
2026-01-28 18:26:58.92	281.58	32.80	-28.8	-29.5	28.9	0.00e+00	0	32	0	2632974336	30	6054
2026-01-28 18:26:59.93	281.26	32.69	-28.7	-29.2	29.0	0.00e+00	0	32	0	2638217216	30	5873
2026-01-28 18:27:00.93	280.94	32.58	-28.6	-29.2	29.0	0.00e+00	0	33	0	2644508672	30	5846
2026-01-28 18:27:01.94	280.63	32.46	-28.7	-29.2	28.8	0.00e+00	0	33	0	2649751552	30	5894
2026-01-28 18:27:02.95	280.31	32.35	-28.8	-29.5	28.8	0.00e+00	0	32	0	2656043008	30	6073
2026-01-28 18:27:03.96	280.00	32.24	-28.9	-29.5	28.8	0.00e+00	0	33	0	2661285888	30	6073
2026-01-28 18:27:04.97	279.69	32.12	-28.9	-29.5	28.7	0.00e+00	0	32	0	2666528768	30	6070
2026-01-28 18:27:05.98	279.38	32.01	-29.0	-29.5	28.9	0.00e+00	0	33	0	2672820224	30	6064
2026-01-28 18:27:06.99	279.08	31.90	-29.0	-29.7	28.7	0.00e+00	0	32	0	2678063104	30	6211
2026-01-28 18:27:08.00	278.77	31.78	-29.1	-29.8	28.5	0.00e+00	0	33	0	2684354560	30	6312
2026-01-28 18:27:09.01	278.47	31.66	-29.0	-29.5	28.7	0.00e+00	0	33	0	2689597440	30	6078
2026-01-28 18:27:10.02	278.17	31.55	-28.9	-29.5	28.8	0.00e+00	0	32	0	2695888896	30	6092
2026-01-28 18:27:11.03	277.87	31.43	-28.7	-29.3	28.8	0.00e+00	0	32	0	2701131776	30	5910
2026-01-28 18:27:12.04	277.58	31.31	-28.8	-29.4	28.8	0.00e+00	0	32	0	2707423232	30	5986
2026-01-28 18:27:13.05	277.28	31.20	-28.9	-29.6	28.8	0.00e+00	0	32	0	2712666112	30	6163
2026-01-28 18:27:14.06	276.99	31.08	-29.1	-29.6	28.7	0.00e+00	0	33	0	2717908992	30	6156
2026-01-28 18:27:15.07	276.70	30.96	-28.9	-29.5	28.7	0.00e+00	0	32	0	2724200448	30	6047
2026-01-28 18:27:16.08	276.42	30.84	-29.1	-29.8	28.7	0.00e+00	0	32	0	2729443328	30	6258
2026-01-28 18:27:17.09	276.13	30.72	-28.9	-29.4	28.7	0.00e+00	0	32	0	2735734784	30	6032
2026-01-28 18:27:18.09	275.85	30.61	-29.1	-29.7	28.6	0.00e+00	0	33	0	2740977664	30	6179
2026-01-28 18:27:19.10	275.57	30.49	-29.2	-29.8	28.5	0.00e+00	0	32	0	2746220544	30	6254
2026-01-28 18:27:20.11	275.29	30.37	-29.2	-29.8	28.6	0.00e+00	0	33	0	2752512000	30	6295
2026-01-28 18:27:21.13	275.01	30.25	-29.1	-29.7	28.6	0.00e+00	0	32	0	2757754880	30	6204
2026-01-28 18:27:22.13	274.74	30.13	-29.0	-29.7	28.6	0.00e+00	0	32	0	2764046336	30	6186
2026-01-28 18:27:23.14	274.47	30.01	-28.9	-29.5	28.6	0.00e+00	0	32	0	2769289216	30	6068
2026-01-28 18:27:24.15	274.20	29.89	-28.9	-29.6	28.5	0.00e+00	0	32	0	2774532096	30	6104
2026-01-28 18:27:25.16	273.93	29.76	-28.8	-29.4	28.6	0.00e+00	0	32	0	2780823552	30	6031
2026-01-28 18:27:26.17	273.67	29.64	-28.8	-29.3	28.4	0.00e+00	0	32	0	2786066432	30	5944
2026-01-28 18:27:27.18	273.40	29.52	-28.9	-29.5	28.4	0.00e+00	0	32	0	2792357888	30	6094
2026-01-28 18:27:28.19	273.14	29.40	-28.8	-29.5	28.4	0.00e+00	0	32	0	2797600768	30	6065
2026-01-28 18:27:29.20	272.88	29.28	-29.0	-29.6	28.2	0.00e+00	0	32	0	2803892224	30	6163
2026-01-28 18:27:30.21	272.62	29.16	-29.0	-29.7	28.0	0.00e+00	0	32	0	2809135104	30	6175
2026-01-28 18:27:31.21	272.37	29.04	-29.3	-29.8	28.1	0.00e+00	0	32	0	2814377984	30	6283
2026-01-28 18:27:32.22	272.11	28.92	-29.2	-29.8	28.2	0.00e+00	0	32	0	2820669440	30	6302
2026-01-28 18:27:33.22	271.86	28.80	-29.4	-29.9	27.9	0.00e+00	0	32	0	2825912320	30	6382
2026-01-28 18:27:34.23	271.61	28.67	-29.4	-30.0	27.9	0.00e+00	0	32	0	2831155200	30	6405
2026-01-28 18:27:35.24	271.36	28.55	-29.5	-30.2	27.9	0.00e+00	0	32	0	2837446656	30	6540
2026-01-28 18:27:36.25	271.12	28.43	-29.3	-29.9	28.1	0.00e+00	0	32	0	2842689536	30	6335
2026-01-28 18:27:37.26	270.87	28.31	-29.4	-30.0	28.1	0.00e+00	0	32	0	2848980992	30	6415
2026-01-28 18:27:38.27	270.63	28.18	-29.4	-30.0	28.0	0.00e+00	0	32	0	2854223872	30	6421
2026-01-28 18:27:39.28	270.39	28.06	-29.6	-30.1	28.0	0.00e+00	0	33	0	2859466752	30	6508
2026-01-28 18:27:40.28	270.15	27.94	-29.6	-30.3	28.0	0.00e+00	0	32	0	2865758208	30	6655
2026-01-28 18:27:41.29	269.92	27.82	-29.6	-30.2	27.9	0.00e+00	0	32	0	2871001088	32	5859
2026-01-28 18:27:42.30	269.68	27.70	-29.5	-30.2	28.0	0.00e+00	0	32	0	2877292544	32	5842
2026-01-28 18:27:43.31	269.45	27.57	-29.5	-30.0	28.1	0.00e+00	0	32	0	2882535424	32	5730
2026-01-28 18:27:44.32	269.21	27.45	-29.6	-30.1	28.0	0.00e+00	0	32	0	2888826880	32	5820
2026-01-28 18:27:45.33	268.98	27.33	-29.7	-30.4	27.9	0.00e+00	0	32	0	2894069760	32	5998
2026-01-28 18:27:46.34	268.76	27.21	-29.7	-30.4	27.8	0.00e+00	0	33	0	2900361216	32	5979
2026-01-28 18:27:47.35	268.53	27.08	-29.6	-30.1	27.9	0.00e+00	0	33	0	2905604096	32	5822
2026-01-28 18:27:48.36	268.30	26.96	-29.6	-30.2	28.0	0.00e+00	0	33	0	2910846976	32	5841
2026-01-28 18:27:49.37	268.08	26.84	-29.6	-30.3	27.9	0.00e+00	0	33	0	2917138432	32	5939
2026-01-28 18:27:50.37	267.86	26.72	-29.8	-30.5	27.8	0.00e+00	0	32	0	2922381312	32	6071
2026-01-28 18:27:51.38	267.64	26.60	-29.6	-30.2	28.0	0.00e+00	0	33	0	2928672768	32	5838
2026-01-28 18:27:52.39	267.42	26.48	-29.5	-30.2	28.0	0.00e+00	0	33	0	2933915648	32	5879
2026-01-28 18:27:53.40	267.21	26.35	-29.7	-30.2	27.9	0.00e+00	0	32	0	2939158528	32	5888
2026-01-28 18:27:54.41	266.99	26.23	-29.7	-30.3	27.9	0.00e+00	0	32	0	2945449984	32	5961
2026-01-28 18:27:55.42	266.78	26.11	-29.8	-30.3	27.9	0.00e+00	0	32	0	2950692864	32	5942
2026-01-28 18:27:56.43	266.57	25.99	-30.0	-30.7	27.8	0.00e+00	0	32	0	2955935744	32	6185
2026-01-28 18:27:57.44	266.36	25.87	-29.9	-30.5	27.7	0.00e+00	0	32	0	2962227200	32	6044
2026-01-28 18:27:58.45	266.15	25.75	-29.9	-30.4	27.8	0.00e+00	0	33	0	2967470080	32	6003
2026-01-28 18:27:59.46	265.94	25.63	-29.8	-30.4	27.8	0.00e+00	0	32	0	2973761536	32	6033
2026-01-28 18:28:00.47	265.74	25.50	-29.8	-30.3	27.8	0.00e+00	0	32	0	2979004416	32	5957
2026-01-28 18:28:01.48	265.54	25.38	-29.8	-30.3	27.9	0.00e+00	0	32	0	2985295872	32	5943
2026-01-28 18:28:02.49	265.33	25.26	-29.8	-30.3	27.9	0.00e+00	0	33	0	2990538752	32	5941
2026-01-28 18:28:03.50	265.13	25.14	-29.7	-30.2	27.8	0.00e+00	0	32	0	2996830208	32	5890
2026-01-28 18:28:04.51	264.93	25.02	-29.9	-30.4	27.7	0.00e+00	0	33	0	3002073088	32	6029
2026-01-28 18:28:05.52	264.74	24.90	-29.7	-30.3	27.8	0.00e+00	0	33	0	3007315968	32	5921
2026-01-28 18:28:06.53	264.54	24.78	-29.8	-30.3	27.8	0.00e+00	0	33	0	3013607424	32	5940
2026-01-28 18:28:07.54	264.35	24.66	-29.7	-30.4	27.9	0.00e+00	0	32	0	3018850304	32	5993
2026-01-28 18:28:08.55	264.16	24.54	-29.8	-30.3	27.8	0.00e+00	0	33	0	3025141760	32	5929
2026-01-28 18:28:09.56	263.96	24.42	-30.0	-30.5	27.7	0.00e+00	0	33	0	3030384640	32	6073
2026-01-28 18:28:10.56	263.78	24.31	-30.0	-30.5	27.7	0.00e+00	0	32	0	3035627520	32	6090
2026-01-28 18:28:11.57	263.59	24.19	-30.1	-30.8	27.6	0.00e+00	0	33	0	3041918976	32	6262
2026-01-28 18:28:12.58	263.40	24.07	-30.0	-30.7	27.5	0.00e+00	0	33	0	3047161856	32	6221
2026-01-28 18:28:13.59	263.22	23.95	-30.1	-30.8	27.5	0.00e+00	0	33	0	3053453312	32	6296
2026-01-28 18:28:14.60	263.03	23.83	-30.2	-30.9	27.4	0.00e+00	0	33	0	3058696192	32	6381
2026-01-28 18:28:15.61	262.85	23.71	-30.2	-31.0	27.5	0.00e+00	0	32	0	3063939072	32	6396
2026-01-28 18:28:16.62	262.67	23.59	-30.3	-30.8	27.5	0.00e+00	0	32	0	3070230528	32	6295
2026-01-28 18:28:17.63	262.49	23.48	-30.3	-30.8	27.4	0.00e+00	0	32	0	3075473408	32	6307
2026-01-28 18:28:18.64	262.31	23.36	-30.4	-31.1	27.4	0.00e+00	0	32	0	3081764864	32	6478
2026-01-28 18:28:19.65	262.13	23.24	-30.1	-30.6	27.6	0.00e+00	0	33	0	3087007744	32	6155
2026-01-28 18:28:20.66	261.96	23.12	-30.0	-30.6	27.7	0.00e+00	0	32	0	3093299200	32	6129
2026-01-28 18:28:21.67	261.78	23.01	-29.9	-30.6	27.7	0.00e+00	0	32	0	3098542080	32	6142
2026-01-28 18:28:22.68	261.61	22.89	-29.8	-30.3	27.8	0.00e+00	0	32	0	3103784960	32	5961
2026-01-28 18:28:23.69	261.44	22.77	-29.7	-30.3	27.9	0.00e+00	0	33	0	3110076416	32	5898
2026-01-28 18:28:24.70	261.27	22.66	-29.8	-30.5	27.8	0.00e+00	0	32	0	3115319296	32	6036
2026-01-28 18:28:25.71	261.10	22.54	-29.9	-30.4	27.7	0.00e+00	0	32	0	3121610752	32	6001
2026-01-28 18:28:26.72	260.93	22.43	-29.9	-30.6	27.7	0.00e+00	0	32	0	3126853632	32	6117
2026-01-28 18:28:27.73	260.76	22.31	-30.2	-30.9	27.6	0.00e+00	0	32	0	3132096512	32	6363
2026-01-28 18:28:28.74	260.60	22.20	-30.2	-30.8	27.4	0.00e+00	0	32	0	3138387968	32	6249
2026-01-28 18:28:29.75	260.43	22.08	-30.0	-30.6	27.6	0.00e+00	0	32	0	3143630848	32	6123
2026-01-28 18:28:30.76	260.27	21.97	-29.8	-30.4	27.7	0.00e+00	0	33	0	3149922304	32	5985
2026-01-28 18:28:31.77	260.11	21.85	-29.9	-30.4	27.7	0.00e+00	0	33	0	3155165184	32	6019
2026-01-28 18:28:32.78	259.95	21.74	-29.9	-30.5	27.8	0.00e+00	0	32	0	3160408064	32	6038
2026-01-28 18:28:33.78	259.79	21.63	-29.9	-30.5	27.7	0.00e+00	0	32	0	3166699520	32	6058
2026-01-28 18:28:34.80	259.63	21.51	-30.0	-30.6	27.6	0.00e+00	0	32	0	3171942400	32	6117
2026-01-28 18:28:35.81	259.47	21.40	-30.2	-30.7	27.5	0.00e+00	0	33	0	3178233856	32	6243
2026-01-28 18:28:36.82	259.32	21.29	-30.2	-30.8	27.4	0.00e+00	0	33	0	3183476736	32	6248
2026-01-28 18:28:37.83	259.16	21.17	-30.3	-30.8	27.5	0.00e+00	0	33	0	3189768192	32	6293
2026-01-28 18:28:38.84	259.01	21.06	-30.3	-30.8	27.4	0.00e+00	0	33	0	3195011072	32	6301
2026-01-28 18:28:39.85	258.86	20.95	-30.3	-31.0	27.4	0.00e+00	0	33	0	3201302528	32	6447
2026-01-28 18:28:40.86	258.70	20.84	-30.5	-31.2	27.2	0.00e+00	0	33	0	3206545408	32	6544
2026-01-28 18:28:41.87	258.55	20.73	-30.4	-31.1	27.3	0.00e+00	0	32	0	3211788288	32	6503
2026-01-28 18:28:42.88	258.40	20.61	-30.4	-31.0	27.4	0.00e+00	0	33	0	3218079744	32	6417
2026-01-28 18:28:43.89	258.26	20.50	-30.3	-31.0	27.4	0.00e+00	0	32	0	3223322624	32	6438
2026-01-28 18:28:44.90	258.11	20.39	-30.5	-31.1	27.2	0.00e+00	0	33	0	3229614080	32	6501
2026-01-28 18:28:45.91	257.96	20.28	-30.3	-30.8	27.5	0.00e+00	0	33	0	3234856960	32	6293
2026-01-28 18:28:46.92	257.82	20.17	-30.4	-30.9	27.4	0.00e+00	0	33	0	3240099840	32	6364
2026-01-28 18:28:47.92	257.68	20.06	-30.4	-31.0	27.3	0.00e+00	0	33	0	3246391296	32	6398
2026-01-28 18:28:48.94	257.53	19.95	-30.3	-30.9	27.5	0.00e+00	0	33	0	3251634176	32	6323
2026-01-28 18:28:49.94	257.39	19.85	-30.3	-30.9	27.4	0.00e+00	0	32	0	3257925632	32	6325
2026-01-28 18:28:50.95	257.25	19.74	-30.3	-31.0	27.3	0.00e+00	0	33	0	3263168512	32	6461
2026-01-28 18:28:51.96	257.11	19.63	-30.5	-31.2	27.3	0.00e+00	0	32	0	3268411392	32	6562
2026-01-28 18:28:52.97	256.97	19.52	-30.5	-31.1	27.3	0.00e+00	0	32	0	3274702848	32	6488
2026-01-28 18:28:53.98	256.83	19.41	-30.6	-31.2	27.2	0.00e+00	0	32	0	3279945728	32	6563
2026-01-28 18:28:54.99	256.70	19.30	-30.7	-31.3	27.1	0.00e+00	0	32	0	3286237184	32	6643
2026-01-28 18:28:56.00	256.56	19.20	-30.6	-31.3	27.2	0.00e+00	0	33	0	3291480064	32	6660
2026-01-28 18:28:57.01	256.43	19.09	-30.7	-31.4	27.1	0.00e+00	0	32	0	3297771520	32	6736
2026-01-28 18:28:58.02	256.29	18.98	-30.7	-31.5	27.0	0.00e+00	0	33	0	3303014400	34	6041
2026-01-28 18:28:59.03	256.16	18.88	-30.7	-31.2	27.2	0.00e+00	0	33	0	3308257280	34	5883
2026-01-28 18:29:00.04	256.03	18.77	-30.7	-31.4	27.1	0.00e+00	0	33	0	3314548736	34	6006
2026-01-28 18:29:01.05	255.90	18.66	-30.8	-31.4	27.0	0.00e+00	0	33	0	3319791616	34	5996
2026-01-28 18:29:02.06	255.77	18.56	-30.7	-31.3	27.1	0.00e+00	0	33	0	3326083072	34	5924
2026-01-28 18:29:03.07	255.64	18.45	-30.8	-31.4	27.0	0.00e+00	0	32	0	3331325952	34	6001
2026-01-28 18:29:04.08	255.51	18.35	-30.9	-31.4	26.9	0.00e+00	0	32	0	3336568832	34	6019
2026-01-28 18:29:05.08	255.38	18.24	-30.9	-31.6	26.9	0.00e+00	0	33	0	3342860288	34	6152
2026-01-28 18:29:06.09	255.26	18.14	-31.0	-31.5	26.9	0.00e+00	0	32	0	3348103168	34	6087
2026-01-28 18:29:07.11	255.13	18.03	-31.1	-31.7	26.8	0.00e+00	0	32	0	3354394624	34	6192
2026-01-28 18:29:08.11	255.01	17.93	-31.1	-31.8	26.8	0.00e+00	0	32	0	3359637504	34	6271
2026-01-28 18:29:09.12	254.88	17.83	-31.1	-31.8	26.8	0.00e+00	0	33	0	3364880384	34	6279
2026-01-28 18:29:10.13	254.76	17.72	-31.1	-31.9	26.7	0.00e+00	0	33	0	3371171840	34	6320
2026-01-28 18:29:11.14	254.64	17.62	-31.2	-31.9	26.6	0.00e+00	0	32	0	3376414720	34	6358
2026-01-28 18:29:12.15	254.52	17.52	-31.2	-31.8	26.7	0.00e+00	0	33	0	3382706176	34	6262
2026-01-28 18:29:13.16	254.40	17.42	-31.1	-31.8	26.8	0.00e+00	0	33	0	3387949056	34	6276
2026-01-28 18:29:14.17	254.28	17.31	-31.2	-32.0	26.6	0.00e+00	0	32	0	3394240512	34	6399
2026-01-28 18:29:15.18	254.16	17.21	-31.1	-31.9	26.7	0.00e+00	0	33	0	3399483392	34	6324
2026-01-28 18:29:16.19	254.04	17.11	-31.4	-32.1	26.5	0.00e+00	0	32	0	3405774848	34	6514
2026-01-28 18:29:17.20	253.92	17.01	-31.3	-32.0	26.5	0.00e+00	0	33	0	3411017728	34	6456
2026-01-28 18:29:18.21	253.81	16.91	-31.3	-31.9	26.6	0.00e+00	0	33	0	3416260608	34	6356
2026-01-28 18:29:19.22	253.69	16.81	-31.3	-31.9	26.6	0.00e+00	0	32	0	3422552064	34	6357
2026-01-28 18:29:20.23	253.58	16.71	-31.4	-32.0	26.6	0.00e+00	0	32	0	3427794944	34	6410
2026-01-28 18:29:21.24	253.46	16.61	-31.5	-32.0	26.5	0.00e+00	0	33	0	3434086400	34	6458
2026-01-28 18:29:22.24	253.35	16.51	-31.5	-32.1	26.4	0.00e+00	0	32	0	3439329280	34	6474
2026-01-28 18:29:23.26	253.24	16.41	-31.7	-32.3	26.3	0.00e+00	0	32	0	3444572160	34	6624
2026-01-28 18:29:24.27	253.13	16.31	-31.5	-32.0	26.4	0.00e+00	0	32	0	3450863616	34	6459
2026-01-28 18:29:25.27	253.02	16.21	-31.5	-32.1	26.4	0.00e+00	0	32	0	3456106496	34	6508
2026-01-28 18:29:26.28	252.91	16.11	-31.6	-32.1	26.4	0.00e+00	0	32	0	3462397952	34	6525
2026-01-28 18:29:27.29	252.80	16.01	-31.7	-32.2	26.3	0.00e+00	0	32	0	3467640832	34	6604
2026-01-28 18:29:28.30	252.69	15.92	-31.7	-32.4	26.3	0.00e+00	0	32	0	3472883712	36	5986
2026-01-28 18:29:29.31	252.58	15.82	-31.9	-32.5	26.2	0.00e+00	0	32	0	3479175168	36	6062
2026-01-28 18:29:30.32	252.47	15.72	-31.7	-32.4	26.2	0.00e+00	0	32	0	3484418048	36	6025
2026-01-28 18:29:31.33	252.37	15.62	-31.6	-32.3	26.3	0.00e+00	0	32	0	3490709504	36	5940
2026-01-28 18:29:32.34	252.26	15.53	-31.7	-32.4	26.2	0.00e+00	0	32	0	3495952384	36	6024
2026-01-28 18:29:33.35	252.15	15.43	-31.7	-32.4	26.2	0.00e+00	0	32	0	3502243840	36	6028
2026-01-28 18:29:34.36	252.05	15.33	-31.8	-32.5	26.2	0.00e+00	0	33	0	3507486720	36	6080
2026-01-28 18:29:35.37	251.95	15.24	-31.8	-32.5	26.2	0.00e+00	0	33	0	3512729600	36	6098
2026-01-28 18:29:36.38	251.84	15.14	-31.8	-32.6	26.2	0.00e+00	0	33	0	3519021056	36	6111
2026-01-28 18:29:37.39	251.74	15.05	-31.8	-32.5	26.2	0.00e+00	0	33	0	3524263936	36	6100
2026-01-28 18:29:38.40	251.64	14.95	-31.9	-32.5	26.1	0.00e+00	0	33	0	3530555392	36	6079
2026-01-28 18:29:39.41	251.54	14.86	-32.1	-32.8	25.9	0.00e+00	0	33	0	3535798272	36	6317
2026-01-28 18:29:40.42	251.44	14.76	-32.1	-32.8	25.9	0.00e+00	0	33	0	3541041152	36	6315
2026-01-28 18:29:41.43	251.34	14.67	-32.0	-32.6	26.0	0.00e+00	0	33	0	3547332608	36	6131
2026-01-28 18:29:42.44	251.24	14.57	-32.1	-32.9	25.8	0.00e+00	0	33	0	3552575488	36	6340
2026-01-28 18:29:43.45	251.14	14.48	-32.2	-32.9	25.8	0.00e+00	0	33	0	3558866944	36	6375
2026-01-28 18:29:44.45	251.04	14.39	-32.1	-32.7	25.9	0.00e+00	0	33	0	3564109824	36	6234
2026-01-28 18:29:45.46	250.95	14.29	-32.3	-32.9	25.8	0.00e+00	0	33	0	3569352704	36	6320
2026-01-28 18:29:46.47	250.85	14.20	-32.2	-32.8	25.9	0.00e+00	0	33	0	3575644160	36	6256
2026-01-28 18:29:47.48	250.75	14.11	-32.3	-32.9	25.8	0.00e+00	0	33	0	3580887040	36	6319
2026-01-28 18:29:48.49	250.66	14.01	-32.3	-32.9	25.7	0.00e+00	0	32	0	3587178496	36	6367
2026-01-28 18:29:49.50	250.56	13.92	-32.3	-32.9	25.7	0.00e+00	0	33	0	3592421376	36	6352
2026-01-28 18:29:50.51	250.47	13.83	-32.4	-33.0	25.7	0.00e+00	0	33	0	3598712832	36	6399
