passes_logs/2026/01/28/R4.6S_Anadyr/R4.6S_Anadyr__20260128_023300_KOSAR1-5_rec.log

#Pass ID: 20260128_023300_KOSAR1-5
#Satellite: KOSAR1-5
#Configuration: KOSAR1-5
#almurnet v.1.7.20251203
#Start time: 2026-01-28 02:33:02

#Version: 2.2.20231116
#Station: R4.6S_Anadyr
#Location: 177.4865 lon 64.73178 lat
#TLE: 1 67264U 25313S   26027.43234714  .00011684  00000+0  53854-3 0  9991
#TLE: 2 67264  97.4175 104.3970 0016458 139.6900 220.5558 15.20303503  4548

#Time	Az	El	Level	Level2	SNR	BER	BlckErr	Temp	State	Recorded	gain1	gain2
2026-01-28 02:33:02.04	19.16	0.08	-49.4	-67.1	3.5	3.02e+01	0	30	0	0	60	87392
2026-01-28 02:33:03.05	19.05	0.13	-45.7	-60.4	3.6	1.51e+00	0	31	104	0	60	42479
2026-01-28 02:33:04.06	18.94	0.18	-45.7	-60.5	3.6	1.51e+00	0	32	104	0	60	42787
2026-01-28 02:33:05.07	18.83	0.23	-45.8	-60.5	3.6	1.51e+00	0	32	104	0	60	43019
2026-01-28 02:33:06.08	18.72	0.28	-45.8	-60.5	3.6	1.51e+00	0	32	104	0	60	42982
2026-01-28 02:33:07.09	18.61	0.32	-45.8	-60.6	3.6	1.51e+00	0	32	104	0	60	43208
2026-01-28 02:33:08.10	18.49	0.37	-45.9	-60.5	3.6	1.51e+00	0	32	104	0	60	43134
2026-01-28 02:33:09.11	18.38	0.42	-45.9	-60.6	3.6	1.51e+00	0	32	104	0	60	43388
2026-01-28 02:33:10.12	18.27	0.47	-45.9	-60.6	3.6	1.51e+00	0	32	104	0	60	43555
2026-01-28 02:33:11.13	18.15	0.52	-45.8	-60.6	3.6	1.51e+00	0	32	104	0	60	43698
2026-01-28 02:33:12.14	18.04	0.57	-45.9	-60.7	3.6	1.51e+00	0	32	104	0	60	43854
2026-01-28 02:33:13.15	17.92	0.62	-46.0	-60.7	3.6	1.51e+00	0	32	104	0	60	43812
2026-01-28 02:33:14.16	17.81	0.67	-46.0	-60.7	3.6	1.51e+00	0	32	104	0	60	43802
2026-01-28 02:33:15.17	17.69	0.72	-45.7	-60.7	3.6	1.51e+00	0	32	104	0	60	43869
2026-01-28 02:33:16.18	17.57	0.77	-45.9	-60.6	3.6	1.51e+00	0	32	104	0	60	43393
2026-01-28 02:33:17.19	17.46	0.82	-45.9	-60.5	3.6	1.51e+00	0	32	104	0	60	43166
2026-01-28 02:33:18.20	17.34	0.87	-45.8	-60.6	3.6	1.51e+00	0	32	104	0	60	43313
2026-01-28 02:33:19.21	17.22	0.92	-45.6	-60.7	3.5	1.51e+00	0	32	104	0	60	44003
2026-01-28 02:33:20.22	17.10	0.97	-45.7	-60.4	3.6	1.51e+00	0	32	104	0	60	42339
2026-01-28 02:33:21.23	16.98	1.02	-45.5	-60.2	3.6	1.51e+00	0	32	104	0	60	41716
2026-01-28 02:33:22.24	16.86	1.07	-45.4	-60.1	3.6	1.51e+00	0	32	104	0	60	40920
2026-01-28 02:33:23.25	16.74	1.12	-45.1	-59.9	3.6	1.51e+00	0	32	104	0	60	39958
2026-01-28 02:33:24.26	16.62	1.17	-44.9	-59.6	3.6	1.51e+00	0	32	104	0	60	38667
2026-01-28 02:33:25.27	16.50	1.22	-44.6	-59.4	3.6	1.51e+00	0	32	104	0	60	37780
2026-01-28 02:33:26.28	16.38	1.27	-44.3	-59.1	3.6	1.51e+00	0	32	104	0	60	36504
2026-01-28 02:33:27.29	16.25	1.32	-44.3	-59.1	3.6	1.51e+00	0	32	104	0	60	36488
2026-01-28 02:33:28.30	16.13	1.37	-44.3	-59.1	3.6	1.51e+00	0	32	104	0	60	36497
2026-01-28 02:33:29.31	16.01	1.42	-44.3	-59.1	3.6	1.51e+00	0	32	104	0	60	36532
2026-01-28 02:33:30.32	15.88	1.47	-44.3	-59.0	3.6	1.51e+00	0	32	104	0	60	36352
2026-01-28 02:33:31.33	15.76	1.52	-44.3	-59.0	3.6	1.51e+00	0	32	104	0	60	36243
2026-01-28 02:33:32.34	15.63	1.57	-44.3	-59.0	3.6	1.51e+00	0	32	104	0	60	36271
2026-01-28 02:33:33.35	15.51	1.62	-44.3	-59.0	3.6	1.51e+00	0	32	104	0	60	36323
2026-01-28 02:33:34.36	15.38	1.67	-44.3	-59.0	3.6	1.51e+00	0	32	104	0	60	36333
2026-01-28 02:33:35.37	15.25	1.72	-44.3	-59.0	3.6	1.51e+00	0	32	104	0	60	36259
2026-01-28 02:33:36.38	15.12	1.77	-44.3	-59.1	3.6	1.51e+00	0	32	104	0	60	36387
2026-01-28 02:33:37.39	15.00	1.82	-44.3	-59.0	3.6	1.51e+00	0	32	104	0	60	36229
2026-01-28 02:33:38.40	14.87	1.87	-44.3	-59.0	3.6	1.51e+00	0	32	104	0	60	36283
2026-01-28 02:33:39.41	14.74	1.92	-44.3	-59.1	3.6	1.51e+00	0	32	104	0	60	36443
2026-01-28 02:33:40.42	14.61	1.97	-44.3	-59.0	3.6	1.51e+00	0	32	104	0	60	36124
2026-01-28 02:33:41.43	14.48	2.02	-44.3	-59.0	3.6	1.51e+00	0	32	104	0	60	36251
2026-01-28 02:33:42.44	14.35	2.07	-44.3	-59.0	3.6	1.51e+00	0	32	104	0	60	36201
2026-01-28 02:33:43.45	14.21	2.11	-44.3	-59.0	3.6	1.51e+00	0	32	104	0	60	36278
2026-01-28 02:33:44.46	14.08	2.16	-44.3	-59.0	3.6	1.51e+00	0	32	104	0	60	36175
2026-01-28 02:33:45.47	13.95	2.21	-44.3	-59.0	3.6	1.51e+00	0	32	104	0	60	36345
2026-01-28 02:33:46.48	13.82	2.26	-44.3	-59.0	3.6	1.51e+00	0	32	104	0	60	36337
2026-01-28 02:33:47.49	13.68	2.31	-44.3	-59.0	3.6	1.51e+00	0	32	104	0	60	36242
2026-01-28 02:33:48.50	13.55	2.36	-44.3	-59.1	3.6	1.51e+00	0	32	104	0	60	36396
2026-01-28 02:33:49.51	13.41	2.41	-44.3	-59.0	3.6	1.51e+00	0	32	104	0	60	36249
2026-01-28 02:33:50.52	13.28	2.46	-44.3	-59.0	3.6	1.51e+00	0	32	104	0	60	36227
2026-01-28 02:33:51.53	13.14	2.51	-44.3	-59.0	3.6	1.51e+00	0	32	104	0	60	36284
2026-01-28 02:33:52.54	13.00	2.56	-44.3	-59.1	3.6	1.51e+00	0	32	104	0	60	36375
2026-01-28 02:33:53.55	12.86	2.61	-44.3	-59.0	3.6	1.51e+00	0	32	104	0	60	36176
2026-01-28 02:33:54.56	12.73	2.66	-44.3	-59.0	3.6	1.51e+00	0	32	104	0	60	36229
2026-01-28 02:33:55.57	12.59	2.71	-44.3	-59.0	3.6	1.51e+00	0	32	104	0	60	36209
2026-01-28 02:33:56.58	12.45	2.76	-44.3	-59.0	3.6	1.51e+00	0	32	104	0	60	36159
2026-01-28 02:33:57.59	12.31	2.81	-44.3	-59.0	3.6	1.51e+00	0	33	104	0	60	36273
2026-01-28 02:33:58.60	12.17	2.86	-44.3	-59.0	3.6	1.51e+00	0	32	104	0	60	36347
2026-01-28 02:33:59.61	12.02	2.91	-44.3	-59.0	3.6	1.51e+00	0	32	104	0	60	36256
2026-01-28 02:34:00.62	11.88	2.96	-44.3	-59.1	3.6	1.51e+00	0	32	104	0	60	36415
2026-01-28 02:34:01.63	11.74	3.01	-44.3	-59.0	3.6	1.51e+00	0	32	104	0	60	35977
2026-01-28 02:34:02.64	11.60	3.06	-44.5	-59.1	3.5	1.51e+00	0	33	104	0	60	36605
2026-01-28 02:34:03.65	11.45	3.11	-44.5	-59.2	3.6	1.51e+00	0	33	104	0	60	37143
2026-01-28 02:34:04.66	11.31	3.16	-44.4	-59.0	3.6	1.51e+00	0	32	104	0	60	36343
2026-01-28 02:34:05.67	11.16	3.21	-44.5	-59.1	3.6	1.51e+00	0	33	104	0	60	36693
2026-01-28 02:34:06.68	11.02	3.26	-44.4	-59.2	3.6	1.51e+00	0	33	104	0	60	36831
2026-01-28 02:34:07.69	10.87	3.31	-44.5	-59.2	3.6	1.51e+00	0	33	104	0	60	37054
2026-01-28 02:34:08.70	10.72	3.36	-44.4	-59.1	3.6	1.51e+00	0	33	104	0	60	36636
2026-01-28 02:34:09.71	10.57	3.41	-44.5	-59.2	3.6	1.51e+00	0	33	104	0	60	37143
2026-01-28 02:34:10.72	10.43	3.46	-44.5	-59.1	3.6	1.51e+00	0	32	104	0	60	36760
2026-01-28 02:34:11.73	10.28	3.51	-44.5	-59.3	3.6	1.51e+00	0	33	104	0	60	37448
2026-01-28 02:34:12.74	10.13	3.56	-44.5	-59.2	3.6	1.51e+00	0	33	104	0	60	37179
2026-01-28 02:34:13.75	9.98	3.61	-44.5	-59.3	3.6	1.51e+00	0	33	104	0	60	37276
2026-01-28 02:34:14.76	9.82	3.66	-44.4	-59.2	3.6	1.51e+00	0	33	104	0	60	37098
2026-01-28 02:34:15.77	9.67	3.71	-44.7	-59.4	3.6	1.51e+00	0	33	104	0	60	37640
2026-01-28 02:34:16.78	9.52	3.76	-44.5	-59.3	3.6	1.51e+00	0	33	104	0	60	37251
2026-01-28 02:34:17.79	9.37	3.80	-44.7	-59.3	3.6	1.51e+00	0	33	104	0	60	37514
2026-01-28 02:34:18.80	9.21	3.85	-44.6	-59.3	3.6	1.51e+00	0	33	104	0	60	37332
2026-01-28 02:34:19.81	9.06	3.90	-44.8	-59.5	3.6	1.51e+00	0	33	104	0	60	38087
2026-01-28 02:34:20.82	8.90	3.95	-44.5	-59.3	3.6	1.51e+00	0	33	104	0	60	37605
2026-01-28 02:34:21.83	8.75	4.00	-44.7	-59.4	3.6	1.51e+00	0	33	104	0	60	37937
2026-01-28 02:34:22.84	8.59	4.05	-44.7	-59.4	3.6	1.51e+00	0	33	104	0	60	37682
2026-01-28 02:34:23.85	8.43	4.10	-44.8	-59.4	3.6	1.51e+00	0	33	104	0	60	38040
2026-01-28 02:34:24.86	8.27	4.15	-44.6	-59.3	3.6	1.51e+00	0	33	104	0	60	37536
2026-01-28 02:34:25.87	8.12	4.20	-44.6	-59.5	3.5	1.51e+00	0	33	104	0	60	38137
2026-01-28 02:34:26.88	7.96	4.25	-44.6	-59.5	3.6	1.51e+00	0	33	104	0	60	38096
2026-01-28 02:34:27.89	7.80	4.30	-44.7	-59.5	3.6	1.51e+00	0	33	104	0	60	38401
2026-01-28 02:34:28.90	7.63	4.34	-44.7	-59.4	3.6	1.51e+00	0	33	104	0	60	37773
2026-01-28 02:34:29.91	7.47	4.39	-44.7	-59.5	3.6	1.51e+00	0	33	104	0	60	38351
2026-01-28 02:34:30.92	7.31	4.44	-44.6	-59.5	3.6	1.51e+00	0	33	104	0	60	38147
2026-01-28 02:34:31.93	7.15	4.49	-44.9	-59.6	3.6	1.51e+00	0	33	104	0	60	38534
2026-01-28 02:34:32.94	6.98	4.54	-44.7	-59.5	3.6	1.51e+00	0	33	104	0	60	38193
2026-01-28 02:34:33.95	6.82	4.59	-44.8	-59.5	3.6	1.51e+00	0	33	104	0	60	38292
2026-01-28 02:34:34.96	6.65	4.64	-44.7	-59.5	3.6	1.51e+00	0	33	104	0	60	38201
2026-01-28 02:34:35.97	6.49	4.68	-44.8	-59.6	3.6	1.51e+00	0	33	104	0	60	38764
2026-01-28 02:34:36.98	6.32	4.73	-44.8	-59.5	3.6	1.51e+00	0	33	104	0	60	38366
2026-01-28 02:34:37.99	6.15	4.78	-44.8	-59.5	3.5	1.51e+00	0	33	104	0	60	38447
2026-01-28 02:34:39.00	5.99	4.83	-44.8	-59.5	3.6	1.51e+00	0	33	104	0	60	38338
2026-01-28 02:34:40.01	5.82	4.88	-44.7	-59.6	3.6	1.51e+00	0	33	104	0	60	38599
2026-01-28 02:34:41.02	5.65	4.92	-44.7	-59.4	3.6	1.51e+00	0	33	104	0	60	37981
2026-01-28 02:34:42.03	5.48	4.97	-44.7	-59.6	3.6	1.51e+00	0	33	104	0	60	38700
2026-01-28 02:34:43.04	5.31	5.02	-44.7	-59.5	3.6	1.51e+00	0	33	104	0	60	38391
2026-01-28 02:34:44.05	5.14	5.07	-45.0	-59.6	3.6	1.51e+00	0	33	104	0	60	38951
2026-01-28 02:34:45.06	4.96	5.12	-44.8	-59.5	3.6	1.51e+00	0	33	104	0	60	38275
2026-01-28 02:34:46.07	4.79	5.16	-44.9	-59.6	3.6	1.51e+00	0	33	104	0	60	38690
2026-01-28 02:34:47.08	4.62	5.21	-44.7	-59.5	3.6	1.51e+00	0	33	104	0	60	38354
2026-01-28 02:34:48.09	4.44	5.26	-45.0	-59.7	3.6	1.51e+00	0	33	104	0	60	39159
2026-01-28 02:34:49.10	4.27	5.31	-44.6	-59.5	3.6	1.51e+00	0	33	104	0	60	38377
2026-01-28 02:34:50.11	4.09	5.35	-45.0	-59.6	3.6	1.51e+00	0	33	104	0	60	38935
2026-01-28 02:34:51.12	3.91	5.40	-44.9	-59.6	3.6	1.51e+00	0	33	104	0	60	38695
2026-01-28 02:34:52.14	3.73	5.45	-45.0	-59.7	3.6	1.51e+00	0	33	104	0	60	39143
2026-01-28 02:34:53.14	3.56	5.49	-44.9	-59.5	3.6	1.51e+00	0	33	104	0	60	38417
2026-01-28 02:34:54.16	3.38	5.54	-45.0	-59.6	3.6	1.51e+00	0	33	104	0	60	38852
2026-01-28 02:34:55.16	3.20	5.59	-44.9	-59.5	3.6	1.51e+00	0	33	104	0	60	38415
2026-01-28 02:34:56.17	3.02	5.63	-45.0	-59.7	3.6	1.51e+00	0	33	104	0	60	39299
2026-01-28 02:34:57.19	2.83	5.68	-44.9	-59.6	3.6	1.51e+00	0	33	104	0	60	38852
2026-01-28 02:34:58.20	2.65	5.73	-44.8	-59.7	3.5	1.51e+00	0	33	104	0	60	39120
2026-01-28 02:34:59.21	2.47	5.77	-44.9	-59.6	3.6	1.51e+00	0	33	104	0	60	38824
2026-01-28 02:35:00.22	2.29	5.82	-44.9	-59.8	3.6	1.51e+00	0	33	104	0	60	39738
2026-01-28 02:35:01.23	2.10	5.87	-44.9	-59.6	3.6	1.51e+00	0	33	104	0	60	38814
2026-01-28 02:35:02.24	1.92	5.91	-45.0	-59.7	3.6	1.51e+00	0	33	104	0	60	39262
2026-01-28 02:35:03.25	1.73	5.96	-44.9	-59.7	3.6	1.51e+00	0	33	104	0	60	38993
2026-01-28 02:35:04.26	1.54	6.00	-45.0	-59.8	3.6	1.51e+00	0	33	104	0	60	39539
2026-01-28 02:35:05.27	1.36	6.05	-44.8	-59.7	3.6	1.51e+00	0	33	104	0	60	39058
2026-01-28 02:35:06.28	1.17	6.09	-45.0	-59.8	3.6	1.51e+00	0	33	104	0	60	39535
2026-01-28 02:35:07.29	0.98	6.14	-45.0	-59.7	3.6	1.51e+00	0	33	104	0	60	39103
2026-01-28 02:35:08.30	0.79	6.18	-45.0	-59.8	3.6	1.51e+00	0	33	104	0	60	39543
2026-01-28 02:35:09.31	0.60	6.23	-44.9	-59.6	3.6	1.51e+00	0	33	104	0	60	38857
2026-01-28 02:35:10.32	0.41	6.27	-45.0	-59.7	3.5	1.51e+00	0	33	104	0	60	39162
2026-01-28 02:35:11.33	0.22	6.32	-45.0	-59.7	3.6	1.51e+00	0	33	104	0	60	39243
2026-01-28 02:35:12.34	0.02	6.36	-45.1	-59.8	3.6	1.51e+00	0	33	104	0	60	39666
2026-01-28 02:35:13.35	359.83	6.41	-45.0	-59.7	3.6	1.51e+00	0	33	104	0	60	39007
2026-01-28 02:35:14.36	359.64	6.45	-45.1	-59.8	3.6	1.51e+00	0	33	104	0	60	39546
2026-01-28 02:35:15.36	359.44	6.50	-45.0	-59.7	3.6	1.51e+00	0	33	104	0	60	39242
2026-01-28 02:35:16.37	359.25	6.54	-44.9	-59.8	3.6	1.51e+00	0	33	104	0	60	39598
2026-01-28 02:35:17.38	359.05	6.58	-45.0	-59.7	3.6	1.51e+00	0	33	104	0	60	39165
2026-01-28 02:35:18.40	358.85	6.63	-45.0	-59.8	3.6	1.51e+00	0	33	104	0	60	39559
2026-01-28 02:35:19.40	358.66	6.67	-45.1	-59.7	3.6	1.51e+00	0	33	104	0	60	39402
2026-01-28 02:35:20.42	358.45	6.71	-45.1	-59.8	3.6	1.51e+00	0	33	104	0	60	39639
2026-01-28 02:35:21.43	358.26	6.76	-45.0	-59.7	3.6	1.51e+00	0	33	104	0	60	39139
2026-01-28 02:35:22.44	358.05	6.80	-45.4	-60.1	3.6	1.51e+00	0	33	104	0	60	41065
2026-01-28 02:35:23.44	357.86	6.84	-45.2	-60.0	3.6	1.51e+00	0	33	104	0	60	40396
2026-01-28 02:35:24.46	357.65	6.89	-45.2	-59.9	3.6	1.51e+00	0	33	104	0	60	39919
2026-01-28 02:35:25.46	357.45	6.93	-45.0	-59.8	3.6	1.51e+00	0	33	104	0	60	39415
2026-01-28 02:35:26.47	357.25	6.97	-45.1	-59.8	3.6	1.51e+00	0	33	104	0	60	39571
2026-01-28 02:35:27.48	357.04	7.01	-44.7	-59.8	3.6	1.51e+00	0	33	104	0	60	39604
2026-01-28 02:35:28.49	356.84	7.05	-45.0	-59.7	3.6	1.51e+00	0	33	104	0	60	39385
2026-01-28 02:35:29.50	356.63	7.10	-45.0	-59.7	3.6	1.51e+00	0	33	104	0	60	39131
2026-01-28 02:35:30.51	356.43	7.14	-45.1	-59.8	3.6	1.51e+00	0	33	104	0	60	39458
2026-01-28 02:35:31.52	356.22	7.18	-45.1	-59.7	3.6	1.51e+00	0	33	104	0	60	39373
2026-01-28 02:35:32.54	356.01	7.22	-45.0	-59.8	3.6	1.51e+00	0	33	104	0	60	39520
2026-01-28 02:35:33.54	355.80	7.26	-45.0	-59.8	3.6	1.51e+00	0	33	104	0	60	39446
2026-01-28 02:35:34.55	355.59	7.30	-45.1	-59.8	3.6	1.51e+00	0	33	104	0	60	39837
2026-01-28 02:35:35.56	355.38	7.34	-45.1	-59.9	3.6	1.51e+00	0	33	104	0	60	39927
2026-01-28 02:35:36.57	355.17	7.38	-45.1	-59.8	3.6	1.51e+00	0	33	104	0	60	39615
2026-01-28 02:35:37.58	354.96	7.42	-45.1	-59.8	3.6	1.51e+00	0	33	104	0	60	39534
2026-01-28 02:35:38.59	354.75	7.46	-45.1	-59.8	3.6	1.51e+00	0	33	104	0	60	39717
2026-01-28 02:35:39.60	354.54	7.50	-45.2	-59.9	3.6	1.51e+00	0	33	104	0	60	39891
2026-01-28 02:35:40.61	354.32	7.54	-45.1	-59.9	3.6	1.51e+00	0	33	104	0	60	39975
2026-01-28 02:35:41.62	354.11	7.58	-45.2	-59.9	3.6	1.51e+00	0	33	104	0	60	40286
2026-01-28 02:35:42.63	353.89	7.62	-45.3	-60.0	3.6	1.51e+00	0	33	104	0	60	40679
2026-01-28 02:35:43.64	353.68	7.66	-45.4	-60.0	3.6	1.51e+00	0	33	104	0	60	40730
2026-01-28 02:35:44.65	353.46	7.69	-45.3	-60.0	3.6	1.51e+00	0	33	104	0	60	40670
2026-01-28 02:35:45.66	353.24	7.73	-45.7	-60.5	3.6	1.51e+00	0	33	104	0	60	42882
2026-01-28 02:35:46.66	353.03	7.77	-45.4	-60.1	3.6	1.51e+00	0	33	104	0	60	40994
2026-01-28 02:35:47.68	352.80	7.81	-45.4	-60.1	3.6	1.51e+00	0	33	104	0	60	40998
2026-01-28 02:35:48.69	352.58	7.85	-45.4	-60.0	3.6	1.51e+00	0	33	104	0	60	40744
2026-01-28 02:35:49.70	352.36	7.88	-45.3	-60.0	3.6	1.51e+00	0	33	104	0	60	40434
2026-01-28 02:35:50.70	352.15	7.92	-45.4	-60.1	3.6	1.51e+00	0	33	104	0	60	40837
2026-01-28 02:35:51.71	351.92	7.95	-45.4	-60.1	3.6	1.51e+00	0	33	104	0	60	40832
2026-01-28 02:35:52.72	351.70	7.99	-45.4	-60.1	3.6	1.51e+00	0	33	104	0	60	40951
2026-01-28 02:35:53.73	351.48	8.03	-45.2	-60.0	3.6	1.51e+00	0	33	104	0	60	40605
2026-01-28 02:35:54.74	351.25	8.06	-45.4	-60.1	3.6	1.51e+00	0	33	104	0	60	40843
2026-01-28 02:35:55.75	351.03	8.10	-45.3	-60.1	3.6	1.51e+00	0	33	104	0	60	40932
2026-01-28 02:35:56.76	350.80	8.13	-45.4	-60.1	3.6	1.51e+00	0	33	104	0	60	40804
2026-01-28 02:35:57.77	350.58	8.17	-45.3	-59.9	3.6	1.51e+00	0	33	104	0	60	40318
2026-01-28 02:35:58.78	350.35	8.20	-45.4	-60.0	3.6	1.51e+00	0	33	104	0	60	40770
2026-01-28 02:35:59.79	350.12	8.24	-45.3	-60.0	3.6	1.51e+00	0	33	104	0	60	40641
2026-01-28 02:36:00.80	349.90	8.27	-45.4	-60.1	3.6	1.51e+00	0	33	104	0	60	40884
2026-01-28 02:36:01.81	349.67	8.30	-45.3	-60.0	3.6	1.51e+00	0	33	104	0	60	40515
2026-01-28 02:36:02.82	349.44	8.34	-45.4	-60.0	3.6	1.51e+00	0	33	104	0	60	40739
2026-01-28 02:36:03.83	349.21	8.37	-45.3	-60.0	3.6	1.51e+00	0	33	104	0	60	40587
2026-01-28 02:36:04.84	348.98	8.40	-45.3	-60.1	3.6	1.51e+00	0	33	104	0	60	41063
2026-01-28 02:36:05.85	348.75	8.44	-45.2	-60.0	3.6	1.51e+00	0	33	104	0	60	40598
2026-01-28 02:36:06.86	348.51	8.47	-45.3	-60.1	3.6	1.51e+00	0	33	104	0	60	40892
2026-01-28 02:36:07.87	348.28	8.50	-45.3	-60.0	3.6	1.51e+00	0	33	104	0	60	40554
2026-01-28 02:36:08.88	348.05	8.53	-45.4	-60.1	3.6	1.51e+00	0	33	104	0	60	41010
2026-01-28 02:36:09.89	347.81	8.56	-45.3	-59.9	3.6	1.51e+00	0	33	104	0	60	40214
2026-01-28 02:36:10.90	347.58	8.59	-45.2	-60.1	3.6	1.51e+00	0	33	104	0	60	40878
2026-01-28 02:36:11.91	347.34	8.62	-45.3	-60.0	3.6	1.51e+00	0	33	104	0	60	40724
2026-01-28 02:36:12.92	347.11	8.65	-45.3	-60.0	3.6	1.51e+00	0	33	104	0	60	40699
2026-01-28 02:36:13.93	346.87	8.68	-45.3	-60.0	3.6	1.51e+00	0	33	104	0	60	40680
2026-01-28 02:36:14.94	346.63	8.71	-45.4	-60.1	3.6	1.51e+00	0	33	104	0	60	40970
2026-01-28 02:36:15.95	346.40	8.74	-45.3	-60.0	3.6	1.51e+00	0	33	104	0	60	40670
2026-01-28 02:36:16.96	346.16	8.77	-45.4	-60.1	3.6	1.51e+00	0	33	104	0	60	40846
2026-01-28 02:36:17.97	345.92	8.80	-45.3	-60.0	3.6	1.51e+00	0	33	104	0	60	40594
2026-01-28 02:36:18.98	345.68	8.83	-45.4	-60.1	3.6	1.51e+00	0	33	104	0	60	40913
2026-01-28 02:36:19.99	345.44	8.86	-45.3	-60.0	3.6	1.51e+00	0	33	104	0	60	40766
2026-01-28 02:36:21.00	345.20	8.88	-45.5	-60.1	3.6	1.51e+00	0	33	104	0	60	41247
2026-01-28 02:36:22.01	344.96	8.91	-45.4	-60.1	3.6	1.51e+00	0	33	104	0	60	41004
2026-01-28 02:36:23.02	344.71	8.94	-45.4	-60.1	3.6	1.51e+00	0	33	104	0	60	40995
2026-01-28 02:36:24.03	344.47	8.96	-45.4	-60.1	3.5	1.51e+00	0	33	104	0	60	40939
2026-01-28 02:36:25.04	344.23	8.99	-45.6	-60.3	3.6	1.51e+00	0	33	104	0	60	41858
2026-01-28 02:36:26.05	343.99	9.01	-45.4	-60.1	3.6	1.51e+00	0	33	104	0	60	41049
2026-01-28 02:36:27.06	343.74	9.04	-45.4	-60.1	3.6	1.51e+00	0	33	104	0	60	41126
2026-01-28 02:36:28.07	343.50	9.06	-45.3	-60.1	3.6	1.51e+00	0	33	104	0	60	41178
2026-01-28 02:36:29.08	343.25	9.09	-45.3	-60.1	3.6	1.51e+00	0	33	104	0	60	41057
2026-01-28 02:36:30.09	343.01	9.11	-45.4	-60.1	3.6	1.51e+00	0	33	104	0	60	41107
2026-01-28 02:36:31.10	342.76	9.14	-45.3	-60.1	3.6	1.51e+00	0	33	104	0	60	40986
2026-01-28 02:36:32.11	342.51	9.16	-45.4	-60.1	3.6	1.51e+00	0	33	104	0	60	41015
2026-01-28 02:36:33.12	342.27	9.18	-45.0	-60.1	3.6	1.51e+00	0	33	104	0	60	41022
2026-01-28 02:36:34.13	342.02	9.20	-45.2	-60.1	3.6	1.51e+00	0	33	104	0	60	40939
2026-01-28 02:36:35.14	341.77	9.23	-45.3	-60.1	3.6	1.51e+00	0	33	104	0	60	41011
2026-01-28 02:36:36.15	341.52	9.25	-45.2	-60.1	3.6	1.51e+00	0	33	104	0	60	41030
2026-01-28 02:36:37.16	341.27	9.27	-45.0	-60.1	3.6	1.51e+00	0	33	104	0	60	40896
2026-01-28 02:36:38.17	341.02	9.29	-45.1	-60.1	3.6	1.51e+00	0	33	104	0	60	41004
2026-01-28 02:36:39.18	340.77	9.31	-45.3	-60.1	3.6	1.51e+00	0	33	104	0	60	40834
2026-01-28 02:36:40.19	340.52	9.33	-45.1	-60.1	3.6	1.51e+00	0	33	104	0	60	40989
2026-01-28 02:36:41.20	340.27	9.35	-45.2	-60.0	3.6	1.51e+00	0	33	104	0	60	40611
2026-01-28 02:36:42.21	340.02	9.37	-44.9	-60.0	3.6	1.51e+00	0	33	104	0	60	40746
2026-01-28 02:36:43.22	339.77	9.39	-45.3	-60.0	3.6	1.51e+00	0	33	104	0	60	40474
2026-01-28 02:36:44.23	339.52	9.41	-45.3	-60.0	3.6	1.51e+00	0	33	104	0	60	40622
2026-01-28 02:36:45.24	339.27	9.42	-45.3	-60.0	3.6	1.51e+00	0	33	104	0	60	40749
2026-01-28 02:36:46.25	339.01	9.44	-45.1	-60.0	3.6	1.51e+00	0	33	104	0	60	40640
2026-01-28 02:36:47.26	338.76	9.46	-45.2	-60.0	3.6	1.51e+00	0	33	104	0	60	40576
2026-01-28 02:36:48.27	338.51	9.47	-45.1	-60.1	3.5	1.51e+00	0	33	104	0	60	40822
2026-01-28 02:36:49.28	338.25	9.49	-45.3	-60.0	3.6	1.51e+00	0	33	104	0	60	40526
2026-01-28 02:36:50.29	338.00	9.51	-45.3	-60.0	3.6	1.51e+00	0	33	104	0	60	40612
2026-01-28 02:36:51.30	337.74	9.52	-45.2	-60.0	3.6	1.51e+00	0	33	104	0	60	40598
2026-01-28 02:36:52.31	337.49	9.54	-45.1	-60.0	3.6	1.51e+00	0	33	104	0	60	40600
2026-01-28 02:36:53.32	337.23	9.55	-45.3	-60.0	3.6	1.51e+00	0	33	104	0	60	40660
2026-01-28 02:36:54.33	336.98	9.56	-45.3	-60.0	3.6	1.51e+00	0	33	104	0	60	40788
2026-01-28 02:36:55.34	336.72	9.58	-45.2	-60.0	3.6	1.51e+00	0	33	104	0	60	40666
2026-01-28 02:36:56.35	336.46	9.59	-45.2	-60.0	3.6	1.51e+00	0	33	104	0	60	40690
2026-01-28 02:36:57.30	336.22	9.60	-45.2	-60.0	3.6	1.51e+00	0	33	104	0	60	40575
2026-01-28 02:36:58.31	335.97	9.61	-45.3	-60.0	3.6	1.51e+00	0	33	104	0	60	40700
2026-01-28 02:36:59.32	335.71	9.63	-45.3	-60.0	3.6	1.51e+00	0	33	104	0	60	40758
2026-01-28 02:37:00.33	335.45	9.64	-45.2	-60.1	3.6	1.51e+00	0	33	104	0	60	40990
2026-01-28 02:37:01.34	335.19	9.65	-45.2	-60.0	3.6	1.51e+00	0	33	104	0	60	40600
2026-01-28 02:37:02.35	334.94	9.66	-45.3	-60.0	3.6	1.51e+00	0	33	104	0	60	40747
2026-01-28 02:37:03.36	334.68	9.67	-45.2	-60.0	3.6	1.51e+00	0	33	104	0	60	40670
2026-01-28 02:37:04.37	334.42	9.68	-45.3	-60.1	3.6	1.51e+00	0	33	104	0	60	40811
2026-01-28 02:37:05.38	334.16	9.69	-45.3	-60.1	3.6	1.51e+00	0	33	104	0	60	40859
2026-01-28 02:37:06.39	333.90	9.69	-45.2	-60.0	3.6	1.51e+00	0	33	104	0	60	40750
2026-01-28 02:37:07.40	333.64	9.70	-45.3	-60.0	3.6	1.51e+00	0	33	104	0	60	40759
2026-01-28 02:37:08.41	333.38	9.71	-45.3	-60.1	3.6	1.51e+00	0	33	104	0	60	40820
2026-01-28 02:37:09.42	333.13	9.72	-45.2	-60.0	3.6	1.51e+00	0	33	104	0	60	40787
2026-01-28 02:37:10.43	332.87	9.72	-45.3	-60.1	3.6	1.51e+00	0	33	104	0	60	40908
2026-01-28 02:37:11.44	332.61	9.73	-45.3	-60.0	3.6	1.51e+00	0	33	104	0	60	40681
2026-01-28 02:37:12.45	332.35	9.73	-45.3	-60.0	3.6	1.51e+00	0	33	104	0	60	40549
2026-01-28 02:37:13.46	332.09	9.74	-45.3	-60.1	3.6	1.51e+00	0	33	104	0	60	40945
2026-01-28 02:37:14.47	331.83	9.74	-45.3	-60.0	3.6	1.51e+00	0	33	104	0	60	40772
2026-01-28 02:37:15.48	331.57	9.75	-45.2	-60.1	3.6	1.51e+00	0	33	104	0	60	40938
2026-01-28 02:37:16.49	331.31	9.75	-45.3	-60.1	3.6	1.51e+00	0	33	104	0	60	40815
2026-01-28 02:37:17.50	331.05	9.75	-45.3	-60.1	3.6	1.51e+00	0	33	104	0	60	40929
2026-01-28 02:37:18.51	330.79	9.76	-45.1	-60.1	3.6	1.51e+00	0	33	104	0	60	40923
2026-01-28 02:37:19.52	330.53	9.76	-45.2	-60.1	3.6	1.51e+00	0	33	104	0	60	40882
2026-01-28 02:37:20.53	330.27	9.76	-45.2	-60.1	3.6	1.51e+00	0	33	104	0	60	40933
2026-01-28 02:37:21.54	330.01	9.76	-45.3	-60.0	3.6	1.51e+00	0	33	104	0	60	40535
2026-01-28 02:37:22.55	329.74	9.76	-45.2	-60.1	3.6	1.51e+00	0	33	104	0	60	40813
2026-01-28 02:37:23.56	329.48	9.76	-45.3	-60.1	3.6	1.51e+00	0	33	104	0	60	40813
2026-01-28 02:37:24.57	329.22	9.76	-45.3	-60.0	3.6	1.51e+00	0	33	104	0	60	40634
2026-01-28 02:37:25.58	328.96	9.76	-45.3	-60.0	3.6	1.51e+00	0	33	104	0	60	40755
2026-01-28 02:37:26.59	328.70	9.76	-45.2	-60.1	3.6	1.51e+00	0	33	104	0	60	40897
2026-01-28 02:37:27.60	328.44	9.76	-45.3	-60.1	3.6	1.51e+00	0	33	104	0	60	40946
2026-01-28 02:37:28.61	328.18	9.76	-45.3	-60.1	3.6	1.51e+00	0	33	104	0	60	40797
2026-01-28 02:37:29.62	327.92	9.76	-45.3	-60.0	3.6	1.51e+00	0	33	104	0	60	40730
2026-01-28 02:37:30.63	327.66	9.75	-45.3	-60.0	3.6	1.51e+00	0	33	104	0	60	40695
2026-01-28 02:37:31.64	327.40	9.75	-45.1	-60.0	3.6	1.51e+00	0	33	104	0	60	40711
2026-01-28 02:37:32.65	327.14	9.75	-45.3	-60.0	3.6	1.51e+00	0	33	104	0	60	40672
2026-01-28 02:37:33.66	326.88	9.74	-45.3	-60.1	3.6	1.51e+00	0	33	104	0	60	40828
2026-01-28 02:37:34.67	326.62	9.74	-45.2	-60.1	3.6	1.51e+00	0	33	104	0	60	40820
2026-01-28 02:37:35.68	326.36	9.73	-45.3	-60.1	3.6	1.51e+00	0	33	104	0	60	40968
2026-01-28 02:37:36.69	326.10	9.72	-45.2	-60.0	3.6	1.51e+00	0	33	104	0	60	40618
2026-01-28 02:37:37.70	325.84	9.72	-45.3	-60.1	3.6	1.51e+00	0	33	104	0	60	40853
2026-01-28 02:37:38.71	325.58	9.71	-45.2	-60.0	3.6	1.51e+00	0	33	104	0	60	40471
2026-01-28 02:37:39.72	325.32	9.70	-45.3	-60.0	3.6	1.51e+00	0	33	104	0	60	40742
2026-01-28 02:37:40.73	325.06	9.70	-45.3	-60.0	3.6	1.51e+00	0	33	104	0	60	40519
2026-01-28 02:37:41.74	324.80	9.69	-45.3	-60.0	3.6	1.51e+00	0	33	104	0	60	40629
2026-01-28 02:37:42.75	324.54	9.68	-45.3	-60.0	3.6	1.51e+00	0	33	104	0	60	40415
2026-01-28 02:37:43.76	324.29	9.67	-45.2	-60.0	3.6	1.51e+00	0	33	104	0	60	40738
2026-01-28 02:37:44.77	324.03	9.66	-45.3	-60.0	3.6	1.51e+00	0	33	104	0	60	40392
2026-01-28 02:37:45.78	323.77	9.65	-45.3	-60.0	3.6	1.51e+00	0	33	104	0	60	40562
2026-01-28 02:37:46.79	323.51	9.64	-45.3	-60.0	3.6	1.51e+00	0	33	104	0	60	40433
2026-01-28 02:37:47.80	323.25	9.63	-45.3	-60.1	3.6	1.51e+00	0	33	104	0	60	40821
2026-01-28 02:37:48.81	322.99	9.62	-45.3	-60.0	3.6	1.51e+00	0	33	104	0	60	40533
2026-01-28 02:37:49.82	322.74	9.61	-45.3	-60.0	3.6	1.51e+00	0	33	104	0	60	40648
2026-01-28 02:37:50.83	322.48	9.59	-45.2	-60.1	3.6	1.51e+00	0	33	104	0	60	40865
2026-01-28 02:37:51.84	322.22	9.58	-45.3	-60.1	3.6	1.51e+00	0	33	104	0	60	40822
2026-01-28 02:37:52.85	321.97	9.57	-45.3	-60.0	3.6	1.51e+00	0	33	104	0	60	40735
2026-01-28 02:37:53.86	321.71	9.55	-45.3	-60.0	3.6	1.51e+00	0	33	104	0	60	40407
2026-01-28 02:37:54.87	321.45	9.54	-45.3	-60.1	3.6	1.51e+00	0	33	104	0	60	40906
2026-01-28 02:37:55.88	321.20	9.53	-45.3	-60.1	3.6	1.51e+00	0	33	104	0	60	40824
2026-01-28 02:37:56.89	320.94	9.51	-45.3	-60.0	3.6	1.51e+00	0	33	104	0	60	40622
2026-01-28 02:37:57.90	320.69	9.49	-45.3	-60.0	3.6	1.51e+00	0	33	104	0	60	40658
2026-01-28 02:37:58.91	320.43	9.48	-45.3	-60.0	3.6	1.51e+00	0	33	104	0	60	40520
2026-01-28 02:37:59.92	320.18	9.46	-45.3	-60.0	3.6	1.51e+00	0	33	104	0	60	40651
2026-01-28 02:38:00.93	319.92	9.45	-45.3	-60.0	3.6	1.51e+00	0	33	104	0	60	40762
2026-01-28 02:38:01.94	319.67	9.43	-45.2	-60.0	3.6	1.51e+00	0	33	104	0	60	40755
2026-01-28 02:38:02.95	319.42	9.41	-45.3	-60.1	3.6	1.51e+00	0	33	104	0	60	40822
2026-01-28 02:38:03.96	319.16	9.39	-45.2	-60.1	3.6	1.51e+00	0	33	104	0	60	40799
2026-01-28 02:38:04.97	318.91	9.37	-45.2	-60.0	3.6	1.51e+00	0	33	104	0	60	40646
2026-01-28 02:38:05.98	318.66	9.36	-45.2	-60.1	3.6	1.51e+00	0	33	104	0	60	40871
2026-01-28 02:38:06.99	318.41	9.34	-45.1	-60.0	3.6	1.51e+00	0	33	104	0	60	40597
2026-01-28 02:38:08.00	318.16	9.32	-45.2	-60.0	3.6	1.51e+00	0	33	104	0	60	40685
2026-01-28 02:38:09.00	317.91	9.30	-45.0	-60.0	3.6	1.51e+00	0	33	104	0	60	40619
2026-01-28 02:38:10.01	317.66	9.28	-45.3	-60.0	3.6	1.51e+00	0	33	104	0	60	40562
2026-01-28 02:38:11.02	317.41	9.25	-45.1	-60.0	3.6	1.51e+00	0	33	104	0	60	40557
2026-01-28 02:38:12.03	317.16	9.23	-45.3	-60.0	3.6	1.51e+00	0	33	104	0	60	40710
2026-01-28 02:38:13.04	316.91	9.21	-45.3	-60.0	3.6	1.51e+00	0	33	104	0	60	40470
2026-01-28 02:38:14.05	316.66	9.19	-45.2	-60.1	3.6	1.51e+00	0	33	104	0	60	40879
2026-01-28 02:38:15.06	316.41	9.17	-45.3	-60.0	3.6	1.51e+00	0	33	104	0	60	40612
2026-01-28 02:38:16.07	316.16	9.14	-45.3	-60.0	3.6	1.51e+00	0	33	104	0	60	40587
2026-01-28 02:38:17.08	315.92	9.12	-45.0	-60.0	3.6	1.51e+00	0	33	104	0	60	40532
2026-01-28 02:38:18.09	315.67	9.10	-45.1	-60.0	3.6	1.51e+00	0	33	104	0	60	40420
2026-01-28 02:38:19.10	315.42	9.07	-45.1	-60.0	3.6	1.51e+00	0	33	104	0	60	40507
2026-01-28 02:38:20.11	315.18	9.05	-45.1	-60.1	3.6	1.51e+00	0	33	104	0	60	40829
2026-01-28 02:38:21.12	314.93	9.02	-45.0	-59.9	3.6	1.51e+00	0	33	104	0	60	40225
2026-01-28 02:38:22.13	314.69	9.00	-44.9	-60.0	3.6	1.51e+00	0	33	104	0	60	40482
2026-01-28 02:38:23.14	314.44	8.97	-45.0	-60.0	3.6	1.51e+00	0	33	104	0	60	40352
2026-01-28 02:38:24.15	314.20	8.94	-45.1	-60.0	3.6	1.51e+00	0	33	104	0	60	40722
2026-01-28 02:38:25.16	313.96	8.92	-45.0	-60.0	3.6	1.51e+00	0	33	104	0	60	40598
2026-01-28 02:38:26.17	313.71	8.89	-45.1	-60.0	3.6	1.51e+00	0	33	104	0	60	40607
2026-01-28 02:38:27.18	313.47	8.86	-44.9	-60.0	3.6	1.51e+00	0	33	104	0	60	40562
2026-01-28 02:38:28.19	313.23	8.84	-45.2	-60.0	3.6	1.51e+00	0	33	104	0	60	40608
2026-01-28 02:38:29.20	312.99	8.81	-45.0	-60.0	3.6	1.51e+00	0	33	104	0	60	40348
2026-01-28 02:38:30.21	312.75	8.78	-45.1	-60.0	3.6	1.51e+00	0	33	104	0	60	40513
2026-01-28 02:38:31.22	312.51	8.75	-45.1	-60.0	3.6	1.51e+00	0	33	104	0	60	40506
2026-01-28 02:38:32.23	312.27	8.72	-45.0	-60.0	3.6	1.51e+00	0	33	104	0	60	40625
2026-01-28 02:38:33.24	312.03	8.69	-45.1	-59.9	3.6	1.51e+00	0	33	104	0	60	40309
2026-01-28 02:38:34.25	311.79	8.66	-44.8	-60.0	3.6	1.51e+00	0	33	104	0	60	40409
2026-01-28 02:38:35.26	311.56	8.63	-45.0	-59.9	3.6	1.51e+00	0	33	104	0	60	40317
2026-01-28 02:38:36.27	311.32	8.60	-45.1	-60.0	3.6	1.51e+00	0	33	104	0	60	40537
2026-01-28 02:38:37.28	311.08	8.57	-45.0	-59.9	3.6	1.51e+00	0	33	104	0	60	40299
2026-01-28 02:38:38.29	310.85	8.54	-44.7	-60.0	3.6	1.51e+00	0	33	104	0	60	40328
2026-01-28 02:38:39.30	310.61	8.51	-44.9	-59.9	3.6	1.51e+00	0	33	104	0	60	40100
2026-01-28 02:38:40.31	310.38	8.48	-44.9	-60.0	3.6	1.51e+00	0	33	104	0	60	40442
2026-01-28 02:38:41.32	310.15	8.44	-44.8	-59.9	3.6	1.51e+00	0	33	104	0	60	40311
2026-01-28 02:38:42.33	309.91	8.41	-44.9	-59.9	3.6	1.51e+00	0	33	104	0	60	40320
2026-01-28 02:38:43.34	309.68	8.38	-44.8	-60.0	3.6	1.51e+00	0	33	104	0	60	40371
2026-01-28 02:38:44.35	309.45	8.34	-44.7	-59.9	3.6	1.51e+00	0	33	104	0	60	40269
2026-01-28 02:38:45.36	309.22	8.31	-44.6	-59.9	3.6	1.51e+00	0	33	104	0	60	40234
2026-01-28 02:38:46.37	308.99	8.28	-44.8	-60.0	3.6	1.51e+00	0	33	104	0	60	40408
2026-01-28 02:38:47.38	308.76	8.24	-44.8	-60.0	3.6	1.51e+00	0	33	104	0	60	40433
2026-01-28 02:38:48.39	308.53	8.21	-44.7	-60.0	3.6	1.51e+00	0	33	104	0	60	40459
2026-01-28 02:38:49.40	308.30	8.17	-44.7	-59.9	3.6	1.51e+00	0	33	104	0	60	40216
2026-01-28 02:38:50.41	308.07	8.14	-44.7	-60.0	3.6	1.51e+00	0	33	104	0	60	40445
2026-01-28 02:38:51.42	307.85	8.10	-44.6	-59.9	3.6	1.51e+00	0	33	104	0	60	40252
2026-01-28 02:38:52.43	307.62	8.07	-44.6	-59.9	3.6	1.51e+00	0	33	104	0	60	40185
2026-01-28 02:38:53.44	307.40	8.03	-44.5	-59.9	3.6	1.51e+00	0	33	104	0	60	40121
2026-01-28 02:38:54.45	307.17	8.00	-44.8	-60.0	3.6	1.51e+00	0	33	104	0	60	40360
2026-01-28 02:38:55.46	306.95	7.96	-44.7	-59.9	3.6	1.51e+00	0	33	104	0	60	40261
2026-01-28 02:38:56.47	306.72	7.92	-44.7	-59.9	3.6	1.51e+00	0	33	104	0	60	40122
2026-01-28 02:38:57.48	306.50	7.89	-44.6	-59.9	3.6	1.51e+00	0	33	104	0	60	40126
2026-01-28 02:38:58.49	306.28	7.85	-44.6	-60.0	3.6	1.51e+00	0	33	104	0	60	40336
2026-01-28 02:38:59.50	306.06	7.81	-44.9	-59.9	3.6	1.51e+00	0	33	104	0	60	40217
2026-01-28 02:39:00.51	305.84	7.78	-44.7	-59.9	3.6	1.51e+00	0	33	104	0	60	40186
2026-01-28 02:39:01.51	305.62	7.74	-44.7	-59.9	3.6	1.51e+00	0	33	104	0	60	40068
2026-01-28 02:39:02.53	305.40	7.70	-44.7	-59.9	3.6	1.51e+00	0	33	104	0	60	39950
2026-01-28 02:39:03.54	305.18	7.66	-44.7	-59.9	3.6	1.51e+00	0	33	104	0	60	40222
2026-01-28 02:39:04.55	304.96	7.62	-44.8	-59.9	3.6	1.51e+00	0	33	104	0	60	39997
2026-01-28 02:39:05.56	304.74	7.58	-44.7	-59.8	3.5	1.51e+00	0	33	104	0	60	39748
2026-01-28 02:39:06.57	304.53	7.54	-44.8	-59.9	3.6	1.51e+00	0	33	104	0	60	40034
2026-01-28 02:39:07.58	304.31	7.50	-44.9	-59.9	3.6	1.51e+00	0	33	104	0	60	40144
2026-01-28 02:39:08.59	304.10	7.46	-44.8	-59.9	3.6	1.51e+00	0	33	104	0	60	39891
2026-01-28 02:39:09.60	303.88	7.42	-44.7	-59.8	3.6	1.51e+00	0	33	104	0	60	39734
2026-01-28 02:39:10.61	303.67	7.38	-44.8	-59.9	3.6	1.51e+00	0	33	104	0	60	39888
2026-01-28 02:39:11.62	303.46	7.34	-44.9	-59.9	3.6	1.51e+00	0	33	104	0	60	39869
2026-01-28 02:39:12.63	303.25	7.30	-44.8	-59.8	3.6	1.51e+00	0	33	104	0	60	39682
2026-01-28 02:39:13.64	303.03	7.26	-45.0	-59.8	3.6	1.51e+00	0	33	104	0	60	39705
2026-01-28 02:39:14.65	302.82	7.22	-44.9	-59.9	3.6	1.51e+00	0	33	104	0	60	39885
2026-01-28 02:39:15.66	302.61	7.18	-45.0	-59.8	3.6	1.51e+00	0	33	104	0	60	39791
2026-01-28 02:39:16.67	302.41	7.14	-45.0	-59.8	3.6	1.51e+00	0	33	104	0	60	39766
2026-01-28 02:39:17.68	302.20	7.10	-45.1	-59.8	3.6	1.51e+00	0	33	104	0	60	39644
2026-01-28 02:39:18.69	301.99	7.06	-45.0	-59.8	3.6	1.51e+00	0	33	104	0	60	39664
2026-01-28 02:39:19.70	301.78	7.01	-45.0	-59.8	3.6	1.51e+00	0	33	104	0	60	39661
2026-01-28 02:39:20.71	301.58	6.97	-44.9	-59.7	3.6	1.51e+00	0	33	104	0	60	39402
2026-01-28 02:39:21.72	301.37	6.93	-45.0	-59.8	3.6	1.51e+00	0	33	104	0	60	39585
2026-01-28 02:39:22.73	301.17	6.89	-45.1	-59.8	3.6	1.51e+00	0	33	104	0	60	39532
2026-01-28 02:39:23.74	300.96	6.84	-45.0	-59.8	3.6	1.51e+00	0	33	104	0	60	39700
2026-01-28 02:39:24.75	300.76	6.80	-45.0	-59.7	3.6	1.51e+00	0	33	104	0	60	39207
2026-01-28 02:39:25.76	300.56	6.76	-45.0	-59.8	3.6	1.51e+00	0	33	104	0	60	39531
2026-01-28 02:39:26.77	300.36	6.71	-45.0	-59.8	3.6	1.51e+00	0	33	104	0	60	39512
2026-01-28 02:39:27.78	300.16	6.67	-45.1	-59.8	3.6	1.51e+00	0	33	104	0	60	39804
2026-01-28 02:39:28.79	299.96	6.63	-44.9	-59.7	3.6	1.51e+00	0	33	104	0	60	39318
2026-01-28 02:39:29.80	299.76	6.58	-45.0	-59.8	3.6	1.51e+00	0	33	104	0	60	39588
2026-01-28 02:39:30.81	299.56	6.54	-45.0	-59.8	3.6	1.51e+00	0	33	104	0	60	39456
2026-01-28 02:39:31.82	299.36	6.50	-45.1	-59.8	3.6	1.51e+00	0	33	104	0	60	39619
2026-01-28 02:39:32.83	299.17	6.45	-45.0	-59.7	3.6	1.51e+00	0	33	104	0	60	39206
2026-01-28 02:39:33.84	298.97	6.41	-45.0	-59.7	3.6	1.51e+00	0	33	104	0	60	39349
2026-01-28 02:39:34.85	298.77	6.36	-45.0	-59.7	3.6	1.51e+00	0	33	104	0	60	39258
2026-01-28 02:39:35.86	298.58	6.32	-45.1	-59.8	3.6	1.51e+00	0	33	104	0	60	39736
2026-01-28 02:39:36.87	298.39	6.27	-44.9	-59.7	3.6	1.51e+00	0	33	104	0	60	39113
2026-01-28 02:39:37.88	298.19	6.23	-45.0	-59.7	3.6	1.51e+00	0	33	104	0	60	39383
2026-01-28 02:39:38.89	298.00	6.18	-45.0	-59.7	3.6	1.51e+00	0	33	104	0	60	39313
2026-01-28 02:39:39.90	297.81	6.14	-45.1	-59.7	3.6	1.51e+00	0	33	104	0	60	39389
2026-01-28 02:39:40.91	297.62	6.09	-44.9	-59.6	3.6	1.51e+00	0	33	104	0	60	38765
2026-01-28 02:39:41.92	297.43	6.04	-45.0	-59.7	3.6	1.51e+00	0	33	104	0	60	39139
2026-01-28 02:39:42.93	297.24	6.00	-45.0	-59.7	3.6	1.51e+00	0	33	104	0	60	39092
2026-01-28 02:39:43.94	297.05	5.95	-45.0	-59.7	3.6	1.51e+00	0	33	104	0	60	39318
2026-01-28 02:39:44.95	296.86	5.91	-44.9	-59.5	3.6	1.51e+00	0	33	104	0	60	38503
2026-01-28 02:39:45.96	296.68	5.86	-44.9	-59.7	3.6	1.51e+00	0	33	104	0	60	38970
2026-01-28 02:39:46.97	296.49	5.81	-44.9	-59.7	3.6	1.51e+00	0	33	104	0	60	38993
2026-01-28 02:39:47.98	296.31	5.77	-45.0	-59.7	3.6	1.51e+00	0	33	104	0	60	39380
2026-01-28 02:39:48.99	296.12	5.72	-44.8	-59.6	3.6	1.51e+00	0	33	104	0	60	38693
2026-01-28 02:39:50.00	295.94	5.67	-44.9	-59.6	3.6	1.51e+00	0	33	104	0	60	38890
2026-01-28 02:39:51.01	295.75	5.63	-44.9	-59.6	3.6	1.51e+00	0	33	104	0	60	38861
2026-01-28 02:39:52.02	295.57	5.58	-45.0	-59.7	3.6	1.51e+00	0	34	104	0	60	39219
2026-01-28 02:39:53.03	295.39	5.53	-44.8	-59.5	3.5	1.51e+00	0	33	104	0	60	38373
2026-01-28 02:39:54.04	295.21	5.49	-44.9	-59.6	3.6	1.51e+00	0	33	104	0	60	38660
2026-01-28 02:39:55.05	295.03	5.44	-44.9	-59.6	3.6	1.51e+00	0	33	104	0	60	38700
2026-01-28 02:39:56.07	294.85	5.39	-45.0	-59.7	3.6	1.51e+00	0	33	104	0	60	39122
2026-01-28 02:39:57.08	294.67	5.34	-44.8	-59.5	3.6	1.51e+00	0	33	104	0	60	38285
2026-01-28 02:39:58.08	294.49	5.30	-44.8	-59.5	3.6	1.51e+00	0	33	104	0	60	38500
2026-01-28 02:39:59.09	294.32	5.25	-44.8	-59.6	3.6	1.51e+00	0	33	104	0	60	38532
2026-01-28 02:40:00.10	294.14	5.20	-44.9	-59.6	3.5	1.51e+00	0	33	104	0	60	38791
2026-01-28 02:40:01.11	293.96	5.15	-44.7	-59.4	3.6	1.51e+00	0	33	104	0	60	37908
2026-01-28 02:40:02.12	293.79	5.11	-44.8	-59.6	3.6	1.51e+00	0	33	104	0	60	38607
2026-01-28 02:40:03.13	293.61	5.06	-44.8	-59.5	3.6	1.51e+00	0	33	104	0	60	38397
2026-01-28 02:40:04.14	293.44	5.01	-44.9	-59.6	3.6	1.51e+00	0	33	104	0	60	38863
2026-01-28 02:40:05.15	293.27	4.96	-44.7	-59.4	3.6	1.51e+00	0	33	104	0	60	37770
2026-01-28 02:40:06.16	293.10	4.91	-44.8	-59.5	3.6	1.51e+00	0	33	104	0	60	38215
2026-01-28 02:40:07.17	292.93	4.87	-44.8	-59.5	3.6	1.51e+00	0	33	104	0	60	38266
2026-01-28 02:40:08.18	292.75	4.82	-44.9	-59.6	3.6	1.51e+00	0	33	104	0	60	38706
2026-01-28 02:40:09.19	292.59	4.77	-44.6	-59.4	3.6	1.51e+00	0	34	104	0	60	37828
2026-01-28 02:40:10.20	292.42	4.72	-44.8	-59.4	3.6	1.51e+00	0	34	104	0	60	38062
2026-01-28 02:40:11.22	292.25	4.67	-44.8	-59.4	3.6	1.51e+00	0	33	104	0	60	38060
2026-01-28 02:40:12.22	292.08	4.62	-44.8	-59.5	3.6	1.51e+00	0	33	104	0	60	38117
2026-01-28 02:40:13.24	291.91	4.57	-44.6	-59.3	3.6	1.51e+00	0	33	104	0	60	37329
2026-01-28 02:40:14.25	291.75	4.52	-44.7	-59.4	3.6	1.51e+00	0	33	104	0	60	37708
2026-01-28 02:40:15.25	291.58	4.48	-44.7	-59.4	3.6	1.51e+00	0	33	104	0	60	37837
2026-01-28 02:40:16.26	291.42	4.43	-44.8	-59.4	3.6	1.51e+00	0	33	104	0	60	38067
2026-01-28 02:40:17.27	291.25	4.38	-44.6	-59.3	3.6	1.51e+00	0	33	104	0	60	37446
2026-01-28 02:40:18.28	291.09	4.33	-44.7	-59.3	3.6	1.51e+00	0	33	104	0	60	37625
2026-01-28 02:40:19.29	290.93	4.28	-44.7	-59.4	3.6	1.51e+00	0	33	104	0	60	38000
2026-01-28 02:40:20.30	290.76	4.23	-44.7	-59.4	3.6	1.51e+00	0	33	104	0	60	37920
2026-01-28 02:40:21.32	290.60	4.18	-44.6	-59.2	3.6	1.51e+00	0	33	104	0	60	37028
2026-01-28 02:40:22.33	290.44	4.13	-44.6	-59.4	3.6	1.51e+00	0	33	104	0	60	37712
2026-01-28 02:40:23.34	290.28	4.08	-44.6	-59.4	3.6	1.51e+00	0	33	104	0	60	37675
2026-01-28 02:40:24.35	290.12	4.03	-44.7	-59.4	3.6	1.51e+00	0	33	104	0	60	37708
2026-01-28 02:40:25.36	289.96	3.98	-44.5	-59.2	3.6	1.51e+00	0	33	104	0	60	37141
2026-01-28 02:40:26.37	289.81	3.93	-44.6	-59.3	3.6	1.51e+00	0	33	104	0	60	37400
2026-01-28 02:40:27.38	289.65	3.88	-44.6	-59.3	3.6	1.51e+00	0	33	104	0	60	37553
2026-01-28 02:40:28.39	289.49	3.84	-44.6	-59.3	3.6	1.51e+00	0	33	104	0	60	37587
2026-01-28 02:40:29.40	289.34	3.79	-44.5	-59.2	3.6	1.51e+00	0	33	104	0	60	36787
2026-01-28 02:40:30.41	289.18	3.74	-44.6	-59.2	3.6	1.51e+00	0	33	104	0	60	37058
2026-01-28 02:40:31.42	289.03	3.69	-44.6	-59.3	3.6	1.51e+00	0	33	104	0	60	37424
2026-01-28 02:40:32.43	288.87	3.64	-44.6	-59.3	3.6	1.51e+00	0	33	104	0	60	37377
2026-01-28 02:40:33.44	288.72	3.59	-44.4	-59.1	3.6	1.51e+00	0	33	104	0	60	36475
2026-01-28 02:40:34.45	288.57	3.54	-44.5	-59.2	3.6	1.51e+00	0	33	104	0	60	36857
2026-01-28 02:40:35.46	288.42	3.49	-44.6	-59.3	3.6	1.51e+00	0	33	104	0	60	37428
2026-01-28 02:40:36.47	288.27	3.44	-44.5	-59.1	3.6	1.51e+00	0	33	104	0	60	36699
2026-01-28 02:40:37.48	288.12	3.39	-44.4	-59.0	3.6	1.51e+00	0	33	104	0	60	36269
2026-01-28 02:40:38.49	287.97	3.34	-44.5	-59.1	3.6	1.51e+00	0	33	104	0	60	36561
2026-01-28 02:40:39.50	287.82	3.29	-44.5	-59.2	3.6	1.51e+00	0	33	104	0	60	37011
2026-01-28 02:40:40.51	287.67	3.24	-44.4	-59.1	3.6	1.51e+00	0	33	104	0	60	36631
2026-01-28 02:40:41.52	287.52	3.19	-44.3	-59.0	3.6	1.51e+00	0	33	104	0	60	36209
2026-01-28 02:40:42.53	287.37	3.14	-44.4	-59.1	3.6	1.51e+00	0	33	104	0	60	36467
2026-01-28 02:40:43.54	287.23	3.09	-44.5	-59.2	3.6	1.51e+00	0	33	104	0	60	36947
2026-01-28 02:40:44.55	287.08	3.04	-44.3	-59.0	3.6	1.51e+00	0	33	104	0	60	36106
2026-01-28 02:40:45.56	286.94	2.99	-44.4	-59.1	3.6	1.51e+00	0	33	104	0	60	36462
2026-01-28 02:40:46.57	286.79	2.94	-45.1	-59.8	3.6	1.51e+00	0	33	104	0	60	39450
2026-01-28 02:40:47.58	286.65	2.89	-45.4	-60.1	3.6	1.51e+00	0	33	104	0	60	40960
2026-01-28 02:40:48.59	286.51	2.84	-45.6	-60.2	3.6	1.51e+00	0	33	104	0	60	41458
2026-01-28 02:40:49.60	286.36	2.79	-45.8	-60.4	3.6	1.51e+00	0	33	104	0	60	42666
2026-01-28 02:40:50.61	286.22	2.74	-45.8	-60.5	3.5	1.51e+00	0	33	104	0	60	43144
2026-01-28 02:40:51.62	286.08	2.69	-45.9	-60.6	3.6	1.51e+00	0	33	104	0	60	43419
2026-01-28 02:40:52.63	285.94	2.64	-45.9	-60.6	3.5	1.51e+00	0	33	104	0	60	43533
2026-01-28 02:40:53.64	285.80	2.59	-46.0	-60.6	3.6	1.51e+00	0	33	104	0	60	43568
2026-01-28 02:40:54.65	285.66	2.54	-46.0	-60.7	3.6	1.51e+00	0	33	104	0	60	43955
2026-01-28 02:40:55.66	285.52	2.49	-46.0	-60.7	3.6	1.51e+00	0	33	104	0	60	44190
2026-01-28 02:40:56.67	285.38	2.44	-46.1	-60.8	3.6	1.51e+00	0	33	104	0	60	44291
2026-01-28 02:40:57.68	285.25	2.39	-46.0	-60.7	3.6	1.51e+00	0	33	104	0	60	44176
2026-01-28 02:40:58.69	285.11	2.34	-46.1	-60.8	3.6	1.51e+00	0	33	104	0	60	44238
2026-01-28 02:40:59.70	284.97	2.29	-46.0	-60.8	3.6	1.51e+00	0	33	104	0	60	44361
2026-01-28 02:41:00.71	284.84	2.24	-46.0	-60.8	3.6	1.51e+00	0	33	104	0	60	44488
2026-01-28 02:41:01.72	284.70	2.18	-46.3	-61.1	3.6	1.51e+00	0	33	104	0	60	46196
2026-01-28 02:41:02.73	284.57	2.13	-46.0	-60.8	3.6	1.51e+00	0	33	104	0	60	44402
2026-01-28 02:41:03.74	284.43	2.08	-46.0	-60.7	3.6	1.51e+00	0	33	104	0	60	44095
2026-01-28 02:41:04.75	284.30	2.03	-45.8	-60.7	3.6	1.51e+00	0	33	104	0	60	43940
2026-01-28 02:41:05.76	284.17	1.98	-45.8	-60.6	3.6	1.51e+00	0	33	104	0	60	43283
2026-01-28 02:41:06.77	284.04	1.93	-45.9	-60.8	3.6	1.51e+00	0	33	104	0	60	44247
2026-01-28 02:41:07.78	283.90	1.88	-45.9	-60.6	3.6	1.51e+00	0	33	104	0	60	43680
2026-01-28 02:41:08.79	283.77	1.83	-45.8	-60.6	3.6	1.51e+00	0	33	104	0	60	43328
2026-01-28 02:41:09.80	283.64	1.78	-45.5	-60.6	3.6	1.51e+00	0	33	104	0	60	43234
2026-01-28 02:41:10.81	283.51	1.73	-45.8	-60.5	3.6	1.51e+00	0	33	104	0	60	42916
2026-01-28 02:41:11.81	283.38	1.68	-46.0	-60.7	3.6	1.51e+00	0	33	104	0	60	44049
2026-01-28 02:41:12.82	283.26	1.63	-45.9	-60.6	3.6	1.51e+00	0	33	104	0	60	43286
2026-01-28 02:41:13.83	283.13	1.58	-45.8	-60.5	3.6	1.51e+00	0	33	104	0	60	43134
2026-01-28 02:41:14.84	283.00	1.53	-45.8	-60.5	3.6	1.51e+00	0	33	104	0	60	43098
2026-01-28 02:41:15.85	282.87	1.48	-45.8	-60.5	3.6	1.51e+00	0	33	104	0	60	43133
2026-01-28 02:41:16.86	282.75	1.43	-45.8	-60.5	3.6	1.51e+00	0	33	104	0	60	42920
2026-01-28 02:41:17.87	282.62	1.38	-45.8	-60.5	3.6	1.51e+00	0	33	104	0	60	43118
2026-01-28 02:41:18.88	282.50	1.33	-45.8	-60.5	3.6	1.51e+00	0	33	104	0	60	42945
2026-01-28 02:41:19.89	282.37	1.28	-45.8	-60.5	3.6	1.51e+00	0	33	104	0	60	43177
2026-01-28 02:41:20.90	282.25	1.23	-45.8	-60.5	3.6	1.51e+00	0	33	104	0	60	42933
2026-01-28 02:41:21.91	282.12	1.18	-45.8	-60.5	3.5	1.51e+00	0	33	104	0	60	42939
2026-01-28 02:41:22.93	282.00	1.13	-45.8	-60.5	3.6	1.51e+00	0	33	104	0	60	42817
2026-01-28 02:41:23.94	281.88	1.08	-45.8	-60.5	3.6	1.51e+00	0	33	104	0	60	42852
2026-01-28 02:41:24.94	281.76	1.03	-45.8	-60.5	3.6	1.51e+00	0	33	104	0	60	42761
2026-01-28 02:41:25.96	281.63	0.98	-45.8	-60.4	3.6	1.51e+00	0	33	104	0	60	42624
2026-01-28 02:41:26.97	281.51	0.93	-45.8	-60.5	3.6	1.51e+00	0	33	104	0	60	42792
2026-01-28 02:41:27.97	281.39	0.88	-45.8	-60.5	3.6	1.51e+00	0	33	104	0	60	42792
2026-01-28 02:41:28.98	281.27	0.83	-45.8	-60.5	3.6	1.51e+00	0	33	104	0	60	43067
2026-01-28 02:41:30.00	281.15	0.78	-45.8	-60.5	3.6	1.51e+00	0	33	104	0	60	42732
2026-01-28 02:41:31.00	281.04	0.73	-45.8	-60.5	3.6	1.51e+00	0	33	104	0	60	42728
2026-01-28 02:41:32.01	280.92	0.68	-45.8	-60.4	3.6	1.51e+00	0	33	104	0	60	42680
2026-01-28 02:41:33.02	280.80	0.63	-45.8	-60.4	3.6	1.51e+00	0	33	104	0	60	42694
2026-01-28 02:41:34.03	280.68	0.58	-45.7	-60.5	3.6	1.51e+00	0	33	104	0	60	42843
2026-01-28 02:41:35.04	280.57	0.53	-45.8	-60.5	3.6	1.51e+00	0	33	104	0	60	42723
2026-01-28 02:41:36.05	280.45	0.48	-45.7	-60.4	3.6	1.51e+00	0	33	104	0	60	42454
2026-01-28 02:41:37.06	280.33	0.43	-45.8	-60.5	3.6	1.51e+00	0	33	104	0	60	42752
2026-01-28 02:41:38.07	280.22	0.38	-45.7	-60.5	3.6	1.51e+00	0	33	104	0	60	42812
2026-01-28 02:41:39.08	280.11	0.33	-45.8	-60.4	3.6	1.51e+00	0	33	104	0	60	42607
2026-01-28 02:41:40.09	279.99	0.28	-45.7	-60.4	3.6	1.51e+00	0	33	104	0	60	42682
2026-01-28 02:41:41.10	279.88	0.23	-45.7	-60.4	3.6	1.51e+00	0	33	104	0	60	42585
2026-01-28 02:41:42.11	279.76	0.18	-45.7	-60.4	3.6	1.51e+00	0	33	104	0	60	42653
2026-01-28 02:41:43.12	279.65	0.13	-45.7	-60.5	3.6	1.51e+00	0	33	104	0	60	42878
2026-01-28 02:41:44.13	279.54	0.08	-45.7	-60.4	3.6	1.51e+00	0	33	104	0	60	42640
2026-01-28 02:41:45.14	279.43	0.03	-45.7	-60.4	3.6	1.51e+00	0	33	104	0	60	42656
2026-01-28 02:41:46.15	279.32	-0.02	-45.7	-60.5	3.6	1.51e+00	0	33	104	0	60	42719
2026-01-28 02:41:47.16	279.21	-0.07	-45.7	-60.4	3.6	1.51e+00	0	33	104	0	60	42708
2026-01-28 02:41:48.18	279.10	-0.12	-45.7	-60.5	3.6	1.51e+00	0	33	104	0	60	42817

#Closed at: 2026-01-28 02:41:48
#Recorded file [0 MB]: D:/lorett/data/35029_260128_143302.dat