passes_logs/2026/01/28/R4.6S_Anadyr/R4.6S_Anadyr__20260128_081925_TY-42_rec.log

#Pass ID: 20260128_081925_TY-42
#Satellite: TY-42
#Configuration: TY-42_900M
#almurnet v.1.7.20251203
#Start time: 2026-01-28 08:19:56

#Version: 2.2.20231116
#Station: R4.6S_Anadyr
#Location: 177.4865 lon 64.73178 lat
#TLE: 1 64048U 25103A   26027.88263889  .00008008  00000-0  38191-3 0 09993
#TLE: 2 64048 097.4119 103.0583 0001740 093.1169 297.5293 15.19162476 38770

#Time	Az	El	Level	Level2	SNR	BER	BlckErr	Temp	State	Recorded	gain1	gain2
2026-01-28 08:19:56.54	127.88	1.99	-45.3	-59.7	3.6	1.51e+00	0	29	0	0	60	39195
2026-01-28 08:19:57.55	127.83	2.06	-47.7	-50.2	6.1	0.00e+00	0	31	104	0	60	39745
2026-01-28 08:19:58.56	127.77	2.13	-47.8	-50.2	6.1	0.00e+00	0	31	104	0	60	39830
2026-01-28 08:19:59.57	127.72	2.19	-47.8	-50.3	6.1	0.00e+00	0	31	104	0	60	39880
2026-01-28 08:20:00.58	127.66	2.26	-47.8	-50.2	6.1	0.00e+00	0	31	104	0	60	39784
2026-01-28 08:20:01.59	127.61	2.33	-47.8	-50.2	6.1	0.00e+00	0	31	104	0	60	39746
2026-01-28 08:20:02.59	127.55	2.40	-47.8	-50.3	6.1	0.00e+00	0	31	104	0	60	39894
2026-01-28 08:20:03.61	127.49	2.47	-47.8	-50.2	6.1	0.00e+00	0	31	104	0	60	39775
2026-01-28 08:20:04.62	127.43	2.54	-47.8	-50.2	6.1	0.00e+00	0	31	104	0	60	39721
2026-01-28 08:20:05.63	127.38	2.61	-47.8	-50.2	6.1	0.00e+00	0	31	104	0	60	39681
2026-01-28 08:20:06.64	127.32	2.67	-47.8	-50.2	6.1	0.00e+00	0	31	104	0	60	39727
2026-01-28 08:20:07.65	127.26	2.74	-47.7	-50.3	6.1	0.00e+00	0	31	104	0	60	39872
2026-01-28 08:20:08.66	127.20	2.81	-47.8	-50.2	6.1	0.00e+00	0	31	104	0	60	39828
2026-01-28 08:20:09.67	127.14	2.88	-47.8	-50.2	6.1	0.00e+00	0	31	104	0	60	39828
2026-01-28 08:20:10.68	127.08	2.95	-47.8	-50.2	6.1	0.00e+00	0	31	104	0	60	39709
2026-01-28 08:20:11.68	127.02	3.02	-47.8	-50.2	6.1	0.00e+00	0	31	104	0	60	39815
2026-01-28 08:20:12.69	126.96	3.09	-47.8	-50.2	6.1	0.00e+00	0	31	104	0	60	39714
2026-01-28 08:20:13.71	126.90	3.17	-47.8	-50.3	6.1	0.00e+00	0	31	104	0	60	39988
2026-01-28 08:20:14.71	126.84	3.24	-47.8	-50.3	6.1	0.00e+00	0	31	104	0	60	39989
2026-01-28 08:20:15.72	126.78	3.31	-47.8	-50.2	6.1	0.00e+00	0	31	104	0	60	39682
2026-01-28 08:20:16.73	126.72	3.38	-47.8	-50.2	6.1	0.00e+00	0	31	104	0	60	39796
2026-01-28 08:20:17.74	126.65	3.45	-47.8	-50.2	6.1	0.00e+00	0	31	104	0	60	39848
2026-01-28 08:20:18.75	126.59	3.52	-47.8	-50.2	6.1	0.00e+00	0	32	104	0	60	39776
2026-01-28 08:20:19.76	126.53	3.59	-47.8	-50.2	6.1	0.00e+00	0	32	104	0	60	39822
2026-01-28 08:20:20.77	126.46	3.67	-47.8	-50.3	6.1	0.00e+00	0	32	104	0	60	39906
2026-01-28 08:20:21.78	126.40	3.74	-47.8	-50.2	6.1	0.00e+00	0	32	104	0	60	39838
2026-01-28 08:20:22.79	126.33	3.81	-47.8	-50.2	6.1	0.00e+00	0	32	104	0	60	39628
2026-01-28 08:20:23.80	126.27	3.88	-47.8	-50.2	6.0	0.00e+00	0	32	104	0	60	39703
2026-01-28 08:20:24.81	126.20	3.96	-48.2	-50.7	6.1	0.00e+00	0	32	104	0	60	41762
2026-01-28 08:20:25.82	126.14	4.03	-47.9	-50.4	6.1	0.00e+00	0	32	104	0	60	40732
2026-01-28 08:20:26.83	126.07	4.11	-47.7	-50.2	6.1	0.00e+00	0	32	104	0	60	39779
2026-01-28 08:20:27.84	126.00	4.18	-47.9	-50.4	6.1	0.00e+00	0	32	104	0	60	40639
2026-01-28 08:20:28.85	125.94	4.25	-47.8	-50.3	6.1	0.00e+00	0	32	104	0	60	39914
2026-01-28 08:20:29.86	125.87	4.33	-47.9	-50.4	6.1	0.00e+00	0	32	104	0	60	40546
2026-01-28 08:20:30.86	125.80	4.40	-47.8	-50.3	6.1	0.00e+00	0	32	104	0	60	39890
2026-01-28 08:20:31.87	125.73	4.48	-47.9	-50.4	6.1	0.00e+00	0	32	104	0	60	40430
2026-01-28 08:20:32.88	125.66	4.55	-47.9	-50.3	6.0	0.00e+00	0	32	104	0	60	40243
2026-01-28 08:20:33.89	125.59	4.63	-47.9	-50.4	6.1	0.00e+00	0	32	104	0	60	40746
2026-01-28 08:20:34.90	125.52	4.70	-47.9	-50.4	6.1	0.00e+00	0	32	104	0	60	40410
2026-01-28 08:20:35.90	125.46	4.78	-48.0	-50.4	6.1	0.00e+00	0	32	104	0	60	40733
2026-01-28 08:20:36.91	125.38	4.85	-47.9	-50.4	6.1	0.00e+00	0	32	104	0	60	40510
2026-01-28 08:20:37.92	125.31	4.93	-48.0	-50.5	6.1	0.00e+00	0	32	104	0	60	40928
2026-01-28 08:20:38.92	125.24	5.01	-47.9	-50.4	6.1	0.00e+00	0	32	104	0	60	40575
2026-01-28 08:20:39.93	125.17	5.08	-47.9	-50.4	6.1	0.00e+00	0	32	104	0	60	40743
2026-01-28 08:20:40.94	125.10	5.16	-48.0	-50.4	6.1	0.00e+00	0	32	104	0	60	40612
2026-01-28 08:20:41.95	125.02	5.24	-47.9	-50.4	6.1	0.00e+00	0	32	104	0	60	40693
2026-01-28 08:20:42.95	124.95	5.31	-48.0	-50.4	6.1	0.00e+00	0	32	104	0	60	40554
2026-01-28 08:20:43.96	124.88	5.39	-48.0	-50.6	6.1	0.00e+00	0	32	104	0	60	41310
2026-01-28 08:20:44.97	124.80	5.47	-47.9	-50.4	6.1	0.00e+00	0	32	104	0	60	40598
2026-01-28 08:20:45.98	124.72	5.55	-48.0	-50.6	6.1	0.00e+00	0	32	104	0	60	41307
2026-01-28 08:20:46.99	124.65	5.63	-29.5	-29.8	11.3	0.00e+00	972	32	104	0	32	18963
2026-01-28 08:20:48.00	124.57	5.71	-33.6	-34.1	13.1	3.67e-02	0	32	0	8388608	40	19597
2026-01-28 08:20:49.01	124.49	5.79	-44.6	-45.9	6.3	4.88e-02	0	32	104	109051904	58	27190
2026-01-28 08:20:50.02	124.42	5.87	-28.4	-28.7	12.4	0.00e+00	5510	32	104	109051904	32	16701
2026-01-28 08:20:51.03	124.34	5.95	-27.8	-28.4	16.0	4.60e-02	0	33	0	150994944	32	16103
2026-01-28 08:20:52.04	124.26	6.03	-28.0	-28.5	15.9	4.60e-02	0	33	0	268435456	30	18376
2026-01-28 08:20:53.05	124.18	6.11	-27.5	-28.0	16.2	1.55e-02	0	33	0	377487360	30	17353
2026-01-28 08:20:54.06	124.10	6.19	-27.5	-28.1	16.1	1.55e-02	0	33	0	494927872	30	17489
2026-01-28 08:20:55.06	124.02	6.27	-27.7	-28.3	16.1	4.69e-04	0	33	0	612368384	30	17856
2026-01-28 08:20:56.07	123.94	6.35	-27.9	-28.4	16.1	3.87e-04	0	33	0	721420288	30	18176
2026-01-28 08:20:57.08	123.86	6.43	-27.5	-28.1	16.2	3.87e-04	0	33	0	830472192	30	17458
2026-01-28 08:20:58.09	123.78	6.51	-27.9	-28.4	16.1	3.87e-04	0	33	0	947912704	30	18205
2026-01-28 08:20:59.10	123.69	6.59	-27.5	-28.1	16.2	3.65e-04	0	33	0	1056964608	30	17439
2026-01-28 08:21:00.11	123.61	6.68	-27.7	-28.3	16.1	3.65e-04	0	33	0	1174405120	30	17940
2026-01-28 08:21:01.12	123.53	6.76	-27.8	-28.4	16.1	3.98e-04	0	33	0	1291845632	30	18100
2026-01-28 08:21:02.13	123.44	6.84	-27.5	-28.1	16.1	3.98e-04	0	33	0	1400897536	30	17406
2026-01-28 08:21:03.14	123.36	6.93	-27.3	-27.9	16.1	5.67e-04	0	33	0	1518338048	30	17147
2026-01-28 08:21:04.15	123.27	7.01	-26.8	-27.4	16.1	5.67e-04	0	33	0	1627389952	30	16225
2026-01-28 08:21:05.16	123.18	7.09	-27.0	-27.6	16.0	5.61e-04	0	33	0	1744830464	30	16582
2026-01-28 08:21:06.17	123.10	7.18	-27.1	-27.6	15.9	5.61e-04	0	33	0	1853882368	30	16617
2026-01-28 08:21:07.17	123.01	7.26	-26.6	-27.2	15.9	5.61e-04	0	33	0	1971322880	28	17659
2026-01-28 08:21:08.19	122.92	7.35	-26.7	-27.3	15.8	9.97e-04	0	33	0	2080374784	28	17828
2026-01-28 08:21:09.20	122.83	7.43	-26.5	-27.1	15.8	9.97e-04	0	33	0	2197815296	28	17499
2026-01-28 08:21:10.20	122.74	7.52	-26.3	-26.9	15.9	1.10e-03	0	33	0	2306867200	28	17031
2026-01-28 08:21:11.21	122.65	7.60	-26.5	-27.1	16.0	1.10e-03	0	33	0	2424307712	28	17454
2026-01-28 08:21:12.22	122.56	7.69	-26.8	-27.3	16.0	7.74e-04	0	33	0	2541748224	28	17971
2026-01-28 08:21:13.23	122.47	7.78	-26.7	-27.2	16.2	7.74e-04	0	33	0	2650800128	28	17699
2026-01-28 08:21:14.23	122.38	7.86	-26.7	-27.3	16.2	3.92e-04	0	33	0	2759852032	28	17823
2026-01-28 08:21:15.25	122.28	7.95	-26.8	-27.4	16.3	3.92e-04	0	33	0	2877292544	28	18027
2026-01-28 08:21:16.26	122.19	8.04	-26.8	-27.3	16.4	3.92e-04	0	33	0	2994733056	28	17953
2026-01-28 08:21:17.26	122.09	8.12	-26.7	-27.2	16.5	1.03e-04	0	33	0	3103784960	28	17687
2026-01-28 08:21:18.27	122.00	8.21	-26.8	-27.3	16.5	1.03e-04	0	33	0	3221225472	28	17853
2026-01-28 08:21:19.28	121.90	8.30	-26.9	-27.3	16.5	1.03e-04	0	33	0	3330277376	28	17976
2026-01-28 08:21:20.29	121.81	8.39	-27.0	-27.5	16.4	1.25e-04	0	33	0	3447717888	28	18284
2026-01-28 08:21:21.30	121.71	8.48	-27.1	-27.6	16.4	1.25e-04	0	33	0	3556769792	28	18437
2026-01-28 08:21:22.31	121.61	8.57	-26.8	-27.3	16.4	7.62e-05	0	33	0	3674210304	28	17872
2026-01-28 08:21:23.32	121.51	8.66	-26.9	-27.4	16.5	7.62e-05	0	33	0	3783262208	28	18023
2026-01-28 08:21:24.33	121.41	8.75	-26.7	-27.2	16.5	1.09e-04	0	33	0	3900702720	28	17764
2026-01-28 08:21:25.33	121.31	8.84	-27.0	-27.5	16.4	1.09e-04	0	33	0	4009754624	28	18331
2026-01-28 08:21:26.34	121.21	8.93	-26.7	-27.3	16.5	9.26e-05	0	33	0	4127195136	28	17811
2026-01-28 08:21:27.35	121.11	9.02	-26.7	-27.2	16.4	9.26e-05	0	34	0	4236247040	28	17756
2026-01-28 08:21:28.36	121.00	9.11	-26.5	-27.1	16.4	1.20e-04	0	33	0	4353687552	28	17471
2026-01-28 08:21:29.37	120.90	9.21	-26.6	-27.2	16.5	1.20e-04	0	33	0	4471128064	28	17644
2026-01-28 08:21:30.37	120.79	9.30	-26.5	-27.0	16.5	9.80e-05	0	33	0	4580179968	28	17383
2026-01-28 08:21:31.38	120.69	9.39	-26.4	-26.9	16.5	9.80e-05	0	34	0	4689231872	28	17117
2026-01-28 08:21:32.39	120.58	9.48	-26.4	-27.0	16.6	9.80e-05	0	34	0	4806672384	28	17214
2026-01-28 08:21:33.40	120.47	9.58	-26.4	-26.9	16.6	8.71e-05	0	34	0	4915724288	28	17143
2026-01-28 08:21:34.40	120.37	9.67	-26.2	-26.8	16.6	5.44e-05	0	34	0	5033164800	28	16905
2026-01-28 08:21:35.41	120.26	9.76	-26.3	-26.9	16.5	5.44e-05	0	33	0	5150605312	28	17071
2026-01-28 08:21:36.42	120.15	9.86	-26.0	-26.5	16.6	5.44e-05	0	34	0	5259657216	28	16394
2026-01-28 08:21:37.43	120.04	9.95	-26.0	-26.6	16.6	5.99e-05	0	34	0	5377097728	28	16428
2026-01-28 08:21:38.44	119.93	10.05	-26.1	-26.7	16.6	5.99e-05	0	34	0	5486149632	28	16717
2026-01-28 08:21:39.45	119.81	10.15	-26.0	-26.6	16.6	4.90e-05	0	34	0	5595201536	28	16461
2026-01-28 08:21:40.46	119.70	10.24	-26.0	-26.6	16.5	4.90e-05	0	34	0	5712642048	28	16533
2026-01-28 08:21:41.47	119.58	10.34	-25.9	-26.5	16.7	4.90e-05	0	34	0	5830082560	28	16322
2026-01-28 08:21:42.48	119.47	10.44	-26.0	-26.6	16.6	5.99e-05	0	34	0	5939134464	28	16517
2026-01-28 08:21:43.49	119.35	10.53	-25.9	-26.5	16.6	5.99e-05	0	34	0	6056574976	28	16312
2026-01-28 08:21:44.50	119.23	10.63	-25.8	-26.3	16.7	5.44e-05	0	34	0	6165626880	26	17991
2026-01-28 08:21:45.50	119.12	10.73	-25.8	-26.4	16.7	5.44e-05	0	34	0	6274678784	26	18065
2026-01-28 08:21:46.51	119.00	10.83	-25.6	-26.1	16.7	2.72e-05	0	34	0	6400507904	26	17587
2026-01-28 08:21:47.52	118.88	10.93	-25.6	-26.1	16.8	2.72e-05	0	34	0	6509559808	26	17583
2026-01-28 08:21:48.53	118.76	11.03	-25.6	-26.1	16.8	1.08e-05	0	34	0	6618611712	26	17542
2026-01-28 08:21:49.54	118.63	11.13	-25.7	-26.2	16.7	1.08e-05	0	34	0	6736052224	26	17764
2026-01-28 08:21:50.55	118.51	11.23	-25.5	-26.1	16.7	2.17e-05	0	34	0	6845104128	26	17522
2026-01-28 08:21:51.56	118.38	11.33	-25.5	-26.1	16.6	2.17e-05	0	34	0	6962544640	26	17514
2026-01-28 08:21:52.57	118.26	11.43	-25.4	-25.9	16.7	1.63e-05	0	34	0	7079985152	26	17162
2026-01-28 08:21:53.58	118.13	11.53	-25.1	-25.7	16.7	1.63e-05	0	34	0	7189037056	26	16697
2026-01-28 08:21:54.59	118.00	11.64	-25.2	-25.7	16.7	1.63e-05	0	34	0	7306477568	26	16739
2026-01-28 08:21:55.59	117.88	11.74	-25.1	-25.7	16.7	5.40e-06	0	34	0	7415529472	26	16680
2026-01-28 08:21:56.60	117.75	11.84	-24.8	-25.3	16.8	5.40e-06	0	34	0	7524581376	26	16048
2026-01-28 08:21:57.61	117.61	11.94	-24.8	-25.4	16.8	5.40e-06	0	34	0	7642021888	24	18109
2026-01-28 08:21:58.62	117.48	12.05	-24.7	-25.3	16.8	0.00e+00	0	34	0	7759462400	24	17833
2026-01-28 08:21:59.63	117.35	12.15	-24.8	-25.4	16.8	0.00e+00	0	34	0	7868514304	24	18042
2026-01-28 08:22:00.64	117.21	12.26	-24.6	-25.2	16.8	0.00e+00	0	34	0	7985954816	24	17642
2026-01-28 08:22:01.65	117.08	12.36	-24.7	-25.2	16.8	0.00e+00	0	34	0	8095006720	24	17774
2026-01-28 08:22:02.66	116.94	12.47	-24.5	-25.1	16.8	5.40e-06	0	34	0	8212447232	24	17434
2026-01-28 08:22:03.67	116.80	12.58	-24.6	-25.2	16.8	5.40e-06	0	34	0	8329887744	24	17611
2026-01-28 08:22:04.68	116.66	12.68	-24.4	-24.9	16.9	5.40e-06	0	34	0	8438939648	24	17091
2026-01-28 08:22:05.69	116.52	12.79	-24.3	-24.8	16.9	0.00e+00	0	34	0	8547991552	24	16982
2026-01-28 08:22:06.70	116.38	12.90	-24.3	-24.8	16.9	0.00e+00	0	34	0	8665432064	24	17003
2026-01-28 08:22:07.71	116.24	13.01	-24.2	-24.7	16.9	0.00e+00	0	34	0	8782872576	24	16755
2026-01-28 08:22:08.71	116.09	13.11	-24.1	-24.6	16.9	0.00e+00	0	34	0	8891924480	24	16599
2026-01-28 08:22:09.72	115.95	13.22	-24.2	-24.7	16.9	0.00e+00	0	34	0	9009364992	24	16713
2026-01-28 08:22:10.73	115.80	13.33	-24.1	-24.6	17.0	0.00e+00	0	34	0	9118416896	24	16554
2026-01-28 08:22:11.74	115.65	13.44	-24.0	-24.6	17.0	0.00e+00	0	34	0	9235857408	24	16471
2026-01-28 08:22:12.74	115.50	13.55	-23.8	-24.3	17.0	5.40e-06	0	34	0	9344909312	24	15976
2026-01-28 08:22:13.75	115.35	13.66	-23.9	-24.4	17.0	5.40e-06	0	34	0	9453961216	22	18072
2026-01-28 08:22:14.76	115.20	13.77	-23.9	-24.4	17.0	0.00e+00	0	34	0	9571401728	22	18059
2026-01-28 08:22:15.77	115.04	13.89	-24.0	-24.5	17.0	0.00e+00	0	34	0	9688842240	22	18228
2026-01-28 08:22:16.77	114.89	14.00	-23.7	-24.2	17.0	0.00e+00	0	34	0	9797894144	22	17737
2026-01-28 08:22:17.78	114.73	14.11	-23.7	-24.2	17.0	0.00e+00	0	34	0	9915334656	22	17642
2026-01-28 08:22:18.79	114.57	14.22	-23.7	-24.2	17.0	0.00e+00	0	34	0	10024386560	22	17685
2026-01-28 08:22:19.80	114.41	14.34	-23.8	-24.3	17.0	0.00e+00	0	34	0	10133438464	22	17831
2026-01-28 08:22:20.81	114.25	14.45	-23.7	-24.2	17.0	0.00e+00	0	34	0	10259267584	22	17641
2026-01-28 08:22:21.82	114.09	14.57	-48.4	-50.9	6.1	0.00e+00	0	34	104	10301210624	60	43181
2026-01-28 08:22:22.82	113.93	14.68	-48.5	-51.0	6.1	0.00e+00	0	34	104	10301210624	60	43418
2026-01-28 08:22:23.83	113.76	14.80	-48.4	-51.0	6.1	0.00e+00	0	34	104	10301210624	60	43209
2026-01-28 08:22:24.84	113.59	14.92	-48.5	-51.0	6.1	0.00e+00	0	34	104	10301210624	60	43521
2026-01-28 08:22:25.85	113.43	15.03	-48.6	-51.1	6.1	0.00e+00	0	34	104	10301210624	60	43972
2026-01-28 08:22:26.86	113.25	15.15	-48.7	-51.1	6.1	0.00e+00	0	34	104	10301210624	60	44199
2026-01-28 08:22:27.87	113.08	15.27	-48.6	-51.1	6.1	0.00e+00	0	34	104	10301210624	60	43909
2026-01-28 08:22:28.88	112.91	15.39	-48.6	-51.1	6.0	0.00e+00	0	34	104	10301210624	60	44029
2026-01-28 08:22:29.89	112.73	15.51	-48.7	-51.2	6.1	0.00e+00	0	34	104	10301210624	60	44221
2026-01-28 08:22:30.90	112.56	15.63	-48.7	-51.2	6.1	0.00e+00	0	34	104	10301210624	60	44499
2026-01-28 08:22:31.91	112.38	15.75	-48.7	-51.2	6.1	0.00e+00	0	34	104	10301210624	60	44225
2026-01-28 08:22:32.92	112.20	15.87	-48.6	-51.1	6.0	0.00e+00	0	34	104	10301210624	60	44084
2026-01-28 08:22:33.92	112.02	15.99	-48.6	-51.1	6.1	0.00e+00	0	34	104	10301210624	60	43991
2026-01-28 08:22:34.93	111.83	16.11	-48.6	-51.1	6.1	0.00e+00	0	34	104	10301210624	60	43898
2026-01-28 08:22:35.94	111.65	16.23	-48.7	-51.1	6.1	0.00e+00	0	34	104	10301210624	60	43870
2026-01-28 08:22:36.95	111.46	16.35	-48.6	-51.1	6.1	0.00e+00	0	34	104	10301210624	60	44055
2026-01-28 08:22:37.96	111.27	16.48	-48.7	-51.1	6.1	0.00e+00	0	34	104	10301210624	60	43957
2026-01-28 08:22:38.96	111.08	16.60	-48.5	-51.0	6.1	0.00e+00	0	34	104	10301210624	60	43592
2026-01-28 08:22:39.97	110.89	16.72	-48.4	-50.9	6.1	0.00e+00	0	34	104	10301210624	60	43119
2026-01-28 08:22:40.98	110.69	16.85	-48.7	-51.2	6.1	0.00e+00	0	34	104	10301210624	60	44403
2026-01-28 08:22:41.99	110.49	16.97	-48.7	-51.1	6.1	0.00e+00	0	34	104	10301210624	60	43902
2026-01-28 08:22:43.00	110.30	17.10	-48.6	-51.1	6.1	0.00e+00	0	34	104	10301210624	60	44024
2026-01-28 08:22:44.01	110.09	17.22	-48.6	-51.1	6.1	0.00e+00	0	34	104	10301210624	60	43910
2026-01-28 08:22:45.02	109.89	17.35	-48.7	-51.2	6.1	0.00e+00	0	34	104	10301210624	60	44351
2026-01-28 08:22:46.02	109.69	17.48	-48.7	-51.2	6.1	0.00e+00	0	34	104	10301210624	60	44585
2026-01-28 08:22:47.03	109.48	17.60	-48.7	-51.2	6.1	0.00e+00	0	34	104	10301210624	60	44298
2026-01-28 08:22:48.04	109.27	17.73	-48.7	-51.2	6.1	0.00e+00	0	34	104	10301210624	60	44399
2026-01-28 08:22:49.05	109.06	17.86	-48.5	-51.1	6.1	0.00e+00	0	34	104	10301210624	60	43824
2026-01-28 08:22:50.06	108.85	17.99	-48.6	-51.1	6.1	0.00e+00	0	34	104	10301210624	60	44002
2026-01-28 08:22:51.07	108.63	18.12	-48.6	-51.2	6.1	0.00e+00	0	34	104	10301210624	60	44280
2026-01-28 08:22:52.08	108.42	18.25	-48.7	-51.2	6.1	0.00e+00	0	34	104	10301210624	60	44534
2026-01-28 08:22:53.09	108.20	18.38	-48.7	-51.2	6.1	0.00e+00	0	34	104	10301210624	60	44298
2026-01-28 08:22:54.10	107.97	18.51	-48.6	-51.1	6.1	0.00e+00	0	34	104	10301210624	60	43893
2026-01-28 08:22:55.11	107.75	18.64	-48.7	-51.2	6.1	0.00e+00	0	34	104	10301210624	60	44655
2026-01-28 08:22:56.11	107.53	18.78	-48.6	-51.1	6.1	0.00e+00	0	34	104	10301210624	60	44013
2026-01-28 08:22:57.12	107.30	18.91	-48.6	-51.1	6.1	0.00e+00	0	34	104	10301210624	60	43959
2026-01-28 08:22:58.13	107.07	19.04	-48.7	-51.3	6.1	0.00e+00	0	34	104	10301210624	60	44756
2026-01-28 08:22:59.14	106.83	19.17	-48.6	-51.1	6.1	0.00e+00	0	34	104	10301210624	60	43769
2026-01-28 08:23:00.15	106.60	19.31	-48.5	-51.0	6.1	0.00e+00	0	34	104	10301210624	60	43506
2026-01-28 08:23:01.16	106.36	19.44	-48.8	-51.3	6.1	0.00e+00	0	34	104	10301210624	60	44880
2026-01-28 08:23:02.17	106.12	19.58	-48.7	-51.2	6.1	0.00e+00	0	34	104	10301210624	60	44309
2026-01-28 08:23:03.18	105.88	19.71	-48.7	-51.2	6.1	0.00e+00	0	34	104	10301210624	60	44537
2026-01-28 08:23:04.19	105.63	19.85	-48.7	-51.2	6.1	0.00e+00	0	34	104	10301210624	60	44703
2026-01-28 08:23:05.20	105.38	19.99	-48.6	-51.1	6.1	0.00e+00	0	34	104	10301210624	60	43991
2026-01-28 08:23:06.21	105.13	20.12	-48.6	-51.1	6.1	0.00e+00	0	34	104	10301210624	60	44060
2026-01-28 08:23:07.21	104.88	20.26	-48.8	-51.2	6.1	0.00e+00	0	34	104	10301210624	60	44670
2026-01-28 08:23:08.22	104.62	20.39	-48.8	-51.3	6.1	0.00e+00	0	34	104	10301210624	60	45155
2026-01-28 08:23:09.23	104.37	20.53	-48.8	-51.3	6.1	0.00e+00	0	34	104	10301210624	60	44959
2026-01-28 08:23:10.24	104.11	20.67	-48.6	-51.2	6.1	0.00e+00	0	34	104	10301210624	60	44324
2026-01-28 08:23:11.25	103.84	20.81	-48.7	-51.2	6.1	0.00e+00	0	34	104	10301210624	60	44267
2026-01-28 08:23:12.26	103.58	20.95	-48.4	-51.0	6.1	0.00e+00	0	34	104	10301210624	60	43320
2026-01-28 08:23:13.27	103.31	21.09	-48.8	-51.3	6.1	0.00e+00	0	34	104	10301210624	60	45025
2026-01-28 08:23:14.28	103.03	21.23	-48.8	-51.3	6.1	0.00e+00	0	34	104	10301210624	60	44965
2026-01-28 08:23:15.29	102.76	21.37	-48.8	-51.3	6.1	0.00e+00	0	34	104	10301210624	60	45139
2026-01-28 08:23:16.30	102.48	21.51	-48.7	-51.2	6.0	0.00e+00	0	34	104	10301210624	60	44566
2026-01-28 08:23:17.31	102.20	21.65	-48.5	-51.1	6.1	0.00e+00	0	34	104	10301210624	60	44115
2026-01-28 08:23:18.32	101.92	21.79	-48.8	-51.3	6.1	0.00e+00	0	34	104	10301210624	60	45230
2026-01-28 08:23:19.33	101.63	21.93	-48.9	-51.3	6.1	0.00e+00	0	34	104	10301210624	60	45096
2026-01-28 08:23:20.34	101.34	22.07	-48.8	-51.3	6.1	0.00e+00	0	34	104	10301210624	60	44835
2026-01-28 08:23:21.34	101.05	22.21	-48.8	-51.3	6.1	0.00e+00	0	34	104	10301210624	60	44922
2026-01-28 08:23:22.35	100.76	22.35	-48.6	-51.2	6.1	0.00e+00	0	34	104	10301210624	60	44225
2026-01-28 08:23:23.36	100.46	22.50	-48.5	-51.1	6.1	0.00e+00	0	34	104	10301210624	60	44020
2026-01-28 08:23:24.37	100.16	22.64	-48.5	-51.1	6.1	0.00e+00	0	34	104	10301210624	60	43855
2026-01-28 08:23:25.38	99.85	22.78	-48.4	-50.9	6.1	0.00e+00	0	34	104	10301210624	60	43180
2026-01-28 08:23:26.39	99.54	22.93	-48.4	-51.0	6.1	0.00e+00	0	34	104	10301210624	60	43398
2026-01-28 08:23:27.40	99.23	23.07	-48.6	-51.2	6.1	0.00e+00	0	34	104	10301210624	60	44371
2026-01-28 08:23:28.41	98.92	23.21	-48.6	-51.1	6.1	0.00e+00	0	34	104	10301210624	60	44108
2026-01-28 08:23:29.42	98.60	23.35	-48.7	-51.2	6.1	0.00e+00	0	34	104	10301210624	60	44641
2026-01-28 08:23:30.43	98.28	23.50	-48.7	-51.2	6.1	0.00e+00	0	34	104	10301210624	60	44630
2026-01-28 08:23:31.44	97.96	23.64	-48.4	-51.0	6.1	0.00e+00	0	34	104	10301210624	60	43279
2026-01-28 08:23:32.44	97.63	23.78	-48.7	-51.3	6.1	0.00e+00	0	34	104	10301210624	60	44954
2026-01-28 08:23:33.45	97.30	23.93	-48.1	-50.7	6.1	0.00e+00	0	34	104	10301210624	60	42200
2026-01-28 08:23:34.46	96.97	24.07	-48.3	-50.9	6.1	0.00e+00	0	34	104	10301210624	60	43112
2026-01-28 08:23:35.47	96.63	24.21	-48.9	-51.4	6.1	0.00e+00	0	34	104	10301210624	60	45386
2026-01-28 08:23:36.48	96.29	24.36	-48.8	-51.3	6.1	0.00e+00	0	34	104	10301210624	60	45024
2026-01-28 08:23:37.49	95.95	24.50	-48.9	-51.4	6.1	0.00e+00	0	34	104	10301210624	60	45475
2026-01-28 08:23:38.50	95.60	24.64	-48.9	-51.4	6.1	0.00e+00	0	34	104	10301210624	60	45315
2026-01-28 08:23:39.50	95.25	24.79	-48.6	-51.1	6.1	0.00e+00	0	34	104	10301210624	60	43756
2026-01-28 08:23:40.52	94.89	24.93	-48.1	-50.8	6.1	0.00e+00	0	34	104	10301210624	60	42253
2026-01-28 08:23:41.52	94.54	25.07	-48.2	-50.8	6.1	0.00e+00	0	34	104	10301210624	60	42542
2026-01-28 08:23:42.53	94.17	25.21	-48.6	-51.2	6.1	0.00e+00	0	34	104	10301210624	60	44403
2026-01-28 08:23:43.54	93.81	25.36	-48.8	-51.3	6.1	0.00e+00	0	34	104	10301210624	60	44962
2026-01-28 08:23:44.55	93.44	25.50	-47.2	-50.0	6.1	0.00e+00	0	34	104	10301210624	60	38649
2026-01-28 08:23:45.56	93.06	25.64	-48.0	-50.6	6.1	0.00e+00	0	34	104	10301210624	60	41686
2026-01-28 08:23:46.56	92.69	25.78	-48.0	-50.7	6.1	0.00e+00	0	34	104	10301210624	60	41828
2026-01-28 08:23:47.58	92.31	25.92	-48.2	-50.8	6.1	0.00e+00	0	34	104	10301210624	60	42692
2026-01-28 08:23:48.58	91.93	26.06	-48.6	-51.1	6.1	0.00e+00	0	34	104	10301210624	60	43865
2026-01-28 08:23:49.59	91.54	26.20	-48.7	-51.2	6.1	0.00e+00	0	34	104	10301210624	60	44332
2026-01-28 08:23:50.60	91.14	26.34	-48.7	-51.2	6.1	0.00e+00	0	34	104	10301210624	60	44655
2026-01-28 08:23:51.61	90.75	26.48	-48.8	-51.3	6.1	0.00e+00	0	34	104	10301210624	60	45016
2026-01-28 08:23:52.62	90.35	26.62	-48.7	-51.3	6.1	0.00e+00	0	34	104	10301210624	60	44773
2026-01-28 08:23:53.63	89.95	26.76	-48.9	-51.4	6.1	0.00e+00	0	34	104	10301210624	60	45340
2026-01-28 08:23:54.64	89.54	26.90	-48.8	-51.3	6.1	0.00e+00	0	34	104	10301210624	60	45090
2026-01-28 08:23:55.64	89.13	27.03	-48.9	-51.4	6.1	0.00e+00	0	34	104	10301210624	60	45476
2026-01-28 08:23:56.65	88.72	27.17	-48.9	-51.4	6.0	0.00e+00	0	34	104	10301210624	60	45298
2026-01-28 08:23:57.66	88.30	27.31	-48.7	-51.2	6.1	0.00e+00	0	34	104	10301210624	60	44244
2026-01-28 08:23:58.67	87.87	27.44	-48.2	-50.8	6.1	0.00e+00	0	34	104	10301210624	60	42382
2026-01-28 08:23:59.67	87.45	27.57	-48.4	-50.9	6.1	0.00e+00	0	34	104	10301210624	60	43182
2026-01-28 08:24:00.68	87.02	27.71	-48.5	-51.0	6.1	0.00e+00	0	34	104	10301210624	60	43503
2026-01-28 08:24:01.69	86.58	27.84	-48.5	-51.2	6.1	0.00e+00	0	34	104	10301210624	60	44223
2026-01-28 08:24:02.70	86.15	27.97	-49.0	-51.4	6.1	0.00e+00	0	34	104	10301210624	60	45636
2026-01-28 08:24:03.70	85.71	28.10	-48.9	-51.3	6.1	0.00e+00	0	34	104	10301210624	60	45075
2026-01-28 08:24:04.71	85.26	28.23	-48.5	-51.1	6.1	0.00e+00	0	34	104	10301210624	60	44148
2026-01-28 08:24:05.72	84.81	28.36	-47.8	-50.5	6.1	0.00e+00	0	34	104	10301210624	60	41061
2026-01-28 08:24:06.73	84.36	28.48	-46.9	-49.6	6.1	0.00e+00	0	34	104	10301210624	60	37101
2026-01-28 08:24:07.74	83.90	28.61	-47.2	-50.0	6.1	0.00e+00	0	34	104	10301210624	60	38666
2026-01-28 08:24:08.75	83.44	28.73	-47.3	-50.0	6.1	0.00e+00	0	34	104	10301210624	60	38684
2026-01-28 08:24:09.75	82.97	28.85	-48.5	-51.1	6.1	0.00e+00	0	34	104	10301210624	60	43894
2026-01-28 08:24:10.76	82.50	28.98	-48.9	-51.4	6.1	0.00e+00	0	34	104	10301210624	60	45476
2026-01-28 08:24:11.77	82.03	29.10	-48.7	-51.3	6.1	0.00e+00	0	34	104	10301210624	60	44848
2026-01-28 08:24:12.78	81.55	29.22	-48.7	-51.2	6.1	0.00e+00	0	34	104	10301210624	60	44684
2026-01-28 08:24:13.79	81.07	29.33	-48.9	-51.4	6.1	0.00e+00	0	34	104	10301210624	60	45366
2026-01-28 08:24:14.80	80.59	29.45	-48.9	-51.4	6.1	0.00e+00	0	34	104	10301210624	60	45245
2026-01-28 08:24:15.80	80.10	29.56	-48.9	-51.4	6.1	0.00e+00	0	34	104	10301210624	60	45639
2026-01-28 08:24:16.81	79.61	29.68	-48.2	-50.8	6.1	0.00e+00	0	34	104	10301210624	60	42709
2026-01-28 08:24:17.82	79.11	29.79	-48.0	-50.7	6.1	0.00e+00	0	34	104	10301210624	60	41896
2026-01-28 08:24:18.83	78.61	29.90	-47.5	-50.2	6.1	0.00e+00	0	34	104	10301210624	60	39695
2026-01-28 08:24:19.84	78.11	30.00	-47.3	-50.0	6.1	0.00e+00	0	34	104	10301210624	60	38913
2026-01-28 08:24:20.85	77.60	30.11	-48.1	-50.7	6.1	0.00e+00	0	34	104	10301210624	60	41955
2026-01-28 08:24:21.86	77.09	30.21	-48.7	-51.2	6.1	0.00e+00	0	34	104	10301210624	60	44543
2026-01-28 08:24:22.87	76.58	30.31	-48.8	-51.3	6.1	0.00e+00	0	34	104	10301210624	60	45132
2026-01-28 08:24:23.88	76.06	30.41	-49.0	-51.4	6.1	0.00e+00	0	34	104	10301210624	60	45513
2026-01-28 08:24:24.89	75.54	30.51	-49.0	-51.4	6.1	0.00e+00	0	34	104	10301210624	60	45737
2026-01-28 08:24:25.90	75.01	30.61	-48.7	-51.3	6.1	0.00e+00	0	34	104	10301210624	60	44820
2026-01-28 08:24:26.91	74.48	30.70	-48.5	-51.1	6.1	0.00e+00	0	34	104	10301210624	60	43947
2026-01-28 08:24:27.92	73.95	30.79	-48.5	-51.0	6.1	0.00e+00	0	34	104	10301210624	60	43605
2026-01-28 08:24:28.92	73.42	30.88	-48.9	-51.4	6.1	0.00e+00	0	34	104	10301210624	60	45524
2026-01-28 08:24:29.94	72.88	30.97	-49.0	-51.5	6.1	0.00e+00	0	34	104	10301210624	60	45934
2026-01-28 08:24:30.94	72.34	31.05	-49.0	-51.5	6.1	0.00e+00	0	34	104	10301210624	60	46040
2026-01-28 08:24:31.95	71.80	31.13	-48.9	-51.4	6.1	0.00e+00	0	34	104	10301210624	60	45500
2026-01-28 08:24:32.96	71.25	31.21	-49.0	-51.5	6.1	0.00e+00	0	34	104	10301210624	60	46109
2026-01-28 08:24:33.97	70.70	31.29	-49.0	-51.5	6.1	0.00e+00	0	34	104	10301210624	60	45898
2026-01-28 08:24:34.98	70.15	31.36	-48.8	-51.3	6.1	0.00e+00	0	34	104	10301210624	60	45056
2026-01-28 08:24:35.99	69.60	31.43	-48.9	-51.3	6.1	0.00e+00	0	34	104	10301210624	60	45163
2026-01-28 08:24:37.00	69.04	31.50	-48.7	-51.2	6.1	0.00e+00	0	34	104	10301210624	60	44644
2026-01-28 08:24:38.00	68.49	31.57	-49.0	-51.4	6.1	0.00e+00	0	34	104	10301210624	60	45509
2026-01-28 08:24:39.01	67.92	31.63	-48.9	-51.4	6.1	0.00e+00	0	34	104	10301210624	60	45461
2026-01-28 08:24:40.02	67.36	31.69	-49.0	-51.5	6.1	0.00e+00	0	34	104	10301210624	60	45922
2026-01-28 08:24:41.03	66.79	31.75	-49.0	-51.5	6.1	0.00e+00	0	34	104	10301210624	60	45869
2026-01-28 08:24:42.04	66.22	31.80	-48.8	-51.3	6.1	0.00e+00	0	34	104	10301210624	60	44966
2026-01-28 08:24:43.04	65.66	31.85	-49.0	-51.5	6.1	0.00e+00	0	34	104	10301210624	60	45834
2026-01-28 08:24:44.05	65.08	31.90	-49.0	-51.5	6.1	0.00e+00	0	34	104	10301210624	60	45860
2026-01-28 08:24:45.06	64.51	31.95	-49.0	-51.5	6.1	0.00e+00	0	34	104	10301210624	60	45799
2026-01-28 08:24:46.07	63.93	31.99	-48.8	-51.4	6.1	0.00e+00	0	34	104	10301210624	60	45264
2026-01-28 08:24:47.08	63.36	32.03	-48.9	-51.4	6.1	0.00e+00	0	34	104	10301210624	60	45689
2026-01-28 08:24:48.09	62.78	32.07	-48.9	-51.4	6.1	0.00e+00	0	34	104	10301210624	60	45630
2026-01-28 08:24:49.10	62.20	32.10	-48.9	-51.5	6.1	0.00e+00	0	34	104	10301210624	60	45812
2026-01-28 08:24:50.11	61.61	32.14	-48.6	-51.2	6.1	0.00e+00	0	34	104	10301210624	60	44304
2026-01-28 08:24:51.12	61.03	32.16	-48.8	-51.3	6.1	0.00e+00	0	34	104	10301210624	60	45102
2026-01-28 08:24:52.13	60.45	32.19	-48.8	-51.3	6.1	0.00e+00	0	34	104	10301210624	60	44863
2026-01-28 08:24:53.14	59.86	32.21	-48.6	-51.2	6.1	0.00e+00	0	34	104	10301210624	60	44232
2026-01-28 08:24:54.14	59.28	32.23	-47.6	-50.3	6.1	0.00e+00	0	34	104	10301210624	60	40289
2026-01-28 08:24:55.15	58.70	32.24	-48.2	-50.9	6.1	0.00e+00	0	34	104	10301210624	60	42796
2026-01-28 08:24:56.16	58.11	32.26	-48.0	-50.6	6.1	0.00e+00	0	34	104	10301210624	60	41687
2026-01-28 08:24:57.17	57.52	32.26	-49.0	-51.4	6.1	0.00e+00	0	34	104	10301210624	60	45754
2026-01-28 08:24:58.19	56.93	32.27	-49.0	-51.5	6.1	0.00e+00	0	34	104	10301210624	60	45836
2026-01-28 08:24:59.19	56.35	32.27	-49.0	-51.5	6.1	0.00e+00	0	34	104	10301210624	60	45775
2026-01-28 08:25:00.20	55.76	32.27	-49.0	-51.4	6.1	0.00e+00	0	34	104	10301210624	60	45724
2026-01-28 08:25:01.21	55.17	32.27	-49.0	-51.5	6.1	0.00e+00	0	34	104	10301210624	60	45978
2026-01-28 08:25:02.21	54.59	32.26	-49.0	-51.5	6.1	0.00e+00	0	34	104	10301210624	60	46025
2026-01-28 08:25:03.22	54.00	32.25	-49.0	-51.5	6.1	0.00e+00	0	34	104	10301210624	60	45919
2026-01-28 08:25:04.23	53.42	32.24	-49.0	-51.5	6.1	0.00e+00	0	34	104	10301210624	60	46016
2026-01-28 08:25:05.24	52.83	32.22	-49.0	-51.4	6.1	0.00e+00	0	34	104	10301210624	60	45759
2026-01-28 08:25:06.25	52.25	32.20	-47.6	-50.3	6.1	0.00e+00	0	34	104	10301210624	60	40129
2026-01-28 08:25:07.26	51.66	32.18	-47.6	-50.3	6.1	0.00e+00	0	34	104	10301210624	60	40232
2026-01-28 08:25:08.26	51.08	32.15	-48.2	-50.8	6.1	0.00e+00	0	34	104	10301210624	60	42436
2026-01-28 08:25:09.27	50.50	32.12	-48.9	-51.3	6.1	0.00e+00	0	34	104	10301210624	60	45186
2026-01-28 08:25:10.28	49.92	32.09	-49.0	-51.5	6.1	0.00e+00	0	34	104	10301210624	60	45973
2026-01-28 08:25:11.29	49.34	32.06	-48.5	-51.0	6.1	0.00e+00	0	34	104	10301210624	60	43708
2026-01-28 08:25:12.30	48.76	32.02	-48.7	-51.3	6.1	0.00e+00	0	34	104	10301210624	60	44879
2026-01-28 08:25:13.30	48.19	31.98	-47.9	-50.6	6.1	0.00e+00	0	34	104	10301210624	60	41485
2026-01-28 08:25:14.31	47.62	31.93	-49.0	-51.5	6.1	0.00e+00	0	34	104	10301210624	60	45910
2026-01-28 08:25:15.32	47.04	31.89	-49.0	-51.5	6.1	0.00e+00	0	34	104	10301210624	60	45952
2026-01-28 08:25:16.33	46.47	31.84	-48.8	-51.4	6.1	0.00e+00	0	34	104	10301210624	60	45317
2026-01-28 08:25:17.34	45.90	31.78	-48.9	-51.4	6.1	0.00e+00	0	34	104	10301210624	60	45617
2026-01-28 08:25:18.35	45.34	31.73	-49.0	-51.5	6.1	0.00e+00	0	34	104	10301210624	60	45814
2026-01-28 08:25:19.36	44.77	31.67	-48.6	-51.1	6.1	0.00e+00	0	34	104	10301210624	60	44007
2026-01-28 08:25:20.37	44.21	31.61	-48.8	-51.3	6.1	0.00e+00	0	34	104	10301210624	60	45010
2026-01-28 08:25:21.38	43.65	31.54	-48.8	-51.3	6.1	0.00e+00	0	34	104	10301210624	60	45049
2026-01-28 08:25:22.39	43.09	31.47	-48.8	-51.2	6.1	0.00e+00	0	34	104	10301210624	60	44583
2026-01-28 08:25:23.40	42.53	31.41	-49.0	-51.5	6.1	0.00e+00	0	34	104	10301210624	60	46075
2026-01-28 08:25:24.40	41.99	31.33	-49.0	-51.5	6.1	0.00e+00	0	34	104	10301210624	60	45863
2026-01-28 08:25:25.41	41.44	31.26	-49.0	-51.5	6.1	0.00e+00	0	34	104	10301210624	60	46000
2026-01-28 08:25:26.42	40.89	31.18	-49.0	-51.5	6.1	0.00e+00	0	34	104	10301210624	60	45849
2026-01-28 08:25:27.43	40.34	31.10	-48.9	-51.3	6.1	0.00e+00	0	34	104	10301210624	60	45226
2026-01-28 08:25:28.44	39.80	31.02	-49.0	-51.5	6.1	0.00e+00	0	34	104	10301210624	60	45873
2026-01-28 08:25:29.45	39.26	30.93	-49.0	-51.5	6.1	0.00e+00	0	34	104	10301210624	60	45949
2026-01-28 08:25:30.46	38.73	30.85	-48.9	-51.4	6.1	0.00e+00	0	34	104	10301210624	60	45459
2026-01-28 08:25:31.47	38.20	30.76	-49.0	-51.5	6.1	0.00e+00	0	34	104	10301210624	60	46159
2026-01-28 08:25:32.48	37.67	30.67	-49.0	-51.4	6.1	0.00e+00	0	34	104	10301210624	60	45766
2026-01-28 08:25:33.49	37.14	30.57	-49.0	-51.5	6.1	0.00e+00	0	34	104	10301210624	60	45908
2026-01-28 08:25:34.50	36.62	30.48	-49.0	-51.4	6.1	0.00e+00	0	34	104	10301210624	60	45510
2026-01-28 08:25:35.51	36.10	30.38	-48.9	-51.4	6.1	0.00e+00	0	34	104	10301210624	60	45308
2026-01-28 08:25:36.51	35.59	30.28	-48.9	-51.3	6.1	0.00e+00	0	34	104	10301210624	60	45238
2026-01-28 08:25:37.52	35.08	30.18	-48.8	-51.3	6.1	0.00e+00	0	34	104	10301210624	60	44901
2026-01-28 08:25:38.53	34.57	30.07	-48.9	-51.5	6.1	0.00e+00	0	34	104	10301210624	60	45844
2026-01-28 08:25:39.54	34.06	29.97	-48.5	-51.0	6.1	0.00e+00	0	34	104	10301210624	60	43614
2026-01-28 08:25:40.55	33.56	29.86	-48.6	-51.2	6.1	0.00e+00	0	34	104	10301210624	60	44236
2026-01-28 08:25:41.56	33.07	29.75	-48.8	-51.3	6.1	0.00e+00	0	34	104	10301210624	60	45079
2026-01-28 08:25:42.57	32.57	29.64	-48.7	-51.2	6.1	0.00e+00	0	34	104	10301210624	60	44625
2026-01-28 08:25:43.58	32.08	29.52	-48.7	-51.2	6.1	0.00e+00	0	34	104	10301210624	60	44681
2026-01-28 08:25:44.58	31.60	29.41	-48.9	-51.4	6.1	0.00e+00	0	34	104	10301210624	60	45391
2026-01-28 08:25:45.60	31.11	29.29	-48.8	-51.3	6.1	0.00e+00	0	34	104	10301210624	60	44888
2026-01-28 08:25:46.60	30.64	29.18	-48.7	-51.2	6.1	0.00e+00	0	34	104	10301210624	60	44671
2026-01-28 08:25:47.61	30.16	29.06	-48.6	-51.1	6.1	0.00e+00	0	34	104	10301210624	60	44197
2026-01-28 08:25:48.62	29.69	28.94	-48.5	-51.0	6.1	0.00e+00	0	34	104	10301210624	60	43685
2026-01-28 08:25:49.63	29.23	28.82	-48.9	-51.4	6.1	0.00e+00	0	34	104	10301210624	60	45450
2026-01-28 08:25:50.64	28.76	28.69	-48.8	-51.4	6.1	0.00e+00	0	34	104	10301210624	60	45320
2026-01-28 08:25:51.65	28.30	28.57	-48.9	-51.3	6.1	0.00e+00	0	34	104	10301210624	60	45106
2026-01-28 08:25:52.66	27.85	28.44	-48.8	-51.3	6.1	0.00e+00	0	34	104	10301210624	60	44943
2026-01-28 08:25:53.67	27.40	28.32	-49.0	-51.4	6.1	0.00e+00	0	34	104	10301210624	60	45588
2026-01-28 08:25:54.68	26.95	28.19	-48.9	-51.4	6.1	0.00e+00	0	34	104	10301210624	60	45532
2026-01-28 08:25:55.69	26.51	28.06	-48.9	-51.3	6.1	0.00e+00	0	34	104	10301210624	60	45165
2026-01-28 08:25:56.70	26.07	27.93	-48.8	-51.3	6.1	0.00e+00	0	34	104	10301210624	60	45081
2026-01-28 08:25:57.70	25.63	27.80	-49.0	-51.4	6.1	0.00e+00	0	34	104	10301210624	60	45625
2026-01-28 08:25:58.72	25.20	27.67	-48.9	-51.4	6.1	0.00e+00	0	34	104	10301210624	60	45439
2026-01-28 08:25:59.72	24.77	27.53	-48.9	-51.3	6.1	0.00e+00	0	34	104	10301210624	60	45188
2026-01-28 08:26:00.73	24.35	27.40	-48.9	-51.4	6.1	0.00e+00	0	34	104	10301210624	60	45358
2026-01-28 08:26:01.74	23.93	27.27	-48.9	-51.4	6.1	0.00e+00	0	34	104	10301210624	60	45419
2026-01-28 08:26:02.74	23.52	27.13	-48.9	-51.4	6.1	0.00e+00	0	34	104	10301210624	60	45383
2026-01-28 08:26:03.75	23.11	27.00	-48.9	-51.3	6.1	0.00e+00	0	34	104	10301210624	60	45244
2026-01-28 08:26:04.76	22.70	26.86	-48.8	-51.3	6.1	0.00e+00	0	34	104	10301210624	60	45134
2026-01-28 08:26:05.77	22.29	26.72	-48.9	-51.4	6.1	0.00e+00	0	34	104	10301210624	60	45444
2026-01-28 08:26:06.78	21.89	26.58	-48.9	-51.4	6.1	0.00e+00	0	34	104	10301210624	60	45536
2026-01-28 08:26:07.79	21.50	26.44	-48.9	-51.4	6.1	0.00e+00	0	34	104	10301210624	60	45483
2026-01-28 08:26:08.79	21.11	26.31	-48.8	-51.2	6.1	0.00e+00	0	34	104	10301210624	60	44662
2026-01-28 08:26:09.80	20.72	26.17	-49.0	-51.4	6.1	0.00e+00	0	34	104	10301210624	60	45451
2026-01-28 08:26:10.81	20.33	26.03	-49.0	-51.5	6.1	0.00e+00	0	34	104	10301210624	60	45788
2026-01-28 08:26:11.82	19.95	25.89	-48.9	-51.4	6.1	0.00e+00	0	34	104	10301210624	60	45471
2026-01-28 08:26:12.82	19.58	25.75	-48.9	-51.4	6.1	0.00e+00	0	34	104	10301210624	60	45740
2026-01-28 08:26:13.83	19.20	25.61	-48.9	-51.4	6.1	0.00e+00	0	34	104	10301210624	60	45396
2026-01-28 08:26:14.84	18.83	25.47	-48.9	-51.4	6.1	0.00e+00	0	34	104	10301210624	60	45377
2026-01-28 08:26:15.85	18.46	25.32	-48.9	-51.3	6.1	0.00e+00	0	34	104	10301210624	60	45144
2026-01-28 08:26:16.85	18.10	25.18	-48.9	-51.4	6.1	0.00e+00	0	34	104	10301210624	60	45484
2026-01-28 08:26:17.86	17.74	25.04	-48.9	-51.4	6.1	0.00e+00	0	34	104	10301210624	60	45508
2026-01-28 08:26:18.87	17.39	24.90	-48.9	-51.3	6.1	0.00e+00	0	34	104	10301210624	60	45237
2026-01-28 08:26:19.88	17.04	24.76	-48.8	-51.4	6.1	0.00e+00	0	34	104	10301210624	60	45345
2026-01-28 08:26:20.89	16.69	24.61	-49.0	-51.5	6.1	0.00e+00	0	34	104	10301210624	60	45870
2026-01-28 08:26:21.90	16.34	24.47	-48.9	-51.4	6.1	0.00e+00	0	34	104	10301210624	60	45476
2026-01-28 08:26:22.91	16.00	24.33	-48.9	-51.3	6.1	0.00e+00	0	34	104	10301210624	60	45113
2026-01-28 08:26:23.92	15.66	24.19	-48.9	-51.4	6.1	0.00e+00	0	34	104	10301210624	60	45626
2026-01-28 08:26:24.93	15.33	24.04	-48.8	-51.3	6.1	0.00e+00	0	34	104	10301210624	60	44747
2026-01-28 08:26:25.94	15.00	23.90	-48.9	-51.3	6.1	0.00e+00	0	34	104	10301210624	60	45235
2026-01-28 08:26:26.94	14.67	23.76	-48.9	-51.3	6.1	0.00e+00	0	34	104	10301210624	60	45114
2026-01-28 08:26:27.95	14.35	23.62	-48.9	-51.3	6.1	0.00e+00	0	34	104	10301210624	60	45137
2026-01-28 08:26:28.96	14.02	23.47	-48.9	-51.3	6.1	0.00e+00	0	34	104	10301210624	60	45051
2026-01-28 08:26:29.97	13.71	23.33	-48.8	-51.3	6.1	0.00e+00	0	34	104	10301210624	60	44865
2026-01-28 08:26:30.97	13.39	23.19	-48.9	-51.4	6.1	0.00e+00	0	34	104	10301210624	60	45435
2026-01-28 08:26:31.98	13.08	23.05	-48.9	-51.4	6.1	0.00e+00	0	34	104	10301210624	60	45442
2026-01-28 08:26:32.99	12.77	22.90	-48.9	-51.4	6.1	0.00e+00	0	34	104	10301210624	60	45530
2026-01-28 08:26:34.00	12.47	22.76	-48.9	-51.4	6.1	0.00e+00	0	34	104	10301210624	60	45352
2026-01-28 08:26:35.01	12.17	22.62	-48.8	-51.3	6.1	0.00e+00	0	34	104	10301210624	60	44866
2026-01-28 08:26:36.02	11.87	22.48	-48.8	-51.2	6.1	0.00e+00	0	34	104	10301210624	60	44616
2026-01-28 08:26:37.03	11.57	22.34	-48.9	-51.4	6.1	0.00e+00	0	34	104	10301210624	60	45291
2026-01-28 08:26:38.03	11.28	22.20	-48.9	-51.4	6.1	0.00e+00	0	34	104	10301210624	60	45486
2026-01-28 08:26:39.04	10.99	22.06	-48.8	-51.2	6.1	0.00e+00	0	34	104	10301210624	60	44678
2026-01-28 08:26:40.05	10.70	21.92	-48.8	-51.3	6.1	0.00e+00	0	34	104	10301210624	60	44986
2026-01-28 08:26:41.06	10.42	21.78	-48.9	-51.4	6.1	0.00e+00	0	34	104	10301210624	60	45608
2026-01-28 08:26:42.07	10.14	21.64	-48.8	-51.3	6.1	0.00e+00	0	34	104	10301210624	60	45006
2026-01-28 08:26:43.08	9.86	21.50	-48.9	-51.3	6.1	0.00e+00	0	34	104	10301210624	60	44987
2026-01-28 08:26:44.09	9.58	21.36	-48.8	-51.3	6.1	0.00e+00	0	34	104	10301210624	60	44877
2026-01-28 08:26:45.10	9.31	21.22	-48.9	-51.4	6.1	0.00e+00	0	34	104	10301210624	60	45353
2026-01-28 08:26:46.11	9.04	21.08	-48.7	-51.2	6.1	0.00e+00	0	34	104	10301210624	60	44476
2026-01-28 08:26:47.12	8.78	20.94	-48.9	-51.3	6.1	0.00e+00	0	34	104	10301210624	60	45212
2026-01-28 08:26:48.12	8.51	20.80	-48.8	-51.3	6.1	0.00e+00	0	34	104	10301210624	60	44901
2026-01-28 08:26:49.13	8.25	20.66	-48.8	-51.2	6.1	0.00e+00	0	34	104	10301210624	60	44719
2026-01-28 08:26:50.14	7.99	20.53	-48.8	-51.2	6.1	0.00e+00	0	34	104	10301210624	60	44658
2026-01-28 08:26:51.15	7.74	20.39	-48.8	-51.3	6.1	0.00e+00	0	34	104	10301210624	60	45057
2026-01-28 08:26:52.16	7.48	20.25	-48.9	-51.4	6.1	0.00e+00	0	34	104	10301210624	60	45370
2026-01-28 08:26:53.17	7.23	20.12	-48.9	-51.3	6.1	0.00e+00	0	34	104	10301210624	60	45088
2026-01-28 08:26:54.18	6.98	19.98	-48.9	-51.3	6.1	0.00e+00	0	34	104	10301210624	60	45059
2026-01-28 08:26:55.19	6.74	19.85	-48.8	-51.3	6.1	0.00e+00	0	34	104	10301210624	60	45117
2026-01-28 08:26:56.20	6.49	19.71	-48.9	-51.4	6.1	0.00e+00	0	34	104	10301210624	60	45294
2026-01-28 08:26:57.21	6.25	19.58	-48.9	-51.4	6.1	0.00e+00	0	34	104	10301210624	60	45344
2026-01-28 08:26:58.22	6.01	19.44	-48.8	-51.3	6.1	0.00e+00	0	34	104	10301210624	60	44762
2026-01-28 08:26:59.23	5.78	19.31	-48.7	-51.2	6.1	0.00e+00	0	34	104	10301210624	60	44627
2026-01-28 08:27:00.24	5.54	19.18	-48.8	-51.3	6.1	0.00e+00	0	34	104	10301210624	60	45070
2026-01-28 08:27:01.25	5.31	19.04	-48.9	-51.3	6.1	0.00e+00	0	34	104	10301210624	60	45204
2026-01-28 08:27:02.26	5.08	18.91	-48.8	-51.3	6.1	0.00e+00	0	34	104	10301210624	60	45029
2026-01-28 08:27:03.26	4.86	18.78	-48.9	-51.3	6.1	0.00e+00	0	34	104	10301210624	60	45043
2026-01-28 08:27:04.27	4.64	18.65	-48.9	-51.4	6.1	0.00e+00	0	34	104	10301210624	60	45512
2026-01-28 08:27:05.28	4.41	18.52	-48.9	-51.3	6.1	0.00e+00	0	34	104	10301210624	60	45117
2026-01-28 08:27:06.29	4.19	18.39	-48.9	-51.3	6.1	0.00e+00	0	34	104	10301210624	60	45214
2026-01-28 08:27:07.30	3.97	18.26	-48.9	-51.3	6.1	0.00e+00	0	34	104	10301210624	60	45236
2026-01-28 08:27:08.31	3.76	18.13	-48.8	-51.3	6.1	0.00e+00	0	34	104	10301210624	60	44872
2026-01-28 08:27:09.32	3.55	18.00	-48.8	-51.3	6.1	0.00e+00	0	34	104	10301210624	60	45121
2026-01-28 08:27:10.33	3.33	17.87	-48.8	-51.3	6.1	0.00e+00	0	34	104	10301210624	60	44933
2026-01-28 08:27:11.34	3.12	17.74	-48.8	-51.3	6.1	0.00e+00	0	34	104	10301210624	60	44773
2026-01-28 08:27:12.35	2.92	17.61	-48.8	-51.3	6.1	0.00e+00	0	34	104	10301210624	60	44989
2026-01-28 08:27:13.36	2.71	17.49	-48.7	-51.2	6.1	0.00e+00	0	34	104	10301210624	60	44458
2026-01-28 08:27:14.37	2.51	17.36	-48.8	-51.3	6.1	0.00e+00	0	34	104	10301210624	60	44785
2026-01-28 08:27:15.37	2.31	17.24	-48.5	-51.0	6.1	0.00e+00	0	34	104	10301210624	60	43483
2026-01-28 08:27:16.38	2.11	17.11	-48.2	-50.7	6.1	0.00e+00	0	34	104	10301210624	60	42097
2026-01-28 08:27:17.38	1.92	16.99	-48.8	-51.3	6.1	0.00e+00	0	34	104	10301210624	60	44988
2026-01-28 08:27:18.39	1.72	16.86	-48.6	-51.1	6.1	0.00e+00	0	34	104	10301210624	60	43853
2026-01-28 08:27:19.40	1.53	16.74	-48.4	-50.9	6.1	0.00e+00	0	34	104	10301210624	60	42858
2026-01-28 08:27:20.41	1.34	16.62	-48.1	-50.7	6.1	0.00e+00	0	34	104	10301210624	60	42073
2026-01-28 08:27:21.42	1.15	16.49	-48.3	-50.8	6.1	0.00e+00	0	34	104	10301210624	60	42557
2026-01-28 08:27:22.43	0.96	16.37	-48.7	-51.1	6.1	0.00e+00	0	34	104	10301210624	60	44016
2026-01-28 08:27:23.44	0.77	16.25	-48.7	-51.1	6.1	0.00e+00	0	34	104	10301210624	60	44118
2026-01-28 08:27:24.44	0.59	16.13	-48.7	-51.1	6.1	0.00e+00	0	34	104	10301210624	60	44101
2026-01-28 08:27:25.45	0.41	16.01	-48.7	-51.1	6.1	0.00e+00	0	34	104	10301210624	60	44212
2026-01-28 08:27:26.46	0.23	15.89	-48.7	-51.2	6.1	0.00e+00	0	34	104	10301210624	60	44660
2026-01-28 08:27:27.47	0.05	15.77	-48.7	-51.2	6.1	0.00e+00	0	34	104	10301210624	60	44361
2026-01-28 08:27:28.48	359.87	15.65	-48.7	-51.2	6.1	0.00e+00	0	34	104	10301210624	60	44324
2026-01-28 08:27:29.49	359.69	15.53	-48.7	-51.2	6.1	0.00e+00	0	34	104	10301210624	60	44477
2026-01-28 08:27:30.50	359.52	15.41	-48.7	-51.2	6.1	0.00e+00	0	34	104	10301210624	60	44525
2026-01-28 08:27:31.51	359.35	15.29	-48.7	-51.2	6.1	0.00e+00	0	34	104	10301210624	60	44432
2026-01-28 08:27:32.52	359.18	15.17	-48.8	-51.2	6.1	0.00e+00	0	34	104	10301210624	60	44467
2026-01-28 08:27:33.53	359.01	15.06	-48.7	-51.2	6.1	0.00e+00	0	34	104	10301210624	60	44534
2026-01-28 08:27:34.54	358.84	14.94	-48.7	-51.2	6.1	0.00e+00	0	34	104	10301210624	60	44325
2026-01-28 08:27:35.54	358.68	14.83	-48.7	-51.2	6.1	0.00e+00	0	34	104	10301210624	60	44365
2026-01-28 08:27:36.55	358.51	14.71	-48.7	-51.2	6.1	0.00e+00	0	34	104	10301210624	60	44549
2026-01-28 08:27:37.56	358.35	14.60	-48.7	-51.1	6.1	0.00e+00	0	34	104	10301210624	60	44065
2026-01-28 08:27:38.57	358.19	14.48	-48.7	-51.2	6.1	0.00e+00	0	34	104	10301210624	60	44410
2026-01-28 08:27:39.58	358.03	14.37	-48.7	-51.1	6.1	0.00e+00	0	34	104	10301210624	60	44155
2026-01-28 08:27:40.59	357.87	14.25	-48.7	-51.2	6.1	0.00e+00	0	34	104	10301210624	60	44316
2026-01-28 08:27:41.60	357.71	14.14	-48.7	-51.2	6.1	0.00e+00	0	34	104	10301210624	60	44520
2026-01-28 08:27:42.61	357.56	14.03	-48.7	-51.2	6.1	0.00e+00	0	34	104	10301210624	60	44258
2026-01-28 08:27:43.62	357.40	13.92	-48.7	-51.2	6.1	0.00e+00	0	34	104	10301210624	60	44396
2026-01-28 08:27:44.63	357.25	13.81	-48.7	-51.2	6.1	0.00e+00	0	34	104	10301210624	60	44483
2026-01-28 08:27:45.64	357.10	13.70	-48.6	-51.1	6.1	0.00e+00	0	34	104	10301210624	60	43927
2026-01-28 08:27:46.64	356.95	13.59	-48.6	-51.1	6.1	0.00e+00	0	34	104	10301210624	60	44079
2026-01-28 08:27:47.65	356.80	13.48	-48.7	-51.2	6.1	0.00e+00	0	34	104	10301210624	60	44320
2026-01-28 08:27:48.67	356.65	13.37	-48.7	-51.2	6.1	0.00e+00	0	34	104	10301210624	60	44234
2026-01-28 08:27:49.68	356.51	13.26	-48.7	-51.1	6.1	0.00e+00	0	34	104	10301210624	60	44064
2026-01-28 08:27:50.68	356.36	13.15	-48.6	-51.1	6.1	0.00e+00	0	34	104	10301210624	60	43988
2026-01-28 08:27:51.69	356.22	13.04	-48.6	-51.1	6.1	0.00e+00	0	34	104	10301210624	60	43881
2026-01-28 08:27:52.70	356.08	12.93	-48.7	-51.2	6.1	0.00e+00	0	34	104	10301210624	60	44326
2026-01-28 08:27:53.71	355.94	12.83	-48.6	-51.1	6.1	0.00e+00	0	34	104	10301210624	60	43897
2026-01-28 08:27:54.71	355.80	12.72	-48.5	-51.0	6.1	0.00e+00	0	34	104	10301210624	60	43479
2026-01-28 08:27:55.73	355.66	12.61	-48.5	-51.0	6.1	0.00e+00	0	34	104	10301210624	60	43398
2026-01-28 08:27:56.74	355.52	12.51	-48.3	-50.8	6.1	0.00e+00	0	34	104	10301210624	60	42528
2026-01-28 08:27:57.75	355.38	12.40	-48.3	-50.8	6.1	0.00e+00	0	34	104	10301210624	60	42515
2026-01-28 08:27:58.76	355.25	12.30	-48.6	-51.1	6.1	0.00e+00	0	34	104	10301210624	60	43919
2026-01-28 08:27:59.76	355.12	12.19	-48.4	-50.9	6.1	0.00e+00	0	34	104	10301210624	60	43056
2026-01-28 08:28:00.77	354.99	12.09	-48.6	-51.1	6.1	0.00e+00	0	34	104	10301210624	60	44078
2026-01-28 08:28:01.78	354.85	11.99	-48.6	-51.0	6.1	0.00e+00	0	34	104	10301210624	60	43619
2026-01-28 08:28:02.79	354.72	11.88	-48.5	-51.0	6.1	0.00e+00	0	34	104	10301210624	60	43499
2026-01-28 08:28:03.80	354.60	11.78	-48.6	-51.1	6.1	0.00e+00	0	34	104	10301210624	60	43811
2026-01-28 08:28:04.81	354.47	11.68	-48.5	-51.0	6.1	0.00e+00	0	34	104	10301210624	60	43526
2026-01-28 08:28:05.82	354.34	11.58	-48.5	-51.0	6.1	0.00e+00	0	34	104	10301210624	60	43276
2026-01-28 08:28:06.83	354.21	11.48	-48.5	-51.0	6.1	0.00e+00	0	34	104	10301210624	60	43525
2026-01-28 08:28:07.84	354.09	11.37	-48.5	-51.0	6.1	0.00e+00	0	34	104	10301210624	60	43584
2026-01-28 08:28:08.85	353.97	11.27	-48.6	-51.1	6.1	0.00e+00	0	34	104	10301210624	60	43738
2026-01-28 08:28:09.86	353.84	11.17	-48.5	-51.0	6.1	0.00e+00	0	34	104	10301210624	60	43254
2026-01-28 08:28:10.87	353.72	11.07	-48.5	-51.0	6.1	0.00e+00	0	34	104	10301210624	60	43402
2026-01-28 08:28:11.88	353.60	10.98	-48.6	-51.1	6.1	0.00e+00	0	34	104	10301210624	60	43859
2026-01-28 08:28:12.89	353.48	10.88	-48.6	-51.1	6.1	0.00e+00	0	34	104	10301210624	60	44084
2026-01-28 08:28:13.90	353.36	10.78	-48.5	-51.0	6.1	0.00e+00	0	34	104	10301210624	60	43586
2026-01-28 08:28:14.91	353.25	10.68	-48.6	-51.0	6.1	0.00e+00	0	34	104	10301210624	60	43627
2026-01-28 08:28:15.92	353.13	10.58	-48.5	-51.1	6.1	0.00e+00	0	34	104	10301210624	60	43710
2026-01-28 08:28:16.93	353.02	10.49	-48.6	-51.1	6.1	0.00e+00	0	34	104	10301210624	60	43829
2026-01-28 08:28:17.93	352.90	10.39	-48.5	-51.0	6.0	0.00e+00	0	34	104	10301210624	60	43538
2026-01-28 08:28:18.94	352.79	10.29	-48.7	-51.2	6.1	0.00e+00	0	34	104	10301210624	60	44507
2026-01-28 08:28:19.95	352.68	10.20	-48.6	-51.1	6.1	0.00e+00	0	34	104	10301210624	60	43911
2026-01-28 08:28:20.96	352.56	10.10	-48.6	-51.1	6.1	0.00e+00	0	34	104	10301210624	60	43974
2026-01-28 08:28:21.97	352.45	10.01	-48.5	-51.0	6.1	0.00e+00	0	34	104	10301210624	60	43227
2026-01-28 08:28:22.98	352.34	9.91	-48.5	-51.0	6.1	0.00e+00	0	34	104	10301210624	60	43358
2026-01-28 08:28:23.99	352.23	9.82	-48.5	-51.0	6.1	0.00e+00	0	34	104	10301210624	60	43531
2026-01-28 08:28:25.00	352.13	9.72	-48.5	-50.9	6.1	0.00e+00	0	34	104	10301210624	60	43116
2026-01-28 08:28:26.01	352.02	9.63	-48.5	-51.0	6.1	0.00e+00	0	34	104	10301210624	60	43235
2026-01-28 08:28:27.02	351.91	9.54	-48.5	-51.0	6.0	0.00e+00	0	34	104	10301210624	60	43338
2026-01-28 08:28:28.02	351.81	9.44	-48.5	-50.9	6.1	0.00e+00	0	34	104	10301210624	60	43181
2026-01-28 08:28:29.03	351.70	9.35	-48.5	-51.1	6.1	0.00e+00	0	34	104	10301210624	60	43717
2026-01-28 08:28:30.04	351.60	9.26	-48.4	-50.9	6.1	0.00e+00	0	34	104	10301210624	60	42893
2026-01-28 08:28:31.05	351.50	9.17	-48.4	-50.9	6.1	0.00e+00	0	34	104	10301210624	60	43000
2026-01-28 08:28:32.06	351.39	9.08	-48.5	-51.0	6.1	0.00e+00	0	34	104	10301210624	60	43265
2026-01-28 08:28:33.07	351.29	8.99	-48.5	-50.9	6.1	0.00e+00	0	34	104	10301210624	60	43117
2026-01-28 08:28:34.07	351.19	8.90	-48.4	-50.9	6.1	0.00e+00	0	34	104	10301210624	60	42865
2026-01-28 08:28:35.08	351.09	8.81	-48.3	-50.8	6.1	0.00e+00	0	34	104	10301210624	60	42447
2026-01-28 08:28:36.09	350.99	8.72	-48.4	-51.0	6.1	0.00e+00	0	34	104	10301210624	60	43283
2026-01-28 08:28:37.10	350.90	8.63	-48.5	-50.9	6.1	0.00e+00	0	34	104	10301210624	60	42972
2026-01-28 08:28:38.11	350.80	8.54	-48.4	-50.8	6.1	0.00e+00	0	34	104	10301210624	60	42440
2026-01-28 08:28:39.12	350.70	8.45	-48.4	-50.8	6.1	0.00e+00	0	34	104	10301210624	60	42532
2026-01-28 08:28:40.13	350.61	8.36	-48.4	-50.9	6.1	0.00e+00	0	34	104	10301210624	60	43106
2026-01-28 08:28:41.14	350.51	8.27	-48.4	-50.9	6.1	0.00e+00	0	34	104	10301210624	60	43093
2026-01-28 08:28:42.15	350.42	8.18	-48.3	-50.8	6.1	0.00e+00	0	34	104	10301210624	60	42367
2026-01-28 08:28:43.16	350.32	8.10	-48.4	-50.8	6.0	0.00e+00	0	34	104	10301210624	60	42552
2026-01-28 08:28:44.17	350.23	8.01	-48.5	-51.0	6.1	0.00e+00	0	34	104	10301210624	60	43214
2026-01-28 08:28:45.18	350.14	7.92	-48.5	-50.9	6.1	0.00e+00	0	34	104	10301210624	60	43096
2026-01-28 08:28:46.19	350.05	7.84	-48.3	-50.8	6.1	0.00e+00	0	34	104	10301210624	60	42298
2026-01-28 08:28:47.20	349.95	7.75	-48.3	-50.8	6.1	0.00e+00	0	34	104	10301210624	60	42274
2026-01-28 08:28:48.20	349.87	7.67	-48.4	-50.9	6.1	0.00e+00	0	34	104	10301210624	60	43003
2026-01-28 08:28:49.21	349.78	7.58	-48.4	-50.9	6.1	0.00e+00	0	34	104	10301210624	60	42814
2026-01-28 08:28:50.22	349.69	7.49	-48.3	-50.7	6.1	0.00e+00	0	34	104	10301210624	60	42202
2026-01-28 08:28:51.23	349.60	7.41	-48.2	-50.7	6.1	0.00e+00	0	34	104	10301210624	60	42038
2026-01-28 08:28:52.24	349.51	7.33	-48.4	-50.8	6.0	0.00e+00	0	34	104	10301210624	60	42661
2026-01-28 08:28:53.25	349.42	7.24	-48.3	-50.8	6.1	0.00e+00	0	34	104	10301210624	60	42492
2026-01-28 08:28:54.26	349.34	7.16	-48.2	-50.7	6.1	0.00e+00	0	34	104	10301210624	60	41913
2026-01-28 08:28:55.27	349.25	7.07	-48.3	-50.8	6.1	0.00e+00	0	34	104	10301210624	60	42420
2026-01-28 08:28:56.27	349.17	6.99	-48.3	-50.8	6.1	0.00e+00	0	34	104	10301210624	60	42511
2026-01-28 08:28:57.28	349.08	6.91	-48.3	-50.9	6.1	0.00e+00	0	34	104	10301210624	60	42770
2026-01-28 08:28:58.30	349.00	6.82	-48.2	-50.7	6.1	0.00e+00	0	34	104	10301210624	60	41976
2026-01-28 08:28:59.30	348.92	6.74	-48.2	-50.7	6.1	0.00e+00	0	34	104	10301210624	60	42056
2026-01-28 08:29:00.32	348.83	6.66	-48.3	-50.8	6.1	0.00e+00	0	34	104	10301210624	60	42397
2026-01-28 08:29:01.33	348.75	6.58	-48.3	-50.8	6.1	0.00e+00	0	34	104	10301210624	60	42383
2026-01-28 08:29:02.33	348.67	6.50	-48.2	-50.7	6.1	0.00e+00	0	34	104	10301210624	60	41744
2026-01-28 08:29:03.34	348.59	6.42	-48.2	-50.7	6.1	0.00e+00	0	34	104	10301210624	60	42001
2026-01-28 08:29:04.35	348.51	6.34	-48.3	-50.8	6.1	0.00e+00	0	34	104	10301210624	60	42410
2026-01-28 08:29:05.36	348.43	6.25	-48.3	-50.8	6.1	0.00e+00	0	34	104	10301210624	60	42357
2026-01-28 08:29:06.37	348.35	6.17	-48.1	-50.5	6.1	0.00e+00	0	34	104	10301210624	60	41226
2026-01-28 08:29:07.38	348.27	6.09	-48.0	-50.5	6.1	0.00e+00	0	34	104	10301210624	60	41224
2026-01-28 08:29:08.39	348.20	6.01	-48.2	-50.7	6.1	0.00e+00	0	34	104	10301210624	60	42027
2026-01-28 08:29:09.40	348.12	5.94	-48.2	-50.7	6.0	0.00e+00	0	34	104	10301210624	60	41839
2026-01-28 08:29:10.41	348.04	5.86	-47.8	-50.3	6.1	0.00e+00	0	34	104	10301210624	60	40320
2026-01-28 08:29:11.42	347.97	5.78	-48.0	-50.5	6.1	0.00e+00	0	34	104	10301210624	60	41029
2026-01-28 08:29:12.43	347.89	5.70	-48.2	-50.7	6.1	0.00e+00	0	35	104	10301210624	60	41914
2026-01-28 08:29:13.44	347.82	5.62	-47.9	-50.4	6.1	0.00e+00	0	34	104	10301210624	60	40706
2026-01-28 08:29:14.45	347.74	5.54	-47.7	-50.2	6.1	0.00e+00	0	35	104	10301210624	60	39604
2026-01-28 08:29:15.46	347.67	5.46	-47.9	-50.3	6.0	0.00e+00	0	34	104	10301210624	60	40081
2026-01-28 08:29:16.47	347.59	5.39	-47.9	-50.5	6.1	0.00e+00	0	34	104	10301210624	60	40986
2026-01-28 08:29:17.48	347.52	5.31	-47.5	-50.0	6.1	0.00e+00	0	34	104	10301210624	60	38691
2026-01-28 08:29:18.49	347.45	5.23	-47.2	-49.7	6.1	0.00e+00	0	34	104	10301210624	60	37231
2026-01-28 08:29:19.50	347.38	5.15	-46.5	-49.0	6.1	0.00e+00	0	34	104	10301210624	60	34406
2026-01-28 08:29:20.51	347.30	5.08	-45.8	-48.2	6.1	0.00e+00	0	34	104	10301210624	60	31608
2026-01-28 08:29:21.52	347.23	5.00	-47.2	-49.7	6.1	0.00e+00	0	34	104	10301210624	60	37353
2026-01-28 08:29:22.53	347.16	4.93	-47.7	-50.2	6.1	0.00e+00	0	34	104	10301210624	60	39715
2026-01-28 08:29:23.53	347.09	4.85	-46.5	-49.0	6.1	0.00e+00	0	34	104	10301210624	60	34675
2026-01-28 08:29:24.54	347.02	4.78	-45.2	-47.7	6.1	0.00e+00	0	34	104	10301210624	60	29795
2026-01-28 08:29:25.55	346.96	4.70	-44.9	-47.4	6.1	0.00e+00	0	34	104	10301210624	60	28569
2026-01-28 08:29:26.56	346.89	4.62	-44.6	-47.1	6.1	0.00e+00	0	34	104	10301210624	60	27781
2026-01-28 08:29:27.57	346.82	4.55	-44.3	-46.8	6.1	0.00e+00	0	34	104	10301210624	60	26839
2026-01-28 08:29:28.58	346.75	4.48	-44.5	-47.0	6.1	0.00e+00	0	34	104	10301210624	60	27522
2026-01-28 08:29:29.59	346.68	4.40	-45.5	-48.0	6.1	0.00e+00	0	34	104	10301210624	60	30766
2026-01-28 08:29:30.60	346.62	4.33	-45.3	-47.7	6.1	0.00e+00	0	34	104	10301210624	60	29789
2026-01-28 08:29:31.61	346.55	4.25	-44.9	-47.4	6.1	0.00e+00	0	34	104	10301210624	60	28653
2026-01-28 08:29:32.62	346.49	4.18	-44.8	-47.2	6.1	0.00e+00	0	34	104	10301210624	60	28104
2026-01-28 08:29:33.63	346.42	4.11	-44.2	-46.7	6.1	0.00e+00	0	34	104	10301210624	60	26452
2026-01-28 08:29:34.64	346.36	4.03	-44.1	-46.5	6.1	0.00e+00	0	34	104	10301210624	60	25988
2026-01-28 08:29:35.65	346.29	3.96	-43.9	-46.4	6.1	0.00e+00	0	35	104	10301210624	60	25651
2026-01-28 08:29:36.66	346.23	3.89	-44.1	-46.5	6.1	0.00e+00	0	35	104	10301210624	60	25983
2026-01-28 08:29:37.67	346.16	3.81	-44.6	-47.1	6.1	0.00e+00	0	34	104	10301210624	60	27689
2026-01-28 08:29:38.67	346.10	3.74	-44.2	-46.6	6.1	0.00e+00	0	34	104	10301210624	60	26336
2026-01-28 08:29:39.68	346.04	3.67	-44.3	-46.8	6.1	0.00e+00	0	34	104	10301210624	60	26718
2026-01-28 08:29:40.69	345.97	3.60	-44.3	-46.8	6.1	0.00e+00	0	34	104	10301210624	60	26690
2026-01-28 08:29:41.70	345.91	3.53	-44.0	-46.5	6.1	0.00e+00	0	35	104	10301210624	60	26013
2026-01-28 08:29:42.71	345.85	3.46	-44.0	-46.4	6.1	0.00e+00	0	34	104	10301210624	60	25654
2026-01-28 08:29:43.73	345.79	3.38	-43.9	-46.4	6.1	0.00e+00	0	34	104	10301210624	60	25476
2026-01-28 08:29:44.74	345.73	3.31	-43.9	-46.4	6.1	0.00e+00	0	34	104	10301210624	60	25513
2026-01-28 08:29:45.75	345.67	3.24	-44.0	-46.5	6.1	0.00e+00	0	34	104	10301210624	60	25907
2026-01-28 08:29:46.75	345.61	3.17	-44.0	-46.5	6.1	0.00e+00	0	34	104	10301210624	60	25902
2026-01-28 08:29:47.76	345.55	3.10	-44.1	-46.6	6.1	0.00e+00	0	35	104	10301210624	60	26175
2026-01-28 08:29:48.77	345.49	3.03	-44.1	-46.6	6.1	0.00e+00	0	34	104	10301210624	60	26288
2026-01-28 08:29:49.79	345.43	2.96	-44.6	-47.1	6.1	0.00e+00	0	34	104	10301210624	60	27770
2026-01-28 08:29:50.79	345.37	2.89	-47.9	-50.4	6.1	0.00e+00	0	35	104	10301210624	60	40523
2026-01-28 08:29:51.80	345.31	2.82	-48.5	-50.9	6.1	0.00e+00	0	34	104	10301210624	60	43132
2026-01-28 08:29:52.81	345.26	2.75	-48.6	-51.1	6.1	0.00e+00	0	34	104	10301210624	60	43981
2026-01-28 08:29:53.82	345.20	2.69	-48.8	-51.2	6.1	0.00e+00	0	34	104	10301210624	60	44489
2026-01-28 08:29:54.83	345.14	2.62	-48.7	-51.2	6.1	0.00e+00	0	34	104	10301210624	60	44712
2026-01-28 08:29:55.84	345.09	2.55	-49.0	-51.5	6.1	0.00e+00	0	34	104	10301210624	60	45917
2026-01-28 08:29:56.85	345.03	2.48	-48.9	-51.5	6.1	0.00e+00	0	34	104	10301210624	60	45783
2026-01-28 08:29:57.86	344.97	2.41	-49.0	-51.5	6.1	0.00e+00	0	35	104	10301210624	60	46219
2026-01-28 08:29:58.87	344.92	2.34	-49.0	-51.5	6.1	0.00e+00	0	34	104	10301210624	60	45926
2026-01-28 08:29:59.88	344.86	2.27	-48.8	-51.4	6.1	0.00e+00	0	34	104	10301210624	60	45343
2026-01-28 08:30:00.89	344.81	2.21	-49.2	-51.7	6.1	0.00e+00	0	34	104	10301210624	60	47020
2026-01-28 08:30:01.90	344.75	2.14	-49.2	-51.7	6.1	0.00e+00	0	34	104	10301210624	60	46972
2026-01-28 08:30:02.91	344.70	2.07	-49.1	-51.6	6.1	0.00e+00	0	34	104	10301210624	60	46551
2026-01-28 08:30:03.92	344.65	2.00	-49.1	-51.5	6.1	0.00e+00	0	34	104	10301210624	60	46162
2026-01-28 08:30:04.93	344.59	1.94	-48.9	-51.4	6.1	0.00e+00	0	34	104	10301210624	60	45605
2026-01-28 08:30:05.94	344.54	1.87	-49.0	-51.4	6.1	0.00e+00	0	34	104	10301210624	60	45634
2026-01-28 08:30:06.95	344.49	1.80	-49.0	-51.5	6.1	0.00e+00	0	34	104	10301210624	60	45946
2026-01-28 08:30:07.96	344.43	1.74	-48.7	-51.2	6.1	0.00e+00	0	34	104	10301210624	60	44699
2026-01-28 08:30:08.97	344.38	1.67	-48.9	-51.4	6.1	0.00e+00	0	34	104	10301210624	60	45324
2026-01-28 08:30:09.98	344.33	1.61	-49.1	-51.5	6.1	0.00e+00	0	34	104	10301210624	60	46205
2026-01-28 08:30:10.99	344.28	1.54	-49.1	-51.5	6.0	0.00e+00	0	34	104	10301210624	60	46246
2026-01-28 08:30:12.00	344.23	1.47	-49.0	-51.5	6.1	0.00e+00	0	34	104	10301210624	60	45958
2026-01-28 08:30:13.01	344.18	1.41	-49.0	-51.5	6.1	0.00e+00	0	34	104	10301210624	60	45774
2026-01-28 08:30:14.02	344.13	1.34	-49.0	-51.5	6.1	0.00e+00	0	34	104	10301210624	60	45976
2026-01-28 08:30:15.03	344.08	1.28	-49.0	-51.5	6.1	0.00e+00	0	34	104	10301210624	60	46049
2026-01-28 08:30:16.04	344.03	1.21	-49.0	-51.5	6.1	0.00e+00	0	34	104	10301210624	60	45996
2026-01-28 08:30:17.05	343.98	1.15	-49.0	-51.5	6.1	0.00e+00	0	35	104	10301210624	60	46033
2026-01-28 08:30:18.06	343.93	1.08	-49.0	-51.5	6.1	0.00e+00	0	34	104	10301210624	60	45892
2026-01-28 08:30:19.07	343.88	1.02	-49.0	-51.5	6.1	0.00e+00	0	34	104	10301210624	60	46097
2026-01-28 08:30:20.07	343.83	0.95	-49.0	-51.5	6.1	0.00e+00	0	34	104	10301210624	60	45825
2026-01-28 08:30:21.08	343.78	0.89	-49.0	-51.5	6.1	0.00e+00	0	34	104	10301210624	60	46014
2026-01-28 08:30:22.09	343.73	0.83	-49.0	-51.5	6.1	0.00e+00	0	34	104	10301210624	60	45926
2026-01-28 08:30:23.10	343.68	0.76	-49.0	-51.4	6.1	0.00e+00	0	34	104	10301210624	60	45713
2026-01-28 08:30:24.12	343.64	0.70	-49.0	-51.5	6.1	0.00e+00	0	34	104	10301210624	60	45989
2026-01-28 08:30:25.13	343.59	0.63	-49.0	-51.4	6.1	0.00e+00	0	34	104	10301210624	60	45638
2026-01-28 08:30:26.14	343.54	0.57	-49.0	-51.5	6.1	0.00e+00	0	34	104	10301210624	60	45957
2026-01-28 08:30:27.14	343.49	0.51	-49.0	-51.5	6.1	0.00e+00	0	34	104	10301210624	60	45887
2026-01-28 08:30:28.15	343.45	0.45	-49.0	-51.5	6.1	0.00e+00	0	34	104	10301210624	60	45785
2026-01-28 08:30:29.16	343.40	0.38	-49.0	-51.5	6.0	0.00e+00	0	34	104	10301210624	60	45947
2026-01-28 08:30:30.17	343.36	0.32	-49.0	-51.4	6.1	0.00e+00	0	34	104	10301210624	60	45753
2026-01-28 08:30:31.18	343.31	0.26	-49.0	-51.4	6.1	0.00e+00	0	35	104	10301210624	60	45608
2026-01-28 08:30:32.19	343.26	0.19	-49.0	-51.5	6.1	0.00e+00	0	34	104	10301210624	60	45818
2026-01-28 08:30:33.19	343.22	0.13	-49.0	-51.5	6.1	0.00e+00	0	34	104	10301210624	60	45925
2026-01-28 08:30:34.20	343.18	0.07	-49.0	-51.5	6.1	0.00e+00	0	35	104	10301210624	60	45818
2026-01-28 08:30:35.21	343.13	0.01	-49.0	-51.5	6.1	0.00e+00	0	34	104	10301210624	60	45769

#Closed at: 2026-01-28 08:30:36
#Recorded file [10301 MB]: D:/lorett/data/35029_260128_201956.dat