passes_logs/2026/01/28/R4.6S_Anadyr/R4.6S_Anadyr__20260128_195803_FENGYUN_3D_rec.log

#Pass ID: 20260128_195803_FENGYUN 3D
#Satellite: FENGYUN 3D
#Configuration: FENGYUN 3D
#almurnet v.1.7.20251203
#Start time: 2026-01-28 19:58:05

#Version: 2.2.20231116
#Station: R4.6S_Anadyr
#Location: 177.4865 lon 64.73178 lat
#TLE: 1 43010U 17072A   26027.90082829  .00000305  00000+0  16579-3 0  9998
#TLE: 2 43010  98.9960 359.9183 0002511  88.1058 272.0405 14.19701796425082

#Time	Az	El	Level	Level2	SNR	BER	BlckErr	Temp	State	Recorded	gain1	gain2
2026-01-28 19:58:05.60	35.85	0.10	-48.9	-63.8	3.5	1.51e+00	0	29	0	0	60	55990
2026-01-28 19:58:06.60	35.78	0.15	-49.0	-61.1	3.6	8.46e-01	0	30	104	0	60	41180
2026-01-28 19:58:07.61	35.72	0.21	-48.9	-61.1	3.6	8.45e-01	0	30	104	0	60	40877
2026-01-28 19:58:08.62	35.65	0.26	-48.9	-61.0	3.6	8.47e-01	0	30	104	0	60	40661
2026-01-28 19:58:09.63	35.59	0.31	-48.9	-61.0	3.6	8.45e-01	0	30	104	0	60	40591
2026-01-28 19:58:10.64	35.52	0.36	-48.9	-61.0	3.6	8.45e-01	0	30	104	0	60	40505
2026-01-28 19:58:11.65	35.46	0.42	-48.9	-61.0	3.6	8.44e-01	0	30	104	0	60	40430
2026-01-28 19:58:12.66	35.39	0.47	-48.8	-61.0	3.6	8.46e-01	0	30	104	0	60	40654
2026-01-28 19:58:13.67	35.32	0.52	-48.9	-61.0	3.6	8.44e-01	0	30	104	0	60	40649
2026-01-28 19:58:14.68	35.26	0.57	-48.9	-61.0	3.6	8.46e-01	0	31	104	0	60	40709
2026-01-28 19:58:15.69	35.19	0.63	-48.9	-61.0	3.6	8.45e-01	0	30	104	0	60	40530
2026-01-28 19:58:16.70	35.12	0.68	-48.8	-61.0	3.6	8.45e-01	0	30	104	0	60	40342
2026-01-28 19:58:17.71	35.06	0.73	-48.8	-60.9	3.6	8.46e-01	0	31	104	0	60	40011
2026-01-28 19:58:18.71	34.99	0.79	-48.7	-60.8	3.6	8.44e-01	0	31	104	0	60	39672
2026-01-28 19:58:19.73	34.92	0.84	-48.7	-60.8	3.6	8.45e-01	0	31	104	0	60	39512
2026-01-28 19:58:20.73	34.85	0.89	-48.6	-60.7	3.6	8.45e-01	0	31	104	0	60	39044
2026-01-28 19:58:21.75	34.78	0.95	-48.5	-60.6	3.6	8.46e-01	0	31	104	0	60	38719
2026-01-28 19:58:22.76	34.71	1.00	-48.4	-60.6	3.6	8.46e-01	0	31	104	0	60	38702
2026-01-28 19:58:23.77	34.65	1.05	-48.4	-60.5	3.6	8.44e-01	0	31	104	0	60	38387
2026-01-28 19:58:24.78	34.58	1.11	-48.3	-60.5	3.6	8.45e-01	0	31	104	0	60	38436
2026-01-28 19:58:25.79	34.51	1.16	-48.3	-60.5	3.6	8.45e-01	0	31	104	0	60	38111
2026-01-28 19:58:26.79	34.44	1.21	-48.2	-60.3	3.6	8.45e-01	0	31	104	0	60	37302
2026-01-28 19:58:27.80	34.37	1.27	-48.0	-60.1	3.6	8.46e-01	0	31	104	0	60	36500
2026-01-28 19:58:28.81	34.30	1.32	-47.7	-59.8	3.6	8.46e-01	0	31	104	0	60	35122
2026-01-28 19:58:29.82	34.23	1.37	-47.4	-59.5	3.6	8.44e-01	0	31	104	0	60	33970
2026-01-28 19:58:30.83	34.16	1.43	-47.0	-59.1	3.6	8.44e-01	0	31	104	0	60	32462
2026-01-28 19:58:31.84	34.08	1.48	-47.0	-59.0	3.6	8.46e-01	0	31	104	0	60	32339
2026-01-28 19:58:32.85	34.01	1.54	-47.0	-59.0	3.6	8.45e-01	0	31	104	0	60	32046
2026-01-28 19:58:33.86	33.94	1.59	-47.0	-58.9	3.6	8.44e-01	0	31	104	0	60	31857
2026-01-28 19:58:34.87	33.87	1.64	-47.0	-59.0	3.6	8.44e-01	0	31	104	0	60	32146
2026-01-28 19:58:35.88	33.80	1.70	-47.0	-59.0	3.6	8.46e-01	0	31	104	0	60	32229
2026-01-28 19:58:36.89	33.73	1.75	-47.0	-59.0	3.6	8.46e-01	0	31	104	0	60	32338
2026-01-28 19:58:37.90	33.65	1.81	-47.0	-59.1	3.6	8.44e-01	0	31	104	0	60	32405
2026-01-28 19:58:38.91	33.58	1.86	-47.0	-59.1	3.6	8.45e-01	0	31	104	0	60	32483
2026-01-28 19:58:39.92	33.51	1.92	-47.0	-59.0	3.6	8.45e-01	0	31	104	0	60	32215
2026-01-28 19:58:40.93	33.43	1.97	-47.0	-59.0	3.6	8.45e-01	0	31	104	0	60	32217
2026-01-28 19:58:41.94	33.36	2.02	-47.0	-58.9	3.6	8.46e-01	0	31	104	0	60	31910
2026-01-28 19:58:42.95	33.28	2.08	-47.0	-58.9	3.6	8.46e-01	0	31	104	0	60	31779
2026-01-28 19:58:43.96	33.21	2.13	-47.0	-58.9	3.6	8.46e-01	0	31	104	0	60	31738
2026-01-28 19:58:44.97	33.13	2.19	-47.0	-58.8	3.6	8.44e-01	0	31	104	0	60	31392
2026-01-28 19:58:45.98	33.06	2.24	-47.0	-58.9	3.6	8.45e-01	0	31	104	0	60	31977
2026-01-28 19:58:46.99	32.98	2.30	-47.0	-59.0	3.6	8.46e-01	0	31	104	0	60	32170
2026-01-28 19:58:48.00	32.91	2.35	-47.0	-59.0	3.6	8.45e-01	0	31	104	0	60	32388
2026-01-28 19:58:49.01	32.83	2.41	-47.0	-58.9	3.6	8.45e-01	0	31	104	0	60	31949
2026-01-28 19:58:50.02	32.76	2.46	-46.9	-58.8	3.6	8.46e-01	0	31	104	0	60	31406
2026-01-28 19:58:51.03	32.68	2.52	-47.0	-59.0	3.6	8.46e-01	0	31	104	0	60	32126
2026-01-28 19:58:52.04	32.60	2.57	-47.0	-59.0	3.6	8.46e-01	0	31	104	0	60	32345
2026-01-28 19:58:53.05	32.53	2.63	-47.0	-59.1	3.6	8.45e-01	0	31	104	0	60	32444
2026-01-28 19:58:54.06	32.45	2.68	-46.9	-58.5	3.6	8.45e-01	0	31	104	0	60	30336
2026-01-28 19:58:55.07	32.37	2.74	-46.9	-58.1	3.6	8.45e-01	0	31	104	0	60	29150
2026-01-28 19:58:56.08	32.29	2.79	-46.9	-58.0	3.6	8.43e-01	0	31	104	0	60	28769
2026-01-28 19:58:57.09	32.21	2.85	-47.0	-58.8	3.6	8.45e-01	0	31	104	0	60	31454
2026-01-28 19:58:58.10	32.14	2.90	-46.9	-58.2	3.6	8.46e-01	0	31	104	0	60	29235
2026-01-28 19:58:59.10	32.06	2.96	-46.4	-54.0	4.9	8.38e-01	0	31	104	0	60	18080
2026-01-28 19:59:00.11	31.98	3.01	-45.3	-49.6	7.7	1.10e-01	0	31	0	2097152	60	10888
2026-01-28 19:59:01.12	31.90	3.07	-43.2	-45.6	12.3	4.28e-03	0	31	0	7340032	60	6872
2026-01-28 19:59:02.13	31.82	3.12	-41.8	-43.6	14.7	0.00e+00	0	31	0	13631488	58	6154
2026-01-28 19:59:03.14	31.74	3.18	-39.8	-41.1	16.8	0.00e+00	0	31	0	18874368	54	5811
2026-01-28 19:59:04.15	31.66	3.24	-43.5	-46.0	12.6	0.00e+00	0	31	0	25165824	58	8083
2026-01-28 19:59:05.16	31.58	3.29	-42.0	-43.7	15.6	0.00e+00	0	31	0	30408704	56	6995
2026-01-28 19:59:06.17	31.49	3.35	-46.8	-58.3	3.6	8.45e-01	0	31	104	33554432	60	29887
2026-01-28 19:59:07.18	31.41	3.40	-46.5	-53.9	5.6	8.40e-01	0	31	104	33554432	60	17836
2026-01-28 19:59:08.19	31.33	3.46	-40.6	-42.1	16.0	0.00e+00	0	31	0	35651584	52	7314
2026-01-28 19:59:09.20	31.25	3.52	-38.8	-40.0	18.3	0.00e+00	0	31	0	40894464	50	6420
2026-01-28 19:59:10.20	31.17	3.57	-38.5	-39.6	18.5	0.00e+00	0	31	0	47185920	50	6128
2026-01-28 19:59:11.22	31.08	3.63	-38.3	-39.3	18.8	0.00e+00	0	31	0	52428800	50	5958
2026-01-28 19:59:12.23	31.00	3.68	-38.1	-39.1	19.1	0.00e+00	0	31	0	58720256	50	5810
2026-01-28 19:59:13.24	30.92	3.74	-38.8	-39.9	18.3	0.00e+00	0	31	0	63963136	50	6348
2026-01-28 19:59:14.25	30.83	3.80	-37.9	-38.9	19.2	0.00e+00	0	31	0	69206016	50	5691
2026-01-28 19:59:15.26	30.75	3.85	-37.0	-37.9	20.4	0.00e+00	0	31	0	75497472	48	5640
2026-01-28 19:59:16.27	30.66	3.91	-36.6	-37.5	20.9	0.00e+00	0	31	0	80740352	46	6092
2026-01-28 19:59:17.28	30.58	3.97	-36.6	-37.5	20.9	0.00e+00	0	31	0	87031808	46	6044
2026-01-28 19:59:18.28	30.50	4.02	-36.1	-37.0	21.1	0.00e+00	0	31	0	92274688	44	6426
2026-01-28 19:59:19.30	30.41	4.08	-36.1	-37.0	21.2	0.00e+00	0	31	0	97517568	44	6427
2026-01-28 19:59:20.31	30.32	4.14	-36.6	-37.5	20.8	0.00e+00	0	31	0	103809024	44	6802
2026-01-28 19:59:21.32	30.24	4.19	-35.6	-36.5	21.8	0.00e+00	0	31	0	109051904	44	6037
2026-01-28 19:59:22.33	30.15	4.25	-36.2	-37.1	21.2	0.00e+00	0	31	0	115343360	44	6510
2026-01-28 19:59:23.34	30.06	4.31	-36.7	-37.6	20.8	0.00e+00	0	31	0	120586240	44	6865
2026-01-28 19:59:24.35	29.98	4.36	-35.8	-36.7	21.6	0.00e+00	0	31	0	125829120	44	6180
2026-01-28 19:59:25.36	29.89	4.42	-36.6	-37.5	20.9	0.00e+00	0	31	0	132120576	44	6801
2026-01-28 19:59:26.37	29.80	4.48	-36.3	-37.1	21.2	0.00e+00	0	31	0	137363456	44	6521
2026-01-28 19:59:27.38	29.71	4.53	-36.5	-37.4	21.0	0.00e+00	0	31	0	143654912	44	6706
2026-01-28 19:59:28.39	29.62	4.59	-36.2	-37.1	21.1	0.00e+00	0	31	0	148897792	44	6477
2026-01-28 19:59:29.40	29.53	4.65	-36.7	-37.6	20.9	0.00e+00	0	31	0	155189248	46	6128
2026-01-28 19:59:30.41	29.44	4.71	-36.3	-37.2	21.3	0.00e+00	0	31	0	160432128	46	5840
2026-01-28 19:59:31.42	29.35	4.76	-36.6	-37.4	21.0	0.00e+00	0	31	0	166723584	46	6021
2026-01-28 19:59:32.43	29.26	4.82	-36.5	-37.4	21.0	0.00e+00	0	31	0	171966464	46	5996
2026-01-28 19:59:33.44	29.17	4.88	-36.5	-37.4	20.7	0.00e+00	0	31	0	177209344	46	5972
2026-01-28 19:59:34.45	29.08	4.94	-37.0	-37.9	20.5	0.00e+00	0	31	0	183500800	46	6385
2026-01-28 19:59:35.46	28.99	4.99	-36.9	-37.8	20.5	0.00e+00	0	31	0	188743680	46	6290
2026-01-28 19:59:36.47	28.90	5.05	-36.2	-37.0	21.4	0.00e+00	0	31	0	195035136	46	5753
2026-01-28 19:59:37.48	28.81	5.11	-35.8	-36.7	21.7	0.00e+00	0	31	0	200278016	44	6176
2026-01-28 19:59:38.49	28.71	5.17	-36.2	-37.0	21.5	0.00e+00	0	31	0	205520896	44	6450
2026-01-28 19:59:39.50	28.62	5.22	-35.9	-36.7	21.7	0.00e+00	0	31	0	211812352	44	6206
2026-01-28 19:59:40.51	28.53	5.28	-36.3	-37.1	21.3	0.00e+00	0	31	0	217055232	44	6534
2026-01-28 19:59:41.52	28.44	5.34	-35.9	-36.8	21.6	0.00e+00	0	31	0	223346688	44	6255
2026-01-28 19:59:42.53	28.34	5.40	-35.8	-36.7	21.6	0.00e+00	0	31	0	228589568	44	6182
2026-01-28 19:59:43.54	28.25	5.45	-35.7	-36.5	21.9	0.00e+00	0	31	0	233832448	44	6074
2026-01-28 19:59:44.55	28.15	5.51	-35.7	-36.5	21.9	0.00e+00	0	31	0	240123904	44	6099
2026-01-28 19:59:45.56	28.06	5.57	-35.9	-36.7	21.7	0.00e+00	0	31	0	245366784	44	6226
2026-01-28 19:59:46.57	27.96	5.63	-35.3	-36.1	22.2	0.00e+00	0	31	0	251658240	44	5818
2026-01-28 19:59:47.58	27.87	5.69	-35.2	-36.0	22.4	0.00e+00	0	31	0	256901120	44	5742
2026-01-28 19:59:48.59	27.77	5.75	-35.6	-36.4	22.2	0.00e+00	0	31	0	263192576	44	6008
2026-01-28 19:59:49.60	27.67	5.80	-35.6	-36.3	22.2	0.00e+00	0	31	0	268435456	44	5963
2026-01-28 19:59:50.61	27.57	5.86	-35.6	-36.5	22.1	0.00e+00	0	31	0	273678336	44	6034
2026-01-28 19:59:51.62	27.48	5.92	-35.4	-36.2	22.3	0.00e+00	0	31	0	279969792	44	5864
2026-01-28 19:59:52.63	27.38	5.98	-35.8	-36.6	21.9	0.00e+00	0	31	0	285212672	44	6153
2026-01-28 19:59:53.64	27.28	6.04	-35.4	-36.1	22.3	0.00e+00	0	31	0	291504128	44	5812
2026-01-28 19:59:54.65	27.18	6.10	-35.7	-36.5	22.0	0.00e+00	0	31	0	296747008	44	6063
2026-01-28 19:59:55.66	27.08	6.15	-35.7	-36.5	22.0	0.00e+00	0	31	0	301989888	44	6073
2026-01-28 19:59:56.67	26.98	6.21	-36.1	-36.9	21.7	0.00e+00	0	31	0	308281344	44	6367
2026-01-28 19:59:57.68	26.88	6.27	-35.4	-36.2	22.2	0.00e+00	0	31	0	313524224	44	5866
2026-01-28 19:59:58.68	26.78	6.33	-35.5	-36.3	22.2	0.00e+00	0	31	0	319815680	44	5942
2026-01-28 19:59:59.69	26.68	6.39	-35.3	-36.1	22.4	0.00e+00	0	31	0	325058560	44	5776
2026-01-28 20:00:00.70	26.58	6.45	-35.2	-36.0	22.5	0.00e+00	0	31	0	330301440	44	5755
2026-01-28 20:00:01.71	26.48	6.51	-35.3	-36.1	22.4	0.00e+00	0	31	0	336592896	44	5787
2026-01-28 20:00:02.72	26.38	6.57	-35.5	-36.2	22.4	0.00e+00	0	31	0	341835776	44	5890
2026-01-28 20:00:03.73	26.28	6.62	-35.2	-36.0	22.5	0.00e+00	0	31	0	348127232	44	5747
2026-01-28 20:00:04.74	26.17	6.68	-35.1	-35.8	22.7	0.00e+00	0	31	0	353370112	44	5616
2026-01-28 20:00:05.75	26.07	6.74	-35.3	-36.1	22.6	0.00e+00	0	31	0	359661568	44	5766
2026-01-28 20:00:06.76	25.96	6.80	-35.2	-36.0	22.6	0.00e+00	0	31	0	364904448	44	5707
2026-01-28 20:00:07.76	25.86	6.86	-35.0	-35.7	22.8	0.00e+00	0	31	0	371195904	44	5566
2026-01-28 20:00:08.78	25.76	6.92	-35.0	-35.7	22.8	0.00e+00	0	31	0	376438784	44	5549
2026-01-28 20:00:09.78	25.65	6.98	-34.8	-35.5	23.1	0.00e+00	0	31	0	381681664	44	5412
2026-01-28 20:00:10.80	25.55	7.04	-35.0	-35.7	22.8	0.00e+00	0	31	0	387973120	42	6232
2026-01-28 20:00:11.81	25.44	7.10	-35.1	-35.8	22.8	0.00e+00	0	31	0	393216000	42	6301
2026-01-28 20:00:12.82	25.33	7.16	-35.2	-36.0	22.6	0.00e+00	0	31	0	399507456	42	6441
2026-01-28 20:00:13.83	25.23	7.22	-35.6	-36.4	22.3	0.00e+00	0	31	0	404750336	42	6752
2026-01-28 20:00:14.84	25.12	7.28	-35.2	-36.0	22.7	0.00e+00	0	31	0	409993216	42	6432
2026-01-28 20:00:15.85	25.01	7.33	-35.4	-36.2	22.5	0.00e+00	0	31	0	416284672	42	6605
2026-01-28 20:00:16.86	24.90	7.39	-35.5	-36.2	22.5	0.00e+00	0	31	0	421527552	42	6598
2026-01-28 20:00:17.87	24.79	7.45	-35.2	-36.0	22.7	0.00e+00	0	31	0	427819008	42	6420
2026-01-28 20:00:18.88	24.68	7.51	-35.4	-36.2	22.6	0.00e+00	0	31	0	433061888	42	6558
2026-01-28 20:00:19.89	24.57	7.57	-35.5	-36.3	22.5	0.00e+00	0	31	0	438304768	42	6627
2026-01-28 20:00:20.90	24.46	7.63	-35.7	-36.5	22.4	0.00e+00	0	31	0	444596224	42	6771
2026-01-28 20:00:21.90	24.35	7.69	-35.4	-36.2	22.6	0.00e+00	0	31	0	449839104	42	6574
2026-01-28 20:00:22.92	24.24	7.75	-35.4	-36.2	22.6	0.00e+00	0	31	0	456130560	42	6565
2026-01-28 20:00:23.93	24.13	7.81	-35.3	-36.1	22.9	0.00e+00	0	31	0	461373440	42	6485
2026-01-28 20:00:24.94	24.02	7.87	-35.0	-35.8	22.8	0.00e+00	0	31	0	467664896	42	6276
2026-01-28 20:00:25.94	23.91	7.93	-35.0	-35.8	23.1	0.00e+00	0	31	0	472907776	42	6267
2026-01-28 20:00:26.95	23.79	7.99	-35.1	-35.8	22.9	0.00e+00	0	31	0	478150656	42	6316
2026-01-28 20:00:27.96	23.68	8.05	-35.1	-35.9	23.0	0.00e+00	0	31	0	484442112	42	6339
2026-01-28 20:00:28.97	23.57	8.11	-35.1	-35.9	23.0	0.00e+00	0	31	0	489684992	42	6347
2026-01-28 20:00:29.98	23.45	8.17	-34.4	-35.1	23.7	0.00e+00	0	31	0	495976448	42	5809
2026-01-28 20:00:30.99	23.34	8.23	-34.5	-35.3	23.5	0.00e+00	0	31	0	501219328	42	5897
2026-01-28 20:00:32.00	23.22	8.29	-34.5	-35.2	23.6	0.00e+00	0	31	0	506462208	42	5883
2026-01-28 20:00:33.01	23.11	8.35	-34.2	-34.9	23.9	0.00e+00	0	31	0	512753664	42	5686
2026-01-28 20:00:34.02	22.99	8.41	-34.2	-34.8	23.9	0.00e+00	0	31	0	517996544	42	5629
2026-01-28 20:00:35.03	22.87	8.47	-34.0	-34.7	24.0	0.00e+00	0	31	0	524288000	42	5532
2026-01-28 20:00:36.04	22.75	8.53	-34.1	-34.8	24.0	0.00e+00	0	31	0	529530880	42	5574
2026-01-28 20:00:37.05	22.64	8.59	-34.1	-34.8	24.0	0.00e+00	0	31	0	534773760	42	5587
2026-01-28 20:00:38.07	22.52	8.65	-34.2	-34.9	23.9	0.00e+00	0	31	0	541065216	42	5655
2026-01-28 20:00:39.08	22.40	8.71	-34.2	-34.9	24.0	0.00e+00	0	31	0	546308096	42	5637
2026-01-28 20:00:40.09	22.28	8.77	-33.9	-34.6	24.2	0.00e+00	0	31	0	552599552	42	5460
2026-01-28 20:00:41.10	22.16	8.83	-34.1	-34.7	24.0	0.00e+00	0	31	0	557842432	42	5566
2026-01-28 20:00:42.10	22.04	8.89	-34.3	-35.0	23.9	0.00e+00	0	31	0	564133888	42	5732
2026-01-28 20:00:43.11	21.92	8.95	-34.2	-34.9	24.0	0.00e+00	0	31	0	569376768	42	5655
2026-01-28 20:00:44.12	21.80	9.01	-34.2	-35.0	23.9	0.00e+00	0	31	0	575668224	42	5702
2026-01-28 20:00:45.13	21.68	9.07	-34.6	-35.3	23.6	0.00e+00	0	31	0	580911104	42	5927
2026-01-28 20:00:46.14	21.55	9.13	-34.5	-35.2	23.7	0.00e+00	0	31	0	586153984	42	5880
2026-01-28 20:00:47.15	21.43	9.20	-34.4	-35.1	23.8	0.00e+00	0	31	0	592445440	42	5789
2026-01-28 20:00:48.16	21.31	9.26	-34.2	-34.9	24.0	0.00e+00	0	31	0	597688320	42	5677
2026-01-28 20:00:49.17	21.18	9.32	-34.1	-34.8	24.1	0.00e+00	0	31	0	603979776	42	5595
2026-01-28 20:00:50.18	21.06	9.38	-34.1	-34.8	24.0	0.00e+00	0	31	0	609222656	42	5613
2026-01-28 20:00:51.19	20.93	9.44	-34.1	-34.8	24.1	0.00e+00	0	31	0	614465536	42	5608
2026-01-28 20:00:52.20	20.81	9.50	-34.1	-34.8	24.1	0.00e+00	0	31	0	620756992	42	5616
2026-01-28 20:00:53.21	20.68	9.56	-34.2	-34.9	24.0	0.00e+00	0	31	0	625999872	42	5655
2026-01-28 20:00:54.22	20.55	9.62	-34.2	-34.9	24.0	0.00e+00	0	31	0	632291328	42	5666
2026-01-28 20:00:55.23	20.43	9.68	-34.2	-34.9	24.0	0.00e+00	0	31	0	637534208	42	5651
2026-01-28 20:00:56.24	20.30	9.74	-34.3	-35.0	23.9	0.00e+00	0	31	0	642777088	42	5746
2026-01-28 20:00:57.25	20.17	9.80	-34.3	-35.0	23.9	0.00e+00	0	31	0	649068544	42	5718
2026-01-28 20:00:58.26	20.04	9.86	-34.0	-34.7	24.2	0.00e+00	0	31	0	654311424	42	5522
2026-01-28 20:00:59.27	19.91	9.92	-34.0	-34.7	24.2	0.00e+00	0	31	0	660602880	42	5536
2026-01-28 20:01:00.28	19.78	9.98	-33.8	-34.5	24.4	0.00e+00	0	31	0	665845760	42	5410
2026-01-28 20:01:01.28	19.65	10.04	-33.7	-34.4	24.5	0.00e+00	0	31	0	672137216	40	6025
2026-01-28 20:01:02.29	19.52	10.10	-34.0	-34.7	24.3	0.00e+00	0	31	0	677380096	40	6190
2026-01-28 20:01:03.30	19.39	10.16	-33.9	-34.6	24.3	0.00e+00	0	31	0	682622976	40	6143
2026-01-28 20:01:04.31	19.26	10.22	-33.8	-34.5	24.4	0.00e+00	0	31	0	688914432	40	6045
2026-01-28 20:01:05.32	19.12	10.28	-33.9	-34.6	24.3	0.00e+00	0	31	0	694157312	40	6133
2026-01-28 20:01:06.33	18.99	10.34	-33.8	-34.5	24.3	0.00e+00	0	31	0	700448768	40	6096
2026-01-28 20:01:07.34	18.86	10.41	-34.0	-34.7	24.2	0.00e+00	0	31	0	705691648	40	6211
2026-01-28 20:01:08.35	18.72	10.47	-33.8	-34.5	24.4	0.00e+00	0	31	0	710934528	40	6056
2026-01-28 20:01:09.36	18.59	10.53	-33.8	-34.6	24.5	0.00e+00	0	31	0	717225984	40	6104
2026-01-28 20:01:10.37	18.45	10.59	-33.8	-34.5	24.4	0.00e+00	0	31	0	722468864	40	6064
2026-01-28 20:01:11.38	18.32	10.65	-33.7	-34.4	24.5	0.00e+00	0	31	0	728760320	40	6026
2026-01-28 20:01:12.39	18.18	10.71	-33.9	-34.6	24.3	0.00e+00	0	31	0	734003200	40	6169
2026-01-28 20:01:13.40	18.04	10.77	-33.4	-34.1	24.8	0.00e+00	0	31	0	739246080	40	5782
2026-01-28 20:01:14.40	17.90	10.83	-33.4	-34.1	24.8	0.00e+00	0	31	0	745537536	40	5768
2026-01-28 20:01:15.42	17.76	10.89	-33.5	-34.2	24.8	0.00e+00	0	32	0	750780416	40	5839
2026-01-28 20:01:16.43	17.63	10.95	-33.4	-34.1	24.8	0.00e+00	0	31	0	757071872	40	5774
2026-01-28 20:01:17.44	17.49	11.01	-33.3	-34.0	24.9	0.00e+00	0	31	0	762314752	40	5739
2026-01-28 20:01:18.45	17.35	11.07	-33.3	-34.0	24.8	0.00e+00	0	31	0	768606208	40	5717
2026-01-28 20:01:19.46	17.20	11.13	-33.5	-34.2	24.7	0.00e+00	0	31	0	773849088	40	5860
2026-01-28 20:01:20.47	17.06	11.19	-33.5	-34.2	24.7	0.00e+00	0	31	0	780140544	40	5882
2026-01-28 20:01:21.48	16.92	11.25	-33.5	-34.2	24.7	0.00e+00	0	31	0	785383424	40	5854
2026-01-28 20:01:22.48	16.78	11.31	-33.4	-34.1	24.7	0.00e+00	0	32	0	790626304	40	5803
2026-01-28 20:01:23.50	16.63	11.37	-33.4	-34.1	24.8	0.00e+00	0	31	0	796917760	40	5824
2026-01-28 20:01:24.51	16.49	11.43	-33.3	-34.0	24.9	0.00e+00	0	31	0	802160640	40	5738
2026-01-28 20:01:25.52	16.35	11.49	-33.4	-34.1	24.9	0.00e+00	0	31	0	808452096	40	5780
2026-01-28 20:01:26.53	16.20	11.55	-33.5	-34.2	24.9	0.00e+00	0	31	0	813694976	40	5873
2026-01-28 20:01:27.54	16.05	11.61	-33.4	-34.1	24.8	0.00e+00	0	31	0	818937856	40	5778
2026-01-28 20:01:28.55	15.91	11.67	-33.5	-34.2	24.8	0.00e+00	0	31	0	825229312	40	5846
2026-01-28 20:01:29.55	15.76	11.73	-33.5	-34.2	24.9	0.00e+00	0	31	0	830472192	40	5854
2026-01-28 20:01:30.56	15.62	11.79	-33.3	-33.9	25.0	0.00e+00	0	31	0	836763648	40	5690
2026-01-28 20:01:31.57	15.47	11.85	-33.2	-33.9	25.0	0.00e+00	0	31	0	842006528	40	5670
2026-01-28 20:01:32.58	15.32	11.91	-33.4	-34.1	24.9	0.00e+00	0	31	0	847249408	40	5776
2026-01-28 20:01:33.59	15.17	11.97	-33.4	-34.1	24.9	0.00e+00	0	31	0	853540864	40	5793
2026-01-28 20:01:34.60	15.02	12.03	-33.5	-34.2	24.8	0.00e+00	0	32	0	858783744	40	5829
2026-01-28 20:01:35.60	14.87	12.09	-33.4	-34.1	24.9	0.00e+00	0	31	0	865075200	40	5786
2026-01-28 20:01:36.62	14.72	12.15	-33.5	-34.1	24.8	0.00e+00	0	31	0	870318080	40	5819
2026-01-28 20:01:37.63	14.56	12.21	-33.4	-34.1	24.9	0.00e+00	0	32	0	876609536	40	5775
2026-01-28 20:01:38.64	14.41	12.27	-33.6	-34.3	24.8	0.00e+00	0	31	0	881852416	40	5930
2026-01-28 20:01:39.65	14.26	12.33	-33.2	-33.8	25.2	0.00e+00	0	31	0	887095296	40	5619
2026-01-28 20:01:40.66	14.10	12.39	-33.1	-33.8	25.1	0.00e+00	0	31	0	893386752	40	5612
2026-01-28 20:01:41.67	13.95	12.45	-33.0	-33.7	25.3	0.00e+00	0	31	0	898629632	40	5540
2026-01-28 20:01:42.68	13.80	12.51	-33.0	-33.6	25.3	0.00e+00	0	31	0	904921088	40	5494
2026-01-28 20:01:43.69	13.64	12.57	-33.0	-33.6	25.3	0.00e+00	0	31	0	910163968	40	5498
2026-01-28 20:01:44.70	13.48	12.63	-33.0	-33.7	25.2	0.00e+00	0	31	0	915406848	40	5507
2026-01-28 20:01:45.71	13.33	12.69	-33.1	-33.7	25.2	0.00e+00	0	31	0	921698304	40	5549
2026-01-28 20:01:46.72	13.17	12.75	-33.0	-33.7	25.2	0.00e+00	0	31	0	926941184	40	5535
2026-01-28 20:01:47.72	13.01	12.81	-33.1	-33.7	25.3	0.00e+00	0	31	0	933232640	40	5549
2026-01-28 20:01:48.73	12.85	12.87	-33.0	-33.7	25.3	0.00e+00	0	32	0	938475520	40	5525
2026-01-28 20:01:49.74	12.69	12.92	-33.0	-33.7	25.3	0.00e+00	0	31	0	943718400	40	5507
2026-01-28 20:01:50.75	12.53	12.98	-33.0	-33.7	25.3	0.00e+00	0	32	0	950009856	40	5519
2026-01-28 20:01:51.75	12.37	13.04	-32.9	-33.5	25.4	0.00e+00	0	31	0	955252736	40	5426
2026-01-28 20:01:52.76	12.21	13.10	-33.0	-33.7	25.2	0.00e+00	0	31	0	961544192	40	5527
2026-01-28 20:01:53.78	12.05	13.16	-33.0	-33.7	25.2	0.00e+00	0	31	0	966787072	40	5509
2026-01-28 20:01:54.78	11.89	13.22	-33.0	-33.7	25.3	0.00e+00	0	32	0	973078528	40	5505
2026-01-28 20:01:55.79	11.72	13.28	-33.0	-33.7	25.2	0.00e+00	0	31	0	978321408	40	5505
2026-01-28 20:01:56.80	11.56	13.33	-33.0	-33.7	25.2	0.00e+00	0	32	0	983564288	40	5507
2026-01-28 20:01:57.81	11.39	13.39	-32.7	-33.4	25.5	0.00e+00	0	31	0	989855744	38	6003
2026-01-28 20:01:58.82	11.23	13.45	-32.8	-33.4	25.5	0.00e+00	0	31	0	995098624	38	6022
2026-01-28 20:01:59.83	11.06	13.51	-32.6	-33.3	25.6	0.00e+00	0	31	0	1001390080	38	5935
2026-01-28 20:02:00.84	10.89	13.57	-32.6	-33.2	25.7	0.00e+00	0	32	0	1006632960	38	5876
2026-01-28 20:02:01.85	10.73	13.63	-32.5	-33.2	25.7	0.00e+00	0	32	0	1011875840	38	5834
2026-01-28 20:02:02.86	10.56	13.68	-32.7	-33.3	25.6	0.00e+00	0	31	0	1018167296	38	5959
2026-01-28 20:02:03.87	10.39	13.74	-32.9	-33.5	25.3	0.00e+00	0	31	0	1023410176	38	6084
2026-01-28 20:02:04.87	10.22	13.80	-33.0	-33.7	25.3	0.00e+00	0	31	0	1029701632	38	6182
2026-01-28 20:02:05.89	10.05	13.86	-33.2	-33.8	25.2	0.00e+00	0	31	0	1034944512	38	6295
2026-01-28 20:02:06.90	9.88	13.91	-33.2	-33.9	25.1	0.00e+00	0	31	0	1040187392	38	6325
2026-01-28 20:02:07.91	9.71	13.97	-33.1	-33.8	25.2	0.00e+00	0	32	0	1046478848	38	6270
2026-01-28 20:02:08.91	9.54	14.03	-33.1	-33.8	25.1	0.00e+00	0	31	0	1051721728	38	6316
2026-01-28 20:02:09.92	9.36	14.08	-33.1	-33.7	25.3	0.00e+00	0	32	0	1058013184	38	6236
2026-01-28 20:02:10.93	9.19	14.14	-32.8	-33.5	25.5	0.00e+00	0	31	0	1063256064	38	6077
2026-01-28 20:02:11.94	9.02	14.20	-32.8	-33.5	25.5	0.00e+00	0	31	0	1069547520	38	6058
2026-01-28 20:02:12.95	8.84	14.25	-32.7	-33.3	25.6	0.00e+00	0	31	0	1074790400	38	5939
2026-01-28 20:02:13.96	8.67	14.31	-32.7	-33.4	25.6	0.00e+00	0	31	0	1081081856	38	5979
2026-01-28 20:02:14.97	8.49	14.37	-32.7	-33.3	25.6	0.00e+00	0	31	0	1086324736	38	5963
2026-01-28 20:02:15.98	8.31	14.42	-32.6	-33.3	25.7	0.00e+00	0	31	0	1091567616	38	5927
2026-01-28 20:02:16.99	8.13	14.48	-32.5	-33.1	25.8	0.00e+00	0	31	0	1097859072	38	5813
2026-01-28 20:02:18.00	7.96	14.53	-32.3	-33.0	25.9	0.00e+00	0	31	0	1103101952	38	5698
2026-01-28 20:02:19.01	7.78	14.59	-32.4	-33.1	25.8	0.00e+00	0	32	0	1108344832	38	5782
2026-01-28 20:02:20.02	7.60	14.65	-32.2	-32.9	26.0	0.00e+00	0	31	0	1114636288	38	5655
2026-01-28 20:02:21.03	7.42	14.70	-32.1	-32.8	26.1	0.00e+00	0	31	0	1119879168	38	5583
2026-01-28 20:02:22.04	7.24	14.76	-32.2	-32.8	26.1	0.00e+00	0	31	0	1126170624	38	5596
2026-01-28 20:02:23.05	7.05	14.81	-32.2	-32.8	26.0	0.00e+00	0	31	0	1131413504	38	5627
2026-01-28 20:02:24.06	6.87	14.87	-32.4	-33.1	25.9	0.00e+00	0	31	0	1136656384	38	5772
2026-01-28 20:02:25.07	6.69	14.92	-32.4	-33.1	25.8	0.00e+00	0	31	0	1142947840	38	5774
2026-01-28 20:02:26.07	6.51	14.97	-32.5	-33.1	25.7	0.00e+00	0	31	0	1148190720	38	5804
2026-01-28 20:02:27.08	6.32	15.03	-32.3	-32.9	25.9	0.00e+00	0	31	0	1154482176	38	5684
2026-01-28 20:02:28.09	6.14	15.08	-32.3	-33.0	25.9	0.00e+00	0	31	0	1159725056	38	5712
2026-01-28 20:02:29.10	5.95	15.14	-32.3	-32.9	26.0	0.00e+00	0	31	0	1166016512	38	5681
2026-01-28 20:02:30.11	5.76	15.19	-32.3	-32.9	25.9	0.00e+00	0	31	0	1171259392	38	5647
2026-01-28 20:02:31.12	5.58	15.24	-32.1	-32.8	26.0	0.00e+00	0	31	0	1177550848	38	5583
2026-01-28 20:02:32.13	5.39	15.30	-32.1	-32.7	26.1	0.00e+00	0	31	0	1182793728	38	5525
2026-01-28 20:02:33.14	5.20	15.35	-32.1	-32.7	26.2	0.00e+00	0	31	0	1188036608	38	5539
2026-01-28 20:02:34.15	5.01	15.40	-32.1	-32.8	26.1	0.00e+00	0	31	0	1194328064	38	5567
2026-01-28 20:02:35.16	4.82	15.46	-32.1	-32.7	26.1	0.00e+00	0	31	0	1199570944	38	5561
2026-01-28 20:02:36.17	4.63	15.51	-32.3	-32.9	26.0	0.00e+00	0	31	0	1205862400	38	5667
2026-01-28 20:02:37.18	4.44	15.56	-32.3	-33.0	25.9	0.00e+00	0	32	0	1211105280	38	5722
2026-01-28 20:02:38.19	4.25	15.61	-32.5	-33.2	25.7	0.00e+00	0	31	0	1216348160	38	5838
2026-01-28 20:02:39.20	4.05	15.67	-32.4	-33.1	25.8	0.00e+00	0	31	0	1222639616	38	5787
2026-01-28 20:02:40.21	3.86	15.72	-32.4	-33.1	25.8	0.00e+00	0	31	0	1227882496	38	5788
2026-01-28 20:02:41.22	3.67	15.77	-32.2	-32.9	26.0	0.00e+00	0	31	0	1234173952	38	5649
2026-01-28 20:02:42.23	3.47	15.82	-32.1	-32.8	26.1	0.00e+00	0	31	0	1239416832	38	5578
2026-01-28 20:02:43.24	3.28	15.87	-32.0	-32.6	26.2	0.00e+00	0	31	0	1244659712	38	5467
2026-01-28 20:02:44.25	3.08	15.92	-32.0	-32.6	26.3	0.00e+00	0	31	0	1250951168	38	5464
2026-01-28 20:02:45.26	2.88	15.97	-32.0	-32.6	26.2	0.00e+00	0	31	0	1256194048	38	5483
2026-01-28 20:02:46.27	2.69	16.02	-32.1	-32.7	26.2	0.00e+00	0	31	0	1262485504	38	5532
2026-01-28 20:02:47.27	2.49	16.07	-32.1	-32.7	26.2	0.00e+00	0	31	0	1267728384	38	5560
2026-01-28 20:02:48.28	2.29	16.12	-32.2	-32.9	26.1	0.00e+00	0	31	0	1274019840	38	5652
2026-01-28 20:02:49.29	2.09	16.17	-32.1	-32.7	26.2	0.00e+00	0	31	0	1279262720	38	5560
2026-01-28 20:02:50.30	1.89	16.22	-32.1	-32.7	26.2	0.00e+00	0	31	0	1284505600	38	5549
2026-01-28 20:02:51.31	1.69	16.27	-32.1	-32.7	26.1	0.00e+00	0	32	0	1290797056	38	5558
2026-01-28 20:02:52.32	1.49	16.32	-31.9	-32.6	26.3	0.00e+00	0	31	0	1296039936	38	5459
2026-01-28 20:02:53.33	1.29	16.37	-31.9	-32.5	26.3	0.00e+00	0	31	0	1302331392	38	5435
2026-01-28 20:02:54.34	1.08	16.42	-31.9	-32.6	26.4	0.00e+00	0	32	0	1307574272	38	5446
2026-01-28 20:02:55.35	0.88	16.46	-31.9	-32.6	26.4	0.00e+00	0	31	0	1312817152	38	5448
2026-01-28 20:02:56.36	0.68	16.51	-31.9	-32.5	26.3	0.00e+00	0	32	0	1319108608	38	5423
2026-01-28 20:02:57.37	0.47	16.56	-31.9	-32.5	26.4	0.00e+00	0	32	0	1324351488	38	5420
2026-01-28 20:02:58.38	0.27	16.61	-31.7	-32.4	26.4	0.00e+00	0	32	0	1330642944	38	5339
2026-01-28 20:02:59.39	0.06	16.65	-31.9	-32.6	26.4	0.00e+00	0	32	0	1335885824	36	6116
2026-01-28 20:03:00.38	359.86	16.70	-31.9	-32.6	26.3	0.00e+00	0	32	0	1341128704	36	6122
2026-01-28 20:03:01.38	359.65	16.74	-31.8	-32.4	26.5	0.00e+00	0	31	0	1347420160	36	6008
2026-01-28 20:03:02.39	359.44	16.79	-31.9	-32.5	26.3	0.00e+00	0	32	0	1352663040	36	6102
2026-01-28 20:03:03.40	359.23	16.84	-31.9	-32.5	26.4	0.00e+00	0	32	0	1358954496	36	6051
2026-01-28 20:03:04.41	359.03	16.88	-32.0	-32.6	26.4	0.00e+00	0	32	0	1364197376	36	6127
2026-01-28 20:03:05.43	358.81	16.93	-32.0	-32.6	26.3	0.00e+00	0	31	0	1370488832	36	6136
2026-01-28 20:03:06.44	358.60	16.97	-31.9	-32.6	26.3	0.00e+00	0	31	0	1375731712	36	6106
2026-01-28 20:03:07.44	358.39	17.02	-31.8	-32.4	26.4	0.00e+00	0	31	0	1380974592	36	6015
2026-01-28 20:03:08.45	358.18	17.06	-31.6	-32.2	26.6	0.00e+00	0	32	0	1387266048	36	5876
2026-01-28 20:03:09.46	357.97	17.10	-31.6	-32.2	26.6	0.00e+00	0	31	0	1392508928	36	5888
2026-01-28 20:03:10.47	357.76	17.15	-31.6	-32.2	26.6	0.00e+00	0	32	0	1398800384	36	5882
2026-01-28 20:03:11.48	357.54	17.19	-31.6	-32.3	26.5	0.00e+00	0	31	0	1404043264	36	5912
2026-01-28 20:03:12.49	357.33	17.23	-31.9	-32.5	26.4	0.00e+00	0	31	0	1409286144	36	6072
2026-01-28 20:03:13.50	357.11	17.28	-31.7	-32.3	26.5	0.00e+00	0	31	0	1415577600	36	5943
2026-01-28 20:03:14.51	356.90	17.32	-31.6	-32.3	26.6	0.00e+00	0	31	0	1420820480	36	5908
2026-01-28 20:03:15.52	356.68	17.36	-31.5	-32.2	26.7	0.00e+00	0	31	0	1427111936	36	5838
2026-01-28 20:03:16.53	356.46	17.40	-31.6	-32.3	26.5	0.00e+00	0	32	0	1432354816	36	5904
2026-01-28 20:03:17.54	356.25	17.44	-31.4	-32.0	26.8	0.00e+00	0	32	0	1437597696	36	5739
2026-01-28 20:03:18.55	356.03	17.48	-31.4	-32.0	26.7	0.00e+00	0	31	0	1443889152	36	5754
2026-01-28 20:03:19.56	355.81	17.52	-31.4	-32.1	26.8	0.00e+00	0	31	0	1449132032	36	5771
2026-01-28 20:03:20.57	355.59	17.56	-31.5	-32.1	26.7	0.00e+00	0	31	0	1455423488	36	5812
2026-01-28 20:03:21.58	355.37	17.60	-31.5	-32.2	26.7	0.00e+00	0	32	0	1460666368	36	5832
2026-01-28 20:03:22.59	355.15	17.64	-31.7	-32.4	26.6	0.00e+00	0	31	0	1466957824	36	5971
2026-01-28 20:03:23.60	354.93	17.68	-31.5	-32.2	26.7	0.00e+00	0	31	0	1472200704	36	5843
2026-01-28 20:03:24.61	354.71	17.72	-31.7	-32.3	26.5	0.00e+00	0	31	0	1477443584	36	5948
2026-01-28 20:03:25.61	354.49	17.76	-31.5	-32.1	26.7	0.00e+00	0	31	0	1483735040	36	5780
2026-01-28 20:03:26.63	354.26	17.80	-31.4	-32.1	26.8	0.00e+00	0	31	0	1488977920	36	5792
2026-01-28 20:03:27.63	354.04	17.83	-31.3	-32.0	26.8	0.00e+00	0	31	0	1495269376	36	5707
2026-01-28 20:03:28.65	353.82	17.87	-31.3	-31.9	26.8	0.00e+00	0	31	0	1500512256	36	5695
2026-01-28 20:03:29.66	353.59	17.91	-31.2	-31.9	26.9	0.00e+00	0	31	0	1505755136	36	5633
2026-01-28 20:03:30.67	353.37	17.94	-31.3	-31.9	26.9	0.00e+00	0	31	0	1512046592	36	5652
2026-01-28 20:03:31.68	353.14	17.98	-31.5	-32.1	26.7	0.00e+00	0	31	0	1517289472	36	5797
2026-01-28 20:03:32.69	352.92	18.01	-31.5	-32.1	26.7	0.00e+00	0	31	0	1523580928	36	5813
2026-01-28 20:03:33.70	352.69	18.05	-31.6	-32.2	26.6	0.00e+00	0	31	0	1528823808	36	5892
2026-01-28 20:03:34.71	352.46	18.08	-31.5	-32.1	26.7	0.00e+00	0	31	0	1534066688	36	5821
2026-01-28 20:03:35.72	352.24	18.12	-31.4	-32.1	26.8	0.00e+00	0	32	0	1540358144	36	5770
2026-01-28 20:03:36.73	352.01	18.15	-31.5	-32.2	26.6	0.00e+00	0	31	0	1545601024	36	5848
2026-01-28 20:03:37.73	351.78	18.18	-31.4	-32.1	26.8	0.00e+00	0	31	0	1551892480	36	5777
2026-01-28 20:03:38.74	351.55	18.22	-31.4	-32.0	26.7	0.00e+00	0	31	0	1557135360	36	5751
2026-01-28 20:03:39.75	351.32	18.25	-31.4	-32.0	26.8	0.00e+00	0	31	0	1563426816	36	5761
2026-01-28 20:03:40.77	351.09	18.28	-31.5	-32.1	26.8	0.00e+00	0	32	0	1568669696	36	5778
2026-01-28 20:03:41.78	350.86	18.31	-31.3	-32.0	26.9	0.00e+00	0	31	0	1574961152	36	5705
2026-01-28 20:03:42.79	350.63	18.34	-31.3	-31.9	26.9	0.00e+00	0	31	0	1580204032	36	5692
2026-01-28 20:03:43.79	350.40	18.37	-31.4	-32.0	26.9	0.00e+00	0	31	0	1585446912	36	5724
2026-01-28 20:03:44.80	350.17	18.40	-31.2	-31.9	26.9	0.00e+00	0	31	0	1591738368	36	5637
2026-01-28 20:03:45.81	349.94	18.43	-31.2	-31.8	27.0	0.00e+00	0	31	0	1596981248	36	5576
2026-01-28 20:03:46.82	349.70	18.46	-31.2	-31.9	26.9	0.00e+00	0	31	0	1603272704	36	5634
2026-01-28 20:03:47.83	349.47	18.49	-31.3	-31.9	26.9	0.00e+00	0	31	0	1608515584	36	5677
2026-01-28 20:03:48.84	349.24	18.52	-31.3	-31.9	26.9	0.00e+00	0	32	0	1613758464	36	5684
2026-01-28 20:03:49.85	349.00	18.55	-31.4	-32.0	26.8	0.00e+00	0	31	0	1620049920	36	5760
2026-01-28 20:03:50.86	348.77	18.58	-31.6	-32.2	26.7	0.00e+00	0	31	0	1625292800	36	5891
2026-01-28 20:03:51.87	348.53	18.60	-31.3	-32.0	26.8	0.00e+00	0	31	0	1631584256	36	5703
2026-01-28 20:03:52.88	348.30	18.63	-31.5	-32.1	26.6	0.00e+00	0	31	0	1636827136	36	5805
2026-01-28 20:03:53.88	348.06	18.66	-31.2	-31.8	26.9	0.00e+00	0	31	0	1642070016	36	5588
2026-01-28 20:03:54.89	347.83	18.68	-31.3	-31.9	26.9	0.00e+00	0	31	0	1648361472	36	5659
2026-01-28 20:03:55.90	347.59	18.71	-31.3	-31.9	26.9	0.00e+00	0	31	0	1653604352	36	5663
2026-01-28 20:03:56.91	347.35	18.73	-31.3	-31.9	26.9	0.00e+00	0	31	0	1659895808	36	5674
2026-01-28 20:03:57.92	347.11	18.75	-31.2	-31.8	26.9	0.00e+00	0	31	0	1665138688	36	5619
2026-01-28 20:03:58.93	346.88	18.78	-31.0	-31.7	27.2	0.00e+00	0	31	0	1671430144	36	5503
2026-01-28 20:03:59.94	346.64	18.80	-31.0	-31.6	27.2	0.00e+00	0	32	0	1676673024	36	5489
2026-01-28 20:04:00.95	346.40	18.82	-31.0	-31.6	27.1	0.00e+00	0	31	0	1681915904	36	5467
2026-01-28 20:04:01.96	346.16	18.85	-30.9	-31.5	27.2	0.00e+00	0	31	0	1688207360	36	5390
2026-01-28 20:04:02.97	345.92	18.87	-30.9	-31.6	27.2	0.00e+00	0	31	0	1693450240	36	5459
2026-01-28 20:04:03.98	345.68	18.89	-30.8	-31.4	27.3	0.00e+00	0	31	0	1699741696	36	5357
2026-01-28 20:04:04.99	345.44	18.91	-30.9	-31.6	27.2	0.00e+00	0	31	0	1704984576	36	5460
2026-01-28 20:04:06.00	345.20	18.93	-30.9	-31.5	27.1	0.00e+00	0	32	0	1710227456	36	5393
2026-01-28 20:04:07.01	344.96	18.95	-31.0	-31.6	27.1	0.00e+00	0	32	0	1716518912	36	5487
2026-01-28 20:04:08.02	344.72	18.97	-31.0	-31.7	27.0	0.00e+00	0	32	0	1721761792	36	5510
2026-01-28 20:04:09.03	344.48	18.99	-31.1	-31.7	27.0	0.00e+00	0	32	0	1728053248	36	5531
2026-01-28 20:04:10.04	344.24	19.01	-31.1	-31.7	27.1	0.00e+00	0	31	0	1733296128	36	5523
2026-01-28 20:04:11.04	344.00	19.02	-31.2	-31.7	27.0	0.00e+00	0	32	0	1738539008	36	5563
2026-01-28 20:04:12.05	343.76	19.04	-31.1	-31.8	27.0	0.00e+00	0	32	0	1744830464	36	5580
2026-01-28 20:04:13.06	343.51	19.06	-31.1	-31.7	27.0	0.00e+00	0	31	0	1750073344	36	5545
2026-01-28 20:04:14.07	343.27	19.07	-31.1	-31.7	27.1	0.00e+00	0	31	0	1756364800	36	5551
2026-01-28 20:04:15.08	343.03	19.09	-31.1	-31.8	27.0	0.00e+00	0	32	0	1761607680	36	5581
2026-01-28 20:04:16.09	342.78	19.10	-31.1	-31.7	27.1	0.00e+00	0	32	0	1767899136	36	5512
2026-01-28 20:04:17.10	342.54	19.12	-31.1	-31.7	27.0	0.00e+00	0	32	0	1773142016	36	5549
2026-01-28 20:04:18.11	342.30	19.13	-31.0	-31.7	27.1	0.00e+00	0	31	0	1779433472	36	5517
2026-01-28 20:04:19.12	342.05	19.14	-31.1	-31.7	27.0	0.00e+00	0	32	0	1784676352	36	5538
2026-01-28 20:04:20.13	341.81	19.16	-31.0	-31.7	27.0	0.00e+00	0	31	0	1789919232	36	5524
2026-01-28 20:04:21.14	341.57	19.17	-30.9	-31.5	27.2	0.00e+00	0	32	0	1796210688	36	5425
2026-01-28 20:04:22.15	341.32	19.18	-31.0	-31.6	27.2	0.00e+00	0	31	0	1801453568	36	5487
2026-01-28 20:04:23.16	341.08	19.19	-30.9	-31.5	27.2	0.00e+00	0	31	0	1807745024	36	5436
2026-01-28 20:04:24.17	340.83	19.20	-31.0	-31.6	27.1	0.00e+00	0	31	0	1812987904	36	5493
2026-01-28 20:04:25.18	340.59	19.21	-31.1	-31.7	27.0	0.00e+00	0	31	0	1818230784	36	5563
2026-01-28 20:04:26.19	340.34	19.22	-31.0	-31.7	27.1	0.00e+00	0	32	0	1824522240	36	5547
2026-01-28 20:04:27.20	340.10	19.23	-31.0	-31.7	27.0	0.00e+00	0	32	0	1829765120	36	5524
2026-01-28 20:04:28.21	339.85	19.24	-31.0	-31.6	27.1	0.00e+00	0	31	0	1836056576	36	5484
2026-01-28 20:04:29.22	339.60	19.25	-31.0	-31.7	27.1	0.00e+00	0	31	0	1841299456	36	5539
2026-01-28 20:04:30.23	339.36	19.25	-31.0	-31.6	27.0	0.00e+00	0	32	0	1846542336	36	5491
2026-01-28 20:04:31.24	339.11	19.26	-31.0	-31.7	27.0	0.00e+00	0	32	0	1852833792	36	5518
2026-01-28 20:04:32.25	338.87	19.27	-30.9	-31.5	27.1	0.00e+00	0	31	0	1858076672	36	5436
2026-01-28 20:04:33.26	338.62	19.27	-31.0	-31.6	27.1	0.00e+00	0	32	0	1864368128	36	5456
2026-01-28 20:04:34.27	338.38	19.28	-30.9	-31.5	27.1	0.00e+00	0	31	0	1869611008	36	5421
2026-01-28 20:04:35.28	338.13	19.28	-31.0	-31.6	27.1	0.00e+00	0	32	0	1875902464	36	5500
2026-01-28 20:04:36.28	337.89	19.29	-31.0	-31.6	27.1	0.00e+00	0	31	0	1881145344	36	5491
2026-01-28 20:04:37.29	337.64	19.29	-31.0	-31.7	27.1	0.00e+00	0	31	0	1886388224	36	5507
2026-01-28 20:04:38.31	337.39	19.29	-31.1	-31.7	27.1	0.00e+00	0	31	0	1892679680	36	5511
2026-01-28 20:04:39.31	337.15	19.30	-30.9	-31.5	27.1	0.00e+00	0	31	0	1897922560	36	5416
2026-01-28 20:04:40.32	336.90	19.30	-30.9	-31.6	27.1	0.00e+00	0	31	0	1904214016	36	5450
2026-01-28 20:04:41.33	336.65	19.30	-30.9	-31.6	27.2	0.00e+00	0	32	0	1909456896	36	5457
2026-01-28 20:04:42.34	336.41	19.30	-31.0	-31.5	27.1	0.00e+00	0	31	0	1914699776	36	5435
2026-01-28 20:04:43.36	336.16	19.30	-30.9	-31.6	27.2	0.00e+00	0	31	0	1920991232	36	5454
2026-01-28 20:04:44.36	335.91	19.30	-30.9	-31.6	27.1	0.00e+00	0	32	0	1926234112	36	5469
2026-01-28 20:04:45.37	335.67	19.30	-30.9	-31.5	27.2	0.00e+00	0	31	0	1932525568	36	5439
2026-01-28 20:04:46.38	335.42	19.30	-31.1	-31.7	27.1	0.00e+00	0	32	0	1937768448	36	5537
2026-01-28 20:04:47.40	335.17	19.30	-31.0	-31.6	27.2	0.00e+00	0	31	0	1943011328	36	5488
2026-01-28 20:04:48.41	334.93	19.29	-31.1	-31.7	27.0	0.00e+00	0	32	0	1949302784	36	5511
2026-01-28 20:04:49.42	334.68	19.29	-31.1	-31.7	26.9	0.00e+00	0	31	0	1954545664	36	5551
2026-01-28 20:04:50.43	334.43	19.29	-31.1	-31.7	27.0	0.00e+00	0	31	0	1960837120	36	5549
2026-01-28 20:04:51.44	334.19	19.28	-31.1	-31.7	26.9	0.00e+00	0	31	0	1966080000	36	5533
2026-01-28 20:04:52.45	333.94	19.28	-31.1	-31.7	26.9	0.00e+00	0	32	0	1972371456	36	5548
2026-01-28 20:04:53.46	333.69	19.27	-31.1	-31.7	27.0	0.00e+00	0	32	0	1977614336	36	5535
2026-01-28 20:04:54.47	333.45	19.27	-31.1	-31.7	26.9	0.00e+00	0	31	0	1983905792	36	5561
2026-01-28 20:04:55.48	333.20	19.26	-31.1	-31.7	27.1	0.00e+00	0	31	0	1989148672	36	5540
2026-01-28 20:04:56.49	332.96	19.25	-31.0	-31.6	27.2	0.00e+00	0	32	0	1994391552	36	5471
2026-01-28 20:04:57.50	332.71	19.25	-30.9	-31.5	27.2	0.00e+00	0	32	0	2000683008	36	5432
2026-01-28 20:04:58.51	332.46	19.24	-30.9	-31.6	27.2	0.00e+00	0	31	0	2005925888	36	5463
2026-01-28 20:04:59.51	332.22	19.23	-30.8	-31.4	27.2	0.00e+00	0	31	0	2012217344	36	5366
2026-01-28 20:05:00.52	331.98	19.22	-30.8	-31.4	27.2	0.00e+00	0	32	0	2017460224	36	5324
2026-01-28 20:05:01.53	331.73	19.21	-30.9	-31.5	27.2	0.00e+00	0	32	0	2022703104	36	5393
2026-01-28 20:05:02.54	331.49	19.20	-31.0	-31.6	27.1	0.00e+00	0	32	0	2028994560	36	5479
2026-01-28 20:05:03.55	331.24	19.19	-31.2	-31.9	26.9	0.00e+00	0	31	0	2034237440	36	5651
2026-01-28 20:05:04.55	331.00	19.18	-31.0	-31.6	27.1	0.00e+00	0	31	0	2039480320	36	5488
2026-01-28 20:05:05.57	330.75	19.17	-31.0	-31.7	27.1	0.00e+00	0	31	0	2045771776	36	5503
2026-01-28 20:05:06.58	330.51	19.15	-31.0	-31.6	27.2	0.00e+00	0	31	0	2051014656	36	5474
2026-01-28 20:05:07.59	330.26	19.14	-31.0	-31.7	27.1	0.00e+00	0	31	0	2057306112	36	5509
2026-01-28 20:05:08.60	330.02	19.13	-30.9	-31.5	27.2	0.00e+00	0	31	0	2062548992	36	5407
2026-01-28 20:05:09.61	329.78	19.11	-31.0	-31.6	27.2	0.00e+00	0	31	0	2068840448	36	5452
2026-01-28 20:05:10.62	329.53	19.10	-31.0	-31.6	27.2	0.00e+00	0	31	0	2074083328	36	5469
2026-01-28 20:05:11.63	329.29	19.08	-31.1	-31.7	27.0	0.00e+00	0	31	0	2080374784	36	5544
2026-01-28 20:05:12.64	329.05	19.07	-31.0	-31.7	27.1	0.00e+00	0	32	0	2085617664	36	5535
2026-01-28 20:05:13.64	328.81	19.05	-31.2	-31.8	26.9	0.00e+00	0	31	0	2090860544	36	5617
2026-01-28 20:05:14.66	328.56	19.03	-31.2	-31.8	27.0	0.00e+00	0	31	0	2097152000	36	5597
2026-01-28 20:05:15.66	328.32	19.02	-31.1	-31.8	27.0	0.00e+00	0	31	0	2102394880	36	5574
2026-01-28 20:05:16.68	328.08	19.00	-31.2	-31.8	27.0	0.00e+00	0	31	0	2108686336	36	5593
2026-01-28 20:05:17.68	327.84	18.98	-31.0	-31.6	27.1	0.00e+00	0	31	0	2113929216	36	5480
2026-01-28 20:05:18.69	327.60	18.96	-31.0	-31.6	27.1	0.00e+00	0	31	0	2119172096	36	5476
2026-01-28 20:05:19.70	327.36	18.94	-31.0	-31.7	27.1	0.00e+00	0	31	0	2125463552	36	5526
2026-01-28 20:05:20.71	327.12	18.92	-31.1	-31.7	27.0	0.00e+00	0	31	0	2130706432	36	5557
2026-01-28 20:05:21.72	326.87	18.90	-31.2	-31.8	27.1	0.00e+00	0	31	0	2136997888	36	5597
2026-01-28 20:05:22.73	326.63	18.88	-31.1	-31.7	27.0	0.00e+00	0	31	0	2142240768	36	5557
2026-01-28 20:05:23.74	326.39	18.86	-31.3	-31.9	26.8	0.00e+00	0	31	0	2147483648	36	5635
2026-01-28 20:05:24.75	326.16	18.84	-31.4	-32.1	26.8	0.00e+00	0	31	0	2153775104	36	5772
2026-01-28 20:05:25.76	325.92	18.82	-31.4	-31.9	26.9	0.00e+00	0	31	0	2159017984	36	5691
2026-01-28 20:05:26.77	325.68	18.79	-31.5	-32.1	26.7	0.00e+00	0	31	0	2165309440	36	5802
2026-01-28 20:05:27.78	325.44	18.77	-31.6	-32.2	26.6	0.00e+00	0	32	0	2170552320	36	5842
2026-01-28 20:05:28.79	325.20	18.75	-31.5	-32.1	26.8	0.00e+00	0	32	0	2176843776	36	5780
2026-01-28 20:05:29.81	324.96	18.72	-31.4	-32.0	26.8	0.00e+00	0	31	0	2182086656	36	5750
2026-01-28 20:05:30.81	324.73	18.70	-31.2	-31.9	27.0	0.00e+00	0	31	0	2188378112	36	5671
2026-01-28 20:05:31.82	324.49	18.67	-31.2	-31.9	26.9	0.00e+00	0	32	0	2193620992	36	5687
2026-01-28 20:05:32.83	324.25	18.65	-31.3	-32.0	26.9	0.00e+00	0	32	0	2198863872	36	5727
2026-01-28 20:05:33.84	324.02	18.62	-31.3	-31.9	26.9	0.00e+00	0	31	0	2205155328	36	5648
2026-01-28 20:05:34.86	323.78	18.59	-31.4	-32.0	26.8	0.00e+00	0	31	0	2210398208	36	5748
2026-01-28 20:05:35.86	323.55	18.57	-31.4	-31.9	26.8	0.00e+00	0	31	0	2216689664	36	5667
2026-01-28 20:05:36.87	323.31	18.54	-31.4	-32.1	26.8	0.00e+00	0	31	0	2221932544	36	5767
2026-01-28 20:05:37.88	323.08	18.51	-31.5	-32.1	26.7	0.00e+00	0	32	0	2227175424	36	5801
2026-01-28 20:05:38.89	322.84	18.48	-31.7	-32.4	26.5	0.00e+00	0	31	0	2233466880	36	5984
2026-01-28 20:05:39.90	322.61	18.45	-31.4	-32.1	26.8	0.00e+00	0	32	0	2238709760	36	5808
2026-01-28 20:05:40.91	322.38	18.43	-31.4	-32.0	26.8	0.00e+00	0	31	0	2243952640	36	5699
2026-01-28 20:05:41.91	322.15	18.40	-31.5	-32.1	26.7	0.00e+00	0	31	0	2250244096	36	5771
2026-01-28 20:05:42.93	321.91	18.37	-31.3	-31.9	26.9	0.00e+00	0	32	0	2255486976	36	5652
2026-01-28 20:05:43.93	321.68	18.33	-31.2	-31.8	27.0	0.00e+00	0	31	0	2261778432	36	5578
2026-01-28 20:05:44.94	321.45	18.30	-31.2	-31.9	27.0	0.00e+00	0	31	0	2267021312	36	5632
2026-01-28 20:05:45.95	321.22	18.27	-31.2	-31.9	27.0	0.00e+00	0	31	0	2273312768	36	5650
2026-01-28 20:05:46.96	320.99	18.24	-31.2	-31.8	26.9	0.00e+00	0	31	0	2278555648	36	5606
2026-01-28 20:05:47.97	320.76	18.21	-31.2	-31.8	26.9	0.00e+00	0	31	0	2284847104	36	5616
2026-01-28 20:05:48.98	320.53	18.17	-31.2	-31.8	26.9	0.00e+00	0	31	0	2290089984	36	5577
2026-01-28 20:05:49.99	320.30	18.14	-31.0	-31.6	27.0	0.00e+00	0	31	0	2295332864	36	5467
2026-01-28 20:05:51.00	320.08	18.11	-31.1	-31.8	27.0	0.00e+00	0	31	0	2301624320	36	5625
2026-01-28 20:05:52.01	319.85	18.07	-31.3	-32.0	26.8	0.00e+00	0	31	0	2306867200	36	5728
2026-01-28 20:05:53.02	319.62	18.04	-31.4	-32.0	26.8	0.00e+00	0	31	0	2313158656	36	5700
2026-01-28 20:05:54.03	319.39	18.00	-31.5	-32.1	26.7	0.00e+00	0	31	0	2318401536	36	5767
2026-01-28 20:05:55.04	319.17	17.97	-31.5	-32.1	26.7	0.00e+00	0	31	0	2323644416	36	5805
2026-01-28 20:05:56.05	318.94	17.93	-31.4	-32.0	26.7	0.00e+00	0	31	0	2329935872	36	5744
2026-01-28 20:05:57.06	318.72	17.89	-31.5	-32.1	26.7	0.00e+00	0	31	0	2335178752	36	5819
2026-01-28 20:05:58.07	318.49	17.86	-31.4	-31.9	26.9	0.00e+00	0	32	0	2341470208	36	5683
2026-01-28 20:05:59.08	318.27	17.82	-31.4	-32.1	26.8	0.00e+00	0	31	0	2346713088	36	5766
2026-01-28 20:06:00.09	318.05	17.78	-31.5	-32.2	26.7	0.00e+00	0	31	0	2351955968	36	5850
2026-01-28 20:06:01.10	317.82	17.75	-31.5	-32.2	26.7	0.00e+00	0	32	0	2358247424	36	5837
2026-01-28 20:06:02.11	317.60	17.71	-31.5	-32.1	26.8	0.00e+00	0	32	0	2363490304	36	5792
2026-01-28 20:06:03.12	317.38	17.67	-31.3	-31.9	26.8	0.00e+00	0	32	0	2369781760	36	5683
2026-01-28 20:06:04.13	317.16	17.63	-31.2	-31.9	26.9	0.00e+00	0	32	0	2375024640	36	5650
2026-01-28 20:06:05.13	316.94	17.59	-31.2	-31.9	26.9	0.00e+00	0	31	0	2381316096	36	5641
2026-01-28 20:06:06.14	316.72	17.55	-31.3	-31.9	26.9	0.00e+00	0	32	0	2386558976	36	5664
2026-01-28 20:06:07.15	316.50	17.51	-31.4	-32.1	26.8	0.00e+00	0	31	0	2391801856	36	5784
2026-01-28 20:06:08.16	316.28	17.47	-31.5	-32.1	26.8	0.00e+00	0	31	0	2398093312	36	5770
2026-01-28 20:06:09.17	316.06	17.43	-31.6	-32.1	26.6	0.00e+00	0	31	0	2403336192	36	5808
2026-01-28 20:06:10.18	315.85	17.39	-31.7	-32.3	26.5	0.00e+00	0	31	0	2409627648	36	5942
2026-01-28 20:06:11.19	315.63	17.35	-31.6	-32.3	26.6	0.00e+00	0	32	0	2414870528	36	5903
2026-01-28 20:06:12.20	315.41	17.30	-31.5	-32.1	26.6	0.00e+00	0	31	0	2420113408	36	5795
2026-01-28 20:06:13.21	315.20	17.26	-31.6	-32.3	26.6	0.00e+00	0	31	0	2426404864	36	5908
2026-01-28 20:06:14.22	314.98	17.22	-31.5	-32.2	26.6	0.00e+00	0	31	0	2431647744	36	5840
2026-01-28 20:06:15.23	314.77	17.18	-31.5	-32.1	26.7	0.00e+00	0	31	0	2437939200	36	5789
2026-01-28 20:06:16.24	314.55	17.13	-31.5	-32.1	26.6	0.00e+00	0	31	0	2443182080	36	5815
2026-01-28 20:06:17.25	314.34	17.09	-31.6	-32.3	26.5	0.00e+00	0	31	0	2448424960	36	5922
2026-01-28 20:06:18.26	314.13	17.05	-31.8	-32.5	26.4	0.00e+00	0	31	0	2454716416	36	6037
2026-01-28 20:06:19.27	313.92	17.00	-32.0	-32.7	26.2	0.00e+00	0	32	0	2459959296	36	6193
2026-01-28 20:06:20.28	313.71	16.96	-32.0	-32.6	26.3	0.00e+00	0	32	0	2466250752	36	6119
2026-01-28 20:06:21.28	313.50	16.91	-31.9	-32.5	26.3	0.00e+00	0	32	0	2471493632	36	6099
2026-01-28 20:06:22.29	313.29	16.87	-31.8	-32.5	26.4	0.00e+00	0	31	0	2477785088	36	6053
2026-01-28 20:06:23.30	313.08	16.82	-31.8	-32.5	26.4	0.00e+00	0	31	0	2483027968	36	6086
2026-01-28 20:06:24.31	312.87	16.78	-31.9	-32.5	26.4	0.00e+00	0	32	0	2489319424	36	6047
2026-01-28 20:06:25.32	312.66	16.73	-31.9	-32.5	26.4	0.00e+00	0	32	0	2494562304	36	6101
2026-01-28 20:06:26.33	312.45	16.68	-32.0	-32.8	26.3	0.00e+00	0	32	0	2499805184	36	6249
2026-01-28 20:06:27.34	312.25	16.64	-32.1	-32.8	26.3	0.00e+00	0	32	0	2506096640	36	6252
2026-01-28 20:06:28.35	312.04	16.59	-31.9	-32.6	26.4	0.00e+00	0	31	0	2511339520	36	6106
2026-01-28 20:06:29.36	311.83	16.54	-31.8	-32.4	26.4	0.00e+00	0	32	0	2517630976	36	6003
2026-01-28 20:06:30.37	311.63	16.49	-31.8	-32.5	26.4	0.00e+00	0	32	0	2522873856	36	6066
2026-01-28 20:06:31.38	311.43	16.45	-31.8	-32.4	26.4	0.00e+00	0	32	0	2528116736	36	6015
2026-01-28 20:06:32.40	311.22	16.40	-31.9	-32.4	26.4	0.00e+00	0	32	0	2534408192	36	6030
2026-01-28 20:06:33.40	311.02	16.35	-31.9	-32.5	26.4	0.00e+00	0	32	0	2539651072	36	6089
2026-01-28 20:06:34.42	310.81	16.30	-32.0	-32.6	26.2	0.00e+00	0	32	0	2545942528	36	6128
2026-01-28 20:06:35.43	310.61	16.25	-32.1	-32.7	26.1	0.00e+00	0	32	0	2551185408	36	6179
2026-01-28 20:06:36.44	310.41	16.20	-32.1	-32.8	26.1	0.00e+00	0	31	0	2556428288	36	6269
2026-01-28 20:06:37.45	310.21	16.15	-32.2	-32.9	26.1	0.00e+00	0	32	0	2562719744	36	6357
2026-01-28 20:06:38.46	310.01	16.10	-32.3	-33.0	26.0	0.00e+00	0	31	0	2567962624	36	6434
2026-01-28 20:06:39.47	309.81	16.05	-32.3	-33.0	26.0	0.00e+00	0	31	0	2574254080	36	6438
2026-01-28 20:06:40.48	309.61	16.00	-32.3	-33.0	26.0	0.00e+00	0	32	0	2579496960	36	6455
2026-01-28 20:06:41.49	309.42	15.95	-32.2	-32.9	26.0	0.00e+00	0	32	0	2585788416	36	6352
2026-01-28 20:06:42.50	309.22	15.90	-32.2	-32.8	26.2	0.00e+00	0	31	0	2591031296	36	6290
2026-01-28 20:06:43.51	309.02	15.85	-32.1	-32.7	26.2	0.00e+00	0	32	0	2596274176	36	6224
2026-01-28 20:06:44.52	308.83	15.80	-32.2	-32.9	26.1	0.00e+00	0	31	0	2602565632	36	6365
2026-01-28 20:06:45.53	308.63	15.75	-32.3	-32.8	26.1	0.00e+00	0	31	0	2607808512	36	6317
2026-01-28 20:06:46.54	308.44	15.70	-32.2	-32.8	26.1	0.00e+00	0	31	0	2614099968	36	6250
2026-01-28 20:06:47.55	308.25	15.64	-32.3	-33.0	26.0	0.00e+00	0	31	0	2619342848	36	6397
2026-01-28 20:06:48.56	308.05	15.59	-32.4	-33.0	25.8	0.00e+00	0	31	0	2624585728	36	6444
2026-01-28 20:06:49.57	307.86	15.54	-32.5	-33.1	25.8	0.00e+00	0	31	0	2630877184	36	6468
2026-01-28 20:06:50.58	307.67	15.49	-32.2	-32.8	26.1	0.00e+00	0	32	0	2636120064	36	6317
2026-01-28 20:06:51.59	307.48	15.43	-32.2	-32.8	26.0	0.00e+00	0	32	0	2642411520	36	6312
2026-01-28 20:06:52.60	307.29	15.38	-32.2	-32.8	26.0	0.00e+00	0	31	0	2647654400	36	6290
2026-01-28 20:06:53.61	307.10	15.33	-32.3	-33.0	25.9	0.00e+00	0	31	0	2653945856	36	6414
2026-01-28 20:06:54.62	306.91	15.28	-32.4	-33.0	25.9	0.00e+00	0	31	0	2659188736	36	6439
2026-01-28 20:06:55.63	306.72	15.22	-32.4	-33.0	25.9	0.00e+00	0	31	0	2664431616	36	6462
2026-01-28 20:06:56.64	306.53	15.17	-32.4	-33.0	25.9	0.00e+00	0	31	0	2670723072	36	6442
2026-01-28 20:06:57.65	306.35	15.11	-32.3	-32.9	25.9	0.00e+00	0	31	0	2675965952	36	6359
2026-01-28 20:06:58.66	306.16	15.06	-32.5	-33.1	25.8	0.00e+00	0	31	0	2682257408	36	6536
2026-01-28 20:06:59.67	305.98	15.01	-32.5	-33.0	25.8	0.00e+00	0	31	0	2687500288	36	6463
2026-01-28 20:07:00.68	305.79	14.95	-32.8	-33.5	25.5	0.00e+00	0	31	0	2693791744	38	6067
2026-01-28 20:07:01.69	305.61	14.90	-33.0	-33.6	25.3	0.00e+00	0	32	0	2699034624	38	6120
2026-01-28 20:07:02.70	305.42	14.84	-32.7	-33.4	25.5	0.00e+00	0	32	0	2704277504	38	6000
2026-01-28 20:07:03.71	305.24	14.79	-32.7	-33.3	25.6	0.00e+00	0	32	0	2710568960	38	5933
2026-01-28 20:07:04.72	305.06	14.73	-32.6	-33.3	25.7	0.00e+00	0	31	0	2715811840	38	5939
2026-01-28 20:07:05.73	304.88	14.68	-32.5	-33.3	25.7	0.00e+00	0	32	0	2722103296	38	5901
2026-01-28 20:07:06.74	304.70	14.62	-32.6	-33.3	25.7	0.00e+00	0	32	0	2727346176	38	5927
2026-01-28 20:07:07.75	304.52	14.57	-32.6	-33.2	25.7	0.00e+00	0	32	0	2732589056	38	5843
2026-01-28 20:07:08.75	304.34	14.51	-32.6	-33.4	25.6	0.00e+00	0	31	0	2738880512	38	5985
2026-01-28 20:07:09.77	304.16	14.45	-32.7	-33.4	25.6	0.00e+00	0	32	0	2744123392	38	6003
2026-01-28 20:07:10.77	303.98	14.40	-32.6	-33.3	25.6	0.00e+00	0	31	0	2750414848	38	5945
2026-01-28 20:07:11.78	303.81	14.34	-32.7	-33.2	25.6	0.00e+00	0	32	0	2755657728	38	5890
2026-01-28 20:07:12.79	303.63	14.29	-32.6	-33.1	25.7	0.00e+00	0	32	0	2760900608	38	5824
2026-01-28 20:07:13.80	303.45	14.23	-32.4	-33.1	25.9	0.00e+00	0	31	0	2767192064	38	5803
2026-01-28 20:07:14.81	303.28	14.17	-32.5	-33.1	25.7	0.00e+00	0	32	0	2772434944	38	5772
2026-01-28 20:07:15.82	303.10	14.12	-32.4	-33.1	25.9	0.00e+00	0	32	0	2778726400	38	5765
2026-01-28 20:07:16.83	302.93	14.06	-32.5	-33.2	25.7	0.00e+00	0	32	0	2783969280	38	5867
2026-01-28 20:07:17.84	302.76	14.00	-32.7	-33.3	25.6	0.00e+00	0	31	0	2790260736	38	5912
2026-01-28 20:07:18.85	302.59	13.94	-32.8	-33.5	25.4	0.00e+00	0	32	0	2795503616	38	6076
2026-01-28 20:07:19.87	302.41	13.89	-32.7	-33.3	25.6	0.00e+00	0	32	0	2801795072	38	5958
2026-01-28 20:07:20.87	302.24	13.83	-32.6	-33.3	25.6	0.00e+00	0	31	0	2807037952	38	5933
2026-01-28 20:07:21.89	302.07	13.77	-32.5	-33.1	25.7	0.00e+00	0	32	0	2812280832	38	5811
2026-01-28 20:07:22.90	301.90	13.71	-32.5	-33.2	25.7	0.00e+00	0	31	0	2818572288	38	5834
2026-01-28 20:07:23.90	301.73	13.66	-32.5	-33.2	25.7	0.00e+00	0	31	0	2823815168	38	5865
2026-01-28 20:07:24.91	301.56	13.60	-32.5	-33.2	25.6	0.00e+00	0	31	0	2830106624	38	5881
2026-01-28 20:07:25.92	301.40	13.54	-32.7	-33.4	25.5	0.00e+00	0	31	0	2835349504	38	6000
2026-01-28 20:07:26.93	301.23	13.48	-32.8	-33.5	25.3	0.00e+00	0	31	0	2840592384	38	6068
2026-01-28 20:07:27.94	301.06	13.42	-32.9	-33.5	25.1	0.00e+00	0	31	0	2846883840	38	6097
2026-01-28 20:07:28.95	300.90	13.37	-32.9	-33.6	25.1	0.00e+00	0	32	0	2852126720	38	6166
2026-01-28 20:07:29.95	300.73	13.31	-33.0	-33.6	25.2	0.00e+00	0	32	0	2857369600	38	6150
2026-01-28 20:07:30.96	300.57	13.25	-32.9	-33.6	25.2	0.00e+00	0	32	0	2863661056	38	6150
2026-01-28 20:07:31.97	300.41	13.19	-33.0	-33.6	25.1	0.00e+00	0	31	0	2868903936	38	6113
2026-01-28 20:07:32.98	300.24	13.13	-33.1	-33.7	24.9	0.00e+00	0	32	0	2875195392	38	6199
2026-01-28 20:07:33.99	300.08	13.07	-33.0	-33.7	25.1	0.00e+00	0	32	0	2880438272	38	6217
2026-01-28 20:07:35.00	299.92	13.02	-33.2	-33.9	24.9	0.00e+00	0	31	0	2885681152	38	6380
2026-01-28 20:07:36.01	299.76	12.96	-33.3	-33.9	24.9	0.00e+00	0	32	0	2891972608	38	6390
2026-01-28 20:07:37.02	299.60	12.90	-33.4	-34.2	24.7	0.00e+00	0	32	0	2897215488	38	6556
2026-01-28 20:07:38.03	299.44	12.84	-33.5	-34.3	24.5	0.00e+00	0	32	0	2903506944	38	6623
2026-01-28 20:07:39.04	299.28	12.78	-33.4	-34.2	24.6	0.00e+00	0	32	0	2908749824	38	6556
2026-01-28 20:07:40.06	299.12	12.72	-33.1	-33.9	25.0	0.00e+00	0	32	0	2915041280	38	6328
2026-01-28 20:07:41.07	298.96	12.66	-33.5	-34.1	24.7	0.00e+00	0	31	0	2920284160	38	6499
2026-01-28 20:07:42.07	298.80	12.60	-33.4	-34.0	24.7	0.00e+00	0	31	0	2926575616	38	6447
2026-01-28 20:07:43.08	298.65	12.54	-33.3	-34.1	24.8	0.00e+00	0	32	0	2931818496	38	6495
2026-01-28 20:07:44.09	298.49	12.48	-33.4	-34.0	24.8	0.00e+00	0	32	0	2937061376	38	6411
2026-01-28 20:07:45.10	298.34	12.42	-33.5	-34.2	24.7	0.00e+00	0	32	0	2943352832	38	6611
2026-01-28 20:07:46.11	298.18	12.36	-33.4	-34.1	24.7	0.00e+00	0	32	0	2948595712	38	6512
2026-01-28 20:07:47.12	298.03	12.30	-33.4	-34.0	24.7	0.00e+00	0	31	0	2954887168	38	6444
2026-01-28 20:07:48.13	297.87	12.24	-33.4	-34.2	24.7	0.00e+00	0	32	0	2960130048	38	6565
2026-01-28 20:07:49.14	297.72	12.18	-33.3	-33.9	24.8	0.00e+00	0	32	0	2965372928	38	6380
2026-01-28 20:07:50.15	297.57	12.12	-33.4	-34.1	24.8	0.00e+00	0	31	0	2971664384	38	6492
2026-01-28 20:07:51.16	297.42	12.06	-33.5	-34.1	24.7	0.00e+00	0	32	0	2976907264	38	6472
2026-01-28 20:07:52.17	297.27	12.00	-33.5	-34.1	24.7	0.00e+00	0	32	0	2983198720	38	6484
2026-01-28 20:07:53.18	297.12	11.94	-33.4	-34.1	24.7	0.00e+00	0	32	0	2988441600	38	6535
2026-01-28 20:07:54.19	296.97	11.88	-33.4	-34.1	24.7	0.00e+00	0	32	0	2993684480	38	6500
2026-01-28 20:07:55.20	296.82	11.82	-33.4	-34.1	24.7	0.00e+00	0	32	0	2999975936	38	6527
2026-01-28 20:07:56.20	296.67	11.76	-33.5	-34.3	24.6	0.00e+00	0	31	0	3005218816	38	6650
2026-01-28 20:07:57.21	296.52	11.70	-33.7	-34.4	24.5	0.00e+00	0	32	0	3011510272	38	6756
2026-01-28 20:07:58.22	296.38	11.64	-33.7	-34.4	24.5	0.00e+00	0	31	0	3016753152	38	6745
2026-01-28 20:07:59.23	296.23	11.58	-33.6	-34.2	24.5	0.00e+00	0	32	0	3023044608	38	6586
2026-01-28 20:08:00.24	296.08	11.52	-33.5	-34.3	24.5	0.00e+00	0	32	0	3028287488	38	6648
2026-01-28 20:08:01.25	295.94	11.46	-33.6	-34.3	24.5	0.00e+00	0	32	0	3033530368	38	6673
2026-01-28 20:08:02.26	295.79	11.40	-33.7	-34.5	24.4	0.00e+00	0	31	0	3039821824	40	6037
2026-01-28 20:08:03.27	295.65	11.34	-33.8	-34.6	24.3	0.00e+00	0	32	0	3045064704	40	6144
2026-01-28 20:08:04.27	295.51	11.28	-33.7	-34.4	24.4	0.00e+00	0	32	0	3051356160	40	5992
2026-01-28 20:08:05.28	295.36	11.22	-33.8	-34.6	24.3	0.00e+00	0	32	0	3056599040	40	6127
2026-01-28 20:08:06.29	295.22	11.16	-33.7	-34.3	24.4	0.00e+00	0	31	0	3061841920	40	5945
2026-01-28 20:08:07.30	295.08	11.10	-33.7	-34.4	24.4	0.00e+00	0	32	0	3068133376	40	5993
2026-01-28 20:08:08.32	294.94	11.04	-33.8	-34.5	24.4	0.00e+00	0	31	0	3073376256	40	6071
2026-01-28 20:08:09.33	294.80	10.98	-33.7	-34.3	24.4	0.00e+00	0	32	0	3079667712	40	5952
2026-01-28 20:08:10.34	294.66	10.92	-33.5	-34.1	24.5	0.00e+00	0	32	0	3084910592	40	5826
2026-01-28 20:08:11.35	294.52	10.86	-33.5	-34.2	24.5	0.00e+00	0	32	0	3090153472	40	5842
2026-01-28 20:08:12.36	294.38	10.80	-33.8	-34.5	24.2	0.00e+00	0	31	0	3096444928	40	6037
2026-01-28 20:08:13.37	294.24	10.74	-33.8	-34.5	24.2	0.00e+00	0	31	0	3101687808	40	6037
2026-01-28 20:08:14.38	294.10	10.68	-33.6	-34.4	24.4	0.00e+00	0	31	0	3107979264	40	5987
2026-01-28 20:08:15.39	293.97	10.62	-33.6	-34.4	24.4	0.00e+00	0	31	0	3113222144	40	5992
2026-01-28 20:08:16.40	293.83	10.55	-33.6	-34.4	24.4	0.00e+00	0	32	0	3119513600	40	5971
2026-01-28 20:08:17.41	293.69	10.49	-33.7	-34.3	24.4	0.00e+00	0	32	0	3124756480	40	5932
2026-01-28 20:08:18.42	293.56	10.43	-33.6	-34.2	24.4	0.00e+00	0	32	0	3131047936	40	5869
2026-01-28 20:08:19.43	293.42	10.37	-33.7	-34.3	24.4	0.00e+00	0	31	0	3136290816	40	5961
2026-01-28 20:08:20.44	293.29	10.31	-33.8	-34.6	24.2	0.00e+00	0	32	0	3141533696	40	6105
2026-01-28 20:08:21.45	293.15	10.25	-33.9	-34.6	24.1	0.00e+00	0	32	0	3147825152	40	6165
2026-01-28 20:08:22.46	293.02	10.19	-34.1	-34.8	23.9	0.00e+00	0	31	0	3153068032	40	6292
2026-01-28 20:08:23.47	292.89	10.13	-34.1	-34.9	23.9	0.00e+00	0	32	0	3159359488	40	6360
2026-01-28 20:08:24.48	292.76	10.07	-34.2	-34.9	23.8	0.00e+00	0	32	0	3164602368	40	6373
2026-01-28 20:08:25.49	292.63	10.01	-34.2	-34.9	23.9	0.00e+00	0	32	0	3169845248	40	6348
2026-01-28 20:08:26.50	292.50	9.95	-34.0	-34.6	24.0	0.00e+00	0	32	0	3176136704	40	6149
2026-01-28 20:08:27.51	292.36	9.89	-34.1	-34.7	24.0	0.00e+00	0	31	0	3181379584	40	6209
2026-01-28 20:08:28.52	292.24	9.83	-34.0	-34.7	24.1	0.00e+00	0	31	0	3187671040	40	6244
2026-01-28 20:08:29.53	292.11	9.77	-34.2	-35.0	23.8	0.00e+00	0	32	0	3192913920	40	6422
2026-01-28 20:08:30.54	291.98	9.71	-34.2	-34.8	23.8	0.00e+00	0	32	0	3198156800	40	6316
2026-01-28 20:08:31.55	291.85	9.64	-34.1	-34.8	23.8	0.00e+00	0	32	0	3204448256	40	6274
2026-01-28 20:08:32.56	291.72	9.58	-34.2	-34.9	23.7	0.00e+00	0	32	0	3209691136	40	6384
2026-01-28 20:08:33.57	291.59	9.52	-34.4	-35.2	23.6	0.00e+00	0	32	0	3215982592	40	6546
2026-01-28 20:08:34.57	291.47	9.46	-34.5	-35.1	23.6	0.00e+00	0	31	0	3221225472	40	6520
2026-01-28 20:08:35.58	291.34	9.40	-34.6	-35.3	23.4	0.00e+00	0	31	0	3227516928	40	6662
2026-01-28 20:08:36.59	291.22	9.34	-34.3	-34.9	23.7	0.00e+00	0	31	0	3232759808	40	6369
2026-01-28 20:08:37.60	291.09	9.28	-34.1	-34.9	23.7	0.00e+00	0	31	0	3238002688	40	6342
2026-01-28 20:08:38.61	290.97	9.22	-34.5	-35.3	23.4	0.00e+00	0	32	0	3244294144	40	6662
2026-01-28 20:08:39.62	290.85	9.16	-34.4	-35.1	23.5	0.00e+00	0	31	0	3249537024	40	6504
2026-01-28 20:08:40.63	290.72	9.10	-34.3	-35.1	23.6	0.00e+00	0	31	0	3255828480	40	6507
2026-01-28 20:08:41.64	290.60	9.04	-34.5	-35.3	23.5	0.00e+00	0	32	0	3261071360	40	6660
2026-01-28 20:08:42.65	290.48	8.98	-34.5	-35.2	23.4	0.00e+00	0	31	0	3266314240	40	6609
2026-01-28 20:08:43.66	290.36	8.92	-34.7	-35.4	23.2	0.00e+00	0	31	0	3272605696	40	6723
2026-01-28 20:08:44.67	290.23	8.86	-35.2	-35.9	23.0	0.00e+00	0	32	0	3277848576	42	6347
2026-01-28 20:08:45.68	290.11	8.80	-34.6	-35.3	23.3	0.00e+00	0	31	0	3284140032	42	5912
2026-01-28 20:08:46.69	289.99	8.74	-34.6	-35.3	23.4	0.00e+00	0	31	0	3289382912	42	5947
2026-01-28 20:08:47.70	289.87	8.68	-34.5	-35.1	23.5	0.00e+00	0	31	0	3294625792	42	5809
2026-01-28 20:08:48.71	289.75	8.62	-34.4	-35.0	23.5	0.00e+00	0	32	0	3300917248	42	5733
2026-01-28 20:08:49.71	289.64	8.56	-34.4	-35.2	23.4	0.00e+00	0	31	0	3306160128	42	5872
2026-01-28 20:08:50.72	289.52	8.50	-34.6	-35.2	23.3	0.00e+00	0	31	0	3312451584	42	5888
2026-01-28 20:08:51.73	289.40	8.44	-34.7	-35.5	23.2	0.00e+00	0	31	0	3317694464	42	6074
2026-01-28 20:08:52.74	289.28	8.38	-34.9	-35.7	23.1	0.00e+00	0	31	0	3323985920	42	6238
2026-01-28 20:08:53.75	289.17	8.32	-34.5	-35.4	23.4	0.00e+00	0	32	0	3329228800	42	5966
2026-01-28 20:08:54.76	289.05	8.26	-34.9	-35.6	23.0	0.00e+00	0	32	0	3335520256	42	6165
2026-01-28 20:08:55.77	288.94	8.20	-35.0	-35.7	23.1	0.00e+00	0	31	0	3340763136	42	6196
2026-01-28 20:08:56.78	288.82	8.14	-34.8	-35.6	23.2	0.00e+00	0	31	0	3346006016	42	6109
2026-01-28 20:08:57.79	288.71	8.08	-34.8	-35.6	23.1	0.00e+00	0	32	0	3352297472	42	6148
2026-01-28 20:08:58.80	288.59	8.02	-34.7	-35.4	23.1	0.00e+00	0	32	0	3357540352	42	5980
2026-01-28 20:08:59.81	288.48	7.96	-34.6	-35.3	23.3	0.00e+00	0	32	0	3363831808	42	5910
2026-01-28 20:09:00.82	288.36	7.90	-34.8	-35.4	23.2	0.00e+00	0	32	0	3369074688	42	6024
2026-01-28 20:09:01.83	288.25	7.84	-34.7	-35.5	23.1	0.00e+00	0	31	0	3374317568	42	6060
2026-01-28 20:09:02.84	288.14	7.78	-34.9	-35.5	23.0	0.00e+00	0	31	0	3380609024	42	6096
2026-01-28 20:09:03.85	288.03	7.72	-34.6	-35.4	23.2	0.00e+00	0	31	0	3385851904	42	6003
2026-01-28 20:09:04.86	287.92	7.66	-35.0	-35.7	22.8	0.00e+00	0	32	0	3392143360	42	6218
2026-01-28 20:09:05.87	287.80	7.60	-35.3	-36.1	22.5	0.00e+00	0	32	0	3397386240	42	6533
2026-01-28 20:09:06.88	287.69	7.54	-35.3	-36.1	22.6	0.00e+00	0	31	0	3402629120	42	6468
2026-01-28 20:09:07.89	287.58	7.48	-35.0	-35.7	22.8	0.00e+00	0	31	0	3408920576	42	6234
2026-01-28 20:09:08.90	287.47	7.42	-35.2	-36.0	22.6	0.00e+00	0	31	0	3414163456	42	6427
2026-01-28 20:09:09.91	287.37	7.36	-35.2	-36.0	22.6	0.00e+00	0	31	0	3420454912	42	6413
2026-01-28 20:09:10.92	287.26	7.30	-35.3	-36.1	22.4	0.00e+00	0	32	0	3425697792	42	6526
2026-01-28 20:09:11.93	287.15	7.24	-35.4	-36.2	22.4	0.00e+00	0	31	0	3431989248	42	6600
2026-01-28 20:09:12.94	287.04	7.18	-35.3	-36.1	22.5	0.00e+00	0	32	0	3437232128	42	6517
2026-01-28 20:09:13.95	286.93	7.12	-35.9	-36.7	22.1	0.00e+00	0	31	0	3442475008	44	6225
2026-01-28 20:09:14.96	286.83	7.06	-35.6	-36.4	22.3	0.00e+00	0	31	0	3448766464	44	6021
2026-01-28 20:09:15.97	286.72	7.00	-35.7	-36.4	22.2	0.00e+00	0	31	0	3454009344	44	6028
2026-01-28 20:09:16.98	286.61	6.94	-35.8	-36.7	21.9	0.00e+00	0	31	0	3460300800	44	6176
2026-01-28 20:09:17.99	286.51	6.88	-36.1	-36.8	21.7	0.00e+00	0	32	0	3465543680	44	6282
2026-01-28 20:09:19.00	286.40	6.82	-35.8	-36.5	21.9	0.00e+00	0	32	0	3470786560	44	6076
2026-01-28 20:09:20.01	286.30	6.76	-35.8	-36.6	21.9	0.00e+00	0	32	0	3477078016	44	6158
2026-01-28 20:09:21.02	286.20	6.70	-36.2	-37.0	21.5	0.00e+00	0	32	0	3482320896	44	6419
2026-01-28 20:09:22.03	286.09	6.65	-35.9	-36.7	21.7	0.00e+00	0	31	0	3488612352	44	6214
2026-01-28 20:09:23.04	285.99	6.59	-35.4	-36.3	22.2	0.00e+00	0	32	0	3493855232	44	5922
2026-01-28 20:09:24.05	285.89	6.53	-35.2	-36.1	22.3	0.00e+00	0	31	0	3499098112	44	5801
2026-01-28 20:09:25.06	285.78	6.47	-35.2	-35.9	22.3	0.00e+00	0	31	0	3505389568	44	5655
2026-01-28 20:09:26.07	285.68	6.41	-35.3	-36.0	22.3	0.00e+00	0	31	0	3510632448	44	5738
2026-01-28 20:09:27.08	285.58	6.35	-35.3	-36.0	22.3	0.00e+00	0	32	0	3516923904	44	5699
2026-01-28 20:09:28.09	285.48	6.29	-35.2	-35.9	22.4	0.00e+00	0	32	0	3522166784	44	5694
2026-01-28 20:09:29.10	285.38	6.23	-35.4	-36.2	22.3	0.00e+00	0	32	0	3528458240	44	5831
2026-01-28 20:09:30.11	285.28	6.17	-35.3	-36.2	22.2	0.00e+00	0	32	0	3533701120	44	5863
2026-01-28 20:09:31.12	285.18	6.12	-35.2	-36.0	22.4	0.00e+00	0	32	0	3539992576	44	5735
2026-01-28 20:09:32.13	285.08	6.06	-35.3	-36.0	22.3	0.00e+00	0	31	0	3545235456	44	5711
2026-01-28 20:09:33.14	284.98	6.00	-35.6	-36.4	22.0	0.00e+00	0	32	0	3550478336	44	6001
2026-01-28 20:09:34.15	284.88	5.94	-35.6	-36.5	21.9	0.00e+00	0	32	0	3556769792	44	6034
2026-01-28 20:09:35.16	284.78	5.88	-35.7	-36.5	21.8	0.00e+00	0	32	0	3562012672	44	6052
2026-01-28 20:09:36.17	284.68	5.82	-35.8	-36.7	21.8	0.00e+00	0	32	0	3568304128	44	6192
2026-01-28 20:09:37.18	284.59	5.76	-35.6	-36.3	22.0	0.00e+00	0	32	0	3573547008	44	5923
2026-01-28 20:09:38.19	284.49	5.71	-35.4	-36.1	22.1	0.00e+00	0	32	0	3578789888	44	5807
2026-01-28 20:09:39.20	284.39	5.65	-35.9	-36.8	21.5	0.00e+00	0	32	0	3585081344	44	6246
2026-01-28 20:09:40.21	284.30	5.59	-36.0	-36.9	21.7	0.00e+00	0	32	0	3590324224	44	6345
