passes_logs/2026/01/28/R4.6S_Anadyr/R4.6S_Anadyr__20260128_011212_FENGYUN_3D_rec.log

#Pass ID: 20260128_011212_FENGYUN 3D
#Satellite: FENGYUN 3D
#Configuration: FENGYUN 3D
#almurnet v.1.7.20251203
#Start time: 2026-01-28 01:12:15

#Version: 2.2.20231116
#Station: R4.6S_Anadyr
#Location: 177.4865 lon 64.73178 lat
#TLE: 1 43010U 17072A   26027.61892183  .00000301  00000+0  16406-3 0  9993
#TLE: 2 43010  98.9961 359.6320 0002526  87.4560 272.6905 14.19701415425044

#Time	Az	El	Level	Level2	SNR	BER	BlckErr	Temp	State	Recorded	gain1	gain2
2026-01-28 01:12:15.06	129.63	0.15	-45.6	-59.9	3.5	1.51e+00	0	30	0	0	60	40234
2026-01-28 01:12:16.06	129.61	0.21	-48.8	-60.9	3.6	8.45e-01	0	31	104	0	60	40247
2026-01-28 01:12:17.08	129.58	0.27	-48.8	-61.0	3.6	8.44e-01	0	31	104	0	60	40530
2026-01-28 01:12:18.08	129.56	0.33	-48.8	-61.0	3.6	8.46e-01	0	31	104	0	60	40355
2026-01-28 01:12:19.09	129.53	0.39	-48.8	-61.0	3.6	8.45e-01	0	31	104	0	60	40351
2026-01-28 01:12:20.10	129.50	0.45	-48.9	-61.0	3.6	8.45e-01	0	31	104	0	60	40397
2026-01-28 01:12:21.11	129.48	0.51	-48.9	-61.0	3.6	8.46e-01	0	31	104	0	60	40521
2026-01-28 01:12:22.12	129.45	0.57	-48.9	-61.0	3.6	8.45e-01	0	31	104	0	60	40626
2026-01-28 01:12:23.13	129.42	0.63	-48.9	-61.1	3.6	8.46e-01	0	31	104	0	60	40792
2026-01-28 01:12:24.14	129.40	0.69	-49.0	-61.1	3.6	8.46e-01	0	31	104	0	60	40868
2026-01-28 01:12:25.15	129.37	0.75	-48.9	-61.1	3.6	8.45e-01	0	31	104	0	60	40967
2026-01-28 01:12:26.16	129.34	0.81	-48.9	-61.0	3.6	8.44e-01	0	31	104	0	60	40655
2026-01-28 01:12:27.17	129.32	0.87	-48.9	-61.0	3.6	8.45e-01	0	31	104	0	60	40489
2026-01-28 01:12:28.18	129.29	0.94	-48.8	-60.9	3.6	8.45e-01	0	31	104	0	60	40262
2026-01-28 01:12:29.19	129.26	1.00	-48.8	-61.0	3.6	8.46e-01	0	31	104	0	60	40333
2026-01-28 01:12:30.20	129.23	1.06	-48.3	-60.9	3.6	8.46e-01	0	32	104	0	60	39879
2026-01-28 01:12:31.21	129.21	1.12	-48.0	-60.9	3.6	8.46e-01	0	31	104	0	60	39952
2026-01-28 01:12:32.23	129.18	1.18	-48.5	-60.8	3.6	8.45e-01	0	31	104	0	60	39455
2026-01-28 01:12:33.23	129.15	1.24	-48.6	-60.8	3.6	8.45e-01	0	31	104	0	60	39521
2026-01-28 01:12:34.24	129.12	1.31	-47.5	-60.7	3.6	8.46e-01	0	31	104	0	60	39104
2026-01-28 01:12:35.25	129.09	1.37	-48.5	-60.6	3.6	8.44e-01	0	32	104	0	60	38677
2026-01-28 01:12:36.26	129.07	1.43	-48.3	-60.5	3.6	8.44e-01	0	32	104	0	60	38348
2026-01-28 01:12:37.28	129.04	1.49	-48.2	-60.3	3.6	8.45e-01	0	32	104	0	60	37532
2026-01-28 01:12:38.29	129.01	1.56	-47.8	-60.1	3.6	8.45e-01	0	31	104	0	60	36632
2026-01-28 01:12:39.29	128.98	1.62	-47.7	-59.8	3.6	8.47e-01	0	31	104	0	60	35407
2026-01-28 01:12:40.30	128.95	1.68	-47.1	-59.6	3.6	8.44e-01	0	31	104	0	60	34689
2026-01-28 01:12:41.31	128.92	1.74	-47.1	-59.6	3.6	8.45e-01	0	32	104	0	60	34413
2026-01-28 01:12:42.32	128.89	1.81	-47.1	-59.6	3.5	8.46e-01	0	32	104	0	60	34553
2026-01-28 01:12:43.33	128.87	1.87	-47.1	-59.6	3.6	8.45e-01	0	32	104	0	60	34530
2026-01-28 01:12:44.34	128.84	1.93	-47.1	-59.6	3.6	8.46e-01	0	32	104	0	60	34603
2026-01-28 01:12:45.35	128.81	2.00	-47.2	-59.6	3.6	8.46e-01	0	32	104	0	60	34540
2026-01-28 01:12:46.36	128.78	2.06	-47.1	-59.6	3.6	8.45e-01	0	32	104	0	60	34447
2026-01-28 01:12:47.37	128.75	2.12	-47.1	-59.6	3.6	8.45e-01	0	32	104	0	60	34530
2026-01-28 01:12:48.38	128.72	2.19	-47.1	-59.6	3.6	8.45e-01	0	32	104	0	60	34392
2026-01-28 01:12:49.39	128.69	2.25	-47.1	-59.5	3.6	8.44e-01	0	32	104	0	60	34220
2026-01-28 01:12:50.40	128.66	2.31	-47.1	-59.6	3.6	8.45e-01	0	32	104	0	60	34380
2026-01-28 01:12:51.41	128.63	2.38	-47.1	-59.6	3.6	8.45e-01	0	32	104	0	60	34438
2026-01-28 01:12:52.42	128.60	2.44	-47.1	-59.6	3.6	8.45e-01	0	32	104	0	60	34522
2026-01-28 01:12:53.43	128.57	2.51	-47.1	-59.6	3.6	8.45e-01	0	32	104	0	60	34644
2026-01-28 01:12:54.44	128.54	2.57	-47.1	-59.6	3.6	8.45e-01	0	32	104	0	60	34480
2026-01-28 01:12:55.45	128.50	2.64	-47.1	-59.6	3.6	8.45e-01	0	32	104	0	60	34493
2026-01-28 01:12:56.46	128.47	2.70	-47.1	-59.6	3.6	8.45e-01	0	32	104	0	60	34452
2026-01-28 01:12:57.47	128.44	2.77	-47.1	-59.5	3.6	8.45e-01	0	32	104	0	60	34295
2026-01-28 01:12:58.48	128.41	2.83	-47.1	-59.4	3.6	8.45e-01	0	32	104	0	60	33651
2026-01-28 01:12:59.49	128.38	2.90	-47.1	-58.9	3.6	8.46e-01	0	32	104	0	60	31712
2026-01-28 01:13:00.50	128.35	2.96	-47.0	-58.2	3.6	8.46e-01	0	32	104	0	60	29548
2026-01-28 01:13:01.51	128.32	3.03	-47.0	-58.0	3.6	8.45e-01	0	32	104	0	60	28705
2026-01-28 01:13:02.52	128.28	3.09	-47.0	-57.8	3.6	8.45e-01	0	32	104	0	60	28172
2026-01-28 01:13:03.53	128.25	3.16	-47.1	-58.5	3.6	8.46e-01	0	32	104	0	60	30300
2026-01-28 01:13:04.54	128.22	3.23	-47.1	-59.3	3.6	8.45e-01	0	32	104	0	60	33430
2026-01-28 01:13:05.55	128.19	3.29	-47.1	-59.0	3.6	8.45e-01	0	32	104	0	60	32255
2026-01-28 01:13:06.56	128.15	3.36	-46.7	-55.4	4.4	8.42e-01	0	32	104	0	60	21249
2026-01-28 01:13:07.57	128.12	3.42	-45.7	-50.4	7.7	3.87e-01	0	32	0	1048576	60	11974
2026-01-28 01:13:08.58	128.09	3.49	-44.1	-46.9	11.5	7.56e-03	0	32	0	7340032	60	7994
2026-01-28 01:13:09.59	128.06	3.56	-42.2	-44.2	14.4	1.94e-05	0	32	0	12582912	58	6555
2026-01-28 01:13:10.60	128.02	3.62	-40.7	-42.1	16.5	0.00e+00	0	32	0	18874368	56	5824
2026-01-28 01:13:11.61	127.99	3.69	-39.1	-40.3	18.3	0.00e+00	0	32	0	24117248	52	5945
2026-01-28 01:13:12.62	127.96	3.76	-37.9	-38.9	19.7	0.00e+00	0	32	0	30408704	50	5671
2026-01-28 01:13:13.63	127.92	3.83	-46.9	-55.7	3.4	0.00e+00	0	32	0	35651584	60	22051
2026-01-28 01:13:14.64	127.89	3.89	-47.6	-59.2	3.6	8.44e-01	0	32	104	35651584	60	32984
2026-01-28 01:13:15.65	127.85	3.96	-37.3	-38.3	6.1	8.22e-01	0	32	104	35651584	50	5257
2026-01-28 01:13:16.66	127.82	4.03	-36.0	-36.8	21.8	0.00e+00	0	32	0	36700160	48	5010
2026-01-28 01:13:17.67	127.79	4.10	-39.2	-40.5	16.3	0.00e+00	0	32	0	41943040	44	9595
2026-01-28 01:13:18.68	127.75	4.17	-41.1	-42.8	16.9	1.49e-01	0	32	104	42991616	60	4964
2026-01-28 01:13:19.69	127.72	4.23	-37.1	-38.0	20.8	0.00e+00	0	32	0	46137344	48	5758
2026-01-28 01:13:20.70	127.68	4.30	-36.8	-37.7	20.8	0.00e+00	0	32	0	52428800	48	5549
2026-01-28 01:13:21.71	127.65	4.37	-37.1	-38.1	20.7	0.00e+00	0	32	0	57671680	46	6467
2026-01-28 01:13:22.72	127.61	4.44	-37.0	-37.9	20.8	0.00e+00	0	32	0	63963136	46	6337
2026-01-28 01:13:23.73	127.57	4.51	-36.8	-37.6	21.0	0.00e+00	0	32	0	69206016	46	6153
2026-01-28 01:13:24.74	127.54	4.58	-37.3	-38.3	20.4	0.00e+00	0	32	0	74448896	46	6627
2026-01-28 01:13:25.75	127.50	4.65	-36.4	-37.2	21.4	0.00e+00	0	32	0	80740352	46	5870
2026-01-28 01:13:26.76	127.47	4.72	-35.9	-36.8	21.9	0.00e+00	0	32	0	85983232	46	5578
2026-01-28 01:13:27.77	127.43	4.79	-35.8	-36.6	22.0	0.00e+00	0	32	0	92274688	44	6164
2026-01-28 01:13:28.78	127.39	4.86	-36.0	-36.9	21.8	0.00e+00	0	32	0	97517568	44	6332
2026-01-28 01:13:29.79	127.36	4.93	-35.9	-36.7	22.0	0.00e+00	0	32	0	102760448	44	6185
2026-01-28 01:13:30.80	127.32	5.00	-36.4	-37.2	21.4	0.00e+00	0	32	0	109051904	44	6600
2026-01-28 01:13:31.81	127.28	5.07	-36.0	-36.9	21.9	0.00e+00	0	32	0	114294784	44	6340
2026-01-28 01:13:32.82	127.25	5.14	-35.3	-36.1	22.6	0.00e+00	0	32	0	119537664	44	5786
2026-01-28 01:13:33.83	127.21	5.21	-35.4	-36.2	22.6	0.00e+00	0	32	0	125829120	44	5872
2026-01-28 01:13:34.84	127.17	5.28	-34.8	-35.6	23.0	0.00e+00	0	32	0	131072000	44	5475
2026-01-28 01:13:35.85	127.13	5.35	-35.2	-36.0	22.7	0.00e+00	0	32	0	137363456	44	5739
2026-01-28 01:13:36.86	127.10	5.42	-35.1	-35.9	22.8	0.00e+00	0	32	0	142606336	44	5641
2026-01-28 01:13:37.87	127.06	5.49	-34.8	-35.6	23.2	0.00e+00	0	32	0	148897792	44	5472
2026-01-28 01:13:38.88	127.02	5.56	-34.8	-35.6	23.2	0.00e+00	0	32	0	154140672	42	6151
2026-01-28 01:13:39.89	126.98	5.64	-35.1	-35.8	22.9	0.00e+00	0	32	0	160432128	42	6314
2026-01-28 01:13:40.90	126.94	5.71	-35.0	-35.8	23.0	0.00e+00	0	32	0	165675008	42	6247
2026-01-28 01:13:41.91	126.90	5.78	-35.2	-35.9	22.9	0.00e+00	0	32	0	170917888	42	6377
2026-01-28 01:13:42.92	126.86	5.85	-34.6	-35.4	23.2	0.00e+00	0	32	0	177209344	42	5990
2026-01-28 01:13:43.93	126.83	5.92	-34.9	-35.7	23.1	0.00e+00	0	32	0	182452224	42	6194
2026-01-28 01:13:44.94	126.79	6.00	-35.1	-35.9	23.0	0.00e+00	0	32	0	188743680	42	6340
2026-01-28 01:13:45.95	126.75	6.07	-34.9	-35.7	23.0	0.00e+00	0	32	0	193986560	42	6191
2026-01-28 01:13:46.96	126.71	6.14	-34.8	-35.6	23.1	0.00e+00	0	32	0	199229440	42	6158
2026-01-28 01:13:47.97	126.67	6.22	-34.5	-35.3	23.5	0.00e+00	0	32	0	205520896	42	5905
2026-01-28 01:13:48.98	126.62	6.29	-34.4	-35.1	23.6	0.00e+00	0	32	0	210763776	42	5812
2026-01-28 01:13:49.99	126.58	6.36	-34.9	-35.6	23.2	0.00e+00	0	32	0	217055232	42	6159
2026-01-28 01:13:51.00	126.54	6.44	-34.6	-35.3	23.3	0.00e+00	0	32	0	222298112	42	5956
2026-01-28 01:13:52.01	126.50	6.51	-34.5	-35.2	23.5	0.00e+00	0	32	0	227540992	42	5883
2026-01-28 01:13:53.02	126.46	6.59	-34.7	-35.5	23.4	0.00e+00	0	32	0	233832448	42	6068
2026-01-28 01:13:54.03	126.42	6.66	-34.6	-35.3	23.6	0.00e+00	0	32	0	239075328	42	5934
2026-01-28 01:13:55.04	126.38	6.74	-34.3	-35.1	23.8	0.00e+00	0	32	0	245366784	42	5765
2026-01-28 01:13:56.05	126.34	6.81	-34.5	-35.3	23.5	0.00e+00	0	32	0	250609664	42	5898
2026-01-28 01:13:57.06	126.29	6.89	-34.5	-35.2	23.6	0.00e+00	0	32	0	256901120	42	5880
2026-01-28 01:13:58.07	126.25	6.96	-34.4	-35.2	23.6	0.00e+00	0	32	0	262144000	42	5844
2026-01-28 01:13:59.08	126.21	7.04	-34.4	-35.1	23.7	0.00e+00	0	32	0	268435456	42	5826
2026-01-28 01:14:00.09	126.16	7.11	-34.2	-35.0	23.8	0.00e+00	0	32	0	273678336	42	5698
2026-01-28 01:14:01.10	126.12	7.19	-34.3	-35.0	23.8	0.00e+00	0	32	0	278921216	42	5745
2026-01-28 01:14:02.11	126.08	7.26	-34.4	-35.2	23.7	0.00e+00	0	32	0	285212672	42	5836
2026-01-28 01:14:03.12	126.03	7.34	-34.6	-35.4	23.6	0.00e+00	0	32	0	290455552	42	5984
2026-01-28 01:14:04.13	125.99	7.42	-34.3	-35.0	23.9	0.00e+00	0	32	0	296747008	42	5714
2026-01-28 01:14:05.14	125.95	7.49	-34.3	-35.0	23.9	0.00e+00	0	32	0	301989888	42	5731
2026-01-28 01:14:06.15	125.90	7.57	-34.4	-35.1	23.7	0.00e+00	0	32	0	307232768	42	5818
2026-01-28 01:14:07.16	125.86	7.65	-34.5	-35.3	23.6	0.00e+00	0	32	0	313524224	42	5926
2026-01-28 01:14:08.17	125.81	7.73	-34.2	-34.9	23.9	0.00e+00	0	32	0	318767104	42	5643
2026-01-28 01:14:09.18	125.77	7.80	-34.4	-35.1	23.8	0.00e+00	0	32	0	325058560	42	5801
2026-01-28 01:14:10.19	125.72	7.88	-34.4	-35.1	23.9	0.00e+00	0	32	0	330301440	42	5789
2026-01-28 01:14:11.20	125.68	7.96	-34.5	-35.3	23.7	0.00e+00	0	32	0	335544320	42	5938
2026-01-28 01:14:12.21	125.63	8.04	-34.4	-35.2	23.9	0.00e+00	0	32	0	341835776	42	5837
2026-01-28 01:14:13.22	125.58	8.12	-34.4	-35.2	23.8	0.00e+00	0	32	0	347078656	42	5858
2026-01-28 01:14:14.23	125.54	8.19	-34.5	-35.2	23.7	0.00e+00	0	32	0	353370112	42	5833
2026-01-28 01:14:15.24	125.49	8.27	-34.4	-35.2	23.8	0.00e+00	0	32	0	358612992	42	5832
2026-01-28 01:14:16.25	125.44	8.35	-34.6	-35.3	23.7	0.00e+00	0	32	0	364904448	42	5939
2026-01-28 01:14:17.26	125.40	8.43	-34.7	-35.4	23.6	0.00e+00	0	32	0	370147328	42	6029
2026-01-28 01:14:18.27	125.35	8.51	-34.8	-35.6	23.5	0.00e+00	0	32	0	375390208	42	6120
2026-01-28 01:14:19.28	125.30	8.59	-34.6	-35.4	23.7	0.00e+00	0	32	0	381681664	42	5978
2026-01-28 01:14:20.29	125.25	8.67	-34.9	-35.7	23.5	0.00e+00	0	32	0	386924544	42	6183
2026-01-28 01:14:21.30	125.20	8.75	-34.9	-35.7	23.3	0.00e+00	0	32	0	393216000	42	6214
2026-01-28 01:14:22.31	125.15	8.83	-34.8	-35.6	23.5	0.00e+00	0	32	0	398458880	42	6124
2026-01-28 01:14:23.32	125.11	8.91	-34.8	-35.5	23.4	0.00e+00	0	32	0	403701760	42	6079
2026-01-28 01:14:24.33	125.06	8.99	-34.3	-35.0	23.9	0.00e+00	0	32	0	409993216	42	5751
2026-01-28 01:14:25.34	125.01	9.08	-34.2	-34.9	24.2	0.00e+00	0	32	0	415236096	42	5674
2026-01-28 01:14:26.35	124.96	9.16	-34.2	-35.0	24.0	0.00e+00	0	32	0	421527552	42	5696
2026-01-28 01:14:27.36	124.91	9.24	-34.3	-35.0	23.9	0.00e+00	0	32	0	426770432	42	5755
2026-01-28 01:14:28.37	124.86	9.32	-34.2	-34.9	24.2	0.00e+00	0	32	0	433061888	42	5653
2026-01-28 01:14:29.38	124.81	9.40	-34.1	-34.9	24.1	0.00e+00	0	32	0	438304768	42	5634
2026-01-28 01:14:30.39	124.75	9.49	-34.2	-34.9	24.0	0.00e+00	0	32	0	443547648	42	5642
2026-01-28 01:14:31.41	124.70	9.57	-34.1	-34.9	24.2	0.00e+00	0	32	0	449839104	42	5635
2026-01-28 01:14:32.41	124.65	9.65	-34.2	-34.9	24.1	0.00e+00	0	32	0	455081984	42	5689
2026-01-28 01:14:33.42	124.60	9.74	-34.0	-34.8	24.3	0.00e+00	0	32	0	461373440	42	5572
2026-01-28 01:14:34.43	124.55	9.82	-34.1	-34.9	24.3	0.00e+00	0	32	0	466616320	42	5640
2026-01-28 01:14:35.44	124.49	9.90	-34.1	-34.8	24.3	0.00e+00	0	32	0	471859200	42	5590
2026-01-28 01:14:36.45	124.44	9.99	-34.1	-34.8	24.3	0.00e+00	0	32	0	478150656	42	5607
2026-01-28 01:14:37.46	124.39	10.07	-34.0	-34.7	24.4	0.00e+00	0	32	0	483393536	42	5525
2026-01-28 01:14:38.47	124.33	10.16	-34.0	-34.8	24.4	0.00e+00	0	32	0	489684992	42	5579
2026-01-28 01:14:39.48	124.28	10.24	-34.0	-34.7	24.3	0.00e+00	0	32	0	494927872	42	5540
2026-01-28 01:14:40.49	124.23	10.33	-33.9	-34.6	24.5	0.00e+00	0	32	0	501219328	42	5478
2026-01-28 01:14:41.50	124.17	10.41	-34.0	-34.8	24.4	0.00e+00	0	32	0	506462208	42	5571
2026-01-28 01:14:42.51	124.12	10.50	-33.9	-34.6	24.5	0.00e+00	0	32	0	511705088	40	6110
2026-01-28 01:14:43.52	124.06	10.58	-33.7	-34.4	24.7	0.00e+00	0	32	0	517996544	40	6025
2026-01-28 01:14:44.54	124.00	10.67	-33.7	-34.4	24.6	0.00e+00	0	32	0	523239424	40	6010
2026-01-28 01:14:45.55	123.95	10.76	-33.7	-34.4	24.7	0.00e+00	0	32	0	529530880	40	5983
2026-01-28 01:14:46.56	123.89	10.84	-33.6	-34.3	24.7	0.00e+00	0	32	0	534773760	40	5950
2026-01-28 01:14:47.57	123.84	10.93	-33.6	-34.3	24.8	0.00e+00	0	32	0	540016640	40	5923
2026-01-28 01:14:48.58	123.78	11.02	-33.6	-34.3	24.8	0.00e+00	0	32	0	546308096	40	5902
2026-01-28 01:14:49.59	123.72	11.11	-33.5	-34.2	24.9	0.00e+00	0	32	0	551550976	40	5856
2026-01-28 01:14:50.60	123.66	11.19	-33.6	-34.2	24.8	0.00e+00	0	32	0	557842432	40	5882
2026-01-28 01:14:51.61	123.60	11.28	-33.5	-34.2	24.9	0.00e+00	0	32	0	563085312	40	5835
2026-01-28 01:14:52.62	123.55	11.37	-33.5	-34.2	24.9	0.00e+00	0	32	0	569376768	40	5860
2026-01-28 01:14:53.63	123.49	11.46	-33.4	-34.1	25.0	0.00e+00	0	32	0	574619648	40	5796
2026-01-28 01:14:54.64	123.43	11.55	-33.4	-34.1	25.0	0.00e+00	0	32	0	579862528	40	5767
2026-01-28 01:14:55.65	123.37	11.64	-33.4	-34.1	24.9	0.00e+00	0	32	0	586153984	40	5790
2026-01-28 01:14:56.66	123.31	11.73	-33.4	-34.1	25.0	0.00e+00	0	32	0	591396864	40	5775
2026-01-28 01:14:57.68	123.25	11.82	-33.5	-34.2	25.0	0.00e+00	0	32	0	597688320	40	5836
2026-01-28 01:14:58.69	123.19	11.91	-33.3	-34.0	25.0	0.00e+00	0	32	0	602931200	40	5746
2026-01-28 01:14:59.70	123.13	12.00	-33.3	-33.9	25.1	0.00e+00	0	32	0	609222656	40	5680
2026-01-28 01:15:00.71	123.06	12.09	-33.3	-34.0	25.1	0.00e+00	0	32	0	614465536	40	5705
2026-01-28 01:15:01.72	123.00	12.18	-33.4	-34.0	25.1	0.00e+00	0	32	0	619708416	40	5743
2026-01-28 01:15:02.73	122.94	12.27	-33.3	-34.0	25.0	0.00e+00	0	32	0	625999872	40	5735
2026-01-28 01:15:03.74	122.88	12.36	-33.4	-34.1	25.0	0.00e+00	0	32	0	631242752	40	5791
2026-01-28 01:15:04.75	122.81	12.46	-33.4	-34.1	24.9	0.00e+00	0	32	0	637534208	40	5772
2026-01-28 01:15:05.76	122.75	12.55	-33.4	-34.1	25.0	0.00e+00	0	32	0	642777088	40	5800
2026-01-28 01:15:06.77	122.69	12.64	-33.1	-33.8	25.3	0.00e+00	0	32	0	648019968	40	5616
2026-01-28 01:15:07.78	122.62	12.73	-33.1	-33.8	25.2	0.00e+00	0	32	0	654311424	40	5616
2026-01-28 01:15:08.79	122.56	12.83	-33.1	-33.8	25.3	0.00e+00	0	32	0	659554304	40	5616
2026-01-28 01:15:09.80	122.49	12.92	-33.1	-33.8	25.3	0.00e+00	0	32	0	665845760	40	5584
2026-01-28 01:15:10.81	122.42	13.01	-33.0	-33.7	25.2	0.00e+00	0	32	0	671088640	40	5540
2026-01-28 01:15:11.82	122.36	13.11	-33.1	-33.8	25.3	0.00e+00	0	32	0	677380096	40	5586
2026-01-28 01:15:12.83	122.29	13.20	-33.1	-33.8	25.3	0.00e+00	0	32	0	682622976	40	5628
2026-01-28 01:15:13.84	122.22	13.30	-33.2	-33.9	25.2	0.00e+00	0	32	0	687865856	40	5653
2026-01-28 01:15:14.85	122.16	13.39	-32.9	-33.6	25.5	0.00e+00	0	32	0	694157312	40	5491
2026-01-28 01:15:15.86	122.09	13.49	-33.0	-33.7	25.4	0.00e+00	0	32	0	699400192	40	5513
2026-01-28 01:15:16.87	122.02	13.59	-32.9	-33.6	25.5	0.00e+00	0	32	0	705691648	40	5449
2026-01-28 01:15:17.88	121.95	13.68	-33.0	-33.7	25.4	0.00e+00	0	32	0	710934528	40	5520
2026-01-28 01:15:18.89	121.88	13.78	-32.9	-33.6	25.5	0.00e+00	0	32	0	717225984	40	5440
2026-01-28 01:15:19.90	121.81	13.88	-32.9	-33.6	25.5	0.00e+00	0	32	0	722468864	40	5442
2026-01-28 01:15:20.91	121.74	13.97	-32.8	-33.4	25.7	0.00e+00	0	32	0	727711744	40	5351
2026-01-28 01:15:21.92	121.67	14.07	-32.8	-33.5	25.6	0.00e+00	0	32	0	734003200	40	5414
2026-01-28 01:15:22.93	121.60	14.17	-32.8	-33.5	25.6	0.00e+00	0	32	0	739246080	38	6053
2026-01-28 01:15:23.94	121.53	14.27	-32.7	-33.4	25.7	0.00e+00	0	32	0	745537536	38	6021
2026-01-28 01:15:24.95	121.46	14.37	-32.7	-33.4	25.6	0.00e+00	0	32	0	750780416	38	5968
2026-01-28 01:15:25.96	121.38	14.47	-32.6	-33.3	25.8	0.00e+00	0	32	0	756023296	38	5942
2026-01-28 01:15:26.97	121.31	14.56	-32.6	-33.3	25.8	0.00e+00	0	32	0	762314752	38	5933
2026-01-28 01:15:27.98	121.24	14.66	-32.6	-33.3	25.7	0.00e+00	0	32	0	767557632	38	5928
2026-01-28 01:15:28.99	121.16	14.76	-32.7	-33.3	25.7	0.00e+00	0	32	0	773849088	38	5950
2026-01-28 01:15:30.00	121.09	14.87	-32.6	-33.3	25.8	0.00e+00	0	32	0	779091968	38	5943
2026-01-28 01:15:31.01	121.01	14.97	-32.8	-33.5	25.7	0.00e+00	0	32	0	785383424	38	6061
2026-01-28 01:15:32.02	120.94	15.07	-32.6	-33.3	25.8	0.00e+00	0	32	0	790626304	38	5938
2026-01-28 01:15:33.03	120.86	15.17	-32.6	-33.2	25.8	0.00e+00	0	32	0	795869184	38	5896
2026-01-28 01:15:34.04	120.78	15.27	-32.7	-33.4	25.7	0.00e+00	0	32	0	802160640	38	5994
2026-01-28 01:15:35.06	120.70	15.37	-32.6	-33.2	25.8	0.00e+00	0	32	0	807403520	38	5892
2026-01-28 01:15:36.07	120.62	15.48	-32.8	-33.5	25.6	0.00e+00	0	32	0	813694976	38	6048
2026-01-28 01:15:37.08	120.55	15.58	-32.6	-33.3	25.9	0.00e+00	0	32	0	818937856	38	5904
2026-01-28 01:15:38.09	120.47	15.68	-32.5	-33.1	25.9	0.00e+00	0	32	0	825229312	38	5810
2026-01-28 01:15:39.10	120.39	15.79	-32.4	-33.1	25.9	0.00e+00	0	32	0	830472192	38	5776
2026-01-28 01:15:40.11	120.31	15.89	-32.3	-33.0	26.1	0.00e+00	0	32	0	835715072	38	5700
2026-01-28 01:15:41.12	120.23	16.00	-32.3	-33.0	26.1	0.00e+00	0	32	0	842006528	38	5706
2026-01-28 01:15:42.13	120.14	16.10	-32.2	-32.8	26.2	0.00e+00	0	32	0	847249408	38	5617
2026-01-28 01:15:43.14	120.06	16.21	-32.1	-32.8	26.3	0.00e+00	0	32	0	853540864	38	5587
2026-01-28 01:15:44.15	119.98	16.31	-32.0	-32.7	26.4	0.00e+00	0	32	0	858783744	38	5514
2026-01-28 01:15:45.16	119.90	16.42	-31.9	-32.6	26.4	0.00e+00	0	32	0	864026624	38	5451
2026-01-28 01:15:46.17	119.81	16.53	-31.8	-32.5	26.5	0.00e+00	0	32	0	870318080	38	5383
2026-01-28 01:15:47.18	119.73	16.63	-31.8	-32.4	26.5	0.00e+00	0	32	0	875560960	38	5372
2026-01-28 01:15:48.19	119.64	16.74	-31.7	-32.3	26.6	0.00e+00	0	32	0	881852416	36	5963
2026-01-28 01:15:49.20	119.56	16.85	-31.8	-32.5	26.5	0.00e+00	0	32	0	887095296	36	6047
2026-01-28 01:15:50.21	119.47	16.96	-31.8	-32.5	26.5	0.00e+00	0	32	0	892338176	36	6042
2026-01-28 01:15:51.22	119.38	17.07	-31.8	-32.5	26.5	0.00e+00	0	32	0	898629632	36	6047
2026-01-28 01:15:52.23	119.29	17.17	-31.7	-32.4	26.5	0.00e+00	0	32	0	903872512	36	5999
2026-01-28 01:15:53.24	119.21	17.28	-31.8	-32.5	26.6	0.00e+00	0	32	0	910163968	36	6046
2026-01-28 01:15:54.25	119.12	17.39	-31.9	-32.5	26.6	0.00e+00	0	32	0	915406848	36	6097
2026-01-28 01:15:55.25	119.03	17.50	-31.8	-32.5	26.5	0.00e+00	0	32	0	921698304	36	6040
2026-01-28 01:15:56.26	118.94	17.61	-31.9	-32.6	26.5	0.00e+00	0	32	0	926941184	36	6106
2026-01-28 01:15:57.28	118.85	17.73	-31.9	-32.5	26.5	0.00e+00	0	32	0	933232640	36	6102
2026-01-28 01:15:58.29	118.75	17.84	-31.9	-32.5	26.5	0.00e+00	0	32	0	938475520	36	6085
2026-01-28 01:15:59.29	118.66	17.95	-32.0	-32.6	26.4	0.00e+00	0	32	0	943718400	36	6142
2026-01-28 01:16:00.31	118.57	18.06	-32.1	-32.7	26.3	0.00e+00	0	32	0	950009856	36	6222
2026-01-28 01:16:01.32	118.47	18.18	-31.8	-32.5	26.6	0.00e+00	0	32	0	955252736	36	6044
2026-01-28 01:16:02.33	118.38	18.29	-32.0	-32.6	26.4	0.00e+00	0	32	0	961544192	36	6142
2026-01-28 01:16:03.34	118.28	18.40	-31.9	-32.6	26.5	0.00e+00	0	32	0	966787072	36	6136
2026-01-28 01:16:04.34	118.19	18.52	-31.6	-32.3	26.8	0.00e+00	0	32	0	972029952	36	5904
2026-01-28 01:16:05.35	118.09	18.63	-31.6	-32.3	26.7	0.00e+00	0	32	0	978321408	36	5933
2026-01-28 01:16:06.36	117.99	18.75	-31.5	-32.1	26.8	0.00e+00	0	32	0	983564288	36	5816
2026-01-28 01:16:07.38	117.89	18.86	-31.4	-32.0	27.0	0.00e+00	0	32	0	989855744	36	5757
2026-01-28 01:16:08.39	117.79	18.98	-31.4	-32.0	27.0	0.00e+00	0	32	0	995098624	36	5738
2026-01-28 01:16:09.40	117.69	19.10	-31.4	-32.1	26.9	0.00e+00	0	32	0	1000341504	36	5782
2026-01-28 01:16:10.41	117.59	19.21	-31.4	-32.0	27.0	0.00e+00	0	32	0	1006632960	36	5720
2026-01-28 01:16:11.42	117.49	19.33	-31.4	-32.1	26.9	0.00e+00	0	32	0	1011875840	36	5773
2026-01-28 01:16:12.43	117.39	19.45	-31.2	-31.9	27.1	0.00e+00	0	32	0	1018167296	36	5660
2026-01-28 01:16:13.44	117.29	19.57	-31.3	-32.0	27.0	0.00e+00	0	32	0	1023410176	36	5726
2026-01-28 01:16:14.45	117.18	19.69	-31.3	-32.0	27.0	0.00e+00	0	32	0	1029701632	36	5713
2026-01-28 01:16:15.46	117.08	19.80	-31.3	-32.0	27.0	0.00e+00	0	32	0	1034944512	36	5709
2026-01-28 01:16:16.47	116.97	19.92	-31.4	-32.1	26.9	0.00e+00	0	32	0	1040187392	36	5792
2026-01-28 01:16:17.48	116.86	20.04	-31.4	-32.0	27.0	0.00e+00	0	32	0	1046478848	36	5724
2026-01-28 01:16:18.49	116.76	20.17	-31.4	-32.1	26.9	0.00e+00	0	32	0	1051721728	36	5765
2026-01-28 01:16:19.50	116.65	20.29	-31.3	-32.0	27.0	0.00e+00	0	32	0	1058013184	36	5712
2026-01-28 01:16:20.51	116.54	20.41	-31.5	-32.1	26.9	0.00e+00	0	32	0	1063256064	36	5808
2026-01-28 01:16:21.52	116.43	20.53	-31.4	-32.0	26.9	0.00e+00	0	32	0	1068498944	36	5746
2026-01-28 01:16:22.53	116.32	20.65	-31.1	-31.8	27.2	0.00e+00	0	32	0	1074790400	36	5588
2026-01-28 01:16:23.54	116.21	20.78	-31.1	-31.7	27.3	0.00e+00	0	32	0	1080033280	36	5536
2026-01-28 01:16:24.55	116.09	20.90	-31.1	-31.8	27.3	0.00e+00	0	32	0	1086324736	36	5590
2026-01-28 01:16:25.56	115.98	21.02	-30.9	-31.6	27.3	0.00e+00	0	32	0	1091567616	36	5459
2026-01-28 01:16:26.57	115.87	21.15	-30.8	-31.4	27.5	0.00e+00	0	32	0	1096810496	36	5352
2026-01-28 01:16:27.58	115.75	21.27	-30.8	-31.5	27.4	0.00e+00	0	32	0	1103101952	36	5383
2026-01-28 01:16:28.59	115.63	21.40	-30.8	-31.4	27.5	0.00e+00	0	32	0	1108344832	36	5374
2026-01-28 01:16:29.60	115.52	21.52	-30.8	-31.4	27.5	0.00e+00	0	32	0	1114636288	34	5975
2026-01-28 01:16:30.61	115.40	21.65	-30.8	-31.4	27.4	0.00e+00	0	32	0	1119879168	34	6032
2026-01-28 01:16:31.62	115.28	21.78	-31.0	-31.6	27.3	0.00e+00	0	32	0	1126170624	34	6162
2026-01-28 01:16:32.63	115.16	21.91	-30.9	-31.6	27.3	0.00e+00	0	32	0	1131413504	34	6104
2026-01-28 01:16:33.64	115.03	22.03	-30.9	-31.6	27.4	0.00e+00	0	32	0	1137704960	34	6128
2026-01-28 01:16:34.65	114.91	22.16	-30.9	-31.6	27.3	0.00e+00	0	32	0	1142947840	34	6116
2026-01-28 01:16:35.66	114.79	22.29	-30.9	-31.5	27.4	0.00e+00	0	32	0	1148190720	34	6078
2026-01-28 01:16:36.67	114.66	22.42	-30.9	-31.5	27.3	0.00e+00	0	32	0	1154482176	34	6092
2026-01-28 01:16:37.68	114.54	22.55	-30.8	-31.5	27.4	0.00e+00	0	32	0	1159725056	34	6069
2026-01-28 01:16:38.69	114.41	22.68	-31.0	-31.7	27.2	0.00e+00	0	32	0	1166016512	34	6174
2026-01-28 01:16:39.70	114.28	22.81	-30.8	-31.5	27.4	0.00e+00	0	32	0	1171259392	34	6038
2026-01-28 01:16:40.71	114.15	22.94	-30.7	-31.3	27.5	0.00e+00	0	32	0	1176502272	34	5938
2026-01-28 01:16:41.72	114.02	23.08	-30.6	-31.2	27.6	0.00e+00	0	32	0	1182793728	34	5889
2026-01-28 01:16:42.73	113.89	23.21	-30.5	-31.1	27.7	0.00e+00	0	32	0	1188036608	34	5810
2026-01-28 01:16:43.74	113.76	23.34	-30.6	-31.2	27.6	0.00e+00	0	32	0	1194328064	34	5857
2026-01-28 01:16:44.75	113.63	23.48	-30.5	-31.1	27.7	0.00e+00	0	32	0	1199570944	34	5814
2026-01-28 01:16:45.76	113.49	23.61	-30.5	-31.1	27.7	0.00e+00	0	32	0	1204813824	34	5774
2026-01-28 01:16:46.77	113.36	23.75	-30.5	-31.2	27.7	0.00e+00	0	32	0	1211105280	34	5843
2026-01-28 01:16:47.78	113.22	23.88	-30.5	-31.2	27.6	0.00e+00	0	32	0	1216348160	34	5843
2026-01-28 01:16:48.79	113.08	24.02	-30.5	-31.2	27.6	0.00e+00	0	32	0	1222639616	34	5869
2026-01-28 01:16:49.80	112.94	24.15	-30.7	-31.3	27.5	0.00e+00	0	32	0	1227882496	34	5943
2026-01-28 01:16:50.81	112.80	24.29	-30.6	-31.3	27.6	0.00e+00	0	32	0	1234173952	34	5900
2026-01-28 01:16:51.82	112.66	24.43	-30.6	-31.3	27.6	0.00e+00	0	32	0	1239416832	34	5911
2026-01-28 01:16:52.83	112.51	24.56	-30.5	-31.1	27.8	0.00e+00	0	32	0	1245708288	34	5820
2026-01-28 01:16:53.84	112.37	24.70	-30.5	-31.2	27.7	0.00e+00	0	32	0	1250951168	34	5858
2026-01-28 01:16:54.85	112.22	24.84	-30.5	-31.1	27.7	0.00e+00	0	32	0	1256194048	34	5775
2026-01-28 01:16:55.86	112.08	24.98	-30.3	-30.9	27.9	0.00e+00	0	32	0	1262485504	34	5681
2026-01-28 01:16:56.87	111.93	25.12	-30.4	-31.0	27.8	0.00e+00	0	32	0	1267728384	34	5737
2026-01-28 01:16:57.88	111.78	25.26	-30.2	-30.8	28.0	0.00e+00	0	32	0	1274019840	34	5594
2026-01-28 01:16:58.89	111.63	25.40	-30.1	-30.7	28.1	0.00e+00	0	32	0	1279262720	34	5553
2026-01-28 01:16:59.90	111.47	25.54	-30.0	-30.6	28.1	0.00e+00	0	32	0	1284505600	34	5451
2026-01-28 01:17:00.91	111.32	25.69	-30.1	-30.7	28.1	0.00e+00	0	32	0	1290797056	34	5530
2026-01-28 01:17:01.92	111.16	25.83	-30.1	-30.7	28.0	0.00e+00	0	32	0	1296039936	34	5539
2026-01-28 01:17:02.93	111.01	25.97	-30.0	-30.6	28.2	0.00e+00	0	32	0	1302331392	34	5455
2026-01-28 01:17:03.94	110.85	26.12	-30.2	-30.8	28.1	0.00e+00	0	32	0	1307574272	34	5583
2026-01-28 01:17:04.95	110.69	26.26	-30.0	-30.6	28.1	0.00e+00	0	32	0	1313865728	34	5492
2026-01-28 01:17:05.96	110.53	26.40	-30.2	-30.8	28.0	0.00e+00	0	32	0	1319108608	34	5624
2026-01-28 01:17:06.96	110.36	26.55	-30.1	-30.8	28.0	0.00e+00	0	32	0	1324351488	34	5584
2026-01-28 01:17:07.97	110.20	26.69	-30.2	-30.8	28.0	0.00e+00	0	32	0	1330642944	34	5586
2026-01-28 01:17:08.98	110.03	26.84	-30.3	-30.9	28.0	0.00e+00	0	32	0	1335885824	34	5668
2026-01-28 01:17:09.99	109.87	26.99	-30.2	-30.8	28.0	0.00e+00	0	32	0	1342177280	34	5622
2026-01-28 01:17:11.00	109.70	27.13	-30.1	-30.7	28.0	0.00e+00	0	32	0	1347420160	34	5557
2026-01-28 01:17:12.01	109.53	27.28	-30.0	-30.7	28.1	0.00e+00	0	32	0	1352663040	34	5509
2026-01-28 01:17:13.02	109.36	27.43	-30.0	-30.6	28.0	0.00e+00	0	32	0	1358954496	34	5497
2026-01-28 01:17:14.03	109.18	27.58	-30.1	-30.7	28.1	0.00e+00	0	32	0	1364197376	34	5539
2026-01-28 01:17:15.04	109.01	27.73	-30.0	-30.6	28.2	0.00e+00	0	32	0	1370488832	34	5495
2026-01-28 01:17:16.05	108.83	27.88	-30.0	-30.7	28.1	0.00e+00	0	32	0	1375731712	34	5510
2026-01-28 01:17:17.06	108.65	28.03	-30.1	-30.7	28.0	0.00e+00	0	32	0	1380974592	34	5551
2026-01-28 01:17:18.07	108.47	28.18	-30.2	-30.8	28.1	0.00e+00	0	32	0	1387266048	34	5576
2026-01-28 01:17:19.08	108.29	28.33	-30.2	-30.8	28.1	0.00e+00	0	32	0	1392508928	34	5610
2026-01-28 01:17:20.09	108.10	28.48	-30.3	-30.9	27.9	0.00e+00	0	32	0	1398800384	34	5645
2026-01-28 01:17:21.11	107.91	28.64	-30.3	-31.0	27.9	0.00e+00	0	32	0	1404043264	34	5713
2026-01-28 01:17:22.11	107.73	28.79	-30.1	-30.8	28.1	0.00e+00	0	32	0	1409286144	34	5580
2026-01-28 01:17:23.12	107.54	28.94	-30.1	-30.8	28.1	0.00e+00	0	32	0	1415577600	34	5598
2026-01-28 01:17:24.13	107.35	29.10	-30.0	-30.7	28.1	0.00e+00	0	32	0	1420820480	34	5520
2026-01-28 01:17:25.14	107.15	29.25	-29.9	-30.5	28.3	0.00e+00	0	32	0	1427111936	34	5428
2026-01-28 01:17:26.15	106.96	29.40	-29.8	-30.5	28.3	0.00e+00	0	32	0	1432354816	34	5392
2026-01-28 01:17:27.16	106.76	29.56	-29.8	-30.4	28.3	0.00e+00	0	32	0	1438646272	34	5360
2026-01-28 01:17:28.18	106.56	29.72	-29.8	-30.4	28.3	0.00e+00	0	32	0	1443889152	34	5350
2026-01-28 01:17:29.19	106.36	29.87	-29.9	-30.6	28.2	0.00e+00	0	32	0	1450180608	34	5464
2026-01-28 01:17:30.20	106.16	30.03	-30.0	-30.6	28.2	0.00e+00	0	32	0	1455423488	34	5483
2026-01-28 01:17:31.20	105.95	30.18	-30.1	-30.7	28.2	0.00e+00	0	32	0	1460666368	34	5521
2026-01-28 01:17:32.22	105.75	30.34	-30.0	-30.6	28.2	0.00e+00	0	32	0	1466957824	34	5466
2026-01-28 01:17:33.22	105.54	30.50	-29.7	-30.3	28.4	0.00e+00	0	32	0	1472200704	32	5917
2026-01-28 01:17:34.24	105.33	30.66	-29.6	-30.2	28.5	0.00e+00	0	32	0	1478492160	32	5875
2026-01-28 01:17:35.24	105.11	30.82	-29.7	-30.3	28.4	0.00e+00	0	32	0	1483735040	32	5954
2026-01-28 01:17:36.26	104.90	30.98	-29.7	-30.3	28.4	0.00e+00	0	32	0	1488977920	32	5932
2026-01-28 01:17:37.27	104.68	31.14	-29.8	-30.4	28.3	0.00e+00	0	32	0	1495269376	32	5984
2026-01-28 01:17:38.28	104.46	31.30	-29.8	-30.4	28.4	0.00e+00	0	32	0	1500512256	32	5983
2026-01-28 01:17:39.29	104.24	31.46	-29.7	-30.4	28.3	0.00e+00	0	32	0	1506803712	32	5977
2026-01-28 01:17:40.30	104.01	31.62	-29.7	-30.4	28.3	0.00e+00	0	32	0	1512046592	32	5987
2026-01-28 01:17:41.31	103.79	31.78	-29.7	-30.3	28.4	0.00e+00	0	32	0	1517289472	32	5932
2026-01-28 01:17:42.32	103.56	31.94	-29.7	-30.3	28.4	0.00e+00	0	32	0	1523580928	32	5952
2026-01-28 01:17:43.33	103.33	32.10	-29.9	-30.5	28.3	0.00e+00	0	32	0	1528823808	32	6048
2026-01-28 01:17:44.34	103.09	32.27	-29.7	-30.3	28.4	0.00e+00	0	32	0	1535115264	32	5923
2026-01-28 01:17:45.35	102.86	32.43	-29.7	-30.3	28.5	0.00e+00	0	32	0	1540358144	32	5936
2026-01-28 01:17:46.36	102.62	32.59	-29.7	-30.3	28.4	0.00e+00	0	32	0	1546649600	32	5954
2026-01-28 01:17:47.37	102.38	32.75	-29.7	-30.3	28.4	0.00e+00	0	32	0	1551892480	32	5930
2026-01-28 01:17:48.38	102.14	32.92	-29.8	-30.4	28.4	0.00e+00	0	32	0	1558183936	32	6028
2026-01-28 01:17:49.39	101.89	33.08	-29.9	-30.5	28.3	0.00e+00	0	32	0	1563426816	32	6059
2026-01-28 01:17:50.40	101.64	33.25	-29.6	-30.2	28.5	0.00e+00	0	32	0	1568669696	32	5888
2026-01-28 01:17:51.41	101.39	33.41	-29.6	-30.2	28.5	0.00e+00	0	32	0	1574961152	32	5847
2026-01-28 01:17:52.42	101.14	33.57	-29.6	-30.1	28.5	0.00e+00	0	32	0	1580204032	32	5824
2026-01-28 01:17:53.43	100.88	33.74	-29.7	-30.3	28.3	0.00e+00	0	32	0	1586495488	32	5951
2026-01-28 01:17:54.44	100.63	33.90	-29.7	-30.3	28.4	0.00e+00	0	32	0	1591738368	32	5933
2026-01-28 01:17:55.45	100.37	34.07	-29.7	-30.3	28.4	0.00e+00	0	32	0	1596981248	32	5915
2026-01-28 01:17:56.46	100.10	34.23	-29.7	-30.3	28.4	0.00e+00	0	32	0	1603272704	32	5964
2026-01-28 01:17:57.47	99.84	34.40	-29.7	-30.3	28.4	0.00e+00	0	32	0	1608515584	32	5908
2026-01-28 01:17:58.48	99.57	34.57	-29.8	-30.4	28.3	0.00e+00	0	32	0	1614807040	32	6011
2026-01-28 01:17:59.49	99.29	34.73	-29.6	-30.2	28.5	0.00e+00	0	32	0	1620049920	32	5892
2026-01-28 01:18:00.50	99.02	34.90	-29.4	-30.0	28.6	0.00e+00	0	32	0	1625292800	32	5739
2026-01-28 01:18:01.51	98.74	35.06	-29.3	-29.9	28.5	0.00e+00	0	32	0	1631584256	32	5683
2026-01-28 01:18:02.52	98.46	35.23	-29.4	-30.0	28.6	0.00e+00	0	32	0	1636827136	32	5733
2026-01-28 01:18:03.53	98.18	35.40	-29.6	-30.2	28.6	0.00e+00	0	32	0	1643118592	32	5865
2026-01-28 01:18:04.54	97.89	35.56	-29.6	-30.2	28.5	0.00e+00	0	32	0	1648361472	32	5852
2026-01-28 01:18:05.55	97.60	35.73	-29.5	-30.2	28.5	0.00e+00	0	32	0	1654652928	32	5836
2026-01-28 01:18:06.56	97.31	35.90	-29.4	-30.0	28.6	0.00e+00	0	32	0	1659895808	32	5743
2026-01-28 01:18:07.57	97.02	36.06	-29.3	-29.9	28.6	0.00e+00	0	32	0	1666187264	32	5694
2026-01-28 01:18:08.58	96.72	36.23	-29.4	-30.0	28.7	0.00e+00	0	32	0	1671430144	32	5753
2026-01-28 01:18:09.59	96.42	36.39	-29.5	-30.1	28.6	0.00e+00	0	32	0	1676673024	32	5799
2026-01-28 01:18:10.60	96.11	36.56	-29.6	-30.2	28.5	0.00e+00	0	32	0	1682964480	32	5858
2026-01-28 01:18:11.62	95.80	36.73	-29.6	-30.3	28.5	0.00e+00	0	32	0	1688207360	32	5909
2026-01-28 01:18:12.63	95.49	36.89	-29.5	-30.1	28.6	0.00e+00	0	32	0	1694498816	32	5807
2026-01-28 01:18:13.64	95.18	37.06	-29.6	-30.2	28.6	0.00e+00	0	32	0	1699741696	32	5846
2026-01-28 01:18:14.64	94.86	37.23	-29.4	-30.0	28.6	0.00e+00	0	32	0	1704984576	32	5698
2026-01-28 01:18:15.66	94.54	37.39	-29.6	-30.2	28.5	0.00e+00	0	32	0	1711276032	32	5832
2026-01-28 01:18:16.67	94.22	37.56	-29.5	-30.1	28.6	0.00e+00	0	32	0	1716518912	32	5817
2026-01-28 01:18:17.68	93.89	37.72	-29.6	-30.2	28.5	0.00e+00	0	32	0	1722810368	32	5859
2026-01-28 01:18:18.69	93.56	37.89	-29.7	-30.3	28.4	0.00e+00	0	32	0	1728053248	32	5936
2026-01-28 01:18:19.70	93.23	38.05	-29.8	-30.4	28.4	0.00e+00	0	32	0	1733296128	32	6013
2026-01-28 01:18:20.71	92.89	38.22	-29.9	-30.5	28.3	0.00e+00	0	32	0	1739587584	32	6076
2026-01-28 01:18:21.72	92.55	38.38	-29.8	-30.4	28.3	0.00e+00	0	32	0	1744830464	32	6026
2026-01-28 01:18:22.73	92.20	38.54	-29.7	-30.3	28.4	0.00e+00	0	32	0	1751121920	32	5899
2026-01-28 01:18:23.74	91.86	38.71	-29.7	-30.3	28.4	0.00e+00	0	32	0	1756364800	32	5946
2026-01-28 01:18:24.75	91.50	38.87	-29.7	-30.3	28.4	0.00e+00	0	32	0	1762656256	32	5958
2026-01-28 01:18:25.76	91.15	39.03	-29.7	-30.3	28.4	0.00e+00	0	32	0	1767899136	32	5945
2026-01-28 01:18:26.77	90.79	39.19	-29.6	-30.2	28.4	0.00e+00	0	32	0	1773142016	32	5845
2026-01-28 01:18:27.78	90.43	39.35	-29.7	-30.3	28.4	0.00e+00	0	32	0	1779433472	32	5917
2026-01-28 01:18:28.79	90.07	39.52	-29.7	-30.3	28.3	0.00e+00	0	32	0	1784676352	32	5951
2026-01-28 01:18:29.80	89.70	39.68	-29.9	-30.5	28.2	0.00e+00	0	32	0	1790967808	32	6094
2026-01-28 01:18:30.81	89.32	39.83	-29.8	-30.5	28.3	0.00e+00	0	32	0	1796210688	32	6047
2026-01-28 01:18:31.82	88.95	39.99	-29.8	-30.4	28.3	0.00e+00	0	32	0	1801453568	32	6013
2026-01-28 01:18:32.83	88.57	40.15	-29.8	-30.4	28.3	0.00e+00	0	32	0	1807745024	32	6029
2026-01-28 01:18:33.83	88.19	40.31	-29.7	-30.4	28.4	0.00e+00	0	32	0	1812987904	32	5969
2026-01-28 01:18:34.84	87.80	40.46	-29.6	-30.2	28.4	0.00e+00	0	32	0	1819279360	32	5894
2026-01-28 01:18:35.85	87.41	40.62	-29.5	-30.1	28.5	0.00e+00	0	32	0	1824522240	32	5783
2026-01-28 01:18:36.86	87.01	40.77	-29.5	-30.1	28.6	0.00e+00	0	32	0	1829765120	32	5804
2026-01-28 01:18:37.87	86.61	40.93	-29.5	-30.2	28.6	0.00e+00	0	32	0	1836056576	32	5847
2026-01-28 01:18:38.88	86.21	41.08	-29.7	-30.3	28.4	0.00e+00	0	32	0	1841299456	32	5925
2026-01-28 01:18:39.89	85.81	41.23	-29.7	-30.4	28.5	0.00e+00	0	32	0	1847590912	32	5972
2026-01-28 01:18:40.90	85.40	41.38	-29.8	-30.4	28.3	0.00e+00	0	32	0	1852833792	32	6023
2026-01-28 01:18:41.91	84.98	41.53	-29.7	-30.4	28.4	0.00e+00	0	32	0	1859125248	32	5966
2026-01-28 01:18:42.93	84.56	41.68	-29.5	-30.1	28.5	0.00e+00	0	32	0	1864368128	32	5810
2026-01-28 01:18:43.93	84.14	41.83	-29.4	-30.0	28.7	0.00e+00	0	32	0	1870659584	32	5756
2026-01-28 01:18:44.94	83.72	41.98	-29.4	-30.0	28.7	0.00e+00	0	32	0	1875902464	32	5729
2026-01-28 01:18:45.95	83.29	42.12	-29.4	-30.0	28.7	0.00e+00	0	32	0	1881145344	32	5724
2026-01-28 01:18:46.96	82.85	42.27	-29.5	-30.1	28.6	0.00e+00	0	32	0	1887436800	32	5803
2026-01-28 01:18:47.97	82.41	42.41	-29.4	-30.1	28.6	0.00e+00	0	32	0	1892679680	32	5766
2026-01-28 01:18:48.99	81.97	42.55	-29.2	-29.8	28.8	0.00e+00	0	32	0	1898971136	32	5623
2026-01-28 01:18:49.99	81.53	42.69	-29.2	-29.8	28.8	0.00e+00	0	32	0	1904214016	32	5591
2026-01-28 01:18:51.01	81.07	42.83	-29.5	-30.1	28.6	0.00e+00	0	32	0	1909456896	32	5779
2026-01-28 01:18:52.02	80.62	42.97	-29.7	-30.4	28.5	0.00e+00	0	32	0	1915748352	32	5969
2026-01-28 01:18:53.03	80.17	43.10	-29.4	-30.1	28.7	0.00e+00	0	32	0	1920991232	32	5781
2026-01-28 01:18:54.04	79.70	43.23	-29.2	-29.8	28.8	0.00e+00	0	32	0	1927282688	32	5601
2026-01-28 01:18:55.04	79.24	43.36	-29.1	-29.7	28.9	0.00e+00	0	32	0	1932525568	32	5552
2026-01-28 01:18:56.05	78.78	43.50	-29.4	-30.0	28.8	0.00e+00	0	32	0	1937768448	32	5752
2026-01-28 01:18:57.06	78.30	43.62	-29.3	-29.9	28.8	0.00e+00	0	32	0	1944059904	32	5655
2026-01-28 01:18:58.07	77.83	43.75	-29.4	-30.0	28.7	0.00e+00	0	32	0	1949302784	32	5709
2026-01-28 01:18:59.08	77.35	43.88	-29.3	-29.9	28.7	0.00e+00	0	32	0	1955594240	32	5643
2026-01-28 01:19:00.10	76.86	44.00	-29.3	-29.9	28.7	0.00e+00	0	32	0	1960837120	32	5663
2026-01-28 01:19:01.11	76.37	44.12	-29.4	-30.0	28.6	0.00e+00	0	32	0	1967128576	32	5755
2026-01-28 01:19:02.12	75.88	44.24	-29.6	-30.2	28.5	0.00e+00	0	32	0	1972371456	32	5847
2026-01-28 01:19:03.13	75.39	44.36	-29.6	-30.3	28.6	0.00e+00	0	32	0	1978662912	32	5910
2026-01-28 01:19:04.14	74.89	44.47	-29.6	-30.2	28.5	0.00e+00	0	32	0	1983905792	32	5892
2026-01-28 01:19:05.15	74.39	44.59	-29.5	-30.1	28.6	0.00e+00	0	32	0	1989148672	32	5792
2026-01-28 01:19:06.16	73.88	44.70	-29.6	-30.2	28.5	0.00e+00	0	32	0	1995440128	32	5867
2026-01-28 01:19:07.17	73.37	44.81	-29.5	-30.1	28.6	0.00e+00	0	32	0	2000683008	32	5794
2026-01-28 01:19:08.18	72.86	44.91	-29.5	-30.1	28.6	0.00e+00	0	32	0	2006974464	32	5826
2026-01-28 01:19:09.19	72.34	45.02	-29.6	-30.3	28.4	0.00e+00	0	32	0	2012217344	32	5904
2026-01-28 01:19:10.20	71.83	45.12	-29.8	-30.4	28.4	0.00e+00	0	32	0	2017460224	32	5993
2026-01-28 01:19:11.21	71.30	45.22	-29.7	-30.3	28.4	0.00e+00	0	32	0	2023751680	32	5950
2026-01-28 01:19:12.22	70.78	45.31	-29.5	-30.1	28.5	0.00e+00	0	32	0	2028994560	32	5804
2026-01-28 01:19:13.23	70.25	45.41	-29.4	-30.0	28.7	0.00e+00	0	32	0	2035286016	32	5749
2026-01-28 01:19:14.24	69.72	45.50	-29.5	-30.1	28.5	0.00e+00	0	32	0	2040528896	32	5825
2026-01-28 01:19:15.25	69.18	45.59	-29.6	-30.2	28.5	0.00e+00	0	32	0	2045771776	32	5848
2026-01-28 01:19:16.26	68.64	45.68	-29.7	-30.3	28.4	0.00e+00	0	32	0	2052063232	32	5929
2026-01-28 01:19:17.27	68.10	45.76	-29.6	-30.3	28.6	0.00e+00	0	32	0	2057306112	32	5899
2026-01-28 01:19:18.28	67.56	45.84	-29.7	-30.3	28.3	0.00e+00	0	32	0	2063597568	32	5963
2026-01-28 01:19:19.29	67.01	45.92	-29.7	-30.4	28.4	0.00e+00	0	32	0	2068840448	32	5984
2026-01-28 01:19:20.30	66.46	46.00	-29.7	-30.4	28.4	0.00e+00	0	32	0	2075131904	32	5993
2026-01-28 01:19:21.31	65.91	46.07	-29.7	-30.4	28.5	0.00e+00	0	32	0	2080374784	32	6004
2026-01-28 01:19:22.32	65.36	46.14	-29.7	-30.3	28.5	0.00e+00	0	32	0	2085617664	32	5947
2026-01-28 01:19:23.33	64.80	46.21	-29.6	-30.2	28.6	0.00e+00	0	32	0	2091909120	32	5884
2026-01-28 01:19:24.34	64.24	46.27	-29.4	-30.1	28.7	0.00e+00	0	32	0	2097152000	32	5776
2026-01-28 01:19:25.35	63.68	46.34	-29.5	-30.0	28.7	0.00e+00	0	32	0	2103443456	32	5736
2026-01-28 01:19:26.36	63.11	46.40	-29.4	-30.0	28.7	0.00e+00	0	32	0	2108686336	32	5725
2026-01-28 01:19:27.37	62.55	46.45	-29.5	-30.1	28.7	0.00e+00	0	32	0	2113929216	32	5767
2026-01-28 01:19:28.38	61.98	46.50	-29.5	-30.1	28.6	0.00e+00	0	32	0	2120220672	32	5815
2026-01-28 01:19:29.39	61.41	46.55	-29.6	-30.2	28.5	0.00e+00	0	32	0	2125463552	32	5872
2026-01-28 01:19:30.40	60.84	46.60	-29.7	-30.3	28.4	0.00e+00	0	32	0	2131755008	32	5932
2026-01-28 01:19:31.41	60.27	46.64	-29.6	-30.2	28.6	0.00e+00	0	32	0	2136997888	32	5864
2026-01-28 01:19:32.42	59.69	46.68	-29.6	-30.2	28.6	0.00e+00	0	32	0	2142240768	32	5895
2026-01-28 01:19:33.43	59.12	46.72	-29.6	-30.2	28.5	0.00e+00	0	32	0	2148532224	32	5884
2026-01-28 01:19:34.44	58.54	46.76	-29.6	-30.2	28.6	0.00e+00	0	32	0	2153775104	32	5882
2026-01-28 01:19:35.44	57.97	46.79	-29.5	-30.1	28.7	0.00e+00	0	32	0	2160066560	32	5776
2026-01-28 01:19:36.45	57.39	46.81	-29.6	-30.2	28.5	0.00e+00	0	32	0	2165309440	32	5841
2026-01-28 01:19:37.47	56.80	46.84	-29.7	-30.3	28.4	0.00e+00	0	32	0	2171600896	32	5927
2026-01-28 01:19:38.48	56.22	46.86	-29.5	-30.1	28.5	0.00e+00	0	32	0	2176843776	32	5784
2026-01-28 01:19:39.49	55.64	46.88	-29.5	-30.2	28.5	0.00e+00	0	32	0	2183135232	32	5838
2026-01-28 01:19:40.50	55.06	46.89	-29.4	-30.1	28.7	0.00e+00	0	32	0	2188378112	32	5767
2026-01-28 01:19:41.51	54.47	46.91	-29.4	-30.0	28.6	0.00e+00	0	32	0	2193620992	32	5747
2026-01-28 01:19:42.52	53.89	46.91	-29.4	-30.0	28.7	0.00e+00	0	32	0	2199912448	32	5738
2026-01-28 01:19:43.53	53.31	46.92	-29.4	-30.1	28.7	0.00e+00	0	32	0	2205155328	32	5779
2026-01-28 01:19:44.54	52.72	46.92	-29.4	-30.0	28.6	0.00e+00	0	32	0	2211446784	32	5725
2026-01-28 01:19:45.55	52.14	46.92	-29.4	-30.1	28.6	0.00e+00	0	32	0	2216689664	32	5774
2026-01-28 01:19:46.56	51.55	46.92	-29.6	-30.2	28.5	0.00e+00	0	32	0	2221932544	32	5840
2026-01-28 01:19:47.57	50.97	46.91	-29.6	-30.2	28.4	0.00e+00	0	32	0	2228224000	32	5851
2026-01-28 01:19:48.58	50.39	46.90	-29.6	-30.3	28.5	0.00e+00	0	32	0	2233466880	32	5908
2026-01-28 01:19:49.59	49.80	46.88	-29.5	-30.1	28.4	0.00e+00	0	32	0	2239758336	32	5810
2026-01-28 01:19:50.60	49.22	46.86	-29.8	-30.4	28.4	0.00e+00	0	32	0	2245001216	32	5990
2026-01-28 01:19:51.61	48.64	46.84	-29.6	-30.2	28.3	0.00e+00	0	32	0	2250244096	32	5856
2026-01-28 01:19:52.62	48.06	46.82	-29.6	-30.2	28.4	0.00e+00	0	32	0	2256535552	32	5835
2026-01-28 01:19:53.63	47.48	46.79	-29.4	-30.1	28.1	0.00e+00	0	32	0	2261778432	32	5784
2026-01-28 01:19:54.64	46.90	46.76	-29.4	-30.0	28.5	0.00e+00	0	32	0	2268069888	32	5723
2026-01-28 01:19:55.65	46.33	46.73	-29.4	-30.0	28.4	0.00e+00	0	32	0	2273312768	32	5752
2026-01-28 01:19:56.66	45.75	46.69	-29.6	-30.3	28.4	0.00e+00	0	32	0	2279604224	32	5910
2026-01-28 01:19:57.67	45.18	46.65	-29.5	-30.1	28.5	0.00e+00	0	32	0	2284847104	32	5799
2026-01-28 01:19:58.68	44.60	46.61	-29.6	-30.2	28.5	0.00e+00	0	32	0	2291138560	32	5883
2026-01-28 01:19:59.69	44.03	46.56	-29.7	-30.4	28.4	0.00e+00	0	32	0	2296381440	32	5990
2026-01-28 01:20:00.70	43.46	46.51	-29.9	-30.5	28.3	0.00e+00	0	32	0	2301624320	32	6041
2026-01-28 01:20:01.71	42.89	46.46	-29.7	-30.3	28.5	0.00e+00	0	32	0	2307915776	32	5900
2026-01-28 01:20:02.72	42.33	46.40	-29.7	-30.3	28.5	0.00e+00	0	32	0	2313158656	32	5909
2026-01-28 01:20:03.73	41.77	46.35	-30.0	-30.6	28.2	0.00e+00	0	32	0	2319450112	32	6117
2026-01-28 01:20:04.74	41.20	46.29	-29.4	-30.0	28.6	0.00e+00	0	32	0	2324692992	32	5753
2026-01-28 01:20:05.75	40.64	46.22	-29.2	-29.9	28.8	0.00e+00	0	32	0	2329935872	32	5632
2026-01-28 01:20:06.76	40.09	46.15	-29.1	-29.7	28.9	0.00e+00	0	32	0	2336227328	32	5556
2026-01-28 01:20:07.77	39.53	46.08	-29.0	-29.6	28.9	0.00e+00	0	32	0	2341470208	32	5489
2026-01-28 01:20:08.78	38.98	46.01	-29.3	-29.9	28.8	0.00e+00	0	32	0	2347761664	32	5663
2026-01-28 01:20:09.79	38.43	45.94	-29.5	-30.1	28.5	0.00e+00	0	32	0	2353004544	32	5797
2026-01-28 01:20:10.81	37.88	45.86	-29.4	-29.9	28.7	0.00e+00	0	32	0	2358247424	32	5694
2026-01-28 01:20:11.82	37.34	45.78	-29.4	-30.0	28.5	0.00e+00	0	32	0	2364538880	32	5721
2026-01-28 01:20:12.83	36.80	45.69	-29.3	-30.0	28.7	0.00e+00	0	32	0	2369781760	32	5703
2026-01-28 01:20:13.84	36.26	45.61	-29.4	-30.0	28.6	0.00e+00	0	32	0	2376073216	32	5704
2026-01-28 01:20:14.85	35.72	45.52	-29.5	-30.2	28.5	0.00e+00	0	32	0	2381316096	32	5855
2026-01-28 01:20:15.86	35.19	45.43	-29.4	-30.0	28.7	0.00e+00	0	32	0	2387607552	32	5744
2026-01-28 01:20:16.87	34.66	45.33	-29.2	-29.8	28.8	0.00e+00	0	32	0	2392850432	32	5594
2026-01-28 01:20:17.88	34.14	45.23	-29.3	-29.9	28.6	0.00e+00	0	32	0	2399141888	32	5683
2026-01-28 01:20:18.89	33.61	45.14	-29.3	-29.9	28.7	0.00e+00	0	32	0	2404384768	32	5636
2026-01-28 01:20:19.89	33.10	45.04	-29.4	-30.0	28.6	0.00e+00	0	32	0	2409627648	32	5720
2026-01-28 01:20:20.91	32.58	44.93	-29.3	-29.9	28.6	0.00e+00	0	32	0	2415919104	32	5661
2026-01-28 01:20:21.92	32.07	44.83	-29.2	-29.7	28.7	0.00e+00	0	32	0	2421161984	32	5557
2026-01-28 01:20:22.93	31.56	44.72	-29.2	-29.9	28.6	0.00e+00	0	33	0	2427453440	32	5648
2026-01-28 01:20:23.94	31.05	44.61	-29.2	-29.8	28.7	0.00e+00	0	32	0	2432696320	32	5620
2026-01-28 01:20:24.95	30.55	44.49	-29.4	-30.0	28.6	0.00e+00	0	32	0	2437939200	32	5703
2026-01-28 01:20:25.96	30.05	44.38	-29.4	-30.0	28.7	0.00e+00	0	32	0	2444230656	32	5708
2026-01-28 01:20:26.96	29.56	44.26	-29.2	-29.8	28.8	0.00e+00	0	32	0	2449473536	32	5584
2026-01-28 01:20:27.97	29.07	44.15	-29.2	-29.8	28.8	0.00e+00	0	32	0	2455764992	32	5612
2026-01-28 01:20:28.99	28.58	44.02	-28.9	-29.5	28.9	0.00e+00	0	32	0	2461007872	32	5404
2026-01-28 01:20:30.00	28.10	43.90	-28.8	-29.5	29.0	0.00e+00	0	32	0	2466250752	32	5395
2026-01-28 01:20:31.01	27.62	43.78	-28.9	-29.5	28.9	0.00e+00	0	32	0	2472542208	32	5379
2026-01-28 01:20:32.02	27.14	43.65	-29.0	-29.5	29.0	0.00e+00	0	32	0	2477785088	32	5423
2026-01-28 01:20:33.03	26.67	43.52	-29.1	-29.7	29.0	0.00e+00	0	32	0	2484076544	32	5537
2026-01-28 01:20:34.04	26.20	43.39	-29.1	-29.8	28.8	0.00e+00	0	32	0	2489319424	32	5603
2026-01-28 01:20:35.05	25.74	43.26	-29.1	-29.7	28.8	0.00e+00	0	32	0	2495610880	32	5527
2026-01-28 01:20:36.06	25.28	43.13	-29.1	-29.7	28.8	0.00e+00	0	32	0	2500853760	32	5544
2026-01-28 01:20:37.07	24.82	42.99	-28.9	-29.6	28.9	0.00e+00	0	32	0	2506096640	32	5452
2026-01-28 01:20:38.08	24.37	42.86	-28.8	-29.4	29.1	0.00e+00	0	32	0	2512388096	32	5361
2026-01-28 01:20:39.08	23.92	42.72	-28.7	-29.2	29.2	0.00e+00	0	32	0	2517630976	30	5872
2026-01-28 01:20:40.10	23.47	42.58	-28.7	-29.3	29.1	0.00e+00	0	32	0	2523922432	30	5943
2026-01-28 01:20:41.11	23.03	42.44	-28.8	-29.3	29.0	0.00e+00	0	32	0	2529165312	30	5933
2026-01-28 01:20:42.12	22.60	42.30	-28.7	-29.3	29.0	0.00e+00	0	32	0	2534408192	30	5923
2026-01-28 01:20:43.13	22.16	42.15	-28.7	-29.2	29.1	0.00e+00	0	32	0	2540699648	30	5895
2026-01-28 01:20:44.13	21.74	42.01	-29.0	-29.7	28.9	0.00e+00	0	32	0	2545942528	30	6193
2026-01-28 01:20:45.14	21.31	41.87	-29.0	-29.6	28.9	0.00e+00	0	32	0	2552233984	30	6152
2026-01-28 01:20:46.15	20.89	41.72	-29.0	-29.6	28.8	0.00e+00	0	32	0	2557476864	30	6106
2026-01-28 01:20:47.16	20.47	41.57	-28.7	-29.3	29.1	0.00e+00	0	32	0	2562719744	30	5912
2026-01-28 01:20:48.17	20.06	41.42	-28.7	-29.4	29.1	0.00e+00	0	32	0	2569011200	30	5965
2026-01-28 01:20:49.18	19.65	41.27	-28.8	-29.4	29.1	0.00e+00	0	32	0	2574254080	30	6015
2026-01-28 01:20:50.19	19.24	41.12	-28.8	-29.4	29.0	0.00e+00	0	32	0	2580545536	30	5996
2026-01-28 01:20:51.21	18.83	40.97	-28.8	-29.4	29.0	0.00e+00	0	32	0	2585788416	30	6005
2026-01-28 01:20:52.22	18.44	40.81	-28.9	-29.6	28.8	0.00e+00	0	32	0	2592079872	30	6157
2026-01-28 01:20:53.23	18.04	40.66	-29.1	-29.8	28.9	0.00e+00	0	32	0	2597322752	30	6258
2026-01-28 01:20:54.24	17.65	40.50	-29.2	-29.9	28.8	0.00e+00	0	32	0	2603614208	30	6331
2026-01-28 01:20:55.25	17.26	40.35	-29.3	-29.8	28.7	0.00e+00	0	32	0	2608857088	30	6284
2026-01-28 01:20:56.26	16.88	40.19	-29.4	-30.0	28.6	0.00e+00	0	32	0	2614099968	30	6420
2026-01-28 01:20:57.27	16.50	40.03	-29.4	-30.1	28.7	0.00e+00	0	32	0	2620391424	30	6471
2026-01-28 01:20:58.28	16.12	39.87	-29.4	-29.9	28.6	0.00e+00	0	32	0	2625634304	30	6384
2026-01-28 01:20:59.29	15.75	39.72	-29.2	-29.8	28.8	0.00e+00	0	32	0	2631925760	30	6258
2026-01-28 01:21:00.30	15.38	39.56	-29.0	-29.5	28.9	0.00e+00	0	32	0	2637168640	30	6095
2026-01-28 01:21:01.31	15.02	39.40	-29.0	-29.5	29.0	0.00e+00	0	32	0	2642411520	30	6070
2026-01-28 01:21:02.32	14.66	39.24	-29.0	-29.5	28.9	0.00e+00	0	32	0	2648702976	30	6091
2026-01-28 01:21:03.33	14.30	39.07	-29.1	-29.8	28.8	0.00e+00	0	32	0	2653945856	30	6261
2026-01-28 01:21:04.34	13.94	38.91	-29.2	-29.8	28.8	0.00e+00	0	32	0	2660237312	30	6307
2026-01-28 01:21:05.35	13.59	38.75	-29.3	-29.9	28.7	0.00e+00	0	32	0	2665480192	30	6349
2026-01-28 01:21:06.36	13.25	38.59	-29.2	-29.8	28.7	0.00e+00	0	32	0	2670723072	30	6268
2026-01-28 01:21:07.37	12.90	38.43	-29.1	-29.6	28.8	0.00e+00	0	32	0	2677014528	30	6145
2026-01-28 01:21:08.38	12.56	38.26	-29.1	-29.7	28.9	0.00e+00	0	32	0	2682257408	30	6233
2026-01-28 01:21:09.39	12.22	38.10	-29.2	-29.7	28.9	0.00e+00	0	32	0	2688548864	30	6204
2026-01-28 01:21:10.40	11.89	37.93	-29.0	-29.7	28.8	0.00e+00	0	32	0	2693791744	30	6189
2026-01-28 01:21:11.41	11.56	37.77	-29.0	-29.7	28.8	0.00e+00	0	32	0	2700083200	30	6205
2026-01-28 01:21:12.42	11.23	37.61	-28.9	-29.6	29.0	0.00e+00	0	32	0	2705326080	30	6135
2026-01-28 01:21:13.43	10.91	37.44	-28.8	-29.4	28.9	0.00e+00	0	32	0	2711617536	30	5977
2026-01-28 01:21:14.44	10.59	37.28	-28.8	-29.5	28.8	0.00e+00	0	32	0	2716860416	30	6062
2026-01-28 01:21:15.45	10.27	37.11	-28.8	-29.5	28.9	0.00e+00	0	32	0	2722103296	30	6055
2026-01-28 01:21:16.46	9.96	36.94	-28.9	-29.6	29.0	0.00e+00	0	32	0	2728394752	30	6119
2026-01-28 01:21:17.47	9.65	36.78	-28.7	-29.4	29.0	0.00e+00	0	32	0	2733637632	30	6025
2026-01-28 01:21:18.48	9.34	36.61	-28.8	-29.4	28.6	0.00e+00	0	32	0	2739929088	30	5968
2026-01-28 01:21:19.49	9.04	36.45	-28.6	-29.3	28.7	0.00e+00	0	32	0	2745171968	30	5902
2026-01-28 01:21:20.50	8.74	36.28	-28.6	-29.3	29.0	0.00e+00	0	32	0	2750414848	30	5906
2026-01-28 01:21:21.51	8.44	36.12	-28.7	-29.4	28.8	0.00e+00	0	32	0	2756706304	30	5993
2026-01-28 01:21:22.52	8.14	35.95	-28.7	-29.3	29.0	0.00e+00	0	32	0	2761949184	30	5911
2026-01-28 01:21:23.53	7.85	35.78	-28.8	-29.4	28.7	0.00e+00	0	32	0	2768240640	30	6017
2026-01-28 01:21:24.54	7.56	35.62	-29.0	-29.5	28.4	0.00e+00	0	32	0	2773483520	30	6085
2026-01-28 01:21:25.56	7.27	35.45	-29.0	-29.5	28.8	0.00e+00	0	32	0	2778726400	30	6092
2026-01-28 01:21:26.57	6.99	35.29	-28.9	-29.5	28.9	0.00e+00	0	32	0	2785017856	30	6061
2026-01-28 01:21:27.58	6.71	35.12	-28.8	-29.4	28.9	0.00e+00	0	32	0	2790260736	30	5968
2026-01-28 01:21:28.59	6.43	34.95	-28.8	-29.4	28.9	0.00e+00	0	32	0	2796552192	30	5982
2026-01-28 01:21:29.60	6.16	34.79	-28.9	-29.6	28.9	0.00e+00	0	32	0	2801795072	30	6146
2026-01-28 01:21:30.61	5.89	34.62	-29.0	-29.5	28.8	0.00e+00	0	32	0	2808086528	30	6071
2026-01-28 01:21:31.62	5.62	34.46	-29.2	-29.7	28.6	0.00e+00	0	32	0	2813329408	30	6206
2026-01-28 01:21:32.63	5.35	34.29	-29.0	-29.6	28.7	0.00e+00	0	32	0	2819620864	30	6114
2026-01-28 01:21:33.64	5.09	34.13	-28.9	-29.4	29.0	0.00e+00	0	32	0	2824863744	30	6007
2026-01-28 01:21:34.65	4.83	33.96	-29.0	-29.6	28.8	0.00e+00	0	32	0	2830106624	30	6118
2026-01-28 01:21:35.66	4.57	33.80	-28.9	-29.4	28.9	0.00e+00	0	32	0	2836398080	30	6026
2026-01-28 01:21:36.67	4.32	33.63	-29.0	-29.5	28.8	0.00e+00	0	32	0	2841640960	30	6078
2026-01-28 01:21:37.68	4.06	33.47	-29.0	-29.5	28.8	0.00e+00	0	32	0	2847932416	30	6077
2026-01-28 01:21:38.69	3.81	33.31	-29.0	-29.5	28.8	0.00e+00	0	32	0	2853175296	30	6086
2026-01-28 01:21:39.70	3.57	33.14	-28.9	-29.4	28.8	0.00e+00	0	32	0	2858418176	30	6033
2026-01-28 01:21:40.71	3.32	32.98	-29.0	-29.6	28.8	0.00e+00	0	32	0	2864709632	30	6165
2026-01-28 01:21:41.72	3.08	32.82	-29.0	-29.7	28.7	0.00e+00	0	32	0	2869952512	30	6228
2026-01-28 01:21:42.73	2.84	32.65	-29.0	-29.5	28.9	0.00e+00	0	32	0	2876243968	30	6084
2026-01-28 01:21:43.74	2.60	32.49	-29.1	-29.6	28.7	0.00e+00	0	32	0	2881486848	30	6156
2026-01-28 01:21:44.75	2.36	32.33	-29.1	-29.8	28.8	0.00e+00	0	32	0	2886729728	30	6246
2026-01-28 01:21:45.76	2.13	32.17	-29.1	-29.6	28.8	0.00e+00	0	32	0	2893021184	30	6159
2026-01-28 01:21:46.77	1.90	32.01	-28.9	-29.5	29.0	0.00e+00	0	32	0	2898264064	30	6073
2026-01-28 01:21:47.78	1.67	31.85	-28.9	-29.6	28.9	0.00e+00	0	32	0	2904555520	30	6155
2026-01-28 01:21:48.79	1.45	31.69	-29.0	-29.7	28.8	0.00e+00	0	32	0	2909798400	30	6195
2026-01-28 01:21:49.80	1.22	31.52	-28.9	-29.5	28.8	0.00e+00	0	32	0	2916089856	30	6057
2026-01-28 01:21:50.81	1.00	31.37	-29.1	-29.6	28.8	0.00e+00	0	32	0	2921332736	30	6138
2026-01-28 01:21:51.82	0.78	31.21	-29.1	-29.7	28.7	0.00e+00	0	32	0	2927624192	30	6204
2026-01-28 01:21:52.83	0.56	31.05	-29.1	-29.7	28.7	0.00e+00	0	32	0	2932867072	30	6200
2026-01-28 01:21:53.84	0.35	30.89	-29.1	-29.8	28.7	0.00e+00	0	32	0	2938109952	30	6274
2026-01-28 01:21:54.85	0.14	30.73	-29.1	-29.8	28.7	0.00e+00	0	32	0	2944401408	30	6293
2026-01-28 01:21:55.86	359.93	30.57	-29.3	-29.8	28.5	0.00e+00	0	32	0	2949644288	30	6272
2026-01-28 01:21:56.87	359.72	30.41	-29.4	-30.1	28.5	0.00e+00	0	32	0	2955935744	30	6486
2026-01-28 01:21:57.88	359.51	30.26	-29.4	-30.1	28.5	0.00e+00	0	32	0	2961178624	30	6491
2026-01-28 01:21:58.89	359.31	30.10	-29.6	-30.1	28.4	0.00e+00	0	32	0	2966421504	30	6523
2026-01-28 01:21:59.90	359.10	29.94	-29.5	-30.1	28.4	0.00e+00	0	32	0	2972712960	30	6469
2026-01-28 01:22:00.91	358.90	29.79	-29.5	-30.0	28.4	0.00e+00	0	32	0	2977955840	30	6463
2026-01-28 01:22:01.92	358.70	29.63	-29.5	-30.0	28.5	0.00e+00	0	32	0	2984247296	30	6435
2026-01-28 01:22:02.93	358.51	29.48	-29.4	-30.1	28.5	0.00e+00	0	32	0	2989490176	30	6522
2026-01-28 01:22:03.94	358.31	29.32	-29.6	-30.1	28.3	0.00e+00	0	32	0	2994733056	30	6515
2026-01-28 01:22:04.95	358.12	29.17	-29.5	-30.0	28.5	0.00e+00	0	32	0	3001024512	30	6458
2026-01-28 01:22:05.96	357.93	29.02	-29.3	-29.9	28.6	0.00e+00	0	32	0	3006267392	30	6343
2026-01-28 01:22:06.97	357.74	28.86	-29.4	-30.0	28.5	0.00e+00	0	32	0	3012558848	30	6431
2026-01-28 01:22:07.98	357.55	28.71	-29.3	-30.0	28.5	0.00e+00	0	32	0	3017801728	30	6456
2026-01-28 01:22:08.99	357.37	28.56	-29.3	-30.0	28.5	0.00e+00	0	32	0	3024093184	30	6395
2026-01-28 01:22:10.00	357.18	28.41	-29.3	-29.8	28.5	0.00e+00	0	32	0	3029336064	30	6315
2026-01-28 01:22:11.01	357.00	28.26	-29.3	-29.9	28.6	0.00e+00	0	32	0	3034578944	30	6374
2026-01-28 01:22:12.02	356.82	28.11	-29.4	-30.0	28.5	0.00e+00	0	32	0	3040870400	30	6399
2026-01-28 01:22:13.03	356.64	27.96	-29.3	-29.9	28.5	0.00e+00	0	32	0	3046113280	30	6331
2026-01-28 01:22:14.04	356.46	27.81	-29.5	-30.0	28.4	0.00e+00	0	32	0	3052404736	30	6432
2026-01-28 01:22:15.05	356.29	27.66	-29.5	-30.2	28.3	0.00e+00	0	32	0	3057647616	30	6580
2026-01-28 01:22:16.05	356.12	27.51	-29.6	-30.3	28.4	0.00e+00	0	32	0	3062890496	30	6619
2026-01-28 01:22:17.06	355.94	27.36	-29.6	-30.3	28.4	0.00e+00	0	32	0	3069181952	30	6638
2026-01-28 01:22:18.07	355.77	27.22	-29.6	-30.3	28.3	0.00e+00	0	32	0	3074424832	32	5953
2026-01-28 01:22:19.08	355.61	27.07	-29.6	-30.3	28.3	0.00e+00	0	32	0	3080716288	32	5956
2026-01-28 01:22:20.09	355.44	26.92	-29.7	-30.5	28.2	0.00e+00	0	32	0	3085959168	32	6035
2026-01-28 01:22:21.10	355.27	26.78	-29.8	-30.5	28.2	0.00e+00	0	32	0	3091202048	32	6068
2026-01-28 01:22:22.11	355.11	26.63	-29.9	-30.5	28.2	0.00e+00	0	32	0	3097493504	32	6100
2026-01-28 01:22:23.12	354.95	26.49	-29.9	-30.6	28.1	0.00e+00	0	32	0	3102736384	32	6111
2026-01-28 01:22:24.13	354.79	26.34	-29.9	-30.4	28.1	0.00e+00	0	32	0	3109027840	32	6023
2026-01-28 01:22:25.14	354.63	26.20	-30.0	-30.5	28.0	0.00e+00	0	32	0	3114270720	32	6099
2026-01-28 01:22:26.15	354.47	26.06	-30.0	-30.5	28.1	0.00e+00	0	32	0	3120562176	32	6065
2026-01-28 01:22:27.16	354.31	25.91	-29.4	-30.0	28.4	0.00e+00	0	32	0	3125805056	32	5719
2026-01-28 01:22:28.17	354.16	25.77	-29.4	-29.9	28.4	0.00e+00	0	32	0	3132096512	32	5679
2026-01-28 01:22:29.18	354.00	25.63	-29.4	-30.0	28.5	0.00e+00	0	32	0	3137339392	32	5718
2026-01-28 01:22:30.19	353.85	25.49	-29.4	-30.1	28.4	0.00e+00	0	32	0	3142582272	32	5782
2026-01-28 01:22:31.20	353.70	25.35	-29.4	-30.1	28.3	0.00e+00	0	32	0	3148873728	32	5770
2026-01-28 01:22:32.21	353.55	25.21	-29.4	-30.1	28.5	0.00e+00	0	32	0	3154116608	32	5766
2026-01-28 01:22:33.22	353.40	25.07	-29.4	-29.9	28.4	0.00e+00	0	32	0	3159359488	32	5679
2026-01-28 01:22:34.23	353.25	24.93	-29.5	-30.0	28.4	0.00e+00	0	32	0	3165650944	32	5729
2026-01-28 01:22:35.23	353.11	24.79	-29.4	-29.9	28.5	0.00e+00	0	32	0	3170893824	32	5668
2026-01-28 01:22:36.24	352.96	24.65	-29.4	-30.0	28.4	0.00e+00	0	32	0	3177185280	32	5698
2026-01-28 01:22:37.25	352.82	24.52	-29.6	-30.3	28.2	0.00e+00	0	32	0	3182428160	32	5906
2026-01-28 01:22:38.26	352.68	24.38	-29.6	-30.3	28.3	0.00e+00	0	32	0	3187671040	32	5935
2026-01-28 01:22:39.27	352.54	24.24	-29.6	-30.3	28.3	0.00e+00	0	32	0	3193962496	32	5955
2026-01-28 01:22:40.28	352.40	24.11	-29.6	-30.2	28.3	0.00e+00	0	32	0	3199205376	32	5836
2026-01-28 01:22:41.29	352.26	23.97	-29.8	-30.4	28.1	0.00e+00	0	32	0	3205496832	32	5985
2026-01-28 01:22:42.30	352.13	23.84	-29.7	-30.4	28.2	0.00e+00	0	32	0	3210739712	32	6015
2026-01-28 01:22:43.31	351.99	23.70	-29.8	-30.5	28.2	0.00e+00	0	32	0	3217031168	32	6043
2026-01-28 01:22:44.32	351.85	23.57	-29.6	-30.2	28.3	0.00e+00	0	32	0	3222274048	32	5834
2026-01-28 01:22:45.33	351.72	23.43	-29.7	-30.2	28.2	0.00e+00	0	32	0	3228565504	32	5879
2026-01-28 01:22:46.34	351.59	23.30	-29.7	-30.3	28.2	0.00e+00	0	32	0	3233808384	32	5960
2026-01-28 01:22:47.35	351.46	23.17	-29.8	-30.3	28.1	0.00e+00	0	32	0	3239051264	32	5934
2026-01-28 01:22:48.36	351.33	23.04	-29.8	-30.4	28.1	0.00e+00	0	32	0	3245342720	32	5966
2026-01-28 01:22:49.37	351.20	22.91	-29.9	-30.6	28.1	0.00e+00	0	32	0	3250585600	32	6111
2026-01-28 01:22:50.38	351.07	22.77	-29.9	-30.6	28.1	0.00e+00	0	32	0	3256877056	32	6105
2026-01-28 01:22:51.39	350.95	22.64	-29.9	-30.6	28.1	0.00e+00	0	32	0	3262119936	32	6131
2026-01-28 01:22:52.39	350.82	22.52	-29.9	-30.6	28.1	0.00e+00	0	32	0	3267362816	32	6157
2026-01-28 01:22:53.40	350.70	22.39	-30.1	-30.8	27.9	0.00e+00	0	32	0	3273654272	32	6267
2026-01-28 01:22:54.41	350.57	22.26	-30.1	-30.8	28.0	0.00e+00	0	32	0	3278897152	32	6275
2026-01-28 01:22:55.42	350.45	22.13	-30.2	-30.9	27.8	0.00e+00	0	32	0	3285188608	32	6346
2026-01-28 01:22:56.43	350.33	22.00	-30.1	-30.8	27.8	0.00e+00	0	32	0	3290431488	32	6305
2026-01-28 01:22:57.44	350.21	21.87	-30.1	-30.6	27.9	0.00e+00	0	33	0	3295674368	32	6152
2026-01-28 01:22:58.45	350.09	21.75	-30.1	-30.8	27.8	0.00e+00	0	32	0	3301965824	32	6259
2026-01-28 01:22:59.46	349.97	21.62	-30.1	-30.6	28.0	0.00e+00	0	32	0	3307208704	32	6151
2026-01-28 01:23:00.47	349.86	21.50	-30.1	-30.8	27.9	0.00e+00	0	32	0	3313500160	32	6274
2026-01-28 01:23:01.49	349.74	21.37	-30.0	-30.5	28.0	0.00e+00	0	32	0	3318743040	32	6092
2026-01-28 01:23:02.50	349.62	21.24	-29.9	-30.6	28.0	0.00e+00	0	32	0	3325034496	32	6165
2026-01-28 01:23:03.51	349.51	21.12	-30.1	-30.7	28.0	0.00e+00	0	32	0	3330277376	32	6239
2026-01-28 01:23:04.52	349.39	21.00	-30.2	-30.9	27.9	0.00e+00	0	32	0	3335520256	32	6326
2026-01-28 01:23:05.52	349.28	20.87	-30.1	-30.8	28.0	0.00e+00	0	32	0	3341811712	32	6258
2026-01-28 01:23:06.54	349.17	20.75	-30.0	-30.7	28.0	0.00e+00	0	32	0	3347054592	32	6238
2026-01-28 01:23:07.55	349.06	20.63	-30.1	-30.8	27.9	0.00e+00	0	32	0	3353346048	32	6276
2026-01-28 01:23:08.56	348.95	20.51	-30.1	-30.7	27.9	0.00e+00	0	32	0	3358588928	32	6188
2026-01-28 01:23:09.57	348.84	20.38	-30.2	-30.7	27.8	0.00e+00	0	32	0	3363831808	32	6244
2026-01-28 01:23:10.58	348.73	20.26	-30.1	-30.7	27.9	0.00e+00	0	32	0	3370123264	32	6190
2026-01-28 01:23:11.59	348.63	20.14	-30.3	-30.9	27.7	0.00e+00	0	32	0	3375366144	32	6321
2026-01-28 01:23:12.60	348.52	20.02	-30.5	-31.0	27.6	0.00e+00	0	32	0	3381657600	32	6455
2026-01-28 01:23:13.61	348.42	19.90	-30.4	-31.0	27.6	0.00e+00	0	32	0	3386900480	32	6405
2026-01-28 01:23:14.62	348.31	19.78	-30.5	-31.1	27.6	0.00e+00	0	32	0	3392143360	32	6491
2026-01-28 01:23:15.63	348.21	19.67	-30.7	-31.3	27.4	0.00e+00	0	32	0	3398434816	34	5915
2026-01-28 01:23:16.64	348.10	19.55	-30.8	-31.4	27.3	0.00e+00	0	32	0	3403677696	34	5999
2026-01-28 01:23:17.65	348.00	19.43	-31.0	-31.6	27.2	0.00e+00	0	32	0	3409969152	34	6148
2026-01-28 01:23:18.66	347.90	19.31	-31.1	-31.7	27.1	0.00e+00	0	32	0	3415212032	34	6180
2026-01-28 01:23:19.67	347.80	19.20	-31.0	-31.5	27.2	0.00e+00	0	32	0	3421503488	34	6098
2026-01-28 01:23:20.68	347.70	19.08	-31.0	-31.6	27.2	0.00e+00	0	32	0	3426746368	34	6152
2026-01-28 01:23:21.69	347.60	18.96	-31.0	-31.6	27.1	0.00e+00	0	32	0	3433037824	34	6154
2026-01-28 01:23:22.70	347.50	18.85	-31.0	-31.6	27.1	0.00e+00	0	32	0	3438280704	34	6112
2026-01-28 01:23:23.71	347.41	18.73	-31.0	-31.6	27.1	0.00e+00	0	32	0	3443523584	34	6112
2026-01-28 01:23:24.72	347.31	18.62	-31.0	-31.6	27.2	0.00e+00	0	33	0	3449815040	34	6112
2026-01-28 01:23:25.73	347.21	18.51	-30.9	-31.6	27.2	0.00e+00	0	32	0	3455057920	34	6159
2026-01-28 01:23:26.74	347.12	18.39	-31.0	-31.6	27.0	0.00e+00	0	32	0	3461349376	34	6117
2026-01-28 01:23:27.75	347.03	18.28	-30.9	-31.7	27.2	0.00e+00	0	32	0	3466592256	34	6184
2026-01-28 01:23:28.76	346.93	18.17	-31.0	-31.5	27.2	0.00e+00	0	33	0	3471835136	34	6090
2026-01-28 01:23:29.77	346.84	18.05	-30.9	-31.4	27.2	0.00e+00	0	32	0	3478126592	34	6022
2026-01-28 01:23:30.78	346.75	17.94	-31.0	-31.7	27.1	0.00e+00	0	32	0	3483369472	34	6206
2026-01-28 01:23:31.79	346.66	17.83	-31.0	-31.6	27.0	0.00e+00	0	33	0	3489660928	34	6138
2026-01-28 01:23:32.80	346.56	17.72	-31.0	-31.7	27.1	0.00e+00	0	32	0	3494903808	34	6234
2026-01-28 01:23:33.81	346.47	17.61	-31.1	-31.8	27.1	0.00e+00	0	32	0	3500146688	34	6270
2026-01-28 01:23:34.82	346.38	17.50	-31.1	-31.7	27.0	0.00e+00	0	32	0	3506438144	34	6194
2026-01-28 01:23:35.84	346.30	17.39	-31.2	-32.0	26.9	0.00e+00	0	32	0	3511681024	34	6392
2026-01-28 01:23:36.85	346.21	17.28	-31.2	-31.9	27.0	0.00e+00	0	32	0	3517972480	34	6347
2026-01-28 01:23:37.86	346.12	17.17	-31.3	-32.0	26.9	0.00e+00	0	32	0	3523215360	34	6416
2026-01-28 01:23:38.87	346.03	17.06	-31.4	-32.1	26.8	0.00e+00	0	32	0	3529506816	34	6515
2026-01-28 01:23:39.88	345.95	16.95	-31.4	-32.2	26.7	0.00e+00	0	33	0	3534749696	34	6542
2026-01-28 01:23:40.89	345.86	16.85	-31.5	-32.0	26.7	0.00e+00	0	32	0	3541041152	34	6443
2026-01-28 01:23:41.90	345.78	16.74	-31.4	-32.1	26.8	0.00e+00	0	32	0	3546284032	34	6486
2026-01-28 01:23:42.91	345.69	16.63	-31.4	-32.1	26.7	0.00e+00	0	32	0	3551526912	34	6525
2026-01-28 01:23:43.92	345.61	16.52	-31.6	-32.3	26.6	0.00e+00	0	32	0	3557818368	34	6635
2026-01-28 01:23:44.93	345.53	16.42	-31.5	-32.2	26.6	0.00e+00	0	32	0	3563061248	34	6560
2026-01-28 01:23:45.94	345.44	16.31	-31.6	-32.3	26.6	0.00e+00	0	32	0	3569352704	34	6654
2026-01-28 01:23:46.95	345.36	16.21	-31.6	-32.3	26.6	0.00e+00	0	32	0	3574595584	34	6649
2026-01-28 01:23:47.96	345.28	16.10	-31.7	-32.2	26.5	0.00e+00	0	33	0	3579838464	34	6597
