passes_logs/2026/01/28/R4.6S_Anadyr/R4.6S_Anadyr__20260128_174143_NOAA_20_JPSS-1_rec.log

#Pass ID: 20260128_174143_NOAA 20 (JPSS-1)
#Satellite: NOAA 20 (JPSS-1)
#Configuration: NOAA 20
#almurnet v.1.7.20251203
#Start time: 2026-01-28 17:41:46

#Version: 2.2.20231116
#Station: R4.6S_Anadyr
#Location: 177.4865 lon 64.73178 lat
#TLE: 1 43013U 17073A   26027.80586608  .00000156  00000+0  94940-4 0  9998
#TLE: 2 43013  98.7647 328.6108 0000947  21.3465 338.7750 14.19541216424550

#Time	Az	El	Level	Level2	SNR	BER	BlckErr	Temp	State	Recorded	gain1	gain2
2026-01-28 17:41:46.56	33.72	0.14	-48.8	-66.5	3.5	3.02e+01	0	30	0	0	60	81472
2026-01-28 17:41:47.56	33.66	0.20	-48.7	-63.8	3.6	1.51e+00	0	31	104	0	60	56263
2026-01-28 17:41:48.57	33.60	0.25	-48.7	-63.9	3.6	1.51e+00	0	31	104	0	60	56403
2026-01-28 17:41:49.58	33.53	0.30	-48.7	-63.9	3.6	1.51e+00	0	31	104	0	60	56331
2026-01-28 17:41:50.59	33.47	0.36	-48.7	-63.9	3.6	1.51e+00	0	31	104	0	60	56564
2026-01-28 17:41:51.60	33.41	0.41	-48.7	-63.9	3.6	1.51e+00	0	31	104	0	60	56912
2026-01-28 17:41:52.61	33.34	0.46	-48.7	-63.9	3.6	1.51e+00	0	31	104	0	60	56599
2026-01-28 17:41:53.62	33.28	0.51	-48.7	-63.9	3.6	1.51e+00	0	31	104	0	60	56736
2026-01-28 17:41:54.64	33.21	0.57	-48.8	-63.9	3.6	1.51e+00	0	31	104	0	60	56951
2026-01-28 17:41:55.65	33.15	0.62	-48.8	-64.0	3.6	1.51e+00	0	31	104	0	60	56978
2026-01-28 17:41:56.65	33.08	0.67	-48.8	-64.0	3.6	1.51e+00	0	31	104	0	60	57183
2026-01-28 17:41:57.67	33.02	0.73	-48.7	-64.0	3.6	1.51e+00	0	31	104	0	60	57196
2026-01-28 17:41:58.68	32.95	0.78	-48.7	-63.9	3.6	1.51e+00	0	31	104	0	60	56637
2026-01-28 17:41:59.69	32.88	0.84	-48.7	-63.9	3.6	1.51e+00	0	31	104	0	60	56699
2026-01-28 17:42:00.70	32.82	0.89	-48.7	-63.8	3.6	1.51e+00	0	31	104	0	60	56182
2026-01-28 17:42:01.71	32.75	0.94	-48.6	-63.8	3.6	1.51e+00	0	31	104	0	60	55903
2026-01-28 17:42:02.72	32.68	1.00	-48.5	-63.7	3.6	1.51e+00	0	31	104	0	60	55428
2026-01-28 17:42:03.73	32.62	1.05	-48.5	-63.7	3.6	1.51e+00	0	31	104	0	60	55312
2026-01-28 17:42:04.73	32.55	1.10	-48.4	-63.6	3.6	1.51e+00	0	31	104	0	60	54794
2026-01-28 17:42:05.75	32.48	1.16	-48.4	-63.6	3.6	1.51e+00	0	31	104	0	60	54600
2026-01-28 17:42:06.76	32.41	1.21	-48.2	-63.5	3.6	1.51e+00	0	31	104	0	60	53983
2026-01-28 17:42:07.77	32.34	1.27	-48.1	-63.3	3.6	1.51e+00	0	31	104	0	60	52611
2026-01-28 17:42:08.78	32.28	1.32	-47.9	-63.1	3.6	1.51e+00	0	31	104	0	60	51472
2026-01-28 17:42:09.79	32.21	1.38	-47.7	-62.9	3.6	1.51e+00	0	32	104	0	60	50422
2026-01-28 17:42:10.80	32.14	1.43	-47.4	-62.6	3.6	1.51e+00	0	31	104	0	60	48745
2026-01-28 17:42:11.81	32.07	1.48	-47.1	-62.3	3.6	1.51e+00	0	31	104	0	60	47185
2026-01-28 17:42:12.82	32.00	1.54	-47.1	-62.3	3.5	1.51e+00	0	31	104	0	60	47167
2026-01-28 17:42:13.83	31.93	1.59	-47.1	-62.2	3.6	1.51e+00	0	32	104	0	60	46335
2026-01-28 17:42:14.84	31.86	1.65	-47.1	-62.2	3.6	1.51e+00	0	32	104	0	60	46710
2026-01-28 17:42:15.85	31.79	1.70	-47.1	-62.3	3.6	1.51e+00	0	32	104	0	60	47171
2026-01-28 17:42:16.85	31.72	1.76	-47.1	-62.3	3.6	1.51e+00	0	32	104	0	60	47283
2026-01-28 17:42:17.87	31.65	1.81	-47.1	-62.3	3.6	1.51e+00	0	32	104	0	60	47201
2026-01-28 17:42:18.88	31.58	1.87	-47.1	-62.3	3.6	1.51e+00	0	32	104	0	60	47245
2026-01-28 17:42:19.89	31.50	1.92	-47.1	-62.3	3.6	1.51e+00	0	32	104	0	60	47300
2026-01-28 17:42:20.90	31.43	1.98	-47.1	-62.3	3.6	1.51e+00	0	32	104	0	60	47230
2026-01-28 17:42:21.91	31.36	2.03	-47.1	-62.3	3.6	1.51e+00	0	32	104	0	60	46919
2026-01-28 17:42:22.92	31.29	2.09	-47.1	-62.3	3.6	1.51e+00	0	32	104	0	60	46896
2026-01-28 17:42:23.93	31.22	2.14	-47.1	-62.3	3.6	1.51e+00	0	32	104	0	60	46969
2026-01-28 17:42:24.94	31.14	2.20	-47.1	-62.2	3.6	1.51e+00	0	32	104	0	60	46723
2026-01-28 17:42:25.94	31.07	2.25	-47.1	-62.3	3.6	1.51e+00	0	32	104	0	60	46912
2026-01-28 17:42:26.95	31.00	2.31	-47.1	-62.3	3.6	1.51e+00	0	32	104	0	60	46945
2026-01-28 17:42:27.96	30.92	2.36	-47.1	-62.3	3.6	1.51e+00	0	32	104	0	60	47150
2026-01-28 17:42:28.97	30.85	2.42	-47.1	-62.3	3.6	1.51e+00	0	32	104	0	60	46946
2026-01-28 17:42:29.98	30.77	2.47	-47.1	-62.2	3.6	1.51e+00	0	32	104	0	60	46630
2026-01-28 17:42:30.99	30.70	2.53	-47.1	-62.3	3.6	1.51e+00	0	32	104	0	60	46873
2026-01-28 17:42:32.00	30.63	2.58	-47.1	-62.3	3.6	1.51e+00	0	32	104	0	60	47027
2026-01-28 17:42:33.01	30.55	2.64	-47.1	-62.3	3.6	1.51e+00	0	32	104	0	60	47056
2026-01-28 17:42:34.02	30.47	2.69	-47.1	-62.2	3.6	1.51e+00	0	32	104	0	60	46393
2026-01-28 17:42:35.03	30.40	2.75	-47.1	-61.8	3.6	1.51e+00	0	32	104	0	60	44427
2026-01-28 17:42:36.04	30.32	2.81	-47.1	-61.7	3.6	1.51e+00	0	32	104	0	60	43939
2026-01-28 17:42:37.05	30.25	2.86	-47.1	-62.1	3.6	1.51e+00	0	32	104	0	60	45880
2026-01-28 17:42:38.06	30.17	2.92	-47.1	-62.2	3.6	1.51e+00	0	32	104	0	60	46366
2026-01-28 17:42:39.07	30.09	2.97	-47.0	-60.3	3.6	1.51e+00	0	32	104	0	60	37618
2026-01-28 17:42:40.08	30.01	3.03	-46.7	-56.6	5.1	1.18e+00	92	32	104	0	60	24451
2026-01-28 17:42:41.09	29.94	3.09	-46.2	-52.5	8.0	1.92e-01	37	32	0	1048576	60	15324
2026-01-28 17:42:42.10	29.86	3.14	-45.0	-49.2	11.9	1.52e-03	2	32	0	3145728	60	10395
2026-01-28 17:42:43.11	29.78	3.20	-44.5	-48.0	13.2	2.04e-04	0	32	0	4194304	60	9075
2026-01-28 17:42:44.12	29.70	3.25	-43.9	-47.0	14.0	4.50e-06	0	32	0	6291456	60	8086
2026-01-28 17:42:45.13	29.62	3.31	-45.9	-51.5	9.8	4.81e-04	16	32	0	8388608	60	13627
2026-01-28 17:42:46.13	29.54	3.37	-44.2	-47.4	14.7	1.56e-04	39	32	0	10485760	60	8455
2026-01-28 17:42:47.14	29.47	3.42	-47.0	-62.0	3.6	8.25e-01	0	32	104	11534336	60	45310
2026-01-28 17:42:48.15	29.39	3.48	-47.0	-59.7	3.7	1.51e+00	0	32	104	11534336	60	35067
2026-01-28 17:42:49.16	29.31	3.54	-46.4	-54.6	6.5	5.36e-01	92	32	104	11534336	60	19369
2026-01-28 17:42:50.17	29.22	3.59	-46.0	-52.0	8.8	6.47e-02	0	32	0	12582912	60	14317
2026-01-28 17:42:51.18	29.14	3.65	-45.8	-51.4	8.8	7.23e-03	0	32	0	14680064	60	13497
2026-01-28 17:42:52.19	29.06	3.71	-46.1	-52.2	8.9	2.38e-02	0	32	0	15728640	60	14744
2026-01-28 17:42:53.20	28.98	3.76	-44.6	-48.2	13.2	1.03e-03	2	32	0	17825792	60	9318
2026-01-28 17:42:54.21	28.90	3.82	-43.5	-46.3	15.1	7.00e-07	92	32	0	19922944	60	7458
2026-01-28 17:42:55.22	28.82	3.88	-42.1	-44.1	17.4	0.00e+00	0	32	0	22020096	58	6525
2026-01-28 17:42:56.23	28.73	3.93	-41.8	-43.7	17.6	0.00e+00	92	32	0	24117248	56	6996
2026-01-28 17:42:57.24	28.65	3.99	-42.3	-44.4	16.8	0.00e+00	0	32	0	25165824	56	7584
2026-01-28 17:42:58.25	28.57	4.05	-41.9	-43.8	17.3	0.00e+00	2	32	0	27262976	56	7067
2026-01-28 17:42:59.26	28.48	4.11	-42.3	-44.3	17.3	0.00e+00	0	32	0	29360128	56	7472
2026-01-28 17:43:00.27	28.40	4.16	-42.2	-44.2	17.1	0.00e+00	2	32	0	31457280	56	7353
2026-01-28 17:43:01.28	28.32	4.22	-42.0	-43.9	17.5	0.00e+00	29	32	0	33554432	56	7120
2026-01-28 17:43:02.28	28.23	4.28	-42.2	-44.2	17.4	0.00e+00	0	32	0	34603008	56	7398
2026-01-28 17:43:03.29	28.15	4.33	-41.8	-43.7	17.7	0.00e+00	90	32	0	36700160	56	6930
2026-01-28 17:43:04.30	28.06	4.39	-41.8	-43.6	18.0	0.00e+00	38	32	0	38797312	56	6868
2026-01-28 17:43:05.31	27.98	4.45	-41.5	-43.2	18.2	0.00e+00	36	32	0	40894464	56	6599
2026-01-28 17:43:06.32	27.89	4.51	-41.3	-43.0	18.6	0.00e+00	2	32	0	42991616	56	6409
2026-01-28 17:43:07.33	27.81	4.57	-41.6	-43.4	18.4	0.00e+00	0	32	0	44040192	56	6731
2026-01-28 17:43:08.34	27.72	4.62	-41.5	-43.2	18.3	0.00e+00	0	32	0	46137344	56	6553
2026-01-28 17:43:09.35	27.63	4.68	-41.5	-43.2	18.2	0.00e+00	43	32	0	48234496	56	6587
2026-01-28 17:43:10.36	27.54	4.74	-41.4	-43.2	18.5	0.00e+00	92	32	0	50331648	56	6547
2026-01-28 17:43:11.37	27.46	4.80	-41.9	-43.8	17.8	0.00e+00	5	32	0	52428800	56	7036
2026-01-28 17:43:12.38	27.37	4.86	-41.2	-42.8	18.8	0.00e+00	92	32	0	53477376	56	6301
2026-01-28 17:43:13.39	27.28	4.91	-41.0	-42.6	19.0	0.00e+00	6	32	0	55574528	56	6121
2026-01-28 17:43:14.40	27.19	4.97	-41.3	-42.9	18.9	0.00e+00	0	32	0	57671680	56	6346
2026-01-28 17:43:15.41	27.10	5.03	-41.4	-43.1	18.4	0.00e+00	0	32	0	59768832	56	6473
2026-01-28 17:43:16.42	27.01	5.09	-41.6	-43.3	18.5	0.00e+00	43	32	0	61865984	56	6660
2026-01-28 17:43:17.42	26.92	5.15	-41.3	-42.9	18.7	0.00e+00	92	32	0	62914560	56	6361
2026-01-28 17:43:18.43	26.83	5.20	-41.3	-42.9	18.8	0.00e+00	0	32	0	65011712	56	6339
2026-01-28 17:43:19.44	26.74	5.26	-41.3	-42.9	18.8	0.00e+00	92	32	0	67108864	56	6357
2026-01-28 17:43:20.45	26.65	5.32	-41.3	-42.9	18.9	0.00e+00	5	32	0	69206016	56	6342
2026-01-28 17:43:21.46	26.56	5.38	-41.1	-42.7	19.1	0.00e+00	0	32	0	71303168	56	6194
2026-01-28 17:43:22.47	26.47	5.44	-41.0	-42.5	19.3	0.00e+00	7	32	0	72351744	56	6048
2026-01-28 17:43:23.48	26.38	5.50	-40.9	-42.4	19.3	0.00e+00	37	32	0	74448896	56	6023
2026-01-28 17:43:24.49	26.28	5.56	-41.0	-42.5	19.3	0.00e+00	88	32	0	76546048	56	6051
2026-01-28 17:43:25.50	26.19	5.62	-41.0	-42.5	19.3	0.00e+00	0	32	0	78643200	56	6034
2026-01-28 17:43:26.51	26.10	5.67	-41.0	-42.6	19.3	0.00e+00	92	32	0	80740352	56	6106
2026-01-28 17:43:27.52	26.00	5.73	-40.8	-42.3	19.7	0.00e+00	0	32	0	81788928	56	5930
2026-01-28 17:43:28.53	25.91	5.79	-40.8	-42.2	19.4	0.00e+00	92	32	0	83886080	54	6608
2026-01-28 17:43:29.54	25.81	5.85	-40.9	-42.3	19.4	0.00e+00	5	32	0	85983232	54	6679
2026-01-28 17:43:30.55	25.72	5.91	-40.9	-42.3	19.5	0.00e+00	39	32	0	88080384	54	6690
2026-01-28 17:43:31.56	25.62	5.97	-40.7	-42.1	19.6	0.00e+00	0	32	0	90177536	54	6518
2026-01-28 17:43:32.56	25.53	6.03	-40.8	-42.3	19.5	0.00e+00	50	32	0	91226112	54	6640
2026-01-28 17:43:33.57	25.43	6.09	-40.7	-42.2	19.6	0.00e+00	92	32	0	93323264	54	6556
2026-01-28 17:43:34.58	25.34	6.15	-40.3	-41.7	19.9	0.00e+00	49	32	0	95420416	54	6217
2026-01-28 17:43:35.59	25.24	6.21	-40.8	-42.3	19.5	0.00e+00	92	32	0	97517568	54	6662
2026-01-28 17:43:36.60	25.14	6.27	-40.7	-42.1	19.6	0.00e+00	7	32	0	99614720	54	6523
2026-01-28 17:43:37.61	25.04	6.33	-40.7	-42.1	19.6	0.00e+00	0	32	0	100663296	54	6517
2026-01-28 17:43:38.62	24.95	6.38	-40.6	-42.0	19.8	0.00e+00	6	32	0	102760448	54	6423
2026-01-28 17:43:39.63	24.85	6.44	-41.1	-42.6	19.3	0.00e+00	0	32	0	104857600	54	6855
2026-01-28 17:43:40.64	24.75	6.50	-41.1	-42.7	19.2	0.00e+00	92	32	0	106954752	54	6930
2026-01-28 17:43:41.65	24.65	6.56	-41.4	-43.0	18.9	0.00e+00	6	32	0	109051904	54	7245
2026-01-28 17:43:42.66	24.55	6.62	-41.8	-43.4	18.6	0.00e+00	92	32	0	111149056	54	7579
2026-01-28 17:43:43.67	24.45	6.68	-41.2	-42.8	19.2	0.00e+00	6	32	0	112197632	56	6252
2026-01-28 17:43:44.67	24.35	6.74	-41.9	-43.6	18.6	0.00e+00	40	32	0	114294784	56	6924
2026-01-28 17:43:45.68	24.25	6.80	-41.0	-42.4	19.5	0.00e+00	39	32	0	116391936	56	6018
2026-01-28 17:43:46.69	24.15	6.86	-41.1	-42.5	19.5	0.00e+00	40	32	0	118489088	56	6087
2026-01-28 17:43:47.71	24.04	6.92	-40.9	-42.3	19.7	0.00e+00	54	32	0	120586240	56	5927
2026-01-28 17:43:48.71	23.94	6.98	-40.8	-42.2	19.7	0.00e+00	39	32	0	121634816	56	5865
2026-01-28 17:43:49.72	23.84	7.04	-41.0	-42.5	19.4	0.00e+00	92	32	0	123731968	54	6809
2026-01-28 17:43:50.73	23.73	7.10	-41.0	-42.5	19.4	0.00e+00	32	32	0	125829120	54	6806
2026-01-28 17:43:51.75	23.63	7.16	-41.1	-42.6	19.4	0.00e+00	92	32	0	127926272	54	6912
2026-01-28 17:43:52.76	23.53	7.22	-41.0	-42.4	19.5	0.00e+00	42	32	0	130023424	54	6742
2026-01-28 17:43:53.77	23.42	7.29	-40.9	-42.3	19.6	0.00e+00	43	32	0	131072000	54	6676
2026-01-28 17:43:54.77	23.32	7.35	-40.8	-42.2	19.7	0.00e+00	85	32	0	133169152	54	6573
2026-01-28 17:43:55.78	23.21	7.41	-41.0	-42.5	19.5	0.00e+00	42	32	0	135266304	54	6830
2026-01-28 17:43:56.80	23.10	7.47	-41.0	-42.4	19.4	0.00e+00	90	32	0	137363456	54	6750
2026-01-28 17:43:57.81	23.00	7.53	-41.3	-42.9	19.1	0.00e+00	0	32	0	139460608	54	7107
2026-01-28 17:43:58.81	22.89	7.59	-41.1	-42.6	19.3	0.00e+00	90	32	0	140509184	54	6897
2026-01-28 17:43:59.82	22.78	7.65	-40.9	-42.4	19.5	0.00e+00	0	32	0	142606336	54	6719
2026-01-28 17:44:00.83	22.68	7.71	-41.0	-42.5	19.5	0.00e+00	0	32	0	144703488	54	6814
2026-01-28 17:44:01.84	22.57	7.77	-40.9	-42.3	19.6	0.00e+00	0	32	0	146800640	54	6686
2026-01-28 17:44:02.85	22.46	7.83	-41.0	-42.4	19.5	0.00e+00	0	32	0	148897792	54	6746
2026-01-28 17:44:03.86	22.35	7.89	-41.0	-42.4	19.6	0.00e+00	92	32	0	149946368	54	6762
2026-01-28 17:44:04.87	22.24	7.95	-41.2	-42.7	19.3	0.00e+00	0	32	0	152043520	54	6965
2026-01-28 17:44:05.88	22.13	8.01	-41.2	-42.8	19.1	0.00e+00	92	32	0	154140672	54	7019
2026-01-28 17:44:06.89	22.02	8.07	-41.1	-42.5	19.5	0.00e+00	0	32	0	156237824	54	6846
2026-01-28 17:44:07.90	21.91	8.14	-40.7	-42.1	19.9	0.00e+00	34	32	0	158334976	54	6531
2026-01-28 17:44:08.90	21.80	8.20	-40.7	-42.1	19.9	0.00e+00	38	32	0	159383552	54	6506
2026-01-28 17:44:09.92	21.68	8.26	-40.9	-42.4	19.5	0.00e+00	39	32	0	161480704	54	6697
2026-01-28 17:44:10.93	21.57	8.32	-41.2	-42.7	19.5	0.00e+00	92	32	0	163577856	54	6931
2026-01-28 17:44:11.93	21.46	8.38	-40.6	-42.0	20.1	0.00e+00	39	32	0	165675008	54	6396
2026-01-28 17:44:12.94	21.35	8.44	-40.7	-42.1	19.9	0.00e+00	90	32	0	167772160	54	6495
2026-01-28 17:44:13.95	21.23	8.50	-40.5	-41.9	20.1	0.00e+00	40	32	0	168820736	54	6354
2026-01-28 17:44:14.96	21.12	8.56	-40.5	-41.8	20.2	0.00e+00	93	32	0	170917888	54	6272
2026-01-28 17:44:15.97	21.00	8.62	-40.3	-41.6	20.3	0.00e+00	38	32	0	173015040	54	6160
2026-01-28 17:44:16.98	20.89	8.69	-40.4	-41.7	20.3	0.00e+00	41	32	0	175112192	54	6228
2026-01-28 17:44:17.99	20.77	8.75	-40.2	-41.5	20.5	0.00e+00	56	32	0	177209344	54	6082
2026-01-28 17:44:19.00	20.65	8.81	-40.3	-41.7	20.4	0.00e+00	0	32	0	179306496	54	6177
2026-01-28 17:44:20.01	20.54	8.87	-40.3	-41.5	20.5	0.00e+00	90	32	0	180355072	54	6101
2026-01-28 17:44:21.01	20.42	8.93	-40.3	-41.7	20.4	0.00e+00	0	32	0	182452224	54	6177
2026-01-28 17:44:22.02	20.30	8.99	-40.3	-41.6	20.4	0.00e+00	41	32	0	184549376	54	6119
2026-01-28 17:44:23.03	20.18	9.05	-40.4	-41.7	20.4	0.00e+00	0	32	0	186646528	54	6197
2026-01-28 17:44:24.04	20.06	9.12	-40.3	-41.6	20.5	0.00e+00	0	32	0	188743680	54	6111
2026-01-28 17:44:25.05	19.94	9.18	-40.4	-41.8	20.2	0.00e+00	0	32	0	189792256	54	6250
2026-01-28 17:44:26.06	19.82	9.24	-40.2	-41.5	20.5	0.00e+00	2	32	0	191889408	54	6093
2026-01-28 17:44:27.07	19.70	9.30	-40.4	-41.8	20.3	0.00e+00	92	32	0	193986560	54	6247
2026-01-28 17:44:28.08	19.58	9.36	-40.4	-41.7	20.3	0.00e+00	0	32	0	196083712	54	6212
2026-01-28 17:44:29.09	19.46	9.43	-40.2	-41.5	20.5	0.00e+00	92	32	0	198180864	54	6100
2026-01-28 17:44:30.10	19.34	9.49	-40.2	-41.5	20.5	0.00e+00	0	32	0	199229440	54	6069
2026-01-28 17:44:31.11	19.21	9.55	-40.3	-41.5	20.5	0.00e+00	41	32	0	201326592	54	6099
2026-01-28 17:44:32.12	19.09	9.61	-40.2	-41.5	20.6	0.00e+00	35	32	0	203423744	54	6039
2026-01-28 17:44:33.13	18.97	9.67	-40.0	-41.2	20.8	0.00e+00	35	32	0	205520896	54	5880
2026-01-28 17:44:34.14	18.84	9.73	-39.9	-41.2	20.9	0.00e+00	0	32	0	207618048	54	5831
2026-01-28 17:44:35.15	18.72	9.80	-40.0	-41.3	20.7	0.00e+00	0	32	0	208666624	54	5909
2026-01-28 17:44:36.16	18.59	9.86	-39.8	-41.0	21.0	0.00e+00	92	32	0	210763776	54	5738
2026-01-28 17:44:37.16	18.47	9.92	-39.8	-41.0	20.4	0.00e+00	47	32	0	212860928	52	6403
2026-01-28 17:44:38.18	18.34	9.98	-39.7	-40.9	20.8	0.00e+00	11	32	0	214958080	52	6323
2026-01-28 17:44:39.18	18.21	10.04	-39.8	-41.0	21.0	0.00e+00	47	32	0	217055232	52	6412
2026-01-28 17:44:40.19	18.09	10.11	-39.7	-40.9	21.1	0.00e+00	0	32	0	218103808	52	6368
2026-01-28 17:44:41.20	17.96	10.17	-39.5	-40.6	21.4	0.00e+00	0	32	0	220200960	52	6155
2026-01-28 17:44:42.21	17.83	10.23	-39.5	-40.6	21.5	0.00e+00	0	32	0	222298112	52	6137
2026-01-28 17:44:43.22	17.70	10.29	-39.4	-40.6	21.5	0.00e+00	92	32	0	224395264	52	6127
2026-01-28 17:44:44.23	17.57	10.35	-39.5	-40.7	21.4	0.00e+00	0	32	0	226492416	52	6191
2026-01-28 17:44:45.24	17.44	10.42	-39.3	-40.4	21.6	0.00e+00	92	32	0	227540992	52	6029
2026-01-28 17:44:46.25	17.31	10.48	-39.4	-40.5	21.5	0.00e+00	0	32	0	229638144	52	6097
2026-01-28 17:44:47.26	17.17	10.54	-39.4	-40.5	21.6	0.00e+00	0	32	0	231735296	52	6087
2026-01-28 17:44:48.27	17.04	10.60	-39.4	-40.5	21.6	0.00e+00	0	32	0	233832448	52	6084
2026-01-28 17:44:49.28	16.91	10.66	-39.4	-40.5	21.7	0.00e+00	38	32	0	235929600	52	6061
2026-01-28 17:44:50.29	16.78	10.73	-39.5	-40.6	21.5	0.00e+00	90	32	0	236978176	52	6138
2026-01-28 17:44:51.29	16.64	10.79	-39.4	-40.5	21.5	0.00e+00	0	32	0	239075328	52	6096
2026-01-28 17:44:52.31	16.51	10.85	-39.3	-40.4	21.7	0.00e+00	92	32	0	241172480	52	6021
2026-01-28 17:44:53.32	16.37	10.91	-39.4	-40.5	21.6	0.00e+00	0	32	0	243269632	52	6058
2026-01-28 17:44:54.33	16.24	10.98	-39.3	-40.4	21.7	0.00e+00	42	32	0	245366784	52	5992
2026-01-28 17:44:55.33	16.10	11.04	-39.3	-40.4	21.7	0.00e+00	40	32	0	247463936	52	5980
2026-01-28 17:44:56.34	15.96	11.10	-39.2	-40.3	21.8	0.00e+00	41	32	0	248512512	52	5916
2026-01-28 17:44:57.35	15.83	11.16	-39.2	-40.3	21.8	0.00e+00	26	32	0	250609664	52	5953
2026-01-28 17:44:58.36	15.69	11.22	-39.2	-40.3	21.8	0.00e+00	0	32	0	252706816	52	5941
2026-01-28 17:44:59.37	15.55	11.29	-39.2	-40.3	21.8	0.00e+00	91	32	0	254803968	52	5942
2026-01-28 17:45:00.38	15.41	11.35	-39.3	-40.3	21.8	0.00e+00	42	32	0	256901120	52	5963
2026-01-28 17:45:01.39	15.27	11.41	-39.2	-40.3	21.8	0.00e+00	92	32	0	257949696	52	5957
2026-01-28 17:45:02.40	15.13	11.47	-39.2	-40.3	21.8	0.00e+00	48	32	0	260046848	52	5912
2026-01-28 17:45:03.41	14.99	11.53	-39.3	-40.4	21.7	0.00e+00	53	32	0	262144000	52	6032
2026-01-28 17:45:04.41	14.85	11.60	-39.5	-40.6	21.6	0.00e+00	46	32	0	264241152	52	6140
2026-01-28 17:45:05.42	14.71	11.66	-39.4	-40.5	21.6	0.00e+00	0	32	0	266338304	52	6065
2026-01-28 17:45:06.43	14.56	11.72	-39.4	-40.5	21.6	0.00e+00	92	32	0	267386880	52	6077
2026-01-28 17:45:07.44	14.42	11.78	-39.3	-40.5	21.7	0.00e+00	6	32	0	269484032	52	6035
2026-01-28 17:45:08.45	14.28	11.84	-39.3	-40.4	21.7	0.00e+00	92	32	0	271581184	52	6016
2026-01-28 17:45:09.46	14.13	11.91	-39.4	-40.5	21.7	0.00e+00	5	32	0	273678336	52	6056
2026-01-28 17:45:10.47	13.98	11.97	-39.4	-40.5	21.7	0.00e+00	35	32	0	275775488	52	6049
2026-01-28 17:45:11.48	13.84	12.03	-39.5	-40.6	21.7	0.00e+00	0	32	0	276824064	52	6137
2026-01-28 17:45:12.49	13.69	12.09	-39.4	-40.5	21.7	0.00e+00	0	32	0	278921216	52	6065
2026-01-28 17:45:13.50	13.54	12.15	-39.5	-40.7	21.6	0.00e+00	90	32	0	281018368	52	6183
2026-01-28 17:45:14.51	13.40	12.21	-39.5	-40.6	21.6	0.00e+00	41	32	0	283115520	52	6121
2026-01-28 17:45:15.52	13.25	12.28	-39.5	-40.6	21.6	0.00e+00	90	32	0	285212672	52	6171
2026-01-28 17:45:16.53	13.10	12.34	-39.6	-40.7	21.4	0.00e+00	53	32	0	286261248	52	6230
2026-01-28 17:45:17.54	12.95	12.40	-39.8	-41.0	21.2	0.00e+00	46	32	0	288358400	52	6432
2026-01-28 17:45:18.55	12.80	12.46	-39.9	-41.0	21.4	0.00e+00	39	32	0	290455552	52	6443
2026-01-28 17:45:19.55	12.65	12.52	-39.5	-40.7	21.6	0.00e+00	46	32	0	292552704	52	6191
2026-01-28 17:45:20.56	12.50	12.58	-39.7	-40.8	21.4	0.00e+00	8	32	0	294649856	52	6312
2026-01-28 17:45:21.57	12.34	12.65	-39.7	-40.9	21.4	0.00e+00	8	32	0	295698432	52	6326
2026-01-28 17:45:22.58	12.19	12.71	-39.5	-40.6	21.6	0.00e+00	92	32	0	297795584	52	6164
2026-01-28 17:45:23.59	12.04	12.77	-39.5	-40.6	21.6	0.00e+00	7	32	0	299892736	52	6166
2026-01-28 17:45:24.60	11.88	12.83	-39.6	-40.7	21.5	0.00e+00	90	32	0	301989888	52	6228
2026-01-28 17:45:25.62	11.73	12.89	-39.5	-40.6	21.6	0.00e+00	45	32	0	304087040	52	6152
2026-01-28 17:45:26.63	11.57	12.95	-39.5	-40.7	21.5	0.00e+00	0	32	0	305135616	52	6175
2026-01-28 17:45:27.63	11.41	13.01	-39.6	-40.7	21.4	0.00e+00	5	32	0	307232768	52	6219
2026-01-28 17:45:28.64	11.26	13.08	-39.4	-40.5	21.7	0.00e+00	0	32	0	309329920	52	6084
2026-01-28 17:45:29.65	11.10	13.14	-39.6	-40.7	21.5	0.00e+00	92	32	0	311427072	52	6239
2026-01-28 17:45:30.66	10.94	13.20	-39.6	-40.8	21.5	0.00e+00	0	32	0	313524224	52	6261
2026-01-28 17:45:31.67	10.78	13.26	-39.7	-40.9	21.3	0.00e+00	79	32	0	315621376	52	6341
2026-01-28 17:45:32.68	10.62	13.32	-39.8	-41.0	21.2	0.00e+00	36	32	0	316669952	52	6408
2026-01-28 17:45:33.69	10.46	13.38	-39.9	-41.0	21.2	0.00e+00	0	32	0	318767104	52	6463
2026-01-28 17:45:34.70	10.30	13.44	-39.8	-40.9	21.3	0.00e+00	34	32	0	320864256	52	6380
2026-01-28 17:45:35.71	10.14	13.50	-39.9	-41.1	21.3	0.00e+00	0	32	0	322961408	52	6466
2026-01-28 17:45:36.72	9.98	13.56	-39.9	-41.1	21.1	0.00e+00	2	32	0	324009984	52	6488
2026-01-28 17:45:37.73	9.81	13.62	-39.7	-40.9	21.4	0.00e+00	45	32	0	326107136	52	6352
2026-01-28 17:45:38.74	9.65	13.68	-39.8	-41.0	21.3	0.00e+00	91	32	0	328204288	52	6400
2026-01-28 17:45:39.75	9.48	13.74	-39.8	-41.0	21.2	0.00e+00	46	32	0	330301440	52	6412
2026-01-28 17:45:40.76	9.32	13.80	-39.8	-40.9	21.2	0.00e+00	48	32	0	332398592	52	6384
2026-01-28 17:45:41.77	9.15	13.86	-39.8	-40.9	21.3	0.00e+00	39	32	0	333447168	52	6365
2026-01-28 17:45:42.78	8.99	13.92	-39.8	-40.9	21.3	0.00e+00	40	32	0	335544320	52	6359
2026-01-28 17:45:43.79	8.82	13.98	-39.6	-40.7	21.5	0.00e+00	36	32	0	337641472	52	6212
2026-01-28 17:45:44.80	8.65	14.04	-39.7	-40.8	21.4	0.00e+00	0	32	0	339738624	52	6286
2026-01-28 17:45:45.81	8.48	14.10	-39.6	-40.7	21.5	0.00e+00	92	32	0	341835776	52	6222
2026-01-28 17:45:46.82	8.31	14.16	-39.7	-40.9	21.4	0.00e+00	0	32	0	343932928	52	6321
2026-01-28 17:45:47.82	8.15	14.22	-39.8	-40.9	21.4	0.00e+00	47	32	0	344981504	52	6365
2026-01-28 17:45:48.83	7.97	14.28	-39.7	-40.8	21.5	0.00e+00	2	32	0	347078656	52	6294
2026-01-28 17:45:49.84	7.80	14.34	-39.7	-40.9	21.4	0.00e+00	0	32	0	349175808	52	6336
2026-01-28 17:45:50.85	7.63	14.40	-39.5	-40.7	21.6	0.00e+00	0	32	0	351272960	52	6182
2026-01-28 17:45:51.86	7.46	14.46	-39.8	-40.9	21.4	0.00e+00	0	32	0	353370112	52	6372
2026-01-28 17:45:52.87	7.28	14.52	-39.3	-40.4	21.9	0.00e+00	92	32	0	354418688	52	6017
2026-01-28 17:45:53.88	7.11	14.58	-39.2	-40.3	21.9	0.00e+00	41	32	0	356515840	52	5912
2026-01-28 17:45:54.89	6.94	14.64	-39.1	-40.2	22.1	0.00e+00	92	32	0	358612992	52	5875
2026-01-28 17:45:55.90	6.76	14.69	-39.2	-40.3	22.0	0.00e+00	0	32	0	360710144	52	5930
2026-01-28 17:45:56.91	6.58	14.75	-39.0	-40.0	22.3	0.00e+00	41	32	0	362807296	52	5744
2026-01-28 17:45:57.91	6.41	14.81	-39.0	-40.0	22.2	0.00e+00	42	32	0	363855872	52	5761
2026-01-28 17:45:58.92	6.23	14.87	-38.9	-39.9	22.4	0.00e+00	41	32	0	365953024	52	5650
2026-01-28 17:45:59.93	6.05	14.93	-38.8	-39.8	22.4	0.00e+00	90	32	0	368050176	52	5621
2026-01-28 17:46:00.94	5.87	14.98	-38.7	-39.7	22.5	0.00e+00	40	32	0	370147328	50	6206
2026-01-28 17:46:01.95	5.69	15.04	-38.5	-39.5	22.7	0.00e+00	92	32	0	372244480	50	6083
2026-01-28 17:46:02.95	5.51	15.10	-38.6	-39.6	22.7	0.00e+00	0	32	0	373293056	50	6120
2026-01-28 17:46:03.96	5.33	15.16	-38.7	-39.7	22.5	0.00e+00	92	32	0	375390208	50	6213
2026-01-28 17:46:04.98	5.15	15.21	-38.8	-39.8	22.5	0.00e+00	47	32	0	377487360	50	6260
2026-01-28 17:46:05.99	4.97	15.27	-38.7	-39.8	22.5	0.00e+00	44	32	0	379584512	50	6251
2026-01-28 17:46:06.99	4.78	15.33	-38.5	-39.5	22.7	0.00e+00	0	32	0	381681664	50	6063
2026-01-28 17:46:08.00	4.60	15.39	-38.5	-39.5	22.7	0.00e+00	45	32	0	382730240	50	6076
2026-01-28 17:46:09.02	4.41	15.44	-38.3	-39.3	22.9	0.00e+00	90	32	0	384827392	50	5964
2026-01-28 17:46:10.02	4.23	15.50	-38.2	-39.2	23.1	0.00e+00	0	32	0	386924544	50	5831
2026-01-28 17:46:11.04	4.04	15.56	-38.1	-39.1	23.1	0.00e+00	0	32	0	389021696	50	5785
2026-01-28 17:46:12.05	3.85	15.61	-37.9	-38.8	23.3	0.00e+00	2	32	0	391118848	50	5617
2026-01-28 17:46:13.06	3.67	15.67	-37.9	-38.8	23.3	0.00e+00	0	32	0	392167424	50	5609
2026-01-28 17:46:14.07	3.48	15.72	-37.9	-38.8	23.3	0.00e+00	0	32	0	394264576	50	5610
2026-01-28 17:46:15.07	3.29	15.78	-37.9	-38.8	23.4	0.00e+00	0	32	0	396361728	50	5605
2026-01-28 17:46:16.08	3.10	15.83	-37.6	-38.5	23.6	0.00e+00	90	32	0	398458880	48	6054
2026-01-28 17:46:17.09	2.91	15.89	-37.6	-38.5	23.6	0.00e+00	43	32	0	400556032	48	6045
2026-01-28 17:46:18.10	2.72	15.94	-37.5	-38.4	23.8	0.00e+00	92	32	0	401604608	48	5966
2026-01-28 17:46:19.11	2.53	16.00	-37.6	-38.5	23.6	0.00e+00	0	32	0	403701760	48	6094
2026-01-28 17:46:20.12	2.33	16.05	-37.6	-38.5	23.7	0.00e+00	43	32	0	405798912	48	6054
2026-01-28 17:46:21.13	2.14	16.11	-37.4	-38.3	23.8	0.00e+00	42	32	0	407896064	48	5907
2026-01-28 17:46:22.14	1.95	16.16	-37.3	-38.2	23.9	0.00e+00	38	32	0	409993216	48	5865
2026-01-28 17:46:23.15	1.75	16.22	-37.3	-38.2	23.9	0.00e+00	41	32	0	412090368	48	5843
2026-01-28 17:46:24.16	1.56	16.27	-37.1	-38.0	24.1	0.00e+00	39	32	0	413138944	48	5697
2026-01-28 17:46:25.17	1.36	16.32	-37.0	-37.9	24.1	0.00e+00	92	32	0	415236096	48	5651
2026-01-28 17:46:26.18	1.16	16.38	-37.0	-37.9	24.0	0.00e+00	0	32	0	417333248	48	5647
2026-01-28 17:46:27.19	0.97	16.43	-37.0	-37.9	23.3	0.00e+00	0	32	0	419430400	48	5667
2026-01-28 17:46:28.20	0.77	16.48	-37.3	-38.2	23.9	0.00e+00	0	32	0	421527552	48	5869
2026-01-28 17:46:29.21	0.57	16.53	-37.1	-38.0	24.1	0.00e+00	2	32	0	422576128	48	5708
2026-01-28 17:46:30.21	0.37	16.59	-37.0	-37.8	24.2	0.00e+00	47	32	0	424673280	48	5619
2026-01-28 17:46:31.22	0.17	16.64	-37.1	-37.9	24.1	0.00e+00	2	32	0	426770432	48	5693
2026-01-28 17:46:32.23	359.97	16.69	-37.1	-38.0	24.1	0.00e+00	90	32	0	428867584	48	5710
2026-01-28 17:46:33.24	359.77	16.74	-37.0	-37.8	24.2	0.00e+00	0	32	0	430964736	48	5620
2026-01-28 17:46:34.25	359.56	16.79	-37.0	-37.8	24.2	0.00e+00	50	32	0	432013312	48	5616
2026-01-28 17:46:35.26	359.36	16.84	-37.1	-38.0	24.1	0.00e+00	0	32	0	434110464	48	5706
2026-01-28 17:46:36.27	359.16	16.89	-37.0	-37.9	24.2	0.00e+00	0	32	0	436207616	48	5638
2026-01-28 17:46:37.28	358.95	16.95	-36.9	-37.7	24.2	0.00e+00	0	32	0	438304768	48	5564
2026-01-28 17:46:38.29	358.75	17.00	-37.0	-37.8	24.2	0.00e+00	35	32	0	440401920	48	5627
2026-01-28 17:46:39.30	358.54	17.05	-37.2	-38.1	24.1	0.00e+00	92	32	0	441450496	48	5768
2026-01-28 17:46:40.31	358.33	17.10	-37.1	-37.9	24.1	0.00e+00	0	32	0	443547648	48	5682
2026-01-28 17:46:41.32	358.13	17.14	-37.2	-38.1	23.9	0.00e+00	92	32	0	445644800	48	5797
2026-01-28 17:46:42.33	357.92	17.19	-37.2	-38.1	24.0	0.00e+00	0	32	0	447741952	48	5779
2026-01-28 17:46:43.34	357.71	17.24	-37.3	-38.2	23.9	0.00e+00	0	32	0	449839104	48	5876
2026-01-28 17:46:44.35	357.50	17.29	-37.5	-38.3	23.8	0.00e+00	41	32	0	450887680	48	5962
2026-01-28 17:46:45.35	357.29	17.34	-37.4	-38.3	23.9	0.00e+00	41	32	0	452984832	48	5921
2026-01-28 17:46:46.36	357.08	17.39	-37.4	-38.3	23.8	0.00e+00	0	32	0	455081984	48	5941
2026-01-28 17:46:47.37	356.87	17.43	-37.5	-38.4	23.7	0.00e+00	5	32	0	457179136	48	5996
2026-01-28 17:46:48.38	356.66	17.48	-37.6	-38.5	23.7	0.00e+00	90	32	0	459276288	48	6077
2026-01-28 17:46:49.39	356.44	17.53	-37.7	-38.7	23.6	0.00e+00	7	32	0	460324864	48	6185
2026-01-28 17:46:50.40	356.23	17.58	-37.6	-38.5	23.6	0.00e+00	0	32	0	462422016	48	6085
2026-01-28 17:46:51.41	356.02	17.62	-37.6	-38.5	23.7	0.00e+00	0	32	0	464519168	48	6081
2026-01-28 17:46:52.42	355.80	17.67	-37.3	-38.2	23.9	0.00e+00	5	32	0	466616320	48	5866
2026-01-28 17:46:53.43	355.59	17.71	-37.3	-38.2	23.6	0.00e+00	0	32	0	468713472	48	5837
2026-01-28 17:46:54.44	355.37	17.76	-37.2	-38.1	24.0	0.00e+00	5	32	0	469762048	48	5800
2026-01-28 17:46:55.45	355.15	17.80	-37.2	-38.1	24.0	0.00e+00	92	32	0	471859200	48	5781
2026-01-28 17:46:56.45	354.94	17.85	-37.2	-38.1	24.0	0.00e+00	6	32	0	473956352	48	5813
2026-01-28 17:46:57.46	354.72	17.89	-37.1	-37.9	24.2	0.00e+00	92	32	0	476053504	48	5683
2026-01-28 17:46:58.47	354.50	17.94	-36.9	-37.7	24.3	0.00e+00	0	32	0	478150656	48	5559
2026-01-28 17:46:59.48	354.28	17.98	-36.9	-37.7	24.3	0.00e+00	38	32	0	480247808	48	5532
2026-01-28 17:47:00.49	354.06	18.02	-36.8	-37.6	24.5	0.00e+00	12	32	0	481296384	48	5481
2026-01-28 17:47:01.50	353.84	18.07	-36.7	-37.5	24.4	0.00e+00	0	32	0	483393536	46	6103
2026-01-28 17:47:02.51	353.62	18.11	-36.6	-37.4	24.6	0.00e+00	92	32	0	485490688	46	5983
2026-01-28 17:47:03.52	353.40	18.15	-36.6	-37.4	24.6	0.00e+00	50	32	0	487587840	46	5997
2026-01-28 17:47:04.53	353.17	18.19	-36.6	-37.5	24.6	0.00e+00	92	32	0	489684992	46	6045
2026-01-28 17:47:05.54	352.95	18.23	-36.5	-37.3	23.3	0.00e+00	6	32	0	490733568	46	5943
2026-01-28 17:47:06.55	352.73	18.27	-36.6	-37.4	24.5	0.00e+00	45	32	0	492830720	46	6015
2026-01-28 17:47:07.56	352.50	18.31	-36.4	-37.3	24.7	0.00e+00	47	32	0	494927872	46	5916
2026-01-28 17:47:08.57	352.28	18.36	-36.5	-37.3	24.6	0.00e+00	41	32	0	497025024	46	5931
2026-01-28 17:47:09.58	352.05	18.39	-36.4	-37.3	24.8	0.00e+00	92	32	0	499122176	46	5897
2026-01-28 17:47:10.59	351.83	18.43	-36.5	-37.3	24.7	0.00e+00	52	32	0	500170752	46	5959
2026-01-28 17:47:11.60	351.60	18.47	-36.7	-37.5	24.5	0.00e+00	90	32	0	502267904	46	6089
2026-01-28 17:47:12.60	351.37	18.51	-36.6	-37.4	24.7	0.00e+00	48	32	0	504365056	46	6016
2026-01-28 17:47:13.61	351.15	18.55	-36.7	-37.5	24.6	0.00e+00	49	32	0	506462208	46	6064
2026-01-28 17:47:14.62	350.92	18.59	-36.5	-37.3	24.7	0.00e+00	6	32	0	508559360	46	5945
2026-01-28 17:47:15.63	350.69	18.62	-36.5	-37.3	24.7	0.00e+00	0	32	0	509607936	46	5963
2026-01-28 17:47:16.64	350.46	18.66	-36.6	-37.4	24.6	0.00e+00	0	32	0	511705088	46	6013
2026-01-28 17:47:17.65	350.23	18.70	-36.8	-37.7	24.5	0.00e+00	6	32	0	513802240	46	6188
2026-01-28 17:47:18.66	350.00	18.73	-37.0	-37.9	24.3	0.00e+00	92	32	0	515899392	46	6342
2026-01-28 17:47:19.67	349.77	18.77	-36.7	-37.5	24.6	0.00e+00	39	32	0	517996544	46	6056
2026-01-28 17:47:20.68	349.53	18.81	-36.7	-37.5	24.6	0.00e+00	90	32	0	519045120	46	6057
2026-01-28 17:47:21.69	349.30	18.84	-36.4	-37.2	24.8	0.00e+00	43	32	0	521142272	46	5862
2026-01-28 17:47:22.70	349.07	18.87	-36.5	-37.3	24.7	0.00e+00	0	32	0	523239424	46	5927
2026-01-28 17:47:23.71	348.83	18.91	-36.6	-37.4	24.6	0.00e+00	0	32	0	525336576	46	6007
2026-01-28 17:47:24.72	348.60	18.94	-36.8	-37.7	24.5	0.00e+00	42	32	0	527433728	46	6178
2026-01-28 17:47:25.73	348.37	18.97	-36.8	-37.6	24.4	0.00e+00	90	32	0	528482304	46	6148
2026-01-28 17:47:26.74	348.13	19.01	-36.9	-37.7	24.4	0.00e+00	36	32	0	530579456	46	6235
2026-01-28 17:47:27.75	347.90	19.04	-36.8	-37.6	24.5	0.00e+00	92	32	0	532676608	46	6152
2026-01-28 17:47:28.76	347.66	19.07	-36.6	-37.5	24.0	0.00e+00	37	32	0	534773760	46	6054
2026-01-28 17:47:29.77	347.42	19.10	-36.8	-37.6	24.4	0.00e+00	0	32	0	536870912	46	6162
2026-01-28 17:47:30.78	347.19	19.13	-36.9	-37.8	24.3	0.00e+00	40	32	0	537919488	46	6288
2026-01-28 17:47:31.79	346.95	19.16	-36.9	-37.8	24.3	0.00e+00	0	32	0	540016640	46	6263
2026-01-28 17:47:32.80	346.71	19.19	-37.0	-37.9	24.2	0.00e+00	85	32	0	542113792	46	6333
2026-01-28 17:47:33.81	346.47	19.22	-37.1	-37.9	24.3	0.00e+00	38	32	0	544210944	46	6386
2026-01-28 17:47:34.82	346.23	19.25	-37.0	-37.9	24.2	0.00e+00	92	32	0	546308096	46	6320
2026-01-28 17:47:35.83	345.99	19.28	-36.9	-37.8	24.4	0.00e+00	0	32	0	548405248	46	6247
2026-01-28 17:47:36.84	345.75	19.31	-36.9	-37.7	24.4	0.00e+00	92	32	0	549453824	46	6239
2026-01-28 17:47:37.85	345.51	19.33	-37.0	-37.9	24.3	0.00e+00	2	32	0	551550976	46	6354
2026-01-28 17:47:38.85	345.27	19.36	-37.0	-37.9	24.3	0.00e+00	0	32	0	553648128	46	6333
2026-01-28 17:47:39.86	345.03	19.39	-37.1	-37.9	24.1	0.00e+00	0	32	0	555745280	46	6384
2026-01-28 17:47:40.87	344.79	19.41	-37.2	-38.0	24.1	0.00e+00	0	32	0	557842432	46	6453
2026-01-28 17:47:41.88	344.55	19.44	-37.4	-38.2	24.0	0.00e+00	92	32	0	558891008	46	6605
2026-01-28 17:47:42.89	344.31	19.46	-37.4	-38.3	23.8	0.00e+00	36	32	0	560988160	46	6656
2026-01-28 17:47:43.90	344.06	19.49	-37.5	-38.4	23.7	0.00e+00	92	32	0	563085312	46	6723
2026-01-28 17:47:44.91	343.82	19.51	-37.5	-38.4	23.8	0.00e+00	41	32	0	565182464	46	6758
2026-01-28 17:47:45.92	343.58	19.53	-37.7	-38.6	23.6	0.00e+00	0	32	0	566231040	46	6893
2026-01-28 17:47:46.93	343.33	19.56	-37.7	-38.6	23.6	0.00e+00	0	32	0	568328192	48	6156
2026-01-28 17:47:47.94	343.09	19.58	-37.9	-38.8	23.5	0.00e+00	42	32	0	570425344	48	6273
2026-01-28 17:47:48.95	342.84	19.60	-37.9	-38.8	23.5	0.00e+00	91	32	0	572522496	48	6258
2026-01-28 17:47:49.96	342.60	19.62	-37.8	-38.7	23.5	0.00e+00	42	32	0	574619648	48	6218
2026-01-28 17:47:50.97	342.35	19.64	-37.8	-38.7	23.5	0.00e+00	91	32	0	576716800	48	6220
2026-01-28 17:47:51.97	342.11	19.66	-37.7	-38.6	23.6	0.00e+00	0	32	0	577765376	48	6167
2026-01-28 17:47:52.99	341.86	19.68	-37.6	-38.5	23.7	0.00e+00	2	32	0	579862528	48	6103
2026-01-28 17:47:53.99	341.62	19.70	-37.8	-38.7	23.6	0.00e+00	40	32	0	581959680	48	6211
2026-01-28 17:47:55.00	341.37	19.72	-37.9	-38.8	23.5	0.00e+00	0	32	0	584056832	48	6264
2026-01-28 17:47:56.01	341.12	19.74	-37.9	-38.8	23.4	0.00e+00	31	32	0	586153984	48	6316
2026-01-28 17:47:57.02	340.88	19.75	-38.0	-39.0	23.4	0.00e+00	0	32	0	587202560	48	6423
2026-01-28 17:47:58.03	340.63	19.77	-38.1	-39.0	23.2	0.00e+00	92	32	0	589299712	48	6463
2026-01-28 17:47:59.04	340.38	19.79	-38.1	-39.0	23.3	0.00e+00	0	32	0	591396864	48	6439
2026-01-28 17:48:00.05	340.13	19.80	-38.0	-39.0	23.3	0.00e+00	92	32	0	593494016	48	6414
2026-01-28 17:48:01.06	339.89	19.82	-38.1	-39.1	22.9	0.00e+00	2	32	0	595591168	48	6496
2026-01-28 17:48:02.07	339.64	19.83	-38.4	-39.4	22.9	0.00e+00	0	32	0	596639744	48	6697
2026-01-28 17:48:03.08	339.39	19.85	-38.6	-39.6	22.7	0.00e+00	0	32	0	598736896	48	6906
2026-01-28 17:48:04.09	339.14	19.86	-38.7	-39.8	22.5	0.00e+00	43	32	0	600834048	48	7027
2026-01-28 17:48:05.10	338.89	19.87	-38.8	-39.8	22.5	0.00e+00	90	32	0	602931200	50	6309
2026-01-28 17:48:06.11	338.64	19.88	-38.7	-39.8	22.5	0.00e+00	0	32	0	605028352	50	6256
2026-01-28 17:48:07.12	338.39	19.90	-38.6	-39.6	22.7	0.00e+00	92	32	0	606076928	50	6153
2026-01-28 17:48:08.13	338.14	19.91	-38.4	-39.4	23.0	0.00e+00	49	32	0	608174080	50	5992
2026-01-28 17:48:09.14	337.89	19.92	-38.1	-39.0	23.3	0.00e+00	39	32	0	610271232	50	5739
2026-01-28 17:48:10.15	337.64	19.93	-38.1	-39.1	23.3	0.00e+00	2	32	0	612368384	50	5764
2026-01-28 17:48:11.16	337.39	19.94	-38.0	-38.9	23.3	0.00e+00	0	32	0	614465536	50	5679
2026-01-28 17:48:12.17	337.14	19.95	-38.2	-39.1	23.1	0.00e+00	92	32	0	615514112	50	5828
2026-01-28 17:48:13.18	336.89	19.95	-38.2	-39.2	23.1	0.00e+00	39	32	0	617611264	50	5841
2026-01-28 17:48:14.19	336.64	19.96	-38.3	-39.3	23.0	0.00e+00	92	32	0	619708416	50	5912
2026-01-28 17:48:15.19	336.39	19.97	-38.4	-39.4	23.0	0.00e+00	0	32	0	621805568	50	5978
2026-01-28 17:48:16.21	336.14	19.98	-38.4	-39.4	23.0	0.00e+00	90	32	0	623902720	50	5999
2026-01-28 17:48:17.21	335.89	19.98	-38.3	-39.3	23.1	0.00e+00	0	33	0	624951296	50	5955
2026-01-28 17:48:18.22	335.64	19.99	-38.3	-39.3	23.0	0.00e+00	0	32	0	627048448	50	5945
2026-01-28 17:48:19.23	335.39	19.99	-38.1	-39.1	23.2	0.00e+00	36	32	0	629145600	50	5794
2026-01-28 17:48:20.24	335.14	20.00	-38.1	-39.1	23.2	0.00e+00	0	32	0	631242752	50	5784
2026-01-28 17:48:21.25	334.88	20.00	-38.1	-39.1	23.2	0.00e+00	92	32	0	633339904	50	5782
2026-01-28 17:48:22.26	334.63	20.00	-38.2	-39.2	23.1	0.00e+00	0	32	0	634388480	50	5872
2026-01-28 17:48:23.27	334.38	20.01	-38.3	-39.3	22.9	0.00e+00	52	32	0	636485632	50	5946
2026-01-28 17:48:24.28	334.13	20.01	-38.4	-39.4	23.0	0.00e+00	36	32	0	638582784	50	5970
2026-01-28 17:48:25.29	333.88	20.01	-38.5	-39.5	22.9	0.00e+00	40	32	0	640679936	50	6035
2026-01-28 17:48:26.30	333.63	20.01	-38.3	-39.2	23.1	0.00e+00	0	32	0	642777088	50	5887
2026-01-28 17:48:27.31	333.37	20.01	-38.1	-39.0	23.2	0.00e+00	0	32	0	644874240	50	5758
2026-01-28 17:48:28.31	333.13	20.01	-38.2	-39.2	23.1	0.00e+00	91	32	0	645922816	50	5835
2026-01-28 17:48:29.32	332.87	20.01	-38.4	-39.3	23.0	0.00e+00	42	32	0	648019968	50	5964
2026-01-28 17:48:30.33	332.62	20.01	-38.3	-39.3	23.0	0.00e+00	92	32	0	650117120	50	5916
2026-01-28 17:48:31.34	332.37	20.01	-38.4	-39.4	22.8	0.00e+00	47	32	0	652214272	50	5992
2026-01-28 17:48:32.35	332.12	20.00	-38.4	-39.3	22.5	0.00e+00	45	32	0	654311424	50	5956
2026-01-28 17:48:33.36	331.87	20.00	-38.3	-39.3	23.1	0.00e+00	41	32	0	655360000	50	5913
2026-01-28 17:48:34.37	331.62	20.00	-38.2	-39.1	23.1	0.00e+00	2	32	0	657457152	50	5812
2026-01-28 17:48:35.38	331.36	19.99	-37.9	-38.8	23.5	0.00e+00	92	32	0	659554304	50	5603
2026-01-28 17:48:36.39	331.11	19.99	-37.7	-38.5	23.8	0.00e+00	7	32	0	661651456	48	6103
2026-01-28 17:48:37.40	330.86	19.98	-37.6	-38.5	23.7	0.00e+00	91	32	0	663748608	48	6039
2026-01-28 17:48:38.41	330.61	19.97	-37.3	-38.2	24.0	0.00e+00	46	32	0	664797184	48	5847
2026-01-28 17:48:39.42	330.36	19.97	-37.5	-38.4	23.9	0.00e+00	33	32	0	666894336	48	5981
2026-01-28 17:48:40.43	330.11	19.96	-37.4	-38.3	24.0	0.00e+00	6	32	0	668991488	48	5922
2026-01-28 17:48:41.44	329.86	19.95	-37.6	-38.5	23.8	0.00e+00	0	32	0	671088640	48	6083
2026-01-28 17:48:42.45	329.61	19.94	-37.7	-38.6	23.6	0.00e+00	0	32	0	673185792	48	6160
2026-01-28 17:48:43.45	329.36	19.94	-38.0	-39.0	23.4	0.00e+00	0	32	0	674234368	48	6400
2026-01-28 17:48:44.46	329.11	19.93	-37.7	-38.6	23.6	0.00e+00	91	32	0	676331520	48	6152
2026-01-28 17:48:45.47	328.86	19.92	-37.7	-38.5	23.7	0.00e+00	42	32	0	678428672	48	6099
2026-01-28 17:48:46.48	328.61	19.90	-37.4	-38.3	23.9	0.00e+00	92	32	0	680525824	48	5929
2026-01-28 17:48:47.49	328.36	19.89	-37.7	-38.5	23.8	0.00e+00	0	32	0	682622976	48	6089
2026-01-28 17:48:48.50	328.11	19.88	-37.4	-38.2	24.1	0.00e+00	37	32	0	683671552	48	5891
2026-01-28 17:48:49.51	327.86	19.87	-37.0	-37.8	24.4	0.00e+00	0	32	0	685768704	48	5610
2026-01-28 17:48:50.52	327.61	19.86	-36.9	-37.8	24.4	0.00e+00	41	32	0	687865856	48	5586
2026-01-28 17:48:51.53	327.36	19.84	-37.0	-37.9	24.3	0.00e+00	90	32	0	689963008	48	5640
2026-01-28 17:48:52.54	327.11	19.83	-37.0	-37.8	24.2	0.00e+00	41	32	0	692060160	48	5592
2026-01-28 17:48:53.55	326.86	19.81	-37.1	-37.9	24.4	0.00e+00	92	32	0	693108736	48	5676
2026-01-28 17:48:54.55	326.62	19.80	-37.0	-37.8	24.4	0.00e+00	34	32	0	695205888	48	5611
2026-01-28 17:48:55.56	326.37	19.78	-37.0	-37.9	24.3	0.00e+00	34	32	0	697303040	48	5647
2026-01-28 17:48:56.57	326.12	19.77	-36.9	-37.7	24.5	0.00e+00	49	32	0	699400192	48	5542
2026-01-28 17:48:57.58	325.88	19.75	-36.7	-37.5	24.7	0.00e+00	7	32	0	701497344	46	6079
2026-01-28 17:48:58.59	325.63	19.73	-36.7	-37.5	24.7	0.00e+00	20	32	0	702545920	46	6046
2026-01-28 17:48:59.60	325.38	19.71	-36.4	-37.2	25.0	0.00e+00	6	32	0	704643072	46	5876
2026-01-28 17:49:00.61	325.13	19.70	-36.4	-37.2	24.8	0.00e+00	92	32	0	706740224	46	5890
2026-01-28 17:49:01.62	324.89	19.68	-36.4	-37.2	25.0	0.00e+00	7	32	0	708837376	46	5855
2026-01-28 17:49:02.63	324.64	19.66	-36.4	-37.2	24.9	0.00e+00	44	32	0	710934528	46	5836
2026-01-28 17:49:03.64	324.40	19.64	-36.6	-37.4	24.7	0.00e+00	7	32	0	713031680	46	5968
2026-01-28 17:49:04.65	324.15	19.62	-36.2	-37.0	25.1	0.00e+00	6	32	0	714080256	46	5737
2026-01-28 17:49:05.65	323.91	19.60	-36.3	-37.1	25.0	0.00e+00	2	32	0	716177408	46	5775
2026-01-28 17:49:06.66	323.66	19.57	-36.3	-37.1	25.0	0.00e+00	6	32	0	718274560	46	5768
2026-01-28 17:49:07.67	323.42	19.55	-36.2	-37.0	25.0	0.00e+00	90	32	0	720371712	46	5754
2026-01-28 17:49:08.68	323.18	19.53	-36.3	-37.1	25.0	0.00e+00	0	32	0	722468864	46	5763
2026-01-28 17:49:09.69	322.93	19.51	-36.3	-37.1	24.9	0.00e+00	92	32	0	723517440	46	5813
2026-01-28 17:49:10.70	322.69	19.48	-36.4	-37.2	24.9	0.00e+00	0	32	0	725614592	46	5845
2026-01-28 17:49:11.71	322.45	19.46	-36.4	-37.2	24.8	0.00e+00	36	32	0	727711744	46	5896
2026-01-28 17:49:12.72	322.20	19.43	-36.5	-37.3	24.8	0.00e+00	24	32	0	729808896	46	5963
2026-01-28 17:49:13.72	321.96	19.41	-36.5	-37.3	24.6	0.00e+00	42	32	0	731906048	46	5940
2026-01-28 17:49:14.73	321.72	19.38	-36.6	-37.4	24.7	0.00e+00	92	32	0	732954624	46	6018
2026-01-28 17:49:15.75	321.48	19.35	-36.5	-37.4	24.8	0.00e+00	40	32	0	735051776	46	5969
2026-01-28 17:49:16.76	321.24	19.33	-36.5	-37.4	24.8	0.00e+00	92	32	0	737148928	46	5966
2026-01-28 17:49:17.76	321.00	19.30	-36.4	-37.2	24.8	0.00e+00	40	33	0	739246080	46	5867
2026-01-28 17:49:18.77	320.76	19.27	-36.6	-37.4	24.9	0.00e+00	2	32	0	741343232	46	5973
2026-01-28 17:49:19.78	320.52	19.24	-36.6	-37.4	24.8	0.00e+00	44	32	0	742391808	46	5973
2026-01-28 17:49:20.79	320.28	19.22	-36.6	-37.4	24.7	0.00e+00	0	32	0	744488960	46	6013
2026-01-28 17:49:21.80	320.04	19.19	-36.7	-37.5	24.7	0.00e+00	91	32	0	746586112	46	6052
2026-01-28 17:49:22.81	319.80	19.16	-36.8	-37.6	24.6	0.00e+00	0	32	0	748683264	46	6146
2026-01-28 17:49:23.82	319.57	19.13	-37.0	-37.8	24.4	0.00e+00	92	32	0	750780416	46	6278
2026-01-28 17:49:24.83	319.33	19.10	-37.1	-38.0	24.2	0.00e+00	0	32	0	751828992	46	6415
2026-01-28 17:49:25.83	319.09	19.06	-37.2	-38.1	24.2	0.00e+00	91	32	0	753926144	46	6495
2026-01-28 17:49:26.85	318.85	19.03	-37.3	-38.2	24.0	0.00e+00	0	32	0	756023296	46	6578
2026-01-28 17:49:27.85	318.62	19.00	-37.4	-38.2	24.0	0.00e+00	2	32	0	758120448	46	6615
2026-01-28 17:49:28.86	318.39	18.97	-37.5	-38.4	24.0	0.00e+00	0	32	0	760217600	46	6696
2026-01-28 17:49:29.87	318.15	18.93	-37.5	-38.4	23.8	0.00e+00	0	32	0	761266176	46	6724
2026-01-28 17:49:30.88	317.92	18.90	-37.5	-38.3	23.9	0.00e+00	92	32	0	763363328	46	6667
2026-01-28 17:49:31.89	317.68	18.87	-37.6	-38.5	23.8	0.00e+00	42	32	0	765460480	46	6789
2026-01-28 17:49:32.89	317.45	18.83	-37.8	-38.6	23.6	0.00e+00	92	32	0	767557632	48	6170
2026-01-28 17:49:33.90	317.22	18.80	-37.9	-38.8	23.5	0.00e+00	31	32	0	769654784	48	6260
2026-01-28 17:49:34.91	316.99	18.76	-37.9	-38.8	23.5	0.00e+00	0	32	0	770703360	48	6248
2026-01-28 17:49:35.92	316.76	18.73	-37.7	-38.6	23.7	0.00e+00	29	32	0	772800512	48	6157
2026-01-28 17:49:36.93	316.53	18.69	-37.9	-38.8	23.5	0.00e+00	40	32	0	774897664	48	6286
2026-01-28 17:49:37.94	316.29	18.65	-37.8	-38.7	23.6	0.00e+00	92	32	0	776994816	48	6238
2026-01-28 17:49:38.95	316.06	18.62	-38.0	-38.9	23.4	0.00e+00	5	32	0	779091968	48	6366
2026-01-28 17:49:39.96	315.84	18.58	-38.1	-39.1	23.3	0.00e+00	92	32	0	780140544	48	6487
2026-01-28 17:49:40.97	315.61	18.54	-38.3	-39.2	23.2	0.00e+00	41	32	0	782237696	48	6579
2026-01-28 17:49:41.98	315.38	18.50	-38.1	-39.1	23.3	0.00e+00	0	32	0	784334848	48	6475
2026-01-28 17:49:42.99	315.15	18.46	-38.1	-39.0	23.3	0.00e+00	47	32	0	786432000	48	6455
2026-01-28 17:49:44.00	314.92	18.43	-38.1	-39.0	23.4	0.00e+00	0	32	0	788529152	48	6403
2026-01-28 17:49:45.01	314.70	18.39	-38.1	-39.0	23.4	0.00e+00	18	32	0	789577728	48	6463
2026-01-28 17:49:46.02	314.47	18.35	-38.0	-38.9	23.4	0.00e+00	42	32	0	791674880	48	6372
2026-01-28 17:49:47.03	314.25	18.31	-38.0	-38.9	23.4	0.00e+00	92	32	0	793772032	48	6380
2026-01-28 17:49:48.04	314.02	18.27	-38.0	-38.9	23.1	0.00e+00	0	32	0	795869184	48	6387
2026-01-28 17:49:49.04	313.80	18.22	-38.0	-39.0	23.3	0.00e+00	90	32	0	797966336	48	6396
2026-01-28 17:49:50.05	313.58	18.18	-37.9	-38.8	23.4	0.00e+00	0	32	0	799014912	48	6303
2026-01-28 17:49:51.06	313.35	18.14	-38.2	-39.1	22.9	0.00e+00	0	32	0	801112064	48	6505
2026-01-28 17:49:52.07	313.13	18.10	-38.2	-39.2	23.3	0.00e+00	2	32	0	803209216	48	6550
2026-01-28 17:49:53.08	312.91	18.06	-38.1	-39.0	23.3	0.00e+00	41	32	0	805306368	48	6414
2026-01-28 17:49:54.09	312.69	18.01	-38.1	-39.0	23.4	0.00e+00	91	32	0	807403520	48	6414
2026-01-28 17:49:55.09	312.47	17.97	-38.1	-39.0	23.4	0.00e+00	0	32	0	809500672	48	6411
2026-01-28 17:49:56.10	312.25	17.93	-38.1	-39.0	23.4	0.00e+00	91	32	0	810549248	48	6425
2026-01-28 17:49:57.11	312.03	17.88	-38.0	-38.9	23.4	0.00e+00	40	32	0	812646400	48	6338
2026-01-28 17:49:58.12	311.81	17.84	-38.1	-39.0	23.4	0.00e+00	42	32	0	814743552	48	6428
2026-01-28 17:49:59.13	311.60	17.79	-38.1	-39.0	23.3	0.00e+00	41	32	0	816840704	48	6444
2026-01-28 17:50:00.14	311.38	17.75	-38.1	-39.0	22.9	0.00e+00	39	32	0	818937856	48	6451
2026-01-28 17:50:01.15	311.16	17.70	-38.1	-39.0	23.3	0.00e+00	51	32	0	819986432	48	6459
2026-01-28 17:50:02.16	310.95	17.66	-38.0	-39.0	23.4	0.00e+00	0	32	0	822083584	48	6397
2026-01-28 17:50:03.17	310.73	17.61	-37.8	-38.7	23.6	0.00e+00	90	32	0	824180736	48	6209
2026-01-28 17:50:04.18	310.52	17.56	-37.9	-38.8	23.5	0.00e+00	2	32	0	826277888	48	6276
2026-01-28 17:50:05.19	310.30	17.52	-37.8	-38.7	23.6	0.00e+00	58	32	0	828375040	48	6235
2026-01-28 17:50:06.20	310.09	17.47	-37.7	-38.6	23.7	0.00e+00	2	32	0	829423616	48	6164
2026-01-28 17:50:07.21	309.88	17.42	-37.9	-38.8	23.5	0.00e+00	0	32	0	831520768	48	6312
2026-01-28 17:50:08.22	309.67	17.38	-38.0	-38.9	23.4	0.00e+00	40	32	0	833617920	48	6367
2026-01-28 17:50:09.23	309.45	17.33	-38.1	-39.1	23.3	0.00e+00	0	32	0	835715072	48	6468
2026-01-28 17:50:10.24	309.24	17.28	-38.1	-39.0	23.3	0.00e+00	92	32	0	837812224	48	6459
2026-01-28 17:50:11.25	309.03	17.23	-38.2	-39.1	23.3	0.00e+00	0	32	0	838860800	48	6516
2026-01-28 17:50:12.25	308.83	17.18	-38.3	-39.3	23.2	0.00e+00	41	32	0	840957952	48	6632
2026-01-28 17:50:13.26	308.62	17.13	-38.4	-39.3	23.1	0.00e+00	0	32	0	843055104	48	6690
2026-01-28 17:50:14.27	308.41	17.08	-38.4	-39.3	23.0	0.00e+00	0	32	0	845152256	48	6690
2026-01-28 17:50:15.28	308.20	17.03	-38.4	-39.3	23.1	0.00e+00	0	32	0	847249408	48	6673
2026-01-28 17:50:16.29	308.00	16.98	-38.6	-39.5	22.9	0.00e+00	0	32	0	848297984	48	6843
2026-01-28 17:50:17.30	307.79	16.93	-38.3	-39.2	23.1	0.00e+00	92	32	0	850395136	48	6604
2026-01-28 17:50:18.31	307.59	16.88	-38.4	-39.3	23.1	0.00e+00	0	32	0	852492288	48	6674
2026-01-28 17:50:19.32	307.38	16.83	-38.5	-39.5	22.9	0.00e+00	0	32	0	854589440	48	6829
2026-01-28 17:50:20.33	307.18	16.78	-38.6	-39.6	22.9	0.00e+00	38	32	0	856686592	48	6871
2026-01-28 17:50:21.34	306.98	16.73	-38.6	-39.6	22.8	0.00e+00	39	32	0	857735168	48	6882
2026-01-28 17:50:22.35	306.77	16.68	-38.6	-39.6	22.8	0.00e+00	42	32	0	859832320	48	6896
2026-01-28 17:50:23.36	306.57	16.63	-38.7	-39.7	22.8	0.00e+00	39	32	0	861929472	48	6956
2026-01-28 17:50:24.37	306.37	16.57	-38.5	-39.5	22.9	0.00e+00	92	32	0	864026624	48	6780
2026-01-28 17:50:25.38	306.17	16.52	-38.5	-39.5	23.0	0.00e+00	5	32	0	866123776	48	6785
2026-01-28 17:50:26.39	305.97	16.47	-38.3	-39.2	23.2	0.00e+00	90	32	0	867172352	48	6588
2026-01-28 17:50:27.40	305.77	16.42	-38.3	-39.3	23.1	0.00e+00	0	32	0	869269504	48	6649
2026-01-28 17:50:28.41	305.58	16.36	-38.5	-39.4	23.0	0.00e+00	22	32	0	871366656	48	6752
2026-01-28 17:50:29.41	305.38	16.31	-38.5	-39.5	22.8	0.00e+00	5	32	0	873463808	48	6808
2026-01-28 17:50:30.42	305.18	16.26	-38.4	-39.4	23.0	0.00e+00	6	32	0	875560960	48	6707
2026-01-28 17:50:31.43	304.99	16.20	-38.5	-39.4	23.0	0.00e+00	16	32	0	877658112	48	6749
2026-01-28 17:50:32.44	304.79	16.15	-38.5	-39.5	22.9	0.00e+00	6	32	0	878706688	48	6784
2026-01-28 17:50:33.45	304.60	16.09	-38.6	-39.6	22.9	0.00e+00	90	32	0	880803840	48	6856
2026-01-28 17:50:34.46	304.41	16.04	-38.6	-39.6	22.8	0.00e+00	0	32	0	882900992	48	6895
2026-01-28 17:50:35.47	304.21	15.98	-38.7	-39.7	22.7	0.00e+00	7	32	0	884998144	48	6968
2026-01-28 17:50:36.48	304.02	15.93	-38.8	-39.8	22.6	0.00e+00	0	32	0	887095296	50	6267
2026-01-28 17:50:37.49	303.83	15.87	-38.8	-39.8	22.7	0.00e+00	0	32	0	888143872	50	6292
2026-01-28 17:50:38.50	303.64	15.82	-38.8	-39.8	22.6	0.00e+00	0	32	0	890241024	50	6298
2026-01-28 17:50:39.51	303.45	15.76	-38.8	-39.8	22.7	0.00e+00	0	32	0	892338176	50	6255
2026-01-28 17:50:40.52	303.26	15.71	-38.9	-39.9	22.7	0.00e+00	90	32	0	894435328	50	6340
2026-01-28 17:50:41.53	303.07	15.65	-38.8	-39.8	22.5	0.00e+00	5	32	0	896532480	50	6312
2026-01-28 17:50:42.53	302.88	15.60	-38.7	-39.7	22.7	0.00e+00	92	32	0	897581056	50	6212
2026-01-28 17:50:43.54	302.70	15.54	-38.9	-39.9	22.5	0.00e+00	50	32	0	899678208	50	6380
2026-01-28 17:50:44.55	302.51	15.48	-38.8	-39.8	22.4	0.00e+00	38	32	0	901775360	50	6292
2026-01-28 17:50:45.56	302.32	15.43	-38.5	-39.4	23.0	0.00e+00	46	32	0	903872512	50	6023
2026-01-28 17:50:46.57	302.14	15.37	-38.4	-39.3	23.1	0.00e+00	8	32	0	905969664	50	5939
2026-01-28 17:50:47.58	301.95	15.31	-38.4	-39.3	23.1	0.00e+00	92	32	0	907018240	50	5930
2026-01-28 17:50:48.59	301.77	15.26	-38.4	-39.3	23.0	0.00e+00	48	32	0	909115392	50	5952
2026-01-28 17:50:49.60	301.59	15.20	-38.6	-39.6	22.8	0.00e+00	92	32	0	911212544	50	6110
2026-01-28 17:50:50.61	301.41	15.14	-38.7	-39.7	22.7	0.00e+00	6	32	0	913309696	50	6207
2026-01-28 17:50:51.62	301.22	15.08	-39.0	-40.0	22.5	0.00e+00	0	32	0	915406848	50	6427
2026-01-28 17:50:52.63	301.04	15.03	-39.0	-40.0	22.4	0.00e+00	0	32	0	916455424	50	6420
2026-01-28 17:50:53.64	300.86	14.97	-39.0	-40.0	22.4	0.00e+00	0	32	0	918552576	50	6458
2026-01-28 17:50:54.65	300.68	14.91	-39.1	-40.2	22.3	0.00e+00	2	32	0	920649728	50	6543
2026-01-28 17:50:55.66	300.50	14.85	-39.2	-40.2	22.3	0.00e+00	0	32	0	922746880	50	6595
2026-01-28 17:50:56.67	300.33	14.79	-39.3	-40.3	22.2	0.00e+00	92	32	0	924844032	50	6659
2026-01-28 17:50:57.68	300.15	14.74	-39.3	-40.3	22.2	0.00e+00	40	32	0	925892608	50	6659
2026-01-28 17:50:58.69	299.97	14.68	-39.3	-40.3	22.1	0.00e+00	52	32	0	927989760	50	6651
2026-01-28 17:50:59.70	299.80	14.62	-39.4	-40.5	22.0	0.00e+00	0	32	0	930086912	50	6791
2026-01-28 17:51:00.71	299.62	14.56	-39.4	-40.5	22.1	0.00e+00	0	32	0	932184064	50	6777
2026-01-28 17:51:01.72	299.45	14.50	-39.4	-40.5	22.0	0.00e+00	0	32	0	934281216	50	6799
2026-01-28 17:51:02.72	299.27	14.44	-39.3	-40.4	22.1	0.00e+00	50	32	0	935329792	50	6716
2026-01-28 17:51:03.73	299.10	14.38	-39.3	-40.3	22.1	0.00e+00	91	32	0	937426944	50	6670
2026-01-28 17:51:04.74	298.93	14.32	-39.2	-40.3	22.2	0.00e+00	48	32	0	939524096	50	6654
2026-01-28 17:51:05.75	298.76	14.26	-39.2	-40.2	22.2	0.00e+00	91	32	0	941621248	50	6597
2026-01-28 17:51:06.76	298.59	14.20	-39.2	-40.2	22.3	0.00e+00	48	32	0	943718400	50	6563
2026-01-28 17:51:07.77	298.42	14.14	-39.1	-40.1	22.3	0.00e+00	0	32	0	945815552	50	6511
2026-01-28 17:51:08.78	298.25	14.08	-39.1	-40.2	22.3	0.00e+00	48	32	0	946864128	50	6547
2026-01-28 17:51:09.79	298.08	14.02	-39.1	-40.1	22.3	0.00e+00	0	32	0	948961280	50	6516
2026-01-28 17:51:10.80	297.91	13.96	-39.2	-40.3	22.2	0.00e+00	24	32	0	951058432	50	6620
2026-01-28 17:51:11.81	297.74	13.90	-39.4	-40.4	22.1	0.00e+00	2	32	0	953155584	50	6753
2026-01-28 17:51:12.81	297.58	13.84	-39.4	-40.5	22.0	0.00e+00	91	32	0	954204160	50	6816
2026-01-28 17:51:13.82	297.41	13.78	-39.4	-40.4	22.0	0.00e+00	0	32	0	956301312	50	6734
2026-01-28 17:51:14.84	297.24	13.72	-39.5	-40.5	22.0	0.00e+00	73	32	0	958398464	50	6822
2026-01-28 17:51:15.85	297.08	13.66	-39.5	-40.6	21.7	0.00e+00	0	32	0	960495616	50	6908
2026-01-28 17:51:16.85	296.92	13.60	-39.5	-40.5	21.9	0.00e+00	2	32	0	962592768	50	6833
2026-01-28 17:51:17.86	296.75	13.54	-39.2	-40.2	22.2	0.00e+00	0	32	0	963641344	50	6604
2026-01-28 17:51:18.87	296.59	13.48	-39.1	-40.1	22.4	0.00e+00	38	32	0	965738496	50	6516
2026-01-28 17:51:19.88	296.43	13.42	-38.9	-40.0	22.5	0.00e+00	90	32	0	967835648	50	6400
2026-01-28 17:51:20.89	296.27	13.36	-38.8	-39.8	22.5	0.00e+00	37	32	0	969932800	50	6300
2026-01-28 17:51:21.89	296.11	13.30	-38.8	-39.8	22.6	0.00e+00	92	32	0	972029952	50	6297
2026-01-28 17:51:22.90	295.95	13.24	-38.8	-39.8	22.6	0.00e+00	0	32	0	974127104	50	6261
2026-01-28 17:51:23.91	295.79	13.18	-38.8	-39.8	22.6	0.00e+00	0	32	0	975175680	50	6263
2026-01-28 17:51:24.92	295.63	13.12	-38.8	-39.7	22.7	0.00e+00	21	32	0	977272832	50	6241
2026-01-28 17:51:25.93	295.47	13.06	-38.7	-39.7	22.7	0.00e+00	38	32	0	979369984	50	6178
2026-01-28 17:51:26.93	295.31	12.99	-38.7	-39.7	22.6	0.00e+00	92	32	0	981467136	50	6227
2026-01-28 17:51:27.94	295.16	12.93	-38.7	-39.7	22.7	0.00e+00	45	32	0	983564288	50	6183
2026-01-28 17:51:28.95	295.00	12.87	-38.6	-39.6	22.7	0.00e+00	92	32	0	984612864	50	6131
2026-01-28 17:51:29.96	294.85	12.81	-38.5	-39.5	22.9	0.00e+00	44	32	0	986710016	50	6060
2026-01-28 17:51:30.97	294.69	12.75	-38.7	-39.7	22.7	0.00e+00	0	32	0	988807168	50	6191
2026-01-28 17:51:31.98	294.54	12.69	-38.6	-39.6	22.8	0.00e+00	43	32	0	990904320	50	6137
2026-01-28 17:51:32.99	294.38	12.63	-38.6	-39.6	22.7	0.00e+00	50	32	0	993001472	50	6112
2026-01-28 17:51:34.00	294.23	12.56	-38.6	-39.6	22.7	0.00e+00	16	32	0	994050048	50	6156
2026-01-28 17:51:35.01	294.08	12.50	-38.5	-39.5	22.8	0.00e+00	0	32	0	996147200	50	6040
2026-01-28 17:51:36.02	293.93	12.44	-38.5	-39.5	22.8	0.00e+00	90	32	0	998244352	50	6048
2026-01-28 17:51:37.03	293.78	12.38	-38.5	-39.5	22.9	0.00e+00	0	32	0	1000341504	50	6077
2026-01-28 17:51:38.04	293.62	12.32	-38.6	-39.6	22.8	0.00e+00	34	32	0	1002438656	50	6132
2026-01-28 17:51:39.05	293.48	12.26	-38.6	-39.6	22.8	0.00e+00	0	32	0	1003487232	50	6139
2026-01-28 17:51:40.05	293.33	12.19	-38.2	-39.2	23.1	0.00e+00	2	32	0	1005584384	50	5848
2026-01-28 17:51:41.06	293.18	12.13	-38.2	-39.1	23.1	0.00e+00	0	32	0	1007681536	50	5809
2026-01-28 17:51:42.07	293.03	12.07	-38.0	-38.9	23.3	0.00e+00	40	32	0	1009778688	50	5679
2026-01-28 17:51:43.08	292.88	12.01	-38.0	-38.9	23.3	0.00e+00	90	32	0	1011875840	50	5670
2026-01-28 17:51:44.09	292.74	11.95	-38.0	-38.9	23.3	0.00e+00	39	32	0	1012924416	50	5686
2026-01-28 17:51:45.10	292.59	11.88	-37.9	-38.8	23.4	0.00e+00	90	32	0	1015021568	50	5599
2026-01-28 17:51:46.11	292.45	11.82	-38.0	-38.9	23.3	0.00e+00	3	32	0	1017118720	50	5688
2026-01-28 17:51:47.12	292.30	11.76	-37.9	-38.8	23.4	0.00e+00	0	32	0	1019215872	50	5613
2026-01-28 17:51:48.13	292.16	11.70	-37.7	-38.6	23.6	0.00e+00	45	32	0	1021313024	48	6146
2026-01-28 17:51:49.13	292.02	11.64	-37.8	-38.7	23.5	0.00e+00	37	32	0	1022361600	48	6196
2026-01-28 17:51:50.14	291.87	11.57	-37.9	-38.8	23.4	0.00e+00	91	32	0	1024458752	48	6285
2026-01-28 17:51:51.15	291.73	11.51	-37.7	-38.6	23.2	0.00e+00	44	32	0	1026555904	48	6158
2026-01-28 17:51:52.16	291.59	11.45	-37.8	-38.7	23.5	0.00e+00	90	32	0	1028653056	48	6220
2026-01-28 17:51:53.17	291.45	11.39	-37.7	-38.6	23.3	0.00e+00	43	32	0	1030750208	48	6143
2026-01-28 17:51:54.18	291.31	11.33	-37.7	-38.6	23.5	0.00e+00	0	32	0	1031798784	48	6136
2026-01-28 17:51:55.19	291.17	11.26	-37.5	-38.4	23.6	0.00e+00	0	32	0	1033895936	48	6026
2026-01-28 17:51:56.20	291.03	11.20	-37.5	-38.4	23.4	0.00e+00	43	32	0	1035993088	48	6017
2026-01-28 17:51:57.21	290.89	11.14	-37.6	-38.5	23.7	0.00e+00	83	32	0	1038090240	48	6050
2026-01-28 17:51:58.22	290.75	11.08	-37.4	-38.3	23.6	0.00e+00	42	32	0	1040187392	48	5919
2026-01-28 17:51:59.23	290.62	11.01	-37.5	-38.3	23.8	0.00e+00	92	32	0	1042284544	48	5960
2026-01-28 17:52:00.24	290.48	10.95	-37.6	-38.5	23.6	0.00e+00	0	32	0	1043333120	48	6035
2026-01-28 17:52:01.25	290.34	10.89	-37.5	-38.4	23.8	0.00e+00	92	32	0	1045430272	48	6002
2026-01-28 17:52:02.26	290.21	10.83	-37.5	-38.4	23.6	0.00e+00	0	32	0	1047527424	48	6002
2026-01-28 17:52:03.27	290.07	10.77	-37.6	-38.5	23.6	0.00e+00	0	32	0	1049624576	48	6049
2026-01-28 17:52:04.27	289.94	10.70	-37.6	-38.5	23.7	0.00e+00	0	32	0	1051721728	48	6063
2026-01-28 17:52:05.28	289.81	10.64	-37.6	-38.5	23.5	0.00e+00	0	32	0	1052770304	48	6098
2026-01-28 17:52:06.29	289.67	10.58	-37.6	-38.5	23.6	0.00e+00	92	32	0	1054867456	48	6065
2026-01-28 17:52:07.30	289.54	10.52	-37.6	-38.5	23.6	0.00e+00	0	32	0	1056964608	48	6060
2026-01-28 17:52:08.31	289.41	10.46	-37.7	-38.6	23.5	0.00e+00	92	32	0	1059061760	48	6133
2026-01-28 17:52:09.32	289.28	10.39	-37.7	-38.6	23.4	0.00e+00	29	32	0	1061158912	48	6164
2026-01-28 17:52:10.33	289.14	10.33	-37.8	-38.8	23.4	0.00e+00	2	32	0	1062207488	48	6248
2026-01-28 17:52:11.34	289.01	10.27	-37.7	-38.6	23.5	0.00e+00	0	32	0	1064304640	48	6164
2026-01-28 17:52:12.35	288.88	10.21	-37.7	-38.7	23.6	0.00e+00	30	32	0	1066401792	48	6177
2026-01-28 17:52:13.36	288.76	10.14	-37.8	-38.7	23.4	0.00e+00	91	32	0	1068498944	48	6226
2026-01-28 17:52:14.37	288.63	10.08	-38.0	-39.0	23.2	0.00e+00	36	32	0	1070596096	48	6396
2026-01-28 17:52:15.38	288.50	10.02	-38.0	-39.0	23.2	0.00e+00	92	32	0	1071644672	48	6394
2026-01-28 17:52:16.39	288.37	9.96	-38.1	-39.1	23.0	0.00e+00	44	32	0	1073741824	48	6502
2026-01-28 17:52:17.39	288.25	9.90	-38.1	-39.1	23.1	0.00e+00	26	32	0	1075838976	48	6474
2026-01-28 17:52:18.40	288.12	9.83	-38.3	-39.2	22.9	0.00e+00	6	32	0	1077936128	48	6603
2026-01-28 17:52:19.41	287.99	9.77	-38.2	-39.2	22.9	0.00e+00	5	32	0	1080033280	48	6548
2026-01-28 17:52:20.42	287.87	9.71	-38.4	-39.4	22.8	0.00e+00	74	32	0	1081081856	48	6721
2026-01-28 17:52:21.43	287.74	9.65	-38.3	-39.3	22.8	0.00e+00	0	32	0	1083179008	48	6626
2026-01-28 17:52:22.44	287.62	9.59	-38.1	-39.1	23.1	0.00e+00	92	33	0	1085276160	48	6481
2026-01-28 17:52:23.45	287.49	9.52	-38.1	-39.1	23.0	0.00e+00	0	33	0	1087373312	48	6502
2026-01-28 17:52:24.46	287.37	9.46	-38.2	-39.1	23.0	0.00e+00	77	32	0	1089470464	48	6539
2026-01-28 17:52:25.47	287.25	9.40	-38.1	-39.0	23.1	0.00e+00	0	32	0	1090519040	48	6464
2026-01-28 17:52:26.48	287.13	9.34	-38.2	-39.1	23.1	0.00e+00	35	32	0	1092616192	48	6515
2026-01-28 17:52:27.49	287.00	9.28	-37.9	-38.9	23.2	0.00e+00	0	32	0	1094713344	48	6319
2026-01-28 17:52:28.50	286.88	9.21	-37.9	-38.9	23.1	0.00e+00	34	32	0	1096810496	48	6321
2026-01-28 17:52:29.50	286.76	9.15	-38.1	-39.0	23.1	0.00e+00	92	32	0	1098907648	48	6442
2026-01-28 17:52:30.51	286.64	9.09	-38.1	-39.0	23.1	0.00e+00	0	32	0	1099956224	48	6449
2026-01-28 17:52:31.52	286.52	9.03	-38.0	-39.0	23.1	0.00e+00	92	32	0	1102053376	48	6405
2026-01-28 17:52:32.53	286.41	8.97	-38.2	-39.1	23.0	0.00e+00	56	32	0	1104150528	48	6511
2026-01-28 17:52:33.54	286.29	8.91	-38.2	-39.2	22.9	0.00e+00	7	32	0	1106247680	48	6561
2026-01-28 17:52:34.55	286.17	8.84	-38.3	-39.3	22.8	0.00e+00	56	32	0	1108344832	48	6627
2026-01-28 17:52:35.55	286.05	8.78	-38.4	-39.4	22.8	0.00e+00	57	32	0	1109393408	48	6710
2026-01-28 17:52:36.56	285.94	8.72	-38.5	-39.4	22.6	0.00e+00	29	32	0	1111490560	48	6767
2026-01-28 17:52:37.57	285.82	8.66	-38.5	-39.5	22.6	0.00e+00	6	32	0	1113587712	48	6821
2026-01-28 17:52:38.58	285.70	8.60	-38.5	-39.5	22.6	0.00e+00	92	32	0	1115684864	48	6845
2026-01-28 17:52:39.59	285.59	8.54	-38.7	-39.7	22.3	0.00e+00	58	32	0	1117782016	50	6229
2026-01-28 17:52:40.60	285.47	8.48	-39.0	-40.0	22.2	0.00e+00	65	32	0	1118830592	50	6454
2026-01-28 17:52:41.61	285.36	8.41	-38.8	-39.8	22.3	0.00e+00	7	32	0	1120927744	50	6309
2026-01-28 17:52:42.61	285.24	8.35	-38.9	-40.0	22.1	0.00e+00	50	32	0	1123024896	50	6422
2026-01-28 17:52:43.62	285.13	8.29	-39.0	-40.0	22.1	0.00e+00	0	32	0	1125122048	50	6434
2026-01-28 17:52:44.63	285.02	8.23	-39.1	-40.2	21.9	0.00e+00	0	32	0	1127219200	50	6596
2026-01-28 17:52:45.64	284.91	8.17	-39.2	-40.3	21.8	0.00e+00	92	32	0	1128267776	50	6625
2026-01-28 17:52:46.65	284.79	8.11	-39.2	-40.3	21.8	0.00e+00	7	32	0	1130364928	50	6631
2026-01-28 17:52:47.66	284.68	8.05	-39.4	-40.5	21.6	0.00e+00	90	32	0	1132462080	50	6826
2026-01-28 17:52:48.67	284.57	7.99	-39.1	-40.1	22.0	0.00e+00	0	32	0	1134559232	50	6519
2026-01-28 17:52:49.68	284.46	7.93	-39.2	-40.3	21.8	0.00e+00	0	32	0	1136656384	50	6616
2026-01-28 17:52:50.69	284.35	7.86	-39.2	-40.2	21.8	0.00e+00	0	32	0	1138753536	50	6608
2026-01-28 17:52:51.70	284.24	7.80	-39.1	-40.1	22.0	0.00e+00	0	32	0	1139802112	50	6533
2026-01-28 17:52:52.71	284.13	7.74	-39.5	-40.6	21.4	0.00e+00	92	32	0	1141899264	50	6910
2026-01-28 17:52:53.72	284.02	7.68	-39.3	-40.4	21.8	0.00e+00	36	32	0	1143996416	50	6714
2026-01-28 17:52:54.73	283.91	7.62	-39.6	-40.7	21.3	0.00e+00	92	32	0	1146093568	50	6957
2026-01-28 17:52:55.74	283.81	7.56	-39.6	-40.7	21.5	0.00e+00	35	32	0	1148190720	50	6969
2026-01-28 17:52:56.75	283.70	7.50	-39.5	-40.7	21.4	0.00e+00	47	32	0	1149239296	50	6951
2026-01-28 17:52:57.75	283.59	7.44	-39.6	-40.8	21.4	0.00e+00	48	32	0	1151336448	52	6262
2026-01-28 17:52:58.76	283.49	7.38	-39.6	-40.8	21.3	0.00e+00	35	32	0	1153433600	52	6252
2026-01-28 17:52:59.77	283.38	7.32	-39.6	-40.8	21.3	0.00e+00	92	32	0	1155530752	52	6276
2026-01-28 17:53:00.78	283.27	7.26	-39.6	-40.8	21.4	0.00e+00	0	32	0	1157627904	52	6252
2026-01-28 17:53:01.79	283.17	7.20	-39.8	-41.0	21.1	0.00e+00	91	32	0	1158676480	52	6430
2026-01-28 17:53:02.80	283.06	7.14	-39.8	-40.9	21.2	0.00e+00	53	32	0	1160773632	52	6383
2026-01-28 17:53:03.81	282.96	7.08	-39.8	-41.0	21.2	0.00e+00	92	32	0	1162870784	52	6407
2026-01-28 17:53:04.81	282.86	7.02	-39.9	-41.1	21.0	0.00e+00	52	32	0	1164967936	52	6520
2026-01-28 17:53:05.82	282.75	6.96	-39.7	-40.9	21.2	0.00e+00	2	32	0	1167065088	52	6371
2026-01-28 17:53:06.83	282.65	6.90	-39.8	-41.0	21.1	0.00e+00	0	32	0	1168113664	52	6451
2026-01-28 17:53:07.83	282.55	6.84	-39.9	-41.1	21.0	0.00e+00	0	32	0	1170210816	52	6512
2026-01-28 17:53:08.84	282.45	6.78	-40.0	-41.2	20.9	0.00e+00	92	32	0	1172307968	52	6551
2026-01-28 17:53:09.85	282.35	6.72	-40.0	-41.2	20.8	0.00e+00	0	32	0	1174405120	52	6607
2026-01-28 17:53:10.86	282.25	6.66	-40.0	-41.2	20.9	0.00e+00	92	32	0	1176502272	52	6552
2026-01-28 17:53:11.87	282.14	6.60	-40.3	-41.5	20.5	0.00e+00	2	32	0	1177550848	52	6831
2026-01-28 17:53:12.88	282.04	6.54	-40.1	-41.3	20.8	0.00e+00	0	32	0	1179648000	52	6656
2026-01-28 17:53:13.89	281.94	6.48	-40.1	-41.3	20.8	0.00e+00	0	32	0	1181745152	52	6652
2026-01-28 17:53:14.90	281.84	6.42	-40.1	-41.3	20.7	0.00e+00	4	32	0	1183842304	52	6663
2026-01-28 17:53:15.91	281.75	6.36	-40.1	-41.4	20.6	0.00e+00	92	32	0	1185939456	52	6699
2026-01-28 17:53:16.91	281.65	6.30	-40.1	-41.3	20.6	0.00e+00	0	32	0	1186988032	52	6687
2026-01-28 17:53:17.92	281.55	6.24	-40.2	-41.5	20.6	0.00e+00	92	32	0	1189085184	52	6793
2026-01-28 17:53:18.93	281.45	6.18	-40.4	-41.7	20.3	0.00e+00	33	32	0	1191182336	52	7007
2026-01-28 17:53:19.94	281.35	6.12	-40.6	-41.9	20.0	0.00e+00	48	32	0	1193279488	52	7162
2026-01-28 17:53:20.95	281.26	6.06	-40.8	-42.2	20.0	0.00e+00	49	32	0	1195376640	54	6551
