passes_logs/2026/01/28/R4.6S_Anadyr/R4.6S_Anadyr__20260128_142126_NOAA_20_JPSS-1_rec.log

#Pass ID: 20260128_142126_NOAA 20 (JPSS-1)
#Satellite: NOAA 20 (JPSS-1)
#Configuration: NOAA 20
#almurnet v.1.7.20251203
#Start time: 2026-01-28 14:21:28

#Version: 2.2.20231116
#Station: R4.6S_Anadyr
#Location: 177.4865 lon 64.73178 lat
#TLE: 1 43013U 17073A   26027.80586608  .00000156  00000+0  94940-4 0  9998
#TLE: 2 43013  98.7647 328.6108 0000947  21.3465 338.7750 14.19541216424550

#Time	Az	El	Level	Level2	SNR	BER	BlckErr	Temp	State	Recorded	gain1	gain2
2026-01-28 14:21:28.54	19.86	0.15	-48.7	-63.6	3.5	1.51e+00	0	30	0	0	60	54975
2026-01-28 14:21:29.55	19.87	0.21	-48.7	-63.9	3.6	1.51e+00	0	31	104	0	60	56691
2026-01-28 14:21:30.56	19.89	0.27	-48.7	-63.9	3.6	1.51e+00	0	31	104	0	60	56785
2026-01-28 14:21:31.57	19.91	0.33	-48.7	-64.0	3.6	1.51e+00	0	31	104	0	60	57062
2026-01-28 14:21:32.58	19.92	0.39	-48.7	-63.9	3.6	1.51e+00	0	31	104	0	60	56838
2026-01-28 14:21:33.59	19.94	0.45	-48.7	-64.0	3.6	1.51e+00	0	31	104	0	60	56982
2026-01-28 14:21:34.60	19.95	0.51	-48.7	-64.0	3.6	1.51e+00	0	31	104	0	60	56986
2026-01-28 14:21:35.61	19.97	0.57	-48.7	-64.0	3.6	1.51e+00	0	31	104	0	60	57231
2026-01-28 14:21:36.62	19.98	0.63	-48.8	-64.0	3.6	1.51e+00	0	31	104	0	60	57510
2026-01-28 14:21:37.63	20.00	0.69	-48.8	-64.0	3.6	1.51e+00	0	31	104	0	60	57526
2026-01-28 14:21:38.64	20.02	0.75	-48.8	-64.0	3.6	1.51e+00	0	31	104	0	60	57592
2026-01-28 14:21:39.64	20.03	0.81	-48.8	-63.9	3.6	1.51e+00	0	31	104	0	60	56952
2026-01-28 14:21:40.65	20.05	0.87	-48.8	-64.0	3.6	1.51e+00	0	31	104	0	60	57264
2026-01-28 14:21:41.66	20.06	0.94	-48.7	-63.9	3.6	1.51e+00	0	32	104	0	60	56845
2026-01-28 14:21:42.67	20.08	1.00	-48.7	-63.9	3.6	1.51e+00	0	31	104	0	60	56612
2026-01-28 14:21:43.68	20.10	1.06	-48.7	-63.8	3.6	1.51e+00	0	32	104	0	60	56099
2026-01-28 14:21:44.69	20.11	1.12	-48.6	-63.8	3.6	1.51e+00	0	32	104	0	60	55708
2026-01-28 14:21:45.70	20.13	1.18	-48.5	-63.7	3.6	1.51e+00	0	32	104	0	60	55423
2026-01-28 14:21:46.71	20.15	1.24	-48.4	-63.5	3.6	1.51e+00	0	32	104	0	60	54367
2026-01-28 14:21:47.72	20.16	1.31	-48.2	-63.4	3.6	1.51e+00	0	32	104	0	60	53399
2026-01-28 14:21:48.73	20.18	1.37	-48.1	-63.4	3.6	1.51e+00	0	32	104	0	60	53252
2026-01-28 14:21:49.74	20.19	1.43	-48.1	-63.3	3.6	1.51e+00	0	32	104	0	60	52612
2026-01-28 14:21:50.75	20.21	1.49	-47.9	-63.0	3.6	1.51e+00	0	32	104	0	60	51179
2026-01-28 14:21:51.76	20.23	1.56	-47.7	-62.9	3.6	1.51e+00	0	32	104	0	60	50386
2026-01-28 14:21:52.77	20.24	1.62	-47.4	-62.4	3.6	1.51e+00	0	32	104	0	60	47857
2026-01-28 14:21:53.78	20.26	1.68	-47.4	-62.4	3.6	1.51e+00	0	32	104	0	60	47822
2026-01-28 14:21:54.79	20.28	1.75	-47.4	-62.4	3.6	1.51e+00	0	32	104	0	60	47722
2026-01-28 14:21:55.80	20.29	1.81	-47.4	-62.5	3.6	1.51e+00	0	32	104	0	60	48086
2026-01-28 14:21:56.81	20.31	1.87	-47.4	-62.5	3.6	1.51e+00	0	32	104	0	60	48377
2026-01-28 14:21:57.82	20.33	1.94	-47.4	-62.6	3.6	1.51e+00	0	32	104	0	60	48620
2026-01-28 14:21:58.83	20.35	2.00	-47.4	-62.6	3.6	1.51e+00	0	32	104	0	60	48557
2026-01-28 14:21:59.84	20.36	2.07	-47.4	-62.6	3.6	1.51e+00	0	32	104	0	60	48751
2026-01-28 14:22:00.85	20.38	2.13	-47.4	-62.6	3.6	1.51e+00	0	32	104	0	60	48709
2026-01-28 14:22:01.86	20.40	2.19	-47.4	-62.6	3.6	1.51e+00	0	32	104	0	60	48636
2026-01-28 14:22:02.87	20.41	2.26	-47.4	-62.5	3.6	1.51e+00	0	32	104	0	60	48337
2026-01-28 14:22:03.88	20.43	2.32	-47.4	-62.3	3.6	1.51e+00	0	32	104	0	60	47024
2026-01-28 14:22:04.89	20.45	2.39	-47.4	-61.9	3.6	1.51e+00	0	32	104	0	60	44760
2026-01-28 14:22:05.90	20.47	2.45	-47.3	-60.9	3.6	1.51e+00	0	32	104	0	60	40246
2026-01-28 14:22:06.91	20.48	2.52	-47.3	-60.5	3.7	1.51e+00	0	32	104	0	60	38224
2026-01-28 14:22:07.92	20.50	2.58	-47.3	-60.4	3.6	1.50e+00	0	32	104	0	60	37655
2026-01-28 14:22:08.93	20.52	2.65	-47.3	-60.5	3.7	1.50e+00	0	32	104	0	60	38373
2026-01-28 14:22:09.94	20.54	2.71	-47.3	-60.0	3.7	1.50e+00	0	32	104	0	60	36216
2026-01-28 14:22:10.95	20.55	2.78	-47.3	-60.9	3.6	1.50e+00	0	32	104	0	60	40222
2026-01-28 14:22:11.96	20.57	2.84	-47.3	-60.2	3.6	1.51e+00	0	32	104	0	60	37027
2026-01-28 14:22:12.97	20.59	2.91	-47.1	-57.3	4.8	1.50e+00	92	32	104	0	60	26641
2026-01-28 14:22:13.98	20.61	2.98	-46.8	-54.3	6.7	6.07e-01	0	32	0	0	60	18714
2026-01-28 14:22:14.98	20.62	3.04	-46.3	-52.3	8.6	2.66e-02	0	32	0	2097152	60	14941
2026-01-28 14:22:15.99	20.64	3.11	-45.1	-49.1	12.4	2.32e-03	0	32	0	4194304	60	10286
2026-01-28 14:22:17.00	20.66	3.18	-44.3	-47.5	14.0	1.49e-04	42	32	0	5242880	60	8578
2026-01-28 14:22:18.01	20.68	3.24	-43.3	-45.8	15.5	0.00e+00	91	32	0	7340032	60	7057
2026-01-28 14:22:19.02	20.70	3.31	-42.6	-44.8	16.4	0.00e+00	4	32	0	9437184	58	7023
2026-01-28 14:22:20.03	20.71	3.38	-41.5	-43.2	18.8	0.00e+00	92	32	0	11534336	58	5868
2026-01-28 14:22:21.04	20.73	3.44	-41.9	-43.8	17.9	0.00e+00	43	32	0	13631488	56	7033
2026-01-28 14:22:22.05	20.75	3.51	-41.7	-43.5	18.0	0.00e+00	40	32	0	14680064	56	6772
2026-01-28 14:22:23.06	20.77	3.58	-42.0	-43.8	17.8	0.00e+00	38	32	0	16777216	56	7064
2026-01-28 14:22:24.07	20.79	3.65	-41.9	-43.8	17.8	0.00e+00	38	32	0	18874368	56	7014
2026-01-28 14:22:25.08	20.80	3.71	-42.6	-44.8	16.9	0.00e+00	14	32	0	20971520	56	7882
2026-01-28 14:22:26.09	20.82	3.78	-43.0	-45.4	16.1	0.00e+00	2	32	0	23068672	58	7556
2026-01-28 14:22:27.10	20.84	3.85	-41.4	-43.0	18.7	0.00e+00	92	32	0	24117248	54	7213
2026-01-28 14:22:28.11	20.86	3.92	-44.0	-46.7	15.7	0.00e+00	0	32	0	26214400	60	7841
2026-01-28 14:22:29.12	20.88	3.99	-47.3	-61.6	3.6	4.23e-01	0	32	104	28311552	60	43411
2026-01-28 14:22:30.13	20.90	4.06	-43.4	-46.0	15.4	1.49e+00	0	32	104	28311552	60	7195
2026-01-28 14:22:31.14	20.92	4.12	-47.4	-58.7	4.0	3.69e-01	0	32	0	28311552	60	31156
2026-01-28 14:22:32.15	20.94	4.19	-42.1	-44.0	17.6	6.02e-05	0	32	0	30408704	58	6457
2026-01-28 14:22:33.16	20.95	4.26	-42.9	-45.1	16.6	0.00e+00	0	32	0	32505856	58	7264
2026-01-28 14:22:34.17	20.97	4.33	-42.1	-43.9	17.6	0.00e+00	92	32	0	33554432	58	6381
2026-01-28 14:22:35.18	20.99	4.40	-42.5	-44.5	17.2	0.00e+00	0	32	0	35651584	58	6800
2026-01-28 14:22:36.19	21.01	4.47	-41.8	-43.5	18.5	0.00e+00	92	32	0	37748736	56	6830
2026-01-28 14:22:37.20	21.03	4.54	-42.2	-44.2	17.5	0.00e+00	0	32	0	39845888	56	7338
2026-01-28 14:22:38.21	21.05	4.61	-42.1	-44.0	17.8	0.00e+00	38	32	0	41943040	56	7187
2026-01-28 14:22:39.21	21.07	4.68	-42.2	-44.1	17.7	0.00e+00	37	32	0	42991616	56	7290
2026-01-28 14:22:40.23	21.09	4.75	-41.7	-43.5	18.7	0.00e+00	44	32	0	45088768	56	6782
2026-01-28 14:22:41.23	21.11	4.82	-41.6	-43.3	18.3	0.00e+00	75	32	0	47185920	56	6664
2026-01-28 14:22:42.24	21.13	4.89	-41.9	-43.7	18.5	0.00e+00	2	32	0	49283072	56	6977
2026-01-28 14:22:43.25	21.15	4.96	-41.5	-43.2	18.4	0.00e+00	92	32	0	51380224	56	6560
2026-01-28 14:22:44.26	21.17	5.03	-41.7	-43.3	18.4	0.00e+00	0	32	0	53477376	56	6680
2026-01-28 14:22:45.27	21.19	5.11	-41.5	-43.1	18.8	0.00e+00	0	32	0	54525952	56	6510
2026-01-28 14:22:46.28	21.21	5.18	-41.0	-42.5	19.2	0.00e+00	36	32	0	56623104	56	6077
2026-01-28 14:22:47.29	21.23	5.25	-40.8	-42.3	19.5	0.00e+00	0	32	0	58720256	54	6652
2026-01-28 14:22:48.30	21.25	5.32	-40.5	-41.9	19.8	0.00e+00	35	32	0	60817408	54	6367
2026-01-28 14:22:49.30	21.27	5.39	-40.5	-41.9	20.0	0.00e+00	2	32	0	61865984	54	6336
2026-01-28 14:22:50.31	21.29	5.47	-40.3	-41.7	20.3	0.00e+00	92	32	0	63963136	54	6181
2026-01-28 14:22:51.32	21.31	5.54	-39.4	-40.5	21.2	0.00e+00	0	32	0	66060288	52	6087
2026-01-28 14:22:52.33	21.33	5.61	-39.8	-41.0	20.8	0.00e+00	28	32	0	68157440	52	6432
2026-01-28 14:22:53.34	21.35	5.68	-39.9	-41.2	20.7	0.00e+00	0	32	0	70254592	52	6564
2026-01-28 14:22:54.35	21.37	5.76	-39.7	-40.9	20.9	0.00e+00	0	32	0	72351744	52	6358
2026-01-28 14:22:55.36	21.39	5.83	-39.6	-40.8	21.1	0.00e+00	0	32	0	73400320	52	6282
2026-01-28 14:22:56.37	21.41	5.90	-39.4	-40.6	21.2	0.00e+00	43	32	0	75497472	52	6150
2026-01-28 14:22:57.38	21.43	5.98	-39.1	-40.3	21.5	0.00e+00	92	32	0	77594624	52	5916
2026-01-28 14:22:58.39	21.45	6.05	-39.2	-40.3	21.5	0.00e+00	2	32	0	79691776	52	5933
2026-01-28 14:22:59.40	21.47	6.13	-39.2	-40.3	21.6	0.00e+00	48	32	0	81788928	52	5926
2026-01-28 14:23:00.41	21.49	6.20	-39.3	-40.4	21.4	0.00e+00	39	32	0	82837504	52	6024
2026-01-28 14:23:01.42	21.51	6.27	-39.2	-40.4	21.5	0.00e+00	39	32	0	84934656	52	5967
2026-01-28 14:23:02.43	21.54	6.35	-39.2	-40.3	21.6	0.00e+00	35	32	0	87031808	52	5924
2026-01-28 14:23:03.44	21.56	6.42	-39.2	-40.3	21.6	0.00e+00	43	32	0	89128960	52	5931
2026-01-28 14:23:04.45	21.58	6.50	-39.3	-40.4	21.5	0.00e+00	92	32	0	91226112	52	5987
2026-01-28 14:23:05.46	21.60	6.57	-39.3	-40.4	21.6	0.00e+00	44	32	0	92274688	52	5987
2026-01-28 14:23:06.47	21.62	6.65	-39.1	-40.2	21.7	0.00e+00	90	32	0	94371840	52	5852
2026-01-28 14:23:07.48	21.64	6.73	-39.2	-40.3	21.7	0.00e+00	5	32	0	96468992	52	5929
2026-01-28 14:23:08.49	21.66	6.80	-39.2	-40.3	21.6	0.00e+00	6	32	0	98566144	52	5908
2026-01-28 14:23:09.50	21.69	6.88	-39.5	-40.6	21.3	0.00e+00	6	32	0	100663296	52	6170
2026-01-28 14:23:10.51	21.71	6.96	-39.1	-40.2	21.8	0.00e+00	0	32	0	101711872	52	5894
2026-01-28 14:23:11.52	21.73	7.03	-39.1	-40.2	21.6	0.00e+00	33	32	0	103809024	52	5874
2026-01-28 14:23:12.52	21.75	7.11	-38.9	-40.0	22.0	0.00e+00	0	32	0	105906176	52	5743
2026-01-28 14:23:13.53	21.77	7.19	-38.9	-40.0	21.9	0.00e+00	92	32	0	108003328	52	5715
2026-01-28 14:23:14.55	21.80	7.26	-38.9	-40.0	22.1	0.00e+00	7	32	0	110100480	52	5699
2026-01-28 14:23:15.56	21.82	7.34	-39.3	-40.4	21.6	0.00e+00	37	32	0	111149056	52	5977
2026-01-28 14:23:16.57	21.84	7.42	-39.0	-40.1	21.8	0.00e+00	44	32	0	113246208	52	5783
2026-01-28 14:23:17.58	21.86	7.50	-39.2	-40.3	21.7	0.00e+00	44	32	0	115343360	52	5944
2026-01-28 14:23:18.59	21.89	7.58	-39.3	-40.4	21.6	0.00e+00	0	32	0	117440512	52	5985
2026-01-28 14:23:19.60	21.91	7.66	-39.2	-40.3	21.6	0.00e+00	0	32	0	119537664	52	5950
2026-01-28 14:23:20.61	21.93	7.73	-38.7	-39.8	22.1	0.00e+00	92	32	0	121634816	50	6259
2026-01-28 14:23:21.62	21.95	7.81	-38.7	-39.7	22.3	0.00e+00	4	32	0	122683392	50	6222
2026-01-28 14:23:22.63	21.98	7.89	-38.5	-39.5	22.4	0.00e+00	92	32	0	124780544	50	6068
2026-01-28 14:23:23.64	22.00	7.97	-38.6	-39.6	22.4	0.00e+00	43	32	0	126877696	50	6147
2026-01-28 14:23:24.65	22.02	8.05	-38.6	-39.6	22.3	0.00e+00	44	32	0	128974848	50	6145
2026-01-28 14:23:25.66	22.05	8.13	-38.5	-39.5	22.4	0.00e+00	0	32	0	131072000	50	6050
2026-01-28 14:23:26.67	22.07	8.21	-38.4	-39.4	22.4	0.00e+00	6	32	0	132120576	50	5992
2026-01-28 14:23:27.68	22.09	8.29	-38.5	-39.5	22.4	0.00e+00	92	32	0	134217728	50	6040
2026-01-28 14:23:28.68	22.12	8.37	-38.4	-39.4	22.5	0.00e+00	43	32	0	136314880	50	5996
2026-01-28 14:23:29.69	22.14	8.45	-38.5	-39.6	22.4	0.00e+00	92	32	0	138412032	50	6113
2026-01-28 14:23:30.70	22.16	8.54	-38.4	-39.4	22.5	0.00e+00	45	32	0	140509184	50	6016
2026-01-28 14:23:31.71	22.19	8.62	-38.5	-39.5	22.4	0.00e+00	0	32	0	141557760	50	6092
2026-01-28 14:23:32.72	22.21	8.70	-38.7	-39.7	22.3	0.00e+00	0	32	0	143654912	50	6208
2026-01-28 14:23:33.73	22.24	8.78	-38.6	-39.6	22.5	0.00e+00	0	32	0	145752064	50	6171
2026-01-28 14:23:34.74	22.26	8.86	-38.6	-39.6	22.2	0.00e+00	15	32	0	147849216	50	6149
2026-01-28 14:23:35.75	22.28	8.95	-38.9	-39.9	22.1	0.00e+00	0	32	0	149946368	50	6368
2026-01-28 14:23:36.76	22.31	9.03	-38.2	-39.2	22.7	0.00e+00	92	32	0	150994944	50	5866
2026-01-28 14:23:37.76	22.33	9.11	-38.4	-39.4	22.5	0.00e+00	0	32	0	153092096	50	6015
2026-01-28 14:23:38.77	22.36	9.20	-38.3	-39.3	22.7	0.00e+00	70	32	0	155189248	50	5925
2026-01-28 14:23:39.78	22.38	9.28	-38.3	-39.3	22.7	0.00e+00	40	32	0	157286400	50	5944
2026-01-28 14:23:40.79	22.41	9.36	-38.2	-39.2	22.8	0.00e+00	0	32	0	159383552	50	5831
2026-01-28 14:23:41.80	22.43	9.45	-38.2	-39.2	22.8	0.00e+00	0	32	0	160432128	50	5833
2026-01-28 14:23:42.81	22.46	9.53	-38.3	-39.2	22.8	0.00e+00	37	32	0	162529280	50	5879
2026-01-28 14:23:43.82	22.48	9.62	-38.2	-39.2	22.8	0.00e+00	91	32	0	164626432	50	5844
2026-01-28 14:23:44.83	22.51	9.70	-38.1	-39.1	22.9	0.00e+00	46	32	0	166723584	50	5799
2026-01-28 14:23:45.84	22.53	9.79	-38.1	-39.1	22.9	0.00e+00	91	32	0	168820736	50	5762
2026-01-28 14:23:46.85	22.56	9.88	-37.9	-38.8	23.2	0.00e+00	36	32	0	169869312	50	5591
2026-01-28 14:23:47.86	22.59	9.96	-38.2	-39.1	22.9	0.00e+00	36	32	0	171966464	50	5809
2026-01-28 14:23:48.87	22.61	10.05	-38.3	-39.3	22.9	0.00e+00	34	32	0	174063616	50	5910
2026-01-28 14:23:49.88	22.64	10.14	-38.0	-38.9	23.0	0.00e+00	0	32	0	176160768	50	5667
2026-01-28 14:23:50.88	22.66	10.22	-38.1	-39.0	23.0	0.00e+00	92	32	0	178257920	50	5733
2026-01-28 14:23:51.89	22.69	10.31	-38.3	-39.2	22.9	0.00e+00	36	32	0	179306496	50	5885
2026-01-28 14:23:52.90	22.72	10.40	-37.9	-38.8	23.2	0.00e+00	92	32	0	181403648	50	5612
2026-01-28 14:23:53.91	22.74	10.48	-37.9	-38.8	23.2	0.00e+00	0	32	0	183500800	50	5583
2026-01-28 14:23:54.92	22.77	10.57	-38.0	-38.9	23.1	0.00e+00	0	32	0	185597952	50	5694
2026-01-28 14:23:55.93	22.80	10.66	-38.1	-39.0	23.0	0.00e+00	0	32	0	187695104	50	5750
2026-01-28 14:23:56.94	22.82	10.75	-38.2	-39.1	22.9	0.00e+00	0	32	0	188743680	50	5813
2026-01-28 14:23:57.95	22.85	10.84	-37.9	-38.9	23.2	0.00e+00	0	32	0	190840832	50	5652
2026-01-28 14:23:58.96	22.88	10.93	-37.9	-38.8	23.2	0.00e+00	44	32	0	192937984	50	5581
2026-01-28 14:23:59.97	22.91	11.02	-37.8	-38.8	23.3	0.00e+00	92	32	0	195035136	48	6261
2026-01-28 14:24:00.98	22.93	11.11	-37.6	-38.5	23.5	0.00e+00	0	32	0	197132288	48	6070
2026-01-28 14:24:01.99	22.96	11.20	-37.8	-38.7	23.4	0.00e+00	40	32	0	198180864	48	6232
2026-01-28 14:24:03.00	22.99	11.29	-37.8	-38.7	23.3	0.00e+00	4	32	0	200278016	48	6236
2026-01-28 14:24:04.01	23.02	11.38	-37.7	-38.7	23.5	0.00e+00	41	32	0	202375168	48	6185
2026-01-28 14:24:05.02	23.04	11.47	-37.6	-38.6	23.5	0.00e+00	61	32	0	204472320	48	6108
2026-01-28 14:24:06.03	23.07	11.57	-37.5	-38.4	23.6	0.00e+00	47	32	0	206569472	48	5991
2026-01-28 14:24:07.04	23.10	11.66	-37.6	-38.5	23.5	0.00e+00	91	32	0	208666624	48	6096
2026-01-28 14:24:08.05	23.13	11.75	-37.7	-38.6	23.5	0.00e+00	35	32	0	209715200	48	6116
2026-01-28 14:24:09.05	23.16	11.84	-37.5	-38.4	23.5	0.00e+00	91	32	0	211812352	48	6012
2026-01-28 14:24:10.06	23.19	11.94	-37.5	-38.4	23.6	0.00e+00	41	32	0	213909504	48	6001
2026-01-28 14:24:11.07	23.22	12.03	-37.5	-38.4	23.7	0.00e+00	0	32	0	216006656	48	6020
2026-01-28 14:24:12.08	23.24	12.12	-37.5	-38.4	23.6	0.00e+00	0	32	0	218103808	48	6027
2026-01-28 14:24:13.09	23.27	12.22	-37.6	-38.5	23.6	0.00e+00	0	32	0	219152384	48	6038
2026-01-28 14:24:14.10	23.30	12.31	-37.6	-38.4	23.6	0.00e+00	15	32	0	221249536	48	6032
2026-01-28 14:24:15.11	23.33	12.41	-37.8	-38.7	23.5	0.00e+00	0	32	0	223346688	48	6188
2026-01-28 14:24:16.11	23.36	12.50	-37.5	-38.4	23.7	0.00e+00	92	32	0	225443840	48	6000
2026-01-28 14:24:17.12	23.39	12.60	-37.5	-38.4	23.7	0.00e+00	2	32	0	227540992	48	6003
2026-01-28 14:24:18.13	23.42	12.69	-37.5	-38.4	23.7	0.00e+00	63	32	0	228589568	48	5979
2026-01-28 14:24:19.14	23.45	12.79	-37.8	-38.7	23.4	0.00e+00	0	32	0	230686720	48	6203
2026-01-28 14:24:20.15	23.48	12.89	-37.7	-38.6	23.5	0.00e+00	0	32	0	232783872	48	6130
2026-01-28 14:24:21.16	23.51	12.98	-37.6	-38.5	23.5	0.00e+00	0	32	0	234881024	48	6083
2026-01-28 14:24:22.17	23.55	13.08	-37.5	-38.4	23.6	0.00e+00	0	32	0	236978176	48	5991
2026-01-28 14:24:23.18	23.58	13.18	-37.6	-38.5	23.6	0.00e+00	92	32	0	238026752	48	6036
2026-01-28 14:24:24.19	23.61	13.28	-37.6	-38.5	23.5	0.00e+00	47	32	0	240123904	48	6088
2026-01-28 14:24:25.20	23.64	13.38	-37.7	-38.6	23.4	0.00e+00	91	32	0	242221056	48	6148
2026-01-28 14:24:26.21	23.67	13.48	-37.6	-38.5	23.6	0.00e+00	0	32	0	244318208	48	6098
2026-01-28 14:24:27.22	23.70	13.58	-37.7	-38.6	23.5	0.00e+00	0	32	0	246415360	48	6163
2026-01-28 14:24:28.22	23.73	13.68	-37.8	-38.7	23.4	0.00e+00	42	32	0	247463936	48	6187
2026-01-28 14:24:29.23	23.77	13.78	-37.8	-38.7	23.4	0.00e+00	33	32	0	249561088	48	6189
2026-01-28 14:24:30.24	23.80	13.88	-37.9	-38.8	23.4	0.00e+00	92	32	0	251658240	48	6267
2026-01-28 14:24:31.25	23.83	13.98	-37.9	-38.8	23.3	0.00e+00	46	32	0	253755392	48	6297
2026-01-28 14:24:32.26	23.86	14.08	-37.8	-38.7	23.4	0.00e+00	92	32	0	255852544	48	6214
2026-01-28 14:24:33.27	23.90	14.18	-37.7	-38.6	23.5	0.00e+00	0	32	0	256901120	48	6159
2026-01-28 14:24:34.28	23.93	14.28	-37.9	-38.8	23.4	0.00e+00	0	32	0	258998272	48	6266
2026-01-28 14:24:35.29	23.96	14.39	-37.9	-38.8	23.4	0.00e+00	0	32	0	261095424	48	6301
2026-01-28 14:24:36.30	24.00	14.49	-37.9	-38.9	23.3	0.00e+00	2	32	0	263192576	48	6335
2026-01-28 14:24:37.30	24.03	14.59	-37.8	-38.7	23.4	0.00e+00	90	32	0	265289728	48	6202
2026-01-28 14:24:38.31	24.06	14.70	-37.8	-38.7	23.4	0.00e+00	0	32	0	266338304	48	6193
2026-01-28 14:24:39.32	24.10	14.80	-37.7	-38.6	23.6	0.00e+00	91	32	0	268435456	48	6125
2026-01-28 14:24:40.33	24.13	14.91	-37.8	-38.7	23.4	0.00e+00	0	32	0	270532608	48	6243
2026-01-28 14:24:41.34	24.17	15.01	-38.0	-38.9	23.3	0.00e+00	92	32	0	272629760	48	6368
2026-01-28 14:24:42.35	24.20	15.12	-37.9	-38.8	23.4	0.00e+00	0	32	0	274726912	48	6301
2026-01-28 14:24:43.36	24.23	15.23	-37.9	-38.8	23.4	0.00e+00	0	32	0	276824064	48	6304
2026-01-28 14:24:44.37	24.27	15.33	-38.0	-38.9	23.4	0.00e+00	0	32	0	277872640	48	6345
2026-01-28 14:24:45.38	24.31	15.44	-38.0	-39.0	23.2	0.00e+00	0	32	0	279969792	48	6394
2026-01-28 14:24:46.39	24.34	15.55	-37.9	-38.8	23.3	0.00e+00	92	32	0	282066944	48	6280
2026-01-28 14:24:47.40	24.38	15.66	-37.9	-38.8	23.3	0.00e+00	0	32	0	284164096	48	6315
2026-01-28 14:24:48.41	24.41	15.77	-38.1	-39.0	23.2	0.00e+00	90	32	0	286261248	48	6424
2026-01-28 14:24:49.42	24.45	15.88	-37.9	-38.8	23.5	0.00e+00	40	32	0	287309824	48	6258
2026-01-28 14:24:50.43	24.49	15.99	-37.9	-38.8	23.5	0.00e+00	0	32	0	289406976	48	6276
2026-01-28 14:24:51.44	24.52	16.10	-38.0	-38.9	23.4	0.00e+00	0	32	0	291504128	48	6380
2026-01-28 14:24:52.44	24.56	16.21	-38.0	-38.9	23.3	0.00e+00	36	32	0	293601280	48	6359
2026-01-28 14:24:53.45	24.60	16.32	-38.2	-39.1	23.1	0.00e+00	92	32	0	294649856	48	6509
2026-01-28 14:24:54.46	24.63	16.43	-38.0	-38.9	23.3	0.00e+00	5	32	0	296747008	48	6377
2026-01-28 14:24:55.47	24.67	16.54	-38.0	-39.0	23.3	0.00e+00	91	32	0	298844160	48	6393
2026-01-28 14:24:56.48	24.71	16.65	-38.2	-39.1	23.2	0.00e+00	6	32	0	300941312	48	6496
2026-01-28 14:24:57.48	24.75	16.77	-38.1	-39.1	23.2	0.00e+00	48	32	0	303038464	48	6485
2026-01-28 14:24:58.49	24.78	16.88	-38.3	-39.2	23.1	0.00e+00	5	32	0	305135616	48	6611
2026-01-28 14:24:59.50	24.82	16.99	-38.0	-39.0	23.3	0.00e+00	5	32	0	306184192	48	6395
2026-01-28 14:25:00.51	24.86	17.11	-38.1	-39.0	23.2	0.00e+00	76	32	0	308281344	48	6464
2026-01-28 14:25:01.52	24.90	17.23	-38.1	-39.0	23.3	0.00e+00	6	32	0	310378496	48	6449
2026-01-28 14:25:02.53	24.94	17.34	-38.1	-39.1	23.2	0.00e+00	92	32	0	312475648	48	6490
2026-01-28 14:25:03.54	24.98	17.46	-38.2	-39.2	23.1	0.00e+00	5	32	0	314572800	48	6556
2026-01-28 14:25:04.55	25.02	17.57	-38.3	-39.2	23.1	0.00e+00	92	32	0	315621376	48	6602
2026-01-28 14:25:05.56	25.06	17.69	-38.3	-39.2	23.1	0.00e+00	6	32	0	317718528	48	6601
2026-01-28 14:25:06.57	25.10	17.81	-38.3	-39.2	23.1	0.00e+00	41	32	0	319815680	48	6604
2026-01-28 14:25:07.58	25.14	17.93	-38.1	-39.1	23.3	0.00e+00	0	32	0	321912832	48	6470
2026-01-28 14:25:08.59	25.18	18.05	-38.4	-39.3	23.1	0.00e+00	0	32	0	324009984	48	6657
2026-01-28 14:25:09.60	25.23	18.17	-38.3	-39.3	23.1	0.00e+00	92	32	0	325058560	48	6629
2026-01-28 14:25:10.61	25.27	18.29	-38.3	-39.2	23.1	0.00e+00	40	32	0	327155712	48	6593
2026-01-28 14:25:11.62	25.31	18.41	-38.4	-39.3	23.0	0.00e+00	92	32	0	329252864	48	6669
2026-01-28 14:25:12.63	25.35	18.53	-38.2	-39.2	23.2	0.00e+00	38	33	0	331350016	48	6563
2026-01-28 14:25:13.63	25.39	18.65	-38.3	-39.3	23.1	0.00e+00	0	32	0	333447168	48	6630
2026-01-28 14:25:14.64	25.44	18.78	-38.3	-39.3	23.1	0.00e+00	41	32	0	334495744	48	6627
2026-01-28 14:25:15.65	25.48	18.90	-38.3	-39.3	23.1	0.00e+00	46	32	0	336592896	48	6643
2026-01-28 14:25:16.66	25.52	19.02	-38.3	-39.2	23.1	0.00e+00	92	32	0	338690048	48	6577
2026-01-28 14:25:17.67	25.57	19.15	-38.2	-39.1	23.2	0.00e+00	5	32	0	340787200	48	6498
2026-01-28 14:25:18.67	25.61	19.27	-38.3	-39.2	23.2	0.00e+00	92	32	0	342884352	48	6580
2026-01-28 14:25:19.68	25.66	19.40	-38.3	-39.2	23.2	0.00e+00	7	32	0	343932928	48	6586
2026-01-28 14:25:20.69	25.70	19.52	-38.3	-39.3	23.0	0.00e+00	7	32	0	346030080	48	6647
2026-01-28 14:25:21.70	25.75	19.65	-38.3	-39.3	23.1	0.00e+00	0	32	0	348127232	48	6628
2026-01-28 14:25:22.71	25.79	19.78	-38.3	-39.3	23.1	0.00e+00	6	32	0	350224384	48	6617
2026-01-28 14:25:23.72	25.84	19.91	-38.4	-39.3	23.0	0.00e+00	22	32	0	352321536	48	6679
2026-01-28 14:25:24.73	25.88	20.04	-38.6	-39.5	23.0	0.00e+00	0	32	0	353370112	48	6840
2026-01-28 14:25:25.74	25.93	20.17	-38.3	-39.3	23.1	0.00e+00	92	32	0	355467264	48	6621
2026-01-28 14:25:26.75	25.98	20.30	-38.3	-39.3	23.1	0.00e+00	0	32	0	357564416	48	6639
2026-01-28 14:25:27.76	26.02	20.43	-38.3	-39.3	23.1	0.00e+00	49	32	0	359661568	48	6630
2026-01-28 14:25:28.77	26.07	20.56	-38.4	-39.3	23.0	0.00e+00	49	32	0	361758720	48	6673
2026-01-28 14:25:29.77	26.12	20.69	-38.4	-39.4	23.0	0.00e+00	0	32	0	362807296	48	6714
2026-01-28 14:25:30.78	26.17	20.82	-38.3	-39.3	23.0	0.00e+00	0	32	0	364904448	48	6656
2026-01-28 14:25:31.79	26.22	20.96	-38.5	-39.4	23.0	0.00e+00	48	32	0	367001600	48	6758
2026-01-28 14:25:32.81	26.27	21.09	-38.4	-39.3	23.0	0.00e+00	90	32	0	369098752	48	6692
2026-01-28 14:25:33.81	26.32	21.23	-38.4	-39.4	23.0	0.00e+00	49	32	0	371195904	48	6704
2026-01-28 14:25:34.82	26.37	21.36	-38.4	-39.4	23.0	0.00e+00	90	32	0	373293056	48	6698
2026-01-28 14:25:35.83	26.42	21.50	-38.4	-39.4	23.0	0.00e+00	34	32	0	374341632	48	6721
2026-01-28 14:25:36.84	26.47	21.64	-38.4	-39.4	22.9	0.00e+00	49	32	0	376438784	48	6733
2026-01-28 14:25:37.85	26.52	21.78	-38.4	-39.3	23.0	0.00e+00	36	32	0	378535936	48	6672
2026-01-28 14:25:38.86	26.57	21.92	-38.4	-39.4	23.1	0.00e+00	37	32	0	380633088	48	6717
2026-01-28 14:25:39.87	26.62	22.05	-38.2	-39.2	23.2	0.00e+00	92	32	0	382730240	48	6541
2026-01-28 14:25:40.88	26.67	22.20	-38.2	-39.2	23.2	0.00e+00	2	32	0	383778816	48	6549
2026-01-28 14:25:41.89	26.73	22.34	-38.2	-39.2	23.2	0.00e+00	91	32	0	385875968	48	6546
2026-01-28 14:25:42.90	26.78	22.48	-38.3	-39.2	23.2	0.00e+00	2	32	0	387973120	48	6589
2026-01-28 14:25:43.91	26.84	22.62	-38.1	-39.0	23.4	0.00e+00	19	32	0	390070272	48	6437
2026-01-28 14:25:44.92	26.89	22.76	-38.1	-39.0	23.4	0.00e+00	0	32	0	392167424	48	6420
2026-01-28 14:25:45.93	26.94	22.91	-38.2	-39.2	23.2	0.00e+00	0	32	0	393216000	48	6540
2026-01-28 14:25:46.94	27.00	23.05	-38.0	-38.9	23.5	0.00e+00	12	32	0	395313152	48	6386
2026-01-28 14:25:47.94	27.05	23.20	-38.2	-39.1	23.3	0.00e+00	0	32	0	397410304	48	6490
2026-01-28 14:25:48.95	27.11	23.34	-38.1	-39.1	23.3	0.00e+00	92	32	0	399507456	48	6478
2026-01-28 14:25:49.96	27.17	23.49	-38.1	-39.1	23.3	0.00e+00	0	32	0	401604608	48	6475
2026-01-28 14:25:50.97	27.22	23.64	-38.1	-39.0	23.4	0.00e+00	92	32	0	402653184	48	6447
2026-01-28 14:25:51.98	27.28	23.79	-38.1	-39.0	23.4	0.00e+00	0	32	0	404750336	48	6415
2026-01-28 14:25:52.99	27.34	23.94	-38.0	-38.9	23.5	0.00e+00	43	32	0	406847488	48	6325
2026-01-28 14:25:54.00	27.40	24.09	-38.0	-38.9	23.5	0.00e+00	0	32	0	408944640	48	6373
2026-01-28 14:25:55.01	27.46	24.24	-38.0	-38.9	23.5	0.00e+00	3	32	0	411041792	48	6327
2026-01-28 14:25:56.02	27.52	24.39	-38.2	-39.1	23.3	0.00e+00	92	32	0	412090368	48	6512
2026-01-28 14:25:57.03	27.58	24.55	-38.0	-38.9	23.5	0.00e+00	49	32	0	414187520	48	6353
2026-01-28 14:25:58.04	27.64	24.70	-38.2	-39.1	23.3	0.00e+00	92	32	0	416284672	48	6489
2026-01-28 14:25:59.05	27.70	24.86	-38.0	-38.9	23.5	0.00e+00	48	32	0	418381824	48	6367
2026-01-28 14:26:00.06	27.76	25.01	-38.0	-39.0	23.5	0.00e+00	0	32	0	420478976	48	6392
2026-01-28 14:26:01.07	27.83	25.17	-38.1	-39.0	23.4	0.00e+00	2	32	0	421527552	48	6428
2026-01-28 14:26:02.08	27.89	25.33	-38.3	-39.3	23.2	0.00e+00	2	32	0	423624704	48	6638
2026-01-28 14:26:03.09	27.95	25.49	-38.0	-38.9	23.5	0.00e+00	79	32	0	425721856	48	6324
2026-01-28 14:26:04.10	28.02	25.65	-38.1	-39.0	23.4	0.00e+00	0	32	0	427819008	48	6460
2026-01-28 14:26:05.11	28.08	25.81	-38.0	-38.9	23.6	0.00e+00	92	32	0	429916160	48	6347
2026-01-28 14:26:06.12	28.15	25.97	-38.2	-39.1	23.3	0.00e+00	0	32	0	430964736	48	6507
2026-01-28 14:26:07.12	28.21	26.13	-38.1	-39.0	23.4	0.00e+00	92	32	0	433061888	48	6463
2026-01-28 14:26:08.13	28.28	26.29	-38.0	-39.0	23.5	0.00e+00	0	32	0	435159040	48	6396
2026-01-28 14:26:09.14	28.35	26.46	-38.1	-39.0	23.4	0.00e+00	0	32	0	437256192	48	6412
2026-01-28 14:26:10.15	28.41	26.62	-38.2	-39.1	23.3	0.00e+00	0	32	0	439353344	48	6504
2026-01-28 14:26:11.16	28.48	26.79	-38.0	-38.9	23.4	0.00e+00	0	33	0	441450496	48	6323
2026-01-28 14:26:12.17	28.55	26.95	-37.9	-38.8	23.6	0.00e+00	92	33	0	442499072	48	6302
2026-01-28 14:26:13.18	28.62	27.12	-37.9	-38.8	23.6	0.00e+00	50	33	0	444596224	48	6271
2026-01-28 14:26:14.19	28.69	27.29	-37.9	-38.8	23.7	0.00e+00	90	33	0	446693376	48	6259
2026-01-28 14:26:15.20	28.77	27.46	-37.8	-38.7	23.6	0.00e+00	0	33	0	448790528	48	6231
2026-01-28 14:26:16.21	28.84	27.63	-37.8	-38.7	23.8	0.00e+00	51	32	0	450887680	48	6180
2026-01-28 14:26:17.22	28.91	27.81	-37.7	-38.6	23.8	0.00e+00	59	32	0	451936256	48	6104
2026-01-28 14:26:18.23	28.98	27.98	-37.8	-38.6	23.7	0.00e+00	2	32	0	454033408	48	6164
2026-01-28 14:26:19.24	29.06	28.15	-37.7	-38.5	23.8	0.00e+00	92	32	0	456130560	48	6088
2026-01-28 14:26:20.25	29.13	28.33	-37.8	-38.7	23.8	0.00e+00	31	32	0	458227712	48	6176
2026-01-28 14:26:21.26	29.21	28.51	-37.9	-38.8	23.6	0.00e+00	92	32	0	460324864	48	6254
2026-01-28 14:26:22.27	29.29	28.68	-37.9	-38.8	23.6	0.00e+00	28	32	0	461373440	48	6262
2026-01-28 14:26:23.27	29.36	28.86	-38.0	-38.9	23.5	0.00e+00	31	32	0	463470592	48	6380
2026-01-28 14:26:24.28	29.44	29.04	-38.1	-39.1	23.4	0.00e+00	31	32	0	465567744	48	6472
2026-01-28 14:26:25.29	29.52	29.22	-38.3	-39.3	23.2	0.00e+00	2	32	0	467664896	48	6620
2026-01-28 14:26:26.30	29.60	29.40	-38.6	-39.5	23.0	0.00e+00	11	32	0	469762048	48	6819
2026-01-28 14:26:27.31	29.68	29.59	-38.6	-39.6	23.0	0.00e+00	0	33	0	470810624	48	6852
2026-01-28 14:26:28.32	29.77	29.77	-38.8	-39.8	22.7	0.00e+00	90	33	0	472907776	50	6300
2026-01-28 14:26:29.33	29.85	29.96	-38.9	-39.9	22.7	0.00e+00	2	32	0	475004928	50	6380
2026-01-28 14:26:30.34	29.93	30.14	-39.1	-40.1	22.5	0.00e+00	29	32	0	477102080	50	6523
2026-01-28 14:26:31.35	30.02	30.33	-39.2	-40.3	22.3	0.00e+00	0	33	0	479199232	50	6618
2026-01-28 14:26:32.36	30.10	30.52	-39.2	-40.3	22.2	0.00e+00	49	32	0	480247808	50	6627
2026-01-28 14:26:33.37	30.19	30.71	-39.4	-40.5	22.0	0.00e+00	0	32	0	482344960	50	6819
2026-01-28 14:26:34.38	30.28	30.90	-39.6	-40.7	21.9	0.00e+00	2	32	0	484442112	50	6979
2026-01-28 14:26:35.39	30.36	31.09	-39.7	-40.8	21.9	0.00e+00	91	32	0	486539264	50	7008
2026-01-28 14:26:36.40	30.45	31.29	-39.9	-41.0	21.7	0.00e+00	48	32	0	488636416	52	6433
2026-01-28 14:26:37.41	30.54	31.48	-39.9	-41.1	21.6	0.00e+00	91	32	0	489684992	52	6478
2026-01-28 14:26:38.42	30.64	31.68	-40.1	-41.3	21.4	0.00e+00	32	32	0	491782144	52	6639
2026-01-28 14:26:39.43	30.73	31.88	-40.0	-41.1	21.6	0.00e+00	33	32	0	493879296	52	6539
2026-01-28 14:26:40.44	30.82	32.07	-40.0	-41.1	21.6	0.00e+00	36	32	0	495976448	52	6528
2026-01-28 14:26:41.45	30.92	32.27	-39.9	-41.0	21.7	0.00e+00	44	32	0	498073600	52	6436
2026-01-28 14:26:42.46	31.01	32.48	-40.0	-41.2	21.5	0.00e+00	52	32	0	499122176	52	6540
2026-01-28 14:26:43.47	31.11	32.68	-39.9	-41.0	21.7	0.00e+00	0	32	0	501219328	52	6437
2026-01-28 14:26:44.48	31.21	32.88	-39.7	-40.8	21.9	0.00e+00	92	32	0	503316480	52	6265
2026-01-28 14:26:45.49	31.31	33.09	-39.5	-40.6	22.1	0.00e+00	6	32	0	505413632	52	6109
2026-01-28 14:26:46.50	31.41	33.29	-39.7	-40.8	21.9	0.00e+00	31	32	0	507510784	52	6265
2026-01-28 14:26:47.50	31.51	33.50	-39.6	-40.6	22.0	0.00e+00	31	32	0	508559360	52	6160
2026-01-28 14:26:48.51	31.61	33.71	-39.5	-40.5	22.3	0.00e+00	5	32	0	510656512	52	6085
2026-01-28 14:26:49.52	31.72	33.92	-39.3	-40.3	22.4	0.00e+00	92	32	0	512753664	52	5925
2026-01-28 14:26:50.53	31.82	34.13	-39.3	-40.4	22.3	0.00e+00	0	32	0	514850816	52	5975
2026-01-28 14:26:51.54	31.93	34.34	-39.3	-40.3	22.3	0.00e+00	92	32	0	516947968	52	5938
2026-01-28 14:26:52.55	32.04	34.56	-39.3	-40.3	22.3	0.00e+00	6	33	0	517996544	52	5953
2026-01-28 14:26:53.56	32.15	34.77	-39.2	-40.2	22.4	0.00e+00	62	32	0	520093696	52	5853
2026-01-28 14:26:54.57	32.26	34.99	-39.5	-40.6	22.1	0.00e+00	0	32	0	522190848	52	6108
2026-01-28 14:26:55.58	32.37	35.21	-39.4	-40.5	22.1	0.00e+00	0	33	0	524288000	52	6035
2026-01-28 14:26:56.59	32.49	35.43	-39.5	-40.5	22.1	0.00e+00	0	32	0	526385152	52	6095
2026-01-28 14:26:57.60	32.60	35.65	-39.5	-40.6	22.0	0.00e+00	0	33	0	527433728	52	6146
2026-01-28 14:26:58.61	32.72	35.87	-39.8	-40.9	21.8	0.00e+00	91	32	0	529530880	52	6339
2026-01-28 14:26:59.62	32.84	36.10	-40.0	-41.1	21.7	0.00e+00	50	33	0	531628032	52	6481
2026-01-28 14:27:00.63	32.96	36.32	-40.0	-41.1	21.6	0.00e+00	92	33	0	533725184	52	6486
2026-01-28 14:27:01.64	33.08	36.55	-40.0	-41.1	21.6	0.00e+00	34	32	0	535822336	52	6482
2026-01-28 14:27:02.64	33.20	36.78	-40.3	-41.5	21.3	0.00e+00	51	32	0	537919488	52	6806
2026-01-28 14:27:03.65	33.33	37.01	-40.3	-41.5	21.2	0.00e+00	37	32	0	538968064	52	6817
2026-01-28 14:27:04.66	33.46	37.24	-40.5	-41.7	21.2	0.00e+00	36	32	0	541065216	52	6935
2026-01-28 14:27:05.67	33.58	37.47	-40.6	-41.8	21.0	0.00e+00	90	32	0	543162368	52	7026
2026-01-28 14:27:06.68	33.71	37.71	-40.7	-41.9	20.8	0.00e+00	5	32	0	545259520	54	6346
2026-01-28 14:27:07.69	33.85	37.94	-40.8	-42.1	20.7	0.00e+00	91	33	0	547356672	54	6468
2026-01-28 14:27:08.70	33.98	38.18	-41.0	-42.3	20.4	0.00e+00	35	32	0	548405248	54	6676
2026-01-28 14:27:09.70	34.12	38.42	-41.0	-42.2	20.4	0.00e+00	66	32	0	550502400	54	6604
2026-01-28 14:27:10.71	34.25	38.66	-41.4	-42.8	20.0	0.00e+00	6	32	0	552599552	54	7065
2026-01-28 14:27:11.72	34.39	38.90	-41.6	-43.0	19.8	0.00e+00	7	32	0	554696704	54	7183
2026-01-28 14:27:12.73	34.54	39.15	-41.8	-43.3	19.8	0.00e+00	31	33	0	556793856	56	6628
2026-01-28 14:27:13.74	34.68	39.39	-41.7	-43.1	19.8	0.00e+00	6	32	0	557842432	56	6481
2026-01-28 14:27:14.75	34.83	39.64	-41.7	-43.1	19.7	0.00e+00	90	33	0	559939584	56	6518
2026-01-28 14:27:15.75	34.97	39.88	-41.9	-43.3	19.6	0.00e+00	8	33	0	562036736	56	6663
2026-01-28 14:27:16.76	35.13	40.13	-41.9	-43.3	19.6	0.00e+00	62	32	0	564133888	56	6667
2026-01-28 14:27:17.77	35.28	40.39	-41.7	-43.2	19.7	0.00e+00	0	33	0	566231040	56	6552
2026-01-28 14:27:18.78	35.43	40.64	-41.7	-43.1	19.8	0.00e+00	0	32	0	567279616	56	6510
2026-01-28 14:27:19.79	35.59	40.89	-41.7	-43.1	19.9	0.00e+00	0	33	0	569376768	56	6472
2026-01-28 14:27:20.80	35.75	41.15	-41.6	-43.0	19.9	0.00e+00	52	33	0	571473920	56	6416
2026-01-28 14:27:21.81	35.91	41.41	-41.5	-42.9	19.9	0.00e+00	90	33	0	573571072	56	6334
2026-01-28 14:27:22.82	36.08	41.67	-41.5	-42.9	19.9	0.00e+00	30	32	0	575668224	56	6378
2026-01-28 14:27:23.83	36.25	41.93	-41.5	-42.9	19.9	0.00e+00	92	33	0	576716800	56	6377
2026-01-28 14:27:24.84	36.42	42.19	-41.5	-42.9	20.1	0.00e+00	31	33	0	578813952	56	6354
2026-01-28 14:27:25.85	36.59	42.46	-41.5	-42.9	19.9	0.00e+00	29	33	0	580911104	56	6365
2026-01-28 14:27:26.86	36.77	42.72	-40.7	-41.9	21.0	0.00e+00	30	33	0	583008256	56	5652
2026-01-28 14:27:27.87	36.95	42.99	-40.3	-41.4	21.4	0.00e+00	0	32	0	585105408	54	6009
2026-01-28 14:27:28.88	37.13	43.26	-40.0	-41.2	21.6	0.00e+00	92	32	0	586153984	54	5832
2026-01-28 14:27:29.89	37.31	43.53	-40.2	-41.3	21.5	0.00e+00	2	33	0	588251136	54	5960
2026-01-28 14:27:30.90	37.50	43.80	-40.2	-41.3	21.3	0.00e+00	92	32	0	590348288	54	5959
2026-01-28 14:27:31.90	37.69	44.07	-40.4	-41.6	21.1	0.00e+00	0	32	0	592445440	54	6137
2026-01-28 14:27:32.91	37.89	44.35	-40.7	-42.0	20.8	0.00e+00	0	32	0	594542592	54	6419
2026-01-28 14:27:33.92	38.08	44.62	-40.8	-42.0	20.7	0.00e+00	0	32	0	595591168	54	6428
2026-01-28 14:27:34.93	38.28	44.90	-40.7	-41.9	20.8	0.00e+00	0	33	0	597688320	54	6376
2026-01-28 14:27:35.94	38.49	45.18	-40.3	-41.4	21.3	0.00e+00	6	33	0	599785472	54	6000
2026-01-28 14:27:36.95	38.70	45.47	-40.1	-41.2	21.5	0.00e+00	0	32	0	601882624	54	5881
2026-01-28 14:27:37.96	38.91	45.75	-39.9	-41.0	21.7	0.00e+00	92	32	0	603979776	54	5713
2026-01-28 14:27:38.97	39.13	46.03	-40.0	-41.1	21.6	0.00e+00	4	33	0	606076928	54	5811
2026-01-28 14:27:39.98	39.34	46.32	-40.3	-41.5	21.3	0.00e+00	92	32	0	607125504	54	6055
2026-01-28 14:27:40.99	39.57	46.61	-40.4	-41.5	21.3	0.00e+00	52	32	0	609222656	54	6092
2026-01-28 14:27:42.00	39.80	46.90	-40.3	-41.5	21.3	0.00e+00	0	32	0	611319808	54	6080
2026-01-28 14:27:43.01	40.03	47.19	-40.4	-41.6	21.1	0.00e+00	0	33	0	613416960	54	6110
2026-01-28 14:27:44.02	40.26	47.48	-40.4	-41.6	21.2	0.00e+00	51	32	0	615514112	54	6157
2026-01-28 14:27:45.03	40.50	47.78	-40.4	-41.6	21.2	0.00e+00	91	32	0	616562688	54	6120
2026-01-28 14:27:46.04	40.75	48.07	-40.1	-41.2	21.6	0.00e+00	52	32	0	618659840	54	5846
2026-01-28 14:27:47.04	41.00	48.37	-40.1	-41.3	21.5	0.00e+00	92	32	0	620756992	54	5903
2026-01-28 14:27:48.05	41.25	48.67	-40.2	-41.4	21.4	0.00e+00	52	33	0	622854144	54	6003
2026-01-28 14:27:49.06	41.51	48.97	-40.0	-41.1	21.6	0.00e+00	0	33	0	624951296	54	5823
2026-01-28 14:27:50.07	41.78	49.27	-39.7	-40.8	22.0	0.00e+00	28	32	0	625999872	52	6257
2026-01-28 14:27:51.08	42.05	49.57	-39.0	-40.0	22.7	0.00e+00	0	33	0	628097024	52	5715
2026-01-28 14:27:52.09	42.32	49.88	-38.8	-39.7	22.8	0.00e+00	90	32	0	630194176	50	6227
2026-01-28 14:27:53.10	42.60	50.18	-38.4	-39.3	23.3	0.00e+00	30	33	0	632291328	50	5930
2026-01-28 14:27:54.11	42.89	50.49	-38.1	-39.1	23.5	0.00e+00	92	33	0	634388480	50	5772
2026-01-28 14:27:55.12	43.18	50.80	-38.1	-39.0	23.4	0.00e+00	0	33	0	635437056	50	5718
2026-01-28 14:27:56.13	43.48	51.11	-37.7	-38.6	23.9	0.00e+00	11	33	0	637534208	50	5461
2026-01-28 14:27:57.14	43.78	51.42	-37.3	-38.2	24.3	0.00e+00	0	33	0	639631360	48	5852
2026-01-28 14:27:58.15	44.09	51.73	-37.1	-37.9	24.4	0.00e+00	0	32	0	641728512	48	5693
2026-01-28 14:27:59.16	44.41	52.05	-36.3	-37.0	25.1	0.00e+00	1	33	0	643825664	46	5759
2026-01-28 14:28:00.17	44.73	52.36	-35.5	-36.2	25.8	0.00e+00	0	33	0	644874240	44	5860
2026-01-28 14:28:01.18	45.06	52.68	-35.0	-35.7	26.2	0.00e+00	92	32	0	646971392	44	5553
2026-01-28 14:28:02.19	45.40	52.99	-34.7	-35.4	26.3	0.00e+00	0	32	0	649068544	42	6004
2026-01-28 14:28:03.20	45.74	53.31	-34.6	-35.3	26.5	0.00e+00	0	32	0	651165696	42	5959
2026-01-28 14:28:04.20	46.09	53.63	-34.5	-35.2	26.6	0.00e+00	0	32	0	653262848	42	5865
2026-01-28 14:28:05.21	46.45	53.95	-34.6	-35.4	26.5	0.00e+00	47	32	0	654311424	42	5968
2026-01-28 14:28:06.22	46.82	54.27	-34.9	-35.7	26.2	0.00e+00	44	33	0	656408576	42	6185
2026-01-28 14:28:07.23	47.20	54.59	-35.1	-35.8	26.2	0.00e+00	47	33	0	658505728	42	6270
2026-01-28 14:28:08.24	47.58	54.91	-35.2	-35.9	26.1	0.00e+00	90	33	0	660602880	42	6378
2026-01-28 14:28:09.24	47.97	55.23	-35.5	-36.2	25.6	0.00e+00	46	32	0	662700032	42	6615
2026-01-28 14:28:10.25	48.38	55.56	-35.8	-36.6	25.5	0.00e+00	92	32	0	663748608	42	6897
2026-01-28 14:28:11.26	48.79	55.88	-36.1	-36.9	25.3	0.00e+00	0	32	0	665845760	44	6343
2026-01-28 14:28:12.27	49.21	56.20	-36.5	-37.3	24.9	0.00e+00	0	32	0	667942912	44	6621
2026-01-28 14:28:13.28	49.64	56.53	-36.7	-37.6	24.7	0.00e+00	29	33	0	670040064	44	6854
2026-01-28 14:28:14.29	50.08	56.85	-37.2	-38.0	24.3	0.00e+00	28	33	0	672137216	46	6443
2026-01-28 14:28:15.30	50.53	57.18	-37.6	-38.5	23.9	0.00e+00	22	32	0	673185792	46	6789
2026-01-28 14:28:16.31	51.00	57.51	-37.9	-38.8	23.0	0.00e+00	0	33	0	675282944	48	6288
2026-01-28 14:28:17.32	51.47	57.83	-38.1	-39.0	23.6	0.00e+00	91	33	0	677380096	48	6429
2026-01-28 14:28:18.33	51.96	58.16	-38.0	-38.8	23.7	0.00e+00	2	32	0	679477248	48	6315
2026-01-28 14:28:19.34	52.45	58.48	-37.6	-38.5	23.9	0.00e+00	0	32	0	681574400	48	6087
2026-01-28 14:28:20.35	52.96	58.81	-37.6	-38.5	24.0	0.00e+00	0	32	0	682622976	48	6053
2026-01-28 14:28:21.36	53.48	59.13	-37.1	-37.9	24.5	0.00e+00	0	33	0	684720128	48	5695
2026-01-28 14:28:22.37	54.02	59.46	-36.6	-37.4	24.9	0.00e+00	2	32	0	686817280	46	5967
2026-01-28 14:28:23.38	54.57	59.78	-36.5	-37.3	25.0	0.00e+00	0	33	0	688914432	46	5898
2026-01-28 14:28:24.39	55.13	60.11	-36.5	-37.3	25.0	0.00e+00	92	33	0	691011584	46	5917
2026-01-28 14:28:25.40	55.71	60.43	-36.4	-37.2	24.9	0.00e+00	52	33	0	692060160	46	5851
2026-01-28 14:28:26.41	56.30	60.75	-36.3	-37.0	25.2	0.00e+00	92	32	0	694157312	46	5752
2026-01-28 14:28:27.42	56.90	61.07	-36.2	-37.0	25.2	0.00e+00	0	32	0	696254464	46	5728
2026-01-28 14:28:28.43	57.53	61.39	-35.9	-36.7	25.3	0.00e+00	51	33	0	698351616	46	5540
2026-01-28 14:28:29.43	58.16	61.71	-36.0	-36.7	25.4	0.00e+00	41	33	0	700448768	46	5556
2026-01-28 14:28:30.44	58.81	62.02	-35.9	-36.7	25.3	0.00e+00	30	33	0	702545920	46	5532
2026-01-28 14:28:31.45	59.48	62.34	-35.8	-36.5	25.5	0.00e+00	92	33	0	703594496	46	5429
2026-01-28 14:28:32.46	60.17	62.65	-35.7	-36.5	25.5	0.00e+00	35	33	0	705691648	44	6064
2026-01-28 14:28:33.47	60.88	62.96	-36.3	-37.0	25.0	0.00e+00	92	32	0	707788800	44	6458
2026-01-28 14:28:34.48	61.60	63.27	-36.8	-37.6	24.2	0.00e+00	0	33	0	709885952	44	6859
2026-01-28 14:28:35.49	62.35	63.58	-37.2	-38.0	24.2	0.00e+00	0	32	0	711983104	46	6420
2026-01-28 14:28:36.50	63.11	63.88	-37.4	-38.3	24.2	0.00e+00	36	32	0	713031680	46	6635
2026-01-28 14:28:37.51	63.90	64.18	-37.5	-38.4	24.0	0.00e+00	0	32	0	715128832	46	6695
2026-01-28 14:28:38.52	64.70	64.48	-37.3	-38.1	24.1	0.00e+00	92	32	0	717225984	46	6538
2026-01-28 14:28:39.52	65.52	64.77	-37.1	-37.9	24.4	0.00e+00	0	33	0	719323136	46	6356
2026-01-28 14:28:40.53	66.36	65.06	-37.2	-38.0	24.4	0.00e+00	92	33	0	721420288	46	6451
2026-01-28 14:28:41.54	67.23	65.34	-37.4	-38.3	24.2	0.00e+00	0	33	0	722468864	46	6649
2026-01-28 14:28:42.55	68.12	65.62	-37.5	-38.3	24.0	0.00e+00	0	33	0	724566016	46	6681
2026-01-28 14:28:43.56	69.04	65.90	-37.5	-38.3	24.0	0.00e+00	52	32	0	726663168	46	6675
2026-01-28 14:28:44.57	69.97	66.17	-37.4	-38.3	24.2	0.00e+00	50	32	0	728760320	46	6641
2026-01-28 14:28:45.58	70.93	66.44	-36.9	-37.7	24.6	0.00e+00	6	33	0	730857472	46	6239
2026-01-28 14:28:46.59	71.92	66.71	-36.7	-37.5	24.8	0.00e+00	0	33	0	731906048	46	6080
2026-01-28 14:28:47.60	72.93	66.96	-37.2	-38.0	24.2	0.00e+00	92	32	0	734003200	46	6445
2026-01-28 14:28:48.61	73.96	67.21	-38.1	-39.1	23.5	0.00e+00	33	33	0	736100352	48	6484
2026-01-28 14:28:49.62	75.02	67.46	-38.7	-39.7	23.0	0.00e+00	54	32	0	738197504	48	6980
2026-01-28 14:28:50.63	76.10	67.70	-38.6	-39.6	22.9	0.00e+00	50	32	0	740294656	50	6140
2026-01-28 14:28:51.64	77.21	67.93	-38.8	-39.8	22.8	0.00e+00	50	32	0	741343232	50	6270
2026-01-28 14:28:52.65	78.34	68.15	-38.9	-39.9	22.7	0.00e+00	38	33	0	743440384	50	6351
2026-01-28 14:28:53.66	79.50	68.37	-38.6	-39.6	23.0	0.00e+00	7	32	0	745537536	50	6129
2026-01-28 14:28:54.67	80.68	68.58	-38.4	-39.4	23.1	0.00e+00	92	33	0	747634688	50	5984
2026-01-28 14:28:55.68	81.89	68.78	-38.6	-39.5	23.0	0.00e+00	35	33	0	749731840	50	6075
2026-01-28 14:28:56.69	83.12	68.98	-39.2	-40.2	22.5	0.00e+00	91	32	0	750780416	50	6576
2026-01-28 14:28:57.70	84.38	69.16	-39.6	-40.7	22.1	0.00e+00	0	32	0	752877568	50	6935
2026-01-28 14:28:58.71	85.66	69.34	-39.7	-40.8	21.9	0.00e+00	6	32	0	754974720	50	7072
2026-01-28 14:28:59.71	86.95	69.50	-39.5	-40.5	22.3	0.00e+00	5	33	0	757071872	52	6074
2026-01-28 14:29:00.72	88.27	69.66	-38.5	-39.4	23.1	0.00e+00	0	33	0	759169024	50	6015
2026-01-28 14:29:01.73	89.62	69.80	-39.0	-40.0	22.7	0.00e+00	90	32	0	760217600	50	6392
2026-01-28 14:29:02.74	90.99	69.94	-39.9	-41.0	21.9	0.00e+00	6	32	0	762314752	52	6461
2026-01-28 14:29:03.75	92.37	70.07	-39.8	-40.9	21.8	0.00e+00	92	32	0	764411904	52	6351
2026-01-28 14:29:04.76	93.77	70.18	-39.1	-40.1	22.5	0.00e+00	0	32	0	766509056	52	5782
2026-01-28 14:29:05.77	95.19	70.28	-38.8	-39.8	22.9	0.00e+00	47	33	0	768606208	50	6260
2026-01-28 14:29:06.78	96.63	70.38	-37.9	-38.8	23.5	0.00e+00	47	32	0	770703360	50	5609
2026-01-28 14:29:07.79	98.08	70.46	-37.6	-38.4	23.9	0.00e+00	0	32	0	771751936	48	6020
2026-01-28 14:29:08.80	99.54	70.53	-36.8	-37.7	24.6	0.00e+00	0	32	0	773849088	48	5512
2026-01-28 14:29:09.81	101.01	70.58	-36.9	-37.7	24.7	0.00e+00	48	32	0	775946240	48	5546
2026-01-28 14:29:10.82	102.49	70.63	-37.3	-38.2	24.1	0.00e+00	90	33	0	778043392	46	6555
2026-01-28 14:29:11.83	103.98	70.66	-37.6	-38.5	23.9	0.00e+00	51	32	0	780140544	46	6828
2026-01-28 14:29:12.83	105.45	70.68	-37.2	-38.1	24.3	0.00e+00	92	32	0	781189120	46	6490
2026-01-28 14:29:13.84	106.94	70.69	-36.5	-37.2	25.1	0.00e+00	51	33	0	783286272	46	5884
2026-01-28 14:29:14.85	108.44	70.69	-36.8	-37.6	24.7	0.00e+00	52	33	0	785383424	46	6170
2026-01-28 14:29:15.86	109.93	70.67	-37.6	-38.5	23.9	0.00e+00	29	33	0	787480576	48	6061
2026-01-28 14:29:16.87	111.42	70.65	-37.6	-38.5	23.8	0.00e+00	27	32	0	789577728	48	6038
2026-01-28 14:29:17.88	112.90	70.61	-37.6	-38.4	23.8	0.00e+00	92	33	0	790626304	48	6027
2026-01-28 14:29:18.89	114.38	70.56	-37.5	-38.3	24.0	0.00e+00	30	33	0	792723456	48	5955
2026-01-28 14:29:19.90	115.84	70.49	-38.0	-38.9	23.3	0.00e+00	92	33	0	794820608	48	6367
2026-01-28 14:29:20.91	117.30	70.42	-38.8	-39.8	22.8	0.00e+00	0	33	0	796917760	48	7012
2026-01-28 14:29:21.92	118.74	70.33	-37.8	-38.7	23.8	0.00e+00	0	32	0	799014912	50	5520
2026-01-28 14:29:22.93	120.17	70.23	-37.6	-38.5	23.9	0.00e+00	0	32	0	800063488	48	6057
2026-01-28 14:29:23.94	121.58	70.12	-38.9	-39.9	22.4	0.00e+00	0	33	0	802160640	48	7144
2026-01-28 14:29:24.95	122.98	70.00	-40.0	-41.2	21.6	0.00e+00	22	33	0	804257792	52	6566
2026-01-28 14:29:25.96	124.35	69.87	-39.7	-40.8	21.9	0.00e+00	0	32	0	806354944	52	6295
2026-01-28 14:29:26.97	125.71	69.73	-40.0	-41.2	21.6	0.00e+00	92	32	0	808452096	52	6569
2026-01-28 14:29:27.98	127.05	69.58	-40.2	-41.4	21.3	0.00e+00	52	33	0	809500672	52	6720
2026-01-28 14:29:28.99	128.36	69.42	-40.0	-41.1	21.7	0.00e+00	89	33	0	811597824	52	6476
2026-01-28 14:29:30.00	129.65	69.24	-39.6	-40.7	22.0	0.00e+00	51	33	0	813694976	52	6204
2026-01-28 14:29:31.00	130.91	69.07	-39.2	-40.2	22.5	0.00e+00	3	33	0	815792128	52	5855
2026-01-28 14:29:32.01	132.15	68.88	-39.1	-40.1	22.4	0.00e+00	28	33	0	817889280	52	5789
2026-01-28 14:29:33.02	133.37	68.68	-39.7	-40.7	21.9	0.00e+00	35	33	0	818937856	52	6234
2026-01-28 14:29:34.03	134.57	68.47	-39.4	-40.4	22.4	0.00e+00	92	33	0	821035008	52	6003
2026-01-28 14:29:35.04	135.74	68.26	-38.3	-39.3	23.3	0.00e+00	45	33	0	823132160	50	5908
2026-01-28 14:29:36.04	136.88	68.04	-38.2	-39.2	23.3	0.00e+00	92	33	0	825229312	50	5831
2026-01-28 14:29:37.05	138.00	67.81	-38.7	-39.6	22.9	0.00e+00	37	33	0	827326464	50	6154
2026-01-28 14:29:38.06	139.09	67.57	-39.0	-40.0	22.5	0.00e+00	0	33	0	828375040	50	6456
2026-01-28 14:29:39.06	140.16	67.33	-39.2	-40.2	22.4	0.00e+00	0	33	0	830472192	50	6583
2026-01-28 14:29:40.07	141.20	67.09	-39.0	-40.1	22.5	0.00e+00	2	33	0	832569344	50	6466
2026-01-28 14:29:41.08	142.22	66.83	-39.3	-40.4	22.3	0.00e+00	91	32	0	834666496	50	6712
2026-01-28 14:29:42.09	143.22	66.57	-39.7	-40.8	21.8	0.00e+00	0	33	0	836763648	50	7074
2026-01-28 14:29:43.10	144.19	66.30	-40.0	-41.1	21.5	0.00e+00	93	33	0	837812224	52	6525
2026-01-28 14:29:44.11	145.14	66.03	-39.8	-40.9	21.8	0.00e+00	0	33	0	839909376	52	6322
2026-01-28 14:29:45.12	146.07	65.76	-40.1	-41.3	21.3	0.00e+00	88	33	0	842006528	52	6646
2026-01-28 14:29:46.13	146.97	65.48	-40.3	-41.5	21.2	0.00e+00	0	33	0	844103680	52	6791
2026-01-28 14:29:47.14	147.85	65.19	-39.3	-40.4	22.4	0.00e+00	0	33	0	846200832	52	5990
2026-01-28 14:29:48.15	148.71	64.90	-38.1	-39.0	23.5	0.00e+00	0	33	0	847249408	50	5727
2026-01-28 14:29:49.16	149.55	64.61	-37.4	-38.2	24.1	0.00e+00	0	33	0	849346560	48	5884
2026-01-28 14:29:50.17	150.36	64.32	-37.4	-38.3	24.2	0.00e+00	92	33	0	851443712	48	5926
2026-01-28 14:29:51.18	151.16	64.02	-37.1	-37.9	24.3	0.00e+00	52	33	0	853540864	48	5695
2026-01-28 14:29:52.19	151.93	63.71	-36.2	-37.0	25.3	0.00e+00	92	33	0	855638016	46	5740
2026-01-28 14:29:53.20	152.69	63.41	-34.8	-35.5	26.4	0.00e+00	51	33	0	856686592	44	5392
2026-01-28 14:29:54.21	153.42	63.10	-34.3	-35.0	26.7	0.00e+00	0	33	0	858783744	42	5727
2026-01-28 14:29:55.22	154.14	62.79	-34.4	-35.0	26.7	0.00e+00	0	33	0	860880896	42	5760
2026-01-28 14:29:56.22	154.83	62.48	-34.8	-35.5	26.2	0.00e+00	29	33	0	862978048	42	6063
2026-01-28 14:29:57.23	155.51	62.17	-34.3	-35.0	26.7	0.00e+00	92	33	0	865075200	42	5709
2026-01-28 14:29:58.24	156.17	61.85	-33.5	-34.2	27.4	0.00e+00	53	33	0	867172352	40	5880
2026-01-28 14:29:59.25	156.82	61.53	-33.5	-34.1	27.3	0.00e+00	92	33	0	868220928	40	5813
2026-01-28 14:30:00.26	157.45	61.21	-33.4	-34.0	27.0	0.00e+00	28	33	0	870318080	40	5751
2026-01-28 14:30:01.27	158.06	60.89	-34.3	-35.0	26.7	0.00e+00	36	33	0	872415232	40	6460
2026-01-28 14:30:02.28	158.66	60.57	-35.6	-36.4	25.8	0.00e+00	0	33	0	874512384	42	6723
2026-01-28 14:30:03.29	159.25	60.25	-35.3	-36.0	26.1	0.00e+00	0	32	0	876609536	42	6438
2026-01-28 14:30:04.29	159.81	59.93	-34.6	-35.3	26.5	0.00e+00	90	32	0	877658112	42	5944
2026-01-28 14:30:05.30	160.37	59.60	-34.7	-35.4	26.5	0.00e+00	35	32	0	879755264	42	5971
2026-01-28 14:30:06.31	160.91	59.28	-36.4	-37.2	24.9	0.00e+00	92	32	0	881852416	44	6605
2026-01-28 14:30:07.32	161.44	58.95	-37.9	-38.9	23.7	0.00e+00	0	32	0	883949568	48	6321
2026-01-28 14:30:08.32	161.95	58.63	-37.2	-38.1	24.3	0.00e+00	0	32	0	886046720	48	5767
2026-01-28 14:30:09.33	162.45	58.30	-36.7	-37.5	24.8	0.00e+00	0	32	0	887095296	48	5432
2026-01-28 14:30:10.34	162.95	57.97	-36.6	-37.4	24.8	0.00e+00	0	33	0	889192448	46	6014
2026-01-28 14:30:11.35	163.43	57.65	-37.4	-38.2	24.1	0.00e+00	0	33	0	891289600	46	6592
2026-01-28 14:30:12.36	163.89	57.32	-38.2	-39.1	23.3	0.00e+00	0	32	0	893386752	48	6507
2026-01-28 14:30:13.37	164.35	56.99	-39.2	-40.3	22.4	0.00e+00	90	32	0	895483904	50	6655
2026-01-28 14:30:14.38	164.80	56.67	-37.4	-38.3	24.3	0.00e+00	49	32	0	896532480	50	5269
2026-01-28 14:30:15.38	165.23	56.34	-35.0	-35.7	26.2	0.00e+00	91	33	0	898629632	44	5562
2026-01-28 14:30:16.39	165.66	56.02	-34.7	-35.3	26.5	0.00e+00	0	33	0	900726784	42	5951
2026-01-28 14:30:17.40	166.08	55.69	-35.3	-36.1	25.9	0.00e+00	0	32	0	902823936	42	6472
2026-01-28 14:30:18.41	166.48	55.37	-37.2	-38.1	24.0	0.00e+00	0	32	0	904921088	46	6520
2026-01-28 14:30:19.42	166.88	55.04	-37.9	-38.9	23.8	0.00e+00	0	32	0	905969664	48	6345
2026-01-28 14:30:20.43	167.27	54.72	-36.0	-36.8	24.1	0.00e+00	92	32	0	908066816	46	5582
2026-01-28 14:30:21.43	167.65	54.40	-33.6	-34.3	27.3	0.00e+00	50	33	0	910163968	42	5280
2026-01-28 14:30:22.44	168.02	54.08	-33.1	-33.8	27.4	0.00e+00	92	32	0	912261120	40	5567
2026-01-28 14:30:23.45	168.38	53.76	-32.8	-33.5	27.9	0.00e+00	50	32	0	914358272	38	6056
2026-01-28 14:30:24.46	168.74	53.44	-33.6	-34.3	27.2	0.00e+00	5	32	0	915406848	38	6644
2026-01-28 14:30:25.47	169.09	53.12	-34.8	-35.5	26.3	0.00e+00	32	32	0	917504000	40	6830
2026-01-28 14:30:26.48	169.43	52.80	-35.1	-35.9	26.1	0.00e+00	0	32	0	919601152	42	6330
2026-01-28 14:30:27.48	169.76	52.48	-34.3	-35.0	26.7	0.00e+00	4	33	0	921698304	42	5738
2026-01-28 14:30:28.49	170.09	52.17	-34.0	-34.6	27.0	0.00e+00	5	32	0	923795456	42	5499
2026-01-28 14:30:29.50	170.41	51.85	-33.4	-34.0	27.5	0.00e+00	92	32	0	924844032	40	5729
2026-01-28 14:30:30.51	170.72	51.54	-34.1	-34.8	26.9	0.00e+00	7	33	0	926941184	40	6296
2026-01-28 14:30:31.52	171.03	51.23	-35.4	-36.1	25.8	0.00e+00	90	32	0	929038336	42	6518
2026-01-28 14:30:32.53	171.33	50.91	-36.7	-37.5	24.8	0.00e+00	0	32	0	931135488	44	6800
2026-01-28 14:30:33.54	171.63	50.60	-37.6	-38.5	23.8	0.00e+00	0	32	0	933232640	46	6824
2026-01-28 14:30:34.55	171.92	50.30	-38.1	-39.0	23.5	0.00e+00	0	32	0	934281216	48	6437
2026-01-28 14:30:35.56	172.20	49.99	-38.0	-38.9	23.6	0.00e+00	5	32	0	936378368	48	6343
2026-01-28 14:30:36.56	172.48	49.68	-37.6	-38.5	24.0	0.00e+00	92	32	0	938475520	48	6042
2026-01-28 14:30:37.57	172.75	49.38	-37.7	-38.5	24.0	0.00e+00	45	32	0	940572672	48	6098
2026-01-28 14:30:38.58	173.02	49.08	-38.5	-39.4	23.0	0.00e+00	92	33	0	942669824	48	6759
2026-01-28 14:30:39.59	173.28	48.77	-40.3	-41.5	21.1	0.00e+00	43	33	0	943718400	52	6836
2026-01-28 14:30:40.60	173.53	48.47	-42.0	-43.6	19.3	0.00e+00	21	32	0	945815552	56	6902
2026-01-28 14:30:41.61	173.79	48.17	-41.5	-42.9	20.0	0.00e+00	0	32	0	947912704	56	6378
2026-01-28 14:30:42.62	174.03	47.88	-40.4	-41.7	21.1	0.00e+00	44	32	0	950009856	54	6187
2026-01-28 14:30:43.63	174.28	47.58	-40.3	-41.5	21.2	0.00e+00	90	33	0	952107008	54	6075
2026-01-28 14:30:44.64	174.52	47.29	-39.1	-40.1	22.6	0.00e+00	35	32	0	953155584	52	5791
2026-01-28 14:30:45.65	174.75	46.99	-38.5	-39.5	23.2	0.00e+00	92	33	0	955252736	50	6036
2026-01-28 14:30:46.66	174.98	46.70	-38.3	-39.2	23.5	0.00e+00	8	33	0	957349888	50	5872
2026-01-28 14:30:47.67	175.21	46.41	-38.5	-39.5	23.1	0.00e+00	52	32	0	959447040	50	6059
2026-01-28 14:30:48.68	175.43	46.12	-39.4	-40.4	22.3	0.00e+00	5	32	0	961544192	50	6752
2026-01-28 14:30:49.69	175.64	45.84	-40.5	-41.7	21.0	0.00e+00	0	32	0	963641344	52	7003
2026-01-28 14:30:50.70	175.86	45.55	-41.0	-42.4	20.3	0.00e+00	92	32	0	964689920	54	6733
2026-01-28 14:30:51.71	176.07	45.27	-40.1	-41.4	21.2	0.00e+00	7	32	0	966787072	54	6003
2026-01-28 14:30:52.71	176.27	44.99	-39.1	-40.1	22.6	0.00e+00	92	32	0	968884224	52	5804
2026-01-28 14:30:53.72	176.48	44.71	-38.4	-39.4	23.3	0.00e+00	0	33	0	970981376	50	5967
2026-01-28 14:30:54.73	176.68	44.43	-36.4	-37.2	25.2	0.00e+00	92	33	0	973078528	46	5852
2026-01-28 14:30:55.74	176.87	44.15	-35.6	-36.3	25.7	0.00e+00	8	32	0	974127104	44	5922
2026-01-28 14:30:56.75	177.06	43.87	-36.0	-36.7	25.4	0.00e+00	0	32	0	976224256	44	6223
2026-01-28 14:30:57.76	177.25	43.60	-37.0	-37.8	24.5	0.00e+00	0	33	0	978321408	46	6309
2026-01-28 14:30:58.77	177.44	43.33	-38.0	-39.0	23.6	0.00e+00	0	32	0	980418560	48	6394
2026-01-28 14:30:59.78	177.62	43.06	-38.2	-39.2	23.4	0.00e+00	92	32	0	982515712	48	6556
2026-01-28 14:31:00.79	177.80	42.79	-38.3	-39.3	23.3	0.00e+00	0	32	0	983564288	48	6669
2026-01-28 14:31:01.80	177.98	42.52	-37.3	-38.2	24.3	0.00e+00	92	32	0	985661440	48	5866
2026-01-28 14:31:02.81	178.16	42.25	-36.8	-37.6	24.7	0.00e+00	38	32	0	987758592	48	5483
2026-01-28 14:31:03.82	178.33	41.99	-36.7	-37.4	25.1	0.00e+00	38	32	0	989855744	46	6030
2026-01-28 14:31:04.83	178.50	41.73	-35.3	-36.0	26.0	0.00e+00	37	32	0	991952896	44	5755
2026-01-28 14:31:05.84	178.66	41.46	-35.1	-35.8	26.1	0.00e+00	43	32	0	993001472	44	5603
2026-01-28 14:31:06.85	178.83	41.21	-35.9	-36.7	25.4	0.00e+00	60	33	0	995098624	44	6197
2026-01-28 14:31:07.85	178.99	40.95	-37.1	-38.0	24.4	0.00e+00	36	32	0	997195776	46	6422
2026-01-28 14:31:08.86	179.15	40.69	-38.3	-39.3	23.2	0.00e+00	90	32	0	999292928	48	6621
2026-01-28 14:31:09.87	179.30	40.44	-39.4	-40.6	22.2	0.00e+00	0	32	0	1001390080	50	6858
2026-01-28 14:31:10.88	179.46	40.18	-39.2	-40.2	22.5	0.00e+00	91	32	0	1002438656	50	6612
2026-01-28 14:31:11.89	179.61	39.93	-38.6	-39.5	23.1	0.00e+00	0	32	0	1004535808	50	6099
2026-01-28 14:31:12.91	179.76	39.68	-38.5	-39.5	23.2	0.00e+00	0	33	0	1006632960	50	6036
2026-01-28 14:31:13.92	179.91	39.43	-37.0	-37.8	24.6	0.00e+00	74	32	0	1008730112	48	5592
2026-01-28 14:31:14.93	180.05	39.19	-36.3	-37.0	25.3	0.00e+00	0	32	0	1010827264	46	5756
2026-01-28 14:31:15.94	180.20	38.94	-36.3	-37.1	25.1	0.00e+00	92	32	0	1011875840	46	5772
2026-01-28 14:31:16.95	180.34	38.70	-36.7	-37.5	24.8	0.00e+00	0	32	0	1013972992	46	6068
2026-01-28 14:31:17.96	180.48	38.45	-37.0	-37.8	24.5	0.00e+00	92	32	0	1016070144	46	6280
2026-01-28 14:31:18.97	180.61	38.21	-37.6	-38.5	23.9	0.00e+00	0	32	0	1018167296	46	6811
2026-01-28 14:31:19.98	180.75	37.97	-38.1	-39.0	23.5	0.00e+00	48	32	0	1020264448	48	6450
2026-01-28 14:31:20.99	180.88	37.74	-38.4	-39.3	23.2	0.00e+00	0	33	0	1021313024	48	6689
2026-01-28 14:31:22.00	181.01	37.50	-38.7	-39.7	22.9	0.00e+00	0	33	0	1023410176	48	6928
2026-01-28 14:31:23.00	181.14	37.27	-38.8	-39.8	22.9	0.00e+00	92	32	0	1025507328	48	7031
2026-01-28 14:31:24.01	181.27	37.03	-38.4	-39.4	23.2	0.00e+00	35	33	0	1027604480	50	5999
2026-01-28 14:31:25.02	181.39	36.80	-38.4	-39.4	23.2	0.00e+00	90	32	0	1029701632	50	5980
2026-01-28 14:31:26.03	181.52	36.57	-37.5	-38.4	24.1	0.00e+00	50	33	0	1031798784	48	6013
2026-01-28 14:31:27.04	181.64	36.34	-37.2	-38.0	24.4	0.00e+00	48	32	0	1032847360	48	5742
2026-01-28 14:31:28.05	181.76	36.12	-37.1	-38.0	24.5	0.00e+00	49	33	0	1034944512	48	5698
2026-01-28 14:31:29.06	181.88	35.89	-37.0	-37.8	24.5	0.00e+00	33	32	0	1037041664	48	5624
2026-01-28 14:31:30.07	182.00	35.67	-37.2	-38.0	24.4	0.00e+00	92	33	0	1039138816	48	5733
2026-01-28 14:31:31.08	182.11	35.44	-37.4	-38.2	24.2	0.00e+00	0	33	0	1041235968	48	5846
2026-01-28 14:31:32.09	182.23	35.22	-37.7	-38.5	24.0	0.00e+00	92	33	0	1042284544	48	6075
2026-01-28 14:31:33.10	182.34	35.00	-38.0	-38.9	23.7	0.00e+00	39	32	0	1044381696	48	6339
2026-01-28 14:31:34.11	182.45	34.78	-38.1	-39.0	23.5	0.00e+00	6	33	0	1046478848	48	6408
2026-01-28 14:31:35.11	182.56	34.57	-38.3	-39.3	23.2	0.00e+00	0	33	0	1048576000	48	6618
2026-01-28 14:31:36.12	182.67	34.35	-38.6	-39.5	23.1	0.00e+00	0	33	0	1050673152	48	6804
2026-01-28 14:31:37.14	182.78	34.14	-38.6	-39.6	23.0	0.00e+00	0	33	0	1051721728	48	6871
2026-01-28 14:31:38.15	182.89	33.92	-39.2	-40.2	22.5	0.00e+00	0	33	0	1053818880	50	6566
2026-01-28 14:31:39.16	182.99	33.71	-39.1	-40.2	22.5	0.00e+00	92	32	0	1055916032	50	6548
2026-01-28 14:31:40.17	183.09	33.50	-39.3	-40.3	22.3	0.00e+00	0	33	0	1058013184	50	6662
2026-01-28 14:31:41.18	183.20	33.29	-39.3	-40.4	22.2	0.00e+00	90	32	0	1060110336	50	6710
2026-01-28 14:31:42.19	183.30	33.08	-39.1	-40.1	22.5	0.00e+00	0	33	0	1061158912	50	6526
2026-01-28 14:31:43.20	183.40	32.88	-39.0	-40.0	22.7	0.00e+00	0	32	0	1063256064	50	6448
2026-01-28 14:31:44.21	183.50	32.67	-39.0	-40.0	22.5	0.00e+00	27	32	0	1065353216	50	6463
2026-01-28 14:31:45.22	183.59	32.47	-39.0	-40.0	22.6	0.00e+00	33	33	0	1067450368	50	6398
2026-01-28 14:31:46.23	183.69	32.27	-39.0	-40.0	22.6	0.00e+00	92	32	0	1069547520	50	6431
2026-01-28 14:31:47.23	183.78	32.07	-39.2	-40.2	22.4	0.00e+00	0	32	0	1070596096	50	6578
2026-01-28 14:31:48.24	183.88	31.87	-39.2	-40.2	22.5	0.00e+00	92	32	0	1072693248	50	6583
2026-01-28 14:31:49.25	183.97	31.67	-39.1	-40.1	22.4	0.00e+00	48	33	0	1074790400	50	6529
2026-01-28 14:31:50.26	184.06	31.47	-39.3	-40.3	22.3	0.00e+00	33	32	0	1076887552	50	6629
2026-01-28 14:31:51.27	184.15	31.27	-39.3	-40.3	22.3	0.00e+00	33	33	0	1078984704	50	6689
2026-01-28 14:31:52.28	184.24	31.08	-39.3	-40.3	22.4	0.00e+00	0	33	0	1080033280	50	6676
2026-01-28 14:31:53.29	184.33	30.88	-39.3	-40.3	22.3	0.00e+00	90	33	0	1082130432	50	6670
2026-01-28 14:31:54.30	184.42	30.69	-39.6	-40.6	22.0	0.00e+00	0	33	0	1084227584	50	6900
2026-01-28 14:31:55.31	184.51	30.50	-39.8	-40.9	21.8	0.00e+00	92	32	0	1086324736	50	7143
2026-01-28 14:31:56.32	184.59	30.31	-39.7	-40.8	21.9	0.00e+00	0	33	0	1088421888	52	6305
2026-01-28 14:31:57.32	184.68	30.12	-39.8	-40.9	21.8	0.00e+00	92	33	0	1089470464	52	6381
2026-01-28 14:31:58.33	184.76	29.94	-39.9	-41.1	21.6	0.00e+00	0	33	0	1091567616	52	6483
2026-01-28 14:31:59.34	184.84	29.75	-39.8	-40.9	21.9	0.00e+00	0	33	0	1093664768	52	6330
2026-01-28 14:32:00.35	184.92	29.56	-39.5	-40.5	22.2	0.00e+00	0	33	0	1095761920	52	6086
2026-01-28 14:32:01.36	185.01	29.38	-39.2	-40.2	22.4	0.00e+00	0	33	0	1097859072	52	5888
2026-01-28 14:32:02.37	185.09	29.20	-38.9	-39.9	22.7	0.00e+00	92	33	0	1099956224	52	5672
2026-01-28 14:32:03.38	185.17	29.01	-38.5	-39.5	23.1	0.00e+00	0	33	0	1101004800	50	6063
2026-01-28 14:32:04.39	185.24	28.83	-38.0	-38.9	23.6	0.00e+00	92	33	0	1103101952	50	5678
2026-01-28 14:32:05.40	185.32	28.65	-37.8	-38.7	23.7	0.00e+00	0	33	0	1105199104	50	5520
2026-01-28 14:32:06.41	185.40	28.47	-37.6	-38.4	24.0	0.00e+00	41	33	0	1107296256	48	6033
2026-01-28 14:32:07.42	185.47	28.30	-37.4	-38.2	24.2	0.00e+00	40	33	0	1109393408	48	5884
2026-01-28 14:32:08.43	185.55	28.12	-37.3	-38.1	24.3	0.00e+00	41	33	0	1110441984	48	5785
2026-01-28 14:32:09.44	185.62	27.94	-37.0	-37.9	24.5	0.00e+00	92	33	0	1112539136	48	5636
2026-01-28 14:32:10.45	185.70	27.77	-37.0	-37.8	24.5	0.00e+00	0	33	0	1114636288	48	5583
2026-01-28 14:32:11.46	185.77	27.60	-36.9	-37.7	24.6	0.00e+00	92	33	0	1116733440	48	5537
2026-01-28 14:32:12.47	185.84	27.42	-36.9	-37.7	24.6	0.00e+00	5	33	0	1118830592	48	5508
2026-01-28 14:32:13.48	185.91	27.25	-36.9	-37.7	24.6	0.00e+00	35	33	0	1119879168	48	5512
2026-01-28 14:32:14.49	185.99	27.08	-37.1	-37.9	24.5	0.00e+00	5	33	0	1121976320	48	5647
2026-01-28 14:32:15.50	186.06	26.91	-37.1	-38.0	24.4	0.00e+00	35	33	0	1124073472	48	5698
2026-01-28 14:32:16.51	186.13	26.75	-37.2	-38.0	24.3	0.00e+00	92	33	0	1126170624	48	5744
2026-01-28 14:32:17.51	186.19	26.58	-37.3	-38.2	24.2	0.00e+00	0	32	0	1128267776	48	5842
2026-01-28 14:32:18.53	186.26	26.41	-37.2	-38.1	24.2	0.00e+00	92	32	0	1129316352	48	5805
2026-01-28 14:32:19.53	186.33	26.25	-37.2	-38.0	24.2	0.00e+00	0	33	0	1131413504	48	5736
2026-01-28 14:32:20.54	186.40	26.08	-37.2	-38.0	24.3	0.00e+00	92	33	0	1133510656	48	5740
2026-01-28 14:32:21.55	186.46	25.92	-37.2	-38.1	24.3	0.00e+00	0	33	0	1135607808	48	5781
2026-01-28 14:32:22.57	186.53	25.76	-37.1	-37.9	24.4	0.00e+00	44	33	0	1137704960	48	5679
2026-01-28 14:32:23.58	186.59	25.60	-37.0	-37.9	24.5	0.00e+00	49	33	0	1138753536	48	5632
2026-01-28 14:32:24.59	186.66	25.43	-36.9	-37.7	24.5	0.00e+00	47	32	0	1140850688	48	5527
2026-01-28 14:32:25.60	186.72	25.27	-36.8	-37.6	24.7	0.00e+00	92	33	0	1142947840	46	6155
2026-01-28 14:32:26.61	186.78	25.12	-36.8	-37.6	24.8	0.00e+00	39	33	0	1145044992	46	6145
2026-01-28 14:32:27.62	186.85	24.96	-36.5	-37.3	24.9	0.00e+00	72	33	0	1147142144	46	5947
2026-01-28 14:32:28.63	186.91	24.80	-36.5	-37.3	25.0	0.00e+00	46	33	0	1148190720	46	5912
2026-01-28 14:32:29.63	186.97	24.65	-36.3	-37.1	25.1	0.00e+00	39	33	0	1150287872	46	5823
2026-01-28 14:32:30.64	187.03	24.49	-36.3	-37.1	25.1	0.00e+00	22	33	0	1152385024	46	5824
2026-01-28 14:32:31.65	187.09	24.34	-36.3	-37.1	25.2	0.00e+00	38	33	0	1154482176	46	5779
2026-01-28 14:32:32.66	187.15	24.18	-36.3	-37.1	25.1	0.00e+00	92	32	0	1156579328	46	5770
2026-01-28 14:32:33.67	187.21	24.03	-36.2	-37.0	25.2	0.00e+00	0	33	0	1157627904	46	5705
2026-01-28 14:32:34.68	187.27	23.88	-36.1	-36.9	25.2	0.00e+00	92	32	0	1159725056	46	5684
2026-01-28 14:32:35.69	187.32	23.73	-36.2	-37.0	25.3	0.00e+00	46	33	0	1161822208	46	5704
2026-01-28 14:32:36.70	187.38	23.58	-36.1	-36.9	25.3	0.00e+00	7	33	0	1163919360	46	5648
2026-01-28 14:32:37.71	187.44	23.43	-36.1	-36.9	25.3	0.00e+00	0	33	0	1166016512	46	5657
2026-01-28 14:32:38.72	187.49	23.28	-36.0	-36.7	25.4	0.00e+00	7	33	0	1168113664	46	5555
2026-01-28 14:32:39.73	187.55	23.14	-36.0	-36.8	25.3	0.00e+00	92	33	0	1169162240	46	5582
2026-01-28 14:32:40.73	187.61	22.99	-36.1	-36.9	25.3	0.00e+00	0	32	0	1171259392	46	5640
2026-01-28 14:32:41.75	187.66	22.84	-36.1	-36.8	25.2	0.00e+00	92	32	0	1173356544	46	5629
2026-01-28 14:32:42.75	187.72	22.70	-36.0	-36.8	25.3	0.00e+00	0	33	0	1175453696	46	5571
2026-01-28 14:32:43.76	187.77	22.55	-36.1	-36.9	25.2	0.00e+00	44	32	0	1177550848	46	5679
2026-01-28 14:32:44.77	187.82	22.41	-35.9	-36.7	25.4	0.00e+00	45	33	0	1178599424	46	5534
2026-01-28 14:32:45.78	187.88	22.27	-35.9	-36.7	25.3	0.00e+00	47	32	0	1180696576	46	5546
2026-01-28 14:32:46.79	187.93	22.13	-36.0	-36.7	25.2	0.00e+00	45	32	0	1182793728	46	5549
2026-01-28 14:32:47.79	187.98	21.99	-36.1	-36.9	25.1	0.00e+00	0	32	0	1184890880	46	5663
2026-01-28 14:32:48.80	188.03	21.85	-36.1	-36.9	25.2	0.00e+00	91	33	0	1185939456	46	5680
2026-01-28 14:32:49.81	188.08	21.71	-36.2	-36.9	25.2	0.00e+00	38	32	0	1188036608	46	5695
2026-01-28 14:32:50.82	188.13	21.57	-36.2	-37.0	25.1	0.00e+00	92	33	0	1190133760	46	5724
2026-01-28 14:32:51.83	188.19	21.43	-36.4	-37.2	25.0	0.00e+00	38	33	0	1192230912	46	5862
2026-01-28 14:32:52.84	188.24	21.29	-36.2	-37.0	25.0	0.00e+00	35	33	0	1194328064	46	5711
2026-01-28 14:32:53.85	188.29	21.16	-36.3	-37.1	24.8	0.00e+00	41	33	0	1196425216	46	5800
2026-01-28 14:32:54.86	188.33	21.02	-36.5	-37.3	24.4	0.00e+00	0	33	0	1197473792	46	5907
2026-01-28 14:32:55.87	188.38	20.88	-36.4	-37.2	25.0	0.00e+00	92	33	0	1199570944	46	5887
2026-01-28 14:32:56.87	188.43	20.75	-36.6	-37.4	24.6	0.00e+00	0	33	0	1201668096	46	6003
2026-01-28 14:32:57.89	188.48	20.62	-36.3	-37.1	25.0	0.00e+00	90	33	0	1203765248	46	5808
2026-01-28 14:32:58.90	188.53	20.48	-36.2	-37.0	25.1	0.00e+00	2	33	0	1205862400	46	5703
2026-01-28 14:32:59.91	188.58	20.35	-36.2	-37.0	25.1	0.00e+00	0	33	0	1206910976	46	5706
2026-01-28 14:33:00.91	188.62	20.22	-36.3	-37.0	25.1	0.00e+00	0	32	0	1209008128	46	5755
2026-01-28 14:33:01.92	188.67	20.09	-36.2	-36.9	25.1	0.00e+00	0	33	0	1211105280	46	5688
2026-01-28 14:33:02.93	188.71	19.96	-36.3	-37.1	25.0	0.00e+00	92	33	0	1213202432	46	5776
