passes_logs/2026/01/28/R4.6S_Anadyr/R4.6S_Anadyr__20260128_043426_FENGYUN_3D_rec.log

#Pass ID: 20260128_043426_FENGYUN 3D
#Satellite: FENGYUN 3D
#Configuration: FENGYUN 3D
#almurnet v.1.7.20251203
#Start time: 2026-01-28 04:34:29

#Version: 2.2.20231116
#Station: R4.6S_Anadyr
#Location: 177.4865 lon 64.73178 lat
#TLE: 1 43010U 17072A   26027.61892183  .00000301  00000+0  16406-3 0  9993
#TLE: 2 43010  98.9961 359.6320 0002526  87.4560 272.6905 14.19701415425044

#Time	Az	El	Level	Level2	SNR	BER	BlckErr	Temp	State	Recorded	gain1	gain2
2026-01-28 04:34:29.75	216.26	0.15	-48.8	-59.6	3.3	8.40e-01	0	32	0	0	60	34346
2026-01-28 04:34:30.76	216.33	0.20	-48.9	-61.0	3.6	8.45e-01	0	32	104	0	60	40501
2026-01-28 04:34:31.77	216.41	0.25	-48.9	-61.1	3.6	8.47e-01	0	33	104	0	60	40895
2026-01-28 04:34:32.78	216.48	0.31	-48.9	-61.1	3.6	8.45e-01	0	33	104	0	60	40862
2026-01-28 04:34:33.79	216.55	0.36	-48.8	-61.1	3.6	8.45e-01	0	33	104	0	60	40828
2026-01-28 04:34:34.80	216.63	0.41	-49.0	-61.1	3.6	8.45e-01	0	33	104	0	60	41058
2026-01-28 04:34:35.81	216.70	0.46	-49.0	-61.1	3.6	8.46e-01	0	33	104	0	60	41179
2026-01-28 04:34:36.82	216.78	0.51	-49.0	-61.2	3.6	8.45e-01	0	33	104	0	60	41296
2026-01-28 04:34:37.82	216.85	0.56	-49.0	-61.2	3.6	8.45e-01	0	33	104	0	60	41402
2026-01-28 04:34:38.83	216.92	0.61	-49.0	-61.1	3.6	8.45e-01	0	33	104	0	60	41153
2026-01-28 04:34:39.84	217.00	0.66	-49.0	-61.2	3.6	8.45e-01	0	33	104	0	60	41584
2026-01-28 04:34:40.85	217.07	0.71	-49.0	-61.2	3.6	8.44e-01	0	33	104	0	60	41497
2026-01-28 04:34:41.86	217.15	0.76	-48.9	-61.2	3.6	8.45e-01	0	33	104	0	60	41288
2026-01-28 04:34:42.87	217.23	0.82	-48.9	-61.1	3.6	8.46e-01	0	33	104	0	60	40937
2026-01-28 04:34:43.88	217.30	0.87	-48.7	-61.0	3.6	8.46e-01	0	33	104	0	60	40637
2026-01-28 04:34:44.89	217.38	0.92	-48.5	-61.0	3.6	8.45e-01	0	33	104	0	60	40472
2026-01-28 04:34:45.90	217.46	0.97	-48.8	-61.0	3.6	8.45e-01	0	33	104	0	60	40400
2026-01-28 04:34:46.91	217.53	1.02	-48.7	-60.8	3.6	8.46e-01	0	33	104	0	60	39588
2026-01-28 04:34:47.92	217.61	1.07	-48.6	-60.8	3.6	8.45e-01	0	33	104	0	60	39640
2026-01-28 04:34:48.93	217.69	1.12	-48.6	-60.7	3.6	8.45e-01	0	33	104	0	60	39309
2026-01-28 04:34:49.95	217.77	1.18	-48.4	-60.5	3.6	8.45e-01	0	33	104	0	60	38219
2026-01-28 04:34:50.95	217.84	1.23	-48.0	-60.1	3.6	8.46e-01	0	33	104	0	60	36572
2026-01-28 04:34:51.96	217.92	1.28	-47.2	-59.1	3.6	8.45e-01	0	33	104	0	60	32645
2026-01-28 04:34:52.98	218.00	1.33	-47.1	-59.1	3.6	8.45e-01	0	33	104	0	60	32496
2026-01-28 04:34:53.99	218.08	1.38	-47.1	-59.1	3.6	8.45e-01	0	33	104	0	60	32612
2026-01-28 04:34:54.99	218.16	1.43	-47.1	-59.1	3.6	8.46e-01	0	33	104	0	60	32553
2026-01-28 04:34:56.01	218.24	1.49	-47.1	-59.1	3.6	8.44e-01	0	33	104	0	60	32555
2026-01-28 04:34:57.02	218.32	1.54	-47.1	-59.1	3.6	8.46e-01	0	33	104	0	60	32682
2026-01-28 04:34:58.02	218.39	1.59	-47.1	-59.1	3.6	8.45e-01	0	33	104	0	60	32519
2026-01-28 04:34:59.03	218.47	1.64	-47.1	-59.1	3.6	8.45e-01	0	33	104	0	60	32474
2026-01-28 04:35:00.05	218.56	1.69	-47.1	-59.1	3.6	8.46e-01	0	33	104	0	60	32477
2026-01-28 04:35:01.05	218.64	1.75	-47.1	-59.0	3.6	8.45e-01	0	33	104	0	60	32335
2026-01-28 04:35:02.06	218.72	1.80	-47.1	-59.0	3.6	8.45e-01	0	33	104	0	60	32162
2026-01-28 04:35:03.07	218.80	1.85	-47.1	-58.9	3.5	8.45e-01	0	33	104	0	60	31912
2026-01-28 04:35:04.08	218.88	1.90	-47.1	-58.8	3.6	8.45e-01	0	33	104	0	60	31522
2026-01-28 04:35:05.10	218.96	1.96	-47.1	-58.7	3.6	8.45e-01	0	33	104	0	60	31177
2026-01-28 04:35:06.10	219.04	2.01	-47.1	-58.7	3.5	8.45e-01	0	33	104	0	60	31294
2026-01-28 04:35:07.11	219.12	2.06	-47.1	-58.9	3.6	8.46e-01	0	33	104	0	60	31971
2026-01-28 04:35:08.12	219.21	2.11	-47.1	-59.0	3.6	8.45e-01	0	33	104	0	60	32172
2026-01-28 04:35:09.14	219.29	2.17	-47.1	-59.0	3.6	8.45e-01	0	33	104	0	60	32344
2026-01-28 04:35:10.14	219.37	2.22	-47.1	-59.0	3.6	8.44e-01	0	33	104	0	60	32161
2026-01-28 04:35:11.16	219.46	2.27	-47.1	-58.9	3.6	8.44e-01	0	33	104	0	60	31743
2026-01-28 04:35:12.17	219.54	2.32	-47.0	-58.0	3.6	8.45e-01	0	33	104	0	60	28765
2026-01-28 04:35:13.18	219.62	2.38	-46.9	-57.3	3.6	8.44e-01	0	33	104	0	60	26611
2026-01-28 04:35:14.19	219.71	2.43	-46.9	-56.8	3.7	8.45e-01	0	33	104	0	60	24914
2026-01-28 04:35:15.20	219.79	2.48	-46.8	-56.3	3.7	8.44e-01	0	33	104	0	60	23532
2026-01-28 04:35:16.21	219.88	2.53	-46.9	-56.9	3.7	8.44e-01	0	33	104	0	60	25418
2026-01-28 04:35:17.21	219.96	2.59	-46.8	-55.9	3.9	8.42e-01	0	33	104	0	60	22637
2026-01-28 04:35:18.22	220.05	2.64	-46.1	-51.3	5.9	7.26e-01	0	33	0	0	60	13256
2026-01-28 04:35:19.23	220.13	2.69	-44.9	-48.4	9.4	7.17e-02	0	33	0	6291456	60	9561
2026-01-28 04:35:20.24	220.22	2.75	-43.5	-46.1	11.8	1.38e-03	0	33	0	11534336	60	7258
2026-01-28 04:35:21.25	220.30	2.80	-42.2	-44.1	14.1	4.57e-05	0	33	0	16777216	58	6492
2026-01-28 04:35:22.26	220.39	2.85	-41.4	-43.1	15.0	0.00e+00	0	33	0	23068672	56	6502
2026-01-28 04:35:23.27	220.48	2.91	-41.2	-42.8	15.2	0.00e+00	0	33	0	28311552	56	6297
2026-01-28 04:35:24.28	220.56	2.96	-41.3	-43.0	15.2	0.00e+00	0	33	0	34603008	56	6418
2026-01-28 04:35:25.29	220.65	3.01	-42.6	-44.6	13.4	2.20e-06	0	33	0	39845888	56	7725
2026-01-28 04:35:26.30	220.74	3.07	-39.2	-40.3	18.3	2.53e-04	0	33	0	45088768	56	4717
2026-01-28 04:35:27.31	220.83	3.12	-46.4	-52.6	5.9	8.45e-01	0	33	104	48234496	60	15441
2026-01-28 04:35:28.32	220.92	3.17	-46.6	-54.9	4.4	8.33e-01	0	33	104	48234496	60	20077
2026-01-28 04:35:29.33	221.00	3.23	-37.4	-38.4	19.7	0.00e+00	0	33	0	51380224	48	5995
2026-01-28 04:35:30.33	221.09	3.28	-38.3	-39.3	19.5	0.00e+00	0	33	0	57671680	52	5310
2026-01-28 04:35:31.35	221.18	3.33	-42.4	-44.3	14.6	3.67e-04	0	33	0	62914560	58	6653
2026-01-28 04:35:32.36	221.27	3.39	-38.4	-39.5	18.9	0.00e+00	0	33	0	68157440	50	6047
2026-01-28 04:35:33.37	221.36	3.44	-38.0	-39.0	19.3	0.00e+00	0	33	0	74448896	50	5747
2026-01-28 04:35:34.38	221.45	3.50	-38.0	-39.0	19.1	0.00e+00	0	33	0	79691776	50	5754
2026-01-28 04:35:35.39	221.54	3.55	-37.9	-38.9	19.4	0.00e+00	0	33	0	85983232	50	5637
2026-01-28 04:35:36.39	221.63	3.60	-38.0	-39.0	19.0	0.00e+00	0	33	0	91226112	48	6464
2026-01-28 04:35:37.40	221.72	3.66	-38.2	-39.2	19.2	0.00e+00	0	33	0	96468992	48	6595
2026-01-28 04:35:38.41	221.81	3.71	-37.5	-38.5	19.9	0.00e+00	0	34	0	102760448	48	6046
2026-01-28 04:35:39.42	221.91	3.76	-37.4	-38.3	20.0	0.00e+00	0	34	0	108003328	48	5937
2026-01-28 04:35:40.43	222.00	3.82	-37.5	-38.4	19.8	0.00e+00	0	34	0	114294784	48	6031
2026-01-28 04:35:41.44	222.09	3.87	-37.8	-38.8	19.7	0.00e+00	0	33	0	119537664	48	6251
2026-01-28 04:35:42.45	222.18	3.93	-37.9	-38.9	19.6	0.00e+00	0	33	0	124780544	48	6349
2026-01-28 04:35:43.46	222.28	3.98	-37.6	-38.6	20.0	0.00e+00	0	34	0	131072000	48	6149
2026-01-28 04:35:44.47	222.37	4.04	-37.4	-38.4	20.1	0.00e+00	0	33	0	136314880	48	5996
2026-01-28 04:35:45.48	222.46	4.09	-37.8	-38.8	19.6	0.00e+00	0	33	0	142606336	48	6281
2026-01-28 04:35:46.49	222.56	4.14	-37.9	-38.9	19.6	0.00e+00	0	34	0	147849216	48	6365
2026-01-28 04:35:47.50	222.65	4.20	-37.7	-38.7	19.8	0.00e+00	0	34	0	154140672	48	6200
2026-01-28 04:35:48.51	222.75	4.25	-38.1	-39.1	19.3	0.00e+00	0	34	0	159383552	48	6471
2026-01-28 04:35:49.52	222.84	4.31	-37.7	-38.6	19.6	0.00e+00	0	34	0	164626432	48	6150
2026-01-28 04:35:50.53	222.94	4.36	-37.8	-38.8	19.4	0.00e+00	0	33	0	170917888	48	6280
2026-01-28 04:35:51.54	223.03	4.42	-38.2	-39.2	19.1	0.00e+00	0	33	0	176160768	48	6586
2026-01-28 04:35:52.55	223.13	4.47	-37.9	-38.9	19.3	0.00e+00	0	33	0	182452224	48	6332
2026-01-28 04:35:53.56	223.23	4.53	-37.4	-38.4	19.5	0.00e+00	0	34	0	187695104	48	6000
2026-01-28 04:35:54.57	223.32	4.58	-37.7	-38.7	19.1	0.00e+00	0	33	0	193986560	48	6203
2026-01-28 04:35:55.58	223.42	4.64	-37.4	-38.4	19.2	0.00e+00	0	34	0	199229440	48	6010
2026-01-28 04:35:56.59	223.52	4.69	-37.5	-38.5	19.4	0.00e+00	0	33	0	204472320	48	6057
2026-01-28 04:35:57.59	223.61	4.75	-37.4	-38.4	19.6	0.00e+00	0	34	0	210763776	48	5976
2026-01-28 04:35:58.60	223.71	4.80	-37.5	-38.5	19.5	0.00e+00	0	34	0	216006656	48	6055
2026-01-28 04:35:59.61	223.81	4.86	-37.3	-38.2	19.9	0.00e+00	0	34	0	221249536	48	5896
2026-01-28 04:36:00.62	223.91	4.91	-37.6	-38.5	19.8	0.00e+00	0	34	0	227540992	48	6091
2026-01-28 04:36:01.63	224.01	4.97	-37.3	-38.3	20.0	0.00e+00	0	33	0	232783872	48	5913
2026-01-28 04:36:02.64	224.11	5.02	-37.3	-38.2	20.2	0.00e+00	0	34	0	239075328	48	5884
2026-01-28 04:36:03.65	224.21	5.08	-37.6	-38.5	19.9	0.00e+00	0	34	0	244318208	48	6060
2026-01-28 04:36:04.66	224.31	5.13	-37.8	-38.8	19.6	0.00e+00	0	34	0	250609664	48	6263
2026-01-28 04:36:05.67	224.41	5.19	-37.9	-38.9	19.4	0.00e+00	0	34	0	255852544	48	6376
2026-01-28 04:36:06.68	224.51	5.24	-37.7	-38.7	19.5	0.00e+00	0	34	0	262144000	48	6176
2026-01-28 04:36:07.69	224.61	5.30	-37.7	-38.7	19.2	0.00e+00	0	33	0	267386880	48	6215
2026-01-28 04:36:08.70	224.71	5.35	-37.7	-38.7	19.1	0.00e+00	0	33	0	272629760	48	6186
2026-01-28 04:36:09.72	224.82	5.41	-37.8	-38.9	18.8	0.00e+00	0	34	0	278921216	48	6344
2026-01-28 04:36:10.72	224.92	5.46	-37.9	-38.9	18.8	0.00e+00	0	33	0	284164096	48	6372
2026-01-28 04:36:11.73	225.02	5.52	-37.8	-38.9	18.9	0.00e+00	0	34	0	290455552	48	6347
2026-01-28 04:36:12.74	225.12	5.57	-38.0	-39.0	18.8	0.00e+00	0	34	0	295698432	48	6431
2026-01-28 04:36:13.75	225.23	5.63	-38.0	-39.0	18.9	0.00e+00	0	34	0	300941312	48	6448
2026-01-28 04:36:14.76	225.33	5.69	-38.2	-39.2	18.8	0.00e+00	0	34	0	307232768	48	6597
2026-01-28 04:36:15.77	225.44	5.74	-38.1	-39.2	18.8	0.00e+00	0	34	0	312475648	48	6561
2026-01-28 04:36:16.78	225.54	5.80	-38.0	-39.1	19.0	0.00e+00	0	34	0	318767104	48	6474
2026-01-28 04:36:17.79	225.65	5.85	-38.0	-39.0	19.2	0.00e+00	0	34	0	324009984	48	6464
2026-01-28 04:36:18.81	225.75	5.91	-37.9	-38.9	19.4	0.00e+00	0	34	0	329252864	48	6362
2026-01-28 04:36:19.82	225.86	5.96	-38.2	-39.2	19.3	0.00e+00	0	34	0	335544320	48	6563
2026-01-28 04:36:20.83	225.97	6.02	-38.2	-39.2	19.4	0.00e+00	0	34	0	340787200	48	6570
2026-01-28 04:36:21.84	226.07	6.08	-38.2	-39.1	19.4	0.00e+00	0	34	0	347078656	48	6536
2026-01-28 04:36:22.84	226.18	6.13	-38.1	-39.1	19.2	0.00e+00	0	34	0	352321536	48	6520
2026-01-28 04:36:23.85	226.29	6.19	-38.3	-39.3	19.1	0.00e+00	0	34	0	358612992	48	6672
2026-01-28 04:36:24.86	226.39	6.24	-38.3	-39.4	18.9	0.00e+00	0	34	0	363855872	48	6702
2026-01-28 04:36:25.87	226.50	6.30	-38.6	-39.6	18.7	0.00e+00	0	34	0	369098752	48	6919
2026-01-28 04:36:26.88	226.61	6.36	-38.5	-39.6	18.8	0.00e+00	0	34	0	375390208	48	6862
2026-01-28 04:36:27.89	226.72	6.41	-38.6	-39.6	18.7	0.00e+00	0	34	0	380633088	48	6924
2026-01-28 04:36:28.90	226.83	6.47	-38.7	-39.8	18.4	0.00e+00	0	33	0	386924544	48	7044
2026-01-28 04:36:29.91	226.94	6.52	-38.6	-39.7	18.4	0.00e+00	0	34	0	392167424	48	6983
2026-01-28 04:36:30.93	227.05	6.58	-38.7	-39.8	18.4	0.00e+00	0	34	0	398458880	48	7028
2026-01-28 04:36:31.93	227.16	6.64	-38.8	-39.9	18.4	0.00e+00	0	34	0	403701760	50	6334
2026-01-28 04:36:32.94	227.27	6.69	-38.8	-39.9	18.6	0.00e+00	0	34	0	408944640	50	6328
2026-01-28 04:36:33.95	227.38	6.75	-38.8	-39.9	18.7	0.00e+00	0	34	0	415236096	50	6331
2026-01-28 04:36:34.96	227.50	6.81	-38.8	-39.9	18.9	0.00e+00	0	34	0	420478976	50	6356
2026-01-28 04:36:35.97	227.61	6.86	-38.7	-39.7	19.2	0.00e+00	0	34	0	426770432	50	6221
2026-01-28 04:36:36.98	227.72	6.92	-38.7	-39.7	19.2	0.00e+00	0	34	0	432013312	50	6236
2026-01-28 04:36:37.99	227.83	6.98	-38.8	-39.8	19.1	0.00e+00	0	34	0	437256192	50	6295
2026-01-28 04:36:39.00	227.95	7.03	-38.7	-39.7	19.3	0.00e+00	0	33	0	443547648	50	6190
2026-01-28 04:36:40.01	228.06	7.09	-38.8	-39.8	19.2	0.00e+00	0	34	0	448790528	50	6274
2026-01-28 04:36:41.03	228.18	7.15	-38.6	-39.6	19.3	0.00e+00	0	34	0	455081984	50	6126
2026-01-28 04:36:42.04	228.29	7.20	-38.7	-39.7	19.1	0.00e+00	0	34	0	460324864	50	6228
2026-01-28 04:36:43.05	228.41	7.26	-38.8	-39.8	19.2	0.00e+00	0	34	0	466616320	50	6306
2026-01-28 04:36:44.06	228.52	7.32	-38.7	-39.8	19.1	0.00e+00	0	34	0	471859200	50	6259
2026-01-28 04:36:45.06	228.64	7.37	-38.7	-39.8	19.1	0.00e+00	0	34	0	477102080	50	6267
2026-01-28 04:36:46.07	228.76	7.43	-38.8	-39.8	19.0	0.00e+00	0	34	0	483393536	50	6291
2026-01-28 04:36:47.08	228.87	7.49	-38.9	-39.9	18.7	0.00e+00	0	34	0	488636416	50	6388
2026-01-28 04:36:48.09	228.99	7.54	-38.9	-40.0	18.6	0.00e+00	0	34	0	494927872	50	6418
2026-01-28 04:36:49.10	229.11	7.60	-38.9	-40.0	18.8	0.00e+00	0	34	0	500170752	50	6427
2026-01-28 04:36:50.11	229.23	7.66	-38.9	-39.9	19.0	0.00e+00	0	34	0	505413632	50	6341
2026-01-28 04:36:51.12	229.35	7.71	-39.0	-40.0	19.2	0.00e+00	0	34	0	511705088	50	6418
2026-01-28 04:36:52.13	229.46	7.77	-39.1	-40.1	19.1	0.00e+00	0	34	0	516947968	50	6510
2026-01-28 04:36:53.14	229.58	7.83	-38.9	-40.0	19.1	0.00e+00	0	34	0	523239424	50	6410
2026-01-28 04:36:54.15	229.70	7.88	-39.0	-40.1	19.0	0.00e+00	0	34	0	528482304	50	6488
2026-01-28 04:36:55.16	229.83	7.94	-39.2	-40.3	18.9	0.00e+00	0	34	0	533725184	50	6669
2026-01-28 04:36:56.17	229.95	8.00	-39.1	-40.2	19.1	0.00e+00	0	34	0	540016640	50	6548
2026-01-28 04:36:57.42	230.10	8.07	-39.1	-40.1	19.1	0.00e+00	0	34	0	545259520	50	6499
2026-01-28 04:36:58.17	230.19	8.11	-39.1	-40.1	19.0	0.00e+00	0	34	0	549453824	50	6531
2026-01-28 04:36:59.47	230.35	8.18	-38.9	-40.0	19.1	0.00e+00	0	34	0	556793856	50	6399
2026-01-28 04:37:00.19	230.43	8.22	-39.0	-40.0	19.1	0.00e+00	0	34	0	560988160	50	6440
2026-01-28 04:37:01.49	230.59	8.30	-38.8	-39.8	19.3	0.00e+00	0	34	0	568328192	50	6311
2026-01-28 04:37:02.21	230.68	8.34	-38.7	-39.6	19.5	0.00e+00	0	34	0	572522496	50	6168
2026-01-28 04:37:03.50	230.84	8.41	-38.6	-39.6	19.5	0.00e+00	0	34	0	579862528	50	6128
2026-01-28 04:37:04.23	230.93	8.45	-38.7	-39.7	19.6	0.00e+00	0	34	0	584056832	50	6174
2026-01-28 04:37:05.53	231.09	8.53	-38.7	-39.7	19.6	0.00e+00	0	34	0	591396864	50	6181
2026-01-28 04:37:06.25	231.18	8.57	-38.8	-39.8	19.4	0.00e+00	0	34	0	595591168	50	6293
2026-01-28 04:37:07.54	231.34	8.64	-38.9	-39.9	19.3	0.00e+00	0	34	0	602931200	50	6364
2026-01-28 04:37:08.26	231.43	8.68	-38.8	-39.9	19.3	0.00e+00	0	34	0	607125504	50	6320
2026-01-28 04:37:09.56	231.60	8.75	-38.9	-39.9	19.2	0.00e+00	0	34	0	614465536	50	6375
2026-01-28 04:37:10.28	231.69	8.79	-38.8	-39.8	19.3	0.00e+00	0	34	0	617611264	50	6316
2026-01-28 04:37:11.58	231.85	8.87	-38.8	-39.9	19.3	0.00e+00	0	34	0	624951296	50	6323
2026-01-28 04:37:12.30	231.94	8.91	-39.0	-40.0	19.1	0.00e+00	0	34	0	629145600	50	6423
2026-01-28 04:37:13.60	232.11	8.98	-38.9	-40.0	19.2	0.00e+00	0	34	0	636485632	50	6407
2026-01-28 04:37:14.32	232.20	9.02	-38.9	-40.0	19.3	0.00e+00	0	34	0	640679936	50	6408
2026-01-28 04:37:15.62	232.37	9.10	-39.1	-40.2	19.1	0.00e+00	0	34	0	648019968	50	6563
2026-01-28 04:37:16.34	232.46	9.14	-39.1	-40.1	19.1	0.00e+00	0	34	0	652214272	50	6512
2026-01-28 04:37:17.64	232.63	9.21	-39.0	-40.1	19.3	0.00e+00	0	34	0	659554304	50	6471
2026-01-28 04:37:18.36	232.73	9.25	-38.9	-39.9	19.4	0.00e+00	0	34	0	663748608	50	6384
2026-01-28 04:37:19.66	232.90	9.33	-38.8	-39.9	19.4	0.00e+00	0	34	0	671088640	50	6324
2026-01-28 04:37:20.38	232.99	9.37	-38.8	-39.8	19.5	0.00e+00	0	34	0	675282944	50	6270
2026-01-28 04:37:21.68	233.16	9.44	-38.7	-39.7	19.6	0.00e+00	0	34	0	681574400	50	6213
2026-01-28 04:37:22.40	233.26	9.48	-38.7	-39.7	19.6	0.00e+00	0	34	0	685768704	50	6232
2026-01-28 04:37:23.70	233.43	9.55	-38.9	-39.8	19.5	0.00e+00	0	34	0	693108736	50	6301
2026-01-28 04:37:24.42	233.53	9.60	-38.7	-39.7	19.6	0.00e+00	0	34	0	697303040	50	6223
2026-01-28 04:37:25.72	233.70	9.67	-38.5	-39.5	19.7	0.00e+00	0	34	0	704643072	50	6084
2026-01-28 04:37:26.44	233.80	9.71	-38.6	-39.6	19.7	0.00e+00	0	34	0	708837376	50	6128
2026-01-28 04:37:27.74	233.97	9.78	-38.5	-39.5	19.8	0.00e+00	0	34	0	716177408	50	6056
2026-01-28 04:37:28.46	234.07	9.82	-38.4	-39.3	19.9	0.00e+00	0	34	0	720371712	50	5954
2026-01-28 04:37:29.76	234.25	9.90	-38.2	-39.2	20.1	0.00e+00	0	34	0	727711744	50	5867
2026-01-28 04:37:30.49	234.35	9.94	-38.3	-39.2	20.1	0.00e+00	0	34	0	731906048	50	5896
2026-01-28 04:37:31.78	234.52	10.01	-38.0	-39.0	20.3	0.00e+00	0	34	0	739246080	50	5714
2026-01-28 04:37:32.51	234.62	10.05	-38.0	-39.0	20.4	0.00e+00	0	34	0	743440384	50	5696
2026-01-28 04:37:33.80	234.80	10.13	-38.0	-38.9	20.4	0.00e+00	0	34	0	750780416	50	5643
2026-01-28 04:37:34.52	234.90	10.17	-37.9	-38.8	20.5	0.00e+00	0	34	0	753926144	50	5595
2026-01-28 04:37:35.82	235.08	10.24	-37.9	-38.8	20.5	0.00e+00	0	34	0	761266176	50	5596
2026-01-28 04:37:36.55	235.18	10.28	-37.9	-38.8	20.4	0.00e+00	0	34	0	765460480	50	5604
2026-01-28 04:37:37.85	235.37	10.35	-37.6	-38.5	20.8	0.00e+00	0	34	0	772800512	48	6084
2026-01-28 04:37:38.57	235.47	10.40	-37.5	-38.4	20.9	0.00e+00	0	34	0	776994816	48	5988
2026-01-28 04:37:39.87	235.65	10.47	-37.3	-38.2	21.1	0.00e+00	0	34	0	784334848	48	5832
2026-01-28 04:37:40.59	235.75	10.51	-37.1	-38.0	21.3	0.00e+00	0	34	0	788529152	48	5705
2026-01-28 04:37:41.89	235.94	10.58	-37.0	-37.8	21.4	0.00e+00	0	34	0	795869184	48	5616
2026-01-28 04:37:42.61	236.04	10.62	-37.0	-37.8	21.5	0.00e+00	0	34	0	800063488	48	5588
2026-01-28 04:37:43.92	236.23	10.70	-36.9	-37.7	21.5	0.00e+00	0	34	0	807403520	48	5553
2026-01-28 04:37:44.70	236.34	10.74	-36.8	-37.6	21.6	0.00e+00	0	34	0	811597824	48	5464
2026-01-28 04:37:45.87	236.51	10.81	-36.9	-37.7	21.6	0.00e+00	0	34	0	817889280	46	6230
2026-01-28 04:37:46.74	236.64	10.86	-36.6	-37.4	21.9	0.00e+00	0	34	0	823132160	46	5982
2026-01-28 04:37:47.89	236.80	10.92	-36.5	-37.3	22.0	0.00e+00	0	34	0	829423616	46	5915
2026-01-28 04:37:48.76	236.93	10.97	-36.5	-37.2	22.0	0.00e+00	0	34	0	834666496	46	5894
2026-01-28 04:37:49.91	237.10	11.03	-36.5	-37.3	21.9	0.00e+00	0	34	0	840957952	46	5964
2026-01-28 04:37:50.78	237.23	11.08	-36.4	-37.2	22.0	0.00e+00	0	34	0	846200832	46	5863
2026-01-28 04:37:51.93	237.40	11.15	-36.4	-37.2	22.1	0.00e+00	0	34	0	852492288	46	5853
2026-01-28 04:37:52.80	237.53	11.20	-36.2	-37.0	22.2	0.00e+00	0	34	0	856686592	46	5718
2026-01-28 04:37:53.95	237.70	11.26	-36.2	-37.0	22.2	0.00e+00	0	34	0	864026624	46	5754
2026-01-28 04:37:54.82	237.83	11.31	-36.3	-37.1	22.2	0.00e+00	0	34	0	868220928	46	5768
2026-01-28 04:37:55.98	238.00	11.37	-36.1	-36.8	22.4	0.00e+00	0	34	0	875560960	46	5625
2026-01-28 04:37:56.84	238.13	11.42	-35.8	-36.6	22.6	0.00e+00	0	34	0	879755264	46	5476
2026-01-28 04:37:57.99	238.30	11.49	-35.7	-36.5	22.7	0.00e+00	0	34	0	886046720	44	6035
2026-01-28 04:37:58.86	238.44	11.53	-35.7	-36.5	22.7	0.00e+00	0	34	0	891289600	44	6059
2026-01-28 04:38:00.02	238.61	11.60	-35.6	-36.4	22.8	0.00e+00	0	34	0	897581056	44	5989
2026-01-28 04:38:00.88	238.74	11.65	-35.6	-36.4	22.8	0.00e+00	0	34	0	902823936	44	5970
2026-01-28 04:38:02.04	238.92	11.71	-35.5	-36.3	22.9	0.00e+00	0	34	0	909115392	44	5909
2026-01-28 04:38:02.90	239.05	11.76	-35.4	-36.2	22.9	0.00e+00	0	34	0	914358272	44	5842
2026-01-28 04:38:04.05	239.23	11.82	-35.3	-36.0	23.1	0.00e+00	0	34	0	920649728	44	5757
2026-01-28 04:38:04.92	239.37	11.87	-35.2	-35.9	23.2	0.00e+00	0	34	0	925892608	44	5691
2026-01-28 04:38:06.08	239.55	11.94	-35.1	-35.9	23.3	0.00e+00	0	34	0	932184064	44	5653
2026-01-28 04:38:06.94	239.68	11.98	-35.1	-35.9	23.3	0.00e+00	0	34	0	936378368	44	5655
2026-01-28 04:38:08.10	239.86	12.05	-34.9	-35.7	23.4	0.00e+00	0	34	0	942669824	44	5532
2026-01-28 04:38:08.96	240.00	12.09	-34.9	-35.6	23.5	0.00e+00	0	34	0	947912704	44	5502
2026-01-28 04:38:10.12	240.18	12.16	-34.8	-35.5	23.6	0.00e+00	0	34	0	954204160	44	5425
2026-01-28 04:38:10.99	240.32	12.21	-34.8	-35.6	23.7	0.00e+00	0	34	0	959447040	42	6108
2026-01-28 04:38:12.14	240.50	12.27	-34.7	-35.4	23.8	0.00e+00	0	34	0	965738496	42	5994
2026-01-28 04:38:13.01	240.64	12.32	-34.5	-35.2	24.0	0.00e+00	0	34	0	970981376	42	5863
2026-01-28 04:38:14.16	240.82	12.38	-34.2	-34.9	24.3	0.00e+00	0	34	0	977272832	42	5652
2026-01-28 04:38:15.02	240.96	12.43	-34.2	-34.9	24.3	0.00e+00	0	34	0	982515712	42	5676
2026-01-28 04:38:16.18	241.15	12.49	-34.1	-34.7	24.5	0.00e+00	0	34	0	988807168	42	5552
2026-01-28 04:38:17.04	241.29	12.54	-33.9	-34.6	24.6	0.00e+00	0	34	0	993001472	42	5494
2026-01-28 04:38:18.20	241.48	12.60	-33.6	-34.3	24.8	0.00e+00	0	34	0	1000341504	40	5937
2026-01-28 04:38:19.06	241.62	12.65	-33.5	-34.2	24.9	0.00e+00	0	34	0	1004535808	40	5874
2026-01-28 04:38:20.22	241.81	12.71	-33.7	-34.4	24.8	0.00e+00	0	34	0	1011875840	40	5987
2026-01-28 04:38:21.08	241.95	12.76	-33.5	-34.2	24.9	0.00e+00	0	34	0	1016070144	40	5845
2026-01-28 04:38:22.24	242.14	12.82	-33.5	-34.2	25.0	0.00e+00	0	34	0	1022361600	40	5836
2026-01-28 04:38:23.10	242.28	12.87	-33.4	-34.0	25.1	0.00e+00	0	34	0	1027604480	40	5760
2026-01-28 04:38:24.26	242.47	12.93	-33.4	-34.1	25.1	0.00e+00	0	34	0	1033895936	40	5768
2026-01-28 04:38:25.13	242.62	12.97	-33.3	-33.9	25.2	0.00e+00	0	34	0	1039138816	40	5691
2026-01-28 04:38:26.28	242.81	13.04	-33.2	-33.8	25.3	0.00e+00	0	34	0	1045430272	40	5618
2026-01-28 04:38:27.15	242.96	13.08	-33.1	-33.8	25.3	0.00e+00	0	34	0	1050673152	40	5590
2026-01-28 04:38:28.30	243.15	13.14	-33.3	-34.0	25.2	0.00e+00	0	34	0	1056964608	40	5722
2026-01-28 04:38:29.17	243.30	13.19	-33.1	-33.8	25.4	0.00e+00	0	34	0	1062207488	40	5580
2026-01-28 04:38:30.32	243.49	13.25	-33.1	-33.8	25.3	0.00e+00	0	34	0	1068498944	40	5621
2026-01-28 04:38:31.19	243.64	13.30	-33.0	-33.7	25.5	0.00e+00	0	34	0	1072693248	40	5523
2026-01-28 04:38:32.34	243.84	13.36	-33.0	-33.7	25.5	0.00e+00	0	34	0	1080033280	40	5509
2026-01-28 04:38:33.21	243.99	13.41	-32.8	-33.5	25.6	0.00e+00	0	34	0	1084227584	38	6061
2026-01-28 04:38:34.36	244.18	13.47	-32.7	-33.4	25.8	0.00e+00	0	34	0	1090519040	38	5990
2026-01-28 04:38:35.22	244.33	13.51	-32.6	-33.2	25.9	0.00e+00	0	34	0	1095761920	38	5868
2026-01-28 04:38:36.38	244.53	13.57	-32.6	-33.2	25.9	0.00e+00	0	34	0	1102053376	38	5859
2026-01-28 04:38:37.24	244.68	13.62	-32.6	-33.3	25.9	0.00e+00	0	34	0	1107296256	38	5911
2026-01-28 04:38:38.40	244.88	13.68	-32.6	-33.3	25.9	0.00e+00	0	34	0	1113587712	38	5897
2026-01-28 04:38:39.26	245.03	13.72	-32.8	-33.4	25.8	0.00e+00	0	34	0	1118830592	38	5998
2026-01-28 04:38:40.42	245.24	13.78	-32.5	-33.2	25.9	0.00e+00	0	34	0	1125122048	38	5836
2026-01-28 04:38:41.29	245.39	13.83	-32.6	-33.3	25.9	0.00e+00	0	34	0	1130364928	38	5904
2026-01-28 04:38:42.44	245.60	13.89	-32.8	-33.5	25.9	0.00e+00	0	34	0	1136656384	38	6035
2026-01-28 04:38:43.30	245.75	13.93	-32.6	-33.2	25.9	0.00e+00	0	34	0	1140850688	38	5870
2026-01-28 04:38:44.45	245.95	13.99	-32.8	-33.4	25.8	0.00e+00	0	34	0	1148190720	38	6013
2026-01-28 04:38:45.32	246.11	14.04	-32.5	-33.1	26.0	0.00e+00	0	34	0	1152385024	38	5825
2026-01-28 04:38:46.48	246.32	14.10	-32.8	-33.4	25.8	0.00e+00	0	34	0	1158676480	38	6009
2026-01-28 04:38:47.34	246.47	14.14	-32.6	-33.3	25.9	0.00e+00	0	34	0	1163919360	38	5941
2026-01-28 04:38:48.50	246.68	14.20	-32.3	-33.0	26.1	0.00e+00	0	34	0	1170210816	38	5700
2026-01-28 04:38:49.36	246.83	14.24	-32.4	-33.0	26.1	0.00e+00	0	34	0	1175453696	38	5735
2026-01-28 04:38:50.52	247.05	14.30	-32.4	-33.1	26.0	0.00e+00	0	34	0	1181745152	38	5763
2026-01-28 04:38:51.38	247.20	14.34	-32.4	-33.0	25.9	0.00e+00	0	34	0	1186988032	38	5757
2026-01-28 04:38:52.54	247.41	14.40	-32.3	-33.0	26.1	0.00e+00	0	34	0	1193279488	38	5716
2026-01-28 04:38:53.40	247.57	14.44	-32.3	-32.9	26.0	0.00e+00	0	34	0	1197473792	38	5683
2026-01-28 04:38:54.56	247.79	14.50	-32.3	-32.9	26.1	0.00e+00	0	34	0	1204813824	38	5672
2026-01-28 04:38:55.42	247.94	14.55	-32.4	-33.0	26.1	0.00e+00	0	34	0	1209008128	38	5714
2026-01-28 04:38:56.58	248.16	14.60	-32.1	-32.8	26.2	0.00e+00	0	34	0	1216348160	38	5574
2026-01-28 04:38:57.44	248.32	14.65	-32.3	-32.9	26.2	0.00e+00	0	34	0	1220542464	38	5685
2026-01-28 04:38:58.60	248.54	14.70	-32.3	-32.9	26.2	0.00e+00	0	34	0	1226833920	38	5685
2026-01-28 04:38:59.46	248.70	14.74	-32.3	-33.0	26.1	0.00e+00	0	34	0	1232076800	38	5699
2026-01-28 04:39:00.62	248.91	14.80	-32.3	-33.0	26.1	0.00e+00	0	34	0	1238368256	38	5722
2026-01-28 04:39:01.49	249.08	14.84	-32.4	-33.1	26.0	0.00e+00	0	34	0	1243611136	38	5772
2026-01-28 04:39:02.64	249.29	14.90	-32.4	-33.1	26.0	0.00e+00	0	34	0	1249902592	38	5772
2026-01-28 04:39:03.51	249.46	14.94	-32.4	-33.0	26.0	0.00e+00	0	34	0	1255145472	38	5748
2026-01-28 04:39:04.66	249.68	15.00	-32.3	-33.0	26.1	0.00e+00	0	34	0	1261436928	38	5735
2026-01-28 04:39:05.53	249.84	15.04	-32.4	-33.1	26.0	0.00e+00	0	34	0	1266679808	38	5773
2026-01-28 04:39:06.68	250.06	15.09	-32.3	-33.0	26.1	0.00e+00	0	34	0	1272971264	38	5748
2026-01-28 04:39:07.55	250.23	15.13	-32.4	-33.1	26.1	0.00e+00	0	34	0	1277165568	38	5769
2026-01-28 04:39:08.70	250.45	15.19	-32.2	-32.8	26.2	0.00e+00	0	34	0	1284505600	38	5613
2026-01-28 04:39:09.56	250.62	15.23	-32.2	-32.8	26.2	0.00e+00	0	34	0	1288699904	38	5603
2026-01-28 04:39:10.72	250.84	15.28	-32.2	-32.9	26.2	0.00e+00	0	34	0	1294991360	38	5643
2026-01-28 04:39:11.58	251.01	15.32	-32.1	-32.8	26.2	0.00e+00	0	34	0	1300234240	38	5590
2026-01-28 04:39:12.74	251.24	15.38	-32.0	-32.6	26.5	0.00e+00	0	34	0	1306525696	38	5474
2026-01-28 04:39:13.60	251.40	15.42	-32.0	-32.6	26.5	0.00e+00	0	34	0	1311768576	38	5481
2026-01-28 04:39:14.76	251.63	15.47	-32.0	-32.7	26.4	0.00e+00	0	34	0	1318060032	38	5525
2026-01-28 04:39:15.62	251.80	15.51	-32.1	-32.8	26.3	0.00e+00	0	34	0	1323302912	38	5590
2026-01-28 04:39:16.78	252.03	15.56	-32.1	-32.8	26.3	0.00e+00	0	34	0	1329594368	38	5611
2026-01-28 04:39:17.64	252.20	15.60	-32.3	-33.0	26.2	0.00e+00	0	34	0	1334837248	38	5702
2026-01-28 04:39:18.80	252.43	15.65	-32.1	-32.8	26.3	0.00e+00	0	34	0	1341128704	38	5590
2026-01-28 04:39:19.66	252.60	15.69	-32.1	-32.8	26.3	0.00e+00	0	34	0	1346371584	38	5588
2026-01-28 04:39:20.81	252.83	15.74	-32.0	-32.6	26.5	0.00e+00	0	34	0	1352663040	38	5476
2026-01-28 04:39:21.68	253.00	15.78	-32.0	-32.6	26.4	0.00e+00	0	34	0	1356857344	38	5474
2026-01-28 04:39:22.84	253.24	15.83	-32.0	-32.6	26.5	0.00e+00	0	34	0	1363148800	38	5498
2026-01-28 04:39:23.70	253.41	15.87	-32.0	-32.6	26.5	0.00e+00	0	34	0	1368391680	38	5459
2026-01-28 04:39:24.86	253.64	15.92	-31.9	-32.5	26.5	0.00e+00	0	34	0	1374683136	38	5433
2026-01-28 04:39:25.73	253.82	15.96	-32.0	-32.6	26.5	0.00e+00	0	34	0	1379926016	38	5490
2026-01-28 04:39:26.88	254.05	16.01	-31.9	-32.6	26.5	0.00e+00	0	34	0	1386217472	38	5472
2026-01-28 04:39:27.74	254.23	16.04	-32.1	-32.7	26.4	0.00e+00	0	34	0	1391460352	38	5558
2026-01-28 04:39:28.90	254.46	16.09	-32.1	-32.7	26.4	0.00e+00	0	34	0	1397751808	38	5546
2026-01-28 04:39:29.76	254.64	16.13	-32.0	-32.7	26.5	0.00e+00	0	34	0	1402994688	38	5527
2026-01-28 04:39:30.92	254.88	16.18	-32.1	-32.8	26.4	0.00e+00	0	34	0	1409286144	38	5607
2026-01-28 04:39:31.78	255.05	16.21	-32.0	-32.7	26.4	0.00e+00	0	34	0	1413480448	38	5524
2026-01-28 04:39:32.93	255.29	16.26	-32.1	-32.7	26.4	0.00e+00	0	34	0	1420820480	38	5561
2026-01-28 04:39:33.80	255.47	16.29	-32.1	-32.8	26.3	0.00e+00	0	34	0	1425014784	38	5604
2026-01-28 04:39:34.95	255.71	16.34	-32.1	-32.8	26.4	0.00e+00	0	34	0	1432354816	38	5570
2026-01-28 04:39:35.82	255.89	16.38	-32.0	-32.7	26.4	0.00e+00	0	34	0	1436549120	38	5533
2026-01-28 04:39:36.97	256.13	16.42	-31.9	-32.5	26.6	0.00e+00	0	34	0	1442840576	38	5434
2026-01-28 04:39:37.84	256.31	16.46	-31.7	-32.4	26.7	0.00e+00	0	34	0	1448083456	36	5976
2026-01-28 04:39:38.99	256.55	16.50	-31.7	-32.4	26.7	0.00e+00	0	34	0	1454374912	36	6011
2026-01-28 04:39:39.86	256.74	16.54	-31.9	-32.6	26.5	0.00e+00	0	34	0	1459617792	36	6119
2026-01-28 04:39:41.01	256.98	16.58	-32.1	-32.7	26.4	0.00e+00	0	34	0	1465909248	36	6221
2026-01-28 04:39:41.87	257.16	16.61	-32.1	-32.8	26.3	0.00e+00	0	34	0	1471152128	36	6254
2026-01-28 04:39:43.03	257.41	16.66	-32.0	-32.7	26.4	0.00e+00	0	34	0	1477443584	36	6193
2026-01-28 04:39:43.89	257.59	16.69	-32.0	-32.7	26.4	0.00e+00	0	34	0	1481637888	36	6177
2026-01-28 04:39:45.04	257.83	16.73	-31.9	-32.6	26.5	0.00e+00	0	34	0	1487929344	36	6108
2026-01-28 04:39:45.91	258.02	16.77	-31.8	-32.5	26.6	0.00e+00	0	34	0	1493172224	36	6067
2026-01-28 04:39:47.06	258.26	16.81	-31.9	-32.6	26.5	0.00e+00	0	34	0	1499463680	36	6146
2026-01-28 04:39:47.93	258.45	16.84	-31.8	-32.4	26.6	0.00e+00	0	34	0	1504706560	36	6012
2026-01-28 04:39:49.08	258.70	16.88	-31.9	-32.6	26.5	0.00e+00	0	34	0	1510998016	36	6111
2026-01-28 04:39:49.95	258.89	16.91	-31.8	-32.5	26.5	0.00e+00	0	34	0	1516240896	36	6087
2026-01-28 04:39:51.11	259.14	16.96	-31.8	-32.5	26.6	0.00e+00	0	34	0	1522532352	36	6043
2026-01-28 04:39:51.97	259.32	16.99	-31.9	-32.5	26.5	0.00e+00	0	34	0	1527775232	36	6091
2026-01-28 04:39:53.13	259.57	17.03	-31.7	-32.4	26.7	0.00e+00	0	34	0	1534066688	36	5986
2026-01-28 04:39:53.99	259.76	17.06	-31.9	-32.5	26.6	0.00e+00	0	34	0	1539309568	36	6070
2026-01-28 04:39:55.15	260.01	17.10	-31.7	-32.3	26.7	0.00e+00	0	34	0	1545601024	36	5931
2026-01-28 04:39:56.01	260.20	17.13	-31.7	-32.4	26.7	0.00e+00	0	34	0	1550843904	36	5977
2026-01-28 04:39:57.17	260.45	17.16	-31.6	-32.2	26.7	0.00e+00	0	34	0	1557135360	36	5876
2026-01-28 04:39:58.03	260.64	17.19	-31.7	-32.3	26.7	0.00e+00	0	34	0	1561329664	36	5962
2026-01-28 04:39:59.19	260.90	17.23	-31.8	-32.4	26.7	0.00e+00	0	34	0	1567621120	36	6031
2026-01-28 04:40:00.05	261.09	17.26	-31.6	-32.3	26.7	0.00e+00	0	34	0	1572864000	36	5912
2026-01-28 04:40:01.21	261.34	17.30	-31.6	-32.2	26.7	0.00e+00	0	34	0	1579155456	36	5882
2026-01-28 04:40:02.07	261.53	17.32	-31.5	-32.2	26.8	0.00e+00	0	34	0	1584398336	36	5846
2026-01-28 04:40:03.23	261.79	17.36	-31.5	-32.2	26.9	0.00e+00	0	34	0	1590689792	36	5858
2026-01-28 04:40:04.09	261.98	17.39	-31.7	-32.3	26.7	0.00e+00	0	34	0	1595932672	36	5960
2026-01-28 04:40:05.25	262.24	17.42	-31.7	-32.3	26.8	0.00e+00	0	34	0	1602224128	36	5949
2026-01-28 04:40:06.12	262.43	17.45	-31.6	-32.2	26.7	0.00e+00	0	34	0	1607467008	36	5882
2026-01-28 04:40:07.27	262.69	17.48	-31.6	-32.3	26.7	0.00e+00	0	34	0	1613758464	36	5922
2026-01-28 04:40:08.14	262.88	17.51	-31.7	-32.4	26.7	0.00e+00	0	34	0	1617952768	36	5970
2026-01-28 04:40:09.29	263.14	17.54	-31.8	-32.4	26.6	0.00e+00	0	34	0	1625292800	36	5999
2026-01-28 04:40:10.16	263.34	17.57	-31.8	-32.4	26.7	0.00e+00	0	34	0	1629487104	36	6014
2026-01-28 04:40:11.31	263.60	17.60	-31.7	-32.3	26.7	0.00e+00	0	34	0	1636827136	36	5938
2026-01-28 04:40:12.18	263.79	17.62	-31.6	-32.3	26.7	0.00e+00	0	34	0	1641021440	36	5914
2026-01-28 04:40:13.33	264.05	17.66	-31.6	-32.3	26.8	0.00e+00	0	34	0	1647312896	36	5922
2026-01-28 04:40:14.20	264.25	17.68	-31.6	-32.3	26.7	0.00e+00	0	34	0	1652555776	36	5897
2026-01-28 04:40:15.35	264.51	17.71	-31.6	-32.2	26.8	0.00e+00	0	34	0	1658847232	36	5863
2026-01-28 04:40:16.22	264.71	17.73	-31.9	-32.5	26.9	0.00e+00	0	34	0	1664090112	36	6086
2026-01-28 04:40:17.37	264.97	17.76	-31.6	-32.2	26.8	0.00e+00	0	34	0	1670381568	36	5885
2026-01-28 04:40:18.24	265.17	17.78	-31.6	-32.3	26.8	0.00e+00	0	34	0	1675624448	36	5915
2026-01-28 04:40:19.39	265.43	17.81	-31.6	-32.2	26.8	0.00e+00	0	34	0	1681915904	36	5881
2026-01-28 04:40:20.26	265.63	17.83	-31.6	-32.2	26.8	0.00e+00	0	34	0	1687158784	36	5893
2026-01-28 04:40:21.41	265.89	17.86	-31.7	-32.3	26.7	0.00e+00	0	34	0	1693450240	36	5944
2026-01-28 04:40:22.28	266.09	17.88	-31.7	-32.4	26.6	0.00e+00	0	34	0	1697644544	36	5975
2026-01-28 04:40:23.44	266.36	17.91	-31.6	-32.2	26.8	0.00e+00	0	34	0	1703936000	36	5880
2026-01-28 04:40:24.30	266.55	17.93	-31.6	-32.3	26.7	0.00e+00	0	34	0	1709178880	36	5906
2026-01-28 04:40:25.46	266.82	17.96	-31.7	-32.4	26.6	0.00e+00	0	34	0	1715470336	36	5986
2026-01-28 04:40:26.32	267.02	17.98	-31.5	-32.2	26.8	0.00e+00	0	34	0	1720713216	36	5860
2026-01-28 04:40:27.48	267.29	18.00	-31.6	-32.3	26.7	0.00e+00	0	34	0	1727004672	36	5907
2026-01-28 04:40:28.34	267.48	18.02	-31.7	-32.3	26.8	0.00e+00	0	34	0	1732247552	36	5922
2026-01-28 04:40:29.50	267.75	18.04	-31.5	-32.1	26.9	0.00e+00	0	34	0	1738539008	36	5808
2026-01-28 04:40:30.36	267.95	18.06	-31.6	-32.2	26.8	0.00e+00	0	34	0	1743781888	36	5869
2026-01-28 04:40:31.52	268.22	18.08	-31.6	-32.3	26.7	0.00e+00	0	34	0	1750073344	36	5901
2026-01-28 04:40:32.38	268.42	18.10	-31.7	-32.3	26.7	0.00e+00	0	34	0	1755316224	36	5938
2026-01-28 04:40:33.54	268.69	18.12	-31.6	-32.2	26.7	0.00e+00	0	34	0	1761607680	36	5884
2026-01-28 04:40:34.40	268.89	18.14	-31.6	-32.3	26.8	0.00e+00	0	34	0	1765801984	36	5928
2026-01-28 04:40:35.56	269.16	18.16	-31.5	-32.1	26.8	0.00e+00	0	34	0	1773142016	36	5828
2026-01-28 04:40:36.42	269.36	18.17	-31.4	-32.0	26.9	0.00e+00	0	34	0	1777336320	36	5721
2026-01-28 04:40:37.58	269.63	18.19	-31.5	-32.1	26.8	0.00e+00	0	34	0	1783627776	36	5795
2026-01-28 04:40:38.44	269.84	18.21	-31.5	-32.1	26.9	0.00e+00	0	34	0	1788870656	36	5787
2026-01-28 04:40:39.59	270.10	18.23	-31.4	-32.0	26.9	0.00e+00	0	34	0	1795162112	36	5752
2026-01-28 04:40:40.46	270.31	18.24	-31.5	-32.1	26.9	0.00e+00	0	34	0	1800404992	36	5807
2026-01-28 04:40:41.61	270.58	18.26	-31.4	-32.0	26.9	0.00e+00	0	34	0	1806696448	36	5760
2026-01-28 04:40:42.48	270.78	18.27	-31.3	-31.9	27.0	0.00e+00	0	34	0	1811939328	36	5690
2026-01-28 04:40:43.63	271.05	18.29	-31.2	-31.9	27.1	0.00e+00	0	34	0	1818230784	36	5657
2026-01-28 04:40:44.50	271.26	18.30	-31.3	-31.9	27.0	0.00e+00	0	34	0	1822425088	36	5672
2026-01-28 04:40:45.65	271.53	18.32	-31.2	-31.8	27.1	0.00e+00	0	34	0	1829765120	36	5619
2026-01-28 04:40:46.52	271.73	18.33	-31.3	-31.9	27.0	0.00e+00	0	34	0	1833959424	36	5651
2026-01-28 04:40:47.67	272.01	18.34	-31.4	-32.1	26.9	0.00e+00	0	34	0	1841299456	36	5777
2026-01-28 04:40:48.54	272.21	18.35	-31.4	-32.1	26.9	0.00e+00	0	34	0	1845493760	36	5797
2026-01-28 04:40:49.69	272.48	18.37	-31.4	-32.1	26.9	0.00e+00	0	34	0	1851785216	36	5771
2026-01-28 04:40:50.56	272.69	18.38	-31.4	-32.0	27.0	0.00e+00	0	34	0	1857028096	36	5717
2026-01-28 04:40:51.71	272.96	18.39	-31.4	-32.1	26.9	0.00e+00	0	34	0	1863319552	36	5792
2026-01-28 04:40:52.58	273.17	18.40	-31.4	-32.0	26.9	0.00e+00	0	34	0	1868562432	36	5745
2026-01-28 04:40:53.73	273.44	18.41	-31.4	-32.1	26.9	0.00e+00	0	34	0	1874853888	36	5770
2026-01-28 04:40:54.60	273.65	18.42	-31.2	-31.9	27.1	0.00e+00	0	34	0	1880096768	36	5664
2026-01-28 04:40:55.75	273.92	18.43	-31.2	-31.8	26.9	0.00e+00	0	34	0	1886388224	36	5613
2026-01-28 04:40:56.62	274.12	18.43	-31.3	-31.9	27.0	0.00e+00	0	34	0	1891631104	36	5644
2026-01-28 04:40:57.77	274.40	18.44	-31.2	-31.8	27.1	0.00e+00	0	34	0	1897922560	36	5615
2026-01-28 04:40:58.64	274.60	18.45	-31.3	-32.0	26.9	0.00e+00	0	34	0	1902116864	36	5700
2026-01-28 04:40:59.79	274.88	18.46	-31.2	-31.9	27.1	0.00e+00	0	34	0	1908408320	36	5653
2026-01-28 04:41:00.66	275.08	18.46	-31.3	-31.9	26.9	0.00e+00	0	34	0	1913651200	36	5651
2026-01-28 04:41:01.82	275.36	18.47	-31.3	-31.9	27.1	0.00e+00	0	34	0	1919942656	36	5676
2026-01-28 04:41:02.68	275.57	18.47	-31.3	-31.9	27.0	0.00e+00	0	34	0	1925185536	36	5675
2026-01-28 04:41:03.84	275.84	18.48	-31.2	-31.9	27.0	0.00e+00	0	34	0	1931476992	36	5644
2026-01-28 04:41:04.70	276.05	18.48	-31.3	-31.9	27.1	0.00e+00	0	34	0	1936719872	36	5668
2026-01-28 04:41:05.86	276.32	18.49	-31.3	-31.9	27.0	0.00e+00	0	34	0	1943011328	36	5664
2026-01-28 04:41:06.72	276.53	18.49	-31.4	-32.0	26.9	0.00e+00	0	34	0	1948254208	36	5723
2026-01-28 04:41:07.88	276.80	18.50	-31.4	-32.0	26.9	0.00e+00	0	34	0	1954545664	36	5744
2026-01-28 04:41:08.74	277.01	18.50	-31.5	-32.1	26.8	0.00e+00	0	34	0	1959788544	36	5807
2026-01-28 04:41:09.90	277.28	18.50	-31.3	-31.9	27.1	0.00e+00	0	34	0	1966080000	36	5660
2026-01-28 04:41:10.76	277.49	18.50	-31.3	-31.9	27.0	0.00e+00	0	34	0	1970274304	36	5648
2026-01-28 04:41:11.92	277.77	18.50	-31.3	-31.9	27.0	0.00e+00	0	34	0	1977614336	36	5651
2026-01-28 04:41:12.78	277.97	18.50	-31.4	-32.0	27.0	0.00e+00	0	34	0	1981808640	36	5698
2026-01-28 04:41:13.94	278.25	18.50	-31.4	-32.0	27.0	0.00e+00	0	34	0	1988100096	36	5735
2026-01-28 04:41:14.80	278.45	18.50	-31.4	-32.0	26.9	0.00e+00	0	34	0	1993342976	36	5754
2026-01-28 04:41:15.96	278.73	18.50	-31.4	-32.1	26.9	0.00e+00	0	34	0	1999634432	36	5779
2026-01-28 04:41:16.82	278.93	18.50	-31.5	-32.2	26.9	0.00e+00	0	34	0	2004877312	36	5840
2026-01-28 04:41:17.97	279.21	18.50	-31.4	-32.0	26.9	0.00e+00	0	34	0	2011168768	36	5710
2026-01-28 04:41:18.84	279.42	18.50	-31.3	-31.9	27.0	0.00e+00	0	34	0	2016411648	36	5694
2026-01-28 04:41:19.99	279.69	18.49	-31.3	-31.9	26.9	0.00e+00	0	34	0	2022703104	36	5691
2026-01-28 04:41:20.86	279.90	18.49	-31.5	-32.1	26.8	0.00e+00	0	34	0	2027945984	36	5820
2026-01-28 04:41:22.01	280.17	18.49	-31.7	-32.3	26.7	0.00e+00	0	34	0	2034237440	36	5955
2026-01-28 04:41:22.88	280.38	18.48	-31.7	-32.3	26.7	0.00e+00	0	34	0	2038431744	36	5943
2026-01-28 04:41:24.03	280.65	18.48	-31.7	-32.4	26.7	0.00e+00	0	34	0	2045771776	36	5986
2026-01-28 04:41:24.90	280.86	18.47	-31.5	-32.2	26.6	0.00e+00	0	34	0	2049966080	36	5843
2026-01-28 04:41:26.05	281.13	18.47	-31.5	-32.1	26.8	0.00e+00	0	34	0	2057306112	36	5824
2026-01-28 04:41:26.92	281.34	18.46	-31.6	-32.2	26.6	0.00e+00	0	34	0	2061500416	36	5865
2026-01-28 04:41:28.08	281.61	18.45	-31.5	-32.1	26.7	0.00e+00	0	34	0	2067791872	36	5804
2026-01-28 04:41:28.94	281.82	18.45	-31.4	-32.1	26.8	0.00e+00	0	34	0	2073034752	36	5780
2026-01-28 04:41:30.10	282.09	18.44	-31.4	-32.0	26.8	0.00e+00	0	34	0	2079326208	36	5755
2026-01-28 04:41:30.96	282.30	18.43	-31.4	-32.0	26.8	0.00e+00	0	34	0	2084569088	36	5747
2026-01-28 04:41:32.12	282.57	18.42	-31.4	-32.1	26.9	0.00e+00	0	34	0	2090860544	36	5770
2026-01-28 04:41:32.98	282.78	18.41	-31.5	-32.1	26.8	0.00e+00	0	34	0	2096103424	36	5799
2026-01-28 04:41:34.14	283.05	18.40	-31.7	-32.3	26.6	0.00e+00	0	34	0	2102394880	36	5931
2026-01-28 04:41:35.00	283.26	18.39	-31.6	-32.3	26.8	0.00e+00	0	34	0	2106589184	36	5908
2026-01-28 04:41:36.16	283.53	18.38	-31.4	-32.0	26.9	0.00e+00	0	34	0	2113929216	36	5738
2026-01-28 04:41:37.02	283.73	18.37	-31.4	-32.0	26.9	0.00e+00	0	34	0	2118123520	36	5702
2026-01-28 04:41:38.17	284.00	18.36	-31.2	-31.8	27.0	0.00e+00	0	34	0	2124414976	36	5612
2026-01-28 04:41:39.04	284.21	18.35	-31.2	-31.9	27.1	0.00e+00	0	34	0	2129657856	36	5638
2026-01-28 04:41:40.19	284.48	18.34	-31.3	-32.0	27.0	0.00e+00	0	34	0	2135949312	36	5696
2026-01-28 04:41:41.06	284.69	18.32	-31.3	-32.0	26.9	0.00e+00	0	34	0	2141192192	36	5732
2026-01-28 04:41:42.21	284.96	18.31	-31.3	-31.9	27.0	0.00e+00	0	34	0	2147483648	36	5694
2026-01-28 04:41:43.08	285.16	18.30	-31.2	-31.9	27.0	0.00e+00	0	34	0	2152726528	36	5662
2026-01-28 04:41:44.23	285.43	18.28	-31.2	-31.9	27.0	0.00e+00	0	34	0	2159017984	36	5654
2026-01-28 04:41:45.10	285.64	18.27	-31.4	-32.0	26.9	0.00e+00	0	34	0	2164260864	36	5748
2026-01-28 04:41:46.25	285.91	18.25	-31.3	-32.0	26.9	0.00e+00	0	34	0	2170552320	36	5736
2026-01-28 04:41:47.12	286.11	18.24	-31.4	-32.1	26.9	0.00e+00	0	34	0	2174746624	36	5780
2026-01-28 04:41:48.27	286.38	18.22	-31.5	-32.1	26.8	0.00e+00	0	34	0	2182086656	36	5827
2026-01-28 04:41:49.13	286.58	18.20	-31.5	-32.1	26.8	0.00e+00	0	34	0	2186280960	36	5824
2026-01-28 04:41:50.29	286.85	18.18	-31.6	-32.3	26.7	0.00e+00	0	34	0	2192572416	36	5931
2026-01-28 04:41:51.15	287.05	18.17	-31.6	-32.3	26.8	0.00e+00	0	34	0	2197815296	36	5934
2026-01-28 04:41:52.31	287.32	18.15	-31.6	-32.3	26.8	0.00e+00	0	34	0	2204106752	36	5913
2026-01-28 04:41:53.18	287.52	18.13	-31.6	-32.3	26.8	0.00e+00	0	34	0	2209349632	36	5906
2026-01-28 04:41:54.33	287.79	18.11	-31.6	-32.3	26.8	0.00e+00	0	34	0	2215641088	36	5921
2026-01-28 04:41:55.20	287.99	18.10	-31.6	-32.2	26.7	0.00e+00	0	34	0	2220883968	36	5896
2026-01-28 04:41:56.35	288.26	18.07	-31.7	-32.3	26.7	0.00e+00	0	34	0	2227175424	36	5957
2026-01-28 04:41:57.22	288.46	18.06	-31.7	-32.3	26.7	0.00e+00	0	34	0	2232418304	36	5931
2026-01-28 04:41:58.37	288.73	18.03	-31.9	-32.5	26.5	0.00e+00	0	34	0	2238709760	36	6065
2026-01-28 04:41:59.24	288.93	18.01	-32.0	-32.6	26.4	0.00e+00	0	34	0	2242904064	36	6129
2026-01-28 04:42:00.39	289.19	17.99	-32.0	-32.7	26.5	0.00e+00	0	34	0	2250244096	36	6209
2026-01-28 04:42:01.26	289.39	17.97	-32.1	-32.7	26.3	0.00e+00	0	34	0	2254438400	36	6215
2026-01-28 04:42:02.41	289.66	17.94	-32.1	-32.8	26.3	0.00e+00	0	34	0	2261778432	36	6264
2026-01-28 04:42:03.28	289.86	17.92	-32.2	-32.9	26.2	0.00e+00	0	34	0	2265972736	36	6375
2026-01-28 04:42:04.43	290.12	17.90	-31.9	-32.5	26.5	0.00e+00	0	34	0	2272264192	36	6066
2026-01-28 04:42:05.30	290.32	17.88	-31.9	-32.6	26.5	0.00e+00	0	34	0	2277507072	36	6160
2026-01-28 04:42:06.46	290.59	17.85	-31.7	-32.4	26.6	0.00e+00	0	34	0	2283798528	36	5989
2026-01-28 04:42:07.32	290.78	17.83	-31.7	-32.4	26.6	0.00e+00	0	34	0	2289041408	36	6011
2026-01-28 04:42:08.48	291.05	17.80	-31.8	-32.4	26.5	0.00e+00	0	34	0	2295332864	36	6033
2026-01-28 04:42:09.34	291.24	17.78	-31.8	-32.5	26.6	0.00e+00	0	34	0	2300575744	36	6097
2026-01-28 04:42:10.50	291.51	17.75	-31.7	-32.4	26.6	0.00e+00	0	34	0	2306867200	36	5991
2026-01-28 04:42:11.36	291.70	17.73	-31.7	-32.4	26.6	0.00e+00	0	34	0	2312110080	36	5993
2026-01-28 04:42:12.52	291.96	17.70	-31.6	-32.3	26.7	0.00e+00	0	34	0	2318401536	36	5902
2026-01-28 04:42:13.38	292.16	17.67	-31.8	-32.4	26.6	0.00e+00	0	34	0	2322595840	36	6006
2026-01-28 04:42:14.53	292.42	17.64	-31.7	-32.4	26.7	0.00e+00	0	34	0	2328887296	36	5976
2026-01-28 04:42:15.40	292.61	17.62	-31.8	-32.4	26.6	0.00e+00	0	34	0	2334130176	36	5987
2026-01-28 04:42:16.55	292.87	17.59	-31.8	-32.5	26.6	0.00e+00	0	34	0	2340421632	36	6041
2026-01-28 04:42:17.42	293.07	17.56	-31.9	-32.5	26.5	0.00e+00	0	34	0	2345664512	36	6046
2026-01-28 04:42:18.58	293.32	17.53	-32.0	-32.6	26.4	0.00e+00	0	34	0	2351955968	36	6157
2026-01-28 04:42:19.44	293.52	17.50	-32.0	-32.7	26.4	0.00e+00	0	34	0	2357198848	36	6206
2026-01-28 04:42:20.60	293.78	17.47	-32.1	-32.7	26.3	0.00e+00	0	34	0	2363490304	36	6220
2026-01-28 04:42:21.46	293.97	17.44	-32.1	-32.9	26.3	0.00e+00	0	34	0	2368733184	36	6323
2026-01-28 04:42:22.62	294.22	17.41	-32.0	-32.6	26.4	0.00e+00	0	34	0	2375024640	36	6164
2026-01-28 04:42:23.48	294.42	17.38	-32.0	-32.8	26.3	0.00e+00	0	34	0	2379218944	36	6266
2026-01-28 04:42:24.64	294.67	17.35	-32.3	-33.0	26.3	0.00e+00	0	34	0	2386558976	36	6424
2026-01-28 04:42:25.50	294.86	17.32	-32.0	-32.6	26.2	0.00e+00	0	34	0	2390753280	36	6164
2026-01-28 04:42:26.66	295.12	17.28	-32.2	-32.8	26.2	0.00e+00	0	34	0	2398093312	36	6288
2026-01-28 04:42:27.53	295.31	17.25	-32.1	-32.7	26.3	0.00e+00	0	34	0	2402287616	36	6209
2026-01-28 04:42:28.68	295.56	17.22	-32.2	-32.9	26.2	0.00e+00	0	34	0	2408579072	36	6343
2026-01-28 04:42:29.54	295.75	17.19	-32.0	-32.7	26.5	0.00e+00	0	34	0	2413821952	36	6213
2026-01-28 04:42:30.70	296.00	17.15	-32.0	-32.7	26.4	0.00e+00	0	34	0	2420113408	36	6206
2026-01-28 04:42:31.57	296.19	17.12	-32.0	-32.6	26.4	0.00e+00	0	34	0	2425356288	36	6160
2026-01-28 04:42:32.72	296.44	17.08	-31.9	-32.5	26.5	0.00e+00	0	34	0	2431647744	36	6075
2026-01-28 04:42:33.59	296.63	17.05	-32.0	-32.8	26.4	0.00e+00	0	34	0	2436890624	36	6251
2026-01-28 04:42:34.74	296.88	17.01	-32.1	-32.7	26.3	0.00e+00	0	34	0	2443182080	36	6228
2026-01-28 04:42:35.61	297.07	16.98	-32.0	-32.7	26.4	0.00e+00	0	34	0	2448424960	36	6200
2026-01-28 04:42:36.76	297.32	16.94	-32.0	-32.7	26.4	0.00e+00	0	34	0	2454716416	36	6221
2026-01-28 04:42:37.62	297.50	16.91	-31.9	-32.6	26.3	0.00e+00	0	34	0	2458910720	36	6164
2026-01-28 04:42:38.78	297.75	16.87	-31.9	-32.6	26.5	0.00e+00	0	34	0	2466250752	36	6157
2026-01-28 04:42:39.64	297.93	16.84	-32.0	-32.6	26.4	0.00e+00	0	34	0	2470445056	36	6141
2026-01-28 04:42:40.80	298.18	16.80	-31.9	-32.6	26.5	0.00e+00	0	34	0	2476736512	36	6115
2026-01-28 04:42:41.66	298.36	16.76	-32.2	-32.8	26.2	0.00e+00	0	34	0	2481979392	36	6310
2026-01-28 04:42:42.81	298.61	16.72	-32.0	-32.7	26.4	0.00e+00	0	34	0	2488270848	36	6205
2026-01-28 04:42:43.68	298.79	16.69	-32.0	-32.7	26.4	0.00e+00	0	34	0	2493513728	36	6203
2026-01-28 04:42:44.84	299.04	16.64	-32.0	-32.7	26.3	0.00e+00	0	34	0	2499805184	36	6175
2026-01-28 04:42:45.70	299.22	16.61	-32.1	-32.7	26.3	0.00e+00	0	34	0	2505048064	36	6239
2026-01-28 04:42:46.85	299.46	16.57	-32.1	-32.7	26.3	0.00e+00	0	34	0	2511339520	36	6212
2026-01-28 04:42:47.72	299.64	16.53	-32.1	-32.8	26.3	0.00e+00	0	34	0	2516582400	36	6297
2026-01-28 04:42:48.88	299.89	16.49	-32.2	-32.9	26.5	0.00e+00	0	34	0	2522873856	36	6323
2026-01-28 04:42:49.74	300.06	16.45	-32.2	-32.8	26.5	0.00e+00	0	34	0	2527068160	36	6264
2026-01-28 04:42:50.90	300.31	16.41	-32.1	-32.8	26.4	0.00e+00	0	34	0	2533359616	36	6289
2026-01-28 04:42:51.77	300.49	16.37	-32.2	-32.9	26.4	0.00e+00	0	34	0	2538602496	36	6338
2026-01-28 04:42:52.92	300.73	16.33	-32.2	-33.0	26.3	0.00e+00	0	34	0	2544893952	36	6391
2026-01-28 04:42:53.79	300.90	16.29	-32.3	-33.0	26.3	0.00e+00	0	34	0	2550136832	36	6398
2026-01-28 04:42:54.94	301.14	16.24	-32.5	-33.2	26.2	0.00e+00	0	34	0	2556428288	36	6571
2026-01-28 04:42:55.81	301.32	16.21	-32.6	-33.2	26.1	0.00e+00	0	34	0	2561671168	36	6615
2026-01-28 04:42:56.96	301.56	16.16	-32.4	-33.0	26.2	0.00e+00	0	34	0	2567962624	36	6437
2026-01-28 04:42:57.83	301.73	16.13	-32.4	-33.1	26.2	0.00e+00	0	34	0	2573205504	36	6488
2026-01-28 04:42:58.99	301.97	16.08	-32.4	-33.1	26.3	0.00e+00	0	34	0	2579496960	36	6477
2026-01-28 04:42:59.85	302.14	16.04	-32.2	-32.9	26.4	0.00e+00	0	34	0	2583691264	36	6325
2026-01-28 04:43:01.00	302.38	15.99	-32.2	-32.8	26.4	0.00e+00	0	34	0	2591031296	36	6286
2026-01-28 04:43:01.87	302.55	15.95	-32.3	-32.9	26.3	0.00e+00	0	34	0	2595225600	36	6383
2026-01-28 04:43:03.02	302.78	15.90	-32.3	-32.9	26.3	0.00e+00	0	34	0	2602565632	36	6318
2026-01-28 04:43:03.89	302.96	15.87	-32.3	-33.0	26.2	0.00e+00	0	34	0	2606759936	36	6441
2026-01-28 04:43:05.04	303.19	15.82	-32.4	-33.1	26.1	0.00e+00	0	34	0	2613051392	36	6521
2026-01-28 04:43:05.91	303.36	15.78	-32.4	-33.1	26.1	0.00e+00	0	34	0	2618294272	36	6529
2026-01-28 04:43:07.06	303.59	15.73	-32.5	-33.2	26.2	0.00e+00	0	34	0	2624585728	36	6564
2026-01-28 04:43:07.93	303.77	15.69	-32.4	-33.1	26.1	0.00e+00	0	34	0	2629828608	36	6470
2026-01-28 04:43:09.08	303.99	15.64	-32.4	-33.0	26.2	0.00e+00	0	34	0	2636120064	36	6457
2026-01-28 04:43:09.95	304.16	15.60	-32.4	-33.1	26.3	0.00e+00	0	34	0	2641362944	36	6477
2026-01-28 04:43:11.10	304.39	15.55	-32.5	-33.2	26.1	0.00e+00	0	34	0	2647654400	36	6568
2026-01-28 04:43:11.97	304.56	15.51	-32.5	-33.1	26.2	0.00e+00	0	34	0	2652897280	36	6513
2026-01-28 04:43:13.13	304.79	15.46	-32.3	-33.0	26.2	0.00e+00	0	34	0	2659188736	36	6420
2026-01-28 04:43:13.99	304.96	15.42	-32.4	-33.1	26.1	0.00e+00	0	34	0	2663383040	36	6466
2026-01-28 04:43:15.15	305.18	15.36	-32.5	-33.2	26.0	0.00e+00	0	34	0	2670723072	36	6596
2026-01-28 04:43:16.01	305.35	15.32	-32.4	-33.0	26.2	0.00e+00	0	34	0	2674917376	36	6448
2026-01-28 04:43:17.17	305.57	15.27	-32.3	-32.9	26.2	0.00e+00	0	34	0	2682257408	36	6367
2026-01-28 04:43:18.03	305.74	15.23	-32.4	-33.0	26.2	0.00e+00	0	34	0	2686451712	36	6403
2026-01-28 04:43:19.18	305.96	15.18	-32.3	-32.9	26.3	0.00e+00	0	34	0	2692743168	36	6344
2026-01-28 04:43:20.05	306.13	15.14	-32.3	-32.9	26.2	0.00e+00	0	34	0	2697986048	36	6344
2026-01-28 04:43:21.21	306.35	15.08	-32.5	-33.2	26.1	0.00e+00	0	34	0	2704277504	36	6554
2026-01-28 04:43:22.07	306.51	15.04	-32.5	-33.2	26.1	0.00e+00	0	34	0	2709520384	36	6579
2026-01-28 04:43:23.23	306.73	14.99	-32.5	-33.1	26.1	0.00e+00	0	34	0	2715811840	36	6522
2026-01-28 04:43:24.09	306.89	14.94	-32.5	-33.0	26.1	0.00e+00	0	34	0	2721054720	36	6456
2026-01-28 04:43:25.25	307.11	14.89	-32.4	-33.1	26.1	0.00e+00	0	34	0	2727346176	36	6469
2026-01-28 04:43:26.12	307.28	14.85	-32.5	-33.1	26.2	0.00e+00	0	34	0	2732589056	36	6518
2026-01-28 04:43:27.27	307.49	14.79	-32.5	-33.2	26.1	0.00e+00	0	34	0	2738880512	36	6575
2026-01-28 04:43:28.13	307.65	14.75	-32.5	-33.1	26.1	0.00e+00	0	34	0	2743074816	36	6506
2026-01-28 04:43:29.29	307.87	14.69	-32.5	-33.2	26.1	0.00e+00	0	34	0	2749366272	36	6599
2026-01-28 04:43:30.16	308.03	14.65	-32.7	-33.3	26.0	0.00e+00	0	34	0	2754609152	36	6674
2026-01-28 04:43:31.31	308.24	14.59	-32.7	-33.4	25.9	0.00e+00	0	34	0	2760900608	36	6701
2026-01-28 04:43:32.17	308.40	14.55	-32.8	-33.5	25.8	0.00e+00	0	34	0	2766143488	38	6077
2026-01-28 04:43:33.33	308.61	14.49	-32.9	-33.5	25.8	0.00e+00	0	34	0	2772434944	38	6099
2026-01-28 04:43:34.19	308.77	14.45	-32.8	-33.5	25.7	0.00e+00	0	34	0	2777677824	38	6049
2026-01-28 04:43:35.35	308.98	14.39	-32.9	-33.6	25.8	0.00e+00	0	34	0	2783969280	38	6111
2026-01-28 04:43:36.21	309.14	14.35	-33.1	-33.8	25.5	0.00e+00	0	34	0	2789212160	38	6295
2026-01-28 04:43:37.37	309.35	14.29	-33.1	-33.7	25.7	0.00e+00	0	34	0	2795503616	38	6206
2026-01-28 04:43:38.23	309.50	14.25	-32.8	-33.5	25.8	0.00e+00	0	34	0	2799697920	38	6084
2026-01-28 04:43:39.39	309.71	14.19	-32.9	-33.5	25.7	0.00e+00	0	34	0	2807037952	38	6053
2026-01-28 04:43:40.25	309.87	14.15	-32.9	-33.5	25.8	0.00e+00	0	34	0	2811232256	38	6052
2026-01-28 04:43:41.41	310.07	14.09	-32.8	-33.4	25.8	0.00e+00	0	34	0	2818572288	38	6015
2026-01-28 04:43:42.28	310.23	14.05	-32.7	-33.4	25.9	0.00e+00	0	34	0	2822766592	38	6009
2026-01-28 04:43:43.43	310.43	13.99	-32.8	-33.5	25.8	0.00e+00	0	34	0	2829058048	38	6085
2026-01-28 04:43:44.29	310.59	13.94	-32.8	-33.4	25.9	0.00e+00	0	34	0	2834300928	38	5980
2026-01-28 04:43:45.45	310.79	13.88	-32.9	-33.5	25.7	0.00e+00	0	34	0	2840592384	38	6038
2026-01-28 04:43:46.31	310.94	13.84	-32.8	-33.5	25.7	0.00e+00	0	34	0	2845835264	38	6093
2026-01-28 04:43:47.47	311.15	13.78	-33.0	-33.7	25.6	0.00e+00	0	34	0	2852126720	38	6224
2026-01-28 04:43:48.34	311.30	13.73	-33.0	-33.7	25.7	0.00e+00	0	34	0	2857369600	38	6211
2026-01-28 04:43:49.49	311.50	13.68	-33.0	-33.6	25.7	0.00e+00	0	34	0	2863661056	38	6147
2026-01-28 04:43:50.35	311.65	13.63	-33.0	-33.6	25.7	0.00e+00	0	34	0	2868903936	38	6160
2026-01-28 04:43:51.51	311.85	13.57	-33.0	-33.7	25.6	0.00e+00	0	34	0	2875195392	38	6235
2026-01-28 04:43:52.37	312.00	13.53	-33.0	-33.6	25.6	0.00e+00	0	34	0	2879389696	38	6168
2026-01-28 04:43:53.53	312.19	13.46	-33.0	-33.7	25.6	0.00e+00	0	34	0	2886729728	38	6243
2026-01-28 04:43:54.39	312.34	13.42	-33.2	-33.8	25.5	0.00e+00	0	34	0	2890924032	38	6291
2026-01-28 04:43:55.55	312.54	13.36	-33.2	-33.8	25.5	0.00e+00	0	34	0	2897215488	38	6272
2026-01-28 04:43:56.41	312.69	13.31	-33.1	-33.7	25.5	0.00e+00	0	34	0	2902458368	38	6196
2026-01-28 04:43:57.57	312.88	13.25	-33.3	-34.0	25.4	0.00e+00	0	34	0	2908749824	38	6429
2026-01-28 04:43:58.43	313.03	13.21	-33.1	-33.7	25.6	0.00e+00	0	34	0	2913992704	38	6225
2026-01-28 04:43:59.59	313.22	13.15	-33.3	-34.0	25.4	0.00e+00	0	34	0	2920284160	38	6417
2026-01-28 04:44:00.45	313.37	13.10	-33.3	-33.8	25.5	0.00e+00	0	34	0	2925527040	38	6316
2026-01-28 04:44:01.61	313.56	13.04	-33.1	-33.8	25.5	0.00e+00	0	34	0	2931818496	38	6248
2026-01-28 04:44:02.47	313.70	12.99	-33.2	-33.9	25.4	0.00e+00	0	34	0	2937061376	38	6320
2026-01-28 04:44:03.63	313.90	12.93	-33.3	-33.9	25.4	0.00e+00	0	34	0	2943352832	38	6390
2026-01-28 04:44:04.50	314.04	12.88	-33.4	-34.0	25.3	0.00e+00	0	34	0	2947547136	38	6415
2026-01-28 04:44:05.65	314.23	12.82	-33.3	-33.9	25.4	0.00e+00	0	34	0	2953838592	38	6355
2026-01-28 04:44:06.51	314.37	12.78	-33.4	-34.0	25.3	0.00e+00	0	34	0	2959081472	38	6420
2026-01-28 04:44:07.67	314.56	12.71	-33.3	-34.0	25.3	0.00e+00	0	34	0	2965372928	38	6407
2026-01-28 04:44:08.54	314.70	12.67	-33.3	-34.1	25.3	0.00e+00	0	34	0	2970615808	38	6479
2026-01-28 04:44:09.69	314.89	12.60	-33.2	-34.0	25.3	0.00e+00	0	34	0	2976907264	38	6420
2026-01-28 04:44:10.56	315.03	12.56	-33.4	-34.1	25.2	0.00e+00	0	34	0	2982150144	38	6497
2026-01-28 04:44:11.71	315.21	12.50	-33.1	-33.7	25.4	0.00e+00	0	34	0	2988441600	38	6198
2026-01-28 04:44:12.58	315.35	12.45	-33.1	-33.7	25.4	0.00e+00	0	34	0	2993684480	38	6213
2026-01-28 04:44:13.73	315.54	12.39	-33.1	-33.8	25.3	0.00e+00	0	34	0	2999975936	38	6312
2026-01-28 04:44:14.60	315.68	12.34	-33.1	-33.8	25.3	0.00e+00	0	34	0	3004170240	38	6311
2026-01-28 04:44:15.75	315.86	12.28	-33.1	-33.7	25.3	0.00e+00	0	34	0	3011510272	38	6243
2026-01-28 04:44:16.62	316.00	12.23	-33.1	-33.9	25.3	0.00e+00	0	34	0	3015704576	38	6322
2026-01-28 04:44:17.77	316.18	12.17	-33.3	-33.9	25.1	0.00e+00	0	34	0	3023044608	38	6358
2026-01-28 04:44:18.63	316.31	12.12	-33.3	-33.9	25.1	0.00e+00	0	34	0	3027238912	38	6338
2026-01-28 04:44:19.79	316.49	12.06	-33.3	-34.0	25.2	0.00e+00	0	34	0	3033530368	38	6448
2026-01-28 04:44:20.65	316.63	12.01	-33.3	-34.0	25.2	0.00e+00	0	34	0	3038773248	38	6396
2026-01-28 04:44:21.81	316.81	11.94	-33.3	-33.9	25.3	0.00e+00	0	34	0	3045064704	38	6389
2026-01-28 04:44:22.67	316.94	11.90	-33.5	-34.2	25.1	0.00e+00	0	34	0	3050307584	38	6610
2026-01-28 04:44:23.82	317.12	11.83	-33.5	-34.2	25.1	0.00e+00	0	34	0	3056599040	38	6550
2026-01-28 04:44:24.68	317.25	11.79	-33.4	-34.1	25.1	0.00e+00	0	34	0	3061841920	38	6493
2026-01-28 04:44:25.84	317.43	11.72	-33.4	-34.2	25.2	0.00e+00	0	34	0	3068133376	38	6550
2026-01-28 04:44:26.70	317.56	11.68	-33.3	-34.0	25.3	0.00e+00	0	34	0	3073376256	38	6446
2026-01-28 04:44:27.86	317.74	11.61	-33.4	-34.1	25.2	0.00e+00	0	34	0	3079667712	38	6521
2026-01-28 04:44:28.73	317.87	11.56	-33.4	-34.1	25.2	0.00e+00	0	34	0	3083862016	38	6487
2026-01-28 04:44:29.88	318.04	11.50	-33.5	-34.2	25.1	0.00e+00	0	34	0	3091202048	38	6567
2026-01-28 04:44:30.75	318.17	11.45	-33.6	-34.3	25.1	0.00e+00	0	34	0	3095396352	38	6681
2026-01-28 04:44:31.90	318.34	11.39	-33.6	-34.3	24.9	0.00e+00	0	34	0	3101687808	38	6635
2026-01-28 04:44:32.77	318.47	11.34	-33.7	-34.5	24.9	0.00e+00	0	34	0	3106930688	38	6788
2026-01-28 04:44:33.92	318.64	11.28	-33.6	-34.4	24.9	0.00e+00	0	34	0	3113222144	40	5985
2026-01-28 04:44:34.79	318.77	11.23	-33.7	-34.5	24.9	0.00e+00	0	34	0	3118465024	40	6068
2026-01-28 04:44:35.94	318.94	11.16	-33.8	-34.5	24.8	0.00e+00	0	34	0	3124756480	40	6046
2026-01-28 04:44:36.81	319.07	11.12	-33.8	-34.6	24.8	0.00e+00	0	34	0	3129999360	40	6137
2026-01-28 04:44:37.96	319.24	11.05	-33.8	-34.5	24.8	0.00e+00	0	34	0	3136290816	40	6050
2026-01-28 04:44:38.83	319.37	11.00	-33.8	-34.4	24.8	0.00e+00	0	34	0	3141533696	40	5992
2026-01-28 04:44:39.98	319.53	10.94	-33.8	-34.5	24.8	0.00e+00	0	34	0	3147825152	40	6100
2026-01-28 04:44:40.85	319.66	10.89	-33.8	-34.5	24.7	0.00e+00	0	34	0	3152019456	40	6057
2026-01-28 04:44:42.00	319.83	10.83	-34.1	-34.7	24.5	0.00e+00	0	34	0	3158310912	40	6202
2026-01-28 04:44:42.87	319.95	10.78	-34.0	-34.6	24.7	0.00e+00	0	34	0	3163553792	40	6154
2026-01-28 04:44:44.02	320.11	10.71	-34.1	-34.7	24.4	0.00e+00	0	34	0	3169845248	40	6234
2026-01-28 04:44:44.89	320.24	10.67	-34.1	-34.8	24.5	0.00e+00	0	34	0	3175088128	40	6315
2026-01-28 04:44:46.04	320.40	10.60	-33.9	-34.5	24.7	0.00e+00	0	34	0	3181379584	40	6052
2026-01-28 04:44:46.90	320.52	10.55	-33.8	-34.4	24.8	0.00e+00	0	34	0	3186622464	40	6024
2026-01-28 04:44:48.06	320.69	10.49	-33.8	-34.5	24.8	0.00e+00	0	34	0	3192913920	40	6088
2026-01-28 04:44:48.93	320.81	10.44	-33.8	-34.4	24.8	0.00e+00	0	34	0	3198156800	40	6011
2026-01-28 04:44:50.08	320.97	10.38	-33.7	-34.4	24.8	0.00e+00	0	34	0	3204448256	40	5977
2026-01-28 04:44:50.95	321.09	10.33	-33.8	-34.6	24.8	0.00e+00	0	34	0	3208642560	40	6126
2026-01-28 04:44:52.10	321.25	10.26	-33.8	-34.5	24.7	0.00e+00	0	34	0	3215982592	40	6048
2026-01-28 04:44:52.97	321.37	10.21	-33.8	-34.5	24.8	0.00e+00	0	34	0	3220176896	40	6050
2026-01-28 04:44:54.12	321.53	10.15	-33.9	-34.7	24.6	0.00e+00	0	34	0	3227516928	40	6220
2026-01-28 04:44:54.99	321.65	10.10	-33.8	-34.5	24.7	0.00e+00	0	34	0	3231711232	40	6097
2026-01-28 04:44:56.14	321.81	10.04	-33.8	-34.5	24.6	0.00e+00	0	34	0	3238002688	40	6050
2026-01-28 04:44:57.01	321.93	9.99	-33.9	-34.5	24.6	0.00e+00	0	34	0	3243245568	40	6068
2026-01-28 04:44:58.16	322.08	9.92	-33.9	-34.7	24.5	0.00e+00	0	34	0	3249537024	40	6178
2026-01-28 04:44:59.03	322.20	9.87	-34.0	-34.7	24.6	0.00e+00	0	34	0	3254779904	40	6224
2026-01-28 04:45:00.18	322.36	9.81	-34.1	-34.8	24.4	0.00e+00	0	34	0	3261071360	40	6307
2026-01-28 04:45:01.05	322.47	9.76	-34.1	-34.8	24.6	0.00e+00	0	34	0	3266314240	40	6305
2026-01-28 04:45:02.20	322.63	9.70	-33.8	-34.6	24.7	0.00e+00	0	34	0	3272605696	40	6125
2026-01-28 04:45:03.07	322.74	9.65	-34.0	-34.6	24.6	0.00e+00	0	34	0	3277848576	40	6143
2026-01-28 04:45:04.22	322.90	9.58	-33.8	-34.6	24.7	0.00e+00	0	34	0	3284140032	40	6109
2026-01-28 04:45:05.09	323.01	9.53	-33.9	-34.6	24.6	0.00e+00	0	34	0	3288334336	40	6121
2026-01-28 04:45:06.24	323.16	9.47	-33.8	-34.4	24.7	0.00e+00	0	34	0	3295674368	40	6027
2026-01-28 04:45:07.11	323.28	9.42	-34.0	-34.7	24.5	0.00e+00	0	34	0	3299868672	40	6193
2026-01-28 04:45:08.27	323.43	9.36	-34.1	-34.8	24.4	0.00e+00	0	34	0	3307208704	40	6290
2026-01-28 04:45:09.13	323.54	9.31	-34.1	-34.7	24.4	0.00e+00	0	34	0	3311403008	40	6239
2026-01-28 04:45:10.29	323.69	9.24	-34.2	-35.0	24.3	0.00e+00	0	34	0	3317694464	40	6416
2026-01-28 04:45:11.15	323.80	9.19	-34.3	-35.1	24.3	0.00e+00	0	34	0	3322937344	40	6476
2026-01-28 04:45:12.31	323.95	9.13	-34.4	-35.2	24.2	0.00e+00	0	34	0	3329228800	40	6542
2026-01-28 04:45:13.17	324.06	9.08	-34.3	-35.0	24.1	0.00e+00	0	34	0	3334471680	40	6461
2026-01-28 04:45:14.33	324.21	9.01	-34.6	-35.3	23.9	0.00e+00	0	34	0	3340763136	40	6650
2026-01-28 04:45:15.19	324.32	8.97	-34.7	-35.5	23.9	0.00e+00	0	34	0	3346006016	40	6775
2026-01-28 04:45:16.35	324.47	8.90	-34.7	-35.4	23.8	0.00e+00	0	34	0	3352297472	42	5988
2026-01-28 04:45:17.21	324.58	8.85	-34.9	-35.7	23.6	0.00e+00	0	34	0	3357540352	42	6202
2026-01-28 04:45:18.37	324.73	8.79	-34.7	-35.4	23.8	0.00e+00	0	34	0	3363831808	42	5985
2026-01-28 04:45:19.24	324.83	8.74	-34.7	-35.4	23.8	0.00e+00	0	34	0	3368026112	42	5992
2026-01-28 04:45:20.39	324.98	8.68	-34.8	-35.6	23.8	0.00e+00	0	34	0	3374317568	42	6129
2026-01-28 04:45:21.26	325.09	8.63	-34.8	-35.6	23.7	0.00e+00	0	34	0	3379560448	42	6157
2026-01-28 04:45:22.41	325.23	8.56	-34.8	-35.5	23.7	0.00e+00	0	34	0	3385851904	42	6055
2026-01-28 04:45:23.28	325.34	8.51	-34.7	-35.4	23.8	0.00e+00	0	34	0	3391094784	42	5986
2026-01-28 04:45:24.43	325.48	8.45	-34.8	-35.5	23.6	0.00e+00	0	34	0	3397386240	42	6074
2026-01-28 04:45:25.30	325.59	8.40	-34.8	-35.6	23.8	0.00e+00	0	34	0	3402629120	42	6105
2026-01-28 04:45:26.45	325.73	8.34	-34.9	-35.6	23.7	0.00e+00	0	34	0	3408920576	42	6163
2026-01-28 04:45:27.32	325.83	8.29	-34.7	-35.5	23.8	0.00e+00	0	34	0	3414163456	42	6044
2026-01-28 04:45:28.47	325.97	8.22	-34.7	-35.3	23.8	0.00e+00	0	34	0	3420454912	42	5937
2026-01-28 04:45:29.34	326.08	8.17	-34.6	-35.3	23.8	0.00e+00	0	34	0	3424649216	42	5908
2026-01-28 04:45:30.49	326.22	8.11	-34.7	-35.5	23.7	0.00e+00	0	34	0	3431989248	42	6072
2026-01-28 04:45:31.36	326.32	8.06	-34.9	-35.7	23.6	0.00e+00	0	34	0	3436183552	42	6190
2026-01-28 04:45:32.51	326.46	8.00	-34.8	-35.4	23.7	0.00e+00	0	34	0	3443523584	42	6030
2026-01-28 04:45:33.38	326.56	7.95	-34.7	-35.4	23.7	0.00e+00	0	34	0	3447717888	42	6001
2026-01-28 04:45:34.53	326.70	7.88	-34.8	-35.6	23.7	0.00e+00	0	34	0	3454009344	42	6167
2026-01-28 04:45:35.40	326.80	7.84	-34.8	-35.6	23.7	0.00e+00	0	34	0	3459252224	42	6172
2026-01-28 04:45:36.55	326.94	7.77	-35.1	-35.9	23.4	0.00e+00	0	34	0	3465543680	42	6320
2026-01-28 04:45:37.42	327.04	7.72	-35.1	-35.8	23.4	0.00e+00	0	34	0	3470786560	42	6258
2026-01-28 04:45:38.57	327.18	7.66	-34.8	-35.5	23.6	0.00e+00	0	34	0	3477078016	42	6076
2026-01-28 04:45:39.44	327.28	7.61	-34.9	-35.6	23.5	0.00e+00	0	34	0	3482320896	42	6153
2026-01-28 04:45:40.59	327.41	7.55	-34.9	-35.6	23.5	0.00e+00	0	34	0	3488612352	42	6127
2026-01-28 04:45:41.46	327.51	7.50	-35.0	-35.8	23.4	0.00e+00	0	34	0	3493855232	42	6259
2026-01-28 04:45:42.61	327.64	7.43	-34.9	-35.6	23.6	0.00e+00	0	34	0	3500146688	42	6162
2026-01-28 04:45:43.48	327.74	7.39	-34.9	-35.7	23.5	0.00e+00	0	34	0	3504340992	42	6216
2026-01-28 04:45:44.63	327.88	7.32	-35.2	-36.0	23.2	0.00e+00	0	34	0	3511681024	42	6454
2026-01-28 04:45:45.50	327.97	7.27	-35.0	-35.9	23.4	0.00e+00	0	34	0	3515875328	42	6323
2026-01-28 04:45:46.65	328.11	7.21	-35.1	-35.8	23.2	0.00e+00	0	34	0	3523215360	42	6298
2026-01-28 04:45:47.52	328.20	7.16	-35.0	-35.8	23.3	0.00e+00	0	34	0	3527409664	42	6311
2026-01-28 04:45:48.67	328.33	7.10	-35.0	-35.8	23.3	0.00e+00	0	34	0	3533701120	42	6277
2026-01-28 04:45:49.54	328.43	7.05	-35.0	-35.8	23.4	0.00e+00	0	34	0	3538944000	42	6249
2026-01-28 04:45:50.69	328.56	6.98	-35.0	-35.8	23.4	0.00e+00	0	34	0	3545235456	42	6283
2026-01-28 04:45:51.56	328.66	6.94	-35.2	-35.9	23.1	0.00e+00	0	34	0	3550478336	42	6340
2026-01-28 04:45:52.71	328.79	6.87	-35.3	-36.1	23.0	0.00e+00	0	34	0	3556769792	42	6525
2026-01-28 04:45:53.58	328.88	6.83	-35.4	-36.3	22.9	0.00e+00	0	34	0	3562012672	42	6619
2026-01-28 04:45:54.74	329.01	6.76	-35.3	-36.0	23.1	0.00e+00	0	34	0	3568304128	42	6441
2026-01-28 04:45:55.60	329.10	6.71	-35.4	-36.1	22.9	0.00e+00	0	34	0	3572498432	42	6539
2026-01-28 04:45:56.76	329.23	6.65	-35.6	-36.4	22.8	0.00e+00	0	34	0	3579838464	42	6706
2026-01-28 04:45:57.62	329.33	6.60	-35.5	-36.4	22.9	0.00e+00	0	34	0	3584032768	42	6697
2026-01-28 04:45:58.78	329.45	6.54	-35.5	-36.2	22.9	0.00e+00	0	34	0	3590324224	42	6592
2026-01-28 04:45:59.64	329.54	6.49	-35.2	-36.0	23.1	0.00e+00	0	34	0	3595567104	42	6449
2026-01-28 04:46:00.80	329.67	6.43	-35.2	-35.9	23.1	0.00e+00	0	34	0	3601858560	42	6388
