passes_logs/2026/01/28/R4.6S_Anadyr/R4.6S_Anadyr__20260128_222557_TY-39_rec.log

#Pass ID: 20260128_222557_TY-39
#Satellite: TY-39
#Configuration: TY-39
#almurnet v.1.7.20251203
#Start time: 2026-01-28 22:26:01

#Version: 2.2.20231116
#Station: R4.6S_Anadyr
#Location: 177.4865 lon 64.73178 lat
#TLE: 1 51832U 22019J   26027.86422561  .00002582  00000-0  12388-3 0  9996
#TLE: 2 51832  97.3621  94.2395 0008889  11.0507 349.0921 15.19733422216484

#Time	Az	El	Level	Level2	SNR	BER	BlckErr	Temp	State	Recorded	gain1	gain2
2026-01-28 22:26:01.62	18.51	0.26	-49.1	-66.8	3.5	3.03e+01	0	28	0	0	60	84545
2026-01-28 22:26:02.63	18.54	0.32	-49.0	-51.4	3.6	0.00e+00	0	30	104	0	60	45727
2026-01-28 22:26:03.64	18.57	0.39	-49.1	-51.5	3.6	0.00e+00	0	30	104	0	60	46281
2026-01-28 22:26:04.65	18.59	0.45	-49.1	-51.5	3.6	0.00e+00	0	30	104	0	60	46202
2026-01-28 22:26:05.66	18.62	0.52	-49.1	-51.5	3.6	0.00e+00	0	30	104	0	60	46141
2026-01-28 22:26:06.67	18.65	0.58	-49.1	-51.6	3.6	0.00e+00	0	30	104	0	60	46552
2026-01-28 22:26:07.68	18.68	0.65	-49.1	-51.6	3.6	0.00e+00	0	30	104	0	60	46408
2026-01-28 22:26:08.69	18.71	0.71	-48.9	-51.4	3.6	0.00e+00	0	30	104	0	60	45468
2026-01-28 22:26:09.70	18.74	0.78	-49.0	-51.5	3.6	0.00e+00	0	30	104	0	60	45988
2026-01-28 22:26:10.71	18.77	0.84	-49.0	-51.5	3.6	0.00e+00	0	30	104	0	60	46125
2026-01-28 22:26:11.72	18.80	0.91	-49.0	-51.4	3.6	0.00e+00	0	30	104	0	60	45612
2026-01-28 22:26:12.73	18.83	0.98	-48.9	-51.4	3.6	0.00e+00	0	30	104	0	60	45483
2026-01-28 22:26:13.73	18.86	1.04	-48.8	-51.3	3.5	0.00e+00	0	30	104	0	60	44975
2026-01-28 22:26:14.74	18.89	1.11	-48.8	-51.3	3.6	0.00e+00	0	30	104	0	60	44846
2026-01-28 22:26:15.75	18.92	1.17	-48.6	-51.1	3.6	0.00e+00	0	30	104	0	60	43748
2026-01-28 22:26:16.77	18.95	1.24	-48.2	-50.8	3.6	0.00e+00	0	31	104	0	60	42233
2026-01-28 22:26:17.77	18.98	1.31	-48.3	-50.8	3.6	0.00e+00	0	30	104	0	60	42661
2026-01-28 22:26:18.78	19.01	1.38	-48.3	-50.8	3.6	0.00e+00	0	30	104	0	60	42483
2026-01-28 22:26:19.79	19.05	1.44	-48.1	-50.6	3.6	0.00e+00	0	30	104	0	60	41529
2026-01-28 22:26:20.80	19.08	1.51	-48.0	-50.4	3.5	0.00e+00	0	31	104	0	60	40633
2026-01-28 22:26:21.81	19.11	1.58	-47.8	-50.2	3.5	0.00e+00	0	31	104	0	60	39834
2026-01-28 22:26:22.82	19.14	1.65	-47.7	-50.2	3.6	0.00e+00	0	31	104	0	60	39682
2026-01-28 22:26:23.83	19.17	1.71	-47.7	-50.2	3.6	0.00e+00	0	31	104	0	60	39607
2026-01-28 22:26:24.84	19.20	1.78	-47.7	-50.2	3.6	0.00e+00	0	31	104	0	60	39594
2026-01-28 22:26:25.85	19.23	1.85	-47.7	-50.2	3.6	0.00e+00	0	31	104	0	60	39613
2026-01-28 22:26:26.86	19.27	1.92	-47.7	-50.2	3.6	0.00e+00	0	31	104	0	60	39694
2026-01-28 22:26:27.87	19.30	1.99	-47.7	-50.2	3.6	0.00e+00	0	31	104	0	60	39619
2026-01-28 22:26:28.88	19.33	2.06	-47.7	-50.2	3.6	0.00e+00	0	31	104	0	60	39695
2026-01-28 22:26:29.89	19.36	2.13	-47.7	-50.2	3.6	0.00e+00	0	31	104	0	60	39595
2026-01-28 22:26:30.90	19.40	2.20	-47.7	-50.2	3.6	0.00e+00	0	31	104	0	60	39586
2026-01-28 22:26:31.91	19.43	2.27	-47.7	-50.2	3.6	0.00e+00	0	31	104	0	60	39548
2026-01-28 22:26:32.92	19.46	2.34	-47.7	-50.1	3.6	0.00e+00	0	31	104	0	60	39397
2026-01-28 22:26:33.93	19.50	2.41	-47.7	-50.2	3.6	0.00e+00	0	31	104	0	60	39408
2026-01-28 22:26:34.94	19.53	2.48	-47.7	-50.2	3.6	0.00e+00	0	31	104	0	60	39660
2026-01-28 22:26:35.95	19.56	2.55	-47.7	-50.2	3.6	0.00e+00	0	31	104	0	60	39495
2026-01-28 22:26:36.96	19.60	2.62	-47.7	-50.2	3.6	0.00e+00	0	31	104	0	60	39509
2026-01-28 22:26:37.97	19.63	2.69	-47.7	-50.2	3.6	0.00e+00	0	31	104	0	60	39475
2026-01-28 22:26:38.98	19.67	2.76	-47.7	-50.2	3.6	0.00e+00	0	31	104	0	60	39603
2026-01-28 22:26:39.99	19.70	2.83	-47.7	-50.2	3.6	0.00e+00	0	31	104	0	60	39618
2026-01-28 22:26:41.00	19.74	2.91	-47.7	-50.2	3.6	0.00e+00	0	31	104	0	60	39631
2026-01-28 22:26:42.01	19.77	2.98	-47.7	-50.2	3.6	0.00e+00	0	31	104	0	60	39523
2026-01-28 22:26:43.02	19.81	3.05	-47.7	-50.2	3.6	0.00e+00	0	31	104	0	60	39571
2026-01-28 22:26:44.03	19.84	3.12	-47.7	-50.2	3.6	0.00e+00	0	31	104	0	60	39658
2026-01-28 22:26:45.04	19.88	3.20	-47.7	-50.2	3.6	0.00e+00	0	31	104	0	60	39516
2026-01-28 22:26:46.05	19.91	3.27	-47.7	-50.2	3.6	0.00e+00	0	31	104	0	60	39496
2026-01-28 22:26:47.06	19.95	3.34	-47.7	-50.2	3.6	0.00e+00	0	31	104	0	60	39413
2026-01-28 22:26:48.07	19.98	3.42	-47.7	-50.2	3.6	0.00e+00	0	31	104	0	60	39624
2026-01-28 22:26:49.08	20.02	3.49	-47.7	-50.2	3.6	0.00e+00	0	31	104	0	60	39511
2026-01-28 22:26:50.09	20.06	3.57	-47.7	-50.1	3.6	0.00e+00	0	31	104	0	60	39348
2026-01-28 22:26:51.10	20.09	3.64	-47.7	-50.2	3.6	0.00e+00	0	31	104	0	60	39434
2026-01-28 22:26:52.11	20.13	3.71	-47.7	-50.2	3.6	0.00e+00	0	31	104	0	60	39457
2026-01-28 22:26:53.12	20.17	3.79	-47.7	-50.1	3.6	0.00e+00	0	31	104	0	60	39356
2026-01-28 22:26:54.13	20.20	3.86	-47.7	-50.2	3.6	0.00e+00	0	31	104	0	60	39498
2026-01-28 22:26:55.14	20.24	3.94	-47.7	-50.2	3.6	0.00e+00	0	31	104	0	60	39423
2026-01-28 22:26:56.15	20.28	4.02	-47.7	-50.2	3.6	0.00e+00	0	31	104	0	60	39481
2026-01-28 22:26:57.16	20.32	4.09	-47.8	-50.2	3.6	0.00e+00	0	31	104	0	60	39783
2026-01-28 22:26:58.17	20.35	4.17	-47.7	-50.2	3.6	0.00e+00	0	31	104	0	60	39609
2026-01-28 22:26:59.18	20.39	4.24	-47.6	-50.1	3.6	0.00e+00	0	31	104	0	60	39153
2026-01-28 22:27:00.19	20.43	4.32	-47.7	-50.2	3.6	0.00e+00	0	31	104	0	60	39643
2026-01-28 22:27:01.20	20.47	4.40	-47.9	-50.4	3.6	0.00e+00	0	31	104	0	60	40596
2026-01-28 22:27:02.21	20.51	4.48	-47.9	-50.3	3.6	0.00e+00	0	31	104	0	60	40321
2026-01-28 22:27:03.22	20.55	4.55	-46.9	-49.0	3.6	0.00e+00	0	31	104	8388608	60	34595
2026-01-28 22:27:04.23	20.59	4.63	-46.8	-48.8	3.6	0.00e+00	0	31	104	8388608	60	33629
2026-01-28 22:27:05.24	20.63	4.71	-47.7	-50.0	3.6	5.33e-02	0	31	104	8388608	60	38933
2026-01-28 22:27:06.25	20.67	4.79	-44.3	-45.5	3.9	0.00e+00	0	31	104	8388608	60	22941
2026-01-28 22:27:07.26	20.71	4.87	-44.8	-46.1	4.2	0.00e+00	0	31	104	8388608	60	24760
2026-01-28 22:27:08.27	20.75	4.95	-44.1	-43.9	4.4	0.00e+00	1402	32	0	25165824	60	19236
2026-01-28 22:27:09.28	20.79	5.03	-42.9	-42.7	5.2	3.53e-01	2213	32	0	100663296	60	16694
2026-01-28 22:27:10.28	20.83	5.11	-42.8	-42.6	5.1	3.38e-01	2217	32	0	176160768	60	16496
2026-01-28 22:27:11.29	20.87	5.19	-43.3	-43.2	4.8	3.96e-01	2228	32	0	251658240	60	17653
2026-01-28 22:27:12.30	20.91	5.27	-43.8	-43.6	4.5	0.00e+00	2121	32	0	310378496	60	18607
2026-01-28 22:27:13.31	20.95	5.35	-43.9	-43.8	4.8	5.69e-02	2135	32	0	369098752	60	18920
2026-01-28 22:27:14.32	21.00	5.43	-43.0	-42.8	5.3	2.31e-01	2217	32	0	436207616	60	16969
2026-01-28 22:27:15.33	21.04	5.51	-42.3	-42.2	5.2	5.44e-01	2188	32	0	511705088	60	15690
2026-01-28 22:27:16.34	21.08	5.59	-42.9	-42.9	4.9	4.86e-01	2227	32	0	587202560	60	17072
2026-01-28 22:27:17.35	21.12	5.67	-42.0	-42.0	5.9	5.42e-02	2080	32	0	662700032	60	15335
2026-01-28 22:27:18.36	21.17	5.75	-42.3	-42.2	5.4	3.37e-01	2201	32	0	738197504	58	17688
2026-01-28 22:27:19.37	21.21	5.84	-43.0	-42.8	5.5	3.91e-01	2226	32	0	813694976	60	16996
2026-01-28 22:27:20.38	21.25	5.92	-41.5	-41.5	6.4	3.66e-01	0	32	0	889192448	56	18416
2026-01-28 22:27:21.38	21.30	6.00	-38.9	-39.1	8.9	9.20e-02	0	32	0	964689920	54	15661
2026-01-28 22:27:22.39	21.34	6.09	-38.0	-38.2	10.1	2.56e-02	0	32	0	1040187392	52	15824
2026-01-28 22:27:23.40	21.38	6.17	-37.2	-37.5	10.6	9.66e-03	0	32	0	1115684864	50	16377
2026-01-28 22:27:24.41	21.43	6.26	-38.1	-38.4	10.1	3.93e-03	0	32	0	1191182336	50	18049
2026-01-28 22:27:25.42	21.47	6.34	-37.0	-37.3	11.0	3.96e-03	0	32	0	1266679808	48	17832
2026-01-28 22:27:26.42	21.52	6.42	-36.7	-37.0	10.6	2.77e-03	0	32	0	1342177280	48	17243
2026-01-28 22:27:27.43	21.56	6.51	-37.9	-38.2	9.8	4.64e-03	0	32	0	1417674752	50	17699
2026-01-28 22:27:28.44	21.61	6.60	-38.0	-38.3	9.6	5.83e-03	0	32	0	1493172224	50	17856
2026-01-28 22:27:29.45	21.66	6.68	-37.8	-38.1	9.8	8.91e-03	0	32	0	1568669696	50	17498
2026-01-28 22:27:30.46	21.70	6.77	-37.7	-37.9	10.1	7.62e-03	0	32	0	1644167168	50	17199
2026-01-28 22:27:31.47	21.75	6.86	-38.5	-38.7	9.7	7.51e-03	0	32	0	1719664640	50	18747
2026-01-28 22:27:32.48	21.80	6.94	-37.8	-38.1	10.0	6.47e-03	0	32	0	1795162112	50	17465
2026-01-28 22:27:33.49	21.84	7.03	-36.6	-36.9	11.0	4.61e-03	0	32	0	1870659584	50	15252
2026-01-28 22:27:34.50	21.89	7.12	-37.8	-38.0	10.2	2.47e-03	0	32	0	1946157056	50	17366
2026-01-28 22:27:35.51	21.94	7.21	-37.4	-37.7	10.6	2.77e-03	0	32	0	2021654528	50	16630
2026-01-28 22:27:36.52	21.99	7.30	-37.1	-37.4	10.7	5.32e-03	0	32	0	2097152000	50	16145
2026-01-28 22:27:37.53	22.04	7.39	-37.3	-37.6	10.6	4.85e-03	0	32	0	2172649472	50	16542
2026-01-28 22:27:38.54	22.09	7.48	-37.9	-38.2	10.2	3.59e-03	0	32	0	2248146944	50	17622
2026-01-28 22:27:39.55	22.14	7.57	-36.0	-36.3	11.8	2.19e-03	0	32	0	2332033024	48	16037
2026-01-28 22:27:40.56	22.19	7.66	-35.7	-36.1	11.7	3.05e-04	0	32	0	2399141888	48	15565
2026-01-28 22:27:41.57	22.24	7.75	-35.2	-35.6	12.5	3.40e-04	0	32	0	2474639360	46	16431
2026-01-28 22:27:42.58	22.29	7.84	-36.4	-36.7	11.7	2.08e-04	0	32	0	2550136832	46	18744
2026-01-28 22:27:43.58	22.34	7.93	-35.4	-35.8	12.1	4.92e-04	0	32	0	2625634304	46	16858
2026-01-28 22:27:44.59	22.39	8.02	-35.7	-36.0	11.8	3.05e-04	0	32	0	2709520384	46	17342
2026-01-28 22:27:45.60	22.44	8.11	-35.0	-35.4	12.2	3.19e-04	0	33	0	2785017856	46	16071
2026-01-28 22:27:46.61	22.49	8.21	-35.1	-35.4	12.9	9.71e-05	0	33	0	2860515328	44	18207
2026-01-28 22:27:47.62	22.54	8.30	-34.0	-34.4	12.9	6.93e-05	0	33	0	2936012800	44	16233
2026-01-28 22:27:48.63	22.60	8.39	-33.4	-33.8	13.4	2.08e-05	0	33	0	3003121664	44	15023
2026-01-28 22:27:49.64	22.65	8.49	-32.1	-32.5	14.3	0.00e+00	0	32	0	3087007744	40	16341
2026-01-28 22:27:50.65	22.70	8.58	-30.4	-30.8	15.1	0.00e+00	0	33	0	3162505216	36	16930
2026-01-28 22:27:51.66	22.76	8.68	-29.0	-29.4	15.7	0.00e+00	0	33	0	3238002688	34	16116
2026-01-28 22:27:52.67	22.81	8.78	-28.2	-28.7	15.9	0.00e+00	0	33	0	3313500160	32	16714
2026-01-28 22:27:53.68	22.87	8.87	-28.1	-28.5	16.0	0.00e+00	0	33	0	3388997632	32	16331
2026-01-28 22:27:54.69	22.92	8.97	-28.5	-28.9	15.8	0.00e+00	0	33	0	3464495104	32	17182
2026-01-28 22:27:55.70	22.98	9.07	-28.7	-29.2	15.8	0.00e+00	0	33	0	3539992576	32	17673
2026-01-28 22:27:56.71	23.03	9.16	-28.1	-28.5	16.0	0.00e+00	0	33	0	3615490048	32	16333
2026-01-28 22:27:57.71	23.09	9.26	-27.9	-28.4	16.0	0.00e+00	0	33	0	3690987520	32	16112
2026-01-28 22:27:58.72	23.14	9.36	-28.0	-28.5	15.9	0.00e+00	0	33	0	3766484992	32	16266
2026-01-28 22:27:59.73	23.20	9.46	-27.8	-28.3	16.0	0.00e+00	0	33	0	3841982464	32	15889
2026-01-28 22:28:00.74	23.26	9.56	-28.0	-28.4	16.0	0.00e+00	0	33	0	3917479936	30	18143
2026-01-28 22:28:01.75	23.32	9.66	-27.7	-28.1	16.0	0.00e+00	0	33	0	3992977408	30	17570
2026-01-28 22:28:02.75	23.38	9.76	-27.8	-28.2	16.1	0.00e+00	0	33	0	4068474880	30	17729
2026-01-28 22:28:03.76	23.43	9.86	-27.7	-28.1	16.1	0.00e+00	0	33	0	4143972352	30	17563
2026-01-28 22:28:04.77	23.49	9.96	-27.7	-28.2	16.0	0.00e+00	0	33	0	4219469824	30	17667
2026-01-28 22:28:05.78	23.55	10.06	-27.7	-28.2	16.1	0.00e+00	0	33	0	4294967296	30	17637
2026-01-28 22:28:06.79	23.61	10.17	-27.7	-28.1	16.0	0.00e+00	0	33	0	4370464768	30	17585
2026-01-28 22:28:07.80	23.68	10.27	-27.8	-28.2	16.1	0.00e+00	0	33	0	4445962240	30	17747
2026-01-28 22:28:08.81	23.74	10.37	-27.6	-28.0	16.1	0.00e+00	0	33	0	4521459712	30	17371
2026-01-28 22:28:09.82	23.80	10.48	-27.5	-28.0	16.1	0.00e+00	0	33	0	4596957184	30	17269
2026-01-28 22:28:10.82	23.86	10.58	-27.6	-28.1	16.0	0.00e+00	0	33	0	4672454656	30	17434
2026-01-28 22:28:11.83	23.92	10.69	-27.6	-28.1	16.1	0.00e+00	0	33	0	4747952128	30	17480
2026-01-28 22:28:12.84	23.99	10.79	-27.6	-28.0	15.8	0.00e+00	0	33	0	4823449600	30	17324
2026-01-28 22:28:13.85	24.05	10.90	-27.6	-28.0	15.8	0.00e+00	0	33	0	4898947072	30	17277
2026-01-28 22:28:14.86	24.12	11.01	-27.3	-27.8	15.8	0.00e+00	0	33	0	4974444544	30	16832
2026-01-28 22:28:15.87	24.18	11.12	-27.1	-27.6	16.0	0.00e+00	0	33	0	5049942016	30	16478
2026-01-28 22:28:16.88	24.25	11.23	-27.5	-27.9	16.0	0.00e+00	0	33	0	5125439488	30	17190
2026-01-28 22:28:17.89	24.31	11.33	-27.1	-27.6	16.0	0.00e+00	0	33	0	5200936960	30	16511
2026-01-28 22:28:18.90	24.38	11.44	-27.3	-27.7	16.0	0.00e+00	0	33	0	5276434432	30	16786
2026-01-28 22:28:19.91	24.45	11.56	-27.0	-27.4	15.9	0.00e+00	0	33	0	5351931904	30	16179
2026-01-28 22:28:20.92	24.51	11.67	-27.0	-27.4	16.0	0.00e+00	0	33	0	5427429376	30	16137
2026-01-28 22:28:21.93	24.58	11.78	-27.1	-27.5	16.0	0.00e+00	0	33	0	5502926848	30	16343
2026-01-28 22:28:22.93	24.65	11.89	-26.9	-27.3	16.2	0.00e+00	0	33	0	5578424320	30	16032
2026-01-28 22:28:23.94	24.72	12.00	-26.9	-27.3	16.3	0.00e+00	0	33	0	5653921792	30	16000
2026-01-28 22:28:24.95	24.79	12.12	-27.0	-27.5	16.3	0.00e+00	0	33	0	5729419264	30	16241
2026-01-28 22:28:25.96	24.86	12.23	-26.8	-27.3	16.3	0.00e+00	0	33	0	5804916736	30	15944
2026-01-28 22:28:26.96	24.93	12.34	-26.9	-27.4	16.3	0.00e+00	0	33	0	5880414208	28	18019
2026-01-28 22:28:27.98	25.00	12.46	-26.7	-27.2	16.3	0.00e+00	0	33	0	5955911680	28	17606
2026-01-28 22:28:28.99	25.08	12.58	-26.7	-27.2	16.3	0.00e+00	0	33	0	6031409152	28	17629
2026-01-28 22:28:30.00	25.15	12.69	-26.7	-27.1	16.3	0.00e+00	0	33	0	6115295232	28	17547
2026-01-28 22:28:31.00	25.22	12.81	-26.6	-27.0	16.4	0.00e+00	0	33	0	6190792704	28	17352
2026-01-28 22:28:32.01	25.30	12.93	-26.6	-27.0	16.4	0.00e+00	0	33	0	6257901568	28	17332
2026-01-28 22:28:33.02	25.37	13.05	-26.6	-27.1	16.3	0.00e+00	0	33	0	6333399040	28	17442
2026-01-28 22:28:34.03	25.45	13.17	-26.5	-27.0	16.3	0.00e+00	0	33	0	6408896512	28	17244
2026-01-28 22:28:35.04	25.53	13.29	-26.6	-27.0	16.4	0.00e+00	0	33	0	6492782592	28	17343
2026-01-28 22:28:36.05	25.60	13.41	-26.6	-27.1	16.3	0.00e+00	0	33	0	6568280064	28	17421
2026-01-28 22:28:37.06	25.68	13.53	-26.3	-26.8	16.5	0.00e+00	0	33	0	6643777536	28	16876
2026-01-28 22:28:38.07	25.76	13.66	-26.4	-26.9	16.4	0.00e+00	0	33	0	6719275008	28	17076
2026-01-28 22:28:39.08	25.84	13.78	-26.4	-26.8	16.4	0.00e+00	0	33	0	6794772480	28	16885
2026-01-28 22:28:40.09	25.92	13.90	-26.5	-26.9	16.3	0.00e+00	0	33	0	6870269952	28	17140
2026-01-28 22:28:41.10	26.00	14.03	-26.3	-26.8	16.4	0.00e+00	0	33	0	6945767424	28	16813
2026-01-28 22:28:42.11	26.08	14.16	-26.1	-26.6	16.5	0.00e+00	0	33	0	7021264896	28	16485
2026-01-28 22:28:43.12	26.17	14.28	-26.2	-26.7	16.4	0.00e+00	0	33	0	7096762368	28	16621
2026-01-28 22:28:44.13	26.25	14.41	-26.1	-26.6	16.5	0.00e+00	0	33	0	7172259840	28	16516
2026-01-28 22:28:45.14	26.33	14.54	-26.1	-26.5	16.5	0.00e+00	0	33	0	7247757312	28	16398
2026-01-28 22:28:46.15	26.42	14.67	-26.0	-26.5	16.5	0.00e+00	0	33	0	7323254784	28	16334
2026-01-28 22:28:47.16	26.50	14.80	-26.1	-26.5	16.5	0.00e+00	0	33	0	7398752256	28	16398
2026-01-28 22:28:48.17	26.59	14.93	-25.9	-26.3	16.6	0.00e+00	0	33	0	7474249728	28	15980
2026-01-28 22:28:49.18	26.68	15.06	-26.0	-26.4	16.5	0.00e+00	0	33	0	7549747200	28	16156
2026-01-28 22:28:50.18	26.77	15.19	-26.0	-26.5	16.5	0.00e+00	0	33	0	7625244672	28	16317
2026-01-28 22:28:51.19	26.86	15.33	-25.8	-26.2	16.5	0.00e+00	0	33	0	7700742144	28	15808
2026-01-28 22:28:52.20	26.95	15.46	-25.9	-26.3	16.4	0.00e+00	0	33	0	7776239616	28	16015
2026-01-28 22:28:53.21	27.04	15.60	-25.8	-26.3	16.3	0.00e+00	0	33	0	7851737088	26	17855
2026-01-28 22:28:54.22	27.13	15.73	-25.7	-26.1	16.4	0.00e+00	0	33	0	7927234560	26	17518
2026-01-28 22:28:55.22	27.22	15.87	-25.8	-26.2	16.4	0.00e+00	0	33	0	8002732032	26	17792
2026-01-28 22:28:56.23	27.32	16.01	-25.7	-26.1	16.5	0.00e+00	0	33	0	8078229504	26	17563
2026-01-28 22:28:57.24	27.41	16.15	-25.7	-26.1	16.6	0.00e+00	0	33	0	8153726976	26	17531
2026-01-28 22:28:58.25	27.51	16.29	-25.5	-26.0	16.6	0.00e+00	0	33	0	8229224448	26	17242
2026-01-28 22:28:59.26	27.60	16.43	-25.6	-26.0	16.6	0.00e+00	0	33	0	8304721920	26	17380
2026-01-28 22:29:00.27	27.70	16.57	-25.6	-26.0	16.6	0.00e+00	0	33	0	8380219392	26	17324
2026-01-28 22:29:01.28	27.80	16.71	-25.6	-26.1	16.6	0.00e+00	0	33	0	8455716864	26	17402
2026-01-28 22:29:02.28	27.90	16.86	-25.4	-25.8	16.6	0.00e+00	0	33	0	8531214336	26	16996
2026-01-28 22:29:03.29	28.00	17.00	-25.5	-25.9	16.5	0.00e+00	0	33	0	8606711808	26	17141
2026-01-28 22:29:04.30	28.10	17.15	-25.3	-25.7	16.7	0.00e+00	0	33	0	8682209280	26	16783
2026-01-28 22:29:05.31	28.21	17.30	-25.3	-25.7	16.7	0.00e+00	0	33	0	8757706752	26	16773
2026-01-28 22:29:06.32	28.31	17.44	-25.2	-25.7	16.7	0.00e+00	0	33	0	8833204224	26	16672
2026-01-28 22:29:07.33	28.42	17.59	-25.2	-25.7	16.6	0.00e+00	0	33	0	8908701696	26	16646
2026-01-28 22:29:08.34	28.52	17.74	-25.1	-25.6	16.7	0.00e+00	0	33	0	8984199168	26	16441
2026-01-28 22:29:09.35	28.63	17.90	-25.2	-25.6	16.7	0.00e+00	0	33	0	9059696640	26	16543
2026-01-28 22:29:10.36	28.74	18.05	-25.1	-25.5	16.5	0.00e+00	0	33	0	9135194112	26	16403
2026-01-28 22:29:11.37	28.85	18.20	-25.0	-25.5	16.6	0.00e+00	0	33	0	9210691584	26	16259
2026-01-28 22:29:12.38	28.96	18.36	-25.1	-25.5	16.6	0.00e+00	0	33	0	9286189056	26	16355
2026-01-28 22:29:13.38	29.08	18.51	-25.0	-25.4	16.7	0.00e+00	0	33	0	9361686528	26	16177
2026-01-28 22:29:14.40	29.19	18.67	-24.9	-25.4	16.7	0.00e+00	0	33	0	9445572608	26	16107
2026-01-28 22:29:15.41	29.31	18.83	-24.9	-25.3	16.8	0.00e+00	0	33	0	9521070080	26	15974
2026-01-28 22:29:16.42	29.42	18.99	-24.8	-25.2	16.8	0.00e+00	0	33	0	9588178944	26	15811
2026-01-28 22:29:17.42	29.54	19.15	-24.8	-25.2	16.8	0.00e+00	0	33	0	9663676416	24	17741
2026-01-28 22:29:18.43	29.66	19.31	-24.7	-25.2	16.7	0.00e+00	0	33	0	9739173888	24	17610
2026-01-28 22:29:19.44	29.78	19.47	-24.7	-25.2	16.7	0.00e+00	0	33	0	9823059968	24	17671
2026-01-28 22:29:20.45	29.90	19.64	-24.7	-25.1	16.7	0.00e+00	0	33	0	9898557440	24	17528
2026-01-28 22:29:21.46	30.03	19.80	-24.5	-25.0	16.8	0.00e+00	0	33	0	9974054912	24	17218
2026-01-28 22:29:22.47	30.15	19.97	-24.7	-25.2	16.8	0.00e+00	0	33	0	10049552384	24	17612
2026-01-28 22:29:23.48	30.28	20.14	-24.6	-25.0	16.8	0.00e+00	0	33	0	10125049856	24	17297
2026-01-28 22:29:24.49	30.41	20.31	-24.5	-25.0	16.8	0.00e+00	0	33	0	10200547328	24	17267
2026-01-28 22:29:25.50	30.54	20.48	-24.7	-25.2	16.7	0.00e+00	0	33	0	10276044800	24	17725
2026-01-28 22:29:26.50	30.67	20.65	-24.4	-24.8	16.8	0.00e+00	0	33	0	10351542272	24	16960
2026-01-28 22:29:27.51	30.80	20.83	-24.5	-24.9	16.8	0.00e+00	0	33	0	10427039744	24	17165
2026-01-28 22:29:28.52	30.94	21.00	-24.3	-24.8	16.8	0.00e+00	0	33	0	10502537216	24	16885
2026-01-28 22:29:29.53	31.08	21.18	-24.3	-24.7	16.8	0.00e+00	0	33	0	10578034688	24	16779
2026-01-28 22:29:30.53	31.21	21.35	-24.3	-24.7	16.8	0.00e+00	0	33	0	10653532160	24	16764
2026-01-28 22:29:31.54	31.35	21.53	-24.1	-24.6	16.9	0.00e+00	0	33	0	10729029632	24	16497
2026-01-28 22:29:32.55	31.49	21.71	-24.1	-24.6	16.8	0.00e+00	0	33	0	10804527104	24	16480
2026-01-28 22:29:33.56	31.64	21.90	-24.0	-24.5	16.9	0.00e+00	0	33	0	10880024576	24	16247
2026-01-28 22:29:34.57	31.78	22.08	-23.9	-24.4	16.9	0.00e+00	0	33	0	10955522048	24	16157
2026-01-28 22:29:35.58	31.93	22.27	-24.0	-24.4	16.9	0.00e+00	0	33	0	11031019520	24	16162
2026-01-28 22:29:36.59	32.08	22.45	-23.9	-24.3	16.9	0.00e+00	0	33	0	11106516992	24	16052
2026-01-28 22:29:37.60	32.23	22.64	-23.9	-24.4	16.9	0.00e+00	0	33	0	11182014464	24	16088
2026-01-28 22:29:38.61	32.39	22.83	-23.8	-24.3	16.9	0.00e+00	0	33	0	11257511936	24	15927
2026-01-28 22:29:39.62	32.54	23.02	-23.7	-24.2	16.8	0.00e+00	0	33	0	11333009408	22	17667
2026-01-28 22:29:40.63	32.70	23.21	-23.8	-24.3	16.9	0.00e+00	0	33	0	11408506880	22	17904
2026-01-28 22:29:41.64	32.86	23.41	-23.8	-24.3	16.9	0.00e+00	0	33	0	11484004352	22	17901
2026-01-28 22:29:42.65	33.02	23.60	-23.8	-24.2	16.8	0.00e+00	0	33	0	11559501824	22	17730
2026-01-28 22:29:43.66	33.19	23.80	-23.7	-24.2	16.9	0.00e+00	0	33	0	11634999296	22	17620
2026-01-28 22:29:44.67	33.35	24.00	-23.6	-24.1	16.9	0.00e+00	0	33	0	11710496768	22	17500
2026-01-28 22:29:45.68	33.52	24.20	-23.7	-24.1	16.9	0.00e+00	0	33	0	11785994240	22	17536
2026-01-28 22:29:46.69	33.69	24.41	-23.6	-24.0	16.9	0.00e+00	0	33	0	11861491712	22	17350
2026-01-28 22:29:47.70	33.87	24.61	-23.5	-24.0	17.0	0.00e+00	0	33	0	11936989184	22	17255
2026-01-28 22:29:48.71	34.04	24.82	-23.4	-23.9	16.9	0.00e+00	0	33	0	12012486656	22	17062
2026-01-28 22:29:49.72	34.22	25.02	-23.4	-23.9	16.8	0.00e+00	0	33	0	12087984128	22	17057
2026-01-28 22:29:50.73	34.40	25.23	-23.3	-23.8	16.9	0.00e+00	0	33	0	12163481600	22	16898
2026-01-28 22:29:51.74	34.59	25.44	-23.3	-23.8	16.9	0.00e+00	0	33	0	12247367680	22	16847
2026-01-28 22:29:52.75	34.77	25.66	-23.3	-23.7	16.9	0.00e+00	0	33	0	12314476544	22	16749
2026-01-28 22:29:53.76	34.96	25.87	-23.2	-23.6	16.9	0.00e+00	0	33	0	12389974016	22	16593
2026-01-28 22:29:54.77	35.15	26.09	-23.2	-23.6	16.9	0.00e+00	0	33	0	12465471488	22	16617
2026-01-28 22:29:55.78	35.35	26.31	-23.1	-23.6	16.9	0.00e+00	0	33	0	12540968960	22	16495
2026-01-28 22:29:56.79	35.55	26.53	-23.1	-23.6	16.9	0.00e+00	0	33	0	12624855040	22	16493
2026-01-28 22:29:57.80	35.75	26.75	-23.1	-23.5	16.9	0.00e+00	0	33	0	12700352512	22	16363
2026-01-28 22:29:58.81	35.95	26.97	-23.0	-23.5	17.0	0.00e+00	0	34	0	12775849984	22	16359
2026-01-28 22:29:59.81	36.15	27.20	-22.9	-23.4	16.9	0.00e+00	0	33	0	12851347456	22	16091
2026-01-28 22:30:00.82	36.36	27.43	-22.9	-23.3	16.9	0.00e+00	0	33	0	12918456320	22	16017
2026-01-28 22:30:01.83	36.58	27.65	-22.7	-23.1	16.9	0.00e+00	0	33	0	12993953792	20	17535
2026-01-28 22:30:02.84	36.79	27.89	-22.6	-23.1	17.0	0.00e+00	0	33	0	13077839872	20	17464
2026-01-28 22:30:03.85	37.01	28.12	-22.7	-23.1	17.0	0.00e+00	0	33	0	13153337344	20	17580
2026-01-28 22:30:04.85	37.24	28.35	-22.5	-23.0	17.0	0.00e+00	0	33	0	13228834816	20	17286
2026-01-28 22:30:05.86	37.46	28.59	-22.6	-23.0	17.0	0.00e+00	0	33	0	13304332288	20	17353
2026-01-28 22:30:06.87	37.69	28.83	-22.4	-22.8	17.0	0.00e+00	0	33	0	13379829760	20	16942
2026-01-28 22:30:07.88	37.93	29.07	-22.5	-22.9	17.0	0.00e+00	0	33	0	13446938624	20	17128
2026-01-28 22:30:08.89	38.16	29.31	-22.4	-22.9	17.0	0.00e+00	0	33	0	13530824704	20	17073
2026-01-28 22:30:09.90	38.41	29.56	-22.2	-22.7	17.0	0.00e+00	0	33	0	13606322176	20	16693
2026-01-28 22:30:10.91	38.65	29.81	-22.3	-22.7	16.9	0.00e+00	0	33	0	13681819648	20	16797
2026-01-28 22:30:11.92	38.90	30.06	-22.2	-22.6	17.0	0.00e+00	0	33	0	13757317120	20	16540
2026-01-28 22:30:12.93	39.16	30.31	-22.1	-22.5	17.0	0.00e+00	0	33	0	13832814592	20	16399
2026-01-28 22:30:13.94	39.41	30.56	-22.2	-22.7	16.9	0.00e+00	0	33	0	13908312064	20	16650
2026-01-28 22:30:14.95	39.68	30.82	-21.9	-22.4	17.0	0.00e+00	0	33	0	13983809536	20	16151
2026-01-28 22:30:15.96	39.94	31.08	-22.1	-22.5	17.0	0.00e+00	0	33	0	14059307008	20	16335
2026-01-28 22:30:16.96	40.21	31.33	-22.0	-22.5	17.1	0.00e+00	0	33	0	14134804480	20	16253
2026-01-28 22:30:17.98	40.49	31.60	-21.9	-22.3	17.1	0.00e+00	0	33	0	14210301952	20	16018
2026-01-28 22:30:18.99	40.77	31.86	-21.8	-22.3	17.1	0.00e+00	0	33	0	14285799424	20	15894
2026-01-28 22:30:20.00	41.06	32.13	-21.7	-22.1	17.0	0.00e+00	0	33	0	14361296896	18	17527
2026-01-28 22:30:21.00	41.35	32.39	-21.7	-22.1	17.0	0.00e+00	0	33	0	14436794368	18	17523
2026-01-28 22:30:22.02	41.65	32.67	-21.7	-22.1	17.0	0.00e+00	0	33	0	14512291840	18	17585
2026-01-28 22:30:23.02	41.95	32.93	-21.6	-22.0	17.1	0.00e+00	0	33	0	14587789312	18	17368
2026-01-28 22:30:24.04	42.26	33.21	-21.6	-22.0	17.0	0.00e+00	0	34	0	14663286784	18	17384
2026-01-28 22:30:25.04	42.56	33.49	-21.5	-22.0	17.0	0.00e+00	0	33	0	14738784256	18	17307
2026-01-28 22:30:26.05	42.88	33.76	-21.5	-22.0	17.1	0.00e+00	0	34	0	14814281728	18	17238
2026-01-28 22:30:27.06	43.21	34.04	-21.5	-22.0	17.1	0.00e+00	0	34	0	14889779200	18	17251
2026-01-28 22:30:28.07	43.54	34.33	-21.5	-21.9	17.1	0.00e+00	0	33	0	14965276672	18	17182
2026-01-28 22:30:29.08	43.87	34.61	-21.3	-21.8	17.1	0.00e+00	0	34	0	15040774144	18	16862
2026-01-28 22:30:30.09	44.21	34.90	-21.2	-21.7	17.0	0.00e+00	0	33	0	15116271616	18	16645
2026-01-28 22:30:31.10	44.56	35.19	-21.2	-21.6	17.1	0.00e+00	0	34	0	15191769088	18	16589
2026-01-28 22:30:32.11	44.92	35.48	-21.1	-21.6	17.0	0.00e+00	0	34	0	15267266560	18	16451
2026-01-28 22:30:33.12	45.28	35.77	-21.1	-21.6	17.1	0.00e+00	0	34	0	15342764032	18	16439
2026-01-28 22:30:34.13	45.65	36.06	-20.9	-21.4	17.1	0.00e+00	0	34	0	15418261504	18	16166
2026-01-28 22:30:35.14	46.02	36.36	-21.1	-21.5	16.9	0.00e+00	0	33	0	15493758976	18	16387
2026-01-28 22:30:36.14	46.40	36.65	-21.0	-21.4	17.1	0.00e+00	0	34	0	15569256448	18	16161
2026-01-28 22:30:37.15	46.79	36.95	-20.9	-21.3	17.0	0.00e+00	0	33	0	15644753920	18	16017
2026-01-28 22:30:38.16	47.19	37.25	-20.8	-21.3	17.1	0.00e+00	0	33	0	15720251392	18	15887
2026-01-28 22:30:39.17	47.59	37.56	-20.8	-21.2	17.1	0.00e+00	0	33	0	15795748864	18	15869
2026-01-28 22:30:40.18	48.01	37.86	-20.8	-21.3	17.1	0.00e+00	0	33	0	15871246336	18	15916
2026-01-28 22:30:41.19	48.43	38.17	-20.9	-21.3	17.1	0.00e+00	0	33	0	15955132416	16	17957
2026-01-28 22:30:42.20	48.86	38.47	-20.9	-21.3	17.2	0.00e+00	0	33	0	16030629888	16	17915
2026-01-28 22:30:43.21	49.29	38.78	-20.6	-21.1	17.1	0.00e+00	0	33	0	16106127360	16	17511
2026-01-28 22:30:44.22	49.74	39.09	-20.7	-21.1	17.2	0.00e+00	0	34	0	16173236224	16	17571
2026-01-28 22:30:45.23	50.20	39.41	-20.8	-21.2	17.1	0.00e+00	0	34	0	16248733696	16	17775
2026-01-28 22:30:46.24	50.66	39.72	-20.5	-21.0	17.1	0.00e+00	0	33	0	16332619776	16	17335
2026-01-28 22:30:47.25	51.14	40.03	-20.5	-21.0	17.1	0.00e+00	0	33	0	16408117248	16	17212
2026-01-28 22:30:48.25	51.62	40.34	-20.5	-21.0	17.1	0.00e+00	0	34	0	16483614720	16	17208
2026-01-28 22:30:49.26	52.11	40.66	-20.4	-20.8	17.2	0.00e+00	0	33	0	16559112192	16	16982
2026-01-28 22:30:50.27	52.61	40.98	-20.3	-20.8	17.2	0.00e+00	0	33	0	16634609664	16	16858
2026-01-28 22:30:51.29	53.13	41.30	-20.5	-20.9	17.2	0.00e+00	0	34	0	16710107136	16	17167
2026-01-28 22:30:52.30	53.66	41.62	-20.4	-20.9	17.2	0.00e+00	0	33	0	16785604608	16	17053
2026-01-28 22:30:53.31	54.19	41.94	-20.5	-21.0	17.1	0.00e+00	0	34	0	16861102080	16	17256
2026-01-28 22:30:54.32	54.74	42.26	-20.2	-20.7	17.1	0.00e+00	0	34	0	16936599552	16	16732
2026-01-28 22:30:55.33	55.30	42.58	-20.2	-20.7	17.2	0.00e+00	0	33	0	17012097024	16	16646
2026-01-28 22:30:56.34	55.87	42.90	-20.1	-20.5	17.2	0.00e+00	0	34	0	17087594496	16	16352
2026-01-28 22:30:57.35	56.45	43.22	-20.0	-20.4	17.2	0.00e+00	0	33	0	17163091968	16	16235
2026-01-28 22:30:58.36	57.04	43.54	-19.8	-20.3	17.2	0.00e+00	0	33	0	17238589440	16	15908
2026-01-28 22:30:59.37	57.65	43.85	-19.8	-20.3	17.2	0.00e+00	0	33	0	17314086912	16	15958
2026-01-28 22:31:00.38	58.27	44.17	-19.8	-20.2	17.2	0.00e+00	0	34	0	17389584384	16	15851
2026-01-28 22:31:01.39	58.90	44.49	-19.7	-20.2	17.2	0.00e+00	0	34	0	17465081856	14	17687
2026-01-28 22:31:02.40	59.54	44.81	-19.6	-20.1	17.2	0.00e+00	0	33	0	17540579328	14	17467
2026-01-28 22:31:03.41	60.20	45.13	-19.7	-20.2	17.2	0.00e+00	0	34	0	17616076800	14	17623
2026-01-28 22:31:04.42	60.87	45.44	-19.8	-20.2	17.2	0.00e+00	0	33	0	17691574272	14	17793
2026-01-28 22:31:05.42	61.55	45.75	-19.5	-20.0	17.2	0.00e+00	0	34	0	17767071744	14	17301
2026-01-28 22:31:06.43	62.25	46.06	-19.5	-20.0	17.2	0.00e+00	0	34	0	17842569216	14	17231
2026-01-28 22:31:07.44	62.96	46.37	-19.6	-20.0	17.2	0.00e+00	0	34	0	17918066688	14	17366
2026-01-28 22:31:08.45	63.69	46.68	-19.6	-20.0	17.2	0.00e+00	0	33	0	17993564160	14	17388
2026-01-28 22:31:09.45	64.43	46.98	-19.4	-19.9	17.3	0.00e+00	0	34	0	18069061632	14	17015
2026-01-28 22:31:10.46	65.18	47.29	-19.5	-20.0	17.1	0.00e+00	0	34	0	18144559104	14	17313
2026-01-28 22:31:11.48	65.96	47.59	-19.4	-19.9	17.3	0.00e+00	0	34	0	18220056576	14	17063
2026-01-28 22:31:12.49	66.75	47.89	-19.4	-19.9	17.2	0.00e+00	0	34	0	18295554048	14	17093
2026-01-28 22:31:13.49	67.55	48.18	-19.2	-19.7	17.1	0.00e+00	0	34	0	18371051520	14	16696
2026-01-28 22:31:14.50	68.37	48.46	-19.3	-19.8	17.2	0.00e+00	0	34	0	18446548992	14	16836
2026-01-28 22:31:15.51	69.20	48.75	-19.3	-19.8	17.2	0.00e+00	0	34	0	18522046464	14	16845
2026-01-28 22:31:16.52	70.05	49.03	-19.2	-19.7	17.2	0.00e+00	0	34	0	18597543936	14	16724
2026-01-28 22:31:17.53	70.92	49.31	-19.1	-19.6	17.2	0.00e+00	0	34	0	18673041408	14	16499
2026-01-28 22:31:18.54	71.80	49.58	-19.2	-19.7	17.2	0.00e+00	0	34	0	18748538880	14	16628
2026-01-28 22:31:19.54	72.69	49.84	-19.1	-19.6	17.2	0.00e+00	0	34	0	18832424960	14	16498
2026-01-28 22:31:20.56	73.61	50.10	-19.0	-19.5	17.3	0.00e+00	0	34	0	18899533824	14	16277
2026-01-28 22:31:21.57	74.54	50.36	-19.0	-19.5	17.2	0.00e+00	0	34	0	18975031296	14	16265
2026-01-28 22:31:22.57	75.48	50.60	-19.0	-19.5	17.2	0.00e+00	0	34	0	19050528768	14	16323
2026-01-28 22:31:23.58	76.44	50.85	-19.0	-19.5	17.2	0.00e+00	0	34	0	19126026240	14	16341
2026-01-28 22:31:24.59	77.42	51.08	-18.8	-19.3	17.2	0.00e+00	0	34	0	19209912320	14	15977
2026-01-28 22:31:25.60	78.41	51.31	-18.9	-19.4	17.2	0.00e+00	0	34	0	19285409792	14	16140
2026-01-28 22:31:26.61	79.42	51.53	-18.9	-19.4	17.2	0.00e+00	0	34	0	19360907264	14	16064
2026-01-28 22:31:27.62	80.45	51.74	-18.9	-19.3	17.3	0.00e+00	0	34	0	19428016128	14	15988
2026-01-28 22:31:28.63	81.48	51.94	-18.8	-19.3	17.3	0.00e+00	0	34	0	19503513600	14	15937
2026-01-28 22:31:29.64	82.54	52.13	-18.8	-19.3	17.2	0.00e+00	0	34	0	19587399680	14	15887
2026-01-28 22:31:30.65	83.60	52.32	-18.9	-19.3	17.2	0.00e+00	0	34	0	19662897152	14	16034
2026-01-28 22:31:31.66	84.68	52.50	-18.9	-19.4	17.2	0.00e+00	0	34	0	19738394624	14	16143
2026-01-28 22:31:32.66	85.76	52.66	-18.9	-19.4	17.2	0.00e+00	0	34	0	19813892096	14	16144
2026-01-28 22:31:33.68	86.88	52.82	-18.9	-19.3	17.2	0.00e+00	0	34	0	19889389568	14	16002
2026-01-28 22:31:34.69	87.99	52.96	-18.7	-19.2	17.2	0.00e+00	0	34	0	19964887040	14	15769
2026-01-28 22:31:35.69	89.11	53.10	-18.9	-19.4	17.2	0.00e+00	0	34	0	20040384512	12	18112
2026-01-28 22:31:36.70	90.25	53.22	-18.9	-19.3	17.3	0.00e+00	0	34	0	20115881984	12	17927
2026-01-28 22:31:37.71	91.39	53.34	-18.7	-19.2	17.3	0.00e+00	0	34	0	20191379456	12	17668
2026-01-28 22:31:38.72	92.55	53.44	-18.8	-19.3	17.3	0.00e+00	0	34	0	20266876928	12	17843
2026-01-28 22:31:39.73	93.71	53.53	-18.9	-19.3	17.2	0.00e+00	0	34	0	20342374400	12	17918
2026-01-28 22:31:40.74	94.88	53.61	-18.7	-19.2	17.2	0.00e+00	0	34	0	20417871872	12	17632
2026-01-28 22:31:41.75	96.06	53.68	-18.7	-19.1	17.2	0.00e+00	0	34	0	20493369344	12	17601
2026-01-28 22:31:42.76	97.24	53.74	-18.8	-19.3	17.2	0.00e+00	0	33	0	20568866816	12	17895
2026-01-28 22:31:43.77	98.43	53.78	-18.9	-19.4	17.3	0.00e+00	0	33	0	20644364288	12	18018
2026-01-28 22:31:44.78	99.62	53.82	-18.6	-19.1	17.2	0.00e+00	0	34	0	20719861760	12	17516
2026-01-28 22:31:45.79	100.81	53.84	-18.6	-19.1	17.2	0.00e+00	0	34	0	20795359232	12	17537
2026-01-28 22:31:46.80	102.00	53.85	-18.7	-19.2	17.2	0.00e+00	0	34	0	20870856704	12	17712
2026-01-28 22:31:47.81	103.19	53.84	-18.7	-19.2	17.2	0.00e+00	0	34	0	20946354176	12	17720
2026-01-28 22:31:48.82	104.39	53.83	-18.7	-19.2	17.2	0.00e+00	0	34	0	21021851648	12	17637
2026-01-28 22:31:49.83	105.58	53.80	-18.7	-19.2	17.2	0.00e+00	0	34	0	21097349120	12	17665
2026-01-28 22:31:50.84	106.77	53.76	-18.8	-19.3	17.3	0.00e+00	0	34	0	21172846592	12	17826
2026-01-28 22:31:51.85	107.95	53.71	-18.7	-19.2	17.3	0.00e+00	0	34	0	21248344064	12	17638
2026-01-28 22:31:52.86	109.13	53.64	-18.8	-19.2	17.4	0.00e+00	0	34	0	21323841536	12	17775
2026-01-28 22:31:53.87	110.30	53.57	-18.6	-19.1	17.2	0.00e+00	0	34	0	21399339008	12	17505
2026-01-28 22:31:54.88	111.47	53.48	-18.7	-19.2	17.3	0.00e+00	0	34	0	21474836480	12	17623
2026-01-28 22:31:55.88	112.62	53.38	-18.7	-19.2	17.2	0.00e+00	0	34	0	21550333952	12	17611
2026-01-28 22:31:56.89	113.77	53.27	-18.7	-19.1	17.2	0.00e+00	0	34	0	21625831424	12	17600
2026-01-28 22:31:57.90	114.91	53.15	-18.8	-19.2	17.2	0.00e+00	0	34	0	21701328896	12	17792
2026-01-28 22:31:58.91	116.04	53.02	-18.7	-19.2	17.2	0.00e+00	0	34	0	21776826368	12	17627
2026-01-28 22:31:59.92	117.16	52.87	-18.8	-19.3	17.2	0.00e+00	0	34	0	21852323840	12	17821
2026-01-28 22:32:00.93	118.27	52.72	-18.7	-19.2	17.3	0.00e+00	0	34	0	21927821312	12	17629
2026-01-28 22:32:01.95	119.38	52.56	-18.8	-19.2	17.3	0.00e+00	0	34	0	22011707392	12	17741
2026-01-28 22:32:02.96	120.46	52.38	-18.8	-19.3	17.3	0.00e+00	0	34	0	22087204864	12	17898
2026-01-28 22:32:03.97	121.53	52.20	-18.9	-19.4	17.2	0.00e+00	0	34	0	22154313728	12	18127
2026-01-28 22:32:04.97	122.58	52.01	-19.1	-19.6	17.2	0.00e+00	0	34	0	22229811200	12	18455
2026-01-28 22:32:05.98	123.63	51.81	-19.0	-19.5	17.2	0.00e+00	0	34	0	22305308672	12	18278
2026-01-28 22:32:06.99	124.65	51.60	-19.0	-19.4	17.3	0.00e+00	0	34	0	22389194752	12	18141
2026-01-28 22:32:08.00	125.67	51.39	-18.9	-19.4	17.2	0.00e+00	0	34	0	22464692224	12	18126
2026-01-28 22:32:09.01	126.67	51.16	-18.9	-19.4	17.3	0.00e+00	0	34	0	22540189696	12	18027
2026-01-28 22:32:10.02	127.65	50.93	-19.0	-19.4	17.2	0.00e+00	0	34	0	22615687168	12	18155
2026-01-28 22:32:11.03	128.62	50.69	-19.1	-19.5	17.2	0.00e+00	0	34	0	22691184640	12	18393
2026-01-28 22:32:12.04	129.57	50.45	-19.0	-19.5	17.2	0.00e+00	0	34	0	22758293504	12	18314
2026-01-28 22:32:13.05	130.51	50.19	-19.0	-19.5	17.3	0.00e+00	0	34	0	22842179584	12	18358
2026-01-28 22:32:14.06	131.43	49.94	-19.1	-19.6	17.2	0.00e+00	0	34	0	22917677056	12	18450
2026-01-28 22:32:15.06	132.33	49.67	-19.1	-19.5	17.2	0.00e+00	0	34	0	22993174528	12	18389
2026-01-28 22:32:16.07	133.22	49.40	-19.3	-19.7	17.2	0.00e+00	0	34	0	23068672000	12	18799
2026-01-28 22:32:17.08	134.09	49.13	-19.2	-19.6	17.2	0.00e+00	0	34	0	23144169472	12	18639
2026-01-28 22:32:18.09	134.95	48.85	-19.3	-19.8	17.2	0.00e+00	0	34	0	23219666944	12	18939
2026-01-28 22:32:19.10	135.79	48.57	-19.3	-19.8	17.3	0.00e+00	0	34	0	23295164416	12	18900
2026-01-28 22:32:20.11	136.62	48.28	-19.3	-19.8	17.3	0.00e+00	0	34	0	23370661888	12	18904
2026-01-28 22:32:21.12	137.43	47.99	-19.3	-19.8	17.2	0.00e+00	0	34	0	23446159360	12	18935
2026-01-28 22:32:22.13	138.22	47.69	-19.4	-19.8	17.2	0.00e+00	0	34	0	23521656832	12	19050
2026-01-28 22:32:23.14	139.00	47.39	-19.4	-19.9	17.2	0.00e+00	0	34	0	23597154304	12	19141
2026-01-28 22:32:24.15	139.76	47.09	-19.4	-19.9	17.2	0.00e+00	0	34	0	23672651776	12	19124
2026-01-28 22:32:25.15	140.50	46.79	-19.5	-19.9	17.1	0.00e+00	0	34	0	23748149248	12	19290
2026-01-28 22:32:26.17	141.25	46.48	-19.5	-20.0	17.2	0.00e+00	0	34	0	23823646720	12	19336
2026-01-28 22:32:27.17	141.96	46.17	-19.5	-19.9	17.2	0.00e+00	0	34	0	23899144192	12	19300
2026-01-28 22:32:28.18	142.66	45.86	-19.6	-20.0	17.2	0.00e+00	0	34	0	23974641664	12	19509
2026-01-28 22:32:29.19	143.35	45.54	-19.6	-20.0	17.2	0.00e+00	0	34	0	24050139136	12	19515
2026-01-28 22:32:30.20	144.03	45.23	-19.7	-20.2	17.2	0.00e+00	0	34	0	24125636608	12	19850
2026-01-28 22:32:31.21	144.69	44.91	-19.7	-20.2	17.2	0.00e+00	0	34	0	24201134080	14	17652
2026-01-28 22:32:32.21	145.34	44.60	-19.8	-20.3	17.2	0.00e+00	0	34	0	24276631552	14	17852
2026-01-28 22:32:33.22	145.97	44.28	-19.9	-20.3	17.2	0.00e+00	0	34	0	24352129024	14	17966
2026-01-28 22:32:34.23	146.60	43.96	-19.8	-20.2	17.2	0.00e+00	0	34	0	24427626496	14	17753
2026-01-28 22:32:35.24	147.21	43.64	-19.9	-20.4	17.2	0.00e+00	0	34	0	24503123968	14	18049
2026-01-28 22:32:36.24	147.80	43.32	-19.9	-20.3	17.2	0.00e+00	0	34	0	24578621440	14	17941
2026-01-28 22:32:37.25	148.39	43.00	-20.0	-20.5	17.2	0.00e+00	0	34	0	24654118912	14	18293
2026-01-28 22:32:38.25	148.96	42.68	-20.1	-20.6	17.2	0.00e+00	0	34	0	24729616384	14	18566
2026-01-28 22:32:39.26	149.52	42.36	-20.1	-20.5	17.2	0.00e+00	0	34	0	24805113856	14	18399
2026-01-28 22:32:40.27	150.07	42.04	-20.1	-20.6	17.3	0.00e+00	0	34	0	24880611328	14	18477
2026-01-28 22:32:41.28	150.61	41.72	-20.1	-20.6	17.2	0.00e+00	0	34	0	24956108800	14	18528
2026-01-28 22:32:42.29	151.14	41.40	-20.3	-20.7	17.1	0.00e+00	0	34	0	25031606272	14	18849
2026-01-28 22:32:43.30	151.66	41.09	-20.3	-20.7	17.1	0.00e+00	0	34	0	25107103744	14	18814
2026-01-28 22:32:44.31	152.17	40.77	-20.2	-20.7	17.2	0.00e+00	0	34	0	25182601216	14	18712
2026-01-28 22:32:45.32	152.67	40.45	-20.4	-20.8	17.1	0.00e+00	0	34	0	25258098688	14	19053
2026-01-28 22:32:46.33	153.16	40.13	-20.4	-20.8	17.2	0.00e+00	0	34	0	25333596160	14	19026
2026-01-28 22:32:47.34	153.64	39.82	-20.4	-20.8	17.1	0.00e+00	0	34	0	25409093632	14	19042
2026-01-28 22:32:48.35	154.10	39.50	-20.5	-20.9	17.2	0.00e+00	0	34	0	25484591104	14	19289
2026-01-28 22:32:49.36	154.56	39.19	-20.6	-21.1	17.2	0.00e+00	0	34	0	25560088576	14	19578
2026-01-28 22:32:50.37	155.01	38.88	-20.6	-21.0	17.2	0.00e+00	0	34	0	25635586048	14	19476
2026-01-28 22:32:51.38	155.46	38.57	-20.6	-21.1	17.2	0.00e+00	0	34	0	25711083520	14	19576
2026-01-28 22:32:52.38	155.89	38.26	-20.7	-21.2	17.2	0.00e+00	0	34	0	25786580992	16	17647
2026-01-28 22:32:53.39	156.31	37.96	-20.8	-21.3	17.2	0.00e+00	0	34	0	25870467072	16	17839
2026-01-28 22:32:54.40	156.73	37.65	-20.7	-21.2	17.2	0.00e+00	0	34	0	25945964544	16	17702
2026-01-28 22:32:55.41	157.14	37.35	-20.8	-21.3	17.2	0.00e+00	0	34	0	26013073408	16	17860
2026-01-28 22:32:56.41	157.53	37.05	-20.9	-21.3	17.2	0.00e+00	0	34	0	26088570880	16	17980
2026-01-28 22:32:57.42	157.93	36.75	-20.9	-21.4	17.2	0.00e+00	0	34	0	26164068352	16	18053
2026-01-28 22:32:58.42	158.31	36.45	-21.0	-21.5	17.2	0.00e+00	0	34	0	26239565824	16	18272
2026-01-28 22:32:59.43	158.69	36.15	-21.0	-21.5	17.1	0.00e+00	0	34	0	26315063296	16	18278
2026-01-28 22:33:00.44	159.06	35.86	-21.1	-21.5	17.2	0.00e+00	0	34	0	26398949376	16	18428
2026-01-28 22:33:01.45	159.42	35.56	-21.1	-21.6	17.1	0.00e+00	0	34	0	26474446848	16	18477
2026-01-28 22:33:02.46	159.78	35.27	-21.1	-21.6	17.1	0.00e+00	0	34	0	26549944320	16	18462
2026-01-28 22:33:03.47	160.13	34.98	-21.2	-21.7	17.2	0.00e+00	0	34	0	26617053184	16	18685
2026-01-28 22:33:04.48	160.48	34.69	-21.2	-21.7	17.1	0.00e+00	0	34	0	26692550656	16	18774
2026-01-28 22:33:05.49	160.81	34.41	-21.3	-21.7	17.1	0.00e+00	0	34	0	26768048128	16	18787
2026-01-28 22:33:06.50	161.15	34.12	-21.4	-21.9	17.2	0.00e+00	0	34	0	26851934208	16	19210
2026-01-28 22:33:07.51	161.47	33.84	-21.4	-21.9	17.2	0.00e+00	0	34	0	26927431680	16	19183
2026-01-28 22:33:08.51	161.79	33.57	-21.5	-22.0	17.1	0.00e+00	0	34	0	27002929152	16	19311
2026-01-28 22:33:09.52	162.10	33.29	-21.5	-22.0	17.2	0.00e+00	0	34	0	27078426624	16	19349
2026-01-28 22:33:10.53	162.41	33.01	-21.6	-22.1	17.1	0.00e+00	0	34	0	27145535488	16	19624
2026-01-28 22:33:11.54	162.72	32.74	-21.6	-22.1	17.1	0.00e+00	0	34	0	27229421568	18	17492
2026-01-28 22:33:12.55	163.01	32.47	-21.7	-22.2	17.1	0.00e+00	0	34	0	27304919040	18	17672
2026-01-28 22:33:13.56	163.31	32.20	-21.8	-22.3	17.1	0.00e+00	0	34	0	27380416512	18	17878
2026-01-28 22:33:14.56	163.59	31.93	-21.8	-22.3	17.1	0.00e+00	0	34	0	27455913984	18	17949
2026-01-28 22:33:15.57	163.88	31.67	-21.9	-22.4	17.1	0.00e+00	0	34	0	27531411456	18	18127
2026-01-28 22:33:16.58	164.15	31.40	-21.9	-22.4	17.1	0.00e+00	0	34	0	27606908928	18	18037
2026-01-28 22:33:17.59	164.43	31.14	-21.9	-22.3	17.1	0.00e+00	0	34	0	27682406400	18	17910
2026-01-28 22:33:18.60	164.70	30.88	-22.0	-22.5	17.1	0.00e+00	0	34	0	27757903872	18	18307
2026-01-28 22:33:19.61	164.96	30.63	-22.0	-22.5	17.1	0.00e+00	0	34	0	27833401344	18	18317
2026-01-28 22:33:20.62	165.22	30.37	-22.0	-22.5	17.0	0.00e+00	0	34	0	27908898816	18	18244
2026-01-28 22:33:21.63	165.48	30.12	-22.1	-22.6	17.1	0.00e+00	0	34	0	27984396288	18	18462
2026-01-28 22:33:22.64	165.73	29.87	-22.2	-22.7	17.0	0.00e+00	0	34	0	28059893760	18	18794
2026-01-28 22:33:23.65	165.98	29.62	-22.2	-22.6	17.1	0.00e+00	0	34	0	28135391232	18	18591
2026-01-28 22:33:24.66	166.22	29.37	-22.3	-22.7	17.0	0.00e+00	0	34	0	28210888704	18	18781
2026-01-28 22:33:25.66	166.46	29.13	-22.3	-22.7	17.1	0.00e+00	0	34	0	28286386176	18	18780
2026-01-28 22:33:26.67	166.69	28.89	-22.3	-22.7	17.1	0.00e+00	0	34	0	28361883648	18	18858
2026-01-28 22:33:27.68	166.93	28.65	-22.4	-22.9	17.1	0.00e+00	0	34	0	28437381120	18	19192
2026-01-28 22:33:28.69	167.15	28.41	-22.5	-22.9	17.1	0.00e+00	0	34	0	28512878592	18	19291
2026-01-28 22:33:29.70	167.38	28.17	-22.5	-23.0	17.1	0.00e+00	0	34	0	28588376064	18	19390
2026-01-28 22:33:30.71	167.60	27.94	-22.6	-23.1	17.0	0.00e+00	0	34	0	28663873536	18	19531
2026-01-28 22:33:31.72	167.82	27.70	-22.8	-23.2	17.0	0.00e+00	0	34	0	28739371008	20	17764
2026-01-28 22:33:32.73	168.03	27.47	-22.6	-23.1	17.0	0.00e+00	0	34	0	28814868480	20	17483
2026-01-28 22:33:33.74	168.24	27.24	-22.8	-23.2	17.0	0.00e+00	0	34	0	28890365952	20	17744
2026-01-28 22:33:34.75	168.45	27.01	-22.7	-23.1	17.0	0.00e+00	0	34	0	28965863424	20	17601
2026-01-28 22:33:35.76	168.66	26.79	-22.7	-23.2	17.0	0.00e+00	0	34	0	29041360896	20	17668
2026-01-28 22:33:36.77	168.86	26.57	-22.9	-23.4	17.0	0.00e+00	0	34	0	29116858368	20	18037
2026-01-28 22:33:37.78	169.06	26.34	-22.9	-23.4	17.0	0.00e+00	0	34	0	29192355840	20	18086
2026-01-28 22:33:38.78	169.25	26.13	-22.9	-23.4	17.0	0.00e+00	0	34	0	29267853312	20	18147
2026-01-28 22:33:39.79	169.44	25.91	-23.0	-23.5	17.1	0.00e+00	0	34	0	29343350784	20	18262
2026-01-28 22:33:40.80	169.63	25.69	-23.0	-23.5	17.0	0.00e+00	0	34	0	29418848256	20	18333
2026-01-28 22:33:41.81	169.82	25.48	-23.1	-23.6	17.0	0.00e+00	0	34	0	29494345728	20	18545
2026-01-28 22:33:42.82	170.01	25.27	-23.1	-23.6	17.0	0.00e+00	0	34	0	29569843200	20	18478
2026-01-28 22:33:43.82	170.19	25.06	-23.1	-23.6	17.0	0.00e+00	0	34	0	29645340672	20	18505
2026-01-28 22:33:44.83	170.37	24.85	-23.2	-23.7	17.0	0.00e+00	0	34	0	29720838144	20	18750
2026-01-28 22:33:45.84	170.54	24.64	-23.3	-23.8	16.9	0.00e+00	0	34	0	29804724224	20	18925
2026-01-28 22:33:46.85	170.72	24.44	-23.4	-23.9	16.9	0.00e+00	0	34	0	29871833088	20	19093
2026-01-28 22:33:47.86	170.89	24.23	-23.3	-23.8	16.9	0.00e+00	0	34	0	29947330560	20	18983
2026-01-28 22:33:48.87	171.06	24.03	-23.6	-24.1	16.9	0.00e+00	0	34	0	30022828032	20	19525
2026-01-28 22:33:49.88	171.23	23.83	-23.5	-23.9	16.9	0.00e+00	0	34	0	30098325504	20	19220
2026-01-28 22:33:50.89	171.39	23.63	-23.7	-24.1	16.9	0.00e+00	0	34	0	30182211584	20	19673
2026-01-28 22:33:51.90	171.55	23.43	-23.6	-24.0	16.9	0.00e+00	0	34	0	30257709056	20	19503
2026-01-28 22:33:52.91	171.71	23.24	-23.7	-24.2	17.0	0.00e+00	0	34	0	30324817920	20	19771
2026-01-28 22:33:53.92	171.87	23.04	-23.7	-24.2	16.9	0.00e+00	0	34	0	30408704000	20	19781
2026-01-28 22:33:54.93	172.03	22.85	-23.8	-24.3	16.9	0.00e+00	0	34	0	30475812864	22	17808
2026-01-28 22:33:55.94	172.18	22.66	-23.8	-24.2	16.9	0.00e+00	0	34	0	30551310336	22	17760
2026-01-28 22:33:56.95	172.34	22.47	-23.8	-24.3	16.9	0.00e+00	0	34	0	30635196416	22	17831
2026-01-28 22:33:57.96	172.49	22.28	-23.9	-24.4	16.9	0.00e+00	0	34	0	30710693888	22	18096
2026-01-28 22:33:58.96	172.63	22.10	-24.0	-24.5	16.8	0.00e+00	0	34	0	30786191360	22	18310
2026-01-28 22:33:59.97	172.78	21.92	-24.1	-24.5	16.9	0.00e+00	0	34	0	30861688832	22	18428
2026-01-28 22:34:00.98	172.92	21.73	-24.2	-24.6	16.8	0.00e+00	0	34	0	30937186304	22	18616
2026-01-28 22:34:01.99	173.07	21.55	-24.3	-24.8	16.9	0.00e+00	0	34	0	31012683776	22	18960
2026-01-28 22:34:03.00	173.21	21.37	-24.3	-24.8	16.8	0.00e+00	0	34	0	31088181248	22	18891
2026-01-28 22:34:04.01	173.35	21.19	-24.4	-24.9	16.8	0.00e+00	0	34	0	31163678720	22	19080
2026-01-28 22:34:05.02	173.48	21.01	-24.1	-24.6	16.9	0.00e+00	0	34	0	31239176192	22	18568
2026-01-28 22:34:06.03	173.62	20.84	-24.3	-24.7	16.8	0.00e+00	0	34	0	31314673664	22	18777
2026-01-28 22:34:07.04	173.75	20.66	-24.3	-24.7	16.9	0.00e+00	0	34	0	31390171136	22	18838
2026-01-28 22:34:08.05	173.88	20.49	-24.3	-24.8	16.8	0.00e+00	0	34	0	31465668608	22	18983
2026-01-28 22:34:09.06	174.01	20.32	-24.4	-24.9	16.9	0.00e+00	0	34	0	31541166080	22	19097
2026-01-28 22:34:10.06	174.14	20.15	-24.5	-24.9	16.8	0.00e+00	0	34	0	31616663552	22	19263
2026-01-28 22:34:11.07	174.27	19.98	-24.5	-25.0	16.9	0.00e+00	0	34	0	31692161024	22	19372
2026-01-28 22:34:12.08	174.40	19.81	-24.6	-25.0	16.8	0.00e+00	0	34	0	31767658496	22	19471
2026-01-28 22:34:13.09	174.52	19.64	-24.6	-25.1	16.8	0.00e+00	0	34	0	31843155968	22	19564
2026-01-28 22:34:14.10	174.64	19.48	-24.6	-25.1	16.8	0.00e+00	0	34	0	31918653440	22	19577
2026-01-28 22:34:15.11	174.76	19.31	-24.7	-25.2	16.8	0.00e+00	0	34	0	31994150912	24	17707
2026-01-28 22:34:16.12	174.88	19.15	-24.7	-25.1	16.8	0.00e+00	0	34	0	32069648384	24	17598
2026-01-28 22:34:17.13	175.00	18.99	-24.9	-25.3	16.8	0.00e+00	0	34	0	32145145856	24	17966
2026-01-28 22:34:18.14	175.12	18.83	-25.1	-25.6	16.7	0.00e+00	0	34	0	32220643328	24	18473
2026-01-28 22:34:19.14	175.24	18.67	-24.9	-25.4	16.8	0.00e+00	0	34	0	32296140800	24	18031
2026-01-28 22:34:20.15	175.35	18.51	-24.9	-25.4	16.7	0.00e+00	0	34	0	32371638272	24	18117
2026-01-28 22:34:21.16	175.46	18.36	-25.0	-25.5	16.8	0.00e+00	0	34	0	32447135744	24	18246
2026-01-28 22:34:22.16	175.57	18.20	-25.2	-25.6	16.7	0.00e+00	0	34	0	32522633216	24	18614
2026-01-28 22:34:23.17	175.68	18.05	-25.2	-25.7	16.7	0.00e+00	0	34	0	32598130688	24	18710
2026-01-28 22:34:24.18	175.79	17.89	-25.3	-25.8	16.7	0.00e+00	0	34	0	32673628160	24	18890
2026-01-28 22:34:25.19	175.90	17.74	-25.2	-25.7	16.8	0.00e+00	0	34	0	32749125632	24	18733
2026-01-28 22:34:26.20	176.01	17.59	-25.1	-25.6	16.7	0.00e+00	0	34	0	32824623104	24	18523
2026-01-28 22:34:27.21	176.12	17.44	-25.3	-25.7	16.8	0.00e+00	0	34	0	32900120576	24	18800
2026-01-28 22:34:28.22	176.22	17.29	-25.2	-25.7	16.7	0.00e+00	0	34	0	32975618048	24	18778
2026-01-28 22:34:29.23	176.32	17.14	-25.3	-25.8	16.7	0.00e+00	0	34	0	33051115520	24	19001
2026-01-28 22:34:30.24	176.43	17.00	-25.3	-25.7	16.7	0.00e+00	0	34	0	33126612992	24	18840
2026-01-28 22:34:31.24	176.53	16.85	-25.5	-25.9	16.5	0.00e+00	0	34	0	33202110464	24	19259
2026-01-28 22:34:32.25	176.63	16.71	-25.4	-25.8	16.2	0.00e+00	0	34	0	33277607936	24	19035
2026-01-28 22:34:33.26	176.73	16.56	-25.5	-25.9	15.9	0.00e+00	0	34	0	33353105408	24	19295
2026-01-28 22:34:34.27	176.82	16.42	-25.5	-26.0	16.3	0.00e+00	0	34	0	33428602880	24	19419
2026-01-28 22:34:35.28	176.92	16.28	-25.7	-26.1	16.4	0.00e+00	0	34	0	33504100352	24	19729
2026-01-28 22:34:36.29	177.02	16.14	-25.6	-26.1	16.5	0.00e+00	0	34	0	33579597824	24	19626
2026-01-28 22:34:37.29	177.11	16.00	-25.7	-26.2	16.5	0.00e+00	0	34	0	33663483904	24	19830
2026-01-28 22:34:38.30	177.21	15.86	-25.8	-26.2	16.5	0.00e+00	0	34	0	33730592768	26	17763
2026-01-28 22:34:39.31	177.30	15.72	-25.7	-26.2	16.4	0.00e+00	0	34	0	33806090240	26	17652
2026-01-28 22:34:40.32	177.39	15.58	-25.9	-26.4	16.4	0.00e+00	0	34	0	33881587712	26	18026
2026-01-28 22:34:41.33	177.48	15.45	-25.8	-26.2	16.5	0.00e+00	0	34	0	33957085184	26	17802
2026-01-28 22:34:42.34	177.57	15.31	-25.9	-26.4	16.5	0.00e+00	0	34	0	34040971264	26	18168
2026-01-28 22:34:43.35	177.66	15.18	-25.9	-26.3	16.5	0.00e+00	0	34	0	34116468736	26	17953
2026-01-28 22:34:44.36	177.75	15.05	-26.0	-26.5	16.5	0.00e+00	0	34	0	34191966208	26	18352
2026-01-28 22:34:45.37	177.84	14.91	-26.0	-26.4	16.5	0.00e+00	0	34	0	34259075072	26	18157
2026-01-28 22:34:46.38	177.92	14.78	-26.1	-26.6	16.5	0.00e+00	0	34	0	34334572544	26	18456
2026-01-28 22:34:47.39	178.01	14.65	-26.2	-26.6	16.4	0.00e+00	0	34	0	34418458624	26	18613
2026-01-28 22:34:48.40	178.10	14.52	-26.1	-26.6	16.5	0.00e+00	0	34	0	34493956096	26	18562
2026-01-28 22:34:49.41	178.18	14.39	-26.1	-26.6	16.5	0.00e+00	0	34	0	34569453568	26	18494
2026-01-28 22:34:50.42	178.26	14.26	-26.2	-26.7	16.5	0.00e+00	0	34	0	34644951040	26	18756
2026-01-28 22:34:51.43	178.35	14.13	-26.1	-26.6	16.5	0.00e+00	0	34	0	34720448512	26	18508
2026-01-28 22:34:52.43	178.43	14.01	-26.2	-26.6	16.5	0.00e+00	0	34	0	34795945984	26	18616
2026-01-28 22:34:53.44	178.51	13.88	-26.3	-26.8	16.4	0.00e+00	0	34	0	34871443456	26	18973
2026-01-28 22:34:54.45	178.59	13.76	-26.4	-26.9	16.5	0.00e+00	0	34	0	34946940928	26	19091
2026-01-28 22:34:55.46	178.67	13.63	-26.4	-26.8	16.4	0.00e+00	0	34	0	35022438400	26	19059
2026-01-28 22:34:56.47	178.75	13.51	-26.4	-26.9	16.4	0.00e+00	0	34	0	35097935872	26	19195
2026-01-28 22:34:57.48	178.82	13.39	-26.5	-26.9	16.4	0.00e+00	0	34	0	35173433344	26	19283
2026-01-28 22:34:58.49	178.90	13.27	-26.4	-26.9	16.4	0.00e+00	0	34	0	35248930816	26	19189
2026-01-28 22:34:59.50	178.98	13.14	-26.7	-27.2	16.4	0.00e+00	0	34	0	35324428288	26	19768
2026-01-28 22:35:00.51	179.05	13.02	-26.6	-27.1	16.4	0.00e+00	0	34	0	35399925760	26	19532
2026-01-28 22:35:01.52	179.13	12.90	-26.6	-27.1	16.4	0.00e+00	0	34	0	35475423232	26	19540
2026-01-28 22:35:02.53	179.20	12.79	-26.7	-27.1	16.4	0.00e+00	0	34	0	35550920704	26	19707
2026-01-28 22:35:03.54	179.28	12.67	-26.8	-27.2	16.4	0.00e+00	0	34	0	35626418176	26	19939
2026-01-28 22:35:04.55	179.35	12.55	-26.6	-27.1	16.4	0.00e+00	0	34	0	35701915648	28	17469
2026-01-28 22:35:05.56	179.42	12.43	-26.8	-27.3	16.3	0.00e+00	0	34	0	35777413120	28	17884
2026-01-28 22:35:06.56	179.49	12.32	-26.9	-27.4	16.3	0.00e+00	0	34	0	35852910592	28	18126
2026-01-28 22:35:07.58	179.57	12.20	-26.7	-27.2	16.3	0.00e+00	0	34	0	35928408064	28	17696
2026-01-28 22:35:08.58	179.64	12.09	-26.8	-27.3	16.3	0.00e+00	0	34	0	36003905536	28	17895
2026-01-28 22:35:09.59	179.71	11.97	-26.9	-27.4	16.3	0.00e+00	0	34	0	36079403008	28	18024
2026-01-28 22:35:10.60	179.77	11.86	-27.1	-27.5	16.3	0.00e+00	0	34	0	36154900480	28	18406
2026-01-28 22:35:11.61	179.84	11.75	-27.1	-27.6	16.3	0.00e+00	0	34	0	36230397952	28	18449
2026-01-28 22:35:12.62	179.91	11.63	-27.0	-27.4	16.3	0.00e+00	0	34	0	36305895424	28	18202
2026-01-28 22:35:13.63	179.98	11.52	-27.1	-27.5	16.3	0.00e+00	0	34	0	36381392896	28	18425
2026-01-28 22:35:14.64	180.05	11.41	-27.1	-27.6	16.2	0.00e+00	0	34	0	36456890368	28	18479
2026-01-28 22:35:15.65	180.11	11.30	-27.0	-27.5	16.2	0.00e+00	0	34	0	36532387840	28	18340
2026-01-28 22:35:16.66	180.18	11.19	-27.1	-27.6	16.2	0.00e+00	0	34	0	36607885312	28	18527
2026-01-28 22:35:17.67	180.24	11.08	-27.3	-27.7	16.2	0.00e+00	0	34	0	36683382784	28	18794
2026-01-28 22:35:18.68	180.31	10.97	-27.3	-27.7	16.1	0.00e+00	0	34	0	36758880256	28	18812
2026-01-28 22:35:19.69	180.37	10.87	-27.3	-27.8	16.1	0.00e+00	0	34	0	36842766336	28	18898
2026-01-28 22:35:20.70	180.44	10.76	-27.2	-27.6	16.2	0.00e+00	0	34	0	36918263808	28	18641
2026-01-28 22:35:21.71	180.50	10.65	-27.3	-27.8	16.1	0.00e+00	0	34	0	36985372672	28	18953
2026-01-28 22:35:22.72	180.56	10.55	-27.4	-27.8	16.1	0.00e+00	0	34	0	37060870144	28	19044
2026-01-28 22:35:23.73	180.62	10.44	-27.3	-27.8	16.1	0.00e+00	0	34	0	37136367616	28	18925
2026-01-28 22:35:24.74	180.68	10.34	-27.5	-27.9	16.1	0.00e+00	0	34	0	37220253696	28	19222
2026-01-28 22:35:25.74	180.75	10.23	-27.4	-27.9	16.1	0.00e+00	0	34	0	37295751168	28	19119
2026-01-28 22:35:26.75	180.81	10.13	-27.5	-28.0	16.1	0.00e+00	0	34	0	37371248640	28	19312
2026-01-28 22:35:27.76	180.87	10.03	-27.6	-28.1	16.0	0.00e+00	0	34	0	37446746112	28	19591
2026-01-28 22:35:28.77	180.93	9.92	-27.6	-28.1	16.0	0.00e+00	0	34	0	37522243584	28	19541
2026-01-28 22:35:29.78	180.98	9.82	-27.7	-28.1	16.0	0.00e+00	0	34	0	37589352448	30	17581
2026-01-28 22:35:30.79	181.04	9.72	-27.7	-28.1	16.0	0.00e+00	0	34	0	37673238528	30	17589
2026-01-28 22:35:31.80	181.10	9.62	-27.7	-28.2	15.9	0.00e+00	0	34	0	37748736000	30	17705
2026-01-28 22:35:32.81	181.16	9.52	-27.7	-28.2	16.1	0.00e+00	0	34	0	37824233472	30	17611
2026-01-28 22:35:33.82	181.22	9.42	-27.9	-28.3	16.1	0.00e+00	0	34	0	37899730944	30	17969
2026-01-28 22:35:34.83	181.27	9.32	-28.0	-28.5	15.9	0.00e+00	0	34	0	37975228416	30	18252
2026-01-28 22:35:35.84	181.33	9.22	-28.0	-28.5	16.0	0.00e+00	0	34	0	38050725888	30	18305
2026-01-28 22:35:36.85	181.39	9.12	-28.1	-28.6	15.9	0.00e+00	0	34	0	38126223360	30	18530
2026-01-28 22:35:37.86	181.44	9.02	-28.1	-28.6	15.9	0.00e+00	0	34	0	38201720832	30	18543
2026-01-28 22:35:38.87	181.50	8.92	-28.1	-28.5	16.0	0.00e+00	0	34	0	38277218304	30	18409
2026-01-28 22:35:39.88	181.55	8.83	-28.3	-28.8	15.9	0.00e+00	0	34	0	38352715776	30	18866
2026-01-28 22:35:40.88	181.60	8.73	-28.1	-28.6	15.9	0.00e+00	0	34	0	38428213248	30	18460
2026-01-28 22:35:41.89	181.66	8.64	-28.3	-28.8	15.9	0.00e+00	0	34	0	38503710720	30	18883
2026-01-28 22:35:42.90	181.71	8.54	-28.2	-28.6	15.9	0.00e+00	0	34	0	38579208192	30	18640
2026-01-28 22:35:43.91	181.76	8.44	-28.2	-28.6	15.9	0.00e+00	0	34	0	38654705664	30	18609
2026-01-28 22:35:44.92	181.82	8.35	-28.3	-28.8	15.9	0.00e+00	0	34	0	38730203136	30	18887
2026-01-28 22:35:45.93	181.87	8.26	-28.3	-28.8	15.9	0.00e+00	0	34	0	38805700608	30	18926
2026-01-28 22:35:46.94	181.92	8.16	-28.5	-29.0	15.8	0.00e+00	0	34	0	38881198080	30	19405
2026-01-28 22:35:47.95	181.97	8.07	-28.4	-28.8	15.8	0.00e+00	0	34	0	38956695552	30	18997
2026-01-28 22:35:48.96	182.02	7.98	-28.5	-28.9	15.8	0.00e+00	0	34	0	39032193024	30	19240
2026-01-28 22:35:49.96	182.07	7.88	-28.4	-28.9	15.8	0.00e+00	0	34	0	39107690496	30	19177
2026-01-28 22:35:50.97	182.12	7.79	-28.6	-29.0	15.8	0.00e+00	0	34	0	39183187968	30	19466
2026-01-28 22:35:51.98	182.17	7.70	-28.9	-29.3	15.7	0.00e+00	0	34	0	39258685440	32	17977
2026-01-28 22:35:53.00	182.23	7.61	-28.8	-29.3	15.7	0.00e+00	0	34	0	39334182912	32	17891
2026-01-28 22:35:54.01	182.27	7.52	-29.1	-29.6	15.8	0.00e+00	0	34	0	39409680384	32	18524
2026-01-28 22:35:55.01	182.32	7.43	-29.0	-29.4	15.7	0.00e+00	0	34	0	39485177856	32	18178
2026-01-28 22:35:56.02	182.37	7.34	-28.7	-29.1	15.8	0.00e+00	0	34	0	39560675328	32	17541
2026-01-28 22:35:57.03	182.42	7.25	-28.9	-29.4	15.7	0.00e+00	0	34	0	39636172800	32	18016
2026-01-28 22:35:58.04	182.47	7.16	-29.0	-29.4	15.6	0.00e+00	0	34	0	39711670272	32	18215
2026-01-28 22:35:59.05	182.52	7.07	-28.9	-29.3	15.7	0.00e+00	0	34	0	39787167744	32	17982
2026-01-28 22:36:00.06	182.56	6.98	-29.1	-29.5	15.5	0.00e+00	0	34	0	39862665216	32	18410
2026-01-28 22:36:01.07	182.61	6.89	-29.2	-29.7	15.5	0.00e+00	0	34	0	39938162688	32	18675
2026-01-28 22:36:02.08	182.66	6.81	-29.0	-29.5	15.6	0.00e+00	0	34	0	40013660160	32	18258
2026-01-28 22:36:03.09	182.70	6.72	-29.0	-29.5	15.6	0.00e+00	0	34	0	40089157632	32	18319
2026-01-28 22:36:04.10	182.75	6.63	-29.3	-29.7	15.3	0.00e+00	0	34	0	40173043712	32	18820
2026-01-28 22:36:05.11	182.79	6.55	-29.1	-29.5	15.4	0.00e+00	0	34	0	40240152576	32	18414
2026-01-28 22:36:06.12	182.84	6.46	-29.3	-29.7	15.4	0.00e+00	0	34	0	40315650048	32	18801
2026-01-28 22:36:07.13	182.88	6.37	-29.5	-29.9	15.4	0.00e+00	0	34	0	40391147520	32	19202
2026-01-28 22:36:08.13	182.93	6.29	-30.0	-30.4	15.2	0.00e+00	0	34	0	40466644992	34	18085
2026-01-28 22:36:09.14	182.97	6.20	-29.4	-29.8	15.4	0.00e+00	0	34	0	40550531072	34	16985
2026-01-28 22:36:10.15	183.02	6.12	-29.3	-29.7	15.5	0.00e+00	0	34	0	40626028544	34	16743
2026-01-28 22:36:11.16	183.06	6.03	-29.2	-29.7	15.4	0.00e+00	0	34	0	40701526016	34	16622
2026-01-28 22:36:12.17	183.10	5.95	-29.3	-29.7	15.4	0.00e+00	0	34	0	40777023488	34	16742
2026-01-28 22:36:13.18	183.15	5.87	-29.5	-30.0	15.2	0.00e+00	0	34	0	40844132352	34	17315
2026-01-28 22:36:14.19	183.19	5.78	-29.2	-29.7	15.3	0.00e+00	0	34	0	40928018432	34	16708
2026-01-28 22:36:15.20	183.23	5.70	-29.5	-29.9	15.1	0.00e+00	0	34	0	41003515904	34	17129
2026-01-28 22:36:16.21	183.28	5.62	-29.4	-29.9	15.1	0.00e+00	0	34	0	41079013376	34	17044
2026-01-28 22:36:17.22	183.32	5.54	-29.3	-29.7	15.0	0.00e+00	0	34	0	41154510848	34	16740
2026-01-28 22:36:18.23	183.36	5.45	-29.5	-29.9	15.0	0.00e+00	0	34	0	41230008320	34	17180
2026-01-28 22:36:19.24	183.40	5.37	-29.5	-29.9	15.0	0.00e+00	0	34	0	41305505792	34	17189
2026-01-28 22:36:20.25	183.44	5.29	-29.6	-30.0	15.0	0.00e+00	0	34	0	41381003264	34	17295
2026-01-28 22:36:21.26	183.48	5.21	-29.5	-29.9	15.1	0.00e+00	0	34	0	41456500736	34	17177
2026-01-28 22:36:22.27	183.52	5.13	-29.7	-30.2	15.0	0.00e+00	0	34	0	41531998208	34	17607
2026-01-28 22:36:23.28	183.56	5.05	-29.8	-30.2	15.0	0.00e+00	0	34	0	41607495680	34	17746
2026-01-28 22:36:24.29	183.61	4.97	-30.1	-30.5	15.0	0.00e+00	0	34	0	41682993152	34	18350
2026-01-28 22:36:25.30	183.65	4.89	-29.6	-30.1	15.1	0.00e+00	0	34	0	41758490624	34	17408
2026-01-28 22:36:26.31	183.69	4.81	-29.9	-30.3	15.2	0.00e+00	0	34	0	41833988096	34	18004
2026-01-28 22:36:27.31	183.72	4.73	-30.2	-30.6	15.1	0.00e+00	0	34	0	41909485568	34	18554
2026-01-28 22:36:28.32	183.76	4.65	-30.0	-30.4	15.1	0.00e+00	0	34	0	41984983040	34	18167
2026-01-28 22:36:29.33	183.80	4.57	-30.0	-30.5	15.0	0.00e+00	0	34	0	42060480512	34	18314
2026-01-28 22:36:30.34	183.84	4.50	-29.7	-30.2	15.2	0.00e+00	0	34	0	42135977984	34	17648
2026-01-28 22:36:31.35	183.88	4.42	-30.0	-30.5	15.0	0.00e+00	0	34	0	42211475456	34	18305
2026-01-28 22:36:32.36	183.92	4.34	-30.1	-30.6	15.1	0.00e+00	0	34	0	42286972928	34	18516
2026-01-28 22:36:33.37	183.96	4.26	-30.5	-30.9	15.0	0.00e+00	0	34	0	42362470400	36	17102
2026-01-28 22:36:34.38	183.99	4.19	-30.2	-30.6	15.1	0.00e+00	0	34	0	42437967872	36	16578
2026-01-28 22:36:35.39	184.03	4.11	-30.5	-30.9	14.9	0.00e+00	0	34	0	42513465344	36	17108
2026-01-28 22:36:36.40	184.07	4.03	-30.4	-30.9	15.0	0.00e+00	0	34	0	42588962816	36	17009
2026-01-28 22:36:37.41	184.11	3.96	-30.5	-30.9	15.0	0.00e+00	0	34	0	42664460288	36	17097
2026-01-28 22:36:38.41	184.14	3.88	-30.8	-31.3	14.7	0.00e+00	0	34	0	42739957760	36	17862
2026-01-28 22:36:39.42	184.18	3.81	-30.1	-30.6	15.1	0.00e+00	0	34	0	42815455232	36	16488
2026-01-28 22:36:40.43	184.22	3.73	-31.0	-31.4	14.6	0.00e+00	0	34	0	42890952704	36	18202
2026-01-28 22:36:41.44	184.25	3.65	-30.4	-30.8	14.8	0.00e+00	0	34	0	42966450176	36	16976
2026-01-28 22:36:42.45	184.29	3.58	-30.8	-31.3	14.9	0.00e+00	0	34	0	43041947648	36	17818
2026-01-28 22:36:43.46	184.32	3.50	-31.1	-31.5	14.6	0.00e+00	0	34	0	43117445120	36	18338
2026-01-28 22:36:44.47	184.36	3.43	-30.9	-31.3	14.7	0.00e+00	0	34	0	43192942592	36	17955
2026-01-28 22:36:45.48	184.40	3.36	-31.5	-31.9	14.4	0.00e+00	0	34	0	43268440064	36	19251
2026-01-28 22:36:46.49	184.43	3.28	-32.1	-32.6	14.0	0.00e+00	0	34	0	43352326144	38	18476
2026-01-28 22:36:47.50	184.47	3.21	-31.6	-32.0	14.1	0.00e+00	0	34	0	43427823616	38	17242
2026-01-28 22:36:48.51	184.50	3.14	-31.8	-32.2	14.1	0.00e+00	0	34	0	43503321088	38	17710
2026-01-28 22:36:49.52	184.54	3.06	-31.2	-31.6	14.3	0.00e+00	0	34	0	43570429952	38	16604
2026-01-28 22:36:50.52	184.57	2.99	-34.9	-35.5	3.7	0.00e+00	0	34	0	43645927424	38	25853
2026-01-28 22:36:51.53	184.60	2.92	-47.7	-50.2	3.6	0.00e+00	0	34	104	43645927424	60	39728
2026-01-28 22:36:52.54	184.64	2.85	-48.0	-50.5	3.6	0.00e+00	0	34	104	43645927424	60	41221
2026-01-28 22:36:53.55	184.67	2.77	-48.5	-51.0	3.6	0.00e+00	0	34	104	43645927424	60	43689
2026-01-28 22:36:54.56	184.71	2.70	-48.8	-51.2	3.6	0.00e+00	0	34	104	43645927424	60	44624
2026-01-28 22:36:55.57	184.74	2.63	-48.8	-51.3	3.6	0.00e+00	0	34	104	43645927424	60	44952
2026-01-28 22:36:56.58	184.77	2.56	-48.9	-51.3	3.6	0.00e+00	0	34	104	43645927424	60	45157
2026-01-28 22:36:57.59	184.81	2.49	-49.0	-51.5	3.6	0.00e+00	0	34	104	43645927424	60	45783
2026-01-28 22:36:58.60	184.84	2.42	-49.0	-51.4	3.6	1.66e-03	0	34	104	43645927424	60	45696
2026-01-28 22:36:59.61	184.87	2.35	-49.0	-51.5	3.6	1.66e-03	0	34	104	43645927424	60	46137
2026-01-28 22:37:00.54	184.90	2.28	-49.1	-51.6	3.6	1.66e-03	0	34	104	43645927424	60	46735
2026-01-28 22:37:01.55	184.93	2.21	-49.1	-51.6	3.6	1.66e-03	0	34	104	43645927424	60	46741
2026-01-28 22:37:02.56	184.97	2.14	-49.0	-51.4	3.6	1.66e-03	0	34	104	43645927424	60	45759
2026-01-28 22:37:03.57	185.00	2.07	-48.8	-51.4	3.6	1.66e-03	0	34	104	43645927424	60	45275
2026-01-28 22:37:04.58	185.03	2.00	-48.8	-51.3	3.6	1.66e-03	0	34	104	43645927424	60	45079
2026-01-28 22:37:05.59	185.06	1.93	-49.1	-51.6	3.6	1.66e-03	0	34	104	43645927424	60	46462
2026-01-28 22:37:06.60	185.09	1.86	-49.1	-51.6	3.6	1.66e-03	0	34	104	43645927424	60	46321
2026-01-28 22:37:07.61	185.13	1.79	-48.8	-51.3	3.6	1.66e-03	0	34	104	43645927424	60	45222
2026-01-28 22:37:08.62	185.16	1.72	-48.9	-51.4	3.6	1.66e-03	0	34	104	43645927424	60	45513
2026-01-28 22:37:09.63	185.19	1.66	-48.7	-51.2	3.6	1.66e-03	0	34	104	43645927424	60	44477
2026-01-28 22:37:10.64	185.22	1.59	-49.0	-51.5	3.6	1.66e-03	0	34	104	43645927424	60	46004
2026-01-28 22:37:11.65	185.25	1.52	-49.1	-51.6	3.5	1.66e-03	0	34	104	43645927424	60	46701
2026-01-28 22:37:12.66	185.28	1.45	-49.1	-51.5	3.6	1.66e-03	0	33	104	43645927424	60	46236
2026-01-28 22:37:13.67	185.31	1.38	-49.1	-51.6	3.6	1.66e-03	0	34	104	43645927424	60	46308
2026-01-28 22:37:14.68	185.34	1.32	-49.1	-51.5	3.6	1.66e-03	0	34	104	43645927424	60	46224
2026-01-28 22:37:15.69	185.37	1.25	-49.1	-51.5	3.6	1.66e-03	0	34	104	43645927424	60	46189
2026-01-28 22:37:16.70	185.40	1.18	-49.1	-51.5	3.5	1.66e-03	0	34	104	43645927424	60	46139
2026-01-28 22:37:17.71	185.43	1.11	-49.1	-51.5	3.6	1.66e-03	0	34	104	43645927424	60	46057
2026-01-28 22:37:18.72	185.46	1.05	-49.1	-51.6	3.6	1.66e-03	0	34	104	43645927424	60	46314
2026-01-28 22:37:19.72	185.49	0.98	-49.1	-51.5	3.6	1.66e-03	0	34	104	43645927424	60	46152
2026-01-28 22:37:20.73	185.52	0.91	-49.1	-51.5	3.6	1.66e-03	0	34	104	43645927424	60	46043
2026-01-28 22:37:21.74	185.55	0.85	-49.1	-51.5	3.6	1.66e-03	0	34	104	43645927424	60	46144
