passes_logs/2026/01/28/R4.6S_Anadyr/R4.6S_Anadyr__20260128_205900_NOAA_20_JPSS-1_rec.log

#Pass ID: 20260128_205900_NOAA 20 (JPSS-1)
#Satellite: NOAA 20 (JPSS-1)
#Configuration: NOAA 20
#almurnet v.1.7.20251203
#Start time: 2026-01-28 20:59:03

#Version: 2.2.20231116
#Station: R4.6S_Anadyr
#Location: 177.4865 lon 64.73178 lat
#TLE: 1 43013U 17073A   26027.80586608  .00000156  00000+0  94940-4 0  9998
#TLE: 2 43013  98.7647 328.6108 0000947  21.3465 338.7750 14.19541216424550

#Time	Az	El	Level	Level2	SNR	BER	BlckErr	Temp	State	Recorded	gain1	gain2
2026-01-28 20:59:03.50	80.62	0.17	-49.2	-62.9	3.3	1.54e+00	0	30	0	0	60	50621
2026-01-28 20:59:04.51	80.55	0.22	-49.0	-64.1	3.6	1.51e+00	0	30	104	0	60	58199
2026-01-28 20:59:05.52	80.48	0.28	-49.1	-64.3	3.6	1.51e+00	0	30	104	0	60	59149
2026-01-28 20:59:06.53	80.41	0.33	-48.9	-64.2	3.5	1.51e+00	0	30	104	0	60	58588
2026-01-28 20:59:07.54	80.34	0.38	-48.9	-64.1	3.6	1.51e+00	0	30	104	0	60	57930
2026-01-28 20:59:08.55	80.27	0.43	-48.9	-64.1	3.6	1.51e+00	0	30	104	0	60	57906
2026-01-28 20:59:09.56	80.21	0.48	-48.8	-64.1	3.6	1.51e+00	0	30	104	0	60	57970
2026-01-28 20:59:10.57	80.14	0.54	-48.8	-64.1	3.6	1.51e+00	0	30	104	0	60	57927
2026-01-28 20:59:11.58	80.07	0.59	-48.9	-64.2	3.6	1.51e+00	0	30	104	0	60	58346
2026-01-28 20:59:12.59	80.00	0.64	-48.9	-64.1	3.6	1.51e+00	0	30	104	0	60	58246
2026-01-28 20:59:13.60	79.93	0.69	-48.9	-64.1	3.6	1.51e+00	0	30	104	0	60	58092
2026-01-28 20:59:14.61	79.85	0.75	-48.9	-64.1	3.6	1.51e+00	0	30	104	0	60	58064
2026-01-28 20:59:15.62	79.78	0.80	-48.8	-64.1	3.6	1.51e+00	0	30	104	0	60	58036
2026-01-28 20:59:16.63	79.71	0.85	-48.9	-64.1	3.6	1.51e+00	0	30	104	0	60	57828
2026-01-28 20:59:17.63	79.64	0.90	-48.8	-64.1	3.6	1.51e+00	0	30	104	0	60	57744
2026-01-28 20:59:18.64	79.57	0.96	-48.7	-64.0	3.6	1.51e+00	0	30	104	0	60	57261
2026-01-28 20:59:19.65	79.50	1.01	-48.6	-63.9	3.6	1.51e+00	0	30	104	0	60	56876
2026-01-28 20:59:20.66	79.43	1.06	-48.6	-63.8	3.6	1.51e+00	0	30	104	0	60	56286
2026-01-28 20:59:21.67	79.35	1.11	-48.5	-63.7	3.6	1.51e+00	0	30	104	0	60	55544
2026-01-28 20:59:22.68	79.28	1.17	-48.4	-63.6	3.6	1.51e+00	0	30	104	0	60	54545
2026-01-28 20:59:23.69	79.21	1.22	-48.1	-63.5	3.6	1.51e+00	0	30	104	0	60	53783
2026-01-28 20:59:24.70	79.14	1.27	-47.4	-63.3	3.6	1.51e+00	0	30	104	0	60	52772
2026-01-28 20:59:25.71	79.06	1.33	-47.7	-62.9	3.6	1.51e+00	0	30	104	0	60	50672
2026-01-28 20:59:26.72	78.99	1.38	-47.4	-62.6	3.6	1.51e+00	0	30	104	0	60	48524
2026-01-28 20:59:27.73	78.91	1.43	-47.4	-62.6	3.6	1.51e+00	0	30	104	0	60	48627
2026-01-28 20:59:28.74	78.84	1.48	-47.4	-62.6	3.6	1.51e+00	0	30	104	0	60	48526
2026-01-28 20:59:29.75	78.76	1.54	-47.4	-62.5	3.6	1.51e+00	0	30	104	0	60	48249
2026-01-28 20:59:30.76	78.69	1.59	-47.4	-62.5	3.6	1.51e+00	0	30	104	0	60	48269
2026-01-28 20:59:31.77	78.61	1.64	-47.4	-62.6	3.6	1.51e+00	0	30	104	0	60	48551
2026-01-28 20:59:32.78	78.54	1.70	-47.4	-62.6	3.6	1.51e+00	0	30	104	0	60	48565
2026-01-28 20:59:33.79	78.46	1.75	-47.4	-62.5	3.6	1.51e+00	0	30	104	0	60	48412
2026-01-28 20:59:34.80	78.39	1.80	-47.4	-62.6	3.6	1.51e+00	0	30	104	0	60	48612
2026-01-28 20:59:35.81	78.31	1.86	-47.4	-62.5	3.6	1.51e+00	0	30	104	0	60	48455
2026-01-28 20:59:36.82	78.23	1.91	-47.4	-62.6	3.6	1.51e+00	0	30	104	0	60	48541
2026-01-28 20:59:37.83	78.16	1.96	-47.4	-62.5	3.6	1.51e+00	0	30	104	0	60	48193
2026-01-28 20:59:38.84	78.08	2.02	-47.4	-62.5	3.6	1.51e+00	0	30	104	0	60	48362
2026-01-28 20:59:39.85	78.00	2.07	-47.4	-62.4	3.6	1.51e+00	0	30	104	0	60	47882
2026-01-28 20:59:40.85	77.93	2.13	-47.4	-62.5	3.6	1.51e+00	0	30	104	0	60	48061
2026-01-28 20:59:41.87	77.85	2.18	-47.4	-62.4	3.6	1.51e+00	0	30	104	0	60	47892
2026-01-28 20:59:42.87	77.77	2.23	-47.4	-62.5	3.6	1.51e+00	0	30	104	0	60	48213
2026-01-28 20:59:43.89	77.69	2.29	-47.4	-62.5	3.6	1.51e+00	0	30	104	0	60	48435
2026-01-28 20:59:44.90	77.61	2.34	-47.4	-62.6	3.6	1.51e+00	0	30	104	0	60	48525
2026-01-28 20:59:45.90	77.53	2.39	-47.4	-62.5	3.6	1.51e+00	0	30	104	0	60	48163
2026-01-28 20:59:46.92	77.45	2.45	-47.4	-62.4	3.6	1.51e+00	0	30	104	0	60	47696
2026-01-28 20:59:47.93	77.37	2.50	-47.4	-62.5	3.6	1.51e+00	0	30	104	0	60	48317
2026-01-28 20:59:48.94	77.29	2.56	-47.4	-62.5	3.6	1.51e+00	0	30	104	0	60	48323
2026-01-28 20:59:49.94	77.21	2.61	-47.3	-62.3	3.6	1.51e+00	0	30	104	0	60	47130
2026-01-28 20:59:50.95	77.13	2.67	-47.3	-61.8	3.6	1.51e+00	0	30	104	0	60	44568
2026-01-28 20:59:51.96	77.05	2.72	-47.3	-62.1	3.6	1.51e+00	0	30	104	0	60	46057
2026-01-28 20:59:52.97	76.97	2.77	-47.4	-62.4	3.6	1.51e+00	0	30	104	0	60	47627
2026-01-28 20:59:53.98	76.89	2.83	-47.4	-62.3	3.6	1.51e+00	0	31	104	0	60	46887
2026-01-28 20:59:54.99	76.81	2.88	-47.1	-58.0	4.3	1.51e+00	0	31	104	0	60	28688
2026-01-28 20:59:56.00	76.72	2.94	-46.1	-51.6	9.6	1.21e-01	0	31	0	0	60	13743
2026-01-28 20:59:57.01	76.64	2.99	-46.2	-52.0	8.9	5.03e-02	92	31	0	2097152	60	14423
2026-01-28 20:59:58.02	76.56	3.05	-44.2	-47.3	14.3	1.09e-03	92	31	0	4194304	60	8379
2026-01-28 20:59:59.03	76.47	3.10	-46.5	-53.0	7.9	1.75e-02	90	30	0	6291456	60	16111
2026-01-28 21:00:00.04	76.39	3.16	-47.2	-56.5	4.6	1.08e-01	92	31	0	7340032	60	24145
2026-01-28 21:00:01.05	76.31	3.21	-47.1	-61.1	3.6	4.39e-03	0	31	104	9437184	60	41244
2026-01-28 21:00:02.06	76.22	3.27	-47.4	-62.5	3.6	1.51e+00	0	31	104	9437184	60	48044
2026-01-28 21:00:03.07	76.14	3.32	-45.0	-49.1	11.5	1.39e+00	0	31	104	9437184	60	10363
2026-01-28 21:00:04.08	76.05	3.38	-44.2	-47.4	14.1	1.04e-04	92	31	0	9437184	60	8460
2026-01-28 21:00:05.09	75.97	3.43	-43.6	-46.3	15.2	0.00e+00	92	31	0	11534336	60	7473
2026-01-28 21:00:06.09	75.88	3.48	-43.5	-46.0	15.5	0.00e+00	92	31	0	13631488	60	7197
2026-01-28 21:00:07.10	75.80	3.54	-43.1	-45.4	16.3	0.00e+00	91	31	0	15728640	60	6749
2026-01-28 21:00:08.11	75.71	3.60	-42.7	-44.9	16.7	0.00e+00	91	31	0	16777216	58	7147
2026-01-28 21:00:09.12	75.62	3.65	-42.3	-44.3	17.8	0.00e+00	91	31	0	18874368	58	6658
2026-01-28 21:00:10.13	75.54	3.71	-42.1	-43.9	17.6	0.00e+00	0	31	0	20971520	56	7160
2026-01-28 21:00:11.14	75.45	3.76	-42.0	-43.8	18.0	0.00e+00	91	31	0	23068672	56	7049
2026-01-28 21:00:12.14	75.36	3.82	-42.2	-44.1	17.8	0.00e+00	0	31	0	25165824	56	7289
2026-01-28 21:00:13.15	75.28	3.87	-41.9	-43.6	18.3	0.00e+00	90	31	0	26214400	56	6889
2026-01-28 21:00:14.16	75.19	3.93	-42.0	-43.9	17.9	0.00e+00	92	31	0	28311552	56	7103
2026-01-28 21:00:15.17	75.10	3.98	-42.0	-43.8	18.0	0.00e+00	62	31	0	30408704	56	7073
2026-01-28 21:00:16.18	75.01	4.04	-41.7	-43.4	18.2	0.00e+00	92	31	0	32505856	56	6716
2026-01-28 21:00:17.19	74.92	4.09	-41.6	-43.3	18.4	0.00e+00	0	31	0	34603008	56	6671
2026-01-28 21:00:18.20	74.83	4.15	-41.6	-43.3	18.3	0.00e+00	92	31	0	35651584	56	6641
2026-01-28 21:00:19.21	74.74	4.20	-41.7	-43.5	18.2	0.00e+00	0	31	0	37748736	56	6777
2026-01-28 21:00:20.22	74.65	4.26	-41.6	-43.3	18.6	0.00e+00	92	31	0	39845888	56	6628
2026-01-28 21:00:21.23	74.56	4.32	-42.1	-43.9	17.9	0.00e+00	92	31	0	41943040	56	7151
2026-01-28 21:00:22.24	74.47	4.37	-42.0	-43.8	18.0	0.00e+00	92	31	0	44040192	56	7052
2026-01-28 21:00:23.25	74.38	4.43	-41.8	-43.5	18.4	0.00e+00	92	31	0	46137344	56	6810
2026-01-28 21:00:24.26	74.29	4.48	-42.2	-44.1	17.7	0.00e+00	69	31	0	47185920	56	7264
2026-01-28 21:00:25.27	74.19	4.54	-41.7	-43.4	18.3	0.00e+00	92	31	0	49283072	56	6714
2026-01-28 21:00:26.28	74.10	4.60	-41.7	-43.4	18.2	0.00e+00	0	31	0	51380224	56	6748
2026-01-28 21:00:27.29	74.01	4.65	-41.7	-43.4	18.5	0.00e+00	90	31	0	53477376	56	6723
2026-01-28 21:00:28.30	73.91	4.71	-41.4	-43.0	18.8	0.00e+00	91	31	0	55574528	56	6444
2026-01-28 21:00:29.31	73.82	4.76	-42.0	-43.8	18.0	0.00e+00	92	31	0	56623104	56	7064
2026-01-28 21:00:30.32	73.73	4.82	-42.0	-43.8	18.2	0.00e+00	90	31	0	58720256	56	7063
2026-01-28 21:00:31.32	73.63	4.88	-41.6	-43.3	18.4	0.00e+00	0	31	0	60817408	56	6645
2026-01-28 21:00:32.33	73.54	4.93	-41.8	-43.4	18.5	0.00e+00	92	31	0	62914560	56	6769
2026-01-28 21:00:33.34	73.44	4.99	-41.9	-43.6	18.2	0.00e+00	0	31	0	65011712	56	6888
2026-01-28 21:00:34.35	73.35	5.04	-41.7	-43.4	18.6	0.00e+00	91	31	0	66060288	56	6698
2026-01-28 21:00:35.36	73.25	5.10	-41.7	-43.3	18.5	0.00e+00	0	31	0	68157440	56	6660
2026-01-28 21:00:36.37	73.16	5.16	-41.7	-43.3	18.5	0.00e+00	90	31	0	70254592	56	6690
2026-01-28 21:00:37.38	73.06	5.21	-41.7	-43.4	18.5	0.00e+00	92	31	0	72351744	56	6712
2026-01-28 21:00:38.39	72.96	5.27	-41.8	-43.5	18.4	0.00e+00	92	31	0	74448896	56	6818
2026-01-28 21:00:39.40	72.86	5.33	-42.0	-43.7	18.3	0.00e+00	92	31	0	75497472	56	6986
2026-01-28 21:00:40.41	72.77	5.38	-42.0	-43.7	18.3	0.00e+00	0	31	0	77594624	56	6939
2026-01-28 21:00:41.42	72.67	5.44	-41.8	-43.4	18.7	0.00e+00	91	31	0	79691776	56	6729
2026-01-28 21:00:42.43	72.57	5.50	-42.0	-43.8	18.4	0.00e+00	8	31	0	81788928	56	7025
2026-01-28 21:00:43.44	72.47	5.55	-42.3	-44.2	17.9	0.00e+00	91	31	0	83886080	56	7363
2026-01-28 21:00:44.44	72.37	5.61	-41.9	-43.6	18.5	0.00e+00	92	31	0	84934656	56	6857
2026-01-28 21:00:45.45	72.27	5.67	-42.3	-44.1	18.0	0.00e+00	91	31	0	87031808	56	7319
2026-01-28 21:00:46.46	72.17	5.72	-42.0	-43.7	18.5	0.00e+00	92	31	0	89128960	56	6963
2026-01-28 21:00:47.47	72.07	5.78	-41.9	-43.5	18.6	0.00e+00	25	31	0	91226112	56	6832
2026-01-28 21:00:48.48	71.97	5.84	-41.8	-43.5	18.5	0.00e+00	91	31	0	93323264	56	6771
2026-01-28 21:00:49.49	71.87	5.89	-42.0	-43.7	18.5	0.00e+00	15	31	0	94371840	56	6961
2026-01-28 21:00:50.50	71.77	5.95	-41.8	-43.4	18.6	0.00e+00	92	31	0	96468992	56	6762
2026-01-28 21:00:51.51	71.67	6.01	-41.7	-43.3	18.7	0.00e+00	47	31	0	98566144	56	6671
2026-01-28 21:00:52.52	71.56	6.06	-41.9	-43.6	18.5	0.00e+00	90	31	0	100663296	56	6890
2026-01-28 21:00:53.53	71.46	6.12	-41.8	-43.5	18.6	0.00e+00	92	31	0	102760448	56	6797
2026-01-28 21:00:54.54	71.36	6.18	-41.9	-43.5	18.6	0.00e+00	62	31	0	103809024	56	6822
2026-01-28 21:00:55.55	71.25	6.24	-41.9	-43.6	18.4	0.00e+00	92	31	0	105906176	56	6908
2026-01-28 21:00:56.56	71.15	6.29	-41.5	-43.1	19.0	0.00e+00	0	31	0	108003328	56	6475
2026-01-28 21:00:57.57	71.04	6.35	-41.4	-43.0	19.0	0.00e+00	92	31	0	110100480	56	6392
2026-01-28 21:00:58.58	70.94	6.41	-41.9	-43.6	18.5	0.00e+00	69	31	0	112197632	56	6851
2026-01-28 21:00:59.59	70.83	6.47	-42.1	-43.8	18.3	0.00e+00	92	31	0	114294784	56	7033
2026-01-28 21:01:00.59	70.73	6.52	-42.2	-43.9	18.2	0.00e+00	92	31	0	115343360	56	7133
2026-01-28 21:01:01.60	70.62	6.58	-42.1	-43.9	18.2	0.00e+00	92	31	0	117440512	56	7108
2026-01-28 21:01:02.61	70.51	6.64	-42.2	-43.9	18.2	0.00e+00	92	31	0	119537664	56	7127
2026-01-28 21:01:03.62	70.41	6.69	-41.5	-43.1	19.0	0.00e+00	17	31	0	121634816	56	6489
2026-01-28 21:01:04.63	70.30	6.75	-41.8	-43.4	18.8	0.00e+00	92	31	0	123731968	56	6739
2026-01-28 21:01:05.64	70.19	6.81	-41.6	-43.2	19.0	0.00e+00	0	31	0	124780544	56	6588
2026-01-28 21:01:06.65	70.08	6.87	-41.5	-43.1	19.0	0.00e+00	92	31	0	126877696	56	6465
2026-01-28 21:01:07.66	69.97	6.92	-41.6	-43.2	18.9	0.00e+00	92	31	0	128974848	56	6575
2026-01-28 21:01:08.67	69.86	6.98	-41.4	-42.9	19.2	0.00e+00	92	31	0	131072000	56	6385
2026-01-28 21:01:09.68	69.75	7.04	-41.4	-42.9	19.4	0.00e+00	92	31	0	133169152	56	6377
2026-01-28 21:01:10.69	69.64	7.10	-41.3	-42.8	19.4	0.00e+00	30	31	0	134217728	56	6300
2026-01-28 21:01:11.70	69.53	7.16	-41.3	-42.7	19.5	0.00e+00	92	31	0	136314880	56	6236
2026-01-28 21:01:12.71	69.42	7.21	-41.2	-42.7	19.4	0.00e+00	31	31	0	138412032	56	6190
2026-01-28 21:01:13.72	69.31	7.27	-41.1	-42.6	19.5	0.00e+00	92	31	0	140509184	56	6130
2026-01-28 21:01:14.73	69.20	7.33	-41.2	-42.7	19.5	0.00e+00	91	31	0	142606336	56	6200
2026-01-28 21:01:15.74	69.09	7.39	-41.2	-42.6	19.5	0.00e+00	92	31	0	143654912	56	6158
2026-01-28 21:01:16.75	68.97	7.44	-41.2	-42.6	19.6	0.00e+00	92	31	0	145752064	56	6143
2026-01-28 21:01:17.76	68.86	7.50	-41.1	-42.5	19.8	0.00e+00	90	31	0	147849216	56	6055
2026-01-28 21:01:18.77	68.74	7.56	-40.8	-42.2	19.9	0.00e+00	90	31	0	149946368	54	6596
2026-01-28 21:01:19.78	68.63	7.62	-40.7	-42.1	20.1	0.00e+00	0	31	0	152043520	54	6513
2026-01-28 21:01:20.79	68.52	7.68	-40.6	-41.9	20.2	0.00e+00	92	31	0	153092096	54	6366
2026-01-28 21:01:21.80	68.40	7.73	-40.4	-41.7	20.4	0.00e+00	67	31	0	155189248	54	6210
2026-01-28 21:01:22.80	68.28	7.79	-40.6	-42.0	20.1	0.00e+00	91	31	0	157286400	54	6391
2026-01-28 21:01:23.81	68.17	7.85	-40.5	-41.8	20.2	0.00e+00	92	31	0	159383552	54	6270
2026-01-28 21:01:24.82	68.05	7.91	-40.4	-41.7	20.5	0.00e+00	92	31	0	161480704	54	6177
2026-01-28 21:01:25.83	67.93	7.97	-40.5	-41.8	20.5	0.00e+00	92	31	0	162529280	54	6269
2026-01-28 21:01:26.84	67.82	8.02	-40.5	-41.8	20.4	0.00e+00	12	31	0	164626432	54	6296
2026-01-28 21:01:27.85	67.70	8.08	-40.3	-41.6	20.6	0.00e+00	90	31	0	166723584	54	6132
2026-01-28 21:01:28.86	67.58	8.14	-40.7	-42.1	20.0	0.00e+00	20	31	0	168820736	54	6487
2026-01-28 21:01:29.86	67.46	8.20	-40.8	-42.2	19.9	0.00e+00	92	31	0	170917888	54	6571
2026-01-28 21:01:30.87	67.34	8.26	-40.9	-42.3	19.9	0.00e+00	91	31	0	171966464	54	6644
2026-01-28 21:01:31.88	67.22	8.31	-40.7	-42.0	19.6	0.00e+00	7	31	0	174063616	54	6453
2026-01-28 21:01:32.89	67.10	8.37	-40.6	-42.0	20.2	0.00e+00	90	31	0	176160768	54	6397
2026-01-28 21:01:33.90	66.98	8.43	-40.5	-41.8	20.2	0.00e+00	56	31	0	178257920	54	6312
2026-01-28 21:01:34.91	66.86	8.49	-40.4	-41.6	20.5	0.00e+00	91	31	0	180355072	54	6169
2026-01-28 21:01:35.92	66.74	8.55	-40.3	-41.5	20.5	0.00e+00	0	31	0	182452224	54	6092
2026-01-28 21:01:36.93	66.61	8.60	-40.4	-41.7	20.4	0.00e+00	91	31	0	183500800	54	6182
2026-01-28 21:01:37.94	66.49	8.66	-40.2	-41.5	20.6	0.00e+00	76	31	0	185597952	54	6063
2026-01-28 21:01:38.95	66.37	8.72	-40.1	-41.4	20.7	0.00e+00	90	31	0	187695104	54	5976
2026-01-28 21:01:39.96	66.24	8.78	-40.0	-41.2	20.9	0.00e+00	92	31	0	189792256	54	5869
2026-01-28 21:01:40.97	66.12	8.84	-40.2	-41.4	20.8	0.00e+00	12	31	0	191889408	54	6000
2026-01-28 21:01:41.98	65.99	8.90	-40.0	-41.2	20.9	0.00e+00	92	31	0	192937984	54	5872
2026-01-28 21:01:42.99	65.87	8.95	-40.1	-41.3	20.9	0.00e+00	0	31	0	195035136	54	5943
2026-01-28 21:01:44.00	65.74	9.01	-40.1	-41.3	20.8	0.00e+00	92	31	0	197132288	54	5940
2026-01-28 21:01:45.01	65.61	9.07	-40.2	-41.4	20.7	0.00e+00	0	31	0	199229440	54	6029
2026-01-28 21:01:46.02	65.49	9.13	-40.1	-41.4	20.8	0.00e+00	93	31	0	201326592	54	5986
2026-01-28 21:01:47.03	65.36	9.19	-40.2	-41.4	20.7	0.00e+00	92	31	0	202375168	54	6025
2026-01-28 21:01:48.04	65.23	9.24	-40.2	-41.5	20.7	0.00e+00	20	31	0	204472320	54	6067
2026-01-28 21:01:49.05	65.10	9.30	-40.3	-41.6	20.5	0.00e+00	92	31	0	206569472	54	6136
2026-01-28 21:01:50.06	64.97	9.36	-40.5	-41.8	20.3	0.00e+00	64	31	0	208666624	54	6266
2026-01-28 21:01:51.07	64.84	9.42	-40.5	-41.8	20.3	0.00e+00	92	31	0	210763776	54	6314
2026-01-28 21:01:52.08	64.71	9.48	-40.5	-41.9	20.4	0.00e+00	25	31	0	211812352	54	6320
2026-01-28 21:01:53.09	64.58	9.54	-40.6	-41.9	20.2	0.00e+00	91	31	0	213909504	54	6387
2026-01-28 21:01:54.10	64.45	9.59	-40.8	-42.1	20.0	0.00e+00	91	31	0	216006656	54	6525
2026-01-28 21:01:55.11	64.32	9.65	-41.0	-42.4	19.8	0.00e+00	0	31	0	218103808	54	6743
2026-01-28 21:01:56.12	64.18	9.71	-40.5	-41.8	20.4	0.00e+00	92	31	0	220200960	54	6304
2026-01-28 21:01:57.13	64.05	9.77	-40.9	-42.3	20.0	0.00e+00	0	31	0	221249536	54	6684
2026-01-28 21:01:58.14	63.92	9.83	-40.5	-41.8	20.3	0.00e+00	92	31	0	223346688	54	6311
2026-01-28 21:01:59.15	63.78	9.88	-40.2	-41.4	20.7	0.00e+00	0	31	0	225443840	54	6014
2026-01-28 21:02:00.15	63.65	9.94	-40.1	-41.4	20.9	0.00e+00	91	31	0	227540992	54	5969
2026-01-28 21:02:01.16	63.51	10.00	-40.3	-41.5	20.7	0.00e+00	91	31	0	229638144	54	6096
2026-01-28 21:02:02.17	63.38	10.06	-40.1	-41.4	20.8	0.00e+00	28	31	0	230686720	54	5991
2026-01-28 21:02:03.18	63.24	10.12	-40.3	-41.6	20.7	0.00e+00	91	31	0	232783872	54	6124
2026-01-28 21:02:04.19	63.11	10.17	-40.1	-41.4	20.9	0.00e+00	0	31	0	234881024	54	5981
2026-01-28 21:02:05.20	62.97	10.23	-40.0	-41.3	20.9	0.00e+00	92	31	0	236978176	54	5908
2026-01-28 21:02:06.21	62.83	10.29	-40.1	-41.4	21.0	0.00e+00	0	31	0	239075328	54	5967
2026-01-28 21:02:07.22	62.69	10.35	-39.9	-41.1	21.0	0.00e+00	91	31	0	240123904	54	5809
2026-01-28 21:02:08.23	62.55	10.41	-39.8	-41.0	21.1	0.00e+00	0	31	0	242221056	54	5742
2026-01-28 21:02:09.24	62.41	10.46	-40.0	-41.2	21.0	0.00e+00	92	31	0	244318208	54	5853
2026-01-28 21:02:10.24	62.27	10.52	-40.0	-41.2	21.0	0.00e+00	92	31	0	246415360	54	5854
2026-01-28 21:02:11.25	62.13	10.58	-40.0	-41.3	21.0	0.00e+00	0	31	0	248512512	54	5900
2026-01-28 21:02:12.26	61.99	10.64	-40.1	-41.3	20.8	0.00e+00	92	31	0	249561088	54	5937
2026-01-28 21:02:13.27	61.85	10.69	-40.1	-41.4	20.8	0.00e+00	2	31	0	251658240	54	5983
2026-01-28 21:02:14.27	61.71	10.75	-40.0	-41.2	21.0	0.00e+00	92	31	0	253755392	54	5847
2026-01-28 21:02:15.28	61.56	10.81	-40.0	-41.2	21.0	0.00e+00	0	31	0	255852544	54	5893
2026-01-28 21:02:16.29	61.42	10.87	-40.0	-41.2	21.0	0.00e+00	92	31	0	257949696	54	5862
2026-01-28 21:02:17.30	61.28	10.93	-39.8	-41.0	21.3	0.00e+00	92	31	0	258998272	54	5698
2026-01-28 21:02:18.31	61.13	10.98	-39.8	-41.0	21.2	0.00e+00	29	31	0	261095424	54	5719
2026-01-28 21:02:19.32	60.99	11.04	-40.0	-41.2	21.0	0.00e+00	92	31	0	263192576	54	5877
2026-01-28 21:02:20.33	60.84	11.10	-40.0	-41.2	21.1	0.00e+00	7	31	0	265289728	54	5846
2026-01-28 21:02:21.34	60.69	11.15	-39.9	-41.1	21.2	0.00e+00	92	31	0	267386880	54	5808
2026-01-28 21:02:22.35	60.55	11.21	-39.8	-41.0	21.1	0.00e+00	7	31	0	268435456	54	5749
2026-01-28 21:02:23.36	60.40	11.27	-40.0	-41.2	21.0	0.00e+00	92	31	0	270532608	54	5868
2026-01-28 21:02:24.37	60.25	11.33	-40.2	-41.5	20.7	0.00e+00	17	31	0	272629760	54	6059
2026-01-28 21:02:25.37	60.10	11.38	-40.0	-41.2	21.0	0.00e+00	92	31	0	274726912	54	5885
2026-01-28 21:02:26.38	59.95	11.44	-39.9	-41.1	21.2	0.00e+00	92	31	0	276824064	54	5781
2026-01-28 21:02:27.38	59.81	11.50	-40.0	-41.1	21.1	0.00e+00	6	31	0	278921216	54	5824
2026-01-28 21:02:28.39	59.65	11.55	-39.8	-41.0	21.2	0.00e+00	92	31	0	279969792	54	5733
2026-01-28 21:02:29.40	59.50	11.61	-39.9	-41.1	21.2	0.00e+00	65	31	0	282066944	52	6475
2026-01-28 21:02:30.41	59.35	11.67	-39.9	-41.0	21.2	0.00e+00	90	31	0	284164096	52	6453
2026-01-28 21:02:31.42	59.20	11.72	-39.9	-41.1	21.2	0.00e+00	63	31	0	286261248	52	6504
2026-01-28 21:02:32.43	59.05	11.78	-39.9	-41.1	21.2	0.00e+00	92	31	0	288358400	52	6511
2026-01-28 21:02:33.44	58.89	11.84	-40.1	-41.3	20.9	0.00e+00	92	31	0	289406976	52	6659
2026-01-28 21:02:34.45	58.74	11.89	-40.2	-41.5	20.8	0.00e+00	0	31	0	291504128	52	6774
2026-01-28 21:02:35.46	58.58	11.95	-40.1	-41.3	21.0	0.00e+00	92	31	0	293601280	52	6637
2026-01-28 21:02:36.47	58.43	12.01	-40.1	-41.3	21.0	0.00e+00	11	31	0	295698432	52	6655
2026-01-28 21:02:37.48	58.27	12.06	-40.2	-41.5	20.8	0.00e+00	92	31	0	297795584	52	6773
2026-01-28 21:02:38.49	58.11	12.12	-40.2	-41.4	20.8	0.00e+00	13	31	0	298844160	52	6734
2026-01-28 21:02:39.50	57.96	12.18	-40.1	-41.3	21.0	0.00e+00	90	31	0	300941312	52	6686
2026-01-28 21:02:40.51	57.80	12.23	-40.2	-41.4	20.9	0.00e+00	89	31	0	303038464	52	6705
2026-01-28 21:02:41.52	57.64	12.29	-40.0	-41.2	21.1	0.00e+00	0	31	0	305135616	52	6586
2026-01-28 21:02:42.53	57.48	12.35	-40.1	-41.3	21.2	0.00e+00	92	31	0	307232768	52	6620
2026-01-28 21:02:43.54	57.32	12.40	-39.8	-41.0	21.3	0.00e+00	0	31	0	308281344	52	6419
2026-01-28 21:02:44.54	57.16	12.46	-39.6	-40.8	21.5	0.00e+00	92	31	0	310378496	52	6256
2026-01-28 21:02:45.55	57.00	12.51	-39.8	-41.0	21.4	0.00e+00	12	31	0	312475648	52	6413
2026-01-28 21:02:46.56	56.84	12.57	-39.8	-40.9	21.5	0.00e+00	92	31	0	314572800	52	6368
2026-01-28 21:02:47.57	56.68	12.62	-39.7	-40.8	21.6	0.00e+00	91	31	0	316669952	52	6258
2026-01-28 21:02:48.58	56.52	12.68	-39.6	-40.7	21.6	0.00e+00	92	31	0	317718528	52	6218
2026-01-28 21:02:49.59	56.35	12.73	-39.5	-40.6	21.7	0.00e+00	90	31	0	319815680	52	6116
2026-01-28 21:02:50.60	56.19	12.79	-39.5	-40.6	21.7	0.00e+00	70	31	0	321912832	52	6149
2026-01-28 21:02:51.60	56.02	12.84	-39.4	-40.5	21.8	0.00e+00	92	31	0	324009984	52	6096
2026-01-28 21:02:52.61	55.86	12.90	-39.3	-40.4	21.9	0.00e+00	29	31	0	326107136	52	6019
2026-01-28 21:02:53.62	55.69	12.95	-39.4	-40.5	21.8	0.00e+00	92	31	0	327155712	52	6043
2026-01-28 21:02:54.64	55.52	13.01	-39.2	-40.3	22.0	0.00e+00	60	31	0	329252864	52	5907
2026-01-28 21:02:55.65	55.36	13.06	-38.9	-39.9	22.3	0.00e+00	92	31	0	331350016	52	5675
2026-01-28 21:02:56.66	55.19	13.12	-38.9	-40.0	22.3	0.00e+00	92	31	0	333447168	52	5696
2026-01-28 21:02:57.67	55.02	13.17	-38.9	-40.0	22.3	0.00e+00	14	31	0	335544320	52	5702
2026-01-28 21:02:58.68	54.85	13.23	-38.9	-40.0	22.4	0.00e+00	92	31	0	336592896	52	5714
2026-01-28 21:02:59.69	54.68	13.28	-38.7	-39.7	22.5	0.00e+00	31	31	0	338690048	52	5542
2026-01-28 21:03:00.67	54.52	13.33	-39.0	-40.0	22.4	0.00e+00	92	31	0	340787200	50	6428
2026-01-28 21:03:01.67	54.35	13.39	-38.8	-39.8	22.4	0.00e+00	5	31	0	342884352	50	6308
2026-01-28 21:03:02.68	54.18	13.44	-38.8	-39.8	22.4	0.00e+00	92	31	0	344981504	50	6301
2026-01-28 21:03:03.69	54.00	13.49	-38.8	-39.8	22.4	0.00e+00	36	31	0	346030080	50	6281
2026-01-28 21:03:04.70	53.83	13.55	-38.5	-39.4	22.7	0.00e+00	92	31	0	348127232	50	6018
2026-01-28 21:03:05.71	53.66	13.60	-38.4	-39.4	22.6	0.00e+00	92	31	0	350224384	50	6024
2026-01-28 21:03:06.72	53.48	13.65	-38.5	-39.5	22.4	0.00e+00	6	31	0	352321536	50	6079
2026-01-28 21:03:07.73	53.31	13.71	-38.5	-39.4	22.6	0.00e+00	92	31	0	354418688	50	6027
2026-01-28 21:03:08.74	53.13	13.76	-38.6	-39.6	22.7	0.00e+00	6	31	0	355467264	50	6145
2026-01-28 21:03:09.75	52.96	13.81	-38.5	-39.5	22.5	0.00e+00	92	31	0	357564416	50	6077
2026-01-28 21:03:10.76	52.78	13.86	-38.5	-39.5	22.7	0.00e+00	0	31	0	359661568	50	6084
2026-01-28 21:03:11.76	52.61	13.92	-38.5	-39.4	22.7	0.00e+00	92	31	0	361758720	50	6028
2026-01-28 21:03:12.77	52.43	13.97	-38.4	-39.3	22.8	0.00e+00	92	31	0	363855872	50	5960
2026-01-28 21:03:13.78	52.25	14.02	-38.2	-39.2	22.8	0.00e+00	0	31	0	364904448	50	5868
2026-01-28 21:03:14.79	52.07	14.07	-38.1	-39.1	22.9	0.00e+00	92	31	0	367001600	50	5784
2026-01-28 21:03:15.80	51.89	14.12	-38.1	-39.0	23.1	0.00e+00	72	31	0	369098752	50	5757
2026-01-28 21:03:16.81	51.71	14.18	-37.9	-38.8	23.2	0.00e+00	92	31	0	371195904	50	5627
2026-01-28 21:03:17.82	51.53	14.23	-37.8	-38.7	23.4	0.00e+00	35	31	0	373293056	50	5566
2026-01-28 21:03:18.83	51.35	14.28	-37.7	-38.6	23.4	0.00e+00	92	31	0	375390208	50	5500
2026-01-28 21:03:19.84	51.16	14.33	-37.7	-38.7	23.3	0.00e+00	90	31	0	376438784	48	6180
2026-01-28 21:03:20.85	50.98	14.38	-37.8	-38.7	23.5	0.00e+00	10	31	0	378535936	48	6182
2026-01-28 21:03:21.86	50.80	14.43	-37.7	-38.6	23.5	0.00e+00	92	31	0	380633088	48	6112
2026-01-28 21:03:22.87	50.61	14.48	-37.7	-38.6	23.5	0.00e+00	0	31	0	382730240	48	6142
2026-01-28 21:03:23.88	50.43	14.53	-37.5	-38.4	23.6	0.00e+00	90	31	0	384827392	48	5986
2026-01-28 21:03:24.88	50.24	14.58	-37.5	-38.4	23.4	0.00e+00	10	31	0	385875968	48	6029
2026-01-28 21:03:25.89	50.06	14.63	-37.4	-38.3	23.7	0.00e+00	90	31	0	387973120	48	5916
2026-01-28 21:03:26.90	49.87	14.68	-37.5	-38.4	23.6	0.00e+00	48	31	0	390070272	48	6017
2026-01-28 21:03:27.91	49.68	14.73	-37.5	-38.4	22.9	0.00e+00	50	31	0	392167424	48	5994
2026-01-28 21:03:28.92	49.50	14.78	-37.3	-38.2	23.8	0.00e+00	92	31	0	394264576	48	5875
2026-01-28 21:03:29.93	49.31	14.83	-37.4	-38.3	23.8	0.00e+00	0	31	0	395313152	48	5899
2026-01-28 21:03:30.94	49.12	14.88	-37.4	-38.3	23.5	0.00e+00	92	31	0	397410304	48	5940
2026-01-28 21:03:31.95	48.93	14.92	-37.6	-38.5	23.7	0.00e+00	0	31	0	399507456	48	6102
2026-01-28 21:03:32.96	48.74	14.97	-37.6	-38.5	23.5	0.00e+00	90	31	0	401604608	48	6097
2026-01-28 21:03:33.97	48.55	15.02	-37.6	-38.5	23.5	0.00e+00	0	31	0	403701760	48	6092
2026-01-28 21:03:34.98	48.35	15.07	-37.8	-38.7	23.5	0.00e+00	71	31	0	404750336	48	6197
2026-01-28 21:03:35.99	48.16	15.12	-37.8	-38.7	23.5	0.00e+00	92	31	0	406847488	48	6207
2026-01-28 21:03:37.00	47.97	15.16	-37.8	-38.7	23.3	0.00e+00	70	31	0	408944640	48	6244
2026-01-28 21:03:38.00	47.78	15.21	-37.8	-38.8	23.3	0.00e+00	92	31	0	411041792	48	6255
2026-01-28 21:03:39.01	47.58	15.26	-37.9	-38.9	23.3	0.00e+00	3	31	0	413138944	48	6333
2026-01-28 21:03:40.02	47.39	15.30	-38.0	-38.9	23.2	0.00e+00	92	31	0	414187520	48	6374
2026-01-28 21:03:41.03	47.19	15.35	-37.9	-38.9	23.3	0.00e+00	21	31	0	416284672	48	6323
2026-01-28 21:03:42.04	47.00	15.40	-38.0	-38.9	23.2	0.00e+00	91	31	0	418381824	48	6357
2026-01-28 21:03:43.05	46.80	15.44	-38.0	-38.9	23.3	0.00e+00	90	31	0	420478976	48	6359
2026-01-28 21:03:44.06	46.60	15.49	-38.1	-39.0	23.2	0.00e+00	10	31	0	422576128	48	6428
2026-01-28 21:03:45.07	46.41	15.53	-38.0	-38.9	23.3	0.00e+00	92	31	0	423624704	48	6361
2026-01-28 21:03:46.08	46.21	15.58	-37.8	-38.7	23.3	0.00e+00	10	31	0	425721856	48	6240
2026-01-28 21:03:47.09	46.01	15.62	-37.8	-38.7	23.6	0.00e+00	92	31	0	427819008	48	6185
2026-01-28 21:03:48.09	45.81	15.67	-37.7	-38.6	23.5	0.00e+00	2	31	0	429916160	48	6133
2026-01-28 21:03:49.10	45.61	15.71	-37.7	-38.6	23.6	0.00e+00	92	31	0	432013312	48	6149
2026-01-28 21:03:50.11	45.41	15.76	-37.8	-38.7	23.4	0.00e+00	91	31	0	433061888	48	6225
2026-01-28 21:03:51.12	45.21	15.80	-37.9	-38.8	23.3	0.00e+00	2	31	0	435159040	48	6266
2026-01-28 21:03:52.13	45.00	15.84	-37.9	-38.8	23.4	0.00e+00	91	31	0	437256192	48	6275
2026-01-28 21:03:53.14	44.80	15.89	-37.7	-38.6	23.6	0.00e+00	0	31	0	439353344	48	6125
2026-01-28 21:03:54.15	44.60	15.93	-37.7	-38.6	23.6	0.00e+00	92	31	0	441450496	48	6140
2026-01-28 21:03:55.16	44.39	15.97	-37.6	-38.5	23.5	0.00e+00	0	31	0	442499072	48	6067
2026-01-28 21:03:56.17	44.19	16.02	-37.4	-38.3	23.7	0.00e+00	92	31	0	444596224	48	5948
2026-01-28 21:03:57.18	43.99	16.06	-37.5	-38.4	23.8	0.00e+00	0	31	0	446693376	48	5968
2026-01-28 21:03:58.18	43.78	16.10	-37.2	-38.1	24.2	0.00e+00	72	31	0	448790528	48	5768
2026-01-28 21:03:59.19	43.58	16.14	-37.1	-37.9	24.1	0.00e+00	92	31	0	450887680	48	5679
2026-01-28 21:04:00.20	43.37	16.18	-37.2	-38.0	24.2	0.00e+00	0	31	0	451936256	48	5753
2026-01-28 21:04:01.21	43.16	16.22	-37.3	-38.1	24.0	0.00e+00	92	31	0	454033408	48	5808
2026-01-28 21:04:02.22	42.95	16.26	-37.4	-38.2	24.0	0.00e+00	0	31	0	456130560	48	5884
2026-01-28 21:04:03.23	42.75	16.30	-37.4	-38.3	23.9	0.00e+00	92	31	0	458227712	48	5922
2026-01-28 21:04:04.24	42.54	16.34	-37.3	-38.2	24.0	0.00e+00	12	31	0	460324864	48	5841
2026-01-28 21:04:05.25	42.33	16.38	-37.4	-38.3	23.9	0.00e+00	85	31	0	461373440	48	5916
2026-01-28 21:04:06.25	42.12	16.42	-37.3	-38.2	24.0	0.00e+00	92	31	0	463470592	48	5850
2026-01-28 21:04:07.26	41.91	16.46	-37.4	-38.2	23.8	0.00e+00	2	31	0	465567744	48	5895
2026-01-28 21:04:08.27	41.70	16.50	-37.4	-38.2	24.0	0.00e+00	92	31	0	467664896	48	5878
2026-01-28 21:04:09.28	41.48	16.54	-37.3	-38.2	23.8	0.00e+00	2	31	0	469762048	48	5838
2026-01-28 21:04:10.29	41.27	16.57	-37.1	-37.9	24.2	0.00e+00	92	31	0	471859200	48	5673
2026-01-28 21:04:11.30	41.06	16.61	-37.1	-38.0	24.1	0.00e+00	0	31	0	472907776	48	5697
2026-01-28 21:04:12.31	40.85	16.65	-37.1	-38.0	24.2	0.00e+00	92	31	0	475004928	48	5712
2026-01-28 21:04:13.32	40.63	16.69	-37.2	-38.0	24.1	0.00e+00	81	31	0	477102080	48	5736
2026-01-28 21:04:14.33	40.42	16.72	-37.2	-38.1	24.1	0.00e+00	2	31	0	479199232	48	5763
2026-01-28 21:04:15.34	40.20	16.76	-37.1	-37.9	24.2	0.00e+00	92	31	0	481296384	48	5679
2026-01-28 21:04:16.35	39.99	16.79	-37.2	-38.1	24.1	0.00e+00	0	31	0	482344960	48	5776
2026-01-28 21:04:17.37	39.77	16.83	-37.4	-38.2	24.0	0.00e+00	92	31	0	484442112	48	5891
2026-01-28 21:04:18.37	39.55	16.87	-37.4	-38.2	24.0	0.00e+00	0	31	0	486539264	48	5882
2026-01-28 21:04:19.39	39.34	16.90	-37.2	-38.1	24.2	0.00e+00	92	31	0	488636416	48	5777
2026-01-28 21:04:20.40	39.12	16.93	-37.1	-38.0	24.1	0.00e+00	0	31	0	490733568	48	5719
2026-01-28 21:04:21.41	38.90	16.97	-37.2	-38.1	24.1	0.00e+00	35	31	0	491782144	48	5763
2026-01-28 21:04:22.42	38.68	17.00	-37.2	-38.0	24.0	0.00e+00	90	31	0	493879296	48	5735
2026-01-28 21:04:23.43	38.46	17.03	-37.3	-38.2	23.9	0.00e+00	12	31	0	495976448	48	5835
2026-01-28 21:04:24.43	38.25	17.07	-37.4	-38.3	23.9	0.00e+00	92	31	0	498073600	48	5900
2026-01-28 21:04:25.44	38.03	17.10	-37.6	-38.5	23.8	0.00e+00	12	31	0	500170752	48	6053
2026-01-28 21:04:26.45	37.80	17.13	-37.6	-38.5	23.8	0.00e+00	92	31	0	501219328	48	6069
2026-01-28 21:04:27.46	37.58	17.16	-37.5	-38.3	24.0	0.00e+00	0	31	0	503316480	48	5952
2026-01-28 21:04:28.47	37.36	17.19	-37.4	-38.3	24.0	0.00e+00	84	31	0	505413632	48	5939
2026-01-28 21:04:29.48	37.14	17.23	-37.3	-38.1	24.0	0.00e+00	92	31	0	507510784	48	5825
2026-01-28 21:04:30.49	36.92	17.26	-37.3	-38.2	23.9	0.00e+00	5	31	0	509607936	48	5850
2026-01-28 21:04:31.50	36.70	17.29	-37.3	-38.2	24.0	0.00e+00	92	31	0	510656512	48	5850
2026-01-28 21:04:32.51	36.47	17.32	-37.3	-38.1	23.6	0.00e+00	10	31	0	512753664	48	5823
2026-01-28 21:04:33.52	36.25	17.34	-37.2	-38.1	23.9	0.00e+00	92	31	0	514850816	48	5762
2026-01-28 21:04:34.53	36.02	17.37	-37.4	-38.3	23.9	0.00e+00	6	31	0	516947968	48	5940
2026-01-28 21:04:35.54	35.80	17.40	-37.4	-38.2	23.8	0.00e+00	4	31	0	519045120	48	5891
2026-01-28 21:04:36.55	35.58	17.43	-37.6	-38.5	23.7	0.00e+00	14	31	0	520093696	48	6070
2026-01-28 21:04:37.56	35.35	17.46	-37.6	-38.5	23.7	0.00e+00	0	31	0	522190848	48	6094
2026-01-28 21:04:38.57	35.12	17.48	-37.6	-38.5	23.7	0.00e+00	92	31	0	524288000	48	6036
2026-01-28 21:04:39.58	34.90	17.51	-37.6	-38.5	23.7	0.00e+00	72	31	0	526385152	48	6064
2026-01-28 21:04:40.59	34.67	17.54	-37.8	-38.7	23.5	0.00e+00	90	31	0	528482304	48	6215
2026-01-28 21:04:41.60	34.44	17.56	-37.8	-38.7	23.6	0.00e+00	5	31	0	529530880	48	6223
2026-01-28 21:04:42.61	34.22	17.59	-38.0	-38.9	23.3	0.00e+00	92	31	0	531628032	48	6339
2026-01-28 21:04:43.62	33.99	17.61	-38.1	-39.0	23.2	0.00e+00	0	31	0	533725184	48	6440
2026-01-28 21:04:44.63	33.76	17.64	-38.0	-39.0	23.3	0.00e+00	71	31	0	535822336	48	6407
2026-01-28 21:04:45.64	33.53	17.66	-38.1	-39.1	23.2	0.00e+00	92	31	0	537919488	48	6475
2026-01-28 21:04:46.65	33.30	17.68	-38.3	-39.2	23.1	0.00e+00	71	31	0	540016640	48	6611
2026-01-28 21:04:47.66	33.08	17.71	-38.6	-39.6	22.8	0.00e+00	92	31	0	541065216	48	6849
2026-01-28 21:04:48.67	32.85	17.73	-38.4	-39.3	23.1	0.00e+00	6	31	0	543162368	48	6680
2026-01-28 21:04:49.68	32.62	17.75	-38.1	-39.1	23.2	0.00e+00	92	31	0	545259520	48	6469
2026-01-28 21:04:50.69	32.39	17.77	-38.0	-39.0	23.4	0.00e+00	15	31	0	547356672	48	6395
2026-01-28 21:04:51.70	32.16	17.80	-38.0	-39.0	23.4	0.00e+00	7	31	0	549453824	48	6402
2026-01-28 21:04:52.71	31.93	17.82	-38.1	-39.0	23.2	0.00e+00	30	31	0	550502400	48	6427
2026-01-28 21:04:53.72	31.69	17.84	-38.0	-38.9	23.4	0.00e+00	6	31	0	552599552	48	6379
2026-01-28 21:04:54.73	31.46	17.86	-37.8	-38.7	23.5	0.00e+00	91	31	0	554696704	48	6233
2026-01-28 21:04:55.74	31.23	17.88	-38.0	-38.9	23.3	0.00e+00	6	31	0	556793856	48	6347
2026-01-28 21:04:56.74	31.00	17.89	-38.1	-39.1	23.3	0.00e+00	90	31	0	558891008	48	6475
2026-01-28 21:04:57.75	30.77	17.91	-38.2	-39.1	23.2	0.00e+00	7	31	0	559939584	48	6512
2026-01-28 21:04:58.76	30.54	17.93	-38.4	-39.3	23.0	0.00e+00	72	31	0	562036736	48	6661
2026-01-28 21:04:59.77	30.30	17.95	-38.4	-39.4	22.9	0.00e+00	18	31	0	564133888	48	6706
2026-01-28 21:05:00.78	30.07	17.97	-38.5	-39.5	22.9	0.00e+00	71	31	0	566231040	48	6796
2026-01-28 21:05:01.79	29.84	17.98	-38.8	-39.8	22.6	0.00e+00	92	31	0	568328192	50	6265
2026-01-28 21:05:02.80	29.60	18.00	-38.7	-39.7	22.7	0.00e+00	0	31	0	569376768	50	6200
2026-01-28 21:05:03.81	29.37	18.01	-38.8	-39.8	22.6	0.00e+00	92	31	0	571473920	50	6259
2026-01-28 21:05:04.82	29.14	18.03	-38.7	-39.7	22.7	0.00e+00	72	31	0	573571072	50	6178
2026-01-28 21:05:05.83	28.90	18.04	-38.7	-39.7	22.7	0.00e+00	92	31	0	575668224	50	6244
2026-01-28 21:05:06.83	28.67	18.06	-38.8	-39.8	22.6	0.00e+00	0	31	0	577765376	50	6261
2026-01-28 21:05:07.84	28.43	18.07	-38.9	-39.9	22.4	0.00e+00	11	31	0	578813952	50	6386
2026-01-28 21:05:08.85	28.20	18.09	-39.0	-40.0	22.3	0.00e+00	92	31	0	580911104	50	6460
2026-01-28 21:05:09.87	27.96	18.10	-38.7	-39.7	22.7	0.00e+00	10	31	0	583008256	50	6199
2026-01-28 21:05:10.88	27.73	18.11	-38.9	-39.9	22.6	0.00e+00	92	31	0	585105408	50	6369
2026-01-28 21:05:11.88	27.49	18.12	-38.6	-39.6	22.8	0.00e+00	2	31	0	587202560	50	6158
2026-01-28 21:05:12.89	27.26	18.13	-38.7	-39.7	22.7	0.00e+00	92	31	0	588251136	50	6199
2026-01-28 21:05:13.90	27.02	18.14	-38.9	-39.9	22.6	0.00e+00	10	31	0	590348288	50	6332
2026-01-28 21:05:14.91	26.79	18.15	-38.8	-39.8	22.7	0.00e+00	11	31	0	592445440	50	6273
2026-01-28 21:05:15.92	26.55	18.16	-38.8	-39.8	22.6	0.00e+00	92	31	0	594542592	50	6270
2026-01-28 21:05:16.93	26.31	18.17	-38.7	-39.7	22.6	0.00e+00	0	31	0	596639744	50	6204
2026-01-28 21:05:17.93	26.08	18.18	-38.6	-39.6	22.8	0.00e+00	92	31	0	597688320	50	6111
2026-01-28 21:05:18.95	25.84	18.19	-38.4	-39.4	22.9	0.00e+00	0	31	0	599785472	50	6010
2026-01-28 21:05:19.96	25.60	18.20	-38.5	-39.5	22.9	0.00e+00	0	31	0	601882624	50	6084
2026-01-28 21:05:20.97	25.37	18.20	-38.6	-39.6	22.9	0.00e+00	71	31	0	603979776	50	6116
2026-01-28 21:05:21.98	25.13	18.21	-38.6	-39.6	22.9	0.00e+00	0	31	0	606076928	50	6111
2026-01-28 21:05:22.99	24.89	18.22	-38.5	-39.5	22.8	0.00e+00	72	31	0	608174080	50	6075
2026-01-28 21:05:24.00	24.65	18.22	-38.5	-39.5	22.9	0.00e+00	71	31	0	609222656	50	6072
2026-01-28 21:05:25.01	24.42	18.23	-38.5	-39.5	22.9	0.00e+00	90	31	0	611319808	50	6040
2026-01-28 21:05:26.02	24.18	18.23	-38.6	-39.6	22.8	0.00e+00	72	31	0	613416960	50	6159
2026-01-28 21:05:27.03	23.94	18.24	-38.5	-39.4	22.8	0.00e+00	90	31	0	615514112	50	6006
2026-01-28 21:05:28.04	23.71	18.24	-38.5	-39.5	22.7	0.00e+00	11	31	0	617611264	50	6078
2026-01-28 21:05:29.05	23.47	18.24	-38.6	-39.6	22.7	0.00e+00	10	31	0	618659840	50	6155
2026-01-28 21:05:30.06	23.23	18.25	-38.7	-39.7	22.7	0.00e+00	0	31	0	620756992	50	6211
2026-01-28 21:05:31.06	22.99	18.25	-38.6	-39.6	22.7	0.00e+00	0	31	0	622854144	50	6124
2026-01-28 21:05:32.07	22.76	18.25	-38.6	-39.6	22.7	0.00e+00	90	31	0	624951296	50	6128
2026-01-28 21:05:33.08	22.52	18.25	-38.5	-39.5	22.9	0.00e+00	11	31	0	627048448	50	6071
2026-01-28 21:05:34.09	22.28	18.25	-38.4	-39.4	22.9	0.00e+00	91	31	0	628097024	50	5993
2026-01-28 21:05:35.10	22.04	18.25	-38.6	-39.6	22.9	0.00e+00	0	31	0	630194176	50	6133
2026-01-28 21:05:36.11	21.81	18.25	-38.4	-39.3	23.0	0.00e+00	0	31	0	632291328	50	5952
2026-01-28 21:05:37.12	21.57	18.25	-38.4	-39.3	23.0	0.00e+00	0	31	0	634388480	50	5949
2026-01-28 21:05:38.13	21.33	18.25	-38.3	-39.2	23.0	0.00e+00	2	31	0	636485632	50	5873
2026-01-28 21:05:39.14	21.09	18.25	-38.3	-39.2	23.1	0.00e+00	77	31	0	637534208	50	5862
2026-01-28 21:05:40.15	20.86	18.24	-38.1	-39.0	23.2	0.00e+00	0	31	0	639631360	50	5722
2026-01-28 21:05:41.16	20.62	18.24	-38.2	-39.1	23.2	0.00e+00	92	31	0	641728512	50	5777
2026-01-28 21:05:42.16	20.38	18.24	-37.9	-38.8	23.2	0.00e+00	0	31	0	643825664	50	5615
2026-01-28 21:05:43.17	20.15	18.23	-38.1	-39.1	23.3	0.00e+00	71	31	0	645922816	50	5773
2026-01-28 21:05:44.18	19.91	18.23	-38.0	-38.9	23.3	0.00e+00	72	31	0	646971392	50	5640
2026-01-28 21:05:45.19	19.67	18.23	-38.0	-39.0	23.4	0.00e+00	72	31	0	649068544	50	5704
2026-01-28 21:05:46.20	19.43	18.22	-38.0	-39.0	23.3	0.00e+00	0	31	0	651165696	50	5698
2026-01-28 21:05:47.21	19.20	18.21	-37.9	-38.8	23.5	0.00e+00	0	31	0	653262848	50	5603
2026-01-28 21:05:48.22	18.96	18.21	-37.8	-38.7	23.6	0.00e+00	90	31	0	655360000	50	5535
2026-01-28 21:05:49.23	18.72	18.20	-37.6	-38.5	23.7	0.00e+00	72	31	0	656408576	48	6089
2026-01-28 21:05:50.23	18.49	18.19	-37.7	-38.6	23.6	0.00e+00	92	31	0	658505728	48	6105
2026-01-28 21:05:51.23	18.26	18.18	-37.6	-38.5	23.7	0.00e+00	11	31	0	660602880	48	6075
2026-01-28 21:05:52.24	18.02	18.18	-37.6	-38.5	23.6	0.00e+00	9	31	0	662700032	48	6094
2026-01-28 21:05:53.25	17.78	18.17	-37.7	-38.6	23.6	0.00e+00	58	31	0	664797184	48	6116
2026-01-28 21:05:54.26	17.55	18.16	-37.6	-38.5	23.8	0.00e+00	2	31	0	665845760	48	6060
2026-01-28 21:05:55.27	17.31	18.15	-37.6	-38.5	23.7	0.00e+00	92	31	0	667942912	48	6041
2026-01-28 21:05:56.28	17.07	18.14	-37.6	-38.5	23.7	0.00e+00	0	31	0	670040064	48	6091
2026-01-28 21:05:57.29	16.84	18.13	-37.4	-38.3	23.9	0.00e+00	92	31	0	672137216	48	5937
2026-01-28 21:05:58.30	16.60	18.11	-37.4	-38.3	24.0	0.00e+00	9	31	0	674234368	48	5906
2026-01-28 21:05:59.31	16.37	18.10	-37.6	-38.5	23.8	0.00e+00	0	31	0	675282944	48	6049
2026-01-28 21:06:00.32	16.13	18.09	-37.3	-38.2	23.9	0.00e+00	0	31	0	677380096	48	5869
2026-01-28 21:06:01.33	15.90	18.08	-37.4	-38.3	23.7	0.00e+00	0	31	0	679477248	48	5908
2026-01-28 21:06:02.33	15.67	18.06	-37.3	-38.2	23.9	0.00e+00	92	31	0	681574400	48	5876
2026-01-28 21:06:03.34	15.43	18.05	-37.2	-38.1	24.0	0.00e+00	2	31	0	683671552	48	5803
2026-01-28 21:06:04.35	15.20	18.04	-37.2	-38.1	24.0	0.00e+00	92	31	0	684720128	48	5793
2026-01-28 21:06:05.36	14.96	18.02	-37.2	-38.0	24.2	0.00e+00	2	31	0	686817280	48	5753
2026-01-28 21:06:06.37	14.73	18.00	-37.3	-38.1	24.0	0.00e+00	10	31	0	688914432	48	5801
2026-01-28 21:06:07.38	14.49	17.99	-37.1	-37.9	24.2	0.00e+00	70	31	0	691011584	48	5683
2026-01-28 21:06:08.39	14.26	17.97	-37.1	-37.9	24.2	0.00e+00	70	31	0	693108736	48	5689
2026-01-28 21:06:09.40	14.03	17.96	-37.1	-37.9	24.3	0.00e+00	0	31	0	694157312	48	5675
2026-01-28 21:06:10.41	13.80	17.94	-37.1	-37.9	24.1	0.00e+00	2	31	0	696254464	48	5670
2026-01-28 21:06:11.42	13.56	17.92	-37.2	-38.0	24.1	0.00e+00	90	31	0	698351616	48	5742
2026-01-28 21:06:12.43	13.33	17.90	-37.4	-38.3	23.9	0.00e+00	69	31	0	700448768	48	5908
2026-01-28 21:06:13.44	13.10	17.88	-37.3	-38.2	24.1	0.00e+00	83	31	0	702545920	48	5842
2026-01-28 21:06:14.45	12.87	17.86	-37.6	-38.5	23.8	0.00e+00	13	31	0	704643072	48	6035
2026-01-28 21:06:15.46	12.64	17.84	-37.5	-38.4	23.8	0.00e+00	12	31	0	705691648	48	5992
2026-01-28 21:06:16.47	12.40	17.82	-37.5	-38.4	24.0	0.00e+00	13	31	0	707788800	48	6024
2026-01-28 21:06:17.48	12.17	17.80	-37.3	-38.2	24.0	0.00e+00	6	31	0	709885952	48	5843
2026-01-28 21:06:18.49	11.94	17.78	-37.4	-38.3	23.9	0.00e+00	92	31	0	711983104	48	5935
2026-01-28 21:06:19.50	11.71	17.76	-37.6	-38.5	23.7	0.00e+00	5	31	0	714080256	48	6084
2026-01-28 21:06:20.50	11.49	17.74	-37.4	-38.3	23.8	0.00e+00	92	31	0	715128832	48	5913
2026-01-28 21:06:21.51	11.26	17.72	-37.6	-38.5	23.8	0.00e+00	0	31	0	717225984	48	6075
2026-01-28 21:06:22.52	11.03	17.69	-37.4	-38.3	23.9	0.00e+00	0	31	0	719323136	48	5903
2026-01-28 21:06:23.53	10.80	17.67	-37.4	-38.3	23.6	0.00e+00	5	31	0	721420288	48	5935
2026-01-28 21:06:24.54	10.57	17.65	-37.4	-38.3	23.8	0.00e+00	5	31	0	723517440	48	5951
2026-01-28 21:06:25.55	10.34	17.62	-37.6	-38.5	23.7	0.00e+00	87	31	0	724566016	48	6070
2026-01-28 21:06:26.56	10.12	17.60	-37.6	-38.5	23.7	0.00e+00	6	31	0	726663168	48	6043
2026-01-28 21:06:27.57	9.89	17.57	-37.5	-38.4	23.8	0.00e+00	92	31	0	728760320	48	6015
2026-01-28 21:06:28.58	9.66	17.55	-37.6	-38.5	23.7	0.00e+00	70	31	0	730857472	48	6050
2026-01-28 21:06:29.59	9.43	17.52	-37.5	-38.4	23.9	0.00e+00	39	31	0	732954624	48	5985
2026-01-28 21:06:30.60	9.21	17.49	-37.5	-38.3	23.8	0.00e+00	0	31	0	734003200	48	5957
2026-01-28 21:06:31.60	8.99	17.47	-37.6	-38.5	23.7	0.00e+00	0	31	0	736100352	48	6056
2026-01-28 21:06:32.62	8.76	17.44	-37.5	-38.4	23.8	0.00e+00	0	31	0	738197504	48	6015
2026-01-28 21:06:33.63	8.53	17.41	-37.8	-38.8	23.6	0.00e+00	0	31	0	740294656	48	6262
2026-01-28 21:06:34.63	8.31	17.39	-37.8	-38.8	23.5	0.00e+00	92	31	0	742391808	48	6266
2026-01-28 21:06:35.65	8.08	17.36	-38.2	-39.1	23.2	0.00e+00	69	31	0	743440384	48	6519
2026-01-28 21:06:36.66	7.86	17.33	-38.3	-39.3	23.0	0.00e+00	90	31	0	745537536	48	6671
2026-01-28 21:06:37.67	7.64	17.30	-38.4	-39.4	22.9	0.00e+00	15	31	0	747634688	48	6711
2026-01-28 21:06:38.68	7.42	17.27	-38.1	-39.0	23.3	0.00e+00	18	31	0	749731840	48	6422
2026-01-28 21:06:39.69	7.19	17.24	-38.1	-39.1	23.2	0.00e+00	0	31	0	751828992	48	6465
2026-01-28 21:06:40.70	6.97	17.21	-37.9	-38.8	23.5	0.00e+00	6	31	0	752877568	48	6299
2026-01-28 21:06:41.70	6.75	17.18	-37.9	-38.9	23.4	0.00e+00	90	31	0	754974720	48	6319
2026-01-28 21:06:42.71	6.53	17.15	-37.9	-38.8	23.4	0.00e+00	6	31	0	757071872	48	6311
2026-01-28 21:06:43.72	6.31	17.11	-38.0	-39.0	23.3	0.00e+00	91	31	0	759169024	48	6417
2026-01-28 21:06:44.73	6.09	17.08	-38.2	-39.2	23.2	0.00e+00	0	31	0	761266176	48	6565
2026-01-28 21:06:45.74	5.87	17.05	-38.2	-39.1	23.2	0.00e+00	6	31	0	762314752	48	6504
2026-01-28 21:06:46.75	5.65	17.02	-38.1	-39.1	23.2	0.00e+00	0	31	0	764411904	48	6481
2026-01-28 21:06:47.75	5.44	16.98	-38.1	-39.1	23.3	0.00e+00	6	31	0	766509056	48	6474
2026-01-28 21:06:48.76	5.22	16.95	-38.1	-39.0	23.3	0.00e+00	92	31	0	768606208	48	6432
2026-01-28 21:06:49.77	5.00	16.91	-38.1	-39.0	23.3	0.00e+00	0	31	0	770703360	48	6452
2026-01-28 21:06:50.78	4.78	16.88	-38.1	-39.0	23.3	0.00e+00	91	31	0	772800512	48	6419
2026-01-28 21:06:51.79	4.57	16.85	-37.9	-38.8	23.5	0.00e+00	0	31	0	773849088	48	6292
2026-01-28 21:06:52.80	4.35	16.81	-37.9	-38.8	23.5	0.00e+00	34	31	0	775946240	48	6260
2026-01-28 21:06:53.81	4.14	16.77	-37.9	-38.8	23.5	0.00e+00	0	31	0	778043392	48	6258
2026-01-28 21:06:54.82	3.92	16.74	-37.8	-38.7	23.6	0.00e+00	10	31	0	780140544	48	6191
2026-01-28 21:06:55.82	3.71	16.70	-37.8	-38.7	23.6	0.00e+00	50	31	0	782237696	48	6180
2026-01-28 21:06:56.83	3.50	16.67	-37.8	-38.7	23.6	0.00e+00	11	31	0	783286272	48	6216
2026-01-28 21:06:57.84	3.28	16.63	-37.8	-38.7	23.6	0.00e+00	92	31	0	785383424	48	6220
2026-01-28 21:06:58.85	3.07	16.59	-37.8	-38.7	23.3	0.00e+00	12	31	0	787480576	48	6208
2026-01-28 21:06:59.85	2.86	16.55	-37.9	-38.8	23.4	0.00e+00	91	31	0	789577728	48	6293
2026-01-28 21:07:00.86	2.65	16.52	-37.7	-38.6	23.6	0.00e+00	14	31	0	791674880	48	6164
2026-01-28 21:07:01.87	2.44	16.48	-37.9	-38.8	23.0	0.00e+00	11	31	0	792723456	48	6280
2026-01-28 21:07:02.87	2.23	16.44	-37.9	-38.8	23.5	0.00e+00	12	31	0	794820608	48	6292
2026-01-28 21:07:03.88	2.02	16.40	-38.0	-38.9	23.4	0.00e+00	0	31	0	796917760	48	6383
2026-01-28 21:07:04.89	1.81	16.36	-38.3	-39.2	23.1	0.00e+00	92	31	0	799014912	48	6582
2026-01-28 21:07:05.90	1.60	16.32	-38.0	-39.0	23.3	0.00e+00	11	31	0	801112064	48	6404
2026-01-28 21:07:06.91	1.39	16.28	-38.1	-39.0	23.3	0.00e+00	92	31	0	802160640	48	6434
2026-01-28 21:07:07.92	1.18	16.24	-38.0	-38.9	23.4	0.00e+00	0	31	0	804257792	48	6381
2026-01-28 21:07:08.93	0.98	16.20	-37.8	-38.7	23.6	0.00e+00	0	31	0	806354944	48	6215
2026-01-28 21:07:09.94	0.77	16.16	-37.9	-38.8	23.5	0.00e+00	0	31	0	808452096	48	6275
2026-01-28 21:07:10.95	0.56	16.12	-37.8	-38.7	23.4	0.00e+00	0	31	0	810549248	48	6223
2026-01-28 21:07:11.96	0.36	16.08	-38.0	-38.9	23.4	0.00e+00	0	31	0	811597824	48	6347
2026-01-28 21:07:12.97	0.15	16.04	-38.1	-39.0	23.3	0.00e+00	69	31	0	813694976	48	6412
2026-01-28 21:07:13.98	359.95	15.99	-38.2	-39.2	23.2	0.00e+00	91	31	0	815792128	48	6551
2026-01-28 21:07:14.99	359.75	15.95	-38.3	-39.2	22.8	0.00e+00	4	31	0	817889280	48	6600
2026-01-28 21:07:16.00	359.54	15.91	-38.4	-39.4	22.9	0.00e+00	91	31	0	819986432	48	6699
2026-01-28 21:07:17.01	359.34	15.86	-38.4	-39.3	23.0	0.00e+00	0	31	0	821035008	48	6684
2026-01-28 21:07:18.02	359.14	15.82	-38.4	-39.4	22.9	0.00e+00	70	31	0	823132160	48	6710
2026-01-28 21:07:19.03	358.94	15.78	-38.4	-39.4	23.0	0.00e+00	0	31	0	825229312	48	6714
2026-01-28 21:07:20.04	358.74	15.73	-38.3	-39.3	23.0	0.00e+00	13	31	0	827326464	48	6657
2026-01-28 21:07:21.05	358.54	15.69	-38.4	-39.4	23.0	0.00e+00	92	31	0	829423616	48	6703
2026-01-28 21:07:22.06	358.34	15.65	-38.5	-39.5	22.9	0.00e+00	14	31	0	830472192	48	6786
2026-01-28 21:07:23.07	358.14	15.60	-38.4	-39.4	23.0	0.00e+00	92	31	0	832569344	48	6735
2026-01-28 21:07:24.08	357.94	15.56	-38.3	-39.3	23.1	0.00e+00	0	31	0	834666496	48	6644
2026-01-28 21:07:25.09	357.74	15.51	-38.6	-39.6	22.7	0.00e+00	0	31	0	836763648	48	6866
2026-01-28 21:07:26.10	357.54	15.46	-38.7	-39.7	22.7	0.00e+00	14	31	0	838860800	50	6237
2026-01-28 21:07:27.11	357.35	15.42	-38.8	-39.8	22.6	0.00e+00	0	31	0	839909376	50	6255
2026-01-28 21:07:28.11	357.15	15.37	-38.8	-39.8	22.5	0.00e+00	95	31	0	842006528	50	6308
2026-01-28 21:07:29.12	356.96	15.33	-38.6	-39.6	22.7	0.00e+00	2	31	0	844103680	50	6168
2026-01-28 21:07:30.13	356.76	15.28	-38.6	-39.6	22.8	0.00e+00	92	31	0	846200832	50	6116
2026-01-28 21:07:31.14	356.57	15.23	-38.5	-39.5	22.9	0.00e+00	2	31	0	848297984	50	6067
2026-01-28 21:07:32.15	356.38	15.19	-38.6	-39.6	22.7	0.00e+00	0	31	0	849346560	50	6158
2026-01-28 21:07:33.16	356.18	15.14	-38.7	-39.7	22.7	0.00e+00	0	31	0	851443712	50	6215
2026-01-28 21:07:34.17	355.99	15.09	-38.6	-39.6	22.8	0.00e+00	63	31	0	853540864	50	6119
2026-01-28 21:07:35.18	355.80	15.04	-38.7	-39.7	22.7	0.00e+00	0	31	0	855638016	50	6191
2026-01-28 21:07:36.19	355.61	15.00	-38.7	-39.7	22.6	0.00e+00	0	31	0	857735168	50	6240
2026-01-28 21:07:37.20	355.42	14.95	-38.6	-39.7	22.7	0.00e+00	92	31	0	858783744	50	6175
2026-01-28 21:07:38.20	355.23	14.90	-38.7	-39.7	22.7	0.00e+00	0	31	0	860880896	50	6203
2026-01-28 21:07:39.22	355.04	14.85	-38.7	-39.7	22.5	0.00e+00	2	31	0	862978048	50	6239
2026-01-28 21:07:40.22	354.85	14.80	-38.8	-39.8	22.6	0.00e+00	17	31	0	865075200	50	6271
2026-01-28 21:07:41.23	354.66	14.75	-39.0	-40.0	22.3	0.00e+00	69	31	0	867172352	50	6452
2026-01-28 21:07:42.24	354.48	14.70	-38.9	-39.9	22.4	0.00e+00	33	31	0	869269504	50	6351
2026-01-28 21:07:43.25	354.29	14.66	-39.1	-40.2	22.2	0.00e+00	69	31	0	870318080	50	6551
2026-01-28 21:07:44.26	354.10	14.61	-39.2	-40.2	22.1	0.00e+00	90	31	0	872415232	50	6611
2026-01-28 21:07:45.28	353.92	14.56	-39.3	-40.4	22.0	0.00e+00	14	31	0	874512384	50	6712
2026-01-28 21:07:46.28	353.73	14.51	-39.4	-40.5	21.8	0.00e+00	92	31	0	876609536	50	6830
2026-01-28 21:07:47.29	353.55	14.46	-39.3	-40.4	22.0	0.00e+00	0	31	0	878706688	50	6703
2026-01-28 21:07:48.30	353.37	14.41	-39.5	-40.6	21.8	0.00e+00	0	31	0	879755264	50	6901
2026-01-28 21:07:49.30	353.18	14.35	-39.5	-40.6	21.7	0.00e+00	0	31	0	881852416	50	6920
2026-01-28 21:07:50.31	353.00	14.30	-39.4	-40.4	21.9	0.00e+00	0	31	0	883949568	50	6758
2026-01-28 21:07:51.32	352.82	14.25	-39.2	-40.3	22.1	0.00e+00	89	31	0	886046720	50	6661
2026-01-28 21:07:52.33	352.64	14.20	-39.3	-40.4	22.0	0.00e+00	0	31	0	888143872	50	6742
2026-01-28 21:07:53.34	352.46	14.15	-39.0	-40.1	22.3	0.00e+00	92	31	0	889192448	50	6468
2026-01-28 21:07:54.35	352.28	14.10	-39.0	-40.1	22.2	0.00e+00	2	31	0	891289600	50	6468
2026-01-28 21:07:55.36	352.10	14.05	-39.2	-40.2	22.1	0.00e+00	0	31	0	893386752	50	6605
2026-01-28 21:07:56.37	351.92	14.00	-39.3	-40.4	22.0	0.00e+00	66	31	0	895483904	50	6737
2026-01-28 21:07:57.38	351.75	13.94	-39.4	-40.5	21.8	0.00e+00	0	31	0	897581056	50	6816
2026-01-28 21:07:58.39	351.57	13.89	-39.5	-40.6	21.8	0.00e+00	0	31	0	898629632	50	6892
2026-01-28 21:07:59.40	351.39	13.84	-39.7	-40.8	20.9	0.00e+00	0	31	0	900726784	50	7074
2026-01-28 21:08:00.41	351.22	13.79	-39.9	-41.1	21.3	0.00e+00	92	31	0	902823936	52	6477
2026-01-28 21:08:01.41	351.04	13.73	-39.9	-41.1	21.3	0.00e+00	14	31	0	904921088	52	6499
2026-01-28 21:08:02.43	350.87	13.68	-39.8	-41.0	21.4	0.00e+00	8	31	0	907018240	52	6425
2026-01-28 21:08:03.43	350.69	13.63	-39.9	-41.0	21.4	0.00e+00	0	31	0	908066816	52	6463
2026-01-28 21:08:04.44	350.52	13.58	-39.9	-41.1	21.3	0.00e+00	20	31	0	910163968	52	6485
2026-01-28 21:08:05.45	350.35	13.52	-40.0	-41.2	21.2	0.00e+00	25	31	0	912261120	52	6555
2026-01-28 21:08:06.46	350.18	13.47	-39.8	-41.0	21.4	0.00e+00	22	31	0	914358272	52	6421
2026-01-28 21:08:07.46	350.01	13.42	-40.0	-41.2	21.2	0.00e+00	92	31	0	916455424	52	6573
2026-01-28 21:08:08.47	349.83	13.36	-40.0	-41.2	21.3	0.00e+00	18	31	0	917504000	52	6557
2026-01-28 21:08:09.48	349.66	13.31	-40.0	-41.3	21.1	0.00e+00	92	31	0	919601152	52	6620
2026-01-28 21:08:10.50	349.49	13.25	-40.0	-41.2	21.1	0.00e+00	6	31	0	921698304	52	6593
2026-01-28 21:08:11.50	349.33	13.20	-40.0	-41.2	21.2	0.00e+00	0	31	0	923795456	52	6596
2026-01-28 21:08:12.51	349.16	13.15	-40.1	-41.3	21.2	0.00e+00	0	31	0	925892608	52	6658
2026-01-28 21:08:13.52	348.99	13.09	-40.1	-41.3	21.0	0.00e+00	0	31	0	926941184	52	6625
2026-01-28 21:08:14.53	348.82	13.04	-40.0	-41.2	21.2	0.00e+00	92	31	0	929038336	52	6565
2026-01-28 21:08:15.54	348.66	12.98	-40.0	-41.2	21.2	0.00e+00	5	31	0	931135488	52	6590
2026-01-28 21:08:16.55	348.49	12.93	-39.9	-41.0	21.2	0.00e+00	92	31	0	933232640	52	6463
2026-01-28 21:08:17.56	348.33	12.87	-40.0	-41.1	21.3	0.00e+00	5	31	0	935329792	52	6535
2026-01-28 21:08:18.57	348.16	12.82	-40.0	-41.1	21.3	0.00e+00	0	31	0	937426944	52	6510
2026-01-28 21:08:19.58	348.00	12.76	-39.8	-41.0	21.4	0.00e+00	65	31	0	938475520	52	6404
2026-01-28 21:08:20.58	347.84	12.71	-40.0	-41.2	21.1	0.00e+00	67	31	0	940572672	52	6603
2026-01-28 21:08:21.59	347.67	12.65	-40.1	-41.3	21.1	0.00e+00	0	31	0	942669824	52	6635
2026-01-28 21:08:22.60	347.51	12.60	-40.0	-41.2	21.2	0.00e+00	67	31	0	944766976	52	6565
2026-01-28 21:08:23.61	347.35	12.54	-40.0	-41.2	21.1	0.00e+00	91	31	0	946864128	52	6571
2026-01-28 21:08:24.62	347.19	12.49	-40.0	-41.2	21.2	0.00e+00	18	31	0	947912704	52	6583
2026-01-28 21:08:25.63	347.03	12.43	-39.7	-40.9	21.4	0.00e+00	0	31	0	950009856	52	6322
2026-01-28 21:08:26.64	346.87	12.38	-39.8	-41.0	21.3	0.00e+00	68	31	0	952107008	52	6398
2026-01-28 21:08:27.65	346.71	12.32	-40.2	-41.4	20.9	0.00e+00	19	31	0	954204160	52	6753
2026-01-28 21:08:28.66	346.55	12.26	-40.0	-41.2	21.2	0.00e+00	20	31	0	955252736	52	6556
2026-01-28 21:08:29.67	346.39	12.21	-39.7	-40.8	21.5	0.00e+00	16	31	0	957349888	52	6315
2026-01-28 21:08:30.68	346.24	12.15	-39.9	-41.1	21.2	0.00e+00	92	31	0	959447040	52	6536
2026-01-28 21:08:31.69	346.08	12.10	-39.7	-40.9	21.2	0.00e+00	19	31	0	961544192	52	6379
2026-01-28 21:08:32.70	345.92	12.04	-39.7	-40.9	21.5	0.00e+00	92	31	0	963641344	52	6319
2026-01-28 21:08:33.71	345.77	11.98	-39.5	-40.7	21.5	0.00e+00	7	31	0	965738496	52	6210
2026-01-28 21:08:34.71	345.62	11.93	-39.8	-41.0	21.4	0.00e+00	0	31	0	966787072	52	6397
2026-01-28 21:08:35.72	345.46	11.87	-39.3	-40.4	22.0	0.00e+00	4	31	0	968884224	52	5979
2026-01-28 21:08:36.73	345.31	11.81	-39.1	-40.2	22.1	0.00e+00	6	31	0	970981376	52	5896
2026-01-28 21:08:37.74	345.16	11.76	-39.2	-40.3	21.9	0.00e+00	92	31	0	973078528	52	5917
2026-01-28 21:08:38.75	345.00	11.70	-39.2	-40.3	22.0	0.00e+00	6	31	0	975175680	52	5915
2026-01-28 21:08:39.76	344.85	11.64	-39.4	-40.5	21.9	0.00e+00	92	31	0	976224256	52	6092
2026-01-28 21:08:40.77	344.70	11.59	-38.9	-40.0	22.2	0.00e+00	0	31	0	978321408	52	5744
2026-01-28 21:08:41.78	344.55	11.53	-39.0	-40.1	22.1	0.00e+00	0	31	0	980418560	52	5824
2026-01-28 21:08:42.78	344.40	11.47	-38.9	-40.0	22.2	0.00e+00	67	31	0	982515712	52	5747
2026-01-28 21:08:43.79	344.25	11.42	-39.0	-40.1	22.1	0.00e+00	0	31	0	984612864	52	5826
2026-01-28 21:08:44.80	344.10	11.36	-39.0	-40.2	22.1	0.00e+00	0	31	0	985661440	52	5831
2026-01-28 21:08:45.81	343.96	11.30	-39.1	-40.2	22.2	0.00e+00	0	31	0	987758592	52	5850
2026-01-28 21:08:46.82	343.81	11.25	-38.9	-40.0	22.2	0.00e+00	91	31	0	989855744	52	5698
2026-01-28 21:08:47.83	343.66	11.19	-38.7	-39.7	22.5	0.00e+00	14	31	0	991952896	50	6231
2026-01-28 21:08:48.84	343.51	11.13	-38.6	-39.6	22.5	0.00e+00	91	31	0	994050048	50	6171
2026-01-28 21:08:49.85	343.37	11.07	-38.6	-39.7	22.6	0.00e+00	16	31	0	995098624	50	6195
2026-01-28 21:08:50.86	343.22	11.02	-38.4	-39.5	22.7	0.00e+00	15	31	0	997195776	50	6036
2026-01-28 21:08:51.87	343.08	10.96	-38.5	-39.6	22.7	0.00e+00	16	31	0	999292928	50	6125
2026-01-28 21:08:52.87	342.94	10.90	-38.4	-39.4	22.7	0.00e+00	15	31	0	1001390080	50	6002
2026-01-28 21:08:53.88	342.79	10.84	-38.3	-39.4	22.7	0.00e+00	92	31	0	1003487232	50	5968
2026-01-28 21:08:54.89	342.65	10.79	-38.2	-39.3	22.8	0.00e+00	0	31	0	1004535808	50	5916
2026-01-28 21:08:55.90	342.51	10.73	-38.3	-39.4	22.7	0.00e+00	92	31	0	1006632960	50	5979
2026-01-28 21:08:56.91	342.37	10.67	-38.3	-39.3	22.9	0.00e+00	0	31	0	1008730112	50	5935
2026-01-28 21:08:57.92	342.23	10.61	-38.4	-39.4	22.8	0.00e+00	0	31	0	1010827264	50	6014
2026-01-28 21:08:58.93	342.08	10.56	-38.4	-39.5	22.7	0.00e+00	0	31	0	1012924416	50	6083
2026-01-28 21:08:59.94	341.94	10.50	-38.5	-39.6	22.6	0.00e+00	0	31	0	1013972992	50	6115
2026-01-28 21:09:00.95	341.80	10.44	-38.2	-39.3	22.8	0.00e+00	41	31	0	1016070144	50	5919
2026-01-28 21:09:01.96	341.67	10.38	-38.3	-39.4	22.7	0.00e+00	0	31	0	1018167296	50	5982
2026-01-28 21:09:02.97	341.53	10.33	-38.2	-39.2	22.8	0.00e+00	92	31	0	1020264448	50	5883
2026-01-28 21:09:03.98	341.39	10.27	-38.1	-39.2	22.7	0.00e+00	63	31	0	1022361600	50	5854
2026-01-28 21:09:04.99	341.25	10.21	-38.4	-39.5	22.6	0.00e+00	10	31	0	1023410176	50	6070
2026-01-28 21:09:06.00	341.12	10.15	-38.4	-39.5	22.5	0.00e+00	0	31	0	1025507328	50	6067
2026-01-28 21:09:07.01	340.98	10.09	-37.9	-38.9	23.0	0.00e+00	4	31	0	1027604480	50	5663
2026-01-28 21:09:08.02	340.84	10.04	-38.5	-39.6	22.4	0.00e+00	49	31	0	1029701632	50	6155
2026-01-28 21:09:09.03	340.71	9.98	-38.1	-39.2	22.5	0.00e+00	22	31	0	1031798784	50	5848
2026-01-28 21:09:10.04	340.57	9.92	-38.4	-39.5	22.6	0.00e+00	92	31	0	1033895936	50	6036
2026-01-28 21:09:11.05	340.44	9.86	-38.5	-39.6	22.6	0.00e+00	17	31	0	1034944512	50	6142
2026-01-28 21:09:12.06	340.31	9.80	-38.3	-39.4	22.8	0.00e+00	92	31	0	1037041664	50	5995
2026-01-28 21:09:13.07	340.17	9.75	-38.4	-39.5	22.4	0.00e+00	0	31	0	1039138816	50	6060
2026-01-28 21:09:14.08	340.04	9.69	-38.1	-39.2	22.2	0.00e+00	14	31	0	1041235968	50	5867
2026-01-28 21:09:15.09	339.91	9.63	-38.3	-39.4	22.2	0.00e+00	0	31	0	1043333120	50	5995
2026-01-28 21:09:16.10	339.78	9.57	-38.4	-39.5	22.4	0.00e+00	2	31	0	1044381696	50	6073
2026-01-28 21:09:17.10	339.65	9.51	-38.3	-39.4	22.5	0.00e+00	60	31	0	1046478848	50	6025
2026-01-28 21:09:18.11	339.52	9.46	-38.6	-39.7	22.4	0.00e+00	17	31	0	1048576000	50	6239
2026-01-28 21:09:19.12	339.39	9.40	-38.7	-39.8	22.1	0.00e+00	92	31	0	1050673152	50	6315
2026-01-28 21:09:20.13	339.26	9.34	-38.6	-39.7	22.2	0.00e+00	0	31	0	1052770304	50	6239
2026-01-28 21:09:21.14	339.13	9.28	-38.2	-39.3	22.6	0.00e+00	2	31	0	1053818880	50	5937
2026-01-28 21:09:22.15	339.00	9.22	-38.3	-39.4	22.6	0.00e+00	0	31	0	1055916032	50	6018
2026-01-28 21:09:23.16	338.88	9.17	-38.2	-39.3	22.7	0.00e+00	0	31	0	1058013184	50	5922
2026-01-28 21:09:24.17	338.75	9.11	-38.5	-39.6	22.4	0.00e+00	67	31	0	1060110336	50	6110
2026-01-28 21:09:25.18	338.62	9.05	-38.6	-39.7	22.4	0.00e+00	0	31	0	1062207488	50	6197
2026-01-28 21:09:26.19	338.50	8.99	-38.4	-39.5	22.4	0.00e+00	92	31	0	1063256064	50	6091
2026-01-28 21:09:27.19	338.37	8.93	-38.7	-39.8	22.3	0.00e+00	66	31	0	1065353216	50	6251
2026-01-28 21:09:28.20	338.25	8.88	-38.7	-39.8	22.3	0.00e+00	90	31	0	1067450368	50	6267
2026-01-28 21:09:29.21	338.12	8.82	-38.5	-39.6	22.3	0.00e+00	65	31	0	1069547520	50	6143
2026-01-28 21:09:30.22	338.00	8.76	-38.7	-39.8	22.3	0.00e+00	0	31	0	1071644672	50	6266
2026-01-28 21:09:31.23	337.88	8.70	-38.6	-39.7	22.4	0.00e+00	0	31	0	1072693248	50	6183
2026-01-28 21:09:32.24	337.75	8.64	-38.6	-39.7	22.3	0.00e+00	66	31	0	1074790400	50	6208
2026-01-28 21:09:33.25	337.63	8.59	-38.5	-39.5	22.5	0.00e+00	91	31	0	1076887552	50	6086
2026-01-28 21:09:34.26	337.51	8.53	-38.5	-39.6	22.5	0.00e+00	2	31	0	1078984704	50	6119
2026-01-28 21:09:35.27	337.39	8.47	-38.5	-39.5	22.5	0.00e+00	92	31	0	1081081856	50	6074
2026-01-28 21:09:36.28	337.27	8.41	-38.6	-39.7	22.3	0.00e+00	19	31	0	1082130432	50	6213
2026-01-28 21:09:37.29	337.15	8.35	-38.6	-39.7	22.3	0.00e+00	2	31	0	1084227584	50	6179
2026-01-28 21:09:38.30	337.03	8.29	-38.5	-39.5	22.5	0.00e+00	2	31	0	1086324736	50	6088
2026-01-28 21:09:39.31	336.91	8.24	-38.6	-39.7	22.3	0.00e+00	0	31	0	1088421888	50	6217
2026-01-28 21:09:40.31	336.79	8.18	-38.7	-39.7	22.2	0.00e+00	92	31	0	1090519040	50	6243
2026-01-28 21:09:41.32	336.67	8.12	-38.8	-39.9	22.0	0.00e+00	0	31	0	1091567616	50	6319
2026-01-28 21:09:42.33	336.55	8.06	-39.0	-40.1	21.9	0.00e+00	91	31	0	1093664768	50	6495
2026-01-28 21:09:43.34	336.43	8.01	-38.9	-40.0	22.0	0.00e+00	0	31	0	1095761920	50	6419
2026-01-28 21:09:44.35	336.32	7.95	-39.1	-40.2	21.8	0.00e+00	0	31	0	1097859072	50	6587
2026-01-28 21:09:45.36	336.20	7.89	-39.0	-40.1	21.9	0.00e+00	2	31	0	1099956224	50	6519
2026-01-28 21:09:46.37	336.08	7.83	-39.2	-40.3	21.7	0.00e+00	0	31	0	1102053376	50	6647
2026-01-28 21:09:47.38	335.97	7.77	-39.5	-40.7	21.4	0.00e+00	64	31	0	1103101952	50	6971
2026-01-28 21:09:48.39	335.85	7.72	-39.1	-40.2	21.7	0.00e+00	63	31	0	1105199104	50	6572
2026-01-28 21:09:49.40	335.74	7.66	-39.7	-40.9	21.1	0.00e+00	92	31	0	1107296256	50	7103
2026-01-28 21:09:50.40	335.63	7.60	-39.8	-41.0	21.0	0.00e+00	63	31	0	1109393408	50	7205
2026-01-28 21:09:51.41	335.51	7.54	-39.6	-40.8	21.3	0.00e+00	63	31	0	1111490560	52	6282
2026-01-28 21:09:52.42	335.40	7.49	-39.4	-40.6	21.4	0.00e+00	17	31	0	1112539136	52	6129
2026-01-28 21:09:53.43	335.29	7.43	-39.7	-40.9	21.1	0.00e+00	62	31	0	1114636288	52	6385
2026-01-28 21:09:54.44	335.17	7.37	-39.4	-40.5	21.4	0.00e+00	0	31	0	1116733440	52	6091
2026-01-28 21:09:55.45	335.06	7.31	-39.6	-40.8	21.2	0.00e+00	0	31	0	1118830592	52	6296
2026-01-28 21:09:56.46	334.95	7.25	-39.6	-40.8	21.1	0.00e+00	92	31	0	1119879168	52	6298
2026-01-28 21:09:57.47	334.84	7.20	-39.4	-40.6	21.3	0.00e+00	6	31	0	1121976320	52	6150
2026-01-28 21:09:58.48	334.73	7.14	-39.6	-40.8	21.1	0.00e+00	92	31	0	1124073472	52	6275
2026-01-28 21:09:59.49	334.62	7.08	-39.6	-40.8	21.0	0.00e+00	6	31	0	1126170624	52	6303
2026-01-28 21:10:00.49	334.51	7.02	-39.8	-41.0	20.9	0.00e+00	6	31	0	1128267776	52	6414
2026-01-28 21:10:01.50	334.40	6.97	-39.8	-41.0	20.9	0.00e+00	5	31	0	1130364928	52	6412
2026-01-28 21:10:02.51	334.29	6.91	-39.9	-41.1	20.7	0.00e+00	0	31	0	1131413504	52	6534
2026-01-28 21:10:03.52	334.18	6.85	-39.7	-40.9	20.9	0.00e+00	40	31	0	1133510656	52	6344
2026-01-28 21:10:04.53	334.08	6.79	-39.7	-40.9	20.9	0.00e+00	8	31	0	1135607808	52	6323
2026-01-28 21:10:05.53	333.97	6.74	-40.1	-41.4	20.5	0.00e+00	92	31	0	1137704960	52	6756
2026-01-28 21:10:06.54	333.86	6.68	-40.0	-41.3	20.5	0.00e+00	0	31	0	1139802112	52	6663
2026-01-28 21:10:07.55	333.76	6.62	-40.0	-41.2	20.8	0.00e+00	24	31	0	1140850688	52	6592
2026-01-28 21:10:08.56	333.65	6.57	-40.0	-41.3	20.5	0.00e+00	62	31	0	1142947840	52	6667
2026-01-28 21:10:09.57	333.54	6.51	-40.3	-41.6	20.3	0.00e+00	0	31	0	1145044992	52	6923
2026-01-28 21:10:10.58	333.44	6.45	-40.5	-41.8	20.1	0.00e+00	59	31	0	1147142144	52	7088
2026-01-28 21:10:11.59	333.33	6.39	-39.5	-40.7	21.1	0.00e+00	0	31	0	1149239296	52	6217
2026-01-28 21:10:12.60	333.23	6.34	-40.3	-41.7	20.0	0.00e+00	91	31	0	1150287872	52	6941
2026-01-28 21:10:13.61	333.13	6.28	-39.9	-41.2	20.5	0.00e+00	64	31	0	1152385024	52	6559
2026-01-28 21:10:14.62	333.02	6.22	-40.3	-41.7	20.1	0.00e+00	91	31	0	1154482176	52	6936
2026-01-28 21:10:15.63	332.92	6.17	-40.1	-41.5	20.4	0.00e+00	23	31	0	1156579328	52	6770
2026-01-28 21:10:16.64	332.82	6.11	-40.3	-41.6	20.1	0.00e+00	62	31	0	1158676480	52	6926
2026-01-28 21:10:17.65	332.71	6.05	-40.4	-41.8	20.0	0.00e+00	5	31	0	1159725056	52	7011
2026-01-28 21:10:18.66	332.61	5.99	-40.3	-41.7	20.0	0.00e+00	28	31	0	1161822208	52	6933
2026-01-28 21:10:19.67	332.51	5.94	-40.6	-42.0	19.4	0.00e+00	92	31	0	1163919360	52	7225
2026-01-28 21:10:20.67	332.41	5.88	-40.6	-42.0	19.7	0.00e+00	30	31	0	1166016512	54	6452
2026-01-28 21:10:21.69	332.31	5.82	-40.9	-42.4	19.1	0.00e+00	92	31	0	1168113664	54	6715
2026-01-28 21:10:22.70	332.21	5.77	-41.0	-42.5	19.1	0.00e+00	23	31	0	1169162240	54	6844
2026-01-28 21:10:23.71	332.11	5.71	-41.3	-42.9	18.9	0.00e+00	60	31	0	1171259392	54	7094
2026-01-28 21:10:24.71	332.01	5.65	-40.7	-42.1	19.5	0.00e+00	6	31	0	1173356544	54	6538
2026-01-28 21:10:25.72	331.91	5.60	-41.0	-42.5	19.1	0.00e+00	0	31	0	1175453696	54	6823
2026-01-28 21:10:26.73	331.81	5.54	-40.8	-42.2	19.6	0.00e+00	83	31	0	1177550848	54	6600
2026-01-28 21:10:27.74	331.71	5.48	-40.5	-41.9	19.8	0.00e+00	0	31	0	1178599424	54	6378
2026-01-28 21:10:28.75	331.62	5.43	-40.5	-41.9	19.8	0.00e+00	90	31	0	1180696576	54	6323
2026-01-28 21:10:29.76	331.52	5.37	-40.8	-42.3	19.2	0.00e+00	0	31	0	1182793728	54	6686
2026-01-28 21:10:30.77	331.42	5.31	-40.7	-42.2	19.5	0.00e+00	61	31	0	1184890880	54	6558
2026-01-28 21:10:31.78	331.32	5.26	-41.0	-42.5	19.2	0.00e+00	63	31	0	1186988032	54	6781
2026-01-28 21:10:32.79	331.23	5.20	-41.0	-42.5	19.1	0.00e+00	63	31	0	1188036608	54	6813
2026-01-28 21:10:33.79	331.13	5.15	-41.2	-42.7	19.0	0.00e+00	0	31	0	1190133760	54	6970
2026-01-28 21:10:34.80	331.04	5.09	-41.3	-42.9	18.9	0.00e+00	0	31	0	1192230912	54	7108
2026-01-28 21:10:35.81	330.94	5.03	-41.3	-42.9	18.8	0.00e+00	92	31	0	1194328064	54	7100
2026-01-28 21:10:36.82	330.85	4.98	-41.3	-42.9	18.8	0.00e+00	19	31	0	1196425216	54	7093
2026-01-28 21:10:37.83	330.75	4.92	-41.5	-43.2	18.4	0.00e+00	92	31	0	1198522368	54	7381
2026-01-28 21:10:38.84	330.66	4.86	-41.4	-43.1	18.7	0.00e+00	56	31	0	1199570944	54	7272
2026-01-28 21:10:39.85	330.57	4.81	-41.2	-42.8	19.0	0.00e+00	61	31	0	1201668096	56	6260
