passes_logs/2026/01/28/R4.6S_Anadyr/R4.6S_Anadyr__20260128_171436_AQUA_rec.log

#Pass ID: 20260128_171436_AQUA
#Satellite: AQUA
#Configuration: AQUA
#almurnet v.1.7.20251203
#Start time: 2026-01-28 17:14:37

#Version: 2.2.20231116
#Station: R4.6S_Anadyr
#Location: 177.4865 lon 64.73178 lat
#TLE: 1 27424U 02022A   26027.88561574  .00001798  00000+0  36942-3 0  9997
#TLE: 2 27424  98.4102 354.5311 0001840  63.5604 322.5877 14.61868111262779

#Time	Az	El	Level	Level2	SNR	BER	BlckErr	Temp	State	Recorded	gain1	gain2
2026-01-28 17:14:37.62	20.97	0.08	-48.7	-60.5	3.5	8.45e-01	0	30	0	0	60	38121
2026-01-28 17:14:38.62	20.95	0.14	-49.0	-66.8	3.5	3.02e+01	0	31	104	0	60	84098
2026-01-28 17:14:39.63	20.92	0.20	-48.9	-66.8	3.5	3.02e+01	0	31	104	0	60	84424
2026-01-28 17:14:40.64	20.90	0.27	-49.0	-66.8	3.5	3.02e+01	0	31	104	0	60	84664
2026-01-28 17:14:41.65	20.88	0.33	-48.9	-66.9	3.5	3.02e+01	0	31	104	0	60	84917
2026-01-28 17:14:42.66	20.85	0.39	-49.0	-66.8	3.5	3.02e+01	0	31	104	0	60	84527
2026-01-28 17:14:43.67	20.83	0.45	-49.0	-66.9	3.5	3.02e+01	0	31	104	0	60	84864
2026-01-28 17:14:44.68	20.80	0.51	-49.0	-66.9	3.5	3.02e+01	0	31	104	0	60	85161
2026-01-28 17:14:45.69	20.78	0.58	-49.1	-67.0	3.5	3.02e+01	0	31	104	0	60	85670
2026-01-28 17:14:46.70	20.76	0.64	-49.1	-66.9	3.5	3.02e+01	0	31	104	0	60	85341
2026-01-28 17:14:47.70	20.73	0.70	-48.9	-66.9	3.5	3.02e+01	0	31	104	0	60	85313
2026-01-28 17:14:48.71	20.71	0.76	-49.0	-66.9	3.5	3.02e+01	0	31	104	0	60	85080
2026-01-28 17:14:49.72	20.68	0.83	-49.0	-66.9	3.5	3.02e+01	0	31	104	0	60	85095
2026-01-28 17:14:50.73	20.66	0.89	-48.8	-66.8	3.5	3.02e+01	0	31	104	0	60	84508
2026-01-28 17:14:51.74	20.63	0.95	-48.9	-66.8	3.5	3.02e+01	0	31	104	0	60	84643
2026-01-28 17:14:52.75	20.61	1.02	-48.9	-66.7	3.5	3.02e+01	0	31	104	0	60	83425
2026-01-28 17:14:53.76	20.58	1.08	-48.8	-66.6	3.5	3.02e+01	0	32	104	0	60	82736
2026-01-28 17:14:54.77	20.56	1.14	-48.7	-66.6	3.5	3.02e+01	0	32	104	0	60	82338
2026-01-28 17:14:55.78	20.53	1.21	-48.6	-66.5	3.5	3.02e+01	0	32	104	0	60	80938
2026-01-28 17:14:56.79	20.51	1.27	-48.4	-66.4	3.5	3.02e+01	0	32	104	0	60	80197
2026-01-28 17:14:57.80	20.48	1.33	-48.4	-66.3	3.5	3.02e+01	0	31	104	0	60	79113
2026-01-28 17:14:58.80	20.45	1.40	-48.2	-66.1	3.5	3.02e+01	0	32	104	0	60	77893
2026-01-28 17:14:59.81	20.43	1.46	-48.1	-66.0	3.5	3.02e+01	0	32	104	0	60	76692
2026-01-28 17:15:00.82	20.40	1.53	-47.9	-65.8	3.5	3.02e+01	0	32	104	0	60	74654
2026-01-28 17:15:01.84	20.38	1.59	-47.7	-65.5	3.5	3.02e+01	0	32	104	0	60	72782
2026-01-28 17:15:02.84	20.35	1.66	-47.7	-65.5	3.5	3.02e+01	0	32	104	0	60	72598
2026-01-28 17:15:03.85	20.32	1.72	-47.7	-65.5	3.5	3.02e+01	0	31	104	0	60	72329
2026-01-28 17:15:04.86	20.30	1.79	-47.7	-65.4	3.5	3.02e+01	0	32	104	0	60	72050
2026-01-28 17:15:05.87	20.27	1.85	-47.7	-65.4	3.5	3.02e+01	0	32	104	0	60	71908
2026-01-28 17:15:06.88	20.24	1.92	-47.7	-65.5	3.5	3.02e+01	0	32	104	0	60	72401
2026-01-28 17:15:07.88	20.21	1.98	-47.7	-65.4	3.5	3.02e+01	0	32	104	0	60	72025
2026-01-28 17:15:08.89	20.19	2.05	-47.7	-65.4	3.5	3.02e+01	0	32	104	0	60	72050
2026-01-28 17:15:09.90	20.16	2.11	-47.7	-65.4	3.5	3.02e+01	0	32	104	0	60	71714
2026-01-28 17:15:10.91	20.13	2.18	-47.7	-65.4	3.5	3.02e+01	0	32	104	0	60	72074
2026-01-28 17:15:11.93	20.10	2.25	-47.7	-65.5	3.5	3.02e+01	0	32	104	0	60	72609
2026-01-28 17:15:12.94	20.08	2.31	-47.7	-65.5	3.5	3.02e+01	0	32	104	0	60	72248
2026-01-28 17:15:13.95	20.05	2.38	-47.7	-65.5	3.5	3.02e+01	0	32	104	0	60	72538
2026-01-28 17:15:14.95	20.02	2.45	-47.7	-65.5	3.5	3.02e+01	0	32	104	0	60	72157
2026-01-28 17:15:15.96	19.99	2.51	-47.7	-65.5	3.5	3.02e+01	0	32	104	0	60	72415
2026-01-28 17:15:16.98	19.96	2.58	-47.7	-65.5	3.5	3.02e+01	0	32	104	0	60	72226
2026-01-28 17:15:17.99	19.93	2.65	-47.7	-65.5	3.5	3.02e+01	0	32	104	0	60	72385
2026-01-28 17:15:19.00	19.90	2.72	-47.7	-65.3	3.5	3.02e+01	0	32	104	0	60	70991
2026-01-28 17:15:20.01	19.87	2.78	-47.6	-65.0	3.5	3.02e+01	0	32	104	0	60	68573
2026-01-28 17:15:21.01	19.85	2.85	-47.5	-64.6	3.5	3.02e+01	0	32	104	0	60	65286
2026-01-28 17:15:22.02	19.82	2.92	-47.5	-64.4	3.5	3.02e+01	0	32	104	0	60	64127
2026-01-28 17:15:23.03	19.79	2.99	-47.5	-64.3	3.5	3.02e+01	0	32	104	0	60	63111
2026-01-28 17:15:24.04	19.76	3.05	-47.5	-64.7	3.5	3.02e+01	0	32	104	0	60	65792
2026-01-28 17:15:25.05	19.73	3.12	-47.6	-62.7	3.6	3.02e+01	0	32	104	0	60	52261
2026-01-28 17:15:26.06	19.70	3.19	-47.6	-63.0	3.8	3.02e+01	0	32	104	0	60	54624
2026-01-28 17:15:27.07	19.67	3.26	-47.4	-59.1	6.2	3.02e+01	19	32	104	0	60	34682
2026-01-28 17:15:28.08	19.64	3.33	-46.3	-52.4	12.7	3.02e+01	58	32	0	1572864	60	16079
2026-01-28 17:15:29.09	19.60	3.40	-45.4	-50.1	14.6	3.02e+01	50	32	0	3145728	60	12298
2026-01-28 17:15:30.10	19.57	3.47	-43.2	-46.0	19.4	3.02e+01	59	32	0	5242880	60	7714
2026-01-28 17:15:31.11	19.54	3.54	-42.6	-45.2	19.9	3.02e+01	58	32	0	6815744	60	6976
2026-01-28 17:15:32.12	19.51	3.61	-41.5	-43.7	21.3	3.02e+01	44	32	0	8912896	58	6594
2026-01-28 17:15:33.13	19.48	3.68	-40.8	-42.8	22.3	3.02e+01	58	32	0	11010048	56	6674
2026-01-28 17:15:34.14	19.45	3.75	-41.1	-43.2	22.0	3.02e+01	53	32	0	12582912	56	6974
2026-01-28 17:15:35.15	19.42	3.82	-41.0	-43.0	21.1	3.02e+01	58	32	0	14680064	56	6833
2026-01-28 17:15:36.16	19.38	3.89	-47.6	-61.3	4.3	3.02e+01	0	32	104	15728640	60	44858
2026-01-28 17:15:37.16	19.35	3.96	-37.5	-38.9	26.2	3.02e+01	48	32	0	15728640	50	6027
2026-01-28 17:15:38.17	19.32	4.03	-47.5	-62.1	3.8	3.02e+01	0	32	104	17301504	60	49011
2026-01-28 17:15:39.18	19.29	4.10	-44.2	-47.5	18.8	3.02e+01	60	32	0	17825792	60	9174
2026-01-28 17:15:40.19	19.25	4.17	-45.0	-49.2	16.0	3.02e+01	58	32	0	19398656	60	11051
2026-01-28 17:15:41.20	19.22	4.24	-38.0	-39.5	25.6	3.02e+01	60	32	0	21495808	52	5758
2026-01-28 17:15:42.21	19.19	4.31	-38.2	-39.7	25.3	3.02e+01	46	32	0	23592960	50	6636
2026-01-28 17:15:43.22	19.15	4.39	-37.3	-38.7	26.3	3.02e+01	57	32	0	25165824	50	5896
2026-01-28 17:15:44.23	19.12	4.46	-37.1	-38.4	26.4	3.02e+01	62	32	0	27262976	48	6420
2026-01-28 17:15:45.24	19.09	4.53	-37.0	-38.3	26.6	3.02e+01	46	32	0	28835840	48	6342
2026-01-28 17:15:46.25	19.05	4.60	-37.0	-38.3	26.7	3.02e+01	60	32	0	30932992	48	6333
2026-01-28 17:15:47.26	19.02	4.68	-36.4	-37.8	27.1	3.02e+01	60	32	0	33030144	48	5952
2026-01-28 17:15:48.27	18.98	4.75	-36.4	-37.7	27.3	3.02e+01	57	32	0	34603008	48	5888
2026-01-28 17:15:49.28	18.95	4.82	-36.2	-37.5	27.4	3.02e+01	58	32	0	36700160	48	5761
2026-01-28 17:15:50.29	18.91	4.89	-36.4	-37.7	27.3	3.02e+01	62	32	0	38797312	48	5916
2026-01-28 17:15:51.30	18.88	4.97	-36.1	-37.5	27.4	3.02e+01	61	32	0	40370176	48	5726
2026-01-28 17:15:52.31	18.84	5.04	-36.5	-37.9	27.1	3.02e+01	58	32	0	42467328	48	6029
2026-01-28 17:15:53.31	18.81	5.12	-36.3	-37.6	27.2	3.02e+01	49	32	0	44040192	48	5808
2026-01-28 17:15:54.32	18.77	5.19	-36.4	-37.8	27.2	3.02e+01	58	32	0	46137344	48	5941
2026-01-28 17:15:55.33	18.74	5.26	-36.2	-37.6	27.4	3.02e+01	61	32	0	48234496	46	6505
2026-01-28 17:15:56.34	18.70	5.34	-36.3	-37.6	27.4	3.02e+01	61	32	0	49807360	46	6567
2026-01-28 17:15:57.35	18.66	5.41	-36.4	-37.7	27.3	3.02e+01	61	32	0	51904512	46	6639
2026-01-28 17:15:58.36	18.63	5.49	-36.4	-37.8	27.3	3.02e+01	51	32	0	53477376	46	6668
2026-01-28 17:15:59.36	18.59	5.56	-36.3	-37.7	27.3	3.02e+01	62	32	0	55574528	46	6578
2026-01-28 17:16:00.37	18.55	5.64	-36.1	-37.4	27.6	3.02e+01	60	32	0	57147392	46	6362
2026-01-28 17:16:01.38	18.52	5.71	-36.1	-37.4	27.6	3.02e+01	47	32	0	59244544	46	6415
2026-01-28 17:16:02.39	18.48	5.79	-36.3	-37.6	27.3	3.02e+01	62	32	0	61341696	46	6551
2026-01-28 17:16:03.40	18.44	5.87	-36.4	-37.7	27.3	3.02e+01	60	32	0	62914560	46	6593
2026-01-28 17:16:04.41	18.40	5.94	-36.3	-37.6	27.4	3.02e+01	58	32	0	65011712	46	6520
2026-01-28 17:16:05.42	18.36	6.02	-35.9	-37.2	27.8	3.02e+01	61	32	0	67108864	46	6241
2026-01-28 17:16:06.43	18.33	6.10	-36.1	-37.4	27.6	3.02e+01	51	32	0	68681728	46	6378
2026-01-28 17:16:07.44	18.29	6.17	-36.0	-37.3	27.8	3.02e+01	59	32	0	70778880	46	6282
2026-01-28 17:16:08.45	18.25	6.25	-35.9	-37.2	27.7	3.02e+01	57	32	0	72351744	46	6254
2026-01-28 17:16:09.46	18.21	6.33	-36.0	-37.3	27.6	3.02e+01	48	32	0	74448896	46	6349
2026-01-28 17:16:10.47	18.17	6.41	-36.1	-37.4	27.7	3.02e+01	57	32	0	76546048	46	6365
2026-01-28 17:16:11.48	18.13	6.49	-36.1	-37.4	27.6	3.02e+01	49	32	0	78118912	46	6372
2026-01-28 17:16:12.49	18.09	6.56	-35.6	-36.9	28.1	3.02e+01	60	32	0	80216064	46	6021
2026-01-28 17:16:13.49	18.05	6.64	-36.1	-37.4	27.6	3.02e+01	60	32	0	82313216	46	6422
2026-01-28 17:16:14.50	18.01	6.72	-36.4	-37.7	27.6	3.02e+01	51	32	0	83886080	46	6614
2026-01-28 17:16:15.51	17.97	6.80	-35.8	-37.1	28.0	3.02e+01	62	32	0	85983232	46	6136
2026-01-28 17:16:16.52	17.93	6.88	-35.7	-36.9	27.9	3.02e+01	59	32	0	87556096	46	6057
2026-01-28 17:16:17.53	17.88	6.96	-35.9	-37.2	27.9	3.02e+01	61	32	0	89653248	46	6255
2026-01-28 17:16:18.54	17.84	7.04	-35.9	-37.2	28.0	3.02e+01	60	32	0	91750400	46	6225
2026-01-28 17:16:19.55	17.80	7.12	-35.8	-37.0	28.0	3.02e+01	53	32	0	93323264	46	6125
2026-01-28 17:16:20.56	17.76	7.20	-35.8	-37.0	28.0	3.02e+01	58	32	0	95420416	46	6125
2026-01-28 17:16:21.57	17.72	7.28	-35.8	-37.1	28.1	3.02e+01	60	32	0	96993280	46	6164
2026-01-28 17:16:22.58	17.67	7.36	-35.8	-37.0	28.1	3.02e+01	45	32	0	99090432	46	6130
2026-01-28 17:16:23.59	17.63	7.44	-35.6	-36.9	28.2	3.02e+01	58	32	0	101187584	46	6043
2026-01-28 17:16:24.60	17.59	7.52	-35.8	-37.0	28.1	3.02e+01	61	32	0	102760448	46	6123
2026-01-28 17:16:25.60	17.54	7.61	-35.8	-37.1	27.9	3.02e+01	58	32	0	104857600	46	6181
2026-01-28 17:16:26.61	17.50	7.69	-35.9	-37.2	28.0	3.02e+01	58	32	0	106430464	46	6265
2026-01-28 17:16:27.62	17.46	7.77	-36.1	-37.4	27.9	3.02e+01	54	32	0	108527616	46	6360
2026-01-28 17:16:28.62	17.41	7.85	-35.9	-37.2	27.9	3.02e+01	59	32	0	110624768	46	6224
2026-01-28 17:16:29.63	17.37	7.93	-35.7	-37.0	28.1	3.02e+01	50	32	0	112197632	46	6095
2026-01-28 17:16:30.64	17.32	8.02	-35.8	-37.0	28.2	3.02e+01	45	32	0	114294784	46	6121
2026-01-28 17:16:31.65	17.28	8.10	-35.9	-37.2	28.0	3.02e+01	60	32	0	115867648	46	6217
2026-01-28 17:16:32.66	17.23	8.19	-35.7	-36.9	28.2	3.02e+01	56	32	0	117964800	46	6039
2026-01-28 17:16:33.67	17.18	8.27	-35.5	-36.8	28.4	3.02e+01	58	32	0	120061952	46	5947
2026-01-28 17:16:34.68	17.14	8.35	-35.7	-37.0	28.2	3.02e+01	57	32	0	121634816	46	6098
2026-01-28 17:16:35.69	17.09	8.44	-35.6	-36.8	28.3	3.02e+01	51	32	0	123731968	46	5992
2026-01-28 17:16:36.70	17.04	8.52	-35.5	-36.8	28.3	3.02e+01	60	32	0	125304832	46	5945
2026-01-28 17:16:37.71	17.00	8.61	-35.8	-37.1	28.1	3.02e+01	57	32	0	127401984	46	6184
2026-01-28 17:16:38.72	16.95	8.69	-35.6	-36.9	28.3	3.02e+01	44	32	0	129499136	46	6022
2026-01-28 17:16:39.73	16.90	8.78	-35.3	-36.6	28.6	3.02e+01	60	32	0	131072000	46	5808
2026-01-28 17:16:40.73	16.85	8.87	-35.4	-36.6	28.5	3.02e+01	60	32	0	133169152	46	5843
2026-01-28 17:16:41.74	16.80	8.95	-35.6	-36.9	28.4	3.02e+01	62	32	0	135266304	46	6009
2026-01-28 17:16:42.75	16.76	9.04	-35.4	-36.7	28.5	3.02e+01	61	32	0	136839168	46	5895
2026-01-28 17:16:43.76	16.71	9.13	-35.7	-37.0	28.3	3.02e+01	55	32	0	138936320	46	6074
2026-01-28 17:16:44.77	16.66	9.21	-35.6	-36.9	28.4	3.02e+01	61	32	0	140509184	46	6012
2026-01-28 17:16:45.78	16.61	9.30	-35.4	-36.7	28.5	3.02e+01	62	32	0	142606336	46	5870
2026-01-28 17:16:46.79	16.56	9.39	-35.4	-36.7	28.5	3.02e+01	54	32	0	144703488	46	5872
2026-01-28 17:16:47.79	16.51	9.48	-35.3	-36.5	28.7	3.02e+01	62	32	0	146276352	46	5772
2026-01-28 17:16:48.80	16.45	9.57	-35.2	-36.5	28.6	3.02e+01	39	32	0	148373504	46	5762
2026-01-28 17:16:49.81	16.40	9.66	-35.3	-36.6	28.7	3.02e+01	60	32	0	149946368	46	5804
2026-01-28 17:16:50.82	16.35	9.74	-35.3	-36.6	28.6	3.02e+01	63	32	0	152043520	46	5825
2026-01-28 17:16:51.82	16.30	9.83	-35.4	-36.6	28.7	3.02e+01	48	32	0	153616384	46	5826
2026-01-28 17:16:52.83	16.25	9.92	-35.5	-36.7	28.5	3.02e+01	57	32	0	155713536	46	5908
2026-01-28 17:16:53.84	16.19	10.01	-35.2	-36.4	28.8	3.02e+01	57	32	0	157810688	46	5719
2026-01-28 17:16:54.85	16.14	10.11	-35.3	-36.5	28.7	3.02e+01	60	32	0	159383552	46	5780
2026-01-28 17:16:55.86	16.09	10.20	-35.2	-36.5	28.8	3.02e+01	55	32	0	161480704	46	5729
2026-01-28 17:16:56.87	16.03	10.29	-35.3	-36.6	28.7	3.02e+01	45	32	0	163577856	46	5795
2026-01-28 17:16:57.88	15.98	10.38	-35.5	-36.7	28.5	3.02e+01	60	32	0	165150720	46	5924
2026-01-28 17:16:58.89	15.92	10.47	-35.2	-36.5	28.8	3.02e+01	56	32	0	167247872	46	5734
2026-01-28 17:16:59.90	15.87	10.56	-35.2	-36.5	28.7	3.02e+01	46	32	0	168820736	46	5739
2026-01-28 17:17:00.91	15.81	10.66	-34.9	-36.2	28.9	3.02e+01	60	32	0	170917888	44	6223
2026-01-28 17:17:01.92	15.76	10.75	-35.0	-36.2	29.0	3.02e+01	58	32	0	173015040	44	6243
2026-01-28 17:17:02.93	15.70	10.84	-35.0	-36.3	29.0	3.02e+01	61	32	0	174587904	44	6291
2026-01-28 17:17:03.94	15.64	10.94	-34.8	-36.0	29.2	3.02e+01	60	32	0	176685056	44	6104
2026-01-28 17:17:04.95	15.58	11.03	-34.8	-36.1	29.0	3.02e+01	56	32	0	178782208	44	6151
2026-01-28 17:17:05.96	15.53	11.13	-34.7	-36.0	29.2	3.02e+01	60	32	0	180355072	44	6080
2026-01-28 17:17:06.97	15.47	11.22	-34.9	-36.1	29.1	3.02e+01	61	32	0	182452224	44	6160
2026-01-28 17:17:07.98	15.41	11.32	-34.6	-35.8	29.3	3.02e+01	49	32	0	184025088	44	5987
2026-01-28 17:17:08.99	15.35	11.41	-34.7	-35.9	29.3	3.02e+01	57	32	0	186122240	44	6036
2026-01-28 17:17:10.00	15.29	11.51	-34.7	-35.9	29.2	3.02e+01	60	32	0	188219392	44	6030
2026-01-28 17:17:11.00	15.23	11.61	-34.7	-35.9	29.3	3.02e+01	63	32	0	189792256	44	6031
2026-01-28 17:17:12.01	15.17	11.70	-34.7	-35.9	29.3	3.02e+01	60	32	0	191889408	44	6009
2026-01-28 17:17:13.02	15.11	11.80	-34.7	-35.9	29.2	3.02e+01	60	32	0	193462272	44	6013
2026-01-28 17:17:14.03	15.05	11.90	-34.7	-35.9	29.3	3.02e+01	58	32	0	195559424	44	6035
2026-01-28 17:17:15.04	14.99	12.00	-34.9	-36.1	29.2	3.02e+01	59	32	0	197656576	44	6170
2026-01-28 17:17:16.05	14.92	12.10	-34.9	-36.1	29.1	3.02e+01	45	32	0	199229440	44	6148
2026-01-28 17:17:17.06	14.86	12.20	-34.5	-35.7	29.5	3.02e+01	59	32	0	201326592	44	5871
2026-01-28 17:17:18.07	14.80	12.30	-34.5	-35.7	29.4	3.02e+01	63	32	0	202899456	44	5903
2026-01-28 17:17:19.08	14.73	12.40	-34.2	-35.3	29.7	3.02e+01	59	32	0	204996608	44	5659
2026-01-28 17:17:20.09	14.67	12.50	-34.2	-35.4	29.8	3.02e+01	59	32	0	207093760	44	5718
2026-01-28 17:17:21.10	14.60	12.60	-34.1	-35.3	29.9	3.02e+01	51	32	0	208666624	44	5630
2026-01-28 17:17:22.11	14.54	12.70	-34.2	-35.4	29.7	3.02e+01	60	32	0	210763776	44	5698
2026-01-28 17:17:23.12	14.47	12.80	-34.1	-35.3	29.8	3.02e+01	59	32	0	212336640	44	5615
2026-01-28 17:17:24.13	14.41	12.90	-34.0	-35.2	30.0	3.02e+01	46	32	0	214433792	44	5564
2026-01-28 17:17:25.13	14.34	13.00	-34.0	-35.2	29.9	3.02e+01	61	32	0	216530944	44	5566
2026-01-28 17:17:26.14	14.27	13.11	-34.2	-35.3	29.9	3.02e+01	45	32	0	218103808	44	5655
2026-01-28 17:17:27.15	14.20	13.21	-34.1	-35.3	29.9	3.02e+01	59	32	0	220200960	44	5626
2026-01-28 17:17:28.16	14.14	13.31	-34.2	-35.3	29.8	3.02e+01	58	32	0	221773824	44	5644
2026-01-28 17:17:29.17	14.07	13.42	-34.2	-35.4	29.8	3.02e+01	48	32	0	223870976	44	5712
2026-01-28 17:17:30.18	14.00	13.52	-34.1	-35.3	29.8	3.02e+01	52	32	0	225968128	44	5646
2026-01-28 17:17:31.19	13.93	13.63	-34.2	-35.3	29.8	3.02e+01	59	32	0	227540992	44	5653
2026-01-28 17:17:32.20	13.86	13.73	-34.1	-35.3	29.8	3.02e+01	59	32	0	229638144	44	5606
2026-01-28 17:17:33.21	13.78	13.84	-34.2	-35.3	29.8	3.02e+01	57	32	0	231735296	44	5654
2026-01-28 17:17:34.22	13.71	13.95	-34.2	-35.4	29.8	3.02e+01	49	32	0	233308160	44	5704
2026-01-28 17:17:35.22	13.64	14.05	-34.2	-35.4	29.8	3.02e+01	56	32	0	235405312	44	5666
2026-01-28 17:17:36.23	13.57	14.16	-34.2	-35.4	29.7	3.02e+01	59	32	0	236978176	44	5703
2026-01-28 17:17:37.24	13.49	14.27	-34.2	-35.4	29.8	3.02e+01	49	32	0	239075328	44	5683
2026-01-28 17:17:38.25	13.42	14.38	-34.2	-35.4	29.8	3.02e+01	58	32	0	241172480	44	5672
2026-01-28 17:17:39.26	13.34	14.49	-34.2	-35.4	29.8	3.02e+01	57	32	0	242745344	44	5696
2026-01-28 17:17:40.27	13.27	14.60	-34.3	-35.5	29.7	3.02e+01	58	32	0	244842496	44	5746
2026-01-28 17:17:41.28	13.19	14.71	-34.4	-35.6	29.6	3.02e+01	63	32	0	246939648	44	5795
2026-01-28 17:17:42.29	13.12	14.82	-34.2	-35.3	29.9	3.02e+01	63	32	0	248512512	44	5652
2026-01-28 17:17:43.30	13.04	14.93	-34.2	-35.3	29.8	3.02e+01	61	32	0	250609664	44	5649
2026-01-28 17:17:44.31	12.96	15.04	-34.1	-35.3	29.8	3.02e+01	58	32	0	252182528	44	5638
2026-01-28 17:17:45.31	12.88	15.15	-34.0	-35.2	30.0	3.02e+01	47	32	0	254279680	44	5581
2026-01-28 17:17:46.32	12.80	15.26	-34.1	-35.3	29.9	3.02e+01	58	32	0	255852544	44	5624
2026-01-28 17:17:47.33	12.72	15.38	-34.0	-35.2	30.0	3.02e+01	61	32	0	257949696	44	5565
2026-01-28 17:17:48.34	12.64	15.49	-34.0	-35.1	30.1	3.02e+01	58	32	0	260046848	42	6195
2026-01-28 17:17:49.35	12.56	15.60	-33.9	-35.1	30.1	3.02e+01	61	32	0	261619712	42	6162
2026-01-28 17:17:50.36	12.48	15.72	-34.0	-35.2	30.0	3.02e+01	50	32	0	263716864	42	6228
2026-01-28 17:17:51.36	12.40	15.83	-33.9	-35.1	30.1	3.02e+01	58	32	0	265289728	42	6146
2026-01-28 17:17:52.37	12.31	15.95	-33.9	-35.1	30.1	3.02e+01	53	32	0	267386880	42	6174
2026-01-28 17:17:53.38	12.23	16.07	-34.0	-35.2	30.0	3.02e+01	47	32	0	269484032	42	6247
2026-01-28 17:17:54.39	12.14	16.18	-34.0	-35.2	30.0	3.02e+01	59	32	0	271056896	42	6210
2026-01-28 17:17:55.40	12.06	16.30	-34.2	-35.3	30.0	3.02e+01	60	32	0	273154048	42	6342
2026-01-28 17:17:56.41	11.97	16.42	-34.1	-35.2	29.9	3.02e+01	57	32	0	275251200	42	6277
2026-01-28 17:17:57.42	11.88	16.54	-34.2	-35.4	29.9	3.02e+01	59	32	0	276824064	42	6376
2026-01-28 17:17:58.42	11.80	16.65	-34.2	-35.4	29.9	3.02e+01	57	32	0	278921216	42	6375
2026-01-28 17:17:59.43	11.71	16.77	-34.1	-35.2	30.0	3.02e+01	57	32	0	280494080	42	6266
2026-01-28 17:18:00.44	11.62	16.90	-34.1	-35.3	29.9	3.02e+01	61	32	0	282591232	42	6313
2026-01-28 17:18:01.45	11.53	17.02	-34.3	-35.5	29.9	3.02e+01	47	32	0	284688384	42	6437
2026-01-28 17:18:02.46	11.44	17.14	-34.1	-35.2	30.0	3.02e+01	58	32	0	286261248	42	6276
2026-01-28 17:18:03.47	11.34	17.26	-34.1	-35.2	30.0	3.02e+01	47	32	0	288358400	42	6263
2026-01-28 17:18:04.48	11.25	17.38	-34.1	-35.3	30.0	3.02e+01	58	32	0	289931264	42	6297
2026-01-28 17:18:05.48	11.16	17.50	-34.2	-35.4	29.9	3.02e+01	56	32	0	292028416	42	6377
2026-01-28 17:18:06.49	11.06	17.63	-34.1	-35.3	30.0	3.02e+01	47	32	0	294125568	42	6326
2026-01-28 17:18:07.50	10.97	17.75	-34.1	-35.3	30.0	3.02e+01	62	32	0	295698432	42	6283
2026-01-28 17:18:08.51	10.87	17.88	-34.1	-35.3	30.1	3.02e+01	54	32	0	297795584	42	6308
2026-01-28 17:18:09.52	10.77	18.00	-34.0	-35.2	30.0	3.02e+01	60	32	0	299368448	42	6220
2026-01-28 17:18:10.53	10.68	18.13	-34.1	-35.3	30.0	3.02e+01	59	32	0	301465600	42	6281
2026-01-28 17:18:11.53	10.58	18.26	-34.1	-35.3	30.0	3.02e+01	43	32	0	303562752	42	6287
2026-01-28 17:18:12.54	10.48	18.38	-34.2	-35.4	30.0	3.02e+01	59	32	0	305135616	42	6351
2026-01-28 17:18:13.55	10.38	18.51	-34.4	-35.5	29.8	3.02e+01	59	32	0	307232768	42	6487
2026-01-28 17:18:14.56	10.28	18.64	-34.2	-35.3	30.0	3.02e+01	42	32	0	308805632	42	6337
2026-01-28 17:18:15.57	10.17	18.77	-34.2	-35.4	29.9	3.02e+01	57	32	0	310902784	42	6360
2026-01-28 17:18:16.57	10.07	18.90	-34.2	-35.4	30.0	3.02e+01	58	32	0	312999936	42	6390
2026-01-28 17:18:17.58	9.97	19.03	-34.2	-35.3	29.9	3.02e+01	57	32	0	314572800	42	6350
2026-01-28 17:18:18.59	9.86	19.16	-34.2	-35.4	30.0	3.02e+01	59	32	0	316669952	42	6353
2026-01-28 17:18:19.60	9.75	19.29	-34.2	-35.4	30.0	3.02e+01	59	32	0	318242816	42	6378
2026-01-28 17:18:20.61	9.65	19.43	-34.1	-35.3	30.1	3.02e+01	58	32	0	320339968	42	6285
2026-01-28 17:18:21.62	9.54	19.56	-34.2	-35.4	30.0	3.02e+01	57	32	0	322437120	42	6365
2026-01-28 17:18:22.62	9.43	19.69	-34.1	-35.3	30.1	3.02e+01	49	32	0	324009984	42	6290
2026-01-28 17:18:23.63	9.32	19.83	-34.1	-35.2	30.1	3.02e+01	58	32	0	326107136	42	6265
2026-01-28 17:18:24.64	9.21	19.96	-34.1	-35.3	30.0	3.02e+01	59	32	0	328204288	42	6294
2026-01-28 17:18:25.65	9.09	20.10	-34.1	-35.3	30.1	3.02e+01	57	32	0	329777152	42	6315
2026-01-28 17:18:26.66	8.98	20.24	-34.2	-35.3	30.0	3.02e+01	62	32	0	331874304	42	6337
2026-01-28 17:18:27.67	8.86	20.38	-34.2	-35.4	30.0	3.02e+01	46	32	0	333447168	42	6359
2026-01-28 17:18:28.68	8.75	20.51	-34.4	-35.6	29.8	3.02e+01	58	32	0	335544320	42	6539
2026-01-28 17:18:29.69	8.63	20.65	-34.3	-35.4	30.0	3.02e+01	58	32	0	337641472	42	6416
2026-01-28 17:18:30.69	8.51	20.79	-34.3	-35.5	29.9	3.02e+01	41	32	0	339214336	42	6460
2026-01-28 17:18:31.71	8.39	20.93	-34.4	-35.6	29.7	3.02e+01	58	32	0	341311488	42	6551
2026-01-28 17:18:32.71	8.27	21.07	-34.6	-35.8	29.7	3.02e+01	57	32	0	342884352	42	6683
2026-01-28 17:18:33.72	8.15	21.22	-34.5	-35.7	29.7	3.02e+01	54	32	0	344981504	42	6584
2026-01-28 17:18:34.73	8.03	21.36	-34.5	-35.6	29.8	3.02e+01	59	32	0	347078656	42	6573
2026-01-28 17:18:35.74	7.90	21.50	-34.4	-35.6	29.8	3.02e+01	53	32	0	348651520	42	6546
2026-01-28 17:18:36.75	7.78	21.65	-34.5	-35.7	29.7	3.02e+01	58	32	0	350748672	42	6636
2026-01-28 17:18:37.76	7.65	21.79	-34.5	-35.7	29.8	3.02e+01	59	32	0	352321536	42	6601
2026-01-28 17:18:38.77	7.52	21.94	-34.7	-35.9	29.6	3.02e+01	45	32	0	354418688	42	6772
2026-01-28 17:18:39.78	7.39	22.08	-34.6	-35.8	29.7	3.02e+01	55	32	0	356515840	42	6711
2026-01-28 17:18:40.79	7.26	22.23	-34.7	-35.9	29.5	3.02e+01	59	32	0	358088704	42	6788
2026-01-28 17:18:41.80	7.13	22.38	-34.6	-35.8	29.6	3.02e+01	60	32	0	360185856	42	6708
2026-01-28 17:18:42.81	6.99	22.53	-34.6	-35.8	29.6	3.02e+01	58	32	0	361758720	42	6706
2026-01-28 17:18:43.82	6.86	22.68	-34.5	-35.7	29.8	3.02e+01	55	32	0	363855872	42	6594
2026-01-28 17:18:44.83	6.72	22.83	-34.6	-35.8	29.7	3.02e+01	55	32	0	365953024	42	6656
2026-01-28 17:18:45.84	6.58	22.98	-34.6	-35.8	29.6	3.02e+01	61	32	0	367525888	42	6671
2026-01-28 17:18:46.84	6.45	23.13	-34.6	-35.8	29.7	3.02e+01	60	32	0	369623040	42	6658
2026-01-28 17:18:47.86	6.30	23.28	-34.6	-35.8	29.6	3.02e+01	58	32	0	371720192	42	6700
2026-01-28 17:18:48.87	6.16	23.44	-34.7	-35.9	29.6	3.02e+01	44	32	0	373293056	42	6774
2026-01-28 17:18:49.88	6.02	23.59	-34.9	-36.1	29.4	3.02e+01	58	32	0	375390208	42	6923
2026-01-28 17:18:50.89	5.87	23.75	-34.8	-36.0	29.5	3.02e+01	58	32	0	376963072	42	6844
2026-01-28 17:18:51.90	5.72	23.90	-34.8	-36.0	29.5	3.02e+01	46	32	0	379060224	44	6098
2026-01-28 17:18:52.90	5.58	24.06	-34.8	-36.0	29.4	3.02e+01	62	32	0	381157376	44	6103
2026-01-28 17:18:53.91	5.43	24.22	-34.7	-35.9	29.5	3.02e+01	56	32	0	382730240	44	6055
2026-01-28 17:18:54.92	5.28	24.38	-34.7	-35.9	29.6	3.02e+01	58	32	0	384827392	44	6016
2026-01-28 17:18:55.93	5.12	24.54	-34.7	-35.9	29.5	3.02e+01	61	32	0	386400256	44	6027
2026-01-28 17:18:56.94	4.97	24.70	-34.9	-36.1	29.4	3.02e+01	58	32	0	388497408	44	6173
2026-01-28 17:18:57.95	4.81	24.86	-34.6	-35.8	29.6	3.02e+01	57	32	0	390594560	44	5951
2026-01-28 17:18:58.96	4.65	25.02	-34.7	-35.9	29.5	3.02e+01	58	32	0	392167424	44	6006
2026-01-28 17:18:59.97	4.49	25.18	-34.4	-35.6	29.8	3.02e+01	48	32	0	394264576	44	5845
2026-01-28 17:19:00.98	4.33	25.35	-34.7	-35.9	29.6	3.02e+01	60	32	0	395837440	44	5999
2026-01-28 17:19:01.99	4.16	25.51	-34.3	-35.5	29.9	3.02e+01	60	32	0	397934592	44	5728
2026-01-28 17:19:03.00	4.00	25.68	-34.4	-35.6	29.9	3.02e+01	58	32	0	400031744	44	5824
2026-01-28 17:19:04.00	3.83	25.84	-34.3	-35.5	29.9	3.02e+01	59	32	0	401604608	44	5746
2026-01-28 17:19:05.01	3.66	26.01	-34.4	-35.6	29.8	3.02e+01	47	32	0	403701760	44	5804
2026-01-28 17:19:06.02	3.49	26.17	-34.6	-35.8	29.7	3.02e+01	58	32	0	405274624	44	5936
2026-01-28 17:19:07.03	3.32	26.34	-34.6	-35.8	29.7	3.02e+01	59	32	0	407371776	44	5969
2026-01-28 17:19:08.04	3.14	26.51	-34.7	-35.9	29.6	3.02e+01	44	32	0	409468928	44	5999
2026-01-28 17:19:09.05	2.97	26.68	-34.7	-35.9	29.6	3.02e+01	58	32	0	411041792	44	5995
2026-01-28 17:19:10.06	2.79	26.85	-34.5	-35.7	29.8	3.02e+01	57	32	0	413138944	44	5884
2026-01-28 17:19:11.07	2.61	27.03	-34.5	-35.7	29.8	3.02e+01	62	32	0	415236096	44	5883
2026-01-28 17:19:12.08	2.42	27.20	-34.5	-35.7	29.8	3.02e+01	55	32	0	416808960	44	5913
2026-01-28 17:19:13.09	2.24	27.37	-34.0	-35.1	30.2	3.02e+01	59	32	0	418906112	44	5528
2026-01-28 17:19:14.10	2.05	27.55	-34.1	-35.2	30.2	3.02e+01	61	32	0	420478976	42	6270
2026-01-28 17:19:15.11	1.86	27.72	-34.2	-35.3	30.1	3.02e+01	59	32	0	422576128	42	6342
2026-01-28 17:19:16.12	1.67	27.90	-34.3	-35.5	29.9	3.02e+01	44	32	0	424673280	42	6443
2026-01-28 17:19:17.13	1.47	28.08	-34.4	-35.6	29.9	3.02e+01	60	32	0	426246144	42	6521
2026-01-28 17:19:18.13	1.28	28.25	-34.2	-35.4	30.0	3.02e+01	53	32	0	428343296	42	6366
2026-01-28 17:19:19.14	1.08	28.43	-34.1	-35.3	30.2	3.02e+01	58	32	0	429916160	42	6290
2026-01-28 17:19:20.15	0.88	28.61	-33.9	-35.1	30.3	3.02e+01	58	32	0	432013312	42	6136
2026-01-28 17:19:21.16	0.67	28.79	-33.8	-34.9	30.4	3.02e+01	48	32	0	434110464	42	6052
2026-01-28 17:19:22.17	0.47	28.98	-33.7	-34.9	30.4	3.02e+01	60	32	0	435683328	42	6037
2026-01-28 17:19:23.18	0.26	29.16	-33.7	-34.9	30.4	3.02e+01	61	32	0	437780480	42	6025
2026-01-28 17:19:24.19	0.05	29.34	-33.9	-35.1	30.4	3.02e+01	60	32	0	439877632	42	6136
2026-01-28 17:19:25.20	359.83	29.53	-33.8	-35.0	30.3	3.02e+01	60	32	0	441450496	42	6093
2026-01-28 17:19:26.21	359.62	29.71	-33.8	-34.9	30.4	3.02e+01	47	32	0	443547648	42	6056
2026-01-28 17:19:27.22	359.40	29.90	-33.9	-35.1	30.3	3.02e+01	60	32	0	445120512	42	6156
2026-01-28 17:19:28.23	359.18	30.08	-33.9	-35.1	30.3	3.02e+01	61	32	0	447217664	42	6168
2026-01-28 17:19:29.24	358.95	30.27	-33.6	-34.8	30.5	3.02e+01	50	32	0	449314816	42	5955
2026-01-28 17:19:30.25	358.73	30.46	-33.8	-34.9	30.4	3.02e+01	56	32	0	450887680	42	6047
2026-01-28 17:19:31.26	358.50	30.65	-33.8	-35.0	30.3	3.02e+01	60	32	0	452984832	42	6097
2026-01-28 17:19:32.26	358.27	30.84	-33.9	-35.1	30.4	3.02e+01	57	32	0	454557696	42	6135
2026-01-28 17:19:33.27	358.03	31.03	-33.6	-34.8	30.5	3.02e+01	58	32	0	456654848	42	5951
2026-01-28 17:19:34.28	357.79	31.22	-33.6	-34.7	30.6	3.02e+01	52	32	0	458752000	42	5912
2026-01-28 17:19:35.29	357.55	31.41	-33.5	-34.7	30.7	3.02e+01	59	32	0	460324864	42	5881
2026-01-28 17:19:36.30	357.31	31.61	-33.6	-34.8	30.5	3.02e+01	58	32	0	462422016	42	5944
2026-01-28 17:19:37.31	357.06	31.80	-33.8	-35.0	30.4	3.02e+01	50	32	0	463994880	42	6106
2026-01-28 17:19:38.32	356.81	31.99	-34.0	-35.2	30.3	3.02e+01	60	32	0	466092032	42	6253
2026-01-28 17:19:39.33	356.55	32.19	-34.2	-35.4	30.2	3.02e+01	57	32	0	468189184	42	6380
2026-01-28 17:19:40.34	356.30	32.39	-34.0	-35.2	30.2	3.02e+01	60	32	0	469762048	42	6249
2026-01-28 17:19:41.35	356.04	32.58	-33.9	-35.0	30.4	3.02e+01	59	32	0	471859200	42	6133
2026-01-28 17:19:42.35	355.78	32.78	-33.6	-34.8	30.6	3.02e+01	50	32	0	473432064	42	5945
2026-01-28 17:19:43.36	355.51	32.98	-33.6	-34.7	30.7	3.02e+01	61	32	0	475529216	42	5902
2026-01-28 17:19:44.37	355.24	33.18	-33.6	-34.7	30.6	3.02e+01	60	32	0	477626368	42	5901
2026-01-28 17:19:45.38	354.97	33.38	-34.0	-35.2	30.3	3.02e+01	45	32	0	479199232	42	6218
2026-01-28 17:19:46.39	354.69	33.58	-34.3	-35.4	30.0	3.02e+01	59	32	0	481296384	42	6416
2026-01-28 17:19:47.39	354.41	33.78	-34.4	-35.6	30.0	3.02e+01	62	32	0	483393536	42	6499
2026-01-28 17:19:48.40	354.12	33.98	-34.4	-35.6	30.0	3.02e+01	58	32	0	484966400	42	6518
2026-01-28 17:19:49.41	353.84	34.18	-34.4	-35.6	29.9	3.02e+01	59	32	0	487063552	42	6551
2026-01-28 17:19:50.43	353.54	34.39	-34.4	-35.5	30.0	3.02e+01	54	32	0	488636416	42	6495
2026-01-28 17:19:51.44	353.25	34.59	-34.2	-35.3	30.1	3.02e+01	61	32	0	490733568	42	6348
2026-01-28 17:19:52.44	352.95	34.79	-34.3	-35.4	30.1	3.02e+01	59	33	0	492830720	42	6420
2026-01-28 17:19:53.45	352.65	35.00	-34.5	-35.7	29.8	3.02e+01	55	32	0	494403584	42	6630
2026-01-28 17:19:54.46	352.34	35.20	-34.8	-36.0	29.6	3.02e+01	57	32	0	496500736	42	6838
2026-01-28 17:19:55.47	352.03	35.41	-35.2	-36.4	29.2	3.02e+01	46	32	0	498073600	44	6409
2026-01-28 17:19:56.49	351.71	35.61	-35.2	-36.4	29.3	3.02e+01	63	32	0	500170752	44	6418
2026-01-28 17:19:57.49	351.39	35.82	-35.0	-36.2	29.3	3.02e+01	58	32	0	502267904	44	6248
2026-01-28 17:19:58.50	351.07	36.03	-35.0	-36.2	29.4	3.02e+01	47	33	0	503840768	44	6264
2026-01-28 17:19:59.51	350.74	36.23	-35.1	-36.3	29.3	3.02e+01	61	32	0	505937920	44	6306
2026-01-28 17:20:00.53	350.40	36.44	-34.9	-36.1	29.5	3.02e+01	62	32	0	507510784	44	6174
2026-01-28 17:20:01.53	350.07	36.65	-35.1	-36.3	29.3	3.02e+01	56	32	0	509607936	44	6342
2026-01-28 17:20:02.54	349.73	36.86	-35.7	-37.0	28.8	3.02e+01	63	32	0	511705088	44	6807
2026-01-28 17:20:03.55	349.38	37.06	-36.1	-37.3	28.6	3.02e+01	54	32	0	513277952	46	6323
2026-01-28 17:20:04.56	349.03	37.27	-35.9	-37.2	28.6	3.02e+01	61	32	0	515375104	46	6206
2026-01-28 17:20:05.57	348.67	37.48	-35.9	-37.1	28.6	3.02e+01	60	32	0	516947968	46	6205
2026-01-28 17:20:06.58	348.31	37.69	-35.5	-36.7	29.0	3.02e+01	51	32	0	519045120	46	5890
2026-01-28 17:20:07.59	347.95	37.90	-35.5	-36.8	29.0	3.02e+01	57	32	0	521142272	46	5940
2026-01-28 17:20:08.60	347.58	38.11	-36.0	-37.2	28.7	3.02e+01	59	32	0	522715136	46	6257
2026-01-28 17:20:09.61	347.21	38.32	-36.3	-37.6	28.2	3.02e+01	58	32	0	524812288	46	6499
2026-01-28 17:20:10.62	346.83	38.53	-36.3	-37.6	28.2	3.02e+01	56	32	0	526385152	46	6548
2026-01-28 17:20:11.63	346.44	38.74	-36.1	-37.3	28.4	3.02e+01	59	32	0	528482304	46	6337
2026-01-28 17:20:12.64	346.05	38.94	-35.6	-36.9	28.8	3.02e+01	61	32	0	530579456	46	6011
2026-01-28 17:20:13.65	345.66	39.15	-35.6	-36.9	28.9	3.02e+01	59	32	0	532152320	46	6005
2026-01-28 17:20:14.66	345.26	39.36	-35.9	-37.1	28.6	3.02e+01	44	32	0	534249472	46	6195
2026-01-28 17:20:15.67	344.85	39.57	-36.5	-37.8	28.1	3.02e+01	59	32	0	536346624	46	6677
2026-01-28 17:20:16.67	344.44	39.78	-36.2	-37.5	28.4	3.02e+01	59	32	0	537919488	46	6470
2026-01-28 17:20:17.68	344.03	39.98	-36.1	-37.3	28.6	3.02e+01	60	32	0	540016640	46	6326
2026-01-28 17:20:18.69	343.61	40.19	-35.8	-37.1	28.7	3.02e+01	60	32	0	541589504	46	6146
2026-01-28 17:20:19.70	343.18	40.40	-35.8	-37.1	28.7	3.02e+01	46	33	0	543686656	46	6161
2026-01-28 17:20:20.71	342.74	40.60	-36.0	-37.2	28.5	3.02e+01	59	32	0	545783808	46	6250
2026-01-28 17:20:21.72	342.31	40.81	-36.2	-37.5	28.3	3.02e+01	61	32	0	547356672	46	6463
2026-01-28 17:20:22.72	341.87	41.01	-36.0	-37.2	28.5	3.02e+01	45	32	0	549453824	46	6250
2026-01-28 17:20:23.73	341.42	41.22	-35.7	-36.9	28.8	3.02e+01	61	32	0	551550976	46	6033
2026-01-28 17:20:24.74	340.96	41.42	-35.6	-36.8	29.0	3.02e+01	59	32	0	553123840	46	5948
2026-01-28 17:20:25.74	340.50	41.62	-35.6	-36.8	29.0	3.02e+01	61	32	0	555220992	46	5955
2026-01-28 17:20:26.75	340.03	41.82	-35.9	-37.1	28.7	3.02e+01	60	32	0	556793856	46	6200
2026-01-28 17:20:27.76	339.56	42.02	-35.9	-37.1	28.6	3.02e+01	51	32	0	558891008	46	6164
2026-01-28 17:20:28.77	339.08	42.22	-35.8	-37.1	28.7	3.02e+01	59	32	0	560463872	46	6167
2026-01-28 17:20:29.78	338.59	42.42	-35.6	-36.8	28.9	3.02e+01	63	32	0	562561024	46	5982
2026-01-28 17:20:30.79	338.10	42.62	-35.4	-36.6	29.1	3.02e+01	60	32	0	564658176	46	5832
2026-01-28 17:20:31.80	337.60	42.81	-35.5	-36.7	29.0	3.02e+01	58	32	0	566231040	46	5888
2026-01-28 17:20:32.81	337.10	43.01	-35.7	-36.9	28.8	3.02e+01	45	32	0	568328192	46	6024
2026-01-28 17:20:33.82	336.59	43.20	-35.7	-36.9	28.8	3.02e+01	59	32	0	569901056	46	6016
2026-01-28 17:20:34.82	336.08	43.39	-35.9	-37.1	28.7	3.02e+01	51	32	0	571998208	46	6205
2026-01-28 17:20:35.84	335.55	43.58	-35.8	-37.1	28.7	3.02e+01	49	32	0	574095360	46	6139
2026-01-28 17:20:36.84	335.02	43.77	-36.0	-37.2	28.6	3.02e+01	57	32	0	575668224	46	6271
2026-01-28 17:20:37.85	334.49	43.95	-35.5	-36.8	29.0	3.02e+01	59	32	0	577765376	46	5927
2026-01-28 17:20:38.86	333.94	44.14	-35.4	-36.6	29.1	3.02e+01	58	32	0	579862528	46	5858
2026-01-28 17:20:39.87	333.39	44.32	-35.5	-36.8	28.9	3.02e+01	56	32	0	581435392	46	5927
2026-01-28 17:20:40.88	332.84	44.50	-35.3	-36.5	29.2	3.02e+01	59	32	0	583532544	46	5749
2026-01-28 17:20:41.89	332.28	44.68	-35.4	-36.6	29.1	3.02e+01	58	32	0	585105408	46	5815
2026-01-28 17:20:42.90	331.71	44.85	-35.3	-36.5	29.1	3.02e+01	61	32	0	587202560	46	5790
2026-01-28 17:20:43.91	331.13	45.03	-35.6	-36.8	28.9	3.02e+01	45	32	0	589299712	46	5949
2026-01-28 17:20:44.92	330.55	45.20	-35.5	-36.7	29.0	3.02e+01	63	32	0	590872576	46	5910
2026-01-28 17:20:45.93	329.97	45.37	-35.1	-36.3	29.3	3.02e+01	58	32	0	592969728	46	5648
2026-01-28 17:20:46.94	329.37	45.54	-35.2	-36.5	29.2	3.02e+01	60	32	0	594542592	46	5728
2026-01-28 17:20:47.95	328.77	45.70	-35.6	-36.8	28.8	3.02e+01	61	32	0	596639744	46	5994
2026-01-28 17:20:48.96	328.16	45.86	-36.1	-37.4	28.4	3.02e+01	55	32	0	598736896	46	6392
2026-01-28 17:20:49.96	327.56	46.02	-35.1	-36.3	29.4	3.02e+01	58	32	0	600309760	46	5635
2026-01-28 17:20:50.97	326.94	46.17	-35.2	-36.4	29.3	3.02e+01	60	32	0	602406912	46	5711
2026-01-28 17:20:51.98	326.31	46.32	-35.9	-37.2	28.6	3.02e+01	53	32	0	604504064	46	6220
2026-01-28 17:20:52.99	325.68	46.47	-35.6	-36.8	28.9	3.02e+01	59	32	0	606076928	46	5984
2026-01-28 17:20:54.00	325.04	46.62	-35.6	-36.8	28.9	3.02e+01	61	32	0	608174080	46	5962
2026-01-28 17:20:55.01	324.40	46.76	-35.6	-36.9	28.9	3.02e+01	65	32	0	609746944	46	5997
2026-01-28 17:20:56.02	323.75	46.90	-35.7	-36.9	28.8	3.02e+01	60	32	0	611844096	46	6062
2026-01-28 17:20:57.03	323.10	47.03	-35.6	-36.8	28.9	3.02e+01	46	32	0	613416960	46	5972
2026-01-28 17:20:58.04	322.43	47.16	-35.5	-36.7	29.0	3.02e+01	62	32	0	615514112	46	5905
2026-01-28 17:20:59.04	321.77	47.29	-35.6	-36.8	28.9	3.02e+01	60	32	0	617611264	46	5975
2026-01-28 17:21:00.05	321.10	47.41	-36.1	-37.4	28.6	3.02e+01	45	32	0	619184128	46	6370
2026-01-28 17:21:01.06	320.43	47.53	-35.8	-37.0	28.7	3.02e+01	57	32	0	621281280	46	6103
2026-01-28 17:21:02.07	319.74	47.65	-36.0	-37.3	28.5	3.02e+01	62	32	0	622854144	46	6292
2026-01-28 17:21:03.08	319.06	47.76	-35.9	-37.1	28.7	3.02e+01	58	32	0	624951296	46	6157
2026-01-28 17:21:04.09	318.36	47.87	-35.8	-37.0	28.7	3.02e+01	59	32	0	627048448	46	6122
2026-01-28 17:21:05.10	317.67	47.97	-35.8	-37.1	28.7	3.02e+01	51	32	0	628621312	46	6142
2026-01-28 17:21:06.11	316.96	48.07	-36.3	-37.6	28.2	3.02e+01	59	32	0	630718464	46	6525
2026-01-28 17:21:07.12	316.26	48.16	-35.9	-37.2	28.6	3.02e+01	60	32	0	632815616	46	6253
2026-01-28 17:21:08.13	315.55	48.25	-35.8	-37.0	28.7	3.02e+01	57	32	0	634388480	46	6102
2026-01-28 17:21:09.14	314.83	48.34	-35.7	-36.9	28.9	3.02e+01	58	32	0	636485632	46	6017
2026-01-28 17:21:10.15	314.11	48.42	-35.9	-37.1	28.6	3.02e+01	51	32	0	638058496	46	6192
2026-01-28 17:21:11.16	313.39	48.50	-35.7	-36.9	28.8	3.02e+01	56	32	0	640155648	46	6058
2026-01-28 17:21:12.17	312.66	48.57	-35.1	-36.4	29.3	3.02e+01	60	32	0	642252800	46	5672
2026-01-28 17:21:13.18	311.93	48.63	-35.1	-36.3	29.3	3.02e+01	49	32	0	643825664	46	5659
2026-01-28 17:21:14.19	311.20	48.70	-35.6	-36.9	28.8	3.02e+01	60	32	0	645922816	46	6027
2026-01-28 17:21:15.19	310.47	48.75	-35.5	-36.7	29.0	3.02e+01	61	33	0	647495680	46	5891
2026-01-28 17:21:16.20	309.73	48.80	-35.1	-36.3	29.3	3.02e+01	52	32	0	649592832	46	5643
2026-01-28 17:21:17.21	308.99	48.85	-35.4	-36.6	29.0	3.02e+01	57	32	0	651689984	46	5852
2026-01-28 17:21:18.23	308.24	48.89	-36.0	-37.3	28.6	3.02e+01	50	32	0	653262848	46	6306
2026-01-28 17:21:19.24	307.50	48.93	-35.5	-36.7	28.9	3.02e+01	59	33	0	655360000	46	5910
2026-01-28 17:21:20.24	306.76	48.96	-34.9	-36.1	29.4	3.02e+01	54	33	0	657457152	44	6204
2026-01-28 17:21:21.25	306.01	48.99	-35.2	-36.4	29.2	3.02e+01	49	32	0	659030016	44	6379
2026-01-28 17:21:22.26	305.26	49.01	-35.4	-36.6	29.0	3.02e+01	57	32	0	661127168	44	6522
2026-01-28 17:21:23.27	304.51	49.02	-35.2	-36.4	29.1	3.02e+01	57	32	0	662700032	44	6421
2026-01-28 17:21:24.28	303.76	49.03	-35.0	-36.2	29.4	3.02e+01	58	32	0	664797184	44	6236
2026-01-28 17:21:25.29	303.01	49.04	-35.1	-36.3	29.3	3.02e+01	59	33	0	666894336	44	6303
2026-01-28 17:21:26.30	302.26	49.04	-35.3	-36.6	29.1	3.02e+01	54	32	0	668467200	44	6502
2026-01-28 17:21:27.31	301.51	49.03	-35.2	-36.4	29.1	3.02e+01	60	33	0	670564352	44	6419
2026-01-28 17:21:28.32	300.76	49.02	-34.7	-35.8	29.7	3.02e+01	62	32	0	672137216	44	5977
2026-01-28 17:21:29.33	300.01	49.01	-34.9	-36.1	29.5	3.02e+01	47	32	0	674234368	44	6151
2026-01-28 17:21:30.34	299.26	48.99	-35.0	-36.2	29.3	3.02e+01	63	32	0	676331520	44	6275
2026-01-28 17:21:31.35	298.51	48.96	-35.0	-36.2	29.4	3.02e+01	63	32	0	677904384	44	6221
2026-01-28 17:21:32.36	297.77	48.93	-34.7	-35.9	29.7	3.02e+01	59	32	0	680001536	44	6018
2026-01-28 17:21:33.37	297.02	48.89	-34.9	-36.1	29.5	3.02e+01	60	32	0	681574400	44	6160
2026-01-28 17:21:34.38	296.28	48.85	-35.1	-36.3	29.4	3.02e+01	51	32	0	683671552	44	6329
2026-01-28 17:21:35.39	295.54	48.80	-34.9	-36.1	29.4	3.02e+01	60	32	0	685768704	44	6201
2026-01-28 17:21:36.40	294.80	48.75	-34.9	-36.2	29.5	3.02e+01	58	32	0	687341568	44	6216
2026-01-28 17:21:37.41	294.06	48.70	-35.9	-37.2	28.6	3.02e+01	44	32	0	689438720	44	6967
2026-01-28 17:21:38.41	293.34	48.63	-35.5	-36.7	28.7	3.02e+01	59	32	0	691011584	44	6639
2026-01-28 17:21:39.42	292.61	48.57	-34.6	-35.7	29.6	3.02e+01	59	32	0	693108736	44	5921
2026-01-28 17:21:40.43	291.88	48.50	-34.9	-36.1	29.5	3.02e+01	60	32	0	695205888	44	6189
2026-01-28 17:21:41.44	291.16	48.42	-34.5	-35.7	29.7	3.02e+01	59	32	0	696778752	44	5890
2026-01-28 17:21:42.45	290.44	48.34	-35.2	-36.4	28.9	3.02e+01	53	32	0	698875904	44	6400
2026-01-28 17:21:43.46	289.72	48.25	-35.5	-36.7	28.9	3.02e+01	61	32	0	700973056	44	6641
2026-01-28 17:21:44.47	289.01	48.16	-35.7	-37.0	28.8	3.02e+01	59	33	0	702545920	44	6838
2026-01-28 17:21:45.48	288.30	48.07	-36.7	-38.0	27.7	3.02e+01	61	32	0	704643072	46	6881
2026-01-28 17:21:46.49	287.60	47.97	-35.4	-36.6	29.1	3.02e+01	60	33	0	706215936	46	5837
2026-01-28 17:21:47.50	286.90	47.87	-34.7	-35.9	29.8	3.02e+01	45	33	0	708313088	44	5997
2026-01-28 17:21:48.51	286.21	47.76	-34.3	-35.4	29.6	3.02e+01	61	32	0	710410240	44	5710
2026-01-28 17:21:49.52	285.52	47.65	-35.1	-36.3	29.1	3.02e+01	63	33	0	711983104	44	6306
2026-01-28 17:21:50.53	284.84	47.53	-35.7	-37.0	28.7	3.02e+01	49	32	0	714080256	44	6825
2026-01-28 17:21:51.54	284.16	47.41	-35.7	-37.0	27.3	3.02e+01	61	32	0	715653120	46	6087
2026-01-28 17:21:52.55	283.49	47.29	-36.0	-37.2	26.9	3.02e+01	61	32	0	717750272	46	6249
2026-01-28 17:21:53.56	282.82	47.16	-35.6	-36.8	26.7	3.02e+01	59	32	0	719847424	48	5284
2026-01-28 17:21:54.57	282.16	47.03	-35.2	-36.3	26.8	3.02e+01	55	32	0	721420288	46	5636
2026-01-28 17:21:55.57	281.51	46.89	-34.3	-35.4	30.1	3.02e+01	53	32	0	723517440	44	5699
2026-01-28 17:21:56.58	280.86	46.76	-34.0	-35.1	29.3	3.02e+01	57	32	0	725614592	42	6197
2026-01-28 17:21:57.59	280.21	46.61	-34.5	-35.6	28.6	3.02e+01	60	32	0	727187456	44	5837
2026-01-28 17:21:58.60	279.57	46.47	-34.6	-35.7	28.0	3.02e+01	51	32	0	729284608	44	5922
2026-01-28 17:21:59.61	278.94	46.32	-33.5	-34.5	28.9	3.02e+01	55	32	0	730857472	40	6480
2026-01-28 17:22:00.63	278.31	46.17	-33.4	-34.5	29.0	3.02e+01	61	32	0	732954624	42	5744
2026-01-28 17:22:01.63	277.69	46.01	-34.1	-35.2	28.4	3.02e+01	60	32	0	735051776	42	6268
2026-01-28 17:22:02.64	277.08	45.85	-33.9	-34.9	29.2	3.02e+01	56	32	0	736624640	42	6051
2026-01-28 17:22:03.65	276.47	45.69	-33.5	-34.6	30.0	3.02e+01	47	32	0	738721792	42	5816
2026-01-28 17:22:04.66	275.87	45.53	-33.7	-34.8	30.3	3.02e+01	58	32	0	740294656	42	5967
2026-01-28 17:22:05.67	275.28	45.36	-34.4	-35.5	29.2	3.02e+01	57	32	0	742391808	44	5779
2026-01-28 17:22:06.68	274.69	45.19	-34.5	-35.7	28.4	3.02e+01	44	32	0	744488960	44	5871
2026-01-28 17:22:07.69	274.11	45.02	-34.6	-35.9	28.3	3.02e+01	58	32	0	746061824	44	6002
2026-01-28 17:22:08.70	273.53	44.85	-34.9	-36.2	25.4	3.02e+01	60	32	0	748158976	42	6994
2026-01-28 17:22:09.71	272.96	44.67	-34.8	-36.1	27.2	3.02e+01	59	32	0	749731840	42	6914
2026-01-28 17:22:10.72	272.40	44.49	-33.9	-35.0	29.9	3.02e+01	60	32	0	751828992	42	6108
2026-01-28 17:22:11.73	271.84	44.31	-33.9	-35.0	30.4	3.02e+01	46	32	0	753926144	42	6093
2026-01-28 17:22:12.74	271.29	44.13	-34.0	-35.1	30.2	3.02e+01	60	32	0	755499008	42	6174
2026-01-28 17:22:13.75	270.75	43.94	-34.7	-35.9	29.6	3.02e+01	58	32	0	757596160	42	6737
2026-01-28 17:22:14.76	270.21	43.76	-35.0	-36.2	29.5	3.02e+01	46	32	0	759169024	42	7000
2026-01-28 17:22:15.76	269.69	43.57	-34.2	-35.4	29.7	3.02e+01	61	32	0	761266176	42	6383
2026-01-28 17:22:16.78	269.16	43.38	-34.1	-35.2	30.2	3.02e+01	56	32	0	763363328	42	6251
2026-01-28 17:22:17.78	268.64	43.19	-34.9	-36.1	29.2	3.02e+01	57	32	0	764936192	44	6159
2026-01-28 17:22:18.79	268.13	42.99	-35.7	-37.0	28.6	3.02e+01	59	32	0	767033344	44	6809
2026-01-28 17:22:19.80	267.63	42.80	-34.8	-36.0	29.3	3.02e+01	54	32	0	769130496	44	6107
2026-01-28 17:22:20.81	267.13	42.60	-34.7	-35.8	29.6	3.02e+01	58	33	0	770703360	44	5962
2026-01-28 17:22:21.82	266.63	42.40	-35.1	-36.3	29.1	3.02e+01	57	32	0	772800512	44	6333
2026-01-28 17:22:22.83	266.15	42.21	-35.4	-36.6	28.9	3.02e+01	57	32	0	774373376	44	6567
2026-01-28 17:22:23.84	265.66	42.01	-34.7	-35.9	29.6	3.02e+01	56	32	0	776470528	44	5997
2026-01-28 17:22:24.85	265.19	41.80	-35.1	-36.2	29.3	3.02e+01	45	33	0	778567680	44	6275
2026-01-28 17:22:25.86	264.72	41.60	-35.3	-36.5	29.2	3.02e+01	58	32	0	780140544	44	6455
2026-01-28 17:22:26.87	264.26	41.40	-34.9	-36.1	29.4	3.02e+01	57	32	0	782237696	44	6176
2026-01-28 17:22:27.88	263.80	41.20	-35.3	-36.5	29.1	3.02e+01	46	32	0	783810560	44	6476
2026-01-28 17:22:28.88	263.35	40.99	-36.0	-37.2	28.6	3.02e+01	58	32	0	785907712	44	7032
2026-01-28 17:22:29.89	262.91	40.79	-35.5	-36.7	29.0	3.02e+01	60	32	0	788004864	46	5906
2026-01-28 17:22:30.90	262.47	40.58	-35.6	-36.9	28.9	3.02e+01	59	32	0	789577728	46	6005
2026-01-28 17:22:31.91	262.04	40.37	-35.7	-36.9	28.9	3.02e+01	59	32	0	791674880	46	6031
2026-01-28 17:22:32.91	261.61	40.17	-35.8	-37.0	28.8	3.02e+01	56	32	0	793247744	46	6123
2026-01-28 17:22:33.93	261.19	39.96	-35.7	-36.9	28.8	3.02e+01	57	33	0	795344896	46	6025
2026-01-28 17:22:34.93	260.77	39.75	-36.4	-37.7	28.2	3.02e+01	60	32	0	797442048	46	6583
2026-01-28 17:22:35.94	260.36	39.54	-36.1	-37.4	28.5	3.02e+01	48	32	0	799014912	46	6368
2026-01-28 17:22:36.95	259.95	39.34	-35.9	-37.1	28.5	3.02e+01	58	32	0	801112064	46	6193
2026-01-28 17:22:37.96	259.55	39.13	-36.2	-37.5	28.3	3.02e+01	58	32	0	802684928	46	6434
2026-01-28 17:22:38.97	259.16	38.92	-36.7	-38.0	27.9	3.02e+01	52	32	0	804782080	46	6864
2026-01-28 17:22:39.98	258.77	38.71	-36.5	-37.8	28.2	3.02e+01	60	32	0	806879232	46	6661
2026-01-28 17:22:40.99	258.38	38.50	-36.4	-37.7	28.2	3.02e+01	46	32	0	808452096	46	6604
2026-01-28 17:22:41.99	258.00	38.29	-36.1	-37.3	28.5	3.02e+01	64	32	0	810549248	46	6324
2026-01-28 17:22:43.00	257.63	38.08	-36.4	-37.7	28.2	3.02e+01	60	32	0	812122112	46	6577
2026-01-28 17:22:44.01	257.26	37.87	-36.3	-37.6	28.2	3.02e+01	46	32	0	814219264	46	6509
2026-01-28 17:22:45.02	256.89	37.66	-36.5	-37.8	27.9	3.02e+01	59	32	0	816316416	46	6691
2026-01-28 17:22:46.03	256.53	37.45	-37.2	-38.6	27.4	3.02e+01	58	32	0	817889280	48	6515
2026-01-28 17:22:47.04	256.18	37.24	-37.3	-38.6	27.3	3.02e+01	62	32	0	819986432	48	6551
2026-01-28 17:22:48.05	255.82	37.03	-37.0	-38.3	27.6	3.02e+01	57	32	0	822083584	48	6305
2026-01-28 17:22:49.06	255.48	36.82	-37.2	-38.5	27.4	3.02e+01	47	32	0	823656448	48	6457
2026-01-28 17:22:50.07	255.13	36.61	-36.9	-38.1	27.7	3.02e+01	60	33	0	825753600	48	6196
2026-01-28 17:22:51.08	254.80	36.41	-37.0	-38.3	27.6	3.02e+01	58	32	0	827326464	48	6324
2026-01-28 17:22:52.09	254.46	36.20	-36.7	-37.9	27.9	3.02e+01	61	32	0	829423616	48	6060
2026-01-28 17:22:53.10	254.13	35.99	-36.8	-38.1	27.8	3.02e+01	57	32	0	831520768	48	6140
2026-01-28 17:22:54.11	253.81	35.78	-37.4	-38.8	27.1	3.02e+01	53	32	0	833093632	48	6716
2026-01-28 17:22:55.12	253.49	35.58	-36.3	-37.6	28.1	3.02e+01	58	32	0	835190784	48	5824
2026-01-28 17:22:56.13	253.17	35.37	-35.2	-36.3	29.3	3.02e+01	61	32	0	837287936	46	5649
2026-01-28 17:22:57.14	252.86	35.16	-35.7	-36.9	28.8	3.02e+01	47	33	0	838860800	46	6060
2026-01-28 17:22:58.15	252.55	34.96	-35.9	-37.1	28.6	3.02e+01	59	32	0	840957952	46	6185
2026-01-28 17:22:59.16	252.25	34.75	-35.6	-36.9	28.9	3.02e+01	58	32	0	842530816	46	6007
2026-01-28 17:23:00.17	251.95	34.55	-35.5	-36.7	29.1	3.02e+01	56	32	0	844627968	46	5885
2026-01-28 17:23:01.18	251.65	34.34	-35.4	-36.6	29.1	3.02e+01	58	32	0	846200832	46	5839
2026-01-28 17:23:02.18	251.36	34.14	-35.4	-36.7	29.1	3.02e+01	49	32	0	848297984	46	5861
2026-01-28 17:23:03.19	251.07	33.94	-35.4	-36.6	29.2	3.02e+01	60	32	0	850395136	46	5848
2026-01-28 17:23:04.20	250.79	33.74	-35.5	-36.7	29.2	3.02e+01	60	32	0	851968000	46	5876
2026-01-28 17:23:05.21	250.50	33.53	-35.5	-36.8	29.0	3.02e+01	44	32	0	854065152	46	5947
2026-01-28 17:23:06.22	250.23	33.33	-35.6	-36.8	28.9	3.02e+01	57	32	0	855638016	46	5959
2026-01-28 17:23:07.23	249.95	33.13	-35.0	-36.2	29.4	3.02e+01	58	33	0	857735168	46	5586
2026-01-28 17:23:08.24	249.68	32.93	-34.5	-35.7	29.8	3.02e+01	58	32	0	859832320	44	5873
2026-01-28 17:23:09.25	249.41	32.73	-34.9	-36.2	29.5	3.02e+01	58	32	0	861405184	44	6213
2026-01-28 17:23:10.26	249.15	32.53	-35.3	-36.5	29.1	3.02e+01	61	32	0	863502336	44	6487
2026-01-28 17:23:11.27	248.89	32.34	-34.9	-36.1	29.5	3.02e+01	59	32	0	865599488	44	6188
2026-01-28 17:23:12.28	248.63	32.14	-34.8	-35.9	29.6	3.02e+01	54	32	0	867172352	44	6064
2026-01-28 17:23:13.29	248.38	31.94	-34.5	-35.7	29.9	3.02e+01	48	32	0	869269504	44	5874
2026-01-28 17:23:14.30	248.12	31.75	-34.8	-36.0	29.6	3.02e+01	63	32	0	870842368	44	6079
2026-01-28 17:23:15.30	247.88	31.56	-34.6	-35.8	29.7	3.02e+01	59	32	0	872939520	44	5984
2026-01-28 17:23:16.31	247.63	31.36	-34.5	-35.7	29.8	3.02e+01	62	32	0	875036672	44	5859
2026-01-28 17:23:17.32	247.39	31.17	-34.4	-35.6	29.9	3.02e+01	57	32	0	876609536	44	5796
2026-01-28 17:23:18.33	247.15	30.98	-34.4	-35.6	29.9	3.02e+01	49	32	0	878706688	44	5832
2026-01-28 17:23:19.34	246.92	30.78	-34.7	-35.9	29.7	3.02e+01	61	32	0	880279552	44	6013
2026-01-28 17:23:20.34	246.69	30.60	-34.8	-36.1	29.5	3.02e+01	64	33	0	882376704	44	6136
2026-01-28 17:23:21.35	246.46	30.41	-34.6	-35.8	29.7	3.02e+01	48	32	0	884473856	44	5974
2026-01-28 17:23:22.36	246.23	30.22	-34.6	-35.7	29.7	3.02e+01	62	32	0	886046720	44	5925
2026-01-28 17:23:23.37	246.00	30.03	-34.6	-35.8	29.7	3.02e+01	58	32	0	888143872	44	5956
2026-01-28 17:23:24.38	245.78	29.84	-34.8	-36.1	29.6	3.02e+01	58	32	0	890241024	44	6139
2026-01-28 17:23:25.39	245.56	29.65	-34.4	-35.6	29.8	3.02e+01	59	32	0	891813888	44	5845
2026-01-28 17:23:26.40	245.34	29.47	-34.5	-35.7	29.8	3.02e+01	48	32	0	893911040	44	5886
2026-01-28 17:23:27.41	245.13	29.28	-34.4	-35.6	29.9	3.02e+01	61	32	0	895483904	44	5824
2026-01-28 17:23:28.42	244.92	29.10	-34.6	-35.8	29.8	3.02e+01	59	32	0	897581056	44	5973
2026-01-28 17:23:29.43	244.71	28.92	-34.8	-36.1	29.6	3.02e+01	60	32	0	899678208	44	6141
2026-01-28 17:23:30.44	244.50	28.73	-34.9	-36.2	29.4	3.02e+01	58	32	0	901251072	44	6209
2026-01-28 17:23:31.45	244.30	28.55	-34.9	-36.1	29.5	3.02e+01	49	32	0	903348224	44	6140
2026-01-28 17:23:32.46	244.10	28.37	-34.7	-35.9	29.6	3.02e+01	61	32	0	904921088	44	6039
2026-01-28 17:23:33.47	243.90	28.19	-34.5	-35.7	29.8	3.02e+01	58	32	0	907018240	44	5860
2026-01-28 17:23:34.48	243.70	28.01	-34.7	-35.9	29.6	3.02e+01	60	32	0	908591104	44	6046
2026-01-28 17:23:35.49	243.50	27.84	-34.5	-35.7	29.6	3.02e+01	60	32	0	910688256	44	5906
2026-01-28 17:23:36.49	243.31	27.66	-34.6	-35.8	29.7	3.02e+01	56	32	0	912785408	44	5965
2026-01-28 17:23:37.50	243.12	27.48	-34.4	-35.6	29.9	3.02e+01	60	32	0	914358272	44	5802
2026-01-28 17:23:38.51	242.93	27.31	-34.3	-35.5	30.0	3.02e+01	58	32	0	916455424	44	5736
2026-01-28 17:23:39.52	242.75	27.13	-34.5	-35.6	29.8	3.02e+01	40	32	0	918552576	44	5850
2026-01-28 17:23:40.53	242.56	26.96	-34.8	-36.0	29.6	3.02e+01	58	32	0	920125440	44	6100
2026-01-28 17:23:41.54	242.38	26.79	-35.0	-36.2	29.3	3.02e+01	57	32	0	922222592	44	6268
2026-01-28 17:23:42.55	242.20	26.62	-35.0	-36.2	29.2	3.02e+01	44	32	0	923795456	44	6268
2026-01-28 17:23:43.56	242.02	26.45	-34.7	-35.8	29.6	3.02e+01	60	32	0	925892608	44	5989
2026-01-28 17:23:44.57	241.85	26.28	-34.6	-35.7	29.8	3.02e+01	61	32	0	927989760	44	5922
2026-01-28 17:23:45.58	241.68	26.11	-34.6	-35.7	29.8	3.02e+01	58	32	0	929562624	44	5925
2026-01-28 17:23:46.59	241.50	25.94	-34.7	-35.8	29.7	3.02e+01	56	32	0	931659776	44	5991
2026-01-28 17:23:47.60	241.33	25.77	-34.9	-36.1	29.4	3.02e+01	53	32	0	933756928	44	6191
2026-01-28 17:23:48.61	241.17	25.60	-35.1	-36.3	29.3	3.02e+01	57	32	0	935329792	44	6318
2026-01-28 17:23:49.62	241.00	25.44	-35.2	-36.4	29.1	3.02e+01	60	32	0	937426944	44	6413
2026-01-28 17:23:50.63	240.83	25.27	-35.0	-36.2	29.2	3.02e+01	50	32	0	938999808	44	6236
2026-01-28 17:23:51.64	240.67	25.11	-34.7	-35.9	29.6	3.02e+01	56	32	0	941096960	44	6022
2026-01-28 17:23:52.64	240.51	24.95	-34.5	-35.7	29.8	3.02e+01	61	32	0	943194112	44	5868
2026-01-28 17:23:53.65	240.35	24.78	-34.6	-35.8	29.7	3.02e+01	60	32	0	944766976	44	5943
2026-01-28 17:23:54.66	240.20	24.62	-34.8	-36.0	29.5	3.02e+01	59	32	0	946864128	44	6098
2026-01-28 17:23:55.67	240.04	24.46	-35.1	-36.3	29.3	3.02e+01	46	32	0	948436992	44	6325
2026-01-28 17:23:56.68	239.89	24.30	-35.4	-36.6	29.1	3.02e+01	58	32	0	950534144	44	6534
2026-01-28 17:23:57.69	239.73	24.14	-35.2	-36.4	29.2	3.02e+01	59	32	0	952631296	44	6403
2026-01-28 17:23:58.70	239.58	23.98	-35.1	-36.4	29.2	3.02e+01	46	32	0	954204160	44	6356
2026-01-28 17:23:59.71	239.43	23.83	-35.0	-36.2	29.3	3.02e+01	63	32	0	956301312	44	6270
2026-01-28 17:24:00.72	239.29	23.67	-34.8	-36.0	29.5	3.02e+01	59	32	0	957874176	44	6107
2026-01-28 17:24:01.73	239.14	23.52	-34.9	-36.1	29.4	3.02e+01	60	32	0	959971328	44	6187
2026-01-28 17:24:02.74	239.00	23.36	-35.1	-36.3	29.2	3.02e+01	59	32	0	962068480	44	6308
2026-01-28 17:24:03.75	238.85	23.21	-34.9	-36.1	29.4	3.02e+01	50	32	0	963641344	44	6171
2026-01-28 17:24:04.75	238.71	23.05	-35.0	-36.2	29.3	3.02e+01	62	32	0	965738496	44	6240
2026-01-28 17:24:05.77	238.57	22.90	-34.9	-36.1	29.4	3.02e+01	61	32	0	967311360	44	6200
2026-01-28 17:24:06.78	238.43	22.75	-34.9	-36.1	29.4	3.02e+01	53	32	0	969408512	44	6175
2026-01-28 17:24:07.79	238.30	22.60	-35.0	-36.2	29.4	3.02e+01	59	32	0	971505664	44	6212
2026-01-28 17:24:08.80	238.16	22.45	-34.8	-36.0	29.5	3.02e+01	61	32	0	973078528	44	6093
2026-01-28 17:24:09.80	238.03	22.30	-35.0	-36.2	29.3	3.02e+01	58	32	0	975175680	44	6258
2026-01-28 17:24:10.81	237.89	22.15	-34.9	-36.1	29.5	3.02e+01	60	32	0	976748544	44	6170
2026-01-28 17:24:11.83	237.76	22.00	-35.0	-36.2	29.4	3.02e+01	56	32	0	978845696	44	6220
2026-01-28 17:24:12.83	237.63	21.86	-35.0	-36.2	29.3	3.02e+01	59	32	0	980942848	44	6260
2026-01-28 17:24:13.84	237.50	21.71	-34.9	-36.1	29.4	3.02e+01	58	32	0	982515712	44	6168
2026-01-28 17:24:14.85	237.38	21.56	-35.0	-36.2	29.3	3.02e+01	58	32	0	984612864	44	6254
2026-01-28 17:24:15.86	237.25	21.42	-34.9	-36.2	29.3	3.02e+01	57	32	0	986710016	44	6208
2026-01-28 17:24:16.87	237.12	21.28	-35.0	-36.2	29.3	3.02e+01	46	33	0	988282880	44	6239
2026-01-28 17:24:17.88	237.00	21.13	-34.9	-36.1	29.4	3.02e+01	60	32	0	990380032	44	6192
2026-01-28 17:24:18.89	236.88	20.99	-35.0	-36.2	29.2	3.02e+01	56	32	0	991952896	44	6263
2026-01-28 17:24:19.90	236.76	20.85	-35.1	-36.3	29.1	3.02e+01	46	32	0	994050048	44	6328
2026-01-28 17:24:20.91	236.64	20.71	-35.1	-36.3	29.1	3.02e+01	60	32	0	996147200	44	6349
2026-01-28 17:24:21.92	236.52	20.57	-34.7	-35.9	29.5	3.02e+01	60	32	0	997720064	44	6032
2026-01-28 17:24:22.93	236.40	20.43	-34.7	-35.9	29.6	3.02e+01	60	32	0	999817216	44	6043
2026-01-28 17:24:23.93	236.28	20.29	-34.8	-36.0	29.5	3.02e+01	60	32	0	1001914368	44	6065
2026-01-28 17:24:24.94	236.17	20.15	-34.9	-36.1	29.4	3.02e+01	61	32	0	1003487232	44	6146
2026-01-28 17:24:25.95	236.05	20.01	-34.7	-35.9	29.5	3.02e+01	60	32	0	1005584384	44	6042
2026-01-28 17:24:26.96	235.94	19.88	-34.7	-35.9	29.6	3.02e+01	61	32	0	1007157248	44	6052
2026-01-28 17:24:27.97	235.83	19.74	-35.0	-36.2	29.3	3.02e+01	50	32	0	1009254400	44	6256
2026-01-28 17:24:28.98	235.72	19.61	-34.9	-36.1	29.4	3.02e+01	60	32	0	1011351552	44	6157
2026-01-28 17:24:29.99	235.61	19.47	-34.9	-36.1	29.3	3.02e+01	60	32	0	1012924416	44	6198
2026-01-28 17:24:31.00	235.50	19.34	-34.9	-36.1	29.4	3.02e+01	59	32	0	1015021568	44	6164
2026-01-28 17:24:32.01	235.39	19.20	-34.8	-36.0	29.4	3.02e+01	60	32	0	1016594432	44	6082
2026-01-28 17:24:33.02	235.28	19.07	-34.7	-35.9	29.5	3.02e+01	58	32	0	1018691584	44	6037
2026-01-28 17:24:34.03	235.17	18.94	-34.8	-36.0	29.3	3.02e+01	59	32	0	1020788736	44	6130
2026-01-28 17:24:35.04	235.07	18.81	-34.7	-35.9	29.5	3.02e+01	57	32	0	1022361600	44	6026
2026-01-28 17:24:36.04	234.97	18.68	-34.8	-36.0	29.5	3.02e+01	48	32	0	1024458752	44	6073
2026-01-28 17:24:37.06	234.86	18.55	-34.8	-36.0	29.5	3.02e+01	51	32	0	1026031616	44	6093
2026-01-28 17:24:38.06	234.76	18.42	-34.8	-36.0	29.4	3.02e+01	63	33	0	1028128768	44	6124
2026-01-28 17:24:39.08	234.66	18.29	-34.9	-36.1	29.3	3.02e+01	60	32	0	1030225920	44	6149
2026-01-28 17:24:40.08	234.56	18.16	-34.8	-36.0	29.4	3.02e+01	58	32	0	1031798784	44	6087
2026-01-28 17:24:41.09	234.46	18.04	-34.9	-36.1	29.2	3.02e+01	54	32	0	1033895936	44	6191
2026-01-28 17:24:42.10	234.36	17.91	-34.8	-36.0	29.4	3.02e+01	58	32	0	1035468800	44	6120
2026-01-28 17:24:43.11	234.26	17.78	-34.9	-36.1	29.4	3.02e+01	61	33	0	1037565952	44	6143
2026-01-28 17:24:44.12	234.17	17.66	-34.8	-36.0	29.4	3.02e+01	57	32	0	1039663104	44	6088
2026-01-28 17:24:45.13	234.07	17.53	-34.8	-36.0	29.4	3.02e+01	61	32	0	1041235968	44	6076
2026-01-28 17:24:46.14	233.97	17.41	-34.8	-36.0	29.4	3.02e+01	45	32	0	1043333120	44	6116
2026-01-28 17:24:47.15	233.88	17.28	-34.9	-36.1	29.3	3.02e+01	58	32	0	1044905984	44	6183
2026-01-28 17:24:48.16	233.79	17.16	-34.8	-36.0	29.4	3.02e+01	60	32	0	1047003136	44	6111
2026-01-28 17:24:49.17	233.69	17.04	-34.9	-36.1	29.3	3.02e+01	52	32	0	1049100288	44	6156
2026-01-28 17:24:50.18	233.60	16.92	-34.9	-36.1	29.3	3.02e+01	61	32	0	1050673152	44	6195
2026-01-28 17:24:51.19	233.51	16.80	-35.0	-36.2	29.2	3.02e+01	60	32	0	1052770304	44	6237
2026-01-28 17:24:52.20	233.42	16.68	-35.2	-36.5	28.8	3.02e+01	59	32	0	1054867456	44	6433
2026-01-28 17:24:53.21	233.33	16.56	-35.0	-36.2	29.2	3.02e+01	58	32	0	1056440320	44	6235
2026-01-28 17:24:54.21	233.24	16.44	-35.2	-36.4	29.1	3.02e+01	48	32	0	1058537472	44	6402
2026-01-28 17:24:55.22	233.16	16.32	-35.0	-36.3	29.1	3.02e+01	60	32	0	1060110336	44	6280
2026-01-28 17:24:56.23	233.07	16.20	-35.0	-36.2	29.1	3.02e+01	56	32	0	1062207488	44	6228
2026-01-28 17:24:57.24	232.98	16.08	-35.1	-36.3	29.0	3.02e+01	44	32	0	1064304640	44	6318
2026-01-28 17:24:58.25	232.90	15.96	-35.1	-36.3	29.0	3.02e+01	55	32	0	1065877504	44	6347
2026-01-28 17:24:59.26	232.81	15.85	-35.0	-36.2	29.2	3.02e+01	59	32	0	1067974656	44	6233
2026-01-28 17:25:00.27	232.73	15.73	-35.1	-36.3	29.0	3.02e+01	59	32	0	1069547520	44	6299
2026-01-28 17:25:01.28	232.65	15.62	-35.0	-36.2	29.2	3.02e+01	60	32	0	1071644672	44	6218
2026-01-28 17:25:02.29	232.56	15.50	-35.0	-36.3	29.1	3.02e+01	60	32	0	1073741824	44	6286
2026-01-28 17:25:03.30	232.48	15.39	-35.0	-36.2	29.2	3.02e+01	63	32	0	1075314688	44	6247
2026-01-28 17:25:04.31	232.40	15.27	-35.0	-36.2	29.1	3.02e+01	61	32	0	1077411840	44	6253
2026-01-28 17:25:05.32	232.32	15.16	-35.2	-36.4	29.0	3.02e+01	48	32	0	1078984704	44	6396
2026-01-28 17:25:06.33	232.24	15.05	-35.0	-36.3	29.1	3.02e+01	61	32	0	1081081856	44	6287
2026-01-28 17:25:07.34	232.16	14.93	-35.0	-36.3	29.0	3.02e+01	60	32	0	1083179008	44	6280
2026-01-28 17:25:08.35	232.08	14.82	-35.1	-36.3	29.0	3.02e+01	60	32	0	1084751872	44	6344
2026-01-28 17:25:09.36	232.00	14.71	-35.2	-36.5	28.9	3.02e+01	61	32	0	1086849024	44	6431
2026-01-28 17:25:10.36	231.93	14.60	-35.2	-36.4	28.9	3.02e+01	49	32	0	1088421888	44	6383
2026-01-28 17:25:11.38	231.85	14.49	-35.4	-36.6	28.7	3.02e+01	60	32	0	1090519040	44	6562
2026-01-28 17:25:12.38	231.77	14.38	-35.3	-36.5	28.8	3.02e+01	57	32	0	1092616192	44	6488
2026-01-28 17:25:13.39	231.70	14.27	-35.3	-36.6	28.8	3.02e+01	47	32	0	1094189056	44	6514
2026-01-28 17:25:14.40	231.62	14.16	-35.5	-36.8	28.6	3.02e+01	58	32	0	1096286208	44	6667
2026-01-28 17:25:15.41	231.55	14.05	-35.6	-36.9	28.5	3.02e+01	59	32	0	1098383360	44	6743
2026-01-28 17:25:16.42	231.47	13.95	-35.6	-36.8	28.5	3.02e+01	59	32	0	1099956224	44	6720
2026-01-28 17:25:17.43	231.40	13.84	-35.6	-36.8	28.5	3.02e+01	61	32	0	1102053376	44	6700
2026-01-28 17:25:18.44	231.33	13.73	-35.6	-36.8	28.5	3.02e+01	48	32	0	1103626240	44	6701
2026-01-28 17:25:19.45	231.26	13.63	-35.6	-36.9	28.4	3.02e+01	57	32	0	1105723392	44	6766
2026-01-28 17:25:20.46	231.19	13.52	-35.7	-36.9	28.4	3.02e+01	57	32	0	1107820544	44	6795
2026-01-28 17:25:21.47	231.11	13.41	-35.8	-37.0	28.3	3.02e+01	47	32	0	1109393408	44	6882
2026-01-28 17:25:22.48	231.04	13.31	-35.8	-37.0	28.3	3.02e+01	60	32	0	1111490560	44	6879
2026-01-28 17:25:23.49	230.97	13.20	-35.8	-37.1	28.2	3.02e+01	50	32	0	1113063424	44	6897
2026-01-28 17:25:24.49	230.91	13.10	-35.8	-37.1	28.2	3.02e+01	64	32	0	1115160576	44	6908
2026-01-28 17:25:25.50	230.84	13.00	-35.9	-37.2	28.1	3.02e+01	59	32	0	1117257728	46	6225
2026-01-28 17:25:26.51	230.77	12.89	-36.1	-37.3	28.0	3.02e+01	48	32	0	1118830592	46	6345
2026-01-28 17:25:27.53	230.70	12.79	-36.1	-37.4	28.0	3.02e+01	60	32	0	1120927744	46	6381
2026-01-28 17:25:28.53	230.64	12.69	-36.1	-37.4	28.0	3.02e+01	59	32	0	1123024896	46	6401
2026-01-28 17:25:29.54	230.57	12.59	-36.3	-37.6	27.8	3.02e+01	58	32	0	1124597760	46	6563
2026-01-28 17:25:30.55	230.50	12.49	-36.4	-37.7	27.7	3.02e+01	63	32	0	1126694912	46	6602
2026-01-28 17:25:31.56	230.44	12.39	-36.2	-37.5	27.9	3.02e+01	53	32	0	1128267776	46	6448
2026-01-28 17:25:32.57	230.37	12.28	-36.4	-37.7	27.7	3.02e+01	61	32	0	1130364928	46	6624
2026-01-28 17:25:33.58	230.31	12.18	-36.5	-37.8	27.6	3.02e+01	57	32	0	1132462080	46	6684
2026-01-28 17:25:34.59	230.24	12.08	-36.5	-37.8	27.6	3.02e+01	52	32	0	1134034944	46	6654
2026-01-28 17:25:35.60	230.18	11.99	-36.6	-38.0	27.5	3.02e+01	59	32	0	1136132096	46	6810
2026-01-28 17:25:36.61	230.12	11.89	-36.6	-37.9	27.5	3.02e+01	59	32	0	1137704960	46	6794
2026-01-28 17:25:37.62	230.06	11.79	-36.5	-37.9	27.6	3.02e+01	58	32	0	1139802112	46	6731
2026-01-28 17:25:38.63	229.99	11.69	-36.7	-38.1	27.4	3.02e+01	59	33	0	1141374976	46	6903
2026-01-28 17:25:39.64	229.93	11.59	-36.9	-38.3	27.2	3.02e+01	58	32	0	1143472128	46	7046
2026-01-28 17:25:40.65	229.87	11.49	-36.8	-38.2	27.3	3.02e+01	60	32	0	1145569280	46	6963
2026-01-28 17:25:41.66	229.81	11.40	-36.8	-38.2	27.2	3.02e+01	59	32	0	1147142144	46	6970
2026-01-28 17:25:42.67	229.75	11.30	-36.9	-38.3	27.1	3.02e+01	51	32	0	1149239296	48	6296
2026-01-28 17:25:43.68	229.69	11.20	-37.0	-38.4	27.0	3.02e+01	57	32	0	1151336448	48	6374
2026-01-28 17:25:44.69	229.63	11.11	-37.0	-38.4	27.0	3.02e+01	59	33	0	1152909312	48	6368
2026-01-28 17:25:45.70	229.57	11.01	-36.9	-38.4	27.1	3.02e+01	58	32	0	1155006464	48	6353
2026-01-28 17:25:46.71	229.51	10.92	-37.0	-38.4	27.0	3.02e+01	58	32	0	1156579328	48	6418
2026-01-28 17:25:47.71	229.46	10.83	-37.2	-38.6	26.9	3.02e+01	50	32	0	1158676480	48	6562
2026-01-28 17:25:48.72	229.40	10.73	-37.6	-39.0	26.5	3.02e+01	59	32	0	1160773632	48	6848
2026-01-28 17:25:49.73	229.34	10.64	-37.4	-38.7	26.7	3.02e+01	64	32	0	1162346496	48	6644
2026-01-28 17:25:50.74	229.28	10.54	-37.4	-38.8	26.5	3.02e+01	45	32	0	1164443648	48	6707
2026-01-28 17:25:51.75	229.23	10.45	-37.8	-39.2	26.2	3.02e+01	60	32	0	1166540800	48	7041
2026-01-28 17:25:52.76	229.17	10.36	-37.6	-39.1	26.4	3.02e+01	63	32	0	1168113664	48	6909
2026-01-28 17:25:53.77	229.12	10.27	-37.4	-38.8	26.6	3.02e+01	63	32	0	1170210816	48	6666
2026-01-28 17:25:54.78	229.06	10.17	-37.5	-38.9	26.6	3.02e+01	62	32	0	1171783680	48	6733
2026-01-28 17:25:55.79	229.01	10.08	-37.8	-39.2	26.2	3.02e+01	50	32	0	1173880832	48	7014
2026-01-28 17:25:56.80	228.95	9.99	-37.8	-39.2	26.1	3.02e+01	60	32	0	1175977984	48	7023
2026-01-28 17:25:57.80	228.90	9.90	-37.7	-39.2	26.2	3.02e+01	64	32	0	1177550848	50	6213
2026-01-28 17:25:58.81	228.84	9.81	-37.8	-39.2	26.2	3.02e+01	57	33	0	1179648000	50	6223
2026-01-28 17:25:59.82	228.79	9.72	-38.0	-39.4	26.0	3.02e+01	58	32	0	1181220864	50	6397
2026-01-28 17:26:00.83	228.74	9.63	-38.0	-39.4	25.9	3.02e+01	46	32	0	1183318016	50	6401
2026-01-28 17:26:01.84	228.69	9.54	-38.1	-39.6	25.8	3.02e+01	59	32	0	1185415168	50	6523
2026-01-28 17:26:02.85	228.63	9.45	-38.0	-39.5	25.9	3.02e+01	60	32	0	1186988032	50	6440
2026-01-28 17:26:03.86	228.58	9.36	-38.2	-39.8	25.6	3.02e+01	53	32	0	1189085184	50	6651
2026-01-28 17:26:04.87	228.53	9.27	-38.2	-39.7	25.5	3.02e+01	59	33	0	1190658048	50	6644
2026-01-28 17:26:05.88	228.48	9.18	-38.3	-39.9	25.4	3.02e+01	59	33	0	1192755200	50	6752
2026-01-28 17:26:06.88	228.43	9.10	-38.1	-39.7	25.6	3.02e+01	61	33	0	1194852352	50	6641
2026-01-28 17:26:07.89	228.38	9.01	-38.2	-39.9	25.4	3.02e+01	58	33	0	1196425216	50	6737
