passes_logs/2026/01/28/R4.6S_Anadyr/R4.6S_Anadyr__20260128_133103_NOAA_21_JPSS-2_rec.log

#Pass ID: 20260128_133103_NOAA 21 (JPSS-2)
#Satellite: NOAA 21 (JPSS-2)
#Configuration: NOAA-21
#almurnet v.1.7.20251203
#Start time: 2026-01-28 13:31:04

#Version: 2.2.20231116
#Station: R4.6S_Anadyr
#Location: 177.4865 lon 64.73178 lat
#TLE: 1 54234U 22150A   26027.77052245  .00000166  00000+0  99439-4 0  9997
#TLE: 2 54234  98.7510 328.5165 0000872 203.6403 156.4733 14.19540252166628

#Time	Az	El	Level	Level2	SNR	BER	BlckErr	Temp	State	Recorded	gain1	gain2
2026-01-28 13:31:04.96	18.89	0.09	-48.6	-63.5	3.5	1.51e+00	0	30	0	0	60	54055
2026-01-28 13:31:05.96	18.93	0.14	-48.7	-61.5	3.5	1.52e+00	0	31	104	0	60	41682
2026-01-28 13:31:06.98	18.97	0.20	-48.7	-61.6	3.5	1.52e+00	0	31	104	0	60	42076
2026-01-28 13:31:07.98	19.01	0.26	-48.7	-61.6	3.5	1.52e+00	0	31	104	0	60	42190
2026-01-28 13:31:08.99	19.05	0.31	-48.7	-61.6	3.5	1.52e+00	0	31	104	0	60	41969
2026-01-28 13:31:10.00	19.09	0.37	-48.7	-61.6	3.5	1.52e+00	0	31	104	0	60	41968
2026-01-28 13:31:11.01	19.13	0.43	-48.7	-61.6	3.5	1.52e+00	0	31	104	0	60	42403
2026-01-28 13:31:12.02	19.17	0.49	-48.8	-61.6	3.5	1.52e+00	0	31	104	0	60	42320
2026-01-28 13:31:13.03	19.21	0.55	-48.8	-61.6	3.5	1.52e+00	0	32	104	0	60	42210
2026-01-28 13:31:14.04	19.26	0.60	-48.8	-61.6	3.5	1.52e+00	0	32	104	0	60	42223
2026-01-28 13:31:15.05	19.30	0.66	-48.7	-61.6	3.5	1.52e+00	0	32	104	0	60	42369
2026-01-28 13:31:16.06	19.34	0.72	-48.8	-61.6	3.5	1.52e+00	0	32	104	0	60	42337
2026-01-28 13:31:17.07	19.38	0.78	-48.7	-61.6	3.5	1.52e+00	0	32	104	0	60	42174
2026-01-28 13:31:18.08	19.42	0.84	-48.7	-61.5	3.5	1.52e+00	0	32	104	0	60	41866
2026-01-28 13:31:19.09	19.47	0.90	-48.6	-61.5	3.5	1.52e+00	0	32	104	0	60	41849
2026-01-28 13:31:20.10	19.51	0.96	-48.6	-61.5	3.5	1.51e+00	0	32	104	0	60	41575
2026-01-28 13:31:21.11	19.55	1.01	-48.5	-61.4	3.5	1.51e+00	0	32	104	0	60	41050
2026-01-28 13:31:22.12	19.59	1.07	-48.4	-61.3	3.5	1.52e+00	0	32	104	0	60	40691
2026-01-28 13:31:23.13	19.64	1.13	-48.3	-61.1	3.5	1.52e+00	0	32	104	0	60	40048
2026-01-28 13:31:24.14	19.68	1.19	-48.1	-61.0	3.5	1.52e+00	0	32	104	0	60	39495
2026-01-28 13:31:25.15	19.72	1.25	-48.1	-60.9	3.5	1.51e+00	0	32	104	0	60	39091
2026-01-28 13:31:26.16	19.77	1.31	-48.0	-60.8	3.5	1.52e+00	0	32	104	0	60	38554
2026-01-28 13:31:27.17	19.81	1.37	-47.8	-60.7	3.5	1.52e+00	0	32	104	0	60	37906
2026-01-28 13:31:28.18	19.85	1.43	-47.6	-60.4	3.5	1.52e+00	0	32	104	0	60	36568
2026-01-28 13:31:29.19	19.90	1.49	-47.3	-60.1	3.5	1.52e+00	0	32	104	0	60	35590
2026-01-28 13:31:30.20	19.94	1.55	-47.3	-60.1	3.5	1.52e+00	0	32	104	0	60	35411
2026-01-28 13:31:31.21	19.99	1.61	-47.3	-60.1	3.5	1.52e+00	0	32	104	0	60	35362
2026-01-28 13:31:32.22	20.03	1.67	-47.2	-60.0	3.5	1.52e+00	0	32	104	0	60	35148
2026-01-28 13:31:33.23	20.08	1.73	-47.2	-59.9	3.5	1.52e+00	0	32	104	0	60	34830
2026-01-28 13:31:34.24	20.12	1.79	-47.3	-59.9	3.5	1.52e+00	0	32	104	0	60	34802
2026-01-28 13:31:35.25	20.16	1.85	-47.3	-60.0	3.5	1.52e+00	0	32	104	0	60	34997
2026-01-28 13:31:36.26	20.21	1.91	-47.3	-60.1	3.5	1.52e+00	0	32	104	0	60	35321
2026-01-28 13:31:37.27	20.26	1.97	-47.3	-60.1	3.5	1.52e+00	0	32	104	0	60	35510
2026-01-28 13:31:38.28	20.30	2.03	-47.3	-60.1	3.5	1.52e+00	0	32	104	0	60	35643
2026-01-28 13:31:39.29	20.35	2.09	-47.3	-60.1	3.5	1.52e+00	0	32	104	0	60	35425
2026-01-28 13:31:40.30	20.39	2.15	-47.3	-60.1	3.5	1.52e+00	0	32	104	0	60	35464
2026-01-28 13:31:41.31	20.44	2.21	-47.3	-60.1	3.5	1.51e+00	0	32	104	0	60	35699
2026-01-28 13:31:42.32	20.48	2.28	-47.3	-60.1	3.5	1.52e+00	0	32	104	0	60	35651
2026-01-28 13:31:43.33	20.53	2.34	-47.2	-59.9	3.5	1.52e+00	0	32	104	0	60	34842
2026-01-28 13:31:44.34	20.58	2.40	-47.2	-59.5	3.5	1.52e+00	0	32	104	0	60	33215
2026-01-28 13:31:45.35	20.62	2.46	-47.2	-59.2	3.5	1.51e+00	0	32	104	0	60	32041
2026-01-28 13:31:46.36	20.67	2.52	-47.2	-59.2	3.5	1.52e+00	0	32	104	0	60	31848
2026-01-28 13:31:47.37	20.72	2.58	-47.2	-59.4	3.5	1.51e+00	0	32	104	0	60	32746
2026-01-28 13:31:48.38	20.76	2.65	-47.3	-60.0	3.5	1.52e+00	0	32	104	0	60	35272
2026-01-28 13:31:49.39	20.81	2.71	-47.2	-59.4	3.5	1.52e+00	0	32	104	0	60	32581
2026-01-28 13:31:50.40	20.86	2.77	-46.8	-56.0	3.7	1.38e+00	57	32	104	0	60	22114
2026-01-28 13:31:51.41	20.91	2.83	-46.0	-51.6	7.2	1.80e-01	123	32	0	0	60	13340
2026-01-28 13:31:52.42	20.95	2.89	-44.7	-48.3	10.9	7.83e-03	120	32	0	3145728	60	9150
2026-01-28 13:31:53.43	21.00	2.96	-43.4	-46.1	14.0	3.12e-05	123	32	0	6291456	60	7053
2026-01-28 13:31:54.44	21.05	3.02	-41.6	-43.5	16.1	0.00e+00	120	32	0	9437184	56	6605
2026-01-28 13:31:55.45	21.10	3.08	-40.3	-41.9	17.3	0.00e+00	123	32	0	12582912	54	6197
2026-01-28 13:31:56.46	21.15	3.15	-39.0	-40.4	19.1	0.00e+00	122	32	0	15728640	52	5831
2026-01-28 13:31:57.46	21.19	3.21	-38.7	-40.0	19.6	0.00e+00	124	32	0	18874368	50	6217
2026-01-28 13:31:58.47	21.24	3.27	-38.3	-39.6	19.7	0.00e+00	123	32	0	22020096	50	5935
2026-01-28 13:31:59.48	21.29	3.33	-39.0	-40.4	18.7	0.00e+00	122	32	0	25165824	48	7327
2026-01-28 13:32:00.49	21.34	3.40	-38.5	-39.8	19.4	0.00e+00	122	32	0	28311552	50	6121
2026-01-28 13:32:01.50	21.39	3.46	-39.7	-41.1	18.3	0.00e+00	122	32	0	31457280	50	7119
2026-01-28 13:32:02.51	21.44	3.53	-40.5	-42.1	17.2	0.00e+00	123	32	0	34603008	54	6330
2026-01-28 13:32:03.52	21.49	3.59	-38.0	-39.2	20.2	0.00e+00	123	32	0	37748736	50	5688
2026-01-28 13:32:04.53	21.54	3.65	-40.6	-42.2	15.7	0.00e+00	122	32	0	40894464	50	8077
2026-01-28 13:32:05.54	21.59	3.72	-41.4	-43.7	15.8	4.71e-01	123	32	104	42991616	58	5995
2026-01-28 13:32:06.55	21.64	3.78	-43.5	-45.9	14.4	1.95e-01	120	32	0	44040192	60	6913
2026-01-28 13:32:07.56	21.69	3.85	-41.5	-43.4	14.8	0.00e+00	122	32	0	47185920	52	8266
2026-01-28 13:32:08.57	21.74	3.91	-46.0	-52.0	4.5	1.52e+00	0	32	104	48234496	60	14031
2026-01-28 13:32:09.58	21.79	3.98	-40.9	-43.0	16.3	0.00e+00	123	32	104	48234496	56	6212
2026-01-28 13:32:10.59	21.85	4.04	-41.6	-43.4	16.4	0.00e+00	120	32	0	50331648	56	6529
2026-01-28 13:32:11.60	21.90	4.10	-41.7	-43.6	16.2	0.00e+00	123	32	0	53477376	56	6656
2026-01-28 13:32:12.61	21.95	4.17	-41.2	-42.9	16.6	0.00e+00	120	32	0	56623104	56	6189
2026-01-28 13:32:13.62	22.00	4.24	-41.1	-42.8	16.7	0.00e+00	122	32	0	59768832	56	6069
2026-01-28 13:32:14.63	22.05	4.30	-40.9	-42.6	16.9	0.00e+00	122	32	0	62914560	54	6666
2026-01-28 13:32:15.64	22.10	4.37	-41.2	-43.0	16.5	0.00e+00	123	32	0	66060288	54	6965
2026-01-28 13:32:16.65	22.16	4.43	-41.5	-43.3	16.1	0.00e+00	120	32	0	69206016	54	7274
2026-01-28 13:32:17.66	22.21	4.50	-41.4	-43.2	16.6	0.00e+00	122	32	0	72351744	54	7184
2026-01-28 13:32:18.67	22.26	4.56	-40.5	-42.1	17.4	0.00e+00	123	33	0	75497472	54	6290
2026-01-28 13:32:19.68	22.32	4.63	-40.7	-42.3	17.0	0.00e+00	122	32	0	78643200	54	6491
2026-01-28 13:32:20.69	22.37	4.70	-40.9	-42.6	17.1	0.00e+00	122	33	0	81788928	54	6663
2026-01-28 13:32:21.70	22.42	4.76	-39.4	-40.7	18.8	0.00e+00	123	33	0	84934656	52	6049
2026-01-28 13:32:22.71	22.48	4.83	-39.5	-40.9	18.7	0.00e+00	122	33	0	88080384	52	6142
2026-01-28 13:32:23.72	22.53	4.90	-38.9	-40.2	19.0	0.00e+00	123	33	0	91226112	52	5714
2026-01-28 13:32:24.73	22.58	4.96	-39.0	-40.3	19.4	0.00e+00	122	33	0	94371840	52	5750
2026-01-28 13:32:25.74	22.64	5.03	-39.1	-40.4	19.2	0.00e+00	122	32	0	97517568	50	6551
2026-01-28 13:32:26.75	22.69	5.10	-38.5	-39.8	19.7	0.00e+00	123	33	0	100663296	50	6070
2026-01-28 13:32:27.76	22.75	5.16	-38.4	-39.6	19.6	0.00e+00	123	32	0	103809024	50	5957
2026-01-28 13:32:28.77	22.80	5.23	-38.9	-40.1	19.7	0.00e+00	122	33	0	108003328	50	6346
2026-01-28 13:32:29.78	22.86	5.30	-38.3	-39.5	19.8	0.00e+00	123	33	0	110100480	50	5897
2026-01-28 13:32:30.79	22.92	5.37	-38.4	-39.7	19.7	0.00e+00	123	33	0	113246208	50	6006
2026-01-28 13:32:31.80	22.97	5.43	-37.8	-39.0	20.2	0.00e+00	122	33	0	116391936	50	5556
2026-01-28 13:32:32.81	23.03	5.50	-38.4	-39.6	20.1	0.00e+00	122	33	0	119537664	50	5950
2026-01-28 13:32:33.82	23.08	5.57	-38.2	-39.4	20.1	0.00e+00	120	33	0	122683392	50	5833
2026-01-28 13:32:34.83	23.14	5.64	-37.8	-38.9	20.4	0.00e+00	123	33	0	126877696	50	5518
2026-01-28 13:32:35.84	23.20	5.71	-37.8	-39.0	20.4	0.00e+00	122	33	0	130023424	48	6243
2026-01-28 13:32:36.85	23.25	5.78	-38.0	-39.1	20.3	0.00e+00	120	33	0	132120576	48	6349
2026-01-28 13:32:37.86	23.31	5.84	-37.6	-38.8	20.6	0.00e+00	123	32	0	135266304	48	6088
2026-01-28 13:32:38.87	23.37	5.91	-38.0	-39.2	20.4	0.00e+00	120	33	0	138412032	48	6382
2026-01-28 13:32:39.88	23.43	5.98	-38.2	-39.4	20.1	0.00e+00	123	33	0	142606336	48	6521
2026-01-28 13:32:40.89	23.48	6.05	-37.6	-38.7	20.7	0.00e+00	120	33	0	145752064	48	6019
2026-01-28 13:32:41.90	23.54	6.12	-37.2	-38.3	21.1	0.00e+00	123	33	0	148897792	48	5784
2026-01-28 13:32:42.91	23.60	6.19	-37.4	-38.5	20.8	0.00e+00	123	33	0	152043520	48	5925
2026-01-28 13:32:43.92	23.66	6.26	-37.3	-38.4	21.1	0.00e+00	123	33	0	155189248	48	5828
2026-01-28 13:32:44.93	23.72	6.33	-37.5	-38.6	20.9	0.00e+00	122	33	0	158334976	48	5958
2026-01-28 13:32:45.93	23.78	6.40	-36.9	-37.9	21.6	0.00e+00	122	33	0	161480704	48	5514
2026-01-28 13:32:46.94	23.84	6.47	-36.9	-38.0	21.4	0.00e+00	122	33	0	164626432	46	6238
2026-01-28 13:32:47.95	23.90	6.54	-36.8	-37.9	21.6	0.00e+00	123	33	0	167772160	46	6174
2026-01-28 13:32:48.96	23.96	6.61	-37.0	-38.0	21.5	0.00e+00	123	33	0	170917888	46	6267
2026-01-28 13:32:49.97	24.02	6.68	-36.8	-37.9	21.7	0.00e+00	122	33	0	174063616	46	6147
2026-01-28 13:32:50.98	24.08	6.75	-36.7	-37.7	21.8	0.00e+00	120	33	0	177209344	46	6031
2026-01-28 13:32:51.99	24.14	6.83	-37.5	-38.6	21.0	0.00e+00	121	33	0	180355072	46	6683
2026-01-28 13:32:53.00	24.20	6.90	-37.2	-38.4	21.3	0.00e+00	122	33	0	183500800	46	6506
2026-01-28 13:32:54.01	24.26	6.97	-36.8	-37.9	21.6	0.00e+00	123	33	0	186646528	46	6169
2026-01-28 13:32:55.02	24.32	7.04	-37.5	-38.6	21.0	0.00e+00	123	33	0	189792256	46	6697
2026-01-28 13:32:56.03	24.39	7.11	-37.2	-38.3	21.4	0.00e+00	123	33	0	192937984	46	6433
2026-01-28 13:32:57.03	24.45	7.18	-37.2	-38.3	21.2	0.00e+00	123	33	0	196083712	46	6427
2026-01-28 13:32:58.05	24.51	7.26	-36.3	-37.3	22.1	0.00e+00	123	33	0	199229440	46	5777
2026-01-28 13:32:59.06	24.57	7.33	-36.4	-37.5	22.0	0.00e+00	123	33	0	202375168	46	5863
2026-01-28 13:33:00.07	24.64	7.40	-36.3	-37.4	22.0	0.00e+00	122	33	0	205520896	46	5800
2026-01-28 13:33:01.08	24.70	7.47	-36.2	-37.2	22.3	0.00e+00	123	33	0	208666624	46	5673
2026-01-28 13:33:02.09	24.77	7.55	-36.3	-37.3	22.1	0.00e+00	123	33	0	211812352	46	5789
2026-01-28 13:33:03.10	24.83	7.62	-36.3	-37.4	22.0	0.00e+00	122	33	0	214958080	46	5800
2026-01-28 13:33:04.11	24.89	7.69	-36.0	-37.0	22.3	0.00e+00	123	33	0	218103808	46	5546
2026-01-28 13:33:05.12	24.96	7.77	-36.1	-37.1	22.3	0.00e+00	123	33	0	221249536	46	5626
2026-01-28 13:33:06.12	25.02	7.84	-36.0	-37.0	22.5	0.00e+00	122	33	0	224395264	46	5543
2026-01-28 13:33:07.13	25.09	7.91	-36.3	-37.3	22.2	0.00e+00	123	33	0	227540992	46	5764
2026-01-28 13:33:08.15	25.15	7.99	-36.2	-37.2	22.4	0.00e+00	123	33	0	230686720	46	5672
2026-01-28 13:33:09.15	25.22	8.06	-36.0	-37.0	22.5	0.00e+00	123	33	0	233832448	46	5591
2026-01-28 13:33:10.16	25.29	8.14	-35.8	-36.8	22.6	0.00e+00	122	33	0	236978176	46	5416
2026-01-28 13:33:11.17	25.35	8.21	-35.8	-36.8	22.6	0.00e+00	123	33	0	240123904	46	5437
2026-01-28 13:33:12.19	25.42	8.29	-35.6	-36.6	22.8	0.00e+00	122	33	0	243269632	44	5967
2026-01-28 13:33:13.20	25.49	8.36	-35.7	-36.7	22.7	0.00e+00	122	33	0	246415360	44	6015
2026-01-28 13:33:14.20	25.55	8.44	-35.9	-36.8	22.6	0.00e+00	123	33	0	249561088	44	6131
2026-01-28 13:33:15.21	25.62	8.51	-35.8	-36.9	22.6	0.00e+00	122	33	0	252706816	44	6135
2026-01-28 13:33:16.22	25.69	8.59	-35.8	-36.8	22.5	0.00e+00	121	33	0	255852544	44	6109
2026-01-28 13:33:17.23	25.76	8.66	-36.0	-37.0	22.5	0.00e+00	123	33	0	258998272	44	6256
2026-01-28 13:33:18.24	25.83	8.74	-35.7	-36.7	22.7	0.00e+00	120	33	0	262144000	44	6028
2026-01-28 13:33:19.25	25.90	8.81	-35.7	-36.7	22.8	0.00e+00	122	33	0	265289728	44	5999
2026-01-28 13:33:20.26	25.97	8.89	-35.5	-36.4	23.0	0.00e+00	122	33	0	268435456	44	5848
2026-01-28 13:33:21.27	26.04	8.97	-35.7	-36.7	22.7	0.00e+00	123	33	0	271581184	44	6045
2026-01-28 13:33:22.28	26.11	9.04	-35.6	-36.6	22.8	0.00e+00	120	33	0	274726912	44	5965
2026-01-28 13:33:23.29	26.18	9.12	-35.6	-36.6	22.9	0.00e+00	120	33	0	277872640	44	5939
2026-01-28 13:33:24.30	26.25	9.20	-35.7	-36.6	22.8	0.00e+00	122	33	0	281018368	44	5976
2026-01-28 13:33:25.31	26.32	9.28	-35.7	-36.6	22.8	0.00e+00	121	33	0	284164096	44	5988
2026-01-28 13:33:26.32	26.39	9.35	-35.6	-36.6	22.9	0.00e+00	120	33	0	287309824	44	5955
2026-01-28 13:33:27.33	26.46	9.43	-35.7	-36.6	22.7	0.00e+00	123	33	0	290455552	44	5988
2026-01-28 13:33:28.34	26.54	9.51	-35.9	-36.9	22.7	0.00e+00	123	33	0	293601280	44	6136
2026-01-28 13:33:29.35	26.61	9.59	-35.5	-36.5	22.9	0.00e+00	120	33	0	296747008	44	5899
2026-01-28 13:33:30.36	26.68	9.67	-35.6	-36.5	22.8	0.00e+00	122	33	0	299892736	44	5912
2026-01-28 13:33:31.37	26.75	9.74	-35.4	-36.3	23.0	0.00e+00	120	33	0	303038464	44	5774
2026-01-28 13:33:32.38	26.83	9.82	-35.4	-36.4	23.1	0.00e+00	123	33	0	306184192	44	5807
2026-01-28 13:33:33.39	26.90	9.90	-35.4	-36.3	23.1	0.00e+00	123	33	0	309329920	44	5775
2026-01-28 13:33:34.40	26.98	9.98	-35.3	-36.3	23.1	0.00e+00	120	33	0	312475648	44	5741
2026-01-28 13:33:35.41	27.05	10.06	-35.3	-36.3	23.1	0.00e+00	123	33	0	315621376	44	5736
2026-01-28 13:33:36.42	27.13	10.14	-35.3	-36.2	23.1	0.00e+00	122	33	0	318767104	44	5711
2026-01-28 13:33:37.42	27.20	10.22	-35.3	-36.3	23.2	0.00e+00	123	33	0	321912832	44	5736
2026-01-28 13:33:38.44	27.28	10.30	-35.1	-36.1	23.2	0.00e+00	123	33	0	325058560	44	5622
2026-01-28 13:33:39.44	27.35	10.38	-35.5	-36.4	23.1	0.00e+00	122	33	0	328204288	44	5839
2026-01-28 13:33:40.45	27.43	10.46	-35.2	-36.1	23.4	0.00e+00	123	33	0	331350016	44	5656
2026-01-28 13:33:41.46	27.51	10.54	-35.1	-36.0	23.4	0.00e+00	122	33	0	334495744	44	5578
2026-01-28 13:33:42.47	27.59	10.62	-35.1	-36.0	23.3	0.00e+00	121	33	0	337641472	44	5570
2026-01-28 13:33:43.48	27.66	10.70	-35.4	-36.3	23.1	0.00e+00	122	33	0	340787200	44	5785
2026-01-28 13:33:44.49	27.74	10.79	-35.1	-36.0	23.3	0.00e+00	123	33	0	343932928	44	5581
2026-01-28 13:33:45.50	27.82	10.87	-35.3	-36.2	23.2	0.00e+00	123	33	0	347078656	44	5712
2026-01-28 13:33:46.51	27.90	10.95	-35.2	-36.2	23.1	0.00e+00	123	33	0	350224384	44	5690
2026-01-28 13:33:47.52	27.98	11.03	-35.3	-36.3	23.2	0.00e+00	120	33	0	353370112	44	5735
2026-01-28 13:33:48.53	28.06	11.11	-35.1	-36.0	23.4	0.00e+00	122	33	0	356515840	44	5593
2026-01-28 13:33:49.54	28.14	11.20	-35.2	-36.1	23.2	0.00e+00	123	33	0	359661568	44	5650
2026-01-28 13:33:50.55	28.22	11.28	-35.2	-36.1	23.2	0.00e+00	123	33	0	362807296	44	5640
2026-01-28 13:33:51.56	28.30	11.36	-35.1	-36.1	23.4	0.00e+00	123	33	0	365953024	44	5599
2026-01-28 13:33:52.57	28.39	11.45	-35.1	-36.0	23.3	0.00e+00	123	33	0	369098752	44	5578
2026-01-28 13:33:53.57	28.47	11.53	-35.0	-35.9	23.5	0.00e+00	123	33	0	372244480	44	5525
2026-01-28 13:33:54.58	28.55	11.61	-34.9	-35.9	23.5	0.00e+00	123	33	0	375390208	44	5489
2026-01-28 13:33:55.59	28.63	11.70	-34.9	-35.8	23.6	0.00e+00	122	33	0	378535936	44	5427
2026-01-28 13:33:56.60	28.72	11.78	-34.8	-35.8	23.6	0.00e+00	123	33	0	381681664	44	5422
2026-01-28 13:33:57.61	28.80	11.86	-34.8	-35.8	23.6	0.00e+00	120	33	0	384827392	44	5430
2026-01-28 13:33:58.62	28.88	11.95	-34.9	-35.9	23.5	0.00e+00	120	33	0	387973120	42	6140
2026-01-28 13:33:59.63	28.97	12.03	-34.9	-35.9	23.5	0.00e+00	122	33	0	391118848	42	6143
2026-01-28 13:34:00.64	29.06	12.12	-35.0	-35.9	23.5	0.00e+00	123	33	0	394264576	42	6166
2026-01-28 13:34:01.65	29.14	12.21	-35.0	-35.9	23.6	0.00e+00	122	33	0	397410304	42	6166
2026-01-28 13:34:02.66	29.23	12.29	-35.0	-35.9	23.6	0.00e+00	122	33	0	400556032	42	6160
2026-01-28 13:34:03.67	29.31	12.38	-35.0	-35.9	23.5	0.00e+00	123	33	0	403701760	42	6199
2026-01-28 13:34:04.68	29.40	12.46	-35.0	-36.0	23.5	0.00e+00	123	33	0	406847488	42	6210
2026-01-28 13:34:05.69	29.49	12.55	-34.9	-35.8	23.7	0.00e+00	123	33	0	409993216	42	6107
2026-01-28 13:34:06.70	29.58	12.64	-34.7	-35.6	23.8	0.00e+00	123	33	0	413138944	42	5961
2026-01-28 13:34:07.71	29.67	12.72	-34.9	-35.8	23.7	0.00e+00	123	33	0	416284672	42	6105
2026-01-28 13:34:08.71	29.76	12.81	-34.6	-35.5	23.9	0.00e+00	121	33	0	419430400	42	5880
2026-01-28 13:34:09.72	29.85	12.90	-34.6	-35.6	23.9	0.00e+00	123	33	0	422576128	42	5933
2026-01-28 13:34:10.73	29.94	12.98	-34.8	-35.8	23.7	0.00e+00	122	33	0	425721856	42	6065
2026-01-28 13:34:11.74	30.03	13.07	-34.7	-35.6	23.8	0.00e+00	122	33	0	428867584	42	5980
2026-01-28 13:34:12.75	30.12	13.16	-34.7	-35.7	23.8	0.00e+00	123	33	0	432013312	42	6017
2026-01-28 13:34:13.76	30.21	13.25	-34.7	-35.6	23.8	0.00e+00	123	33	0	435159040	42	5953
2026-01-28 13:34:14.77	30.30	13.34	-34.7	-35.6	23.8	0.00e+00	120	33	0	438304768	42	5981
2026-01-28 13:34:15.78	30.39	13.43	-34.7	-35.6	23.8	0.00e+00	123	33	0	441450496	42	5980
2026-01-28 13:34:16.79	30.49	13.52	-34.5	-35.4	23.9	0.00e+00	118	33	0	444596224	42	5856
2026-01-28 13:34:17.80	30.58	13.61	-34.7	-35.6	23.8	0.00e+00	120	33	0	447741952	42	5950
2026-01-28 13:34:18.81	30.68	13.70	-34.5	-35.4	23.9	0.00e+00	120	33	0	450887680	42	5815
2026-01-28 13:34:19.82	30.77	13.79	-34.5	-35.4	24.0	0.00e+00	122	33	0	454033408	42	5821
2026-01-28 13:34:20.83	30.87	13.88	-34.5	-35.4	24.0	0.00e+00	121	33	0	457179136	42	5849
2026-01-28 13:34:21.84	30.96	13.97	-34.7	-35.7	23.8	0.00e+00	123	33	0	460324864	42	6014
2026-01-28 13:34:22.85	31.06	14.06	-34.6	-35.6	23.9	0.00e+00	123	33	0	463470592	42	5938
2026-01-28 13:34:23.85	31.16	14.15	-34.5	-35.4	24.0	0.00e+00	122	33	0	466616320	42	5821
2026-01-28 13:34:24.86	31.25	14.24	-34.5	-35.4	24.1	0.00e+00	123	33	0	469762048	42	5802
2026-01-28 13:34:25.88	31.35	14.33	-34.6	-35.5	23.9	0.00e+00	120	33	0	472907776	42	5880
2026-01-28 13:34:26.88	31.45	14.42	-34.5	-35.4	24.0	0.00e+00	122	33	0	476053504	42	5836
2026-01-28 13:34:27.89	31.55	14.52	-34.5	-35.4	23.9	0.00e+00	122	33	0	479199232	42	5801
2026-01-28 13:34:28.90	31.65	14.61	-34.4	-35.4	24.0	0.00e+00	122	33	0	482344960	42	5792
2026-01-28 13:34:29.91	31.75	14.70	-34.5	-35.5	24.0	0.00e+00	123	33	0	485490688	42	5859
2026-01-28 13:34:30.92	31.85	14.79	-34.4	-35.3	24.1	0.00e+00	122	33	0	489684992	42	5768
2026-01-28 13:34:31.93	31.96	14.89	-34.6	-35.5	24.0	0.00e+00	123	33	0	492830720	42	5883
2026-01-28 13:34:32.94	32.06	14.98	-34.6	-35.5	23.9	0.00e+00	122	33	0	495976448	42	5887
2026-01-28 13:34:33.95	32.16	15.07	-34.4	-35.3	24.1	0.00e+00	123	33	0	498073600	42	5778
2026-01-28 13:34:34.96	32.27	15.17	-34.5	-35.4	24.0	0.00e+00	120	33	0	501219328	42	5831
2026-01-28 13:34:35.97	32.37	15.26	-34.4	-35.3	24.1	0.00e+00	122	33	0	504365056	42	5757
2026-01-28 13:34:36.98	32.48	15.36	-34.4	-35.3	24.1	0.00e+00	123	33	0	508559360	42	5767
2026-01-28 13:34:37.99	32.58	15.45	-34.5	-35.4	23.9	0.00e+00	122	33	0	511705088	42	5844
2026-01-28 13:34:38.99	32.69	15.55	-34.4	-35.4	24.0	0.00e+00	123	33	0	514850816	42	5795
2026-01-28 13:34:40.00	32.79	15.64	-34.4	-35.3	24.0	0.00e+00	120	33	0	517996544	42	5777
2026-01-28 13:34:41.01	32.90	15.74	-34.6	-35.5	23.9	0.00e+00	123	33	0	521142272	42	5891
2026-01-28 13:34:42.02	33.01	15.84	-34.6	-35.5	23.9	0.00e+00	123	33	0	524288000	42	5903
2026-01-28 13:34:43.03	33.12	15.93	-34.7	-35.6	23.8	0.00e+00	120	33	0	527433728	42	5963
2026-01-28 13:34:44.04	33.23	16.03	-34.6	-35.5	23.9	0.00e+00	123	33	0	530579456	42	5876
2026-01-28 13:34:45.05	33.34	16.13	-34.5	-35.4	24.0	0.00e+00	122	33	0	533725184	42	5855
2026-01-28 13:34:46.06	33.45	16.22	-34.5	-35.4	24.1	0.00e+00	123	33	0	536870912	42	5824
2026-01-28 13:34:47.07	33.56	16.32	-34.6	-35.5	24.0	0.00e+00	122	33	0	540016640	42	5869
2026-01-28 13:34:48.08	33.67	16.42	-34.6	-35.5	24.0	0.00e+00	122	33	0	543162368	42	5905
2026-01-28 13:34:49.09	33.79	16.52	-34.6	-35.5	24.0	0.00e+00	120	33	0	546308096	42	5897
2026-01-28 13:34:50.10	33.90	16.62	-34.7	-35.6	23.9	0.00e+00	123	33	0	549453824	42	5960
2026-01-28 13:34:51.11	34.02	16.71	-34.7	-35.6	23.9	0.00e+00	122	33	0	552599552	42	5981
2026-01-28 13:34:52.11	34.13	16.81	-34.7	-35.7	23.8	0.00e+00	123	33	0	555745280	42	6012
2026-01-28 13:34:53.12	34.25	16.91	-34.7	-35.6	23.9	0.00e+00	120	33	0	558891008	42	5977
2026-01-28 13:34:54.13	34.36	17.01	-34.7	-35.6	23.9	0.00e+00	123	33	0	562036736	42	5936
2026-01-28 13:34:55.14	34.48	17.11	-34.7	-35.6	23.9	0.00e+00	123	33	0	565182464	42	5980
2026-01-28 13:34:56.15	34.60	17.21	-34.8	-35.7	23.7	0.00e+00	123	33	0	568328192	42	6039
2026-01-28 13:34:57.16	34.72	17.31	-34.8	-35.8	23.8	0.00e+00	123	33	0	571473920	42	6082
2026-01-28 13:34:58.17	34.84	17.41	-34.9	-35.9	23.7	0.00e+00	123	33	0	574619648	42	6158
2026-01-28 13:34:59.18	34.96	17.51	-34.8	-35.7	23.8	0.00e+00	122	33	0	577765376	42	6027
2026-01-28 13:35:00.19	35.08	17.62	-34.8	-35.8	23.8	0.00e+00	122	33	0	580911104	42	6086
2026-01-28 13:35:01.20	35.20	17.72	-34.8	-35.7	23.8	0.00e+00	123	33	0	584056832	42	6018
2026-01-28 13:35:02.21	35.32	17.82	-34.8	-35.7	23.8	0.00e+00	123	33	0	587202560	42	6053
2026-01-28 13:35:03.22	35.45	17.92	-34.9	-35.8	23.8	0.00e+00	123	33	0	590348288	42	6093
2026-01-28 13:35:04.23	35.57	18.02	-34.9	-35.9	23.8	0.00e+00	123	33	0	593494016	42	6159
2026-01-28 13:35:05.24	35.70	18.13	-34.9	-35.8	23.9	0.00e+00	122	33	0	596639744	42	6110
2026-01-28 13:35:06.25	35.82	18.23	-35.0	-35.9	23.7	0.00e+00	120	33	0	599785472	42	6178
2026-01-28 13:35:07.26	35.95	18.33	-34.8	-35.7	23.8	0.00e+00	123	33	0	602931200	42	6026
2026-01-28 13:35:08.27	36.08	18.44	-34.8	-35.7	23.8	0.00e+00	122	33	0	606076928	42	6059
2026-01-28 13:35:09.28	36.21	18.54	-34.8	-35.7	23.9	0.00e+00	123	33	0	609222656	42	6031
2026-01-28 13:35:10.29	36.34	18.65	-34.7	-35.6	24.0	0.00e+00	123	33	0	612368384	42	5975
2026-01-28 13:35:11.30	36.47	18.75	-34.7	-35.6	24.0	0.00e+00	120	33	0	615514112	42	5951
2026-01-28 13:35:12.30	36.60	18.86	-34.7	-35.6	23.9	0.00e+00	123	33	0	618659840	42	5950
2026-01-28 13:35:13.32	36.73	18.96	-34.6	-35.5	24.0	0.00e+00	123	33	0	621805568	42	5923
2026-01-28 13:35:14.33	36.86	19.07	-34.7	-35.6	24.0	0.00e+00	122	33	0	624951296	42	5954
2026-01-28 13:35:15.34	37.00	19.17	-34.6	-35.5	24.0	0.00e+00	122	33	0	628097024	42	5904
2026-01-28 13:35:16.34	37.13	19.28	-34.5	-35.4	24.2	0.00e+00	122	33	0	631242752	42	5807
2026-01-28 13:35:17.35	37.27	19.39	-34.6	-35.5	24.1	0.00e+00	120	33	0	634388480	42	5905
2026-01-28 13:35:18.36	37.40	19.49	-34.4	-35.3	24.1	0.00e+00	123	33	0	637534208	42	5767
2026-01-28 13:35:19.37	37.54	19.60	-34.4	-35.3	24.1	0.00e+00	120	33	0	640679936	42	5785
2026-01-28 13:35:20.38	37.68	19.71	-34.4	-35.3	24.3	0.00e+00	123	33	0	643825664	42	5761
2026-01-28 13:35:21.39	37.82	19.82	-34.3	-35.2	24.3	0.00e+00	120	33	0	646971392	42	5716
2026-01-28 13:35:22.40	37.96	19.93	-34.5	-35.4	24.2	0.00e+00	120	33	0	650117120	42	5846
2026-01-28 13:35:23.41	38.10	20.03	-34.4	-35.3	24.3	0.00e+00	123	33	0	653262848	42	5785
2026-01-28 13:35:24.42	38.24	20.14	-34.4	-35.4	24.2	0.00e+00	120	33	0	656408576	42	5804
2026-01-28 13:35:25.43	38.39	20.25	-34.3	-35.2	24.3	0.00e+00	123	33	0	659554304	42	5687
2026-01-28 13:35:26.44	38.53	20.36	-34.3	-35.2	24.3	0.00e+00	120	33	0	662700032	42	5719
2026-01-28 13:35:27.45	38.68	20.47	-34.2	-35.0	24.4	0.00e+00	122	33	0	665845760	42	5594
2026-01-28 13:35:28.46	38.82	20.58	-34.3	-35.2	24.3	0.00e+00	122	33	0	668991488	42	5683
2026-01-28 13:35:29.47	38.97	20.69	-34.2	-35.1	24.4	0.00e+00	123	33	0	672137216	42	5625
2026-01-28 13:35:30.48	39.12	20.80	-34.2	-35.1	24.5	0.00e+00	121	33	0	675282944	42	5604
2026-01-28 13:35:31.49	39.27	20.91	-34.2	-35.1	24.5	0.00e+00	120	33	0	678428672	42	5609
2026-01-28 13:35:32.50	39.42	21.02	-34.1	-35.1	24.5	0.00e+00	122	33	0	681574400	42	5598
2026-01-28 13:35:33.51	39.57	21.14	-34.2	-35.1	24.4	0.00e+00	123	33	0	684720128	42	5655
2026-01-28 13:35:34.52	39.72	21.25	-34.2	-35.1	24.4	0.00e+00	122	33	0	687865856	42	5629
2026-01-28 13:35:35.53	39.88	21.36	-33.8	-34.7	24.7	0.00e+00	123	33	0	691011584	42	5401
2026-01-28 13:35:36.54	40.03	21.47	-33.8	-34.7	24.6	0.00e+00	123	33	0	694157312	42	5368
2026-01-28 13:35:37.55	40.19	21.59	-33.9	-34.8	24.5	0.00e+00	121	33	0	697303040	42	5439
2026-01-28 13:35:38.56	40.35	21.70	-33.9	-34.8	24.5	0.00e+00	123	33	0	700448768	42	5441
2026-01-28 13:35:39.57	40.50	21.81	-34.0	-34.9	24.5	0.00e+00	123	33	0	703594496	42	5496
2026-01-28 13:35:40.58	40.66	21.93	-34.2	-35.1	24.3	0.00e+00	122	33	0	706740224	42	5646
2026-01-28 13:35:41.59	40.82	22.04	-34.3	-35.2	24.2	0.00e+00	120	33	0	709885952	42	5719
2026-01-28 13:35:42.60	40.98	22.15	-33.8	-34.7	24.7	0.00e+00	123	33	0	713031680	42	5346
2026-01-28 13:35:43.61	41.15	22.27	-33.9	-34.8	24.5	0.00e+00	123	33	0	716177408	40	6094
2026-01-28 13:35:44.62	41.31	22.38	-33.8	-34.6	24.6	0.00e+00	120	33	0	719323136	40	5991
2026-01-28 13:35:45.63	41.48	22.50	-33.5	-34.4	24.8	0.00e+00	123	33	0	722468864	40	5811
2026-01-28 13:35:46.64	41.64	22.61	-33.5	-34.4	24.8	0.00e+00	123	33	0	725614592	40	5831
2026-01-28 13:35:47.65	41.81	22.73	-33.3	-34.2	25.0	0.00e+00	122	33	0	728760320	40	5683
2026-01-28 13:35:48.66	41.98	22.85	-33.3	-34.2	25.0	0.00e+00	123	33	0	731906048	40	5699
2026-01-28 13:35:49.67	42.15	22.96	-33.4	-34.3	25.0	0.00e+00	122	33	0	735051776	40	5753
2026-01-28 13:35:50.67	42.32	23.08	-33.3	-34.1	25.0	0.00e+00	123	33	0	738197504	40	5650
2026-01-28 13:35:51.69	42.49	23.20	-33.3	-34.2	25.1	0.00e+00	123	33	0	741343232	40	5679
2026-01-28 13:35:52.70	42.67	23.31	-33.3	-34.2	25.0	0.00e+00	122	33	0	744488960	40	5685
2026-01-28 13:35:53.71	42.84	23.43	-33.3	-34.2	25.1	0.00e+00	122	33	0	747634688	40	5678
2026-01-28 13:35:54.72	43.02	23.55	-33.4	-34.2	25.0	0.00e+00	123	33	0	750780416	40	5713
2026-01-28 13:35:55.72	43.19	23.66	-33.5	-34.4	24.9	0.00e+00	123	33	0	753926144	40	5804
2026-01-28 13:35:56.73	43.37	23.78	-33.3	-34.2	25.1	0.00e+00	121	33	0	757071872	40	5678
2026-01-28 13:35:57.74	43.55	23.90	-33.4	-34.2	25.0	0.00e+00	123	33	0	760217600	40	5707
2026-01-28 13:35:58.75	43.73	24.02	-33.3	-34.2	25.1	0.00e+00	120	33	0	763363328	40	5691
2026-01-28 13:35:59.76	43.91	24.14	-33.2	-34.1	25.1	0.00e+00	122	33	0	766509056	40	5609
2026-01-28 13:36:00.77	44.10	24.26	-33.2	-34.1	25.1	0.00e+00	123	33	0	769654784	40	5633
2026-01-28 13:36:01.78	44.28	24.38	-33.4	-34.3	24.9	0.00e+00	123	33	0	772800512	40	5726
2026-01-28 13:36:02.79	44.47	24.50	-33.6	-34.4	24.7	0.00e+00	120	33	0	775946240	40	5850
2026-01-28 13:36:03.79	44.66	24.62	-33.6	-34.5	24.7	0.00e+00	123	33	0	779091968	40	5874
2026-01-28 13:36:04.81	44.85	24.74	-33.6	-34.5	24.7	0.00e+00	120	33	0	782237696	40	5878
2026-01-28 13:36:05.82	45.04	24.86	-33.8	-34.6	24.5	0.00e+00	122	33	0	785383424	40	5990
2026-01-28 13:36:06.83	45.23	24.98	-33.7	-34.6	24.7	0.00e+00	122	33	0	788529152	40	5934
2026-01-28 13:36:07.84	45.43	25.10	-33.7	-34.5	24.8	0.00e+00	123	33	0	791674880	40	5924
2026-01-28 13:36:08.84	45.62	25.22	-33.6	-34.5	24.8	0.00e+00	123	33	0	794820608	40	5906
2026-01-28 13:36:09.86	45.82	25.34	-33.5	-34.3	25.0	0.00e+00	122	33	0	797966336	40	5782
2026-01-28 13:36:10.86	46.01	25.46	-33.5	-34.3	25.0	0.00e+00	123	33	0	801112064	40	5789
2026-01-28 13:36:11.87	46.21	25.58	-33.4	-34.3	25.0	0.00e+00	123	33	0	804257792	40	5729
2026-01-28 13:36:12.89	46.42	25.71	-33.5	-34.4	25.0	0.00e+00	121	33	0	807403520	40	5804
2026-01-28 13:36:13.90	46.62	25.83	-33.5	-34.3	24.9	0.00e+00	122	33	0	810549248	40	5784
2026-01-28 13:36:14.91	46.83	25.95	-33.7	-34.6	25.0	0.00e+00	120	33	0	813694976	40	5931
2026-01-28 13:36:15.91	47.03	26.07	-33.6	-34.4	24.8	0.00e+00	122	33	0	816840704	40	5837
2026-01-28 13:36:16.92	47.24	26.19	-33.6	-34.4	25.0	0.00e+00	123	33	0	819986432	40	5845
2026-01-28 13:36:17.93	47.45	26.32	-33.7	-34.6	24.9	0.00e+00	122	33	0	823132160	40	5934
2026-01-28 13:36:18.94	47.66	26.44	-33.7	-34.6	24.9	0.00e+00	122	33	0	826277888	40	5928
2026-01-28 13:36:19.95	47.87	26.56	-33.8	-34.7	24.7	0.00e+00	122	33	0	829423616	40	6032
2026-01-28 13:36:20.96	48.08	26.69	-34.0	-34.9	24.6	0.00e+00	120	33	0	832569344	40	6139
2026-01-28 13:36:21.97	48.30	26.81	-34.0	-34.9	24.6	0.00e+00	122	33	0	835715072	40	6183
2026-01-28 13:36:22.98	48.51	26.93	-34.1	-35.0	24.4	0.00e+00	120	33	0	838860800	40	6243
2026-01-28 13:36:23.99	48.73	27.06	-34.1	-35.0	24.5	0.00e+00	123	33	0	842006528	40	6261
2026-01-28 13:36:25.00	48.95	27.18	-34.1	-34.9	24.5	0.00e+00	123	33	0	845152256	40	6204
2026-01-28 13:36:26.01	49.18	27.30	-34.2	-35.0	24.4	0.00e+00	122	33	0	848297984	40	6276
2026-01-28 13:36:27.02	49.40	27.43	-34.1	-35.0	24.5	0.00e+00	123	33	0	851443712	40	6270
2026-01-28 13:36:28.03	49.63	27.55	-34.4	-35.3	24.3	0.00e+00	123	33	0	855638016	40	6456
2026-01-28 13:36:29.04	49.85	27.68	-34.3	-35.1	24.3	0.00e+00	123	33	0	858783744	40	6349
2026-01-28 13:36:30.05	50.08	27.80	-34.2	-35.1	24.4	0.00e+00	123	33	0	861929472	40	6293
2026-01-28 13:36:31.06	50.31	27.92	-34.3	-35.2	24.2	0.00e+00	122	33	0	864026624	40	6376
2026-01-28 13:36:32.07	50.54	28.05	-34.4	-35.3	24.2	0.00e+00	123	33	0	867172352	40	6446
2026-01-28 13:36:33.08	50.78	28.17	-34.4	-35.3	24.2	0.00e+00	122	33	0	871366656	40	6478
2026-01-28 13:36:34.09	51.01	28.30	-34.3	-35.2	24.3	0.00e+00	122	33	0	874512384	40	6363
2026-01-28 13:36:35.09	51.25	28.42	-34.4	-35.3	24.2	0.00e+00	122	33	0	877658112	40	6472
2026-01-28 13:36:36.10	51.49	28.55	-34.0	-34.8	24.6	0.00e+00	123	33	0	880803840	40	6125
2026-01-28 13:36:37.11	51.73	28.67	-33.9	-34.8	24.6	0.00e+00	122	33	0	883949568	40	6103
2026-01-28 13:36:38.12	51.97	28.80	-34.0	-34.9	24.6	0.00e+00	123	33	0	887095296	40	6135
2026-01-28 13:36:39.13	52.22	28.92	-34.0	-34.9	24.6	0.00e+00	122	33	0	890241024	40	6143
2026-01-28 13:36:40.14	52.47	29.05	-33.9	-34.8	24.7	0.00e+00	123	33	0	893386752	40	6080
2026-01-28 13:36:41.15	52.72	29.17	-33.8	-34.7	24.7	0.00e+00	122	33	0	896532480	40	6041
2026-01-28 13:36:42.16	52.97	29.30	-33.7	-34.5	24.8	0.00e+00	122	33	0	899678208	40	5919
2026-01-28 13:36:43.17	53.22	29.42	-33.5	-34.4	24.9	0.00e+00	121	33	0	902823936	40	5821
2026-01-28 13:36:44.18	53.47	29.54	-33.6	-34.5	24.8	0.00e+00	122	33	0	905969664	40	5903
2026-01-28 13:36:45.19	53.73	29.67	-33.6	-34.5	24.7	0.00e+00	122	33	0	909115392	40	5891
2026-01-28 13:36:46.20	53.99	29.79	-33.7	-34.6	24.8	0.00e+00	123	33	0	912261120	40	5966
2026-01-28 13:36:47.21	54.25	29.92	-33.7	-34.6	24.8	0.00e+00	123	33	0	915406848	40	5938
2026-01-28 13:36:48.21	54.51	30.04	-33.7	-34.6	24.8	0.00e+00	123	33	0	918552576	40	5978
2026-01-28 13:36:49.22	54.77	30.17	-33.7	-34.6	24.8	0.00e+00	122	33	0	921698304	40	5940
2026-01-28 13:36:50.23	55.04	30.29	-33.8	-34.6	24.9	0.00e+00	120	33	0	924844032	40	5990
2026-01-28 13:36:51.24	55.31	30.41	-33.7	-34.6	24.9	0.00e+00	123	33	0	927989760	40	5935
2026-01-28 13:36:52.26	55.58	30.54	-33.7	-34.6	24.8	0.00e+00	120	33	0	931135488	40	5956
2026-01-28 13:36:53.27	55.86	30.66	-33.8	-34.7	24.8	0.00e+00	122	33	0	934281216	40	6033
2026-01-28 13:36:54.27	56.13	30.78	-33.7	-34.6	24.8	0.00e+00	123	33	0	937426944	40	5943
2026-01-28 13:36:55.28	56.40	30.91	-33.8	-34.7	24.8	0.00e+00	122	33	0	940572672	40	6028
2026-01-28 13:36:56.29	56.68	31.03	-34.0	-34.8	24.6	0.00e+00	123	33	0	943718400	40	6125
2026-01-28 13:36:57.30	56.96	31.15	-33.9	-34.8	24.6	0.00e+00	123	33	0	946864128	40	6104
2026-01-28 13:36:58.31	57.25	31.28	-33.9	-34.8	24.5	0.00e+00	123	33	0	950009856	40	6076
2026-01-28 13:36:59.33	57.54	31.40	-33.9	-34.8	24.5	0.00e+00	123	33	0	953155584	40	6107
2026-01-28 13:37:00.34	57.82	31.52	-34.0	-34.9	24.4	0.00e+00	122	33	0	956301312	40	6193
2026-01-28 13:37:01.35	58.11	31.64	-34.0	-34.9	24.4	0.00e+00	122	33	0	959447040	40	6171
2026-01-28 13:37:02.36	58.40	31.77	-34.1	-35.0	24.4	0.00e+00	123	33	0	962592768	40	6208
2026-01-28 13:37:03.37	58.70	31.89	-34.1	-35.0	24.5	0.00e+00	123	33	0	965738496	40	6250
2026-01-28 13:37:04.38	58.99	32.01	-34.1	-35.0	24.5	0.00e+00	122	33	0	968884224	40	6245
2026-01-28 13:37:05.39	59.29	32.13	-34.3	-35.2	24.4	0.00e+00	123	33	0	972029952	40	6364
2026-01-28 13:37:06.39	59.59	32.25	-34.4	-35.3	24.2	0.00e+00	122	33	0	975175680	40	6448
2026-01-28 13:37:07.40	59.89	32.37	-34.6	-35.5	24.1	0.00e+00	123	33	0	978321408	40	6632
2026-01-28 13:37:08.41	60.20	32.49	-34.7	-35.6	24.0	0.00e+00	123	33	0	981467136	40	6712
2026-01-28 13:37:09.42	60.50	32.61	-34.7	-35.6	24.0	0.00e+00	123	33	0	984612864	42	5982
2026-01-28 13:37:10.43	60.81	32.73	-34.9	-35.8	23.9	0.00e+00	122	33	0	987758592	42	6077
2026-01-28 13:37:11.44	61.12	32.84	-34.7	-35.6	24.0	0.00e+00	122	33	0	990904320	42	5984
2026-01-28 13:37:12.45	61.44	32.96	-34.9	-35.8	23.9	0.00e+00	120	33	0	994050048	42	6098
2026-01-28 13:37:13.46	61.75	33.08	-35.1	-36.0	23.9	0.00e+00	123	33	0	997195776	42	6255
2026-01-28 13:37:14.47	62.07	33.20	-35.2	-36.1	23.8	0.00e+00	123	33	0	1000341504	42	6339
2026-01-28 13:37:15.48	62.39	33.31	-35.4	-36.3	23.6	0.00e+00	122	33	0	1003487232	42	6476
2026-01-28 13:37:16.49	62.71	33.43	-35.7	-36.6	23.3	0.00e+00	123	33	0	1006632960	42	6695
2026-01-28 13:37:17.50	63.04	33.54	-35.4	-36.3	23.6	0.00e+00	122	33	0	1009778688	42	6460
2026-01-28 13:37:18.51	63.37	33.66	-35.4	-36.4	23.5	0.00e+00	123	33	0	1012924416	42	6510
2026-01-28 13:37:19.52	63.70	33.77	-35.3	-36.3	23.7	0.00e+00	123	33	0	1016070144	42	6450
2026-01-28 13:37:20.53	64.03	33.89	-35.4	-36.3	23.5	0.00e+00	123	33	0	1019215872	42	6464
2026-01-28 13:37:21.54	64.36	34.00	-35.5	-36.4	23.4	0.00e+00	123	33	0	1022361600	42	6541
2026-01-28 13:37:22.55	64.70	34.11	-35.5	-36.4	23.4	0.00e+00	123	33	0	1025507328	42	6571
2026-01-28 13:37:23.56	65.04	34.22	-35.3	-36.2	23.7	0.00e+00	122	33	0	1028653056	42	6373
2026-01-28 13:37:24.56	65.37	34.33	-35.2	-36.1	23.7	0.00e+00	123	33	0	1031798784	42	6342
2026-01-28 13:37:25.57	65.72	34.44	-35.1	-36.0	23.8	0.00e+00	123	33	0	1034944512	42	6260
2026-01-28 13:37:26.58	66.06	34.55	-35.2	-36.2	23.7	0.00e+00	122	33	0	1038090240	42	6373
2026-01-28 13:37:27.59	66.41	34.66	-35.4	-36.3	23.5	0.00e+00	122	33	0	1041235968	42	6467
2026-01-28 13:37:28.60	66.76	34.77	-35.4	-36.3	23.4	0.00e+00	122	33	0	1044381696	42	6479
2026-01-28 13:37:29.61	67.11	34.88	-35.5	-36.4	23.5	0.00e+00	123	33	0	1047527424	42	6566
2026-01-28 13:37:30.62	67.47	34.98	-35.5	-36.5	23.4	0.00e+00	122	33	0	1050673152	42	6588
2026-01-28 13:37:31.63	67.82	35.09	-35.3	-36.3	23.6	0.00e+00	120	33	0	1053818880	42	6443
2026-01-28 13:37:32.64	68.18	35.19	-35.3	-36.2	23.6	0.00e+00	122	33	0	1056964608	42	6396
2026-01-28 13:37:33.65	68.55	35.30	-35.3	-36.2	23.4	0.00e+00	122	33	0	1060110336	42	6382
2026-01-28 13:37:34.66	68.91	35.40	-35.1	-36.1	23.5	0.00e+00	123	33	0	1063256064	42	6303
2026-01-28 13:37:35.67	69.27	35.50	-35.2	-36.1	23.4	0.00e+00	122	33	0	1066401792	42	6332
2026-01-28 13:37:36.68	69.64	35.60	-35.2	-36.2	23.3	0.00e+00	123	33	0	1069547520	42	6351
2026-01-28 13:37:37.69	70.01	35.70	-35.4	-36.4	23.4	0.00e+00	122	33	0	1072693248	42	6508
2026-01-28 13:37:38.70	70.39	35.80	-35.1	-36.1	23.6	0.00e+00	123	33	0	1075838976	42	6286
2026-01-28 13:37:39.71	70.76	35.90	-35.1	-36.0	23.7	0.00e+00	123	33	0	1078984704	42	6273
2026-01-28 13:37:40.72	71.14	36.00	-35.0	-35.9	23.7	0.00e+00	123	33	0	1082130432	42	6169
2026-01-28 13:37:41.73	71.52	36.09	-35.1	-36.0	23.5	0.00e+00	123	33	0	1085276160	42	6239
2026-01-28 13:37:42.74	71.90	36.19	-35.4	-36.3	23.1	0.00e+00	120	33	0	1088421888	42	6493
2026-01-28 13:37:43.75	72.28	36.28	-35.5	-36.5	22.9	0.00e+00	122	33	0	1091567616	42	6634
2026-01-28 13:37:44.76	72.67	36.37	-35.5	-36.5	23.3	0.00e+00	123	33	0	1094713344	42	6643
2026-01-28 13:37:45.77	73.06	36.46	-35.4	-36.3	23.5	0.00e+00	123	33	0	1097859072	42	6468
2026-01-28 13:37:46.78	73.45	36.55	-35.4	-36.3	23.6	0.00e+00	121	33	0	1101004800	42	6466
2026-01-28 13:37:47.79	73.84	36.64	-35.2	-36.2	23.7	0.00e+00	122	33	0	1104150528	42	6366
2026-01-28 13:37:48.80	74.23	36.73	-35.4	-36.4	23.4	0.00e+00	123	33	0	1107296256	42	6523
2026-01-28 13:37:49.81	74.63	36.81	-35.5	-36.5	23.1	0.00e+00	123	33	0	1110441984	42	6633
2026-01-28 13:37:50.81	75.03	36.90	-35.6	-36.6	23.3	0.00e+00	123	33	0	1113587712	42	6703
2026-01-28 13:37:51.82	75.43	36.98	-35.5	-36.5	23.4	0.00e+00	123	33	0	1116733440	42	6604
2026-01-28 13:37:52.83	75.83	37.06	-35.4	-36.4	23.5	0.00e+00	122	33	0	1119879168	42	6529
2026-01-28 13:37:53.84	76.23	37.15	-35.5	-36.4	23.5	0.00e+00	123	33	0	1123024896	42	6568
2026-01-28 13:37:54.85	76.64	37.22	-35.2	-36.1	23.7	0.00e+00	122	33	0	1126170624	42	6324
2026-01-28 13:37:55.86	77.05	37.30	-35.6	-36.5	23.3	0.00e+00	122	33	0	1129316352	42	6622
2026-01-28 13:37:56.87	77.46	37.38	-35.8	-36.7	23.2	0.00e+00	123	33	0	1132462080	42	6786
2026-01-28 13:37:57.88	77.87	37.45	-36.1	-37.1	23.0	0.00e+00	123	33	0	1135607808	44	6282
2026-01-28 13:37:58.89	78.29	37.53	-36.3	-37.3	22.9	0.00e+00	122	33	0	1138753536	44	6436
2026-01-28 13:37:59.90	78.70	37.60	-36.2	-37.2	22.9	0.00e+00	122	33	0	1141899264	44	6375
2026-01-28 13:38:00.90	79.12	37.67	-36.2	-37.2	22.8	0.00e+00	122	33	0	1145044992	44	6415
2026-01-28 13:38:01.91	79.54	37.74	-36.3	-37.3	22.7	0.00e+00	122	33	0	1148190720	44	6493
2026-01-28 13:38:02.92	79.96	37.81	-36.4	-37.5	22.7	0.00e+00	120	33	0	1151336448	44	6582
2026-01-28 13:38:03.93	80.38	37.87	-36.3	-37.3	22.7	0.00e+00	122	33	0	1154482176	44	6441
2026-01-28 13:38:04.94	80.81	37.94	-36.3	-37.3	22.7	0.00e+00	123	33	0	1157627904	44	6476
2026-01-28 13:38:05.95	81.23	38.00	-36.3	-37.3	22.8	0.00e+00	123	33	0	1160773632	44	6479
2026-01-28 13:38:06.96	81.66	38.06	-36.3	-37.3	22.8	0.00e+00	123	33	0	1163919360	44	6485
2026-01-28 13:38:07.97	82.09	38.12	-36.2	-37.2	22.8	0.00e+00	122	33	0	1167065088	44	6363
2026-01-28 13:38:08.98	82.52	38.18	-36.2	-37.2	22.7	0.00e+00	121	33	0	1170210816	44	6394
2026-01-28 13:38:09.99	82.95	38.24	-36.3	-37.4	22.7	0.00e+00	122	33	0	1173356544	44	6505
2026-01-28 13:38:11.00	83.39	38.29	-36.0	-37.0	23.0	0.00e+00	123	33	0	1176502272	44	6209
2026-01-28 13:38:12.00	83.82	38.34	-36.0	-37.0	23.0	0.00e+00	123	33	0	1179648000	44	6264
2026-01-28 13:38:13.01	84.26	38.39	-36.1	-37.0	22.8	0.00e+00	122	33	0	1182793728	44	6272
2026-01-28 13:38:14.02	84.70	38.44	-36.2	-37.2	22.9	0.00e+00	123	33	0	1185939456	44	6371
2026-01-28 13:38:15.03	85.14	38.49	-35.8	-36.8	23.2	0.00e+00	123	33	0	1189085184	44	6104
2026-01-28 13:38:16.04	85.58	38.54	-35.8	-36.8	23.1	0.00e+00	122	33	0	1192230912	44	6105
2026-01-28 13:38:17.05	86.02	38.58	-35.9	-36.9	23.0	0.00e+00	123	33	0	1195376640	44	6160
2026-01-28 13:38:18.06	86.46	38.62	-36.0	-37.0	22.9	0.00e+00	123	33	0	1198522368	44	6240
2026-01-28 13:38:19.07	86.91	38.66	-35.9	-36.9	23.0	0.00e+00	120	33	0	1201668096	44	6187
2026-01-28 13:38:20.09	87.36	38.70	-35.8	-36.8	23.1	0.00e+00	123	33	0	1204813824	44	6110
2026-01-28 13:38:21.09	87.80	38.74	-35.9	-36.8	23.2	0.00e+00	123	33	0	1207959552	44	6116
2026-01-28 13:38:22.10	88.25	38.77	-35.8	-36.8	23.2	0.00e+00	123	33	0	1211105280	44	6093
2026-01-28 13:38:23.11	88.70	38.81	-35.9	-36.9	23.2	0.00e+00	123	33	0	1214251008	44	6144
2026-01-28 13:38:24.12	89.14	38.84	-35.8	-36.8	23.2	0.00e+00	123	33	0	1217396736	44	6067
2026-01-28 13:38:25.13	89.59	38.87	-35.8	-36.8	23.1	0.00e+00	123	33	0	1221591040	44	6082
2026-01-28 13:38:26.14	90.05	38.89	-35.8	-36.8	23.1	0.00e+00	123	33	0	1224736768	44	6095
2026-01-28 13:38:27.15	90.50	38.92	-35.7	-36.7	23.2	0.00e+00	122	33	0	1226833920	44	6025
2026-01-28 13:38:28.16	90.95	38.94	-35.8	-36.8	23.0	0.00e+00	123	33	0	1229979648	44	6104
2026-01-28 13:38:29.17	91.40	38.96	-35.8	-36.8	23.1	0.00e+00	123	33	0	1233125376	44	6104
2026-01-28 13:38:30.18	91.86	38.98	-35.7	-36.6	23.4	0.00e+00	123	33	0	1236271104	44	5970
2026-01-28 13:38:31.18	92.31	39.00	-35.5	-36.4	23.5	0.00e+00	120	33	0	1240465408	44	5825
2026-01-28 13:38:32.19	92.76	39.01	-35.6	-36.6	23.3	0.00e+00	123	33	0	1243611136	44	5944
2026-01-28 13:38:33.20	93.22	39.03	-35.9	-36.8	23.0	0.00e+00	122	33	0	1246756864	44	6129
2026-01-28 13:38:34.21	93.67	39.04	-36.2	-37.1	22.7	0.00e+00	122	33	0	1248854016	44	6336
2026-01-28 13:38:35.22	94.13	39.05	-36.2	-37.2	22.9	0.00e+00	122	33	0	1251999744	44	6359
2026-01-28 13:38:36.23	94.58	39.05	-36.0	-37.0	23.1	0.00e+00	123	33	0	1255145472	44	6236
2026-01-28 13:38:37.24	95.04	39.06	-36.0	-36.9	23.1	0.00e+00	123	33	0	1259339776	44	6183
2026-01-28 13:38:38.25	95.49	39.06	-36.2	-37.2	22.9	0.00e+00	122	33	0	1262485504	44	6391
2026-01-28 13:38:39.26	95.95	39.06	-36.4	-37.4	22.7	0.00e+00	123	33	0	1265631232	44	6567
2026-01-28 13:38:40.27	96.41	39.06	-36.5	-37.5	22.6	0.00e+00	123	33	0	1268776960	44	6588
2026-01-28 13:38:41.28	96.86	39.06	-36.3	-37.3	22.8	0.00e+00	122	33	0	1271922688	44	6482
2026-01-28 13:38:42.29	97.32	39.06	-36.3	-37.2	22.8	0.00e+00	123	33	0	1275068416	44	6408
2026-01-28 13:38:43.30	97.78	39.05	-36.5	-37.5	22.7	0.00e+00	123	33	0	1278214144	44	6589
2026-01-28 13:38:44.31	98.23	39.04	-36.5	-37.5	22.7	0.00e+00	122	33	0	1281359872	44	6642
2026-01-28 13:38:45.32	98.69	39.03	-36.2	-37.2	22.6	0.00e+00	123	33	0	1284505600	44	6380
2026-01-28 13:38:46.33	99.14	39.02	-36.6	-37.7	22.1	0.00e+00	121	33	0	1287651328	44	6764
2026-01-28 13:38:47.34	99.60	39.00	-36.9	-37.9	22.3	0.00e+00	123	33	0	1290797056	46	6180
2026-01-28 13:38:48.35	100.05	38.99	-36.2	-37.1	22.9	0.00e+00	123	33	0	1293942784	46	5659
2026-01-28 13:38:49.37	100.51	38.97	-36.1	-37.1	22.9	0.00e+00	120	33	0	1297088512	46	5634
2026-01-28 13:38:50.37	100.96	38.95	-36.2	-37.2	22.9	0.00e+00	120	33	0	1300234240	46	5681
2026-01-28 13:38:51.38	101.41	38.92	-36.0	-36.9	22.9	0.00e+00	120	33	0	1303379968	46	5499
2026-01-28 13:38:52.39	101.86	38.90	-36.2	-37.2	22.9	0.00e+00	123	33	0	1306525696	46	5661
2026-01-28 13:38:53.40	102.32	38.87	-36.1	-37.0	23.1	0.00e+00	122	33	0	1309671424	46	5594
2026-01-28 13:38:54.41	102.77	38.84	-35.8	-36.8	23.2	0.00e+00	123	33	0	1312817152	46	5424
2026-01-28 13:38:55.42	103.22	38.81	-36.0	-36.9	23.2	0.00e+00	123	33	0	1315962880	46	5492
2026-01-28 13:38:56.43	103.67	38.78	-36.2	-37.2	22.9	0.00e+00	123	33	0	1319108608	46	5709
2026-01-28 13:38:57.44	104.11	38.75	-36.0	-37.0	23.0	0.00e+00	122	33	0	1322254336	46	5562
2026-01-28 13:38:58.45	104.56	38.71	-36.0	-37.0	23.0	0.00e+00	122	33	0	1325400064	46	5588
2026-01-28 13:38:59.46	105.01	38.67	-35.9	-36.9	23.1	0.00e+00	122	33	0	1328545792	46	5480
2026-01-28 13:39:00.47	105.45	38.63	-35.6	-36.6	23.4	0.00e+00	123	33	0	1331691520	44	5928
2026-01-28 13:39:01.48	105.90	38.59	-35.6	-36.6	23.3	0.00e+00	120	33	0	1334837248	44	5944
2026-01-28 13:39:02.49	106.34	38.55	-35.6	-36.5	23.3	0.00e+00	123	33	0	1337982976	44	5921
2026-01-28 13:39:03.50	106.78	38.50	-35.8	-36.8	23.2	0.00e+00	122	33	0	1341128704	44	6071
2026-01-28 13:39:04.51	107.22	38.46	-35.8	-36.8	23.2	0.00e+00	122	33	0	1344274432	44	6086
2026-01-28 13:39:05.52	107.66	38.41	-35.7	-36.7	23.3	0.00e+00	122	33	0	1347420160	44	6027
2026-01-28 13:39:06.52	108.10	38.36	-36.0	-37.0	23.0	0.00e+00	122	33	0	1350565888	44	6252
2026-01-28 13:39:07.53	108.53	38.31	-36.1	-37.2	23.0	0.00e+00	123	33	0	1353711616	44	6358
2026-01-28 13:39:08.54	108.97	38.25	-36.1	-37.1	23.0	0.00e+00	125	33	0	1356857344	44	6295
2026-01-28 13:39:09.55	109.40	38.20	-35.7	-36.7	23.2	0.00e+00	123	33	0	1360003072	44	6006
2026-01-28 13:39:10.56	109.83	38.14	-35.9	-36.8	23.0	0.00e+00	122	33	0	1363148800	44	6110
2026-01-28 13:39:11.57	110.27	38.08	-35.8	-36.8	23.2	0.00e+00	123	33	0	1366294528	44	6079
2026-01-28 13:39:12.58	110.70	38.02	-35.9	-36.9	23.1	0.00e+00	123	33	0	1369440256	44	6149
2026-01-28 13:39:13.59	111.12	37.96	-36.1	-37.1	23.0	0.00e+00	122	33	0	1372585984	44	6313
2026-01-28 13:39:14.60	111.55	37.89	-36.2	-37.2	22.9	0.00e+00	123	33	0	1375731712	44	6400
2026-01-28 13:39:15.61	111.97	37.83	-35.7	-36.6	23.1	0.00e+00	122	33	0	1378877440	44	5972
2026-01-28 13:39:16.62	112.40	37.76	-35.4	-36.3	23.1	0.00e+00	123	33	0	1382023168	44	5771
2026-01-28 13:39:17.63	112.82	37.69	-35.4	-36.4	23.3	0.00e+00	123	33	0	1385168896	44	5815
2026-01-28 13:39:18.64	113.24	37.62	-35.3	-36.2	23.6	0.00e+00	123	33	0	1388314624	44	5690
2026-01-28 13:39:19.64	113.65	37.55	-35.5	-36.5	23.4	0.00e+00	122	33	0	1391460352	44	5859
2026-01-28 13:39:20.66	114.07	37.47	-35.8	-36.7	23.1	0.00e+00	123	33	0	1394606080	44	6064
2026-01-28 13:39:21.67	114.48	37.40	-36.0	-37.0	23.0	0.00e+00	123	33	0	1397751808	44	6223
2026-01-28 13:39:22.67	114.89	37.32	-36.4	-37.3	22.6	0.00e+00	123	33	0	1400897536	44	6495
2026-01-28 13:39:23.68	115.30	37.24	-36.3	-37.3	22.8	0.00e+00	123	33	0	1404043264	44	6443
2026-01-28 13:39:24.69	115.71	37.16	-36.1	-37.1	23.0	0.00e+00	122	33	0	1407188992	44	6290
2026-01-28 13:39:25.70	116.12	37.08	-35.6	-36.5	23.2	0.00e+00	123	33	0	1410334720	44	5919
2026-01-28 13:39:26.71	116.52	37.00	-35.3	-36.2	23.3	0.00e+00	120	33	0	1413480448	44	5712
2026-01-28 13:39:27.72	116.92	36.92	-35.4	-36.3	23.3	0.00e+00	122	33	0	1416626176	44	5777
2026-01-28 13:39:28.73	117.32	36.83	-35.2	-36.1	23.7	0.00e+00	122	33	0	1419771904	44	5645
2026-01-28 13:39:29.74	117.72	36.75	-35.1	-36.0	23.8	0.00e+00	122	33	0	1422917632	44	5591
2026-01-28 13:39:30.75	118.12	36.66	-34.8	-35.7	24.1	0.00e+00	123	33	0	1426063360	42	5999
2026-01-28 13:39:31.76	118.51	36.57	-34.9	-35.8	24.0	0.00e+00	122	33	0	1429209088	42	6076
2026-01-28 13:39:32.76	118.90	36.48	-34.9	-35.9	23.8	0.00e+00	123	33	0	1432354816	42	6145
2026-01-28 13:39:33.77	119.29	36.39	-34.8	-35.7	23.9	0.00e+00	123	33	0	1435500544	42	6041
2026-01-28 13:39:34.78	119.68	36.30	-34.8	-35.7	23.7	0.00e+00	122	33	0	1438646272	42	6035
2026-01-28 13:39:35.79	120.06	36.20	-34.7	-35.6	23.7	0.00e+00	123	33	0	1441792000	42	5973
2026-01-28 13:39:36.80	120.44	36.11	-34.9	-35.9	23.7	0.00e+00	123	33	0	1444937728	42	6151
2026-01-28 13:39:37.81	120.83	36.01	-35.3	-36.2	23.6	0.00e+00	123	33	0	1448083456	42	6418
2026-01-28 13:39:38.82	121.20	35.92	-35.2	-36.1	23.8	0.00e+00	123	33	0	1451229184	42	6314
2026-01-28 13:39:39.83	121.58	35.82	-35.2	-36.1	23.9	0.00e+00	123	33	0	1454374912	42	6292
2026-01-28 13:39:40.84	121.95	35.72	-35.0	-35.9	23.8	0.00e+00	123	33	0	1457520640	42	6173
2026-01-28 13:39:41.85	122.33	35.62	-35.0	-35.9	23.7	0.00e+00	123	33	0	1460666368	42	6172
2026-01-28 13:39:42.86	122.70	35.52	-35.0	-36.0	23.7	0.00e+00	121	33	0	1463812096	42	6211
2026-01-28 13:39:43.87	123.06	35.42	-34.8	-35.7	23.8	0.00e+00	123	33	0	1466957824	42	6048
2026-01-28 13:39:44.88	123.43	35.31	-34.9	-35.9	23.7	0.00e+00	122	33	0	1470103552	42	6148
2026-01-28 13:39:45.89	123.79	35.21	-34.9	-35.9	23.7	0.00e+00	123	33	0	1473249280	42	6157
2026-01-28 13:39:46.90	124.15	35.11	-35.1	-36.1	23.6	0.00e+00	122	33	0	1476395008	42	6309
2026-01-28 13:39:47.91	124.51	35.00	-35.1	-36.1	23.8	0.00e+00	120	33	0	1479540736	42	6288
2026-01-28 13:39:48.92	124.87	34.89	-34.7	-35.6	24.1	0.00e+00	123	33	0	1482686464	42	5975
2026-01-28 13:39:49.93	125.22	34.79	-34.7	-35.6	24.0	0.00e+00	120	33	0	1485832192	42	5976
2026-01-28 13:39:50.94	125.57	34.68	-34.5	-35.4	24.1	0.00e+00	123	33	0	1488977920	42	5852
2026-01-28 13:39:51.95	125.92	34.57	-34.6	-35.5	23.9	0.00e+00	124	33	0	1492123648	42	5875
2026-01-28 13:39:52.96	126.27	34.46	-34.7	-35.6	24.0	0.00e+00	120	33	0	1495269376	42	5941
2026-01-28 13:39:53.96	126.61	34.35	-34.8	-35.8	24.1	0.00e+00	123	33	0	1498415104	42	6067
2026-01-28 13:39:54.97	126.95	34.24	-34.8	-35.7	24.1	0.00e+00	122	33	0	1501560832	42	6008
2026-01-28 13:39:55.98	127.29	34.13	-34.8	-35.7	24.2	0.00e+00	122	33	0	1504706560	42	6002
2026-01-28 13:39:56.99	127.63	34.01	-35.0	-35.9	23.9	0.00e+00	121	33	0	1507852288	42	6169
2026-01-28 13:39:58.00	127.97	33.90	-35.3	-36.2	23.6	0.00e+00	123	33	0	1510998016	42	6385
2026-01-28 13:39:59.01	128.30	33.79	-35.3	-36.3	23.7	0.00e+00	122	33	0	1514143744	42	6429
2026-01-28 13:40:00.02	128.63	33.67	-35.1	-36.0	24.0	0.00e+00	122	33	0	1517289472	42	6255
2026-01-28 13:40:01.03	128.96	33.56	-35.0	-35.9	23.9	0.00e+00	122	33	0	1520435200	42	6202
2026-01-28 13:40:02.04	129.29	33.44	-34.8	-35.7	24.1	0.00e+00	123	33	0	1523580928	42	6004
2026-01-28 13:40:03.05	129.61	33.32	-34.7	-35.6	24.0	0.00e+00	123	33	0	1526726656	42	5966
2026-01-28 13:40:04.06	129.93	33.21	-34.7	-35.6	24.1	0.00e+00	123	33	0	1529872384	42	5993
2026-01-28 13:40:05.07	130.25	33.09	-34.7	-35.6	24.2	0.00e+00	123	33	0	1533018112	42	5950
2026-01-28 13:40:06.08	130.57	32.97	-34.7	-35.6	24.3	0.00e+00	123	33	0	1536163840	42	5957
2026-01-28 13:40:07.09	130.89	32.85	-34.3	-35.2	24.6	0.00e+00	123	33	0	1539309568	42	5670
2026-01-28 13:40:08.10	131.20	32.73	-34.4	-35.2	24.5	0.00e+00	122	33	0	1542455296	42	5713
2026-01-28 13:40:09.11	131.51	32.62	-34.5	-35.3	24.4	0.00e+00	123	33	0	1545601024	42	5787
2026-01-28 13:40:10.12	131.82	32.50	-34.6	-35.4	24.2	0.00e+00	123	33	0	1548746752	42	5853
2026-01-28 13:40:11.13	132.13	32.38	-34.6	-35.5	24.3	0.00e+00	123	33	0	1551892480	42	5873
2026-01-28 13:40:12.14	132.43	32.25	-34.5	-35.4	24.3	0.00e+00	123	33	0	1555038208	42	5828
2026-01-28 13:40:13.15	132.73	32.13	-34.2	-35.0	24.6	0.00e+00	122	33	0	1558183936	42	5588
2026-01-28 13:40:14.16	133.03	32.01	-34.4	-35.2	24.3	0.00e+00	122	33	0	1561329664	42	5714
2026-01-28 13:40:15.17	133.33	31.89	-34.3	-35.2	24.4	0.00e+00	123	33	0	1564475392	42	5705
2026-01-28 13:40:16.18	133.62	31.77	-34.4	-35.3	24.3	0.00e+00	123	33	0	1567621120	42	5755
2026-01-28 13:40:17.19	133.92	31.65	-34.4	-35.3	24.2	0.00e+00	122	33	0	1570766848	42	5778
2026-01-28 13:40:18.20	134.21	31.52	-34.6	-35.5	24.2	0.00e+00	120	33	0	1573912576	42	5885
2026-01-28 13:40:19.21	134.50	31.40	-34.6	-35.6	23.9	0.00e+00	123	33	0	1577058304	42	5933
2026-01-28 13:40:20.22	134.78	31.28	-34.6	-35.5	24.0	0.00e+00	122	33	0	1580204032	42	5925
2026-01-28 13:40:21.23	135.07	31.15	-34.5	-35.4	24.0	0.00e+00	121	33	0	1583349760	42	5854
2026-01-28 13:40:22.24	135.35	31.03	-34.8	-35.7	23.8	0.00e+00	123	33	0	1587544064	42	6023
2026-01-28 13:40:23.25	135.63	30.91	-35.0	-36.0	23.6	0.00e+00	121	33	0	1589641216	42	6208
2026-01-28 13:40:24.26	135.91	30.78	-35.0	-35.9	23.8	0.00e+00	123	33	0	1592786944	42	6202
2026-01-28 13:40:25.27	136.18	30.66	-34.8	-35.8	23.9	0.00e+00	123	33	0	1595932672	42	6079
2026-01-28 13:40:26.28	136.46	30.53	-34.9	-35.8	23.9	0.00e+00	123	33	0	1599078400	42	6124
2026-01-28 13:40:27.29	136.73	30.41	-34.8	-35.7	23.8	0.00e+00	122	33	0	1603272704	42	6042
2026-01-28 13:40:28.30	137.00	30.29	-34.8	-35.8	23.7	0.00e+00	123	33	0	1606418432	42	6081
2026-01-28 13:40:29.31	137.27	30.16	-34.9	-35.9	23.8	0.00e+00	120	33	0	1609564160	42	6139
2026-01-28 13:40:30.32	137.53	30.04	-34.8	-35.8	23.8	0.00e+00	123	33	0	1612709888	42	6094
2026-01-28 13:40:31.33	137.80	29.91	-35.1	-36.0	23.8	0.00e+00	122	33	0	1614807040	42	6259
2026-01-28 13:40:32.34	138.06	29.78	-34.9	-35.8	24.0	0.00e+00	123	33	0	1619001344	42	6106
2026-01-28 13:40:33.35	138.32	29.66	-34.9	-35.9	24.0	0.00e+00	120	33	0	1622147072	42	6145
2026-01-28 13:40:34.36	138.58	29.53	-34.7	-35.7	24.1	0.00e+00	122	33	0	1625292800	42	6017
2026-01-28 13:40:35.37	138.83	29.41	-34.6	-35.5	24.2	0.00e+00	122	33	0	1628438528	42	5894
2026-01-28 13:40:36.38	139.09	29.28	-34.5	-35.4	24.3	0.00e+00	123	33	0	1631584256	42	5855
2026-01-28 13:40:37.39	139.34	29.16	-34.6	-35.5	24.3	0.00e+00	122	33	0	1634729984	42	5900
2026-01-28 13:40:38.40	139.59	29.03	-34.3	-35.2	24.4	0.00e+00	120	33	0	1637875712	42	5721
2026-01-28 13:40:39.41	139.84	28.91	-34.4	-35.3	24.3	0.00e+00	122	33	0	1641021440	42	5743
2026-01-28 13:40:40.42	140.08	28.78	-34.4	-35.3	24.3	0.00e+00	123	33	0	1644167168	42	5778
2026-01-28 13:40:41.43	140.33	28.66	-34.2	-35.1	24.5	0.00e+00	122	33	0	1647312896	42	5657
2026-01-28 13:40:42.44	140.57	28.53	-34.1	-35.0	24.5	0.00e+00	123	33	0	1650458624	42	5558
2026-01-28 13:40:43.45	140.81	28.40	-34.0	-34.8	24.7	0.00e+00	123	33	0	1653604352	42	5463
2026-01-28 13:40:44.46	141.05	28.28	-33.9	-34.8	24.7	0.00e+00	120	33	0	1656750080	42	5432
2026-01-28 13:40:45.47	141.29	28.15	-33.8	-34.6	24.8	0.00e+00	122	33	0	1659895808	42	5323
2026-01-28 13:40:46.48	141.52	28.03	-33.6	-34.5	24.9	0.00e+00	122	33	0	1663041536	40	5881
2026-01-28 13:40:47.49	141.76	27.90	-33.7	-34.6	24.7	0.00e+00	123	33	0	1666187264	40	5961
2026-01-28 13:40:48.50	141.99	27.78	-33.6	-34.5	24.8	0.00e+00	123	33	0	1669332992	40	5886
2026-01-28 13:40:49.51	142.22	27.65	-33.7	-34.6	24.8	0.00e+00	123	33	0	1672478720	40	5947
2026-01-28 13:40:50.52	142.45	27.53	-33.6	-34.4	24.9	0.00e+00	121	33	0	1675624448	40	5848
2026-01-28 13:40:51.52	142.67	27.40	-33.5	-34.4	24.9	0.00e+00	123	33	0	1678770176	40	5809
2026-01-28 13:40:52.53	142.90	27.28	-33.5	-34.4	24.9	0.00e+00	122	33	0	1681915904	40	5794
2026-01-28 13:40:53.54	143.12	27.15	-33.2	-34.1	25.1	0.00e+00	123	33	0	1685061632	40	5595
2026-01-28 13:40:54.54	143.34	27.03	-33.4	-34.2	24.9	0.00e+00	123	33	0	1688207360	40	5705
2026-01-28 13:40:55.55	143.56	26.91	-33.3	-34.1	25.0	0.00e+00	122	33	0	1691353088	40	5640
2026-01-28 13:40:56.56	143.78	26.78	-33.3	-34.1	25.1	0.00e+00	123	33	0	1694498816	40	5644
2026-01-28 13:40:57.57	143.99	26.66	-33.2	-34.1	25.0	0.00e+00	123	33	0	1697644544	40	5622
2026-01-28 13:40:58.58	144.21	26.53	-33.3	-34.1	25.0	0.00e+00	120	33	0	1700790272	40	5649
2026-01-28 13:40:59.59	144.42	26.41	-33.3	-34.2	25.0	0.00e+00	123	33	0	1703936000	40	5698
2026-01-28 13:41:00.59	144.63	26.29	-33.3	-34.2	25.0	0.00e+00	122	33	0	1707081728	40	5702
2026-01-28 13:41:01.60	144.84	26.16	-33.3	-34.2	24.9	0.00e+00	123	33	0	1710227456	40	5702
2026-01-28 13:41:02.61	145.05	26.04	-33.4	-34.2	24.9	0.00e+00	122	33	0	1713373184	40	5705
2026-01-28 13:41:03.62	145.25	25.92	-33.4	-34.3	24.9	0.00e+00	120	33	0	1716518912	40	5766
2026-01-28 13:41:04.63	145.46	25.79	-33.4	-34.3	24.9	0.00e+00	122	33	0	1719664640	40	5769
2026-01-28 13:41:05.64	145.66	25.67	-33.5	-34.4	24.6	0.00e+00	122	33	0	1722810368	40	5804
2026-01-28 13:41:06.65	145.87	25.55	-33.5	-34.4	24.7	0.00e+00	123	33	0	1725956096	40	5806
2026-01-28 13:41:07.66	146.07	25.43	-33.4	-34.4	24.7	0.00e+00	122	33	0	1729101824	40	5793
2026-01-28 13:41:08.67	146.27	25.30	-33.4	-34.2	24.7	0.00e+00	123	33	0	1732247552	40	5719
2026-01-28 13:41:09.68	146.46	25.18	-33.5	-34.4	24.6	0.00e+00	122	33	0	1735393280	40	5801
2026-01-28 13:41:10.69	146.66	25.06	-33.4	-34.3	24.8	0.00e+00	122	33	0	1738539008	40	5762
2026-01-28 13:41:11.70	146.85	24.94	-33.4	-34.3	24.9	0.00e+00	120	33	0	1741684736	40	5751
2026-01-28 13:41:12.71	147.05	24.82	-33.3	-34.2	25.0	0.00e+00	123	33	0	1744830464	40	5692
2026-01-28 13:41:13.72	147.24	24.69	-33.3	-34.2	25.1	0.00e+00	123	33	0	1747976192	40	5675
2026-01-28 13:41:14.72	147.43	24.58	-33.1	-33.9	25.2	0.00e+00	123	33	0	1751121920	40	5523
2026-01-28 13:41:15.73	147.62	24.45	-33.1	-34.0	25.2	0.00e+00	123	33	0	1754267648	40	5536
2026-01-28 13:41:16.75	147.81	24.33	-33.1	-34.0	25.1	0.00e+00	123	33	0	1757413376	40	5562
2026-01-28 13:41:17.76	147.99	24.21	-33.2	-34.1	25.1	0.00e+00	123	33	0	1760559104	40	5606
2026-01-28 13:41:18.76	148.17	24.09	-33.4	-34.3	25.0	0.00e+00	122	33	0	1763704832	40	5732
2026-01-28 13:41:19.77	148.36	23.97	-33.5	-34.3	24.9	0.00e+00	122	33	0	1766850560	40	5775
2026-01-28 13:41:20.78	148.54	23.85	-33.6	-34.5	24.8	0.00e+00	122	33	0	1769996288	40	5867
2026-01-28 13:41:21.79	148.72	23.73	-33.7	-34.6	24.8	0.00e+00	122	33	0	1773142016	40	5940
2026-01-28 13:41:22.80	148.90	23.62	-33.6	-34.5	24.8	0.00e+00	123	33	0	1776287744	40	5883
2026-01-28 13:41:23.81	149.08	23.50	-33.8	-34.7	24.6	0.00e+00	122	33	0	1779433472	40	6001
2026-01-28 13:41:24.82	149.26	23.38	-33.9	-34.8	24.4	0.00e+00	122	33	0	1782579200	40	6097
2026-01-28 13:41:25.82	149.43	23.26	-34.0	-34.9	24.4	0.00e+00	122	33	0	1785724928	40	6205
2026-01-28 13:41:26.83	149.60	23.14	-34.2	-35.1	24.2	0.00e+00	120	33	0	1788870656	40	6315
2026-01-28 13:41:27.84	149.78	23.03	-34.2	-35.1	24.2	0.00e+00	122	33	0	1792016384	40	6305
2026-01-28 13:41:28.85	149.95	22.91	-34.2	-35.2	24.3	0.00e+00	123	33	0	1795162112	40	6361
2026-01-28 13:41:29.86	150.12	22.79	-34.4	-35.3	24.3	0.00e+00	122	33	0	1798307840	40	6486
2026-01-28 13:41:30.87	150.29	22.67	-34.1	-35.0	24.5	0.00e+00	123	33	0	1801453568	40	6267
2026-01-28 13:41:31.88	150.46	22.56	-34.0	-34.9	24.5	0.00e+00	121	33	0	1804599296	40	6171
2026-01-28 13:41:32.89	150.62	22.44	-34.2	-35.1	24.3	0.00e+00	123	33	0	1807745024	40	6326
2026-01-28 13:41:33.90	150.79	22.33	-34.0	-34.9	24.5	0.00e+00	122	33	0	1810890752	40	6189
2026-01-28 13:41:34.91	150.95	22.21	-34.2	-35.1	24.4	0.00e+00	123	33	0	1814036480	40	6291
2026-01-28 13:41:35.92	151.12	22.09	-34.0	-34.9	24.4	0.00e+00	123	33	0	1817182208	40	6192
2026-01-28 13:41:36.93	151.28	21.98	-34.0	-34.9	24.5	0.00e+00	123	33	0	1820327936	40	6202
2026-01-28 13:41:37.94	151.44	21.87	-34.2	-35.1	24.3	0.00e+00	123	33	0	1823473664	40	6289
2026-01-28 13:41:38.95	151.60	21.75	-34.0	-34.9	24.5	0.00e+00	123	33	0	1826619392	40	6152
2026-01-28 13:41:39.96	151.76	21.64	-34.0	-34.9	24.5	0.00e+00	123	33	0	1829765120	40	6157
2026-01-28 13:41:40.97	151.91	21.52	-33.9	-34.8	24.5	0.00e+00	122	33	0	1832910848	40	6104
2026-01-28 13:41:41.98	152.07	21.41	-33.8	-34.7	24.5	0.00e+00	123	33	0	1836056576	40	6059
2026-01-28 13:41:42.99	152.23	21.30	-33.8	-34.7	24.6	0.00e+00	123	33	0	1839202304	40	6059
2026-01-28 13:41:44.00	152.38	21.18	-33.9	-34.8	24.5	0.00e+00	123	33	0	1842348032	40	6087
2026-01-28 13:41:45.01	152.53	21.07	-33.8	-34.7	24.6	0.00e+00	122	33	0	1845493760	40	6005
2026-01-28 13:41:46.02	152.68	20.96	-33.9	-34.8	24.6	0.00e+00	123	33	0	1848639488	40	6069
2026-01-28 13:41:47.03	152.84	20.85	-33.8	-34.6	24.6	0.00e+00	120	33	0	1851785216	40	5992
2026-01-28 13:41:48.04	152.98	20.73	-33.8	-34.7	24.6	0.00e+00	120	33	0	1854930944	40	6012
2026-01-28 13:41:49.05	153.13	20.62	-33.9	-34.8	24.5	0.00e+00	123	33	0	1858076672	40	6094
2026-01-28 13:41:50.06	153.28	20.51	-33.9	-34.8	24.6	0.00e+00	122	33	0	1861222400	40	6098
2026-01-28 13:41:51.07	153.43	20.40	-33.9	-34.8	24.5	0.00e+00	123	33	0	1864368128	40	6097
2026-01-28 13:41:52.08	153.57	20.29	-33.9	-34.8	24.5	0.00e+00	123	33	0	1867513856	40	6131
2026-01-28 13:41:53.09	153.72	20.18	-34.0	-34.9	24.5	0.00e+00	122	33	0	1870659584	40	6174
2026-01-28 13:41:54.10	153.86	20.07	-34.1	-35.0	24.4	0.00e+00	123	33	0	1873805312	40	6239
2026-01-28 13:41:55.11	154.00	19.96	-34.1	-35.0	24.4	0.00e+00	122	33	0	1876951040	40	6215
2026-01-28 13:41:56.12	154.15	19.85	-34.1	-35.0	24.3	0.00e+00	122	33	0	1880096768	40	6270
2026-01-28 13:41:57.13	154.29	19.74	-34.1	-35.0	24.3	0.00e+00	123	33	0	1883242496	40	6245
2026-01-28 13:41:58.14	154.43	19.63	-34.3	-35.2	24.1	0.00e+00	122	33	0	1886388224	40	6379
2026-01-28 13:41:59.15	154.57	19.52	-34.5	-35.4	23.9	0.00e+00	123	33	0	1889533952	40	6550
2026-01-28 13:42:00.16	154.70	19.42	-34.6	-35.5	23.8	0.00e+00	120	33	0	1892679680	40	6645
2026-01-28 13:42:01.16	154.84	19.31	-34.7	-35.6	23.7	0.00e+00	122	33	0	1895825408	40	6723
2026-01-28 13:42:02.17	154.98	19.20	-34.9	-35.8	23.5	0.00e+00	120	33	0	1898971136	42	6118
2026-01-28 13:42:03.18	155.11	19.09	-35.0	-35.9	23.4	0.00e+00	122	33	0	1902116864	42	6205
2026-01-28 13:42:04.19	155.24	18.99	-35.1	-36.0	23.4	0.00e+00	123	33	0	1905262592	42	6273
2026-01-28 13:42:05.20	155.38	18.88	-35.1	-36.1	23.2	0.00e+00	123	33	0	1908408320	42	6307
2026-01-28 13:42:06.21	155.51	18.77	-35.3	-36.3	23.1	0.00e+00	123	33	0	1911554048	42	6457
2026-01-28 13:42:07.22	155.64	18.67	-35.2	-36.2	23.1	0.00e+00	122	33	0	1914699776	42	6400
2026-01-28 13:42:08.23	155.77	18.56	-35.3	-36.3	23.1	0.00e+00	123	33	0	1917845504	42	6460
2026-01-28 13:42:09.24	155.90	18.46	-35.2	-36.1	23.3	0.00e+00	122	33	0	1920991232	42	6341
2026-01-28 13:42:10.25	156.03	18.35	-35.0	-35.9	23.4	0.00e+00	120	33	0	1924136960	42	6194
2026-01-28 13:42:11.26	156.16	18.25	-34.8	-35.8	23.7	0.00e+00	123	33	0	1927282688	42	6080
2026-01-28 13:42:12.27	156.29	18.14	-34.7	-35.7	23.7	0.00e+00	122	33	0	1930428416	42	6003
2026-01-28 13:42:13.28	156.41	18.04	-34.6	-35.6	23.7	0.00e+00	123	33	0	1933574144	42	5933
2026-01-28 13:42:14.29	156.54	17.94	-34.3	-35.2	24.1	0.00e+00	122	33	0	1936719872	42	5695
2026-01-28 13:42:15.30	156.66	17.83	-34.2	-35.1	24.2	0.00e+00	123	33	0	1939865600	42	5629
2026-01-28 13:42:16.31	156.79	17.73	-34.3	-35.2	24.0	0.00e+00	122	33	0	1943011328	42	5721
2026-01-28 13:42:17.32	156.91	17.63	-34.1	-35.0	24.2	0.00e+00	120	33	0	1946157056	42	5585
2026-01-28 13:42:18.33	157.03	17.52	-33.9	-34.8	24.3	0.00e+00	120	33	0	1949302784	42	5456
2026-01-28 13:42:19.34	157.15	17.42	-34.0	-34.9	24.3	0.00e+00	123	33	0	1952448512	42	5482
2026-01-28 13:42:20.35	157.27	17.32	-33.9	-34.8	24.3	0.00e+00	122	33	0	1955594240	42	5460
2026-01-28 13:42:21.36	157.39	17.22	-34.0	-34.9	24.2	0.00e+00	123	33	0	1958739968	42	5523
2026-01-28 13:42:22.36	157.51	17.12	-34.1	-35.0	24.2	0.00e+00	120	33	0	1961885696	42	5577
2026-01-28 13:42:23.38	157.63	17.02	-34.3	-35.2	24.1	0.00e+00	120	33	0	1965031424	42	5690
2026-01-28 13:42:24.38	157.75	16.92	-34.2	-35.1	24.2	0.00e+00	123	33	0	1969225728	42	5602
2026-01-28 13:42:25.39	157.86	16.82	-34.3	-35.2	24.1	0.00e+00	123	33	0	1972371456	42	5672
2026-01-28 13:42:26.40	157.98	16.72	-34.4	-35.3	24.0	0.00e+00	123	33	0	1975517184	42	5771
