passes_logs/2026/01/28/R4.6S_Anadyr/R4.6S_Anadyr__20260128_230700_KOSAR1-5_rec.log

#Pass ID: 20260128_230700_KOSAR1-5
#Satellite: KOSAR1-5
#Configuration: KOSAR1-5
#almurnet v.1.7.20251203
#Start time: 2026-01-28 23:07:05

#Version: 2.2.20231116
#Station: R4.6S_Anadyr
#Location: 177.4865 lon 64.73178 lat
#TLE: 1 67264U 25313S   26027.76143924  .00010916  00000+0  50329-3 0  9990
#TLE: 2 67264  97.4176 104.7207 0016474 138.6036 221.6451 15.20309833  4594

#Time	Az	El	Level	Level2	SNR	BER	BlckErr	Temp	State	Recorded	gain1	gain2
2026-01-28 23:07:05.79	18.85	0.35	-49.0	-50.5	5.7	0.00e+00	0	29	0	0	60	40833
2026-01-28 23:07:06.77	18.88	0.41	-45.5	-60.3	3.6	1.51e+00	0	31	104	0	60	41995
2026-01-28 23:07:07.74	18.91	0.47	-45.6	-60.3	3.6	1.51e+00	0	31	104	0	60	41963
2026-01-28 23:07:08.73	18.94	0.53	-45.6	-60.3	3.6	1.51e+00	0	31	104	0	60	41972
2026-01-28 23:07:09.70	18.97	0.60	-45.7	-60.4	3.6	1.51e+00	0	31	104	0	60	42226
2026-01-28 23:07:10.69	19.00	0.66	-45.7	-60.4	3.6	1.51e+00	0	31	104	0	60	42531
2026-01-28 23:07:11.67	19.03	0.72	-45.7	-60.5	3.6	1.51e+00	0	31	104	0	60	42796
2026-01-28 23:07:12.65	19.06	0.79	-45.8	-60.5	3.6	1.51e+00	0	31	104	0	60	42831
2026-01-28 23:07:13.62	19.09	0.85	-45.5	-60.5	3.6	1.51e+00	0	31	104	0	60	42835
2026-01-28 23:07:14.60	19.12	0.91	-45.8	-60.5	3.6	1.51e+00	0	31	104	0	60	42961
2026-01-28 23:07:15.58	19.16	0.98	-45.7	-60.5	3.6	1.51e+00	0	31	104	0	60	42917
2026-01-28 23:07:16.56	19.19	1.04	-45.7	-60.4	3.6	1.51e+00	0	31	104	0	60	42615
2026-01-28 23:07:17.54	19.22	1.11	-45.7	-60.4	3.6	1.51e+00	0	31	104	0	60	42470
2026-01-28 23:07:18.52	19.25	1.17	-45.7	-60.4	3.5	1.51e+00	0	31	104	0	60	42288
2026-01-28 23:07:19.50	19.28	1.23	-45.7	-60.4	3.6	1.51e+00	0	31	104	0	60	42625
2026-01-28 23:07:20.48	19.31	1.30	-45.5	-60.2	3.6	1.51e+00	0	31	104	0	60	41702
2026-01-28 23:07:21.46	19.35	1.36	-45.4	-60.2	3.6	1.51e+00	0	31	104	0	60	41343
2026-01-28 23:07:22.45	19.38	1.43	-45.2	-60.0	3.6	1.51e+00	0	31	104	0	60	40584
2026-01-28 23:07:23.43	19.41	1.49	-45.2	-59.9	3.6	1.51e+00	0	31	104	0	60	39898
2026-01-28 23:07:24.40	19.44	1.56	-45.0	-59.8	3.6	1.51e+00	0	31	104	0	60	39605
2026-01-28 23:07:25.39	19.48	1.63	-44.7	-59.6	3.6	1.51e+00	0	31	104	0	60	38776
2026-01-28 23:07:26.37	19.51	1.69	-44.6	-59.3	3.6	1.51e+00	0	31	104	0	60	37552
2026-01-28 23:07:27.35	19.54	1.76	-44.5	-59.3	3.6	1.51e+00	0	31	104	0	60	37249
2026-01-28 23:07:28.33	19.58	1.82	-44.5	-59.2	3.6	1.51e+00	0	31	104	0	60	37087
2026-01-28 23:07:29.31	19.61	1.89	-44.5	-59.2	3.6	1.51e+00	0	31	104	0	60	36924
2026-01-28 23:07:30.29	19.64	1.96	-44.5	-59.2	3.6	1.51e+00	0	31	104	0	60	36999
2026-01-28 23:07:31.27	19.68	2.02	-44.5	-59.2	3.6	1.51e+00	0	31	104	0	60	37157
2026-01-28 23:07:32.25	19.71	2.09	-44.5	-59.2	3.6	1.51e+00	0	31	104	0	60	36894
2026-01-28 23:07:33.23	19.75	2.16	-44.5	-59.2	3.6	1.51e+00	0	31	104	0	60	37119
2026-01-28 23:07:34.21	19.78	2.23	-44.5	-59.2	3.6	1.51e+00	0	31	104	0	60	36965
2026-01-28 23:07:35.19	19.82	2.29	-44.5	-59.2	3.6	1.51e+00	0	31	104	0	60	37176
2026-01-28 23:07:36.17	19.85	2.36	-44.5	-59.2	3.6	1.51e+00	0	31	104	0	60	36881
2026-01-28 23:07:37.15	19.89	2.43	-44.5	-59.1	3.6	1.51e+00	0	31	104	0	60	36742
2026-01-28 23:07:38.13	19.92	2.50	-44.5	-59.2	3.6	1.51e+00	0	31	104	0	60	36886
2026-01-28 23:07:39.11	19.96	2.57	-44.5	-59.2	3.6	1.51e+00	0	32	104	0	60	36960
2026-01-28 23:07:40.09	19.99	2.64	-44.5	-59.2	3.6	1.51e+00	0	31	104	0	60	37015
2026-01-28 23:07:41.08	20.03	2.71	-44.5	-59.1	3.6	1.51e+00	0	31	104	0	60	36683
2026-01-28 23:07:42.05	20.06	2.77	-44.5	-59.2	3.6	1.51e+00	0	31	104	0	60	36812
2026-01-28 23:07:43.03	20.10	2.84	-44.5	-59.2	3.6	1.51e+00	0	31	104	0	60	37001
2026-01-28 23:07:44.01	20.14	2.91	-44.5	-59.2	3.6	1.51e+00	0	31	104	0	60	37124
2026-01-28 23:07:44.99	20.17	2.98	-44.5	-59.2	3.6	1.51e+00	0	31	104	0	60	37042
2026-01-28 23:07:45.97	20.21	3.05	-44.5	-59.1	3.6	1.51e+00	0	31	104	0	60	36621
2026-01-28 23:07:46.95	20.25	3.12	-44.5	-59.2	3.6	1.51e+00	0	31	104	0	60	36895
2026-01-28 23:07:47.94	20.28	3.19	-44.5	-59.2	3.6	1.51e+00	0	31	104	0	60	36988
2026-01-28 23:07:48.93	20.32	3.27	-44.5	-59.2	3.6	1.51e+00	0	31	104	0	60	36839
2026-01-28 23:07:49.92	20.36	3.34	-44.5	-59.2	3.6	1.51e+00	0	31	104	0	60	36881
2026-01-28 23:07:50.91	20.40	3.41	-44.5	-59.2	3.5	1.51e+00	0	32	104	0	60	36827
2026-01-28 23:07:51.89	20.43	3.48	-44.5	-59.2	3.6	1.51e+00	0	31	104	0	60	36846
2026-01-28 23:07:52.88	20.47	3.55	-44.5	-59.2	3.6	1.51e+00	0	31	104	0	60	36891
2026-01-28 23:07:53.86	20.51	3.63	-44.5	-59.2	3.6	1.51e+00	0	31	104	0	60	36787
2026-01-28 23:07:54.85	20.55	3.70	-44.5	-59.2	3.6	1.51e+00	0	31	104	0	60	36853
2026-01-28 23:07:55.83	20.59	3.77	-44.5	-59.2	3.6	1.51e+00	0	31	104	0	60	36981
2026-01-28 23:07:56.81	20.63	3.84	-44.5	-59.2	3.6	1.51e+00	0	31	104	0	60	36891
2026-01-28 23:07:57.80	20.67	3.92	-44.5	-59.2	3.6	1.51e+00	0	32	104	0	60	36786
2026-01-28 23:07:58.79	20.71	3.99	-44.5	-59.2	3.6	1.51e+00	0	31	104	0	60	36896
2026-01-28 23:07:59.78	20.75	4.07	-44.5	-59.2	3.6	1.51e+00	0	32	104	0	60	36976
2026-01-28 23:08:00.76	20.79	4.14	-45.3	-60.0	3.6	1.51e+00	0	32	104	0	60	40387
2026-01-28 23:08:01.75	20.83	4.21	-45.0	-59.7	3.6	1.51e+00	0	32	104	0	60	39105
2026-01-28 23:08:02.75	20.87	4.29	-44.9	-59.6	3.6	1.51e+00	0	31	104	0	60	38587
2026-01-28 23:08:03.74	20.91	4.37	-44.7	-59.4	3.6	1.51e+00	0	32	104	0	60	37752
2026-01-28 23:08:04.73	20.95	4.44	-44.6	-59.3	3.6	1.51e+00	0	32	104	0	60	37319
2026-01-28 23:08:05.72	20.99	4.52	-44.5	-59.1	3.6	1.51e+00	0	32	104	0	60	36651
2026-01-28 23:08:06.72	21.03	4.59	-44.6	-59.4	3.6	1.51e+00	0	32	104	0	60	37650
2026-01-28 23:08:07.72	21.08	4.67	-44.7	-59.4	3.6	1.51e+00	0	32	104	0	60	37648
2026-01-28 23:08:08.72	21.12	4.75	-44.6	-59.3	3.6	1.51e+00	0	32	104	0	60	37483
2026-01-28 23:08:09.73	21.16	4.83	-44.5	-59.2	3.6	1.51e+00	0	32	104	0	60	37065
2026-01-28 23:08:10.72	21.21	4.91	-44.7	-59.4	3.6	1.51e+00	0	32	104	0	60	37911
2026-01-28 23:08:11.72	21.25	4.98	-44.6	-59.4	3.6	1.51e+00	0	32	104	0	60	37996
2026-01-28 23:08:12.71	21.29	5.06	-44.6	-59.3	3.6	1.51e+00	0	32	104	0	60	37584
2026-01-28 23:08:13.70	21.34	5.14	-44.6	-59.3	3.6	1.51e+00	0	32	104	0	60	37298
2026-01-28 23:08:14.69	21.38	5.22	-44.7	-59.4	3.6	1.51e+00	0	32	104	0	60	38043
2026-01-28 23:08:15.69	21.42	5.30	-44.8	-59.5	3.6	1.51e+00	0	32	104	0	60	38140
2026-01-28 23:08:16.68	21.47	5.38	-44.7	-59.4	3.6	1.51e+00	0	32	104	0	60	37712
2026-01-28 23:08:17.67	21.51	5.46	-44.6	-59.3	3.6	1.51e+00	0	32	104	0	60	37535
2026-01-28 23:08:18.66	21.56	5.54	-44.8	-59.5	3.6	1.51e+00	0	32	104	0	60	38172
2026-01-28 23:08:19.64	21.60	5.62	-44.8	-59.5	3.6	1.51e+00	0	32	104	0	60	38217
2026-01-28 23:08:20.63	21.65	5.70	-44.7	-59.5	3.5	1.51e+00	0	32	104	0	60	38086
2026-01-28 23:08:21.62	21.69	5.78	-44.6	-59.4	3.6	1.51e+00	0	32	104	0	60	37877
2026-01-28 23:08:22.60	21.74	5.86	-44.8	-59.5	3.6	1.51e+00	0	32	104	0	60	38169
2026-01-28 23:08:23.59	21.79	5.94	-44.8	-59.6	3.6	1.51e+00	0	32	104	0	60	38540
2026-01-28 23:08:24.57	21.83	6.02	-44.8	-59.5	3.6	1.51e+00	0	32	104	0	60	38300
2026-01-28 23:08:25.56	21.88	6.10	-44.7	-59.4	3.6	1.51e+00	0	32	104	0	60	37823
2026-01-28 23:08:26.54	21.93	6.18	-44.8	-59.5	3.6	1.51e+00	0	32	104	0	60	38311
2026-01-28 23:08:27.53	21.97	6.27	-44.8	-59.6	3.6	1.51e+00	0	32	104	0	60	38645
2026-01-28 23:08:28.52	22.02	6.35	-44.8	-59.5	3.5	1.51e+00	0	32	104	0	60	38482
2026-01-28 23:08:29.51	22.07	6.43	-44.8	-59.5	3.6	1.51e+00	0	32	104	0	60	38205
2026-01-28 23:08:30.49	22.12	6.52	-44.8	-59.6	3.6	1.51e+00	0	32	104	0	60	38588
2026-01-28 23:08:31.48	22.17	6.60	-44.8	-59.6	3.6	1.51e+00	0	32	104	0	60	38604
2026-01-28 23:08:32.47	22.21	6.68	-44.9	-59.6	3.6	1.51e+00	0	32	104	0	60	38648
2026-01-28 23:08:33.45	22.26	6.77	-44.8	-59.5	3.6	1.51e+00	0	32	104	0	60	38342
2026-01-28 23:08:34.44	22.31	6.85	-44.8	-59.6	3.6	1.51e+00	0	32	104	0	60	38722
2026-01-28 23:08:35.42	22.36	6.94	-44.9	-59.7	3.6	1.51e+00	0	32	104	0	60	38971
2026-01-28 23:08:36.40	22.41	7.02	-44.9	-59.6	3.6	1.51e+00	0	32	104	0	60	38733
2026-01-28 23:08:37.38	22.46	7.11	-44.8	-59.6	3.6	1.51e+00	0	32	104	0	60	38647
2026-01-28 23:08:38.36	22.51	7.19	-44.9	-59.6	3.6	1.51e+00	0	32	104	0	60	38604
2026-01-28 23:08:39.34	22.57	7.28	-44.9	-59.7	3.6	1.51e+00	0	32	104	0	60	39239
2026-01-28 23:08:40.32	22.62	7.37	-44.7	-59.7	3.6	1.51e+00	0	32	104	0	60	39180
2026-01-28 23:08:41.31	22.67	7.45	-44.9	-59.6	3.6	1.51e+00	0	32	104	0	60	38715
2026-01-28 23:08:42.29	22.72	7.54	-44.9	-59.6	3.6	1.51e+00	0	32	104	0	60	38836
2026-01-28 23:08:43.27	22.77	7.63	-45.0	-59.7	3.6	1.51e+00	0	32	104	0	60	39046
2026-01-28 23:08:44.26	22.83	7.72	-44.7	-59.6	3.6	1.51e+00	0	32	104	0	60	38920
2026-01-28 23:08:45.25	22.88	7.81	-44.9	-59.7	3.6	1.51e+00	0	32	104	0	60	39021
2026-01-28 23:08:46.24	22.93	7.90	-44.9	-59.6	3.6	1.51e+00	0	32	104	0	60	38622
2026-01-28 23:08:47.22	22.99	7.99	-44.9	-59.7	3.6	1.51e+00	0	32	104	0	60	39219
2026-01-28 23:08:48.21	23.04	8.08	-45.0	-59.7	3.6	1.51e+00	0	32	104	0	60	39167
2026-01-28 23:08:49.19	23.10	8.17	-44.8	-59.7	3.6	1.51e+00	0	32	104	0	60	39171
2026-01-28 23:08:50.17	23.15	8.26	-44.9	-59.7	3.6	1.51e+00	0	32	104	0	60	39113
2026-01-28 23:08:51.16	23.21	8.35	-44.8	-59.7	3.6	1.51e+00	0	32	104	0	60	39324
2026-01-28 23:08:52.16	23.27	8.44	-45.0	-59.7	3.6	1.51e+00	0	32	104	0	60	39345
2026-01-28 23:08:53.15	23.32	8.54	-44.7	-59.7	3.6	1.51e+00	0	32	104	0	60	39073
2026-01-28 23:08:54.15	23.38	8.63	-44.6	-59.7	3.6	1.51e+00	0	32	104	0	60	39105
2026-01-28 23:08:55.14	23.44	8.73	-45.0	-59.7	3.6	1.51e+00	0	32	104	0	60	39399
2026-01-28 23:08:56.14	23.50	8.82	-44.9	-59.8	3.6	1.51e+00	0	32	104	0	60	39496
2026-01-28 23:08:57.13	23.56	8.92	-45.0	-59.7	3.6	1.51e+00	0	32	104	0	60	39153
2026-01-28 23:08:58.12	23.62	9.01	-45.0	-59.7	3.6	1.51e+00	0	32	104	0	60	39124
2026-01-28 23:08:59.12	23.68	9.11	-45.0	-59.8	3.6	1.51e+00	0	32	104	0	60	39415
2026-01-28 23:09:00.11	23.74	9.20	-44.9	-59.8	3.6	1.51e+00	0	32	104	0	60	39663
2026-01-28 23:09:01.10	23.80	9.30	-45.0	-59.7	3.6	1.51e+00	0	32	104	0	60	39349
2026-01-28 23:09:02.09	23.86	9.40	-45.0	-59.7	3.6	1.51e+00	0	32	104	0	60	39074
2026-01-28 23:09:03.09	23.92	9.50	-44.9	-59.9	3.6	1.51e+00	0	32	104	0	60	39883
2026-01-28 23:09:04.10	23.98	9.60	-44.6	-59.8	3.6	1.51e+00	0	32	104	0	60	39587
2026-01-28 23:09:05.11	24.05	9.70	-45.0	-59.8	3.5	1.51e+00	0	32	104	0	60	39741
2026-01-28 23:09:06.11	24.11	9.80	-45.0	-59.8	3.6	1.51e+00	0	32	104	0	60	39571
2026-01-28 23:09:07.12	24.17	9.90	-45.1	-59.8	3.6	1.51e+00	0	32	104	0	60	39811
2026-01-28 23:09:08.12	24.24	10.00	-44.7	-59.8	3.6	1.51e+00	0	32	104	0	60	39782
2026-01-28 23:09:09.12	24.30	10.10	-45.0	-59.8	3.6	1.51e+00	0	32	104	0	60	39486
2026-01-28 23:09:10.12	24.37	10.20	-45.1	-59.8	3.6	1.51e+00	0	32	104	0	60	39511
2026-01-28 23:09:11.11	24.43	10.30	-45.1	-59.8	3.6	1.51e+00	0	32	104	0	60	39635
2026-01-28 23:09:12.11	24.50	10.41	-44.8	-59.8	3.6	1.51e+00	0	32	104	0	60	39792
2026-01-28 23:09:13.10	24.57	10.51	-44.6	-59.8	3.6	1.51e+00	0	32	104	0	60	39621
2026-01-28 23:09:14.10	24.63	10.61	-45.1	-59.8	3.6	1.51e+00	0	32	104	0	60	39631
2026-01-28 23:09:15.10	24.70	10.72	-44.7	-59.9	3.6	1.51e+00	0	32	104	0	60	40012
2026-01-28 23:09:16.09	24.77	10.82	-45.1	-59.9	3.6	1.51e+00	0	32	104	0	60	39919
2026-01-28 23:09:17.09	24.84	10.93	-44.6	-59.8	3.6	1.51e+00	0	32	104	0	60	39808
2026-01-28 23:09:18.08	24.91	11.04	-44.3	-59.9	3.6	1.51e+00	0	32	104	0	60	39908
2026-01-28 23:09:19.08	24.98	11.14	-44.5	-59.9	3.6	1.51e+00	0	32	104	0	60	40014
2026-01-28 23:09:20.08	25.05	11.25	-44.8	-59.9	3.6	1.51e+00	0	32	104	0	60	40033
2026-01-28 23:09:21.07	25.12	11.36	-44.9	-59.9	3.6	1.51e+00	0	32	104	0	60	39872
2026-01-28 23:09:22.07	25.19	11.47	-44.3	-59.8	3.6	1.51e+00	0	32	104	0	60	39832
2026-01-28 23:09:23.06	25.27	11.58	-45.1	-59.9	3.6	1.51e+00	0	32	104	0	60	40064
2026-01-28 23:09:24.06	25.34	11.69	-45.1	-59.9	3.6	1.51e+00	0	32	104	0	60	40110
2026-01-28 23:09:25.07	25.42	11.80	-45.2	-59.9	3.6	1.51e+00	0	32	104	0	60	39981
2026-01-28 23:09:26.08	25.49	11.91	-44.9	-59.9	3.6	1.51e+00	0	32	104	0	60	39954
2026-01-28 23:09:27.09	25.57	12.03	-45.2	-60.0	3.6	1.51e+00	0	32	104	0	60	40523
2026-01-28 23:09:28.09	25.64	12.14	-45.2	-59.9	3.6	1.51e+00	0	32	104	0	60	40158
2026-01-28 23:09:29.10	25.72	12.25	-44.8	-59.9	3.6	1.51e+00	0	32	104	0	60	40053
2026-01-28 23:09:30.11	25.80	12.37	-45.0	-59.9	3.5	1.51e+00	0	32	104	0	60	40117
2026-01-28 23:09:31.12	25.88	12.48	-45.2	-59.9	3.6	1.51e+00	0	32	104	0	60	40217
2026-01-28 23:09:32.12	25.96	12.60	-45.1	-59.9	3.6	1.51e+00	0	32	104	0	60	40180
2026-01-28 23:09:33.13	26.04	12.72	-45.2	-59.9	3.6	1.51e+00	0	32	104	0	60	40160
2026-01-28 23:09:34.14	26.12	12.84	-45.2	-59.9	3.6	1.51e+00	0	32	104	0	60	40141
2026-01-28 23:09:35.15	26.20	12.95	-45.2	-59.9	3.6	1.51e+00	0	32	104	0	60	40160
2026-01-28 23:09:36.16	26.28	13.07	-45.2	-60.0	3.6	1.51e+00	0	32	104	0	60	40427
2026-01-28 23:09:37.17	26.37	13.19	-45.2	-59.9	3.6	1.51e+00	0	32	104	0	60	40119
2026-01-28 23:09:38.18	26.45	13.32	-45.2	-59.9	3.6	1.51e+00	0	32	104	0	60	40213
2026-01-28 23:09:39.19	26.54	13.44	-45.2	-59.9	3.6	1.51e+00	0	32	104	0	60	40274
2026-01-28 23:09:40.20	26.62	13.56	-45.2	-60.0	3.6	1.51e+00	0	32	104	0	60	40371
2026-01-28 23:09:41.20	26.71	13.68	-45.2	-59.9	3.6	1.51e+00	0	32	104	0	60	40314
2026-01-28 23:09:42.21	26.80	13.81	-45.3	-60.0	3.6	1.51e+00	0	32	104	0	60	40385
2026-01-28 23:09:43.22	26.89	13.93	-45.3	-60.0	3.6	1.51e+00	0	32	104	0	60	40349
2026-01-28 23:09:44.23	26.97	14.06	-45.1	-60.0	3.6	1.51e+00	0	32	104	0	60	40390
2026-01-28 23:09:45.24	27.06	14.19	-45.1	-60.0	3.6	1.51e+00	0	32	104	0	60	40354
2026-01-28 23:09:46.25	27.16	14.31	-45.1	-60.0	3.6	1.51e+00	0	32	104	0	60	40483
2026-01-28 23:09:47.26	27.25	14.44	-45.2	-60.0	3.6	1.51e+00	0	32	104	0	60	40743
2026-01-28 23:09:48.27	27.34	14.57	-45.3	-60.0	3.6	1.51e+00	0	32	104	0	60	40618
2026-01-28 23:09:49.29	27.44	14.70	-45.2	-59.9	3.6	1.51e+00	0	32	104	0	60	40209
2026-01-28 23:09:50.30	27.53	14.83	-45.0	-60.0	3.6	1.51e+00	0	32	104	0	60	40540
2026-01-28 23:09:51.31	27.63	14.96	-44.6	-60.0	3.6	1.51e+00	0	32	104	0	60	40591
2026-01-28 23:09:52.32	27.72	15.10	-45.2	-60.0	3.6	1.51e+00	0	32	104	0	60	40522
2026-01-28 23:09:53.33	27.82	15.23	-45.3	-60.0	3.6	1.51e+00	0	32	104	0	60	40449
2026-01-28 23:09:54.33	27.92	15.36	-45.2	-60.0	3.6	1.51e+00	0	32	104	0	60	40462
2026-01-28 23:09:55.34	28.02	15.50	-45.3	-60.0	3.6	1.51e+00	0	32	104	0	60	40739
2026-01-28 23:09:56.35	28.12	15.64	-45.1	-60.0	3.6	1.51e+00	0	32	104	0	60	40730
2026-01-28 23:09:57.36	28.22	15.77	-45.3	-59.9	3.6	1.51e+00	0	32	104	0	60	40304
2026-01-28 23:09:58.36	28.32	15.91	-45.2	-59.9	3.6	1.51e+00	0	32	104	0	60	40315
2026-01-28 23:09:59.37	28.43	16.05	-44.6	-60.1	3.6	1.51e+00	0	32	104	0	60	40857
2026-01-28 23:10:00.38	28.53	16.19	-45.0	-60.1	3.6	1.51e+00	0	32	104	0	60	40883
2026-01-28 23:10:01.38	28.64	16.33	-45.1	-60.0	3.6	1.51e+00	0	32	104	0	60	40543
2026-01-28 23:10:02.40	28.74	16.47	-45.3	-60.0	3.6	1.51e+00	0	32	104	0	60	40571
2026-01-28 23:10:03.41	28.85	16.61	-45.3	-60.1	3.6	1.51e+00	0	32	104	0	60	40915
2026-01-28 23:10:04.42	28.96	16.76	-45.3	-60.1	3.6	1.51e+00	0	32	104	0	60	40923
2026-01-28 23:10:05.43	29.07	16.90	-45.2	-60.0	3.6	1.51e+00	0	32	104	0	60	40613
2026-01-28 23:10:06.43	29.18	17.05	-45.3	-60.0	3.6	1.51e+00	0	33	104	0	60	40750
2026-01-28 23:10:07.44	29.30	17.20	-45.2	-60.0	3.6	1.51e+00	0	32	104	0	60	40757
2026-01-28 23:10:08.45	29.41	17.34	-45.4	-60.1	3.6	1.51e+00	0	32	104	0	60	40917
2026-01-28 23:10:09.46	29.53	17.49	-45.1	-60.0	3.6	1.51e+00	0	32	104	0	60	40526
2026-01-28 23:10:10.46	29.64	17.64	-45.4	-60.0	3.6	1.51e+00	0	33	104	0	60	40594
2026-01-28 23:10:11.47	29.76	17.79	-44.5	-60.1	3.6	1.51e+00	0	32	104	0	60	41003
2026-01-28 23:10:12.48	29.88	17.95	-45.3	-60.1	3.6	1.51e+00	0	33	104	0	60	40931
2026-01-28 23:10:13.49	30.00	18.10	-45.3	-60.0	3.6	1.51e+00	0	32	104	0	60	40642
2026-01-28 23:10:14.50	30.12	18.25	-45.3	-60.0	3.6	1.51e+00	0	33	104	0	60	40530
2026-01-28 23:10:15.51	30.25	18.41	-45.3	-60.1	3.5	1.51e+00	0	33	104	0	60	40933
2026-01-28 23:10:16.52	30.37	18.57	-45.3	-60.1	3.6	1.51e+00	0	32	104	0	60	41045
2026-01-28 23:10:17.52	30.50	18.72	-45.2	-60.0	3.6	1.51e+00	0	32	104	0	60	40692
2026-01-28 23:10:18.53	30.63	18.88	-45.4	-60.1	3.6	1.51e+00	0	32	104	0	60	40863
2026-01-28 23:10:19.54	30.76	19.04	-45.4	-60.1	3.6	1.51e+00	0	33	104	0	60	41109
2026-01-28 23:10:20.55	30.89	19.21	-45.3	-60.1	3.6	1.51e+00	0	33	104	0	60	41063
2026-01-28 23:10:21.56	31.02	19.37	-45.4	-60.1	3.6	1.51e+00	0	33	104	0	60	40939
2026-01-28 23:10:22.57	31.16	19.53	-45.4	-60.1	3.6	1.51e+00	0	33	104	0	60	40943
2026-01-28 23:10:23.58	31.29	19.70	-45.4	-60.1	3.6	1.51e+00	0	33	104	0	60	41251
2026-01-28 23:10:24.59	31.43	19.87	-45.3	-60.1	3.6	1.51e+00	0	33	104	0	60	40865
2026-01-28 23:10:25.61	31.57	20.04	-45.4	-60.1	3.6	1.51e+00	0	33	104	0	60	41019
2026-01-28 23:10:26.62	31.71	20.21	-45.4	-60.1	3.6	1.51e+00	0	33	104	0	60	41030
2026-01-28 23:10:27.62	31.85	20.38	-45.4	-60.1	3.6	1.51e+00	0	32	104	0	60	41150
2026-01-28 23:10:28.63	32.00	20.55	-45.4	-60.1	3.6	1.51e+00	0	33	104	0	60	40947
2026-01-28 23:10:29.63	32.14	20.72	-45.3	-60.1	3.6	1.51e+00	0	33	104	0	60	40966
2026-01-28 23:10:30.64	32.29	20.89	-45.2	-60.1	3.6	1.51e+00	0	33	104	0	60	41000
2026-01-28 23:10:31.65	32.44	21.07	-45.2	-60.1	3.6	1.51e+00	0	33	104	0	60	41152
2026-01-28 23:10:32.66	32.59	21.25	-45.3	-60.1	3.6	1.51e+00	0	33	104	0	60	40931
2026-01-28 23:10:33.67	32.75	21.43	-45.3	-60.1	3.6	1.51e+00	0	33	104	0	60	41184
2026-01-28 23:10:34.67	32.90	21.61	-45.4	-60.1	3.6	1.51e+00	0	33	104	0	60	41098
2026-01-28 23:10:35.68	33.06	21.79	-45.3	-60.1	3.6	1.51e+00	0	33	104	0	60	41198
2026-01-28 23:10:36.69	33.22	21.97	-45.4	-60.1	3.6	1.51e+00	0	33	104	0	60	41070
2026-01-28 23:10:37.70	33.38	22.16	-45.4	-60.1	3.6	1.51e+00	0	33	104	0	60	41012
2026-01-28 23:10:38.71	33.55	22.34	-45.3	-60.2	3.6	1.51e+00	0	33	104	0	60	41297
2026-01-28 23:10:39.72	33.71	22.53	-45.3	-60.1	3.6	1.51e+00	0	33	104	0	60	41096
2026-01-28 23:10:40.72	33.88	22.72	-45.3	-60.2	3.6	1.51e+00	0	33	104	0	60	41334
2026-01-28 23:10:41.72	34.05	22.91	-45.4	-60.1	3.6	1.51e+00	0	33	104	0	60	41257
2026-01-28 23:10:42.72	34.22	23.10	-45.4	-60.2	3.6	1.51e+00	0	33	104	0	60	41407
2026-01-28 23:10:43.70	34.39	23.29	-45.4	-60.2	3.6	1.51e+00	0	33	104	0	60	41389
2026-01-28 23:10:44.69	34.57	23.48	-45.4	-60.2	3.6	1.51e+00	0	33	104	0	60	41404
2026-01-28 23:10:45.67	34.74	23.67	-45.3	-60.1	3.6	1.51e+00	0	33	104	0	60	41238
2026-01-28 23:10:46.65	34.92	23.86	-45.4	-60.2	3.6	1.51e+00	0	33	104	0	60	41374
2026-01-28 23:10:47.63	35.10	24.06	-45.3	-60.2	3.6	1.51e+00	0	33	104	0	60	41593
2026-01-28 23:10:48.61	35.28	24.25	-45.4	-60.2	3.6	1.51e+00	0	33	104	0	60	41379
2026-01-28 23:10:49.59	35.47	24.45	-45.1	-60.2	3.6	1.51e+00	0	33	104	0	60	41441
2026-01-28 23:10:50.57	35.65	24.65	-45.3	-60.2	3.6	1.51e+00	0	33	104	0	60	41372
2026-01-28 23:10:51.55	35.84	24.85	-45.5	-60.2	3.6	1.51e+00	0	33	104	0	60	41617
2026-01-28 23:10:52.53	36.04	25.05	-45.3	-60.2	3.6	1.51e+00	0	33	104	0	60	41561
2026-01-28 23:10:53.51	36.23	25.25	-45.2	-60.2	3.6	1.51e+00	0	33	104	0	60	41389
2026-01-28 23:10:54.49	36.43	25.46	-45.0	-60.2	3.6	1.51e+00	0	33	104	0	60	41276
2026-01-28 23:10:55.47	36.63	25.67	-45.3	-60.2	3.6	1.51e+00	0	33	104	0	60	41524
2026-01-28 23:10:56.45	36.84	25.88	-45.1	-60.2	3.6	1.51e+00	0	33	104	0	60	41534
2026-01-28 23:10:57.43	37.04	26.09	-44.5	-60.2	3.6	1.51e+00	0	33	104	0	60	41369
2026-01-28 23:10:58.40	37.25	26.30	-45.3	-60.2	3.6	1.51e+00	0	33	104	0	60	41502
2026-01-28 23:10:59.38	37.46	26.51	-45.0	-60.3	3.6	1.51e+00	0	33	104	0	60	41753
2026-01-28 23:11:00.36	37.68	26.73	-45.4	-60.2	3.6	1.51e+00	0	33	104	0	60	41462
2026-01-28 23:11:01.35	37.90	26.94	-45.3	-60.2	3.6	1.51e+00	0	33	104	0	60	41556
2026-01-28 23:11:02.32	38.12	27.16	-45.5	-60.2	3.6	1.51e+00	0	33	104	0	60	41370
2026-01-28 23:11:03.30	38.35	27.38	-45.4	-60.2	3.6	1.51e+00	0	33	104	0	60	41583
2026-01-28 23:11:04.28	38.58	27.60	-45.2	-60.2	3.6	1.51e+00	0	33	104	0	60	41707
2026-01-28 23:11:05.26	38.81	27.83	-45.5	-60.2	3.6	1.51e+00	0	33	104	0	60	41515
2026-01-28 23:11:06.23	39.04	28.05	-45.5	-60.2	3.6	1.51e+00	0	33	104	0	60	41506
2026-01-28 23:11:07.21	39.28	28.28	-44.7	-60.2	3.6	1.51e+00	0	33	104	0	60	41494
2026-01-28 23:11:08.19	39.53	28.51	-44.4	-60.2	3.6	1.51e+00	0	33	104	0	60	41628
2026-01-28 23:11:09.16	39.77	28.74	-45.5	-60.2	3.6	1.51e+00	0	33	104	0	60	41549
2026-01-28 23:11:10.15	40.03	28.97	-45.4	-60.2	3.6	1.51e+00	0	33	104	0	60	41572
2026-01-28 23:11:11.13	40.28	29.21	-45.4	-60.2	3.6	1.51e+00	0	33	104	0	60	41727
2026-01-28 23:11:12.11	40.54	29.44	-45.2	-60.3	3.6	1.51e+00	0	33	104	0	60	41773
2026-01-28 23:11:13.09	40.81	29.68	-44.5	-60.2	3.6	1.51e+00	0	33	104	0	60	41662
2026-01-28 23:11:14.07	41.07	29.92	-45.1	-60.2	3.6	1.51e+00	0	33	104	0	60	41662
2026-01-28 23:11:15.05	41.35	30.16	-45.3	-60.2	3.6	1.51e+00	0	33	104	0	60	41462
2026-01-28 23:11:16.03	41.62	30.41	-45.5	-60.2	3.6	1.51e+00	0	33	104	0	60	41512
2026-01-28 23:11:17.01	41.90	30.65	-45.4	-60.2	3.6	1.51e+00	0	33	104	0	60	41678
2026-01-28 23:11:17.99	42.19	30.90	-45.4	-60.2	3.6	1.51e+00	0	33	104	0	60	41537
2026-01-28 23:11:18.97	42.48	31.15	-45.5	-60.2	3.6	1.51e+00	0	33	104	0	60	41559
2026-01-28 23:11:19.95	42.77	31.40	-45.5	-60.2	3.6	1.51e+00	0	33	104	0	60	41730
2026-01-28 23:11:20.93	43.07	31.65	-45.3	-60.3	3.6	1.51e+00	0	33	104	0	60	41747
2026-01-28 23:11:21.90	43.38	31.90	-45.5	-60.3	3.6	1.51e+00	0	33	104	0	60	41768
2026-01-28 23:11:22.88	43.69	32.16	-44.9	-60.3	3.6	1.51e+00	0	33	104	0	60	41797
2026-01-28 23:11:23.87	44.00	32.42	-45.4	-60.3	3.6	1.51e+00	0	33	104	0	60	42025
2026-01-28 23:11:24.84	44.32	32.68	-45.2	-60.3	3.6	1.51e+00	0	33	104	0	60	41843
2026-01-28 23:11:25.83	44.65	32.94	-44.9	-60.3	3.6	1.51e+00	0	33	104	0	60	41747
2026-01-28 23:11:26.81	44.98	33.20	-45.6	-60.2	3.6	1.51e+00	0	33	104	0	60	41688
2026-01-28 23:11:27.79	45.32	33.47	-45.3	-60.3	3.6	1.51e+00	0	33	104	0	60	41808
2026-01-28 23:11:28.77	45.67	33.73	-45.4	-60.3	3.6	1.51e+00	0	33	104	0	60	41864
2026-01-28 23:11:29.75	46.01	34.00	-45.3	-60.2	3.6	1.51e+00	0	33	104	0	60	41730
2026-01-28 23:11:30.73	46.37	34.27	-45.5	-60.3	3.6	1.51e+00	0	33	104	0	60	41902
2026-01-28 23:11:31.71	46.73	34.54	-45.2	-60.3	3.6	1.51e+00	0	33	104	0	60	41813
2026-01-28 23:11:32.68	47.10	34.81	-45.5	-60.2	3.6	1.51e+00	0	33	104	0	60	41734
2026-01-28 23:11:33.66	47.47	35.09	-45.1	-60.2	3.6	1.51e+00	0	33	104	0	60	41487
2026-01-28 23:11:34.64	47.85	35.36	-44.7	-60.3	3.6	1.51e+00	0	33	104	0	60	41812
2026-01-28 23:11:35.62	48.24	35.64	-45.6	-60.3	3.6	1.51e+00	0	33	104	0	60	41870
2026-01-28 23:11:36.60	48.64	35.92	-45.5	-60.2	3.6	1.51e+00	0	33	104	0	60	41722
2026-01-28 23:11:37.58	49.04	36.20	-45.5	-60.2	3.6	1.51e+00	0	33	104	0	60	41679
2026-01-28 23:11:38.56	49.45	36.48	-45.2	-60.2	3.6	1.51e+00	0	33	104	0	60	41735
2026-01-28 23:11:39.54	49.87	36.76	-44.2	-60.3	3.6	1.51e+00	0	33	104	0	60	41967
2026-01-28 23:11:40.52	50.30	37.05	-43.9	-60.2	3.6	1.51e+00	0	33	104	0	60	41543
2026-01-28 23:11:41.49	50.72	37.33	-44.0	-60.2	3.6	1.51e+00	0	33	104	0	60	41625
2026-01-28 23:11:42.47	51.17	37.62	-45.2	-60.2	3.6	1.51e+00	0	33	104	0	60	41523
2026-01-28 23:11:43.45	51.62	37.90	-45.4	-60.2	3.6	1.51e+00	0	33	104	0	60	41565
2026-01-28 23:11:44.42	52.07	38.19	-45.5	-60.2	3.6	1.51e+00	0	33	104	0	60	41471
2026-01-28 23:11:45.40	52.54	38.48	-45.5	-60.2	3.6	1.51e+00	0	33	104	0	60	41399
2026-01-28 23:11:46.38	53.01	38.77	-45.5	-60.3	3.6	1.51e+00	0	33	104	0	60	41836
2026-01-28 23:11:47.36	53.49	39.06	-45.5	-60.2	3.6	1.51e+00	0	33	104	0	60	41739
2026-01-28 23:11:48.33	53.98	39.35	-45.5	-60.3	3.5	1.51e+00	0	33	104	0	60	41748
2026-01-28 23:11:49.31	54.49	39.64	-45.4	-60.3	3.6	1.51e+00	0	33	104	0	60	41766
2026-01-28 23:11:50.29	55.00	39.93	-45.5	-60.2	3.6	1.51e+00	0	33	104	0	60	41741
2026-01-28 23:11:51.27	55.52	40.22	-45.6	-60.2	3.6	1.51e+00	0	33	104	0	60	41722
2026-01-28 23:11:52.24	56.04	40.51	-45.5	-60.3	3.6	1.51e+00	0	33	104	0	60	41788
2026-01-28 23:11:53.22	56.59	40.81	-45.5	-60.2	3.6	1.51e+00	0	33	104	0	60	41364
2026-01-28 23:11:54.20	57.14	41.10	-45.5	-60.2	3.6	1.51e+00	0	33	104	0	60	41729
2026-01-28 23:11:55.18	57.70	41.39	-45.5	-60.2	3.6	1.51e+00	0	33	104	0	60	41674
2026-01-28 23:11:56.16	58.27	41.69	-45.5	-60.2	3.6	1.51e+00	0	33	104	0	60	41694
2026-01-28 23:11:57.13	58.85	41.97	-45.5	-60.2	3.6	1.51e+00	0	33	104	0	60	41515
2026-01-28 23:11:58.11	59.45	42.27	-45.6	-60.2	3.6	1.51e+00	0	33	104	0	60	41624
2026-01-28 23:11:59.09	60.05	42.56	-45.6	-60.2	3.6	1.51e+00	0	33	104	0	60	41734
2026-01-28 23:12:00.07	60.67	42.85	-45.5	-60.2	3.6	1.51e+00	0	33	104	0	60	41739
2026-01-28 23:12:01.05	61.30	43.14	-45.5	-60.2	3.6	1.51e+00	0	33	104	0	60	41551
2026-01-28 23:12:02.02	61.93	43.42	-45.5	-60.2	3.6	1.51e+00	0	33	104	0	60	41462
2026-01-28 23:12:03.00	62.59	43.71	-45.5	-60.2	3.6	1.51e+00	0	33	104	0	60	41647
2026-01-28 23:12:03.99	63.26	43.99	-45.5	-60.2	3.6	1.51e+00	0	33	104	0	60	41720
2026-01-28 23:12:04.96	63.93	44.27	-45.5	-60.2	3.6	1.51e+00	0	33	104	0	60	41564
2026-01-28 23:12:05.95	64.63	44.56	-45.5	-60.2	3.6	1.51e+00	0	33	104	0	60	41550
2026-01-28 23:12:06.92	65.32	44.83	-45.5	-60.3	3.6	1.51e+00	0	33	104	0	60	41747
2026-01-28 23:12:07.90	66.04	45.11	-45.5	-60.3	3.6	1.51e+00	0	33	104	0	60	41797
2026-01-28 23:12:08.88	66.76	45.38	-45.5	-60.2	3.6	1.51e+00	0	33	104	0	60	41680
2026-01-28 23:12:09.86	67.51	45.65	-45.5	-60.2	3.6	1.51e+00	0	33	104	0	60	41665
2026-01-28 23:12:10.83	68.25	45.92	-45.5	-60.3	3.6	1.51e+00	0	33	104	0	60	41816
2026-01-28 23:12:11.81	69.02	46.18	-45.6	-60.2	3.6	1.51e+00	0	33	104	0	60	41628
2026-01-28 23:12:12.79	69.80	46.44	-45.5	-60.2	3.6	1.51e+00	0	33	104	0	60	41525
2026-01-28 23:12:13.76	70.59	46.70	-45.5	-60.2	3.6	1.51e+00	0	33	104	0	60	41661
2026-01-28 23:12:14.73	71.39	46.95	-45.5	-60.2	3.6	1.51e+00	0	33	104	0	60	41712
2026-01-28 23:12:15.72	72.21	47.20	-45.5	-60.2	3.6	1.51e+00	0	33	104	0	60	41594
2026-01-28 23:12:16.70	73.05	47.44	-45.5	-60.2	3.6	1.51e+00	0	33	104	0	60	41607
2026-01-28 23:12:17.67	73.89	47.68	-45.4	-60.2	3.6	1.51e+00	0	33	104	0	60	41535
2026-01-28 23:12:18.65	74.75	47.91	-45.5	-60.2	3.6	1.51e+00	0	33	104	0	60	41593
2026-01-28 23:12:19.63	75.62	48.14	-45.4	-60.3	3.6	1.51e+00	0	33	104	0	60	41746
2026-01-28 23:12:20.62	76.52	48.36	-45.4	-60.2	3.6	1.51e+00	0	33	104	0	60	41605
2026-01-28 23:12:21.60	77.42	48.58	-45.4	-60.2	3.6	1.51e+00	0	33	104	0	60	41593
2026-01-28 23:12:22.58	78.33	48.79	-45.4	-60.2	3.6	1.51e+00	0	33	104	0	60	41692
2026-01-28 23:12:23.55	79.25	48.99	-45.6	-60.3	3.6	1.51e+00	0	33	104	0	60	41777
2026-01-28 23:12:24.53	80.19	49.19	-45.5	-60.2	3.6	1.51e+00	0	33	104	0	60	41582
2026-01-28 23:12:25.51	81.14	49.38	-45.4	-60.2	3.6	1.51e+00	0	33	104	0	60	41461
2026-01-28 23:12:26.49	82.10	49.56	-45.4	-60.2	3.5	1.51e+00	0	33	104	0	60	41617
2026-01-28 23:12:27.46	83.06	49.73	-45.4	-60.3	3.6	1.51e+00	0	33	104	0	60	41801
2026-01-28 23:12:28.44	84.05	49.90	-45.5	-60.2	3.6	1.51e+00	0	33	104	0	60	41612
2026-01-28 23:12:29.42	85.05	50.06	-45.5	-60.2	3.6	1.51e+00	0	33	104	0	60	41721
2026-01-28 23:12:30.40	86.05	50.21	-45.3	-60.2	3.6	1.51e+00	0	33	104	0	60	41668
2026-01-28 23:12:31.38	87.07	50.35	-45.4	-60.2	3.6	1.51e+00	0	33	104	0	60	41700
2026-01-28 23:12:32.36	88.10	50.49	-45.5	-60.3	3.6	1.51e+00	0	33	104	0	60	41845
2026-01-28 23:12:33.34	89.13	50.61	-45.5	-60.2	3.6	1.51e+00	0	33	104	0	60	41442
2026-01-28 23:12:34.32	90.17	50.72	-45.5	-60.3	3.6	1.51e+00	0	33	104	0	60	41752
2026-01-28 23:12:35.30	91.23	50.83	-45.6	-60.2	3.6	1.51e+00	0	33	104	0	60	41724
2026-01-28 23:12:36.29	92.30	50.93	-45.5	-60.2	3.6	1.51e+00	0	33	104	0	60	41723
2026-01-28 23:12:37.27	93.36	51.01	-45.5	-60.2	3.6	1.51e+00	0	33	104	0	60	41532
2026-01-28 23:12:38.25	94.43	51.09	-45.5	-60.2	3.6	1.51e+00	0	33	104	0	60	41595
2026-01-28 23:12:39.23	95.51	51.15	-45.4	-60.3	3.6	1.51e+00	0	33	104	0	60	41855
2026-01-28 23:12:40.21	96.59	51.21	-45.5	-60.3	3.6	1.51e+00	0	33	104	0	60	41784
2026-01-28 23:12:41.19	97.68	51.26	-45.5	-60.3	3.6	1.51e+00	0	33	104	0	60	41842
2026-01-28 23:12:42.17	98.77	51.29	-45.5	-60.2	3.6	1.51e+00	0	33	104	0	60	41330
2026-01-28 23:12:43.15	99.86	51.32	-45.4	-60.2	3.6	1.51e+00	0	33	104	0	60	41621
2026-01-28 23:12:44.14	100.96	51.33	-45.5	-60.2	3.6	1.51e+00	0	33	104	0	60	41703
2026-01-28 23:12:45.11	102.04	51.33	-45.4	-60.2	3.6	1.51e+00	0	33	104	0	60	41471
2026-01-28 23:12:46.09	103.13	51.33	-45.5	-60.2	3.6	1.51e+00	0	33	104	0	60	41662
2026-01-28 23:12:47.07	104.23	51.31	-45.4	-60.2	3.6	1.51e+00	0	33	104	0	60	41535
2026-01-28 23:12:48.06	105.33	51.28	-45.5	-60.2	3.6	1.51e+00	0	33	104	0	60	41725
2026-01-28 23:12:49.04	106.42	51.24	-45.5	-60.2	3.6	1.51e+00	0	33	104	0	60	41636
2026-01-28 23:12:50.02	107.50	51.19	-45.5	-60.2	3.6	1.51e+00	0	33	104	0	60	41528
2026-01-28 23:12:51.00	108.58	51.13	-45.5	-60.2	3.6	1.51e+00	0	33	104	0	60	41673
2026-01-28 23:12:51.99	109.67	51.06	-45.5	-60.2	3.6	1.51e+00	0	33	104	0	60	41594
2026-01-28 23:12:52.97	110.74	50.99	-45.5	-60.2	3.6	1.51e+00	0	33	104	0	60	41556
2026-01-28 23:12:53.95	111.80	50.90	-45.4	-60.1	3.6	1.51e+00	0	33	104	0	60	41193
2026-01-28 23:12:54.93	112.86	50.80	-45.5	-60.2	3.6	1.51e+00	0	33	104	0	60	41722
2026-01-28 23:12:55.92	113.92	50.69	-45.5	-60.2	3.6	1.51e+00	0	33	104	0	60	41322
2026-01-28 23:12:56.90	114.97	50.57	-45.4	-60.2	3.6	1.51e+00	0	32	104	0	60	41328
2026-01-28 23:12:57.88	116.00	50.44	-45.5	-60.2	3.6	1.51e+00	0	33	104	0	60	41526
2026-01-28 23:12:58.87	117.03	50.30	-45.5	-60.2	3.6	1.51e+00	0	32	104	0	60	41471
2026-01-28 23:12:59.85	118.05	50.16	-45.5	-60.2	3.6	1.51e+00	0	33	104	0	60	41679
2026-01-28 23:13:00.82	119.04	50.01	-45.4	-60.1	3.6	1.51e+00	0	33	104	0	60	41216
2026-01-28 23:13:01.80	120.04	49.84	-45.5	-60.2	3.6	1.51e+00	0	33	104	0	60	41466
2026-01-28 23:13:02.79	121.03	49.67	-45.4	-60.2	3.6	1.51e+00	0	33	104	0	60	41398
2026-01-28 23:13:03.77	122.00	49.49	-45.5	-60.2	3.6	1.51e+00	0	33	104	0	60	41694
2026-01-28 23:13:04.75	122.97	49.31	-45.5	-60.2	3.6	1.51e+00	0	33	104	0	60	41469
2026-01-28 23:13:05.73	123.91	49.11	-45.5	-60.2	3.6	1.51e+00	0	33	104	0	60	41581
2026-01-28 23:13:06.70	124.84	48.92	-45.6	-60.2	3.6	1.51e+00	0	33	104	0	60	41607
2026-01-28 23:13:07.68	125.76	48.71	-45.6	-60.3	3.6	1.51e+00	0	33	104	0	60	41845
2026-01-28 23:13:08.66	126.67	48.50	-45.5	-60.3	3.6	1.51e+00	0	33	104	0	60	41807
2026-01-28 23:13:09.64	127.57	48.28	-45.5	-60.3	3.6	1.51e+00	0	33	104	0	60	41881
2026-01-28 23:13:10.63	128.47	48.05	-45.4	-60.3	3.6	1.51e+00	0	33	104	0	60	41773
2026-01-28 23:13:11.61	129.34	47.82	-45.5	-60.2	3.5	1.51e+00	0	33	104	0	60	41521
2026-01-28 23:13:12.59	130.20	47.58	-45.5	-60.2	3.6	1.51e+00	0	33	104	0	60	41509
2026-01-28 23:13:13.57	131.04	47.34	-45.5	-60.2	3.6	1.51e+00	0	33	104	0	60	41413
2026-01-28 23:13:14.55	131.87	47.09	-45.4	-60.2	3.6	1.51e+00	0	33	104	0	60	41472
2026-01-28 23:13:15.53	132.69	46.84	-45.5	-60.2	3.6	1.51e+00	0	33	104	0	60	41418
2026-01-28 23:13:16.50	133.49	46.59	-45.4	-60.2	3.6	1.51e+00	0	33	104	0	60	41533
2026-01-28 23:13:17.48	134.28	46.33	-45.4	-60.2	3.6	1.51e+00	0	33	104	0	60	41454
2026-01-28 23:13:18.46	135.06	46.07	-45.5	-60.2	3.6	1.51e+00	0	33	104	0	60	41643
2026-01-28 23:13:19.44	135.82	45.80	-45.6	-60.2	3.6	1.51e+00	0	33	104	0	60	41616
2026-01-28 23:13:20.42	136.57	45.53	-45.5	-60.3	3.6	1.51e+00	0	33	104	0	60	41806
2026-01-28 23:13:21.40	137.31	45.26	-45.5	-60.3	3.6	1.51e+00	0	33	104	0	60	41853
2026-01-28 23:13:22.38	138.04	44.98	-45.4	-60.2	3.6	1.51e+00	0	33	104	0	60	41671
2026-01-28 23:13:23.36	138.75	44.70	-45.6	-60.3	3.6	1.51e+00	0	33	104	0	60	41860
2026-01-28 23:13:24.34	139.45	44.42	-45.5	-60.2	3.6	1.51e+00	0	33	104	0	60	41427
2026-01-28 23:13:25.32	140.14	44.14	-45.5	-60.2	3.6	1.51e+00	0	33	104	0	60	41484
2026-01-28 23:13:26.29	140.80	43.86	-45.4	-60.2	3.6	1.51e+00	0	33	104	0	60	41493
2026-01-28 23:13:27.27	141.47	43.57	-45.5	-60.2	3.6	1.51e+00	0	33	104	0	60	41644
2026-01-28 23:13:28.24	142.11	43.28	-45.4	-60.1	3.6	1.51e+00	0	32	104	0	60	41248
2026-01-28 23:13:29.22	142.75	43.00	-45.5	-60.1	3.6	1.51e+00	0	33	104	0	60	41258
2026-01-28 23:13:30.19	143.37	42.71	-45.4	-60.1	3.6	1.51e+00	0	33	104	0	60	40961
2026-01-28 23:13:31.17	143.99	42.42	-45.6	-60.3	3.6	1.51e+00	0	33	104	0	60	41966
2026-01-28 23:13:32.14	144.58	42.13	-45.5	-60.2	3.6	1.51e+00	0	33	104	0	60	41677
2026-01-28 23:13:33.12	145.18	41.83	-45.5	-60.2	3.6	1.51e+00	0	33	104	0	60	41605
2026-01-28 23:13:34.10	145.76	41.54	-45.5	-60.2	3.6	1.51e+00	0	33	104	0	60	41567
2026-01-28 23:13:35.08	146.33	41.24	-45.6	-60.3	3.6	1.51e+00	0	33	104	0	60	42065
2026-01-28 23:13:36.06	146.89	40.95	-45.6	-60.3	3.6	1.51e+00	0	33	104	0	60	42175
2026-01-28 23:13:37.04	147.44	40.65	-45.6	-60.2	3.6	1.51e+00	0	32	104	0	60	41617
2026-01-28 23:13:38.02	147.98	40.36	-45.4	-60.3	3.6	1.51e+00	0	33	104	0	60	41751
2026-01-28 23:13:38.99	148.50	40.07	-45.6	-60.3	3.6	1.51e+00	0	33	104	0	60	42222
2026-01-28 23:13:39.97	149.02	39.77	-45.6	-60.3	3.6	1.51e+00	0	33	104	0	60	41837
2026-01-28 23:13:40.96	149.54	39.48	-45.6	-60.3	3.6	1.51e+00	0	33	104	0	60	41754
2026-01-28 23:13:41.93	150.03	39.19	-45.5	-60.2	3.5	1.51e+00	0	33	104	0	60	41630
2026-01-28 23:13:42.91	150.53	38.89	-45.7	-60.4	3.6	1.51e+00	0	32	104	0	60	42254
2026-01-28 23:13:43.89	151.01	38.60	-45.5	-60.4	3.6	1.51e+00	0	33	104	0	60	42446
2026-01-28 23:13:44.87	151.48	38.31	-45.6	-60.3	3.6	1.51e+00	0	33	104	0	60	42005
2026-01-28 23:13:45.85	151.95	38.02	-45.6	-60.4	3.6	1.51e+00	0	33	104	0	60	42602
2026-01-28 23:13:46.83	152.40	37.73	-45.6	-60.4	3.6	1.51e+00	0	33	104	0	60	42266
2026-01-28 23:13:47.81	152.85	37.44	-45.6	-60.3	3.6	1.51e+00	0	33	104	0	60	42051
2026-01-28 23:13:48.79	153.29	37.15	-45.6	-60.3	3.6	1.51e+00	0	33	104	0	60	41803
2026-01-28 23:13:49.77	153.72	36.87	-45.5	-60.3	3.6	1.51e+00	0	33	104	0	60	42045
2026-01-28 23:13:50.75	154.14	36.58	-45.5	-60.3	3.6	1.51e+00	0	33	104	0	60	41976
2026-01-28 23:13:51.73	154.56	36.30	-45.5	-60.2	3.6	1.51e+00	0	33	104	0	60	41720
2026-01-28 23:13:52.71	154.97	36.01	-45.5	-60.2	3.6	1.51e+00	0	33	104	0	60	41689
2026-01-28 23:13:53.68	155.37	35.73	-45.5	-60.2	3.6	1.51e+00	0	33	104	0	60	41582
2026-01-28 23:13:54.66	155.76	35.45	-45.5	-60.2	3.6	1.51e+00	0	33	104	0	60	41703
2026-01-28 23:13:55.64	156.15	35.18	-45.5	-60.2	3.6	1.51e+00	0	33	104	0	60	41702
2026-01-28 23:13:56.62	156.53	34.90	-45.5	-60.2	3.6	1.51e+00	0	33	104	0	60	41683
2026-01-28 23:13:57.60	156.90	34.62	-45.5	-60.2	3.6	1.51e+00	0	33	104	0	60	41451
2026-01-28 23:13:58.57	157.26	34.35	-45.5	-60.2	3.6	1.51e+00	0	33	104	0	60	41706
2026-01-28 23:13:59.56	157.63	34.08	-45.5	-60.2	3.6	1.51e+00	0	33	104	0	60	41529
2026-01-28 23:14:00.54	157.98	33.81	-45.5	-60.2	3.6	1.51e+00	0	33	104	0	60	41504
2026-01-28 23:14:01.52	158.33	33.54	-45.5	-60.2	3.6	1.51e+00	0	33	104	0	60	41565
2026-01-28 23:14:02.50	158.67	33.27	-45.4	-60.2	3.6	1.51e+00	0	33	104	0	60	41454
2026-01-28 23:14:03.48	159.01	33.00	-45.5	-60.2	3.6	1.51e+00	0	33	104	0	60	41487
2026-01-28 23:14:04.46	159.34	32.74	-45.5	-60.1	3.6	1.51e+00	0	33	104	0	60	41263
2026-01-28 23:14:05.44	159.67	32.48	-45.4	-60.2	3.6	1.51e+00	0	32	104	0	60	41272
2026-01-28 23:14:06.41	159.98	32.22	-45.5	-60.2	3.6	1.51e+00	0	33	104	0	60	41355
2026-01-28 23:14:07.39	160.30	31.96	-45.5	-60.2	3.6	1.51e+00	0	33	104	0	60	41685
2026-01-28 23:14:08.37	160.61	31.70	-45.5	-60.2	3.6	1.51e+00	0	33	104	0	60	41499
2026-01-28 23:14:09.34	160.91	31.45	-45.5	-60.1	3.6	1.51e+00	0	33	104	0	60	41174
2026-01-28 23:14:10.32	161.21	31.20	-45.5	-60.2	3.6	1.51e+00	0	33	104	0	60	41295
2026-01-28 23:14:11.30	161.50	30.94	-45.5	-60.2	3.6	1.51e+00	0	33	104	0	60	41496
2026-01-28 23:14:12.28	161.79	30.69	-45.5	-60.2	3.6	1.51e+00	0	33	104	0	60	41439
2026-01-28 23:14:13.26	162.07	30.45	-45.4	-60.2	3.6	1.51e+00	0	33	104	0	60	41423
2026-01-28 23:14:14.24	162.35	30.20	-45.4	-60.2	3.6	1.51e+00	0	33	104	0	60	41281
2026-01-28 23:14:15.22	162.63	29.96	-45.5	-60.2	3.6	1.51e+00	0	33	104	0	60	41446
2026-01-28 23:14:16.20	162.90	29.71	-45.4	-60.1	3.6	1.51e+00	0	33	104	0	60	41244
2026-01-28 23:14:17.18	163.17	29.47	-45.5	-60.2	3.6	1.51e+00	0	33	104	0	60	41486
2026-01-28 23:14:18.17	163.43	29.23	-45.5	-60.1	3.6	1.51e+00	0	33	104	0	60	41076
2026-01-28 23:14:19.14	163.69	29.00	-45.4	-60.2	3.6	1.51e+00	0	33	104	0	60	41514
2026-01-28 23:14:20.12	163.94	28.76	-45.5	-60.2	3.6	1.51e+00	0	33	104	0	60	41276
2026-01-28 23:14:21.10	164.19	28.53	-45.3	-60.1	3.6	1.51e+00	0	33	104	0	60	41010
2026-01-28 23:14:22.09	164.44	28.29	-45.4	-60.1	3.6	1.51e+00	0	33	104	0	60	41019
2026-01-28 23:14:23.06	164.68	28.06	-45.5	-60.2	3.6	1.51e+00	0	33	104	0	60	41443
2026-01-28 23:14:24.04	164.92	27.84	-45.4	-60.2	3.6	1.51e+00	0	33	104	0	60	41295
2026-01-28 23:14:25.02	165.16	27.61	-45.4	-60.1	3.6	1.51e+00	0	33	104	0	60	41154
2026-01-28 23:14:26.00	165.39	27.39	-45.4	-60.2	3.5	1.51e+00	0	33	104	0	60	41423
2026-01-28 23:14:26.98	165.62	27.16	-45.5	-60.1	3.6	1.51e+00	0	33	104	0	60	41229
2026-01-28 23:14:27.96	165.84	26.94	-45.5	-60.2	3.6	1.51e+00	0	33	104	0	60	41296
2026-01-28 23:14:28.95	166.06	26.72	-45.5	-60.1	3.6	1.51e+00	0	33	104	0	60	41204
2026-01-28 23:14:29.93	166.28	26.50	-45.5	-60.1	3.6	1.51e+00	0	33	104	0	60	41262
2026-01-28 23:14:30.90	166.50	26.29	-45.5	-60.2	3.6	1.51e+00	0	33	104	0	60	41360
2026-01-28 23:14:31.88	166.71	26.07	-45.5	-60.2	3.6	1.51e+00	0	33	104	0	60	41404
2026-01-28 23:14:32.86	166.92	25.86	-45.5	-60.2	3.6	1.51e+00	0	33	104	0	60	41466
2026-01-28 23:14:33.84	167.12	25.65	-45.5	-60.1	3.6	1.51e+00	0	33	104	0	60	41243
2026-01-28 23:14:34.82	167.33	25.44	-45.4	-60.2	3.6	1.51e+00	0	33	104	0	60	41380
2026-01-28 23:14:35.81	167.53	25.23	-45.4	-60.1	3.6	1.51e+00	0	33	104	0	60	41180
2026-01-28 23:14:36.78	167.72	25.03	-45.4	-60.1	3.6	1.51e+00	0	33	104	0	60	41262
2026-01-28 23:14:37.76	167.92	24.82	-45.4	-60.1	3.6	1.51e+00	0	33	104	0	60	41230
2026-01-28 23:14:38.74	168.11	24.62	-45.5	-60.2	3.6	1.51e+00	0	33	104	0	60	41390
2026-01-28 23:14:39.72	168.30	24.42	-45.5	-60.1	3.6	1.51e+00	0	33	104	0	60	41010
2026-01-28 23:14:40.70	168.49	24.22	-45.5	-60.2	3.6	1.51e+00	0	33	104	0	60	41326
2026-01-28 23:14:41.68	168.67	24.02	-45.4	-60.1	3.6	1.51e+00	0	33	104	0	60	40952
2026-01-28 23:14:42.66	168.85	23.83	-45.4	-60.1	3.6	1.51e+00	0	33	104	0	60	41050
2026-01-28 23:14:43.64	169.03	23.63	-45.4	-60.1	3.6	1.51e+00	0	33	104	0	60	40998
2026-01-28 23:14:44.62	169.21	23.44	-45.4	-60.1	3.6	1.51e+00	0	33	104	0	60	41147
2026-01-28 23:14:45.60	169.38	23.25	-45.4	-60.1	3.6	1.51e+00	0	33	104	0	60	41087
2026-01-28 23:14:46.59	169.56	23.05	-45.4	-60.2	3.6	1.51e+00	0	33	104	0	60	41288
2026-01-28 23:14:47.56	169.72	22.87	-45.2	-60.1	3.6	1.51e+00	0	33	104	0	60	41221
2026-01-28 23:14:48.54	169.89	22.68	-45.4	-60.1	3.6	1.51e+00	0	33	104	0	60	40999
2026-01-28 23:14:49.53	170.06	22.49	-45.4	-60.1	3.6	1.51e+00	0	33	104	0	60	40861
2026-01-28 23:14:50.51	170.22	22.31	-45.4	-60.1	3.6	1.51e+00	0	33	104	0	60	41019
2026-01-28 23:14:51.49	170.38	22.12	-45.1	-60.1	3.6	1.51e+00	0	33	104	0	60	40870
2026-01-28 23:14:52.48	170.54	21.94	-45.1	-60.1	3.6	1.51e+00	0	33	104	0	60	41059
2026-01-28 23:14:53.45	170.70	21.76	-45.2	-60.1	3.6	1.51e+00	0	33	104	0	60	41059
2026-01-28 23:14:54.43	170.85	21.58	-45.2	-60.2	3.6	1.51e+00	0	33	104	0	60	41286
2026-01-28 23:14:55.42	171.01	21.40	-45.2	-60.1	3.6	1.51e+00	0	33	104	0	60	41109
2026-01-28 23:14:56.39	171.16	21.23	-45.2	-60.1	3.6	1.51e+00	0	33	104	0	60	41159
2026-01-28 23:14:57.37	171.31	21.06	-45.4	-60.1	3.6	1.51e+00	0	33	104	0	60	40903
2026-01-28 23:14:58.35	171.46	20.88	-45.2	-60.1	3.6	1.51e+00	0	33	104	0	60	41140
2026-01-28 23:14:59.33	171.60	20.71	-45.3	-60.1	3.6	1.51e+00	0	33	104	0	60	41046
2026-01-28 23:15:00.31	171.74	20.54	-45.3	-60.1	3.6	1.51e+00	0	33	104	0	60	41003
2026-01-28 23:15:01.28	171.89	20.37	-45.3	-60.1	3.6	1.51e+00	0	33	104	0	60	41032
2026-01-28 23:15:02.26	172.03	20.20	-45.2	-60.1	3.6	1.51e+00	0	33	104	0	60	40921
2026-01-28 23:15:03.23	172.16	20.04	-45.1	-60.1	3.6	1.51e+00	0	33	104	0	60	40906
2026-01-28 23:15:04.21	172.30	19.87	-44.9	-60.1	3.6	1.51e+00	0	33	104	0	60	40936
2026-01-28 23:15:05.19	172.44	19.71	-45.3	-60.1	3.6	1.51e+00	0	33	104	0	60	40969
2026-01-28 23:15:06.17	172.57	19.55	-45.3	-60.1	3.6	1.51e+00	0	33	104	0	60	40923
2026-01-28 23:15:07.15	172.70	19.39	-45.0	-60.1	3.6	1.51e+00	0	33	104	0	60	40971
2026-01-28 23:15:08.12	172.83	19.23	-45.1	-60.1	3.6	1.51e+00	0	33	104	0	60	41183
2026-01-28 23:15:09.10	172.96	19.07	-44.9	-60.1	3.6	1.51e+00	0	33	104	0	60	41200
2026-01-28 23:15:10.08	173.09	18.91	-45.1	-60.0	3.6	1.51e+00	0	33	104	0	60	40763
2026-01-28 23:15:11.06	173.21	18.75	-45.3	-60.2	3.6	1.51e+00	0	33	104	0	60	41371
2026-01-28 23:15:12.04	173.34	18.60	-45.1	-60.0	3.6	1.51e+00	0	33	104	0	60	40730
2026-01-28 23:15:13.02	173.46	18.44	-45.1	-60.1	3.6	1.51e+00	0	33	104	0	60	41061
2026-01-28 23:15:13.99	173.58	18.29	-45.1	-60.0	3.6	1.51e+00	0	33	104	0	60	40680
2026-01-28 23:15:14.97	173.70	18.14	-45.3	-60.1	3.6	1.51e+00	0	33	104	0	60	40844
2026-01-28 23:15:15.95	173.82	17.98	-45.4	-60.0	3.6	1.51e+00	0	33	104	0	60	40678
2026-01-28 23:15:16.93	173.94	17.83	-45.1	-60.1	3.5	1.51e+00	0	33	104	0	60	41009
2026-01-28 23:15:17.91	174.06	17.68	-45.1	-60.0	3.6	1.51e+00	0	33	104	0	60	40607
2026-01-28 23:15:18.89	174.17	17.54	-45.4	-60.1	3.6	1.51e+00	0	33	104	0	60	40908
2026-01-28 23:15:19.87	174.29	17.39	-45.4	-60.1	3.6	1.51e+00	0	33	104	0	60	40902
2026-01-28 23:15:20.85	174.40	17.24	-45.4	-60.1	3.6	1.51e+00	0	33	104	0	60	41025
2026-01-28 23:15:21.83	174.51	17.10	-45.4	-60.1	3.6	1.51e+00	0	33	104	0	60	40935
2026-01-28 23:15:22.81	174.62	16.95	-45.4	-60.1	3.6	1.51e+00	0	33	104	0	60	41208
2026-01-28 23:15:23.79	174.73	16.81	-45.4	-60.0	3.6	1.51e+00	0	33	104	0	60	40621
2026-01-28 23:15:24.77	174.84	16.67	-45.4	-60.1	3.6	1.51e+00	0	33	104	0	60	41077
2026-01-28 23:15:25.75	174.95	16.53	-45.4	-60.1	3.6	1.51e+00	0	33	104	0	60	40910
2026-01-28 23:15:26.73	175.05	16.39	-45.5	-60.1	3.6	1.51e+00	0	33	104	0	60	41052
2026-01-28 23:15:27.70	175.16	16.25	-45.3	-60.0	3.6	1.51e+00	0	33	104	0	60	40472
2026-01-28 23:15:28.68	175.26	16.11	-45.4	-60.1	3.6	1.51e+00	0	33	104	0	60	41054
2026-01-28 23:15:29.66	175.36	15.97	-45.4	-60.0	3.6	1.51e+00	0	33	104	0	60	40744
2026-01-28 23:15:30.63	175.46	15.84	-45.4	-60.2	3.6	1.51e+00	0	33	104	0	60	41280
2026-01-28 23:15:31.61	175.56	15.70	-45.4	-60.1	3.6	1.51e+00	0	33	104	0	60	41169
2026-01-28 23:15:32.60	175.66	15.57	-45.5	-60.2	3.6	1.51e+00	0	33	104	0	60	41274
2026-01-28 23:15:33.58	175.76	15.43	-45.4	-60.1	3.6	1.51e+00	0	33	104	0	60	41041
2026-01-28 23:15:34.55	175.86	15.30	-45.4	-60.2	3.6	1.51e+00	0	33	104	0	60	41442
2026-01-28 23:15:35.53	175.95	15.17	-45.4	-60.2	3.6	1.51e+00	0	33	104	0	60	41285
2026-01-28 23:15:36.51	176.05	15.04	-45.4	-60.2	3.6	1.51e+00	0	33	104	0	60	41593
2026-01-28 23:15:37.49	176.14	14.91	-45.4	-60.2	3.6	1.51e+00	0	33	104	0	60	41415
2026-01-28 23:15:38.47	176.24	14.78	-45.2	-60.2	3.6	1.51e+00	0	33	104	0	60	41422
2026-01-28 23:15:39.44	176.33	14.65	-45.1	-60.2	3.6	1.51e+00	0	33	104	0	60	41472
2026-01-28 23:15:40.42	176.42	14.52	-45.1	-60.2	3.6	1.51e+00	0	33	104	0	60	41394
2026-01-28 23:15:41.40	176.51	14.40	-45.2	-60.1	3.6	1.51e+00	0	33	104	0	60	41176
2026-01-28 23:15:42.38	176.60	14.27	-45.2	-60.1	3.6	1.51e+00	0	33	104	0	60	41251
2026-01-28 23:15:43.36	176.69	14.14	-45.2	-60.1	3.6	1.51e+00	0	33	104	0	60	41118
2026-01-28 23:15:44.34	176.78	14.02	-45.4	-60.4	3.6	1.51e+00	0	33	104	0	60	42439
2026-01-28 23:15:45.32	176.87	13.90	-45.0	-60.1	3.6	1.51e+00	0	33	104	0	60	40977
2026-01-28 23:15:46.31	176.96	13.77	-45.2	-60.2	3.6	1.51e+00	0	33	104	0	60	41325
2026-01-28 23:15:47.29	177.04	13.65	-45.2	-60.3	3.6	1.51e+00	0	33	104	0	60	41789
2026-01-28 23:15:48.26	177.13	13.53	-45.1	-60.3	3.6	1.51e+00	0	33	104	0	60	41749
2026-01-28 23:15:49.24	177.21	13.41	-45.0	-60.2	3.6	1.51e+00	0	33	104	0	60	41300
2026-01-28 23:15:50.21	177.29	13.29	-45.2	-60.2	3.6	1.51e+00	0	33	104	0	60	41286
2026-01-28 23:15:51.19	177.37	13.17	-45.1	-60.2	3.6	1.51e+00	0	33	104	0	60	41346
2026-01-28 23:15:52.17	177.46	13.05	-45.0	-60.1	3.6	1.51e+00	0	33	104	0	60	41020
2026-01-28 23:15:53.15	177.54	12.93	-45.0	-60.2	3.6	1.51e+00	0	33	104	0	60	41381
2026-01-28 23:15:54.13	177.62	12.82	-45.0	-60.1	3.6	1.51e+00	0	33	104	0	60	40997
2026-01-28 23:15:55.10	177.70	12.70	-45.0	-60.1	3.6	1.51e+00	0	33	104	0	60	41179
2026-01-28 23:15:56.08	177.78	12.59	-45.1	-60.0	3.6	1.51e+00	0	33	104	0	60	40572
2026-01-28 23:15:57.06	177.85	12.47	-45.1	-60.1	3.6	1.51e+00	0	33	104	0	60	41047
2026-01-28 23:15:58.04	177.93	12.36	-45.0	-60.1	3.6	1.51e+00	0	33	104	0	60	40998
2026-01-28 23:15:59.02	178.01	12.24	-45.2	-60.1	3.6	1.51e+00	0	33	104	0	60	40872
2026-01-28 23:16:00.00	178.09	12.13	-45.3	-60.1	3.6	1.51e+00	0	33	104	0	60	40958
2026-01-28 23:16:00.98	178.16	12.02	-45.1	-60.1	3.6	1.51e+00	0	33	104	0	60	41075
2026-01-28 23:16:01.95	178.23	11.91	-45.0	-60.1	3.6	1.51e+00	0	33	104	0	60	41084
2026-01-28 23:16:02.93	178.31	11.80	-45.3	-60.1	3.6	1.51e+00	0	33	104	0	60	41206
2026-01-28 23:16:03.91	178.38	11.69	-45.3	-60.1	3.6	1.51e+00	0	33	104	0	60	41088
2026-01-28 23:16:04.89	178.46	11.58	-45.3	-60.2	3.6	1.51e+00	0	33	104	0	60	41478
2026-01-28 23:16:05.87	178.53	11.47	-45.3	-60.1	3.6	1.51e+00	0	33	104	0	60	40920
2026-01-28 23:16:06.85	178.60	11.36	-45.5	-60.2	3.6	1.51e+00	0	33	104	0	60	41495
2026-01-28 23:16:07.82	178.67	11.25	-45.3	-60.0	3.6	1.51e+00	0	33	104	0	60	40784
2026-01-28 23:16:08.80	178.74	11.14	-45.3	-60.2	3.6	1.51e+00	0	33	104	0	60	41736
2026-01-28 23:16:09.78	178.81	11.04	-45.3	-60.2	3.6	1.51e+00	0	33	104	0	60	41291
2026-01-28 23:16:10.76	178.88	10.93	-45.4	-60.1	3.6	1.51e+00	0	33	104	0	60	41128
2026-01-28 23:16:11.74	178.95	10.83	-45.3	-60.1	3.6	1.51e+00	0	33	104	0	60	40921
2026-01-28 23:16:12.71	179.02	10.72	-45.4	-60.2	3.6	1.51e+00	0	33	104	0	60	41358
2026-01-28 23:16:13.69	179.08	10.62	-45.4	-60.2	3.6	1.51e+00	0	33	104	0	60	41340
2026-01-28 23:16:14.68	179.15	10.51	-45.4	-60.1	3.6	1.51e+00	0	33	104	0	60	41079
2026-01-28 23:16:15.66	179.22	10.41	-45.0	-60.0	3.6	1.51e+00	0	33	104	0	60	40536
2026-01-28 23:16:16.64	179.28	10.31	-45.5	-60.2	3.6	1.51e+00	0	33	104	0	60	41568
2026-01-28 23:16:17.62	179.35	10.20	-45.3	-60.1	3.6	1.51e+00	0	33	104	0	60	41219
2026-01-28 23:16:18.60	179.41	10.10	-45.0	-60.1	3.6	1.51e+00	0	33	104	0	60	41067
2026-01-28 23:16:19.58	179.48	10.00	-45.0	-60.0	3.6	1.51e+00	0	33	104	0	60	40573
2026-01-28 23:16:20.56	179.54	9.90	-45.2	-60.2	3.6	1.51e+00	0	33	104	0	60	41315
2026-01-28 23:16:21.54	179.61	9.80	-45.2	-60.1	3.6	1.51e+00	0	33	104	0	60	41109
2026-01-28 23:16:22.52	179.67	9.70	-45.0	-60.0	3.6	1.51e+00	0	33	104	0	60	40512
2026-01-28 23:16:23.51	179.73	9.60	-44.9	-59.9	3.6	1.51e+00	0	33	104	0	60	40232
2026-01-28 23:16:24.49	179.79	9.50	-45.1	-60.1	3.6	1.51e+00	0	33	104	0	60	40943
2026-01-28 23:16:25.47	179.86	9.40	-45.2	-60.1	3.6	1.51e+00	0	33	104	0	60	41083
2026-01-28 23:16:26.45	179.92	9.31	-45.1	-60.0	3.6	1.51e+00	0	33	104	0	60	40338
2026-01-28 23:16:27.43	179.98	9.21	-44.9	-60.0	3.6	1.51e+00	0	33	104	0	60	40369
2026-01-28 23:16:28.41	180.04	9.11	-45.0	-60.0	3.5	1.51e+00	0	33	104	0	60	40768
2026-01-28 23:16:29.38	180.10	9.02	-45.2	-60.1	3.6	1.51e+00	0	33	104	0	60	41114
2026-01-28 23:16:30.37	180.16	8.92	-44.9	-60.0	3.6	1.51e+00	0	33	104	0	60	40507
2026-01-28 23:16:31.35	180.21	8.83	-45.0	-59.9	3.6	1.51e+00	0	33	104	0	60	40204
2026-01-28 23:16:32.33	180.27	8.73	-45.0	-60.0	3.6	1.51e+00	0	33	104	0	60	40462
2026-01-28 23:16:33.30	180.33	8.64	-45.1	-60.1	3.6	1.51e+00	0	33	104	0	60	41145
2026-01-28 23:16:34.28	180.39	8.54	-45.1	-60.0	3.6	1.51e+00	0	33	104	0	60	40414
2026-01-28 23:16:35.26	180.44	8.45	-44.9	-59.9	3.6	1.51e+00	0	33	104	0	60	40016
2026-01-28 23:16:36.24	180.50	8.36	-44.8	-59.8	3.6	1.51e+00	0	33	104	0	60	39715
2026-01-28 23:16:37.22	180.56	8.26	-45.3	-60.1	3.6	1.51e+00	0	33	104	0	60	40975
2026-01-28 23:16:38.20	180.61	8.17	-45.2	-60.0	3.6	1.51e+00	0	33	104	0	60	40706
2026-01-28 23:16:39.18	180.67	8.08	-44.8	-59.9	3.6	1.51e+00	0	33	104	0	60	40290
2026-01-28 23:16:40.16	180.72	7.99	-45.0	-59.8	3.6	1.51e+00	0	33	104	0	60	39832
2026-01-28 23:16:41.14	180.78	7.90	-45.0	-60.0	3.6	1.51e+00	0	33	104	0	60	40755
2026-01-28 23:16:42.12	180.83	7.81	-45.1	-60.0	3.6	1.51e+00	0	33	104	0	60	40449
2026-01-28 23:16:43.10	180.88	7.72	-45.1	-59.8	3.6	1.51e+00	0	33	104	0	60	39761
2026-01-28 23:16:44.08	180.94	7.63	-44.8	-59.8	3.6	1.51e+00	0	33	104	0	60	39723
2026-01-28 23:16:45.06	180.99	7.54	-45.0	-60.1	3.6	1.51e+00	0	33	104	0	60	40879
2026-01-28 23:16:46.04	181.04	7.45	-45.1	-60.0	3.6	1.51e+00	0	33	104	0	60	40658
2026-01-28 23:16:47.02	181.09	7.36	-44.9	-59.8	3.6	1.51e+00	0	33	104	0	60	39413
2026-01-28 23:16:48.00	181.15	7.28	-45.0	-59.9	3.6	1.51e+00	0	33	104	0	60	39965
2026-01-28 23:16:48.97	181.20	7.19	-45.4	-60.2	3.6	1.51e+00	0	33	104	0	60	41448
2026-01-28 23:16:49.95	181.25	7.10	-45.1	-60.1	3.6	1.51e+00	0	33	104	0	60	41024
2026-01-28 23:16:50.93	181.30	7.01	-44.8	-59.8	3.6	1.51e+00	0	33	104	0	60	39504
2026-01-28 23:16:51.91	181.35	6.93	-45.2	-60.0	3.6	1.51e+00	0	33	104	0	60	40512
2026-01-28 23:16:52.88	181.40	6.84	-45.3	-60.2	3.6	1.51e+00	0	33	104	0	60	41491
2026-01-28 23:16:53.86	181.45	6.76	-45.1	-60.1	3.6	1.51e+00	0	33	104	0	60	40883
2026-01-28 23:16:54.84	181.50	6.67	-45.1	-59.8	3.6	1.51e+00	0	33	104	0	60	39806
2026-01-28 23:16:55.82	181.55	6.59	-44.9	-59.7	3.6	1.51e+00	0	33	104	0	60	39310
2026-01-28 23:16:56.80	181.59	6.50	-45.3	-60.2	3.6	1.51e+00	0	33	104	0	60	41455
2026-01-28 23:16:57.78	181.64	6.42	-45.2	-59.9	3.6	1.51e+00	0	33	104	0	60	40296
2026-01-28 23:16:58.76	181.69	6.33	-45.0	-59.9	3.6	1.51e+00	0	33	104	0	60	39976
2026-01-28 23:16:59.75	181.74	6.25	-44.7	-59.7	3.6	1.51e+00	0	33	104	0	60	38986
2026-01-28 23:17:00.73	181.79	6.17	-45.2	-60.0	3.6	1.51e+00	0	33	104	0	60	40561
2026-01-28 23:17:01.70	181.83	6.09	-44.9	-59.9	3.6	1.51e+00	0	33	104	0	60	40263
2026-01-28 23:17:02.69	181.88	6.00	-45.4	-60.1	3.6	1.51e+00	0	33	104	0	60	41246
2026-01-28 23:17:03.66	181.93	5.92	-45.2	-60.1	3.6	1.51e+00	0	33	104	0	60	40968
2026-01-28 23:17:04.65	181.97	5.84	-44.9	-59.8	3.6	1.51e+00	0	33	104	0	60	39783
2026-01-28 23:17:05.63	182.02	5.76	-44.7	-59.9	3.6	1.51e+00	0	33	104	0	60	39960
2026-01-28 23:17:06.61	182.06	5.68	-45.1	-60.1	3.6	1.51e+00	0	33	104	0	60	41073
2026-01-28 23:17:07.59	182.11	5.60	-45.1	-60.1	3.6	1.51e+00	0	33	104	0	60	40936
2026-01-28 23:17:08.57	182.15	5.51	-44.6	-59.8	3.6	1.51e+00	0	33	104	0	60	39429
2026-01-28 23:17:09.54	182.20	5.44	-44.9	-59.8	3.6	1.51e+00	0	33	104	0	60	39641
2026-01-28 23:17:10.52	182.24	5.36	-45.0	-59.9	3.6	1.51e+00	0	33	104	0	60	40148
2026-01-28 23:17:11.50	182.29	5.28	-45.1	-60.0	3.6	1.51e+00	0	33	104	0	60	40623
2026-01-28 23:17:12.48	182.33	5.20	-44.7	-59.8	3.5	1.51e+00	0	33	104	0	60	39447
2026-01-28 23:17:13.46	182.37	5.12	-44.7	-59.7	3.6	1.51e+00	0	33	104	0	60	39270
2026-01-28 23:17:14.44	182.42	5.04	-44.5	-59.8	3.6	1.51e+00	0	33	104	0	60	39514
2026-01-28 23:17:15.42	182.46	4.96	-45.0	-59.9	3.6	1.51e+00	0	33	104	0	60	40304
2026-01-28 23:17:16.40	182.50	4.88	-44.3	-59.6	3.5	1.51e+00	0	33	104	0	60	38639
2026-01-28 23:17:17.38	182.54	4.81	-44.3	-59.7	3.5	1.51e+00	0	33	104	0	60	39293
2026-01-28 23:17:18.36	182.59	4.73	-44.2	-59.6	3.6	1.51e+00	0	33	104	0	60	38533
2026-01-28 23:17:19.34	182.63	4.65	-44.8	-59.9	3.6	1.51e+00	0	33	104	0	60	39902
2026-01-28 23:17:20.32	182.67	4.57	-44.5	-59.5	3.6	1.51e+00	0	33	104	0	60	38361
2026-01-28 23:17:21.30	182.71	4.50	-44.4	-59.6	3.6	1.51e+00	0	33	104	0	60	38686
2026-01-28 23:17:22.28	182.75	4.42	-44.4	-59.4	3.6	1.51e+00	0	33	104	0	60	37954
2026-01-28 23:17:23.26	182.79	4.35	-44.4	-59.7	3.6	1.51e+00	0	33	104	0	60	39389
2026-01-28 23:17:24.24	182.83	4.27	-44.4	-59.6	3.6	1.51e+00	0	33	104	0	60	38540
2026-01-28 23:17:25.22	182.87	4.19	-44.5	-59.6	3.6	1.51e+00	0	33	104	0	60	38761
2026-01-28 23:17:26.20	182.91	4.12	-44.5	-59.3	3.6	1.51e+00	0	33	104	0	60	37422
2026-01-28 23:17:27.18	182.95	4.04	-44.4	-59.6	3.6	1.51e+00	0	33	104	0	60	38897
2026-01-28 23:17:28.17	182.99	3.97	-44.5	-59.4	3.6	1.51e+00	0	33	104	0	60	37841
2026-01-28 23:17:29.14	183.03	3.90	-44.5	-59.6	3.6	1.51e+00	0	33	104	0	60	38534
2026-01-28 23:17:30.12	183.07	3.82	-44.3	-59.2	3.6	1.51e+00	0	33	104	0	60	36885
2026-01-28 23:17:31.10	183.11	3.75	-44.7	-59.6	3.6	1.51e+00	0	33	104	0	60	38911
2026-01-28 23:17:32.08	183.15	3.67	-44.4	-59.0	3.6	1.51e+00	0	33	104	0	60	36330
2026-01-28 23:17:33.05	183.19	3.60	-44.5	-59.3	3.6	1.51e+00	0	33	104	0	60	37619
2026-01-28 23:17:34.03	183.23	3.53	-44.1	-58.9	3.6	1.51e+00	0	33	104	0	60	35547
2026-01-28 23:17:35.01	183.26	3.46	-44.0	-58.8	3.6	1.51e+00	0	33	104	0	60	35252
2026-01-28 23:17:35.99	183.30	3.38	-43.9	-58.7	3.6	1.51e+00	0	33	104	0	60	35053
2026-01-28 23:17:36.97	183.34	3.31	-44.0	-58.9	3.6	1.51e+00	0	33	104	0	60	35555
2026-01-28 23:17:37.95	183.38	3.24	-43.7	-58.7	3.6	1.51e+00	0	33	104	0	60	34901
2026-01-28 23:17:38.93	183.41	3.17	-44.6	-59.4	3.6	1.51e+00	0	33	104	0	60	37773
2026-01-28 23:17:39.90	183.45	3.10	-43.9	-58.9	3.6	1.51e+00	0	33	104	0	60	35904
2026-01-28 23:17:40.88	183.49	3.03	-44.2	-59.0	3.6	1.51e+00	0	33	104	0	60	36170
2026-01-28 23:17:41.86	183.52	2.95	-44.3	-59.3	3.6	1.51e+00	0	33	104	0	60	37514
2026-01-28 23:17:42.84	183.56	2.88	-44.5	-59.7	3.6	1.51e+00	0	33	104	0	60	39200
2026-01-28 23:17:43.82	183.60	2.81	-44.8	-59.9	3.6	1.51e+00	0	33	104	0	60	40321
2026-01-28 23:17:44.80	183.63	2.74	-45.3	-60.1	3.6	1.51e+00	0	33	104	0	60	41133
2026-01-28 23:17:45.78	183.67	2.67	-45.5	-60.3	3.6	1.51e+00	0	33	104	0	60	41868
2026-01-28 23:17:46.76	183.70	2.60	-45.6	-60.4	3.6	1.51e+00	0	33	104	0	60	42422
2026-01-28 23:17:47.74	183.74	2.53	-45.8	-60.6	3.6	1.51e+00	0	33	104	0	60	43263
2026-01-28 23:17:48.72	183.77	2.46	-45.8	-60.5	3.6	1.51e+00	0	33	104	0	60	42927
2026-01-28 23:17:49.70	183.81	2.39	-45.9	-60.6	3.6	1.51e+00	0	33	104	0	60	43229
2026-01-28 23:17:50.68	183.84	2.33	-45.9	-60.6	3.6	1.51e+00	0	33	104	0	60	43534
2026-01-28 23:17:51.66	183.88	2.26	-46.2	-60.9	3.6	1.51e+00	0	33	104	0	60	45230
2026-01-28 23:17:52.65	183.91	2.19	-46.1	-60.9	3.6	1.51e+00	0	33	104	0	60	44946
2026-01-28 23:17:53.62	183.95	2.12	-45.9	-60.7	3.6	1.51e+00	0	33	104	0	60	43805
2026-01-28 23:17:54.60	183.98	2.05	-45.8	-60.7	3.6	1.51e+00	0	33	104	0	60	43923
2026-01-28 23:17:55.58	184.02	1.98	-45.7	-60.6	3.6	1.51e+00	0	33	104	0	60	43653
2026-01-28 23:17:56.56	184.05	1.92	-46.2	-61.0	3.6	1.51e+00	0	33	104	0	60	45547
2026-01-28 23:17:57.55	184.08	1.85	-46.0	-60.7	3.6	1.51e+00	0	33	104	0	60	44067
2026-01-28 23:17:58.53	184.12	1.78	-45.8	-60.6	3.6	1.51e+00	0	33	104	0	60	43361
2026-01-28 23:17:59.51	184.15	1.71	-45.8	-60.6	3.6	1.51e+00	0	33	104	0	60	43210
2026-01-28 23:18:00.48	184.18	1.65	-45.5	-60.5	3.6	1.51e+00	0	33	104	0	60	43047
2026-01-28 23:18:01.46	184.21	1.58	-45.5	-60.5	3.6	1.51e+00	0	33	104	0	60	43052
2026-01-28 23:18:02.44	184.25	1.51	-45.7	-60.5	3.6	1.51e+00	0	33	104	0	60	42783
2026-01-28 23:18:03.42	184.28	1.45	-45.8	-60.5	3.6	1.51e+00	0	33	104	0	60	43149
2026-01-28 23:18:04.40	184.31	1.38	-45.9	-60.6	3.6	1.51e+00	0	33	104	0	60	43423
2026-01-28 23:18:05.38	184.34	1.32	-45.8	-60.6	3.6	1.51e+00	0	33	104	0	60	43356
2026-01-28 23:18:06.36	184.38	1.25	-45.8	-60.4	3.6	1.51e+00	0	33	104	0	60	42648
2026-01-28 23:18:07.34	184.41	1.18	-45.7	-60.4	3.6	1.51e+00	0	33	104	0	60	42658
2026-01-28 23:18:08.32	184.44	1.12	-45.7	-60.4	3.6	1.51e+00	0	33	104	0	60	42539
2026-01-28 23:18:09.30	184.47	1.05	-45.7	-60.4	3.6	1.51e+00	0	33	104	0	60	42637
2026-01-28 23:18:10.28	184.50	0.99	-45.7	-60.5	3.6	1.51e+00	0	33	104	0	60	42752
2026-01-28 23:18:11.26	184.53	0.92	-45.7	-60.4	3.6	1.51e+00	0	32	104	0	60	42515
2026-01-28 23:18:12.24	184.56	0.86	-45.7	-60.4	3.6	1.51e+00	0	33	104	0	60	42499
2026-01-28 23:18:13.22	184.59	0.79	-45.7	-60.4	3.6	1.51e+00	0	33	104	0	60	42464
2026-01-28 23:18:14.20	184.63	0.73	-45.7	-60.4	3.6	1.51e+00	0	33	104	0	60	42334
2026-01-28 23:18:15.18	184.66	0.67	-45.7	-60.4	3.6	1.51e+00	0	33	104	0	60	42334
2026-01-28 23:18:16.17	184.69	0.60	-45.7	-60.4	3.6	1.51e+00	0	33	104	0	60	42258
2026-01-28 23:18:17.14	184.72	0.54	-45.7	-60.3	3.6	1.51e+00	0	33	104	0	60	42136
2026-01-28 23:18:18.12	184.75	0.48	-45.7	-60.4	3.6	1.51e+00	0	33	104	0	60	42386
2026-01-28 23:18:19.09	184.78	0.41	-45.7	-60.3	3.6	1.51e+00	0	33	104	0	60	42202
2026-01-28 23:18:20.07	184.81	0.35	-45.6	-60.4	3.6	1.51e+00	0	33	104	0	60	42434
2026-01-28 23:18:21.04	184.84	0.29	-45.6	-60.4	3.6	1.51e+00	0	33	104	0	60	42260
2026-01-28 23:18:22.03	184.87	0.22	-45.6	-60.3	3.6	1.51e+00	0	33	104	0	60	42120
2026-01-28 23:18:23.01	184.89	0.16	-45.6	-60.4	3.6	1.51e+00	0	33	104	0	60	42323
2026-01-28 23:18:23.99	184.92	0.10	-45.6	-60.4	3.6	1.51e+00	0	33	104	0	60	42448
2026-01-28 23:18:24.97	184.95	0.04	-45.6	-60.3	3.6	1.51e+00	0	33	104	0	60	42088
2026-01-28 23:18:25.95	184.98	-0.03	-45.6	-60.3	3.6	1.51e+00	0	33	104	0	60	42048
2026-01-28 23:18:26.93	185.01	-0.09	-45.6	-60.4	3.6	1.51e+00	0	33	104	0	60	42235

#Closed at: 2026-01-28 23:18:27
#Recorded file [0 MB]: D:/lorett/data/35029_260129_110705.dat