passes_logs/2026/01/28/R4.6S_Anadyr/R4.6S_Anadyr__20260128_213318_KOSAR1-5_rec.log

#Pass ID: 20260128_213318_KOSAR1-5
#Satellite: KOSAR1-5
#Configuration: KOSAR1-5
#almurnet v.1.7.20251203
#Start time: 2026-01-28 21:33:20

#Version: 2.2.20231116
#Station: R4.6S_Anadyr
#Location: 177.4865 lon 64.73178 lat
#TLE: 1 67264U 25313S   26027.76143924  .00010916  00000+0  50329-3 0  9990
#TLE: 2 67264  97.4176 104.7207 0016474 138.6036 221.6451 15.20309833  4594

#Time	Az	El	Level	Level2	SNR	BER	BlckErr	Temp	State	Recorded	gain1	gain2
2026-01-28 21:33:20.32	25.23	0.10	-49.0	-63.9	3.6	1.51e+00	0	28	0	0	60	56393
2026-01-28 21:33:21.32	25.34	0.15	-46.1	-60.8	3.6	1.51e+00	0	29	104	0	60	44457
2026-01-28 21:33:22.33	25.45	0.20	-46.2	-60.9	3.6	1.51e+00	0	29	104	0	60	45229
2026-01-28 21:33:23.34	25.56	0.25	-46.3	-61.0	3.6	1.51e+00	0	29	104	0	60	45419
2026-01-28 21:33:24.35	25.67	0.30	-45.8	-60.5	3.6	1.51e+00	0	29	104	0	60	42804
2026-01-28 21:33:25.36	25.78	0.35	-45.5	-60.2	3.6	1.51e+00	0	29	104	0	60	41612
2026-01-28 21:33:26.37	25.89	0.40	-45.5	-60.2	3.6	1.51e+00	0	29	104	0	60	41365
2026-01-28 21:33:27.38	26.00	0.45	-45.5	-60.2	3.6	1.51e+00	0	29	104	0	60	41446
2026-01-28 21:33:28.39	26.11	0.50	-45.4	-60.2	3.6	1.51e+00	0	29	104	0	60	41679
2026-01-28 21:33:29.40	26.22	0.55	-45.6	-60.3	3.6	1.51e+00	0	29	104	0	60	41770
2026-01-28 21:33:30.41	26.33	0.60	-44.3	-60.2	3.6	1.51e+00	0	29	104	0	60	41587
2026-01-28 21:33:31.42	26.45	0.65	-45.5	-60.2	3.6	1.51e+00	0	29	104	0	60	41533
2026-01-28 21:33:32.43	26.56	0.70	-45.5	-60.2	3.6	1.51e+00	0	29	104	0	60	41436
2026-01-28 21:33:33.45	26.68	0.75	-45.4	-60.1	3.6	1.51e+00	0	29	104	0	60	41234
2026-01-28 21:33:34.45	26.79	0.80	-45.4	-60.1	3.6	1.51e+00	0	29	104	0	60	41083
2026-01-28 21:33:35.47	26.90	0.85	-45.4	-60.1	3.6	1.51e+00	0	29	104	0	60	41217
2026-01-28 21:33:36.48	27.02	0.90	-45.4	-60.1	3.6	1.51e+00	0	29	104	0	60	41006
2026-01-28 21:33:37.49	27.14	0.95	-45.1	-60.0	3.6	1.51e+00	0	29	104	0	60	40665
2026-01-28 21:33:38.50	27.25	1.00	-45.0	-60.0	3.6	1.51e+00	0	29	104	0	60	40458
2026-01-28 21:33:39.51	27.37	1.05	-45.1	-59.9	3.6	1.51e+00	0	29	104	0	60	40152
2026-01-28 21:33:40.52	27.49	1.11	-45.0	-59.8	3.6	1.51e+00	0	29	104	0	60	39731
2026-01-28 21:33:41.53	27.60	1.16	-43.6	-59.7	3.6	1.51e+00	0	29	104	0	60	39214
2026-01-28 21:33:42.54	27.72	1.21	-44.8	-59.6	3.6	1.51e+00	0	29	104	0	60	38894
2026-01-28 21:33:43.55	27.84	1.26	-44.3	-59.3	3.6	1.51e+00	0	29	104	0	60	37549
2026-01-28 21:33:44.56	27.96	1.31	-44.2	-59.0	3.5	1.51e+00	0	29	104	0	60	36172
2026-01-28 21:33:45.57	28.08	1.36	-44.1	-58.8	3.6	1.51e+00	0	29	104	0	60	35494
2026-01-28 21:33:46.58	28.20	1.41	-44.1	-58.8	3.6	1.51e+00	0	29	104	0	60	35428
2026-01-28 21:33:47.59	28.32	1.46	-44.0	-58.8	3.6	1.51e+00	0	29	104	0	60	35438
2026-01-28 21:33:48.60	28.44	1.51	-44.0	-58.8	3.6	1.51e+00	0	29	104	0	60	35241
2026-01-28 21:33:49.61	28.57	1.56	-44.0	-58.8	3.6	1.51e+00	0	30	104	0	60	35399
2026-01-28 21:33:50.62	28.69	1.62	-44.0	-58.8	3.5	1.51e+00	0	29	104	0	60	35282
2026-01-28 21:33:51.63	28.81	1.67	-44.0	-58.8	3.6	1.51e+00	0	30	104	0	60	35481
2026-01-28 21:33:52.64	28.93	1.72	-44.0	-58.8	3.6	1.51e+00	0	30	104	0	60	35487
2026-01-28 21:33:53.65	29.06	1.77	-44.0	-58.8	3.6	1.51e+00	0	29	104	0	60	35231
2026-01-28 21:33:54.66	29.18	1.82	-44.0	-58.8	3.6	1.51e+00	0	30	104	0	60	35269
2026-01-28 21:33:55.66	29.31	1.87	-44.0	-58.8	3.6	1.51e+00	0	29	104	0	60	35234
2026-01-28 21:33:56.67	29.43	1.92	-44.0	-58.8	3.6	1.51e+00	0	29	104	0	60	35361
2026-01-28 21:33:57.68	29.56	1.97	-44.0	-58.8	3.6	1.51e+00	0	30	104	0	60	35293
2026-01-28 21:33:58.69	29.69	2.03	-44.0	-58.8	3.6	1.51e+00	0	30	104	0	60	35222
2026-01-28 21:33:59.70	29.81	2.08	-44.0	-58.8	3.6	1.51e+00	0	30	104	0	60	35142
2026-01-28 21:34:00.71	29.94	2.13	-44.0	-58.8	3.6	1.51e+00	0	30	104	0	60	35293
2026-01-28 21:34:01.72	30.07	2.18	-44.0	-58.7	3.6	1.51e+00	0	30	104	0	60	35089
2026-01-28 21:34:02.73	30.20	2.23	-44.0	-58.8	3.6	1.51e+00	0	30	104	0	60	35297
2026-01-28 21:34:03.74	30.33	2.28	-44.0	-58.8	3.6	1.51e+00	0	30	104	0	60	35152
2026-01-28 21:34:04.75	30.46	2.33	-44.0	-58.8	3.6	1.51e+00	0	30	104	0	60	35273
2026-01-28 21:34:05.76	30.59	2.39	-44.0	-58.8	3.6	1.51e+00	0	30	104	0	60	35156
2026-01-28 21:34:06.77	30.72	2.44	-44.0	-58.7	3.6	1.51e+00	0	30	104	0	60	35083
2026-01-28 21:34:07.78	30.85	2.49	-44.0	-58.8	3.6	1.51e+00	0	30	104	0	60	35128
2026-01-28 21:34:08.79	30.99	2.54	-44.0	-58.8	3.6	1.51e+00	0	30	104	0	60	35222
2026-01-28 21:34:09.80	31.12	2.59	-44.0	-58.8	3.6	1.51e+00	0	30	104	0	60	35186
2026-01-28 21:34:10.81	31.25	2.64	-44.0	-58.8	3.6	1.51e+00	0	30	104	0	60	35297
2026-01-28 21:34:11.83	31.39	2.70	-44.0	-58.8	3.6	1.51e+00	0	30	104	0	60	35322
2026-01-28 21:34:12.84	31.52	2.75	-44.0	-58.7	3.6	1.51e+00	0	30	104	0	60	34979
2026-01-28 21:34:13.85	31.66	2.80	-44.0	-58.7	3.6	1.51e+00	0	30	104	0	60	35120
2026-01-28 21:34:14.85	31.79	2.85	-44.0	-58.8	3.5	1.51e+00	0	30	104	0	60	35182
2026-01-28 21:34:15.86	31.93	2.90	-44.0	-58.8	3.6	1.51e+00	0	30	104	0	60	35128
2026-01-28 21:34:16.88	32.07	2.96	-44.0	-58.8	3.6	1.51e+00	0	30	104	0	60	35248
2026-01-28 21:34:17.88	32.20	3.01	-44.0	-58.7	3.6	1.51e+00	0	30	104	0	60	35051
2026-01-28 21:34:18.89	32.34	3.06	-44.1	-58.8	3.6	1.51e+00	0	30	104	0	60	35210
2026-01-28 21:34:19.90	32.48	3.11	-44.0	-58.8	3.6	1.51e+00	0	30	104	0	60	35480
2026-01-28 21:34:20.91	32.62	3.16	-44.0	-58.8	3.6	1.51e+00	0	30	104	0	60	35297
2026-01-28 21:34:21.92	32.76	3.21	-43.9	-58.7	3.6	1.51e+00	0	30	104	0	60	34805
2026-01-28 21:34:22.93	32.90	3.27	-43.8	-59.0	3.6	1.51e+00	0	30	104	0	60	36071
2026-01-28 21:34:23.94	33.04	3.32	-44.1	-58.9	3.6	1.51e+00	0	30	104	0	60	35560
2026-01-28 21:34:24.95	33.18	3.37	-44.0	-58.8	3.6	1.51e+00	0	30	104	0	60	35469
2026-01-28 21:34:25.96	33.33	3.42	-43.9	-58.8	3.6	1.51e+00	0	30	104	0	60	35225
2026-01-28 21:34:26.97	33.47	3.47	-44.2	-59.0	3.6	1.51e+00	0	30	104	0	60	36295
2026-01-28 21:34:27.98	33.61	3.53	-44.1	-58.9	3.6	1.51e+00	0	30	104	0	60	35749
2026-01-28 21:34:28.99	33.76	3.58	-44.2	-58.9	3.6	1.51e+00	0	30	104	0	60	35528
2026-01-28 21:34:30.00	33.90	3.63	-43.9	-58.8	3.6	1.51e+00	0	30	104	0	60	35454
2026-01-28 21:34:31.00	34.05	3.68	-44.1	-59.1	3.6	1.51e+00	0	30	104	0	60	36359
2026-01-28 21:34:32.01	34.20	3.73	-44.3	-59.0	3.6	1.51e+00	0	30	104	0	60	35994
2026-01-28 21:34:33.02	34.34	3.79	-44.1	-58.9	3.6	1.51e+00	0	30	104	0	60	35873
2026-01-28 21:34:34.03	34.49	3.84	-44.0	-58.8	3.6	1.51e+00	0	30	104	0	60	35485
2026-01-28 21:34:35.04	34.64	3.89	-44.2	-59.1	3.6	1.51e+00	0	30	104	0	60	36512
2026-01-28 21:34:36.05	34.79	3.94	-44.2	-59.0	3.6	1.51e+00	0	30	104	0	60	36270
2026-01-28 21:34:37.06	34.94	3.99	-44.3	-59.0	3.6	1.51e+00	0	30	104	0	60	36220
2026-01-28 21:34:38.07	35.09	4.05	-44.0	-58.9	3.6	1.51e+00	0	30	104	0	60	35661
2026-01-28 21:34:39.08	35.24	4.10	-44.4	-59.2	3.6	1.51e+00	0	30	104	0	60	36967
2026-01-28 21:34:40.09	35.39	4.15	-44.2	-59.1	3.6	1.51e+00	0	30	104	0	60	36676
2026-01-28 21:34:41.10	35.54	4.20	-44.2	-59.0	3.6	1.51e+00	0	30	104	0	60	36286
2026-01-28 21:34:42.11	35.70	4.25	-44.0	-58.9	3.6	1.51e+00	0	30	104	0	60	35822
2026-01-28 21:34:43.12	35.85	4.31	-44.5	-59.2	3.6	1.51e+00	0	30	104	0	60	36947
2026-01-28 21:34:44.13	36.01	4.36	-44.4	-59.2	3.6	1.51e+00	0	30	104	0	60	36919
2026-01-28 21:34:45.14	36.16	4.41	-44.2	-59.1	3.6	1.51e+00	0	30	104	0	60	36458
2026-01-28 21:34:46.15	36.32	4.46	-43.9	-59.0	3.6	1.51e+00	0	30	104	0	60	36175
2026-01-28 21:34:47.15	36.47	4.51	-44.4	-59.2	3.6	1.51e+00	0	30	104	0	60	37120
2026-01-28 21:34:48.16	36.63	4.56	-44.4	-59.2	3.6	1.51e+00	0	30	104	0	60	36918
2026-01-28 21:34:49.17	36.79	4.62	-44.4	-59.2	3.6	1.51e+00	0	30	104	0	60	36804
2026-01-28 21:34:50.18	36.95	4.67	-44.4	-59.1	3.6	1.51e+00	0	30	104	0	60	36397
2026-01-28 21:34:51.19	37.10	4.72	-44.3	-59.2	3.6	1.51e+00	0	30	104	0	60	37159
2026-01-28 21:34:52.20	37.26	4.77	-44.3	-59.2	3.6	1.51e+00	0	30	104	0	60	37013
2026-01-28 21:34:53.21	37.43	4.82	-44.4	-59.1	3.6	1.51e+00	0	30	104	0	60	36664
2026-01-28 21:34:54.22	37.59	4.88	-44.4	-59.1	3.6	1.51e+00	0	30	104	0	60	36770
2026-01-28 21:34:55.23	37.75	4.93	-44.4	-59.2	3.6	1.51e+00	0	30	104	0	60	37088
2026-01-28 21:34:56.24	37.91	4.98	-44.4	-59.3	3.6	1.51e+00	0	30	104	0	60	37219
2026-01-28 21:34:57.25	38.08	5.03	-44.4	-59.2	3.6	1.51e+00	0	30	104	0	60	37074
2026-01-28 21:34:58.26	38.24	5.08	-44.4	-59.1	3.6	1.51e+00	0	30	104	0	60	36567
2026-01-28 21:34:59.26	38.40	5.13	-44.3	-59.3	3.6	1.51e+00	0	30	104	0	60	37540
2026-01-28 21:35:00.28	38.57	5.19	-44.4	-59.2	3.6	1.51e+00	0	30	104	0	60	37193
2026-01-28 21:35:01.28	38.74	5.24	-44.4	-59.2	3.6	1.51e+00	0	30	104	0	60	37163
2026-01-28 21:35:02.29	38.90	5.29	-44.4	-59.2	3.6	1.51e+00	0	30	104	0	60	37115
2026-01-28 21:35:03.30	39.07	5.34	-44.6	-59.3	3.6	1.51e+00	0	30	104	0	60	37517
2026-01-28 21:35:04.31	39.24	5.39	-44.0	-59.2	3.6	1.51e+00	0	30	104	0	60	37189
2026-01-28 21:35:05.32	39.41	5.44	-44.3	-59.2	3.6	1.51e+00	0	30	104	0	60	37161
2026-01-28 21:35:06.33	39.58	5.50	-44.0	-59.2	3.6	1.51e+00	0	30	104	0	60	37011
2026-01-28 21:35:07.34	39.75	5.55	-44.5	-59.3	3.6	1.51e+00	0	30	104	0	60	37203
2026-01-28 21:35:08.35	39.92	5.60	-44.6	-59.2	3.6	1.51e+00	0	30	104	0	60	37043
2026-01-28 21:35:09.36	40.09	5.65	-44.0	-59.3	3.6	1.51e+00	0	30	104	0	60	37208
2026-01-28 21:35:10.37	40.27	5.70	-44.3	-59.2	3.6	1.51e+00	0	30	104	0	60	37113
2026-01-28 21:35:11.38	40.44	5.75	-44.6	-59.3	3.6	1.51e+00	0	30	104	0	60	37586
2026-01-28 21:35:12.39	40.62	5.80	-44.3	-59.3	3.6	1.51e+00	0	30	104	0	60	37395
2026-01-28 21:35:13.40	40.79	5.85	-44.3	-59.2	3.6	1.51e+00	0	30	104	0	60	37066
2026-01-28 21:35:14.41	40.97	5.91	-44.5	-59.2	3.6	1.51e+00	0	30	104	0	60	37184
2026-01-28 21:35:15.42	41.14	5.96	-44.6	-59.4	3.6	1.51e+00	0	30	104	0	60	37944
2026-01-28 21:35:16.43	41.32	6.01	-44.5	-59.3	3.6	1.51e+00	0	30	104	0	60	37484
2026-01-28 21:35:17.44	41.50	6.06	-44.3	-59.2	3.6	1.51e+00	0	30	104	0	60	37136
2026-01-28 21:35:18.45	41.68	6.11	-44.5	-59.3	3.6	1.51e+00	0	30	104	0	60	37268
2026-01-28 21:35:19.46	41.86	6.16	-44.7	-59.5	3.6	1.51e+00	0	30	104	0	60	38114
2026-01-28 21:35:20.47	42.04	6.21	-44.7	-59.4	3.6	1.51e+00	0	30	104	0	60	37783
2026-01-28 21:35:21.48	42.22	6.26	-44.6	-59.3	3.6	1.51e+00	0	30	104	0	60	37497
2026-01-28 21:35:22.49	42.41	6.31	-44.7	-59.3	3.6	1.51e+00	0	30	104	0	60	37597
2026-01-28 21:35:23.50	42.59	6.36	-43.3	-59.5	3.6	1.51e+00	0	30	104	0	60	38178
2026-01-28 21:35:24.51	42.77	6.41	-44.4	-59.4	3.6	1.51e+00	0	30	104	0	60	37966
2026-01-28 21:35:25.52	42.96	6.46	-44.6	-59.3	3.6	1.51e+00	0	30	104	0	60	37606
2026-01-28 21:35:26.53	43.14	6.51	-44.7	-59.4	3.6	1.51e+00	0	30	104	0	60	37694
2026-01-28 21:35:27.54	43.33	6.56	-43.5	-59.4	3.6	1.51e+00	0	30	104	0	60	38060
2026-01-28 21:35:28.54	43.52	6.61	-44.0	-59.4	3.6	1.51e+00	0	30	104	0	60	37905
2026-01-28 21:35:29.55	43.70	6.66	-44.3	-59.4	3.6	1.51e+00	0	30	104	0	60	37848
2026-01-28 21:35:30.56	43.89	6.71	-44.3	-59.4	3.6	1.51e+00	0	30	104	0	60	37924
2026-01-28 21:35:31.57	44.08	6.76	-44.5	-59.5	3.6	1.51e+00	0	30	104	0	60	38306
2026-01-28 21:35:32.58	44.27	6.81	-44.1	-59.5	3.6	1.51e+00	0	30	104	0	60	38157
2026-01-28 21:35:33.59	44.46	6.86	-44.4	-59.4	3.6	1.51e+00	0	30	104	0	60	37983
2026-01-28 21:35:34.60	44.66	6.91	-43.6	-59.4	3.6	1.51e+00	0	30	104	0	60	37806
2026-01-28 21:35:35.61	44.85	6.96	-44.4	-59.5	3.6	1.51e+00	0	30	104	0	60	38345
2026-01-28 21:35:36.62	45.04	7.01	-44.0	-59.4	3.5	1.51e+00	0	30	104	0	60	37992
2026-01-28 21:35:37.62	45.23	7.06	-43.1	-59.4	3.6	1.51e+00	0	30	104	0	60	37991
2026-01-28 21:35:38.64	45.43	7.11	-44.5	-59.5	3.6	1.51e+00	0	30	104	0	60	38180
2026-01-28 21:35:39.64	45.63	7.16	-44.7	-59.5	3.6	1.51e+00	0	30	104	0	60	38315
2026-01-28 21:35:40.65	45.82	7.21	-44.6	-59.4	3.6	1.51e+00	0	30	104	0	60	38052
2026-01-28 21:35:41.66	46.02	7.26	-44.3	-59.5	3.6	1.51e+00	0	30	104	0	60	38097
2026-01-28 21:35:42.67	46.22	7.30	-44.8	-59.4	3.6	1.51e+00	0	30	104	0	60	38022
2026-01-28 21:35:43.68	46.42	7.35	-44.7	-59.5	3.6	1.51e+00	0	30	104	0	60	38242
2026-01-28 21:35:44.69	46.62	7.40	-44.7	-59.4	3.6	1.51e+00	0	30	104	0	60	38034
2026-01-28 21:35:45.70	46.82	7.45	-44.6	-59.4	3.6	1.51e+00	0	30	104	0	60	37980
2026-01-28 21:35:46.71	47.02	7.50	-44.5	-59.5	3.6	1.51e+00	0	30	104	0	60	38104
2026-01-28 21:35:47.72	47.22	7.55	-44.0	-59.5	3.6	1.51e+00	0	30	104	0	60	38409
2026-01-28 21:35:48.73	47.43	7.59	-44.3	-59.5	3.6	1.51e+00	0	30	104	0	60	38255
2026-01-28 21:35:49.74	47.63	7.64	-44.5	-59.4	3.6	1.51e+00	0	30	104	0	60	37898
2026-01-28 21:35:50.75	47.84	7.69	-44.8	-59.6	3.6	1.51e+00	0	30	104	0	60	38542
2026-01-28 21:35:51.76	48.04	7.74	-44.6	-59.5	3.6	1.51e+00	0	30	104	0	60	38272
2026-01-28 21:35:52.77	48.25	7.78	-44.5	-59.4	3.6	1.51e+00	0	30	104	0	60	38016
2026-01-28 21:35:53.78	48.46	7.83	-44.7	-59.4	3.6	1.51e+00	0	30	104	0	60	37882
2026-01-28 21:35:54.79	48.67	7.88	-44.8	-59.5	3.6	1.51e+00	0	30	104	0	60	38493
2026-01-28 21:35:55.80	48.87	7.92	-44.5	-59.5	3.6	1.51e+00	0	30	104	0	60	38464
2026-01-28 21:35:56.80	49.08	7.97	-44.8	-59.5	3.6	1.51e+00	0	30	104	0	60	38185
2026-01-28 21:35:57.82	49.30	8.02	-44.4	-59.5	3.6	1.51e+00	0	30	104	0	60	38075
2026-01-28 21:35:58.83	49.51	8.06	-44.3	-59.6	3.6	1.51e+00	0	30	104	0	60	38547
2026-01-28 21:35:59.84	49.72	8.11	-44.4	-59.5	3.6	1.51e+00	0	30	104	0	60	38458
2026-01-28 21:36:00.85	49.93	8.16	-44.4	-59.5	3.6	1.51e+00	0	30	104	0	60	38437
2026-01-28 21:36:01.86	50.15	8.20	-44.1	-59.5	3.6	1.51e+00	0	30	104	0	60	38309
2026-01-28 21:36:02.87	50.36	8.25	-44.3	-59.5	3.6	1.51e+00	0	30	104	0	60	38490
2026-01-28 21:36:03.88	50.58	8.29	-44.4	-59.5	3.6	1.51e+00	0	30	104	0	60	38360
2026-01-28 21:36:04.88	50.79	8.34	-44.4	-59.6	3.6	1.51e+00	0	30	104	0	60	38684
2026-01-28 21:36:05.89	51.01	8.38	-44.8	-59.5	3.6	1.51e+00	0	30	104	0	60	38394
2026-01-28 21:36:06.90	51.23	8.43	-43.0	-59.6	3.6	1.51e+00	0	30	104	0	60	38628
2026-01-28 21:36:07.91	51.45	8.47	-43.4	-59.5	3.6	1.51e+00	0	30	104	0	60	38500
2026-01-28 21:36:08.92	51.67	8.52	-44.8	-59.6	3.6	1.51e+00	0	30	104	0	60	38533
2026-01-28 21:36:09.93	51.89	8.56	-44.5	-59.5	3.6	1.51e+00	0	30	104	0	60	38339
2026-01-28 21:36:10.94	52.11	8.61	-43.9	-59.5	3.6	1.51e+00	0	30	104	0	60	38508
2026-01-28 21:36:11.95	52.33	8.65	-43.7	-59.6	3.6	1.51e+00	0	30	104	0	60	38580
2026-01-28 21:36:12.96	52.56	8.69	-42.4	-59.5	3.6	1.51e+00	0	30	104	0	60	38389
2026-01-28 21:36:13.97	52.78	8.74	-43.7	-59.6	3.6	1.51e+00	0	30	104	0	60	38512
2026-01-28 21:36:14.98	53.01	8.78	-44.7	-59.6	3.6	1.51e+00	0	30	104	0	60	38657
2026-01-28 21:36:15.99	53.23	8.82	-44.7	-59.6	3.6	1.51e+00	0	30	104	0	60	38545
2026-01-28 21:36:17.00	53.46	8.86	-43.3	-59.6	3.6	1.51e+00	0	30	104	0	60	38515
2026-01-28 21:36:18.01	53.68	8.91	-42.7	-59.5	3.6	1.51e+00	0	30	104	0	60	38427
2026-01-28 21:36:19.02	53.91	8.95	-42.8	-59.6	3.6	1.51e+00	0	30	104	0	60	38622
2026-01-28 21:36:20.03	54.14	8.99	-42.7	-59.6	3.6	1.51e+00	0	30	104	0	60	38676
2026-01-28 21:36:21.04	54.37	9.03	-43.2	-59.6	3.6	1.51e+00	0	30	104	0	60	38658
2026-01-28 21:36:22.04	54.60	9.07	-42.8	-59.5	3.6	1.51e+00	0	31	104	0	60	38467
2026-01-28 21:36:23.06	54.83	9.12	-44.9	-59.6	3.6	1.51e+00	0	30	104	0	60	38897
2026-01-28 21:36:24.06	55.06	9.16	-44.4	-59.6	3.6	1.51e+00	0	30	104	0	60	38870
2026-01-28 21:36:25.07	55.30	9.20	-42.8	-59.6	3.6	1.51e+00	0	30	104	0	60	38711
2026-01-28 21:36:26.08	55.53	9.24	-44.7	-59.6	3.6	1.51e+00	0	30	104	0	60	38831
2026-01-28 21:36:27.09	55.77	9.28	-44.5	-59.6	3.6	1.51e+00	0	30	104	0	60	38876
2026-01-28 21:36:28.10	56.00	9.32	-44.5	-59.6	3.6	1.51e+00	0	30	104	0	60	38666
2026-01-28 21:36:29.11	56.24	9.36	-44.6	-59.6	3.6	1.51e+00	0	30	104	0	60	38669
2026-01-28 21:36:30.12	56.47	9.40	-44.7	-59.6	3.6	1.51e+00	0	30	104	0	60	38660
2026-01-28 21:36:31.13	56.71	9.44	-43.8	-59.6	3.6	1.51e+00	0	30	104	0	60	38860
2026-01-28 21:36:32.14	56.95	9.47	-44.5	-59.6	3.6	1.51e+00	0	30	104	0	60	38773
2026-01-28 21:36:33.15	57.19	9.51	-44.8	-59.6	3.6	1.51e+00	0	30	104	0	60	38641
2026-01-28 21:36:34.16	57.43	9.55	-44.3	-59.6	3.6	1.51e+00	0	30	104	0	60	38670
2026-01-28 21:36:35.17	57.67	9.59	-44.5	-59.6	3.6	1.51e+00	0	30	104	0	60	38791
2026-01-28 21:36:36.18	57.91	9.63	-44.9	-59.6	3.6	1.51e+00	0	30	104	0	60	38805
2026-01-28 21:36:37.19	58.15	9.66	-44.5	-59.6	3.6	1.51e+00	0	30	104	0	60	38796
2026-01-28 21:36:38.20	58.40	9.70	-44.3	-59.6	3.6	1.51e+00	0	30	104	0	60	38653
2026-01-28 21:36:39.21	58.64	9.74	-44.6	-59.6	3.6	1.51e+00	0	30	104	0	60	38847
2026-01-28 21:36:40.22	58.89	9.77	-43.7	-59.6	3.6	1.51e+00	0	30	104	0	60	38922
2026-01-28 21:36:41.22	59.13	9.81	-44.8	-59.6	3.6	1.51e+00	0	30	104	0	60	38785
2026-01-28 21:36:42.24	59.38	9.85	-44.4	-59.6	3.6	1.51e+00	0	31	104	0	60	38657
2026-01-28 21:36:43.25	59.62	9.88	-44.2	-59.6	3.6	1.51e+00	0	30	104	0	60	38939
2026-01-28 21:36:44.26	59.87	9.92	-44.3	-59.6	3.6	1.51e+00	0	30	104	0	60	38817
2026-01-28 21:36:45.26	60.12	9.95	-43.0	-59.6	3.6	1.51e+00	0	30	104	0	60	38797
2026-01-28 21:36:46.27	60.37	9.98	-43.9	-59.6	3.6	1.51e+00	0	30	104	0	60	38620
2026-01-28 21:36:47.28	60.62	10.02	-44.2	-59.6	3.6	1.51e+00	0	30	104	0	60	38754
2026-01-28 21:36:48.29	60.87	10.05	-43.5	-59.6	3.6	1.51e+00	0	30	104	0	60	38896
2026-01-28 21:36:49.30	61.12	10.09	-44.0	-59.6	3.6	1.51e+00	0	30	104	0	60	38947
2026-01-28 21:36:50.31	61.37	10.12	-44.8	-59.6	3.6	1.51e+00	0	30	104	0	60	38608
2026-01-28 21:36:51.32	61.62	10.15	-44.5	-59.7	3.5	1.51e+00	0	30	104	0	60	39002
2026-01-28 21:36:52.33	61.88	10.18	-44.5	-59.6	3.6	1.51e+00	0	30	104	0	60	38788
2026-01-28 21:36:53.34	62.13	10.22	-44.7	-59.6	3.6	1.51e+00	0	30	104	0	60	38851
2026-01-28 21:36:54.35	62.38	10.25	-44.6	-59.6	3.6	1.51e+00	0	30	104	0	60	38650
2026-01-28 21:36:55.36	62.64	10.28	-40.9	-59.6	3.6	1.51e+00	0	30	104	0	58	43279
2026-01-28 21:36:56.37	62.90	10.31	-43.8	-59.6	3.6	1.51e+00	0	30	104	0	60	38851
2026-01-28 21:36:57.37	63.15	10.34	-42.7	-59.6	3.6	1.51e+00	0	30	104	0	60	38796
2026-01-28 21:36:58.38	63.41	10.37	-38.2	-59.6	3.6	1.51e+00	0	30	104	0	52	61344
2026-01-28 21:36:59.40	63.67	10.40	-41.3	-59.6	3.6	1.51e+00	0	30	104	0	56	48984
2026-01-28 21:37:00.39	63.92	10.43	-41.1	-59.6	3.6	1.51e+00	0	30	104	0	58	43323
2026-01-28 21:37:01.40	64.18	10.46	-39.8	-59.6	3.6	1.51e+00	0	30	104	0	56	49033
2026-01-28 21:37:02.41	64.44	10.48	-43.5	-59.7	3.6	1.51e+00	0	30	104	0	60	39037
2026-01-28 21:37:03.41	64.70	10.51	-44.5	-59.7	3.6	1.51e+00	0	30	104	0	60	39022
2026-01-28 21:37:04.42	64.96	10.54	-44.5	-59.7	3.6	1.51e+00	0	30	104	0	60	39102
2026-01-28 21:37:05.43	65.22	10.57	-44.5	-59.6	3.6	1.51e+00	0	30	104	0	60	38693
2026-01-28 21:37:06.44	65.48	10.59	-44.3	-59.6	3.6	1.51e+00	0	30	104	0	60	38932
2026-01-28 21:37:07.45	65.75	10.62	-44.7	-59.7	3.6	1.51e+00	0	30	104	0	60	38963
2026-01-28 21:37:08.46	66.01	10.64	-44.9	-59.7	3.6	1.51e+00	0	30	104	0	60	39052
2026-01-28 21:37:09.47	66.27	10.67	-44.9	-59.6	3.6	1.51e+00	0	30	104	0	60	38759
2026-01-28 21:37:10.48	66.54	10.70	-44.9	-59.6	3.6	1.51e+00	0	30	104	0	60	38938
2026-01-28 21:37:11.49	66.80	10.72	-44.6	-59.6	3.6	1.51e+00	0	30	104	0	60	38931
2026-01-28 21:37:12.50	67.07	10.74	-42.3	-59.7	3.6	1.51e+00	0	30	104	0	60	38980
2026-01-28 21:37:13.51	67.33	10.77	-43.4	-59.7	3.5	1.51e+00	0	30	104	0	60	39054
2026-01-28 21:37:14.52	67.60	10.79	-43.0	-59.6	3.6	1.51e+00	0	30	104	0	58	43261
2026-01-28 21:37:15.53	67.87	10.81	-42.7	-59.7	3.6	1.51e+00	0	30	104	0	60	39014
2026-01-28 21:37:16.54	68.13	10.84	-43.0	-59.7	3.6	1.51e+00	0	30	104	0	60	39035
2026-01-28 21:37:17.55	68.40	10.86	-41.1	-59.7	3.6	1.51e+00	0	30	104	0	60	38996
2026-01-28 21:37:18.55	68.67	10.88	-44.0	-59.7	3.6	1.51e+00	0	30	104	0	60	39028
2026-01-28 21:37:19.56	68.94	10.90	-42.1	-59.6	3.6	1.51e+00	0	30	104	0	60	38908
2026-01-28 21:37:20.57	69.21	10.92	-42.9	-59.7	3.6	1.51e+00	0	30	104	0	60	39041
2026-01-28 21:37:21.58	69.48	10.94	-42.6	-59.6	3.6	1.51e+00	0	30	104	0	60	38799
2026-01-28 21:37:22.59	69.75	10.96	-42.2	-59.6	3.6	1.51e+00	0	30	104	0	60	38935
2026-01-28 21:37:23.60	70.02	10.98	-42.6	-59.6	3.6	1.51e+00	0	30	104	0	58	43450
2026-01-28 21:37:24.61	70.29	11.00	-43.6	-59.6	3.6	1.51e+00	0	30	104	0	60	38816
2026-01-28 21:37:25.62	70.56	11.02	-44.4	-59.6	3.6	1.51e+00	0	30	104	0	60	38930
2026-01-28 21:37:26.63	70.83	11.03	-44.9	-59.7	3.6	1.51e+00	0	30	104	0	60	39020
2026-01-28 21:37:27.64	71.11	11.05	-44.9	-59.7	3.6	1.51e+00	0	30	104	0	60	39078
2026-01-28 21:37:28.65	71.38	11.07	-44.8	-59.6	3.6	1.51e+00	0	30	104	0	60	38921
2026-01-28 21:37:29.65	71.65	11.08	-44.5	-59.6	3.6	1.51e+00	0	31	104	0	60	38760
2026-01-28 21:37:30.66	71.92	11.10	-44.7	-59.7	3.6	1.51e+00	0	30	104	0	60	39009
2026-01-28 21:37:31.67	72.20	11.11	-44.9	-59.7	3.6	1.51e+00	0	30	104	0	60	39060
2026-01-28 21:37:32.68	72.47	11.13	-44.8	-59.7	3.5	1.51e+00	0	30	104	0	60	39285
2026-01-28 21:37:33.69	72.75	11.14	-44.3	-59.6	3.6	1.51e+00	0	30	104	0	60	38895
2026-01-28 21:37:34.70	73.02	11.16	-44.6	-59.7	3.6	1.51e+00	0	30	104	0	60	39173
2026-01-28 21:37:35.71	73.30	11.17	-43.7	-59.7	3.6	1.51e+00	0	30	104	0	60	39154
2026-01-28 21:37:36.72	73.57	11.18	-44.5	-59.7	3.6	1.51e+00	0	30	104	0	60	39004
2026-01-28 21:37:37.73	73.85	11.20	-43.5	-59.7	3.6	1.51e+00	0	30	104	0	60	39002
2026-01-28 21:37:38.74	74.13	11.21	-44.2	-59.7	3.6	1.51e+00	0	30	104	0	60	39336
2026-01-28 21:37:39.75	74.40	11.22	-43.4	-59.7	3.6	1.51e+00	0	30	104	0	60	39295
2026-01-28 21:37:40.76	74.68	11.23	-42.3	-59.7	3.6	1.51e+00	0	30	104	0	60	39171
2026-01-28 21:37:41.77	74.96	11.24	-42.6	-59.6	3.6	1.51e+00	0	30	104	0	58	43543
2026-01-28 21:37:42.77	75.23	11.25	-42.1	-59.7	3.6	1.51e+00	0	30	104	0	60	39205
2026-01-28 21:37:43.79	75.51	11.26	-44.6	-59.7	3.6	1.51e+00	0	30	104	0	60	39352
2026-01-28 21:37:44.79	75.79	11.27	-43.3	-59.7	3.6	1.51e+00	0	30	104	0	60	39263
2026-01-28 21:37:45.80	76.06	11.28	-42.0	-59.7	3.6	1.51e+00	0	30	104	0	60	38997
2026-01-28 21:37:46.81	76.34	11.28	-43.9	-59.7	3.6	1.51e+00	0	30	104	0	60	39378
2026-01-28 21:37:47.82	76.62	11.29	-41.5	-59.7	3.6	1.51e+00	0	30	104	0	58	43907
2026-01-28 21:37:48.83	76.90	11.30	-41.7	-59.7	3.6	1.51e+00	0	31	104	0	58	43798
2026-01-28 21:37:49.84	77.18	11.30	-44.5	-59.6	3.6	1.51e+00	0	30	104	0	60	38911
2026-01-28 21:37:50.85	77.46	11.31	-41.6	-59.8	3.6	1.51e+00	0	30	104	0	60	39434
2026-01-28 21:37:51.86	77.74	11.31	-45.0	-59.8	3.6	1.51e+00	0	31	104	0	60	39467
2026-01-28 21:37:52.87	78.02	11.32	-44.9	-59.7	3.6	1.51e+00	0	30	104	0	60	39382
2026-01-28 21:37:53.88	78.29	11.32	-44.4	-59.7	3.6	1.51e+00	0	30	104	0	60	39179
2026-01-28 21:37:54.89	78.57	11.33	-44.7	-59.8	3.6	1.51e+00	0	30	104	0	60	39459
2026-01-28 21:37:55.90	78.85	11.33	-44.1	-59.7	3.6	1.51e+00	0	30	104	0	60	39376
2026-01-28 21:37:56.91	79.13	11.33	-44.2	-59.7	3.6	1.51e+00	0	30	104	0	60	39318
2026-01-28 21:37:57.92	79.41	11.33	-44.3	-59.7	3.6	1.51e+00	0	31	104	0	60	38972
2026-01-28 21:37:58.93	79.69	11.33	-44.6	-59.7	3.6	1.51e+00	0	30	104	0	60	39278
2026-01-28 21:37:59.94	79.97	11.33	-44.5	-59.7	3.6	1.51e+00	0	30	104	0	60	39182
2026-01-28 21:38:00.95	80.25	11.33	-44.8	-59.7	3.6	1.51e+00	0	30	104	0	60	38979
2026-01-28 21:38:01.96	80.53	11.33	-44.6	-59.6	3.6	1.51e+00	0	30	104	0	60	38839
2026-01-28 21:38:02.97	80.81	11.33	-44.1	-59.8	3.6	1.51e+00	0	30	104	0	60	39651
2026-01-28 21:38:03.97	81.09	11.33	-44.5	-59.7	3.6	1.51e+00	0	31	104	0	60	39169
2026-01-28 21:38:04.98	81.37	11.33	-44.4	-59.7	3.6	1.51e+00	0	30	104	0	60	39191
2026-01-28 21:38:05.99	81.65	11.33	-44.4	-59.7	3.6	1.51e+00	0	30	104	0	60	39313
2026-01-28 21:38:07.00	81.93	11.33	-45.0	-59.7	3.6	1.51e+00	0	30	104	0	60	39335
2026-01-28 21:38:08.01	82.21	11.32	-44.2	-59.7	3.6	1.51e+00	0	30	104	0	60	39242
2026-01-28 21:38:09.02	82.48	11.32	-44.7	-59.7	3.6	1.51e+00	0	30	104	0	60	39368
2026-01-28 21:38:10.03	82.76	11.31	-43.6	-59.7	3.6	1.51e+00	0	30	104	0	60	39244
2026-01-28 21:38:11.04	83.04	11.31	-44.5	-59.8	3.6	1.51e+00	0	30	104	0	60	39556
2026-01-28 21:38:12.05	83.32	11.30	-44.5	-59.7	3.6	1.51e+00	0	30	104	0	60	39235
2026-01-28 21:38:13.06	83.60	11.30	-43.5	-59.7	3.6	1.51e+00	0	30	104	0	60	39229
2026-01-28 21:38:14.07	83.88	11.29	-44.8	-59.7	3.6	1.51e+00	0	31	104	0	60	39113
2026-01-28 21:38:15.07	84.16	11.28	-44.4	-59.8	3.6	1.51e+00	0	30	104	0	60	39565
2026-01-28 21:38:16.08	84.43	11.28	-44.8	-59.7	3.6	1.51e+00	0	30	104	0	60	39316
2026-01-28 21:38:17.09	84.71	11.27	-44.8	-59.8	3.6	1.51e+00	0	30	104	0	60	39536
2026-01-28 21:38:18.10	84.99	11.26	-44.8	-59.7	3.6	1.51e+00	0	30	104	0	60	39057
2026-01-28 21:38:19.11	85.27	11.25	-44.8	-59.8	3.6	1.51e+00	0	30	104	0	60	39444
2026-01-28 21:38:20.12	85.55	11.24	-45.0	-59.8	3.6	1.51e+00	0	30	104	0	60	39460
2026-01-28 21:38:21.13	85.82	11.23	-44.7	-59.7	3.6	1.51e+00	0	30	104	0	60	39211
2026-01-28 21:38:22.14	86.10	11.22	-44.7	-59.7	3.6	1.51e+00	0	30	104	0	60	39325
2026-01-28 21:38:23.15	86.38	11.21	-44.9	-59.8	3.6	1.51e+00	0	30	104	0	60	39441
2026-01-28 21:38:24.16	86.66	11.20	-44.9	-59.7	3.6	1.51e+00	0	30	104	0	60	39136
2026-01-28 21:38:25.17	86.93	11.18	-44.8	-59.7	3.6	1.51e+00	0	30	104	0	60	39023
2026-01-28 21:38:26.18	87.21	11.17	-44.7	-59.7	3.6	1.51e+00	0	30	104	0	60	39021
2026-01-28 21:38:27.19	87.49	11.16	-44.9	-59.8	3.6	1.51e+00	0	30	104	0	60	39516
2026-01-28 21:38:28.20	87.76	11.14	-44.8	-59.7	3.6	1.51e+00	0	30	104	0	60	39133
2026-01-28 21:38:29.21	88.04	11.13	-44.7	-59.7	3.6	1.51e+00	0	31	104	0	60	39021
2026-01-28 21:38:30.22	88.31	11.11	-44.9	-59.7	3.6	1.51e+00	0	31	104	0	60	38968
2026-01-28 21:38:31.23	88.59	11.10	-44.6	-59.7	3.6	1.51e+00	0	30	104	0	60	39324
2026-01-28 21:38:32.24	88.86	11.08	-44.8	-59.7	3.6	1.51e+00	0	30	104	0	60	39319
2026-01-28 21:38:33.25	89.14	11.07	-44.9	-59.7	3.6	1.51e+00	0	30	104	0	60	39092
2026-01-28 21:38:34.26	89.41	11.05	-44.8	-59.6	3.6	1.51e+00	0	30	104	0	60	38912
2026-01-28 21:38:35.27	89.68	11.03	-44.6	-59.7	3.6	1.51e+00	0	30	104	0	60	39175
2026-01-28 21:38:36.28	89.96	11.02	-44.9	-59.7	3.6	1.51e+00	0	31	104	0	60	39232
2026-01-28 21:38:37.29	90.23	11.00	-44.6	-59.7	3.6	1.51e+00	0	30	104	0	60	39089
2026-01-28 21:38:38.29	90.50	10.98	-44.7	-59.7	3.6	1.51e+00	0	30	104	0	60	39028
2026-01-28 21:38:39.30	90.77	10.96	-45.0	-59.7	3.6	1.51e+00	0	30	104	0	60	39372
2026-01-28 21:38:40.31	91.04	10.94	-45.0	-59.7	3.6	1.51e+00	0	31	104	0	60	39358
2026-01-28 21:38:41.32	91.31	10.92	-44.9	-59.7	3.6	1.51e+00	0	30	104	0	60	39085
2026-01-28 21:38:42.33	91.58	10.90	-44.2	-59.7	3.6	1.51e+00	0	31	104	0	60	39034
2026-01-28 21:38:43.34	91.85	10.88	-44.9	-59.7	3.6	1.51e+00	0	30	104	0	60	39271
2026-01-28 21:38:44.35	92.12	10.86	-44.3	-59.7	3.6	1.51e+00	0	31	104	0	60	39267
2026-01-28 21:38:45.36	92.39	10.84	-44.4	-59.6	3.6	1.51e+00	0	31	104	0	60	38914
2026-01-28 21:38:46.37	92.66	10.81	-44.8	-59.7	3.6	1.51e+00	0	31	104	0	60	39151
2026-01-28 21:38:47.38	92.93	10.79	-44.7	-59.8	3.6	1.51e+00	0	31	104	0	60	39411
2026-01-28 21:38:48.39	93.20	10.77	-44.7	-59.7	3.6	1.51e+00	0	30	104	0	60	39018
2026-01-28 21:38:49.40	93.46	10.74	-44.7	-59.7	3.6	1.51e+00	0	31	104	0	60	39200
2026-01-28 21:38:50.41	93.73	10.72	-44.5	-59.7	3.6	1.51e+00	0	31	104	0	60	39107
2026-01-28 21:38:51.42	94.00	10.69	-44.3	-59.7	3.6	1.51e+00	0	30	104	0	60	39310
2026-01-28 21:38:52.42	94.26	10.67	-44.1	-59.7	3.6	1.51e+00	0	31	104	0	60	39205
2026-01-28 21:38:53.44	94.53	10.64	-44.3	-59.7	3.6	1.51e+00	0	30	104	0	60	39072
2026-01-28 21:38:54.45	94.79	10.62	-44.4	-59.6	3.6	1.51e+00	0	31	104	0	60	38937
2026-01-28 21:38:55.45	95.05	10.59	-44.4	-59.7	3.6	1.51e+00	0	31	104	0	60	39259
2026-01-28 21:38:56.46	95.32	10.56	-44.7	-59.7	3.6	1.51e+00	0	31	104	0	60	39169
2026-01-28 21:38:57.47	95.58	10.54	-44.7	-59.7	3.6	1.51e+00	0	31	104	0	60	39127
2026-01-28 21:38:58.48	95.84	10.51	-44.8	-59.6	3.6	1.51e+00	0	31	104	0	60	38904
2026-01-28 21:38:59.49	96.10	10.48	-44.9	-59.8	3.6	1.51e+00	0	31	104	0	60	39417
2026-01-28 21:39:00.50	96.36	10.45	-44.7	-59.6	3.6	1.51e+00	0	31	104	0	60	38948
2026-01-28 21:39:01.51	96.63	10.42	-44.7	-59.6	3.6	1.51e+00	0	30	104	0	60	38850
2026-01-28 21:39:02.52	96.89	10.39	-44.4	-59.7	3.6	1.51e+00	0	30	104	0	60	38993
2026-01-28 21:39:03.53	97.14	10.36	-43.8	-59.7	3.6	1.51e+00	0	31	104	0	60	39023
2026-01-28 21:39:04.53	97.40	10.33	-43.8	-59.7	3.6	1.51e+00	0	31	104	0	60	38960
2026-01-28 21:39:05.54	97.66	10.30	-44.6	-59.7	3.6	1.51e+00	0	30	104	0	60	38973
2026-01-28 21:39:06.55	97.92	10.27	-43.6	-59.7	3.6	1.51e+00	0	31	104	0	60	39154
2026-01-28 21:39:07.56	98.17	10.24	-44.6	-59.8	3.6	1.51e+00	0	31	104	0	60	39503
2026-01-28 21:39:08.57	98.43	10.21	-44.3	-59.7	3.6	1.51e+00	0	31	104	0	60	38966
2026-01-28 21:39:09.58	98.68	10.18	-44.1	-59.7	3.6	1.51e+00	0	30	104	0	60	38986
2026-01-28 21:39:10.59	98.94	10.15	-44.7	-59.6	3.6	1.51e+00	0	31	104	0	60	38952
2026-01-28 21:39:11.60	99.19	10.11	-43.7	-59.7	3.6	1.51e+00	0	31	104	0	60	39095
2026-01-28 21:39:12.61	99.45	10.08	-43.8	-59.7	3.6	1.51e+00	0	31	104	0	60	38985
2026-01-28 21:39:13.61	99.70	10.05	-44.6	-59.5	3.6	1.51e+00	0	31	104	0	60	38493
2026-01-28 21:39:14.62	99.95	10.01	-44.1	-59.7	3.6	1.51e+00	0	31	104	0	60	39022
2026-01-28 21:39:15.63	100.20	9.98	-44.6	-59.6	3.6	1.51e+00	0	31	104	0	60	38765
2026-01-28 21:39:16.64	100.45	9.94	-44.3	-59.6	3.6	1.51e+00	0	30	104	0	60	38876
2026-01-28 21:39:17.65	100.70	9.91	-44.8	-59.6	3.6	1.51e+00	0	31	104	0	60	38762
2026-01-28 21:39:18.65	100.95	9.87	-44.3	-59.6	3.6	1.51e+00	0	31	104	0	60	38857
2026-01-28 21:39:19.66	101.20	9.84	-44.7	-59.6	3.6	1.51e+00	0	31	104	0	60	38825
2026-01-28 21:39:20.67	101.44	9.80	-44.3	-59.6	3.6	1.51e+00	0	31	104	0	60	38654
2026-01-28 21:39:21.68	101.69	9.77	-44.7	-59.6	3.6	1.51e+00	0	31	104	0	60	38650
2026-01-28 21:39:22.69	101.94	9.73	-44.7	-59.6	3.6	1.51e+00	0	31	104	0	60	38914
2026-01-28 21:39:23.70	102.18	9.69	-44.6	-59.6	3.6	1.51e+00	0	31	104	0	60	38712
2026-01-28 21:39:24.71	102.43	9.66	-44.2	-59.6	3.6	1.51e+00	0	31	104	0	60	38673
2026-01-28 21:39:25.72	102.67	9.62	-44.5	-59.6	3.6	1.51e+00	0	31	104	0	60	38801
2026-01-28 21:39:26.73	102.91	9.58	-44.6	-59.6	3.6	1.51e+00	0	31	104	0	60	38764
2026-01-28 21:39:27.74	103.16	9.54	-44.6	-59.7	3.6	1.51e+00	0	30	104	0	60	38967
2026-01-28 21:39:28.75	103.40	9.50	-44.5	-59.6	3.6	1.51e+00	0	31	104	0	60	38713
2026-01-28 21:39:29.76	103.64	9.46	-44.7	-59.5	3.6	1.51e+00	0	31	104	0	60	38493
2026-01-28 21:39:30.77	103.88	9.42	-44.3	-59.6	3.6	1.51e+00	0	30	104	0	60	38781
2026-01-28 21:39:31.78	104.12	9.39	-44.3	-59.6	3.6	1.51e+00	0	31	104	0	60	38758
2026-01-28 21:39:32.79	104.36	9.35	-44.5	-59.6	3.6	1.51e+00	0	30	104	0	60	38588
2026-01-28 21:39:33.80	104.60	9.31	-44.7	-59.6	3.6	1.51e+00	0	31	104	0	60	38661
2026-01-28 21:39:34.81	104.83	9.27	-44.6	-59.6	3.6	1.51e+00	0	31	104	0	60	38920
2026-01-28 21:39:35.82	105.07	9.22	-44.9	-59.6	3.6	1.51e+00	0	30	104	0	60	38860
2026-01-28 21:39:36.83	105.30	9.18	-44.8	-59.6	3.6	1.51e+00	0	31	104	0	60	38675
2026-01-28 21:39:37.84	105.54	9.14	-44.5	-59.6	3.6	1.51e+00	0	31	104	0	60	38538
2026-01-28 21:39:38.85	105.77	9.10	-44.8	-59.6	3.6	1.51e+00	0	30	104	0	60	38764
2026-01-28 21:39:39.85	106.00	9.06	-44.7	-59.5	3.6	1.51e+00	0	30	104	0	60	38391
2026-01-28 21:39:40.86	106.24	9.02	-44.4	-59.5	3.6	1.51e+00	0	30	104	0	60	38438
2026-01-28 21:39:41.87	106.47	8.98	-44.5	-59.5	3.6	1.51e+00	0	30	104	0	60	38325
2026-01-28 21:39:42.88	106.70	8.93	-44.5	-59.5	3.6	1.51e+00	0	30	104	0	60	38405
2026-01-28 21:39:43.89	106.93	8.89	-44.7	-59.6	3.6	1.51e+00	0	31	104	0	60	38592
2026-01-28 21:39:44.90	107.16	8.85	-44.7	-59.6	3.6	1.51e+00	0	30	104	0	60	38602
2026-01-28 21:39:45.91	107.39	8.81	-44.6	-59.5	3.6	1.51e+00	0	31	104	0	60	38146
2026-01-28 21:39:46.92	107.61	8.76	-44.5	-59.6	3.6	1.51e+00	0	31	104	0	60	38519
2026-01-28 21:39:47.93	107.84	8.72	-44.7	-59.5	3.6	1.51e+00	0	31	104	0	60	38441
2026-01-28 21:39:48.94	108.07	8.67	-44.7	-59.5	3.6	1.51e+00	0	31	104	0	60	38437
2026-01-28 21:39:49.95	108.29	8.63	-44.6	-59.5	3.6	1.51e+00	0	31	104	0	60	38345
2026-01-28 21:39:50.96	108.52	8.59	-44.1	-59.6	3.6	1.51e+00	0	31	104	0	60	38549
2026-01-28 21:39:51.97	108.74	8.54	-44.3	-59.5	3.6	1.51e+00	0	31	104	0	60	38461
2026-01-28 21:39:52.98	108.96	8.50	-44.5	-59.5	3.6	1.51e+00	0	31	104	0	60	38316
2026-01-28 21:39:53.99	109.18	8.45	-44.6	-59.4	3.6	1.51e+00	0	31	104	0	60	38022
2026-01-28 21:39:54.99	109.40	8.41	-44.6	-59.6	3.6	1.51e+00	0	31	104	0	60	38586
2026-01-28 21:39:56.00	109.62	8.36	-44.4	-59.5	3.6	1.51e+00	0	30	104	0	60	38193
2026-01-28 21:39:57.01	109.84	8.32	-44.2	-59.5	3.6	1.51e+00	0	31	104	0	60	38277
2026-01-28 21:39:58.02	110.06	8.27	-44.4	-59.5	3.6	1.51e+00	0	30	104	0	60	38077
2026-01-28 21:39:59.03	110.28	8.22	-44.7	-59.5	3.6	1.51e+00	0	31	104	0	60	38398
2026-01-28 21:40:00.03	110.49	8.18	-44.5	-59.5	3.6	1.51e+00	0	31	104	0	60	38296
2026-01-28 21:40:01.05	110.71	8.13	-44.5	-59.5	3.6	1.51e+00	0	31	104	0	60	38402
2026-01-28 21:40:02.05	110.92	8.09	-44.4	-59.4	3.6	1.51e+00	0	31	104	0	60	38052
2026-01-28 21:40:03.07	111.14	8.04	-44.5	-59.6	3.6	1.51e+00	0	31	104	0	60	38620
2026-01-28 21:40:04.08	111.35	7.99	-44.5	-59.5	3.6	1.51e+00	0	31	104	0	60	38090
2026-01-28 21:40:05.09	111.57	7.95	-44.5	-59.5	3.6	1.51e+00	0	31	104	0	60	38238
2026-01-28 21:40:06.09	111.78	7.90	-44.4	-59.4	3.6	1.51e+00	0	31	104	0	60	38047
2026-01-28 21:40:07.10	111.99	7.85	-44.7	-59.5	3.6	1.51e+00	0	31	104	0	60	38404
2026-01-28 21:40:08.11	112.20	7.80	-44.6	-59.4	3.6	1.51e+00	0	31	104	0	60	38029
2026-01-28 21:40:09.12	112.41	7.76	-44.4	-59.5	3.6	1.51e+00	0	31	104	0	60	38238
2026-01-28 21:40:10.13	112.61	7.71	-44.7	-59.4	3.6	1.51e+00	0	31	104	0	60	37982
2026-01-28 21:40:11.14	112.82	7.66	-44.8	-59.5	3.6	1.51e+00	0	31	104	0	60	38244
2026-01-28 21:40:12.15	113.03	7.61	-44.4	-59.5	3.6	1.51e+00	0	31	104	0	60	38154
2026-01-28 21:40:13.15	113.23	7.56	-44.7	-59.5	3.6	1.51e+00	0	31	104	0	60	38138
2026-01-28 21:40:14.16	113.44	7.52	-44.6	-59.4	3.6	1.51e+00	0	31	104	0	60	37655
2026-01-28 21:40:15.17	113.64	7.47	-44.7	-59.5	3.6	1.51e+00	0	31	104	0	60	38320
2026-01-28 21:40:16.18	113.85	7.42	-44.7	-59.4	3.6	1.51e+00	0	31	104	0	60	37892
2026-01-28 21:40:17.19	114.05	7.37	-44.5	-59.4	3.6	1.51e+00	0	31	104	0	60	38045
2026-01-28 21:40:18.20	114.25	7.32	-44.5	-59.3	3.6	1.51e+00	0	31	104	0	60	37218
2026-01-28 21:40:19.21	114.45	7.27	-44.7	-59.4	3.6	1.51e+00	0	31	104	0	60	37950
2026-01-28 21:40:20.22	114.65	7.22	-44.6	-59.4	3.6	1.51e+00	0	31	104	0	60	37668
2026-01-28 21:40:21.23	114.85	7.17	-44.6	-59.4	3.6	1.51e+00	0	31	104	0	60	37699
2026-01-28 21:40:22.23	115.05	7.12	-44.4	-59.3	3.6	1.51e+00	0	31	104	0	60	37442
2026-01-28 21:40:23.24	115.25	7.07	-44.7	-59.4	3.6	1.51e+00	0	31	104	0	60	37875
2026-01-28 21:40:24.25	115.44	7.02	-44.5	-59.3	3.6	1.51e+00	0	31	104	0	60	37346
2026-01-28 21:40:25.26	115.64	6.98	-44.5	-59.3	3.6	1.51e+00	0	31	104	0	60	37282
2026-01-28 21:40:26.27	115.83	6.93	-44.3	-59.2	3.6	1.51e+00	0	30	104	0	60	37051
2026-01-28 21:40:27.28	116.03	6.88	-44.6	-59.3	3.6	1.51e+00	0	31	104	0	60	37601
2026-01-28 21:40:28.29	116.22	6.83	-44.5	-59.3	3.6	1.51e+00	0	31	104	0	60	37357
2026-01-28 21:40:29.30	116.41	6.77	-44.5	-59.3	3.5	1.51e+00	0	31	104	0	60	37463
2026-01-28 21:40:30.31	116.61	6.72	-44.4	-59.2	3.6	1.51e+00	0	31	104	0	60	37098
2026-01-28 21:40:31.32	116.80	6.67	-44.6	-59.3	3.5	1.51e+00	0	31	104	0	60	37550
2026-01-28 21:40:32.33	116.99	6.62	-44.5	-59.2	3.6	1.51e+00	0	31	104	0	60	37192
2026-01-28 21:40:33.33	117.18	6.57	-44.5	-59.3	3.6	1.51e+00	0	31	104	0	60	37296
2026-01-28 21:40:34.34	117.36	6.52	-44.4	-59.2	3.6	1.51e+00	0	31	104	0	60	36963
2026-01-28 21:40:35.35	117.55	6.47	-44.5	-59.3	3.6	1.51e+00	0	31	104	0	60	37293
2026-01-28 21:40:36.36	117.74	6.42	-44.4	-59.2	3.6	1.51e+00	0	31	104	0	60	37016
2026-01-28 21:40:37.37	117.93	6.37	-44.4	-59.3	3.6	1.51e+00	0	31	104	0	60	37322
2026-01-28 21:40:38.38	118.11	6.32	-44.1	-59.2	3.6	1.51e+00	0	31	104	0	60	37109
2026-01-28 21:40:39.39	118.30	6.27	-44.6	-59.3	3.6	1.51e+00	0	31	104	0	60	37374
2026-01-28 21:40:40.40	118.48	6.22	-44.3	-59.3	3.6	1.51e+00	0	31	104	0	60	37264
2026-01-28 21:40:41.41	118.66	6.17	-44.2	-59.2	3.6	1.51e+00	0	31	104	0	60	37078
2026-01-28 21:40:42.42	118.85	6.11	-43.7	-59.2	3.6	1.51e+00	0	31	104	0	60	36836
2026-01-28 21:40:43.43	119.03	6.06	-44.4	-59.3	3.6	1.51e+00	0	31	104	0	60	37293
2026-01-28 21:40:44.43	119.21	6.01	-43.6	-59.2	3.6	1.51e+00	0	31	104	0	60	36982
2026-01-28 21:40:45.44	119.39	5.96	-43.8	-59.2	3.6	1.51e+00	0	30	104	0	60	36951
2026-01-28 21:40:46.45	119.57	5.91	-43.8	-59.2	3.6	1.51e+00	0	31	104	0	60	37064
2026-01-28 21:40:47.46	119.74	5.86	-44.2	-59.3	3.6	1.51e+00	0	31	104	0	60	37356
2026-01-28 21:40:48.47	119.92	5.81	-44.2	-59.2	3.6	1.51e+00	0	31	104	0	60	36872
2026-01-28 21:40:49.48	120.10	5.75	-44.0	-59.2	3.6	1.51e+00	0	31	104	0	60	37071
2026-01-28 21:40:50.49	120.28	5.70	-44.2	-59.2	3.6	1.51e+00	0	31	104	0	60	37022
2026-01-28 21:40:51.50	120.45	5.65	-44.0	-59.2	3.6	1.51e+00	0	31	104	0	60	37066
2026-01-28 21:40:52.51	120.63	5.60	-44.3	-59.2	3.6	1.51e+00	0	31	104	0	60	36994
2026-01-28 21:40:53.51	120.80	5.55	-44.4	-59.2	3.6	1.51e+00	0	31	104	0	60	36974
2026-01-28 21:40:54.52	120.97	5.49	-44.4	-59.2	3.6	1.51e+00	0	31	104	0	60	36878
2026-01-28 21:40:55.53	121.14	5.44	-44.4	-59.2	3.6	1.51e+00	0	31	104	0	60	37165
2026-01-28 21:40:56.54	121.32	5.39	-44.4	-59.2	3.6	1.51e+00	0	31	104	0	60	37009
2026-01-28 21:40:57.55	121.49	5.34	-44.3	-59.1	3.6	1.51e+00	0	31	104	0	60	36722
2026-01-28 21:40:58.56	121.66	5.29	-44.3	-59.2	3.6	1.51e+00	0	31	104	0	60	36831
2026-01-28 21:40:59.57	121.83	5.23	-44.3	-59.2	3.6	1.51e+00	0	31	104	0	60	36981
2026-01-28 21:41:00.58	121.99	5.18	-44.3	-59.1	3.6	1.51e+00	0	31	104	0	60	36707
2026-01-28 21:41:01.59	122.16	5.13	-44.3	-59.1	3.6	1.51e+00	0	31	104	0	60	36731
2026-01-28 21:41:02.60	122.33	5.08	-44.3	-59.2	3.6	1.51e+00	0	31	104	0	60	36833
2026-01-28 21:41:03.61	122.50	5.02	-44.4	-59.1	3.6	1.51e+00	0	31	104	0	60	36567
2026-01-28 21:41:04.62	122.66	4.97	-44.3	-59.1	3.6	1.51e+00	0	31	104	0	60	36464
2026-01-28 21:41:05.63	122.83	4.92	-44.3	-59.1	3.6	1.51e+00	0	31	104	0	60	36439
2026-01-28 21:41:06.64	122.99	4.87	-44.2	-59.1	3.6	1.51e+00	0	31	104	0	60	36485
2026-01-28 21:41:07.65	123.15	4.81	-44.2	-59.1	3.6	1.51e+00	0	31	104	0	60	36652
2026-01-28 21:41:08.66	123.32	4.76	-44.1	-59.1	3.6	1.51e+00	0	31	104	0	60	36398
2026-01-28 21:41:09.67	123.48	4.71	-44.2	-59.0	3.6	1.51e+00	0	31	104	0	60	36082
2026-01-28 21:41:10.68	123.64	4.66	-44.3	-59.1	3.6	1.51e+00	0	31	104	0	60	36579
2026-01-28 21:41:11.69	123.80	4.60	-44.2	-59.1	3.6	1.51e+00	0	31	104	0	60	36358
2026-01-28 21:41:12.70	123.96	4.55	-44.2	-59.0	3.6	1.51e+00	0	31	104	0	60	36007
2026-01-28 21:41:13.71	124.12	4.50	-44.2	-58.9	3.6	1.51e+00	0	31	104	0	60	35855
2026-01-28 21:41:14.72	124.28	4.45	-44.2	-59.0	3.6	1.51e+00	0	31	104	0	60	36284
2026-01-28 21:41:15.73	124.44	4.39	-44.2	-59.0	3.6	1.51e+00	0	31	104	0	60	36037
2026-01-28 21:41:16.74	124.59	4.34	-44.1	-59.0	3.6	1.51e+00	0	31	104	0	60	35977
2026-01-28 21:41:17.75	124.75	4.29	-44.2	-58.9	3.6	1.51e+00	0	31	104	0	60	35744
2026-01-28 21:41:18.76	124.91	4.24	-44.3	-59.0	3.6	1.51e+00	0	31	104	0	60	36045
2026-01-28 21:41:19.77	125.06	4.18	-44.1	-59.0	3.6	1.51e+00	0	31	104	0	60	36069
2026-01-28 21:41:20.78	125.21	4.13	-44.2	-59.0	3.6	1.51e+00	0	31	104	0	60	35991
2026-01-28 21:41:21.79	125.37	4.08	-44.1	-58.8	3.6	1.51e+00	0	30	104	0	60	35366
2026-01-28 21:41:22.79	125.52	4.03	-44.3	-59.0	3.6	1.51e+00	0	31	104	0	60	36001
2026-01-28 21:41:23.80	125.67	3.97	-44.2	-59.0	3.6	1.51e+00	0	31	104	0	60	36101
2026-01-28 21:41:24.81	125.82	3.92	-44.2	-58.9	3.6	1.51e+00	0	31	104	0	60	35878
2026-01-28 21:41:25.82	125.97	3.87	-44.0	-58.8	3.6	1.51e+00	0	31	104	0	60	35394
2026-01-28 21:41:26.83	126.12	3.81	-44.3	-59.0	3.6	1.51e+00	0	31	104	0	60	36048
2026-01-28 21:41:27.84	126.27	3.76	-44.2	-58.9	3.6	1.51e+00	0	31	104	0	60	35710
2026-01-28 21:41:28.85	126.42	3.71	-44.2	-58.9	3.6	1.51e+00	0	31	104	0	60	35667
2026-01-28 21:41:29.85	126.57	3.66	-43.9	-58.7	3.6	1.51e+00	0	31	104	0	60	34970
2026-01-28 21:41:30.86	126.72	3.60	-44.2	-59.0	3.6	1.51e+00	0	31	104	0	60	36042
2026-01-28 21:41:31.87	126.86	3.55	-44.1	-58.8	3.6	1.51e+00	0	31	104	0	60	35467
2026-01-28 21:41:32.88	127.01	3.50	-44.1	-58.8	3.6	1.51e+00	0	31	104	0	60	35376
2026-01-28 21:41:33.89	127.16	3.45	-43.8	-58.6	3.6	1.51e+00	0	31	104	0	60	34526
2026-01-28 21:41:34.90	127.30	3.39	-44.2	-58.9	3.6	1.51e+00	0	31	104	0	60	35633
2026-01-28 21:41:35.91	127.45	3.34	-44.0	-58.7	3.6	1.51e+00	0	31	104	0	60	35013
2026-01-28 21:41:36.91	127.59	3.29	-44.0	-58.8	3.6	1.51e+00	0	31	104	0	60	35201
2026-01-28 21:41:37.92	127.73	3.24	-43.7	-58.5	3.6	1.51e+00	0	31	104	0	60	34090
2026-01-28 21:41:38.94	127.87	3.18	-44.1	-58.8	3.6	1.51e+00	0	31	104	0	60	35272
2026-01-28 21:41:39.94	128.02	3.13	-43.8	-58.6	3.6	1.51e+00	0	31	104	0	60	34672
2026-01-28 21:41:40.95	128.16	3.08	-43.9	-58.7	3.6	1.51e+00	0	31	104	0	60	34804
2026-01-28 21:41:41.96	128.30	3.03	-43.5	-58.2	3.6	1.51e+00	0	31	104	0	60	33126
2026-01-28 21:41:42.97	128.44	2.97	-44.3	-59.0	3.6	1.51e+00	0	31	104	0	60	36161
2026-01-28 21:41:43.98	128.58	2.92	-44.0	-59.3	3.6	1.51e+00	0	31	104	0	60	37598
2026-01-28 21:41:44.99	128.71	2.87	-44.8	-59.6	3.6	1.51e+00	0	31	104	0	60	38820
2026-01-28 21:41:46.00	128.85	2.82	-45.0	-59.7	3.6	1.51e+00	0	31	104	0	60	39296
2026-01-28 21:41:47.01	128.99	2.76	-45.2	-59.9	3.6	1.51e+00	0	31	104	0	60	40272
2026-01-28 21:41:48.02	129.13	2.71	-45.0	-60.1	3.6	1.51e+00	0	31	104	0	60	40879
2026-01-28 21:41:49.03	129.26	2.66	-45.4	-60.1	3.6	1.51e+00	0	31	104	0	60	41005
2026-01-28 21:41:50.04	129.40	2.61	-45.4	-60.1	3.6	1.51e+00	0	31	104	0	60	41148
2026-01-28 21:41:51.05	129.53	2.55	-45.2	-60.2	3.6	1.51e+00	0	31	104	0	60	41321
2026-01-28 21:41:52.06	129.67	2.50	-45.3	-60.2	3.6	1.51e+00	0	31	104	0	60	41441
2026-01-28 21:41:53.07	129.80	2.45	-45.4	-60.2	3.6	1.51e+00	0	31	104	0	60	41595
2026-01-28 21:41:54.08	129.94	2.40	-45.5	-60.2	3.6	1.51e+00	0	31	104	0	60	41530
2026-01-28 21:41:55.09	130.07	2.35	-45.6	-60.3	3.6	1.51e+00	0	31	104	0	60	41955
2026-01-28 21:41:56.10	130.20	2.29	-45.5	-60.2	3.6	1.51e+00	0	31	104	0	60	41535
2026-01-28 21:41:57.11	130.33	2.24	-45.5	-60.3	3.6	1.51e+00	0	31	104	0	60	41762
2026-01-28 21:41:58.12	130.46	2.19	-45.4	-60.1	3.6	1.51e+00	0	31	104	0	60	41206
2026-01-28 21:41:59.13	130.59	2.14	-45.4	-60.1	3.6	1.51e+00	0	31	104	0	60	41059
2026-01-28 21:42:00.14	130.72	2.08	-45.4	-60.1	3.6	1.51e+00	0	31	104	0	60	41067
2026-01-28 21:42:01.15	130.85	2.03	-45.4	-60.1	3.6	1.51e+00	0	31	104	0	60	40985
2026-01-28 21:42:02.16	130.98	1.98	-45.4	-60.1	3.6	1.51e+00	0	31	104	0	60	40984
2026-01-28 21:42:03.17	131.11	1.93	-45.5	-60.1	3.6	1.51e+00	0	31	104	0	60	41225
2026-01-28 21:42:04.18	131.24	1.88	-45.4	-60.1	3.6	1.51e+00	0	31	104	0	60	40981
2026-01-28 21:42:05.19	131.36	1.82	-45.5	-60.2	3.6	1.51e+00	0	31	104	0	60	41366
2026-01-28 21:42:06.20	131.49	1.77	-45.6	-60.2	3.6	1.51e+00	0	31	104	0	60	41674
2026-01-28 21:42:07.21	131.62	1.72	-45.5	-60.3	3.6	1.51e+00	0	31	104	0	60	41893
2026-01-28 21:42:08.22	131.74	1.67	-45.5	-60.3	3.6	1.51e+00	0	31	104	0	60	41954
2026-01-28 21:42:09.23	131.87	1.62	-45.5	-60.2	3.6	1.51e+00	0	31	104	0	60	41382
2026-01-28 21:42:10.24	131.99	1.56	-45.4	-60.1	3.6	1.51e+00	0	31	104	0	60	41042
2026-01-28 21:42:11.25	132.11	1.51	-45.6	-60.3	3.6	1.51e+00	0	31	104	0	60	41841
2026-01-28 21:42:12.26	132.24	1.46	-45.6	-60.3	3.6	1.51e+00	0	31	104	0	60	41814
2026-01-28 21:42:13.27	132.36	1.41	-45.6	-60.3	3.6	1.51e+00	0	31	104	0	60	42076
2026-01-28 21:42:14.28	132.48	1.36	-45.7	-60.4	3.6	1.51e+00	0	31	104	0	60	42519
2026-01-28 21:42:15.29	132.60	1.31	-45.5	-60.2	3.6	1.51e+00	0	31	104	0	60	41585
2026-01-28 21:42:16.30	132.72	1.25	-45.5	-60.1	3.6	1.51e+00	0	31	104	0	60	41117
2026-01-28 21:42:17.31	132.85	1.20	-45.6	-60.4	3.6	1.51e+00	0	31	104	0	60	42262
2026-01-28 21:42:18.32	132.97	1.15	-45.8	-60.5	3.6	1.51e+00	0	31	104	0	60	43081
2026-01-28 21:42:19.33	133.08	1.10	-45.8	-60.5	3.6	1.51e+00	0	31	104	0	60	43159
2026-01-28 21:42:20.34	133.20	1.05	-45.7	-60.4	3.6	1.51e+00	0	31	104	0	60	42279
2026-01-28 21:42:21.35	133.32	1.00	-45.6	-60.3	3.6	1.51e+00	0	31	104	0	60	42121
2026-01-28 21:42:22.36	133.44	0.95	-45.7	-60.4	3.6	1.51e+00	0	31	104	0	60	42231
2026-01-28 21:42:23.37	133.56	0.89	-45.8	-60.5	3.6	1.51e+00	0	31	104	0	60	42857
2026-01-28 21:42:24.38	133.67	0.84	-45.7	-60.4	3.6	1.51e+00	0	31	104	0	60	42242
2026-01-28 21:42:25.39	133.79	0.79	-45.6	-60.3	3.6	1.51e+00	0	31	104	0	60	42008
2026-01-28 21:42:26.40	133.91	0.74	-45.7	-60.4	3.6	1.51e+00	0	31	104	0	60	42229
2026-01-28 21:42:27.41	134.02	0.69	-45.6	-60.3	3.6	1.51e+00	0	31	104	0	60	42030
2026-01-28 21:42:28.42	134.14	0.64	-45.6	-60.3	3.6	1.51e+00	0	31	104	0	60	41998
2026-01-28 21:42:29.43	134.25	0.59	-45.5	-60.3	3.6	1.51e+00	0	31	104	0	60	41757
2026-01-28 21:42:30.45	134.37	0.54	-45.6	-60.3	3.6	1.51e+00	0	31	104	0	60	41752
2026-01-28 21:42:31.46	134.48	0.48	-45.7	-60.4	3.6	1.51e+00	0	31	104	0	60	42366
2026-01-28 21:42:32.46	134.59	0.43	-45.6	-60.3	3.6	1.51e+00	0	31	104	0	60	42190
2026-01-28 21:42:33.47	134.70	0.38	-45.6	-60.3	3.6	1.51e+00	0	31	104	0	60	41844
2026-01-28 21:42:34.48	134.82	0.33	-45.7	-60.4	3.6	1.51e+00	0	31	104	0	60	42357
2026-01-28 21:42:35.50	134.93	0.28	-45.6	-60.3	3.6	1.51e+00	0	31	104	0	60	42105
2026-01-28 21:42:36.50	135.04	0.23	-46.0	-60.8	3.6	1.51e+00	0	31	104	0	60	44249
2026-01-28 21:42:37.51	135.15	0.18	-45.8	-60.5	3.6	1.51e+00	0	31	104	0	60	43191
2026-01-28 21:42:38.53	135.26	0.13	-45.7	-60.4	3.6	1.51e+00	0	31	104	0	60	42538
2026-01-28 21:42:39.54	135.37	0.08	-45.8	-60.5	3.6	1.51e+00	0	31	104	0	60	42741
2026-01-28 21:42:40.55	135.48	0.03	-45.8	-60.4	3.6	1.51e+00	0	31	104	0	60	42671
2026-01-28 21:42:41.56	135.59	-0.02	-45.9	-60.6	3.6	1.51e+00	0	31	104	0	60	43222

#Closed at: 2026-01-28 21:42:41
#Recorded file [0 MB]: D:/lorett/data/35029_260129_093320.dat