passes_logs/2026/01/28/R4.6S_Anadyr/R4.6S_Anadyr__20260128_224510_TY-42_rec.log

#Pass ID: 20260128_224510_TY-42
#Satellite: TY-42
#Configuration: TY-42_900M
#almurnet v.1.7.20251203
#Start time: 2026-01-28 22:45:41

#Version: 2.2.20231116
#Station: R4.6S_Anadyr
#Location: 177.4865 lon 64.73178 lat
#TLE: 1 64048U 25103A   26028.60844907  .00008011  00000-0  38191-3 0 09994
#TLE: 2 64048 097.4119 103.7705 0001778 092.6266 304.9547 15.19172955 38886

#Time	Az	El	Level	Level2	SNR	BER	BlckErr	Temp	State	Recorded	gain1	gain2
2026-01-28 22:45:41.78	20.51	1.99	-49.0	-50.5	3.4	1.66e-03	0	29	0	0	60	40925
2026-01-28 22:45:42.75	20.55	2.05	-47.6	-50.1	6.1	0.00e+00	0	31	104	0	60	39342
2026-01-28 22:45:43.73	20.60	2.12	-47.7	-50.1	6.1	0.00e+00	0	31	104	0	60	39362
2026-01-28 22:45:44.71	20.65	2.19	-47.6	-50.1	6.1	0.00e+00	0	31	104	0	60	39331
2026-01-28 22:45:45.69	20.70	2.25	-47.7	-50.1	6.1	0.00e+00	0	31	104	0	60	39246
2026-01-28 22:45:46.67	20.74	2.32	-47.6	-50.1	6.1	0.00e+00	0	31	104	0	60	39254
2026-01-28 22:45:47.65	20.79	2.39	-47.6	-50.1	6.1	0.00e+00	0	31	104	0	60	39377
2026-01-28 22:45:48.63	20.84	2.45	-47.6	-50.1	6.1	0.00e+00	0	31	104	0	60	39283
2026-01-28 22:45:49.60	20.89	2.52	-47.7	-50.1	6.1	0.00e+00	0	31	104	0	60	39275
2026-01-28 22:45:50.58	20.94	2.59	-47.6	-50.1	6.1	0.00e+00	0	31	104	0	60	39259
2026-01-28 22:45:51.57	20.99	2.65	-47.6	-50.1	6.1	0.00e+00	0	31	104	0	60	39234
2026-01-28 22:45:52.54	21.04	2.72	-47.7	-50.1	6.1	0.00e+00	0	31	104	0	60	39223
2026-01-28 22:45:53.52	21.08	2.79	-47.7	-50.1	6.1	0.00e+00	0	31	104	0	60	39274
2026-01-28 22:45:54.49	21.13	2.86	-47.7	-50.1	6.1	0.00e+00	0	31	104	0	60	39277
2026-01-28 22:45:55.47	21.18	2.92	-47.7	-50.2	6.1	0.00e+00	0	31	104	0	60	39517
2026-01-28 22:45:56.45	21.23	2.99	-47.7	-50.1	6.1	0.00e+00	0	31	104	0	60	39139
2026-01-28 22:45:57.43	21.29	3.06	-47.7	-50.1	6.1	0.00e+00	0	31	104	0	60	39113
2026-01-28 22:45:58.41	21.34	3.13	-47.7	-50.1	6.1	0.00e+00	0	31	104	0	60	39254
2026-01-28 22:45:59.39	21.39	3.20	-47.7	-50.1	6.1	0.00e+00	0	31	104	0	60	39282
2026-01-28 22:46:00.37	21.44	3.27	-47.7	-50.1	6.1	0.00e+00	0	32	104	0	60	39335
2026-01-28 22:46:01.35	21.49	3.34	-47.7	-50.1	6.1	0.00e+00	0	31	104	0	60	39297
2026-01-28 22:46:02.33	21.54	3.41	-47.7	-50.1	6.1	0.00e+00	0	31	104	0	60	39354
2026-01-28 22:46:03.30	21.60	3.48	-47.7	-50.1	6.1	0.00e+00	0	32	104	0	60	39232
2026-01-28 22:46:04.28	21.65	3.55	-47.7	-50.1	6.1	0.00e+00	0	32	104	0	60	39258
2026-01-28 22:46:05.26	21.70	3.62	-47.7	-50.2	6.1	0.00e+00	0	31	104	0	60	39505
2026-01-28 22:46:06.25	21.75	3.69	-47.7	-50.1	6.1	0.00e+00	0	32	104	0	60	39337
2026-01-28 22:46:07.23	21.81	3.76	-47.7	-50.2	6.1	0.00e+00	0	32	104	0	60	39550
2026-01-28 22:46:08.21	21.86	3.83	-47.7	-50.1	6.1	0.00e+00	0	32	104	0	60	39235
2026-01-28 22:46:09.19	21.92	3.90	-47.7	-50.1	6.1	0.00e+00	0	32	104	0	60	39376
2026-01-28 22:46:10.17	21.97	3.97	-47.6	-50.1	6.1	0.00e+00	0	32	104	0	60	39238
2026-01-28 22:46:11.15	22.03	4.05	-47.8	-50.3	6.1	0.00e+00	0	32	104	0	60	40071
2026-01-28 22:46:12.13	22.08	4.12	-47.7	-50.2	6.1	0.00e+00	0	32	104	0	60	39549
2026-01-28 22:46:13.11	22.14	4.19	-47.7	-50.2	6.1	0.00e+00	0	32	104	0	60	39575
2026-01-28 22:46:14.09	22.19	4.26	-47.8	-50.3	6.1	0.00e+00	0	32	104	0	60	40211
2026-01-28 22:46:15.07	22.25	4.33	-47.8	-50.3	6.1	0.00e+00	0	32	104	0	60	40079
2026-01-28 22:46:16.05	22.30	4.41	-47.6	-50.1	6.1	0.00e+00	0	32	104	0	60	39377
2026-01-28 22:46:17.03	22.36	4.48	-47.7	-50.2	6.1	0.00e+00	0	32	104	0	60	39547
2026-01-28 22:46:18.00	22.42	4.55	-47.8	-50.2	6.1	0.00e+00	0	32	104	0	60	39829
2026-01-28 22:46:18.98	22.47	4.63	-47.9	-50.4	6.1	0.00e+00	0	32	104	0	60	40495
2026-01-28 22:46:19.97	22.53	4.70	-47.8	-50.3	6.1	0.00e+00	0	32	104	0	60	40097
2026-01-28 22:46:20.95	22.59	4.78	-47.8	-50.3	6.1	0.00e+00	0	32	104	0	60	39981
2026-01-28 22:46:21.93	22.65	4.85	-47.8	-50.4	6.1	0.00e+00	0	32	104	0	60	40462
2026-01-28 22:46:22.90	22.71	4.92	-47.9	-50.4	6.1	0.00e+00	0	32	104	0	60	40409
2026-01-28 22:46:23.89	22.77	5.00	-47.8	-50.3	6.1	0.00e+00	0	32	104	0	60	40012
2026-01-28 22:46:24.87	22.83	5.08	-47.7	-50.2	6.1	0.00e+00	0	32	104	0	60	39707
2026-01-28 22:46:25.84	22.89	5.15	-48.0	-50.5	6.1	0.00e+00	0	32	104	0	60	40995
2026-01-28 22:46:26.82	22.95	5.23	-48.0	-50.4	6.1	0.00e+00	0	32	104	0	60	40514
2026-01-28 22:46:27.80	23.01	5.30	-47.9	-50.4	6.1	0.00e+00	0	32	104	0	60	40575
2026-01-28 22:46:28.78	23.07	5.38	-47.8	-50.3	6.1	0.00e+00	0	32	104	0	60	40147
2026-01-28 22:46:29.75	23.13	5.45	-47.9	-50.4	6.1	0.00e+00	0	32	104	0	60	40476
2026-01-28 22:46:30.73	23.19	5.53	-48.0	-50.4	6.1	0.00e+00	0	32	104	0	60	40648
2026-01-28 22:46:31.71	23.25	5.61	-47.9	-50.4	6.1	0.00e+00	0	32	104	0	60	40346
2026-01-28 22:46:32.69	23.31	5.69	-47.8	-50.3	6.1	0.00e+00	0	32	104	0	60	39873
2026-01-28 22:46:33.67	23.38	5.76	-35.2	-35.6	10.5	0.00e+00	678	32	104	0	40	23367
2026-01-28 22:46:34.65	23.44	5.84	-39.0	-39.4	9.7	0.00e+00	0	32	104	0	54	16137
2026-01-28 22:46:35.63	23.50	5.92	-36.8	-37.1	11.3	0.00e+00	5542	32	104	0	48	17549
2026-01-28 22:46:36.61	23.57	6.00	-34.6	-34.9	12.9	0.00e+00	0	32	0	109051904	46	15206
2026-01-28 22:46:37.59	23.63	6.08	-32.5	-32.8	14.0	1.91e-01	0	33	0	218103808	40	16942
2026-01-28 22:46:38.57	23.70	6.16	-31.6	-32.0	14.6	1.91e-01	0	33	0	327155712	38	17275
2026-01-28 22:46:39.54	23.76	6.23	-31.6	-31.9	14.3	2.64e-02	0	33	0	436207616	38	17159
2026-01-28 22:46:40.52	23.83	6.31	-31.4	-31.8	14.5	2.64e-02	0	33	0	545259520	38	16865
2026-01-28 22:46:41.50	23.89	6.39	-31.6	-31.9	14.5	2.64e-02	0	33	0	654311424	38	17201
2026-01-28 22:46:42.48	23.96	6.47	-31.4	-31.7	14.7	1.65e-02	0	33	0	763363328	36	18800
2026-01-28 22:46:43.45	24.03	6.55	-31.2	-31.5	14.8	1.65e-02	0	33	0	872415232	36	18403
2026-01-28 22:46:44.43	24.09	6.64	-30.5	-30.9	15.0	1.17e-02	0	33	0	981467136	36	17041
2026-01-28 22:46:45.42	24.16	6.72	-30.1	-30.4	15.1	1.17e-02	0	33	0	1098907648	36	16236
2026-01-28 22:46:46.40	24.23	6.80	-29.6	-29.9	15.4	6.38e-03	0	33	0	1207959552	34	17190
2026-01-28 22:46:47.38	24.30	6.88	-28.4	-28.8	15.7	6.38e-03	0	33	0	1317011456	32	16820
2026-01-28 22:46:48.36	24.37	6.96	-28.5	-28.9	15.7	3.06e-03	0	33	0	1426063360	32	17098
2026-01-28 22:46:49.34	24.44	7.05	-28.1	-28.5	15.8	3.06e-03	0	33	0	1543503872	30	18232
2026-01-28 22:46:50.32	24.51	7.13	-27.8	-28.1	15.9	1.16e-03	0	33	0	1644167168	30	17500
2026-01-28 22:46:51.30	24.58	7.21	-27.5	-27.9	15.9	1.16e-03	0	33	0	1761607680	30	17049
2026-01-28 22:46:52.28	24.65	7.29	-27.2	-27.6	16.0	5.39e-04	0	33	0	1870659584	30	16437
2026-01-28 22:46:53.26	24.72	7.38	-27.3	-27.6	16.1	5.39e-04	0	33	0	1979711488	30	16615
2026-01-28 22:46:54.24	24.79	7.46	-27.0	-27.3	16.2	5.39e-04	0	33	0	2088763392	30	16021
2026-01-28 22:46:55.21	24.86	7.55	-27.0	-27.4	16.1	2.89e-04	0	33	0	2197815296	30	16107
2026-01-28 22:46:56.19	24.94	7.63	-27.1	-27.5	16.1	2.89e-04	0	33	0	2306867200	30	16330
2026-01-28 22:46:57.17	25.01	7.72	-26.5	-26.9	16.3	3.98e-04	0	33	0	2415919104	28	17054
2026-01-28 22:46:58.15	25.08	7.80	-26.5	-26.8	16.3	3.98e-04	0	33	0	2533359616	28	16971
2026-01-28 22:46:59.13	25.16	7.89	-26.1	-26.5	16.4	9.26e-05	0	33	0	2634022912	28	16327
2026-01-28 22:47:00.11	25.23	7.97	-26.4	-26.7	16.3	9.26e-05	0	33	0	2751463424	28	16772
2026-01-28 22:47:01.09	25.31	8.06	-26.0	-26.4	16.4	5.44e-05	0	33	0	2860515328	28	16199
2026-01-28 22:47:02.07	25.39	8.15	-26.1	-26.5	16.4	5.44e-05	0	33	0	2969567232	28	16335
2026-01-28 22:47:03.04	25.46	8.23	-26.2	-26.6	16.4	5.44e-05	0	33	0	3078619136	26	18457
2026-01-28 22:47:04.03	25.54	8.32	-26.0	-26.4	16.4	4.35e-05	0	33	0	3187671040	26	18051
2026-01-28 22:47:05.01	25.62	8.41	-26.2	-26.6	16.3	4.35e-05	0	33	0	3305111552	26	18524
2026-01-28 22:47:05.99	25.69	8.50	-26.0	-26.4	16.4	1.03e-04	0	33	0	3414163456	26	18120
2026-01-28 22:47:06.97	25.77	8.59	-26.2	-26.5	16.3	1.03e-04	0	33	0	3523215360	26	18431
2026-01-28 22:47:07.94	25.85	8.68	-25.9	-26.3	16.5	9.80e-05	0	33	0	3632267264	26	17903
2026-01-28 22:47:08.92	25.93	8.77	-25.8	-26.2	16.5	9.80e-05	0	33	0	3741319168	26	17663
2026-01-28 22:47:09.90	26.01	8.86	-25.5	-25.9	16.6	4.35e-05	0	33	0	3850371072	26	17092
2026-01-28 22:47:10.87	26.09	8.95	-25.6	-26.0	16.5	4.35e-05	0	34	0	3959422976	26	17398
2026-01-28 22:47:11.85	26.17	9.04	-25.4	-25.8	16.6	3.81e-05	0	33	0	4068474880	26	16844
2026-01-28 22:47:12.84	26.26	9.13	-25.6	-26.0	16.5	3.81e-05	0	33	0	4185915392	26	17267
2026-01-28 22:47:13.82	26.34	9.22	-25.5	-25.9	16.6	2.17e-05	0	33	0	4294967296	26	17126
2026-01-28 22:47:14.80	26.42	9.31	-25.5	-25.9	16.6	2.17e-05	0	33	0	4404019200	26	17073
2026-01-28 22:47:15.79	26.51	9.41	-25.6	-26.0	16.5	2.17e-05	0	33	0	4513071104	26	17212
2026-01-28 22:47:16.77	26.59	9.50	-25.6	-26.0	16.5	2.17e-05	0	34	0	4622123008	26	17253
2026-01-28 22:47:17.75	26.68	9.59	-25.6	-26.0	16.5	2.17e-05	0	33	0	4731174912	26	17226
2026-01-28 22:47:18.72	26.76	9.68	-25.2	-25.6	16.6	1.63e-05	0	33	0	4840226816	26	16475
2026-01-28 22:47:19.71	26.85	9.78	-25.2	-25.6	16.6	1.63e-05	0	33	0	4957667328	26	16590
2026-01-28 22:47:20.69	26.94	9.87	-25.2	-25.7	16.6	2.72e-05	0	34	0	5066719232	26	16629
2026-01-28 22:47:21.66	27.02	9.97	-24.8	-25.2	16.7	2.72e-05	0	34	0	5175771136	26	15840
2026-01-28 22:47:22.64	27.11	10.06	-24.9	-25.3	16.6	1.08e-05	0	33	0	5284823040	26	15953
2026-01-28 22:47:23.62	27.20	10.16	-24.7	-25.1	16.7	1.08e-05	0	33	0	5393874944	26	15552
2026-01-28 22:47:24.59	27.29	10.25	-25.0	-25.4	16.6	2.72e-05	0	34	0	5502926848	24	18197
2026-01-28 22:47:25.57	27.38	10.35	-24.8	-25.2	16.5	2.72e-05	0	34	0	5611978752	24	17780
2026-01-28 22:47:26.55	27.47	10.45	-25.1	-25.5	16.5	2.72e-05	0	34	0	5729419264	24	18235
2026-01-28 22:47:27.53	27.56	10.55	-24.8	-25.2	16.6	3.26e-05	0	33	0	5830082560	24	17761
2026-01-28 22:47:28.51	27.66	10.64	-24.9	-25.3	16.6	3.26e-05	0	33	0	5947523072	24	17852
2026-01-28 22:47:29.49	27.75	10.74	-24.8	-25.2	16.7	1.63e-05	0	34	0	6056574976	24	17787
2026-01-28 22:47:30.47	27.85	10.84	-24.8	-25.2	16.7	1.63e-05	0	34	0	6165626880	24	17634
2026-01-28 22:47:31.44	27.94	10.94	-24.6	-25.0	16.7	0.00e+00	0	34	0	6274678784	24	17332
2026-01-28 22:47:32.43	28.04	11.04	-24.5	-24.9	16.7	0.00e+00	0	34	0	6383730688	24	17159
2026-01-28 22:47:33.40	28.13	11.14	-24.6	-25.0	16.8	0.00e+00	0	34	0	6492782592	24	17248
2026-01-28 22:47:34.39	28.23	11.24	-24.5	-24.9	16.8	0.00e+00	0	34	0	6610223104	24	17138
2026-01-28 22:47:35.37	28.33	11.34	-24.5	-24.9	16.8	0.00e+00	0	34	0	6719275008	24	17025
2026-01-28 22:47:36.35	28.43	11.44	-24.2	-24.6	16.8	5.40e-06	0	34	0	6828326912	24	16570
2026-01-28 22:47:37.33	28.53	11.55	-24.3	-24.7	16.8	5.40e-06	0	34	0	6937378816	24	16669
2026-01-28 22:47:38.31	28.63	11.65	-24.2	-24.7	16.7	5.40e-06	0	34	0	7046430720	24	16638
2026-01-28 22:47:39.29	28.73	11.75	-24.3	-24.7	16.7	5.40e-06	0	34	0	7163871232	24	16656
2026-01-28 22:47:40.27	28.83	11.86	-24.3	-24.7	16.7	3.26e-05	0	34	0	7264534528	24	16702
2026-01-28 22:47:41.25	28.93	11.96	-24.2	-24.6	16.7	3.26e-05	0	34	0	7381975040	24	16592
2026-01-28 22:47:42.23	29.04	12.07	-24.1	-24.5	16.6	1.08e-05	0	34	0	7482638336	24	16393
2026-01-28 22:47:43.21	29.14	12.17	-24.2	-24.6	16.6	1.08e-05	0	34	0	7600078848	24	16483
2026-01-28 22:47:44.19	29.24	12.28	-24.1	-24.5	16.6	1.08e-05	0	34	0	7709130752	24	16248
2026-01-28 22:47:45.17	29.35	12.38	-23.9	-24.3	16.8	1.08e-05	0	34	0	7818182656	24	15967
2026-01-28 22:47:46.15	29.46	12.49	-23.9	-24.3	16.8	1.08e-05	0	34	0	7927234560	24	16013
2026-01-28 22:47:47.13	29.57	12.60	-23.9	-24.3	16.8	5.40e-06	0	34	0	8036286464	24	15983
2026-01-28 22:47:48.11	29.68	12.71	-23.9	-24.2	16.8	5.40e-06	0	34	0	8153726976	24	15831
2026-01-28 22:47:49.09	29.79	12.82	-23.8	-24.2	16.9	0.00e+00	0	34	0	8262778880	24	15701
2026-01-28 22:47:50.06	29.89	12.92	-23.8	-24.2	16.9	0.00e+00	0	34	0	8371830784	22	17708
2026-01-28 22:47:51.04	30.01	13.03	-23.7	-24.1	16.9	0.00e+00	0	34	0	8480882688	22	17563
2026-01-28 22:47:52.02	30.12	13.14	-23.8	-24.1	16.9	0.00e+00	0	34	0	8589934592	22	17583
2026-01-28 22:47:53.00	30.23	13.26	-23.8	-24.2	16.9	0.00e+00	0	34	0	8698986496	22	17691
2026-01-28 22:47:53.98	30.35	13.37	-23.7	-24.1	16.9	0.00e+00	0	34	0	8808038400	22	17453
2026-01-28 22:47:54.95	30.46	13.48	-23.6	-24.0	16.9	0.00e+00	0	34	0	8917090304	22	17299
2026-01-28 22:47:55.94	30.58	13.59	-23.5	-23.9	17.0	0.00e+00	0	34	0	9034530816	22	17148
2026-01-28 22:47:56.92	30.70	13.70	-23.6	-24.0	17.0	0.00e+00	0	34	0	9143582720	22	17235
2026-01-28 22:47:57.89	30.82	13.82	-23.4	-23.8	17.0	1.08e-05	0	34	0	9252634624	22	16818
2026-01-28 22:47:58.87	30.94	13.93	-23.5	-23.9	17.0	1.08e-05	0	34	0	9361686528	22	17143
2026-01-28 22:47:59.86	31.06	14.05	-23.4	-23.9	17.0	1.08e-05	0	34	0	9470738432	22	17014
2026-01-28 22:48:00.83	31.18	14.16	-23.4	-23.8	17.0	0.00e+00	0	34	0	9579790336	22	16950
2026-01-28 22:48:01.81	31.30	14.28	-23.2	-23.6	17.0	0.00e+00	0	34	0	9688842240	22	16531
2026-01-28 22:48:02.79	31.43	14.40	-23.2	-23.7	17.0	0.00e+00	0	34	0	9806282752	22	16620
2026-01-28 22:48:03.77	31.55	14.51	-23.1	-23.6	17.0	0.00e+00	0	34	0	9906946048	22	16435
2026-01-28 22:48:04.75	31.68	14.63	-23.1	-23.5	17.0	5.40e-06	0	34	0	10024386560	22	16425
2026-01-28 22:48:05.73	31.80	14.75	-23.0	-23.4	17.1	5.40e-06	0	34	0	10133438464	22	16097
2026-01-28 22:48:06.70	31.93	14.87	-23.1	-23.5	17.1	5.40e-06	0	34	0	10242490368	22	16309
2026-01-28 22:48:07.68	32.06	14.99	-23.0	-23.4	17.0	0.00e+00	0	34	0	10351542272	22	16161
2026-01-28 22:48:08.66	32.19	15.11	-23.2	-23.6	17.0	0.00e+00	0	34	0	10460594176	22	16555
2026-01-28 22:48:09.63	32.32	15.23	-23.1	-23.5	17.0	0.00e+00	0	34	0	10569646080	22	16276
2026-01-28 22:48:10.61	32.46	15.35	-23.2	-23.6	17.0	0.00e+00	0	34	0	10678697984	22	16482
2026-01-28 22:48:11.59	32.59	15.47	-23.0	-23.4	17.0	0.00e+00	0	34	0	10796138496	22	16109
2026-01-28 22:48:12.58	32.73	15.60	-23.0	-23.4	17.1	0.00e+00	0	34	0	10896801792	22	16195
2026-01-28 22:48:13.56	32.87	15.72	-22.9	-23.4	17.1	0.00e+00	0	34	0	11014242304	22	16076
2026-01-28 22:48:14.54	33.01	15.85	-22.9	-23.3	17.1	0.00e+00	0	34	0	11123294208	22	16038
2026-01-28 22:48:15.52	33.15	15.97	-22.8	-23.2	17.1	0.00e+00	0	34	0	11232346112	20	17630
2026-01-28 22:48:16.50	33.29	16.10	-22.8	-23.2	17.1	5.40e-06	0	34	0	11341398016	20	17653
2026-01-28 22:48:17.48	33.43	16.23	-22.7	-23.1	17.1	0.00e+00	0	34	0	11450449920	20	17488
2026-01-28 22:48:18.47	33.58	16.36	-22.6	-23.0	17.1	0.00e+00	0	34	0	11567890432	20	17268
2026-01-28 22:48:19.44	33.72	16.48	-22.6	-23.0	17.1	0.00e+00	0	34	0	11676942336	20	17313
2026-01-28 22:48:20.42	33.87	16.61	-22.5	-22.9	17.1	0.00e+00	0	34	0	11785994240	20	17152
2026-01-28 22:48:21.41	34.02	16.74	-22.5	-22.9	17.1	0.00e+00	0	34	0	11895046144	20	17123
2026-01-28 22:48:22.38	34.16	16.87	-22.2	-22.7	17.1	0.00e+00	0	34	0	12004098048	20	16635
2026-01-28 22:48:23.36	34.32	17.00	-22.3	-22.7	17.1	0.00e+00	0	34	0	12113149952	20	16779
2026-01-28 22:48:24.34	34.47	17.13	-22.3	-22.7	17.1	0.00e+00	0	34	0	12230590464	20	16672
2026-01-28 22:48:25.32	34.62	17.27	-22.5	-22.9	17.0	0.00e+00	0	34	0	12331253760	20	17052
2026-01-28 22:48:26.30	34.78	17.40	-22.2	-22.6	17.0	0.00e+00	0	34	0	12448694272	20	16510
2026-01-28 22:48:27.28	34.94	17.54	-22.0	-22.4	17.0	0.00e+00	0	34	0	12557746176	20	16234
2026-01-28 22:48:28.26	35.10	17.67	-22.1	-22.5	17.0	0.00e+00	0	34	0	12666798080	20	16302
2026-01-28 22:48:29.24	35.26	17.81	-22.0	-22.4	17.0	0.00e+00	0	34	0	12775849984	20	16231
2026-01-28 22:48:30.22	35.42	17.94	-22.0	-22.4	17.1	0.00e+00	0	34	0	12884901888	20	16141
2026-01-28 22:48:31.19	35.58	18.08	-22.1	-22.5	17.1	0.00e+00	0	34	0	13002342400	20	16315
2026-01-28 22:48:32.17	35.75	18.22	-21.8	-22.2	17.2	0.00e+00	0	34	0	13103005696	20	15743
2026-01-28 22:48:33.15	35.91	18.35	-21.6	-22.0	17.3	0.00e+00	0	34	0	13220446208	18	17338
2026-01-28 22:48:34.13	36.08	18.49	-21.7	-22.1	17.1	0.00e+00	0	34	0	13321109504	18	17473
2026-01-28 22:48:35.11	36.25	18.63	-21.7	-22.1	17.1	0.00e+00	0	34	0	13438550016	18	17516
2026-01-28 22:48:36.08	36.42	18.77	-21.7	-22.2	17.1	0.00e+00	0	34	0	13547601920	18	17613
2026-01-28 22:48:37.06	36.60	18.92	-21.5	-21.9	17.2	0.00e+00	0	34	0	13656653824	18	17154
2026-01-28 22:48:38.04	36.77	19.06	-21.7	-22.1	17.2	0.00e+00	0	34	0	13765705728	18	17468
2026-01-28 22:48:39.01	36.95	19.20	-21.4	-21.9	17.3	0.00e+00	0	34	0	13874757632	18	17052
2026-01-28 22:48:39.99	37.13	19.35	-21.5	-21.9	17.2	0.00e+00	0	34	0	13992198144	18	17104
2026-01-28 22:48:40.97	37.31	19.49	-21.4	-21.9	17.3	0.00e+00	0	34	0	14092861440	18	17011
2026-01-28 22:48:41.95	37.50	19.64	-21.7	-22.1	17.2	0.00e+00	0	34	0	14210301952	18	17497
2026-01-28 22:48:42.94	37.68	19.79	-21.5	-21.9	17.2	0.00e+00	0	34	0	14310965248	18	17174
2026-01-28 22:48:43.92	37.87	19.93	-21.2	-21.6	17.3	0.00e+00	0	34	0	14428405760	18	16584
2026-01-28 22:48:44.89	38.06	20.08	-21.3	-21.7	17.3	0.00e+00	0	34	0	14537457664	18	16693
2026-01-28 22:48:45.87	38.25	20.23	-21.1	-21.6	17.3	0.00e+00	0	34	0	14646509568	18	16472
2026-01-28 22:48:46.85	38.44	20.38	-21.2	-21.6	17.3	0.00e+00	0	34	0	14755561472	18	16555
2026-01-28 22:48:47.83	38.64	20.53	-21.1	-21.5	17.3	0.00e+00	0	34	0	14864613376	18	16393
2026-01-28 22:48:48.81	38.84	20.68	-21.0	-21.4	17.3	0.00e+00	0	34	0	14982053888	18	16128
2026-01-28 22:48:49.79	39.04	20.83	-21.1	-21.5	17.3	0.00e+00	0	34	0	15091105792	18	16359
2026-01-28 22:48:50.77	39.24	20.99	-21.0	-21.4	17.2	0.00e+00	0	34	0	15200157696	18	16127
2026-01-28 22:48:51.75	39.45	21.14	-20.9	-21.3	17.3	0.00e+00	0	34	0	15309209600	18	16033
2026-01-28 22:48:52.73	39.65	21.30	-20.8	-21.3	17.3	0.00e+00	0	34	0	15418261504	16	17811
2026-01-28 22:48:53.71	39.86	21.45	-20.6	-21.1	17.3	0.00e+00	0	34	0	15527313408	16	17468
2026-01-28 22:48:54.69	40.08	21.61	-20.7	-21.1	17.3	0.00e+00	0	34	0	15644753920	16	17548
2026-01-28 22:48:55.67	40.29	21.77	-20.5	-21.0	17.2	0.00e+00	0	34	0	15745417216	16	17205
2026-01-28 22:48:56.65	40.51	21.93	-20.5	-20.9	17.3	0.00e+00	0	34	0	15862857728	16	17184
2026-01-28 22:48:57.63	40.73	22.09	-20.4	-20.8	17.3	0.00e+00	0	34	0	15971909632	16	16934
2026-01-28 22:48:58.61	40.95	22.25	-20.4	-20.8	17.3	0.00e+00	0	34	0	16080961536	16	16940
2026-01-28 22:48:59.59	41.17	22.41	-20.4	-20.8	17.3	0.00e+00	0	34	0	16190013440	16	16992
2026-01-28 22:49:00.57	41.40	22.57	-20.5	-20.9	17.3	0.00e+00	0	34	0	16299065344	16	17166
2026-01-28 22:49:01.55	41.63	22.73	-20.4	-20.9	17.4	0.00e+00	0	34	0	16416505856	16	17027
2026-01-28 22:49:02.53	41.86	22.90	-20.2	-20.6	17.3	0.00e+00	0	34	0	16517169152	16	16610
2026-01-28 22:49:03.51	42.09	23.06	-20.1	-20.6	17.3	0.00e+00	0	34	0	16634609664	16	16449
2026-01-28 22:49:04.49	42.33	23.23	-20.1	-20.5	17.3	0.00e+00	0	34	0	16743661568	16	16337
2026-01-28 22:49:05.47	42.57	23.39	-20.0	-20.4	17.3	0.00e+00	0	34	0	16852713472	16	16208
2026-01-28 22:49:06.45	42.82	23.56	-19.9	-20.3	17.4	0.00e+00	0	34	0	16961765376	16	15985
2026-01-28 22:49:07.44	43.06	23.73	-19.9	-20.4	17.4	0.00e+00	0	34	0	17070817280	16	16093
2026-01-28 22:49:08.41	43.31	23.90	-19.8	-20.2	17.4	0.00e+00	0	34	0	17179869184	16	15844
2026-01-28 22:49:09.39	43.56	24.07	-19.8	-20.2	17.4	0.00e+00	0	34	0	17297309696	14	17778
2026-01-28 22:49:10.37	43.82	24.24	-19.7	-20.2	17.4	0.00e+00	0	34	0	17406361600	14	17620
2026-01-28 22:49:11.35	44.08	24.41	-19.6	-20.0	17.4	0.00e+00	0	34	0	17515413504	14	17388
2026-01-28 22:49:12.33	44.34	24.58	-19.6	-20.0	17.4	0.00e+00	0	34	0	17624465408	14	17382
2026-01-28 22:49:13.30	44.60	24.75	-19.5	-20.0	17.4	0.00e+00	0	34	0	17733517312	14	17223
2026-01-28 22:49:14.28	44.87	24.93	-19.3	-19.8	17.4	0.00e+00	0	34	0	17842569216	14	16859
2026-01-28 22:49:15.26	45.14	25.10	-19.3	-19.7	17.4	0.00e+00	0	35	0	17951621120	14	16722
2026-01-28 22:49:16.24	45.41	25.28	-19.2	-19.6	17.4	0.00e+00	0	35	0	18069061632	14	16571
2026-01-28 22:49:17.21	45.68	25.45	-19.3	-19.7	17.4	0.00e+00	0	34	0	18169724928	14	16809
2026-01-28 22:49:18.19	45.96	25.63	-19.1	-19.5	17.4	0.00e+00	0	34	0	18287165440	14	16350
2026-01-28 22:49:19.17	46.25	25.81	-19.2	-19.6	17.3	0.00e+00	0	34	0	18396217344	14	16608
2026-01-28 22:49:20.15	46.54	25.99	-19.1	-19.5	17.3	0.00e+00	0	34	0	18505269248	14	16382
2026-01-28 22:49:21.14	46.83	26.17	-19.2	-19.6	17.3	0.00e+00	0	34	0	18614321152	14	16549
2026-01-28 22:49:22.12	47.12	26.35	-19.1	-19.6	17.3	0.00e+00	0	34	0	18723373056	14	16499
2026-01-28 22:49:23.09	47.42	26.53	-18.8	-19.3	17.4	0.00e+00	0	34	0	18840813568	14	15878
2026-01-28 22:49:24.07	47.72	26.71	-18.9	-19.3	17.4	0.00e+00	0	34	0	18941476864	14	16029
2026-01-28 22:49:25.05	48.03	26.89	-19.0	-19.4	17.5	0.00e+00	0	34	0	19058917376	14	16187
2026-01-28 22:49:26.03	48.34	27.07	-18.5	-19.0	17.5	0.00e+00	0	34	0	19159580672	12	17225
2026-01-28 22:49:27.01	48.65	27.26	-18.5	-19.0	17.4	0.00e+00	0	35	0	19277021184	12	17266
2026-01-28 22:49:27.99	48.97	27.44	-18.3	-18.8	17.5	0.00e+00	0	35	0	19386073088	12	16873
2026-01-28 22:49:28.97	49.29	27.63	-18.3	-18.7	17.5	0.00e+00	0	34	0	19495124992	12	16796
2026-01-28 22:49:29.95	49.62	27.81	-18.2	-18.7	17.5	0.00e+00	0	34	0	19604176896	12	16639
2026-01-28 22:49:30.92	49.94	28.00	-18.3	-18.7	17.5	0.00e+00	0	35	0	19713228800	12	16748
2026-01-28 22:49:31.90	50.28	28.18	-18.1	-18.6	17.5	0.00e+00	0	35	0	19830669312	12	16483
2026-01-28 22:49:32.88	50.61	28.37	-18.2	-18.6	17.5	0.00e+00	0	35	0	19931332608	12	16596
2026-01-28 22:49:33.86	50.96	28.56	-18.0	-18.5	17.5	0.00e+00	0	35	0	20048773120	12	16241
2026-01-28 22:49:34.84	51.30	28.75	-17.9	-18.3	17.5	0.00e+00	0	34	0	20157825024	12	16033
2026-01-28 22:49:35.82	51.65	28.93	-17.9	-18.4	17.5	0.00e+00	0	34	0	20266876928	12	16078
2026-01-28 22:49:36.79	52.00	29.12	-17.8	-18.2	17.5	0.00e+00	0	34	0	20375928832	12	15843
2026-01-28 22:49:37.77	52.36	29.31	-17.6	-18.1	17.5	0.00e+00	0	35	0	20484980736	10	17428
2026-01-28 22:49:38.76	52.73	29.50	-17.6	-18.0	17.5	0.00e+00	0	35	0	20594032640	10	17392
2026-01-28 22:49:39.73	53.10	29.69	-17.5	-17.9	17.5	0.00e+00	0	34	0	20703084544	10	17162
2026-01-28 22:49:40.71	53.47	29.88	-17.5	-17.9	17.5	0.00e+00	0	35	0	20820525056	10	17103
2026-01-28 22:49:41.70	53.85	30.07	-17.4	-17.9	17.5	0.00e+00	0	35	0	20929576960	10	17076
2026-01-28 22:49:42.68	54.24	30.26	-17.5	-17.9	17.5	0.00e+00	0	34	0	21038628864	10	17163
2026-01-28 22:49:43.66	54.63	30.45	-17.3	-17.7	17.5	0.00e+00	0	35	0	21147680768	10	16785
2026-01-28 22:49:44.64	55.02	30.65	-17.2	-17.7	17.5	0.00e+00	0	35	0	21265121280	10	16630
2026-01-28 22:49:45.62	55.42	30.84	-17.1	-17.6	17.5	0.00e+00	0	34	0	21365784576	10	16481
2026-01-28 22:49:46.60	55.82	31.03	-17.1	-17.6	17.5	0.00e+00	0	34	0	21483225088	10	16431
2026-01-28 22:49:47.58	56.23	31.22	-17.1	-17.5	17.5	0.00e+00	0	34	0	21592276992	10	16408
2026-01-28 22:49:48.57	56.65	31.41	-16.9	-17.4	17.5	0.00e+00	0	35	0	21701328896	10	16128
2026-01-28 22:49:49.54	57.06	31.60	-16.9	-17.3	17.6	0.00e+00	0	35	0	21810380800	10	16018
2026-01-28 22:49:50.53	57.49	31.80	-16.8	-17.2	17.6	0.00e+00	0	34	0	21919432704	10	15806
2026-01-28 22:49:51.51	57.92	31.99	-16.8	-17.2	17.5	0.00e+00	0	34	0	22028484608	10	15772
2026-01-28 22:49:52.49	58.35	32.18	-16.7	-17.2	17.5	0.00e+00	0	35	0	22145925120	8	17640
2026-01-28 22:49:53.47	58.79	32.37	-16.6	-17.1	17.5	0.00e+00	0	34	0	22254977024	8	17447
2026-01-28 22:49:54.45	59.24	32.56	-16.7	-17.1	17.5	0.00e+00	0	34	0	22364028928	8	17592
2026-01-28 22:49:55.43	59.69	32.75	-16.6	-17.0	17.6	0.00e+00	0	35	0	22473080832	8	17330
2026-01-28 22:49:56.41	60.15	32.94	-16.7	-17.1	17.5	0.00e+00	0	35	0	22582132736	8	17547
2026-01-28 22:49:57.39	60.61	33.13	-16.4	-16.9	17.6	0.00e+00	0	35	0	22699573248	8	17057
2026-01-28 22:49:58.37	61.08	33.31	-16.7	-17.1	17.6	0.00e+00	0	34	0	22800236544	8	17504
2026-01-28 22:49:59.35	61.55	33.50	-16.5	-16.9	17.6	0.00e+00	0	35	0	22917677056	8	17167
2026-01-28 22:50:00.33	62.03	33.69	-16.4	-16.9	17.6	0.00e+00	0	35	0	23018340352	8	17056
2026-01-28 22:50:01.31	62.52	33.87	-16.5	-16.9	17.6	0.00e+00	0	35	0	23135780864	8	17158
2026-01-28 22:50:02.29	63.01	34.06	-16.3	-16.8	17.6	0.00e+00	0	35	0	23244832768	8	16878
2026-01-28 22:50:03.26	63.50	34.24	-16.4	-16.8	17.6	0.00e+00	0	35	0	23353884672	8	16955
2026-01-28 22:50:04.24	64.01	34.42	-16.5	-17.0	17.6	0.00e+00	0	35	0	23462936576	8	17207
2026-01-28 22:50:05.21	64.51	34.60	-16.4	-16.9	17.6	0.00e+00	0	35	0	23571988480	8	17013
2026-01-28 22:50:06.20	65.03	34.79	-16.1	-16.6	17.7	0.00e+00	0	35	0	23689428992	8	16430
2026-01-28 22:50:07.18	65.55	34.97	-16.1	-16.6	17.6	0.00e+00	0	35	0	23790092288	8	16431
2026-01-28 22:50:08.16	66.08	35.15	-16.1	-16.6	17.7	0.00e+00	0	35	0	23907532800	8	16484
2026-01-28 22:50:09.14	66.62	35.32	-16.2	-16.7	17.7	0.00e+00	0	34	0	24016584704	8	16675
2026-01-28 22:50:10.11	67.15	35.50	-15.9	-16.4	17.7	0.00e+00	0	35	0	24125636608	8	16128
2026-01-28 22:50:11.09	67.70	35.67	-16.2	-16.6	17.7	0.00e+00	0	35	0	24234688512	8	16535
2026-01-28 22:50:12.08	68.25	35.84	-16.0	-16.4	17.7	0.00e+00	0	35	0	24343740416	8	16182
2026-01-28 22:50:13.05	68.81	36.01	-15.9	-16.3	17.7	0.00e+00	0	35	0	24452792320	8	15988
2026-01-28 22:50:14.03	69.37	36.18	-15.9	-16.4	17.7	0.00e+00	0	35	0	24561844224	8	16070
2026-01-28 22:50:15.01	69.94	36.35	-15.7	-16.2	17.6	0.00e+00	0	35	0	24679284736	8	15749
2026-01-28 22:50:15.99	70.52	36.51	-15.7	-16.1	17.6	0.00e+00	0	35	0	24788336640	6	17535
2026-01-28 22:50:16.97	71.10	36.67	-15.6	-16.1	17.7	0.00e+00	0	35	0	24897388544	6	17461
2026-01-28 22:50:17.95	71.69	36.83	-15.8	-16.2	17.6	0.00e+00	0	35	0	25006440448	6	17785
2026-01-28 22:50:18.93	72.28	36.99	-15.8	-16.2	17.6	0.00e+00	0	35	0	25115492352	6	17787
2026-01-28 22:50:19.91	72.89	37.15	-15.8	-16.2	17.6	0.00e+00	0	35	0	25224544256	6	17680
2026-01-28 22:50:20.89	73.49	37.30	-15.6	-16.0	17.6	0.00e+00	0	35	0	25341984768	6	17352
2026-01-28 22:50:21.87	74.11	37.45	-15.7	-16.1	17.6	0.00e+00	0	35	0	25442648064	6	17556
2026-01-28 22:50:22.86	74.73	37.60	-15.4	-15.8	17.6	0.00e+00	0	35	0	25560088576	6	16980
2026-01-28 22:50:23.84	75.36	37.74	-15.4	-15.8	17.6	0.00e+00	0	35	0	25669140480	6	16995
2026-01-28 22:50:24.82	75.99	37.88	-15.3	-15.7	17.6	0.00e+00	0	35	0	25778192384	6	16786
2026-01-28 22:50:25.80	76.62	38.02	-15.3	-15.8	17.6	0.00e+00	0	35	0	25887244288	6	16811
2026-01-28 22:50:26.77	77.26	38.16	-15.3	-15.7	17.6	0.00e+00	0	35	0	25996296192	6	16718
2026-01-28 22:50:27.75	77.90	38.29	-15.3	-15.7	17.6	0.00e+00	0	35	0	26113736704	6	16744
2026-01-28 22:50:28.73	78.56	38.42	-15.2	-15.6	17.6	0.00e+00	0	35	0	26214400000	6	16555
2026-01-28 22:50:29.71	79.22	38.54	-15.1	-15.5	17.6	0.00e+00	0	35	0	26331840512	6	16372
2026-01-28 22:50:30.69	79.88	38.67	-15.1	-15.6	17.6	0.00e+00	0	35	0	26440892416	6	16461
2026-01-28 22:50:31.67	80.55	38.78	-15.0	-15.4	17.6	0.00e+00	0	35	0	26549944320	6	16233
2026-01-28 22:50:32.66	81.23	38.90	-15.0	-15.5	17.6	0.00e+00	0	35	0	26658996224	6	16290
2026-01-28 22:50:33.63	81.90	39.01	-15.0	-15.4	17.6	0.00e+00	0	35	0	26768048128	6	16189
2026-01-28 22:50:34.61	82.58	39.12	-14.9	-15.3	17.6	0.00e+00	0	35	0	26877100032	6	15932
2026-01-28 22:50:35.60	83.28	39.22	-14.8	-15.2	17.6	0.00e+00	0	35	0	26994540544	4	17775
2026-01-28 22:50:36.57	83.96	39.32	-14.8	-15.3	17.6	0.00e+00	0	35	0	27103592448	4	17855
2026-01-28 22:50:37.56	84.67	39.41	-14.8	-15.2	17.6	0.00e+00	0	35	0	27212644352	4	17758
2026-01-28 22:50:38.54	85.37	39.50	-14.7	-15.1	17.6	0.00e+00	0	35	0	27321696256	4	17575
2026-01-28 22:50:39.52	86.07	39.59	-14.7	-15.1	17.6	0.00e+00	0	35	0	27430748160	4	17481
2026-01-28 22:50:40.50	86.78	39.67	-14.7	-15.1	17.6	0.00e+00	0	35	0	27548188672	4	17511
2026-01-28 22:50:41.48	87.49	39.75	-14.9	-15.3	17.6	0.00e+00	0	35	0	27648851968	4	17935
2026-01-28 22:50:42.45	88.20	39.82	-14.7	-15.2	17.6	0.00e+00	0	35	0	27766292480	4	17638
2026-01-28 22:50:43.43	88.92	39.89	-14.7	-15.2	17.6	0.00e+00	0	35	0	27875344384	4	17612
2026-01-28 22:50:44.41	89.64	39.95	-14.8	-15.2	17.6	0.00e+00	0	35	0	27984396288	4	17739
2026-01-28 22:50:45.39	90.37	40.01	-14.7	-15.2	17.5	0.00e+00	0	35	0	28093448192	4	17651
2026-01-28 22:50:46.36	91.09	40.06	-14.7	-15.1	17.6	0.00e+00	0	35	0	28202500096	4	17518
2026-01-28 22:50:47.34	91.82	40.11	-14.8	-15.2	17.5	0.00e+00	0	35	0	28311552000	4	17776
2026-01-28 22:50:48.33	92.56	40.15	-14.7	-15.2	17.5	0.00e+00	0	35	0	28420603904	4	17666
2026-01-28 22:50:49.30	93.28	40.19	-14.8	-15.2	17.5	0.00e+00	0	35	0	28538044416	4	17770
2026-01-28 22:50:50.27	94.01	40.23	-14.8	-15.2	17.5	0.00e+00	0	35	0	28638707712	4	17717
2026-01-28 22:50:51.25	94.75	40.26	-14.9	-15.3	17.5	0.00e+00	0	35	0	28756148224	4	17893
2026-01-28 22:50:52.23	95.49	40.28	-14.8	-15.3	17.5	0.00e+00	0	35	0	28865200128	4	17815
2026-01-28 22:50:53.21	96.23	40.30	-14.7	-15.2	17.5	0.00e+00	0	35	0	28974252032	4	17636
2026-01-28 22:50:54.19	96.97	40.31	-14.7	-15.2	17.5	0.00e+00	0	35	0	29083303936	4	17639
2026-01-28 22:50:55.16	97.70	40.32	-14.7	-15.2	17.4	0.00e+00	0	35	0	29192355840	4	17635
2026-01-28 22:50:56.14	98.44	40.32	-14.8	-15.2	17.5	0.00e+00	0	35	0	29301407744	4	17777
2026-01-28 22:50:57.12	99.18	40.32	-14.7	-15.2	17.5	0.00e+00	0	35	0	29410459648	4	17606
2026-01-28 22:50:58.10	99.92	40.32	-14.8	-15.2	17.5	0.00e+00	0	35	0	29527900160	4	17717
2026-01-28 22:50:59.08	100.66	40.30	-14.8	-15.2	17.4	0.00e+00	0	35	0	29628563456	4	17784
2026-01-28 22:51:00.06	101.40	40.29	-14.9	-15.3	17.5	0.00e+00	0	35	0	29746003968	4	17951
2026-01-28 22:51:01.04	102.14	40.27	-14.8	-15.2	17.5	0.00e+00	0	35	0	29855055872	4	17775
2026-01-28 22:51:02.01	102.87	40.24	-14.8	-15.2	17.5	0.00e+00	0	35	0	29964107776	4	17659
2026-01-28 22:51:02.99	103.61	40.21	-14.8	-15.2	17.5	0.00e+00	0	35	0	30073159680	4	17756
2026-01-28 22:51:03.97	104.35	40.17	-14.9	-15.3	17.5	0.00e+00	0	35	0	30182211584	4	17941
2026-01-28 22:51:04.95	105.08	40.13	-15.0	-15.4	17.5	0.00e+00	0	35	0	30299652096	4	18089
2026-01-28 22:51:05.93	105.81	40.08	-14.8	-15.2	17.5	0.00e+00	0	35	0	30400315392	4	17730
2026-01-28 22:51:06.91	106.54	40.03	-14.9	-15.3	17.4	0.00e+00	0	35	0	30517755904	4	17982
2026-01-28 22:51:07.89	107.27	39.97	-14.9	-15.3	17.5	0.00e+00	0	35	0	30626807808	4	17855
2026-01-28 22:51:08.87	107.99	39.91	-14.8	-15.3	17.5	0.00e+00	0	35	0	30735859712	4	17811
2026-01-28 22:51:09.86	108.72	39.84	-15.0	-15.4	17.5	0.00e+00	0	35	0	30844911616	4	18086
2026-01-28 22:51:10.83	109.43	39.77	-14.8	-15.2	17.5	0.00e+00	0	35	0	30953963520	4	17760
2026-01-28 22:51:11.81	110.14	39.70	-14.9	-15.3	17.5	0.00e+00	0	35	0	31063015424	4	18002
2026-01-28 22:51:12.79	110.85	39.62	-14.7	-15.1	17.5	0.00e+00	0	35	0	31180455936	4	17545
2026-01-28 22:51:13.78	111.57	39.53	-14.8	-15.2	17.5	0.00e+00	0	35	0	31289507840	4	17694
2026-01-28 22:51:14.76	112.27	39.45	-14.8	-15.2	17.5	0.00e+00	0	35	0	31398559744	4	17786
2026-01-28 22:51:15.74	112.97	39.35	-14.9	-15.3	17.5	0.00e+00	0	35	0	31507611648	4	17976
2026-01-28 22:51:16.72	113.67	39.25	-14.8	-15.2	17.5	0.00e+00	0	35	0	31616663552	4	17704
2026-01-28 22:51:17.70	114.36	39.15	-14.9	-15.4	17.5	0.00e+00	0	35	0	31734104064	4	18029
2026-01-28 22:51:18.68	115.04	39.05	-14.9	-15.4	17.5	0.00e+00	0	35	0	31834767360	4	18054
2026-01-28 22:51:19.66	115.72	38.94	-15.0	-15.4	17.5	0.00e+00	0	35	0	31952207872	4	18118
2026-01-28 22:51:20.64	116.40	38.82	-15.0	-15.4	17.5	0.00e+00	0	35	0	32052871168	4	18182
2026-01-28 22:51:21.61	117.07	38.71	-15.1	-15.5	17.5	0.00e+00	0	35	0	32170311680	4	18352
2026-01-28 22:51:22.59	117.73	38.59	-15.2	-15.6	17.5	0.00e+00	0	35	0	32279363584	4	18492
2026-01-28 22:51:23.57	118.39	38.46	-15.3	-15.7	17.5	0.00e+00	0	35	0	32388415488	4	18771
2026-01-28 22:51:24.54	119.04	38.34	-15.3	-15.7	17.5	0.00e+00	0	35	0	32497467392	4	18763
2026-01-28 22:51:25.53	119.70	38.20	-15.5	-15.9	17.6	0.00e+00	0	35	0	32606519296	4	19154
2026-01-28 22:51:26.51	120.35	38.07	-15.5	-15.9	17.6	0.00e+00	0	35	0	32723959808	4	19294
2026-01-28 22:51:27.49	120.99	37.93	-15.3	-15.8	17.6	0.00e+00	0	35	0	32824623104	4	18868
2026-01-28 22:51:28.46	121.61	37.79	-15.3	-15.7	17.6	0.00e+00	0	35	0	32942063616	4	18779
2026-01-28 22:51:29.44	122.24	37.65	-15.3	-15.8	17.6	0.00e+00	0	35	0	33051115520	4	18861
2026-01-28 22:51:30.41	122.86	37.50	-15.4	-15.8	17.6	0.00e+00	0	35	0	33160167424	4	19068
2026-01-28 22:51:31.39	123.47	37.35	-15.5	-15.9	17.6	0.00e+00	0	35	0	33269219328	4	19109
2026-01-28 22:51:32.36	124.08	37.20	-15.4	-15.9	17.6	0.00e+00	0	35	0	33378271232	4	19089
2026-01-28 22:51:33.34	124.68	37.05	-15.4	-15.9	17.7	0.00e+00	0	35	0	33487323136	4	19089
2026-01-28 22:51:34.32	125.28	36.89	-15.5	-16.0	17.6	0.00e+00	0	35	0	33596375040	4	19347
2026-01-28 22:51:35.29	125.87	36.73	-15.4	-15.8	17.7	0.00e+00	0	35	0	33713815552	4	19023
2026-01-28 22:51:36.27	126.46	36.57	-15.5	-16.0	17.7	0.00e+00	0	35	0	33814478848	4	19339
2026-01-28 22:51:37.25	127.04	36.41	-15.5	-15.9	17.7	0.00e+00	0	35	0	33931919360	4	19162
2026-01-28 22:51:38.23	127.61	36.24	-15.5	-15.9	17.8	0.00e+00	0	35	0	34032582656	4	19274
2026-01-28 22:51:39.21	128.18	36.07	-15.6	-16.0	17.7	0.00e+00	0	35	0	34150023168	4	19399
2026-01-28 22:51:40.19	128.74	35.90	-15.6	-16.0	17.8	0.00e+00	0	35	0	34259075072	4	19464
2026-01-28 22:51:41.18	129.31	35.73	-15.6	-16.1	17.8	0.00e+00	0	35	0	34368126976	4	19541
2026-01-28 22:51:42.16	129.86	35.55	-15.7	-16.1	17.8	0.00e+00	0	35	0	34477178880	4	19653
2026-01-28 22:51:43.14	130.40	35.38	-15.7	-16.1	17.8	0.00e+00	0	35	0	34586230784	6	17439
2026-01-28 22:51:44.11	130.93	35.20	-15.8	-16.2	17.9	0.00e+00	0	35	0	34703671296	6	17791
2026-01-28 22:51:45.08	131.46	35.03	-15.9	-16.3	17.9	0.00e+00	0	35	0	34804334592	6	17932
2026-01-28 22:51:46.06	131.98	34.85	-15.9	-16.3	17.9	0.00e+00	0	35	0	34921775104	6	17929
2026-01-28 22:51:47.04	132.50	34.66	-15.9	-16.4	17.9	0.00e+00	0	35	0	35030827008	6	18055
2026-01-28 22:51:48.03	133.02	34.48	-16.1	-16.5	17.9	0.00e+00	0	35	0	35139878912	6	18311
2026-01-28 22:51:49.01	133.53	34.30	-16.1	-16.6	17.9	0.00e+00	0	35	0	35248930816	6	18435
2026-01-28 22:51:49.98	134.03	34.11	-16.0	-16.4	17.9	0.00e+00	0	35	0	35357982720	6	18208
2026-01-28 22:51:50.96	134.52	33.93	-16.1	-16.6	17.9	0.00e+00	0	35	0	35467034624	6	18480
2026-01-28 22:51:51.94	135.01	33.74	-16.2	-16.6	17.9	0.00e+00	0	35	0	35584475136	6	18546
2026-01-28 22:51:52.92	135.50	33.55	-16.2	-16.7	17.9	0.00e+00	0	35	0	35693527040	6	18674
2026-01-28 22:51:53.90	135.97	33.37	-16.3	-16.7	17.9	0.00e+00	0	35	0	35802578944	6	18842
2026-01-28 22:51:54.88	136.45	33.18	-16.2	-16.6	17.9	0.00e+00	0	35	0	35911630848	6	18584
2026-01-28 22:51:55.86	136.91	32.99	-16.2	-16.6	17.9	0.00e+00	0	35	0	36020682752	6	18602
2026-01-28 22:51:56.84	137.37	32.80	-16.3	-16.8	17.9	0.00e+00	0	35	0	36138123264	6	18886
2026-01-28 22:51:57.82	137.83	32.61	-16.3	-16.7	17.9	0.00e+00	0	35	0	36238786560	6	18810
2026-01-28 22:51:58.79	138.27	32.42	-16.4	-16.9	17.8	0.00e+00	0	35	0	36356227072	6	19119
2026-01-28 22:51:59.77	138.72	32.23	-16.5	-17.0	17.8	0.00e+00	0	35	0	36456890368	6	19328
2026-01-28 22:52:00.74	139.15	32.04	-16.6	-17.0	17.8	0.00e+00	0	35	0	36574330880	6	19522
2026-01-28 22:52:01.72	139.59	31.85	-16.7	-17.1	17.8	0.00e+00	0	35	0	36683382784	6	19636
2026-01-28 22:52:02.70	140.01	31.65	-16.7	-17.1	17.8	0.00e+00	0	35	0	36792434688	8	17595
2026-01-28 22:52:03.67	140.43	31.46	-16.7	-17.1	17.8	0.00e+00	0	35	0	36901486592	8	17522
2026-01-28 22:52:04.66	140.85	31.27	-16.6	-17.1	17.7	0.00e+00	0	35	0	37010538496	8	17492
2026-01-28 22:52:05.63	141.26	31.08	-16.9	-17.3	17.7	0.00e+00	0	35	0	37119590400	8	18003
2026-01-28 22:52:06.61	141.67	30.89	-16.9	-17.3	17.7	0.00e+00	0	35	0	37228642304	8	17927
2026-01-28 22:52:07.59	142.07	30.69	-16.8	-17.3	17.8	0.00e+00	0	35	0	37346082816	8	17818
2026-01-28 22:52:08.57	142.47	30.50	-16.9	-17.4	17.7	0.00e+00	0	35	0	37446746112	8	18031
2026-01-28 22:52:09.55	142.86	30.31	-17.1	-17.6	17.7	0.00e+00	0	35	0	37564186624	8	18472
2026-01-28 22:52:10.53	143.24	30.12	-17.0	-17.4	17.7	0.00e+00	0	35	0	37673238528	8	18164
2026-01-28 22:52:11.51	143.63	29.92	-17.1	-17.6	17.7	0.00e+00	0	35	0	37782290432	8	18505
2026-01-28 22:52:12.49	144.00	29.73	-17.0	-17.5	17.7	0.00e+00	0	35	0	37891342336	8	18353
2026-01-28 22:52:13.47	144.37	29.54	-17.2	-17.7	17.6	0.00e+00	0	35	0	38000394240	8	18652
2026-01-28 22:52:14.45	144.74	29.35	-17.2	-17.7	17.7	0.00e+00	0	35	0	38117834752	8	18665
2026-01-28 22:52:15.42	145.10	29.16	-17.4	-17.8	17.7	0.00e+00	0	35	0	38218498048	8	19041
2026-01-28 22:52:16.40	145.46	28.97	-17.4	-17.9	17.7	0.00e+00	0	35	0	38335938560	8	19189
2026-01-28 22:52:17.39	145.82	28.78	-17.6	-18.1	17.7	0.00e+00	0	35	0	38444990464	8	19627
2026-01-28 22:52:18.37	146.17	28.59	-17.5	-18.0	17.6	0.00e+00	0	35	0	38554042368	8	19378
2026-01-28 22:52:19.35	146.51	28.40	-17.7	-18.2	17.6	0.00e+00	0	35	0	38663094272	8	19753
2026-01-28 22:52:20.33	146.85	28.21	-17.7	-18.2	17.6	0.00e+00	0	35	0	38772146176	8	19798
2026-01-28 22:52:21.31	147.19	28.03	-17.9	-18.3	17.6	0.00e+00	0	35	0	38881198080	10	17967
2026-01-28 22:52:22.29	147.52	27.84	-17.9	-18.4	17.6	0.00e+00	0	35	0	38998638592	10	18024
2026-01-28 22:52:23.27	147.85	27.65	-18.0	-18.4	17.6	0.00e+00	0	35	0	39107690496	10	18203
2026-01-28 22:52:24.25	148.17	27.47	-18.0	-18.4	17.6	0.00e+00	0	35	0	39216742400	10	18168
2026-01-28 22:52:25.23	148.49	27.28	-18.1	-18.6	17.6	0.00e+00	0	35	0	39325794304	10	18477
2026-01-28 22:52:26.21	148.81	27.10	-18.2	-18.6	17.6	0.00e+00	0	35	0	39434846208	10	18593
2026-01-28 22:52:27.19	149.12	26.91	-18.1	-18.5	17.5	0.00e+00	0	35	0	39552286720	10	18397
2026-01-28 22:52:28.17	149.43	26.73	-18.2	-18.7	17.5	0.00e+00	0	35	0	39652950016	10	18677
2026-01-28 22:52:29.16	149.74	26.54	-18.3	-18.7	17.5	0.00e+00	0	35	0	39770390528	10	18794
2026-01-28 22:52:30.14	150.04	26.36	-18.3	-18.7	17.6	0.00e+00	0	35	0	39871053824	10	18811
2026-01-28 22:52:31.11	150.33	26.18	-18.4	-18.9	17.6	0.00e+00	0	35	0	39988494336	10	19138
2026-01-28 22:52:32.09	150.63	26.00	-18.5	-18.9	17.5	0.00e+00	0	35	0	40097546240	10	19242
2026-01-28 22:52:33.07	150.92	25.82	-18.5	-18.9	17.5	0.00e+00	0	35	0	40206598144	10	19295
2026-01-28 22:52:34.05	151.20	25.64	-18.4	-18.9	17.5	0.00e+00	0	35	0	40315650048	10	19148
2026-01-28 22:52:35.03	151.49	25.46	-18.6	-19.1	17.5	0.00e+00	0	35	0	40424701952	10	19553
2026-01-28 22:52:36.01	151.76	25.28	-18.6	-19.1	17.5	0.00e+00	0	35	0	40542142464	10	19620
2026-01-28 22:52:36.99	152.04	25.11	-18.6	-19.0	17.5	0.00e+00	0	35	0	40642805760	10	19496
2026-01-28 22:52:37.97	152.31	24.93	-18.8	-19.2	17.5	0.00e+00	0	35	0	40760246272	12	17708
2026-01-28 22:52:38.95	152.58	24.76	-18.8	-19.3	17.5	0.00e+00	0	35	0	40869298176	12	17857
2026-01-28 22:52:39.93	152.85	24.58	-19.0	-19.5	17.4	0.00e+00	0	35	0	40978350080	12	18257
2026-01-28 22:52:40.92	153.11	24.41	-19.0	-19.4	17.4	0.00e+00	0	35	0	41087401984	12	18191
2026-01-28 22:52:41.90	153.37	24.23	-19.0	-19.5	17.4	0.00e+00	0	35	0	41204842496	12	18259
2026-01-28 22:52:42.89	153.63	24.06	-19.2	-19.6	17.4	0.00e+00	0	35	0	41305505792	12	18595
2026-01-28 22:52:43.87	153.89	23.89	-19.2	-19.6	17.4	0.00e+00	0	35	0	41422946304	12	18614
2026-01-28 22:52:44.85	154.14	23.72	-19.2	-19.7	17.4	0.00e+00	0	35	0	41531998208	12	18673
2026-01-28 22:52:45.83	154.39	23.55	-19.3	-19.7	17.4	0.00e+00	0	35	0	41641050112	12	18742
2026-01-28 22:52:46.81	154.63	23.38	-19.4	-19.8	17.4	0.00e+00	0	35	0	41750102016	12	18985
2026-01-28 22:52:47.79	154.87	23.21	-19.4	-19.8	17.4	0.00e+00	0	35	0	41867542528	12	19054
2026-01-28 22:52:48.78	155.11	23.04	-19.4	-19.9	17.4	0.00e+00	0	35	0	41976594432	12	19131
2026-01-28 22:52:49.75	155.35	22.88	-19.5	-19.9	17.4	0.00e+00	0	35	0	42085646336	12	19235
2026-01-28 22:52:50.73	155.58	22.71	-19.7	-20.1	17.4	0.00e+00	0	35	0	42194698240	12	19742
2026-01-28 22:52:51.72	155.81	22.55	-19.5	-19.9	17.4	0.00e+00	0	35	0	42303750144	12	19241
2026-01-28 22:52:52.70	156.04	22.39	-19.6	-20.1	17.3	0.00e+00	0	35	0	42421190656	12	19541
2026-01-28 22:52:53.68	156.27	22.22	-19.7	-20.1	17.4	0.00e+00	0	35	0	42521853952	14	17545
2026-01-28 22:52:54.65	156.49	22.06	-19.9	-20.3	17.4	0.00e+00	0	35	0	42639294464	14	17950
2026-01-28 22:52:55.63	156.71	21.90	-19.7	-20.1	17.3	0.00e+00	0	35	0	42739957760	14	17586
2026-01-28 22:52:56.61	156.93	21.74	-19.8	-20.2	17.3	0.00e+00	0	35	0	42857398272	14	17695
2026-01-28 22:52:57.59	157.14	21.58	-19.8	-20.2	17.4	0.00e+00	0	35	0	42966450176	14	17724
2026-01-28 22:52:58.57	157.36	21.43	-19.8	-20.2	17.4	0.00e+00	0	35	0	43075502080	14	17748
2026-01-28 22:52:59.55	157.57	21.27	-19.8	-20.3	17.3	0.00e+00	0	35	0	43184553984	14	17819
2026-01-28 22:53:00.53	157.78	21.11	-19.9	-20.3	17.3	0.00e+00	0	35	0	43293605888	14	17907
2026-01-28 22:53:01.51	157.98	20.96	-19.9	-20.3	17.3	0.00e+00	0	35	0	43411046400	14	17940
2026-01-28 22:53:02.49	158.19	20.80	-19.9	-20.4	17.3	0.00e+00	0	35	0	43520098304	14	18128
2026-01-28 22:53:03.47	158.39	20.65	-20.0	-20.4	17.3	0.00e+00	0	35	0	43629150208	14	18132
2026-01-28 22:53:04.45	158.59	20.49	-19.9	-20.4	17.3	0.00e+00	0	35	0	43738202112	14	18111
2026-01-28 22:53:05.43	158.78	20.34	-20.2	-20.6	17.3	0.00e+00	0	35	0	43847254016	14	18599
2026-01-28 22:53:06.41	158.98	20.19	-20.3	-20.7	17.3	0.00e+00	0	35	0	43956305920	14	18763
2026-01-28 22:53:07.39	159.17	20.04	-20.3	-20.7	17.3	0.00e+00	0	35	0	44073746432	14	18792
2026-01-28 22:53:08.37	159.36	19.89	-20.3	-20.7	17.3	0.00e+00	0	35	0	44174409728	14	18845
2026-01-28 22:53:09.34	159.55	19.74	-20.3	-20.8	17.4	0.00e+00	0	35	0	44291850240	14	18918
2026-01-28 22:53:10.33	159.74	19.59	-20.4	-20.9	17.4	0.00e+00	0	35	0	44400902144	14	19129
2026-01-28 22:53:11.31	159.92	19.45	-20.5	-20.9	17.4	0.00e+00	0	35	0	44509954048	14	19193
2026-01-28 22:53:12.29	160.11	19.30	-20.5	-20.9	17.4	0.00e+00	0	35	0	44619005952	14	19278
2026-01-28 22:53:13.27	160.29	19.15	-20.5	-20.9	17.4	0.00e+00	0	35	0	44728057856	14	19296
2026-01-28 22:53:14.25	160.46	19.01	-20.5	-20.9	17.4	0.00e+00	0	35	0	44845498368	14	19294
2026-01-28 22:53:15.22	160.64	18.87	-20.6	-21.1	17.4	0.00e+00	0	35	0	44946161664	14	19583
2026-01-28 22:53:16.20	160.82	18.72	-20.6	-21.1	17.4	0.00e+00	0	35	0	45063602176	14	19567
2026-01-28 22:53:17.18	160.99	18.58	-20.8	-21.2	17.4	0.00e+00	0	35	0	45164265472	16	17700
2026-01-28 22:53:18.16	161.16	18.44	-20.7	-21.1	17.4	0.00e+00	0	35	0	45281705984	16	17557
2026-01-28 22:53:19.14	161.33	18.30	-20.8	-21.2	6.2	0.00e+00	0	35	0	45390757888	16	17797
2026-01-28 22:53:20.12	161.50	18.16	-48.4	-51.0	6.1	0.00e+00	0	35	104	45390757888	60	43362
2026-01-28 22:53:21.10	161.66	18.02	-48.5	-51.0	6.1	0.00e+00	0	35	104	45390757888	60	43485
2026-01-28 22:53:22.08	161.83	17.88	-48.5	-51.0	6.1	0.00e+00	0	35	104	45390757888	60	43446
2026-01-28 22:53:23.06	161.99	17.75	-48.3	-50.9	6.1	0.00e+00	0	35	104	45390757888	60	42827
2026-01-28 22:53:24.05	162.16	17.61	-48.5	-51.0	6.1	0.00e+00	0	35	104	45390757888	60	43584
2026-01-28 22:53:25.03	162.31	17.47	-48.4	-50.9	6.1	0.00e+00	0	35	104	45390757888	60	42746
2026-01-28 22:53:26.01	162.47	17.34	-48.6	-51.1	6.1	0.00e+00	0	35	104	45390757888	60	44102
2026-01-28 22:53:26.98	162.63	17.20	-48.7	-51.2	6.1	0.00e+00	0	35	104	45390757888	60	44262
2026-01-28 22:53:27.96	162.78	17.07	-48.4	-50.9	6.1	0.00e+00	0	35	104	45390757888	60	42870
2026-01-28 22:53:28.94	162.94	16.94	-48.6	-51.1	6.1	0.00e+00	0	35	104	45390757888	60	43811
2026-01-28 22:53:29.92	163.09	16.81	-48.6	-51.2	6.1	0.00e+00	0	35	104	45390757888	60	44401
2026-01-28 22:53:30.89	163.24	16.68	-48.7	-51.2	6.1	0.00e+00	0	35	104	45390757888	60	44411
2026-01-28 22:53:31.88	163.39	16.54	-48.7	-51.1	6.1	0.00e+00	0	35	104	45390757888	60	44090
2026-01-28 22:53:32.85	163.53	16.41	-48.7	-51.2	6.1	0.00e+00	0	35	104	45390757888	60	44229
2026-01-28 22:53:33.83	163.68	16.29	-48.6	-51.1	6.1	0.00e+00	0	35	104	45390757888	60	44070
2026-01-28 22:53:34.81	163.82	16.16	-48.6	-51.1	6.0	0.00e+00	0	35	104	45390757888	60	44006
2026-01-28 22:53:35.78	163.97	16.03	-48.6	-51.2	6.1	0.00e+00	0	35	104	45390757888	60	44349
2026-01-28 22:53:36.76	164.11	15.90	-48.5	-51.0	6.1	0.00e+00	0	35	104	45390757888	60	43433
2026-01-28 22:53:37.75	164.25	15.78	-48.6	-51.2	6.1	0.00e+00	0	35	104	45390757888	60	44255
2026-01-28 22:53:38.73	164.39	15.65	-48.7	-51.1	6.1	0.00e+00	0	35	104	45390757888	60	43898
2026-01-28 22:53:39.71	164.53	15.53	-48.6	-51.1	6.1	0.00e+00	0	35	104	45390757888	60	43834
2026-01-28 22:53:40.69	164.66	15.40	-48.6	-51.1	6.1	0.00e+00	0	35	104	45390757888	60	43905
2026-01-28 22:53:41.67	164.80	15.28	-48.6	-51.1	6.1	0.00e+00	0	35	104	45390757888	60	43972
2026-01-28 22:53:42.65	164.93	15.15	-48.7	-51.1	6.1	0.00e+00	0	35	104	45390757888	60	44086
2026-01-28 22:53:43.63	165.06	15.03	-48.6	-51.1	6.1	0.00e+00	0	35	104	45390757888	60	44167
2026-01-28 22:53:44.61	165.20	14.91	-48.5	-51.0	6.1	0.00e+00	0	35	104	45390757888	60	43280
2026-01-28 22:53:45.58	165.33	14.79	-48.6	-51.1	6.1	0.00e+00	0	34	104	45390757888	60	43929
2026-01-28 22:53:46.56	165.45	14.67	-48.6	-51.1	6.1	0.00e+00	0	34	104	45390757888	60	44188
2026-01-28 22:53:47.54	165.58	14.55	-48.6	-51.1	6.1	0.00e+00	0	35	104	45390757888	60	43933
2026-01-28 22:53:48.51	165.71	14.43	-48.6	-51.1	6.1	0.00e+00	0	34	104	45390757888	60	44039
2026-01-28 22:53:49.49	165.83	14.32	-48.6	-51.1	6.1	0.00e+00	0	35	104	45390757888	60	43900
2026-01-28 22:53:50.46	165.96	14.20	-48.6	-51.0	6.1	0.00e+00	0	35	104	45390757888	60	43612
2026-01-28 22:53:51.45	166.08	14.08	-48.6	-51.1	6.1	0.00e+00	0	34	104	45390757888	60	43790
2026-01-28 22:53:52.42	166.20	13.96	-48.6	-51.1	6.1	0.00e+00	0	34	104	45390757888	60	43770
2026-01-28 22:53:53.40	166.32	13.85	-48.5	-51.0	6.1	0.00e+00	0	35	104	45390757888	60	43569
2026-01-28 22:53:54.38	166.44	13.73	-48.6	-51.1	6.0	0.00e+00	0	34	104	45390757888	60	44012
2026-01-28 22:53:55.36	166.56	13.62	-48.4	-51.0	6.1	0.00e+00	0	34	104	45390757888	60	43270
2026-01-28 22:53:56.34	166.68	13.51	-48.6	-51.1	6.0	0.00e+00	0	34	104	45390757888	60	43846
2026-01-28 22:53:57.31	166.80	13.39	-48.5	-51.0	6.1	0.00e+00	0	35	104	45390757888	60	43403
2026-01-28 22:53:58.30	166.91	13.28	-48.5	-51.0	6.1	0.00e+00	0	35	104	45390757888	60	43629
2026-01-28 22:53:59.28	167.03	13.17	-48.6	-51.1	6.1	0.00e+00	0	35	104	45390757888	60	43857
2026-01-28 22:54:00.26	167.14	13.06	-48.4	-51.0	6.1	0.00e+00	0	35	104	45390757888	60	43291
2026-01-28 22:54:01.24	167.25	12.94	-48.4	-50.9	6.1	0.00e+00	0	35	104	45390757888	60	42816
2026-01-28 22:54:02.22	167.37	12.83	-48.6	-51.1	6.1	0.00e+00	0	35	104	45390757888	60	43844
2026-01-28 22:54:03.20	167.48	12.72	-48.6	-51.0	6.1	0.00e+00	0	35	104	45390757888	60	43599
2026-01-28 22:54:04.17	167.59	12.62	-48.5	-51.0	6.1	0.00e+00	0	35	104	45390757888	60	43282
2026-01-28 22:54:05.16	167.70	12.51	-48.5	-51.0	6.1	0.00e+00	0	35	104	45390757888	60	43503
2026-01-28 22:54:06.13	167.80	12.40	-48.6	-51.1	6.1	0.00e+00	0	35	104	45390757888	60	43942
2026-01-28 22:54:07.11	167.91	12.29	-48.6	-51.1	6.1	0.00e+00	0	35	104	45390757888	60	43755
2026-01-28 22:54:08.09	168.02	12.18	-48.5	-51.0	6.1	0.00e+00	0	35	104	45390757888	60	43525
2026-01-28 22:54:09.07	168.12	12.08	-48.5	-51.0	6.1	0.00e+00	0	34	104	45390757888	60	43409
2026-01-28 22:54:10.05	168.23	11.97	-48.6	-51.1	6.1	0.00e+00	0	34	104	45390757888	60	43734
2026-01-28 22:54:11.03	168.33	11.86	-48.5	-51.0	6.1	0.00e+00	0	34	104	45390757888	60	43354
2026-01-28 22:54:12.01	168.43	11.76	-48.6	-51.0	6.1	0.00e+00	0	35	104	45390757888	60	43637
2026-01-28 22:54:12.99	168.54	11.66	-48.5	-51.0	6.1	0.00e+00	0	35	104	45390757888	60	43397
2026-01-28 22:54:13.97	168.64	11.55	-48.5	-51.0	6.1	0.00e+00	0	35	104	45390757888	60	43442
2026-01-28 22:54:14.95	168.74	11.45	-48.4	-50.9	6.1	0.00e+00	0	35	104	45390757888	60	42937
2026-01-28 22:54:15.93	168.84	11.34	-48.4	-50.9	6.1	0.00e+00	0	34	104	45390757888	60	43064
2026-01-28 22:54:16.91	168.94	11.24	-48.3	-50.8	6.1	0.00e+00	0	34	104	45390757888	60	42639
2026-01-28 22:54:17.89	169.03	11.14	-48.4	-50.9	6.1	0.00e+00	0	35	104	45390757888	60	42961
2026-01-28 22:54:18.87	169.13	11.04	-48.4	-50.9	6.1	0.00e+00	0	35	104	45390757888	60	42836
2026-01-28 22:54:19.85	169.23	10.94	-48.4	-50.8	6.1	0.00e+00	0	35	104	45390757888	60	42685
2026-01-28 22:54:20.84	169.32	10.84	-48.1	-50.6	6.1	0.00e+00	0	35	104	45390757888	60	41512
2026-01-28 22:54:21.82	169.42	10.74	-48.5	-51.0	6.1	0.00e+00	0	34	104	45390757888	60	43316
2026-01-28 22:54:22.80	169.51	10.64	-48.4	-50.9	6.1	0.00e+00	0	34	104	45390757888	60	43030
2026-01-28 22:54:23.78	169.61	10.54	-48.3	-50.8	6.1	0.00e+00	0	34	104	45390757888	60	42559
2026-01-28 22:54:24.76	169.70	10.44	-48.1	-50.6	6.1	0.00e+00	0	35	104	45390757888	60	41641
2026-01-28 22:54:25.74	169.79	10.34	-48.4	-50.9	6.1	0.00e+00	0	35	104	45390757888	60	43143
2026-01-28 22:54:26.72	169.88	10.24	-48.2	-50.7	6.1	0.00e+00	0	35	104	45390757888	60	41824
2026-01-28 22:54:27.70	169.97	10.15	-48.4	-50.9	6.1	0.00e+00	0	35	104	45390757888	60	43168
2026-01-28 22:54:28.68	170.06	10.05	-48.3	-50.8	6.1	0.00e+00	0	34	104	45390757888	60	42442
2026-01-28 22:54:29.66	170.15	9.95	-48.2	-50.7	6.1	0.00e+00	0	34	104	45390757888	60	41989
2026-01-28 22:54:30.64	170.24	9.86	-48.3	-50.8	6.1	0.00e+00	0	35	104	45390757888	60	42337
2026-01-28 22:54:31.61	170.33	9.76	-48.2	-50.7	6.1	0.00e+00	0	35	104	45390757888	60	42177
2026-01-28 22:54:32.59	170.41	9.67	-48.3	-50.8	6.1	0.00e+00	0	34	104	45390757888	60	42334
2026-01-28 22:54:33.57	170.50	9.57	-48.2	-50.7	6.1	0.00e+00	0	35	104	45390757888	60	42079
2026-01-28 22:54:34.55	170.59	9.48	-48.2	-50.7	6.1	0.00e+00	0	34	104	45390757888	60	42119
2026-01-28 22:54:35.53	170.67	9.38	-48.0	-50.6	6.1	0.00e+00	0	34	104	45390757888	60	41648
2026-01-28 22:54:36.52	170.76	9.29	-48.2	-50.7	6.1	0.00e+00	0	34	104	45390757888	60	42080
2026-01-28 22:54:37.50	170.84	9.20	-48.1	-50.6	6.1	0.00e+00	0	34	104	45390757888	60	41481
2026-01-28 22:54:38.48	170.92	9.10	-48.2	-50.8	6.1	0.00e+00	0	35	104	45390757888	60	42252
2026-01-28 22:54:39.46	171.01	9.01	-48.0	-50.6	6.1	0.00e+00	0	34	104	45390757888	60	41379
2026-01-28 22:54:40.44	171.09	8.92	-48.0	-50.5	6.1	0.00e+00	0	34	104	45390757888	60	41044
2026-01-28 22:54:41.42	171.17	8.83	-48.1	-50.6	6.1	0.00e+00	0	34	104	45390757888	60	41408
2026-01-28 22:54:42.39	171.25	8.74	-48.1	-50.6	6.1	0.00e+00	0	34	104	45390757888	60	41646
2026-01-28 22:54:43.37	171.33	8.65	-48.1	-50.6	6.1	0.00e+00	0	34	104	45390757888	60	41523
2026-01-28 22:54:44.35	171.41	8.56	-48.0	-50.6	6.1	0.00e+00	0	35	104	45390757888	60	41432
2026-01-28 22:54:45.33	171.49	8.47	-48.0	-50.5	6.1	0.00e+00	0	35	104	45390757888	60	41248
2026-01-28 22:54:46.31	171.57	8.38	-48.1	-50.6	6.1	0.00e+00	0	35	104	45390757888	60	41446
2026-01-28 22:54:47.29	171.64	8.29	-48.1	-50.6	6.1	0.00e+00	0	34	104	45390757888	60	41453
2026-01-28 22:54:48.27	171.72	8.20	-48.1	-50.6	6.1	0.00e+00	0	34	104	45390757888	60	41553
2026-01-28 22:54:49.25	171.80	8.11	-47.9	-50.5	6.1	0.00e+00	0	35	104	45390757888	60	40856
2026-01-28 22:54:50.22	171.87	8.03	-48.1	-50.7	6.1	0.00e+00	0	34	104	45390757888	60	41817
2026-01-28 22:54:51.21	171.95	7.94	-47.9	-50.5	6.1	0.00e+00	0	34	104	45390757888	60	40978
2026-01-28 22:54:52.18	172.03	7.85	-48.0	-50.6	6.1	0.00e+00	0	34	104	45390757888	60	41380
2026-01-28 22:54:53.16	172.10	7.77	-47.9	-50.5	6.1	0.00e+00	0	34	104	45390757888	60	40897
2026-01-28 22:54:54.14	172.17	7.68	-48.1	-50.6	6.1	0.00e+00	0	34	104	45390757888	60	41562
2026-01-28 22:54:55.12	172.25	7.59	-48.0	-50.5	6.1	0.00e+00	0	35	104	45390757888	60	40978
2026-01-28 22:54:56.10	172.32	7.51	-48.1	-50.6	6.1	0.00e+00	0	35	104	45390757888	60	41708
2026-01-28 22:54:57.08	172.39	7.42	-48.1	-50.6	6.1	0.00e+00	0	34	104	45390757888	60	41298
2026-01-28 22:54:58.06	172.47	7.34	-47.9	-50.5	6.1	0.00e+00	0	34	104	45390757888	60	40959
2026-01-28 22:54:59.03	172.54	7.25	-47.8	-50.3	6.1	0.00e+00	0	34	104	45390757888	60	40287
2026-01-28 22:55:00.02	172.61	7.17	-48.0	-50.5	6.1	0.00e+00	0	34	104	45390757888	60	41199
2026-01-28 22:55:01.00	172.68	7.09	-47.9	-50.4	6.1	0.00e+00	0	35	104	45390757888	60	40734
2026-01-28 22:55:01.97	172.75	7.00	-48.3	-50.8	6.0	0.00e+00	0	34	104	45390757888	60	42438
2026-01-28 22:55:02.94	172.82	6.92	-48.2	-50.7	6.1	0.00e+00	0	34	104	45390757888	60	41881
2026-01-28 22:55:03.92	172.89	6.84	-47.8	-50.4	6.1	0.00e+00	0	35	104	45390757888	60	40552
2026-01-28 22:55:04.90	172.96	6.75	-47.9	-50.4	6.1	0.00e+00	0	35	104	45390757888	60	40725
2026-01-28 22:55:05.87	173.02	6.67	-47.9	-50.4	6.1	0.00e+00	0	34	104	45390757888	60	40586
2026-01-28 22:55:06.86	173.09	6.59	-48.0	-50.6	6.1	0.00e+00	0	35	104	45390757888	60	41435
2026-01-28 22:55:07.83	173.16	6.51	-47.5	-50.2	6.1	0.00e+00	0	34	104	45390757888	60	39419
2026-01-28 22:55:08.81	173.23	6.43	-47.8	-50.4	6.1	0.00e+00	0	35	104	45390757888	60	40505
2026-01-28 22:55:09.79	173.29	6.35	-48.1	-50.7	6.1	0.00e+00	0	35	104	45390757888	60	41856
2026-01-28 22:55:10.77	173.36	6.27	-48.1	-50.6	6.1	0.00e+00	0	34	104	45390757888	60	41421
2026-01-28 22:55:11.75	173.42	6.19	-48.2	-50.6	6.1	0.00e+00	0	35	104	45390757888	60	41596
2026-01-28 22:55:12.73	173.49	6.11	-48.0	-50.5	6.1	0.00e+00	0	34	104	45390757888	60	41176
2026-01-28 22:55:13.71	173.55	6.03	-48.1	-50.7	6.1	0.00e+00	0	35	104	45390757888	60	41791
2026-01-28 22:55:14.69	173.62	5.95	-48.1	-50.6	6.0	0.00e+00	0	35	104	45390757888	60	41295
2026-01-28 22:55:15.67	173.68	5.87	-47.9	-50.5	6.1	0.00e+00	0	35	104	45390757888	60	40815
2026-01-28 22:55:16.65	173.75	5.79	-47.8	-50.3	6.1	0.00e+00	0	34	104	45390757888	60	40041
2026-01-28 22:55:17.63	173.81	5.71	-48.1	-50.5	6.1	0.00e+00	0	34	104	45390757888	60	41036
2026-01-28 22:55:18.61	173.87	5.63	-48.0	-50.5	6.1	0.00e+00	0	35	104	45390757888	60	41176
2026-01-28 22:55:19.59	173.93	5.55	-48.0	-50.4	6.1	0.00e+00	0	35	104	45390757888	60	40788
2026-01-28 22:55:20.57	174.00	5.48	-48.0	-50.5	6.1	0.00e+00	0	34	104	45390757888	60	41034
2026-01-28 22:55:21.55	174.06	5.40	-48.1	-50.6	6.1	0.00e+00	0	35	104	45390757888	60	41376
2026-01-28 22:55:22.53	174.12	5.32	-47.9	-50.4	6.1	0.00e+00	0	34	104	45390757888	60	40664
2026-01-28 22:55:23.51	174.18	5.24	-48.0	-50.4	6.0	0.00e+00	0	34	104	45390757888	60	40715
2026-01-28 22:55:24.49	174.24	5.17	-48.0	-50.5	6.1	0.00e+00	0	34	104	45390757888	60	40896
2026-01-28 22:55:25.47	174.30	5.09	-48.0	-50.5	6.1	0.00e+00	0	34	104	45390757888	60	40806
2026-01-28 22:55:26.44	174.36	5.02	-47.9	-50.4	6.1	0.00e+00	0	34	104	45390757888	60	40472
2026-01-28 22:55:27.42	174.42	4.94	-47.7	-50.2	6.1	0.00e+00	0	34	104	45390757888	60	39542
2026-01-28 22:55:28.41	174.48	4.86	-48.0	-50.4	6.1	0.00e+00	0	35	104	45390757888	60	40760
2026-01-28 22:55:29.39	174.54	4.79	-47.7	-50.2	6.1	0.00e+00	0	35	104	45390757888	60	39808
2026-01-28 22:55:30.37	174.60	4.71	-47.9	-50.4	6.1	0.00e+00	0	34	104	45390757888	60	40378
2026-01-28 22:55:31.35	174.65	4.64	-47.8	-50.3	6.1	0.00e+00	0	34	104	45390757888	60	39989
2026-01-28 22:55:32.33	174.71	4.56	-47.8	-50.3	6.1	0.00e+00	0	35	104	45390757888	60	40228
2026-01-28 22:55:33.30	174.77	4.49	-47.7	-50.2	6.1	0.00e+00	0	34	104	45390757888	60	39754
2026-01-28 22:55:34.28	174.83	4.42	-48.0	-50.5	6.1	0.00e+00	0	34	104	45390757888	60	40967
2026-01-28 22:55:35.26	174.88	4.34	-47.8	-50.3	6.1	0.00e+00	0	35	104	45390757888	60	40175
2026-01-28 22:55:36.24	174.94	4.27	-47.9	-50.4	6.1	0.00e+00	0	35	104	45390757888	60	40509
2026-01-28 22:55:37.22	174.99	4.20	-47.6	-50.1	6.1	0.00e+00	0	34	104	45390757888	60	39122
2026-01-28 22:55:38.20	175.05	4.12	-48.1	-50.6	6.1	0.00e+00	0	34	104	45390757888	60	41423
2026-01-28 22:55:39.18	175.10	4.05	-47.8	-50.3	6.1	0.00e+00	0	34	104	45390757888	60	40041
2026-01-28 22:55:40.16	175.16	3.98	-47.7	-50.2	6.1	0.00e+00	0	34	104	45390757888	60	39731
2026-01-28 22:55:41.13	175.21	3.91	-47.7	-50.2	6.1	0.00e+00	0	34	104	45390757888	60	39441
2026-01-28 22:55:42.11	175.27	3.83	-47.9	-50.4	6.1	0.00e+00	0	34	104	45390757888	60	40642
2026-01-28 22:55:43.09	175.32	3.76	-47.6	-50.1	6.1	0.00e+00	0	35	104	45390757888	60	39250
2026-01-28 22:55:44.07	175.38	3.69	-48.0	-50.4	6.1	0.00e+00	0	34	104	45390757888	60	40720
2026-01-28 22:55:45.05	175.43	3.62	-47.6	-50.1	6.1	0.00e+00	0	34	104	45390757888	60	39199
2026-01-28 22:55:46.03	175.48	3.55	-47.8	-50.3	6.1	0.00e+00	0	34	104	45390757888	60	40029
2026-01-28 22:55:47.01	175.53	3.48	-47.4	-49.9	6.1	0.00e+00	0	34	104	45390757888	60	38307
2026-01-28 22:55:47.98	175.59	3.41	-47.8	-50.3	6.1	0.00e+00	0	34	104	45390757888	60	40118
2026-01-28 22:55:48.97	175.64	3.33	-47.5	-50.0	6.1	0.00e+00	0	34	104	45390757888	60	38692
2026-01-28 22:55:49.94	175.69	3.27	-47.6	-50.1	6.1	0.00e+00	0	34	104	45390757888	60	39359
2026-01-28 22:55:50.92	175.74	3.20	-47.3	-49.8	6.1	0.00e+00	0	34	104	45390757888	60	38007
2026-01-28 22:55:51.90	175.79	3.13	-47.8	-50.3	6.1	0.00e+00	0	34	104	45390757888	60	40173
2026-01-28 22:55:52.88	175.84	3.06	-47.4	-49.9	6.1	0.00e+00	0	34	104	45390757888	60	38442
2026-01-28 22:55:53.86	175.89	2.99	-47.7	-50.2	6.1	0.00e+00	0	35	104	45390757888	60	39836
2026-01-28 22:55:54.85	175.95	2.92	-48.0	-50.6	6.1	0.00e+00	0	35	104	45390757888	60	41474
2026-01-28 22:55:55.83	176.00	2.85	-48.5	-51.0	6.1	0.00e+00	0	34	104	45390757888	60	43506
2026-01-28 22:55:56.81	176.05	2.78	-48.4	-51.0	6.1	0.00e+00	0	35	104	45390757888	60	43244
2026-01-28 22:55:57.78	176.09	2.71	-48.4	-50.9	6.1	0.00e+00	0	34	104	45390757888	60	42915
2026-01-28 22:55:58.76	176.14	2.64	-48.4	-51.0	6.1	0.00e+00	0	35	104	45390757888	60	43250
2026-01-28 22:55:59.74	176.19	2.57	-48.9	-51.4	6.1	0.00e+00	0	34	104	45390757888	60	45329
2026-01-28 22:56:00.71	176.24	2.51	-49.0	-51.4	6.1	0.00e+00	0	35	104	45390757888	60	45555
2026-01-28 22:56:01.69	176.29	2.44	-48.9	-51.4	6.1	0.00e+00	0	35	104	45390757888	60	45456
2026-01-28 22:56:02.67	176.34	2.37	-48.9	-51.4	6.1	0.00e+00	0	35	104	45390757888	60	45314
2026-01-28 22:56:03.65	176.39	2.30	-48.9	-51.4	6.1	0.00e+00	0	34	104	45390757888	60	45473
2026-01-28 22:56:04.64	176.43	2.24	-49.0	-51.5	6.1	0.00e+00	0	34	104	45390757888	60	46012
2026-01-28 22:56:05.62	176.48	2.17	-49.1	-51.5	6.1	0.00e+00	0	34	104	45390757888	60	46102
2026-01-28 22:56:06.60	176.53	2.10	-49.1	-51.5	6.1	0.00e+00	0	34	104	45390757888	60	46184
2026-01-28 22:56:07.58	176.58	2.04	-49.1	-51.6	6.1	0.00e+00	0	34	104	45390757888	60	46452
2026-01-28 22:56:08.56	176.62	1.97	-49.1	-51.5	6.1	0.00e+00	0	34	104	45390757888	60	46099
2026-01-28 22:56:09.54	176.67	1.90	-49.1	-51.5	6.1	0.00e+00	0	34	104	45390757888	60	46241
2026-01-28 22:56:10.52	176.71	1.84	-49.0	-51.5	6.1	0.00e+00	0	34	104	45390757888	60	46181
2026-01-28 22:56:11.50	176.76	1.77	-49.1	-51.5	6.1	0.00e+00	0	34	104	45390757888	60	45978
2026-01-28 22:56:12.48	176.81	1.71	-49.0	-51.5	6.1	0.00e+00	0	34	104	45390757888	60	46180
2026-01-28 22:56:13.46	176.85	1.64	-49.0	-51.4	6.1	0.00e+00	0	34	104	45390757888	60	45632
2026-01-28 22:56:14.44	176.90	1.58	-48.9	-51.4	6.1	0.00e+00	0	34	104	45390757888	60	45692
2026-01-28 22:56:15.41	176.94	1.51	-49.0	-51.4	6.1	0.00e+00	0	34	104	45390757888	60	45369
2026-01-28 22:56:16.39	176.99	1.45	-48.9	-51.4	6.1	0.00e+00	0	34	104	45390757888	60	45676
2026-01-28 22:56:17.38	177.03	1.38	-48.9	-51.3	6.1	0.00e+00	0	34	104	45390757888	60	45135
2026-01-28 22:56:18.36	177.08	1.32	-49.0	-51.5	6.1	0.00e+00	0	34	104	45390757888	60	45952
2026-01-28 22:56:19.34	177.12	1.25	-49.0	-51.5	6.1	0.00e+00	0	34	104	45390757888	60	45944
2026-01-28 22:56:20.33	177.16	1.19	-49.0	-51.5	6.1	0.00e+00	0	34	104	45390757888	60	46178
2026-01-28 22:56:21.31	177.21	1.12	-49.0	-51.5	6.1	0.00e+00	0	34	104	45390757888	60	45878
2026-01-28 22:56:22.30	177.25	1.06	-49.0	-51.4	6.1	0.00e+00	0	34	104	45390757888	60	45767
2026-01-28 22:56:23.28	177.30	1.00	-49.0	-51.5	6.1	0.00e+00	0	34	104	45390757888	60	45914
2026-01-28 22:56:24.26	177.34	0.93	-49.0	-51.4	6.1	0.00e+00	0	34	104	45390757888	60	45569
2026-01-28 22:56:25.24	177.38	0.87	-49.0	-51.5	6.1	0.00e+00	0	34	104	45390757888	60	45810
2026-01-28 22:56:26.22	177.42	0.81	-49.0	-51.4	6.1	0.00e+00	0	34	104	45390757888	60	45578
2026-01-28 22:56:27.20	177.47	0.74	-49.0	-51.5	6.1	0.00e+00	0	34	104	45390757888	60	45776
2026-01-28 22:56:28.19	177.51	0.68	-49.0	-51.5	6.1	0.00e+00	0	34	104	45390757888	60	45854
2026-01-28 22:56:29.16	177.55	0.62	-49.0	-51.5	6.1	0.00e+00	0	34	104	45390757888	60	45840
2026-01-28 22:56:30.14	177.59	0.55	-49.0	-51.4	6.1	0.00e+00	0	34	104	45390757888	60	45746
2026-01-28 22:56:31.13	177.63	0.49	-49.0	-51.4	6.1	0.00e+00	0	34	104	45390757888	60	45694
2026-01-28 22:56:32.11	177.67	0.43	-49.0	-51.4	6.1	0.00e+00	0	35	104	45390757888	60	45471
2026-01-28 22:56:33.09	177.72	0.37	-49.0	-51.5	6.1	0.00e+00	0	35	104	45390757888	60	45894
2026-01-28 22:56:34.06	177.76	0.31	-49.0	-51.4	6.1	0.00e+00	0	34	104	45390757888	60	45638
2026-01-28 22:56:35.04	177.80	0.24	-49.0	-51.4	6.1	0.00e+00	0	34	104	45390757888	60	45567
2026-01-28 22:56:36.02	177.84	0.18	-49.0	-51.4	6.1	0.00e+00	0	34	104	45390757888	60	45628
2026-01-28 22:56:37.00	177.88	0.12	-49.0	-51.5	6.1	0.00e+00	0	35	104	45390757888	60	45794
2026-01-28 22:56:37.98	177.92	0.06	-49.0	-51.4	6.1	0.00e+00	0	35	104	45390757888	60	45718
2026-01-28 22:56:38.96	177.96	-0.00	-49.0	-51.4	6.1	0.00e+00	0	34	104	45390757888	60	45704
2026-01-28 22:56:39.94	178.00	-0.06	-49.0	-51.4	6.1	0.00e+00	0	34	104	45390757888	60	45702

#Closed at: 2026-01-28 22:56:40
