passes_logs/2026/01/28/R4.6S_Anadyr/R4.6S_Anadyr__20260128_220422_AQUA_rec.log

#Pass ID: 20260128_220422_AQUA
#Satellite: AQUA
#Configuration: AQUA
#almurnet v.1.7.20251203
#Start time: 2026-01-28 22:04:24

#Version: 2.2.20231116
#Station: R4.6S_Anadyr
#Location: 177.4865 lon 64.73178 lat
#TLE: 1 27424U 02022A   26027.88561574  .00001798  00000+0  36942-3 0  9997
#TLE: 2 27424  98.4102 354.5311 0001840  63.5604 322.5877 14.61868111262779

#Time	Az	El	Level	Level2	SNR	BER	BlckErr	Temp	State	Recorded	gain1	gain2
2026-01-28 22:04:24.50	63.36	0.12	-48.8	-61.3	3.4	1.52e+00	0	28	0	0	60	40983
2026-01-28 22:04:25.50	63.27	0.17	-48.9	-66.9	3.5	3.03e+01	0	29	104	0	60	85074
2026-01-28 22:04:26.52	63.17	0.22	-49.1	-66.9	3.5	3.03e+01	0	30	104	0	60	85254
2026-01-28 22:04:27.53	63.08	0.26	-49.1	-67.0	3.5	3.03e+01	0	30	104	0	60	85710
2026-01-28 22:04:28.54	62.99	0.31	-49.1	-67.0	3.5	3.03e+01	0	29	104	0	60	85993
2026-01-28 22:04:29.55	62.90	0.36	-48.9	-67.0	3.5	3.03e+01	0	30	104	0	60	86256
2026-01-28 22:04:30.56	62.80	0.41	-49.1	-67.0	3.5	3.03e+01	0	30	104	0	60	86485
2026-01-28 22:04:31.57	62.71	0.46	-49.1	-67.0	3.5	3.03e+01	0	30	104	0	60	86073
2026-01-28 22:04:32.58	62.62	0.51	-49.1	-67.0	3.5	3.03e+01	0	30	104	0	60	86155
2026-01-28 22:04:33.58	62.52	0.55	-49.2	-67.0	3.5	3.03e+01	0	30	104	0	60	86570
2026-01-28 22:04:34.59	62.43	0.60	-49.2	-67.0	3.5	3.03e+01	0	30	104	0	60	85801
2026-01-28 22:04:35.60	62.33	0.65	-49.2	-67.0	3.5	3.03e+01	0	30	104	0	60	86402
2026-01-28 22:04:36.61	62.24	0.70	-49.1	-67.0	3.5	3.03e+01	0	30	104	0	60	86332
2026-01-28 22:04:37.62	62.14	0.75	-49.2	-67.0	3.5	3.03e+01	0	30	104	0	60	86129
2026-01-28 22:04:38.63	62.05	0.80	-49.1	-67.1	3.6	3.03e+01	0	30	104	0	60	86692
2026-01-28 22:04:39.64	61.95	0.85	-49.1	-67.0	3.5	3.03e+01	0	30	104	0	60	86192
2026-01-28 22:04:40.65	61.85	0.89	-47.8	-67.0	3.5	3.03e+01	0	30	104	0	60	85747
2026-01-28 22:04:41.66	61.75	0.94	-49.0	-66.9	3.5	3.03e+01	0	30	104	0	60	85326
2026-01-28 22:04:42.67	61.66	0.99	-48.7	-66.9	3.5	3.03e+01	0	30	104	0	60	85558
2026-01-28 22:04:43.68	61.56	1.04	-48.8	-66.9	3.5	3.03e+01	0	30	104	0	60	84798
2026-01-28 22:04:44.69	61.46	1.09	-48.8	-66.8	3.5	3.03e+01	0	30	104	0	60	84291
2026-01-28 22:04:45.70	61.36	1.14	-48.4	-66.8	3.5	3.03e+01	0	30	104	0	60	83809
2026-01-28 22:04:46.71	61.26	1.19	-48.2	-66.6	3.5	3.03e+01	0	30	104	0	60	82381
2026-01-28 22:04:47.72	61.16	1.23	-48.1	-66.5	3.5	3.03e+01	0	30	104	0	60	81168
2026-01-28 22:04:48.73	61.06	1.28	-46.2	-66.2	3.5	3.03e+01	0	30	104	0	60	78894
2026-01-28 22:04:49.74	60.96	1.33	-47.2	-65.8	3.5	3.03e+01	0	30	104	0	60	75102
2026-01-28 22:04:50.75	60.86	1.38	-47.2	-65.5	3.5	3.03e+01	0	30	104	0	60	72491
2026-01-28 22:04:51.76	60.76	1.43	-47.2	-65.5	3.5	3.03e+01	0	30	104	0	60	72735
2026-01-28 22:04:52.77	60.66	1.48	-47.2	-65.5	3.5	3.03e+01	0	30	104	0	60	72270
2026-01-28 22:04:53.78	60.56	1.53	-47.2	-65.5	3.5	3.03e+01	0	30	104	0	60	72823
2026-01-28 22:04:54.79	60.46	1.58	-47.2	-65.5	3.5	3.03e+01	0	30	104	0	60	72630
2026-01-28 22:04:55.80	60.36	1.62	-47.2	-65.5	3.5	3.03e+01	0	30	104	0	60	72411
2026-01-28 22:04:56.81	60.25	1.67	-47.2	-65.5	3.5	3.03e+01	0	30	104	0	60	72665
2026-01-28 22:04:57.82	60.15	1.72	-47.2	-65.5	3.5	3.03e+01	0	30	104	0	60	72737
2026-01-28 22:04:58.83	60.05	1.77	-47.2	-65.5	3.5	3.03e+01	0	30	104	0	60	72507
2026-01-28 22:04:59.84	59.94	1.82	-47.2	-65.5	3.5	3.03e+01	0	30	104	0	60	72342
2026-01-28 22:05:00.85	59.84	1.87	-47.2	-65.5	3.5	3.03e+01	0	30	104	0	60	72427
2026-01-28 22:05:01.85	59.74	1.92	-47.2	-65.5	3.5	3.03e+01	0	30	104	0	60	72227
2026-01-28 22:05:02.86	59.63	1.97	-47.2	-65.5	3.5	3.03e+01	0	30	104	0	60	72717
2026-01-28 22:05:03.87	59.52	2.01	-47.2	-65.4	3.5	3.03e+01	0	30	104	0	60	71786
2026-01-28 22:05:04.88	59.42	2.06	-47.1	-65.4	3.5	3.03e+01	0	30	104	0	60	72066
2026-01-28 22:05:05.89	59.31	2.11	-47.2	-65.5	3.5	3.03e+01	0	30	104	0	60	72106
2026-01-28 22:05:06.90	59.21	2.16	-47.1	-65.5	3.5	3.03e+01	0	30	104	0	60	72359
2026-01-28 22:05:07.91	59.10	2.21	-47.1	-65.4	3.5	3.03e+01	0	30	104	0	60	72009
2026-01-28 22:05:08.92	58.99	2.26	-47.1	-65.4	3.5	3.03e+01	0	30	104	0	60	71526
2026-01-28 22:05:09.93	58.88	2.31	-47.1	-65.3	3.5	3.03e+01	0	30	104	0	60	71133
2026-01-28 22:05:10.94	58.78	2.36	-47.1	-65.4	3.5	3.03e+01	0	30	104	0	60	71441
2026-01-28 22:05:11.95	58.67	2.41	-47.1	-65.4	3.5	3.03e+01	0	30	104	0	60	71439
2026-01-28 22:05:12.96	58.56	2.45	-47.1	-65.4	3.5	3.03e+01	0	30	104	0	60	71584
2026-01-28 22:05:13.97	58.45	2.50	-47.2	-65.5	3.5	3.03e+01	0	30	104	0	60	72137
2026-01-28 22:05:14.99	58.34	2.55	-47.1	-65.4	3.5	3.03e+01	0	30	104	0	60	71774
2026-01-28 22:05:16.00	58.23	2.60	-47.1	-65.3	3.5	3.03e+01	0	30	104	0	60	70540
2026-01-28 22:05:17.01	58.12	2.65	-47.1	-65.3	3.5	3.03e+01	0	30	104	0	60	70973
2026-01-28 22:05:18.02	58.01	2.70	-47.2	-65.4	3.5	3.03e+01	0	30	104	0	60	71923
2026-01-28 22:05:19.03	57.89	2.75	-47.1	-65.1	3.5	3.03e+01	0	30	104	0	60	69155
2026-01-28 22:05:20.04	57.78	2.80	-47.1	-64.9	3.5	3.03e+01	0	30	104	0	60	68033
2026-01-28 22:05:21.05	57.67	2.85	-47.1	-65.2	3.5	3.03e+01	0	30	104	0	60	70135
2026-01-28 22:05:22.05	57.56	2.90	-47.1	-64.9	3.5	3.03e+01	0	30	104	0	60	67373
2026-01-28 22:05:23.07	57.44	2.94	-45.6	-59.7	3.5	3.03e+01	0	30	104	0	60	36980
2026-01-28 22:05:24.08	57.33	2.99	-42.8	-54.5	3.5	3.03e+01	0	30	104	0	60	20359
2026-01-28 22:05:25.09	57.22	3.04	-41.1	-52.2	3.5	3.03e+01	0	30	104	0	58	17511
2026-01-28 22:05:26.10	57.10	3.09	-47.2	-65.4	3.5	3.03e+01	0	30	104	0	60	71276
2026-01-28 22:05:27.10	56.99	3.14	-45.5	-60.7	3.5	3.03e+01	0	30	104	0	60	41548
2026-01-28 22:05:28.11	56.87	3.19	-44.9	-65.2	3.5	3.03e+01	0	30	104	0	60	70251
2026-01-28 22:05:29.12	56.76	3.24	-47.6	-65.3	3.5	3.03e+01	0	30	104	0	60	70662
2026-01-28 22:05:30.13	56.64	3.29	-38.9	-49.7	3.5	3.03e+01	0	30	104	0	50	20825
2026-01-28 22:05:31.14	56.52	3.34	-39.2	-49.9	3.5	3.03e+01	0	30	104	0	52	19169
2026-01-28 22:05:32.15	56.41	3.38	-38.8	-49.5	3.5	3.03e+01	0	30	104	0	52	18118
2026-01-28 22:05:33.16	56.29	3.43	-38.6	-49.2	3.5	3.03e+01	0	30	104	0	50	19675
2026-01-28 22:05:34.17	56.17	3.48	-39.3	-50.0	3.5	3.03e+01	0	30	104	0	52	19321
2026-01-28 22:05:35.18	56.05	3.53	-39.1	-49.7	3.5	3.03e+01	0	30	104	0	52	18723
2026-01-28 22:05:36.19	55.93	3.58	-47.7	-65.3	3.5	3.03e+01	0	30	104	0	60	70938
2026-01-28 22:05:37.20	55.82	3.63	-46.3	-60.5	3.5	3.03e+01	0	30	104	0	60	40552
2026-01-28 22:05:38.21	55.70	3.68	-46.2	-65.4	3.5	3.03e+01	0	30	104	0	60	71983
2026-01-28 22:05:39.22	55.58	3.73	-42.4	-53.7	3.5	3.03e+01	0	30	104	0	60	18531
2026-01-28 22:05:40.23	55.45	3.78	-41.6	-52.6	3.5	3.03e+01	0	30	104	0	58	18372
2026-01-28 22:05:41.24	55.33	3.82	-40.9	-51.8	3.5	3.03e+01	0	30	104	0	56	18746
2026-01-28 22:05:42.25	55.21	3.87	-41.0	-52.0	3.5	3.03e+01	0	30	104	0	56	19277
2026-01-28 22:05:43.26	55.09	3.92	-46.0	-64.3	3.5	3.03e+01	0	30	104	0	60	63393
2026-01-28 22:05:44.26	54.97	3.97	-46.9	-61.9	3.5	3.03e+01	0	30	104	0	60	48088
2026-01-28 22:05:45.27	54.85	4.02	-47.7	-65.5	3.5	3.03e+01	0	30	104	0	60	72901
2026-01-28 22:05:46.28	54.72	4.07	-39.2	-49.8	3.5	3.03e+01	0	30	104	0	54	16823
2026-01-28 22:05:47.29	54.60	4.12	-39.0	-49.5	3.5	3.03e+01	0	30	104	0	54	16309
2026-01-28 22:05:48.30	54.47	4.17	-38.7	-49.2	3.5	3.03e+01	0	30	104	0	52	17633
2026-01-28 22:05:49.31	54.35	4.21	-38.6	-49.0	3.5	3.03e+01	0	30	104	0	50	19383
2026-01-28 22:05:50.31	54.23	4.26	-38.8	-49.3	3.5	3.03e+01	0	30	104	0	52	17830
2026-01-28 22:05:51.32	54.10	4.31	-38.0	-48.4	3.5	3.03e+01	0	30	104	0	50	18079
2026-01-28 22:05:52.33	53.97	4.36	-47.5	-64.4	3.5	3.03e+01	0	30	104	0	60	63777
2026-01-28 22:05:53.34	53.85	4.41	-42.3	-53.5	3.6	3.03e+01	0	30	104	0	60	18250
2026-01-28 22:05:54.35	53.72	4.46	-47.0	-63.8	3.6	3.03e+01	0	30	104	0	60	59393
2026-01-28 22:05:55.36	53.59	4.51	-37.9	-48.3	3.5	3.03e+01	0	30	104	0	50	17849
2026-01-28 22:05:56.37	53.46	4.55	-37.7	-48.2	3.6	3.03e+01	0	30	104	0	50	17517
2026-01-28 22:05:57.38	53.34	4.60	-38.0	-48.4	3.5	3.03e+01	0	30	104	0	50	17977
2026-01-28 22:05:58.39	53.21	4.65	-40.4	-51.1	3.4	3.03e+01	0	30	104	0	58	15492
2026-01-28 22:05:59.40	53.08	4.70	-37.7	-48.1	3.6	3.03e+01	0	30	104	0	50	17384
2026-01-28 22:06:00.41	52.95	4.75	-46.8	-61.4	3.6	3.03e+01	0	30	104	0	60	45217
2026-01-28 22:06:01.42	52.82	4.80	-39.9	-50.6	3.5	3.03e+01	0	30	104	0	60	12987
2026-01-28 22:06:02.43	52.69	4.84	-45.3	-59.8	3.5	3.03e+01	0	30	104	0	60	37394
2026-01-28 22:06:03.44	52.56	4.89	-38.3	-48.8	3.5	3.03e+01	0	30	104	0	52	16848
2026-01-28 22:06:04.45	52.42	4.94	-38.4	-48.8	3.5	3.03e+01	0	30	104	0	52	16880
2026-01-28 22:06:05.46	52.29	4.99	-38.4	-48.9	3.5	3.03e+01	0	30	104	0	52	17049
2026-01-28 22:06:06.47	52.16	5.04	-42.7	-54.1	3.5	3.03e+01	0	30	104	0	60	19500
2026-01-28 22:06:07.48	52.02	5.09	-37.8	-48.2	3.5	3.03e+01	0	30	104	0	50	17557
2026-01-28 22:06:08.49	51.89	5.13	-46.6	-60.9	3.5	3.03e+01	0	30	104	0	60	42896
2026-01-28 22:06:09.50	51.76	5.18	-38.8	-49.4	3.5	3.03e+01	0	30	104	0	58	12689
2026-01-28 22:06:10.51	51.62	5.23	-46.5	-60.4	3.5	3.03e+01	0	30	104	0	60	40355
2026-01-28 22:06:11.52	51.49	5.28	-40.2	-51.0	3.5	3.03e+01	0	30	104	0	54	19288
2026-01-28 22:06:12.53	51.35	5.33	-40.0	-50.8	3.5	3.03e+01	0	30	104	0	54	18858
2026-01-28 22:06:13.54	51.21	5.37	-38.0	-48.4	3.6	3.03e+01	0	30	104	0	52	16098
2026-01-28 22:06:14.55	51.08	5.42	-37.2	-47.6	3.5	3.03e+01	0	30	104	0	50	16338
2026-01-28 22:06:15.56	50.94	5.47	-40.0	-50.6	3.5	3.03e+01	0	30	104	0	50	23226
2026-01-28 22:06:16.57	50.80	5.52	-45.5	-58.3	3.6	3.03e+01	0	30	104	0	60	31616
2026-01-28 22:06:17.57	50.67	5.57	-38.0	-48.4	3.5	3.03e+01	0	30	104	0	50	17963
2026-01-28 22:06:18.58	50.53	5.61	-44.5	-56.9	3.6	3.03e+01	0	31	104	0	60	27015
2026-01-28 22:06:19.59	50.39	5.66	-39.1	-49.7	3.5	3.03e+01	0	30	104	0	54	16603
2026-01-28 22:06:20.60	50.25	5.71	-38.2	-48.6	3.6	3.03e+01	0	30	104	0	52	16389
2026-01-28 22:06:21.61	50.11	5.76	-38.0	-48.4	3.5	3.03e+01	0	30	104	0	50	18043
2026-01-28 22:06:22.62	49.97	5.80	-37.1	-47.5	3.5	3.03e+01	0	30	104	0	48	18239
2026-01-28 22:06:23.63	49.83	5.85	-40.6	-51.3	3.5	3.03e+01	0	30	104	0	50	25146
2026-01-28 22:06:24.64	49.68	5.90	-43.8	-55.4	3.5	3.03e+01	0	30	104	0	60	22791
2026-01-28 22:06:25.65	49.54	5.95	-37.8	-48.2	3.5	3.03e+01	0	30	104	0	48	19744
2026-01-28 22:06:26.66	49.40	5.99	-41.0	-51.8	3.6	3.03e+01	0	30	104	0	60	15057
2026-01-28 22:06:27.67	49.25	6.04	-37.6	-48.0	3.5	3.03e+01	0	30	104	0	50	17236
2026-01-28 22:06:28.68	49.11	6.09	-37.3	-47.7	3.5	3.03e+01	0	30	104	0	50	16560
2026-01-28 22:06:29.69	48.97	6.13	-41.8	-52.9	3.4	3.03e+01	0	30	104	0	52	26904
2026-01-28 22:06:30.70	48.82	6.18	-40.8	-51.6	3.6	3.03e+01	0	30	104	0	60	14689
2026-01-28 22:06:31.71	48.68	6.23	-41.2	-52.0	3.5	3.03e+01	0	30	104	0	50	27272
2026-01-28 22:06:32.72	48.53	6.27	-45.2	-57.5	3.5	3.03e+01	0	31	104	0	60	28720
2026-01-28 22:06:33.73	48.38	6.32	-41.8	-52.8	3.5	3.03e+01	0	30	104	0	50	29962
2026-01-28 22:06:34.74	48.24	6.37	-42.1	-53.2	3.5	3.03e+01	0	30	104	0	60	17581
2026-01-28 22:06:35.74	48.09	6.41	-40.0	-50.6	3.5	3.03e+01	0	30	104	0	54	18446
2026-01-28 22:06:36.76	47.94	6.46	-39.5	-50.1	3.5	3.03e+01	0	30	104	0	54	17441
2026-01-28 22:06:37.76	47.79	6.51	-37.5	-47.9	3.5	3.03e+01	0	30	104	0	50	17023
2026-01-28 22:06:38.77	47.64	6.55	-37.1	-47.5	3.6	3.03e+01	0	30	104	0	48	18148
2026-01-28 22:06:39.78	47.49	6.60	-45.9	-59.2	3.5	3.03e+01	0	30	104	0	60	35120
2026-01-28 22:06:40.79	47.34	6.65	-45.3	-57.7	3.5	3.03e+01	0	30	104	0	60	29473
2026-01-28 22:06:41.80	47.19	6.69	-42.5	-53.8	3.5	3.03e+01	0	30	104	0	52	29976
2026-01-28 22:06:42.81	47.04	6.74	-41.3	-52.2	3.5	3.03e+01	0	30	104	0	60	15615
2026-01-28 22:06:43.82	46.89	6.78	-38.5	-49.0	3.5	3.03e+01	0	30	104	0	52	17110
2026-01-28 22:06:44.83	46.74	6.83	-38.1	-48.5	3.5	3.03e+01	0	30	104	0	52	16291
2026-01-28 22:06:45.84	46.59	6.88	-40.2	-50.9	3.5	3.03e+01	0	30	104	0	52	21500
2026-01-28 22:06:46.85	46.43	6.92	-36.7	-47.1	3.5	3.03e+01	0	30	104	0	48	17409
2026-01-28 22:06:47.86	46.28	6.97	-46.7	-61.0	3.5	3.03e+01	0	30	104	0	60	43402
2026-01-28 22:06:48.87	46.12	7.01	-45.7	-58.4	3.5	3.03e+01	0	30	104	0	60	31923
2026-01-28 22:06:49.88	45.97	7.06	-46.7	-60.5	3.5	3.03e+01	0	30	104	0	60	40690
2026-01-28 22:06:50.89	45.81	7.10	-40.0	-50.6	3.5	3.03e+01	0	31	104	0	56	16452
2026-01-28 22:06:51.90	45.66	7.15	-39.0	-49.5	3.5	3.03e+01	0	30	104	0	52	18128
2026-01-28 22:06:52.91	45.50	7.19	-37.9	-48.4	3.5	3.03e+01	0	30	104	0	50	17969
2026-01-28 22:06:53.92	45.34	7.24	-38.7	-49.3	3.5	3.03e+01	0	30	104	0	50	19968
2026-01-28 22:06:54.93	45.19	7.28	-37.0	-47.4	3.5	3.03e+01	0	30	104	0	48	18051
2026-01-28 22:06:55.93	45.03	7.33	-47.9	-65.6	3.5	3.03e+01	0	30	104	0	60	73446
2026-01-28 22:06:56.95	44.87	7.37	-45.9	-58.7	3.5	3.03e+01	0	30	104	0	60	32960
2026-01-28 22:06:57.96	44.71	7.42	-46.7	-61.7	3.5	3.03e+01	0	30	104	0	60	46725
2026-01-28 22:06:58.96	44.55	7.46	-39.6	-50.2	3.6	3.03e+01	0	30	104	0	54	17621
2026-01-28 22:06:59.97	44.39	7.51	-39.1	-49.6	3.5	3.03e+01	0	30	104	0	52	18490
2026-01-28 22:07:00.98	44.23	7.55	-39.2	-49.8	3.5	3.03e+01	0	30	104	0	52	18749
2026-01-28 22:07:01.99	44.07	7.60	-47.1	-62.4	3.5	3.03e+01	0	30	104	0	60	50904
2026-01-28 22:07:03.00	43.91	7.64	-37.3	-47.7	3.6	3.03e+01	0	30	104	0	50	16531
2026-01-28 22:07:04.01	43.74	7.68	-47.9	-66.0	3.5	3.03e+01	0	30	104	0	60	76446
2026-01-28 22:07:05.02	43.58	7.73	-46.4	-59.6	3.5	3.03e+01	0	30	104	0	60	36553
2026-01-28 22:07:06.03	43.42	7.77	-47.4	-64.6	3.5	3.03e+01	0	30	104	0	60	65586
2026-01-28 22:07:07.04	43.25	7.82	-38.9	-49.4	3.5	3.03e+01	0	31	104	0	54	16021
2026-01-28 22:07:08.04	43.09	7.86	-38.3	-48.7	3.5	3.03e+01	0	31	104	0	52	16560
2026-01-28 22:07:09.05	42.93	7.90	-38.2	-48.6	3.5	3.03e+01	0	31	104	0	52	16507
2026-01-28 22:07:10.06	42.76	7.94	-47.4	-62.8	3.5	3.03e+01	0	31	104	0	60	53028
2026-01-28 22:07:11.07	42.59	7.99	-37.1	-47.5	3.5	3.03e+01	0	31	104	0	50	16267
2026-01-28 22:07:12.08	42.43	8.03	-48.3	-66.2	3.5	3.03e+01	0	31	104	0	60	78370
2026-01-28 22:07:13.09	42.26	8.07	-46.5	-59.9	3.5	3.03e+01	0	31	104	0	60	37929
2026-01-28 22:07:14.10	42.09	8.12	-46.6	-64.9	3.5	3.03e+01	0	31	104	0	60	67774
2026-01-28 22:07:15.11	41.92	8.16	-38.8	-49.3	3.5	3.03e+01	0	30	104	0	54	15880
2026-01-28 22:07:16.12	41.75	8.20	-38.1	-48.5	3.5	3.03e+01	0	30	104	0	52	16264
2026-01-28 22:07:17.13	41.58	8.24	-37.6	-47.9	3.6	3.03e+01	0	30	104	0	50	17086
2026-01-28 22:07:18.14	41.41	8.29	-41.3	-52.1	3.5	3.03e+01	0	31	104	0	56	19482
2026-01-28 22:07:19.15	41.24	8.33	-37.0	-47.4	3.5	3.03e+01	0	30	104	0	48	17951
2026-01-28 22:07:20.16	41.07	8.37	-48.0	-66.2	3.5	3.03e+01	0	31	104	0	60	78332
2026-01-28 22:07:21.17	40.90	8.41	-43.8	-55.7	3.6	3.03e+01	0	30	104	0	60	23397
2026-01-28 22:07:22.18	40.73	8.45	-47.0	-63.3	3.5	3.03e+01	0	30	104	0	60	56048
2026-01-28 22:07:23.19	40.56	8.49	-36.4	-46.6	3.5	3.03e+01	0	31	104	0	48	16491
2026-01-28 22:07:24.20	40.38	8.54	-36.4	-46.7	3.5	3.03e+01	0	31	104	0	48	16595
2026-01-28 22:07:25.21	40.21	8.58	-36.4	-46.7	3.5	3.03e+01	0	31	104	0	48	16646
2026-01-28 22:07:26.22	40.03	8.62	-44.3	-56.4	3.5	3.03e+01	0	31	104	0	60	25441
2026-01-28 22:07:27.23	39.86	8.66	-36.7	-47.0	3.5	3.03e+01	0	31	104	0	48	17253
2026-01-28 22:07:28.24	39.68	8.70	-47.7	-65.9	3.5	3.03e+01	0	31	104	0	60	76150
2026-01-28 22:07:29.24	39.51	8.74	-44.2	-55.9	3.6	3.03e+01	0	31	104	0	60	23934
2026-01-28 22:07:30.26	39.33	8.78	-47.5	-63.6	3.5	3.03e+01	0	30	104	0	60	58003
2026-01-28 22:07:31.27	39.15	8.82	-38.8	-49.3	3.5	3.03e+01	0	30	104	0	52	17807
2026-01-28 22:07:32.28	38.98	8.86	-38.0	-48.4	3.5	3.03e+01	0	31	104	0	52	16113
2026-01-28 22:07:33.29	38.80	8.90	-37.5	-47.9	3.5	3.03e+01	0	31	104	0	50	17016
2026-01-28 22:07:34.29	38.62	8.94	-44.0	-55.9	3.5	3.03e+01	0	31	104	0	60	24010
2026-01-28 22:07:35.30	38.44	8.98	-36.5	-46.8	3.5	3.03e+01	0	31	104	0	48	16796
2026-01-28 22:07:36.31	38.26	9.02	-47.4	-63.7	3.5	3.03e+01	0	31	104	0	60	59110
2026-01-28 22:07:37.32	38.08	9.05	-43.1	-54.5	3.7	3.03e+01	0	31	104	0	60	20432
2026-01-28 22:07:38.33	37.90	9.09	-46.6	-63.4	3.5	3.03e+01	0	31	104	0	60	57202
2026-01-28 22:07:39.34	37.72	9.13	-38.7	-49.2	3.5	3.03e+01	0	31	104	0	52	17541
2026-01-28 22:07:40.35	37.54	9.17	-37.8	-48.2	3.5	3.03e+01	0	31	104	0	50	17644
2026-01-28 22:07:41.36	37.36	9.21	-37.0	-47.4	3.5	3.03e+01	0	31	104	0	50	16035
2026-01-28 22:07:42.37	37.17	9.25	-39.6	-50.1	3.5	3.03e+01	0	31	104	0	56	15418
2026-01-28 22:07:43.38	36.99	9.28	-36.4	-46.7	3.5	3.03e+01	0	31	104	0	46	18630
2026-01-28 22:07:44.39	36.80	9.32	-46.9	-61.6	3.5	3.03e+01	0	31	104	0	60	46135
2026-01-28 22:07:45.40	36.62	9.36	-38.8	-49.3	3.5	3.03e+01	0	31	104	0	58	12607
2026-01-28 22:07:46.41	36.44	9.40	-46.1	-60.3	3.6	3.03e+01	0	31	104	0	60	39902
2026-01-28 22:07:47.42	36.25	9.43	-38.3	-48.7	3.5	3.03e+01	0	30	104	0	50	18663
2026-01-28 22:07:48.43	36.06	9.47	-38.4	-48.9	3.5	3.03e+01	0	31	104	0	50	19072
2026-01-28 22:07:49.44	35.88	9.51	-36.9	-47.2	3.5	3.03e+01	0	31	104	0	50	15712
2026-01-28 22:07:50.45	35.69	9.54	-37.0	-47.4	3.5	3.03e+01	0	31	104	0	50	15956
2026-01-28 22:07:51.46	35.50	9.58	-36.4	-46.6	3.5	3.03e+01	0	31	104	0	48	16456
2026-01-28 22:07:52.46	35.32	9.61	-47.1	-61.6	3.5	3.03e+01	0	31	104	0	60	46227
2026-01-28 22:07:53.47	35.13	9.65	-38.5	-49.0	3.5	3.03e+01	0	30	104	0	58	12128
2026-01-28 22:07:54.48	34.94	9.69	-45.8	-60.3	3.5	3.03e+01	0	31	104	0	60	39693
2026-01-28 22:07:55.49	34.75	9.72	-38.6	-49.2	3.5	3.03e+01	0	31	104	0	52	17510
2026-01-28 22:07:56.50	34.56	9.76	-39.1	-49.7	3.5	3.03e+01	0	31	104	0	52	18719
2026-01-28 22:07:57.51	34.37	9.79	-39.5	-50.0	3.6	3.03e+01	0	31	104	0	52	19351
2026-01-28 22:07:58.52	34.18	9.83	-42.6	-53.8	3.5	3.03e+01	0	31	104	0	56	23629
2026-01-28 22:07:59.53	33.99	9.86	-40.0	-50.6	3.5	3.03e+01	0	31	104	0	60	13002
2026-01-28 22:08:00.54	33.79	9.89	-48.0	-64.6	3.5	3.03e+01	0	30	104	0	60	65669
2026-01-28 22:08:01.55	33.60	9.93	-43.5	-55.0	3.6	3.03e+01	0	31	104	0	60	21649
2026-01-28 22:08:02.56	33.41	9.96	-38.5	-48.9	3.5	3.03e+01	0	31	104	0	52	17088
2026-01-28 22:08:03.57	33.22	9.99	-38.4	-48.8	3.5	3.03e+01	0	31	104	0	52	16858
2026-01-28 22:08:04.58	33.02	10.03	-37.7	-48.0	3.5	3.03e+01	0	31	104	0	50	17247
2026-01-28 22:08:05.59	32.83	10.06	-36.3	-46.6	3.5	3.03e+01	0	31	104	0	48	16343
2026-01-28 22:08:06.60	32.63	10.09	-36.3	-46.6	3.6	3.03e+01	0	31	104	0	48	16361
2026-01-28 22:08:07.60	32.44	10.12	-39.4	-49.9	3.5	3.03e+01	0	31	104	0	48	24125
2026-01-28 22:08:08.62	32.24	10.16	-45.2	-57.7	3.5	3.03e+01	0	31	104	0	60	29626
2026-01-28 22:08:09.62	32.05	10.19	-37.0	-47.4	3.5	3.03e+01	0	31	104	0	48	17968
2026-01-28 22:08:10.63	31.85	10.22	-44.0	-55.6	3.6	3.03e+01	0	31	104	0	60	23094
2026-01-28 22:08:11.64	31.65	10.25	-38.7	-49.3	3.5	3.03e+01	0	31	104	0	52	17707
2026-01-28 22:08:12.65	31.46	10.28	-37.3	-47.7	3.5	3.03e+01	0	31	104	0	50	16651
2026-01-28 22:08:13.66	31.26	10.31	-39.3	-49.9	3.5	3.03e+01	0	31	104	0	50	21369
2026-01-28 22:08:14.67	31.06	10.34	-36.0	-46.3	3.5	3.03e+01	0	31	104	0	48	15770
2026-01-28 22:08:15.68	30.86	10.37	-44.8	-57.0	3.7	3.03e+01	0	30	104	0	56	34227
2026-01-28 22:08:16.69	30.66	10.40	-42.9	-54.1	3.5	3.03e+01	0	31	104	0	60	19613
2026-01-28 22:08:17.70	30.46	10.43	-40.1	-50.8	3.8	3.03e+01	0	31	104	0	46	29815
2026-01-28 22:08:18.71	30.26	10.46	-39.9	-50.7	3.7	3.03e+01	0	31	104	0	60	13141
2026-01-28 22:08:19.72	30.06	10.49	-36.0	-46.2	3.5	3.03e+01	0	31	104	0	48	15740
2026-01-28 22:08:20.73	29.86	10.52	-36.0	-46.3	3.5	3.03e+01	0	31	104	0	48	15909
2026-01-28 22:08:21.74	29.66	10.55	-40.3	-50.9	3.5	3.03e+01	0	30	104	0	52	21484
2026-01-28 22:08:22.75	29.45	10.58	-36.0	-46.3	3.5	3.03e+01	0	31	104	0	46	17766
2026-01-28 22:08:23.75	29.25	10.61	-45.7	-58.9	3.5	3.03e+01	0	31	104	0	58	38017
2026-01-28 22:08:24.76	29.05	10.63	-44.4	-56.3	3.5	3.03e+01	0	31	104	0	60	25194
2026-01-28 22:08:25.77	28.85	10.66	-42.0	-53.1	3.5	3.03e+01	0	31	104	0	50	30832
2026-01-28 22:08:26.78	28.64	10.69	-41.6	-52.6	3.5	3.03e+01	0	31	104	0	60	16409
2026-01-28 22:08:27.79	28.44	10.71	-38.7	-49.2	3.5	3.03e+01	0	31	104	0	52	17619
2026-01-28 22:08:28.80	28.23	10.74	-37.5	-47.9	3.5	3.03e+01	0	31	104	0	50	16920
2026-01-28 22:08:29.81	28.03	10.77	-40.1	-50.7	3.5	3.03e+01	0	31	104	0	50	23362
2026-01-28 22:08:30.82	27.82	10.79	-36.1	-46.4	3.5	3.03e+01	0	31	104	0	46	17904
2026-01-28 22:08:31.83	27.62	10.82	-47.1	-65.5	3.5	3.03e+01	0	31	104	0	60	72592
2026-01-28 22:08:32.84	27.41	10.84	-44.3	-56.1	3.5	3.03e+01	0	31	104	0	60	24550
2026-01-28 22:08:33.85	27.21	10.87	-43.1	-54.5	3.4	3.03e+01	0	31	104	0	52	32196
2026-01-28 22:08:34.86	27.00	10.89	-40.9	-51.9	3.5	3.03e+01	0	31	104	0	60	15072
2026-01-28 22:08:35.87	26.79	10.92	-38.8	-49.4	3.5	3.03e+01	0	31	104	0	52	18073
2026-01-28 22:08:36.88	26.58	10.94	-37.6	-48.0	3.5	3.03e+01	0	31	104	0	50	17094
2026-01-28 22:08:37.89	26.38	10.97	-41.3	-52.1	3.5	3.03e+01	0	31	104	0	54	21970
2026-01-28 22:08:38.90	26.17	10.99	-36.2	-46.5	3.5	3.03e+01	0	31	104	0	46	18147
2026-01-28 22:08:39.91	25.96	11.01	-47.7	-66.2	3.5	3.03e+01	0	31	104	0	60	78379
2026-01-28 22:08:40.92	25.75	11.03	-43.4	-54.6	3.5	3.03e+01	0	31	104	0	60	20693
2026-01-28 22:08:41.93	25.54	11.06	-47.4	-61.9	3.5	3.03e+01	0	31	104	0	60	47730
2026-01-28 22:08:42.93	25.33	11.08	-36.3	-46.6	3.6	3.03e+01	0	31	104	0	50	14689
2026-01-28 22:08:43.94	25.12	11.10	-36.1	-46.4	3.5	3.03e+01	0	31	104	0	46	18028
2026-01-28 22:08:44.95	24.91	11.12	-35.9	-46.2	3.5	3.03e+01	0	31	104	0	46	17611
2026-01-28 22:08:45.96	24.70	11.14	-43.5	-55.5	3.5	3.03e+01	0	31	104	0	58	25713
2026-01-28 22:08:46.97	24.49	11.16	-36.2	-46.5	3.5	3.03e+01	0	31	104	0	46	18226
2026-01-28 22:08:47.98	24.28	11.18	-47.9	-66.4	3.5	3.03e+01	0	31	104	0	60	80809
2026-01-28 22:08:48.99	24.07	11.20	-45.0	-56.9	3.5	3.03e+01	0	31	104	0	60	26786
2026-01-28 22:08:50.00	23.85	11.22	-48.0	-64.5	3.5	3.03e+01	0	31	104	0	60	64932
2026-01-28 22:08:51.01	23.64	11.24	-40.0	-50.6	3.5	3.03e+01	0	31	104	0	56	16465
2026-01-28 22:08:52.02	23.43	11.26	-38.8	-49.3	3.5	3.03e+01	0	31	104	0	52	17803
2026-01-28 22:08:53.03	23.22	11.28	-38.8	-49.3	3.5	3.03e+01	0	30	104	0	52	17720
2026-01-28 22:08:54.04	23.00	11.30	-40.4	-51.0	3.5	3.03e+01	0	31	104	0	54	19254
2026-01-28 22:08:55.04	22.79	11.32	-36.6	-47.0	3.5	3.03e+01	0	31	104	0	46	19213
2026-01-28 22:08:56.05	22.58	11.33	-47.9	-66.3	3.5	3.03e+01	0	31	104	0	60	79382
2026-01-28 22:08:57.06	22.36	11.35	-45.0	-56.9	3.5	3.03e+01	0	31	104	0	60	26902
2026-01-28 22:08:58.07	22.15	11.37	-47.4	-66.5	3.5	3.03e+01	0	31	104	0	60	80946
2026-01-28 22:08:59.08	21.93	11.39	-39.4	-49.9	3.5	3.03e+01	0	31	104	0	56	15145
2026-01-28 22:09:00.09	21.72	11.40	-37.8	-48.2	3.5	3.03e+01	0	31	104	0	50	17573
2026-01-28 22:09:01.10	21.50	11.42	-36.9	-47.2	3.5	3.03e+01	0	31	104	0	48	17653
2026-01-28 22:09:02.11	21.29	11.43	-42.2	-53.2	3.5	3.03e+01	0	31	104	0	58	19758
2026-01-28 22:09:03.12	21.07	11.45	-36.7	-47.0	3.5	3.03e+01	0	31	104	0	46	19324
2026-01-28 22:09:04.13	20.86	11.46	-48.6	-66.4	3.5	3.03e+01	0	31	104	0	60	80381
2026-01-28 22:09:05.14	20.64	11.48	-44.8	-56.7	3.5	3.03e+01	0	31	104	0	60	26189
2026-01-28 22:09:06.15	20.42	11.49	-47.9	-66.5	3.5	3.03e+01	0	31	104	0	60	81122
2026-01-28 22:09:07.16	20.21	11.50	-37.0	-47.3	3.5	3.03e+01	0	31	104	0	50	15792
2026-01-28 22:09:08.17	19.99	11.52	-36.8	-47.1	3.5	3.03e+01	0	30	104	0	48	17388
2026-01-28 22:09:09.18	19.77	11.53	-36.3	-46.6	3.5	3.03e+01	0	31	104	0	48	16334
2026-01-28 22:09:10.19	19.56	11.54	-39.4	-49.9	3.6	3.03e+01	0	31	104	0	54	16912
2026-01-28 22:09:11.20	19.34	11.56	-36.5	-46.8	3.5	3.03e+01	0	31	104	0	46	18742
2026-01-28 22:09:12.21	19.12	11.57	-48.4	-66.4	3.5	3.03e+01	0	31	104	0	60	80552
2026-01-28 22:09:13.22	18.90	11.58	-41.9	-52.6	3.5	3.03e+01	0	31	104	0	60	16467
2026-01-28 22:09:14.23	18.69	11.59	-48.3	-65.9	3.4	3.03e+01	0	31	104	0	60	76313
2026-01-28 22:09:15.23	18.47	11.60	-38.9	-49.4	3.5	3.03e+01	0	31	104	0	52	17960
2026-01-28 22:09:16.24	18.25	11.61	-37.2	-47.5	3.5	3.03e+01	0	31	104	0	50	16254
2026-01-28 22:09:17.26	18.03	11.62	-36.2	-46.5	3.5	3.03e+01	0	31	104	0	48	16187
2026-01-28 22:09:18.26	17.81	11.63	-39.0	-49.5	3.5	3.03e+01	0	31	104	0	54	16168
2026-01-28 22:09:19.27	17.59	11.64	-36.6	-46.9	3.6	3.03e+01	0	31	104	0	48	17089
2026-01-28 22:09:20.28	17.38	11.65	-48.5	-66.1	3.5	3.03e+01	0	31	104	0	60	78041
2026-01-28 22:09:21.29	17.16	11.66	-41.5	-52.1	3.5	3.03e+01	0	31	104	0	60	15578
2026-01-28 22:09:22.30	16.94	11.67	-48.4	-66.4	3.5	3.03e+01	0	31	104	0	60	80808
2026-01-28 22:09:23.31	16.72	11.67	-39.8	-50.4	3.5	3.03e+01	0	31	104	0	54	17919
2026-01-28 22:09:24.32	16.50	11.68	-40.1	-50.7	3.5	3.03e+01	0	31	104	0	54	18628
2026-01-28 22:09:25.33	16.28	11.69	-39.5	-50.0	3.5	3.03e+01	0	31	104	0	52	19293
2026-01-28 22:09:26.34	16.06	11.69	-46.0	-58.6	3.5	3.03e+01	0	31	104	0	60	32745
2026-01-28 22:09:27.35	15.84	11.70	-36.7	-46.9	3.5	3.03e+01	0	31	104	0	48	17041
2026-01-28 22:09:28.36	15.62	11.71	-48.5	-65.9	3.5	3.03e+01	0	31	104	0	60	75693
2026-01-28 22:09:29.37	15.40	11.71	-38.2	-48.5	3.6	3.03e+01	0	31	104	0	56	12920
2026-01-28 22:09:30.38	15.18	11.72	-48.1	-64.3	3.5	3.03e+01	0	31	104	0	60	63042
2026-01-28 22:09:31.39	14.96	11.72	-37.5	-47.8	3.5	3.03e+01	0	31	104	0	50	16876
2026-01-28 22:09:32.40	14.74	11.72	-36.8	-47.1	3.5	3.03e+01	0	31	104	0	48	17422
2026-01-28 22:09:33.41	14.52	11.73	-37.0	-47.3	3.5	3.03e+01	0	31	104	0	48	17863
2026-01-28 22:09:34.42	14.30	11.73	-39.4	-49.8	3.5	3.03e+01	0	31	104	0	56	14990
2026-01-28 22:09:35.43	14.08	11.73	-36.8	-47.0	3.5	3.03e+01	0	31	104	0	48	17209
2026-01-28 22:09:36.44	13.86	11.74	-46.7	-60.3	3.5	3.03e+01	0	31	104	0	60	39660
2026-01-28 22:09:37.45	13.64	11.74	-36.8	-47.2	3.5	3.03e+01	0	31	104	0	52	13903
2026-01-28 22:09:38.46	13.42	11.74	-47.8	-62.8	3.5	3.03e+01	0	31	104	0	60	53263
2026-01-28 22:09:39.47	13.20	11.74	-36.3	-46.6	3.6	3.03e+01	0	31	104	0	48	16362
2026-01-28 22:09:40.48	12.98	11.74	-35.7	-46.0	3.5	3.03e+01	0	31	104	0	46	17183
2026-01-28 22:09:41.49	12.76	11.74	-36.1	-46.3	3.5	3.03e+01	0	31	104	0	46	17768
2026-01-28 22:09:42.50	12.53	11.75	-38.0	-48.3	3.6	3.03e+01	0	31	104	0	52	15788
2026-01-28 22:09:43.51	12.31	11.75	-36.8	-47.1	3.5	3.03e+01	0	31	104	0	48	17401
2026-01-28 22:09:44.52	12.09	11.74	-44.8	-56.7	3.5	3.03e+01	0	31	104	0	60	26193
2026-01-28 22:09:45.53	11.87	11.74	-36.9	-47.1	3.5	3.03e+01	0	31	104	0	48	17477
2026-01-28 22:09:46.54	11.65	11.74	-47.5	-62.3	3.5	3.03e+01	0	31	104	0	60	50121
2026-01-28 22:09:47.54	11.43	11.74	-40.7	-51.4	3.5	3.03e+01	0	31	104	0	56	17919
2026-01-28 22:09:48.55	11.21	11.74	-40.3	-50.9	3.5	3.03e+01	0	31	104	0	56	17066
2026-01-28 22:09:49.57	10.99	11.74	-38.1	-48.5	3.4	3.03e+01	0	31	104	0	52	16210
2026-01-28 22:09:50.58	10.77	11.73	-36.5	-46.6	3.6	3.03e+01	0	31	104	0	48	16466
2026-01-28 22:09:51.58	10.55	11.73	-39.8	-50.2	3.5	3.03e+01	0	31	104	0	48	24919
2026-01-28 22:09:52.59	10.33	11.73	-43.5	-46.4	5.1	3.03e+01	0	31	104	0	60	8048
2026-01-28 22:09:53.60	10.11	11.72	-36.9	-38.5	23.1	3.03e+01	60	31	104	0	46	7243
2026-01-28 22:09:54.61	9.89	11.72	-44.6	-48.0	20.6	3.03e+01	58	31	104	0	60	9718
2026-01-28 22:09:55.62	9.67	11.71	-36.8	-38.1	27.5	3.03e+01	45	30	0	1048576	48	6165
2026-01-28 22:09:56.64	9.45	11.71	-36.3	-37.5	28.0	3.03e+01	57	31	0	3145728	48	5788
2026-01-28 22:09:57.65	9.23	11.70	-36.3	-37.6	27.9	3.03e+01	60	31	0	4718592	48	5792
2026-01-28 22:09:58.65	9.01	11.70	-36.1	-37.3	28.1	3.03e+01	47	31	0	6815744	46	6332
2026-01-28 22:09:59.67	8.79	11.69	-36.1	-37.3	28.1	3.03e+01	59	30	0	8912896	46	6330
2026-01-28 22:10:00.67	8.57	11.68	-36.1	-37.4	28.2	3.03e+01	58	31	0	10485760	46	6353
2026-01-28 22:10:01.68	8.35	11.68	-36.3	-37.6	28.0	3.03e+01	61	31	0	12582912	46	6504
2026-01-28 22:10:02.69	8.13	11.67	-35.9	-37.2	28.3	3.03e+01	59	31	0	14155776	46	6230
2026-01-28 22:10:03.70	7.91	11.66	-35.9	-37.2	28.3	3.03e+01	56	31	0	16252928	46	6220
2026-01-28 22:10:04.71	7.70	11.65	-35.5	-36.7	28.7	3.03e+01	61	31	0	18350080	46	5915
2026-01-28 22:10:05.72	7.48	11.64	-35.5	-36.7	28.8	3.03e+01	57	31	0	19922944	46	5894
2026-01-28 22:10:06.73	7.26	11.64	-35.4	-36.7	28.8	3.03e+01	45	31	0	22020096	46	5865
2026-01-28 22:10:07.74	7.04	11.63	-35.6	-36.9	28.6	3.03e+01	61	31	0	23592960	46	6015
2026-01-28 22:10:08.75	6.82	11.62	-35.5	-36.8	28.6	3.03e+01	60	31	0	25690112	46	5959
2026-01-28 22:10:09.76	6.60	11.61	-35.5	-36.7	28.7	3.03e+01	59	31	0	27787264	46	5884
2026-01-28 22:10:10.77	6.38	11.60	-35.4	-36.7	28.7	3.03e+01	60	31	0	29360128	46	5876
2026-01-28 22:10:11.78	6.17	11.59	-35.4	-36.7	28.7	3.03e+01	45	31	0	31457280	46	5883
2026-01-28 22:10:12.79	5.95	11.57	-35.5	-36.7	28.7	3.03e+01	58	31	0	33030144	46	5896
2026-01-28 22:10:13.80	5.73	11.56	-35.5	-36.8	28.6	3.03e+01	59	31	0	35127296	46	5946
2026-01-28 22:10:14.81	5.51	11.55	-35.6	-36.9	28.6	3.03e+01	44	30	0	37224448	46	6001
2026-01-28 22:10:15.82	5.30	11.54	-35.6	-36.9	28.6	3.03e+01	60	31	0	38797312	46	6012
2026-01-28 22:10:16.83	5.08	11.53	-35.8	-37.0	28.5	3.03e+01	60	31	0	40894464	46	6109
2026-01-28 22:10:17.84	4.86	11.51	-35.4	-36.6	28.8	3.03e+01	59	31	0	42467328	46	5858
2026-01-28 22:10:18.85	4.65	11.50	-35.5	-36.7	28.7	3.03e+01	60	31	0	44564480	46	5901
2026-01-28 22:10:19.85	4.43	11.48	-35.5	-36.8	28.7	3.03e+01	53	31	0	46661632	46	5940
2026-01-28 22:10:20.87	4.21	11.47	-35.6	-36.9	28.6	3.03e+01	58	31	0	48234496	46	6021
2026-01-28 22:10:21.87	4.00	11.46	-35.6	-36.8	28.6	3.03e+01	57	31	0	50331648	46	5971
2026-01-28 22:10:22.89	3.78	11.44	-35.6	-36.8	28.6	3.03e+01	57	31	0	52428800	46	5989
2026-01-28 22:10:23.89	3.57	11.43	-35.4	-36.7	28.8	3.03e+01	60	31	0	54001664	46	5865
2026-01-28 22:10:24.91	3.35	11.41	-35.6	-36.8	28.7	3.03e+01	44	31	0	56098816	46	5976
2026-01-28 22:10:25.91	3.14	11.39	-35.5	-36.8	28.7	3.03e+01	57	31	0	57671680	46	5946
2026-01-28 22:10:26.92	2.92	11.38	-35.6	-36.9	28.4	3.03e+01	59	31	0	59768832	46	6028
2026-01-28 22:10:27.93	2.71	11.36	-35.6	-36.8	28.6	3.03e+01	47	30	0	61865984	46	5987
2026-01-28 22:10:28.94	2.49	11.34	-35.8	-37.0	28.4	3.03e+01	58	31	0	63438848	46	6125
2026-01-28 22:10:29.95	2.28	11.33	-35.5	-36.7	28.8	3.03e+01	56	30	0	65536000	46	5910
2026-01-28 22:10:30.96	2.07	11.31	-35.7	-37.0	28.5	3.03e+01	60	31	0	67108864	46	6097
2026-01-28 22:10:31.97	1.85	11.29	-35.6	-36.9	28.6	3.03e+01	59	30	0	69206016	46	6019
2026-01-28 22:10:32.98	1.64	11.27	-35.6	-36.9	28.6	3.03e+01	58	31	0	71303168	46	6027
2026-01-28 22:10:33.99	1.43	11.25	-35.5	-36.8	28.7	3.03e+01	56	31	0	72876032	46	5943
2026-01-28 22:10:35.00	1.22	11.23	-35.7	-36.9	28.6	3.03e+01	60	31	0	74973184	46	6037
2026-01-28 22:10:36.01	1.00	11.21	-35.4	-36.6	28.8	3.03e+01	52	31	0	77070336	46	5854
2026-01-28 22:10:37.02	0.79	11.19	-35.8	-37.0	28.5	3.03e+01	56	30	0	78643200	46	6096
2026-01-28 22:10:38.03	0.58	11.17	-36.2	-37.4	28.2	3.03e+01	62	30	0	80740352	46	6412
2026-01-28 22:10:39.04	0.37	11.15	-36.0	-37.2	28.3	3.03e+01	58	31	0	82313216	46	6250
2026-01-28 22:10:40.05	0.16	11.13	-35.9	-37.1	28.4	3.03e+01	61	31	0	84410368	46	6176
2026-01-28 22:10:41.06	359.95	11.11	-35.6	-36.8	28.6	3.03e+01	52	30	0	86507520	46	5958
2026-01-28 22:10:42.07	359.74	11.09	-35.7	-36.9	28.6	3.03e+01	58	31	0	88080384	46	6064
2026-01-28 22:10:43.08	359.53	11.07	-35.6	-36.8	28.7	3.03e+01	57	31	0	90177536	46	5955
2026-01-28 22:10:44.09	359.32	11.05	-35.6	-36.8	28.7	3.03e+01	46	31	0	91750400	46	5962
2026-01-28 22:10:45.10	359.11	11.02	-35.5	-36.8	28.7	3.03e+01	59	31	0	93847552	46	5953
2026-01-28 22:10:46.11	358.90	11.00	-35.8	-37.0	28.5	3.03e+01	57	31	0	95944704	46	6117
2026-01-28 22:10:47.12	358.69	10.98	-36.0	-37.3	28.3	3.03e+01	59	31	0	97517568	46	6307
2026-01-28 22:10:48.13	358.48	10.95	-35.9	-37.2	28.4	3.03e+01	58	31	0	99614720	46	6212
2026-01-28 22:10:49.14	358.28	10.93	-35.6	-36.9	28.6	3.03e+01	58	31	0	101187584	46	6026
2026-01-28 22:10:50.15	358.07	10.91	-35.7	-36.9	28.6	3.03e+01	61	31	0	103284736	46	6035
2026-01-28 22:10:51.16	357.86	10.88	-35.7	-36.9	28.6	3.03e+01	61	31	0	105381888	46	6022
2026-01-28 22:10:52.17	357.65	10.86	-35.7	-37.0	28.5	3.03e+01	45	31	0	106954752	46	6093
2026-01-28 22:10:53.18	357.45	10.83	-35.8	-37.0	28.4	3.03e+01	57	30	0	109051904	46	6129
2026-01-28 22:10:54.19	357.24	10.81	-35.6	-36.9	28.5	3.03e+01	60	31	0	110624768	46	6029
2026-01-28 22:10:55.20	357.04	10.78	-35.7	-37.0	28.6	3.03e+01	56	31	0	112721920	46	6094
2026-01-28 22:10:56.21	356.83	10.75	-35.8	-37.0	28.4	3.03e+01	57	31	0	114819072	46	6134
2026-01-28 22:10:57.22	356.63	10.73	-35.8	-37.1	28.4	3.03e+01	47	31	0	116391936	46	6179
2026-01-28 22:10:58.23	356.42	10.70	-35.8	-37.1	28.4	3.03e+01	57	31	0	118489088	46	6135
2026-01-28 22:10:59.24	356.22	10.68	-35.9	-37.2	28.4	3.03e+01	60	31	0	120586240	46	6206
2026-01-28 22:11:00.25	356.02	10.65	-36.0	-37.3	28.2	3.03e+01	61	30	0	122159104	46	6315
2026-01-28 22:11:01.25	355.82	10.62	-35.9	-37.2	28.3	3.03e+01	58	31	0	124256256	46	6237
2026-01-28 22:11:02.27	355.61	10.59	-35.4	-36.6	28.8	3.03e+01	48	31	0	125829120	46	5815
2026-01-28 22:11:03.27	355.41	10.56	-35.7	-36.9	28.4	3.03e+01	60	31	0	127926272	46	6040
2026-01-28 22:11:04.28	355.21	10.54	-35.8	-37.1	28.3	3.03e+01	59	30	0	130023424	46	6153
2026-01-28 22:11:05.29	355.01	10.51	-35.9	-37.2	28.3	3.03e+01	48	31	0	131596288	46	6257
2026-01-28 22:11:06.30	354.81	10.48	-35.9	-37.1	28.3	3.03e+01	54	30	0	133693440	46	6182
2026-01-28 22:11:07.31	354.61	10.45	-36.0	-37.2	28.3	3.03e+01	60	30	0	135266304	46	6263
2026-01-28 22:11:08.32	354.41	10.42	-35.8	-37.1	28.4	3.03e+01	61	30	0	137363456	46	6170
2026-01-28 22:11:09.33	354.21	10.39	-36.0	-37.3	28.2	3.03e+01	58	31	0	139460608	46	6283
2026-01-28 22:11:10.33	354.01	10.36	-35.8	-37.1	28.3	3.03e+01	51	31	0	141033472	46	6165
2026-01-28 22:11:11.34	353.81	10.33	-35.9	-37.1	28.3	3.03e+01	59	31	0	143130624	46	6203
2026-01-28 22:11:12.35	353.61	10.30	-35.9	-37.2	28.2	3.03e+01	57	31	0	144703488	46	6241
2026-01-28 22:11:13.36	353.42	10.27	-36.3	-37.6	27.9	3.03e+01	45	31	0	146800640	46	6549
2026-01-28 22:11:14.37	353.22	10.24	-35.8	-37.0	28.4	3.03e+01	58	30	0	148897792	46	6109
2026-01-28 22:11:15.38	353.02	10.21	-35.8	-37.1	28.3	3.03e+01	63	31	0	150470656	46	6168
2026-01-28 22:11:16.39	352.82	10.17	-35.9	-37.2	28.2	3.03e+01	57	30	0	152567808	46	6245
2026-01-28 22:11:17.40	352.63	10.14	-36.0	-37.3	28.2	3.03e+01	61	30	0	154140672	46	6313
2026-01-28 22:11:18.41	352.43	10.11	-36.1	-37.4	28.1	3.03e+01	58	30	0	156237824	46	6393
2026-01-28 22:11:19.42	352.24	10.08	-36.1	-37.3	28.1	3.03e+01	61	30	0	158334976	46	6341
2026-01-28 22:11:20.43	352.04	10.05	-36.0	-37.2	28.2	3.03e+01	60	30	0	159907840	46	6274
2026-01-28 22:11:21.44	351.85	10.01	-36.0	-37.2	28.2	3.03e+01	45	31	0	162004992	46	6252
2026-01-28 22:11:22.45	351.66	9.98	-35.9	-37.2	28.2	3.03e+01	60	30	0	164102144	46	6229
2026-01-28 22:11:23.45	351.47	9.95	-35.9	-37.2	28.2	3.03e+01	61	31	0	165675008	46	6240
2026-01-28 22:11:24.46	351.27	9.91	-36.3	-37.6	27.8	3.03e+01	60	30	0	167772160	46	6547
2026-01-28 22:11:25.47	351.08	9.88	-36.0	-37.2	28.1	3.03e+01	51	31	0	169345024	46	6266
2026-01-28 22:11:26.48	350.89	9.85	-36.3	-37.6	27.8	3.03e+01	52	30	0	171442176	46	6564
2026-01-28 22:11:27.49	350.70	9.81	-36.1	-37.3	28.1	3.03e+01	61	30	0	173539328	46	6332
2026-01-28 22:11:28.50	350.51	9.78	-36.4	-37.7	27.6	3.03e+01	53	30	0	175112192	46	6585
2026-01-28 22:11:29.51	350.32	9.74	-36.4	-37.7	27.6	3.03e+01	46	30	0	177209344	46	6638
2026-01-28 22:11:30.52	350.13	9.71	-36.7	-38.0	27.5	3.03e+01	59	30	0	178782208	46	6828
2026-01-28 22:11:31.53	349.94	9.67	-36.5	-37.8	27.7	3.03e+01	46	31	0	180879360	46	6690
2026-01-28 22:11:32.54	349.75	9.64	-37.2	-38.5	27.2	3.03e+01	61	30	0	182976512	48	6489
2026-01-28 22:11:33.55	349.56	9.60	-36.8	-38.1	27.3	3.03e+01	57	31	0	184549376	48	6153
2026-01-28 22:11:34.56	349.38	9.56	-37.1	-38.5	27.1	3.03e+01	50	30	0	186646528	48	6443
2026-01-28 22:11:35.57	349.19	9.53	-37.2	-38.6	27.2	3.03e+01	60	31	0	188743680	48	6524
2026-01-28 22:11:36.58	349.00	9.49	-37.2	-38.6	26.8	3.03e+01	58	30	0	190316544	48	6527
2026-01-28 22:11:37.59	348.82	9.45	-37.3	-38.7	27.0	3.03e+01	62	31	0	192413696	48	6597
2026-01-28 22:11:38.59	348.63	9.42	-37.3	-38.7	26.8	3.03e+01	60	30	0	193986560	48	6628
2026-01-28 22:11:39.60	348.45	9.38	-37.5	-38.9	26.6	3.03e+01	46	30	0	196083712	48	6774
2026-01-28 22:11:40.61	348.26	9.34	-37.6	-38.9	26.6	3.03e+01	60	31	0	198180864	50	6047
2026-01-28 22:11:41.62	348.08	9.31	-37.5	-38.8	26.3	3.03e+01	57	31	0	199753728	50	5986
2026-01-28 22:11:42.63	347.90	9.27	-37.1	-38.4	25.0	3.03e+01	47	31	0	201850880	50	5693
2026-01-28 22:11:43.64	347.71	9.23	-37.0	-38.4	27.0	3.03e+01	61	31	0	203423744	48	6372
2026-01-28 22:11:44.65	347.53	9.19	-36.6	-37.9	27.5	3.03e+01	61	30	0	205520896	48	6009
2026-01-28 22:11:45.65	347.35	9.16	-36.8	-38.1	27.4	3.03e+01	60	30	0	207093760	48	6190
2026-01-28 22:11:46.66	347.17	9.12	-36.4	-37.7	27.8	3.03e+01	57	31	0	209190912	48	5874
2026-01-28 22:11:47.67	346.99	9.08	-37.0	-38.3	27.1	3.03e+01	58	31	0	211288064	48	6326
2026-01-28 22:11:48.68	346.81	9.04	-36.7	-38.0	27.5	3.03e+01	61	31	0	212860928	48	6070
2026-01-28 22:11:49.69	346.63	9.00	-36.8	-38.1	27.4	3.03e+01	59	31	0	214958080	48	6204
2026-01-28 22:11:50.70	346.45	8.96	-36.4	-37.7	27.7	3.03e+01	46	31	0	217055232	48	5873
2026-01-28 22:11:51.71	346.27	8.92	-36.7	-38.0	27.4	3.03e+01	56	31	0	218628096	48	6111
2026-01-28 22:11:52.71	346.09	8.88	-36.3	-37.6	27.9	3.03e+01	59	31	0	220725248	48	5800
2026-01-28 22:11:53.72	345.92	8.84	-36.6	-38.0	27.5	3.03e+01	60	31	0	222298112	48	6081
2026-01-28 22:11:54.72	345.74	8.80	-36.2	-37.5	27.9	3.03e+01	60	30	0	224395264	48	5761
2026-01-28 22:11:55.73	345.56	8.76	-36.8	-38.1	27.4	3.03e+01	57	31	0	226492416	48	6166
2026-01-28 22:11:56.74	345.39	8.72	-36.5	-37.7	27.7	3.03e+01	60	31	0	228065280	48	5924
2026-01-28 22:11:57.75	345.21	8.68	-37.0	-38.3	27.3	3.03e+01	58	30	0	230162432	48	6319
2026-01-28 22:11:58.76	345.04	8.64	-36.8	-38.1	27.3	3.03e+01	45	31	0	232259584	48	6159
2026-01-28 22:11:59.77	344.86	8.60	-37.2	-38.6	27.1	3.03e+01	61	31	0	233832448	48	6519
2026-01-28 22:12:00.78	344.69	8.56	-36.8	-38.1	27.3	3.03e+01	62	31	0	235929600	48	6204
2026-01-28 22:12:01.79	344.52	8.52	-36.7	-38.0	27.2	3.03e+01	58	31	0	237502464	48	6133
2026-01-28 22:12:02.80	344.34	8.48	-37.0	-38.3	27.2	3.03e+01	59	30	0	239599616	48	6338
2026-01-28 22:12:03.81	344.17	8.44	-36.9	-38.2	27.2	3.03e+01	46	31	0	241172480	48	6232
2026-01-28 22:12:04.82	344.00	8.40	-36.4	-37.7	27.7	3.03e+01	60	31	0	243269632	48	5875
2026-01-28 22:12:05.82	343.83	8.35	-36.8	-38.1	27.4	3.03e+01	57	31	0	245366784	48	6157
2026-01-28 22:12:06.84	343.66	8.31	-36.8	-38.2	27.2	3.03e+01	45	31	0	246939648	48	6210
2026-01-28 22:12:07.85	343.49	8.27	-36.6	-37.9	27.5	3.03e+01	61	31	0	249036800	48	6050
2026-01-28 22:12:08.86	343.32	8.23	-37.0	-38.4	27.1	3.03e+01	58	31	0	250609664	48	6356
2026-01-28 22:12:09.86	343.15	8.19	-36.6	-37.9	27.5	3.03e+01	55	31	0	252706816	48	6062
2026-01-28 22:12:10.87	342.98	8.14	-37.3	-38.7	26.9	3.03e+01	60	31	0	254803968	48	6583
2026-01-28 22:12:11.88	342.81	8.10	-36.9	-38.2	27.3	3.03e+01	58	31	0	256376832	48	6244
2026-01-28 22:12:12.89	342.65	8.06	-37.2	-38.6	26.8	3.03e+01	59	31	0	258473984	48	6529
2026-01-28 22:12:13.90	342.48	8.02	-36.9	-38.3	27.1	3.03e+01	58	31	0	260571136	48	6282
2026-01-28 22:12:14.91	342.31	7.97	-37.5	-38.9	26.5	3.03e+01	59	31	0	262144000	48	6797
2026-01-28 22:12:15.92	342.15	7.93	-37.3	-38.6	26.8	3.03e+01	58	31	0	264241152	48	6568
2026-01-28 22:12:16.93	341.98	7.89	-37.8	-39.3	26.1	3.03e+01	47	31	0	265814016	48	7073
2026-01-28 22:12:17.94	341.82	7.84	-37.1	-38.4	26.9	3.03e+01	58	31	0	267911168	48	6415
2026-01-28 22:12:18.95	341.65	7.80	-37.6	-39.0	26.6	3.03e+01	59	31	0	270008320	48	6837
2026-01-28 22:12:19.96	341.49	7.76	-37.1	-38.4	27.0	3.03e+01	45	31	0	271581184	48	6421
2026-01-28 22:12:20.97	341.33	7.71	-37.5	-38.9	26.5	3.03e+01	59	31	0	273678336	48	6754
2026-01-28 22:12:21.97	341.17	7.67	-37.3	-38.6	26.8	3.03e+01	61	31	0	275251200	48	6546
2026-01-28 22:12:22.98	341.00	7.63	-37.3	-38.6	26.7	3.03e+01	57	31	0	277348352	48	6571
2026-01-28 22:12:24.00	340.84	7.58	-37.6	-39.0	26.6	3.03e+01	59	31	0	279445504	48	6826
2026-01-28 22:12:25.01	340.68	7.54	-38.0	-39.5	26.1	3.03e+01	45	31	0	281018368	48	7219
2026-01-28 22:12:26.01	340.52	7.49	-38.2	-39.7	25.9	3.03e+01	55	31	0	283115520	50	6594
2026-01-28 22:12:27.02	340.36	7.45	-38.6	-40.1	25.4	3.03e+01	58	31	0	285212672	50	6948
2026-01-28 22:12:28.03	340.20	7.40	-37.8	-39.2	26.3	3.03e+01	51	31	0	286785536	50	6263
2026-01-28 22:12:29.04	340.04	7.36	-37.6	-39.0	26.5	3.03e+01	56	31	0	288882688	50	6075
2026-01-28 22:12:30.05	339.88	7.31	-37.2	-38.6	26.9	3.03e+01	61	31	0	290455552	50	5793
2026-01-28 22:12:31.06	339.73	7.27	-37.5	-38.9	26.6	3.03e+01	60	31	0	292552704	50	6008
2026-01-28 22:12:32.07	339.57	7.22	-36.9	-38.2	27.2	3.03e+01	62	31	0	294649856	50	5562
2026-01-28 22:12:33.08	339.41	7.18	-37.8	-39.2	26.2	3.03e+01	56	31	0	296222720	48	7034
2026-01-28 22:12:34.09	339.26	7.13	-37.2	-38.5	26.9	3.03e+01	60	31	0	298319872	48	6460
2026-01-28 22:12:35.10	339.10	7.09	-38.3	-39.8	25.6	3.03e+01	61	31	0	299892736	50	6700
2026-01-28 22:12:36.11	338.95	7.04	-37.2	-38.5	26.9	3.03e+01	52	31	0	301989888	50	5738
2026-01-28 22:12:37.12	338.79	7.00	-38.1	-39.6	25.7	3.03e+01	59	31	0	304087040	50	6560
2026-01-28 22:12:38.13	338.64	6.95	-37.1	-38.5	26.9	3.03e+01	60	31	0	305659904	50	5736
2026-01-28 22:12:39.14	338.48	6.91	-38.1	-39.6	25.7	3.03e+01	60	31	0	307757056	48	7331
2026-01-28 22:12:40.15	338.33	6.86	-37.7	-39.1	26.4	3.03e+01	59	31	0	309329920	50	6201
2026-01-28 22:12:41.16	338.18	6.82	-37.9	-39.4	25.9	3.03e+01	47	31	0	311427072	50	6384
2026-01-28 22:12:42.17	338.03	6.77	-38.2	-39.6	25.8	3.03e+01	56	31	0	313524224	50	6545
2026-01-28 22:12:43.18	337.88	6.72	-38.7	-40.3	25.1	3.03e+01	60	31	0	315097088	50	7080
2026-01-28 22:12:44.19	337.73	6.68	-38.9	-40.5	25.0	3.03e+01	45	31	0	317194240	52	6446
2026-01-28 22:12:45.20	337.58	6.63	-38.6	-40.1	25.2	3.03e+01	59	31	0	318767104	52	6183
2026-01-28 22:12:46.21	337.43	6.58	-39.0	-40.6	24.8	3.03e+01	48	31	0	320864256	52	6546
2026-01-28 22:12:47.22	337.28	6.54	-38.6	-40.0	25.1	3.03e+01	55	31	0	322961408	52	6130
2026-01-28 22:12:48.23	337.13	6.49	-39.5	-41.2	24.3	3.03e+01	61	30	0	324534272	52	7020
2026-01-28 22:12:49.24	336.98	6.45	-39.4	-41.1	24.6	3.03e+01	51	31	0	326631424	52	6890
2026-01-28 22:12:50.24	336.83	6.40	-39.3	-40.9	24.6	3.03e+01	57	31	0	328728576	52	6798
2026-01-28 22:12:51.25	336.69	6.35	-39.3	-40.9	24.6	3.03e+01	52	31	0	330301440	52	6741
2026-01-28 22:12:52.26	336.54	6.31	-39.8	-41.5	23.7	3.03e+01	57	30	0	332398592	52	7253
2026-01-28 22:12:53.27	336.39	6.26	-38.8	-40.3	25.0	3.03e+01	59	31	0	333971456	52	6304
2026-01-28 22:12:54.28	336.25	6.21	-40.3	-42.2	22.8	3.03e+01	53	31	0	336068608	54	6989
2026-01-28 22:12:55.29	336.10	6.17	-40.0	-41.7	23.7	3.03e+01	57	31	0	338165760	54	6639
2026-01-28 22:12:56.30	335.96	6.12	-40.0	-41.7	22.8	3.03e+01	58	31	0	339738624	54	6620
2026-01-28 22:12:57.31	335.82	6.07	-40.7	-42.7	22.6	3.03e+01	48	31	0	341835776	54	7380
2026-01-28 22:12:58.32	335.67	6.02	-40.8	-42.7	22.5	3.03e+01	59	31	0	343408640	56	6635
2026-01-28 22:12:59.33	335.53	5.98	-40.0	-41.8	23.1	3.03e+01	60	31	0	345505792	54	6671
2026-01-28 22:13:00.34	335.39	5.93	-39.5	-41.2	23.6	3.03e+01	59	31	0	347602944	54	6263
2026-01-28 22:13:01.34	335.25	5.88	-39.0	-40.7	23.9	3.03e+01	58	31	0	349175808	54	5889
2026-01-28 22:13:02.35	335.11	5.84	-39.5	-41.3	23.1	3.03e+01	51	31	0	351272960	52	7102
2026-01-28 22:13:03.36	334.96	5.79	-40.2	-42.3	22.1	3.03e+01	59	31	0	353370112	54	7046
2026-01-28 22:13:04.37	334.82	5.74	-40.1	-42.2	22.0	3.03e+01	62	31	0	354942976	54	6977
2026-01-28 22:13:05.38	334.68	5.69	-40.1	-42.2	21.7	3.03e+01	50	31	0	357040128	54	6973
2026-01-28 22:13:06.39	334.55	5.65	-41.5	-44.1	20.0	3.03e+01	60	31	0	358612992	56	7769
2026-01-28 22:13:07.40	334.41	5.60	-40.6	-42.8	20.8	3.03e+01	63	31	0	360710144	56	6717
2026-01-28 22:13:08.41	334.27	5.55	-40.7	-43.0	20.6	3.03e+01	59	31	0	362283008	56	6842
2026-01-28 22:13:09.42	334.13	5.50	-41.1	-43.8	19.9	3.03e+01	58	31	0	364380160	56	7481
2026-01-28 22:13:10.42	333.99	5.46	-41.1	-43.8	19.7	3.03e+01	48	31	0	366477312	56	7492
2026-01-28 22:13:11.43	333.86	5.41	-40.8	-43.1	20.4	3.03e+01	62	31	0	368050176	56	6959
2026-01-28 22:13:12.44	333.72	5.36	-41.3	-44.0	19.5	3.03e+01	59	31	0	370147328	56	7657
2026-01-28 22:13:13.45	333.59	5.31	-41.2	-43.9	19.6	3.03e+01	47	31	0	371720192	56	7551
2026-01-28 22:13:14.46	333.45	5.26	-40.9	-43.4	20.0	3.03e+01	59	31	0	373817344	56	7166
2026-01-28 22:13:15.47	333.32	5.22	-41.1	-43.7	20.0	3.03e+01	58	31	0	375914496	56	7388
2026-01-28 22:13:16.48	333.18	5.17	-40.8	-43.2	20.7	3.03e+01	58	31	0	377487360	56	6989
2026-01-28 22:13:17.49	333.05	5.12	-39.6	-41.5	22.3	3.03e+01	60	31	0	379584512	54	6472
2026-01-28 22:13:18.50	332.91	5.07	-40.8	-43.1	20.8	3.03e+01	53	31	0	381681664	54	7782
2026-01-28 22:13:19.50	332.78	5.02	-40.6	-42.8	21.5	3.03e+01	56	31	0	383254528	56	6691
2026-01-28 22:13:20.51	332.65	4.98	-39.6	-41.4	23.1	3.03e+01	61	31	0	385351680	54	6382
2026-01-28 22:13:21.52	332.52	4.93	-39.8	-41.7	22.8	3.03e+01	58	31	0	386924544	54	6578
2026-01-28 22:13:22.53	332.39	4.88	-40.1	-42.1	22.5	3.03e+01	62	31	0	389021696	54	6909
2026-01-28 22:13:23.54	332.26	4.83	-39.3	-41.0	23.7	3.03e+01	44	31	0	391118848	54	6085
2026-01-28 22:13:24.55	332.13	4.78	-40.1	-41.9	23.0	3.03e+01	61	31	0	392691712	54	6773
2026-01-28 22:13:25.56	332.00	4.74	-39.9	-41.8	23.3	3.03e+01	60	31	0	394788864	54	6660
2026-01-28 22:13:26.57	331.87	4.69	-39.0	-40.6	24.3	3.03e+01	51	31	0	396886016	52	6543
2026-01-28 22:13:27.58	331.74	4.64	-39.2	-40.8	24.3	3.03e+01	59	31	0	398458880	52	6665
2026-01-28 22:13:28.59	331.61	4.59	-39.7	-41.4	23.6	3.03e+01	63	31	0	400556032	52	7150
2026-01-28 22:13:29.60	331.48	4.54	-39.5	-41.2	23.8	3.03e+01	55	31	0	402128896	54	6216
2026-01-28 22:13:30.61	331.35	4.49	-40.1	-41.9	23.2	3.03e+01	63	31	0	404226048	54	6791
2026-01-28 22:13:31.62	331.23	4.44	-39.9	-41.6	23.7	3.03e+01	55	31	0	406323200	54	6530
2026-01-28 22:13:32.63	331.10	4.40	-39.8	-41.6	23.6	3.03e+01	57	31	0	407896064	54	6500
2026-01-28 22:13:33.64	330.97	4.35	-39.4	-41.2	24.1	3.03e+01	59	31	0	409993216	54	6214
2026-01-28 22:13:34.65	330.85	4.30	-39.3	-40.9	24.4	3.03e+01	45	31	0	411566080	54	6049
2026-01-28 22:13:35.66	330.72	4.25	-39.6	-41.3	23.8	3.03e+01	56	31	0	413663232	52	7086
2026-01-28 22:13:36.67	330.60	4.20	-40.4	-42.3	22.9	3.03e+01	60	31	0	415760384	54	7051
2026-01-28 22:13:37.68	330.47	4.15	-39.1	-40.7	24.3	3.03e+01	59	31	0	417333248	52	6606
2026-01-28 22:13:38.69	330.35	4.10	-39.4	-41.1	24.0	3.03e+01	54	31	0	419430400	52	6908
2026-01-28 22:13:39.69	330.23	4.06	-40.2	-42.0	23.2	3.03e+01	58	31	0	421003264	54	6848
2026-01-28 22:13:40.70	330.11	4.01	-39.7	-41.4	23.6	3.03e+01	59	31	0	423100416	54	6376
2026-01-28 22:13:41.72	329.98	3.96	-38.7	-40.2	24.7	3.03e+01	61	31	0	425197568	52	6235
2026-01-28 22:13:42.72	329.86	3.91	-39.1	-40.7	24.4	3.03e+01	44	31	0	426770432	52	6621
2026-01-28 22:13:43.73	329.74	3.86	-40.3	-42.1	22.9	3.03e+01	59	31	0	428867584	54	6954
2026-01-28 22:13:44.74	329.62	3.81	-39.1	-40.7	24.4	3.03e+01	56	31	0	430440448	52	6613
2026-01-28 22:13:45.75	329.50	3.76	-39.2	-40.8	24.2	3.03e+01	59	31	0	432537600	52	6698
2026-01-28 22:13:46.76	329.38	3.71	-40.1	-41.9	23.7	3.03e+01	62	31	0	434634752	56	6035
2026-01-28 22:13:47.77	329.26	3.67	-38.1	-39.6	25.1	3.03e+01	45	31	0	436207616	50	6520
2026-01-28 22:13:48.79	329.14	3.62	-39.5	-41.2	23.8	3.03e+01	55	31	0	438304768	52	6967
2026-01-28 22:13:49.79	329.02	3.57	-39.7	-41.4	23.3	3.03e+01	60	31	0	439877632	52	7198
2026-01-28 22:13:50.80	328.90	3.52	-38.9	-40.5	24.4	3.03e+01	46	31	0	441974784	52	6450
2026-01-28 22:13:51.81	328.78	3.47	-38.8	-40.4	24.2	3.03e+01	61	31	0	444071936	52	6402
2026-01-28 22:13:52.82	328.67	3.42	-39.2	-40.9	23.9	3.03e+01	62	31	0	445644800	54	6013
2026-01-28 22:13:53.83	328.55	3.37	-40.7	-42.7	22.3	3.03e+01	59	31	0	447741952	54	7419
2026-01-28 22:13:54.84	328.43	3.32	-39.0	-40.7	24.1	3.03e+01	57	31	0	449839104	54	5892
2026-01-28 22:13:55.85	328.32	3.28	-39.5	-41.2	23.6	3.03e+01	55	31	0	451411968	52	6994
2026-01-28 22:13:56.86	328.20	3.23	-39.8	-41.6	23.3	3.03e+01	58	31	0	453509120	52	7364
2026-01-28 22:13:57.87	328.09	3.18	-39.5	-41.3	23.5	3.03e+01	61	31	0	455081984	52	7120
2026-01-28 22:13:58.88	327.97	3.13	-39.4	-41.1	23.9	3.03e+01	58	31	0	457179136	52	6920
2026-01-28 22:13:59.89	327.86	3.08	-39.8	-41.6	23.1	3.03e+01	58	31	0	459276288	52	7368
2026-01-28 22:14:00.90	327.74	3.03	-39.3	-41.1	23.6	3.03e+01	56	31	0	460849152	54	6176
2026-01-28 22:14:01.91	327.63	2.98	-48.0	-65.3	3.5	3.03e+01	0	31	104	461897728	60	70754
2026-01-28 22:14:02.92	327.52	2.93	-48.4	-66.2	3.5	3.03e+01	0	31	104	461897728	60	78248
2026-01-28 22:14:03.93	327.40	2.88	-48.6	-66.5	3.5	3.03e+01	0	31	104	461897728	60	80896
2026-01-28 22:14:04.94	327.29	2.83	-48.8	-66.8	3.6	3.03e+01	0	31	104	461897728	60	83801
2026-01-28 22:14:05.95	327.18	2.79	-48.9	-66.8	3.5	3.03e+01	0	31	104	461897728	60	84387
2026-01-28 22:14:06.96	327.07	2.74	-49.0	-67.0	3.5	3.03e+01	0	31	104	461897728	60	85916
2026-01-28 22:14:07.96	326.96	2.69	-48.9	-67.0	3.5	3.03e+01	0	31	104	461897728	60	86489
2026-01-28 22:14:08.97	326.85	2.64	-49.0	-67.1	3.5	3.03e+01	0	31	104	461897728	60	86916
2026-01-28 22:14:09.98	326.74	2.59	-48.8	-67.2	3.5	3.03e+01	0	31	104	461897728	60	87785
2026-01-28 22:14:10.99	326.63	2.54	-48.9	-67.2	3.5	3.03e+01	0	31	104	461897728	60	88308
2026-01-28 22:14:12.00	326.52	2.49	-48.4	-67.2	3.5	3.03e+01	0	31	104	461897728	60	87851
2026-01-28 22:14:13.01	326.41	2.44	-48.7	-67.2	3.5	3.03e+01	0	31	104	461897728	60	87765
2026-01-28 22:14:14.02	326.30	2.40	-48.8	-67.2	3.5	3.03e+01	0	31	104	461897728	60	87884
2026-01-28 22:14:15.03	326.19	2.35	-49.0	-67.2	3.5	3.03e+01	0	31	104	461897728	60	87826
2026-01-28 22:14:16.04	326.08	2.30	-49.0	-67.2	3.5	3.03e+01	0	31	104	461897728	60	88160
2026-01-28 22:14:17.05	325.98	2.25	-48.9	-67.1	3.5	3.03e+01	0	31	104	461897728	60	87271
2026-01-28 22:14:18.06	325.87	2.20	-49.0	-67.1	3.5	3.03e+01	0	31	104	461897728	60	86973
2026-01-28 22:14:19.07	325.76	2.15	-49.1	-67.1	3.5	3.03e+01	0	31	104	461897728	60	86808
2026-01-28 22:14:20.08	325.66	2.10	-49.2	-67.1	3.5	3.03e+01	0	31	104	461897728	60	87434
2026-01-28 22:14:21.09	325.55	2.05	-49.1	-67.0	3.5	3.03e+01	0	31	104	461897728	60	86450
2026-01-28 22:14:22.10	325.45	2.00	-49.2	-67.0	3.5	3.03e+01	0	31	104	461897728	60	86429
2026-01-28 22:14:23.11	325.34	1.96	-49.1	-67.0	3.5	3.03e+01	0	31	104	461897728	60	86254
2026-01-28 22:14:24.12	325.24	1.91	-48.8	-67.0	3.5	3.03e+01	0	31	104	461897728	60	86373
2026-01-28 22:14:25.13	325.13	1.86	-49.0	-67.0	3.5	3.03e+01	0	31	104	461897728	60	86207
2026-01-28 22:14:26.14	325.03	1.81	-49.1	-67.0	3.5	3.03e+01	0	31	104	461897728	60	86115
2026-01-28 22:14:27.14	324.93	1.76	-49.2	-67.1	3.5	3.03e+01	0	31	104	461897728	60	86681
2026-01-28 22:14:28.16	324.82	1.71	-49.2	-67.1	3.5	3.03e+01	0	31	104	461897728	60	86708
2026-01-28 22:14:29.16	324.72	1.66	-49.2	-67.0	3.5	3.03e+01	0	31	104	461897728	60	86195
2026-01-28 22:14:30.17	324.62	1.61	-49.2	-67.0	3.5	3.03e+01	0	31	104	461897728	60	86486
2026-01-28 22:14:31.18	324.52	1.57	-49.2	-67.0	3.5	3.03e+01	0	31	104	461897728	60	86554
2026-01-28 22:14:32.20	324.41	1.52	-49.2	-67.0	3.5	3.03e+01	0	31	104	461897728	60	86414
2026-01-28 22:14:33.21	324.31	1.47	-49.2	-67.0	3.5	3.03e+01	0	31	104	461897728	60	86435
2026-01-28 22:14:34.22	324.21	1.42	-49.2	-67.0	3.5	3.03e+01	0	31	104	461897728	60	85791
2026-01-28 22:14:35.23	324.11	1.37	-49.2	-67.0	3.5	3.03e+01	0	31	104	461897728	60	86134
2026-01-28 22:14:36.24	324.01	1.32	-49.2	-67.0	3.5	3.03e+01	0	31	104	461897728	60	86222
2026-01-28 22:14:37.25	323.91	1.27	-49.2	-67.0	3.5	3.03e+01	0	31	104	461897728	60	86241
2026-01-28 22:14:38.26	323.81	1.22	-49.2	-67.0	3.5	3.03e+01	0	31	104	461897728	60	86256
2026-01-28 22:14:39.27	323.71	1.18	-49.2	-67.0	3.5	3.03e+01	0	31	104	461897728	60	86088
2026-01-28 22:14:40.28	323.62	1.13	-49.2	-67.0	3.5	3.03e+01	0	31	104	461897728	60	86332
2026-01-28 22:14:41.29	323.52	1.08	-49.2	-67.0	3.5	3.03e+01	0	31	104	461897728	60	85685
2026-01-28 22:14:42.30	323.42	1.03	-49.2	-67.0	3.5	3.03e+01	0	31	104	461897728	60	85950
2026-01-28 22:14:43.31	323.32	0.98	-49.2	-67.0	3.5	3.03e+01	0	31	104	461897728	60	86227
2026-01-28 22:14:44.32	323.23	0.93	-49.2	-67.0	3.5	3.03e+01	0	31	104	461897728	60	86257
2026-01-28 22:14:45.33	323.13	0.88	-49.2	-67.0	3.5	3.03e+01	0	31	104	461897728	60	86015
2026-01-28 22:14:46.34	323.03	0.84	-49.2	-67.0	3.5	3.03e+01	0	31	104	461897728	60	86608
2026-01-28 22:14:47.35	322.94	0.79	-49.2	-67.0	3.5	3.03e+01	0	31	104	461897728	60	86557
2026-01-28 22:14:48.36	322.84	0.74	-49.1	-67.1	3.5	3.03e+01	0	31	104	461897728	60	86893
2026-01-28 22:14:49.37	322.75	0.69	-49.2	-67.0	3.5	3.03e+01	0	31	104	461897728	60	86299
2026-01-28 22:14:50.38	322.65	0.64	-49.2	-67.0	3.5	3.03e+01	0	31	104	461897728	60	86375
2026-01-28 22:14:51.39	322.56	0.59	-49.2	-67.0	3.5	3.03e+01	0	31	104	461897728	60	86578
2026-01-28 22:14:52.40	322.46	0.55	-49.2	-67.0	3.5	3.03e+01	0	31	104	461897728	60	86174
2026-01-28 22:14:53.41	322.37	0.50	-49.1	-67.0	3.5	3.03e+01	0	31	104	461897728	60	86058
2026-01-28 22:14:54.42	322.27	0.45	-49.2	-67.0	3.5	3.03e+01	0	31	104	461897728	60	86531
2026-01-28 22:14:55.43	322.18	0.40	-49.2	-67.0	3.5	3.03e+01	0	31	104	461897728	60	86208
2026-01-28 22:14:56.44	322.09	0.35	-49.2	-67.0	3.5	3.03e+01	0	31	104	461897728	60	85948
2026-01-28 22:14:57.45	322.00	0.30	-49.2	-67.0	3.5	3.03e+01	0	31	104	461897728	60	85833
2026-01-28 22:14:58.46	321.90	0.26	-49.2	-67.0	3.5	3.03e+01	0	31	104	461897728	60	86243
2026-01-28 22:14:59.46	321.81	0.21	-49.1	-67.0	3.5	3.03e+01	0	31	104	461897728	60	86470
2026-01-28 22:15:00.47	321.72	0.16	-49.1	-67.0	3.5	3.03e+01	0	31	104	461897728	60	85852
2026-01-28 22:15:01.48	321.63	0.11	-49.1	-67.0	3.5	3.03e+01	0	31	104	461897728	60	86346
2026-01-28 22:15:02.49	321.54	0.06	-49.1	-67.0	3.5	3.03e+01	0	31	104	461897728	60	86342
2026-01-28 22:15:03.50	321.45	0.01	-49.1	-67.0	3.5	3.03e+01	0	31	104	461897728	60	86218

#Closed at: 2026-01-28 22:15:04
#Recorded file [461 MB]: D:/lorett/data/35029_260129_100424.dat