passes_logs/2026/01/28/R4.6S_Anadyr/R4.6S_Anadyr__20260128_005910_KOSAR1-5_rec.log

#Pass ID: 20260128_005910_KOSAR1-5
#Satellite: KOSAR1-5
#Configuration: KOSAR1-5
#almurnet v.1.7.20251203
#Start time: 2026-01-28 00:59:12

#Version: 2.2.20231116
#Station: R4.6S_Anadyr
#Location: 177.4865 lon 64.73178 lat
#TLE: 1 67264U 25313S   26027.43234714  .00011684  00000+0  53854-3 0  9991
#TLE: 2 67264  97.4175 104.3970 0016458 139.6900 220.5558 15.20303503  4548

#Time	Az	El	Level	Level2	SNR	BER	BlckErr	Temp	State	Recorded	gain1	gain2
2026-01-28 00:59:12.51	16.62	0.15	-48.9	-63.8	3.5	1.51e+00	0	30	0	0	60	56036
2026-01-28 00:59:13.52	16.56	0.21	-45.5	-60.2	3.6	1.51e+00	0	31	104	0	60	41490
2026-01-28 00:59:14.53	16.50	0.27	-45.6	-60.3	3.6	1.51e+00	0	31	104	0	60	41848
2026-01-28 00:59:15.54	16.45	0.33	-45.6	-60.3	3.6	1.51e+00	0	31	104	0	60	42146
2026-01-28 00:59:16.55	16.39	0.39	-45.6	-60.3	3.6	1.51e+00	0	31	104	0	60	42086
2026-01-28 00:59:17.56	16.33	0.46	-45.6	-60.3	3.6	1.51e+00	0	31	104	0	60	41987
2026-01-28 00:59:18.57	16.27	0.52	-45.7	-60.3	3.6	1.51e+00	0	31	104	0	60	42172
2026-01-28 00:59:19.58	16.21	0.58	-45.7	-60.4	3.6	1.51e+00	0	31	104	0	60	42499
2026-01-28 00:59:20.59	16.15	0.64	-45.7	-60.4	3.6	1.51e+00	0	31	104	0	60	42404
2026-01-28 00:59:21.60	16.09	0.70	-45.8	-60.5	3.6	1.51e+00	0	31	104	0	60	43019
2026-01-28 00:59:22.60	16.03	0.76	-45.8	-60.5	3.6	1.51e+00	0	31	104	0	60	42826
2026-01-28 00:59:23.61	15.97	0.83	-45.6	-60.5	3.6	1.51e+00	0	31	104	0	60	42883
2026-01-28 00:59:24.63	15.91	0.89	-45.8	-60.5	3.6	1.51e+00	0	31	104	0	60	43082
2026-01-28 00:59:25.64	15.85	0.95	-45.6	-60.4	3.6	1.51e+00	0	31	104	0	60	42490
2026-01-28 00:59:26.65	15.79	1.02	-45.7	-60.4	3.6	1.51e+00	0	31	104	0	60	42635
2026-01-28 00:59:27.66	15.73	1.08	-45.7	-60.4	3.6	1.51e+00	0	31	104	0	60	42374
2026-01-28 00:59:28.67	15.67	1.14	-45.6	-60.4	3.6	1.51e+00	0	31	104	0	60	42285
2026-01-28 00:59:29.68	15.60	1.21	-45.6	-60.3	3.6	1.51e+00	0	31	104	0	60	42013
2026-01-28 00:59:30.68	15.54	1.27	-45.5	-60.1	3.6	1.51e+00	0	31	104	0	60	41263
2026-01-28 00:59:31.70	15.48	1.33	-45.1	-60.0	3.6	1.51e+00	0	31	104	0	60	40449
2026-01-28 00:59:32.70	15.41	1.40	-45.1	-59.8	3.6	1.51e+00	0	31	104	0	60	39656
2026-01-28 00:59:33.71	15.35	1.46	-44.9	-59.6	3.6	1.51e+00	0	31	104	0	60	38550
2026-01-28 00:59:34.72	15.29	1.52	-44.7	-59.3	3.6	1.51e+00	0	31	104	0	60	37552
2026-01-28 00:59:35.73	15.22	1.59	-44.4	-59.1	3.6	1.51e+00	0	31	104	0	60	36505
2026-01-28 00:59:36.74	15.16	1.65	-44.4	-59.1	3.6	1.51e+00	0	31	104	0	60	36532
2026-01-28 00:59:37.76	15.09	1.72	-44.4	-59.1	3.6	1.51e+00	0	31	104	0	60	36549
2026-01-28 00:59:38.76	15.02	1.78	-44.4	-59.1	3.6	1.51e+00	0	31	104	0	60	36474
2026-01-28 00:59:39.78	14.96	1.85	-44.4	-59.1	3.6	1.51e+00	0	31	104	0	60	36414
2026-01-28 00:59:40.79	14.89	1.91	-44.4	-59.0	3.6	1.51e+00	0	31	104	0	60	36184
2026-01-28 00:59:41.80	14.82	1.98	-44.4	-59.1	3.6	1.51e+00	0	31	104	0	60	36420
2026-01-28 00:59:42.81	14.76	2.04	-44.4	-59.1	3.6	1.51e+00	0	31	104	0	60	36467
2026-01-28 00:59:43.82	14.69	2.11	-44.3	-59.0	3.6	1.51e+00	0	31	104	0	60	36316
2026-01-28 00:59:44.83	14.62	2.17	-44.3	-59.0	3.6	1.51e+00	0	31	104	0	60	36281
2026-01-28 00:59:45.84	14.55	2.24	-44.3	-59.0	3.6	1.51e+00	0	31	104	0	60	36204
2026-01-28 00:59:46.85	14.48	2.31	-44.3	-59.1	3.6	1.51e+00	0	31	104	0	60	36457
2026-01-28 00:59:47.86	14.41	2.37	-44.3	-59.1	3.6	1.51e+00	0	31	104	0	60	36407
2026-01-28 00:59:48.87	14.34	2.44	-44.3	-59.1	3.6	1.51e+00	0	31	104	0	60	36367
2026-01-28 00:59:49.88	14.27	2.51	-44.3	-59.0	3.6	1.51e+00	0	32	104	0	60	36145
2026-01-28 00:59:50.89	14.20	2.57	-44.3	-59.0	3.6	1.51e+00	0	32	104	0	60	36213
2026-01-28 00:59:51.90	14.13	2.64	-44.3	-59.0	3.6	1.51e+00	0	32	104	0	60	36254
2026-01-28 00:59:52.91	14.06	2.71	-44.3	-59.0	3.6	1.51e+00	0	31	104	0	60	36239
2026-01-28 00:59:53.91	13.99	2.77	-44.3	-59.0	3.6	1.51e+00	0	31	104	0	60	36153
2026-01-28 00:59:54.92	13.91	2.84	-44.3	-59.0	3.6	1.51e+00	0	31	104	0	60	36245
2026-01-28 00:59:55.93	13.84	2.91	-44.3	-59.0	3.6	1.51e+00	0	32	104	0	60	36058
2026-01-28 00:59:56.94	13.77	2.98	-44.3	-59.0	3.6	1.51e+00	0	31	104	0	60	36120
2026-01-28 00:59:57.95	13.69	3.04	-44.3	-59.0	3.6	1.51e+00	0	31	104	0	60	36070
2026-01-28 00:59:58.96	13.62	3.11	-44.3	-59.0	3.6	1.51e+00	0	32	104	0	60	36236
2026-01-28 00:59:59.97	13.54	3.18	-44.3	-59.0	3.6	1.51e+00	0	32	104	0	60	36050
2026-01-28 01:00:00.98	13.47	3.25	-44.3	-59.0	3.6	1.51e+00	0	32	104	0	60	35960
2026-01-28 01:00:02.00	13.39	3.32	-44.3	-59.0	3.6	1.51e+00	0	32	104	0	60	36121
2026-01-28 01:00:03.00	13.31	3.39	-44.3	-59.0	3.6	1.51e+00	0	32	104	0	60	36022
2026-01-28 01:00:04.01	13.24	3.46	-44.3	-59.0	3.6	1.51e+00	0	32	104	0	60	36037
2026-01-28 01:00:05.02	13.16	3.53	-44.3	-59.0	3.6	1.51e+00	0	32	104	0	60	36132
2026-01-28 01:00:06.03	13.08	3.60	-44.3	-59.0	3.6	1.51e+00	0	32	104	0	60	35972
2026-01-28 01:00:07.05	13.00	3.67	-44.3	-59.0	3.6	1.51e+00	0	32	104	0	60	35995
2026-01-28 01:00:08.05	12.92	3.73	-44.3	-59.0	3.6	1.51e+00	0	32	104	0	60	35956
2026-01-28 01:00:09.06	12.84	3.80	-44.3	-59.0	3.6	1.51e+00	0	32	104	0	60	36270
2026-01-28 01:00:10.07	12.76	3.88	-44.3	-59.0	3.6	1.51e+00	0	32	104	0	60	36162
2026-01-28 01:00:11.08	12.68	3.95	-44.5	-59.2	3.6	1.51e+00	0	32	104	0	60	37184
2026-01-28 01:00:12.09	12.60	4.02	-44.4	-59.2	3.6	1.51e+00	0	32	104	0	60	36935
2026-01-28 01:00:13.10	12.52	4.09	-44.3	-59.0	3.6	1.51e+00	0	32	104	0	60	36347
2026-01-28 01:00:14.11	12.44	4.16	-44.6	-59.3	3.6	1.51e+00	0	32	104	0	60	37277
2026-01-28 01:00:15.12	12.36	4.23	-44.4	-59.0	3.6	1.51e+00	0	32	104	0	60	36227
2026-01-28 01:00:16.13	12.27	4.30	-44.5	-59.2	3.6	1.51e+00	0	32	104	0	60	36871
2026-01-28 01:00:17.14	12.19	4.37	-44.4	-59.1	3.6	1.51e+00	0	32	104	0	60	36580
2026-01-28 01:00:18.15	12.11	4.44	-44.6	-59.2	3.6	1.51e+00	0	32	104	0	60	37120
2026-01-28 01:00:19.17	12.02	4.52	-44.4	-59.1	3.6	1.51e+00	0	32	104	0	60	36518
2026-01-28 01:00:20.18	11.93	4.59	-44.6	-59.3	3.6	1.51e+00	0	32	104	0	60	37254
2026-01-28 01:00:21.19	11.85	4.66	-44.5	-59.2	3.6	1.51e+00	0	32	104	0	60	37094
2026-01-28 01:00:22.19	11.76	4.73	-44.6	-59.3	3.6	1.51e+00	0	32	104	0	60	37487
2026-01-28 01:00:23.20	11.68	4.81	-44.5	-59.2	3.6	1.51e+00	0	32	104	0	60	36994
2026-01-28 01:00:24.21	11.59	4.88	-44.6	-59.4	3.6	1.51e+00	0	32	104	0	60	37641
2026-01-28 01:00:25.22	11.50	4.95	-44.6	-59.2	3.6	1.51e+00	0	32	104	0	60	37194
2026-01-28 01:00:26.23	11.41	5.03	-44.6	-59.4	3.6	1.51e+00	0	32	104	0	60	37811
2026-01-28 01:00:27.24	11.32	5.10	-44.6	-59.3	3.6	1.51e+00	0	32	104	0	60	37271
2026-01-28 01:00:28.25	11.23	5.18	-44.7	-59.4	3.6	1.51e+00	0	32	104	0	60	37926
2026-01-28 01:00:29.26	11.14	5.25	-44.6	-59.3	3.6	1.51e+00	0	32	104	0	60	37338
2026-01-28 01:00:30.28	11.05	5.33	-44.7	-59.4	3.6	1.51e+00	0	32	104	0	60	37826
2026-01-28 01:00:31.28	10.96	5.40	-44.5	-59.2	3.6	1.51e+00	0	32	104	0	60	37186
2026-01-28 01:00:32.30	10.86	5.47	-44.7	-59.4	3.6	1.51e+00	0	32	104	0	60	37817
2026-01-28 01:00:33.30	10.77	5.55	-44.7	-59.4	3.6	1.51e+00	0	32	104	0	60	37701
2026-01-28 01:00:34.32	10.68	5.63	-44.8	-59.4	3.6	1.51e+00	0	32	104	0	60	38026
2026-01-28 01:00:35.33	10.58	5.70	-44.6	-59.3	3.6	1.51e+00	0	32	104	0	60	37512
2026-01-28 01:00:36.34	10.49	5.78	-44.7	-59.4	3.5	1.51e+00	0	32	104	0	60	37891
2026-01-28 01:00:37.35	10.39	5.85	-44.6	-59.4	3.6	1.51e+00	0	32	104	0	60	37669
2026-01-28 01:00:38.36	10.29	5.93	-44.8	-59.5	3.6	1.51e+00	0	32	104	0	60	38237
2026-01-28 01:00:39.37	10.20	6.01	-44.7	-59.4	3.6	1.51e+00	0	32	104	0	60	37702
2026-01-28 01:00:40.38	10.10	6.08	-44.7	-59.5	3.6	1.51e+00	0	32	104	0	60	38242
2026-01-28 01:00:41.39	10.00	6.16	-44.7	-59.4	3.6	1.51e+00	0	32	104	0	60	38056
2026-01-28 01:00:42.40	9.90	6.24	-44.8	-59.4	3.6	1.51e+00	0	32	104	0	60	38008
2026-01-28 01:00:43.41	9.80	6.31	-44.7	-59.4	3.6	1.51e+00	0	32	104	0	60	37944
2026-01-28 01:00:44.42	9.70	6.39	-44.8	-59.5	3.6	1.51e+00	0	32	104	0	60	38227
2026-01-28 01:00:45.43	9.60	6.47	-44.7	-59.4	3.6	1.51e+00	0	32	104	0	60	37913
2026-01-28 01:00:46.44	9.50	6.55	-44.8	-59.5	3.6	1.51e+00	0	32	104	0	60	38344
2026-01-28 01:00:47.45	9.39	6.63	-44.7	-59.4	3.6	1.51e+00	0	32	104	0	60	37949
2026-01-28 01:00:48.46	9.29	6.71	-44.4	-59.5	3.6	1.51e+00	0	32	104	0	60	38189
2026-01-28 01:00:49.47	9.19	6.79	-44.8	-59.5	3.6	1.51e+00	0	32	104	0	60	38281
2026-01-28 01:00:50.48	9.08	6.86	-44.5	-59.5	3.6	1.51e+00	0	32	104	0	60	38404
2026-01-28 01:00:51.48	8.98	6.94	-44.7	-59.5	3.6	1.51e+00	0	32	104	0	60	38231
2026-01-28 01:00:52.49	8.87	7.02	-44.9	-59.6	3.6	1.51e+00	0	32	104	0	60	38544
2026-01-28 01:00:53.50	8.76	7.10	-44.6	-59.5	3.6	1.51e+00	0	32	104	0	60	38474
2026-01-28 01:00:54.51	8.66	7.18	-44.8	-59.6	3.6	1.51e+00	0	32	104	0	60	38624
2026-01-28 01:00:55.52	8.55	7.26	-44.8	-59.5	3.6	1.51e+00	0	32	104	0	60	38363
2026-01-28 01:00:56.53	8.44	7.34	-44.9	-59.5	3.6	1.51e+00	0	32	104	0	60	38398
2026-01-28 01:00:57.54	8.33	7.43	-44.9	-59.6	3.6	1.51e+00	0	32	104	0	60	38619
2026-01-28 01:00:58.55	8.22	7.51	-44.9	-59.6	3.5	1.51e+00	0	32	104	0	60	38531
2026-01-28 01:00:59.56	8.10	7.59	-44.9	-59.5	3.6	1.51e+00	0	32	104	0	60	38223
2026-01-28 01:01:00.56	7.99	7.67	-44.9	-59.6	3.6	1.51e+00	0	32	104	0	60	38678
2026-01-28 01:01:01.57	7.88	7.75	-44.9	-59.6	3.6	1.51e+00	0	32	104	0	60	38737
2026-01-28 01:01:02.58	7.76	7.83	-44.8	-59.7	3.6	1.51e+00	0	32	104	0	60	38980
2026-01-28 01:01:03.59	7.65	7.92	-44.9	-59.6	3.6	1.51e+00	0	32	104	0	60	38750
2026-01-28 01:01:04.60	7.53	8.00	-44.9	-59.7	3.6	1.51e+00	0	32	104	0	60	39073
2026-01-28 01:01:05.61	7.42	8.08	-44.9	-59.6	3.6	1.51e+00	0	32	104	0	60	38740
2026-01-28 01:01:06.62	7.30	8.17	-44.9	-59.6	3.6	1.51e+00	0	32	104	0	60	38919
2026-01-28 01:01:07.63	7.18	8.25	-44.9	-59.6	3.6	1.51e+00	0	32	104	0	60	38622
2026-01-28 01:01:08.64	7.06	8.33	-44.9	-59.7	3.6	1.51e+00	0	32	104	0	60	39037
2026-01-28 01:01:09.65	6.94	8.42	-44.8	-59.6	3.6	1.51e+00	0	32	104	0	60	38818
2026-01-28 01:01:10.66	6.82	8.50	-45.0	-59.7	3.6	1.51e+00	0	32	104	0	60	39226
2026-01-28 01:01:11.67	6.69	8.59	-44.9	-59.6	3.6	1.51e+00	0	32	104	0	60	38836
2026-01-28 01:01:12.68	6.57	8.67	-45.0	-59.6	3.6	1.51e+00	0	32	104	0	60	38924
2026-01-28 01:01:13.69	6.45	8.76	-45.0	-59.6	3.6	1.51e+00	0	32	104	0	60	38860
2026-01-28 01:01:14.70	6.32	8.84	-44.9	-59.6	3.6	1.51e+00	0	32	104	0	60	38703
2026-01-28 01:01:15.71	6.20	8.93	-45.0	-59.7	3.6	1.51e+00	0	32	104	0	60	39195
2026-01-28 01:01:16.72	6.07	9.02	-45.0	-59.7	3.6	1.51e+00	0	32	104	0	60	39295
2026-01-28 01:01:17.73	5.94	9.10	-45.0	-59.8	3.6	1.51e+00	0	32	104	0	60	39425
2026-01-28 01:01:18.74	5.81	9.19	-45.0	-59.7	3.6	1.51e+00	0	32	104	0	60	39126
2026-01-28 01:01:19.75	5.68	9.28	-45.0	-59.7	3.6	1.51e+00	0	32	104	0	60	39350
2026-01-28 01:01:20.76	5.55	9.36	-44.9	-59.7	3.6	1.51e+00	0	32	104	0	60	39138
2026-01-28 01:01:21.77	5.42	9.45	-45.1	-59.7	3.6	1.51e+00	0	32	104	0	60	39155
2026-01-28 01:01:22.78	5.29	9.54	-45.0	-59.7	3.6	1.51e+00	0	32	104	0	60	39114
2026-01-28 01:01:23.79	5.15	9.63	-45.0	-59.7	3.6	1.51e+00	0	32	104	0	60	39114
2026-01-28 01:01:24.80	5.02	9.72	-45.0	-59.7	3.6	1.51e+00	0	32	104	0	60	39263
2026-01-28 01:01:25.81	4.88	9.80	-45.1	-59.8	3.6	1.51e+00	0	32	104	0	60	39434
2026-01-28 01:01:26.82	4.74	9.89	-45.0	-59.7	3.6	1.51e+00	0	32	104	0	60	39121
2026-01-28 01:01:27.83	4.61	9.98	-45.0	-59.8	3.6	1.51e+00	0	32	104	0	60	39484
2026-01-28 01:01:28.84	4.47	10.07	-45.0	-59.7	3.6	1.51e+00	0	32	104	0	60	39061
2026-01-28 01:01:29.85	4.33	10.16	-45.1	-59.8	3.5	1.51e+00	0	32	104	0	60	39469
2026-01-28 01:01:30.86	4.18	10.25	-45.0	-59.7	3.6	1.51e+00	0	32	104	0	60	39048
2026-01-28 01:01:31.87	4.04	10.34	-45.0	-59.7	3.6	1.51e+00	0	32	104	0	60	39215
2026-01-28 01:01:32.88	3.90	10.43	-45.0	-59.8	3.6	1.51e+00	0	32	104	0	60	39623
2026-01-28 01:01:33.89	3.75	10.53	-45.1	-59.8	3.6	1.51e+00	0	32	104	0	60	39518
2026-01-28 01:01:34.90	3.61	10.62	-45.0	-59.7	3.6	1.51e+00	0	32	104	0	60	39324
2026-01-28 01:01:35.91	3.46	10.71	-45.1	-59.8	3.6	1.51e+00	0	32	104	0	60	39657
2026-01-28 01:01:36.92	3.31	10.80	-45.1	-59.8	3.6	1.51e+00	0	32	104	0	60	39471
2026-01-28 01:01:37.93	3.16	10.89	-45.1	-59.9	3.6	1.51e+00	0	32	104	0	60	39999
2026-01-28 01:01:38.94	3.01	10.99	-45.1	-59.8	3.6	1.51e+00	0	32	104	0	60	39554
2026-01-28 01:01:39.95	2.86	11.08	-45.1	-59.8	3.6	1.51e+00	0	32	104	0	60	39698
2026-01-28 01:01:40.96	2.71	11.17	-45.1	-59.8	3.6	1.51e+00	0	32	104	0	60	39665
2026-01-28 01:01:41.97	2.55	11.27	-45.1	-59.8	3.6	1.51e+00	0	32	104	0	60	39698
2026-01-28 01:01:42.98	2.40	11.36	-45.1	-59.8	3.6	1.51e+00	0	32	104	0	60	39414
2026-01-28 01:01:43.98	2.24	11.45	-45.2	-59.8	3.6	1.51e+00	0	32	104	0	60	39859
2026-01-28 01:01:45.00	2.08	11.55	-45.1	-59.9	3.6	1.51e+00	0	32	104	0	60	39963
2026-01-28 01:01:46.00	1.92	11.64	-45.1	-59.8	3.6	1.51e+00	0	32	104	0	60	39582
2026-01-28 01:01:47.01	1.76	11.74	-45.0	-59.8	3.6	1.51e+00	0	32	104	0	60	39686
2026-01-28 01:01:48.02	1.60	11.83	-45.2	-59.8	3.6	1.51e+00	0	32	104	0	60	39856
2026-01-28 01:01:49.03	1.44	11.93	-45.2	-59.8	3.6	1.51e+00	0	32	104	0	60	39837
2026-01-28 01:01:50.04	1.27	12.03	-45.2	-59.9	3.6	1.51e+00	0	32	104	0	60	40080
2026-01-28 01:01:51.05	1.11	12.12	-45.1	-59.8	3.6	1.51e+00	0	32	104	0	60	39554
2026-01-28 01:01:52.06	0.94	12.22	-45.3	-60.0	3.6	1.51e+00	0	32	104	0	60	40746
2026-01-28 01:01:53.07	0.77	12.32	-45.2	-60.0	3.6	1.51e+00	0	32	104	0	60	40605
2026-01-28 01:01:54.08	0.60	12.41	-45.3	-59.9	3.6	1.51e+00	0	32	104	0	60	40133
2026-01-28 01:01:55.09	0.43	12.51	-45.1	-59.8	3.6	1.51e+00	0	32	104	0	60	39635
2026-01-28 01:01:56.10	0.26	12.61	-44.9	-59.9	3.6	1.51e+00	0	32	104	0	60	40009
2026-01-28 01:01:57.11	0.08	12.71	-45.1	-59.8	3.6	1.51e+00	0	32	104	0	60	39615
2026-01-28 01:01:58.12	359.91	12.80	-44.7	-59.8	3.6	1.51e+00	0	32	104	0	60	39845
2026-01-28 01:01:59.14	359.73	12.90	-45.0	-59.8	3.6	1.51e+00	0	32	104	0	60	39856
2026-01-28 01:02:00.15	359.55	13.00	-45.2	-59.9	3.6	1.51e+00	0	32	104	0	60	40099
2026-01-28 01:02:01.16	359.37	13.10	-44.9	-59.8	3.6	1.51e+00	0	32	104	0	60	39758
2026-01-28 01:02:02.17	359.19	13.20	-45.1	-59.8	3.6	1.51e+00	0	32	104	0	60	39838
2026-01-28 01:02:03.18	359.00	13.30	-45.1	-59.7	3.6	1.51e+00	0	32	104	0	60	39287
2026-01-28 01:02:04.19	358.82	13.40	-45.1	-59.7	3.6	1.51e+00	0	32	104	0	60	39359
2026-01-28 01:02:05.20	358.63	13.50	-45.0	-59.8	3.6	1.51e+00	0	32	104	0	60	39634
2026-01-28 01:02:06.21	358.44	13.60	-45.1	-59.7	3.6	1.51e+00	0	32	104	0	60	39272
2026-01-28 01:02:07.22	358.25	13.70	-45.1	-59.8	3.6	1.51e+00	0	32	104	0	60	39755
2026-01-28 01:02:08.23	358.06	13.81	-45.0	-59.6	3.6	1.51e+00	0	32	104	0	60	38810
2026-01-28 01:02:09.24	357.87	13.91	-45.1	-59.8	3.6	1.51e+00	0	32	104	0	60	39425
2026-01-28 01:02:10.25	357.68	14.01	-45.0	-59.4	3.6	1.51e+00	0	32	104	0	60	38026
2026-01-28 01:02:11.26	357.48	14.11	-45.1	-59.7	3.6	1.51e+00	0	32	104	0	60	39350
2026-01-28 01:02:12.27	357.28	14.21	-45.1	-59.8	3.6	1.51e+00	0	32	104	0	60	39437
2026-01-28 01:02:13.28	357.08	14.32	-45.1	-59.7	3.6	1.51e+00	0	32	104	0	60	39131
2026-01-28 01:02:14.29	356.88	14.42	-45.1	-59.6	3.6	1.51e+00	0	32	104	0	60	38611
2026-01-28 01:02:15.29	356.68	14.52	-45.0	-59.5	3.6	1.51e+00	0	32	104	0	60	38134
2026-01-28 01:02:16.30	356.48	14.63	-45.1	-59.6	3.6	1.51e+00	0	32	104	0	60	38731
2026-01-28 01:02:17.31	356.27	14.73	-45.2	-59.7	3.6	1.51e+00	0	32	104	0	60	39289
2026-01-28 01:02:18.33	356.06	14.83	-45.2	-59.9	3.6	1.51e+00	0	32	104	0	60	40075
2026-01-28 01:02:19.33	355.85	14.94	-45.0	-59.7	3.6	1.51e+00	0	32	104	0	60	39128
2026-01-28 01:02:20.34	355.64	15.04	-45.2	-59.9	3.6	1.51e+00	0	32	104	0	60	40225
2026-01-28 01:02:21.35	355.43	15.15	-45.1	-59.6	3.6	1.51e+00	0	32	104	0	60	38916
2026-01-28 01:02:22.36	355.21	15.25	-45.2	-59.9	3.6	1.51e+00	0	32	104	0	60	40117
2026-01-28 01:02:23.37	355.00	15.36	-45.2	-59.9	3.6	1.51e+00	0	32	104	0	60	40052
2026-01-28 01:02:24.38	354.78	15.46	-45.2	-59.8	3.6	1.51e+00	0	32	104	0	60	39792
2026-01-28 01:02:25.39	354.56	15.57	-45.3	-60.0	3.6	1.51e+00	0	32	104	0	60	40393
2026-01-28 01:02:26.40	354.34	15.67	-45.2	-59.8	3.6	1.51e+00	0	32	104	0	60	39718
2026-01-28 01:02:27.41	354.11	15.78	-45.2	-59.9	3.6	1.51e+00	0	32	104	0	60	39971
2026-01-28 01:02:28.42	353.88	15.89	-45.3	-60.0	3.6	1.51e+00	0	32	104	0	60	40720
2026-01-28 01:02:29.43	353.66	15.99	-45.2	-59.8	3.6	1.51e+00	0	32	104	0	60	39820
2026-01-28 01:02:30.44	353.43	16.10	-45.3	-60.0	3.6	1.51e+00	0	32	104	0	60	40334
2026-01-28 01:02:31.45	353.19	16.21	-45.4	-60.0	3.6	1.51e+00	0	32	104	0	60	40766
2026-01-28 01:02:32.46	352.96	16.31	-45.4	-60.1	3.6	1.51e+00	0	32	104	0	60	40966
2026-01-28 01:02:33.47	352.72	16.42	-45.4	-60.1	3.6	1.51e+00	0	32	104	0	60	40893
2026-01-28 01:02:34.48	352.48	16.53	-45.4	-60.1	3.6	1.51e+00	0	32	104	0	60	41142
2026-01-28 01:02:35.49	352.24	16.64	-45.4	-60.1	3.6	1.51e+00	0	32	104	0	60	41004
2026-01-28 01:02:36.50	352.00	16.74	-45.4	-60.1	3.6	1.51e+00	0	32	104	0	60	41253
2026-01-28 01:02:37.51	351.76	16.85	-45.4	-60.1	3.6	1.51e+00	0	32	104	0	60	40920
2026-01-28 01:02:38.52	351.51	16.96	-45.5	-60.1	3.6	1.51e+00	0	32	104	0	60	41164
2026-01-28 01:02:39.53	351.26	17.07	-45.7	-60.4	3.6	1.51e+00	0	32	104	0	60	42288
2026-01-28 01:02:40.54	351.01	17.18	-45.6	-60.3	3.6	1.51e+00	0	32	104	0	60	41880
2026-01-28 01:02:41.55	350.76	17.29	-45.5	-60.2	3.6	1.51e+00	0	32	104	0	60	41544
2026-01-28 01:02:42.56	350.50	17.39	-45.4	-60.2	3.6	1.51e+00	0	32	104	0	60	41536
2026-01-28 01:02:43.57	350.25	17.50	-45.5	-60.2	3.6	1.51e+00	0	32	104	0	60	41337
2026-01-28 01:02:44.58	349.99	17.61	-45.5	-60.3	3.6	1.51e+00	0	32	104	0	60	41946
2026-01-28 01:02:45.59	349.72	17.72	-45.5	-60.2	3.6	1.51e+00	0	32	104	0	60	41471
2026-01-28 01:02:46.60	349.46	17.83	-45.5	-60.2	3.6	1.51e+00	0	32	104	0	60	41539
2026-01-28 01:02:47.61	349.19	17.94	-45.5	-60.2	3.6	1.51e+00	0	32	104	0	60	41505
2026-01-28 01:02:48.62	348.93	18.05	-45.5	-60.3	3.6	1.51e+00	0	32	104	0	60	41755
2026-01-28 01:02:49.63	348.66	18.16	-45.5	-60.2	3.6	1.51e+00	0	32	104	0	60	41382
2026-01-28 01:02:50.64	348.38	18.27	-45.6	-60.2	3.6	1.51e+00	0	32	104	0	60	41694
2026-01-28 01:02:51.65	348.11	18.38	-45.4	-60.1	3.6	1.51e+00	0	32	104	0	60	41220
2026-01-28 01:02:52.66	347.83	18.49	-45.4	-60.2	3.6	1.51e+00	0	32	104	0	60	41400
2026-01-28 01:02:53.67	347.55	18.59	-45.3	-60.2	3.6	1.51e+00	0	32	104	0	60	41345
2026-01-28 01:02:54.68	347.27	18.70	-45.5	-60.2	3.6	1.51e+00	0	32	104	0	60	41543
2026-01-28 01:02:55.69	346.98	18.81	-45.5	-60.1	3.6	1.51e+00	0	32	104	0	60	41135
2026-01-28 01:02:56.70	346.69	18.92	-45.5	-60.2	3.6	1.51e+00	0	32	104	0	60	41450
2026-01-28 01:02:57.71	346.40	19.03	-45.5	-60.2	3.6	1.51e+00	0	32	104	0	60	41365
2026-01-28 01:02:58.72	346.11	19.14	-45.5	-60.3	3.6	1.51e+00	0	32	104	0	60	41801
2026-01-28 01:02:59.73	345.82	19.25	-45.5	-60.2	3.6	1.51e+00	0	32	104	0	60	41401
2026-01-28 01:03:00.74	345.52	19.36	-45.5	-60.2	3.6	1.51e+00	0	32	104	0	60	41671
2026-01-28 01:03:01.75	345.22	19.47	-45.5	-60.2	3.6	1.51e+00	0	32	104	0	60	41421
2026-01-28 01:03:02.75	344.92	19.57	-45.6	-60.2	3.6	1.51e+00	0	32	104	0	60	41680
2026-01-28 01:03:03.76	344.62	19.68	-45.4	-60.1	3.6	1.51e+00	0	32	104	0	60	41184
2026-01-28 01:03:04.78	344.31	19.79	-45.5	-60.2	3.6	1.51e+00	0	32	104	0	60	41535
2026-01-28 01:03:05.79	344.00	19.90	-45.5	-60.1	3.6	1.51e+00	0	32	104	0	60	41245
2026-01-28 01:03:06.80	343.68	20.01	-45.5	-60.3	3.6	1.51e+00	0	32	104	0	60	41787
2026-01-28 01:03:07.80	343.37	20.12	-45.4	-60.1	3.6	1.51e+00	0	32	104	0	60	41188
2026-01-28 01:03:08.81	343.06	20.22	-45.5	-60.2	3.6	1.51e+00	0	32	104	0	60	41465
2026-01-28 01:03:09.82	342.74	20.33	-45.4	-60.1	3.6	1.51e+00	0	32	104	0	60	41175
2026-01-28 01:03:10.83	342.41	20.44	-45.5	-60.2	3.6	1.51e+00	0	32	104	0	60	41733
2026-01-28 01:03:11.84	342.09	20.54	-45.5	-60.2	3.6	1.51e+00	0	32	104	0	60	41628
2026-01-28 01:03:12.85	341.76	20.65	-45.5	-60.2	3.6	1.51e+00	0	32	104	0	60	41660
2026-01-28 01:03:13.86	341.43	20.76	-45.5	-60.2	3.6	1.51e+00	0	32	104	0	60	41370
2026-01-28 01:03:14.87	341.10	20.86	-45.5	-60.3	3.6	1.51e+00	0	32	104	0	60	41925
2026-01-28 01:03:15.88	340.76	20.97	-45.4	-60.2	3.6	1.51e+00	0	32	104	0	60	41524
2026-01-28 01:03:16.89	340.42	21.07	-45.5	-60.3	3.6	1.51e+00	0	32	104	0	60	41759
2026-01-28 01:03:17.90	340.08	21.18	-45.3	-60.2	3.6	1.51e+00	0	32	104	0	60	41457
2026-01-28 01:03:18.91	339.74	21.28	-45.5	-60.3	3.6	1.51e+00	0	32	104	0	60	41816
2026-01-28 01:03:19.92	339.39	21.39	-45.3	-60.2	3.6	1.51e+00	0	32	104	0	60	41291
2026-01-28 01:03:20.94	339.04	21.49	-45.5	-60.2	3.6	1.51e+00	0	32	104	0	60	41664
2026-01-28 01:03:21.95	338.69	21.59	-45.4	-60.2	3.6	1.51e+00	0	32	104	0	60	41472
2026-01-28 01:03:22.96	338.33	21.69	-45.5	-60.2	3.6	1.51e+00	0	32	104	0	60	41730
2026-01-28 01:03:23.97	337.97	21.80	-45.4	-60.2	3.6	1.51e+00	0	33	104	0	60	41420
2026-01-28 01:03:24.98	337.62	21.90	-45.5	-60.2	3.6	1.51e+00	0	32	104	0	60	41731
2026-01-28 01:03:25.99	337.25	22.00	-45.4	-60.2	3.6	1.51e+00	0	33	104	0	60	41397
2026-01-28 01:03:27.00	336.89	22.10	-45.6	-60.3	3.6	1.51e+00	0	32	104	0	60	42104
2026-01-28 01:03:28.01	336.52	22.20	-45.4	-60.2	3.6	1.51e+00	0	32	104	0	60	41425
2026-01-28 01:03:29.02	336.15	22.30	-45.5	-60.2	3.6	1.51e+00	0	32	104	0	60	41450
2026-01-28 01:03:30.03	335.78	22.39	-45.5	-60.2	3.6	1.51e+00	0	32	104	0	60	41595
2026-01-28 01:03:31.04	335.40	22.49	-45.5	-60.3	3.6	1.51e+00	0	32	104	0	60	41905
2026-01-28 01:03:32.05	335.02	22.59	-45.4	-60.2	3.6	1.51e+00	0	33	104	0	60	41708
2026-01-28 01:03:33.06	334.64	22.68	-45.4	-60.2	3.6	1.51e+00	0	32	104	0	60	41714
2026-01-28 01:03:34.06	334.26	22.78	-45.5	-60.2	3.6	1.51e+00	0	33	104	0	60	41676
2026-01-28 01:03:35.07	333.87	22.87	-45.5	-60.3	3.6	1.51e+00	0	33	104	0	60	41904
2026-01-28 01:03:36.08	333.48	22.96	-45.5	-60.2	3.6	1.51e+00	0	33	104	0	60	41641
2026-01-28 01:03:37.09	333.09	23.06	-45.5	-60.2	3.6	1.51e+00	0	33	104	0	60	41595
2026-01-28 01:03:38.10	332.70	23.15	-45.4	-60.3	3.6	1.51e+00	0	32	104	0	60	41807
2026-01-28 01:03:39.11	332.30	23.24	-45.5	-60.3	3.6	1.51e+00	0	33	104	0	60	41776
2026-01-28 01:03:40.12	331.90	23.33	-45.5	-60.3	3.6	1.51e+00	0	33	104	0	60	41949
2026-01-28 01:03:41.13	331.50	23.42	-45.5	-60.3	3.6	1.51e+00	0	32	104	0	60	41847
2026-01-28 01:03:42.14	331.09	23.51	-45.5	-60.3	3.6	1.51e+00	0	33	104	0	60	41786
2026-01-28 01:03:43.15	330.68	23.59	-45.6	-60.3	3.6	1.51e+00	0	32	104	0	60	42010
2026-01-28 01:03:44.16	330.27	23.68	-45.6	-60.3	3.6	1.51e+00	0	32	104	0	60	41995
2026-01-28 01:03:45.17	329.86	23.76	-45.6	-60.3	3.6	1.51e+00	0	33	104	0	60	41817
2026-01-28 01:03:46.18	329.44	23.85	-45.6	-60.3	3.6	1.51e+00	0	33	104	0	60	42087
2026-01-28 01:03:47.19	329.03	23.93	-45.6	-60.4	3.6	1.51e+00	0	33	104	0	60	42274
2026-01-28 01:03:48.20	328.61	24.01	-45.6	-60.3	3.6	1.51e+00	0	32	104	0	60	42110
2026-01-28 01:03:49.21	328.18	24.09	-45.6	-60.4	3.6	1.51e+00	0	33	104	0	60	42245
2026-01-28 01:03:50.22	327.76	24.17	-45.6	-60.3	3.6	1.51e+00	0	32	104	0	60	42132
2026-01-28 01:03:51.23	327.33	24.24	-45.6	-60.4	3.6	1.51e+00	0	32	104	0	60	42274
2026-01-28 01:03:52.24	326.90	24.32	-45.7	-60.4	3.6	1.51e+00	0	33	104	0	60	42355
2026-01-28 01:03:53.25	326.47	24.39	-45.6	-60.3	3.6	1.51e+00	0	32	104	0	60	42182
2026-01-28 01:03:54.26	326.03	24.47	-45.7	-60.4	3.6	1.51e+00	0	33	104	0	60	42227
2026-01-28 01:03:55.27	325.60	24.54	-45.6	-60.4	3.6	1.51e+00	0	33	104	0	60	42569
2026-01-28 01:03:56.28	325.16	24.61	-45.7	-60.4	3.6	1.51e+00	0	32	104	0	60	42449
2026-01-28 01:03:57.29	324.72	24.68	-45.7	-60.4	3.6	1.51e+00	0	32	104	0	60	42308
2026-01-28 01:03:58.30	324.27	24.75	-45.7	-60.4	3.6	1.51e+00	0	33	104	0	60	42408
2026-01-28 01:03:59.31	323.83	24.81	-45.7	-60.4	3.6	1.51e+00	0	32	104	0	60	42528
2026-01-28 01:04:00.32	323.38	24.88	-45.7	-60.4	3.6	1.51e+00	0	32	104	0	60	42449
2026-01-28 01:04:01.33	322.93	24.94	-45.6	-60.3	3.6	1.51e+00	0	33	104	0	60	42132
2026-01-28 01:04:02.34	322.48	25.00	-45.6	-60.3	3.6	1.51e+00	0	33	104	0	60	42222
2026-01-28 01:04:03.35	322.02	25.06	-45.7	-60.4	3.6	1.51e+00	0	33	104	0	60	42520
2026-01-28 01:04:04.36	321.57	25.12	-45.7	-60.5	3.6	1.51e+00	0	32	104	0	60	42788
2026-01-28 01:04:05.37	321.11	25.18	-45.7	-60.3	3.5	1.51e+00	0	32	104	0	60	42085
2026-01-28 01:04:06.38	320.65	25.23	-45.7	-60.3	3.6	1.51e+00	0	32	104	0	60	42173
2026-01-28 01:04:07.39	320.19	25.28	-45.7	-60.5	3.6	1.51e+00	0	32	104	0	60	43136
2026-01-28 01:04:08.40	319.73	25.34	-45.7	-60.4	3.6	1.51e+00	0	32	104	0	60	42628
2026-01-28 01:04:09.41	319.26	25.38	-45.6	-60.4	3.6	1.51e+00	0	32	104	0	60	42413
2026-01-28 01:04:10.42	318.80	25.43	-45.7	-60.4	3.6	1.51e+00	0	32	104	0	60	42671
2026-01-28 01:04:11.43	318.33	25.48	-45.7	-60.4	3.6	1.51e+00	0	32	104	0	60	42479
2026-01-28 01:04:12.44	317.86	25.52	-45.7	-60.4	3.6	1.51e+00	0	33	104	0	60	42463
2026-01-28 01:04:13.45	317.39	25.57	-45.7	-60.4	3.6	1.51e+00	0	33	104	0	60	42327
2026-01-28 01:04:14.46	316.92	25.61	-45.7	-60.4	3.6	1.51e+00	0	33	104	0	60	42713
2026-01-28 01:04:15.47	316.44	25.64	-45.6	-60.4	3.6	1.51e+00	0	33	104	0	60	42575
2026-01-28 01:04:16.48	315.97	25.68	-45.7	-60.4	3.6	1.51e+00	0	33	104	0	60	42483
2026-01-28 01:04:17.49	315.49	25.72	-45.7	-60.4	3.6	1.51e+00	0	33	104	0	60	42526
2026-01-28 01:04:18.50	315.01	25.75	-45.7	-60.4	3.6	1.51e+00	0	33	104	0	60	42613
2026-01-28 01:04:19.51	314.54	25.78	-45.7	-60.4	3.6	1.51e+00	0	32	104	0	60	42394
2026-01-28 01:04:20.52	314.06	25.81	-45.6	-60.4	3.6	1.51e+00	0	33	104	0	60	42325
2026-01-28 01:04:21.53	313.58	25.84	-45.6	-60.4	3.6	1.51e+00	0	33	104	0	60	42673
2026-01-28 01:04:22.54	313.10	25.86	-45.7	-60.4	3.6	1.51e+00	0	33	104	0	60	42564
2026-01-28 01:04:23.55	312.61	25.88	-45.6	-60.4	3.6	1.51e+00	0	33	104	0	60	42635
2026-01-28 01:04:24.56	312.13	25.91	-45.6	-60.4	3.6	1.51e+00	0	32	104	0	60	42566
2026-01-28 01:04:25.56	311.65	25.92	-45.7	-60.4	3.6	1.51e+00	0	33	104	0	60	42535
2026-01-28 01:04:26.57	311.17	25.94	-45.6	-60.4	3.6	1.51e+00	0	32	104	0	60	42703
2026-01-28 01:04:27.58	310.68	25.96	-45.7	-60.4	3.6	1.51e+00	0	33	104	0	60	42569
2026-01-28 01:04:28.59	310.20	25.97	-45.6	-60.4	3.5	1.51e+00	0	32	104	0	60	42640
2026-01-28 01:04:29.60	309.71	25.98	-45.6	-60.4	3.6	1.51e+00	0	32	104	0	60	42485
2026-01-28 01:04:30.61	309.23	25.99	-45.7	-60.5	3.6	1.51e+00	0	32	104	0	60	42905
2026-01-28 01:04:31.62	308.74	26.00	-45.6	-60.4	3.5	1.51e+00	0	32	104	0	60	42671
2026-01-28 01:04:32.63	308.25	26.00	-45.6	-60.5	3.6	1.51e+00	0	32	104	0	60	42788
2026-01-28 01:04:33.64	307.77	26.00	-45.6	-60.3	3.5	1.51e+00	0	33	104	0	60	42179
2026-01-28 01:04:34.65	307.28	26.00	-45.7	-60.5	3.6	1.51e+00	0	32	104	0	60	42850
2026-01-28 01:04:35.66	306.79	26.00	-45.7	-60.4	3.6	1.51e+00	0	33	104	0	60	42512
2026-01-28 01:04:36.67	306.31	26.00	-45.6	-60.4	3.6	1.51e+00	0	33	104	0	60	42441
2026-01-28 01:04:37.68	305.82	25.99	-45.6	-60.4	3.6	1.51e+00	0	32	104	0	60	42546
2026-01-28 01:04:38.69	305.33	25.99	-45.6	-60.4	3.6	1.51e+00	0	33	104	0	60	42558
2026-01-28 01:04:39.70	304.85	25.98	-45.5	-60.4	3.6	1.51e+00	0	33	104	0	60	42564
2026-01-28 01:04:40.71	304.36	25.96	-45.5	-60.4	3.6	1.51e+00	0	32	104	0	60	42353
2026-01-28 01:04:41.72	303.87	25.95	-45.5	-60.5	3.6	1.51e+00	0	33	104	0	60	42763
2026-01-28 01:04:42.73	303.39	25.93	-45.5	-60.4	3.6	1.51e+00	0	32	104	0	60	42684
2026-01-28 01:04:43.73	302.91	25.92	-45.4	-60.4	3.6	1.51e+00	0	32	104	0	60	42375
2026-01-28 01:04:44.75	302.42	25.90	-45.5	-60.4	3.6	1.51e+00	0	33	104	0	60	42450
2026-01-28 01:04:45.75	301.94	25.87	-45.5	-60.4	3.6	1.51e+00	0	33	104	0	60	42235
2026-01-28 01:04:46.76	301.46	25.85	-45.4	-60.4	3.6	1.51e+00	0	32	104	0	60	42471
2026-01-28 01:04:47.77	300.98	25.82	-45.5	-60.4	3.6	1.51e+00	0	32	104	0	60	42455
2026-01-28 01:04:48.78	300.50	25.80	-45.5	-60.4	3.6	1.51e+00	0	32	104	0	60	42227
2026-01-28 01:04:49.79	300.02	25.77	-45.6	-60.4	3.6	1.51e+00	0	33	104	0	60	42338
2026-01-28 01:04:50.80	299.54	25.73	-45.5	-60.4	3.6	1.51e+00	0	33	104	0	60	42244
2026-01-28 01:04:51.81	299.06	25.70	-45.6	-60.4	3.6	1.51e+00	0	33	104	0	60	42460
2026-01-28 01:04:52.82	298.59	25.66	-45.5	-60.3	3.6	1.51e+00	0	32	104	0	60	42090
2026-01-28 01:04:53.83	298.11	25.63	-45.6	-60.3	3.6	1.51e+00	0	32	104	0	60	42196
2026-01-28 01:04:54.84	297.64	25.59	-45.6	-60.4	3.6	1.51e+00	0	32	104	0	60	42275
2026-01-28 01:04:55.85	297.16	25.55	-45.6	-60.4	3.6	1.51e+00	0	33	104	0	60	42327
2026-01-28 01:04:56.86	296.69	25.50	-45.6	-60.3	3.6	1.51e+00	0	32	104	0	60	42062
2026-01-28 01:04:57.87	296.22	25.46	-45.6	-60.4	3.6	1.51e+00	0	32	104	0	60	42438
2026-01-28 01:04:58.88	295.76	25.41	-45.6	-60.4	3.6	1.51e+00	0	33	104	0	60	42359
2026-01-28 01:04:59.89	295.29	25.36	-45.6	-60.4	3.6	1.51e+00	0	33	104	0	60	42246
2026-01-28 01:05:00.90	294.82	25.31	-45.6	-60.3	3.6	1.51e+00	0	33	104	0	60	42183
2026-01-28 01:05:01.91	294.36	25.26	-45.6	-60.3	3.6	1.51e+00	0	32	104	0	60	42021
2026-01-28 01:05:02.92	293.90	25.20	-45.7	-60.3	3.6	1.51e+00	0	32	104	0	60	42137
2026-01-28 01:05:03.93	293.44	25.15	-45.7	-60.4	3.6	1.51e+00	0	32	104	0	60	42268
2026-01-28 01:05:04.94	292.98	25.09	-45.6	-60.3	3.6	1.51e+00	0	32	104	0	60	42103
2026-01-28 01:05:05.95	292.52	25.03	-45.6	-60.4	3.6	1.51e+00	0	32	104	0	60	42360
2026-01-28 01:05:06.96	292.07	24.97	-45.6	-60.4	3.6	1.51e+00	0	32	104	0	60	42239
2026-01-28 01:05:07.97	291.62	24.91	-45.6	-60.3	3.6	1.51e+00	0	33	104	0	60	41991
2026-01-28 01:05:08.98	291.17	24.84	-45.6	-60.3	3.6	1.51e+00	0	33	104	0	60	41989
2026-01-28 01:05:09.99	290.72	24.78	-45.6	-60.4	3.6	1.51e+00	0	33	104	0	60	42375
2026-01-28 01:05:11.00	290.27	24.71	-45.7	-60.3	3.6	1.51e+00	0	33	104	0	60	42131
2026-01-28 01:05:12.01	289.83	24.64	-45.7	-60.4	3.5	1.51e+00	0	32	104	0	60	42383
2026-01-28 01:05:13.02	289.39	24.57	-45.7	-60.3	3.6	1.51e+00	0	32	104	0	60	42051
2026-01-28 01:05:14.03	288.95	24.50	-45.6	-60.3	3.6	1.51e+00	0	33	104	0	60	42132
2026-01-28 01:05:15.05	288.50	24.43	-45.7	-60.3	3.6	1.51e+00	0	33	104	0	60	42201
2026-01-28 01:05:16.05	288.07	24.36	-45.6	-60.3	3.6	1.51e+00	0	33	104	0	60	42212
2026-01-28 01:05:17.06	287.64	24.28	-45.6	-60.3	3.6	1.51e+00	0	33	104	0	60	42153
2026-01-28 01:05:18.07	287.21	24.20	-45.7	-60.3	3.6	1.51e+00	0	32	104	0	60	42016
2026-01-28 01:05:19.08	286.78	24.12	-45.6	-60.3	3.6	1.51e+00	0	32	104	0	60	41918
2026-01-28 01:05:20.09	286.35	24.04	-45.7	-60.3	3.6	1.51e+00	0	32	104	0	60	42124
2026-01-28 01:05:21.11	285.93	23.96	-45.6	-60.3	3.6	1.51e+00	0	32	104	0	60	42097
2026-01-28 01:05:22.11	285.51	23.88	-45.6	-60.3	3.6	1.51e+00	0	32	104	0	60	42108
2026-01-28 01:05:23.12	285.09	23.80	-45.6	-60.3	3.6	1.51e+00	0	32	104	0	60	42216
2026-01-28 01:05:24.13	284.67	23.71	-45.6	-60.3	3.6	1.51e+00	0	33	104	0	60	41744
2026-01-28 01:05:25.14	284.26	23.63	-45.6	-60.3	3.6	1.51e+00	0	33	104	0	60	41832
2026-01-28 01:05:26.15	283.85	23.54	-45.6	-60.3	3.6	1.51e+00	0	32	104	0	60	41950
2026-01-28 01:05:27.16	283.44	23.45	-45.6	-60.2	3.6	1.51e+00	0	32	104	0	60	41716
2026-01-28 01:05:28.17	283.04	23.37	-45.6	-60.3	3.6	1.51e+00	0	32	104	0	60	41792
2026-01-28 01:05:29.19	282.63	23.28	-45.0	-60.3	3.6	1.51e+00	0	32	104	0	60	41915
2026-01-28 01:05:30.20	282.23	23.18	-44.9	-60.3	3.6	1.51e+00	0	32	104	0	60	42088
2026-01-28 01:05:31.21	281.83	23.09	-45.3	-60.3	3.6	1.51e+00	0	33	104	0	60	41779
2026-01-28 01:05:32.22	281.43	23.00	-45.0	-60.3	3.6	1.51e+00	0	33	104	0	60	41809
2026-01-28 01:05:33.23	281.04	22.91	-45.1	-60.3	3.6	1.51e+00	0	33	104	0	60	41771
2026-01-28 01:05:34.24	280.65	22.81	-45.6	-60.2	3.6	1.51e+00	0	33	104	0	60	41712
2026-01-28 01:05:35.25	280.26	22.72	-45.6	-60.3	3.6	1.51e+00	0	33	104	0	60	41839
2026-01-28 01:05:36.26	279.88	22.62	-45.6	-60.3	3.6	1.51e+00	0	33	104	0	60	41891
2026-01-28 01:05:37.27	279.50	22.52	-45.6	-60.3	3.6	1.51e+00	0	33	104	0	60	41745
2026-01-28 01:05:38.28	279.12	22.43	-45.6	-60.3	3.6	1.51e+00	0	33	104	0	60	41851
2026-01-28 01:05:39.29	278.74	22.33	-45.6	-60.2	3.6	1.51e+00	0	33	104	0	60	41467
2026-01-28 01:05:40.30	278.36	22.23	-45.6	-60.3	3.6	1.51e+00	0	33	104	0	60	41905
2026-01-28 01:05:41.30	278.00	22.13	-45.6	-60.2	3.6	1.51e+00	0	32	104	0	60	41714
2026-01-28 01:05:42.31	277.63	22.03	-45.6	-60.2	3.6	1.51e+00	0	32	104	0	60	41515
2026-01-28 01:05:43.32	277.26	21.93	-45.6	-60.2	3.6	1.51e+00	0	32	104	0	60	41670
2026-01-28 01:05:44.33	276.90	21.83	-45.6	-60.2	3.6	1.51e+00	0	33	104	0	60	41585
2026-01-28 01:05:45.34	276.54	21.73	-45.6	-60.3	3.6	1.51e+00	0	33	104	0	60	41756
2026-01-28 01:05:46.35	276.18	21.62	-45.6	-60.2	3.6	1.51e+00	0	33	104	0	60	41726
2026-01-28 01:05:47.36	275.82	21.52	-45.6	-60.2	3.6	1.51e+00	0	33	104	0	60	41702
2026-01-28 01:05:48.37	275.47	21.42	-45.6	-60.2	3.6	1.51e+00	0	33	104	0	60	41650
2026-01-28 01:05:49.38	275.12	21.31	-45.6	-60.2	3.6	1.51e+00	0	33	104	0	60	41638
2026-01-28 01:05:50.39	274.77	21.21	-45.5	-60.3	3.6	1.51e+00	0	33	104	0	60	41795
2026-01-28 01:05:51.40	274.43	21.10	-45.6	-60.2	3.6	1.51e+00	0	33	104	0	60	41643
2026-01-28 01:05:52.41	274.09	21.00	-45.5	-60.2	3.6	1.51e+00	0	33	104	0	60	41601
2026-01-28 01:05:53.42	273.75	20.89	-45.5	-60.3	3.6	1.51e+00	0	33	104	0	60	41797
2026-01-28 01:05:54.43	273.41	20.78	-45.5	-60.2	3.6	1.51e+00	0	33	104	0	60	41399
2026-01-28 01:05:55.44	273.08	20.68	-45.5	-60.3	3.6	1.51e+00	0	33	104	0	60	41781
2026-01-28 01:05:56.45	272.75	20.57	-45.5	-60.2	3.6	1.51e+00	0	33	104	0	60	41570
2026-01-28 01:05:57.46	272.42	20.46	-45.5	-60.2	3.6	1.51e+00	0	33	104	0	60	41288
2026-01-28 01:05:58.47	272.09	20.36	-45.5	-60.2	3.6	1.51e+00	0	33	104	0	60	41391
2026-01-28 01:05:59.48	271.77	20.25	-45.5	-60.2	3.6	1.51e+00	0	33	104	0	60	41450
2026-01-28 01:06:00.49	271.45	20.14	-45.5	-60.2	3.6	1.51e+00	0	33	104	0	60	41337
2026-01-28 01:06:01.49	271.13	20.03	-45.5	-60.2	3.6	1.51e+00	0	33	104	0	60	41514
2026-01-28 01:06:02.50	270.82	19.92	-45.5	-60.2	3.6	1.51e+00	0	32	104	0	60	41452
2026-01-28 01:06:03.51	270.50	19.81	-45.5	-60.2	3.6	1.51e+00	0	33	104	0	60	41422
2026-01-28 01:06:04.52	270.19	19.70	-45.5	-60.1	3.6	1.51e+00	0	33	104	0	60	41150
2026-01-28 01:06:05.53	269.88	19.60	-45.5	-60.2	3.6	1.51e+00	0	33	104	0	60	41355
2026-01-28 01:06:06.54	269.58	19.49	-45.5	-60.2	3.6	1.51e+00	0	33	104	0	60	41319
2026-01-28 01:06:07.55	269.28	19.38	-45.5	-60.2	3.6	1.51e+00	0	33	104	0	60	41443
2026-01-28 01:06:08.56	268.97	19.27	-45.5	-60.1	3.6	1.51e+00	0	33	104	0	60	41257
2026-01-28 01:06:09.57	268.68	19.16	-45.5	-60.2	3.6	1.51e+00	0	33	104	0	60	41383
2026-01-28 01:06:10.58	268.38	19.05	-45.5	-60.2	3.6	1.51e+00	0	33	104	0	60	41393
2026-01-28 01:06:11.59	268.09	18.94	-45.5	-60.1	3.6	1.51e+00	0	33	104	0	60	41250
2026-01-28 01:06:12.60	267.80	18.83	-45.5	-60.2	3.6	1.51e+00	0	33	104	0	60	41372
2026-01-28 01:06:13.61	267.51	18.72	-45.5	-60.2	3.6	1.51e+00	0	33	104	0	60	41281
2026-01-28 01:06:14.62	267.22	18.61	-45.5	-60.1	3.6	1.51e+00	0	33	104	0	60	41116
2026-01-28 01:06:15.63	266.94	18.50	-45.5	-60.2	3.6	1.51e+00	0	33	104	0	60	41314
2026-01-28 01:06:16.64	266.66	18.39	-45.5	-60.1	3.6	1.51e+00	0	33	104	0	60	41244
2026-01-28 01:06:17.64	266.38	18.28	-45.5	-60.2	3.6	1.51e+00	0	33	104	0	60	41372
2026-01-28 01:06:18.65	266.11	18.17	-45.5	-60.1	3.6	1.51e+00	0	33	104	0	60	41029
2026-01-28 01:06:19.66	265.83	18.06	-45.5	-60.1	3.6	1.51e+00	0	33	104	0	60	41104
2026-01-28 01:06:20.67	265.56	17.95	-45.5	-60.1	3.6	1.51e+00	0	33	104	0	60	41157
2026-01-28 01:06:21.68	265.29	17.84	-45.5	-60.1	3.6	1.51e+00	0	33	104	0	60	41098
2026-01-28 01:06:22.69	265.02	17.73	-45.4	-60.1	3.6	1.51e+00	0	33	104	0	60	41094
2026-01-28 01:06:23.70	264.76	17.62	-45.4	-60.1	3.6	1.51e+00	0	33	104	0	60	40986
2026-01-28 01:06:24.71	264.50	17.51	-45.4	-60.1	3.6	1.51e+00	0	33	104	0	60	41174
2026-01-28 01:06:25.72	264.24	17.40	-45.4	-60.1	3.6	1.51e+00	0	33	104	0	60	41174
2026-01-28 01:06:26.73	263.98	17.29	-45.4	-60.1	3.6	1.51e+00	0	33	104	0	60	40902
2026-01-28 01:06:27.74	263.72	17.18	-45.4	-60.1	3.6	1.51e+00	0	33	104	0	60	41102
2026-01-28 01:06:28.75	263.47	17.07	-45.4	-60.1	3.6	1.51e+00	0	33	104	0	60	41088
2026-01-28 01:06:29.76	263.22	16.96	-45.4	-60.1	3.6	1.51e+00	0	33	104	0	60	41055
2026-01-28 01:06:30.77	262.97	16.85	-45.4	-60.1	3.6	1.51e+00	0	33	104	0	60	41076
2026-01-28 01:06:31.78	262.72	16.74	-45.4	-60.1	3.6	1.51e+00	0	33	104	0	60	41062
2026-01-28 01:06:32.79	262.47	16.63	-45.4	-60.1	3.6	1.51e+00	0	33	104	0	60	40978
2026-01-28 01:06:33.80	262.23	16.52	-45.5	-60.1	3.6	1.51e+00	0	32	104	0	60	41008
2026-01-28 01:06:34.81	261.99	16.42	-45.4	-60.0	3.6	1.51e+00	0	33	104	0	60	40759
2026-01-28 01:06:35.82	261.75	16.31	-45.4	-60.0	3.6	1.51e+00	0	33	104	0	60	40789
2026-01-28 01:06:36.83	261.51	16.20	-45.4	-60.1	3.6	1.51e+00	0	33	104	0	60	41021
2026-01-28 01:06:37.84	261.28	16.09	-45.4	-60.0	3.6	1.51e+00	0	33	104	0	60	40755
2026-01-28 01:06:38.85	261.04	15.98	-45.4	-60.0	3.6	1.51e+00	0	33	104	0	60	40763
2026-01-28 01:06:39.86	260.81	15.88	-45.4	-60.1	3.6	1.51e+00	0	33	104	0	60	40817
2026-01-28 01:06:40.87	260.58	15.77	-45.4	-60.1	3.6	1.51e+00	0	33	104	0	60	40943
2026-01-28 01:06:41.88	260.36	15.66	-45.4	-60.1	3.6	1.51e+00	0	32	104	0	60	41029
2026-01-28 01:06:42.89	260.13	15.55	-45.4	-60.0	3.5	1.51e+00	0	33	104	0	60	40662
2026-01-28 01:06:43.90	259.91	15.45	-45.3	-60.0	3.6	1.51e+00	0	33	104	0	60	40438
2026-01-28 01:06:44.91	259.69	15.34	-45.4	-60.0	3.6	1.51e+00	0	33	104	0	60	40716
2026-01-28 01:06:45.92	259.47	15.23	-45.4	-60.0	3.6	1.51e+00	0	33	104	0	60	40775
2026-01-28 01:06:46.93	259.25	15.13	-45.3	-60.0	3.6	1.51e+00	0	33	104	0	60	40743
2026-01-28 01:06:47.94	259.03	15.02	-45.4	-60.0	3.6	1.51e+00	0	33	104	0	60	40651
2026-01-28 01:06:48.95	258.82	14.92	-45.4	-60.0	3.6	1.51e+00	0	33	104	0	60	40580
2026-01-28 01:06:49.95	258.61	14.81	-45.3	-60.0	3.6	1.51e+00	0	33	104	0	60	40483
2026-01-28 01:06:50.96	258.40	14.71	-45.3	-60.0	3.6	1.51e+00	0	33	104	0	60	40594
2026-01-28 01:06:51.97	258.19	14.60	-45.3	-60.0	3.6	1.51e+00	0	33	104	0	60	40560
2026-01-28 01:06:52.98	257.98	14.50	-45.4	-60.0	3.6	1.51e+00	0	33	104	0	60	40722
2026-01-28 01:06:53.99	257.78	14.39	-45.4	-60.1	3.6	1.51e+00	0	33	104	0	60	40818
2026-01-28 01:06:55.00	257.57	14.29	-45.3	-60.0	3.6	1.51e+00	0	33	104	0	60	40568
2026-01-28 01:06:56.01	257.37	14.19	-45.3	-60.0	3.6	1.51e+00	0	33	104	0	60	40626
2026-01-28 01:06:57.02	257.17	14.08	-45.3	-59.9	3.6	1.51e+00	0	33	104	0	60	40210
2026-01-28 01:06:58.03	256.97	13.98	-45.3	-60.0	3.6	1.51e+00	0	32	104	0	60	40543
2026-01-28 01:06:59.04	256.78	13.88	-45.3	-60.0	3.6	1.51e+00	0	33	104	0	60	40438
2026-01-28 01:07:00.05	256.58	13.77	-45.3	-60.0	3.6	1.51e+00	0	33	104	0	60	40487
2026-01-28 01:07:01.06	256.39	13.67	-45.3	-60.0	3.6	1.51e+00	0	32	104	0	60	40339
2026-01-28 01:07:02.07	256.20	13.57	-45.3	-60.0	3.6	1.51e+00	0	32	104	0	60	40506
2026-01-28 01:07:03.08	256.01	13.47	-45.3	-60.0	3.6	1.51e+00	0	33	104	0	60	40385
2026-01-28 01:07:04.08	255.82	13.37	-45.3	-60.0	3.6	1.51e+00	0	32	104	0	60	40345
2026-01-28 01:07:05.09	255.63	13.27	-45.3	-60.0	3.5	1.51e+00	0	33	104	0	60	40336
2026-01-28 01:07:06.10	255.45	13.17	-45.3	-60.0	3.6	1.51e+00	0	32	104	0	60	40649
2026-01-28 01:07:07.11	255.26	13.07	-45.2	-59.9	3.6	1.51e+00	0	33	104	0	60	40079
2026-01-28 01:07:08.12	255.08	12.96	-45.3	-60.0	3.6	1.51e+00	0	32	104	0	60	40421
2026-01-28 01:07:09.13	254.90	12.86	-45.3	-59.9	3.6	1.51e+00	0	32	104	0	60	40078
2026-01-28 01:07:10.14	254.72	12.77	-45.3	-59.9	3.6	1.51e+00	0	32	104	0	60	40132
2026-01-28 01:07:11.15	254.54	12.67	-45.2	-59.9	3.6	1.51e+00	0	32	104	0	60	40046
2026-01-28 01:07:12.16	254.37	12.57	-45.2	-59.9	3.6	1.51e+00	0	32	104	0	60	40077
2026-01-28 01:07:13.17	254.19	12.47	-45.2	-59.9	3.6	1.51e+00	0	32	104	0	60	40299
2026-01-28 01:07:14.18	254.02	12.37	-45.3	-59.9	3.6	1.51e+00	0	32	104	0	60	40286
2026-01-28 01:07:15.19	253.84	12.27	-45.2	-59.9	3.6	1.51e+00	0	33	104	0	60	40079
2026-01-28 01:07:16.20	253.67	12.17	-45.2	-59.9	3.6	1.51e+00	0	33	104	0	60	39988
2026-01-28 01:07:17.21	253.50	12.08	-45.2	-59.9	3.6	1.51e+00	0	32	104	0	60	40090
2026-01-28 01:07:18.22	253.34	11.98	-45.2	-59.9	3.6	1.51e+00	0	32	104	0	60	40249
2026-01-28 01:07:19.23	253.17	11.88	-45.2	-59.9	3.6	1.51e+00	0	32	104	0	60	40066
2026-01-28 01:07:20.23	253.01	11.79	-45.2	-59.9	3.6	1.51e+00	0	32	104	0	60	40109
2026-01-28 01:07:21.25	252.84	11.69	-45.2	-59.9	3.6	1.51e+00	0	33	104	0	60	40050
2026-01-28 01:07:22.25	252.68	11.59	-45.2	-59.9	3.6	1.51e+00	0	33	104	0	60	40016
2026-01-28 01:07:23.26	252.52	11.50	-45.1	-59.8	3.6	1.51e+00	0	33	104	0	60	39589
2026-01-28 01:07:24.27	252.36	11.40	-45.2	-59.9	3.6	1.51e+00	0	32	104	0	60	39911
2026-01-28 01:07:25.28	252.20	11.31	-45.2	-59.9	3.6	1.51e+00	0	32	104	0	60	39897
2026-01-28 01:07:26.29	252.04	11.21	-45.2	-59.8	3.6	1.51e+00	0	33	104	0	60	39749
2026-01-28 01:07:27.30	251.88	11.12	-45.2	-59.8	3.5	1.51e+00	0	32	104	0	60	39834
2026-01-28 01:07:28.31	251.73	11.02	-45.2	-59.8	3.6	1.51e+00	0	32	104	0	60	39682
2026-01-28 01:07:29.32	251.57	10.93	-45.2	-59.8	3.6	1.51e+00	0	32	104	0	60	39631
2026-01-28 01:07:30.33	251.42	10.84	-45.2	-59.8	3.6	1.51e+00	0	32	104	0	60	39625
2026-01-28 01:07:31.34	251.27	10.74	-45.0	-59.8	3.6	1.51e+00	0	32	104	0	60	39508
2026-01-28 01:07:32.35	251.12	10.65	-45.1	-59.8	3.6	1.51e+00	0	33	104	0	60	39422
2026-01-28 01:07:33.36	250.97	10.56	-45.1	-59.8	3.6	1.51e+00	0	33	104	0	60	39569
2026-01-28 01:07:34.37	250.82	10.47	-45.1	-59.8	3.6	1.51e+00	0	33	104	0	60	39557
2026-01-28 01:07:35.38	250.68	10.37	-45.1	-59.7	3.6	1.51e+00	0	32	104	0	60	39293
2026-01-28 01:07:36.39	250.53	10.28	-45.1	-59.8	3.6	1.51e+00	0	33	104	0	60	39588
2026-01-28 01:07:37.40	250.39	10.19	-45.1	-59.8	3.6	1.51e+00	0	32	104	0	60	39541
2026-01-28 01:07:38.41	250.24	10.10	-45.1	-59.8	3.6	1.51e+00	0	32	104	0	60	39456
2026-01-28 01:07:39.42	250.10	10.01	-45.0	-59.7	3.6	1.51e+00	0	33	104	0	60	39348
2026-01-28 01:07:40.43	249.96	9.92	-45.1	-59.8	3.6	1.51e+00	0	32	104	0	60	39446
2026-01-28 01:07:41.44	249.82	9.83	-45.1	-59.7	3.6	1.51e+00	0	32	104	0	60	39397
2026-01-28 01:07:42.45	249.68	9.74	-45.1	-59.8	3.6	1.51e+00	0	32	104	0	60	39419
2026-01-28 01:07:43.46	249.54	9.65	-45.0	-59.7	3.6	1.51e+00	0	32	104	0	60	39059
2026-01-28 01:07:44.47	249.41	9.56	-45.1	-59.7	3.6	1.51e+00	0	32	104	0	60	39311
2026-01-28 01:07:45.48	249.27	9.47	-45.1	-59.7	3.6	1.51e+00	0	32	104	0	60	39304
2026-01-28 01:07:46.49	249.13	9.38	-45.0	-59.6	3.6	1.51e+00	0	32	104	0	60	38954
2026-01-28 01:07:47.50	249.00	9.29	-44.9	-59.6	3.6	1.51e+00	0	32	104	0	60	38830
2026-01-28 01:07:48.51	248.87	9.20	-45.0	-59.7	3.6	1.51e+00	0	32	104	0	60	38957
2026-01-28 01:07:49.52	248.74	9.12	-45.0	-59.7	3.6	1.51e+00	0	32	104	0	60	39061
2026-01-28 01:07:50.53	248.61	9.03	-45.0	-59.7	3.5	1.51e+00	0	32	104	0	60	39134
2026-01-28 01:07:51.54	248.48	8.94	-44.9	-59.6	3.6	1.51e+00	0	33	104	0	60	38937
2026-01-28 01:07:52.55	248.35	8.85	-44.9	-59.6	3.6	1.51e+00	0	33	104	0	60	38605
2026-01-28 01:07:53.56	248.22	8.77	-45.0	-59.7	3.6	1.51e+00	0	32	104	0	60	38966
2026-01-28 01:07:54.57	248.09	8.68	-44.9	-59.6	3.6	1.51e+00	0	33	104	0	60	38598
2026-01-28 01:07:55.58	247.97	8.59	-44.9	-59.6	3.6	1.51e+00	0	33	104	0	60	38550
2026-01-28 01:07:56.59	247.84	8.51	-44.8	-59.6	3.6	1.51e+00	0	33	104	0	60	38923
2026-01-28 01:07:57.60	247.72	8.42	-44.8	-59.6	3.6	1.51e+00	0	33	104	0	60	38622
2026-01-28 01:07:58.61	247.60	8.34	-44.9	-59.5	3.6	1.51e+00	0	33	104	0	60	38377
2026-01-28 01:07:59.62	247.47	8.25	-44.7	-59.4	3.6	1.51e+00	0	33	104	0	60	37983
2026-01-28 01:08:00.63	247.35	8.17	-44.8	-59.5	3.6	1.51e+00	0	33	104	0	60	38104
2026-01-28 01:08:01.64	247.23	8.08	-44.8	-59.5	3.6	1.51e+00	0	32	104	0	60	38339
2026-01-28 01:08:02.65	247.11	8.00	-44.7	-59.5	3.6	1.51e+00	0	32	104	0	60	38086
2026-01-28 01:08:03.66	246.99	7.92	-44.6	-59.3	3.6	1.51e+00	0	32	104	0	60	37598
2026-01-28 01:08:04.67	246.88	7.83	-44.7	-59.4	3.6	1.51e+00	0	33	104	0	60	37763
2026-01-28 01:08:05.68	246.76	7.75	-44.6	-59.4	3.6	1.51e+00	0	33	104	0	60	37721
2026-01-28 01:08:06.69	246.64	7.67	-44.6	-59.3	3.6	1.51e+00	0	32	104	0	60	37459
2026-01-28 01:08:07.70	246.53	7.58	-44.5	-59.2	3.6	1.51e+00	0	33	104	0	60	37090
2026-01-28 01:08:08.71	246.41	7.50	-44.6	-59.3	3.6	1.51e+00	0	33	104	0	60	37347
2026-01-28 01:08:09.72	246.30	7.42	-44.6	-59.3	3.6	1.51e+00	0	33	104	0	60	37601
2026-01-28 01:08:10.73	246.19	7.34	-44.3	-59.2	3.6	1.51e+00	0	33	104	0	60	36943
2026-01-28 01:08:11.74	246.07	7.25	-44.3	-59.2	3.6	1.51e+00	0	32	104	0	60	36854
2026-01-28 01:08:12.75	245.96	7.17	-44.3	-59.2	3.6	1.51e+00	0	32	104	0	60	36827
2026-01-28 01:08:13.76	245.85	7.09	-44.4	-59.1	3.6	1.51e+00	0	32	104	0	60	36734
2026-01-28 01:08:14.77	245.74	7.01	-44.3	-59.1	3.6	1.51e+00	0	32	104	0	60	36691
2026-01-28 01:08:15.78	245.64	6.93	-44.4	-59.1	3.6	1.51e+00	0	32	104	0	60	36448
2026-01-28 01:08:16.79	245.53	6.85	-44.3	-59.1	3.6	1.51e+00	0	32	104	0	60	36763
2026-01-28 01:08:17.80	245.42	6.77	-44.4	-59.1	3.6	1.51e+00	0	32	104	0	60	36517
2026-01-28 01:08:18.81	245.31	6.69	-44.4	-59.0	3.6	1.51e+00	0	32	104	0	60	36345
2026-01-28 01:08:19.82	245.21	6.61	-44.3	-59.1	3.6	1.51e+00	0	32	104	0	60	36454
2026-01-28 01:08:20.83	245.10	6.53	-44.3	-59.1	3.6	1.51e+00	0	32	104	0	60	36541
2026-01-28 01:08:21.84	245.00	6.45	-44.3	-59.0	3.6	1.51e+00	0	33	104	0	60	36092
2026-01-28 01:08:22.85	244.90	6.37	-44.2	-59.0	3.6	1.51e+00	0	33	104	0	60	35986
2026-01-28 01:08:23.86	244.79	6.29	-44.2	-58.9	3.6	1.51e+00	0	33	104	0	60	35757
2026-01-28 01:08:24.87	244.69	6.22	-44.3	-59.0	3.6	1.51e+00	0	32	104	0	60	36352
2026-01-28 01:08:25.89	244.59	6.14	-44.1	-59.0	3.6	1.51e+00	0	32	104	0	60	36016
2026-01-28 01:08:26.89	244.49	6.06	-44.1	-58.8	3.6	1.51e+00	0	32	104	0	60	35268
2026-01-28 01:08:27.90	244.39	5.98	-43.9	-58.8	3.6	1.51e+00	0	33	104	0	60	35518
2026-01-28 01:08:28.92	244.29	5.90	-44.2	-58.9	3.6	1.51e+00	0	33	104	0	60	35862
2026-01-28 01:08:29.92	244.19	5.83	-44.2	-58.9	3.6	1.51e+00	0	32	104	0	60	35830
2026-01-28 01:08:30.94	244.09	5.75	-43.8	-58.8	3.6	1.51e+00	0	32	104	0	60	35201
2026-01-28 01:08:31.95	244.00	5.67	-43.9	-58.8	3.6	1.51e+00	0	32	104	0	60	35153
2026-01-28 01:08:32.96	243.90	5.60	-44.1	-58.8	3.6	1.51e+00	0	32	104	0	60	35367
2026-01-28 01:08:33.96	243.80	5.52	-44.0	-58.9	3.6	1.51e+00	0	33	104	0	60	35640
2026-01-28 01:08:34.98	243.71	5.44	-44.1	-59.0	3.6	1.51e+00	0	33	104	0	60	35941
2026-01-28 01:08:35.99	243.61	5.37	-44.2	-59.0	3.6	1.51e+00	0	33	104	0	60	36348
2026-01-28 01:08:37.00	243.52	5.29	-43.8	-58.8	3.6	1.51e+00	0	33	104	0	60	35173
2026-01-28 01:08:38.01	243.43	5.22	-44.1	-58.9	3.6	1.51e+00	0	33	104	0	60	35688
2026-01-28 01:08:39.02	243.33	5.14	-44.6	-59.4	3.6	1.51e+00	0	33	104	0	60	38004
2026-01-28 01:08:40.03	243.24	5.07	-44.1	-59.0	3.6	1.51e+00	0	33	104	0	60	36275
2026-01-28 01:08:41.04	243.15	4.99	-44.2	-59.0	3.6	1.51e+00	0	32	104	0	60	36308
2026-01-28 01:08:42.04	243.06	4.92	-44.1	-59.0	3.6	1.51e+00	0	32	104	0	60	36040
2026-01-28 01:08:43.05	242.97	4.85	-43.6	-58.8	3.6	1.51e+00	0	32	104	0	60	35126
2026-01-28 01:08:44.06	242.88	4.77	-43.5	-58.8	3.6	1.51e+00	0	33	104	0	60	35355
2026-01-28 01:08:45.07	242.79	4.70	-43.8	-58.8	3.6	1.51e+00	0	32	104	0	60	35445
2026-01-28 01:08:46.08	242.70	4.62	-43.8	-58.6	3.6	1.51e+00	0	32	104	0	60	34662
2026-01-28 01:08:47.09	242.61	4.55	-44.0	-58.9	3.6	1.51e+00	0	32	104	0	60	35721
2026-01-28 01:08:48.10	242.53	4.48	-43.6	-58.6	3.6	1.51e+00	0	32	104	0	60	34592
2026-01-28 01:08:49.11	242.44	4.41	-43.1	-58.4	3.6	1.51e+00	0	32	104	0	60	33857
2026-01-28 01:08:50.12	242.35	4.33	-43.6	-58.5	3.6	1.51e+00	0	32	104	0	60	34139
2026-01-28 01:08:51.13	242.27	4.26	-43.4	-58.6	3.6	1.51e+00	0	33	104	0	60	34405
2026-01-28 01:08:52.15	242.18	4.19	-44.0	-59.0	3.6	1.51e+00	0	33	104	0	60	36108
2026-01-28 01:08:53.16	242.10	4.12	-43.3	-58.3	3.6	1.51e+00	0	33	104	0	60	33396
2026-01-28 01:08:54.16	242.02	4.04	-43.6	-58.6	3.6	1.51e+00	0	32	104	0	60	34628
2026-01-28 01:08:55.17	241.93	3.97	-43.4	-58.3	3.6	1.51e+00	0	32	104	0	60	33481
2026-01-28 01:08:56.19	241.85	3.90	-43.3	-58.4	3.6	1.51e+00	0	32	104	0	60	33605
2026-01-28 01:08:57.20	241.77	3.83	-43.3	-58.4	3.5	1.51e+00	0	32	104	0	60	33834
2026-01-28 01:08:58.20	241.68	3.76	-43.4	-58.5	3.6	1.51e+00	0	33	104	0	60	33954
2026-01-28 01:08:59.21	241.60	3.69	-44.1	-59.2	3.6	1.51e+00	0	32	104	0	60	36972
2026-01-28 01:09:00.23	241.52	3.62	-44.0	-58.9	3.6	1.51e+00	0	32	104	0	60	35755
2026-01-28 01:09:01.24	241.44	3.55	-45.1	-59.9	3.6	1.51e+00	0	32	104	0	60	40037
2026-01-28 01:09:02.24	241.36	3.48	-44.3	-59.5	3.6	1.51e+00	0	32	104	0	60	38170
2026-01-28 01:09:03.25	241.28	3.41	-43.8	-58.7	3.6	1.51e+00	0	32	104	0	60	34886
2026-01-28 01:09:04.26	241.20	3.34	-43.9	-58.9	3.6	1.51e+00	0	32	104	0	60	35701
2026-01-28 01:09:05.27	241.13	3.27	-43.9	-59.0	3.6	1.51e+00	0	33	104	0	60	35960
2026-01-28 01:09:06.28	241.05	3.20	-44.1	-59.1	3.6	1.51e+00	0	32	104	0	60	36664
2026-01-28 01:09:07.29	240.97	3.13	-44.1	-59.1	3.6	1.51e+00	0	32	104	0	60	36741
2026-01-28 01:09:08.30	240.89	3.06	-44.3	-59.5	3.5	1.51e+00	0	32	104	0	60	38170
2026-01-28 01:09:09.31	240.82	2.99	-42.7	-58.8	3.6	1.51e+00	0	32	104	0	60	35153
2026-01-28 01:09:10.32	240.74	2.92	-44.0	-58.9	3.6	1.51e+00	0	32	104	0	60	35638
2026-01-28 01:09:11.33	240.67	2.85	-44.9	-59.6	3.6	1.51e+00	0	32	104	0	60	38744
2026-01-28 01:09:12.34	240.59	2.79	-45.3	-60.0	3.6	1.51e+00	0	32	104	0	60	40534
2026-01-28 01:09:13.35	240.52	2.72	-45.5	-60.2	3.6	1.51e+00	0	32	104	0	60	41509
2026-01-28 01:09:14.36	240.44	2.65	-45.6	-60.2	3.6	1.51e+00	0	32	104	0	60	41717
2026-01-28 01:09:15.37	240.37	2.58	-45.7	-60.4	3.6	1.51e+00	0	32	104	0	60	42311
2026-01-28 01:09:16.38	240.30	2.51	-45.8	-60.5	3.6	1.51e+00	0	32	104	0	60	42814
2026-01-28 01:09:17.39	240.23	2.45	-45.8	-60.5	3.6	1.51e+00	0	33	104	0	60	43078
2026-01-28 01:09:18.40	240.15	2.38	-45.9	-60.5	3.6	1.51e+00	0	33	104	0	60	43035
2026-01-28 01:09:19.41	240.08	2.31	-45.9	-60.5	3.6	1.51e+00	0	32	104	0	60	43118
2026-01-28 01:09:20.43	240.01	2.25	-45.9	-60.6	3.6	1.51e+00	0	32	104	0	60	43333
2026-01-28 01:09:21.44	239.94	2.18	-45.9	-60.6	3.6	1.51e+00	0	32	104	0	60	43509
2026-01-28 01:09:22.45	239.87	2.11	-45.9	-60.6	3.6	1.51e+00	0	33	104	0	60	43319
2026-01-28 01:09:23.45	239.80	2.05	-45.9	-60.6	3.6	1.51e+00	0	33	104	0	60	43510
2026-01-28 01:09:24.46	239.73	1.98	-45.7	-60.6	3.6	1.51e+00	0	33	104	0	60	43609
2026-01-28 01:09:25.47	239.66	1.91	-45.9	-60.8	3.6	1.51e+00	0	33	104	0	60	44609
2026-01-28 01:09:26.48	239.59	1.85	-45.6	-60.6	3.6	1.51e+00	0	32	104	0	60	43229
2026-01-28 01:09:27.49	239.52	1.78	-45.8	-60.5	3.6	1.51e+00	0	32	104	0	60	43046
2026-01-28 01:09:28.50	239.45	1.72	-45.5	-60.5	3.6	1.51e+00	0	32	104	0	60	42843
2026-01-28 01:09:29.51	239.39	1.65	-46.0	-60.8	3.6	1.51e+00	0	32	104	0	60	44724
2026-01-28 01:09:30.52	239.32	1.59	-45.6	-60.5	3.6	1.51e+00	0	33	104	0	60	42914
2026-01-28 01:09:31.53	239.25	1.52	-45.7	-60.4	3.6	1.51e+00	0	33	104	0	60	42612
2026-01-28 01:09:32.53	239.19	1.46	-45.7	-60.4	3.5	1.51e+00	0	33	104	0	60	42521
2026-01-28 01:09:33.54	239.12	1.39	-45.4	-60.3	3.6	1.51e+00	0	32	104	0	60	41926
2026-01-28 01:09:34.55	239.06	1.33	-45.6	-60.3	3.6	1.51e+00	0	32	104	0	60	42074
2026-01-28 01:09:35.56	238.99	1.26	-46.0	-60.7	3.6	1.51e+00	0	32	104	0	60	44131
2026-01-28 01:09:36.57	238.93	1.20	-45.7	-60.4	3.6	1.51e+00	0	32	104	0	60	42684
2026-01-28 01:09:37.58	238.86	1.14	-45.7	-60.4	3.6	1.51e+00	0	32	104	0	60	42475
2026-01-28 01:09:38.59	238.80	1.07	-45.7	-60.4	3.6	1.51e+00	0	32	104	0	60	42411
2026-01-28 01:09:39.59	238.73	1.01	-45.7	-60.4	3.6	1.51e+00	0	32	104	0	60	42487
2026-01-28 01:09:40.61	238.67	0.95	-45.7	-60.3	3.6	1.51e+00	0	32	104	0	60	42103
2026-01-28 01:09:41.62	238.61	0.88	-45.6	-60.4	3.6	1.51e+00	0	32	104	0	60	42377
2026-01-28 01:09:42.63	238.55	0.82	-45.6	-60.4	3.6	1.51e+00	0	33	104	0	60	42400
2026-01-28 01:09:43.64	238.48	0.76	-45.6	-60.3	3.6	1.51e+00	0	33	104	0	60	41873
2026-01-28 01:09:44.65	238.42	0.69	-45.6	-60.3	3.6	1.51e+00	0	32	104	0	60	42143
2026-01-28 01:09:45.66	238.36	0.63	-45.6	-60.4	3.6	1.51e+00	0	32	104	0	60	42312
2026-01-28 01:09:46.67	238.30	0.57	-45.6	-60.4	3.6	1.51e+00	0	33	104	0	60	42302
2026-01-28 01:09:47.68	238.24	0.50	-45.6	-60.3	3.6	1.51e+00	0	33	104	0	60	42153
2026-01-28 01:09:48.69	238.18	0.44	-45.6	-60.3	3.6	1.51e+00	0	33	104	0	60	41970
2026-01-28 01:09:49.70	238.12	0.38	-45.6	-60.3	3.6	1.51e+00	0	33	104	0	60	42171
2026-01-28 01:09:50.71	238.06	0.32	-45.6	-60.3	3.6	1.51e+00	0	33	104	0	60	42216
2026-01-28 01:09:51.72	238.00	0.26	-45.6	-60.4	3.6	1.51e+00	0	33	104	0	60	42235
2026-01-28 01:09:52.73	237.94	0.19	-45.6	-60.3	3.6	1.51e+00	0	33	104	0	60	42071
2026-01-28 01:09:53.74	237.88	0.13	-45.6	-60.3	3.6	1.51e+00	0	32	104	0	60	42037
2026-01-28 01:09:54.75	237.82	0.07	-45.6	-60.3	3.6	1.51e+00	0	32	104	0	60	41963
2026-01-28 01:09:55.76	237.76	0.01	-45.6	-60.3	3.6	1.51e+00	0	33	104	0	60	41907
2026-01-28 01:09:56.77	237.71	-0.05	-45.6	-60.3	3.6	1.51e+00	0	33	104	0	60	41978
2026-01-28 01:09:57.78	237.65	-0.11	-45.6	-60.3	3.6	1.51e+00	0	33	104	0	60	41908

#Closed at: 2026-01-28 01:09:58
#Recorded file [0 MB]: D:/lorett/data/35029_260128_125912.dat