passes_logs/2026/01/28/R4.6S_Anadyr/R4.6S_Anadyr__20260128_151130_NOAA_21_JPSS-2_rec.log

#Pass ID: 20260128_151130_NOAA 21 (JPSS-2)
#Satellite: NOAA 21 (JPSS-2)
#Configuration: NOAA-21
#almurnet v.1.7.20251203
#Start time: 2026-01-28 15:11:32

#Version: 2.2.20231116
#Station: R4.6S_Anadyr
#Location: 177.4865 lon 64.73178 lat
#TLE: 1 54234U 22150A   26027.77052245  .00000166  00000+0  99439-4 0  9997
#TLE: 2 54234  98.7510 328.5165 0000872 203.6403 156.4733 14.19540252166628

#Time	Az	El	Level	Level2	SNR	BER	BlckErr	Temp	State	Recorded	gain1	gain2
2026-01-28 15:11:32.04	21.58	0.09	-48.7	-63.7	3.5	1.51e+00	0	30	0	0	60	55156
2026-01-28 15:11:33.05	21.57	0.15	-48.7	-61.6	3.5	1.52e+00	0	31	104	0	60	42333
2026-01-28 15:11:34.05	21.56	0.21	-48.8	-61.6	3.5	1.52e+00	0	31	104	0	60	42169
2026-01-28 15:11:35.07	21.55	0.27	-48.8	-61.7	3.5	1.52e+00	0	31	104	0	60	42533
2026-01-28 15:11:36.08	21.54	0.33	-48.8	-61.7	3.5	1.52e+00	0	31	104	0	60	42628
2026-01-28 15:11:37.09	21.54	0.39	-48.8	-61.7	3.5	1.51e+00	0	31	104	0	60	42484
2026-01-28 15:11:38.10	21.53	0.45	-48.8	-61.7	3.5	1.52e+00	0	31	104	0	60	42657
2026-01-28 15:11:39.10	21.52	0.51	-48.9	-61.7	3.5	1.52e+00	0	31	104	0	60	42551
2026-01-28 15:11:40.11	21.51	0.58	-48.9	-61.7	3.5	1.52e+00	0	31	104	0	60	42915
2026-01-28 15:11:41.12	21.50	0.64	-48.9	-61.7	3.5	1.52e+00	0	31	104	0	60	42882
2026-01-28 15:11:42.13	21.49	0.70	-48.9	-61.8	3.5	1.51e+00	0	31	104	0	60	43060
2026-01-28 15:11:43.14	21.48	0.76	-48.9	-61.8	3.5	1.52e+00	0	31	104	0	60	42943
2026-01-28 15:11:44.15	21.47	0.82	-48.8	-61.7	3.5	1.52e+00	0	31	104	0	60	42696
2026-01-28 15:11:45.16	21.46	0.88	-48.7	-61.7	3.5	1.52e+00	0	31	104	0	60	42677
2026-01-28 15:11:46.18	21.45	0.94	-48.8	-61.6	3.5	1.52e+00	0	32	104	0	60	42305
2026-01-28 15:11:47.18	21.44	1.01	-48.8	-61.6	3.5	1.51e+00	0	31	104	0	60	42248
2026-01-28 15:11:48.20	21.43	1.07	-48.7	-61.5	3.5	1.52e+00	0	32	104	0	60	41916
2026-01-28 15:11:49.20	21.42	1.13	-48.6	-61.5	3.5	1.51e+00	0	32	104	0	60	41639
2026-01-28 15:11:50.21	21.41	1.19	-48.5	-61.4	3.5	1.52e+00	0	32	104	0	60	41141
2026-01-28 15:11:51.22	21.40	1.26	-48.4	-61.2	3.5	1.52e+00	0	32	104	0	60	40467
2026-01-28 15:11:52.23	21.40	1.32	-48.2	-61.1	3.5	1.52e+00	0	32	104	0	60	40051
2026-01-28 15:11:53.24	21.39	1.38	-48.2	-61.0	3.5	1.52e+00	0	32	104	0	60	39574
2026-01-28 15:11:54.25	21.38	1.44	-48.0	-60.9	3.5	1.52e+00	0	32	104	0	60	38917
2026-01-28 15:11:55.26	21.37	1.51	-47.9	-60.7	3.5	1.52e+00	0	32	104	0	60	38155
2026-01-28 15:11:56.27	21.36	1.57	-47.6	-60.5	3.5	1.52e+00	0	32	104	0	60	37110
2026-01-28 15:11:57.28	21.35	1.63	-47.5	-60.0	3.5	1.52e+00	0	32	104	0	60	35131
2026-01-28 15:11:58.29	21.34	1.70	-47.5	-60.0	3.5	1.52e+00	0	32	104	0	60	35126
2026-01-28 15:11:59.30	21.33	1.76	-47.5	-59.9	3.5	1.52e+00	0	32	104	0	60	34765
2026-01-28 15:12:00.31	21.31	1.82	-47.5	-59.9	3.5	1.52e+00	0	32	104	0	60	34790
2026-01-28 15:12:01.32	21.30	1.89	-47.5	-60.1	3.5	1.52e+00	0	32	104	0	60	35432
2026-01-28 15:12:02.33	21.29	1.95	-47.5	-60.1	3.5	1.52e+00	0	32	104	0	60	35698
2026-01-28 15:12:03.34	21.28	2.02	-47.5	-60.2	3.5	1.52e+00	0	32	104	0	60	36081
2026-01-28 15:12:04.35	21.27	2.08	-47.5	-60.3	3.5	1.52e+00	0	32	104	0	60	36189
2026-01-28 15:12:05.36	21.26	2.15	-47.5	-60.3	3.5	1.51e+00	0	32	104	0	60	36445
2026-01-28 15:12:06.37	21.25	2.21	-47.5	-60.3	3.5	1.51e+00	0	32	104	0	60	36192
2026-01-28 15:12:07.39	21.24	2.28	-47.5	-60.2	3.5	1.52e+00	0	32	104	0	60	35995
2026-01-28 15:12:08.39	21.23	2.34	-47.5	-60.2	3.5	1.52e+00	0	32	104	0	60	35822
2026-01-28 15:12:09.40	21.22	2.40	-47.4	-59.9	3.5	1.52e+00	0	32	104	0	60	34694
2026-01-28 15:12:10.41	21.21	2.47	-47.4	-59.5	3.5	1.52e+00	0	32	104	0	60	33326
2026-01-28 15:12:11.43	21.20	2.54	-47.4	-59.0	3.5	1.51e+00	0	32	104	0	60	31408
2026-01-28 15:12:12.44	21.19	2.60	-47.3	-58.3	3.5	1.51e+00	0	32	104	0	60	28860
2026-01-28 15:12:13.45	21.18	2.67	-47.3	-57.9	3.8	1.51e+00	0	32	104	0	60	27699
2026-01-28 15:12:14.46	21.16	2.73	-47.2	-57.5	3.9	1.50e+00	0	32	104	0	60	26327
2026-01-28 15:12:15.47	21.15	2.80	-47.3	-58.4	3.7	1.50e+00	0	32	104	0	60	29224
2026-01-28 15:12:16.48	21.14	2.86	-47.3	-58.5	3.5	1.51e+00	0	32	104	0	60	29579
2026-01-28 15:12:17.49	21.13	2.93	-47.4	-59.0	3.5	1.51e+00	0	32	104	0	60	31256
2026-01-28 15:12:18.50	21.12	3.00	-47.3	-58.5	3.5	1.51e+00	0	32	104	0	60	29496
2026-01-28 15:12:19.51	21.11	3.06	-46.9	-55.7	4.8	1.48e+00	18	32	104	0	60	21364
2026-01-28 15:12:20.52	21.10	3.13	-46.6	-52.6	6.3	2.78e-01	4	32	0	1048576	60	15057
2026-01-28 15:12:21.53	21.08	3.20	-45.3	-49.3	9.9	2.17e-02	2	32	0	4194304	60	10236
2026-01-28 15:12:22.54	21.07	3.26	-44.4	-47.6	12.3	1.70e-03	4	32	0	7340032	60	8372
2026-01-28 15:12:23.55	21.06	3.33	-43.2	-45.7	14.1	1.75e-05	2	32	0	10485760	60	6780
2026-01-28 15:12:24.56	21.05	3.40	-42.3	-44.4	15.3	2.20e-06	4	32	0	13631488	58	6550
2026-01-28 15:12:25.57	21.04	3.47	-41.4	-43.2	16.4	0.00e+00	0	32	0	16777216	56	6400
2026-01-28 15:12:26.58	21.02	3.53	-41.3	-43.1	16.5	0.00e+00	0	32	0	19922944	56	6281
2026-01-28 15:12:27.59	21.01	3.60	-40.6	-42.3	17.2	0.00e+00	1	32	0	23068672	54	6439
2026-01-28 15:12:28.60	21.00	3.67	-40.8	-42.5	16.7	0.00e+00	2	32	0	26214400	54	6609
2026-01-28 15:12:29.61	20.99	3.74	-40.7	-42.3	17.1	0.00e+00	4	32	0	29360128	54	6490
2026-01-28 15:12:30.62	20.98	3.81	-45.7	-50.5	7.3	9.86e-04	5	32	0	32505856	60	11741
2026-01-28 15:12:31.63	20.96	3.87	-45.8	-51.1	4.4	1.47e+00	0	32	104	33554432	60	12621
2026-01-28 15:12:32.64	20.95	3.94	-43.3	-46.3	11.5	3.56e-04	0	32	104	33554432	54	10259
2026-01-28 15:12:33.65	20.94	4.01	-39.8	-41.6	5.2	1.49e+00	0	32	104	33554432	58	4709
2026-01-28 15:12:34.66	20.93	4.08	-43.5	-46.7	8.3	0.00e+00	0	32	104	33554432	54	10678
2026-01-28 15:12:35.67	20.91	4.15	-42.0	-44.3	5.2	1.45e+00	0	32	104	33554432	60	5745
2026-01-28 15:12:36.68	20.90	4.22	-38.6	-40.2	19.4	0.00e+00	2	32	104	33554432	50	6355
2026-01-28 15:12:37.69	20.89	4.29	-38.7	-39.9	19.5	0.00e+00	2	32	0	35651584	50	6187
2026-01-28 15:12:38.70	20.87	4.36	-38.2	-39.5	20.0	0.00e+00	6	32	0	39845888	50	5865
2026-01-28 15:12:39.71	20.86	4.43	-38.1	-39.3	20.2	0.00e+00	2	32	0	42991616	50	5787
2026-01-28 15:12:40.72	20.85	4.50	-37.4	-38.6	20.9	0.00e+00	3	32	0	46137344	48	5928
2026-01-28 15:12:41.73	20.83	4.57	-37.5	-38.7	20.8	0.00e+00	0	32	0	48234496	48	6018
2026-01-28 15:12:42.74	20.82	4.64	-37.9	-39.1	20.3	0.00e+00	2	32	0	51380224	48	6300
2026-01-28 15:12:43.75	20.81	4.71	-37.7	-38.8	20.8	0.00e+00	2	32	0	54525952	48	6104
2026-01-28 15:12:44.76	20.79	4.78	-37.5	-38.6	21.0	0.00e+00	2	32	0	58720256	48	5944
2026-01-28 15:12:45.76	20.78	4.85	-37.6	-38.7	20.8	0.00e+00	3	32	0	61865984	48	6037
2026-01-28 15:12:46.77	20.77	4.92	-37.4	-38.5	20.9	0.00e+00	0	32	0	65011712	48	5911
2026-01-28 15:12:47.78	20.75	4.99	-37.1	-38.2	21.0	0.00e+00	2	32	0	68157440	48	5691
2026-01-28 15:12:48.79	20.74	5.07	-37.1	-38.2	21.3	0.00e+00	5	32	0	70254592	48	5671
2026-01-28 15:12:49.80	20.73	5.14	-37.2	-38.3	21.2	0.00e+00	0	32	0	73400320	48	5751
2026-01-28 15:12:50.81	20.71	5.21	-37.0	-38.1	21.3	0.00e+00	1	32	0	77594624	48	5596
2026-01-28 15:12:51.82	20.70	5.28	-37.2	-38.3	21.1	0.00e+00	0	32	0	80740352	48	5756
2026-01-28 15:12:52.83	20.68	5.35	-37.3	-38.4	21.1	0.00e+00	0	32	0	83886080	48	5841
2026-01-28 15:12:53.84	20.67	5.43	-37.2	-38.3	21.1	0.00e+00	0	32	0	87031808	48	5757
2026-01-28 15:12:54.85	20.65	5.50	-37.4	-38.5	21.1	0.00e+00	1	32	0	90177536	48	5877
2026-01-28 15:12:55.86	20.64	5.57	-37.2	-38.3	21.1	0.00e+00	3	32	0	93323264	48	5786
2026-01-28 15:12:56.87	20.62	5.65	-37.1	-38.1	21.3	0.00e+00	4	32	0	96468992	48	5658
2026-01-28 15:12:57.88	20.61	5.72	-37.1	-38.2	21.4	0.00e+00	0	32	0	99614720	48	5673
2026-01-28 15:12:58.89	20.60	5.79	-37.2	-38.2	21.2	0.00e+00	2	32	0	102760448	48	5725
2026-01-28 15:12:59.90	20.58	5.87	-37.1	-38.2	21.5	0.00e+00	2	32	0	105906176	48	5660
2026-01-28 15:13:00.91	20.57	5.94	-37.1	-38.2	21.3	0.00e+00	1	32	0	109051904	48	5697
2026-01-28 15:13:01.92	20.55	6.01	-36.9	-38.0	21.5	0.00e+00	2	32	0	112197632	48	5561
2026-01-28 15:13:02.93	20.54	6.09	-36.8	-37.9	21.7	0.00e+00	2	32	0	115343360	48	5499
2026-01-28 15:13:03.94	20.52	6.16	-36.7	-37.8	21.7	0.00e+00	2	32	0	118489088	46	6093
2026-01-28 15:13:04.95	20.50	6.24	-36.9	-37.9	21.6	0.00e+00	0	32	0	121634816	46	6187
2026-01-28 15:13:05.96	20.49	6.31	-37.0	-38.1	21.5	0.00e+00	2	32	0	124780544	46	6298
2026-01-28 15:13:06.96	20.47	6.39	-36.8	-37.8	21.8	0.00e+00	0	32	0	127926272	46	6120
2026-01-28 15:13:07.97	20.46	6.46	-36.9	-37.9	21.6	0.00e+00	3	32	0	131072000	46	6185
2026-01-28 15:13:08.98	20.44	6.54	-36.9	-37.9	21.7	0.00e+00	0	32	0	134217728	46	6188
2026-01-28 15:13:09.99	20.43	6.61	-36.7	-37.8	21.8	0.00e+00	2	32	0	137363456	46	6065
2026-01-28 15:13:11.00	20.41	6.69	-36.8	-37.8	21.8	0.00e+00	2	32	0	140509184	46	6123
2026-01-28 15:13:12.01	20.39	6.77	-36.7	-37.8	21.9	0.00e+00	2	32	0	143654912	46	6082
2026-01-28 15:13:13.02	20.38	6.84	-36.4	-37.4	22.1	0.00e+00	0	32	0	146800640	46	5812
2026-01-28 15:13:14.03	20.36	6.92	-36.7	-37.8	21.8	0.00e+00	0	32	0	149946368	46	6096
2026-01-28 15:13:15.04	20.35	7.00	-36.5	-37.5	22.0	0.00e+00	4	32	0	153092096	46	5926
2026-01-28 15:13:16.05	20.33	7.07	-36.5	-37.6	22.0	0.00e+00	4	32	0	156237824	46	5935
2026-01-28 15:13:17.06	20.31	7.15	-36.4	-37.5	22.1	0.00e+00	4	32	0	159383552	46	5861
2026-01-28 15:13:18.07	20.30	7.23	-36.6	-37.7	22.0	0.00e+00	2	32	0	162529280	46	6012
2026-01-28 15:13:19.08	20.28	7.31	-36.6	-37.6	22.0	0.00e+00	2	32	0	165675008	46	5973
2026-01-28 15:13:20.09	20.26	7.39	-36.3	-37.3	22.2	0.00e+00	0	32	0	168820736	46	5791
2026-01-28 15:13:21.10	20.24	7.46	-36.5	-37.5	22.1	0.00e+00	0	32	0	171966464	46	5894
2026-01-28 15:13:22.11	20.23	7.54	-36.4	-37.4	22.2	0.00e+00	1	32	0	175112192	46	5812
2026-01-28 15:13:23.12	20.21	7.62	-36.4	-37.5	22.2	0.00e+00	4	32	0	178257920	46	5861
2026-01-28 15:13:24.13	20.19	7.70	-36.3	-37.4	22.3	0.00e+00	2	32	0	181403648	46	5803
2026-01-28 15:13:25.14	20.17	7.78	-36.1	-37.1	22.4	0.00e+00	3	32	0	184549376	46	5618
2026-01-28 15:13:26.15	20.16	7.86	-36.2	-37.3	22.3	0.00e+00	4	32	0	187695104	46	5734
2026-01-28 15:13:27.16	20.14	7.94	-36.2	-37.2	22.2	0.00e+00	3	32	0	190840832	46	5724
2026-01-28 15:13:28.17	20.12	8.02	-36.4	-37.4	22.2	0.00e+00	0	32	0	193986560	46	5823
2026-01-28 15:13:29.18	20.10	8.10	-36.4	-37.4	22.2	0.00e+00	0	32	0	197132288	46	5856
2026-01-28 15:13:30.19	20.08	8.18	-36.4	-37.4	22.2	0.00e+00	1	32	0	200278016	46	5853
2026-01-28 15:13:31.20	20.07	8.26	-36.5	-37.6	22.3	0.00e+00	0	32	0	203423744	46	5941
2026-01-28 15:13:32.21	20.05	8.34	-36.0	-37.0	22.5	0.00e+00	1	32	0	206569472	46	5584
2026-01-28 15:13:33.22	20.03	8.42	-36.2	-37.2	22.4	0.00e+00	1	32	0	209715200	46	5698
2026-01-28 15:13:34.22	20.01	8.50	-36.1	-37.1	22.5	0.00e+00	1	32	0	212860928	46	5607
2026-01-28 15:13:35.23	19.99	8.59	-36.2	-37.2	22.4	0.00e+00	3	32	0	216006656	46	5698
2026-01-28 15:13:36.24	19.97	8.67	-35.9	-36.9	22.6	0.00e+00	0	32	0	219152384	46	5528
2026-01-28 15:13:37.25	19.95	8.75	-35.9	-37.0	22.7	0.00e+00	0	32	0	222298112	46	5531
2026-01-28 15:13:38.26	19.93	8.83	-36.0	-37.1	22.6	0.00e+00	2	32	0	225443840	46	5602
2026-01-28 15:13:39.28	19.92	8.92	-35.8	-36.8	22.8	0.00e+00	1	32	0	228589568	46	5451
2026-01-28 15:13:40.29	19.90	9.00	-35.9	-36.9	22.7	0.00e+00	1	32	0	231735296	46	5494
2026-01-28 15:13:41.30	19.88	9.08	-36.0	-37.0	22.6	0.00e+00	0	32	0	234881024	46	5590
2026-01-28 15:13:42.30	19.86	9.17	-35.9	-36.9	22.7	0.00e+00	2	32	0	238026752	46	5503
2026-01-28 15:13:43.31	19.84	9.25	-36.1	-37.1	22.5	0.00e+00	4	32	0	241172480	46	5634
2026-01-28 15:13:44.32	19.82	9.34	-36.2	-37.2	22.6	0.00e+00	0	32	0	244318208	46	5686
2026-01-28 15:13:45.33	19.80	9.42	-36.1	-37.1	22.6	0.00e+00	4	32	0	247463936	46	5613
2026-01-28 15:13:46.34	19.78	9.50	-35.8	-36.8	22.8	0.00e+00	4	32	0	250609664	46	5441
2026-01-28 15:13:47.35	19.76	9.59	-35.7	-36.7	22.9	0.00e+00	1	32	0	253755392	44	6007
2026-01-28 15:13:48.36	19.73	9.68	-35.6	-36.5	23.0	0.00e+00	5	33	0	256901120	44	5921
2026-01-28 15:13:49.37	19.71	9.76	-35.7	-36.6	22.9	0.00e+00	3	32	0	260046848	44	5985
2026-01-28 15:13:50.38	19.69	9.85	-35.8	-36.8	22.7	0.00e+00	2	32	0	263192576	44	6121
2026-01-28 15:13:51.39	19.67	9.93	-35.9	-36.9	22.8	0.00e+00	2	33	0	266338304	44	6190
2026-01-28 15:13:52.40	19.65	10.02	-35.8	-36.8	22.7	0.00e+00	2	32	0	269484032	44	6078
2026-01-28 15:13:53.41	19.63	10.11	-35.9	-36.9	22.7	0.00e+00	0	32	0	272629760	44	6171
2026-01-28 15:13:54.41	19.61	10.19	-35.3	-36.3	23.2	0.00e+00	1	32	0	275775488	44	5747
2026-01-28 15:13:55.43	19.59	10.28	-35.5	-36.5	23.1	0.00e+00	0	33	0	278921216	44	5875
2026-01-28 15:13:56.44	19.56	10.37	-35.5	-36.5	23.1	0.00e+00	1	32	0	282066944	44	5896
2026-01-28 15:13:57.44	19.54	10.46	-35.4	-36.4	23.2	0.00e+00	2	32	0	285212672	44	5812
2026-01-28 15:13:58.45	19.52	10.55	-35.2	-36.2	23.4	0.00e+00	3	32	0	288358400	44	5671
2026-01-28 15:13:59.46	19.50	10.63	-35.3	-36.2	23.2	0.00e+00	2	32	0	291504128	44	5702
2026-01-28 15:14:00.47	19.48	10.72	-35.2	-36.1	23.4	0.00e+00	0	32	0	294649856	44	5657
2026-01-28 15:14:01.49	19.45	10.81	-35.2	-36.2	23.3	0.00e+00	2	32	0	297795584	44	5689
2026-01-28 15:14:02.50	19.43	10.90	-35.2	-36.1	23.5	0.00e+00	1	32	0	300941312	44	5636
2026-01-28 15:14:03.51	19.41	10.99	-35.2	-36.2	23.3	0.00e+00	4	33	0	304087040	44	5693
2026-01-28 15:14:04.52	19.38	11.08	-35.4	-36.4	23.1	0.00e+00	4	33	0	307232768	44	5830
2026-01-28 15:14:05.52	19.36	11.17	-35.1	-36.1	23.6	0.00e+00	2	32	0	310378496	44	5605
2026-01-28 15:14:06.54	19.34	11.27	-35.1	-36.0	23.5	0.00e+00	2	32	0	313524224	44	5575
2026-01-28 15:14:07.55	19.31	11.36	-35.0	-36.0	23.6	0.00e+00	3	32	0	316669952	44	5535
2026-01-28 15:14:08.56	19.29	11.45	-34.9	-35.8	23.7	0.00e+00	2	33	0	319815680	44	5460
2026-01-28 15:14:09.56	19.27	11.54	-35.0	-35.9	23.6	0.00e+00	2	32	0	322961408	44	5527
2026-01-28 15:14:10.57	19.24	11.63	-34.9	-35.8	23.7	0.00e+00	0	33	0	326107136	44	5427
2026-01-28 15:14:11.58	19.22	11.73	-35.0	-35.9	23.6	0.00e+00	2	32	0	329252864	44	5514
2026-01-28 15:14:12.59	19.19	11.82	-34.9	-35.8	23.7	0.00e+00	0	32	0	332398592	44	5445
2026-01-28 15:14:13.60	19.17	11.91	-34.9	-35.9	23.6	0.00e+00	0	32	0	335544320	44	5483
2026-01-28 15:14:14.61	19.14	12.01	-34.8	-35.7	23.8	0.00e+00	1	32	0	338690048	42	6057
2026-01-28 15:14:15.62	19.12	12.10	-34.8	-35.8	23.8	0.00e+00	1	33	0	341835776	42	6067
2026-01-28 15:14:16.63	19.09	12.19	-34.8	-35.7	23.8	0.00e+00	0	32	0	344981504	42	6050
2026-01-28 15:14:17.64	19.07	12.29	-34.7	-35.6	23.9	0.00e+00	1	32	0	348127232	42	5972
2026-01-28 15:14:18.65	19.04	12.38	-34.7	-35.6	23.9	0.00e+00	2	32	0	351272960	42	5962
2026-01-28 15:14:19.66	19.02	12.48	-34.7	-35.6	24.0	0.00e+00	2	32	0	354418688	42	5956
2026-01-28 15:14:20.67	18.99	12.58	-34.7	-35.7	23.8	0.00e+00	1	33	0	357564416	42	6010
2026-01-28 15:14:21.68	18.96	12.67	-34.7	-35.6	24.0	0.00e+00	1	33	0	360710144	42	5981
2026-01-28 15:14:22.69	18.94	12.77	-34.6	-35.5	24.0	0.00e+00	2	33	0	363855872	42	5909
2026-01-28 15:14:23.70	18.91	12.87	-34.7	-35.6	24.0	0.00e+00	0	33	0	367001600	42	5990
2026-01-28 15:14:24.72	18.88	12.96	-34.8	-35.7	23.9	0.00e+00	3	32	0	370147328	42	6027
2026-01-28 15:14:25.72	18.86	13.06	-34.7	-35.6	24.0	0.00e+00	5	33	0	373293056	42	5941
2026-01-28 15:14:26.73	18.83	13.16	-34.6	-35.5	24.0	0.00e+00	2	33	0	376438784	42	5920
2026-01-28 15:14:27.74	18.80	13.26	-34.7	-35.6	23.9	0.00e+00	2	33	0	379584512	42	5969
2026-01-28 15:14:28.75	18.77	13.36	-34.8	-35.7	23.9	0.00e+00	1	33	0	383778816	42	6038
2026-01-28 15:14:29.76	18.75	13.46	-34.7	-35.6	24.1	0.00e+00	3	32	0	386924544	42	5945
2026-01-28 15:14:30.77	18.72	13.56	-34.8	-35.8	23.8	0.00e+00	8	33	0	389021696	42	6068
2026-01-28 15:14:31.78	18.69	13.66	-34.8	-35.8	23.9	0.00e+00	4	32	0	392167424	42	6070
2026-01-28 15:14:32.79	18.66	13.76	-35.0	-35.9	23.7	0.00e+00	0	33	0	395313152	42	6168
2026-01-28 15:14:33.81	18.63	13.86	-34.9	-35.9	23.7	0.00e+00	0	33	0	399507456	42	6144
2026-01-28 15:14:34.81	18.60	13.96	-34.9	-35.8	23.8	0.00e+00	0	33	0	402653184	42	6092
2026-01-28 15:14:35.82	18.58	14.06	-35.0	-35.9	23.7	0.00e+00	4	32	0	405798912	42	6170
2026-01-28 15:14:36.83	18.55	14.16	-34.8	-35.8	23.8	0.00e+00	1	33	0	408944640	42	6076
2026-01-28 15:14:37.84	18.52	14.27	-34.7	-35.6	24.0	0.00e+00	1	32	0	412090368	42	5963
2026-01-28 15:14:38.85	18.49	14.37	-34.6	-35.5	24.1	0.00e+00	2	33	0	415236096	42	5873
2026-01-28 15:14:39.86	18.46	14.47	-34.5	-35.4	24.2	0.00e+00	0	32	0	418381824	42	5834
2026-01-28 15:14:40.87	18.43	14.58	-34.5	-35.4	24.1	0.00e+00	3	32	0	421527552	42	5853
2026-01-28 15:14:41.88	18.39	14.68	-34.7	-35.7	24.0	0.00e+00	1	33	0	424673280	42	6000
2026-01-28 15:14:42.89	18.36	14.79	-34.8	-35.7	23.8	0.00e+00	1	33	0	427819008	42	6046
2026-01-28 15:14:43.90	18.33	14.89	-34.9	-35.8	23.9	0.00e+00	2	33	0	430964736	42	6122
2026-01-28 15:14:44.91	18.30	15.00	-34.9	-35.9	23.8	0.00e+00	4	33	0	434110464	42	6152
2026-01-28 15:14:45.92	18.27	15.10	-34.6	-35.5	24.0	0.00e+00	2	33	0	437256192	42	5896
2026-01-28 15:14:46.93	18.24	15.21	-34.6	-35.5	24.0	0.00e+00	2	33	0	440401920	42	5888
2026-01-28 15:14:47.94	18.21	15.32	-34.6	-35.5	24.1	0.00e+00	2	33	0	443547648	42	5913
2026-01-28 15:14:48.95	18.17	15.43	-34.8	-35.7	23.9	0.00e+00	0	33	0	446693376	42	6060
2026-01-28 15:14:49.96	18.14	15.53	-34.7	-35.6	24.0	0.00e+00	1	33	0	449839104	42	5967
2026-01-28 15:14:50.97	18.11	15.64	-34.7	-35.6	24.0	0.00e+00	3	33	0	452984832	42	5962
2026-01-28 15:14:51.98	18.07	15.75	-34.6	-35.6	24.0	0.00e+00	4	33	0	456130560	42	5932
2026-01-28 15:14:52.99	18.04	15.86	-34.8	-35.7	24.0	0.00e+00	2	33	0	459276288	42	6022
2026-01-28 15:14:54.00	18.01	15.97	-34.7	-35.6	24.0	0.00e+00	4	33	0	462422016	42	5950
2026-01-28 15:14:55.01	17.97	16.08	-34.7	-35.7	23.9	0.00e+00	0	33	0	465567744	42	6010
2026-01-28 15:14:56.02	17.94	16.19	-34.8	-35.7	23.9	0.00e+00	1	33	0	468713472	42	6060
2026-01-28 15:14:57.03	17.90	16.30	-34.8	-35.7	24.0	0.00e+00	1	33	0	471859200	42	6023
2026-01-28 15:14:58.04	17.87	16.42	-34.6	-35.5	24.1	0.00e+00	3	33	0	475004928	42	5903
2026-01-28 15:14:59.05	17.83	16.53	-34.6	-35.5	24.1	0.00e+00	0	33	0	478150656	42	5897
2026-01-28 15:15:00.06	17.80	16.64	-34.6	-35.5	24.1	0.00e+00	3	33	0	481296384	42	5920
2026-01-28 15:15:01.07	17.76	16.75	-34.6	-35.5	24.1	0.00e+00	4	33	0	484442112	42	5887
2026-01-28 15:15:02.07	17.73	16.87	-34.7	-35.6	24.0	0.00e+00	2	33	0	487587840	42	5966
2026-01-28 15:15:03.09	17.69	16.98	-34.7	-35.6	24.0	0.00e+00	0	33	0	490733568	42	5946
2026-01-28 15:15:04.10	17.65	17.10	-34.7	-35.6	24.2	0.00e+00	1	33	0	493879296	42	5944
2026-01-28 15:15:05.11	17.62	17.21	-34.7	-35.6	24.1	0.00e+00	0	33	0	497025024	42	5930
2026-01-28 15:15:06.12	17.58	17.33	-34.7	-35.6	24.1	0.00e+00	1	33	0	500170752	42	5968
2026-01-28 15:15:07.13	17.54	17.45	-34.7	-35.6	24.1	0.00e+00	2	33	0	503316480	42	5982
2026-01-28 15:15:08.14	17.50	17.56	-34.6	-35.5	24.2	0.00e+00	4	33	0	506462208	42	5898
2026-01-28 15:15:09.15	17.47	17.68	-34.5	-35.4	24.1	0.00e+00	3	33	0	509607936	42	5857
2026-01-28 15:15:10.16	17.43	17.80	-34.5	-35.4	24.3	0.00e+00	0	33	0	512753664	42	5818
2026-01-28 15:15:11.17	17.39	17.92	-34.6	-35.5	24.2	0.00e+00	1	33	0	515899392	42	5884
2026-01-28 15:15:12.18	17.35	18.04	-34.6	-35.5	24.2	0.00e+00	1	33	0	519045120	42	5892
2026-01-28 15:15:13.18	17.31	18.16	-34.6	-35.5	24.1	0.00e+00	2	33	0	522190848	42	5889
2026-01-28 15:15:14.19	17.27	18.28	-34.6	-35.5	24.2	0.00e+00	2	33	0	525336576	42	5872
2026-01-28 15:15:15.20	17.23	18.40	-34.6	-35.6	24.1	0.00e+00	2	33	0	528482304	42	5941
2026-01-28 15:15:16.21	17.19	18.52	-34.5	-35.4	24.2	0.00e+00	1	33	0	531628032	42	5817
2026-01-28 15:15:17.22	17.15	18.64	-34.6	-35.4	24.2	0.00e+00	2	33	0	534773760	42	5856
2026-01-28 15:15:18.23	17.11	18.76	-34.6	-35.5	24.2	0.00e+00	1	33	0	537919488	42	5894
2026-01-28 15:15:19.24	17.06	18.89	-34.6	-35.4	24.2	0.00e+00	0	33	0	541065216	42	5850
2026-01-28 15:15:20.25	17.02	19.01	-34.5	-35.4	24.2	0.00e+00	0	33	0	544210944	42	5847
2026-01-28 15:15:21.26	16.98	19.14	-34.4	-35.3	24.3	0.00e+00	4	33	0	547356672	42	5734
2026-01-28 15:15:22.27	16.94	19.26	-34.4	-35.3	24.3	0.00e+00	0	33	0	550502400	42	5773
2026-01-28 15:15:23.28	16.89	19.39	-34.5	-35.4	24.2	0.00e+00	2	33	0	553648128	42	5844
2026-01-28 15:15:24.29	16.85	19.51	-34.3	-35.2	24.3	0.00e+00	3	33	0	556793856	42	5722
2026-01-28 15:15:25.30	16.81	19.64	-34.4	-35.3	24.2	0.00e+00	2	33	0	559939584	42	5753
2026-01-28 15:15:26.31	16.76	19.77	-34.4	-35.3	24.2	0.00e+00	0	33	0	563085312	42	5755
2026-01-28 15:15:27.32	16.72	19.90	-34.4	-35.3	24.2	0.00e+00	0	33	0	566231040	42	5778
2026-01-28 15:15:28.33	16.67	20.03	-34.3	-35.2	24.4	0.00e+00	2	33	0	569376768	42	5684
2026-01-28 15:15:29.35	16.63	20.16	-34.3	-35.2	24.3	0.00e+00	1	33	0	572522496	42	5697
2026-01-28 15:15:30.35	16.58	20.29	-34.3	-35.2	24.4	0.00e+00	3	33	0	575668224	42	5666
2026-01-28 15:15:31.36	16.53	20.42	-34.1	-35.0	24.3	0.00e+00	4	33	0	578813952	42	5570
2026-01-28 15:15:32.37	16.49	20.55	-34.2	-35.1	24.4	0.00e+00	1	33	0	581959680	42	5597
2026-01-28 15:15:33.38	16.44	20.68	-34.1	-35.0	24.4	0.00e+00	3	33	0	585105408	42	5578
2026-01-28 15:15:34.39	16.39	20.82	-34.2	-35.1	24.4	0.00e+00	4	33	0	588251136	42	5596
2026-01-28 15:15:35.40	16.34	20.95	-34.3	-35.2	24.2	0.00e+00	2	33	0	591396864	42	5692
2026-01-28 15:15:36.41	16.29	21.08	-34.0	-34.9	24.5	0.00e+00	1	33	0	594542592	42	5508
2026-01-28 15:15:37.42	16.24	21.22	-34.0	-34.9	24.6	0.00e+00	2	33	0	597688320	42	5470
2026-01-28 15:15:38.43	16.19	21.36	-34.0	-34.9	24.6	0.00e+00	3	33	0	600834048	42	5508
2026-01-28 15:15:39.44	16.14	21.49	-33.8	-34.7	24.6	0.00e+00	2	33	0	603979776	42	5368
2026-01-28 15:15:40.45	16.09	21.63	-33.7	-34.6	24.8	0.00e+00	0	33	0	607125504	42	5320
2026-01-28 15:15:41.46	16.04	21.77	-33.7	-34.6	24.7	0.00e+00	3	33	0	610271232	40	5931
2026-01-28 15:15:42.47	15.99	21.91	-33.7	-34.6	24.8	0.00e+00	0	33	0	613416960	40	5938
2026-01-28 15:15:43.48	15.94	22.05	-33.5	-34.4	24.8	0.00e+00	1	33	0	616562688	40	5840
2026-01-28 15:15:44.49	15.89	22.19	-33.3	-34.2	25.1	0.00e+00	2	33	0	619708416	40	5699
2026-01-28 15:15:45.50	15.83	22.33	-33.4	-34.3	25.0	0.00e+00	2	33	0	622854144	40	5765
2026-01-28 15:15:46.51	15.78	22.47	-33.2	-34.1	25.1	0.00e+00	2	33	0	625999872	40	5635
2026-01-28 15:15:47.51	15.72	22.61	-33.2	-34.1	25.2	0.00e+00	3	33	0	629145600	40	5628
2026-01-28 15:15:48.52	15.67	22.75	-33.3	-34.2	25.1	0.00e+00	2	33	0	632291328	40	5668
2026-01-28 15:15:49.54	15.61	22.90	-33.1	-34.0	25.3	0.00e+00	0	33	0	635437056	40	5545
2026-01-28 15:15:50.54	15.56	23.04	-33.1	-34.0	25.3	0.00e+00	2	33	0	638582784	40	5547
2026-01-28 15:15:51.55	15.50	23.19	-33.2	-34.0	25.2	0.00e+00	1	33	0	641728512	40	5583
2026-01-28 15:15:52.57	15.44	23.33	-32.9	-33.8	25.4	0.00e+00	1	33	0	644874240	40	5441
2026-01-28 15:15:53.58	15.39	23.48	-33.1	-33.9	25.4	0.00e+00	2	33	0	648019968	40	5493
2026-01-28 15:15:54.59	15.33	23.63	-32.9	-33.8	25.5	0.00e+00	5	33	0	651165696	40	5431
2026-01-28 15:15:55.60	15.27	23.78	-33.1	-33.9	25.4	0.00e+00	1	33	0	654311424	40	5506
2026-01-28 15:15:56.61	15.21	23.93	-32.9	-33.7	25.5	0.00e+00	2	33	0	657457152	40	5393
2026-01-28 15:15:57.62	15.15	24.08	-33.0	-33.9	25.5	0.00e+00	0	33	0	660602880	40	5500
2026-01-28 15:15:58.62	15.09	24.23	-33.2	-34.1	25.3	0.00e+00	0	33	0	663748608	40	5604
2026-01-28 15:15:59.63	15.03	24.38	-32.9	-33.8	25.5	0.00e+00	1	33	0	666894336	40	5432
2026-01-28 15:16:00.64	14.97	24.53	-33.1	-33.9	25.3	0.00e+00	4	33	0	670040064	40	5522
2026-01-28 15:16:01.65	14.91	24.69	-33.1	-33.9	25.4	0.00e+00	0	33	0	673185792	40	5525
2026-01-28 15:16:02.66	14.84	24.84	-33.1	-33.9	25.3	0.00e+00	2	33	0	676331520	40	5530
2026-01-28 15:16:03.67	14.78	25.00	-33.4	-34.2	25.2	0.00e+00	5	33	0	679477248	40	5709
2026-01-28 15:16:04.68	14.71	25.15	-33.3	-34.2	25.2	0.00e+00	2	33	0	682622976	40	5678
2026-01-28 15:16:05.69	14.65	25.31	-33.5	-34.3	25.1	0.00e+00	0	33	0	685768704	40	5771
2026-01-28 15:16:06.69	14.58	25.47	-33.5	-34.3	25.2	0.00e+00	3	33	0	688914432	40	5773
2026-01-28 15:16:07.70	14.52	25.63	-33.7	-34.5	25.1	0.00e+00	4	33	0	692060160	40	5916
2026-01-28 15:16:08.71	14.45	25.79	-33.6	-34.5	25.0	0.00e+00	2	33	0	695205888	40	5868
2026-01-28 15:16:09.72	14.38	25.95	-33.6	-34.4	25.0	0.00e+00	5	33	0	698351616	40	5855
2026-01-28 15:16:10.73	14.31	26.11	-33.7	-34.5	25.0	0.00e+00	3	33	0	701497344	40	5912
2026-01-28 15:16:11.74	14.24	26.27	-33.8	-34.7	24.8	0.00e+00	3	33	0	704643072	40	6015
2026-01-28 15:16:12.75	14.17	26.44	-33.8	-34.7	24.9	0.00e+00	1	33	0	707788800	40	6015
2026-01-28 15:16:13.76	14.10	26.60	-33.8	-34.7	24.9	0.00e+00	2	33	0	710934528	40	6022
2026-01-28 15:16:14.77	14.03	26.77	-33.9	-34.8	24.8	0.00e+00	0	33	0	714080256	40	6076
2026-01-28 15:16:15.78	13.96	26.93	-34.0	-34.9	24.8	0.00e+00	2	33	0	717225984	40	6135
2026-01-28 15:16:16.79	13.89	27.10	-34.1	-35.0	24.7	0.00e+00	2	33	0	720371712	40	6223
2026-01-28 15:16:17.80	13.81	27.27	-34.0	-34.9	24.7	0.00e+00	2	33	0	724566016	40	6147
2026-01-28 15:16:18.81	13.74	27.44	-34.1	-35.0	24.7	0.00e+00	1	33	0	727711744	40	6251
2026-01-28 15:16:19.82	13.66	27.61	-34.2	-35.1	24.6	0.00e+00	0	33	0	729808896	40	6297
2026-01-28 15:16:20.83	13.58	27.78	-34.3	-35.1	24.6	0.00e+00	2	33	0	732954624	40	6343
2026-01-28 15:16:21.84	13.51	27.95	-34.2	-35.0	24.7	0.00e+00	0	33	0	736100352	40	6271
2026-01-28 15:16:22.85	13.43	28.13	-34.1	-35.0	24.7	0.00e+00	2	33	0	739246080	40	6206
2026-01-28 15:16:23.86	13.35	28.30	-34.1	-35.0	24.7	0.00e+00	4	33	0	743440384	40	6262
2026-01-28 15:16:24.87	13.27	28.48	-34.0	-34.9	24.7	0.00e+00	2	33	0	746586112	40	6186
2026-01-28 15:16:25.88	13.19	28.66	-34.1	-35.0	24.6	0.00e+00	3	33	0	749731840	40	6218
2026-01-28 15:16:26.89	13.10	28.83	-34.2	-35.0	24.5	0.00e+00	3	33	0	752877568	40	6273
2026-01-28 15:16:27.90	13.02	29.01	-34.2	-35.1	24.4	0.00e+00	0	33	0	754974720	40	6329
2026-01-28 15:16:28.91	12.94	29.19	-34.3	-35.2	24.3	0.00e+00	1	33	0	759169024	40	6413
2026-01-28 15:16:29.92	12.85	29.37	-34.3	-35.2	24.3	0.00e+00	1	33	0	762314752	40	6421
2026-01-28 15:16:30.93	12.77	29.56	-34.3	-35.2	24.3	0.00e+00	0	33	0	765460480	40	6419
2026-01-28 15:16:31.94	12.68	29.74	-34.3	-35.2	24.4	0.00e+00	0	33	0	768606208	40	6359
2026-01-28 15:16:32.95	12.59	29.92	-34.2	-35.1	24.4	0.00e+00	0	33	0	771751936	40	6321
2026-01-28 15:16:33.96	12.50	30.11	-34.2	-35.1	24.4	0.00e+00	0	33	0	774897664	40	6332
2026-01-28 15:16:34.96	12.41	30.29	-34.1	-35.0	24.5	0.00e+00	0	33	0	778043392	40	6217
2026-01-28 15:16:35.97	12.32	30.48	-34.0	-34.9	24.6	0.00e+00	2	33	0	781189120	40	6200
2026-01-28 15:16:36.98	12.23	30.67	-34.1	-35.0	24.5	0.00e+00	2	33	0	784334848	40	6229
2026-01-28 15:16:37.99	12.14	30.86	-33.9	-34.7	24.8	0.00e+00	0	33	0	787480576	40	6059
2026-01-28 15:16:39.00	12.04	31.05	-33.9	-34.8	24.8	0.00e+00	0	33	0	790626304	40	6067
2026-01-28 15:16:40.01	11.94	31.24	-33.9	-34.8	24.7	0.00e+00	0	33	0	793772032	40	6074
2026-01-28 15:16:41.02	11.85	31.44	-34.0	-34.9	24.6	0.00e+00	2	33	0	796917760	40	6169
2026-01-28 15:16:42.03	11.75	31.63	-34.0	-34.9	24.7	0.00e+00	0	33	0	800063488	40	6139
2026-01-28 15:16:43.04	11.65	31.83	-34.1	-35.0	24.4	0.00e+00	0	33	0	803209216	40	6215
2026-01-28 15:16:44.05	11.55	32.03	-34.2	-35.2	24.3	0.00e+00	2	33	0	806354944	40	6356
2026-01-28 15:16:45.06	11.45	32.22	-34.3	-35.2	24.3	0.00e+00	0	33	0	809500672	40	6374
2026-01-28 15:16:46.07	11.34	32.42	-34.3	-35.2	24.2	0.00e+00	2	33	0	812646400	40	6372
2026-01-28 15:16:47.08	11.24	32.62	-34.3	-35.2	24.3	0.00e+00	2	33	0	815792128	40	6397
2026-01-28 15:16:48.09	11.13	32.83	-34.4	-35.3	24.2	0.00e+00	0	33	0	818937856	40	6473
2026-01-28 15:16:49.10	11.02	33.03	-34.7	-35.7	24.1	0.00e+00	2	33	0	822083584	40	6746
2026-01-28 15:16:50.11	10.92	33.23	-34.8	-35.7	24.1	0.00e+00	0	33	0	825229312	42	6061
2026-01-28 15:16:51.12	10.81	33.44	-34.7	-35.6	24.2	0.00e+00	0	33	0	828375040	42	5962
2026-01-28 15:16:52.13	10.69	33.65	-35.0	-35.9	24.1	0.00e+00	5	33	0	831520768	42	6162
2026-01-28 15:16:53.14	10.58	33.86	-34.8	-35.7	24.1	0.00e+00	4	33	0	834666496	42	6034
2026-01-28 15:16:54.14	10.47	34.06	-34.8	-35.6	24.2	0.00e+00	0	33	0	837812224	42	5993
2026-01-28 15:16:55.15	10.35	34.27	-35.0	-35.9	24.0	0.00e+00	0	33	0	840957952	42	6169
2026-01-28 15:16:56.16	10.23	34.49	-34.9	-35.8	24.0	0.00e+00	0	33	0	844103680	42	6131
2026-01-28 15:16:57.17	10.11	34.70	-35.2	-36.1	23.8	0.00e+00	2	33	0	847249408	42	6330
2026-01-28 15:16:58.18	9.99	34.91	-35.3	-36.2	23.7	0.00e+00	3	33	0	850395136	42	6388
2026-01-28 15:16:59.18	9.87	35.13	-35.5	-36.4	23.6	0.00e+00	0	33	0	853540864	42	6536
2026-01-28 15:17:00.19	9.75	35.35	-35.4	-36.4	23.6	0.00e+00	4	33	0	856686592	42	6502
2026-01-28 15:17:01.21	9.62	35.57	-35.6	-36.5	23.5	0.00e+00	0	33	0	859832320	42	6637
2026-01-28 15:17:02.22	9.49	35.79	-35.7	-36.7	23.4	0.00e+00	2	33	0	862978048	44	5995
2026-01-28 15:17:03.22	9.36	36.01	-36.0	-36.9	23.1	0.00e+00	2	33	0	866123776	44	6203
2026-01-28 15:17:04.23	9.23	36.23	-36.2	-37.2	22.8	0.00e+00	0	33	0	869269504	44	6401
2026-01-28 15:17:05.25	9.10	36.46	-36.3	-37.3	22.8	0.00e+00	0	33	0	872415232	44	6447
2026-01-28 15:17:06.26	8.96	36.68	-36.4	-37.4	22.5	0.00e+00	0	33	0	875560960	44	6529
2026-01-28 15:17:07.26	8.82	36.91	-36.7	-37.7	22.5	0.00e+00	0	33	0	878706688	44	6766
2026-01-28 15:17:08.28	8.68	37.14	-36.4	-37.4	22.8	0.00e+00	3	33	0	881852416	44	6531
2026-01-28 15:17:09.29	8.54	37.37	-36.4	-37.5	22.8	0.00e+00	5	33	0	884998144	44	6580
2026-01-28 15:17:10.30	8.40	37.60	-36.3	-37.3	22.8	0.00e+00	0	33	0	888143872	44	6434
2026-01-28 15:17:11.31	8.25	37.83	-36.3	-37.2	22.9	0.00e+00	1	33	0	891289600	44	6421
2026-01-28 15:17:12.32	8.11	38.07	-36.2	-37.2	22.9	0.00e+00	3	33	0	894435328	44	6390
2026-01-28 15:17:13.32	7.96	38.30	-36.0	-37.0	23.0	0.00e+00	2	33	0	897581056	44	6253
2026-01-28 15:17:14.33	7.81	38.54	-36.0	-37.0	23.0	0.00e+00	3	33	0	900726784	44	6221
2026-01-28 15:17:15.34	7.65	38.77	-36.1	-37.1	22.9	0.00e+00	0	33	0	903872512	44	6308
2026-01-28 15:17:16.35	7.49	39.01	-36.1	-37.1	23.0	0.00e+00	1	33	0	907018240	44	6306
2026-01-28 15:17:17.36	7.33	39.26	-36.2	-37.2	22.8	0.00e+00	0	33	0	910163968	44	6377
2026-01-28 15:17:18.37	7.17	39.50	-36.2	-37.2	22.8	0.00e+00	2	33	0	913309696	44	6412
2026-01-28 15:17:19.38	7.01	39.74	-36.4	-37.5	22.7	0.00e+00	0	33	0	916455424	44	6577
2026-01-28 15:17:20.39	6.84	39.99	-36.4	-37.4	22.8	0.00e+00	0	33	0	919601152	44	6570
2026-01-28 15:17:21.40	6.67	40.23	-36.4	-37.4	22.8	0.00e+00	2	33	0	922746880	44	6509
2026-01-28 15:17:22.41	6.50	40.48	-36.0	-37.0	23.2	0.00e+00	1	33	0	925892608	44	6244
2026-01-28 15:17:23.41	6.33	40.73	-36.0	-37.0	23.3	0.00e+00	2	33	0	929038336	44	6256
2026-01-28 15:17:24.42	6.15	40.98	-35.9	-36.9	23.4	0.00e+00	0	33	0	932184064	44	6166
2026-01-28 15:17:25.43	5.97	41.23	-35.5	-36.4	23.7	0.00e+00	2	33	0	935329792	44	5856
2026-01-28 15:17:26.44	5.79	41.49	-35.5	-36.5	23.6	0.00e+00	1	33	0	938475520	44	5865
2026-01-28 15:17:27.46	5.60	41.75	-35.6	-36.5	23.7	0.00e+00	0	33	0	941621248	44	5879
2026-01-28 15:17:28.46	5.41	42.00	-35.7	-36.7	23.4	0.00e+00	4	33	0	944766976	44	6026
2026-01-28 15:17:29.47	5.22	42.26	-35.8	-36.7	23.3	0.00e+00	3	33	0	947912704	44	6036
2026-01-28 15:17:30.48	5.03	42.52	-36.0	-37.0	22.8	0.00e+00	0	33	0	951058432	44	6209
2026-01-28 15:17:31.50	4.83	42.78	-36.2	-37.2	22.6	0.00e+00	4	33	0	954204160	44	6385
2026-01-28 15:17:32.51	4.62	43.05	-36.3	-37.4	22.5	0.00e+00	2	33	0	957349888	44	6523
2026-01-28 15:17:33.51	4.42	43.31	-36.5	-37.5	22.5	0.00e+00	0	33	0	960495616	44	6629
2026-01-28 15:17:34.52	4.21	43.57	-36.7	-37.7	22.7	0.00e+00	2	33	0	963641344	44	6731
2026-01-28 15:17:35.53	4.00	43.84	-36.6	-37.6	22.7	0.00e+00	2	33	0	966787072	44	6650
2026-01-28 15:17:36.54	3.78	44.11	-36.6	-37.6	22.7	0.00e+00	0	33	0	969932800	44	6704
2026-01-28 15:17:37.55	3.56	44.38	-36.9	-37.9	22.5	0.00e+00	2	33	0	973078528	46	6147
2026-01-28 15:17:38.56	3.34	44.65	-37.2	-38.2	22.3	0.00e+00	0	33	0	976224256	46	6399
2026-01-28 15:17:39.57	3.11	44.92	-37.1	-38.1	22.3	0.00e+00	2	33	0	979369984	46	6334
2026-01-28 15:17:40.58	2.88	45.20	-36.9	-37.9	22.4	0.00e+00	0	33	0	982515712	46	6158
2026-01-28 15:17:41.59	2.65	45.47	-36.9	-38.0	22.3	0.00e+00	1	33	0	985661440	46	6211
2026-01-28 15:17:42.60	2.41	45.75	-36.8	-37.9	22.3	0.00e+00	4	33	0	988807168	46	6138
2026-01-28 15:17:43.61	2.16	46.03	-36.9	-37.9	22.3	0.00e+00	2	33	0	991952896	46	6187
2026-01-28 15:17:44.62	1.91	46.31	-36.7	-37.8	22.6	0.00e+00	2	33	0	995098624	46	6068
2026-01-28 15:17:45.63	1.66	46.59	-36.7	-37.7	22.6	0.00e+00	0	33	0	998244352	46	6000
2026-01-28 15:17:46.64	1.40	46.87	-36.8	-37.8	22.7	0.00e+00	0	33	0	1001390080	46	6086
2026-01-28 15:17:47.65	1.14	47.15	-36.7	-37.7	22.7	0.00e+00	2	33	0	1004535808	46	6002
2026-01-28 15:17:48.66	0.87	47.44	-36.5	-37.5	22.8	0.00e+00	3	33	0	1007681536	46	5912
2026-01-28 15:17:49.67	0.60	47.72	-36.4	-37.3	23.0	0.00e+00	0	33	0	1010827264	46	5780
2026-01-28 15:17:50.68	0.32	48.01	-36.3	-37.3	23.0	0.00e+00	2	33	0	1013972992	46	5739
2026-01-28 15:17:51.69	0.04	48.30	-36.1	-37.1	23.1	0.00e+00	1	33	0	1017118720	46	5625
2026-01-28 15:17:52.71	359.75	48.59	-36.1	-37.1	23.1	0.00e+00	0	33	0	1020264448	46	5638
2026-01-28 15:17:53.71	359.46	48.87	-36.2	-37.2	23.1	0.00e+00	4	33	0	1023410176	46	5679
2026-01-28 15:17:54.72	359.16	49.17	-35.8	-36.7	23.4	0.00e+00	5	33	0	1026555904	46	5378
2026-01-28 15:17:55.73	358.85	49.46	-36.3	-37.2	23.0	0.00e+00	0	33	0	1029701632	46	5717
2026-01-28 15:17:56.75	358.54	49.75	-36.6	-37.6	22.7	0.00e+00	0	33	0	1032847360	46	5943
2026-01-28 15:17:57.75	358.22	50.05	-36.5	-37.6	22.5	0.00e+00	1	33	0	1035993088	46	5931
2026-01-28 15:17:58.76	357.90	50.34	-36.9	-37.9	22.3	0.00e+00	2	33	0	1039138816	46	6194
2026-01-28 15:17:59.77	357.57	50.64	-36.3	-37.2	22.8	0.00e+00	2	33	0	1042284544	46	5719
2026-01-28 15:18:00.78	357.23	50.93	-36.4	-37.4	22.9	0.00e+00	2	33	0	1045430272	46	5811
2026-01-28 15:18:01.75	356.90	51.22	-36.0	-36.9	23.2	0.00e+00	0	33	0	1048576000	46	5527
2026-01-28 15:18:02.74	356.56	51.51	-35.7	-36.6	23.4	0.00e+00	4	33	0	1051721728	44	5981
2026-01-28 15:18:03.74	356.21	51.81	-35.7	-36.7	23.2	0.00e+00	3	33	0	1054867456	44	6025
2026-01-28 15:18:04.76	355.84	52.11	-35.9	-36.9	22.9	0.00e+00	2	33	0	1058013184	44	6201
2026-01-28 15:18:05.76	355.47	52.41	-36.1	-37.1	23.0	0.00e+00	3	33	0	1061158912	44	6314
2026-01-28 15:18:06.78	355.09	52.71	-36.0	-37.0	23.2	0.00e+00	2	33	0	1064304640	44	6206
2026-01-28 15:18:07.79	354.70	53.02	-35.8	-36.8	23.4	0.00e+00	0	33	0	1067450368	44	6096
2026-01-28 15:18:08.80	354.30	53.32	-35.4	-36.4	23.7	0.00e+00	1	33	0	1070596096	44	5792
2026-01-28 15:18:09.81	353.90	53.62	-35.4	-36.3	23.6	0.00e+00	0	33	0	1073741824	44	5770
2026-01-28 15:18:10.82	353.49	53.92	-35.5	-36.4	23.4	0.00e+00	0	33	0	1076887552	44	5840
2026-01-28 15:18:11.83	353.06	54.23	-35.5	-36.5	23.5	0.00e+00	2	33	0	1080033280	44	5910
2026-01-28 15:18:12.84	352.63	54.53	-35.5	-36.5	23.6	0.00e+00	0	33	0	1083179008	44	5893
2026-01-28 15:18:13.85	352.19	54.83	-35.2	-36.2	23.7	0.00e+00	0	33	0	1086324736	44	5667
2026-01-28 15:18:14.86	351.74	55.14	-34.8	-35.7	24.2	0.00e+00	0	33	0	1089470464	44	5388
2026-01-28 15:18:15.87	351.28	55.44	-34.8	-35.8	24.2	0.00e+00	2	33	0	1092616192	44	5405
2026-01-28 15:18:16.88	350.81	55.74	-34.1	-35.0	24.6	0.00e+00	0	33	0	1095761920	42	5572
2026-01-28 15:18:17.89	350.33	56.05	-34.1	-34.9	24.5	0.00e+00	0	33	0	1098907648	42	5530
2026-01-28 15:18:18.90	349.84	56.35	-34.6	-35.5	24.3	0.00e+00	4	33	0	1102053376	42	5906
2026-01-28 15:18:19.91	349.34	56.65	-34.8	-35.7	24.3	0.00e+00	0	33	0	1105199104	42	6017
2026-01-28 15:18:20.92	348.83	56.95	-34.6	-35.5	24.3	0.00e+00	3	33	0	1108344832	42	5886
2026-01-28 15:18:21.93	348.30	57.25	-33.9	-34.8	24.6	0.00e+00	0	33	0	1111490560	42	5452
2026-01-28 15:18:22.94	347.77	57.55	-33.6	-34.5	24.4	0.00e+00	4	33	0	1114636288	40	5864
2026-01-28 15:18:23.95	347.22	57.85	-33.7	-34.6	24.2	0.00e+00	0	33	0	1117782016	40	5956
2026-01-28 15:18:24.96	346.66	58.15	-33.9	-34.8	24.5	0.00e+00	2	33	0	1120927744	40	6068
2026-01-28 15:18:25.97	346.09	58.45	-33.7	-34.6	24.4	0.00e+00	0	33	0	1124073472	40	5936
2026-01-28 15:18:26.98	345.50	58.74	-33.5	-34.4	24.2	0.00e+00	5	33	0	1127219200	40	5824
2026-01-28 15:18:27.99	344.90	59.04	-33.6	-34.5	24.4	0.00e+00	1	33	0	1130364928	40	5921
2026-01-28 15:18:29.00	344.29	59.33	-33.5	-34.4	24.8	0.00e+00	0	33	0	1133510656	40	5841
2026-01-28 15:18:30.01	343.66	59.62	-33.5	-34.4	24.6	0.00e+00	2	33	0	1137704960	40	5820
2026-01-28 15:18:31.02	343.02	59.91	-33.2	-34.1	24.9	0.00e+00	1	33	0	1140850688	40	5632
2026-01-28 15:18:32.03	342.36	60.20	-33.4	-34.2	25.1	0.00e+00	2	33	0	1142947840	40	5710
2026-01-28 15:18:33.04	341.69	60.48	-33.2	-34.0	25.3	0.00e+00	0	33	0	1146093568	40	5587
2026-01-28 15:18:34.05	341.01	60.77	-33.4	-34.2	25.2	0.00e+00	2	33	0	1149239296	40	5701
2026-01-28 15:18:35.05	340.31	61.04	-33.2	-34.1	25.4	0.00e+00	0	33	0	1153433600	40	5613
2026-01-28 15:18:36.06	339.59	61.32	-33.3	-34.1	25.3	0.00e+00	2	33	0	1156579328	40	5649
2026-01-28 15:18:37.07	338.86	61.60	-33.3	-34.1	25.3	0.00e+00	0	33	0	1159725056	40	5636
2026-01-28 15:18:38.08	338.11	61.87	-33.4	-34.3	25.2	0.00e+00	0	33	0	1162870784	40	5738
2026-01-28 15:18:39.09	337.34	62.14	-32.5	-33.3	25.8	0.00e+00	3	33	0	1164967936	38	5786
2026-01-28 15:18:40.10	336.56	62.40	-32.4	-33.2	25.8	0.00e+00	2	33	0	1169162240	38	5708
2026-01-28 15:18:41.11	335.76	62.66	-32.6	-33.4	25.6	0.00e+00	0	33	0	1172307968	38	5818
2026-01-28 15:18:42.12	334.94	62.92	-32.9	-33.7	25.6	0.00e+00	6	33	0	1175453696	38	6020
2026-01-28 15:18:43.13	334.10	63.18	-32.9	-33.7	25.6	0.00e+00	6	33	0	1178599424	38	6033
2026-01-28 15:18:44.14	333.25	63.42	-32.9	-33.8	25.4	0.00e+00	2	33	0	1181745152	38	6100
2026-01-28 15:18:45.15	332.38	63.67	-33.0	-33.8	25.5	0.00e+00	0	33	0	1184890880	38	6119
2026-01-28 15:18:46.16	331.49	63.91	-33.2	-34.1	25.2	0.00e+00	2	33	0	1188036608	38	6335
2026-01-28 15:18:47.17	330.58	64.14	-33.4	-34.3	25.2	0.00e+00	2	33	0	1191182336	38	6425
2026-01-28 15:18:48.18	329.65	64.37	-33.4	-34.2	25.2	0.00e+00	0	33	0	1194328064	38	6405
2026-01-28 15:18:49.19	328.70	64.60	-33.5	-34.4	25.1	0.00e+00	2	33	0	1197473792	38	6513
2026-01-28 15:18:50.20	327.74	64.82	-33.7	-34.6	25.0	0.00e+00	2	33	0	1200619520	38	6653
2026-01-28 15:18:51.21	326.75	65.03	-33.3	-34.2	25.3	0.00e+00	2	33	0	1203765248	38	6357
2026-01-28 15:18:52.22	325.75	65.24	-32.7	-33.6	25.6	0.00e+00	0	33	0	1206910976	38	5964
2026-01-28 15:18:53.23	324.73	65.44	-32.7	-33.6	25.5	0.00e+00	2	33	0	1210056704	38	5933
2026-01-28 15:18:54.24	323.69	65.63	-33.2	-34.1	25.2	0.00e+00	0	33	0	1213202432	38	6283
2026-01-28 15:18:55.26	322.62	65.82	-33.3	-34.2	25.1	0.00e+00	0	33	0	1216348160	38	6403
2026-01-28 15:18:56.26	321.55	65.99	-33.3	-34.1	25.1	0.00e+00	4	33	0	1219493888	38	6346
2026-01-28 15:18:57.27	320.46	66.17	-33.2	-34.0	25.2	0.00e+00	0	33	0	1222639616	38	6264
2026-01-28 15:18:58.28	319.35	66.33	-33.1	-34.0	25.2	0.00e+00	3	33	0	1225785344	38	6216
2026-01-28 15:18:59.29	318.22	66.49	-33.3	-34.1	25.3	0.00e+00	0	33	0	1228931072	38	6345
2026-01-28 15:19:00.31	317.07	66.63	-33.1	-34.0	25.3	0.00e+00	0	33	0	1232076800	38	6222
2026-01-28 15:19:01.32	315.91	66.77	-33.1	-33.9	25.3	0.00e+00	5	33	0	1235222528	38	6198
2026-01-28 15:19:02.33	314.74	66.90	-33.0	-33.9	25.3	0.00e+00	3	33	0	1238368256	38	6143
2026-01-28 15:19:03.34	313.55	67.03	-32.8	-33.7	25.1	0.00e+00	0	33	0	1241513984	38	6015
2026-01-28 15:19:04.35	312.35	67.14	-32.6	-33.4	25.6	0.00e+00	4	33	0	1244659712	38	5854
2026-01-28 15:19:05.36	311.13	67.24	-32.3	-33.1	26.0	0.00e+00	2	33	0	1247805440	38	5629
2026-01-28 15:19:06.37	309.91	67.34	-32.4	-33.2	25.9	0.00e+00	1	33	0	1250951168	38	5674
2026-01-28 15:19:07.37	308.68	67.42	-32.7	-33.5	25.8	0.00e+00	2	33	0	1254096896	38	5923
2026-01-28 15:19:08.38	307.44	67.50	-32.6	-33.4	25.8	0.00e+00	0	33	0	1257242624	38	5813
2026-01-28 15:19:09.39	306.18	67.56	-32.6	-33.4	25.8	0.00e+00	1	33	0	1260388352	38	5823
2026-01-28 15:19:10.41	304.91	67.62	-32.6	-33.4	25.7	0.00e+00	2	33	0	1263534080	38	5848
2026-01-28 15:19:11.42	303.64	67.66	-32.7	-33.5	25.6	0.00e+00	2	33	0	1266679808	38	5896
2026-01-28 15:19:12.43	302.36	67.70	-32.7	-33.5	25.8	0.00e+00	2	33	0	1269825536	38	5879
2026-01-28 15:19:13.43	301.10	67.72	-32.9	-33.8	25.6	0.00e+00	2	33	0	1272971264	38	6078
2026-01-28 15:19:14.45	299.81	67.74	-33.1	-33.9	25.4	0.00e+00	2	33	0	1276116992	38	6190
2026-01-28 15:19:15.46	298.53	67.74	-33.1	-34.0	25.3	0.00e+00	0	33	0	1279262720	38	6233
2026-01-28 15:19:16.47	297.25	67.74	-32.8	-33.7	25.6	0.00e+00	0	33	0	1282408448	38	6023
2026-01-28 15:19:17.48	295.97	67.72	-33.1	-34.0	25.3	0.00e+00	4	33	0	1285554176	38	6210
2026-01-28 15:19:18.48	294.70	67.69	-33.5	-34.4	25.1	0.00e+00	4	33	0	1288699904	38	6537
2026-01-28 15:19:19.50	293.42	67.66	-33.8	-34.6	25.0	0.00e+00	0	33	0	1291845632	40	5989
2026-01-28 15:19:20.51	292.15	67.61	-33.3	-34.1	25.3	0.00e+00	2	33	0	1294991360	40	5646
2026-01-28 15:19:21.52	290.89	67.55	-33.1	-34.0	25.4	0.00e+00	0	33	0	1298137088	40	5552
2026-01-28 15:19:22.53	289.63	67.49	-33.2	-34.0	25.4	0.00e+00	0	33	0	1301282816	40	5573
2026-01-28 15:19:23.53	288.40	67.41	-32.5	-33.4	25.6	0.00e+00	0	33	0	1304428544	38	5828
2026-01-28 15:19:24.54	287.16	67.33	-32.7	-33.5	25.4	0.00e+00	0	33	0	1307574272	38	5917
2026-01-28 15:19:25.55	285.94	67.23	-32.8	-33.6	25.3	0.00e+00	0	33	0	1310720000	38	5977
2026-01-28 15:19:26.56	284.73	67.13	-33.1	-34.0	25.1	0.00e+00	2	33	0	1313865728	38	6233
2026-01-28 15:19:27.57	283.52	67.01	-33.1	-33.9	25.4	0.00e+00	2	33	0	1317011456	38	6194
2026-01-28 15:19:28.58	282.34	66.89	-32.8	-33.6	25.7	0.00e+00	0	33	0	1320157184	38	5947
2026-01-28 15:19:29.59	281.16	66.76	-32.8	-33.6	25.7	0.00e+00	2	33	0	1323302912	38	5978
2026-01-28 15:19:30.60	280.01	66.62	-33.2	-34.1	25.4	0.00e+00	2	33	0	1326448640	38	6311
2026-01-28 15:19:31.61	278.86	66.47	-33.5	-34.4	25.1	0.00e+00	0	33	0	1329594368	38	6518
2026-01-28 15:19:32.62	277.74	66.31	-33.2	-34.1	25.3	0.00e+00	0	33	0	1332740096	38	6295
2026-01-28 15:19:33.63	276.63	66.15	-33.0	-33.9	25.5	0.00e+00	0	33	0	1335885824	38	6179
2026-01-28 15:19:34.64	275.54	65.97	-33.1	-34.0	25.5	0.00e+00	0	33	0	1339031552	38	6230
2026-01-28 15:19:35.65	274.46	65.79	-33.0	-33.9	25.6	0.00e+00	3	33	0	1342177280	38	6149
2026-01-28 15:19:36.66	273.40	65.61	-33.0	-33.8	25.5	0.00e+00	2	33	0	1345323008	38	6118
2026-01-28 15:19:37.67	272.37	65.41	-32.5	-33.4	25.7	0.00e+00	5	33	0	1348468736	38	5793
2026-01-28 15:19:38.69	271.34	65.21	-32.9	-33.8	25.0	0.00e+00	0	33	0	1351614464	38	6073
2026-01-28 15:19:39.70	270.33	65.00	-33.6	-34.5	24.6	0.00e+00	4	33	0	1354760192	38	6604
2026-01-28 15:19:40.71	269.35	64.79	-33.9	-34.8	24.8	0.00e+00	2	33	0	1357905920	40	6091
2026-01-28 15:19:41.72	268.39	64.57	-33.8	-34.7	24.9	0.00e+00	0	33	0	1361051648	40	6022
2026-01-28 15:19:42.73	267.44	64.34	-33.7	-34.6	25.0	0.00e+00	0	33	0	1364197376	40	5989
2026-01-28 15:19:43.74	266.51	64.11	-34.0	-34.9	24.8	0.00e+00	4	33	0	1367343104	40	6182
2026-01-28 15:19:44.75	265.60	63.88	-34.3	-35.2	24.6	0.00e+00	1	33	0	1370488832	40	6398
2026-01-28 15:19:45.76	264.71	63.64	-34.3	-35.2	24.4	0.00e+00	3	33	0	1373634560	40	6413
2026-01-28 15:19:46.77	263.84	63.39	-33.6	-34.5	25.0	0.00e+00	1	33	0	1376780288	40	5902
2026-01-28 15:19:47.78	262.99	63.14	-33.2	-34.1	25.3	0.00e+00	0	33	0	1379926016	40	5615
2026-01-28 15:19:48.79	262.15	62.89	-33.0	-33.8	25.5	0.00e+00	0	33	0	1383071744	40	5446
2026-01-28 15:19:49.80	261.34	62.63	-33.0	-33.8	25.5	0.00e+00	0	33	0	1386217472	40	5461
2026-01-28 15:19:50.81	260.54	62.36	-33.3	-34.2	25.2	0.00e+00	2	33	0	1389363200	40	5693
2026-01-28 15:19:51.82	259.75	62.10	-34.1	-35.0	24.7	0.00e+00	0	33	0	1392508928	40	6231
2026-01-28 15:19:52.83	258.99	61.83	-34.3	-35.2	24.6	0.00e+00	2	33	0	1395654656	40	6386
2026-01-28 15:19:53.84	258.24	61.56	-33.7	-34.5	25.0	0.00e+00	2	33	0	1398800384	40	5926
2026-01-28 15:19:54.85	257.51	61.28	-33.1	-33.9	25.5	0.00e+00	2	33	0	1401946112	40	5501
2026-01-28 15:19:55.86	256.79	61.00	-32.8	-33.7	25.5	0.00e+00	0	33	0	1405091840	38	6006
2026-01-28 15:19:56.87	256.09	60.72	-33.8	-34.7	24.9	0.00e+00	5	33	0	1408237568	40	6018
2026-01-28 15:19:57.88	255.40	60.44	-34.5	-35.4	24.4	0.00e+00	5	33	0	1411383296	40	6532
2026-01-28 15:19:58.89	254.73	60.15	-34.5	-35.4	24.4	0.00e+00	0	33	0	1414529024	40	6542
2026-01-28 15:19:59.90	254.08	59.86	-33.9	-34.8	24.3	0.00e+00	2	33	0	1417674752	40	6081
2026-01-28 15:20:00.91	253.44	59.57	-33.2	-34.0	24.6	0.00e+00	0	33	0	1420820480	40	5593
2026-01-28 15:20:01.92	252.81	59.28	-32.9	-33.8	24.4	0.00e+00	1	33	0	1423966208	40	5462
2026-01-28 15:20:02.93	252.20	58.99	-33.2	-34.1	24.7	0.00e+00	4	33	0	1427111936	40	5610
2026-01-28 15:20:03.94	251.60	58.69	-33.5	-34.3	25.1	0.00e+00	0	33	0	1430257664	40	5788
2026-01-28 15:20:04.94	251.02	58.40	-34.0	-34.8	24.7	0.00e+00	3	33	0	1433403392	40	6115
2026-01-28 15:20:05.95	250.45	58.10	-35.4	-36.3	23.4	0.00e+00	2	33	0	1436549120	42	6472
2026-01-28 15:20:06.96	249.89	57.80	-35.8	-36.9	22.7	0.00e+00	3	33	0	1439694848	44	6149
2026-01-28 15:20:07.97	249.34	57.50	-34.9	-35.9	23.6	0.00e+00	2	33	0	1442840576	44	5507
2026-01-28 15:20:08.98	248.81	57.20	-34.8	-35.7	24.2	0.00e+00	2	33	0	1445986304	42	6011
2026-01-28 15:20:09.99	248.28	56.90	-33.9	-34.8	24.8	0.00e+00	2	33	0	1449132032	42	5417
2026-01-28 15:20:11.00	247.77	56.59	-33.9	-34.7	24.9	0.00e+00	2	33	0	1453326336	40	6020
2026-01-28 15:20:12.01	247.27	56.29	-33.8	-34.7	24.9	0.00e+00	2	33	0	1456472064	40	6009
2026-01-28 15:20:13.02	246.78	55.99	-34.4	-35.2	24.5	0.00e+00	0	33	0	1458569216	40	6421
2026-01-28 15:20:14.03	246.30	55.68	-34.7	-35.6	24.3	0.00e+00	2	33	0	1461714944	40	6657
2026-01-28 15:20:15.04	245.83	55.38	-34.9	-35.8	24.0	0.00e+00	0	33	0	1464860672	42	6089
2026-01-28 15:20:16.05	245.37	55.07	-34.4	-35.3	23.8	0.00e+00	0	33	0	1468006400	42	5782
2026-01-28 15:20:17.06	244.92	54.77	-33.7	-34.6	24.2	0.00e+00	1	33	0	1472200704	42	5295
2026-01-28 15:20:18.06	244.49	54.47	-33.2	-34.0	24.8	0.00e+00	0	33	0	1475346432	40	5587
2026-01-28 15:20:19.07	244.06	54.17	-33.7	-34.5	24.6	0.00e+00	5	33	0	1478492160	40	5925
2026-01-28 15:20:20.08	243.64	53.86	-34.8	-35.7	23.7	0.00e+00	4	33	0	1480589312	40	6756
2026-01-28 15:20:21.09	243.22	53.56	-35.6	-36.6	23.4	0.00e+00	2	33	0	1483735040	42	6696
2026-01-28 15:20:22.10	242.82	53.25	-35.9	-36.8	23.2	0.00e+00	0	33	0	1487929344	44	6123
2026-01-28 15:20:23.11	242.42	52.95	-36.4	-37.4	22.6	0.00e+00	1	33	0	1491075072	44	6571
2026-01-28 15:20:24.12	242.04	52.65	-36.5	-37.5	22.6	0.00e+00	0	33	0	1494220800	44	6614
2026-01-28 15:20:25.13	241.66	52.35	-36.3	-37.3	22.8	0.00e+00	4	33	0	1497366528	44	6493
2026-01-28 15:20:26.14	241.28	52.04	-35.7	-36.6	23.4	0.00e+00	4	33	0	1500512256	44	5989
2026-01-28 15:20:27.15	240.92	51.74	-34.9	-35.8	24.2	0.00e+00	0	33	0	1503657984	44	5463
2026-01-28 15:20:28.16	240.56	51.44	-34.8	-35.7	24.1	0.00e+00	1	33	0	1506803712	42	6004
2026-01-28 15:20:29.17	240.21	51.14	-34.3	-35.2	24.3	0.00e+00	1	33	0	1509949440	42	5672
2026-01-28 15:20:30.18	239.87	50.85	-34.8	-35.7	23.8	0.00e+00	1	33	0	1513095168	42	6014
2026-01-28 15:20:31.18	239.54	50.55	-35.6	-36.5	23.5	0.00e+00	2	33	0	1516240896	42	6577
2026-01-28 15:20:32.20	239.20	50.25	-35.9	-36.9	23.2	0.00e+00	2	33	0	1519386624	44	6147
2026-01-28 15:20:33.21	238.88	49.95	-35.6	-36.5	23.3	0.00e+00	2	33	0	1522532352	44	5884
2026-01-28 15:20:34.22	238.56	49.66	-35.6	-36.5	22.9	0.00e+00	2	33	0	1525678080	44	5924
2026-01-28 15:20:35.23	238.25	49.37	-35.5	-36.4	23.0	0.00e+00	2	33	0	1528823808	44	5836
2026-01-28 15:20:36.23	237.95	49.08	-35.3	-36.2	23.1	0.00e+00	0	33	0	1531969536	44	5713
2026-01-28 15:20:37.24	237.65	48.78	-35.5	-36.5	22.6	0.00e+00	2	33	0	1535115264	44	5892
2026-01-28 15:20:38.25	237.36	48.49	-35.8	-36.8	22.5	0.00e+00	4	33	0	1538260992	44	6083
2026-01-28 15:20:39.26	237.07	48.20	-36.0	-37.0	22.9	0.00e+00	2	33	0	1541406720	44	6230
2026-01-28 15:20:40.27	236.79	47.91	-36.2	-37.1	23.0	0.00e+00	3	33	0	1544552448	44	6324
2026-01-28 15:20:41.28	236.51	47.63	-36.8	-37.9	22.3	0.00e+00	5	33	0	1547698176	44	6888
2026-01-28 15:20:42.29	236.24	47.34	-37.8	-39.0	21.2	0.00e+00	3	33	0	1550843904	46	6975
2026-01-28 15:20:43.30	235.97	47.06	-38.3	-39.5	20.8	0.00e+00	0	33	0	1553989632	48	6648
2026-01-28 15:20:44.31	235.71	46.77	-37.9	-39.0	21.5	0.00e+00	3	33	0	1557135360	48	6231
2026-01-28 15:20:45.32	235.45	46.49	-37.2	-38.2	22.4	0.00e+00	0	33	0	1560281088	48	5694
2026-01-28 15:20:46.33	235.20	46.21	-36.1	-37.0	23.2	0.00e+00	4	33	0	1563426816	46	5593
2026-01-28 15:20:47.34	234.95	45.93	-35.2	-36.1	23.9	0.00e+00	0	33	0	1566572544	44	5648
2026-01-28 15:20:48.34	234.71	45.65	-35.3	-36.2	23.9	0.00e+00	1	33	0	1569718272	44	5690
2026-01-28 15:20:49.35	234.47	45.37	-35.6	-36.5	23.6	0.00e+00	2	33	0	1572864000	44	5892
2026-01-28 15:20:50.36	234.24	45.10	-35.9	-36.8	23.3	0.00e+00	0	33	0	1576009728	44	6109
2026-01-28 15:20:51.37	234.00	44.82	-36.1	-37.0	23.1	0.00e+00	2	33	0	1579155456	44	6269
2026-01-28 15:20:52.38	233.78	44.55	-36.0	-37.0	23.2	0.00e+00	2	33	0	1582301184	44	6208
2026-01-28 15:20:53.39	233.55	44.28	-35.8	-36.7	23.5	0.00e+00	1	33	0	1585446912	44	6029
2026-01-28 15:20:54.39	233.34	44.01	-35.7	-36.7	23.5	0.00e+00	2	33	0	1588592640	44	5997
2026-01-28 15:20:55.40	233.12	43.74	-36.0	-37.0	23.2	0.00e+00	2	33	0	1591738368	44	6232
2026-01-28 15:20:56.41	232.91	43.47	-36.7	-37.7	22.7	0.00e+00	1	33	0	1594884096	44	6733
2026-01-28 15:20:57.42	232.70	43.21	-37.2	-38.3	21.9	0.00e+00	2	33	0	1598029824	46	6458
2026-01-28 15:20:58.43	232.49	42.94	-37.5	-38.6	21.7	0.00e+00	2	33	0	1601175552	46	6705
2026-01-28 15:20:59.44	232.29	42.68	-37.2	-38.2	22.1	0.00e+00	0	33	0	1604321280	46	6409
2026-01-28 15:21:00.45	232.09	42.42	-36.9	-37.9	22.5	0.00e+00	3	33	0	1607467008	46	6176
2026-01-28 15:21:01.46	231.90	42.16	-36.5	-37.4	22.9	0.00e+00	3	33	0	1610612736	46	5855
2026-01-28 15:21:02.47	231.71	41.90	-35.7	-36.6	23.6	0.00e+00	4	33	0	1613758464	44	5953
2026-01-28 15:21:03.47	231.52	41.64	-35.5	-36.5	23.6	0.00e+00	0	33	0	1616904192	44	5869
2026-01-28 15:21:04.49	231.33	41.38	-35.8	-36.8	23.3	0.00e+00	2	33	0	1620049920	44	6070
2026-01-28 15:21:05.50	231.15	41.13	-36.0	-37.0	22.9	0.00e+00	3	33	0	1623195648	44	6274
2026-01-28 15:21:06.51	230.97	40.87	-36.2	-37.2	22.5	0.00e+00	0	33	0	1626341376	44	6386
2026-01-28 15:21:07.52	230.79	40.62	-36.3	-37.4	22.2	0.00e+00	3	33	0	1629487104	44	6533
2026-01-28 15:21:08.53	230.62	40.37	-36.3	-37.4	22.5	0.00e+00	3	33	0	1632632832	44	6534
2026-01-28 15:21:09.54	230.44	40.12	-36.1	-37.2	22.8	0.00e+00	4	33	0	1635778560	44	6361
2026-01-28 15:21:10.55	230.28	39.88	-36.2	-37.1	23.0	0.00e+00	0	33	0	1638924288	44	6347
2026-01-28 15:21:11.56	230.11	39.63	-36.5	-37.5	22.8	0.00e+00	3	33	0	1642070016	44	6582
2026-01-28 15:21:12.57	229.95	39.39	-36.6	-37.6	22.7	0.00e+00	2	33	0	1645215744	44	6711
2026-01-28 15:21:13.58	229.78	39.14	-36.8	-37.9	22.5	0.00e+00	0	33	0	1648361472	44	6888
2026-01-28 15:21:14.59	229.62	38.90	-36.8	-37.8	22.6	0.00e+00	1	33	0	1651507200	46	6115
2026-01-28 15:21:15.60	229.47	38.66	-36.3	-37.3	22.9	0.00e+00	4	33	0	1654652928	46	5779
2026-01-28 15:21:16.61	229.31	38.42	-36.3	-37.3	23.0	0.00e+00	1	33	0	1657798656	46	5741
2026-01-28 15:21:17.62	229.16	38.18	-36.3	-37.3	22.9	0.00e+00	0	33	0	1660944384	46	5764
2026-01-28 15:21:18.62	229.01	37.95	-36.0	-37.0	23.2	0.00e+00	0	33	0	1664090112	46	5584
2026-01-28 15:21:19.63	228.87	37.71	-36.0	-37.0	23.3	0.00e+00	2	33	0	1667235840	46	5561
2026-01-28 15:21:20.64	228.72	37.48	-36.2	-37.2	23.0	0.00e+00	3	33	0	1670381568	46	5679
2026-01-28 15:21:21.65	228.58	37.25	-36.3	-37.3	22.9	0.00e+00	3	33	0	1673527296	46	5784
2026-01-28 15:21:22.66	228.43	37.02	-36.6	-37.6	22.7	0.00e+00	0	33	0	1676673024	46	5982
2026-01-28 15:21:23.67	228.30	36.79	-36.4	-37.5	22.8	0.00e+00	3	33	0	1679818752	46	5866
2026-01-28 15:21:24.68	228.16	36.56	-36.5	-37.5	22.7	0.00e+00	2	33	0	1682964480	46	5920
2026-01-28 15:21:25.69	228.02	36.34	-36.3	-37.3	22.7	0.00e+00	6	33	0	1686110208	46	5783
2026-01-28 15:21:26.70	227.89	36.11	-36.4	-37.5	22.4	0.00e+00	0	33	0	1689255936	46	5894
2026-01-28 15:21:27.71	227.76	35.89	-36.3	-37.4	22.5	0.00e+00	0	33	0	1692401664	46	5798
2026-01-28 15:21:28.72	227.63	35.67	-36.2	-37.3	22.7	0.00e+00	0	33	0	1695547392	46	5733
2026-01-28 15:21:29.73	227.50	35.45	-36.0	-37.0	22.9	0.00e+00	0	33	0	1698693120	46	5544
2026-01-28 15:21:30.74	227.37	35.23	-35.5	-36.5	23.4	0.00e+00	2	33	0	1701838848	44	5872
2026-01-28 15:21:31.75	227.25	35.01	-35.6	-36.5	23.5	0.00e+00	2	33	0	1704984576	44	5910
2026-01-28 15:21:32.76	227.13	34.79	-35.6	-36.5	23.6	0.00e+00	1	33	0	1708130304	44	5902
2026-01-28 15:21:33.77	227.00	34.58	-35.6	-36.6	23.7	0.00e+00	2	33	0	1711276032	44	5935
2026-01-28 15:21:34.78	226.88	34.36	-35.0	-35.9	24.1	0.00e+00	1	33	0	1714421760	44	5511
2026-01-28 15:21:35.79	226.77	34.15	-35.1	-36.0	24.0	0.00e+00	0	33	0	1717567488	44	5548
2026-01-28 15:21:36.79	226.65	33.94	-35.0	-35.9	24.0	0.00e+00	0	33	0	1720713216	44	5496
2026-01-28 15:21:37.80	226.54	33.73	-35.3	-36.3	23.6	0.00e+00	2	33	0	1723858944	44	5761
2026-01-28 15:21:38.81	226.42	33.52	-35.6	-36.6	23.3	0.00e+00	2	33	0	1727004672	44	5927
2026-01-28 15:21:39.82	226.31	33.31	-35.8	-36.8	23.2	0.00e+00	1	33	0	1730150400	44	6087
2026-01-28 15:21:40.83	226.20	33.11	-35.8	-36.8	23.1	0.00e+00	1	33	0	1733296128	44	6133
2026-01-28 15:21:41.84	226.09	32.90	-35.8	-36.8	23.2	0.00e+00	2	33	0	1736441856	44	6091
2026-01-28 15:21:42.85	225.98	32.70	-35.8	-36.8	23.2	0.00e+00	2	33	0	1739587584	44	6071
2026-01-28 15:21:43.86	225.88	32.49	-35.6	-36.6	23.3	0.00e+00	0	33	0	1742733312	44	5963
2026-01-28 15:21:44.87	225.77	32.29	-35.5	-36.4	23.4	0.00e+00	0	33	0	1745879040	44	5843
2026-01-28 15:21:45.88	225.67	32.09	-35.0	-36.0	23.7	0.00e+00	0	33	0	1749024768	44	5547
2026-01-28 15:21:46.89	225.57	31.89	-34.8	-35.8	23.7	0.00e+00	0	33	0	1752170496	44	5424
2026-01-28 15:21:47.89	225.47	31.70	-34.7	-35.6	23.7	0.00e+00	0	33	0	1755316224	42	5967
2026-01-28 15:21:48.90	225.37	31.50	-34.6	-35.5	23.7	0.00e+00	4	33	0	1758461952	42	5901
2026-01-28 15:21:49.91	225.27	31.31	-34.6	-35.5	23.8	0.00e+00	2	33	0	1761607680	42	5915
2026-01-28 15:21:50.93	225.17	31.11	-34.5	-35.5	24.0	0.00e+00	2	33	0	1764753408	42	5884
2026-01-28 15:21:51.93	225.07	30.92	-34.4	-35.3	24.2	0.00e+00	1	33	0	1767899136	42	5769
2026-01-28 15:21:52.94	224.98	30.73	-34.5	-35.5	24.3	0.00e+00	0	33	0	1771044864	42	5861
2026-01-28 15:21:53.95	224.89	30.54	-34.5	-35.4	24.3	0.00e+00	2	33	0	1774190592	42	5802
2026-01-28 15:21:54.96	224.79	30.35	-34.0	-34.9	24.6	0.00e+00	1	33	0	1777336320	42	5505
2026-01-28 15:21:55.97	224.70	30.16	-34.0	-34.9	24.6	0.00e+00	0	33	0	1780482048	42	5514
2026-01-28 15:21:56.98	224.61	29.97	-33.9	-34.8	24.7	0.00e+00	0	33	0	1783627776	42	5455
2026-01-28 15:21:57.99	224.52	29.79	-34.0	-34.8	24.8	0.00e+00	0	33	0	1786773504	42	5463
2026-01-28 15:21:59.00	224.43	29.60	-34.0	-34.9	24.8	0.00e+00	2	33	0	1789919232	42	5471
2026-01-28 15:22:00.01	224.34	29.42	-33.8	-34.7	24.9	0.00e+00	0	33	0	1793064960	42	5365
2026-01-28 15:22:01.02	224.26	29.24	-33.9	-34.7	24.9	0.00e+00	1	33	0	1796210688	42	5399
2026-01-28 15:22:02.03	224.17	29.06	-33.8	-34.7	25.0	0.00e+00	0	33	0	1799356416	42	5376
2026-01-28 15:22:03.03	224.09	28.88	-34.0	-34.8	24.8	0.00e+00	2	33	0	1802502144	42	5456
2026-01-28 15:22:04.04	224.01	28.70	-34.3	-35.1	24.7	0.00e+00	0	33	0	1805647872	42	5659
2026-01-28 15:22:05.05	223.92	28.52	-34.1	-35.0	24.7	0.00e+00	4	33	0	1808793600	42	5574
2026-01-28 15:22:06.06	223.84	28.34	-34.3	-35.2	24.7	0.00e+00	2	33	0	1811939328	42	5690
2026-01-28 15:22:07.07	223.76	28.17	-34.4	-35.3	24.6	0.00e+00	2	33	0	1815085056	42	5754
2026-01-28 15:22:08.08	223.68	27.99	-34.5	-35.4	24.6	0.00e+00	0	33	0	1818230784	42	5816
2026-01-28 15:22:09.08	223.60	27.82	-34.4	-35.3	24.6	0.00e+00	0	33	0	1821376512	42	5763
2026-01-28 15:22:10.10	223.53	27.64	-34.4	-35.3	24.6	0.00e+00	2	33	0	1824522240	42	5777
2026-01-28 15:22:11.10	223.45	27.47	-34.4	-35.3	24.5	0.00e+00	3	33	0	1827667968	42	5755
2026-01-28 15:22:12.11	223.37	27.30	-34.5	-35.4	24.4	0.00e+00	2	33	0	1830813696	42	5846
2026-01-28 15:22:13.12	223.30	27.13	-34.4	-35.3	24.5	0.00e+00	1	33	0	1833959424	42	5745
2026-01-28 15:22:14.13	223.22	26.96	-34.4	-35.3	24.4	0.00e+00	2	33	0	1837105152	42	5734
2026-01-28 15:22:15.14	223.15	26.80	-34.2	-35.1	24.5	0.00e+00	1	33	0	1840250880	42	5642
2026-01-28 15:22:16.15	223.08	26.63	-34.3	-35.2	24.5	0.00e+00	5	33	0	1843396608	42	5693
2026-01-28 15:22:17.16	223.00	26.46	-34.2	-35.1	24.5	0.00e+00	1	33	0	1846542336	42	5612
2026-01-28 15:22:18.17	222.93	26.30	-34.1	-35.0	24.4	0.00e+00	3	33	0	1849688064	42	5579
2026-01-28 15:22:19.18	222.86	26.13	-34.0	-34.9	24.5	0.00e+00	1	33	0	1852833792	42	5490
2026-01-28 15:22:20.19	222.79	25.97	-33.9	-34.8	24.5	0.00e+00	0	33	0	1855979520	42	5431
2026-01-28 15:22:21.19	222.72	25.81	-33.9	-34.8	24.7	0.00e+00	1	33	0	1859125248	42	5460
2026-01-28 15:22:22.20	222.66	25.65	-33.8	-34.7	24.8	0.00e+00	1	33	0	1863319552	42	5388
2026-01-28 15:22:23.21	222.59	25.49	-33.9	-34.8	24.8	0.00e+00	4	33	0	1866465280	42	5431
2026-01-28 15:22:24.22	222.52	25.33	-33.8	-34.7	25.0	0.00e+00	1	33	0	1868562432	42	5346
2026-01-28 15:22:25.23	222.46	25.17	-33.5	-34.4	25.1	0.00e+00	0	33	0	1871708160	40	5811
2026-01-28 15:22:26.24	222.39	25.01	-33.5	-34.4	25.2	0.00e+00	2	33	0	1874853888	40	5821
2026-01-28 15:22:27.25	222.33	24.86	-33.6	-34.5	25.0	0.00e+00	0	33	0	1877999616	40	5880
2026-01-28 15:22:28.26	222.26	24.70	-33.6	-34.4	25.0	0.00e+00	1	33	0	1882193920	40	5849
2026-01-28 15:22:29.27	222.20	24.54	-33.5	-34.4	25.0	0.00e+00	1	33	0	1885339648	40	5818
2026-01-28 15:22:30.28	222.13	24.39	-33.7	-34.5	24.9	0.00e+00	2	33	0	1888485376	40	5917
2026-01-28 15:22:31.29	222.07	24.24	-33.7	-34.5	24.9	0.00e+00	0	33	0	1890582528	40	5926
2026-01-28 15:22:32.30	222.01	24.08	-33.9	-34.7	24.8	0.00e+00	1	33	0	1893728256	40	6047
2026-01-28 15:22:33.31	221.95	23.93	-34.0	-34.8	24.7	0.00e+00	3	33	0	1897922560	40	6129
2026-01-28 15:22:34.32	221.89	23.78	-34.1	-34.9	24.7	0.00e+00	4	33	0	1901068288	40	6192
2026-01-28 15:22:35.33	221.83	23.63	-33.9	-34.8	24.8	0.00e+00	2	33	0	1904214016	40	6095
2026-01-28 15:22:36.34	221.77	23.48	-33.9	-34.8	24.9	0.00e+00	2	33	0	1907359744	40	6090
2026-01-28 15:22:37.35	221.71	23.33	-33.9	-34.7	24.8	0.00e+00	2	33	0	1910505472	40	6056
2026-01-28 15:22:38.36	221.65	23.19	-33.8	-34.7	24.9	0.00e+00	2	33	0	1913651200	40	5997
2026-01-28 15:22:39.37	221.60	23.04	-33.9	-34.8	24.8	0.00e+00	4	33	0	1916796928	40	6101
2026-01-28 15:22:40.38	221.54	22.89	-33.8	-34.7	24.9	0.00e+00	1	33	0	1919942656	40	5998
2026-01-28 15:22:41.39	221.48	22.75	-33.9	-34.7	24.9	0.00e+00	0	33	0	1923088384	40	6043
2026-01-28 15:22:42.40	221.43	22.61	-33.8	-34.7	24.9	0.00e+00	2	33	0	1926234112	40	6039
2026-01-28 15:22:43.41	221.37	22.46	-33.8	-34.7	24.9	0.00e+00	1	33	0	1929379840	40	6034
2026-01-28 15:22:44.42	221.32	22.32	-33.9	-34.8	24.8	0.00e+00	4	33	0	1932525568	40	6084
2026-01-28 15:22:45.43	221.26	22.18	-33.9	-34.8	24.8	0.00e+00	0	33	0	1935671296	40	6078
2026-01-28 15:22:46.43	221.21	22.04	-33.9	-34.7	24.8	0.00e+00	1	33	0	1938817024	40	6060
2026-01-28 15:22:47.45	221.16	21.90	-34.0	-34.9	24.8	0.00e+00	0	33	0	1941962752	40	6153
2026-01-28 15:22:48.46	221.10	21.76	-34.0	-34.9	24.7	0.00e+00	0	33	0	1945108480	40	6172
2026-01-28 15:22:49.46	221.05	21.62	-33.9	-34.8	24.8	0.00e+00	3	33	0	1948254208	40	6100
2026-01-28 15:22:50.47	221.00	21.48	-34.1	-35.0	24.7	0.00e+00	3	33	0	1951399936	40	6224
2026-01-28 15:22:51.49	220.95	21.34	-34.0	-34.9	24.8	0.00e+00	3	33	0	1954545664	40	6163
2026-01-28 15:22:52.49	220.90	21.20	-34.0	-34.9	24.7	0.00e+00	2	33	0	1957691392	40	6160
2026-01-28 15:22:53.50	220.85	21.07	-33.9	-34.8	24.8	0.00e+00	2	33	0	1960837120	40	6080
2026-01-28 15:22:54.51	220.80	20.93	-34.0	-34.9	24.8	0.00e+00	2	33	0	1963982848	40	6139
2026-01-28 15:22:55.52	220.75	20.80	-33.9	-34.8	24.9	0.00e+00	0	33	0	1967128576	40	6084
2026-01-28 15:22:56.53	220.70	20.66	-34.0	-34.9	24.8	0.00e+00	2	33	0	1970274304	40	6149
2026-01-28 15:22:57.54	220.65	20.53	-34.0	-34.8	24.8	0.00e+00	1	33	0	1973420032	40	6125
2026-01-28 15:22:58.55	220.61	20.40	-33.9	-34.8	24.8	0.00e+00	2	33	0	1976565760	40	6094
2026-01-28 15:22:59.56	220.56	20.27	-34.0	-34.9	24.8	0.00e+00	1	33	0	1979711488	40	6147
2026-01-28 15:23:00.57	220.51	20.14	-34.0	-34.8	24.8	0.00e+00	0	33	0	1982857216	40	6125
2026-01-28 15:23:01.57	220.46	20.01	-34.0	-34.9	24.7	0.00e+00	0	33	0	1986002944	40	6175
2026-01-28 15:23:02.58	220.42	19.88	-34.0	-34.9	24.8	0.00e+00	4	33	0	1989148672	40	6165
2026-01-28 15:23:03.59	220.37	19.75	-34.1	-35.1	24.6	0.00e+00	0	33	0	1992294400	40	6279
2026-01-28 15:23:04.60	220.33	19.62	-34.2	-35.0	24.6	0.00e+00	0	33	0	1995440128	40	6276
2026-01-28 15:23:05.61	220.28	19.49	-34.1	-35.0	24.6	0.00e+00	0	33	0	1998585856	40	6275
2026-01-28 15:23:06.62	220.24	19.36	-34.2	-35.1	24.5	0.00e+00	4	33	0	2001731584	40	6343
2026-01-28 15:23:07.63	220.19	19.24	-34.2	-35.1	24.5	0.00e+00	0	33	0	2004877312	40	6344
