passes_logs/2026/01/28/R4.6S_Anadyr/R4.6S_Anadyr__20260128_192048_NOAA_20_JPSS-1_rec.log

#Pass ID: 20260128_192048_NOAA 20 (JPSS-1)
#Satellite: NOAA 20 (JPSS-1)
#Configuration: NOAA 20
#almurnet v.1.7.20251203
#Start time: 2026-01-28 19:20:50

#Version: 2.2.20231116
#Station: R4.6S_Anadyr
#Location: 177.4865 lon 64.73178 lat
#TLE: 1 43013U 17073A   26027.80586608  .00000156  00000+0  94940-4 0  9998
#TLE: 2 43013  98.7647 328.6108 0000947  21.3465 338.7750 14.19541216424550

#Time	Az	El	Level	Level2	SNR	BER	BlckErr	Temp	State	Recorded	gain1	gain2
2026-01-28 19:20:50.24	51.81	0.10	-49.1	-66.9	3.5	3.03e+01	0	30	0	0	60	84768
2026-01-28 19:20:51.25	51.74	0.15	-49.0	-64.2	3.6	1.51e+00	0	31	104	0	60	58697
2026-01-28 19:20:52.26	51.66	0.19	-49.0	-64.2	3.6	1.51e+00	0	31	104	0	60	58463
2026-01-28 19:20:53.27	51.58	0.24	-49.1	-64.2	3.6	1.51e+00	0	31	104	0	60	58703
2026-01-28 19:20:54.28	51.51	0.29	-49.0	-64.1	3.6	1.51e+00	0	31	104	0	60	57975
2026-01-28 19:20:55.29	51.43	0.34	-49.0	-64.1	3.6	1.51e+00	0	31	104	0	60	58092
2026-01-28 19:20:56.30	51.35	0.39	-49.1	-64.3	3.6	1.51e+00	0	31	104	0	60	59187
2026-01-28 19:20:57.31	51.27	0.44	-49.0	-64.1	3.6	1.51e+00	0	31	104	0	60	58275
2026-01-28 19:20:58.32	51.20	0.49	-48.9	-64.1	3.6	1.51e+00	0	31	104	0	60	58001
2026-01-28 19:20:59.33	51.12	0.54	-48.9	-64.1	3.6	1.51e+00	0	31	104	0	60	57845
2026-01-28 19:21:00.34	51.04	0.59	-48.9	-64.1	3.6	1.51e+00	0	31	104	0	60	57757
2026-01-28 19:21:01.35	50.96	0.64	-48.8	-64.0	3.6	1.51e+00	0	31	104	0	60	57432
2026-01-28 19:21:02.36	50.88	0.69	-48.8	-64.0	3.5	1.51e+00	0	31	104	0	60	57095
2026-01-28 19:21:03.37	50.80	0.74	-48.8	-64.0	3.6	1.51e+00	0	31	104	0	60	57032
2026-01-28 19:21:04.38	50.72	0.78	-48.7	-63.9	3.6	1.51e+00	0	31	104	0	60	56799
2026-01-28 19:21:05.39	50.64	0.83	-48.7	-63.8	3.6	1.51e+00	0	31	104	0	60	56241
2026-01-28 19:21:06.40	50.56	0.88	-48.7	-63.8	3.6	1.51e+00	0	31	104	0	60	56077
2026-01-28 19:21:07.41	50.48	0.93	-48.5	-63.8	3.6	1.51e+00	0	31	104	0	60	56199
2026-01-28 19:21:08.42	50.40	0.98	-48.6	-63.8	3.6	1.51e+00	0	31	104	0	60	55854
2026-01-28 19:21:09.43	50.32	1.03	-48.5	-63.7	3.6	1.51e+00	0	31	104	0	60	55102
2026-01-28 19:21:10.44	50.24	1.08	-48.4	-63.6	3.6	1.51e+00	0	31	104	0	60	54621
2026-01-28 19:21:11.45	50.16	1.13	-48.4	-63.5	3.6	1.51e+00	0	31	104	0	60	54303
2026-01-28 19:21:12.46	50.07	1.18	-48.3	-63.4	3.6	1.51e+00	0	31	104	0	60	53723
2026-01-28 19:21:13.46	49.99	1.23	-48.1	-63.3	3.5	1.51e+00	0	31	104	0	60	52716
2026-01-28 19:21:14.47	49.91	1.28	-47.9	-63.0	3.6	1.51e+00	0	31	104	0	60	51299
2026-01-28 19:21:15.48	49.83	1.33	-47.4	-62.6	3.6	1.51e+00	0	31	104	0	60	48593
2026-01-28 19:21:16.50	49.74	1.38	-46.9	-62.1	3.6	1.51e+00	0	31	104	0	60	45874
2026-01-28 19:21:17.51	49.66	1.43	-46.9	-62.0	3.6	1.51e+00	0	31	104	0	60	45522
2026-01-28 19:21:18.52	49.57	1.48	-46.9	-62.0	3.6	1.51e+00	0	31	104	0	60	45478
2026-01-28 19:21:19.53	49.49	1.53	-46.9	-62.0	3.6	1.51e+00	0	31	104	0	60	45436
2026-01-28 19:21:20.54	49.41	1.58	-46.9	-62.0	3.6	1.51e+00	0	31	104	0	60	45526
2026-01-28 19:21:21.55	49.32	1.63	-46.8	-62.0	3.6	1.51e+00	0	31	104	0	60	45628
2026-01-28 19:21:22.56	49.24	1.68	-46.8	-62.0	3.6	1.51e+00	0	31	104	0	60	45477
2026-01-28 19:21:23.57	49.15	1.73	-46.8	-62.0	3.6	1.51e+00	0	31	104	0	60	45388
2026-01-28 19:21:24.58	49.07	1.78	-46.8	-61.9	3.6	1.51e+00	0	31	104	0	60	45087
2026-01-28 19:21:25.59	48.98	1.83	-46.8	-61.8	3.6	1.51e+00	0	31	104	0	60	44713
2026-01-28 19:21:26.60	48.89	1.88	-46.8	-61.8	3.6	1.51e+00	0	31	104	0	60	44693
2026-01-28 19:21:27.61	48.81	1.93	-46.8	-61.9	3.6	1.51e+00	0	31	104	0	60	45065
2026-01-28 19:21:28.62	48.72	1.98	-46.8	-61.9	3.6	1.51e+00	0	31	104	0	60	45206
2026-01-28 19:21:29.63	48.63	2.03	-46.8	-61.9	3.6	1.51e+00	0	31	104	0	60	45142
2026-01-28 19:21:30.64	48.55	2.08	-46.8	-61.9	3.6	1.51e+00	0	31	104	0	60	44768
2026-01-28 19:21:31.65	48.46	2.13	-46.8	-61.8	3.6	1.51e+00	0	31	104	0	60	44691
2026-01-28 19:21:32.66	48.37	2.18	-46.8	-61.8	3.6	1.51e+00	0	31	104	0	60	44483
2026-01-28 19:21:33.67	48.28	2.23	-46.8	-61.9	3.6	1.51e+00	0	31	104	0	60	44782
2026-01-28 19:21:34.68	48.19	2.28	-46.8	-61.9	3.6	1.51e+00	0	31	104	0	60	44918
2026-01-28 19:21:35.69	48.11	2.33	-46.8	-61.9	3.6	1.51e+00	0	31	104	0	60	45100
2026-01-28 19:21:36.69	48.02	2.38	-46.8	-61.9	3.6	1.51e+00	0	32	104	0	60	44776
2026-01-28 19:21:37.70	47.93	2.43	-46.8	-61.8	3.6	1.51e+00	0	31	104	0	60	44686
2026-01-28 19:21:38.71	47.84	2.48	-46.8	-61.7	3.6	1.51e+00	0	32	104	0	60	44166
2026-01-28 19:21:39.72	47.75	2.53	-46.8	-61.8	3.6	1.51e+00	0	32	104	0	60	44253
2026-01-28 19:21:40.73	47.66	2.58	-46.8	-61.9	3.6	1.51e+00	0	32	104	0	60	45012
2026-01-28 19:21:41.74	47.57	2.63	-46.8	-61.7	3.6	1.51e+00	0	31	104	0	60	44129
2026-01-28 19:21:42.75	47.48	2.68	-46.8	-61.5	3.6	1.51e+00	0	32	104	0	60	42965
2026-01-28 19:21:43.76	47.38	2.73	-46.8	-61.4	3.6	1.51e+00	0	32	104	0	60	42332
2026-01-28 19:21:44.77	47.29	2.78	-46.8	-61.8	3.6	1.51e+00	0	32	104	0	60	44679
2026-01-28 19:21:45.78	47.20	2.83	-46.8	-61.1	3.6	1.51e+00	0	32	104	0	60	41121
2026-01-28 19:21:46.79	47.11	2.88	-46.7	-58.9	3.7	1.51e+00	0	31	104	0	60	31979
2026-01-28 19:21:47.80	47.01	2.93	-46.3	-54.9	6.1	6.24e-01	0	32	0	0	60	20138
2026-01-28 19:21:48.81	46.92	2.98	-45.4	-50.8	9.4	7.25e-02	0	32	0	2097152	60	12581
2026-01-28 19:21:49.82	46.83	3.03	-44.5	-48.5	12.0	4.19e-03	0	32	0	3145728	60	9563
2026-01-28 19:21:50.83	46.73	3.08	-46.6	-56.1	3.9	1.70e-02	0	32	0	5242880	60	23200
2026-01-28 19:21:51.84	46.64	3.13	-47.0	-61.8	3.6	1.51e+00	0	31	104	5242880	60	44413
2026-01-28 19:21:52.86	46.55	3.19	-43.4	-46.4	5.9	1.50e+00	34	32	104	5242880	60	7522
2026-01-28 19:21:53.87	46.45	3.24	-43.2	-45.9	14.9	1.50e-06	0	32	0	5242880	60	7101
2026-01-28 19:21:54.88	46.36	3.29	-44.7	-49.0	7.6	1.71e-04	0	32	0	7340032	58	11474
2026-01-28 19:21:55.88	46.26	3.34	-45.4	-51.1	5.5	1.51e+00	0	31	104	7340032	60	12927
2026-01-28 19:21:56.89	46.17	3.39	-43.6	-46.6	14.0	2.20e-06	0	32	104	7340032	60	7733
2026-01-28 19:21:57.90	46.07	3.44	-43.4	-46.2	14.6	7.00e-07	0	32	0	8388608	60	7385
2026-01-28 19:21:58.91	45.97	3.49	-43.4	-46.2	14.8	1.50e-06	0	32	0	10485760	60	7370
2026-01-28 19:21:59.92	45.88	3.54	-42.9	-45.3	15.7	0.00e+00	0	32	0	12582912	58	7459
2026-01-28 19:22:00.93	45.78	3.59	-42.7	-45.0	16.3	0.00e+00	0	32	0	14680064	58	7204
2026-01-28 19:22:01.94	45.68	3.64	-43.0	-45.4	15.5	0.00e+00	0	32	0	15728640	58	7585
2026-01-28 19:22:02.95	45.58	3.69	-43.3	-46.0	15.1	0.00e+00	0	32	0	17825792	58	8112
2026-01-28 19:22:03.96	45.49	3.74	-42.6	-44.9	16.4	0.00e+00	0	32	0	19922944	58	7097
2026-01-28 19:22:04.97	45.39	3.79	-42.7	-45.0	15.9	0.00e+00	0	32	0	22020096	58	7236
2026-01-28 19:22:05.98	45.29	3.84	-42.7	-45.1	16.1	0.00e+00	0	32	0	24117248	58	7254
2026-01-28 19:22:06.99	45.19	3.89	-42.8	-45.2	15.9	0.00e+00	0	32	0	25165824	58	7388
2026-01-28 19:22:08.00	45.09	3.95	-42.9	-45.4	15.9	0.00e+00	0	32	0	27262976	58	7509
2026-01-28 19:22:09.01	44.99	4.00	-42.9	-45.4	15.9	0.00e+00	0	32	0	29360128	58	7519
2026-01-28 19:22:10.02	44.89	4.05	-42.4	-44.6	16.5	0.00e+00	0	32	0	31457280	58	6883
2026-01-28 19:22:11.03	44.79	4.10	-42.2	-44.2	16.9	0.00e+00	0	32	0	33554432	58	6610
2026-01-28 19:22:12.04	44.69	4.15	-42.2	-44.3	16.9	0.00e+00	0	32	0	34603008	58	6688
2026-01-28 19:22:13.05	44.59	4.20	-42.3	-44.4	16.9	0.00e+00	0	32	0	36700160	58	6706
2026-01-28 19:22:14.05	44.48	4.25	-42.1	-44.2	17.1	0.00e+00	0	32	0	38797312	58	6578
2026-01-28 19:22:15.06	44.38	4.30	-42.3	-44.4	16.8	0.00e+00	0	32	0	40894464	58	6732
2026-01-28 19:22:16.07	44.28	4.35	-42.1	-44.2	17.1	0.00e+00	0	32	0	42991616	58	6572
2026-01-28 19:22:17.08	44.18	4.40	-42.4	-44.6	17.0	0.00e+00	0	32	0	44040192	58	6861
2026-01-28 19:22:18.09	44.07	4.45	-42.1	-44.1	17.2	0.00e+00	0	32	0	46137344	58	6493
2026-01-28 19:22:19.10	43.97	4.50	-42.6	-44.9	16.4	0.00e+00	0	32	0	48234496	58	7120
2026-01-28 19:22:20.11	43.87	4.56	-42.1	-44.2	17.1	0.00e+00	0	32	0	50331648	58	6568
2026-01-28 19:22:21.11	43.76	4.61	-42.1	-44.1	17.2	0.00e+00	0	32	0	52428800	58	6531
2026-01-28 19:22:22.12	43.66	4.66	-41.9	-43.9	17.5	0.00e+00	0	32	0	54525952	56	7098
2026-01-28 19:22:23.13	43.55	4.71	-42.1	-44.1	17.2	0.00e+00	0	32	0	55574528	56	7335
2026-01-28 19:22:24.14	43.45	4.76	-42.1	-44.1	17.3	0.00e+00	0	32	0	57671680	56	7288
2026-01-28 19:22:25.15	43.34	4.81	-41.7	-43.5	17.9	0.00e+00	0	32	0	59768832	56	6835
2026-01-28 19:22:26.16	43.24	4.86	-41.7	-43.5	17.9	0.00e+00	0	32	0	61865984	56	6803
2026-01-28 19:22:27.16	43.13	4.91	-41.9	-43.9	17.4	0.00e+00	0	32	0	63963136	56	7110
2026-01-28 19:22:28.17	43.02	4.96	-41.8	-43.7	17.8	0.00e+00	0	32	0	65011712	56	6981
2026-01-28 19:22:29.18	42.92	5.01	-41.6	-43.4	17.9	0.00e+00	0	32	0	67108864	56	6706
2026-01-28 19:22:30.19	42.81	5.06	-41.6	-43.4	17.9	0.00e+00	0	32	0	69206016	56	6702
2026-01-28 19:22:31.20	42.70	5.12	-41.7	-43.6	17.9	0.00e+00	0	32	0	71303168	56	6886
2026-01-28 19:22:32.21	42.59	5.17	-41.7	-43.5	17.8	0.00e+00	0	32	0	73400320	56	6828
2026-01-28 19:22:33.22	42.48	5.22	-41.5	-43.3	17.8	0.00e+00	0	32	0	74448896	56	6623
2026-01-28 19:22:34.23	42.37	5.27	-41.6	-43.4	18.0	0.00e+00	0	32	0	76546048	56	6711
2026-01-28 19:22:35.24	42.26	5.32	-41.5	-43.3	18.1	0.00e+00	0	32	0	78643200	56	6633
2026-01-28 19:22:36.25	42.15	5.37	-41.4	-43.1	18.2	0.00e+00	0	32	0	80740352	56	6528
2026-01-28 19:22:37.25	42.04	5.42	-41.4	-43.2	18.3	0.00e+00	0	32	0	82837504	56	6554
2026-01-28 19:22:38.26	41.93	5.47	-41.5	-43.2	18.2	0.00e+00	0	32	0	83886080	56	6613
2026-01-28 19:22:39.27	41.82	5.52	-41.7	-43.5	18.0	0.00e+00	0	32	0	85983232	56	6804
2026-01-28 19:22:40.28	41.71	5.57	-41.4	-43.1	18.4	0.00e+00	0	32	0	88080384	56	6499
2026-01-28 19:22:41.28	41.60	5.63	-41.2	-42.9	18.6	0.00e+00	0	32	0	90177536	56	6323
2026-01-28 19:22:42.29	41.49	5.68	-41.3	-42.9	18.6	0.00e+00	0	32	0	92274688	56	6373
2026-01-28 19:22:43.30	41.37	5.73	-41.3	-43.0	18.6	0.00e+00	0	32	0	93323264	56	6417
2026-01-28 19:22:44.31	41.26	5.78	-41.3	-43.0	18.5	0.00e+00	0	32	0	95420416	56	6433
2026-01-28 19:22:45.32	41.15	5.83	-41.4	-43.1	18.4	0.00e+00	0	32	0	97517568	56	6523
2026-01-28 19:22:46.33	41.03	5.88	-41.5	-43.2	18.4	0.00e+00	0	32	0	99614720	56	6599
2026-01-28 19:22:47.34	40.92	5.93	-41.4	-43.1	18.5	0.00e+00	0	32	0	101711872	56	6478
2026-01-28 19:22:48.35	40.80	5.98	-41.0	-42.6	18.9	0.00e+00	0	32	0	102760448	56	6163
2026-01-28 19:22:49.36	40.69	6.03	-41.3	-43.0	18.5	0.00e+00	0	32	0	104857600	56	6417
2026-01-28 19:22:50.37	40.57	6.08	-41.6	-43.3	18.4	0.00e+00	0	32	0	106954752	56	6664
2026-01-28 19:22:51.38	40.45	6.13	-41.1	-42.6	19.1	0.00e+00	0	32	0	109051904	56	6169
2026-01-28 19:22:52.39	40.34	6.19	-41.1	-42.6	19.0	0.00e+00	0	32	0	111149056	56	6161
2026-01-28 19:22:53.40	40.22	6.24	-41.3	-42.9	18.6	0.00e+00	0	32	0	112197632	56	6372
2026-01-28 19:22:54.41	40.10	6.29	-41.4	-43.0	18.3	0.00e+00	0	32	0	114294784	56	6461
2026-01-28 19:22:55.42	39.99	6.34	-41.4	-43.1	18.6	0.00e+00	0	32	0	116391936	56	6486
2026-01-28 19:22:56.43	39.87	6.39	-41.4	-43.0	19.0	0.00e+00	0	32	0	118489088	56	6425
2026-01-28 19:22:57.43	39.75	6.44	-41.2	-42.7	19.0	0.00e+00	0	32	0	120586240	56	6236
2026-01-28 19:22:58.44	39.63	6.49	-41.2	-42.7	19.0	0.00e+00	0	32	0	121634816	56	6239
2026-01-28 19:22:59.45	39.51	6.54	-41.1	-42.7	19.0	0.00e+00	0	32	0	123731968	56	6190
2026-01-28 19:23:00.46	39.39	6.59	-41.2	-42.8	18.8	0.00e+00	0	32	0	125829120	56	6295
2026-01-28 19:23:01.47	39.27	6.64	-41.3	-42.9	18.7	0.00e+00	0	32	0	127926272	56	6358
2026-01-28 19:23:02.48	39.15	6.69	-41.4	-43.0	18.7	0.00e+00	0	32	0	130023424	56	6440
2026-01-28 19:23:03.49	39.03	6.74	-41.0	-42.6	19.1	0.00e+00	0	32	0	131072000	56	6113
2026-01-28 19:23:04.50	38.91	6.79	-41.1	-42.7	19.1	0.00e+00	0	32	0	133169152	56	6188
2026-01-28 19:23:05.51	38.78	6.85	-41.1	-42.6	19.2	0.00e+00	0	32	0	135266304	56	6151
2026-01-28 19:23:06.52	38.66	6.90	-41.2	-42.7	19.0	0.00e+00	0	32	0	137363456	56	6224
2026-01-28 19:23:07.53	38.54	6.95	-40.9	-42.4	19.3	0.00e+00	0	32	0	139460608	56	5982
2026-01-28 19:23:08.54	38.42	7.00	-41.0	-42.5	19.2	0.00e+00	0	32	0	140509184	56	6102
2026-01-28 19:23:09.55	38.29	7.05	-40.8	-42.3	19.5	0.00e+00	0	32	0	142606336	56	5935
2026-01-28 19:23:10.56	38.17	7.10	-40.6	-42.1	19.6	0.00e+00	0	32	0	144703488	54	6483
2026-01-28 19:23:11.57	38.04	7.15	-40.7	-42.2	19.5	0.00e+00	0	32	0	146800640	54	6540
2026-01-28 19:23:12.58	37.92	7.20	-40.7	-42.1	19.6	0.00e+00	0	32	0	148897792	54	6539
2026-01-28 19:23:13.58	37.79	7.25	-40.8	-42.3	19.5	0.00e+00	0	32	0	150994944	54	6637
2026-01-28 19:23:14.59	37.67	7.30	-40.8	-42.2	19.6	0.00e+00	0	32	0	152043520	54	6596
2026-01-28 19:23:15.60	37.54	7.35	-41.1	-42.6	19.2	0.00e+00	0	32	0	154140672	54	6893
2026-01-28 19:23:16.61	37.41	7.40	-41.0	-42.5	19.3	0.00e+00	0	32	0	156237824	54	6783
2026-01-28 19:23:17.62	37.29	7.45	-41.0	-42.5	19.3	0.00e+00	0	32	0	158334976	54	6798
2026-01-28 19:23:18.63	37.16	7.50	-41.1	-42.7	19.1	0.00e+00	0	32	0	160432128	54	6959
2026-01-28 19:23:19.64	37.03	7.55	-40.9	-42.3	19.4	0.00e+00	0	32	0	161480704	54	6681
2026-01-28 19:23:20.65	36.90	7.60	-40.8	-42.2	19.6	0.00e+00	0	32	0	163577856	54	6579
2026-01-28 19:23:21.66	36.77	7.65	-41.0	-42.5	19.2	0.00e+00	0	32	0	165675008	54	6847
2026-01-28 19:23:22.67	36.64	7.70	-40.9	-42.4	19.4	0.00e+00	0	32	0	167772160	54	6712
2026-01-28 19:23:23.68	36.51	7.75	-41.2	-42.7	19.3	0.00e+00	0	32	0	169869312	54	6975
2026-01-28 19:23:24.69	36.38	7.80	-40.8	-42.2	19.6	0.00e+00	0	32	0	170917888	54	6603
2026-01-28 19:23:25.69	36.25	7.85	-40.8	-42.2	19.7	0.00e+00	0	32	0	173015040	54	6600
2026-01-28 19:23:26.70	36.12	7.90	-40.7	-42.1	19.7	0.00e+00	0	32	0	175112192	54	6518
2026-01-28 19:23:27.71	35.99	7.95	-40.6	-42.0	19.9	0.00e+00	0	32	0	177209344	54	6401
2026-01-28 19:23:28.72	35.85	8.00	-40.5	-41.9	20.0	0.00e+00	0	32	0	179306496	54	6359
2026-01-28 19:23:29.73	35.72	8.05	-40.6	-42.0	19.8	0.00e+00	0	32	0	180355072	54	6419
2026-01-28 19:23:30.74	35.59	8.10	-40.4	-41.7	20.1	0.00e+00	0	32	0	182452224	54	6218
2026-01-28 19:23:31.75	35.45	8.15	-40.5	-41.9	20.0	0.00e+00	0	32	0	184549376	54	6358
2026-01-28 19:23:32.76	35.32	8.20	-40.3	-41.6	20.2	0.00e+00	0	32	0	186646528	54	6140
2026-01-28 19:23:33.77	35.18	8.25	-40.5	-41.8	20.0	0.00e+00	0	32	0	188743680	54	6300
2026-01-28 19:23:34.78	35.05	8.30	-40.3	-41.6	20.3	0.00e+00	0	32	0	189792256	54	6128
2026-01-28 19:23:35.78	34.91	8.35	-40.2	-41.5	20.3	0.00e+00	0	32	0	191889408	54	6073
2026-01-28 19:23:36.79	34.78	8.40	-40.4	-41.7	20.2	0.00e+00	0	32	0	193986560	54	6239
2026-01-28 19:23:37.81	34.64	8.45	-40.3	-41.7	20.1	0.00e+00	0	32	0	196083712	54	6184
2026-01-28 19:23:38.81	34.50	8.50	-40.5	-41.8	20.1	0.00e+00	0	32	0	198180864	54	6302
2026-01-28 19:23:39.82	34.37	8.55	-40.4	-41.7	20.2	0.00e+00	0	32	0	199229440	54	6193
2026-01-28 19:23:40.83	34.23	8.60	-40.3	-41.7	20.2	0.00e+00	0	32	0	201326592	54	6180
2026-01-28 19:23:41.84	34.09	8.64	-40.6	-42.0	19.9	0.00e+00	0	32	0	203423744	54	6441
2026-01-28 19:23:42.85	33.95	8.69	-40.3	-41.6	20.3	0.00e+00	0	32	0	205520896	54	6165
2026-01-28 19:23:43.86	33.81	8.74	-40.3	-41.6	20.3	0.00e+00	0	32	0	207618048	54	6172
2026-01-28 19:23:44.87	33.67	8.79	-40.3	-41.7	20.3	0.00e+00	0	32	0	208666624	54	6187
2026-01-28 19:23:45.88	33.53	8.84	-40.3	-41.6	20.2	0.00e+00	0	32	0	210763776	54	6167
2026-01-28 19:23:46.89	33.39	8.89	-40.3	-41.6	20.3	0.00e+00	0	32	0	212860928	54	6113
2026-01-28 19:23:47.90	33.25	8.94	-40.3	-41.6	20.2	0.00e+00	0	32	0	214958080	54	6159
2026-01-28 19:23:48.91	33.11	8.99	-40.6	-42.0	20.0	0.00e+00	0	32	0	217055232	54	6415
2026-01-28 19:23:49.92	32.96	9.03	-40.7	-42.1	19.9	0.00e+00	0	32	0	219152384	54	6487
2026-01-28 19:23:50.93	32.82	9.08	-40.4	-41.7	20.3	0.00e+00	0	32	0	220200960	54	6193
2026-01-28 19:23:51.94	32.68	9.13	-40.4	-41.7	20.3	0.00e+00	0	32	0	222298112	54	6220
2026-01-28 19:23:52.95	32.53	9.18	-40.3	-41.6	20.3	0.00e+00	0	32	0	224395264	54	6135
2026-01-28 19:23:53.96	32.39	9.23	-40.2	-41.5	20.5	0.00e+00	0	32	0	226492416	54	6067
2026-01-28 19:23:54.97	32.24	9.28	-40.3	-41.6	20.4	0.00e+00	0	32	0	228589568	54	6145
2026-01-28 19:23:55.98	32.10	9.32	-40.4	-41.7	20.3	0.00e+00	0	32	0	229638144	54	6210
2026-01-28 19:23:56.98	31.95	9.37	-40.4	-41.7	20.4	0.00e+00	0	32	0	231735296	54	6190
2026-01-28 19:23:57.99	31.81	9.42	-40.6	-41.9	20.2	0.00e+00	0	32	0	233832448	54	6353
2026-01-28 19:23:59.00	31.66	9.47	-40.4	-41.7	20.4	0.00e+00	0	32	0	235929600	54	6235
2026-01-28 19:24:00.01	31.51	9.52	-40.2	-41.4	20.5	0.00e+00	0	32	0	238026752	54	6024
2026-01-28 19:24:01.02	31.37	9.56	-40.2	-41.4	20.6	0.00e+00	0	32	0	239075328	54	6021
2026-01-28 19:24:02.03	31.22	9.61	-40.0	-41.2	20.8	0.00e+00	0	32	0	241172480	54	5896
2026-01-28 19:24:03.04	31.07	9.66	-39.9	-41.1	20.9	0.00e+00	0	32	0	243269632	54	5813
2026-01-28 19:24:04.05	30.92	9.71	-39.8	-41.0	21.1	0.00e+00	0	32	0	245366784	52	6401
2026-01-28 19:24:05.06	30.77	9.75	-39.6	-40.8	21.2	0.00e+00	0	32	0	247463936	52	6281
2026-01-28 19:24:06.07	30.62	9.80	-39.7	-40.8	21.1	0.00e+00	0	32	0	248512512	52	6309
2026-01-28 19:24:07.08	30.47	9.85	-39.7	-40.9	21.1	0.00e+00	0	32	0	250609664	52	6359
2026-01-28 19:24:08.09	30.32	9.89	-39.7	-40.8	21.3	0.00e+00	0	32	0	252706816	52	6303
2026-01-28 19:24:09.10	30.16	9.94	-39.5	-40.7	21.4	0.00e+00	0	32	0	254803968	52	6190
2026-01-28 19:24:10.11	30.01	9.99	-39.5	-40.6	21.4	0.00e+00	0	32	0	256901120	52	6144
2026-01-28 19:24:11.12	29.86	10.03	-39.3	-40.4	21.8	0.00e+00	0	32	0	257949696	52	5967
2026-01-28 19:24:12.13	29.71	10.08	-39.3	-40.5	21.6	0.00e+00	0	32	0	260046848	52	6044
2026-01-28 19:24:13.13	29.55	10.13	-39.4	-40.5	21.5	0.00e+00	0	32	0	262144000	52	6052
2026-01-28 19:24:14.14	29.40	10.17	-39.1	-40.2	21.8	0.00e+00	0	32	0	264241152	52	5864
2026-01-28 19:24:15.15	29.25	10.22	-38.9	-40.0	22.0	0.00e+00	0	32	0	266338304	52	5716
2026-01-28 19:24:16.16	29.09	10.27	-38.9	-40.0	22.0	0.00e+00	0	32	0	267386880	52	5727
2026-01-28 19:24:17.17	28.93	10.31	-38.8	-39.9	22.1	0.00e+00	0	32	0	269484032	52	5643
2026-01-28 19:24:18.18	28.78	10.36	-38.9	-39.9	22.1	0.00e+00	0	32	0	271581184	52	5689
2026-01-28 19:24:19.19	28.62	10.40	-39.0	-40.0	22.1	0.00e+00	0	32	0	273678336	52	5747
2026-01-28 19:24:20.20	28.46	10.45	-38.9	-40.0	22.1	0.00e+00	0	32	0	275775488	52	5707
2026-01-28 19:24:21.21	28.31	10.49	-38.9	-40.0	22.1	0.00e+00	0	32	0	276824064	52	5714
2026-01-28 19:24:22.22	28.15	10.54	-38.9	-39.9	22.2	0.00e+00	0	32	0	278921216	52	5679
2026-01-28 19:24:23.23	27.99	10.58	-38.6	-39.6	22.3	0.00e+00	0	32	0	281018368	50	6173
2026-01-28 19:24:24.24	27.83	10.63	-38.6	-39.7	22.4	0.00e+00	0	32	0	283115520	50	6180
2026-01-28 19:24:25.25	27.67	10.67	-38.6	-39.7	22.4	0.00e+00	0	32	0	285212672	50	6187
2026-01-28 19:24:26.26	27.51	10.72	-38.8	-39.8	22.1	0.00e+00	0	32	0	287309824	50	6304
2026-01-28 19:24:27.27	27.35	10.76	-38.6	-39.6	22.3	0.00e+00	0	32	0	288358400	50	6152
2026-01-28 19:24:28.28	27.19	10.81	-38.7	-39.7	22.3	0.00e+00	0	32	0	290455552	50	6241
2026-01-28 19:24:29.29	27.03	10.85	-38.7	-39.8	22.3	0.00e+00	0	32	0	292552704	50	6265
2026-01-28 19:24:30.30	26.86	10.90	-38.6	-39.6	22.5	0.00e+00	0	32	0	294649856	50	6120
2026-01-28 19:24:31.30	26.70	10.94	-38.7	-39.7	22.4	0.00e+00	0	32	0	295698432	50	6224
2026-01-28 19:24:32.31	26.54	10.98	-38.4	-39.4	22.6	0.00e+00	0	32	0	297795584	50	5976
2026-01-28 19:24:33.32	26.38	11.03	-38.6	-39.6	22.5	0.00e+00	0	32	0	299892736	50	6139
2026-01-28 19:24:34.33	26.21	11.07	-38.4	-39.4	22.7	0.00e+00	0	32	0	301989888	50	5980
2026-01-28 19:24:35.34	26.05	11.12	-38.5	-39.5	22.5	0.00e+00	0	32	0	304087040	50	6073
2026-01-28 19:24:36.35	25.88	11.16	-38.5	-39.5	22.5	0.00e+00	0	32	0	305135616	50	6060
2026-01-28 19:24:37.36	25.72	11.20	-38.4	-39.4	22.6	0.00e+00	0	32	0	307232768	50	5992
2026-01-28 19:24:38.37	25.55	11.24	-38.3	-39.3	22.7	0.00e+00	0	32	0	309329920	50	5952
2026-01-28 19:24:39.38	25.38	11.29	-38.1	-39.1	22.8	0.00e+00	0	32	0	311427072	50	5797
2026-01-28 19:24:40.39	25.22	11.33	-38.1	-39.1	22.8	0.00e+00	0	32	0	313524224	50	5771
2026-01-28 19:24:41.40	25.05	11.37	-38.3	-39.3	22.7	0.00e+00	0	32	0	315621376	50	5901
2026-01-28 19:24:42.41	24.88	11.42	-38.0	-39.0	22.3	0.00e+00	0	32	0	316669952	50	5718
2026-01-28 19:24:43.42	24.71	11.46	-37.9	-38.9	23.0	0.00e+00	0	32	0	318767104	50	5649
2026-01-28 19:24:44.43	24.54	11.50	-37.8	-38.8	23.1	0.00e+00	0	32	0	320864256	50	5579
2026-01-28 19:24:45.44	24.37	11.54	-37.8	-38.7	23.2	0.00e+00	0	32	0	322961408	50	5558
2026-01-28 19:24:46.45	24.20	11.58	-37.9	-38.9	23.0	0.00e+00	0	32	0	325058560	50	5648
2026-01-28 19:24:47.45	24.03	11.62	-38.0	-38.9	23.0	0.00e+00	0	32	0	326107136	50	5693
2026-01-28 19:24:48.46	23.86	11.67	-38.0	-39.0	23.0	0.00e+00	0	32	0	328204288	50	5697
2026-01-28 19:24:49.48	23.69	11.71	-38.1	-39.1	22.9	0.00e+00	0	32	0	330301440	50	5768
2026-01-28 19:24:50.49	23.52	11.75	-38.1	-39.0	22.9	0.00e+00	0	32	0	332398592	50	5748
2026-01-28 19:24:51.50	23.34	11.79	-38.2	-39.2	22.9	0.00e+00	0	32	0	334495744	50	5831
2026-01-28 19:24:52.51	23.17	11.83	-38.4	-39.4	22.7	0.00e+00	0	32	0	335544320	50	5993
2026-01-28 19:24:53.52	23.00	11.87	-38.5	-39.5	22.6	0.00e+00	0	32	0	337641472	50	6080
2026-01-28 19:24:54.53	22.82	11.91	-38.3	-39.3	22.7	0.00e+00	0	32	0	339738624	50	5910
2026-01-28 19:24:55.54	22.65	11.95	-38.1	-39.1	22.9	0.00e+00	0	32	0	341835776	50	5786
2026-01-28 19:24:56.55	22.47	11.99	-38.3	-39.3	22.7	0.00e+00	0	32	0	343932928	50	5935
2026-01-28 19:24:57.55	22.30	12.03	-38.4	-39.4	22.6	0.00e+00	0	32	0	344981504	50	5980
2026-01-28 19:24:58.56	22.12	12.07	-38.3	-39.2	22.6	0.00e+00	0	32	0	347078656	50	5889
2026-01-28 19:24:59.57	21.95	12.11	-38.3	-39.3	22.7	0.00e+00	0	32	0	349175808	50	5956
2026-01-28 19:25:00.58	21.77	12.15	-38.3	-39.3	22.7	0.00e+00	0	32	0	351272960	50	5915
2026-01-28 19:25:01.59	21.59	12.18	-38.4	-39.4	22.7	0.00e+00	0	32	0	353370112	50	5967
2026-01-28 19:25:02.60	21.42	12.22	-38.2	-39.2	22.8	0.00e+00	0	32	0	354418688	50	5872
2026-01-28 19:25:03.61	21.24	12.26	-38.5	-39.5	22.6	0.00e+00	0	32	0	356515840	50	6044
2026-01-28 19:25:04.62	21.06	12.30	-38.7	-39.7	22.4	0.00e+00	0	32	0	358612992	50	6208
2026-01-28 19:25:05.63	20.88	12.34	-38.9	-40.0	22.1	0.00e+00	0	32	0	360710144	50	6418
2026-01-28 19:25:06.64	20.70	12.38	-39.0	-40.1	22.1	0.00e+00	0	32	0	362807296	50	6472
2026-01-28 19:25:07.65	20.52	12.41	-38.5	-39.5	22.6	0.00e+00	0	32	0	363855872	50	6098
2026-01-28 19:25:08.66	20.34	12.45	-38.5	-39.5	22.6	0.00e+00	0	32	0	365953024	50	6082
2026-01-28 19:25:09.67	20.16	12.49	-38.5	-39.5	22.6	0.00e+00	0	32	0	368050176	50	6083
2026-01-28 19:25:10.68	19.98	12.52	-38.3	-39.3	22.8	0.00e+00	0	32	0	370147328	50	5950
2026-01-28 19:25:11.69	19.79	12.56	-38.3	-39.3	22.8	0.00e+00	0	32	0	372244480	50	5943
2026-01-28 19:25:12.70	19.61	12.60	-38.1	-39.0	22.8	0.00e+00	0	32	0	373293056	50	5756
2026-01-28 19:25:13.71	19.43	12.63	-38.1	-39.1	22.8	0.00e+00	0	32	0	375390208	50	5799
2026-01-28 19:25:14.72	19.25	12.67	-38.2	-39.2	22.9	0.00e+00	0	32	0	377487360	50	5834
2026-01-28 19:25:15.72	19.06	12.70	-38.3	-39.3	22.9	0.00e+00	0	32	0	379584512	50	5931
2026-01-28 19:25:16.73	18.88	12.74	-38.4	-39.4	22.7	0.00e+00	0	32	0	381681664	50	5973
2026-01-28 19:25:17.74	18.69	12.77	-38.5	-39.4	22.7	0.00e+00	0	32	0	383778816	50	6024
2026-01-28 19:25:18.75	18.51	12.81	-38.3	-39.3	22.8	0.00e+00	0	32	0	384827392	50	5908
2026-01-28 19:25:19.76	18.32	12.84	-38.3	-39.3	22.8	0.00e+00	0	32	0	386924544	50	5919
2026-01-28 19:25:20.77	18.14	12.88	-38.3	-39.3	22.9	0.00e+00	0	32	0	389021696	50	5907
2026-01-28 19:25:21.78	17.95	12.91	-38.3	-39.2	22.9	0.00e+00	0	32	0	391118848	50	5873
2026-01-28 19:25:22.79	17.76	12.95	-38.2	-39.1	23.0	0.00e+00	0	32	0	393216000	50	5819
2026-01-28 19:25:23.80	17.58	12.98	-38.1	-39.0	23.0	0.00e+00	0	32	0	394264576	50	5744
2026-01-28 19:25:24.81	17.39	13.01	-38.1	-39.0	23.1	0.00e+00	0	32	0	396361728	50	5727
2026-01-28 19:25:25.82	17.20	13.05	-38.1	-39.0	23.0	0.00e+00	0	32	0	398458880	50	5729
2026-01-28 19:25:26.83	17.01	13.08	-38.2	-39.1	22.6	0.00e+00	0	32	0	400556032	50	5809
2026-01-28 19:25:27.84	16.82	13.11	-38.1	-39.1	22.6	0.00e+00	0	32	0	402653184	50	5774
2026-01-28 19:25:28.85	16.63	13.15	-38.3	-39.2	22.8	0.00e+00	0	32	0	403701760	50	5879
2026-01-28 19:25:29.86	16.44	13.18	-38.1	-39.1	23.0	0.00e+00	0	32	0	405798912	50	5780
2026-01-28 19:25:30.87	16.25	13.21	-38.2	-39.2	22.9	0.00e+00	0	32	0	407896064	50	5843
2026-01-28 19:25:31.88	16.06	13.24	-38.1	-39.1	23.1	0.00e+00	0	32	0	409993216	50	5798
2026-01-28 19:25:32.89	15.87	13.27	-38.1	-39.0	23.1	0.00e+00	0	32	0	412090368	50	5759
2026-01-28 19:25:33.90	15.68	13.30	-38.1	-39.1	23.0	0.00e+00	0	32	0	413138944	50	5800
2026-01-28 19:25:34.90	15.49	13.33	-38.3	-39.3	22.9	0.00e+00	0	32	0	415236096	50	5913
2026-01-28 19:25:35.91	15.30	13.36	-38.0	-39.0	23.1	0.00e+00	0	32	0	417333248	50	5714
2026-01-28 19:25:36.92	15.10	13.39	-38.1	-39.0	23.1	0.00e+00	0	32	0	419430400	50	5759
2026-01-28 19:25:37.93	14.91	13.42	-38.0	-38.9	23.2	0.00e+00	0	32	0	421527552	50	5679
2026-01-28 19:25:38.94	14.72	13.45	-38.1	-39.0	23.1	0.00e+00	0	32	0	422576128	50	5740
2026-01-28 19:25:39.95	14.52	13.48	-37.8	-38.7	23.3	0.00e+00	0	32	0	424673280	50	5561
2026-01-28 19:25:40.96	14.33	13.51	-37.8	-38.7	23.4	0.00e+00	0	32	0	426770432	48	6245
2026-01-28 19:25:41.97	14.13	13.54	-38.0	-38.9	23.2	0.00e+00	0	32	0	428867584	48	6382
2026-01-28 19:25:42.98	13.94	13.57	-38.0	-39.0	23.2	0.00e+00	0	32	0	430964736	48	6423
2026-01-28 19:25:43.99	13.74	13.60	-38.0	-39.0	23.1	0.00e+00	0	32	0	432013312	48	6404
2026-01-28 19:25:45.00	13.55	13.62	-37.9	-38.8	23.3	0.00e+00	0	32	0	434110464	48	6299
2026-01-28 19:25:46.01	13.35	13.65	-37.8	-38.7	23.4	0.00e+00	0	32	0	436207616	48	6182
2026-01-28 19:25:47.01	13.16	13.68	-37.8	-38.7	23.3	0.00e+00	0	32	0	438304768	48	6238
2026-01-28 19:25:48.02	12.96	13.71	-37.9	-38.8	23.3	0.00e+00	0	32	0	440401920	48	6263
2026-01-28 19:25:49.03	12.76	13.73	-38.1	-39.1	23.1	0.00e+00	0	32	0	441450496	48	6478
2026-01-28 19:25:50.04	12.56	13.76	-38.0	-39.0	23.2	0.00e+00	0	32	0	443547648	48	6403
2026-01-28 19:25:51.05	12.37	13.78	-37.9	-38.8	23.3	0.00e+00	0	32	0	445644800	48	6282
2026-01-28 19:25:52.06	12.17	13.81	-37.9	-38.8	23.3	0.00e+00	0	32	0	447741952	48	6265
2026-01-28 19:25:53.07	11.97	13.84	-37.8	-38.7	23.4	0.00e+00	0	32	0	449839104	48	6222
2026-01-28 19:25:54.08	11.77	13.86	-37.9	-38.8	22.9	0.00e+00	0	32	0	451936256	48	6292
2026-01-28 19:25:55.09	11.57	13.89	-37.9	-38.8	23.2	0.00e+00	0	32	0	452984832	48	6293
2026-01-28 19:25:56.10	11.37	13.91	-38.0	-39.0	23.0	0.00e+00	0	32	0	455081984	48	6424
2026-01-28 19:25:57.11	11.17	13.93	-38.2	-39.2	23.0	0.00e+00	0	32	0	457179136	48	6540
2026-01-28 19:25:58.12	10.97	13.96	-38.3	-39.3	22.9	0.00e+00	0	32	0	459276288	48	6625
2026-01-28 19:25:59.13	10.77	13.98	-38.3	-39.2	22.9	0.00e+00	0	32	0	461373440	48	6595
2026-01-28 19:26:00.14	10.57	14.00	-38.3	-39.2	22.9	0.00e+00	0	32	0	462422016	48	6588
2026-01-28 19:26:01.15	10.37	14.03	-38.3	-39.2	22.9	0.00e+00	0	32	0	464519168	48	6614
2026-01-28 19:26:02.16	10.16	14.05	-38.3	-39.3	22.7	0.00e+00	0	32	0	466616320	48	6649
2026-01-28 19:26:03.17	9.96	14.07	-38.4	-39.4	22.8	0.00e+00	0	32	0	468713472	48	6739
2026-01-28 19:26:04.18	9.76	14.09	-38.6	-39.6	22.5	0.00e+00	0	32	0	470810624	48	6862
2026-01-28 19:26:05.19	9.56	14.11	-38.5	-39.5	22.7	0.00e+00	0	32	0	471859200	48	6779
2026-01-28 19:26:06.20	9.35	14.14	-38.4	-39.4	22.8	0.00e+00	0	32	0	473956352	48	6739
2026-01-28 19:26:07.21	9.15	14.16	-38.6	-39.6	22.6	0.00e+00	0	32	0	476053504	48	6853
2026-01-28 19:26:08.22	8.95	14.18	-38.5	-39.4	22.7	0.00e+00	0	32	0	478150656	48	6766
2026-01-28 19:26:09.23	8.74	14.20	-38.6	-39.6	22.6	0.00e+00	0	32	0	480247808	48	6879
2026-01-28 19:26:10.24	8.54	14.22	-38.6	-39.7	22.5	0.00e+00	0	32	0	481296384	48	6936
2026-01-28 19:26:11.25	8.34	14.24	-38.9	-39.9	22.3	0.00e+00	0	32	0	483393536	50	6388
2026-01-28 19:26:12.25	8.13	14.25	-39.0	-40.1	22.2	0.00e+00	0	32	0	485490688	50	6487
2026-01-28 19:26:13.26	7.93	14.27	-38.9	-40.0	22.3	0.00e+00	0	32	0	487587840	50	6416
2026-01-28 19:26:14.27	7.72	14.29	-38.7	-39.7	22.5	0.00e+00	0	32	0	489684992	50	6192
2026-01-28 19:26:15.28	7.52	14.31	-38.6	-39.6	22.7	0.00e+00	0	32	0	490733568	50	6106
2026-01-28 19:26:16.29	7.31	14.33	-38.5	-39.5	22.8	0.00e+00	0	32	0	492830720	50	6064
2026-01-28 19:26:17.30	7.11	14.34	-38.4	-39.3	22.9	0.00e+00	0	32	0	494927872	50	5947
2026-01-28 19:26:18.31	6.90	14.36	-38.4	-39.4	22.8	0.00e+00	0	32	0	497025024	50	6008
2026-01-28 19:26:19.32	6.69	14.38	-38.5	-39.5	22.8	0.00e+00	0	32	0	499122176	50	6036
2026-01-28 19:26:20.33	6.49	14.39	-38.5	-39.5	22.7	0.00e+00	0	32	0	500170752	50	6088
2026-01-28 19:26:21.33	6.28	14.41	-38.2	-39.2	22.9	0.00e+00	0	32	0	502267904	50	5864
2026-01-28 19:26:22.34	6.08	14.42	-38.1	-39.0	23.0	0.00e+00	0	32	0	504365056	50	5758
2026-01-28 19:26:23.35	5.87	14.44	-38.1	-39.0	23.2	0.00e+00	0	32	0	506462208	50	5726
2026-01-28 19:26:24.36	5.66	14.45	-38.0	-39.0	23.1	0.00e+00	0	32	0	508559360	50	5711
2026-01-28 19:26:25.37	5.45	14.47	-38.1	-39.0	23.1	0.00e+00	0	32	0	509607936	50	5736
2026-01-28 19:26:26.38	5.25	14.48	-38.1	-39.0	23.1	0.00e+00	0	32	0	511705088	50	5754
2026-01-28 19:26:27.39	5.04	14.50	-38.2	-39.1	23.1	0.00e+00	0	32	0	513802240	50	5827
2026-01-28 19:26:28.39	4.83	14.51	-38.3	-39.2	23.1	0.00e+00	0	32	0	515899392	50	5866
2026-01-28 19:26:29.40	4.62	14.52	-38.2	-39.1	23.0	0.00e+00	0	32	0	517996544	50	5812
2026-01-28 19:26:30.41	4.42	14.53	-38.1	-39.0	23.1	0.00e+00	0	32	0	520093696	50	5760
2026-01-28 19:26:31.42	4.21	14.55	-38.1	-39.1	23.0	0.00e+00	0	32	0	521142272	50	5787
2026-01-28 19:26:32.43	4.00	14.56	-38.0	-39.0	23.1	0.00e+00	0	32	0	523239424	50	5713
2026-01-28 19:26:33.44	3.79	14.57	-38.2	-39.2	23.0	0.00e+00	0	32	0	525336576	50	5845
2026-01-28 19:26:34.44	3.58	14.58	-38.5	-39.5	22.8	0.00e+00	0	32	0	527433728	50	6036
2026-01-28 19:26:35.45	3.37	14.59	-38.4	-39.4	22.7	0.00e+00	0	32	0	528482304	50	6018
2026-01-28 19:26:36.46	3.16	14.60	-38.5	-39.5	22.7	0.00e+00	0	32	0	530579456	50	6080
2026-01-28 19:26:37.47	2.95	14.61	-38.3	-39.2	23.0	0.00e+00	0	32	0	532676608	50	5877
2026-01-28 19:26:38.48	2.74	14.62	-38.3	-39.3	23.0	0.00e+00	0	32	0	534773760	50	5918
2026-01-28 19:26:39.49	2.53	14.63	-38.2	-39.2	23.0	0.00e+00	0	32	0	536870912	50	5832
2026-01-28 19:26:40.50	2.32	14.64	-38.2	-39.2	23.1	0.00e+00	0	32	0	538968064	50	5834
2026-01-28 19:26:41.51	2.11	14.65	-38.3	-39.2	23.0	0.00e+00	0	32	0	540016640	50	5881
2026-01-28 19:26:42.52	1.90	14.65	-38.3	-39.2	22.9	0.00e+00	0	32	0	542113792	50	5883
2026-01-28 19:26:43.53	1.69	14.66	-38.5	-39.4	22.8	0.00e+00	0	32	0	544210944	50	6022
2026-01-28 19:26:44.54	1.48	14.67	-38.5	-39.5	22.8	0.00e+00	0	32	0	546308096	50	6040
2026-01-28 19:26:45.55	1.27	14.68	-38.5	-39.5	22.8	0.00e+00	0	32	0	548405248	50	6096
2026-01-28 19:26:46.56	1.06	14.68	-38.5	-39.4	22.9	0.00e+00	0	32	0	549453824	50	6025
2026-01-28 19:26:47.57	0.85	14.69	-38.3	-39.3	23.0	0.00e+00	0	32	0	551550976	50	5900
2026-01-28 19:26:48.58	0.64	14.69	-38.5	-39.4	22.8	0.00e+00	0	32	0	553648128	50	6018
2026-01-28 19:26:49.58	0.43	14.70	-38.4	-39.3	23.0	0.00e+00	0	32	0	555745280	50	5954
2026-01-28 19:26:50.59	0.22	14.70	-38.2	-39.2	23.1	0.00e+00	0	32	0	557842432	50	5847
2026-01-28 19:26:51.60	0.01	14.71	-38.4	-39.4	22.9	0.00e+00	0	32	0	558891008	50	5978
2026-01-28 19:26:52.61	359.80	14.71	-38.3	-39.3	23.0	0.00e+00	0	32	0	560988160	50	5933
2026-01-28 19:26:53.62	359.59	14.72	-38.4	-39.4	23.0	0.00e+00	0	32	0	563085312	50	5967
2026-01-28 19:26:54.63	359.37	14.72	-38.3	-39.2	23.1	0.00e+00	0	32	0	565182464	50	5870
2026-01-28 19:26:55.64	359.16	14.72	-38.3	-39.3	23.0	0.00e+00	0	32	0	567279616	50	5913
2026-01-28 19:26:56.65	358.95	14.72	-38.1	-39.0	23.2	0.00e+00	0	32	0	568328192	50	5734
2026-01-28 19:26:57.66	358.74	14.73	-38.0	-38.9	23.3	0.00e+00	0	32	0	570425344	50	5663
2026-01-28 19:26:58.67	358.53	14.73	-38.1	-39.1	23.2	0.00e+00	0	32	0	572522496	50	5775
2026-01-28 19:26:59.68	358.32	14.73	-38.1	-39.0	23.2	0.00e+00	0	32	0	574619648	50	5759
2026-01-28 19:27:00.69	358.11	14.73	-38.1	-39.0	23.2	0.00e+00	0	32	0	576716800	50	5731
2026-01-28 19:27:01.69	357.90	14.73	-38.4	-39.3	23.0	0.00e+00	0	32	0	577765376	50	5941
2026-01-28 19:27:02.70	357.69	14.73	-38.4	-39.3	22.9	0.00e+00	0	32	0	579862528	50	5961
2026-01-28 19:27:03.71	357.47	14.73	-38.3	-39.2	23.1	0.00e+00	0	32	0	581959680	50	5883
2026-01-28 19:27:04.72	357.26	14.73	-38.4	-39.3	22.9	0.00e+00	0	32	0	584056832	50	5947
2026-01-28 19:27:05.73	357.05	14.73	-38.3	-39.2	22.9	0.00e+00	0	32	0	586153984	50	5895
2026-01-28 19:27:06.74	356.84	14.73	-38.3	-39.2	23.0	0.00e+00	0	32	0	587202560	50	5859
2026-01-28 19:27:07.75	356.63	14.73	-38.2	-39.1	23.1	0.00e+00	0	32	0	589299712	50	5804
2026-01-28 19:27:08.76	356.42	14.72	-38.1	-39.1	23.1	0.00e+00	0	32	0	591396864	50	5788
2026-01-28 19:27:09.77	356.21	14.72	-38.1	-39.1	23.1	0.00e+00	0	32	0	593494016	50	5781
2026-01-28 19:27:10.78	355.99	14.72	-38.2	-39.2	23.0	0.00e+00	0	32	0	595591168	50	5848
2026-01-28 19:27:11.79	355.78	14.72	-38.2	-39.2	23.0	0.00e+00	0	32	0	596639744	50	5848
2026-01-28 19:27:12.80	355.57	14.71	-38.4	-39.3	22.9	0.00e+00	0	32	0	598736896	50	5949
2026-01-28 19:27:13.81	355.36	14.71	-38.4	-39.3	22.8	0.00e+00	0	32	0	600834048	50	5964
2026-01-28 19:27:14.82	355.15	14.70	-38.4	-39.3	22.9	0.00e+00	0	32	0	602931200	50	5950
2026-01-28 19:27:15.83	354.94	14.70	-38.3	-39.3	22.9	0.00e+00	0	32	0	605028352	50	5937
2026-01-28 19:27:16.84	354.73	14.69	-38.3	-39.3	23.0	0.00e+00	0	32	0	606076928	50	5907
2026-01-28 19:27:17.85	354.52	14.69	-38.3	-39.2	23.0	0.00e+00	0	32	0	608174080	50	5896
2026-01-28 19:27:18.86	354.31	14.68	-38.4	-39.4	22.9	0.00e+00	0	32	0	610271232	50	5995
2026-01-28 19:27:19.87	354.10	14.67	-38.5	-39.5	22.8	0.00e+00	0	32	0	612368384	50	6038
2026-01-28 19:27:20.88	353.88	14.67	-38.6	-39.6	22.6	0.00e+00	0	32	0	614465536	50	6134
2026-01-28 19:27:21.89	353.67	14.66	-38.6	-39.6	22.7	0.00e+00	0	32	0	616562688	50	6120
2026-01-28 19:27:22.90	353.46	14.65	-38.7	-39.7	22.6	0.00e+00	0	32	0	617611264	50	6184
2026-01-28 19:27:23.91	353.25	14.64	-38.6	-39.7	22.7	0.00e+00	0	32	0	619708416	50	6175
2026-01-28 19:27:24.92	353.04	14.64	-38.6	-39.6	22.7	0.00e+00	0	32	0	621805568	50	6149
2026-01-28 19:27:25.93	352.83	14.63	-38.8	-39.8	22.6	7.00e-07	0	32	0	623902720	50	6264
2026-01-28 19:27:26.94	352.62	14.62	-38.5	-39.4	22.8	0.00e+00	0	32	0	625999872	50	6028
2026-01-28 19:27:27.95	352.41	14.61	-38.5	-39.4	22.9	0.00e+00	0	32	0	627048448	50	6028
2026-01-28 19:27:28.96	352.20	14.60	-38.4	-39.3	22.8	0.00e+00	0	32	0	629145600	50	5952
2026-01-28 19:27:29.97	351.99	14.59	-38.5	-39.4	22.9	0.00e+00	0	32	0	631242752	50	6019
2026-01-28 19:27:30.98	351.79	14.58	-38.4	-39.4	22.9	0.00e+00	0	32	0	633339904	50	6010
2026-01-28 19:27:31.99	351.58	14.57	-38.6	-39.6	22.7	0.00e+00	0	32	0	635437056	50	6115
2026-01-28 19:27:33.00	351.37	14.55	-38.9	-40.0	22.5	0.00e+00	0	32	0	636485632	50	6391
2026-01-28 19:27:34.01	351.16	14.54	-38.9	-39.9	22.4	0.00e+00	0	32	0	638582784	50	6355
2026-01-28 19:27:35.02	350.95	14.53	-38.9	-39.9	22.4	0.00e+00	0	32	0	640679936	50	6383
2026-01-28 19:27:36.03	350.74	14.52	-38.9	-40.0	22.4	0.00e+00	0	32	0	642777088	50	6400
2026-01-28 19:27:37.04	350.53	14.51	-38.9	-39.9	22.5	0.00e+00	0	32	0	644874240	50	6355
2026-01-28 19:27:38.04	350.33	14.49	-38.6	-39.6	22.6	0.00e+00	0	32	0	645922816	50	6159
2026-01-28 19:27:39.05	350.12	14.48	-38.8	-39.8	22.5	0.00e+00	0	32	0	648019968	50	6281
2026-01-28 19:27:40.06	349.91	14.46	-38.5	-39.5	22.7	0.00e+00	0	32	0	650117120	50	6044
2026-01-28 19:27:41.07	349.70	14.45	-38.5	-39.5	22.7	0.00e+00	0	32	0	652214272	50	6074
2026-01-28 19:27:42.08	349.50	14.44	-38.4	-39.4	22.8	0.00e+00	0	32	0	654311424	50	5975
2026-01-28 19:27:43.09	349.29	14.42	-38.2	-39.2	23.0	0.00e+00	0	32	0	655360000	50	5857
2026-01-28 19:27:44.10	349.08	14.40	-38.2	-39.2	22.9	0.00e+00	0	32	0	657457152	50	5838
2026-01-28 19:27:45.11	348.88	14.39	-38.4	-39.4	22.9	0.00e+00	0	32	0	659554304	50	5967
2026-01-28 19:27:46.12	348.67	14.37	-38.6	-39.6	22.7	0.00e+00	0	32	0	661651456	50	6124
2026-01-28 19:27:47.13	348.46	14.36	-38.5	-39.5	22.7	0.00e+00	0	32	0	663748608	50	6100
2026-01-28 19:27:48.14	348.26	14.34	-38.6	-39.6	22.7	0.00e+00	0	32	0	664797184	50	6132
2026-01-28 19:27:49.15	348.05	14.32	-38.5	-39.5	22.7	0.00e+00	0	32	0	666894336	50	6085
2026-01-28 19:27:50.16	347.85	14.30	-38.4	-39.4	22.9	0.00e+00	0	32	0	668991488	50	5999
2026-01-28 19:27:51.17	347.64	14.29	-38.2	-39.1	23.1	0.00e+00	0	32	0	671088640	50	5804
2026-01-28 19:27:52.18	347.44	14.27	-38.2	-39.1	23.0	0.00e+00	0	32	0	673185792	50	5810
2026-01-28 19:27:53.19	347.23	14.25	-38.2	-39.1	23.0	0.00e+00	0	32	0	674234368	50	5808
2026-01-28 19:27:54.20	347.03	14.23	-38.2	-39.1	23.1	0.00e+00	0	32	0	676331520	50	5792
2026-01-28 19:27:55.20	346.82	14.21	-38.3	-39.2	22.9	0.00e+00	0	32	0	678428672	50	5881
2026-01-28 19:27:56.21	346.62	14.19	-38.2	-39.2	23.0	0.00e+00	0	32	0	680525824	50	5859
2026-01-28 19:27:57.22	346.42	14.17	-38.3	-39.2	22.9	0.00e+00	0	32	0	682622976	50	5884
2026-01-28 19:27:58.23	346.21	14.15	-38.3	-39.3	23.0	0.00e+00	0	32	0	684720128	50	5914
2026-01-28 19:27:59.24	346.01	14.13	-38.3	-39.2	22.9	0.00e+00	0	32	0	685768704	50	5895
2026-01-28 19:28:00.25	345.81	14.11	-38.2	-39.2	23.0	0.00e+00	0	32	0	687865856	50	5868
2026-01-28 19:28:01.26	345.60	14.09	-38.4	-39.4	22.9	0.00e+00	0	32	0	689963008	50	6029
2026-01-28 19:28:02.27	345.40	14.06	-38.4	-39.4	22.9	0.00e+00	0	32	0	692060160	50	5965
2026-01-28 19:28:03.28	345.20	14.04	-38.2	-39.2	23.0	0.00e+00	0	32	0	694157312	50	5865
2026-01-28 19:28:04.29	345.00	14.02	-38.4	-39.4	22.8	0.00e+00	0	32	0	695205888	50	5992
2026-01-28 19:28:05.30	344.80	14.00	-38.4	-39.4	22.8	0.00e+00	0	32	0	697303040	50	5992
2026-01-28 19:28:06.31	344.60	13.97	-38.4	-39.3	22.9	0.00e+00	0	32	0	699400192	50	5945
2026-01-28 19:28:07.32	344.40	13.95	-38.5	-39.4	22.8	0.00e+00	0	32	0	701497344	50	6026
2026-01-28 19:28:08.33	344.20	13.93	-38.5	-39.5	22.8	0.00e+00	0	32	0	703594496	50	6035
2026-01-28 19:28:09.34	344.00	13.90	-38.5	-39.5	22.6	0.00e+00	0	32	0	704643072	50	6074
2026-01-28 19:28:10.35	343.80	13.88	-38.5	-39.5	22.7	0.00e+00	0	32	0	706740224	50	6089
2026-01-28 19:28:11.36	343.60	13.85	-38.6	-39.6	22.7	0.00e+00	0	32	0	708837376	50	6139
2026-01-28 19:28:12.37	343.40	13.83	-38.5	-39.5	22.7	0.00e+00	0	32	0	710934528	50	6069
2026-01-28 19:28:13.38	343.20	13.80	-38.6	-39.6	22.7	0.00e+00	0	32	0	713031680	50	6109
2026-01-28 19:28:14.38	343.00	13.78	-38.6	-39.6	22.6	0.00e+00	0	32	0	714080256	50	6126
2026-01-28 19:28:15.39	342.80	13.75	-38.7	-39.7	22.5	0.00e+00	0	32	0	716177408	50	6194
2026-01-28 19:28:16.40	342.61	13.72	-38.6	-39.6	22.7	0.00e+00	0	32	0	718274560	50	6132
2026-01-28 19:28:17.41	342.41	13.70	-38.6	-39.6	22.6	0.00e+00	0	32	0	720371712	50	6147
2026-01-28 19:28:18.42	342.21	13.67	-38.7	-39.7	22.5	0.00e+00	0	32	0	722468864	50	6199
2026-01-28 19:28:19.43	342.02	13.64	-38.8	-39.8	22.4	0.00e+00	0	32	0	723517440	50	6315
2026-01-28 19:28:20.44	341.82	13.62	-38.8	-39.8	22.5	0.00e+00	0	32	0	725614592	50	6304
2026-01-28 19:28:21.45	341.62	13.59	-39.0	-40.1	22.4	0.00e+00	0	32	0	727711744	50	6488
2026-01-28 19:28:22.46	341.43	13.56	-38.8	-39.9	22.4	0.00e+00	0	32	0	729808896	50	6363
2026-01-28 19:28:23.47	341.23	13.53	-38.6	-39.6	22.6	0.00e+00	0	32	0	731906048	50	6160
2026-01-28 19:28:24.47	341.04	13.50	-38.7	-39.7	22.5	0.00e+00	0	32	0	732954624	50	6204
2026-01-28 19:28:25.48	340.85	13.47	-38.6	-39.7	22.5	0.00e+00	0	32	0	735051776	50	6200
2026-01-28 19:28:26.50	340.65	13.44	-38.7	-39.8	22.5	0.00e+00	0	32	0	737148928	50	6273
2026-01-28 19:28:27.50	340.46	13.41	-38.7	-39.8	22.4	0.00e+00	0	32	0	739246080	50	6271
2026-01-28 19:28:28.51	340.27	13.39	-38.8	-39.8	22.5	0.00e+00	0	32	0	741343232	50	6298
2026-01-28 19:28:29.52	340.07	13.35	-38.7	-39.8	22.5	0.00e+00	0	32	0	742391808	50	6275
2026-01-28 19:28:30.53	339.88	13.32	-38.6	-39.7	22.6	0.00e+00	0	32	0	744488960	50	6203
2026-01-28 19:28:31.54	339.69	13.29	-38.5	-39.5	22.7	0.00e+00	0	32	0	746586112	50	6082
2026-01-28 19:28:32.55	339.50	13.26	-38.5	-39.5	22.7	0.00e+00	0	32	0	748683264	50	6069
2026-01-28 19:28:33.56	339.31	13.23	-38.5	-39.5	22.8	0.00e+00	0	32	0	750780416	50	6047
2026-01-28 19:28:34.57	339.12	13.20	-38.3	-39.3	22.9	0.00e+00	0	32	0	752877568	50	5901
2026-01-28 19:28:35.58	338.93	13.17	-38.3	-39.4	22.7	0.00e+00	0	32	0	753926144	50	5965
2026-01-28 19:28:36.59	338.74	13.14	-38.3	-39.3	22.9	0.00e+00	0	32	0	756023296	50	5913
2026-01-28 19:28:37.60	338.55	13.10	-38.4	-39.4	22.8	0.00e+00	0	32	0	758120448	50	6031
2026-01-28 19:28:38.61	338.36	13.07	-38.2	-39.2	22.9	0.00e+00	0	32	0	760217600	50	5888
2026-01-28 19:28:39.62	338.17	13.04	-38.4	-39.4	22.4	0.00e+00	0	32	0	762314752	50	6001
2026-01-28 19:28:40.62	337.98	13.00	-38.3	-39.3	22.8	0.00e+00	0	32	0	763363328	50	5918
2026-01-28 19:28:41.64	337.79	12.97	-38.3	-39.3	22.7	0.00e+00	0	32	0	765460480	50	5919
2026-01-28 19:28:42.65	337.61	12.94	-38.3	-39.3	22.8	0.00e+00	0	32	0	767557632	50	5945
2026-01-28 19:28:43.65	337.42	12.90	-38.2	-39.2	22.9	0.00e+00	0	32	0	769654784	50	5879
2026-01-28 19:28:44.66	337.24	12.87	-38.2	-39.2	22.9	0.00e+00	0	32	0	771751936	50	5862
2026-01-28 19:28:45.67	337.05	12.83	-38.2	-39.2	23.0	0.00e+00	0	32	0	772800512	50	5831
2026-01-28 19:28:46.68	336.86	12.80	-38.2	-39.3	22.8	0.00e+00	0	32	0	774897664	50	5897
2026-01-28 19:28:47.69	336.68	12.76	-38.4	-39.4	22.7	0.00e+00	0	32	0	776994816	50	5977
2026-01-28 19:28:48.70	336.49	12.73	-38.3	-39.3	22.8	0.00e+00	0	32	0	779091968	50	5953
2026-01-28 19:28:49.71	336.31	12.69	-38.4	-39.5	22.6	0.00e+00	0	32	0	781189120	50	6059
2026-01-28 19:28:50.71	336.13	12.66	-38.5	-39.5	22.4	0.00e+00	0	32	0	782237696	50	6080
2026-01-28 19:28:51.72	335.94	12.62	-38.5	-39.5	22.7	0.00e+00	0	32	0	784334848	50	6079
2026-01-28 19:28:52.73	335.76	12.59	-38.4	-39.4	22.6	0.00e+00	0	32	0	786432000	50	6030
2026-01-28 19:28:53.74	335.58	12.55	-38.3	-39.3	22.5	0.00e+00	0	32	0	788529152	50	5936
2026-01-28 19:28:54.75	335.40	12.51	-38.4	-39.4	22.6	0.00e+00	0	32	0	790626304	50	5973
2026-01-28 19:28:55.75	335.22	12.48	-38.3	-39.2	22.8	0.00e+00	0	32	0	791674880	50	5895
2026-01-28 19:28:56.76	335.04	12.44	-38.3	-39.3	22.8	0.00e+00	0	32	0	793772032	50	5929
2026-01-28 19:28:57.77	334.86	12.40	-38.3	-39.3	22.8	0.00e+00	0	32	0	795869184	50	5944
2026-01-28 19:28:58.78	334.68	12.36	-38.5	-39.5	22.6	0.00e+00	0	32	0	797966336	50	6051
2026-01-28 19:28:59.79	334.50	12.33	-38.1	-39.1	22.9	0.00e+00	0	32	0	800063488	50	5804
2026-01-28 19:29:00.80	334.32	12.29	-38.3	-39.2	22.8	0.00e+00	0	32	0	801112064	50	5892
2026-01-28 19:29:01.81	334.14	12.25	-38.2	-39.2	22.9	0.00e+00	0	32	0	803209216	50	5853
2026-01-28 19:29:02.82	333.96	12.21	-38.3	-39.3	22.8	0.00e+00	0	32	0	805306368	50	5925
2026-01-28 19:29:03.82	333.78	12.17	-38.4	-39.4	22.8	0.00e+00	0	32	0	807403520	50	5967
2026-01-28 19:29:04.83	333.61	12.14	-38.3	-39.3	22.8	0.00e+00	0	32	0	809500672	50	5921
2026-01-28 19:29:05.84	333.43	12.10	-38.4	-39.4	22.8	0.00e+00	0	32	0	810549248	50	5967
2026-01-28 19:29:06.85	333.25	12.06	-38.5	-39.4	22.7	0.00e+00	0	32	0	812646400	50	6032
2026-01-28 19:29:07.86	333.08	12.02	-38.4	-39.4	22.8	0.00e+00	0	32	0	814743552	50	6012
2026-01-28 19:29:08.87	332.90	11.98	-38.4	-39.4	22.8	0.00e+00	0	32	0	816840704	50	5968
2026-01-28 19:29:09.88	332.73	11.94	-38.5	-39.5	22.5	0.00e+00	0	32	0	818937856	50	6086
2026-01-28 19:29:10.89	332.55	11.90	-38.7	-39.7	22.4	0.00e+00	0	32	0	819986432	50	6214
2026-01-28 19:29:11.90	332.38	11.86	-38.7	-39.8	22.4	0.00e+00	0	32	0	822083584	50	6246
2026-01-28 19:29:12.90	332.21	11.82	-38.9	-40.0	22.1	0.00e+00	0	32	0	824180736	50	6401
2026-01-28 19:29:13.91	332.04	11.78	-38.9	-40.0	22.1	0.00e+00	0	32	0	826277888	50	6399
2026-01-28 19:29:14.92	331.86	11.74	-39.1	-40.2	21.9	0.00e+00	0	32	0	828375040	50	6580
2026-01-28 19:29:15.93	331.69	11.70	-39.1	-40.2	21.9	0.00e+00	0	32	0	829423616	50	6559
2026-01-28 19:29:16.94	331.52	11.65	-39.2	-40.2	21.9	0.00e+00	0	32	0	831520768	50	6607
2026-01-28 19:29:17.95	331.35	11.61	-39.3	-40.4	21.8	0.00e+00	0	32	0	833617920	50	6711
2026-01-28 19:29:18.96	331.18	11.57	-39.5	-40.7	21.5	0.00e+00	0	32	0	835715072	50	6937
2026-01-28 19:29:19.97	331.01	11.53	-39.4	-40.5	21.7	0.00e+00	0	32	0	837812224	50	6780
2026-01-28 19:29:20.98	330.84	11.49	-39.5	-40.6	21.5	0.00e+00	0	32	0	838860800	50	6890
2026-01-28 19:29:21.99	330.67	11.45	-39.4	-40.5	21.6	0.00e+00	0	32	0	840957952	50	6840
2026-01-28 19:29:23.00	330.50	11.40	-39.3	-40.5	21.7	0.00e+00	0	32	0	843055104	50	6772
2026-01-28 19:29:24.01	330.33	11.36	-39.4	-40.4	21.7	0.00e+00	0	32	0	845152256	50	6769
2026-01-28 19:29:25.02	330.17	11.32	-39.6	-40.7	21.6	0.00e+00	0	32	0	847249408	50	6943
2026-01-28 19:29:26.03	330.00	11.28	-39.5	-40.6	21.5	0.00e+00	0	32	0	849346560	50	6926
2026-01-28 19:29:27.04	329.83	11.23	-39.6	-40.8	21.3	0.00e+00	0	32	0	850395136	50	7024
2026-01-28 19:29:28.05	329.67	11.19	-39.8	-41.0	21.3	0.00e+00	0	32	0	852492288	52	6430
2026-01-28 19:29:29.06	329.50	11.15	-40.0	-41.2	21.0	0.00e+00	0	32	0	854589440	52	6554
2026-01-28 19:29:30.07	329.34	11.10	-40.1	-41.2	21.1	0.00e+00	0	32	0	856686592	52	6612
2026-01-28 19:29:31.08	329.17	11.06	-40.1	-41.3	21.1	0.00e+00	0	32	0	858783744	52	6638
2026-01-28 19:29:32.09	329.01	11.02	-40.1	-41.4	21.0	0.00e+00	0	32	0	859832320	52	6698
2026-01-28 19:29:33.10	328.84	10.97	-40.3	-41.5	20.6	0.00e+00	0	32	0	861929472	52	6842
2026-01-28 19:29:34.11	328.68	10.93	-40.3	-41.6	20.7	0.00e+00	0	32	0	864026624	52	6851
2026-01-28 19:29:35.12	328.52	10.88	-40.4	-41.7	20.6	0.00e+00	0	32	0	866123776	52	6964
2026-01-28 19:29:36.13	328.36	10.84	-40.5	-41.8	20.5	0.00e+00	0	32	0	868220928	52	7056
2026-01-28 19:29:37.14	328.19	10.80	-40.5	-41.8	20.4	0.00e+00	0	32	0	869269504	52	7028
2026-01-28 19:29:38.15	328.03	10.75	-40.5	-41.8	20.5	0.00e+00	0	32	0	871366656	52	7009
2026-01-28 19:29:39.16	327.87	10.71	-40.4	-41.6	20.6	0.00e+00	0	32	0	873463808	52	6921
2026-01-28 19:29:40.17	327.71	10.66	-40.4	-41.7	20.6	0.00e+00	0	32	0	875560960	52	6936
2026-01-28 19:29:41.18	327.55	10.62	-40.5	-41.7	20.5	0.00e+00	0	32	0	877658112	52	6993
2026-01-28 19:29:42.19	327.39	10.57	-40.8	-42.1	20.2	0.00e+00	0	32	0	878706688	52	7312
2026-01-28 19:29:43.20	327.23	10.53	-40.7	-42.0	20.1	0.00e+00	0	32	0	880803840	54	6454
2026-01-28 19:29:44.21	327.08	10.48	-41.0	-42.3	20.0	0.00e+00	0	32	0	882900992	54	6676
2026-01-28 19:29:45.22	326.92	10.44	-41.0	-42.4	19.8	0.00e+00	0	32	0	884998144	54	6695
2026-01-28 19:29:46.22	326.76	10.39	-41.3	-42.8	19.5	0.00e+00	0	32	0	887095296	54	7011
2026-01-28 19:29:47.23	326.61	10.34	-41.2	-42.6	19.6	0.00e+00	0	32	0	888143872	54	6923
2026-01-28 19:29:48.24	326.45	10.30	-41.3	-42.8	19.5	0.00e+00	0	32	0	890241024	54	7058
2026-01-28 19:29:49.25	326.29	10.25	-41.2	-42.7	19.6	0.00e+00	0	32	0	892338176	54	6971
2026-01-28 19:29:50.26	326.14	10.21	-41.4	-42.9	19.4	0.00e+00	0	32	0	894435328	54	7112
2026-01-28 19:29:51.27	325.99	10.16	-41.1	-42.5	19.7	0.00e+00	0	32	0	896532480	54	6829
2026-01-28 19:29:52.28	325.83	10.11	-41.0	-42.3	19.8	0.00e+00	0	32	0	897581056	54	6686
2026-01-28 19:29:53.29	325.68	10.07	-41.1	-42.5	19.7	0.00e+00	0	32	0	899678208	54	6797
2026-01-28 19:29:54.30	325.52	10.02	-41.0	-42.4	19.8	0.00e+00	0	32	0	901775360	54	6754
2026-01-28 19:29:55.31	325.37	9.97	-41.1	-42.6	19.6	0.00e+00	0	32	0	903872512	54	6853
2026-01-28 19:29:56.32	325.22	9.93	-41.1	-42.5	19.5	0.00e+00	0	32	0	905969664	54	6846
2026-01-28 19:29:57.32	325.07	9.88	-41.3	-42.7	19.6	0.00e+00	0	32	0	907018240	54	6997
2026-01-28 19:29:58.33	324.92	9.83	-41.2	-42.6	19.5	0.00e+00	0	32	0	909115392	54	6896
2026-01-28 19:29:59.34	324.77	9.79	-41.4	-42.9	19.3	0.00e+00	0	32	0	911212544	54	7102
2026-01-28 19:30:00.35	324.62	9.74	-41.2	-42.7	19.4	0.00e+00	0	32	0	913309696	54	6983
2026-01-28 19:30:01.36	324.47	9.69	-41.4	-42.9	19.3	0.00e+00	0	32	0	915406848	54	7166
2026-01-28 19:30:02.37	324.32	9.65	-41.5	-43.0	19.2	0.00e+00	0	32	0	917504000	54	7244
2026-01-28 19:30:03.38	324.17	9.60	-41.6	-43.1	19.2	0.00e+00	0	32	0	918552576	54	7329
2026-01-28 19:30:04.39	324.02	9.55	-41.5	-43.0	19.3	0.00e+00	0	32	0	920649728	54	7247
2026-01-28 19:30:05.40	323.87	9.50	-41.5	-43.0	19.3	0.00e+00	0	32	0	922746880	54	7191
2026-01-28 19:30:06.41	323.73	9.46	-41.4	-43.0	19.2	0.00e+00	0	32	0	924844032	54	7178
2026-01-28 19:30:07.42	323.58	9.41	-41.5	-43.0	19.2	0.00e+00	0	32	0	926941184	54	7233
2026-01-28 19:30:08.43	323.43	9.36	-41.4	-42.9	19.3	0.00e+00	0	32	0	927989760	54	7163
2026-01-28 19:30:09.44	323.29	9.31	-41.4	-42.9	19.4	0.00e+00	0	32	0	930086912	54	7123
2026-01-28 19:30:10.45	323.14	9.26	-41.4	-42.9	19.4	0.00e+00	0	32	0	932184064	54	7113
2026-01-28 19:30:11.46	323.00	9.22	-41.3	-42.7	19.4	0.00e+00	0	32	0	934281216	54	7000
2026-01-28 19:30:12.47	322.85	9.17	-41.4	-42.9	19.3	0.00e+00	0	32	0	936378368	54	7139
2026-01-28 19:30:13.48	322.71	9.12	-41.3	-42.8	19.4	0.00e+00	0	32	0	937426944	54	7079
2026-01-28 19:30:14.49	322.57	9.07	-41.4	-43.0	19.2	0.00e+00	0	32	0	939524096	54	7180
2026-01-28 19:30:15.50	322.42	9.02	-41.6	-43.1	19.0	0.00e+00	0	32	0	941621248	54	7320
2026-01-28 19:30:16.51	322.28	8.97	-41.4	-42.9	19.4	0.00e+00	0	32	0	943718400	54	7110
2026-01-28 19:30:17.52	322.14	8.92	-41.4	-42.9	19.3	0.00e+00	0	32	0	945815552	54	7094
2026-01-28 19:30:18.53	322.00	8.88	-41.4	-42.9	19.5	0.00e+00	0	32	0	946864128	54	7095
2026-01-28 19:30:19.54	321.86	8.83	-41.1	-42.6	19.5	0.00e+00	0	32	0	948961280	54	6859
2026-01-28 19:30:20.55	321.72	8.78	-41.2	-42.6	19.6	0.00e+00	0	32	0	951058432	54	6922
2026-01-28 19:30:21.55	321.58	8.73	-41.0	-42.4	19.7	0.00e+00	0	32	0	953155584	54	6748
2026-01-28 19:30:22.57	321.44	8.68	-41.1	-42.6	19.6	0.00e+00	0	32	0	955252736	54	6863
2026-01-28 19:30:23.58	321.30	8.63	-41.2	-42.7	19.6	0.00e+00	0	32	0	956301312	54	6941
2026-01-28 19:30:24.58	321.16	8.58	-40.9	-42.2	19.9	0.00e+00	0	32	0	958398464	54	6615
2026-01-28 19:30:25.59	321.02	8.53	-41.1	-42.6	19.5	0.00e+00	0	32	0	960495616	54	6883
2026-01-28 19:30:26.60	320.89	8.48	-41.0	-42.4	19.7	0.00e+00	0	32	0	962592768	54	6767
2026-01-28 19:30:27.61	320.75	8.43	-40.9	-42.3	19.8	0.00e+00	0	32	0	964689920	54	6656
2026-01-28 19:30:28.62	320.61	8.39	-40.9	-42.3	19.9	0.00e+00	0	32	0	965738496	54	6638
2026-01-28 19:30:29.63	320.48	8.34	-41.0	-42.4	19.8	0.00e+00	0	32	0	967835648	54	6697
2026-01-28 19:30:30.64	320.34	8.29	-40.8	-42.1	20.0	0.00e+00	0	32	0	969932800	54	6539
2026-01-28 19:30:31.65	320.21	8.24	-40.7	-42.1	20.1	0.00e+00	0	32	0	972029952	54	6470
2026-01-28 19:30:32.66	320.07	8.19	-40.7	-42.0	20.0	0.00e+00	0	32	0	974127104	54	6446
2026-01-28 19:30:33.67	319.94	8.14	-40.5	-41.8	20.4	0.00e+00	0	32	0	975175680	54	6246
2026-01-28 19:30:34.68	319.80	8.09	-40.6	-41.9	20.3	0.00e+00	0	32	0	977272832	54	6333
2026-01-28 19:30:35.69	319.67	8.04	-40.5	-41.8	20.4	7.00e-07	0	32	0	979369984	54	6297
2026-01-28 19:30:36.70	319.54	7.99	-40.6	-41.9	20.2	0.00e+00	0	32	0	981467136	54	6346
2026-01-28 19:30:37.71	319.40	7.94	-40.6	-41.9	20.1	0.00e+00	0	32	0	983564288	54	6357
2026-01-28 19:30:38.72	319.27	7.89	-40.4	-41.7	20.4	0.00e+00	0	32	0	985661440	54	6230
2026-01-28 19:30:39.73	319.14	7.84	-40.2	-41.5	20.6	0.00e+00	0	32	0	986710016	54	6037
2026-01-28 19:30:40.73	319.01	7.79	-40.1	-41.4	20.6	0.00e+00	0	32	0	988807168	54	6006
2026-01-28 19:30:41.74	318.88	7.74	-40.1	-41.4	20.7	0.00e+00	0	32	0	990904320	54	5984
2026-01-28 19:30:42.75	318.75	7.69	-40.0	-41.2	20.9	0.00e+00	0	32	0	993001472	54	5851
2026-01-28 19:30:43.76	318.62	7.64	-39.9	-41.2	20.8	0.00e+00	0	32	0	995098624	54	5842
2026-01-28 19:30:44.78	318.49	7.59	-39.9	-41.1	20.9	0.00e+00	0	32	0	996147200	54	5826
2026-01-28 19:30:45.78	318.36	7.54	-40.0	-41.2	20.8	0.00e+00	0	32	0	998244352	54	5864
2026-01-28 19:30:46.79	318.23	7.49	-39.9	-41.2	20.8	0.00e+00	0	32	0	1000341504	54	5836
2026-01-28 19:30:47.80	318.11	7.44	-39.9	-41.2	20.8	0.00e+00	0	32	0	1002438656	54	5843
2026-01-28 19:30:48.81	317.98	7.39	-39.8	-41.0	20.9	0.00e+00	0	32	0	1004535808	54	5724
2026-01-28 19:30:49.82	317.85	7.34	-39.8	-41.1	20.9	0.00e+00	0	32	0	1005584384	52	6469
2026-01-28 19:30:50.83	317.73	7.29	-39.9	-41.2	20.8	0.00e+00	0	32	0	1007681536	52	6540
2026-01-28 19:30:51.84	317.60	7.24	-39.7	-40.9	21.2	0.00e+00	0	32	0	1009778688	52	6373
2026-01-28 19:30:52.85	317.47	7.19	-39.8	-41.0	21.0	0.00e+00	0	32	0	1011875840	52	6409
2026-01-28 19:30:53.86	317.35	7.14	-39.7	-41.0	21.1	0.00e+00	0	32	0	1013972992	52	6391
2026-01-28 19:30:54.86	317.23	7.09	-39.7	-40.9	21.0	0.00e+00	0	32	0	1015021568	52	6324
2026-01-28 19:30:55.87	317.10	7.03	-39.5	-40.7	21.3	0.00e+00	0	32	0	1017118720	52	6189
2026-01-28 19:30:56.88	316.98	6.98	-39.2	-40.3	21.6	0.00e+00	0	32	0	1019215872	52	5964
2026-01-28 19:30:57.89	316.85	6.93	-39.5	-40.6	21.3	0.00e+00	0	32	0	1021313024	52	6151
2026-01-28 19:30:58.90	316.73	6.88	-39.4	-40.5	21.4	0.00e+00	0	32	0	1023410176	52	6089
2026-01-28 19:30:59.91	316.61	6.83	-39.7	-40.9	21.1	0.00e+00	0	32	0	1024458752	52	6343
2026-01-28 19:31:00.92	316.49	6.78	-39.2	-40.3	21.3	0.00e+00	0	32	0	1026555904	52	5933
2026-01-28 19:31:01.93	316.36	6.73	-39.2	-40.3	21.4	0.00e+00	0	32	0	1028653056	52	5913
2026-01-28 19:31:02.94	316.24	6.68	-39.2	-40.3	21.5	0.00e+00	0	32	0	1030750208	52	5943
2026-01-28 19:31:03.95	316.12	6.63	-39.1	-40.3	21.5	0.00e+00	0	32	0	1032847360	52	5904
2026-01-28 19:31:04.96	316.00	6.58	-39.0	-40.1	21.7	0.00e+00	0	32	0	1033895936	52	5786
2026-01-28 19:31:05.96	315.88	6.53	-39.2	-40.4	21.4	0.00e+00	0	32	0	1035993088	52	5979
2026-01-28 19:31:06.97	315.76	6.48	-39.1	-40.2	21.5	0.00e+00	0	32	0	1038090240	52	5874
2026-01-28 19:31:07.98	315.65	6.43	-39.5	-40.6	21.3	0.00e+00	0	32	0	1040187392	52	6168
2026-01-28 19:31:08.99	315.53	6.38	-39.1	-40.2	21.5	0.00e+00	0	32	0	1042284544	52	5890
2026-01-28 19:31:10.00	315.41	6.33	-39.0	-40.1	21.6	0.00e+00	0	32	0	1043333120	52	5809
2026-01-28 19:31:11.01	315.29	6.27	-39.3	-40.4	21.4	0.00e+00	0	32	0	1045430272	52	6006
2026-01-28 19:31:12.02	315.17	6.22	-39.4	-40.6	21.1	0.00e+00	0	32	0	1047527424	52	6161
2026-01-28 19:31:13.03	315.06	6.17	-39.3	-40.4	21.3	0.00e+00	0	32	0	1049624576	52	6008
2026-01-28 19:31:14.04	314.94	6.12	-39.5	-40.6	21.1	0.00e+00	0	32	0	1051721728	52	6173
2026-01-28 19:31:15.05	314.82	6.07	-39.5	-40.7	21.0	0.00e+00	0	32	0	1052770304	52	6208
2026-01-28 19:31:16.06	314.71	6.02	-39.7	-40.9	20.8	0.00e+00	0	32	0	1054867456	52	6379
2026-01-28 19:31:17.07	314.59	5.97	-39.5	-40.8	21.0	0.00e+00	0	32	0	1056964608	52	6248
2026-01-28 19:31:18.08	314.48	5.92	-40.0	-41.2	20.5	0.00e+00	0	32	0	1059061760	52	6611
2026-01-28 19:31:19.09	314.36	5.87	-39.8	-41.1	20.8	0.00e+00	0	32	0	1061158912	52	6465
2026-01-28 19:31:20.09	314.25	5.82	-39.2	-40.4	21.3	0.00e+00	0	32	0	1062207488	52	5968
2026-01-28 19:31:21.10	314.14	5.77	-39.5	-40.7	20.9	0.00e+00	0	32	0	1064304640	52	6229
2026-01-28 19:31:22.11	314.02	5.71	-39.6	-40.8	20.9	0.00e+00	0	32	0	1066401792	52	6304
2026-01-28 19:31:23.12	313.91	5.66	-39.7	-40.9	20.7	0.00e+00	0	32	0	1068498944	52	6370
2026-01-28 19:31:24.13	313.80	5.61	-39.7	-41.0	20.8	0.00e+00	0	32	0	1070596096	52	6402
2026-01-28 19:31:25.14	313.69	5.56	-40.0	-41.3	20.4	0.00e+00	0	32	0	1071644672	52	6679
2026-01-28 19:31:26.15	313.57	5.51	-39.6	-40.9	20.8	0.00e+00	0	32	0	1073741824	52	6344
2026-01-28 19:31:27.16	313.46	5.46	-39.5	-40.7	20.9	0.00e+00	0	32	0	1075838976	52	6239
2026-01-28 19:31:28.17	313.35	5.41	-39.7	-40.9	20.7	0.00e+00	0	32	0	1077936128	52	6366
2026-01-28 19:31:29.18	313.24	5.36	-39.6	-40.8	20.8	0.00e+00	0	32	0	1080033280	52	6279
2026-01-28 19:31:30.18	313.13	5.31	-39.7	-41.0	20.6	0.00e+00	0	32	0	1082130432	52	6411
2026-01-28 19:31:31.19	313.02	5.26	-39.6	-40.8	20.8	0.00e+00	0	32	0	1083179008	52	6288
2026-01-28 19:31:32.20	312.91	5.20	-40.0	-41.3	20.4	0.00e+00	0	32	0	1085276160	52	6626
2026-01-28 19:31:33.21	312.81	5.15	-40.4	-41.9	19.9	0.00e+00	0	32	0	1087373312	52	7109
2026-01-28 19:31:34.22	312.70	5.10	-39.7	-41.0	20.7	0.00e+00	0	32	0	1089470464	52	6421
2026-01-28 19:31:35.23	312.59	5.05	-40.0	-41.3	20.3	0.00e+00	0	32	0	1091567616	52	6680
2026-01-28 19:31:36.24	312.48	5.00	-40.0	-41.3	20.2	0.00e+00	0	32	0	1092616192	52	6658
2026-01-28 19:31:37.25	312.37	4.95	-40.4	-41.8	19.7	0.00e+00	0	32	0	1094713344	52	7022
2026-01-28 19:31:38.26	312.27	4.90	-40.3	-41.7	20.1	0.00e+00	0	32	0	1096810496	52	6933
2026-01-28 19:31:39.26	312.16	4.85	-40.2	-41.5	20.1	0.00e+00	0	32	0	1098907648	52	6827
2026-01-28 19:31:40.27	312.06	4.80	-40.1	-41.5	20.0	0.00e+00	0	32	0	1101004800	52	6808
2026-01-28 19:31:41.28	311.95	4.75	-40.2	-41.5	20.0	0.00e+00	0	32	0	1102053376	52	6827
2026-01-28 19:31:42.29	311.84	4.70	-40.1	-41.5	20.0	0.00e+00	0	32	0	1104150528	52	6815
2026-01-28 19:31:43.30	311.74	4.64	-40.1	-41.5	20.0	0.00e+00	0	32	0	1106247680	52	6809
2026-01-28 19:31:44.31	311.64	4.59	-40.5	-41.9	19.7	0.00e+00	0	32	0	1108344832	52	7136
2026-01-28 19:31:45.32	311.53	4.54	-39.7	-41.0	20.5	0.00e+00	0	32	0	1110441984	52	6393
2026-01-28 19:31:46.33	311.43	4.49	-40.4	-41.8	19.8	0.00e+00	0	32	0	1111490560	52	7024
2026-01-28 19:31:47.34	311.32	4.44	-40.8	-42.3	19.4	0.00e+00	0	32	0	1113587712	52	7442
2026-01-28 19:31:48.35	311.22	4.39	-40.1	-41.4	20.2	0.00e+00	0	32	0	1115684864	54	6001
2026-01-28 19:31:49.36	311.12	4.34	-40.4	-41.8	19.8	0.00e+00	0	32	0	1117782016	54	6277
2026-01-28 19:31:50.37	311.02	4.29	-40.5	-42.0	19.5	0.00e+00	0	32	0	1119879168	54	6438
2026-01-28 19:31:51.37	310.91	4.24	-41.0	-42.6	18.6	0.00e+00	0	32	0	1120927744	54	6914
2026-01-28 19:31:52.38	310.81	4.19	-41.3	-42.9	18.6	0.00e+00	0	32	0	1123024896	54	7137
2026-01-28 19:31:53.39	310.71	4.14	-41.1	-42.7	18.7	0.00e+00	0	32	0	1125122048	54	6955
2026-01-28 19:31:54.40	310.61	4.08	-41.1	-42.8	18.5	0.00e+00	0	32	0	1127219200	54	7025
2026-01-28 19:31:55.41	310.51	4.03	-40.7	-42.2	19.3	0.00e+00	0	32	0	1129316352	54	6542
2026-01-28 19:31:56.42	310.41	3.98	-40.8	-42.4	19.0	0.00e+00	0	32	0	1130364928	54	6699
2026-01-28 19:31:57.43	310.31	3.93	-40.7	-42.2	19.4	0.00e+00	0	32	0	1132462080	54	6602
2026-01-28 19:31:58.44	310.21	3.88	-41.1	-42.7	18.5	0.00e+00	0	32	0	1134559232	54	6966
2026-01-28 19:31:59.45	310.11	3.83	-40.9	-42.5	18.8	0.00e+00	0	32	0	1136656384	54	6796
2026-01-28 19:32:00.46	310.01	3.78	-41.2	-42.9	18.5	0.00e+00	0	32	0	1138753536	54	7158
2026-01-28 19:32:01.47	309.91	3.73	-40.9	-42.5	18.8	0.00e+00	0	32	0	1139802112	54	6804
2026-01-28 19:32:02.48	309.82	3.68	-40.5	-42.0	19.4	0.00e+00	0	32	0	1141899264	54	6431
2026-01-28 19:32:03.49	309.72	3.63	-40.9	-42.5	18.8	0.00e+00	0	32	0	1143996416	54	6808
2026-01-28 19:32:04.50	309.62	3.58	-41.1	-42.7	18.7	0.00e+00	0	32	0	1146093568	54	6992
2026-01-28 19:32:05.50	309.52	3.53	-40.4	-41.9	19.3	0.00e+00	0	32	0	1148190720	54	6319
2026-01-28 19:32:06.51	309.43	3.48	-40.7	-42.3	19.1	0.00e+00	0	32	0	1150287872	54	6648
2026-01-28 19:32:07.52	309.33	3.43	-40.7	-42.3	19.1	0.00e+00	0	32	0	1151336448	54	6634
2026-01-28 19:32:08.53	309.24	3.37	-40.8	-42.4	18.8	0.00e+00	0	32	0	1153433600	54	6732
2026-01-28 19:32:09.54	309.14	3.32	-41.0	-42.6	18.7	0.00e+00	0	32	0	1155530752	54	6886
2026-01-28 19:32:10.55	309.04	3.27	-41.4	-43.2	17.9	0.00e+00	0	32	0	1157627904	54	7350
2026-01-28 19:32:11.55	308.95	3.22	-41.3	-43.0	18.2	0.00e+00	0	32	0	1158676480	54	7217
2026-01-28 19:32:12.57	308.85	3.17	-41.0	-42.6	18.5	0.00e+00	0	32	0	1160773632	54	6894
2026-01-28 19:32:13.58	308.76	3.12	-41.4	-43.1	18.1	0.00e+00	0	32	0	1162870784	54	7334
2026-01-28 19:32:14.59	308.67	3.07	-41.8	-43.8	17.1	0.00e+00	0	32	0	1164967936	56	7029
2026-01-28 19:32:15.60	308.57	3.02	-42.3	-44.5	16.8	0.00e+00	0	32	0	1167065088	56	7621
2026-01-28 19:32:16.61	308.48	2.97	-43.6	-46.5	11.9	0.00e+00	0	32	0	1169162240	56	9576
2026-01-28 19:32:17.62	308.39	2.92	-47.7	-62.8	3.6	1.51e+00	0	32	104	1169162240	60	50018
2026-01-28 19:32:18.63	308.29	2.87	-48.0	-63.1	3.6	1.51e+00	0	32	104	1169162240	60	51874
2026-01-28 19:32:19.64	308.20	2.82	-48.3	-63.5	3.6	1.51e+00	0	32	104	1169162240	60	53831
2026-01-28 19:32:20.65	308.11	2.77	-48.6	-63.7	3.6	1.51e+00	0	32	104	1169162240	60	55347
2026-01-28 19:32:21.66	308.02	2.72	-48.7	-63.8	3.6	1.51e+00	0	32	104	1169162240	60	56256
2026-01-28 19:32:22.67	307.93	2.67	-48.8	-64.0	3.6	1.51e+00	0	32	104	1169162240	60	57031
2026-01-28 19:32:23.68	307.83	2.62	-48.8	-64.0	3.6	1.51e+00	0	32	104	1169162240	60	57614
2026-01-28 19:32:24.69	307.74	2.57	-48.9	-64.0	3.6	1.51e+00	0	32	104	1169162240	60	57369
2026-01-28 19:32:25.70	307.65	2.52	-49.0	-64.1	3.6	1.51e+00	0	32	104	1169162240	60	58023
2026-01-28 19:32:26.71	307.56	2.47	-49.0	-64.2	3.6	1.51e+00	0	32	104	1169162240	60	58562
2026-01-28 19:32:27.72	307.47	2.42	-49.0	-64.2	3.6	1.51e+00	0	32	104	1169162240	60	58520
2026-01-28 19:32:28.73	307.38	2.37	-49.0	-64.2	3.6	1.51e+00	0	32	104	1169162240	60	58620
2026-01-28 19:32:29.74	307.30	2.32	-49.0	-64.2	3.6	1.51e+00	0	32	104	1169162240	60	58748
2026-01-28 19:32:30.75	307.21	2.27	-49.0	-64.2	3.6	1.51e+00	0	32	104	1169162240	60	58411
2026-01-28 19:32:31.76	307.12	2.22	-48.9	-64.2	3.6	1.51e+00	0	32	104	1169162240	60	58457
