passes_logs/2026/01/28/R4.6S_Anadyr/R4.6S_Anadyr__20260128_203902_SUOMI_NPP_rec.log

#Pass ID: 20260128_203902_SUOMI NPP
#Satellite: SUOMI NPP
#Configuration: NPP
#almurnet v.1.7.20251203
#Start time: 2026-01-28 20:39:03

#Version: 2.2.20231116
#Station: R4.6S_Anadyr
#Location: 177.4865 lon 64.73178 lat
#TLE: 1 37849U 11061A   26027.86188320  .00000172  00000+0  10275-3 0  9990
#TLE: 2 37849  98.7823 329.8005 0002088  41.4184 318.7150 14.19530883738530

#Time	Az	El	Level	Level2	SNR	BER	BlckErr	Temp	State	Recorded	gain1	gain2
2026-01-28 20:39:03.71	72.65	0.05	-48.8	-60.5	3.5	8.44e-01	0	29	0	0	60	38093
2026-01-28 20:39:04.72	72.58	0.10	-49.0	-64.2	3.6	1.51e+00	0	30	104	0	60	58658
2026-01-28 20:39:05.73	72.51	0.15	-49.0	-64.1	3.6	1.51e+00	0	30	104	0	60	58081
2026-01-28 20:39:06.74	72.44	0.20	-48.9	-64.2	3.6	1.51e+00	0	30	104	0	60	58319
2026-01-28 20:39:07.75	72.37	0.25	-48.9	-64.1	3.6	1.51e+00	0	30	104	0	60	57922
2026-01-28 20:39:08.76	72.29	0.30	-48.9	-64.1	3.6	1.51e+00	0	30	104	0	60	57955
2026-01-28 20:39:09.77	72.22	0.35	-48.9	-64.1	3.6	1.51e+00	0	30	104	0	60	58090
2026-01-28 20:39:10.78	72.15	0.40	-48.9	-64.1	3.6	1.51e+00	0	30	104	0	60	57786
2026-01-28 20:39:11.79	72.07	0.46	-48.9	-64.1	3.6	1.51e+00	0	30	104	0	60	57682
2026-01-28 20:39:12.80	72.00	0.51	-48.9	-64.1	3.6	1.51e+00	0	30	104	0	60	57986
2026-01-28 20:39:13.81	71.93	0.56	-48.9	-64.1	3.6	1.51e+00	0	30	104	0	60	58127
2026-01-28 20:39:14.82	71.85	0.61	-48.9	-64.1	3.6	1.51e+00	0	30	104	0	60	57843
2026-01-28 20:39:15.83	71.78	0.66	-49.0	-64.1	3.6	1.51e+00	0	30	104	0	60	57839
2026-01-28 20:39:16.83	71.70	0.71	-49.0	-64.1	3.6	1.51e+00	0	30	104	0	60	58212
2026-01-28 20:39:17.84	71.63	0.76	-48.9	-64.1	3.6	1.51e+00	0	30	104	0	60	58194
2026-01-28 20:39:18.85	71.55	0.81	-48.9	-64.1	3.6	1.51e+00	0	30	104	0	60	57756
2026-01-28 20:39:19.86	71.48	0.86	-48.7	-64.1	3.6	1.51e+00	0	30	104	0	60	57803
2026-01-28 20:39:20.87	71.40	0.91	-48.6	-64.0	3.6	1.51e+00	0	30	104	0	60	57576
2026-01-28 20:39:21.88	71.33	0.97	-48.8	-64.0	3.6	1.51e+00	0	30	104	0	60	57145
2026-01-28 20:39:22.89	71.25	1.02	-48.7	-63.9	3.6	1.51e+00	0	31	104	0	60	56867
2026-01-28 20:39:23.90	71.17	1.07	-48.6	-63.9	3.6	1.51e+00	0	30	104	0	60	56326
2026-01-28 20:39:24.91	71.10	1.12	-48.5	-63.7	3.6	1.51e+00	0	30	104	0	60	55030
2026-01-28 20:39:25.92	71.02	1.17	-47.8	-63.6	3.6	1.51e+00	0	30	104	0	60	54833
2026-01-28 20:39:26.93	70.94	1.22	-48.1	-63.3	3.6	1.51e+00	0	30	104	0	60	53050
2026-01-28 20:39:27.94	70.86	1.27	-47.9	-63.1	3.6	1.51e+00	0	30	104	0	60	51899
2026-01-28 20:39:28.95	70.79	1.32	-47.6	-62.8	3.6	1.51e+00	0	30	104	0	60	49879
2026-01-28 20:39:29.96	70.71	1.38	-47.3	-62.5	3.6	1.51e+00	0	30	104	0	60	48113
2026-01-28 20:39:30.97	70.63	1.43	-47.3	-62.5	3.6	1.51e+00	0	31	104	0	60	48348
2026-01-28 20:39:31.98	70.55	1.48	-47.3	-62.5	3.6	1.51e+00	0	30	104	0	60	48287
2026-01-28 20:39:32.99	70.47	1.53	-47.3	-62.5	3.6	1.51e+00	0	30	104	0	60	48047
2026-01-28 20:39:34.00	70.39	1.58	-47.3	-62.5	3.6	1.51e+00	0	31	104	0	60	48134
2026-01-28 20:39:35.01	70.31	1.63	-47.3	-62.4	3.6	1.51e+00	0	30	104	0	60	47507
2026-01-28 20:39:36.02	70.23	1.69	-47.3	-62.4	3.6	1.51e+00	0	30	104	0	60	47664
2026-01-28 20:39:37.03	70.15	1.74	-47.3	-62.5	3.6	1.51e+00	0	31	104	0	60	47932
2026-01-28 20:39:38.04	70.07	1.79	-47.3	-62.4	3.6	1.51e+00	0	31	104	0	60	47877
2026-01-28 20:39:39.05	69.99	1.84	-47.3	-62.5	3.6	1.51e+00	0	30	104	0	60	48333
2026-01-28 20:39:40.06	69.91	1.89	-47.3	-62.4	3.6	1.51e+00	0	31	104	0	60	47703
2026-01-28 20:39:41.07	69.83	1.95	-47.3	-62.4	3.6	1.51e+00	0	31	104	0	60	47830
2026-01-28 20:39:42.08	69.74	2.00	-47.3	-62.4	3.6	1.51e+00	0	31	104	0	60	47672
2026-01-28 20:39:43.09	69.66	2.05	-47.3	-62.4	3.5	1.51e+00	0	31	104	0	60	47619
2026-01-28 20:39:44.10	69.58	2.10	-47.3	-62.4	3.6	1.51e+00	0	31	104	0	60	47603
2026-01-28 20:39:45.11	69.50	2.15	-47.3	-62.3	3.6	1.51e+00	0	31	104	0	60	47058
2026-01-28 20:39:46.12	69.41	2.21	-47.3	-62.4	3.6	1.51e+00	0	31	104	0	60	47419
2026-01-28 20:39:47.13	69.33	2.26	-47.3	-62.4	3.6	1.51e+00	0	31	104	0	60	47783
2026-01-28 20:39:48.14	69.25	2.31	-47.3	-62.5	3.6	1.51e+00	0	31	104	0	60	48188
2026-01-28 20:39:49.15	69.16	2.36	-47.3	-62.4	3.6	1.51e+00	0	31	104	0	60	47650
2026-01-28 20:39:50.16	69.08	2.42	-47.3	-62.3	3.6	1.51e+00	0	31	104	0	60	47244
2026-01-28 20:39:51.17	68.99	2.47	-47.3	-62.4	3.6	1.51e+00	0	31	104	0	60	47788
2026-01-28 20:39:52.18	68.91	2.52	-47.3	-62.5	3.6	1.51e+00	0	31	104	0	60	47964
2026-01-28 20:39:53.19	68.82	2.57	-47.3	-62.4	3.6	1.51e+00	0	31	104	0	60	47665
2026-01-28 20:39:54.20	68.74	2.63	-47.3	-61.9	3.6	1.51e+00	0	31	104	0	60	45056
2026-01-28 20:39:55.21	68.65	2.68	-47.2	-61.8	3.6	1.51e+00	0	31	104	0	60	44614
2026-01-28 20:39:56.22	68.57	2.73	-47.3	-62.1	3.6	1.51e+00	0	31	104	0	60	45830
2026-01-28 20:39:57.23	68.48	2.78	-47.3	-62.4	3.6	1.51e+00	0	31	104	0	60	47420
2026-01-28 20:39:58.24	68.39	2.84	-47.2	-60.2	3.6	1.51e+00	0	31	104	0	60	37000
2026-01-28 20:39:59.25	68.31	2.89	-46.7	-55.5	5.9	6.88e-01	0	31	104	0	60	21433
2026-01-28 20:40:00.26	68.22	2.94	-45.8	-50.8	10.1	1.07e-01	74	31	0	1048576	60	12601
2026-01-28 20:40:01.27	68.13	2.99	-44.9	-48.8	12.6	1.59e-03	0	31	0	3145728	60	9954
2026-01-28 20:40:02.28	68.04	3.05	-44.8	-48.5	12.5	1.29e-05	92	31	0	4194304	60	9621
2026-01-28 20:40:03.29	67.96	3.10	-46.7	-53.9	6.9	2.16e-01	79	31	0	6291456	60	17990
2026-01-28 20:40:04.30	67.87	3.15	-46.1	-51.1	10.9	3.77e-01	92	31	0	7340032	60	12988
2026-01-28 20:40:05.31	67.78	3.21	-47.1	-61.0	3.6	1.45e+00	0	31	104	9437184	60	40730
2026-01-28 20:40:06.32	67.69	3.26	-47.2	-60.0	3.9	1.51e+00	0	31	104	9437184	60	36203
2026-01-28 20:40:07.33	67.60	3.31	-44.7	-48.6	12.7	1.29e+00	80	31	104	9437184	60	9696
2026-01-28 20:40:08.34	67.51	3.36	-44.2	-47.4	13.8	4.50e-06	0	31	0	10485760	60	8448
2026-01-28 20:40:09.34	67.42	3.42	-43.8	-46.6	14.8	0.00e+00	82	31	0	11534336	60	7747
2026-01-28 20:40:10.35	67.33	3.47	-44.0	-47.1	14.6	0.00e+00	0	31	0	13631488	60	8148
2026-01-28 20:40:11.36	67.24	3.52	-43.3	-45.8	15.8	1.50e-06	92	31	0	15728640	60	7071
2026-01-28 20:40:12.37	67.15	3.58	-42.1	-44.1	17.3	0.00e+00	92	31	0	17825792	58	6470
2026-01-28 20:40:13.38	67.05	3.63	-42.4	-44.5	16.9	0.00e+00	0	31	0	19922944	58	6802
2026-01-28 20:40:14.39	66.96	3.68	-42.3	-44.3	17.6	0.00e+00	92	31	0	20971520	58	6649
2026-01-28 20:40:15.40	66.87	3.74	-42.2	-44.1	17.1	0.00e+00	0	31	0	23068672	58	6534
2026-01-28 20:40:16.41	66.78	3.79	-41.7	-43.5	18.1	0.00e+00	79	31	0	25165824	58	6067
2026-01-28 20:40:17.42	66.68	3.84	-41.1	-42.7	18.9	0.00e+00	0	31	0	27262976	56	6204
2026-01-28 20:40:18.43	66.59	3.90	-41.7	-43.5	17.9	0.00e+00	92	31	0	29360128	56	6816
2026-01-28 20:40:19.44	66.50	3.95	-42.1	-44.0	17.7	0.00e+00	90	31	0	30408704	56	7172
2026-01-28 20:40:20.45	66.40	4.00	-41.6	-43.3	18.3	0.00e+00	0	31	0	32505856	56	6647
2026-01-28 20:40:21.46	66.31	4.06	-41.6	-43.3	18.3	0.00e+00	59	31	0	34603008	56	6638
2026-01-28 20:40:22.47	66.21	4.11	-41.7	-43.5	18.1	0.00e+00	0	31	0	36700160	56	6770
2026-01-28 20:40:23.48	66.12	4.16	-41.9	-43.7	17.9	0.00e+00	89	31	0	38797312	56	6931
2026-01-28 20:40:24.49	66.02	4.22	-41.6	-43.3	18.1	0.00e+00	0	31	0	40894464	56	6664
2026-01-28 20:40:25.49	65.93	4.27	-42.3	-44.2	17.5	0.00e+00	92	31	0	41943040	56	7416
2026-01-28 20:40:26.51	65.83	4.32	-42.8	-44.9	16.7	0.00e+00	0	31	0	44040192	56	8045
2026-01-28 20:40:27.52	65.73	4.38	-42.2	-44.1	17.5	0.00e+00	0	31	0	46137344	58	6526
2026-01-28 20:40:28.53	65.64	4.43	-42.1	-44.0	17.6	0.00e+00	92	31	0	48234496	56	7224
2026-01-28 20:40:29.54	65.54	4.49	-41.9	-43.7	17.9	0.00e+00	0	31	0	50331648	56	6962
2026-01-28 20:40:30.55	65.44	4.54	-42.6	-44.6	17.2	0.00e+00	74	31	0	51380224	56	7751
2026-01-28 20:40:31.56	65.34	4.59	-42.7	-44.9	16.8	0.00e+00	0	31	0	53477376	58	7115
2026-01-28 20:40:32.57	65.24	4.65	-42.2	-44.2	17.1	0.00e+00	92	31	0	55574528	58	6563
2026-01-28 20:40:33.57	65.15	4.70	-42.7	-44.8	16.9	0.00e+00	74	31	0	57671680	58	7052
2026-01-28 20:40:34.59	65.04	4.75	-42.8	-45.0	16.7	0.00e+00	0	31	0	59768832	58	7217
2026-01-28 20:40:35.59	64.95	4.81	-42.4	-44.4	17.2	0.00e+00	90	31	0	60817408	58	6715
2026-01-28 20:40:36.60	64.85	4.86	-42.8	-45.0	16.5	0.00e+00	0	31	0	62914560	58	7227
2026-01-28 20:40:37.61	64.75	4.92	-43.1	-45.4	16.4	0.00e+00	73	31	0	65011712	58	7544
2026-01-28 20:40:38.62	64.64	4.97	-42.9	-45.1	16.4	0.00e+00	0	31	0	67108864	58	7286
2026-01-28 20:40:39.63	64.54	5.02	-43.2	-45.6	16.5	0.00e+00	90	31	0	69206016	58	7691
2026-01-28 20:40:40.64	64.44	5.08	-43.1	-45.4	16.6	0.00e+00	0	31	0	70254592	58	7581
2026-01-28 20:40:41.65	64.34	5.13	-42.7	-44.8	17.0	0.00e+00	12	31	0	72351744	58	7078
2026-01-28 20:40:42.66	64.24	5.19	-42.6	-44.7	17.3	0.00e+00	92	31	0	74448896	58	6979
2026-01-28 20:40:43.68	64.13	5.24	-42.2	-44.1	17.6	0.00e+00	0	31	0	76546048	58	6483
2026-01-28 20:40:44.69	64.03	5.29	-42.6	-44.7	16.8	0.00e+00	78	31	0	78643200	58	6993
2026-01-28 20:40:45.69	63.93	5.35	-42.5	-44.6	16.8	0.00e+00	0	31	0	79691776	58	6903
2026-01-28 20:40:46.71	63.82	5.40	-42.3	-44.3	17.1	0.00e+00	89	31	0	81788928	58	6689
2026-01-28 20:40:47.71	63.72	5.46	-42.7	-44.9	16.9	0.00e+00	0	31	0	83886080	58	7157
2026-01-28 20:40:48.73	63.61	5.51	-42.6	-44.7	17.1	0.00e+00	66	31	0	85983232	58	6974
2026-01-28 20:40:49.74	63.51	5.57	-42.6	-44.8	16.9	0.00e+00	92	31	0	88080384	58	7041
2026-01-28 20:40:50.75	63.40	5.62	-42.7	-44.9	16.8	0.00e+00	0	31	0	89128960	58	7100
2026-01-28 20:40:51.75	63.30	5.67	-42.5	-44.6	17.1	0.00e+00	88	31	0	91226112	58	6851
2026-01-28 20:40:52.77	63.19	5.73	-42.3	-44.3	17.5	0.00e+00	0	31	0	93323264	58	6652
2026-01-28 20:40:53.77	63.09	5.78	-42.6	-44.7	17.1	0.00e+00	92	31	0	95420416	58	6963
2026-01-28 20:40:54.78	62.98	5.84	-42.7	-44.8	16.8	0.00e+00	0	31	0	97517568	58	7078
2026-01-28 20:40:55.79	62.87	5.89	-42.8	-45.0	16.7	0.00e+00	92	31	0	98566144	58	7200
2026-01-28 20:40:56.80	62.76	5.94	-42.6	-44.6	17.2	0.00e+00	76	31	0	100663296	58	6927
2026-01-28 20:40:57.81	62.65	6.00	-43.2	-45.5	16.6	0.00e+00	0	31	0	102760448	58	7626
2026-01-28 20:40:58.82	62.54	6.05	-42.9	-45.1	16.6	0.00e+00	90	31	0	104857600	58	7332
2026-01-28 20:40:59.83	62.44	6.11	-42.0	-43.9	17.8	0.00e+00	0	31	0	106954752	58	6340
2026-01-28 20:41:00.84	62.33	6.16	-41.8	-43.5	18.2	0.00e+00	79	31	0	109051904	58	6091
2026-01-28 20:41:01.85	62.22	6.22	-41.4	-43.1	18.5	0.00e+00	0	31	0	110100480	56	6485
2026-01-28 20:41:02.86	62.11	6.27	-41.9	-43.7	17.9	0.00e+00	92	31	0	112197632	56	6965
2026-01-28 20:41:03.87	61.99	6.33	-41.9	-43.8	17.9	0.00e+00	59	31	0	114294784	56	7016
2026-01-28 20:41:04.88	61.88	6.38	-42.2	-44.1	17.6	0.00e+00	0	31	0	116391936	56	7299
2026-01-28 20:41:05.89	61.77	6.43	-42.1	-44.1	17.7	0.00e+00	81	31	0	118489088	56	7256
2026-01-28 20:41:06.89	61.66	6.49	-41.9	-43.8	18.1	0.00e+00	0	31	0	119537664	56	7009
2026-01-28 20:41:07.90	61.55	6.54	-41.5	-43.2	18.5	0.00e+00	91	31	0	121634816	56	6587
2026-01-28 20:41:08.91	61.43	6.60	-41.7	-43.4	18.3	0.00e+00	0	31	0	123731968	56	6766
2026-01-28 20:41:09.92	61.32	6.65	-41.7	-43.5	18.3	0.00e+00	91	31	0	125829120	56	6793
2026-01-28 20:41:10.93	61.21	6.71	-41.2	-42.8	18.9	0.00e+00	81	31	0	127926272	56	6281
2026-01-28 20:41:11.94	61.09	6.76	-41.2	-42.9	18.8	0.00e+00	0	31	0	128974848	56	6343
2026-01-28 20:41:12.95	60.98	6.82	-41.5	-43.2	18.6	0.00e+00	92	31	0	131072000	56	6542
2026-01-28 20:41:13.96	60.86	6.87	-41.7	-43.5	18.4	0.00e+00	0	31	0	133169152	56	6775
2026-01-28 20:41:14.97	60.75	6.93	-41.7	-43.5	18.3	0.00e+00	81	31	0	135266304	56	6774
2026-01-28 20:41:15.98	60.63	6.98	-42.0	-43.8	18.2	0.00e+00	0	31	0	137363456	56	7011
2026-01-28 20:41:16.99	60.51	7.03	-41.8	-43.6	18.1	0.00e+00	92	31	0	138412032	56	6903
2026-01-28 20:41:18.00	60.40	7.09	-41.8	-43.5	18.2	0.00e+00	73	31	0	140509184	56	6829
2026-01-28 20:41:19.00	60.28	7.14	-41.4	-43.0	18.7	0.00e+00	39	31	0	142606336	56	6430
2026-01-28 20:41:20.01	60.16	7.20	-40.8	-42.3	19.4	0.00e+00	92	31	0	144703488	56	5919
2026-01-28 20:41:21.02	60.04	7.25	-40.5	-41.9	19.7	0.00e+00	0	31	0	146800640	54	6337
2026-01-28 20:41:22.03	59.93	7.31	-40.2	-41.5	20.0	0.00e+00	79	31	0	147849216	54	6095
2026-01-28 20:41:23.04	59.81	7.36	-40.4	-41.7	19.9	0.00e+00	0	31	0	149946368	54	6243
2026-01-28 20:41:24.05	59.69	7.42	-40.3	-41.6	19.9	0.00e+00	86	31	0	152043520	54	6159
2026-01-28 20:41:25.06	59.57	7.47	-40.4	-41.8	19.9	0.00e+00	0	31	0	154140672	54	6255
2026-01-28 20:41:26.06	59.45	7.52	-40.2	-41.5	20.1	0.00e+00	92	31	0	156237824	54	6066
2026-01-28 20:41:27.08	59.32	7.58	-40.4	-41.8	19.9	0.00e+00	67	31	0	157286400	54	6252
2026-01-28 20:41:28.09	59.20	7.63	-40.1	-41.5	20.2	0.00e+00	0	31	0	159383552	54	6036
2026-01-28 20:41:29.10	59.08	7.69	-40.2	-41.6	20.1	0.00e+00	18	31	0	161480704	54	6105
2026-01-28 20:41:30.10	58.96	7.74	-40.1	-41.5	20.0	0.00e+00	0	31	0	163577856	54	6039
2026-01-28 20:41:31.11	58.84	7.80	-40.2	-41.6	20.1	0.00e+00	65	31	0	165675008	54	6105
2026-01-28 20:41:32.12	58.71	7.85	-40.2	-41.6	20.1	0.00e+00	0	31	0	166723584	54	6112
2026-01-28 20:41:33.13	58.59	7.91	-40.5	-41.9	20.0	0.00e+00	62	31	0	168820736	54	6372
2026-01-28 20:41:34.14	58.46	7.96	-40.3	-41.6	20.1	0.00e+00	92	31	0	170917888	54	6156
2026-01-28 20:41:35.14	58.34	8.01	-40.4	-41.8	19.8	0.00e+00	0	31	0	173015040	54	6311
2026-01-28 20:41:36.15	58.21	8.07	-40.5	-41.9	19.6	0.00e+00	17	31	0	175112192	54	6389
2026-01-28 20:41:37.16	58.09	8.12	-40.5	-41.9	19.4	0.00e+00	0	31	0	176160768	54	6388
2026-01-28 20:41:38.17	57.96	8.18	-40.5	-41.9	20.0	0.00e+00	92	31	0	178257920	54	6348
2026-01-28 20:41:39.18	57.84	8.23	-40.3	-41.6	20.0	0.00e+00	0	31	0	180355072	54	6169
2026-01-28 20:41:40.19	57.71	8.29	-40.5	-41.9	19.8	0.00e+00	92	31	0	182452224	54	6370
2026-01-28 20:41:41.20	57.58	8.34	-40.3	-41.7	20.1	0.00e+00	76	31	0	184549376	54	6208
2026-01-28 20:41:42.21	57.45	8.40	-40.5	-41.9	19.8	0.00e+00	0	31	0	185597952	54	6339
2026-01-28 20:41:43.22	57.32	8.45	-40.5	-41.9	19.8	0.00e+00	92	31	0	187695104	54	6341
2026-01-28 20:41:44.22	57.19	8.50	-40.3	-41.7	20.1	0.00e+00	0	31	0	189792256	54	6220
2026-01-28 20:41:45.24	57.06	8.56	-40.7	-42.1	19.7	0.00e+00	92	31	0	191889408	54	6497
2026-01-28 20:41:46.24	56.93	8.61	-40.6	-42.0	19.8	0.00e+00	0	31	0	193986560	54	6415
2026-01-28 20:41:47.25	56.80	8.67	-40.3	-41.7	20.1	0.00e+00	92	31	0	195035136	54	6203
2026-01-28 20:41:48.26	56.67	8.72	-40.4	-41.7	20.0	0.00e+00	31	31	0	197132288	54	6215
2026-01-28 20:41:49.27	56.54	8.77	-40.3	-41.6	20.1	0.00e+00	0	31	0	199229440	54	6163
2026-01-28 20:41:50.28	56.41	8.83	-40.6	-41.9	19.6	0.00e+00	92	31	0	201326592	54	6389
2026-01-28 20:41:51.29	56.28	8.88	-40.2	-41.5	20.3	0.00e+00	0	31	0	203423744	54	6079
2026-01-28 20:41:52.30	56.14	8.94	-40.3	-41.7	20.1	0.00e+00	34	31	0	205520896	54	6175
2026-01-28 20:41:53.31	56.01	8.99	-40.4	-41.7	20.1	0.00e+00	33	31	0	206569472	54	6234
2026-01-28 20:41:54.32	55.87	9.05	-40.4	-41.7	20.1	0.00e+00	92	31	0	208666624	54	6236
2026-01-28 20:41:55.33	55.74	9.10	-40.3	-41.7	20.2	0.00e+00	0	31	0	210763776	54	6180
2026-01-28 20:41:56.34	55.60	9.15	-40.1	-41.4	20.4	0.00e+00	0	31	0	212860928	54	6028
2026-01-28 20:41:57.35	55.47	9.21	-40.0	-41.2	20.4	0.00e+00	92	31	0	214958080	54	5880
2026-01-28 20:41:58.36	55.33	9.26	-40.2	-41.6	20.3	0.00e+00	0	31	0	216006656	54	6104
2026-01-28 20:41:59.37	55.20	9.32	-40.3	-41.6	20.2	0.00e+00	82	31	0	218103808	54	6139
2026-01-28 20:42:00.38	55.06	9.37	-40.3	-41.6	20.2	0.00e+00	0	31	0	220200960	54	6146
2026-01-28 20:42:01.39	54.92	9.42	-40.3	-41.6	20.2	0.00e+00	92	31	0	222298112	54	6160
2026-01-28 20:42:02.40	54.78	9.48	-40.5	-41.9	20.0	0.00e+00	0	31	0	224395264	54	6327
2026-01-28 20:42:03.41	54.64	9.53	-39.9	-41.2	20.6	0.00e+00	4	31	0	225443840	54	5840
2026-01-28 20:42:04.42	54.50	9.58	-39.9	-41.1	20.6	0.00e+00	79	31	0	227540992	54	5799
2026-01-28 20:42:05.43	54.36	9.64	-40.0	-41.3	20.5	0.00e+00	0	31	0	229638144	54	5928
2026-01-28 20:42:06.43	54.22	9.69	-39.9	-41.2	20.5	0.00e+00	81	31	0	231735296	54	5869
2026-01-28 20:42:07.44	54.08	9.74	-40.2	-41.5	20.3	0.00e+00	0	31	0	233832448	54	6054
2026-01-28 20:42:08.45	53.94	9.80	-40.4	-41.8	20.1	0.00e+00	72	31	0	234881024	54	6253
2026-01-28 20:42:09.46	53.80	9.85	-40.4	-41.8	20.2	0.00e+00	0	31	0	236978176	54	6250
2026-01-28 20:42:10.47	53.66	9.90	-40.6	-42.0	19.9	0.00e+00	92	31	0	239075328	54	6413
2026-01-28 20:42:11.48	53.51	9.96	-40.5	-41.9	20.0	0.00e+00	60	31	0	241172480	54	6330
2026-01-28 20:42:12.49	53.37	10.01	-40.7	-42.1	19.7	0.00e+00	0	31	0	243269632	54	6509
2026-01-28 20:42:13.50	53.23	10.06	-40.8	-42.3	19.7	0.00e+00	68	31	0	244318208	54	6659
2026-01-28 20:42:14.51	53.08	10.12	-41.0	-42.5	19.5	0.00e+00	0	31	0	246415360	54	6807
2026-01-28 20:42:15.52	52.94	10.17	-40.7	-42.2	19.6	0.00e+00	92	31	0	248512512	54	6541
2026-01-28 20:42:16.53	52.79	10.22	-40.7	-42.1	19.8	0.00e+00	0	31	0	250609664	54	6504
2026-01-28 20:42:17.54	52.64	10.28	-40.8	-42.3	19.7	0.00e+00	92	31	0	252706816	54	6624
2026-01-28 20:42:18.55	52.50	10.33	-40.7	-42.1	19.9	0.00e+00	76	31	0	253755392	54	6502
2026-01-28 20:42:19.56	52.35	10.38	-40.5	-41.9	19.9	0.00e+00	0	31	0	255852544	54	6355
2026-01-28 20:42:20.56	52.20	10.43	-40.6	-42.0	19.9	0.00e+00	92	31	0	257949696	54	6458
2026-01-28 20:42:21.57	52.05	10.49	-40.5	-41.9	20.0	0.00e+00	0	31	0	260046848	54	6389
2026-01-28 20:42:22.58	51.91	10.54	-40.3	-41.7	20.1	0.00e+00	92	31	0	262144000	54	6224
2026-01-28 20:42:23.59	51.76	10.59	-40.0	-41.3	20.6	0.00e+00	0	31	0	263192576	54	5918
2026-01-28 20:42:24.60	51.61	10.64	-39.7	-40.9	20.9	0.00e+00	92	31	0	265289728	52	6385
2026-01-28 20:42:25.61	51.46	10.70	-39.8	-41.0	20.9	0.00e+00	49	31	0	267386880	52	6434
2026-01-28 20:42:26.62	51.30	10.75	-39.8	-41.0	20.8	0.00e+00	0	31	0	269484032	52	6441
2026-01-28 20:42:27.63	51.15	10.80	-39.8	-41.0	20.8	0.00e+00	62	31	0	271581184	52	6432
2026-01-28 20:42:28.64	51.00	10.85	-39.8	-41.1	20.9	0.00e+00	0	31	0	273678336	52	6467
2026-01-28 20:42:29.65	50.85	10.90	-39.6	-40.7	21.0	0.00e+00	76	31	0	274726912	52	6245
2026-01-28 20:42:30.66	50.69	10.96	-39.4	-40.5	21.3	0.00e+00	0	31	0	276824064	52	6092
2026-01-28 20:42:31.67	50.54	11.01	-39.0	-40.1	21.7	0.00e+00	92	31	0	278921216	52	5774
2026-01-28 20:42:32.67	50.39	11.06	-38.9	-40.0	21.7	0.00e+00	0	31	0	281018368	52	5733
2026-01-28 20:42:33.69	50.23	11.11	-39.1	-40.2	21.6	0.00e+00	0	31	0	283115520	52	5871
2026-01-28 20:42:34.69	50.08	11.16	-39.2	-40.3	21.5	0.00e+00	92	31	0	284164096	52	5947
2026-01-28 20:42:35.70	49.92	11.21	-39.4	-40.6	21.2	0.00e+00	0	31	0	286261248	52	6114
2026-01-28 20:42:36.71	49.76	11.26	-39.2	-40.3	21.4	0.00e+00	82	31	0	288358400	52	5958
2026-01-28 20:42:37.72	49.61	11.32	-39.2	-40.4	21.6	0.00e+00	0	31	0	290455552	52	5998
2026-01-28 20:42:38.73	49.45	11.37	-38.6	-39.7	22.0	0.00e+00	90	31	0	292552704	50	6216
2026-01-28 20:42:39.74	49.29	11.42	-38.5	-39.5	22.0	0.00e+00	0	31	0	293601280	50	6056
2026-01-28 20:42:40.75	49.13	11.47	-38.5	-39.5	22.0	0.00e+00	0	31	0	295698432	50	6060
2026-01-28 20:42:41.75	48.97	11.52	-38.6	-39.6	22.1	0.00e+00	92	31	0	297795584	50	6134
2026-01-28 20:42:42.77	48.81	11.57	-38.5	-39.5	22.2	0.00e+00	0	31	0	299892736	50	6089
2026-01-28 20:42:43.78	48.65	11.62	-38.5	-39.5	22.1	0.00e+00	25	31	0	301989888	50	6101
2026-01-28 20:42:44.79	48.49	11.67	-38.3	-39.3	22.4	0.00e+00	0	31	0	303038464	50	5952
2026-01-28 20:42:45.79	48.33	11.72	-38.4	-39.4	22.2	0.00e+00	80	31	0	305135616	50	5985
2026-01-28 20:42:46.80	48.17	11.77	-38.2	-39.2	22.5	0.00e+00	0	31	0	307232768	50	5863
2026-01-28 20:42:47.81	48.00	11.82	-38.5	-39.5	22.1	0.00e+00	65	31	0	309329920	50	6094
2026-01-28 20:42:48.82	47.84	11.87	-38.7	-39.8	21.9	0.00e+00	0	31	0	311427072	50	6283
2026-01-28 20:42:49.83	47.68	11.92	-38.9	-40.0	21.8	0.00e+00	0	31	0	312475648	50	6457
2026-01-28 20:42:50.84	47.51	11.97	-38.7	-39.8	21.8	0.00e+00	10	31	0	314572800	50	6308
2026-01-28 20:42:51.84	47.35	12.02	-38.8	-39.9	22.0	0.00e+00	0	31	0	316669952	50	6366
2026-01-28 20:42:52.85	47.18	12.07	-38.4	-39.4	22.3	0.00e+00	80	31	0	318767104	50	6019
2026-01-28 20:42:53.86	47.02	12.12	-38.1	-39.1	22.5	0.00e+00	0	31	0	320864256	50	5822
2026-01-28 20:42:54.87	46.85	12.17	-38.3	-39.3	22.2	0.00e+00	92	31	0	321912832	50	5960
2026-01-28 20:42:55.88	46.68	12.22	-38.5	-39.6	22.1	0.00e+00	0	31	0	324009984	50	6124
2026-01-28 20:42:56.89	46.51	12.26	-38.5	-39.6	22.1	0.00e+00	0	31	0	326107136	50	6109
2026-01-28 20:42:57.90	46.35	12.31	-38.5	-39.5	22.1	0.00e+00	86	31	0	328204288	50	6056
2026-01-28 20:42:58.91	46.18	12.36	-38.4	-39.4	22.3	0.00e+00	0	31	0	330301440	50	5967
2026-01-28 20:42:59.92	46.01	12.41	-38.3	-39.3	22.3	0.00e+00	73	31	0	331350016	50	5925
2026-01-28 20:43:00.93	45.84	12.46	-38.3	-39.3	22.4	0.00e+00	0	31	0	333447168	50	5898
2026-01-28 20:43:01.94	45.67	12.51	-38.2	-39.2	22.5	0.00e+00	91	31	0	335544320	50	5834
2026-01-28 20:43:02.95	45.49	12.55	-37.9	-38.9	22.6	0.00e+00	0	31	0	337641472	50	5663
2026-01-28 20:43:03.96	45.32	12.60	-38.3	-39.3	22.4	0.00e+00	0	31	0	339738624	50	5944
2026-01-28 20:43:04.97	45.15	12.65	-38.4	-39.4	22.3	0.00e+00	86	31	0	340787200	50	6005
2026-01-28 20:43:05.98	44.98	12.70	-38.4	-39.4	22.3	0.00e+00	0	31	0	342884352	50	5995
2026-01-28 20:43:06.99	44.80	12.74	-38.5	-39.6	22.1	0.00e+00	80	31	0	344981504	50	6147
2026-01-28 20:43:08.00	44.63	12.79	-38.4	-39.5	22.1	0.00e+00	0	31	0	347078656	50	6076
2026-01-28 20:43:09.01	44.45	12.84	-38.7	-39.8	22.0	0.00e+00	90	31	0	349175808	50	6273
2026-01-28 20:43:10.02	44.28	12.88	-38.4	-39.5	22.3	0.00e+00	0	31	0	350224384	50	6051
2026-01-28 20:43:11.03	44.10	12.93	-38.2	-39.3	22.5	0.00e+00	0	31	0	352321536	50	5920
2026-01-28 20:43:12.03	43.93	12.98	-38.1	-39.1	22.6	0.00e+00	81	31	0	354418688	50	5817
2026-01-28 20:43:13.04	43.75	13.02	-37.7	-38.7	22.8	0.00e+00	0	31	0	356515840	48	6228
2026-01-28 20:43:14.05	43.57	13.07	-37.6	-38.5	22.9	0.00e+00	82	31	0	358612992	48	6087
2026-01-28 20:43:15.06	43.40	13.11	-37.5	-38.4	23.2	0.00e+00	0	31	0	359661568	48	6028
2026-01-28 20:43:16.07	43.22	13.16	-37.3	-38.2	23.3	0.00e+00	90	31	0	361758720	48	5884
2026-01-28 20:43:17.08	43.04	13.21	-37.3	-38.2	23.3	0.00e+00	0	31	0	363855872	48	5842
2026-01-28 20:43:18.09	42.86	13.25	-37.1	-38.0	23.4	0.00e+00	6	31	0	365953024	48	5728
2026-01-28 20:43:19.10	42.68	13.30	-37.2	-38.1	23.3	0.00e+00	31	31	0	368050176	48	5823
2026-01-28 20:43:20.11	42.50	13.34	-37.2	-38.1	23.3	0.00e+00	0	31	0	370147328	48	5783
2026-01-28 20:43:21.12	42.32	13.39	-37.2	-38.2	23.3	0.00e+00	59	31	0	371195904	48	5844
2026-01-28 20:43:22.13	42.13	13.43	-37.3	-38.2	23.3	0.00e+00	0	31	0	373293056	48	5863
2026-01-28 20:43:23.14	41.95	13.47	-37.4	-38.4	23.1	0.00e+00	92	31	0	375390208	48	5987
2026-01-28 20:43:24.15	41.77	13.52	-37.9	-38.9	22.7	0.00e+00	0	31	0	377487360	48	6324
2026-01-28 20:43:25.16	41.58	13.56	-38.0	-39.0	22.5	0.00e+00	72	31	0	379584512	48	6432
2026-01-28 20:43:26.16	41.40	13.61	-38.0	-39.0	22.6	0.00e+00	37	31	0	380633088	48	6431
2026-01-28 20:43:27.17	41.22	13.65	-38.2	-39.2	22.5	0.00e+00	0	31	0	382730240	48	6589
2026-01-28 20:43:28.18	41.03	13.69	-38.4	-39.5	22.4	0.00e+00	48	31	0	384827392	48	6801
2026-01-28 20:43:29.19	40.85	13.73	-38.3	-39.3	22.1	0.00e+00	0	31	0	386924544	48	6683
2026-01-28 20:43:30.20	40.66	13.78	-38.1	-39.1	22.5	0.00e+00	92	31	0	389021696	48	6521
2026-01-28 20:43:31.21	40.47	13.82	-38.0	-39.0	22.6	0.00e+00	0	31	0	390070272	48	6454
2026-01-28 20:43:32.22	40.29	13.86	-38.2	-39.2	22.5	0.00e+00	90	31	0	392167424	48	6576
2026-01-28 20:43:33.23	40.10	13.90	-38.2	-39.2	22.5	0.00e+00	57	31	0	394264576	48	6551
2026-01-28 20:43:34.24	39.91	13.95	-38.1	-39.2	22.5	0.00e+00	0	31	0	396361728	48	6546
2026-01-28 20:43:35.25	39.72	13.99	-38.3	-39.4	22.4	0.00e+00	89	31	0	398458880	48	6702
2026-01-28 20:43:36.26	39.53	14.03	-38.5	-39.6	22.2	0.00e+00	0	31	0	399507456	48	6888
2026-01-28 20:43:37.27	39.34	14.07	-38.8	-39.9	21.9	0.00e+00	78	31	0	401604608	50	6369
2026-01-28 20:43:38.28	39.15	14.11	-38.6	-39.7	22.1	0.00e+00	0	31	0	403701760	50	6207
2026-01-28 20:43:39.29	38.96	14.15	-38.5	-39.6	22.2	0.00e+00	92	31	0	405798912	50	6154
2026-01-28 20:43:40.30	38.77	14.19	-38.4	-39.4	22.3	0.00e+00	0	31	0	407896064	50	6004
2026-01-28 20:43:41.31	38.57	14.23	-38.1	-39.1	22.6	0.00e+00	0	31	0	408944640	50	5771
2026-01-28 20:43:42.31	38.38	14.27	-38.0	-39.0	22.7	0.00e+00	86	31	0	411041792	50	5735
2026-01-28 20:43:43.32	38.19	14.31	-37.9	-38.9	22.7	0.00e+00	0	31	0	413138944	50	5634
2026-01-28 20:43:44.33	38.00	14.35	-38.0	-39.0	22.7	0.00e+00	86	31	0	415236096	50	5698
2026-01-28 20:43:45.34	37.80	14.39	-37.8	-38.7	22.9	0.00e+00	0	31	0	417333248	50	5563
2026-01-28 20:43:46.35	37.61	14.43	-37.6	-38.6	22.8	0.00e+00	82	31	0	418381824	48	6114
2026-01-28 20:43:47.36	37.41	14.47	-37.5	-38.4	23.0	0.00e+00	0	31	0	420478976	48	6029
2026-01-28 20:43:48.37	37.22	14.50	-37.7	-38.6	23.0	0.00e+00	0	31	0	422576128	48	6172
2026-01-28 20:43:49.38	37.02	14.54	-37.9	-38.9	22.8	0.00e+00	92	31	0	424673280	48	6347
2026-01-28 20:43:50.39	36.82	14.58	-37.8	-38.7	22.9	0.00e+00	0	31	0	426770432	48	6235
2026-01-28 20:43:51.40	36.63	14.62	-37.8	-38.8	22.7	0.00e+00	0	31	0	427819008	48	6255
2026-01-28 20:43:52.41	36.43	14.65	-37.9	-38.9	22.7	0.00e+00	0	31	0	429916160	48	6321
2026-01-28 20:43:53.42	36.23	14.69	-37.7	-38.7	22.9	0.00e+00	80	31	0	432013312	48	6197
2026-01-28 20:43:54.43	36.03	14.73	-37.4	-38.4	23.2	0.00e+00	0	31	0	434110464	48	5975
2026-01-28 20:43:55.44	35.83	14.76	-37.7	-38.6	22.9	0.00e+00	0	31	0	436207616	48	6143
2026-01-28 20:43:56.45	35.63	14.80	-37.9	-38.9	22.6	0.00e+00	83	31	0	438304768	48	6359
2026-01-28 20:43:57.45	35.43	14.83	-37.9	-38.9	22.7	0.00e+00	0	31	0	439353344	48	6368
2026-01-28 20:43:58.46	35.23	14.87	-38.0	-39.0	22.7	0.00e+00	0	31	0	441450496	48	6399
2026-01-28 20:43:59.48	35.03	14.91	-38.0	-39.0	22.6	0.00e+00	0	31	0	443547648	48	6419
2026-01-28 20:44:00.49	34.83	14.94	-37.9	-38.9	22.7	0.00e+00	77	31	0	445644800	48	6359
2026-01-28 20:44:01.49	34.63	14.97	-37.7	-38.7	22.9	0.00e+00	0	31	0	447741952	48	6232
2026-01-28 20:44:02.50	34.42	15.01	-37.7	-38.7	22.9	0.00e+00	78	31	0	448790528	48	6201
2026-01-28 20:44:03.51	34.22	15.04	-37.4	-38.4	23.1	0.00e+00	78	31	0	450887680	48	5979
2026-01-28 20:44:04.52	34.02	15.08	-37.2	-38.2	23.3	0.00e+00	0	31	0	452984832	48	5833
2026-01-28 20:44:05.52	33.82	15.11	-37.0	-37.9	23.5	0.00e+00	92	31	0	455081984	48	5679
2026-01-28 20:44:06.53	33.61	15.14	-36.9	-37.7	23.7	0.00e+00	0	31	0	457179136	48	5542
2026-01-28 20:44:07.54	33.41	15.17	-36.9	-37.8	23.5	0.00e+00	80	31	0	458227712	48	5589
2026-01-28 20:44:08.55	33.20	15.21	-37.2	-38.1	23.2	0.00e+00	0	31	0	460324864	48	5778
2026-01-28 20:44:09.56	33.00	15.24	-37.1	-38.0	23.1	0.00e+00	59	31	0	462422016	48	5751
2026-01-28 20:44:10.57	32.79	15.27	-37.1	-38.0	23.4	0.00e+00	0	31	0	464519168	48	5723
2026-01-28 20:44:11.58	32.58	15.30	-37.2	-38.1	23.3	0.00e+00	0	31	0	466616320	48	5796
2026-01-28 20:44:12.59	32.37	15.33	-37.2	-38.1	23.4	0.00e+00	65	31	0	467664896	48	5791
2026-01-28 20:44:13.59	32.17	15.36	-37.3	-38.2	23.3	0.00e+00	0	31	0	469762048	48	5874
2026-01-28 20:44:14.60	31.96	15.39	-37.6	-38.5	23.1	0.00e+00	69	31	0	471859200	48	6100
2026-01-28 20:44:15.61	31.75	15.42	-37.4	-38.3	23.2	0.00e+00	0	31	0	473956352	48	5916
2026-01-28 20:44:16.62	31.54	15.45	-37.6	-38.6	23.0	0.00e+00	69	31	0	476053504	48	6121
2026-01-28 20:44:17.63	31.33	15.48	-37.6	-38.5	23.0	0.00e+00	0	31	0	477102080	48	6085
2026-01-28 20:44:18.64	31.12	15.51	-37.7	-38.6	23.1	0.00e+00	0	31	0	479199232	48	6162
2026-01-28 20:44:19.64	30.92	15.54	-37.6	-38.5	23.0	0.00e+00	78	31	0	481296384	48	6057
2026-01-28 20:44:20.65	30.71	15.56	-37.6	-38.5	23.0	0.00e+00	0	31	0	483393536	48	6100
2026-01-28 20:44:21.66	30.50	15.59	-37.7	-38.6	22.9	0.00e+00	78	31	0	485490688	48	6143
2026-01-28 20:44:22.68	30.28	15.62	-38.0	-39.0	22.8	0.00e+00	0	31	0	486539264	48	6426
2026-01-28 20:44:23.69	30.07	15.65	-38.3	-39.3	22.4	0.00e+00	87	31	0	488636416	48	6666
2026-01-28 20:44:24.69	29.86	15.67	-38.3	-39.3	22.4	0.00e+00	0	31	0	490733568	48	6682
2026-01-28 20:44:25.70	29.65	15.70	-38.1	-39.1	22.6	0.00e+00	0	31	0	492830720	48	6505
2026-01-28 20:44:26.71	29.44	15.72	-37.9	-38.9	22.8	0.00e+00	85	31	0	494927872	48	6379
2026-01-28 20:44:27.72	29.22	15.75	-37.9	-38.8	22.8	0.00e+00	0	31	0	495976448	48	6306
2026-01-28 20:44:28.73	29.01	15.78	-38.0	-39.0	22.7	0.00e+00	25	31	0	498073600	48	6459
2026-01-28 20:44:29.74	28.79	15.80	-38.0	-39.0	22.7	0.00e+00	0	31	0	500170752	48	6445
2026-01-28 20:44:30.75	28.58	15.82	-38.3	-39.3	22.4	0.00e+00	79	31	0	502267904	48	6642
2026-01-28 20:44:31.76	28.37	15.85	-38.1	-39.1	22.6	0.00e+00	0	31	0	504365056	48	6535
2026-01-28 20:44:32.77	28.15	15.87	-38.1	-39.1	22.5	0.00e+00	25	31	0	505413632	48	6532
2026-01-28 20:44:33.78	27.94	15.90	-38.1	-39.1	22.6	0.00e+00	81	31	0	507510784	48	6476
2026-01-28 20:44:34.79	27.72	15.92	-38.1	-39.1	22.7	0.00e+00	0	31	0	509607936	48	6513
2026-01-28 20:44:35.80	27.50	15.94	-38.2	-39.2	22.6	0.00e+00	83	31	0	511705088	48	6588
2026-01-28 20:44:36.80	27.29	15.96	-37.9	-38.9	22.7	0.00e+00	0	31	0	513802240	48	6363
2026-01-28 20:44:37.82	27.07	15.98	-38.1	-39.1	22.6	0.00e+00	5	31	0	514850816	48	6511
2026-01-28 20:44:38.83	26.85	16.01	-38.1	-39.0	22.8	0.00e+00	0	31	0	516947968	48	6461
2026-01-28 20:44:39.84	26.64	16.03	-38.1	-39.1	22.6	0.00e+00	0	31	0	519045120	48	6526
2026-01-28 20:44:40.85	26.42	16.05	-37.7	-38.7	23.0	0.00e+00	0	31	0	521142272	48	6201
2026-01-28 20:44:41.85	26.20	16.07	-37.6	-38.6	23.1	0.00e+00	0	31	0	523239424	48	6120
2026-01-28 20:44:42.86	25.99	16.09	-37.5	-38.4	23.2	0.00e+00	80	31	0	524288000	48	5977
2026-01-28 20:44:43.87	25.77	16.10	-37.4	-38.3	23.3	0.00e+00	0	31	0	526385152	48	5927
2026-01-28 20:44:44.88	25.55	16.12	-37.5	-38.4	23.2	0.00e+00	0	31	0	528482304	48	5983
2026-01-28 20:44:45.89	25.33	16.14	-37.6	-38.5	23.0	0.00e+00	0	31	0	530579456	48	6089
2026-01-28 20:44:46.90	25.11	16.16	-37.8	-38.7	23.0	0.00e+00	0	31	0	532676608	48	6213
2026-01-28 20:44:47.91	24.89	16.18	-37.6	-38.5	23.0	0.00e+00	65	31	0	534773760	48	6072
2026-01-28 20:44:48.92	24.67	16.19	-37.7	-38.6	23.0	0.00e+00	0	31	0	535822336	48	6168
2026-01-28 20:44:49.92	24.45	16.21	-37.7	-38.6	23.0	0.00e+00	12	31	0	537919488	48	6163
2026-01-28 20:44:50.93	24.23	16.23	-37.8	-38.7	23.0	0.00e+00	0	31	0	540016640	48	6210
2026-01-28 20:44:51.94	24.01	16.24	-37.9	-38.9	22.8	0.00e+00	90	31	0	542113792	48	6342
2026-01-28 20:44:52.95	23.79	16.26	-38.0	-39.0	22.7	0.00e+00	0	31	0	544210944	48	6411
2026-01-28 20:44:53.96	23.57	16.27	-38.1	-39.1	22.7	0.00e+00	0	31	0	545259520	48	6478
2026-01-28 20:44:54.97	23.35	16.29	-38.2	-39.2	22.6	0.00e+00	0	31	0	547356672	48	6551
2026-01-28 20:44:55.98	23.13	16.30	-38.4	-39.4	22.3	0.00e+00	0	31	0	549453824	48	6745
2026-01-28 20:44:56.99	22.91	16.32	-38.3	-39.4	22.5	0.00e+00	79	31	0	551550976	48	6696
2026-01-28 20:44:58.00	22.69	16.33	-38.5	-39.6	22.2	0.00e+00	0	31	0	553648128	48	6868
2026-01-28 20:44:59.01	22.47	16.34	-38.7	-39.8	22.1	0.00e+00	82	31	0	554696704	48	7049
2026-01-28 20:45:00.02	22.24	16.36	-38.6	-39.6	22.2	0.00e+00	0	31	0	556793856	48	6916
2026-01-28 20:45:01.03	22.02	16.37	-38.5	-39.5	22.3	0.00e+00	0	31	0	558891008	48	6839
2026-01-28 20:45:02.03	21.80	16.38	-38.6	-39.7	22.2	0.00e+00	0	31	0	560988160	50	6174
2026-01-28 20:45:03.04	21.58	16.39	-38.6	-39.7	22.2	0.00e+00	0	31	0	563085312	50	6186
2026-01-28 20:45:04.05	21.36	16.40	-38.7	-39.7	22.2	0.00e+00	5	31	0	564133888	50	6242
2026-01-28 20:45:05.06	21.13	16.41	-38.3	-39.3	22.5	0.00e+00	0	31	0	566231040	50	5915
2026-01-28 20:45:06.06	20.91	16.42	-38.2	-39.2	22.6	0.00e+00	47	31	0	568328192	50	5873
2026-01-28 20:45:07.07	20.69	16.43	-38.1	-39.1	22.6	0.00e+00	0	31	0	570425344	50	5780
2026-01-28 20:45:08.08	20.47	16.44	-38.3	-39.3	22.5	0.00e+00	0	31	0	572522496	50	5938
2026-01-28 20:45:09.09	20.24	16.45	-38.6	-39.6	22.2	0.00e+00	0	31	0	573571072	50	6149
2026-01-28 20:45:10.10	20.02	16.46	-38.4	-39.4	22.5	0.00e+00	0	31	0	575668224	50	5996
2026-01-28 20:45:11.11	19.79	16.46	-38.3	-39.3	22.5	0.00e+00	0	31	0	577765376	50	5932
2026-01-28 20:45:12.12	19.57	16.47	-38.4	-39.5	22.4	0.00e+00	0	31	0	579862528	50	6045
2026-01-28 20:45:13.13	19.35	16.48	-38.3	-39.3	22.6	0.00e+00	62	31	0	581959680	50	5948
2026-01-28 20:45:14.14	19.12	16.48	-37.9	-38.9	22.9	0.00e+00	0	31	0	583008256	50	5663
2026-01-28 20:45:15.15	18.90	16.49	-37.8	-38.8	23.0	0.00e+00	0	31	0	585105408	48	6254
2026-01-28 20:45:16.16	18.67	16.50	-37.6	-38.6	23.1	0.00e+00	0	31	0	587202560	48	6130
2026-01-28 20:45:17.17	18.45	16.50	-37.6	-38.5	23.1	0.00e+00	0	31	0	589299712	48	6060
2026-01-28 20:45:18.18	18.23	16.50	-37.8	-38.7	23.0	0.00e+00	84	31	0	591396864	48	6209
2026-01-28 20:45:19.19	18.00	16.51	-37.8	-38.8	22.9	0.00e+00	0	31	0	592445440	48	6276
2026-01-28 20:45:20.20	17.78	16.51	-38.0	-39.0	22.7	0.00e+00	92	31	0	594542592	48	6423
2026-01-28 20:45:21.21	17.55	16.52	-38.2	-39.2	22.6	0.00e+00	0	31	0	596639744	48	6551
2026-01-28 20:45:22.22	17.33	16.52	-38.5	-39.6	22.5	0.00e+00	91	31	0	598736896	48	6851
2026-01-28 20:45:23.23	17.10	16.52	-38.4	-39.5	22.4	0.00e+00	0	31	0	600834048	48	6784
2026-01-28 20:45:24.24	16.88	16.52	-38.6	-39.7	22.2	0.00e+00	0	31	0	602931200	48	6939
2026-01-28 20:45:25.25	16.65	16.52	-38.4	-39.4	22.4	0.00e+00	31	31	0	603979776	48	6758
2026-01-28 20:45:26.25	16.43	16.52	-38.3	-39.3	22.6	0.00e+00	0	31	0	606076928	48	6655
2026-01-28 20:45:27.26	16.21	16.53	-38.3	-39.3	22.6	0.00e+00	81	31	0	608174080	48	6632
2026-01-28 20:45:28.27	15.98	16.53	-37.9	-38.8	22.9	0.00e+00	0	31	0	610271232	48	6317
2026-01-28 20:45:29.28	15.76	16.53	-37.8	-38.7	23.2	0.00e+00	78	31	0	612368384	48	6220
2026-01-28 20:45:30.29	15.53	16.52	-37.4	-38.3	23.3	0.00e+00	0	31	0	613416960	48	5913
2026-01-28 20:45:31.30	15.31	16.52	-37.4	-38.3	23.3	0.00e+00	0	31	0	615514112	48	5933
2026-01-28 20:45:32.31	15.08	16.52	-37.4	-38.4	23.3	0.00e+00	0	31	0	617611264	48	5969
2026-01-28 20:45:33.32	14.86	16.52	-37.7	-38.6	23.0	0.00e+00	0	31	0	619708416	48	6168
2026-01-28 20:45:34.33	14.63	16.52	-37.8	-38.8	22.9	0.00e+00	83	31	0	621805568	48	6264
2026-01-28 20:45:35.34	14.41	16.51	-38.0	-38.9	22.8	0.00e+00	0	31	0	622854144	48	6377
2026-01-28 20:45:36.35	14.19	16.51	-38.1	-39.1	22.6	0.00e+00	82	31	0	624951296	48	6501
2026-01-28 20:45:37.36	13.96	16.51	-38.3	-39.3	22.4	0.00e+00	0	31	0	627048448	48	6641
2026-01-28 20:45:38.37	13.74	16.50	-38.6	-39.7	22.4	0.00e+00	0	31	0	629145600	48	6934
2026-01-28 20:45:39.38	13.51	16.50	-38.8	-39.8	22.2	0.00e+00	0	31	0	631242752	48	7067
2026-01-28 20:45:40.39	13.29	16.49	-38.8	-39.9	22.1	0.00e+00	0	31	0	632291328	50	6356
2026-01-28 20:45:41.40	13.06	16.49	-38.9	-40.0	22.0	0.00e+00	0	31	0	634388480	50	6430
2026-01-28 20:45:42.40	12.84	16.48	-39.1	-40.2	21.6	0.00e+00	0	31	0	636485632	50	6587
2026-01-28 20:45:43.41	12.62	16.47	-39.0	-40.2	21.9	0.00e+00	84	31	0	638582784	50	6552
2026-01-28 20:45:44.42	12.39	16.47	-39.1	-40.3	21.8	0.00e+00	0	31	0	640679936	50	6637
2026-01-28 20:45:45.43	12.17	16.46	-38.7	-39.8	22.1	0.00e+00	0	31	0	641728512	50	6292
2026-01-28 20:45:46.43	11.95	16.45	-38.6	-39.7	22.2	0.00e+00	0	31	0	643825664	50	6179
2026-01-28 20:45:47.44	11.73	16.44	-38.3	-39.3	22.5	0.00e+00	0	31	0	645922816	50	5944
2026-01-28 20:45:48.45	11.50	16.43	-38.2	-39.2	22.5	0.00e+00	0	31	0	648019968	50	5875
2026-01-28 20:45:49.46	11.28	16.42	-38.1	-39.1	22.7	0.00e+00	0	31	0	650117120	50	5825
2026-01-28 20:45:50.47	11.06	16.41	-38.2	-39.2	22.6	0.00e+00	92	31	0	651165696	50	5878
2026-01-28 20:45:51.48	10.83	16.40	-38.2	-39.2	22.7	0.00e+00	0	31	0	653262848	50	5880
2026-01-28 20:45:52.49	10.61	16.39	-38.1	-39.1	22.7	0.00e+00	29	31	0	655360000	50	5797
2026-01-28 20:45:53.50	10.39	16.38	-38.0	-39.0	22.8	0.00e+00	0	31	0	657457152	50	5721
2026-01-28 20:45:54.51	10.17	16.37	-37.9	-38.8	22.8	0.00e+00	0	31	0	659554304	50	5623
2026-01-28 20:45:55.52	9.94	16.36	-38.2	-39.2	22.7	0.00e+00	0	31	0	660602880	50	5852
2026-01-28 20:45:56.53	9.72	16.35	-38.3	-39.4	22.5	0.00e+00	0	31	0	662700032	50	5988
2026-01-28 20:45:57.54	9.50	16.33	-38.5	-39.5	22.4	0.00e+00	80	31	0	664797184	50	6076
2026-01-28 20:45:58.55	9.28	16.32	-38.4	-39.5	22.5	0.00e+00	0	31	0	666894336	50	6048
2026-01-28 20:45:59.56	9.06	16.31	-38.4	-39.4	22.5	0.00e+00	78	31	0	668991488	50	6029
2026-01-28 20:46:00.57	8.84	16.29	-37.9	-38.9	22.9	0.00e+00	0	31	0	670040064	50	5642
2026-01-28 20:46:01.58	8.61	16.28	-37.7	-38.6	23.1	0.00e+00	0	31	0	672137216	48	6151
2026-01-28 20:46:02.59	8.39	16.26	-37.3	-38.2	23.5	0.00e+00	17	31	0	674234368	48	5851
2026-01-28 20:46:03.60	8.17	16.25	-37.1	-38.0	23.5	0.00e+00	0	31	0	676331520	48	5723
2026-01-28 20:46:04.61	7.95	16.23	-37.0	-37.9	23.6	0.00e+00	0	31	0	678428672	48	5684
2026-01-28 20:46:05.62	7.73	16.22	-37.1	-38.0	23.5	0.00e+00	0	31	0	679477248	48	5755
2026-01-28 20:46:06.63	7.51	16.20	-37.1	-38.1	23.5	0.00e+00	75	31	0	681574400	48	5762
2026-01-28 20:46:07.64	7.29	16.18	-37.1	-38.1	23.6	0.00e+00	0	31	0	683671552	48	5782
2026-01-28 20:46:08.65	7.07	16.17	-37.3	-38.2	23.2	0.00e+00	0	31	0	685768704	48	5871
2026-01-28 20:46:09.66	6.86	16.15	-37.3	-38.2	23.4	0.00e+00	0	31	0	687865856	48	5851
2026-01-28 20:46:10.67	6.64	16.13	-37.2	-38.1	23.5	0.00e+00	0	31	0	688914432	48	5803
2026-01-28 20:46:11.68	6.42	16.11	-37.5	-38.5	23.3	0.00e+00	82	31	0	691011584	48	6059
2026-01-28 20:46:12.69	6.20	16.09	-37.6	-38.5	23.1	0.00e+00	0	31	0	693108736	48	6071
2026-01-28 20:46:13.70	5.98	16.07	-37.5	-38.5	23.2	0.00e+00	52	31	0	695205888	48	6049
2026-01-28 20:46:14.71	5.76	16.05	-37.6	-38.6	23.1	0.00e+00	0	31	0	697303040	48	6116
2026-01-28 20:46:15.72	5.55	16.03	-37.7	-38.7	23.0	0.00e+00	0	31	0	698351616	48	6208
2026-01-28 20:46:16.73	5.33	16.01	-37.7	-38.6	23.1	0.00e+00	0	31	0	700448768	48	6172
2026-01-28 20:46:17.74	5.11	15.99	-37.8	-38.8	22.6	0.00e+00	0	31	0	702545920	48	6249
2026-01-28 20:46:18.75	4.90	15.97	-37.8	-38.8	23.0	0.00e+00	78	31	0	704643072	48	6252
2026-01-28 20:46:19.76	4.68	15.95	-37.9	-38.9	22.9	0.00e+00	0	31	0	706740224	48	6341
2026-01-28 20:46:20.77	4.46	15.92	-38.0	-39.1	22.7	0.00e+00	51	31	0	708837376	48	6482
2026-01-28 20:46:21.78	4.25	15.90	-37.8	-38.8	23.0	0.00e+00	0	31	0	709885952	48	6303
2026-01-28 20:46:22.79	4.03	15.88	-37.8	-38.8	22.9	0.00e+00	0	31	0	711983104	48	6272
2026-01-28 20:46:23.80	3.82	15.86	-37.6	-38.6	23.1	0.00e+00	0	31	0	714080256	48	6108
2026-01-28 20:46:24.81	3.60	15.83	-37.4	-38.3	23.2	0.00e+00	0	31	0	716177408	48	5961
2026-01-28 20:46:25.82	3.39	15.81	-37.6	-38.6	23.2	0.00e+00	75	31	0	718274560	48	6111
2026-01-28 20:46:26.83	3.18	15.78	-37.7	-38.6	23.1	0.00e+00	0	31	0	719323136	48	6162
2026-01-28 20:46:27.84	2.96	15.76	-37.5	-38.4	23.3	0.00e+00	78	31	0	721420288	48	5967
2026-01-28 20:46:28.85	2.75	15.73	-37.4	-38.3	23.1	0.00e+00	0	31	0	723517440	48	5942
2026-01-28 20:46:29.86	2.54	15.71	-37.4	-38.2	23.1	0.00e+00	80	31	0	725614592	48	5895
2026-01-28 20:46:30.86	2.33	15.68	-37.2	-38.1	23.5	0.00e+00	0	31	0	727711744	48	5763
2026-01-28 20:46:31.87	2.11	15.65	-37.4	-38.2	23.5	0.00e+00	0	31	0	728760320	48	5894
2026-01-28 20:46:32.88	1.90	15.63	-37.1	-38.0	23.6	0.00e+00	73	31	0	730857472	48	5715
2026-01-28 20:46:33.89	1.69	15.60	-37.3	-38.2	23.5	0.00e+00	0	31	0	732954624	48	5855
2026-01-28 20:46:34.90	1.48	15.57	-37.4	-38.3	23.3	0.00e+00	31	31	0	735051776	48	5937
2026-01-28 20:46:35.91	1.27	15.55	-37.7	-38.6	23.1	0.00e+00	0	31	0	737148928	48	6127
2026-01-28 20:46:36.92	1.06	15.52	-37.8	-38.7	23.0	0.00e+00	84	31	0	738197504	48	6193
2026-01-28 20:46:37.93	0.85	15.49	-37.9	-38.9	22.9	0.00e+00	0	31	0	740294656	48	6332
2026-01-28 20:46:38.94	0.64	15.46	-38.2	-39.1	22.8	0.00e+00	0	31	0	742391808	48	6523
2026-01-28 20:46:39.95	0.43	15.43	-38.2	-39.2	22.6	0.00e+00	0	31	0	744488960	48	6614
2026-01-28 20:46:40.96	0.23	15.40	-38.3	-39.3	22.6	0.00e+00	0	31	0	746586112	48	6685
2026-01-28 20:46:41.97	0.02	15.37	-38.5	-39.5	22.4	0.00e+00	32	31	0	747634688	48	6804
2026-01-28 20:46:42.98	359.81	15.34	-38.7	-39.8	22.2	0.00e+00	0	31	0	749731840	48	7026
2026-01-28 20:46:43.99	359.60	15.31	-38.6	-39.6	22.3	0.00e+00	82	31	0	751828992	48	6915
2026-01-28 20:46:44.99	359.40	15.28	-38.7	-39.7	22.3	0.00e+00	0	31	0	753926144	48	6992
2026-01-28 20:46:46.00	359.19	15.25	-38.6	-39.7	22.3	0.00e+00	0	31	0	756023296	50	6178
2026-01-28 20:46:47.01	358.99	15.22	-38.6	-39.6	22.4	0.00e+00	0	31	0	757071872	50	6156
2026-01-28 20:46:48.02	358.78	15.18	-38.5	-39.6	22.4	0.00e+00	0	31	0	759169024	50	6111
2026-01-28 20:46:49.03	358.58	15.15	-38.5	-39.6	22.3	0.00e+00	17	31	0	761266176	50	6141
2026-01-28 20:46:50.04	358.37	15.12	-38.5	-39.5	22.3	0.00e+00	0	31	0	763363328	50	6067
2026-01-28 20:46:51.05	358.17	15.09	-38.4	-39.5	22.5	0.00e+00	65	31	0	765460480	50	6045
2026-01-28 20:46:52.06	357.96	15.05	-38.6	-39.6	22.4	0.00e+00	0	31	0	766509056	50	6141
2026-01-28 20:46:53.07	357.76	15.02	-38.1	-39.1	22.8	0.00e+00	0	31	0	768606208	50	5815
2026-01-28 20:46:54.08	357.56	14.99	-37.8	-38.7	23.1	0.00e+00	0	31	0	770703360	50	5540
2026-01-28 20:46:55.09	357.36	14.95	-38.0	-38.9	22.9	0.00e+00	0	31	0	772800512	50	5683
2026-01-28 20:46:56.09	357.16	14.92	-38.0	-38.9	22.9	0.00e+00	0	31	0	774897664	50	5695
2026-01-28 20:46:57.11	356.95	14.88	-38.1	-39.0	22.8	0.00e+00	0	31	0	776994816	50	5753
2026-01-28 20:46:58.11	356.76	14.85	-38.0	-38.9	23.0	0.00e+00	63	31	0	778043392	50	5660
2026-01-28 20:46:59.12	356.55	14.81	-38.1	-39.1	22.7	0.00e+00	0	31	0	780140544	50	5784
2026-01-28 20:47:00.13	356.36	14.78	-37.9	-38.8	22.9	0.00e+00	0	31	0	782237696	50	5612
2026-01-28 20:47:01.14	356.16	14.74	-37.8	-38.8	23.1	0.00e+00	0	31	0	784334848	48	6270
2026-01-28 20:47:02.15	355.96	14.70	-37.4	-38.3	23.3	0.00e+00	0	31	0	786432000	48	5944
2026-01-28 20:47:03.16	355.76	14.67	-37.3	-38.3	23.3	0.00e+00	33	31	0	787480576	48	5900
2026-01-28 20:47:04.17	355.56	14.63	-37.0	-37.8	23.6	0.00e+00	0	31	0	789577728	48	5627
2026-01-28 20:47:05.18	355.36	14.59	-36.8	-37.7	23.7	0.00e+00	92	31	0	791674880	48	5523
2026-01-28 20:47:06.19	355.17	14.55	-36.9	-37.8	23.7	0.00e+00	0	31	0	793772032	48	5623
2026-01-28 20:47:07.20	354.97	14.52	-37.2	-38.1	23.4	0.00e+00	92	31	0	795869184	48	5785
2026-01-28 20:47:08.21	354.78	14.48	-37.1	-38.0	23.1	0.00e+00	0	31	0	796917760	48	5708
2026-01-28 20:47:09.22	354.58	14.44	-37.2	-38.1	23.3	0.00e+00	32	31	0	799014912	48	5816
2026-01-28 20:47:10.23	354.39	14.40	-37.4	-38.3	23.3	0.00e+00	0	31	0	801112064	48	5909
2026-01-28 20:47:11.24	354.19	14.36	-37.6	-38.5	23.0	0.00e+00	0	31	0	803209216	48	6075
2026-01-28 20:47:12.25	354.00	14.32	-37.7	-38.7	23.0	0.00e+00	90	31	0	805306368	48	6201
2026-01-28 20:47:13.26	353.80	14.28	-37.9	-38.9	22.9	0.00e+00	0	31	0	806354944	48	6335
2026-01-28 20:47:14.27	353.61	14.24	-38.3	-39.4	22.4	0.00e+00	73	31	0	808452096	48	6717
2026-01-28 20:47:15.28	353.42	14.20	-38.5	-39.6	22.2	0.00e+00	0	31	0	810549248	48	6902
2026-01-28 20:47:16.29	353.23	14.16	-38.9	-40.1	21.9	0.00e+00	0	31	0	812646400	50	6495
2026-01-28 20:47:17.30	353.04	14.12	-39.2	-40.4	21.8	0.00e+00	0	31	0	814743552	50	6697
2026-01-28 20:47:18.31	352.85	14.08	-39.3	-40.5	21.6	0.00e+00	0	31	0	815792128	50	6819
2026-01-28 20:47:19.32	352.66	14.04	-39.2	-40.4	21.6	0.00e+00	80	31	0	817889280	50	6714
2026-01-28 20:47:20.32	352.47	14.00	-39.0	-40.2	21.9	0.00e+00	0	31	0	819986432	50	6543
2026-01-28 20:47:21.33	352.28	13.96	-39.1	-40.2	21.8	0.00e+00	82	31	0	822083584	50	6586
2026-01-28 20:47:22.34	352.09	13.92	-38.9	-40.0	21.7	0.00e+00	0	31	0	824180736	50	6402
2026-01-28 20:47:23.35	351.90	13.88	-39.3	-40.4	21.6	0.00e+00	0	31	0	825229312	50	6726
2026-01-28 20:47:24.36	351.72	13.83	-39.0	-40.0	21.9	0.00e+00	0	31	0	827326464	50	6457
2026-01-28 20:47:25.37	351.53	13.79	-39.2	-40.3	21.7	0.00e+00	0	31	0	829423616	50	6636
2026-01-28 20:47:26.38	351.34	13.75	-38.8	-39.9	22.0	0.00e+00	0	31	0	831520768	50	6360
2026-01-28 20:47:27.39	351.16	13.71	-39.0	-40.1	21.9	0.00e+00	0	31	0	833617920	50	6488
2026-01-28 20:47:28.40	350.97	13.66	-39.2	-40.3	21.7	0.00e+00	76	31	0	834666496	50	6663
2026-01-28 20:47:29.40	350.79	13.62	-39.0	-40.1	21.9	0.00e+00	0	31	0	836763648	50	6495
2026-01-28 20:47:30.42	350.60	13.58	-38.7	-39.8	22.1	0.00e+00	0	31	0	838860800	50	6252
2026-01-28 20:47:31.43	350.42	13.53	-38.9	-40.0	22.0	0.00e+00	0	31	0	840957952	50	6393
2026-01-28 20:47:32.44	350.24	13.49	-38.8	-39.8	22.1	0.00e+00	0	31	0	843055104	50	6296
2026-01-28 20:47:33.45	350.06	13.45	-38.5	-39.5	22.3	0.00e+00	65	31	0	845152256	50	6098
2026-01-28 20:47:34.46	349.87	13.40	-38.8	-39.9	22.0	0.00e+00	0	31	0	846200832	50	6347
2026-01-28 20:47:35.47	349.69	13.36	-38.8	-39.9	22.0	0.00e+00	66	31	0	848297984	50	6358
2026-01-28 20:47:36.47	349.51	13.31	-38.7	-39.8	22.1	0.00e+00	0	31	0	850395136	50	6253
2026-01-28 20:47:37.48	349.33	13.27	-38.7	-39.8	22.2	0.00e+00	0	31	0	852492288	50	6268
2026-01-28 20:47:38.49	349.15	13.22	-38.6	-39.6	22.4	0.00e+00	0	31	0	854589440	50	6164
2026-01-28 20:47:39.50	348.98	13.18	-38.3	-39.3	22.6	0.00e+00	0	31	0	855638016	50	5905
2026-01-28 20:47:40.51	348.80	13.13	-38.2	-39.1	22.7	0.00e+00	65	31	0	857735168	50	5825
2026-01-28 20:47:41.52	348.62	13.09	-38.1	-39.1	22.7	0.00e+00	0	31	0	859832320	50	5782
2026-01-28 20:47:42.53	348.44	13.04	-38.3	-39.3	22.7	0.00e+00	71	31	0	861929472	50	5923
2026-01-28 20:47:43.54	348.27	12.99	-37.9	-38.9	22.7	0.00e+00	0	31	0	864026624	50	5634
2026-01-28 20:47:44.55	348.09	12.95	-38.0	-39.0	22.8	0.00e+00	6	31	0	865075200	50	5716
2026-01-28 20:47:45.56	347.91	12.90	-38.4	-39.4	22.4	0.00e+00	0	31	0	867172352	50	6012
2026-01-28 20:47:46.57	347.74	12.85	-38.6	-39.7	22.3	0.00e+00	0	31	0	869269504	50	6179
2026-01-28 20:47:47.58	347.56	12.81	-39.2	-40.3	21.7	0.00e+00	0	31	0	871366656	50	6655
2026-01-28 20:47:48.59	347.39	12.76	-39.0	-40.2	21.8	0.00e+00	0	31	0	873463808	50	6540
2026-01-28 20:47:49.60	347.22	12.71	-39.1	-40.2	21.8	0.00e+00	71	31	0	874512384	50	6561
2026-01-28 20:47:50.61	347.04	12.67	-39.3	-40.4	21.7	0.00e+00	0	31	0	876609536	50	6748
2026-01-28 20:47:51.62	346.87	12.62	-38.8	-39.9	21.9	0.00e+00	74	31	0	878706688	50	6362
2026-01-28 20:47:52.63	346.70	12.57	-38.6	-39.7	22.2	0.00e+00	0	31	0	880803840	50	6203
2026-01-28 20:47:53.64	346.53	12.52	-38.6	-39.6	22.3	0.00e+00	0	31	0	882900992	50	6166
2026-01-28 20:47:54.64	346.36	12.48	-38.6	-39.7	22.3	0.00e+00	0	31	0	883949568	50	6208
2026-01-28 20:47:55.65	346.19	12.43	-38.4	-39.4	22.4	0.00e+00	0	31	0	886046720	50	6008
2026-01-28 20:47:56.66	346.02	12.38	-38.6	-39.7	22.1	0.00e+00	7	31	0	888143872	50	6229
2026-01-28 20:47:57.67	345.85	12.33	-38.7	-39.8	22.0	0.00e+00	0	31	0	890241024	50	6293
2026-01-28 20:47:58.68	345.68	12.28	-39.3	-40.4	21.5	0.00e+00	81	31	0	892338176	50	6767
2026-01-28 20:47:59.69	345.51	12.23	-39.7	-41.0	20.9	0.00e+00	0	31	0	893386752	52	6403
2026-01-28 20:48:00.70	345.35	12.19	-40.5	-42.0	20.2	0.00e+00	0	31	0	895483904	52	7174
2026-01-28 20:48:01.71	345.18	12.14	-41.1	-42.7	19.5	0.00e+00	0	31	0	897581056	54	6965
2026-01-28 20:48:02.72	345.01	12.09	-41.3	-43.0	19.2	0.00e+00	0	31	0	899678208	54	7184
2026-01-28 20:48:03.73	344.85	12.04	-41.6	-43.5	18.9	0.00e+00	79	31	0	901775360	54	7629
2026-01-28 20:48:04.74	344.68	11.99	-41.8	-43.7	18.7	0.00e+00	0	31	0	902823936	56	6951
2026-01-28 20:48:05.75	344.52	11.94	-41.6	-43.5	18.9	0.00e+00	80	31	0	904921088	56	6799
2026-01-28 20:48:06.76	344.36	11.89	-41.3	-43.1	19.2	0.00e+00	0	31	0	907018240	56	6502
2026-01-28 20:48:07.77	344.19	11.84	-41.4	-43.2	19.2	0.00e+00	0	31	0	909115392	56	6557
2026-01-28 20:48:08.78	344.03	11.79	-41.0	-42.7	19.6	0.00e+00	0	31	0	911212544	56	6187
2026-01-28 20:48:09.79	343.87	11.74	-40.1	-41.6	20.4	0.00e+00	0	31	0	913309696	54	6113
2026-01-28 20:48:10.80	343.71	11.69	-40.3	-41.7	20.3	0.00e+00	0	31	0	914358272	54	6219
2026-01-28 20:48:11.81	343.55	11.64	-40.4	-41.9	20.1	0.00e+00	0	31	0	916455424	54	6367
2026-01-28 20:48:12.82	343.39	11.59	-40.3	-41.8	20.2	0.00e+00	86	31	0	918552576	54	6248
2026-01-28 20:48:13.83	343.23	11.54	-40.3	-41.7	20.4	0.00e+00	0	31	0	920649728	54	6177
2026-01-28 20:48:14.84	343.07	11.49	-40.1	-41.4	20.6	0.00e+00	0	31	0	922746880	54	6032
2026-01-28 20:48:15.85	342.91	11.44	-39.5	-40.8	21.2	0.00e+00	0	31	0	923795456	52	6285
2026-01-28 20:48:16.85	342.75	11.39	-39.6	-40.8	21.2	0.00e+00	0	31	0	925892608	52	6296
2026-01-28 20:48:17.86	342.59	11.34	-39.5	-40.8	21.0	0.00e+00	0	31	0	927989760	52	6260
2026-01-28 20:48:18.87	342.44	11.28	-39.5	-40.8	21.2	0.00e+00	0	31	0	930086912	52	6253
2026-01-28 20:48:19.88	342.28	11.23	-39.4	-40.6	21.3	0.00e+00	76	31	0	932184064	52	6164
2026-01-28 20:48:20.89	342.12	11.18	-39.5	-40.8	21.0	0.00e+00	0	31	0	933232640	52	6280
2026-01-28 20:48:21.90	341.97	11.13	-39.8	-41.2	20.8	0.00e+00	91	31	0	935329792	52	6542
2026-01-28 20:48:22.91	341.81	11.08	-40.0	-41.3	20.7	0.00e+00	0	31	0	937426944	52	6669
2026-01-28 20:48:23.92	341.66	11.03	-40.1	-41.5	20.4	0.00e+00	0	31	0	939524096	52	6829
2026-01-28 20:48:24.93	341.51	10.98	-40.0	-41.3	20.8	0.00e+00	0	31	0	941621248	52	6680
2026-01-28 20:48:25.94	341.35	10.92	-40.0	-41.4	20.6	0.00e+00	0	31	0	942669824	52	6731
2026-01-28 20:48:26.95	341.20	10.87	-39.8	-41.2	20.7	0.00e+00	78	31	0	944766976	52	6580
2026-01-28 20:48:27.96	341.05	10.82	-39.4	-40.7	20.9	0.00e+00	0	31	0	946864128	52	6200
2026-01-28 20:48:28.96	340.90	10.77	-39.6	-40.9	21.0	0.00e+00	88	31	0	948961280	52	6339
2026-01-28 20:48:29.97	340.75	10.72	-39.4	-40.7	21.2	0.00e+00	0	31	0	951058432	52	6237
2026-01-28 20:48:30.98	340.60	10.67	-39.2	-40.5	21.3	0.00e+00	0	31	0	952107008	52	6103
2026-01-28 20:48:31.99	340.45	10.61	-39.3	-40.6	21.3	0.00e+00	0	31	0	954204160	52	6107
2026-01-28 20:48:33.00	340.30	10.56	-39.5	-40.8	21.0	0.00e+00	0	31	0	956301312	52	6280
2026-01-28 20:48:34.00	340.15	10.51	-39.3	-40.6	21.3	0.00e+00	77	31	0	958398464	52	6108
2026-01-28 20:48:35.01	340.00	10.46	-39.3	-40.6	21.2	0.00e+00	0	31	0	960495616	52	6127
2026-01-28 20:48:36.02	339.85	10.40	-39.5	-40.9	21.0	0.00e+00	79	31	0	961544192	52	6337
2026-01-28 20:48:37.03	339.71	10.35	-39.7	-41.1	20.9	0.00e+00	0	31	0	963641344	52	6475
2026-01-28 20:48:38.04	339.56	10.30	-40.0	-41.4	20.5	0.00e+00	0	31	0	965738496	52	6748
2026-01-28 20:48:39.05	339.41	10.25	-39.8	-41.2	20.7	0.00e+00	0	31	0	967835648	52	6564
2026-01-28 20:48:40.06	339.27	10.19	-39.9	-41.3	20.7	0.00e+00	0	31	0	969932800	52	6627
2026-01-28 20:48:41.07	339.12	10.14	-40.1	-41.5	20.4	0.00e+00	65	31	0	970981376	52	6838
2026-01-28 20:48:42.08	338.98	10.09	-39.9	-41.3	20.6	0.00e+00	0	31	0	973078528	52	6629
2026-01-28 20:48:43.09	338.83	10.03	-40.0	-41.4	20.5	0.00e+00	92	31	0	975175680	52	6754
2026-01-28 20:48:44.10	338.69	9.98	-40.2	-41.6	20.4	0.00e+00	0	31	0	977272832	52	6854
2026-01-28 20:48:45.11	338.55	9.93	-40.1	-41.5	20.5	0.00e+00	12	31	0	979369984	52	6823
2026-01-28 20:48:46.12	338.41	9.87	-39.7	-41.0	20.9	0.00e+00	0	31	0	980418560	52	6401
2026-01-28 20:48:47.13	338.26	9.82	-39.7	-41.0	20.8	0.00e+00	0	31	0	982515712	52	6414
2026-01-28 20:48:48.14	338.12	9.77	-39.7	-41.0	20.7	0.00e+00	13	31	0	984612864	52	6397
2026-01-28 20:48:49.15	337.98	9.71	-39.5	-40.8	21.0	0.00e+00	0	31	0	986710016	52	6288
2026-01-28 20:48:50.16	337.84	9.66	-39.6	-40.8	21.0	0.00e+00	53	31	0	988807168	52	6302
2026-01-28 20:48:51.17	337.70	9.61	-39.5	-40.8	21.1	0.00e+00	0	31	0	989855744	52	6258
2026-01-28 20:48:52.18	337.56	9.55	-39.4	-40.7	21.2	0.00e+00	81	31	0	991952896	52	6187
2026-01-28 20:48:53.19	337.42	9.50	-39.1	-40.3	21.4	0.00e+00	0	31	0	994050048	52	5932
2026-01-28 20:48:54.19	337.29	9.45	-39.1	-40.3	21.5	0.00e+00	0	31	0	996147200	52	5908
2026-01-28 20:48:55.20	337.15	9.39	-38.8	-39.9	21.8	0.00e+00	0	31	0	998244352	52	5682
2026-01-28 20:48:56.21	337.01	9.34	-38.7	-39.8	22.0	0.00e+00	0	31	0	999292928	50	6275
2026-01-28 20:48:57.22	336.88	9.29	-38.6	-39.7	21.9	0.00e+00	73	31	0	1001390080	50	6232
2026-01-28 20:48:58.23	336.74	9.23	-38.3	-39.3	22.3	0.00e+00	0	31	0	1003487232	50	5931
2026-01-28 20:48:59.24	336.60	9.18	-38.1	-39.1	22.4	0.00e+00	88	31	0	1005584384	50	5823
2026-01-28 20:49:00.25	336.47	9.12	-38.3	-39.3	22.3	0.00e+00	0	31	0	1007681536	50	5927
2026-01-28 20:49:01.26	336.33	9.07	-38.5	-39.6	22.0	0.00e+00	0	31	0	1009778688	50	6111
2026-01-28 20:49:02.27	336.20	9.02	-38.5	-39.5	22.1	0.00e+00	0	31	0	1010827264	50	6083
2026-01-28 20:49:03.28	336.07	8.96	-38.4	-39.4	22.2	0.00e+00	0	31	0	1012924416	50	6021
2026-01-28 20:49:04.29	335.93	8.91	-39.0	-40.1	21.7	0.00e+00	73	31	0	1015021568	50	6481
2026-01-28 20:49:05.30	335.80	8.85	-38.6	-39.7	21.9	0.00e+00	0	31	0	1017118720	50	6201
2026-01-28 20:49:06.31	335.67	8.80	-38.8	-39.9	21.7	0.00e+00	83	31	0	1019215872	50	6390
2026-01-28 20:49:07.32	335.54	8.75	-38.8	-39.9	21.8	0.00e+00	0	31	0	1020264448	50	6383
2026-01-28 20:49:08.33	335.41	8.69	-38.7	-39.7	21.9	0.00e+00	0	31	0	1022361600	50	6236
2026-01-28 20:49:09.34	335.28	8.64	-38.8	-39.9	21.8	0.00e+00	0	31	0	1024458752	50	6333
2026-01-28 20:49:10.35	335.15	8.58	-38.7	-39.8	21.8	0.00e+00	0	31	0	1026555904	50	6297
2026-01-28 20:49:11.36	335.02	8.53	-38.8	-39.9	21.7	0.00e+00	19	31	0	1028653056	50	6379
2026-01-28 20:49:12.37	334.89	8.48	-38.5	-39.6	22.2	0.00e+00	0	31	0	1029701632	50	6139
2026-01-28 20:49:13.38	334.76	8.42	-38.8	-39.8	21.9	0.00e+00	78	31	0	1031798784	50	6305
2026-01-28 20:49:14.39	334.63	8.37	-38.6	-39.7	21.9	0.00e+00	0	31	0	1033895936	50	6176
2026-01-28 20:49:15.40	334.50	8.31	-38.7	-39.8	21.8	0.00e+00	0	31	0	1035993088	50	6300
2026-01-28 20:49:16.41	334.38	8.26	-38.9	-40.0	21.7	0.00e+00	0	31	0	1038090240	50	6455
2026-01-28 20:49:17.42	334.25	8.20	-39.2	-40.3	21.3	0.00e+00	0	31	0	1039138816	50	6679
2026-01-28 20:49:18.43	334.12	8.15	-38.9	-40.0	21.8	0.00e+00	73	31	0	1041235968	50	6427
2026-01-28 20:49:19.44	334.00	8.10	-39.3	-40.4	21.5	0.00e+00	0	31	0	1043333120	50	6748
2026-01-28 20:49:20.45	333.87	8.04	-39.2	-40.4	21.3	0.00e+00	69	31	0	1045430272	50	6702
2026-01-28 20:49:21.45	333.75	7.99	-39.1	-40.2	21.5	0.00e+00	0	31	0	1047527424	50	6569
2026-01-28 20:49:22.47	333.62	7.93	-39.3	-40.5	21.2	0.00e+00	58	31	0	1048576000	50	6779
2026-01-28 20:49:23.47	333.50	7.88	-38.9	-40.0	21.7	0.00e+00	0	31	0	1050673152	50	6415
2026-01-28 20:49:24.48	333.38	7.82	-39.0	-40.1	21.6	0.00e+00	0	31	0	1052770304	50	6474
2026-01-28 20:49:25.49	333.25	7.77	-39.1	-40.2	21.6	0.00e+00	64	31	0	1054867456	50	6592
2026-01-28 20:49:26.50	333.13	7.72	-39.2	-40.3	21.4	0.00e+00	0	31	0	1056964608	50	6679
2026-01-28 20:49:27.51	333.01	7.66	-39.2	-40.4	21.4	0.00e+00	51	31	0	1058013184	50	6710
2026-01-28 20:49:28.52	332.89	7.61	-39.3	-40.5	21.3	0.00e+00	0	31	0	1060110336	50	6770
2026-01-28 20:49:29.53	332.77	7.55	-39.3	-40.5	21.3	0.00e+00	73	31	0	1062207488	50	6792
2026-01-28 20:49:30.54	332.65	7.50	-39.0	-40.1	21.6	0.00e+00	0	31	0	1064304640	50	6522
2026-01-28 20:49:31.55	332.53	7.44	-39.5	-40.7	21.2	0.00e+00	0	31	0	1066401792	50	6970
2026-01-28 20:49:32.56	332.41	7.39	-39.4	-40.5	21.3	0.00e+00	0	31	0	1067450368	50	6826
2026-01-28 20:49:33.57	332.29	7.33	-39.1	-40.2	21.5	0.00e+00	0	31	0	1069547520	50	6615
2026-01-28 20:49:34.58	332.17	7.28	-39.1	-40.3	21.4	0.00e+00	42	31	0	1071644672	50	6620
2026-01-28 20:49:35.59	332.05	7.22	-39.1	-40.3	21.4	0.00e+00	0	31	0	1073741824	50	6617
2026-01-28 20:49:36.60	331.93	7.17	-38.8	-39.9	21.5	0.00e+00	92	31	0	1075838976	50	6334
2026-01-28 20:49:37.61	331.82	7.12	-38.7	-39.7	21.8	0.00e+00	0	31	0	1077936128	50	6239
2026-01-28 20:49:38.62	331.70	7.06	-39.0	-40.1	21.5	0.00e+00	0	31	0	1078984704	50	6500
2026-01-28 20:49:39.63	331.58	7.01	-38.6	-39.7	21.7	0.00e+00	0	31	0	1081081856	50	6185
2026-01-28 20:49:40.63	331.47	6.95	-39.2	-40.3	21.3	0.00e+00	0	31	0	1083179008	50	6650
2026-01-28 20:49:41.64	331.35	6.90	-38.5	-39.6	21.9	0.00e+00	71	31	0	1085276160	50	6119
2026-01-28 20:49:42.65	331.24	6.84	-38.4	-39.4	21.9	0.00e+00	0	31	0	1087373312	50	5990
2026-01-28 20:49:43.66	331.12	6.79	-38.5	-39.5	22.1	0.00e+00	75	31	0	1088421888	50	6096
2026-01-28 20:49:44.67	331.01	6.74	-38.4	-39.4	22.0	0.00e+00	0	31	0	1090519040	50	6013
2026-01-28 20:49:45.68	330.90	6.68	-38.3	-39.3	22.0	0.00e+00	0	31	0	1092616192	50	5957
2026-01-28 20:49:46.69	330.78	6.63	-38.9	-40.0	21.6	0.00e+00	0	31	0	1094713344	50	6418
2026-01-28 20:49:47.70	330.67	6.57	-38.6	-39.6	22.0	0.00e+00	0	31	0	1096810496	50	6143
2026-01-28 20:49:48.71	330.56	6.52	-38.8	-39.8	21.7	0.00e+00	73	31	0	1097859072	50	6304
2026-01-28 20:49:49.72	330.45	6.46	-39.0	-40.1	21.5	0.00e+00	0	31	0	1099956224	50	6511
2026-01-28 20:49:50.73	330.33	6.41	-39.4	-40.6	21.1	0.00e+00	86	31	0	1102053376	50	6882
2026-01-28 20:49:51.74	330.22	6.35	-39.7	-40.9	20.8	0.00e+00	0	31	0	1104150528	52	6365
2026-01-28 20:49:52.75	330.11	6.30	-40.2	-41.5	20.3	0.00e+00	0	31	0	1106247680	52	6788
2026-01-28 20:49:53.76	330.00	6.25	-40.2	-41.5	20.3	0.00e+00	0	31	0	1107296256	52	6807
2026-01-28 20:49:54.77	329.89	6.19	-39.8	-41.0	20.7	0.00e+00	0	31	0	1109393408	52	6445
2026-01-28 20:49:55.78	329.78	6.14	-40.0	-41.3	20.4	0.00e+00	0	31	0	1111490560	52	6643
2026-01-28 20:49:56.79	329.67	6.08	-39.7	-40.9	20.8	0.00e+00	0	31	0	1113587712	52	6334
2026-01-28 20:49:57.79	329.57	6.03	-39.5	-40.7	21.0	0.00e+00	92	31	0	1115684864	52	6230
2026-01-28 20:49:58.80	329.46	5.97	-39.2	-40.3	21.2	0.00e+00	0	31	0	1116733440	52	5955
2026-01-28 20:49:59.82	329.35	5.92	-39.6	-40.8	20.8	0.00e+00	0	31	0	1118830592	52	6309
2026-01-28 20:50:00.82	329.24	5.87	-38.9	-40.0	21.5	0.00e+00	0	31	0	1120927744	52	5743
2026-01-28 20:50:01.83	329.14	5.81	-39.4	-40.6	21.2	0.00e+00	0	31	0	1123024896	52	6120
2026-01-28 20:50:02.84	329.03	5.76	-39.3	-40.5	21.2	0.00e+00	9	31	0	1125122048	52	6039
2026-01-28 20:50:03.85	328.92	5.70	-38.9	-40.0	21.6	0.00e+00	0	31	0	1126170624	52	5716
2026-01-28 20:50:04.86	328.82	5.65	-39.0	-40.2	21.2	0.00e+00	89	31	0	1128267776	50	6552
2026-01-28 20:50:05.87	328.71	5.59	-39.4	-40.6	20.8	0.00e+00	0	31	0	1130364928	50	6898
2026-01-28 20:50:06.88	328.61	5.54	-38.9	-40.0	21.5	0.00e+00	92	31	0	1132462080	50	6422
2026-01-28 20:50:07.89	328.50	5.49	-39.2	-40.4	21.0	0.00e+00	0	31	0	1134559232	50	6719
2026-01-28 20:50:08.90	328.40	5.43	-39.8	-41.0	20.5	0.00e+00	0	31	0	1135607808	50	7218
2026-01-28 20:50:09.91	328.30	5.38	-39.5	-40.7	20.9	0.00e+00	0	31	0	1137704960	52	6232
2026-01-28 20:50:10.92	328.19	5.32	-39.5	-40.7	20.8	0.00e+00	0	31	0	1139802112	50	6928
2026-01-28 20:50:11.93	328.09	5.27	-39.3	-40.5	20.8	0.00e+00	92	31	0	1141899264	50	6813
2026-01-28 20:50:12.94	327.99	5.22	-39.7	-41.0	20.5	0.00e+00	0	31	0	1143996416	52	6407
2026-01-28 20:50:13.95	327.88	5.16	-40.0	-41.3	20.1	0.00e+00	76	31	0	1146093568	52	6668
2026-01-28 20:50:14.96	327.78	5.11	-40.5	-41.9	19.6	0.00e+00	0	31	0	1147142144	52	7132
2026-01-28 20:50:15.97	327.68	5.05	-40.4	-41.8	19.7	0.00e+00	0	31	0	1149239296	52	7068
2026-01-28 20:50:16.98	327.58	5.00	-40.4	-41.8	19.8	0.00e+00	0	31	0	1151336448	52	7067
2026-01-28 20:50:17.99	327.48	4.95	-40.5	-41.9	19.6	0.00e+00	0	31	0	1153433600	52	7126
2026-01-28 20:50:19.00	327.38	4.89	-40.9	-42.4	19.2	0.00e+00	73	31	0	1155530752	52	7580
2026-01-28 20:50:20.01	327.28	4.84	-41.1	-42.7	18.9	0.00e+00	0	31	0	1156579328	54	6956
2026-01-28 20:50:21.02	327.18	4.78	-40.9	-42.4	19.1	0.00e+00	75	31	0	1158676480	54	6759
2026-01-28 20:50:22.03	327.08	4.73	-41.3	-42.9	18.6	0.00e+00	0	31	0	1160773632	54	7137
2026-01-28 20:50:23.04	326.98	4.68	-41.3	-42.9	18.6	0.00e+00	0	31	0	1162870784	54	7158
2026-01-28 20:50:24.05	326.88	4.62	-41.3	-42.9	18.5	0.00e+00	0	31	0	1164967936	54	7130
2026-01-28 20:50:25.06	326.79	4.57	-41.2	-42.8	18.7	0.00e+00	0	31	0	1166016512	54	7029
2026-01-28 20:50:26.07	326.69	4.52	-41.3	-43.0	18.6	0.00e+00	73	31	0	1168113664	54	7172
2026-01-28 20:50:27.08	326.59	4.46	-41.4	-43.1	18.4	0.00e+00	0	31	0	1170210816	54	7311
2026-01-28 20:50:28.09	326.50	4.41	-41.0	-42.5	18.9	0.00e+00	46	31	0	1172307968	54	6841
2026-01-28 20:50:29.10	326.40	4.36	-41.1	-42.6	18.7	0.00e+00	0	31	0	1174405120	54	6907
2026-01-28 20:50:30.11	326.30	4.30	-40.9	-42.4	18.9	0.00e+00	0	31	0	1175453696	54	6756
2026-01-28 20:50:31.12	326.21	4.25	-41.4	-43.1	18.3	0.00e+00	0	31	0	1177550848	54	7302
2026-01-28 20:50:32.13	326.11	4.19	-41.1	-42.7	18.8	0.00e+00	0	31	0	1179648000	54	6962
2026-01-28 20:50:33.14	326.02	4.14	-41.2	-42.8	18.6	0.00e+00	49	31	0	1181745152	54	7073
2026-01-28 20:50:34.15	325.92	4.09	-41.6	-43.3	18.2	0.00e+00	0	31	0	1183842304	54	7449
2026-01-28 20:50:35.16	325.83	4.03	-41.9	-43.8	17.7	0.00e+00	92	31	0	1184890880	54	7889
2026-01-28 20:50:36.17	325.73	3.98	-41.5	-43.2	18.1	0.00e+00	33	31	0	1186988032	56	6609
2026-01-28 20:50:37.18	325.64	3.93	-41.5	-43.2	18.4	0.00e+00	42	31	0	1189085184	56	6549
2026-01-28 20:50:38.19	325.55	3.87	-42.5	-44.6	17.0	0.00e+00	0	31	0	1191182336	56	7727
2026-01-28 20:50:39.19	325.46	3.82	-42.2	-44.2	17.4	0.00e+00	0	31	0	1193279488	56	7365
2026-01-28 20:50:40.20	325.36	3.77	-42.4	-44.4	17.0	0.00e+00	75	31	0	1194328064	56	7557
2026-01-28 20:50:41.21	325.27	3.72	-41.9	-43.7	17.9	0.00e+00	0	31	0	1196425216	56	6976
2026-01-28 20:50:42.22	325.18	3.66	-42.2	-44.1	18.0	0.00e+00	48	31	0	1198522368	58	6487
2026-01-28 20:50:43.23	325.09	3.61	-41.7	-43.5	17.9	0.00e+00	0	31	0	1200619520	56	6813
