passes_logs/2026/01/28/R4.6S_Anadyr/R4.6S_Anadyr__20260128_025212_FENGYUN_3D_rec.log

#Pass ID: 20260128_025212_FENGYUN 3D
#Satellite: FENGYUN 3D
#Configuration: FENGYUN 3D
#almurnet v.1.7.20251203
#Start time: 2026-01-28 02:52:14

#Version: 2.2.20231116
#Station: R4.6S_Anadyr
#Location: 177.4865 lon 64.73178 lat
#TLE: 1 43010U 17072A   26027.61892183  .00000301  00000+0  16406-3 0  9993
#TLE: 2 43010  98.9961 359.6320 0002526  87.4560 272.6905 14.19701415425044

#Time	Az	El	Level	Level2	SNR	BER	BlckErr	Temp	State	Recorded	gain1	gain2
2026-01-28 02:52:14.88	170.83	0.12	-45.7	-60.1	3.5	1.51e+00	0	30	0	0	60	41187
2026-01-28 02:52:15.89	170.85	0.18	-49.0	-61.1	3.6	8.45e-01	0	32	104	0	60	41060
2026-01-28 02:52:16.89	170.87	0.24	-49.0	-61.1	3.6	8.44e-01	0	32	104	0	60	41173
2026-01-28 02:52:17.91	170.90	0.30	-49.0	-61.2	3.6	8.47e-01	0	32	104	0	60	41325
2026-01-28 02:52:18.92	170.92	0.36	-49.1	-61.1	3.6	8.44e-01	0	32	104	0	60	41258
2026-01-28 02:52:19.93	170.94	0.42	-49.1	-61.2	3.6	8.46e-01	0	32	104	0	60	41287
2026-01-28 02:52:20.94	170.96	0.48	-49.1	-61.2	3.6	8.45e-01	0	32	104	0	60	41457
2026-01-28 02:52:21.95	170.98	0.54	-49.1	-61.2	3.6	8.46e-01	0	32	104	0	60	41542
2026-01-28 02:52:22.96	171.01	0.60	-49.1	-61.3	3.6	8.44e-01	0	32	104	0	60	41757
2026-01-28 02:52:23.97	171.03	0.66	-49.1	-61.2	3.6	8.46e-01	0	32	104	0	60	41588
2026-01-28 02:52:24.98	171.05	0.73	-49.1	-61.2	3.6	8.45e-01	0	32	104	0	60	41737
2026-01-28 02:52:25.99	171.07	0.79	-49.1	-61.2	3.6	8.45e-01	0	32	104	0	60	41530
2026-01-28 02:52:27.00	171.10	0.85	-49.1	-61.2	3.6	8.45e-01	0	32	104	0	60	41546
2026-01-28 02:52:28.01	171.12	0.91	-49.1	-61.2	3.6	8.46e-01	0	32	104	0	60	41613
2026-01-28 02:52:29.02	171.14	0.97	-49.0	-61.2	3.6	8.45e-01	0	32	104	0	60	41589
2026-01-28 02:52:30.03	171.16	1.03	-49.0	-61.2	3.6	8.45e-01	0	32	104	0	60	41284
2026-01-28 02:52:31.04	171.19	1.10	-49.0	-61.2	3.6	8.44e-01	0	32	104	0	60	41275
2026-01-28 02:52:32.05	171.21	1.16	-49.0	-61.1	3.6	8.44e-01	0	32	104	0	60	41115
2026-01-28 02:52:33.06	171.23	1.22	-48.9	-61.0	3.6	8.45e-01	0	32	104	0	60	40663
2026-01-28 02:52:34.07	171.25	1.28	-48.9	-61.0	3.6	8.45e-01	0	32	104	0	60	40558
2026-01-28 02:52:35.08	171.28	1.35	-48.8	-60.9	3.6	8.46e-01	0	32	104	0	60	40189
2026-01-28 02:52:36.09	171.30	1.41	-48.7	-60.8	3.6	8.45e-01	0	32	104	0	60	39549
2026-01-28 02:52:37.09	171.32	1.47	-48.5	-60.6	3.6	8.46e-01	0	32	104	0	60	38914
2026-01-28 02:52:38.10	171.35	1.53	-48.4	-60.5	3.6	8.46e-01	0	32	104	0	60	38073
2026-01-28 02:52:39.11	171.37	1.60	-48.1	-60.2	3.6	8.45e-01	0	32	104	0	60	36791
2026-01-28 02:52:40.12	171.39	1.66	-47.7	-59.7	3.6	8.45e-01	0	32	104	0	60	34990
2026-01-28 02:52:41.13	171.42	1.72	-47.7	-59.6	3.6	8.45e-01	0	32	104	0	60	34581
2026-01-28 02:52:42.14	171.44	1.79	-47.7	-59.5	3.6	8.44e-01	0	32	104	0	60	34049
2026-01-28 02:52:43.15	171.47	1.85	-47.7	-59.6	3.6	8.45e-01	0	32	104	0	60	34548
2026-01-28 02:52:44.16	171.49	1.91	-47.7	-59.6	3.6	8.45e-01	0	32	104	0	60	34499
2026-01-28 02:52:45.17	171.51	1.98	-47.7	-59.6	3.6	8.45e-01	0	32	104	0	60	34710
2026-01-28 02:52:46.18	171.54	2.04	-47.7	-59.7	3.6	8.45e-01	0	32	104	0	60	34815
2026-01-28 02:52:47.19	171.56	2.11	-47.7	-59.7	3.6	8.45e-01	0	32	104	0	60	34996
2026-01-28 02:52:48.20	171.59	2.17	-47.7	-59.7	3.6	8.44e-01	0	32	104	0	60	34767
2026-01-28 02:52:49.21	171.61	2.23	-47.7	-59.6	3.6	8.45e-01	0	32	104	0	60	34671
2026-01-28 02:52:50.22	171.63	2.30	-47.7	-59.7	3.6	8.44e-01	0	32	104	0	60	34802
2026-01-28 02:52:51.23	171.66	2.36	-47.7	-59.6	3.6	8.46e-01	0	32	104	0	60	34504
2026-01-28 02:52:52.24	171.68	2.43	-47.7	-59.2	3.6	8.45e-01	0	32	104	0	60	33100
2026-01-28 02:52:53.25	171.71	2.49	-47.6	-58.6	3.6	8.46e-01	0	32	104	0	60	30920
2026-01-28 02:52:54.26	171.73	2.56	-47.6	-58.1	3.6	8.45e-01	0	32	104	0	60	29085
2026-01-28 02:52:55.27	171.76	2.62	-47.5	-57.3	3.6	8.44e-01	0	32	104	0	60	26531
2026-01-28 02:52:56.28	171.78	2.69	-47.4	-57.1	3.7	8.42e-01	0	32	104	0	60	25767
2026-01-28 02:52:57.29	171.81	2.75	-47.5	-57.5	3.6	8.44e-01	0	32	104	0	60	27130
2026-01-28 02:52:58.30	171.83	2.82	-47.6	-58.7	3.6	8.46e-01	0	32	104	0	60	31079
2026-01-28 02:52:59.31	171.86	2.89	-47.7	-59.7	3.6	8.45e-01	0	32	104	0	60	34816
2026-01-28 02:53:00.32	171.88	2.95	-47.5	-57.2	3.7	8.45e-01	0	33	104	0	60	26079
2026-01-28 02:53:01.33	171.91	3.02	-46.6	-52.6	6.3	5.46e-01	0	32	104	0	60	15353
2026-01-28 02:53:02.34	171.94	3.09	-44.9	-48.0	10.5	5.29e-02	0	33	0	4194304	60	9058
2026-01-28 02:53:03.35	171.96	3.15	-43.2	-45.4	13.5	5.83e-05	0	32	0	10485760	60	6697
2026-01-28 02:53:04.36	171.99	3.22	-41.3	-42.7	16.1	0.00e+00	0	32	0	15728640	56	6231
2026-01-28 02:53:05.37	172.01	3.29	-39.7	-40.9	18.0	0.00e+00	0	32	0	22020096	54	5634
2026-01-28 02:53:06.38	172.04	3.35	-38.3	-39.3	19.5	0.00e+00	0	32	0	27262976	50	5912
2026-01-28 02:53:07.39	172.06	3.42	-37.4	-38.3	20.3	0.00e+00	0	32	0	33554432	48	5914
2026-01-28 02:53:08.40	172.09	3.49	-36.9	-37.8	20.9	0.00e+00	0	32	0	38797312	46	6261
2026-01-28 02:53:09.41	172.12	3.55	-36.2	-37.1	21.6	0.00e+00	0	32	0	45088768	46	5765
2026-01-28 02:53:10.42	172.14	3.62	-36.0	-36.8	21.9	0.00e+00	0	32	0	50331648	44	6283
2026-01-28 02:53:11.43	172.17	3.69	-36.9	-37.8	21.0	0.00e+00	0	32	0	55574528	46	6271
2026-01-28 02:53:12.43	172.20	3.76	-37.4	-38.3	20.4	0.00e+00	0	32	0	61865984	46	6692
2026-01-28 02:53:13.44	172.22	3.82	-37.6	-38.6	20.2	0.00e+00	0	32	0	67108864	46	6850
2026-01-28 02:53:14.45	172.25	3.89	-37.1	-38.0	20.2	0.00e+00	0	32	0	73400320	46	6454
2026-01-28 02:53:15.47	172.28	3.96	-37.7	-38.6	20.4	2.86e-05	0	32	0	78643200	50	5485
2026-01-28 02:53:16.48	172.30	4.03	-42.3	-44.0	15.8	9.30e-04	0	32	0	83886080	58	6413
2026-01-28 02:53:17.48	172.33	4.10	-38.2	-39.1	19.2	1.10e-06	0	32	0	90177536	50	5816
2026-01-28 02:53:18.49	172.36	4.17	-43.4	-45.1	16.1	4.90e-01	0	33	0	93323264	60	6482
2026-01-28 02:53:19.50	172.39	4.24	-38.0	-38.9	20.1	0.00e+00	0	32	0	98566144	48	6377
2026-01-28 02:53:20.51	172.41	4.31	-38.4	-39.4	20.1	0.00e+00	0	32	0	104857600	48	6707
2026-01-28 02:53:21.52	172.44	4.38	-38.5	-39.5	19.7	0.00e+00	0	32	0	110100480	48	6844
2026-01-28 02:53:22.54	172.47	4.45	-37.9	-38.8	20.1	0.00e+00	0	32	0	116391936	48	6286
2026-01-28 02:53:23.55	172.50	4.52	-37.0	-37.9	21.0	0.00e+00	0	32	0	121634816	48	5643
2026-01-28 02:53:24.55	172.52	4.59	-36.9	-37.7	21.1	0.00e+00	0	32	0	127926272	48	5545
2026-01-28 02:53:25.56	172.55	4.66	-36.3	-37.2	21.9	0.00e+00	0	32	0	133169152	46	5849
2026-01-28 02:53:26.58	172.58	4.73	-35.9	-36.6	22.3	0.00e+00	0	32	0	138412032	46	5490
2026-01-28 02:53:27.58	172.61	4.80	-35.5	-36.2	22.5	0.00e+00	0	32	0	144703488	44	5886
2026-01-28 02:53:28.60	172.64	4.87	-35.4	-36.2	22.7	0.00e+00	0	32	0	149946368	44	5874
2026-01-28 02:53:29.61	172.67	4.94	-35.3	-36.0	22.8	0.00e+00	0	32	0	156237824	44	5752
2026-01-28 02:53:30.62	172.70	5.01	-35.2	-36.0	22.8	0.00e+00	0	32	0	161480704	44	5731
2026-01-28 02:53:31.63	172.72	5.08	-35.1	-35.8	23.1	0.00e+00	0	32	0	166723584	44	5626
2026-01-28 02:53:32.64	172.75	5.15	-34.9	-35.7	23.3	0.00e+00	0	32	0	173015040	44	5516
2026-01-28 02:53:33.65	172.78	5.23	-34.9	-35.6	23.3	0.00e+00	0	32	0	178257920	44	5477
2026-01-28 02:53:34.66	172.81	5.30	-34.8	-35.6	23.3	0.00e+00	0	32	0	184549376	42	6123
2026-01-28 02:53:35.67	172.84	5.37	-34.9	-35.6	23.4	0.00e+00	0	32	0	189792256	42	6158
2026-01-28 02:53:36.68	172.87	5.44	-34.7	-35.5	23.3	0.00e+00	0	32	0	195035136	42	6055
2026-01-28 02:53:37.69	172.90	5.51	-35.0	-35.7	23.1	0.00e+00	0	32	0	201326592	42	6240
2026-01-28 02:53:38.70	172.93	5.59	-34.9	-35.6	23.3	0.00e+00	0	33	0	206569472	42	6144
2026-01-28 02:53:39.71	172.96	5.66	-34.7	-35.4	23.5	0.00e+00	0	33	0	212860928	42	5984
2026-01-28 02:53:40.72	172.99	5.73	-34.8	-35.5	23.3	0.00e+00	0	33	0	218103808	42	6080
2026-01-28 02:53:41.73	173.02	5.81	-34.9	-35.7	23.4	0.00e+00	0	33	0	224395264	42	6204
2026-01-28 02:53:42.74	173.05	5.88	-34.6	-35.4	23.4	0.00e+00	0	33	0	229638144	42	5978
2026-01-28 02:53:43.75	173.08	5.95	-34.7	-35.5	23.6	0.00e+00	0	33	0	235929600	42	6040
2026-01-28 02:53:44.76	173.11	6.03	-34.8	-35.5	23.5	0.00e+00	0	32	0	241172480	42	6079
2026-01-28 02:53:45.77	173.14	6.10	-34.4	-35.2	23.7	0.00e+00	0	32	0	246415360	42	5830
2026-01-28 02:53:46.78	173.17	6.18	-34.8	-35.6	23.3	0.00e+00	0	33	0	252706816	42	6126
2026-01-28 02:53:47.79	173.20	6.25	-34.5	-35.2	23.7	0.00e+00	0	32	0	257949696	42	5876
2026-01-28 02:53:48.80	173.23	6.32	-34.8	-35.5	23.5	0.00e+00	0	32	0	264241152	42	6052
2026-01-28 02:53:49.81	173.27	6.40	-34.4	-35.1	23.8	0.00e+00	0	33	0	269484032	42	5781
2026-01-28 02:53:50.82	173.30	6.47	-34.3	-35.1	23.8	0.00e+00	0	33	0	274726912	42	5769
2026-01-28 02:53:51.83	173.33	6.55	-34.3	-35.0	24.0	0.00e+00	0	33	0	281018368	42	5757
2026-01-28 02:53:52.84	173.36	6.63	-34.4	-35.1	23.8	0.00e+00	0	33	0	286261248	42	5806
2026-01-28 02:53:53.85	173.39	6.70	-34.2	-34.9	24.1	0.00e+00	0	33	0	292552704	42	5675
2026-01-28 02:53:54.86	173.42	6.78	-34.5	-35.2	23.9	0.00e+00	0	32	0	297795584	42	5843
2026-01-28 02:53:55.87	173.46	6.85	-34.2	-34.9	24.1	0.00e+00	0	32	0	303038464	42	5634
2026-01-28 02:53:56.88	173.49	6.93	-34.2	-34.8	24.1	0.00e+00	0	33	0	309329920	42	5626
2026-01-28 02:53:57.89	173.52	7.01	-34.3	-35.0	24.0	0.00e+00	0	32	0	314572800	42	5716
2026-01-28 02:53:58.90	173.55	7.08	-34.2	-34.9	24.1	0.00e+00	0	33	0	320864256	42	5633
2026-01-28 02:53:59.91	173.59	7.16	-34.3	-35.0	24.2	0.00e+00	0	33	0	326107136	42	5705
2026-01-28 02:54:00.92	173.62	7.24	-34.4	-35.1	24.0	0.00e+00	0	33	0	332398592	42	5783
2026-01-28 02:54:01.93	173.65	7.32	-34.4	-35.1	23.9	0.00e+00	0	32	0	337641472	42	5826
2026-01-28 02:54:02.95	173.69	7.39	-34.0	-34.7	24.3	0.00e+00	0	33	0	343932928	42	5522
2026-01-28 02:54:03.96	173.72	7.47	-34.2	-34.9	24.1	0.00e+00	0	33	0	349175808	42	5655
2026-01-28 02:54:04.97	173.75	7.55	-34.2	-34.9	24.2	0.00e+00	0	33	0	354418688	42	5631
2026-01-28 02:54:05.98	173.79	7.63	-34.0	-34.8	24.3	0.00e+00	0	32	0	360710144	42	5571
2026-01-28 02:54:06.99	173.82	7.71	-34.1	-34.8	24.2	0.00e+00	0	32	0	365953024	42	5610
2026-01-28 02:54:08.00	173.86	7.79	-34.2	-34.9	24.2	0.00e+00	0	33	0	372244480	42	5655
2026-01-28 02:54:09.01	173.89	7.87	-34.0	-34.7	24.5	0.00e+00	0	33	0	377487360	42	5527
2026-01-28 02:54:10.02	173.92	7.94	-33.8	-34.5	24.5	0.00e+00	0	33	0	382730240	40	6040
2026-01-28 02:54:11.03	173.96	8.02	-33.7	-34.4	24.6	0.00e+00	0	33	0	389021696	40	5982
2026-01-28 02:54:12.04	173.99	8.10	-33.7	-34.4	24.6	0.00e+00	0	33	0	394264576	40	6027
2026-01-28 02:54:13.05	174.03	8.18	-33.7	-34.4	24.6	0.00e+00	0	33	0	400556032	40	6001
2026-01-28 02:54:14.06	174.06	8.26	-33.8	-34.5	24.7	0.00e+00	0	33	0	405798912	40	6035
2026-01-28 02:54:15.07	174.10	8.35	-33.8	-34.5	24.6	0.00e+00	0	33	0	411041792	40	6075
2026-01-28 02:54:16.08	174.13	8.43	-33.7	-34.4	24.5	0.00e+00	0	33	0	417333248	40	6004
2026-01-28 02:54:17.09	174.17	8.51	-33.8	-34.5	24.5	0.00e+00	0	33	0	422576128	40	6036
2026-01-28 02:54:18.10	174.21	8.59	-33.8	-34.5	24.5	0.00e+00	0	33	0	428867584	40	6102
2026-01-28 02:54:19.11	174.24	8.67	-33.9	-34.6	24.4	0.00e+00	0	33	0	434110464	40	6151
2026-01-28 02:54:20.12	174.28	8.75	-33.7	-34.4	24.6	0.00e+00	0	33	0	440401920	40	6021
2026-01-28 02:54:21.13	174.31	8.83	-33.7	-34.4	24.8	0.00e+00	0	33	0	445644800	40	5974
2026-01-28 02:54:22.14	174.35	8.92	-33.6	-34.3	24.7	0.00e+00	0	33	0	450887680	40	5947
2026-01-28 02:54:23.15	174.39	9.00	-33.6	-34.3	24.8	0.00e+00	0	33	0	457179136	40	5922
2026-01-28 02:54:24.16	174.42	9.08	-33.6	-34.3	24.7	0.00e+00	0	33	0	462422016	40	5951
2026-01-28 02:54:25.17	174.46	9.17	-33.6	-34.3	24.7	0.00e+00	0	33	0	468713472	40	5944
2026-01-28 02:54:26.18	174.50	9.25	-33.5	-34.2	24.9	0.00e+00	0	33	0	473956352	40	5895
2026-01-28 02:54:27.19	174.54	9.33	-33.5	-34.2	24.9	0.00e+00	0	33	0	479199232	40	5882
2026-01-28 02:54:28.20	174.57	9.42	-33.6	-34.3	24.8	0.00e+00	0	33	0	485490688	40	5957
2026-01-28 02:54:29.21	174.61	9.50	-33.5	-34.2	24.9	0.00e+00	0	33	0	490733568	40	5869
2026-01-28 02:54:30.22	174.65	9.59	-33.6	-34.3	24.8	0.00e+00	0	33	0	497025024	40	5930
2026-01-28 02:54:31.23	174.69	9.67	-33.6	-34.3	24.8	0.00e+00	0	33	0	502267904	40	5912
2026-01-28 02:54:32.24	174.73	9.76	-33.6	-34.4	24.7	0.00e+00	0	33	0	507510784	40	5967
2026-01-28 02:54:33.25	174.76	9.84	-33.5	-34.2	24.9	0.00e+00	0	33	0	513802240	40	5873
2026-01-28 02:54:34.26	174.80	9.93	-33.6	-34.3	24.8	0.00e+00	0	33	0	519045120	40	5915
2026-01-28 02:54:35.27	174.84	10.01	-33.6	-34.3	24.8	0.00e+00	0	33	0	525336576	40	5943
2026-01-28 02:54:36.28	174.88	10.10	-33.7	-34.4	24.8	0.00e+00	0	33	0	530579456	40	5973
2026-01-28 02:54:37.29	174.92	10.19	-33.6	-34.3	24.8	0.00e+00	0	33	0	536870912	40	5897
2026-01-28 02:54:38.30	174.96	10.27	-33.6	-34.3	24.8	0.00e+00	0	33	0	542113792	40	5963
2026-01-28 02:54:39.31	175.00	10.36	-33.7	-34.3	24.8	0.00e+00	0	33	0	548405248	40	5961
2026-01-28 02:54:40.32	175.04	10.45	-33.6	-34.3	24.9	0.00e+00	0	33	0	553648128	40	5958
2026-01-28 02:54:41.33	175.08	10.54	-33.6	-34.3	24.9	0.00e+00	0	33	0	558891008	40	5912
2026-01-28 02:54:42.34	175.12	10.63	-33.5	-34.2	25.0	0.00e+00	0	33	0	565182464	40	5874
2026-01-28 02:54:43.35	175.16	10.71	-33.4	-34.2	25.0	0.00e+00	0	33	0	570425344	40	5833
2026-01-28 02:54:44.36	175.20	10.80	-33.5	-34.2	24.9	0.00e+00	0	33	0	576716800	40	5890
2026-01-28 02:54:45.37	175.25	10.89	-33.5	-34.1	25.0	0.00e+00	0	33	0	581959680	40	5816
2026-01-28 02:54:46.38	175.29	10.98	-33.6	-34.3	24.9	0.00e+00	0	33	0	587202560	40	5936
2026-01-28 02:54:47.39	175.33	11.07	-33.4	-34.1	25.1	0.00e+00	0	33	0	593494016	40	5786
2026-01-28 02:54:48.40	175.37	11.16	-33.4	-34.1	25.1	0.00e+00	0	33	0	598736896	40	5767
2026-01-28 02:54:49.41	175.41	11.25	-33.3	-34.0	25.2	0.00e+00	0	33	0	605028352	40	5723
2026-01-28 02:54:50.41	175.45	11.34	-33.4	-34.1	25.1	0.00e+00	0	33	0	610271232	40	5766
2026-01-28 02:54:51.42	175.50	11.43	-33.4	-34.1	25.1	0.00e+00	0	33	0	615514112	40	5822
2026-01-28 02:54:52.44	175.54	11.52	-33.4	-34.1	25.1	0.00e+00	0	33	0	621805568	40	5809
2026-01-28 02:54:53.45	175.58	11.62	-33.3	-33.9	25.2	0.00e+00	0	33	0	627048448	40	5690
2026-01-28 02:54:54.46	175.63	11.71	-33.2	-33.9	25.3	0.00e+00	0	33	0	633339904	40	5644
2026-01-28 02:54:55.47	175.67	11.80	-33.2	-33.9	25.3	0.00e+00	0	33	0	638582784	40	5650
2026-01-28 02:54:56.48	175.72	11.89	-33.2	-33.9	25.3	0.00e+00	0	33	0	644874240	40	5652
2026-01-28 02:54:57.49	175.76	11.99	-33.2	-33.8	25.3	0.00e+00	0	33	0	650117120	40	5620
2026-01-28 02:54:58.50	175.80	12.08	-33.1	-33.8	25.4	0.00e+00	0	33	0	656408576	40	5596
2026-01-28 02:54:59.51	175.85	12.17	-33.2	-33.8	25.4	0.00e+00	0	33	0	661651456	40	5621
2026-01-28 02:55:00.52	175.89	12.27	-33.1	-33.7	25.4	0.00e+00	0	33	0	666894336	40	5547
2026-01-28 02:55:01.53	175.94	12.36	-33.1	-33.8	25.4	0.00e+00	0	33	0	673185792	40	5587
2026-01-28 02:55:02.54	175.98	12.46	-33.2	-33.8	25.3	0.00e+00	0	33	0	678428672	40	5620
2026-01-28 02:55:03.55	176.03	12.55	-33.4	-34.1	25.1	0.00e+00	0	33	0	684720128	40	5781
2026-01-28 02:55:04.56	176.08	12.65	-33.1	-33.7	25.5	0.00e+00	0	33	0	689963008	40	5564
2026-01-28 02:55:05.57	176.12	12.74	-33.2	-33.9	25.3	0.00e+00	0	33	0	695205888	40	5674
2026-01-28 02:55:06.58	176.17	12.84	-33.2	-33.9	25.2	0.00e+00	0	33	0	701497344	40	5680
2026-01-28 02:55:07.59	176.22	12.93	-33.1	-33.8	25.4	0.00e+00	0	33	0	706740224	40	5596
2026-01-28 02:55:08.60	176.26	13.03	-33.1	-33.8	25.4	0.00e+00	0	33	0	713031680	40	5616
2026-01-28 02:55:09.61	176.31	13.13	-33.0	-33.7	25.6	0.00e+00	0	33	0	718274560	40	5509
2026-01-28 02:55:10.62	176.36	13.23	-33.0	-33.7	25.5	0.00e+00	0	33	0	723517440	40	5527
2026-01-28 02:55:11.63	176.41	13.32	-32.9	-33.6	25.6	0.00e+00	0	33	0	729808896	40	5480
2026-01-28 02:55:12.64	176.45	13.42	-32.9	-33.6	25.6	0.00e+00	0	33	0	735051776	40	5470
2026-01-28 02:55:13.65	176.50	13.52	-32.9	-33.6	25.6	0.00e+00	0	33	0	741343232	40	5445
2026-01-28 02:55:14.66	176.55	13.62	-32.8	-33.5	25.7	0.00e+00	0	33	0	746586112	40	5411
2026-01-28 02:55:15.67	176.60	13.72	-32.9	-33.6	25.6	0.00e+00	0	33	0	752877568	40	5448
2026-01-28 02:55:16.68	176.65	13.82	-32.9	-33.6	25.7	0.00e+00	0	33	0	758120448	40	5468
2026-01-28 02:55:17.69	176.70	13.92	-32.8	-33.5	25.7	0.00e+00	0	33	0	764411904	40	5391
2026-01-28 02:55:18.70	176.75	14.02	-32.7	-33.4	25.8	0.00e+00	0	33	0	769654784	38	5984
2026-01-28 02:55:19.71	176.80	14.12	-32.8	-33.5	25.7	0.00e+00	0	33	0	774897664	38	6049
2026-01-28 02:55:20.72	176.85	14.22	-32.6	-33.3	25.9	0.00e+00	0	33	0	781189120	38	5930
2026-01-28 02:55:21.73	176.90	14.33	-32.6	-33.3	25.9	0.00e+00	0	33	0	786432000	38	5904
2026-01-28 02:55:22.75	176.96	14.43	-32.5	-33.2	26.0	0.00e+00	0	33	0	792723456	38	5837
2026-01-28 02:55:23.76	177.01	14.53	-32.7	-33.4	25.9	0.00e+00	0	33	0	797966336	38	5975
2026-01-28 02:55:24.77	177.06	14.64	-32.4	-33.1	26.1	0.00e+00	0	33	0	803209216	38	5772
2026-01-28 02:55:25.78	177.11	14.74	-32.3	-33.0	26.1	0.00e+00	0	33	0	809500672	38	5699
2026-01-28 02:55:26.78	177.16	14.84	-32.3	-33.0	26.2	0.00e+00	0	33	0	814743552	38	5715
2026-01-28 02:55:27.79	177.22	14.95	-32.3	-32.9	26.2	0.00e+00	0	33	0	821035008	38	5677
2026-01-28 02:55:28.80	177.27	15.05	-32.2	-32.9	26.2	0.00e+00	0	33	0	826277888	38	5658
2026-01-28 02:55:29.81	177.33	15.16	-32.1	-32.8	26.3	0.00e+00	0	33	0	831520768	38	5588
2026-01-28 02:55:30.82	177.38	15.26	-32.2	-32.9	26.3	0.00e+00	0	33	0	837812224	38	5648
2026-01-28 02:55:31.83	177.43	15.37	-32.3	-33.0	26.3	0.00e+00	0	33	0	843055104	38	5720
2026-01-28 02:55:32.84	177.49	15.48	-32.4	-33.1	26.2	0.00e+00	0	33	0	849346560	38	5766
2026-01-28 02:55:33.85	177.54	15.58	-32.2	-32.9	26.3	0.00e+00	0	33	0	854589440	38	5661
2026-01-28 02:55:34.86	177.60	15.69	-32.0	-32.7	26.5	0.00e+00	0	33	0	860880896	38	5511
2026-01-28 02:55:35.87	177.66	15.80	-31.9	-32.6	26.6	0.00e+00	0	33	0	866123776	38	5458
2026-01-28 02:55:36.88	177.71	15.91	-31.9	-32.5	26.6	0.00e+00	0	33	0	871366656	38	5402
2026-01-28 02:55:37.89	177.77	16.02	-31.9	-32.6	26.6	0.00e+00	0	33	0	877658112	38	5462
2026-01-28 02:55:38.90	177.83	16.13	-31.9	-32.5	26.6	0.00e+00	0	33	0	882900992	38	5417
2026-01-28 02:55:39.91	177.88	16.24	-31.8	-32.4	26.7	0.00e+00	0	33	0	889192448	36	6000
2026-01-28 02:55:40.92	177.94	16.35	-31.8	-32.4	26.7	0.00e+00	0	33	0	894435328	36	6020
2026-01-28 02:55:41.94	178.00	16.46	-31.7	-32.3	26.8	0.00e+00	0	33	0	899678208	36	5962
2026-01-28 02:55:42.95	178.06	16.57	-31.8	-32.4	26.7	0.00e+00	0	33	0	905969664	36	6018
2026-01-28 02:55:43.96	178.12	16.68	-31.7	-32.3	26.8	0.00e+00	0	33	0	911212544	36	5948
2026-01-28 02:55:44.97	178.18	16.79	-31.7	-32.3	26.8	0.00e+00	0	33	0	917504000	36	5963
2026-01-28 02:55:45.97	178.24	16.91	-31.6	-32.2	26.9	0.00e+00	0	33	0	922746880	36	5870
2026-01-28 02:55:46.99	178.30	17.02	-31.7	-32.3	26.7	0.00e+00	0	33	0	927989760	36	5925
2026-01-28 02:55:48.00	178.36	17.13	-31.6	-32.2	26.9	0.00e+00	0	33	0	934281216	36	5862
2026-01-28 02:55:49.01	178.42	17.25	-31.5	-32.1	27.0	0.00e+00	0	33	0	939524096	36	5793
2026-01-28 02:55:50.02	178.48	17.36	-31.5	-32.1	27.0	0.00e+00	0	33	0	945815552	36	5785
2026-01-28 02:55:51.03	178.55	17.48	-31.5	-32.2	26.9	0.00e+00	0	33	0	951058432	36	5831
2026-01-28 02:55:52.04	178.61	17.59	-31.6	-32.2	27.0	0.00e+00	0	33	0	957349888	36	5867
2026-01-28 02:55:53.05	178.67	17.71	-31.4	-32.0	27.0	0.00e+00	0	33	0	962592768	36	5732
2026-01-28 02:55:54.06	178.74	17.83	-31.3	-31.9	27.1	0.00e+00	0	33	0	968884224	36	5687
2026-01-28 02:55:55.07	178.80	17.94	-31.3	-31.9	27.1	0.00e+00	0	33	0	974127104	36	5661
2026-01-28 02:55:56.08	178.86	18.06	-31.3	-31.9	27.1	0.00e+00	0	33	0	979369984	36	5683
2026-01-28 02:55:57.09	178.93	18.18	-31.1	-31.7	27.3	0.00e+00	0	33	0	985661440	36	5559
2026-01-28 02:55:58.10	178.99	18.30	-31.2	-31.8	27.2	0.00e+00	0	33	0	990904320	36	5599
2026-01-28 02:55:59.11	179.06	18.42	-31.2	-31.8	27.2	0.00e+00	0	33	0	997195776	36	5583
2026-01-28 02:56:00.12	179.13	18.54	-31.0	-31.7	27.4	0.00e+00	0	33	0	1002438656	36	5514
2026-01-28 02:56:01.13	179.19	18.66	-31.2	-31.8	27.3	0.00e+00	0	33	0	1007681536	36	5595
2026-01-28 02:56:02.14	179.26	18.78	-31.1	-31.7	27.3	0.00e+00	0	33	0	1013972992	36	5550
2026-01-28 02:56:03.15	179.33	18.90	-31.0	-31.6	27.4	0.00e+00	0	33	0	1019215872	36	5477
2026-01-28 02:56:04.16	179.40	19.03	-31.1	-31.7	27.3	0.00e+00	0	33	0	1025507328	36	5559
2026-01-28 02:56:05.17	179.47	19.15	-31.1	-31.7	27.2	0.00e+00	0	33	0	1030750208	36	5563
2026-01-28 02:56:06.17	179.54	19.27	-31.0	-31.6	27.4	0.00e+00	0	33	0	1035993088	36	5484
2026-01-28 02:56:07.18	179.61	19.39	-30.9	-31.6	27.5	0.00e+00	0	33	0	1042284544	36	5444
2026-01-28 02:56:08.19	179.68	19.52	-30.8	-31.5	27.5	0.00e+00	0	33	0	1047527424	36	5384
2026-01-28 02:56:09.20	179.75	19.64	-30.9	-31.6	27.4	0.00e+00	0	33	0	1053818880	36	5446
2026-01-28 02:56:10.21	179.82	19.77	-30.8	-31.4	27.7	0.00e+00	0	33	0	1059061760	36	5344
2026-01-28 02:56:11.21	179.89	19.90	-30.8	-31.4	27.6	0.00e+00	0	33	0	1065353216	34	5974
2026-01-28 02:56:12.22	179.96	20.02	-30.7	-31.4	27.6	0.00e+00	0	33	0	1070596096	34	5969
2026-01-28 02:56:13.23	180.04	20.15	-30.7	-31.3	27.7	0.00e+00	0	33	0	1075838976	34	5932
2026-01-28 02:56:14.24	180.11	20.28	-30.7	-31.3	27.7	0.00e+00	0	33	0	1082130432	34	5960
2026-01-28 02:56:15.25	180.19	20.41	-30.6	-31.3	27.7	0.00e+00	0	33	0	1087373312	34	5914
2026-01-28 02:56:16.26	180.26	20.54	-30.7	-31.3	27.7	0.00e+00	0	33	0	1093664768	34	5960
2026-01-28 02:56:17.27	180.34	20.67	-30.7	-31.3	27.6	0.00e+00	0	33	0	1098907648	34	5953
2026-01-28 02:56:18.28	180.41	20.80	-30.8	-31.4	27.7	0.00e+00	0	33	0	1104150528	34	6014
2026-01-28 02:56:19.29	180.49	20.93	-30.6	-31.2	27.7	0.00e+00	0	33	0	1110441984	34	5891
2026-01-28 02:56:20.31	180.57	21.06	-30.7	-31.3	27.6	0.00e+00	0	33	0	1115684864	34	5942
2026-01-28 02:56:21.32	180.65	21.19	-30.6	-31.3	27.7	0.00e+00	0	33	0	1121976320	34	5906
2026-01-28 02:56:22.33	180.73	21.33	-30.5	-31.1	27.8	0.00e+00	0	33	0	1127219200	34	5827
2026-01-28 02:56:23.34	180.81	21.46	-30.5	-31.1	27.8	0.00e+00	0	33	0	1132462080	34	5808
2026-01-28 02:56:24.35	180.89	21.60	-30.5	-31.1	27.8	0.00e+00	0	33	0	1138753536	34	5778
2026-01-28 02:56:25.36	180.97	21.73	-30.6	-31.2	27.7	0.00e+00	0	33	0	1143996416	34	5884
2026-01-28 02:56:26.37	181.05	21.87	-30.4	-31.0	28.0	0.00e+00	0	33	0	1150287872	34	5716
2026-01-28 02:56:27.38	181.13	22.00	-30.3	-30.9	28.0	0.00e+00	0	33	0	1155530752	34	5676
2026-01-28 02:56:28.39	181.21	22.14	-30.3	-30.9	27.9	0.00e+00	0	33	0	1161822208	34	5679
2026-01-28 02:56:29.40	181.30	22.28	-30.4	-31.1	27.7	0.00e+00	0	33	0	1167065088	34	5766
2026-01-28 02:56:30.41	181.38	22.42	-30.2	-30.9	28.0	0.00e+00	0	33	0	1173356544	34	5641
2026-01-28 02:56:31.42	181.47	22.56	-30.4	-31.0	27.8	0.00e+00	0	33	0	1178599424	34	5722
2026-01-28 02:56:32.43	181.55	22.70	-30.4	-31.1	27.8	0.00e+00	0	33	0	1183842304	34	5791
2026-01-28 02:56:33.44	181.64	22.84	-30.5	-31.1	27.8	0.00e+00	0	33	0	1190133760	34	5823
2026-01-28 02:56:34.45	181.73	22.98	-30.3	-30.9	27.9	0.00e+00	0	33	0	1195376640	34	5692
2026-01-28 02:56:35.46	181.81	23.12	-30.2	-30.8	28.0	0.00e+00	0	33	0	1201668096	34	5602
2026-01-28 02:56:36.47	181.90	23.27	-30.3	-30.9	28.0	0.00e+00	0	33	0	1206910976	34	5686
2026-01-28 02:56:37.48	181.99	23.41	-30.3	-30.9	27.9	0.00e+00	0	33	0	1212153856	34	5665
2026-01-28 02:56:38.49	182.08	23.55	-30.3	-30.9	28.0	0.00e+00	0	33	0	1218445312	34	5675
2026-01-28 02:56:39.50	182.17	23.70	-30.2	-30.9	28.0	0.00e+00	0	33	0	1223688192	34	5642
2026-01-28 02:56:40.51	182.27	23.84	-30.3	-30.9	28.0	0.00e+00	0	33	0	1229979648	34	5642
2026-01-28 02:56:41.52	182.36	23.99	-30.3	-30.9	27.9	0.00e+00	0	33	0	1235222528	34	5673
2026-01-28 02:56:42.53	182.45	24.14	-30.0	-30.6	28.1	0.00e+00	0	33	0	1240465408	34	5497
2026-01-28 02:56:43.54	182.55	24.29	-30.1	-30.8	28.1	0.00e+00	0	33	0	1246756864	34	5583
2026-01-28 02:56:44.55	182.64	24.44	-30.0	-30.6	28.2	0.00e+00	0	33	0	1251999744	34	5458
2026-01-28 02:56:45.56	182.74	24.59	-30.1	-30.8	28.1	0.00e+00	0	33	0	1258291200	34	5583
2026-01-28 02:56:46.57	182.84	24.74	-30.1	-30.7	28.1	0.00e+00	0	33	0	1263534080	34	5532
2026-01-28 02:56:47.57	182.93	24.89	-30.0	-30.6	28.2	0.00e+00	0	33	0	1269825536	34	5491
2026-01-28 02:56:48.58	183.03	25.04	-30.1	-30.7	28.1	0.00e+00	0	33	0	1275068416	34	5545
2026-01-28 02:56:49.59	183.13	25.19	-30.1	-30.8	28.0	0.00e+00	0	33	0	1281359872	34	5581
2026-01-28 02:56:50.61	183.23	25.35	-30.2	-30.8	28.1	0.00e+00	0	33	0	1286602752	34	5577
2026-01-28 02:56:51.61	183.34	25.50	-30.0	-30.6	28.1	0.00e+00	0	33	0	1291845632	34	5466
2026-01-28 02:56:52.63	183.44	25.66	-30.0	-30.6	28.1	0.00e+00	0	33	0	1298137088	34	5500
2026-01-28 02:56:53.63	183.54	25.81	-29.8	-30.4	28.3	0.00e+00	0	33	0	1303379968	34	5368
2026-01-28 02:56:54.64	183.65	25.97	-29.6	-30.3	28.4	0.00e+00	0	33	0	1308622848	32	5915
2026-01-28 02:56:55.65	183.75	26.13	-29.6	-30.2	28.4	0.00e+00	0	33	0	1314914304	32	5866
2026-01-28 02:56:56.66	183.86	26.28	-29.5	-30.1	28.6	0.00e+00	0	33	0	1320157184	32	5797
2026-01-28 02:56:57.67	183.97	26.44	-29.6	-30.2	28.5	0.00e+00	0	33	0	1326448640	32	5881
2026-01-28 02:56:58.68	184.08	26.60	-29.6	-30.2	28.5	0.00e+00	0	33	0	1331691520	32	5844
2026-01-28 02:56:59.69	184.19	26.77	-29.6	-30.2	28.5	0.00e+00	0	33	0	1336934400	32	5883
2026-01-28 02:57:00.70	184.30	26.93	-29.7	-30.3	28.4	0.00e+00	0	33	0	1343225856	32	5920
2026-01-28 02:57:01.71	184.41	27.09	-29.8	-30.4	28.4	0.00e+00	0	33	0	1348468736	32	5965
2026-01-28 02:57:02.72	184.52	27.25	-29.9	-30.6	28.3	0.00e+00	0	33	0	1354760192	32	6107
2026-01-28 02:57:03.73	184.64	27.42	-29.8	-30.4	28.3	0.00e+00	0	33	0	1360003072	32	6006
2026-01-28 02:57:04.74	184.75	27.58	-29.8	-30.4	28.2	0.00e+00	0	33	0	1366294528	32	6021
2026-01-28 02:57:05.75	184.87	27.75	-29.9	-30.5	28.3	0.00e+00	0	33	0	1371537408	32	6044
2026-01-28 02:57:06.75	184.98	27.92	-30.0	-30.6	28.2	0.00e+00	0	33	0	1377828864	32	6121
2026-01-28 02:57:07.76	185.10	28.08	-29.9	-30.5	28.3	0.00e+00	0	33	0	1383071744	32	6100
2026-01-28 02:57:08.77	185.22	28.25	-29.9	-30.5	28.2	0.00e+00	0	33	0	1388314624	32	6072
2026-01-28 02:57:09.78	185.34	28.42	-29.9	-30.5	28.3	0.00e+00	0	33	0	1394606080	32	6062
2026-01-28 02:57:10.79	185.47	28.59	-29.8	-30.4	28.3	0.00e+00	0	33	0	1399848960	32	6023
2026-01-28 02:57:11.80	185.59	28.77	-30.0	-30.6	28.2	0.00e+00	0	33	0	1406140416	32	6141
2026-01-28 02:57:12.81	185.72	28.94	-29.9	-30.5	28.4	0.00e+00	0	33	0	1411383296	32	6045
2026-01-28 02:57:13.82	185.84	29.11	-29.9	-30.6	28.3	0.00e+00	0	33	0	1416626176	32	6116
2026-01-28 02:57:14.84	185.97	29.29	-29.7	-30.4	28.5	0.00e+00	0	33	0	1422917632	32	5967
2026-01-28 02:57:15.85	186.10	29.46	-29.5	-30.1	28.6	0.00e+00	0	33	0	1428160512	32	5827
2026-01-28 02:57:16.86	186.23	29.64	-29.5	-30.1	28.6	0.00e+00	0	33	0	1434451968	32	5828
2026-01-28 02:57:17.87	186.36	29.82	-29.5	-30.2	28.6	0.00e+00	0	33	0	1439694848	32	5834
2026-01-28 02:57:18.87	186.50	29.99	-29.4	-30.0	28.7	0.00e+00	0	33	0	1444937728	32	5733
2026-01-28 02:57:19.88	186.63	30.17	-29.6	-30.2	28.6	0.00e+00	0	33	0	1451229184	32	5884
2026-01-28 02:57:20.89	186.77	30.35	-29.7	-30.3	28.4	0.00e+00	0	33	0	1456472064	32	5933
2026-01-28 02:57:21.90	186.90	30.53	-29.8	-30.4	28.4	0.00e+00	0	33	0	1462763520	32	6002
2026-01-28 02:57:22.91	187.04	30.72	-29.8	-30.5	28.3	0.00e+00	0	33	0	1468006400	32	6047
2026-01-28 02:57:23.92	187.18	30.90	-29.8	-30.4	28.4	0.00e+00	0	33	0	1474297856	32	5969
2026-01-28 02:57:24.93	187.33	31.08	-29.7	-30.3	28.5	0.00e+00	0	33	0	1479540736	32	5945
2026-01-28 02:57:25.94	187.47	31.27	-29.8	-30.4	28.4	0.00e+00	0	33	0	1484783616	32	6011
2026-01-28 02:57:26.95	187.62	31.46	-29.7	-30.3	28.4	0.00e+00	0	33	0	1491075072	32	5940
2026-01-28 02:57:27.96	187.76	31.64	-29.8	-30.4	28.4	0.00e+00	0	33	0	1496317952	32	6005
2026-01-28 02:57:28.97	187.91	31.83	-29.8	-30.4	28.4	0.00e+00	0	33	0	1502609408	32	6024
2026-01-28 02:57:29.98	188.06	32.02	-30.0	-30.7	28.2	0.00e+00	0	33	0	1507852288	32	6199
2026-01-28 02:57:30.99	188.21	32.21	-29.9	-30.5	28.3	0.00e+00	0	33	0	1513095168	32	6097
2026-01-28 02:57:32.00	188.37	32.40	-29.8	-30.4	28.4	0.00e+00	0	33	0	1519386624	32	6032
2026-01-28 02:57:33.01	188.52	32.59	-29.6	-30.3	28.5	0.00e+00	0	33	0	1524629504	32	5901
2026-01-28 02:57:34.02	188.68	32.79	-29.6	-30.2	28.5	0.00e+00	0	33	0	1530920960	32	5875
2026-01-28 02:57:35.03	188.84	32.98	-29.6	-30.2	28.5	0.00e+00	0	33	0	1536163840	32	5861
2026-01-28 02:57:36.04	189.00	33.17	-29.5	-30.1	28.5	0.00e+00	0	33	0	1541406720	32	5779
2026-01-28 02:57:37.05	189.17	33.37	-29.6	-30.2	28.5	0.00e+00	0	33	0	1547698176	32	5884
2026-01-28 02:57:38.06	189.33	33.57	-29.5	-30.1	28.6	0.00e+00	0	33	0	1552941056	32	5805
2026-01-28 02:57:39.07	189.50	33.77	-29.5	-30.2	28.6	0.00e+00	0	33	0	1559232512	32	5830
2026-01-28 02:57:40.08	189.67	33.97	-29.4	-30.0	28.7	0.00e+00	0	33	0	1564475392	32	5731
2026-01-28 02:57:41.09	189.84	34.17	-29.3	-29.9	28.8	0.00e+00	0	33	0	1570766848	32	5680
2026-01-28 02:57:42.10	190.01	34.37	-29.3	-29.9	28.7	0.00e+00	0	33	0	1576009728	32	5672
2026-01-28 02:57:43.11	190.19	34.57	-29.2	-29.8	28.8	0.00e+00	0	33	0	1582301184	32	5595
2026-01-28 02:57:44.12	190.36	34.77	-29.4	-30.0	28.7	0.00e+00	0	33	0	1587544064	32	5726
2026-01-28 02:57:45.13	190.54	34.98	-29.4	-30.1	28.6	0.00e+00	0	33	0	1592786944	32	5780
2026-01-28 02:57:46.14	190.72	35.18	-29.5	-30.1	28.6	0.00e+00	0	33	0	1599078400	32	5828
2026-01-28 02:57:47.15	190.91	35.39	-29.4	-30.1	28.7	0.00e+00	0	33	0	1604321280	32	5774
2026-01-28 02:57:48.16	191.09	35.60	-29.5	-30.1	28.6	0.00e+00	0	33	0	1610612736	32	5806
2026-01-28 02:57:49.17	191.28	35.80	-29.5	-30.1	28.6	0.00e+00	0	33	0	1615855616	32	5821
2026-01-28 02:57:50.18	191.47	36.01	-29.6	-30.2	28.6	0.00e+00	0	33	0	1621098496	32	5864
2026-01-28 02:57:51.19	191.67	36.22	-29.2	-29.8	28.8	0.00e+00	0	33	0	1627389952	32	5600
2026-01-28 02:57:52.20	191.86	36.44	-29.3	-29.9	28.8	0.00e+00	0	33	0	1632632832	32	5661
2026-01-28 02:57:53.21	192.06	36.65	-29.2	-29.8	28.9	0.00e+00	0	33	0	1638924288	32	5572
2026-01-28 02:57:54.22	192.26	36.86	-29.2	-29.8	28.8	0.00e+00	0	33	0	1644167168	32	5584
2026-01-28 02:57:55.23	192.47	37.08	-29.1	-29.7	28.8	0.00e+00	0	33	0	1649410048	32	5526
2026-01-28 02:57:56.24	192.67	37.29	-29.1	-29.7	28.9	0.00e+00	0	33	0	1655701504	32	5520
2026-01-28 02:57:57.25	192.88	37.51	-28.9	-29.5	29.0	0.00e+00	0	33	0	1660944384	32	5422
2026-01-28 02:57:58.26	193.09	37.73	-29.1	-29.7	28.8	0.00e+00	0	33	0	1667235840	32	5516
2026-01-28 02:57:59.28	193.31	37.95	-29.1	-29.7	28.8	0.00e+00	0	33	0	1672478720	32	5546
2026-01-28 02:58:00.29	193.53	38.17	-29.2	-29.8	28.8	0.00e+00	0	33	0	1678770176	32	5605
2026-01-28 02:58:01.30	193.75	38.39	-29.4	-30.0	28.7	0.00e+00	0	33	0	1684013056	32	5704
2026-01-28 02:58:02.31	193.97	38.61	-29.5	-30.1	28.7	0.00e+00	0	33	0	1690304512	32	5771
2026-01-28 02:58:03.31	194.19	38.83	-29.4	-30.0	28.6	0.00e+00	0	33	0	1695547392	32	5709
2026-01-28 02:58:04.32	194.42	39.05	-29.5	-30.2	28.6	0.00e+00	0	33	0	1700790272	32	5845
2026-01-28 02:58:05.33	194.65	39.28	-29.5	-30.1	28.6	0.00e+00	0	33	0	1707081728	32	5826
2026-01-28 02:58:06.34	194.89	39.50	-29.4	-30.0	28.7	0.00e+00	0	33	0	1712324608	32	5753
2026-01-28 02:58:07.35	195.13	39.73	-29.3	-29.9	28.8	0.00e+00	0	33	0	1718616064	32	5675
2026-01-28 02:58:08.36	195.37	39.95	-29.1	-29.7	28.9	0.00e+00	0	33	0	1723858944	32	5534
2026-01-28 02:58:09.37	195.62	40.18	-29.2	-29.8	28.8	0.00e+00	0	33	0	1729101824	32	5617
2026-01-28 02:58:10.38	195.86	40.41	-29.3	-29.9	28.8	0.00e+00	0	33	0	1735393280	32	5687
2026-01-28 02:58:11.39	196.12	40.64	-29.5	-30.1	28.6	0.00e+00	0	33	0	1740636160	32	5776
2026-01-28 02:58:12.40	196.37	40.87	-29.5	-30.1	28.6	0.00e+00	0	33	0	1746927616	32	5772
2026-01-28 02:58:13.41	196.63	41.10	-29.3	-29.9	28.8	0.00e+00	0	33	0	1752170496	32	5644
2026-01-28 02:58:14.42	196.89	41.34	-29.3	-29.9	28.8	0.00e+00	0	33	0	1757413376	32	5647
2026-01-28 02:58:15.43	197.16	41.57	-29.4	-30.0	28.7	0.00e+00	0	33	0	1763704832	32	5708
2026-01-28 02:58:16.44	197.43	41.80	-29.4	-30.0	28.6	0.00e+00	0	33	0	1768947712	32	5749
2026-01-28 02:58:17.45	197.71	42.04	-29.4	-30.0	28.7	0.00e+00	0	33	0	1775239168	32	5725
2026-01-28 02:58:18.45	197.98	42.27	-29.6	-30.2	28.5	0.00e+00	0	33	0	1780482048	32	5855
2026-01-28 02:58:19.46	198.26	42.51	-29.5	-30.1	28.5	0.00e+00	0	33	0	1786773504	32	5796
2026-01-28 02:58:20.47	198.55	42.74	-29.5	-30.1	28.6	0.00e+00	0	33	0	1792016384	32	5827
2026-01-28 02:58:21.49	198.84	42.98	-29.5	-30.1	28.6	0.00e+00	0	33	0	1797259264	32	5796
2026-01-28 02:58:22.49	199.14	43.22	-29.6	-30.2	28.5	0.00e+00	0	33	0	1803550720	32	5880
2026-01-28 02:58:23.51	199.44	43.46	-29.7	-30.3	28.5	0.00e+00	0	33	0	1808793600	32	5944
2026-01-28 02:58:24.52	199.74	43.70	-29.9	-30.5	28.2	0.00e+00	0	33	0	1815085056	32	6079
2026-01-28 02:58:25.53	200.05	43.94	-29.9	-30.5	28.3	0.00e+00	0	33	0	1820327936	32	6085
2026-01-28 02:58:26.53	200.36	44.18	-29.9	-30.5	28.3	0.00e+00	0	33	0	1825570816	32	6062
2026-01-28 02:58:27.54	200.68	44.42	-29.8	-30.4	28.4	0.00e+00	0	33	0	1831862272	32	5984
2026-01-28 02:58:28.55	201.00	44.66	-29.7	-30.3	28.5	0.00e+00	0	33	0	1837105152	32	5964
2026-01-28 02:58:29.56	201.33	44.91	-29.9	-30.5	28.3	0.00e+00	0	33	0	1843396608	32	6077
2026-01-28 02:58:30.57	201.66	45.15	-29.7	-30.3	28.5	0.00e+00	0	33	0	1848639488	32	5964
2026-01-28 02:58:31.58	202.00	45.39	-29.7	-30.3	28.4	0.00e+00	0	33	0	1853882368	32	5931
2026-01-28 02:58:32.59	202.34	45.64	-29.8	-30.4	28.4	0.00e+00	0	33	0	1860173824	32	6016
2026-01-28 02:58:33.60	202.69	45.88	-30.0	-30.6	28.2	0.00e+00	0	33	0	1865416704	32	6155
2026-01-28 02:58:34.61	203.04	46.13	-29.8	-30.4	28.4	0.00e+00	0	33	0	1871708160	32	5997
2026-01-28 02:58:35.62	203.40	46.37	-29.7	-30.3	28.4	0.00e+00	0	33	0	1876951040	32	5948
2026-01-28 02:58:36.63	203.76	46.62	-29.6	-30.2	28.6	0.00e+00	0	33	0	1883242496	32	5874
2026-01-28 02:58:37.65	204.13	46.86	-29.5	-30.1	28.6	0.00e+00	0	33	0	1888485376	32	5772
2026-01-28 02:58:38.65	204.51	47.11	-29.5	-30.2	28.6	0.00e+00	0	33	0	1894776832	32	5834
2026-01-28 02:58:39.67	204.89	47.35	-29.8	-30.4	28.4	0.00e+00	0	33	0	1900019712	32	6016
2026-01-28 02:58:40.67	205.28	47.60	-30.0	-30.6	28.3	0.00e+00	0	33	0	1905262592	32	6131
2026-01-28 02:58:41.69	205.67	47.85	-30.4	-31.1	28.0	0.00e+00	0	33	0	1911554048	32	6471
2026-01-28 02:58:42.70	206.07	48.09	-30.6	-31.3	27.9	0.00e+00	0	33	0	1916796928	32	6664
2026-01-28 02:58:43.71	206.48	48.34	-30.3	-30.9	28.1	0.00e+00	0	33	0	1923088384	32	6378
2026-01-28 02:58:44.72	206.89	48.58	-30.0	-30.6	28.3	0.00e+00	0	33	0	1928331264	32	6156
2026-01-28 02:58:45.73	207.31	48.83	-29.9	-30.5	28.3	0.00e+00	0	33	0	1933574144	32	6059
2026-01-28 02:58:46.74	207.73	49.07	-30.1	-30.8	28.1	0.00e+00	0	33	0	1939865600	32	6257
2026-01-28 02:58:47.75	208.17	49.32	-30.4	-31.1	27.9	0.00e+00	0	33	0	1945108480	32	6491
2026-01-28 02:58:48.76	208.61	49.56	-30.4	-31.1	27.9	0.00e+00	0	33	0	1951399936	32	6492
2026-01-28 02:58:49.77	209.05	49.80	-30.3	-31.0	28.0	0.00e+00	0	33	0	1956642816	32	6414
2026-01-28 02:58:50.78	209.50	50.05	-30.3	-30.9	27.9	0.00e+00	0	33	0	1961885696	32	6381
2026-01-28 02:58:51.79	209.96	50.29	-30.2	-30.8	28.1	0.00e+00	0	33	0	1968177152	32	6270
2026-01-28 02:58:52.80	210.43	50.53	-29.9	-30.5	28.4	0.00e+00	0	33	0	1973420032	32	6081
2026-01-28 02:58:53.81	210.91	50.77	-29.7	-30.3	28.4	0.00e+00	0	33	0	1979711488	32	5939
2026-01-28 02:58:54.82	211.39	51.01	-29.9	-30.5	28.3	0.00e+00	0	33	0	1984954368	32	6083
2026-01-28 02:58:55.83	211.88	51.25	-30.3	-30.9	28.1	0.00e+00	0	33	0	1991245824	32	6330
2026-01-28 02:58:56.84	212.38	51.49	-30.3	-31.0	28.0	0.00e+00	0	33	0	1996488704	32	6398
2026-01-28 02:58:57.85	212.89	51.73	-30.5	-31.2	27.8	0.00e+00	0	33	0	2002780160	32	6547
2026-01-28 02:58:58.86	213.40	51.96	-30.5	-31.1	27.8	0.00e+00	0	33	0	2008023040	32	6531
2026-01-28 02:58:59.87	213.92	52.20	-30.4	-31.0	28.0	0.00e+00	0	33	0	2013265920	32	6425
2026-01-28 02:59:00.85	214.44	52.42	-30.2	-30.8	28.1	0.00e+00	0	33	0	2019557376	32	6300
2026-01-28 02:59:01.86	214.98	52.66	-30.1	-30.7	28.3	0.00e+00	0	33	0	2024800256	32	6184
2026-01-28 02:59:02.87	215.52	52.89	-30.6	-31.2	27.9	0.00e+00	0	33	0	2030043136	32	6605
2026-01-28 02:59:03.88	216.08	53.12	-30.8	-31.4	27.6	0.00e+00	0	33	0	2036334592	34	6022
2026-01-28 02:59:04.89	216.64	53.34	-30.8	-31.4	27.8	0.00e+00	0	33	0	2041577472	34	5977
2026-01-28 02:59:05.90	217.22	53.57	-30.5	-31.2	27.9	0.00e+00	0	33	0	2047868928	34	5835
2026-01-28 02:59:06.91	217.80	53.79	-30.8	-31.4	27.6	0.00e+00	0	33	0	2053111808	34	6007
2026-01-28 02:59:07.92	218.39	54.02	-30.4	-31.0	28.0	0.00e+00	0	33	0	2058354688	34	5745
2026-01-28 02:59:08.93	218.99	54.23	-30.5	-31.1	27.9	0.00e+00	0	33	0	2064646144	34	5821
2026-01-28 02:59:09.94	219.60	54.45	-30.8	-31.5	27.6	0.00e+00	0	33	0	2069889024	34	6036
2026-01-28 02:59:10.94	220.21	54.67	-31.3	-32.0	27.2	0.00e+00	0	33	0	2076180480	34	6416
2026-01-28 02:59:11.95	220.84	54.88	-30.9	-31.5	27.6	0.00e+00	0	33	0	2081423360	34	6091
2026-01-28 02:59:12.96	221.47	55.09	-30.9	-31.6	27.5	0.00e+00	0	33	0	2087714816	34	6121
2026-01-28 02:59:13.97	222.12	55.30	-31.3	-31.9	27.3	0.00e+00	0	33	0	2092957696	34	6346
2026-01-28 02:59:14.98	222.78	55.50	-31.5	-32.1	27.2	0.00e+00	0	33	0	2098200576	34	6512
2026-01-28 02:59:15.99	223.44	55.70	-31.2	-31.9	27.3	0.00e+00	0	33	0	2104492032	34	6336
2026-01-28 02:59:17.00	224.12	55.90	-30.6	-31.2	27.9	0.00e+00	0	33	0	2109734912	34	5860
2026-01-28 02:59:18.02	224.81	56.10	-30.8	-31.5	27.6	0.00e+00	0	33	0	2116026368	34	6041
2026-01-28 02:59:19.03	225.50	56.29	-30.8	-31.5	27.7	0.00e+00	0	33	0	2121269248	34	6049
2026-01-28 02:59:20.04	226.20	56.48	-30.5	-31.1	28.0	0.00e+00	0	33	0	2126512128	34	5788
2026-01-28 02:59:21.05	226.92	56.66	-30.7	-31.3	27.7	0.00e+00	0	33	0	2132803584	34	5956
2026-01-28 02:59:22.06	227.64	56.84	-30.8	-31.5	27.6	0.00e+00	0	33	0	2138046464	34	6058
2026-01-28 02:59:23.07	228.37	57.02	-30.6	-31.2	27.8	0.00e+00	0	33	0	2144337920	34	5871
2026-01-28 02:59:24.08	229.11	57.20	-30.4	-31.0	28.1	0.00e+00	0	33	0	2149580800	34	5756
2026-01-28 02:59:25.09	229.86	57.37	-30.4	-31.1	27.9	0.00e+00	0	33	0	2154823680	34	5764
2026-01-28 02:59:26.10	230.62	57.53	-30.7	-31.3	27.7	0.00e+00	0	33	0	2161115136	34	5941
2026-01-28 02:59:27.11	231.39	57.69	-30.6	-31.2	27.8	0.00e+00	0	33	0	2166358016	34	5847
2026-01-28 02:59:28.12	232.16	57.85	-30.3	-31.0	28.0	0.00e+00	0	33	0	2172649472	34	5725
2026-01-28 02:59:29.13	232.95	58.00	-30.0	-30.6	28.2	0.00e+00	0	33	0	2177892352	34	5468
2026-01-28 02:59:30.14	233.75	58.15	-30.0	-30.6	28.3	0.00e+00	0	33	0	2184183808	34	5441
2026-01-28 02:59:31.15	234.55	58.29	-30.0	-30.6	28.3	0.00e+00	0	33	0	2189426688	34	5479
2026-01-28 02:59:32.15	235.35	58.43	-29.9	-30.5	28.3	0.00e+00	0	33	0	2195718144	34	5436
2026-01-28 02:59:33.17	236.18	58.56	-30.0	-30.6	28.2	0.00e+00	0	33	0	2200961024	34	5480
2026-01-28 02:59:34.18	237.01	58.69	-30.3	-30.9	28.1	0.00e+00	0	33	0	2206203904	34	5666
2026-01-28 02:59:35.18	237.84	58.81	-30.3	-30.9	28.0	0.00e+00	0	33	0	2212495360	34	5664
2026-01-28 02:59:36.19	238.68	58.93	-30.3	-30.9	28.0	0.00e+00	0	33	0	2217738240	34	5679
2026-01-28 02:59:37.20	239.53	59.04	-30.3	-30.9	28.1	0.00e+00	0	33	0	2224029696	34	5677
2026-01-28 02:59:38.21	240.39	59.15	-30.2	-30.8	28.1	0.00e+00	0	33	0	2229272576	34	5591
2026-01-28 02:59:39.22	241.26	59.25	-29.9	-30.5	28.5	0.00e+00	0	33	0	2234515456	34	5391
2026-01-28 02:59:40.23	242.13	59.34	-29.8	-30.4	28.4	0.00e+00	0	33	0	2240806912	32	5974
2026-01-28 02:59:41.24	243.01	59.43	-29.9	-30.5	28.4	0.00e+00	0	33	0	2246049792	32	6064
2026-01-28 02:59:42.25	243.89	59.52	-29.9	-30.6	28.3	0.00e+00	0	33	0	2252341248	32	6111
2026-01-28 02:59:43.26	244.78	59.59	-30.1	-30.8	28.1	0.00e+00	0	33	0	2257584128	32	6261
2026-01-28 02:59:44.28	245.68	59.66	-29.9	-30.4	28.4	0.00e+00	0	33	0	2262827008	32	6015
2026-01-28 02:59:45.29	246.58	59.73	-30.1	-30.8	28.2	0.00e+00	0	33	0	2269118464	32	6263
2026-01-28 02:59:46.29	247.47	59.79	-30.3	-30.9	28.0	0.00e+00	0	33	0	2274361344	32	6384
2026-01-28 02:59:47.31	248.39	59.84	-30.1	-30.8	28.1	0.00e+00	0	33	0	2280652800	32	6270
2026-01-28 02:59:48.32	249.30	59.88	-30.1	-30.7	28.1	0.00e+00	0	33	0	2285895680	32	6244
2026-01-28 02:59:49.33	250.21	59.92	-30.0	-30.6	28.2	0.00e+00	0	33	0	2292187136	32	6141
2026-01-28 02:59:50.34	251.13	59.96	-29.9	-30.5	28.3	0.00e+00	0	33	0	2297430016	32	6064
2026-01-28 02:59:51.35	252.04	59.98	-30.1	-30.6	28.1	0.00e+00	0	33	0	2303721472	32	6158
2026-01-28 02:59:52.36	252.96	60.00	-30.2	-30.8	28.2	0.00e+00	0	33	0	2308964352	32	6289
2026-01-28 02:59:53.37	253.88	60.02	-30.0	-30.7	28.2	0.00e+00	0	33	0	2314207232	32	6195
2026-01-28 02:59:54.38	254.80	60.02	-29.9	-30.6	28.3	0.00e+00	0	33	0	2320498688	32	6123
2026-01-28 02:59:55.39	255.72	60.02	-30.0	-30.6	28.3	0.00e+00	0	33	0	2325741568	32	6109
2026-01-28 02:59:56.40	256.64	60.02	-30.0	-30.7	28.3	0.00e+00	0	33	0	2332033024	32	6207
2026-01-28 02:59:57.41	257.56	60.00	-30.0	-30.6	28.3	0.00e+00	0	33	0	2337275904	32	6136
2026-01-28 02:59:58.42	258.48	59.98	-29.9	-30.5	28.3	0.00e+00	0	33	0	2342518784	32	6100
2026-01-28 02:59:59.43	259.40	59.96	-29.7	-30.3	28.5	0.00e+00	0	33	0	2348810240	32	5954
2026-01-28 03:00:00.44	260.31	59.92	-29.7	-30.3	28.1	0.00e+00	0	33	0	2354053120	32	5907
2026-01-28 03:00:01.45	261.23	59.88	-30.0	-30.6	28.1	0.00e+00	0	33	0	2360344576	32	6134
2026-01-28 03:00:02.46	262.14	59.84	-29.9	-30.5	28.2	0.00e+00	0	33	0	2365587456	32	6051
2026-01-28 03:00:03.47	263.04	59.79	-30.0	-30.6	28.1	0.00e+00	0	33	0	2370830336	32	6120
2026-01-28 03:00:04.48	263.94	59.73	-30.1	-30.7	28.1	0.00e+00	0	33	0	2377121792	32	6192
2026-01-28 03:00:05.49	264.84	59.66	-30.1	-30.7	28.2	0.00e+00	0	33	0	2382364672	32	6212
2026-01-28 03:00:06.50	265.73	59.59	-29.9	-30.5	28.2	0.00e+00	0	33	0	2388656128	32	6056
2026-01-28 03:00:07.51	266.62	59.52	-29.9	-30.5	28.3	0.00e+00	0	33	0	2393899008	32	6078
2026-01-28 03:00:08.52	267.51	59.43	-29.8	-30.4	28.5	0.00e+00	0	33	0	2400190464	32	5982
2026-01-28 03:00:09.53	268.38	59.34	-29.8	-30.5	28.4	0.00e+00	0	33	0	2405433344	32	6086
2026-01-28 03:00:10.54	269.25	59.25	-30.0	-30.7	28.2	0.00e+00	0	33	0	2410676224	32	6178
2026-01-28 03:00:11.55	270.12	59.15	-30.1	-30.7	28.0	0.00e+00	0	33	0	2416967680	32	6230
2026-01-28 03:00:12.56	270.97	59.04	-30.1	-30.7	28.2	0.00e+00	0	33	0	2422210560	32	6212
2026-01-28 03:00:13.57	271.82	58.93	-30.4	-31.0	28.0	0.00e+00	0	33	0	2428502016	32	6425
2026-01-28 03:00:14.58	272.67	58.82	-30.5	-31.1	27.9	0.00e+00	0	33	0	2433744896	32	6539
2026-01-28 03:00:15.59	273.50	58.69	-30.3	-31.0	28.0	0.00e+00	0	33	0	2438987776	32	6402
2026-01-28 03:00:16.60	274.33	58.57	-30.1	-30.7	28.2	0.00e+00	0	33	0	2445279232	32	6240
2026-01-28 03:00:17.61	275.15	58.43	-30.3	-30.9	28.0	0.00e+00	0	33	0	2450522112	32	6343
2026-01-28 03:00:18.62	275.96	58.29	-30.5	-31.0	27.9	0.00e+00	0	33	0	2456813568	32	6464
2026-01-28 03:00:19.63	276.77	58.15	-30.3	-30.9	28.1	0.00e+00	0	33	0	2462056448	32	6361
2026-01-28 03:00:20.64	277.56	58.00	-30.4	-31.0	28.0	0.00e+00	0	33	0	2468347904	32	6412
2026-01-28 03:00:21.65	278.35	57.85	-30.7	-31.3	27.7	0.00e+00	0	33	0	2473590784	32	6685
2026-01-28 03:00:22.66	279.12	57.70	-30.7	-31.4	27.8	0.00e+00	0	33	0	2478833664	34	6003
2026-01-28 03:00:23.67	279.89	57.53	-30.4	-31.0	28.0	0.00e+00	0	33	0	2485125120	34	5745
2026-01-28 03:00:24.68	280.65	57.37	-30.4	-31.0	28.0	0.00e+00	0	33	0	2490368000	34	5731
2026-01-28 03:00:25.69	281.40	57.20	-30.3	-31.0	28.0	0.00e+00	0	33	0	2496659456	34	5727
2026-01-28 03:00:26.70	282.14	57.03	-30.7	-31.3	27.7	0.00e+00	0	33	0	2501902336	34	5944
2026-01-28 03:00:27.71	282.87	56.85	-30.9	-31.6	27.6	0.00e+00	0	33	0	2508193792	34	6147
2026-01-28 03:00:28.72	283.59	56.67	-30.7	-31.2	27.7	0.00e+00	0	33	0	2513436672	34	5894
2026-01-28 03:00:29.72	284.29	56.48	-30.6	-31.1	27.8	0.00e+00	0	33	0	2518679552	34	5799
2026-01-28 03:00:30.73	285.00	56.30	-30.9	-31.6	27.5	0.00e+00	0	33	0	2524971008	34	6138
2026-01-28 03:00:31.74	285.69	56.10	-31.3	-31.8	27.3	0.00e+00	0	33	0	2530213888	34	6316
2026-01-28 03:00:32.75	286.37	55.91	-30.7	-31.4	27.7	0.00e+00	0	33	0	2536505344	34	5990
2026-01-28 03:00:33.76	287.04	55.71	-30.6	-31.3	27.8	0.00e+00	0	33	0	2541748224	34	5906
2026-01-28 03:00:34.77	287.71	55.51	-30.7	-31.2	27.7	0.00e+00	0	33	0	2546991104	34	5893
2026-01-28 03:00:35.78	288.36	55.31	-30.7	-31.3	27.6	0.00e+00	0	33	0	2553282560	34	5956
2026-01-28 03:00:36.79	289.01	55.10	-30.5	-31.1	27.9	0.00e+00	0	33	0	2558525440	34	5791
2026-01-28 03:00:37.80	289.64	54.89	-30.5	-31.1	28.0	0.00e+00	0	33	0	2564816896	34	5795
2026-01-28 03:00:38.81	290.27	54.68	-30.5	-31.1	27.8	0.00e+00	0	33	0	2570059776	34	5798
2026-01-28 03:00:39.82	290.89	54.46	-30.7	-31.3	27.6	0.00e+00	0	33	0	2575302656	34	5963
2026-01-28 03:00:40.83	291.50	54.25	-30.9	-31.5	27.6	0.00e+00	0	33	0	2581594112	34	6103
2026-01-28 03:00:41.84	292.10	54.03	-30.8	-31.4	27.6	0.00e+00	0	33	0	2586836992	34	6026
2026-01-28 03:00:42.85	292.69	53.81	-30.6	-31.2	27.9	0.00e+00	0	33	0	2593128448	34	5875
2026-01-28 03:00:43.86	293.27	53.58	-30.5	-31.1	27.9	0.00e+00	0	33	0	2598371328	34	5766
2026-01-28 03:00:44.87	293.84	53.36	-30.7	-31.3	27.8	0.00e+00	0	33	0	2604662784	34	5954
2026-01-28 03:00:45.88	294.40	53.13	-30.8	-31.4	27.7	0.00e+00	0	33	0	2609905664	34	6008
2026-01-28 03:00:46.88	294.95	52.91	-30.8	-31.5	27.6	0.00e+00	0	33	0	2615148544	34	6072
2026-01-28 03:00:47.89	295.50	52.68	-30.6	-31.2	27.8	0.00e+00	0	33	0	2621440000	34	5884
2026-01-28 03:00:48.91	296.04	52.44	-30.5	-31.1	27.9	0.00e+00	0	33	0	2626682880	34	5806
2026-01-28 03:00:49.92	296.57	52.21	-30.4	-31.0	27.9	0.00e+00	0	33	0	2632974336	34	5706
2026-01-28 03:00:50.93	297.09	51.98	-30.6	-31.2	27.8	0.00e+00	0	33	0	2638217216	34	5874
2026-01-28 03:00:51.94	297.61	51.74	-30.7	-31.2	27.8	0.00e+00	0	33	0	2643460096	34	5883
2026-01-28 03:00:52.95	298.11	51.50	-30.6	-31.3	27.9	0.00e+00	0	33	0	2649751552	34	5918
2026-01-28 03:00:53.96	298.61	51.27	-30.2	-30.7	28.1	0.00e+00	0	33	0	2654994432	34	5539
2026-01-28 03:00:54.97	299.10	51.03	-30.2	-30.7	28.2	0.00e+00	0	33	0	2661285888	34	5562
2026-01-28 03:00:55.98	299.58	50.79	-30.2	-30.9	28.2	0.00e+00	0	33	0	2666528768	34	5651
2026-01-28 03:00:56.99	300.06	50.55	-30.2	-30.9	28.1	0.00e+00	0	33	0	2671771648	34	5640
2026-01-28 03:00:58.00	300.52	50.31	-30.3	-31.0	28.0	0.00e+00	0	33	0	2678063104	34	5721
2026-01-28 03:00:59.01	300.98	50.07	-30.3	-30.9	28.1	0.00e+00	0	33	0	2683305984	34	5665
2026-01-28 03:01:00.02	301.43	49.82	-30.0	-30.7	28.1	0.00e+00	0	33	0	2689597440	34	5544
2026-01-28 03:01:01.02	301.88	49.58	-30.0	-30.7	28.2	0.00e+00	0	33	0	2694840320	34	5541
2026-01-28 03:01:02.03	302.31	49.34	-29.9	-30.5	28.3	0.00e+00	0	33	0	2701131776	34	5410
2026-01-28 03:01:03.04	302.75	49.10	-29.9	-30.5	28.3	0.00e+00	0	33	0	2706374656	34	5384
2026-01-28 03:01:04.05	303.17	48.85	-29.9	-30.6	28.2	0.00e+00	0	33	0	2712666112	34	5494
2026-01-28 03:01:05.06	303.59	48.61	-30.0	-30.5	28.2	0.00e+00	0	33	0	2717908992	34	5406
2026-01-28 03:01:06.07	304.00	48.36	-30.0	-30.7	28.3	0.00e+00	0	33	0	2723151872	34	5528
2026-01-28 03:01:07.08	304.41	48.12	-30.1	-30.6	28.2	0.00e+00	0	33	0	2729443328	34	5499
2026-01-28 03:01:08.09	304.80	47.87	-29.9	-30.5	28.3	0.00e+00	0	33	0	2734686208	34	5379
2026-01-28 03:01:09.10	305.20	47.63	-29.7	-30.4	28.4	0.00e+00	0	33	0	2740977664	32	5995
2026-01-28 03:01:10.11	305.58	47.38	-29.5	-30.0	28.6	0.00e+00	0	33	0	2746220544	32	5751
2026-01-28 03:01:11.13	305.97	47.14	-29.6	-30.1	28.5	0.00e+00	0	33	0	2751463424	32	5809
2026-01-28 03:01:12.13	306.34	46.90	-29.6	-30.3	28.5	0.00e+00	0	33	0	2757754880	32	5943
2026-01-28 03:01:13.15	306.71	46.65	-29.7	-30.2	28.5	0.00e+00	0	33	0	2762997760	32	5864
2026-01-28 03:01:14.16	307.08	46.41	-29.7	-30.3	28.3	0.00e+00	0	33	0	2769289216	32	5923
2026-01-28 03:01:15.17	307.43	46.16	-29.8	-30.5	28.3	0.00e+00	0	33	0	2774532096	32	6085
2026-01-28 03:01:16.18	307.79	45.92	-29.9	-30.5	28.2	0.00e+00	0	33	0	2779774976	32	6049
2026-01-28 03:01:17.19	308.13	45.67	-29.9	-30.6	28.3	0.00e+00	0	33	0	2786066432	32	6139
2026-01-28 03:01:18.20	308.47	45.43	-29.9	-30.5	28.3	0.00e+00	0	33	0	2791309312	32	6081
2026-01-28 03:01:19.21	308.81	45.19	-29.9	-30.6	28.1	0.00e+00	0	33	0	2797600768	32	6131
2026-01-28 03:01:20.22	309.14	44.95	-29.9	-30.5	28.0	0.00e+00	0	33	0	2802843648	32	6059
2026-01-28 03:01:21.23	309.47	44.71	-30.0	-30.7	28.0	0.00e+00	0	33	0	2809135104	32	6211
2026-01-28 03:01:22.24	309.79	44.46	-30.2	-30.7	27.7	0.00e+00	0	33	0	2814377984	32	6227
2026-01-28 03:01:23.25	310.11	44.22	-30.3	-30.9	28.0	0.00e+00	0	33	0	2820669440	32	6380
2026-01-28 03:01:24.26	310.42	43.98	-30.1	-30.8	28.2	0.00e+00	0	33	0	2825912320	32	6254
2026-01-28 03:01:25.27	310.73	43.74	-29.8	-30.4	28.3	0.00e+00	0	33	0	2831155200	32	6026
2026-01-28 03:01:26.28	311.03	43.51	-29.5	-30.0	28.5	0.00e+00	0	33	0	2837446656	32	5750
2026-01-28 03:01:27.29	311.33	43.27	-29.6	-30.2	28.6	0.00e+00	0	33	0	2842689536	32	5838
2026-01-28 03:01:28.30	311.63	43.03	-29.6	-30.2	28.5	0.00e+00	0	33	0	2848980992	32	5860
2026-01-28 03:01:29.31	311.92	42.79	-29.8	-30.3	28.5	0.00e+00	0	33	0	2854223872	32	5959
2026-01-28 03:01:30.31	312.20	42.56	-29.9	-30.5	28.3	0.00e+00	0	33	0	2859466752	32	6046
2026-01-28 03:01:31.32	312.48	42.32	-29.9	-30.6	28.3	0.00e+00	0	33	0	2865758208	32	6168
2026-01-28 03:01:32.33	312.76	42.09	-29.7	-30.4	28.4	0.00e+00	0	33	0	2871001088	32	5996
2026-01-28 03:01:33.35	313.04	41.85	-29.6	-30.3	28.5	0.00e+00	0	33	0	2877292544	32	5943
2026-01-28 03:01:34.35	313.30	41.62	-29.7	-30.2	28.6	0.00e+00	0	33	0	2882535424	32	5853
2026-01-28 03:01:35.37	313.57	41.39	-29.5	-30.1	28.6	0.00e+00	0	33	0	2887778304	32	5776
2026-01-28 03:01:36.37	313.83	41.16	-29.6	-30.1	28.6	0.00e+00	0	33	0	2894069760	32	5827
2026-01-28 03:01:37.39	314.10	40.93	-29.6	-30.3	28.5	0.00e+00	0	33	0	2899312640	32	5898
2026-01-28 03:01:38.40	314.35	40.70	-29.6	-30.2	28.6	0.00e+00	0	33	0	2905604096	32	5858
2026-01-28 03:01:39.40	314.60	40.47	-29.6	-30.2	28.5	0.00e+00	0	34	0	2910846976	32	5857
2026-01-28 03:01:40.42	314.85	40.24	-29.5	-30.2	28.6	0.00e+00	0	33	0	2917138432	32	5880
2026-01-28 03:01:41.43	315.10	40.01	-29.3	-29.8	28.8	0.00e+00	0	33	0	2922381312	32	5608
2026-01-28 03:01:42.44	315.34	39.79	-29.3	-29.8	28.7	0.00e+00	0	33	0	2927624192	32	5595
2026-01-28 03:01:43.45	315.58	39.56	-29.2	-29.7	28.8	0.00e+00	0	33	0	2933915648	32	5540
2026-01-28 03:01:44.46	315.81	39.34	-29.2	-29.8	28.8	0.00e+00	0	33	0	2939158528	32	5567
2026-01-28 03:01:45.47	316.04	39.11	-29.3	-29.8	28.6	0.00e+00	0	33	0	2945449984	32	5618
2026-01-28 03:01:46.48	316.27	38.89	-29.5	-30.2	28.5	0.00e+00	0	33	0	2950692864	32	5871
2026-01-28 03:01:47.48	316.50	38.67	-29.4	-30.1	28.6	0.00e+00	0	33	0	2955935744	32	5826
2026-01-28 03:01:48.49	316.72	38.45	-29.6	-30.1	28.6	0.00e+00	0	34	0	2962227200	32	5828
2026-01-28 03:01:49.51	316.94	38.23	-29.4	-30.1	28.7	0.00e+00	0	33	0	2967470080	32	5762
2026-01-28 03:01:50.52	317.16	38.01	-29.3	-30.0	28.8	0.00e+00	0	33	0	2973761536	32	5738
2026-01-28 03:01:51.52	317.37	37.79	-29.2	-29.8	28.8	0.00e+00	0	33	0	2979004416	32	5626
2026-01-28 03:01:52.53	317.58	37.58	-29.3	-29.8	28.7	0.00e+00	0	33	0	2984247296	32	5608
2026-01-28 03:01:53.54	317.79	37.36	-29.3	-29.8	28.7	0.00e+00	0	33	0	2990538752	32	5613
2026-01-28 03:01:54.55	318.00	37.15	-29.3	-29.8	28.7	0.00e+00	0	33	0	2995781632	32	5592
2026-01-28 03:01:55.56	318.20	36.93	-29.3	-29.8	28.7	0.00e+00	0	33	0	3002073088	32	5601
2026-01-28 03:01:56.57	318.40	36.72	-29.4	-29.9	28.8	0.00e+00	0	33	0	3007315968	32	5674
2026-01-28 03:01:57.58	318.60	36.51	-29.4	-30.0	28.7	0.00e+00	0	33	0	3013607424	32	5722
2026-01-28 03:01:58.60	318.80	36.30	-29.4	-30.1	28.6	0.00e+00	0	33	0	3018850304	32	5805
2026-01-28 03:01:59.61	318.99	36.09	-29.3	-30.0	28.7	0.00e+00	0	33	0	3025141760	32	5745
2026-01-28 03:02:00.62	319.18	35.88	-29.4	-30.1	28.7	0.00e+00	0	33	0	3030384640	32	5782
2026-01-28 03:02:01.63	319.37	35.67	-29.5	-30.1	28.6	0.00e+00	0	33	0	3035627520	32	5767
2026-01-28 03:02:02.64	319.56	35.46	-29.4	-30.1	28.6	0.00e+00	0	33	0	3041918976	32	5771
2026-01-28 03:02:03.65	319.74	35.26	-29.4	-30.1	28.8	0.00e+00	0	33	0	3047161856	32	5784
2026-01-28 03:02:04.66	319.92	35.05	-29.3	-30.0	28.7	0.00e+00	0	33	0	3053453312	32	5710
2026-01-28 03:02:05.67	320.10	34.85	-29.3	-30.0	28.8	0.00e+00	0	33	0	3058696192	32	5718
2026-01-28 03:02:06.68	320.28	34.65	-29.4	-30.0	28.7	0.00e+00	0	33	0	3063939072	32	5705
2026-01-28 03:02:07.69	320.45	34.45	-29.4	-29.9	28.7	0.00e+00	0	33	0	3070230528	32	5687
2026-01-28 03:02:08.70	320.63	34.25	-29.5	-30.1	28.6	0.00e+00	0	33	0	3075473408	32	5788
2026-01-28 03:02:09.71	320.80	34.05	-29.6	-30.1	28.6	0.00e+00	0	33	0	3081764864	32	5791
2026-01-28 03:02:10.72	320.97	33.85	-29.5	-30.0	28.4	0.00e+00	0	33	0	3087007744	32	5746
2026-01-28 03:02:11.73	321.14	33.65	-29.5	-30.0	28.6	0.00e+00	0	33	0	3092250624	32	5752
2026-01-28 03:02:12.74	321.30	33.46	-29.4	-30.1	28.6	0.00e+00	0	33	0	3098542080	32	5786
2026-01-28 03:02:13.75	321.46	33.26	-29.5	-30.1	28.6	0.00e+00	0	33	0	3103784960	32	5776
2026-01-28 03:02:14.76	321.62	33.07	-29.4	-30.1	28.6	0.00e+00	0	33	0	3110076416	32	5771
2026-01-28 03:02:15.77	321.78	32.87	-29.5	-30.0	28.6	0.00e+00	0	33	0	3115319296	32	5728
2026-01-28 03:02:16.78	321.94	32.68	-29.6	-30.1	28.5	0.00e+00	0	33	0	3121610752	32	5805
2026-01-28 03:02:17.79	322.10	32.49	-29.6	-30.1	28.5	0.00e+00	0	33	0	3126853632	32	5800
2026-01-28 03:02:18.80	322.25	32.30	-29.7	-30.2	28.5	0.00e+00	0	33	0	3133145088	32	5863
2026-01-28 03:02:19.81	322.40	32.11	-29.5	-30.2	28.5	0.00e+00	0	33	0	3138387968	32	5863
2026-01-28 03:02:20.82	322.55	31.92	-29.5	-30.2	28.5	0.00e+00	0	33	0	3143630848	32	5863
2026-01-28 03:02:21.83	322.70	31.73	-29.6	-30.2	28.5	0.00e+00	0	33	0	3149922304	32	5846
2026-01-28 03:02:22.84	322.85	31.55	-29.5	-30.1	28.6	0.00e+00	0	33	0	3155165184	32	5762
2026-01-28 03:02:23.85	323.00	31.36	-29.5	-30.0	28.6	0.00e+00	0	33	0	3161456640	32	5755
2026-01-28 03:02:24.86	323.14	31.18	-29.6	-30.1	28.5	0.00e+00	0	33	0	3166699520	32	5799
2026-01-28 03:02:25.87	323.28	30.99	-29.6	-30.2	28.4	0.00e+00	0	33	0	3171942400	32	5851
2026-01-28 03:02:26.88	323.42	30.81	-29.8	-30.3	28.4	0.00e+00	0	33	0	3178233856	32	5927
2026-01-28 03:02:27.90	323.57	30.63	-29.8	-30.4	28.3	0.00e+00	0	33	0	3183476736	32	5967
2026-01-28 03:02:28.91	323.70	30.45	-29.9	-30.4	28.2	0.00e+00	0	33	0	3189768192	32	6018
2026-01-28 03:02:29.92	323.84	30.27	-30.0	-30.7	28.1	0.00e+00	0	33	0	3195011072	32	6205
2026-01-28 03:02:30.92	323.97	30.09	-30.0	-30.6	28.2	0.00e+00	0	33	0	3200253952	32	6173
2026-01-28 03:02:31.94	324.11	29.91	-30.0	-30.6	28.1	0.00e+00	0	33	0	3206545408	32	6113
2026-01-28 03:02:32.94	324.24	29.74	-29.8	-30.3	28.3	0.00e+00	0	33	0	3211788288	32	5960
2026-01-28 03:02:33.96	324.37	29.56	-29.9	-30.5	28.2	0.00e+00	0	33	0	3218079744	32	6039
2026-01-28 03:02:34.97	324.50	29.39	-29.9	-30.6	28.2	0.00e+00	0	33	0	3223322624	32	6143
2026-01-28 03:02:35.97	324.63	29.21	-30.1	-30.8	28.0	0.00e+00	0	33	0	3229614080	32	6285
2026-01-28 03:02:36.99	324.75	29.04	-29.8	-30.5	28.2	0.00e+00	0	33	0	3234856960	32	6087
2026-01-28 03:02:38.00	324.88	28.87	-29.7	-30.2	28.4	0.00e+00	0	33	0	3241148416	32	5894
2026-01-28 03:02:39.01	325.00	28.70	-29.6	-30.3	28.4	0.00e+00	0	33	0	3246391296	32	5955
2026-01-28 03:02:40.01	325.13	28.53	-29.8	-30.5	28.4	0.00e+00	0	33	0	3251634176	32	6056
2026-01-28 03:02:41.02	325.25	28.36	-29.8	-30.5	28.3	0.00e+00	0	34	0	3257925632	32	6043
2026-01-28 03:02:42.03	325.37	28.19	-29.6	-30.3	28.4	0.00e+00	0	34	0	3263168512	32	5952
2026-01-28 03:02:43.04	325.49	28.02	-29.6	-30.1	28.5	0.00e+00	0	34	0	3269459968	32	5795
2026-01-28 03:02:44.05	325.60	27.86	-29.7	-30.2	28.4	0.00e+00	0	33	0	3274702848	32	5885
2026-01-28 03:02:45.06	325.72	27.69	-29.7	-30.4	28.4	0.00e+00	0	34	0	3279945728	32	6003
2026-01-28 03:02:46.07	325.84	27.53	-30.0	-30.6	28.2	0.00e+00	0	33	0	3286237184	32	6173
2026-01-28 03:02:47.08	325.95	27.36	-29.7	-30.2	28.4	0.00e+00	0	33	0	3291480064	32	5867
2026-01-28 03:02:48.09	326.07	27.20	-29.8	-30.3	28.3	0.00e+00	0	33	0	3296722944	32	5926
2026-01-28 03:02:49.10	326.18	27.04	-29.8	-30.3	28.3	0.00e+00	0	33	0	3303014400	32	5964
2026-01-28 03:02:50.11	326.29	26.87	-30.0	-30.6	28.2	0.00e+00	0	33	0	3308257280	32	6106
2026-01-28 03:02:51.12	326.40	26.71	-29.9	-30.5	28.2	0.00e+00	0	33	0	3314548736	32	6051
2026-01-28 03:02:52.13	326.51	26.55	-30.0	-30.5	28.2	0.00e+00	0	33	0	3319791616	32	6076
2026-01-28 03:02:53.14	326.62	26.40	-30.0	-30.7	28.2	0.00e+00	0	33	0	3326083072	32	6194
2026-01-28 03:02:54.15	326.72	26.24	-30.2	-30.8	28.0	0.00e+00	0	33	0	3331325952	32	6266
2026-01-28 03:02:55.16	326.83	26.08	-30.0	-30.6	28.1	0.00e+00	0	33	0	3337617408	32	6171
2026-01-28 03:02:56.18	326.93	25.92	-30.1	-30.7	28.0	0.00e+00	0	33	0	3342860288	32	6198
2026-01-28 03:02:57.19	327.04	25.77	-30.1	-30.8	28.0	0.00e+00	0	33	0	3348103168	32	6254
2026-01-28 03:02:58.20	327.14	25.61	-30.0	-30.5	28.1	0.00e+00	0	33	0	3354394624	32	6094
2026-01-28 03:02:59.21	327.24	25.46	-29.9	-30.6	28.2	0.00e+00	0	33	0	3359637504	32	6160
2026-01-28 03:03:00.22	327.35	25.31	-29.9	-30.6	28.2	0.00e+00	0	33	0	3365928960	32	6145
2026-01-28 03:03:01.23	327.45	25.15	-29.9	-30.6	28.2	0.00e+00	0	33	0	3371171840	32	6120
2026-01-28 03:03:02.24	327.54	25.00	-29.9	-30.6	28.2	0.00e+00	0	33	0	3376414720	32	6160
2026-01-28 03:03:03.25	327.64	24.85	-30.0	-30.6	28.1	0.00e+00	0	33	0	3382706176	32	6167
2026-01-28 03:03:04.26	327.74	24.70	-30.0	-30.7	28.1	0.00e+00	0	33	0	3387949056	32	6219
2026-01-28 03:03:05.27	327.84	24.55	-30.0	-30.7	28.0	0.00e+00	0	33	0	3394240512	32	6212
2026-01-28 03:03:06.28	327.93	24.40	-30.3	-30.8	27.9	0.00e+00	0	34	0	3399483392	32	6293
2026-01-28 03:03:07.29	328.03	24.26	-30.3	-30.8	27.9	0.00e+00	0	33	0	3405774848	32	6297
2026-01-28 03:03:08.30	328.12	24.11	-30.4	-31.0	27.7	0.00e+00	0	33	0	3411017728	32	6396
2026-01-28 03:03:09.31	328.21	23.96	-30.3	-31.0	27.9	0.00e+00	0	33	0	3416260608	32	6440
2026-01-28 03:03:10.32	328.31	23.82	-30.5	-31.2	27.8	0.00e+00	0	34	0	3422552064	32	6581
2026-01-28 03:03:11.33	328.40	23.67	-30.4	-31.1	27.8	0.00e+00	0	33	0	3427794944	32	6518
2026-01-28 03:03:12.34	328.49	23.53	-30.5	-31.0	27.8	0.00e+00	0	33	0	3434086400	32	6439
2026-01-28 03:03:13.35	328.58	23.39	-30.5	-31.1	27.7	0.00e+00	0	33	0	3439329280	32	6486
2026-01-28 03:03:14.36	328.67	23.24	-30.5	-31.0	27.8	0.00e+00	0	33	0	3445620736	32	6454
2026-01-28 03:03:15.37	328.76	23.10	-30.6	-31.1	27.7	0.00e+00	0	33	0	3450863616	32	6518
2026-01-28 03:03:16.38	328.84	22.96	-30.5	-31.1	27.7	0.00e+00	0	34	0	3456106496	32	6506
2026-01-28 03:03:17.39	328.93	22.82	-30.6	-31.2	27.7	0.00e+00	0	33	0	3462397952	32	6558
2026-01-28 03:03:18.40	329.02	22.68	-30.5	-31.0	27.8	0.00e+00	0	33	0	3467640832	32	6441
2026-01-28 03:03:19.41	329.10	22.54	-30.6	-31.2	27.7	0.00e+00	0	33	0	3473932288	32	6556
2026-01-28 03:03:20.42	329.19	22.40	-30.5	-31.1	27.8	0.00e+00	0	33	0	3479175168	32	6465
2026-01-28 03:03:21.43	329.27	22.27	-30.5	-31.1	27.7	0.00e+00	0	33	0	3484418048	32	6475
2026-01-28 03:03:22.44	329.36	22.13	-30.5	-31.1	27.7	0.00e+00	0	33	0	3490709504	32	6490
2026-01-28 03:03:23.45	329.44	21.99	-30.5	-31.1	27.8	0.00e+00	0	33	0	3495952384	32	6507
2026-01-28 03:03:24.46	329.52	21.86	-30.6	-31.2	27.7	0.00e+00	0	34	0	3502243840	32	6576
2026-01-28 03:03:25.47	329.60	21.72	-30.6	-31.2	27.6	0.00e+00	0	33	0	3507486720	32	6567
2026-01-28 03:03:26.48	329.68	21.59	-30.7	-31.2	27.6	0.00e+00	0	33	0	3512729600	32	6595
2026-01-28 03:03:27.49	329.76	21.46	-30.7	-31.2	27.6	0.00e+00	0	33	0	3519021056	32	6596
2026-01-28 03:03:28.50	329.84	21.32	-30.8	-31.4	27.5	0.00e+00	0	33	0	3524263936	34	5990
2026-01-28 03:03:29.51	329.92	21.19	-30.9	-31.5	27.4	0.00e+00	0	33	0	3530555392	34	6039
2026-01-28 03:03:30.52	330.00	21.06	-30.8	-31.5	27.5	0.00e+00	0	33	0	3535798272	34	6066
2026-01-28 03:03:31.53	330.08	20.93	-30.9	-31.6	27.3	0.00e+00	0	33	0	3542089728	34	6129
2026-01-28 03:03:32.54	330.15	20.80	-30.8	-31.4	27.5	0.00e+00	0	33	0	3547332608	34	5973
2026-01-28 03:03:33.55	330.23	20.67	-30.9	-31.5	27.4	0.00e+00	0	33	0	3553624064	34	6035
2026-01-28 03:03:34.56	330.30	20.54	-31.0	-31.6	27.3	0.00e+00	0	33	0	3558866944	34	6116
2026-01-28 03:03:35.57	330.38	20.41	-31.0	-31.6	27.3	0.00e+00	0	33	0	3564109824	34	6133
2026-01-28 03:03:36.58	330.45	20.28	-31.1	-31.7	27.2	0.00e+00	0	33	0	3570401280	34	6199
2026-01-28 03:03:37.59	330.53	20.16	-31.1	-31.7	27.2	0.00e+00	0	33	0	3575644160	34	6180
2026-01-28 03:03:38.60	330.60	20.03	-31.1	-31.7	27.2	0.00e+00	0	33	0	3581935616	34	6218
2026-01-28 03:03:39.61	330.67	19.90	-31.0	-31.6	27.3	0.00e+00	0	33	0	3587178496	34	6128
2026-01-28 03:03:40.62	330.75	19.78	-31.2	-31.8	27.2	0.00e+00	0	34	0	3592421376	34	6268
2026-01-28 03:03:41.63	330.82	19.65	-31.2	-31.7	27.2	0.00e+00	0	33	0	3598712832	34	6244
2026-01-28 03:03:42.64	330.89	19.53	-31.2	-31.8	27.2	0.00e+00	0	33	0	3603955712	34	6254
2026-01-28 03:03:43.65	330.96	19.40	-31.2	-31.8	27.1	0.00e+00	0	33	0	3610247168	34	6287
2026-01-28 03:03:44.66	331.03	19.28	-31.2	-31.8	27.1	0.00e+00	0	33	0	3615490048	34	6270
