passes_logs/2026/01/28/R4.6S_Anadyr/R4.6S_Anadyr__20260128_214753_NOAA_21_JPSS-2_rec.log

#Pass ID: 20260128_214753_NOAA 21 (JPSS-2)
#Satellite: NOAA 21 (JPSS-2)
#Configuration: NOAA-21
#almurnet v.1.7.20251203
#Start time: 2026-01-28 21:47:57

#Version: 2.2.20231116
#Station: R4.6S_Anadyr
#Location: 177.4865 lon 64.73178 lat
#TLE: 1 54234U 22150A   26027.77052245  .00000166  00000+0  99439-4 0  9997
#TLE: 2 54234  98.7510 328.5165 0000872 203.6403 156.4733 14.19540252166628

#Time	Az	El	Level	Level2	SNR	BER	BlckErr	Temp	State	Recorded	gain1	gain2
2026-01-28 21:47:57.14	98.33	0.18	-48.9	-60.2	3.3	1.54e+00	0	29	0	0	60	35907
2026-01-28 21:47:58.14	98.27	0.23	-48.8	-61.8	3.5	1.52e+00	0	29	104	0	60	43002
2026-01-28 21:47:59.15	98.22	0.29	-48.9	-61.7	3.5	1.52e+00	0	29	104	0	60	42926
2026-01-28 21:48:00.16	98.16	0.34	-48.8	-61.7	3.5	1.52e+00	0	29	104	0	60	42545
2026-01-28 21:48:01.17	98.11	0.40	-48.8	-61.7	3.5	1.52e+00	0	29	104	0	60	42654
2026-01-28 21:48:02.18	98.05	0.45	-48.9	-61.8	3.5	1.52e+00	0	29	104	0	60	43075
2026-01-28 21:48:03.19	97.99	0.51	-48.9	-61.7	3.5	1.52e+00	0	29	104	0	60	42898
2026-01-28 21:48:04.20	97.93	0.57	-48.9	-61.7	3.5	1.52e+00	0	29	104	0	60	42865
2026-01-28 21:48:05.21	97.88	0.62	-48.9	-61.7	3.5	1.52e+00	0	29	104	0	60	42870
2026-01-28 21:48:06.22	97.82	0.68	-48.9	-61.8	3.5	1.52e+00	0	30	104	0	60	43067
2026-01-28 21:48:07.23	97.76	0.73	-48.9	-61.8	3.5	1.52e+00	0	29	104	0	60	43043
2026-01-28 21:48:08.24	97.70	0.79	-48.9	-61.8	3.5	1.52e+00	0	30	104	0	60	43080
2026-01-28 21:48:09.25	97.65	0.84	-48.6	-61.8	3.5	1.52e+00	0	30	104	0	60	43028
2026-01-28 21:48:10.26	97.59	0.90	-48.9	-61.8	3.5	1.52e+00	0	30	104	0	60	43117
2026-01-28 21:48:11.27	97.53	0.96	-48.8	-61.7	3.5	1.52e+00	0	30	104	0	60	42868
2026-01-28 21:48:12.28	97.47	1.01	-48.8	-61.7	3.5	1.52e+00	0	30	104	0	60	42450
2026-01-28 21:48:13.29	97.41	1.07	-48.3	-61.6	3.5	1.51e+00	0	30	104	0	60	42166
2026-01-28 21:48:14.30	97.35	1.12	-48.1	-61.5	3.5	1.52e+00	0	30	104	0	60	41915
2026-01-28 21:48:15.31	97.29	1.18	-48.5	-61.5	3.5	1.52e+00	0	30	104	0	60	41719
2026-01-28 21:48:16.32	97.23	1.24	-48.5	-61.4	3.5	1.52e+00	0	30	104	0	60	41269
2026-01-28 21:48:17.33	97.17	1.29	-48.2	-61.3	3.5	1.52e+00	0	30	104	0	60	40777
2026-01-28 21:48:18.34	97.11	1.35	-47.7	-61.1	3.5	1.52e+00	0	30	104	0	60	39900
2026-01-28 21:48:19.35	97.05	1.41	-47.4	-60.6	3.5	1.52e+00	0	30	104	0	60	37590
2026-01-28 21:48:20.36	96.99	1.46	-47.1	-60.0	3.5	1.52e+00	0	30	104	0	60	35138
2026-01-28 21:48:21.37	96.93	1.52	-47.1	-60.0	3.5	1.52e+00	0	30	104	0	60	35000
2026-01-28 21:48:22.38	96.87	1.58	-47.2	-60.0	3.5	1.52e+00	0	30	104	0	60	35141
2026-01-28 21:48:23.39	96.80	1.63	-47.1	-59.9	3.5	1.52e+00	0	30	104	0	60	34668
2026-01-28 21:48:24.40	96.74	1.69	-47.1	-60.0	3.5	1.52e+00	0	30	104	0	60	35195
2026-01-28 21:48:25.41	96.68	1.75	-47.1	-60.0	3.5	1.52e+00	0	30	104	0	60	35134
2026-01-28 21:48:26.42	96.62	1.81	-47.1	-60.1	3.5	1.52e+00	0	30	104	0	60	35431
2026-01-28 21:48:27.43	96.56	1.86	-47.1	-60.1	3.5	1.52e+00	0	30	104	0	60	35484
2026-01-28 21:48:28.43	96.49	1.92	-47.1	-60.0	3.5	1.52e+00	0	30	104	0	60	35245
2026-01-28 21:48:29.44	96.43	1.98	-47.1	-60.0	3.5	1.51e+00	0	30	104	0	60	35124
2026-01-28 21:48:30.45	96.37	2.03	-47.1	-60.0	3.5	1.52e+00	0	30	104	0	60	35219
2026-01-28 21:48:31.46	96.30	2.09	-47.1	-60.0	3.5	1.51e+00	0	30	104	0	60	35160
2026-01-28 21:48:32.47	96.24	2.15	-47.1	-60.0	3.5	1.52e+00	0	30	104	0	60	35101
2026-01-28 21:48:33.48	96.17	2.21	-47.1	-59.9	3.5	1.52e+00	0	30	104	0	60	34653
2026-01-28 21:48:34.49	96.11	2.27	-47.1	-59.9	3.5	1.52e+00	0	30	104	0	60	34879
2026-01-28 21:48:35.50	96.05	2.32	-47.1	-60.0	3.5	1.52e+00	0	30	104	0	60	35085
2026-01-28 21:48:36.51	95.98	2.38	-47.1	-60.1	3.5	1.52e+00	0	30	104	0	60	35394
2026-01-28 21:48:37.52	95.92	2.44	-47.1	-60.0	3.5	1.52e+00	0	30	104	0	60	35154
2026-01-28 21:48:38.53	95.85	2.50	-47.1	-59.9	3.5	1.52e+00	0	30	104	0	60	34835
2026-01-28 21:48:39.54	95.78	2.56	-47.1	-60.0	3.5	1.52e+00	0	30	104	0	60	35212
2026-01-28 21:48:40.55	95.72	2.61	-47.0	-60.1	3.5	1.52e+00	0	30	104	0	60	35383
2026-01-28 21:48:41.56	95.65	2.67	-47.1	-60.0	3.5	1.52e+00	0	30	104	0	60	35279
2026-01-28 21:48:42.57	95.59	2.73	-47.1	-59.8	3.5	1.52e+00	0	30	104	0	60	34146
2026-01-28 21:48:43.58	95.52	2.79	-47.1	-59.4	3.5	1.52e+00	0	30	104	0	60	32596
2026-01-28 21:48:44.59	95.45	2.85	-47.0	-59.2	3.5	1.51e+00	0	30	104	0	60	32140
2026-01-28 21:48:45.60	95.38	2.91	-47.1	-59.5	3.5	1.51e+00	0	30	104	0	60	33301
2026-01-28 21:48:46.62	95.32	2.97	-47.1	-60.0	3.5	1.52e+00	0	30	104	0	60	35285
2026-01-28 21:48:47.63	95.25	3.03	-47.0	-58.5	3.5	1.51e+00	0	30	104	0	60	29698
2026-01-28 21:48:48.64	95.18	3.09	-46.4	-53.5	5.8	6.33e-01	122	30	0	0	60	16538
2026-01-28 21:48:49.65	95.11	3.14	-45.0	-49.0	10.0	2.21e-02	120	30	0	3145728	60	9880
2026-01-28 21:48:50.66	95.04	3.20	-42.7	-45.0	14.3	1.41e-03	123	30	0	6291456	60	6277
2026-01-28 21:48:51.67	94.97	3.26	-41.9	-43.9	15.5	0.00e+00	122	30	0	9437184	56	6933
2026-01-28 21:48:52.68	94.90	3.32	-47.1	-59.7	3.5	3.78e-03	0	30	104	12582912	60	34045
2026-01-28 21:48:53.69	94.83	3.38	-46.8	-58.9	3.6	1.51e+00	0	30	104	12582912	60	31018
2026-01-28 21:48:54.69	94.76	3.44	-41.0	-42.9	13.4	0.00e+00	123	30	0	12582912	54	6900
2026-01-28 21:48:55.70	94.69	3.50	-47.1	-56.8	3.8	7.40e-01	0	30	104	13631488	60	24331
2026-01-28 21:48:56.71	94.62	3.56	-40.7	-42.8	5.2	1.43e+00	0	30	104	13631488	56	6109
2026-01-28 21:48:57.72	94.55	3.62	-41.2	-43.1	16.4	0.00e+00	123	30	0	13631488	56	6304
2026-01-28 21:48:58.73	94.48	3.68	-40.7	-42.5	16.9	0.00e+00	123	30	0	16777216	54	6581
2026-01-28 21:48:59.74	94.41	3.74	-39.2	-40.6	18.9	0.00e+00	122	30	0	19922944	52	5971
2026-01-28 21:49:00.75	94.34	3.80	-39.4	-40.9	18.5	0.00e+00	122	30	0	23068672	52	6142
2026-01-28 21:49:01.76	94.27	3.86	-39.2	-40.6	18.8	0.00e+00	122	30	0	26214400	50	6674
2026-01-28 21:49:02.77	94.19	3.92	-38.9	-40.3	19.0	0.00e+00	122	30	0	29360128	50	6449
2026-01-28 21:49:03.78	94.12	3.98	-38.8	-40.1	19.4	0.00e+00	123	30	0	32505856	50	6334
2026-01-28 21:49:04.79	94.05	4.04	-38.5	-39.8	19.6	0.00e+00	122	30	0	35651584	50	6071
2026-01-28 21:49:05.79	93.97	4.10	-39.0	-40.4	18.9	0.00e+00	123	30	0	38797312	50	6502
2026-01-28 21:49:06.80	93.90	4.16	-39.4	-40.9	18.7	0.00e+00	122	30	0	41943040	50	6891
2026-01-28 21:49:07.81	93.83	4.22	-39.0	-40.4	19.0	0.00e+00	123	30	0	45088768	50	6526
2026-01-28 21:49:08.82	93.75	4.28	-40.2	-41.7	17.6	0.00e+00	123	30	0	48234496	52	6770
2026-01-28 21:49:09.83	93.68	4.35	-40.3	-41.9	17.5	0.00e+00	123	30	0	51380224	52	6893
2026-01-28 21:49:10.84	93.60	4.41	-39.1	-40.4	19.1	0.00e+00	123	30	0	54525952	52	5847
2026-01-28 21:49:11.85	93.53	4.47	-38.7	-40.0	19.3	0.00e+00	122	30	0	57671680	50	6277
2026-01-28 21:49:12.86	93.45	4.53	-38.1	-39.3	20.1	0.00e+00	123	30	0	60817408	50	5757
2026-01-28 21:49:13.86	93.38	4.59	-38.7	-40.0	19.5	0.00e+00	123	30	0	63963136	50	6240
2026-01-28 21:49:14.87	93.30	4.65	-37.9	-39.0	20.4	0.00e+00	123	30	0	67108864	50	5588
2026-01-28 21:49:15.88	93.22	4.71	-37.7	-38.9	20.6	0.00e+00	121	30	0	70254592	48	6141
2026-01-28 21:49:16.89	93.15	4.77	-37.9	-39.0	20.4	0.00e+00	122	30	0	73400320	48	6266
2026-01-28 21:49:17.90	93.07	4.84	-37.3	-38.5	20.9	0.00e+00	123	30	0	76546048	48	5865
2026-01-28 21:49:18.91	92.99	4.90	-38.0	-39.2	20.3	0.00e+00	123	30	0	79691776	48	6356
2026-01-28 21:49:19.92	92.91	4.96	-37.7	-38.9	20.6	0.00e+00	123	30	0	82837504	48	6171
2026-01-28 21:49:20.94	92.83	5.02	-37.7	-38.9	20.5	0.00e+00	123	30	0	85983232	48	6141
2026-01-28 21:49:21.94	92.76	5.08	-37.6	-38.8	20.6	0.00e+00	123	30	0	89128960	48	6101
2026-01-28 21:49:22.95	92.68	5.15	-37.7	-38.9	20.4	0.00e+00	123	30	0	92274688	48	6155
2026-01-28 21:49:23.97	92.60	5.21	-37.9	-39.1	20.5	0.00e+00	122	30	0	95420416	48	6308
2026-01-28 21:49:24.97	92.52	5.27	-37.8	-39.0	20.5	0.00e+00	123	30	0	98566144	48	6216
2026-01-28 21:49:25.98	92.44	5.33	-37.9	-39.1	20.6	0.00e+00	120	30	0	101711872	48	6288
2026-01-28 21:49:26.99	92.36	5.39	-37.5	-38.7	20.8	0.00e+00	123	30	0	104857600	48	5995
2026-01-28 21:49:28.00	92.28	5.46	-37.5	-38.7	20.8	0.00e+00	123	30	0	108003328	48	6018
2026-01-28 21:49:29.01	92.20	5.52	-37.9	-39.1	20.4	0.00e+00	123	30	0	111149056	48	6335
2026-01-28 21:49:30.02	92.11	5.58	-37.6	-38.7	20.8	0.00e+00	120	30	0	114294784	48	6054
2026-01-28 21:49:31.04	92.03	5.65	-37.3	-38.5	21.0	0.00e+00	122	30	0	117440512	48	5872
2026-01-28 21:49:32.05	91.95	5.71	-37.2	-38.3	21.1	0.00e+00	123	30	0	120586240	48	5759
2026-01-28 21:49:33.06	91.87	5.77	-37.4	-38.5	20.9	0.00e+00	122	30	0	123731968	48	5886
2026-01-28 21:49:34.07	91.78	5.84	-37.5	-38.6	20.8	0.00e+00	123	30	0	126877696	48	5981
2026-01-28 21:49:35.08	91.70	5.90	-37.6	-38.8	20.8	0.00e+00	120	30	0	130023424	48	6074
2026-01-28 21:49:36.08	91.62	5.96	-37.5	-38.6	20.8	0.00e+00	123	30	0	133169152	48	5985
2026-01-28 21:49:37.09	91.53	6.03	-37.9	-39.1	20.4	0.00e+00	122	30	0	136314880	48	6307
2026-01-28 21:49:38.10	91.45	6.09	-37.6	-38.8	20.5	0.00e+00	122	30	0	139460608	48	6100
2026-01-28 21:49:39.11	91.36	6.15	-37.8	-38.9	20.5	0.00e+00	123	30	0	142606336	48	6188
2026-01-28 21:49:40.12	91.28	6.22	-37.5	-38.6	20.8	0.00e+00	123	30	0	145752064	48	5982
2026-01-28 21:49:41.13	91.19	6.28	-37.5	-38.6	20.9	0.00e+00	120	30	0	148897792	48	5963
2026-01-28 21:49:42.14	91.11	6.34	-37.4	-38.5	20.9	0.00e+00	121	30	0	152043520	48	5914
2026-01-28 21:49:43.15	91.02	6.41	-37.5	-38.6	20.9	0.00e+00	122	30	0	155189248	48	5963
2026-01-28 21:49:44.16	90.93	6.47	-37.1	-38.2	21.3	0.00e+00	123	30	0	158334976	48	5661
2026-01-28 21:49:45.17	90.85	6.54	-37.1	-38.2	21.3	0.00e+00	123	30	0	161480704	48	5706
2026-01-28 21:49:46.18	90.76	6.60	-37.3	-38.4	21.1	0.00e+00	123	30	0	164626432	48	5822
2026-01-28 21:49:47.19	90.67	6.67	-36.9	-38.0	21.5	0.00e+00	123	30	0	167772160	48	5564
2026-01-28 21:49:48.20	90.58	6.73	-36.8	-37.9	21.6	0.00e+00	120	30	0	170917888	48	5517
2026-01-28 21:49:49.20	90.50	6.79	-36.8	-37.9	21.7	0.00e+00	123	30	0	174063616	48	5483
2026-01-28 21:49:50.21	90.41	6.86	-37.0	-38.1	21.4	0.00e+00	122	30	0	177209344	46	6317
2026-01-28 21:49:51.22	90.32	6.92	-36.8	-37.9	21.5	0.00e+00	122	30	0	180355072	46	6173
2026-01-28 21:49:52.23	90.23	6.99	-36.8	-37.9	21.7	0.00e+00	123	30	0	183500800	46	6146
2026-01-28 21:49:53.24	90.14	7.05	-36.8	-37.9	21.7	0.00e+00	120	30	0	186646528	46	6148
2026-01-28 21:49:54.24	90.05	7.12	-36.8	-37.8	21.7	0.00e+00	123	30	0	189792256	46	6132
2026-01-28 21:49:55.26	89.95	7.18	-37.3	-38.4	21.1	0.00e+00	122	30	0	192937984	46	6537
2026-01-28 21:49:56.27	89.86	7.25	-36.6	-37.7	21.8	0.00e+00	123	30	0	196083712	46	6028
2026-01-28 21:49:57.28	89.77	7.31	-36.4	-37.5	22.0	0.00e+00	122	30	0	199229440	46	5868
2026-01-28 21:49:58.28	89.68	7.38	-36.4	-37.5	22.1	0.00e+00	122	30	0	202375168	46	5862
2026-01-28 21:49:59.29	89.59	7.44	-36.5	-37.5	21.9	0.00e+00	123	30	0	205520896	46	5926
2026-01-28 21:50:00.30	89.49	7.51	-36.4	-37.4	22.1	0.00e+00	122	30	0	208666624	46	5828
2026-01-28 21:50:01.31	89.40	7.58	-36.2	-37.3	22.2	0.00e+00	123	30	0	211812352	46	5732
2026-01-28 21:50:02.32	89.30	7.64	-36.3	-37.3	22.3	0.00e+00	123	30	0	214958080	46	5746
2026-01-28 21:50:03.33	89.21	7.71	-36.4	-37.4	22.1	0.00e+00	123	30	0	218103808	46	5811
2026-01-28 21:50:04.34	89.11	7.77	-36.5	-37.5	22.1	0.00e+00	123	30	0	221249536	46	5904
2026-01-28 21:50:05.35	89.02	7.84	-36.1	-37.2	22.4	0.00e+00	122	30	0	224395264	46	5662
2026-01-28 21:50:06.37	88.92	7.91	-36.1	-37.2	22.4	0.00e+00	123	30	0	227540992	46	5664
2026-01-28 21:50:07.37	88.83	7.97	-36.0	-37.0	22.5	0.00e+00	123	30	0	230686720	46	5587
2026-01-28 21:50:08.38	88.73	8.04	-36.1	-37.1	22.5	0.00e+00	123	30	0	233832448	46	5598
2026-01-28 21:50:09.39	88.63	8.11	-36.0	-37.0	22.4	0.00e+00	122	30	0	236978176	46	5565
2026-01-28 21:50:10.40	88.53	8.17	-35.8	-36.8	22.6	0.00e+00	122	30	0	240123904	46	5456
2026-01-28 21:50:11.41	88.43	8.24	-35.9	-36.8	22.6	0.00e+00	123	30	0	243269632	46	5465
2026-01-28 21:50:12.42	88.34	8.31	-36.0	-37.0	22.7	0.00e+00	123	30	0	246415360	46	5537
2026-01-28 21:50:13.43	88.24	8.37	-35.9	-36.9	22.6	0.00e+00	123	30	0	249561088	44	6149
2026-01-28 21:50:14.44	88.14	8.44	-35.7	-36.7	22.7	0.00e+00	123	30	0	252706816	44	6045
2026-01-28 21:50:15.45	88.04	8.51	-35.6	-36.5	22.9	0.00e+00	122	30	0	255852544	44	5925
2026-01-28 21:50:16.46	87.94	8.57	-36.0	-37.0	22.6	0.00e+00	123	30	0	258998272	44	6219
2026-01-28 21:50:17.47	87.83	8.64	-35.5	-36.5	23.0	0.00e+00	122	30	0	262144000	44	5882
2026-01-28 21:50:18.48	87.73	8.71	-35.7	-36.7	22.8	0.00e+00	123	30	0	265289728	44	6021
2026-01-28 21:50:19.49	87.63	8.78	-35.6	-36.6	22.9	0.00e+00	122	31	0	268435456	44	5972
2026-01-28 21:50:20.50	87.53	8.84	-35.5	-36.5	22.9	0.00e+00	122	30	0	271581184	44	5875
2026-01-28 21:50:21.51	87.43	8.91	-35.7	-36.7	22.8	0.00e+00	123	31	0	274726912	44	6034
2026-01-28 21:50:22.52	87.32	8.98	-36.2	-37.2	22.4	0.00e+00	123	31	0	277872640	44	6380
2026-01-28 21:50:23.53	87.22	9.05	-35.8	-36.7	22.8	0.00e+00	123	31	0	281018368	44	6062
2026-01-28 21:50:24.54	87.11	9.11	-35.5	-36.5	23.0	0.00e+00	122	31	0	284164096	44	5875
2026-01-28 21:50:25.55	87.01	9.18	-35.6	-36.6	22.9	0.00e+00	123	31	0	287309824	44	5940
2026-01-28 21:50:26.56	86.90	9.25	-35.5	-36.5	23.0	0.00e+00	123	31	0	291504128	44	5897
2026-01-28 21:50:27.56	86.80	9.32	-35.5	-36.5	23.0	0.00e+00	122	30	0	294649856	44	5877
2026-01-28 21:50:28.57	86.69	9.39	-35.5	-36.5	23.0	0.00e+00	120	31	0	296747008	44	5890
2026-01-28 21:50:29.58	86.58	9.45	-35.4	-36.4	23.2	0.00e+00	120	31	0	299892736	44	5805
2026-01-28 21:50:30.59	86.48	9.52	-35.4	-36.4	23.1	0.00e+00	122	31	0	303038464	44	5835
2026-01-28 21:50:31.60	86.37	9.59	-35.3	-36.3	23.2	0.00e+00	120	31	0	306184192	44	5763
2026-01-28 21:50:32.61	86.26	9.66	-35.3	-36.3	23.2	0.00e+00	123	31	0	310378496	44	5753
2026-01-28 21:50:33.61	86.15	9.73	-35.2	-36.2	23.2	0.00e+00	123	30	0	313524224	44	5698
2026-01-28 21:50:34.62	86.04	9.80	-35.5	-36.5	23.1	0.00e+00	123	31	0	316669952	44	5889
2026-01-28 21:50:35.64	85.93	9.87	-35.3	-36.2	23.2	0.00e+00	123	30	0	319815680	44	5716
2026-01-28 21:50:36.64	85.82	9.94	-35.2	-36.2	23.3	0.00e+00	122	30	0	321912832	44	5685
2026-01-28 21:50:37.66	85.71	10.01	-35.5	-36.5	23.1	0.00e+00	123	30	0	326107136	44	5877
2026-01-28 21:50:38.67	85.60	10.07	-35.3	-36.3	23.2	0.00e+00	121	31	0	329252864	44	5741
2026-01-28 21:50:39.68	85.48	10.14	-35.5	-36.4	23.1	0.00e+00	123	30	0	332398592	44	5822
2026-01-28 21:50:40.69	85.37	10.21	-35.3	-36.2	23.3	0.00e+00	123	30	0	335544320	44	5700
2026-01-28 21:50:41.70	85.26	10.28	-35.4	-36.3	23.2	0.00e+00	122	30	0	338690048	44	5782
2026-01-28 21:50:42.71	85.14	10.35	-35.3	-36.2	23.3	0.00e+00	120	30	0	341835776	44	5715
2026-01-28 21:50:43.72	85.03	10.42	-35.3	-36.3	23.3	0.00e+00	122	30	0	344981504	44	5739
2026-01-28 21:50:44.73	84.91	10.49	-35.3	-36.2	23.3	0.00e+00	123	30	0	348127232	44	5716
2026-01-28 21:50:45.74	84.80	10.56	-35.2	-36.1	23.5	0.00e+00	120	30	0	351272960	44	5637
2026-01-28 21:50:46.75	84.68	10.63	-35.1	-36.0	23.5	0.00e+00	122	30	0	354418688	44	5594
2026-01-28 21:50:47.76	84.56	10.70	-35.1	-36.0	23.5	0.00e+00	120	30	0	357564416	44	5566
2026-01-28 21:50:48.77	84.45	10.77	-35.0	-35.9	23.5	0.00e+00	123	31	0	360710144	44	5506
2026-01-28 21:50:49.78	84.33	10.84	-35.0	-35.9	23.5	0.00e+00	122	31	0	363855872	44	5527
2026-01-28 21:50:50.79	84.21	10.91	-34.8	-35.7	23.7	0.00e+00	123	30	0	367001600	44	5364
2026-01-28 21:50:51.80	84.09	10.98	-34.8	-35.8	23.5	0.00e+00	123	31	0	370147328	44	5423
2026-01-28 21:50:52.81	83.97	11.05	-34.9	-35.9	23.5	0.00e+00	120	31	0	373293056	44	5480
2026-01-28 21:50:53.82	83.85	11.12	-35.0	-35.9	23.4	0.00e+00	122	31	0	376438784	44	5519
2026-01-28 21:50:54.83	83.73	11.19	-35.1	-36.0	23.4	0.00e+00	123	30	0	379584512	44	5590
2026-01-28 21:50:55.84	83.61	11.26	-35.1	-36.1	23.3	0.00e+00	123	31	0	382730240	44	5605
2026-01-28 21:50:56.85	83.49	11.33	-35.3	-36.2	23.2	0.00e+00	121	30	0	385875968	44	5719
2026-01-28 21:50:57.86	83.36	11.40	-35.1	-36.0	23.4	0.00e+00	123	31	0	389021696	44	5564
2026-01-28 21:50:58.87	83.24	11.48	-35.1	-36.0	23.4	0.00e+00	123	30	0	392167424	44	5577
2026-01-28 21:50:59.88	83.12	11.55	-35.1	-36.1	23.3	0.00e+00	122	30	0	395313152	44	5607
2026-01-28 21:51:00.89	82.99	11.62	-35.0	-35.9	23.6	0.00e+00	123	31	0	398458880	44	5506
2026-01-28 21:51:01.90	82.87	11.69	-34.9	-35.8	23.7	0.00e+00	122	31	0	401604608	44	5445
2026-01-28 21:51:02.91	82.74	11.76	-35.0	-35.9	23.6	0.00e+00	122	30	0	404750336	44	5499
2026-01-28 21:51:03.92	82.61	11.83	-34.9	-35.8	23.6	0.00e+00	122	30	0	407896064	44	5417
2026-01-28 21:51:04.93	82.49	11.90	-34.7	-35.6	23.8	0.00e+00	122	31	0	411041792	44	5316
2026-01-28 21:51:05.93	82.36	11.97	-34.8	-35.7	23.8	0.00e+00	122	30	0	414187520	42	6041
2026-01-28 21:51:06.94	82.23	12.04	-34.8	-35.7	23.7	0.00e+00	123	30	0	417333248	42	6040
2026-01-28 21:51:07.95	82.10	12.11	-34.7	-35.7	23.8	0.00e+00	122	30	0	420478976	42	6004
2026-01-28 21:51:08.96	81.97	12.19	-34.9	-35.8	23.7	0.00e+00	123	31	0	423624704	42	6096
2026-01-28 21:51:09.97	81.84	12.26	-34.9	-35.9	23.6	0.00e+00	123	30	0	426770432	42	6142
2026-01-28 21:51:10.98	81.71	12.33	-35.0	-36.0	23.5	0.00e+00	123	31	0	429916160	42	6214
2026-01-28 21:51:11.99	81.58	12.40	-35.0	-36.0	23.5	0.00e+00	122	30	0	433061888	42	6210
2026-01-28 21:51:13.00	81.45	12.47	-34.9	-35.8	23.7	0.00e+00	123	30	0	436207616	42	6108
2026-01-28 21:51:14.01	81.32	12.54	-34.7	-35.7	23.8	0.00e+00	123	30	0	439353344	42	6013
2026-01-28 21:51:15.02	81.18	12.62	-34.6	-35.6	23.8	0.00e+00	123	31	0	442499072	42	5940
2026-01-28 21:51:16.03	81.05	12.69	-34.7	-35.7	23.9	0.00e+00	123	31	0	445644800	42	6019
2026-01-28 21:51:17.04	80.91	12.76	-34.8	-35.7	23.8	0.00e+00	123	31	0	448790528	42	6032
2026-01-28 21:51:18.05	80.78	12.83	-34.8	-35.8	23.7	0.00e+00	121	31	0	451936256	42	6070
2026-01-28 21:51:19.06	80.64	12.90	-34.8	-35.7	23.7	0.00e+00	123	31	0	455081984	42	6021
2026-01-28 21:51:20.07	80.51	12.98	-34.8	-35.8	23.7	0.00e+00	122	31	0	458227712	42	6077
2026-01-28 21:51:21.08	80.37	13.05	-34.9	-35.9	23.6	0.00e+00	122	31	0	461373440	42	6155
2026-01-28 21:51:22.09	80.23	13.12	-34.8	-35.7	23.7	0.00e+00	123	31	0	464519168	42	6058
2026-01-28 21:51:23.10	80.09	13.19	-34.9	-35.8	23.6	0.00e+00	123	30	0	467664896	42	6109
2026-01-28 21:51:24.11	79.95	13.26	-34.8	-35.7	23.7	0.00e+00	120	30	0	470810624	42	6050
2026-01-28 21:51:25.12	79.81	13.34	-34.9	-35.9	23.6	0.00e+00	122	31	0	473956352	42	6153
2026-01-28 21:51:26.13	79.67	13.41	-34.9	-35.9	23.7	0.00e+00	123	31	0	477102080	42	6156
2026-01-28 21:51:27.14	79.53	13.48	-34.9	-35.9	23.8	0.00e+00	123	30	0	480247808	42	6172
2026-01-28 21:51:28.15	79.39	13.55	-34.9	-35.9	23.8	0.00e+00	122	31	0	483393536	42	6147
2026-01-28 21:51:29.16	79.24	13.63	-34.9	-35.8	23.8	0.00e+00	123	31	0	486539264	42	6131
2026-01-28 21:51:30.16	79.10	13.70	-34.9	-35.8	23.8	0.00e+00	122	30	0	489684992	42	6107
2026-01-28 21:51:31.17	78.96	13.77	-34.8	-35.7	23.9	0.00e+00	122	31	0	492830720	42	6020
2026-01-28 21:51:32.18	78.81	13.84	-34.8	-35.8	24.0	0.00e+00	120	31	0	495976448	42	6066
2026-01-28 21:51:33.19	78.66	13.92	-34.7	-35.7	23.9	0.00e+00	122	31	0	499122176	42	6002
2026-01-28 21:51:34.20	78.52	13.99	-34.7	-35.6	23.9	0.00e+00	120	31	0	502267904	42	5993
2026-01-28 21:51:35.21	78.37	14.06	-34.8	-35.7	23.8	0.00e+00	122	31	0	505413632	42	6059
2026-01-28 21:51:36.22	78.22	14.13	-34.8	-35.8	23.7	0.00e+00	123	30	0	508559360	42	6073
2026-01-28 21:51:37.23	78.07	14.21	-34.8	-35.7	23.7	0.00e+00	122	31	0	511705088	42	6038
2026-01-28 21:51:38.24	77.92	14.28	-34.9	-35.9	23.7	0.00e+00	120	30	0	514850816	42	6167
2026-01-28 21:51:39.25	77.77	14.35	-35.0	-35.9	23.7	0.00e+00	122	31	0	517996544	42	6154
2026-01-28 21:51:40.26	77.62	14.43	-35.0	-35.9	23.8	0.00e+00	123	31	0	521142272	42	6154
2026-01-28 21:51:41.27	77.47	14.50	-35.0	-35.9	23.8	0.00e+00	123	31	0	524288000	42	6167
2026-01-28 21:51:42.28	77.32	14.57	-35.0	-35.9	23.8	0.00e+00	122	31	0	527433728	42	6196
2026-01-28 21:51:43.29	77.16	14.64	-34.9	-35.8	23.9	0.00e+00	122	31	0	530579456	42	6092
2026-01-28 21:51:44.30	77.01	14.72	-34.8	-35.7	23.9	0.00e+00	122	31	0	533725184	42	6058
2026-01-28 21:51:45.31	76.85	14.79	-34.8	-35.7	23.9	0.00e+00	122	30	0	536870912	42	6032
2026-01-28 21:51:46.32	76.70	14.86	-34.9	-35.8	23.8	0.00e+00	123	31	0	540016640	42	6097
2026-01-28 21:51:47.33	76.54	14.94	-35.0	-36.0	23.7	0.00e+00	123	31	0	543162368	42	6206
2026-01-28 21:51:48.34	76.38	15.01	-34.9	-35.8	23.7	0.00e+00	123	30	0	546308096	42	6124
2026-01-28 21:51:49.35	76.23	15.08	-35.0	-35.9	23.8	0.00e+00	122	30	0	549453824	42	6163
2026-01-28 21:51:50.36	76.07	15.15	-35.0	-36.0	23.7	0.00e+00	122	31	0	552599552	42	6216
2026-01-28 21:51:51.37	75.91	15.23	-35.2	-36.1	23.6	0.00e+00	123	31	0	555745280	42	6339
2026-01-28 21:51:52.38	75.75	15.30	-35.2	-36.1	23.6	0.00e+00	123	31	0	558891008	42	6309
2026-01-28 21:51:53.40	75.59	15.37	-35.2	-36.1	23.6	0.00e+00	121	31	0	562036736	42	6312
2026-01-28 21:51:54.41	75.42	15.45	-35.0	-35.9	23.7	0.00e+00	123	31	0	565182464	42	6193
2026-01-28 21:51:55.42	75.26	15.52	-35.0	-35.9	23.8	0.00e+00	123	30	0	568328192	42	6183
2026-01-28 21:51:56.43	75.10	15.59	-35.0	-35.9	23.8	0.00e+00	123	31	0	571473920	42	6175
2026-01-28 21:51:57.44	74.93	15.66	-34.9	-35.9	23.8	0.00e+00	123	30	0	574619648	42	6136
2026-01-28 21:51:58.44	74.77	15.74	-34.9	-35.8	23.8	0.00e+00	123	31	0	577765376	42	6107
2026-01-28 21:51:59.45	74.60	15.81	-34.9	-35.9	23.7	0.00e+00	123	31	0	580911104	42	6164
2026-01-28 21:52:00.47	74.43	15.88	-35.1	-36.0	23.6	0.00e+00	120	31	0	584056832	42	6265
2026-01-28 21:52:01.48	74.27	15.95	-35.1	-36.1	23.6	0.00e+00	122	31	0	587202560	42	6291
2026-01-28 21:52:02.48	74.10	16.03	-35.1	-36.1	23.6	0.00e+00	123	31	0	590348288	42	6287
2026-01-28 21:52:03.49	73.93	16.10	-35.1	-36.0	23.7	0.00e+00	122	30	0	593494016	42	6268
2026-01-28 21:52:04.50	73.76	16.17	-34.9	-35.8	23.9	0.00e+00	123	30	0	596639744	42	6126
2026-01-28 21:52:05.51	73.59	16.24	-34.9	-35.8	23.9	0.00e+00	123	31	0	599785472	42	6109
2026-01-28 21:52:06.52	73.42	16.32	-34.8	-35.8	23.9	0.00e+00	123	31	0	602931200	42	6079
2026-01-28 21:52:07.53	73.24	16.39	-34.7	-35.6	24.0	0.00e+00	120	31	0	606076928	42	5955
2026-01-28 21:52:08.54	73.07	16.46	-34.7	-35.6	23.9	0.00e+00	120	31	0	609222656	42	5970
2026-01-28 21:52:09.55	72.90	16.53	-34.6	-35.5	23.9	0.00e+00	123	31	0	612368384	42	5926
2026-01-28 21:52:10.56	72.72	16.61	-34.7	-35.6	23.9	0.00e+00	122	31	0	615514112	42	5966
2026-01-28 21:52:11.57	72.55	16.68	-34.9	-35.8	23.7	0.00e+00	123	31	0	618659840	42	6118
2026-01-28 21:52:12.58	72.37	16.75	-35.0	-35.9	23.9	0.00e+00	122	30	0	621805568	42	6181
2026-01-28 21:52:13.59	72.19	16.82	-34.7	-35.6	24.1	0.00e+00	120	31	0	624951296	42	5991
2026-01-28 21:52:14.60	72.01	16.89	-34.6	-35.5	24.1	0.00e+00	122	31	0	628097024	42	5915
2026-01-28 21:52:15.60	71.83	16.96	-34.5	-35.4	24.3	0.00e+00	120	31	0	632291328	42	5846
2026-01-28 21:52:16.62	71.65	17.04	-34.6	-35.5	24.1	0.00e+00	120	31	0	635437056	42	5885
2026-01-28 21:52:17.62	71.47	17.11	-34.5	-35.4	24.2	0.00e+00	122	31	0	637534208	42	5816
2026-01-28 21:52:18.64	71.29	17.18	-34.2	-35.1	24.3	0.00e+00	121	31	0	640679936	42	5651
2026-01-28 21:52:19.64	71.11	17.25	-34.3	-35.2	24.3	0.00e+00	123	30	0	643825664	42	5663
2026-01-28 21:52:20.65	70.92	17.32	-34.2	-35.1	24.3	0.00e+00	122	31	0	648019968	42	5631
2026-01-28 21:52:21.66	70.74	17.39	-34.3	-35.2	24.3	0.00e+00	123	31	0	651165696	42	5673
2026-01-28 21:52:22.67	70.55	17.46	-34.3	-35.2	24.3	0.00e+00	123	31	0	654311424	42	5685
2026-01-28 21:52:23.68	70.37	17.54	-34.3	-35.2	24.3	0.00e+00	123	31	0	657457152	42	5684
2026-01-28 21:52:24.70	70.18	17.61	-34.3	-35.2	24.4	0.00e+00	120	31	0	660602880	42	5662
2026-01-28 21:52:25.71	69.99	17.68	-34.3	-35.2	24.3	0.00e+00	122	31	0	663748608	42	5684
2026-01-28 21:52:26.72	69.80	17.75	-34.3	-35.2	24.3	0.00e+00	123	31	0	666894336	42	5699
2026-01-28 21:52:27.73	69.61	17.82	-34.4	-35.2	24.3	0.00e+00	123	31	0	670040064	42	5714
2026-01-28 21:52:28.74	69.42	17.89	-34.4	-35.3	24.3	0.00e+00	123	31	0	673185792	42	5742
2026-01-28 21:52:29.75	69.23	17.96	-34.3	-35.2	24.3	0.00e+00	122	31	0	676331520	42	5709
2026-01-28 21:52:30.76	69.03	18.03	-34.5	-35.4	24.2	0.00e+00	122	31	0	679477248	42	5846
2026-01-28 21:52:31.77	68.84	18.10	-34.6	-35.5	24.0	0.00e+00	122	31	0	682622976	42	5866
2026-01-28 21:52:32.78	68.65	18.17	-34.7	-35.6	23.9	0.00e+00	123	31	0	685768704	42	5932
2026-01-28 21:52:33.78	68.45	18.24	-34.8	-35.7	23.9	0.00e+00	122	31	0	688914432	42	6053
2026-01-28 21:52:34.79	68.26	18.31	-34.8	-35.8	23.9	0.00e+00	121	31	0	692060160	42	6084
2026-01-28 21:52:35.80	68.06	18.38	-34.8	-35.7	24.0	0.00e+00	122	31	0	695205888	42	6051
2026-01-28 21:52:36.81	67.86	18.45	-34.7	-35.6	24.1	0.00e+00	122	31	0	698351616	42	5985
2026-01-28 21:52:37.82	67.66	18.52	-34.7	-35.6	24.1	0.00e+00	122	31	0	701497344	42	5954
2026-01-28 21:52:38.83	67.46	18.59	-34.7	-35.6	24.1	0.00e+00	123	31	0	704643072	42	5972
2026-01-28 21:52:39.84	67.26	18.65	-34.8	-35.7	24.0	0.00e+00	123	31	0	707788800	42	6047
2026-01-28 21:52:40.85	67.06	18.72	-34.7	-35.6	24.1	0.00e+00	120	31	0	710934528	42	5961
2026-01-28 21:52:41.86	66.85	18.79	-34.8	-35.7	24.0	0.00e+00	122	31	0	714080256	42	6004
2026-01-28 21:52:42.87	66.65	18.86	-34.7	-35.6	24.1	0.00e+00	122	31	0	717225984	42	5967
2026-01-28 21:52:43.88	66.45	18.93	-34.6	-35.5	24.2	0.00e+00	123	31	0	720371712	42	5912
2026-01-28 21:52:44.89	66.24	19.00	-34.7	-35.6	24.1	0.00e+00	123	31	0	723517440	42	5954
2026-01-28 21:52:45.90	66.03	19.06	-34.4	-35.3	24.3	0.00e+00	122	30	0	726663168	42	5768
2026-01-28 21:52:46.91	65.83	19.13	-34.4	-35.2	24.4	0.00e+00	122	31	0	729808896	42	5718
2026-01-28 21:52:47.92	65.62	19.20	-34.3	-35.2	24.4	0.00e+00	120	31	0	732954624	42	5666
2026-01-28 21:52:48.93	65.41	19.27	-34.3	-35.2	24.4	0.00e+00	122	31	0	736100352	42	5686
2026-01-28 21:52:49.94	65.20	19.33	-34.3	-35.2	24.4	0.00e+00	122	31	0	739246080	42	5661
2026-01-28 21:52:50.95	64.99	19.40	-34.1	-35.0	24.5	0.00e+00	122	31	0	742391808	42	5541
2026-01-28 21:52:51.96	64.78	19.47	-34.2	-35.1	24.5	0.00e+00	123	31	0	745537536	42	5607
2026-01-28 21:52:52.97	64.56	19.53	-34.0	-34.9	24.4	0.00e+00	120	31	0	748683264	42	5524
2026-01-28 21:52:53.98	64.35	19.60	-34.0	-34.9	24.5	0.00e+00	122	31	0	751828992	42	5527
2026-01-28 21:52:54.98	64.14	19.66	-34.1	-35.0	24.5	0.00e+00	122	31	0	754974720	42	5543
2026-01-28 21:52:56.00	63.92	19.73	-34.0	-34.9	24.6	0.00e+00	120	31	0	758120448	42	5526
2026-01-28 21:52:57.00	63.70	19.79	-33.8	-34.7	24.6	0.00e+00	122	31	0	761266176	42	5365
2026-01-28 21:52:58.01	63.49	19.86	-34.0	-34.9	24.4	0.00e+00	123	31	0	764411904	42	5514
2026-01-28 21:52:59.02	63.27	19.92	-34.1	-35.0	24.4	0.00e+00	123	31	0	767557632	42	5537
2026-01-28 21:53:00.04	63.05	19.99	-34.1	-35.0	24.5	0.00e+00	121	31	0	770703360	42	5550
2026-01-28 21:53:01.04	62.83	20.05	-34.0	-34.9	24.5	0.00e+00	122	31	0	773849088	42	5487
2026-01-28 21:53:02.05	62.61	20.11	-34.1	-34.9	24.5	0.00e+00	120	31	0	776994816	42	5526
2026-01-28 21:53:03.06	62.38	20.18	-34.0	-34.9	24.6	0.00e+00	122	30	0	780140544	42	5505
2026-01-28 21:53:04.07	62.16	20.24	-34.2	-35.1	24.4	0.00e+00	120	31	0	783286272	42	5635
2026-01-28 21:53:05.08	61.94	20.30	-34.2	-35.1	24.5	0.00e+00	122	31	0	786432000	42	5606
2026-01-28 21:53:06.09	61.71	20.37	-34.0	-34.9	24.7	0.00e+00	122	31	0	789577728	42	5475
2026-01-28 21:53:07.10	61.49	20.43	-34.0	-34.9	24.7	0.00e+00	122	31	0	792723456	42	5488
2026-01-28 21:53:08.11	61.26	20.49	-33.7	-34.6	24.8	0.00e+00	123	31	0	795869184	42	5322
2026-01-28 21:53:09.12	61.03	20.55	-33.7	-34.6	24.8	0.00e+00	123	31	0	799014912	40	5972
2026-01-28 21:53:10.13	60.80	20.61	-33.8	-34.7	24.7	0.00e+00	121	30	0	802160640	40	6010
2026-01-28 21:53:11.14	60.57	20.67	-33.8	-34.7	24.6	0.00e+00	123	31	0	805306368	40	6047
2026-01-28 21:53:12.15	60.34	20.73	-33.9	-34.8	24.6	0.00e+00	120	31	0	808452096	40	6124
2026-01-28 21:53:13.16	60.11	20.79	-33.9	-34.8	24.7	0.00e+00	123	31	0	811597824	40	6119
2026-01-28 21:53:14.17	59.88	20.85	-33.9	-34.7	24.7	0.00e+00	123	31	0	814743552	40	6062
2026-01-28 21:53:15.18	59.64	20.91	-33.8	-34.7	24.7	0.00e+00	121	31	0	817889280	40	6045
2026-01-28 21:53:16.18	59.41	20.97	-33.7	-34.6	24.7	0.00e+00	123	31	0	821035008	40	5939
2026-01-28 21:53:17.19	59.18	21.03	-33.8	-34.6	24.7	0.00e+00	123	31	0	824180736	40	5993
2026-01-28 21:53:18.20	58.94	21.09	-33.9	-34.7	24.5	0.00e+00	122	31	0	827326464	40	6058
2026-01-28 21:53:19.21	58.71	21.15	-34.1	-35.0	24.3	0.00e+00	122	31	0	830472192	40	6247
2026-01-28 21:53:20.22	58.47	21.21	-34.1	-35.0	24.4	0.00e+00	123	31	0	833617920	40	6254
2026-01-28 21:53:21.23	58.23	21.26	-33.9	-34.8	24.5	0.00e+00	122	31	0	836763648	40	6106
2026-01-28 21:53:22.24	57.99	21.32	-34.0	-34.9	24.4	0.00e+00	123	31	0	839909376	40	6167
2026-01-28 21:53:23.25	57.75	21.38	-34.1	-35.0	24.3	0.00e+00	122	31	0	843055104	40	6250
2026-01-28 21:53:24.26	57.51	21.43	-34.2	-35.2	24.3	0.00e+00	123	31	0	846200832	40	6360
2026-01-28 21:53:25.27	57.27	21.49	-34.3	-35.2	24.4	0.00e+00	122	31	0	849346560	40	6407
2026-01-28 21:53:26.28	57.02	21.54	-34.1	-35.0	24.5	0.00e+00	123	31	0	852492288	40	6275
2026-01-28 21:53:27.29	56.78	21.60	-34.1	-35.0	24.6	0.00e+00	123	31	0	855638016	40	6223
2026-01-28 21:53:28.30	56.53	21.65	-33.9	-34.8	24.7	0.00e+00	122	31	0	858783744	40	6094
2026-01-28 21:53:29.31	56.29	21.71	-33.9	-34.8	24.6	0.00e+00	123	31	0	861929472	40	6084
2026-01-28 21:53:30.32	56.04	21.76	-34.0	-34.9	24.6	0.00e+00	122	31	0	865075200	40	6165
2026-01-28 21:53:31.33	55.79	21.81	-34.0	-34.9	24.6	0.00e+00	122	31	0	868220928	40	6169
2026-01-28 21:53:32.34	55.55	21.86	-34.1	-35.0	24.6	0.00e+00	123	31	0	871366656	40	6266
2026-01-28 21:53:33.35	55.30	21.92	-34.0	-34.9	24.7	0.00e+00	122	31	0	874512384	40	6183
2026-01-28 21:53:34.36	55.05	21.97	-33.8	-34.7	24.8	0.00e+00	122	31	0	877658112	40	6028
2026-01-28 21:53:35.37	54.80	22.02	-33.9	-34.7	24.8	0.00e+00	122	31	0	880803840	40	6056
2026-01-28 21:53:36.38	54.54	22.07	-33.8	-34.7	24.8	0.00e+00	122	31	0	883949568	40	6030
2026-01-28 21:53:37.38	54.29	22.12	-33.8	-34.7	24.7	0.00e+00	123	31	0	887095296	40	6041
2026-01-28 21:53:38.40	54.04	22.17	-33.7	-34.5	24.8	0.00e+00	123	31	0	890241024	40	5923
2026-01-28 21:53:39.41	53.79	22.22	-33.7	-34.6	24.8	0.00e+00	123	31	0	893386752	40	5963
2026-01-28 21:53:40.42	53.53	22.27	-33.7	-34.6	24.7	0.00e+00	123	31	0	896532480	40	5989
2026-01-28 21:53:41.43	53.27	22.31	-33.7	-34.6	24.8	0.00e+00	123	31	0	899678208	40	5985
2026-01-28 21:53:42.44	53.02	22.36	-33.8	-34.7	24.6	0.00e+00	123	31	0	902823936	40	6042
2026-01-28 21:53:43.45	52.76	22.41	-33.8	-34.7	24.7	0.00e+00	122	30	0	905969664	40	6020
2026-01-28 21:53:44.46	52.50	22.45	-33.7	-34.6	24.7	0.00e+00	123	30	0	909115392	40	5974
2026-01-28 21:53:45.47	52.24	22.50	-33.8	-34.6	24.8	0.00e+00	123	31	0	912261120	40	5990
2026-01-28 21:53:46.48	51.99	22.55	-33.7	-34.6	24.8	0.00e+00	123	31	0	915406848	40	5974
2026-01-28 21:53:47.49	51.72	22.59	-33.7	-34.5	24.9	0.00e+00	123	31	0	918552576	40	5909
2026-01-28 21:53:48.50	51.46	22.63	-33.7	-34.6	24.9	0.00e+00	123	31	0	921698304	40	5930
2026-01-28 21:53:49.51	51.20	22.68	-33.8	-34.7	24.7	0.00e+00	123	31	0	924844032	40	6022
2026-01-28 21:53:50.52	50.94	22.72	-33.9	-34.8	24.7	0.00e+00	120	31	0	927989760	40	6097
2026-01-28 21:53:51.53	50.68	22.76	-34.0	-34.9	24.7	0.00e+00	121	31	0	931135488	40	6142
2026-01-28 21:53:52.54	50.41	22.81	-33.9	-34.8	24.7	0.00e+00	120	31	0	934281216	40	6106
2026-01-28 21:53:53.55	50.15	22.85	-34.0	-34.9	24.6	0.00e+00	123	31	0	937426944	40	6165
2026-01-28 21:53:54.56	49.88	22.89	-34.0	-34.9	24.6	0.00e+00	123	31	0	940572672	40	6180
2026-01-28 21:53:55.57	49.62	22.93	-33.9	-34.8	24.7	0.00e+00	122	31	0	943718400	40	6107
2026-01-28 21:53:56.58	49.35	22.97	-33.9	-34.8	24.7	0.00e+00	123	31	0	946864128	40	6094
2026-01-28 21:53:57.59	49.08	23.01	-34.0	-34.9	24.7	0.00e+00	122	31	0	950009856	40	6187
2026-01-28 21:53:58.60	48.82	23.04	-34.2	-35.0	24.6	0.00e+00	120	31	0	953155584	40	6272
2026-01-28 21:53:59.61	48.55	23.08	-33.9	-34.8	24.8	0.00e+00	123	31	0	956301312	40	6074
2026-01-28 21:54:00.62	48.28	23.12	-33.9	-34.7	24.8	0.00e+00	120	31	0	959447040	40	6046
2026-01-28 21:54:01.63	48.01	23.16	-33.8	-34.7	24.7	0.00e+00	123	31	0	962592768	40	6047
2026-01-28 21:54:02.64	47.74	23.19	-33.8	-34.7	24.7	0.00e+00	122	31	0	965738496	40	6030
2026-01-28 21:54:03.65	47.47	23.23	-33.8	-34.7	24.8	0.00e+00	123	31	0	969932800	40	6055
2026-01-28 21:54:04.66	47.19	23.26	-33.8	-34.7	24.9	0.00e+00	122	31	0	973078528	40	6027
2026-01-28 21:54:05.67	46.92	23.30	-33.9	-34.8	24.7	0.00e+00	123	30	0	976224256	40	6116
2026-01-28 21:54:06.68	46.65	23.33	-34.1	-34.9	24.7	0.00e+00	123	31	0	978321408	40	6195
2026-01-28 21:54:07.69	46.37	23.36	-33.7	-34.6	24.9	0.00e+00	122	31	0	981467136	40	5950
2026-01-28 21:54:08.70	46.10	23.39	-33.8	-34.7	24.8	0.00e+00	122	31	0	985661440	40	6026
2026-01-28 21:54:09.71	45.83	23.42	-33.7	-34.6	24.9	0.00e+00	123	31	0	988807168	40	5986
2026-01-28 21:54:10.72	45.55	23.45	-33.8	-34.7	24.7	0.00e+00	122	31	0	991952896	40	6028
2026-01-28 21:54:11.73	45.28	23.48	-33.8	-34.7	24.9	0.00e+00	122	31	0	995098624	40	6028
2026-01-28 21:54:12.74	45.00	23.51	-33.8	-34.7	24.9	0.00e+00	123	31	0	998244352	40	6014
2026-01-28 21:54:13.75	44.72	23.54	-33.7	-34.6	24.9	0.00e+00	123	31	0	1000341504	40	5973
2026-01-28 21:54:14.76	44.45	23.57	-33.7	-34.6	24.9	0.00e+00	123	31	0	1004535808	40	5941
2026-01-28 21:54:15.77	44.17	23.60	-33.7	-34.5	25.0	0.00e+00	121	31	0	1007681536	40	5909
2026-01-28 21:54:16.77	43.89	23.62	-33.4	-34.3	25.1	0.00e+00	123	31	0	1010827264	40	5766
2026-01-28 21:54:17.78	43.61	23.65	-33.6	-34.4	25.1	0.00e+00	123	31	0	1013972992	40	5840
2026-01-28 21:54:18.79	43.33	23.67	-33.5	-34.3	25.1	0.00e+00	123	31	0	1017118720	40	5790
2026-01-28 21:54:19.80	43.05	23.70	-33.4	-34.3	25.1	0.00e+00	123	31	0	1020264448	40	5764
2026-01-28 21:54:20.81	42.77	23.72	-33.5	-34.4	25.1	0.00e+00	123	31	0	1023410176	40	5802
2026-01-28 21:54:21.82	42.49	23.74	-33.5	-34.4	24.9	0.00e+00	121	30	0	1026555904	40	5813
2026-01-28 21:54:22.84	42.21	23.77	-33.5	-34.4	24.9	0.00e+00	123	31	0	1029701632	40	5795
2026-01-28 21:54:23.84	41.93	23.79	-33.5	-34.3	24.8	0.00e+00	120	31	0	1032847360	40	5785
2026-01-28 21:54:24.85	41.65	23.81	-33.4	-34.3	25.0	0.00e+00	123	31	0	1035993088	40	5751
2026-01-28 21:54:25.86	41.37	23.83	-33.5	-34.3	24.9	0.00e+00	123	31	0	1039138816	40	5791
2026-01-28 21:54:26.87	41.09	23.85	-33.5	-34.3	24.9	0.00e+00	123	31	0	1042284544	40	5784
2026-01-28 21:54:27.88	40.80	23.87	-33.6	-34.5	24.8	0.00e+00	122	31	0	1045430272	40	5880
2026-01-28 21:54:28.89	40.52	23.88	-33.7	-34.6	24.8	0.00e+00	120	31	0	1048576000	40	5958
2026-01-28 21:54:29.90	40.24	23.90	-33.6	-34.4	24.9	0.00e+00	123	31	0	1051721728	40	5853
2026-01-28 21:54:30.91	39.95	23.92	-33.6	-34.5	24.9	0.00e+00	123	31	0	1054867456	40	5902
2026-01-28 21:54:31.92	39.67	23.93	-33.7	-34.6	24.8	0.00e+00	122	31	0	1058013184	40	5948
2026-01-28 21:54:32.93	39.39	23.95	-33.8	-34.7	24.7	0.00e+00	123	31	0	1061158912	40	6040
2026-01-28 21:54:33.94	39.10	23.96	-33.7	-34.6	24.8	0.00e+00	123	31	0	1064304640	40	5939
2026-01-28 21:54:34.95	38.82	23.97	-33.9	-34.8	24.7	0.00e+00	120	31	0	1067450368	40	6093
2026-01-28 21:54:35.96	38.53	23.99	-33.8	-34.7	24.7	0.00e+00	123	31	0	1070596096	40	6023
2026-01-28 21:54:36.97	38.25	24.00	-33.9	-34.7	24.7	0.00e+00	123	31	0	1073741824	40	6055
2026-01-28 21:54:37.98	37.96	24.01	-33.7	-34.6	24.8	0.00e+00	123	31	0	1076887552	40	5946
2026-01-28 21:54:38.99	37.68	24.02	-33.8	-34.7	24.8	0.00e+00	123	31	0	1080033280	40	6013
2026-01-28 21:54:40.00	37.39	24.03	-33.8	-34.7	24.9	0.00e+00	123	31	0	1083179008	40	5995
2026-01-28 21:54:41.01	37.11	24.04	-33.8	-34.7	24.8	0.00e+00	123	31	0	1086324736	40	6003
2026-01-28 21:54:42.02	36.82	24.04	-33.8	-34.6	24.8	0.00e+00	123	31	0	1089470464	40	5987
2026-01-28 21:54:43.03	36.53	24.05	-33.7	-34.6	24.9	0.00e+00	123	31	0	1092616192	40	5951
2026-01-28 21:54:44.04	36.25	24.06	-33.8	-34.7	24.8	0.00e+00	123	31	0	1095761920	40	6009
2026-01-28 21:54:45.04	35.96	24.06	-33.8	-34.6	24.8	0.00e+00	122	31	0	1098907648	40	5989
2026-01-28 21:54:46.05	35.68	24.07	-33.8	-34.7	24.8	0.00e+00	123	31	0	1102053376	40	6030
2026-01-28 21:54:47.06	35.39	24.07	-33.7	-34.6	25.0	0.00e+00	123	31	0	1105199104	40	5940
2026-01-28 21:54:48.07	35.11	24.07	-33.7	-34.6	24.8	0.00e+00	123	31	0	1108344832	40	5965
2026-01-28 21:54:49.08	34.82	24.08	-33.9	-34.8	24.6	0.00e+00	124	31	0	1111490560	40	6116
2026-01-28 21:54:50.09	34.53	24.08	-34.1	-35.0	24.5	0.00e+00	123	31	0	1114636288	40	6214
2026-01-28 21:54:51.10	34.25	24.08	-34.0	-34.9	24.6	0.00e+00	120	31	0	1117782016	40	6200
2026-01-28 21:54:52.11	33.96	24.08	-33.9	-34.8	24.7	0.00e+00	122	31	0	1120927744	40	6102
2026-01-28 21:54:53.12	33.67	24.08	-33.9	-34.8	24.8	0.00e+00	123	31	0	1124073472	40	6086
2026-01-28 21:54:54.13	33.39	24.08	-34.0	-34.8	24.8	0.00e+00	123	31	0	1127219200	40	6123
2026-01-28 21:54:55.14	33.10	24.07	-34.2	-35.1	24.7	0.00e+00	122	31	0	1130364928	40	6291
2026-01-28 21:54:56.15	32.81	24.07	-33.7	-34.5	25.0	0.00e+00	122	31	0	1133510656	40	5906
2026-01-28 21:54:57.16	32.53	24.07	-33.7	-34.5	24.9	0.00e+00	122	31	0	1136656384	40	5918
2026-01-28 21:54:58.17	32.24	24.06	-33.6	-34.5	24.9	0.00e+00	123	31	0	1139802112	40	5859
2026-01-28 21:54:59.18	31.95	24.06	-33.6	-34.5	24.9	0.00e+00	123	31	0	1142947840	40	5887
2026-01-28 21:55:00.19	31.67	24.05	-33.6	-34.4	25.0	0.00e+00	122	31	0	1146093568	40	5850
2026-01-28 21:55:01.20	31.38	24.04	-33.6	-34.5	25.0	0.00e+00	120	31	0	1149239296	40	5871
2026-01-28 21:55:02.20	31.10	24.04	-33.7	-34.5	24.9	0.00e+00	122	31	0	1152385024	40	5910
2026-01-28 21:55:03.21	30.81	24.03	-33.6	-34.5	24.9	0.00e+00	120	31	0	1155530752	40	5890
2026-01-28 21:55:04.23	30.52	24.02	-33.5	-34.3	25.0	0.00e+00	123	31	0	1158676480	40	5772
2026-01-28 21:55:05.23	30.24	24.01	-33.5	-34.4	25.0	0.00e+00	120	31	0	1161822208	40	5836
2026-01-28 21:55:06.24	29.96	24.00	-33.4	-34.2	25.1	0.00e+00	119	31	0	1164967936	40	5695
2026-01-28 21:55:07.26	29.67	23.99	-33.4	-34.3	25.0	0.00e+00	123	31	0	1168113664	40	5762
2026-01-28 21:55:08.27	29.38	23.97	-33.4	-34.3	25.0	0.00e+00	120	31	0	1171259392	40	5758
2026-01-28 21:55:09.27	29.10	23.96	-33.5	-34.4	24.9	0.00e+00	123	31	0	1174405120	40	5801
2026-01-28 21:55:10.28	28.82	23.95	-33.4	-34.3	24.9	0.00e+00	121	31	0	1177550848	40	5770
2026-01-28 21:55:11.29	28.54	23.93	-33.4	-34.2	25.0	0.00e+00	123	31	0	1180696576	40	5709
2026-01-28 21:55:12.30	28.25	23.92	-33.4	-34.3	25.0	0.00e+00	123	31	0	1183842304	40	5746
2026-01-28 21:55:13.31	27.97	23.90	-33.4	-34.3	24.9	0.00e+00	120	31	0	1186988032	40	5741
2026-01-28 21:55:14.31	27.69	23.88	-33.4	-34.3	25.0	0.00e+00	121	31	0	1190133760	40	5730
2026-01-28 21:55:15.32	27.40	23.87	-33.4	-34.3	25.0	0.00e+00	123	31	0	1193279488	40	5754
2026-01-28 21:55:16.33	27.12	23.85	-33.5	-34.4	24.9	0.00e+00	122	31	0	1196425216	40	5821
2026-01-28 21:55:17.34	26.84	23.83	-33.7	-34.5	24.9	0.00e+00	123	31	0	1199570944	40	5918
2026-01-28 21:55:18.35	26.56	23.81	-33.6	-34.5	24.9	0.00e+00	120	31	0	1202716672	40	5866
2026-01-28 21:55:19.36	26.28	23.79	-33.5	-34.3	25.0	0.00e+00	123	31	0	1205862400	40	5768
2026-01-28 21:55:20.36	26.00	23.77	-33.5	-34.4	24.8	0.00e+00	120	31	0	1209008128	40	5817
2026-01-28 21:55:21.37	25.72	23.74	-33.5	-34.4	24.9	0.00e+00	122	31	0	1212153856	40	5824
2026-01-28 21:55:22.38	25.44	23.72	-33.4	-34.3	25.0	0.00e+00	120	31	0	1215299584	40	5751
2026-01-28 21:55:23.39	25.16	23.70	-33.6	-34.5	24.9	0.00e+00	120	31	0	1218445312	40	5859
2026-01-28 21:55:24.40	24.88	23.67	-33.7	-34.6	24.8	0.00e+00	121	31	0	1221591040	40	5942
2026-01-28 21:55:25.41	24.60	23.65	-33.7	-34.6	24.8	0.00e+00	122	31	0	1224736768	40	5963
2026-01-28 21:55:26.42	24.32	23.62	-33.7	-34.6	24.8	0.00e+00	123	31	0	1227882496	40	5974
2026-01-28 21:55:27.43	24.04	23.60	-33.7	-34.6	24.8	0.00e+00	120	31	0	1231028224	40	5951
2026-01-28 21:55:28.44	23.77	23.57	-33.7	-34.6	24.9	0.00e+00	122	31	0	1234173952	40	5932
2026-01-28 21:55:29.45	23.49	23.54	-33.6	-34.5	24.8	0.00e+00	123	31	0	1237319680	40	5911
2026-01-28 21:55:30.46	23.21	23.51	-33.8	-34.7	24.7	0.00e+00	120	31	0	1240465408	40	6017
2026-01-28 21:55:31.47	22.94	23.49	-33.7	-34.6	24.9	0.00e+00	120	31	0	1243611136	40	5943
2026-01-28 21:55:32.48	22.66	23.46	-33.9	-34.8	24.7	0.00e+00	122	31	0	1246756864	40	6095
2026-01-28 21:55:33.49	22.39	23.43	-33.7	-34.5	25.0	0.00e+00	120	31	0	1249902592	40	5913
2026-01-28 21:55:34.50	22.11	23.39	-33.7	-34.6	24.9	0.00e+00	122	31	0	1253048320	40	5953
2026-01-28 21:55:35.51	21.84	23.36	-33.7	-34.5	25.0	0.00e+00	122	31	0	1256194048	40	5904
2026-01-28 21:55:36.52	21.57	23.33	-33.5	-34.4	25.1	0.00e+00	122	31	0	1259339776	40	5814
2026-01-28 21:55:37.53	21.29	23.30	-33.4	-34.3	25.1	0.00e+00	122	31	0	1262485504	40	5734
2026-01-28 21:55:38.54	21.02	23.26	-33.5	-34.4	25.0	0.00e+00	123	31	0	1265631232	40	5801
2026-01-28 21:55:39.55	20.75	23.23	-33.7	-34.6	24.9	0.00e+00	123	31	0	1268776960	40	5966
2026-01-28 21:55:40.56	20.48	23.19	-33.8	-34.7	24.8	0.00e+00	123	31	0	1271922688	40	6034
2026-01-28 21:55:41.57	20.21	23.16	-33.9	-34.8	24.7	0.00e+00	120	31	0	1275068416	40	6112
2026-01-28 21:55:42.58	19.94	23.12	-34.0	-34.8	24.6	0.00e+00	122	31	0	1278214144	40	6134
2026-01-28 21:55:43.59	19.67	23.08	-34.0	-34.9	24.6	0.00e+00	120	31	0	1281359872	40	6160
2026-01-28 21:55:44.60	19.40	23.05	-34.0	-34.9	24.6	0.00e+00	123	31	0	1284505600	40	6186
2026-01-28 21:55:45.61	19.13	23.01	-34.0	-34.9	24.6	0.00e+00	122	31	0	1287651328	40	6165
2026-01-28 21:55:46.62	18.87	22.97	-34.0	-34.9	24.6	0.00e+00	123	31	0	1290797056	40	6140
2026-01-28 21:55:47.63	18.60	22.93	-33.7	-34.6	24.8	0.00e+00	122	31	0	1293942784	40	5954
2026-01-28 21:55:48.64	18.33	22.89	-33.7	-34.6	24.7	0.00e+00	123	31	0	1297088512	40	5955
2026-01-28 21:55:49.65	18.07	22.85	-33.7	-34.6	24.6	0.00e+00	123	31	0	1300234240	40	5982
2026-01-28 21:55:50.66	17.81	22.81	-33.9	-34.8	24.4	0.00e+00	122	31	0	1303379968	40	6099
2026-01-28 21:55:51.67	17.54	22.77	-33.9	-34.8	24.5	0.00e+00	120	31	0	1306525696	40	6094
2026-01-28 21:55:52.68	17.28	22.72	-34.0	-34.9	24.5	0.00e+00	123	31	0	1309671424	40	6169
2026-01-28 21:55:53.69	17.02	22.68	-34.0	-34.9	24.5	0.00e+00	122	31	0	1312817152	40	6163
2026-01-28 21:55:54.70	16.76	22.64	-34.1	-35.0	24.3	0.00e+00	123	31	0	1315962880	40	6251
2026-01-28 21:55:55.71	16.50	22.59	-34.0	-34.9	24.3	0.00e+00	122	31	0	1319108608	40	6178
2026-01-28 21:55:56.72	16.24	22.55	-34.1	-35.0	24.2	0.00e+00	123	31	0	1322254336	40	6269
2026-01-28 21:55:57.73	15.98	22.50	-34.1	-35.0	24.3	0.00e+00	123	31	0	1325400064	40	6255
2026-01-28 21:55:58.74	15.72	22.46	-34.1	-35.0	24.3	0.00e+00	123	31	0	1328545792	40	6271
2026-01-28 21:55:59.75	15.46	22.41	-34.0	-35.0	24.4	0.00e+00	123	31	0	1331691520	40	6207
2026-01-28 21:56:00.76	15.20	22.36	-34.0	-34.8	24.5	0.00e+00	123	31	0	1335885824	40	6134
2026-01-28 21:56:01.77	14.95	22.32	-33.8	-34.7	24.5	0.00e+00	122	31	0	1339031552	40	6032
2026-01-28 21:56:02.78	14.69	22.27	-33.8	-34.7	24.5	0.00e+00	122	31	0	1341128704	40	6000
2026-01-28 21:56:03.79	14.44	22.22	-34.0	-34.9	24.2	0.00e+00	122	31	0	1344274432	40	6201
2026-01-28 21:56:04.80	14.18	22.17	-34.0	-34.9	24.3	0.00e+00	120	31	0	1347420160	40	6195
2026-01-28 21:56:05.81	13.93	22.12	-34.0	-34.9	24.3	0.00e+00	122	31	0	1351614464	40	6182
2026-01-28 21:56:06.82	13.68	22.07	-34.0	-34.9	24.3	0.00e+00	122	31	0	1354760192	40	6201
2026-01-28 21:56:07.83	13.43	22.02	-34.1	-35.0	24.3	0.00e+00	122	31	0	1357905920	40	6247
2026-01-28 21:56:08.84	13.18	21.97	-33.9	-34.9	24.3	0.00e+00	120	31	0	1361051648	40	6138
2026-01-28 21:56:09.85	12.93	21.92	-34.0	-34.9	24.4	0.00e+00	122	31	0	1364197376	40	6146
2026-01-28 21:56:10.86	12.68	21.87	-33.9	-34.7	24.6	0.00e+00	122	31	0	1367343104	40	6063
2026-01-28 21:56:11.87	12.43	21.82	-33.9	-34.8	24.6	0.00e+00	123	31	0	1370488832	40	6099
2026-01-28 21:56:12.88	12.19	21.76	-33.9	-34.8	24.8	0.00e+00	123	31	0	1373634560	40	6094
2026-01-28 21:56:13.89	11.94	21.71	-34.0	-34.9	24.5	0.00e+00	123	31	0	1376780288	40	6159
2026-01-28 21:56:14.90	11.69	21.66	-34.0	-34.9	24.6	0.00e+00	122	31	0	1379926016	40	6137
2026-01-28 21:56:15.91	11.45	21.60	-33.9	-34.8	24.6	0.00e+00	122	31	0	1383071744	40	6118
2026-01-28 21:56:16.92	11.21	21.55	-33.9	-34.7	24.7	0.00e+00	123	31	0	1386217472	40	6055
2026-01-28 21:56:17.93	10.96	21.49	-33.7	-34.6	24.7	0.00e+00	120	31	0	1389363200	40	5945
2026-01-28 21:56:18.94	10.72	21.44	-33.7	-34.6	24.5	0.00e+00	122	31	0	1392508928	40	5991
2026-01-28 21:56:19.95	10.48	21.38	-33.7	-34.6	24.6	0.00e+00	120	31	0	1395654656	40	5957
2026-01-28 21:56:20.96	10.24	21.32	-33.8	-34.7	24.6	0.00e+00	122	31	0	1398800384	40	6005
2026-01-28 21:56:21.97	10.00	21.27	-33.9	-34.8	24.6	0.00e+00	123	31	0	1401946112	40	6067
2026-01-28 21:56:22.98	9.76	21.21	-33.8	-34.7	24.7	0.00e+00	123	31	0	1405091840	40	6022
2026-01-28 21:56:23.99	9.53	21.15	-33.8	-34.7	24.7	0.00e+00	123	31	0	1408237568	40	6042
2026-01-28 21:56:25.00	9.29	21.09	-34.0	-34.8	24.6	0.00e+00	122	31	0	1411383296	40	6125
2026-01-28 21:56:26.00	9.06	21.04	-33.9	-34.8	24.7	0.00e+00	122	31	0	1414529024	40	6083
2026-01-28 21:56:27.01	8.82	20.98	-33.8	-34.7	24.7	0.00e+00	122	31	0	1417674752	40	6030
2026-01-28 21:56:28.02	8.59	20.92	-33.8	-34.7	24.7	0.00e+00	123	31	0	1420820480	40	6041
2026-01-28 21:56:29.03	8.36	20.86	-33.6	-34.5	24.9	0.00e+00	122	31	0	1423966208	40	5895
2026-01-28 21:56:30.04	8.12	20.80	-33.8	-34.7	24.8	0.00e+00	123	31	0	1427111936	40	5997
2026-01-28 21:56:31.05	7.89	20.74	-33.7	-34.6	24.9	0.00e+00	123	31	0	1430257664	40	5933
2026-01-28 21:56:32.06	7.66	20.68	-33.8	-34.7	24.7	0.00e+00	122	31	0	1433403392	40	6016
2026-01-28 21:56:33.07	7.43	20.62	-33.9	-34.8	24.7	0.00e+00	123	31	0	1436549120	40	6101
2026-01-28 21:56:34.08	7.21	20.56	-34.1	-35.0	24.5	0.00e+00	122	31	0	1439694848	40	6233
2026-01-28 21:56:35.09	6.98	20.50	-34.3	-35.2	24.3	0.00e+00	123	31	0	1442840576	40	6365
2026-01-28 21:56:36.10	6.75	20.43	-34.2	-35.1	24.3	0.00e+00	123	31	0	1445986304	40	6321
2026-01-28 21:56:37.11	6.53	20.37	-34.0	-34.9	24.5	0.00e+00	123	31	0	1449132032	40	6199
2026-01-28 21:56:38.12	6.30	20.31	-33.9	-34.8	24.5	0.00e+00	123	31	0	1452277760	40	6094
2026-01-28 21:56:39.13	6.08	20.25	-33.8	-34.6	24.7	0.00e+00	123	31	0	1455423488	40	5973
2026-01-28 21:56:40.14	5.86	20.18	-33.4	-34.3	24.9	0.00e+00	123	31	0	1458569216	40	5757
2026-01-28 21:56:41.15	5.63	20.12	-33.7	-34.6	24.8	0.00e+00	122	31	0	1461714944	40	5933
2026-01-28 21:56:42.15	5.42	20.06	-33.8	-34.7	24.8	0.00e+00	122	31	0	1464860672	40	6035
2026-01-28 21:56:43.17	5.19	19.99	-33.7	-34.6	24.8	0.00e+00	123	31	0	1468006400	40	5962
2026-01-28 21:56:44.18	4.97	19.93	-33.9	-34.8	24.8	0.00e+00	122	31	0	1471152128	40	6077
2026-01-28 21:56:45.18	4.76	19.87	-33.9	-34.8	24.7	0.00e+00	122	31	0	1474297856	40	6072
2026-01-28 21:56:46.20	4.54	19.80	-34.0	-34.9	24.6	0.00e+00	123	31	0	1477443584	40	6181
2026-01-28 21:56:47.20	4.33	19.74	-34.1	-35.0	24.5	0.00e+00	122	31	0	1480589312	40	6237
2026-01-28 21:56:48.22	4.11	19.67	-34.3	-35.2	24.4	0.00e+00	120	31	0	1483735040	40	6389
2026-01-28 21:56:49.23	3.89	19.61	-34.3	-35.2	24.4	0.00e+00	120	31	0	1486880768	40	6378
2026-01-28 21:56:50.23	3.68	19.54	-34.2	-35.1	24.4	0.00e+00	123	31	0	1490026496	40	6314
2026-01-28 21:56:51.25	3.47	19.47	-34.2	-35.1	24.4	0.00e+00	122	31	0	1493172224	40	6350
2026-01-28 21:56:52.26	3.26	19.41	-34.2	-35.1	24.4	0.00e+00	123	31	0	1496317952	40	6308
2026-01-28 21:56:53.27	3.05	19.34	-34.3	-35.2	24.2	0.00e+00	120	31	0	1499463680	40	6397
2026-01-28 21:56:54.28	2.84	19.27	-34.3	-35.2	24.2	0.00e+00	123	31	0	1502609408	40	6377
2026-01-28 21:56:55.29	2.63	19.21	-34.2	-35.1	24.2	0.00e+00	120	31	0	1505755136	40	6309
2026-01-28 21:56:56.30	2.42	19.14	-34.1	-35.0	24.3	0.00e+00	123	31	0	1508900864	40	6265
2026-01-28 21:56:57.31	2.21	19.07	-34.1	-35.0	24.4	0.00e+00	123	31	0	1512046592	40	6254
2026-01-28 21:56:58.32	2.01	19.01	-33.9	-34.8	24.7	0.00e+00	122	31	0	1515192320	40	6071
2026-01-28 21:56:59.33	1.80	18.94	-33.9	-34.8	24.6	0.00e+00	123	31	0	1518338048	40	6066
2026-01-28 21:57:00.34	1.60	18.87	-33.8	-34.6	24.8	0.00e+00	123	31	0	1521483776	40	5979
2026-01-28 21:57:01.35	1.39	18.80	-33.8	-34.7	24.7	0.00e+00	122	31	0	1524629504	40	6000
2026-01-28 21:57:02.36	1.19	18.73	-33.8	-34.6	24.8	0.00e+00	123	31	0	1527775232	40	5993
2026-01-28 21:57:03.37	0.99	18.66	-34.0	-34.9	24.6	0.00e+00	123	31	0	1530920960	40	6169
2026-01-28 21:57:04.38	0.79	18.60	-34.1	-35.0	24.5	0.00e+00	122	31	0	1534066688	40	6218
2026-01-28 21:57:05.39	0.59	18.53	-34.3	-35.2	24.3	0.00e+00	122	31	0	1537212416	40	6407
2026-01-28 21:57:06.40	0.39	18.46	-34.4	-35.4	24.2	0.00e+00	122	31	0	1540358144	40	6516
2026-01-28 21:57:07.41	0.19	18.39	-34.4	-35.3	24.0	0.00e+00	122	31	0	1543503872	40	6484
2026-01-28 21:57:08.42	360.00	18.32	-34.4	-35.4	24.0	0.00e+00	123	31	0	1546649600	40	6512
2026-01-28 21:57:09.43	359.80	18.25	-34.3	-35.2	24.2	0.00e+00	123	31	0	1549795328	40	6378
2026-01-28 21:57:10.44	359.61	18.18	-34.3	-35.2	24.2	0.00e+00	122	31	0	1552941056	40	6379
2026-01-28 21:57:11.45	359.41	18.11	-34.2	-35.1	24.2	0.00e+00	120	31	0	1556086784	40	6304
2026-01-28 21:57:12.46	359.22	18.04	-34.0	-34.9	24.3	0.00e+00	123	31	0	1559232512	40	6186
2026-01-28 21:57:13.47	359.03	17.97	-34.1	-35.0	24.4	0.00e+00	120	31	0	1562378240	40	6231
2026-01-28 21:57:14.48	358.84	17.90	-34.2	-35.1	24.4	0.00e+00	123	31	0	1565523968	40	6304
2026-01-28 21:57:15.49	358.65	17.83	-34.2	-35.0	24.5	0.00e+00	123	31	0	1568669696	40	6274
2026-01-28 21:57:16.50	358.46	17.76	-34.1	-35.0	24.5	0.00e+00	123	31	0	1571815424	40	6261
2026-01-28 21:57:17.51	358.27	17.69	-34.2	-35.1	24.4	0.00e+00	123	31	0	1574961152	40	6290
2026-01-28 21:57:18.52	358.08	17.62	-34.1	-35.0	24.4	0.00e+00	123	31	0	1578106880	40	6248
2026-01-28 21:57:19.53	357.89	17.55	-34.2	-35.0	24.4	0.00e+00	123	31	0	1581252608	40	6268
2026-01-28 21:57:20.54	357.71	17.48	-34.0	-34.9	24.6	0.00e+00	123	31	0	1584398336	40	6171
2026-01-28 21:57:21.55	357.52	17.41	-34.0	-34.9	24.6	0.00e+00	121	31	0	1587544064	40	6147
2026-01-28 21:57:22.55	357.34	17.34	-34.0	-34.9	24.6	0.00e+00	122	31	0	1590689792	40	6141
2026-01-28 21:57:23.56	357.16	17.26	-33.8	-34.6	24.8	0.00e+00	123	31	0	1593835520	40	5973
2026-01-28 21:57:24.58	356.97	17.19	-33.8	-34.7	24.8	0.00e+00	120	31	0	1596981248	40	5999
2026-01-28 21:57:25.58	356.79	17.12	-33.8	-34.7	24.8	0.00e+00	122	31	0	1600126976	40	6012
2026-01-28 21:57:26.60	356.61	17.05	-33.9	-34.8	24.6	0.00e+00	123	31	0	1603272704	40	6108
2026-01-28 21:57:27.60	356.43	16.98	-33.9	-34.8	24.6	0.00e+00	123	31	0	1606418432	40	6120
2026-01-28 21:57:28.61	356.25	16.91	-34.1	-35.0	24.5	0.00e+00	123	31	0	1609564160	40	6213
2026-01-28 21:57:29.62	356.07	16.84	-34.1	-35.0	24.4	0.00e+00	123	31	0	1612709888	40	6222
2026-01-28 21:57:30.63	355.90	16.76	-34.2	-35.1	24.4	0.00e+00	122	31	0	1615855616	40	6307
2026-01-28 21:57:31.64	355.72	16.69	-34.2	-35.1	24.3	0.00e+00	122	31	0	1619001344	40	6300
2026-01-28 21:57:32.65	355.54	16.62	-34.2	-35.1	24.3	0.00e+00	123	31	0	1622147072	40	6338
2026-01-28 21:57:33.66	355.37	16.55	-34.2	-35.1	24.3	0.00e+00	122	31	0	1625292800	40	6324
2026-01-28 21:57:34.67	355.20	16.48	-34.1	-35.0	24.3	0.00e+00	122	31	0	1628438528	40	6234
2026-01-28 21:57:35.68	355.02	16.40	-34.3	-35.2	24.3	0.00e+00	123	31	0	1631584256	40	6361
2026-01-28 21:57:36.69	354.85	16.33	-34.5	-35.4	24.2	0.00e+00	123	31	0	1634729984	40	6562
2026-01-28 21:57:37.70	354.68	16.26	-34.5	-35.4	24.1	0.00e+00	122	31	0	1637875712	40	6516
2026-01-28 21:57:38.71	354.51	16.19	-34.4	-35.3	24.2	0.00e+00	120	31	0	1641021440	40	6477
2026-01-28 21:57:39.72	354.34	16.11	-34.4	-35.3	24.2	0.00e+00	122	31	0	1644167168	40	6493
2026-01-28 21:57:40.73	354.17	16.04	-34.5	-35.4	24.2	0.00e+00	122	31	0	1647312896	40	6530
2026-01-28 21:57:41.74	354.00	15.97	-34.6	-35.5	24.0	0.00e+00	122	31	0	1650458624	40	6624
2026-01-28 21:57:42.75	353.84	15.90	-34.5	-35.4	24.1	0.00e+00	122	31	0	1653604352	40	6515
2026-01-28 21:57:43.76	353.67	15.83	-34.4	-35.3	24.1	0.00e+00	123	31	0	1656750080	40	6497
2026-01-28 21:57:44.77	353.50	15.75	-34.6	-35.5	24.1	0.00e+00	123	31	0	1659895808	40	6594
2026-01-28 21:57:45.78	353.34	15.68	-34.6	-35.6	23.9	0.00e+00	123	31	0	1663041536	40	6653
2026-01-28 21:57:46.78	353.18	15.61	-34.5	-35.5	24.1	0.00e+00	122	31	0	1666187264	40	6576
2026-01-28 21:57:47.80	353.01	15.54	-34.7	-35.7	23.9	0.00e+00	122	31	0	1669332992	40	6740
2026-01-28 21:57:48.80	352.85	15.46	-34.6	-35.5	24.2	0.00e+00	122	31	0	1673527296	40	6577
2026-01-28 21:57:49.82	352.69	15.39	-34.8	-35.7	23.9	0.00e+00	123	31	0	1676673024	40	6761
2026-01-28 21:57:50.82	352.53	15.32	-34.9	-35.9	23.8	0.00e+00	122	31	0	1679818752	42	6149
2026-01-28 21:57:51.83	352.37	15.25	-34.8	-35.7	23.9	0.00e+00	123	31	0	1681915904	42	6058
2026-01-28 21:57:52.84	352.21	15.17	-34.9	-35.8	23.7	0.00e+00	122	31	0	1685061632	42	6132
2026-01-28 21:57:53.85	352.05	15.10	-34.9	-35.8	23.8	0.00e+00	123	31	0	1688207360	42	6094
2026-01-28 21:57:54.86	351.89	15.03	-34.8	-35.8	23.9	0.00e+00	120	31	0	1692401664	42	6073
2026-01-28 21:57:55.87	351.74	14.95	-34.8	-35.7	23.9	0.00e+00	123	31	0	1695547392	42	6025
2026-01-28 21:57:56.88	351.58	14.88	-34.8	-35.7	24.0	0.00e+00	123	31	0	1698693120	42	6015
2026-01-28 21:57:57.89	351.43	14.81	-34.7	-35.6	24.0	0.00e+00	123	31	0	1701838848	42	5982
2026-01-28 21:57:58.90	351.27	14.74	-34.6	-35.5	24.1	0.00e+00	123	31	0	1703936000	42	5916
2026-01-28 21:57:59.91	351.12	14.66	-34.7	-35.6	24.1	0.00e+00	123	31	0	1708130304	42	5940
2026-01-28 21:58:00.92	350.97	14.59	-34.8	-35.7	23.9	0.00e+00	120	31	0	1711276032	42	6041
2026-01-28 21:58:01.93	350.81	14.52	-34.9	-35.8	23.8	0.00e+00	123	31	0	1714421760	42	6104
2026-01-28 21:58:02.94	350.66	14.45	-35.0	-35.9	23.7	0.00e+00	122	31	0	1717567488	42	6192
2026-01-28 21:58:03.95	350.51	14.37	-35.2	-36.2	23.6	0.00e+00	123	31	0	1720713216	42	6353
2026-01-28 21:58:04.96	350.36	14.30	-35.2	-36.2	23.6	0.00e+00	120	31	0	1723858944	42	6368
2026-01-28 21:58:05.97	350.21	14.23	-35.2	-36.1	23.5	0.00e+00	122	31	0	1727004672	42	6336
2026-01-28 21:58:06.98	350.06	14.16	-35.3	-36.3	23.3	0.00e+00	122	31	0	1730150400	42	6449
2026-01-28 21:58:07.98	349.92	14.08	-35.2	-36.2	23.4	0.00e+00	122	31	0	1733296128	42	6352
2026-01-28 21:58:09.00	349.77	14.01	-35.1	-36.1	23.4	0.00e+00	123	31	0	1736441856	42	6306
2026-01-28 21:58:10.01	349.62	13.94	-35.2	-36.1	23.3	0.00e+00	123	31	0	1739587584	42	6315
2026-01-28 21:58:11.02	349.48	13.87	-35.0	-36.0	23.4	0.00e+00	120	31	0	1742733312	42	6206
2026-01-28 21:58:12.03	349.33	13.79	-34.9	-35.9	23.6	0.00e+00	123	31	0	1745879040	42	6163
2026-01-28 21:58:13.04	349.19	13.72	-34.8	-35.7	23.7	0.00e+00	122	31	0	1749024768	42	6055
2026-01-28 21:58:14.05	349.05	13.65	-34.8	-35.8	23.7	0.00e+00	122	31	0	1752170496	42	6068
2026-01-28 21:58:15.05	348.91	13.58	-34.9	-35.8	23.7	0.00e+00	123	31	0	1755316224	42	6122
2026-01-28 21:58:16.06	348.76	13.51	-35.1	-36.1	23.5	0.00e+00	123	31	0	1758461952	42	6289
2026-01-28 21:58:17.07	348.62	13.43	-35.1	-36.1	23.6	0.00e+00	120	31	0	1761607680	42	6295
2026-01-28 21:58:18.09	348.48	13.36	-35.3	-36.2	23.4	0.00e+00	122	31	0	1764753408	42	6396
2026-01-28 21:58:19.10	348.34	13.29	-35.6	-36.6	23.2	0.00e+00	123	31	0	1767899136	42	6654
2026-01-28 21:58:20.11	348.20	13.22	-35.7	-36.6	23.0	0.00e+00	120	31	0	1771044864	42	6721
2026-01-28 21:58:21.12	348.06	13.14	-35.9	-36.9	22.8	0.00e+00	123	31	0	1774190592	44	6187
2026-01-28 21:58:22.13	347.93	13.07	-35.9	-36.9	22.7	0.00e+00	123	31	0	1777336320	44	6186
2026-01-28 21:58:23.14	347.79	13.00	-35.7	-36.6	22.9	0.00e+00	122	31	0	1780482048	44	5986
2026-01-28 21:58:24.15	347.65	12.93	-35.7	-36.7	22.9	0.00e+00	120	31	0	1783627776	44	6041
2026-01-28 21:58:25.15	347.52	12.86	-35.6	-36.6	23.0	0.00e+00	122	31	0	1786773504	44	5943
2026-01-28 21:58:26.17	347.38	12.78	-35.4	-36.4	23.1	0.00e+00	122	31	0	1789919232	44	5797
2026-01-28 21:58:27.17	347.25	12.71	-35.2	-36.2	23.3	0.00e+00	123	31	0	1793064960	44	5686
2026-01-28 21:58:28.18	347.12	12.64	-35.2	-36.1	23.4	0.00e+00	121	31	0	1796210688	44	5639
2026-01-28 21:58:29.20	346.98	12.57	-35.1	-36.1	23.4	0.00e+00	122	31	0	1799356416	44	5616
2026-01-28 21:58:30.21	346.85	12.50	-35.1	-36.1	23.5	0.00e+00	120	31	0	1802502144	44	5601
2026-01-28 21:58:31.21	346.72	12.43	-35.1	-36.1	23.5	0.00e+00	123	31	0	1805647872	44	5600
2026-01-28 21:58:32.22	346.59	12.35	-35.3	-36.2	23.4	0.00e+00	123	31	0	1808793600	44	5711
2026-01-28 21:58:33.23	346.46	12.28	-35.6	-36.6	23.2	0.00e+00	122	31	0	1811939328	44	5956
2026-01-28 21:58:34.24	346.33	12.21	-35.6	-36.6	23.2	0.00e+00	123	31	0	1815085056	44	5936
2026-01-28 21:58:35.25	346.20	12.14	-35.7	-36.6	23.2	0.00e+00	122	31	0	1818230784	44	5975
2026-01-28 21:58:36.26	346.07	12.07	-35.9	-36.8	23.0	0.00e+00	123	31	0	1821376512	44	6130
2026-01-28 21:58:37.27	345.94	12.00	-35.9	-36.8	22.9	0.00e+00	123	31	0	1824522240	44	6128
2026-01-28 21:58:38.28	345.82	11.93	-36.0	-37.0	22.8	0.00e+00	120	31	0	1827667968	44	6210
2026-01-28 21:58:39.29	345.69	11.86	-36.2	-37.2	22.7	0.00e+00	122	31	0	1830813696	44	6380
2026-01-28 21:58:40.31	345.56	11.78	-35.9	-36.9	22.9	0.00e+00	120	31	0	1833959424	44	6176
2026-01-28 21:58:41.31	345.44	11.71	-35.7	-36.7	22.9	0.00e+00	122	31	0	1837105152	44	6037
2026-01-28 21:58:42.32	345.31	11.64	-35.9	-36.9	22.7	0.00e+00	121	31	0	1840250880	44	6152
2026-01-28 21:58:43.33	345.19	11.57	-35.8	-36.8	22.7	0.00e+00	123	31	0	1843396608	44	6125
2026-01-28 21:58:44.34	345.07	11.50	-35.6	-36.6	23.0	0.00e+00	123	31	0	1846542336	44	5979
2026-01-28 21:58:45.35	344.94	11.43	-35.1	-36.1	23.4	0.00e+00	123	31	0	1849688064	44	5632
2026-01-28 21:58:46.36	344.82	11.36	-35.1	-36.1	23.5	0.00e+00	120	31	0	1852833792	44	5596
2026-01-28 21:58:47.37	344.70	11.29	-35.1	-36.1	23.4	0.00e+00	123	31	0	1855979520	44	5626
2026-01-28 21:58:48.38	344.58	11.22	-35.4	-36.4	23.3	0.00e+00	123	31	0	1859125248	44	5799
2026-01-28 21:58:49.39	344.46	11.15	-35.3	-36.3	23.3	0.00e+00	120	31	0	1862270976	44	5751
2026-01-28 21:58:50.40	344.34	11.08	-35.6	-36.6	23.1	0.00e+00	122	31	0	1865416704	44	5971
2026-01-28 21:58:51.41	344.22	11.01	-35.6	-36.6	23.2	0.00e+00	120	31	0	1868562432	44	5947
2026-01-28 21:58:52.42	344.10	10.94	-35.7	-36.7	23.1	0.00e+00	123	31	0	1871708160	44	6036
2026-01-28 21:58:53.43	343.98	10.87	-35.8	-36.9	22.9	0.00e+00	120	31	0	1874853888	44	6142
2026-01-28 21:58:54.44	343.86	10.80	-36.0	-37.0	22.7	0.00e+00	120	31	0	1877999616	44	6270
2026-01-28 21:58:55.45	343.75	10.73	-36.2	-37.2	22.5	0.00e+00	122	31	0	1881145344	44	6402
2026-01-28 21:58:56.45	343.63	10.66	-36.1	-37.1	22.6	0.00e+00	123	31	0	1884291072	44	6321
2026-01-28 21:58:57.46	343.52	10.59	-36.3	-37.3	22.4	0.00e+00	123	31	0	1887436800	44	6459
2026-01-28 21:58:58.47	343.40	10.52	-36.0	-37.1	22.5	0.00e+00	122	31	0	1890582528	44	6293
2026-01-28 21:58:59.48	343.29	10.45	-36.2	-37.3	22.3	0.00e+00	122	31	0	1893728256	44	6439
2026-01-28 21:59:00.50	343.17	10.38	-36.3	-37.4	22.4	0.00e+00	123	31	0	1896873984	44	6519
2026-01-28 21:59:01.51	343.06	10.31	-36.3	-37.3	22.2	0.00e+00	122	31	0	1900019712	44	6479
2026-01-28 21:59:02.52	342.95	10.24	-35.7	-36.7	22.6	0.00e+00	122	31	0	1903165440	44	6049
2026-01-28 21:59:03.53	342.83	10.17	-35.7	-36.7	22.8	0.00e+00	123	31	0	1906311168	44	6027
2026-01-28 21:59:04.54	342.72	10.10	-35.3	-36.3	23.1	0.00e+00	121	31	0	1909456896	44	5773
2026-01-28 21:59:05.55	342.61	10.04	-35.3	-36.3	23.1	0.00e+00	123	31	0	1912602624	44	5762
2026-01-28 21:59:06.56	342.50	9.97	-35.4	-36.3	23.2	0.00e+00	123	31	0	1915748352	44	5774
2026-01-28 21:59:07.57	342.39	9.90	-35.6	-36.6	22.9	0.00e+00	122	31	0	1918894080	44	5963
2026-01-28 21:59:08.58	342.28	9.83	-35.6	-36.6	23.1	0.00e+00	123	31	0	1922039808	44	5945
2026-01-28 21:59:09.59	342.17	9.76	-35.9	-36.9	22.9	0.00e+00	122	31	0	1925185536	44	6156
2026-01-28 21:59:10.60	342.06	9.69	-35.9	-36.9	22.8	0.00e+00	123	31	0	1928331264	44	6155
2026-01-28 21:59:11.61	341.95	9.62	-36.1	-37.1	22.7	0.00e+00	123	31	0	1931476992	44	6295
2026-01-28 21:59:12.62	341.85	9.55	-36.2	-37.2	22.5	0.00e+00	123	31	0	1934622720	44	6383
2026-01-28 21:59:13.63	341.74	9.49	-36.4	-37.4	22.3	0.00e+00	123	31	0	1937768448	44	6571
2026-01-28 21:59:14.64	341.63	9.42	-36.7	-37.8	22.1	0.00e+00	123	31	0	1940914176	46	6083
2026-01-28 21:59:15.65	341.53	9.35	-36.7	-37.8	22.1	0.00e+00	123	31	0	1944059904	46	6104
2026-01-28 21:59:16.66	341.42	9.28	-36.6	-37.7	22.2	0.00e+00	123	31	0	1947205632	46	6012
2026-01-28 21:59:17.67	341.32	9.21	-36.7	-37.8	22.0	0.00e+00	122	31	0	1950351360	46	6078
2026-01-28 21:59:18.68	341.21	9.15	-36.8	-37.9	21.8	0.00e+00	122	31	0	1953497088	46	6173
2026-01-28 21:59:19.69	341.11	9.08	-36.6	-37.7	21.9	0.00e+00	123	31	0	1956642816	46	6041
2026-01-28 21:59:20.70	341.00	9.01	-36.8	-38.0	21.7	0.00e+00	122	31	0	1959788544	46	6214
2026-01-28 21:59:21.71	340.90	8.94	-36.3	-37.4	22.2	0.00e+00	123	31	0	1962934272	46	5820
