passes_logs/2026/01/28/R4.6S_Anadyr/R4.6S_Anadyr__20260128_070929_KOSAR1-5_rec.log

#Pass ID: 20260128_070929_KOSAR1-5
#Satellite: KOSAR1-5
#Configuration: KOSAR1-5
#almurnet v.1.7.20251203
#Start time: 2026-01-28 07:09:31

#Version: 2.2.20231116
#Station: R4.6S_Anadyr
#Location: 177.4865 lon 64.73178 lat
#TLE: 1 67264U 25313S   26027.76143924  .00010916  00000+0  50329-3 0  9990
#TLE: 2 67264  97.4176 104.7207 0016474 138.6036 221.6451 15.20309833  4594

#Time	Az	El	Level	Level2	SNR	BER	BlckErr	Temp	State	Recorded	gain1	gain2
2026-01-28 07:09:31.75	93.89	0.14	-48.9	-60.6	3.5	8.46e-01	0	29	0	0	60	38741
2026-01-28 07:09:32.76	93.80	0.20	-45.3	-60.0	3.6	1.51e+00	0	30	104	0	60	40689
2026-01-28 07:09:33.77	93.70	0.25	-45.3	-60.0	3.6	1.51e+00	0	30	104	0	60	40532
2026-01-28 07:09:34.78	93.60	0.30	-45.3	-60.0	3.6	1.51e+00	0	30	104	0	60	40618
2026-01-28 07:09:35.79	93.51	0.36	-45.2	-60.0	3.6	1.51e+00	0	30	104	0	60	40374
2026-01-28 07:09:36.80	93.41	0.41	-45.2	-60.0	3.6	1.51e+00	0	30	104	0	60	40481
2026-01-28 07:09:37.81	93.31	0.47	-45.2	-59.9	3.6	1.51e+00	0	30	104	0	60	40033
2026-01-28 07:09:38.82	93.21	0.52	-45.1	-59.9	3.6	1.51e+00	0	30	104	0	60	39898
2026-01-28 07:09:39.83	93.11	0.57	-45.1	-59.8	3.6	1.51e+00	0	30	104	0	60	39630
2026-01-28 07:09:40.83	93.01	0.63	-45.2	-60.0	3.6	1.51e+00	0	30	104	0	60	40346
2026-01-28 07:09:41.84	92.91	0.68	-45.2	-59.9	3.6	1.51e+00	0	30	104	0	60	40281
2026-01-28 07:09:42.85	92.81	0.74	-45.2	-60.0	3.6	1.51e+00	0	30	104	0	60	40414
2026-01-28 07:09:43.86	92.71	0.79	-45.3	-60.0	3.6	1.51e+00	0	30	104	0	60	40414
2026-01-28 07:09:44.87	92.61	0.85	-45.1	-60.0	3.6	1.51e+00	0	30	104	0	60	40572
2026-01-28 07:09:45.88	92.51	0.90	-44.9	-60.0	3.6	1.51e+00	0	30	104	0	60	40687
2026-01-28 07:09:46.89	92.40	0.95	-45.0	-60.0	3.6	1.51e+00	0	30	104	0	60	40667
2026-01-28 07:09:47.90	92.30	1.01	-44.9	-60.1	3.6	1.51e+00	0	30	104	0	60	40871
2026-01-28 07:09:48.91	92.20	1.06	-45.1	-60.0	3.6	1.51e+00	0	30	104	0	60	40557
2026-01-28 07:09:49.92	92.09	1.12	-45.1	-60.0	3.6	1.51e+00	0	30	104	0	60	40616
2026-01-28 07:09:50.93	91.99	1.17	-45.1	-60.0	3.6	1.51e+00	0	30	104	0	60	40465
2026-01-28 07:09:51.94	91.88	1.23	-43.2	-59.9	3.6	1.51e+00	0	30	104	0	60	40296
2026-01-28 07:09:52.95	91.77	1.28	-44.2	-59.9	3.6	1.51e+00	0	30	104	0	60	40008
2026-01-28 07:09:53.96	91.67	1.34	-45.0	-59.8	3.6	1.51e+00	0	30	104	0	60	39467
2026-01-28 07:09:54.97	91.56	1.39	-44.7	-59.6	3.6	1.51e+00	0	30	104	0	60	38918
2026-01-28 07:09:55.98	91.45	1.45	-44.7	-59.5	3.6	1.51e+00	0	30	104	0	60	38118
2026-01-28 07:09:56.99	91.35	1.50	-44.2	-59.0	3.6	1.51e+00	0	30	104	0	60	36225
2026-01-28 07:09:58.00	91.24	1.56	-42.9	-58.8	3.6	1.51e+00	0	30	104	0	60	35327
2026-01-28 07:09:59.01	91.13	1.62	-42.9	-58.8	3.6	1.51e+00	0	30	104	0	60	35375
2026-01-28 07:10:00.02	91.02	1.67	-42.8	-58.8	3.5	1.51e+00	0	31	104	0	60	35283
2026-01-28 07:10:01.03	90.91	1.73	-42.8	-58.8	3.6	1.51e+00	0	30	104	0	60	35444
2026-01-28 07:10:02.04	90.80	1.78	-42.9	-58.8	3.6	1.51e+00	0	30	104	0	60	35272
2026-01-28 07:10:03.05	90.69	1.84	-42.8	-58.8	3.6	1.51e+00	0	30	104	0	60	35305
2026-01-28 07:10:04.06	90.58	1.89	-42.8	-58.8	3.6	1.51e+00	0	30	104	0	60	35466
2026-01-28 07:10:05.07	90.46	1.95	-42.9	-58.8	3.6	1.51e+00	0	30	104	0	60	35390
2026-01-28 07:10:06.08	90.35	2.00	-42.9	-58.8	3.6	1.51e+00	0	30	104	0	60	35164
2026-01-28 07:10:07.09	90.24	2.06	-42.9	-58.7	3.6	1.51e+00	0	31	104	0	60	35104
2026-01-28 07:10:08.10	90.12	2.12	-42.9	-58.8	3.6	1.51e+00	0	31	104	0	60	35136
2026-01-28 07:10:09.11	90.01	2.17	-42.8	-58.8	3.6	1.51e+00	0	31	104	0	60	35489
2026-01-28 07:10:10.12	89.89	2.23	-42.9	-58.8	3.6	1.51e+00	0	30	104	0	60	35343
2026-01-28 07:10:11.13	89.78	2.28	-42.9	-58.8	3.6	1.51e+00	0	31	104	0	60	35243
2026-01-28 07:10:12.14	89.66	2.34	-42.8	-58.8	3.6	1.51e+00	0	31	104	0	60	35129
2026-01-28 07:10:13.15	89.54	2.40	-42.8	-58.8	3.6	1.51e+00	0	31	104	0	60	35332
2026-01-28 07:10:14.16	89.43	2.45	-42.9	-58.8	3.6	1.51e+00	0	31	104	0	60	35290
2026-01-28 07:10:15.17	89.31	2.51	-42.9	-58.8	3.6	1.51e+00	0	31	104	0	60	35281
2026-01-28 07:10:16.18	89.19	2.57	-42.9	-58.8	3.6	1.51e+00	0	31	104	0	60	35278
2026-01-28 07:10:17.19	89.07	2.62	-42.9	-58.8	3.6	1.51e+00	0	31	104	0	60	35249
2026-01-28 07:10:18.20	88.95	2.68	-42.9	-58.7	3.6	1.51e+00	0	31	104	0	60	35084
2026-01-28 07:10:19.21	88.83	2.74	-42.9	-58.8	3.6	1.51e+00	0	31	104	0	60	35324
2026-01-28 07:10:20.22	88.71	2.79	-42.9	-58.8	3.6	1.51e+00	0	31	104	0	60	35341
2026-01-28 07:10:21.23	88.59	2.85	-42.8	-58.8	3.6	1.51e+00	0	31	104	0	60	35227
2026-01-28 07:10:22.24	88.47	2.91	-42.9	-58.8	3.6	1.51e+00	0	31	104	0	60	35315
2026-01-28 07:10:23.25	88.34	2.96	-42.9	-58.8	3.6	1.51e+00	0	31	104	0	60	35279
2026-01-28 07:10:24.26	88.22	3.02	-42.9	-58.8	3.6	1.51e+00	0	31	104	0	60	35332
2026-01-28 07:10:25.27	88.09	3.08	-42.9	-58.8	3.6	1.51e+00	0	31	104	0	60	35341
2026-01-28 07:10:26.28	87.97	3.13	-42.9	-58.7	3.6	1.51e+00	0	31	104	0	60	35074
2026-01-28 07:10:27.29	87.84	3.19	-42.8	-58.8	3.6	1.51e+00	0	31	104	0	60	35488
2026-01-28 07:10:28.30	87.72	3.25	-42.8	-58.8	3.6	1.51e+00	0	31	104	0	60	35126
2026-01-28 07:10:29.31	87.59	3.30	-42.9	-58.8	3.6	1.51e+00	0	31	104	0	60	35247
2026-01-28 07:10:30.32	87.46	3.36	-42.7	-58.8	3.6	1.51e+00	0	31	104	0	60	35175
2026-01-28 07:10:31.34	87.33	3.42	-44.1	-59.1	3.6	1.51e+00	0	31	104	0	60	36568
2026-01-28 07:10:32.34	87.21	3.48	-43.7	-58.9	3.6	1.51e+00	0	31	104	0	60	35849
2026-01-28 07:10:33.35	87.08	3.53	-43.6	-58.7	3.6	1.51e+00	0	31	104	0	60	35010
2026-01-28 07:10:34.36	86.95	3.59	-42.9	-58.9	3.6	1.51e+00	0	31	104	0	60	35705
2026-01-28 07:10:35.37	86.82	3.65	-42.8	-58.9	3.6	1.51e+00	0	31	104	0	60	35538
2026-01-28 07:10:36.38	86.69	3.71	-44.1	-59.0	3.6	1.51e+00	0	31	104	0	60	35985
2026-01-28 07:10:37.39	86.55	3.76	-42.9	-58.8	3.6	1.51e+00	0	31	104	0	60	35368
2026-01-28 07:10:38.40	86.42	3.82	-43.1	-58.9	3.6	1.51e+00	0	31	104	0	60	35721
2026-01-28 07:10:39.41	86.29	3.88	-43.1	-58.9	3.6	1.51e+00	0	31	104	0	60	35654
2026-01-28 07:10:40.42	86.15	3.94	-43.6	-58.9	3.6	1.51e+00	0	31	104	0	60	35902
2026-01-28 07:10:41.43	86.02	3.99	-43.3	-58.9	3.6	1.51e+00	0	31	104	0	60	35747
2026-01-28 07:10:42.43	85.89	4.05	-43.9	-58.9	3.6	1.51e+00	0	31	104	0	60	35876
2026-01-28 07:10:43.44	85.75	4.11	-43.4	-59.0	3.6	1.51e+00	0	31	104	0	60	35989
2026-01-28 07:10:44.45	85.61	4.17	-44.1	-59.0	3.6	1.51e+00	0	31	104	0	60	36337
2026-01-28 07:10:45.46	85.47	4.22	-42.9	-58.9	3.6	1.51e+00	0	31	104	0	60	35715
2026-01-28 07:10:46.47	85.34	4.28	-43.9	-59.0	3.6	1.51e+00	0	31	104	0	60	36155
2026-01-28 07:10:47.48	85.20	4.34	-44.1	-59.0	3.6	1.51e+00	0	31	104	0	60	36157
2026-01-28 07:10:48.49	85.06	4.40	-44.1	-59.1	3.6	1.51e+00	0	31	104	0	60	36376
2026-01-28 07:10:49.50	84.92	4.45	-44.2	-59.0	3.6	1.51e+00	0	31	104	0	60	35974
2026-01-28 07:10:50.51	84.78	4.51	-44.2	-59.0	3.6	1.51e+00	0	31	104	0	60	36324
2026-01-28 07:10:51.51	84.64	4.57	-44.1	-59.1	3.6	1.51e+00	0	31	104	0	60	36400
2026-01-28 07:10:52.53	84.49	4.63	-44.2	-59.1	3.6	1.51e+00	0	31	104	0	60	36405
2026-01-28 07:10:53.53	84.35	4.69	-44.0	-59.0	3.6	1.51e+00	0	31	104	0	60	36147
2026-01-28 07:10:54.54	84.21	4.74	-44.1	-59.1	3.6	1.51e+00	0	31	104	0	60	36445
2026-01-28 07:10:55.55	84.06	4.80	-43.8	-59.1	3.6	1.51e+00	0	31	104	0	60	36463
2026-01-28 07:10:56.56	83.92	4.86	-43.5	-59.1	3.6	1.51e+00	0	31	104	0	60	36461
2026-01-28 07:10:57.57	83.77	4.92	-43.4	-59.0	3.6	1.51e+00	0	31	104	0	60	36345
2026-01-28 07:10:58.58	83.62	4.98	-43.3	-59.1	3.6	1.51e+00	0	31	104	0	60	36570
2026-01-28 07:10:59.59	83.47	5.03	-42.7	-59.1	3.6	1.51e+00	0	31	104	0	60	36552
2026-01-28 07:11:00.60	83.33	5.09	-42.9	-59.1	3.6	1.51e+00	0	31	104	0	60	36597
2026-01-28 07:11:01.61	83.18	5.15	-41.5	-59.0	3.6	1.51e+00	0	31	104	0	58	40476
2026-01-28 07:11:02.61	83.03	5.21	-43.2	-59.1	3.6	1.51e+00	0	31	104	0	60	36692
2026-01-28 07:11:03.62	82.88	5.27	-43.7	-59.2	3.6	1.51e+00	0	31	104	0	60	37125
2026-01-28 07:11:04.63	82.73	5.33	-43.2	-59.2	3.6	1.51e+00	0	31	104	0	60	36779
2026-01-28 07:11:05.64	82.57	5.38	-44.2	-59.2	3.6	1.51e+00	0	31	104	0	60	36820
2026-01-28 07:11:06.65	82.42	5.44	-44.0	-59.1	3.6	1.51e+00	0	31	104	0	60	36656
2026-01-28 07:11:07.66	82.27	5.50	-44.1	-59.2	3.6	1.51e+00	0	31	104	0	60	37174
2026-01-28 07:11:08.67	82.11	5.56	-43.6	-59.2	3.6	1.51e+00	0	31	104	0	60	36893
2026-01-28 07:11:09.67	81.96	5.62	-43.7	-59.2	3.6	1.51e+00	0	31	104	0	60	37060
2026-01-28 07:11:10.68	81.80	5.68	-43.4	-59.3	3.6	1.51e+00	0	31	104	0	60	37205
2026-01-28 07:11:11.69	81.64	5.73	-43.6	-59.3	3.6	1.51e+00	0	31	104	0	60	37277
2026-01-28 07:11:12.70	81.49	5.79	-43.1	-59.3	3.6	1.51e+00	0	31	104	0	60	37210
2026-01-28 07:11:13.70	81.33	5.85	-44.2	-59.3	3.6	1.51e+00	0	31	104	0	60	37288
2026-01-28 07:11:14.71	81.17	5.91	-43.9	-59.2	3.6	1.51e+00	0	31	104	0	60	37160
2026-01-28 07:11:15.72	81.01	5.97	-44.1	-59.3	3.6	1.51e+00	0	31	104	0	60	37332
2026-01-28 07:11:16.73	80.85	6.02	-44.2	-59.2	3.6	1.51e+00	0	31	104	0	60	37088
2026-01-28 07:11:17.74	80.68	6.08	-44.1	-59.2	3.6	1.51e+00	0	31	104	0	60	37159
2026-01-28 07:11:18.75	80.52	6.14	-44.3	-59.2	3.6	1.51e+00	0	31	104	0	60	37200
2026-01-28 07:11:19.76	80.36	6.20	-44.2	-59.3	3.6	1.51e+00	0	31	104	0	60	37566
2026-01-28 07:11:20.77	80.19	6.26	-43.1	-59.3	3.6	1.51e+00	0	31	104	0	60	37233
2026-01-28 07:11:21.77	80.03	6.32	-44.2	-59.3	3.6	1.51e+00	0	31	104	0	60	37477
2026-01-28 07:11:22.78	79.86	6.37	-44.2	-59.3	3.6	1.51e+00	0	31	104	0	60	37323
2026-01-28 07:11:23.79	79.70	6.43	-44.1	-59.3	3.6	1.51e+00	0	31	104	0	60	37499
2026-01-28 07:11:24.81	79.53	6.49	-44.0	-59.3	3.6	1.51e+00	0	31	104	0	60	37333
2026-01-28 07:11:25.81	79.36	6.55	-44.1	-59.3	3.6	1.51e+00	0	31	104	0	60	37595
2026-01-28 07:11:26.82	79.19	6.61	-44.1	-59.3	3.6	1.51e+00	0	31	104	0	60	37468
2026-01-28 07:11:27.83	79.02	6.67	-44.5	-59.4	3.6	1.51e+00	0	31	104	0	60	37674
2026-01-28 07:11:28.84	78.85	6.72	-43.9	-59.3	3.6	1.51e+00	0	31	104	0	60	37297
2026-01-28 07:11:29.85	78.67	6.78	-44.4	-59.4	3.6	1.51e+00	0	31	104	0	60	37679
2026-01-28 07:11:30.86	78.50	6.84	-44.5	-59.3	3.6	1.51e+00	0	31	104	0	60	37419
2026-01-28 07:11:31.87	78.33	6.90	-42.9	-59.4	3.6	1.51e+00	0	31	104	0	60	37727
2026-01-28 07:11:32.88	78.15	6.96	-44.4	-59.4	3.6	1.51e+00	0	31	104	0	60	37671
2026-01-28 07:11:33.89	77.98	7.01	-44.5	-59.4	3.6	1.51e+00	0	31	104	0	60	37764
2026-01-28 07:11:34.90	77.80	7.07	-43.9	-59.3	3.6	1.51e+00	0	31	104	0	60	37489
2026-01-28 07:11:35.91	77.62	7.13	-44.5	-59.4	3.6	1.51e+00	0	31	104	0	60	37949
2026-01-28 07:11:36.92	77.44	7.19	-42.8	-59.3	3.6	1.51e+00	0	31	104	0	60	37412
2026-01-28 07:11:37.93	77.26	7.25	-44.0	-59.4	3.6	1.51e+00	0	31	104	0	60	37994
2026-01-28 07:11:38.93	77.08	7.30	-44.1	-59.4	3.6	1.51e+00	0	31	104	0	60	37844
2026-01-28 07:11:39.94	76.90	7.36	-44.7	-59.4	3.6	1.51e+00	0	31	104	0	60	38008
2026-01-28 07:11:40.95	76.72	7.42	-43.9	-59.4	3.6	1.51e+00	0	31	104	0	60	37737
2026-01-28 07:11:41.96	76.54	7.48	-43.8	-59.4	3.6	1.51e+00	0	31	104	0	60	37861
2026-01-28 07:11:42.97	76.35	7.54	-44.1	-59.4	3.6	1.51e+00	0	31	104	0	60	37674
2026-01-28 07:11:43.98	76.17	7.59	-44.4	-59.4	3.6	1.51e+00	0	31	104	0	60	38029
2026-01-28 07:11:44.99	75.98	7.65	-44.4	-59.4	3.6	1.51e+00	0	31	104	0	60	37755
2026-01-28 07:11:45.99	75.80	7.71	-44.3	-59.4	3.6	1.51e+00	0	31	104	0	60	37709
2026-01-28 07:11:47.00	75.61	7.76	-43.6	-59.4	3.6	1.51e+00	0	31	104	0	60	37736
2026-01-28 07:11:48.01	75.42	7.82	-44.0	-59.5	3.6	1.51e+00	0	31	104	0	60	38127
2026-01-28 07:11:49.02	75.23	7.88	-44.4	-59.4	3.6	1.51e+00	0	31	104	0	60	37893
2026-01-28 07:11:50.03	75.04	7.94	-44.2	-59.4	3.6	1.51e+00	0	31	104	0	60	37995
2026-01-28 07:11:51.04	74.85	7.99	-43.9	-59.4	3.6	1.51e+00	0	31	104	0	60	37997
2026-01-28 07:11:52.05	74.66	8.05	-43.4	-59.5	3.6	1.51e+00	0	31	104	0	60	38233
2026-01-28 07:11:53.06	74.46	8.11	-43.2	-59.4	3.6	1.51e+00	0	31	104	0	60	37901
2026-01-28 07:11:54.07	74.27	8.16	-40.1	-59.4	3.6	1.51e+00	0	31	104	0	56	47919
2026-01-28 07:11:55.08	74.07	8.22	-44.3	-59.5	3.6	1.51e+00	0	31	104	0	60	38226
2026-01-28 07:11:56.09	73.88	8.28	-41.4	-59.5	3.6	1.51e+00	0	31	104	0	58	42766
2026-01-28 07:11:57.10	73.68	8.33	-40.3	-59.4	3.6	1.51e+00	0	31	104	0	56	47638
2026-01-28 07:11:58.11	73.48	8.39	-40.7	-59.4	3.6	1.51e+00	0	31	104	0	54	53385
2026-01-28 07:11:59.12	73.28	8.45	-41.8	-59.5	3.6	1.51e+00	0	31	104	0	60	38124
2026-01-28 07:12:00.13	73.08	8.50	-42.4	-59.5	3.6	1.51e+00	0	31	104	0	60	38194
2026-01-28 07:12:01.14	72.88	8.56	-43.3	-59.4	3.6	1.51e+00	0	31	104	0	60	37991
2026-01-28 07:12:02.15	72.68	8.61	-42.6	-59.5	3.6	1.51e+00	0	31	104	0	60	38155
2026-01-28 07:12:03.16	72.47	8.67	-41.8	-59.4	3.6	1.51e+00	0	31	104	0	58	42464
2026-01-28 07:12:04.17	72.27	8.73	-44.6	-59.5	3.6	1.51e+00	0	31	104	0	60	38229
2026-01-28 07:12:05.18	72.07	8.78	-44.0	-59.5	3.6	1.51e+00	0	31	104	0	60	38146
2026-01-28 07:12:06.19	71.86	8.84	-44.0	-59.5	3.6	1.51e+00	0	31	104	0	60	38320
2026-01-28 07:12:07.20	71.65	8.89	-43.4	-59.5	3.6	1.51e+00	0	31	104	0	60	38352
2026-01-28 07:12:08.21	71.44	8.95	-44.7	-59.5	3.6	1.51e+00	0	31	104	0	60	38485
2026-01-28 07:12:09.22	71.23	9.00	-44.6	-59.5	3.6	1.51e+00	0	31	104	0	60	38285
2026-01-28 07:12:10.23	71.02	9.06	-43.5	-59.5	3.6	1.51e+00	0	31	104	0	60	38122
2026-01-28 07:12:11.24	70.81	9.11	-44.2	-59.5	3.6	1.51e+00	0	31	104	0	60	38108
2026-01-28 07:12:12.25	70.60	9.17	-44.7	-59.5	3.6	1.51e+00	0	31	104	0	60	38301
2026-01-28 07:12:13.25	70.39	9.22	-44.7	-59.5	3.6	1.51e+00	0	31	104	0	60	38215
2026-01-28 07:12:14.26	70.18	9.28	-41.7	-59.4	3.6	1.51e+00	0	31	104	0	58	42681
2026-01-28 07:12:15.27	69.96	9.33	-43.6	-59.5	3.6	1.51e+00	0	31	104	0	60	38357
2026-01-28 07:12:16.28	69.75	9.38	-43.0	-59.6	3.6	1.51e+00	0	31	104	0	60	38745
2026-01-28 07:12:17.29	69.53	9.44	-43.3	-59.5	3.6	1.51e+00	0	31	104	0	60	38316
2026-01-28 07:12:18.30	69.31	9.49	-41.2	-59.5	3.6	1.51e+00	0	31	104	0	58	43123
2026-01-28 07:12:19.31	69.09	9.54	-41.0	-59.5	3.6	1.51e+00	0	31	104	0	58	42786
2026-01-28 07:12:20.32	68.87	9.60	-40.8	-59.5	3.6	1.51e+00	0	31	104	0	56	48358
2026-01-28 07:12:21.33	68.65	9.65	-41.9	-59.5	3.6	1.51e+00	0	31	104	0	58	42737
2026-01-28 07:12:22.34	68.43	9.70	-41.9	-59.5	3.6	1.51e+00	0	31	104	0	58	43092
2026-01-28 07:12:23.35	68.20	9.76	-42.8	-59.5	3.6	1.51e+00	0	31	104	0	60	38438
2026-01-28 07:12:24.36	67.98	9.81	-40.8	-59.5	3.6	1.51e+00	0	31	104	0	56	48321
2026-01-28 07:12:25.36	67.76	9.86	-41.0	-59.5	3.6	1.51e+00	0	31	104	0	56	48318
2026-01-28 07:12:26.37	67.53	9.91	-40.9	-59.5	3.6	1.51e+00	0	31	104	0	58	43066
2026-01-28 07:12:27.38	67.30	9.96	-42.2	-59.5	3.6	1.51e+00	0	31	104	0	58	43095
2026-01-28 07:12:28.39	67.08	10.02	-42.3	-59.5	3.6	1.51e+00	0	31	104	0	58	43065
2026-01-28 07:12:29.40	66.85	10.07	-44.8	-59.6	3.6	1.51e+00	0	31	104	0	60	38715
2026-01-28 07:12:30.41	66.62	10.12	-44.2	-59.6	3.6	1.51e+00	0	31	104	0	60	38525
2026-01-28 07:12:31.42	66.39	10.17	-43.9	-59.6	3.6	1.51e+00	0	31	104	0	60	38572
2026-01-28 07:12:32.43	66.15	10.22	-44.8	-59.6	3.6	1.51e+00	0	31	104	0	60	38777
2026-01-28 07:12:33.44	65.92	10.27	-44.5	-59.6	3.6	1.51e+00	0	31	104	0	60	38559
2026-01-28 07:12:34.45	65.69	10.32	-44.4	-59.6	3.6	1.51e+00	0	32	104	0	60	38648
2026-01-28 07:12:35.46	65.45	10.37	-44.7	-59.6	3.6	1.51e+00	0	31	104	0	60	38717
2026-01-28 07:12:36.47	65.22	10.42	-44.5	-59.6	3.6	1.51e+00	0	31	104	0	60	38713
2026-01-28 07:12:37.48	64.98	10.47	-44.4	-59.6	3.6	1.51e+00	0	31	104	0	60	38556
2026-01-28 07:12:38.49	64.74	10.52	-44.6	-59.6	3.6	1.51e+00	0	31	104	0	60	38860
2026-01-28 07:12:39.50	64.50	10.57	-44.9	-59.6	3.6	1.51e+00	0	31	104	0	60	38702
2026-01-28 07:12:40.51	64.26	10.62	-44.4	-59.6	3.6	1.51e+00	0	31	104	0	60	38736
2026-01-28 07:12:41.52	64.02	10.66	-39.9	-59.6	3.6	1.51e+00	0	31	104	0	56	48673
2026-01-28 07:12:42.53	63.78	10.71	-42.5	-59.5	3.6	1.51e+00	0	32	104	0	58	43203
2026-01-28 07:12:43.54	63.53	10.76	-42.6	-59.6	3.6	1.51e+00	0	31	104	0	60	38801
2026-01-28 07:12:44.55	63.29	10.81	-40.5	-59.6	3.6	1.51e+00	0	31	104	0	56	48854
2026-01-28 07:12:45.56	63.05	10.85	-42.1	-59.6	3.6	1.51e+00	0	31	104	0	60	38844
2026-01-28 07:12:46.57	62.80	10.90	-40.2	-59.6	3.6	1.51e+00	0	31	104	0	56	48732
2026-01-28 07:12:47.58	62.55	10.95	-41.4	-59.6	3.6	1.51e+00	0	32	104	0	54	54525
2026-01-28 07:12:48.59	62.31	10.99	-43.3	-59.7	3.6	1.51e+00	0	31	104	0	60	38996
2026-01-28 07:12:49.60	62.06	11.04	-44.7	-59.7	3.6	1.51e+00	0	31	104	0	60	38983
2026-01-28 07:12:50.61	61.81	11.08	-44.3	-59.6	3.6	1.51e+00	0	32	104	0	60	38924
2026-01-28 07:12:51.62	61.56	11.13	-43.7	-59.6	3.6	1.51e+00	0	31	104	0	60	38864
2026-01-28 07:12:52.62	61.31	11.17	-44.9	-59.6	3.6	1.51e+00	0	32	104	0	60	38775
2026-01-28 07:12:53.63	61.05	11.22	-44.9	-59.7	3.6	1.51e+00	0	31	104	0	60	38964
2026-01-28 07:12:54.64	60.80	11.26	-44.8	-59.6	3.6	1.51e+00	0	31	104	0	60	38755
2026-01-28 07:12:55.65	60.55	11.31	-43.1	-59.7	3.6	1.51e+00	0	31	104	0	60	38966
2026-01-28 07:12:56.66	60.29	11.35	-44.1	-59.6	3.6	1.51e+00	0	31	104	0	60	38940
2026-01-28 07:12:57.67	60.03	11.39	-43.8	-59.6	3.6	1.51e+00	0	31	104	0	60	38830
2026-01-28 07:12:58.68	59.78	11.44	-43.6	-59.6	3.6	1.51e+00	0	31	104	0	60	38948
2026-01-28 07:12:59.69	59.52	11.48	-43.8	-59.7	3.6	1.51e+00	0	31	104	0	60	39064
2026-01-28 07:13:00.70	59.26	11.52	-44.8	-59.7	3.6	1.51e+00	0	31	104	0	60	39047
2026-01-28 07:13:01.71	59.00	11.56	-44.4	-59.7	3.6	1.51e+00	0	31	104	0	60	39092
2026-01-28 07:13:02.71	58.74	11.60	-44.4	-59.6	3.6	1.51e+00	0	31	104	0	60	38904
2026-01-28 07:13:03.72	58.48	11.64	-44.3	-59.7	3.6	1.51e+00	0	31	104	0	60	39056
2026-01-28 07:13:04.73	58.22	11.68	-43.9	-59.7	3.6	1.51e+00	0	31	104	0	60	38987
2026-01-28 07:13:05.74	57.95	11.72	-43.3	-59.6	3.6	1.51e+00	0	32	104	0	60	38944
2026-01-28 07:13:06.75	57.69	11.76	-43.8	-59.6	3.6	1.51e+00	0	31	104	0	60	38880
2026-01-28 07:13:07.76	57.42	11.80	-44.6	-59.6	3.6	1.51e+00	0	31	104	0	60	38941
2026-01-28 07:13:08.77	57.16	11.84	-44.9	-59.6	3.6	1.51e+00	0	31	104	0	60	38792
2026-01-28 07:13:09.78	56.89	11.88	-44.7	-59.7	3.6	1.51e+00	0	31	104	0	60	38994
2026-01-28 07:13:10.79	56.62	11.91	-44.8	-59.6	3.6	1.51e+00	0	31	104	0	60	38937
2026-01-28 07:13:11.80	56.35	11.95	-44.8	-59.7	3.6	1.51e+00	0	32	104	0	60	39157
2026-01-28 07:13:12.81	56.08	11.99	-44.1	-59.7	3.6	1.51e+00	0	31	104	0	60	39135
2026-01-28 07:13:13.82	55.81	12.02	-43.8	-59.7	3.6	1.51e+00	0	31	104	0	60	39075
2026-01-28 07:13:14.83	55.54	12.06	-43.9	-59.7	3.6	1.51e+00	0	31	104	0	60	38984
2026-01-28 07:13:15.84	55.27	12.10	-44.6	-59.7	3.6	1.51e+00	0	31	104	0	60	39213
2026-01-28 07:13:16.84	55.00	12.13	-45.0	-59.7	3.6	1.51e+00	0	31	104	0	60	39124
2026-01-28 07:13:17.85	54.73	12.16	-45.0	-59.7	3.6	1.51e+00	0	31	104	0	60	39011
2026-01-28 07:13:18.86	54.45	12.20	-44.9	-59.7	3.6	1.51e+00	0	31	104	0	60	39117
2026-01-28 07:13:19.87	54.18	12.23	-45.0	-59.7	3.6	1.51e+00	0	31	104	0	60	39085
2026-01-28 07:13:20.88	53.90	12.26	-45.0	-59.7	3.6	1.51e+00	0	31	104	0	60	39362
2026-01-28 07:13:21.89	53.63	12.30	-44.3	-59.7	3.6	1.51e+00	0	31	104	0	60	39258
2026-01-28 07:13:22.90	53.35	12.33	-44.6	-59.7	3.6	1.51e+00	0	32	104	0	60	39176
2026-01-28 07:13:23.91	53.07	12.36	-44.5	-59.7	3.6	1.51e+00	0	31	104	0	60	39294
2026-01-28 07:13:24.92	52.79	12.39	-44.8	-59.7	3.6	1.51e+00	0	32	104	0	60	39126
2026-01-28 07:13:25.93	52.51	12.42	-44.9	-59.7	3.6	1.51e+00	0	31	104	0	60	39392
2026-01-28 07:13:26.93	52.23	12.45	-44.6	-59.7	3.6	1.51e+00	0	32	104	0	60	39312
2026-01-28 07:13:27.95	51.95	12.48	-45.0	-59.7	3.6	1.51e+00	0	32	104	0	60	39244
2026-01-28 07:13:28.96	51.67	12.51	-44.9	-59.7	3.6	1.51e+00	0	31	104	0	60	39287
2026-01-28 07:13:29.97	51.39	12.54	-44.9	-59.8	3.6	1.51e+00	0	32	104	0	60	39431
2026-01-28 07:13:30.98	51.10	12.57	-45.0	-59.7	3.6	1.51e+00	0	31	104	0	60	39175
2026-01-28 07:13:31.99	50.82	12.59	-44.9	-59.7	3.6	1.51e+00	0	32	104	0	60	39328
2026-01-28 07:13:32.99	50.54	12.62	-44.1	-59.7	3.6	1.51e+00	0	32	104	0	60	39149
2026-01-28 07:13:34.00	50.25	12.65	-44.7	-59.7	3.6	1.51e+00	0	31	104	0	60	39278
2026-01-28 07:13:35.01	49.97	12.67	-45.0	-59.7	3.6	1.51e+00	0	32	104	0	60	39092
2026-01-28 07:13:36.02	49.68	12.70	-44.8	-59.8	3.6	1.51e+00	0	31	104	0	60	39468
2026-01-28 07:13:37.03	49.40	12.72	-44.1	-59.7	3.6	1.51e+00	0	31	104	0	60	39107
2026-01-28 07:13:38.04	49.11	12.74	-44.3	-59.8	3.6	1.51e+00	0	31	104	0	60	39424
2026-01-28 07:13:39.05	48.82	12.77	-44.8	-59.7	3.6	1.51e+00	0	31	104	0	60	39365
2026-01-28 07:13:40.06	48.53	12.79	-45.0	-59.8	3.6	1.51e+00	0	31	104	0	60	39452
2026-01-28 07:13:41.07	48.25	12.81	-44.0	-59.7	3.6	1.51e+00	0	32	104	0	60	39347
2026-01-28 07:13:42.08	47.96	12.83	-43.5	-59.7	3.6	1.51e+00	0	32	104	0	60	39363
2026-01-28 07:13:43.09	47.67	12.85	-43.9	-59.7	3.6	1.51e+00	0	31	104	0	60	39316
2026-01-28 07:13:44.10	47.38	12.87	-44.0	-59.7	3.6	1.51e+00	0	31	104	0	60	39329
2026-01-28 07:13:45.11	47.08	12.89	-44.9	-59.8	3.6	1.51e+00	0	32	104	0	60	39414
2026-01-28 07:13:46.12	46.79	12.91	-44.7	-59.7	3.6	1.51e+00	0	31	104	0	60	39283
2026-01-28 07:13:47.13	46.50	12.93	-44.7	-59.7	3.6	1.51e+00	0	32	104	0	60	39392
2026-01-28 07:13:48.13	46.21	12.95	-44.2	-59.7	3.6	1.51e+00	0	32	104	0	60	39311
2026-01-28 07:13:49.14	45.92	12.97	-44.8	-59.7	3.6	1.51e+00	0	32	104	0	60	39317
2026-01-28 07:13:50.15	45.63	12.98	-44.9	-59.7	3.6	1.51e+00	0	32	104	0	60	39300
2026-01-28 07:13:51.16	45.33	13.00	-44.9	-59.7	3.6	1.51e+00	0	32	104	0	60	39345
2026-01-28 07:13:52.17	45.04	13.01	-44.8	-59.8	3.6	1.51e+00	0	32	104	0	60	39450
2026-01-28 07:13:53.18	44.75	13.03	-44.9	-59.8	3.6	1.51e+00	0	32	104	0	60	39462
2026-01-28 07:13:54.19	44.45	13.04	-44.9	-59.8	3.6	1.51e+00	0	32	104	0	60	39515
2026-01-28 07:13:55.20	44.16	13.06	-44.7	-59.7	3.6	1.51e+00	0	32	104	0	60	39292
2026-01-28 07:13:56.21	43.86	13.07	-44.8	-59.7	3.6	1.51e+00	0	32	104	0	60	39292
2026-01-28 07:13:57.22	43.57	13.08	-45.0	-59.7	3.6	1.51e+00	0	32	104	0	60	39120
2026-01-28 07:13:58.23	43.27	13.09	-45.0	-59.8	3.6	1.51e+00	0	32	104	0	60	39580
2026-01-28 07:13:59.24	42.97	13.10	-45.1	-59.7	3.6	1.51e+00	0	32	104	0	60	39370
2026-01-28 07:14:00.24	42.68	13.11	-44.8	-59.7	3.6	1.51e+00	0	32	104	0	60	39376
2026-01-28 07:14:01.26	42.38	13.12	-44.8	-59.7	3.6	1.51e+00	0	32	104	0	60	39213
2026-01-28 07:14:02.27	42.09	13.13	-44.4	-59.8	3.6	1.51e+00	0	31	104	0	60	39430
2026-01-28 07:14:03.28	41.79	13.14	-45.0	-59.7	3.6	1.51e+00	0	32	104	0	60	39351
2026-01-28 07:14:04.29	41.49	13.15	-45.1	-59.8	3.6	1.51e+00	0	31	104	0	60	39713
2026-01-28 07:14:05.29	41.20	13.16	-45.0	-59.7	3.6	1.51e+00	0	32	104	0	60	39276
2026-01-28 07:14:06.30	40.90	13.16	-44.8	-59.8	3.6	1.51e+00	0	32	104	0	60	39460
2026-01-28 07:14:07.31	40.60	13.17	-44.9	-59.7	3.6	1.51e+00	0	32	104	0	60	39295
2026-01-28 07:14:08.32	40.30	13.17	-45.0	-59.8	3.6	1.51e+00	0	31	104	0	60	39441
2026-01-28 07:14:09.33	40.01	13.18	-44.8	-59.7	3.6	1.51e+00	0	32	104	0	60	39301
2026-01-28 07:14:10.33	39.71	13.18	-44.8	-59.7	3.6	1.51e+00	0	31	104	0	60	39294
2026-01-28 07:14:11.34	39.41	13.19	-44.9	-59.8	3.6	1.51e+00	0	31	104	0	60	39519
2026-01-28 07:14:12.36	39.11	13.19	-45.0	-59.8	3.6	1.51e+00	0	32	104	0	60	39415
2026-01-28 07:14:13.37	38.81	13.19	-44.9	-59.7	3.6	1.51e+00	0	31	104	0	60	39380
2026-01-28 07:14:14.37	38.52	13.19	-44.8	-59.8	3.6	1.51e+00	0	32	104	0	60	39409
2026-01-28 07:14:15.38	38.22	13.19	-44.9	-59.7	3.6	1.51e+00	0	31	104	0	60	39337
2026-01-28 07:14:16.39	37.92	13.19	-44.9	-59.7	3.6	1.51e+00	0	32	104	0	60	39334
2026-01-28 07:14:17.40	37.62	13.19	-44.6	-59.7	3.6	1.51e+00	0	32	104	0	60	39374
2026-01-28 07:14:18.41	37.32	13.19	-44.4	-59.7	3.5	1.51e+00	0	32	104	0	60	39329
2026-01-28 07:14:19.42	37.03	13.19	-44.9	-59.8	3.6	1.51e+00	0	31	104	0	60	39609
2026-01-28 07:14:20.43	36.73	13.19	-44.7	-59.8	3.6	1.51e+00	0	31	104	0	60	39604
2026-01-28 07:14:21.44	36.43	13.18	-44.3	-59.7	3.6	1.51e+00	0	32	104	0	60	39383
2026-01-28 07:14:22.45	36.13	13.18	-44.9	-59.7	3.6	1.51e+00	0	32	104	0	60	39291
2026-01-28 07:14:23.45	35.84	13.17	-44.9	-59.7	3.6	1.51e+00	0	32	104	0	60	39305
2026-01-28 07:14:24.46	35.54	13.17	-45.1	-59.8	3.6	1.51e+00	0	32	104	0	60	39438
2026-01-28 07:14:25.47	35.24	13.16	-44.7	-59.8	3.5	1.51e+00	0	32	104	0	60	39606
2026-01-28 07:14:26.48	34.94	13.16	-44.9	-59.7	3.6	1.51e+00	0	32	104	0	60	39399
2026-01-28 07:14:27.49	34.65	13.15	-44.9	-59.7	3.6	1.51e+00	0	32	104	0	60	39394
2026-01-28 07:14:28.50	34.35	13.14	-44.8	-59.8	3.6	1.51e+00	0	32	104	0	60	39570
2026-01-28 07:14:29.51	34.05	13.13	-44.6	-59.7	3.6	1.51e+00	0	32	104	0	60	39326
2026-01-28 07:14:30.52	33.76	13.12	-44.8	-59.7	3.6	1.51e+00	0	32	104	0	60	39366
2026-01-28 07:14:31.53	33.46	13.11	-44.9	-59.7	3.6	1.51e+00	0	32	104	0	60	39359
2026-01-28 07:14:32.53	33.17	13.10	-45.0	-59.8	3.6	1.51e+00	0	32	104	0	60	39448
2026-01-28 07:14:33.55	32.87	13.09	-44.8	-59.7	3.6	1.51e+00	0	32	104	0	60	39307
2026-01-28 07:14:34.56	32.57	13.08	-45.0	-59.7	3.6	1.51e+00	0	32	104	0	60	39350
2026-01-28 07:14:35.56	32.28	13.07	-44.9	-59.8	3.6	1.51e+00	0	31	104	0	60	39441
2026-01-28 07:14:36.57	31.98	13.05	-45.0	-59.7	3.6	1.51e+00	0	32	104	0	60	39389
2026-01-28 07:14:37.58	31.69	13.04	-44.7	-59.7	3.6	1.51e+00	0	32	104	0	60	39314
2026-01-28 07:14:38.59	31.39	13.03	-44.7	-59.7	3.6	1.51e+00	0	31	104	0	60	39305
2026-01-28 07:14:39.60	31.10	13.01	-44.8	-59.8	3.6	1.51e+00	0	31	104	0	60	39408
2026-01-28 07:14:40.61	30.81	12.99	-44.7	-59.8	3.6	1.51e+00	0	32	104	0	60	39426
2026-01-28 07:14:41.62	30.51	12.98	-44.2	-59.8	3.6	1.51e+00	0	32	104	0	60	39430
2026-01-28 07:14:42.63	30.22	12.96	-44.6	-59.7	3.6	1.51e+00	0	32	104	0	60	39327
2026-01-28 07:14:43.64	29.93	12.94	-44.9	-59.8	3.6	1.51e+00	0	32	104	0	60	39463
2026-01-28 07:14:44.65	29.63	12.93	-44.8	-59.8	3.6	1.51e+00	0	32	104	0	60	39420
2026-01-28 07:14:45.65	29.35	12.91	-44.7	-59.7	3.6	1.51e+00	0	31	104	0	60	39362
2026-01-28 07:14:46.66	29.05	12.89	-44.9	-59.7	3.6	1.51e+00	0	31	104	0	60	39326
2026-01-28 07:14:47.67	28.76	12.87	-45.0	-59.8	3.6	1.51e+00	0	32	104	0	60	39467
2026-01-28 07:14:48.68	28.47	12.85	-44.9	-59.7	3.6	1.51e+00	0	32	104	0	60	39338
2026-01-28 07:14:49.69	28.18	12.83	-45.0	-59.7	3.6	1.51e+00	0	32	104	0	60	39257
2026-01-28 07:14:50.70	27.89	12.81	-44.9	-59.8	3.6	1.51e+00	0	32	104	0	60	39483
2026-01-28 07:14:51.71	27.61	12.78	-45.0	-59.7	3.6	1.51e+00	0	32	104	0	60	39195
2026-01-28 07:14:52.72	27.32	12.76	-44.9	-59.7	3.6	1.51e+00	0	32	104	0	60	39286
2026-01-28 07:14:53.73	27.03	12.74	-45.0	-59.7	3.6	1.51e+00	0	32	104	0	60	39252
2026-01-28 07:14:54.73	26.75	12.71	-45.0	-59.7	3.6	1.51e+00	0	32	104	0	60	39364
2026-01-28 07:14:55.74	26.46	12.69	-45.0	-59.7	3.6	1.51e+00	0	31	104	0	60	39285
2026-01-28 07:14:56.75	26.17	12.66	-45.0	-59.7	3.6	1.51e+00	0	32	104	0	60	39144
2026-01-28 07:14:57.76	25.89	12.64	-45.0	-59.7	3.6	1.51e+00	0	31	104	0	60	39372
2026-01-28 07:14:58.77	25.60	12.61	-45.0	-59.7	3.6	1.51e+00	0	32	104	0	60	39341
2026-01-28 07:14:59.78	25.32	12.58	-45.0	-59.8	3.6	1.51e+00	0	31	104	0	60	39451
2026-01-28 07:15:00.79	25.03	12.56	-44.9	-59.7	3.5	1.51e+00	0	32	104	0	60	39164
2026-01-28 07:15:01.80	24.75	12.53	-44.8	-59.7	3.6	1.51e+00	0	31	104	0	60	39150
2026-01-28 07:15:02.81	24.47	12.50	-45.0	-59.7	3.6	1.51e+00	0	32	104	0	60	39161
2026-01-28 07:15:03.82	24.19	12.47	-44.9	-59.7	3.6	1.51e+00	0	32	104	0	60	39089
2026-01-28 07:15:04.83	23.91	12.44	-44.6	-59.7	3.6	1.51e+00	0	32	104	0	60	39376
2026-01-28 07:15:05.83	23.63	12.41	-44.9	-59.7	3.6	1.51e+00	0	32	104	0	60	39397
2026-01-28 07:15:06.84	23.35	12.38	-44.9	-59.7	3.6	1.51e+00	0	32	104	0	60	39235
2026-01-28 07:15:07.85	23.07	12.35	-45.0	-59.7	3.6	1.51e+00	0	32	104	0	60	39329
2026-01-28 07:15:08.86	22.79	12.32	-45.0	-59.7	3.6	1.51e+00	0	32	104	0	60	39121
2026-01-28 07:15:09.87	22.51	12.29	-44.9	-59.7	3.6	1.51e+00	0	31	104	0	60	39087
2026-01-28 07:15:10.88	22.24	12.25	-45.0	-59.7	3.6	1.51e+00	0	32	104	0	60	39258
2026-01-28 07:15:11.89	21.96	12.22	-45.0	-59.7	3.6	1.51e+00	0	32	104	0	60	39302
2026-01-28 07:15:12.89	21.69	12.19	-44.9	-59.6	3.6	1.51e+00	0	32	104	0	60	38947
2026-01-28 07:15:13.90	21.42	12.15	-44.9	-59.7	3.6	1.51e+00	0	31	104	0	60	39169
2026-01-28 07:15:14.91	21.14	12.12	-45.0	-59.7	3.6	1.51e+00	0	32	104	0	60	39011
2026-01-28 07:15:15.92	20.87	12.08	-45.0	-59.7	3.6	1.51e+00	0	31	104	0	60	39214
2026-01-28 07:15:16.93	20.60	12.05	-44.9	-59.7	3.6	1.51e+00	0	31	104	0	60	39215
2026-01-28 07:15:17.94	20.33	12.01	-45.0	-59.7	3.6	1.51e+00	0	32	104	0	60	39174
2026-01-28 07:15:18.95	20.06	11.98	-45.0	-59.7	3.6	1.51e+00	0	31	104	0	60	39017
2026-01-28 07:15:19.96	19.79	11.94	-45.0	-59.7	3.6	1.51e+00	0	31	104	0	60	39219
2026-01-28 07:15:20.97	19.52	11.90	-44.9	-59.7	3.6	1.51e+00	0	32	104	0	60	38998
2026-01-28 07:15:21.97	19.25	11.86	-45.0	-59.7	3.6	1.51e+00	0	32	104	0	60	39251
2026-01-28 07:15:22.98	18.98	11.83	-44.9	-59.7	3.6	1.51e+00	0	32	104	0	60	39090
2026-01-28 07:15:23.99	18.72	11.79	-44.9	-59.7	3.6	1.51e+00	0	32	104	0	60	39243
2026-01-28 07:15:25.00	18.45	11.75	-44.8	-59.7	3.6	1.51e+00	0	32	104	0	60	39052
2026-01-28 07:15:26.01	18.19	11.71	-44.9	-59.7	3.6	1.51e+00	0	32	104	0	60	38972
2026-01-28 07:15:27.02	17.92	11.67	-45.0	-59.7	3.6	1.51e+00	0	32	104	0	60	39124
2026-01-28 07:15:28.03	17.66	11.63	-44.9	-59.7	3.6	1.51e+00	0	32	104	0	60	39212
2026-01-28 07:15:29.04	17.40	11.59	-44.7	-59.7	3.6	1.51e+00	0	32	104	0	60	39097
2026-01-28 07:15:30.05	17.14	11.55	-45.0	-59.7	3.6	1.51e+00	0	32	104	0	60	39289
2026-01-28 07:15:31.06	16.88	11.51	-44.7	-59.6	3.6	1.51e+00	0	31	104	0	60	38816
2026-01-28 07:15:32.07	16.62	11.46	-45.0	-59.7	3.5	1.51e+00	0	32	104	0	60	39000
2026-01-28 07:15:33.07	16.36	11.42	-44.7	-59.6	3.6	1.51e+00	0	32	104	0	60	38870
2026-01-28 07:15:34.08	16.11	11.38	-44.8	-59.6	3.6	1.51e+00	0	32	104	0	60	38952
2026-01-28 07:15:35.09	15.85	11.34	-45.0	-59.6	3.6	1.51e+00	0	31	104	0	60	38823
2026-01-28 07:15:36.10	15.59	11.29	-44.9	-59.7	3.6	1.51e+00	0	31	104	0	60	39170
2026-01-28 07:15:37.11	15.34	11.25	-44.5	-59.7	3.6	1.51e+00	0	31	104	0	60	39025
2026-01-28 07:15:38.12	15.09	11.20	-44.8	-59.7	3.6	1.51e+00	0	32	104	0	60	39114
2026-01-28 07:15:39.13	14.83	11.16	-44.9	-59.6	3.6	1.51e+00	0	32	104	0	60	38834
2026-01-28 07:15:40.13	14.58	11.11	-44.9	-59.7	3.6	1.51e+00	0	32	104	0	60	39104
2026-01-28 07:15:41.14	14.33	11.07	-44.3	-59.6	3.6	1.51e+00	0	32	104	0	60	38695
2026-01-28 07:15:42.15	14.08	11.02	-44.9	-59.6	3.6	1.51e+00	0	32	104	0	60	38669
2026-01-28 07:15:43.16	13.83	10.98	-44.8	-59.6	3.6	1.51e+00	0	32	104	0	60	38836
2026-01-28 07:15:44.17	13.59	10.93	-44.9	-59.6	3.6	1.51e+00	0	32	104	0	60	38862
2026-01-28 07:15:45.18	13.34	10.89	-44.7	-59.6	3.6	1.51e+00	0	31	104	0	60	38647
2026-01-28 07:15:46.19	13.09	10.84	-44.9	-59.6	3.6	1.51e+00	0	32	104	0	60	38827
2026-01-28 07:15:47.20	12.85	10.79	-44.9	-59.6	3.6	1.51e+00	0	32	104	0	60	38707
2026-01-28 07:15:48.21	12.60	10.74	-44.8	-59.6	3.6	1.51e+00	0	31	104	0	60	38955
2026-01-28 07:15:49.21	12.36	10.70	-44.9	-59.6	3.6	1.51e+00	0	32	104	0	60	38651
2026-01-28 07:15:50.22	12.12	10.65	-44.9	-59.6	3.6	1.51e+00	0	32	104	0	60	38875
2026-01-28 07:15:51.23	11.88	10.60	-44.9	-59.6	3.6	1.51e+00	0	32	104	0	60	38926
2026-01-28 07:15:52.24	11.64	10.55	-44.9	-59.6	3.6	1.51e+00	0	32	104	0	60	38688
2026-01-28 07:15:53.25	11.40	10.50	-44.6	-59.6	3.6	1.51e+00	0	31	104	0	60	38820
2026-01-28 07:15:54.25	11.17	10.45	-44.7	-59.6	3.6	1.51e+00	0	31	104	0	60	38703
2026-01-28 07:15:55.26	10.93	10.40	-44.9	-59.6	3.6	1.51e+00	0	32	104	0	60	38757
2026-01-28 07:15:56.27	10.69	10.35	-44.9	-59.6	3.6	1.51e+00	0	32	104	0	60	38935
2026-01-28 07:15:57.28	10.46	10.30	-44.8	-59.7	3.6	1.51e+00	0	32	104	0	60	39047
2026-01-28 07:15:58.29	10.22	10.25	-44.8	-59.6	3.6	1.51e+00	0	32	104	0	60	38806
2026-01-28 07:15:59.30	9.99	10.20	-44.6	-59.6	3.6	1.51e+00	0	32	104	0	60	38620
2026-01-28 07:16:00.31	9.76	10.15	-44.8	-59.6	3.6	1.51e+00	0	32	104	0	60	38799
2026-01-28 07:16:01.32	9.53	10.10	-44.8	-59.6	3.6	1.51e+00	0	32	104	0	60	38694
2026-01-28 07:16:02.33	9.30	10.05	-44.8	-59.6	3.6	1.51e+00	0	32	104	0	60	38547
2026-01-28 07:16:03.33	9.07	10.00	-44.7	-59.5	3.6	1.51e+00	0	32	104	0	60	38439
2026-01-28 07:16:04.34	8.84	9.95	-44.9	-59.6	3.6	1.51e+00	0	32	104	0	60	38814
2026-01-28 07:16:05.35	8.61	9.89	-44.8	-59.6	3.6	1.51e+00	0	32	104	0	60	38744
2026-01-28 07:16:06.36	8.39	9.84	-44.8	-59.6	3.6	1.51e+00	0	32	104	0	60	38693
2026-01-28 07:16:07.37	8.16	9.79	-44.9	-59.6	3.6	1.51e+00	0	32	104	0	60	38606
2026-01-28 07:16:08.37	7.94	9.74	-44.9	-59.6	3.6	1.51e+00	0	31	104	0	60	38643
2026-01-28 07:16:09.38	7.72	9.68	-44.8	-59.5	3.6	1.51e+00	0	32	104	0	60	38402
2026-01-28 07:16:10.39	7.49	9.63	-44.9	-59.6	3.6	1.51e+00	0	31	104	0	60	38875
2026-01-28 07:16:11.39	7.28	9.58	-44.9	-59.5	3.6	1.51e+00	0	32	104	0	60	38458
2026-01-28 07:16:12.40	7.06	9.53	-44.8	-59.6	3.6	1.51e+00	0	32	104	0	60	38843
2026-01-28 07:16:13.41	6.84	9.47	-44.9	-59.6	3.6	1.51e+00	0	32	104	0	60	38529
2026-01-28 07:16:14.42	6.62	9.42	-44.8	-59.6	3.6	1.51e+00	0	31	104	0	60	38514
2026-01-28 07:16:15.42	6.40	9.36	-44.8	-59.5	3.6	1.51e+00	0	32	104	0	60	38288
2026-01-28 07:16:16.43	6.19	9.31	-44.7	-59.7	3.6	1.51e+00	0	32	104	0	60	38962
2026-01-28 07:16:17.44	5.97	9.26	-44.9	-59.6	3.6	1.51e+00	0	32	104	0	60	38712
2026-01-28 07:16:18.45	5.76	9.20	-44.8	-59.6	3.6	1.51e+00	0	31	104	0	60	38699
2026-01-28 07:16:19.46	5.54	9.15	-44.7	-59.6	3.6	1.51e+00	0	32	104	0	60	38567
2026-01-28 07:16:20.47	5.33	9.09	-44.9	-59.6	3.6	1.51e+00	0	32	104	0	60	38745
2026-01-28 07:16:21.48	5.12	9.04	-44.7	-59.6	3.6	1.51e+00	0	32	104	0	60	38513
2026-01-28 07:16:22.48	4.91	8.98	-44.9	-59.5	3.6	1.51e+00	0	32	104	0	60	38272
2026-01-28 07:16:23.49	4.70	8.93	-44.9	-59.5	3.6	1.51e+00	0	32	104	0	60	38427
2026-01-28 07:16:24.50	4.49	8.87	-44.8	-59.5	3.6	1.51e+00	0	32	104	0	60	38436
2026-01-28 07:16:25.51	4.29	8.82	-44.7	-59.5	3.6	1.51e+00	0	32	104	0	60	38481
2026-01-28 07:16:26.52	4.08	8.76	-44.8	-59.5	3.6	1.51e+00	0	32	104	0	60	38470
2026-01-28 07:16:27.53	3.88	8.71	-44.8	-59.5	3.6	1.51e+00	0	32	104	0	60	38386
2026-01-28 07:16:28.54	3.67	8.65	-44.8	-59.5	3.6	1.51e+00	0	32	104	0	60	38257
2026-01-28 07:16:29.55	3.47	8.59	-44.8	-59.5	3.6	1.51e+00	0	32	104	0	60	38266
2026-01-28 07:16:30.56	3.27	8.54	-44.8	-59.5	3.6	1.51e+00	0	32	104	0	60	38144
2026-01-28 07:16:31.57	3.06	8.48	-44.8	-59.5	3.6	1.51e+00	0	32	104	0	60	38440
2026-01-28 07:16:32.58	2.86	8.42	-44.8	-59.5	3.6	1.51e+00	0	32	104	0	60	38318
2026-01-28 07:16:33.58	2.67	8.37	-44.8	-59.5	3.6	1.51e+00	0	32	104	0	60	38216
2026-01-28 07:16:34.59	2.47	8.31	-44.7	-59.5	3.6	1.51e+00	0	32	104	0	60	38228
2026-01-28 07:16:35.60	2.27	8.25	-44.7	-59.5	3.6	1.51e+00	0	32	104	0	60	38351
2026-01-28 07:16:36.61	2.07	8.20	-44.8	-59.5	3.6	1.51e+00	0	32	104	0	60	38300
2026-01-28 07:16:37.62	1.88	8.14	-44.8	-59.5	3.6	1.51e+00	0	32	104	0	60	38096
2026-01-28 07:16:38.63	1.68	8.08	-44.7	-59.5	3.6	1.51e+00	0	32	104	0	60	38171
2026-01-28 07:16:39.64	1.49	8.03	-44.7	-59.5	3.6	1.51e+00	0	32	104	0	60	38255
2026-01-28 07:16:40.65	1.30	7.97	-44.7	-59.5	3.6	1.51e+00	0	32	104	0	60	38214
2026-01-28 07:16:41.65	1.11	7.91	-44.7	-59.4	3.6	1.51e+00	0	32	104	0	60	37834
2026-01-28 07:16:42.66	0.92	7.86	-44.7	-59.5	3.6	1.51e+00	0	32	104	0	60	38070
2026-01-28 07:16:43.67	0.73	7.80	-44.8	-59.5	3.6	1.51e+00	0	32	104	0	60	38343
2026-01-28 07:16:44.68	0.54	7.74	-44.7	-59.4	3.6	1.51e+00	0	32	104	0	60	37688
2026-01-28 07:16:45.69	0.35	7.68	-44.7	-59.4	3.6	1.51e+00	0	32	104	0	60	37795
2026-01-28 07:16:46.70	0.16	7.63	-44.7	-59.4	3.6	1.51e+00	0	32	104	0	60	37737
2026-01-28 07:16:47.71	359.98	7.57	-44.7	-59.4	3.6	1.51e+00	0	32	104	0	60	37739
2026-01-28 07:16:48.72	359.79	7.51	-44.7	-59.4	3.6	1.51e+00	0	32	104	0	60	37684
2026-01-28 07:16:49.73	359.61	7.45	-44.7	-59.4	3.6	1.51e+00	0	32	104	0	60	37765
2026-01-28 07:16:50.74	359.43	7.39	-44.7	-59.4	3.5	1.51e+00	0	32	104	0	60	37839
2026-01-28 07:16:51.75	359.24	7.34	-44.7	-59.4	3.6	1.51e+00	0	32	104	0	60	37853
2026-01-28 07:16:52.76	359.06	7.28	-44.6	-59.3	3.6	1.51e+00	0	32	104	0	60	37468
2026-01-28 07:16:53.77	358.88	7.22	-44.7	-59.3	3.6	1.51e+00	0	32	104	0	60	37569
2026-01-28 07:16:54.78	358.70	7.16	-44.7	-59.4	3.6	1.51e+00	0	32	104	0	60	38022
2026-01-28 07:16:55.79	358.52	7.10	-44.8	-59.5	3.6	1.51e+00	0	32	104	0	60	38385
2026-01-28 07:16:56.79	358.35	7.05	-44.7	-59.4	3.6	1.51e+00	0	32	104	0	60	38055
2026-01-28 07:16:57.80	358.17	6.99	-44.8	-59.5	3.6	1.51e+00	0	32	104	0	60	38389
2026-01-28 07:16:58.81	357.99	6.93	-44.7	-59.5	3.6	1.51e+00	0	32	104	0	60	38358
2026-01-28 07:16:59.82	357.82	6.87	-44.7	-59.4	3.6	1.51e+00	0	32	104	0	60	37891
2026-01-28 07:17:00.83	357.65	6.81	-44.6	-59.4	3.6	1.51e+00	0	32	104	0	60	37697
2026-01-28 07:17:01.84	357.47	6.76	-44.5	-59.3	3.6	1.51e+00	0	32	104	0	60	37592
2026-01-28 07:17:02.85	357.30	6.70	-44.7	-59.4	3.6	1.51e+00	0	32	104	0	60	37801
2026-01-28 07:17:03.86	357.13	6.64	-44.7	-59.4	3.6	1.51e+00	0	32	104	0	60	37830
2026-01-28 07:17:04.87	356.96	6.58	-44.5	-59.3	3.6	1.51e+00	0	32	104	0	60	37331
2026-01-28 07:17:05.87	356.79	6.52	-44.6	-59.3	3.6	1.51e+00	0	32	104	0	60	37452
2026-01-28 07:17:06.88	356.62	6.46	-44.6	-59.3	3.6	1.51e+00	0	32	104	0	60	37569
2026-01-28 07:17:07.89	356.45	6.40	-44.7	-59.4	3.6	1.51e+00	0	32	104	0	60	37703
2026-01-28 07:17:08.90	356.29	6.35	-44.5	-59.2	3.6	1.51e+00	0	32	104	0	60	37035
2026-01-28 07:17:09.91	356.12	6.29	-44.5	-59.3	3.6	1.51e+00	0	32	104	0	60	37301
2026-01-28 07:17:10.92	355.95	6.23	-44.6	-59.3	3.6	1.51e+00	0	32	104	0	60	37286
2026-01-28 07:17:11.93	355.79	6.17	-44.6	-59.4	3.6	1.51e+00	0	32	104	0	60	37853
2026-01-28 07:17:12.94	355.62	6.11	-44.5	-59.2	3.6	1.51e+00	0	32	104	0	60	36974
2026-01-28 07:17:13.95	355.46	6.05	-44.6	-59.3	3.6	1.51e+00	0	32	104	0	60	37390
2026-01-28 07:17:14.96	355.30	6.00	-44.5	-59.2	3.6	1.51e+00	0	32	104	0	60	37105
2026-01-28 07:17:15.97	355.14	5.94	-44.7	-59.4	3.6	1.51e+00	0	32	104	0	60	37938
2026-01-28 07:17:16.97	354.98	5.88	-44.4	-59.1	3.6	1.51e+00	0	32	104	0	60	36695
2026-01-28 07:17:17.98	354.82	5.82	-44.5	-59.2	3.6	1.51e+00	0	32	104	0	60	37066
2026-01-28 07:17:18.99	354.66	5.76	-44.5	-59.3	3.5	1.51e+00	0	32	104	0	60	37209
2026-01-28 07:17:20.00	354.50	5.70	-44.7	-59.4	3.6	1.51e+00	0	32	104	0	60	37672
2026-01-28 07:17:21.00	354.35	5.64	-44.4	-59.1	3.6	1.51e+00	0	32	104	0	60	36753
2026-01-28 07:17:22.01	354.19	5.59	-44.7	-59.4	3.6	1.51e+00	0	32	104	0	60	37722
2026-01-28 07:17:23.02	354.04	5.53	-44.7	-59.3	3.6	1.51e+00	0	32	104	0	60	37596
2026-01-28 07:17:24.03	353.88	5.47	-44.9	-59.6	3.6	1.51e+00	0	32	104	0	60	38616
2026-01-28 07:17:25.04	353.73	5.41	-44.5	-59.2	3.6	1.51e+00	0	32	104	0	60	36876
2026-01-28 07:17:26.05	353.57	5.35	-45.1	-59.8	3.6	1.51e+00	0	32	104	0	60	39421
2026-01-28 07:17:27.05	353.42	5.29	-44.7	-59.3	3.6	1.51e+00	0	32	104	0	60	37559
2026-01-28 07:17:28.06	353.27	5.24	-44.8	-59.5	3.6	1.51e+00	0	32	104	0	60	38353
2026-01-28 07:17:29.07	353.12	5.18	-44.5	-59.2	3.6	1.51e+00	0	32	104	0	60	37076
2026-01-28 07:17:30.08	352.97	5.12	-44.6	-59.3	3.6	1.51e+00	0	32	104	0	60	37489
2026-01-28 07:17:31.09	352.82	5.06	-44.7	-59.5	3.6	1.51e+00	0	32	104	0	60	38137
2026-01-28 07:17:32.10	352.67	5.00	-44.8	-59.5	3.6	1.51e+00	0	32	104	0	60	38159
2026-01-28 07:17:33.11	352.53	4.94	-44.4	-59.2	3.6	1.51e+00	0	32	104	0	60	37159
2026-01-28 07:17:34.12	352.38	4.89	-44.5	-59.2	3.6	1.51e+00	0	32	104	0	60	37087
2026-01-28 07:17:35.13	352.23	4.83	-44.7	-59.4	3.6	1.51e+00	0	32	104	0	60	37928
2026-01-28 07:17:36.14	352.09	4.77	-44.7	-59.4	3.6	1.51e+00	0	32	104	0	60	38035
2026-01-28 07:17:37.15	351.94	4.71	-44.5	-59.2	3.6	1.51e+00	0	32	104	0	60	37006
2026-01-28 07:17:38.16	351.80	4.65	-44.5	-59.2	3.6	1.51e+00	0	32	104	0	60	36808
2026-01-28 07:17:39.17	351.65	4.59	-44.7	-59.4	3.6	1.51e+00	0	32	104	0	60	37922
2026-01-28 07:17:40.18	351.51	4.54	-44.7	-59.4	3.5	1.51e+00	0	32	104	0	60	37971
2026-01-28 07:17:41.19	351.37	4.48	-44.5	-59.3	3.6	1.51e+00	0	32	104	0	60	37303
2026-01-28 07:17:42.20	351.23	4.42	-44.4	-59.1	3.6	1.51e+00	0	32	104	0	60	36701
2026-01-28 07:17:43.21	351.09	4.36	-44.7	-59.4	3.6	1.51e+00	0	32	104	0	60	37718
2026-01-28 07:17:44.21	350.95	4.30	-44.7	-59.4	3.6	1.51e+00	0	32	104	0	60	37795
2026-01-28 07:17:45.22	350.81	4.25	-44.4	-59.2	3.6	1.51e+00	0	32	104	0	60	36969
2026-01-28 07:17:46.23	350.67	4.19	-44.5	-59.2	3.6	1.51e+00	0	32	104	0	60	36884
2026-01-28 07:17:47.24	350.54	4.13	-44.6	-59.4	3.6	1.51e+00	0	32	104	0	60	37824
2026-01-28 07:17:48.25	350.40	4.07	-44.7	-59.4	3.6	1.51e+00	0	32	104	0	60	37912
2026-01-28 07:17:49.25	350.27	4.01	-44.8	-59.4	3.6	1.51e+00	0	32	104	0	60	38037
2026-01-28 07:17:50.26	350.13	3.96	-44.3	-59.1	3.6	1.51e+00	0	32	104	0	60	36498
2026-01-28 07:17:51.27	350.00	3.90	-44.5	-59.2	3.6	1.51e+00	0	32	104	0	60	37174
2026-01-28 07:17:52.28	349.86	3.84	-44.7	-59.4	3.6	1.51e+00	0	32	104	0	60	37898
2026-01-28 07:17:53.29	349.73	3.78	-44.4	-59.0	3.6	1.51e+00	0	32	104	0	60	36314
2026-01-28 07:17:54.30	349.60	3.73	-44.2	-59.0	3.6	1.51e+00	0	32	104	0	60	35994
2026-01-28 07:17:55.31	349.46	3.67	-44.4	-59.2	3.6	1.51e+00	0	32	104	0	60	36872
2026-01-28 07:17:56.32	349.33	3.61	-44.6	-59.3	3.6	1.51e+00	0	32	104	0	60	37344
2026-01-28 07:17:57.33	349.20	3.55	-44.1	-58.9	3.6	1.51e+00	0	32	104	0	60	35616
2026-01-28 07:17:58.34	349.07	3.50	-43.9	-58.7	3.6	1.51e+00	0	32	104	0	60	35036
2026-01-28 07:17:59.35	348.94	3.44	-44.3	-59.1	3.6	1.51e+00	0	32	104	0	60	36388
2026-01-28 07:18:00.36	348.81	3.38	-44.2	-59.0	3.6	1.51e+00	0	32	104	0	60	35992
2026-01-28 07:18:01.36	348.69	3.32	-43.4	-58.3	3.6	1.51e+00	0	32	104	0	60	33450
2026-01-28 07:18:02.37	348.56	3.27	-43.3	-58.0	3.6	1.51e+00	0	32	104	0	60	32278
2026-01-28 07:18:03.38	348.43	3.21	-43.9	-58.7	3.6	1.51e+00	0	32	104	0	60	34968
2026-01-28 07:18:04.39	348.31	3.15	-42.3	-57.1	3.6	1.51e+00	0	32	104	0	60	29015
2026-01-28 07:18:05.40	348.18	3.10	-41.5	-56.3	3.6	1.51e+00	0	32	104	0	58	29674
2026-01-28 07:18:06.41	348.06	3.04	-40.9	-55.6	3.6	1.51e+00	0	32	104	0	58	27507
2026-01-28 07:18:07.42	347.93	2.98	-40.6	-55.3	3.6	1.51e+00	0	32	104	0	56	29709
2026-01-28 07:18:08.43	347.81	2.92	-41.0	-55.7	3.6	1.51e+00	0	32	104	0	56	31255
2026-01-28 07:18:09.44	347.69	2.87	-43.9	-58.7	3.6	1.51e+00	0	32	104	0	60	34903
2026-01-28 07:18:10.45	347.57	2.81	-44.9	-59.7	3.6	1.51e+00	0	32	104	0	60	39301
2026-01-28 07:18:11.46	347.44	2.75	-45.1	-59.9	3.6	1.51e+00	0	32	104	0	60	40136
2026-01-28 07:18:12.46	347.33	2.70	-45.2	-60.1	3.6	1.51e+00	0	32	104	0	60	41072
2026-01-28 07:18:13.48	347.20	2.64	-45.4	-60.2	3.6	1.51e+00	0	32	104	0	60	41671
2026-01-28 07:18:14.48	347.09	2.58	-45.5	-60.4	3.6	1.51e+00	0	32	104	0	60	42225
2026-01-28 07:18:15.49	346.97	2.53	-45.7	-60.4	3.6	1.51e+00	0	32	104	0	60	42576
2026-01-28 07:18:16.50	346.85	2.47	-45.7	-60.5	3.6	1.51e+00	0	32	104	0	60	42841
2026-01-28 07:18:17.51	346.73	2.41	-45.6	-60.4	3.6	1.51e+00	0	32	104	0	60	42675
2026-01-28 07:18:18.52	346.61	2.36	-45.7	-60.5	3.6	1.51e+00	0	32	104	0	60	42851
2026-01-28 07:18:19.53	346.50	2.30	-45.9	-60.6	3.6	1.51e+00	0	32	104	0	60	43611
2026-01-28 07:18:20.54	346.38	2.25	-45.4	-60.5	3.6	1.51e+00	0	32	104	0	60	42800
2026-01-28 07:18:21.55	346.26	2.19	-45.6	-60.5	3.6	1.51e+00	0	32	104	0	60	42764
2026-01-28 07:18:22.56	346.15	2.13	-45.7	-60.4	3.6	1.51e+00	0	32	104	0	60	42336
2026-01-28 07:18:23.57	346.04	2.08	-45.6	-60.4	3.6	1.51e+00	0	32	104	0	60	42628
2026-01-28 07:18:24.58	345.92	2.02	-45.6	-60.3	3.6	1.51e+00	0	32	104	0	60	42026
2026-01-28 07:18:25.59	345.81	1.96	-45.4	-60.2	3.6	1.51e+00	0	32	104	0	60	41688
2026-01-28 07:18:26.60	345.70	1.91	-45.4	-60.2	3.6	1.51e+00	0	32	104	0	60	41444
2026-01-28 07:18:27.61	345.58	1.85	-45.2	-60.1	3.6	1.51e+00	0	32	104	0	60	41020
2026-01-28 07:18:28.61	345.47	1.80	-45.4	-60.1	3.6	1.51e+00	0	32	104	0	60	41233
2026-01-28 07:18:29.62	345.36	1.74	-45.5	-60.2	3.6	1.51e+00	0	32	104	0	60	41553
2026-01-28 07:18:30.63	345.25	1.69	-45.4	-60.1	3.6	1.51e+00	0	32	104	0	60	41055
2026-01-28 07:18:31.64	345.14	1.63	-45.5	-60.2	3.6	1.51e+00	0	32	104	0	60	41446
2026-01-28 07:18:32.65	345.03	1.57	-45.4	-60.2	3.6	1.51e+00	0	32	104	0	60	41311
2026-01-28 07:18:33.66	344.92	1.52	-45.4	-60.2	3.6	1.51e+00	0	32	104	0	60	41270
2026-01-28 07:18:34.67	344.82	1.46	-45.4	-60.1	3.6	1.51e+00	0	32	104	0	60	40848
2026-01-28 07:18:35.68	344.71	1.41	-45.4	-60.1	3.6	1.51e+00	0	32	104	0	60	40980
2026-01-28 07:18:36.69	344.60	1.35	-45.4	-60.1	3.6	1.51e+00	0	32	104	0	60	40971
2026-01-28 07:18:37.70	344.49	1.30	-45.4	-60.1	3.6	1.51e+00	0	32	104	0	60	40982
2026-01-28 07:18:38.71	344.39	1.24	-45.4	-60.1	3.6	1.51e+00	0	32	104	0	60	40889
2026-01-28 07:18:39.72	344.28	1.19	-45.4	-60.1	3.6	1.51e+00	0	32	104	0	60	40804
2026-01-28 07:18:40.73	344.18	1.13	-45.4	-60.1	3.6	1.51e+00	0	32	104	0	60	40935
2026-01-28 07:18:41.74	344.07	1.08	-45.4	-60.0	3.6	1.51e+00	0	32	104	0	60	40661
2026-01-28 07:18:42.75	343.97	1.02	-45.4	-60.1	3.6	1.51e+00	0	32	104	0	60	40899
2026-01-28 07:18:43.76	343.86	0.97	-45.4	-60.1	3.6	1.51e+00	0	32	104	0	60	40977
2026-01-28 07:18:44.77	343.76	0.91	-45.4	-60.1	3.6	1.51e+00	0	32	104	0	60	40841
2026-01-28 07:18:45.78	343.66	0.86	-45.4	-60.0	3.6	1.51e+00	0	32	104	0	60	40692
2026-01-28 07:18:46.79	343.56	0.80	-45.4	-60.1	3.6	1.51e+00	0	32	104	0	60	41026
2026-01-28 07:18:47.80	343.46	0.75	-45.4	-60.1	3.6	1.51e+00	0	32	104	0	60	40960
2026-01-28 07:18:48.81	343.35	0.69	-45.3	-60.1	3.6	1.51e+00	0	32	104	0	60	40889
2026-01-28 07:18:49.82	343.25	0.64	-45.3	-60.1	3.6	1.51e+00	0	32	104	0	60	40932
2026-01-28 07:18:50.82	343.16	0.58	-45.3	-60.0	3.6	1.51e+00	0	32	104	0	60	40780
2026-01-28 07:18:51.84	343.05	0.53	-45.3	-60.0	3.6	1.51e+00	0	32	104	0	60	40737
2026-01-28 07:18:52.85	342.96	0.48	-45.3	-60.0	3.6	1.51e+00	0	32	104	0	60	40715
2026-01-28 07:18:53.85	342.86	0.42	-45.3	-60.0	3.6	1.51e+00	0	32	104	0	60	40702
2026-01-28 07:18:54.86	342.76	0.37	-45.3	-60.0	3.6	1.51e+00	0	32	104	0	60	40655
2026-01-28 07:18:55.87	342.66	0.31	-45.3	-60.0	3.6	1.51e+00	0	32	104	0	60	40447
2026-01-28 07:18:56.88	342.56	0.26	-45.3	-60.0	3.6	1.51e+00	0	32	104	0	60	40773
2026-01-28 07:18:57.89	342.47	0.20	-45.3	-60.0	3.6	1.51e+00	0	32	104	0	60	40596
2026-01-28 07:18:58.90	342.37	0.15	-45.3	-60.0	3.6	1.51e+00	0	32	104	0	60	40648
2026-01-28 07:18:59.91	342.28	0.10	-45.3	-60.0	3.6	1.51e+00	0	32	104	0	60	40616
2026-01-28 07:19:00.92	342.18	0.04	-45.3	-60.0	3.6	1.51e+00	0	32	104	0	60	40691

#Closed at: 2026-01-28 07:19:01
#Recorded file [0 MB]: D:/lorett/data/35029_260128_190931.dat