passes_logs/2026/01/28/R4.6S_Anadyr/R4.6S_Anadyr__20260128_232638_NOAA_21_JPSS-2_rec.log

#Pass ID: 20260128_232638_NOAA 21 (JPSS-2)
#Satellite: NOAA 21 (JPSS-2)
#Configuration: NOAA-21
#almurnet v.1.7.20251203
#Start time: 2026-01-28 23:26:40

#Version: 2.2.20231116
#Station: R4.6S_Anadyr
#Location: 177.4865 lon 64.73178 lat
#TLE: 1 54234U 22150A   26027.91149249  .00000141  00000+0  87546-4 0  9993
#TLE: 2 54234  98.7510 328.6558 0000880 202.8718 157.2419 14.19540177166642

#Time	Az	El	Level	Level2	SNR	BER	BlckErr	Temp	State	Recorded	gain1	gain2
2026-01-28 23:26:40.48	137.18	0.13	-45.6	-60.0	3.5	1.51e+00	0	30	0	0	60	40520
2026-01-28 23:26:41.45	137.16	0.19	-48.9	-61.7	3.5	1.52e+00	0	31	104	0	60	42636
2026-01-28 23:26:42.43	137.14	0.25	-48.9	-61.8	3.5	1.51e+00	0	31	104	0	60	43142
2026-01-28 23:26:43.41	137.12	0.31	-48.9	-61.7	3.5	1.52e+00	0	31	104	0	60	42910
2026-01-28 23:26:44.39	137.11	0.37	-48.9	-61.8	3.5	1.52e+00	0	31	104	0	60	43168
2026-01-28 23:26:45.37	137.09	0.43	-48.9	-61.8	3.5	1.52e+00	0	31	104	0	60	43190
2026-01-28 23:26:46.35	137.07	0.49	-48.9	-61.8	3.5	1.52e+00	0	31	104	0	60	43042
2026-01-28 23:26:47.33	137.05	0.54	-48.9	-61.7	3.5	1.52e+00	0	31	104	0	60	42888
2026-01-28 23:26:48.31	137.03	0.60	-48.9	-61.8	3.5	1.52e+00	0	31	104	0	60	43314
2026-01-28 23:26:49.29	137.02	0.66	-49.0	-61.9	3.5	1.52e+00	0	32	104	0	60	43507
2026-01-28 23:26:50.27	137.00	0.72	-49.0	-61.9	3.5	1.51e+00	0	31	104	0	60	43554
2026-01-28 23:26:51.25	136.98	0.78	-49.0	-61.9	3.5	1.52e+00	0	31	104	0	60	43754
2026-01-28 23:26:52.23	136.96	0.84	-49.0	-61.8	3.5	1.52e+00	0	32	104	0	60	43366
2026-01-28 23:26:53.21	136.94	0.90	-48.9	-61.8	3.5	1.51e+00	0	32	104	0	60	43281
2026-01-28 23:26:54.18	136.92	0.96	-48.9	-61.7	3.5	1.52e+00	0	32	104	0	60	42803
2026-01-28 23:26:55.16	136.90	1.02	-48.8	-61.7	3.5	1.52e+00	0	32	104	0	60	42638
2026-01-28 23:26:56.14	136.88	1.08	-48.8	-61.7	3.5	1.51e+00	0	32	104	0	60	42517
2026-01-28 23:26:57.12	136.87	1.14	-48.8	-61.7	3.5	1.52e+00	0	32	104	0	60	42480
2026-01-28 23:26:58.10	136.85	1.20	-48.5	-61.5	3.5	1.52e+00	0	32	104	0	60	41876
2026-01-28 23:26:59.08	136.83	1.26	-48.5	-61.5	3.5	1.51e+00	0	32	104	0	60	41602
2026-01-28 23:27:00.06	136.81	1.32	-48.6	-61.4	3.5	1.52e+00	0	32	104	0	60	41406
2026-01-28 23:27:01.04	136.79	1.39	-48.5	-61.3	3.5	1.52e+00	0	32	104	0	60	40890
2026-01-28 23:27:02.02	136.77	1.45	-48.4	-61.2	3.5	1.52e+00	0	32	104	0	60	40205
2026-01-28 23:27:03.00	136.75	1.51	-48.2	-61.1	3.5	1.52e+00	0	32	104	0	60	39800
2026-01-28 23:27:03.98	136.73	1.57	-47.8	-60.9	3.5	1.52e+00	0	32	104	0	60	39084
2026-01-28 23:27:04.96	136.71	1.63	-47.6	-60.5	3.5	1.52e+00	0	32	104	0	60	37314
2026-01-28 23:27:05.94	136.69	1.69	-47.4	-60.4	3.5	1.52e+00	0	32	104	0	60	36782
2026-01-28 23:27:06.92	136.67	1.75	-47.5	-60.4	3.5	1.52e+00	0	32	104	0	60	36849
2026-01-28 23:27:07.90	136.65	1.81	-47.5	-60.3	3.5	1.52e+00	0	32	104	0	60	36452
2026-01-28 23:27:08.89	136.63	1.88	-47.5	-60.3	3.5	1.52e+00	0	32	104	0	60	36389
2026-01-28 23:27:09.87	136.61	1.94	-47.5	-60.3	3.5	1.52e+00	0	32	104	0	60	36479
2026-01-28 23:27:10.84	136.59	2.00	-47.4	-60.3	3.5	1.52e+00	0	32	104	0	60	36533
2026-01-28 23:27:11.82	136.57	2.06	-47.5	-60.3	3.5	1.52e+00	0	32	104	0	60	36266
2026-01-28 23:27:12.80	136.55	2.13	-47.4	-60.3	3.5	1.52e+00	0	32	104	0	60	36207
2026-01-28 23:27:13.78	136.53	2.19	-47.4	-60.4	3.5	1.51e+00	0	32	104	0	60	36574
2026-01-28 23:27:14.75	136.51	2.25	-47.4	-60.3	3.5	1.51e+00	0	32	104	0	60	36416
2026-01-28 23:27:15.74	136.49	2.31	-47.4	-60.4	3.5	1.52e+00	0	32	104	0	60	36574
2026-01-28 23:27:16.71	136.47	2.38	-47.4	-60.4	3.5	1.52e+00	0	32	104	0	60	36847
2026-01-28 23:27:17.69	136.44	2.44	-47.5	-60.4	3.5	1.52e+00	0	32	104	0	60	36587
2026-01-28 23:27:18.67	136.42	2.50	-47.4	-60.4	3.5	1.52e+00	0	32	104	0	60	36576
2026-01-28 23:27:19.65	136.40	2.57	-47.4	-60.4	3.5	1.52e+00	0	32	104	0	60	36579
2026-01-28 23:27:20.64	136.38	2.63	-47.4	-60.3	3.5	1.52e+00	0	32	104	0	60	36311
2026-01-28 23:27:21.61	136.36	2.69	-47.4	-60.2	3.5	1.52e+00	0	32	104	0	60	36087
2026-01-28 23:27:22.59	136.34	2.76	-47.4	-60.0	3.5	1.52e+00	0	32	104	0	60	34992
2026-01-28 23:27:23.57	136.32	2.82	-47.4	-59.7	3.5	1.52e+00	0	32	104	0	60	33730
2026-01-28 23:27:24.55	136.29	2.88	-47.3	-58.8	3.5	1.51e+00	0	32	104	0	60	30648
2026-01-28 23:27:25.53	136.27	2.95	-47.3	-59.0	3.5	1.51e+00	0	32	104	0	60	31244
2026-01-28 23:27:26.51	136.25	3.01	-47.3	-58.8	3.5	1.51e+00	0	32	104	0	60	30456
2026-01-28 23:27:27.49	136.23	3.08	-47.3	-59.2	3.5	1.51e+00	0	32	104	0	60	31903
2026-01-28 23:27:28.46	136.21	3.14	-47.4	-59.7	3.5	1.52e+00	0	32	104	0	60	34076
2026-01-28 23:27:29.44	136.18	3.21	-47.4	-60.2	3.5	1.51e+00	0	32	104	0	60	35733
2026-01-28 23:27:30.42	136.16	3.27	-47.3	-58.5	3.5	1.51e+00	0	32	104	0	60	29560
2026-01-28 23:27:31.40	136.14	3.34	-46.8	-55.2	5.2	7.31e-01	0	32	104	0	60	20292
2026-01-28 23:27:32.39	136.12	3.40	-46.0	-51.1	7.9	1.18e-01	0	32	0	1048576	60	12547
2026-01-28 23:27:33.37	136.09	3.47	-44.7	-48.1	11.4	3.55e-03	0	32	0	4194304	60	8944
2026-01-28 23:27:34.35	136.07	3.53	-43.3	-45.8	13.9	3.96e-05	0	32	0	7340032	60	6877
2026-01-28 23:27:35.33	136.05	3.60	-42.4	-44.6	15.1	0.00e+00	0	32	0	10485760	58	6670
2026-01-28 23:27:36.30	136.02	3.66	-41.3	-43.1	16.8	0.00e+00	0	32	0	13631488	56	6285
2026-01-28 23:27:37.28	136.00	3.73	-40.5	-42.1	17.6	0.00e+00	0	32	0	16777216	54	6282
2026-01-28 23:27:38.26	135.98	3.80	-40.6	-42.3	14.9	0.00e+00	0	32	0	19922944	54	6424
2026-01-28 23:27:39.24	135.95	3.86	-47.5	-60.6	3.5	1.51e+00	0	32	104	19922944	60	37475
2026-01-28 23:27:40.23	135.93	3.93	-39.7	-41.5	18.1	0.00e+00	0	32	104	19922944	54	5882
2026-01-28 23:27:41.21	135.91	4.00	-47.0	-55.6	3.9	1.33e+00	0	32	104	20971520	60	21149
2026-01-28 23:27:42.19	135.88	4.06	-47.6	-58.6	3.9	1.50e+00	0	32	104	20971520	60	30002
2026-01-28 23:27:43.16	135.86	4.13	-44.1	-47.4	12.8	1.41e+00	0	32	104	20971520	60	8237
2026-01-28 23:27:44.14	135.83	4.20	-40.2	-41.7	17.8	0.00e+00	0	32	0	22020096	54	6044
2026-01-28 23:27:45.12	135.81	4.26	-38.9	-40.3	19.3	0.00e+00	0	32	0	25165824	52	5754
2026-01-28 23:27:46.09	135.79	4.33	-39.2	-40.6	19.0	0.00e+00	0	32	0	28311552	52	5947
2026-01-28 23:27:47.07	135.76	4.40	-39.0	-40.3	19.2	0.00e+00	0	32	0	31457280	50	6497
2026-01-28 23:27:48.05	135.74	4.47	-38.6	-39.9	19.7	0.00e+00	0	32	0	34603008	50	6158
2026-01-28 23:27:49.02	135.71	4.53	-38.2	-39.4	19.9	0.00e+00	0	32	0	37748736	50	5815
2026-01-28 23:27:50.01	135.69	4.60	-38.2	-39.4	20.2	0.00e+00	0	32	0	40894464	50	5821
2026-01-28 23:27:50.98	135.66	4.67	-38.5	-39.7	19.9	0.00e+00	0	32	0	42991616	50	6057
2026-01-28 23:27:51.96	135.64	4.74	-38.5	-39.8	19.9	0.00e+00	0	32	0	46137344	50	6081
2026-01-28 23:27:52.94	135.61	4.81	-38.3	-39.5	19.9	0.00e+00	0	32	0	49283072	50	5912
2026-01-28 23:27:53.91	135.59	4.87	-37.5	-38.7	20.9	0.00e+00	0	32	0	52428800	48	6019
2026-01-28 23:27:54.89	135.56	4.94	-37.7	-38.8	20.7	0.00e+00	0	32	0	55574528	48	6128
2026-01-28 23:27:55.87	135.54	5.01	-37.4	-38.6	21.0	0.00e+00	0	32	0	58720256	48	5944
2026-01-28 23:27:56.84	135.51	5.08	-37.6	-38.8	20.8	0.00e+00	0	32	0	61865984	48	6092
2026-01-28 23:27:57.82	135.48	5.15	-37.5	-38.7	20.8	0.00e+00	0	32	0	65011712	48	6012
2026-01-28 23:27:58.80	135.46	5.22	-37.8	-38.9	20.7	0.00e+00	0	32	0	68157440	48	6197
2026-01-28 23:27:59.78	135.43	5.29	-37.7	-38.8	20.8	0.00e+00	0	32	0	71303168	48	6088
2026-01-28 23:28:00.76	135.41	5.36	-37.9	-39.0	20.5	0.00e+00	0	32	0	74448896	48	6248
2026-01-28 23:28:01.73	135.38	5.43	-37.7	-38.9	20.8	0.00e+00	0	32	0	76546048	48	6143
2026-01-28 23:28:02.71	135.35	5.50	-37.7	-38.8	20.8	0.00e+00	0	32	0	79691776	48	6128
2026-01-28 23:28:03.69	135.33	5.57	-37.7	-38.8	20.7	0.00e+00	0	32	0	82837504	48	6102
2026-01-28 23:28:04.67	135.30	5.64	-38.0	-39.2	20.7	0.00e+00	0	32	0	85983232	48	6375
2026-01-28 23:28:05.65	135.27	5.71	-37.9	-39.1	20.5	0.00e+00	0	32	0	89128960	48	6321
2026-01-28 23:28:06.63	135.25	5.78	-38.0	-39.2	20.5	0.00e+00	0	32	0	92274688	48	6364
2026-01-28 23:28:07.61	135.22	5.85	-37.9	-39.1	20.7	0.00e+00	0	32	0	95420416	48	6286
2026-01-28 23:28:08.59	135.19	5.93	-37.3	-38.4	21.4	0.00e+00	0	32	0	98566144	48	5797
2026-01-28 23:28:09.57	135.16	6.00	-37.1	-38.2	21.3	0.00e+00	0	32	0	101711872	48	5679
2026-01-28 23:28:10.55	135.14	6.07	-36.9	-38.0	21.5	0.00e+00	0	32	0	104857600	48	5574
2026-01-28 23:28:11.53	135.11	6.14	-37.2	-38.3	21.3	0.00e+00	0	32	0	108003328	48	5763
2026-01-28 23:28:12.51	135.08	6.21	-37.1	-38.2	21.5	0.00e+00	0	32	0	111149056	48	5665
2026-01-28 23:28:13.50	135.05	6.29	-37.3	-38.3	21.4	0.00e+00	0	32	0	114294784	48	5783
2026-01-28 23:28:14.48	135.02	6.36	-37.4	-38.5	21.2	0.00e+00	0	32	0	116391936	48	5890
2026-01-28 23:28:15.46	134.99	6.43	-37.3	-38.4	21.3	0.00e+00	0	32	0	119537664	48	5821
2026-01-28 23:28:16.44	134.97	6.50	-37.0	-38.0	21.7	0.00e+00	0	32	0	122683392	48	5579
2026-01-28 23:28:17.42	134.94	6.58	-36.8	-37.9	21.8	0.00e+00	0	32	0	125829120	48	5478
2026-01-28 23:28:18.40	134.91	6.65	-37.0	-38.1	21.5	0.00e+00	0	32	0	128974848	48	5647
2026-01-28 23:28:19.38	134.88	6.72	-36.9	-38.0	21.7	0.00e+00	0	32	0	132120576	48	5583
2026-01-28 23:28:20.36	134.85	6.80	-36.8	-37.9	21.7	0.00e+00	0	32	0	135266304	46	6157
2026-01-28 23:28:21.34	134.82	6.87	-37.0	-38.1	21.7	0.00e+00	0	32	0	138412032	46	6309
2026-01-28 23:28:22.32	134.79	6.95	-36.7	-37.8	21.9	0.00e+00	0	32	0	141557760	46	6098
2026-01-28 23:28:23.30	134.76	7.02	-36.8	-37.8	21.9	0.00e+00	0	32	0	144703488	46	6114
2026-01-28 23:28:24.28	134.73	7.10	-36.7	-37.7	21.9	0.00e+00	0	32	0	147849216	46	6035
2026-01-28 23:28:25.27	134.70	7.17	-36.7	-37.7	22.0	0.00e+00	0	32	0	150994944	46	6035
2026-01-28 23:28:26.25	134.67	7.25	-36.6	-37.6	22.1	0.00e+00	0	32	0	154140672	46	5970
2026-01-28 23:28:27.23	134.64	7.32	-36.6	-37.7	21.9	0.00e+00	0	32	0	156237824	46	6032
2026-01-28 23:28:28.21	134.61	7.40	-36.6	-37.7	22.0	0.00e+00	0	32	0	159383552	46	6020
2026-01-28 23:28:29.19	134.58	7.47	-36.5	-37.6	22.1	0.00e+00	0	32	0	162529280	46	5962
2026-01-28 23:28:30.17	134.55	7.55	-36.4	-37.4	22.3	0.00e+00	0	32	0	165675008	46	5851
2026-01-28 23:28:31.15	134.51	7.62	-36.5	-37.5	22.1	0.00e+00	0	32	0	168820736	46	5920
2026-01-28 23:28:32.13	134.48	7.70	-36.2	-37.3	22.3	0.00e+00	0	32	0	171966464	46	5742
2026-01-28 23:28:33.11	134.45	7.78	-36.4	-37.4	22.2	0.00e+00	0	32	0	175112192	46	5823
2026-01-28 23:28:34.10	134.42	7.85	-36.2	-37.2	22.5	0.00e+00	0	32	0	178257920	46	5688
2026-01-28 23:28:35.08	134.39	7.93	-36.2	-37.2	22.5	0.00e+00	0	32	0	181403648	46	5695
2026-01-28 23:28:36.05	134.36	8.01	-36.3	-37.3	22.4	0.00e+00	0	32	0	184549376	46	5733
2026-01-28 23:28:37.03	134.32	8.09	-36.4	-37.4	22.3	0.00e+00	0	32	0	187695104	46	5833
2026-01-28 23:28:38.01	134.29	8.16	-36.0	-37.0	22.5	0.00e+00	0	32	0	190840832	46	5581
2026-01-28 23:28:38.98	134.26	8.24	-36.1	-37.1	22.5	0.00e+00	0	32	0	192937984	46	5647
2026-01-28 23:28:39.96	134.23	8.32	-36.1	-37.0	22.6	0.00e+00	0	32	0	196083712	46	5587
2026-01-28 23:28:40.94	134.19	8.40	-36.1	-37.1	22.7	0.00e+00	0	32	0	199229440	46	5598
2026-01-28 23:28:41.92	134.16	8.48	-35.9	-36.9	22.7	0.00e+00	0	32	0	202375168	46	5499
2026-01-28 23:28:42.90	134.13	8.55	-36.1	-37.1	22.6	0.00e+00	0	32	0	205520896	46	5598
2026-01-28 23:28:43.87	134.09	8.63	-35.9	-36.8	22.8	0.00e+00	0	32	0	208666624	46	5454
2026-01-28 23:28:44.85	134.06	8.71	-35.7	-36.6	22.9	0.00e+00	0	32	0	211812352	44	5980
2026-01-28 23:28:45.83	134.02	8.79	-35.7	-36.7	22.9	0.00e+00	0	32	0	214958080	44	6040
2026-01-28 23:28:46.81	133.99	8.87	-35.8	-36.8	22.8	0.00e+00	0	32	0	218103808	44	6071
2026-01-28 23:28:47.79	133.96	8.95	-35.7	-36.7	22.9	0.00e+00	0	32	0	221249536	44	6043
2026-01-28 23:28:48.77	133.92	9.03	-35.8	-36.7	22.9	0.00e+00	0	32	0	224395264	44	6060
2026-01-28 23:28:49.75	133.89	9.11	-35.6	-36.6	23.0	0.00e+00	0	32	0	227540992	44	5939
2026-01-28 23:28:50.72	133.85	9.19	-35.7	-36.6	23.0	0.00e+00	0	32	0	229638144	44	5971
2026-01-28 23:28:51.70	133.82	9.27	-35.7	-36.6	23.0	0.00e+00	0	32	0	232783872	44	5978
2026-01-28 23:28:52.67	133.78	9.35	-35.9	-36.9	22.7	0.00e+00	0	32	0	235929600	44	6179
2026-01-28 23:28:53.65	133.74	9.44	-35.5	-36.5	23.1	0.00e+00	0	32	0	239075328	44	5879
2026-01-28 23:28:54.63	133.71	9.52	-35.6	-36.6	23.0	0.00e+00	0	32	0	242221056	44	5955
2026-01-28 23:28:55.60	133.67	9.60	-35.4	-36.4	23.3	0.00e+00	0	32	0	245366784	44	5799
2026-01-28 23:28:56.58	133.64	9.68	-35.3	-36.3	23.3	0.00e+00	0	32	0	248512512	44	5751
2026-01-28 23:28:57.56	133.60	9.76	-35.3	-36.3	23.3	0.00e+00	0	32	0	251658240	44	5748
2026-01-28 23:28:58.54	133.56	9.85	-35.3	-36.3	23.2	0.00e+00	0	32	0	254803968	44	5734
2026-01-28 23:28:59.52	133.53	9.93	-35.4	-36.3	23.3	0.00e+00	0	32	0	257949696	44	5786
2026-01-28 23:29:00.51	133.49	10.01	-35.2	-36.2	23.4	0.00e+00	0	32	0	261095424	44	5672
2026-01-28 23:29:01.48	133.45	10.10	-35.3	-36.3	23.3	0.00e+00	0	32	0	263192576	44	5742
2026-01-28 23:29:02.46	133.41	10.18	-35.5	-36.4	23.3	0.00e+00	0	32	0	266338304	44	5822
2026-01-28 23:29:03.44	133.38	10.26	-35.1	-36.0	23.5	0.00e+00	0	32	0	269484032	44	5587
2026-01-28 23:29:04.42	133.34	10.35	-35.1	-36.1	23.5	0.00e+00	0	32	0	272629760	44	5619
2026-01-28 23:29:05.39	133.30	10.43	-35.1	-36.0	23.4	0.00e+00	0	32	0	275775488	44	5593
2026-01-28 23:29:06.38	133.26	10.52	-35.0	-35.9	23.5	0.00e+00	0	32	0	278921216	44	5512
2026-01-28 23:29:07.36	133.22	10.60	-35.1	-36.1	23.5	0.00e+00	0	32	0	282066944	44	5615
2026-01-28 23:29:08.33	133.18	10.69	-35.2	-36.1	23.5	0.00e+00	0	32	0	285212672	44	5645
2026-01-28 23:29:09.31	133.14	10.77	-35.0	-35.9	23.5	0.00e+00	0	32	0	288358400	44	5516
2026-01-28 23:29:10.29	133.10	10.86	-35.0	-35.9	23.6	0.00e+00	0	32	0	291504128	44	5508
2026-01-28 23:29:11.26	133.06	10.95	-35.0	-35.9	23.6	0.00e+00	0	32	0	294649856	44	5496
2026-01-28 23:29:12.24	133.02	11.03	-34.9	-35.8	23.6	0.00e+00	0	33	0	297795584	44	5460
2026-01-28 23:29:13.22	132.98	11.12	-34.8	-35.7	23.7	0.00e+00	0	32	0	299892736	44	5398
2026-01-28 23:29:14.20	132.94	11.21	-34.8	-35.8	23.7	0.00e+00	0	32	0	303038464	44	5414
2026-01-28 23:29:15.17	132.90	11.29	-34.9	-35.8	23.6	0.00e+00	0	32	0	306184192	44	5461
2026-01-28 23:29:16.16	132.86	11.38	-34.8	-35.7	23.8	0.00e+00	0	32	0	309329920	44	5389
2026-01-28 23:29:17.14	132.82	11.47	-34.9	-35.8	23.7	0.00e+00	0	33	0	312475648	44	5424
2026-01-28 23:29:18.11	132.78	11.56	-34.8	-35.7	23.8	0.00e+00	0	32	0	315621376	44	5359
2026-01-28 23:29:19.09	132.74	11.65	-34.9	-35.8	23.6	0.00e+00	0	32	0	318767104	42	6117
2026-01-28 23:29:20.08	132.69	11.74	-34.7	-35.6	23.8	0.00e+00	0	32	0	321912832	42	5970
2026-01-28 23:29:21.06	132.65	11.83	-34.8	-35.7	23.7	0.00e+00	0	33	0	325058560	42	6013
2026-01-28 23:29:22.04	132.61	11.92	-34.9	-35.8	23.7	0.00e+00	0	33	0	328204288	42	6098
2026-01-28 23:29:23.03	132.56	12.01	-34.8	-35.8	23.7	0.00e+00	0	32	0	331350016	42	6081
2026-01-28 23:29:24.00	132.52	12.10	-34.9	-35.8	23.7	0.00e+00	0	32	0	334495744	42	6117
2026-01-28 23:29:24.98	132.48	12.19	-34.7	-35.6	23.7	0.00e+00	0	32	0	336592896	42	5969
2026-01-28 23:29:25.96	132.43	12.28	-34.9	-35.8	23.7	0.00e+00	0	33	0	339738624	42	6082
2026-01-28 23:29:26.94	132.39	12.37	-34.7	-35.6	23.8	0.00e+00	0	33	0	342884352	42	5941
2026-01-28 23:29:27.92	132.34	12.46	-34.7	-35.7	23.7	0.00e+00	0	33	0	346030080	42	5999
2026-01-28 23:29:28.90	132.30	12.55	-34.6	-35.6	23.8	0.00e+00	0	33	0	349175808	42	5942
2026-01-28 23:29:29.88	132.25	12.65	-34.7	-35.7	23.8	0.00e+00	0	33	0	352321536	42	6009
2026-01-28 23:29:30.86	132.21	12.74	-34.8	-35.7	23.7	0.00e+00	0	33	0	355467264	42	6023
2026-01-28 23:29:31.83	132.16	12.83	-34.7	-35.6	23.7	0.00e+00	0	33	0	358612992	42	5984
2026-01-28 23:29:32.81	132.12	12.92	-34.7	-35.7	23.8	0.00e+00	0	32	0	361758720	42	6018
2026-01-28 23:29:33.79	132.07	13.02	-34.9	-35.9	23.7	0.00e+00	0	33	0	364904448	42	6146
2026-01-28 23:29:34.77	132.02	13.11	-34.8	-35.7	23.8	0.00e+00	0	33	0	368050176	42	6047
2026-01-28 23:29:35.75	131.98	13.21	-34.7	-35.7	23.9	0.00e+00	0	32	0	371195904	42	6002
2026-01-28 23:29:36.73	131.93	13.30	-34.8	-35.7	23.8	0.00e+00	0	33	0	374341632	42	6057
2026-01-28 23:29:37.71	131.88	13.40	-34.7	-35.7	23.8	0.00e+00	0	33	0	376438784	42	6018
2026-01-28 23:29:38.69	131.83	13.49	-34.9	-35.8	23.8	0.00e+00	0	33	0	379584512	42	6108
2026-01-28 23:29:39.67	131.79	13.59	-34.9	-35.8	23.8	0.00e+00	0	33	0	382730240	42	6092
2026-01-28 23:29:40.65	131.74	13.68	-34.8	-35.7	23.9	0.00e+00	0	33	0	385875968	42	6020
2026-01-28 23:29:41.63	131.69	13.78	-34.8	-35.8	23.9	0.00e+00	0	33	0	389021696	42	6075
2026-01-28 23:29:42.60	131.64	13.87	-34.7	-35.6	24.0	0.00e+00	0	33	0	392167424	42	5952
2026-01-28 23:29:43.58	131.59	13.97	-34.7	-35.6	24.0	0.00e+00	0	33	0	395313152	42	5931
2026-01-28 23:29:44.56	131.54	14.07	-34.8	-35.7	23.9	0.00e+00	0	33	0	398458880	42	6054
2026-01-28 23:29:45.53	131.49	14.17	-34.6	-35.6	24.1	0.00e+00	0	33	0	401604608	42	5931
2026-01-28 23:29:46.51	131.44	14.26	-34.8	-35.7	23.9	0.00e+00	0	33	0	404750336	42	6017
2026-01-28 23:29:47.49	131.39	14.36	-34.8	-35.7	24.0	0.00e+00	0	33	0	407896064	42	6011
2026-01-28 23:29:48.47	131.34	14.46	-34.7	-35.6	23.9	0.00e+00	0	32	0	411041792	42	5987
2026-01-28 23:29:49.45	131.29	14.56	-34.6	-35.5	24.1	0.00e+00	0	33	0	414187520	42	5899
2026-01-28 23:29:50.43	131.23	14.66	-34.6	-35.5	24.1	0.00e+00	0	33	0	416284672	42	5917
2026-01-28 23:29:51.41	131.18	14.76	-34.6	-35.5	24.2	0.00e+00	0	33	0	419430400	42	5894
2026-01-28 23:29:52.39	131.13	14.86	-34.7	-35.6	24.1	0.00e+00	0	33	0	422576128	42	5981
2026-01-28 23:29:53.37	131.07	14.96	-34.6	-35.5	24.2	0.00e+00	0	32	0	425721856	42	5903
2026-01-28 23:29:54.35	131.02	15.06	-34.7	-35.6	24.0	0.00e+00	0	32	0	428867584	42	5971
2026-01-28 23:29:55.33	130.97	15.17	-34.6	-35.6	24.1	0.00e+00	0	33	0	432013312	42	5931
2026-01-28 23:29:56.31	130.91	15.27	-34.6	-35.6	24.1	0.00e+00	0	33	0	435159040	42	5940
2026-01-28 23:29:57.29	130.86	15.37	-34.6	-35.5	24.2	0.00e+00	0	33	0	438304768	42	5889
2026-01-28 23:29:58.28	130.80	15.47	-34.7	-35.6	24.1	0.00e+00	0	33	0	441450496	42	5982
2026-01-28 23:29:59.25	130.75	15.58	-34.5	-35.4	24.3	0.00e+00	0	32	0	444596224	42	5817
2026-01-28 23:30:00.23	130.69	15.68	-34.5	-35.4	24.3	0.00e+00	0	33	0	447741952	42	5798
2026-01-28 23:30:01.21	130.63	15.78	-34.6	-35.6	24.1	0.00e+00	0	33	0	450887680	42	5932
2026-01-28 23:30:02.18	130.58	15.89	-34.9	-35.8	23.9	0.00e+00	0	32	0	452984832	42	6118
2026-01-28 23:30:03.16	130.52	15.99	-34.6	-35.5	24.2	0.00e+00	0	33	0	456130560	42	5894
2026-01-28 23:30:04.14	130.46	16.10	-34.7	-35.6	24.1	0.00e+00	0	33	0	459276288	42	5970
2026-01-28 23:30:05.12	130.40	16.20	-34.6	-35.5	24.3	0.00e+00	0	33	0	462422016	42	5862
2026-01-28 23:30:06.09	130.35	16.31	-34.6	-35.5	24.2	0.00e+00	0	33	0	465567744	42	5908
2026-01-28 23:30:07.08	130.29	16.42	-34.6	-35.5	24.2	0.00e+00	0	33	0	468713472	42	5877
2026-01-28 23:30:08.06	130.23	16.52	-34.6	-35.6	24.2	0.00e+00	0	33	0	471859200	42	5944
2026-01-28 23:30:09.04	130.17	16.63	-34.8	-35.7	24.0	0.00e+00	0	33	0	475004928	42	6048
2026-01-28 23:30:10.02	130.11	16.74	-34.8	-35.8	24.0	0.00e+00	0	33	0	478150656	42	6072
2026-01-28 23:30:11.00	130.05	16.85	-34.7	-35.7	24.0	0.00e+00	0	33	0	481296384	42	6038
2026-01-28 23:30:11.98	129.99	16.96	-34.7	-35.6	24.1	0.00e+00	0	33	0	484442112	42	5988
2026-01-28 23:30:12.96	129.92	17.07	-34.7	-35.7	24.0	0.00e+00	0	33	0	487587840	42	6014
2026-01-28 23:30:13.94	129.86	17.18	-34.8	-35.7	24.0	0.00e+00	0	33	0	490733568	42	6035
2026-01-28 23:30:14.92	129.80	17.29	-34.8	-35.7	24.0	0.00e+00	0	33	0	492830720	42	6054
2026-01-28 23:30:15.90	129.74	17.40	-34.8	-35.7	23.9	0.00e+00	0	33	0	495976448	42	6030
2026-01-28 23:30:16.88	129.67	17.51	-34.9	-35.8	23.9	0.00e+00	0	33	0	499122176	42	6132
2026-01-28 23:30:17.86	129.61	17.62	-34.8	-35.8	24.0	0.00e+00	0	33	0	502267904	42	6086
2026-01-28 23:30:18.84	129.54	17.73	-35.0	-35.9	23.9	0.00e+00	0	33	0	505413632	42	6193
2026-01-28 23:30:19.82	129.48	17.84	-34.9	-35.9	23.9	0.00e+00	0	33	0	508559360	42	6157
2026-01-28 23:30:20.80	129.41	17.96	-34.9	-35.8	23.9	0.00e+00	0	33	0	511705088	42	6094
2026-01-28 23:30:21.78	129.35	18.07	-34.9	-35.8	24.0	0.00e+00	0	33	0	514850816	42	6106
2026-01-28 23:30:22.76	129.28	18.19	-34.8	-35.7	24.1	0.00e+00	0	33	0	517996544	42	6021
2026-01-28 23:30:23.73	129.21	18.30	-34.8	-35.7	24.0	0.00e+00	0	33	0	521142272	42	6059
2026-01-28 23:30:24.71	129.15	18.41	-34.8	-35.7	24.0	0.00e+00	0	33	0	524288000	42	6035
2026-01-28 23:30:25.69	129.08	18.53	-34.7	-35.6	24.1	0.00e+00	0	33	0	527433728	42	5975
2026-01-28 23:30:26.66	129.01	18.64	-34.8	-35.8	24.0	0.00e+00	0	33	0	529530880	42	6074
2026-01-28 23:30:27.64	128.94	18.76	-34.8	-35.8	24.1	0.00e+00	0	33	0	532676608	42	6066
2026-01-28 23:30:28.62	128.87	18.88	-34.8	-35.7	24.1	0.00e+00	0	33	0	535822336	42	6030
2026-01-28 23:30:29.60	128.80	19.00	-34.6	-35.5	24.3	0.00e+00	0	33	0	538968064	42	5880
2026-01-28 23:30:30.58	128.73	19.11	-34.6	-35.5	24.2	0.00e+00	0	33	0	542113792	42	5896
2026-01-28 23:30:31.56	128.66	19.23	-34.5	-35.4	24.3	0.00e+00	0	33	0	545259520	42	5809
2026-01-28 23:30:32.53	128.59	19.35	-34.6	-35.5	24.2	0.00e+00	0	33	0	548405248	42	5889
2026-01-28 23:30:33.52	128.51	19.47	-34.5	-35.4	24.3	0.00e+00	0	33	0	551550976	42	5804
2026-01-28 23:30:34.50	128.44	19.59	-34.6	-35.5	24.2	0.00e+00	0	33	0	554696704	42	5916
2026-01-28 23:30:35.47	128.37	19.71	-34.4	-35.3	24.3	0.00e+00	0	33	0	557842432	42	5750
2026-01-28 23:30:36.45	128.29	19.83	-34.5	-35.4	24.2	0.00e+00	0	33	0	560988160	42	5836
2026-01-28 23:30:37.42	128.22	19.95	-34.4	-35.3	24.4	0.00e+00	0	33	0	563085312	42	5749
2026-01-28 23:30:38.40	128.14	20.07	-34.3	-35.2	24.3	0.00e+00	0	33	0	566231040	42	5693
2026-01-28 23:30:39.38	128.06	20.20	-34.3	-35.2	24.4	0.00e+00	0	33	0	569376768	42	5683
2026-01-28 23:30:40.36	127.99	20.32	-34.2	-35.1	24.4	0.00e+00	0	33	0	572522496	42	5623
2026-01-28 23:30:41.33	127.91	20.44	-34.2	-35.1	24.4	0.00e+00	0	33	0	575668224	42	5636
2026-01-28 23:30:42.31	127.83	20.57	-34.1	-35.0	24.5	0.00e+00	0	33	0	578813952	42	5579
2026-01-28 23:30:43.30	127.75	20.69	-34.0	-34.9	24.5	0.00e+00	0	33	0	581959680	42	5473
2026-01-28 23:30:44.27	127.67	20.82	-33.9	-34.8	24.5	0.00e+00	0	33	0	585105408	42	5421
2026-01-28 23:30:45.25	127.59	20.94	-33.8	-34.8	24.6	0.00e+00	0	33	0	588251136	42	5405
2026-01-28 23:30:46.23	127.51	21.07	-33.7	-34.6	24.7	0.00e+00	0	33	0	591396864	42	5343
2026-01-28 23:30:47.21	127.43	21.20	-33.7	-34.7	24.7	0.00e+00	0	33	0	594542592	40	6000
2026-01-28 23:30:48.19	127.35	21.33	-33.6	-34.5	24.7	0.00e+00	0	33	0	596639744	40	5910
2026-01-28 23:30:49.17	127.27	21.45	-33.6	-34.5	24.7	0.00e+00	0	33	0	599785472	40	5918
2026-01-28 23:30:50.15	127.18	21.58	-33.5	-34.4	24.9	0.00e+00	0	33	0	602931200	40	5843
2026-01-28 23:30:51.13	127.10	21.71	-33.6	-34.5	24.9	0.00e+00	0	33	0	606076928	40	5925
2026-01-28 23:30:52.11	127.01	21.84	-33.2	-34.1	25.1	0.00e+00	0	33	0	609222656	40	5633
2026-01-28 23:30:53.09	126.93	21.97	-33.3	-34.2	25.1	0.00e+00	0	33	0	612368384	40	5678
2026-01-28 23:30:54.07	126.84	22.11	-33.3	-34.1	25.2	0.00e+00	0	33	0	615514112	40	5655
2026-01-28 23:30:55.05	126.75	22.24	-33.1	-34.0	25.2	0.00e+00	0	33	0	618659840	40	5572
2026-01-28 23:30:56.03	126.66	22.37	-33.2	-34.1	25.2	0.00e+00	0	33	0	621805568	40	5625
2026-01-28 23:30:57.02	126.57	22.50	-33.2	-34.1	25.3	0.00e+00	0	33	0	624951296	40	5617
2026-01-28 23:30:58.00	126.48	22.64	-33.0	-33.9	25.4	0.00e+00	0	33	0	628097024	40	5493
2026-01-28 23:30:58.98	126.39	22.77	-33.1	-34.0	25.4	0.00e+00	0	33	0	631242752	40	5554
2026-01-28 23:30:59.96	126.30	22.91	-33.0	-33.9	25.4	0.00e+00	0	33	0	634388480	40	5483
2026-01-28 23:31:00.94	126.21	23.04	-33.0	-33.8	25.5	0.00e+00	0	33	0	637534208	40	5467
2026-01-28 23:31:01.92	126.12	23.18	-32.9	-33.8	25.4	0.00e+00	0	33	0	639631360	40	5419
2026-01-28 23:31:02.89	126.02	23.32	-32.9	-33.8	25.5	0.00e+00	0	33	0	642777088	40	5428
2026-01-28 23:31:03.88	125.93	23.45	-33.0	-33.9	25.4	0.00e+00	0	33	0	645922816	40	5472
2026-01-28 23:31:04.85	125.83	23.59	-32.9	-33.8	25.4	0.00e+00	0	33	0	649068544	40	5421
2026-01-28 23:31:05.83	125.74	23.73	-32.9	-33.7	25.5	0.00e+00	0	33	0	652214272	40	5383
2026-01-28 23:31:06.81	125.64	23.87	-33.0	-33.9	25.3	0.00e+00	0	33	0	655360000	40	5493
2026-01-28 23:31:07.79	125.54	24.01	-33.0	-33.9	25.5	0.00e+00	0	33	0	658505728	40	5470
2026-01-28 23:31:08.78	125.44	24.15	-33.1	-33.9	25.4	0.00e+00	0	33	0	661651456	40	5515
2026-01-28 23:31:09.76	125.34	24.29	-33.0	-33.9	25.4	0.00e+00	0	33	0	664797184	40	5502
2026-01-28 23:31:10.74	125.24	24.44	-33.1	-34.0	25.4	0.00e+00	0	33	0	667942912	40	5532
2026-01-28 23:31:11.72	125.14	24.58	-33.1	-34.0	25.4	0.00e+00	0	33	0	671088640	40	5570
2026-01-28 23:31:12.69	125.03	24.72	-33.3	-34.2	25.2	0.00e+00	0	33	0	674234368	40	5691
2026-01-28 23:31:13.67	124.93	24.87	-33.3	-34.1	25.2	0.00e+00	0	33	0	676331520	40	5645
2026-01-28 23:31:14.65	124.82	25.01	-33.3	-34.2	25.2	0.00e+00	0	33	0	679477248	40	5671
2026-01-28 23:31:15.63	124.72	25.16	-33.3	-34.1	25.3	0.00e+00	0	33	0	682622976	40	5656
2026-01-28 23:31:16.60	124.61	25.30	-33.4	-34.2	25.1	0.00e+00	0	33	0	685768704	40	5719
2026-01-28 23:31:17.58	124.50	25.45	-33.4	-34.3	25.2	0.00e+00	0	33	0	688914432	40	5749
2026-01-28 23:31:18.56	124.40	25.60	-33.5	-34.3	25.1	0.00e+00	0	33	0	692060160	40	5788
2026-01-28 23:31:19.53	124.29	25.74	-33.5	-34.4	25.1	0.00e+00	0	33	0	695205888	40	5803
2026-01-28 23:31:20.52	124.17	25.89	-33.6	-34.5	25.0	0.00e+00	0	33	0	698351616	40	5864
2026-01-28 23:31:21.50	124.06	26.04	-33.6	-34.4	25.0	0.00e+00	0	33	0	701497344	40	5844
2026-01-28 23:31:22.47	123.95	26.19	-33.8	-34.7	24.9	0.00e+00	0	33	0	704643072	40	6004
2026-01-28 23:31:23.45	123.84	26.34	-34.0	-34.8	24.7	0.00e+00	0	33	0	707788800	40	6115
2026-01-28 23:31:24.43	123.72	26.50	-34.0	-34.9	24.5	0.00e+00	0	33	0	709885952	40	6163
2026-01-28 23:31:25.40	123.60	26.65	-34.1	-34.9	24.6	0.00e+00	0	33	0	713031680	40	6195
2026-01-28 23:31:26.38	123.49	26.80	-34.0	-34.9	24.5	0.00e+00	0	33	0	716177408	40	6168
2026-01-28 23:31:27.36	123.37	26.95	-34.1	-35.0	24.4	0.00e+00	0	33	0	719323136	40	6234
2026-01-28 23:31:28.33	123.25	27.11	-34.3	-35.2	24.3	0.00e+00	0	33	0	722468864	40	6371
2026-01-28 23:31:29.31	123.13	27.26	-34.3	-35.1	24.4	0.00e+00	0	33	0	725614592	40	6340
2026-01-28 23:31:30.29	123.00	27.42	-34.2	-35.1	24.5	0.00e+00	0	33	0	728760320	40	6331
2026-01-28 23:31:31.26	122.88	27.58	-34.4	-35.3	24.4	0.00e+00	0	33	0	731906048	40	6443
2026-01-28 23:31:32.24	122.76	27.73	-34.6	-35.5	24.3	0.00e+00	0	33	0	735051776	40	6611
2026-01-28 23:31:33.22	122.63	27.89	-34.5	-35.4	24.4	0.00e+00	0	33	0	738197504	40	6541
2026-01-28 23:31:34.20	122.50	28.05	-34.6	-35.5	24.2	0.00e+00	0	33	0	741343232	40	6613
2026-01-28 23:31:35.18	122.37	28.21	-34.7	-35.6	24.2	0.00e+00	0	33	0	744488960	40	6717
2026-01-28 23:31:36.15	122.25	28.37	-34.7	-35.6	24.2	0.00e+00	0	33	0	747634688	42	5964
2026-01-28 23:31:37.13	122.11	28.53	-34.7	-35.6	24.2	0.00e+00	0	33	0	749731840	42	5939
2026-01-28 23:31:38.11	121.98	28.70	-34.6	-35.5	24.2	0.00e+00	0	33	0	752877568	42	5882
2026-01-28 23:31:39.08	121.85	28.86	-34.6	-35.5	24.2	0.00e+00	0	33	0	756023296	42	5922
2026-01-28 23:31:40.06	121.71	29.02	-34.5	-35.4	24.2	0.00e+00	0	33	0	759169024	42	5842
2026-01-28 23:31:41.04	121.58	29.19	-34.6	-35.5	24.2	0.00e+00	0	33	0	762314752	42	5904
2026-01-28 23:31:42.01	121.44	29.35	-34.7	-35.7	24.1	0.00e+00	0	33	0	765460480	42	6000
2026-01-28 23:31:42.99	121.30	29.52	-34.8	-35.7	24.0	0.00e+00	0	33	0	768606208	42	6015
2026-01-28 23:31:43.97	121.16	29.68	-34.4	-35.3	24.3	0.00e+00	0	33	0	771751936	42	5783
2026-01-28 23:31:44.95	121.01	29.85	-34.5	-35.4	24.2	0.00e+00	0	33	0	774897664	42	5805
2026-01-28 23:31:45.93	120.87	30.02	-34.4	-35.3	24.3	0.00e+00	0	33	0	778043392	42	5768
2026-01-28 23:31:46.91	120.72	30.19	-34.6	-35.5	24.2	0.00e+00	0	33	0	781189120	42	5884
2026-01-28 23:31:47.88	120.58	30.36	-34.5	-35.4	24.3	0.00e+00	0	33	0	783286272	42	5826
2026-01-28 23:31:48.86	120.43	30.53	-34.6	-35.5	24.4	0.00e+00	0	33	0	786432000	42	5872
2026-01-28 23:31:49.84	120.28	30.70	-34.4	-35.3	24.5	0.00e+00	0	33	0	789577728	42	5768
2026-01-28 23:31:50.82	120.12	30.87	-34.4	-35.3	24.6	0.00e+00	0	33	0	792723456	42	5733
2026-01-28 23:31:51.80	119.97	31.05	-34.2	-35.0	24.7	0.00e+00	0	33	0	795869184	42	5589
2026-01-28 23:31:52.77	119.82	31.22	-33.9	-34.8	24.8	0.00e+00	0	33	0	799014912	42	5442
2026-01-28 23:31:53.75	119.66	31.39	-33.8	-34.7	24.8	0.00e+00	0	33	0	802160640	42	5376
2026-01-28 23:31:54.73	119.50	31.57	-34.0	-34.9	24.7	0.00e+00	0	33	0	805306368	42	5473
2026-01-28 23:31:55.71	119.34	31.74	-33.9	-34.8	24.4	0.00e+00	0	33	0	808452096	42	5434
2026-01-28 23:31:56.69	119.18	31.92	-33.9	-34.8	24.3	0.00e+00	0	33	0	811597824	42	5456
2026-01-28 23:31:57.67	119.01	32.10	-34.0	-35.0	24.1	0.00e+00	0	33	0	814743552	42	5550
2026-01-28 23:31:58.65	118.84	32.28	-34.1	-35.0	24.1	0.00e+00	0	33	0	817889280	42	5582
2026-01-28 23:31:59.63	118.68	32.46	-34.3	-35.2	24.1	0.00e+00	0	33	0	819986432	42	5699
2026-01-28 23:32:00.60	118.51	32.64	-34.3	-35.2	24.2	0.00e+00	0	33	0	823132160	42	5675
2026-01-28 23:32:01.58	118.34	32.82	-34.3	-35.2	24.4	0.00e+00	0	33	0	826277888	42	5696
2026-01-28 23:32:02.56	118.16	33.00	-34.4	-35.3	24.5	0.00e+00	0	33	0	829423616	42	5755
2026-01-28 23:32:03.54	117.98	33.18	-34.4	-35.4	24.5	0.00e+00	0	33	0	832569344	42	5792
2026-01-28 23:32:04.53	117.80	33.37	-34.5	-35.4	24.5	0.00e+00	0	33	0	835715072	42	5807
2026-01-28 23:32:05.51	117.62	33.55	-34.4	-35.3	24.6	0.00e+00	0	33	0	838860800	42	5729
2026-01-28 23:32:06.49	117.44	33.74	-34.2	-35.1	24.7	0.00e+00	0	33	0	842006528	42	5608
2026-01-28 23:32:07.46	117.26	33.92	-34.3	-35.2	24.6	0.00e+00	0	33	0	845152256	42	5663
2026-01-28 23:32:08.44	117.07	34.11	-34.4	-35.3	24.4	0.00e+00	0	33	0	848297984	42	5773
2026-01-28 23:32:09.43	116.88	34.30	-34.5	-35.4	24.3	0.00e+00	0	33	0	851443712	42	5830
2026-01-28 23:32:10.40	116.69	34.49	-34.8	-35.7	24.1	0.00e+00	0	33	0	854589440	42	6008
2026-01-28 23:32:11.38	116.50	34.67	-35.1	-36.0	23.9	0.00e+00	0	33	0	856686592	42	6219
2026-01-28 23:32:12.36	116.30	34.86	-35.4	-36.4	23.7	0.00e+00	0	33	0	859832320	42	6513
2026-01-28 23:32:13.33	116.11	35.05	-35.6	-36.5	23.5	0.00e+00	0	33	0	862978048	42	6616
2026-01-28 23:32:14.31	115.91	35.24	-35.6	-36.6	23.5	0.00e+00	0	33	0	866123776	44	5945
2026-01-28 23:32:15.29	115.71	35.44	-35.8	-36.7	23.3	0.00e+00	0	33	0	869269504	44	6036
2026-01-28 23:32:16.27	115.50	35.63	-35.7	-36.7	23.3	0.00e+00	0	33	0	872415232	44	6024
2026-01-28 23:32:17.25	115.29	35.82	-35.8	-36.7	23.4	0.00e+00	0	33	0	875560960	44	6040
2026-01-28 23:32:18.23	115.08	36.02	-35.7	-36.7	23.2	0.00e+00	0	33	0	878706688	44	6016
2026-01-28 23:32:19.21	114.87	36.21	-35.6	-36.5	23.5	0.00e+00	0	33	0	881852416	44	5882
2026-01-28 23:32:20.19	114.66	36.41	-35.7	-36.7	23.4	0.00e+00	0	33	0	884998144	44	5997
2026-01-28 23:32:21.17	114.44	36.60	-35.8	-36.7	23.3	0.00e+00	0	33	0	888143872	44	6032
2026-01-28 23:32:22.14	114.22	36.80	-35.8	-36.8	23.3	0.00e+00	0	33	0	891289600	44	6098
2026-01-28 23:32:23.12	114.00	37.00	-36.0	-37.0	23.1	0.00e+00	0	33	0	893386752	44	6216
2026-01-28 23:32:24.10	113.77	37.20	-36.2	-37.1	23.0	0.00e+00	0	33	0	896532480	44	6346
2026-01-28 23:32:25.08	113.54	37.39	-36.2	-37.1	23.0	0.00e+00	0	33	0	899678208	44	6320
2026-01-28 23:32:26.06	113.31	37.59	-36.4	-37.3	22.9	0.00e+00	0	33	0	902823936	44	6488
2026-01-28 23:32:27.04	113.08	37.79	-36.2	-37.2	23.0	0.00e+00	0	33	0	905969664	44	6395
2026-01-28 23:32:28.01	112.84	37.99	-36.4	-37.4	23.0	0.00e+00	0	33	0	909115392	44	6542
2026-01-28 23:32:28.99	112.60	38.20	-36.3	-37.3	22.9	0.00e+00	0	33	0	912261120	44	6438
2026-01-28 23:32:29.97	112.36	38.40	-36.3	-37.2	23.0	0.00e+00	0	33	0	915406848	44	6411
2026-01-28 23:32:30.95	112.11	38.60	-36.5	-37.4	22.9	0.00e+00	0	33	0	918552576	44	6572
2026-01-28 23:32:31.93	111.86	38.80	-36.5	-37.5	22.8	0.00e+00	0	33	0	921698304	44	6594
2026-01-28 23:32:32.91	111.61	39.01	-36.6	-37.6	22.8	0.00e+00	0	33	0	924844032	44	6675
2026-01-28 23:32:33.88	111.36	39.21	-36.5	-37.5	22.8	0.00e+00	0	33	0	926941184	44	6629
2026-01-28 23:32:34.86	111.10	39.42	-36.4	-37.4	23.0	0.00e+00	0	33	0	930086912	44	6533
2026-01-28 23:32:35.83	110.84	39.62	-36.5	-37.4	22.8	0.00e+00	0	33	0	933232640	44	6571
2026-01-28 23:32:36.81	110.57	39.83	-36.2	-37.2	23.1	0.00e+00	0	33	0	936378368	44	6371
2026-01-28 23:32:37.79	110.30	40.03	-36.0	-37.0	23.3	0.00e+00	0	33	0	939524096	44	6223
2026-01-28 23:32:38.77	110.03	40.24	-36.0	-37.0	23.3	0.00e+00	0	33	0	942669824	44	6208
2026-01-28 23:32:39.74	109.76	40.45	-36.0	-36.9	23.3	0.00e+00	0	33	0	945815552	44	6190
2026-01-28 23:32:40.73	109.47	40.66	-36.2	-37.2	23.0	0.00e+00	0	33	0	948961280	44	6356
2026-01-28 23:32:41.71	109.19	40.87	-36.3	-37.3	23.0	0.00e+00	0	33	0	952107008	44	6424
2026-01-28 23:32:42.69	108.90	41.07	-36.4	-37.4	23.0	0.00e+00	0	33	0	955252736	44	6518
2026-01-28 23:32:43.67	108.61	41.28	-36.3	-37.2	23.0	0.00e+00	0	33	0	958398464	44	6421
2026-01-28 23:32:44.65	108.32	41.49	-36.1	-37.1	23.1	0.00e+00	0	33	0	961544192	44	6297
2026-01-28 23:32:45.63	108.02	41.70	-36.1	-37.1	23.0	0.00e+00	0	33	0	963641344	44	6328
2026-01-28 23:32:46.61	107.72	41.91	-36.4	-37.3	22.9	0.00e+00	0	33	0	966787072	44	6482
2026-01-28 23:32:47.58	107.41	42.12	-36.4	-37.4	22.8	0.00e+00	0	33	0	969932800	44	6500
2026-01-28 23:32:48.56	107.10	42.33	-36.6	-37.6	22.6	0.00e+00	0	33	0	973078528	44	6674
2026-01-28 23:32:49.55	106.78	42.55	-36.5	-37.5	22.7	0.00e+00	0	33	0	976224256	44	6615
2026-01-28 23:32:50.53	106.46	42.76	-36.5	-37.6	22.7	0.00e+00	0	33	0	979369984	44	6658
2026-01-28 23:32:51.51	106.14	42.97	-36.3	-37.3	22.9	0.00e+00	0	33	0	982515712	44	6446
2026-01-28 23:32:52.48	105.82	43.18	-36.1	-37.1	23.2	0.00e+00	0	33	0	985661440	44	6294
2026-01-28 23:32:53.46	105.49	43.39	-36.1	-37.1	23.1	0.00e+00	0	33	0	988807168	44	6292
2026-01-28 23:32:54.44	105.15	43.60	-36.1	-37.0	23.1	0.00e+00	0	33	0	991952896	44	6252
2026-01-28 23:32:55.42	104.81	43.81	-36.2	-37.1	22.8	0.00e+00	0	33	0	995098624	44	6341
2026-01-28 23:32:56.40	104.46	44.03	-36.5	-37.5	22.3	0.00e+00	0	33	0	998244352	44	6581
2026-01-28 23:32:57.38	104.11	44.24	-36.4	-37.4	22.3	0.00e+00	0	33	0	1001390080	44	6523
2026-01-28 23:32:58.36	103.76	44.45	-36.8	-37.8	22.2	0.00e+00	0	33	0	1003487232	44	6852
2026-01-28 23:32:59.34	103.40	44.66	-37.0	-38.0	22.3	0.00e+00	0	33	0	1006632960	46	6246
2026-01-28 23:33:00.32	103.03	44.87	-36.7	-37.7	22.7	0.00e+00	0	33	0	1009778688	46	6021
2026-01-28 23:33:01.30	102.66	45.08	-36.5	-37.5	22.8	0.00e+00	0	33	0	1012924416	46	5892
2026-01-28 23:33:02.28	102.29	45.29	-36.5	-37.5	22.7	0.00e+00	0	33	0	1016070144	46	5889
2026-01-28 23:33:03.26	101.91	45.50	-36.5	-37.5	22.5	0.00e+00	0	33	0	1019215872	46	5904
2026-01-28 23:33:04.23	101.53	45.71	-36.6	-37.6	22.5	0.00e+00	0	33	0	1022361600	46	5951
2026-01-28 23:33:05.21	101.14	45.92	-36.9	-38.0	22.3	0.00e+00	0	33	0	1025507328	46	6230
2026-01-28 23:33:06.19	100.75	46.13	-37.0	-38.0	22.5	0.00e+00	0	33	0	1028653056	46	6220
2026-01-28 23:33:07.17	100.35	46.34	-36.8	-37.9	22.6	0.00e+00	0	33	0	1031798784	46	6136
2026-01-28 23:33:08.15	99.94	46.55	-37.0	-38.0	22.5	0.00e+00	0	33	0	1034944512	46	6232
2026-01-28 23:33:09.13	99.53	46.76	-36.9	-37.8	22.7	0.00e+00	0	33	0	1038090240	46	6134
2026-01-28 23:33:10.11	99.11	46.97	-36.5	-37.5	22.8	0.00e+00	0	33	0	1041235968	46	5913
2026-01-28 23:33:11.09	98.69	47.17	-36.6	-37.6	22.8	0.00e+00	0	33	0	1043333120	46	5981
2026-01-28 23:33:12.08	98.26	47.38	-36.6	-37.5	22.8	0.00e+00	0	33	0	1046478848	46	5915
2026-01-28 23:33:13.06	97.82	47.59	-36.7	-37.7	22.8	0.00e+00	0	33	0	1049624576	46	6009
2026-01-28 23:33:14.05	97.38	47.79	-36.8	-37.8	22.6	0.00e+00	0	33	0	1052770304	46	6120
2026-01-28 23:33:15.03	96.94	48.00	-37.1	-38.1	22.4	0.00e+00	0	33	0	1055916032	46	6326
2026-01-28 23:33:16.01	96.48	48.20	-37.2	-38.3	22.3	0.00e+00	0	33	0	1059061760	46	6440
2026-01-28 23:33:16.99	96.03	48.40	-36.8	-37.8	22.7	0.00e+00	0	33	0	1062207488	46	6070
2026-01-28 23:33:17.97	95.56	48.60	-36.8	-37.8	22.7	0.00e+00	0	33	0	1065353216	46	6104
2026-01-28 23:33:18.95	95.10	48.80	-36.6	-37.5	22.9	0.00e+00	0	33	0	1068498944	46	5916
2026-01-28 23:33:19.93	94.62	49.00	-36.3	-37.2	23.0	0.00e+00	0	33	0	1071644672	46	5703
2026-01-28 23:33:20.91	94.14	49.20	-36.1	-37.1	23.1	0.00e+00	0	33	0	1074790400	46	5610
2026-01-28 23:33:21.89	93.65	49.39	-36.7	-37.7	22.6	0.00e+00	0	33	0	1077936128	46	6029
2026-01-28 23:33:22.86	93.16	49.58	-36.7	-37.7	22.7	0.00e+00	0	33	0	1081081856	46	6029
2026-01-28 23:33:23.84	92.66	49.78	-36.2	-37.2	23.2	0.00e+00	0	33	0	1083179008	46	5660
2026-01-28 23:33:24.82	92.16	49.97	-36.1	-37.0	23.2	0.00e+00	0	33	0	1086324736	46	5560
2026-01-28 23:33:25.80	91.64	50.16	-36.1	-37.0	23.2	0.00e+00	0	33	0	1089470464	46	5576
2026-01-28 23:33:26.77	91.13	50.34	-36.2	-37.2	23.1	0.00e+00	0	33	0	1092616192	46	5695
2026-01-28 23:33:27.76	90.60	50.53	-36.3	-37.2	23.0	0.00e+00	0	33	0	1095761920	46	5722
2026-01-28 23:33:28.74	90.07	50.71	-36.1	-37.0	23.3	0.00e+00	0	33	0	1098907648	46	5584
2026-01-28 23:33:29.72	89.53	50.90	-35.5	-36.4	23.8	0.00e+00	0	33	0	1102053376	44	5814
2026-01-28 23:33:30.70	88.98	51.08	-35.4	-36.3	23.8	0.00e+00	0	33	0	1105199104	44	5729
2026-01-28 23:33:31.67	88.44	51.25	-35.3	-36.2	23.8	0.00e+00	0	33	0	1108344832	44	5683
2026-01-28 23:33:32.64	87.88	51.43	-35.4	-36.3	23.7	0.00e+00	0	33	0	1111490560	44	5778
2026-01-28 23:33:33.62	87.32	51.60	-35.5	-36.4	23.7	0.00e+00	0	33	0	1114636288	44	5837
2026-01-28 23:33:34.60	86.75	51.77	-35.3	-36.2	23.9	0.00e+00	0	33	0	1117782016	44	5720
2026-01-28 23:33:35.58	86.17	51.94	-35.0	-36.0	24.1	0.00e+00	0	33	0	1119879168	44	5538
2026-01-28 23:33:36.56	85.58	52.11	-35.0	-35.9	24.1	0.00e+00	0	33	0	1123024896	44	5516
2026-01-28 23:33:37.53	85.00	52.27	-34.7	-35.6	24.3	0.00e+00	0	33	0	1126170624	42	5965
2026-01-28 23:33:38.52	84.39	52.43	-34.9	-35.8	24.3	0.00e+00	0	33	0	1129316352	42	6096
2026-01-28 23:33:39.49	83.80	52.59	-34.8	-35.7	24.3	0.00e+00	0	33	0	1132462080	42	6047
2026-01-28 23:33:40.47	83.18	52.74	-34.7	-35.6	24.3	0.00e+00	0	33	0	1135607808	42	5951
2026-01-28 23:33:41.46	82.56	52.90	-34.4	-35.3	24.6	0.00e+00	0	33	0	1138753536	42	5747
2026-01-28 23:33:42.43	81.94	53.05	-34.2	-35.0	24.7	0.00e+00	0	33	0	1141899264	42	5567
2026-01-28 23:33:43.41	81.31	53.19	-34.3	-35.2	24.6	0.00e+00	0	33	0	1145044992	42	5674
2026-01-28 23:33:44.40	80.67	53.34	-34.4	-35.3	24.6	0.00e+00	0	33	0	1148190720	42	5752
2026-01-28 23:33:45.38	80.03	53.48	-34.6	-35.5	24.4	0.00e+00	0	33	0	1151336448	42	5862
2026-01-28 23:33:46.35	79.39	53.61	-34.8	-35.7	24.3	0.00e+00	0	33	0	1154482176	42	6021
2026-01-28 23:33:47.34	78.72	53.75	-35.0	-35.9	24.1	0.00e+00	0	33	0	1156579328	42	6196
2026-01-28 23:33:48.32	78.06	53.88	-35.3	-36.2	23.9	0.00e+00	0	33	0	1159725056	42	6404
2026-01-28 23:33:49.30	77.40	54.00	-35.6	-36.6	23.5	0.00e+00	0	33	0	1162870784	42	6678
2026-01-28 23:33:50.28	76.72	54.13	-35.7	-36.7	23.5	0.00e+00	0	33	0	1166016512	44	6009
2026-01-28 23:33:51.26	76.05	54.25	-35.4	-36.3	23.7	0.00e+00	0	33	0	1169162240	44	5791
2026-01-28 23:33:52.24	75.36	54.36	-35.2	-36.1	24.0	0.00e+00	0	33	0	1172307968	44	5628
2026-01-28 23:33:53.22	74.67	54.47	-35.0	-36.0	24.0	0.00e+00	0	33	0	1175453696	44	5534
2026-01-28 23:33:54.19	73.98	54.58	-35.0	-35.9	23.9	0.00e+00	0	33	0	1178599424	44	5512
2026-01-28 23:33:55.17	73.28	54.68	-35.0	-35.9	24.1	0.00e+00	0	33	0	1181745152	44	5501
2026-01-28 23:33:56.15	72.58	54.78	-34.7	-35.6	24.2	0.00e+00	0	33	0	1184890880	44	5323
2026-01-28 23:33:57.13	71.87	54.87	-34.7	-35.6	24.5	0.00e+00	0	33	0	1188036608	42	5958
2026-01-28 23:33:58.11	71.16	54.97	-34.1	-35.0	24.8	0.00e+00	0	33	0	1191182336	42	5552
2026-01-28 23:33:59.08	70.45	55.05	-34.1	-35.0	24.8	0.00e+00	0	33	0	1193279488	42	5541
2026-01-28 23:34:00.07	69.72	55.13	-34.0	-34.9	24.9	0.00e+00	0	33	0	1196425216	42	5470
2026-01-28 23:34:01.04	69.00	55.21	-34.2	-35.1	24.8	0.00e+00	0	33	0	1199570944	42	5610
2026-01-28 23:34:02.03	68.26	55.28	-34.2	-35.1	24.7	0.00e+00	0	33	0	1202716672	42	5606
2026-01-28 23:34:03.01	67.52	55.35	-34.6	-35.5	24.4	0.00e+00	0	33	0	1205862400	42	5905
2026-01-28 23:34:03.99	66.79	55.42	-34.7	-35.6	24.3	0.00e+00	0	33	0	1209008128	42	5978
2026-01-28 23:34:04.96	66.05	55.47	-34.7	-35.6	24.3	0.00e+00	0	33	0	1212153856	42	5933
2026-01-28 23:34:05.94	65.31	55.53	-34.7	-35.6	24.4	0.00e+00	0	33	0	1215299584	42	5977
2026-01-28 23:34:06.92	64.56	55.58	-34.5	-35.4	24.6	0.00e+00	0	33	0	1218445312	42	5792
2026-01-28 23:34:07.89	63.82	55.62	-34.7	-35.5	24.4	0.00e+00	0	33	0	1221591040	42	5925
2026-01-28 23:34:08.87	63.07	55.66	-35.0	-36.0	24.1	0.00e+00	0	33	0	1224736768	42	6215
2026-01-28 23:34:09.85	62.31	55.70	-35.0	-35.9	24.1	0.00e+00	0	33	0	1227882496	42	6158
2026-01-28 23:34:10.83	61.56	55.73	-34.9	-35.8	24.2	0.00e+00	0	33	0	1229979648	42	6092
2026-01-28 23:34:11.80	60.81	55.76	-34.5	-35.3	24.5	0.00e+00	0	33	0	1233125376	42	5784
2026-01-28 23:34:12.79	60.04	55.78	-33.9	-34.8	24.9	0.00e+00	0	33	0	1236271104	42	5428
2026-01-28 23:34:13.76	59.29	55.79	-34.1	-35.0	24.7	0.00e+00	0	33	0	1239416832	42	5566
2026-01-28 23:34:14.74	58.53	55.80	-34.4	-35.3	24.6	0.00e+00	0	33	0	1242562560	42	5758
2026-01-28 23:34:15.72	57.77	55.81	-34.8	-35.7	24.2	0.00e+00	0	33	0	1245708288	42	6062
2026-01-28 23:34:16.70	57.01	55.81	-35.0	-35.9	24.2	0.00e+00	0	33	0	1248854016	42	6138
2026-01-28 23:34:17.68	56.25	55.81	-34.9	-35.8	24.3	0.00e+00	0	33	0	1251999744	42	6072
2026-01-28 23:34:18.66	55.49	55.80	-34.6	-35.5	24.5	0.00e+00	0	33	0	1255145472	42	5869
2026-01-28 23:34:19.64	54.73	55.78	-34.3	-35.2	24.7	0.00e+00	0	33	0	1258291200	42	5679
2026-01-28 23:34:20.63	53.96	55.76	-34.4	-35.3	24.5	0.00e+00	0	33	0	1261436928	42	5757
2026-01-28 23:34:21.61	53.21	55.74	-34.7	-35.6	24.5	0.00e+00	0	33	0	1264582656	42	5942
2026-01-28 23:34:22.58	52.46	55.71	-34.5	-35.4	24.1	0.00e+00	0	33	0	1266679808	42	5803
2026-01-28 23:34:23.56	51.71	55.68	-34.8	-35.7	23.6	0.00e+00	0	33	0	1269825536	42	6034
2026-01-28 23:34:24.54	50.95	55.64	-34.3	-35.3	24.1	0.00e+00	0	33	0	1272971264	42	5728
2026-01-28 23:34:25.52	50.20	55.60	-34.4	-35.3	24.0	0.00e+00	0	33	0	1276116992	42	5777
2026-01-28 23:34:26.50	49.46	55.55	-34.5	-35.4	24.2	0.00e+00	0	33	0	1279262720	42	5827
2026-01-28 23:34:27.48	48.71	55.50	-34.8	-35.7	24.1	0.00e+00	0	33	0	1282408448	42	6011
2026-01-28 23:34:28.46	47.97	55.44	-35.0	-35.9	24.0	0.00e+00	0	33	0	1285554176	42	6186
2026-01-28 23:34:29.44	47.23	55.38	-34.5	-35.4	24.5	0.00e+00	0	33	0	1288699904	42	5819
2026-01-28 23:34:30.42	46.49	55.31	-34.5	-35.4	24.2	0.00e+00	0	33	0	1291845632	42	5837
2026-01-28 23:34:31.40	45.76	55.24	-34.3	-35.2	24.6	0.00e+00	0	33	0	1294991360	42	5721
2026-01-28 23:34:32.38	45.03	55.16	-34.4	-35.3	24.5	0.00e+00	0	33	0	1298137088	42	5763
2026-01-28 23:34:33.36	44.31	55.08	-34.5	-35.4	24.6	0.00e+00	0	33	0	1301282816	42	5803
2026-01-28 23:34:34.34	43.59	55.00	-34.3	-35.2	24.7	0.00e+00	0	33	0	1304428544	42	5678
2026-01-28 23:34:35.32	42.88	54.91	-34.8	-35.7	24.2	0.00e+00	0	33	0	1306525696	42	6040
2026-01-28 23:34:36.29	42.17	54.82	-35.3	-36.2	24.0	0.00e+00	0	33	0	1309671424	42	6405
2026-01-28 23:34:37.28	41.46	54.72	-34.8	-35.7	24.3	0.00e+00	0	33	0	1312817152	42	6032
2026-01-28 23:34:38.26	40.76	54.62	-34.7	-35.6	24.5	0.00e+00	0	33	0	1315962880	42	5946
2026-01-28 23:34:39.24	40.06	54.51	-34.3	-35.2	24.6	0.00e+00	0	33	0	1319108608	42	5699
2026-01-28 23:34:40.22	39.37	54.40	-34.6	-35.5	24.5	0.00e+00	0	33	0	1322254336	42	5895
2026-01-28 23:34:41.20	38.69	54.29	-34.9	-35.9	24.2	0.00e+00	0	33	0	1325400064	42	6137
2026-01-28 23:34:42.18	38.01	54.17	-35.1	-36.1	23.8	0.00e+00	0	33	0	1328545792	42	6286
2026-01-28 23:34:43.16	37.33	54.05	-35.3	-36.3	23.8	0.00e+00	0	33	0	1331691520	42	6441
2026-01-28 23:34:44.14	36.66	53.93	-34.9	-35.8	24.3	0.00e+00	0	33	0	1334837248	42	6119
2026-01-28 23:34:45.12	36.00	53.80	-35.0	-35.9	24.1	0.00e+00	0	33	0	1337982976	42	6203
2026-01-28 23:34:46.10	35.35	53.67	-35.2	-36.1	24.0	0.00e+00	0	33	0	1341128704	42	6347
2026-01-28 23:34:47.08	34.70	53.53	-35.1	-35.9	24.2	0.00e+00	0	33	0	1343225856	42	6202
2026-01-28 23:34:48.06	34.05	53.39	-35.1	-36.0	24.0	0.00e+00	0	33	0	1346371584	42	6274
2026-01-28 23:34:49.04	33.41	53.25	-35.5	-36.4	23.6	0.00e+00	0	33	0	1349517312	42	6532
2026-01-28 23:34:50.01	32.79	53.11	-35.6	-36.6	23.5	0.00e+00	0	33	0	1352663040	42	6656
2026-01-28 23:34:50.99	32.16	52.96	-35.3	-36.2	23.9	0.00e+00	0	33	0	1355808768	42	6401
2026-01-28 23:34:51.97	31.54	52.81	-35.0	-35.9	24.2	0.00e+00	0	33	0	1358954496	42	6170
2026-01-28 23:34:52.95	30.93	52.65	-34.7	-35.6	24.5	0.00e+00	0	33	0	1362100224	42	5950
2026-01-28 23:34:53.93	30.33	52.50	-34.6	-35.5	24.5	0.00e+00	0	33	0	1365245952	42	5874
2026-01-28 23:34:54.91	29.73	52.34	-34.5	-35.3	24.5	0.00e+00	0	33	0	1368391680	42	5762
2026-01-28 23:34:55.90	29.13	52.17	-34.5	-35.4	24.2	0.00e+00	0	33	0	1371537408	42	5828
2026-01-28 23:34:56.88	28.54	52.01	-34.8	-35.7	24.2	0.00e+00	0	33	0	1374683136	42	6000
2026-01-28 23:34:57.86	27.96	51.84	-34.7	-35.6	24.3	0.00e+00	0	33	0	1377828864	42	5956
2026-01-28 23:34:58.84	27.39	51.67	-34.9	-35.8	24.1	0.00e+00	0	33	0	1379926016	42	6133
2026-01-28 23:34:59.82	26.82	51.50	-35.9	-36.9	23.3	0.00e+00	0	33	0	1383071744	44	6178
2026-01-28 23:35:00.80	26.26	51.32	-36.7	-37.8	22.3	0.00e+00	0	33	0	1386217472	44	6823
2026-01-28 23:35:01.77	25.71	51.15	-36.7	-37.8	21.9	0.00e+00	0	33	0	1389363200	46	6079
2026-01-28 23:35:02.75	25.17	50.97	-36.3	-37.3	22.2	0.00e+00	0	33	0	1392508928	46	5771
2026-01-28 23:35:03.73	24.63	50.79	-36.3	-37.3	22.5	0.00e+00	0	33	0	1395654656	46	5746
2026-01-28 23:35:04.71	24.09	50.60	-35.7	-36.6	23.3	0.00e+00	0	33	0	1398800384	44	5967
2026-01-28 23:35:05.68	23.57	50.42	-35.3	-36.3	23.4	0.00e+00	0	33	0	1401946112	44	5728
2026-01-28 23:35:06.66	23.05	50.23	-36.2	-37.2	22.8	0.00e+00	0	33	0	1405091840	44	6368
2026-01-28 23:35:07.63	22.54	50.05	-37.4	-38.5	22.0	0.00e+00	0	33	0	1408237568	46	6584
2026-01-28 23:35:08.61	22.03	49.86	-37.9	-39.0	21.6	0.00e+00	0	33	0	1411383296	48	6242
2026-01-28 23:35:09.59	21.53	49.67	-37.8	-38.9	21.3	0.00e+00	0	33	0	1413480448	48	6189
2026-01-28 23:35:10.57	21.03	49.47	-36.7	-37.7	22.1	0.00e+00	0	33	0	1416626176	48	5404
2026-01-28 23:35:11.55	20.55	49.28	-35.6	-36.5	23.3	0.00e+00	0	33	0	1419771904	44	5892
2026-01-28 23:35:12.53	20.06	49.08	-35.1	-36.0	24.0	0.00e+00	0	33	0	1422917632	44	5559
2026-01-28 23:35:13.51	19.59	48.89	-35.6	-36.5	23.6	0.00e+00	0	33	0	1426063360	44	5878
2026-01-28 23:35:14.48	19.12	48.69	-36.2	-37.2	23.2	0.00e+00	0	33	0	1429209088	44	6369
2026-01-28 23:35:15.46	18.66	48.49	-37.0	-38.0	22.5	0.00e+00	0	33	0	1432354816	46	6262
2026-01-28 23:35:16.43	18.20	48.29	-37.5	-38.6	21.9	0.00e+00	0	33	0	1435500544	46	6651
2026-01-28 23:35:17.41	17.75	48.09	-38.0	-39.0	21.4	0.00e+00	0	33	0	1438646272	48	6264
2026-01-28 23:35:18.38	17.31	47.89	-37.9	-38.9	21.6	0.00e+00	0	33	0	1441792000	48	6203
2026-01-28 23:35:19.36	16.87	47.69	-37.0	-38.0	22.3	0.00e+00	0	33	0	1444937728	48	5555
2026-01-28 23:35:20.35	16.43	47.48	-35.3	-36.2	23.7	0.00e+00	0	33	0	1448083456	44	5689
2026-01-28 23:35:21.33	16.00	47.27	-34.6	-35.4	24.4	0.00e+00	0	33	0	1451229184	42	5854
2026-01-28 23:35:22.31	15.57	47.07	-35.0	-35.8	24.2	0.00e+00	0	33	0	1453326336	42	6131
2026-01-28 23:35:23.28	15.16	46.86	-36.1	-37.0	23.3	0.00e+00	0	33	0	1456472064	44	6244
2026-01-28 23:35:24.26	14.75	46.66	-37.1	-38.1	22.2	0.00e+00	0	33	0	1459617792	46	6344
2026-01-28 23:35:25.25	14.34	46.45	-37.8	-38.9	21.7	0.00e+00	0	33	0	1462763520	48	6186
2026-01-28 23:35:26.22	13.94	46.24	-37.3	-38.4	22.0	0.00e+00	0	33	0	1465909248	48	5794
2026-01-28 23:35:27.20	13.54	46.03	-37.3	-38.4	22.1	0.00e+00	0	33	0	1469054976	48	5797
2026-01-28 23:35:28.18	13.15	45.82	-37.2	-38.2	22.5	0.00e+00	0	33	0	1472200704	48	5674
2026-01-28 23:35:29.16	12.77	45.61	-36.2	-37.1	23.3	0.00e+00	0	33	0	1475346432	46	5651
2026-01-28 23:35:30.14	12.39	45.40	-35.4	-36.3	23.8	0.00e+00	0	33	0	1478492160	44	5762
2026-01-28 23:35:31.11	12.01	45.20	-35.3	-36.1	24.0	0.00e+00	0	33	0	1481637888	44	5653
2026-01-28 23:35:32.09	11.64	44.98	-35.6	-36.5	23.7	0.00e+00	0	33	0	1484783616	44	5868
2026-01-28 23:35:33.06	11.28	44.78	-36.4	-37.4	22.7	0.00e+00	0	33	0	1487929344	44	6500
2026-01-28 23:35:34.04	10.92	44.57	-37.5	-38.6	21.8	0.00e+00	0	33	0	1491075072	46	6678
2026-01-28 23:35:35.02	10.56	44.35	-37.9	-39.0	21.5	0.00e+00	0	33	0	1493172224	48	6228
2026-01-28 23:35:36.00	10.21	44.14	-37.4	-38.5	21.8	0.00e+00	0	33	0	1496317952	48	5874
2026-01-28 23:35:36.98	9.87	43.93	-37.1	-38.2	22.1	0.00e+00	0	33	0	1499463680	48	5671
2026-01-28 23:35:37.95	9.53	43.72	-36.7	-37.7	22.7	0.00e+00	0	33	0	1502609408	46	6012
2026-01-28 23:35:38.93	9.19	43.51	-36.0	-36.9	23.5	0.00e+00	0	33	0	1505755136	46	5502
2026-01-28 23:35:39.90	8.86	43.30	-36.3	-37.2	23.1	0.00e+00	0	33	0	1508900864	46	5695
2026-01-28 23:35:40.88	8.53	43.09	-36.5	-37.4	23.0	0.00e+00	0	33	0	1512046592	46	5854
2026-01-28 23:35:41.86	8.21	42.88	-35.9	-36.8	23.4	0.00e+00	0	33	0	1515192320	46	5467
2026-01-28 23:35:42.85	7.88	42.67	-35.5	-36.4	23.7	0.00e+00	0	33	0	1518338048	44	5843
2026-01-28 23:35:43.82	7.57	42.46	-35.6	-36.6	23.6	0.00e+00	0	33	0	1521483776	44	5929
2026-01-28 23:35:44.80	7.26	42.25	-36.3	-37.3	23.0	0.00e+00	0	33	0	1524629504	44	6431
2026-01-28 23:35:45.78	6.95	42.04	-36.5	-37.5	22.5	0.00e+00	0	33	0	1526726656	44	6639
2026-01-28 23:35:46.76	6.65	41.83	-36.5	-37.5	22.2	0.00e+00	0	33	0	1529872384	44	6635
2026-01-28 23:35:47.74	6.35	41.62	-35.9	-37.0	22.1	0.00e+00	0	33	0	1533018112	44	6206
2026-01-28 23:35:48.71	6.05	41.41	-36.1	-37.1	22.3	0.00e+00	0	33	0	1536163840	44	6317
2026-01-28 23:35:49.69	5.76	41.20	-35.5	-36.4	23.3	0.00e+00	0	33	0	1539309568	44	5832
2026-01-28 23:35:50.67	5.47	41.00	-36.0	-37.0	23.2	0.00e+00	0	33	0	1542455296	44	6213
2026-01-28 23:35:51.65	5.19	40.79	-36.9	-37.9	22.5	0.00e+00	0	33	0	1545601024	46	6178
2026-01-28 23:35:52.62	4.91	40.58	-37.7	-38.8	21.8	0.00e+00	0	33	0	1548746752	46	6807
2026-01-28 23:35:53.60	4.63	40.37	-37.8	-38.9	21.4	0.00e+00	0	33	0	1551892480	48	6180
2026-01-28 23:35:54.58	4.36	40.17	-37.5	-38.6	21.6	0.00e+00	0	33	0	1555038208	48	5928
2026-01-28 23:35:55.56	4.09	39.96	-37.1	-38.2	21.8	0.00e+00	0	33	0	1558183936	48	5664
2026-01-28 23:35:56.54	3.82	39.76	-36.8	-37.8	22.6	0.00e+00	0	33	0	1561329664	48	5439
2026-01-28 23:35:57.52	3.56	39.55	-36.2	-37.2	23.2	0.00e+00	0	33	0	1563426816	46	5679
2026-01-28 23:35:58.49	3.30	39.35	-36.1	-37.1	23.2	0.00e+00	0	33	0	1566572544	46	5609
2026-01-28 23:35:59.47	3.04	39.14	-35.9	-36.8	23.5	0.00e+00	0	33	0	1569718272	46	5436
2026-01-28 23:36:00.44	2.79	38.94	-35.6	-36.5	23.7	0.00e+00	0	33	0	1572864000	44	5871
2026-01-28 23:36:01.42	2.54	38.74	-35.7	-36.6	23.6	0.00e+00	0	33	0	1576009728	44	5953
2026-01-28 23:36:02.40	2.30	38.54	-35.8	-36.8	23.4	0.00e+00	0	33	0	1579155456	44	6079
2026-01-28 23:36:03.38	2.05	38.33	-36.3	-37.3	23.1	0.00e+00	0	33	0	1582301184	44	6443
2026-01-28 23:36:04.35	1.81	38.13	-37.0	-38.0	22.5	0.00e+00	0	33	0	1585446912	46	6230
2026-01-28 23:36:05.32	1.58	37.94	-37.4	-38.5	22.1	0.00e+00	0	33	0	1588592640	46	6610
2026-01-28 23:36:06.30	1.34	37.74	-37.6	-38.7	21.8	0.00e+00	0	33	0	1591738368	46	6802
2026-01-28 23:36:07.28	1.11	37.54	-37.5	-38.6	21.9	0.00e+00	0	33	0	1593835520	46	6652
2026-01-28 23:36:08.25	0.88	37.34	-37.4	-38.5	21.9	0.00e+00	0	33	0	1596981248	46	6626
2026-01-28 23:36:09.23	0.66	37.14	-36.8	-37.8	22.4	0.00e+00	0	33	0	1600126976	46	6106
2026-01-28 23:36:10.21	0.43	36.94	-35.6	-36.5	23.7	0.00e+00	0	33	0	1603272704	44	5885
2026-01-28 23:36:11.19	0.21	36.75	-35.0	-35.8	24.1	0.00e+00	0	33	0	1606418432	44	5457
2026-01-28 23:36:12.17	359.99	36.55	-35.0	-35.9	24.1	0.00e+00	0	33	0	1609564160	44	5511
2026-01-28 23:36:13.15	359.78	36.36	-35.3	-36.2	23.7	0.00e+00	0	33	0	1612709888	44	5711
2026-01-28 23:36:14.13	359.56	36.16	-35.6	-36.6	23.4	0.00e+00	0	33	0	1615855616	44	5944
2026-01-28 23:36:15.11	359.35	35.97	-35.8	-36.8	23.3	0.00e+00	0	33	0	1619001344	44	6105
2026-01-28 23:36:16.08	359.15	35.78	-35.7	-36.7	23.4	0.00e+00	0	33	0	1622147072	44	6005
2026-01-28 23:36:17.06	358.94	35.58	-35.3	-36.2	23.9	0.00e+00	0	33	0	1625292800	44	5715
2026-01-28 23:36:18.04	358.74	35.39	-35.0	-35.9	24.1	0.00e+00	0	33	0	1627389952	44	5523
2026-01-28 23:36:19.02	358.54	35.20	-34.7	-35.5	24.4	0.00e+00	0	33	0	1630535680	42	5926
2026-01-28 23:36:20.00	358.34	35.01	-34.3	-35.1	24.7	0.00e+00	0	33	0	1633681408	42	5649
2026-01-28 23:36:20.98	358.14	34.82	-34.5	-35.4	24.5	0.00e+00	0	33	0	1636827136	42	5830
2026-01-28 23:36:21.96	357.95	34.63	-34.8	-35.7	24.3	0.00e+00	0	33	0	1639972864	42	6001
2026-01-28 23:36:22.94	357.76	34.44	-35.0	-35.9	24.1	0.00e+00	0	33	0	1643118592	42	6189
2026-01-28 23:36:23.92	357.57	34.26	-35.2	-36.2	23.8	0.00e+00	0	33	0	1646264320	42	6352
2026-01-28 23:36:24.89	357.38	34.07	-35.2	-36.1	23.8	0.00e+00	0	33	0	1649410048	42	6324
2026-01-28 23:36:25.88	357.20	33.88	-35.4	-36.3	23.6	0.00e+00	0	33	0	1652555776	42	6474
2026-01-28 23:36:26.86	357.01	33.70	-35.1	-36.0	23.9	0.00e+00	0	33	0	1655701504	42	6218
2026-01-28 23:36:27.85	356.83	33.51	-35.0	-36.0	23.9	0.00e+00	0	33	0	1658847232	42	6222
2026-01-28 23:36:28.83	356.65	33.33	-35.1	-36.0	24.0	0.00e+00	0	33	0	1661992960	42	6224
2026-01-28 23:36:29.81	356.48	33.15	-35.0	-35.9	24.0	0.00e+00	0	33	0	1665138688	42	6179
2026-01-28 23:36:30.79	356.30	32.96	-35.0	-35.9	24.0	0.00e+00	0	33	0	1667235840	42	6175
2026-01-28 23:36:31.76	356.13	32.79	-35.0	-35.9	24.0	0.00e+00	0	33	0	1670381568	42	6200
2026-01-28 23:36:32.74	355.96	32.61	-34.9	-35.8	24.0	0.00e+00	0	33	0	1673527296	42	6134
2026-01-28 23:36:33.72	355.79	32.43	-34.8	-35.7	24.1	0.00e+00	0	33	0	1676673024	42	6026
2026-01-28 23:36:34.70	355.62	32.25	-34.6	-35.5	24.3	0.00e+00	0	33	0	1679818752	42	5896
2026-01-28 23:36:35.68	355.46	32.07	-34.5	-35.4	24.4	0.00e+00	0	33	0	1682964480	42	5809
2026-01-28 23:36:36.66	355.30	31.89	-34.4	-35.2	24.6	0.00e+00	0	33	0	1686110208	42	5717
2026-01-28 23:36:37.64	355.14	31.72	-34.1	-35.0	24.8	0.00e+00	0	33	0	1689255936	42	5563
2026-01-28 23:36:38.61	354.98	31.54	-33.9	-34.8	24.9	0.00e+00	0	33	0	1692401664	42	5425
2026-01-28 23:36:39.60	354.82	31.37	-34.0	-34.9	24.8	0.00e+00	0	33	0	1695547392	42	5476
2026-01-28 23:36:40.58	354.66	31.19	-33.9	-34.7	24.9	0.00e+00	0	33	0	1698693120	42	5386
2026-01-28 23:36:41.56	354.51	31.02	-33.7	-34.6	24.9	0.00e+00	0	33	0	1701838848	40	5957
2026-01-28 23:36:42.54	354.35	30.85	-33.8	-34.6	25.0	0.00e+00	0	33	0	1704984576	40	5967
2026-01-28 23:36:43.52	354.20	30.67	-34.0	-34.8	24.9	0.00e+00	0	33	0	1707081728	40	6127
2026-01-28 23:36:44.50	354.05	30.50	-33.9	-34.7	25.0	0.00e+00	0	33	0	1710227456	40	6053
2026-01-28 23:36:45.47	353.91	30.34	-34.1	-35.0	24.7	0.00e+00	0	33	0	1713373184	40	6213
2026-01-28 23:36:46.45	353.76	30.17	-34.3	-35.2	24.6	0.00e+00	0	33	0	1716518912	40	6381
2026-01-28 23:36:47.42	353.62	30.00	-34.4	-35.3	24.4	0.00e+00	0	33	0	1719664640	40	6496
2026-01-28 23:36:48.41	353.47	29.83	-34.7	-35.6	24.3	0.00e+00	0	33	0	1722810368	40	6702
2026-01-28 23:36:49.38	353.33	29.66	-34.8	-35.7	24.2	0.00e+00	0	33	0	1725956096	42	6054
2026-01-28 23:36:50.36	353.19	29.50	-34.8	-35.7	24.1	0.00e+00	0	33	0	1729101824	42	6046
2026-01-28 23:36:51.34	353.05	29.33	-34.8	-35.7	24.0	0.00e+00	0	33	0	1732247552	42	6057
2026-01-28 23:36:52.32	352.92	29.17	-34.8	-35.7	24.0	0.00e+00	0	33	0	1735393280	42	6053
2026-01-28 23:36:53.31	352.78	29.00	-34.6	-35.6	24.1	0.00e+00	0	33	0	1738539008	42	5936
2026-01-28 23:36:54.28	352.65	28.84	-34.6	-35.5	24.3	0.00e+00	0	33	0	1741684736	42	5878
2026-01-28 23:36:55.26	352.51	28.68	-34.5	-35.4	24.3	0.00e+00	0	33	0	1744830464	42	5816
2026-01-28 23:36:56.24	352.38	28.52	-34.2	-35.1	24.6	0.00e+00	0	33	0	1746927616	42	5640
2026-01-28 23:36:57.21	352.25	28.36	-34.0	-34.9	24.7	0.00e+00	0	33	0	1750073344	42	5526
2026-01-28 23:36:58.19	352.12	28.20	-33.9	-34.8	24.9	0.00e+00	0	33	0	1753219072	42	5439
2026-01-28 23:36:59.17	352.00	28.04	-33.7	-34.6	24.9	0.00e+00	0	33	0	1756364800	40	5966
2026-01-28 23:37:00.12	351.87	27.89	-33.7	-34.6	25.0	0.00e+00	0	33	0	1759510528	40	5938
2026-01-28 23:37:01.09	351.75	27.73	-33.8	-34.7	25.0	0.00e+00	0	33	0	1762656256	40	6016
2026-01-28 23:37:02.07	351.63	27.57	-33.6	-34.5	25.1	0.00e+00	0	33	0	1765801984	40	5863
2026-01-28 23:37:03.05	351.50	27.42	-33.5	-34.4	25.1	0.00e+00	0	33	0	1768947712	40	5796
2026-01-28 23:37:04.03	351.38	27.26	-33.5	-34.4	25.2	0.00e+00	0	33	0	1772093440	40	5793
2026-01-28 23:37:05.01	351.26	27.11	-33.6	-34.5	25.1	0.00e+00	0	33	0	1775239168	40	5873
2026-01-28 23:37:05.99	351.14	26.95	-33.5	-34.3	25.2	0.00e+00	0	33	0	1778384896	40	5784
2026-01-28 23:37:06.97	351.02	26.80	-33.7	-34.5	25.1	0.00e+00	0	33	0	1781530624	40	5910
2026-01-28 23:37:07.95	350.91	26.65	-33.7	-34.6	25.0	0.00e+00	0	33	0	1783627776	40	5956
2026-01-28 23:37:08.92	350.79	26.50	-33.8	-34.7	25.0	0.00e+00	0	33	0	1786773504	40	6015
2026-01-28 23:37:09.90	350.68	26.35	-33.9	-34.8	24.9	0.00e+00	0	33	0	1789919232	40	6115
2026-01-28 23:37:10.88	350.57	26.19	-34.1	-34.9	24.8	0.00e+00	0	33	0	1793064960	40	6205
2026-01-28 23:37:11.86	350.45	26.04	-34.2	-35.1	24.7	0.00e+00	0	33	0	1796210688	40	6279
2026-01-28 23:37:12.84	350.34	25.90	-34.1	-35.0	24.7	0.00e+00	0	33	0	1799356416	40	6229
2026-01-28 23:37:13.82	350.23	25.75	-34.1	-35.0	24.8	0.00e+00	0	33	0	1802502144	40	6247
2026-01-28 23:37:14.80	350.12	25.60	-34.2	-35.1	24.6	0.00e+00	0	33	0	1805647872	40	6290
2026-01-28 23:37:15.77	350.02	25.45	-34.0	-34.9	24.8	0.00e+00	0	33	0	1808793600	40	6194
2026-01-28 23:37:16.75	349.91	25.31	-34.0	-34.8	24.9	0.00e+00	0	33	0	1811939328	40	6126
2026-01-28 23:37:17.73	349.80	25.16	-33.9	-34.7	24.9	0.00e+00	0	33	0	1815085056	40	6050
2026-01-28 23:37:18.71	349.70	25.02	-33.8	-34.7	24.9	0.00e+00	0	33	0	1818230784	40	6000
2026-01-28 23:37:19.69	349.59	24.87	-33.9	-34.8	24.7	0.00e+00	0	33	0	1820327936	40	6109
2026-01-28 23:37:20.67	349.49	24.73	-33.6	-34.5	25.0	0.00e+00	0	33	0	1823473664	40	5887
2026-01-28 23:37:21.65	349.39	24.59	-33.6	-34.4	25.0	0.00e+00	0	33	0	1826619392	40	5834
2026-01-28 23:37:22.63	349.29	24.45	-33.7	-34.6	25.0	0.00e+00	0	33	0	1829765120	40	5967
2026-01-28 23:37:23.60	349.19	24.31	-33.6	-34.5	24.9	0.00e+00	0	33	0	1832910848	40	5861
2026-01-28 23:37:24.58	349.09	24.16	-33.5	-34.4	25.1	0.00e+00	0	33	0	1836056576	40	5808
2026-01-28 23:37:25.56	348.99	24.02	-33.4	-34.3	25.1	0.00e+00	0	33	0	1839202304	40	5728
2026-01-28 23:37:26.54	348.89	23.88	-33.4	-34.3	25.2	0.00e+00	0	33	0	1842348032	40	5744
2026-01-28 23:37:27.52	348.80	23.75	-33.5	-34.3	25.2	0.00e+00	0	33	0	1845493760	40	5759
2026-01-28 23:37:28.50	348.70	23.61	-33.5	-34.4	25.1	0.00e+00	0	33	0	1848639488	40	5794
2026-01-28 23:37:29.48	348.61	23.47	-33.5	-34.3	25.3	0.00e+00	0	33	0	1851785216	40	5770
2026-01-28 23:37:30.46	348.51	23.33	-33.6	-34.4	25.2	0.00e+00	0	33	0	1853882368	40	5854
2026-01-28 23:37:31.44	348.42	23.20	-33.6	-34.5	25.1	0.00e+00	0	33	0	1857028096	40	5873
2026-01-28 23:37:32.42	348.33	23.06	-33.7	-34.6	24.9	0.00e+00	0	33	0	1860173824	40	5953
2026-01-28 23:37:33.40	348.24	22.93	-33.9	-34.7	24.9	0.00e+00	0	33	0	1863319552	40	6059
2026-01-28 23:37:34.38	348.15	22.79	-33.8	-34.7	24.9	0.00e+00	0	33	0	1866465280	40	6009
2026-01-28 23:37:35.35	348.06	22.66	-34.1	-35.0	24.7	0.00e+00	0	33	0	1869611008	40	6212
2026-01-28 23:37:36.33	347.97	22.53	-34.0	-34.8	24.7	0.00e+00	0	33	0	1872756736	40	6123
2026-01-28 23:37:37.31	347.88	22.39	-34.0	-34.9	24.7	0.00e+00	0	33	0	1875902464	40	6157
2026-01-28 23:37:38.29	347.79	22.26	-34.1	-35.0	24.7	0.00e+00	0	33	0	1879048192	40	6234
2026-01-28 23:37:39.27	347.71	22.13	-34.0	-34.9	24.7	0.00e+00	0	33	0	1882193920	40	6174
2026-01-28 23:37:40.25	347.62	22.00	-34.1	-35.0	24.7	0.00e+00	0	33	0	1885339648	40	6260
2026-01-28 23:37:41.23	347.54	21.87	-34.2	-35.1	24.6	0.00e+00	0	33	0	1888485376	40	6315
2026-01-28 23:37:42.21	347.45	21.74	-34.1	-35.0	24.6	0.00e+00	0	33	0	1890582528	40	6227
2026-01-28 23:37:43.19	347.37	21.61	-34.2	-35.1	24.6	0.00e+00	0	33	0	1893728256	40	6290
2026-01-28 23:37:44.17	347.28	21.48	-34.3	-35.2	24.5	0.00e+00	0	33	0	1896873984	40	6409
2026-01-28 23:37:45.15	347.20	21.35	-34.2	-35.1	24.6	0.00e+00	0	33	0	1900019712	40	6298
2026-01-28 23:37:46.13	347.12	21.23	-34.2	-35.1	24.6	0.00e+00	0	33	0	1903165440	40	6319
2026-01-28 23:37:47.11	347.04	21.10	-34.1	-35.0	24.7	0.00e+00	0	33	0	1906311168	40	6212
2026-01-28 23:37:48.09	346.96	20.97	-34.2	-35.1	24.5	0.00e+00	0	33	0	1909456896	40	6302
2026-01-28 23:37:49.06	346.88	20.85	-34.2	-35.1	24.6	0.00e+00	0	33	0	1912602624	40	6283
2026-01-28 23:37:50.04	346.80	20.73	-34.1	-35.0	24.6	0.00e+00	0	33	0	1915748352	40	6271
2026-01-28 23:37:51.02	346.72	20.60	-34.1	-35.0	24.6	0.00e+00	0	33	0	1918894080	40	6273
2026-01-28 23:37:52.00	346.65	20.48	-34.2	-35.1	24.5	0.00e+00	0	33	0	1922039808	40	6344
2026-01-28 23:37:52.98	346.57	20.35	-34.2	-35.1	24.6	0.00e+00	0	33	0	1925185536	40	6331
2026-01-28 23:37:53.96	346.49	20.23	-34.2	-35.1	24.5	0.00e+00	0	33	0	1928331264	40	6301
