passes_logs/2026/01/28/R4.6S_Anadyr/R4.6S_Anadyr__20260128_101530_KOSAR1-5_rec.log

#Pass ID: 20260128_101530_KOSAR1-5
#Satellite: KOSAR1-5
#Configuration: KOSAR1-5
#almurnet v.1.7.20251203
#Start time: 2026-01-28 10:15:32

#Version: 2.2.20231116
#Station: R4.6S_Anadyr
#Location: 177.4865 lon 64.73178 lat
#TLE: 1 67264U 25313S   26027.76143924  .00010916  00000+0  50329-3 0  9990
#TLE: 2 67264  97.4176 104.7207 0016474 138.6036 221.6451 15.20309833  4594

#Time	Az	El	Level	Level2	SNR	BER	BlckErr	Temp	State	Recorded	gain1	gain2
2026-01-28 10:15:32.25	181.03	0.09	-45.5	-59.9	3.5	1.51e+00	0	30	0	0	60	40138
2026-01-28 10:15:33.25	181.07	0.15	-45.5	-60.5	3.6	1.51e+00	0	31	104	0	60	42849
2026-01-28 10:15:34.26	181.11	0.21	-45.7	-60.4	3.6	1.51e+00	0	31	104	0	60	42485
2026-01-28 10:15:35.27	181.15	0.28	-46.9	-61.6	3.6	1.51e+00	0	31	104	0	60	48725
2026-01-28 10:15:36.28	181.19	0.34	-46.1	-60.9	3.6	1.51e+00	0	31	104	0	60	44824
2026-01-28 10:15:37.29	181.23	0.40	-46.0	-60.8	3.6	1.51e+00	0	31	104	0	60	44680
2026-01-28 10:15:38.30	181.27	0.47	-45.8	-60.7	3.6	1.51e+00	0	31	104	0	60	43828
2026-01-28 10:15:39.31	181.31	0.53	-45.9	-60.6	3.6	1.51e+00	0	32	104	0	60	43657
2026-01-28 10:15:40.32	181.35	0.60	-45.8	-60.6	3.6	1.51e+00	0	31	104	0	60	43519
2026-01-28 10:15:41.33	181.39	0.66	-45.8	-60.6	3.6	1.51e+00	0	31	104	0	60	43371
2026-01-28 10:15:42.34	181.43	0.73	-45.8	-60.6	3.6	1.51e+00	0	31	104	0	60	43209
2026-01-28 10:15:43.35	181.47	0.79	-45.8	-60.5	3.6	1.51e+00	0	32	104	0	60	42884
2026-01-28 10:15:44.36	181.52	0.86	-45.8	-60.5	3.6	1.51e+00	0	32	104	0	60	42781
2026-01-28 10:15:45.37	181.56	0.92	-45.7	-60.4	3.6	1.51e+00	0	32	104	0	60	42309
2026-01-28 10:15:46.37	181.60	0.99	-45.6	-60.3	3.6	1.51e+00	0	32	104	0	60	42165
2026-01-28 10:15:47.39	181.64	1.05	-45.6	-60.4	3.6	1.51e+00	0	32	104	0	60	42399
2026-01-28 10:15:48.39	181.69	1.12	-45.4	-60.1	3.6	1.51e+00	0	32	104	0	60	41041
2026-01-28 10:15:49.40	181.73	1.18	-45.3	-60.0	3.6	1.51e+00	0	32	104	0	60	40551
2026-01-28 10:15:50.41	181.77	1.25	-45.1	-59.8	3.6	1.51e+00	0	32	104	0	60	39729
2026-01-28 10:15:51.42	181.82	1.32	-45.0	-59.7	3.6	1.51e+00	0	32	104	0	60	39157
2026-01-28 10:15:52.43	181.86	1.38	-44.9	-59.6	3.6	1.51e+00	0	32	104	0	60	38638
2026-01-28 10:15:53.44	181.90	1.45	-44.4	-59.4	3.6	1.51e+00	0	32	104	0	60	37956
2026-01-28 10:15:54.45	181.95	1.52	-44.2	-59.3	3.6	1.51e+00	0	32	104	0	60	37240
2026-01-28 10:15:55.46	181.99	1.58	-43.9	-59.0	3.6	1.51e+00	0	32	104	0	60	36341
2026-01-28 10:15:56.47	182.04	1.65	-43.8	-59.1	3.6	1.51e+00	0	32	104	0	60	36505
2026-01-28 10:15:57.48	182.08	1.72	-43.8	-59.0	3.6	1.51e+00	0	32	104	0	60	36252
2026-01-28 10:15:58.49	182.13	1.78	-43.8	-59.0	3.6	1.51e+00	0	32	104	0	60	36266
2026-01-28 10:15:59.50	182.17	1.85	-43.9	-59.0	3.6	1.51e+00	0	32	104	0	60	36293
2026-01-28 10:16:00.51	182.22	1.92	-44.0	-59.0	3.6	1.51e+00	0	32	104	0	60	36237
2026-01-28 10:16:01.52	182.27	1.99	-44.1	-59.0	3.6	1.51e+00	0	32	104	0	60	36211
2026-01-28 10:16:02.53	182.31	2.06	-44.1	-59.0	3.6	1.51e+00	0	32	104	0	60	36308
2026-01-28 10:16:03.54	182.36	2.13	-44.2	-59.1	3.6	1.51e+00	0	32	104	0	60	36387
2026-01-28 10:16:04.55	182.40	2.19	-44.2	-59.1	3.6	1.51e+00	0	32	104	0	60	36358
2026-01-28 10:16:05.56	182.45	2.26	-44.2	-59.0	3.6	1.51e+00	0	32	104	0	60	36138
2026-01-28 10:16:06.57	182.50	2.33	-44.2	-59.0	3.6	1.51e+00	0	32	104	0	60	36261
2026-01-28 10:16:07.58	182.55	2.40	-44.2	-59.0	3.6	1.51e+00	0	32	104	0	60	36112
2026-01-28 10:16:08.59	182.59	2.47	-44.2	-59.1	3.6	1.51e+00	0	32	104	0	60	36484
2026-01-28 10:16:09.60	182.64	2.54	-44.2	-59.0	3.6	1.51e+00	0	32	104	0	60	36247
2026-01-28 10:16:10.61	182.69	2.61	-44.2	-59.0	3.6	1.51e+00	0	32	104	0	60	36111
2026-01-28 10:16:11.62	182.74	2.68	-44.2	-59.0	3.6	1.51e+00	0	32	104	0	60	36296
2026-01-28 10:16:12.63	182.79	2.75	-44.1	-59.0	3.6	1.51e+00	0	32	104	0	60	36261
2026-01-28 10:16:13.64	182.84	2.82	-44.1	-59.0	3.6	1.51e+00	0	32	104	0	60	36285
2026-01-28 10:16:14.65	182.89	2.89	-44.2	-59.0	3.6	1.51e+00	0	32	104	0	60	35976
2026-01-28 10:16:15.66	182.94	2.97	-44.2	-59.0	3.6	1.51e+00	0	32	104	0	60	36081
2026-01-28 10:16:16.67	182.99	3.04	-44.2	-59.0	3.6	1.51e+00	0	32	104	0	60	36332
2026-01-28 10:16:17.68	183.04	3.11	-44.2	-59.0	3.6	1.51e+00	0	32	104	0	60	36298
2026-01-28 10:16:18.69	183.09	3.18	-44.2	-59.0	3.6	1.51e+00	0	32	104	0	60	36197
2026-01-28 10:16:19.70	183.14	3.25	-44.2	-59.0	3.6	1.51e+00	0	32	104	0	60	36096
2026-01-28 10:16:20.71	183.19	3.33	-44.2	-59.1	3.6	1.51e+00	0	32	104	0	60	36385
2026-01-28 10:16:21.72	183.24	3.40	-44.2	-59.0	3.6	1.51e+00	0	32	104	0	60	36065
2026-01-28 10:16:22.73	183.29	3.47	-44.2	-59.0	3.6	1.51e+00	0	32	104	0	60	36233
2026-01-28 10:16:23.74	183.35	3.54	-44.2	-59.0	3.6	1.51e+00	0	32	104	0	60	36161
2026-01-28 10:16:24.75	183.40	3.62	-44.1	-59.0	3.6	1.51e+00	0	32	104	0	60	36139
2026-01-28 10:16:25.76	183.45	3.69	-44.2	-59.0	3.6	1.51e+00	0	32	104	0	60	36167
2026-01-28 10:16:26.77	183.50	3.77	-44.2	-59.0	3.6	1.51e+00	0	32	104	0	60	36071
2026-01-28 10:16:27.78	183.56	3.84	-44.1	-59.0	3.6	1.51e+00	0	32	104	0	60	36194
2026-01-28 10:16:28.79	183.61	3.91	-44.2	-59.0	3.6	1.51e+00	0	32	104	0	60	36270
2026-01-28 10:16:29.80	183.66	3.99	-44.1	-59.0	3.6	1.51e+00	0	32	104	0	60	36250
2026-01-28 10:16:30.81	183.72	4.06	-44.2	-59.1	3.6	1.51e+00	0	32	104	0	60	36504
2026-01-28 10:16:31.82	183.77	4.14	-44.0	-59.0	3.6	1.51e+00	0	32	104	0	60	36177
2026-01-28 10:16:32.83	183.83	4.21	-44.4	-59.3	3.6	1.51e+00	0	32	104	0	60	37463
2026-01-28 10:16:33.84	183.88	4.29	-44.3	-59.2	3.6	1.51e+00	0	32	104	0	60	37177
2026-01-28 10:16:34.85	183.94	4.37	-44.3	-59.2	3.6	1.51e+00	0	32	104	0	60	36852
2026-01-28 10:16:35.86	184.00	4.44	-44.1	-59.0	3.6	1.51e+00	0	32	104	0	60	36198
2026-01-28 10:16:36.87	184.05	4.52	-44.3	-59.4	3.6	1.51e+00	0	32	104	0	60	37785
2026-01-28 10:16:37.88	184.11	4.59	-44.4	-59.4	3.6	1.51e+00	0	32	104	0	60	37711
2026-01-28 10:16:38.89	184.17	4.67	-44.4	-59.2	3.6	1.51e+00	0	32	104	0	60	37118
2026-01-28 10:16:39.90	184.22	4.75	-44.4	-59.2	3.6	1.51e+00	0	32	104	0	60	36960
2026-01-28 10:16:40.91	184.28	4.83	-44.4	-59.5	3.6	1.51e+00	0	32	104	0	60	38430
2026-01-28 10:16:41.92	184.34	4.90	-44.3	-59.4	3.6	1.51e+00	0	32	104	0	60	38058
2026-01-28 10:16:42.93	184.40	4.98	-44.2	-59.2	3.6	1.51e+00	0	32	104	0	60	37166
2026-01-28 10:16:43.94	184.46	5.06	-44.3	-59.2	3.6	1.51e+00	0	32	104	0	60	37093
2026-01-28 10:16:44.95	184.52	5.14	-44.3	-59.5	3.6	1.51e+00	0	32	104	0	60	38387
2026-01-28 10:16:45.95	184.58	5.22	-44.3	-59.5	3.6	1.51e+00	0	32	104	0	60	38369
2026-01-28 10:16:46.96	184.64	5.30	-44.4	-59.3	3.6	1.51e+00	0	32	104	0	60	37309
2026-01-28 10:16:47.97	184.70	5.38	-44.5	-59.3	3.6	1.51e+00	0	32	104	0	60	37494
2026-01-28 10:16:48.98	184.76	5.46	-44.6	-59.6	3.6	1.51e+00	0	32	104	0	60	38819
2026-01-28 10:16:49.98	184.82	5.54	-44.4	-59.6	3.6	1.51e+00	0	32	104	0	60	38611
2026-01-28 10:16:50.99	184.88	5.62	-44.3	-59.4	3.6	1.51e+00	0	32	104	0	60	37745
2026-01-28 10:16:52.01	184.94	5.70	-44.2	-59.4	3.6	1.51e+00	0	32	104	0	60	37752
2026-01-28 10:16:53.01	185.01	5.78	-44.7	-59.6	3.6	1.51e+00	0	33	104	0	60	38905
2026-01-28 10:16:54.03	185.07	5.86	-44.5	-59.6	3.6	1.51e+00	0	32	104	0	60	38802
2026-01-28 10:16:55.03	185.13	5.94	-44.2	-59.4	3.6	1.51e+00	0	33	104	0	60	37846
2026-01-28 10:16:56.04	185.20	6.02	-44.4	-59.4	3.6	1.51e+00	0	32	104	0	60	37852
2026-01-28 10:16:57.05	185.26	6.11	-44.7	-59.7	3.6	1.51e+00	0	32	104	0	60	39153
2026-01-28 10:16:58.06	185.32	6.19	-44.7	-59.7	3.5	1.51e+00	0	32	104	0	60	39060
2026-01-28 10:16:59.07	185.39	6.27	-44.3	-59.5	3.6	1.51e+00	0	32	104	0	60	38202
2026-01-28 10:17:00.08	185.45	6.36	-44.3	-59.4	3.6	1.51e+00	0	32	104	0	60	38060
2026-01-28 10:17:01.09	185.52	6.44	-44.6	-59.7	3.6	1.51e+00	0	32	104	0	60	39304
2026-01-28 10:17:02.10	185.59	6.52	-44.7	-59.7	3.6	1.51e+00	0	32	104	0	60	38998
2026-01-28 10:17:03.11	185.65	6.61	-44.4	-59.5	3.6	1.51e+00	0	32	104	0	60	38293
2026-01-28 10:17:04.12	185.72	6.69	-44.3	-59.5	3.6	1.51e+00	0	33	104	0	60	38206
2026-01-28 10:17:05.13	185.79	6.78	-44.7	-59.7	3.6	1.51e+00	0	33	104	0	60	39221
2026-01-28 10:17:06.14	185.86	6.86	-44.7	-59.7	3.6	1.51e+00	0	33	104	0	60	39146
2026-01-28 10:17:07.15	185.93	6.95	-44.6	-59.6	3.6	1.51e+00	0	33	104	0	60	38584
2026-01-28 10:17:08.16	186.00	7.04	-44.6	-59.5	3.6	1.51e+00	0	33	104	0	60	38490
2026-01-28 10:17:09.17	186.07	7.12	-44.4	-59.8	3.6	1.51e+00	0	32	104	0	60	39452
2026-01-28 10:17:10.18	186.14	7.21	-44.6	-59.7	3.6	1.51e+00	0	32	104	0	60	39272
2026-01-28 10:17:11.19	186.21	7.30	-44.6	-59.6	3.6	1.51e+00	0	33	104	0	60	38672
2026-01-28 10:17:12.20	186.28	7.38	-44.7	-59.6	3.6	1.51e+00	0	33	104	0	60	38763
2026-01-28 10:17:13.21	186.35	7.47	-44.5	-59.8	3.6	1.51e+00	0	33	104	0	60	39669
2026-01-28 10:17:14.22	186.42	7.56	-44.7	-59.8	3.6	1.51e+00	0	33	104	0	60	39513
2026-01-28 10:17:15.22	186.49	7.65	-44.6	-59.6	3.6	1.51e+00	0	33	104	0	60	38660
2026-01-28 10:17:16.23	186.57	7.74	-44.7	-59.6	3.6	1.51e+00	0	33	104	0	60	38908
2026-01-28 10:17:17.24	186.64	7.83	-44.4	-59.8	3.6	1.51e+00	0	33	104	0	60	39503
2026-01-28 10:17:18.25	186.71	7.92	-44.7	-59.8	3.6	1.51e+00	0	33	104	0	60	39656
2026-01-28 10:17:19.26	186.79	8.01	-44.5	-59.7	3.6	1.51e+00	0	33	104	0	60	39144
2026-01-28 10:17:20.27	186.87	8.10	-44.8	-59.7	3.6	1.51e+00	0	33	104	0	60	39255
2026-01-28 10:17:21.28	186.94	8.19	-44.2	-59.8	3.6	1.51e+00	0	33	104	0	60	39636
2026-01-28 10:17:22.29	187.02	8.28	-44.6	-59.7	3.6	1.51e+00	0	33	104	0	60	39301
2026-01-28 10:17:23.30	187.10	8.37	-44.6	-59.7	3.5	1.51e+00	0	33	104	0	60	39080
2026-01-28 10:17:24.31	187.17	8.47	-44.9	-59.7	3.5	1.51e+00	0	33	104	0	60	39367
2026-01-28 10:17:25.32	187.25	8.56	-44.5	-59.8	3.6	1.51e+00	0	33	104	0	60	39699
2026-01-28 10:17:26.33	187.33	8.65	-44.6	-59.8	3.6	1.51e+00	0	32	104	0	60	39582
2026-01-28 10:17:27.34	187.41	8.74	-44.6	-59.7	3.6	1.51e+00	0	33	104	0	60	39141
2026-01-28 10:17:28.35	187.49	8.84	-44.4	-59.7	3.6	1.51e+00	0	33	104	0	60	39335
2026-01-28 10:17:29.36	187.57	8.93	-44.7	-59.8	3.6	1.51e+00	0	32	104	0	60	39479
2026-01-28 10:17:30.37	187.65	9.03	-44.5	-59.8	3.6	1.51e+00	0	33	104	0	60	39518
2026-01-28 10:17:31.38	187.73	9.12	-44.6	-59.7	3.6	1.51e+00	0	33	104	0	60	39122
2026-01-28 10:17:32.39	187.82	9.22	-44.5	-59.7	3.6	1.51e+00	0	33	104	0	60	39226
2026-01-28 10:17:33.40	187.90	9.32	-44.9	-59.9	3.6	1.51e+00	0	33	104	0	60	39914
2026-01-28 10:17:34.41	187.98	9.41	-44.7	-59.8	3.6	1.51e+00	0	33	104	0	60	39733
2026-01-28 10:17:35.42	188.07	9.51	-44.6	-59.7	3.6	1.51e+00	0	33	104	0	60	39153
2026-01-28 10:17:36.43	188.15	9.61	-44.7	-59.9	3.6	1.51e+00	0	33	104	0	60	39863
2026-01-28 10:17:37.44	188.24	9.71	-45.0	-59.9	3.5	1.51e+00	0	33	104	0	60	39870
2026-01-28 10:17:38.45	188.33	9.80	-44.8	-59.8	3.6	1.51e+00	0	33	104	0	60	39598
2026-01-28 10:17:39.46	188.41	9.90	-44.6	-59.8	3.6	1.51e+00	0	33	104	0	60	39415
2026-01-28 10:17:40.47	188.50	10.00	-44.9	-59.9	3.6	1.51e+00	0	33	104	0	60	39916
2026-01-28 10:17:41.48	188.59	10.10	-44.9	-60.0	3.6	1.51e+00	0	33	104	0	60	40407
2026-01-28 10:17:42.49	188.68	10.20	-44.8	-59.9	3.6	1.51e+00	0	33	104	0	60	39986
2026-01-28 10:17:43.50	188.77	10.30	-44.8	-59.8	3.6	1.51e+00	0	33	104	0	60	39650
2026-01-28 10:17:44.50	188.86	10.41	-44.9	-59.9	3.6	1.51e+00	0	33	104	0	60	40126
2026-01-28 10:17:45.51	188.95	10.51	-44.9	-59.9	3.6	1.51e+00	0	33	104	0	60	39964
2026-01-28 10:17:46.52	189.04	10.61	-45.0	-59.8	3.6	1.51e+00	0	33	104	0	60	39775
2026-01-28 10:17:47.53	189.14	10.71	-44.9	-59.9	3.6	1.51e+00	0	33	104	0	60	39957
2026-01-28 10:17:48.54	189.23	10.82	-45.0	-59.9	3.6	1.51e+00	0	33	104	0	60	39867
2026-01-28 10:17:49.55	189.33	10.92	-45.1	-60.0	3.6	1.51e+00	0	33	104	0	60	40490
2026-01-28 10:17:50.56	189.42	11.03	-45.0	-59.8	3.6	1.51e+00	0	33	104	0	60	39785
2026-01-28 10:17:51.57	189.52	11.13	-44.9	-59.9	3.6	1.51e+00	0	33	104	0	60	39918
2026-01-28 10:17:52.58	189.61	11.24	-45.0	-59.9	3.6	1.51e+00	0	33	104	0	60	40221
2026-01-28 10:17:53.59	189.71	11.34	-45.1	-60.0	3.6	1.51e+00	0	33	104	0	60	40385
2026-01-28 10:17:54.60	189.81	11.45	-45.1	-59.8	3.6	1.51e+00	0	33	104	0	60	39827
2026-01-28 10:17:55.61	189.91	11.56	-45.0	-59.9	3.6	1.51e+00	0	33	104	0	60	39954
2026-01-28 10:17:56.62	190.01	11.66	-45.1	-59.9	3.6	1.51e+00	0	33	104	0	60	40167
2026-01-28 10:17:57.63	190.11	11.77	-45.0	-59.9	3.6	1.51e+00	0	33	104	0	60	40312
2026-01-28 10:17:58.64	190.22	11.88	-44.9	-59.9	3.6	1.51e+00	0	33	104	0	60	40085
2026-01-28 10:17:59.65	190.32	11.99	-45.1	-59.9	3.6	1.51e+00	0	33	104	0	60	40009
2026-01-28 10:18:00.66	190.42	12.10	-44.9	-60.0	3.6	1.51e+00	0	33	104	0	60	40370
2026-01-28 10:18:01.66	190.53	12.21	-45.0	-60.0	3.6	1.51e+00	0	33	104	0	60	40358
2026-01-28 10:18:02.67	190.63	12.32	-45.0	-59.9	3.6	1.51e+00	0	33	104	0	60	40130
2026-01-28 10:18:03.68	190.74	12.43	-45.1	-59.8	3.6	1.51e+00	0	33	104	0	60	39839
2026-01-28 10:18:04.69	190.85	12.55	-45.1	-60.0	3.6	1.51e+00	0	33	104	0	60	40462
2026-01-28 10:18:05.70	190.96	12.66	-45.0	-59.9	3.6	1.51e+00	0	33	104	0	60	40213
2026-01-28 10:18:06.71	191.07	12.77	-45.0	-59.9	3.6	1.51e+00	0	33	104	0	60	40134
2026-01-28 10:18:07.72	191.18	12.89	-45.0	-59.9	3.6	1.51e+00	0	33	104	0	60	39943
2026-01-28 10:18:08.73	191.29	13.00	-45.0	-60.0	3.6	1.51e+00	0	33	104	0	60	40465
2026-01-28 10:18:09.74	191.40	13.12	-45.1	-59.9	3.6	1.51e+00	0	33	104	0	60	40307
2026-01-28 10:18:10.75	191.51	13.24	-45.0	-59.9	3.6	1.51e+00	0	33	104	0	60	39872
2026-01-28 10:18:11.76	191.63	13.35	-45.1	-59.9	3.6	1.51e+00	0	33	104	0	60	40134
2026-01-28 10:18:12.77	191.74	13.47	-45.1	-59.9	3.6	1.51e+00	0	33	104	0	60	40308
2026-01-28 10:18:13.78	191.86	13.59	-45.2	-60.0	3.6	1.51e+00	0	33	104	0	60	40445
2026-01-28 10:18:14.79	191.98	13.71	-45.1	-59.9	3.6	1.51e+00	0	33	104	0	60	39929
2026-01-28 10:18:15.79	192.10	13.83	-45.1	-59.9	3.6	1.51e+00	0	33	104	0	60	40179
2026-01-28 10:18:16.80	192.22	13.95	-45.2	-60.0	3.6	1.51e+00	0	33	104	0	60	40501
2026-01-28 10:18:17.81	192.34	14.07	-45.2	-60.0	3.6	1.51e+00	0	33	104	0	60	40619
2026-01-28 10:18:18.82	192.46	14.19	-45.1	-59.9	3.6	1.51e+00	0	33	104	0	60	40030
2026-01-28 10:18:19.83	192.58	14.31	-45.0	-60.0	3.6	1.51e+00	0	33	104	0	60	40449
2026-01-28 10:18:20.84	192.71	14.43	-45.3	-59.9	3.5	1.51e+00	0	33	104	0	60	40314
2026-01-28 10:18:21.85	192.84	14.56	-45.3	-60.0	3.6	1.51e+00	0	33	104	0	60	40682
2026-01-28 10:18:22.86	192.96	14.68	-45.1	-60.0	3.6	1.51e+00	0	33	104	0	60	40441
2026-01-28 10:18:23.87	193.09	14.81	-45.1	-60.0	3.6	1.51e+00	0	33	104	0	60	40336
2026-01-28 10:18:24.88	193.22	14.93	-45.3	-60.0	3.6	1.51e+00	0	33	104	0	60	40786
2026-01-28 10:18:25.88	193.35	15.06	-45.3	-60.0	3.6	1.51e+00	0	33	104	0	60	40573
2026-01-28 10:18:26.89	193.48	15.19	-45.2	-60.0	3.6	1.51e+00	0	33	104	0	60	40415
2026-01-28 10:18:27.90	193.62	15.32	-45.3	-59.9	3.6	1.51e+00	0	33	104	0	60	40289
2026-01-28 10:18:28.91	193.75	15.44	-45.3	-60.0	3.6	1.51e+00	0	33	104	0	60	40708
2026-01-28 10:18:29.92	193.89	15.57	-45.3	-60.0	3.6	1.51e+00	0	33	104	0	60	40715
2026-01-28 10:18:30.93	194.02	15.70	-45.2	-59.9	3.6	1.51e+00	0	33	104	0	60	40321
2026-01-28 10:18:31.94	194.16	15.84	-45.2	-60.0	3.6	1.51e+00	0	33	104	0	60	40493
2026-01-28 10:18:32.95	194.30	15.97	-45.3	-60.0	3.6	1.51e+00	0	33	104	0	60	40610
2026-01-28 10:18:33.96	194.45	16.10	-45.3	-60.0	3.6	1.51e+00	0	33	104	0	60	40595
2026-01-28 10:18:34.97	194.59	16.23	-45.2	-60.0	3.6	1.51e+00	0	33	104	0	60	40373
2026-01-28 10:18:35.98	194.73	16.37	-45.2	-60.0	3.6	1.51e+00	0	33	104	0	60	40450
2026-01-28 10:18:36.99	194.88	16.50	-45.3	-60.1	3.6	1.51e+00	0	33	104	0	60	40830
2026-01-28 10:18:38.00	195.03	16.64	-45.3	-60.1	3.6	1.51e+00	0	33	104	0	60	40816
2026-01-28 10:18:39.01	195.18	16.78	-45.2	-60.0	3.6	1.51e+00	0	33	104	0	60	40377
2026-01-28 10:18:40.02	195.33	16.91	-45.3	-60.0	3.6	1.51e+00	0	33	104	0	60	40519
2026-01-28 10:18:41.03	195.48	17.05	-45.3	-60.0	3.6	1.51e+00	0	33	104	0	60	40716
2026-01-28 10:18:42.03	195.63	17.19	-45.3	-60.0	3.6	1.51e+00	0	33	104	0	60	40769
2026-01-28 10:18:43.04	195.79	17.33	-45.3	-60.0	3.6	1.51e+00	0	33	104	0	60	40539
2026-01-28 10:18:44.05	195.95	17.47	-45.3	-60.0	3.6	1.51e+00	0	33	104	0	60	40447
2026-01-28 10:18:45.06	196.10	17.61	-45.3	-60.1	3.6	1.51e+00	0	33	104	0	60	40957
2026-01-28 10:18:46.07	196.26	17.76	-45.3	-60.0	3.6	1.51e+00	0	33	104	0	60	40780
2026-01-28 10:18:47.08	196.43	17.90	-45.3	-60.0	3.6	1.51e+00	0	33	104	0	60	40425
2026-01-28 10:18:48.10	196.59	18.05	-45.3	-60.0	3.6	1.51e+00	0	33	104	0	60	40785
2026-01-28 10:18:49.10	196.76	18.19	-45.3	-60.1	3.6	1.51e+00	0	33	104	0	60	40801
2026-01-28 10:18:50.11	196.92	18.34	-45.3	-60.1	3.6	1.51e+00	0	33	104	0	60	40967
2026-01-28 10:18:51.12	197.09	18.48	-45.3	-60.0	3.6	1.51e+00	0	33	104	0	60	40669
2026-01-28 10:18:52.13	197.27	18.63	-45.3	-60.0	3.6	1.51e+00	0	33	104	0	60	40750
2026-01-28 10:18:53.14	197.44	18.78	-45.2	-60.1	3.6	1.51e+00	0	33	104	0	60	40835
2026-01-28 10:18:54.15	197.61	18.93	-45.3	-60.1	3.6	1.51e+00	0	33	104	0	60	40892
2026-01-28 10:18:55.16	197.79	19.08	-45.3	-60.0	3.5	1.51e+00	0	33	104	0	60	40395
2026-01-28 10:18:56.17	197.97	19.23	-45.3	-60.0	3.5	1.51e+00	0	33	104	0	60	40531
2026-01-28 10:18:57.18	198.15	19.39	-45.3	-60.1	3.6	1.51e+00	0	33	104	0	60	40881
2026-01-28 10:18:58.19	198.33	19.54	-45.3	-60.1	3.6	1.51e+00	0	33	104	0	60	40994
2026-01-28 10:18:59.20	198.52	19.69	-45.3	-60.0	3.6	1.51e+00	0	33	104	0	60	40572
2026-01-28 10:19:00.21	198.71	19.85	-45.3	-60.0	3.6	1.51e+00	0	33	104	0	60	40599
2026-01-28 10:19:01.22	198.90	20.01	-45.3	-60.1	3.6	1.51e+00	0	33	104	0	60	40986
2026-01-28 10:19:02.22	199.09	20.16	-45.4	-60.1	3.6	1.51e+00	0	33	104	0	60	40976
2026-01-28 10:19:03.23	199.28	20.32	-45.3	-60.1	3.6	1.51e+00	0	33	104	0	60	40815
2026-01-28 10:19:04.24	199.48	20.48	-45.3	-60.0	3.6	1.51e+00	0	33	104	0	60	40577
2026-01-28 10:19:05.25	199.67	20.64	-45.4	-60.1	3.6	1.51e+00	0	33	104	0	60	40809
2026-01-28 10:19:06.26	199.88	20.80	-45.4	-60.1	3.6	1.51e+00	0	33	104	0	60	40843
2026-01-28 10:19:07.27	200.08	20.97	-45.3	-60.1	3.6	1.51e+00	0	33	104	0	60	40855
2026-01-28 10:19:08.28	200.28	21.13	-45.3	-60.0	3.6	1.51e+00	0	33	104	0	60	40788
2026-01-28 10:19:09.29	200.49	21.29	-45.4	-60.1	3.6	1.51e+00	0	33	104	0	60	41199
2026-01-28 10:19:10.30	200.70	21.46	-45.4	-60.1	3.5	1.51e+00	0	33	104	0	60	40945
2026-01-28 10:19:11.31	200.92	21.63	-45.3	-60.1	3.6	1.51e+00	0	33	104	0	60	40899
2026-01-28 10:19:12.32	201.13	21.79	-45.4	-60.1	3.6	1.51e+00	0	33	104	0	60	41027
2026-01-28 10:19:13.33	201.35	21.96	-45.4	-60.1	3.6	1.51e+00	0	33	104	0	60	40985
2026-01-28 10:19:14.34	201.57	22.13	-45.4	-60.1	3.6	1.51e+00	0	33	104	0	60	40991
2026-01-28 10:19:15.35	201.79	22.30	-45.4	-60.1	3.6	1.51e+00	0	33	104	0	60	40963
2026-01-28 10:19:16.36	202.02	22.47	-45.3	-60.1	3.6	1.51e+00	0	33	104	0	60	40870
2026-01-28 10:19:17.37	202.25	22.64	-45.4	-60.1	3.6	1.51e+00	0	33	104	0	60	40870
2026-01-28 10:19:18.38	202.48	22.82	-45.3	-60.1	3.6	1.51e+00	0	33	104	0	60	40906
2026-01-28 10:19:19.39	202.71	22.99	-45.4	-60.1	3.6	1.51e+00	0	33	104	0	60	40889
2026-01-28 10:19:20.40	202.95	23.17	-45.4	-60.1	3.6	1.51e+00	0	33	104	0	60	40990
2026-01-28 10:19:21.41	203.19	23.35	-45.3	-60.0	3.6	1.51e+00	0	33	104	0	60	40760
2026-01-28 10:19:22.42	203.44	23.52	-45.4	-60.1	3.6	1.51e+00	0	33	104	0	60	40983
2026-01-28 10:19:23.43	203.68	23.70	-45.3	-60.1	3.6	1.51e+00	0	33	104	0	60	41023
2026-01-28 10:19:24.44	203.93	23.88	-45.3	-60.1	3.6	1.51e+00	0	33	104	0	60	41044
2026-01-28 10:19:25.45	204.19	24.06	-45.4	-60.1	3.6	1.51e+00	0	33	104	0	60	41177
2026-01-28 10:19:26.46	204.44	24.24	-45.3	-60.1	3.6	1.51e+00	0	33	104	0	60	41030
2026-01-28 10:19:27.46	204.70	24.42	-45.4	-60.1	3.6	1.51e+00	0	33	104	0	60	40905
2026-01-28 10:19:28.47	204.96	24.61	-45.4	-60.1	3.6	1.51e+00	0	33	104	0	60	41227
2026-01-28 10:19:29.48	205.23	24.79	-45.4	-60.2	3.6	1.51e+00	0	33	104	0	60	41378
2026-01-28 10:19:30.49	205.50	24.98	-45.4	-60.1	3.5	1.51e+00	0	33	104	0	60	41081
2026-01-28 10:19:31.50	205.77	25.17	-45.4	-60.1	3.6	1.51e+00	0	33	104	0	60	40979
2026-01-28 10:19:32.51	206.05	25.35	-45.4	-60.2	3.6	1.51e+00	0	33	104	0	60	41272
2026-01-28 10:19:33.52	206.33	25.54	-45.4	-60.2	3.6	1.51e+00	0	33	104	0	60	41347
2026-01-28 10:19:34.52	206.61	25.73	-45.4	-60.1	3.6	1.51e+00	0	33	104	0	60	41253
2026-01-28 10:19:35.53	206.89	25.92	-45.4	-60.1	3.6	1.51e+00	0	33	104	0	60	41228
2026-01-28 10:19:36.54	207.19	26.11	-45.4	-60.1	3.5	1.51e+00	0	33	104	0	60	41134
2026-01-28 10:19:37.55	207.48	26.30	-45.4	-60.1	3.6	1.51e+00	0	33	104	0	60	40985
2026-01-28 10:19:38.56	207.78	26.50	-45.4	-60.0	3.6	1.51e+00	0	33	104	0	60	40778
2026-01-28 10:19:39.57	208.08	26.69	-45.4	-60.1	3.6	1.51e+00	0	33	104	0	60	40957
2026-01-28 10:19:40.58	208.39	26.89	-45.4	-60.1	3.6	1.51e+00	0	33	104	0	60	41240
2026-01-28 10:19:41.59	208.70	27.08	-45.5	-60.2	3.6	1.51e+00	0	33	104	0	60	41395
2026-01-28 10:19:42.60	209.02	27.28	-45.4	-60.1	3.6	1.51e+00	0	33	104	0	60	40983
2026-01-28 10:19:43.61	209.34	27.48	-45.4	-60.2	3.6	1.51e+00	0	33	104	0	60	41297
2026-01-28 10:19:44.62	209.66	27.68	-45.4	-60.2	3.6	1.51e+00	0	33	104	0	60	41293
2026-01-28 10:19:45.63	209.99	27.88	-45.4	-60.2	3.6	1.51e+00	0	33	104	0	60	41271
2026-01-28 10:19:46.64	210.32	28.08	-45.4	-60.1	3.6	1.51e+00	0	33	104	0	60	41168
2026-01-28 10:19:47.64	210.66	28.28	-45.4	-60.1	3.6	1.51e+00	0	33	104	0	60	40952
2026-01-28 10:19:48.66	211.00	28.48	-45.4	-60.1	3.6	1.51e+00	0	33	104	0	60	41112
2026-01-28 10:19:49.66	211.34	28.68	-45.4	-60.2	3.6	1.51e+00	0	33	104	0	60	41315
2026-01-28 10:19:50.67	211.69	28.88	-45.4	-60.1	3.6	1.51e+00	0	33	104	0	60	41154
2026-01-28 10:19:51.68	212.05	29.09	-45.4	-60.2	3.6	1.51e+00	0	33	104	0	60	41338
2026-01-28 10:19:52.69	212.41	29.29	-45.4	-60.2	3.6	1.51e+00	0	33	104	0	60	41294
2026-01-28 10:19:53.70	212.78	29.50	-45.4	-60.2	3.6	1.51e+00	0	33	104	0	60	41293
2026-01-28 10:19:54.71	213.15	29.70	-45.4	-60.1	3.6	1.51e+00	0	33	104	0	60	41105
2026-01-28 10:19:55.72	213.52	29.91	-45.4	-60.2	3.6	1.51e+00	0	33	104	0	60	41279
2026-01-28 10:19:56.73	213.91	30.12	-45.5	-60.1	3.6	1.51e+00	0	33	104	0	60	41165
2026-01-28 10:19:57.74	214.29	30.32	-45.4	-60.2	3.6	1.51e+00	0	33	104	0	60	41577
2026-01-28 10:19:58.75	214.68	30.53	-45.4	-60.1	3.6	1.51e+00	0	33	104	0	60	41098
2026-01-28 10:19:59.76	215.08	30.74	-45.4	-60.1	3.6	1.51e+00	0	33	104	0	60	41228
2026-01-28 10:20:00.77	215.48	30.95	-45.4	-60.2	3.6	1.51e+00	0	33	104	0	60	41610
2026-01-28 10:20:01.78	215.89	31.16	-45.5	-60.2	3.6	1.51e+00	0	33	104	0	60	41388
2026-01-28 10:20:02.79	216.31	31.37	-45.4	-60.2	3.6	1.51e+00	0	33	104	0	60	41334
2026-01-28 10:20:03.80	216.73	31.58	-45.5	-60.2	3.6	1.51e+00	0	33	104	0	60	41509
2026-01-28 10:20:04.80	217.15	31.78	-45.5	-60.2	3.6	1.51e+00	0	33	104	0	60	41508
2026-01-28 10:20:05.81	217.58	31.99	-45.5	-60.1	3.6	1.51e+00	0	33	104	0	60	41256
2026-01-28 10:20:06.82	218.02	32.20	-45.4	-60.1	3.6	1.51e+00	0	33	104	0	60	41165
2026-01-28 10:20:07.83	218.46	32.41	-45.4	-60.2	3.6	1.51e+00	0	33	104	0	60	41435
2026-01-28 10:20:08.84	218.91	32.62	-45.4	-60.2	3.6	1.51e+00	0	33	104	0	60	41383
2026-01-28 10:20:09.85	219.37	32.83	-45.5	-60.2	3.6	1.51e+00	0	33	104	0	60	41431
2026-01-28 10:20:10.86	219.83	33.04	-45.4	-60.1	3.6	1.51e+00	0	33	104	0	60	41189
2026-01-28 10:20:11.87	220.30	33.25	-45.4	-60.2	3.6	1.51e+00	0	33	104	0	60	41359
2026-01-28 10:20:12.88	220.77	33.46	-45.5	-60.2	3.6	1.51e+00	0	33	104	0	60	41446
2026-01-28 10:20:13.89	221.25	33.67	-45.4	-60.2	3.6	1.51e+00	0	33	104	0	60	41630
2026-01-28 10:20:14.90	221.74	33.87	-45.4	-60.2	3.6	1.51e+00	0	33	104	0	60	41479
2026-01-28 10:20:15.91	222.23	34.08	-45.4	-60.2	3.6	1.51e+00	0	33	104	0	60	41374
2026-01-28 10:20:16.92	222.73	34.29	-45.4	-60.2	3.6	1.51e+00	0	33	104	0	60	41603
2026-01-28 10:20:17.93	223.24	34.49	-45.4	-60.2	3.6	1.51e+00	0	33	104	0	60	41312
2026-01-28 10:20:18.94	223.76	34.70	-45.4	-60.2	3.6	1.51e+00	0	33	104	0	60	41316
2026-01-28 10:20:19.95	224.28	34.90	-45.4	-60.2	3.6	1.51e+00	0	33	104	0	60	41603
2026-01-28 10:20:20.96	224.81	35.11	-45.5	-60.2	3.6	1.51e+00	0	33	104	0	60	41535
2026-01-28 10:20:21.97	225.34	35.31	-45.5	-60.2	3.6	1.51e+00	0	33	104	0	60	41510
2026-01-28 10:20:22.97	225.88	35.51	-45.4	-60.2	3.6	1.51e+00	0	33	104	0	60	41482
2026-01-28 10:20:23.98	226.43	35.71	-45.5	-60.2	3.6	1.51e+00	0	33	104	0	60	41674
2026-01-28 10:20:24.99	226.98	35.90	-45.4	-60.2	3.6	1.51e+00	0	33	104	0	60	41391
2026-01-28 10:20:26.00	227.55	36.10	-45.5	-60.2	3.6	1.51e+00	0	33	104	0	60	41480
2026-01-28 10:20:27.01	228.12	36.30	-45.4	-60.2	3.6	1.51e+00	0	33	104	0	60	41384
2026-01-28 10:20:28.02	228.70	36.49	-45.5	-60.2	3.6	1.51e+00	0	33	104	0	60	41527
2026-01-28 10:20:29.03	229.28	36.68	-45.5	-60.2	3.6	1.51e+00	0	33	104	0	60	41551
2026-01-28 10:20:30.04	229.87	36.87	-45.5	-60.2	3.6	1.51e+00	0	33	104	0	60	41513
2026-01-28 10:20:31.05	230.47	37.06	-45.5	-60.2	3.6	1.51e+00	0	33	104	0	60	41334
2026-01-28 10:20:32.06	231.08	37.24	-45.5	-60.3	3.6	1.51e+00	0	33	104	0	60	41849
2026-01-28 10:20:33.07	231.69	37.43	-45.5	-60.2	3.6	1.51e+00	0	33	104	0	60	41658
2026-01-28 10:20:34.08	232.31	37.61	-45.5	-60.2	3.6	1.51e+00	0	33	104	0	60	41585
2026-01-28 10:20:35.09	232.94	37.79	-45.5	-60.2	3.6	1.51e+00	0	33	104	0	60	41336
2026-01-28 10:20:36.10	233.58	37.96	-45.5	-60.2	3.6	1.51e+00	0	33	104	0	60	41466
2026-01-28 10:20:37.11	234.22	38.14	-45.5	-60.2	3.6	1.51e+00	0	33	104	0	60	41491
2026-01-28 10:20:38.12	234.87	38.31	-45.5	-60.2	3.6	1.51e+00	0	33	104	0	60	41697
2026-01-28 10:20:39.13	235.53	38.47	-45.5	-60.2	3.6	1.51e+00	0	33	104	0	60	41490
2026-01-28 10:20:40.14	236.19	38.64	-45.5	-60.2	3.6	1.51e+00	0	33	104	0	60	41642
2026-01-28 10:20:41.14	236.85	38.80	-45.5	-60.2	3.6	1.51e+00	0	33	104	0	60	41569
2026-01-28 10:20:42.15	237.53	38.96	-45.5	-60.2	3.6	1.51e+00	0	33	104	0	60	41608
2026-01-28 10:20:43.16	238.22	39.11	-45.5	-60.2	3.6	1.51e+00	0	33	104	0	60	41697
2026-01-28 10:20:44.17	238.91	39.26	-45.5	-60.2	3.6	1.51e+00	0	33	104	0	60	41597
2026-01-28 10:20:45.18	239.60	39.41	-45.5	-60.2	3.6	1.51e+00	0	33	104	0	60	41526
2026-01-28 10:20:46.19	240.31	39.55	-45.6	-60.3	3.6	1.51e+00	0	33	104	0	60	41937
2026-01-28 10:20:47.20	241.02	39.69	-45.5	-60.2	3.6	1.51e+00	0	33	104	0	60	41592
2026-01-28 10:20:48.21	241.74	39.82	-45.6	-60.3	3.6	1.51e+00	0	33	104	0	60	41839
2026-01-28 10:20:49.22	242.46	39.95	-45.6	-60.3	3.6	1.51e+00	0	33	104	0	60	41748
2026-01-28 10:20:50.23	243.19	40.08	-45.6	-60.3	3.6	1.51e+00	0	33	104	0	60	41795
2026-01-28 10:20:51.24	243.92	40.20	-45.5	-60.2	3.6	1.51e+00	0	33	104	0	60	41435
2026-01-28 10:20:52.25	244.66	40.32	-45.6	-60.3	3.6	1.51e+00	0	33	104	0	60	41826
2026-01-28 10:20:53.26	245.41	40.43	-45.6	-60.3	3.6	1.51e+00	0	33	104	0	60	41995
2026-01-28 10:20:54.27	246.16	40.54	-45.6	-60.3	3.6	1.51e+00	0	33	104	0	60	41886
2026-01-28 10:20:55.28	246.92	40.64	-45.6	-60.2	3.6	1.51e+00	0	33	104	0	60	41641
2026-01-28 10:20:56.29	247.68	40.74	-45.6	-60.3	3.6	1.51e+00	0	33	104	0	60	41830
2026-01-28 10:20:57.30	248.44	40.83	-45.6	-60.3	3.6	1.51e+00	0	33	104	0	60	41990
2026-01-28 10:20:58.31	249.21	40.92	-45.5	-60.3	3.6	1.51e+00	0	33	104	0	60	41840
2026-01-28 10:20:59.32	249.99	41.00	-45.5	-60.2	3.6	1.51e+00	0	33	104	0	60	41556
2026-01-28 10:21:00.33	250.76	41.08	-45.6	-60.2	3.6	1.51e+00	0	33	104	0	60	41698
2026-01-28 10:21:01.34	251.55	41.15	-45.6	-60.2	3.6	1.51e+00	0	33	104	0	60	41732
2026-01-28 10:21:02.35	252.33	41.21	-45.6	-60.3	3.6	1.51e+00	0	33	104	0	60	41840
2026-01-28 10:21:03.35	253.11	41.27	-45.6	-60.2	3.6	1.51e+00	0	33	104	0	60	41712
2026-01-28 10:21:04.36	253.90	41.33	-45.6	-60.3	3.6	1.51e+00	0	33	104	0	60	41812
2026-01-28 10:21:05.37	254.70	41.37	-45.6	-60.3	3.6	1.51e+00	0	33	104	0	60	42213
2026-01-28 10:21:06.38	255.49	41.42	-45.6	-60.2	3.6	1.51e+00	0	33	104	0	60	41486
2026-01-28 10:21:07.39	256.29	41.45	-45.6	-60.3	3.6	1.51e+00	0	33	104	0	60	41858
2026-01-28 10:21:08.40	257.09	41.48	-45.6	-60.2	3.6	1.51e+00	0	33	104	0	60	41549
2026-01-28 10:21:09.41	257.89	41.51	-45.6	-60.3	3.6	1.51e+00	0	33	104	0	60	41967
2026-01-28 10:21:10.42	258.70	41.53	-45.5	-60.2	3.6	1.51e+00	0	33	104	0	60	41700
2026-01-28 10:21:11.43	259.50	41.54	-45.5	-60.2	3.6	1.51e+00	0	33	104	0	60	41688
2026-01-28 10:21:12.44	260.30	41.55	-45.6	-60.3	3.6	1.51e+00	0	33	104	0	60	41749
2026-01-28 10:21:13.45	261.11	41.55	-45.6	-60.3	3.6	1.51e+00	0	33	104	0	60	41783
2026-01-28 10:21:14.46	261.91	41.54	-45.5	-60.2	3.6	1.51e+00	0	33	104	0	60	41531
2026-01-28 10:21:15.47	262.71	41.53	-45.5	-60.3	3.6	1.51e+00	0	33	104	0	60	41770
2026-01-28 10:21:16.47	263.51	41.51	-45.5	-60.2	3.6	1.51e+00	0	33	104	0	60	41603
2026-01-28 10:21:17.48	264.31	41.49	-45.6	-60.3	3.6	1.51e+00	0	33	104	0	60	42008
2026-01-28 10:21:18.49	265.11	41.46	-45.5	-60.2	3.6	1.51e+00	0	33	104	0	60	41711
2026-01-28 10:21:19.50	265.91	41.43	-45.5	-60.2	3.6	1.51e+00	0	33	104	0	60	41717
2026-01-28 10:21:20.51	266.71	41.39	-45.6	-60.2	3.6	1.51e+00	0	33	104	0	60	41672
2026-01-28 10:21:21.52	267.50	41.34	-45.6	-60.3	3.6	1.51e+00	0	33	104	0	60	41839
2026-01-28 10:21:22.53	268.29	41.29	-45.5	-60.3	3.6	1.51e+00	0	33	104	0	60	41846
2026-01-28 10:21:23.54	269.08	41.23	-45.5	-60.2	3.6	1.51e+00	0	33	104	0	60	41393
2026-01-28 10:21:24.55	269.87	41.17	-45.6	-60.3	3.6	1.51e+00	0	33	104	0	60	41920
2026-01-28 10:21:25.56	270.65	41.10	-45.6	-60.3	3.6	1.51e+00	0	33	104	0	60	41809
2026-01-28 10:21:26.57	271.43	41.02	-45.6	-60.2	3.6	1.51e+00	0	33	104	0	60	41685
2026-01-28 10:21:27.58	272.21	40.94	-45.6	-60.3	3.6	1.51e+00	0	33	104	0	60	41793
2026-01-28 10:21:28.59	272.98	40.86	-45.6	-60.3	3.6	1.51e+00	0	33	104	0	60	41877
2026-01-28 10:21:29.60	273.74	40.76	-45.5	-60.3	3.6	1.51e+00	0	33	104	0	60	41791
2026-01-28 10:21:30.60	274.50	40.67	-45.5	-60.3	3.6	1.51e+00	0	33	104	0	60	41771
2026-01-28 10:21:31.61	275.26	40.57	-45.5	-60.3	3.6	1.51e+00	0	33	104	0	60	41768
2026-01-28 10:21:32.62	276.01	40.46	-45.5	-60.2	3.6	1.51e+00	0	33	104	0	60	41389
2026-01-28 10:21:33.63	276.76	40.35	-45.6	-60.3	3.6	1.51e+00	0	33	104	0	60	41866
2026-01-28 10:21:34.64	277.50	40.24	-45.5	-60.2	3.6	1.51e+00	0	33	104	0	60	41596
2026-01-28 10:21:35.65	278.23	40.12	-45.6	-60.2	3.6	1.51e+00	0	33	104	0	60	41733
2026-01-28 10:21:36.66	278.96	39.99	-45.6	-60.3	3.6	1.51e+00	0	33	104	0	60	41812
2026-01-28 10:21:37.67	279.69	39.86	-45.6	-60.2	3.6	1.51e+00	0	33	104	0	60	41375
2026-01-28 10:21:38.68	280.41	39.73	-45.5	-60.2	3.6	1.51e+00	0	33	104	0	60	41661
2026-01-28 10:21:39.69	281.12	39.59	-45.5	-60.3	3.6	1.51e+00	0	33	104	0	60	41755
2026-01-28 10:21:40.70	281.83	39.45	-45.5	-60.2	3.6	1.51e+00	0	33	104	0	60	41548
2026-01-28 10:21:41.71	282.53	39.30	-45.5	-60.2	3.6	1.51e+00	0	33	104	0	60	41734
2026-01-28 10:21:42.72	283.22	39.15	-45.5	-60.2	3.6	1.51e+00	0	33	104	0	60	41476
2026-01-28 10:21:43.73	283.90	39.00	-45.6	-60.3	3.6	1.51e+00	0	33	104	0	60	41829
2026-01-28 10:21:44.74	284.58	38.84	-45.6	-60.3	3.6	1.51e+00	0	33	104	0	60	41760
2026-01-28 10:21:45.75	285.26	38.68	-45.5	-60.3	3.6	1.51e+00	0	33	104	0	60	41743
2026-01-28 10:21:46.76	285.92	38.52	-45.5	-60.2	3.6	1.51e+00	0	33	104	0	60	41571
2026-01-28 10:21:47.77	286.58	38.35	-45.5	-60.3	3.6	1.51e+00	0	33	104	0	60	41824
2026-01-28 10:21:48.78	287.23	38.18	-45.4	-60.3	3.6	1.51e+00	0	33	104	0	60	41813
2026-01-28 10:21:49.79	287.88	38.01	-45.5	-60.3	3.6	1.51e+00	0	33	104	0	60	41762
2026-01-28 10:21:50.80	288.52	37.84	-45.5	-60.2	3.6	1.51e+00	0	33	104	0	60	41563
2026-01-28 10:21:51.81	289.15	37.66	-45.5	-60.2	3.6	1.51e+00	0	33	104	0	60	41623
2026-01-28 10:21:52.82	289.77	37.48	-45.5	-60.3	3.6	1.51e+00	0	33	104	0	60	41772
2026-01-28 10:21:53.83	290.38	37.30	-45.4	-60.2	3.6	1.51e+00	0	33	104	0	60	41384
2026-01-28 10:21:54.83	290.99	37.11	-45.5	-60.2	3.6	1.51e+00	0	33	104	0	60	41530
2026-01-28 10:21:55.84	291.59	36.93	-45.5	-60.2	3.6	1.51e+00	0	33	104	0	60	41709
2026-01-28 10:21:56.85	292.18	36.74	-45.4	-60.2	3.6	1.51e+00	0	33	104	0	60	41705
2026-01-28 10:21:57.86	292.77	36.55	-45.5	-60.2	3.6	1.51e+00	0	33	104	0	60	41606
2026-01-28 10:21:58.87	293.35	36.35	-45.4	-60.2	3.6	1.51e+00	0	33	104	0	60	41454
2026-01-28 10:21:59.87	293.92	36.16	-45.4	-60.2	3.6	1.51e+00	0	33	104	0	60	41494
2026-01-28 10:22:00.88	294.48	35.96	-45.3	-60.3	3.6	1.51e+00	0	33	104	0	60	41765
2026-01-28 10:22:01.89	295.04	35.77	-45.2	-60.3	3.6	1.51e+00	0	33	104	0	60	41783
2026-01-28 10:22:02.90	295.59	35.57	-45.3	-60.2	3.6	1.51e+00	0	33	104	0	60	41359
2026-01-28 10:22:03.91	296.14	35.37	-45.3	-60.2	3.6	1.51e+00	0	33	104	0	60	41585
2026-01-28 10:22:04.92	296.67	35.17	-45.3	-60.2	3.6	1.51e+00	0	33	104	0	60	41595
2026-01-28 10:22:05.93	297.20	34.96	-45.2	-60.2	3.6	1.51e+00	0	33	104	0	60	41650
2026-01-28 10:22:06.94	297.73	34.76	-45.2	-60.2	3.6	1.51e+00	0	33	104	0	60	41344
2026-01-28 10:22:07.95	298.24	34.55	-45.3	-60.2	3.6	1.51e+00	0	33	104	0	60	41467
2026-01-28 10:22:08.96	298.75	34.35	-45.2	-60.3	3.6	1.51e+00	0	33	104	0	60	41757
2026-01-28 10:22:09.96	299.25	34.14	-45.2	-60.2	3.6	1.51e+00	0	33	104	0	60	41512
2026-01-28 10:22:10.98	299.75	33.94	-45.2	-60.2	3.6	1.51e+00	0	33	104	0	60	41556
2026-01-28 10:22:11.98	300.24	33.73	-45.1	-60.2	3.6	1.51e+00	0	33	104	0	60	41413
2026-01-28 10:22:12.99	300.72	33.52	-45.2	-60.2	3.6	1.51e+00	0	33	104	0	60	41681
2026-01-28 10:22:14.00	301.20	33.31	-45.2	-60.2	3.6	1.51e+00	0	33	104	0	60	41572
2026-01-28 10:22:15.01	301.67	33.10	-45.2	-60.2	3.6	1.51e+00	0	33	104	0	60	41476
2026-01-28 10:22:16.02	302.13	32.90	-45.1	-60.3	3.6	1.51e+00	0	33	104	0	60	41770
2026-01-28 10:22:17.03	302.59	32.69	-45.3	-60.3	3.6	1.51e+00	0	33	104	0	60	41857
2026-01-28 10:22:18.04	303.04	32.48	-45.2	-60.2	3.6	1.51e+00	0	33	104	0	60	41620
2026-01-28 10:22:19.05	303.49	32.27	-45.2	-60.2	3.6	1.51e+00	0	33	104	0	60	41634
2026-01-28 10:22:20.06	303.93	32.06	-45.2	-60.3	3.6	1.51e+00	0	33	104	0	60	41826
2026-01-28 10:22:21.07	304.36	31.85	-45.4	-60.2	3.6	1.51e+00	0	33	104	0	60	41700
2026-01-28 10:22:22.08	304.79	31.64	-45.3	-60.2	3.6	1.51e+00	0	33	104	0	60	41736
2026-01-28 10:22:23.09	305.21	31.43	-45.3	-60.2	3.6	1.51e+00	0	33	104	0	60	41660
2026-01-28 10:22:24.10	305.62	31.22	-45.4	-60.2	3.6	1.51e+00	0	33	104	0	60	41551
2026-01-28 10:22:25.11	306.03	31.01	-45.5	-60.2	3.6	1.51e+00	0	33	104	0	60	41735
2026-01-28 10:22:26.12	306.44	30.80	-45.5	-60.3	3.5	1.51e+00	0	33	104	0	60	41838
2026-01-28 10:22:27.13	306.84	30.59	-45.4	-60.2	3.6	1.51e+00	0	33	104	0	60	41545
2026-01-28 10:22:28.14	307.23	30.39	-45.4	-60.2	3.6	1.51e+00	0	33	104	0	60	41440
2026-01-28 10:22:29.15	307.62	30.18	-45.5	-60.3	3.6	1.51e+00	0	33	104	0	60	41860
2026-01-28 10:22:30.16	308.00	29.97	-45.4	-60.2	3.6	1.51e+00	0	33	104	0	60	41710
2026-01-28 10:22:31.17	308.38	29.77	-45.3	-60.2	3.6	1.51e+00	0	33	104	0	60	41460
2026-01-28 10:22:32.17	308.75	29.56	-45.4	-60.2	3.6	1.51e+00	0	33	104	0	60	41699
2026-01-28 10:22:33.18	309.12	29.36	-45.4	-60.2	3.6	1.51e+00	0	33	104	0	60	41719
2026-01-28 10:22:34.19	309.48	29.15	-45.4	-60.2	3.6	1.51e+00	0	33	104	0	60	41444
2026-01-28 10:22:35.20	309.84	28.95	-45.3	-60.2	3.6	1.51e+00	0	33	104	0	60	41350
2026-01-28 10:22:36.21	310.19	28.74	-45.4	-60.1	3.5	1.51e+00	0	33	104	0	60	41051
2026-01-28 10:22:37.22	310.54	28.54	-45.5	-60.2	3.6	1.51e+00	0	33	104	0	60	41428
2026-01-28 10:22:38.23	310.88	28.34	-45.4	-60.2	3.6	1.51e+00	0	33	104	0	60	41349
2026-01-28 10:22:39.24	311.22	28.14	-45.3	-60.1	3.6	1.51e+00	0	33	104	0	60	41251
2026-01-28 10:22:40.25	311.55	27.94	-45.4	-60.2	3.6	1.51e+00	0	33	104	0	60	41452
2026-01-28 10:22:41.26	311.88	27.74	-45.4	-60.2	3.6	1.51e+00	0	33	104	0	60	41670
2026-01-28 10:22:42.27	312.21	27.54	-45.5	-60.2	3.6	1.51e+00	0	33	104	0	60	41499
2026-01-28 10:22:43.28	312.53	27.34	-45.4	-60.2	3.6	1.51e+00	0	33	104	0	60	41451
2026-01-28 10:22:44.29	312.85	27.14	-45.5	-60.2	3.6	1.51e+00	0	33	104	0	60	41573
2026-01-28 10:22:45.30	313.16	26.95	-45.5	-60.2	3.6	1.51e+00	0	33	104	0	60	41423
2026-01-28 10:22:46.30	313.46	26.75	-45.4	-60.2	3.6	1.51e+00	0	33	104	0	60	41521
2026-01-28 10:22:47.31	313.77	26.56	-45.4	-60.2	3.5	1.51e+00	0	33	104	0	60	41563
2026-01-28 10:22:48.32	314.07	26.37	-45.3	-60.2	3.6	1.51e+00	0	33	104	0	60	41463
2026-01-28 10:22:49.34	314.37	26.17	-45.5	-60.2	3.6	1.51e+00	0	33	104	0	60	41587
2026-01-28 10:22:50.34	314.66	25.98	-45.4	-60.2	3.6	1.51e+00	0	33	104	0	60	41470
2026-01-28 10:22:51.35	314.95	25.79	-45.3	-60.2	3.6	1.51e+00	0	33	104	0	60	41274
2026-01-28 10:22:52.36	315.23	25.60	-45.4	-60.2	3.6	1.51e+00	0	33	104	0	60	41348
2026-01-28 10:22:53.37	315.51	25.41	-45.4	-60.2	3.6	1.51e+00	0	33	104	0	60	41619
2026-01-28 10:22:54.38	315.79	25.22	-45.4	-60.2	3.6	1.51e+00	0	33	104	0	60	41346
2026-01-28 10:22:55.38	316.06	25.04	-45.4	-60.2	3.6	1.51e+00	0	33	104	0	60	41430
2026-01-28 10:22:56.39	316.33	24.85	-45.3	-60.1	3.6	1.51e+00	0	33	104	0	60	41252
2026-01-28 10:22:57.40	316.60	24.67	-45.2	-60.2	3.5	1.51e+00	0	33	104	0	60	41567
2026-01-28 10:22:58.41	316.86	24.48	-45.3	-60.2	3.6	1.51e+00	0	33	104	0	60	41268
2026-01-28 10:22:59.42	317.13	24.30	-45.2	-60.2	3.6	1.51e+00	0	33	104	0	60	41383
2026-01-28 10:23:00.43	317.38	24.12	-45.2	-60.2	3.6	1.51e+00	0	33	104	0	60	41465
2026-01-28 10:23:01.44	317.64	23.94	-45.4	-60.1	3.6	1.51e+00	0	33	104	0	60	41178
2026-01-28 10:23:02.45	317.89	23.76	-45.3	-60.2	3.6	1.51e+00	0	33	104	0	60	41298
2026-01-28 10:23:03.46	318.13	23.58	-45.3	-60.1	3.6	1.51e+00	0	33	104	0	60	41223
2026-01-28 10:23:04.46	318.38	23.40	-45.3	-60.1	3.6	1.51e+00	0	33	104	0	60	41198
2026-01-28 10:23:05.47	318.62	23.23	-45.4	-60.2	3.6	1.51e+00	0	33	104	0	60	41359
2026-01-28 10:23:06.48	318.86	23.05	-45.4	-60.2	3.5	1.51e+00	0	33	104	0	60	41293
2026-01-28 10:23:07.49	319.09	22.88	-45.5	-60.2	3.5	1.51e+00	0	33	104	0	60	41406
2026-01-28 10:23:08.50	319.33	22.70	-45.5	-60.2	3.6	1.51e+00	0	33	104	0	60	41339
2026-01-28 10:23:09.51	319.56	22.53	-45.4	-60.2	3.6	1.51e+00	0	33	104	0	60	41322
2026-01-28 10:23:10.52	319.78	22.36	-45.4	-60.1	3.6	1.51e+00	0	33	104	0	60	41043
2026-01-28 10:23:11.53	320.01	22.19	-45.4	-60.2	3.6	1.51e+00	0	33	104	0	60	41286
2026-01-28 10:23:12.54	320.23	22.02	-45.3	-60.1	3.6	1.51e+00	0	33	104	0	60	41040
2026-01-28 10:23:13.55	320.45	21.85	-45.3	-60.1	3.6	1.51e+00	0	33	104	0	60	41198
2026-01-28 10:23:14.56	320.67	21.68	-45.2	-60.1	3.6	1.51e+00	0	33	104	0	60	41117
2026-01-28 10:23:15.56	320.88	21.52	-45.3	-60.2	3.6	1.51e+00	0	33	104	0	60	41344
2026-01-28 10:23:16.58	321.09	21.35	-45.3	-60.2	3.6	1.51e+00	0	33	104	0	60	41371
2026-01-28 10:23:17.59	321.30	21.18	-45.4	-60.1	3.6	1.51e+00	0	33	104	0	60	41193
2026-01-28 10:23:18.60	321.51	21.02	-45.4	-60.1	3.6	1.51e+00	0	33	104	0	60	41109
2026-01-28 10:23:19.60	321.71	20.86	-45.3	-60.1	3.6	1.51e+00	0	33	104	0	60	40904
2026-01-28 10:23:20.61	321.91	20.70	-45.4	-60.1	3.6	1.51e+00	0	33	104	0	60	41109
2026-01-28 10:23:21.62	322.11	20.54	-45.4	-60.1	3.6	1.51e+00	0	33	104	0	60	40896
2026-01-28 10:23:22.63	322.31	20.38	-45.3	-60.1	3.6	1.51e+00	0	33	104	0	60	40950
2026-01-28 10:23:23.64	322.50	20.22	-45.3	-60.1	3.6	1.51e+00	0	33	104	0	60	40971
2026-01-28 10:23:24.65	322.69	20.06	-45.4	-60.1	3.6	1.51e+00	0	33	104	0	60	41162
2026-01-28 10:23:25.66	322.89	19.90	-45.4	-60.2	3.6	1.51e+00	0	33	104	0	60	41314
2026-01-28 10:23:26.66	323.07	19.75	-45.4	-60.1	3.6	1.51e+00	0	33	104	0	60	40869
2026-01-28 10:23:27.68	323.26	19.59	-45.4	-60.1	3.6	1.51e+00	0	33	104	0	60	41151
2026-01-28 10:23:28.69	323.44	19.44	-45.5	-60.1	3.6	1.51e+00	0	33	104	0	60	41214
2026-01-28 10:23:29.70	323.63	19.29	-45.3	-60.1	3.6	1.51e+00	0	33	104	0	60	41034
2026-01-28 10:23:30.71	323.81	19.13	-45.4	-60.1	3.6	1.51e+00	0	33	104	0	60	40926
2026-01-28 10:23:31.72	323.98	18.98	-45.4	-60.1	3.6	1.51e+00	0	33	104	0	60	40944
2026-01-28 10:23:32.73	324.16	18.83	-45.3	-60.1	3.6	1.51e+00	0	33	104	0	60	40977
2026-01-28 10:23:33.74	324.33	18.68	-45.3	-60.1	3.6	1.51e+00	0	33	104	0	60	40918
2026-01-28 10:23:34.74	324.50	18.54	-45.4	-60.1	3.6	1.51e+00	0	33	104	0	60	40853
2026-01-28 10:23:35.76	324.68	18.39	-45.3	-60.1	3.6	1.51e+00	0	33	104	0	60	40820
2026-01-28 10:23:36.77	324.85	18.24	-45.3	-60.1	3.6	1.51e+00	0	33	104	0	60	41047
2026-01-28 10:23:37.78	325.01	18.10	-45.2	-60.1	3.6	1.51e+00	0	33	104	0	60	40880
2026-01-28 10:23:38.78	325.18	17.95	-45.2	-60.0	3.6	1.51e+00	0	33	104	0	60	40783
2026-01-28 10:23:39.79	325.34	17.81	-45.2	-60.1	3.6	1.51e+00	0	33	104	0	60	40821
2026-01-28 10:23:40.80	325.50	17.67	-45.3	-60.0	3.6	1.51e+00	0	33	104	0	60	40681
2026-01-28 10:23:41.81	325.66	17.52	-45.3	-60.0	3.6	1.51e+00	0	33	104	0	60	40732
2026-01-28 10:23:42.82	325.82	17.38	-45.2	-60.0	3.6	1.51e+00	0	33	104	0	60	40685
2026-01-28 10:23:43.83	325.97	17.24	-45.3	-60.0	3.6	1.51e+00	0	33	104	0	60	40469
2026-01-28 10:23:44.84	326.13	17.10	-45.4	-60.0	3.6	1.51e+00	0	33	104	0	60	40626
2026-01-28 10:23:45.85	326.28	16.96	-45.3	-60.0	3.6	1.51e+00	0	33	104	0	60	40530
2026-01-28 10:23:46.86	326.43	16.83	-45.3	-60.0	3.6	1.51e+00	0	33	104	0	60	40426
2026-01-28 10:23:47.87	326.58	16.69	-45.3	-60.0	3.5	1.51e+00	0	33	104	0	60	40373
2026-01-28 10:23:48.88	326.73	16.55	-45.3	-60.0	3.6	1.51e+00	0	33	104	0	60	40588
2026-01-28 10:23:49.89	326.88	16.42	-45.1	-60.0	3.6	1.51e+00	0	33	104	0	60	40592
2026-01-28 10:23:50.90	327.03	16.28	-45.2	-60.0	3.6	1.51e+00	0	33	104	0	60	40620
2026-01-28 10:23:51.91	327.17	16.15	-45.3	-60.0	3.6	1.51e+00	0	33	104	0	60	40764
2026-01-28 10:23:52.92	327.31	16.02	-45.3	-60.0	3.6	1.51e+00	0	33	104	0	60	40699
2026-01-28 10:23:53.93	327.45	15.88	-45.1	-60.0	3.6	1.51e+00	0	33	104	0	60	40380
2026-01-28 10:23:54.93	327.59	15.75	-45.1	-60.0	3.6	1.51e+00	0	33	104	0	60	40361
2026-01-28 10:23:55.94	327.73	15.62	-45.2	-60.0	3.6	1.51e+00	0	33	104	0	60	40379
2026-01-28 10:23:56.95	327.87	15.49	-45.3	-60.0	3.6	1.51e+00	0	33	104	0	60	40516
2026-01-28 10:23:57.96	328.00	15.36	-45.2	-60.0	3.6	1.51e+00	0	33	104	0	60	40349
2026-01-28 10:23:58.97	328.14	15.24	-45.1	-60.0	3.6	1.51e+00	0	33	104	0	60	40396
2026-01-28 10:23:59.98	328.27	15.11	-45.0	-59.9	3.6	1.51e+00	0	33	104	0	60	40183
2026-01-28 10:24:00.99	328.40	14.98	-45.3	-59.9	3.6	1.51e+00	0	33	104	0	60	40324
2026-01-28 10:24:02.00	328.53	14.85	-45.2	-59.9	3.6	1.51e+00	0	33	104	0	60	40262
2026-01-28 10:24:03.01	328.66	14.73	-45.2	-60.0	3.6	1.51e+00	0	33	104	0	60	40403
2026-01-28 10:24:04.02	328.79	14.60	-45.1	-59.9	3.5	1.51e+00	0	33	104	0	60	40064
2026-01-28 10:24:05.03	328.92	14.48	-45.2	-60.0	3.6	1.51e+00	0	33	104	0	60	40541
2026-01-28 10:24:06.04	329.04	14.36	-45.1	-59.8	3.6	1.51e+00	0	33	104	0	60	39862
2026-01-28 10:24:07.05	329.17	14.23	-45.2	-59.9	3.6	1.51e+00	0	33	104	0	60	40030
2026-01-28 10:24:08.06	329.29	14.11	-45.1	-59.8	3.6	1.51e+00	0	33	104	0	60	39802
2026-01-28 10:24:09.07	329.41	13.99	-45.2	-60.0	3.6	1.51e+00	0	33	104	0	60	40373
2026-01-28 10:24:10.08	329.53	13.87	-45.2	-59.9	3.6	1.51e+00	0	33	104	0	60	40045
2026-01-28 10:24:11.09	329.65	13.75	-45.1	-59.8	3.6	1.51e+00	0	33	104	0	60	39821
2026-01-28 10:24:12.09	329.77	13.63	-45.1	-59.9	3.6	1.51e+00	0	33	104	0	60	40035
2026-01-28 10:24:13.11	329.89	13.51	-45.2	-59.9	3.6	1.51e+00	0	33	104	0	60	39872
2026-01-28 10:24:14.12	330.01	13.40	-45.1	-59.8	3.6	1.51e+00	0	33	104	0	60	39778
2026-01-28 10:24:15.13	330.12	13.28	-45.1	-59.9	3.6	1.51e+00	0	33	104	0	60	39921
2026-01-28 10:24:16.13	330.23	13.16	-45.1	-59.9	3.6	1.51e+00	0	33	104	0	60	39863
2026-01-28 10:24:17.14	330.35	13.05	-45.1	-59.9	3.6	1.51e+00	0	33	104	0	60	40047
2026-01-28 10:24:18.15	330.46	12.93	-45.1	-59.8	3.6	1.51e+00	0	33	104	0	60	39784
2026-01-28 10:24:19.16	330.57	12.82	-45.1	-59.8	3.6	1.51e+00	0	33	104	0	60	39793
2026-01-28 10:24:20.17	330.68	12.70	-45.1	-59.8	3.6	1.51e+00	0	33	104	0	60	39557
2026-01-28 10:24:21.18	330.79	12.59	-45.1	-59.8	3.6	1.51e+00	0	33	104	0	60	39725
2026-01-28 10:24:22.19	330.90	12.48	-45.1	-59.8	3.6	1.51e+00	0	33	104	0	60	39474
2026-01-28 10:24:23.20	331.01	12.37	-45.1	-59.8	3.6	1.51e+00	0	33	104	0	60	39654
2026-01-28 10:24:24.21	331.11	12.25	-45.0	-59.8	3.6	1.51e+00	0	33	104	0	60	39596
2026-01-28 10:24:25.22	331.22	12.14	-45.1	-59.8	3.6	1.51e+00	0	33	104	0	60	39746
2026-01-28 10:24:26.23	331.32	12.03	-45.0	-59.8	3.6	1.51e+00	0	33	104	0	60	39445
2026-01-28 10:24:27.24	331.43	11.92	-45.1	-59.8	3.6	1.51e+00	0	33	104	0	60	39476
2026-01-28 10:24:28.25	331.53	11.81	-45.0	-59.7	3.6	1.51e+00	0	33	104	0	60	39309
2026-01-28 10:24:29.25	331.63	11.71	-45.1	-59.8	3.6	1.51e+00	0	33	104	0	60	39622
2026-01-28 10:24:30.26	331.73	11.60	-45.0	-59.7	3.6	1.51e+00	0	33	104	0	60	39390
2026-01-28 10:24:31.27	331.83	11.49	-45.0	-59.7	3.6	1.51e+00	0	33	104	0	60	39313
2026-01-28 10:24:32.28	331.93	11.38	-45.0	-59.7	3.6	1.51e+00	0	33	104	0	60	39263
2026-01-28 10:24:33.29	332.03	11.28	-45.0	-59.8	3.6	1.51e+00	0	33	104	0	60	39467
2026-01-28 10:24:34.30	332.13	11.17	-45.0	-59.7	3.6	1.51e+00	0	33	104	0	60	39279
2026-01-28 10:24:35.31	332.23	11.07	-45.0	-59.8	3.5	1.51e+00	0	33	104	0	60	39449
2026-01-28 10:24:36.32	332.32	10.96	-45.0	-59.7	3.6	1.51e+00	0	33	104	0	60	39207
2026-01-28 10:24:37.33	332.42	10.86	-45.0	-59.7	3.6	1.51e+00	0	33	104	0	60	39331
2026-01-28 10:24:38.34	332.51	10.75	-45.0	-59.7	3.6	1.51e+00	0	33	104	0	60	39283
2026-01-28 10:24:39.34	332.61	10.65	-44.9	-59.7	3.6	1.51e+00	0	33	104	0	60	39353
2026-01-28 10:24:40.35	332.70	10.55	-44.9	-59.7	3.6	1.51e+00	0	33	104	0	60	39144
2026-01-28 10:24:41.36	332.79	10.45	-45.0	-59.8	3.6	1.51e+00	0	33	104	0	60	39698
2026-01-28 10:24:42.37	332.88	10.35	-44.9	-59.7	3.6	1.51e+00	0	33	104	0	60	39225
2026-01-28 10:24:43.38	332.98	10.24	-44.9	-59.7	3.6	1.51e+00	0	33	104	0	60	38998
2026-01-28 10:24:44.39	333.07	10.14	-44.9	-59.7	3.6	1.51e+00	0	33	104	0	60	39003
2026-01-28 10:24:45.40	333.15	10.04	-45.0	-59.7	3.6	1.51e+00	0	33	104	0	60	39244
2026-01-28 10:24:46.40	333.24	9.94	-44.9	-59.6	3.6	1.51e+00	0	33	104	0	60	38890
2026-01-28 10:24:47.42	333.33	9.84	-44.9	-59.6	3.6	1.51e+00	0	33	104	0	60	38878
2026-01-28 10:24:48.42	333.42	9.75	-44.9	-59.7	3.6	1.51e+00	0	33	104	0	60	39194
2026-01-28 10:24:49.43	333.51	9.65	-44.9	-59.7	3.6	1.51e+00	0	33	104	0	60	39069
2026-01-28 10:24:50.44	333.59	9.55	-44.9	-59.7	3.6	1.51e+00	0	33	104	0	60	38997
2026-01-28 10:24:51.45	333.68	9.45	-44.9	-59.6	3.6	1.51e+00	0	33	104	0	60	38950
2026-01-28 10:24:52.46	333.76	9.36	-44.9	-59.6	3.6	1.51e+00	0	33	104	0	60	38804
2026-01-28 10:24:53.47	333.85	9.26	-44.9	-59.7	3.6	1.51e+00	0	33	104	0	60	39143
2026-01-28 10:24:54.48	333.93	9.16	-44.8	-59.6	3.6	1.51e+00	0	33	104	0	60	38843
2026-01-28 10:24:55.49	334.01	9.07	-44.9	-59.6	3.6	1.51e+00	0	33	104	0	60	38705
2026-01-28 10:24:56.50	334.09	8.97	-44.9	-59.6	3.6	1.51e+00	0	33	104	0	60	38721
2026-01-28 10:24:57.51	334.18	8.88	-44.9	-59.7	3.6	1.51e+00	0	33	104	0	60	39076
2026-01-28 10:24:58.52	334.26	8.79	-44.9	-59.6	3.6	1.51e+00	0	33	104	0	60	38901
2026-01-28 10:24:59.53	334.34	8.69	-44.8	-59.6	3.6	1.51e+00	0	33	104	0	60	38586
2026-01-28 10:25:00.54	334.42	8.60	-44.8	-59.6	3.6	1.51e+00	0	33	104	0	60	38723
2026-01-28 10:25:01.55	334.50	8.51	-44.9	-59.6	3.6	1.51e+00	0	33	104	0	60	38602
2026-01-28 10:25:02.56	334.57	8.41	-44.8	-59.6	3.6	1.51e+00	0	33	104	0	60	38776
2026-01-28 10:25:03.57	334.65	8.32	-44.8	-59.5	3.6	1.51e+00	0	33	104	0	60	38268
2026-01-28 10:25:04.58	334.73	8.23	-44.8	-59.6	3.6	1.51e+00	0	33	104	0	60	38643
2026-01-28 10:25:05.59	334.81	8.14	-44.8	-59.6	3.6	1.51e+00	0	33	104	0	60	38645
2026-01-28 10:25:06.60	334.88	8.05	-44.8	-59.5	3.6	1.51e+00	0	33	104	0	60	38385
2026-01-28 10:25:07.61	334.96	7.96	-44.7	-59.5	3.6	1.51e+00	0	33	104	0	60	38301
2026-01-28 10:25:08.62	335.03	7.87	-44.8	-59.5	3.6	1.51e+00	0	33	104	0	60	38421
2026-01-28 10:25:09.63	335.11	7.78	-44.8	-59.6	3.6	1.51e+00	0	33	104	0	60	38516
2026-01-28 10:25:10.64	335.18	7.69	-44.8	-59.5	3.6	1.51e+00	0	33	104	0	60	38334
2026-01-28 10:25:11.65	335.26	7.60	-44.7	-59.5	3.6	1.51e+00	0	33	104	0	60	38123
2026-01-28 10:25:12.66	335.33	7.51	-44.7	-59.5	3.6	1.51e+00	0	33	104	0	60	38351
2026-01-28 10:25:13.67	335.40	7.42	-44.7	-59.4	3.6	1.51e+00	0	33	104	0	60	37895
2026-01-28 10:25:14.68	335.47	7.34	-44.7	-59.4	3.6	1.51e+00	0	33	104	0	60	37956
2026-01-28 10:25:15.69	335.54	7.25	-44.6	-59.3	3.6	1.51e+00	0	33	104	0	60	37475
2026-01-28 10:25:16.69	335.62	7.16	-44.7	-59.5	3.6	1.51e+00	0	33	104	0	60	38170
2026-01-28 10:25:17.70	335.69	7.08	-44.6	-59.4	3.6	1.51e+00	0	33	104	0	60	37669
2026-01-28 10:25:18.71	335.76	6.99	-44.6	-59.4	3.6	1.51e+00	0	33	104	0	60	37770
2026-01-28 10:25:19.72	335.83	6.90	-44.5	-59.2	3.6	1.51e+00	0	33	104	0	60	37079
2026-01-28 10:25:20.73	335.89	6.82	-44.6	-59.4	3.6	1.51e+00	0	33	104	0	60	37893
2026-01-28 10:25:21.74	335.96	6.73	-44.5	-59.3	3.6	1.51e+00	0	33	104	0	60	37580
2026-01-28 10:25:22.75	336.03	6.65	-44.6	-59.3	3.6	1.51e+00	0	33	104	0	60	37402
2026-01-28 10:25:23.76	336.10	6.56	-44.2	-59.0	3.6	1.51e+00	0	33	104	0	60	35968
2026-01-28 10:25:24.77	336.17	6.48	-44.6	-59.4	3.6	1.51e+00	0	33	104	0	60	37800
2026-01-28 10:25:25.78	336.23	6.40	-43.3	-58.0	3.6	1.51e+00	0	33	104	0	60	32296
2026-01-28 10:25:26.79	336.30	6.31	-44.1	-58.8	3.6	1.51e+00	0	33	104	0	60	35478
2026-01-28 10:25:27.80	336.36	6.23	-42.7	-57.4	3.6	1.51e+00	0	33	104	0	60	30176
2026-01-28 10:25:28.81	336.43	6.15	-42.1	-56.8	3.6	1.51e+00	0	33	104	0	60	28183
2026-01-28 10:25:29.82	336.50	6.06	-41.6	-56.3	3.6	1.51e+00	0	33	104	0	58	29843
2026-01-28 10:25:30.82	336.56	5.98	-40.9	-55.7	3.6	1.51e+00	0	33	104	0	58	27655
2026-01-28 10:25:31.83	336.62	5.90	-42.6	-57.3	3.6	1.51e+00	0	33	104	0	58	33426
2026-01-28 10:25:32.84	336.69	5.82	-44.2	-58.9	3.6	1.51e+00	0	33	104	0	60	35780
2026-01-28 10:25:33.85	336.75	5.74	-41.7	-56.5	3.6	1.51e+00	0	33	104	0	60	27027
2026-01-28 10:25:34.86	336.81	5.66	-43.6	-58.4	3.6	1.51e+00	0	33	104	0	60	33746
2026-01-28 10:25:35.87	336.88	5.58	-41.6	-56.3	3.6	1.51e+00	0	33	104	0	60	26429
2026-01-28 10:25:36.88	336.94	5.50	-41.1	-55.8	3.6	1.51e+00	0	33	104	0	58	28204
2026-01-28 10:25:37.88	337.00	5.42	-40.9	-55.6	3.6	1.51e+00	0	33	104	0	58	27549
2026-01-28 10:25:38.89	337.06	5.34	-40.8	-55.5	3.6	1.51e+00	0	33	104	0	58	27024
2026-01-28 10:25:39.90	337.12	5.26	-41.3	-56.0	3.6	1.51e+00	0	33	104	0	58	28867
2026-01-28 10:25:40.91	337.18	5.18	-43.5	-58.2	3.6	1.51e+00	0	33	104	0	60	33085
2026-01-28 10:25:41.92	337.24	5.10	-41.0	-55.8	3.6	1.51e+00	0	33	104	0	58	28043
2026-01-28 10:25:42.93	337.30	5.02	-41.7	-56.3	3.5	1.51e+00	0	33	104	0	58	29885
2026-01-28 10:25:43.94	337.36	4.94	-41.0	-55.7	3.6	1.51e+00	0	33	104	0	58	27860
2026-01-28 10:25:44.95	337.42	4.86	-40.9	-55.6	3.6	1.51e+00	0	33	104	0	58	27482
2026-01-28 10:25:45.96	337.48	4.79	-40.8	-55.5	3.6	1.51e+00	0	33	104	0	58	27238
2026-01-28 10:25:46.97	337.54	4.71	-40.8	-55.5	3.6	1.51e+00	0	33	104	0	58	26999
2026-01-28 10:25:47.98	337.60	4.63	-40.9	-55.7	3.6	1.51e+00	0	33	104	0	58	27669
2026-01-28 10:25:48.98	337.65	4.56	-42.5	-57.2	3.6	1.51e+00	0	33	104	0	58	32972
2026-01-28 10:25:49.99	337.71	4.48	-40.9	-55.7	3.6	1.51e+00	0	33	104	0	58	27731
2026-01-28 10:25:51.00	337.77	4.40	-41.4	-56.1	3.6	1.51e+00	0	33	104	0	58	29010
2026-01-28 10:25:52.01	337.82	4.33	-41.0	-55.7	3.6	1.51e+00	0	33	104	0	58	27780
2026-01-28 10:25:53.02	337.88	4.25	-40.9	-55.6	3.6	1.51e+00	0	33	104	0	58	27465
2026-01-28 10:25:54.03	337.94	4.18	-40.9	-55.6	3.6	1.51e+00	0	33	104	0	58	27346
2026-01-28 10:25:55.04	337.99	4.10	-40.8	-55.5	3.6	1.51e+00	0	33	104	0	58	27039
2026-01-28 10:25:56.05	338.05	4.03	-40.7	-55.5	3.6	1.51e+00	0	33	104	0	56	30285
2026-01-28 10:25:57.06	338.10	3.95	-41.4	-56.1	3.6	1.51e+00	0	33	104	0	56	32581
2026-01-28 10:25:58.06	338.16	3.88	-40.9	-55.7	3.6	1.51e+00	0	33	104	0	56	31016
2026-01-28 10:25:59.07	338.21	3.80	-40.9	-55.6	3.6	1.51e+00	0	33	104	0	56	30873
2026-01-28 10:26:00.08	338.26	3.73	-40.8	-55.5	3.6	1.51e+00	0	33	104	0	56	30568
2026-01-28 10:26:01.09	338.32	3.66	-40.7	-55.5	3.6	1.51e+00	0	33	104	0	56	30251
2026-01-28 10:26:02.10	338.37	3.58	-40.7	-55.5	3.6	1.51e+00	0	33	104	0	56	30295
2026-01-28 10:26:03.11	338.42	3.51	-40.8	-55.6	3.6	1.51e+00	0	33	104	0	56	30849
2026-01-28 10:26:04.12	338.48	3.44	-40.8	-55.5	3.6	1.51e+00	0	33	104	0	56	30441
2026-01-28 10:26:05.13	338.53	3.36	-41.0	-55.7	3.6	1.51e+00	0	33	104	0	56	31290
2026-01-28 10:26:06.14	338.58	3.29	-41.0	-55.7	3.6	1.51e+00	0	33	104	0	56	31179
2026-01-28 10:26:07.14	338.63	3.22	-40.9	-55.6	3.6	1.51e+00	0	33	104	0	56	30829
2026-01-28 10:26:08.15	338.68	3.15	-41.0	-55.7	3.6	1.51e+00	0	33	104	0	56	31047
2026-01-28 10:26:09.16	338.74	3.08	-41.1	-55.8	3.6	1.51e+00	0	33	104	0	56	31542
2026-01-28 10:26:10.17	338.79	3.01	-41.1	-55.8	3.6	1.51e+00	0	33	104	0	56	31491
2026-01-28 10:26:11.18	338.84	2.93	-40.9	-55.6	3.6	1.51e+00	0	33	104	0	56	30879
2026-01-28 10:26:12.19	338.89	2.86	-43.8	-58.6	3.6	1.51e+00	0	33	104	0	60	34323
2026-01-28 10:26:13.20	338.94	2.79	-44.9	-59.6	3.6	1.51e+00	0	33	104	0	60	38788
2026-01-28 10:26:14.21	338.99	2.72	-45.0	-59.9	3.6	1.51e+00	0	33	104	0	60	39915
2026-01-28 10:26:15.21	339.04	2.65	-45.2	-60.0	3.6	1.51e+00	0	33	104	0	60	40410
2026-01-28 10:26:16.22	339.09	2.58	-45.4	-60.1	3.6	1.51e+00	0	33	104	0	60	41162
2026-01-28 10:26:17.23	339.13	2.51	-45.4	-60.2	3.6	1.51e+00	0	33	104	0	60	41303
2026-01-28 10:26:18.24	339.18	2.44	-45.6	-60.2	3.6	1.51e+00	0	33	104	0	60	41731
2026-01-28 10:26:19.25	339.23	2.37	-45.6	-60.4	3.6	1.51e+00	0	33	104	0	60	42262
2026-01-28 10:26:20.26	339.28	2.30	-45.6	-60.4	3.6	1.51e+00	0	33	104	0	60	42565
2026-01-28 10:26:21.27	339.33	2.23	-45.7	-60.5	3.6	1.51e+00	0	33	104	0	60	42774
2026-01-28 10:26:22.28	339.38	2.17	-45.7	-60.4	3.6	1.51e+00	0	33	104	0	60	42674
2026-01-28 10:26:23.29	339.42	2.10	-45.7	-60.5	3.6	1.51e+00	0	33	104	0	60	43197
2026-01-28 10:26:24.30	339.47	2.03	-45.8	-60.6	3.6	1.51e+00	0	33	104	0	60	43633
2026-01-28 10:26:25.31	339.52	1.96	-45.6	-60.5	3.6	1.51e+00	0	33	104	0	60	43047
2026-01-28 10:26:26.32	339.56	1.89	-45.3	-60.5	3.6	1.51e+00	0	33	104	0	60	42820
2026-01-28 10:26:27.33	339.61	1.82	-45.6	-60.4	3.6	1.51e+00	0	33	104	0	60	42516
2026-01-28 10:26:28.34	339.66	1.76	-45.4	-60.6	3.6	1.51e+00	0	33	104	0	60	43349
2026-01-28 10:26:29.36	339.70	1.69	-45.6	-60.3	3.6	1.51e+00	0	33	104	0	60	41968
2026-01-28 10:26:30.37	339.75	1.62	-45.6	-60.3	3.6	1.51e+00	0	33	104	0	60	41836
2026-01-28 10:26:31.38	339.79	1.55	-45.6	-60.3	3.6	1.51e+00	0	33	104	0	60	41884
2026-01-28 10:26:32.39	339.84	1.49	-45.3	-60.2	3.6	1.51e+00	0	33	104	0	60	41545
2026-01-28 10:26:33.40	339.88	1.42	-45.4	-60.1	3.6	1.51e+00	0	33	104	0	60	41160
2026-01-28 10:26:34.41	339.93	1.35	-46.0	-60.7	3.6	1.51e+00	0	33	104	0	60	44065
2026-01-28 10:26:35.42	339.97	1.29	-45.6	-60.2	3.5	1.51e+00	0	33	104	0	60	41710
2026-01-28 10:26:36.42	340.02	1.22	-45.5	-60.2	3.6	1.51e+00	0	33	104	0	60	41654
2026-01-28 10:26:37.43	340.06	1.16	-45.5	-60.2	3.6	1.51e+00	0	33	104	0	60	41602
2026-01-28 10:26:38.44	340.10	1.09	-45.5	-60.2	3.6	1.51e+00	0	33	104	0	60	41639
2026-01-28 10:26:39.45	340.15	1.03	-45.5	-60.2	3.6	1.51e+00	0	33	104	0	60	41579
2026-01-28 10:26:40.46	340.19	0.96	-45.5	-60.1	3.6	1.51e+00	0	33	104	0	60	41213
2026-01-28 10:26:41.47	340.24	0.90	-45.5	-60.2	3.6	1.51e+00	0	33	104	0	60	41463
2026-01-28 10:26:42.48	340.28	0.83	-45.5	-60.2	3.6	1.51e+00	0	33	104	0	60	41524
2026-01-28 10:26:43.49	340.32	0.77	-45.5	-60.2	3.6	1.51e+00	0	33	104	0	60	41369
2026-01-28 10:26:44.50	340.36	0.70	-45.5	-60.2	3.5	1.51e+00	0	33	104	0	60	41368
2026-01-28 10:26:45.51	340.41	0.64	-45.4	-60.1	3.6	1.51e+00	0	33	104	0	60	41166
2026-01-28 10:26:46.52	340.45	0.57	-45.5	-60.1	3.6	1.51e+00	0	33	104	0	60	41160
2026-01-28 10:26:47.53	340.49	0.51	-45.4	-60.2	3.6	1.51e+00	0	33	104	0	60	41267
2026-01-28 10:26:48.54	340.53	0.44	-45.4	-60.2	3.6	1.51e+00	0	33	104	0	60	41375
2026-01-28 10:26:49.55	340.57	0.38	-45.4	-60.1	3.6	1.51e+00	0	33	104	0	60	41247
2026-01-28 10:26:50.56	340.61	0.32	-45.4	-60.2	3.6	1.51e+00	0	33	104	0	60	41471
2026-01-28 10:26:51.57	340.66	0.25	-45.4	-60.2	3.6	1.51e+00	0	33	104	0	60	41393
2026-01-28 10:26:52.58	340.70	0.19	-45.4	-60.1	3.6	1.51e+00	0	33	104	0	60	41117
2026-01-28 10:26:53.59	340.74	0.13	-45.4	-60.1	3.6	1.51e+00	0	33	104	0	60	41168
2026-01-28 10:26:54.60	340.78	0.06	-45.4	-60.1	3.6	1.51e+00	0	33	104	0	60	40913
2026-01-28 10:26:55.61	340.82	0.00	-45.4	-60.1	3.6	1.51e+00	0	33	104	0	60	41029
2026-01-28 10:26:56.62	340.86	-0.06	-45.4	-60.1	3.6	1.51e+00	0	33	104	0	60	41129

#Closed at: 2026-01-28 10:26:56
#Recorded file [0 MB]: D:/lorett/data/35029_260128_221532.dat