passes_logs/2026/01/28/R4.6S_Anadyr/R4.6S_Anadyr__20260128_163756_FENGYUN_3D_rec.log

#Pass ID: 20260128_163756_FENGYUN 3D
#Satellite: FENGYUN 3D
#Configuration: FENGYUN 3D
#almurnet v.1.7.20251203
#Start time: 2026-01-28 16:37:59

#Version: 2.2.20231116
#Station: R4.6S_Anadyr
#Location: 177.4865 lon 64.73178 lat
#TLE: 1 43010U 17072A   26027.90082829  .00000305  00000+0  16579-3 0  9998
#TLE: 2 43010  98.9960 359.9183 0002511  88.1058 272.0405 14.19701796425082

#Time	Az	El	Level	Level2	SNR	BER	BlckErr	Temp	State	Recorded	gain1	gain2
2026-01-28 16:37:59.66	20.69	0.21	-48.7	-59.4	3.3	8.40e-01	0	31	0	0	60	33913
2026-01-28 16:38:00.67	20.71	0.27	-48.7	-60.9	3.6	8.45e-01	0	31	104	0	60	40112
2026-01-28 16:38:01.68	20.72	0.33	-48.8	-60.9	3.6	8.46e-01	0	31	104	0	60	40180
2026-01-28 16:38:02.69	20.73	0.39	-48.8	-60.9	3.6	8.45e-01	0	31	104	0	60	40173
2026-01-28 16:38:03.69	20.74	0.45	-48.8	-60.9	3.6	8.45e-01	0	31	104	0	60	40272
2026-01-28 16:38:04.70	20.75	0.51	-48.8	-61.0	3.6	8.44e-01	0	31	104	0	60	40454
2026-01-28 16:38:05.71	20.76	0.57	-48.9	-61.0	3.6	8.46e-01	0	31	104	0	60	40452
2026-01-28 16:38:06.72	20.77	0.63	-48.8	-61.0	3.6	8.45e-01	0	31	104	0	60	40357
2026-01-28 16:38:07.73	20.78	0.69	-48.8	-61.0	3.6	8.46e-01	0	31	104	0	60	40730
2026-01-28 16:38:08.74	20.79	0.75	-48.8	-60.9	3.6	8.46e-01	0	31	104	0	60	40297
2026-01-28 16:38:09.75	20.80	0.82	-48.8	-60.8	3.6	8.46e-01	0	31	104	0	60	39861
2026-01-28 16:38:10.76	20.82	0.88	-48.7	-60.8	3.6	8.46e-01	0	31	104	0	60	39722
2026-01-28 16:38:11.77	20.83	0.94	-48.7	-60.8	3.6	8.45e-01	0	31	104	0	60	39804
2026-01-28 16:38:12.78	20.84	1.00	-48.6	-60.7	3.6	8.46e-01	0	31	104	0	60	39222
2026-01-28 16:38:13.79	20.85	1.06	-48.5	-60.6	3.6	8.46e-01	0	31	104	0	60	38928
2026-01-28 16:38:14.80	20.86	1.13	-48.4	-60.5	3.6	8.46e-01	0	31	104	0	60	38078
2026-01-28 16:38:15.81	20.87	1.19	-48.2	-60.3	3.6	8.46e-01	0	32	104	0	60	37559
2026-01-28 16:38:16.81	20.88	1.25	-48.2	-60.3	3.6	8.46e-01	0	31	104	0	60	37205
2026-01-28 16:38:17.82	20.89	1.31	-48.0	-60.1	3.6	8.45e-01	0	32	104	0	60	36612
2026-01-28 16:38:18.83	20.91	1.37	-47.9	-60.0	3.6	8.46e-01	0	32	104	0	60	36082
2026-01-28 16:38:19.84	20.92	1.44	-47.7	-59.8	3.6	8.46e-01	0	32	104	0	60	35365
2026-01-28 16:38:20.85	20.93	1.50	-47.4	-59.3	3.6	8.45e-01	0	32	104	0	60	33170
2026-01-28 16:38:21.86	20.94	1.56	-47.4	-59.1	3.6	8.45e-01	0	32	104	0	60	32667
2026-01-28 16:38:22.87	20.95	1.63	-47.4	-59.1	3.6	8.45e-01	0	32	104	0	60	32589
2026-01-28 16:38:23.88	20.96	1.69	-47.4	-59.2	3.6	8.45e-01	0	31	104	0	60	33047
2026-01-28 16:38:24.89	20.97	1.75	-47.4	-59.5	3.6	8.46e-01	0	32	104	0	60	33933
2026-01-28 16:38:25.90	20.99	1.82	-47.4	-59.4	3.6	8.45e-01	0	32	104	0	60	33826
2026-01-28 16:38:26.91	21.00	1.88	-47.4	-59.5	3.6	8.45e-01	0	32	104	0	60	34085
2026-01-28 16:38:27.92	21.01	1.95	-47.4	-59.5	3.6	8.45e-01	0	32	104	0	60	34025
2026-01-28 16:38:28.93	21.02	2.01	-47.4	-59.6	3.6	8.45e-01	0	32	104	0	60	34363
2026-01-28 16:38:29.93	21.03	2.07	-47.4	-59.5	3.6	8.45e-01	0	32	104	0	60	33997
2026-01-28 16:38:30.94	21.04	2.14	-47.4	-59.1	3.6	8.44e-01	0	32	104	0	60	32465
2026-01-28 16:38:31.95	21.06	2.20	-47.3	-58.7	3.6	8.45e-01	0	32	104	0	60	31182
2026-01-28 16:38:32.96	21.07	2.27	-47.3	-57.8	3.6	8.44e-01	0	32	104	0	60	28158
2026-01-28 16:38:33.97	21.08	2.33	-47.2	-57.2	3.6	8.45e-01	0	32	104	0	60	26281
2026-01-28 16:38:34.98	21.09	2.40	-47.0	-55.1	3.7	8.33e-01	0	32	0	0	60	20506
2026-01-28 16:38:35.99	21.10	2.46	-47.0	-55.9	4.1	8.40e-01	0	32	104	0	60	22437
2026-01-28 16:38:37.00	21.12	2.53	-47.0	-54.6	3.7	8.30e-01	0	32	104	0	60	19374
2026-01-28 16:38:38.01	21.13	2.59	-47.2	-56.8	3.8	8.39e-01	0	32	104	0	60	25128
2026-01-28 16:38:39.02	21.14	2.66	-47.2	-57.2	3.6	8.43e-01	0	32	104	0	60	26323
2026-01-28 16:38:40.03	21.15	2.73	-47.0	-54.8	4.0	8.41e-01	0	32	0	0	60	19872
2026-01-28 16:38:41.04	21.16	2.79	-46.7	-52.6	5.0	7.72e-01	0	32	0	0	60	15364
2026-01-28 16:38:42.05	21.18	2.86	-45.9	-50.2	7.5	3.02e-01	0	32	0	5242880	60	11631
2026-01-28 16:38:43.06	21.19	2.92	-44.6	-47.7	10.3	1.53e-02	0	32	0	10485760	60	8763
2026-01-28 16:38:44.07	21.20	2.99	-43.1	-45.3	12.5	1.13e-04	0	32	0	15728640	60	6677
2026-01-28 16:38:45.08	21.21	3.06	-41.7	-43.3	15.3	0.00e+00	0	32	0	22020096	56	6684
2026-01-28 16:38:46.08	21.22	3.12	-40.4	-41.7	16.8	0.00e+00	0	32	0	27262976	54	6202
2026-01-28 16:38:47.10	21.24	3.19	-39.0	-40.1	18.3	0.00e+00	0	32	0	33554432	52	5811
2026-01-28 16:38:48.10	21.25	3.26	-38.4	-39.5	19.1	0.00e+00	0	32	0	38797312	50	6042
2026-01-28 16:38:49.12	21.26	3.32	-37.8	-38.8	19.7	0.00e+00	0	32	0	44040192	50	5595
2026-01-28 16:38:50.12	21.27	3.39	-38.0	-39.0	19.5	0.00e+00	0	32	0	50331648	50	5708
2026-01-28 16:38:51.14	21.29	3.46	-38.7	-39.8	18.9	0.00e+00	0	32	0	55574528	48	7050
2026-01-28 16:38:52.15	21.30	3.53	-38.3	-39.3	18.7	0.00e+00	0	32	0	61865984	48	6672
2026-01-28 16:38:53.16	21.31	3.60	-39.6	-40.8	17.8	0.00e+00	0	32	0	67108864	50	7021
2026-01-28 16:38:54.17	21.32	3.66	-38.9	-40.0	18.8	0.00e+00	0	32	0	72351744	52	5714
2026-01-28 16:38:55.18	21.34	3.73	-36.6	-37.5	21.1	0.00e+00	0	32	0	78643200	46	6057
2026-01-28 16:38:56.19	21.35	3.80	-39.4	-40.5	18.4	0.00e+00	0	32	0	83886080	56	4837
2026-01-28 16:38:57.20	21.36	3.87	-47.2	-58.1	3.6	8.44e-01	0	32	104	87031808	60	29045
2026-01-28 16:38:58.21	21.37	3.94	-42.9	-45.0	13.9	4.69e-05	0	32	0	89128960	60	6404
2026-01-28 16:38:59.21	21.39	4.01	-47.4	-58.7	3.6	8.45e-01	0	32	104	91226112	60	31242
2026-01-28 16:39:00.22	21.40	4.07	-42.6	-44.7	13.4	8.03e-01	0	32	104	91226112	58	6934
2026-01-28 16:39:01.23	21.41	4.14	-42.4	-44.3	14.3	6.80e-06	0	32	0	93323264	58	6617
2026-01-28 16:39:02.25	21.42	4.21	-41.9	-43.6	15.2	1.25e-05	0	32	0	99614720	58	6128
2026-01-28 16:39:03.26	21.44	4.28	-39.5	-40.7	18.0	0.00e+00	0	32	0	104857600	52	6205
2026-01-28 16:39:04.27	21.45	4.35	-39.7	-41.0	17.8	0.00e+00	0	32	0	110100480	52	6399
2026-01-28 16:39:05.28	21.46	4.42	-39.5	-40.7	17.6	0.00e+00	0	32	0	116391936	52	6184
2026-01-28 16:39:06.29	21.48	4.49	-40.3	-41.6	16.9	0.00e+00	0	32	0	121634816	52	6912
2026-01-28 16:39:07.30	21.49	4.56	-40.2	-41.4	17.6	0.00e+00	0	32	0	127926272	54	6020
2026-01-28 16:39:08.31	21.50	4.63	-39.7	-40.9	17.6	0.00e+00	0	32	0	133169152	52	6375
2026-01-28 16:39:09.31	21.51	4.70	-40.7	-42.1	16.8	0.00e+00	0	32	0	139460608	52	7305
2026-01-28 16:39:10.33	21.53	4.78	-40.1	-41.3	17.4	0.00e+00	0	32	0	144703488	52	6687
2026-01-28 16:39:11.34	21.54	4.85	-39.4	-40.5	18.3	0.00e+00	0	32	0	150994944	52	6071
2026-01-28 16:39:12.35	21.55	4.92	-38.2	-39.3	19.5	0.00e+00	0	32	0	156237824	50	5905
2026-01-28 16:39:13.35	21.57	4.99	-39.0	-40.1	18.6	0.00e+00	0	32	0	161480704	50	6488
2026-01-28 16:39:14.36	21.58	5.06	-37.9	-38.8	20.1	0.00e+00	0	32	0	167772160	50	5625
2026-01-28 16:39:15.37	21.59	5.13	-36.8	-37.6	20.9	0.00e+00	0	32	0	173015040	48	5487
2026-01-28 16:39:16.38	21.61	5.20	-37.1	-38.0	20.8	0.00e+00	0	32	0	179306496	46	6461
2026-01-28 16:39:17.39	21.62	5.28	-36.9	-37.8	21.0	0.00e+00	0	32	0	184549376	46	6255
2026-01-28 16:39:18.40	21.63	5.35	-36.0	-36.9	21.8	0.00e+00	0	32	0	189792256	46	5631
2026-01-28 16:39:19.40	21.65	5.42	-36.2	-37.1	21.6	0.00e+00	0	32	0	196083712	46	5770
2026-01-28 16:39:20.41	21.66	5.49	-35.7	-36.5	22.2	0.00e+00	0	32	0	201326592	44	6055
2026-01-28 16:39:21.42	21.67	5.57	-35.9	-36.7	22.1	0.00e+00	0	32	0	206569472	44	6210
2026-01-28 16:39:22.43	21.69	5.64	-35.6	-36.4	22.3	0.00e+00	0	32	0	212860928	44	5986
2026-01-28 16:39:23.44	21.70	5.71	-35.3	-36.1	22.5	0.00e+00	0	32	0	218103808	44	5803
2026-01-28 16:39:24.45	21.72	5.79	-35.2	-36.0	22.6	0.00e+00	0	32	0	224395264	44	5717
2026-01-28 16:39:25.46	21.73	5.86	-35.1	-35.9	22.8	0.00e+00	0	32	0	229638144	44	5666
2026-01-28 16:39:26.47	21.74	5.94	-35.2	-35.9	22.8	0.00e+00	0	32	0	235929600	44	5671
2026-01-28 16:39:27.48	21.76	6.01	-35.0	-35.7	22.9	0.00e+00	0	32	0	241172480	44	5558
2026-01-28 16:39:28.49	21.77	6.08	-35.0	-35.8	23.0	0.00e+00	0	32	0	247463936	44	5569
2026-01-28 16:39:29.50	21.79	6.16	-35.3	-36.1	22.6	0.00e+00	0	32	0	252706816	44	5782
2026-01-28 16:39:30.51	21.80	6.23	-35.6	-36.4	22.3	0.00e+00	0	32	0	257949696	44	5997
2026-01-28 16:39:31.52	21.81	6.31	-35.1	-35.9	22.9	0.00e+00	0	32	0	264241152	44	5641
2026-01-28 16:39:32.52	21.83	6.38	-35.1	-35.9	23.0	0.00e+00	0	32	0	269484032	44	5671
2026-01-28 16:39:33.53	21.84	6.46	-34.8	-35.5	23.3	0.00e+00	0	32	0	275775488	44	5427
2026-01-28 16:39:34.55	21.86	6.54	-34.5	-35.3	23.4	0.00e+00	0	32	0	281018368	42	5934
2026-01-28 16:39:35.55	21.87	6.61	-34.9	-35.7	23.1	0.00e+00	0	32	0	286261248	42	6183
2026-01-28 16:39:36.56	21.88	6.69	-35.0	-35.7	23.0	0.00e+00	0	32	0	292552704	42	6226
2026-01-28 16:39:37.57	21.90	6.76	-34.5	-35.3	23.4	0.00e+00	0	32	0	297795584	42	5919
2026-01-28 16:39:38.58	21.91	6.84	-34.5	-35.2	23.4	0.00e+00	0	32	0	304087040	42	5877
2026-01-28 16:39:39.59	21.93	6.92	-34.4	-35.1	23.5	0.00e+00	0	32	0	309329920	42	5778
2026-01-28 16:39:40.60	21.94	7.00	-34.3	-35.0	23.8	0.00e+00	0	32	0	314572800	42	5742
2026-01-28 16:39:41.61	21.96	7.07	-34.0	-34.8	24.0	0.00e+00	0	32	0	320864256	42	5574
2026-01-28 16:39:42.62	21.97	7.15	-34.2	-34.9	23.8	0.00e+00	0	32	0	326107136	42	5655
2026-01-28 16:39:43.64	21.99	7.23	-34.1	-34.8	23.9	0.00e+00	0	32	0	332398592	42	5598
2026-01-28 16:39:44.65	22.00	7.31	-34.2	-34.9	24.0	0.00e+00	0	32	0	337641472	42	5639
2026-01-28 16:39:45.65	22.02	7.38	-34.1	-34.8	24.1	0.00e+00	0	32	0	343932928	40	6291
2026-01-28 16:39:46.66	22.03	7.46	-34.0	-34.7	24.1	0.00e+00	0	32	0	349175808	40	6234
2026-01-28 16:39:47.68	22.05	7.54	-34.1	-34.9	23.9	0.00e+00	0	32	0	355467264	40	6333
2026-01-28 16:39:48.69	22.06	7.62	-34.0	-34.7	24.0	0.00e+00	0	32	0	360710144	40	6239
2026-01-28 16:39:49.70	22.08	7.70	-33.9	-34.6	24.1	0.00e+00	0	32	0	365953024	40	6116
2026-01-28 16:39:50.71	22.09	7.78	-34.0	-34.7	23.9	0.00e+00	0	32	0	372244480	40	6239
2026-01-28 16:39:51.72	22.11	7.86	-33.6	-34.3	24.3	0.00e+00	0	32	0	377487360	40	5940
2026-01-28 16:39:52.73	22.12	7.94	-33.9	-34.6	24.1	0.00e+00	0	32	0	383778816	40	6121
2026-01-28 16:39:53.74	22.14	8.02	-33.8	-34.5	24.3	0.00e+00	0	32	0	389021696	40	6038
2026-01-28 16:39:54.74	22.15	8.10	-33.9	-34.6	24.2	0.00e+00	0	32	0	394264576	40	6135
2026-01-28 16:39:55.75	22.17	8.18	-33.8	-34.5	24.2	0.00e+00	0	32	0	400556032	40	6088
2026-01-28 16:39:56.76	22.18	8.26	-33.7	-34.5	24.3	0.00e+00	0	32	0	405798912	40	6046
2026-01-28 16:39:57.77	22.20	8.34	-33.6	-34.3	24.5	0.00e+00	0	32	0	411041792	40	5925
2026-01-28 16:39:58.78	22.21	8.43	-33.6	-34.3	24.5	0.00e+00	0	32	0	417333248	40	5936
2026-01-28 16:39:59.79	22.23	8.51	-33.7	-34.4	24.4	0.00e+00	0	32	0	422576128	40	6015
2026-01-28 16:40:00.80	22.24	8.59	-33.6	-34.3	24.5	0.00e+00	0	32	0	428867584	40	5950
2026-01-28 16:40:01.81	22.26	8.67	-33.7	-34.4	24.4	0.00e+00	0	32	0	434110464	40	6011
2026-01-28 16:40:02.82	22.28	8.76	-33.7	-34.4	24.5	0.00e+00	0	32	0	440401920	40	5981
2026-01-28 16:40:03.82	22.29	8.84	-33.9	-34.7	24.2	0.00e+00	0	32	0	445644800	40	6175
2026-01-28 16:40:04.83	22.31	8.92	-33.6	-34.3	24.5	0.00e+00	0	32	0	451936256	40	5956
2026-01-28 16:40:05.84	22.32	9.00	-33.5	-34.2	24.7	0.00e+00	0	32	0	457179136	40	5837
2026-01-28 16:40:06.85	22.34	9.09	-33.4	-34.1	24.7	0.00e+00	0	32	0	462422016	40	5802
2026-01-28 16:40:07.86	22.36	9.17	-33.4	-34.1	24.7	0.00e+00	0	32	0	468713472	40	5790
2026-01-28 16:40:08.87	22.37	9.26	-33.5	-34.3	24.5	0.00e+00	0	32	0	473956352	40	5898
2026-01-28 16:40:09.88	22.39	9.34	-33.5	-34.2	24.6	0.00e+00	0	32	0	480247808	40	5853
2026-01-28 16:40:10.89	22.40	9.43	-33.3	-34.0	24.8	0.00e+00	0	32	0	485490688	40	5748
2026-01-28 16:40:11.90	22.42	9.51	-33.5	-34.2	24.6	0.00e+00	0	32	0	490733568	40	5860
2026-01-28 16:40:12.91	22.44	9.60	-33.5	-34.2	24.7	0.00e+00	0	32	0	497025024	40	5850
2026-01-28 16:40:13.92	22.45	9.68	-33.3	-34.0	24.9	0.00e+00	0	32	0	502267904	40	5726
2026-01-28 16:40:14.93	22.47	9.77	-33.4	-34.1	24.8	0.00e+00	0	32	0	508559360	40	5792
2026-01-28 16:40:15.94	22.49	9.86	-33.3	-34.0	24.8	0.00e+00	0	32	0	513802240	40	5757
2026-01-28 16:40:16.95	22.50	9.94	-33.3	-34.0	24.8	0.00e+00	0	32	0	519045120	40	5734
2026-01-28 16:40:17.96	22.52	10.03	-33.2	-33.9	24.9	0.00e+00	0	32	0	525336576	40	5655
2026-01-28 16:40:18.96	22.54	10.12	-33.2	-33.9	25.0	0.00e+00	0	32	0	530579456	40	5665
2026-01-28 16:40:19.97	22.55	10.20	-33.1	-33.7	25.1	0.00e+00	0	32	0	536870912	40	5562
2026-01-28 16:40:20.98	22.57	10.29	-33.2	-33.9	24.9	0.00e+00	0	32	0	542113792	40	5653
2026-01-28 16:40:21.99	22.59	10.38	-33.2	-33.9	24.9	0.00e+00	0	32	0	548405248	40	5683
2026-01-28 16:40:23.00	22.61	10.47	-33.1	-33.8	25.1	0.00e+00	0	32	0	553648128	40	5609
2026-01-28 16:40:24.01	22.62	10.56	-33.0	-33.7	25.3	0.00e+00	0	32	0	558891008	40	5519
2026-01-28 16:40:25.02	22.64	10.65	-33.2	-33.8	25.0	0.00e+00	0	32	0	565182464	40	5618
2026-01-28 16:40:26.03	22.66	10.74	-33.1	-33.8	25.0	0.00e+00	0	32	0	570425344	40	5629
2026-01-28 16:40:27.04	22.68	10.83	-33.3	-33.9	24.9	0.00e+00	0	32	0	576716800	40	5690
2026-01-28 16:40:28.05	22.69	10.92	-33.4	-34.1	24.7	0.00e+00	0	32	0	581959680	40	5794
2026-01-28 16:40:29.06	22.71	11.01	-33.2	-33.9	24.9	0.00e+00	0	32	0	587202560	40	5682
2026-01-28 16:40:30.07	22.73	11.10	-33.3	-34.0	24.9	0.00e+00	0	32	0	593494016	40	5712
2026-01-28 16:40:31.08	22.75	11.19	-33.2	-33.9	24.9	0.00e+00	0	32	0	598736896	40	5676
2026-01-28 16:40:32.09	22.76	11.28	-33.2	-33.9	25.0	0.00e+00	0	32	0	605028352	40	5664
2026-01-28 16:40:33.10	22.78	11.37	-33.1	-33.8	25.0	0.00e+00	0	32	0	610271232	40	5569
2026-01-28 16:40:34.11	22.80	11.46	-33.0	-33.7	25.2	0.00e+00	0	32	0	615514112	40	5512
2026-01-28 16:40:35.12	22.82	11.56	-33.1	-33.8	25.1	0.00e+00	0	32	0	621805568	40	5588
2026-01-28 16:40:36.13	22.84	11.65	-33.1	-33.8	25.2	0.00e+00	0	32	0	627048448	40	5585
2026-01-28 16:40:37.14	22.86	11.74	-33.1	-33.8	25.1	0.00e+00	0	32	0	633339904	40	5567
2026-01-28 16:40:38.15	22.87	11.84	-33.1	-33.7	25.2	0.00e+00	0	32	0	638582784	40	5564
2026-01-28 16:40:39.16	22.89	11.93	-33.1	-33.8	25.1	0.00e+00	0	32	0	644874240	40	5579
2026-01-28 16:40:40.17	22.91	12.03	-33.2	-33.9	25.0	0.00e+00	0	32	0	650117120	40	5632
2026-01-28 16:40:41.18	22.93	12.12	-33.2	-33.9	25.0	0.00e+00	0	32	0	656408576	40	5644
2026-01-28 16:40:42.19	22.95	12.22	-33.4	-34.0	24.9	0.00e+00	0	32	0	661651456	40	5760
2026-01-28 16:40:43.20	22.97	12.31	-33.2	-33.9	25.1	0.00e+00	0	32	0	666894336	40	5681
2026-01-28 16:40:44.21	22.99	12.41	-33.1	-33.8	25.2	0.00e+00	0	32	0	673185792	40	5582
2026-01-28 16:40:45.22	23.01	12.50	-33.1	-33.7	25.1	0.00e+00	0	32	0	678428672	40	5562
2026-01-28 16:40:46.23	23.02	12.60	-33.3	-34.0	25.0	0.00e+00	0	32	0	683671552	40	5716
2026-01-28 16:40:47.23	23.04	12.70	-33.1	-33.8	25.2	0.00e+00	0	32	0	689963008	40	5589
2026-01-28 16:40:48.24	23.06	12.79	-33.0	-33.7	25.3	0.00e+00	0	32	0	695205888	40	5537
2026-01-28 16:40:49.25	23.08	12.89	-33.0	-33.7	25.2	0.00e+00	0	32	0	701497344	40	5516
2026-01-28 16:40:50.26	23.10	12.99	-33.1	-33.8	25.1	0.00e+00	0	32	0	706740224	40	5571
2026-01-28 16:40:51.27	23.12	13.09	-33.0	-33.7	25.3	0.00e+00	0	32	0	711983104	40	5520
2026-01-28 16:40:52.28	23.14	13.19	-33.1	-33.8	25.1	0.00e+00	0	32	0	718274560	40	5607
2026-01-28 16:40:53.29	23.16	13.29	-33.1	-33.8	25.1	0.00e+00	0	32	0	723517440	40	5610
2026-01-28 16:40:54.30	23.18	13.39	-32.9	-33.6	25.3	0.00e+00	0	32	0	729808896	40	5475
2026-01-28 16:40:55.31	23.20	13.49	-33.1	-33.7	25.2	0.00e+00	0	32	0	735051776	40	5558
2026-01-28 16:40:56.32	23.22	13.59	-32.9	-33.6	25.3	0.00e+00	0	32	0	741343232	40	5497
2026-01-28 16:40:57.32	23.24	13.69	-32.8	-33.5	25.4	0.00e+00	0	32	0	746586112	38	6068
2026-01-28 16:40:58.33	23.26	13.79	-32.7	-33.4	25.5	0.00e+00	0	32	0	752877568	38	5989
2026-01-28 16:40:59.34	23.28	13.89	-32.7	-33.4	25.4	0.00e+00	0	32	0	758120448	38	6001
2026-01-28 16:41:00.36	23.30	13.99	-32.6	-33.3	25.6	0.00e+00	0	32	0	763363328	38	5922
2026-01-28 16:41:01.36	23.32	14.10	-32.6	-33.3	25.7	0.00e+00	0	32	0	769654784	38	5912
2026-01-28 16:41:02.37	23.35	14.20	-32.6	-33.2	25.7	0.00e+00	0	32	0	774897664	38	5882
2026-01-28 16:41:03.38	23.37	14.30	-32.4	-33.1	25.8	0.00e+00	0	32	0	781189120	38	5819
2026-01-28 16:41:04.39	23.39	14.41	-32.5	-33.2	25.8	0.00e+00	0	32	0	786432000	38	5849
2026-01-28 16:41:05.40	23.41	14.51	-32.4	-33.0	25.8	0.00e+00	0	32	0	791674880	38	5748
2026-01-28 16:41:06.41	23.43	14.62	-32.3	-32.9	25.9	0.00e+00	0	32	0	797966336	38	5678
2026-01-28 16:41:07.42	23.45	14.72	-32.3	-33.0	25.9	0.00e+00	0	32	0	803209216	38	5701
2026-01-28 16:41:08.43	23.47	14.83	-32.1	-32.8	26.1	0.00e+00	0	32	0	809500672	38	5609
2026-01-28 16:41:09.45	23.50	14.93	-32.2	-32.8	26.0	0.00e+00	0	32	0	814743552	38	5626
2026-01-28 16:41:10.46	23.52	15.04	-32.0	-32.7	26.2	0.00e+00	0	32	0	819986432	38	5516
2026-01-28 16:41:11.47	23.54	15.15	-32.2	-32.9	26.0	0.00e+00	0	32	0	826277888	38	5636
2026-01-28 16:41:12.48	23.56	15.26	-32.0	-32.6	26.2	0.00e+00	0	32	0	831520768	38	5481
2026-01-28 16:41:13.49	23.58	15.36	-32.0	-32.6	26.2	0.00e+00	0	32	0	837812224	38	5496
2026-01-28 16:41:14.50	23.61	15.47	-31.9	-32.5	26.4	0.00e+00	0	32	0	843055104	38	5395
2026-01-28 16:41:15.51	23.63	15.58	-31.8	-32.4	26.5	0.00e+00	0	32	0	849346560	36	6014
2026-01-28 16:41:16.52	23.65	15.69	-31.6	-32.3	26.5	0.00e+00	0	32	0	854589440	36	5907
2026-01-28 16:41:17.52	23.67	15.80	-31.8	-32.4	26.4	0.00e+00	0	32	0	859832320	36	6015
2026-01-28 16:41:18.54	23.70	15.91	-31.5	-32.1	26.7	0.00e+00	0	32	0	866123776	36	5827
2026-01-28 16:41:19.55	23.72	16.02	-31.7	-32.3	26.4	0.00e+00	0	32	0	871366656	36	5922
2026-01-28 16:41:20.56	23.74	16.14	-31.4	-32.1	26.8	0.00e+00	0	32	0	877658112	36	5763
2026-01-28 16:41:21.57	23.77	16.25	-31.4	-32.0	26.7	0.00e+00	0	32	0	882900992	36	5751
2026-01-28 16:41:22.58	23.79	16.36	-31.3	-31.9	26.7	0.00e+00	0	32	0	889192448	36	5636
2026-01-28 16:41:23.59	23.81	16.47	-31.2	-31.9	26.9	0.00e+00	0	32	0	894435328	36	5649
2026-01-28 16:41:24.60	23.84	16.59	-31.3	-31.9	26.9	0.00e+00	0	32	0	899678208	36	5683
2026-01-28 16:41:25.61	23.86	16.70	-31.2	-31.9	26.9	0.00e+00	0	32	0	905969664	36	5631
2026-01-28 16:41:26.62	23.89	16.82	-31.1	-31.8	27.0	0.00e+00	0	32	0	911212544	36	5581
2026-01-28 16:41:27.63	23.91	16.93	-31.3	-31.9	27.0	0.00e+00	0	32	0	917504000	36	5675
2026-01-28 16:41:28.64	23.93	17.05	-31.1	-31.7	27.0	0.00e+00	0	32	0	922746880	36	5528
2026-01-28 16:41:29.65	23.96	17.16	-31.1	-31.7	26.9	0.00e+00	0	32	0	927989760	36	5565
2026-01-28 16:41:30.66	23.98	17.28	-31.1	-31.8	27.0	0.00e+00	0	32	0	934281216	36	5572
2026-01-28 16:41:31.67	24.01	17.40	-31.2	-31.9	26.9	0.00e+00	0	32	0	939524096	36	5654
2026-01-28 16:41:32.68	24.03	17.52	-31.3	-31.9	26.7	0.00e+00	0	32	0	945815552	36	5682
2026-01-28 16:41:33.69	24.06	17.64	-31.3	-31.9	26.9	0.00e+00	0	32	0	951058432	36	5664
2026-01-28 16:41:34.70	24.08	17.75	-31.0	-31.7	27.1	0.00e+00	0	32	0	957349888	36	5506
2026-01-28 16:41:35.70	24.11	17.87	-31.1	-31.7	27.0	0.00e+00	0	32	0	962592768	36	5556
2026-01-28 16:41:36.72	24.13	18.00	-31.1	-31.7	27.0	0.00e+00	0	32	0	967835648	36	5565
2026-01-28 16:41:37.72	24.16	18.12	-31.1	-31.7	27.0	0.00e+00	0	32	0	974127104	36	5545
2026-01-28 16:41:38.74	24.19	18.24	-31.2	-31.9	27.0	0.00e+00	0	32	0	979369984	36	5649
2026-01-28 16:41:39.74	24.21	18.36	-30.9	-31.6	27.2	0.00e+00	0	33	0	985661440	36	5466
2026-01-28 16:41:40.75	24.24	18.48	-30.9	-31.5	27.2	0.00e+00	0	32	0	990904320	36	5420
2026-01-28 16:41:41.76	24.26	18.61	-30.9	-31.5	27.3	0.00e+00	0	32	0	996147200	36	5424
2026-01-28 16:41:42.78	24.29	18.73	-31.0	-31.6	27.2	0.00e+00	0	32	0	1002438656	36	5465
2026-01-28 16:41:43.79	24.32	18.86	-30.9	-31.5	27.2	0.00e+00	0	32	0	1007681536	36	5430
2026-01-28 16:41:44.80	24.35	18.98	-31.0	-31.6	27.2	0.00e+00	0	32	0	1013972992	36	5471
2026-01-28 16:41:45.80	24.37	19.11	-30.9	-31.5	27.3	0.00e+00	0	32	0	1019215872	36	5433
2026-01-28 16:41:46.81	24.40	19.23	-30.9	-31.6	27.2	0.00e+00	0	32	0	1024458752	36	5448
2026-01-28 16:41:47.82	24.43	19.36	-31.0	-31.6	27.3	0.00e+00	0	32	0	1030750208	36	5472
2026-01-28 16:41:48.83	24.46	19.49	-30.9	-31.5	27.2	0.00e+00	0	32	0	1035993088	36	5424
2026-01-28 16:41:49.84	24.48	19.62	-30.9	-31.5	27.3	0.00e+00	0	32	0	1042284544	36	5435
2026-01-28 16:41:50.85	24.51	19.74	-30.8	-31.4	27.3	0.00e+00	0	32	0	1047527424	36	5367
2026-01-28 16:41:51.86	24.54	19.87	-30.9	-31.5	27.3	0.00e+00	0	32	0	1053818880	36	5403
2026-01-28 16:41:52.87	24.57	20.01	-30.6	-31.2	27.5	0.00e+00	0	32	0	1059061760	34	5857
2026-01-28 16:41:53.88	24.60	20.14	-30.6	-31.2	27.4	0.00e+00	0	32	0	1065353216	34	5855
2026-01-28 16:41:54.89	24.63	20.27	-30.6	-31.2	27.4	0.00e+00	0	32	0	1070596096	34	5847
2026-01-28 16:41:55.90	24.66	20.40	-30.5	-31.1	27.7	0.00e+00	0	33	0	1075838976	34	5786
2026-01-28 16:41:56.91	24.69	20.53	-30.5	-31.1	27.6	0.00e+00	0	33	0	1082130432	34	5816
2026-01-28 16:41:57.92	24.72	20.67	-30.5	-31.1	27.6	0.00e+00	0	32	0	1087373312	34	5798
2026-01-28 16:41:58.93	24.75	20.80	-30.6	-31.3	27.4	0.00e+00	0	32	0	1093664768	34	5906
2026-01-28 16:41:59.94	24.78	20.94	-30.4	-31.1	27.6	0.00e+00	0	32	0	1098907648	34	5784
2026-01-28 16:42:00.94	24.81	21.07	-30.6	-31.2	27.5	0.00e+00	0	33	0	1104150528	34	5882
2026-01-28 16:42:01.96	24.84	21.21	-30.6	-31.3	27.4	0.00e+00	0	32	0	1110441984	34	5903
2026-01-28 16:42:02.96	24.87	21.35	-30.6	-31.2	27.6	0.00e+00	0	32	0	1115684864	34	5858
2026-01-28 16:42:03.98	24.90	21.49	-30.5	-31.1	27.6	0.00e+00	0	32	0	1121976320	34	5822
2026-01-28 16:42:04.99	24.93	21.63	-30.3	-30.9	27.8	0.00e+00	0	33	0	1127219200	34	5694
2026-01-28 16:42:05.99	24.96	21.77	-30.4	-31.0	27.7	0.00e+00	0	32	0	1132462080	34	5720
2026-01-28 16:42:07.01	24.99	21.91	-30.3	-31.0	27.8	0.00e+00	0	32	0	1138753536	34	5696
2026-01-28 16:42:08.02	25.03	22.05	-30.3	-30.9	27.7	0.00e+00	0	32	0	1143996416	34	5680
2026-01-28 16:42:09.02	25.06	22.19	-30.3	-31.0	27.8	0.00e+00	0	33	0	1150287872	34	5700
2026-01-28 16:42:10.03	25.09	22.33	-30.3	-30.9	27.7	0.00e+00	0	32	0	1155530752	34	5682
2026-01-28 16:42:11.05	25.12	22.48	-30.3	-30.9	27.6	0.00e+00	0	33	0	1161822208	34	5691
2026-01-28 16:42:12.05	25.16	22.62	-30.4	-31.0	27.7	0.00e+00	0	32	0	1167065088	34	5729
2026-01-28 16:42:13.06	25.19	22.77	-30.3	-31.0	27.8	0.00e+00	0	32	0	1172307968	34	5702
2026-01-28 16:42:14.07	25.22	22.91	-30.2	-30.8	27.8	0.00e+00	0	32	0	1178599424	34	5608
2026-01-28 16:42:15.08	25.26	23.06	-30.3	-30.9	27.7	0.00e+00	0	32	0	1183842304	34	5669
2026-01-28 16:42:16.09	25.29	23.21	-30.1	-30.7	27.8	0.00e+00	0	33	0	1190133760	34	5535
2026-01-28 16:42:17.10	25.33	23.36	-30.3	-30.9	27.8	0.00e+00	0	33	0	1195376640	34	5642
2026-01-28 16:42:18.11	25.36	23.51	-30.2	-30.9	27.9	0.00e+00	0	33	0	1200619520	34	5646
2026-01-28 16:42:19.12	25.40	23.66	-30.0	-30.6	28.0	0.00e+00	0	33	0	1206910976	34	5478
2026-01-28 16:42:20.13	25.43	23.81	-30.1	-30.7	27.8	0.00e+00	0	32	0	1212153856	34	5538
2026-01-28 16:42:21.14	25.47	23.96	-30.0	-30.6	28.1	0.00e+00	0	32	0	1218445312	34	5441
2026-01-28 16:42:22.15	25.50	24.12	-29.8	-30.4	28.1	0.00e+00	0	32	0	1223688192	34	5324
2026-01-28 16:42:23.16	25.54	24.27	-29.9	-30.5	28.1	0.00e+00	0	33	0	1228931072	34	5395
2026-01-28 16:42:24.16	25.57	24.42	-29.8	-30.4	28.2	0.00e+00	0	33	0	1235222528	34	5327
2026-01-28 16:42:25.17	25.61	24.58	-29.7	-30.3	28.3	0.00e+00	0	32	0	1240465408	32	5950
2026-01-28 16:42:26.18	25.65	24.74	-29.8	-30.4	28.1	0.00e+00	0	33	0	1246756864	32	5989
2026-01-28 16:42:27.19	25.69	24.90	-29.7	-30.4	28.2	0.00e+00	0	32	0	1251999744	32	5967
2026-01-28 16:42:28.20	25.72	25.05	-29.7	-30.3	28.3	0.00e+00	0	32	0	1258291200	32	5909
2026-01-28 16:42:29.21	25.76	25.21	-29.7	-30.3	28.2	0.00e+00	0	32	0	1263534080	32	5929
2026-01-28 16:42:30.22	25.80	25.37	-29.6	-30.2	28.4	0.00e+00	0	32	0	1268776960	32	5890
2026-01-28 16:42:31.23	25.84	25.54	-29.6	-30.2	28.3	0.00e+00	0	32	0	1275068416	32	5861
2026-01-28 16:42:32.24	25.88	25.70	-29.7	-30.3	28.3	0.00e+00	0	32	0	1280311296	32	5925
2026-01-28 16:42:33.25	25.92	25.86	-29.6	-30.2	28.3	0.00e+00	0	33	0	1286602752	32	5868
2026-01-28 16:42:34.26	25.96	26.03	-29.7	-30.3	28.3	0.00e+00	0	32	0	1291845632	32	5916
2026-01-28 16:42:35.27	26.00	26.19	-29.7	-30.3	28.3	0.00e+00	0	33	0	1297088512	32	5910
2026-01-28 16:42:36.28	26.04	26.36	-29.7	-30.4	28.2	0.00e+00	0	32	0	1303379968	32	5989
2026-01-28 16:42:37.29	26.08	26.53	-29.8	-30.4	28.1	0.00e+00	0	32	0	1308622848	32	6027
2026-01-28 16:42:38.30	26.12	26.70	-29.9	-30.6	28.1	0.00e+00	0	32	0	1314914304	32	6109
2026-01-28 16:42:39.31	26.17	26.87	-29.9	-30.6	28.1	0.00e+00	0	32	0	1320157184	32	6106
2026-01-28 16:42:40.32	26.21	27.04	-29.9	-30.6	28.2	0.00e+00	0	32	0	1325400064	32	6115
2026-01-28 16:42:41.33	26.25	27.21	-29.8	-30.5	28.1	0.00e+00	0	32	0	1331691520	32	6044
2026-01-28 16:42:42.34	26.29	27.38	-29.9	-30.6	28.1	0.00e+00	0	33	0	1336934400	32	6120
2026-01-28 16:42:43.35	26.34	27.56	-29.7	-30.4	28.2	0.00e+00	0	33	0	1343225856	32	5981
2026-01-28 16:42:44.36	26.38	27.73	-29.8	-30.5	28.2	0.00e+00	0	32	0	1348468736	32	6034
2026-01-28 16:42:45.37	26.43	27.91	-29.7	-30.3	28.2	0.00e+00	0	32	0	1354760192	32	5934
2026-01-28 16:42:46.38	26.47	28.09	-29.7	-30.4	28.3	0.00e+00	0	32	0	1360003072	32	5969
2026-01-28 16:42:47.39	26.52	28.26	-29.6	-30.3	28.3	0.00e+00	0	33	0	1366294528	32	5906
2026-01-28 16:42:48.41	26.56	28.45	-29.7	-30.3	28.3	0.00e+00	0	33	0	1371537408	32	5928
2026-01-28 16:42:49.42	26.61	28.63	-29.5	-30.2	28.4	0.00e+00	0	33	0	1376780288	32	5844
2026-01-28 16:42:50.43	26.66	28.81	-29.4	-30.0	28.5	0.00e+00	0	33	0	1383071744	32	5750
2026-01-28 16:42:51.44	26.70	28.99	-29.5	-30.1	28.5	0.00e+00	0	32	0	1388314624	32	5768
2026-01-28 16:42:52.45	26.75	29.18	-29.5	-30.1	28.5	0.00e+00	0	33	0	1394606080	32	5780
2026-01-28 16:42:53.46	26.80	29.36	-29.6	-30.2	28.4	0.00e+00	0	32	0	1399848960	32	5862
2026-01-28 16:42:54.47	26.85	29.55	-29.7	-30.4	28.3	0.00e+00	0	33	0	1405091840	32	5971
2026-01-28 16:42:55.48	26.90	29.74	-29.7	-30.3	28.3	0.00e+00	0	33	0	1411383296	32	5924
2026-01-28 16:42:56.49	26.95	29.93	-29.8	-30.4	28.2	0.00e+00	0	33	0	1416626176	32	5990
2026-01-28 16:42:57.50	27.00	30.12	-29.8	-30.4	28.2	0.00e+00	0	32	0	1422917632	32	6016
2026-01-28 16:42:58.51	27.05	30.31	-29.9	-30.5	28.1	0.00e+00	0	33	0	1428160512	32	6087
2026-01-28 16:42:59.51	27.10	30.50	-29.9	-30.5	28.2	0.00e+00	0	32	0	1433403392	32	6081
2026-01-28 16:43:00.52	27.15	30.69	-29.9	-30.5	28.1	0.00e+00	0	32	0	1439694848	32	6100
2026-01-28 16:43:01.53	27.21	30.89	-29.9	-30.6	28.1	0.00e+00	0	32	0	1444937728	32	6116
2026-01-28 16:43:02.54	27.26	31.09	-29.9	-30.5	28.2	0.00e+00	0	32	0	1451229184	32	6096
2026-01-28 16:43:03.55	27.31	31.28	-29.7	-30.3	28.2	0.00e+00	0	32	0	1456472064	32	5963
2026-01-28 16:43:04.56	27.37	31.48	-29.6	-30.2	28.4	0.00e+00	0	32	0	1462763520	32	5896
2026-01-28 16:43:05.57	27.42	31.69	-29.5	-30.1	28.5	0.00e+00	0	32	0	1468006400	32	5801
2026-01-28 16:43:06.58	27.48	31.89	-29.4	-30.1	28.4	0.00e+00	0	32	0	1474297856	32	5763
2026-01-28 16:43:07.59	27.53	32.09	-29.5	-30.1	28.4	0.00e+00	0	32	0	1479540736	32	5811
2026-01-28 16:43:08.60	27.59	32.30	-29.6	-30.2	28.4	0.00e+00	0	33	0	1484783616	32	5853
2026-01-28 16:43:09.61	27.65	32.50	-29.6	-30.2	28.4	0.00e+00	0	32	0	1491075072	32	5857
2026-01-28 16:43:10.62	27.71	32.71	-29.6	-30.3	28.3	0.00e+00	0	32	0	1496317952	32	5908
2026-01-28 16:43:11.63	27.77	32.92	-29.7	-30.4	28.2	0.00e+00	0	32	0	1502609408	32	5999
2026-01-28 16:43:12.64	27.83	33.13	-29.8	-30.4	28.2	0.00e+00	0	32	0	1507852288	32	5987
2026-01-28 16:43:13.65	27.89	33.34	-29.9	-30.5	28.2	0.00e+00	0	33	0	1513095168	32	6069
2026-01-28 16:43:14.66	27.95	33.56	-30.0	-30.6	28.2	0.00e+00	0	32	0	1519386624	32	6133
2026-01-28 16:43:15.67	28.01	33.77	-29.9	-30.6	28.1	0.00e+00	0	33	0	1524629504	32	6127
2026-01-28 16:43:16.68	28.07	33.99	-29.9	-30.6	28.1	0.00e+00	0	33	0	1530920960	32	6119
2026-01-28 16:43:17.69	28.14	34.21	-29.5	-30.1	28.4	0.00e+00	0	32	0	1536163840	32	5822
2026-01-28 16:43:18.70	28.20	34.43	-29.3	-29.9	28.6	0.00e+00	0	32	0	1541406720	32	5682
2026-01-28 16:43:19.70	28.27	34.65	-29.3	-29.9	28.6	0.00e+00	0	33	0	1547698176	32	5643
2026-01-28 16:43:20.71	28.33	34.87	-29.2	-29.8	28.7	0.00e+00	0	33	0	1552941056	32	5620
2026-01-28 16:43:21.72	28.40	35.09	-29.1	-29.7	28.8	0.00e+00	0	32	0	1559232512	32	5515
2026-01-28 16:43:22.73	28.47	35.32	-29.1	-29.7	28.8	0.00e+00	0	33	0	1564475392	32	5512
2026-01-28 16:43:23.74	28.54	35.55	-29.1	-29.7	28.7	0.00e+00	0	32	0	1569718272	32	5537
2026-01-28 16:43:24.75	28.61	35.78	-29.2	-29.8	28.7	0.00e+00	0	33	0	1576009728	32	5620
2026-01-28 16:43:25.76	28.68	36.01	-29.1	-29.8	28.7	0.00e+00	0	33	0	1581252608	32	5572
2026-01-28 16:43:26.77	28.75	36.24	-29.3	-29.9	28.6	0.00e+00	0	33	0	1587544064	32	5693
2026-01-28 16:43:27.78	28.82	36.47	-29.3	-29.9	28.5	0.00e+00	0	33	0	1592786944	32	5632
2026-01-28 16:43:28.79	28.89	36.71	-29.2	-29.8	28.7	0.00e+00	0	33	0	1599078400	32	5619
2026-01-28 16:43:29.80	28.97	36.94	-29.2	-29.8	28.6	0.00e+00	0	33	0	1604321280	32	5605
2026-01-28 16:43:30.81	29.04	37.18	-28.9	-29.5	28.9	0.00e+00	0	32	0	1609564160	32	5416
2026-01-28 16:43:31.82	29.12	37.42	-28.8	-29.4	29.0	0.00e+00	0	32	0	1615855616	32	5366
2026-01-28 16:43:32.83	29.20	37.67	-28.8	-29.4	28.9	0.00e+00	0	33	0	1621098496	32	5335
2026-01-28 16:43:33.84	29.28	37.91	-28.9	-29.5	29.0	0.00e+00	0	32	0	1627389952	32	5390
2026-01-28 16:43:34.85	29.36	38.16	-28.9	-29.5	28.9	0.00e+00	0	33	0	1632632832	32	5403
2026-01-28 16:43:35.86	29.44	38.40	-28.9	-29.5	28.9	0.00e+00	0	32	0	1637875712	32	5393
2026-01-28 16:43:36.87	29.52	38.65	-29.0	-29.6	28.8	0.00e+00	0	33	0	1644167168	32	5467
2026-01-28 16:43:37.88	29.60	38.90	-28.9	-29.5	28.9	0.00e+00	0	33	0	1649410048	32	5405
2026-01-28 16:43:38.89	29.69	39.16	-29.0	-29.6	28.9	0.00e+00	0	33	0	1655701504	32	5489
2026-01-28 16:43:39.90	29.77	39.41	-29.0	-29.5	28.8	0.00e+00	0	33	0	1660944384	32	5438
2026-01-28 16:43:40.91	29.86	39.67	-29.0	-29.7	28.8	0.00e+00	0	32	0	1667235840	32	5503
2026-01-28 16:43:41.92	29.95	39.93	-28.9	-29.5	29.0	0.00e+00	0	32	0	1672478720	32	5430
2026-01-28 16:43:42.93	30.04	40.19	-29.1	-29.6	28.8	0.00e+00	0	32	0	1678770176	32	5495
2026-01-28 16:43:43.94	30.13	40.45	-28.9	-29.5	29.0	0.00e+00	0	33	0	1684013056	32	5420
2026-01-28 16:43:44.95	30.22	40.71	-29.0	-29.6	28.9	0.00e+00	0	33	0	1689255936	32	5471
2026-01-28 16:43:45.96	30.32	40.98	-29.1	-29.7	28.8	0.00e+00	0	32	0	1695547392	32	5556
2026-01-28 16:43:46.97	30.41	41.25	-29.2	-29.8	28.7	0.00e+00	0	33	0	1700790272	32	5602
2026-01-28 16:43:47.98	30.51	41.52	-29.4	-29.9	28.6	0.00e+00	0	33	0	1707081728	32	5691
2026-01-28 16:43:48.98	30.61	41.79	-29.4	-30.0	28.5	0.00e+00	0	32	0	1712324608	32	5702
2026-01-28 16:43:50.00	30.71	42.06	-29.3	-30.0	28.6	0.00e+00	0	33	0	1717567488	32	5715
2026-01-28 16:43:51.00	30.81	42.34	-29.4	-30.0	28.6	0.00e+00	0	33	0	1723858944	32	5708
2026-01-28 16:43:52.01	30.92	42.61	-29.3	-29.9	28.6	0.00e+00	0	33	0	1729101824	32	5675
2026-01-28 16:43:53.02	31.02	42.89	-29.3	-30.0	28.6	0.00e+00	0	33	0	1734344704	32	5696
2026-01-28 16:43:54.03	31.13	43.17	-29.3	-29.9	28.7	0.00e+00	0	33	0	1740636160	32	5692
2026-01-28 16:43:55.04	31.24	43.46	-29.3	-29.9	28.6	0.00e+00	0	33	0	1745879040	32	5678
2026-01-28 16:43:56.05	31.35	43.74	-29.6	-30.2	28.4	0.00e+00	0	33	0	1752170496	32	5877
2026-01-28 16:43:57.06	31.46	44.03	-29.7	-30.4	28.3	0.00e+00	0	33	0	1757413376	32	5972
2026-01-28 16:43:58.07	31.58	44.32	-29.9	-30.5	28.2	0.00e+00	0	32	0	1762656256	32	6103
2026-01-28 16:43:59.08	31.69	44.61	-30.0	-30.7	28.0	0.00e+00	0	33	0	1768947712	32	6193
2026-01-28 16:44:00.09	31.81	44.90	-30.1	-30.7	28.1	0.00e+00	0	33	0	1775239168	32	6200
2026-01-28 16:44:01.10	31.93	45.20	-29.8	-30.5	28.3	0.00e+00	0	32	0	1780482048	32	6041
2026-01-28 16:44:02.10	32.06	45.50	-29.9	-30.5	28.2	0.00e+00	0	33	0	1785724928	32	6087
2026-01-28 16:44:03.11	32.18	45.80	-29.7	-30.4	28.4	0.00e+00	0	33	0	1792016384	32	5970
2026-01-28 16:44:04.12	32.31	46.10	-29.7	-30.3	28.4	0.00e+00	0	33	0	1797259264	32	5952
2026-01-28 16:44:05.13	32.44	46.40	-29.5	-30.1	28.6	0.00e+00	0	33	0	1803550720	32	5778
2026-01-28 16:44:06.14	32.57	46.71	-29.6	-30.2	28.4	0.00e+00	0	33	0	1808793600	32	5864
2026-01-28 16:44:07.15	32.71	47.02	-29.5	-30.1	28.5	0.00e+00	0	33	0	1814036480	32	5804
2026-01-28 16:44:08.16	32.85	47.33	-29.7	-30.3	28.3	0.00e+00	0	32	0	1820327936	32	5941
2026-01-28 16:44:09.17	32.99	47.64	-29.9	-30.5	28.2	0.00e+00	0	33	0	1825570816	32	6090
2026-01-28 16:44:10.18	33.13	47.95	-29.9	-30.5	28.2	0.00e+00	0	33	0	1831862272	32	6083
2026-01-28 16:44:11.19	33.28	48.27	-29.9	-30.6	28.1	0.00e+00	0	33	0	1837105152	32	6128
2026-01-28 16:44:12.20	33.43	48.59	-29.7	-30.3	28.3	0.00e+00	0	33	0	1842348032	32	5934
2026-01-28 16:44:13.21	33.58	48.91	-29.4	-30.0	28.5	0.00e+00	0	33	0	1848639488	32	5740
2026-01-28 16:44:14.22	33.73	49.23	-29.3	-29.9	28.6	0.00e+00	0	33	0	1853882368	32	5673
2026-01-28 16:44:15.22	33.89	49.56	-29.6	-30.2	28.4	0.00e+00	0	32	0	1860173824	32	5847
2026-01-28 16:44:16.23	34.05	49.88	-29.9	-30.5	28.3	0.00e+00	0	33	0	1865416704	32	6096
2026-01-28 16:44:17.24	34.22	50.21	-30.0	-30.6	28.1	0.00e+00	0	32	0	1871708160	32	6160
2026-01-28 16:44:18.25	34.39	50.54	-30.1	-30.8	28.1	0.00e+00	0	33	0	1876951040	32	6264
2026-01-28 16:44:19.26	34.56	50.88	-30.3	-30.9	28.0	0.00e+00	0	33	0	1882193920	32	6347
2026-01-28 16:44:20.27	34.74	51.21	-30.2	-30.9	28.0	0.00e+00	0	33	0	1888485376	32	6339
2026-01-28 16:44:21.28	34.92	51.55	-30.1	-30.7	28.1	0.00e+00	0	32	0	1893728256	32	6220
2026-01-28 16:44:22.29	35.10	51.89	-30.1	-30.7	28.1	0.00e+00	0	32	0	1900019712	32	6210
2026-01-28 16:44:23.30	35.29	52.24	-30.0	-30.6	28.1	0.00e+00	0	33	0	1905262592	32	6155
2026-01-28 16:44:24.31	35.48	52.58	-29.9	-30.5	28.2	0.00e+00	0	33	0	1910505472	32	6046
2026-01-28 16:44:25.32	35.68	52.93	-30.1	-30.7	28.1	0.00e+00	0	32	0	1916796928	32	6242
2026-01-28 16:44:26.33	35.88	53.28	-30.8	-31.5	27.5	0.00e+00	0	33	0	1922039808	32	6788
2026-01-28 16:44:27.33	36.09	53.62	-31.3	-31.9	27.1	0.00e+00	0	33	0	1928331264	34	6388
2026-01-28 16:44:28.34	36.30	53.98	-31.1	-31.7	27.2	0.00e+00	0	32	0	1933574144	34	6233
2026-01-28 16:44:29.35	36.52	54.33	-30.8	-31.4	27.5	0.00e+00	0	32	0	1938817024	34	5997
2026-01-28 16:44:30.36	36.74	54.69	-31.0	-31.7	27.3	0.00e+00	0	32	0	1945108480	34	6176
2026-01-28 16:44:31.37	36.97	55.05	-31.5	-32.2	27.0	0.00e+00	0	32	0	1950351360	34	6543
2026-01-28 16:44:32.38	37.20	55.41	-31.0	-31.7	27.3	0.00e+00	0	33	0	1956642816	34	6179
2026-01-28 16:44:33.39	37.44	55.77	-30.7	-31.3	27.6	0.00e+00	0	33	0	1961885696	34	5946
2026-01-28 16:44:34.40	37.69	56.14	-30.7	-31.3	27.6	0.00e+00	0	32	0	1968177152	34	5928
2026-01-28 16:44:35.41	37.94	56.51	-31.0	-31.6	27.4	0.00e+00	0	32	0	1973420032	34	6142
2026-01-28 16:44:36.42	38.20	56.87	-31.1	-31.7	27.3	0.00e+00	0	32	0	1978662912	34	6222
2026-01-28 16:44:37.43	38.47	57.25	-30.9	-31.5	27.5	0.00e+00	0	32	0	1984954368	34	6095
2026-01-28 16:44:38.44	38.74	57.62	-30.6	-31.3	27.7	0.00e+00	0	32	0	1990197248	34	5919
2026-01-28 16:44:39.45	39.02	57.99	-30.4	-31.0	27.8	0.00e+00	0	33	0	1996488704	34	5742
2026-01-28 16:44:40.46	39.31	58.37	-30.2	-30.8	28.0	0.00e+00	0	33	0	2001731584	34	5568
2026-01-28 16:44:41.47	39.61	58.75	-29.9	-30.5	28.2	0.00e+00	0	32	0	2006974464	34	5389
2026-01-28 16:44:42.48	39.91	59.13	-29.7	-30.4	28.4	0.00e+00	0	33	0	2013265920	34	5335
2026-01-28 16:44:43.49	40.23	59.51	-30.1	-30.7	28.0	0.00e+00	0	32	0	2018508800	32	6219
2026-01-28 16:44:44.50	40.55	59.89	-29.9	-30.5	28.3	0.00e+00	0	32	0	2024800256	32	6071
2026-01-28 16:44:45.50	40.88	60.27	-30.0	-30.6	28.1	0.00e+00	0	33	0	2030043136	32	6120
2026-01-28 16:44:46.51	41.23	60.66	-29.9	-30.5	28.2	0.00e+00	0	32	0	2035286016	32	6095
2026-01-28 16:44:47.52	41.58	61.05	-29.5	-30.2	28.4	0.00e+00	0	33	0	2041577472	32	5832
2026-01-28 16:44:48.53	41.94	61.43	-29.5	-30.0	28.5	0.00e+00	0	32	0	2046820352	32	5760
2026-01-28 16:44:49.54	42.32	61.82	-29.2	-29.8	28.7	0.00e+00	0	33	0	2053111808	32	5620
2026-01-28 16:44:50.55	42.71	62.22	-29.0	-29.7	28.8	0.00e+00	0	32	0	2058354688	32	5504
2026-01-28 16:44:51.56	43.11	62.61	-29.0	-29.6	28.8	0.00e+00	0	32	0	2064646144	32	5464
2026-01-28 16:44:52.57	43.53	63.00	-29.0	-29.6	28.9	0.00e+00	0	32	0	2069889024	32	5471
2026-01-28 16:44:53.58	43.95	63.40	-29.1	-29.7	28.7	0.00e+00	0	32	0	2076180480	32	5561
2026-01-28 16:44:54.59	44.40	63.79	-29.0	-29.7	28.8	0.00e+00	0	32	0	2081423360	32	5520
2026-01-28 16:44:55.60	44.85	64.19	-28.9	-29.5	28.9	0.00e+00	0	32	0	2086666240	32	5420
2026-01-28 16:44:56.61	45.33	64.58	-29.0	-29.6	28.9	0.00e+00	0	32	0	2092957696	32	5477
2026-01-28 16:44:57.62	45.82	64.98	-28.9	-29.5	28.8	0.00e+00	0	32	0	2098200576	32	5413
2026-01-28 16:44:58.63	46.32	65.38	-28.9	-29.5	28.9	0.00e+00	0	32	0	2104492032	32	5421
2026-01-28 16:44:59.64	46.85	65.78	-28.7	-29.3	29.0	0.00e+00	0	32	0	2109734912	30	5937
2026-01-28 16:45:00.65	47.40	66.17	-28.8	-29.4	29.0	0.00e+00	0	32	0	2114977792	30	6013
2026-01-28 16:45:01.66	47.96	66.57	-29.0	-29.6	28.8	0.00e+00	0	32	0	2121269248	30	6144
2026-01-28 16:45:02.68	48.55	66.97	-28.9	-29.5	28.8	0.00e+00	0	33	0	2126512128	30	6086
2026-01-28 16:45:03.68	49.16	67.37	-28.8	-29.4	29.0	0.00e+00	0	33	0	2132803584	30	6024
2026-01-28 16:45:04.70	49.80	67.77	-29.2	-29.8	28.6	0.00e+00	0	32	0	2138046464	30	6306
2026-01-28 16:45:05.70	50.45	68.16	-29.0	-29.7	28.8	0.00e+00	0	32	0	2143289344	30	6185
2026-01-28 16:45:06.72	51.14	68.56	-29.0	-29.6	28.8	0.00e+00	0	32	0	2149580800	30	6154
2026-01-28 16:45:07.72	51.84	68.95	-28.8	-29.4	28.9	0.00e+00	0	32	0	2154823680	30	6009
2026-01-28 16:45:08.74	52.59	69.35	-28.7	-29.3	29.0	0.00e+00	0	32	0	2161115136	30	5951
2026-01-28 16:45:09.75	53.36	69.74	-28.5	-29.1	29.2	0.00e+00	0	33	0	2166358016	30	5787
2026-01-28 16:45:10.76	54.17	70.13	-28.7	-29.3	29.0	0.00e+00	0	32	0	2172649472	30	5925
2026-01-28 16:45:11.77	55.01	70.51	-28.7	-29.3	29.1	0.00e+00	0	32	0	2177892352	30	5929
2026-01-28 16:45:12.78	55.88	70.90	-28.5	-29.1	29.2	0.00e+00	0	32	0	2184183808	30	5804
2026-01-28 16:45:13.79	56.79	71.28	-28.6	-29.2	29.2	0.00e+00	0	32	0	2189426688	30	5853
2026-01-28 16:45:14.80	57.75	71.66	-28.3	-29.0	29.3	0.00e+00	0	32	0	2194669568	30	5703
2026-01-28 16:45:15.81	58.74	72.03	-28.0	-28.6	29.6	0.00e+00	0	32	0	2200961024	30	5455
2026-01-28 16:45:16.82	59.78	72.40	-28.2	-28.8	29.3	0.00e+00	0	32	0	2206203904	30	5607
2026-01-28 16:45:17.83	60.87	72.77	-28.5	-29.1	29.2	0.00e+00	0	32	0	2212495360	30	5811
2026-01-28 16:45:18.83	61.99	73.13	-28.4	-29.0	29.2	0.00e+00	0	33	0	2217738240	30	5742
2026-01-28 16:45:19.84	63.17	73.48	-28.0	-28.6	29.5	0.00e+00	0	32	0	2222981120	30	5456
2026-01-28 16:45:20.85	64.41	73.83	-28.3	-28.9	29.2	0.00e+00	0	33	0	2229272576	30	5691
2026-01-28 16:45:21.86	65.71	74.18	-28.0	-28.6	29.5	0.00e+00	0	32	0	2234515456	30	5492
2026-01-28 16:45:22.88	67.08	74.52	-27.7	-28.3	29.6	0.00e+00	0	32	0	2240806912	28	5924
2026-01-28 16:45:23.89	68.50	74.85	-27.8	-28.4	29.5	0.00e+00	0	32	0	2246049792	28	5967
2026-01-28 16:45:24.90	69.98	75.17	-27.9	-28.6	29.5	0.00e+00	0	32	0	2251292672	28	6117
2026-01-28 16:45:25.91	71.53	75.48	-27.3	-27.9	29.8	0.00e+00	0	33	0	2257584128	28	5688
2026-01-28 16:45:26.92	73.15	75.78	-27.4	-28.0	29.9	0.00e+00	0	32	0	2262827008	28	5725
2026-01-28 16:45:27.93	74.84	76.07	-27.4	-28.0	29.9	0.00e+00	0	32	0	2269118464	28	5719
2026-01-28 16:45:28.94	76.60	76.35	-27.7	-28.3	29.7	0.00e+00	0	32	0	2274361344	28	5963
2026-01-28 16:45:29.95	78.44	76.61	-27.8	-28.3	29.6	0.00e+00	0	32	0	2280652800	28	5943
2026-01-28 16:45:30.96	80.35	76.87	-27.5	-28.1	29.9	0.00e+00	0	32	0	2285895680	28	5803
2026-01-28 16:45:31.96	82.32	77.10	-27.4	-28.1	29.8	0.00e+00	0	32	0	2291138560	28	5766
2026-01-28 16:45:32.97	84.38	77.32	-27.4	-28.0	29.9	0.00e+00	0	32	0	2297430016	28	5723
2026-01-28 16:45:33.98	86.51	77.53	-27.2	-27.8	29.9	0.00e+00	0	32	0	2302672896	28	5612
2026-01-28 16:45:34.99	88.71	77.72	-27.0	-27.6	30.0	0.00e+00	0	32	0	2308964352	28	5480
2026-01-28 16:45:36.00	90.98	77.89	-27.3	-28.0	29.9	0.00e+00	0	33	0	2314207232	28	5699
2026-01-28 16:45:37.01	93.32	78.05	-27.4	-27.9	29.7	0.00e+00	0	32	0	2319450112	28	5682
2026-01-28 16:45:38.02	95.71	78.18	-27.5	-28.1	29.8	0.00e+00	0	32	0	2325741568	28	5776
2026-01-28 16:45:39.03	98.16	78.30	-27.8	-28.4	29.6	0.00e+00	0	32	0	2330984448	28	6003
2026-01-28 16:45:40.04	100.65	78.39	-27.6	-28.2	29.8	0.00e+00	0	32	0	2337275904	28	5858
2026-01-28 16:45:41.05	103.17	78.46	-27.4	-27.9	29.9	0.00e+00	0	32	0	2342518784	28	5690
2026-01-28 16:45:42.06	105.72	78.51	-27.4	-28.0	29.8	0.00e+00	0	32	0	2347761664	28	5728
2026-01-28 16:45:43.07	108.29	78.53	-27.5	-28.2	29.8	0.00e+00	0	33	0	2354053120	28	5833
2026-01-28 16:45:44.08	110.87	78.54	-27.3	-27.9	30.0	0.00e+00	0	33	0	2359296000	28	5669
2026-01-28 16:45:45.09	113.44	78.52	-27.1	-27.8	29.9	0.00e+00	0	32	0	2365587456	28	5588
2026-01-28 16:45:46.10	116.00	78.48	-27.1	-27.7	30.0	0.00e+00	0	33	0	2370830336	28	5503
2026-01-28 16:45:47.11	118.53	78.41	-27.1	-27.7	29.9	0.00e+00	0	33	0	2377121792	28	5518
2026-01-28 16:45:48.12	121.04	78.33	-27.4	-28.0	29.7	0.00e+00	0	33	0	2382364672	28	5746
2026-01-28 16:45:49.13	123.50	78.22	-27.1	-27.7	29.7	0.00e+00	0	33	0	2388656128	28	5505
2026-01-28 16:45:50.14	125.91	78.09	-27.0	-27.6	29.8	0.00e+00	0	33	0	2393899008	28	5473
2026-01-28 16:45:51.15	128.26	77.95	-27.1	-27.7	29.8	0.00e+00	0	32	0	2399141888	28	5525
2026-01-28 16:45:52.16	130.55	77.78	-27.2	-27.9	29.9	0.00e+00	0	33	0	2405433344	28	5641
2026-01-28 16:45:53.17	132.78	77.59	-27.2	-27.8	29.9	0.00e+00	0	33	0	2410676224	28	5576
2026-01-28 16:45:54.18	134.94	77.39	-27.2	-27.8	29.9	0.00e+00	0	33	0	2416967680	28	5588
2026-01-28 16:45:55.19	137.02	77.17	-27.2	-27.8	30.0	0.00e+00	0	33	0	2422210560	28	5625
2026-01-28 16:45:56.20	139.03	76.94	-27.1	-27.7	30.0	0.00e+00	0	33	0	2427453440	28	5544
2026-01-28 16:45:57.21	140.97	76.69	-27.1	-27.7	30.0	0.00e+00	0	33	0	2433744896	28	5551
2026-01-28 16:45:58.22	142.83	76.43	-27.2	-27.8	29.9	0.00e+00	0	33	0	2438987776	28	5571
2026-01-28 16:45:59.23	144.61	76.15	-27.3	-28.0	29.8	0.00e+00	0	33	0	2445279232	28	5698
2026-01-28 16:46:00.24	146.33	75.87	-27.4	-28.0	29.8	0.00e+00	0	32	0	2450522112	28	5721
2026-01-28 16:46:01.25	147.97	75.57	-27.2	-27.9	30.0	0.00e+00	0	33	0	2455764992	28	5636
2026-01-28 16:46:02.26	149.54	75.26	-27.5	-28.0	29.8	0.00e+00	0	33	0	2462056448	28	5742
2026-01-28 16:46:03.27	151.05	74.94	-27.8	-28.4	29.5	0.00e+00	0	32	0	2467299328	28	6017
2026-01-28 16:46:04.28	152.48	74.62	-27.7	-28.3	29.6	0.00e+00	0	32	0	2473590784	28	5950
2026-01-28 16:46:05.29	153.86	74.28	-27.8	-28.3	29.5	0.00e+00	0	32	0	2478833664	28	5948
2026-01-28 16:46:06.30	155.18	73.94	-28.1	-28.7	29.4	0.00e+00	0	33	0	2485125120	28	6217
2026-01-28 16:46:07.31	156.44	73.59	-28.2	-28.7	29.4	0.00e+00	0	32	0	2490368000	28	6239
2026-01-28 16:46:08.32	157.64	73.24	-28.3	-28.8	29.3	0.00e+00	0	33	0	2495610880	28	6307
2026-01-28 16:46:09.33	158.79	72.88	-28.3	-28.9	29.3	0.00e+00	0	32	0	2501902336	28	6343
2026-01-28 16:46:10.34	159.89	72.51	-28.4	-29.0	29.1	0.00e+00	0	32	0	2507145216	28	6459
2026-01-28 16:46:11.35	160.95	72.14	-28.7	-29.4	28.9	0.00e+00	0	33	0	2513436672	28	6697
2026-01-28 16:46:12.36	161.95	71.77	-28.9	-29.4	28.7	0.00e+00	0	33	0	2518679552	30	6025
2026-01-28 16:46:13.37	162.92	71.39	-28.7	-29.3	29.0	0.00e+00	0	32	0	2523922432	30	5897
2026-01-28 16:46:14.38	163.84	71.01	-28.9	-29.4	28.9	0.00e+00	0	33	0	2530213888	30	6003
2026-01-28 16:46:15.39	164.73	70.63	-28.8	-29.4	28.9	0.00e+00	0	32	0	2535456768	30	5981
2026-01-28 16:46:16.40	165.58	70.24	-28.3	-29.0	29.3	0.00e+00	0	32	0	2541748224	30	5727
2026-01-28 16:46:17.41	166.40	69.85	-28.2	-28.8	29.2	0.00e+00	0	32	0	2546991104	30	5628
2026-01-28 16:46:18.42	167.18	69.46	-28.6	-29.2	29.1	0.00e+00	0	32	0	2552233984	30	5854
2026-01-28 16:46:19.43	167.93	69.06	-28.9	-29.5	28.9	0.00e+00	0	32	0	2558525440	30	6069
2026-01-28 16:46:20.44	168.65	68.67	-28.8	-29.5	28.9	0.00e+00	0	32	0	2563768320	30	6071
2026-01-28 16:46:21.44	169.34	68.28	-28.7	-29.3	29.0	0.00e+00	0	32	0	2570059776	30	5899
2026-01-28 16:46:22.46	170.01	67.88	-28.6	-29.1	29.1	0.00e+00	0	33	0	2575302656	30	5823
2026-01-28 16:46:23.47	170.65	67.48	-28.6	-29.3	29.1	0.00e+00	0	33	0	2581594112	30	5912
2026-01-28 16:46:24.47	171.26	67.09	-28.5	-29.0	29.2	0.00e+00	0	32	0	2586836992	30	5743
2026-01-28 16:46:25.48	171.86	66.69	-28.3	-28.9	29.3	0.00e+00	0	32	0	2593128448	30	5691
2026-01-28 16:46:26.49	172.43	66.29	-28.6	-29.2	29.0	0.00e+00	0	32	0	2598371328	30	5869
2026-01-28 16:46:27.51	172.99	65.89	-28.6	-29.2	29.1	0.00e+00	0	32	0	2603614208	30	5833
2026-01-28 16:46:28.52	173.52	65.49	-28.6	-29.1	29.1	0.00e+00	0	33	0	2609905664	30	5827
2026-01-28 16:46:29.53	174.03	65.09	-28.5	-29.1	29.2	0.00e+00	0	32	0	2615148544	30	5764
2026-01-28 16:46:30.54	174.53	64.69	-28.5	-29.1	29.2	0.00e+00	0	32	0	2621440000	30	5803
2026-01-28 16:46:31.55	175.01	64.29	-28.5	-29.2	29.2	0.00e+00	0	33	0	2626682880	30	5839
2026-01-28 16:46:32.56	175.47	63.90	-28.5	-29.0	29.1	0.00e+00	0	32	0	2631925760	30	5757
2026-01-28 16:46:33.57	175.92	63.50	-28.5	-29.1	29.1	0.00e+00	0	32	0	2638217216	30	5811
2026-01-28 16:46:34.58	176.35	63.10	-28.6	-29.1	29.0	0.00e+00	0	33	0	2643460096	30	5787
2026-01-28 16:46:35.59	176.77	62.71	-28.9	-29.4	28.9	0.00e+00	0	33	0	2649751552	30	6015
2026-01-28 16:46:36.60	177.17	62.32	-29.2	-29.9	28.7	0.00e+00	0	33	0	2654994432	30	6341
2026-01-28 16:46:37.60	177.56	61.93	-29.2	-29.9	28.5	0.00e+00	0	33	0	2660237312	30	6378
2026-01-28 16:46:38.61	177.94	61.53	-29.3	-29.9	28.5	0.00e+00	0	32	0	2666528768	30	6332
2026-01-28 16:46:39.62	178.31	61.14	-29.5	-30.0	28.5	0.00e+00	0	33	0	2671771648	30	6422
2026-01-28 16:46:40.63	178.67	60.76	-29.6	-30.3	28.5	0.00e+00	0	32	0	2678063104	30	6664
2026-01-28 16:46:41.64	179.01	60.37	-29.7	-30.3	28.2	0.00e+00	0	33	0	2683305984	32	5955
2026-01-28 16:46:42.65	179.35	59.98	-29.7	-30.3	28.4	0.00e+00	0	33	0	2689597440	32	5944
2026-01-28 16:46:43.67	179.68	59.59	-29.7	-30.4	28.3	0.00e+00	0	33	0	2694840320	32	6003
2026-01-28 16:46:44.68	180.00	59.21	-29.9	-30.5	28.1	0.00e+00	0	33	0	2701131776	32	6057
2026-01-28 16:46:45.68	180.30	58.83	-30.1	-30.6	28.0	0.00e+00	0	33	0	2706374656	32	6161
2026-01-28 16:46:46.69	180.60	58.45	-30.0	-30.6	28.1	0.00e+00	0	32	0	2711617536	32	6139
2026-01-28 16:46:47.70	180.90	58.08	-29.9	-30.6	28.1	0.00e+00	0	33	0	2717908992	32	6113
2026-01-28 16:46:48.71	181.18	57.70	-29.9	-30.5	28.1	0.00e+00	0	33	0	2723151872	32	6058
2026-01-28 16:46:49.72	181.45	57.33	-29.9	-30.6	28.1	0.00e+00	0	33	0	2728394752	32	6120
2026-01-28 16:46:50.73	181.72	56.95	-30.0	-30.7	28.0	0.00e+00	0	33	0	2734686208	32	6238
2026-01-28 16:46:51.74	181.98	56.58	-30.1	-30.7	28.0	0.00e+00	0	33	0	2739929088	32	6209
2026-01-28 16:46:52.75	182.24	56.21	-30.0	-30.7	28.0	0.00e+00	0	32	0	2746220544	32	6214
2026-01-28 16:46:53.76	182.49	55.85	-30.0	-30.5	28.0	0.00e+00	0	33	0	2751463424	32	6067
2026-01-28 16:46:54.77	182.73	55.48	-30.0	-30.5	28.1	0.00e+00	0	33	0	2756706304	32	6089
2026-01-28 16:46:55.78	182.96	55.12	-30.2	-30.7	27.8	0.00e+00	0	33	0	2762997760	32	6215
2026-01-28 16:46:56.79	183.19	54.76	-30.1	-30.8	27.9	0.00e+00	0	33	0	2768240640	32	6246
2026-01-28 16:46:57.80	183.42	54.40	-30.2	-30.8	27.8	0.00e+00	0	33	0	2774532096	32	6251
2026-01-28 16:46:58.81	183.64	54.04	-30.2	-30.9	27.7	0.00e+00	0	33	0	2779774976	32	6341
2026-01-28 16:46:59.82	183.85	53.69	-30.1	-30.7	27.8	0.00e+00	0	32	0	2786066432	32	6193
2026-01-28 16:47:00.83	184.06	53.34	-30.0	-30.6	28.1	0.00e+00	0	33	0	2791309312	32	6132
2026-01-28 16:47:01.84	184.26	52.99	-30.1	-30.8	27.7	0.00e+00	0	32	0	2797600768	32	6255
2026-01-28 16:47:02.85	184.46	52.64	-30.3	-30.9	27.7	0.00e+00	0	33	0	2802843648	32	6320
2026-01-28 16:47:03.86	184.66	52.29	-30.2	-30.8	27.8	0.00e+00	0	33	0	2808086528	32	6259
2026-01-28 16:47:04.86	184.85	51.95	-29.9	-30.5	28.2	0.00e+00	0	32	0	2814377984	32	6044
2026-01-28 16:47:05.87	185.03	51.61	-29.9	-30.4	28.2	0.00e+00	0	32	0	2819620864	32	5986
2026-01-28 16:47:06.88	185.21	51.27	-29.6	-30.2	28.5	0.00e+00	0	33	0	2825912320	32	5889
2026-01-28 16:47:07.89	185.39	50.93	-29.7	-30.4	28.2	0.00e+00	0	32	0	2831155200	32	5997
2026-01-28 16:47:08.90	185.56	50.59	-29.8	-30.5	28.2	0.00e+00	0	32	0	2836398080	32	6055
2026-01-28 16:47:09.91	185.73	50.26	-29.9	-30.6	28.3	0.00e+00	0	32	0	2842689536	32	6121
2026-01-28 16:47:10.92	185.90	49.93	-29.9	-30.5	28.1	0.00e+00	0	33	0	2847932416	32	6084
2026-01-28 16:47:11.93	186.06	49.60	-29.9	-30.4	28.2	0.00e+00	0	33	0	2854223872	32	6007
2026-01-28 16:47:12.94	186.22	49.27	-29.6	-30.1	28.5	0.00e+00	0	32	0	2859466752	32	5820
2026-01-28 16:47:13.95	186.38	48.95	-29.4	-29.9	28.6	0.00e+00	0	33	0	2864709632	32	5665
2026-01-28 16:47:14.96	186.53	48.63	-29.3	-30.0	28.6	0.00e+00	0	33	0	2871001088	32	5719
2026-01-28 16:47:15.97	186.68	48.31	-29.3	-29.8	28.7	0.00e+00	0	32	0	2876243968	32	5626
2026-01-28 16:47:16.98	186.83	47.99	-29.3	-29.8	28.7	0.00e+00	0	32	0	2882535424	32	5619
2026-01-28 16:47:17.99	186.98	47.67	-29.3	-29.8	28.6	0.00e+00	0	33	0	2887778304	32	5626
2026-01-28 16:47:18.99	187.12	47.36	-29.3	-29.9	28.7	0.00e+00	0	33	0	2894069760	32	5638
2026-01-28 16:47:20.00	187.25	47.05	-29.3	-30.0	28.5	0.00e+00	0	33	0	2899312640	32	5699
2026-01-28 16:47:21.01	187.39	46.74	-29.4	-30.0	28.5	0.00e+00	0	33	0	2904555520	32	5761
2026-01-28 16:47:22.02	187.52	46.43	-29.4	-29.9	28.6	0.00e+00	0	33	0	2910846976	32	5665
2026-01-28 16:47:23.03	187.65	46.12	-29.4	-29.9	28.6	0.00e+00	0	33	0	2916089856	32	5677
2026-01-28 16:47:24.04	187.78	45.82	-29.5	-30.0	28.5	0.00e+00	0	33	0	2922381312	32	5755
2026-01-28 16:47:25.05	187.91	45.52	-29.2	-29.7	28.7	0.00e+00	0	32	0	2927624192	32	5563
2026-01-28 16:47:26.06	188.03	45.22	-29.2	-29.7	28.6	0.00e+00	0	32	0	2932867072	32	5561
2026-01-28 16:47:27.07	188.15	44.92	-29.3	-29.8	28.7	0.00e+00	0	32	0	2939158528	32	5602
2026-01-28 16:47:28.08	188.27	44.63	-29.2	-29.7	28.7	0.00e+00	0	33	0	2944401408	32	5556
2026-01-28 16:47:29.09	188.39	44.33	-29.2	-29.7	28.7	0.00e+00	0	33	0	2950692864	32	5549
2026-01-28 16:47:30.10	188.51	44.04	-29.3	-29.8	28.6	0.00e+00	0	33	0	2955935744	32	5611
2026-01-28 16:47:31.11	188.62	43.75	-29.2	-29.8	28.6	0.00e+00	0	32	0	2961178624	32	5567
2026-01-28 16:47:32.12	188.73	43.47	-28.9	-29.5	28.8	0.00e+00	0	32	0	2967470080	32	5387
2026-01-28 16:47:33.13	188.84	43.18	-29.0	-29.5	28.8	0.00e+00	0	33	0	2972712960	32	5389
2026-01-28 16:47:34.14	188.95	42.90	-28.9	-29.4	28.9	0.00e+00	0	32	0	2979004416	32	5365
2026-01-28 16:47:35.15	189.05	42.62	-29.1	-29.6	28.7	0.00e+00	0	32	0	2984247296	32	5476
2026-01-28 16:47:36.16	189.16	42.34	-29.1	-29.6	28.7	0.00e+00	0	33	0	2990538752	32	5491
2026-01-28 16:47:37.16	189.26	42.07	-29.3	-30.0	28.6	0.00e+00	0	33	0	2995781632	32	5707
2026-01-28 16:47:38.18	189.36	41.79	-29.4	-30.1	28.5	0.00e+00	0	33	0	3002073088	32	5787
2026-01-28 16:47:39.19	189.46	41.51	-29.1	-29.8	28.8	0.00e+00	0	32	0	3007315968	32	5585
2026-01-28 16:47:40.20	189.56	41.24	-29.1	-29.6	28.7	0.00e+00	0	32	0	3012558848	32	5487
2026-01-28 16:47:41.20	189.65	40.98	-29.1	-29.6	28.8	0.00e+00	0	33	0	3018850304	32	5482
2026-01-28 16:47:42.21	189.75	40.71	-29.0	-29.6	28.8	0.00e+00	0	33	0	3024093184	32	5440
2026-01-28 16:47:43.22	189.84	40.44	-28.9	-29.4	28.8	0.00e+00	0	33	0	3029336064	32	5354
2026-01-28 16:47:44.23	189.93	40.18	-29.0	-29.5	28.8	0.00e+00	0	33	0	3035627520	32	5432
2026-01-28 16:47:45.24	190.02	39.92	-29.1	-29.7	28.8	0.00e+00	0	33	0	3040870400	32	5512
2026-01-28 16:47:46.25	190.11	39.66	-29.0	-29.8	28.7	0.00e+00	0	33	0	3047161856	32	5570
2026-01-28 16:47:47.26	190.20	39.40	-28.9	-29.5	28.8	0.00e+00	0	33	0	3052404736	32	5395
2026-01-28 16:47:48.27	190.28	39.15	-28.8	-29.4	28.8	0.00e+00	0	33	0	3057647616	32	5328
2026-01-28 16:47:49.28	190.37	38.89	-29.0	-29.7	28.8	0.00e+00	0	32	0	3063939072	32	5544
2026-01-28 16:47:50.29	190.45	38.64	-28.9	-29.4	28.9	0.00e+00	0	33	0	3069181952	32	5341
2026-01-28 16:47:51.30	190.53	38.39	-29.0	-29.5	28.8	0.00e+00	0	33	0	3075473408	32	5428
2026-01-28 16:47:52.31	190.62	38.14	-28.9	-29.6	28.8	0.00e+00	0	32	0	3080716288	32	5479
2026-01-28 16:47:53.32	190.70	37.89	-28.7	-29.4	28.9	0.00e+00	0	33	0	3087007744	30	6019
2026-01-28 16:47:54.33	190.77	37.65	-28.9	-29.5	28.8	0.00e+00	0	33	0	3092250624	30	6053
2026-01-28 16:47:55.34	190.85	37.40	-28.9	-29.5	28.9	0.00e+00	0	33	0	3098542080	30	6049
2026-01-28 16:47:56.35	190.93	37.16	-29.0	-29.5	28.8	0.00e+00	0	32	0	3103784960	30	6058
2026-01-28 16:47:57.36	191.00	36.92	-28.7	-29.3	29.0	0.00e+00	0	33	0	3109027840	30	5964
2026-01-28 16:47:58.37	191.08	36.68	-28.6	-29.2	29.1	0.00e+00	0	32	0	3115319296	30	5890
2026-01-28 16:47:59.38	191.15	36.45	-28.6	-29.3	29.0	0.00e+00	0	32	0	3120562176	30	5940
2026-01-28 16:48:00.39	191.23	36.21	-28.8	-29.4	29.0	0.00e+00	0	32	0	3126853632	30	6026
2026-01-28 16:48:01.40	191.30	35.98	-29.0	-29.6	28.8	0.00e+00	0	32	0	3132096512	30	6165
2026-01-28 16:48:02.41	191.37	35.75	-28.8	-29.4	29.0	0.00e+00	0	32	0	3137339392	30	5974
2026-01-28 16:48:03.42	191.44	35.52	-28.9	-29.5	28.8	0.00e+00	0	33	0	3143630848	30	6068
2026-01-28 16:48:04.43	191.51	35.29	-29.1	-29.6	28.7	0.00e+00	0	32	0	3148873728	30	6173
2026-01-28 16:48:05.44	191.57	35.06	-29.2	-29.9	28.7	0.00e+00	0	32	0	3155165184	30	6326
2026-01-28 16:48:06.45	191.64	34.83	-29.2	-29.8	28.6	0.00e+00	0	33	0	3160408064	30	6256
2026-01-28 16:48:07.46	191.71	34.61	-29.3	-29.9	28.6	0.00e+00	0	33	0	3165650944	30	6323
2026-01-28 16:48:08.47	191.77	34.39	-29.4	-30.0	28.4	0.00e+00	0	33	0	3171942400	30	6445
2026-01-28 16:48:09.48	191.84	34.17	-29.1	-29.7	28.7	0.00e+00	0	33	0	3177185280	30	6230
2026-01-28 16:48:10.49	191.90	33.95	-29.1	-29.6	28.7	0.00e+00	0	32	0	3183476736	30	6144
2026-01-28 16:48:11.50	191.96	33.73	-29.0	-29.6	28.8	0.00e+00	0	32	0	3188719616	30	6167
2026-01-28 16:48:12.51	192.02	33.51	-29.0	-29.5	28.9	0.00e+00	0	32	0	3193962496	30	6078
2026-01-28 16:48:13.52	192.09	33.30	-28.9	-29.5	28.8	0.00e+00	0	33	0	3200253952	30	6102
2026-01-28 16:48:14.52	192.15	33.09	-28.9	-29.4	28.8	0.00e+00	0	33	0	3205496832	30	6011
2026-01-28 16:48:15.53	192.21	32.88	-28.9	-29.5	28.8	0.00e+00	0	33	0	3211788288	30	6041
2026-01-28 16:48:16.54	192.26	32.67	-28.9	-29.4	28.9	0.00e+00	0	33	0	3217031168	30	5986
2026-01-28 16:48:17.55	192.32	32.46	-29.1	-29.6	28.7	0.00e+00	0	33	0	3223322624	30	6157
2026-01-28 16:48:18.56	192.38	32.25	-29.1	-29.8	28.6	0.00e+00	0	33	0	3228565504	30	6252
2026-01-28 16:48:19.57	192.44	32.04	-29.3	-30.0	28.6	0.00e+00	0	33	0	3233808384	30	6426
2026-01-28 16:48:20.58	192.49	31.84	-29.1	-29.8	28.7	0.00e+00	0	33	0	3240099840	30	6298
2026-01-28 16:48:21.59	192.55	31.64	-29.3	-30.0	28.6	0.00e+00	0	33	0	3245342720	30	6417
2026-01-28 16:48:22.60	192.60	31.43	-29.3	-30.0	28.6	0.00e+00	0	33	0	3251634176	30	6423
2026-01-28 16:48:23.61	192.66	31.23	-29.4	-30.1	28.5	0.00e+00	0	33	0	3256877056	30	6489
2026-01-28 16:48:24.62	192.71	31.03	-29.4	-30.1	28.5	0.00e+00	0	33	0	3262119936	30	6526
2026-01-28 16:48:25.63	192.77	30.84	-29.5	-30.2	28.3	0.00e+00	0	32	0	3268411392	30	6584
2026-01-28 16:48:26.64	192.82	30.64	-29.5	-30.2	28.4	0.00e+00	0	32	0	3273654272	30	6550
2026-01-28 16:48:27.65	192.87	30.44	-29.7	-30.4	28.3	0.00e+00	0	33	0	3279945728	30	6709
2026-01-28 16:48:28.66	192.92	30.25	-29.5	-30.1	28.3	0.00e+00	0	33	0	3285188608	30	6488
2026-01-28 16:48:29.67	192.97	30.06	-29.6	-30.2	28.3	0.00e+00	0	32	0	3291480064	30	6563
2026-01-28 16:48:30.68	193.02	29.87	-29.6	-30.3	28.4	0.00e+00	0	33	0	3296722944	30	6667
2026-01-28 16:48:31.69	193.07	29.68	-29.4	-30.1	28.4	0.00e+00	0	33	0	3301965824	30	6529
2026-01-28 16:48:32.70	193.12	29.49	-29.5	-30.1	28.4	0.00e+00	0	32	0	3308257280	30	6530
2026-01-28 16:48:33.71	193.17	29.30	-29.5	-30.0	28.5	0.00e+00	0	32	0	3313500160	30	6432
2026-01-28 16:48:34.72	193.22	29.11	-29.5	-30.2	28.4	0.00e+00	0	33	0	3319791616	30	6563
2026-01-28 16:48:35.73	193.27	28.93	-29.6	-30.2	28.4	0.00e+00	0	33	0	3325034496	30	6612
2026-01-28 16:48:36.74	193.31	28.74	-29.6	-30.3	28.4	0.00e+00	0	33	0	3331325952	30	6618
2026-01-28 16:48:37.75	193.36	28.56	-29.5	-30.2	28.4	0.00e+00	0	33	0	3336568832	30	6562
2026-01-28 16:48:38.76	193.41	28.38	-29.5	-30.2	28.4	0.00e+00	0	33	0	3341811712	30	6587
2026-01-28 16:48:39.77	193.45	28.20	-29.5	-30.2	28.5	0.00e+00	0	32	0	3348103168	30	6566
2026-01-28 16:48:40.78	193.50	28.02	-29.4	-30.1	28.5	0.00e+00	0	33	0	3353346048	30	6526
2026-01-28 16:48:41.79	193.54	27.84	-29.4	-30.1	28.5	0.00e+00	0	33	0	3359637504	30	6527
2026-01-28 16:48:42.80	193.58	27.66	-29.4	-30.0	28.4	0.00e+00	0	33	0	3364880384	30	6407
2026-01-28 16:48:43.80	193.63	27.49	-29.4	-30.1	28.5	0.00e+00	0	33	0	3370123264	30	6487
2026-01-28 16:48:44.81	193.67	27.31	-29.6	-30.2	28.3	0.00e+00	0	33	0	3376414720	30	6564
2026-01-28 16:48:45.82	193.71	27.14	-29.4	-29.9	28.5	0.00e+00	0	33	0	3381657600	30	6376
2026-01-28 16:48:46.83	193.76	26.97	-29.3	-29.8	28.6	0.00e+00	0	33	0	3387949056	30	6293
2026-01-28 16:48:47.84	193.80	26.80	-29.3	-29.9	28.6	0.00e+00	0	33	0	3393191936	30	6386
2026-01-28 16:48:48.85	193.84	26.62	-29.3	-29.8	28.5	0.00e+00	0	33	0	3398434816	30	6304
2026-01-28 16:48:49.86	193.88	26.46	-29.3	-29.8	28.6	0.00e+00	0	33	0	3404726272	30	6268
2026-01-28 16:48:50.87	193.92	26.29	-29.4	-29.9	28.4	0.00e+00	0	32	0	3409969152	30	6364
2026-01-28 16:48:51.88	193.96	26.12	-29.2	-29.7	28.6	0.00e+00	0	32	0	3416260608	30	6226
2026-01-28 16:48:52.89	194.00	25.95	-29.4	-29.9	28.5	0.00e+00	0	33	0	3421503488	30	6372
2026-01-28 16:48:53.90	194.04	25.79	-29.3	-29.8	28.5	0.00e+00	0	33	0	3427794944	30	6309
2026-01-28 16:48:54.91	194.08	25.62	-29.4	-29.9	28.5	0.00e+00	0	33	0	3433037824	30	6342
2026-01-28 16:48:55.92	194.12	25.46	-29.4	-30.0	28.4	0.00e+00	0	33	0	3438280704	30	6397
2026-01-28 16:48:56.93	194.16	25.30	-29.5	-30.0	28.5	0.00e+00	0	32	0	3444572160	30	6433
2026-01-28 16:48:57.94	194.20	25.14	-29.6	-30.1	28.3	0.00e+00	0	33	0	3449815040	30	6537
2026-01-28 16:48:58.94	194.24	24.98	-29.6	-30.2	28.3	0.00e+00	0	33	0	3456106496	30	6554
2026-01-28 16:48:59.95	194.27	24.82	-29.7	-30.2	28.2	0.00e+00	0	32	0	3461349376	32	5884
2026-01-28 16:49:00.96	194.31	24.66	-29.9	-30.5	28.0	0.00e+00	0	32	0	3466592256	32	6040
2026-01-28 16:49:01.97	194.35	24.50	-29.8	-30.4	28.1	0.00e+00	0	32	0	3472883712	32	5996
2026-01-28 16:49:02.98	194.38	24.34	-29.9	-30.5	28.0	0.00e+00	0	33	0	3478126592	32	6063
2026-01-28 16:49:03.99	194.42	24.19	-30.0	-30.5	28.0	0.00e+00	0	32	0	3484418048	32	6083
2026-01-28 16:49:05.00	194.46	24.03	-30.0	-30.6	28.0	0.00e+00	0	32	0	3489660928	32	6113
2026-01-28 16:49:06.01	194.49	23.88	-29.9	-30.5	28.1	0.00e+00	0	33	0	3494903808	32	6054
2026-01-28 16:49:07.03	194.53	23.73	-30.0	-30.6	28.0	0.00e+00	0	33	0	3501195264	32	6106
2026-01-28 16:49:08.03	194.56	23.57	-30.0	-30.5	28.0	0.00e+00	0	33	0	3506438144	32	6087
2026-01-28 16:49:09.04	194.60	23.42	-30.0	-30.6	28.0	0.00e+00	0	33	0	3512729600	32	6111
2026-01-28 16:49:10.05	194.63	23.27	-29.9	-30.5	28.0	0.00e+00	0	32	0	3517972480	32	6061
2026-01-28 16:49:11.06	194.67	23.12	-30.0	-30.5	28.1	0.00e+00	0	33	0	3524263936	32	6096
2026-01-28 16:49:12.07	194.70	22.97	-29.9	-30.5	28.1	0.00e+00	0	33	0	3529506816	32	6048
2026-01-28 16:49:13.08	194.73	22.83	-30.0	-30.5	28.0	0.00e+00	0	33	0	3535798272	32	6083
2026-01-28 16:49:14.09	194.77	22.68	-29.9	-30.5	28.0	0.00e+00	0	33	0	3541041152	32	6053
2026-01-28 16:49:15.10	194.80	22.53	-30.0	-30.5	28.0	0.00e+00	0	33	0	3546284032	32	6063
2026-01-28 16:49:16.11	194.83	22.39	-30.0	-30.6	28.0	0.00e+00	0	32	0	3552575488	32	6110
2026-01-28 16:49:17.13	194.87	22.24	-30.0	-30.5	28.0	0.00e+00	0	32	0	3557818368	32	6094
2026-01-28 16:49:18.13	194.90	22.10	-29.9	-30.5	28.0	0.00e+00	0	33	0	3564109824	32	6046
2026-01-28 16:49:19.14	194.93	21.96	-30.0	-30.6	28.0	0.00e+00	0	33	0	3569352704	32	6114
2026-01-28 16:49:20.15	194.96	21.81	-30.0	-30.5	27.9	0.00e+00	0	33	0	3574595584	32	6096
2026-01-28 16:49:21.16	194.99	21.67	-30.1	-30.6	27.9	0.00e+00	0	33	0	3580887040	32	6167
2026-01-28 16:49:22.17	195.02	21.53	-30.2	-30.8	27.8	0.00e+00	0	33	0	3586129920	32	6252
2026-01-28 16:49:23.18	195.05	21.39	-30.3	-31.0	27.8	0.00e+00	0	33	0	3592421376	32	6429
2026-01-28 16:49:24.18	195.08	21.26	-30.1	-30.6	27.9	0.00e+00	0	33	0	3597664256	32	6149
2026-01-28 16:49:25.19	195.11	21.12	-30.1	-30.7	27.9	0.00e+00	0	33	0	3602907136	32	6177
2026-01-28 16:49:26.20	195.14	20.98	-30.3	-30.8	27.8	0.00e+00	0	33	0	3609198592	32	6294
2026-01-28 16:49:27.22	195.18	20.84	-30.3	-30.9	27.8	0.00e+00	0	33	0	3614441472	32	6323
2026-01-28 16:49:28.22	195.20	20.71	-30.4	-31.0	27.7	0.00e+00	0	33	0	3620732928	32	6403
2026-01-28 16:49:29.23	195.23	20.57	-30.6	-31.2	27.4	0.00e+00	0	33	0	3625975808	32	6543
2026-01-28 16:49:30.24	195.26	20.44	-30.5	-31.1	27.6	0.00e+00	0	33	0	3632267264	32	6469
2026-01-28 16:49:31.25	195.29	20.30	-30.4	-31.0	27.6	0.00e+00	0	33	0	3637510144	32	6424
2026-01-28 16:49:32.26	195.32	20.17	-30.4	-30.9	27.6	0.00e+00	0	33	0	3642753024	32	6384
2026-01-28 16:49:33.27	195.35	20.04	-30.5	-31.0	27.6	0.00e+00	0	33	0	3649044480	32	6463
2026-01-28 16:49:34.28	195.38	19.91	-30.6	-31.2	27.4	0.00e+00	0	33	0	3654287360	32	6581
