passes_logs/2026/01/28/R4.6S_Anadyr/R4.6S_Anadyr__20260128_122027_SUOMI_NPP_rec.log

#Pass ID: 20260128_122027_SUOMI NPP
#Satellite: SUOMI NPP
#Configuration: NPP
#almurnet v.1.7.20251203
#Start time: 2026-01-28 12:20:30

#Version: 2.2.20231116
#Station: R4.6S_Anadyr
#Location: 177.4865 lon 64.73178 lat
#TLE: 1 37849U 11061A   26027.86188320  .00000172  00000+0  10275-3 0  9990
#TLE: 2 37849  98.7823 329.8005 0002088  41.4184 318.7150 14.19530883738530

#Time	Az	El	Level	Level2	SNR	BER	BlckErr	Temp	State	Recorded	gain1	gain2
2026-01-28 12:20:30.20	19.41	0.14	-48.5	-61.1	3.4	1.52e+00	0	30	0	0	60	39747
2026-01-28 12:20:31.20	19.49	0.18	-48.5	-63.8	3.6	1.51e+00	0	31	104	0	60	55732
2026-01-28 12:20:32.21	19.57	0.23	-48.5	-63.7	3.6	1.51e+00	0	31	104	0	60	55401
2026-01-28 12:20:33.22	19.65	0.28	-48.5	-63.8	3.6	1.51e+00	0	31	104	0	60	55962
2026-01-28 12:20:34.23	19.73	0.33	-48.5	-63.8	3.6	1.51e+00	0	32	104	0	60	55788
2026-01-28 12:20:35.24	19.81	0.38	-48.6	-63.8	3.6	1.51e+00	0	32	104	0	60	55908
2026-01-28 12:20:36.25	19.89	0.43	-48.6	-63.7	3.6	1.51e+00	0	32	104	0	60	55570
2026-01-28 12:20:37.26	19.97	0.47	-48.6	-63.8	3.6	1.51e+00	0	32	104	0	60	55994
2026-01-28 12:20:38.27	20.05	0.52	-48.6	-63.8	3.6	1.51e+00	0	32	104	0	60	56172
2026-01-28 12:20:39.28	20.13	0.57	-48.6	-63.8	3.6	1.51e+00	0	32	104	0	60	55991
2026-01-28 12:20:40.29	20.21	0.62	-48.5	-63.7	3.6	1.51e+00	0	32	104	0	60	55585
2026-01-28 12:20:41.31	20.29	0.67	-48.5	-63.7	3.6	1.51e+00	0	32	104	0	60	55552
2026-01-28 12:20:42.31	20.37	0.72	-48.4	-63.7	3.6	1.51e+00	0	32	104	0	60	55660
2026-01-28 12:20:43.33	20.45	0.77	-48.5	-63.7	3.6	1.51e+00	0	32	104	0	60	55295
2026-01-28 12:20:44.34	20.53	0.81	-48.5	-63.7	3.6	1.51e+00	0	32	104	0	60	55142
2026-01-28 12:20:45.34	20.61	0.86	-48.4	-63.6	3.6	1.51e+00	0	32	104	0	60	54717
2026-01-28 12:20:46.35	20.69	0.91	-48.3	-63.5	3.6	1.51e+00	0	32	104	0	60	54215
2026-01-28 12:20:47.37	20.78	0.96	-48.3	-63.5	3.6	1.51e+00	0	32	104	0	60	53843
2026-01-28 12:20:48.38	20.86	1.01	-48.2	-63.3	3.6	1.51e+00	0	32	104	0	60	53106
2026-01-28 12:20:49.39	20.94	1.06	-48.0	-63.2	3.6	1.51e+00	0	32	104	0	60	52524
2026-01-28 12:20:50.40	21.02	1.11	-48.0	-63.2	3.6	1.51e+00	0	32	104	0	60	52325
2026-01-28 12:20:51.41	21.11	1.16	-47.9	-63.0	3.6	1.51e+00	0	32	104	0	60	51187
2026-01-28 12:20:52.42	21.19	1.20	-47.7	-62.9	3.6	1.51e+00	0	32	104	0	60	50258
2026-01-28 12:20:53.43	21.27	1.25	-47.5	-62.6	3.6	1.51e+00	0	32	104	0	60	49005
2026-01-28 12:20:54.44	21.36	1.30	-47.1	-62.3	3.6	1.51e+00	0	32	104	0	60	47004
2026-01-28 12:20:55.45	21.44	1.35	-47.0	-62.2	3.6	1.51e+00	0	32	104	0	60	46412
2026-01-28 12:20:56.46	21.53	1.40	-47.0	-62.1	3.6	1.51e+00	0	32	104	0	60	46004
2026-01-28 12:20:57.46	21.61	1.45	-46.9	-62.2	3.6	1.51e+00	0	32	104	0	60	46329
2026-01-28 12:20:58.47	21.70	1.50	-47.0	-62.1	3.6	1.51e+00	0	32	104	0	60	46151
2026-01-28 12:20:59.48	21.78	1.55	-46.9	-62.2	3.6	1.51e+00	0	32	104	0	60	46383
2026-01-28 12:21:00.49	21.87	1.60	-46.9	-62.1	3.6	1.51e+00	0	32	104	0	60	46109
2026-01-28 12:21:01.50	21.95	1.65	-46.9	-62.1	3.6	1.51e+00	0	32	104	0	60	46204
2026-01-28 12:21:02.51	22.04	1.70	-46.9	-62.2	3.6	1.51e+00	0	32	104	0	60	46555
2026-01-28 12:21:03.52	22.12	1.74	-46.9	-62.1	3.6	1.51e+00	0	32	104	0	60	46036
2026-01-28 12:21:04.53	22.21	1.79	-46.9	-62.1	3.6	1.51e+00	0	32	104	0	60	46114
2026-01-28 12:21:05.54	22.30	1.84	-46.9	-62.1	3.6	1.51e+00	0	32	104	0	60	45996
2026-01-28 12:21:06.55	22.38	1.89	-46.9	-62.0	3.6	1.51e+00	0	32	104	0	60	45418
2026-01-28 12:21:07.56	22.47	1.94	-46.9	-62.0	3.6	1.51e+00	0	32	104	0	60	45268
2026-01-28 12:21:08.57	22.56	1.99	-46.9	-62.0	3.6	1.51e+00	0	32	104	0	60	45390
2026-01-28 12:21:09.58	22.65	2.04	-46.9	-62.0	3.6	1.51e+00	0	32	104	0	60	45649
2026-01-28 12:21:10.59	22.74	2.09	-46.9	-62.2	3.6	1.51e+00	0	32	104	0	60	46304
2026-01-28 12:21:11.60	22.82	2.14	-46.9	-62.1	3.6	1.51e+00	0	32	104	0	60	46112
2026-01-28 12:21:12.62	22.91	2.19	-46.9	-62.1	3.6	1.51e+00	0	32	104	0	60	45991
2026-01-28 12:21:13.62	23.00	2.24	-46.9	-62.1	3.6	1.51e+00	0	32	104	0	60	46178
2026-01-28 12:21:14.63	23.09	2.29	-46.9	-62.0	3.6	1.51e+00	0	32	104	0	60	45453
2026-01-28 12:21:15.65	23.18	2.34	-46.9	-61.5	3.6	1.51e+00	0	32	104	0	60	43199
2026-01-28 12:21:16.66	23.27	2.39	-46.9	-61.0	3.6	1.51e+00	0	32	104	0	60	40604
2026-01-28 12:21:17.66	23.36	2.44	-46.9	-61.2	3.6	1.51e+00	0	32	104	0	60	41394
2026-01-28 12:21:18.68	23.45	2.49	-46.9	-61.5	3.6	1.51e+00	0	32	104	0	60	42979
2026-01-28 12:21:19.69	23.54	2.54	-46.8	-60.1	3.6	1.51e+00	0	32	104	0	60	36534
2026-01-28 12:21:20.70	23.63	2.59	-46.4	-54.9	6.5	7.93e-01	0	32	0	0	60	20082
2026-01-28 12:21:21.71	23.72	2.64	-45.3	-50.1	10.7	2.93e-02	63	32	0	1048576	60	11513
2026-01-28 12:21:22.72	23.82	2.69	-43.7	-46.8	14.4	5.24e-04	0	32	0	3145728	60	7883
2026-01-28 12:21:23.73	23.91	2.74	-42.5	-44.9	16.0	0.00e+00	61	32	0	5242880	58	7107
2026-01-28 12:21:24.74	24.00	2.79	-41.6	-43.5	17.4	0.00e+00	0	32	0	7340032	56	6838
2026-01-28 12:21:25.75	24.09	2.84	-41.8	-43.8	17.2	0.00e+00	0	32	0	9437184	56	7032
2026-01-28 12:21:26.76	24.19	2.89	-41.0	-42.7	18.3	0.00e+00	0	32	0	10485760	56	6209
2026-01-28 12:21:27.77	24.28	2.94	-42.3	-44.5	16.2	0.00e+00	0	32	0	12582912	56	7665
2026-01-28 12:21:28.78	24.37	2.99	-43.5	-46.5	14.3	0.00e+00	81	32	0	14680064	58	8565
2026-01-28 12:21:29.78	24.46	3.04	-43.0	-45.5	16.1	7.00e-07	0	32	0	16777216	60	6841
2026-01-28 12:21:30.80	24.56	3.09	-41.4	-43.2	17.8	0.00e+00	92	32	0	18874368	56	6588
2026-01-28 12:21:31.81	24.65	3.14	-42.9	-45.4	14.6	0.00e+00	0	32	0	19922944	56	8506
2026-01-28 12:21:32.82	24.75	3.19	-46.5	-57.0	4.3	1.50e+00	0	32	104	20971520	60	25490
2026-01-28 12:21:33.82	24.84	3.24	-41.3	-43.1	17.7	5.54e-01	0	32	104	20971520	60	5181
2026-01-28 12:21:34.83	24.94	3.29	-44.9	-48.7	13.7	1.99e-02	0	32	0	22020096	60	9874
2026-01-28 12:21:35.84	25.03	3.34	-42.4	-44.5	16.7	7.00e-07	59	32	0	24117248	58	6840
2026-01-28 12:21:36.85	25.13	3.39	-42.0	-44.0	17.4	0.00e+00	0	32	0	26214400	56	7233
2026-01-28 12:21:37.86	25.23	3.44	-41.8	-43.7	17.5	0.00e+00	91	32	0	27262976	56	6935
2026-01-28 12:21:38.87	25.32	3.49	-41.6	-43.4	17.7	0.00e+00	0	32	0	29360128	56	6743
2026-01-28 12:21:39.88	25.42	3.54	-41.3	-43.0	18.1	0.00e+00	0	32	0	31457280	56	6456
2026-01-28 12:21:40.89	25.52	3.59	-41.8	-43.7	17.4	0.00e+00	0	32	0	33554432	56	6971
2026-01-28 12:21:41.90	25.61	3.65	-41.5	-43.2	18.1	0.00e+00	0	32	0	35651584	56	6611
2026-01-28 12:21:42.91	25.71	3.70	-40.6	-42.1	19.1	0.00e+00	8	32	0	36700160	54	6537
2026-01-28 12:21:43.92	25.81	3.75	-40.5	-42.1	19.0	0.00e+00	0	32	0	38797312	54	6493
2026-01-28 12:21:44.93	25.91	3.80	-40.7	-42.2	19.0	0.00e+00	92	32	0	40894464	52	7414
2026-01-28 12:21:45.94	26.01	3.85	-40.0	-41.5	19.6	0.00e+00	33	32	0	42991616	52	6770
2026-01-28 12:21:46.95	26.10	3.90	-40.2	-41.7	19.4	0.00e+00	35	32	0	45088768	52	6955
2026-01-28 12:21:47.96	26.20	3.95	-39.7	-41.0	19.9	0.00e+00	0	32	0	46137344	52	6444
2026-01-28 12:21:48.97	26.30	4.00	-39.9	-41.2	20.1	0.00e+00	0	32	0	48234496	52	6595
2026-01-28 12:21:49.99	26.40	4.05	-39.5	-40.8	20.2	0.00e+00	2	32	0	50331648	52	6294
2026-01-28 12:21:51.00	26.51	4.10	-39.0	-40.2	20.9	0.00e+00	0	32	0	52428800	52	5862
2026-01-28 12:21:52.00	26.60	4.15	-38.8	-40.0	20.9	0.00e+00	59	32	0	54525952	52	5722
2026-01-28 12:21:53.01	26.71	4.20	-39.1	-40.3	20.8	0.00e+00	0	32	0	56623104	52	5947
2026-01-28 12:21:54.02	26.81	4.25	-39.1	-40.4	20.7	0.00e+00	50	32	0	57671680	52	5984
2026-01-28 12:21:55.03	26.91	4.31	-39.1	-40.3	20.8	0.00e+00	0	32	0	59768832	52	5951
2026-01-28 12:21:56.04	27.01	4.36	-39.3	-40.6	20.6	0.00e+00	0	32	0	61865984	52	6111
2026-01-28 12:21:57.05	27.11	4.41	-39.4	-40.6	20.5	0.00e+00	41	32	0	63963136	52	6156
2026-01-28 12:21:58.06	27.22	4.46	-39.0	-40.3	20.8	0.00e+00	0	32	0	65011712	52	5899
2026-01-28 12:21:59.07	27.32	4.51	-39.4	-40.7	20.4	0.00e+00	92	32	0	67108864	52	6226
2026-01-28 12:22:00.08	27.42	4.56	-39.4	-40.6	20.6	0.00e+00	0	32	0	69206016	52	6149
2026-01-28 12:22:01.09	27.53	4.61	-39.8	-41.2	19.9	0.00e+00	82	32	0	71303168	52	6549
2026-01-28 12:22:02.10	27.63	4.66	-39.8	-41.1	20.1	0.00e+00	0	32	0	73400320	52	6501
2026-01-28 12:22:03.11	27.73	4.71	-39.7	-41.0	20.2	0.00e+00	0	32	0	74448896	52	6409
2026-01-28 12:22:04.12	27.84	4.77	-39.7	-41.0	20.3	0.00e+00	25	32	0	76546048	52	6449
2026-01-28 12:22:05.12	27.94	4.82	-39.8	-41.2	20.0	0.00e+00	0	32	0	78643200	52	6567
2026-01-28 12:22:06.13	28.05	4.87	-39.7	-41.0	20.1	0.00e+00	62	32	0	80740352	52	6433
2026-01-28 12:22:07.15	28.16	4.92	-39.7	-41.0	20.1	0.00e+00	0	32	0	82837504	52	6458
2026-01-28 12:22:08.15	28.26	4.97	-39.5	-40.7	20.4	0.00e+00	67	32	0	84934656	52	6237
2026-01-28 12:22:09.17	28.37	5.02	-39.8	-41.2	20.2	0.00e+00	0	33	0	85983232	52	6551
2026-01-28 12:22:10.17	28.47	5.07	-39.6	-41.0	20.2	0.00e+00	33	32	0	88080384	52	6392
2026-01-28 12:22:11.18	28.58	5.12	-39.6	-40.9	20.5	0.00e+00	0	32	0	90177536	52	6354
2026-01-28 12:22:12.19	28.69	5.18	-39.5	-40.8	20.4	0.00e+00	0	32	0	92274688	52	6290
2026-01-28 12:22:13.21	28.80	5.23	-39.5	-40.7	20.5	0.00e+00	31	33	0	94371840	52	6223
2026-01-28 12:22:14.21	28.90	5.28	-39.7	-41.0	20.2	0.00e+00	0	33	0	95420416	52	6403
2026-01-28 12:22:15.22	29.01	5.33	-39.9	-41.2	20.1	0.00e+00	64	32	0	97517568	52	6586
2026-01-28 12:22:16.23	29.12	5.38	-39.7	-41.0	20.3	0.00e+00	0	32	0	99614720	52	6404
2026-01-28 12:22:17.25	29.23	5.43	-39.7	-41.0	20.3	0.00e+00	0	32	0	101711872	52	6408
2026-01-28 12:22:18.25	29.34	5.48	-39.7	-41.0	20.4	0.00e+00	0	33	0	103809024	52	6408
2026-01-28 12:22:19.27	29.45	5.54	-40.0	-41.4	19.9	0.00e+00	0	33	0	104857600	52	6739
2026-01-28 12:22:20.28	29.56	5.59	-39.4	-40.6	20.6	0.00e+00	8	32	0	106954752	52	6145
2026-01-28 12:22:21.29	29.67	5.64	-39.3	-40.5	20.8	0.00e+00	0	32	0	109051904	52	6062
2026-01-28 12:22:22.29	29.78	5.69	-39.5	-40.8	20.5	0.00e+00	75	33	0	111149056	52	6287
2026-01-28 12:22:23.30	29.90	5.74	-39.5	-40.7	20.6	0.00e+00	0	33	0	113246208	52	6206
2026-01-28 12:22:24.31	30.01	5.79	-39.1	-40.2	21.0	0.00e+00	0	33	0	114294784	52	5880
2026-01-28 12:22:25.32	30.12	5.84	-39.5	-40.7	20.6	0.00e+00	0	33	0	116391936	52	6226
2026-01-28 12:22:26.33	30.23	5.90	-39.7	-40.9	20.7	0.00e+00	0	32	0	118489088	52	6365
2026-01-28 12:22:27.33	30.34	5.95	-39.7	-41.0	20.6	0.00e+00	0	33	0	120586240	52	6400
2026-01-28 12:22:28.34	30.46	6.00	-39.7	-41.0	20.3	0.00e+00	0	33	0	122683392	52	6450
2026-01-28 12:22:29.35	30.57	6.05	-39.1	-40.3	21.1	0.00e+00	63	33	0	123731968	52	5912
2026-01-28 12:22:30.36	30.69	6.10	-39.1	-40.3	21.0	0.00e+00	0	32	0	125829120	52	5898
2026-01-28 12:22:31.37	30.80	6.15	-38.9	-40.0	21.3	0.00e+00	68	33	0	127926272	52	5754
2026-01-28 12:22:32.39	30.92	6.21	-38.6	-39.8	21.4	0.00e+00	0	33	0	130023424	50	6254
2026-01-28 12:22:33.40	31.03	6.26	-38.6	-39.7	21.5	0.00e+00	0	33	0	132120576	50	6210
2026-01-28 12:22:34.40	31.15	6.31	-38.6	-39.7	21.5	0.00e+00	0	32	0	133169152	50	6180
2026-01-28 12:22:35.41	31.26	6.36	-38.3	-39.4	21.8	0.00e+00	33	32	0	135266304	50	5972
2026-01-28 12:22:36.42	31.38	6.41	-38.3	-39.4	21.7	0.00e+00	69	33	0	137363456	50	5979
2026-01-28 12:22:37.43	31.50	6.46	-38.3	-39.4	21.9	0.00e+00	0	33	0	139460608	50	5971
2026-01-28 12:22:38.44	31.61	6.51	-38.3	-39.4	21.8	0.00e+00	92	33	0	141557760	50	5986
2026-01-28 12:22:39.45	31.73	6.57	-38.1	-39.1	21.9	0.00e+00	0	32	0	142606336	50	5818
2026-01-28 12:22:40.46	31.85	6.62	-38.2	-39.2	21.9	0.00e+00	0	32	0	144703488	50	5894
2026-01-28 12:22:41.47	31.97	6.67	-38.5	-39.6	21.6	0.00e+00	0	33	0	146800640	50	6159
2026-01-28 12:22:42.48	32.09	6.72	-38.5	-39.5	21.9	0.00e+00	0	33	0	148897792	50	6101
2026-01-28 12:22:43.49	32.21	6.77	-38.5	-39.6	21.7	0.00e+00	44	32	0	150994944	50	6153
2026-01-28 12:22:44.50	32.33	6.82	-38.4	-39.4	21.8	0.00e+00	0	32	0	153092096	50	6029
2026-01-28 12:22:45.50	32.45	6.88	-38.7	-39.8	21.6	0.00e+00	92	33	0	154140672	50	6290
2026-01-28 12:22:46.51	32.57	6.93	-38.4	-39.5	21.7	0.00e+00	0	33	0	156237824	50	6076
2026-01-28 12:22:47.52	32.69	6.98	-38.7	-39.8	21.4	0.00e+00	0	33	0	158334976	50	6306
2026-01-28 12:22:48.53	32.81	7.03	-38.6	-39.7	21.3	0.00e+00	0	33	0	160432128	50	6235
2026-01-28 12:22:49.54	32.93	7.08	-38.6	-39.7	21.0	0.00e+00	0	33	0	162529280	50	6190
2026-01-28 12:22:50.55	33.05	7.13	-38.6	-39.7	21.2	0.00e+00	0	33	0	163577856	50	6221
2026-01-28 12:22:51.56	33.18	7.19	-38.5	-39.6	21.6	0.00e+00	0	33	0	165675008	50	6107
2026-01-28 12:22:52.57	33.30	7.24	-38.8	-39.9	21.4	0.00e+00	95	33	0	167772160	50	6380
2026-01-28 12:22:53.58	33.42	7.29	-38.6	-39.7	21.5	0.00e+00	0	33	0	169869312	50	6230
2026-01-28 12:22:54.59	33.55	7.34	-38.6	-39.7	21.6	0.00e+00	0	33	0	171966464	50	6201
2026-01-28 12:22:55.60	33.67	7.39	-38.8	-39.9	21.4	0.00e+00	0	33	0	173015040	50	6354
2026-01-28 12:22:56.61	33.80	7.44	-38.9	-40.1	21.3	0.00e+00	0	33	0	175112192	50	6500
2026-01-28 12:22:57.61	33.92	7.50	-39.0	-40.1	21.3	0.00e+00	66	33	0	177209344	50	6513
2026-01-28 12:22:58.62	34.05	7.55	-38.9	-40.0	21.3	0.00e+00	0	33	0	179306496	50	6446
2026-01-28 12:22:59.63	34.17	7.60	-39.0	-40.1	21.2	0.00e+00	92	32	0	181403648	50	6536
2026-01-28 12:23:00.64	34.30	7.65	-38.8	-39.9	21.4	0.00e+00	0	33	0	182452224	50	6343
2026-01-28 12:23:01.65	34.43	7.70	-38.9	-40.1	21.4	0.00e+00	0	33	0	184549376	50	6488
2026-01-28 12:23:02.66	34.55	7.75	-38.7	-39.8	21.5	0.00e+00	0	32	0	186646528	50	6302
2026-01-28 12:23:03.67	34.68	7.80	-38.6	-39.7	21.6	0.00e+00	0	32	0	188743680	50	6223
2026-01-28 12:23:04.68	34.81	7.86	-38.7	-39.8	21.6	0.00e+00	25	32	0	190840832	50	6263
2026-01-28 12:23:05.69	34.94	7.91	-38.7	-39.8	21.6	0.00e+00	0	32	0	191889408	50	6305
2026-01-28 12:23:06.70	35.07	7.96	-38.6	-39.7	21.6	0.00e+00	92	32	0	193986560	50	6182
2026-01-28 12:23:07.71	35.20	8.01	-38.6	-39.7	21.7	0.00e+00	0	32	0	196083712	50	6192
2026-01-28 12:23:08.72	35.33	8.06	-38.8	-39.9	21.5	0.00e+00	92	33	0	198180864	50	6381
2026-01-28 12:23:09.73	35.46	8.11	-38.8	-39.9	21.5	0.00e+00	0	33	0	200278016	50	6358
2026-01-28 12:23:10.74	35.59	8.17	-38.6	-39.6	21.7	0.00e+00	0	33	0	201326592	50	6173
2026-01-28 12:23:11.74	35.72	8.22	-38.5	-39.6	21.7	0.00e+00	17	33	0	203423744	50	6152
2026-01-28 12:23:12.76	35.85	8.27	-38.4	-39.5	21.8	0.00e+00	0	33	0	205520896	50	6087
2026-01-28 12:23:13.77	35.98	8.32	-38.4	-39.5	21.8	0.00e+00	60	33	0	207618048	50	6074
2026-01-28 12:23:14.77	36.11	8.37	-38.2	-39.2	22.1	0.00e+00	0	33	0	209715200	50	5891
2026-01-28 12:23:15.78	36.25	8.42	-38.3	-39.4	21.9	0.00e+00	92	33	0	210763776	50	5978
2026-01-28 12:23:16.79	36.38	8.47	-37.9	-38.9	22.2	0.00e+00	0	33	0	212860928	50	5664
2026-01-28 12:23:17.80	36.52	8.52	-38.0	-39.0	22.1	0.00e+00	0	33	0	214958080	50	5716
2026-01-28 12:23:18.81	36.65	8.58	-38.2	-39.2	22.1	0.00e+00	0	33	0	217055232	50	5865
2026-01-28 12:23:19.82	36.78	8.63	-38.3	-39.3	22.2	0.00e+00	0	33	0	219152384	50	5960
2026-01-28 12:23:20.83	36.92	8.68	-37.9	-38.9	22.3	0.00e+00	61	33	0	221249536	50	5650
2026-01-28 12:23:21.84	37.06	8.73	-38.0	-39.1	22.4	0.00e+00	0	33	0	222298112	50	5766
2026-01-28 12:23:22.85	37.19	8.78	-38.0	-39.0	22.3	0.00e+00	61	33	0	224395264	50	5718
2026-01-28 12:23:23.86	37.33	8.83	-38.0	-39.0	22.3	0.00e+00	0	33	0	226492416	50	5734
2026-01-28 12:23:24.87	37.47	8.88	-38.0	-39.0	22.3	0.00e+00	0	33	0	228589568	50	5757
2026-01-28 12:23:25.88	37.60	8.93	-37.7	-38.7	22.6	0.00e+00	0	33	0	230686720	48	6200
2026-01-28 12:23:26.89	37.74	8.98	-38.0	-39.0	22.3	0.00e+00	0	32	0	231735296	48	6456
2026-01-28 12:23:27.90	37.88	9.04	-37.6	-38.6	22.6	0.00e+00	20	33	0	233832448	48	6155
2026-01-28 12:23:28.91	38.02	9.09	-37.3	-38.3	22.8	0.00e+00	0	33	0	235929600	48	5925
2026-01-28 12:23:29.91	38.16	9.14	-37.1	-38.1	23.0	0.00e+00	92	33	0	238026752	48	5771
2026-01-28 12:23:30.92	38.30	9.19	-37.1	-38.1	23.1	0.00e+00	0	33	0	240123904	48	5771
2026-01-28 12:23:31.93	38.44	9.24	-36.9	-37.8	23.2	0.00e+00	0	33	0	241172480	48	5606
2026-01-28 12:23:32.94	38.58	9.29	-37.0	-37.9	23.2	0.00e+00	0	33	0	243269632	48	5651
2026-01-28 12:23:33.95	38.72	9.34	-36.9	-37.8	23.3	0.00e+00	0	33	0	245366784	48	5577
2026-01-28 12:23:34.96	38.86	9.39	-37.1	-38.0	23.1	0.00e+00	64	33	0	247463936	48	5741
2026-01-28 12:23:35.97	39.01	9.44	-37.2	-38.1	23.0	0.00e+00	0	33	0	249561088	48	5811
2026-01-28 12:23:36.98	39.15	9.49	-37.2	-38.1	23.1	0.00e+00	61	33	0	250609664	48	5809
2026-01-28 12:23:37.99	39.29	9.54	-37.3	-38.3	22.9	0.00e+00	0	33	0	252706816	48	5909
2026-01-28 12:23:39.00	39.44	9.59	-37.4	-38.3	22.9	0.00e+00	19	33	0	254803968	48	5936
2026-01-28 12:23:40.01	39.58	9.64	-37.3	-38.2	23.0	0.00e+00	0	33	0	256901120	48	5895
2026-01-28 12:23:41.02	39.72	9.69	-37.4	-38.3	22.8	0.00e+00	0	33	0	258998272	48	5939
2026-01-28 12:23:42.03	39.87	9.74	-37.3	-38.3	22.8	0.00e+00	0	33	0	260046848	48	5899
2026-01-28 12:23:43.04	40.02	9.79	-37.3	-38.3	23.0	0.00e+00	0	33	0	262144000	48	5911
2026-01-28 12:23:44.05	40.16	9.84	-37.3	-38.3	22.9	0.00e+00	64	33	0	264241152	48	5926
2026-01-28 12:23:45.06	40.31	9.89	-37.2	-38.2	22.9	0.00e+00	0	33	0	266338304	48	5853
2026-01-28 12:23:46.06	40.45	9.94	-37.2	-38.1	23.1	0.00e+00	46	33	0	268435456	48	5821
2026-01-28 12:23:47.07	40.60	9.99	-37.2	-38.1	23.0	0.00e+00	0	33	0	269484032	48	5788
2026-01-28 12:23:48.08	40.75	10.04	-37.2	-38.1	23.1	0.00e+00	0	33	0	271581184	48	5823
2026-01-28 12:23:49.09	40.90	10.09	-37.1	-38.0	23.2	0.00e+00	0	33	0	273678336	48	5754
2026-01-28 12:23:50.10	41.05	10.14	-37.3	-38.3	23.0	0.00e+00	0	33	0	275775488	48	5908
2026-01-28 12:23:51.11	41.20	10.19	-37.3	-38.2	22.9	0.00e+00	23	33	0	277872640	48	5886
2026-01-28 12:23:52.12	41.35	10.24	-37.4	-38.4	22.9	0.00e+00	0	33	0	278921216	48	6000
2026-01-28 12:23:53.13	41.50	10.29	-37.4	-38.4	22.8	0.00e+00	90	33	0	281018368	48	5996
2026-01-28 12:23:54.14	41.65	10.34	-37.4	-38.4	22.9	0.00e+00	0	33	0	283115520	48	6011
2026-01-28 12:23:55.15	41.80	10.39	-37.4	-38.3	23.0	0.00e+00	0	33	0	285212672	48	5933
2026-01-28 12:23:56.16	41.95	10.44	-37.2	-38.1	23.1	0.00e+00	0	33	0	287309824	48	5812
2026-01-28 12:23:57.17	42.11	10.49	-37.5	-38.5	22.9	0.00e+00	33	33	0	289406976	48	6034
2026-01-28 12:23:58.18	42.26	10.54	-37.3	-38.3	23.0	0.00e+00	65	33	0	290455552	48	5909
2026-01-28 12:23:59.19	42.41	10.59	-37.2	-38.1	23.1	0.00e+00	0	33	0	292552704	48	5822
2026-01-28 12:24:00.20	42.57	10.64	-37.4	-38.4	23.0	0.00e+00	92	33	0	294649856	48	5966
2026-01-28 12:24:01.21	42.72	10.69	-37.5	-38.4	22.9	0.00e+00	0	33	0	296747008	48	6012
2026-01-28 12:24:02.22	42.88	10.74	-37.4	-38.4	22.7	0.00e+00	0	33	0	298844160	48	6011
2026-01-28 12:24:03.23	43.03	10.78	-37.3	-38.3	22.6	0.00e+00	0	33	0	299892736	48	5922
2026-01-28 12:24:04.24	43.19	10.83	-37.4	-38.4	22.9	0.00e+00	0	33	0	301989888	48	5969
2026-01-28 12:24:05.24	43.34	10.88	-37.4	-38.4	22.8	0.00e+00	67	33	0	304087040	48	5979
2026-01-28 12:24:06.26	43.50	10.93	-37.4	-38.3	23.0	0.00e+00	0	33	0	306184192	48	5934
2026-01-28 12:24:07.26	43.66	10.98	-37.2	-38.2	23.1	0.00e+00	90	33	0	308281344	48	5829
2026-01-28 12:24:08.27	43.82	11.03	-37.4	-38.3	23.0	0.00e+00	0	33	0	309329920	48	5927
2026-01-28 12:24:09.28	43.97	11.07	-37.2	-38.2	23.1	0.00e+00	2	33	0	311427072	48	5841
2026-01-28 12:24:10.29	44.13	11.12	-37.3	-38.3	23.0	0.00e+00	0	33	0	313524224	48	5903
2026-01-28 12:24:11.30	44.29	11.17	-37.4	-38.4	22.9	0.00e+00	0	33	0	315621376	48	6000
2026-01-28 12:24:12.31	44.45	11.22	-37.4	-38.4	22.9	0.00e+00	0	33	0	317718528	48	5999
2026-01-28 12:24:13.32	44.61	11.27	-37.7	-38.7	22.6	0.00e+00	0	33	0	318767104	48	6245
2026-01-28 12:24:14.33	44.78	11.31	-37.8	-38.8	22.5	0.00e+00	52	33	0	320864256	48	6292
2026-01-28 12:24:15.34	44.94	11.36	-38.0	-39.1	22.3	0.00e+00	0	33	0	322961408	48	6469
2026-01-28 12:24:16.35	45.10	11.41	-38.0	-39.0	22.4	0.00e+00	92	33	0	325058560	48	6456
2026-01-28 12:24:17.36	45.26	11.46	-38.1	-39.1	22.4	0.00e+00	0	33	0	327155712	48	6503
2026-01-28 12:24:18.37	45.43	11.50	-38.1	-39.2	22.2	0.00e+00	0	33	0	328204288	48	6567
2026-01-28 12:24:19.38	45.59	11.55	-38.1	-39.1	22.4	0.00e+00	0	33	0	330301440	48	6487
2026-01-28 12:24:20.39	45.75	11.60	-37.7	-38.7	22.7	0.00e+00	0	33	0	332398592	48	6234
2026-01-28 12:24:21.40	45.92	11.65	-37.7	-38.7	22.7	0.00e+00	92	33	0	334495744	48	6189
2026-01-28 12:24:22.41	46.08	11.69	-37.6	-38.6	22.6	0.00e+00	0	33	0	336592896	48	6122
2026-01-28 12:24:23.42	46.25	11.74	-38.0	-39.0	22.3	0.00e+00	92	33	0	337641472	48	6436
2026-01-28 12:24:24.42	46.41	11.79	-38.0	-39.0	22.5	0.00e+00	0	33	0	339738624	48	6406
2026-01-28 12:24:25.43	46.58	11.83	-37.9	-38.9	22.5	0.00e+00	0	33	0	341835776	48	6376
2026-01-28 12:24:26.44	46.75	11.88	-38.2	-39.2	22.3	0.00e+00	0	33	0	343932928	48	6608
2026-01-28 12:24:27.45	46.92	11.92	-38.1	-39.1	22.3	0.00e+00	0	33	0	346030080	48	6533
2026-01-28 12:24:28.46	47.08	11.97	-38.2	-39.3	22.2	0.00e+00	64	33	0	347078656	48	6619
2026-01-28 12:24:29.47	47.25	12.02	-38.2	-39.3	22.4	0.00e+00	33	33	0	349175808	48	6635
2026-01-28 12:24:30.48	47.42	12.06	-38.2	-39.2	22.4	0.00e+00	69	33	0	351272960	48	6584
2026-01-28 12:24:31.49	47.59	12.11	-38.2	-39.2	22.4	0.00e+00	0	33	0	353370112	48	6578
2026-01-28 12:24:32.50	47.76	12.15	-38.1	-39.2	22.4	0.00e+00	33	33	0	355467264	48	6542
2026-01-28 12:24:33.50	47.93	12.20	-38.1	-39.1	22.4	0.00e+00	0	33	0	356515840	48	6524
2026-01-28 12:24:34.51	48.10	12.24	-38.2	-39.2	22.3	0.00e+00	0	33	0	358612992	48	6613
2026-01-28 12:24:35.52	48.28	12.29	-38.0	-39.1	22.4	0.00e+00	62	33	0	360710144	48	6479
2026-01-28 12:24:36.53	48.45	12.33	-38.1	-39.1	22.3	0.00e+00	0	33	0	362807296	48	6531
2026-01-28 12:24:37.54	48.62	12.38	-38.3	-39.4	22.2	0.00e+00	92	33	0	364904448	48	6704
2026-01-28 12:24:38.55	48.79	12.42	-38.5	-39.5	22.0	0.00e+00	0	33	0	365953024	48	6831
2026-01-28 12:24:39.56	48.97	12.47	-38.3	-39.4	22.1	0.00e+00	0	33	0	368050176	48	6710
2026-01-28 12:24:40.57	49.14	12.51	-38.3	-39.4	22.0	0.00e+00	0	33	0	370147328	48	6726
2026-01-28 12:24:41.58	49.32	12.56	-38.5	-39.6	22.1	0.00e+00	0	33	0	372244480	48	6874
2026-01-28 12:24:42.59	49.49	12.60	-38.4	-39.5	22.1	0.00e+00	65	33	0	374341632	48	6823
2026-01-28 12:24:43.60	49.67	12.64	-38.7	-39.8	21.8	0.00e+00	0	33	0	375390208	48	7083
2026-01-28 12:24:44.61	49.85	12.69	-38.7	-39.9	21.8	0.00e+00	92	33	0	377487360	50	6318
2026-01-28 12:24:45.62	50.02	12.73	-38.9	-40.0	21.7	0.00e+00	0	33	0	379584512	50	6455
2026-01-28 12:24:46.63	50.20	12.78	-38.9	-40.0	21.8	0.00e+00	49	33	0	381681664	50	6423
2026-01-28 12:24:47.64	50.38	12.82	-38.8	-39.9	21.7	0.00e+00	0	33	0	383778816	50	6371
2026-01-28 12:24:48.65	50.56	12.86	-38.9	-40.0	21.8	0.00e+00	0	33	0	385875968	50	6450
2026-01-28 12:24:49.66	50.74	12.90	-38.8	-40.0	21.7	0.00e+00	0	33	0	386924544	50	6393
2026-01-28 12:24:50.67	50.92	12.95	-38.7	-39.8	21.9	0.00e+00	0	33	0	389021696	50	6272
2026-01-28 12:24:51.68	51.10	12.99	-39.0	-40.1	21.6	0.00e+00	92	33	0	391118848	50	6502
2026-01-28 12:24:52.69	51.28	13.03	-39.1	-40.3	21.4	0.00e+00	0	33	0	393216000	50	6632
2026-01-28 12:24:53.70	51.46	13.07	-39.3	-40.5	21.3	0.00e+00	84	33	0	395313152	50	6804
2026-01-28 12:24:54.71	51.64	13.12	-39.4	-40.5	21.1	0.00e+00	0	33	0	396361728	50	6842
2026-01-28 12:24:55.72	51.82	13.16	-39.7	-41.0	20.8	0.00e+00	0	33	0	398458880	50	7182
2026-01-28 12:24:56.72	52.00	13.20	-39.6	-40.8	20.8	0.00e+00	0	33	0	400556032	50	7036
2026-01-28 12:24:57.73	52.18	13.24	-39.5	-40.7	20.9	0.00e+00	0	33	0	402653184	50	6979
2026-01-28 12:24:58.75	52.37	13.28	-39.5	-40.7	21.2	0.00e+00	56	33	0	404750336	50	6962
2026-01-28 12:24:59.75	52.55	13.32	-39.5	-40.7	21.1	0.00e+00	0	33	0	405798912	50	7000
2026-01-28 12:25:00.76	52.74	13.36	-39.4	-40.6	21.1	0.00e+00	84	33	0	407896064	50	6900
2026-01-28 12:25:01.77	52.92	13.40	-39.3	-40.5	21.2	0.00e+00	0	33	0	409993216	50	6786
2026-01-28 12:25:02.79	53.11	13.44	-39.5	-40.7	21.1	0.00e+00	0	33	0	412090368	50	6997
2026-01-28 12:25:03.79	53.29	13.48	-39.7	-41.0	20.9	0.00e+00	0	33	0	414187520	50	7198
2026-01-28 12:25:04.80	53.48	13.52	-39.8	-41.0	20.9	0.00e+00	0	33	0	415236096	52	6451
2026-01-28 12:25:05.81	53.67	13.56	-39.8	-41.0	20.8	0.00e+00	13	33	0	417333248	52	6444
2026-01-28 12:25:06.83	53.86	13.60	-39.8	-41.0	20.9	0.00e+00	0	33	0	419430400	52	6412
2026-01-28 12:25:07.83	54.04	13.64	-39.7	-41.0	21.0	0.00e+00	92	33	0	421527552	52	6404
2026-01-28 12:25:08.84	54.23	13.68	-39.6	-40.8	20.9	0.00e+00	0	33	0	423624704	52	6282
2026-01-28 12:25:09.85	54.42	13.72	-39.4	-40.5	21.2	0.00e+00	0	33	0	424673280	52	6090
2026-01-28 12:25:10.86	54.61	13.76	-39.4	-40.6	21.2	0.00e+00	0	33	0	426770432	52	6129
2026-01-28 12:25:11.87	54.80	13.80	-39.3	-40.4	21.4	0.00e+00	0	33	0	428867584	52	5994
2026-01-28 12:25:12.88	54.99	13.84	-39.5	-40.7	21.0	0.00e+00	19	33	0	430964736	52	6214
2026-01-28 12:25:13.89	55.18	13.87	-39.4	-40.6	21.2	0.00e+00	0	33	0	433061888	52	6122
2026-01-28 12:25:14.90	55.37	13.91	-39.6	-40.8	21.0	0.00e+00	66	33	0	434110464	52	6314
2026-01-28 12:25:15.90	55.56	13.95	-39.7	-40.9	21.0	0.00e+00	0	33	0	436207616	52	6330
2026-01-28 12:25:16.91	55.76	13.99	-39.7	-41.0	20.9	0.00e+00	0	33	0	438304768	52	6396
2026-01-28 12:25:17.92	55.95	14.02	-39.7	-40.9	21.1	0.00e+00	0	33	0	440401920	52	6347
2026-01-28 12:25:18.93	56.14	14.06	-39.5	-40.7	21.2	0.00e+00	0	33	0	442499072	52	6218
2026-01-28 12:25:19.94	56.34	14.10	-39.4	-40.6	21.3	0.00e+00	65	33	0	443547648	52	6110
2026-01-28 12:25:20.95	56.53	14.13	-39.1	-40.2	21.6	0.00e+00	0	33	0	445644800	52	5890
2026-01-28 12:25:21.96	56.72	14.17	-39.2	-40.4	21.4	0.00e+00	70	33	0	447741952	52	5970
2026-01-28 12:25:22.97	56.92	14.20	-39.4	-40.6	21.4	0.00e+00	0	33	0	449839104	52	6110
2026-01-28 12:25:23.98	57.11	14.24	-38.9	-40.0	21.7	0.00e+00	0	33	0	451936256	52	5758
2026-01-28 12:25:24.99	57.31	14.28	-38.8	-39.9	21.9	0.00e+00	0	33	0	454033408	52	5674
2026-01-28 12:25:26.00	57.51	14.31	-38.5	-39.6	22.1	0.00e+00	0	33	0	455081984	50	6136
2026-01-28 12:25:27.01	57.70	14.35	-38.1	-39.2	22.4	0.00e+00	0	33	0	457179136	50	5837
2026-01-28 12:25:28.02	57.90	14.38	-37.9	-38.8	22.4	0.00e+00	0	33	0	459276288	50	5626
2026-01-28 12:25:29.03	58.10	14.41	-37.4	-38.3	23.0	0.00e+00	82	33	0	461373440	48	5951
2026-01-28 12:25:30.04	58.30	14.45	-37.3	-38.3	23.1	0.00e+00	0	33	0	463470592	48	5920
2026-01-28 12:25:31.05	58.50	14.48	-37.4	-38.3	23.0	0.00e+00	88	33	0	464519168	48	5927
2026-01-28 12:25:32.06	58.70	14.52	-37.3	-38.2	23.2	0.00e+00	0	33	0	466616320	48	5875
2026-01-28 12:25:33.07	58.90	14.55	-37.2	-38.1	23.2	0.00e+00	0	33	0	468713472	48	5823
2026-01-28 12:25:34.08	59.10	14.58	-37.3	-38.2	23.2	0.00e+00	0	33	0	470810624	48	5857
2026-01-28 12:25:35.08	59.29	14.61	-37.3	-38.2	23.3	0.00e+00	0	33	0	472907776	48	5853
2026-01-28 12:25:36.09	59.49	14.65	-37.3	-38.2	23.2	0.00e+00	65	33	0	473956352	48	5889
2026-01-28 12:25:37.10	59.70	14.68	-37.5	-38.5	23.0	0.00e+00	0	33	0	476053504	48	6034
2026-01-28 12:25:38.11	59.90	14.71	-37.4	-38.4	23.0	0.00e+00	92	33	0	478150656	48	5971
2026-01-28 12:25:39.12	60.10	14.74	-37.5	-38.4	23.0	0.00e+00	0	33	0	480247808	48	6027
2026-01-28 12:25:40.13	60.30	14.77	-37.6	-38.5	22.8	0.00e+00	0	33	0	482344960	48	6086
2026-01-28 12:25:41.14	60.51	14.80	-37.6	-38.5	22.7	0.00e+00	0	33	0	483393536	48	6098
2026-01-28 12:25:42.15	60.71	14.83	-37.7	-38.7	22.0	0.00e+00	0	33	0	485490688	48	6194
2026-01-28 12:25:43.16	60.91	14.86	-37.7	-38.7	22.6	0.00e+00	35	33	0	487587840	48	6202
2026-01-28 12:25:44.17	61.12	14.89	-37.7	-38.6	22.8	0.00e+00	0	33	0	489684992	48	6154
2026-01-28 12:25:45.18	61.32	14.92	-37.5	-38.4	22.9	0.00e+00	90	33	0	491782144	48	6012
2026-01-28 12:25:46.19	61.53	14.95	-37.3	-38.2	23.2	0.00e+00	0	33	0	492830720	48	5854
2026-01-28 12:25:47.20	61.73	14.98	-37.3	-38.3	23.1	0.00e+00	0	33	0	494927872	48	5908
2026-01-28 12:25:48.21	61.94	15.01	-37.7	-38.6	22.7	0.00e+00	0	33	0	497025024	48	6164
2026-01-28 12:25:49.22	62.14	15.04	-37.8	-38.8	22.6	0.00e+00	0	33	0	499122176	48	6303
2026-01-28 12:25:50.23	62.35	15.07	-38.0	-39.0	22.5	0.00e+00	57	33	0	501219328	48	6446
2026-01-28 12:25:51.23	62.56	15.10	-38.0	-39.0	22.6	0.00e+00	0	33	0	502267904	48	6413
2026-01-28 12:25:52.24	62.76	15.12	-37.9	-38.8	22.7	0.00e+00	92	33	0	504365056	48	6301
2026-01-28 12:25:53.25	62.97	15.15	-37.6	-38.6	22.9	0.00e+00	0	33	0	506462208	48	6115
2026-01-28 12:25:54.26	63.18	15.18	-37.4	-38.3	23.1	0.00e+00	0	33	0	508559360	48	5947
2026-01-28 12:25:55.27	63.39	15.20	-37.5	-38.5	22.9	0.00e+00	0	33	0	510656512	48	6056
2026-01-28 12:25:56.28	63.60	15.23	-37.3	-38.2	23.1	0.00e+00	0	33	0	511705088	48	5895
2026-01-28 12:25:57.29	63.81	15.26	-37.4	-38.4	23.0	0.00e+00	41	33	0	513802240	48	5976
2026-01-28 12:25:58.30	64.02	15.28	-37.8	-38.8	22.6	0.00e+00	0	33	0	515899392	48	6301
2026-01-28 12:25:59.31	64.23	15.31	-38.0	-39.1	22.4	0.00e+00	66	33	0	517996544	48	6467
2026-01-28 12:26:00.32	64.44	15.33	-38.3	-39.3	22.3	0.00e+00	0	33	0	520093696	48	6644
2026-01-28 12:26:01.32	64.64	15.36	-38.3	-39.3	22.3	0.00e+00	68	33	0	522190848	48	6652
2026-01-28 12:26:02.33	64.86	15.38	-38.2	-39.2	22.4	0.00e+00	0	33	0	523239424	48	6578
2026-01-28 12:26:03.34	65.07	15.41	-38.1	-39.1	22.5	0.00e+00	0	33	0	525336576	48	6534
2026-01-28 12:26:04.35	65.28	15.43	-38.2	-39.2	22.4	0.00e+00	0	33	0	527433728	48	6569
2026-01-28 12:26:05.36	65.49	15.45	-38.6	-39.6	22.1	0.00e+00	0	33	0	529530880	48	6913
2026-01-28 12:26:06.37	65.70	15.47	-38.8	-39.9	21.7	0.00e+00	44	33	0	531628032	48	7137
2026-01-28 12:26:07.38	65.91	15.50	-39.1	-40.2	21.5	0.00e+00	0	33	0	532676608	50	6590
2026-01-28 12:26:08.39	66.13	15.52	-39.3	-40.4	21.5	0.00e+00	39	33	0	534773760	50	6750
2026-01-28 12:26:09.40	66.34	15.54	-39.1	-40.2	21.4	0.00e+00	0	33	0	536870912	50	6614
2026-01-28 12:26:10.41	66.55	15.56	-38.6	-39.7	22.1	0.00e+00	0	33	0	538968064	50	6174
2026-01-28 12:26:11.42	66.77	15.58	-38.0	-39.0	22.5	0.00e+00	0	33	0	541065216	50	5730
2026-01-28 12:26:12.43	66.98	15.61	-37.6	-38.6	22.8	0.00e+00	0	33	0	542113792	48	6121
2026-01-28 12:26:13.44	67.20	15.63	-37.4	-38.4	23.1	0.00e+00	40	33	0	544210944	48	6023
2026-01-28 12:26:14.45	67.41	15.65	-37.2	-38.2	23.2	0.00e+00	0	33	0	546308096	48	5871
2026-01-28 12:26:15.46	67.63	15.67	-37.5	-38.5	23.0	0.00e+00	86	33	0	548405248	48	6057
2026-01-28 12:26:16.46	67.84	15.68	-37.8	-38.9	22.6	0.00e+00	0	33	0	550502400	48	6347
2026-01-28 12:26:17.47	68.06	15.70	-38.1	-39.2	22.4	0.00e+00	0	33	0	551550976	48	6590
2026-01-28 12:26:18.48	68.27	15.72	-38.2	-39.2	22.5	0.00e+00	0	33	0	553648128	48	6603
2026-01-28 12:26:19.49	68.49	15.74	-37.8	-38.9	22.8	0.00e+00	33	33	0	555745280	48	6320
2026-01-28 12:26:20.50	68.70	15.76	-37.4	-38.4	23.1	0.00e+00	14	33	0	557842432	48	6007
2026-01-28 12:26:21.51	68.92	15.78	-37.1	-38.0	23.2	0.00e+00	0	33	0	559939584	48	5747
2026-01-28 12:26:22.52	69.14	15.79	-37.0	-37.9	23.5	0.00e+00	90	33	0	560988160	48	5650
2026-01-28 12:26:23.52	69.35	15.81	-37.0	-38.0	23.4	0.00e+00	0	33	0	563085312	48	5703
2026-01-28 12:26:24.53	69.57	15.83	-37.2	-38.1	23.3	0.00e+00	0	33	0	565182464	48	5828
2026-01-28 12:26:25.54	69.79	15.84	-37.4	-38.4	23.1	0.00e+00	0	33	0	567279616	48	5992
2026-01-28 12:26:26.55	70.00	15.86	-37.6	-38.6	22.9	0.00e+00	0	33	0	569376768	48	6106
2026-01-28 12:26:27.56	70.22	15.87	-37.5	-38.5	23.0	0.00e+00	7	33	0	570425344	48	6058
2026-01-28 12:26:28.57	70.44	15.89	-37.5	-38.4	22.9	0.00e+00	0	33	0	572522496	48	6013
2026-01-28 12:26:29.58	70.66	15.90	-37.5	-38.4	23.0	0.00e+00	92	33	0	574619648	48	6011
2026-01-28 12:26:30.59	70.88	15.92	-37.6	-38.5	22.8	0.00e+00	0	33	0	576716800	48	6090
2026-01-28 12:26:31.60	71.10	15.93	-37.9	-38.9	22.6	0.00e+00	22	33	0	578813952	48	6369
2026-01-28 12:26:32.61	71.32	15.94	-38.0	-39.0	22.5	0.00e+00	0	33	0	579862528	48	6448
2026-01-28 12:26:33.62	71.53	15.96	-38.3	-39.3	22.1	0.00e+00	0	33	0	581959680	48	6647
2026-01-28 12:26:34.63	71.75	15.97	-38.2	-39.3	22.1	0.00e+00	63	33	0	584056832	48	6624
2026-01-28 12:26:35.64	71.97	15.98	-38.3	-39.3	22.2	0.00e+00	0	33	0	586153984	48	6687
2026-01-28 12:26:36.65	72.19	15.99	-38.3	-39.3	22.3	0.00e+00	48	33	0	588251136	48	6675
2026-01-28 12:26:37.65	72.41	16.00	-38.1	-39.1	22.4	0.00e+00	0	33	0	589299712	48	6518
2026-01-28 12:26:38.66	72.63	16.02	-38.0	-39.1	22.5	0.00e+00	80	33	0	591396864	48	6465
2026-01-28 12:26:39.67	72.85	16.03	-38.3	-39.3	22.3	0.00e+00	0	33	0	593494016	48	6646
2026-01-28 12:26:40.68	73.07	16.04	-38.4	-39.5	22.2	0.00e+00	0	33	0	595591168	48	6802
2026-01-28 12:26:41.69	73.29	16.05	-38.8	-39.9	21.8	0.00e+00	0	33	0	597688320	48	7100
2026-01-28 12:26:42.70	73.51	16.06	-39.0	-40.1	21.6	0.00e+00	0	33	0	598736896	50	6533
2026-01-28 12:26:43.71	73.73	16.07	-38.8	-39.9	21.9	0.00e+00	57	33	0	600834048	50	6324
2026-01-28 12:26:44.72	73.95	16.07	-38.8	-39.9	21.8	0.00e+00	0	33	0	602931200	50	6367
2026-01-28 12:26:45.73	74.18	16.08	-38.5	-39.6	22.1	0.00e+00	91	33	0	605028352	50	6112
2026-01-28 12:26:46.74	74.40	16.09	-38.2	-39.3	22.3	0.00e+00	0	33	0	607125504	50	5921
2026-01-28 12:26:47.75	74.62	16.10	-38.2	-39.2	22.4	0.00e+00	0	33	0	608174080	50	5876
2026-01-28 12:26:48.76	74.84	16.10	-38.3	-39.3	22.4	0.00e+00	0	33	0	610271232	50	5941
2026-01-28 12:26:49.77	75.06	16.11	-38.3	-39.4	22.2	0.00e+00	0	33	0	612368384	50	5971
2026-01-28 12:26:50.78	75.28	16.12	-38.3	-39.3	22.3	0.00e+00	61	33	0	614465536	50	5945
2026-01-28 12:26:51.79	75.50	16.12	-38.2	-39.3	22.4	0.00e+00	0	33	0	616562688	50	5922
2026-01-28 12:26:52.80	75.73	16.13	-37.9	-38.9	22.7	0.00e+00	80	33	0	618659840	50	5664
2026-01-28 12:26:53.81	75.95	16.13	-37.8	-38.8	22.7	0.00e+00	0	33	0	619708416	50	5628
2026-01-28 12:26:54.82	76.17	16.14	-38.0	-39.0	22.6	0.00e+00	0	33	0	621805568	50	5739
2026-01-28 12:26:55.82	76.39	16.14	-38.0	-39.1	22.5	0.00e+00	0	33	0	623902720	50	5766
2026-01-28 12:26:56.83	76.61	16.15	-38.1	-39.1	22.5	0.00e+00	0	33	0	625999872	50	5777
2026-01-28 12:26:57.84	76.83	16.15	-38.1	-39.2	22.5	0.00e+00	0	33	0	628097024	50	5848
2026-01-28 12:26:58.85	77.06	16.15	-38.0	-39.0	22.5	0.00e+00	0	33	0	629145600	50	5743
2026-01-28 12:26:59.86	77.28	16.16	-37.7	-38.7	22.8	0.00e+00	61	33	0	631242752	48	6223
2026-01-28 12:27:00.87	77.50	16.16	-37.6	-38.5	23.0	0.00e+00	0	33	0	633339904	48	6084
2026-01-28 12:27:01.88	77.72	16.16	-37.3	-38.2	23.3	0.00e+00	26	33	0	635437056	48	5875
2026-01-28 12:27:02.89	77.95	16.16	-37.2	-38.1	23.3	0.00e+00	0	33	0	637534208	48	5783
2026-01-28 12:27:03.90	78.17	16.16	-37.2	-38.1	23.2	0.00e+00	0	33	0	638582784	48	5798
2026-01-28 12:27:04.91	78.39	16.16	-37.4	-38.4	23.1	0.00e+00	0	33	0	640679936	48	5983
2026-01-28 12:27:05.92	78.61	16.16	-37.5	-38.5	22.9	0.00e+00	0	33	0	642777088	48	6086
2026-01-28 12:27:06.92	78.83	16.16	-37.8	-38.8	22.7	0.00e+00	92	33	0	644874240	48	6272
2026-01-28 12:27:07.93	79.06	16.16	-37.7	-38.7	22.9	0.00e+00	0	33	0	646971392	48	6212
2026-01-28 12:27:08.94	79.28	16.16	-37.6	-38.6	23.0	0.00e+00	92	33	0	648019968	48	6123
2026-01-28 12:27:09.95	79.50	16.16	-37.4	-38.4	23.1	0.00e+00	0	33	0	650117120	48	5978
2026-01-28 12:27:10.96	79.72	16.16	-37.5	-38.5	23.0	0.00e+00	0	33	0	652214272	48	6078
2026-01-28 12:27:11.97	79.94	16.16	-37.5	-38.4	22.9	0.00e+00	0	33	0	654311424	48	6032
2026-01-28 12:27:12.99	80.17	16.15	-37.6	-38.6	22.8	0.00e+00	33	33	0	656408576	48	6163
2026-01-28 12:27:14.00	80.39	16.15	-37.9	-38.9	22.7	0.00e+00	65	33	0	657457152	48	6342
2026-01-28 12:27:15.00	80.61	16.15	-38.0	-39.0	22.6	0.00e+00	0	33	0	659554304	48	6415
2026-01-28 12:27:16.02	80.84	16.14	-38.1	-39.1	22.6	0.00e+00	90	33	0	661651456	48	6483
2026-01-28 12:27:17.03	81.06	16.14	-37.8	-38.8	22.9	0.00e+00	0	33	0	663748608	48	6277
2026-01-28 12:27:18.04	81.28	16.13	-37.7	-38.6	22.8	0.00e+00	0	33	0	665845760	48	6149
2026-01-28 12:27:19.04	81.50	16.13	-37.2	-38.1	23.3	0.00e+00	0	33	0	666894336	48	5807
2026-01-28 12:27:20.05	81.72	16.12	-37.2	-38.2	23.3	0.00e+00	0	33	0	668991488	48	5850
2026-01-28 12:27:21.06	81.94	16.12	-37.2	-38.1	23.3	0.00e+00	71	33	0	671088640	48	5792
2026-01-28 12:27:22.07	82.17	16.11	-37.4	-38.4	23.0	0.00e+00	0	33	0	673185792	48	5972
2026-01-28 12:27:23.09	82.39	16.10	-37.7	-38.7	22.8	0.00e+00	91	33	0	675282944	48	6214
2026-01-28 12:27:24.09	82.61	16.10	-38.0	-39.0	21.8	0.00e+00	0	33	0	676331520	48	6438
2026-01-28 12:27:25.10	82.83	16.09	-38.2	-39.3	22.3	0.00e+00	0	33	0	678428672	48	6625
2026-01-28 12:27:26.11	83.05	16.08	-38.3	-39.3	22.3	0.00e+00	0	33	0	680525824	48	6684
2026-01-28 12:27:27.12	83.27	16.07	-38.3	-39.3	22.0	0.00e+00	0	33	0	682622976	48	6652
2026-01-28 12:27:28.13	83.49	16.06	-38.1	-39.2	22.5	0.00e+00	1	33	0	684720128	48	6552
2026-01-28 12:27:29.14	83.71	16.06	-37.7	-38.7	22.8	0.00e+00	0	33	0	686817280	48	6199
2026-01-28 12:27:30.15	83.94	16.05	-37.5	-38.5	22.9	0.00e+00	91	33	0	687865856	48	6080
2026-01-28 12:27:31.16	84.16	16.04	-37.1	-38.1	23.2	0.00e+00	0	33	0	689963008	48	5804
2026-01-28 12:27:32.17	84.38	16.03	-37.2	-38.1	23.3	0.00e+00	0	33	0	692060160	48	5827
2026-01-28 12:27:33.18	84.60	16.02	-37.2	-38.2	23.2	0.00e+00	0	33	0	694157312	48	5843
2026-01-28 12:27:34.19	84.82	16.00	-37.2	-38.1	23.2	0.00e+00	0	33	0	696254464	48	5816
2026-01-28 12:27:35.20	85.04	15.99	-37.5	-38.5	23.0	0.00e+00	29	33	0	697303040	48	6041
2026-01-28 12:27:36.21	85.26	15.98	-37.5	-38.5	22.9	0.00e+00	0	33	0	699400192	48	6049
2026-01-28 12:27:37.22	85.48	15.97	-37.6	-38.6	22.9	0.00e+00	90	33	0	701497344	48	6167
2026-01-28 12:27:38.23	85.70	15.96	-37.7	-38.7	22.8	0.00e+00	0	33	0	703594496	48	6228
2026-01-28 12:27:39.24	85.92	15.94	-37.9	-38.9	22.7	0.00e+00	30	33	0	705691648	48	6348
2026-01-28 12:27:40.25	86.14	15.93	-38.0	-39.0	22.6	0.00e+00	0	33	0	706740224	48	6408
2026-01-28 12:27:41.26	86.35	15.92	-37.7	-38.6	22.9	0.00e+00	0	33	0	708837376	48	6153
2026-01-28 12:27:42.27	86.57	15.90	-37.7	-38.7	22.9	0.00e+00	0	33	0	710934528	48	6216
2026-01-28 12:27:43.28	86.79	15.89	-37.6	-38.6	22.9	0.00e+00	0	33	0	713031680	48	6124
2026-01-28 12:27:44.29	87.01	15.87	-37.5	-38.5	23.0	0.00e+00	65	33	0	715128832	48	6065
2026-01-28 12:27:45.29	87.23	15.86	-37.5	-38.5	23.0	0.00e+00	0	33	0	716177408	48	6071
2026-01-28 12:27:46.30	87.45	15.84	-37.5	-38.5	23.0	0.00e+00	86	33	0	718274560	48	6071
2026-01-28 12:27:47.31	87.66	15.82	-37.4	-38.3	23.2	0.00e+00	0	33	0	720371712	48	5923
2026-01-28 12:27:48.32	87.88	15.81	-37.1	-38.0	23.4	0.00e+00	0	33	0	722468864	48	5715
2026-01-28 12:27:49.33	88.10	15.79	-36.9	-37.7	23.4	0.00e+00	40	33	0	724566016	48	5565
2026-01-28 12:27:50.33	88.31	15.77	-36.7	-37.6	23.6	0.00e+00	0	33	0	725614592	46	6146
2026-01-28 12:27:51.34	88.53	15.76	-36.8	-37.7	23.6	0.00e+00	22	33	0	727711744	46	6222
2026-01-28 12:27:52.35	88.75	15.74	-36.6	-37.5	23.6	0.00e+00	0	33	0	729808896	46	6060
2026-01-28 12:27:53.36	88.96	15.72	-36.6	-37.5	23.7	0.00e+00	90	33	0	731906048	46	6072
2026-01-28 12:27:54.37	89.18	15.70	-36.7	-37.6	23.7	0.00e+00	0	33	0	734003200	46	6143
2026-01-28 12:27:55.38	89.39	15.68	-36.9	-37.8	23.5	0.00e+00	0	33	0	735051776	46	6268
2026-01-28 12:27:56.39	89.61	15.66	-36.5	-37.4	23.7	0.00e+00	0	33	0	737148928	46	6018
2026-01-28 12:27:57.40	89.83	15.64	-36.4	-37.3	23.8	0.00e+00	0	33	0	739246080	46	5907
2026-01-28 12:27:58.41	90.04	15.62	-36.4	-37.3	23.9	0.00e+00	60	33	0	741343232	46	5915
2026-01-28 12:27:59.42	90.26	15.60	-36.5	-37.4	23.8	0.00e+00	0	33	0	743440384	46	5975
2026-01-28 12:28:00.43	90.47	15.58	-36.8	-37.7	23.6	0.00e+00	79	33	0	744488960	46	6227
2026-01-28 12:28:01.44	90.68	15.56	-36.8	-37.7	23.5	0.00e+00	0	33	0	746586112	46	6205
2026-01-28 12:28:02.45	90.90	15.54	-37.3	-38.3	23.0	0.00e+00	0	33	0	748683264	46	6645
2026-01-28 12:28:03.46	91.11	15.52	-37.3	-38.3	23.1	0.00e+00	33	33	0	750780416	46	6649
2026-01-28 12:28:04.47	91.33	15.49	-37.2	-38.1	23.3	0.00e+00	0	33	0	752877568	46	6507
2026-01-28 12:28:05.48	91.54	15.47	-37.0	-38.0	23.3	0.00e+00	64	33	0	754974720	46	6402
2026-01-28 12:28:06.48	91.75	15.45	-36.9	-37.9	23.3	0.00e+00	0	33	0	756023296	46	6327
2026-01-28 12:28:07.49	91.96	15.43	-37.0	-37.9	23.5	0.00e+00	92	33	0	758120448	46	6373
2026-01-28 12:28:08.50	92.17	15.40	-37.0	-37.9	23.5	0.00e+00	0	33	0	760217600	46	6360
2026-01-28 12:28:09.51	92.38	15.38	-37.1	-38.1	23.3	0.00e+00	0	33	0	762314752	46	6491
2026-01-28 12:28:10.52	92.60	15.35	-37.2	-38.2	23.2	0.00e+00	0	33	0	764411904	46	6563
2026-01-28 12:28:11.53	92.81	15.33	-37.2	-38.1	23.3	0.00e+00	0	33	0	765460480	46	6535
2026-01-28 12:28:12.54	93.02	15.30	-37.1	-38.0	23.4	0.00e+00	64	33	0	767557632	46	6411
2026-01-28 12:28:13.55	93.23	15.28	-37.1	-38.0	23.4	0.00e+00	0	33	0	769654784	46	6424
2026-01-28 12:28:14.56	93.44	15.25	-36.8	-37.7	23.5	0.00e+00	92	33	0	771751936	46	6225
2026-01-28 12:28:15.57	93.65	15.23	-36.5	-37.4	23.7	0.00e+00	0	33	0	773849088	46	5993
2026-01-28 12:28:16.58	93.86	15.20	-36.4	-37.3	23.8	0.00e+00	92	33	0	774897664	46	5922
2026-01-28 12:28:17.59	94.07	15.17	-36.2	-37.1	24.0	0.00e+00	0	33	0	776994816	46	5771
2026-01-28 12:28:18.60	94.27	15.15	-36.2	-37.0	24.0	0.00e+00	0	33	0	779091968	46	5755
2026-01-28 12:28:19.61	94.48	15.12	-36.0	-36.8	24.1	0.00e+00	60	33	0	781189120	46	5614
2026-01-28 12:28:20.62	94.69	15.09	-35.9	-36.8	24.3	0.00e+00	0	33	0	783286272	46	5568
2026-01-28 12:28:21.63	94.90	15.06	-36.1	-36.9	24.2	0.00e+00	47	33	0	784334848	46	5686
2026-01-28 12:28:22.64	95.11	15.04	-36.1	-37.0	24.2	0.00e+00	0	33	0	786432000	46	5696
2026-01-28 12:28:23.65	95.31	15.01	-36.4	-37.3	23.9	0.00e+00	90	33	0	788529152	46	5928
2026-01-28 12:28:24.66	95.52	14.98	-36.5	-37.4	23.8	0.00e+00	0	33	0	790626304	46	6006
2026-01-28 12:28:25.67	95.72	14.95	-36.6	-37.5	23.7	0.00e+00	0	33	0	792723456	46	6087
2026-01-28 12:28:26.68	95.93	14.92	-36.6	-37.4	23.9	0.00e+00	0	33	0	793772032	46	6031
2026-01-28 12:28:27.69	96.14	14.89	-36.4	-37.2	23.9	0.00e+00	0	33	0	795869184	46	5888
2026-01-28 12:28:28.70	96.34	14.86	-36.4	-37.2	23.7	0.00e+00	66	33	0	797966336	46	5874
2026-01-28 12:28:29.71	96.54	14.83	-36.4	-37.3	24.0	0.00e+00	0	33	0	800063488	46	5911
2026-01-28 12:28:30.72	96.75	14.80	-36.4	-37.3	23.8	0.00e+00	92	33	0	802160640	46	5932
2026-01-28 12:28:31.72	96.95	14.77	-36.5	-37.4	23.8	0.00e+00	0	33	0	803209216	46	6003
2026-01-28 12:28:32.73	97.15	14.74	-36.9	-37.8	23.5	0.00e+00	0	33	0	805306368	46	6312
2026-01-28 12:28:33.74	97.36	14.70	-36.7	-37.7	23.6	0.00e+00	0	33	0	807403520	46	6209
2026-01-28 12:28:34.75	97.56	14.67	-36.8	-37.8	23.6	0.00e+00	0	33	0	809500672	46	6278
2026-01-28 12:28:35.76	97.76	14.64	-36.8	-37.8	23.6	0.00e+00	59	33	0	811597824	46	6265
2026-01-28 12:28:36.77	97.96	14.61	-36.6	-37.6	23.8	0.00e+00	0	33	0	812646400	46	6110
2026-01-28 12:28:37.78	98.16	14.57	-36.6	-37.5	23.7	0.00e+00	65	33	0	814743552	46	6046
2026-01-28 12:28:38.79	98.36	14.54	-36.5	-37.4	23.8	0.00e+00	0	33	0	816840704	46	5974
2026-01-28 12:28:39.80	98.56	14.51	-36.8	-37.7	23.7	0.00e+00	0	33	0	818937856	46	6175
2026-01-28 12:28:40.81	98.76	14.47	-36.7	-37.6	23.7	0.00e+00	0	33	0	821035008	46	6133
2026-01-28 12:28:41.82	98.96	14.44	-36.5	-37.4	23.8	0.00e+00	0	33	0	823132160	46	5985
2026-01-28 12:28:42.83	99.16	14.41	-36.3	-37.2	23.9	0.00e+00	61	33	0	824180736	46	5843
2026-01-28 12:28:43.84	99.36	14.37	-36.3	-37.1	24.1	0.00e+00	0	33	0	826277888	46	5826
2026-01-28 12:28:44.85	99.56	14.34	-36.4	-37.2	23.8	0.00e+00	92	33	0	828375040	46	5880
2026-01-28 12:28:45.86	99.75	14.30	-36.4	-37.3	23.8	0.00e+00	0	33	0	830472192	46	5936
2026-01-28 12:28:46.87	99.95	14.27	-36.6	-37.5	23.7	0.00e+00	0	33	0	832569344	46	6092
2026-01-28 12:28:47.88	100.15	14.23	-36.6	-37.5	23.7	0.00e+00	0	33	0	833617920	46	6065
2026-01-28 12:28:48.89	100.34	14.19	-36.8	-37.7	23.5	0.00e+00	0	33	0	835715072	46	6236
2026-01-28 12:28:49.90	100.54	14.16	-36.8	-37.7	23.5	0.00e+00	5	33	0	837812224	46	6216
2026-01-28 12:28:50.91	100.74	14.12	-36.8	-37.7	23.7	0.00e+00	0	33	0	839909376	46	6197
2026-01-28 12:28:51.92	100.93	14.09	-37.0	-37.9	23.3	0.00e+00	83	33	0	842006528	46	6364
2026-01-28 12:28:52.93	101.12	14.05	-37.2	-38.1	23.2	0.00e+00	0	33	0	843055104	46	6519
2026-01-28 12:28:53.94	101.32	14.01	-37.3	-38.2	22.9	0.00e+00	1	33	0	845152256	46	6580
2026-01-28 12:28:54.95	101.51	13.97	-37.7	-38.7	22.6	0.00e+00	0	33	0	847249408	46	6931
2026-01-28 12:28:55.96	101.70	13.94	-37.8	-38.8	22.6	0.00e+00	0	33	0	849346560	48	6267
2026-01-28 12:28:56.96	101.90	13.90	-37.8	-38.8	22.3	0.00e+00	25	33	0	851443712	48	6313
2026-01-28 12:28:57.97	102.09	13.86	-38.1	-39.1	22.2	0.00e+00	0	33	0	852492288	48	6510
2026-01-28 12:28:58.98	102.28	13.82	-38.1	-39.2	22.2	0.00e+00	53	33	0	854589440	48	6580
2026-01-28 12:28:59.99	102.47	13.79	-38.1	-39.1	22.4	0.00e+00	0	33	0	856686592	48	6534
2026-01-28 12:29:01.00	102.66	13.75	-37.9	-38.9	22.6	0.00e+00	63	33	0	858783744	48	6354
2026-01-28 12:29:02.01	102.85	13.71	-37.9	-38.9	22.6	0.00e+00	0	33	0	860880896	48	6320
2026-01-28 12:29:03.02	103.04	13.67	-37.7	-38.7	22.8	0.00e+00	0	33	0	861929472	48	6220
2026-01-28 12:29:04.02	103.23	13.63	-37.8	-38.8	22.7	0.00e+00	0	33	0	864026624	48	6287
2026-01-28 12:29:05.03	103.42	13.59	-37.7	-38.7	22.7	0.00e+00	0	33	0	866123776	48	6236
2026-01-28 12:29:06.04	103.60	13.55	-37.8	-38.8	22.6	0.00e+00	27	33	0	868220928	48	6293
2026-01-28 12:29:07.05	103.79	13.51	-38.0	-39.1	22.4	0.00e+00	0	33	0	870318080	48	6497
2026-01-28 12:29:08.06	103.98	13.47	-38.1	-39.2	22.2	0.00e+00	65	33	0	871366656	48	6543
2026-01-28 12:29:09.07	104.17	13.43	-38.6	-39.7	22.0	0.00e+00	0	33	0	873463808	48	6956
2026-01-28 12:29:10.08	104.35	13.39	-38.5	-39.7	21.9	0.00e+00	0	33	0	875560960	48	6931
2026-01-28 12:29:11.09	104.54	13.35	-38.3	-39.4	22.1	0.00e+00	0	33	0	877658112	48	6728
2026-01-28 12:29:12.10	104.72	13.31	-38.2	-39.3	22.1	0.00e+00	0	33	0	879755264	48	6642
2026-01-28 12:29:13.11	104.91	13.27	-37.9	-39.0	22.5	0.00e+00	18	33	0	880803840	48	6396
2026-01-28 12:29:14.12	105.09	13.22	-38.0	-39.1	22.4	0.00e+00	0	33	0	882900992	48	6480
2026-01-28 12:29:15.13	105.27	13.18	-37.8	-38.8	22.6	0.00e+00	65	33	0	884998144	48	6315
2026-01-28 12:29:16.14	105.46	13.14	-37.8	-38.9	22.4	0.00e+00	0	33	0	887095296	48	6319
2026-01-28 12:29:17.15	105.64	13.10	-37.9	-38.9	22.4	0.00e+00	0	33	0	889192448	48	6364
2026-01-28 12:29:18.16	105.82	13.06	-38.1	-39.2	22.3	0.00e+00	0	33	0	891289600	48	6546
2026-01-28 12:29:19.17	106.00	13.01	-38.5	-39.6	22.0	0.00e+00	0	33	0	892338176	48	6885
2026-01-28 12:29:20.18	106.19	12.97	-38.6	-39.8	21.8	0.00e+00	16	33	0	894435328	48	7015
2026-01-28 12:29:21.18	106.36	12.93	-38.9	-40.1	21.6	0.00e+00	0	33	0	896532480	50	6492
2026-01-28 12:29:22.19	106.54	12.89	-39.0	-40.3	21.4	0.00e+00	90	33	0	898629632	50	6620
2026-01-28 12:29:23.20	106.72	12.84	-39.7	-41.0	20.8	0.00e+00	0	33	0	899678208	50	7171
2026-01-28 12:29:24.21	106.90	12.80	-39.7	-41.0	20.8	0.00e+00	0	33	0	901775360	50	7179
2026-01-28 12:29:25.21	107.08	12.76	-39.3	-40.4	21.1	0.00e+00	0	33	0	903872512	50	6766
2026-01-28 12:29:26.22	107.26	12.71	-39.7	-41.0	20.9	0.00e+00	0	33	0	905969664	50	7172
2026-01-28 12:29:27.23	107.44	12.67	-39.6	-40.8	20.9	0.00e+00	65	33	0	908066816	50	7058
2026-01-28 12:29:28.24	107.61	12.62	-39.7	-41.0	20.7	0.00e+00	0	33	0	909115392	50	7220
2026-01-28 12:29:29.24	107.79	12.58	-39.2	-40.5	21.1	0.00e+00	62	33	0	911212544	52	6040
2026-01-28 12:29:30.25	107.96	12.54	-39.1	-40.2	21.4	0.00e+00	0	33	0	913309696	52	5894
2026-01-28 12:29:31.26	108.14	12.49	-39.1	-40.2	21.4	0.00e+00	10	33	0	915406848	52	5892
2026-01-28 12:29:32.27	108.31	12.45	-38.3	-39.4	22.3	0.00e+00	0	33	0	917504000	50	5973
2026-01-28 12:29:33.28	108.49	12.40	-38.3	-39.3	22.3	0.00e+00	0	33	0	919601152	50	5927
2026-01-28 12:29:34.29	108.66	12.36	-38.0	-39.1	22.5	0.00e+00	0	33	0	920649728	50	5764
2026-01-28 12:29:35.30	108.84	12.31	-38.1	-39.1	22.3	0.00e+00	0	33	0	922746880	50	5807
2026-01-28 12:29:36.31	109.01	12.27	-38.4	-39.5	22.0	0.00e+00	49	33	0	924844032	50	6043
2026-01-28 12:29:37.32	109.18	12.22	-38.2	-39.3	22.2	0.00e+00	0	33	0	926941184	50	5905
2026-01-28 12:29:38.33	109.35	12.18	-38.5	-39.5	21.8	0.00e+00	74	33	0	929038336	50	6102
2026-01-28 12:29:39.34	109.53	12.13	-38.6	-39.7	21.7	0.00e+00	0	33	0	930086912	50	6232
2026-01-28 12:29:40.35	109.70	12.08	-38.8	-39.9	21.5	0.00e+00	0	33	0	932184064	50	6365
2026-01-28 12:29:41.36	109.87	12.04	-38.8	-39.9	21.6	0.00e+00	0	33	0	934281216	50	6361
2026-01-28 12:29:42.37	110.04	11.99	-38.7	-39.8	21.6	0.00e+00	0	33	0	936378368	50	6295
2026-01-28 12:29:43.38	110.21	11.95	-39.0	-40.1	21.4	0.00e+00	61	33	0	938475520	50	6516
2026-01-28 12:29:44.39	110.37	11.90	-38.7	-39.8	21.7	0.00e+00	0	33	0	939524096	50	6300
2026-01-28 12:29:45.40	110.54	11.85	-38.8	-39.9	21.7	0.00e+00	66	33	0	941621248	50	6361
2026-01-28 12:29:46.41	110.71	11.81	-38.9	-40.1	21.5	0.00e+00	0	33	0	943718400	50	6532
2026-01-28 12:29:47.42	110.88	11.76	-38.8	-40.0	21.6	0.00e+00	33	33	0	945815552	50	6461
2026-01-28 12:29:48.43	111.05	11.71	-39.1	-40.3	21.3	0.00e+00	0	33	0	947912704	50	6659
2026-01-28 12:29:49.44	111.21	11.66	-38.7	-39.9	21.6	0.00e+00	0	33	0	948961280	50	6385
2026-01-28 12:29:50.45	111.38	11.62	-38.7	-39.9	21.6	0.00e+00	14	33	0	951058432	50	6365
2026-01-28 12:29:51.45	111.54	11.57	-38.8	-40.0	21.4	0.00e+00	0	33	0	953155584	50	6456
2026-01-28 12:29:52.46	111.71	11.52	-38.9	-40.1	21.5	0.00e+00	92	33	0	955252736	50	6474
2026-01-28 12:29:53.47	111.87	11.48	-38.7	-39.9	21.7	0.00e+00	0	33	0	957349888	50	6338
2026-01-28 12:29:54.48	112.03	11.43	-38.6	-39.9	21.7	0.00e+00	0	33	0	958398464	50	6336
2026-01-28 12:29:55.49	112.20	11.38	-38.5	-39.8	21.7	0.00e+00	0	33	0	960495616	50	6299
2026-01-28 12:29:56.50	112.36	11.33	-38.4	-39.6	21.9	0.00e+00	0	33	0	962592768	50	6136
2026-01-28 12:29:57.51	112.52	11.28	-38.5	-39.6	21.9	0.00e+00	63	33	0	964689920	50	6152
2026-01-28 12:29:58.52	112.68	11.24	-38.5	-39.6	21.9	0.00e+00	0	33	0	966787072	50	6148
2026-01-28 12:29:59.53	112.84	11.19	-38.3	-39.3	22.1	0.00e+00	66	33	0	967835648	50	5945
2026-01-28 12:30:00.54	113.01	11.14	-38.3	-39.4	22.1	0.00e+00	0	33	0	969932800	50	5981
2026-01-28 12:30:01.55	113.17	11.09	-38.1	-39.1	22.3	0.00e+00	89	33	0	972029952	50	5815
2026-01-28 12:30:02.55	113.32	11.04	-37.8	-38.9	22.5	0.00e+00	0	33	0	974127104	50	5638
2026-01-28 12:30:03.56	113.48	10.99	-37.8	-38.9	22.4	0.00e+00	0	33	0	976224256	48	6344
2026-01-28 12:30:04.57	113.64	10.95	-37.6	-38.7	22.6	0.00e+00	0	33	0	977272832	48	6174
2026-01-28 12:30:05.58	113.80	10.90	-37.5	-38.6	22.5	0.00e+00	0	33	0	979369984	48	6163
2026-01-28 12:30:06.59	113.96	10.85	-37.8	-38.9	22.4	0.00e+00	55	33	0	981467136	48	6380
2026-01-28 12:30:07.60	114.11	10.80	-38.0	-39.1	22.4	0.00e+00	0	33	0	983564288	48	6525
2026-01-28 12:30:08.61	114.27	10.75	-38.0	-39.0	22.4	0.00e+00	92	33	0	985661440	48	6434
2026-01-28 12:30:09.62	114.43	10.70	-37.9	-38.9	22.4	0.00e+00	0	33	0	987758592	48	6384
2026-01-28 12:30:10.63	114.58	10.65	-38.0	-39.0	22.3	0.00e+00	0	33	0	988807168	48	6457
2026-01-28 12:30:11.64	114.74	10.60	-38.2	-39.3	22.1	0.00e+00	0	33	0	990904320	48	6641
2026-01-28 12:30:12.65	114.89	10.55	-37.9	-38.9	22.5	0.00e+00	0	33	0	993001472	48	6348
2026-01-28 12:30:13.66	115.05	10.50	-37.5	-38.5	22.8	0.00e+00	92	33	0	995098624	48	6063
2026-01-28 12:30:14.67	115.20	10.45	-37.6	-38.6	22.7	0.00e+00	0	33	0	997195776	48	6114
2026-01-28 12:30:15.68	115.35	10.40	-37.7	-38.7	22.6	0.00e+00	92	33	0	998244352	48	6217
2026-01-28 12:30:16.69	115.50	10.35	-37.6	-38.6	22.8	0.00e+00	0	33	0	1000341504	48	6139
2026-01-28 12:30:17.70	115.66	10.30	-37.8	-38.8	22.5	0.00e+00	0	33	0	1002438656	48	6305
2026-01-28 12:30:18.71	115.81	10.25	-38.0	-39.0	22.4	0.00e+00	0	33	0	1004535808	48	6445
2026-01-28 12:30:19.72	115.96	10.20	-38.0	-39.0	22.4	0.00e+00	0	33	0	1006632960	48	6439
2026-01-28 12:30:20.73	116.11	10.15	-38.1	-39.1	22.2	0.00e+00	57	33	0	1007681536	48	6509
2026-01-28 12:30:21.74	116.26	10.10	-37.9	-38.9	22.4	0.00e+00	0	33	0	1009778688	48	6362
2026-01-28 12:30:22.75	116.41	10.05	-37.8	-38.8	22.5	0.00e+00	83	33	0	1011875840	48	6305
2026-01-28 12:30:23.76	116.56	10.00	-37.9	-39.0	22.4	0.00e+00	0	33	0	1013972992	48	6412
2026-01-28 12:30:24.77	116.71	9.95	-37.8	-38.8	22.7	0.00e+00	0	33	0	1016070144	48	6287
2026-01-28 12:30:25.78	116.86	9.90	-37.6	-38.6	22.6	0.00e+00	0	33	0	1017118720	48	6150
2026-01-28 12:30:26.79	117.00	9.85	-37.2	-38.2	22.9	0.00e+00	0	33	0	1019215872	48	5843
2026-01-28 12:30:27.80	117.15	9.80	-37.2	-38.1	23.1	0.00e+00	56	33	0	1021313024	48	5796
2026-01-28 12:30:28.81	117.30	9.75	-36.9	-37.8	23.3	0.00e+00	0	33	0	1023410176	48	5620
2026-01-28 12:30:29.82	117.44	9.70	-36.9	-37.8	23.3	0.00e+00	89	33	0	1025507328	48	5607
2026-01-28 12:30:30.82	117.59	9.65	-37.1	-38.1	23.0	0.00e+00	0	33	0	1026555904	48	5802
2026-01-28 12:30:31.83	117.73	9.60	-36.9	-37.8	23.2	0.00e+00	43	33	0	1028653056	48	5619
2026-01-28 12:30:32.84	117.88	9.55	-37.0	-38.0	23.2	0.00e+00	0	33	0	1030750208	48	5697
2026-01-28 12:30:33.85	118.02	9.50	-37.4	-38.4	22.9	0.00e+00	0	33	0	1032847360	48	5968
2026-01-28 12:30:34.86	118.16	9.45	-37.3	-38.3	23.0	0.00e+00	7	33	0	1034944512	48	5908
2026-01-28 12:30:35.87	118.31	9.40	-37.5	-38.5	22.8	0.00e+00	0	33	0	1035993088	48	6056
2026-01-28 12:30:36.88	118.45	9.34	-37.6	-38.6	22.6	0.00e+00	55	33	0	1038090240	48	6167
2026-01-28 12:30:37.89	118.59	9.29	-37.8	-38.9	22.5	0.00e+00	0	33	0	1040187392	48	6319
2026-01-28 12:30:38.90	118.73	9.24	-37.8	-38.8	22.5	0.00e+00	87	33	0	1042284544	48	6312
2026-01-28 12:30:39.91	118.88	9.19	-38.0	-39.0	22.3	0.00e+00	0	33	0	1044381696	48	6427
2026-01-28 12:30:40.92	119.02	9.14	-38.0	-39.0	22.4	0.00e+00	0	33	0	1045430272	48	6442
2026-01-28 12:30:41.93	119.16	9.09	-37.9	-38.9	22.3	0.00e+00	0	33	0	1047527424	48	6383
2026-01-28 12:30:42.94	119.30	9.04	-38.1	-39.1	22.3	0.00e+00	0	33	0	1049624576	48	6537
2026-01-28 12:30:43.95	119.44	8.99	-38.3	-39.3	22.0	0.00e+00	55	33	0	1051721728	48	6681
2026-01-28 12:30:44.96	119.58	8.93	-38.4	-39.5	21.9	0.00e+00	0	33	0	1053818880	48	6827
2026-01-28 12:30:45.97	119.71	8.88	-38.3	-39.4	21.9	0.00e+00	90	33	0	1055916032	48	6709
2026-01-28 12:30:46.98	119.85	8.83	-38.1	-39.2	22.1	0.00e+00	0	33	0	1056964608	48	6570
2026-01-28 12:30:47.99	119.99	8.78	-38.1	-39.2	22.1	0.00e+00	0	33	0	1059061760	48	6554
2026-01-28 12:30:49.00	120.13	8.73	-38.0	-39.1	22.1	0.00e+00	0	33	0	1061158912	48	6486
2026-01-28 12:30:50.01	120.26	8.68	-38.0	-39.0	22.1	0.00e+00	0	33	0	1063256064	48	6436
2026-01-28 12:30:51.02	120.40	8.62	-37.7	-38.7	22.6	0.00e+00	58	33	0	1065353216	48	6183
2026-01-28 12:30:52.03	120.53	8.57	-37.5	-38.4	22.8	0.00e+00	0	33	0	1066401792	48	6019
2026-01-28 12:30:53.04	120.67	8.52	-37.4	-38.3	22.8	0.00e+00	90	33	0	1068498944	48	5949
2026-01-28 12:30:54.05	120.80	8.47	-37.6	-38.6	22.6	0.00e+00	0	33	0	1070596096	48	6118
2026-01-28 12:30:55.06	120.94	8.42	-37.6	-38.6	22.5	0.00e+00	0	33	0	1072693248	48	6154
2026-01-28 12:30:56.07	121.07	8.37	-37.9	-38.9	22.3	0.00e+00	0	33	0	1074790400	48	6390
2026-01-28 12:30:57.08	121.21	8.31	-37.8	-38.8	22.4	0.00e+00	0	33	0	1075838976	48	6281
2026-01-28 12:30:58.09	121.34	8.26	-38.2	-39.2	22.0	0.00e+00	20	33	0	1077936128	48	6611
2026-01-28 12:30:59.10	121.47	8.21	-38.4	-39.4	21.8	0.00e+00	0	33	0	1080033280	48	6765
2026-01-28 12:31:00.11	121.60	8.16	-38.6	-39.7	21.7	0.00e+00	91	33	0	1082130432	48	7004
2026-01-28 12:31:01.12	121.73	8.11	-38.8	-39.9	21.6	0.00e+00	0	33	0	1084227584	50	6333
2026-01-28 12:31:02.12	121.86	8.06	-38.5	-39.6	21.8	0.00e+00	0	33	0	1085276160	50	6155
2026-01-28 12:31:03.13	122.00	8.00	-38.7	-39.8	21.7	0.00e+00	0	33	0	1087373312	50	6284
2026-01-28 12:31:04.14	122.13	7.95	-38.6	-39.7	21.5	0.00e+00	0	33	0	1089470464	50	6179
2026-01-28 12:31:05.15	122.26	7.90	-38.4	-39.5	21.8	0.00e+00	62	33	0	1091567616	50	6052
2026-01-28 12:31:06.16	122.38	7.85	-38.5	-39.6	21.8	0.00e+00	0	33	0	1093664768	50	6138
2026-01-28 12:31:07.17	122.51	7.80	-38.5	-39.6	21.8	0.00e+00	92	33	0	1094713344	50	6110
2026-01-28 12:31:08.18	122.64	7.74	-38.7	-39.8	21.6	0.00e+00	0	33	0	1096810496	50	6274
2026-01-28 12:31:09.19	122.77	7.69	-38.6	-39.7	21.7	0.00e+00	92	33	0	1098907648	50	6245
2026-01-28 12:31:10.20	122.90	7.64	-38.6	-39.7	21.7	0.00e+00	0	33	0	1101004800	50	6212
2026-01-28 12:31:11.21	123.02	7.59	-38.9	-40.0	21.4	0.00e+00	0	33	0	1103101952	50	6441
2026-01-28 12:31:12.22	123.15	7.54	-39.0	-40.2	21.1	0.00e+00	0	33	0	1104150528	50	6583
2026-01-28 12:31:13.23	123.28	7.48	-39.2	-40.4	20.9	0.00e+00	0	33	0	1106247680	50	6765
2026-01-28 12:31:14.24	123.40	7.43	-39.3	-40.5	20.9	0.00e+00	92	33	0	1108344832	50	6790
2026-01-28 12:31:15.25	123.53	7.38	-39.4	-40.6	20.8	0.00e+00	0	33	0	1110441984	50	6925
2026-01-28 12:31:16.26	123.65	7.33	-39.6	-40.9	20.6	0.00e+00	90	33	0	1112539136	50	7127
2026-01-28 12:31:17.27	123.78	7.28	-39.2	-40.4	21.0	0.00e+00	0	33	0	1113587712	50	6698
2026-01-28 12:31:18.28	123.90	7.22	-39.1	-40.3	21.1	0.00e+00	0	33	0	1115684864	50	6635
2026-01-28 12:31:19.29	124.03	7.17	-39.1	-40.3	21.1	0.00e+00	0	33	0	1117782016	50	6659
2026-01-28 12:31:20.30	124.15	7.12	-39.4	-40.6	20.7	0.00e+00	0	33	0	1119879168	50	6875
2026-01-28 12:31:21.30	124.27	7.07	-39.4	-40.7	20.7	0.00e+00	69	33	0	1121976320	50	6959
2026-01-28 12:31:22.31	124.39	7.02	-39.3	-40.6	20.7	0.00e+00	0	33	0	1124073472	50	6855
2026-01-28 12:31:23.32	124.51	6.96	-39.6	-40.9	20.5	0.00e+00	92	33	0	1125122048	50	7120
2026-01-28 12:31:24.33	124.64	6.91	-39.4	-40.8	20.6	0.00e+00	0	33	0	1127219200	50	7024
2026-01-28 12:31:25.34	124.76	6.86	-39.7	-41.0	20.4	0.00e+00	0	33	0	1129316352	50	7242
2026-01-28 12:31:26.35	124.88	6.81	-39.7	-41.2	20.2	0.00e+00	0	33	0	1131413504	50	7353
2026-01-28 12:31:27.36	125.00	6.75	-39.6	-41.0	20.4	0.00e+00	0	33	0	1133510656	52	6403
2026-01-28 12:31:28.37	125.12	6.70	-39.6	-41.0	20.4	0.00e+00	90	33	0	1134559232	52	6401
2026-01-28 12:31:29.38	125.24	6.65	-39.8	-41.1	20.3	0.00e+00	0	33	0	1136656384	52	6537
2026-01-28 12:31:30.39	125.36	6.60	-39.7	-41.1	20.4	0.00e+00	62	33	0	1138753536	52	6470
2026-01-28 12:31:31.40	125.48	6.55	-39.4	-40.7	20.7	0.00e+00	0	33	0	1140850688	52	6214
2026-01-28 12:31:32.41	125.59	6.49	-39.3	-40.6	21.0	0.00e+00	0	33	0	1142947840	52	6115
2026-01-28 12:31:33.42	125.71	6.44	-38.9	-40.1	21.2	0.00e+00	0	33	0	1143996416	52	5786
2026-01-28 12:31:34.43	125.83	6.39	-38.9	-40.1	21.3	0.00e+00	0	33	0	1146093568	52	5779
2026-01-28 12:31:35.44	125.95	6.34	-39.0	-40.2	21.1	0.00e+00	58	33	0	1148190720	52	5863
2026-01-28 12:31:36.45	126.06	6.29	-38.9	-40.1	21.1	0.00e+00	0	33	0	1150287872	50	6478
2026-01-28 12:31:37.46	126.18	6.23	-39.6	-40.9	20.7	0.00e+00	90	33	0	1152385024	50	7093
2026-01-28 12:31:38.47	126.30	6.18	-39.0	-40.1	21.1	0.00e+00	0	33	0	1153433600	50	6534
2026-01-28 12:31:39.48	126.41	6.13	-39.4	-40.7	20.7	0.00e+00	0	33	0	1155530752	50	6931
2026-01-28 12:31:40.49	126.53	6.08	-40.0	-41.3	20.1	0.00e+00	0	33	0	1157627904	52	6657
2026-01-28 12:31:41.50	126.64	6.02	-40.0	-41.4	20.0	0.00e+00	0	33	0	1159725056	52	6729
2026-01-28 12:31:42.50	126.75	5.97	-40.4	-41.9	19.5	0.00e+00	61	33	0	1161822208	52	7119
2026-01-28 12:31:43.52	126.87	5.92	-40.7	-42.3	19.1	0.00e+00	0	33	0	1162870784	54	6691
2026-01-28 12:31:44.53	126.98	5.87	-40.4	-41.9	19.4	0.00e+00	91	33	0	1164967936	54	6385
2026-01-28 12:31:45.54	127.09	5.82	-40.6	-42.1	19.2	0.00e+00	0	33	0	1167065088	54	6526
2026-01-28 12:31:46.55	127.21	5.76	-40.0	-41.5	19.7	0.00e+00	28	33	0	1169162240	54	6060
2026-01-28 12:31:47.56	127.32	5.71	-40.3	-41.7	19.6	0.00e+00	0	33	0	1171259392	54	6228
2026-01-28 12:31:48.57	127.43	5.66	-39.9	-41.3	20.1	0.00e+00	0	33	0	1172307968	54	5929
2026-01-28 12:31:49.58	127.54	5.61	-39.9	-41.2	20.0	0.00e+00	25	33	0	1174405120	54	5895
2026-01-28 12:31:50.58	127.65	5.56	-40.1	-41.5	20.0	0.00e+00	0	33	0	1176502272	54	6051
2026-01-28 12:31:51.59	127.76	5.50	-39.5	-40.7	20.6	0.00e+00	92	33	0	1178599424	52	6228
2026-01-28 12:31:52.60	127.87	5.45	-39.8	-41.1	20.0	0.00e+00	0	33	0	1180696576	52	6505
2026-01-28 12:31:53.61	127.98	5.40	-39.6	-40.9	20.0	0.00e+00	35	33	0	1181745152	52	6374
2026-01-28 12:31:54.62	128.09	5.35	-40.0	-41.4	19.7	0.00e+00	0	33	0	1183842304	52	6721
2026-01-28 12:31:55.63	128.20	5.30	-39.5	-40.8	20.2	0.00e+00	0	33	0	1185939456	52	6259
2026-01-28 12:31:56.64	128.31	5.25	-40.2	-41.5	19.7	0.00e+00	17	33	0	1188036608	52	6845
2026-01-28 12:31:57.65	128.42	5.19	-40.3	-41.8	19.4	0.00e+00	0	33	0	1190133760	52	7020
2026-01-28 12:31:58.66	128.53	5.14	-40.4	-41.9	19.5	0.00e+00	52	33	0	1192230912	52	7115
2026-01-28 12:31:59.67	128.64	5.09	-40.3	-41.7	19.5	0.00e+00	0	33	0	1193279488	52	7003
2026-01-28 12:32:00.68	128.74	5.04	-40.8	-42.3	19.0	0.00e+00	78	33	0	1195376640	54	6672
2026-01-28 12:32:01.69	128.85	4.99	-40.2	-41.6	19.8	0.00e+00	0	33	0	1197473792	54	6140
2026-01-28 12:32:02.70	128.96	4.93	-40.3	-41.8	19.4	0.00e+00	0	33	0	1199570944	54	6299
2026-01-28 12:32:03.71	129.07	4.88	-40.6	-42.1	19.2	0.00e+00	0	33	0	1200619520	54	6537
2026-01-28 12:32:04.72	129.17	4.83	-40.4	-41.9	19.2	0.00e+00	0	33	0	1202716672	54	6345
2026-01-28 12:32:05.73	129.28	4.78	-40.4	-41.9	19.2	0.00e+00	43	33	0	1204813824	54	6359
2026-01-28 12:32:06.74	129.38	4.73	-40.1	-41.5	19.8	0.00e+00	0	33	0	1206910976	54	6087
2026-01-28 12:32:07.74	129.49	4.68	-40.2	-41.6	19.7	0.00e+00	90	33	0	1209008128	54	6119
2026-01-28 12:32:08.75	129.59	4.62	-40.2	-41.6	19.6	0.00e+00	0	33	0	1210056704	54	6146
2026-01-28 12:32:09.76	129.69	4.57	-40.2	-41.6	19.7	0.00e+00	0	33	0	1212153856	54	6141
