passes_logs/2026/01/28/R4.6S_Anadyr/R4.6S_Anadyr__20260128_021448_AQUA_rec.log

#Pass ID: 20260128_021448_AQUA
#Satellite: AQUA
#Configuration: AQUA
#almurnet v.1.7.20251203
#Start time: 2026-01-28 02:14:50

#Version: 2.2.20231116
#Station: R4.6S_Anadyr
#Location: 177.4865 lon 64.73178 lat
#TLE: 1 27424U 02022A   26027.63960626  .00001831  00000+0  37607-3 0  9998
#TLE: 2 27424  98.4102 354.2809 0001844  63.7090 108.5242 14.61867354262735

#Time	Az	El	Level	Level2	SNR	BER	BlckErr	Temp	State	Recorded	gain1	gain2
2026-01-28 02:14:50.54	163.50	0.11	-49.0	-64.0	3.5	1.51e+00	0	30	0	0	60	57258
2026-01-28 02:14:51.55	163.51	0.18	-49.4	-67.2	3.5	3.02e+01	0	32	104	0	60	88650
2026-01-28 02:14:52.56	163.52	0.24	-49.4	-67.2	3.5	3.02e+01	0	32	104	0	60	88402
2026-01-28 02:14:53.57	163.54	0.30	-49.4	-67.2	3.5	3.02e+01	0	32	104	0	60	88357
2026-01-28 02:14:54.58	163.55	0.36	-49.3	-67.3	3.5	3.02e+01	0	32	104	0	60	88844
2026-01-28 02:14:55.59	163.56	0.43	-49.4	-67.3	3.5	3.02e+01	0	32	104	0	60	88906
2026-01-28 02:14:56.60	163.57	0.49	-49.4	-67.3	3.5	3.02e+01	0	32	104	0	60	89281
2026-01-28 02:14:57.61	163.59	0.55	-49.5	-67.3	3.5	3.02e+01	0	32	104	0	60	88971
2026-01-28 02:14:58.62	163.60	0.62	-49.4	-67.3	3.5	3.02e+01	0	32	104	0	60	89169
2026-01-28 02:14:59.63	163.61	0.68	-49.5	-67.3	3.5	3.02e+01	0	32	104	0	60	89178
2026-01-28 02:15:00.64	163.62	0.74	-49.4	-67.3	3.5	3.02e+01	0	32	104	0	60	89275
2026-01-28 02:15:01.65	163.64	0.81	-49.4	-67.3	3.5	3.02e+01	0	32	104	0	60	89073
2026-01-28 02:15:02.65	163.65	0.87	-49.4	-67.3	3.5	3.02e+01	0	32	104	0	60	89062
2026-01-28 02:15:03.66	163.66	0.94	-49.4	-67.3	3.5	3.02e+01	0	32	104	0	60	88942
2026-01-28 02:15:04.68	163.67	1.00	-49.3	-67.2	3.5	3.02e+01	0	32	104	0	60	88020
2026-01-28 02:15:05.69	163.69	1.07	-49.3	-67.1	3.5	3.02e+01	0	32	104	0	60	87614
2026-01-28 02:15:06.70	163.70	1.13	-49.0	-67.1	3.5	3.02e+01	0	32	104	0	60	86899
2026-01-28 02:15:07.71	163.71	1.20	-49.2	-67.0	3.5	3.02e+01	0	32	104	0	60	86031
2026-01-28 02:15:08.72	163.72	1.26	-48.9	-66.8	3.5	3.02e+01	0	32	104	0	60	84542
2026-01-28 02:15:09.73	163.74	1.33	-48.9	-66.7	3.5	3.02e+01	0	32	104	0	60	83297
2026-01-28 02:15:10.74	163.75	1.39	-47.8	-65.7	3.5	3.02e+01	0	32	104	0	60	73935
2026-01-28 02:15:11.75	163.76	1.46	-48.3	-66.3	3.5	3.02e+01	0	32	104	0	60	79277
2026-01-28 02:15:12.76	163.78	1.52	-48.4	-66.2	3.5	3.02e+01	0	32	104	0	60	78400
2026-01-28 02:15:13.77	163.79	1.59	-48.2	-65.9	3.5	3.02e+01	0	32	104	0	60	75714
2026-01-28 02:15:14.78	163.80	1.66	-48.1	-65.7	3.5	3.02e+01	0	32	104	0	60	74351
2026-01-28 02:15:15.79	163.82	1.72	-48.1	-65.6	3.5	3.02e+01	0	32	104	0	60	73045
2026-01-28 02:15:16.80	163.83	1.79	-48.1	-65.5	3.5	3.02e+01	0	32	104	0	60	72211
2026-01-28 02:15:17.81	163.84	1.85	-48.1	-65.5	3.5	3.02e+01	0	32	104	0	60	72689
2026-01-28 02:15:18.82	163.86	1.92	-48.1	-65.5	3.5	3.02e+01	0	32	104	0	60	72118
2026-01-28 02:15:19.83	163.87	1.99	-48.1	-65.5	3.5	3.02e+01	0	32	104	0	60	72857
2026-01-28 02:15:20.84	163.88	2.06	-48.1	-65.7	3.5	3.02e+01	0	32	104	0	60	73941
2026-01-28 02:15:21.85	163.90	2.12	-48.1	-65.8	3.5	3.02e+01	0	32	104	0	60	75282
2026-01-28 02:15:22.86	163.91	2.19	-48.1	-65.9	3.5	3.02e+01	0	32	104	0	60	76275
2026-01-28 02:15:23.87	163.92	2.26	-48.1	-66.0	3.5	3.02e+01	0	32	104	0	60	76497
2026-01-28 02:15:24.88	163.94	2.33	-48.1	-65.9	3.5	3.02e+01	0	32	104	0	60	76331
2026-01-28 02:15:25.89	163.95	2.39	-48.1	-65.9	3.5	3.02e+01	0	32	104	0	60	75912
2026-01-28 02:15:26.90	163.96	2.46	-48.1	-65.6	3.5	3.02e+01	0	32	104	0	60	73311
2026-01-28 02:15:27.91	163.98	2.53	-48.1	-65.0	3.5	3.02e+01	0	32	104	0	60	68757
2026-01-28 02:15:28.92	163.99	2.60	-48.0	-64.0	3.6	3.02e+01	0	32	104	0	60	60684
2026-01-28 02:15:29.93	164.01	2.67	-48.0	-62.7	4.1	3.02e+01	0	32	104	0	60	52365
2026-01-28 02:15:30.94	164.02	2.74	-47.9	-61.8	3.7	3.02e+01	0	32	104	0	60	47557
2026-01-28 02:15:31.95	164.03	2.81	-47.8	-60.7	3.8	3.02e+01	0	32	104	0	60	41730
2026-01-28 02:15:32.96	164.05	2.88	-47.8	-59.5	5.5	3.02e+01	7	32	0	0	60	36503
2026-01-28 02:15:33.97	164.06	2.94	-47.9	-60.8	5.0	3.02e+01	0	32	104	0	60	42070
2026-01-28 02:15:34.98	164.08	3.01	-47.9	-61.7	4.4	3.02e+01	0	32	104	0	60	46553
2026-01-28 02:15:35.99	164.09	3.08	-47.9	-61.7	4.5	3.02e+01	0	32	104	0	60	46757
2026-01-28 02:15:37.00	164.11	3.15	-47.6	-58.0	7.6	3.02e+01	92	32	104	0	60	30412
2026-01-28 02:15:38.01	164.12	3.22	-46.9	-53.5	12.1	3.02e+01	91	32	0	1572864	60	18208
2026-01-28 02:15:39.01	164.13	3.29	-45.7	-50.1	15.5	3.02e+01	91	32	0	3670016	60	12334
2026-01-28 02:15:40.02	164.15	3.37	-44.3	-47.5	18.0	3.02e+01	91	32	0	5242880	60	9097
2026-01-28 02:15:41.03	164.16	3.44	-42.8	-45.3	20.4	3.02e+01	92	32	0	7340032	60	7067
2026-01-28 02:15:42.04	164.18	3.51	-41.4	-43.5	22.1	3.02e+01	92	32	0	8912896	58	6444
2026-01-28 02:15:43.05	164.19	3.58	-40.1	-41.8	23.5	3.02e+01	92	32	0	11010048	56	5972
2026-01-28 02:15:44.06	164.21	3.65	-39.1	-40.7	24.6	3.02e+01	91	32	0	13107200	54	5905
2026-01-28 02:15:45.07	164.22	3.72	-38.8	-40.4	24.9	3.02e+01	85	32	0	14680064	52	6367
2026-01-28 02:15:46.08	164.24	3.79	-39.0	-40.6	24.7	3.02e+01	92	32	0	16777216	52	6532
2026-01-28 02:15:47.09	164.25	3.87	-38.8	-40.4	24.9	3.02e+01	91	32	0	18350080	52	6371
2026-01-28 02:15:48.10	164.27	3.94	-39.3	-40.9	24.4	3.02e+01	90	32	0	20447232	52	6775
2026-01-28 02:15:49.11	164.28	4.01	-46.0	-50.8	14.5	3.02e+01	91	32	0	22544384	60	13319
2026-01-28 02:15:50.12	164.30	4.08	-43.7	-46.5	19.5	3.02e+01	91	32	0	24117248	60	8141
2026-01-28 02:15:51.13	164.31	4.16	-47.9	-61.2	3.7	3.02e+01	0	32	104	25690112	60	44107
2026-01-28 02:15:52.14	164.33	4.23	-41.0	-42.9	23.2	3.02e+01	92	32	0	25690112	56	6758
2026-01-28 02:15:53.15	164.34	4.30	-47.3	-55.2	9.5	3.02e+01	92	32	0	27787264	60	22118
2026-01-28 02:15:54.16	164.36	4.38	-38.7	-40.2	25.2	3.02e+01	92	32	0	29360128	52	6264
2026-01-28 02:15:55.17	164.37	4.45	-38.6	-40.1	25.2	3.02e+01	92	32	0	31457280	52	6187
2026-01-28 02:15:56.17	164.39	4.52	-37.8	-39.2	26.0	3.02e+01	90	32	0	33030144	50	6246
2026-01-28 02:15:57.18	164.40	4.60	-37.8	-39.3	26.3	3.02e+01	92	32	0	35127296	50	6279
2026-01-28 02:15:58.19	164.42	4.67	-37.6	-39.0	26.1	3.02e+01	92	32	0	37224448	50	6087
2026-01-28 02:15:59.20	164.44	4.75	-37.8	-39.2	26.3	3.02e+01	92	32	0	38797312	50	6260
2026-01-28 02:16:00.21	164.45	4.82	-37.9	-39.4	26.0	3.02e+01	92	32	0	40894464	50	6360
2026-01-28 02:16:01.22	164.47	4.90	-37.3	-38.7	26.7	3.02e+01	92	32	0	42991616	50	5911
2026-01-28 02:16:02.23	164.48	4.97	-37.4	-38.7	26.6	3.02e+01	92	32	0	44564480	50	5926
2026-01-28 02:16:03.24	164.50	5.05	-37.4	-38.8	26.5	3.02e+01	92	32	0	46661632	50	5988
2026-01-28 02:16:04.25	164.52	5.13	-37.4	-38.8	26.6	3.02e+01	86	32	0	48234496	50	5972
2026-01-28 02:16:05.26	164.53	5.20	-37.4	-38.8	26.6	3.02e+01	92	32	0	50331648	50	5969
2026-01-28 02:16:06.27	164.55	5.28	-37.0	-38.4	27.0	3.02e+01	90	32	0	52428800	50	5682
2026-01-28 02:16:07.28	164.56	5.35	-36.8	-38.1	27.2	3.02e+01	92	32	0	54001664	48	6205
2026-01-28 02:16:08.29	164.58	5.43	-36.8	-38.1	27.3	3.02e+01	92	32	0	56098816	48	6203
2026-01-28 02:16:09.30	164.60	5.51	-36.6	-37.9	27.5	3.02e+01	92	32	0	57671680	48	6017
2026-01-28 02:16:10.31	164.61	5.59	-36.7	-38.0	27.4	3.02e+01	91	32	0	59768832	48	6107
2026-01-28 02:16:11.32	164.63	5.66	-36.7	-38.0	27.3	3.02e+01	91	32	0	61865984	48	6110
2026-01-28 02:16:12.33	164.65	5.74	-36.8	-38.1	27.3	3.02e+01	92	32	0	63438848	48	6203
2026-01-28 02:16:13.34	164.66	5.82	-36.9	-38.2	27.3	3.02e+01	90	32	0	65536000	48	6224
2026-01-28 02:16:14.35	164.68	5.90	-36.6	-38.0	27.4	3.02e+01	92	32	0	67108864	48	6078
2026-01-28 02:16:15.36	164.70	5.98	-36.5	-37.8	27.7	3.02e+01	90	32	0	69206016	48	5934
2026-01-28 02:16:16.37	164.72	6.06	-36.3	-37.6	27.6	3.02e+01	92	32	0	71303168	48	5838
2026-01-28 02:16:17.38	164.73	6.14	-36.7	-38.0	27.4	3.02e+01	92	32	0	72876032	48	6092
2026-01-28 02:16:18.39	164.75	6.22	-36.5	-37.8	27.5	3.02e+01	91	32	0	74973184	48	5994
2026-01-28 02:16:19.40	164.77	6.30	-36.7	-38.0	27.4	3.02e+01	92	32	0	76546048	48	6098
2026-01-28 02:16:20.41	164.78	6.38	-36.5	-37.8	27.7	3.02e+01	92	32	0	78643200	48	5958
2026-01-28 02:16:21.42	164.80	6.46	-36.6	-37.9	27.5	3.02e+01	92	32	0	80740352	48	6036
2026-01-28 02:16:22.43	164.82	6.54	-37.1	-38.5	27.1	3.02e+01	92	32	0	82313216	48	6449
2026-01-28 02:16:23.44	164.84	6.62	-36.9	-38.3	27.4	3.02e+01	91	32	0	84410368	48	6288
2026-01-28 02:16:24.45	164.85	6.70	-36.7	-38.0	27.5	3.02e+01	92	32	0	85983232	48	6115
2026-01-28 02:16:25.46	164.87	6.78	-36.6	-37.9	27.5	3.02e+01	92	33	0	88080384	48	6048
2026-01-28 02:16:26.47	164.89	6.86	-36.3	-37.6	27.9	3.02e+01	92	32	0	90177536	48	5854
2026-01-28 02:16:27.48	164.91	6.94	-36.5	-37.8	27.8	3.02e+01	92	32	0	91750400	48	5968
2026-01-28 02:16:28.49	164.93	7.03	-36.4	-37.7	27.8	3.02e+01	90	32	0	93847552	48	5896
2026-01-28 02:16:29.50	164.94	7.11	-36.3	-37.6	27.9	3.02e+01	90	32	0	95944704	48	5858
2026-01-28 02:16:30.51	164.96	7.19	-36.4	-37.7	27.8	3.02e+01	92	32	0	97517568	48	5894
2026-01-28 02:16:31.52	164.98	7.28	-36.5	-37.8	27.7	3.02e+01	92	32	0	99614720	48	5931
2026-01-28 02:16:32.53	165.00	7.36	-36.4	-37.7	27.8	3.02e+01	90	32	0	101187584	48	5909
2026-01-28 02:16:33.54	165.02	7.44	-36.4	-37.7	27.9	3.02e+01	89	32	0	103284736	48	5859
2026-01-28 02:16:34.55	165.04	7.53	-36.5	-37.8	27.8	3.02e+01	92	32	0	105381888	48	5934
2026-01-28 02:16:35.56	165.05	7.61	-36.3	-37.5	28.1	3.02e+01	92	32	0	106954752	48	5779
2026-01-28 02:16:36.57	165.07	7.70	-36.5	-37.8	27.8	3.02e+01	91	32	0	109051904	48	5929
2026-01-28 02:16:37.58	165.09	7.78	-36.2	-37.5	28.1	3.02e+01	90	32	0	111149056	48	5727
2026-01-28 02:16:38.59	165.11	7.87	-36.2	-37.5	28.0	3.02e+01	90	33	0	112721920	48	5757
2026-01-28 02:16:39.60	165.13	7.95	-36.3	-37.6	28.0	3.02e+01	92	32	0	114819072	48	5796
2026-01-28 02:16:40.61	165.15	8.04	-36.3	-37.6	28.0	3.02e+01	91	32	0	116391936	48	5827
2026-01-28 02:16:41.62	165.17	8.13	-36.4	-37.7	27.9	3.02e+01	91	32	0	118489088	48	5864
2026-01-28 02:16:42.62	165.19	8.21	-36.2	-37.5	28.1	3.02e+01	91	32	0	120586240	48	5760
2026-01-28 02:16:43.63	165.21	8.30	-36.1	-37.4	28.2	3.02e+01	92	32	0	122159104	48	5691
2026-01-28 02:16:44.64	165.23	8.39	-36.2	-37.4	28.1	3.02e+01	92	32	0	124256256	48	5724
2026-01-28 02:16:45.65	165.25	8.47	-36.0	-37.2	28.4	3.02e+01	85	32	0	125829120	48	5591
2026-01-28 02:16:46.66	165.27	8.56	-36.1	-37.3	28.2	3.02e+01	91	33	0	127926272	48	5657
2026-01-28 02:16:47.67	165.29	8.65	-36.0	-37.2	28.3	3.02e+01	92	32	0	130023424	46	6263
2026-01-28 02:16:48.68	165.31	8.74	-36.0	-37.2	28.4	3.02e+01	90	32	0	131596288	46	6264
2026-01-28 02:16:49.69	165.33	8.83	-36.0	-37.2	28.3	3.02e+01	91	33	0	133693440	46	6266
2026-01-28 02:16:50.70	165.35	8.92	-35.9	-37.2	28.5	3.02e+01	91	32	0	135266304	46	6245
2026-01-28 02:16:51.71	165.37	9.01	-35.8	-37.0	28.6	3.02e+01	91	32	0	137363456	46	6121
2026-01-28 02:16:52.72	165.39	9.10	-35.8	-37.1	28.5	3.02e+01	92	32	0	139460608	46	6142
2026-01-28 02:16:53.73	165.41	9.19	-35.9	-37.2	28.5	3.02e+01	92	32	0	141033472	46	6230
2026-01-28 02:16:54.74	165.43	9.28	-35.7	-37.0	28.6	3.02e+01	92	32	0	143130624	46	6085
2026-01-28 02:16:55.75	165.45	9.37	-35.8	-37.0	28.7	3.02e+01	91	32	0	144703488	46	6100
2026-01-28 02:16:56.76	165.47	9.46	-35.6	-36.8	28.8	3.02e+01	92	32	0	146800640	46	5954
2026-01-28 02:16:57.77	165.49	9.55	-35.6	-36.8	28.8	3.02e+01	90	32	0	148897792	46	5966
2026-01-28 02:16:58.78	165.51	9.65	-35.7	-36.9	28.7	3.02e+01	92	32	0	150470656	46	6043
2026-01-28 02:16:59.79	165.54	9.74	-35.7	-36.9	28.7	3.02e+01	92	33	0	152567808	46	6027
2026-01-28 02:17:00.80	165.56	9.83	-35.6	-36.9	28.8	3.02e+01	92	32	0	154140672	46	5999
2026-01-28 02:17:01.81	165.58	9.93	-35.5	-36.8	28.9	3.02e+01	90	32	0	156237824	46	5932
2026-01-28 02:17:02.82	165.60	10.02	-35.7	-36.9	28.8	3.02e+01	92	33	0	158334976	46	6025
2026-01-28 02:17:03.83	165.62	10.11	-35.6	-36.8	28.8	3.02e+01	92	32	0	159907840	46	5965
2026-01-28 02:17:04.84	165.64	10.21	-35.6	-36.8	28.9	3.02e+01	92	33	0	162004992	46	5982
2026-01-28 02:17:05.85	165.67	10.30	-35.5	-36.7	28.9	3.02e+01	92	32	0	164102144	46	5891
2026-01-28 02:17:06.86	165.69	10.40	-35.5	-36.8	28.9	3.02e+01	91	32	0	165675008	46	5928
2026-01-28 02:17:07.87	165.71	10.50	-35.6	-36.9	28.8	3.02e+01	92	32	0	167772160	46	6014
2026-01-28 02:17:08.88	165.73	10.59	-35.4	-36.6	29.1	3.02e+01	90	32	0	169345024	46	5819
2026-01-28 02:17:09.89	165.76	10.69	-35.4	-36.6	29.0	3.02e+01	91	32	0	171442176	46	5858
2026-01-28 02:17:10.90	165.78	10.79	-35.4	-36.6	29.1	3.02e+01	92	32	0	173539328	46	5843
2026-01-28 02:17:11.91	165.80	10.88	-35.4	-36.6	29.0	3.02e+01	90	32	0	175112192	46	5828
2026-01-28 02:17:12.92	165.82	10.98	-35.5	-36.7	29.0	3.02e+01	91	32	0	177209344	46	5897
2026-01-28 02:17:13.93	165.85	11.08	-35.4	-36.7	29.0	3.02e+01	90	32	0	179306496	46	5874
2026-01-28 02:17:14.94	165.87	11.18	-35.4	-36.6	29.0	3.02e+01	90	32	0	180879360	46	5818
2026-01-28 02:17:15.95	165.89	11.28	-35.4	-36.7	29.0	3.02e+01	92	32	0	182976512	46	5863
2026-01-28 02:17:16.96	165.92	11.38	-35.4	-36.7	29.0	3.02e+01	92	33	0	184549376	46	5884
2026-01-28 02:17:17.97	165.94	11.48	-35.4	-36.7	29.0	3.02e+01	92	32	0	186646528	46	5896
2026-01-28 02:17:18.98	165.97	11.58	-35.5	-36.8	29.0	3.02e+01	92	32	0	188743680	46	5930
2026-01-28 02:17:19.99	165.99	11.68	-35.4	-36.6	29.1	3.02e+01	90	32	0	190316544	46	5817
2026-01-28 02:17:21.00	166.01	11.78	-35.3	-36.5	29.2	3.02e+01	92	32	0	192413696	46	5772
2026-01-28 02:17:22.01	166.04	11.89	-35.5	-36.7	29.0	3.02e+01	91	33	0	193986560	46	5896
2026-01-28 02:17:23.02	166.06	11.99	-35.5	-36.7	29.1	3.02e+01	92	32	0	196083712	46	5876
2026-01-28 02:17:24.03	166.09	12.09	-35.4	-36.6	29.1	3.02e+01	91	32	0	198180864	46	5836
2026-01-28 02:17:25.04	166.11	12.20	-35.3	-36.5	29.2	3.02e+01	92	32	0	199753728	46	5757
2026-01-28 02:17:26.04	166.14	12.30	-35.3	-36.6	29.1	3.02e+01	92	32	0	201850880	46	5792
2026-01-28 02:17:27.05	166.16	12.40	-35.4	-36.6	29.1	3.02e+01	92	32	0	203423744	46	5812
2026-01-28 02:17:28.06	166.19	12.51	-35.3	-36.5	29.2	3.02e+01	91	32	0	205520896	46	5766
2026-01-28 02:17:29.07	166.21	12.61	-35.4	-36.6	29.1	3.02e+01	92	32	0	207618048	46	5817
2026-01-28 02:17:30.08	166.24	12.72	-35.7	-36.9	28.8	3.02e+01	91	32	0	209190912	46	6037
2026-01-28 02:17:31.09	166.27	12.83	-35.5	-36.7	29.0	3.02e+01	92	32	0	211288064	46	5887
2026-01-28 02:17:32.10	166.29	12.93	-35.0	-36.2	29.5	3.02e+01	92	32	0	212860928	46	5556
2026-01-28 02:17:33.11	166.32	13.04	-35.0	-36.2	29.4	3.02e+01	92	32	0	214958080	44	6226
2026-01-28 02:17:34.12	166.34	13.15	-35.1	-36.3	29.4	3.02e+01	92	32	0	217055232	44	6346
2026-01-28 02:17:35.13	166.37	13.26	-35.1	-36.3	29.4	3.02e+01	92	33	0	218628096	44	6335
2026-01-28 02:17:36.14	166.40	13.37	-35.0	-36.2	29.5	3.02e+01	92	32	0	220725248	44	6228
2026-01-28 02:17:37.15	166.42	13.48	-34.7	-35.9	29.7	3.02e+01	92	33	0	222298112	44	6028
2026-01-28 02:17:38.16	166.45	13.59	-34.9	-36.1	29.6	3.02e+01	92	33	0	224395264	44	6181
2026-01-28 02:17:39.17	166.48	13.70	-34.9	-36.1	29.5	3.02e+01	92	33	0	226492416	44	6181
2026-01-28 02:17:40.18	166.51	13.81	-34.9	-36.1	29.6	3.02e+01	91	32	0	228065280	44	6144
2026-01-28 02:17:41.19	166.53	13.92	-35.4	-45.5	3.5	3.02e+01	0	33	104	228589568	44	18283
2026-01-28 02:17:42.20	166.56	14.04	-35.3	-45.5	3.4	3.02e+01	0	33	104	228589568	44	18289
2026-01-28 02:17:43.21	166.59	14.15	-35.5	-45.7	3.6	3.02e+01	0	33	104	228589568	44	18646
2026-01-28 02:17:44.22	166.62	14.26	-38.5	-48.8	3.6	3.02e+01	0	33	104	228589568	54	14949
2026-01-28 02:17:45.23	166.65	14.38	-46.1	-58.4	3.6	3.02e+01	0	33	104	228589568	60	32068
2026-01-28 02:17:46.24	166.68	14.49	-45.8	-58.1	3.4	3.02e+01	0	33	104	228589568	60	30861
2026-01-28 02:17:47.25	166.70	14.61	-46.4	-58.9	3.5	3.02e+01	0	33	104	228589568	60	34008
2026-01-28 02:17:48.26	166.73	14.72	-37.6	-47.9	3.4	3.02e+01	0	33	104	228589568	50	17018
2026-01-28 02:17:49.27	166.76	14.84	-37.0	-47.2	3.6	3.02e+01	0	33	104	228589568	50	15683
2026-01-28 02:17:50.28	166.79	14.96	-36.0	-46.1	4.1	3.02e+01	0	33	104	228589568	48	15514
2026-01-28 02:17:51.29	166.82	15.08	-36.9	-47.1	3.7	3.02e+01	0	33	104	228589568	52	13785
2026-01-28 02:17:52.30	166.85	15.20	-43.5	-54.7	4.0	3.02e+01	0	33	104	228589568	60	20795
2026-01-28 02:17:53.31	166.88	15.31	-46.5	-59.2	3.4	3.02e+01	0	33	104	228589568	60	35001
2026-01-28 02:17:54.32	166.91	15.43	-40.4	-50.8	4.0	3.02e+01	0	33	104	228589568	58	15051
2026-01-28 02:17:55.33	166.94	15.56	-48.9	-65.6	3.6	3.02e+01	0	33	104	228589568	60	72940
2026-01-28 02:17:56.34	166.97	15.68	-41.7	-52.3	3.6	3.02e+01	0	32	104	228589568	58	17855
2026-01-28 02:17:57.35	167.01	15.80	-40.3	-50.8	3.5	3.02e+01	0	32	104	228589568	56	16881
2026-01-28 02:17:58.36	167.04	15.92	-40.3	-50.9	3.5	3.02e+01	0	33	104	228589568	54	19034
2026-01-28 02:17:59.37	167.07	16.04	-45.8	-57.9	3.5	3.02e+01	0	33	104	228589568	60	30343
2026-01-28 02:18:00.38	167.10	16.17	-38.4	-48.7	3.5	3.02e+01	0	33	104	228589568	60	10467
2026-01-28 02:18:01.39	167.13	16.29	-45.1	-56.9	3.5	3.02e+01	0	33	104	228589568	60	26926
2026-01-28 02:18:02.40	167.17	16.42	-40.3	-50.8	3.2	3.02e+01	0	33	104	228589568	60	13337
2026-01-28 02:18:03.41	167.20	16.54	-45.0	-56.7	3.5	3.02e+01	0	33	104	228589568	60	26294
2026-01-28 02:18:04.42	167.23	16.67	-39.2	-49.6	3.5	3.02e+01	0	33	104	228589568	54	16334
2026-01-28 02:18:05.43	167.26	16.80	-38.6	-48.9	3.5	3.02e+01	0	33	104	228589568	52	17079
2026-01-28 02:18:06.44	167.30	16.93	-37.3	-47.6	3.5	3.02e+01	0	33	104	228589568	50	16427
2026-01-28 02:18:07.45	167.33	17.06	-37.3	-47.7	3.5	3.02e+01	0	33	104	228589568	46	20844
2026-01-28 02:18:08.46	167.37	17.19	-37.2	-47.5	3.6	3.02e+01	0	33	104	228589568	56	11475
2026-01-28 02:18:09.46	167.40	17.32	-42.5	-53.4	3.5	3.02e+01	0	32	104	228589568	60	18002
2026-01-28 02:18:10.47	167.43	17.45	-36.1	-46.3	3.5	3.02e+01	0	33	104	228589568	48	15816
2026-01-28 02:18:11.49	167.47	17.58	-42.9	-54.0	3.6	3.02e+01	0	32	104	228589568	60	19182
2026-01-28 02:18:12.49	167.50	17.71	-36.3	-46.5	3.6	3.02e+01	0	33	104	228589568	48	16136
2026-01-28 02:18:13.50	167.54	17.85	-36.2	-46.4	3.5	3.02e+01	0	33	104	228589568	48	16100
2026-01-28 02:18:14.51	167.58	17.98	-37.7	-48.0	3.5	3.02e+01	0	33	104	228589568	46	21609
2026-01-28 02:18:15.53	167.61	18.12	-39.3	-49.6	3.5	3.02e+01	0	32	104	228589568	54	16507
2026-01-28 02:18:16.54	167.65	18.25	-35.3	-45.4	3.5	3.02e+01	0	33	104	228589568	44	18092
2026-01-28 02:18:17.55	167.68	18.39	-45.2	-57.0	3.5	3.02e+01	0	33	104	228589568	60	27240
2026-01-28 02:18:18.56	167.72	18.53	-36.8	-47.0	3.6	3.02e+01	0	33	104	228589568	52	13673
2026-01-28 02:18:19.57	167.76	18.67	-40.2	-50.7	3.5	3.02e+01	0	33	104	228589568	60	13165
2026-01-28 02:18:20.58	167.80	18.80	-37.2	-47.5	3.5	3.02e+01	0	33	104	228589568	48	18263
2026-01-28 02:18:21.59	167.83	18.94	-36.3	-46.5	3.5	3.02e+01	0	33	104	228589568	48	16215
2026-01-28 02:18:22.60	167.87	19.09	-35.4	-45.6	3.5	3.02e+01	0	32	104	228589568	46	16404
2026-01-28 02:18:23.61	167.91	19.23	-36.3	-46.6	3.5	3.02e+01	0	33	104	228589568	46	18358
2026-01-28 02:18:24.62	167.95	19.37	-35.6	-45.7	3.5	3.02e+01	0	33	104	228589568	46	16684
2026-01-28 02:18:25.63	167.99	19.51	-43.8	-55.0	3.5	3.02e+01	0	33	104	228589568	60	21638
2026-01-28 02:18:26.64	168.03	19.66	-40.8	-51.4	3.4	3.02e+01	0	33	104	228589568	54	20089
2026-01-28 02:18:27.65	168.07	19.80	-45.9	-58.0	3.5	3.02e+01	0	33	104	228589568	60	30671
2026-01-28 02:18:28.66	168.11	19.95	-41.0	-51.6	3.6	3.02e+01	0	33	104	228589568	58	16456
2026-01-28 02:18:29.67	168.15	20.10	-39.8	-50.4	3.5	3.02e+01	0	33	104	228589568	54	17927
2026-01-28 02:18:30.68	168.19	20.25	-39.9	-50.3	3.5	3.02e+01	0	33	104	228589568	52	20062
2026-01-28 02:18:31.69	168.23	20.40	-45.3	-57.1	3.5	3.02e+01	0	33	104	228589568	60	27619
2026-01-28 02:18:32.70	168.28	20.55	-35.6	-45.8	3.4	3.02e+01	0	33	104	228589568	46	16835
2026-01-28 02:18:33.71	168.32	20.70	-44.1	-55.5	3.5	3.02e+01	0	33	104	228589568	60	22863
2026-01-28 02:18:34.72	168.36	20.85	-40.5	-51.1	3.5	3.02e+01	0	33	104	228589568	52	21838
2026-01-28 02:18:35.73	168.40	21.00	-39.9	-50.4	3.6	3.02e+01	0	33	104	228589568	56	15955
2026-01-28 02:18:36.74	168.45	21.16	-38.8	-49.2	3.5	3.02e+01	0	33	104	228589568	52	17534
2026-01-28 02:18:37.75	168.49	21.31	-37.4	-47.6	3.5	3.02e+01	0	33	104	228589568	50	16492
2026-01-28 02:18:38.76	168.54	21.47	-35.7	-45.9	3.5	3.02e+01	0	33	104	228589568	46	17029
2026-01-28 02:18:39.77	168.58	21.63	-42.2	-53.0	3.5	3.02e+01	0	33	104	228589568	54	24366
2026-01-28 02:18:40.78	168.63	21.79	-37.3	-47.5	3.5	3.02e+01	0	33	104	228589568	46	20517
2026-01-28 02:18:41.79	168.67	21.95	-45.2	-56.9	3.5	3.02e+01	0	33	104	228589568	60	27054
2026-01-28 02:18:42.80	168.72	22.11	-39.2	-49.6	3.5	3.02e+01	0	33	104	228589568	46	26033
2026-01-28 02:18:43.81	168.77	22.27	-36.7	-46.9	3.4	3.02e+01	0	33	104	228589568	50	15184
2026-01-28 02:18:44.82	168.81	22.43	-35.8	-46.0	3.5	3.02e+01	0	33	104	228589568	46	17171
2026-01-28 02:18:45.83	168.86	22.59	-35.7	-45.9	3.5	3.02e+01	0	33	104	228589568	46	17090
2026-01-28 02:18:46.84	168.91	22.76	-40.6	-51.2	3.5	3.02e+01	0	33	104	228589568	52	22041
2026-01-28 02:18:47.84	168.96	22.92	-40.8	-51.3	3.5	3.02e+01	0	33	104	228589568	52	22525
2026-01-28 02:18:48.85	169.01	23.09	-40.2	-50.8	3.5	3.02e+01	0	33	104	228589568	50	23783
2026-01-28 02:18:49.86	169.05	23.26	-49.2	-66.7	3.5	3.02e+01	0	33	104	228589568	60	82958
2026-01-28 02:18:50.87	169.11	23.43	-44.0	-55.3	3.5	3.02e+01	0	33	104	228589568	58	25119
2026-01-28 02:18:51.88	169.16	23.60	-40.9	-51.5	3.5	3.02e+01	0	33	104	228589568	56	18221
2026-01-28 02:18:52.89	169.21	23.77	-40.4	-50.9	3.5	3.02e+01	0	33	104	228589568	56	17049
2026-01-28 02:18:53.90	169.26	23.95	-39.0	-49.4	3.5	3.02e+01	0	33	104	228589568	54	16099
2026-01-28 02:18:54.91	169.31	24.12	-35.7	-45.9	3.5	3.02e+01	0	33	104	228589568	46	16952
2026-01-28 02:18:55.92	169.36	24.30	-44.1	-55.5	3.5	3.02e+01	0	33	104	228589568	58	25707
2026-01-28 02:18:56.93	169.42	24.47	-47.2	-60.7	3.4	3.02e+01	0	33	104	228589568	60	41618
2026-01-28 02:18:57.93	169.47	24.65	-44.0	-55.2	3.5	3.02e+01	0	33	104	228589568	60	22055
2026-01-28 02:18:58.95	169.53	24.83	-46.2	-58.6	3.5	3.02e+01	0	33	104	228589568	60	32811
2026-01-28 02:18:59.96	169.58	25.01	-39.1	-49.6	3.5	3.02e+01	0	33	104	228589568	54	16498
2026-01-28 02:19:00.97	169.64	25.19	-37.8	-48.1	3.6	3.02e+01	0	33	104	228589568	50	17348
2026-01-28 02:19:01.98	169.69	25.38	-37.2	-47.5	3.5	3.02e+01	0	33	104	228589568	50	16219
2026-01-28 02:19:02.99	169.75	25.56	-42.9	-53.9	3.5	3.02e+01	0	33	104	228589568	58	21450
2026-01-28 02:19:04.00	169.81	25.75	-48.5	-64.6	3.5	3.02e+01	0	33	104	228589568	60	65176
2026-01-28 02:19:05.01	169.87	25.94	-45.4	-57.4	3.5	3.02e+01	0	33	104	228589568	60	28525
2026-01-28 02:19:06.02	169.93	26.13	-45.1	-56.8	3.5	3.02e+01	0	33	104	228589568	60	26689
2026-01-28 02:19:07.03	169.99	26.32	-44.8	-56.3	3.5	3.02e+01	0	33	104	228589568	60	25164
2026-01-28 02:19:08.03	170.05	26.51	-36.2	-46.4	3.5	3.02e+01	0	33	104	228589568	48	16092
2026-01-28 02:19:09.04	170.11	26.70	-35.6	-45.8	3.5	3.02e+01	0	33	104	228589568	46	16740
2026-01-28 02:19:10.05	170.17	26.90	-35.7	-45.8	3.5	3.02e+01	0	33	104	228589568	46	16831
2026-01-28 02:19:11.06	170.23	27.09	-36.0	-46.3	3.5	3.02e+01	0	33	104	228589568	46	17711
2026-01-28 02:19:12.07	170.30	27.29	-45.3	-57.4	3.5	3.02e+01	0	32	104	228589568	60	28408
2026-01-28 02:19:13.08	170.36	27.49	-48.8	-65.0	3.5	3.02e+01	0	33	104	228589568	60	68498
2026-01-28 02:19:14.09	170.43	27.69	-47.4	-60.6	3.6	3.02e+01	0	33	104	228589568	60	41316
2026-01-28 02:19:15.10	170.49	27.89	-49.1	-66.6	3.5	3.02e+01	0	33	104	228589568	60	82246
2026-01-28 02:19:16.11	170.56	28.10	-41.9	-52.6	3.5	3.02e+01	0	33	104	228589568	60	16402
2026-01-28 02:19:17.12	170.63	28.30	-41.1	-51.7	3.5	3.02e+01	0	33	104	228589568	58	16682
2026-01-28 02:19:18.13	170.69	28.51	-38.6	-48.9	3.5	3.02e+01	0	33	104	228589568	52	17009
2026-01-28 02:19:19.14	170.76	28.72	-38.0	-48.4	3.5	3.02e+01	0	33	104	228589568	50	17916
2026-01-28 02:19:20.15	170.83	28.93	-44.9	-56.5	3.6	3.02e+01	0	33	104	228589568	60	25732
2026-01-28 02:19:21.16	170.91	29.14	-44.2	-55.4	3.5	3.02e+01	0	33	104	228589568	60	22594
2026-01-28 02:19:22.17	170.98	29.36	-47.8	-61.7	3.6	3.02e+01	0	33	104	228589568	60	46894
2026-01-28 02:19:23.18	171.05	29.57	-48.4	-63.3	3.6	3.02e+01	0	33	104	228589568	60	55964
2026-01-28 02:19:24.18	171.12	29.79	-41.4	-52.0	3.5	3.02e+01	0	33	104	228589568	58	17244
2026-01-28 02:19:25.19	171.20	30.01	-41.6	-52.2	3.5	3.02e+01	0	33	104	228589568	58	17520
2026-01-28 02:19:26.20	171.27	30.23	-41.2	-51.9	3.6	3.02e+01	0	33	104	228589568	58	16900
2026-01-28 02:19:27.21	171.35	30.45	-37.7	-48.0	3.5	3.02e+01	0	33	104	228589568	50	17153
2026-01-28 02:19:28.22	171.43	30.68	-42.7	-53.5	3.6	3.02e+01	0	33	104	228589568	60	18275
2026-01-28 02:19:29.23	171.51	30.90	-43.2	-54.2	3.5	3.02e+01	0	33	104	228589568	60	19705
2026-01-28 02:19:30.24	171.59	31.13	-46.6	-59.4	3.5	3.02e+01	0	33	104	228589568	60	36042
2026-01-28 02:19:31.25	171.67	31.36	-44.7	-56.2	3.5	3.02e+01	0	33	104	228589568	60	24935
2026-01-28 02:19:32.26	171.75	31.59	-37.6	-47.9	3.5	3.02e+01	0	33	104	228589568	50	16975
2026-01-28 02:19:33.27	171.84	31.83	-36.2	-46.4	3.5	3.02e+01	0	33	104	228589568	48	16134
2026-01-28 02:19:34.28	171.92	32.06	-35.5	-45.7	3.5	3.02e+01	0	33	104	228589568	46	16595
2026-01-28 02:19:35.29	172.01	32.30	-40.0	-50.5	3.5	3.02e+01	0	33	104	228589568	54	18158
2026-01-28 02:19:36.30	172.09	32.54	-41.0	-51.5	3.6	3.02e+01	0	33	104	228589568	60	14422
2026-01-28 02:19:37.31	172.18	32.78	-44.0	-55.2	3.5	3.02e+01	0	33	104	228589568	60	22055
2026-01-28 02:19:38.32	172.27	33.02	-42.0	-52.9	3.6	3.02e+01	0	33	104	228589568	60	16905
2026-01-28 02:19:39.33	172.36	33.27	-46.4	-58.9	3.5	3.02e+01	0	33	104	228589568	60	33803
2026-01-28 02:19:40.34	172.46	33.52	-37.1	-47.3	3.6	3.02e+01	0	33	104	228589568	50	15891
2026-01-28 02:19:41.35	172.55	33.77	-37.0	-47.2	3.5	3.02e+01	0	33	104	228589568	48	17547
2026-01-28 02:19:42.36	172.65	34.02	-36.8	-47.0	3.5	3.02e+01	0	33	104	228589568	48	17187
2026-01-28 02:19:43.37	172.74	34.27	-42.6	-53.5	3.5	3.02e+01	0	33	104	228589568	60	18163
2026-01-28 02:19:44.38	172.84	34.53	-39.6	-50.0	3.5	3.02e+01	0	33	104	228589568	60	12155
2026-01-28 02:19:45.39	172.94	34.79	-44.7	-56.2	3.5	3.02e+01	0	33	104	228589568	60	24977
2026-01-28 02:19:46.40	173.04	35.05	-43.8	-55.1	3.6	3.02e+01	0	33	104	228589568	60	21971
2026-01-28 02:19:47.41	173.15	35.31	-45.1	-56.9	3.5	3.02e+01	0	33	104	228589568	60	26956
2026-01-28 02:19:48.42	173.25	35.58	-39.7	-50.1	3.5	3.02e+01	0	33	104	228589568	54	17454
2026-01-28 02:19:49.43	173.36	35.84	-38.5	-48.9	3.5	3.02e+01	0	33	104	228589568	52	16933
2026-01-28 02:19:50.44	173.46	36.11	-38.5	-48.8	3.5	3.02e+01	0	33	104	228589568	52	16732
2026-01-28 02:19:51.45	173.57	36.39	-43.4	-54.5	3.5	3.02e+01	0	33	104	228589568	60	20417
2026-01-28 02:19:52.46	173.69	36.66	-36.9	-47.3	3.6	3.02e+01	0	33	104	228589568	50	15843
2026-01-28 02:19:53.47	173.80	36.94	-45.8	-57.9	3.5	3.02e+01	0	33	104	228589568	60	30225
2026-01-28 02:19:54.48	173.92	37.22	-41.6	-52.3	3.6	3.02e+01	0	33	104	228589568	60	15786
2026-01-28 02:19:55.48	174.03	37.49	-46.1	-58.2	3.6	3.02e+01	0	33	104	228589568	60	31337
2026-01-28 02:19:56.49	174.15	37.78	-40.8	-51.3	3.5	3.02e+01	0	33	104	228589568	56	17843
2026-01-28 02:19:57.50	174.27	38.06	-41.1	-51.9	3.5	3.02e+01	0	33	104	228589568	56	19021
2026-01-28 02:19:58.51	174.40	38.35	-39.0	-49.5	3.5	3.02e+01	0	33	104	228589568	54	16145
2026-01-28 02:19:59.52	174.52	38.64	-39.6	-50.0	3.6	3.02e+01	0	33	104	228589568	50	21744
2026-01-28 02:20:00.53	174.65	38.94	-37.4	-47.7	3.5	3.02e+01	0	33	104	228589568	50	16553
2026-01-28 02:20:01.54	174.78	39.23	-47.2	-60.6	3.5	3.02e+01	0	33	104	228589568	60	41199
2026-01-28 02:20:02.55	174.92	39.53	-39.2	-49.6	3.4	3.02e+01	0	33	104	228589568	56	14668
2026-01-28 02:20:03.57	175.05	39.84	-42.9	-53.8	3.6	3.02e+01	0	33	104	228589568	60	18893
2026-01-28 02:20:04.58	175.19	40.14	-39.5	-49.9	3.5	3.02e+01	0	33	104	228589568	54	17067
2026-01-28 02:20:05.59	175.33	40.45	-37.8	-48.1	3.5	3.02e+01	0	33	104	228589568	52	15536
2026-01-28 02:20:06.60	175.47	40.76	-37.6	-48.0	3.5	3.02e+01	0	33	104	228589568	50	17116
2026-01-28 02:20:07.61	175.62	41.07	-37.9	-48.2	3.4	3.02e+01	0	33	104	228589568	50	17590
2026-01-28 02:20:08.61	175.77	41.38	-36.9	-47.1	3.5	3.02e+01	0	33	104	228589568	48	17398
2026-01-28 02:20:09.62	175.92	41.70	-47.2	-60.3	3.5	3.02e+01	0	33	104	228589568	60	39869
2026-01-28 02:20:10.63	176.07	42.02	-38.0	-48.4	3.5	3.02e+01	0	33	104	228589568	54	14257
2026-01-28 02:20:11.64	176.23	42.34	-42.6	-53.5	3.5	3.02e+01	0	33	104	228589568	60	18156
2026-01-28 02:20:12.65	176.39	42.66	-40.0	-50.6	3.5	3.02e+01	0	33	104	228589568	54	18375
2026-01-28 02:20:13.66	176.56	42.99	-38.8	-49.2	3.6	3.02e+01	0	33	104	228589568	54	15697
2026-01-28 02:20:14.67	176.72	43.32	-39.9	-50.5	3.5	3.02e+01	0	33	104	228589568	50	22839
2026-01-28 02:20:15.68	176.89	43.65	-37.5	-47.7	3.5	3.02e+01	0	33	104	228589568	48	18715
2026-01-28 02:20:16.69	177.07	43.99	-41.1	-51.6	3.9	3.02e+01	0	33	104	228589568	48	29326
2026-01-28 02:20:17.70	177.25	44.33	-48.3	-63.1	3.5	3.02e+01	0	33	104	228589568	60	54854
2026-01-28 02:20:18.71	177.43	44.67	-39.6	-50.1	3.5	3.02e+01	0	33	104	228589568	52	19547
2026-01-28 02:20:19.72	177.62	45.02	-41.3	-52.0	3.5	3.02e+01	0	33	104	228589568	58	17256
2026-01-28 02:20:20.73	177.81	45.36	-38.3	-48.6	3.5	3.02e+01	0	33	104	228589568	52	16429
2026-01-28 02:20:21.74	178.00	45.71	-37.6	-47.9	3.5	3.02e+01	0	33	104	228589568	50	17015
2026-01-28 02:20:22.75	178.20	46.07	-42.0	-52.9	3.5	3.02e+01	0	33	104	228589568	56	21289
2026-01-28 02:20:23.76	178.40	46.42	-40.0	-50.5	3.6	3.02e+01	0	33	104	228589568	52	20417
2026-01-28 02:20:24.77	178.61	46.78	-41.8	-52.4	3.5	3.02e+01	0	33	104	228589568	50	28507
2026-01-28 02:20:25.78	178.82	47.14	-49.1	-66.0	3.5	3.02e+01	0	33	104	228589568	60	76615
2026-01-28 02:20:26.79	179.04	47.51	-39.5	-49.9	3.6	3.02e+01	0	33	104	228589568	52	19158
2026-01-28 02:20:27.80	179.26	47.87	-40.3	-50.9	3.6	3.02e+01	0	33	104	228589568	58	15129
2026-01-28 02:20:28.81	179.49	48.24	-39.5	-49.9	3.5	3.02e+01	0	33	104	228589568	54	17046
2026-01-28 02:20:29.82	179.72	48.62	-39.8	-50.2	3.6	3.02e+01	0	33	104	228589568	54	17652
2026-01-28 02:20:30.83	179.96	48.99	-35.2	-45.6	3.5	3.02e+01	0	33	104	228589568	46	16335
2026-01-28 02:20:31.84	180.21	49.37	-41.1	-51.7	3.8	3.02e+01	0	33	104	228589568	52	23389
2026-01-28 02:20:32.85	180.46	49.75	-48.6	-64.3	3.5	3.02e+01	0	33	104	228589568	60	63005
2026-01-28 02:20:33.86	180.72	50.14	-48.8	-64.7	3.5	3.02e+01	0	33	104	228589568	60	66033
2026-01-28 02:20:34.87	180.98	50.52	-42.8	-53.8	3.5	3.02e+01	0	33	104	228589568	54	26600
2026-01-28 02:20:35.88	181.25	50.91	-40.1	-50.7	3.5	3.02e+01	0	33	104	228589568	56	16629
2026-01-28 02:20:36.89	181.53	51.31	-38.4	-48.7	3.5	3.02e+01	0	33	104	228589568	52	16660
2026-01-28 02:20:37.90	181.81	51.70	-38.0	-48.2	3.5	3.02e+01	0	33	104	228589568	50	17667
2026-01-28 02:20:38.91	182.11	52.10	-47.4	-60.9	3.5	3.02e+01	0	33	104	228589568	60	42581
2026-01-28 02:20:39.92	182.41	52.50	-41.4	-52.2	3.5	3.02e+01	0	33	104	228589568	54	22073
2026-01-28 02:20:40.92	182.71	52.90	-48.4	-63.2	3.5	3.02e+01	0	33	104	228589568	60	55608
2026-01-28 02:20:41.93	183.03	53.31	-49.2	-66.3	3.5	3.02e+01	0	33	104	228589568	60	79067
2026-01-28 02:20:42.94	183.36	53.71	-43.3	-54.3	3.5	3.02e+01	0	33	104	228589568	56	25261
2026-01-28 02:20:43.95	183.69	54.12	-40.2	-50.7	3.6	3.02e+01	0	33	104	228589568	56	16522
2026-01-28 02:20:44.96	184.04	54.54	-40.5	-51.0	3.5	3.02e+01	0	33	104	228589568	56	17201
2026-01-28 02:20:45.97	184.40	54.95	-40.6	-51.1	3.5	3.02e+01	0	33	104	228589568	56	17486
2026-01-28 02:20:46.98	184.76	55.37	-46.6	-59.1	3.5	3.02e+01	0	33	104	228589568	60	34808
2026-01-28 02:20:47.99	185.14	55.79	-42.1	-53.0	3.4	3.02e+01	0	33	104	228589568	54	24157
2026-01-28 02:20:49.00	185.53	56.21	-48.9	-67.0	3.5	3.02e+01	0	33	104	228589568	60	86505
2026-01-28 02:20:50.01	185.93	56.64	-48.7	-64.2	3.5	3.02e+01	0	33	104	228589568	60	62554
2026-01-28 02:20:51.02	186.34	57.06	-45.0	-56.7	3.5	3.02e+01	0	33	104	228589568	60	26316
2026-01-28 02:20:52.03	186.77	57.49	-40.0	-50.5	3.5	3.02e+01	0	33	104	228589568	56	16178
2026-01-28 02:20:53.04	187.21	57.92	-39.6	-50.2	3.5	3.02e+01	0	33	104	228589568	54	17509
2026-01-28 02:20:54.05	187.66	58.35	-37.7	-48.0	3.5	3.02e+01	0	33	104	228589568	52	15292
2026-01-28 02:20:55.06	188.13	58.79	-43.9	-55.3	3.5	3.02e+01	0	33	104	228589568	60	22507
2026-01-28 02:20:56.07	188.62	59.22	-42.8	-53.8	3.6	3.02e+01	0	33	104	228589568	58	21095
2026-01-28 02:20:57.08	189.12	59.66	-48.8	-65.2	3.5	3.02e+01	0	33	104	228589568	60	70329
2026-01-28 02:20:58.09	189.64	60.10	-49.1	-67.2	3.5	3.02e+01	0	33	104	228589568	60	87865
2026-01-28 02:20:59.10	190.17	60.53	-45.7	-57.8	3.5	3.02e+01	0	33	104	228589568	60	29799
2026-01-28 02:21:00.11	190.73	60.97	-40.3	-50.9	3.5	3.02e+01	0	33	104	228589568	54	19036
2026-01-28 02:21:01.12	191.30	61.41	-39.8	-50.1	3.5	3.02e+01	0	33	104	228589568	54	17462
2026-01-28 02:21:02.13	191.90	61.85	-39.1	-49.3	3.6	3.02e+01	0	33	104	228589568	54	15941
2026-01-28 02:21:03.14	192.52	62.29	-44.5	-55.9	3.5	3.02e+01	0	33	104	228589568	60	24127
2026-01-28 02:21:04.15	193.16	62.73	-47.0	-60.1	3.5	3.02e+01	0	33	104	228589568	60	38813
2026-01-28 02:21:05.15	193.81	63.17	-49.4	-67.2	3.5	3.02e+01	0	33	104	228589568	60	88313
2026-01-28 02:21:06.17	194.51	63.61	-49.1	-65.9	3.5	3.02e+01	0	33	104	228589568	60	76106
2026-01-28 02:21:07.18	195.22	64.05	-45.5	-57.6	3.5	3.02e+01	0	33	104	228589568	60	29201
2026-01-28 02:21:08.19	195.97	64.49	-44.2	-55.7	3.5	3.02e+01	0	33	104	228589568	60	23511
2026-01-28 02:21:09.20	196.74	64.93	-43.9	-55.2	3.6	3.02e+01	0	33	104	228589568	60	22026
2026-01-28 02:21:10.21	197.54	65.36	-43.7	-55.0	3.5	3.02e+01	0	33	104	228589568	60	21598
2026-01-28 02:21:11.22	198.37	65.80	-49.1	-66.1	3.5	3.02e+01	0	33	104	228589568	60	77491
2026-01-28 02:21:12.23	199.24	66.23	-42.8	-53.7	3.5	3.02e+01	0	33	104	228589568	60	18727
2026-01-28 02:21:13.24	200.14	66.66	-48.8	-66.1	3.5	3.02e+01	0	33	104	228589568	60	77730
2026-01-28 02:21:14.25	201.08	67.08	-49.1	-65.9	3.5	3.02e+01	0	33	104	228589568	60	75764
2026-01-28 02:21:15.26	202.06	67.50	-48.0	-62.5	3.5	3.02e+01	0	33	104	228589568	60	51423
2026-01-28 02:21:16.27	203.08	67.92	-43.4	-54.5	3.5	3.02e+01	0	33	104	228589568	60	20425
2026-01-28 02:21:17.28	204.14	68.34	-43.3	-54.3	3.5	3.02e+01	0	33	104	228589568	60	19900
2026-01-28 02:21:18.29	205.24	68.74	-42.0	-52.8	3.5	3.02e+01	0	33	104	228589568	60	16851
2026-01-28 02:21:19.30	206.39	69.15	-44.5	-56.1	3.5	3.02e+01	0	33	104	228589568	60	24456
2026-01-28 02:21:20.31	207.59	69.54	-45.3	-57.5	3.5	3.02e+01	0	33	104	228589568	60	28803
2026-01-28 02:21:21.32	208.84	69.93	-48.8	-67.0	3.5	3.02e+01	0	33	104	228589568	60	86174
2026-01-28 02:21:22.33	210.15	70.31	-48.9	-66.2	3.5	3.02e+01	0	33	104	228589568	60	78713
2026-01-28 02:21:23.34	211.50	70.68	-44.3	-56.0	3.5	3.02e+01	0	33	104	228589568	60	24287
2026-01-28 02:21:24.35	212.92	71.05	-43.2	-54.5	3.5	3.02e+01	0	33	104	228589568	60	20454
2026-01-28 02:21:25.36	214.39	71.40	-40.8	-51.2	3.5	3.02e+01	0	33	104	228589568	58	15627
2026-01-28 02:21:26.37	215.92	71.75	-41.4	-52.3	3.5	3.02e+01	0	33	104	228589568	54	22481
2026-01-28 02:21:27.38	217.51	72.08	-46.9	-60.2	3.5	3.02e+01	0	33	104	228589568	60	39289
2026-01-28 02:21:28.39	219.16	72.40	-38.8	-49.0	3.5	3.02e+01	0	33	104	228589568	54	15359
2026-01-28 02:21:29.40	220.88	72.70	-48.9	-65.6	3.5	3.02e+01	0	33	104	228589568	60	73722
2026-01-28 02:21:30.41	222.66	72.99	-46.1	-58.6	3.6	3.02e+01	0	33	104	228589568	60	32788
2026-01-28 02:21:31.42	224.50	73.27	-47.0	-60.3	3.5	3.02e+01	0	33	104	228589568	60	39806
2026-01-28 02:21:32.43	226.41	73.53	-43.4	-54.5	3.5	3.02e+01	0	33	104	228589568	60	20547
2026-01-28 02:21:33.44	228.37	73.77	-42.8	-53.6	3.5	3.02e+01	0	33	104	228589568	60	18524
2026-01-28 02:21:34.44	230.38	73.99	-39.7	-50.2	3.5	3.02e+01	0	33	104	228589568	54	17590
2026-01-28 02:21:35.45	232.46	74.20	-39.9	-50.5	3.5	3.02e+01	0	33	104	228589568	56	16177
2026-01-28 02:21:36.46	234.60	74.38	-41.1	-51.7	3.4	3.02e+01	0	33	104	228589568	60	14839
2026-01-28 02:21:37.47	236.79	74.55	-48.9	-66.3	3.5	3.02e+01	0	33	104	228589568	60	79177
2026-01-28 02:21:38.49	239.05	74.69	-46.0	-58.5	3.6	3.02e+01	0	33	104	228589568	60	32283
2026-01-28 02:21:39.49	241.30	74.81	-43.3	-54.6	3.5	3.02e+01	0	33	104	228589568	60	20588
2026-01-28 02:21:40.51	243.63	74.90	-42.4	-53.2	3.5	3.02e+01	0	33	104	228589568	60	17581
2026-01-28 02:21:41.52	245.96	74.98	-42.1	-53.4	3.5	3.02e+01	0	33	104	228589568	58	20109
2026-01-28 02:21:42.52	248.29	75.02	-47.6	-61.9	3.5	3.02e+01	0	33	104	228589568	60	47835
2026-01-28 02:21:43.54	250.68	75.05	-47.8	-62.3	3.5	3.02e+01	0	33	104	228589568	60	50005
2026-01-28 02:21:44.55	253.05	75.05	-40.6	-51.4	3.5	3.02e+01	0	33	104	228589568	52	22541
2026-01-28 02:21:45.55	255.39	75.02	-48.8	-65.8	3.5	3.02e+01	0	33	104	228589568	60	75322
2026-01-28 02:21:46.56	257.75	74.97	-42.0	-52.9	3.5	3.02e+01	0	33	104	228589568	60	16924
2026-01-28 02:21:47.57	260.08	74.90	-43.7	-54.9	3.5	3.02e+01	0	33	104	228589568	60	21482
2026-01-28 02:21:48.58	262.39	74.80	-41.2	-52.0	3.5	3.02e+01	0	33	104	228589568	58	17268
2026-01-28 02:21:49.59	264.66	74.68	-40.4	-50.4	3.5	3.02e+01	0	33	104	228589568	56	16125
2026-01-28 02:21:50.60	266.89	74.54	-40.4	-51.4	3.5	3.02e+01	0	33	104	228589568	54	20258
2026-01-28 02:21:51.61	269.08	74.38	-38.6	-48.8	3.5	3.02e+01	0	33	104	228589568	52	16786
2026-01-28 02:21:52.61	271.19	74.19	-46.5	-59.0	3.5	3.02e+01	0	33	104	228589568	58	38575
2026-01-28 02:21:53.62	273.27	73.99	-48.8	-65.1	3.5	3.02e+01	0	33	104	228589568	60	69620
2026-01-28 02:21:54.63	275.30	73.77	-41.5	-52.3	3.8	3.02e+01	0	33	104	228589568	60	15893
2026-01-28 02:21:55.64	277.26	73.52	-41.0	-51.7	3.5	3.02e+01	0	33	104	228589568	56	18551
2026-01-28 02:21:56.66	279.18	73.26	-41.1	-51.5	3.6	3.02e+01	0	33	104	228589568	56	18245
2026-01-28 02:21:57.66	281.00	72.99	-41.2	-52.0	3.5	3.02e+01	0	33	104	228589568	56	19323
2026-01-28 02:21:58.67	282.78	72.70	-48.2	-63.5	3.5	3.02e+01	0	33	104	228589568	60	57629
2026-01-28 02:21:59.68	284.49	72.39	-45.3	-57.2	3.5	3.02e+01	0	33	104	228589568	60	27768
2026-01-28 02:22:00.69	286.14	72.07	-48.3	-63.9	3.5	3.02e+01	0	33	104	228589568	60	60544
2026-01-28 02:22:01.70	287.73	71.74	-48.9	-66.5	3.5	3.02e+01	0	33	104	228589568	60	80927
2026-01-28 02:22:02.71	289.26	71.40	-41.1	-51.5	3.5	3.02e+01	0	33	104	228589568	56	18162
2026-01-28 02:22:03.72	290.73	71.04	-43.2	-54.0	3.5	3.02e+01	0	33	104	228589568	60	19369
2026-01-28 02:22:04.72	292.13	70.68	-43.7	-55.3	3.5	3.02e+01	0	33	104	228589568	60	22318
2026-01-28 02:22:05.73	293.48	70.31	-42.9	-53.9	3.6	3.02e+01	0	33	104	228589568	60	19061
2026-01-28 02:22:06.74	294.78	69.93	-41.8	-52.4	3.6	3.02e+01	0	33	104	228589568	58	17993
2026-01-28 02:22:07.75	296.03	69.54	-43.0	-53.8	3.6	3.02e+01	0	33	104	228589568	58	21226
2026-01-28 02:22:08.76	297.23	69.15	-48.8	-64.9	3.5	3.02e+01	0	33	104	228589568	60	67835
2026-01-28 02:22:09.77	298.38	68.75	-48.8	-65.6	3.5	3.02e+01	0	33	104	228589568	60	73008
2026-01-28 02:22:10.78	299.48	68.34	-43.6	-54.5	3.5	3.02e+01	0	33	104	228589568	60	20487
2026-01-28 02:22:11.79	300.54	67.93	-44.6	-56.2	3.5	3.02e+01	0	33	104	228589568	60	24989
2026-01-28 02:22:12.80	301.56	67.51	-42.3	-53.0	3.6	3.02e+01	0	33	104	228589568	60	17252
2026-01-28 02:22:13.81	302.53	67.09	-40.3	-50.8	3.5	3.02e+01	0	33	104	228589568	56	16809
2026-01-28 02:22:14.82	303.47	66.66	-47.2	-60.2	3.5	3.02e+01	0	33	104	228589568	60	39555
2026-01-28 02:22:15.83	304.37	66.24	-42.8	-53.7	3.5	3.02e+01	0	33	104	228589568	60	18560
2026-01-28 02:22:16.84	305.24	65.81	-49.0	-65.4	3.5	3.02e+01	0	33	104	228589568	60	71744
2026-01-28 02:22:17.85	306.07	65.37	-49.2	-66.7	3.5	3.02e+01	0	33	104	228589568	60	83534
2026-01-28 02:22:18.86	306.87	64.94	-39.4	-49.5	3.5	3.02e+01	0	33	104	228589568	50	20439
2026-01-28 02:22:19.87	307.64	64.50	-38.2	-48.8	3.5	3.02e+01	0	33	104	228589568	52	16820
2026-01-28 02:22:20.88	308.38	64.07	-38.0	-48.4	3.5	3.02e+01	0	33	104	228589568	52	15961
2026-01-28 02:22:21.89	309.10	63.63	-37.4	-47.6	3.5	3.02e+01	0	33	104	228589568	50	16411
2026-01-28 02:22:22.90	309.78	63.19	-42.8	-53.7	3.5	3.02e+01	0	33	104	228589568	56	23542
2026-01-28 02:22:23.91	310.45	62.75	-42.5	-53.4	3.5	3.02e+01	0	33	104	228589568	56	22570
2026-01-28 02:22:24.92	311.08	62.31	-49.2	-66.3	3.5	3.02e+01	0	33	104	228589568	60	79087
2026-01-28 02:22:25.93	311.70	61.87	-48.9	-65.2	3.5	3.02e+01	0	33	104	228589568	60	70060
2026-01-28 02:22:26.94	312.30	61.43	-43.1	-54.0	3.5	3.02e+01	0	33	104	228589568	60	19241
2026-01-28 02:22:27.95	312.87	60.99	-42.7	-53.6	3.5	3.02e+01	0	33	104	228589568	58	20566
2026-01-28 02:22:28.96	313.42	60.55	-39.6	-50.0	3.5	3.02e+01	0	33	104	228589568	54	17098
2026-01-28 02:22:29.97	313.96	60.12	-37.9	-48.4	3.5	3.02e+01	0	33	104	228589568	52	15998
2026-01-28 02:22:30.98	314.48	59.68	-44.8	-56.2	3.5	3.02e+01	0	33	104	228589568	60	24865
2026-01-28 02:22:31.99	314.98	59.25	-40.0	-50.5	3.5	3.02e+01	0	33	104	228589568	56	16167
2026-01-28 02:22:33.00	315.46	58.81	-48.8	-64.7	3.5	3.02e+01	0	33	104	228589568	60	65942
2026-01-28 02:22:34.00	315.93	58.39	-49.1	-65.9	3.5	3.02e+01	0	33	104	228589568	60	76139
2026-01-28 02:22:35.02	316.39	57.95	-43.2	-53.9	3.5	3.02e+01	0	33	104	228589568	56	23974
2026-01-28 02:22:36.03	316.83	57.52	-40.5	-50.9	3.5	3.02e+01	0	33	104	228589568	56	16961
2026-01-28 02:22:37.04	317.25	57.10	-40.5	-50.9	3.5	3.02e+01	0	33	104	228589568	56	17024
2026-01-28 02:22:38.05	317.66	56.67	-39.5	-50.1	3.5	3.02e+01	0	33	104	228589568	54	17462
2026-01-28 02:22:39.06	318.07	56.25	-38.4	-48.7	3.5	3.02e+01	0	33	104	228589568	50	18739
2026-01-28 02:22:40.06	318.45	55.83	-43.7	-54.5	3.5	3.02e+01	0	33	104	228589568	58	22991
2026-01-28 02:22:41.08	318.83	55.41	-49.0	-65.5	3.5	3.02e+01	0	33	104	228589568	60	72794
2026-01-28 02:22:42.09	319.20	54.99	-48.6	-63.8	3.5	3.02e+01	0	33	104	228589568	60	59380
2026-01-28 02:22:43.10	319.55	54.58	-37.8	-48.1	3.5	3.02e+01	0	33	104	228589568	48	19411
2026-01-28 02:22:44.11	319.90	54.16	-36.0	-46.2	3.5	3.02e+01	0	33	104	228589568	48	15710
2026-01-28 02:22:45.12	320.23	53.76	-36.1	-46.4	3.5	3.02e+01	0	33	104	228589568	48	16009
2026-01-28 02:22:46.13	320.56	53.35	-35.8	-46.2	3.5	3.02e+01	0	33	104	228589568	46	17683
2026-01-28 02:22:47.13	320.88	52.95	-42.8	-53.6	3.5	3.02e+01	0	33	104	228589568	60	18365
2026-01-28 02:22:48.14	321.18	52.55	-37.4	-47.5	3.6	3.02e+01	0	33	104	228589568	52	14405
2026-01-28 02:22:49.15	321.49	52.15	-48.7	-64.0	3.5	3.02e+01	0	33	104	228589568	60	60889
2026-01-28 02:22:50.16	321.78	51.75	-49.4	-67.2	3.5	3.02e+01	0	33	104	228589568	60	88100
2026-01-28 02:22:51.17	322.06	51.36	-42.1	-52.9	3.5	3.02e+01	0	33	104	228589568	56	21352
2026-01-28 02:22:52.18	322.34	50.97	-37.9	-47.9	3.5	3.02e+01	0	33	104	228589568	50	17044
2026-01-28 02:22:53.19	322.61	50.58	-38.0	-48.4	3.5	3.02e+01	0	33	104	228589568	50	17934
2026-01-28 02:22:54.20	322.88	50.19	-38.0	-48.4	3.5	3.02e+01	0	33	104	228589568	50	17967
2026-01-28 02:22:55.21	323.13	49.81	-36.9	-47.1	3.5	3.02e+01	0	33	104	228589568	48	17304
2026-01-28 02:22:56.23	323.39	49.42	-43.3	-54.5	3.5	3.02e+01	0	33	104	228589568	60	20367
2026-01-28 02:22:57.24	323.63	49.05	-49.2	-66.2	3.5	3.02e+01	0	33	104	228589568	60	78157
2026-01-28 02:22:58.24	323.87	48.68	-48.7	-64.1	3.5	3.02e+01	0	33	104	228589568	60	61560
2026-01-28 02:22:59.26	324.10	48.30	-41.2	-51.7	3.5	3.02e+01	0	33	104	228589568	58	16537
2026-01-28 02:23:00.26	324.33	47.94	-41.0	-51.5	3.5	3.02e+01	0	33	104	228589568	56	18256
2026-01-28 02:23:01.28	324.56	47.57	-41.2	-52.0	3.5	3.02e+01	0	33	104	228589568	56	19291
2026-01-28 02:23:02.28	324.77	47.21	-39.9	-50.4	3.5	3.02e+01	0	33	104	228589568	54	18035
2026-01-28 02:23:03.29	324.98	46.85	-43.2	-54.1	3.6	3.02e+01	0	33	104	228589568	60	19598
2026-01-28 02:23:04.30	325.19	46.49	-37.6	-47.9	3.5	3.02e+01	0	33	104	228589568	52	15165
2026-01-28 02:23:05.31	325.39	46.13	-48.7	-64.0	3.5	3.02e+01	0	33	104	228589568	60	61012
2026-01-28 02:23:06.32	325.59	45.78	-48.4	-63.2	3.6	3.02e+01	0	33	104	228589568	60	55622
2026-01-28 02:23:07.33	325.79	45.43	-43.9	-55.4	3.5	3.02e+01	0	33	104	228589568	60	22578
2026-01-28 02:23:08.34	325.98	45.09	-40.3	-51.0	3.5	3.02e+01	0	33	104	228589568	54	19382
2026-01-28 02:23:09.35	326.16	44.74	-39.0	-49.4	3.5	3.02e+01	0	33	104	228589568	54	16115
2026-01-28 02:23:10.37	326.35	44.40	-37.2	-47.4	3.5	3.02e+01	0	33	104	228589568	50	15969
2026-01-28 02:23:11.37	326.52	44.07	-37.6	-47.6	3.5	3.02e+01	0	33	104	228589568	52	14673
2026-01-28 02:23:12.38	326.70	43.73	-39.6	-49.7	3.6	3.02e+01	0	33	104	228589568	58	13242
2026-01-28 02:23:13.39	326.87	43.40	-49.2	-66.0	3.5	3.02e+01	0	33	104	228589568	60	76815
2026-01-28 02:23:14.40	327.04	43.07	-48.4	-63.2	3.6	3.02e+01	0	33	104	228589568	60	55447
2026-01-28 02:23:15.41	327.20	42.74	-38.4	-48.7	3.5	3.02e+01	0	33	104	228589568	52	16617
2026-01-28 02:23:16.42	327.36	42.42	-37.6	-47.9	3.6	3.02e+01	0	33	104	228589568	50	16900
2026-01-28 02:23:17.43	327.52	42.10	-37.9	-48.6	3.5	3.02e+01	0	33	104	228589568	50	18432
2026-01-28 02:23:18.44	327.67	41.78	-38.2	-49.0	3.5	3.02e+01	0	33	104	228589568	50	19326
2026-01-28 02:23:19.45	327.83	41.46	-40.8	-51.4	3.6	3.02e+01	0	33	104	228589568	58	16091
2026-01-28 02:23:20.46	327.98	41.15	-38.4	-48.7	3.5	3.02e+01	0	33	104	228589568	50	18586
2026-01-28 02:23:21.47	328.12	40.84	-49.0	-65.0	3.5	3.02e+01	0	33	104	228589568	60	68231
2026-01-28 02:23:22.48	328.26	40.53	-43.2	-54.2	3.6	3.02e+01	0	33	104	228589568	60	19701
2026-01-28 02:23:23.49	328.41	40.23	-42.7	-53.3	3.6	3.02e+01	0	33	104	228589568	60	17895
2026-01-28 02:23:24.50	328.54	39.92	-40.6	-51.0	3.5	3.02e+01	0	33	104	228589568	56	17224
2026-01-28 02:23:25.51	328.68	39.62	-40.4	-50.9	3.5	3.02e+01	0	33	104	228589568	54	18997
2026-01-28 02:23:26.52	328.81	39.33	-39.6	-50.1	3.5	3.02e+01	0	33	104	228589568	54	17430
2026-01-28 02:23:27.53	328.94	39.03	-40.3	-50.7	3.5	3.02e+01	0	33	104	228589568	54	18595
2026-01-28 02:23:28.53	329.07	38.74	-39.3	-49.6	3.5	3.02e+01	0	33	104	228589568	52	18464
2026-01-28 02:23:29.54	329.20	38.45	-49.1	-65.5	3.5	3.02e+01	0	33	104	228589568	60	72146
2026-01-28 02:23:30.56	329.32	38.16	-41.7	-52.3	3.9	3.02e+01	0	33	104	228589568	60	15938
2026-01-28 02:23:31.57	329.44	37.88	-38.7	-49.0	3.5	3.02e+01	0	33	104	228589568	52	17215
2026-01-28 02:23:32.58	329.56	37.59	-37.6	-47.7	3.5	3.02e+01	0	33	104	228589568	50	16641
2026-01-28 02:23:33.59	329.68	37.31	-36.8	-47.0	3.6	3.02e+01	0	33	104	228589568	48	17273
2026-01-28 02:23:34.60	329.80	37.03	-36.5	-46.8	3.5	3.02e+01	0	33	104	228589568	48	16815
2026-01-28 02:23:35.61	329.91	36.76	-38.2	-48.7	3.5	3.02e+01	0	33	104	228589568	48	20858
2026-01-28 02:23:36.62	330.02	36.49	-43.7	-54.8	3.5	3.02e+01	0	33	104	228589568	52	33508
2026-01-28 02:23:37.63	330.13	36.21	-49.1	-65.4	3.5	3.02e+01	0	33	104	228589568	60	71849
2026-01-28 02:23:38.64	330.24	35.95	-37.4	-47.8	3.5	3.02e+01	0	33	104	228589568	52	14931
2026-01-28 02:23:39.65	330.35	35.68	-39.5	-49.9	3.5	3.02e+01	0	33	104	228589568	54	17031
2026-01-28 02:23:40.66	330.45	35.42	-38.5	-48.9	3.5	3.02e+01	0	33	104	228589568	52	16980
2026-01-28 02:23:41.66	330.55	35.16	-37.2	-47.3	3.5	3.02e+01	0	33	104	228589568	50	15840
2026-01-28 02:23:42.68	330.66	34.89	-37.4	-47.6	3.5	3.02e+01	0	33	104	228589568	48	18437
2026-01-28 02:23:43.69	330.76	34.64	-37.2	-47.5	3.5	3.02e+01	0	33	104	228589568	48	18159
2026-01-28 02:23:44.70	330.86	34.38	-44.8	-56.4	3.4	3.02e+01	0	33	104	228589568	52	40084
2026-01-28 02:23:45.71	330.95	34.13	-48.7	-63.6	3.5	3.02e+01	0	33	104	228589568	60	58321
2026-01-28 02:23:46.72	331.05	33.88	-40.3	-50.7	3.5	3.02e+01	0	33	104	228589568	60	13229
2026-01-28 02:23:47.73	331.14	33.63	-41.4	-51.9	3.5	3.02e+01	0	33	104	228589568	56	19090
2026-01-28 02:23:48.74	331.24	33.38	-39.8	-50.2	3.5	3.02e+01	0	33	104	228589568	54	17562
2026-01-28 02:23:49.75	331.33	33.14	-40.0	-50.6	3.5	3.02e+01	0	33	104	228589568	54	18363
2026-01-28 02:23:50.76	331.42	32.89	-48.1	-62.7	3.5	3.02e+01	0	33	104	228589568	60	52783
2026-01-28 02:23:51.77	331.51	32.65	-39.4	-50.1	3.5	3.02e+01	0	33	104	228589568	56	15412
2026-01-28 02:23:52.78	331.59	32.41	-48.2	-62.5	3.5	3.02e+01	0	33	104	228589568	60	51201
2026-01-28 02:23:53.79	331.68	32.18	-49.0	-65.3	3.5	3.02e+01	0	33	104	228589568	60	70555
2026-01-28 02:23:54.80	331.77	31.94	-36.6	-46.7	3.5	3.02e+01	0	33	104	228589568	46	18617
2026-01-28 02:23:55.81	331.85	31.71	-37.3	-47.4	3.5	3.02e+01	0	33	104	228589568	50	16090
2026-01-28 02:23:56.81	331.93	31.48	-37.3	-47.4	3.5	3.02e+01	0	33	104	228589568	50	16068
2026-01-28 02:23:57.82	332.01	31.25	-36.0	-46.2	3.5	3.02e+01	0	33	104	228589568	48	15646
2026-01-28 02:23:58.84	332.09	31.02	-37.2	-47.4	3.5	3.02e+01	0	33	104	228589568	46	20301
2026-01-28 02:23:59.84	332.17	30.80	-38.2	-48.5	3.5	3.02e+01	0	33	104	228589568	48	20326
2026-01-28 02:24:00.85	332.25	30.57	-49.2	-66.2	3.5	3.02e+01	0	33	104	228589568	60	78761
2026-01-28 02:24:01.86	332.33	30.35	-48.6	-63.8	3.6	3.02e+01	0	33	104	228589568	60	59935
2026-01-28 02:24:02.87	332.40	30.13	-36.5	-46.6	3.5	3.02e+01	0	33	104	228589568	46	18428
2026-01-28 02:24:03.88	332.48	29.91	-36.7	-46.8	3.5	3.02e+01	0	33	104	228589568	48	16848
2026-01-28 02:24:04.89	332.55	29.70	-35.7	-45.9	3.5	3.02e+01	0	33	104	228589568	46	17055
2026-01-28 02:24:05.90	332.63	29.48	-35.5	-45.6	3.5	3.02e+01	0	33	104	228589568	46	16494
2026-01-28 02:24:06.91	332.70	29.27	-35.8	-46.0	3.5	3.02e+01	0	33	104	228589568	46	17115
2026-01-28 02:24:07.92	332.77	29.06	-38.8	-49.2	3.5	3.02e+01	0	33	104	228589568	50	19682
2026-01-28 02:24:08.93	332.84	28.85	-48.8	-64.4	3.5	3.02e+01	0	33	104	228589568	60	64179
2026-01-28 02:24:09.94	332.91	28.64	-49.3	-66.3	3.5	3.02e+01	0	33	104	228589568	60	79746
2026-01-28 02:24:10.95	332.98	28.43	-36.8	-47.1	3.4	3.02e+01	0	33	104	228589568	44	22005
2026-01-28 02:24:11.96	333.05	28.23	-36.7	-47.0	3.6	3.02e+01	0	33	104	228589568	48	17126
2026-01-28 02:24:12.97	333.11	28.02	-36.8	-47.1	3.6	3.02e+01	0	33	104	228589568	48	17368
2026-01-28 02:24:13.98	333.18	27.82	-36.8	-38.4	24.2	3.02e+01	61	33	104	228589568	48	6367
2026-01-28 02:24:14.99	333.25	27.62	-35.5	-36.7	29.4	3.02e+01	59	33	0	230162432	46	5914
2026-01-28 02:24:16.00	333.31	27.42	-34.6	-35.8	30.1	3.02e+01	60	33	0	231735296	44	5961
2026-01-28 02:24:17.01	333.37	27.22	-34.6	-35.7	30.1	3.02e+01	48	33	0	233832448	44	5921
2026-01-28 02:24:18.02	333.44	27.03	-34.6	-35.8	30.0	3.02e+01	60	33	0	235929600	44	5927
2026-01-28 02:24:19.03	333.50	26.83	-34.7	-35.9	30.0	3.02e+01	60	33	0	237502464	44	6000
2026-01-28 02:24:20.04	333.56	26.64	-34.7	-35.9	30.1	3.02e+01	46	33	0	239599616	44	6023
2026-01-28 02:24:21.05	333.62	26.45	-34.7	-35.9	30.0	3.02e+01	58	33	0	241172480	44	6045
2026-01-28 02:24:22.06	333.68	26.26	-34.9	-36.0	29.8	3.02e+01	53	33	0	243269632	44	6134
2026-01-28 02:24:23.07	333.74	26.07	-35.0	-36.2	29.8	3.02e+01	62	33	0	245366784	44	6223
2026-01-28 02:24:24.08	333.80	25.88	-35.0	-36.2	29.8	3.02e+01	58	33	0	246939648	44	6211
2026-01-28 02:24:25.09	333.86	25.70	-35.1	-36.3	29.7	3.02e+01	51	33	0	249036800	44	6293
2026-01-28 02:24:26.09	333.92	25.51	-35.1	-36.4	29.6	3.02e+01	61	33	0	251133952	44	6362
2026-01-28 02:24:27.10	333.97	25.33	-35.0	-36.2	29.7	3.02e+01	58	33	0	252706816	44	6229
2026-01-28 02:24:28.11	334.03	25.15	-34.9	-36.1	29.8	3.02e+01	45	33	0	254803968	44	6191
2026-01-28 02:24:29.12	334.09	24.97	-35.0	-36.2	29.7	3.02e+01	56	33	0	256376832	44	6212
2026-01-28 02:24:30.13	334.14	24.79	-34.9	-36.1	29.8	3.02e+01	56	33	0	258473984	44	6148
2026-01-28 02:24:31.14	334.19	24.61	-35.0	-36.2	29.7	3.02e+01	57	33	0	260571136	44	6223
2026-01-28 02:24:32.15	334.25	24.44	-34.9	-36.1	29.8	3.02e+01	60	33	0	262144000	44	6156
2026-01-28 02:24:33.16	334.30	24.26	-35.0	-36.2	29.7	3.02e+01	49	33	0	264241152	44	6246
2026-01-28 02:24:34.17	334.35	24.09	-35.0	-36.2	29.7	3.02e+01	58	33	0	265814016	44	6229
2026-01-28 02:24:35.18	334.41	23.91	-34.9	-36.1	29.8	3.02e+01	58	33	0	267911168	44	6167
2026-01-28 02:24:36.19	334.46	23.74	-35.0	-36.2	29.7	3.02e+01	58	33	0	270008320	44	6242
2026-01-28 02:24:37.20	334.51	23.57	-35.0	-36.2	29.8	3.02e+01	57	33	0	271581184	44	6226
2026-01-28 02:24:38.21	334.56	23.40	-35.0	-36.1	29.7	3.02e+01	46	33	0	273678336	44	6201
2026-01-28 02:24:39.22	334.61	23.23	-35.0	-36.2	29.7	3.02e+01	59	33	0	275775488	44	6216
2026-01-28 02:24:40.23	334.66	23.07	-35.0	-36.2	29.8	3.02e+01	57	33	0	277348352	44	6246
2026-01-28 02:24:41.24	334.71	22.90	-35.0	-36.2	29.8	3.02e+01	36	33	0	279445504	44	6226
2026-01-28 02:24:42.25	334.76	22.74	-35.1	-36.3	29.8	3.02e+01	59	33	0	281018368	44	6294
2026-01-28 02:24:43.26	334.81	22.57	-35.1	-36.3	29.7	3.02e+01	60	33	0	283115520	44	6294
2026-01-28 02:24:44.27	334.85	22.41	-35.1	-36.3	29.7	3.02e+01	59	33	0	285212672	44	6298
2026-01-28 02:24:45.28	334.90	22.25	-35.2	-36.4	29.6	3.02e+01	58	33	0	286785536	44	6406
2026-01-28 02:24:46.29	334.95	22.09	-35.1	-36.3	29.5	3.02e+01	45	33	0	288882688	44	6349
2026-01-28 02:24:47.30	334.99	21.93	-34.9	-36.1	29.7	3.02e+01	57	33	0	290455552	44	6195
2026-01-28 02:24:48.31	335.04	21.77	-34.9	-36.1	29.8	3.02e+01	62	33	0	292552704	44	6139
2026-01-28 02:24:49.32	335.08	21.62	-35.0	-36.2	29.8	3.02e+01	45	33	0	294649856	44	6237
2026-01-28 02:24:50.33	335.13	21.46	-35.0	-36.2	29.7	3.02e+01	59	33	0	296222720	44	6242
2026-01-28 02:24:51.34	335.17	21.30	-35.0	-36.2	29.7	3.02e+01	62	33	0	298319872	44	6252
2026-01-28 02:24:52.34	335.22	21.15	-35.0	-36.2	29.7	3.02e+01	55	33	0	299892736	44	6257
2026-01-28 02:24:53.36	335.26	21.00	-35.2	-36.4	29.5	3.02e+01	59	33	0	301989888	44	6411
2026-01-28 02:24:54.36	335.30	20.85	-35.0	-36.2	29.8	3.02e+01	57	33	0	304087040	44	6277
2026-01-28 02:24:55.37	335.35	20.70	-34.9	-36.1	29.8	3.02e+01	58	33	0	305659904	44	6136
2026-01-28 02:24:56.38	335.39	20.55	-34.8	-36.0	29.9	3.02e+01	62	33	0	307757056	44	6112
2026-01-28 02:24:57.39	335.43	20.40	-34.8	-36.0	29.8	3.02e+01	45	33	0	309329920	44	6104
2026-01-28 02:24:58.40	335.47	20.25	-34.7	-35.9	29.9	3.02e+01	59	33	0	311427072	44	6044
2026-01-28 02:24:59.42	335.51	20.10	-34.9	-36.0	29.8	3.02e+01	59	33	0	313524224	44	6124
2026-01-28 02:25:00.42	335.55	19.96	-34.8	-35.9	29.9	3.02e+01	57	33	0	315097088	44	6056
2026-01-28 02:25:01.43	335.60	19.81	-34.7	-35.8	30.1	3.02e+01	61	33	0	317194240	44	5976
2026-01-28 02:25:02.44	335.64	19.67	-34.7	-35.8	30.1	3.02e+01	57	33	0	319291392	44	5992
2026-01-28 02:25:03.45	335.68	19.52	-34.7	-35.8	30.1	3.02e+01	57	33	0	320864256	44	5986
2026-01-28 02:25:04.46	335.72	19.38	-34.6	-35.8	30.0	3.02e+01	60	33	0	322961408	44	5943
2026-01-28 02:25:05.47	335.75	19.24	-34.6	-35.8	30.0	3.02e+01	58	33	0	324534272	44	5965
2026-01-28 02:25:06.48	335.79	19.10	-34.7	-35.8	30.0	3.02e+01	60	33	0	326631424	44	5994
2026-01-28 02:25:07.49	335.83	18.96	-34.6	-35.8	30.0	3.02e+01	59	33	0	328728576	44	5951
2026-01-28 02:25:08.50	335.87	18.82	-34.6	-35.7	30.1	3.02e+01	60	33	0	330301440	44	5906
2026-01-28 02:25:09.51	335.91	18.68	-34.7	-35.9	29.9	3.02e+01	57	33	0	332398592	44	6033
2026-01-28 02:25:10.52	335.94	18.54	-34.6	-35.8	30.0	3.02e+01	51	33	0	333971456	44	5929
2026-01-28 02:25:11.53	335.98	18.41	-34.9	-36.1	29.7	3.02e+01	58	33	0	336068608	44	6135
2026-01-28 02:25:12.54	336.02	18.27	-34.6	-35.8	30.1	3.02e+01	59	33	0	338165760	44	5937
2026-01-28 02:25:13.55	336.06	18.14	-34.7	-35.9	30.0	3.02e+01	58	33	0	339738624	44	6014
2026-01-28 02:25:14.55	336.09	18.00	-34.7	-35.8	29.9	3.02e+01	61	33	0	341835776	44	5983
2026-01-28 02:25:15.56	336.13	17.87	-34.5	-35.7	30.0	3.02e+01	50	33	0	343932928	44	5902
2026-01-28 02:25:16.58	336.16	17.74	-34.5	-35.7	30.0	3.02e+01	59	33	0	345505792	44	5871
2026-01-28 02:25:17.59	336.20	17.61	-34.6	-35.8	30.0	3.02e+01	59	33	0	347602944	44	5959
2026-01-28 02:25:18.59	336.23	17.48	-34.6	-35.8	29.9	3.02e+01	46	33	0	349175808	44	5961
2026-01-28 02:25:19.60	336.27	17.35	-34.5	-35.7	29.9	3.02e+01	59	33	0	351272960	44	5870
2026-01-28 02:25:20.61	336.30	17.22	-34.5	-35.6	29.9	3.02e+01	56	33	0	353370112	44	5843
2026-01-28 02:25:21.62	336.34	17.09	-34.5	-35.7	29.9	3.02e+01	58	33	0	354942976	44	5898
2026-01-28 02:25:22.63	336.37	16.96	-34.6	-35.7	29.9	3.02e+01	50	33	0	357040128	44	5917
2026-01-28 02:25:23.64	336.40	16.83	-34.5	-35.7	29.8	3.02e+01	52	33	0	358612992	44	5889
2026-01-28 02:25:24.65	336.44	16.71	-34.7	-35.8	29.7	3.02e+01	59	33	0	360710144	44	5985
2026-01-28 02:25:25.66	336.47	16.58	-34.5	-35.7	29.9	3.02e+01	58	33	0	362807296	44	5900
2026-01-28 02:25:26.66	336.50	16.46	-34.5	-35.7	29.9	3.02e+01	51	33	0	364380160	44	5873
2026-01-28 02:25:27.67	336.54	16.33	-34.6	-35.8	29.8	3.02e+01	61	33	0	366477312	44	5950
2026-01-28 02:25:28.68	336.57	16.21	-34.7	-35.9	29.8	3.02e+01	58	33	0	368050176	44	6006
2026-01-28 02:25:29.69	336.60	16.09	-34.6	-35.7	29.9	3.02e+01	59	33	0	370147328	44	5922
2026-01-28 02:25:30.70	336.63	15.96	-34.6	-35.7	30.0	3.02e+01	58	33	0	372244480	44	5923
2026-01-28 02:25:31.71	336.67	15.84	-34.6	-35.8	30.0	3.02e+01	51	33	0	373817344	44	5947
2026-01-28 02:25:32.72	336.70	15.72	-34.8	-36.0	29.8	3.02e+01	58	33	0	375914496	44	6083
2026-01-28 02:25:33.73	336.73	15.60	-34.6	-35.8	29.8	3.02e+01	62	33	0	377487360	44	5986
2026-01-28 02:25:34.74	336.76	15.48	-34.7	-35.8	29.8	3.02e+01	46	33	0	379584512	44	5982
2026-01-28 02:25:35.75	336.79	15.36	-34.7	-35.9	29.9	3.02e+01	60	33	0	381681664	44	5999
2026-01-28 02:25:36.76	336.82	15.24	-34.7	-35.9	29.8	3.02e+01	59	33	0	383254528	44	6045
2026-01-28 02:25:37.77	336.85	15.13	-34.7	-35.9	29.9	3.02e+01	56	33	0	385351680	44	6020
2026-01-28 02:25:38.78	336.88	15.01	-34.8	-36.0	29.8	3.02e+01	57	33	0	387448832	44	6070
2026-01-28 02:25:39.79	336.91	14.89	-35.0	-36.2	29.6	3.02e+01	48	33	0	389021696	44	6272
2026-01-28 02:25:40.80	336.94	14.78	-34.8	-36.0	29.8	3.02e+01	58	33	0	391118848	44	6106
2026-01-28 02:25:41.81	336.97	14.66	-34.8	-36.0	29.7	3.02e+01	57	33	0	392691712	44	6127
2026-01-28 02:25:42.82	337.00	14.55	-34.9	-36.1	29.7	3.02e+01	49	33	0	394788864	44	6169
2026-01-28 02:25:43.83	337.03	14.43	-34.8	-36.0	29.7	3.02e+01	60	33	0	396886016	44	6093
2026-01-28 02:25:44.84	337.06	14.32	-34.8	-36.0	29.7	3.02e+01	59	33	0	398458880	44	6080
2026-01-28 02:25:45.85	337.09	14.20	-34.7	-35.9	29.7	3.02e+01	59	33	0	400556032	44	6062
2026-01-28 02:25:46.85	337.11	14.09	-34.8	-36.0	29.6	3.02e+01	59	33	0	402128896	44	6118
2026-01-28 02:25:47.86	337.14	13.98	-34.9	-36.1	29.4	3.02e+01	52	33	0	404226048	44	6143
2026-01-28 02:25:48.87	337.17	13.87	-34.8	-36.0	29.5	3.02e+01	61	33	0	406323200	44	6129
2026-01-28 02:25:49.88	337.20	13.76	-34.9	-36.1	29.6	3.02e+01	58	33	0	407896064	44	6192
2026-01-28 02:25:50.89	337.23	13.65	-34.9	-36.1	29.5	3.02e+01	59	33	0	409993216	44	6163
2026-01-28 02:25:51.90	337.25	13.54	-35.0	-36.2	29.4	3.02e+01	60	33	0	411566080	44	6262
2026-01-28 02:25:52.91	337.28	13.43	-35.1	-36.4	29.3	3.02e+01	45	33	0	413663232	44	6371
2026-01-28 02:25:53.92	337.31	13.32	-35.0	-36.3	29.4	3.02e+01	59	33	0	415760384	44	6293
2026-01-28 02:25:54.93	337.34	13.21	-35.1	-36.3	29.4	3.02e+01	59	33	0	417333248	44	6336
2026-01-28 02:25:55.93	337.36	13.11	-35.0	-36.2	29.5	3.02e+01	45	33	0	419430400	44	6247
2026-01-28 02:25:56.94	337.39	13.00	-35.1	-36.3	29.4	3.02e+01	62	33	0	421003264	44	6333
2026-01-28 02:25:57.95	337.42	12.89	-35.0	-36.3	29.4	3.02e+01	62	33	0	423100416	44	6278
2026-01-28 02:25:58.96	337.44	12.79	-35.0	-36.3	29.4	3.02e+01	56	33	0	425197568	44	6282
2026-01-28 02:25:59.97	337.47	12.68	-35.1	-36.4	29.4	3.02e+01	63	33	0	426770432	44	6361
2026-01-28 02:26:00.98	337.49	12.58	-35.2	-36.4	29.2	3.02e+01	53	33	0	428867584	44	6411
2026-01-28 02:26:01.99	337.52	12.47	-35.0	-36.3	29.4	3.02e+01	57	33	0	430440448	44	6278
2026-01-28 02:26:03.00	337.55	12.37	-35.1	-36.3	29.5	3.02e+01	58	33	0	432537600	44	6293
2026-01-28 02:26:04.01	337.57	12.27	-35.0	-36.2	29.5	3.02e+01	49	33	0	434634752	44	6258
2026-01-28 02:26:05.02	337.60	12.16	-35.0	-36.2	29.4	3.02e+01	61	33	0	436207616	44	6232
2026-01-28 02:26:06.03	337.62	12.06	-35.1	-36.3	29.4	3.02e+01	59	33	0	438304768	44	6337
2026-01-28 02:26:07.04	337.65	11.96	-35.3	-36.5	29.3	3.02e+01	62	33	0	440401920	44	6498
2026-01-28 02:26:08.05	337.67	11.86	-35.2	-36.5	29.2	3.02e+01	56	33	0	441974784	44	6428
2026-01-28 02:26:09.06	337.70	11.76	-35.2	-36.5	29.2	3.02e+01	48	33	0	444071936	44	6428
2026-01-28 02:26:10.07	337.72	11.66	-35.1	-36.4	29.3	3.02e+01	60	33	0	445644800	44	6363
2026-01-28 02:26:11.08	337.74	11.56	-35.1	-36.3	29.3	3.02e+01	59	33	0	447741952	44	6325
2026-01-28 02:26:12.09	337.77	11.46	-35.3	-36.5	29.2	3.02e+01	45	33	0	449839104	44	6473
2026-01-28 02:26:13.10	337.79	11.36	-35.3	-36.5	29.2	3.02e+01	59	33	0	451411968	44	6485
2026-01-28 02:26:14.11	337.82	11.26	-35.3	-36.5	29.2	3.02e+01	55	33	0	453509120	44	6483
