passes_logs/2026/01/28/R4.6S_Anadyr/R4.6S_Anadyr__20260128_003534_NOAA_20_JPSS-1_rec.log

#Pass ID: 20260128_003534_NOAA 20 (JPSS-1)
#Satellite: NOAA 20 (JPSS-1)
#Configuration: NOAA 20
#almurnet v.1.7.20251203
#Start time: 2026-01-28 00:35:35

#Version: 2.2.20231116
#Station: R4.6S_Anadyr
#Location: 177.4865 lon 64.73178 lat
#TLE: 1 43013U 17073A   26027.59441131  .00000157  00000+0  95517-4 0  9997
#TLE: 2 43013  98.7647 328.4016 0000956  21.7206 338.4011 14.19541123424524

#Time	Az	El	Level	Level2	SNR	BER	BlckErr	Temp	State	Recorded	gain1	gain2
2026-01-28 00:35:35.63	165.55	0.09	-48.8	-63.8	3.5	1.51e+00	0	30	0	0	60	55734
2026-01-28 00:35:36.64	165.56	0.15	-48.8	-64.0	3.6	1.51e+00	0	31	104	0	60	57173
2026-01-28 00:35:37.65	165.58	0.21	-48.8	-64.0	3.6	1.51e+00	0	31	104	0	60	57617
2026-01-28 00:35:38.66	165.59	0.27	-48.8	-64.0	3.6	1.51e+00	0	31	104	0	60	57459
2026-01-28 00:35:39.67	165.61	0.33	-48.9	-64.0	3.6	1.51e+00	0	31	104	0	60	57545
2026-01-28 00:35:40.68	165.62	0.39	-48.8	-64.1	3.6	1.51e+00	0	31	104	0	60	57754
2026-01-28 00:35:41.69	165.64	0.45	-48.9	-64.1	3.6	1.51e+00	0	31	104	0	60	57928
2026-01-28 00:35:42.70	165.65	0.51	-48.9	-64.1	3.6	1.51e+00	0	31	104	0	60	57756
2026-01-28 00:35:43.71	165.67	0.57	-48.9	-64.1	3.6	1.51e+00	0	31	104	0	60	58136
2026-01-28 00:35:44.72	165.68	0.64	-48.9	-64.1	3.6	1.51e+00	0	31	104	0	60	57974
2026-01-28 00:35:45.73	165.70	0.70	-48.9	-64.2	3.6	1.51e+00	0	31	104	0	60	58302
2026-01-28 00:35:46.74	165.71	0.76	-48.9	-64.1	3.6	1.51e+00	0	31	104	0	60	58066
2026-01-28 00:35:47.75	165.73	0.82	-48.9	-64.1	3.6	1.51e+00	0	31	104	0	60	58011
2026-01-28 00:35:48.75	165.74	0.88	-48.9	-64.0	3.6	1.51e+00	0	31	104	0	60	57520
2026-01-28 00:35:49.76	165.76	0.94	-48.7	-64.0	3.6	1.51e+00	0	31	104	0	60	57350
2026-01-28 00:35:50.77	165.77	1.01	-48.7	-63.9	3.6	1.51e+00	0	31	104	0	60	56878
2026-01-28 00:35:51.78	165.79	1.07	-48.6	-63.8	3.6	1.51e+00	0	31	104	0	60	56257
2026-01-28 00:35:52.79	165.80	1.13	-48.6	-63.8	3.6	1.51e+00	0	31	104	0	60	55823
2026-01-28 00:35:53.80	165.82	1.19	-48.4	-63.7	3.6	1.51e+00	0	31	104	0	60	55070
2026-01-28 00:35:54.81	165.84	1.26	-48.3	-63.5	3.6	1.51e+00	0	31	104	0	60	53793
2026-01-28 00:35:55.82	165.85	1.32	-46.7	-61.9	3.6	1.51e+00	0	31	104	0	60	44883
2026-01-28 00:35:56.83	165.87	1.38	-48.1	-63.3	3.6	1.51e+00	0	31	104	0	60	52727
2026-01-28 00:35:57.84	165.88	1.45	-47.9	-63.0	3.6	1.51e+00	0	31	104	0	60	51313
2026-01-28 00:35:58.85	165.90	1.51	-47.7	-62.9	3.6	1.51e+00	0	31	104	0	60	50327
2026-01-28 00:35:59.86	165.91	1.57	-47.5	-62.6	3.6	1.51e+00	0	31	104	0	60	48976
2026-01-28 00:36:00.87	165.93	1.64	-47.5	-62.7	3.6	1.51e+00	0	31	104	0	60	49237
2026-01-28 00:36:01.88	165.95	1.70	-47.5	-62.6	3.6	1.51e+00	0	31	104	0	60	48878
2026-01-28 00:36:02.89	165.96	1.76	-47.5	-62.6	3.6	1.51e+00	0	31	104	0	60	48809
2026-01-28 00:36:03.90	165.98	1.83	-47.5	-62.6	3.6	1.51e+00	0	31	104	0	60	48787
2026-01-28 00:36:04.91	165.99	1.89	-47.5	-62.6	3.6	1.51e+00	0	31	104	0	60	48797
2026-01-28 00:36:05.92	166.01	1.96	-47.5	-62.6	3.6	1.51e+00	0	31	104	0	60	48932
2026-01-28 00:36:06.93	166.03	2.02	-47.5	-62.6	3.6	1.51e+00	0	31	104	0	60	48602
2026-01-28 00:36:07.94	166.04	2.09	-47.5	-62.6	3.6	1.51e+00	0	31	104	0	60	48519
2026-01-28 00:36:08.95	166.06	2.15	-47.5	-62.5	3.6	1.51e+00	0	31	104	0	60	48199
2026-01-28 00:36:09.96	166.07	2.22	-47.4	-62.2	3.6	1.51e+00	0	31	104	0	60	46769
2026-01-28 00:36:10.97	166.09	2.28	-47.5	-62.3	3.6	1.51e+00	0	31	104	0	60	47113
2026-01-28 00:36:11.98	166.11	2.35	-47.4	-62.1	3.6	1.51e+00	0	31	104	0	60	45771
2026-01-28 00:36:12.99	166.12	2.41	-47.4	-61.6	3.6	1.51e+00	0	31	104	0	60	43504
2026-01-28 00:36:14.00	166.14	2.48	-47.4	-61.3	3.6	1.51e+00	0	32	104	0	60	41971
2026-01-28 00:36:15.01	166.16	2.54	-47.4	-61.0	3.6	1.51e+00	0	31	104	0	60	40330
2026-01-28 00:36:16.02	166.17	2.61	-47.4	-60.5	3.6	1.51e+00	0	31	104	0	60	38489
2026-01-28 00:36:17.03	166.19	2.67	-47.4	-61.2	3.6	1.51e+00	0	31	104	0	60	41600
2026-01-28 00:36:18.04	166.21	2.74	-47.4	-61.7	3.6	1.51e+00	0	31	104	0	60	44115
2026-01-28 00:36:19.05	166.22	2.81	-47.4	-62.0	3.6	1.51e+00	0	31	104	0	60	45667
2026-01-28 00:36:20.06	166.24	2.87	-47.4	-61.3	3.6	1.51e+00	0	31	104	0	60	41775
2026-01-28 00:36:21.07	166.26	2.94	-47.3	-58.8	4.1	1.48e+00	0	31	104	0	60	31441
2026-01-28 00:36:22.08	166.28	3.01	-46.9	-54.6	6.0	4.98e-01	0	32	0	1048576	60	19328
2026-01-28 00:36:23.09	166.29	3.07	-46.5	-52.7	8.5	9.83e-02	0	32	0	3145728	60	15612
2026-01-28 00:36:24.10	166.31	3.14	-45.7	-50.4	11.3	1.14e-02	0	32	0	5242880	60	11939
2026-01-28 00:36:25.11	166.33	3.21	-44.8	-48.4	13.1	3.35e-05	0	31	0	6291456	60	9515
2026-01-28 00:36:26.12	166.34	3.27	-43.7	-46.4	15.3	0.00e+00	0	32	0	8388608	60	7550
2026-01-28 00:36:27.13	166.36	3.34	-43.1	-45.5	16.1	0.00e+00	0	31	0	9437184	60	6807
2026-01-28 00:36:28.14	166.38	3.41	-42.5	-44.6	17.0	0.00e+00	0	32	0	11534336	58	6862
2026-01-28 00:36:29.15	166.40	3.48	-42.2	-44.1	17.5	0.00e+00	0	32	0	13631488	58	6522
2026-01-28 00:36:30.16	166.41	3.55	-41.9	-43.7	17.9	0.00e+00	0	32	0	15728640	58	6234
2026-01-28 00:36:31.17	166.43	3.61	-41.7	-43.5	18.1	0.00e+00	0	32	0	17825792	56	6794
2026-01-28 00:36:32.18	166.45	3.68	-42.7	-44.9	16.6	0.00e+00	0	32	0	18874368	56	7956
2026-01-28 00:36:33.19	166.47	3.75	-42.8	-45.1	16.3	0.00e+00	0	32	0	20971520	58	7267
2026-01-28 00:36:34.19	166.48	3.82	-46.7	-53.7	8.2	3.94e-03	0	31	0	23068672	60	17516
2026-01-28 00:36:35.20	166.50	3.89	-44.3	-47.1	15.4	1.14e-04	0	31	0	25165824	60	8161
2026-01-28 00:36:36.21	166.52	3.96	-47.4	-60.7	3.6	7.29e-01	0	31	104	26214400	60	39379
2026-01-28 00:36:37.22	166.54	4.03	-45.8	-50.6	11.0	2.00e-01	0	32	0	26214400	60	12290
2026-01-28 00:36:38.23	166.56	4.10	-47.4	-58.0	4.3	8.01e-01	31	31	0	27262976	60	28841
2026-01-28 00:36:39.24	166.58	4.17	-45.3	-49.2	12.4	1.14e-03	0	32	0	29360128	60	10368
2026-01-28 00:36:40.25	166.59	4.24	-44.6	-47.9	14.5	1.22e-05	0	32	0	31457280	60	9015
2026-01-28 00:36:41.26	166.61	4.31	-44.7	-48.0	13.7	6.80e-06	0	32	0	33554432	60	9127
2026-01-28 00:36:42.27	166.63	4.38	-44.6	-47.8	14.2	7.00e-07	0	32	0	35651584	60	8871
2026-01-28 00:36:43.28	166.65	4.45	-44.3	-47.4	14.9	7.00e-07	0	32	0	36700160	60	8425
2026-01-28 00:36:44.29	166.67	4.52	-44.0	-46.7	14.8	7.00e-07	0	32	0	38797312	60	7850
2026-01-28 00:36:45.30	166.69	4.59	-44.3	-47.2	15.3	0.00e+00	0	32	0	40894464	60	8296
2026-01-28 00:36:46.31	166.70	4.66	-44.1	-46.9	16.0	0.00e+00	0	32	0	42991616	60	8020
2026-01-28 00:36:47.32	166.72	4.73	-43.6	-46.0	14.7	0.00e+00	0	32	0	45088768	60	7253
2026-01-28 00:36:48.33	166.74	4.80	-43.9	-46.6	16.0	0.00e+00	0	32	0	46137344	60	7734
2026-01-28 00:36:49.34	166.76	4.87	-43.6	-46.0	15.7	0.00e+00	0	32	0	48234496	60	7243
2026-01-28 00:36:50.35	166.78	4.94	-42.7	-44.7	17.1	0.00e+00	0	32	0	50331648	60	6242
2026-01-28 00:36:51.36	166.80	5.02	-42.3	-44.1	17.8	0.00e+00	0	32	0	52428800	58	6527
2026-01-28 00:36:52.37	166.82	5.09	-42.6	-44.6	17.4	0.00e+00	0	32	0	54525952	58	6851
2026-01-28 00:36:53.38	166.84	5.16	-42.5	-44.4	17.6	0.00e+00	0	32	0	55574528	58	6731
2026-01-28 00:36:54.39	166.86	5.23	-41.4	-43.0	19.0	0.00e+00	0	32	0	57671680	56	6422
2026-01-28 00:36:55.39	166.88	5.30	-41.4	-42.9	19.3	0.00e+00	0	32	0	59768832	56	6353
2026-01-28 00:36:56.40	166.90	5.38	-41.7	-43.3	18.9	0.00e+00	0	32	0	61865984	56	6688
2026-01-28 00:36:57.40	166.92	5.45	-41.8	-43.5	18.6	0.00e+00	0	32	0	63963136	56	6803
2026-01-28 00:36:58.41	166.93	5.52	-41.1	-42.6	19.5	0.00e+00	0	32	0	65011712	56	6131
2026-01-28 00:36:59.42	166.95	5.60	-41.2	-42.7	19.3	0.00e+00	0	32	0	67108864	56	6194
2026-01-28 00:37:00.43	166.97	5.67	-41.4	-43.0	18.9	0.00e+00	0	32	0	69206016	56	6416
2026-01-28 00:37:01.44	166.99	5.74	-41.4	-42.9	19.3	0.00e+00	0	32	0	71303168	56	6366
2026-01-28 00:37:02.45	167.01	5.82	-41.0	-42.4	19.9	0.00e+00	0	32	0	73400320	56	6021
2026-01-28 00:37:03.46	167.03	5.89	-40.6	-42.0	19.9	0.00e+00	0	32	0	75497472	54	6392
2026-01-28 00:37:04.47	167.05	5.97	-40.6	-42.0	19.9	0.00e+00	0	32	0	76546048	54	6437
2026-01-28 00:37:05.48	167.07	6.04	-40.5	-41.8	19.8	0.00e+00	0	32	0	78643200	54	6314
2026-01-28 00:37:06.49	167.10	6.12	-40.5	-41.8	20.1	0.00e+00	0	32	0	80740352	54	6298
2026-01-28 00:37:07.50	167.12	6.19	-40.2	-41.5	20.5	0.00e+00	0	32	0	82837504	54	6064
2026-01-28 00:37:08.51	167.14	6.27	-40.6	-42.0	20.0	0.00e+00	0	32	0	84934656	54	6434
2026-01-28 00:37:09.52	167.16	6.34	-40.4	-41.7	20.3	0.00e+00	0	32	0	85983232	54	6212
2026-01-28 00:37:10.53	167.18	6.42	-40.0	-41.2	20.7	0.00e+00	0	32	0	88080384	54	5896
2026-01-28 00:37:11.54	167.20	6.49	-39.8	-41.1	20.9	0.00e+00	0	32	0	90177536	54	5769
2026-01-28 00:37:12.55	167.22	6.57	-39.9	-41.2	20.7	0.00e+00	0	32	0	92274688	54	5848
2026-01-28 00:37:13.56	167.24	6.65	-40.0	-41.2	20.8	0.00e+00	0	32	0	94371840	54	5867
2026-01-28 00:37:14.57	167.26	6.72	-40.0	-41.2	20.8	0.00e+00	0	32	0	95420416	54	5871
2026-01-28 00:37:15.58	167.28	6.80	-39.6	-40.8	21.2	0.00e+00	0	32	0	97517568	52	6305
2026-01-28 00:37:16.59	167.30	6.88	-39.8	-41.0	21.0	0.00e+00	0	32	0	99614720	52	6417
2026-01-28 00:37:17.60	167.32	6.95	-39.9	-41.1	21.0	0.00e+00	0	32	0	101711872	52	6496
2026-01-28 00:37:18.61	167.35	7.03	-39.6	-40.8	21.3	0.00e+00	0	32	0	103809024	52	6259
2026-01-28 00:37:19.62	167.37	7.11	-39.6	-40.8	21.1	0.00e+00	0	32	0	104857600	52	6271
2026-01-28 00:37:20.63	167.39	7.19	-39.5	-40.7	21.4	0.00e+00	0	32	0	106954752	52	6190
2026-01-28 00:37:21.64	167.41	7.27	-39.7	-40.8	21.2	0.00e+00	0	32	0	109051904	52	6307
2026-01-28 00:37:22.65	167.43	7.34	-39.5	-40.6	21.4	0.00e+00	0	32	0	111149056	52	6148
2026-01-28 00:37:23.66	167.46	7.42	-39.7	-40.8	21.2	0.00e+00	0	32	0	113246208	52	6304
2026-01-28 00:37:24.67	167.48	7.50	-39.6	-40.8	21.3	0.00e+00	0	32	0	114294784	52	6256
2026-01-28 00:37:25.68	167.50	7.58	-39.4	-40.6	21.5	0.00e+00	0	32	0	116391936	52	6116
2026-01-28 00:37:26.68	167.52	7.66	-39.5	-40.6	21.5	0.00e+00	0	32	0	118489088	52	6138
2026-01-28 00:37:27.69	167.54	7.74	-39.5	-40.7	21.3	0.00e+00	0	32	0	120586240	52	6174
2026-01-28 00:37:28.71	167.57	7.82	-39.3	-40.4	21.6	0.00e+00	0	32	0	122683392	52	5983
2026-01-28 00:37:29.71	167.59	7.90	-39.2	-40.3	21.8	0.00e+00	0	32	0	123731968	52	5918
2026-01-28 00:37:30.72	167.61	7.98	-39.6	-40.8	21.4	0.00e+00	0	32	0	125829120	52	6258
2026-01-28 00:37:31.73	167.63	8.06	-39.4	-40.5	21.6	0.00e+00	0	32	0	127926272	52	6069
2026-01-28 00:37:32.74	167.66	8.14	-39.5	-40.7	21.4	0.00e+00	0	32	0	130023424	52	6192
2026-01-28 00:37:33.75	167.68	8.22	-39.4	-40.5	21.6	0.00e+00	0	32	0	132120576	52	6098
2026-01-28 00:37:34.76	167.70	8.30	-39.6	-40.7	21.5	0.00e+00	0	32	0	133169152	52	6216
2026-01-28 00:37:35.77	167.73	8.39	-39.4	-40.6	21.6	0.00e+00	0	32	0	135266304	52	6109
2026-01-28 00:37:36.78	167.75	8.47	-39.7	-40.8	21.3	0.00e+00	0	32	0	137363456	52	6277
2026-01-28 00:37:37.78	167.77	8.55	-39.7	-40.9	21.2	0.00e+00	0	32	0	139460608	52	6334
2026-01-28 00:37:38.79	167.80	8.63	-39.4	-40.5	21.6	0.00e+00	0	32	0	141557760	52	6087
2026-01-28 00:37:39.80	167.82	8.71	-39.2	-40.3	21.8	0.00e+00	0	32	0	143654912	52	5943
2026-01-28 00:37:40.81	167.84	8.80	-39.2	-40.3	21.9	0.00e+00	0	32	0	144703488	52	5943
2026-01-28 00:37:41.82	167.87	8.88	-39.2	-40.2	22.0	0.00e+00	0	32	0	146800640	52	5891
2026-01-28 00:37:42.83	167.89	8.96	-39.1	-40.2	21.9	0.00e+00	0	32	0	148897792	52	5838
2026-01-28 00:37:43.84	167.92	9.05	-38.8	-39.8	22.2	0.00e+00	0	32	0	150994944	52	5620
2026-01-28 00:37:44.85	167.94	9.13	-38.9	-39.9	22.2	0.00e+00	0	32	0	153092096	52	5669
2026-01-28 00:37:45.86	167.96	9.22	-38.7	-39.7	22.3	0.00e+00	0	32	0	154140672	50	6237
2026-01-28 00:37:46.87	167.99	9.30	-38.7	-39.7	22.4	0.00e+00	0	32	0	156237824	50	6195
2026-01-28 00:37:47.88	168.01	9.39	-38.6	-39.6	22.5	0.00e+00	0	32	0	158334976	50	6105
2026-01-28 00:37:48.89	168.04	9.47	-38.5	-39.5	22.6	0.00e+00	0	32	0	160432128	50	6092
2026-01-28 00:37:49.90	168.06	9.56	-38.6	-39.6	22.5	0.00e+00	0	32	0	162529280	50	6119
2026-01-28 00:37:50.91	168.09	9.64	-38.4	-39.4	22.6	0.00e+00	0	32	0	163577856	50	6019
2026-01-28 00:37:51.92	168.11	9.73	-38.4	-39.4	22.6	0.00e+00	0	32	0	165675008	50	6021
2026-01-28 00:37:52.93	168.14	9.82	-38.3	-39.3	22.7	0.00e+00	0	32	0	167772160	50	5948
2026-01-28 00:37:53.94	168.16	9.90	-38.4	-39.4	22.6	0.00e+00	0	32	0	169869312	50	6008
2026-01-28 00:37:54.95	168.19	9.99	-38.3	-39.3	22.8	0.00e+00	0	32	0	171966464	50	5925
2026-01-28 00:37:55.96	168.22	10.08	-38.4	-39.3	22.7	0.00e+00	0	32	0	173015040	50	5951
2026-01-28 00:37:56.97	168.24	10.17	-38.6	-39.6	22.6	0.00e+00	0	32	0	175112192	50	6140
2026-01-28 00:37:57.98	168.27	10.25	-38.4	-39.3	22.8	0.00e+00	0	31	0	177209344	50	5964
2026-01-28 00:37:58.99	168.29	10.34	-38.3	-39.3	22.7	0.00e+00	0	32	0	179306496	50	5939
2026-01-28 00:38:00.00	168.32	10.43	-38.3	-39.2	22.8	0.00e+00	0	32	0	181403648	50	5894
2026-01-28 00:38:01.01	168.35	10.52	-38.1	-39.0	23.0	0.00e+00	0	32	0	182452224	50	5752
2026-01-28 00:38:02.02	168.37	10.61	-38.2	-39.1	23.0	0.00e+00	0	32	0	184549376	50	5799
2026-01-28 00:38:03.03	168.40	10.70	-38.1	-39.1	23.1	0.00e+00	0	32	0	186646528	50	5787
2026-01-28 00:38:04.04	168.43	10.79	-38.1	-39.1	23.1	0.00e+00	0	32	0	188743680	50	5767
2026-01-28 00:38:05.05	168.45	10.88	-38.0	-38.9	23.3	0.00e+00	0	32	0	190840832	50	5691
2026-01-28 00:38:06.06	168.48	10.97	-38.1	-39.0	23.0	0.00e+00	0	32	0	191889408	50	5753
2026-01-28 00:38:07.07	168.51	11.06	-38.1	-39.1	23.1	0.00e+00	0	31	0	193986560	50	5763
2026-01-28 00:38:08.08	168.53	11.15	-38.0	-38.9	23.1	0.00e+00	0	32	0	196083712	50	5669
2026-01-28 00:38:09.09	168.56	11.24	-38.0	-39.0	23.2	0.00e+00	0	32	0	198180864	50	5705
2026-01-28 00:38:10.10	168.59	11.34	-38.1	-39.1	23.2	0.00e+00	0	32	0	200278016	50	5762
2026-01-28 00:38:11.11	168.62	11.43	-38.0	-38.9	23.2	0.00e+00	0	32	0	201326592	50	5686
2026-01-28 00:38:12.12	168.64	11.52	-38.1	-39.1	23.1	0.00e+00	0	32	0	203423744	50	5775
2026-01-28 00:38:13.13	168.67	11.61	-37.9	-38.8	23.4	0.00e+00	0	32	0	205520896	50	5574
2026-01-28 00:38:14.14	168.70	11.71	-38.0	-38.9	23.3	0.00e+00	0	32	0	207618048	50	5692
2026-01-28 00:38:15.15	168.73	11.80	-37.9	-38.8	23.3	0.00e+00	0	32	0	209715200	50	5584
2026-01-28 00:38:16.16	168.76	11.89	-37.7	-38.6	23.5	0.00e+00	0	32	0	211812352	48	6111
2026-01-28 00:38:17.17	168.79	11.99	-37.7	-38.6	23.5	0.00e+00	0	32	0	212860928	48	6152
2026-01-28 00:38:18.18	168.82	12.08	-37.7	-38.6	23.6	0.00e+00	0	32	0	214958080	48	6125
2026-01-28 00:38:19.19	168.84	12.18	-37.8	-38.7	23.5	0.00e+00	0	32	0	217055232	48	6233
2026-01-28 00:38:20.20	168.87	12.27	-37.6	-38.5	23.6	0.00e+00	0	32	0	219152384	48	6084
2026-01-28 00:38:21.21	168.90	12.37	-37.7	-38.6	23.5	0.00e+00	0	32	0	221249536	48	6149
2026-01-28 00:38:22.22	168.93	12.47	-37.7	-38.7	23.5	0.00e+00	0	32	0	222298112	48	6183
2026-01-28 00:38:23.23	168.96	12.56	-37.7	-38.6	23.5	0.00e+00	0	32	0	224395264	48	6159
2026-01-28 00:38:24.24	168.99	12.66	-37.7	-38.6	23.6	0.00e+00	0	32	0	226492416	48	6134
2026-01-28 00:38:25.25	169.02	12.76	-37.8	-38.7	23.5	0.00e+00	0	32	0	228589568	48	6198
2026-01-28 00:38:26.26	169.05	12.85	-37.8	-38.7	23.5	0.00e+00	0	32	0	230686720	48	6215
2026-01-28 00:38:27.27	169.08	12.95	-37.8	-38.8	23.5	0.00e+00	0	32	0	231735296	48	6248
2026-01-28 00:38:28.28	169.11	13.05	-37.9	-38.8	23.4	0.00e+00	0	32	0	233832448	48	6285
2026-01-28 00:38:29.29	169.14	13.15	-37.7	-38.6	23.6	0.00e+00	0	32	0	235929600	48	6123
2026-01-28 00:38:30.30	169.18	13.25	-37.7	-38.6	23.6	0.00e+00	0	32	0	238026752	48	6118
2026-01-28 00:38:31.31	169.21	13.35	-37.8	-38.7	23.4	0.00e+00	0	32	0	240123904	48	6219
2026-01-28 00:38:32.32	169.24	13.45	-37.8	-38.7	23.5	0.00e+00	0	32	0	241172480	48	6228
2026-01-28 00:38:33.33	169.27	13.55	-37.8	-38.7	23.6	0.00e+00	0	32	0	243269632	48	6182
2026-01-28 00:38:34.34	169.30	13.65	-37.8	-38.7	23.5	0.00e+00	0	32	0	245366784	48	6224
2026-01-28 00:38:35.35	169.33	13.75	-37.8	-38.7	23.5	0.00e+00	0	32	0	247463936	48	6228
2026-01-28 00:38:36.36	169.37	13.85	-37.8	-38.7	23.6	0.00e+00	0	32	0	249561088	48	6201
2026-01-28 00:38:37.37	169.40	13.96	-37.7	-38.6	23.5	0.00e+00	0	32	0	250609664	48	6158
2026-01-28 00:38:38.38	169.43	14.06	-37.5	-38.3	23.8	0.00e+00	0	32	0	252706816	48	5960
2026-01-28 00:38:39.39	169.46	14.16	-37.5	-38.3	23.8	0.00e+00	0	32	0	254803968	48	5948
2026-01-28 00:38:40.40	169.50	14.26	-37.3	-38.2	24.0	0.00e+00	0	32	0	256901120	48	5852
2026-01-28 00:38:41.41	169.53	14.37	-37.3	-38.2	23.9	0.00e+00	0	32	0	258998272	48	5868
2026-01-28 00:38:42.42	169.56	14.47	-37.4	-38.2	23.9	0.00e+00	0	32	0	260046848	48	5882
2026-01-28 00:38:43.42	169.60	14.58	-37.3	-38.2	24.0	0.00e+00	0	32	0	262144000	48	5829
2026-01-28 00:38:44.43	169.63	14.68	-37.3	-38.2	24.0	0.00e+00	0	32	0	264241152	48	5836
2026-01-28 00:38:45.44	169.66	14.79	-37.3	-38.1	24.0	0.00e+00	0	32	0	266338304	48	5815
2026-01-28 00:38:46.45	169.70	14.89	-37.2	-38.1	24.0	0.00e+00	0	32	0	268435456	48	5796
2026-01-28 00:38:47.46	169.73	15.00	-37.3	-38.2	24.0	0.00e+00	0	32	0	269484032	48	5852
2026-01-28 00:38:48.47	169.77	15.11	-37.3	-38.1	24.0	0.00e+00	0	32	0	271581184	48	5807
2026-01-28 00:38:49.48	169.80	15.22	-37.3	-38.1	24.0	0.00e+00	0	32	0	273678336	48	5820
2026-01-28 00:38:50.49	169.84	15.32	-37.2	-38.1	24.1	0.00e+00	0	32	0	275775488	48	5776
2026-01-28 00:38:51.50	169.87	15.43	-37.3	-38.1	24.1	0.00e+00	0	32	0	277872640	48	5808
2026-01-28 00:38:52.51	169.91	15.54	-37.5	-38.3	23.9	0.00e+00	0	32	0	279969792	48	5959
2026-01-28 00:38:53.52	169.94	15.65	-37.4	-38.2	23.9	0.00e+00	0	32	0	281018368	48	5887
2026-01-28 00:38:54.52	169.98	15.76	-37.2	-38.1	24.1	0.00e+00	0	32	0	283115520	48	5775
2026-01-28 00:38:55.54	170.02	15.87	-37.3	-38.2	24.1	0.00e+00	0	32	0	285212672	48	5832
2026-01-28 00:38:56.55	170.05	15.98	-37.3	-38.1	24.1	0.00e+00	0	32	0	287309824	48	5808
2026-01-28 00:38:57.55	170.09	16.09	-37.4	-38.3	23.9	0.00e+00	0	32	0	289406976	48	5916
2026-01-28 00:38:58.56	170.13	16.20	-37.4	-38.3	23.9	0.00e+00	0	32	0	290455552	48	5931
2026-01-28 00:38:59.57	170.16	16.32	-37.8	-38.7	23.6	0.00e+00	0	32	0	292552704	48	6182
2026-01-28 00:39:00.58	170.20	16.43	-37.5	-38.3	23.8	0.00e+00	0	32	0	294649856	48	5955
2026-01-28 00:39:01.59	170.24	16.54	-37.6	-38.5	23.8	0.00e+00	0	32	0	296747008	48	6085
2026-01-28 00:39:02.60	170.28	16.66	-37.8	-38.7	23.6	0.00e+00	0	32	0	298844160	48	6205
2026-01-28 00:39:03.61	170.31	16.77	-37.5	-38.4	23.9	0.00e+00	0	32	0	299892736	48	6014
2026-01-28 00:39:04.62	170.35	16.89	-37.6	-38.5	23.8	0.00e+00	0	32	0	301989888	48	6058
2026-01-28 00:39:05.63	170.39	17.00	-37.6	-38.4	23.9	0.00e+00	0	32	0	304087040	48	6028
2026-01-28 00:39:06.64	170.43	17.12	-37.7	-38.6	23.6	0.00e+00	0	32	0	306184192	48	6123
2026-01-28 00:39:07.65	170.47	17.23	-37.7	-38.6	23.7	0.00e+00	0	32	0	308281344	48	6159
2026-01-28 00:39:08.66	170.51	17.35	-37.8	-38.7	23.6	0.00e+00	0	32	0	309329920	48	6215
2026-01-28 00:39:09.67	170.55	17.47	-37.9	-38.8	23.5	0.00e+00	0	32	0	311427072	48	6271
2026-01-28 00:39:10.68	170.59	17.59	-37.9	-38.8	23.5	0.00e+00	0	32	0	313524224	48	6305
2026-01-28 00:39:11.69	170.63	17.71	-38.0	-38.9	23.4	0.00e+00	0	32	0	315621376	48	6341
2026-01-28 00:39:12.70	170.67	17.82	-38.1	-39.1	23.3	0.00e+00	0	32	0	317718528	48	6468
2026-01-28 00:39:13.71	170.71	17.94	-38.1	-39.0	23.3	0.00e+00	0	32	0	318767104	48	6422
2026-01-28 00:39:14.72	170.75	18.07	-38.2	-39.1	23.3	0.00e+00	0	32	0	320864256	48	6535
2026-01-28 00:39:15.73	170.79	18.19	-38.2	-39.1	23.2	0.00e+00	0	32	0	322961408	48	6539
2026-01-28 00:39:16.74	170.84	18.31	-38.3	-39.2	23.2	0.00e+00	0	32	0	325058560	48	6581
2026-01-28 00:39:17.75	170.88	18.43	-38.3	-39.3	23.1	0.00e+00	0	32	0	327155712	48	6635
2026-01-28 00:39:18.75	170.92	18.55	-38.4	-39.4	23.0	0.00e+00	0	32	0	328204288	48	6735
2026-01-28 00:39:19.76	170.96	18.68	-38.4	-39.4	23.0	0.00e+00	0	32	0	330301440	48	6738
2026-01-28 00:39:20.77	171.01	18.80	-38.6	-39.6	22.8	0.00e+00	0	32	0	332398592	48	6891
2026-01-28 00:39:21.78	171.05	18.92	-38.7	-39.7	22.8	0.00e+00	0	32	0	334495744	50	6176
2026-01-28 00:39:22.79	171.09	19.05	-38.6	-39.5	22.9	0.00e+00	0	32	0	336592896	50	6091
2026-01-28 00:39:23.80	171.14	19.18	-38.7	-39.7	22.8	0.00e+00	0	32	0	337641472	50	6197
2026-01-28 00:39:24.81	171.18	19.30	-38.7	-39.7	22.8	0.00e+00	0	32	0	339738624	50	6225
2026-01-28 00:39:25.82	171.23	19.43	-38.7	-39.7	22.7	0.00e+00	0	32	0	341835776	50	6226
2026-01-28 00:39:26.83	171.27	19.56	-38.8	-39.8	22.7	0.00e+00	0	32	0	343932928	50	6264
2026-01-28 00:39:27.84	171.32	19.69	-38.9	-39.9	22.5	0.00e+00	0	32	0	346030080	50	6371
2026-01-28 00:39:28.85	171.37	19.81	-38.8	-39.8	22.6	0.00e+00	0	32	0	348127232	50	6311
2026-01-28 00:39:29.86	171.41	19.94	-38.8	-39.8	22.6	0.00e+00	0	32	0	349175808	50	6307
2026-01-28 00:39:30.87	171.46	20.08	-38.7	-39.7	22.8	0.00e+00	0	32	0	351272960	50	6208
2026-01-28 00:39:31.88	171.51	20.21	-38.8	-39.8	22.7	0.00e+00	0	32	0	353370112	50	6267
2026-01-28 00:39:32.89	171.55	20.34	-38.9	-39.9	22.6	0.00e+00	0	32	0	355467264	50	6337
2026-01-28 00:39:33.90	171.60	20.47	-38.9	-39.9	22.6	0.00e+00	0	32	0	357564416	50	6371
2026-01-28 00:39:34.91	171.65	20.60	-38.9	-39.9	22.6	0.00e+00	0	32	0	358612992	50	6325
2026-01-28 00:39:35.92	171.70	20.74	-38.9	-39.9	22.6	0.00e+00	0	32	0	360710144	50	6378
2026-01-28 00:39:36.93	171.75	20.87	-39.0	-40.0	22.5	0.00e+00	0	32	0	362807296	50	6428
2026-01-28 00:39:37.94	171.80	21.01	-38.9	-39.9	22.7	0.00e+00	0	32	0	364904448	50	6354
2026-01-28 00:39:38.95	171.85	21.14	-38.8	-39.8	22.7	0.00e+00	0	32	0	367001600	50	6279
2026-01-28 00:39:39.96	171.90	21.28	-38.9	-39.9	22.6	0.00e+00	0	32	0	368050176	50	6339
2026-01-28 00:39:40.97	171.95	21.42	-39.0	-40.0	22.5	0.00e+00	0	32	0	370147328	50	6395
2026-01-28 00:39:41.98	172.00	21.56	-38.8	-39.8	22.8	0.00e+00	0	32	0	372244480	50	6284
2026-01-28 00:39:42.99	172.05	21.69	-38.8	-39.8	22.7	0.00e+00	0	32	0	374341632	50	6267
2026-01-28 00:39:44.00	172.10	21.83	-38.6	-39.6	22.9	0.00e+00	0	32	0	376438784	50	6139
2026-01-28 00:39:45.01	172.15	21.97	-38.7	-39.7	22.9	0.00e+00	0	32	0	377487360	50	6176
2026-01-28 00:39:46.02	172.21	22.12	-38.9	-39.9	22.7	0.00e+00	0	32	0	379584512	50	6321
2026-01-28 00:39:47.03	172.26	22.26	-38.9	-39.9	22.7	0.00e+00	0	32	0	381681664	50	6353
2026-01-28 00:39:48.04	172.31	22.40	-38.6	-39.6	22.9	0.00e+00	0	32	0	383778816	50	6129
2026-01-28 00:39:49.05	172.37	22.54	-38.6	-39.6	22.9	0.00e+00	0	32	0	385875968	50	6141
2026-01-28 00:39:50.06	172.42	22.69	-38.6	-39.6	23.0	0.00e+00	0	32	0	386924544	50	6108
2026-01-28 00:39:51.07	172.48	22.83	-38.5	-39.4	23.1	0.00e+00	0	32	0	389021696	50	6030
2026-01-28 00:39:52.08	172.53	22.98	-38.4	-39.3	23.2	0.00e+00	0	32	0	391118848	50	5952
2026-01-28 00:39:53.09	172.59	23.13	-38.4	-39.4	23.1	0.00e+00	0	32	0	393216000	50	5973
2026-01-28 00:39:54.10	172.64	23.27	-38.3	-39.3	23.3	0.00e+00	0	32	0	395313152	50	5911
2026-01-28 00:39:55.11	172.70	23.42	-38.3	-39.2	23.3	0.00e+00	0	32	0	396361728	50	5850
2026-01-28 00:39:56.11	172.76	23.57	-38.4	-39.4	23.2	0.00e+00	0	32	0	398458880	50	5978
2026-01-28 00:39:57.12	172.82	23.72	-38.2	-39.1	23.4	0.00e+00	0	32	0	400556032	50	5772
2026-01-28 00:39:58.13	172.87	23.87	-38.2	-39.2	23.3	0.00e+00	0	32	0	402653184	50	5833
2026-01-28 00:39:59.14	172.93	24.02	-38.3	-39.2	23.3	0.00e+00	0	32	0	404750336	50	5853
2026-01-28 00:40:00.16	172.99	24.18	-38.2	-39.1	23.3	0.00e+00	0	32	0	405798912	50	5791
2026-01-28 00:40:01.17	173.05	24.33	-38.0	-38.9	23.6	0.00e+00	0	32	0	407896064	50	5637
2026-01-28 00:40:02.17	173.11	24.48	-38.1	-39.0	23.4	0.00e+00	0	32	0	409993216	50	5743
2026-01-28 00:40:03.18	173.17	24.64	-37.9	-38.8	23.6	0.00e+00	0	32	0	412090368	50	5587
2026-01-28 00:40:04.20	173.24	24.79	-38.1	-39.0	23.5	0.00e+00	0	32	0	414187520	50	5713
2026-01-28 00:40:05.21	173.30	24.95	-38.1	-39.0	23.5	0.00e+00	0	32	0	416284672	50	5735
2026-01-28 00:40:06.22	173.36	25.11	-38.1	-39.0	23.5	0.00e+00	0	32	0	417333248	50	5709
2026-01-28 00:40:07.22	173.42	25.27	-38.1	-39.0	23.4	0.00e+00	0	32	0	419430400	50	5738
2026-01-28 00:40:08.23	173.49	25.43	-38.1	-39.0	23.4	0.00e+00	0	32	0	421527552	50	5722
2026-01-28 00:40:09.24	173.55	25.59	-38.2	-39.1	23.4	0.00e+00	0	32	0	423624704	50	5806
2026-01-28 00:40:10.25	173.62	25.75	-38.2	-39.1	23.4	0.00e+00	0	32	0	425721856	50	5819
2026-01-28 00:40:11.26	173.69	25.91	-38.2	-39.1	23.3	0.00e+00	0	32	0	426770432	50	5802
2026-01-28 00:40:12.27	173.75	26.07	-38.3	-39.2	23.2	0.00e+00	0	32	0	428867584	50	5889
2026-01-28 00:40:13.28	173.82	26.24	-38.5	-39.4	23.1	0.00e+00	0	32	0	430964736	50	6007
2026-01-28 00:40:14.29	173.89	26.40	-38.5	-39.5	23.1	0.00e+00	0	32	0	433061888	50	6040
2026-01-28 00:40:15.30	173.96	26.57	-38.6	-39.6	22.9	0.00e+00	0	32	0	435159040	50	6117
2026-01-28 00:40:16.31	174.03	26.74	-38.6	-39.6	22.9	0.00e+00	0	32	0	436207616	50	6146
2026-01-28 00:40:17.32	174.10	26.90	-38.7	-39.6	22.8	0.00e+00	0	32	0	438304768	50	6169
2026-01-28 00:40:18.33	174.17	27.07	-38.8	-39.8	22.7	0.00e+00	0	32	0	440401920	50	6279
2026-01-28 00:40:19.34	174.24	27.24	-38.9	-39.9	22.6	0.00e+00	0	32	0	442499072	50	6327
2026-01-28 00:40:20.35	174.31	27.42	-38.9	-39.9	22.6	0.00e+00	0	32	0	444596224	50	6382
2026-01-28 00:40:21.36	174.38	27.59	-39.0	-40.0	22.6	0.00e+00	0	32	0	445644800	50	6457
2026-01-28 00:40:22.37	174.46	27.76	-39.2	-40.2	22.3	0.00e+00	0	32	0	447741952	50	6587
2026-01-28 00:40:23.38	174.53	27.94	-39.1	-40.2	22.5	0.00e+00	0	32	0	449839104	50	6549
2026-01-28 00:40:24.39	174.61	28.11	-39.3	-40.3	22.4	0.00e+00	0	32	0	451936256	50	6665
2026-01-28 00:40:25.40	174.68	28.29	-39.2	-40.2	22.5	0.00e+00	0	32	0	454033408	50	6551
2026-01-28 00:40:26.41	174.76	28.47	-39.2	-40.3	22.4	0.00e+00	0	32	0	455081984	50	6616
2026-01-28 00:40:27.42	174.84	28.64	-39.2	-40.3	22.3	0.00e+00	0	32	0	457179136	50	6623
2026-01-28 00:40:28.43	174.91	28.82	-39.2	-40.2	22.4	0.00e+00	0	32	0	459276288	50	6614
2026-01-28 00:40:29.44	174.99	29.01	-39.2	-40.2	22.5	0.00e+00	0	32	0	461373440	50	6594
2026-01-28 00:40:30.45	175.07	29.19	-39.3	-40.3	22.3	0.00e+00	0	32	0	463470592	50	6659
2026-01-28 00:40:31.46	175.15	29.37	-39.3	-40.3	22.4	0.00e+00	0	32	0	464519168	50	6642
2026-01-28 00:40:32.47	175.24	29.56	-39.4	-40.4	22.2	0.00e+00	0	32	0	466616320	50	6740
2026-01-28 00:40:33.48	175.32	29.74	-39.6	-40.6	22.0	0.00e+00	0	32	0	468713472	50	6887
2026-01-28 00:40:34.49	175.40	29.93	-39.7	-40.8	21.9	0.00e+00	0	32	0	470810624	50	7029
2026-01-28 00:40:35.50	175.49	30.12	-39.9	-41.0	21.7	0.00e+00	0	32	0	472907776	52	6421
2026-01-28 00:40:36.51	175.57	30.30	-40.0	-41.1	21.6	0.00e+00	0	32	0	473956352	52	6522
2026-01-28 00:40:37.52	175.66	30.49	-40.0	-41.1	21.6	0.00e+00	0	32	0	476053504	52	6496
2026-01-28 00:40:38.53	175.75	30.69	-40.2	-41.4	21.5	0.00e+00	0	32	0	478150656	52	6708
2026-01-28 00:40:39.54	175.84	30.88	-40.0	-41.1	21.5	0.00e+00	0	32	0	480247808	52	6511
2026-01-28 00:40:40.55	175.93	31.07	-40.0	-41.2	21.4	0.00e+00	0	32	0	482344960	52	6543
2026-01-28 00:40:41.56	176.02	31.27	-40.2	-41.4	21.4	0.00e+00	0	32	0	484442112	52	6727
2026-01-28 00:40:42.57	176.11	31.46	-40.2	-41.3	21.5	0.00e+00	0	32	0	485490688	52	6670
2026-01-28 00:40:43.58	176.20	31.66	-40.3	-41.5	21.3	0.00e+00	0	32	0	487587840	52	6795
2026-01-28 00:40:44.59	176.29	31.86	-40.3	-41.5	21.3	0.00e+00	0	32	0	489684992	52	6790
2026-01-28 00:40:45.60	176.39	32.06	-40.3	-41.4	21.4	0.00e+00	0	32	0	491782144	52	6736
2026-01-28 00:40:46.61	176.48	32.26	-40.3	-41.4	21.4	0.00e+00	0	32	0	493879296	52	6747
2026-01-28 00:40:47.62	176.58	32.46	-40.2	-41.3	21.5	0.00e+00	0	32	0	494927872	52	6640
2026-01-28 00:40:48.63	176.68	32.67	-40.1	-41.2	21.7	0.00e+00	0	32	0	497025024	52	6554
2026-01-28 00:40:49.64	176.78	32.87	-39.9	-41.0	21.8	0.00e+00	0	32	0	499122176	52	6402
2026-01-28 00:40:50.65	176.88	33.08	-39.7	-40.8	21.9	0.00e+00	0	32	0	501219328	52	6281
2026-01-28 00:40:51.66	176.98	33.29	-39.7	-40.8	22.0	0.00e+00	0	32	0	503316480	52	6256
2026-01-28 00:40:52.67	177.09	33.50	-39.7	-40.8	22.0	0.00e+00	0	32	0	504365056	52	6278
2026-01-28 00:40:53.68	177.19	33.71	-39.5	-40.5	22.2	0.00e+00	0	32	0	506462208	52	6073
2026-01-28 00:40:54.69	177.30	33.92	-39.3	-40.3	22.4	0.00e+00	0	32	0	508559360	52	5928
2026-01-28 00:40:55.70	177.40	34.13	-39.1	-40.1	22.5	0.00e+00	0	32	0	510656512	52	5792
2026-01-28 00:40:56.71	177.51	34.35	-39.0	-40.0	22.7	0.00e+00	0	32	0	512753664	52	5722
2026-01-28 00:40:57.72	177.62	34.56	-39.3	-40.3	22.4	0.00e+00	0	32	0	513802240	52	5946
2026-01-28 00:40:58.73	177.73	34.78	-39.4	-40.4	22.3	0.00e+00	0	32	0	515899392	52	6026
2026-01-28 00:40:59.74	177.85	35.00	-39.5	-40.5	22.2	0.00e+00	0	32	0	517996544	52	6098
2026-01-28 00:41:00.75	177.96	35.22	-39.3	-40.4	22.4	0.00e+00	0	32	0	520093696	52	5973
2026-01-28 00:41:01.76	178.08	35.44	-39.4	-40.4	22.3	0.00e+00	0	32	0	522190848	52	5989
2026-01-28 00:41:02.77	178.19	35.66	-39.3	-40.3	22.4	0.00e+00	0	32	0	523239424	52	5909
2026-01-28 00:41:03.78	178.31	35.89	-39.1	-40.1	22.6	0.00e+00	0	32	0	525336576	52	5812
2026-01-28 00:41:04.79	178.43	36.11	-39.0	-40.0	22.7	0.00e+00	0	32	0	527433728	52	5718
2026-01-28 00:41:05.79	178.55	36.34	-38.9	-39.8	22.8	0.00e+00	0	32	0	529530880	52	5615
2026-01-28 00:41:06.81	178.68	36.57	-38.9	-39.9	22.8	0.00e+00	0	32	0	531628032	52	5667
2026-01-28 00:41:07.82	178.80	36.80	-39.1	-40.1	22.6	0.00e+00	0	32	0	532676608	52	5821
2026-01-28 00:41:08.83	178.93	37.03	-39.3	-40.3	22.5	0.00e+00	0	32	0	534773760	52	5938
2026-01-28 00:41:09.84	179.06	37.26	-39.0	-40.0	22.6	0.00e+00	0	32	0	536870912	52	5742
2026-01-28 00:41:10.85	179.19	37.50	-39.2	-40.2	22.6	0.00e+00	0	32	0	538968064	52	5853
2026-01-28 00:41:11.86	179.32	37.73	-39.2	-40.2	22.5	0.00e+00	0	32	0	541065216	52	5875
2026-01-28 00:41:12.86	179.45	37.97	-39.2	-40.2	22.6	0.00e+00	0	32	0	542113792	52	5880
2026-01-28 00:41:13.87	179.59	38.21	-39.4	-40.4	22.3	0.00e+00	0	32	0	544210944	52	6010
2026-01-28 00:41:14.88	179.73	38.45	-39.6	-40.7	22.1	0.00e+00	0	32	0	546308096	52	6184
2026-01-28 00:41:15.89	179.87	38.69	-39.8	-40.9	21.8	0.00e+00	0	32	0	548405248	52	6369
2026-01-28 00:41:16.90	180.01	38.94	-40.0	-41.2	21.5	0.00e+00	0	32	0	550502400	52	6541
2026-01-28 00:41:17.91	180.16	39.18	-40.3	-41.4	21.4	0.00e+00	0	32	0	552599552	52	6750
2026-01-28 00:41:18.92	180.30	39.43	-40.6	-41.9	21.0	0.00e+00	0	32	0	553648128	52	7092
2026-01-28 00:41:19.93	180.45	39.68	-40.7	-41.9	20.9	0.00e+00	0	32	0	555745280	54	6333
2026-01-28 00:41:20.94	180.60	39.93	-40.9	-42.1	20.7	0.00e+00	0	32	0	557842432	54	6527
2026-01-28 00:41:21.95	180.76	40.18	-40.9	-42.1	20.7	0.00e+00	0	32	0	559939584	54	6512
2026-01-28 00:41:22.96	180.91	40.43	-40.9	-42.2	20.6	0.00e+00	0	32	0	562036736	54	6549
2026-01-28 00:41:23.97	181.07	40.69	-40.9	-42.2	20.7	0.00e+00	0	32	0	563085312	54	6589
2026-01-28 00:41:24.98	181.23	40.94	-40.8	-42.0	20.8	0.00e+00	0	32	0	565182464	54	6448
2026-01-28 00:41:25.99	181.39	41.20	-40.5	-41.6	21.2	0.00e+00	0	32	0	567279616	54	6161
2026-01-28 00:41:26.99	181.56	41.46	-40.6	-41.8	21.0	0.00e+00	0	32	0	569376768	54	6285
2026-01-28 00:41:28.00	181.72	41.72	-40.8	-42.1	20.8	0.00e+00	0	32	0	571473920	54	6496
2026-01-28 00:41:29.01	181.90	41.98	-40.8	-42.0	20.8	0.00e+00	0	32	0	572522496	54	6429
2026-01-28 00:41:30.02	182.07	42.25	-41.0	-42.3	20.5	0.00e+00	0	32	0	574619648	54	6664
2026-01-28 00:41:31.03	182.24	42.51	-41.1	-42.4	20.4	0.00e+00	0	32	0	576716800	54	6736
2026-01-28 00:41:32.04	182.42	42.78	-41.0	-42.3	20.6	0.00e+00	0	32	0	578813952	54	6665
2026-01-28 00:41:33.05	182.61	43.05	-40.8	-42.1	20.9	0.00e+00	0	32	0	580911104	54	6505
2026-01-28 00:41:34.06	182.79	43.32	-40.4	-41.6	21.2	0.00e+00	0	32	0	581959680	54	6119
2026-01-28 00:41:35.07	182.98	43.59	-40.1	-41.2	21.6	0.00e+00	0	32	0	584056832	54	5872
2026-01-28 00:41:36.08	183.17	43.87	-40.2	-41.3	21.5	0.00e+00	0	32	0	586153984	54	5927
2026-01-28 00:41:37.09	183.37	44.14	-40.1	-41.2	21.5	0.00e+00	0	32	0	588251136	54	5855
2026-01-28 00:41:38.10	183.56	44.42	-40.5	-41.7	21.1	0.00e+00	0	32	0	590348288	54	6210
2026-01-28 00:41:39.11	183.76	44.70	-41.0	-42.2	20.7	0.00e+00	0	32	0	591396864	54	6601
2026-01-28 00:41:40.12	183.97	44.98	-41.4	-42.8	20.1	0.00e+00	0	32	0	593494016	54	7047
2026-01-28 00:41:41.13	184.18	45.26	-41.5	-42.9	20.0	0.00e+00	0	32	0	595591168	54	7102
2026-01-28 00:41:42.14	184.39	45.54	-41.5	-42.8	20.1	0.00e+00	0	32	0	597688320	54	7073
2026-01-28 00:41:43.15	184.61	45.83	-41.6	-43.0	19.9	0.00e+00	0	32	0	599785472	54	7213
2026-01-28 00:41:44.16	184.83	46.11	-41.0	-42.3	20.5	0.00e+00	0	32	0	600834048	54	6658
2026-01-28 00:41:45.17	185.05	46.40	-41.0	-42.2	20.7	0.00e+00	0	32	0	602931200	54	6573
2026-01-28 00:41:46.18	185.28	46.69	-40.8	-42.1	20.8	0.00e+00	0	32	0	605028352	54	6488
2026-01-28 00:41:47.19	185.51	46.98	-40.8	-42.1	20.8	0.00e+00	0	32	0	607125504	54	6496
2026-01-28 00:41:48.20	185.75	47.28	-40.7	-41.9	21.0	0.00e+00	0	32	0	609222656	54	6348
2026-01-28 00:41:49.20	185.98	47.57	-40.5	-41.7	21.2	0.00e+00	0	32	0	610271232	54	6192
2026-01-28 00:41:50.21	186.23	47.86	-40.3	-41.5	21.4	0.00e+00	0	32	0	612368384	54	6054
2026-01-28 00:41:51.22	186.48	48.16	-39.9	-41.0	21.8	0.00e+00	0	32	0	614465536	54	5739
2026-01-28 00:41:52.23	186.73	48.46	-40.1	-41.2	21.4	0.00e+00	0	32	0	616562688	54	5887
2026-01-28 00:41:53.24	186.99	48.76	-40.1	-41.2	21.5	0.00e+00	0	32	0	618659840	54	5842
2026-01-28 00:41:54.25	187.26	49.06	-40.0	-41.2	21.6	0.00e+00	0	32	0	620756992	54	5834
2026-01-28 00:41:55.26	187.53	49.37	-39.6	-40.7	22.1	0.00e+00	0	32	0	621805568	52	6200
2026-01-28 00:41:56.27	187.80	49.67	-39.2	-40.2	22.5	0.00e+00	0	32	0	623902720	52	5875
2026-01-28 00:41:57.28	188.08	49.98	-38.3	-39.2	23.4	0.00e+00	0	32	0	625999872	50	5874
2026-01-28 00:41:58.29	188.37	50.28	-37.9	-38.8	23.8	0.00e+00	0	32	0	628097024	50	5606
2026-01-28 00:41:59.30	188.66	50.59	-37.5	-38.4	24.2	0.00e+00	0	32	0	630194176	48	5990
2026-01-28 00:42:00.31	188.96	50.90	-37.5	-38.3	24.2	0.00e+00	0	32	0	631242752	48	5959
2026-01-28 00:42:01.32	189.26	51.21	-37.3	-38.2	24.2	0.00e+00	0	32	0	633339904	48	5836
2026-01-28 00:42:02.33	189.57	51.53	-37.4	-38.3	24.2	0.00e+00	0	32	0	635437056	48	5906
2026-01-28 00:42:03.34	189.89	51.84	-37.1	-37.9	24.5	0.00e+00	0	32	0	637534208	48	5674
2026-01-28 00:42:04.35	190.21	52.15	-36.9	-37.7	24.9	0.00e+00	0	32	0	639631360	46	6223
2026-01-28 00:42:05.36	190.54	52.47	-36.5	-37.3	25.1	0.00e+00	0	32	0	640679936	46	5952
2026-01-28 00:42:06.36	190.88	52.78	-36.3	-37.0	25.4	0.00e+00	0	32	0	642777088	46	5739
2026-01-28 00:42:07.37	191.22	53.10	-35.9	-36.7	25.6	0.00e+00	0	32	0	644874240	46	5526
2026-01-28 00:42:08.38	191.57	53.42	-35.9	-36.7	25.5	0.00e+00	0	32	0	646971392	46	5537
2026-01-28 00:42:09.39	191.93	53.74	-35.6	-36.4	25.7	0.00e+00	0	32	0	649068544	44	5995
2026-01-28 00:42:10.41	192.30	54.06	-35.9	-36.6	25.6	0.00e+00	0	32	0	650117120	44	6169
2026-01-28 00:42:11.41	192.67	54.38	-35.8	-36.5	25.6	0.00e+00	0	32	0	652214272	44	6074
2026-01-28 00:42:12.42	193.06	54.70	-35.3	-36.1	25.9	0.00e+00	0	32	0	654311424	44	5771
2026-01-28 00:42:13.43	193.45	55.03	-35.5	-36.3	25.7	0.00e+00	0	32	0	656408576	44	5903
2026-01-28 00:42:14.44	193.85	55.35	-35.7	-36.4	25.7	0.00e+00	0	32	0	658505728	44	6020
2026-01-28 00:42:15.45	194.26	55.67	-36.0	-36.8	25.4	0.00e+00	0	32	0	659554304	44	6263
2026-01-28 00:42:16.46	194.68	56.00	-36.3	-37.1	25.0	0.00e+00	0	32	0	661651456	44	6485
2026-01-28 00:42:17.47	195.12	56.32	-36.6	-37.4	24.8	0.00e+00	0	32	0	663748608	44	6739
2026-01-28 00:42:18.48	195.56	56.65	-37.0	-37.9	24.4	0.00e+00	0	32	0	665845760	46	6333
2026-01-28 00:42:19.49	196.01	56.97	-37.2	-38.0	24.4	0.00e+00	0	32	0	667942912	46	6457
2026-01-28 00:42:20.50	196.47	57.30	-37.0	-37.8	24.2	0.00e+00	0	32	0	668991488	46	6299
2026-01-28 00:42:21.51	196.94	57.63	-37.0	-37.9	24.6	0.00e+00	0	32	0	671088640	46	6321
2026-01-28 00:42:22.52	197.42	57.95	-36.9	-37.7	24.6	0.00e+00	0	32	0	673185792	46	6244
2026-01-28 00:42:23.53	197.92	58.28	-37.2	-38.1	24.3	0.00e+00	0	32	0	675282944	46	6500
2026-01-28 00:42:24.54	198.43	58.60	-37.4	-38.2	24.2	0.00e+00	0	32	0	677380096	46	6613
2026-01-28 00:42:25.55	198.95	58.93	-37.5	-38.3	24.1	0.00e+00	0	32	0	678428672	46	6673
2026-01-28 00:42:26.56	199.48	59.25	-37.2	-38.1	24.3	0.00e+00	0	32	0	680525824	46	6475
2026-01-28 00:42:27.57	200.03	59.58	-36.9	-37.7	24.5	0.00e+00	0	32	0	682622976	46	6231
2026-01-28 00:42:28.58	200.59	59.90	-36.5	-37.3	25.1	0.00e+00	0	32	0	684720128	46	5943
2026-01-28 00:42:29.59	201.16	60.22	-36.3	-37.1	25.2	0.00e+00	0	32	0	686817280	46	5800
2026-01-28 00:42:30.60	201.75	60.54	-35.8	-36.6	25.6	0.00e+00	0	32	0	688914432	46	5444
2026-01-28 00:42:31.61	202.35	60.86	-35.6	-36.3	25.7	0.00e+00	0	32	0	689963008	44	5946
2026-01-28 00:42:32.62	202.97	61.18	-35.6	-36.3	25.8	0.00e+00	0	32	0	692060160	44	5946
2026-01-28 00:42:33.63	203.61	61.50	-35.7	-36.5	25.7	0.00e+00	0	32	0	694157312	44	6037
2026-01-28 00:42:34.64	204.26	61.82	-35.8	-36.6	25.7	0.00e+00	0	32	0	696254464	44	6112
2026-01-28 00:42:35.65	204.93	62.13	-35.9	-36.6	25.3	0.00e+00	0	32	0	698351616	44	6149
2026-01-28 00:42:36.65	205.61	62.44	-36.1	-36.8	25.5	0.00e+00	0	32	0	699400192	44	6314
2026-01-28 00:42:37.66	206.31	62.75	-35.9	-36.6	25.3	0.00e+00	0	32	0	701497344	44	6169
2026-01-28 00:42:38.67	207.03	63.06	-36.2	-37.0	25.2	0.00e+00	0	32	0	703594496	44	6435
2026-01-28 00:42:39.68	207.77	63.37	-36.6	-37.4	24.8	0.00e+00	0	32	0	705691648	46	6023
2026-01-28 00:42:40.69	208.53	63.67	-37.0	-37.8	24.6	0.00e+00	0	32	0	707788800	46	6275
2026-01-28 00:42:41.71	209.32	63.97	-37.3	-38.1	24.2	0.00e+00	0	32	0	708837376	46	6519
2026-01-28 00:42:42.72	210.11	64.27	-37.5	-38.4	24.1	0.00e+00	0	32	0	710934528	46	6720
2026-01-28 00:42:43.72	210.93	64.56	-37.7	-38.6	23.8	0.00e+00	0	32	0	713031680	46	6876
2026-01-28 00:42:44.74	211.77	64.85	-37.9	-38.8	23.7	0.00e+00	0	32	0	715128832	48	6295
2026-01-28 00:42:45.74	212.63	65.14	-37.7	-38.6	23.8	0.00e+00	0	32	0	717225984	48	6137
2026-01-28 00:42:46.75	213.51	65.42	-37.5	-38.3	24.1	0.00e+00	0	32	0	718274560	48	5946
2026-01-28 00:42:47.76	214.42	65.69	-37.6	-38.5	23.9	0.00e+00	0	32	0	720371712	48	6044
2026-01-28 00:42:48.77	215.35	65.97	-37.8	-38.7	23.8	0.00e+00	0	32	0	722468864	48	6218
2026-01-28 00:42:49.78	216.30	66.24	-38.0	-38.9	23.6	0.00e+00	0	32	0	724566016	48	6337
2026-01-28 00:42:50.79	217.28	66.50	-37.6	-38.5	23.9	0.00e+00	0	32	0	726663168	48	6075
2026-01-28 00:42:51.80	218.28	66.76	-37.3	-38.2	24.1	0.00e+00	0	32	0	727711744	48	5850
2026-01-28 00:42:52.81	219.30	67.01	-37.3	-38.2	24.2	0.00e+00	0	32	0	729808896	48	5867
2026-01-28 00:42:53.82	220.35	67.25	-37.4	-38.3	24.0	0.00e+00	0	32	0	731906048	48	5915
2026-01-28 00:42:54.83	221.42	67.49	-37.7	-38.6	23.9	0.00e+00	0	32	0	734003200	48	6151
2026-01-28 00:42:55.84	222.52	67.73	-38.0	-38.9	23.6	0.00e+00	0	32	0	736100352	48	6353
2026-01-28 00:42:56.85	223.65	67.95	-38.1	-39.0	23.6	0.00e+00	0	32	0	737148928	48	6420
2026-01-28 00:42:57.86	224.79	68.17	-38.8	-39.8	22.8	0.00e+00	0	32	0	739246080	48	7036
2026-01-28 00:42:58.87	225.97	68.38	-39.2	-40.3	22.2	0.00e+00	0	32	0	741343232	50	6628
2026-01-28 00:42:59.87	227.15	68.58	-39.1	-40.1	22.6	0.00e+00	0	32	0	743440384	50	6491
2026-01-28 00:43:00.89	228.38	68.78	-38.4	-39.3	23.2	0.00e+00	0	32	0	745537536	50	5915
2026-01-28 00:43:01.89	229.61	68.96	-38.3	-39.2	23.3	0.00e+00	0	32	0	746586112	50	5882
2026-01-28 00:43:02.90	230.88	69.14	-38.7	-39.6	23.0	0.00e+00	0	32	0	748683264	50	6170
2026-01-28 00:43:03.91	232.17	69.30	-39.2	-40.2	22.4	0.00e+00	0	32	0	750780416	50	6600
2026-01-28 00:43:04.92	233.48	69.46	-39.4	-40.5	22.2	0.00e+00	0	32	0	752877568	50	6771
2026-01-28 00:43:05.93	234.81	69.61	-39.3	-40.3	22.3	0.00e+00	0	32	0	754974720	50	6633
2026-01-28 00:43:06.94	236.17	69.75	-38.6	-39.6	23.1	0.00e+00	0	32	0	757071872	50	6127
2026-01-28 00:43:07.95	237.54	69.88	-38.3	-39.2	23.4	0.00e+00	0	32	0	758120448	50	5881
2026-01-28 00:43:08.96	238.93	69.99	-38.6	-39.5	23.0	0.00e+00	0	32	0	760217600	50	6074
2026-01-28 00:43:09.97	240.33	70.10	-39.0	-40.0	22.6	0.00e+00	0	32	0	762314752	50	6434
2026-01-28 00:43:10.98	241.76	70.19	-38.7	-39.6	22.9	0.00e+00	0	32	0	764411904	50	6165
2026-01-28 00:43:11.99	243.19	70.28	-38.3	-39.2	23.3	0.00e+00	0	32	0	766509056	50	5894
2026-01-28 00:43:13.00	244.64	70.35	-38.1	-39.0	23.5	0.00e+00	0	32	0	767557632	50	5701
2026-01-28 00:43:14.01	246.10	70.41	-37.5	-38.3	24.1	0.00e+00	0	32	0	769654784	48	5953
2026-01-28 00:43:15.02	247.56	70.46	-37.2	-38.0	24.3	0.00e+00	0	32	0	771751936	48	5744
2026-01-28 00:43:16.03	249.03	70.49	-36.9	-37.8	24.5	0.00e+00	0	32	0	773849088	48	5574
2026-01-28 00:43:17.04	250.51	70.52	-37.1	-38.0	24.4	0.00e+00	0	32	0	775946240	48	5720
2026-01-28 00:43:18.05	251.99	70.53	-37.4	-38.3	24.1	0.00e+00	0	32	0	776994816	48	5908
2026-01-28 00:43:19.06	253.47	70.53	-37.4	-38.2	24.3	0.00e+00	0	32	0	779091968	48	5882
2026-01-28 00:43:20.07	254.95	70.52	-36.2	-37.0	25.2	0.00e+00	0	32	0	781189120	46	5721
2026-01-28 00:43:21.08	256.43	70.49	-36.0	-36.7	25.3	0.00e+00	0	32	0	783286272	46	5553
2026-01-28 00:43:22.09	257.90	70.46	-36.6	-37.4	24.9	0.00e+00	0	32	0	785383424	46	5997
2026-01-28 00:43:23.10	259.37	70.41	-37.5	-38.4	24.0	0.00e+00	0	32	0	786432000	46	6697
2026-01-28 00:43:24.10	260.81	70.35	-37.7	-38.6	23.9	0.00e+00	0	32	0	788529152	46	6854
2026-01-28 00:43:25.11	262.26	70.28	-37.2	-38.1	24.3	0.00e+00	0	32	0	790626304	46	6484
2026-01-28 00:43:26.12	263.69	70.19	-36.9	-37.7	24.5	0.00e+00	0	32	0	792723456	46	6244
2026-01-28 00:43:27.13	265.11	70.10	-38.0	-38.9	23.4	0.00e+00	0	32	0	794820608	48	6324
2026-01-28 00:43:28.14	266.52	69.99	-38.8	-39.8	22.9	0.00e+00	0	32	0	795869184	50	6246
2026-01-28 00:43:29.15	267.91	69.88	-38.2	-39.1	23.4	0.00e+00	0	32	0	797966336	50	5784
2026-01-28 00:43:30.16	269.28	69.75	-38.4	-39.3	23.1	0.00e+00	0	32	0	800063488	50	5930
2026-01-28 00:43:31.17	270.63	69.61	-39.9	-41.0	21.6	0.00e+00	0	32	0	802160640	52	6419
2026-01-28 00:43:32.18	271.96	69.46	-40.8	-42.0	20.7	0.00e+00	0	32	0	804257792	52	7223
2026-01-28 00:43:33.19	273.27	69.31	-40.6	-41.8	21.0	0.00e+00	0	32	0	805306368	54	6272
2026-01-28 00:43:34.20	274.56	69.14	-39.6	-40.7	21.8	0.00e+00	0	32	0	807403520	54	5524
2026-01-28 00:43:35.21	275.83	68.96	-39.0	-40.0	22.6	0.00e+00	0	32	0	809500672	52	5716
2026-01-28 00:43:36.22	277.07	68.78	-39.8	-40.9	21.7	0.00e+00	0	32	0	811597824	52	6358
2026-01-28 00:43:37.23	278.29	68.58	-40.8	-42.1	20.7	0.00e+00	0	32	0	813694976	54	6491
2026-01-28 00:43:38.24	279.49	68.38	-39.7	-40.8	21.7	0.00e+00	0	32	0	814743552	54	5610
2026-01-28 00:43:39.25	280.66	68.17	-39.4	-40.5	22.2	0.00e+00	0	32	0	816840704	52	6038
2026-01-28 00:43:40.26	281.80	67.95	-39.8	-40.9	21.7	0.00e+00	0	32	0	818937856	52	6363
2026-01-28 00:43:41.27	282.92	67.73	-39.7	-40.7	22.1	0.00e+00	0	32	0	821035008	52	6228
2026-01-28 00:43:42.28	284.02	67.50	-38.7	-39.7	22.9	0.00e+00	0	32	0	823132160	52	5504
2026-01-28 00:43:43.29	285.09	67.26	-37.6	-38.5	23.9	0.00e+00	0	32	0	825229312	50	5378
2026-01-28 00:43:44.29	286.13	67.02	-37.2	-38.0	24.4	0.00e+00	0	32	0	826277888	48	5721
2026-01-28 00:43:45.30	287.16	66.76	-37.8	-38.7	23.7	0.00e+00	0	32	0	828375040	48	6178
2026-01-28 00:43:46.31	288.15	66.51	-39.1	-40.1	22.4	0.00e+00	0	32	0	830472192	50	6484
2026-01-28 00:43:47.32	289.13	66.24	-38.5	-39.4	23.1	0.00e+00	0	32	0	832569344	50	6028
2026-01-28 00:43:48.33	290.08	65.98	-37.5	-38.4	24.1	0.00e+00	0	32	0	833617920	48	5968
2026-01-28 00:43:49.34	291.01	65.70	-37.9	-38.8	23.4	0.00e+00	0	32	0	835715072	48	6268
2026-01-28 00:43:50.35	291.92	65.43	-39.4	-40.5	22.0	0.00e+00	0	32	0	837812224	50	6776
2026-01-28 00:43:51.36	292.80	65.15	-39.5	-40.6	22.3	0.00e+00	0	32	0	839909376	50	6860
2026-01-28 00:43:52.37	293.66	64.86	-37.9	-38.8	23.7	0.00e+00	0	32	0	842006528	50	5604
2026-01-28 00:43:53.38	294.50	64.57	-37.3	-38.1	24.2	0.00e+00	0	32	0	843055104	48	5827
2026-01-28 00:43:54.39	295.32	64.28	-37.1	-38.0	24.4	0.00e+00	0	32	0	845152256	48	5700
2026-01-28 00:43:55.40	296.12	63.98	-37.0	-37.8	24.5	0.00e+00	0	32	0	847249408	48	5608
2026-01-28 00:43:56.40	296.89	63.69	-37.0	-37.8	24.6	0.00e+00	0	32	0	849346560	48	5600
2026-01-28 00:43:57.41	297.65	63.38	-36.5	-37.3	24.9	0.00e+00	0	32	0	851443712	46	5938
2026-01-28 00:43:58.42	298.39	63.08	-35.4	-36.2	25.8	0.00e+00	0	32	0	853540864	44	5841
2026-01-28 00:43:59.43	299.11	62.77	-36.0	-36.8	25.3	0.00e+00	0	32	0	854589440	44	6256
2026-01-28 00:44:00.44	299.81	62.46	-36.1	-36.9	25.3	0.00e+00	0	32	0	856686592	44	6376
2026-01-28 00:44:01.45	300.50	62.15	-35.4	-36.2	25.8	0.00e+00	0	32	0	858783744	44	5848
2026-01-28 00:44:02.46	301.16	61.84	-35.2	-35.9	26.1	0.00e+00	0	32	0	860880896	44	5656
2026-01-28 00:44:03.47	301.81	61.52	-35.4	-36.1	25.9	0.00e+00	0	32	0	862978048	44	5787
2026-01-28 00:44:04.48	302.45	61.20	-35.3	-36.1	26.0	0.00e+00	0	32	0	864026624	44	5771
2026-01-28 00:44:05.49	303.07	60.89	-34.9	-35.6	26.2	0.00e+00	0	32	0	866123776	44	5468
2026-01-28 00:44:06.50	303.67	60.57	-34.6	-35.3	26.6	0.00e+00	0	32	0	868220928	42	5957
2026-01-28 00:44:07.51	304.26	60.25	-33.9	-34.6	27.1	0.00e+00	0	32	0	870318080	42	5442
2026-01-28 00:44:08.52	304.83	59.92	-34.0	-34.7	26.9	0.00e+00	0	32	0	872415232	42	5534
2026-01-28 00:44:09.53	305.39	59.60	-35.0	-35.7	26.3	0.00e+00	0	32	0	873463808	42	6217
2026-01-28 00:44:10.54	305.94	59.28	-35.9	-36.7	25.4	0.00e+00	0	32	0	875560960	44	6188
2026-01-28 00:44:11.55	306.47	58.96	-35.9	-36.7	25.5	0.00e+00	0	32	0	877658112	44	6211
2026-01-28 00:44:12.56	306.99	58.63	-35.7	-36.4	25.7	0.00e+00	0	32	0	879755264	44	6026
2026-01-28 00:44:13.57	307.50	58.31	-35.8	-36.5	25.6	0.00e+00	0	32	0	881852416	44	6085
2026-01-28 00:44:14.58	307.99	57.98	-36.7	-37.5	24.3	0.00e+00	0	32	0	882900992	44	6782
2026-01-28 00:44:15.59	308.48	57.66	-38.6	-39.6	22.9	0.00e+00	0	32	0	884998144	48	6916
2026-01-28 00:44:16.60	308.95	57.33	-39.5	-40.6	22.2	0.00e+00	0	32	0	887095296	50	6918
2026-01-28 00:44:17.61	309.41	57.01	-38.3	-39.3	23.3	0.00e+00	0	32	0	889192448	50	5953
2026-01-28 00:44:18.62	309.86	56.68	-37.6	-38.5	24.0	0.00e+00	0	32	0	891289600	48	6034
2026-01-28 00:44:19.63	310.30	56.36	-36.3	-37.1	25.2	0.00e+00	0	32	0	892338176	46	5804
2026-01-28 00:44:20.64	310.73	56.04	-37.2	-38.1	24.3	0.00e+00	0	32	0	894435328	46	6486
2026-01-28 00:44:21.65	311.15	55.71	-37.9	-38.8	23.6	0.00e+00	0	32	0	896532480	48	6302
2026-01-28 00:44:22.66	311.56	55.39	-37.9	-38.8	23.7	0.00e+00	0	32	0	898629632	48	6299
2026-01-28 00:44:23.67	311.97	55.07	-35.9	-36.6	25.5	0.00e+00	0	32	0	900726784	46	5491
2026-01-28 00:44:24.68	312.36	54.75	-34.4	-35.1	26.6	0.00e+00	0	32	0	901775360	42	5811
2026-01-28 00:44:25.69	312.74	54.42	-34.2	-34.8	26.8	0.00e+00	0	32	0	903872512	42	5623
2026-01-28 00:44:26.70	313.12	54.10	-34.0	-34.7	27.0	0.00e+00	0	32	0	905969664	42	5531
2026-01-28 00:44:27.70	313.48	53.79	-34.5	-35.2	26.6	0.00e+00	0	32	0	908066816	42	5844
2026-01-28 00:44:28.71	313.84	53.47	-35.0	-35.7	26.1	0.00e+00	0	32	0	910163968	42	6226
2026-01-28 00:44:29.72	314.19	53.15	-34.8	-35.5	26.5	0.00e+00	0	32	0	911212544	42	6070
2026-01-28 00:44:30.74	314.54	52.83	-34.4	-35.1	26.7	0.00e+00	0	32	0	913309696	42	5798
2026-01-28 00:44:31.74	314.87	52.52	-33.8	-34.4	27.1	0.00e+00	0	32	0	915406848	42	5359
2026-01-28 00:44:32.75	315.21	52.20	-33.4	-34.0	27.5	0.00e+00	0	32	0	917504000	40	5743
2026-01-28 00:44:33.76	315.53	51.89	-34.0	-34.6	26.9	0.00e+00	0	32	0	919601152	40	6159
2026-01-28 00:44:34.77	315.84	51.58	-35.4	-36.1	25.8	0.00e+00	0	32	0	921698304	42	6514
2026-01-28 00:44:35.78	316.16	51.27	-37.1	-38.0	24.5	0.00e+00	0	32	0	922746880	46	6396
2026-01-28 00:44:36.79	316.46	50.96	-37.3	-38.3	24.2	0.00e+00	0	32	0	924844032	46	6640
2026-01-28 00:44:37.80	316.76	50.65	-36.8	-37.6	24.5	0.00e+00	0	32	0	926941184	46	6165
2026-01-28 00:44:38.81	317.05	50.34	-36.2	-37.0	25.2	0.00e+00	0	32	0	929038336	46	5741
2026-01-28 00:44:39.82	317.33	50.03	-36.3	-37.0	24.9	0.00e+00	0	32	0	931135488	46	5747
2026-01-28 00:44:40.83	317.61	49.73	-37.2	-38.0	24.3	0.00e+00	0	32	0	932184064	46	6424
2026-01-28 00:44:41.83	317.89	49.43	-38.7	-39.6	22.4	0.00e+00	0	32	0	934281216	48	6920
2026-01-28 00:44:42.84	318.16	49.13	-40.6	-41.9	19.6	0.00e+00	0	32	0	936378368	52	7158
2026-01-28 00:44:43.85	318.42	48.83	-42.8	-44.8	18.1	0.00e+00	0	32	0	938475520	56	7880
2026-01-28 00:44:44.86	318.68	48.53	-41.9	-43.7	19.3	0.00e+00	0	32	0	940572672	58	6222
2026-01-28 00:44:45.87	318.94	48.23	-40.8	-42.2	20.6	0.00e+00	0	32	0	941621248	56	5850
2026-01-28 00:44:46.88	319.19	47.93	-40.1	-41.3	21.4	0.00e+00	0	32	0	943718400	54	5915
2026-01-28 00:44:47.89	319.43	47.64	-39.1	-40.2	22.6	0.00e+00	0	32	0	945815552	52	5838
2026-01-28 00:44:48.90	319.67	47.35	-39.4	-40.5	22.2	0.00e+00	0	32	0	947912704	52	6065
2026-01-28 00:44:49.91	319.91	47.05	-40.6	-41.9	21.0	0.00e+00	0	32	0	950009856	52	7117
2026-01-28 00:44:50.92	320.14	46.76	-41.0	-42.3	20.5	0.00e+00	0	32	0	951058432	54	6679
2026-01-28 00:44:51.93	320.37	46.47	-41.1	-42.5	20.4	0.00e+00	0	32	0	953155584	54	6800
2026-01-28 00:44:52.94	320.59	46.19	-40.0	-41.1	21.6	0.00e+00	0	32	0	955252736	54	5828
2026-01-28 00:44:53.95	320.81	45.90	-39.3	-40.4	22.4	0.00e+00	0	32	0	957349888	52	5973
2026-01-28 00:44:54.96	321.03	45.62	-38.4	-39.4	23.2	0.00e+00	0	32	0	959447040	50	5982
2026-01-28 00:44:55.96	321.24	45.34	-38.2	-39.1	23.1	0.00e+00	0	32	0	960495616	50	5779
2026-01-28 00:44:56.97	321.45	45.06	-37.5	-38.4	24.0	0.00e+00	0	32	0	962592768	48	5985
2026-01-28 00:44:57.98	321.65	44.78	-36.8	-37.6	24.7	0.00e+00	0	32	0	964689920	48	5478
2026-01-28 00:44:58.99	321.85	44.50	-37.0	-37.9	23.8	0.00e+00	0	32	0	966787072	46	6335
2026-01-28 00:45:00.00	322.05	44.22	-38.1	-39.1	23.3	0.00e+00	0	32	0	968884224	48	6504
2026-01-28 00:45:01.01	322.24	43.95	-39.7	-40.9	21.7	0.00e+00	0	32	0	969932800	50	7165
2026-01-28 00:45:02.02	322.44	43.68	-40.0	-41.3	21.5	0.00e+00	0	32	0	972029952	52	6645
2026-01-28 00:45:03.03	322.62	43.40	-38.3	-39.4	23.4	0.00e+00	0	32	0	974127104	50	5968
2026-01-28 00:45:04.04	322.81	43.13	-36.8	-37.6	24.6	0.00e+00	0	32	0	976224256	48	5472
2026-01-28 00:45:05.05	322.99	42.87	-36.7	-37.5	24.8	0.00e+00	0	32	0	978321408	46	6057
2026-01-28 00:45:06.06	323.17	42.60	-35.4	-36.2	25.9	0.00e+00	0	32	0	979369984	44	5829
2026-01-28 00:45:07.07	323.35	42.33	-35.1	-35.8	26.2	0.00e+00	0	32	0	981467136	44	5608
2026-01-28 00:45:08.08	323.52	42.07	-35.6	-36.4	25.7	0.00e+00	0	32	0	983564288	44	5974
2026-01-28 00:45:09.09	323.69	41.81	-36.8	-37.7	24.7	0.00e+00	0	32	0	985661440	46	6197
2026-01-28 00:45:10.10	323.86	41.55	-37.9	-38.8	23.6	0.00e+00	0	32	0	987758592	48	6304
2026-01-28 00:45:11.11	324.03	41.29	-39.0	-40.1	22.5	0.00e+00	0	32	0	989855744	50	6519
2026-01-28 00:45:12.12	324.19	41.03	-39.5	-40.6	22.2	0.00e+00	0	32	0	990904320	50	6878
2026-01-28 00:45:13.12	324.35	40.78	-38.6	-39.6	23.0	0.00e+00	0	32	0	993001472	50	6166
2026-01-28 00:45:14.13	324.51	40.53	-38.1	-39.1	23.5	0.00e+00	0	32	0	995098624	50	5775
2026-01-28 00:45:15.14	324.66	40.27	-37.4	-38.3	24.3	0.00e+00	0	32	0	997195776	48	5918
2026-01-28 00:45:16.15	324.82	40.02	-37.2	-38.0	24.4	0.00e+00	0	32	0	999292928	48	5757
2026-01-28 00:45:17.16	324.97	39.77	-36.1	-36.8	25.5	0.00e+00	0	32	0	1000341504	46	5613
2026-01-28 00:45:18.17	325.12	39.53	-35.7	-36.4	25.7	0.00e+00	0	32	0	1002438656	46	5354
2026-01-28 00:45:19.18	325.26	39.28	-35.7	-36.4	25.7	0.00e+00	0	32	0	1004535808	44	5989
2026-01-28 00:45:20.19	325.41	39.04	-36.7	-37.6	24.7	0.00e+00	0	32	0	1006632960	44	6853
2026-01-28 00:45:21.20	325.55	38.79	-38.1	-39.0	23.3	0.00e+00	0	32	0	1008730112	48	6424
2026-01-28 00:45:22.21	325.69	38.55	-39.2	-40.3	22.5	0.00e+00	0	32	0	1009778688	50	6637
2026-01-28 00:45:23.22	325.83	38.31	-39.5	-40.6	22.1	0.00e+00	0	32	0	1011875840	50	6872
2026-01-28 00:45:24.23	325.97	38.07	-38.9	-40.0	22.8	0.00e+00	0	32	0	1013972992	50	6399
2026-01-28 00:45:25.24	326.10	37.84	-38.3	-39.3	23.3	0.00e+00	0	32	0	1016070144	50	5930
2026-01-28 00:45:26.25	326.23	37.60	-37.9	-38.8	23.8	0.00e+00	0	32	0	1018167296	50	5589
2026-01-28 00:45:27.26	326.36	37.37	-37.7	-38.6	24.0	0.00e+00	0	32	0	1019215872	48	6113
2026-01-28 00:45:28.27	326.49	37.14	-36.6	-37.4	25.0	0.00e+00	0	32	0	1021313024	46	5985
2026-01-28 00:45:29.28	326.62	36.90	-36.3	-37.1	25.3	0.00e+00	0	32	0	1023410176	46	5804
2026-01-28 00:45:30.29	326.75	36.68	-36.6	-37.3	24.9	0.00e+00	0	32	0	1025507328	46	5951
2026-01-28 00:45:31.30	326.87	36.45	-36.7	-37.5	24.9	0.00e+00	0	32	0	1027604480	46	6045
2026-01-28 00:45:32.31	326.99	36.22	-36.9	-37.7	24.7	0.00e+00	0	32	0	1028653056	46	6195
2026-01-28 00:45:33.32	327.11	36.00	-37.1	-37.9	24.6	0.00e+00	0	32	0	1030750208	46	6355
2026-01-28 00:45:34.33	327.23	35.77	-37.1	-38.0	24.5	0.00e+00	0	32	0	1032847360	46	6399
2026-01-28 00:45:35.34	327.35	35.55	-37.2	-38.0	24.5	0.00e+00	0	32	0	1034944512	46	6442
2026-01-28 00:45:36.35	327.47	35.33	-37.5	-38.3	24.1	0.00e+00	0	32	0	1037041664	46	6669
2026-01-28 00:45:37.36	327.58	35.11	-37.7	-38.6	23.8	0.00e+00	0	32	0	1038090240	46	6854
2026-01-28 00:45:38.37	327.69	34.89	-37.7	-38.6	23.9	0.00e+00	0	32	0	1040187392	48	6108
2026-01-28 00:45:39.38	327.80	34.68	-37.8	-38.7	23.9	0.00e+00	0	32	0	1042284544	48	6230
2026-01-28 00:45:40.39	327.91	34.46	-37.7	-38.5	23.9	0.00e+00	0	32	0	1044381696	48	6094
2026-01-28 00:45:41.40	328.02	34.25	-37.6	-38.5	24.0	0.00e+00	0	32	0	1046478848	48	6070
2026-01-28 00:45:42.41	328.13	34.03	-37.6	-38.5	24.0	0.00e+00	0	32	0	1047527424	48	6078
2026-01-28 00:45:43.42	328.24	33.82	-37.7	-38.6	23.9	0.00e+00	0	32	0	1049624576	48	6153
2026-01-28 00:45:44.43	328.34	33.61	-37.7	-38.5	24.0	0.00e+00	0	32	0	1051721728	48	6095
2026-01-28 00:45:45.44	328.45	33.41	-37.7	-38.6	23.9	0.00e+00	0	32	0	1053818880	48	6140
2026-01-28 00:45:46.45	328.55	33.20	-37.8	-38.7	23.7	0.00e+00	0	32	0	1055916032	48	6222
2026-01-28 00:45:47.46	328.65	32.99	-37.9	-38.8	23.7	0.00e+00	0	32	0	1058013184	48	6260
2026-01-28 00:45:48.47	328.75	32.79	-38.0	-38.9	23.6	0.00e+00	0	32	0	1059061760	48	6380
2026-01-28 00:45:49.48	328.85	32.59	-38.1	-39.0	23.6	0.00e+00	0	32	0	1061158912	48	6408
2026-01-28 00:45:50.49	328.94	32.38	-38.0	-38.9	23.7	0.00e+00	0	32	0	1063256064	48	6328
2026-01-28 00:45:51.50	329.04	32.18	-38.1	-39.0	23.5	0.00e+00	0	32	0	1065353216	48	6443
2026-01-28 00:45:52.51	329.14	31.98	-38.2	-39.2	23.2	0.00e+00	0	32	0	1067450368	48	6552
2026-01-28 00:45:53.52	329.23	31.79	-38.5	-39.4	23.1	0.00e+00	0	32	0	1068498944	48	6762
2026-01-28 00:45:54.53	329.32	31.59	-38.8	-39.7	22.9	0.00e+00	0	32	0	1070596096	48	7006
2026-01-28 00:45:55.54	329.41	31.39	-39.0	-40.0	22.4	0.00e+00	0	32	0	1072693248	50	6444
2026-01-28 00:45:56.55	329.51	31.20	-39.2	-40.2	22.3	0.00e+00	0	32	0	1074790400	50	6597
2026-01-28 00:45:57.56	329.60	31.01	-39.3	-40.3	22.3	0.00e+00	0	32	0	1076887552	50	6684
2026-01-28 00:45:58.57	329.68	30.81	-39.4	-40.5	22.0	0.00e+00	0	32	0	1077936128	50	6793
2026-01-28 00:45:59.58	329.77	30.62	-39.2	-40.2	22.4	0.00e+00	0	32	0	1080033280	50	6580
2026-01-28 00:46:00.59	329.86	30.43	-39.1	-40.1	22.4	0.00e+00	0	32	0	1082130432	50	6519
2026-01-28 00:46:01.60	329.95	30.25	-38.8	-39.8	22.7	0.00e+00	0	32	0	1084227584	50	6250
2026-01-28 00:46:02.61	330.03	30.06	-38.6	-39.6	22.9	0.00e+00	0	32	0	1086324736	50	6112
2026-01-28 00:46:03.62	330.11	29.87	-38.6	-39.6	23.0	0.00e+00	0	32	0	1087373312	50	6125
2026-01-28 00:46:04.63	330.20	29.69	-38.1	-39.0	23.2	0.00e+00	0	32	0	1089470464	50	5710
2026-01-28 00:46:05.64	330.28	29.50	-38.0	-38.9	23.6	0.00e+00	0	32	0	1091567616	50	5664
2026-01-28 00:46:06.65	330.36	29.32	-37.8	-38.7	23.5	0.00e+00	0	32	0	1093664768	50	5522
2026-01-28 00:46:07.66	330.44	29.14	-37.6	-38.5	23.8	0.00e+00	0	32	0	1095761920	48	6037
2026-01-28 00:46:08.67	330.52	28.96	-37.5	-38.3	23.7	0.00e+00	0	32	0	1096810496	48	5963
2026-01-28 00:46:09.68	330.60	28.78	-37.6	-38.5	23.9	0.00e+00	0	32	0	1098907648	48	6038
2026-01-28 00:46:10.69	330.68	28.60	-37.7	-38.5	23.9	0.00e+00	0	32	0	1101004800	48	6081
2026-01-28 00:46:11.70	330.75	28.42	-37.7	-38.6	23.7	0.00e+00	0	32	0	1103101952	48	6115
2026-01-28 00:46:12.71	330.83	28.25	-37.8	-38.7	23.6	0.00e+00	0	32	0	1105199104	48	6179
2026-01-28 00:46:13.72	330.91	28.07	-37.9	-38.8	23.7	0.00e+00	0	32	0	1106247680	48	6288
2026-01-28 00:46:14.72	330.98	27.90	-38.1	-39.0	23.4	0.00e+00	0	32	0	1108344832	48	6427
2026-01-28 00:46:15.73	331.05	27.73	-38.2	-39.1	23.2	0.00e+00	0	32	0	1110441984	48	6521
2026-01-28 00:46:16.74	331.13	27.56	-38.3	-39.2	23.2	0.00e+00	0	32	0	1112539136	48	6569
2026-01-28 00:46:17.75	331.20	27.39	-38.2	-39.1	23.3	0.00e+00	0	32	0	1114636288	48	6517
2026-01-28 00:46:18.76	331.27	27.22	-38.2	-39.2	23.1	0.00e+00	0	32	0	1115684864	48	6541
2026-01-28 00:46:19.77	331.34	27.05	-38.0	-38.9	23.0	0.00e+00	0	32	0	1117782016	48	6364
2026-01-28 00:46:20.78	331.41	26.88	-37.9	-38.8	23.1	0.00e+00	0	32	0	1119879168	48	6296
2026-01-28 00:46:21.79	331.48	26.71	-37.7	-38.6	23.6	0.00e+00	0	32	0	1121976320	48	6147
2026-01-28 00:46:22.80	331.55	26.55	-37.6	-38.5	23.6	0.00e+00	0	32	0	1124073472	48	6041
2026-01-28 00:46:23.81	331.62	26.38	-37.3	-38.2	23.9	0.00e+00	0	32	0	1126170624	48	5846
2026-01-28 00:46:24.82	331.69	26.22	-37.4	-38.2	24.1	0.00e+00	0	32	0	1127219200	48	5893
2026-01-28 00:46:25.83	331.76	26.06	-36.8	-37.6	24.4	0.00e+00	0	32	0	1129316352	48	5476
2026-01-28 00:46:26.84	331.82	25.89	-36.6	-37.4	24.8	0.00e+00	0	32	0	1131413504	46	5989
2026-01-28 00:46:27.85	331.89	25.73	-36.6	-37.4	24.9	0.00e+00	0	32	0	1133510656	46	5968
2026-01-28 00:46:28.86	331.95	25.57	-36.5	-37.3	24.9	0.00e+00	0	32	0	1135607808	46	5911
2026-01-28 00:46:29.87	332.02	25.41	-36.5	-37.3	24.9	0.00e+00	0	32	0	1136656384	46	5904
2026-01-28 00:46:30.88	332.08	25.26	-36.4	-37.2	24.4	0.00e+00	0	32	0	1138753536	46	5837
2026-01-28 00:46:31.89	332.15	25.10	-36.3	-37.1	24.4	0.00e+00	0	32	0	1140850688	46	5799
2026-01-28 00:46:32.90	332.21	24.94	-36.3	-37.1	25.0	0.00e+00	0	32	0	1142947840	46	5772
2026-01-28 00:46:33.90	332.27	24.79	-36.4	-37.2	25.1	0.00e+00	0	32	0	1145044992	46	5838
2026-01-28 00:46:34.92	332.33	24.63	-36.5	-37.3	24.9	0.00e+00	0	32	0	1146093568	46	5916
2026-01-28 00:46:35.93	332.39	24.48	-36.5	-37.3	24.8	0.00e+00	0	32	0	1148190720	46	5941
2026-01-28 00:46:36.94	332.45	24.32	-36.6	-37.4	24.8	0.00e+00	0	32	0	1150287872	46	6003
2026-01-28 00:46:37.95	332.51	24.17	-36.7	-37.5	24.7	0.00e+00	0	32	0	1152385024	46	6076
2026-01-28 00:46:38.95	332.57	24.02	-36.6	-37.4	24.7	0.00e+00	0	32	0	1154482176	46	6017
2026-01-28 00:46:39.97	332.63	23.87	-36.6	-37.5	24.7	0.00e+00	0	32	0	1155530752	46	6043
2026-01-28 00:46:40.98	332.69	23.72	-36.6	-37.4	24.7	0.00e+00	0	32	0	1157627904	46	6028
2026-01-28 00:46:41.99	332.75	23.57	-36.5	-37.4	24.8	0.00e+00	0	32	0	1159725056	46	5968
2026-01-28 00:46:42.99	332.81	23.43	-36.7	-37.5	24.8	0.00e+00	0	32	0	1161822208	46	6066
2026-01-28 00:46:44.00	332.86	23.28	-36.5	-37.3	25.0	0.00e+00	0	32	0	1163919360	46	5901
2026-01-28 00:46:45.01	332.92	23.13	-36.4	-37.2	24.9	0.00e+00	0	32	0	1164967936	46	5887
2026-01-28 00:46:46.03	332.98	22.99	-36.3	-37.1	25.0	0.00e+00	0	32	0	1167065088	46	5821
2026-01-28 00:46:47.04	333.03	22.84	-36.4	-37.2	25.1	0.00e+00	0	32	0	1169162240	46	5856
2026-01-28 00:46:48.04	333.09	22.70	-36.4	-37.2	24.9	0.00e+00	0	32	0	1171259392	46	5861
2026-01-28 00:46:49.06	333.14	22.56	-36.2	-37.0	25.1	0.00e+00	0	32	0	1173356544	46	5739
2026-01-28 00:46:50.07	333.19	22.41	-36.3	-37.1	24.9	0.00e+00	0	32	0	1174405120	46	5768
2026-01-28 00:46:51.08	333.25	22.27	-36.2	-37.0	25.1	0.00e+00	0	32	0	1176502272	46	5727
2026-01-28 00:46:52.09	333.30	22.13	-36.3	-37.1	25.0	0.00e+00	0	32	0	1178599424	46	5804
2026-01-28 00:46:53.10	333.35	21.99	-36.3	-37.1	25.0	0.00e+00	0	32	0	1180696576	46	5763
2026-01-28 00:46:54.11	333.41	21.85	-36.2	-37.0	25.1	0.00e+00	0	32	0	1182793728	46	5730
2026-01-28 00:46:55.12	333.46	21.71	-36.3	-37.0	25.1	0.00e+00	0	32	0	1183842304	46	5757
2026-01-28 00:46:56.13	333.51	21.58	-36.2	-37.0	25.1	0.00e+00	0	32	0	1185939456	46	5723
2026-01-28 00:46:57.14	333.56	21.44	-36.3	-37.1	25.0	0.00e+00	0	32	0	1188036608	46	5785
2026-01-28 00:46:58.15	333.61	21.30	-36.3	-37.1	24.9	0.00e+00	0	32	0	1190133760	46	5820
2026-01-28 00:46:59.16	333.66	21.17	-36.2	-37.0	24.8	0.00e+00	0	32	0	1192230912	46	5729
2026-01-28 00:47:00.17	333.71	21.03	-36.3	-37.1	25.0	0.00e+00	0	32	0	1193279488	46	5790
2026-01-28 00:47:01.18	333.76	20.90	-36.3	-37.1	25.0	0.00e+00	0	32	0	1195376640	46	5799
2026-01-28 00:47:02.19	333.81	20.76	-36.3	-37.1	25.0	0.00e+00	0	32	0	1197473792	46	5777
2026-01-28 00:47:03.20	333.86	20.63	-36.4	-37.2	24.9	0.00e+00	0	32	0	1199570944	46	5895
2026-01-28 00:47:04.21	333.91	20.50	-36.6	-37.4	24.8	0.00e+00	0	32	0	1201668096	46	6008
2026-01-28 00:47:05.22	333.96	20.37	-36.4	-37.3	24.9	0.00e+00	0	32	0	1203765248	46	5897
2026-01-28 00:47:06.23	334.00	20.24	-36.4	-37.2	24.9	0.00e+00	0	32	0	1204813824	46	5890
2026-01-28 00:47:07.23	334.05	20.11	-36.5	-37.3	24.9	0.00e+00	0	32	0	1206910976	46	5912
2026-01-28 00:47:08.25	334.10	19.98	-36.5	-37.3	24.9	0.00e+00	0	32	0	1209008128	46	5962
2026-01-28 00:47:09.26	334.14	19.85	-36.5	-37.4	24.9	0.00e+00	0	32	0	1211105280	46	5971
