passes_logs/2026/01/28/R4.6S_Anadyr/R4.6S_Anadyr__20260128_015619_SUOMI_NPP_rec.log

#Pass ID: 20260128_015619_SUOMI NPP
#Satellite: SUOMI NPP
#Configuration: NPP
#almurnet v.1.7.20251203
#Start time: 2026-01-28 01:56:20

#Version: 2.2.20231116
#Station: R4.6S_Anadyr
#Location: 177.4865 lon 64.73178 lat
#TLE: 1 37849U 11061A   26027.57994159  .00000179  00000+0  10588-3 0  9997
#TLE: 2 37849  98.7823 329.5210 0002100  42.0127 318.1210 14.19530762738496

#Time	Az	El	Level	Level2	SNR	BER	BlckErr	Temp	State	Recorded	gain1	gain2
2026-01-28 01:56:20.29	198.49	0.06	-48.8	-60.5	3.5	8.45e-01	0	30	0	0	60	38347
2026-01-28 01:56:21.29	198.54	0.12	-48.8	-64.1	3.6	1.51e+00	0	31	104	0	60	58249
2026-01-28 01:56:22.30	198.60	0.17	-48.8	-64.2	3.6	1.51e+00	0	31	104	0	60	58339
2026-01-28 01:56:23.31	198.65	0.23	-49.1	-64.3	3.6	1.51e+00	0	31	104	0	60	59319
2026-01-28 01:56:24.32	198.70	0.29	-48.9	-64.2	3.6	1.51e+00	0	31	104	0	60	58664
2026-01-28 01:56:25.33	198.76	0.34	-49.0	-64.2	3.6	1.51e+00	0	31	104	0	60	58715
2026-01-28 01:56:26.34	198.81	0.40	-49.0	-64.2	3.6	1.51e+00	0	31	104	0	60	58595
2026-01-28 01:56:27.35	198.87	0.45	-49.1	-64.2	3.6	1.51e+00	0	31	104	0	60	58845
2026-01-28 01:56:28.36	198.92	0.51	-49.0	-64.2	3.6	1.51e+00	0	31	104	0	60	58800
2026-01-28 01:56:29.38	198.97	0.57	-49.0	-64.3	3.6	1.51e+00	0	32	104	0	60	59166
2026-01-28 01:56:30.39	199.03	0.62	-49.1	-64.3	3.6	1.51e+00	0	32	104	0	60	59247
2026-01-28 01:56:31.40	199.08	0.68	-49.1	-64.2	3.6	1.51e+00	0	32	104	0	60	58954
2026-01-28 01:56:32.41	199.14	0.74	-49.0	-64.2	3.6	1.51e+00	0	32	104	0	60	58773
2026-01-28 01:56:33.42	199.20	0.79	-48.9	-64.2	3.6	1.51e+00	0	32	104	0	60	58832
2026-01-28 01:56:34.43	199.25	0.85	-48.9	-64.2	3.6	1.51e+00	0	32	104	0	60	58875
2026-01-28 01:56:35.44	199.31	0.91	-48.9	-64.2	3.6	1.51e+00	0	32	104	0	60	58650
2026-01-28 01:56:36.45	199.36	0.96	-48.8	-64.1	3.6	1.51e+00	0	32	104	0	60	57853
2026-01-28 01:56:37.46	199.42	1.02	-48.8	-64.0	3.6	1.51e+00	0	32	104	0	60	57107
2026-01-28 01:56:38.47	199.48	1.08	-48.7	-63.9	3.6	1.51e+00	0	32	104	0	60	56543
2026-01-28 01:56:39.48	199.53	1.13	-48.6	-63.8	3.6	1.51e+00	0	32	104	0	60	55985
2026-01-28 01:56:40.49	199.59	1.19	-48.5	-63.6	3.5	1.51e+00	0	32	104	0	60	54890
2026-01-28 01:56:41.50	199.65	1.25	-48.2	-63.4	3.6	1.51e+00	0	32	104	0	60	53378
2026-01-28 01:56:42.51	199.70	1.31	-46.2	-61.3	3.6	1.51e+00	0	32	104	0	60	42173
2026-01-28 01:56:43.52	199.76	1.36	-47.8	-63.0	3.6	1.51e+00	0	32	104	0	60	50871
2026-01-28 01:56:44.53	199.82	1.42	-47.5	-62.8	3.6	1.51e+00	0	32	104	0	60	49807
2026-01-28 01:56:45.54	199.88	1.48	-47.5	-62.7	3.6	1.51e+00	0	32	104	0	60	49556
2026-01-28 01:56:46.55	199.93	1.54	-47.5	-62.8	3.6	1.51e+00	0	32	104	0	60	49775
2026-01-28 01:56:47.56	199.99	1.59	-47.5	-62.7	3.6	1.51e+00	0	32	104	0	60	49368
2026-01-28 01:56:48.57	200.05	1.65	-47.5	-62.8	3.6	1.51e+00	0	32	104	0	60	49621
2026-01-28 01:56:49.58	200.11	1.71	-47.5	-62.7	3.6	1.51e+00	0	32	104	0	60	49495
2026-01-28 01:56:50.59	200.17	1.77	-47.5	-62.7	3.6	1.51e+00	0	32	104	0	60	49558
2026-01-28 01:56:51.60	200.23	1.83	-47.5	-62.7	3.6	1.51e+00	0	32	104	0	60	49357
2026-01-28 01:56:52.61	200.29	1.89	-47.5	-62.7	3.6	1.51e+00	0	32	104	0	60	49096
2026-01-28 01:56:53.62	200.35	1.94	-47.5	-62.7	3.6	1.51e+00	0	32	104	0	60	49328
2026-01-28 01:56:54.63	200.41	2.00	-47.5	-62.7	3.6	1.51e+00	0	32	104	0	60	49312
2026-01-28 01:56:55.64	200.47	2.06	-47.5	-62.7	3.6	1.51e+00	0	32	104	0	60	49462
2026-01-28 01:56:56.65	200.53	2.12	-47.5	-62.7	3.6	1.51e+00	0	32	104	0	60	49414
2026-01-28 01:56:57.66	200.59	2.18	-47.5	-62.7	3.6	1.51e+00	0	32	104	0	60	49369
2026-01-28 01:56:58.67	200.65	2.24	-47.5	-62.7	3.6	1.51e+00	0	32	104	0	60	49314
2026-01-28 01:56:59.68	200.71	2.30	-47.5	-62.8	3.6	1.51e+00	0	32	104	0	60	49706
2026-01-28 01:57:00.69	200.77	2.36	-47.5	-62.8	3.6	1.51e+00	0	32	104	0	60	49725
2026-01-28 01:57:01.70	200.83	2.41	-47.5	-62.7	3.6	1.51e+00	0	32	104	0	60	49172
2026-01-28 01:57:02.71	200.89	2.47	-47.5	-62.3	3.6	1.51e+00	0	32	104	0	60	47166
2026-01-28 01:57:03.72	200.96	2.53	-47.5	-61.7	3.6	1.51e+00	0	32	104	0	60	43789
2026-01-28 01:57:04.73	201.02	2.59	-47.5	-61.3	3.6	1.51e+00	0	32	104	0	60	42027
2026-01-28 01:57:05.74	201.08	2.65	-47.5	-61.7	3.6	1.51e+00	0	32	104	0	60	43795
2026-01-28 01:57:06.75	201.14	2.71	-47.5	-62.4	3.6	1.51e+00	0	32	104	0	60	47731
2026-01-28 01:57:07.76	201.21	2.77	-47.5	-62.5	3.6	1.51e+00	0	32	104	0	60	48472
2026-01-28 01:57:08.77	201.27	2.83	-47.4	-59.8	3.9	1.51e+00	0	32	104	0	60	35294
2026-01-28 01:57:09.78	201.33	2.89	-47.0	-54.9	5.9	8.19e-01	92	32	0	0	60	20101
2026-01-28 01:57:10.79	201.40	2.95	-46.4	-52.2	8.9	5.29e-02	0	32	0	2097152	60	14687
2026-01-28 01:57:11.80	201.46	3.01	-45.5	-49.7	11.9	1.81e-02	92	32	0	4194304	60	11022
2026-01-28 01:57:12.81	201.52	3.07	-44.7	-48.1	13.6	2.44e-04	0	32	0	6291456	60	9224
2026-01-28 01:57:13.82	201.59	3.13	-44.1	-47.0	14.7	1.50e-06	92	32	0	8388608	60	8086
2026-01-28 01:57:14.83	201.65	3.19	-43.6	-46.2	15.5	0.00e+00	20	32	0	9437184	60	7411
2026-01-28 01:57:15.84	201.72	3.26	-43.5	-46.0	15.7	0.00e+00	92	32	0	11534336	60	7205
2026-01-28 01:57:16.85	201.78	3.32	-43.9	-46.7	15.0	0.00e+00	92	32	0	13631488	60	7788
2026-01-28 01:57:17.86	201.85	3.38	-44.6	-47.8	13.7	1.50e-06	0	32	0	15728640	60	8916
2026-01-28 01:57:18.87	201.91	3.44	-44.0	-46.8	14.8	0.00e+00	92	32	0	17825792	60	7869
2026-01-28 01:57:19.88	201.98	3.50	-47.4	-61.2	3.6	1.23e-04	0	32	104	18874368	60	41277
2026-01-28 01:57:20.89	202.05	3.56	-43.1	-45.3	15.6	1.42e+00	5	32	104	18874368	58	7486
2026-01-28 01:57:21.90	202.11	3.62	-45.2	-50.2	10.3	7.00e-07	49	32	0	18874368	60	11666
2026-01-28 01:57:22.91	202.18	3.68	-46.4	-52.2	7.5	1.17e-03	90	32	0	20971520	60	14762
2026-01-28 01:57:23.92	202.24	3.74	-43.7	-46.2	15.8	1.36e-03	92	32	0	23068672	60	7378
2026-01-28 01:57:24.93	202.31	3.81	-43.6	-46.1	15.7	0.00e+00	0	32	0	25165824	60	7289
2026-01-28 01:57:25.94	202.38	3.87	-43.6	-46.2	15.4	0.00e+00	81	32	0	26214400	60	7416
2026-01-28 01:57:26.95	202.45	3.93	-43.3	-45.8	15.7	0.00e+00	0	32	0	28311552	60	7069
2026-01-28 01:57:27.96	202.52	3.99	-43.4	-46.0	15.3	7.00e-07	92	32	0	30408704	60	7252
2026-01-28 01:57:28.97	202.58	4.05	-42.3	-44.7	16.1	0.00e+00	9	32	0	32505856	58	6982
2026-01-28 01:57:29.98	202.65	4.12	-42.3	-44.8	15.8	0.00e+00	92	32	0	34603008	58	7032
2026-01-28 01:57:30.99	202.72	4.18	-42.0	-44.4	15.5	0.00e+00	92	32	0	35651584	58	6724
2026-01-28 01:57:32.00	202.79	4.24	-41.8	-44.4	15.5	0.00e+00	0	32	0	37748736	56	7565
2026-01-28 01:57:33.02	202.86	4.30	-41.8	-44.6	14.5	7.00e-07	90	32	0	39845888	56	7752
2026-01-28 01:57:34.03	202.93	4.37	-41.6	-44.4	14.9	0.00e+00	0	32	0	41943040	56	7519
2026-01-28 01:57:35.04	203.00	4.43	-40.6	-44.4	12.4	5.41e-05	92	32	0	44040192	54	8453
2026-01-28 01:57:36.05	203.07	4.49	-39.4	-43.5	11.9	5.14e-04	0	32	0	45088768	52	8581
2026-01-28 01:57:37.06	203.14	4.55	-39.3	-43.3	11.7	8.31e-05	92	32	0	47185920	52	8380
2026-01-28 01:57:38.07	203.21	4.62	-39.6	-43.8	11.8	3.93e-04	92	32	0	49283072	52	8867
2026-01-28 01:57:39.08	203.28	4.68	-40.8	-43.7	14.6	4.04e-05	0	32	0	51380224	52	8732
2026-01-28 01:57:40.09	203.35	4.74	-40.8	-43.7	14.9	2.20e-06	92	32	0	53477376	54	7780
2026-01-28 01:57:41.10	203.42	4.81	-41.0	-43.4	15.8	0.00e+00	0	32	0	54525952	54	7557
2026-01-28 01:57:42.10	203.50	4.87	-41.4	-43.4	17.1	0.00e+00	92	32	0	56623104	54	7590
2026-01-28 01:57:43.12	203.57	4.94	-41.4	-43.2	18.0	0.00e+00	0	32	0	58720256	54	7347
2026-01-28 01:57:44.13	203.64	5.00	-41.5	-43.3	18.1	0.00e+00	90	32	0	60817408	54	7458
2026-01-28 01:57:45.14	203.71	5.06	-41.3	-43.0	18.5	0.00e+00	68	32	0	62914560	54	7226
2026-01-28 01:57:46.15	203.79	5.13	-41.2	-42.8	18.7	0.00e+00	77	32	0	63963136	54	7077
2026-01-28 01:57:47.16	203.86	5.19	-41.3	-42.9	18.8	0.00e+00	92	32	0	66060288	54	7129
2026-01-28 01:57:48.17	203.93	5.26	-41.0	-42.6	19.2	0.00e+00	33	32	0	68157440	54	6851
2026-01-28 01:57:49.18	204.01	5.32	-41.1	-42.6	19.3	0.00e+00	92	32	0	70254592	54	6862
2026-01-28 01:57:50.19	204.08	5.38	-41.1	-42.5	19.3	0.00e+00	0	32	0	72351744	54	6840
2026-01-28 01:57:51.20	204.16	5.45	-41.1	-42.5	19.4	0.00e+00	92	32	0	73400320	54	6839
2026-01-28 01:57:52.21	204.23	5.51	-41.0	-42.4	19.5	0.00e+00	68	32	0	75497472	54	6748
2026-01-28 01:57:53.22	204.31	5.58	-41.0	-42.4	19.5	0.00e+00	92	32	0	77594624	54	6766
2026-01-28 01:57:54.23	204.38	5.64	-40.9	-42.3	19.5	0.00e+00	92	32	0	79691776	54	6680
2026-01-28 01:57:55.24	204.46	5.71	-40.9	-42.3	19.6	0.00e+00	0	32	0	81788928	54	6679
2026-01-28 01:57:56.25	204.54	5.77	-41.0	-42.5	19.6	0.00e+00	85	32	0	83886080	54	6788
2026-01-28 01:57:57.26	204.61	5.84	-41.1	-42.6	19.4	0.00e+00	0	32	0	84934656	54	6873
2026-01-28 01:57:58.27	204.69	5.90	-41.1	-42.6	19.6	0.00e+00	91	32	0	87031808	54	6858
2026-01-28 01:57:59.28	204.77	5.97	-41.0	-42.4	19.8	0.00e+00	0	32	0	89128960	54	6719
2026-01-28 01:58:00.29	204.84	6.04	-41.1	-42.6	19.5	0.00e+00	91	32	0	91226112	54	6905
2026-01-28 01:58:01.30	204.92	6.10	-40.9	-42.4	19.7	0.00e+00	92	32	0	93323264	54	6701
2026-01-28 01:58:02.31	205.00	6.17	-40.9	-42.3	19.8	0.00e+00	0	32	0	94371840	54	6641
2026-01-28 01:58:03.32	205.08	6.23	-40.8	-42.2	19.9	0.00e+00	88	32	0	96468992	54	6578
2026-01-28 01:58:04.33	205.16	6.30	-40.7	-42.1	20.0	0.00e+00	0	32	0	98566144	54	6513
2026-01-28 01:58:05.34	205.24	6.37	-40.7	-42.0	20.0	0.00e+00	92	32	0	100663296	54	6449
2026-01-28 01:58:06.35	205.32	6.43	-40.4	-41.7	20.2	0.00e+00	81	32	0	102760448	54	6218
2026-01-28 01:58:07.36	205.40	6.50	-40.4	-41.7	20.1	0.00e+00	92	32	0	103809024	54	6227
2026-01-28 01:58:08.37	205.48	6.57	-40.2	-41.5	20.4	0.00e+00	90	32	0	105906176	54	6055
2026-01-28 01:58:09.38	205.56	6.63	-40.3	-41.6	20.4	0.00e+00	0	32	0	108003328	54	6120
2026-01-28 01:58:10.39	205.64	6.70	-40.3	-41.6	20.4	0.00e+00	92	32	0	110100480	54	6164
2026-01-28 01:58:11.40	205.72	6.77	-40.3	-41.5	20.5	0.00e+00	0	32	0	112197632	54	6094
2026-01-28 01:58:12.41	205.80	6.83	-40.5	-41.8	20.4	0.00e+00	92	32	0	113246208	54	6301
2026-01-28 01:58:13.42	205.88	6.90	-40.5	-41.8	20.4	0.00e+00	0	32	0	115343360	54	6288
2026-01-28 01:58:14.43	205.97	6.97	-40.4	-41.6	20.5	0.00e+00	92	32	0	117440512	54	6164
2026-01-28 01:58:15.44	206.05	7.04	-40.2	-41.5	20.8	0.00e+00	87	32	0	119537664	54	6060
2026-01-28 01:58:16.45	206.13	7.10	-39.7	-40.9	21.1	0.00e+00	0	32	0	121634816	54	5666
2026-01-28 01:58:17.46	206.22	7.17	-39.8	-41.0	21.1	0.00e+00	92	32	0	123731968	52	6416
2026-01-28 01:58:18.47	206.30	7.24	-39.8	-41.0	21.1	0.00e+00	0	32	0	124780544	52	6440
2026-01-28 01:58:19.48	206.38	7.31	-39.5	-40.7	21.4	0.00e+00	91	32	0	126877696	52	6179
2026-01-28 01:58:20.49	206.47	7.38	-39.5	-40.6	21.4	0.00e+00	0	32	0	128974848	52	6125
2026-01-28 01:58:21.50	206.55	7.45	-39.4	-40.6	21.4	0.00e+00	92	32	0	131072000	52	6116
2026-01-28 01:58:22.51	206.64	7.51	-39.4	-40.5	21.5	0.00e+00	92	32	0	133169152	52	6044
2026-01-28 01:58:23.51	206.73	7.58	-39.3	-40.4	21.6	0.00e+00	23	32	0	134217728	52	5991
2026-01-28 01:58:24.52	206.81	7.65	-39.3	-40.4	21.7	0.00e+00	92	32	0	136314880	52	6010
2026-01-28 01:58:25.53	206.90	7.72	-39.4	-40.5	21.6	0.00e+00	0	32	0	138412032	52	6050
2026-01-28 01:58:26.54	206.98	7.79	-39.1	-40.2	21.8	0.00e+00	90	32	0	140509184	52	5857
2026-01-28 01:58:27.55	207.07	7.86	-39.0	-40.1	21.9	0.00e+00	0	32	0	142606336	52	5772
2026-01-28 01:58:28.56	207.16	7.93	-39.3	-40.3	21.8	0.00e+00	92	32	0	143654912	52	5964
2026-01-28 01:58:29.57	207.25	8.00	-39.1	-40.2	21.8	0.00e+00	0	32	0	145752064	52	5829
2026-01-28 01:58:30.58	207.34	8.07	-38.9	-39.9	22.0	0.00e+00	92	32	0	147849216	52	5663
2026-01-28 01:58:31.59	207.43	8.14	-39.2	-40.3	21.9	0.00e+00	92	32	0	149946368	52	5936
2026-01-28 01:58:32.60	207.52	8.21	-39.1	-40.2	21.8	0.00e+00	0	32	0	152043520	52	5870
2026-01-28 01:58:33.61	207.61	8.28	-39.2	-40.3	21.7	0.00e+00	83	32	0	153092096	52	5953
2026-01-28 01:58:34.62	207.70	8.35	-39.2	-40.3	21.8	0.00e+00	0	32	0	155189248	52	5913
2026-01-28 01:58:35.63	207.79	8.42	-38.8	-39.8	22.2	0.00e+00	92	32	0	157286400	50	6265
2026-01-28 01:58:36.64	207.88	8.49	-38.7	-39.7	22.2	0.00e+00	0	32	0	159383552	50	6228
2026-01-28 01:58:37.65	207.97	8.56	-38.5	-39.5	22.4	0.00e+00	92	32	0	161480704	50	6050
2026-01-28 01:58:38.66	208.06	8.63	-38.7	-39.7	22.3	0.00e+00	92	32	0	162529280	50	6200
2026-01-28 01:58:39.67	208.15	8.70	-38.4	-39.4	22.5	0.00e+00	0	32	0	164626432	50	5975
2026-01-28 01:58:40.68	208.25	8.77	-38.5	-39.4	22.4	0.00e+00	82	32	0	166723584	50	6024
2026-01-28 01:58:41.69	208.34	8.84	-38.5	-39.4	22.5	0.00e+00	0	32	0	168820736	50	6006
2026-01-28 01:58:42.69	208.43	8.91	-38.6	-39.6	22.4	0.00e+00	92	32	0	170917888	50	6132
2026-01-28 01:58:43.70	208.53	8.98	-38.6	-39.6	22.4	0.00e+00	0	32	0	171966464	50	6138
2026-01-28 01:58:44.71	208.62	9.05	-38.5	-39.4	22.5	0.00e+00	91	32	0	174063616	50	6013
2026-01-28 01:58:45.72	208.72	9.13	-38.5	-39.5	22.4	0.00e+00	92	32	0	176160768	50	6078
2026-01-28 01:58:46.73	208.81	9.20	-38.6	-39.6	22.3	0.00e+00	0	32	0	178257920	50	6154
2026-01-28 01:58:47.74	208.91	9.27	-38.5	-39.5	22.5	0.00e+00	90	32	0	180355072	50	6044
2026-01-28 01:58:48.75	209.00	9.34	-38.6	-39.6	22.4	0.00e+00	0	32	0	181403648	50	6128
2026-01-28 01:58:49.76	209.10	9.41	-38.7	-39.7	22.2	0.00e+00	83	32	0	183500800	50	6232
2026-01-28 01:58:50.77	209.20	9.49	-38.5	-39.5	22.4	0.00e+00	0	32	0	185597952	50	6101
2026-01-28 01:58:51.78	209.29	9.56	-38.8	-39.8	22.2	0.00e+00	92	32	0	187695104	50	6315
2026-01-28 01:58:52.79	209.39	9.63	-38.8	-39.8	22.4	0.00e+00	86	32	0	189792256	50	6310
2026-01-28 01:58:53.80	209.49	9.70	-39.0	-40.0	22.1	0.00e+00	0	32	0	191889408	50	6436
2026-01-28 01:58:54.81	209.59	9.78	-38.7	-39.7	22.4	0.00e+00	57	32	0	192937984	50	6197
2026-01-28 01:58:55.82	209.69	9.85	-38.7	-39.7	22.4	0.00e+00	0	32	0	195035136	50	6236
2026-01-28 01:58:56.83	209.79	9.92	-38.7	-39.7	22.4	0.00e+00	83	32	0	197132288	50	6188
2026-01-28 01:58:57.84	209.89	10.00	-38.6	-39.6	22.4	0.00e+00	0	32	0	199229440	50	6125
2026-01-28 01:58:58.85	209.99	10.07	-38.4	-39.4	22.6	0.00e+00	92	32	0	201326592	50	6004
2026-01-28 01:58:59.86	210.09	10.14	-38.3	-39.3	22.6	0.00e+00	74	32	0	202375168	50	5914
2026-01-28 01:59:00.84	210.19	10.22	-38.3	-39.3	22.6	0.00e+00	0	32	0	204472320	50	5939
2026-01-28 01:59:01.85	210.29	10.29	-38.5	-39.5	22.5	0.00e+00	91	32	0	206569472	50	6058
2026-01-28 01:59:02.86	210.40	10.36	-38.2	-39.2	22.8	0.00e+00	0	32	0	208666624	50	5843
2026-01-28 01:59:03.87	210.50	10.44	-38.2	-39.1	22.9	0.00e+00	75	32	0	209715200	50	5800
2026-01-28 01:59:04.88	210.61	10.51	-38.0	-39.0	22.9	0.00e+00	0	32	0	211812352	50	5715
2026-01-28 01:59:05.89	210.71	10.59	-38.1	-39.0	22.8	0.00e+00	92	32	0	213909504	50	5747
2026-01-28 01:59:06.90	210.81	10.66	-37.8	-38.8	23.1	0.00e+00	15	32	0	216006656	50	5571
2026-01-28 01:59:07.91	210.92	10.74	-38.0	-38.9	23.0	0.00e+00	90	32	0	218103808	50	5655
2026-01-28 01:59:08.92	211.03	10.81	-38.0	-38.9	23.0	0.00e+00	91	32	0	220200960	50	5654
2026-01-28 01:59:09.93	211.13	10.89	-37.9	-38.9	23.0	0.00e+00	0	32	0	221249536	50	5631
2026-01-28 01:59:10.94	211.24	10.96	-37.9	-38.8	23.0	0.00e+00	91	32	0	223346688	50	5621
2026-01-28 01:59:11.95	211.35	11.04	-37.9	-38.8	23.2	0.00e+00	0	32	0	225443840	50	5624
2026-01-28 01:59:12.96	211.46	11.11	-37.9	-38.8	23.0	0.00e+00	92	32	0	227540992	50	5628
2026-01-28 01:59:13.97	211.56	11.19	-38.1	-39.0	22.9	0.00e+00	65	32	0	229638144	50	5742
2026-01-28 01:59:14.98	211.67	11.26	-38.2	-39.1	22.8	0.00e+00	92	32	0	230686720	50	5826
2026-01-28 01:59:15.99	211.78	11.34	-38.1	-39.1	22.9	0.00e+00	90	32	0	232783872	50	5799
2026-01-28 01:59:17.00	211.89	11.42	-38.2	-39.1	22.9	0.00e+00	0	32	0	234881024	50	5810
2026-01-28 01:59:18.01	212.00	11.49	-38.5	-39.4	22.6	0.00e+00	63	32	0	236978176	50	6033
2026-01-28 01:59:19.02	212.12	11.57	-38.4	-39.3	22.7	0.00e+00	0	32	0	239075328	50	5954
2026-01-28 01:59:20.03	212.23	11.65	-38.6	-39.6	22.4	0.00e+00	91	32	0	240123904	50	6171
2026-01-28 01:59:21.03	212.34	11.72	-38.5	-39.5	22.6	0.00e+00	0	32	0	242221056	50	6079
2026-01-28 01:59:22.04	212.45	11.80	-38.4	-39.3	22.7	0.00e+00	92	32	0	244318208	50	5960
2026-01-28 01:59:23.05	212.57	11.87	-38.5	-39.4	22.6	0.00e+00	92	32	0	246415360	50	6030
2026-01-28 01:59:24.07	212.68	11.95	-38.4	-39.4	22.6	0.00e+00	0	32	0	248512512	50	6024
2026-01-28 01:59:25.08	212.80	12.03	-38.4	-39.4	22.6	0.00e+00	63	33	0	249561088	50	5996
2026-01-28 01:59:26.09	212.91	12.11	-38.3	-39.3	22.7	0.00e+00	0	32	0	251658240	50	5945
2026-01-28 01:59:27.10	213.03	12.18	-38.2	-39.1	22.9	0.00e+00	86	32	0	253755392	50	5811
2026-01-28 01:59:28.11	213.14	12.26	-38.0	-38.9	23.2	0.00e+00	0	32	0	255852544	50	5647
2026-01-28 01:59:29.12	213.26	12.34	-38.1	-39.0	23.0	0.00e+00	90	32	0	257949696	50	5732
2026-01-28 01:59:30.13	213.38	12.42	-38.0	-38.9	23.0	0.00e+00	61	32	0	258998272	50	5671
2026-01-28 01:59:31.14	213.50	12.50	-38.0	-38.9	23.1	0.00e+00	0	32	0	261095424	50	5655
2026-01-28 01:59:32.15	213.62	12.57	-38.2	-39.1	22.9	0.00e+00	90	32	0	263192576	50	5810
2026-01-28 01:59:33.16	213.74	12.65	-38.2	-39.1	23.0	0.00e+00	0	32	0	265289728	50	5807
2026-01-28 01:59:34.16	213.86	12.73	-38.0	-38.9	23.0	0.00e+00	92	32	0	267386880	50	5655
2026-01-28 01:59:35.17	213.98	12.81	-38.0	-38.9	23.1	0.00e+00	33	32	0	268435456	50	5667
2026-01-28 01:59:36.18	214.10	12.89	-37.8	-38.7	23.2	0.00e+00	92	32	0	270532608	50	5556
2026-01-28 01:59:37.19	214.22	12.97	-38.1	-39.0	23.0	0.00e+00	0	32	0	272629760	50	5740
2026-01-28 01:59:38.20	214.34	13.05	-38.1	-39.1	22.9	0.00e+00	0	32	0	274726912	50	5772
2026-01-28 01:59:39.21	214.47	13.13	-38.4	-39.4	22.6	0.00e+00	92	32	0	276824064	50	5967
2026-01-28 01:59:40.22	214.59	13.20	-38.5	-39.5	22.8	0.00e+00	0	32	0	277872640	50	6040
2026-01-28 01:59:41.23	214.71	13.28	-38.4	-39.3	22.7	0.00e+00	91	32	0	279969792	50	5963
2026-01-28 01:59:42.24	214.84	13.36	-38.7	-39.7	22.5	0.00e+00	33	32	0	282066944	50	6182
2026-01-28 01:59:43.25	214.97	13.44	-38.7	-39.8	22.5	0.00e+00	92	32	0	284164096	50	6246
2026-01-28 01:59:44.26	215.09	13.52	-38.6	-39.6	22.6	0.00e+00	0	32	0	286261248	50	6151
2026-01-28 01:59:45.27	215.22	13.60	-38.5	-39.5	22.6	0.00e+00	90	32	0	288358400	50	6078
2026-01-28 01:59:46.28	215.35	13.68	-38.5	-39.4	22.7	0.00e+00	92	33	0	289406976	50	6029
2026-01-28 01:59:47.29	215.48	13.76	-38.4	-39.4	22.7	0.00e+00	0	32	0	291504128	50	5986
2026-01-28 01:59:48.30	215.61	13.84	-38.5	-39.5	22.7	0.00e+00	92	32	0	293601280	50	6056
2026-01-28 01:59:49.31	215.74	13.92	-38.5	-39.5	22.7	0.00e+00	0	32	0	295698432	50	6037
2026-01-28 01:59:50.32	215.87	14.01	-38.6	-39.6	22.7	0.00e+00	91	32	0	297795584	50	6133
2026-01-28 01:59:51.33	216.00	14.09	-38.8	-39.7	22.5	0.00e+00	0	32	0	298844160	50	6245
2026-01-28 01:59:52.34	216.13	14.17	-38.5	-39.4	22.6	0.00e+00	91	33	0	300941312	50	6016
2026-01-28 01:59:53.35	216.26	14.25	-38.6	-39.6	22.6	0.00e+00	90	32	0	303038464	50	6105
2026-01-28 01:59:54.36	216.40	14.33	-38.9	-39.9	22.0	0.00e+00	0	33	0	305135616	50	6327
2026-01-28 01:59:55.37	216.53	14.41	-38.8	-39.8	22.4	0.00e+00	69	33	0	307232768	50	6305
2026-01-28 01:59:56.38	216.66	14.49	-38.7	-39.7	22.5	0.00e+00	0	32	0	308281344	50	6191
2026-01-28 01:59:57.39	216.80	14.57	-39.0	-40.0	22.3	0.00e+00	83	32	0	310378496	50	6416
2026-01-28 01:59:58.40	216.94	14.66	-38.8	-39.8	22.5	0.00e+00	0	32	0	312475648	50	6293
2026-01-28 01:59:59.41	217.07	14.74	-38.7	-39.7	22.5	0.00e+00	71	32	0	314572800	50	6175
2026-01-28 02:00:00.42	217.21	14.82	-39.0	-40.0	22.3	0.00e+00	90	32	0	316669952	50	6426
2026-01-28 02:00:01.42	217.35	14.90	-38.7	-39.6	22.5	0.00e+00	0	32	0	317718528	50	6172
2026-01-28 02:00:02.43	217.49	14.98	-38.9	-39.9	22.4	0.00e+00	65	32	0	319815680	50	6340
2026-01-28 02:00:03.44	217.63	15.07	-38.6	-39.6	22.7	0.00e+00	0	32	0	321912832	50	6143
2026-01-28 02:00:04.45	217.77	15.15	-38.5	-39.4	22.7	0.00e+00	85	33	0	324009984	50	6029
2026-01-28 02:00:05.46	217.91	15.23	-38.4	-39.3	22.9	0.00e+00	0	32	0	326107136	50	5957
2026-01-28 02:00:06.47	218.05	15.31	-38.2	-39.1	22.9	0.00e+00	92	32	0	327155712	50	5807
2026-01-28 02:00:07.48	218.19	15.40	-38.0	-39.0	23.1	0.00e+00	80	32	0	329252864	50	5701
2026-01-28 02:00:08.49	218.34	15.48	-38.2	-39.1	23.0	0.00e+00	0	32	0	331350016	50	5800
2026-01-28 02:00:09.50	218.48	15.56	-38.1	-39.0	23.1	0.00e+00	36	32	0	333447168	50	5705
2026-01-28 02:00:10.51	218.63	15.65	-37.8	-38.6	23.4	0.00e+00	0	33	0	335544320	50	5498
2026-01-28 02:00:11.52	218.77	15.73	-38.0	-38.9	23.1	0.00e+00	89	32	0	336592896	48	6367
2026-01-28 02:00:12.53	218.92	15.81	-38.0	-38.9	23.1	0.00e+00	0	32	0	338690048	48	6375
2026-01-28 02:00:13.53	219.07	15.90	-37.9	-38.8	23.3	0.00e+00	92	32	0	340787200	48	6311
2026-01-28 02:00:14.54	219.22	15.98	-38.0	-38.9	23.1	0.00e+00	86	32	0	342884352	48	6353
2026-01-28 02:00:15.55	219.36	16.06	-38.2	-39.1	23.0	0.00e+00	0	32	0	344981504	48	6523
2026-01-28 02:00:16.57	219.52	16.15	-38.2	-39.1	22.9	0.00e+00	91	32	0	346030080	48	6530
2026-01-28 02:00:17.57	219.67	16.23	-38.4	-39.3	22.6	0.00e+00	0	32	0	348127232	48	6688
2026-01-28 02:00:18.59	219.82	16.32	-38.5	-39.5	22.8	0.00e+00	88	32	0	350224384	48	6813
2026-01-28 02:00:19.60	219.97	16.40	-38.5	-39.5	22.5	0.00e+00	0	32	0	352321536	48	6796
2026-01-28 02:00:20.60	220.12	16.48	-38.4	-39.4	22.8	0.00e+00	92	32	0	354418688	48	6739
2026-01-28 02:00:21.61	220.28	16.57	-38.1	-39.1	23.0	0.00e+00	0	32	0	356515840	48	6475
2026-01-28 02:00:22.62	220.43	16.65	-38.3	-39.3	22.9	0.00e+00	90	32	0	357564416	48	6654
2026-01-28 02:00:23.64	220.59	16.74	-38.2	-39.2	23.0	0.00e+00	91	33	0	359661568	48	6560
2026-01-28 02:00:24.65	220.75	16.82	-38.2	-39.2	23.0	0.00e+00	0	32	0	361758720	48	6548
2026-01-28 02:00:25.66	220.90	16.91	-38.2	-39.1	22.9	0.00e+00	71	32	0	363855872	48	6498
2026-01-28 02:00:26.67	221.06	16.99	-38.2	-39.1	23.0	0.00e+00	0	32	0	365953024	48	6515
2026-01-28 02:00:27.68	221.22	17.08	-38.1	-39.1	23.1	0.00e+00	84	33	0	367001600	48	6471
2026-01-28 02:00:28.69	221.38	17.16	-38.0	-38.9	23.2	0.00e+00	33	33	0	369098752	48	6360
2026-01-28 02:00:29.69	221.54	17.25	-38.1	-39.1	23.0	0.00e+00	91	33	0	371195904	48	6486
2026-01-28 02:00:30.70	221.70	17.33	-38.0	-39.0	23.2	0.00e+00	90	32	0	373293056	48	6400
2026-01-28 02:00:31.71	221.87	17.42	-37.9	-38.8	23.3	0.00e+00	0	32	0	375390208	48	6287
2026-01-28 02:00:32.72	222.03	17.50	-38.0	-38.9	23.1	0.00e+00	70	32	0	376438784	48	6387
2026-01-28 02:00:33.73	222.19	17.59	-37.9	-38.8	23.4	0.00e+00	0	32	0	378535936	48	6265
2026-01-28 02:00:34.74	222.36	17.67	-38.0	-39.0	23.2	0.00e+00	82	33	0	380633088	48	6401
2026-01-28 02:00:35.75	222.53	17.76	-37.8	-38.7	23.3	0.00e+00	0	32	0	382730240	48	6224
2026-01-28 02:00:36.76	222.69	17.84	-37.6	-38.5	23.5	0.00e+00	92	32	0	384827392	48	6071
2026-01-28 02:00:37.77	222.86	17.93	-37.6	-38.5	23.5	0.00e+00	92	32	0	385875968	48	6057
2026-01-28 02:00:38.78	223.03	18.01	-37.5	-38.4	23.0	0.00e+00	0	32	0	387973120	48	6019
2026-01-28 02:00:39.79	223.20	18.10	-37.4	-38.2	23.7	0.00e+00	90	32	0	390070272	48	5891
2026-01-28 02:00:40.80	223.37	18.19	-37.1	-38.0	23.7	0.00e+00	0	33	0	392167424	48	5721
2026-01-28 02:00:41.81	223.54	18.27	-37.3	-38.2	23.7	0.00e+00	83	32	0	394264576	48	5834
2026-01-28 02:00:42.82	223.72	18.36	-37.2	-38.1	23.9	0.00e+00	0	32	0	395313152	48	5768
2026-01-28 02:00:43.83	223.89	18.44	-37.3	-38.1	23.8	0.00e+00	92	33	0	397410304	48	5825
2026-01-28 02:00:44.84	224.07	18.53	-37.0	-37.8	24.1	0.00e+00	90	32	0	399507456	48	5600
2026-01-28 02:00:45.85	224.24	18.62	-36.9	-37.8	24.2	0.00e+00	0	33	0	401604608	48	5588
2026-01-28 02:00:46.85	224.42	18.70	-36.8	-37.7	24.1	0.00e+00	92	33	0	403701760	48	5519
2026-01-28 02:00:47.86	224.59	18.79	-36.7	-37.5	24.3	0.00e+00	0	32	0	404750336	46	6076
2026-01-28 02:00:48.88	224.77	18.88	-36.8	-37.6	24.1	0.00e+00	92	32	0	406847488	46	6163
2026-01-28 02:00:49.88	224.95	18.96	-36.8	-37.6	24.2	0.00e+00	0	33	0	408944640	46	6142
2026-01-28 02:00:50.89	225.13	19.05	-37.0	-37.8	24.1	0.00e+00	92	32	0	411041792	46	6305
2026-01-28 02:00:51.90	225.31	19.13	-37.0	-37.9	24.0	0.00e+00	92	32	0	413138944	46	6357
2026-01-28 02:00:52.91	225.50	19.22	-37.2	-38.1	23.8	0.00e+00	87	33	0	414187520	46	6508
2026-01-28 02:00:53.92	225.68	19.31	-37.1	-38.0	23.9	0.00e+00	92	33	0	416284672	46	6434
2026-01-28 02:00:54.93	225.87	19.39	-37.1	-38.0	24.0	0.00e+00	0	33	0	418381824	46	6407
2026-01-28 02:00:55.94	226.05	19.48	-37.2	-38.1	23.9	0.00e+00	90	33	0	420478976	46	6508
2026-01-28 02:00:56.95	226.24	19.56	-37.0	-37.9	24.0	0.00e+00	0	32	0	422576128	46	6349
2026-01-28 02:00:57.96	226.43	19.65	-36.9	-37.7	24.1	0.00e+00	90	32	0	424673280	46	6241
2026-01-28 02:00:58.97	226.61	19.74	-37.0	-37.8	24.0	0.00e+00	1	33	0	425721856	46	6294
2026-01-28 02:00:59.97	226.80	19.82	-36.9	-37.7	24.1	0.00e+00	90	32	0	427819008	46	6210
2026-01-28 02:01:00.98	226.99	19.91	-36.7	-37.6	24.3	0.00e+00	92	32	0	429916160	46	6107
2026-01-28 02:01:01.99	227.19	20.00	-37.1	-38.0	23.9	0.00e+00	0	33	0	432013312	46	6406
2026-01-28 02:01:03.00	227.38	20.08	-37.3	-38.2	23.9	0.00e+00	75	32	0	434110464	46	6545
2026-01-28 02:01:04.01	227.57	20.17	-37.2	-38.1	24.0	0.00e+00	0	32	0	435159040	46	6474
2026-01-28 02:01:05.02	227.77	20.25	-37.3	-38.1	24.0	0.00e+00	90	33	0	437256192	46	6516
2026-01-28 02:01:06.03	227.96	20.34	-36.8	-37.6	24.3	0.00e+00	0	33	0	439353344	46	6140
2026-01-28 02:01:07.03	228.16	20.43	-36.5	-37.3	24.5	0.00e+00	94	33	0	441450496	46	5915
2026-01-28 02:01:08.04	228.36	20.51	-36.9	-37.7	24.1	0.00e+00	92	32	0	442499072	46	6241
2026-01-28 02:01:09.05	228.56	20.60	-37.0	-37.8	24.2	0.00e+00	0	32	0	444596224	46	6276
2026-01-28 02:01:10.06	228.76	20.68	-36.8	-37.7	24.2	0.00e+00	72	33	0	446693376	46	6191
2026-01-28 02:01:11.07	228.96	20.77	-37.3	-38.2	23.9	0.00e+00	0	33	0	448790528	46	6553
2026-01-28 02:01:12.07	229.16	20.85	-37.0	-37.8	24.1	0.00e+00	92	32	0	450887680	46	6316
2026-01-28 02:01:13.08	229.36	20.94	-37.0	-37.8	24.0	0.00e+00	0	33	0	452984832	46	6277
2026-01-28 02:01:14.09	229.57	21.03	-36.6	-37.4	24.4	0.00e+00	92	32	0	454033408	46	6023
2026-01-28 02:01:15.10	229.77	21.11	-36.4	-37.2	24.5	0.00e+00	71	32	0	456130560	46	5888
2026-01-28 02:01:16.11	229.98	21.20	-36.2	-37.0	24.7	0.00e+00	0	32	0	458227712	46	5717
2026-01-28 02:01:17.12	230.19	21.28	-36.3	-37.1	24.7	0.00e+00	92	32	0	460324864	46	5788
2026-01-28 02:01:18.13	230.40	21.37	-35.9	-36.7	24.9	0.00e+00	0	33	0	462422016	46	5509
2026-01-28 02:01:19.14	230.61	21.45	-35.9	-36.7	24.9	0.00e+00	59	33	0	463470592	46	5516
2026-01-28 02:01:20.15	230.82	21.54	-36.0	-36.8	24.8	0.00e+00	0	32	0	465567744	46	5567
2026-01-28 02:01:21.16	231.03	21.62	-35.9	-36.7	24.8	0.00e+00	92	33	0	467664896	46	5538
2026-01-28 02:01:22.17	231.25	21.71	-35.7	-36.4	24.9	0.00e+00	0	32	0	469762048	44	6012
2026-01-28 02:01:23.18	231.46	21.79	-35.7	-36.5	25.0	0.00e+00	0	32	0	471859200	44	6073
2026-01-28 02:01:24.19	231.68	21.88	-35.7	-36.4	25.0	0.00e+00	92	32	0	472907776	44	6007
2026-01-28 02:01:25.20	231.89	21.96	-35.7	-36.5	24.9	0.00e+00	0	32	0	475004928	44	6053
2026-01-28 02:01:26.21	232.11	22.05	-36.0	-36.8	24.6	0.00e+00	90	32	0	477102080	44	6303
2026-01-28 02:01:27.22	232.33	22.13	-36.3	-37.0	24.4	0.00e+00	0	32	0	479199232	44	6464
2026-01-28 02:01:28.23	232.55	22.22	-36.4	-37.2	24.5	0.00e+00	92	33	0	481296384	44	6568
2026-01-28 02:01:29.24	232.78	22.30	-36.5	-37.3	24.3	0.00e+00	0	32	0	482344960	44	6665
2026-01-28 02:01:30.25	233.00	22.39	-36.6	-37.5	24.4	0.00e+00	15	32	0	484442112	44	6771
2026-01-28 02:01:31.26	233.22	22.47	-36.7	-37.5	24.2	0.00e+00	92	32	0	486539264	44	6797
2026-01-28 02:01:32.27	233.45	22.55	-36.9	-37.7	24.2	0.00e+00	0	32	0	488636416	46	6217
2026-01-28 02:01:33.28	233.68	22.64	-36.6	-37.4	24.3	0.00e+00	61	32	0	490733568	46	6028
2026-01-28 02:01:34.29	233.90	22.72	-36.8	-37.6	24.3	0.00e+00	0	33	0	491782144	46	6128
2026-01-28 02:01:35.30	234.13	22.80	-36.7	-37.5	24.3	0.00e+00	92	32	0	493879296	46	6082
2026-01-28 02:01:36.31	234.36	22.89	-36.7	-37.5	24.3	0.00e+00	0	33	0	495976448	46	6082
2026-01-28 02:01:37.32	234.59	22.97	-36.8	-37.6	24.2	0.00e+00	91	32	0	498073600	46	6173
2026-01-28 02:01:38.33	234.83	23.05	-36.9	-37.8	24.2	0.00e+00	92	32	0	500170752	46	6256
2026-01-28 02:01:39.34	235.06	23.13	-37.1	-37.9	24.1	0.00e+00	0	32	0	501219328	46	6356
2026-01-28 02:01:40.35	235.30	23.22	-36.9	-37.7	24.2	0.00e+00	77	33	0	503316480	46	6236
2026-01-28 02:01:41.36	235.53	23.30	-37.1	-37.9	23.9	0.00e+00	0	33	0	505413632	46	6369
2026-01-28 02:01:42.37	235.77	23.38	-37.1	-38.0	24.0	0.00e+00	92	33	0	507510784	46	6402
2026-01-28 02:01:43.38	236.01	23.46	-37.0	-37.8	24.1	0.00e+00	0	33	0	509607936	46	6309
2026-01-28 02:01:44.39	236.25	23.54	-37.2	-38.1	23.9	0.00e+00	92	33	0	510656512	46	6487
2026-01-28 02:01:45.40	236.49	23.62	-37.1	-37.9	24.1	0.00e+00	85	33	0	512753664	46	6354
2026-01-28 02:01:46.42	236.73	23.70	-37.2	-38.1	23.9	0.00e+00	0	33	0	514850816	46	6470
2026-01-28 02:01:47.43	236.98	23.78	-37.3	-38.1	23.9	0.00e+00	92	32	0	516947968	46	6520
2026-01-28 02:01:48.44	237.22	23.86	-37.4	-38.3	23.8	0.00e+00	0	33	0	519045120	46	6633
2026-01-28 02:01:49.45	237.47	23.94	-37.5	-38.4	23.7	0.00e+00	80	32	0	521142272	46	6694
2026-01-28 02:01:50.46	237.71	24.02	-37.8	-38.7	23.6	0.00e+00	0	33	0	522190848	46	6955
2026-01-28 02:01:51.46	237.96	24.10	-37.7	-38.6	23.6	0.00e+00	92	32	0	524288000	48	6116
2026-01-28 02:01:52.48	238.21	24.18	-37.6	-38.5	23.7	0.00e+00	92	33	0	526385152	48	6040
2026-01-28 02:01:53.49	238.46	24.26	-37.5	-38.3	23.7	0.00e+00	0	33	0	528482304	48	5944
2026-01-28 02:01:54.49	238.71	24.34	-37.3	-38.1	23.9	0.00e+00	92	33	0	530579456	48	5804
2026-01-28 02:01:55.50	238.97	24.41	-37.4	-38.2	23.8	0.00e+00	0	33	0	531628032	48	5894
2026-01-28 02:01:56.51	239.22	24.49	-37.3	-38.1	23.9	0.00e+00	91	32	0	533725184	48	5814
2026-01-28 02:01:57.52	239.48	24.57	-37.3	-38.1	24.1	0.00e+00	0	33	0	535822336	48	5811
2026-01-28 02:01:58.53	239.73	24.64	-37.4	-38.3	23.8	0.00e+00	91	32	0	537919488	48	5914
2026-01-28 02:01:59.54	239.99	24.72	-37.4	-38.3	23.7	0.00e+00	50	33	0	540016640	48	5904
2026-01-28 02:02:00.55	240.25	24.80	-37.6	-38.4	23.7	0.00e+00	0	32	0	541065216	48	6032
2026-01-28 02:02:01.56	240.51	24.87	-37.5	-38.4	23.7	0.00e+00	92	32	0	543162368	48	6004
2026-01-28 02:02:02.57	240.77	24.95	-37.3	-38.1	23.9	0.00e+00	0	32	0	545259520	48	5797
2026-01-28 02:02:03.58	241.03	25.02	-37.5	-38.4	23.7	0.00e+00	86	32	0	547356672	48	6018
2026-01-28 02:02:04.59	241.30	25.10	-37.3	-38.1	23.9	0.00e+00	0	33	0	549453824	48	5800
2026-01-28 02:02:05.60	241.56	25.17	-37.1	-38.0	24.0	0.00e+00	92	33	0	550502400	48	5703
2026-01-28 02:02:06.61	241.83	25.24	-37.2	-38.1	23.9	0.00e+00	88	32	0	552599552	48	5795
2026-01-28 02:02:07.62	242.10	25.32	-37.2	-38.0	24.0	0.00e+00	92	32	0	554696704	48	5748
2026-01-28 02:02:08.63	242.37	25.39	-37.3	-38.2	23.9	0.00e+00	90	33	0	556793856	48	5856
2026-01-28 02:02:09.64	242.64	25.46	-37.3	-38.1	23.9	0.00e+00	0	32	0	558891008	48	5801
2026-01-28 02:02:10.65	242.91	25.53	-37.1	-38.0	24.2	0.00e+00	72	32	0	560988160	48	5696
2026-01-28 02:02:11.66	243.18	25.60	-37.3	-38.1	23.9	0.00e+00	0	32	0	562036736	48	5799
2026-01-28 02:02:12.67	243.46	25.67	-37.5	-38.3	23.7	0.00e+00	91	33	0	564133888	48	5952
2026-01-28 02:02:13.68	243.73	25.74	-37.6	-38.5	23.6	0.00e+00	41	33	0	566231040	48	6061
2026-01-28 02:02:14.69	244.01	25.81	-37.7	-38.5	23.5	0.00e+00	92	32	0	568328192	48	6097
2026-01-28 02:02:15.70	244.28	25.88	-37.8	-38.7	23.5	0.00e+00	92	33	0	569376768	48	6189
2026-01-28 02:02:16.71	244.56	25.95	-37.7	-38.5	23.5	0.00e+00	0	33	0	571473920	48	6103
2026-01-28 02:02:17.72	244.84	26.02	-37.5	-38.3	23.7	0.00e+00	76	33	0	573571072	48	5962
2026-01-28 02:02:18.72	245.12	26.09	-37.4	-38.2	23.8	0.00e+00	0	33	0	575668224	48	5877
2026-01-28 02:02:19.74	245.41	26.15	-37.5	-38.4	23.6	0.00e+00	90	33	0	577765376	48	5991
2026-01-28 02:02:20.74	245.69	26.22	-38.1	-39.1	23.2	0.00e+00	0	32	0	578813952	48	6466
2026-01-28 02:02:21.75	245.97	26.29	-38.5	-39.5	22.8	0.00e+00	92	32	0	580911104	48	6807
2026-01-28 02:02:22.76	246.26	26.35	-38.7	-39.7	22.8	0.00e+00	91	33	0	583008256	48	6929
2026-01-28 02:02:23.77	246.54	26.42	-38.4	-39.3	23.1	0.00e+00	0	32	0	585105408	50	5918
2026-01-28 02:02:24.78	246.83	26.48	-37.9	-38.8	23.5	0.00e+00	88	33	0	587202560	50	5592
2026-01-28 02:02:25.79	247.12	26.54	-37.6	-38.4	23.8	0.00e+00	0	33	0	589299712	48	6020
2026-01-28 02:02:26.80	247.41	26.61	-37.3	-38.1	23.9	0.00e+00	92	32	0	590348288	48	5824
2026-01-28 02:02:27.81	247.70	26.67	-37.2	-38.0	24.0	0.00e+00	0	32	0	592445440	48	5752
2026-01-28 02:02:28.82	247.99	26.73	-37.5	-38.4	23.7	0.00e+00	92	33	0	594542592	48	6018
2026-01-28 02:02:29.83	248.29	26.79	-38.0	-38.9	23.2	0.00e+00	90	32	0	596639744	48	6359
2026-01-28 02:02:30.85	248.58	26.85	-38.4	-39.3	23.0	0.00e+00	32	32	0	598736896	48	6686
2026-01-28 02:02:31.86	248.88	26.91	-38.5	-39.5	22.9	0.00e+00	92	33	0	599785472	48	6801
2026-01-28 02:02:32.86	249.17	26.97	-38.7	-39.7	22.8	0.00e+00	0	32	0	601882624	48	6964
2026-01-28 02:02:33.87	249.47	27.03	-38.5	-39.5	22.9	0.00e+00	92	32	0	603979776	50	6051
2026-01-28 02:02:34.88	249.77	27.09	-38.1	-39.0	23.2	0.00e+00	0	32	0	606076928	50	5719
2026-01-28 02:02:35.89	250.07	27.14	-38.0	-38.9	23.3	0.00e+00	92	32	0	608174080	50	5648
2026-01-28 02:02:36.90	250.37	27.20	-38.1	-39.0	23.3	0.00e+00	90	33	0	609222656	48	6426
2026-01-28 02:02:37.91	250.67	27.25	-37.6	-38.5	23.6	0.00e+00	0	32	0	611319808	48	6091
2026-01-28 02:02:38.92	250.97	27.31	-37.7	-38.6	23.6	0.00e+00	92	32	0	613416960	48	6124
2026-01-28 02:02:39.93	251.28	27.36	-37.6	-38.4	23.7	0.00e+00	0	33	0	615514112	48	6001
2026-01-28 02:02:40.94	251.58	27.42	-37.5	-38.3	23.8	0.00e+00	92	33	0	617611264	48	5960
2026-01-28 02:02:41.95	251.89	27.47	-37.8	-38.7	23.5	0.00e+00	0	33	0	618659840	48	6185
2026-01-28 02:02:42.96	252.20	27.52	-38.2	-39.1	23.1	0.00e+00	92	32	0	620756992	48	6494
2026-01-28 02:02:43.97	252.50	27.57	-38.5	-39.5	22.9	0.00e+00	1	33	0	622854144	48	6777
2026-01-28 02:02:44.98	252.81	27.62	-38.7	-39.6	22.8	0.00e+00	90	32	0	624951296	48	6925
2026-01-28 02:02:45.99	253.12	27.67	-38.5	-39.4	22.9	0.00e+00	92	32	0	627048448	48	6760
2026-01-28 02:02:47.00	253.43	27.72	-38.4	-39.3	23.1	0.00e+00	0	33	0	628097024	48	6647
2026-01-28 02:02:48.01	253.74	27.77	-38.0	-38.9	23.2	0.00e+00	79	33	0	630194176	48	6344
2026-01-28 02:02:49.02	254.06	27.81	-38.3	-39.2	23.2	0.00e+00	0	32	0	632291328	48	6570
2026-01-28 02:02:50.03	254.37	27.86	-38.8	-39.8	22.7	0.00e+00	92	33	0	634388480	48	7033
2026-01-28 02:02:51.04	254.68	27.91	-39.5	-40.6	22.0	0.00e+00	0	33	0	636485632	50	6884
2026-01-28 02:02:52.05	255.00	27.95	-40.1	-41.2	21.5	0.00e+00	92	33	0	637534208	52	6583
2026-01-28 02:02:53.06	255.31	27.99	-40.7	-41.9	21.0	0.00e+00	90	33	0	639631360	54	6330
2026-01-28 02:02:54.07	255.63	28.04	-40.8	-42.0	20.9	0.00e+00	0	33	0	641728512	54	6424
2026-01-28 02:02:55.08	255.95	28.08	-40.4	-41.6	21.2	0.00e+00	92	33	0	643825664	54	6107
2026-01-28 02:02:56.09	256.27	28.12	-40.7	-41.8	20.9	0.00e+00	0	33	0	645922816	54	6305
2026-01-28 02:02:57.10	256.59	28.16	-40.6	-41.8	21.0	0.00e+00	59	33	0	646971392	54	6288
2026-01-28 02:02:58.11	256.91	28.20	-41.2	-42.5	20.4	0.00e+00	0	33	0	649068544	54	6813
2026-01-28 02:02:59.11	257.22	28.24	-41.6	-43.0	20.0	0.00e+00	89	32	0	651165696	54	7210
2026-01-28 02:03:00.12	257.54	28.27	-42.0	-43.5	19.6	0.00e+00	57	33	0	653262848	56	6807
2026-01-28 02:03:01.13	257.87	28.31	-41.2	-42.5	20.6	0.00e+00	0	33	0	655360000	56	6055
2026-01-28 02:03:02.14	258.19	28.35	-41.2	-42.5	20.5	0.00e+00	90	33	0	657457152	56	6071
2026-01-28 02:03:03.15	258.51	28.38	-41.1	-42.4	20.5	0.00e+00	33	33	0	658505728	56	5999
2026-01-28 02:03:04.16	258.84	28.41	-41.5	-42.9	20.1	0.00e+00	92	33	0	660602880	56	6345
2026-01-28 02:03:05.17	259.16	28.45	-41.8	-43.3	19.7	0.00e+00	0	33	0	662700032	56	6631
2026-01-28 02:03:06.18	259.49	28.48	-41.7	-43.1	19.8	0.00e+00	92	33	0	664797184	56	6533
2026-01-28 02:03:07.19	259.81	28.51	-40.8	-42.0	21.1	0.00e+00	37	33	0	666894336	56	5722
2026-01-28 02:03:08.20	260.14	28.54	-39.9	-41.0	21.6	0.00e+00	0	33	0	667942912	54	5740
2026-01-28 02:03:09.21	260.47	28.57	-39.7	-40.8	21.9	0.00e+00	90	33	0	670040064	52	6251
2026-01-28 02:03:10.23	260.80	28.60	-40.0	-41.1	21.6	0.00e+00	0	33	0	672137216	52	6497
2026-01-28 02:03:11.24	261.13	28.62	-40.4	-41.5	21.2	0.00e+00	92	33	0	674234368	52	6841
2026-01-28 02:03:12.24	261.45	28.65	-40.6	-41.8	21.0	0.00e+00	0	33	0	676331520	52	7061
2026-01-28 02:03:13.25	261.78	28.67	-40.8	-42.0	20.8	0.00e+00	92	33	0	677380096	54	6395
2026-01-28 02:03:14.26	262.11	28.70	-40.1	-41.2	21.5	0.00e+00	0	33	0	679477248	54	5832
2026-01-28 02:03:15.27	262.44	28.72	-40.1	-41.2	21.5	0.00e+00	92	33	0	681574400	54	5877
2026-01-28 02:03:16.28	262.77	28.74	-39.9	-41.0	21.7	0.00e+00	92	33	0	683671552	52	6417
2026-01-28 02:03:17.29	263.10	28.76	-40.2	-41.3	21.4	0.00e+00	0	33	0	685768704	52	6684
2026-01-28 02:03:18.30	263.43	28.78	-40.3	-41.5	21.2	0.00e+00	92	33	0	686817280	52	6827
2026-01-28 02:03:19.31	263.77	28.80	-39.8	-40.9	21.9	0.00e+00	0	33	0	688914432	52	6365
2026-01-28 02:03:20.32	264.10	28.82	-39.3	-40.3	22.3	0.00e+00	92	33	0	691011584	52	5956
2026-01-28 02:03:21.33	264.43	28.84	-38.9	-39.9	22.5	0.00e+00	33	33	0	693108736	52	5652
2026-01-28 02:03:22.34	264.76	28.85	-39.3	-40.3	22.4	0.00e+00	92	33	0	695205888	52	5914
2026-01-28 02:03:23.35	265.10	28.87	-39.3	-40.4	22.2	0.00e+00	92	33	0	697303040	52	5967
2026-01-28 02:03:24.36	265.43	28.88	-39.4	-40.4	22.1	0.00e+00	0	33	0	698351616	52	6030
2026-01-28 02:03:25.37	265.76	28.90	-39.4	-40.4	22.2	0.00e+00	81	33	0	700448768	52	6000
2026-01-28 02:03:26.38	266.10	28.91	-39.3	-40.3	22.3	0.00e+00	0	33	0	702545920	52	5903
2026-01-28 02:03:27.39	266.43	28.92	-38.9	-39.9	22.8	0.00e+00	92	33	0	704643072	52	5639
2026-01-28 02:03:28.40	266.77	28.93	-38.8	-39.8	22.7	0.00e+00	0	33	0	706740224	50	6275
2026-01-28 02:03:29.41	267.10	28.94	-39.1	-40.1	22.4	0.00e+00	92	33	0	707788800	50	6533
2026-01-28 02:03:30.42	267.44	28.95	-39.4	-40.5	22.1	0.00e+00	91	32	0	709885952	50	6783
2026-01-28 02:03:31.43	267.77	28.95	-39.1	-40.1	22.5	0.00e+00	33	33	0	711983104	50	6490
2026-01-28 02:03:32.44	268.11	28.96	-39.0	-40.0	22.5	0.00e+00	90	33	0	714080256	50	6439
2026-01-28 02:03:33.45	268.44	28.96	-39.0	-40.0	22.6	0.00e+00	0	33	0	716177408	50	6422
2026-01-28 02:03:34.46	268.78	28.97	-38.8	-39.8	22.8	0.00e+00	90	33	0	717225984	50	6281
2026-01-28 02:03:35.47	269.11	28.97	-38.9	-39.8	22.6	0.00e+00	0	33	0	719323136	50	6287
2026-01-28 02:03:36.48	269.45	28.97	-38.8	-39.7	22.7	0.00e+00	92	33	0	721420288	50	6231
2026-01-28 02:03:37.49	269.78	28.97	-39.0	-40.0	22.4	0.00e+00	89	33	0	723517440	50	6432
2026-01-28 02:03:38.50	270.12	28.97	-39.3	-40.3	22.3	0.00e+00	78	33	0	725614592	50	6650
2026-01-28 02:03:39.51	270.45	28.97	-39.3	-40.4	22.2	0.00e+00	92	33	0	726663168	50	6703
2026-01-28 02:03:40.52	270.79	28.97	-38.9	-39.9	22.7	0.00e+00	0	33	0	728760320	50	6327
2026-01-28 02:03:41.53	271.13	28.96	-38.5	-39.5	22.9	0.00e+00	92	33	0	730857472	50	6035
2026-01-28 02:03:42.54	271.46	28.96	-38.7	-39.6	22.8	0.00e+00	0	33	0	732954624	50	6140
2026-01-28 02:03:43.55	271.80	28.95	-39.0	-39.9	22.4	0.00e+00	92	33	0	735051776	50	6383
2026-01-28 02:03:44.56	272.13	28.94	-39.7	-40.8	21.8	0.00e+00	92	33	0	736100352	50	7047
2026-01-28 02:03:45.57	272.47	28.94	-40.4	-41.6	21.3	0.00e+00	92	33	0	738197504	52	6855
2026-01-28 02:03:46.58	272.80	28.93	-40.2	-41.3	21.4	0.00e+00	92	33	0	740294656	52	6691
2026-01-28 02:03:47.59	273.13	28.92	-40.3	-41.4	21.2	0.00e+00	0	33	0	742391808	52	6763
2026-01-28 02:03:48.60	273.47	28.91	-40.3	-41.4	21.3	0.00e+00	90	33	0	744488960	52	6763
2026-01-28 02:03:49.61	273.80	28.89	-40.5	-41.6	21.0	0.00e+00	0	33	0	745537536	52	6915
2026-01-28 02:03:50.62	274.14	28.88	-40.7	-41.9	21.1	0.00e+00	91	33	0	747634688	52	7133
2026-01-28 02:03:51.63	274.47	28.87	-39.9	-41.0	21.7	0.00e+00	32	33	0	749731840	52	6448
2026-01-28 02:03:52.64	274.80	28.85	-39.2	-40.2	22.4	0.00e+00	92	33	0	751828992	52	5874
2026-01-28 02:03:53.65	275.13	28.84	-38.4	-39.3	23.1	0.00e+00	92	33	0	753926144	50	5903
2026-01-28 02:03:54.66	275.47	28.82	-38.0	-38.9	23.4	0.00e+00	0	33	0	754974720	50	5665
2026-01-28 02:03:55.67	275.80	28.80	-38.1	-38.9	23.3	0.00e+00	92	33	0	757071872	50	5687
2026-01-28 02:03:56.68	276.13	28.78	-38.4	-39.4	22.8	0.00e+00	0	33	0	759169024	50	5968
2026-01-28 02:03:57.69	276.46	28.76	-39.2	-40.3	22.3	0.00e+00	92	33	0	761266176	50	6616
2026-01-28 02:03:58.69	276.79	28.74	-39.7	-40.7	21.8	0.00e+00	89	33	0	763363328	50	6980
2026-01-28 02:03:59.70	277.12	28.72	-40.1	-41.1	21.7	0.00e+00	72	33	0	765460480	52	6520
2026-01-28 02:04:00.71	277.45	28.69	-40.6	-41.7	21.1	0.00e+00	92	33	0	766509056	52	6999
2026-01-28 02:04:01.72	277.78	28.67	-40.7	-41.9	21.0	0.00e+00	0	33	0	768606208	54	6375
2026-01-28 02:04:02.73	278.11	28.65	-41.2	-42.5	20.4	0.00e+00	79	33	0	770703360	54	6798
2026-01-28 02:04:03.74	278.44	28.62	-41.1	-42.3	20.5	0.00e+00	0	33	0	772800512	54	6680
2026-01-28 02:04:04.74	278.76	28.59	-40.5	-41.6	21.1	0.00e+00	92	33	0	773849088	54	6170
2026-01-28 02:04:05.75	279.09	28.56	-40.5	-41.6	21.1	0.00e+00	65	33	0	775946240	54	6142
2026-01-28 02:04:06.77	279.42	28.53	-40.1	-41.2	21.5	0.00e+00	92	33	0	778043392	54	5867
2026-01-28 02:04:07.78	279.74	28.50	-40.2	-41.4	21.3	0.00e+00	90	33	0	780140544	54	5981
2026-01-28 02:04:08.79	280.07	28.47	-41.0	-42.2	20.6	0.00e+00	0	33	0	782237696	54	6595
2026-01-28 02:04:09.79	280.39	28.44	-41.9	-43.4	19.5	0.00e+00	70	33	0	783286272	56	6709
2026-01-28 02:04:10.80	280.71	28.41	-42.7	-44.4	18.5	0.00e+00	0	33	0	785383424	56	7530
2026-01-28 02:04:11.81	281.04	28.38	-43.2	-45.1	18.1	0.00e+00	92	33	0	787480576	58	7264
2026-01-28 02:04:12.83	281.36	28.34	-42.9	-44.7	18.6	0.00e+00	0	33	0	789577728	58	6930
2026-01-28 02:04:13.84	281.69	28.30	-42.2	-43.8	19.0	0.00e+00	91	33	0	791674880	58	6253
2026-01-28 02:04:14.84	282.00	28.27	-41.6	-43.0	20.1	0.00e+00	91	33	0	793772032	56	6423
2026-01-28 02:04:15.86	282.33	28.23	-41.4	-42.7	20.3	0.00e+00	0	33	0	794820608	56	6228
2026-01-28 02:04:16.87	282.65	28.19	-40.6	-41.8	21.0	0.00e+00	92	33	0	796917760	54	6261
2026-01-28 02:04:17.88	282.97	28.15	-40.1	-41.1	21.6	0.00e+00	0	33	0	799014912	54	5825
2026-01-28 02:04:18.89	283.28	28.11	-39.6	-40.6	22.0	0.00e+00	87	33	0	801112064	52	6128
2026-01-28 02:04:19.89	283.60	28.07	-39.5	-40.5	22.1	0.00e+00	0	33	0	803209216	52	6095
2026-01-28 02:04:20.91	283.92	28.03	-39.4	-40.4	22.2	0.00e+00	92	33	0	804257792	52	5999
2026-01-28 02:04:21.92	284.23	27.99	-39.5	-40.6	22.0	0.00e+00	91	33	0	806354944	52	6131
2026-01-28 02:04:22.92	284.55	27.94	-40.1	-41.2	21.5	0.00e+00	0	33	0	808452096	52	6559
2026-01-28 02:04:23.93	284.86	27.90	-40.0	-41.1	21.7	0.00e+00	91	33	0	810549248	52	6525
2026-01-28 02:04:24.94	285.17	27.86	-39.4	-40.4	22.3	0.00e+00	0	33	0	812646400	52	5977
2026-01-28 02:04:25.95	285.49	27.81	-39.0	-40.0	22.6	0.00e+00	92	33	0	813694976	52	5707
2026-01-28 02:04:26.96	285.80	27.76	-38.9	-39.9	22.6	0.00e+00	0	33	0	815792128	52	5645
2026-01-28 02:04:27.97	286.11	27.71	-39.0	-40.0	22.4	0.00e+00	92	33	0	817889280	50	6435
2026-01-28 02:04:28.98	286.42	27.67	-39.5	-40.5	22.0	0.00e+00	92	33	0	819986432	50	6847
2026-01-28 02:04:29.99	286.73	27.62	-39.3	-40.4	22.3	0.00e+00	19	33	0	822083584	50	6695
2026-01-28 02:04:31.00	287.04	27.57	-38.6	-39.6	22.8	0.00e+00	90	33	0	823132160	50	6115
2026-01-28 02:04:32.01	287.34	27.52	-38.3	-39.2	23.2	0.00e+00	0	33	0	825229312	50	5871
2026-01-28 02:04:33.02	287.65	27.46	-38.2	-39.1	23.1	0.00e+00	90	33	0	827326464	50	5784
2026-01-28 02:04:34.03	287.95	27.41	-38.4	-39.3	23.1	0.00e+00	0	33	0	829423616	50	5960
2026-01-28 02:04:35.04	288.26	27.36	-38.7	-39.6	22.8	0.00e+00	92	33	0	831520768	50	6155
2026-01-28 02:04:36.05	288.56	27.31	-39.3	-40.3	22.2	0.00e+00	40	32	0	832569344	50	6619
2026-01-28 02:04:37.06	288.86	27.25	-39.5	-40.6	22.0	0.00e+00	0	33	0	834666496	50	6890
2026-01-28 02:04:38.07	289.16	27.20	-39.9	-41.1	21.6	0.00e+00	92	33	0	836763648	52	6472
2026-01-28 02:04:39.07	289.46	27.14	-39.4	-40.4	22.0	0.00e+00	0	33	0	838860800	52	6022
2026-01-28 02:04:40.08	289.76	27.08	-39.1	-40.1	22.6	0.00e+00	53	33	0	840957952	52	5801
2026-01-28 02:04:41.09	290.06	27.03	-38.3	-39.2	23.2	0.00e+00	0	33	0	842006528	50	5884
2026-01-28 02:04:42.10	290.35	26.97	-38.5	-39.5	22.8	0.00e+00	92	32	0	844103680	50	6048
2026-01-28 02:04:43.11	290.65	26.91	-38.8	-39.8	22.7	0.00e+00	0	33	0	846200832	50	6251
2026-01-28 02:04:44.12	290.94	26.85	-38.8	-39.7	22.8	0.00e+00	86	33	0	848297984	50	6218
2026-01-28 02:04:45.13	291.24	26.79	-38.8	-39.7	22.7	0.00e+00	92	33	0	850395136	50	6242
2026-01-28 02:04:46.14	291.53	26.73	-38.0	-38.9	23.4	0.00e+00	0	32	0	851443712	50	5664
2026-01-28 02:04:47.15	291.82	26.67	-37.6	-38.5	23.6	0.00e+00	74	33	0	853540864	48	6043
2026-01-28 02:04:48.16	292.11	26.61	-37.7	-38.6	23.6	0.00e+00	0	32	0	855638016	48	6108
2026-01-28 02:04:49.17	292.40	26.54	-37.9	-38.8	23.4	0.00e+00	90	33	0	857735168	48	6286
2026-01-28 02:04:50.18	292.69	26.48	-37.8	-38.6	23.4	0.00e+00	0	32	0	859832320	48	6165
2026-01-28 02:04:51.19	292.97	26.42	-37.8	-38.6	23.5	0.00e+00	92	33	0	861929472	48	6167
2026-01-28 02:04:52.20	293.26	26.35	-37.7	-38.6	23.6	0.00e+00	92	33	0	862978048	48	6139
2026-01-28 02:04:53.20	293.54	26.29	-37.3	-38.2	23.5	0.00e+00	33	33	0	865075200	48	5832
2026-01-28 02:04:54.22	293.83	26.22	-37.2	-38.1	24.1	0.00e+00	36	32	0	867172352	48	5763
2026-01-28 02:04:55.23	294.11	26.15	-37.2	-38.0	24.0	0.00e+00	0	33	0	869269504	48	5727
2026-01-28 02:04:56.23	294.39	26.09	-37.1	-37.9	24.0	0.00e+00	92	33	0	871366656	48	5673
2026-01-28 02:04:57.24	294.67	26.02	-37.3	-38.1	24.0	0.00e+00	33	33	0	872415232	48	5819
2026-01-28 02:04:58.25	294.94	25.95	-37.6	-38.4	23.5	0.00e+00	92	33	0	874512384	48	6006
2026-01-28 02:04:59.26	295.22	25.89	-37.5	-38.4	23.6	0.00e+00	62	32	0	876609536	48	5981
2026-01-28 02:05:00.27	295.50	25.82	-37.5	-38.4	23.8	0.00e+00	0	33	0	878706688	48	5985
2026-01-28 02:05:01.28	295.77	25.75	-37.5	-38.4	23.8	0.00e+00	90	33	0	880803840	48	5984
2026-01-28 02:05:02.29	296.05	25.68	-37.7	-38.5	23.7	0.00e+00	0	33	0	881852416	48	6086
2026-01-28 02:05:03.30	296.32	25.61	-37.6	-38.5	23.7	0.00e+00	92	33	0	883949568	48	6048
2026-01-28 02:05:04.31	296.59	25.54	-37.7	-38.6	23.1	0.00e+00	0	32	0	886046720	48	6140
2026-01-28 02:05:05.32	296.86	25.47	-37.8	-38.7	23.5	0.00e+00	91	33	0	888143872	48	6185
2026-01-28 02:05:06.33	297.13	25.39	-37.8	-38.6	23.6	0.00e+00	69	33	0	890241024	48	6163
2026-01-28 02:05:07.33	297.40	25.32	-36.7	-37.5	24.2	0.00e+00	0	33	0	891289600	48	5404
2026-01-28 02:05:08.34	297.66	25.25	-36.5	-37.2	24.7	0.00e+00	92	33	0	893386752	46	5895
2026-01-28 02:05:09.35	297.93	25.18	-36.3	-37.0	24.6	0.00e+00	33	33	0	895483904	46	5741
2026-01-28 02:05:10.36	298.19	25.10	-36.2	-37.0	24.7	0.00e+00	85	33	0	897581056	46	5700
2026-01-28 02:05:11.37	298.46	25.03	-36.6	-37.4	24.4	0.00e+00	0	33	0	899678208	46	6023
2026-01-28 02:05:12.38	298.72	24.95	-37.3	-38.1	23.9	0.00e+00	91	33	0	900726784	46	6504
2026-01-28 02:05:13.39	298.98	24.88	-37.6	-38.4	23.7	0.00e+00	91	33	0	902823936	46	6739
2026-01-28 02:05:14.40	299.24	24.80	-37.9	-38.8	23.4	0.00e+00	0	33	0	904921088	48	6249
2026-01-28 02:05:15.41	299.50	24.73	-37.9	-38.8	23.4	0.00e+00	80	33	0	907018240	48	6290
2026-01-28 02:05:16.42	299.75	24.65	-37.6	-38.5	23.7	0.00e+00	0	33	0	909115392	48	6073
2026-01-28 02:05:17.43	300.01	24.58	-37.4	-38.3	23.8	0.00e+00	92	33	0	910163968	48	5925
2026-01-28 02:05:18.44	300.26	24.50	-37.2	-38.1	24.0	0.00e+00	0	33	0	912261120	48	5788
2026-01-28 02:05:19.45	300.52	24.42	-37.0	-37.9	24.0	0.00e+00	92	33	0	914358272	48	5640
2026-01-28 02:05:20.46	300.77	24.35	-37.0	-37.9	24.2	0.00e+00	0	33	0	916455424	48	5637
2026-01-28 02:05:21.47	301.02	24.27	-37.0	-37.8	24.1	0.00e+00	0	33	0	918552576	48	5623
2026-01-28 02:05:22.48	301.27	24.19	-37.1	-37.9	24.1	0.00e+00	92	33	0	919601152	48	5656
2026-01-28 02:05:23.49	301.52	24.11	-36.6	-37.4	24.5	0.00e+00	33	33	0	921698304	46	6010
2026-01-28 02:05:24.50	301.77	24.03	-36.8	-37.6	24.3	0.00e+00	82	33	0	923795456	46	6112
2026-01-28 02:05:25.51	302.01	23.96	-36.4	-37.2	24.6	0.00e+00	0	33	0	925892608	46	5885
2026-01-28 02:05:26.52	302.26	23.88	-36.4	-37.2	24.6	0.00e+00	92	33	0	927989760	46	5890
2026-01-28 02:05:27.53	302.50	23.80	-36.4	-37.2	24.6	0.00e+00	0	33	0	929038336	46	5844
2026-01-28 02:05:28.54	302.74	23.72	-36.7	-37.5	24.4	0.00e+00	15	33	0	931135488	46	6071
2026-01-28 02:05:29.55	302.98	23.64	-37.0	-37.8	24.2	0.00e+00	92	33	0	933232640	46	6314
2026-01-28 02:05:30.56	303.22	23.56	-37.2	-38.1	23.9	0.00e+00	0	33	0	935329792	46	6472
2026-01-28 02:05:31.57	303.46	23.48	-37.3	-38.1	23.9	0.00e+00	0	33	0	937426944	46	6514
2026-01-28 02:05:32.58	303.70	23.40	-37.4	-38.2	23.9	0.00e+00	0	33	0	939524096	46	6595
2026-01-28 02:05:33.59	303.94	23.31	-37.4	-38.3	23.8	0.00e+00	52	33	0	940572672	46	6626
2026-01-28 02:05:34.60	304.17	23.23	-37.0	-37.8	24.1	0.00e+00	0	33	0	942669824	46	6276
2026-01-28 02:05:35.61	304.41	23.15	-36.9	-37.7	24.3	0.00e+00	92	33	0	944766976	46	6243
2026-01-28 02:05:36.62	304.64	23.07	-36.9	-37.7	24.2	0.00e+00	87	33	0	946864128	46	6217
2026-01-28 02:05:37.63	304.87	22.99	-36.9	-37.7	24.3	0.00e+00	0	33	0	948961280	46	6231
2026-01-28 02:05:38.64	305.10	22.91	-37.0	-37.8	24.1	0.00e+00	74	33	0	950009856	46	6299
2026-01-28 02:05:39.65	305.33	22.82	-37.7	-38.6	23.6	0.00e+00	0	33	0	952107008	46	6873
2026-01-28 02:05:40.66	305.56	22.74	-37.7	-38.6	23.6	0.00e+00	75	33	0	954204160	46	6866
2026-01-28 02:05:41.68	305.79	22.66	-37.7	-38.6	23.6	0.00e+00	0	33	0	956301312	46	6871
2026-01-28 02:05:42.69	306.01	22.57	-37.5	-38.3	23.8	0.00e+00	91	33	0	958398464	46	6666
2026-01-28 02:05:43.70	306.24	22.49	-37.4	-38.2	23.7	0.00e+00	87	33	0	959447040	46	6599
2026-01-28 02:05:44.71	306.46	22.41	-37.6	-38.5	23.6	0.00e+00	0	33	0	961544192	46	6798
2026-01-28 02:05:45.72	306.68	22.33	-37.2	-38.0	24.1	0.00e+00	92	33	0	963641344	46	6443
2026-01-28 02:05:46.73	306.90	22.24	-37.5	-38.3	23.8	0.00e+00	0	33	0	965738496	46	6679
2026-01-28 02:05:47.74	307.12	22.16	-38.0	-39.0	23.2	0.00e+00	88	33	0	967835648	48	6398
2026-01-28 02:05:48.74	307.34	22.07	-38.2	-39.2	23.2	0.00e+00	0	33	0	968884224	48	6563
2026-01-28 02:05:49.75	307.56	21.99	-38.5	-39.5	22.8	0.00e+00	85	33	0	970981376	48	6776
2026-01-28 02:05:50.76	307.77	21.91	-38.2	-39.1	23.2	0.00e+00	88	33	0	973078528	48	6519
2026-01-28 02:05:51.78	307.99	21.82	-37.6	-38.4	23.7	0.00e+00	0	33	0	975175680	48	6028
2026-01-28 02:05:52.78	308.20	21.74	-37.5	-38.4	23.8	0.00e+00	85	33	0	977272832	48	5965
2026-01-28 02:05:53.80	308.42	21.65	-37.1	-37.9	23.9	0.00e+00	0	33	0	978321408	48	5693
2026-01-28 02:05:54.81	308.63	21.57	-37.0	-37.8	24.2	0.00e+00	88	33	0	980418560	48	5601
2026-01-28 02:05:55.81	308.84	21.48	-37.0	-37.8	24.1	0.00e+00	0	33	0	982515712	48	5628
2026-01-28 02:05:56.82	309.05	21.40	-37.1	-37.9	23.9	0.00e+00	88	33	0	984612864	48	5672
2026-01-28 02:05:57.83	309.26	21.32	-37.7	-38.6	23.6	0.00e+00	0	32	0	986710016	48	6155
2026-01-28 02:05:58.84	309.46	21.23	-37.9	-38.8	23.3	0.00e+00	0	33	0	987758592	48	6251
2026-01-28 02:05:59.85	309.67	21.15	-37.9	-38.8	23.4	0.00e+00	92	32	0	989855744	48	6292
2026-01-28 02:06:00.86	309.88	21.06	-37.6	-38.5	23.7	0.00e+00	0	33	0	991952896	48	6087
2026-01-28 02:06:01.87	310.08	20.97	-37.6	-38.4	23.6	0.00e+00	39	33	0	994050048	48	6019
2026-01-28 02:06:02.88	310.28	20.89	-37.9	-38.8	23.3	0.00e+00	0	33	0	996147200	48	6302
2026-01-28 02:06:03.89	310.48	20.80	-38.3	-39.3	23.0	0.00e+00	92	33	0	997195776	48	6628
2026-01-28 02:06:04.90	310.68	20.72	-38.6	-39.6	22.8	0.00e+00	0	33	0	999292928	48	6856
2026-01-28 02:06:05.91	310.88	20.63	-38.9	-39.9	22.5	0.00e+00	0	33	0	1001390080	50	6320
2026-01-28 02:06:06.92	311.08	20.55	-38.7	-39.7	22.7	0.00e+00	92	33	0	1003487232	50	6193
2026-01-28 02:06:07.93	311.28	20.46	-38.4	-39.3	23.0	0.00e+00	0	33	0	1005584384	50	5927
2026-01-28 02:06:08.94	311.48	20.38	-38.2	-39.1	23.1	0.00e+00	38	33	0	1007681536	50	5797
2026-01-28 02:06:09.95	311.67	20.29	-37.4	-38.2	23.7	0.00e+00	0	33	0	1008730112	48	5873
2026-01-28 02:06:10.96	311.87	20.21	-37.1	-37.9	24.1	0.00e+00	92	33	0	1010827264	48	5671
2026-01-28 02:06:11.97	312.06	20.12	-36.7	-37.5	24.3	0.00e+00	0	33	0	1012924416	46	6040
2026-01-28 02:06:12.98	312.25	20.03	-36.7	-37.5	24.3	0.00e+00	55	33	0	1015021568	46	6062
2026-01-28 02:06:13.99	312.44	19.95	-37.2	-38.1	23.8	0.00e+00	31	33	0	1017118720	46	6498
2026-01-28 02:06:15.00	312.63	19.86	-37.5	-38.3	23.5	0.00e+00	0	33	0	1018167296	46	6679
2026-01-28 02:06:16.01	312.82	19.78	-38.3	-39.2	23.0	0.00e+00	39	33	0	1020264448	48	6605
2026-01-28 02:06:17.02	313.01	19.69	-38.7	-39.7	22.6	0.00e+00	0	33	0	1022361600	50	6242
2026-01-28 02:06:18.03	313.20	19.61	-38.6	-39.6	22.7	0.00e+00	87	33	0	1024458752	50	6116
2026-01-28 02:06:19.04	313.38	19.52	-38.5	-39.5	22.8	0.00e+00	0	33	0	1026555904	50	6064
2026-01-28 02:06:20.05	313.57	19.44	-38.2	-39.2	23.0	0.00e+00	25	33	0	1027604480	50	5831
2026-01-28 02:06:21.07	313.75	19.35	-37.8	-38.7	23.3	0.00e+00	0	33	0	1029701632	50	5504
2026-01-28 02:06:22.08	313.94	19.26	-37.8	-38.7	23.3	0.00e+00	0	33	0	1031798784	50	5549
2026-01-28 02:06:23.08	314.12	19.18	-37.7	-38.6	23.5	0.00e+00	3	33	0	1033895936	48	6131
2026-01-28 02:06:24.09	314.30	19.09	-37.8	-38.6	23.5	0.00e+00	0	33	0	1035993088	48	6172
2026-01-28 02:06:25.11	314.48	19.01	-38.0	-38.9	23.2	0.00e+00	92	33	0	1037041664	48	6329
2026-01-28 02:06:26.11	314.66	18.92	-38.0	-39.0	23.3	0.00e+00	0	33	0	1039138816	48	6409
2026-01-28 02:06:27.12	314.84	18.84	-38.0	-38.9	23.2	0.00e+00	91	33	0	1041235968	48	6354
2026-01-28 02:06:28.14	315.01	18.75	-37.8	-38.7	23.3	0.00e+00	0	33	0	1043333120	48	6215
2026-01-28 02:06:29.15	315.19	18.66	-37.3	-38.2	23.8	0.00e+00	0	33	0	1045430272	48	5870
2026-01-28 02:06:30.16	315.37	18.58	-37.1	-38.0	23.8	0.00e+00	37	33	0	1047527424	48	5708
2026-01-28 02:06:31.17	315.54	18.49	-37.0	-37.8	24.1	0.00e+00	33	33	0	1048576000	48	5597
2026-01-28 02:06:32.17	315.71	18.41	-36.8	-37.6	24.2	0.00e+00	92	33	0	1050673152	46	6151
2026-01-28 02:06:33.19	315.88	18.32	-37.0	-37.8	24.0	0.00e+00	0	33	0	1052770304	46	6291
2026-01-28 02:06:34.19	316.05	18.24	-37.3	-38.1	23.8	0.00e+00	92	33	0	1054867456	46	6516
2026-01-28 02:06:35.20	316.22	18.15	-37.3	-38.2	23.8	0.00e+00	33	33	0	1056964608	46	6540
2026-01-28 02:06:36.21	316.39	18.07	-37.6	-38.5	23.5	0.00e+00	0	33	0	1058013184	46	6818
2026-01-28 02:06:37.22	316.56	17.98	-37.8	-38.7	23.4	0.00e+00	90	33	0	1060110336	48	6222
2026-01-28 02:06:38.23	316.73	17.90	-37.4	-38.3	23.7	0.00e+00	0	33	0	1062207488	48	5928
2026-01-28 02:06:39.24	316.90	17.81	-37.5	-38.4	23.6	0.00e+00	90	33	0	1064304640	48	5976
2026-01-28 02:06:40.25	317.06	17.73	-37.4	-38.3	23.6	0.00e+00	0	33	0	1065353216	48	5927
2026-01-28 02:06:41.26	317.23	17.64	-37.4	-38.3	23.6	0.00e+00	86	33	0	1067450368	48	5909
2026-01-28 02:06:42.27	317.39	17.56	-37.6	-38.5	23.5	0.00e+00	17	33	0	1069547520	48	6036
2026-01-28 02:06:43.27	317.55	17.48	-38.0	-38.9	23.3	0.00e+00	0	33	0	1071644672	48	6331
2026-01-28 02:06:44.29	317.72	17.39	-38.2	-39.2	22.9	0.00e+00	92	33	0	1073741824	48	6550
2026-01-28 02:06:45.29	317.88	17.31	-38.6	-39.6	22.6	0.00e+00	0	33	0	1075838976	48	6865
2026-01-28 02:06:46.30	318.04	17.22	-38.7	-39.7	22.5	0.00e+00	89	32	0	1076887552	50	6218
2026-01-28 02:06:47.31	318.20	17.14	-39.0	-40.0	22.2	0.00e+00	0	33	0	1078984704	50	6449
2026-01-28 02:06:48.32	318.36	17.05	-38.8	-39.9	22.4	0.00e+00	74	33	0	1081081856	50	6328
2026-01-28 02:06:49.33	318.51	16.97	-38.6	-39.6	22.7	0.00e+00	0	33	0	1083179008	50	6157
2026-01-28 02:06:50.34	318.67	16.89	-38.3	-39.2	22.9	0.00e+00	0	33	0	1085276160	50	5884
2026-01-28 02:06:51.35	318.83	16.80	-38.2	-39.1	23.1	0.00e+00	80	33	0	1086324736	50	5809
2026-01-28 02:06:52.36	318.98	16.72	-37.7	-38.6	23.2	0.00e+00	0	33	0	1088421888	48	6165
2026-01-28 02:06:53.37	319.14	16.63	-37.6	-38.6	23.4	0.00e+00	0	33	0	1090519040	48	6105
2026-01-28 02:06:54.38	319.29	16.55	-37.5	-38.4	23.1	0.00e+00	0	33	0	1092616192	48	6011
2026-01-28 02:06:55.39	319.44	16.47	-37.6	-38.5	23.4	0.00e+00	89	33	0	1094713344	48	6067
2026-01-28 02:06:56.40	319.60	16.38	-37.6	-38.5	23.4	0.00e+00	0	33	0	1095761920	48	6035
2026-01-28 02:06:57.40	319.75	16.30	-37.7	-38.6	23.3	0.00e+00	0	33	0	1097859072	48	6156
2026-01-28 02:06:58.41	319.90	16.22	-37.4	-38.3	23.6	0.00e+00	80	33	0	1099956224	48	5919
2026-01-28 02:06:59.42	320.05	16.13	-37.2	-38.1	23.8	0.00e+00	0	33	0	1102053376	48	5762
2026-01-28 02:07:00.43	320.20	16.05	-36.9	-37.8	24.0	0.00e+00	14	33	0	1104150528	48	5579
2026-01-28 02:07:01.44	320.34	15.97	-36.9	-37.8	24.0	0.00e+00	0	33	0	1105199104	48	5573
2026-01-28 02:07:02.45	320.49	15.88	-36.9	-37.7	24.0	0.00e+00	58	33	0	1107296256	48	5528
2026-01-28 02:07:03.46	320.64	15.80	-36.9	-37.7	24.0	0.00e+00	0	33	0	1109393408	46	6185
2026-01-28 02:07:04.47	320.78	15.72	-36.8	-37.6	24.1	0.00e+00	73	33	0	1111490560	46	6124
2026-01-28 02:07:05.48	320.93	15.64	-37.1	-37.9	23.9	0.00e+00	0	33	0	1113587712	46	6349
2026-01-28 02:07:06.49	321.07	15.55	-37.3	-38.2	23.9	0.00e+00	0	32	0	1114636288	46	6565
2026-01-28 02:07:07.50	321.22	15.47	-37.4	-38.3	23.4	0.00e+00	92	33	0	1116733440	46	6621
2026-01-28 02:07:08.50	321.36	15.39	-37.7	-38.5	23.5	0.00e+00	0	33	0	1118830592	46	6845
2026-01-28 02:07:09.51	321.50	15.31	-37.8	-38.7	23.3	0.00e+00	82	33	0	1120927744	48	6200
2026-01-28 02:07:10.52	321.64	15.23	-38.0	-38.9	23.1	0.00e+00	0	33	0	1123024896	48	6375
2026-01-28 02:07:11.53	321.78	15.14	-38.1	-39.0	23.1	0.00e+00	65	33	0	1124073472	48	6415
2026-01-28 02:07:12.54	321.92	15.06	-38.4	-39.4	22.7	0.00e+00	0	33	0	1126170624	48	6696
2026-01-28 02:07:13.55	322.06	14.98	-38.6	-39.6	22.6	0.00e+00	0	33	0	1128267776	48	6852
2026-01-28 02:07:14.56	322.20	14.90	-38.5	-39.5	22.6	0.00e+00	87	33	0	1130364928	48	6832
2026-01-28 02:07:15.57	322.33	14.82	-38.6	-39.6	22.6	0.00e+00	0	33	0	1132462080	50	6144
2026-01-28 02:07:16.58	322.47	14.74	-38.6	-39.6	22.6	0.00e+00	55	33	0	1133510656	50	6140
2026-01-28 02:07:17.59	322.61	14.66	-38.5	-39.5	22.6	0.00e+00	0	33	0	1135607808	50	6040
2026-01-28 02:07:18.60	322.74	14.58	-38.4	-39.4	22.9	0.00e+00	92	33	0	1137704960	50	5992
2026-01-28 02:07:19.61	322.88	14.49	-38.0	-39.0	23.0	0.00e+00	0	33	0	1139802112	50	5721
2026-01-28 02:07:20.62	323.01	14.41	-38.1	-39.0	23.1	0.00e+00	0	33	0	1141899264	50	5739
2026-01-28 02:07:21.63	323.14	14.33	-37.9	-38.9	23.3	0.00e+00	80	33	0	1143996416	50	5651
2026-01-28 02:07:22.64	323.28	14.25	-37.6	-38.5	23.4	0.00e+00	0	33	0	1145044992	48	6077
2026-01-28 02:07:23.64	323.41	14.17	-37.7	-38.7	23.2	0.00e+00	30	33	0	1147142144	48	6198
2026-01-28 02:07:24.65	323.54	14.09	-37.8	-38.7	23.3	0.00e+00	0	33	0	1149239296	48	6233
2026-01-28 02:07:25.66	323.67	14.01	-37.7	-38.6	23.3	0.00e+00	90	33	0	1151336448	48	6134
2026-01-28 02:07:26.68	323.80	13.93	-37.6	-38.6	23.4	0.00e+00	0	33	0	1153433600	48	6104
2026-01-28 02:07:27.69	323.93	13.85	-37.9	-38.9	23.1	0.00e+00	31	33	0	1154482176	48	6348
2026-01-28 02:07:28.69	324.06	13.77	-37.8	-38.7	23.2	0.00e+00	15	33	0	1156579328	48	6208
2026-01-28 02:07:29.70	324.18	13.69	-37.6	-38.5	23.3	0.00e+00	0	33	0	1158676480	48	6099
2026-01-28 02:07:30.71	324.31	13.61	-37.5	-38.4	23.5	0.00e+00	28	33	0	1160773632	48	5977
2026-01-28 02:07:31.72	324.44	13.54	-37.5	-38.3	23.5	0.00e+00	0	33	0	1162870784	48	5964
2026-01-28 02:07:32.73	324.56	13.46	-37.5	-38.4	23.5	0.00e+00	92	33	0	1163919360	48	5965
2026-01-28 02:07:33.74	324.69	13.38	-37.3	-38.1	23.7	0.00e+00	0	33	0	1166016512	48	5823
2026-01-28 02:07:34.75	324.81	13.30	-37.2	-38.1	23.8	0.00e+00	0	33	0	1168113664	48	5786
2026-01-28 02:07:35.76	324.94	13.22	-37.2	-38.0	23.7	0.00e+00	87	33	0	1170210816	48	5756
2026-01-28 02:07:36.77	325.06	13.14	-37.3	-38.1	23.7	0.00e+00	0	33	0	1172307968	48	5816
2026-01-28 02:07:37.78	325.18	13.06	-37.4	-38.3	23.5	0.00e+00	81	33	0	1173356544	48	5905
2026-01-28 02:07:38.79	325.30	12.98	-37.4	-38.3	23.4	0.00e+00	0	33	0	1175453696	48	5916
2026-01-28 02:07:39.80	325.43	12.91	-37.8	-38.7	23.2	0.00e+00	90	33	0	1177550848	48	6203
2026-01-28 02:07:40.81	325.55	12.83	-38.0	-38.9	23.0	0.00e+00	0	33	0	1179648000	48	6345
2026-01-28 02:07:41.82	325.67	12.75	-38.1	-39.0	23.0	0.00e+00	84	33	0	1181745152	48	6428
2026-01-28 02:07:42.83	325.79	12.67	-38.5	-39.4	22.6	0.00e+00	0	33	0	1182793728	48	6753
2026-01-28 02:07:43.84	325.91	12.59	-38.5	-39.5	22.6	0.00e+00	0	33	0	1184890880	48	6808
2026-01-28 02:07:44.85	326.02	12.52	-38.5	-39.4	22.6	0.00e+00	83	33	0	1186988032	48	6748
2026-01-28 02:07:45.86	326.14	12.44	-38.9	-39.9	22.2	0.00e+00	0	33	0	1189085184	50	6377
2026-01-28 02:07:46.87	326.26	12.36	-38.7	-39.7	22.4	0.00e+00	87	33	0	1191182336	50	6226
2026-01-28 02:07:47.88	326.37	12.29	-38.7	-39.7	22.3	0.00e+00	0	33	0	1192230912	50	6220
2026-01-28 02:07:48.88	326.49	12.21	-39.0	-40.0	22.1	0.00e+00	61	33	0	1194328064	50	6434
2026-01-28 02:07:49.89	326.61	12.13	-38.7	-39.7	22.4	0.00e+00	0	32	0	1196425216	50	6209
