passes_logs/2026/01/28/R4.6S_Anadyr/R4.6S_Anadyr__20260128_115043_NOAA_21_JPSS-2_rec.log

#Pass ID: 20260128_115043_NOAA 21 (JPSS-2)
#Satellite: NOAA 21 (JPSS-2)
#Configuration: NOAA-21
#almurnet v.1.7.20251203
#Start time: 2026-01-28 11:50:46

#Version: 2.2.20231116
#Station: R4.6S_Anadyr
#Location: 177.4865 lon 64.73178 lat
#TLE: 1 54234U 22150A   26027.77052245  .00000166  00000+0  99439-4 0  9997
#TLE: 2 54234  98.7510 328.5165 0000872 203.6403 156.4733 14.19540252166628

#Time	Az	El	Level	Level2	SNR	BER	BlckErr	Temp	State	Recorded	gain1	gain2
2026-01-28 11:50:46.56	20.10	0.15	-48.6	-60.0	3.3	1.54e+00	0	32	0	0	60	34898
2026-01-28 11:50:47.56	20.19	0.19	-48.6	-61.4	3.5	1.52e+00	0	32	104	0	60	41456
2026-01-28 11:50:48.57	20.28	0.23	-48.5	-61.5	3.5	1.52e+00	0	32	104	0	60	41495
2026-01-28 11:50:49.58	20.37	0.28	-48.6	-61.4	3.5	1.51e+00	0	32	104	0	60	41466
2026-01-28 11:50:50.59	20.46	0.32	-48.6	-61.5	3.5	1.52e+00	0	32	104	0	60	41774
2026-01-28 11:50:51.60	20.55	0.36	-48.6	-61.5	3.5	1.52e+00	0	32	104	0	60	41685
2026-01-28 11:50:52.61	20.64	0.41	-48.7	-61.5	3.5	1.52e+00	0	32	104	0	60	41779
2026-01-28 11:50:53.62	20.73	0.45	-48.7	-61.6	3.5	1.51e+00	0	32	104	0	60	41961
2026-01-28 11:50:54.63	20.83	0.49	-48.7	-61.5	3.5	1.52e+00	0	32	104	0	60	41631
2026-01-28 11:50:55.64	20.92	0.54	-48.6	-61.5	3.5	1.52e+00	0	32	104	0	60	41795
2026-01-28 11:50:56.65	21.01	0.58	-48.5	-61.5	3.5	1.52e+00	0	32	104	0	60	41575
2026-01-28 11:50:57.66	21.10	0.63	-48.5	-61.4	3.5	1.52e+00	0	32	104	0	60	41181
2026-01-28 11:50:58.67	21.19	0.67	-48.5	-61.4	3.5	1.52e+00	0	32	104	0	60	41076
2026-01-28 11:50:59.68	21.29	0.71	-48.4	-61.3	3.5	1.52e+00	0	32	104	0	60	40738
2026-01-28 11:51:00.69	21.38	0.76	-48.4	-61.2	3.5	1.52e+00	0	32	104	0	60	40313
2026-01-28 11:51:01.70	21.47	0.80	-48.3	-61.2	3.5	1.52e+00	0	32	104	0	60	40084
2026-01-28 11:51:02.71	21.57	0.84	-48.2	-61.1	3.5	1.52e+00	0	32	104	0	60	39664
2026-01-28 11:51:03.72	21.66	0.89	-48.2	-61.0	3.5	1.52e+00	0	33	104	0	60	39297
2026-01-28 11:51:04.73	21.75	0.93	-48.1	-60.9	3.5	1.52e+00	0	32	104	0	60	38764
2026-01-28 11:51:05.74	21.85	0.97	-48.0	-60.8	3.5	1.52e+00	0	32	104	0	60	38443
2026-01-28 11:51:06.75	21.94	1.02	-47.7	-60.6	3.5	1.52e+00	0	32	104	0	60	37506
2026-01-28 11:51:07.76	22.04	1.06	-47.5	-60.3	3.5	1.52e+00	0	32	104	0	60	36308
2026-01-28 11:51:08.77	22.13	1.11	-47.1	-59.9	3.5	1.52e+00	0	32	104	0	60	34779
2026-01-28 11:51:09.78	22.23	1.15	-47.1	-59.8	3.5	1.52e+00	0	33	104	0	60	34489
2026-01-28 11:51:10.79	22.32	1.19	-47.1	-59.9	3.5	1.52e+00	0	32	104	0	60	34674
2026-01-28 11:51:11.80	22.42	1.24	-47.1	-59.9	3.5	1.52e+00	0	33	104	0	60	34531
2026-01-28 11:51:12.81	22.51	1.28	-47.0	-59.8	3.5	1.52e+00	0	33	104	0	60	34495
2026-01-28 11:51:13.82	22.61	1.32	-47.0	-59.9	3.5	1.52e+00	0	33	104	0	60	34605
2026-01-28 11:51:14.83	22.71	1.37	-47.0	-59.8	3.5	1.52e+00	0	33	104	0	60	34245
2026-01-28 11:51:15.84	22.80	1.41	-47.0	-59.8	3.5	1.52e+00	0	33	104	0	60	34441
2026-01-28 11:51:16.85	22.90	1.46	-47.0	-59.8	3.5	1.52e+00	0	33	104	0	60	34429
2026-01-28 11:51:17.86	23.00	1.50	-47.0	-59.9	3.5	1.52e+00	0	33	104	0	60	34536
2026-01-28 11:51:18.87	23.10	1.54	-47.0	-59.8	3.5	1.52e+00	0	33	104	0	60	34449
2026-01-28 11:51:19.88	23.19	1.59	-47.0	-59.9	3.5	1.52e+00	0	33	104	0	60	34575
2026-01-28 11:51:20.88	23.29	1.63	-47.0	-59.8	3.5	1.52e+00	0	33	104	0	60	34376
2026-01-28 11:51:21.90	23.39	1.67	-47.0	-59.8	3.5	1.52e+00	0	33	104	0	60	34489
2026-01-28 11:51:22.91	23.49	1.72	-47.0	-59.9	3.5	1.52e+00	0	33	104	0	60	34536
2026-01-28 11:51:23.91	23.59	1.76	-47.0	-59.8	3.5	1.52e+00	0	33	104	0	60	34424
2026-01-28 11:51:24.92	23.69	1.81	-47.0	-59.8	3.5	1.52e+00	0	33	104	0	60	34160
2026-01-28 11:51:25.94	23.79	1.85	-47.0	-59.8	3.5	1.52e+00	0	33	104	0	60	34161
2026-01-28 11:51:26.94	23.89	1.89	-47.0	-59.8	3.5	1.51e+00	0	33	104	0	60	34469
2026-01-28 11:51:27.95	23.99	1.94	-47.0	-59.8	3.6	1.52e+00	0	33	104	0	60	34423
2026-01-28 11:51:28.96	24.09	1.98	-47.0	-59.8	3.5	1.52e+00	0	33	104	0	60	34268
2026-01-28 11:51:29.97	24.19	2.02	-47.0	-59.8	3.5	1.52e+00	0	33	104	0	60	34495
2026-01-28 11:51:30.98	24.29	2.07	-47.0	-59.8	3.5	1.51e+00	0	33	104	0	60	34412
2026-01-28 11:51:31.99	24.39	2.11	-47.0	-59.8	3.5	1.51e+00	0	33	104	0	60	34202
2026-01-28 11:51:33.00	24.49	2.16	-47.0	-59.8	3.5	1.52e+00	0	33	104	0	60	34175
2026-01-28 11:51:34.01	24.59	2.20	-47.0	-59.7	3.5	1.52e+00	0	33	104	0	60	33760
2026-01-28 11:51:35.02	24.69	2.24	-47.0	-59.7	3.5	1.52e+00	0	33	104	0	60	33921
2026-01-28 11:51:36.03	24.80	2.29	-47.0	-59.8	3.5	1.52e+00	0	33	104	0	60	34315
2026-01-28 11:51:37.04	24.90	2.33	-47.0	-59.8	3.5	1.52e+00	0	33	104	0	60	34333
2026-01-28 11:51:38.05	25.00	2.37	-47.0	-59.8	3.5	1.52e+00	0	33	104	0	60	34438
2026-01-28 11:51:39.06	25.11	2.42	-47.0	-59.8	3.5	1.52e+00	0	33	104	0	60	34489
2026-01-28 11:51:40.07	25.21	2.46	-47.0	-59.7	3.5	1.51e+00	0	33	104	0	60	33815
2026-01-28 11:51:41.07	25.31	2.51	-47.0	-59.0	3.5	1.52e+00	0	33	104	0	60	31321
2026-01-28 11:51:42.08	25.42	2.55	-46.9	-58.1	3.5	1.51e+00	0	33	104	0	60	28312
2026-01-28 11:51:43.09	25.52	2.59	-46.9	-58.7	3.5	1.51e+00	0	33	104	0	60	30129
2026-01-28 11:51:44.10	25.63	2.64	-47.0	-59.0	3.5	1.52e+00	0	33	104	0	60	31206
2026-01-28 11:51:45.11	25.73	2.68	-46.6	-55.4	4.9	1.26e+00	39	33	104	0	60	20763
2026-01-28 11:51:46.12	25.84	2.72	-45.0	-49.1	9.8	2.46e-02	2	33	0	1048576	60	9955
2026-01-28 11:51:47.13	25.94	2.77	-42.7	-45.1	14.2	5.30e-06	1	33	0	4194304	60	6291
2026-01-28 11:51:48.14	26.05	2.81	-40.1	-41.7	17.4	0.00e+00	0	33	0	7340032	54	6051
2026-01-28 11:51:49.15	26.15	2.85	-38.7	-40.0	18.9	0.00e+00	2	33	0	10485760	52	5586
2026-01-28 11:51:50.16	26.26	2.90	-38.1	-39.4	19.4	0.00e+00	1	33	0	13631488	50	5830
2026-01-28 11:51:51.17	26.37	2.94	-39.0	-40.4	18.5	0.00e+00	2	33	0	16777216	48	7299
2026-01-28 11:51:52.18	26.47	2.99	-39.6	-41.1	17.6	0.00e+00	3	33	0	19922944	50	7094
2026-01-28 11:51:53.19	26.58	3.03	-40.9	-42.8	16.0	0.00e+00	4	33	0	23068672	52	7638
2026-01-28 11:51:54.20	26.69	3.07	-47.1	-57.6	3.6	1.53e+00	0	33	104	25165824	60	26664
2026-01-28 11:51:55.21	26.80	3.12	-37.9	-39.2	19.7	1.60e-01	0	33	0	25165824	48	6358
2026-01-28 11:51:56.22	26.91	3.16	-46.9	-58.3	3.5	1.15e-02	0	33	104	28311552	60	28746
2026-01-28 11:51:57.23	27.01	3.20	-46.3	-54.7	3.8	1.48e+00	0	33	104	28311552	60	19116
2026-01-28 11:51:58.24	27.12	3.25	-43.7	-46.6	10.7	0.00e+00	2	33	0	28311552	56	9403
2026-01-28 11:51:59.25	27.23	3.29	-40.0	-41.5	17.9	0.00e+00	0	33	0	31457280	54	5899
2026-01-28 11:52:00.25	27.34	3.33	-39.2	-40.6	18.5	0.00e+00	0	33	0	34603008	52	5951
2026-01-28 11:52:01.26	27.45	3.38	-39.2	-40.7	18.5	0.00e+00	0	33	0	37748736	52	6018
2026-01-28 11:52:02.27	27.56	3.42	-38.9	-40.2	18.9	0.00e+00	3	33	0	40894464	52	5701
2026-01-28 11:52:03.28	27.67	3.46	-38.5	-39.8	19.3	0.00e+00	1	33	0	44040192	50	6116
2026-01-28 11:52:04.29	27.78	3.51	-38.2	-39.5	19.6	0.00e+00	0	33	0	47185920	50	5863
2026-01-28 11:52:05.30	27.89	3.55	-38.2	-39.5	19.7	0.00e+00	2	33	0	50331648	50	5871
2026-01-28 11:52:06.32	28.01	3.60	-38.3	-39.6	19.5	0.00e+00	0	33	0	53477376	50	5943
2026-01-28 11:52:07.32	28.12	3.64	-38.0	-39.2	19.7	0.00e+00	1	33	0	56623104	50	5715
2026-01-28 11:52:08.34	28.23	3.68	-38.2	-39.5	19.7	0.00e+00	0	33	0	59768832	48	6610
2026-01-28 11:52:09.34	28.34	3.73	-38.4	-39.7	19.6	0.00e+00	0	33	0	62914560	48	6753
2026-01-28 11:52:10.36	28.45	3.77	-37.7	-38.9	19.9	0.00e+00	4	33	0	66060288	48	6194
2026-01-28 11:52:11.37	28.57	3.81	-38.4	-39.7	19.4	0.00e+00	1	33	0	69206016	48	6778
2026-01-28 11:52:12.38	28.68	3.86	-37.8	-39.0	20.0	0.00e+00	4	33	0	73400320	48	6250
2026-01-28 11:52:13.39	28.79	3.90	-38.0	-39.3	20.0	0.00e+00	2	33	0	75497472	48	6444
2026-01-28 11:52:14.40	28.91	3.94	-38.0	-39.2	19.9	0.00e+00	2	33	0	78643200	48	6390
2026-01-28 11:52:15.41	29.02	3.99	-38.1	-39.3	19.8	0.00e+00	4	33	0	81788928	48	6497
2026-01-28 11:52:16.42	29.14	4.03	-38.2	-39.5	19.6	0.00e+00	4	33	0	84934656	48	6587
2026-01-28 11:52:17.43	29.25	4.07	-38.1	-39.3	20.0	0.00e+00	3	33	0	89128960	48	6462
2026-01-28 11:52:18.44	29.37	4.12	-38.1	-39.4	19.9	0.00e+00	2	33	0	92274688	48	6506
2026-01-28 11:52:19.45	29.48	4.16	-37.7	-38.9	20.2	0.00e+00	1	33	0	95420416	48	6187
2026-01-28 11:52:20.46	29.60	4.20	-37.6	-38.8	20.4	0.00e+00	0	33	0	97517568	48	6102
2026-01-28 11:52:21.47	29.72	4.25	-38.2	-39.5	19.8	0.00e+00	3	33	0	100663296	48	6582
2026-01-28 11:52:22.47	29.83	4.29	-38.0	-39.2	20.0	0.00e+00	0	33	0	104857600	48	6386
2026-01-28 11:52:23.48	29.95	4.33	-38.7	-40.0	19.0	0.00e+00	1	33	0	108003328	48	6986
2026-01-28 11:52:24.49	30.07	4.37	-38.5	-39.8	19.1	0.00e+00	0	33	0	111149056	50	6120
2026-01-28 11:52:25.50	30.18	4.42	-38.4	-39.7	19.5	0.00e+00	0	33	0	114294784	50	6047
2026-01-28 11:52:26.51	30.30	4.46	-38.1	-39.4	19.8	0.00e+00	2	33	0	117440512	50	5800
2026-01-28 11:52:27.52	30.42	4.50	-38.7	-40.0	19.6	0.00e+00	0	33	0	120586240	50	6214
2026-01-28 11:52:28.53	30.54	4.55	-38.4	-39.7	19.5	0.00e+00	1	33	0	123731968	50	6003
2026-01-28 11:52:29.55	30.66	4.59	-38.2	-39.5	20.1	0.00e+00	3	33	0	126877696	50	5883
2026-01-28 11:52:30.56	30.78	4.63	-38.5	-39.7	19.5	0.00e+00	4	33	0	130023424	50	6055
2026-01-28 11:52:31.57	30.90	4.68	-38.3	-39.5	19.8	0.00e+00	2	33	0	133169152	50	5911
2026-01-28 11:52:32.58	31.02	4.72	-37.7	-38.9	20.3	0.00e+00	4	33	0	136314880	50	5506
2026-01-28 11:52:33.59	31.14	4.76	-37.9	-39.1	20.2	0.00e+00	6	33	0	139460608	48	6304
2026-01-28 11:52:34.60	31.26	4.80	-37.6	-38.8	20.4	0.00e+00	0	33	0	142606336	48	6101
2026-01-28 11:52:35.61	31.38	4.85	-37.6	-38.8	20.5	0.00e+00	2	33	0	145752064	48	6097
2026-01-28 11:52:36.62	31.50	4.89	-37.6	-38.7	20.5	0.00e+00	1	33	0	148897792	48	6059
2026-01-28 11:52:37.63	31.62	4.93	-37.4	-38.5	20.7	0.00e+00	1	33	0	152043520	48	5909
2026-01-28 11:52:38.64	31.74	4.97	-36.7	-37.8	21.3	0.00e+00	1	33	0	155189248	48	5413
2026-01-28 11:52:39.65	31.87	5.02	-37.1	-38.2	21.0	0.00e+00	1	33	0	158334976	46	6398
2026-01-28 11:52:40.66	31.99	5.06	-36.9	-38.0	21.2	0.00e+00	2	33	0	161480704	46	6243
2026-01-28 11:52:41.67	32.11	5.10	-37.2	-38.3	20.8	0.00e+00	0	33	0	164626432	46	6455
2026-01-28 11:52:42.68	32.23	5.15	-37.1	-38.2	20.8	0.00e+00	0	33	0	167772160	46	6383
2026-01-28 11:52:43.69	32.36	5.19	-37.0	-38.0	21.3	0.00e+00	0	33	0	170917888	46	6273
2026-01-28 11:52:44.70	32.48	5.23	-37.5	-38.6	20.7	0.00e+00	5	33	0	174063616	46	6696
2026-01-28 11:52:45.71	32.61	5.27	-37.1	-38.3	21.0	0.00e+00	2	33	0	177209344	46	6435
2026-01-28 11:52:46.72	32.73	5.31	-37.4	-38.5	20.7	0.00e+00	0	33	0	180355072	46	6646
2026-01-28 11:52:47.72	32.85	5.36	-37.3	-38.4	20.8	0.00e+00	3	33	0	183500800	46	6544
2026-01-28 11:52:48.73	32.98	5.40	-37.0	-38.1	21.1	0.00e+00	4	33	0	186646528	46	6291
2026-01-28 11:52:49.74	33.11	5.44	-37.0	-38.1	21.1	0.00e+00	2	33	0	189792256	46	6331
2026-01-28 11:52:50.76	33.23	5.48	-37.1	-38.3	21.0	0.00e+00	0	33	0	192937984	46	6439
2026-01-28 11:52:51.76	33.36	5.53	-36.8	-37.9	21.4	0.00e+00	2	33	0	196083712	46	6193
2026-01-28 11:52:52.77	33.48	5.57	-36.8	-37.8	21.4	0.00e+00	2	33	0	199229440	46	6132
2026-01-28 11:52:53.78	33.61	5.61	-36.8	-37.9	21.4	0.00e+00	4	33	0	202375168	46	6180
2026-01-28 11:52:54.79	33.74	5.65	-37.1	-38.2	20.9	0.00e+00	2	33	0	205520896	46	6388
2026-01-28 11:52:55.80	33.87	5.69	-37.0	-38.1	21.2	0.00e+00	4	33	0	208666624	46	6287
2026-01-28 11:52:56.81	34.00	5.74	-36.8	-37.9	21.4	0.00e+00	2	33	0	211812352	46	6167
2026-01-28 11:52:57.82	34.12	5.78	-36.7	-37.8	21.4	0.00e+00	0	33	0	214958080	46	6084
2026-01-28 11:52:58.83	34.25	5.82	-36.9	-38.0	21.3	0.00e+00	4	33	0	218103808	46	6230
2026-01-28 11:52:59.84	34.38	5.86	-37.0	-38.2	21.3	0.00e+00	1	33	0	221249536	46	6361
2026-01-28 11:53:00.85	34.51	5.90	-36.8	-37.9	21.2	0.00e+00	0	33	0	224395264	46	6193
2026-01-28 11:53:01.86	34.64	5.94	-36.9	-38.0	21.3	0.00e+00	0	33	0	227540992	46	6248
2026-01-28 11:53:02.87	34.77	5.99	-37.2	-38.3	21.0	0.00e+00	2	33	0	230686720	46	6461
2026-01-28 11:53:03.88	34.90	6.03	-36.8	-37.8	21.4	0.00e+00	0	33	0	233832448	46	6134
2026-01-28 11:53:04.89	35.03	6.07	-36.9	-38.0	21.5	0.00e+00	0	33	0	236978176	46	6208
2026-01-28 11:53:05.90	35.16	6.11	-36.7	-37.8	21.4	0.00e+00	3	33	0	240123904	46	6091
2026-01-28 11:53:06.91	35.30	6.15	-37.2	-38.3	21.1	0.00e+00	0	33	0	243269632	46	6480
2026-01-28 11:53:07.92	35.43	6.19	-37.3	-38.4	21.1	0.00e+00	0	33	0	246415360	46	6549
2026-01-28 11:53:08.92	35.56	6.23	-37.3	-38.5	20.9	0.00e+00	2	33	0	249561088	46	6595
2026-01-28 11:53:09.93	35.69	6.27	-37.3	-38.4	20.9	0.00e+00	6	33	0	252706816	46	6565
2026-01-28 11:53:10.94	35.83	6.32	-37.0	-38.1	21.3	0.00e+00	2	33	0	255852544	46	6301
2026-01-28 11:53:11.95	35.96	6.36	-37.3	-38.4	21.0	0.00e+00	4	33	0	258998272	46	6560
2026-01-28 11:53:12.96	36.09	6.40	-37.1	-38.2	21.1	0.00e+00	2	33	0	262144000	46	6361
2026-01-28 11:53:13.97	36.23	6.44	-36.9	-38.0	21.3	0.00e+00	0	33	0	265289728	46	6211
2026-01-28 11:53:14.98	36.36	6.48	-36.9	-38.0	21.3	0.00e+00	2	33	0	268435456	46	6261
2026-01-28 11:53:15.99	36.50	6.52	-36.7	-37.8	21.5	0.00e+00	0	33	0	271581184	46	6100
2026-01-28 11:53:17.00	36.63	6.56	-36.9	-38.0	21.5	0.00e+00	2	33	0	274726912	46	6223
2026-01-28 11:53:18.02	36.77	6.60	-36.6	-37.7	21.6	0.00e+00	2	33	0	277872640	46	6028
2026-01-28 11:53:19.03	36.91	6.64	-36.8	-37.9	21.5	0.00e+00	2	33	0	281018368	46	6159
2026-01-28 11:53:20.04	37.04	6.68	-36.4	-37.5	21.6	0.00e+00	3	33	0	284164096	46	5868
2026-01-28 11:53:21.04	37.18	6.72	-36.5	-37.5	21.8	0.00e+00	3	33	0	287309824	46	5906
2026-01-28 11:53:22.05	37.32	6.76	-36.4	-37.5	21.8	0.00e+00	1	33	0	290455552	46	5893
2026-01-28 11:53:23.06	37.45	6.80	-36.5	-37.5	21.9	0.00e+00	0	33	0	293601280	46	5924
2026-01-28 11:53:24.07	37.59	6.84	-36.4	-37.4	21.8	0.00e+00	2	33	0	296747008	46	5857
2026-01-28 11:53:25.08	37.73	6.88	-36.6	-37.6	21.7	0.00e+00	0	33	0	299892736	46	5992
2026-01-28 11:53:26.09	37.87	6.92	-36.7	-37.8	21.6	0.00e+00	3	33	0	303038464	46	6085
2026-01-28 11:53:27.10	38.01	6.96	-36.7	-37.8	21.6	0.00e+00	1	33	0	306184192	46	6112
2026-01-28 11:53:28.11	38.15	7.00	-36.6	-37.7	21.7	0.00e+00	3	33	0	309329920	46	6034
2026-01-28 11:53:29.12	38.29	7.04	-36.5	-37.5	21.8	0.00e+00	1	33	0	312475648	46	5895
2026-01-28 11:53:30.13	38.43	7.08	-36.3	-37.4	22.0	0.00e+00	0	33	0	315621376	46	5804
2026-01-28 11:53:31.14	38.57	7.12	-36.5	-37.6	21.8	0.00e+00	1	33	0	318767104	46	5967
2026-01-28 11:53:32.15	38.71	7.16	-36.7	-37.8	21.6	0.00e+00	2	33	0	321912832	46	6119
2026-01-28 11:53:33.16	38.85	7.20	-36.3	-37.4	22.0	0.00e+00	2	33	0	325058560	46	5804
2026-01-28 11:53:34.17	38.99	7.24	-36.7	-37.8	21.7	0.00e+00	2	33	0	328204288	46	6106
2026-01-28 11:53:35.18	39.13	7.28	-36.2	-37.2	22.1	0.00e+00	1	33	0	331350016	46	5725
2026-01-28 11:53:36.19	39.27	7.32	-36.3	-37.3	22.0	0.00e+00	0	33	0	334495744	46	5785
2026-01-28 11:53:37.20	39.42	7.36	-36.4	-37.5	21.9	0.00e+00	0	33	0	337641472	46	5884
2026-01-28 11:53:38.21	39.56	7.40	-36.2	-37.2	22.1	0.00e+00	2	33	0	340787200	46	5702
2026-01-28 11:53:39.22	39.70	7.44	-36.3	-37.3	22.1	0.00e+00	0	33	0	343932928	46	5742
2026-01-28 11:53:40.23	39.85	7.48	-36.3	-37.4	22.1	0.00e+00	4	33	0	347078656	46	5814
2026-01-28 11:53:41.23	39.99	7.51	-36.4	-37.4	22.0	0.00e+00	0	34	0	350224384	46	5846
2026-01-28 11:53:42.24	40.13	7.55	-36.0	-37.0	22.3	0.00e+00	2	33	0	353370112	46	5556
2026-01-28 11:53:43.25	40.28	7.59	-36.2	-37.2	22.1	0.00e+00	2	33	0	356515840	46	5687
2026-01-28 11:53:44.26	40.42	7.63	-35.9	-36.9	22.5	0.00e+00	6	33	0	359661568	46	5484
2026-01-28 11:53:45.27	40.57	7.67	-36.1	-37.2	22.3	0.00e+00	0	33	0	362807296	46	5671
2026-01-28 11:53:46.28	40.72	7.71	-36.2	-37.2	22.2	0.00e+00	0	33	0	365953024	46	5680
2026-01-28 11:53:47.29	40.86	7.74	-35.9	-36.8	22.4	0.00e+00	2	33	0	369098752	46	5467
2026-01-28 11:53:48.30	41.01	7.78	-35.8	-36.8	22.5	0.00e+00	2	33	0	372244480	46	5454
2026-01-28 11:53:49.31	41.16	7.82	-35.7	-36.7	22.6	0.00e+00	3	33	0	375390208	44	6050
2026-01-28 11:53:50.32	41.30	7.86	-35.9	-36.9	22.2	0.00e+00	2	33	0	378535936	44	6205
2026-01-28 11:53:51.33	41.45	7.90	-35.8	-36.9	22.5	0.00e+00	6	33	0	381681664	44	6148
2026-01-28 11:53:52.34	41.60	7.93	-36.3	-37.3	22.2	0.00e+00	1	33	0	384827392	44	6497
2026-01-28 11:53:53.35	41.75	7.97	-36.1	-37.1	22.2	0.00e+00	4	33	0	387973120	44	6304
2026-01-28 11:53:54.36	41.90	8.01	-36.0	-37.0	22.3	0.00e+00	4	33	0	391118848	44	6244
2026-01-28 11:53:55.37	42.05	8.05	-35.8	-36.8	22.4	0.00e+00	0	33	0	394264576	44	6076
2026-01-28 11:53:56.37	42.20	8.08	-35.9	-36.9	22.4	0.00e+00	4	33	0	397410304	44	6188
2026-01-28 11:53:57.38	42.35	8.12	-35.8	-36.8	22.6	0.00e+00	4	33	0	400556032	44	6067
2026-01-28 11:53:58.40	42.50	8.16	-35.9	-36.9	22.4	0.00e+00	2	33	0	403701760	44	6159
2026-01-28 11:53:59.40	42.65	8.19	-35.8	-36.8	22.5	0.00e+00	2	33	0	406847488	44	6120
2026-01-28 11:54:00.42	42.80	8.23	-35.9	-36.9	22.4	0.00e+00	0	33	0	409993216	44	6174
2026-01-28 11:54:01.42	42.95	8.27	-36.1	-37.1	22.2	0.00e+00	0	33	0	413138944	44	6326
2026-01-28 11:54:02.44	43.10	8.31	-36.0	-37.0	22.3	0.00e+00	0	33	0	416284672	44	6258
2026-01-28 11:54:03.44	43.25	8.34	-35.8	-36.8	22.5	0.00e+00	0	33	0	419430400	44	6121
2026-01-28 11:54:04.45	43.41	8.38	-35.8	-36.8	22.4	0.00e+00	1	33	0	422576128	44	6082
2026-01-28 11:54:05.46	43.56	8.41	-35.7	-36.6	22.7	0.00e+00	2	33	0	425721856	44	5992
2026-01-28 11:54:06.47	43.71	8.45	-35.9	-36.9	22.5	0.00e+00	2	33	0	429916160	44	6138
2026-01-28 11:54:07.48	43.87	8.49	-36.0	-37.1	22.4	0.00e+00	1	33	0	433061888	44	6285
2026-01-28 11:54:08.49	44.02	8.52	-35.9	-36.9	22.4	0.00e+00	0	34	0	436207616	44	6176
2026-01-28 11:54:09.50	44.18	8.56	-35.9	-36.9	22.4	0.00e+00	0	33	0	438304768	44	6200
2026-01-28 11:54:10.51	44.33	8.59	-35.9	-36.9	22.4	0.00e+00	1	33	0	441450496	44	6179
2026-01-28 11:54:11.52	44.49	8.63	-36.2	-37.2	22.2	0.00e+00	1	34	0	445644800	44	6382
2026-01-28 11:54:12.53	44.64	8.66	-36.0	-37.0	22.4	0.00e+00	0	34	0	448790528	44	6268
2026-01-28 11:54:13.54	44.80	8.70	-35.8	-36.8	22.6	0.00e+00	2	33	0	451936256	44	6103
2026-01-28 11:54:14.55	44.96	8.73	-36.0	-37.0	22.4	0.00e+00	2	34	0	455081984	44	6212
2026-01-28 11:54:15.56	45.11	8.77	-35.9	-36.9	22.5	0.00e+00	1	33	0	458227712	44	6149
2026-01-28 11:54:16.57	45.27	8.80	-35.8	-36.8	22.5	0.00e+00	3	34	0	461373440	44	6116
2026-01-28 11:54:17.58	45.43	8.84	-35.9	-36.9	22.6	0.00e+00	2	34	0	464519168	44	6175
2026-01-28 11:54:18.59	45.58	8.87	-35.7	-36.7	22.7	0.00e+00	0	33	0	467664896	44	5995
2026-01-28 11:54:19.60	45.74	8.91	-35.8	-36.8	22.5	0.00e+00	2	33	0	470810624	44	6119
2026-01-28 11:54:20.61	45.90	8.94	-35.6	-36.6	22.7	0.00e+00	2	34	0	473956352	44	5960
2026-01-28 11:54:21.62	46.06	8.98	-35.6	-36.5	22.7	0.00e+00	1	34	0	477102080	44	5910
2026-01-28 11:54:22.64	46.22	9.01	-35.7	-36.7	22.7	0.00e+00	2	34	0	480247808	44	6005
2026-01-28 11:54:23.64	46.38	9.04	-35.7	-36.7	22.6	0.00e+00	0	33	0	483393536	44	6024
2026-01-28 11:54:24.65	46.54	9.08	-35.7	-36.7	22.6	0.00e+00	0	33	0	486539264	44	6044
2026-01-28 11:54:25.66	46.70	9.11	-35.9	-36.9	22.6	0.00e+00	0	34	0	489684992	44	6162
2026-01-28 11:54:26.67	46.86	9.14	-35.9	-36.9	22.4	0.00e+00	1	34	0	492830720	44	6147
2026-01-28 11:54:27.68	47.02	9.18	-35.9	-36.9	22.4	0.00e+00	1	34	0	495976448	44	6203
2026-01-28 11:54:28.69	47.18	9.21	-35.7	-36.7	22.7	0.00e+00	2	34	0	499122176	44	6034
2026-01-28 11:54:29.70	47.34	9.24	-35.5	-36.5	22.8	0.00e+00	3	33	0	502267904	44	5895
2026-01-28 11:54:30.71	47.51	9.28	-35.6	-36.6	22.7	0.00e+00	2	34	0	505413632	44	5929
2026-01-28 11:54:31.72	47.67	9.31	-35.7	-36.7	22.7	0.00e+00	4	34	0	508559360	44	6001
2026-01-28 11:54:32.73	47.83	9.34	-35.8	-36.8	22.6	0.00e+00	0	33	0	511705088	44	6101
2026-01-28 11:54:33.74	48.00	9.37	-35.7	-36.7	22.6	0.00e+00	3	33	0	514850816	44	6035
2026-01-28 11:54:34.75	48.16	9.41	-35.7	-36.7	22.7	0.00e+00	5	33	0	517996544	44	6022
2026-01-28 11:54:35.76	48.32	9.44	-35.7	-36.7	22.6	0.00e+00	2	34	0	521142272	44	6043
2026-01-28 11:54:36.77	48.49	9.47	-35.6	-36.6	22.7	0.00e+00	4	34	0	524288000	44	5980
2026-01-28 11:54:37.78	48.65	9.50	-35.8	-36.8	22.5	0.00e+00	2	34	0	527433728	44	6113
2026-01-28 11:54:38.79	48.82	9.53	-35.9	-36.8	22.5	0.00e+00	2	34	0	530579456	44	6133
2026-01-28 11:54:39.80	48.98	9.56	-35.9	-36.9	22.5	0.00e+00	5	34	0	533725184	44	6144
2026-01-28 11:54:40.81	49.15	9.60	-36.0	-37.0	22.4	0.00e+00	2	34	0	536870912	44	6257
2026-01-28 11:54:41.82	49.31	9.63	-36.0	-37.0	22.4	0.00e+00	0	34	0	540016640	44	6224
2026-01-28 11:54:42.82	49.48	9.66	-35.7	-36.7	22.6	0.00e+00	0	34	0	543162368	44	6048
2026-01-28 11:54:43.84	49.65	9.69	-35.8	-36.8	22.6	0.00e+00	1	34	0	546308096	44	6122
2026-01-28 11:54:44.85	49.81	9.72	-35.8	-36.7	22.6	0.00e+00	0	33	0	549453824	44	6059
2026-01-28 11:54:45.86	49.98	9.75	-35.8	-36.8	22.6	0.00e+00	0	34	0	552599552	44	6096
2026-01-28 11:54:46.87	50.15	9.78	-35.7	-36.7	22.7	0.00e+00	1	33	0	555745280	44	6008
2026-01-28 11:54:47.88	50.32	9.81	-35.7	-36.7	22.7	0.00e+00	1	34	0	558891008	44	6011
2026-01-28 11:54:48.89	50.49	9.84	-35.6	-36.6	22.7	0.00e+00	0	34	0	562036736	44	5984
2026-01-28 11:54:49.90	50.65	9.87	-35.6	-36.6	22.8	0.00e+00	4	34	0	565182464	44	5945
2026-01-28 11:54:50.91	50.82	9.90	-35.5	-36.5	22.8	0.00e+00	6	34	0	568328192	44	5872
2026-01-28 11:54:51.91	50.99	9.93	-35.4	-36.4	22.9	0.00e+00	2	34	0	571473920	44	5826
2026-01-28 11:54:52.92	51.16	9.96	-35.6	-36.6	22.7	0.00e+00	3	34	0	574619648	44	5967
2026-01-28 11:54:53.94	51.33	9.99	-35.6	-36.6	22.8	0.00e+00	1	34	0	577765376	44	5938
2026-01-28 11:54:54.95	51.50	10.01	-35.7	-36.7	22.7	0.00e+00	2	33	0	580911104	44	6022
2026-01-28 11:54:55.96	51.67	10.04	-35.7	-36.6	22.8	0.00e+00	2	34	0	584056832	44	5993
2026-01-28 11:54:56.97	51.84	10.07	-35.7	-36.7	22.7	0.00e+00	0	34	0	587202560	44	6032
2026-01-28 11:54:57.98	52.02	10.10	-35.6	-36.6	22.8	0.00e+00	3	34	0	590348288	44	5968
2026-01-28 11:54:58.99	52.19	10.13	-35.6	-36.5	22.8	0.00e+00	3	34	0	593494016	44	5922
2026-01-28 11:55:00.00	52.36	10.15	-35.7	-36.7	22.7	0.00e+00	4	34	0	596639744	44	6029
2026-01-28 11:55:01.01	52.53	10.18	-35.8	-36.8	22.5	0.00e+00	2	34	0	599785472	44	6125
2026-01-28 11:55:02.02	52.70	10.21	-35.8	-36.8	22.7	0.00e+00	2	34	0	602931200	44	6104
2026-01-28 11:55:03.02	52.88	10.24	-35.5	-36.4	22.9	0.00e+00	1	34	0	606076928	44	5857
2026-01-28 11:55:04.03	53.05	10.26	-35.5	-36.5	22.8	0.00e+00	2	34	0	609222656	44	5890
2026-01-28 11:55:05.04	53.22	10.29	-35.6	-36.6	22.7	0.00e+00	0	34	0	612368384	44	5991
2026-01-28 11:55:06.05	53.40	10.32	-35.5	-36.5	22.8	0.00e+00	0	34	0	615514112	44	5892
2026-01-28 11:55:07.06	53.57	10.34	-35.6	-36.5	22.7	0.00e+00	6	34	0	618659840	44	5913
2026-01-28 11:55:08.07	53.74	10.37	-35.6	-36.6	22.8	0.00e+00	0	34	0	621805568	44	5960
2026-01-28 11:55:09.08	53.92	10.39	-35.5	-36.5	22.8	0.00e+00	3	34	0	624951296	44	5910
2026-01-28 11:55:10.09	54.09	10.42	-35.5	-36.4	22.9	0.00e+00	2	34	0	628097024	44	5857
2026-01-28 11:55:11.10	54.27	10.45	-35.6	-36.6	22.9	0.00e+00	2	33	0	631242752	44	5939
2026-01-28 11:55:12.11	54.45	10.47	-35.5	-36.5	23.0	0.00e+00	0	33	0	634388480	44	5862
2026-01-28 11:55:13.12	54.62	10.50	-35.5	-36.5	22.9	0.00e+00	0	34	0	637534208	44	5867
2026-01-28 11:55:14.13	54.80	10.52	-35.4	-36.4	23.0	0.00e+00	2	34	0	640679936	44	5813
2026-01-28 11:55:15.14	54.97	10.55	-35.4	-36.4	22.9	0.00e+00	1	34	0	643825664	44	5821
2026-01-28 11:55:16.15	55.15	10.57	-35.5	-36.5	22.9	0.00e+00	2	34	0	646971392	44	5874
2026-01-28 11:55:17.16	55.33	10.59	-35.7	-36.7	22.7	0.00e+00	1	33	0	650117120	44	6002
2026-01-28 11:55:18.17	55.51	10.62	-35.7	-36.7	22.7	0.00e+00	2	34	0	653262848	44	6054
2026-01-28 11:55:19.18	55.68	10.64	-35.7	-36.7	22.7	0.00e+00	4	34	0	656408576	44	6015
2026-01-28 11:55:20.19	55.86	10.67	-35.6	-36.6	22.8	0.00e+00	0	34	0	659554304	44	5936
2026-01-28 11:55:21.20	56.04	10.69	-35.6	-36.6	22.8	0.00e+00	0	34	0	662700032	44	5951
2026-01-28 11:55:22.21	56.22	10.71	-35.7	-36.6	22.7	0.00e+00	4	34	0	665845760	44	5992
2026-01-28 11:55:23.22	56.40	10.74	-35.6	-36.6	22.8	0.00e+00	1	34	0	668991488	44	5932
2026-01-28 11:55:24.23	56.58	10.76	-35.4	-36.3	23.0	0.00e+00	0	34	0	672137216	44	5773
2026-01-28 11:55:25.24	56.76	10.78	-35.4	-36.4	22.9	0.00e+00	0	34	0	675282944	44	5806
2026-01-28 11:55:26.25	56.93	10.80	-35.5	-36.4	22.8	0.00e+00	0	34	0	678428672	44	5845
2026-01-28 11:55:27.26	57.11	10.83	-35.4	-36.4	22.9	0.00e+00	4	34	0	681574400	44	5792
2026-01-28 11:55:28.27	57.29	10.85	-35.6	-36.6	22.7	0.00e+00	0	34	0	684720128	44	5984
2026-01-28 11:55:29.28	57.48	10.87	-35.7	-36.7	22.7	0.00e+00	4	34	0	687865856	44	5996
2026-01-28 11:55:30.29	57.66	10.89	-35.7	-36.7	22.6	0.00e+00	0	34	0	691011584	44	6023
2026-01-28 11:55:31.30	57.84	10.91	-35.8	-36.8	22.6	0.00e+00	0	34	0	694157312	44	6069
2026-01-28 11:55:32.31	58.02	10.93	-35.9	-36.9	22.5	0.00e+00	0	34	0	697303040	44	6156
2026-01-28 11:55:33.32	58.20	10.95	-35.9	-36.9	22.6	0.00e+00	2	34	0	700448768	44	6174
2026-01-28 11:55:34.33	58.38	10.97	-35.7	-36.7	22.8	0.00e+00	2	34	0	703594496	44	6029
2026-01-28 11:55:35.34	58.56	10.99	-35.7	-36.7	22.8	0.00e+00	7	34	0	706740224	44	6029
2026-01-28 11:55:36.35	58.75	11.01	-35.5	-36.5	23.0	0.00e+00	0	34	0	709885952	44	5907
2026-01-28 11:55:37.36	58.93	11.03	-35.6	-36.6	22.9	0.00e+00	1	34	0	713031680	44	5970
2026-01-28 11:55:38.37	59.11	11.05	-35.4	-36.4	23.0	0.00e+00	4	34	0	716177408	44	5799
2026-01-28 11:55:39.38	59.29	11.07	-35.5	-36.5	22.9	0.00e+00	1	34	0	719323136	44	5902
2026-01-28 11:55:40.39	59.48	11.09	-35.6	-36.6	22.7	0.00e+00	2	34	0	722468864	44	5961
2026-01-28 11:55:41.40	59.66	11.11	-35.5	-36.5	22.7	0.00e+00	2	34	0	725614592	44	5921
2026-01-28 11:55:42.41	59.84	11.13	-35.6	-36.7	22.7	0.00e+00	2	34	0	728760320	44	5995
2026-01-28 11:55:43.42	60.03	11.15	-35.6	-36.6	22.7	0.00e+00	1	34	0	731906048	44	5938
2026-01-28 11:55:44.43	60.21	11.16	-35.6	-36.6	22.7	0.00e+00	0	34	0	735051776	44	5979
2026-01-28 11:55:45.44	60.40	11.18	-35.4	-36.4	22.9	0.00e+00	2	34	0	738197504	44	5803
2026-01-28 11:55:46.45	60.58	11.20	-35.3	-36.2	23.0	0.00e+00	1	34	0	741343232	44	5714
2026-01-28 11:55:47.46	60.76	11.22	-35.2	-36.1	23.1	0.00e+00	2	34	0	744488960	44	5647
2026-01-28 11:55:48.47	60.95	11.23	-35.3	-36.3	23.1	0.00e+00	1	34	0	747634688	44	5731
2026-01-28 11:55:49.48	61.13	11.25	-35.3	-36.2	23.0	0.00e+00	1	34	0	751828992	44	5723
2026-01-28 11:55:50.49	61.32	11.27	-35.8	-36.8	22.7	0.00e+00	1	34	0	753926144	44	6117
2026-01-28 11:55:51.50	61.51	11.28	-35.6	-36.5	22.8	0.00e+00	1	34	0	757071872	44	5919
2026-01-28 11:55:52.50	61.69	11.30	-35.6	-36.6	22.8	0.00e+00	1	34	0	760217600	44	5938
2026-01-28 11:55:53.51	61.88	11.31	-35.4	-36.4	22.9	0.00e+00	2	34	0	763363328	44	5810
2026-01-28 11:55:54.52	62.06	11.33	-35.4	-36.4	22.9	0.00e+00	3	34	0	767557632	44	5826
2026-01-28 11:55:55.53	62.25	11.34	-35.4	-36.3	22.9	0.00e+00	2	34	0	770703360	44	5787
2026-01-28 11:55:56.54	62.43	11.36	-35.3	-36.3	23.1	0.00e+00	4	34	0	773849088	44	5757
2026-01-28 11:55:57.55	62.62	11.37	-35.3	-36.3	22.9	0.00e+00	2	34	0	776994816	44	5765
2026-01-28 11:55:58.56	62.81	11.39	-35.3	-36.3	23.1	0.00e+00	1	34	0	779091968	44	5751
2026-01-28 11:55:59.57	62.99	11.40	-35.3	-36.3	23.0	0.00e+00	2	34	0	783286272	44	5738
2026-01-28 11:56:00.59	63.18	11.42	-35.2	-36.2	23.0	0.00e+00	0	34	0	786432000	44	5701
2026-01-28 11:56:01.59	63.37	11.43	-35.2	-36.2	23.0	0.00e+00	1	34	0	789577728	44	5717
2026-01-28 11:56:02.60	63.56	11.44	-35.5	-36.5	22.8	0.00e+00	2	34	0	792723456	44	5891
2026-01-28 11:56:03.61	63.74	11.46	-35.4	-36.3	22.9	0.00e+00	2	34	0	795869184	44	5771
2026-01-28 11:56:04.62	63.93	11.47	-35.2	-36.1	23.0	0.00e+00	4	34	0	799014912	44	5659
2026-01-28 11:56:05.64	64.12	11.48	-35.3	-36.3	23.0	0.00e+00	0	34	0	802160640	44	5740
2026-01-28 11:56:06.64	64.31	11.49	-35.4	-36.3	22.8	0.00e+00	0	34	0	805306368	44	5787
2026-01-28 11:56:07.65	64.50	11.51	-35.4	-36.4	23.0	0.00e+00	0	34	0	808452096	44	5800
2026-01-28 11:56:08.66	64.69	11.52	-35.4	-36.4	23.0	0.00e+00	0	34	0	811597824	44	5802
2026-01-28 11:56:09.67	64.87	11.53	-35.4	-36.3	23.1	0.00e+00	1	34	0	814743552	44	5786
2026-01-28 11:56:10.68	65.06	11.54	-35.3	-36.2	23.1	0.00e+00	1	34	0	817889280	44	5700
2026-01-28 11:56:11.69	65.25	11.55	-35.1	-36.1	23.2	0.00e+00	1	34	0	821035008	44	5597
2026-01-28 11:56:12.70	65.44	11.56	-35.0	-35.9	23.3	0.00e+00	0	34	0	824180736	44	5503
2026-01-28 11:56:13.71	65.63	11.57	-34.9	-35.9	23.4	0.00e+00	2	34	0	827326464	44	5504
2026-01-28 11:56:14.72	65.82	11.58	-35.1	-36.1	23.2	0.00e+00	0	34	0	830472192	44	5601
2026-01-28 11:56:15.73	66.01	11.59	-35.0	-36.0	23.2	0.00e+00	0	34	0	833617920	44	5559
2026-01-28 11:56:16.74	66.20	11.60	-34.9	-35.8	23.5	0.00e+00	3	34	0	836763648	44	5452
2026-01-28 11:56:17.75	66.39	11.61	-34.9	-35.8	23.4	0.00e+00	1	34	0	839909376	44	5449
2026-01-28 11:56:18.76	66.58	11.62	-35.0	-36.0	23.2	0.00e+00	4	34	0	843055104	44	5533
2026-01-28 11:56:19.77	66.77	11.63	-35.0	-36.0	23.1	0.00e+00	3	34	0	846200832	44	5565
2026-01-28 11:56:20.77	66.96	11.64	-35.0	-36.0	23.2	0.00e+00	2	34	0	849346560	44	5532
2026-01-28 11:56:21.78	67.15	11.65	-35.0	-36.0	23.2	0.00e+00	2	34	0	852492288	44	5559
2026-01-28 11:56:22.79	67.34	11.65	-34.9	-35.8	23.3	0.00e+00	2	34	0	855638016	44	5447
2026-01-28 11:56:23.80	67.53	11.66	-34.9	-35.8	23.2	0.00e+00	2	34	0	858783744	44	5442
2026-01-28 11:56:24.82	67.72	11.67	-34.9	-35.8	23.3	0.00e+00	2	34	0	861929472	44	5453
2026-01-28 11:56:25.83	67.91	11.68	-34.8	-35.7	23.3	0.00e+00	0	34	0	865075200	44	5380
2026-01-28 11:56:26.84	68.10	11.68	-35.0	-35.9	23.2	0.00e+00	2	34	0	868220928	44	5524
2026-01-28 11:56:27.85	68.29	11.69	-35.0	-36.0	23.2	0.00e+00	0	34	0	871366656	44	5553
2026-01-28 11:56:28.86	68.48	11.69	-35.0	-35.9	23.2	0.00e+00	2	34	0	874512384	44	5512
2026-01-28 11:56:29.87	68.67	11.70	-35.1	-36.1	23.2	0.00e+00	1	34	0	877658112	44	5605
2026-01-28 11:56:30.88	68.87	11.71	-35.0	-35.9	23.2	0.00e+00	0	34	0	880803840	44	5505
2026-01-28 11:56:31.89	69.06	11.71	-35.0	-35.9	23.2	0.00e+00	0	34	0	883949568	44	5505
2026-01-28 11:56:32.90	69.25	11.72	-34.9	-35.9	23.2	0.00e+00	1	34	0	887095296	44	5477
2026-01-28 11:56:33.91	69.44	11.72	-35.0	-35.9	23.2	0.00e+00	2	34	0	890241024	44	5522
2026-01-28 11:56:34.92	69.63	11.73	-34.9	-35.9	23.3	0.00e+00	2	34	0	893386752	44	5494
2026-01-28 11:56:35.93	69.82	11.73	-34.9	-35.9	23.3	0.00e+00	2	34	0	896532480	44	5480
2026-01-28 11:56:36.95	70.01	11.73	-34.9	-35.9	23.2	0.00e+00	4	34	0	899678208	44	5484
2026-01-28 11:56:37.96	70.21	11.74	-34.9	-35.8	23.3	0.00e+00	2	34	0	902823936	44	5442
2026-01-28 11:56:38.97	70.40	11.74	-35.0	-35.9	23.3	0.00e+00	4	34	0	905969664	44	5500
2026-01-28 11:56:39.98	70.59	11.74	-34.8	-35.8	23.4	0.00e+00	1	34	0	909115392	44	5423
2026-01-28 11:56:40.99	70.78	11.75	-34.9	-35.9	23.3	0.00e+00	2	34	0	912261120	44	5498
2026-01-28 11:56:42.00	70.97	11.75	-34.9	-35.8	23.4	0.00e+00	2	34	0	915406848	44	5458
2026-01-28 11:56:43.01	71.16	11.75	-34.8	-35.8	23.2	0.00e+00	2	34	0	918552576	44	5438
2026-01-28 11:56:44.02	71.36	11.75	-34.9	-35.8	23.3	0.00e+00	1	34	0	921698304	44	5457
2026-01-28 11:56:45.03	71.55	11.76	-34.9	-35.9	23.2	0.00e+00	1	34	0	924844032	44	5484
2026-01-28 11:56:46.04	71.74	11.76	-35.0	-35.9	23.3	0.00e+00	0	34	0	927989760	44	5518
2026-01-28 11:56:47.05	71.93	11.76	-34.9	-35.9	23.3	0.00e+00	0	34	0	931135488	44	5496
2026-01-28 11:56:48.06	72.12	11.76	-35.0	-35.9	23.3	0.00e+00	0	34	0	934281216	44	5519
2026-01-28 11:56:49.07	72.31	11.76	-34.8	-35.8	23.4	0.00e+00	2	34	0	937426944	44	5408
2026-01-28 11:56:50.08	72.51	11.76	-34.9	-35.9	23.4	0.00e+00	0	34	0	940572672	44	5469
2026-01-28 11:56:51.09	72.70	11.76	-35.0	-35.9	23.3	0.00e+00	3	34	0	943718400	44	5512
2026-01-28 11:56:52.10	72.89	11.76	-35.0	-35.9	23.3	0.00e+00	1	34	0	946864128	44	5523
2026-01-28 11:56:53.11	73.08	11.76	-34.8	-35.8	23.3	0.00e+00	0	34	0	950009856	44	5444
2026-01-28 11:56:54.12	73.27	11.76	-35.1	-36.1	23.1	0.00e+00	0	34	0	953155584	44	5630
2026-01-28 11:56:55.13	73.47	11.76	-35.3	-36.3	23.1	0.00e+00	2	34	0	956301312	44	5728
2026-01-28 11:56:56.14	73.66	11.75	-35.3	-36.3	22.9	0.00e+00	3	34	0	959447040	44	5779
2026-01-28 11:56:57.15	73.85	11.75	-35.6	-36.6	22.7	0.00e+00	1	34	0	962592768	44	5962
2026-01-28 11:56:58.16	74.04	11.75	-35.7	-36.7	22.8	0.00e+00	1	34	0	965738496	44	6046
2026-01-28 11:56:59.17	74.23	11.75	-35.1	-36.0	23.3	0.00e+00	2	34	0	968884224	44	5586
2026-01-28 11:57:00.18	74.42	11.75	-35.2	-36.2	23.2	0.00e+00	2	34	0	972029952	44	5661
2026-01-28 11:57:01.19	74.62	11.74	-35.1	-36.1	23.1	0.00e+00	5	34	0	975175680	44	5634
2026-01-28 11:57:02.20	74.81	11.74	-35.0	-36.0	23.2	0.00e+00	2	34	0	978321408	44	5554
2026-01-28 11:57:03.21	75.00	11.74	-35.1	-36.0	23.2	0.00e+00	0	34	0	981467136	44	5591
2026-01-28 11:57:04.22	75.19	11.73	-35.1	-36.1	23.1	0.00e+00	0	34	0	984612864	44	5625
2026-01-28 11:57:05.23	75.38	11.73	-35.3	-36.3	23.0	0.00e+00	4	34	0	987758592	44	5775
2026-01-28 11:57:06.24	75.57	11.72	-35.3	-36.3	23.1	0.00e+00	0	34	0	990904320	44	5747
2026-01-28 11:57:07.25	75.76	11.72	-35.2	-36.2	23.2	0.00e+00	0	34	0	994050048	44	5670
2026-01-28 11:57:08.26	75.96	11.71	-35.3	-36.3	23.1	0.00e+00	0	34	0	997195776	44	5737
2026-01-28 11:57:09.27	76.15	11.71	-35.2	-36.1	23.2	0.00e+00	0	34	0	1000341504	44	5659
2026-01-28 11:57:10.27	76.34	11.70	-35.3	-36.2	23.1	0.00e+00	0	34	0	1003487232	44	5725
2026-01-28 11:57:11.28	76.53	11.70	-35.3	-36.3	23.1	0.00e+00	4	34	0	1006632960	44	5758
2026-01-28 11:57:12.29	76.72	11.69	-35.3	-36.3	23.1	0.00e+00	0	34	0	1009778688	44	5738
2026-01-28 11:57:13.31	76.91	11.68	-35.2	-36.2	23.1	0.00e+00	4	34	0	1012924416	44	5680
2026-01-28 11:57:14.31	77.10	11.68	-35.2	-36.1	23.2	0.00e+00	4	34	0	1016070144	44	5644
2026-01-28 11:57:15.33	77.29	11.67	-34.9	-35.9	23.4	0.00e+00	2	34	0	1019215872	44	5470
2026-01-28 11:57:16.34	77.48	11.66	-35.0	-35.9	23.3	0.00e+00	1	34	0	1022361600	44	5514
2026-01-28 11:57:17.34	77.67	11.66	-34.9	-35.9	23.4	0.00e+00	0	34	0	1025507328	44	5486
2026-01-28 11:57:18.35	77.86	11.65	-35.2	-36.2	23.2	0.00e+00	2	34	0	1028653056	44	5669
2026-01-28 11:57:19.36	78.05	11.64	-35.1	-36.0	23.2	0.00e+00	0	34	0	1031798784	44	5564
2026-01-28 11:57:20.37	78.24	11.63	-35.2	-36.1	23.1	0.00e+00	2	34	0	1034944512	44	5658
2026-01-28 11:57:21.38	78.43	11.62	-35.1	-36.1	23.3	0.00e+00	2	34	0	1038090240	44	5599
2026-01-28 11:57:22.39	78.62	11.61	-35.2	-36.2	23.0	0.00e+00	2	34	0	1041235968	44	5705
2026-01-28 11:57:23.40	78.81	11.61	-35.4	-36.4	22.9	0.00e+00	2	34	0	1044381696	44	5806
2026-01-28 11:57:24.41	79.00	11.60	-34.9	-35.8	23.4	0.00e+00	2	34	0	1047527424	44	5455
2026-01-28 11:57:25.42	79.19	11.59	-34.8	-35.8	23.4	0.00e+00	4	34	0	1050673152	44	5414
2026-01-28 11:57:26.43	79.38	11.58	-34.7	-35.7	23.4	0.00e+00	0	34	0	1053818880	44	5354
2026-01-28 11:57:27.44	79.57	11.57	-34.8	-35.7	23.5	0.00e+00	0	34	0	1056964608	42	6055
2026-01-28 11:57:28.45	79.76	11.56	-34.8	-35.8	23.5	0.00e+00	2	34	0	1060110336	42	6069
2026-01-28 11:57:29.46	79.95	11.54	-35.0	-35.9	23.3	0.00e+00	1	34	0	1063256064	42	6193
2026-01-28 11:57:30.47	80.14	11.53	-35.0	-36.0	23.2	0.00e+00	2	34	0	1067450368	42	6236
2026-01-28 11:57:31.48	80.33	11.52	-35.1	-36.0	23.2	0.00e+00	0	34	0	1070596096	42	6274
2026-01-28 11:57:32.49	80.52	11.51	-35.0	-36.0	23.3	0.00e+00	1	34	0	1072693248	42	6235
2026-01-28 11:57:33.50	80.71	11.50	-35.4	-36.3	23.1	0.00e+00	2	34	0	1075838976	42	6486
2026-01-28 11:57:34.52	80.90	11.49	-35.4	-36.4	23.0	0.00e+00	1	34	0	1078984704	42	6518
2026-01-28 11:57:35.53	81.09	11.47	-35.3	-36.2	23.2	0.00e+00	1	34	0	1083179008	42	6420
2026-01-28 11:57:36.54	81.28	11.46	-35.2	-36.2	23.2	0.00e+00	4	34	0	1086324736	42	6370
2026-01-28 11:57:37.55	81.46	11.45	-35.2	-36.2	23.1	0.00e+00	2	34	0	1089470464	42	6362
2026-01-28 11:57:38.56	81.65	11.43	-35.3	-36.2	23.2	0.00e+00	2	34	0	1092616192	42	6416
2026-01-28 11:57:39.57	81.84	11.42	-35.3	-36.3	23.0	0.00e+00	2	34	0	1094713344	42	6481
2026-01-28 11:57:40.58	82.03	11.41	-35.3	-36.3	23.1	0.00e+00	2	34	0	1098907648	42	6425
2026-01-28 11:57:41.59	82.21	11.39	-35.3	-36.3	23.1	0.00e+00	2	34	0	1102053376	42	6433
2026-01-28 11:57:42.60	82.40	11.38	-35.3	-36.3	23.0	0.00e+00	0	34	0	1105199104	42	6487
2026-01-28 11:57:43.61	82.59	11.36	-35.5	-36.4	22.9	0.00e+00	2	34	0	1108344832	42	6564
2026-01-28 11:57:44.62	82.78	11.35	-35.2	-36.2	23.1	0.00e+00	2	34	0	1111490560	42	6395
2026-01-28 11:57:45.63	82.96	11.33	-35.5	-36.5	22.8	0.00e+00	0	34	0	1114636288	42	6575
2026-01-28 11:57:46.64	83.15	11.32	-35.5	-36.4	22.9	0.00e+00	1	34	0	1117782016	42	6553
2026-01-28 11:57:47.64	83.33	11.30	-35.6	-36.6	22.7	0.00e+00	0	34	0	1120927744	42	6718
2026-01-28 11:57:48.66	83.52	11.29	-35.6	-36.6	22.6	0.00e+00	1	34	0	1124073472	42	6695
2026-01-28 11:57:49.66	83.71	11.27	-35.2	-36.1	23.1	0.00e+00	0	34	0	1127219200	42	6343
2026-01-28 11:57:50.67	83.89	11.26	-35.2	-36.2	23.1	0.00e+00	4	34	0	1130364928	42	6363
2026-01-28 11:57:51.68	84.08	11.24	-35.1	-36.1	23.2	0.00e+00	1	34	0	1133510656	42	6295
2026-01-28 11:57:52.69	84.26	11.22	-35.1	-36.1	23.3	0.00e+00	1	34	0	1136656384	42	6286
2026-01-28 11:57:53.70	84.45	11.20	-35.1	-36.1	23.2	0.00e+00	3	34	0	1139802112	42	6316
2026-01-28 11:57:54.71	84.63	11.19	-35.1	-36.1	23.3	0.00e+00	0	34	0	1142947840	42	6289
2026-01-28 11:57:55.72	84.82	11.17	-35.1	-36.1	23.2	0.00e+00	2	34	0	1146093568	42	6285
2026-01-28 11:57:56.73	85.00	11.15	-35.4	-36.4	23.0	0.00e+00	4	34	0	1149239296	42	6526
2026-01-28 11:57:57.74	85.19	11.13	-35.3	-36.2	23.1	0.00e+00	3	34	0	1152385024	42	6398
2026-01-28 11:57:58.75	85.37	11.11	-35.2	-36.2	23.1	0.00e+00	0	34	0	1155530752	42	6387
2026-01-28 11:57:59.77	85.56	11.10	-35.3	-36.3	23.0	0.00e+00	3	34	0	1158676480	42	6444
2026-01-28 11:58:00.78	85.74	11.08	-35.4	-36.4	22.9	0.00e+00	2	34	0	1161822208	42	6530
2026-01-28 11:58:01.79	85.92	11.06	-35.2	-36.2	23.1	0.00e+00	2	34	0	1164967936	42	6412
2026-01-28 11:58:02.80	86.11	11.04	-35.2	-36.1	23.3	0.00e+00	2	34	0	1168113664	42	6334
2026-01-28 11:58:03.81	86.29	11.02	-35.1	-36.0	23.3	0.00e+00	2	34	0	1171259392	42	6268
2026-01-28 11:58:04.82	86.47	11.00	-35.1	-36.0	23.2	0.00e+00	2	34	0	1174405120	42	6271
2026-01-28 11:58:05.83	86.66	10.98	-35.1	-36.1	23.3	0.00e+00	0	34	0	1177550848	42	6281
2026-01-28 11:58:06.84	86.84	10.96	-35.2	-36.2	23.2	0.00e+00	4	34	0	1180696576	42	6383
2026-01-28 11:58:07.85	87.02	10.94	-34.9	-35.9	23.4	0.00e+00	0	34	0	1183842304	42	6161
2026-01-28 11:58:08.86	87.20	10.92	-35.1	-36.0	23.3	0.00e+00	2	34	0	1186988032	42	6253
2026-01-28 11:58:09.87	87.38	10.90	-35.1	-36.1	23.3	0.00e+00	0	34	0	1190133760	42	6300
2026-01-28 11:58:10.88	87.56	10.87	-35.2	-36.2	23.1	0.00e+00	0	34	0	1193279488	42	6385
2026-01-28 11:58:11.89	87.75	10.85	-35.2	-36.2	23.2	0.00e+00	0	34	0	1196425216	42	6357
2026-01-28 11:58:12.90	87.93	10.83	-35.1	-36.1	23.3	0.00e+00	2	34	0	1199570944	42	6281
2026-01-28 11:58:13.91	88.11	10.81	-35.2	-36.2	23.2	0.00e+00	2	34	0	1202716672	42	6383
2026-01-28 11:58:14.92	88.29	10.79	-35.3	-36.3	23.2	0.00e+00	4	34	0	1205862400	42	6447
2026-01-28 11:58:15.93	88.47	10.76	-35.2	-36.2	23.2	0.00e+00	4	34	0	1209008128	42	6400
2026-01-28 11:58:16.94	88.65	10.74	-35.3	-36.3	23.2	0.00e+00	4	34	0	1212153856	42	6464
2026-01-28 11:58:17.95	88.83	10.72	-35.3	-36.4	23.2	0.00e+00	2	34	0	1215299584	42	6499
2026-01-28 11:58:18.96	89.01	10.69	-35.4	-36.4	23.1	0.00e+00	3	34	0	1218445312	42	6566
2026-01-28 11:58:19.97	89.18	10.67	-35.3	-36.3	23.1	0.00e+00	4	34	0	1221591040	42	6485
2026-01-28 11:58:20.97	89.36	10.65	-35.1	-36.1	23.3	0.00e+00	2	34	0	1224736768	42	6320
2026-01-28 11:58:21.98	89.54	10.62	-35.3	-36.2	23.1	0.00e+00	0	34	0	1227882496	42	6414
2026-01-28 11:58:22.99	89.72	10.60	-35.2	-36.2	23.2	0.00e+00	1	34	0	1231028224	42	6388
2026-01-28 11:58:24.00	89.90	10.58	-35.3	-36.2	23.2	0.00e+00	2	34	0	1234173952	42	6407
2026-01-28 11:58:25.01	90.07	10.55	-35.2	-36.2	23.2	0.00e+00	2	34	0	1237319680	42	6369
2026-01-28 11:58:26.02	90.25	10.53	-35.2	-36.2	23.2	0.00e+00	2	34	0	1240465408	42	6371
2026-01-28 11:58:27.03	90.43	10.50	-35.1	-36.1	23.2	0.00e+00	0	34	0	1243611136	42	6318
2026-01-28 11:58:28.04	90.60	10.48	-35.2	-36.1	23.3	0.00e+00	2	34	0	1246756864	42	6341
2026-01-28 11:58:29.05	90.78	10.45	-35.3	-36.3	23.2	0.00e+00	0	34	0	1249902592	42	6442
2026-01-28 11:58:30.06	90.96	10.43	-35.3	-36.3	23.1	0.00e+00	0	34	0	1253048320	42	6427
2026-01-28 11:58:31.07	91.13	10.40	-35.4	-36.4	23.0	0.00e+00	2	34	0	1256194048	42	6557
2026-01-28 11:58:32.08	91.31	10.37	-35.4	-36.4	22.9	0.00e+00	0	34	0	1259339776	42	6541
2026-01-28 11:58:33.09	91.48	10.35	-35.5	-36.5	22.9	0.00e+00	1	34	0	1262485504	42	6603
2026-01-28 11:58:34.10	91.66	10.32	-35.0	-36.0	23.4	0.00e+00	0	34	0	1265631232	42	6240
2026-01-28 11:58:35.11	91.83	10.29	-35.3	-36.3	23.1	0.00e+00	0	34	0	1268776960	42	6432
2026-01-28 11:58:36.12	92.01	10.27	-35.3	-36.3	23.1	0.00e+00	0	34	0	1271922688	42	6451
2026-01-28 11:58:37.14	92.18	10.24	-35.5	-36.5	22.8	0.00e+00	2	34	0	1275068416	42	6617
2026-01-28 11:58:38.15	92.36	10.21	-35.5	-36.5	22.9	0.00e+00	3	34	0	1278214144	44	5881
2026-01-28 11:58:39.16	92.53	10.19	-35.5	-36.5	22.7	0.00e+00	2	34	0	1281359872	44	5904
2026-01-28 11:58:40.17	92.70	10.16	-35.9	-36.9	22.5	0.00e+00	0	34	0	1284505600	44	6154
2026-01-28 11:58:41.18	92.88	10.13	-35.7	-36.7	22.6	0.00e+00	2	34	0	1287651328	44	6023
2026-01-28 11:58:42.19	93.05	10.10	-35.5	-36.5	22.8	0.00e+00	2	34	0	1290797056	44	5893
2026-01-28 11:58:43.19	93.22	10.07	-35.5	-36.5	22.8	0.00e+00	4	34	0	1293942784	44	5864
2026-01-28 11:58:44.20	93.39	10.05	-35.5	-36.5	22.8	0.00e+00	2	34	0	1297088512	44	5890
2026-01-28 11:58:45.21	93.56	10.02	-35.5	-36.4	22.8	0.00e+00	0	34	0	1300234240	44	5845
2026-01-28 11:58:46.22	93.73	9.99	-35.5	-36.5	22.8	0.00e+00	2	34	0	1303379968	44	5892
2026-01-28 11:58:47.23	93.90	9.96	-35.9	-36.9	22.4	0.00e+00	2	34	0	1306525696	44	6168
2026-01-28 11:58:48.24	94.07	9.93	-35.4	-36.4	22.8	0.00e+00	3	34	0	1309671424	44	5835
2026-01-28 11:58:49.25	94.24	9.90	-35.6	-36.6	22.7	0.00e+00	4	34	0	1312817152	44	5960
2026-01-28 11:58:50.26	94.41	9.87	-35.5	-36.6	22.8	0.00e+00	0	34	0	1315962880	44	5927
2026-01-28 11:58:51.27	94.58	9.84	-35.4	-36.4	22.9	0.00e+00	2	34	0	1319108608	44	5822
2026-01-28 11:58:52.27	94.75	9.81	-35.2	-36.2	23.0	0.00e+00	0	34	0	1322254336	44	5707
2026-01-28 11:58:53.28	94.92	9.78	-35.3	-36.3	22.9	0.00e+00	4	34	0	1325400064	44	5770
2026-01-28 11:58:54.29	95.09	9.75	-35.2	-36.2	22.9	0.00e+00	1	34	0	1328545792	44	5720
2026-01-28 11:58:55.30	95.26	9.72	-35.2	-36.2	23.0	0.00e+00	0	34	0	1331691520	44	5705
2026-01-28 11:58:56.31	95.42	9.69	-35.2	-36.2	23.1	0.00e+00	0	34	0	1334837248	44	5667
2026-01-28 11:58:57.32	95.59	9.66	-35.1	-36.1	23.1	0.00e+00	1	34	0	1337982976	44	5640
2026-01-28 11:58:58.33	95.76	9.63	-35.2	-36.1	23.1	0.00e+00	2	34	0	1341128704	44	5653
2026-01-28 11:58:59.34	95.93	9.60	-35.2	-36.2	23.0	0.00e+00	2	34	0	1344274432	44	5664
2026-01-28 11:59:00.35	96.09	9.57	-35.2	-36.1	23.0	0.00e+00	4	34	0	1347420160	44	5647
2026-01-28 11:59:01.36	96.26	9.53	-35.4	-36.4	22.9	0.00e+00	0	34	0	1350565888	44	5850
2026-01-28 11:59:02.37	96.42	9.50	-35.7	-36.7	22.7	0.00e+00	4	34	0	1353711616	44	6059
2026-01-28 11:59:03.38	96.59	9.47	-35.4	-36.3	22.9	0.00e+00	2	34	0	1356857344	44	5788
2026-01-28 11:59:04.39	96.75	9.44	-35.6	-36.6	22.8	0.00e+00	2	34	0	1360003072	44	5929
2026-01-28 11:59:05.40	96.92	9.41	-35.4	-36.4	22.9	0.00e+00	2	34	0	1363148800	44	5821
2026-01-28 11:59:06.41	97.08	9.37	-35.5	-36.5	22.8	0.00e+00	2	34	0	1366294528	44	5866
2026-01-28 11:59:07.42	97.25	9.34	-35.5	-36.5	22.8	0.00e+00	2	33	0	1369440256	44	5918
2026-01-28 11:59:08.43	97.41	9.31	-35.6	-36.6	22.6	0.00e+00	0	34	0	1372585984	44	5949
2026-01-28 11:59:09.44	97.57	9.28	-35.8	-36.8	22.5	0.00e+00	0	34	0	1375731712	44	6111
2026-01-28 11:59:10.45	97.74	9.24	-35.6	-36.6	22.6	0.00e+00	2	34	0	1378877440	44	5972
2026-01-28 11:59:11.46	97.90	9.21	-35.4	-36.4	22.8	0.00e+00	0	34	0	1382023168	44	5845
2026-01-28 11:59:12.47	98.06	9.18	-35.6	-36.7	22.6	0.00e+00	2	34	0	1385168896	44	6055
2026-01-28 11:59:13.48	98.22	9.14	-35.7	-36.8	22.5	0.00e+00	4	34	0	1388314624	44	6076
2026-01-28 11:59:14.48	98.38	9.11	-35.6	-36.6	22.6	0.00e+00	0	34	0	1391460352	44	5975
2026-01-28 11:59:15.49	98.54	9.08	-35.5	-36.5	22.7	0.00e+00	0	34	0	1394606080	44	5903
2026-01-28 11:59:16.50	98.71	9.04	-35.6	-36.6	22.6	0.00e+00	0	34	0	1397751808	44	5971
2026-01-28 11:59:17.51	98.87	9.01	-35.5	-36.4	22.7	0.00e+00	1	34	0	1400897536	44	5852
2026-01-28 11:59:18.52	99.03	8.97	-35.4	-36.4	22.8	0.00e+00	2	34	0	1405091840	44	5825
2026-01-28 11:59:19.53	99.19	8.94	-35.8	-36.8	22.5	0.00e+00	2	34	0	1408237568	44	6090
2026-01-28 11:59:20.54	99.35	8.90	-35.9	-36.9	22.5	0.00e+00	2	34	0	1410334720	44	6146
2026-01-28 11:59:21.55	99.50	8.87	-35.9	-36.9	22.5	0.00e+00	1	34	0	1413480448	44	6145
2026-01-28 11:59:22.56	99.66	8.84	-36.0	-37.0	22.3	0.00e+00	2	34	0	1416626176	44	6215
2026-01-28 11:59:23.57	99.82	8.80	-35.9	-36.9	22.2	0.00e+00	2	33	0	1420820480	44	6205
2026-01-28 11:59:24.58	99.98	8.77	-36.2	-37.2	22.0	0.00e+00	0	34	0	1423966208	44	6423
2026-01-28 11:59:25.59	100.14	8.73	-36.3	-37.4	22.0	0.00e+00	2	33	0	1427111936	44	6524
2026-01-28 11:59:26.60	100.29	8.69	-36.1	-37.1	22.1	0.00e+00	2	34	0	1430257664	44	6323
2026-01-28 11:59:27.61	100.45	8.66	-36.1	-37.2	22.2	0.00e+00	0	34	0	1433403392	44	6363
2026-01-28 11:59:28.62	100.61	8.62	-35.8	-36.8	22.5	0.00e+00	0	34	0	1436549120	44	6130
2026-01-28 11:59:29.63	100.76	8.59	-35.9	-36.9	22.3	0.00e+00	0	34	0	1439694848	44	6174
2026-01-28 11:59:30.64	100.92	8.55	-36.0	-37.0	22.3	0.00e+00	2	34	0	1442840576	44	6236
2026-01-28 11:59:31.65	101.07	8.52	-35.7	-36.7	22.5	0.00e+00	0	34	0	1445986304	44	6062
2026-01-28 11:59:32.66	101.23	8.48	-36.0	-37.1	22.2	0.00e+00	2	34	0	1449132032	44	6289
2026-01-28 11:59:33.67	101.38	8.44	-36.1	-37.1	22.2	0.00e+00	1	34	0	1452277760	44	6304
2026-01-28 11:59:34.68	101.54	8.41	-35.9	-36.9	22.3	0.00e+00	4	34	0	1455423488	44	6191
2026-01-28 11:59:35.69	101.69	8.37	-36.4	-37.4	21.7	0.00e+00	0	34	0	1458569216	44	6563
2026-01-28 11:59:36.71	101.85	8.33	-36.4	-37.5	22.0	0.00e+00	2	34	0	1461714944	44	6580
2026-01-28 11:59:37.72	102.00	8.30	-35.7	-36.7	22.5	0.00e+00	4	34	0	1464860672	44	6042
2026-01-28 11:59:38.72	102.15	8.26	-36.0	-37.1	22.2	0.00e+00	0	34	0	1468006400	44	6298
2026-01-28 11:59:39.74	102.31	8.22	-35.9	-37.0	22.2	0.00e+00	4	34	0	1471152128	44	6229
2026-01-28 11:59:40.74	102.46	8.19	-35.9	-37.0	22.2	0.00e+00	0	34	0	1474297856	44	6246
2026-01-28 11:59:41.76	102.61	8.15	-36.1	-37.2	22.0	0.00e+00	2	34	0	1477443584	44	6402
2026-01-28 11:59:42.77	102.76	8.11	-36.0	-37.2	22.0	0.00e+00	2	34	0	1480589312	44	6394
2026-01-28 11:59:43.78	102.91	8.07	-35.9	-37.2	21.9	0.00e+00	2	34	0	1483735040	44	6373
2026-01-28 11:59:44.79	103.06	8.04	-35.8	-37.0	22.1	0.00e+00	2	34	0	1486880768	44	6270
2026-01-28 11:59:45.80	103.21	8.00	-36.1	-37.3	22.0	0.00e+00	2	34	0	1490026496	44	6474
2026-01-28 11:59:46.81	103.36	7.96	-36.3	-37.4	21.9	0.00e+00	2	33	0	1493172224	44	6548
2026-01-28 11:59:47.82	103.51	7.92	-35.9	-37.0	22.2	0.00e+00	0	34	0	1496317952	44	6239
2026-01-28 11:59:48.83	103.66	7.89	-36.0	-37.0	22.1	0.00e+00	3	34	0	1499463680	44	6275
2026-01-28 11:59:49.84	103.81	7.85	-36.2	-37.2	21.9	0.00e+00	0	34	0	1502609408	44	6414
2026-01-28 11:59:50.85	103.96	7.81	-36.3	-37.4	21.8	0.00e+00	0	34	0	1505755136	44	6566
2026-01-28 11:59:51.86	104.11	7.77	-36.2	-37.2	22.0	0.00e+00	0	34	0	1508900864	44	6403
2026-01-28 11:59:52.87	104.25	7.73	-35.8	-36.9	22.3	0.00e+00	0	34	0	1512046592	44	6136
2026-01-28 11:59:53.88	104.40	7.69	-36.0	-37.0	22.0	0.00e+00	0	33	0	1515192320	44	6263
2026-01-28 11:59:54.89	104.55	7.66	-36.0	-37.1	22.0	0.00e+00	0	34	0	1518338048	44	6324
2026-01-28 11:59:55.90	104.69	7.62	-36.1	-37.1	22.0	0.00e+00	0	34	0	1521483776	44	6344
2026-01-28 11:59:56.91	104.84	7.58	-36.3	-37.4	21.9	0.00e+00	2	34	0	1524629504	44	6530
2026-01-28 11:59:57.92	104.98	7.54	-36.3	-37.3	21.9	0.00e+00	4	34	0	1527775232	44	6479
2026-01-28 11:59:58.93	105.13	7.50	-36.2	-37.2	22.0	0.00e+00	2	34	0	1530920960	44	6410
2026-01-28 11:59:59.94	105.28	7.46	-36.2	-37.3	22.0	0.00e+00	2	34	0	1534066688	44	6449
2026-01-28 12:00:00.95	105.42	7.42	-36.5	-37.5	21.8	0.00e+00	0	34	0	1537212416	44	6639
2026-01-28 12:00:01.96	105.56	7.38	-36.3	-37.3	21.9	0.00e+00	3	34	0	1540358144	44	6488
2026-01-28 12:00:02.97	105.71	7.34	-36.6	-37.7	21.7	0.00e+00	2	34	0	1543503872	44	6756
2026-01-28 12:00:03.98	105.85	7.30	-36.8	-37.9	21.5	0.00e+00	0	34	0	1546649600	44	6902
2026-01-28 12:00:04.99	105.99	7.26	-36.9	-38.0	21.3	0.00e+00	2	34	0	1549795328	46	6230
2026-01-28 12:00:06.00	106.14	7.22	-36.5	-37.5	21.8	0.00e+00	2	34	0	1552941056	46	5921
2026-01-28 12:00:07.01	106.28	7.18	-36.2	-37.3	22.0	0.00e+00	2	34	0	1556086784	46	5736
2026-01-28 12:00:08.01	106.42	7.14	-36.2	-37.3	22.1	0.00e+00	2	34	0	1559232512	46	5751
2026-01-28 12:00:09.02	106.56	7.10	-36.0	-37.2	22.1	0.00e+00	0	34	0	1562378240	46	5666
2026-01-28 12:00:10.03	106.70	7.06	-36.3	-37.5	21.9	0.00e+00	0	34	0	1565523968	46	5872
2026-01-28 12:00:11.04	106.84	7.02	-36.2	-37.5	21.9	0.00e+00	0	34	0	1568669696	46	5862
2026-01-28 12:00:12.05	106.98	6.98	-36.4	-37.5	21.7	0.00e+00	0	34	0	1571815424	46	5920
2026-01-28 12:00:13.06	107.12	6.94	-36.4	-37.5	21.8	0.00e+00	2	34	0	1574961152	46	5895
2026-01-28 12:00:14.07	107.26	6.90	-36.3	-37.3	21.8	0.00e+00	2	34	0	1578106880	46	5786
2026-01-28 12:00:15.08	107.40	6.86	-36.5	-37.5	21.8	0.00e+00	0	34	0	1581252608	46	5902
2026-01-28 12:00:16.09	107.54	6.82	-36.4	-37.5	21.8	0.00e+00	0	34	0	1584398336	46	5861
2026-01-28 12:00:17.10	107.68	6.78	-36.3	-37.4	21.9	0.00e+00	2	34	0	1587544064	46	5803
2026-01-28 12:00:18.11	107.82	6.74	-36.3	-37.4	21.8	0.00e+00	7	34	0	1590689792	46	5834
2026-01-28 12:00:19.12	107.96	6.70	-36.4	-37.6	21.8	0.00e+00	2	33	0	1593835520	46	5944
2026-01-28 12:00:20.13	108.09	6.66	-36.4	-37.5	21.8	0.00e+00	2	34	0	1596981248	46	5926
2026-01-28 12:00:21.15	108.23	6.62	-36.4	-37.5	21.7	0.00e+00	2	34	0	1600126976	46	5894
2026-01-28 12:00:22.16	108.37	6.58	-36.5	-37.7	21.6	0.00e+00	2	34	0	1603272704	46	6014
2026-01-28 12:00:23.17	108.51	6.54	-36.7	-37.8	21.5	0.00e+00	2	34	0	1606418432	46	6133
2026-01-28 12:00:24.18	108.64	6.50	-36.7	-37.9	21.4	0.00e+00	2	34	0	1609564160	46	6143
2026-01-28 12:00:25.19	108.78	6.45	-36.7	-37.9	21.5	0.00e+00	0	34	0	1612709888	46	6150
2026-01-28 12:00:26.20	108.91	6.41	-36.9	-38.0	21.4	0.00e+00	2	34	0	1615855616	46	6229
2026-01-28 12:00:27.21	109.05	6.37	-37.0	-38.1	21.2	0.00e+00	0	34	0	1619001344	46	6338
2026-01-28 12:00:28.22	109.18	6.33	-36.6	-37.7	21.6	0.00e+00	2	34	0	1622147072	46	6022
2026-01-28 12:00:29.23	109.32	6.29	-36.5	-37.6	21.7	0.00e+00	0	34	0	1625292800	46	5943
2026-01-28 12:00:30.24	109.45	6.25	-36.8	-38.0	21.4	0.00e+00	2	34	0	1628438528	46	6213
2026-01-28 12:00:31.24	109.58	6.21	-36.5	-37.6	21.7	0.00e+00	0	34	0	1631584256	46	5971
2026-01-28 12:00:32.26	109.72	6.16	-37.0	-38.1	21.1	0.00e+00	2	34	0	1634729984	46	6328
2026-01-28 12:00:33.26	109.85	6.12	-36.7	-37.8	21.3	0.00e+00	2	34	0	1637875712	46	6118
2026-01-28 12:00:34.27	109.98	6.08	-36.8	-38.0	21.2	0.00e+00	0	34	0	1641021440	46	6231
2026-01-28 12:00:35.28	110.11	6.04	-36.8	-37.9	21.4	0.00e+00	0	34	0	1644167168	46	6155
2026-01-28 12:00:36.29	110.24	6.00	-36.5	-37.6	21.6	0.00e+00	2	34	0	1647312896	46	5952
2026-01-28 12:00:37.30	110.38	5.96	-36.8	-37.9	21.4	0.00e+00	0	34	0	1650458624	46	6190
2026-01-28 12:00:38.31	110.51	5.91	-36.7	-37.8	21.4	0.00e+00	0	34	0	1653604352	46	6112
2026-01-28 12:00:39.32	110.64	5.87	-36.5	-37.7	21.6	0.00e+00	2	34	0	1656750080	46	6007
2026-01-28 12:00:40.33	110.77	5.83	-36.6	-37.7	21.5	0.00e+00	2	33	0	1659895808	46	6025
2026-01-28 12:00:41.34	110.90	5.79	-36.9	-38.0	21.1	0.00e+00	2	34	0	1663041536	46	6254
2026-01-28 12:00:42.35	111.03	5.75	-36.9	-38.0	21.3	0.00e+00	2	34	0	1666187264	46	6260
2026-01-28 12:00:43.36	111.16	5.70	-36.6	-37.7	21.5	0.00e+00	0	34	0	1669332992	46	6048
2026-01-28 12:00:44.37	111.28	5.66	-36.8	-37.9	21.3	0.00e+00	2	34	0	1672478720	46	6201
2026-01-28 12:00:45.37	111.41	5.62	-36.5	-37.7	21.4	0.00e+00	2	34	0	1675624448	46	6012
2026-01-28 12:00:46.38	111.54	5.58	-36.5	-37.6	21.4	0.00e+00	4	34	0	1678770176	46	5985
2026-01-28 12:00:47.39	111.67	5.53	-36.4	-37.4	21.8	0.00e+00	2	34	0	1681915904	46	5855
2026-01-28 12:00:48.41	111.80	5.49	-36.8	-37.9	21.5	0.00e+00	2	34	0	1685061632	46	6162
2026-01-28 12:00:49.42	111.92	5.45	-37.0	-38.1	21.0	0.00e+00	0	34	0	1688207360	46	6310
2026-01-28 12:00:50.42	112.05	5.41	-37.2	-38.3	20.9	0.00e+00	0	34	0	1691353088	46	6455
2026-01-28 12:00:51.42	112.17	5.36	-37.3	-38.4	20.7	0.00e+00	0	34	0	1694498816	46	6570
2026-01-28 12:00:52.43	112.30	5.32	-37.2	-38.3	21.0	0.00e+00	0	34	0	1697644544	46	6453
2026-01-28 12:00:53.44	112.42	5.28	-36.8	-37.9	21.3	0.00e+00	0	34	0	1700790272	46	6165
2026-01-28 12:00:54.45	112.55	5.24	-36.8	-37.9	21.2	0.00e+00	2	34	0	1703936000	46	6197
2026-01-28 12:00:55.46	112.67	5.19	-37.0	-38.1	21.0	0.00e+00	2	34	0	1707081728	46	6345
2026-01-28 12:00:56.47	112.80	5.15	-37.0	-38.1	21.0	0.00e+00	2	34	0	1710227456	46	6321
2026-01-28 12:00:57.48	112.92	5.11	-37.0	-38.2	21.1	0.00e+00	5	34	0	1713373184	46	6357
2026-01-28 12:00:58.49	113.05	5.06	-37.0	-38.1	21.1	0.00e+00	0	34	0	1716518912	46	6315
2026-01-28 12:00:59.50	113.17	5.02	-36.7	-37.8	21.2	0.00e+00	0	34	0	1719664640	46	6121
2026-01-28 12:01:00.49	113.29	4.98	-36.3	-37.3	21.7	0.00e+00	0	34	0	1722810368	46	5776
2026-01-28 12:01:01.50	113.41	4.94	-36.8	-37.9	21.3	0.00e+00	0	34	0	1725956096	46	6154
2026-01-28 12:01:02.51	113.54	4.89	-36.8	-37.9	21.2	0.00e+00	0	34	0	1729101824	46	6151
2026-01-28 12:01:03.52	113.66	4.85	-36.7	-37.8	21.2	0.00e+00	0	34	0	1732247552	46	6107
2026-01-28 12:01:04.53	113.78	4.81	-37.0	-38.1	21.1	0.00e+00	2	34	0	1735393280	46	6304
2026-01-28 12:01:05.54	113.90	4.76	-36.9	-38.0	20.9	0.00e+00	2	34	0	1738539008	46	6270
2026-01-28 12:01:06.55	114.02	4.72	-37.0	-38.2	20.7	0.00e+00	0	34	0	1741684736	46	6351
2026-01-28 12:01:07.56	114.14	4.68	-37.3	-38.4	20.7	0.00e+00	4	34	0	1744830464	46	6564
2026-01-28 12:01:08.57	114.26	4.63	-37.0	-38.2	20.8	0.00e+00	4	34	0	1749024768	46	6358
2026-01-28 12:01:09.58	114.38	4.59	-37.0	-38.2	20.8	0.00e+00	2	34	0	1751121920	46	6355
2026-01-28 12:01:10.59	114.50	4.55	-37.5	-38.7	20.2	0.00e+00	2	34	0	1754267648	46	6778
2026-01-28 12:01:11.60	114.62	4.50	-36.8	-38.0	21.0	0.00e+00	0	34	0	1757413376	46	6217
2026-01-28 12:01:12.61	114.74	4.46	-37.5	-38.8	20.2	0.00e+00	2	34	0	1760559104	46	6807
2026-01-28 12:01:13.62	114.86	4.42	-37.2	-38.4	20.6	0.00e+00	0	34	0	1764753408	46	6513
2026-01-28 12:01:14.63	114.98	4.37	-37.3	-38.5	20.5	0.00e+00	4	34	0	1767899136	46	6597
2026-01-28 12:01:15.64	115.10	4.33	-37.7	-38.9	20.2	0.00e+00	0	34	0	1771044864	48	6198
2026-01-28 12:01:16.65	115.21	4.29	-37.5	-38.7	20.3	0.00e+00	2	34	0	1773142016	48	6027
2026-01-28 12:01:17.66	115.33	4.24	-36.9	-38.1	20.8	0.00e+00	0	34	0	1776287744	48	5635
2026-01-28 12:01:18.67	115.45	4.20	-37.4	-38.6	20.3	0.00e+00	2	34	0	1780482048	48	5943
2026-01-28 12:01:19.68	115.57	4.16	-36.8	-38.0	20.9	0.00e+00	0	34	0	1783627776	48	5556
2026-01-28 12:01:20.69	115.68	4.11	-37.2	-38.3	20.7	0.00e+00	0	34	0	1786773504	46	6494
2026-01-28 12:01:21.70	115.80	4.07	-37.3	-38.5	20.5	0.00e+00	0	34	0	1789919232	46	6614
2026-01-28 12:01:22.71	115.91	4.02	-37.5	-38.7	20.5	0.00e+00	0	34	0	1793064960	46	6753
2026-01-28 12:01:23.72	116.03	3.98	-37.4	-38.6	20.4	0.00e+00	2	34	0	1796210688	46	6671
2026-01-28 12:01:24.73	116.14	3.94	-37.5	-38.7	20.3	0.00e+00	2	34	0	1799356416	46	6728
2026-01-28 12:01:25.74	116.26	3.89	-37.4	-38.6	20.6	0.00e+00	2	34	0	1802502144	46	6677
2026-01-28 12:01:26.75	116.37	3.85	-37.1	-38.3	20.4	0.00e+00	2	34	0	1805647872	46	6430
2026-01-28 12:01:27.76	116.49	3.81	-37.2	-38.4	20.3	0.00e+00	3	34	0	1808793600	48	5850
2026-01-28 12:01:28.77	116.60	3.76	-36.8	-37.9	20.8	0.00e+00	2	34	0	1811939328	48	5523
2026-01-28 12:01:29.78	116.71	3.72	-37.6	-38.8	20.1	0.00e+00	0	34	0	1815085056	48	6111
2026-01-28 12:01:30.79	116.83	3.67	-37.5	-38.7	20.3	0.00e+00	1	34	0	1818230784	48	6019
2026-01-28 12:01:31.80	116.94	3.63	-37.6	-38.8	20.1	0.00e+00	0	34	0	1821376512	48	6099
2026-01-28 12:01:32.81	117.05	3.59	-37.3	-38.4	20.4	0.00e+00	2	34	0	1824522240	48	5846
2026-01-28 12:01:33.82	117.16	3.54	-37.4	-38.6	20.2	0.00e+00	2	34	0	1827667968	48	5970
2026-01-28 12:01:34.83	117.28	3.50	-37.9	-39.2	19.6	0.00e+00	0	34	0	1830813696	48	6411
2026-01-28 12:01:35.84	117.39	3.45	-37.8	-39.1	19.6	0.00e+00	0	34	0	1833959424	48	6296
2026-01-28 12:01:36.85	117.50	3.41	-38.1	-39.5	19.3	0.00e+00	3	34	0	1837105152	48	6623
2026-01-28 12:01:37.86	117.61	3.37	-37.8	-39.2	19.6	0.00e+00	2	34	0	1840250880	48	6398
2026-01-28 12:01:38.87	117.72	3.32	-37.9	-39.4	19.2	0.00e+00	0	34	0	1843396608	48	6510
2026-01-28 12:01:39.88	117.83	3.28	-37.4	-38.8	20.2	0.00e+00	2	34	0	1846542336	48	6071
2026-01-28 12:01:40.89	117.94	3.23	-38.2	-39.6	19.3	0.00e+00	2	34	0	1849688064	48	6723
2026-01-28 12:01:41.90	118.05	3.19	-37.6	-38.9	19.8	0.00e+00	2	34	0	1852833792	48	6198
2026-01-28 12:01:42.91	118.16	3.15	-38.5	-39.9	18.8	0.00e+00	0	34	0	1855979520	48	6933
2026-01-28 12:01:43.92	118.27	3.10	-37.7	-39.0	19.8	0.00e+00	2	34	0	1859125248	48	6215
2026-01-28 12:01:44.93	118.38	3.06	-38.1	-39.5	19.2	0.00e+00	0	34	0	1862270976	48	6585
2026-01-28 12:01:45.94	118.48	3.01	-37.6	-38.8	19.7	0.00e+00	0	34	0	1865416704	48	6115
2026-01-28 12:01:46.95	118.59	2.97	-46.9	-60.0	3.5	1.08e+00	0	34	104	1867513856	60	35099
2026-01-28 12:01:47.96	118.70	2.93	-47.7	-60.6	3.5	1.51e+00	0	34	104	1867513856	60	37516
2026-01-28 12:01:48.97	118.81	2.88	-47.4	-60.8	3.5	1.52e+00	0	34	104	1867513856	60	38550
2026-01-28 12:01:49.98	118.91	2.84	-48.1	-61.0	3.5	1.52e+00	0	34	104	1867513856	60	39277
2026-01-28 12:01:50.99	119.02	2.79	-47.8	-61.1	3.5	1.52e+00	0	34	104	1867513856	60	39755
2026-01-28 12:01:52.00	119.13	2.75	-48.4	-61.3	3.5	1.52e+00	0	34	104	1867513856	60	40620
2026-01-28 12:01:53.01	119.23	2.70	-48.5	-61.3	3.5	1.52e+00	0	34	104	1867513856	60	40783
2026-01-28 12:01:54.02	119.34	2.66	-48.2	-61.4	3.5	1.52e+00	0	34	104	1867513856	60	41117
2026-01-28 12:01:55.03	119.44	2.62	-48.5	-61.4	3.5	1.51e+00	0	34	104	1867513856	60	41279
2026-01-28 12:01:56.04	119.55	2.57	-48.6	-61.5	3.5	1.52e+00	0	34	104	1867513856	60	41508
2026-01-28 12:01:57.05	119.66	2.53	-48.6	-61.5	3.5	1.52e+00	0	34	104	1867513856	60	41561
2026-01-28 12:01:58.06	119.76	2.48	-48.6	-61.5	3.5	1.52e+00	0	34	104	1867513856	60	41538
2026-01-28 12:01:59.07	119.86	2.44	-48.6	-61.5	3.5	1.51e+00	0	34	104	1867513856	60	41595
2026-01-28 12:02:00.08	119.97	2.40	-48.6	-61.5	3.5	1.52e+00	0	34	104	1867513856	60	41511
2026-01-28 12:02:01.09	120.07	2.35	-48.6	-61.5	3.5	1.52e+00	0	34	104	1867513856	60	41732
2026-01-28 12:02:02.10	120.18	2.31	-48.6	-61.5	3.5	1.51e+00	0	34	104	1867513856	60	41660
2026-01-28 12:02:03.11	120.28	2.26	-48.6	-61.5	3.5	1.52e+00	0	34	104	1867513856	60	41637
2026-01-28 12:02:04.12	120.38	2.22	-48.6	-61.4	3.5	1.52e+00	0	34	104	1867513856	60	41405
2026-01-28 12:02:05.13	120.48	2.17	-48.4	-61.5	3.5	1.52e+00	0	34	104	1867513856	60	41749
2026-01-28 12:02:06.14	120.59	2.13	-48.6	-61.5	3.5	1.52e+00	0	34	104	1867513856	60	41636
2026-01-28 12:02:07.15	120.69	2.09	-48.8	-61.6	3.5	1.52e+00	0	34	104	1867513856	60	42381
2026-01-28 12:02:08.16	120.79	2.04	-48.6	-61.5	3.5	1.52e+00	0	34	104	1867513856	60	41889
2026-01-28 12:02:09.17	120.89	2.00	-48.6	-61.5	3.5	1.52e+00	0	34	104	1867513856	60	41706
2026-01-28 12:02:10.18	120.99	1.95	-48.6	-61.5	3.5	1.52e+00	0	34	104	1867513856	60	41516
2026-01-28 12:02:11.19	121.09	1.91	-48.6	-61.5	3.5	1.52e+00	0	34	104	1867513856	60	41585
2026-01-28 12:02:12.20	121.19	1.86	-48.6	-61.4	3.5	1.52e+00	0	34	104	1867513856	60	41427
2026-01-28 12:02:13.21	121.29	1.82	-48.6	-61.4	3.5	1.52e+00	0	34	104	1867513856	60	41450
2026-01-28 12:02:14.22	121.39	1.78	-48.6	-61.4	3.5	1.52e+00	0	34	104	1867513856	60	41459
2026-01-28 12:02:15.23	121.49	1.73	-48.6	-61.4	3.5	1.52e+00	0	34	104	1867513856	60	41185
2026-01-28 12:02:16.24	121.59	1.69	-48.5	-61.4	3.5	1.52e+00	0	34	104	1867513856	60	41230
2026-01-28 12:02:17.25	121.69	1.64	-48.5	-61.4	3.5	1.52e+00	0	34	104	1867513856	60	41160
2026-01-28 12:02:18.26	121.79	1.60	-48.6	-61.4	3.5	1.52e+00	0	34	104	1867513856	60	41360
2026-01-28 12:02:19.27	121.89	1.55	-48.5	-61.4	3.5	1.52e+00	0	34	104	1867513856	60	41299
2026-01-28 12:02:20.28	121.99	1.51	-48.6	-61.5	3.5	1.52e+00	0	34	104	1867513856	60	41546
2026-01-28 12:02:21.29	122.09	1.47	-48.5	-61.4	3.5	1.52e+00	0	34	104	1867513856	60	41210
2026-01-28 12:02:22.30	122.18	1.42	-48.5	-61.4	3.5	1.51e+00	0	34	104	1867513856	60	41350
2026-01-28 12:02:23.31	122.28	1.38	-48.5	-61.4	3.5	1.52e+00	0	34	104	1867513856	60	41436
2026-01-28 12:02:24.32	122.38	1.33	-48.5	-61.4	3.5	1.52e+00	0	34	104	1867513856	60	41471
2026-01-28 12:02:25.33	122.47	1.29	-48.5	-61.3	3.5	1.52e+00	0	34	104	1867513856	60	40851
2026-01-28 12:02:26.34	122.57	1.24	-48.5	-61.4	3.5	1.51e+00	0	34	104	1867513856	60	41395
2026-01-28 12:02:27.35	122.67	1.20	-48.5	-61.5	3.5	1.52e+00	0	34	104	1867513856	60	41532
