passes_logs/2026/01/28/R4.6S_Anadyr/R4.6S_Anadyr__20260128_160148_NOAA_20_JPSS-1_rec.log

#Pass ID: 20260128_160148_NOAA 20 (JPSS-1)
#Satellite: NOAA 20 (JPSS-1)
#Configuration: NOAA 20
#almurnet v.1.7.20251203
#Start time: 2026-01-28 16:01:49

#Version: 2.2.20231116
#Station: R4.6S_Anadyr
#Location: 177.4865 lon 64.73178 lat
#TLE: 1 43013U 17073A   26027.80586608  .00000156  00000+0  94940-4 0  9998
#TLE: 2 43013  98.7647 328.6108 0000947  21.3465 338.7750 14.19541216424550

#Time	Az	El	Level	Level2	SNR	BER	BlckErr	Temp	State	Recorded	gain1	gain2
2026-01-28 16:01:49.59	24.31	0.09	-48.9	-63.8	3.5	1.51e+00	0	30	0	0	60	56148
2026-01-28 16:01:50.60	24.28	0.15	-48.9	-64.1	3.6	1.51e+00	0	31	104	0	60	58046
2026-01-28 16:01:51.61	24.25	0.21	-48.9	-64.1	3.6	1.51e+00	0	31	104	0	60	58210
2026-01-28 16:01:52.62	24.22	0.27	-48.9	-64.2	3.6	1.51e+00	0	31	104	0	60	58286
2026-01-28 16:01:53.63	24.19	0.32	-48.9	-64.2	3.6	1.51e+00	0	31	104	0	60	58517
2026-01-28 16:01:54.64	24.16	0.38	-48.9	-64.2	3.6	1.51e+00	0	31	104	0	60	58401
2026-01-28 16:01:55.65	24.13	0.44	-48.9	-64.2	3.6	1.51e+00	0	31	104	0	60	58436
2026-01-28 16:01:56.66	24.10	0.50	-49.0	-64.2	3.6	1.51e+00	0	31	104	0	60	58370
2026-01-28 16:01:57.67	24.07	0.56	-49.0	-64.2	3.5	1.51e+00	0	31	104	0	60	58617
2026-01-28 16:01:58.68	24.04	0.62	-49.0	-64.2	3.6	1.51e+00	0	31	104	0	60	58868
2026-01-28 16:01:59.69	24.00	0.68	-49.0	-64.2	3.6	1.51e+00	0	31	104	0	60	58895
2026-01-28 16:02:00.69	23.97	0.74	-49.0	-64.2	3.6	1.51e+00	0	31	104	0	60	58739
2026-01-28 16:02:01.69	23.94	0.80	-49.0	-64.2	3.6	1.51e+00	0	31	104	0	60	58664
2026-01-28 16:02:02.70	23.91	0.86	-49.0	-64.2	3.6	1.51e+00	0	31	104	0	60	58551
2026-01-28 16:02:03.71	23.88	0.92	-48.9	-64.1	3.6	1.51e+00	0	31	104	0	60	57888
2026-01-28 16:02:04.72	23.84	0.98	-48.9	-64.1	3.6	1.51e+00	0	31	104	0	60	57768
2026-01-28 16:02:05.73	23.81	1.04	-48.8	-64.0	3.6	1.51e+00	0	31	104	0	60	57207
2026-01-28 16:02:06.74	23.78	1.10	-48.7	-63.9	3.6	1.51e+00	0	32	104	0	60	56862
2026-01-28 16:02:07.75	23.75	1.16	-48.6	-63.8	3.6	1.51e+00	0	31	104	0	60	56103
2026-01-28 16:02:08.76	23.71	1.22	-48.5	-63.7	3.6	1.51e+00	0	31	104	0	60	55422
2026-01-28 16:02:09.77	23.68	1.28	-48.4	-63.6	3.6	1.51e+00	0	32	104	0	60	54739
2026-01-28 16:02:10.78	23.65	1.34	-48.3	-63.5	3.6	1.51e+00	0	32	104	0	60	54323
2026-01-28 16:02:11.79	23.61	1.41	-48.2	-63.3	3.6	1.51e+00	0	32	104	0	60	53136
2026-01-28 16:02:12.80	23.58	1.47	-47.9	-63.1	3.6	1.51e+00	0	31	104	0	60	51712
2026-01-28 16:02:13.81	23.55	1.53	-47.6	-62.8	3.6	1.51e+00	0	32	104	0	60	50095
2026-01-28 16:02:14.82	23.51	1.59	-47.6	-62.7	3.6	1.51e+00	0	32	104	0	60	49414
2026-01-28 16:02:15.83	23.48	1.65	-47.6	-62.8	3.6	1.51e+00	0	32	104	0	60	49731
2026-01-28 16:02:16.84	23.44	1.71	-47.6	-62.7	3.6	1.51e+00	0	32	104	0	60	49575
2026-01-28 16:02:17.85	23.41	1.77	-47.6	-62.8	3.6	1.51e+00	0	32	104	0	60	49641
2026-01-28 16:02:18.86	23.38	1.84	-47.6	-62.7	3.6	1.51e+00	0	32	104	0	60	49353
2026-01-28 16:02:19.87	23.34	1.90	-47.6	-62.6	3.6	1.51e+00	0	32	104	0	60	48873
2026-01-28 16:02:20.88	23.31	1.96	-47.6	-62.6	3.6	1.51e+00	0	32	104	0	60	48856
2026-01-28 16:02:21.89	23.27	2.02	-47.6	-62.6	3.6	1.51e+00	0	32	104	0	60	48592
2026-01-28 16:02:22.90	23.24	2.08	-47.6	-62.7	3.6	1.51e+00	0	32	104	0	60	49359
2026-01-28 16:02:23.91	23.20	2.15	-47.6	-62.7	3.6	1.51e+00	0	32	104	0	60	49513
2026-01-28 16:02:24.92	23.17	2.21	-47.6	-62.7	3.6	1.51e+00	0	32	104	0	60	49483
2026-01-28 16:02:25.93	23.13	2.27	-47.6	-62.7	3.6	1.51e+00	0	32	104	0	60	49346
2026-01-28 16:02:26.93	23.09	2.34	-47.6	-62.7	3.6	1.51e+00	0	32	104	0	60	49436
2026-01-28 16:02:27.95	23.06	2.40	-47.6	-62.7	3.6	1.51e+00	0	32	104	0	60	49356
2026-01-28 16:02:28.96	23.02	2.46	-47.6	-62.7	3.6	1.51e+00	0	32	104	0	60	49373
2026-01-28 16:02:29.97	22.99	2.53	-47.6	-62.6	3.6	1.51e+00	0	32	104	0	60	49026
2026-01-28 16:02:30.97	22.95	2.59	-47.6	-62.5	3.6	1.51e+00	0	32	104	0	60	48150
2026-01-28 16:02:31.98	22.91	2.65	-47.6	-62.0	3.6	1.51e+00	0	32	104	0	60	45322
2026-01-28 16:02:32.99	22.88	2.72	-47.6	-61.5	3.6	1.51e+00	0	32	104	0	60	42796
2026-01-28 16:02:34.00	22.84	2.78	-47.5	-61.1	3.6	1.51e+00	0	32	104	0	60	40845
2026-01-28 16:02:35.01	22.80	2.84	-47.5	-61.0	3.6	1.51e+00	0	32	104	0	60	40620
2026-01-28 16:02:36.02	22.76	2.91	-47.6	-61.7	3.6	1.51e+00	0	32	104	0	60	44017
2026-01-28 16:02:37.03	22.73	2.97	-47.6	-62.4	3.6	1.51e+00	0	32	104	0	60	47599
2026-01-28 16:02:38.04	22.69	3.04	-47.6	-62.6	3.6	1.51e+00	0	32	104	0	60	48548
2026-01-28 16:02:39.05	22.65	3.10	-47.5	-60.5	3.6	1.51e+00	0	32	104	0	60	38112
2026-01-28 16:02:40.06	22.61	3.16	-47.1	-56.3	5.7	8.86e-01	0	32	0	0	60	23474
2026-01-28 16:02:41.07	22.57	3.23	-46.8	-53.6	7.7	2.11e-01	0	32	0	1048576	60	17270
2026-01-28 16:02:42.07	22.54	3.29	-45.9	-50.6	10.9	1.07e-02	0	32	0	3145728	60	12265
2026-01-28 16:02:43.08	22.50	3.36	-45.1	-48.8	12.9	3.43e-04	0	32	0	5242880	60	9900
2026-01-28 16:02:44.09	22.46	3.42	-44.4	-47.4	14.3	6.10e-06	92	32	0	7340032	60	8449
2026-01-28 16:02:45.10	22.42	3.49	-43.9	-46.5	15.3	7.00e-07	3	32	0	8388608	60	7662
2026-01-28 16:02:46.11	22.38	3.55	-43.6	-46.2	15.6	0.00e+00	92	32	0	10485760	60	7376
2026-01-28 16:02:47.11	22.34	3.62	-43.7	-46.2	15.2	0.00e+00	3	32	0	12582912	60	7386
2026-01-28 16:02:48.12	22.30	3.69	-45.5	-49.6	12.3	3.80e-06	5	32	0	14680064	60	10887
2026-01-28 16:02:49.13	22.26	3.75	-47.2	-55.7	8.4	4.32e-01	79	32	0	16777216	60	21927
2026-01-28 16:02:50.14	22.22	3.82	-47.1	-55.8	7.5	5.73e-02	0	32	0	18874368	60	22323
2026-01-28 16:02:51.15	22.18	3.88	-40.9	-42.4	19.8	0.00e+00	0	32	0	19922944	54	6738
2026-01-28 16:02:52.16	22.14	3.95	-47.5	-62.2	3.6	1.51e+00	0	32	104	20971520	60	46784
2026-01-28 16:02:53.17	22.10	4.02	-41.2	-42.7	18.0	1.00e+00	92	32	104	20971520	56	6241
2026-01-28 16:02:54.19	22.06	4.08	-41.5	-43.2	18.8	0.00e+00	75	32	0	22020096	56	6575
2026-01-28 16:02:55.19	22.02	4.15	-41.3	-42.9	19.0	0.00e+00	92	32	0	23068672	56	6324
2026-01-28 16:02:56.20	21.98	4.22	-40.8	-42.2	19.6	0.00e+00	77	32	0	25165824	56	5874
2026-01-28 16:02:57.21	21.93	4.28	-40.5	-41.9	19.8	0.00e+00	2	32	0	27262976	54	6353
2026-01-28 16:02:58.22	21.89	4.35	-40.8	-42.2	19.6	0.00e+00	0	32	0	29360128	54	6567
2026-01-28 16:02:59.23	21.85	4.42	-40.9	-42.3	19.6	0.00e+00	0	32	0	31457280	54	6665
2026-01-28 16:03:00.24	21.81	4.49	-40.4	-41.8	19.9	0.00e+00	92	32	0	32505856	54	6271
2026-01-28 16:03:01.25	21.77	4.55	-40.5	-41.9	19.8	0.00e+00	2	32	0	34603008	54	6387
2026-01-28 16:03:02.26	21.72	4.62	-40.4	-41.7	20.2	0.00e+00	92	32	0	36700160	54	6243
2026-01-28 16:03:03.27	21.68	4.69	-40.4	-41.8	20.1	0.00e+00	2	32	0	38797312	54	6253
2026-01-28 16:03:04.28	21.64	4.76	-40.7	-42.1	19.7	0.00e+00	0	32	0	40894464	54	6499
2026-01-28 16:03:05.29	21.59	4.83	-40.9	-42.4	19.4	0.00e+00	2	32	0	41943040	54	6733
2026-01-28 16:03:06.29	21.55	4.89	-40.5	-41.9	19.9	0.00e+00	0	32	0	44040192	54	6324
2026-01-28 16:03:07.31	21.51	4.96	-40.4	-41.7	20.3	0.00e+00	92	32	0	46137344	54	6243
2026-01-28 16:03:08.31	21.46	5.03	-40.9	-42.3	19.6	0.00e+00	81	32	0	48234496	54	6670
2026-01-28 16:03:09.32	21.42	5.10	-40.6	-42.0	19.9	0.00e+00	92	32	0	50331648	54	6440
2026-01-28 16:03:10.33	21.38	5.17	-40.2	-41.6	20.2	0.00e+00	0	32	0	51380224	54	6111
2026-01-28 16:03:11.34	21.33	5.24	-40.3	-41.6	20.2	0.00e+00	79	32	0	53477376	54	6169
2026-01-28 16:03:12.35	21.29	5.31	-40.5	-41.8	20.1	0.00e+00	4	32	0	55574528	54	6295
2026-01-28 16:03:13.36	21.24	5.38	-40.3	-41.6	20.4	0.00e+00	2	32	0	57671680	54	6135
2026-01-28 16:03:14.37	21.20	5.45	-40.4	-41.8	20.1	0.00e+00	11	32	0	59768832	54	6260
2026-01-28 16:03:15.38	21.15	5.52	-40.3	-41.6	20.4	0.00e+00	0	32	0	60817408	54	6104
2026-01-28 16:03:16.39	21.10	5.59	-40.6	-41.9	20.1	0.00e+00	92	32	0	62914560	54	6378
2026-01-28 16:03:17.40	21.06	5.66	-40.0	-41.3	20.8	0.00e+00	76	32	0	65011712	54	5916
2026-01-28 16:03:18.41	21.01	5.73	-40.2	-41.4	20.7	0.00e+00	58	32	0	67108864	54	6021
2026-01-28 16:03:19.42	20.97	5.80	-40.0	-41.3	20.7	0.00e+00	6	32	0	69206016	54	5906
2026-01-28 16:03:20.43	20.92	5.87	-40.0	-41.2	20.8	0.00e+00	0	32	0	70254592	54	5873
2026-01-28 16:03:21.44	20.87	5.94	-39.8	-40.9	21.0	0.00e+00	2	32	0	72351744	54	5695
2026-01-28 16:03:22.44	20.82	6.01	-40.0	-41.3	20.8	0.00e+00	7	32	0	74448896	54	5904
2026-01-28 16:03:23.46	20.78	6.08	-39.9	-41.2	20.9	0.00e+00	92	32	0	76546048	54	5840
2026-01-28 16:03:24.47	20.73	6.15	-40.1	-41.4	20.7	0.00e+00	3	32	0	78643200	54	5969
2026-01-28 16:03:25.47	20.68	6.23	-39.9	-41.1	20.9	0.00e+00	91	32	0	80740352	54	5826
2026-01-28 16:03:26.48	20.63	6.30	-40.1	-41.3	20.8	0.00e+00	4	32	0	81788928	54	5925
2026-01-28 16:03:27.49	20.58	6.37	-40.0	-41.2	21.0	0.00e+00	3	32	0	83886080	52	6597
2026-01-28 16:03:28.50	20.54	6.44	-40.1	-41.4	20.8	0.00e+00	0	32	0	85983232	52	6704
2026-01-28 16:03:29.51	20.49	6.51	-39.9	-41.1	21.0	0.00e+00	3	32	0	88080384	52	6503
2026-01-28 16:03:30.52	20.44	6.59	-40.1	-41.4	20.8	0.00e+00	92	32	0	90177536	52	6695
2026-01-28 16:03:31.53	20.39	6.66	-40.1	-41.4	20.9	0.00e+00	86	32	0	91226112	52	6698
2026-01-28 16:03:32.54	20.34	6.73	-39.8	-40.9	21.2	0.00e+00	92	32	0	93323264	52	6380
2026-01-28 16:03:33.54	20.29	6.80	-40.0	-41.2	21.0	0.00e+00	85	32	0	95420416	52	6542
2026-01-28 16:03:34.55	20.24	6.88	-39.8	-41.0	21.2	0.00e+00	86	32	0	97517568	52	6415
2026-01-28 16:03:35.56	20.19	6.95	-39.8	-41.0	21.0	0.00e+00	87	32	0	99614720	52	6441
2026-01-28 16:03:36.57	20.14	7.02	-40.2	-41.4	20.7	0.00e+00	0	32	0	100663296	52	6765
2026-01-28 16:03:37.58	20.09	7.10	-40.4	-41.7	20.6	0.00e+00	0	32	0	102760448	52	6992
2026-01-28 16:03:38.59	20.03	7.17	-40.3	-41.6	20.5	0.00e+00	0	32	0	104857600	52	6879
2026-01-28 16:03:39.60	19.98	7.25	-40.5	-41.7	20.5	0.00e+00	92	32	0	106954752	52	6985
2026-01-28 16:03:40.61	19.93	7.32	-40.4	-41.6	20.6	0.00e+00	8	32	0	109051904	52	6903
2026-01-28 16:03:41.62	19.88	7.40	-40.6	-41.9	20.6	0.00e+00	83	32	0	110100480	54	6340
2026-01-28 16:03:42.63	19.83	7.47	-40.6	-42.0	20.0	0.00e+00	6	32	0	112197632	54	6394
2026-01-28 16:03:43.64	19.77	7.54	-40.7	-42.0	20.1	0.00e+00	6	32	0	114294784	54	6430
2026-01-28 16:03:44.65	19.72	7.62	-40.8	-42.2	20.1	0.00e+00	0	32	0	116391936	54	6555
2026-01-28 16:03:45.66	19.67	7.70	-40.7	-42.0	20.3	0.00e+00	8	32	0	118489088	54	6430
2026-01-28 16:03:46.67	19.61	7.77	-40.4	-41.7	20.6	0.00e+00	91	32	0	119537664	54	6185
2026-01-28 16:03:47.67	19.56	7.85	-40.5	-41.8	20.5	0.00e+00	6	32	0	121634816	54	6251
2026-01-28 16:03:48.68	19.50	7.92	-40.1	-41.4	20.8	0.00e+00	92	32	0	123731968	54	5972
2026-01-28 16:03:49.69	19.45	8.00	-39.7	-40.9	21.4	0.00e+00	5	32	0	125829120	54	5643
2026-01-28 16:03:50.70	19.39	8.07	-39.9	-41.1	21.2	0.00e+00	5	32	0	127926272	52	6488
2026-01-28 16:03:51.71	19.34	8.15	-39.8	-41.0	21.4	0.00e+00	76	32	0	128974848	52	6394
2026-01-28 16:03:52.72	19.28	8.23	-39.6	-40.7	21.6	0.00e+00	5	32	0	131072000	52	6213
2026-01-28 16:03:53.73	19.23	8.30	-39.5	-40.6	21.7	0.00e+00	91	32	0	133169152	52	6123
2026-01-28 16:03:54.74	19.17	8.38	-39.6	-40.7	21.5	0.00e+00	5	32	0	135266304	52	6197
2026-01-28 16:03:55.75	19.11	8.46	-39.6	-40.7	21.5	0.00e+00	90	32	0	137363456	52	6231
2026-01-28 16:03:56.76	19.06	8.54	-39.5	-40.7	21.6	0.00e+00	77	32	0	138412032	52	6174
2026-01-28 16:03:57.77	19.00	8.61	-39.5	-40.6	21.7	0.00e+00	0	32	0	140509184	52	6168
2026-01-28 16:03:58.78	18.94	8.69	-39.4	-40.5	21.8	0.00e+00	77	32	0	142606336	52	6080
2026-01-28 16:03:59.79	18.88	8.77	-39.3	-40.4	21.8	0.00e+00	0	32	0	144703488	52	6013
2026-01-28 16:04:00.80	18.83	8.85	-39.4	-40.5	21.8	0.00e+00	64	32	0	146800640	52	6045
2026-01-28 16:04:01.81	18.77	8.93	-39.4	-40.5	21.8	0.00e+00	0	32	0	148897792	52	6086
2026-01-28 16:04:02.81	18.71	9.01	-39.8	-41.0	21.4	0.00e+00	92	32	0	149946368	52	6400
2026-01-28 16:04:03.82	18.65	9.09	-39.8	-41.0	21.5	0.00e+00	0	32	0	152043520	52	6398
2026-01-28 16:04:04.83	18.59	9.16	-39.5	-40.6	21.7	0.00e+00	92	32	0	154140672	52	6128
2026-01-28 16:04:05.84	18.53	9.24	-39.6	-40.7	21.7	0.00e+00	0	32	0	156237824	52	6218
2026-01-28 16:04:06.84	18.47	9.32	-39.1	-40.2	22.1	0.00e+00	0	32	0	157286400	52	5857
2026-01-28 16:04:07.85	18.41	9.40	-39.2	-40.2	22.1	0.00e+00	0	32	0	159383552	52	5872
2026-01-28 16:04:08.86	18.35	9.48	-39.0	-40.0	22.3	0.00e+00	1	32	0	161480704	52	5760
2026-01-28 16:04:09.88	18.29	9.56	-38.9	-40.0	22.3	0.00e+00	92	32	0	163577856	52	5697
2026-01-28 16:04:10.88	18.23	9.64	-39.0	-40.0	22.3	0.00e+00	0	32	0	165675008	52	5747
2026-01-28 16:04:11.89	18.16	9.73	-38.9	-39.9	22.4	0.00e+00	92	32	0	166723584	52	5663
2026-01-28 16:04:12.90	18.10	9.81	-38.9	-39.9	22.4	0.00e+00	5	32	0	168820736	52	5661
2026-01-28 16:04:13.91	18.04	9.89	-38.7	-39.7	22.4	0.00e+00	7	32	0	170917888	50	6226
2026-01-28 16:04:14.92	17.98	9.97	-38.9	-39.9	22.4	0.00e+00	5	32	0	173015040	50	6358
2026-01-28 16:04:15.93	17.91	10.05	-38.6	-39.6	22.6	0.00e+00	5	32	0	175112192	50	6170
2026-01-28 16:04:16.94	17.85	10.13	-38.8	-39.9	22.4	0.00e+00	90	32	0	177209344	50	6326
2026-01-28 16:04:17.95	17.78	10.22	-38.7	-39.7	22.6	0.00e+00	4	32	0	178257920	50	6210
2026-01-28 16:04:18.95	17.72	10.30	-38.7	-39.7	22.7	0.00e+00	92	32	0	180355072	50	6192
2026-01-28 16:04:19.96	17.65	10.38	-38.4	-39.4	22.8	0.00e+00	0	32	0	182452224	50	6002
2026-01-28 16:04:20.97	17.59	10.46	-38.6	-39.6	22.7	0.00e+00	92	32	0	184549376	50	6125
2026-01-28 16:04:21.98	17.52	10.55	-38.6	-39.6	22.6	0.00e+00	77	32	0	186646528	50	6114
2026-01-28 16:04:22.99	17.46	10.63	-38.4	-39.4	22.9	0.00e+00	75	32	0	187695104	50	5988
2026-01-28 16:04:24.00	17.39	10.71	-38.4	-39.4	22.8	0.00e+00	0	32	0	189792256	50	6001
2026-01-28 16:04:25.01	17.32	10.80	-38.5	-39.5	22.7	0.00e+00	2	32	0	191889408	50	6063
2026-01-28 16:04:26.02	17.26	10.88	-38.6	-39.5	22.7	0.00e+00	91	32	0	193986560	50	6089
2026-01-28 16:04:27.03	17.19	10.97	-38.6	-39.6	22.6	0.00e+00	0	32	0	196083712	50	6106
2026-01-28 16:04:28.04	17.12	11.05	-38.7	-39.7	22.6	0.00e+00	77	32	0	197132288	50	6175
2026-01-28 16:04:29.05	17.05	11.14	-38.7	-39.7	22.7	0.00e+00	0	32	0	199229440	50	6227
2026-01-28 16:04:30.06	16.98	11.22	-38.5	-39.5	22.8	0.00e+00	0	32	0	201326592	50	6072
2026-01-28 16:04:31.07	16.91	11.31	-38.5	-39.4	22.9	0.00e+00	0	32	0	203423744	50	6013
2026-01-28 16:04:32.08	16.84	11.39	-38.5	-39.5	22.8	0.00e+00	0	32	0	205520896	50	6063
2026-01-28 16:04:33.08	16.77	11.48	-38.4	-39.4	23.0	0.00e+00	91	32	0	206569472	50	5970
2026-01-28 16:04:34.10	16.70	11.56	-38.6	-39.5	22.9	0.00e+00	1	32	0	208666624	50	6103
2026-01-28 16:04:35.10	16.63	11.65	-38.6	-39.5	22.8	0.00e+00	90	32	0	210763776	50	6083
2026-01-28 16:04:36.11	16.56	11.74	-38.5	-39.4	22.9	0.00e+00	0	32	0	212860928	50	6011
2026-01-28 16:04:37.12	16.49	11.82	-38.5	-39.5	22.9	0.00e+00	2	32	0	214958080	50	6084
2026-01-28 16:04:38.13	16.41	11.91	-38.4	-39.4	23.1	0.00e+00	81	32	0	216006656	50	5970
2026-01-28 16:04:39.14	16.34	12.00	-38.4	-39.3	23.0	0.00e+00	1	32	0	218103808	50	5964
2026-01-28 16:04:40.15	16.27	12.09	-38.4	-39.4	23.0	0.00e+00	0	32	0	220200960	50	5987
2026-01-28 16:04:41.16	16.19	12.17	-38.5	-39.5	22.9	0.00e+00	0	32	0	222298112	50	6043
2026-01-28 16:04:42.17	16.12	12.26	-38.6	-39.6	22.9	0.00e+00	92	32	0	224395264	50	6113
2026-01-28 16:04:43.18	16.04	12.35	-38.6	-39.6	22.9	0.00e+00	0	32	0	225443840	50	6132
2026-01-28 16:04:44.19	15.97	12.44	-38.4	-39.3	23.1	0.00e+00	92	32	0	227540992	50	5962
2026-01-28 16:04:45.20	15.89	12.53	-38.7	-39.7	22.8	0.00e+00	74	32	0	229638144	50	6186
2026-01-28 16:04:46.21	15.81	12.62	-38.5	-39.5	22.7	0.00e+00	0	32	0	231735296	50	6074
2026-01-28 16:04:47.22	15.74	12.71	-38.8	-39.8	22.7	0.00e+00	0	32	0	233832448	50	6280
2026-01-28 16:04:48.23	15.66	12.80	-38.7	-39.7	22.8	0.00e+00	0	32	0	234881024	50	6198
2026-01-28 16:04:49.24	15.58	12.89	-38.5	-39.5	22.9	0.00e+00	92	32	0	236978176	50	6047
2026-01-28 16:04:50.25	15.50	12.98	-38.5	-39.5	22.9	0.00e+00	2	32	0	239075328	50	6075
2026-01-28 16:04:51.26	15.42	13.07	-38.8	-39.8	22.7	0.00e+00	92	32	0	241172480	50	6276
2026-01-28 16:04:52.26	15.35	13.16	-38.3	-39.2	23.1	0.00e+00	5	32	0	243269632	50	5894
2026-01-28 16:04:53.27	15.27	13.25	-38.3	-39.3	23.1	0.00e+00	0	32	0	245366784	50	5928
2026-01-28 16:04:54.28	15.19	13.34	-38.4	-39.3	23.1	0.00e+00	0	32	0	246415360	50	5952
2026-01-28 16:04:55.29	15.10	13.44	-38.4	-39.3	23.1	0.00e+00	6	32	0	248512512	50	5960
2026-01-28 16:04:56.30	15.02	13.53	-38.4	-39.4	23.1	0.00e+00	92	33	0	250609664	50	5990
2026-01-28 16:04:57.31	14.94	13.62	-38.4	-39.4	23.1	0.00e+00	81	33	0	252706816	50	5967
2026-01-28 16:04:58.32	14.86	13.71	-38.4	-39.3	23.2	0.00e+00	92	32	0	254803968	50	5927
2026-01-28 16:04:59.33	14.78	13.81	-38.4	-39.3	23.2	0.00e+00	0	33	0	255852544	50	5929
2026-01-28 16:05:00.34	14.69	13.90	-38.4	-39.3	23.1	0.00e+00	74	32	0	257949696	50	5938
2026-01-28 16:05:01.35	14.61	13.99	-38.4	-39.4	23.0	0.00e+00	6	33	0	260046848	50	5987
2026-01-28 16:05:02.36	14.52	14.09	-38.4	-39.3	23.1	0.00e+00	80	33	0	262144000	50	5941
2026-01-28 16:05:03.37	14.44	14.18	-38.3	-39.2	23.2	0.00e+00	0	32	0	264241152	50	5873
2026-01-28 16:05:04.38	14.35	14.28	-38.2	-39.2	23.2	0.00e+00	79	32	0	265289728	50	5852
2026-01-28 16:05:05.39	14.26	14.37	-38.3	-39.2	23.2	0.00e+00	91	32	0	267386880	50	5896
2026-01-28 16:05:06.39	14.18	14.47	-38.2	-39.1	23.3	0.00e+00	0	33	0	269484032	50	5779
2026-01-28 16:05:07.40	14.09	14.56	-38.2	-39.2	23.3	0.00e+00	0	32	0	271581184	50	5831
2026-01-28 16:05:08.41	14.00	14.66	-38.2	-39.2	23.3	0.00e+00	7	32	0	273678336	50	5847
2026-01-28 16:05:09.42	13.91	14.75	-38.3	-39.2	23.2	0.00e+00	5	33	0	274726912	50	5855
2026-01-28 16:05:10.43	13.82	14.85	-38.2	-39.1	23.3	0.00e+00	0	32	0	276824064	50	5810
2026-01-28 16:05:11.44	13.73	14.95	-38.2	-39.2	23.2	0.00e+00	5	32	0	278921216	50	5851
2026-01-28 16:05:12.45	13.64	15.04	-38.4	-39.3	23.1	0.00e+00	92	32	0	281018368	50	5952
2026-01-28 16:05:13.46	13.55	15.14	-38.3	-39.3	23.0	0.00e+00	5	32	0	283115520	50	5904
2026-01-28 16:05:14.47	13.46	15.24	-38.3	-39.2	23.3	0.00e+00	8	33	0	284164096	50	5857
2026-01-28 16:05:15.48	13.37	15.34	-38.3	-39.3	23.2	0.00e+00	4	32	0	286261248	50	5913
2026-01-28 16:05:16.49	13.27	15.43	-38.3	-39.2	23.1	0.00e+00	7	32	0	288358400	50	5874
2026-01-28 16:05:17.50	13.18	15.53	-38.4	-39.3	23.2	0.00e+00	0	32	0	290455552	50	5960
2026-01-28 16:05:18.51	13.09	15.63	-38.3	-39.2	23.3	0.00e+00	7	33	0	292552704	50	5889
2026-01-28 16:05:19.52	12.99	15.73	-38.4	-39.3	23.2	0.00e+00	84	32	0	293601280	50	5922
2026-01-28 16:05:20.53	12.90	15.83	-38.3	-39.2	23.3	0.00e+00	6	33	0	295698432	50	5860
2026-01-28 16:05:21.54	12.80	15.93	-38.3	-39.2	23.3	0.00e+00	91	32	0	297795584	50	5846
2026-01-28 16:05:22.54	12.70	16.03	-38.2	-39.2	23.4	0.00e+00	7	32	0	299892736	50	5837
2026-01-28 16:05:23.55	12.60	16.13	-38.4	-39.3	23.2	0.00e+00	82	33	0	301989888	50	5925
2026-01-28 16:05:24.56	12.51	16.23	-38.3	-39.2	23.3	0.00e+00	80	33	0	303038464	50	5879
2026-01-28 16:05:25.57	12.41	16.33	-38.4	-39.4	23.2	0.00e+00	78	32	0	305135616	50	5983
2026-01-28 16:05:26.58	12.31	16.43	-38.6	-39.5	23.0	0.00e+00	68	32	0	307232768	50	6098
2026-01-28 16:05:27.59	12.21	16.54	-38.6	-39.6	23.0	0.00e+00	0	33	0	309329920	50	6110
2026-01-28 16:05:28.60	12.11	16.64	-38.8	-39.8	22.8	0.00e+00	92	32	0	311427072	50	6265
2026-01-28 16:05:29.61	12.00	16.74	-38.3	-39.3	23.3	0.00e+00	0	32	0	312475648	50	5911
2026-01-28 16:05:30.62	11.90	16.84	-38.3	-39.3	23.3	0.00e+00	12	33	0	314572800	50	5918
2026-01-28 16:05:31.63	11.80	16.95	-38.4	-39.3	23.3	0.00e+00	0	33	0	316669952	50	5931
2026-01-28 16:05:32.64	11.69	17.05	-38.4	-39.3	23.2	0.00e+00	7	32	0	318767104	50	5948
2026-01-28 16:05:33.65	11.59	17.16	-38.5	-39.4	23.2	0.00e+00	0	33	0	320864256	50	6013
2026-01-28 16:05:34.66	11.48	17.26	-38.4	-39.4	23.1	0.00e+00	6	33	0	322961408	50	5976
2026-01-28 16:05:35.67	11.38	17.36	-38.4	-39.4	23.1	0.00e+00	90	33	0	324009984	50	5980
2026-01-28 16:05:36.68	11.27	17.47	-38.3	-39.2	23.4	0.00e+00	6	32	0	326107136	50	5846
2026-01-28 16:05:37.69	11.16	17.57	-38.5	-39.4	23.1	0.00e+00	81	33	0	328204288	50	6032
2026-01-28 16:05:38.70	11.05	17.68	-38.4	-39.4	23.1	0.00e+00	6	32	0	330301440	50	5978
2026-01-28 16:05:39.71	10.94	17.79	-38.2	-39.1	23.4	0.00e+00	73	32	0	332398592	50	5813
2026-01-28 16:05:40.72	10.83	17.89	-38.3	-39.2	23.3	0.00e+00	2	33	0	333447168	50	5882
2026-01-28 16:05:41.73	10.72	18.00	-38.3	-39.2	23.4	0.00e+00	3	32	0	335544320	50	5848
2026-01-28 16:05:42.74	10.61	18.11	-38.2	-39.2	23.4	0.00e+00	62	32	0	337641472	50	5835
2026-01-28 16:05:43.75	10.50	18.21	-38.3	-39.2	23.4	0.00e+00	75	32	0	339738624	50	5852
2026-01-28 16:05:44.76	10.38	18.32	-38.5	-39.4	23.1	0.00e+00	92	33	0	341835776	50	5993
2026-01-28 16:05:45.77	10.27	18.43	-38.7	-39.7	23.0	0.00e+00	74	33	0	342884352	50	6218
2026-01-28 16:05:46.78	10.15	18.54	-38.4	-39.4	22.9	0.00e+00	0	32	0	344981504	50	5988
2026-01-28 16:05:47.79	10.04	18.65	-38.4	-39.4	23.0	0.00e+00	74	32	0	347078656	50	5972
2026-01-28 16:05:48.80	9.92	18.75	-38.6	-39.6	23.0	0.00e+00	79	32	0	349175808	50	6126
2026-01-28 16:05:49.80	9.80	18.86	-38.7	-39.6	23.0	0.00e+00	80	33	0	351272960	50	6153
2026-01-28 16:05:50.82	9.68	18.97	-38.6	-39.5	23.1	0.00e+00	0	33	0	352321536	50	6091
2026-01-28 16:05:51.83	9.56	19.08	-38.4	-39.3	23.3	0.00e+00	92	33	0	354418688	50	5931
2026-01-28 16:05:52.83	9.44	19.19	-38.4	-39.3	23.3	0.00e+00	0	32	0	356515840	50	5927
2026-01-28 16:05:53.84	9.32	19.30	-38.4	-39.3	23.3	0.00e+00	92	33	0	358612992	50	5931
2026-01-28 16:05:54.85	9.20	19.42	-38.4	-39.3	23.3	0.00e+00	0	33	0	360710144	50	5955
2026-01-28 16:05:55.86	9.08	19.53	-38.3	-39.3	23.3	0.00e+00	8	32	0	361758720	50	5901
2026-01-28 16:05:56.87	8.95	19.64	-38.3	-39.2	23.4	0.00e+00	0	33	0	363855872	50	5879
2026-01-28 16:05:57.88	8.83	19.75	-38.3	-39.3	23.3	0.00e+00	5	32	0	365953024	50	5906
2026-01-28 16:05:58.89	8.70	19.86	-38.4	-39.3	23.2	0.00e+00	92	33	0	368050176	50	5964
2026-01-28 16:05:59.90	8.58	19.98	-38.3	-39.2	23.4	0.00e+00	0	33	0	370147328	50	5837
2026-01-28 16:06:00.91	8.45	20.09	-38.3	-39.2	23.4	0.00e+00	92	33	0	371195904	50	5896
2026-01-28 16:06:01.92	8.32	20.20	-38.4	-39.3	23.4	0.00e+00	8	33	0	373293056	50	5911
2026-01-28 16:06:02.93	8.19	20.32	-38.2	-39.1	23.5	0.00e+00	0	33	0	375390208	50	5812
2026-01-28 16:06:03.94	8.06	20.43	-38.3	-39.2	23.4	0.00e+00	3	33	0	377487360	50	5857
2026-01-28 16:06:04.95	7.93	20.55	-38.3	-39.2	23.4	0.00e+00	2	32	0	379584512	50	5847
2026-01-28 16:06:05.96	7.79	20.66	-38.3	-39.3	23.3	0.00e+00	92	33	0	381681664	50	5907
2026-01-28 16:06:06.97	7.66	20.78	-38.4	-39.4	23.3	0.00e+00	74	33	0	382730240	50	5982
2026-01-28 16:06:07.98	7.52	20.89	-38.5	-39.5	23.2	0.00e+00	92	33	0	384827392	50	6043
2026-01-28 16:06:08.98	7.39	21.01	-38.4	-39.4	23.3	0.00e+00	72	32	0	386924544	50	5968
2026-01-28 16:06:09.99	7.25	21.13	-38.4	-39.4	23.3	0.00e+00	0	33	0	389021696	50	5972
2026-01-28 16:06:11.01	7.11	21.24	-38.5	-39.5	23.1	0.00e+00	0	33	0	391118848	50	6036
2026-01-28 16:06:12.01	6.97	21.36	-38.5	-39.4	22.9	0.00e+00	2	33	0	392167424	50	5995
2026-01-28 16:06:13.02	6.83	21.48	-38.5	-39.4	23.2	0.00e+00	2	33	0	394264576	50	6007
2026-01-28 16:06:14.03	6.69	21.60	-38.4	-39.4	23.2	0.00e+00	0	33	0	396361728	50	5974
2026-01-28 16:06:15.04	6.55	21.72	-38.6	-39.6	23.1	0.00e+00	91	33	0	398458880	50	6137
2026-01-28 16:06:16.05	6.41	21.83	-38.5	-39.4	23.3	0.00e+00	0	33	0	399507456	50	6002
2026-01-28 16:06:17.05	6.26	21.95	-38.5	-39.4	23.3	0.00e+00	73	33	0	401604608	50	6029
2026-01-28 16:06:18.06	6.12	22.07	-38.5	-39.5	23.2	0.00e+00	0	33	0	403701760	50	6054
2026-01-28 16:06:19.07	5.97	22.19	-38.4	-39.3	23.4	0.00e+00	0	33	0	405798912	50	5952
2026-01-28 16:06:20.08	5.82	22.31	-38.5	-39.4	23.3	0.00e+00	2	33	0	407896064	50	6008
2026-01-28 16:06:21.09	5.67	22.43	-38.7	-39.6	23.0	0.00e+00	0	33	0	409993216	50	6156
2026-01-28 16:06:22.10	5.52	22.55	-38.8	-39.7	23.0	0.00e+00	91	33	0	411041792	50	6223
2026-01-28 16:06:23.11	5.37	22.67	-38.5	-39.5	23.3	0.00e+00	78	33	0	413138944	50	6046
2026-01-28 16:06:24.11	5.22	22.80	-38.7	-39.6	23.2	0.00e+00	92	33	0	415236096	50	6142
2026-01-28 16:06:25.13	5.06	22.92	-38.4	-39.4	23.4	0.00e+00	10	33	0	417333248	50	5967
2026-01-28 16:06:26.13	4.91	23.04	-38.5	-39.4	23.4	0.00e+00	0	33	0	419430400	50	5996
2026-01-28 16:06:27.14	4.75	23.16	-38.4	-39.4	23.4	0.00e+00	0	32	0	420478976	50	5981
2026-01-28 16:06:28.15	4.59	23.29	-38.5	-39.4	23.4	0.00e+00	3	32	0	422576128	50	5983
2026-01-28 16:06:29.16	4.43	23.41	-38.5	-39.4	23.4	0.00e+00	92	33	0	424673280	50	5991
2026-01-28 16:06:30.17	4.27	23.53	-38.6	-39.5	23.3	0.00e+00	78	33	0	426770432	50	6076
2026-01-28 16:06:31.17	4.11	23.66	-38.6	-39.5	23.3	0.00e+00	91	33	0	428867584	50	6094
2026-01-28 16:06:32.18	3.95	23.78	-38.6	-39.6	23.2	0.00e+00	69	32	0	429916160	50	6109
2026-01-28 16:06:33.19	3.79	23.90	-38.7	-39.6	22.9	0.00e+00	55	32	0	432013312	50	6131
2026-01-28 16:06:34.20	3.62	24.03	-38.6	-39.6	23.2	0.00e+00	0	32	0	434110464	50	6113
2026-01-28 16:06:35.21	3.45	24.16	-38.6	-39.5	23.3	0.00e+00	0	33	0	436207616	50	6065
2026-01-28 16:06:36.22	3.28	24.28	-38.5	-39.4	23.3	0.00e+00	0	33	0	438304768	50	6015
2026-01-28 16:06:37.23	3.11	24.41	-38.6	-39.6	23.2	0.00e+00	0	33	0	439353344	50	6136
2026-01-28 16:06:38.24	2.94	24.53	-38.6	-39.6	23.2	0.00e+00	92	33	0	441450496	50	6138
2026-01-28 16:06:39.25	2.77	24.66	-38.7	-39.6	23.2	0.00e+00	0	33	0	443547648	50	6165
2026-01-28 16:06:40.26	2.60	24.79	-38.6	-39.5	23.2	0.00e+00	92	33	0	445644800	50	6093
2026-01-28 16:06:41.27	2.42	24.92	-38.6	-39.6	23.2	0.00e+00	0	33	0	447741952	50	6117
2026-01-28 16:06:42.28	2.24	25.04	-38.7	-39.7	23.1	0.00e+00	0	33	0	448790528	50	6184
2026-01-28 16:06:43.29	2.06	25.17	-38.9	-39.8	23.0	0.00e+00	0	33	0	450887680	50	6303
2026-01-28 16:06:44.30	1.88	25.30	-39.1	-40.1	22.7	0.00e+00	0	32	0	452984832	50	6499
2026-01-28 16:06:45.31	1.70	25.43	-39.2	-40.2	22.7	0.00e+00	92	33	0	455081984	50	6554
2026-01-28 16:06:46.32	1.52	25.56	-39.1	-40.1	22.7	0.00e+00	81	33	0	457179136	50	6512
2026-01-28 16:06:47.33	1.34	25.69	-39.1	-40.1	22.7	0.00e+00	92	33	0	458227712	50	6497
2026-01-28 16:06:48.34	1.15	25.82	-38.9	-39.8	22.9	0.00e+00	9	32	0	460324864	50	6315
2026-01-28 16:06:49.35	0.96	25.95	-38.7	-39.6	22.9	0.00e+00	74	33	0	462422016	50	6154
2026-01-28 16:06:50.36	0.77	26.08	-38.7	-39.7	22.2	0.00e+00	0	32	0	464519168	50	6178
2026-01-28 16:06:51.37	0.58	26.21	-38.5	-39.5	23.1	0.00e+00	0	33	0	466616320	50	6053
2026-01-28 16:06:52.38	0.39	26.34	-38.8	-39.8	22.9	0.00e+00	92	33	0	467664896	50	6250
2026-01-28 16:06:53.38	0.20	26.47	-38.8	-39.8	22.9	0.00e+00	77	33	0	469762048	50	6250
2026-01-28 16:06:54.39	0.00	26.60	-38.8	-39.8	23.0	0.00e+00	92	33	0	471859200	50	6284
2026-01-28 16:06:55.41	359.80	26.73	-39.0	-40.0	22.8	0.00e+00	0	32	0	473956352	50	6407
2026-01-28 16:06:56.41	359.60	26.86	-39.0	-40.0	22.8	0.00e+00	5	33	0	476053504	50	6437
2026-01-28 16:06:57.42	359.40	26.99	-39.2	-40.2	22.6	0.00e+00	0	32	0	478150656	50	6599
2026-01-28 16:06:58.43	359.20	27.13	-39.3	-40.3	22.5	0.00e+00	5	33	0	479199232	50	6685
2026-01-28 16:06:59.44	359.00	27.26	-39.3	-40.3	22.6	0.00e+00	0	32	0	481296384	50	6679
2026-01-28 16:07:00.45	358.79	27.39	-39.3	-40.4	22.5	0.00e+00	7	32	0	483393536	50	6700
2026-01-28 16:07:01.46	358.58	27.52	-39.3	-40.4	22.5	0.00e+00	92	32	0	485490688	50	6695
2026-01-28 16:07:02.47	358.37	27.66	-39.6	-40.6	22.3	0.00e+00	3	33	0	487587840	50	6901
2026-01-28 16:07:03.48	358.16	27.79	-39.7	-40.8	22.1	0.00e+00	90	33	0	488636416	50	7040
2026-01-28 16:07:04.49	357.95	27.92	-39.8	-40.9	22.0	0.00e+00	6	33	0	490733568	52	6348
2026-01-28 16:07:05.50	357.74	28.06	-40.0	-41.1	21.8	0.00e+00	0	33	0	492830720	52	6490
2026-01-28 16:07:06.51	357.52	28.19	-40.2	-41.3	21.7	0.00e+00	10	32	0	494927872	52	6652
2026-01-28 16:07:07.51	357.30	28.32	-40.4	-41.6	21.4	0.00e+00	77	33	0	497025024	52	6879
2026-01-28 16:07:08.53	357.08	28.46	-40.7	-41.8	21.2	0.00e+00	92	33	0	498073600	52	7087
2026-01-28 16:07:09.54	356.86	28.59	-41.0	-42.2	20.8	0.00e+00	82	33	0	500170752	54	6612
2026-01-28 16:07:10.55	356.63	28.73	-41.2	-42.5	20.4	0.00e+00	92	33	0	502267904	54	6804
2026-01-28 16:07:11.56	356.41	28.86	-41.4	-42.8	20.2	0.00e+00	76	33	0	504365056	54	7035
2026-01-28 16:07:12.57	356.18	29.00	-42.0	-43.5	19.7	0.00e+00	76	33	0	506462208	56	6796
2026-01-28 16:07:13.58	355.95	29.13	-41.9	-43.3	19.9	0.00e+00	0	32	0	507510784	56	6653
2026-01-28 16:07:14.59	355.72	29.27	-41.9	-43.3	19.8	0.00e+00	76	33	0	509607936	56	6644
2026-01-28 16:07:15.59	355.49	29.40	-41.9	-43.3	19.8	0.00e+00	0	33	0	511705088	56	6647
2026-01-28 16:07:16.61	355.25	29.54	-41.9	-43.3	19.7	0.00e+00	83	33	0	513802240	56	6682
2026-01-28 16:07:17.61	355.01	29.67	-41.8	-43.2	19.8	0.00e+00	90	33	0	515899392	56	6597
2026-01-28 16:07:18.62	354.77	29.81	-42.0	-43.4	19.6	0.00e+00	0	33	0	516947968	56	6766
2026-01-28 16:07:19.63	354.53	29.95	-41.9	-43.4	19.8	0.00e+00	90	33	0	519045120	56	6709
2026-01-28 16:07:20.64	354.29	30.08	-41.9	-43.3	19.9	0.00e+00	4	33	0	521142272	56	6630
2026-01-28 16:07:21.65	354.04	30.22	-41.6	-42.9	20.1	0.00e+00	6	33	0	523239424	56	6340
2026-01-28 16:07:22.66	353.79	30.35	-41.4	-42.7	20.3	0.00e+00	17	33	0	525336576	56	6204
2026-01-28 16:07:23.67	353.54	30.49	-41.4	-42.7	20.4	0.00e+00	7	33	0	526385152	56	6199
2026-01-28 16:07:24.68	353.29	30.63	-41.3	-42.6	20.5	0.00e+00	87	33	0	528482304	56	6158
2026-01-28 16:07:25.69	353.04	30.76	-41.5	-42.8	20.2	0.00e+00	7	33	0	530579456	56	6285
2026-01-28 16:07:26.70	352.78	30.90	-41.5	-42.9	20.2	0.00e+00	90	32	0	532676608	56	6318
2026-01-28 16:07:27.70	352.52	31.03	-41.5	-42.8	20.3	0.00e+00	10	33	0	534773760	56	6280
2026-01-28 16:07:28.72	352.26	31.17	-41.4	-42.7	20.4	0.00e+00	70	33	0	535822336	56	6232
2026-01-28 16:07:29.73	352.00	31.30	-41.7	-43.1	20.1	0.00e+00	0	33	0	537919488	56	6488
2026-01-28 16:07:30.74	351.73	31.44	-41.8	-43.2	20.0	0.00e+00	72	33	0	540016640	56	6566
2026-01-28 16:07:31.75	351.46	31.58	-41.9	-43.4	19.8	0.00e+00	71	33	0	542113792	56	6711
2026-01-28 16:07:32.76	351.19	31.71	-41.8	-43.2	20.0	0.00e+00	0	32	0	544210944	56	6598
2026-01-28 16:07:33.77	350.92	31.85	-41.7	-43.1	20.1	0.00e+00	92	33	0	546308096	56	6510
2026-01-28 16:07:34.78	350.64	31.98	-41.8	-43.2	20.1	0.00e+00	78	33	0	547356672	56	6564
2026-01-28 16:07:35.79	350.37	32.12	-41.7	-43.1	20.0	0.00e+00	0	33	0	549453824	56	6509
2026-01-28 16:07:36.80	350.09	32.25	-41.8	-43.2	20.0	0.00e+00	72	33	0	551550976	56	6566
2026-01-28 16:07:37.80	349.81	32.39	-41.9	-43.4	19.7	0.00e+00	72	33	0	553648128	56	6723
2026-01-28 16:07:38.81	349.52	32.52	-41.9	-43.4	19.8	0.00e+00	90	33	0	555745280	56	6743
2026-01-28 16:07:39.82	349.24	32.66	-42.0	-43.5	19.8	0.00e+00	0	33	0	556793856	56	6782
2026-01-28 16:07:40.83	348.95	32.79	-41.8	-43.2	20.1	0.00e+00	90	33	0	558891008	56	6572
2026-01-28 16:07:41.84	348.66	32.92	-41.4	-42.8	20.4	0.00e+00	0	32	0	560988160	56	6279
2026-01-28 16:07:42.85	348.36	33.06	-41.1	-42.4	20.8	0.00e+00	92	32	0	563085312	56	5994
2026-01-28 16:07:43.86	348.07	33.19	-40.5	-41.7	21.3	0.00e+00	10	32	0	565182464	54	6227
2026-01-28 16:07:44.87	347.77	33.32	-40.6	-41.8	21.2	0.00e+00	9	32	0	566231040	54	6296
2026-01-28 16:07:45.88	347.47	33.46	-40.0	-41.0	22.0	0.00e+00	2	32	0	568328192	54	5752
2026-01-28 16:07:46.89	347.16	33.59	-39.8	-40.9	22.1	0.00e+00	0	32	0	570425344	54	5644
2026-01-28 16:07:47.90	346.86	33.72	-39.8	-40.8	22.2	0.00e+00	92	32	0	572522496	52	6283
2026-01-28 16:07:48.91	346.55	33.85	-39.7	-40.7	22.3	0.00e+00	80	32	0	574619648	52	6244
2026-01-28 16:07:49.92	346.24	33.98	-39.8	-40.9	22.1	0.00e+00	92	32	0	575668224	52	6342
2026-01-28 16:07:50.93	345.92	34.12	-39.8	-40.8	22.1	0.00e+00	8	32	0	577765376	52	6304
2026-01-28 16:07:51.93	345.61	34.24	-39.9	-41.0	22.0	0.00e+00	10	32	0	579862528	52	6447
2026-01-28 16:07:52.94	345.29	34.38	-40.1	-41.2	21.9	0.00e+00	73	33	0	581959680	52	6556
2026-01-28 16:07:53.95	344.97	34.50	-40.4	-41.5	21.5	0.00e+00	10	33	0	584056832	52	6836
2026-01-28 16:07:54.96	344.65	34.63	-40.5	-41.7	21.4	0.00e+00	92	33	0	585105408	52	6958
2026-01-28 16:07:55.97	344.32	34.76	-40.6	-41.8	21.3	0.00e+00	70	32	0	587202560	52	7008
2026-01-28 16:07:56.98	343.99	34.89	-40.5	-41.7	21.4	0.00e+00	92	33	0	589299712	52	6936
2026-01-28 16:07:57.99	343.66	35.02	-40.5	-41.6	21.3	0.00e+00	0	33	0	591396864	52	6921
2026-01-28 16:07:59.00	343.32	35.14	-40.6	-41.8	21.2	0.00e+00	92	33	0	593494016	52	7036
2026-01-28 16:08:00.01	342.99	35.27	-40.5	-41.7	21.0	0.00e+00	0	33	0	594542592	52	6967
2026-01-28 16:08:01.02	342.65	35.40	-40.7	-41.9	21.2	0.00e+00	0	32	0	596639744	54	6349
2026-01-28 16:08:02.02	342.31	35.52	-40.8	-42.0	21.0	0.00e+00	92	33	0	598736896	54	6436
2026-01-28 16:08:03.03	341.96	35.64	-40.7	-42.0	21.0	0.00e+00	0	33	0	600834048	54	6407
2026-01-28 16:08:04.05	341.61	35.77	-40.4	-41.5	21.4	0.00e+00	92	33	0	602931200	54	6082
2026-01-28 16:08:05.05	341.26	35.89	-40.7	-41.9	21.1	0.00e+00	0	33	0	603979776	54	6373
2026-01-28 16:08:06.06	340.91	36.01	-40.7	-41.9	21.0	0.00e+00	90	33	0	606076928	54	6344
2026-01-28 16:08:07.07	340.56	36.13	-40.8	-42.0	20.9	0.00e+00	2	33	0	608174080	54	6464
2026-01-28 16:08:08.08	340.20	36.25	-41.0	-42.2	20.8	0.00e+00	0	33	0	610271232	54	6592
2026-01-28 16:08:09.09	339.84	36.37	-41.1	-42.4	20.5	0.00e+00	0	33	0	612368384	54	6714
2026-01-28 16:08:10.10	339.47	36.49	-41.2	-42.5	20.5	0.00e+00	0	33	0	613416960	54	6815
2026-01-28 16:08:11.11	339.11	36.61	-41.2	-42.5	20.5	0.00e+00	92	33	0	615514112	54	6821
2026-01-28 16:08:12.12	338.74	36.73	-41.4	-42.7	20.5	0.00e+00	70	33	0	617611264	54	6956
2026-01-28 16:08:13.13	338.36	36.84	-41.2	-42.5	20.6	0.00e+00	92	32	0	619708416	54	6780
2026-01-28 16:08:14.14	337.99	36.96	-40.7	-41.9	21.3	0.00e+00	76	33	0	621805568	54	6353
2026-01-28 16:08:15.15	337.61	37.07	-40.7	-41.9	21.3	0.00e+00	68	32	0	622854144	54	6318
2026-01-28 16:08:16.16	337.23	37.19	-40.6	-41.7	21.3	0.00e+00	0	33	0	624951296	54	6243
2026-01-28 16:08:17.17	336.85	37.30	-40.5	-41.7	21.1	0.00e+00	71	33	0	627048448	54	6207
2026-01-28 16:08:18.18	336.47	37.41	-40.4	-41.5	21.5	0.00e+00	90	33	0	629145600	54	6095
2026-01-28 16:08:19.19	336.08	37.52	-40.3	-41.5	21.6	0.00e+00	0	33	0	631242752	54	6043
2026-01-28 16:08:20.20	335.69	37.63	-40.1	-41.2	21.8	0.00e+00	91	33	0	632291328	54	5831
2026-01-28 16:08:21.21	335.29	37.73	-40.2	-41.3	21.7	0.00e+00	0	33	0	634388480	54	5940
2026-01-28 16:08:22.22	334.90	37.84	-40.3	-41.4	21.5	0.00e+00	0	33	0	636485632	54	6009
2026-01-28 16:08:23.22	334.51	37.94	-40.2	-41.3	21.7	0.00e+00	0	33	0	638582784	54	5942
2026-01-28 16:08:24.23	334.10	38.05	-40.0	-41.1	21.8	0.00e+00	0	33	0	640679936	54	5799
2026-01-28 16:08:25.24	333.70	38.15	-39.8	-40.9	21.8	0.00e+00	0	33	0	642777088	54	5693
2026-01-28 16:08:26.25	333.30	38.25	-39.7	-40.7	22.3	0.00e+00	0	33	0	643825664	52	6236
2026-01-28 16:08:27.25	332.89	38.35	-39.5	-40.6	22.4	0.00e+00	92	33	0	645922816	52	6149
2026-01-28 16:08:28.26	332.48	38.45	-39.5	-40.6	22.4	0.00e+00	10	33	0	648019968	52	6126
2026-01-28 16:08:29.27	332.07	38.54	-39.2	-40.3	22.7	0.00e+00	12	33	0	650117120	52	5901
2026-01-28 16:08:30.28	331.65	38.64	-39.0	-40.0	22.9	0.00e+00	9	32	0	652214272	52	5701
2026-01-28 16:08:31.29	331.23	38.73	-39.0	-40.0	22.9	0.00e+00	2	33	0	653262848	52	5711
2026-01-28 16:08:32.29	330.82	38.82	-39.1	-40.1	22.7	0.00e+00	0	33	0	655360000	52	5781
2026-01-28 16:08:33.30	330.39	38.92	-38.9	-39.9	22.9	0.00e+00	10	33	0	657457152	52	5668
2026-01-28 16:08:34.31	329.97	39.00	-39.2	-40.3	22.7	0.00e+00	92	33	0	659554304	52	5904
2026-01-28 16:08:35.32	329.54	39.09	-38.9	-39.9	23.0	0.00e+00	2	32	0	661651456	52	5670
2026-01-28 16:08:36.33	329.11	39.18	-39.1	-40.1	22.9	0.00e+00	92	33	0	662700032	52	5805
2026-01-28 16:08:37.34	328.68	39.26	-39.1	-40.1	22.9	0.00e+00	10	33	0	664797184	52	5797
2026-01-28 16:08:38.35	328.24	39.35	-38.7	-39.6	23.3	0.00e+00	9	33	0	666894336	50	6136
2026-01-28 16:08:39.36	327.81	39.43	-38.4	-39.4	23.3	0.00e+00	0	33	0	668991488	50	5966
2026-01-28 16:08:40.37	327.37	39.51	-38.3	-39.2	23.6	0.00e+00	0	33	0	671088640	50	5872
2026-01-28 16:08:41.37	326.93	39.58	-38.3	-39.2	23.6	0.00e+00	91	32	0	672137216	50	5864
2026-01-28 16:08:42.38	326.49	39.66	-38.2	-39.0	23.7	0.00e+00	0	33	0	674234368	50	5756
2026-01-28 16:08:43.39	326.04	39.73	-37.9	-38.8	24.0	0.00e+00	90	33	0	676331520	50	5593
2026-01-28 16:08:44.40	325.60	39.81	-37.9	-38.8	24.1	0.00e+00	72	32	0	678428672	50	5572
2026-01-28 16:08:45.41	325.15	39.88	-37.6	-38.5	24.2	0.00e+00	52	33	0	680525824	48	6055
2026-01-28 16:08:46.42	324.70	39.95	-37.7	-38.6	24.1	0.00e+00	7	32	0	681574400	48	6132
2026-01-28 16:08:47.43	324.24	40.01	-37.7	-38.5	24.1	0.00e+00	6	32	0	683671552	48	6088
2026-01-28 16:08:48.44	323.79	40.08	-37.9	-38.8	24.0	0.00e+00	0	33	0	685768704	48	6246
2026-01-28 16:08:49.45	323.33	40.14	-37.7	-38.6	24.1	0.00e+00	7	33	0	687865856	48	6117
2026-01-28 16:08:50.46	322.87	40.20	-37.9	-38.7	24.0	0.00e+00	90	32	0	689963008	48	6234
2026-01-28 16:08:51.47	322.41	40.26	-37.9	-38.8	23.9	0.00e+00	5	32	0	691011584	48	6251
2026-01-28 16:08:52.48	321.95	40.32	-38.0	-38.8	23.9	0.00e+00	90	33	0	693108736	48	6296
2026-01-28 16:08:53.49	321.49	40.37	-37.8	-38.7	23.9	0.00e+00	6	32	0	695205888	48	6198
2026-01-28 16:08:54.49	321.03	40.42	-38.0	-38.9	23.9	0.00e+00	7	32	0	697303040	48	6375
2026-01-28 16:08:55.50	320.56	40.47	-38.2	-39.1	23.7	0.00e+00	0	33	0	699400192	48	6493
2026-01-28 16:08:56.51	320.09	40.52	-37.6	-38.5	24.3	0.00e+00	11	32	0	700448768	48	6044
2026-01-28 16:08:57.52	319.62	40.57	-37.3	-38.1	24.5	0.00e+00	92	32	0	702545920	48	5807
2026-01-28 16:08:58.53	319.15	40.61	-37.3	-38.1	24.6	0.00e+00	11	33	0	704643072	48	5796
2026-01-28 16:08:59.54	318.68	40.66	-37.4	-38.2	24.4	0.00e+00	92	32	0	706740224	48	5877
2026-01-28 16:09:00.55	318.21	40.70	-37.5	-38.4	24.0	0.00e+00	10	32	0	708837376	48	5983
2026-01-28 16:09:01.56	317.73	40.73	-37.6	-38.5	24.2	0.00e+00	0	33	0	710934528	48	6035
2026-01-28 16:09:02.57	317.26	40.77	-37.7	-38.5	24.2	0.00e+00	84	33	0	711983104	48	6074
2026-01-28 16:09:03.58	316.78	40.80	-37.6	-38.4	24.2	0.00e+00	0	32	0	714080256	48	6031
2026-01-28 16:09:04.59	316.30	40.83	-37.6	-38.4	24.2	0.00e+00	0	33	0	716177408	48	6026
2026-01-28 16:09:05.60	315.82	40.86	-37.5	-38.3	24.4	0.00e+00	0	33	0	718274560	48	5949
2026-01-28 16:09:06.61	315.34	40.89	-37.5	-38.4	24.3	0.00e+00	90	33	0	720371712	48	5988
2026-01-28 16:09:07.62	314.86	40.91	-37.6	-38.5	24.3	0.00e+00	0	33	0	721420288	48	6047
2026-01-28 16:09:08.63	314.38	40.94	-37.7	-38.5	24.2	0.00e+00	6	32	0	723517440	48	6087
2026-01-28 16:09:09.64	313.90	40.96	-37.7	-38.5	24.2	0.00e+00	6	33	0	725614592	48	6091
2026-01-28 16:09:10.65	313.42	40.97	-37.8	-38.6	24.1	0.00e+00	7	32	0	727711744	48	6144
2026-01-28 16:09:11.66	312.94	40.99	-37.9	-38.7	23.9	0.00e+00	15	32	0	729808896	48	6234
2026-01-28 16:09:12.67	312.45	41.00	-37.7	-38.5	24.2	0.00e+00	11	32	0	730857472	48	6095
2026-01-28 16:09:13.68	311.97	41.01	-37.6	-38.4	24.2	0.00e+00	92	33	0	732954624	48	6023
2026-01-28 16:09:14.69	311.49	41.02	-37.8	-38.6	24.0	0.00e+00	6	33	0	735051776	48	6149
2026-01-28 16:09:15.69	311.01	41.03	-38.0	-38.8	23.8	0.00e+00	92	33	0	737148928	48	6314
2026-01-28 16:09:16.70	310.52	41.03	-38.5	-39.4	23.4	0.00e+00	7	33	0	739246080	48	6736
2026-01-28 16:09:17.71	310.04	41.03	-38.9	-39.8	23.1	0.00e+00	10	33	0	740294656	50	6286
2026-01-28 16:09:18.72	309.56	41.03	-38.8	-39.7	23.2	0.00e+00	79	33	0	742391808	50	6232
2026-01-28 16:09:19.73	309.07	41.03	-38.8	-39.8	23.1	0.00e+00	70	32	0	744488960	50	6258
2026-01-28 16:09:20.74	308.59	41.02	-38.9	-39.8	23.1	0.00e+00	92	33	0	746586112	50	6316
2026-01-28 16:09:21.75	308.10	41.02	-39.1	-40.1	22.8	0.00e+00	10	33	0	748683264	50	6473
2026-01-28 16:09:22.76	307.62	41.01	-39.4	-40.4	22.5	0.00e+00	91	33	0	749731840	50	6699
2026-01-28 16:09:23.76	307.14	40.99	-39.7	-40.7	22.2	0.00e+00	0	32	0	751828992	50	6982
2026-01-28 16:09:24.77	306.66	40.98	-39.7	-40.7	22.3	0.00e+00	68	33	0	753926144	52	6186
2026-01-28 16:09:25.78	306.18	40.96	-39.9	-40.9	22.2	0.00e+00	70	33	0	756023296	52	6368
2026-01-28 16:09:26.79	305.70	40.94	-39.6	-40.7	22.3	0.00e+00	0	33	0	758120448	52	6190
2026-01-28 16:09:27.80	305.22	40.92	-40.0	-41.1	22.0	0.00e+00	3	33	0	759169024	52	6507
2026-01-28 16:09:28.81	304.73	40.90	-40.6	-41.7	21.4	0.00e+00	0	33	0	761266176	52	6984
2026-01-28 16:09:29.82	304.26	40.87	-40.9	-42.1	20.9	0.00e+00	92	32	0	763363328	54	6517
2026-01-28 16:09:30.83	303.78	40.84	-40.7	-41.9	21.2	0.00e+00	0	33	0	765460480	54	6343
2026-01-28 16:09:31.84	303.30	40.81	-40.5	-41.6	21.4	0.00e+00	45	33	0	767557632	54	6147
2026-01-28 16:09:32.85	302.82	40.78	-40.3	-41.4	21.6	0.00e+00	0	33	0	768606208	54	6026
2026-01-28 16:09:33.86	302.35	40.74	-40.5	-41.6	21.3	0.00e+00	5	33	0	770703360	54	6171
2026-01-28 16:09:34.87	301.87	40.71	-41.0	-42.3	20.7	0.00e+00	0	32	0	772800512	54	6616
2026-01-28 16:09:35.87	301.40	40.67	-41.5	-42.8	20.2	0.00e+00	0	32	0	774897664	54	7072
2026-01-28 16:09:36.88	300.93	40.63	-42.0	-43.5	19.7	0.00e+00	92	33	0	776994816	56	6780
2026-01-28 16:09:37.89	300.46	40.58	-42.3	-43.8	19.5	0.00e+00	4	33	0	778043392	56	7033
2026-01-28 16:09:38.90	299.99	40.54	-42.2	-43.6	19.4	0.00e+00	92	33	0	780140544	56	6898
2026-01-28 16:09:39.91	299.52	40.49	-42.4	-43.9	19.5	0.00e+00	5	33	0	782237696	56	7137
2026-01-28 16:09:40.92	299.05	40.44	-42.2	-43.6	19.6	0.00e+00	10	33	0	784334848	56	6927
2026-01-28 16:09:41.93	298.58	40.39	-42.3	-43.7	19.5	0.00e+00	2	33	0	786432000	56	6996
2026-01-28 16:09:42.94	298.12	40.33	-42.0	-43.5	19.8	0.00e+00	10	33	0	787480576	56	6774
2026-01-28 16:09:43.95	297.66	40.28	-41.9	-43.3	19.9	0.00e+00	92	33	0	789577728	56	6639
2026-01-28 16:09:44.96	297.20	40.22	-42.0	-43.4	19.8	0.00e+00	0	33	0	791674880	56	6711
2026-01-28 16:09:45.96	296.74	40.16	-41.9	-43.3	19.9	0.00e+00	92	33	0	793772032	56	6641
2026-01-28 16:09:46.97	296.28	40.10	-41.9	-43.3	19.9	0.00e+00	0	33	0	795869184	56	6656
2026-01-28 16:09:47.98	295.83	40.03	-41.7	-43.0	20.2	0.00e+00	91	33	0	796917760	56	6447
2026-01-28 16:09:48.99	295.37	39.97	-41.6	-42.9	20.3	0.00e+00	72	32	0	799014912	56	6338
2026-01-28 16:09:50.00	294.92	39.90	-41.5	-42.8	20.4	0.00e+00	71	32	0	801112064	56	6260
2026-01-28 16:09:51.01	294.47	39.83	-40.7	-41.8	21.3	0.00e+00	80	33	0	803209216	56	5607
2026-01-28 16:09:52.02	294.02	39.76	-40.2	-41.3	21.9	0.00e+00	0	33	0	805306368	54	5899
2026-01-28 16:09:53.03	293.57	39.68	-39.7	-40.7	22.3	0.00e+00	92	33	0	807403520	54	5523
2026-01-28 16:09:54.04	293.13	39.61	-39.5	-40.5	22.5	0.00e+00	0	32	0	808452096	52	6051
2026-01-28 16:09:55.05	292.69	39.53	-39.5	-40.5	22.5	0.00e+00	91	32	0	810549248	52	6100
2026-01-28 16:09:56.06	292.25	39.45	-39.0	-39.9	23.1	0.00e+00	9	32	0	812646400	52	5668
2026-01-28 16:09:57.07	291.81	39.37	-38.6	-39.5	23.4	0.00e+00	10	32	0	814743552	50	6091
2026-01-28 16:09:58.08	291.37	39.29	-38.1	-39.0	23.9	0.00e+00	0	33	0	816840704	50	5723
2026-01-28 16:09:59.08	290.94	39.20	-37.8	-38.7	24.1	0.00e+00	2	33	0	817889280	50	5509
2026-01-28 16:10:00.09	290.51	39.12	-37.5	-38.4	24.2	0.00e+00	91	33	0	819986432	48	5979
2026-01-28 16:10:01.10	290.08	39.03	-37.6	-38.5	24.3	0.00e+00	10	32	0	822083584	48	6040
2026-01-28 16:10:02.12	289.65	38.94	-37.4	-38.3	24.4	0.00e+00	91	33	0	824180736	48	5903
2026-01-28 16:10:03.12	289.23	38.85	-37.4	-38.2	24.5	0.00e+00	0	32	0	826277888	48	5885
2026-01-28 16:10:04.13	288.81	38.76	-37.2	-38.0	24.7	0.00e+00	5	33	0	827326464	48	5741
2026-01-28 16:10:05.14	288.39	38.67	-36.9	-37.7	24.9	0.00e+00	6	33	0	829423616	48	5538
2026-01-28 16:10:06.15	287.97	38.57	-36.9	-37.7	24.9	0.00e+00	77	33	0	831520768	48	5541
2026-01-28 16:10:07.16	287.56	38.47	-37.0	-37.8	24.8	0.00e+00	90	33	0	833617920	48	5576
2026-01-28 16:10:08.17	287.15	38.38	-36.9	-37.7	24.9	0.00e+00	76	33	0	835715072	48	5514
2026-01-28 16:10:09.18	286.74	38.28	-36.8	-37.6	24.9	0.00e+00	90	33	0	836763648	46	6166
2026-01-28 16:10:10.19	286.33	38.18	-37.0	-37.8	24.8	0.00e+00	0	33	0	838860800	46	6264
2026-01-28 16:10:11.20	285.92	38.07	-36.7	-37.5	24.6	0.00e+00	0	33	0	840957952	46	6094
2026-01-28 16:10:12.21	285.52	37.97	-36.9	-37.7	24.8	0.00e+00	72	32	0	843055104	46	6199
2026-01-28 16:10:13.21	285.13	37.87	-37.1	-37.9	24.6	0.00e+00	0	33	0	845152256	46	6355
2026-01-28 16:10:14.22	284.73	37.76	-36.9	-37.6	24.9	0.00e+00	89	32	0	846200832	46	6168
2026-01-28 16:10:15.23	284.34	37.65	-36.7	-37.5	25.0	0.00e+00	0	32	0	848297984	46	6060
2026-01-28 16:10:16.24	283.94	37.54	-36.6	-37.4	25.0	0.00e+00	92	32	0	850395136	46	6011
2026-01-28 16:10:17.25	283.55	37.44	-36.7	-37.5	24.5	0.00e+00	0	33	0	852492288	46	6065
2026-01-28 16:10:18.26	283.17	37.32	-36.9	-37.7	24.8	0.00e+00	49	32	0	854589440	46	6244
2026-01-28 16:10:19.27	282.78	37.21	-36.9	-37.7	24.4	0.00e+00	0	33	0	855638016	46	6233
2026-01-28 16:10:20.28	282.40	37.10	-37.2	-38.0	24.5	0.00e+00	0	33	0	857735168	46	6448
2026-01-28 16:10:21.29	282.02	36.99	-37.4	-38.3	24.5	0.00e+00	0	33	0	859832320	46	6619
2026-01-28 16:10:22.30	281.65	36.87	-37.5	-38.3	24.4	0.00e+00	9	33	0	861929472	46	6652
2026-01-28 16:10:23.31	281.27	36.75	-37.5	-38.4	24.3	0.00e+00	92	33	0	864026624	46	6704
2026-01-28 16:10:24.32	280.90	36.64	-37.5	-38.3	24.4	0.00e+00	73	33	0	865075200	46	6681
2026-01-28 16:10:25.33	280.54	36.52	-37.6	-38.4	24.3	0.00e+00	90	33	0	867172352	46	6747
2026-01-28 16:10:26.34	280.17	36.40	-37.6	-38.5	24.3	0.00e+00	0	33	0	869269504	46	6780
2026-01-28 16:10:27.35	279.81	36.28	-37.6	-38.5	24.2	0.00e+00	0	32	0	871366656	46	6791
2026-01-28 16:10:28.36	279.45	36.16	-37.8	-38.6	24.1	0.00e+00	73	32	0	873463808	48	6168
2026-01-28 16:10:29.36	279.09	36.04	-38.0	-38.9	23.9	0.00e+00	0	32	0	875560960	48	6322
2026-01-28 16:10:30.37	278.74	35.92	-38.0	-38.9	23.8	0.00e+00	92	33	0	876609536	48	6378
2026-01-28 16:10:31.38	278.39	35.80	-38.0	-38.9	23.8	0.00e+00	72	32	0	878706688	48	6386
2026-01-28 16:10:32.39	278.04	35.67	-37.9	-38.8	23.9	0.00e+00	92	33	0	880803840	48	6296
2026-01-28 16:10:33.40	277.69	35.55	-37.8	-38.6	24.1	0.00e+00	78	33	0	882900992	48	6153
2026-01-28 16:10:34.41	277.35	35.42	-37.9	-38.7	24.0	0.00e+00	5	32	0	884998144	48	6244
2026-01-28 16:10:35.42	277.01	35.30	-37.8	-38.7	24.0	0.00e+00	5	32	0	886046720	48	6188
2026-01-28 16:10:36.43	276.67	35.17	-37.9	-38.7	23.9	0.00e+00	6	33	0	888143872	48	6234
2026-01-28 16:10:37.44	276.33	35.04	-37.9	-38.7	24.1	0.00e+00	0	32	0	890241024	48	6218
2026-01-28 16:10:38.45	276.00	34.92	-37.9	-38.7	23.9	0.00e+00	0	33	0	892338176	48	6241
2026-01-28 16:10:39.46	275.67	34.79	-38.0	-38.9	23.9	0.00e+00	92	33	0	894435328	48	6332
2026-01-28 16:10:40.47	275.34	34.66	-38.1	-39.0	23.7	0.00e+00	6	33	0	895483904	48	6405
2026-01-28 16:10:41.48	275.01	34.53	-38.2	-39.1	23.8	0.00e+00	92	33	0	897581056	48	6465
2026-01-28 16:10:42.49	274.69	34.40	-38.3	-39.2	23.6	0.00e+00	8	33	0	899678208	48	6576
2026-01-28 16:10:43.50	274.37	34.27	-38.5	-39.5	23.3	0.00e+00	6	32	0	901775360	48	6784
2026-01-28 16:10:44.51	274.05	34.14	-38.8	-39.7	23.1	0.00e+00	0	32	0	903872512	50	6204
2026-01-28 16:10:45.52	273.74	34.01	-38.7	-39.6	23.0	0.00e+00	78	33	0	904921088	50	6120
2026-01-28 16:10:46.53	273.42	33.88	-38.8	-39.7	23.2	0.00e+00	92	33	0	907018240	50	6215
2026-01-28 16:10:47.54	273.11	33.74	-39.0	-40.0	22.8	0.00e+00	78	33	0	909115392	50	6428
2026-01-28 16:10:48.55	272.81	33.61	-39.3	-40.3	22.5	0.00e+00	92	32	0	911212544	50	6659
2026-01-28 16:10:49.56	272.50	33.48	-39.6	-40.7	22.2	0.00e+00	0	33	0	913309696	50	6951
2026-01-28 16:10:50.57	272.20	33.35	-39.9	-41.0	22.0	0.00e+00	0	33	0	914358272	52	6411
2026-01-28 16:10:51.57	271.90	33.21	-40.0	-41.1	22.0	0.00e+00	79	33	0	916455424	52	6486
2026-01-28 16:10:52.58	271.60	33.08	-40.0	-41.1	21.8	0.00e+00	78	33	0	918552576	52	6525
2026-01-28 16:10:53.59	271.31	32.95	-40.0	-41.0	22.0	0.00e+00	83	33	0	920649728	52	6459
2026-01-28 16:10:54.60	271.01	32.81	-40.0	-41.0	22.1	0.00e+00	76	33	0	922746880	52	6451
2026-01-28 16:10:55.61	270.72	32.68	-40.0	-41.1	21.8	0.00e+00	92	33	0	923795456	52	6489
2026-01-28 16:10:56.62	270.44	32.54	-40.4	-41.5	21.3	0.00e+00	0	33	0	925892608	52	6831
2026-01-28 16:10:57.63	270.15	32.41	-40.6	-41.8	21.3	0.00e+00	6	33	0	927989760	52	7042
2026-01-28 16:10:58.64	269.87	32.27	-40.7	-41.9	21.2	0.00e+00	0	33	0	930086912	52	7116
2026-01-28 16:10:59.65	269.59	32.14	-40.6	-41.7	21.3	0.00e+00	6	33	0	932184064	52	6990
2026-01-28 16:11:00.66	269.31	32.00	-40.6	-41.8	21.2	0.00e+00	0	33	0	933232640	52	7049
2026-01-28 16:11:01.67	269.03	31.86	-40.5	-41.6	21.4	0.00e+00	6	32	0	935329792	52	6894
2026-01-28 16:11:02.67	268.76	31.73	-40.5	-41.7	21.4	0.00e+00	92	33	0	937426944	52	6934
2026-01-28 16:11:03.68	268.49	31.59	-40.5	-41.7	21.3	0.00e+00	2	33	0	939524096	52	6940
2026-01-28 16:11:04.69	268.22	31.46	-40.8	-42.0	21.0	0.00e+00	92	33	0	941621248	52	7241
2026-01-28 16:11:05.70	267.95	31.32	-40.7	-41.9	21.1	0.00e+00	4	33	0	942669824	54	6375
2026-01-28 16:11:06.71	267.69	31.19	-40.5	-41.7	21.3	0.00e+00	79	33	0	944766976	54	6212
2026-01-28 16:11:07.72	267.42	31.05	-40.2	-41.3	21.6	0.00e+00	3	33	0	946864128	54	5964
2026-01-28 16:11:08.73	267.16	30.91	-40.1	-41.2	21.8	0.00e+00	78	33	0	948961280	54	5840
2026-01-28 16:11:09.74	266.91	30.78	-40.1	-41.2	21.8	0.00e+00	92	33	0	951058432	54	5874
2026-01-28 16:11:10.75	266.65	30.64	-40.1	-41.2	21.8	0.00e+00	72	33	0	952107008	54	5860
2026-01-28 16:11:11.76	266.40	30.50	-40.3	-41.4	21.5	0.00e+00	91	33	0	954204160	54	6015
2026-01-28 16:11:12.76	266.15	30.37	-40.2	-41.3	21.7	0.00e+00	72	32	0	956301312	54	5917
2026-01-28 16:11:13.77	265.90	30.23	-40.2	-41.3	21.7	0.00e+00	73	33	0	958398464	54	5916
2026-01-28 16:11:14.78	265.65	30.10	-39.9	-40.9	22.0	0.00e+00	72	33	0	960495616	54	5691
2026-01-28 16:11:15.79	265.40	29.96	-39.8	-40.8	22.1	0.00e+00	73	33	0	961544192	54	5617
2026-01-28 16:11:16.80	265.16	29.82	-39.8	-40.9	22.1	0.00e+00	0	32	0	963641344	52	6322
2026-01-28 16:11:17.81	264.92	29.69	-40.0	-41.1	21.9	0.00e+00	0	33	0	965738496	52	6469
2026-01-28 16:11:18.82	264.68	29.55	-39.9	-41.0	22.0	0.00e+00	92	32	0	967835648	52	6391
2026-01-28 16:11:19.83	264.44	29.42	-39.3	-40.3	22.6	0.00e+00	0	33	0	969932800	52	5906
2026-01-28 16:11:20.84	264.21	29.28	-39.6	-40.6	22.3	0.00e+00	92	33	0	972029952	52	6146
2026-01-28 16:11:21.85	263.98	29.14	-39.5	-40.5	22.6	0.00e+00	0	33	0	973078528	52	6048
2026-01-28 16:11:22.85	263.75	29.01	-39.5	-40.5	22.4	0.00e+00	0	32	0	975175680	52	6097
2026-01-28 16:11:23.86	263.52	28.87	-39.2	-40.2	22.6	0.00e+00	8	33	0	977272832	52	5841
2026-01-28 16:11:24.87	263.29	28.74	-39.2	-40.2	22.7	0.00e+00	0	32	0	979369984	52	5831
2026-01-28 16:11:25.88	263.07	28.60	-38.9	-39.9	22.9	0.00e+00	92	33	0	981467136	52	5653
2026-01-28 16:11:26.89	262.84	28.47	-38.8	-39.8	23.1	0.00e+00	8	33	0	982515712	52	5594
2026-01-28 16:11:27.90	262.62	28.33	-38.8	-39.7	23.1	0.00e+00	91	33	0	984612864	52	5562
2026-01-28 16:11:28.91	262.40	28.20	-38.9	-39.9	22.9	0.00e+00	75	33	0	986710016	50	6333
2026-01-28 16:11:29.92	262.18	28.07	-38.8	-39.8	22.9	0.00e+00	74	33	0	988807168	50	6270
2026-01-28 16:11:30.93	261.97	27.93	-38.9	-39.8	22.6	0.00e+00	0	33	0	990904320	50	6301
2026-01-28 16:11:31.94	261.75	27.80	-38.8	-39.7	22.7	0.00e+00	7	33	0	991952896	50	6240
2026-01-28 16:11:32.94	261.54	27.66	-38.7	-39.6	23.1	0.00e+00	92	33	0	994050048	50	6168
2026-01-28 16:11:33.95	261.33	27.53	-38.6	-39.6	23.2	0.00e+00	3	32	0	996147200	50	6131
2026-01-28 16:11:34.96	261.12	27.40	-38.7	-39.6	23.1	0.00e+00	92	33	0	998244352	50	6169
2026-01-28 16:11:35.97	260.92	27.26	-38.6	-39.6	23.2	0.00e+00	0	33	0	1000341504	50	6121
2026-01-28 16:11:36.98	260.71	27.13	-38.8	-39.7	23.0	0.00e+00	81	33	0	1001390080	50	6226
2026-01-28 16:11:37.99	260.51	27.00	-38.6	-39.6	23.2	0.00e+00	0	32	0	1003487232	50	6131
2026-01-28 16:11:39.00	260.30	26.87	-38.9	-39.9	23.0	0.00e+00	0	33	0	1005584384	50	6359
2026-01-28 16:11:40.01	260.10	26.73	-38.9	-39.8	23.0	0.00e+00	70	33	0	1007681536	50	6295
2026-01-28 16:11:41.02	259.91	26.60	-38.9	-39.9	22.9	0.00e+00	2	33	0	1009778688	50	6332
2026-01-28 16:11:42.03	259.71	26.47	-38.7	-39.7	23.1	0.00e+00	92	33	0	1010827264	50	6180
2026-01-28 16:11:43.03	259.52	26.34	-38.7	-39.7	23.1	0.00e+00	0	33	0	1012924416	50	6187
2026-01-28 16:11:44.04	259.32	26.21	-38.3	-39.2	23.5	0.00e+00	92	33	0	1015021568	50	5881
2026-01-28 16:11:45.05	259.13	26.08	-38.4	-39.3	23.4	0.00e+00	2	33	0	1017118720	50	5947
2026-01-28 16:11:46.06	258.94	25.95	-38.4	-39.3	23.3	0.00e+00	0	33	0	1019215872	50	5937
2026-01-28 16:11:47.07	258.75	25.82	-38.2	-39.1	23.7	0.00e+00	0	33	0	1020264448	50	5774
2026-01-28 16:11:48.08	258.56	25.69	-38.3	-39.2	23.5	0.00e+00	9	33	0	1022361600	50	5854
2026-01-28 16:11:49.09	258.38	25.56	-38.2	-39.1	23.6	0.00e+00	92	33	0	1024458752	50	5766
2026-01-28 16:11:50.10	258.19	25.43	-38.4	-39.3	23.4	0.00e+00	2	33	0	1026555904	50	5963
2026-01-28 16:11:51.11	258.01	25.30	-38.3	-39.2	23.5	0.00e+00	92	32	0	1028653056	50	5874
2026-01-28 16:11:52.12	257.83	25.17	-38.4	-39.3	23.4	0.00e+00	74	33	0	1029701632	50	5941
2026-01-28 16:11:53.12	257.65	25.04	-38.5	-39.5	23.4	0.00e+00	0	33	0	1031798784	50	6043
2026-01-28 16:11:54.14	257.47	24.91	-38.6	-39.6	23.2	0.00e+00	0	33	0	1033895936	50	6110
2026-01-28 16:11:55.14	257.30	24.79	-38.5	-39.4	23.2	0.00e+00	0	33	0	1035993088	50	6033
2026-01-28 16:11:56.15	257.12	24.66	-38.7	-39.6	23.1	0.00e+00	54	33	0	1038090240	50	6163
2026-01-28 16:11:57.16	256.95	24.53	-38.8	-39.8	23.1	0.00e+00	0	33	0	1040187392	50	6262
2026-01-28 16:11:58.17	256.77	24.40	-38.7	-39.6	23.1	0.00e+00	92	33	0	1041235968	50	6140
2026-01-28 16:11:59.18	256.60	24.28	-38.8	-39.7	23.0	0.00e+00	74	33	0	1043333120	50	6215
2026-01-28 16:12:00.19	256.43	24.15	-38.7	-39.7	23.1	0.00e+00	38	33	0	1045430272	50	6186
2026-01-28 16:12:01.20	256.27	24.02	-38.7	-39.6	23.2	0.00e+00	0	32	0	1047527424	50	6151
2026-01-28 16:12:02.21	256.10	23.90	-38.7	-39.7	23.1	0.00e+00	0	33	0	1049624576	50	6183
2026-01-28 16:12:03.22	255.93	23.77	-38.7	-39.7	23.1	0.00e+00	91	33	0	1050673152	50	6194
2026-01-28 16:12:04.23	255.77	23.65	-38.8	-39.8	23.0	0.00e+00	2	32	0	1052770304	50	6255
2026-01-28 16:12:05.24	255.61	23.52	-38.9	-39.8	22.9	0.00e+00	90	32	0	1054867456	50	6305
2026-01-28 16:12:06.25	255.44	23.40	-39.1	-40.1	22.7	0.00e+00	2	33	0	1056964608	50	6489
2026-01-28 16:12:07.26	255.28	23.28	-39.1	-40.0	22.7	0.00e+00	92	33	0	1059061760	50	6453
2026-01-28 16:12:08.27	255.12	23.15	-39.1	-40.1	22.7	0.00e+00	0	33	0	1060110336	50	6475
2026-01-28 16:12:09.27	254.97	23.03	-39.1	-40.1	22.6	0.00e+00	0	33	0	1062207488	50	6538
2026-01-28 16:12:10.29	254.81	22.91	-39.3	-40.3	22.5	0.00e+00	0	33	0	1064304640	50	6628
2026-01-28 16:12:11.29	254.66	22.78	-39.2	-40.2	22.5	0.00e+00	0	33	0	1066401792	50	6555
2026-01-28 16:12:12.30	254.50	22.66	-39.3	-40.4	22.5	0.00e+00	91	32	0	1068498944	50	6700
2026-01-28 16:12:13.31	254.35	22.54	-39.4	-40.5	22.4	0.00e+00	6	33	0	1069547520	50	6783
2026-01-28 16:12:14.32	254.20	22.42	-39.4	-40.4	22.4	0.00e+00	92	33	0	1071644672	50	6717
2026-01-28 16:12:15.33	254.05	22.30	-39.5	-40.5	22.4	0.00e+00	5	33	0	1073741824	50	6791
2026-01-28 16:12:16.34	253.90	22.18	-39.3	-40.3	22.4	0.00e+00	77	33	0	1075838976	50	6673
2026-01-28 16:12:17.35	253.75	22.06	-39.3	-40.3	22.4	0.00e+00	77	33	0	1077936128	50	6662
2026-01-28 16:12:18.36	253.60	21.94	-39.4	-40.5	22.2	0.00e+00	0	33	0	1078984704	50	6789
2026-01-28 16:12:19.37	253.46	21.82	-39.3	-40.3	22.4	0.00e+00	92	33	0	1081081856	50	6681
2026-01-28 16:12:20.38	253.31	21.70	-39.4	-40.5	22.4	0.00e+00	0	33	0	1083179008	50	6784
2026-01-28 16:12:21.39	253.17	21.58	-39.4	-40.4	22.3	0.00e+00	92	33	0	1085276160	50	6747
2026-01-28 16:12:22.40	253.03	21.46	-39.3	-40.3	22.4	0.00e+00	0	33	0	1087373312	50	6668
2026-01-28 16:12:23.41	252.89	21.34	-39.4	-40.4	22.4	0.00e+00	6	33	0	1088421888	50	6716
2026-01-28 16:12:24.41	252.75	21.23	-39.3	-40.3	22.3	0.00e+00	6	33	0	1090519040	50	6667
2026-01-28 16:12:25.42	252.61	21.11	-39.1	-40.1	22.6	0.00e+00	1	33	0	1092616192	50	6498
2026-01-28 16:12:26.43	252.47	20.99	-39.2	-40.2	22.6	0.00e+00	0	33	0	1094713344	50	6556
2026-01-28 16:12:27.44	252.33	20.87	-39.3	-40.3	22.5	0.00e+00	5	33	0	1096810496	50	6647
2026-01-28 16:12:28.45	252.20	20.76	-39.3	-40.4	22.4	0.00e+00	92	32	0	1097859072	50	6706
2026-01-28 16:12:29.45	252.06	20.64	-39.6	-40.7	22.1	0.00e+00	5	33	0	1099956224	50	6943
2026-01-28 16:12:30.46	251.93	20.53	-39.8	-40.9	21.9	0.00e+00	91	33	0	1102053376	52	6363
2026-01-28 16:12:31.47	251.80	20.41	-39.7	-40.8	22.0	0.00e+00	3	33	0	1104150528	52	6269
2026-01-28 16:12:32.48	251.66	20.30	-39.7	-40.8	22.0	0.00e+00	0	33	0	1106247680	52	6263
2026-01-28 16:12:33.49	251.53	20.18	-39.7	-40.8	22.0	0.00e+00	5	33	0	1107296256	52	6291
2026-01-28 16:12:34.50	251.40	20.07	-39.6	-40.6	22.2	0.00e+00	0	32	0	1109393408	52	6171
2026-01-28 16:12:35.51	251.28	19.95	-39.3	-40.3	22.4	0.00e+00	91	33	0	1111490560	52	5946
2026-01-28 16:12:36.52	251.15	19.84	-39.2	-40.2	22.5	0.00e+00	87	33	0	1113587712	52	5894
2026-01-28 16:12:37.53	251.02	19.73	-39.3	-40.3	22.4	0.00e+00	91	32	0	1115684864	52	5948
2026-01-28 16:12:38.54	250.89	19.61	-39.3	-40.3	22.4	0.00e+00	86	33	0	1116733440	52	5945
2026-01-28 16:12:39.55	250.77	19.50	-39.4	-40.4	22.3	0.00e+00	88	32	0	1118830592	52	5994
2026-01-28 16:12:40.56	250.65	19.39	-39.1	-40.1	22.6	0.00e+00	84	32	0	1120927744	52	5784
2026-01-28 16:12:41.57	250.52	19.28	-39.1	-40.0	22.6	0.00e+00	0	33	0	1123024896	52	5757
2026-01-28 16:12:42.58	250.40	19.17	-39.1	-40.0	22.7	0.00e+00	92	32	0	1125122048	52	5754
2026-01-28 16:12:43.58	250.28	19.06	-39.0	-40.0	22.6	0.00e+00	0	32	0	1126170624	52	5714
2026-01-28 16:12:44.59	250.16	18.95	-39.0	-40.0	22.7	0.00e+00	92	33	0	1128267776	52	5727
2026-01-28 16:12:45.60	250.04	18.84	-39.1	-40.0	22.6	0.00e+00	81	32	0	1130364928	52	5759
2026-01-28 16:12:46.61	249.92	18.73	-39.0	-40.0	22.7	0.00e+00	15	33	0	1132462080	52	5744
2026-01-28 16:12:47.62	249.80	18.62	-39.0	-40.0	22.7	0.00e+00	5	32	0	1134559232	52	5747
2026-01-28 16:12:48.63	249.69	18.51	-39.1	-40.1	22.6	0.00e+00	6	33	0	1136656384	52	5775
2026-01-28 16:12:49.64	249.57	18.40	-39.2	-40.2	22.4	0.00e+00	0	33	0	1137704960	52	5846
2026-01-28 16:12:50.65	249.45	18.29	-39.2	-40.2	22.5	0.00e+00	6	32	0	1139802112	52	5842
2026-01-28 16:12:51.66	249.34	18.18	-39.1	-40.2	22.5	0.00e+00	92	32	0	1141899264	52	5831
2026-01-28 16:12:52.67	249.23	18.07	-39.3	-40.3	22.4	0.00e+00	6	32	0	1143996416	52	5940
2026-01-28 16:12:53.67	249.11	17.97	-39.4	-40.4	22.3	0.00e+00	56	33	0	1146093568	52	5995
2026-01-28 16:12:54.68	249.00	17.86	-39.2	-40.2	22.4	0.00e+00	6	32	0	1147142144	52	5893
2026-01-28 16:12:55.69	248.89	17.75	-39.2	-40.3	22.4	0.00e+00	6	32	0	1149239296	52	5905
2026-01-28 16:12:56.70	248.78	17.65	-39.4	-40.4	22.3	0.00e+00	0	33	0	1151336448	52	6002
2026-01-28 16:12:57.71	248.67	17.54	-39.2	-40.2	22.5	0.00e+00	76	33	0	1153433600	52	5884
2026-01-28 16:12:58.72	248.56	17.44	-39.3	-40.3	22.4	0.00e+00	92	32	0	1155530752	52	5941
2026-01-28 16:12:59.73	248.45	17.33	-39.2	-40.2	22.6	0.00e+00	5	32	0	1156579328	52	5863
2026-01-28 16:13:00.74	248.35	17.23	-39.1	-40.1	22.5	0.00e+00	92	33	0	1158676480	52	5827
2026-01-28 16:13:01.75	248.24	17.12	-39.2	-40.2	22.5	0.00e+00	5	32	0	1160773632	52	5848
2026-01-28 16:13:02.76	248.13	17.02	-39.3	-40.3	22.3	0.00e+00	0	32	0	1162870784	52	5930
2026-01-28 16:13:03.77	248.03	16.91	-39.2	-40.2	22.4	0.00e+00	82	32	0	1164967936	52	5896
2026-01-28 16:13:04.78	247.93	16.81	-39.2	-40.2	22.5	0.00e+00	0	32	0	1166016512	52	5862
2026-01-28 16:13:05.79	247.82	16.71	-39.3	-40.3	22.4	0.00e+00	87	32	0	1168113664	52	5942
2026-01-28 16:13:06.80	247.72	16.60	-39.3	-40.3	22.6	0.00e+00	0	32	0	1170210816	52	5913
2026-01-28 16:13:07.80	247.62	16.50	-39.1	-40.1	22.5	0.00e+00	91	32	0	1172307968	52	5776
2026-01-28 16:13:08.81	247.52	16.40	-39.1	-40.1	22.6	0.00e+00	2	33	0	1174405120	52	5779
2026-01-28 16:13:09.82	247.42	16.30	-38.9	-39.9	22.8	0.00e+00	17	32	0	1175453696	52	5668
2026-01-28 16:13:10.83	247.32	16.20	-38.8	-39.8	22.8	0.00e+00	0	33	0	1177550848	52	5595
2026-01-28 16:13:11.84	247.22	16.09	-38.8	-39.8	22.9	0.00e+00	0	32	0	1179648000	52	5600
2026-01-28 16:13:12.85	247.12	15.99	-38.7	-39.6	22.9	0.00e+00	0	33	0	1181745152	50	6162
2026-01-28 16:13:13.85	247.02	15.89	-38.7	-39.6	22.9	0.00e+00	0	33	0	1183842304	50	6158
2026-01-28 16:13:14.86	246.92	15.79	-38.8	-39.8	22.8	0.00e+00	90	33	0	1184890880	50	6260
2026-01-28 16:13:15.87	246.83	15.69	-38.7	-39.6	22.9	0.00e+00	2	32	0	1186988032	50	6170
2026-01-28 16:13:16.88	246.73	15.59	-38.7	-39.6	22.9	0.00e+00	92	32	0	1189085184	50	6172
2026-01-28 16:13:17.89	246.64	15.49	-38.8	-39.8	22.8	0.00e+00	3	33	0	1191182336	50	6260
2026-01-28 16:13:18.89	246.54	15.40	-39.0	-40.0	22.6	0.00e+00	0	32	0	1193279488	50	6442
2026-01-28 16:13:19.90	246.45	15.30	-39.0	-40.0	22.6	0.00e+00	0	33	0	1194328064	50	6417
2026-01-28 16:13:20.91	246.35	15.20	-39.1	-40.1	22.4	0.00e+00	78	32	0	1196425216	50	6519
2026-01-28 16:13:21.92	246.26	15.10	-39.3	-40.3	22.3	0.00e+00	90	33	0	1198522368	50	6636
2026-01-28 16:13:22.93	246.17	15.00	-39.3	-40.3	22.3	0.00e+00	2	32	0	1200619520	50	6664
2026-01-28 16:13:23.94	246.08	14.91	-39.3	-40.4	22.2	0.00e+00	91	33	0	1202716672	50	6711
