passes_logs/2026/01/28/R4.6S_Anadyr/R4.6S_Anadyr__20260128_035341_AQUA_rec.log

#Pass ID: 20260128_035341_AQUA
#Satellite: AQUA
#Configuration: AQUA
#almurnet v.1.7.20251203
#Start time: 2026-01-28 03:53:41

#Version: 2.2.20231116
#Station: R4.6S_Anadyr
#Location: 177.4865 lon 64.73178 lat
#TLE: 1 27424U 02022A   26027.63960626  .00001831  00000+0  37607-3 0  9998
#TLE: 2 27424  98.4102 354.2809 0001844  63.7090 108.5242 14.61867354262735

#Time	Az	El	Level	Level2	SNR	BER	BlckErr	Temp	State	Recorded	gain1	gain2
2026-01-28 03:53:41.99	208.68	0.05	-48.9	-61.5	3.4	1.52e+00	0	31	0	0	60	41629
2026-01-28 03:53:43.00	208.75	0.10	-49.2	-67.1	3.5	3.03e+01	0	32	104	0	60	86945
2026-01-28 03:53:44.01	208.82	0.16	-48.8	-67.1	3.5	3.03e+01	0	32	104	0	60	87122
2026-01-28 03:53:45.02	208.89	0.21	-49.2	-67.1	3.5	3.03e+01	0	32	104	0	60	87135
2026-01-28 03:53:46.03	208.97	0.27	-49.2	-67.1	3.5	3.03e+01	0	32	104	0	60	87402
2026-01-28 03:53:47.04	209.04	0.32	-49.3	-67.2	3.5	3.03e+01	0	32	104	0	60	87775
2026-01-28 03:53:48.05	209.11	0.38	-49.2	-67.2	3.5	3.03e+01	0	32	104	0	60	88007
2026-01-28 03:53:49.06	209.19	0.43	-49.1	-67.2	3.5	3.03e+01	0	32	104	0	60	88397
2026-01-28 03:53:50.07	209.26	0.49	-49.3	-67.2	3.5	3.03e+01	0	32	104	0	60	88382
2026-01-28 03:53:51.08	209.33	0.54	-49.2	-67.3	3.5	3.03e+01	0	32	104	0	60	88717
2026-01-28 03:53:52.09	209.41	0.60	-49.3	-67.3	3.5	3.03e+01	0	32	104	0	60	88764
2026-01-28 03:53:53.10	209.48	0.65	-49.4	-67.3	3.5	3.03e+01	0	32	104	0	60	89185
2026-01-28 03:53:54.11	209.56	0.71	-49.4	-67.2	3.5	3.03e+01	0	32	104	0	60	88477
2026-01-28 03:53:55.12	209.63	0.76	-49.4	-67.3	3.5	3.03e+01	0	32	104	0	60	88768
2026-01-28 03:53:56.13	209.71	0.82	-49.4	-67.2	3.5	3.03e+01	0	32	104	0	60	88504
2026-01-28 03:53:57.14	209.78	0.87	-49.4	-67.3	3.5	3.03e+01	0	33	104	0	60	88753
2026-01-28 03:53:58.15	209.86	0.93	-49.3	-67.2	3.5	3.03e+01	0	33	104	0	60	87938
2026-01-28 03:53:59.16	209.94	0.98	-49.3	-67.2	3.5	3.03e+01	0	32	104	0	60	88259
2026-01-28 03:54:00.17	210.01	1.04	-49.3	-67.2	3.5	3.03e+01	0	33	104	0	60	87904
2026-01-28 03:54:01.18	210.09	1.10	-49.3	-67.1	3.5	3.03e+01	0	32	104	0	60	87418
2026-01-28 03:54:02.19	210.17	1.15	-49.2	-67.1	3.5	3.03e+01	0	33	104	0	60	87223
2026-01-28 03:54:03.20	210.24	1.21	-49.2	-67.0	3.5	3.03e+01	0	33	104	0	60	85985
2026-01-28 03:54:04.20	210.32	1.26	-49.0	-66.9	3.5	3.03e+01	0	33	104	0	60	84750
2026-01-28 03:54:05.21	210.40	1.32	-48.9	-66.7	3.5	3.03e+01	0	33	104	0	60	82816
2026-01-28 03:54:06.22	210.48	1.38	-48.6	-66.4	3.5	3.03e+01	0	33	104	0	60	80858
2026-01-28 03:54:07.23	210.56	1.43	-48.3	-65.8	3.5	3.03e+01	0	33	104	0	60	74873
2026-01-28 03:54:08.24	210.64	1.49	-48.1	-65.8	3.5	3.03e+01	0	33	104	0	60	74789
2026-01-28 03:54:09.25	210.72	1.54	-48.1	-65.6	3.5	3.03e+01	0	33	104	0	60	73043
2026-01-28 03:54:10.26	210.79	1.60	-48.1	-65.6	3.5	3.03e+01	0	33	104	0	60	73548
2026-01-28 03:54:11.27	210.88	1.66	-48.1	-65.7	3.5	3.03e+01	0	33	104	0	60	74173
2026-01-28 03:54:12.28	210.96	1.71	-48.1	-65.8	3.5	3.03e+01	0	33	104	0	60	75439
2026-01-28 03:54:13.29	211.04	1.77	-48.1	-65.9	3.5	3.03e+01	0	33	104	0	60	75489
2026-01-28 03:54:14.30	211.12	1.83	-48.1	-65.8	3.5	3.03e+01	0	33	104	0	60	75380
2026-01-28 03:54:15.31	211.20	1.89	-48.1	-65.8	3.5	3.03e+01	0	33	104	0	60	74818
2026-01-28 03:54:16.33	211.28	1.94	-48.1	-65.9	3.5	3.03e+01	0	33	104	0	60	75488
2026-01-28 03:54:17.33	211.36	2.00	-48.1	-65.9	3.5	3.03e+01	0	33	104	0	60	75876
2026-01-28 03:54:18.34	211.44	2.06	-48.1	-65.9	3.5	3.03e+01	0	33	104	0	60	75724
2026-01-28 03:54:19.35	211.53	2.11	-48.1	-65.8	3.5	3.03e+01	0	33	104	0	60	75124
2026-01-28 03:54:20.36	211.61	2.17	-48.1	-65.6	3.5	3.03e+01	0	33	104	0	60	73591
2026-01-28 03:54:21.37	211.69	2.23	-48.1	-65.7	3.5	3.03e+01	0	33	104	0	60	73908
2026-01-28 03:54:22.38	211.78	2.29	-48.1	-65.7	3.5	3.03e+01	0	33	104	0	60	74594
2026-01-28 03:54:23.39	211.86	2.34	-48.1	-65.7	3.5	3.03e+01	0	33	104	0	60	74495
2026-01-28 03:54:24.40	211.95	2.40	-48.1	-65.1	3.5	3.03e+01	0	33	104	0	60	69461
2026-01-28 03:54:25.41	212.03	2.46	-48.1	-65.2	3.5	3.03e+01	0	33	104	0	60	69886
2026-01-28 03:54:26.42	212.12	2.52	-48.1	-65.3	3.5	3.03e+01	0	33	104	0	60	70894
2026-01-28 03:54:27.43	212.20	2.57	-48.1	-65.2	3.5	3.03e+01	0	33	104	0	60	69973
2026-01-28 03:54:28.44	212.29	2.63	-48.0	-64.3	3.5	3.03e+01	0	33	104	0	60	63289
2026-01-28 03:54:29.45	212.37	2.69	-48.0	-63.4	3.6	3.03e+01	0	33	104	0	60	56600
2026-01-28 03:54:30.46	212.46	2.75	-48.0	-62.3	4.1	3.03e+01	0	33	104	0	60	50340
2026-01-28 03:54:31.48	212.55	2.81	-48.0	-62.4	4.0	3.03e+01	0	33	104	0	60	50469
2026-01-28 03:54:32.49	212.63	2.87	-47.9	-61.7	3.7	3.03e+01	0	33	104	0	60	46823
2026-01-28 03:54:33.49	212.72	2.92	-47.5	-56.8	8.7	3.03e+01	22	33	0	0	60	26615
2026-01-28 03:54:34.50	212.81	2.98	-46.2	-51.4	13.8	3.03e+01	0	33	0	2097152	60	14304
2026-01-28 03:54:35.51	212.90	3.04	-44.8	-48.3	17.1	3.03e+01	0	33	0	3670016	60	10000
2026-01-28 03:54:36.53	212.99	3.10	-43.9	-46.9	18.5	3.03e+01	0	33	0	5767168	60	8475
2026-01-28 03:54:37.53	213.07	3.16	-43.1	-45.7	19.7	3.03e+01	0	33	0	7864320	60	7386
2026-01-28 03:54:38.54	213.16	3.22	-42.7	-45.1	20.1	3.03e+01	0	33	0	9437184	60	6914
2026-01-28 03:54:39.55	213.25	3.28	-43.4	-46.1	19.1	3.03e+01	0	33	0	11534336	60	7797
2026-01-28 03:54:40.56	213.34	3.34	-43.2	-45.8	19.3	3.03e+01	0	33	0	13631488	60	7534
2026-01-28 03:54:41.57	213.43	3.39	-44.4	-47.6	17.9	3.03e+01	0	33	0	15204352	60	9259
2026-01-28 03:54:42.58	213.53	3.45	-45.2	-49.2	14.5	3.03e+01	0	33	0	17301504	60	11121
2026-01-28 03:54:43.59	213.62	3.51	-47.7	-60.0	3.9	3.03e+01	0	33	104	17301504	60	38287
2026-01-28 03:54:44.60	213.71	3.57	-40.3	-42.4	22.2	3.03e+01	0	33	104	17301504	60	5066
2026-01-28 03:54:45.61	213.80	3.63	-39.2	-40.8	24.8	3.03e+01	0	33	0	18874368	52	6704
2026-01-28 03:54:46.62	213.89	3.69	-39.3	-40.9	24.6	3.03e+01	0	33	0	20447232	52	6788
2026-01-28 03:54:47.63	213.99	3.75	-39.2	-40.7	24.8	3.03e+01	0	33	0	22544384	52	6638
2026-01-28 03:54:48.64	214.08	3.81	-39.3	-40.9	24.7	3.03e+01	0	33	0	24641536	52	6738
2026-01-28 03:54:49.65	214.17	3.87	-38.7	-40.2	25.2	3.03e+01	0	33	0	26214400	52	6267
2026-01-28 03:54:50.66	214.27	3.93	-39.0	-40.5	25.0	3.03e+01	0	33	0	28311552	52	6485
2026-01-28 03:54:51.67	214.36	3.99	-39.4	-41.0	24.6	3.03e+01	0	33	0	29884416	52	6875
2026-01-28 03:54:52.68	214.46	4.05	-39.6	-41.2	24.4	3.03e+01	0	33	0	31981568	52	7023
2026-01-28 03:54:53.69	214.55	4.11	-39.1	-40.7	24.9	3.03e+01	0	33	0	34078720	52	6629
2026-01-28 03:54:54.70	214.65	4.17	-38.8	-40.3	25.4	3.03e+01	0	33	0	35651584	52	6336
2026-01-28 03:54:55.71	214.74	4.23	-38.7	-40.3	25.3	3.03e+01	0	33	0	37748736	52	6283
2026-01-28 03:54:56.72	214.84	4.29	-38.5	-40.0	25.5	3.03e+01	0	33	0	39845888	52	6069
2026-01-28 03:54:57.73	214.94	4.35	-38.5	-40.0	25.5	3.03e+01	0	33	0	41418752	52	6111
2026-01-28 03:54:58.74	215.03	4.41	-38.5	-40.0	25.5	3.03e+01	0	33	0	43515904	52	6100
2026-01-28 03:54:59.75	215.13	4.47	-38.6	-40.1	25.5	3.03e+01	0	33	0	45088768	52	6154
2026-01-28 03:55:00.76	215.23	4.54	-38.5	-40.0	25.5	3.03e+01	0	33	0	47185920	52	6126
2026-01-28 03:55:01.77	215.33	4.60	-38.4	-39.8	25.8	3.03e+01	0	33	0	49283072	52	5976
2026-01-28 03:55:02.78	215.43	4.66	-38.1	-39.6	26.0	3.03e+01	0	33	0	50855936	52	5792
2026-01-28 03:55:03.79	215.53	4.72	-38.1	-39.5	25.9	3.03e+01	0	33	0	52953088	52	5785
2026-01-28 03:55:04.79	215.63	4.78	-38.0	-39.5	26.2	3.03e+01	0	33	0	54525952	52	5731
2026-01-28 03:55:05.81	215.73	4.84	-38.2	-39.6	25.9	3.03e+01	0	33	0	56623104	52	5844
2026-01-28 03:55:06.82	215.83	4.90	-37.9	-39.3	26.4	3.03e+01	0	33	0	58720256	52	5639
2026-01-28 03:55:07.83	215.93	4.96	-37.8	-39.2	26.4	3.03e+01	0	33	0	60293120	50	6235
2026-01-28 03:55:08.83	216.03	5.02	-38.1	-39.6	26.1	3.03e+01	0	33	0	62390272	50	6511
2026-01-28 03:55:09.84	216.13	5.09	-37.9	-39.3	26.2	3.03e+01	0	33	0	63963136	50	6340
2026-01-28 03:55:10.85	216.24	5.15	-38.0	-39.5	26.2	3.03e+01	0	33	0	66060288	50	6435
2026-01-28 03:55:11.86	216.34	5.21	-37.9	-39.3	26.3	3.03e+01	0	33	0	68157440	50	6347
2026-01-28 03:55:12.87	216.44	5.27	-37.8	-39.2	26.4	3.03e+01	0	33	0	69730304	50	6236
2026-01-28 03:55:13.88	216.55	5.33	-37.9	-39.4	26.3	3.03e+01	0	33	0	71827456	50	6365
2026-01-28 03:55:14.89	216.65	5.40	-37.8	-39.3	26.4	3.03e+01	0	33	0	73400320	50	6307
2026-01-28 03:55:15.90	216.76	5.46	-37.7	-39.1	26.5	3.03e+01	0	33	0	75497472	50	6205
2026-01-28 03:55:16.91	216.86	5.52	-37.7	-39.1	26.5	3.03e+01	0	33	0	77594624	50	6187
2026-01-28 03:55:17.92	216.97	5.58	-37.8	-39.2	26.5	3.03e+01	0	33	0	79167488	50	6247
2026-01-28 03:55:18.93	217.07	5.65	-37.6	-39.0	26.6	3.03e+01	0	33	0	81264640	50	6112
2026-01-28 03:55:19.94	217.18	5.71	-37.5	-38.9	26.8	3.03e+01	0	33	0	82837504	50	6005
2026-01-28 03:55:20.95	217.29	5.77	-37.4	-38.8	26.8	3.03e+01	0	33	0	84934656	50	5975
2026-01-28 03:55:21.96	217.40	5.83	-37.7	-39.1	26.6	3.03e+01	0	33	0	87031808	50	6160
2026-01-28 03:55:22.96	217.50	5.90	-37.9	-39.3	26.2	3.03e+01	0	33	0	88604672	50	6304
2026-01-28 03:55:23.97	217.61	5.96	-37.7	-39.1	26.6	3.03e+01	0	33	0	90701824	50	6179
2026-01-28 03:55:24.98	217.72	6.02	-37.5	-38.9	26.8	3.03e+01	0	33	0	92798976	50	6017
2026-01-28 03:55:25.99	217.83	6.08	-37.7	-39.1	26.7	3.03e+01	0	33	0	94371840	50	6165
2026-01-28 03:55:27.00	217.94	6.15	-37.5	-38.9	26.8	3.03e+01	0	33	0	96468992	50	6009
2026-01-28 03:55:28.01	218.05	6.21	-37.6	-38.9	26.7	3.03e+01	0	33	0	98041856	50	6051
2026-01-28 03:55:29.02	218.16	6.27	-37.6	-38.9	26.7	3.03e+01	0	33	0	100139008	50	6061
2026-01-28 03:55:30.03	218.27	6.34	-37.6	-38.9	26.8	3.03e+01	0	33	0	102236160	50	6059
2026-01-28 03:55:31.04	218.39	6.40	-37.7	-39.1	26.6	3.03e+01	0	33	0	103809024	50	6174
2026-01-28 03:55:32.05	218.50	6.46	-37.9	-39.3	26.4	3.03e+01	0	33	0	105906176	50	6318
2026-01-28 03:55:33.06	218.61	6.53	-38.3	-39.7	26.1	3.03e+01	0	33	0	108003328	50	6641
2026-01-28 03:55:34.07	218.73	6.59	-37.7	-39.1	26.6	3.03e+01	0	33	0	109576192	50	6188
2026-01-28 03:55:35.08	218.84	6.66	-37.9	-39.2	26.5	3.03e+01	0	33	0	111673344	50	6276
2026-01-28 03:55:36.09	218.96	6.72	-37.5	-38.9	26.9	3.03e+01	0	33	0	113246208	50	5997
2026-01-28 03:55:37.10	219.07	6.78	-37.6	-38.9	26.8	3.03e+01	0	33	0	115343360	50	6050
2026-01-28 03:55:38.11	219.19	6.85	-37.4	-38.8	26.9	3.03e+01	0	33	0	117440512	50	5931
2026-01-28 03:55:39.12	219.30	6.91	-37.3	-38.6	27.1	3.03e+01	0	33	0	119013376	50	5846
2026-01-28 03:55:40.13	219.42	6.98	-37.4	-38.7	27.0	3.03e+01	0	33	0	121110528	50	5926
2026-01-28 03:55:41.14	219.54	7.04	-37.3	-38.6	27.1	3.03e+01	0	33	0	122683392	50	5821
2026-01-28 03:55:42.15	219.66	7.11	-37.3	-38.7	27.1	3.03e+01	0	33	0	124780544	50	5892
2026-01-28 03:55:43.16	219.78	7.17	-37.1	-38.5	27.3	3.03e+01	0	33	0	126877696	50	5733
2026-01-28 03:55:44.17	219.89	7.23	-37.2	-38.6	27.3	3.03e+01	0	33	0	128450560	50	5814
2026-01-28 03:55:45.18	220.01	7.30	-37.4	-38.7	27.1	3.03e+01	0	33	0	130547712	50	5916
2026-01-28 03:55:46.19	220.13	7.36	-37.3	-38.7	27.1	3.03e+01	0	33	0	132120576	50	5870
2026-01-28 03:55:47.20	220.26	7.43	-37.4	-38.7	27.1	3.03e+01	0	33	0	134217728	50	5896
2026-01-28 03:55:48.21	220.38	7.49	-37.3	-38.6	27.2	3.03e+01	0	33	0	136314880	50	5829
2026-01-28 03:55:49.22	220.50	7.56	-37.3	-38.6	27.2	3.03e+01	0	33	0	137887744	50	5827
2026-01-28 03:55:50.23	220.62	7.62	-37.5	-38.9	26.9	3.03e+01	0	33	0	139984896	50	6039
2026-01-28 03:55:51.24	220.75	7.69	-37.8	-39.2	26.6	3.03e+01	0	33	0	141557760	50	6235
2026-01-28 03:55:52.25	220.87	7.76	-37.4	-38.8	27.0	3.03e+01	0	33	0	143654912	50	5936
2026-01-28 03:55:53.26	220.99	7.82	-37.7	-39.1	26.9	3.03e+01	0	33	0	145752064	50	6145
2026-01-28 03:55:54.27	221.12	7.89	-37.5	-38.9	26.7	3.03e+01	0	33	0	147324928	50	6044
2026-01-28 03:55:55.28	221.24	7.95	-37.9	-39.3	26.5	3.03e+01	0	33	0	149422080	50	6338
2026-01-28 03:55:56.29	221.37	8.02	-38.0	-39.4	26.4	3.03e+01	0	33	0	150994944	50	6398
2026-01-28 03:55:57.30	221.50	8.08	-38.5	-39.9	25.9	3.03e+01	0	33	0	153092096	50	6801
2026-01-28 03:55:58.31	221.62	8.15	-37.6	-38.9	26.9	3.03e+01	0	34	0	155189248	50	6060
2026-01-28 03:55:59.32	221.75	8.21	-37.3	-38.6	27.2	3.03e+01	0	33	0	156762112	50	5824
2026-01-28 03:56:00.33	221.88	8.28	-37.2	-38.5	27.3	3.03e+01	0	33	0	158859264	50	5761
2026-01-28 03:56:01.34	222.01	8.35	-37.0	-38.3	24.9	3.03e+01	0	33	0	160956416	50	5616
2026-01-28 03:56:02.35	222.14	8.41	-37.0	-38.3	27.5	3.03e+01	0	33	0	162529280	48	6321
2026-01-28 03:56:03.36	222.27	8.48	-37.2	-38.6	27.2	3.03e+01	0	34	0	164626432	48	6510
2026-01-28 03:56:04.37	222.40	8.54	-37.3	-38.6	27.2	3.03e+01	0	33	0	166199296	48	6567
2026-01-28 03:56:05.38	222.53	8.61	-37.4	-38.7	27.1	3.03e+01	0	33	0	168296448	48	6619
2026-01-28 03:56:06.39	222.66	8.68	-37.5	-38.8	27.0	3.03e+01	0	33	0	170393600	48	6710
2026-01-28 03:56:07.40	222.80	8.74	-37.2	-38.5	27.3	3.03e+01	0	33	0	171966464	48	6484
2026-01-28 03:56:08.41	222.93	8.81	-37.2	-38.6	27.2	3.03e+01	0	34	0	174063616	48	6512
2026-01-28 03:56:09.42	223.06	8.88	-37.2	-38.6	27.2	3.03e+01	0	33	0	176160768	48	6513
2026-01-28 03:56:10.43	223.20	8.94	-37.1	-38.4	27.4	3.03e+01	0	33	0	177733632	48	6409
2026-01-28 03:56:11.44	223.34	9.01	-37.2	-38.6	27.2	3.03e+01	0	34	0	179830784	48	6518
2026-01-28 03:56:12.45	223.47	9.08	-37.2	-38.5	27.3	3.03e+01	0	33	0	181403648	48	6485
2026-01-28 03:56:13.46	223.61	9.14	-37.3	-38.6	27.2	3.03e+01	0	34	0	183500800	48	6569
2026-01-28 03:56:14.47	223.75	9.21	-37.3	-38.7	27.3	3.03e+01	0	33	0	185597952	48	6578
2026-01-28 03:56:15.48	223.88	9.28	-37.3	-38.6	27.3	3.03e+01	0	33	0	187170816	48	6541
2026-01-28 03:56:16.49	224.02	9.35	-37.2	-38.6	27.3	3.03e+01	0	33	0	189267968	48	6512
2026-01-28 03:56:17.51	224.16	9.41	-37.2	-38.5	27.3	3.03e+01	0	34	0	190840832	48	6468
2026-01-28 03:56:18.52	224.30	9.48	-37.3	-38.6	27.2	3.03e+01	0	33	0	192937984	48	6561
2026-01-28 03:56:19.52	224.44	9.55	-37.4	-38.7	27.2	3.03e+01	0	33	0	195035136	48	6648
2026-01-28 03:56:20.53	224.58	9.61	-37.3	-38.7	27.2	3.03e+01	0	33	0	196608000	48	6587
2026-01-28 03:56:21.54	224.73	9.68	-37.6	-39.0	26.9	3.03e+01	0	33	0	198705152	48	6825
2026-01-28 03:56:22.55	224.87	9.75	-37.5	-38.8	27.0	3.03e+01	0	33	0	200278016	48	6717
2026-01-28 03:56:23.56	225.01	9.82	-37.6	-39.0	27.0	3.03e+01	0	33	0	202375168	48	6820
2026-01-28 03:56:24.57	225.16	9.88	-37.4	-38.7	27.1	3.03e+01	0	33	0	204472320	48	6614
2026-01-28 03:56:25.58	225.30	9.95	-37.3	-38.7	27.2	3.03e+01	0	33	0	206045184	48	6588
2026-01-28 03:56:26.59	225.45	10.02	-37.5	-38.8	27.1	3.03e+01	0	33	0	208142336	48	6703
2026-01-28 03:56:27.60	225.59	10.09	-37.5	-38.8	27.1	3.03e+01	0	33	0	209715200	48	6685
2026-01-28 03:56:28.61	225.74	10.15	-37.4	-38.7	27.1	3.03e+01	0	33	0	211812352	48	6636
2026-01-28 03:56:29.62	225.89	10.22	-37.4	-38.8	27.1	3.03e+01	0	33	0	213909504	48	6655
2026-01-28 03:56:30.63	226.04	10.29	-37.4	-38.8	27.2	3.03e+01	0	33	0	215482368	48	6663
2026-01-28 03:56:31.64	226.19	10.36	-37.3	-38.6	27.3	3.03e+01	0	33	0	217579520	48	6525
2026-01-28 03:56:32.65	226.34	10.43	-37.4	-38.7	27.2	3.03e+01	0	33	0	219152384	48	6638
2026-01-28 03:56:33.66	226.49	10.49	-37.4	-38.8	27.1	3.03e+01	0	33	0	221249536	48	6695
2026-01-28 03:56:34.67	226.64	10.56	-37.4	-38.8	27.2	3.03e+01	0	33	0	223346688	48	6652
2026-01-28 03:56:35.68	226.79	10.63	-37.4	-38.7	27.2	3.03e+01	0	33	0	224919552	48	6647
2026-01-28 03:56:36.69	226.94	10.70	-37.3	-38.6	27.3	3.03e+01	0	33	0	227016704	48	6546
2026-01-28 03:56:37.69	227.09	10.77	-37.2	-38.5	27.4	3.03e+01	0	33	0	229113856	48	6497
2026-01-28 03:56:38.70	227.25	10.83	-37.3	-38.6	27.3	3.03e+01	0	33	0	230686720	48	6571
2026-01-28 03:56:39.71	227.40	10.90	-37.3	-38.7	27.3	3.03e+01	0	33	0	232783872	48	6585
2026-01-28 03:56:40.72	227.56	10.97	-37.4	-38.8	27.2	3.03e+01	0	33	0	234356736	48	6680
2026-01-28 03:56:41.74	227.72	11.04	-37.6	-38.9	27.0	3.03e+01	0	33	0	236453888	48	6781
2026-01-28 03:56:42.75	227.87	11.11	-37.4	-38.8	27.2	3.03e+01	0	33	0	238551040	48	6667
2026-01-28 03:56:43.76	228.03	11.18	-37.4	-38.8	27.2	3.03e+01	0	33	0	240123904	48	6689
2026-01-28 03:56:44.76	228.19	11.24	-37.2	-38.6	27.3	3.03e+01	0	33	0	242221056	48	6512
2026-01-28 03:56:45.77	228.35	11.31	-37.4	-38.7	27.2	3.03e+01	0	33	0	244318208	48	6632
2026-01-28 03:56:46.78	228.51	11.38	-37.2	-38.5	27.4	3.03e+01	0	33	0	245891072	48	6472
2026-01-28 03:56:47.79	228.67	11.45	-37.3	-38.7	27.2	3.03e+01	0	34	0	247988224	48	6597
2026-01-28 03:56:48.80	228.83	11.52	-37.2	-38.5	27.4	3.03e+01	0	34	0	249561088	48	6458
2026-01-28 03:56:49.81	229.00	11.59	-37.2	-38.6	27.4	3.03e+01	0	33	0	251658240	48	6518
2026-01-28 03:56:50.82	229.16	11.66	-37.1	-38.5	27.5	3.03e+01	0	33	0	253755392	48	6454
2026-01-28 03:56:51.83	229.32	11.72	-37.1	-38.5	27.4	3.03e+01	0	34	0	255328256	48	6456
2026-01-28 03:56:52.84	229.49	11.79	-37.2	-38.6	27.4	3.03e+01	0	33	0	257425408	48	6502
2026-01-28 03:56:53.85	229.66	11.86	-37.4	-38.7	27.2	3.03e+01	0	33	0	258998272	48	6636
2026-01-28 03:56:54.86	229.82	11.93	-37.5	-38.8	27.2	3.03e+01	0	33	0	261095424	48	6713
2026-01-28 03:56:55.87	229.99	12.00	-37.3	-38.7	27.3	3.03e+01	0	33	0	263192576	48	6581
2026-01-28 03:56:56.88	230.16	12.07	-37.4	-38.8	27.2	3.03e+01	0	33	0	264765440	48	6662
2026-01-28 03:56:57.89	230.33	12.14	-37.4	-38.7	27.3	3.03e+01	0	33	0	266862592	48	6600
2026-01-28 03:56:58.90	230.50	12.20	-37.0	-38.3	27.7	3.03e+01	0	33	0	268959744	48	6312
2026-01-28 03:56:59.91	230.67	12.27	-37.1	-38.4	27.6	3.03e+01	0	33	0	270532608	48	6379
2026-01-28 03:57:00.92	230.84	12.34	-37.1	-38.4	27.5	3.03e+01	0	33	0	272629760	48	6404
2026-01-28 03:57:01.93	231.01	12.41	-37.1	-38.4	27.5	3.03e+01	0	34	0	274202624	48	6423
2026-01-28 03:57:02.94	231.19	12.48	-37.1	-38.4	27.6	3.03e+01	0	33	0	276299776	48	6374
2026-01-28 03:57:03.95	231.36	12.55	-37.0	-38.3	27.7	3.03e+01	0	33	0	278396928	48	6307
2026-01-28 03:57:04.96	231.54	12.62	-36.9	-38.3	27.7	3.03e+01	0	33	0	279969792	48	6296
2026-01-28 03:57:05.97	231.71	12.68	-37.0	-38.3	27.7	3.03e+01	0	33	0	282066944	48	6287
2026-01-28 03:57:06.98	231.89	12.75	-36.9	-38.2	27.7	3.03e+01	0	34	0	283639808	48	6275
2026-01-28 03:57:07.99	232.07	12.82	-36.9	-38.2	27.7	3.03e+01	0	33	0	285736960	48	6277
2026-01-28 03:57:09.00	232.24	12.89	-36.9	-38.2	27.7	3.03e+01	0	33	0	287309824	48	6221
2026-01-28 03:57:10.01	232.42	12.96	-36.9	-38.2	27.8	3.03e+01	0	33	0	289406976	48	6226
2026-01-28 03:57:11.02	232.60	13.03	-36.8	-38.1	27.8	3.03e+01	0	34	0	291504128	48	6185
2026-01-28 03:57:12.03	232.78	13.09	-36.9	-38.2	27.7	3.03e+01	0	33	0	293076992	48	6234
2026-01-28 03:57:13.04	232.97	13.16	-36.8	-38.1	27.8	3.03e+01	0	33	0	295174144	48	6155
2026-01-28 03:57:14.05	233.15	13.23	-36.9	-38.2	27.8	3.03e+01	0	34	0	297271296	48	6214
2026-01-28 03:57:15.06	233.33	13.30	-36.8	-38.1	27.8	3.03e+01	0	34	0	298844160	48	6195
2026-01-28 03:57:16.07	233.52	13.37	-36.8	-38.1	27.9	3.03e+01	0	33	0	300941312	48	6146
2026-01-28 03:57:17.08	233.70	13.44	-36.9	-38.2	27.8	3.03e+01	0	34	0	302514176	48	6232
2026-01-28 03:57:18.09	233.89	13.50	-36.9	-38.2	27.8	3.03e+01	0	34	0	304611328	48	6239
2026-01-28 03:57:19.10	234.08	13.57	-36.8	-38.1	27.8	3.03e+01	0	34	0	306708480	48	6192
2026-01-28 03:57:20.11	234.27	13.64	-36.6	-37.9	28.1	3.03e+01	0	34	0	308281344	48	6007
2026-01-28 03:57:21.12	234.45	13.71	-36.5	-37.7	28.2	3.03e+01	0	34	0	310378496	48	5922
2026-01-28 03:57:22.13	234.64	13.78	-36.4	-37.7	28.2	3.03e+01	0	34	0	312475648	48	5887
2026-01-28 03:57:23.14	234.84	13.84	-36.4	-37.7	28.2	3.03e+01	0	33	0	314048512	48	5890
2026-01-28 03:57:24.15	235.03	13.91	-36.4	-37.6	28.3	3.03e+01	0	34	0	316145664	48	5844
2026-01-28 03:57:25.16	235.22	13.98	-36.4	-37.7	28.2	3.03e+01	0	33	0	317718528	48	5905
2026-01-28 03:57:26.17	235.41	14.05	-36.4	-37.7	28.2	3.03e+01	0	33	0	319815680	48	5890
2026-01-28 03:57:27.17	235.61	14.11	-36.3	-37.6	28.4	3.03e+01	0	34	0	321912832	48	5829
2026-01-28 03:57:28.18	235.80	14.18	-36.3	-37.5	28.4	3.03e+01	0	34	0	323485696	48	5768
2026-01-28 03:57:29.19	236.00	14.25	-36.2	-37.4	28.5	3.03e+01	0	34	0	325582848	48	5724
2026-01-28 03:57:30.20	236.20	14.32	-36.2	-37.5	28.5	3.03e+01	0	34	0	327155712	48	5746
2026-01-28 03:57:31.21	236.39	14.38	-36.1	-37.4	28.5	3.03e+01	0	33	0	329252864	48	5692
2026-01-28 03:57:32.22	236.59	14.45	-36.0	-37.2	28.7	3.03e+01	0	33	0	331350016	48	5579
2026-01-28 03:57:33.23	236.79	14.52	-36.1	-37.4	28.5	3.03e+01	0	33	0	332922880	48	5671
2026-01-28 03:57:34.24	236.99	14.58	-36.0	-37.3	28.6	3.03e+01	0	34	0	335020032	48	5603
2026-01-28 03:57:35.25	237.20	14.65	-36.0	-37.2	28.7	3.03e+01	0	33	0	336592896	48	5570
2026-01-28 03:57:36.26	237.40	14.72	-35.9	-37.1	28.7	3.03e+01	0	33	0	338690048	46	6205
2026-01-28 03:57:37.27	237.60	14.78	-36.0	-37.2	28.7	3.03e+01	0	33	0	340787200	46	6250
2026-01-28 03:57:38.28	237.81	14.85	-35.9	-37.2	28.8	3.03e+01	0	33	0	342360064	46	6209
2026-01-28 03:57:39.29	238.01	14.92	-35.8	-37.0	28.9	3.03e+01	0	33	0	344457216	46	6125
2026-01-28 03:57:40.30	238.22	14.98	-35.7	-37.0	28.9	3.03e+01	0	34	0	346554368	46	6080
2026-01-28 03:57:41.31	238.43	15.05	-35.7	-36.9	29.0	3.03e+01	0	34	0	348127232	46	6052
2026-01-28 03:57:42.33	238.64	15.11	-35.6	-36.9	29.0	3.03e+01	0	34	0	350224384	46	6009
2026-01-28 03:57:43.34	238.85	15.18	-35.6	-36.9	29.0	3.03e+01	0	34	0	351797248	46	6012
2026-01-28 03:57:44.34	239.06	15.25	-35.7	-36.9	29.0	3.03e+01	0	33	0	353894400	46	6036
2026-01-28 03:57:45.35	239.27	15.31	-35.7	-36.9	29.0	3.03e+01	0	33	0	355991552	46	6012
2026-01-28 03:57:46.36	239.48	15.38	-35.8	-37.0	29.0	3.03e+01	0	33	0	357564416	46	6098
2026-01-28 03:57:47.37	239.69	15.44	-35.4	-36.6	29.2	3.03e+01	0	33	0	359661568	46	5851
2026-01-28 03:57:48.38	239.91	15.51	-35.5	-36.7	29.1	3.03e+01	0	34	0	361234432	46	5900
2026-01-28 03:57:49.39	240.12	15.57	-35.5	-36.7	29.2	3.03e+01	0	34	0	363331584	46	5888
2026-01-28 03:57:50.40	240.34	15.64	-35.4	-36.6	29.2	3.03e+01	0	33	0	365428736	46	5846
2026-01-28 03:57:51.41	240.56	15.70	-35.4	-36.6	29.3	3.03e+01	0	33	0	367001600	46	5836
2026-01-28 03:57:52.42	240.78	15.76	-35.5	-36.7	29.2	3.03e+01	0	34	0	369098752	46	5878
2026-01-28 03:57:53.43	241.00	15.83	-35.5	-36.8	29.2	3.03e+01	0	33	0	370671616	46	5929
2026-01-28 03:57:54.44	241.22	15.89	-35.3	-36.6	29.3	3.03e+01	0	34	0	372768768	46	5794
2026-01-28 03:57:55.45	241.44	15.96	-35.4	-36.7	29.2	3.03e+01	0	34	0	374865920	46	5860
2026-01-28 03:57:56.46	241.66	16.02	-35.3	-36.5	29.4	3.03e+01	0	34	0	376438784	46	5742
2026-01-28 03:57:57.47	241.88	16.08	-35.3	-36.5	29.4	3.03e+01	0	33	0	378535936	46	5751
2026-01-28 03:57:58.48	242.11	16.15	-35.4	-36.6	29.3	3.03e+01	0	34	0	380633088	46	5829
2026-01-28 03:57:59.49	242.33	16.21	-35.2	-36.4	29.5	3.03e+01	0	34	0	382205952	46	5702
2026-01-28 03:58:00.49	242.55	16.27	-35.4	-36.6	29.4	3.03e+01	0	33	0	384303104	46	5820
2026-01-28 03:58:01.50	242.78	16.33	-35.3	-36.5	29.4	3.03e+01	0	33	0	385875968	46	5749
2026-01-28 03:58:02.51	243.01	16.39	-35.2	-36.4	29.5	3.03e+01	0	33	0	387973120	46	5676
2026-01-28 03:58:03.52	243.24	16.46	-35.2	-36.4	29.5	3.03e+01	0	34	0	390070272	46	5690
2026-01-28 03:58:04.53	243.47	16.52	-35.3	-36.5	29.4	3.03e+01	0	33	0	391643136	46	5781
2026-01-28 03:58:05.54	243.70	16.58	-35.3	-36.5	29.5	3.03e+01	0	33	0	393740288	46	5743
2026-01-28 03:58:06.55	243.93	16.64	-35.2	-36.4	29.5	3.03e+01	0	34	0	395313152	46	5707
2026-01-28 03:58:07.56	244.16	16.70	-35.2	-36.4	29.5	3.03e+01	0	34	0	397410304	46	5720
2026-01-28 03:58:08.57	244.40	16.76	-35.3	-36.5	29.5	3.03e+01	0	33	0	399507456	46	5738
2026-01-28 03:58:09.58	244.63	16.82	-35.4	-36.6	29.4	3.03e+01	0	34	0	401080320	46	5845
2026-01-28 03:58:10.59	244.87	16.88	-35.4	-36.6	29.3	3.03e+01	0	34	0	403177472	46	5823
2026-01-28 03:58:11.60	245.11	16.94	-35.4	-36.6	29.3	3.03e+01	0	34	0	404750336	46	5800
2026-01-28 03:58:12.61	245.34	17.00	-35.2	-36.4	29.5	3.03e+01	0	33	0	406847488	46	5660
2026-01-28 03:58:13.62	245.58	17.06	-35.3	-36.4	29.5	3.03e+01	0	34	0	408944640	46	5717
2026-01-28 03:58:14.63	245.82	17.12	-35.2	-36.4	29.5	3.03e+01	0	34	0	410517504	46	5701
2026-01-28 03:58:15.64	246.06	17.18	-35.4	-36.6	29.3	3.03e+01	0	33	0	412614656	46	5820
2026-01-28 03:58:16.65	246.30	17.24	-35.2	-36.4	29.5	3.03e+01	0	33	0	414187520	46	5708
2026-01-28 03:58:17.66	246.55	17.29	-35.4	-36.6	29.4	3.03e+01	0	34	0	416284672	46	5804
2026-01-28 03:58:18.66	246.79	17.35	-35.3	-36.5	29.4	3.03e+01	0	34	0	418381824	46	5776
2026-01-28 03:58:19.67	247.03	17.41	-35.5	-36.7	29.2	3.03e+01	0	34	0	419954688	46	5880
2026-01-28 03:58:20.68	247.28	17.47	-35.2	-36.4	29.4	3.03e+01	0	33	0	422051840	46	5723
2026-01-28 03:58:21.69	247.52	17.52	-35.3	-36.5	29.4	3.03e+01	0	34	0	423624704	46	5739
2026-01-28 03:58:22.70	247.77	17.58	-35.3	-36.5	29.5	3.03e+01	0	34	0	425721856	46	5754
2026-01-28 03:58:23.71	248.02	17.63	-35.4	-36.6	29.4	3.03e+01	0	34	0	427819008	46	5804
2026-01-28 03:58:24.72	248.27	17.69	-35.2	-36.4	29.5	3.03e+01	0	34	0	429391872	46	5687
2026-01-28 03:58:25.73	248.52	17.75	-35.3	-36.5	29.5	3.03e+01	0	34	0	431489024	46	5728
2026-01-28 03:58:26.74	248.77	17.80	-35.2	-36.4	29.5	3.03e+01	0	34	0	433586176	46	5705
2026-01-28 03:58:27.75	249.02	17.85	-35.3	-36.5	29.5	3.03e+01	0	34	0	435159040	46	5763
2026-01-28 03:58:28.76	249.27	17.91	-35.4	-36.6	29.3	3.03e+01	0	34	0	437256192	46	5812
2026-01-28 03:58:29.77	249.53	17.96	-35.3	-36.5	29.5	3.03e+01	0	34	0	438829056	46	5758
2026-01-28 03:58:30.78	249.78	18.02	-35.3	-36.5	29.4	3.03e+01	0	34	0	440926208	46	5745
2026-01-28 03:58:31.79	250.04	18.07	-35.3	-36.5	29.5	3.03e+01	0	33	0	443023360	46	5788
2026-01-28 03:58:32.80	250.30	18.12	-35.3	-36.5	29.4	3.03e+01	0	34	0	444596224	46	5780
2026-01-28 03:58:33.81	250.55	18.17	-35.3	-36.5	29.4	3.03e+01	0	34	0	446693376	46	5747
2026-01-28 03:58:34.82	250.81	18.22	-35.3	-36.5	29.5	3.03e+01	0	34	0	448790528	46	5743
2026-01-28 03:58:35.83	251.07	18.28	-35.2	-36.4	29.5	3.03e+01	0	34	0	450363392	46	5709
2026-01-28 03:58:36.84	251.33	18.33	-35.2	-36.4	29.5	3.03e+01	0	34	0	452460544	46	5703
2026-01-28 03:58:37.85	251.59	18.38	-35.5	-36.6	29.3	3.03e+01	0	34	0	454033408	46	5856
2026-01-28 03:58:38.86	251.86	18.43	-35.3	-36.5	29.4	3.03e+01	0	34	0	456130560	46	5737
2026-01-28 03:58:39.87	252.12	18.48	-35.2	-36.4	29.5	3.03e+01	0	34	0	458227712	46	5703
2026-01-28 03:58:40.87	252.38	18.52	-35.3	-36.5	29.4	3.03e+01	0	34	0	459800576	46	5789
2026-01-28 03:58:41.88	252.64	18.57	-35.5	-36.7	29.3	3.03e+01	0	34	0	461897728	46	5883
2026-01-28 03:58:42.89	252.91	18.62	-35.6	-36.8	29.2	3.03e+01	0	34	0	463470592	46	5949
2026-01-28 03:58:43.91	253.18	18.67	-35.4	-36.6	29.3	3.03e+01	0	34	0	465567744	46	5858
2026-01-28 03:58:44.91	253.44	18.72	-35.3	-36.5	29.4	3.03e+01	0	34	0	467664896	46	5785
2026-01-28 03:58:45.92	253.71	18.76	-35.3	-36.6	29.5	3.03e+01	0	34	0	469237760	46	5792
2026-01-28 03:58:46.93	253.98	18.81	-35.2	-36.4	29.6	3.03e+01	0	34	0	471334912	46	5668
2026-01-28 03:58:47.94	254.25	18.85	-35.3	-36.5	29.5	3.03e+01	0	34	0	472907776	46	5746
2026-01-28 03:58:48.95	254.52	18.90	-35.3	-36.6	29.5	3.03e+01	0	34	0	475004928	46	5793
2026-01-28 03:58:49.96	254.79	18.94	-35.4	-36.6	29.4	3.03e+01	0	34	0	477102080	46	5822
2026-01-28 03:58:50.97	255.06	18.99	-35.4	-36.6	29.5	3.03e+01	0	34	0	478674944	46	5796
2026-01-28 03:58:51.98	255.34	19.03	-35.3	-36.5	29.5	3.03e+01	0	34	0	480772096	46	5730
2026-01-28 03:58:52.99	255.61	19.07	-35.5	-36.7	29.3	3.03e+01	0	34	0	482344960	46	5891
2026-01-28 03:58:54.00	255.89	19.12	-35.4	-36.6	29.3	3.03e+01	0	34	0	484442112	46	5847
2026-01-28 03:58:55.01	256.16	19.16	-35.2	-36.4	29.6	3.03e+01	0	34	0	486539264	46	5697
2026-01-28 03:58:56.02	256.44	19.20	-35.2	-36.5	29.5	3.03e+01	0	34	0	488112128	46	5735
2026-01-28 03:58:57.03	256.71	19.24	-35.5	-36.7	29.3	3.03e+01	0	34	0	490209280	46	5885
2026-01-28 03:58:58.04	256.99	19.28	-35.3	-36.5	29.4	3.03e+01	0	34	0	491782144	46	5766
2026-01-28 03:58:59.05	257.27	19.32	-35.5	-36.7	29.3	3.03e+01	0	34	0	493879296	46	5920
2026-01-28 03:59:00.05	257.55	19.36	-35.4	-36.6	29.3	3.03e+01	0	34	0	495976448	46	5842
2026-01-28 03:59:01.05	257.82	19.40	-35.3	-36.5	29.4	3.03e+01	0	33	0	497549312	46	5770
2026-01-28 03:59:02.06	258.10	19.44	-35.6	-36.8	29.3	3.03e+01	0	34	0	499646464	46	5949
2026-01-28 03:59:03.07	258.39	19.47	-35.3	-36.5	29.5	3.03e+01	0	34	0	501743616	46	5737
2026-01-28 03:59:04.08	258.67	19.51	-35.4	-36.6	29.4	3.03e+01	0	34	0	503316480	46	5809
2026-01-28 03:59:05.09	258.95	19.55	-35.4	-36.6	29.4	3.03e+01	0	34	0	505413632	46	5825
2026-01-28 03:59:06.10	259.23	19.58	-35.5	-36.7	29.3	3.03e+01	0	34	0	506986496	46	5884
2026-01-28 03:59:07.11	259.52	19.62	-35.4	-36.6	29.3	3.03e+01	0	34	0	509083648	46	5832
2026-01-28 03:59:08.12	259.80	19.65	-35.6	-36.8	29.2	3.03e+01	0	34	0	511180800	46	5986
2026-01-28 03:59:09.13	260.09	19.68	-35.4	-36.6	29.4	3.03e+01	0	34	0	512753664	46	5808
2026-01-28 03:59:10.14	260.37	19.72	-35.6	-36.8	29.2	3.03e+01	0	34	0	514850816	46	5946
2026-01-28 03:59:11.15	260.66	19.75	-35.4	-36.6	29.4	3.03e+01	0	34	0	516423680	46	5853
2026-01-28 03:59:12.16	260.95	19.78	-35.3	-36.5	29.4	3.03e+01	0	34	0	518520832	46	5771
2026-01-28 03:59:13.17	261.24	19.81	-35.4	-36.6	29.4	3.03e+01	0	34	0	520617984	46	5798
2026-01-28 03:59:14.18	261.52	19.84	-35.5	-36.7	29.3	3.03e+01	0	34	0	522190848	46	5863
2026-01-28 03:59:15.19	261.81	19.87	-35.3	-36.5	29.4	3.03e+01	0	34	0	524288000	46	5772
2026-01-28 03:59:16.20	262.10	19.90	-35.3	-36.5	29.4	3.03e+01	0	34	0	525860864	46	5778
2026-01-28 03:59:17.21	262.39	19.93	-35.4	-36.6	29.4	3.03e+01	0	34	0	527958016	46	5822
2026-01-28 03:59:18.22	262.68	19.96	-35.5	-36.7	29.3	3.03e+01	0	34	0	530055168	46	5912
2026-01-28 03:59:19.23	262.98	19.99	-35.5	-36.7	29.3	3.03e+01	0	34	0	531628032	46	5903
2026-01-28 03:59:20.24	263.27	20.01	-35.5	-36.7	29.4	3.03e+01	0	34	0	533725184	46	5868
2026-01-28 03:59:21.25	263.56	20.04	-35.5	-36.7	29.4	3.03e+01	0	34	0	535298048	46	5859
2026-01-28 03:59:22.26	263.85	20.06	-35.3	-36.5	29.4	3.03e+01	0	34	0	537395200	46	5771
2026-01-28 03:59:23.27	264.15	20.09	-35.4	-36.6	29.4	3.03e+01	0	34	0	539492352	46	5834
2026-01-28 03:59:24.28	264.44	20.11	-35.5	-36.7	29.3	3.03e+01	0	34	0	541065216	46	5906
2026-01-28 03:59:25.29	264.73	20.14	-35.6	-36.8	29.4	3.03e+01	0	34	0	543162368	46	5949
2026-01-28 03:59:26.30	265.03	20.16	-35.5	-36.7	29.1	3.03e+01	0	34	0	545259520	46	5913
2026-01-28 03:59:27.31	265.32	20.18	-35.4	-36.6	29.3	3.03e+01	0	34	0	546832384	46	5847
2026-01-28 03:59:28.31	265.62	20.20	-35.5	-36.7	29.3	3.03e+01	0	34	0	548929536	46	5914
2026-01-28 03:59:29.33	265.91	20.22	-35.4	-36.6	29.3	3.03e+01	0	34	0	550502400	46	5802
2026-01-28 03:59:30.33	266.21	20.24	-35.5	-36.7	29.1	3.03e+01	0	34	0	552599552	46	5917
2026-01-28 03:59:31.34	266.50	20.26	-35.7	-36.9	28.9	3.03e+01	0	34	0	554696704	46	6034
2026-01-28 03:59:32.35	266.80	20.28	-35.4	-36.6	29.2	3.03e+01	0	34	0	556269568	46	5842
2026-01-28 03:59:33.37	267.10	20.30	-35.4	-36.6	29.3	3.03e+01	0	34	0	558366720	46	5841
2026-01-28 03:59:34.38	267.40	20.31	-35.4	-36.7	29.3	3.03e+01	0	34	0	559939584	46	5863
2026-01-28 03:59:35.39	267.70	20.33	-35.5	-36.7	29.3	3.03e+01	0	34	0	562036736	46	5900
2026-01-28 03:59:36.40	268.00	20.34	-35.3	-36.5	29.5	3.03e+01	0	34	0	564133888	46	5779
2026-01-28 03:59:37.41	268.29	20.36	-35.4	-36.6	29.4	3.03e+01	0	34	0	565706752	46	5811
2026-01-28 03:59:38.42	268.59	20.37	-35.5	-36.7	29.3	3.03e+01	0	34	0	567803904	46	5889
2026-01-28 03:59:39.43	268.89	20.38	-35.4	-36.6	29.3	3.03e+01	0	34	0	569901056	46	5794
2026-01-28 03:59:40.44	269.19	20.40	-35.5	-36.7	29.2	3.03e+01	0	34	0	571473920	46	5889
2026-01-28 03:59:41.45	269.49	20.41	-35.4	-36.6	29.4	3.03e+01	0	34	0	573571072	46	5800
2026-01-28 03:59:42.46	269.79	20.42	-35.3	-36.5	29.4	3.03e+01	0	34	0	575143936	46	5761
2026-01-28 03:59:43.47	270.09	20.43	-35.4	-36.6	29.4	3.03e+01	0	34	0	577241088	46	5840
2026-01-28 03:59:44.48	270.39	20.44	-35.4	-36.6	29.3	3.03e+01	0	34	0	579338240	46	5831
2026-01-28 03:59:45.49	270.69	20.45	-35.3	-36.5	29.4	3.03e+01	0	34	0	580911104	46	5782
2026-01-28 03:59:46.50	270.99	20.46	-35.3	-36.4	29.4	3.03e+01	0	34	0	583008256	46	5720
2026-01-28 03:59:47.51	271.29	20.46	-35.3	-36.5	29.5	3.03e+01	0	34	0	585105408	46	5743
2026-01-28 03:59:48.52	271.59	20.47	-35.5	-36.7	29.4	3.03e+01	0	34	0	586678272	46	5867
2026-01-28 03:59:49.53	271.89	20.47	-35.4	-36.6	29.5	3.03e+01	0	34	0	588775424	46	5796
2026-01-28 03:59:50.54	272.20	20.48	-35.3	-36.5	29.4	3.03e+01	0	34	0	590348288	46	5763
2026-01-28 03:59:51.55	272.50	20.48	-35.4	-36.6	29.5	3.03e+01	0	34	0	592445440	46	5824
2026-01-28 03:59:52.56	272.80	20.49	-35.4	-36.7	29.3	3.03e+01	0	34	0	594542592	46	5860
2026-01-28 03:59:53.57	273.10	20.49	-35.3	-36.5	29.4	3.03e+01	0	34	0	596115456	46	5787
2026-01-28 03:59:54.58	273.40	20.49	-35.5	-36.7	29.3	3.03e+01	0	34	0	598212608	46	5893
2026-01-28 03:59:55.59	273.70	20.49	-35.4	-36.6	29.4	3.03e+01	0	34	0	599785472	46	5800
2026-01-28 03:59:56.60	274.00	20.49	-35.4	-36.6	29.4	3.03e+01	0	34	0	601882624	46	5794
2026-01-28 03:59:57.61	274.30	20.49	-35.4	-36.6	29.4	3.03e+01	0	34	0	603979776	46	5851
2026-01-28 03:59:58.62	274.60	20.49	-35.4	-36.6	29.4	3.03e+01	0	34	0	605552640	46	5831
2026-01-28 03:59:59.63	274.91	20.49	-35.3	-36.5	29.5	3.03e+01	0	34	0	607649792	46	5745
2026-01-28 04:00:00.64	275.21	20.49	-35.3	-36.5	29.5	3.03e+01	0	34	0	609222656	46	5779
2026-01-28 04:00:01.65	275.51	20.48	-35.3	-36.5	29.5	3.03e+01	0	34	0	611319808	46	5751
2026-01-28 04:00:02.66	275.81	20.48	-35.4	-36.6	29.3	3.03e+01	0	34	0	613416960	46	5858
2026-01-28 04:00:03.67	276.11	20.47	-35.4	-36.6	29.4	3.03e+01	0	34	0	614989824	46	5836
2026-01-28 04:00:04.68	276.41	20.47	-35.4	-36.6	29.4	3.03e+01	0	34	0	617086976	46	5826
2026-01-28 04:00:05.69	276.71	20.46	-35.3	-36.5	29.5	3.03e+01	0	34	0	618659840	46	5740
2026-01-28 04:00:06.70	277.01	20.45	-35.3	-36.5	29.5	3.03e+01	0	34	0	620756992	46	5731
2026-01-28 04:00:07.71	277.31	20.45	-35.3	-36.5	29.5	3.03e+01	0	34	0	622854144	46	5729
2026-01-28 04:00:08.72	277.61	20.44	-35.4	-36.6	29.4	3.03e+01	0	34	0	624427008	46	5832
2026-01-28 04:00:09.73	277.91	20.43	-35.2	-36.4	29.6	3.03e+01	0	34	0	626524160	46	5697
2026-01-28 04:00:10.74	278.21	20.42	-35.4	-36.6	29.5	3.03e+01	0	34	0	628097024	46	5799
2026-01-28 04:00:11.75	278.51	20.41	-35.3	-36.5	29.5	3.03e+01	0	34	0	630194176	46	5775
2026-01-28 04:00:12.76	278.81	20.39	-35.3	-36.5	29.4	3.03e+01	0	34	0	632291328	46	5766
2026-01-28 04:00:13.78	279.11	20.38	-35.1	-36.3	29.6	3.03e+01	0	34	0	633864192	46	5624
2026-01-28 04:00:14.78	279.41	20.37	-35.3	-36.5	29.5	3.03e+01	0	34	0	635961344	46	5739
2026-01-28 04:00:15.80	279.71	20.35	-35.2	-36.4	29.6	3.03e+01	0	34	0	638058496	46	5702
2026-01-28 04:00:16.80	280.01	20.34	-35.2	-36.4	29.5	3.03e+01	0	34	0	639631360	46	5718
2026-01-28 04:00:17.81	280.30	20.32	-35.3	-36.5	29.5	3.03e+01	0	34	0	641728512	46	5732
2026-01-28 04:00:18.82	280.60	20.31	-35.3	-36.5	29.5	3.03e+01	0	34	0	643301376	46	5742
2026-01-28 04:00:19.83	280.90	20.29	-35.3	-36.5	29.5	3.03e+01	0	34	0	645398528	46	5770
2026-01-28 04:00:20.84	281.19	20.27	-35.2	-36.4	29.6	3.03e+01	0	34	0	647495680	46	5682
2026-01-28 04:00:21.85	281.49	20.26	-35.3	-36.4	29.6	3.03e+01	0	34	0	649068544	46	5721
2026-01-28 04:00:22.86	281.79	20.24	-35.3	-36.5	29.5	3.03e+01	0	34	0	651165696	46	5743
2026-01-28 04:00:23.87	282.08	20.22	-35.1	-36.3	29.7	3.03e+01	0	34	0	653262848	46	5603
2026-01-28 04:00:24.88	282.38	20.20	-35.1	-36.3	29.6	3.03e+01	0	34	0	654835712	46	5654
2026-01-28 04:00:25.89	282.67	20.17	-35.2	-36.4	29.6	3.03e+01	0	34	0	656932864	46	5708
2026-01-28 04:00:26.90	282.97	20.15	-35.2	-36.3	29.5	3.03e+01	0	34	0	658505728	46	5654
2026-01-28 04:00:27.91	283.26	20.13	-35.0	-36.2	29.8	3.03e+01	0	34	0	660602880	46	5537
2026-01-28 04:00:28.92	283.56	20.11	-35.2	-36.3	29.6	3.03e+01	0	34	0	662700032	46	5651
2026-01-28 04:00:29.93	283.85	20.08	-35.2	-36.4	29.6	3.03e+01	0	34	0	664272896	46	5693
2026-01-28 04:00:30.94	284.14	20.06	-35.2	-36.4	29.5	3.03e+01	0	34	0	666370048	46	5703
2026-01-28 04:00:31.95	284.43	20.03	-35.2	-36.4	29.5	3.03e+01	0	34	0	667942912	46	5705
2026-01-28 04:00:32.96	284.72	20.01	-35.1	-36.3	29.7	3.03e+01	0	34	0	670040064	46	5609
2026-01-28 04:00:33.97	285.02	19.98	-35.1	-36.3	29.6	3.03e+01	0	34	0	672137216	46	5630
2026-01-28 04:00:34.98	285.31	19.95	-35.1	-36.3	29.7	3.03e+01	0	34	0	673710080	46	5633
2026-01-28 04:00:35.99	285.60	19.93	-35.2	-36.3	29.6	3.03e+01	0	34	0	675807232	46	5655
2026-01-28 04:00:37.00	285.89	19.90	-34.9	-36.1	29.7	3.03e+01	0	34	0	677380096	44	6173
2026-01-28 04:00:38.01	286.17	19.87	-35.0	-36.2	29.7	3.03e+01	0	34	0	679477248	44	6238
2026-01-28 04:00:39.01	286.46	19.84	-35.0	-36.2	29.7	3.03e+01	0	34	0	681574400	44	6260
2026-01-28 04:00:40.02	286.75	19.81	-35.1	-36.3	29.6	3.03e+01	0	34	0	683147264	44	6308
2026-01-28 04:00:41.03	287.03	19.78	-35.0	-36.2	29.7	3.03e+01	0	34	0	685244416	44	6270
2026-01-28 04:00:42.05	287.32	19.74	-34.9	-36.1	29.7	3.03e+01	0	34	0	686817280	44	6141
2026-01-28 04:00:43.05	287.61	19.71	-34.9	-36.1	29.9	3.03e+01	0	34	0	688914432	44	6161
2026-01-28 04:00:44.06	287.89	19.68	-34.9	-36.1	29.8	3.03e+01	0	34	0	691011584	44	6156
2026-01-28 04:00:45.07	288.18	19.64	-35.0	-36.2	29.6	3.03e+01	0	34	0	692584448	44	6267
2026-01-28 04:00:46.08	288.46	19.61	-35.0	-36.1	29.7	3.03e+01	0	34	0	694681600	44	6201
2026-01-28 04:00:47.09	288.74	19.58	-35.1	-36.3	29.7	3.03e+01	0	34	0	696254464	44	6311
2026-01-28 04:00:48.10	289.03	19.54	-34.9	-36.1	29.9	3.03e+01	0	34	0	698351616	44	6182
2026-01-28 04:00:49.11	289.31	19.50	-35.0	-36.2	29.7	3.03e+01	0	34	0	700448768	44	6256
2026-01-28 04:00:50.12	289.59	19.47	-35.0	-36.2	29.7	3.03e+01	0	34	0	702021632	44	6246
2026-01-28 04:00:51.13	289.87	19.43	-35.0	-36.2	29.7	3.03e+01	0	34	0	704118784	44	6227
2026-01-28 04:00:52.14	290.15	19.39	-34.9	-36.1	29.8	3.03e+01	0	34	0	706215936	44	6159
2026-01-28 04:00:53.15	290.43	19.35	-34.9	-36.0	29.8	3.03e+01	0	34	0	707788800	44	6132
2026-01-28 04:00:54.16	290.71	19.31	-35.0	-36.2	29.7	3.03e+01	0	34	0	709885952	44	6208
2026-01-28 04:00:55.17	290.98	19.27	-35.0	-36.2	29.6	3.03e+01	0	34	0	711458816	44	6266
2026-01-28 04:00:56.18	291.26	19.23	-35.0	-36.2	29.8	3.03e+01	0	34	0	713555968	44	6212
2026-01-28 04:00:57.19	291.54	19.19	-34.7	-35.9	29.9	3.03e+01	0	34	0	715653120	44	6026
2026-01-28 04:00:58.20	291.81	19.15	-34.9	-36.1	29.7	3.03e+01	0	34	0	717225984	44	6141
2026-01-28 04:00:59.21	292.09	19.11	-34.8	-36.0	29.8	3.03e+01	0	34	0	719323136	44	6129
2026-01-28 04:01:00.22	292.36	19.07	-34.9	-36.1	29.8	3.03e+01	0	34	0	721420288	44	6136
2026-01-28 04:01:01.23	292.63	19.02	-35.0	-36.2	29.8	3.03e+01	0	34	0	722993152	44	6207
2026-01-28 04:01:02.23	292.90	18.98	-35.0	-36.2	29.7	3.03e+01	0	34	0	725090304	44	6257
2026-01-28 04:01:03.24	293.17	18.94	-34.9	-36.0	29.9	3.03e+01	0	34	0	726663168	44	6119
2026-01-28 04:01:04.25	293.44	18.89	-34.8	-36.0	29.9	3.03e+01	0	34	0	728760320	44	6103
2026-01-28 04:01:05.26	293.71	18.85	-34.9	-36.1	29.9	3.03e+01	0	33	0	730857472	44	6141
2026-01-28 04:01:06.27	293.98	18.80	-34.8	-36.0	29.9	3.03e+01	0	34	0	732430336	44	6124
2026-01-28 04:01:07.28	294.25	18.76	-34.9	-36.1	29.8	3.03e+01	0	34	0	734527488	44	6159
2026-01-28 04:01:08.29	294.52	18.71	-34.8	-36.0	29.9	3.03e+01	0	33	0	736100352	44	6099
2026-01-28 04:01:09.30	294.78	18.66	-35.1	-36.3	29.6	3.03e+01	0	34	0	738197504	44	6314
2026-01-28 04:01:10.31	295.05	18.62	-34.9	-36.1	29.7	3.03e+01	0	34	0	740294656	44	6168
2026-01-28 04:01:11.32	295.31	18.57	-35.2	-36.4	29.7	3.03e+01	0	34	0	741867520	44	6359
2026-01-28 04:01:12.33	295.57	18.52	-34.9	-36.1	29.8	3.03e+01	0	34	0	743964672	44	6149
2026-01-28 04:01:13.34	295.84	18.47	-34.9	-36.1	29.7	3.03e+01	0	34	0	745537536	44	6193
2026-01-28 04:01:14.35	296.10	18.42	-34.9	-36.0	29.8	3.03e+01	0	33	0	747634688	44	6124
2026-01-28 04:01:15.36	296.36	18.37	-34.7	-35.9	30.0	3.03e+01	0	34	0	749731840	44	6000
2026-01-28 04:01:16.37	296.62	18.32	-34.8	-36.0	29.8	3.03e+01	0	34	0	751304704	44	6103
2026-01-28 04:01:17.38	296.88	18.27	-35.0	-36.1	29.7	3.03e+01	0	34	0	753401856	44	6204
2026-01-28 04:01:18.38	297.13	18.22	-34.8	-36.0	29.8	3.03e+01	0	34	0	754974720	44	6088
2026-01-28 04:01:19.39	297.39	18.17	-34.8	-36.0	29.8	3.03e+01	0	34	0	757071872	44	6082
2026-01-28 04:01:20.40	297.65	18.12	-34.7	-35.8	30.0	3.03e+01	0	34	0	759169024	44	5994
2026-01-28 04:01:21.41	297.90	18.07	-34.7	-35.9	29.9	3.03e+01	0	34	0	760741888	44	6006
2026-01-28 04:01:22.42	298.16	18.01	-34.9	-36.1	29.8	3.03e+01	0	34	0	762839040	44	6135
2026-01-28 04:01:23.43	298.41	17.96	-34.8	-35.9	29.9	3.03e+01	0	34	0	764411904	44	6060
2026-01-28 04:01:24.44	298.66	17.91	-34.8	-35.9	29.8	3.03e+01	0	34	0	766509056	44	6064
2026-01-28 04:01:25.45	298.92	17.85	-34.6	-35.8	30.0	3.03e+01	0	33	0	768606208	44	5943
2026-01-28 04:01:26.46	299.17	17.80	-34.7	-35.9	29.9	3.03e+01	0	34	0	770179072	44	6021
2026-01-28 04:01:27.47	299.42	17.74	-34.7	-35.9	29.9	3.03e+01	0	34	0	772276224	44	6023
2026-01-28 04:01:28.48	299.67	17.69	-34.8	-36.0	29.9	3.03e+01	0	34	0	774373376	44	6088
2026-01-28 04:01:29.49	299.91	17.63	-34.6	-35.8	30.0	3.03e+01	0	34	0	775946240	44	5938
2026-01-28 04:01:30.50	300.16	17.58	-34.5	-35.7	30.1	3.03e+01	0	34	0	778043392	44	5871
2026-01-28 04:01:31.51	300.41	17.52	-34.7	-35.8	30.0	3.03e+01	0	34	0	779616256	44	5991
2026-01-28 04:01:32.52	300.65	17.47	-34.8	-35.9	29.8	3.03e+01	0	34	0	781713408	44	6056
2026-01-28 04:01:33.54	300.90	17.41	-34.8	-36.0	29.9	3.03e+01	0	34	0	783810560	44	6093
2026-01-28 04:01:34.55	301.14	17.35	-34.8	-36.0	29.8	3.03e+01	0	34	0	785383424	44	6113
2026-01-28 04:01:35.56	301.38	17.29	-34.8	-36.0	29.8	3.03e+01	0	34	0	787480576	44	6069
2026-01-28 04:01:36.57	301.63	17.24	-34.6	-35.8	30.0	3.03e+01	0	34	0	789053440	44	5951
2026-01-28 04:01:37.58	301.87	17.18	-34.5	-35.7	30.1	3.03e+01	0	33	0	791150592	44	5885
2026-01-28 04:01:38.59	302.10	17.12	-34.6	-35.8	30.0	3.03e+01	0	33	0	793247744	44	5932
2026-01-28 04:01:39.60	302.34	17.06	-34.7	-35.9	29.9	3.03e+01	0	33	0	794820608	44	6029
2026-01-28 04:01:40.60	302.58	17.00	-34.8	-36.0	29.8	3.03e+01	0	34	0	796917760	44	6100
2026-01-28 04:01:41.62	302.82	16.94	-34.8	-36.0	29.8	3.03e+01	0	33	0	799014912	44	6069
2026-01-28 04:01:42.63	303.05	16.88	-34.6	-35.8	30.0	3.03e+01	0	33	0	800587776	44	5957
2026-01-28 04:01:43.64	303.29	16.82	-34.6	-35.8	30.0	3.03e+01	0	34	0	802684928	44	5942
2026-01-28 04:01:44.65	303.52	16.76	-34.7	-35.9	29.9	3.03e+01	0	34	0	804257792	44	6037
2026-01-28 04:01:45.66	303.75	16.70	-34.7	-35.9	30.0	3.03e+01	0	34	0	806354944	44	6046
2026-01-28 04:01:46.67	303.99	16.64	-34.7	-36.0	29.9	3.03e+01	0	34	0	808452096	44	6073
2026-01-28 04:01:47.68	304.22	16.58	-34.5	-35.7	30.0	3.03e+01	0	34	0	810024960	44	5910
2026-01-28 04:01:48.69	304.45	16.52	-34.5	-35.7	30.1	3.03e+01	0	34	0	812122112	44	5859
2026-01-28 04:01:49.70	304.67	16.46	-34.4	-35.6	30.1	3.03e+01	0	34	0	813694976	44	5850
2026-01-28 04:01:50.71	304.90	16.40	-34.6	-35.7	30.0	3.03e+01	0	34	0	815792128	44	5925
2026-01-28 04:01:51.72	305.13	16.34	-34.8	-36.0	29.9	3.03e+01	0	33	0	817889280	44	6077
2026-01-28 04:01:52.73	305.35	16.28	-34.8	-36.1	29.7	3.03e+01	0	34	0	819462144	44	6138
2026-01-28 04:01:53.74	305.58	16.21	-34.7	-35.9	29.9	3.03e+01	0	34	0	821559296	44	6022
2026-01-28 04:01:54.75	305.80	16.15	-34.7	-35.9	29.9	3.03e+01	0	34	0	823132160	44	6049
2026-01-28 04:01:55.76	306.03	16.09	-34.6	-35.8	30.0	3.03e+01	0	33	0	825229312	44	5965
2026-01-28 04:01:56.77	306.25	16.03	-34.6	-35.8	29.9	3.03e+01	0	34	0	827326464	44	5932
2026-01-28 04:01:57.78	306.47	15.96	-34.6	-35.8	30.0	3.03e+01	0	34	0	828899328	44	5931
2026-01-28 04:01:58.79	306.69	15.90	-34.7	-35.9	29.9	3.03e+01	0	34	0	830996480	44	6047
2026-01-28 04:01:59.80	306.91	15.84	-34.7	-35.9	29.9	3.03e+01	0	34	0	832569344	44	6004
2026-01-28 04:02:00.81	307.13	15.77	-34.7	-35.8	29.9	3.03e+01	0	34	0	834666496	44	5992
2026-01-28 04:02:01.81	307.34	15.71	-34.6	-35.8	30.0	3.03e+01	0	34	0	836763648	44	5960
2026-01-28 04:02:02.82	307.56	15.65	-34.6	-35.8	29.9	3.03e+01	0	34	0	838336512	44	5975
2026-01-28 04:02:03.83	307.77	15.58	-34.6	-35.7	30.0	3.03e+01	0	34	0	840433664	44	5914
2026-01-28 04:02:04.84	307.99	15.52	-34.6	-35.7	30.0	3.03e+01	0	33	0	842530816	44	5921
2026-01-28 04:02:05.85	308.20	15.45	-34.6	-35.8	29.9	3.03e+01	0	34	0	844103680	44	5975
2026-01-28 04:02:06.86	308.41	15.39	-34.7	-35.9	29.8	3.03e+01	0	34	0	846200832	44	6028
2026-01-28 04:02:07.87	308.62	15.32	-34.7	-35.9	29.9	3.03e+01	0	34	0	847773696	44	6036
2026-01-28 04:02:08.88	308.83	15.26	-34.8	-36.0	29.7	3.03e+01	0	34	0	849870848	44	6088
2026-01-28 04:02:09.89	309.04	15.19	-34.8	-35.9	29.8	3.03e+01	0	34	0	851968000	44	6063
2026-01-28 04:02:10.90	309.25	15.13	-34.6	-35.8	29.9	3.03e+01	0	34	0	853540864	44	5968
2026-01-28 04:02:11.91	309.46	15.06	-34.6	-35.8	29.9	3.03e+01	0	34	0	855638016	44	5968
2026-01-28 04:02:12.92	309.66	15.00	-34.6	-35.7	30.0	3.03e+01	0	34	0	857210880	44	5907
2026-01-28 04:02:13.93	309.87	14.93	-34.7	-35.9	29.8	3.03e+01	0	34	0	859308032	44	6050
2026-01-28 04:02:14.94	310.08	14.87	-34.7	-35.9	29.9	3.03e+01	0	34	0	861405184	44	6009
2026-01-28 04:02:15.95	310.28	14.80	-34.7	-35.9	29.7	3.03e+01	0	34	0	862978048	44	6028
2026-01-28 04:02:16.96	310.48	14.73	-34.7	-35.9	29.8	3.03e+01	0	34	0	865075200	44	6032
2026-01-28 04:02:17.97	310.68	14.67	-34.8	-36.0	29.8	3.03e+01	0	34	0	867172352	44	6083
2026-01-28 04:02:18.98	310.88	14.60	-34.7	-35.9	29.9	3.03e+01	0	34	0	868745216	44	6023
2026-01-28 04:02:19.99	311.08	14.54	-34.6	-35.8	29.9	3.03e+01	0	34	0	870842368	44	5974
2026-01-28 04:02:21.00	311.28	14.47	-34.8	-36.0	29.8	3.03e+01	0	34	0	872415232	44	6068
2026-01-28 04:02:22.01	311.48	14.40	-34.7	-35.9	29.9	3.03e+01	0	34	0	874512384	44	6024
2026-01-28 04:02:23.02	311.68	14.34	-34.7	-35.9	29.8	3.03e+01	0	34	0	876609536	44	6061
2026-01-28 04:02:24.03	311.87	14.27	-34.8	-36.0	29.8	3.03e+01	0	34	0	878182400	44	6088
2026-01-28 04:02:25.04	312.07	14.20	-34.8	-35.9	29.8	3.03e+01	0	33	0	880279552	44	6064
2026-01-28 04:02:26.05	312.26	14.14	-34.8	-36.0	29.7	3.03e+01	0	34	0	882376704	44	6079
2026-01-28 04:02:27.06	312.46	14.07	-34.8	-35.9	29.7	3.03e+01	0	34	0	883949568	44	6062
2026-01-28 04:02:28.07	312.65	14.00	-34.8	-36.0	29.7	3.03e+01	0	34	0	886046720	44	6070
2026-01-28 04:02:29.08	312.84	13.93	-34.8	-36.0	29.8	3.03e+01	0	34	0	887619584	44	6095
2026-01-28 04:02:30.09	313.03	13.87	-34.8	-36.0	29.8	3.03e+01	0	34	0	889716736	44	6094
2026-01-28 04:02:31.10	313.22	13.80	-34.7	-35.9	29.8	3.03e+01	0	34	0	891813888	44	6039
2026-01-28 04:02:32.11	313.41	13.73	-34.7	-35.9	29.8	3.03e+01	0	34	0	893386752	44	6024
2026-01-28 04:02:33.12	313.60	13.66	-34.8	-36.0	29.8	3.03e+01	0	34	0	895483904	44	6084
2026-01-28 04:02:34.13	313.79	13.60	-34.7	-35.9	29.8	3.03e+01	0	34	0	897056768	44	6012
2026-01-28 04:02:35.14	313.97	13.53	-34.9	-36.1	29.6	3.03e+01	0	34	0	899153920	44	6147
2026-01-28 04:02:36.15	314.16	13.46	-34.9	-36.1	29.6	3.03e+01	0	34	0	900726784	44	6198
2026-01-28 04:02:37.16	314.34	13.39	-34.9	-36.1	29.7	3.03e+01	0	34	0	902823936	44	6190
2026-01-28 04:02:38.18	314.53	13.33	-34.8	-36.0	29.7	3.03e+01	0	34	0	904921088	44	6133
2026-01-28 04:02:39.18	314.71	13.26	-34.7	-35.9	29.7	3.03e+01	0	34	0	906493952	44	6049
2026-01-28 04:02:40.20	314.89	13.19	-34.8	-36.0	29.7	3.03e+01	0	34	0	908591104	44	6117
2026-01-28 04:02:41.21	315.07	13.12	-34.8	-36.0	29.7	3.03e+01	0	34	0	910688256	44	6086
2026-01-28 04:02:42.22	315.25	13.06	-34.9	-36.1	29.7	3.03e+01	0	33	0	912261120	44	6176
2026-01-28 04:02:43.23	315.43	12.99	-34.9	-36.1	29.6	3.03e+01	0	34	0	914358272	44	6176
2026-01-28 04:02:44.24	315.61	12.92	-35.1	-36.3	29.5	3.03e+01	0	33	0	915931136	44	6282
2026-01-28 04:02:45.25	315.79	12.85	-35.0	-36.2	29.5	3.03e+01	0	34	0	918028288	44	6265
2026-01-28 04:02:46.26	315.97	12.78	-35.0	-36.2	29.6	3.03e+01	0	33	0	920125440	44	6209
2026-01-28 04:02:47.27	316.14	12.72	-35.0	-36.2	29.5	3.03e+01	0	34	0	921698304	44	6221
2026-01-28 04:02:48.28	316.32	12.65	-35.1	-36.3	29.5	3.03e+01	0	34	0	923795456	44	6299
2026-01-28 04:02:49.28	316.49	12.58	-34.9	-36.1	29.5	3.03e+01	0	33	0	925368320	44	6190
2026-01-28 04:02:50.29	316.66	12.51	-35.1	-36.3	29.4	3.03e+01	0	33	0	927465472	44	6340
2026-01-28 04:02:51.30	316.84	12.44	-34.9	-36.1	29.5	3.03e+01	0	33	0	929562624	44	6180
2026-01-28 04:02:52.31	317.01	12.38	-35.2	-36.4	29.4	3.03e+01	0	33	0	931135488	44	6364
2026-01-28 04:02:53.32	317.18	12.31	-35.0	-36.2	29.5	3.03e+01	0	34	0	933232640	44	6275
2026-01-28 04:02:54.33	317.35	12.24	-35.3	-36.5	29.2	3.03e+01	0	34	0	935329792	44	6473
2026-01-28 04:02:55.34	317.52	12.17	-35.2	-36.4	29.2	3.03e+01	0	34	0	936902656	44	6388
2026-01-28 04:02:56.35	317.69	12.10	-35.1	-36.3	29.3	3.03e+01	0	33	0	938999808	44	6329
2026-01-28 04:02:57.36	317.85	12.04	-35.1	-36.3	29.3	3.03e+01	0	34	0	940572672	44	6327
2026-01-28 04:02:58.37	318.02	11.97	-35.0	-36.2	29.5	3.03e+01	0	34	0	942669824	44	6242
2026-01-28 04:02:59.39	318.19	11.90	-35.1	-36.3	29.3	3.03e+01	0	34	0	944766976	44	6347
2026-01-28 04:03:00.40	318.35	11.83	-35.0	-36.2	29.4	3.03e+01	0	34	0	946339840	44	6237
2026-01-28 04:03:01.41	318.52	11.76	-35.1	-36.3	29.3	3.03e+01	0	33	0	948436992	44	6320
2026-01-28 04:03:02.42	318.68	11.70	-35.1	-36.3	29.4	3.03e+01	0	34	0	950534144	44	6324
2026-01-28 04:03:03.43	318.84	11.63	-35.2	-36.4	29.3	3.03e+01	0	34	0	952107008	44	6415
2026-01-28 04:03:04.44	319.01	11.56	-35.3	-36.5	29.2	3.03e+01	0	33	0	954204160	44	6467
2026-01-28 04:03:05.45	319.17	11.49	-35.1	-36.4	29.2	3.03e+01	0	33	0	955777024	44	6352
2026-01-28 04:03:06.46	319.33	11.42	-35.2	-36.4	29.3	3.03e+01	0	33	0	957874176	44	6375
2026-01-28 04:03:07.47	319.49	11.36	-35.2	-36.4	29.3	3.03e+01	0	34	0	959971328	44	6358
2026-01-28 04:03:08.47	319.64	11.29	-35.3	-36.5	29.1	3.03e+01	0	34	0	961544192	44	6484
2026-01-28 04:03:09.48	319.80	11.22	-35.3	-36.5	29.1	3.03e+01	0	33	0	963641344	44	6483
2026-01-28 04:03:10.49	319.96	11.15	-35.4	-36.7	29.0	3.03e+01	0	34	0	965214208	44	6577
2026-01-28 04:03:11.50	320.12	11.09	-35.5	-36.7	28.9	3.03e+01	0	34	0	967311360	44	6625
2026-01-28 04:03:12.51	320.27	11.02	-35.5	-36.8	28.9	3.03e+01	0	34	0	969408512	44	6658
2026-01-28 04:03:13.52	320.43	10.95	-35.4	-36.6	29.0	3.03e+01	0	34	0	970981376	44	6532
2026-01-28 04:03:14.53	320.58	10.88	-35.4	-36.7	28.9	3.03e+01	0	33	0	973078528	44	6575
2026-01-28 04:03:15.54	320.74	10.82	-35.4	-36.6	29.1	3.03e+01	0	34	0	974651392	44	6525
2026-01-28 04:03:16.55	320.89	10.75	-35.4	-36.7	29.0	3.03e+01	0	34	0	976748544	44	6588
2026-01-28 04:03:17.56	321.04	10.68	-35.3	-36.5	29.0	3.03e+01	0	34	0	978845696	44	6491
2026-01-28 04:03:18.57	321.19	10.61	-35.4	-36.6	29.0	3.03e+01	0	34	0	980418560	44	6558
2026-01-28 04:03:19.58	321.34	10.55	-35.4	-36.6	29.0	3.03e+01	0	34	0	982515712	44	6521
2026-01-28 04:03:20.59	321.49	10.48	-35.2	-36.4	29.1	3.03e+01	0	33	0	984088576	44	6391
2026-01-28 04:03:21.60	321.64	10.41	-35.4	-36.6	29.0	3.03e+01	0	33	0	986185728	44	6564
2026-01-28 04:03:22.61	321.79	10.34	-35.2	-36.4	29.1	3.03e+01	0	33	0	988282880	44	6407
2026-01-28 04:03:23.62	321.94	10.28	-35.3	-36.5	29.0	3.03e+01	0	34	0	989855744	44	6486
2026-01-28 04:03:24.64	322.09	10.21	-35.3	-36.5	29.1	3.03e+01	0	34	0	991952896	44	6495
2026-01-28 04:03:25.64	322.23	10.14	-35.3	-36.5	29.1	3.03e+01	0	33	0	993525760	44	6489
2026-01-28 04:03:26.65	322.38	10.07	-35.5	-36.7	29.0	3.03e+01	0	34	0	995622912	44	6620
2026-01-28 04:03:27.66	322.52	10.01	-35.5	-36.7	28.9	3.03e+01	0	33	0	997720064	44	6620
2026-01-28 04:03:28.66	322.67	9.94	-35.4	-36.6	28.9	3.03e+01	0	33	0	999292928	44	6546
2026-01-28 04:03:29.67	322.81	9.87	-35.5	-36.7	28.9	3.03e+01	0	34	0	1001390080	44	6624
2026-01-28 04:03:30.68	322.95	9.81	-35.6	-36.8	28.6	3.03e+01	0	34	0	1003487232	44	6690
2026-01-28 04:03:31.69	323.09	9.74	-35.7	-37.0	28.7	3.03e+01	0	34	0	1005060096	44	6805
2026-01-28 04:03:32.70	323.24	9.67	-35.8	-37.0	28.6	3.03e+01	0	34	0	1007157248	44	6868
2026-01-28 04:03:33.71	323.38	9.61	-35.5	-36.8	28.8	3.03e+01	0	34	0	1008730112	44	6662
2026-01-28 04:03:34.72	323.52	9.54	-35.6	-36.8	28.8	3.03e+01	0	34	0	1010827264	44	6701
2026-01-28 04:03:35.73	323.66	9.47	-35.7	-36.9	28.7	3.03e+01	0	34	0	1012924416	44	6756
2026-01-28 04:03:36.74	323.80	9.41	-35.6	-36.9	28.7	3.03e+01	0	34	0	1014497280	44	6749
2026-01-28 04:03:37.75	323.93	9.34	-35.7	-36.9	28.6	3.03e+01	0	33	0	1016594432	44	6795
2026-01-28 04:03:38.76	324.07	9.27	-35.6	-36.9	28.7	3.03e+01	0	33	0	1018691584	44	6733
2026-01-28 04:03:39.77	324.21	9.21	-35.6	-36.8	28.7	3.03e+01	0	34	0	1020264448	44	6721
2026-01-28 04:03:40.78	324.34	9.14	-35.6	-36.9	28.8	3.03e+01	0	33	0	1022361600	44	6734
2026-01-28 04:03:41.79	324.48	9.08	-35.9	-37.2	28.4	3.03e+01	0	34	0	1023934464	44	6983
2026-01-28 04:03:42.80	324.62	9.01	-35.9	-37.2	28.3	3.03e+01	0	33	0	1026031616	46	6235
2026-01-28 04:03:43.81	324.75	8.94	-36.2	-37.4	28.2	3.03e+01	0	34	0	1028128768	46	6397
2026-01-28 04:03:44.82	324.88	8.88	-35.9	-37.2	28.6	3.03e+01	0	34	0	1029701632	46	6218
2026-01-28 04:03:45.83	325.02	8.81	-35.9	-37.1	28.5	3.03e+01	0	33	0	1031798784	46	6180
2026-01-28 04:03:46.84	325.15	8.75	-35.8	-37.1	28.4	3.03e+01	0	34	0	1033371648	46	6165
2026-01-28 04:03:47.85	325.28	8.68	-36.0	-37.3	28.3	3.03e+01	0	34	0	1035468800	46	6319
2026-01-28 04:03:48.86	325.41	8.61	-36.1	-37.4	28.3	3.03e+01	0	34	0	1037565952	46	6364
2026-01-28 04:03:49.87	325.54	8.55	-36.1	-37.3	28.2	3.03e+01	0	34	0	1039138816	46	6350
2026-01-28 04:03:50.88	325.67	8.48	-36.2	-37.5	28.2	3.03e+01	0	34	0	1041235968	46	6448
2026-01-28 04:03:51.89	325.80	8.42	-36.2	-37.5	28.2	3.03e+01	0	34	0	1042808832	46	6470
2026-01-28 04:03:52.90	325.93	8.35	-36.0	-37.3	28.3	3.03e+01	0	34	0	1044905984	46	6323
2026-01-28 04:03:53.91	326.06	8.29	-36.2	-37.5	28.1	3.03e+01	0	33	0	1047003136	46	6444
2026-01-28 04:03:54.92	326.19	8.22	-36.1	-37.3	28.2	3.03e+01	0	34	0	1048576000	46	6338
2026-01-28 04:03:55.93	326.31	8.16	-36.2	-37.5	28.0	3.03e+01	0	34	0	1050673152	46	6444
2026-01-28 04:03:56.94	326.44	8.09	-36.4	-37.7	28.0	3.03e+01	0	34	0	1052246016	46	6584
2026-01-28 04:03:57.95	326.57	8.03	-36.4	-37.7	27.9	3.03e+01	0	34	0	1054343168	46	6637
2026-01-28 04:03:58.96	326.69	7.96	-36.5	-37.7	27.9	3.03e+01	0	34	0	1056440320	46	6640
2026-01-28 04:03:59.97	326.82	7.90	-36.2	-37.4	28.1	3.03e+01	0	33	0	1058013184	46	6422
2026-01-28 04:04:00.98	326.94	7.83	-36.2	-37.5	28.1	3.03e+01	0	34	0	1060110336	46	6431
2026-01-28 04:04:01.99	327.06	7.77	-36.3	-37.6	28.0	3.03e+01	0	34	0	1061683200	46	6537
2026-01-28 04:04:03.00	327.19	7.70	-36.7	-46.9	3.6	3.03e+01	0	34	104	1062207488	46	19080
2026-01-28 04:04:04.01	327.31	7.64	-36.7	-47.0	3.6	3.03e+01	0	34	104	1062207488	46	19194
2026-01-28 04:04:05.02	327.43	7.57	-37.0	-47.3	3.4	3.03e+01	0	33	104	1062207488	46	20040
2026-01-28 04:04:06.03	327.55	7.51	-39.6	-50.1	3.6	3.03e+01	0	34	104	1062207488	52	19603
2026-01-28 04:04:07.04	327.67	7.44	-48.0	-64.5	3.5	3.03e+01	0	34	104	1062207488	60	64364
2026-01-28 04:04:08.05	327.79	7.38	-46.5	-60.6	3.5	3.03e+01	0	34	104	1062207488	60	41210
2026-01-28 04:04:09.06	327.91	7.32	-43.2	-54.2	3.6	3.03e+01	0	34	104	1062207488	60	19727
2026-01-28 04:04:10.07	328.03	7.25	-39.4	-49.7	3.6	3.03e+01	0	34	104	1062207488	54	16579
2026-01-28 04:04:11.08	328.15	7.19	-38.9	-49.2	3.5	3.03e+01	0	34	104	1062207488	52	17668
2026-01-28 04:04:12.09	328.27	7.12	-37.8	-47.9	3.6	3.03e+01	0	34	104	1062207488	50	17068
2026-01-28 04:04:13.10	328.39	7.06	-36.7	-46.9	3.6	3.03e+01	0	34	104	1062207488	48	16950
2026-01-28 04:04:14.11	328.50	7.00	-43.1	-54.3	3.4	3.03e+01	0	34	104	1062207488	60	19978
2026-01-28 04:04:15.12	328.62	6.93	-47.4	-62.2	3.5	3.03e+01	0	34	104	1062207488	60	49712
2026-01-28 04:04:16.13	328.73	6.87	-48.1	-64.3	3.5	3.03e+01	0	34	104	1062207488	60	63198
2026-01-28 04:04:17.14	328.85	6.81	-39.8	-50.3	4.0	3.03e+01	0	34	104	1062207488	52	19947
2026-01-28 04:04:18.15	328.96	6.74	-38.0	-48.3	4.1	3.03e+01	0	34	104	1062207488	52	15820
2026-01-28 04:04:19.16	329.08	6.68	-38.5	-48.8	4.1	3.03e+01	0	34	104	1062207488	52	16856
2026-01-28 04:04:20.17	329.19	6.62	-38.2	-48.5	4.1	3.03e+01	0	34	104	1062207488	52	16150
2026-01-28 04:04:21.17	329.30	6.55	-37.5	-47.8	3.5	3.03e+01	0	34	104	1062207488	50	16774
2026-01-28 04:04:22.18	329.42	6.49	-38.0	-48.4	3.6	3.03e+01	0	34	104	1062207488	52	16038
2026-01-28 04:04:23.19	329.53	6.43	-48.1	-64.5	3.5	3.03e+01	0	34	104	1062207488	60	64855
2026-01-28 04:04:24.20	329.64	6.36	-44.1	-55.7	3.5	3.03e+01	0	34	104	1062207488	60	23508
2026-01-28 04:04:25.21	329.75	6.30	-42.2	-53.2	3.5	3.03e+01	0	34	104	1062207488	60	17536
2026-01-28 04:04:26.22	329.86	6.24	-38.7	-49.1	3.6	3.03e+01	0	34	104	1062207488	52	17443
2026-01-28 04:04:27.23	329.97	6.18	-38.7	-49.2	3.5	3.03e+01	0	34	104	1062207488	52	17537
2026-01-28 04:04:28.24	330.08	6.11	-38.0	-48.4	3.5	3.03e+01	0	34	104	1062207488	52	16109
2026-01-28 04:04:29.25	330.19	6.05	-37.4	-47.8	3.5	3.03e+01	0	34	104	1062207488	50	16868
2026-01-28 04:04:30.26	330.30	5.99	-41.5	-52.4	3.5	3.03e+01	0	34	104	1062207488	60	16018
2026-01-28 04:04:31.27	330.41	5.93	-47.6	-63.4	3.5	3.03e+01	0	34	104	1062207488	60	56666
2026-01-28 04:04:32.28	330.52	5.86	-48.1	-64.7	3.5	3.03e+01	0	34	104	1062207488	60	65898
2026-01-28 04:04:33.29	330.62	5.80	-40.1	-50.7	3.5	3.03e+01	0	34	104	1062207488	54	18720
2026-01-28 04:04:34.30	330.73	5.74	-38.7	-49.2	3.5	3.03e+01	0	34	104	1062207488	52	17557
2026-01-28 04:04:35.31	330.84	5.68	-38.5	-48.9	3.5	3.03e+01	0	34	104	1062207488	52	17007
2026-01-28 04:04:36.32	330.94	5.62	-38.5	-49.0	3.5	3.03e+01	0	34	104	1062207488	52	17109
2026-01-28 04:04:37.33	331.05	5.55	-38.8	-49.3	3.5	3.03e+01	0	34	104	1062207488	52	17740
2026-01-28 04:04:38.34	331.15	5.49	-37.9	-48.3	3.5	3.03e+01	0	34	104	1062207488	52	15852
2026-01-28 04:04:39.35	331.26	5.43	-48.0	-64.7	3.5	3.03e+01	0	34	104	1062207488	60	65911
2026-01-28 04:04:40.36	331.36	5.37	-42.4	-53.5	3.5	3.03e+01	0	34	104	1062207488	60	18195
2026-01-28 04:04:41.37	331.47	5.31	-42.5	-53.4	3.5	3.03e+01	0	34	104	1062207488	60	18092
2026-01-28 04:04:42.38	331.57	5.25	-39.7	-50.2	3.5	3.03e+01	0	34	104	1062207488	54	17579
2026-01-28 04:04:43.38	331.67	5.19	-39.5	-50.0	3.5	3.03e+01	0	34	104	1062207488	54	17159
2026-01-28 04:04:44.39	331.77	5.13	-38.2	-48.5	3.5	3.03e+01	0	34	104	1062207488	52	16303
2026-01-28 04:04:45.41	331.87	5.06	-38.1	-48.4	3.5	3.03e+01	0	34	104	1062207488	50	17966
2026-01-28 04:04:46.41	331.98	5.00	-40.4	-51.0	3.5	3.03e+01	0	34	104	1062207488	56	17130
2026-01-28 04:04:47.42	332.08	4.94	-45.7	-61.2	3.5	3.03e+01	0	34	104	1062207488	60	44024
2026-01-28 04:04:48.44	332.18	4.88	-44.8	-58.0	3.5	3.03e+01	0	34	104	1062207488	60	30657
2026-01-28 04:04:49.45	332.28	4.82	-41.5	-52.3	3.5	3.03e+01	0	34	104	1062207488	58	17820
2026-01-28 04:04:50.46	332.38	4.76	-41.0	-52.0	3.5	3.03e+01	0	34	104	1062207488	56	19186
2026-01-28 04:04:51.47	332.48	4.70	-41.2	-52.3	3.5	3.03e+01	0	34	104	1062207488	56	19985
2026-01-28 04:04:52.48	332.58	4.64	-41.8	-53.6	3.5	3.03e+01	0	34	104	1062207488	58	20582
2026-01-28 04:04:53.49	332.67	4.58	-42.5	-54.9	3.5	3.03e+01	0	34	104	1062207488	58	24025
2026-01-28 04:04:54.50	332.77	4.52	-42.1	-54.4	3.5	3.03e+01	0	34	104	1062207488	58	22560
2026-01-28 04:04:55.51	332.87	4.46	-44.2	-60.9	3.5	3.03e+01	0	34	104	1062207488	60	42601
2026-01-28 04:04:56.52	332.97	4.40	-43.7	-58.3	3.5	3.03e+01	0	34	104	1062207488	60	31514
2026-01-28 04:04:57.53	333.06	4.34	-44.1	-58.8	3.5	3.03e+01	0	34	104	1062207488	60	33564
2026-01-28 04:04:58.54	333.16	4.28	-44.2	-59.6	3.5	3.03e+01	0	34	104	1062207488	60	36810
2026-01-28 04:04:59.55	333.25	4.22	-44.2	-60.3	3.5	3.03e+01	0	34	104	1062207488	60	39894
2026-01-28 04:05:00.56	333.35	4.16	-44.2	-61.0	3.5	3.03e+01	0	34	104	1062207488	60	43245
2026-01-28 04:05:01.57	333.45	4.10	-44.2	-61.3	3.5	3.03e+01	0	34	104	1062207488	60	44678
2026-01-28 04:05:02.58	333.54	4.04	-44.2	-61.8	3.5	3.03e+01	0	34	104	1062207488	60	47441
2026-01-28 04:05:03.59	333.63	3.98	-44.3	-62.1	3.5	3.03e+01	0	34	104	1062207488	60	49184
2026-01-28 04:05:04.60	333.73	3.92	-44.3	-62.0	3.5	3.03e+01	0	34	104	1062207488	60	48346
2026-01-28 04:05:05.61	333.82	3.86	-44.3	-62.1	3.5	3.03e+01	0	34	104	1062207488	60	49227
2026-01-28 04:05:06.62	333.91	3.80	-44.3	-62.1	3.5	3.03e+01	0	34	104	1062207488	60	49134
2026-01-28 04:05:07.63	334.01	3.74	-44.3	-62.2	3.5	3.03e+01	0	34	104	1062207488	60	49845
2026-01-28 04:05:08.64	334.10	3.69	-44.3	-62.2	3.5	3.03e+01	0	34	104	1062207488	60	49469
2026-01-28 04:05:09.65	334.19	3.63	-44.4	-62.3	3.5	3.03e+01	0	34	104	1062207488	60	49881
2026-01-28 04:05:10.66	334.28	3.57	-44.3	-62.2	3.5	3.03e+01	0	34	104	1062207488	60	49749
2026-01-28 04:05:11.67	334.37	3.51	-44.3	-62.2	3.5	3.03e+01	0	34	104	1062207488	60	49772
2026-01-28 04:05:12.68	334.46	3.45	-44.4	-62.2	3.5	3.03e+01	0	34	104	1062207488	60	49706
2026-01-28 04:05:13.69	334.55	3.39	-44.4	-62.3	3.5	3.03e+01	0	34	104	1062207488	60	50185
2026-01-28 04:05:14.70	334.64	3.33	-44.4	-62.2	3.5	3.03e+01	0	34	104	1062207488	60	49797
2026-01-28 04:05:15.71	334.73	3.27	-44.3	-62.2	3.5	3.03e+01	0	34	104	1062207488	60	49454
2026-01-28 04:05:16.72	334.82	3.22	-44.4	-62.3	3.5	3.03e+01	0	34	104	1062207488	60	50046
