passes_logs/2026/01/28/R4.6S_Anadyr/R4.6S_Anadyr__20260128_001459_SUOMI_NPP_rec.log

#Pass ID: 20260128_001459_SUOMI NPP
#Satellite: SUOMI NPP
#Configuration: NPP
#almurnet v.1.7.20251203
#Start time: 2026-01-28 00:15:00

#Version: 2.2.20231116
#Station: R4.6S_Anadyr
#Location: 177.4865 lon 64.73178 lat
#TLE: 1 37849U 11061A   26027.57994159  .00000179  00000+0  10588-3 0  9997
#TLE: 2 37849  98.7823 329.5210 0002100  42.0127 318.1210 14.19530762738496

#Time	Az	El	Level	Level2	SNR	BER	BlckErr	Temp	State	Recorded	gain1	gain2
2026-01-28 00:15:00.61	155.09	0.06	-48.8	-61.3	3.4	1.52e+00	0	30	0	0	60	40887
2026-01-28 00:15:01.61	155.10	0.12	-48.8	-64.0	3.6	1.51e+00	0	31	104	0	60	57319
2026-01-28 00:15:02.62	155.10	0.18	-48.8	-64.1	3.6	1.51e+00	0	31	104	0	60	57664
2026-01-28 00:15:03.63	155.10	0.25	-48.8	-64.0	3.6	1.51e+00	0	31	104	0	60	57437
2026-01-28 00:15:04.64	155.10	0.31	-48.8	-64.0	3.6	1.51e+00	0	31	104	0	60	57571
2026-01-28 00:15:05.65	155.11	0.37	-48.7	-64.1	3.6	1.51e+00	0	31	104	0	60	57704
2026-01-28 00:15:06.66	155.11	0.43	-48.9	-64.1	3.6	1.51e+00	0	31	104	0	60	57723
2026-01-28 00:15:07.67	155.11	0.49	-48.9	-64.1	3.6	1.51e+00	0	31	104	0	60	57748
2026-01-28 00:15:08.68	155.11	0.55	-48.9	-64.2	3.5	1.51e+00	0	31	104	0	60	58286
2026-01-28 00:15:09.69	155.11	0.61	-48.9	-64.1	3.6	1.51e+00	0	31	104	0	60	58234
2026-01-28 00:15:10.70	155.12	0.68	-48.9	-64.2	3.6	1.51e+00	0	31	104	0	60	58535
2026-01-28 00:15:11.71	155.12	0.74	-48.9	-64.1	3.6	1.51e+00	0	31	104	0	60	58232
2026-01-28 00:15:12.72	155.12	0.80	-48.9	-64.1	3.6	1.51e+00	0	31	104	0	60	58173
2026-01-28 00:15:13.73	155.12	0.86	-48.8	-64.1	3.6	1.51e+00	0	31	104	0	60	57745
2026-01-28 00:15:14.74	155.13	0.93	-48.7	-64.0	3.5	1.51e+00	0	31	104	0	60	57202
2026-01-28 00:15:15.75	155.13	0.99	-48.7	-64.0	3.6	1.51e+00	0	31	104	0	60	57086
2026-01-28 00:15:16.76	155.13	1.05	-48.6	-63.9	3.6	1.51e+00	0	31	104	0	60	56395
2026-01-28 00:15:17.77	155.13	1.11	-48.5	-63.8	3.6	1.51e+00	0	31	104	0	60	55700
2026-01-28 00:15:18.78	155.14	1.18	-48.4	-63.7	3.6	1.51e+00	0	31	104	0	60	55058
2026-01-28 00:15:19.79	155.14	1.24	-48.3	-63.5	3.5	1.51e+00	0	31	104	0	60	54014
2026-01-28 00:15:20.80	155.14	1.30	-47.1	-62.3	3.6	1.51e+00	0	31	104	0	60	47216
2026-01-28 00:15:21.81	155.14	1.37	-47.1	-62.4	3.6	1.51e+00	0	31	104	0	60	47619
2026-01-28 00:15:22.82	155.14	1.43	-46.5	-61.7	3.6	1.51e+00	0	31	104	0	60	43799
2026-01-28 00:15:23.83	155.15	1.49	-46.4	-61.6	3.6	1.51e+00	0	31	104	0	60	43451
2026-01-28 00:15:24.84	155.15	1.56	-46.3	-61.5	3.6	1.51e+00	0	31	104	0	60	43145
2026-01-28 00:15:25.85	155.15	1.62	-46.3	-61.6	3.6	1.51e+00	0	31	104	0	60	43277
2026-01-28 00:15:26.86	155.15	1.69	-46.3	-61.6	3.6	1.51e+00	0	31	104	0	60	43257
2026-01-28 00:15:27.87	155.16	1.75	-46.3	-61.6	3.6	1.51e+00	0	31	104	0	60	43404
2026-01-28 00:15:28.88	155.16	1.82	-46.4	-61.6	3.6	1.51e+00	0	31	104	0	60	43464
2026-01-28 00:15:29.89	155.16	1.88	-46.3	-61.6	3.6	1.51e+00	0	31	104	0	60	43240
2026-01-28 00:15:30.90	155.16	1.94	-46.3	-61.5	3.6	1.51e+00	0	31	104	0	60	42980
2026-01-28 00:15:31.91	155.16	2.01	-46.3	-61.5	3.6	1.51e+00	0	31	104	0	60	42938
2026-01-28 00:15:32.91	155.17	2.07	-46.3	-61.4	3.6	1.51e+00	0	31	104	0	60	42701
2026-01-28 00:15:33.92	155.17	2.14	-46.3	-61.6	3.6	1.51e+00	0	31	104	0	60	43301
2026-01-28 00:15:34.93	155.17	2.20	-46.3	-61.6	3.6	1.51e+00	0	31	104	0	60	43354
2026-01-28 00:15:35.94	155.17	2.27	-46.3	-61.6	3.6	1.51e+00	0	31	104	0	60	43434
2026-01-28 00:15:36.95	155.18	2.34	-46.3	-61.6	3.6	1.51e+00	0	31	104	0	60	43370
2026-01-28 00:15:37.96	155.18	2.40	-46.3	-61.6	3.6	1.51e+00	0	31	104	0	60	43640
2026-01-28 00:15:38.97	155.18	2.47	-46.3	-61.6	3.6	1.51e+00	0	31	104	0	60	43619
2026-01-28 00:15:39.98	155.18	2.53	-46.3	-61.5	3.6	1.51e+00	0	31	104	0	60	42747
2026-01-28 00:15:40.99	155.18	2.60	-46.3	-61.2	3.6	1.51e+00	0	31	104	0	60	41464
2026-01-28 00:15:42.00	155.19	2.67	-46.3	-60.9	3.6	1.51e+00	0	31	104	0	60	40150
2026-01-28 00:15:43.01	155.19	2.73	-46.3	-60.4	3.6	1.51e+00	0	31	104	0	60	37761
2026-01-28 00:15:44.02	155.19	2.80	-46.3	-60.5	3.6	1.51e+00	0	31	104	0	60	38107
2026-01-28 00:15:45.03	155.19	2.87	-46.3	-60.8	3.6	1.51e+00	0	31	104	0	60	39597
2026-01-28 00:15:46.04	155.19	2.93	-46.3	-61.2	3.6	1.51e+00	0	31	104	0	60	41647
2026-01-28 00:15:47.05	155.20	3.00	-46.3	-61.5	3.6	1.51e+00	0	31	104	0	60	43178
2026-01-28 00:15:48.06	155.20	3.07	-46.3	-60.6	3.6	1.51e+00	0	31	104	0	60	38806
2026-01-28 00:15:49.07	155.20	3.14	-46.2	-59.1	3.6	1.51e+00	0	31	104	0	60	32537
2026-01-28 00:15:50.08	155.20	3.20	-46.0	-56.3	5.0	1.15e+00	0	31	104	0	60	23562
2026-01-28 00:15:51.09	155.21	3.27	-45.8	-53.8	5.9	6.41e-01	0	31	0	1048576	60	17755
2026-01-28 00:15:52.10	155.21	3.34	-45.8	-53.5	6.2	2.56e-01	0	31	0	3145728	60	17061
2026-01-28 00:15:53.12	155.21	3.41	-45.4	-52.0	7.5	1.41e-01	0	31	0	5242880	60	14353
2026-01-28 00:15:54.12	155.21	3.48	-45.4	-51.7	8.1	8.54e-02	0	31	0	7340032	60	13851
2026-01-28 00:15:55.13	155.21	3.54	-45.3	-51.6	8.2	5.77e-02	0	31	0	8388608	60	13725
2026-01-28 00:15:56.14	155.22	3.61	-45.3	-51.6	8.3	3.92e-02	0	31	0	10485760	60	13751
2026-01-28 00:15:57.15	155.22	3.68	-45.2	-51.3	8.6	5.44e-02	0	31	0	12582912	60	13211
2026-01-28 00:15:58.17	155.22	3.75	-45.4	-51.9	7.6	3.63e-02	0	31	0	14680064	60	14179
2026-01-28 00:15:59.17	155.22	3.82	-46.2	-60.5	3.6	1.50e+00	0	31	104	15728640	60	38108
2026-01-28 00:16:00.18	155.22	3.89	-46.2	-57.6	4.3	1.50e+00	50	31	104	15728640	60	27412
2026-01-28 00:16:01.19	155.23	3.96	-46.3	-60.9	3.6	5.11e-01	0	32	104	15728640	60	40225
2026-01-28 00:16:02.20	155.23	4.03	-44.8	-49.7	10.8	1.22e+00	0	31	104	15728640	60	11088
2026-01-28 00:16:03.21	155.23	4.10	-46.2	-61.3	3.6	1.22e+00	0	31	104	15728640	60	41962
2026-01-28 00:16:04.22	155.23	4.17	-44.8	-49.8	10.7	1.45e+00	0	31	104	15728640	60	11220
2026-01-28 00:16:05.23	155.24	4.24	-44.8	-49.6	10.7	3.04e-03	0	31	0	16777216	60	10943
2026-01-28 00:16:06.24	155.24	4.31	-44.8	-49.6	10.9	2.44e-03	0	32	0	17825792	60	10897
2026-01-28 00:16:07.25	155.24	4.38	-44.7	-49.3	10.9	2.99e-03	0	31	0	19922944	60	10578
2026-01-28 00:16:08.26	155.24	4.45	-44.9	-49.9	10.5	3.64e-03	0	31	0	22020096	60	11304
2026-01-28 00:16:09.27	155.24	4.52	-44.6	-49.3	11.0	2.38e-03	0	32	0	24117248	60	10538
2026-01-28 00:16:10.28	155.25	4.59	-44.8	-49.7	10.6	4.12e-03	0	32	0	26214400	60	11103
2026-01-28 00:16:11.29	155.25	4.67	-44.7	-49.4	10.9	4.35e-03	0	31	0	27262976	60	10724
2026-01-28 00:16:12.30	155.25	4.74	-44.8	-49.5	11.1	2.01e-03	0	32	0	29360128	60	10817
2026-01-28 00:16:13.31	155.25	4.81	-45.0	-50.1	10.2	3.14e-03	0	31	0	31457280	60	11497
2026-01-28 00:16:14.32	155.25	4.88	-44.7	-49.3	11.0	2.42e-03	0	31	0	33554432	60	10558
2026-01-28 00:16:15.33	155.26	4.95	-44.8	-49.6	10.8	1.99e-03	0	31	0	35651584	60	10854
2026-01-28 00:16:16.34	155.26	5.03	-44.8	-49.3	11.3	1.50e-03	0	32	0	36700160	60	10522
2026-01-28 00:16:17.35	155.26	5.10	-44.8	-49.3	11.3	1.16e-03	0	32	0	38797312	60	10551
2026-01-28 00:16:18.36	155.26	5.17	-44.6	-48.8	11.8	8.12e-04	0	31	0	40894464	60	9946
2026-01-28 00:16:19.37	155.26	5.24	-44.7	-49.0	11.8	4.60e-04	0	31	0	42991616	60	10183
2026-01-28 00:16:20.38	155.27	5.32	-44.7	-48.9	11.7	4.35e-04	0	31	0	45088768	60	10122
2026-01-28 00:16:21.39	155.27	5.39	-44.6	-48.7	12.0	3.59e-04	0	31	0	46137344	60	9881
2026-01-28 00:16:22.40	155.27	5.46	-44.6	-48.7	12.1	3.75e-04	0	32	0	48234496	60	9879
2026-01-28 00:16:23.41	155.27	5.54	-44.5	-48.5	12.3	3.15e-04	0	32	0	50331648	60	9629
2026-01-28 00:16:24.42	155.27	5.61	-44.5	-48.5	12.6	2.68e-04	0	32	0	52428800	60	9577
2026-01-28 00:16:25.43	155.28	5.69	-44.5	-48.5	12.3	1.15e-04	0	32	0	54525952	60	9568
2026-01-28 00:16:26.44	155.28	5.76	-44.5	-48.3	12.3	2.17e-04	0	32	0	55574528	60	9451
2026-01-28 00:16:27.45	155.28	5.84	-44.5	-48.3	12.6	2.03e-04	0	32	0	57671680	60	9367
2026-01-28 00:16:28.46	155.28	5.91	-44.4	-48.2	12.7	1.18e-04	0	32	0	59768832	60	9341
2026-01-28 00:16:29.47	155.28	5.99	-44.6	-48.6	12.4	1.16e-04	0	32	0	61865984	60	9698
2026-01-28 00:16:30.48	155.29	6.06	-44.4	-48.3	12.7	6.25e-05	0	32	0	63963136	60	9422
2026-01-28 00:16:31.49	155.29	6.14	-44.4	-48.2	12.8	7.09e-05	0	31	0	65011712	60	9301
2026-01-28 00:16:32.50	155.29	6.21	-44.3	-48.1	12.9	5.79e-05	0	32	0	67108864	60	9132
2026-01-28 00:16:33.51	155.29	6.29	-44.3	-47.8	13.3	4.19e-05	0	31	0	69206016	60	8896
2026-01-28 00:16:34.52	155.29	6.36	-44.5	-48.1	12.9	3.12e-05	0	32	0	71303168	60	9227
2026-01-28 00:16:35.53	155.29	6.44	-44.3	-47.9	13.1	3.43e-05	0	32	0	73400320	60	8975
2026-01-28 00:16:36.54	155.30	6.52	-44.1	-47.5	13.3	1.83e-05	0	31	0	75497472	60	8610
2026-01-28 00:16:37.55	155.30	6.59	-44.2	-47.7	13.5	1.67e-05	0	32	0	76546048	60	8749
2026-01-28 00:16:38.56	155.30	6.67	-43.9	-47.2	13.9	2.20e-06	0	32	0	78643200	60	8240
2026-01-28 00:16:39.57	155.30	6.75	-43.9	-47.2	14.0	5.30e-06	0	32	0	80740352	60	8234
2026-01-28 00:16:40.58	155.30	6.83	-44.0	-47.3	13.9	6.80e-06	0	32	0	82837504	60	8365
2026-01-28 00:16:41.58	155.31	6.90	-44.0	-47.2	13.8	3.80e-06	0	32	0	84934656	60	8319
2026-01-28 00:16:42.60	155.31	6.98	-44.1	-47.5	13.6	6.10e-06	0	32	0	85983232	60	8544
2026-01-28 00:16:43.61	155.31	7.06	-43.9	-47.1	14.0	1.52e-05	0	32	0	88080384	60	8186
2026-01-28 00:16:44.62	155.31	7.14	-43.8	-46.9	14.0	1.50e-06	0	32	0	90177536	60	7976
2026-01-28 00:16:45.63	155.31	7.22	-43.9	-47.2	14.0	2.20e-06	0	32	0	92274688	60	8234
2026-01-28 00:16:46.64	155.32	7.30	-43.9	-47.0	14.1	0.00e+00	0	32	0	94371840	60	8105
2026-01-28 00:16:47.65	155.32	7.38	-44.0	-47.2	13.9	0.00e+00	0	32	0	95420416	60	8288
2026-01-28 00:16:48.66	155.32	7.46	-43.8	-46.8	14.3	3.00e-06	0	32	0	97517568	60	7947
2026-01-28 00:16:49.67	155.32	7.54	-43.8	-46.9	14.3	7.00e-07	0	32	0	99614720	60	7964
2026-01-28 00:16:50.68	155.32	7.62	-44.0	-47.2	14.1	2.20e-06	0	32	0	101711872	60	8253
2026-01-28 00:16:51.69	155.32	7.70	-43.8	-46.9	14.4	0.00e+00	0	32	0	103809024	60	7961
2026-01-28 00:16:52.70	155.33	7.78	-43.9	-47.1	14.2	0.00e+00	0	32	0	104857600	60	8144
2026-01-28 00:16:53.71	155.33	7.86	-44.0	-47.1	14.2	1.50e-06	0	32	0	106954752	60	8182
2026-01-28 00:16:54.72	155.33	7.94	-44.0	-47.3	13.9	3.00e-06	0	32	0	109051904	60	8357
2026-01-28 00:16:55.73	155.33	8.02	-44.1	-47.4	13.7	2.20e-06	0	32	0	111149056	60	8507
2026-01-28 00:16:56.74	155.33	8.10	-44.0	-47.2	14.0	9.10e-06	0	32	0	113246208	60	8314
2026-01-28 00:16:57.75	155.34	8.18	-44.1	-47.3	14.0	1.50e-06	0	32	0	114294784	60	8392
2026-01-28 00:16:58.76	155.34	8.27	-44.1	-47.4	13.8	3.00e-06	0	32	0	116391936	60	8434
2026-01-28 00:16:59.77	155.34	8.35	-43.8	-46.9	14.4	1.50e-06	0	32	0	118489088	60	7986
2026-01-28 00:17:00.78	155.34	8.43	-43.9	-46.9	14.3	1.50e-06	0	32	0	120586240	60	7986
2026-01-28 00:17:01.79	155.34	8.51	-43.8	-46.7	14.4	2.20e-06	0	32	0	122683392	60	7850
2026-01-28 00:17:02.80	155.34	8.60	-43.7	-46.6	14.6	0.00e+00	0	32	0	123731968	60	7698
2026-01-28 00:17:03.80	155.35	8.68	-43.6	-46.6	14.6	0.00e+00	0	32	0	125829120	60	7708
2026-01-28 00:17:04.81	155.35	8.76	-43.6	-46.4	14.7	0.00e+00	0	32	0	127926272	60	7576
2026-01-28 00:17:05.82	155.35	8.85	-43.6	-46.5	14.7	0.00e+00	0	32	0	130023424	60	7644
2026-01-28 00:17:06.83	155.35	8.93	-43.7	-46.7	14.6	7.00e-07	0	32	0	132120576	60	7791
2026-01-28 00:17:07.84	155.35	9.02	-43.6	-46.5	14.6	7.00e-07	0	32	0	133169152	60	7642
2026-01-28 00:17:08.85	155.35	9.10	-43.6	-46.5	14.6	0.00e+00	0	32	0	135266304	60	7626
2026-01-28 00:17:09.86	155.36	9.19	-43.7	-46.6	14.5	7.00e-07	0	32	0	137363456	60	7766
2026-01-28 00:17:10.87	155.36	9.27	-43.8	-46.9	14.2	1.50e-06	0	32	0	139460608	60	7997
2026-01-28 00:17:11.88	155.36	9.36	-43.9	-47.1	14.1	2.20e-06	0	32	0	141557760	60	8179
2026-01-28 00:17:12.89	155.36	9.44	-43.9	-46.9	14.4	1.50e-06	0	32	0	143654912	60	8031
2026-01-28 00:17:13.90	155.36	9.53	-43.7	-46.6	14.5	0.00e+00	0	32	0	144703488	60	7763
2026-01-28 00:17:14.91	155.36	9.62	-43.8	-46.8	14.4	0.00e+00	0	32	0	146800640	60	7951
2026-01-28 00:17:15.92	155.37	9.70	-43.7	-46.7	14.6	0.00e+00	0	32	0	148897792	60	7800
2026-01-28 00:17:16.93	155.37	9.79	-43.7	-46.7	14.6	0.00e+00	0	32	0	150994944	60	7781
2026-01-28 00:17:17.94	155.37	9.88	-43.6	-46.4	15.0	7.00e-07	0	32	0	153092096	60	7540
2026-01-28 00:17:18.95	155.37	9.97	-43.7	-46.5	15.0	1.50e-06	0	32	0	154140672	60	7650
2026-01-28 00:17:19.96	155.37	10.05	-43.7	-46.6	15.0	0.00e+00	0	32	0	156237824	60	7699
2026-01-28 00:17:20.97	155.37	10.14	-43.2	-45.8	15.6	0.00e+00	0	32	0	158334976	60	7031
2026-01-28 00:17:21.97	155.37	10.23	-43.1	-45.6	15.9	0.00e+00	0	32	0	160432128	60	6878
2026-01-28 00:17:22.98	155.38	10.32	-43.2	-45.7	15.9	0.00e+00	0	32	0	162529280	60	6957
2026-01-28 00:17:23.99	155.38	10.41	-43.0	-45.4	16.2	0.00e+00	0	32	0	163577856	60	6747
2026-01-28 00:17:25.00	155.38	10.50	-42.9	-45.2	16.3	0.00e+00	0	32	0	165675008	60	6567
2026-01-28 00:17:26.01	155.38	10.59	-42.8	-45.0	16.4	0.00e+00	0	32	0	167772160	58	7239
2026-01-28 00:17:27.02	155.38	10.68	-42.6	-44.8	16.6	0.00e+00	0	32	0	169869312	58	7072
2026-01-28 00:17:28.03	155.38	10.77	-42.7	-44.9	16.6	0.00e+00	0	32	0	171966464	58	7146
2026-01-28 00:17:29.04	155.38	10.86	-42.7	-44.9	16.7	0.00e+00	0	32	0	173015040	58	7111
2026-01-28 00:17:30.05	155.39	10.95	-42.6	-44.8	16.7	0.00e+00	0	32	0	175112192	58	7027
2026-01-28 00:17:31.06	155.39	11.05	-42.5	-44.6	16.8	0.00e+00	0	32	0	177209344	58	6898
2026-01-28 00:17:32.07	155.39	11.14	-42.7	-44.9	16.6	0.00e+00	0	32	0	179306496	58	7117
2026-01-28 00:17:33.08	155.39	11.23	-42.6	-44.8	16.6	0.00e+00	0	32	0	181403648	58	7077
2026-01-28 00:17:34.09	155.39	11.32	-42.5	-44.7	16.9	0.00e+00	0	32	0	182452224	58	6931
2026-01-28 00:17:35.09	155.39	11.42	-42.6	-44.7	16.8	0.00e+00	0	32	0	184549376	58	6999
2026-01-28 00:17:36.11	155.39	11.51	-42.5	-44.7	16.9	0.00e+00	0	32	0	186646528	58	6935
2026-01-28 00:17:37.11	155.40	11.60	-42.4	-44.5	17.1	0.00e+00	0	32	0	188743680	58	6785
2026-01-28 00:17:38.12	155.40	11.70	-42.4	-44.5	17.0	0.00e+00	0	32	0	190840832	58	6832
2026-01-28 00:17:39.13	155.40	11.79	-42.3	-44.4	17.1	0.00e+00	0	32	0	191889408	58	6720
2026-01-28 00:17:40.14	155.40	11.89	-42.3	-44.3	17.2	0.00e+00	0	32	0	193986560	58	6676
2026-01-28 00:17:41.15	155.40	11.98	-42.3	-44.3	17.1	0.00e+00	0	32	0	196083712	58	6677
2026-01-28 00:17:42.16	155.40	12.08	-42.4	-44.5	17.0	0.00e+00	0	32	0	198180864	58	6785
2026-01-28 00:17:43.17	155.40	12.17	-42.3	-44.3	17.2	0.00e+00	0	32	0	200278016	58	6626
2026-01-28 00:17:44.18	155.41	12.27	-42.3	-44.3	17.2	0.00e+00	0	32	0	201326592	58	6662
2026-01-28 00:17:45.19	155.41	12.37	-42.5	-44.6	16.9	0.00e+00	0	32	0	203423744	58	6892
2026-01-28 00:17:46.20	155.41	12.47	-42.4	-44.5	17.1	0.00e+00	0	32	0	205520896	58	6774
2026-01-28 00:17:47.21	155.41	12.56	-42.2	-44.2	17.3	0.00e+00	0	32	0	207618048	58	6592
2026-01-28 00:17:48.22	155.41	12.66	-42.2	-44.2	17.4	0.00e+00	0	32	0	209715200	58	6545
2026-01-28 00:17:49.23	155.41	12.76	-42.2	-44.2	17.2	0.00e+00	0	32	0	211812352	58	6576
2026-01-28 00:17:50.24	155.41	12.86	-42.3	-44.3	17.2	0.00e+00	0	32	0	212860928	58	6688
2026-01-28 00:17:51.25	155.41	12.96	-42.1	-44.1	17.3	0.00e+00	0	32	0	214958080	58	6513
2026-01-28 00:17:52.26	155.41	13.06	-42.2	-44.2	17.0	0.00e+00	0	32	0	217055232	58	6611
2026-01-28 00:17:53.27	155.42	13.16	-42.2	-44.3	17.1	0.00e+00	0	32	0	219152384	58	6626
2026-01-28 00:17:54.28	155.42	13.26	-42.2	-44.3	17.1	0.00e+00	0	32	0	221249536	58	6630
2026-01-28 00:17:55.29	155.42	13.36	-42.2	-44.2	17.1	0.00e+00	0	32	0	222298112	58	6608
2026-01-28 00:17:56.30	155.42	13.46	-42.1	-44.1	17.3	0.00e+00	0	32	0	224395264	58	6512
2026-01-28 00:17:57.31	155.42	13.56	-42.0	-44.0	17.5	0.00e+00	0	32	0	226492416	58	6397
2026-01-28 00:17:58.32	155.42	13.67	-42.1	-44.1	17.3	0.00e+00	0	32	0	228589568	58	6503
2026-01-28 00:17:59.33	155.42	13.77	-42.0	-43.9	17.5	0.00e+00	0	32	0	230686720	58	6361
2026-01-28 00:18:00.34	155.42	13.87	-42.0	-44.0	17.5	0.00e+00	0	32	0	231735296	58	6403
2026-01-28 00:18:01.35	155.42	13.97	-41.9	-43.8	17.7	0.00e+00	0	32	0	233832448	58	6269
2026-01-28 00:18:02.35	155.43	14.08	-41.8	-43.6	18.0	0.00e+00	0	32	0	235929600	56	6912
2026-01-28 00:18:03.36	155.43	14.18	-41.8	-43.5	18.1	0.00e+00	0	32	0	238026752	56	6840
2026-01-28 00:18:04.37	155.43	14.29	-41.7	-43.4	18.2	0.00e+00	0	32	0	240123904	56	6753
2026-01-28 00:18:05.38	155.43	14.39	-41.6	-43.3	18.3	0.00e+00	0	32	0	241172480	56	6663
2026-01-28 00:18:06.39	155.43	14.50	-41.6	-43.4	18.1	0.00e+00	0	32	0	243269632	56	6767
2026-01-28 00:18:07.40	155.43	14.60	-41.4	-43.1	18.5	0.00e+00	0	32	0	245366784	56	6495
2026-01-28 00:18:08.41	155.43	14.71	-41.4	-43.2	18.5	0.00e+00	0	32	0	247463936	56	6574
2026-01-28 00:18:09.42	155.43	14.82	-41.4	-43.1	18.5	0.00e+00	0	32	0	249561088	56	6539
2026-01-28 00:18:10.43	155.43	14.93	-41.4	-43.1	18.6	0.00e+00	0	32	0	250609664	56	6500
2026-01-28 00:18:11.44	155.43	15.03	-41.4	-43.1	18.5	0.00e+00	0	32	0	252706816	56	6529
2026-01-28 00:18:12.45	155.43	15.14	-41.4	-43.1	18.5	0.00e+00	0	32	0	254803968	56	6502
2026-01-28 00:18:13.46	155.44	15.25	-41.3	-43.0	18.6	0.00e+00	0	32	0	256901120	56	6431
2026-01-28 00:18:14.47	155.44	15.36	-41.3	-43.1	18.5	0.00e+00	0	32	0	258998272	56	6475
2026-01-28 00:18:15.48	155.44	15.47	-41.3	-43.0	18.7	0.00e+00	0	32	0	260046848	56	6422
2026-01-28 00:18:16.49	155.44	15.58	-41.4	-43.0	18.6	0.00e+00	0	32	0	262144000	56	6455
2026-01-28 00:18:17.50	155.44	15.69	-41.5	-43.1	18.5	0.00e+00	0	32	0	264241152	56	6524
2026-01-28 00:18:18.51	155.44	15.81	-41.2	-42.9	18.8	0.00e+00	0	32	0	266338304	56	6331
2026-01-28 00:18:19.52	155.44	15.92	-41.2	-42.9	18.8	0.00e+00	0	32	0	268435456	56	6320
2026-01-28 00:18:20.53	155.44	16.03	-41.2	-42.8	18.9	0.00e+00	0	32	0	269484032	56	6283
2026-01-28 00:18:21.54	155.44	16.14	-41.2	-42.8	18.9	0.00e+00	0	32	0	271581184	56	6312
2026-01-28 00:18:22.55	155.44	16.26	-41.3	-42.9	18.8	0.00e+00	0	32	0	273678336	56	6367
2026-01-28 00:18:23.55	155.44	16.37	-41.1	-42.7	18.8	0.00e+00	0	32	0	275775488	56	6222
2026-01-28 00:18:24.56	155.44	16.48	-41.1	-42.7	18.9	0.00e+00	0	32	0	277872640	56	6237
2026-01-28 00:18:25.58	155.44	16.60	-41.2	-42.8	18.7	0.00e+00	0	32	0	279969792	56	6281
2026-01-28 00:18:26.59	155.44	16.72	-41.0	-42.6	19.0	0.00e+00	0	32	0	281018368	56	6146
2026-01-28 00:18:27.59	155.45	16.83	-41.1	-42.8	18.6	0.00e+00	0	32	0	283115520	56	6249
2026-01-28 00:18:28.61	155.45	16.95	-41.1	-42.8	18.6	0.00e+00	0	32	0	285212672	56	6281
2026-01-28 00:18:29.61	155.45	17.07	-41.0	-42.7	18.6	0.00e+00	0	32	0	287309824	56	6206
2026-01-28 00:18:30.62	155.45	17.19	-41.1	-42.8	18.6	0.00e+00	0	32	0	289406976	56	6315
2026-01-28 00:18:31.63	155.45	17.30	-41.1	-42.9	18.5	0.00e+00	0	32	0	290455552	56	6318
2026-01-28 00:18:32.64	155.45	17.42	-41.0	-42.7	18.6	0.00e+00	0	32	0	292552704	56	6209
2026-01-28 00:18:33.65	155.45	17.54	-41.1	-42.7	18.6	0.00e+00	0	32	0	294649856	56	6243
2026-01-28 00:18:34.66	155.45	17.66	-40.9	-42.5	18.8	0.00e+00	0	32	0	296747008	56	6087
2026-01-28 00:18:35.67	155.45	17.78	-40.8	-42.4	18.9	0.00e+00	0	32	0	298844160	54	6698
2026-01-28 00:18:36.68	155.45	17.91	-40.5	-42.0	19.2	0.00e+00	0	32	0	299892736	54	6457
2026-01-28 00:18:37.69	155.45	18.03	-40.3	-41.8	19.6	0.00e+00	0	32	0	301989888	54	6270
2026-01-28 00:18:38.70	155.45	18.15	-40.0	-41.3	20.1	0.00e+00	0	32	0	304087040	54	5955
2026-01-28 00:18:39.70	155.45	18.27	-39.7	-41.0	20.5	0.00e+00	0	32	0	306184192	52	6437
2026-01-28 00:18:40.71	155.45	18.40	-39.5	-40.8	20.9	0.00e+00	0	32	0	308281344	52	6257
2026-01-28 00:18:41.72	155.45	18.52	-39.3	-40.4	21.2	0.00e+00	0	32	0	309329920	52	6033
2026-01-28 00:18:42.73	155.45	18.65	-39.0	-40.1	21.7	0.00e+00	0	32	0	311427072	52	5811
2026-01-28 00:18:43.74	155.45	18.77	-38.8	-39.9	21.8	0.00e+00	0	32	0	313524224	52	5675
2026-01-28 00:18:44.75	155.45	18.90	-38.8	-39.9	21.8	0.00e+00	0	32	0	315621376	50	6338
2026-01-28 00:18:45.76	155.45	19.03	-38.3	-39.3	22.4	0.00e+00	0	32	0	317718528	50	5932
2026-01-28 00:18:46.77	155.45	19.16	-38.4	-39.4	22.4	0.00e+00	0	32	0	318767104	50	6002
2026-01-28 00:18:47.78	155.45	19.28	-37.9	-38.8	22.9	0.00e+00	0	32	0	320864256	50	5610
2026-01-28 00:18:48.79	155.45	19.41	-37.8	-38.7	22.9	0.00e+00	0	32	0	322961408	48	6220
2026-01-28 00:18:49.80	155.45	19.54	-37.6	-38.6	23.1	0.00e+00	0	32	0	325058560	48	6128
2026-01-28 00:18:50.81	155.45	19.67	-37.6	-38.5	23.1	0.00e+00	0	32	0	327155712	48	6101
2026-01-28 00:18:51.82	155.45	19.81	-37.5	-38.4	23.2	0.00e+00	0	32	0	328204288	48	6023
2026-01-28 00:18:52.83	155.45	19.94	-37.6	-38.5	23.3	0.00e+00	0	32	0	330301440	48	6098
2026-01-28 00:18:53.84	155.45	20.07	-37.7	-38.6	23.1	0.00e+00	0	32	0	332398592	48	6129
2026-01-28 00:18:54.85	155.45	20.20	-37.5	-38.4	23.3	0.00e+00	0	32	0	334495744	48	6005
2026-01-28 00:18:55.86	155.45	20.34	-37.4	-38.2	23.5	0.00e+00	0	32	0	336592896	48	5888
2026-01-28 00:18:56.87	155.45	20.47	-37.5	-38.4	23.3	0.00e+00	0	32	0	337641472	48	5991
2026-01-28 00:18:57.88	155.45	20.61	-37.5	-38.4	23.3	0.00e+00	0	32	0	339738624	48	6012
2026-01-28 00:18:58.89	155.45	20.75	-37.0	-37.9	23.6	0.00e+00	0	32	0	341835776	48	5651
2026-01-28 00:18:59.90	155.45	20.88	-37.0	-37.9	23.6	0.00e+00	0	32	0	343932928	48	5669
2026-01-28 00:19:00.91	155.45	21.02	-37.1	-38.0	23.5	0.00e+00	0	32	0	346030080	48	5736
2026-01-28 00:19:01.92	155.45	21.16	-36.9	-37.7	23.8	0.00e+00	0	32	0	348127232	48	5558
2026-01-28 00:19:02.93	155.45	21.30	-37.0	-37.9	23.7	0.00e+00	0	32	0	349175808	48	5639
2026-01-28 00:19:03.94	155.45	21.44	-36.8	-37.6	23.9	0.00e+00	0	32	0	351272960	48	5484
2026-01-28 00:19:04.95	155.45	21.58	-36.9	-37.8	23.8	0.00e+00	0	32	0	353370112	48	5581
2026-01-28 00:19:05.96	155.45	21.72	-36.9	-37.8	23.8	0.00e+00	0	32	0	355467264	48	5602
2026-01-28 00:19:06.96	155.45	21.86	-36.8	-37.7	23.9	0.00e+00	0	32	0	356515840	48	5514
2026-01-28 00:19:07.97	155.45	22.01	-36.8	-37.7	23.8	0.00e+00	0	32	0	358612992	48	5533
2026-01-28 00:19:08.99	155.45	22.15	-36.9	-37.8	23.8	0.00e+00	0	32	0	360710144	48	5586
2026-01-28 00:19:10.00	155.44	22.30	-37.0	-37.8	23.9	0.00e+00	0	32	0	362807296	48	5627
2026-01-28 00:19:11.00	155.44	22.44	-36.9	-37.7	23.8	0.00e+00	0	32	0	364904448	48	5538
2026-01-28 00:19:12.02	155.44	22.59	-36.9	-37.7	23.9	0.00e+00	0	32	0	365953024	48	5533
2026-01-28 00:19:13.03	155.44	22.74	-37.0	-37.9	23.8	0.00e+00	0	32	0	368050176	48	5635
2026-01-28 00:19:14.04	155.44	22.88	-37.0	-37.9	23.7	0.00e+00	0	32	0	370147328	48	5655
2026-01-28 00:19:15.05	155.44	23.03	-36.7	-37.6	24.0	0.00e+00	0	32	0	372244480	48	5460
2026-01-28 00:19:16.05	155.44	23.18	-36.8	-37.6	24.1	0.00e+00	0	32	0	374341632	46	6136
2026-01-28 00:19:17.07	155.44	23.33	-36.8	-37.6	23.9	0.00e+00	0	32	0	376438784	46	6170
2026-01-28 00:19:18.08	155.44	23.49	-36.6	-37.5	24.0	0.00e+00	0	32	0	377487360	46	6043
2026-01-28 00:19:19.08	155.44	23.64	-36.6	-37.5	24.1	0.00e+00	0	32	0	379584512	46	6037
2026-01-28 00:19:20.09	155.44	23.79	-36.6	-37.5	24.0	0.00e+00	0	32	0	381681664	46	6047
2026-01-28 00:19:21.10	155.43	23.95	-36.7	-37.6	24.0	0.00e+00	0	32	0	383778816	46	6118
2026-01-28 00:19:22.11	155.43	24.10	-36.7	-37.6	24.0	0.00e+00	0	32	0	385875968	46	6108
2026-01-28 00:19:23.12	155.43	24.26	-36.8	-37.6	23.9	0.00e+00	0	32	0	386924544	46	6148
2026-01-28 00:19:24.13	155.43	24.42	-36.8	-37.7	23.9	0.00e+00	0	32	0	389021696	46	6186
2026-01-28 00:19:25.14	155.43	24.57	-37.0	-37.9	23.7	0.00e+00	0	32	0	391118848	46	6375
2026-01-28 00:19:26.15	155.43	24.73	-37.1	-37.9	23.7	0.00e+00	0	32	0	393216000	46	6385
2026-01-28 00:19:27.16	155.43	24.89	-37.1	-38.0	23.8	0.00e+00	0	32	0	395313152	46	6413
2026-01-28 00:19:28.17	155.43	25.05	-37.1	-37.9	23.7	0.00e+00	0	32	0	396361728	46	6388
2026-01-28 00:19:29.18	155.42	25.22	-37.0	-37.8	23.9	0.00e+00	0	32	0	398458880	46	6298
2026-01-28 00:19:30.19	155.42	25.38	-37.1	-37.9	23.8	0.00e+00	0	32	0	400556032	46	6375
2026-01-28 00:19:31.19	155.42	25.54	-36.8	-37.6	23.9	0.00e+00	0	32	0	402653184	46	6131
2026-01-28 00:19:32.20	155.42	25.71	-36.7	-37.6	24.0	0.00e+00	0	32	0	404750336	46	6118
2026-01-28 00:19:33.21	155.42	25.87	-37.0	-37.9	23.8	0.00e+00	0	32	0	405798912	46	6319
2026-01-28 00:19:34.22	155.42	26.04	-36.9	-37.8	23.8	0.00e+00	0	32	0	407896064	46	6293
2026-01-28 00:19:35.23	155.41	26.21	-37.0	-37.9	23.7	0.00e+00	0	32	0	409993216	46	6347
2026-01-28 00:19:36.24	155.41	26.38	-37.5	-38.4	23.5	0.00e+00	0	32	0	412090368	46	6757
2026-01-28 00:19:37.25	155.41	26.55	-37.6	-38.5	23.3	0.00e+00	0	32	0	414187520	46	6814
2026-01-28 00:19:38.26	155.41	26.72	-37.7	-38.7	23.2	0.00e+00	0	32	0	415236096	48	6203
2026-01-28 00:19:39.27	155.41	26.89	-38.3	-39.3	22.7	0.00e+00	0	32	0	417333248	48	6659
2026-01-28 00:19:40.28	155.40	27.07	-38.4	-39.4	22.6	0.00e+00	0	32	0	419430400	48	6740
2026-01-28 00:19:41.29	155.40	27.24	-38.8	-39.9	22.2	0.00e+00	0	32	0	421527552	50	6347
2026-01-28 00:19:42.30	155.40	27.42	-38.6	-39.7	22.5	0.00e+00	0	32	0	423624704	50	6199
2026-01-28 00:19:43.31	155.40	27.59	-38.7	-39.8	22.3	0.00e+00	0	32	0	424673280	50	6270
2026-01-28 00:19:44.32	155.40	27.77	-39.0	-40.1	22.2	0.00e+00	0	32	0	426770432	50	6479
2026-01-28 00:19:45.33	155.39	27.95	-38.8	-39.9	22.2	0.00e+00	0	32	0	428867584	50	6350
2026-01-28 00:19:46.34	155.39	28.13	-38.4	-39.5	22.6	0.00e+00	0	32	0	430964736	50	6037
2026-01-28 00:19:47.35	155.39	28.32	-39.0	-40.1	22.3	0.00e+00	0	32	0	433061888	50	6476
2026-01-28 00:19:48.36	155.39	28.50	-38.9	-40.0	22.2	0.00e+00	0	32	0	434110464	50	6405
2026-01-28 00:19:49.37	155.38	28.68	-39.3	-40.4	21.8	0.00e+00	0	32	0	436207616	50	6694
2026-01-28 00:19:50.38	155.38	28.87	-39.0	-40.0	22.0	0.00e+00	0	32	0	438304768	50	6459
2026-01-28 00:19:51.39	155.38	29.05	-39.1	-40.2	21.9	0.00e+00	0	32	0	440401920	50	6569
2026-01-28 00:19:52.40	155.37	29.24	-39.5	-40.6	21.8	0.00e+00	0	32	0	442499072	52	6141
2026-01-28 00:19:53.41	155.37	29.43	-39.5	-40.7	21.7	0.00e+00	0	32	0	444596224	52	6181
2026-01-28 00:19:54.42	155.37	29.62	-39.6	-40.7	21.6	0.00e+00	0	32	0	445644800	52	6214
2026-01-28 00:19:55.43	155.36	29.81	-39.4	-40.5	21.8	0.00e+00	0	32	0	447741952	52	6088
2026-01-28 00:19:56.44	155.36	30.01	-39.3	-40.3	21.9	0.00e+00	0	32	0	449839104	52	5961
2026-01-28 00:19:57.45	155.36	30.20	-39.6	-40.7	21.6	0.00e+00	0	32	0	451936256	52	6210
2026-01-28 00:19:58.46	155.35	30.40	-39.3	-40.4	21.8	0.00e+00	0	32	0	454033408	52	6007
2026-01-28 00:19:59.47	155.35	30.59	-39.2	-40.3	22.1	0.00e+00	0	32	0	455081984	52	5918
2026-01-28 00:20:00.48	155.35	30.79	-39.4	-40.5	21.9	0.00e+00	0	32	0	457179136	52	6046
2026-01-28 00:20:01.48	155.34	30.99	-39.5	-40.6	21.6	0.00e+00	0	32	0	459276288	52	6129
2026-01-28 00:20:02.49	155.34	31.19	-39.6	-40.7	21.8	0.00e+00	0	32	0	461373440	52	6184
2026-01-28 00:20:03.50	155.34	31.39	-39.8	-40.9	21.4	0.00e+00	0	32	0	463470592	52	6375
2026-01-28 00:20:04.51	155.33	31.60	-40.1	-41.3	20.9	0.00e+00	0	32	0	464519168	52	6624
2026-01-28 00:20:05.52	155.33	31.80	-40.0	-41.1	21.1	0.00e+00	0	32	0	466616320	52	6516
2026-01-28 00:20:06.53	155.32	32.01	-40.4	-41.7	20.7	0.00e+00	0	32	0	468713472	52	6936
2026-01-28 00:20:07.55	155.32	32.22	-40.5	-41.8	20.7	0.00e+00	0	32	0	470810624	54	6295
2026-01-28 00:20:08.56	155.32	32.43	-40.5	-41.7	20.8	0.00e+00	0	32	0	472907776	54	6221
2026-01-28 00:20:09.57	155.31	32.64	-40.2	-41.4	21.0	0.00e+00	0	32	0	473956352	54	5990
2026-01-28 00:20:10.58	155.31	32.85	-39.9	-41.0	21.5	0.00e+00	0	32	0	476053504	54	5719
2026-01-28 00:20:11.59	155.30	33.07	-40.5	-41.7	20.7	0.00e+00	0	32	0	478150656	52	7003
2026-01-28 00:20:12.60	155.30	33.28	-40.4	-41.7	20.8	0.00e+00	0	32	0	480247808	52	6949
2026-01-28 00:20:13.61	155.29	33.50	-40.1	-41.3	21.1	0.00e+00	0	32	0	482344960	52	6636
2026-01-28 00:20:14.62	155.29	33.72	-40.4	-41.7	20.7	0.00e+00	0	32	0	483393536	54	6180
2026-01-28 00:20:15.63	155.28	33.94	-41.0	-42.3	20.3	0.00e+00	0	32	0	485490688	54	6662
2026-01-28 00:20:16.64	155.28	34.16	-40.8	-42.1	20.3	0.00e+00	0	32	0	487587840	54	6539
2026-01-28 00:20:17.65	155.27	34.38	-40.8	-42.1	20.4	0.00e+00	0	32	0	489684992	54	6502
2026-01-28 00:20:18.66	155.27	34.61	-39.1	-40.2	22.2	0.00e+00	0	32	0	491782144	52	5830
2026-01-28 00:20:19.67	155.26	34.84	-38.8	-39.9	22.4	0.00e+00	0	32	0	492830720	50	6323
2026-01-28 00:20:20.67	155.26	35.06	-38.5	-39.5	22.8	0.00e+00	0	32	0	494927872	50	6079
2026-01-28 00:20:21.68	155.25	35.29	-38.2	-39.2	22.7	0.00e+00	0	32	0	497025024	50	5829
2026-01-28 00:20:22.69	155.24	35.52	-38.2	-39.1	23.0	0.00e+00	0	32	0	499122176	50	5809
2026-01-28 00:20:23.71	155.24	35.76	-37.1	-38.0	23.7	0.00e+00	0	32	0	501219328	48	5707
2026-01-28 00:20:24.71	155.23	35.99	-37.6	-38.6	23.5	0.00e+00	0	32	0	502267904	48	6118
2026-01-28 00:20:25.72	155.23	36.23	-37.2	-38.1	23.7	0.00e+00	0	32	0	504365056	48	5790
2026-01-28 00:20:26.73	155.22	36.47	-37.0	-37.9	23.8	0.00e+00	0	32	0	506462208	48	5684
2026-01-28 00:20:27.74	155.21	36.71	-37.0	-37.9	23.9	0.00e+00	0	32	0	508559360	48	5681
2026-01-28 00:20:28.75	155.21	36.95	-36.6	-37.4	24.2	0.00e+00	0	32	0	510656512	46	6012
2026-01-28 00:20:29.76	155.20	37.19	-36.4	-37.3	24.3	0.00e+00	0	32	0	512753664	46	5907
2026-01-28 00:20:30.77	155.19	37.44	-36.4	-37.3	24.4	0.00e+00	0	32	0	513802240	46	5927
2026-01-28 00:20:31.78	155.18	37.69	-36.6	-37.4	24.2	0.00e+00	0	32	0	515899392	46	6031
2026-01-28 00:20:32.78	155.18	37.93	-36.4	-37.3	24.3	0.00e+00	0	32	0	517996544	46	5923
2026-01-28 00:20:33.80	155.17	38.19	-36.6	-37.5	24.1	0.00e+00	0	32	0	520093696	46	6035
2026-01-28 00:20:34.80	155.16	38.44	-37.0	-37.9	23.9	0.00e+00	0	32	0	522190848	46	6368
2026-01-28 00:20:35.81	155.15	38.69	-36.7	-37.6	24.1	0.00e+00	0	32	0	523239424	46	6158
2026-01-28 00:20:36.82	155.15	38.95	-36.9	-37.9	23.8	0.00e+00	0	32	0	525336576	46	6319
2026-01-28 00:20:37.83	155.14	39.21	-36.7	-37.6	24.2	0.00e+00	0	32	0	527433728	46	6104
2026-01-28 00:20:38.84	155.13	39.47	-36.3	-37.1	24.4	0.00e+00	0	32	0	529530880	46	5790
2026-01-28 00:20:39.85	155.12	39.73	-36.3	-37.1	24.3	0.00e+00	0	32	0	531628032	46	5801
2026-01-28 00:20:40.86	155.11	40.00	-36.2	-37.1	24.5	0.00e+00	0	32	0	532676608	46	5769
2026-01-28 00:20:41.87	155.10	40.27	-35.9	-36.7	24.7	0.00e+00	0	32	0	534773760	46	5551
2026-01-28 00:20:42.88	155.09	40.53	-35.8	-36.6	24.3	0.00e+00	0	32	0	536870912	46	5447
2026-01-28 00:20:43.89	155.08	40.80	-35.4	-36.2	24.8	0.00e+00	0	32	0	538968064	44	5846
2026-01-28 00:20:44.90	155.07	41.08	-35.2	-36.0	25.2	0.00e+00	0	32	0	541065216	44	5699
2026-01-28 00:20:45.91	155.06	41.35	-35.7	-36.4	25.0	0.00e+00	0	32	0	542113792	44	6028
2026-01-28 00:20:46.92	155.05	41.63	-35.9	-36.7	24.7	0.00e+00	0	32	0	544210944	44	6205
2026-01-28 00:20:47.93	155.04	41.91	-35.9	-36.7	24.6	0.00e+00	0	32	0	546308096	44	6184
2026-01-28 00:20:48.94	155.03	42.19	-36.6	-37.4	24.1	0.00e+00	0	32	0	548405248	44	6737
2026-01-28 00:20:49.94	155.02	42.47	-37.0	-37.9	23.9	0.00e+00	0	32	0	550502400	46	6327
2026-01-28 00:20:50.95	155.01	42.76	-37.1	-38.1	23.6	0.00e+00	0	32	0	551550976	46	6488
2026-01-28 00:20:51.96	155.00	43.04	-37.5	-38.4	23.4	0.00e+00	0	32	0	553648128	46	6731
2026-01-28 00:20:52.97	154.99	43.33	-37.2	-38.2	23.6	0.00e+00	0	32	0	555745280	46	6549
2026-01-28 00:20:53.99	154.98	43.63	-36.9	-37.8	23.9	0.00e+00	0	32	0	557842432	46	6298
2026-01-28 00:20:55.00	154.96	43.92	-36.8	-37.6	24.1	0.00e+00	0	32	0	559939584	46	6137
2026-01-28 00:20:56.00	154.95	44.22	-37.0	-37.8	23.8	0.00e+00	0	32	0	560988160	46	6301
2026-01-28 00:20:57.02	154.94	44.52	-37.2	-38.0	23.7	0.00e+00	0	32	0	563085312	46	6441
2026-01-28 00:20:58.03	154.92	44.82	-37.7	-38.6	22.2	0.00e+00	0	32	0	565182464	46	6887
2026-01-28 00:20:59.04	154.91	45.12	-38.2	-39.2	22.7	0.00e+00	0	32	0	567279616	48	6541
2026-01-28 00:21:00.04	154.90	45.43	-39.2	-40.3	21.9	0.00e+00	0	32	0	569376768	50	6632
2026-01-28 00:21:01.05	154.88	45.74	-39.8	-41.0	21.5	0.00e+00	0	32	0	570425344	50	7208
2026-01-28 00:21:02.06	154.87	46.05	-40.3	-41.6	20.8	0.00e+00	0	32	0	572522496	52	6867
2026-01-28 00:21:03.07	154.85	46.36	-40.6	-42.0	20.5	0.00e+00	0	32	0	574619648	54	6395
2026-01-28 00:21:04.08	154.84	46.67	-40.8	-42.2	20.4	0.00e+00	0	32	0	576716800	54	6559
2026-01-28 00:21:05.09	154.82	46.99	-40.8	-42.2	20.4	0.00e+00	0	32	0	578813952	54	6570
2026-01-28 00:21:06.10	154.81	47.31	-40.7	-42.1	20.4	0.00e+00	0	32	0	580911104	54	6537
2026-01-28 00:21:07.11	154.79	47.64	-40.9	-42.4	20.2	0.00e+00	0	32	0	581959680	54	6735
2026-01-28 00:21:08.12	154.77	47.96	-40.4	-41.7	20.8	0.00e+00	0	32	0	584056832	54	6229
2026-01-28 00:21:09.13	154.76	48.29	-39.8	-41.1	21.3	0.00e+00	0	32	0	586153984	54	5798
2026-01-28 00:21:10.14	154.74	48.62	-39.1	-40.2	22.1	0.00e+00	0	32	0	588251136	52	5853
2026-01-28 00:21:11.15	154.72	48.95	-38.5	-39.5	22.8	0.00e+00	0	32	0	590348288	50	6084
2026-01-28 00:21:12.16	154.70	49.29	-37.8	-38.7	23.3	0.00e+00	0	32	0	591396864	50	5514
2026-01-28 00:21:13.17	154.68	49.62	-37.6	-38.5	23.4	0.00e+00	0	32	0	593494016	48	6071
2026-01-28 00:21:14.18	154.66	49.96	-37.7	-38.6	22.9	0.00e+00	0	32	0	595591168	48	6158
2026-01-28 00:21:15.19	154.64	50.31	-37.5	-38.4	23.6	0.00e+00	0	32	0	597688320	48	6016
2026-01-28 00:21:16.20	154.62	50.65	-37.0	-37.9	23.9	0.00e+00	0	32	0	599785472	48	5679
2026-01-28 00:21:17.21	154.60	51.00	-35.9	-36.7	24.7	0.00e+00	0	32	0	600834048	46	5535
2026-01-28 00:21:18.22	154.58	51.35	-35.3	-36.1	25.2	0.00e+00	0	32	0	602931200	44	5775
2026-01-28 00:21:19.23	154.55	51.70	-35.2	-35.9	25.1	0.00e+00	0	32	0	605028352	44	5691
2026-01-28 00:21:20.24	154.53	52.06	-35.7	-36.5	24.9	0.00e+00	0	32	0	607125504	44	6042
2026-01-28 00:21:21.25	154.51	52.42	-35.9	-36.7	24.7	0.00e+00	0	32	0	609222656	44	6188
2026-01-28 00:21:22.26	154.48	52.78	-36.3	-37.2	24.4	0.00e+00	0	32	0	610271232	44	6563
2026-01-28 00:21:23.27	154.46	53.14	-36.5	-37.4	24.2	0.00e+00	0	32	0	612368384	46	5991
2026-01-28 00:21:24.27	154.43	53.50	-36.7	-37.5	24.2	0.00e+00	0	32	0	614465536	46	6092
2026-01-28 00:21:25.29	154.40	53.87	-36.5	-37.3	24.3	0.00e+00	0	32	0	616562688	46	5930
2026-01-28 00:21:26.30	154.38	54.25	-36.2	-37.0	24.5	0.00e+00	0	32	0	618659840	46	5744
2026-01-28 00:21:27.31	154.35	54.62	-36.1	-36.9	24.5	0.00e+00	0	32	0	619708416	46	5636
2026-01-28 00:21:28.32	154.32	55.00	-35.8	-36.5	24.8	0.00e+00	0	32	0	621805568	44	6090
2026-01-28 00:21:29.33	154.29	55.38	-35.7	-36.4	24.9	0.00e+00	0	32	0	623902720	44	6002
2026-01-28 00:21:30.34	154.26	55.76	-36.1	-36.9	24.6	0.00e+00	0	32	0	625999872	44	6336
2026-01-28 00:21:31.35	154.23	56.14	-36.4	-37.2	24.3	0.00e+00	0	32	0	628097024	44	6582
2026-01-28 00:21:32.36	154.19	56.53	-37.2	-38.1	23.5	0.00e+00	0	32	0	629145600	46	6521
2026-01-28 00:21:33.37	154.16	56.92	-38.0	-39.0	23.0	0.00e+00	0	32	0	631242752	48	6398
2026-01-28 00:21:34.37	154.12	57.31	-37.4	-38.4	23.5	0.00e+00	0	32	0	633339904	48	5972
2026-01-28 00:21:35.38	154.09	57.70	-37.3	-38.2	23.6	0.00e+00	0	32	0	635437056	48	5833
2026-01-28 00:21:36.39	154.05	58.10	-37.4	-38.3	23.6	0.00e+00	0	32	0	637534208	48	5953
2026-01-28 00:21:37.40	154.01	58.50	-38.3	-39.3	22.6	0.00e+00	0	32	0	638582784	48	6664
2026-01-28 00:21:38.41	153.97	58.91	-39.2	-40.3	21.9	0.00e+00	0	32	0	640679936	50	6651
2026-01-28 00:21:39.42	153.93	59.31	-38.8	-39.9	22.2	0.00e+00	0	32	0	642777088	50	6338
2026-01-28 00:21:40.43	153.89	59.72	-38.0	-39.0	23.0	0.00e+00	0	32	0	644874240	50	5719
2026-01-28 00:21:41.44	153.84	60.13	-37.7	-38.7	23.3	0.00e+00	0	32	0	646971392	48	6177
2026-01-28 00:21:42.46	153.80	60.55	-37.8	-38.7	23.2	0.00e+00	0	32	0	649068544	48	6244
2026-01-28 00:21:43.46	153.75	60.97	-38.3	-39.3	22.8	0.00e+00	0	32	0	650117120	48	6690
2026-01-28 00:21:44.47	153.70	61.39	-37.8	-38.7	23.2	0.00e+00	0	32	0	652214272	48	6215
2026-01-28 00:21:45.48	153.65	61.81	-37.0	-37.9	24.0	0.00e+00	0	32	0	654311424	48	5632
2026-01-28 00:21:46.50	153.60	62.24	-36.4	-37.3	24.1	0.00e+00	0	32	0	656408576	46	5912
2026-01-28 00:21:47.51	153.54	62.66	-36.6	-37.5	24.2	0.00e+00	0	32	0	658505728	46	6067
2026-01-28 00:21:48.52	153.48	63.10	-36.0	-36.8	24.5	0.00e+00	0	32	0	659554304	46	5628
2026-01-28 00:21:49.53	153.43	63.53	-35.2	-36.0	25.0	0.00e+00	0	32	0	661651456	44	5747
2026-01-28 00:21:50.54	153.36	63.96	-35.0	-35.8	25.2	0.00e+00	0	32	0	663748608	42	6272
2026-01-28 00:21:51.55	153.30	64.40	-35.9	-36.7	24.8	0.00e+00	0	32	0	665845760	42	6951
2026-01-28 00:21:52.56	153.23	64.84	-36.6	-37.5	24.2	0.00e+00	0	32	0	667942912	44	6788
2026-01-28 00:21:53.57	153.16	65.29	-36.8	-37.7	23.9	0.00e+00	0	32	0	668991488	46	6198
2026-01-28 00:21:54.58	153.09	65.73	-36.9	-37.8	23.9	0.00e+00	0	32	0	671088640	46	6263
2026-01-28 00:21:55.59	153.01	66.18	-37.3	-38.2	23.6	0.00e+00	0	32	0	673185792	46	6568
2026-01-28 00:21:56.60	152.94	66.63	-37.8	-38.7	23.3	0.00e+00	0	32	0	675282944	48	6227
2026-01-28 00:21:57.60	152.85	67.08	-37.8	-38.7	23.4	0.00e+00	0	32	0	677380096	48	6191
2026-01-28 00:21:58.61	152.77	67.53	-38.1	-39.1	22.9	0.00e+00	0	32	0	678428672	48	6477
2026-01-28 00:21:59.63	152.68	68.00	-39.2	-40.4	21.6	0.00e+00	0	32	0	680525824	50	6713
2026-01-28 00:22:00.64	152.58	68.46	-39.8	-41.0	21.2	0.00e+00	0	32	0	682622976	52	6398
2026-01-28 00:22:01.65	152.48	68.92	-40.4	-41.7	20.8	0.00e+00	0	32	0	684720128	52	6929
2026-01-28 00:22:02.66	152.38	69.38	-41.7	-43.2	19.2	0.00e+00	0	32	0	686817280	54	7384
2026-01-28 00:22:03.67	152.27	69.85	-42.8	-44.7	18.0	0.00e+00	0	32	0	688914432	58	6943
2026-01-28 00:22:04.68	152.15	70.32	-42.7	-44.5	18.2	0.00e+00	0	32	0	689963008	58	6826
2026-01-28 00:22:05.69	152.03	70.79	-41.3	-42.7	19.7	0.00e+00	0	32	0	692060160	56	6193
2026-01-28 00:22:06.69	151.90	71.26	-40.5	-41.7	20.6	0.00e+00	0	32	0	694157312	56	5556
2026-01-28 00:22:07.70	151.76	71.73	-40.7	-42.0	20.6	0.00e+00	0	32	0	696254464	54	6459
2026-01-28 00:22:08.71	151.62	72.21	-40.1	-41.4	21.0	0.00e+00	0	32	0	697303040	54	5982
2026-01-28 00:22:09.72	151.47	72.69	-40.0	-41.3	21.1	0.00e+00	0	32	0	699400192	54	5908
2026-01-28 00:22:10.74	151.30	73.18	-40.1	-41.3	21.2	0.00e+00	0	32	0	701497344	52	6671
2026-01-28 00:22:11.75	151.13	73.66	-39.3	-40.4	21.7	0.00e+00	0	32	0	703594496	52	5976
2026-01-28 00:22:12.75	150.95	74.14	-38.7	-39.7	22.4	0.00e+00	0	32	0	705691648	50	6201
2026-01-28 00:22:13.76	150.75	74.63	-39.1	-40.2	22.0	0.00e+00	0	32	0	706740224	50	6565
2026-01-28 00:22:14.77	150.54	75.12	-40.1	-41.3	21.1	0.00e+00	0	32	0	708837376	52	6677
2026-01-28 00:22:15.78	150.32	75.61	-39.5	-40.6	21.8	0.00e+00	0	32	0	710934528	52	6106
2026-01-28 00:22:16.79	150.08	76.10	-39.3	-40.3	22.0	0.00e+00	0	32	0	713031680	52	5928
2026-01-28 00:22:17.80	149.82	76.59	-41.5	-43.0	19.4	0.00e+00	0	32	0	715128832	54	7232
2026-01-28 00:22:18.81	149.53	77.08	-43.1	-45.2	17.8	0.00e+00	0	32	0	717225984	58	7356
2026-01-28 00:22:19.82	149.23	77.58	-42.4	-44.1	18.8	0.00e+00	0	32	0	718274560	56	7332
2026-01-28 00:22:20.83	148.90	78.08	-42.6	-44.3	18.4	0.00e+00	0	32	0	720371712	56	7483
2026-01-28 00:22:21.84	148.54	78.57	-42.5	-44.2	18.6	0.00e+00	0	32	0	722468864	58	6581
2026-01-28 00:22:22.84	148.15	79.07	-42.1	-43.7	19.5	0.00e+00	0	32	0	724566016	58	6197
2026-01-28 00:22:23.85	147.72	79.57	-41.6	-43.2	19.0	0.00e+00	0	32	0	726663168	56	6543
2026-01-28 00:22:24.87	147.23	80.07	-40.3	-41.5	21.3	0.00e+00	0	32	0	727711744	54	6082
2026-01-28 00:22:25.87	146.71	80.57	-39.0	-40.0	22.3	0.00e+00	0	32	0	729808896	52	5737
2026-01-28 00:22:26.88	146.12	81.07	-40.4	-41.7	20.7	0.00e+00	0	32	0	731906048	52	6960
2026-01-28 00:22:27.90	145.45	81.58	-41.6	-43.2	19.5	0.00e+00	0	32	0	734003200	56	6565
2026-01-28 00:22:28.90	144.71	82.07	-38.7	-39.7	22.4	0.00e+00	0	32	0	736100352	52	5563
2026-01-28 00:22:29.92	143.85	82.58	-37.6	-38.6	23.3	0.00e+00	0	32	0	737148928	48	6124
2026-01-28 00:22:30.93	142.87	83.08	-37.5	-38.4	23.5	0.00e+00	0	32	0	739246080	48	6024
2026-01-28 00:22:31.94	141.74	83.57	-36.5	-37.4	24.1	0.00e+00	0	32	0	741343232	46	5994
2026-01-28 00:22:32.95	140.42	84.07	-35.6	-36.4	25.0	0.00e+00	0	32	0	743440384	44	6002
2026-01-28 00:22:33.95	138.88	84.56	-35.9	-36.7	24.7	0.00e+00	0	32	0	745537536	44	6225
2026-01-28 00:22:34.96	137.01	85.05	-35.8	-36.6	24.6	0.00e+00	0	32	0	746586112	44	6138
2026-01-28 00:22:35.98	134.70	85.53	-36.4	-37.3	24.1	0.00e+00	0	32	0	748683264	44	6619
2026-01-28 00:22:36.98	131.89	86.00	-35.9	-36.6	24.9	0.00e+00	0	32	0	750780416	44	6140
2026-01-28 00:22:37.99	128.31	86.47	-36.2	-37.0	24.2	0.00e+00	0	32	0	752877568	44	6446
2026-01-28 00:22:39.00	123.67	86.91	-39.1	-40.1	22.3	0.00e+00	0	32	0	754974720	50	6527
2026-01-28 00:22:40.01	117.51	87.33	-38.1	-39.0	23.1	0.00e+00	0	32	0	756023296	50	5701
2026-01-28 00:22:41.02	109.21	87.71	-40.7	-42.1	20.3	0.00e+00	0	32	0	758120448	52	7286
2026-01-28 00:22:42.03	97.99	88.02	-42.7	-44.8	17.8	0.00e+00	0	32	0	760217600	58	7017
2026-01-28 00:22:43.04	83.41	88.23	-39.2	-40.3	21.9	0.00e+00	0	32	0	762314752	52	5912
2026-01-28 00:22:44.05	66.35	88.30	-39.8	-41.0	21.2	0.00e+00	0	32	0	764411904	50	7233
2026-01-28 00:22:45.06	49.42	88.21	-40.3	-41.7	20.7	0.00e+00	0	32	0	765460480	52	6966
2026-01-28 00:22:46.07	35.12	87.99	-36.9	-37.8	23.9	0.00e+00	0	32	0	767557632	48	5567
2026-01-28 00:22:47.08	24.17	87.68	-37.8	-38.7	23.0	0.00e+00	0	32	0	769654784	46	6963
2026-01-28 00:22:48.09	16.08	87.30	-40.4	-41.6	21.0	0.00e+00	0	32	0	771751936	52	6909
2026-01-28 00:22:49.10	10.08	86.87	-38.7	-39.7	22.4	0.00e+00	0	32	0	773849088	52	5537
2026-01-28 00:22:50.10	5.58	86.43	-37.2	-38.1	23.6	0.00e+00	0	32	0	774897664	48	5769
2026-01-28 00:22:51.11	2.06	85.97	-37.2	-38.0	23.7	0.00e+00	0	32	0	776994816	48	5747
2026-01-28 00:22:52.12	359.28	85.49	-37.2	-38.1	23.6	0.00e+00	0	32	0	779091968	48	5795
2026-01-28 00:22:53.13	357.03	85.01	-36.4	-37.2	24.0	0.00e+00	0	32	0	781189120	46	5853
2026-01-28 00:22:54.14	355.19	84.52	-36.0	-36.8	24.6	0.00e+00	0	32	0	783286272	46	5593
2026-01-28 00:22:55.15	353.65	84.03	-35.3	-36.1	25.0	0.00e+00	0	32	0	784334848	44	5782
2026-01-28 00:22:56.16	352.34	83.53	-35.7	-36.5	24.4	0.00e+00	0	32	0	786432000	44	6085
2026-01-28 00:22:57.17	351.23	83.04	-36.5	-37.4	24.1	0.00e+00	0	32	0	788529152	44	6737
2026-01-28 00:22:58.18	350.27	82.54	-36.9	-37.8	23.8	0.00e+00	0	32	0	790626304	46	6301
2026-01-28 00:22:59.19	349.42	82.04	-37.8	-38.8	23.1	0.00e+00	0	32	0	792723456	48	6268
2026-01-28 00:23:00.20	348.68	81.54	-37.4	-38.3	23.6	0.00e+00	0	32	0	794820608	48	5937
2026-01-28 00:23:01.21	348.03	81.04	-36.5	-37.3	24.1	0.00e+00	0	32	0	795869184	46	5941
2026-01-28 00:23:02.22	347.44	80.54	-38.0	-39.0	22.9	0.00e+00	0	32	0	797966336	48	6440
2026-01-28 00:23:03.23	346.92	80.04	-38.1	-39.1	23.1	0.00e+00	0	32	0	800063488	48	6494
2026-01-28 00:23:04.24	346.44	79.54	-38.4	-39.4	22.5	0.00e+00	0	32	0	802160640	48	6711
2026-01-28 00:23:05.25	346.01	79.04	-40.3	-41.6	20.8	0.00e+00	0	32	0	804257792	52	6901
2026-01-28 00:23:06.26	345.62	78.54	-38.1	-39.0	22.7	0.00e+00	0	32	0	805306368	50	5749
2026-01-28 00:23:07.27	345.26	78.04	-38.0	-38.9	23.1	0.00e+00	0	32	0	807403520	50	5674
2026-01-28 00:23:08.28	344.93	77.55	-38.8	-39.8	22.5	0.00e+00	0	32	0	809500672	50	6277
2026-01-28 00:23:09.29	344.63	77.05	-39.3	-40.4	22.0	0.00e+00	0	32	0	811597824	50	6705
2026-01-28 00:23:10.30	344.35	76.56	-39.7	-40.8	21.4	0.00e+00	0	32	0	813694976	50	7057
2026-01-28 00:23:11.31	344.09	76.06	-40.2	-41.5	20.9	0.00e+00	0	32	0	814743552	52	6779
2026-01-28 00:23:12.32	343.85	75.57	-39.9	-41.1	21.8	0.00e+00	0	32	0	816840704	52	6521
2026-01-28 00:23:13.33	343.63	75.09	-38.0	-39.0	23.0	0.00e+00	0	32	0	818937856	50	5708
2026-01-28 00:23:14.34	343.42	74.60	-38.3	-39.2	22.7	0.00e+00	0	32	0	821035008	50	5868
2026-01-28 00:23:15.34	343.23	74.12	-37.8	-38.7	23.4	0.00e+00	0	32	0	823132160	48	6219
2026-01-28 00:23:16.35	343.05	73.63	-36.8	-37.6	24.0	0.00e+00	0	32	0	824180736	48	5487
2026-01-28 00:23:17.36	342.87	73.15	-37.4	-38.3	23.2	0.00e+00	0	32	0	826277888	48	5913
2026-01-28 00:23:18.37	342.71	72.67	-39.5	-40.6	21.5	0.00e+00	0	32	0	828375040	50	6920
2026-01-28 00:23:19.38	342.56	72.19	-40.3	-41.6	20.8	0.00e+00	0	32	0	830472192	52	6851
2026-01-28 00:23:20.39	342.42	71.72	-41.4	-42.9	19.4	0.00e+00	0	32	0	832569344	54	7149
2026-01-28 00:23:21.40	342.28	71.24	-41.9	-43.6	19.1	0.00e+00	0	32	0	833617920	56	6852
2026-01-28 00:23:22.41	342.15	70.77	-42.1	-43.9	18.9	0.00e+00	0	32	0	835715072	56	7089
2026-01-28 00:23:23.42	342.03	70.30	-41.3	-42.7	19.9	0.00e+00	0	32	0	837812224	56	6198
2026-01-28 00:23:24.43	341.92	69.83	-39.6	-40.7	21.9	0.00e+00	0	32	0	839909376	52	6227
2026-01-28 00:23:25.44	341.81	69.36	-38.0	-38.9	23.2	0.00e+00	0	32	0	842006528	50	5640
2026-01-28 00:23:26.44	341.70	68.91	-37.1	-38.0	23.7	0.00e+00	0	32	0	843055104	48	5709
2026-01-28 00:23:27.46	341.60	68.44	-38.0	-39.0	22.8	0.00e+00	0	32	0	845152256	48	6398
2026-01-28 00:23:28.47	341.51	67.98	-38.3	-39.3	22.6	0.00e+00	0	32	0	847249408	48	6662
2026-01-28 00:23:29.47	341.42	67.53	-38.0	-38.9	23.3	0.00e+00	0	32	0	849346560	48	6390
2026-01-28 00:23:30.48	341.33	67.07	-37.6	-38.5	22.9	0.00e+00	0	32	0	851443712	48	6098
2026-01-28 00:23:31.49	341.25	66.62	-37.6	-38.5	23.4	0.00e+00	0	32	0	852492288	48	6069
2026-01-28 00:23:32.50	341.17	66.17	-36.4	-37.3	24.3	0.00e+00	0	32	0	854589440	46	5914
2026-01-28 00:23:33.52	341.10	65.72	-35.7	-36.5	24.7	0.00e+00	0	32	0	856686592	44	6056
2026-01-28 00:23:34.52	341.02	65.28	-35.3	-36.1	25.0	0.00e+00	0	32	0	858783744	44	5774
2026-01-28 00:23:35.53	340.96	64.84	-35.1	-35.8	25.3	0.00e+00	0	32	0	860880896	44	5613
2026-01-28 00:23:36.54	340.89	64.40	-36.6	-37.5	24.0	0.00e+00	0	32	0	862978048	44	6788
2026-01-28 00:23:37.55	340.83	63.96	-38.3	-39.3	22.8	0.00e+00	0	32	0	864026624	48	6690
2026-01-28 00:23:38.56	340.76	63.53	-37.4	-38.3	23.5	0.00e+00	0	32	0	866123776	48	5913
2026-01-28 00:23:39.56	340.71	63.10	-36.5	-37.3	24.2	0.00e+00	0	32	0	868220928	48	5315
2026-01-28 00:23:40.57	340.65	62.67	-35.8	-36.5	24.9	0.00e+00	0	32	0	870318080	46	5434
2026-01-28 00:23:41.58	340.59	62.25	-35.4	-36.1	25.2	0.00e+00	0	32	0	872415232	44	5819
2026-01-28 00:23:42.60	340.54	61.82	-35.8	-36.6	24.8	0.00e+00	0	32	0	873463808	44	6104
2026-01-28 00:23:43.60	340.49	61.40	-37.7	-38.5	23.6	0.00e+00	0	32	0	875560960	46	6838
2026-01-28 00:23:44.61	340.44	60.98	-39.3	-40.5	21.7	0.00e+00	0	32	0	877658112	50	6807
2026-01-28 00:23:45.62	340.39	60.57	-40.1	-41.3	21.4	0.00e+00	0	32	0	879755264	54	5918
2026-01-28 00:23:46.63	340.35	60.15	-37.1	-38.0	23.8	0.00e+00	0	32	0	881852416	48	5697
2026-01-28 00:23:47.64	340.30	59.74	-36.5	-37.3	24.4	0.00e+00	0	32	0	882900992	46	5935
2026-01-28 00:23:48.65	340.26	59.34	-36.7	-37.5	24.2	0.00e+00	0	32	0	884998144	46	6097
2026-01-28 00:23:49.66	340.22	58.93	-35.6	-36.4	24.9	0.00e+00	0	32	0	887095296	44	5979
2026-01-28 00:23:50.67	340.18	58.53	-34.8	-35.6	25.6	0.00e+00	0	32	0	889192448	42	6105
2026-01-28 00:23:51.68	340.14	58.13	-35.8	-36.6	24.8	0.00e+00	0	32	0	891289600	42	6902
2026-01-28 00:23:52.69	340.11	57.73	-36.9	-37.8	23.6	0.00e+00	0	32	0	892338176	44	7084
2026-01-28 00:23:53.70	340.07	57.34	-37.0	-38.0	23.6	0.00e+00	0	32	0	894435328	46	6393
2026-01-28 00:23:54.71	340.03	56.95	-36.8	-37.7	24.1	0.00e+00	0	32	0	896532480	46	6214
2026-01-28 00:23:55.72	340.00	56.56	-36.2	-37.0	24.5	0.00e+00	0	32	0	898629632	46	5723
2026-01-28 00:23:56.73	339.97	56.17	-35.9	-36.7	24.8	0.00e+00	0	32	0	900726784	46	5507
2026-01-28 00:23:57.74	339.94	55.79	-35.9	-36.7	24.6	0.00e+00	0	32	0	901775360	46	5513
2026-01-28 00:23:58.75	339.91	55.41	-36.8	-37.7	24.0	0.00e+00	0	32	0	903872512	46	6175
2026-01-28 00:23:59.76	339.88	55.03	-38.4	-39.5	22.5	0.00e+00	0	32	0	905969664	48	6772
2026-01-28 00:24:00.77	339.85	54.65	-39.9	-41.1	21.2	0.00e+00	0	32	0	908066816	50	7336
2026-01-28 00:24:01.78	339.82	54.28	-39.9	-41.1	21.4	0.00e+00	0	32	0	910163968	52	6525
2026-01-28 00:24:02.79	339.79	53.91	-39.1	-40.2	22.4	0.00e+00	0	32	0	911212544	52	5841
2026-01-28 00:24:03.79	339.76	53.55	-38.1	-39.1	22.9	0.00e+00	0	32	0	913309696	50	5773
2026-01-28 00:24:04.80	339.74	53.18	-37.8	-38.7	23.1	0.00e+00	0	32	0	915406848	48	6244
2026-01-28 00:24:05.81	339.71	52.82	-38.5	-39.5	22.3	0.00e+00	0	32	0	917504000	48	6824
2026-01-28 00:24:06.82	339.69	52.46	-40.1	-41.5	20.9	0.00e+00	0	32	0	919601152	52	6805
2026-01-28 00:24:07.83	339.67	52.10	-40.9	-42.5	19.9	0.00e+00	0	32	0	920649728	54	6786
2026-01-28 00:24:08.84	339.64	51.75	-40.6	-42.1	20.4	0.00e+00	0	32	0	922746880	54	6474
2026-01-28 00:24:09.85	339.62	51.40	-38.9	-39.9	22.4	0.00e+00	0	32	0	924844032	52	5686
2026-01-28 00:24:10.86	339.60	51.05	-38.0	-39.0	23.1	0.00e+00	0	32	0	926941184	50	5727
2026-01-28 00:24:11.87	339.58	50.70	-37.4	-38.3	23.7	0.00e+00	0	32	0	929038336	48	5908
2026-01-28 00:24:12.88	339.56	50.36	-37.1	-38.0	23.7	0.00e+00	0	32	0	931135488	48	5734
2026-01-28 00:24:13.89	339.54	50.02	-36.8	-37.7	24.0	0.00e+00	0	32	0	932184064	46	6189
2026-01-28 00:24:14.90	339.52	49.68	-36.8	-37.6	24.0	0.00e+00	0	32	0	934281216	46	6163
2026-01-28 00:24:15.91	339.50	49.34	-37.9	-38.8	23.2	0.00e+00	0	32	0	936378368	46	7065
2026-01-28 00:24:16.92	339.48	49.01	-40.2	-41.5	20.9	0.00e+00	0	32	0	938475520	52	6847
2026-01-28 00:24:17.93	339.46	48.68	-41.7	-43.5	19.3	0.00e+00	0	32	0	940572672	54	7624
2026-01-28 00:24:18.94	339.44	48.35	-41.5	-43.2	19.7	0.00e+00	0	32	0	941621248	58	5850
2026-01-28 00:24:19.95	339.43	48.02	-38.6	-39.6	22.7	0.00e+00	0	32	0	943718400	52	5483
2026-01-28 00:24:20.96	339.41	47.70	-36.9	-37.8	23.9	0.00e+00	0	32	0	945815552	48	5577
2026-01-28 00:24:21.97	339.39	47.38	-36.7	-37.5	24.0	0.00e+00	0	32	0	947912704	46	6065
2026-01-28 00:24:22.98	339.38	47.06	-36.7	-37.5	24.3	0.00e+00	0	32	0	950009856	46	6065
2026-01-28 00:24:23.99	339.36	46.74	-37.3	-38.2	23.9	0.00e+00	0	32	0	951058432	46	6559
2026-01-28 00:24:25.00	339.35	46.43	-38.0	-38.9	22.9	0.00e+00	0	32	0	953155584	48	6350
2026-01-28 00:24:26.01	339.33	46.11	-39.1	-40.1	21.9	0.00e+00	0	32	0	955252736	50	6492
2026-01-28 00:24:27.02	339.32	45.80	-39.9	-41.1	21.4	0.00e+00	0	32	0	957349888	52	6466
2026-01-28 00:24:28.03	339.31	45.50	-39.5	-40.6	21.8	0.00e+00	0	32	0	959447040	52	6112
2026-01-28 00:24:29.04	339.29	45.19	-39.8	-41.0	21.5	0.00e+00	0	32	0	960495616	52	6442
2026-01-28 00:24:30.05	339.28	44.89	-39.4	-40.5	21.8	0.00e+00	0	32	0	962592768	52	6096
2026-01-28 00:24:31.06	339.27	44.59	-39.0	-40.1	22.1	0.00e+00	0	32	0	964689920	50	6487
2026-01-28 00:24:32.07	339.25	44.29	-38.9	-40.0	22.2	0.00e+00	0	32	0	966787072	50	6417
2026-01-28 00:24:33.08	339.24	44.00	-38.7	-39.8	22.3	0.00e+00	0	32	0	968884224	50	6252
2026-01-28 00:24:34.09	339.23	43.70	-37.8	-38.7	23.3	0.00e+00	0	32	0	969932800	50	5547
2026-01-28 00:24:35.10	339.22	43.41	-36.6	-37.5	24.0	0.00e+00	0	32	0	972029952	48	5379
2026-01-28 00:24:36.11	339.21	43.12	-36.7	-37.5	24.2	0.00e+00	0	32	0	974127104	46	6102
2026-01-28 00:24:37.12	339.19	42.84	-36.8	-37.6	24.0	0.00e+00	0	32	0	976224256	46	6173
2026-01-28 00:24:38.13	339.18	42.55	-36.7	-37.6	24.2	0.00e+00	0	32	0	978321408	46	6116
2026-01-28 00:24:39.14	339.17	42.27	-37.4	-38.4	23.3	0.00e+00	0	32	0	979369984	46	6719
2026-01-28 00:24:40.15	339.16	41.99	-38.7	-39.8	22.2	0.00e+00	0	32	0	981467136	48	7011
2026-01-28 00:24:41.16	339.15	41.71	-39.0	-40.1	22.1	0.00e+00	0	32	0	983564288	50	6533
2026-01-28 00:24:42.17	339.14	41.43	-39.1	-40.3	22.1	0.00e+00	0	32	0	985661440	50	6640
2026-01-28 00:24:43.18	339.13	41.16	-38.4	-39.4	22.7	0.00e+00	0	32	0	987758592	50	6027
2026-01-28 00:24:44.18	339.12	40.89	-38.0	-39.0	23.1	0.00e+00	0	32	0	988807168	50	5722
2026-01-28 00:24:45.19	339.11	40.62	-36.9	-37.8	24.0	0.00e+00	0	32	0	990904320	48	5585
2026-01-28 00:24:46.20	339.10	40.35	-37.1	-37.9	23.8	0.00e+00	0	32	0	993001472	46	6373
2026-01-28 00:24:47.21	339.10	40.09	-37.6	-38.5	23.3	0.00e+00	0	32	0	995098624	46	6778
2026-01-28 00:24:48.22	339.09	39.82	-38.1	-39.1	22.9	0.00e+00	0	32	0	997195776	48	6506
2026-01-28 00:24:49.23	339.08	39.56	-39.3	-40.5	21.9	0.00e+00	0	32	0	999292928	50	6784
2026-01-28 00:24:50.23	339.07	39.30	-40.0	-41.3	20.8	0.00e+00	0	32	0	1000341504	50	7506
2026-01-28 00:24:51.24	339.06	39.05	-40.5	-41.8	20.7	0.00e+00	0	32	0	1002438656	52	7058
2026-01-28 00:24:52.25	339.05	38.79	-41.0	-42.4	20.1	0.00e+00	0	32	0	1004535808	54	6767
2026-01-28 00:24:53.26	339.05	38.54	-42.2	-44.1	18.7	0.00e+00	0	32	0	1006632960	56	7286
2026-01-28 00:24:54.27	339.04	38.28	-42.8	-45.0	17.7	0.00e+00	0	32	0	1008730112	58	7194
2026-01-28 00:24:55.28	339.03	38.03	-42.7	-44.9	17.7	0.00e+00	0	32	0	1009778688	58	7132
2026-01-28 00:24:56.29	339.03	37.78	-43.6	-46.2	17.0	0.00e+00	0	32	0	1011875840	58	8294
2026-01-28 00:24:57.30	339.02	37.54	-43.1	-45.3	17.6	0.00e+00	0	32	0	1013972992	58	7483
2026-01-28 00:24:58.31	339.01	37.29	-42.4	-44.1	18.9	0.00e+00	0	32	0	1016070144	58	6506
2026-01-28 00:24:59.32	339.00	37.05	-41.4	-42.8	19.9	0.00e+00	0	32	0	1018167296	56	6274
2026-01-28 00:25:00.33	339.00	36.81	-40.9	-42.2	20.5	0.00e+00	0	32	0	1019215872	56	5859
2026-01-28 00:25:01.34	338.99	36.57	-39.7	-40.8	21.8	0.00e+00	0	32	0	1021313024	52	6265
2026-01-28 00:25:02.35	338.99	36.33	-39.0	-40.0	21.8	0.00e+00	0	32	0	1023410176	52	5742
2026-01-28 00:25:03.35	338.98	36.10	-38.9	-39.9	22.3	0.00e+00	0	32	0	1025507328	50	6378
2026-01-28 00:25:04.36	338.97	35.86	-39.6	-40.6	21.7	0.00e+00	0	32	0	1027604480	50	6906
2026-01-28 00:25:05.37	338.97	35.63	-40.3	-41.5	21.1	0.00e+00	0	32	0	1028653056	52	6776
2026-01-28 00:25:06.38	338.96	35.40	-41.8	-43.3	19.1	0.00e+00	0	32	0	1030750208	54	7487
2026-01-28 00:25:07.39	338.96	35.17	-42.9	-44.7	18.2	0.00e+00	0	32	0	1032847360	56	7845
2026-01-28 00:25:08.40	338.95	34.94	-43.9	-46.4	16.3	0.00e+00	0	32	0	1034944512	60	7531
2026-01-28 00:25:09.41	338.95	34.72	-45.3	-48.9	13.8	0.00e+00	0	32	0	1037041664	60	10029
2026-01-28 00:25:10.42	338.94	34.49	-46.2	-51.0	11.9	4.34e-05	0	32	0	1038090240	60	12789
2026-01-28 00:25:11.43	338.94	34.27	-46.1	-50.8	12.2	1.69e-04	0	32	0	1040187392	60	12526
2026-01-28 00:25:12.44	338.93	34.05	-45.7	-49.7	13.6	2.36e-05	0	32	0	1042284544	60	11047
2026-01-28 00:25:13.45	338.93	33.83	-44.8	-48.0	15.0	7.00e-07	0	32	0	1044381696	60	9120
2026-01-28 00:25:14.46	338.92	33.61	-42.9	-45.0	17.9	0.00e+00	0	32	0	1046478848	60	6445
2026-01-28 00:25:15.47	338.92	33.39	-42.3	-44.3	18.2	0.00e+00	0	32	0	1047527424	58	6649
2026-01-28 00:25:16.48	338.91	33.18	-41.9	-43.7	19.3	0.00e+00	0	32	0	1049624576	58	6241
2026-01-28 00:25:17.49	338.91	32.97	-40.7	-42.1	20.4	0.00e+00	0	32	0	1051721728	56	5810
2026-01-28 00:25:18.50	338.91	32.75	-40.6	-42.0	20.5	0.00e+00	0	32	0	1053818880	54	6451
2026-01-28 00:25:19.51	338.90	32.54	-40.0	-41.3	21.2	0.00e+00	0	32	0	1055916032	54	5914
2026-01-28 00:25:20.52	338.90	32.33	-39.7	-40.9	21.4	0.00e+00	0	32	0	1056964608	52	6371
2026-01-28 00:25:21.53	338.89	32.13	-39.6	-40.8	21.5	0.00e+00	0	32	0	1059061760	52	6309
2026-01-28 00:25:22.54	338.89	31.92	-39.5	-40.7	21.7	0.00e+00	0	32	0	1061158912	52	6189
2026-01-28 00:25:23.55	338.89	31.72	-39.1	-40.2	22.1	0.00e+00	0	32	0	1063256064	52	5855
2026-01-28 00:25:24.56	338.88	31.51	-39.1	-40.2	22.0	0.00e+00	0	32	0	1065353216	52	5867
2026-01-28 00:25:25.57	338.88	31.31	-39.4	-40.5	21.8	0.00e+00	0	32	0	1067450368	52	6059
2026-01-28 00:25:26.58	338.88	31.11	-39.2	-40.2	21.9	0.00e+00	0	32	0	1068498944	52	5892
2026-01-28 00:25:27.59	338.87	30.91	-39.4	-40.5	21.8	0.00e+00	0	32	0	1070596096	52	6089
2026-01-28 00:25:28.60	338.87	30.71	-39.1	-40.2	22.2	0.00e+00	0	32	0	1072693248	52	5845
2026-01-28 00:25:29.61	338.87	30.52	-39.2	-40.3	21.9	0.00e+00	0	32	0	1074790400	52	5924
2026-01-28 00:25:30.62	338.86	30.32	-39.5	-40.7	21.6	0.00e+00	0	32	0	1076887552	52	6188
2026-01-28 00:25:31.63	338.86	30.13	-39.4	-40.6	21.7	0.00e+00	0	32	0	1077936128	52	6120
2026-01-28 00:25:32.64	338.86	29.94	-39.6	-40.8	21.5	0.00e+00	0	32	0	1080033280	52	6300
2026-01-28 00:25:33.65	338.86	29.75	-40.1	-41.4	20.9	0.00e+00	0	32	0	1082130432	52	6734
2026-01-28 00:25:34.66	338.85	29.56	-40.5	-41.9	20.7	0.00e+00	0	32	0	1084227584	52	7098
2026-01-28 00:25:35.67	338.85	29.37	-40.6	-42.0	20.4	0.00e+00	0	32	0	1085276160	54	6462
2026-01-28 00:25:36.68	338.85	29.18	-41.1	-42.7	19.8	0.00e+00	0	32	0	1087373312	54	6942
2026-01-28 00:25:37.69	338.84	28.99	-41.3	-42.9	19.6	0.00e+00	0	32	0	1089470464	54	7146
2026-01-28 00:25:38.70	338.84	28.81	-41.1	-42.6	19.9	0.00e+00	0	32	0	1091567616	54	6918
2026-01-28 00:25:39.70	338.84	28.63	-40.6	-42.1	20.4	0.00e+00	0	32	0	1093664768	54	6491
2026-01-28 00:25:40.71	338.84	28.44	-40.1	-41.5	20.9	0.00e+00	0	32	0	1095761920	54	6070
2026-01-28 00:25:41.72	338.84	28.26	-39.3	-40.4	21.8	0.00e+00	0	32	0	1096810496	52	6021
2026-01-28 00:25:42.73	338.83	28.08	-38.9	-40.0	22.1	0.00e+00	0	32	0	1098907648	52	5752
2026-01-28 00:25:43.74	338.83	27.90	-38.1	-39.1	23.1	0.00e+00	0	32	0	1101004800	50	5789
2026-01-28 00:25:44.75	338.83	27.73	-37.3	-38.2	23.5	0.00e+00	0	32	0	1103101952	48	5864
2026-01-28 00:25:45.76	338.83	27.55	-37.1	-38.0	23.7	0.00e+00	0	32	0	1105199104	48	5719
2026-01-28 00:25:46.77	338.83	27.37	-37.0	-37.8	23.8	0.00e+00	0	32	0	1106247680	48	5628
2026-01-28 00:25:47.78	338.82	27.20	-37.2	-38.1	23.7	0.00e+00	0	32	0	1108344832	48	5791
2026-01-28 00:25:48.79	338.82	27.03	-37.4	-38.3	23.6	0.00e+00	0	32	0	1110441984	48	5900
2026-01-28 00:25:49.80	338.82	26.85	-37.3	-38.2	23.6	0.00e+00	0	32	0	1112539136	48	5842
2026-01-28 00:25:50.81	338.82	26.68	-37.6	-38.5	23.5	0.00e+00	0	32	0	1114636288	48	6047
2026-01-28 00:25:51.82	338.82	26.51	-37.4	-38.3	23.5	0.00e+00	0	32	0	1115684864	48	5937
2026-01-28 00:25:52.83	338.82	26.34	-37.5	-38.4	23.4	0.00e+00	0	32	0	1117782016	48	6000
2026-01-28 00:25:53.84	338.82	26.18	-37.6	-38.5	23.4	0.00e+00	0	32	0	1119879168	48	6090
2026-01-28 00:25:54.85	338.81	26.01	-37.4	-38.3	23.5	0.00e+00	0	32	0	1121976320	48	5921
2026-01-28 00:25:55.86	338.81	25.84	-37.4	-38.3	23.5	0.00e+00	0	32	0	1124073472	48	5953
2026-01-28 00:25:56.87	338.81	25.68	-37.1	-38.0	23.7	0.00e+00	0	32	0	1125122048	48	5752
2026-01-28 00:25:57.88	338.81	25.52	-37.3	-38.2	23.6	0.00e+00	0	32	0	1127219200	48	5875
2026-01-28 00:25:58.89	338.81	25.35	-37.0	-37.9	23.8	0.00e+00	0	32	0	1129316352	48	5651
2026-01-28 00:25:59.90	338.81	25.19	-36.9	-37.8	23.8	0.00e+00	0	32	0	1131413504	48	5625
2026-01-28 00:26:00.91	338.81	25.03	-36.7	-37.6	24.0	0.00e+00	0	32	0	1133510656	48	5476
2026-01-28 00:26:01.92	338.81	24.87	-36.6	-37.5	24.1	0.00e+00	0	32	0	1135607808	46	6060
2026-01-28 00:26:02.93	338.81	24.71	-36.6	-37.4	24.2	0.00e+00	0	32	0	1136656384	46	6019
2026-01-28 00:26:03.94	338.80	24.55	-36.6	-37.5	24.0	0.00e+00	0	32	0	1138753536	46	6052
2026-01-28 00:26:04.95	338.80	24.40	-36.6	-37.5	24.0	0.00e+00	0	32	0	1140850688	46	6045
2026-01-28 00:26:05.96	338.80	24.24	-36.5	-37.4	24.2	0.00e+00	0	32	0	1142947840	46	5983
2026-01-28 00:26:06.97	338.80	24.09	-36.3	-37.1	24.3	0.00e+00	0	32	0	1145044992	46	5823
2026-01-28 00:26:07.98	338.80	23.93	-36.4	-37.2	24.1	0.00e+00	0	32	0	1146093568	46	5849
2026-01-28 00:26:08.99	338.80	23.78	-36.2	-37.0	24.2	0.00e+00	0	32	0	1148190720	46	5723
2026-01-28 00:26:10.00	338.80	23.63	-36.2	-37.0	24.5	0.00e+00	0	32	0	1150287872	46	5759
2026-01-28 00:26:11.01	338.80	23.48	-36.1	-36.9	24.3	0.00e+00	0	32	0	1152385024	46	5664
2026-01-28 00:26:12.02	338.80	23.33	-36.2	-37.1	24.4	0.00e+00	0	32	0	1154482176	46	5762
2026-01-28 00:26:13.03	338.80	23.18	-36.2	-36.9	24.4	0.00e+00	0	32	0	1155530752	46	5694
2026-01-28 00:26:14.04	338.80	23.03	-36.3	-37.1	24.4	0.00e+00	0	32	0	1157627904	46	5785
2026-01-28 00:26:15.05	338.80	22.88	-36.3	-37.1	24.4	0.00e+00	0	32	0	1159725056	46	5799
2026-01-28 00:26:16.06	338.80	22.73	-36.0	-36.8	24.6	0.00e+00	0	32	0	1161822208	46	5606
2026-01-28 00:26:17.07	338.80	22.59	-35.9	-36.7	24.7	0.00e+00	0	32	0	1163919360	46	5508
2026-01-28 00:26:18.08	338.80	22.44	-35.7	-36.5	24.8	0.00e+00	0	32	0	1164967936	44	6055
2026-01-28 00:26:19.09	338.80	22.30	-35.7	-36.5	24.7	0.00e+00	0	32	0	1167065088	44	6065
2026-01-28 00:26:20.10	338.80	22.15	-35.6	-36.4	24.8	0.00e+00	0	32	0	1169162240	44	5965
2026-01-28 00:26:21.10	338.80	22.01	-35.5	-36.3	24.9	0.00e+00	0	32	0	1171259392	44	5911
2026-01-28 00:26:22.12	338.80	21.87	-35.5	-36.2	25.0	0.00e+00	0	32	0	1173356544	44	5891
2026-01-28 00:26:23.12	338.80	21.73	-35.6	-36.4	24.8	0.00e+00	0	32	0	1174405120	44	5979
2026-01-28 00:26:24.14	338.80	21.58	-35.6	-36.4	24.9	0.00e+00	0	32	0	1176502272	44	5986
2026-01-28 00:26:25.15	338.80	21.45	-35.6	-36.4	24.8	0.00e+00	0	32	0	1178599424	44	6007
2026-01-28 00:26:26.15	338.80	21.31	-35.9	-36.7	24.7	0.00e+00	0	32	0	1180696576	44	6203
2026-01-28 00:26:27.17	338.80	21.17	-36.1	-36.9	24.2	0.00e+00	0	32	0	1182793728	44	6359
2026-01-28 00:26:28.18	338.80	21.03	-36.3	-37.2	24.2	0.00e+00	0	32	0	1183842304	44	6568
2026-01-28 00:26:29.19	338.80	20.89	-36.7	-37.5	24.0	0.00e+00	0	32	0	1185939456	44	6833
2026-01-28 00:26:30.20	338.80	20.76	-36.9	-37.8	23.7	0.00e+00	0	32	0	1188036608	46	6314
2026-01-28 00:26:31.20	338.80	20.62	-37.1	-38.0	23.7	0.00e+00	0	32	0	1190133760	46	6408
2026-01-28 00:26:32.21	338.80	20.49	-37.5	-38.5	23.3	0.00e+00	0	32	0	1192230912	46	6803
2026-01-28 00:26:33.22	338.80	20.36	-37.5	-38.5	23.3	0.00e+00	0	32	0	1193279488	46	6773
2026-01-28 00:26:34.23	338.80	20.22	-37.9	-38.9	22.9	0.00e+00	0	32	0	1195376640	48	6364
