passes_logs/2026/01/28/R4.6S_Anadyr/R4.6S_Anadyr__20260128_154116_SUOMI_NPP_rec.log

#Pass ID: 20260128_154116_SUOMI NPP
#Satellite: SUOMI NPP
#Configuration: NPP
#almurnet v.1.7.20251203
#Start time: 2026-01-28 15:41:18

#Version: 2.2.20231116
#Station: R4.6S_Anadyr
#Location: 177.4865 lon 64.73178 lat
#TLE: 1 37849U 11061A   26027.86188320  .00000172  00000+0  10275-3 0  9990
#TLE: 2 37849  98.7823 329.8005 0002088  41.4184 318.7150 14.19530883738530

#Time	Az	El	Level	Level2	SNR	BER	BlckErr	Temp	State	Recorded	gain1	gain2
2026-01-28 15:41:18.25	22.86	0.08	-48.8	-61.3	3.4	1.52e+00	0	30	0	0	60	40762
2026-01-28 15:41:19.26	22.84	0.14	-48.9	-64.1	3.6	1.51e+00	0	31	104	0	60	57831
2026-01-28 15:41:20.27	22.82	0.20	-48.9	-64.1	3.6	1.51e+00	0	31	104	0	60	57946
2026-01-28 15:41:21.28	22.80	0.26	-48.9	-64.1	3.6	1.51e+00	0	31	104	0	60	57693
2026-01-28 15:41:22.29	22.78	0.32	-48.9	-64.1	3.6	1.51e+00	0	31	104	0	60	57902
2026-01-28 15:41:23.30	22.76	0.38	-48.9	-64.2	3.6	1.51e+00	0	31	104	0	60	58378
2026-01-28 15:41:24.31	22.74	0.44	-49.0	-64.2	3.6	1.51e+00	0	31	104	0	60	58295
2026-01-28 15:41:25.32	22.72	0.50	-48.9	-64.2	3.6	1.51e+00	0	31	104	0	60	58413
2026-01-28 15:41:26.33	22.70	0.56	-49.0	-64.2	3.6	1.51e+00	0	31	104	0	60	58774
2026-01-28 15:41:27.34	22.68	0.62	-49.0	-64.2	3.6	1.51e+00	0	31	104	0	60	58526
2026-01-28 15:41:28.35	22.66	0.68	-49.0	-64.2	3.6	1.51e+00	0	31	104	0	60	58441
2026-01-28 15:41:29.36	22.64	0.74	-49.0	-64.2	3.6	1.51e+00	0	31	104	0	60	58498
2026-01-28 15:41:30.37	22.62	0.81	-48.9	-64.1	3.6	1.51e+00	0	31	104	0	60	58082
2026-01-28 15:41:31.38	22.60	0.87	-48.9	-64.1	3.6	1.51e+00	0	31	104	0	60	57713
2026-01-28 15:41:32.39	22.58	0.93	-48.9	-64.1	3.6	1.51e+00	0	31	104	0	60	57796
2026-01-28 15:41:33.40	22.56	0.99	-48.8	-64.0	3.6	1.51e+00	0	31	104	0	60	57280
2026-01-28 15:41:34.41	22.54	1.05	-48.7	-64.0	3.6	1.51e+00	0	31	104	0	60	57025
2026-01-28 15:41:35.41	22.51	1.11	-48.6	-63.8	3.6	1.51e+00	0	31	104	0	60	56032
2026-01-28 15:41:36.43	22.49	1.17	-48.5	-63.7	3.6	1.51e+00	0	31	104	0	60	55396
2026-01-28 15:41:37.44	22.47	1.24	-48.3	-63.5	3.6	1.51e+00	0	31	104	0	60	54360
2026-01-28 15:41:38.45	22.45	1.30	-48.3	-63.5	3.6	1.51e+00	0	31	104	0	60	54159
2026-01-28 15:41:39.46	22.43	1.36	-48.2	-63.3	3.6	1.51e+00	0	31	104	0	60	53152
2026-01-28 15:41:40.47	22.41	1.42	-48.0	-63.1	3.6	1.51e+00	0	31	104	0	60	51682
2026-01-28 15:41:41.48	22.38	1.48	-47.7	-62.8	3.6	1.51e+00	0	31	104	0	60	50168
2026-01-28 15:41:42.48	22.36	1.55	-47.6	-62.5	3.6	1.51e+00	0	31	104	0	60	48344
2026-01-28 15:41:43.49	22.34	1.61	-47.6	-62.5	3.6	1.51e+00	0	32	104	0	60	48478
2026-01-28 15:41:44.50	22.32	1.67	-47.6	-62.5	3.6	1.51e+00	0	32	104	0	60	48246
2026-01-28 15:41:45.51	22.29	1.73	-47.6	-62.6	3.6	1.51e+00	0	32	104	0	60	48697
2026-01-28 15:41:46.52	22.27	1.80	-47.6	-62.5	3.6	1.51e+00	0	32	104	0	60	48264
2026-01-28 15:41:47.53	22.25	1.86	-47.6	-62.5	3.6	1.51e+00	0	32	104	0	60	47982
2026-01-28 15:41:48.54	22.23	1.92	-47.6	-62.5	3.6	1.51e+00	0	32	104	0	60	48075
2026-01-28 15:41:49.55	22.20	1.99	-47.6	-62.5	3.6	1.51e+00	0	32	104	0	60	48258
2026-01-28 15:41:50.56	22.18	2.05	-47.6	-62.6	3.6	1.51e+00	0	32	104	0	60	48911
2026-01-28 15:41:51.57	22.16	2.12	-47.6	-62.7	3.6	1.51e+00	0	32	104	0	60	49107
2026-01-28 15:41:52.58	22.13	2.18	-47.6	-62.7	3.6	1.51e+00	0	32	104	0	60	49323
2026-01-28 15:41:53.59	22.11	2.24	-47.6	-62.7	3.6	1.51e+00	0	32	104	0	60	49295
2026-01-28 15:41:54.60	22.09	2.31	-47.6	-62.7	3.6	1.51e+00	0	32	104	0	60	49376
2026-01-28 15:41:55.61	22.06	2.37	-47.6	-62.7	3.6	1.51e+00	0	32	104	0	60	49217
2026-01-28 15:41:56.62	22.04	2.44	-47.6	-62.6	3.6	1.51e+00	0	32	104	0	60	48946
2026-01-28 15:41:57.64	22.01	2.50	-47.5	-62.3	3.6	1.51e+00	0	32	104	0	60	47042
2026-01-28 15:41:58.64	21.99	2.56	-47.5	-61.7	3.6	1.51e+00	0	32	104	0	60	44096
2026-01-28 15:41:59.66	21.97	2.63	-47.5	-61.3	3.6	1.51e+00	0	32	104	0	60	41895
2026-01-28 15:42:00.66	21.94	2.69	-47.4	-60.3	3.7	1.51e+00	0	32	104	0	60	37323
2026-01-28 15:42:01.67	21.92	2.76	-47.4	-60.3	3.7	1.49e+00	0	32	104	0	60	37357
2026-01-28 15:42:02.68	21.89	2.83	-47.5	-60.5	3.7	1.50e+00	0	32	104	0	60	38389
2026-01-28 15:42:03.69	21.87	2.89	-47.5	-61.0	3.6	1.50e+00	0	32	104	0	60	40693
2026-01-28 15:42:04.70	21.84	2.96	-47.5	-61.8	3.6	1.51e+00	0	32	104	0	60	44575
2026-01-28 15:42:05.71	21.82	3.02	-47.5	-61.8	3.6	1.51e+00	0	32	104	0	60	44473
2026-01-28 15:42:06.72	21.79	3.09	-47.4	-59.2	3.7	1.50e+00	0	32	104	0	60	33094
2026-01-28 15:42:07.73	21.77	3.15	-47.1	-55.9	5.7	9.79e-01	0	32	0	0	60	22609
2026-01-28 15:42:08.74	21.74	3.22	-46.5	-52.4	8.5	1.26e-01	5	32	0	2097152	60	15100
2026-01-28 15:42:09.75	21.72	3.29	-45.8	-50.6	10.7	9.43e-03	0	32	0	3145728	60	12273
2026-01-28 15:42:10.76	21.69	3.35	-44.9	-48.6	13.1	3.13e-04	90	32	0	5242880	60	9681
2026-01-28 15:42:11.77	21.67	3.42	-44.4	-47.6	14.2	5.30e-06	0	32	0	7340032	60	8678
2026-01-28 15:42:12.77	21.64	3.49	-43.7	-46.3	15.4	0.00e+00	0	32	0	9437184	60	7487
2026-01-28 15:42:13.78	21.62	3.55	-43.0	-45.3	16.4	0.00e+00	0	32	0	11534336	60	6658
2026-01-28 15:42:14.79	21.59	3.62	-42.7	-44.8	16.4	0.00e+00	0	32	0	12582912	58	7053
2026-01-28 15:42:15.80	21.56	3.69	-43.1	-45.5	16.2	0.00e+00	63	32	0	14680064	58	7615
2026-01-28 15:42:16.81	21.54	3.75	-47.6	-61.9	3.6	1.84e-02	0	32	104	16777216	60	44741
2026-01-28 15:42:17.82	21.51	3.82	-39.9	-41.2	6.1	1.40e+00	0	32	104	16777216	54	5829
2026-01-28 15:42:18.83	21.48	3.89	-47.5	-62.4	3.6	1.01e-01	0	32	104	16777216	60	47876
2026-01-28 15:42:19.84	21.46	3.96	-46.6	-53.0	5.0	1.49e+00	0	32	104	16777216	60	16236
2026-01-28 15:42:20.85	21.43	4.03	-44.1	-47.1	14.1	1.34e-02	0	32	0	16777216	58	9161
2026-01-28 15:42:21.85	21.40	4.09	-41.7	-43.4	18.2	7.00e-07	0	32	0	18874368	58	5996
2026-01-28 15:42:22.86	21.38	4.16	-41.5	-43.1	18.5	0.00e+00	13	32	0	19922944	56	6525
2026-01-28 15:42:23.87	21.35	4.23	-41.1	-42.6	18.8	0.00e+00	0	32	0	22020096	56	6164
2026-01-28 15:42:24.88	21.32	4.30	-41.6	-43.4	18.2	0.00e+00	73	32	0	24117248	56	6694
2026-01-28 15:42:25.89	21.29	4.37	-41.2	-42.8	18.7	0.00e+00	0	32	0	26214400	56	6298
2026-01-28 15:42:26.90	21.26	4.44	-40.4	-41.8	19.7	0.00e+00	88	32	0	28311552	54	6273
2026-01-28 15:42:27.91	21.24	4.51	-40.3	-41.7	19.7	0.00e+00	0	32	0	29360128	54	6216
2026-01-28 15:42:28.92	21.21	4.57	-40.3	-41.7	19.9	0.00e+00	0	32	0	31457280	54	6228
2026-01-28 15:42:29.93	21.18	4.64	-40.5	-41.9	19.9	0.00e+00	12	32	0	33554432	54	6344
2026-01-28 15:42:30.94	21.15	4.71	-39.9	-41.3	20.3	0.00e+00	0	32	0	35651584	54	5898
2026-01-28 15:42:31.95	21.12	4.78	-40.2	-41.6	20.0	0.00e+00	90	32	0	37748736	54	6146
2026-01-28 15:42:32.96	21.09	4.85	-40.0	-41.4	20.0	0.00e+00	0	32	0	38797312	54	5974
2026-01-28 15:42:33.97	21.07	4.92	-39.6	-40.8	20.7	0.00e+00	32	32	0	40894464	52	6312
2026-01-28 15:42:34.98	21.04	4.99	-39.6	-40.8	20.7	0.00e+00	0	32	0	42991616	52	6307
2026-01-28 15:42:35.99	21.01	5.07	-39.2	-40.4	21.1	0.00e+00	0	32	0	45088768	52	5976
2026-01-28 15:42:37.00	20.98	5.14	-39.1	-40.2	21.3	0.00e+00	0	32	0	47185920	52	5863
2026-01-28 15:42:38.01	20.95	5.21	-39.1	-40.2	21.3	0.00e+00	0	32	0	48234496	52	5882
2026-01-28 15:42:39.02	20.92	5.28	-38.8	-39.9	21.4	0.00e+00	0	32	0	50331648	52	5660
2026-01-28 15:42:40.03	20.89	5.35	-39.1	-40.3	21.3	0.00e+00	0	32	0	52428800	52	5910
2026-01-28 15:42:41.04	20.86	5.42	-39.1	-40.3	21.2	0.00e+00	79	32	0	54525952	52	5928
2026-01-28 15:42:42.05	20.83	5.49	-39.1	-40.3	21.3	0.00e+00	0	32	0	56623104	52	5932
2026-01-28 15:42:43.06	20.80	5.56	-38.7	-39.8	21.8	0.00e+00	0	32	0	58720256	50	6257
2026-01-28 15:42:44.07	20.77	5.64	-38.8	-39.9	21.6	0.00e+00	0	32	0	59768832	50	6368
2026-01-28 15:42:45.08	20.74	5.71	-38.4	-39.5	21.9	0.00e+00	15	32	0	61865984	50	6055
2026-01-28 15:42:46.08	20.70	5.78	-38.8	-39.9	21.6	0.00e+00	73	32	0	63963136	50	6372
2026-01-28 15:42:47.10	20.67	5.85	-38.7	-39.8	21.7	0.00e+00	0	32	0	66060288	50	6297
2026-01-28 15:42:48.11	20.64	5.93	-38.7	-39.8	21.7	0.00e+00	67	32	0	68157440	50	6276
2026-01-28 15:42:49.11	20.61	6.00	-38.6	-39.7	21.8	0.00e+00	9	32	0	69206016	50	6211
2026-01-28 15:42:50.13	20.58	6.07	-38.5	-39.6	22.0	0.00e+00	0	32	0	71303168	50	6143
2026-01-28 15:42:51.14	20.55	6.15	-38.6	-39.6	22.0	0.00e+00	0	32	0	73400320	50	6160
2026-01-28 15:42:52.14	20.52	6.22	-38.5	-39.5	22.0	0.00e+00	21	32	0	75497472	50	6090
2026-01-28 15:42:53.15	20.48	6.29	-38.1	-39.1	22.4	0.00e+00	73	32	0	77594624	50	5790
2026-01-28 15:42:54.16	20.45	6.37	-38.7	-39.7	21.8	0.00e+00	0	32	0	78643200	50	6244
2026-01-28 15:42:55.17	20.42	6.44	-38.6	-39.7	21.9	0.00e+00	90	32	0	80740352	50	6199
2026-01-28 15:42:56.18	20.39	6.52	-38.4	-39.4	22.1	0.00e+00	0	32	0	82837504	50	6020
2026-01-28 15:42:57.19	20.35	6.59	-38.4	-39.5	22.1	0.00e+00	0	32	0	84934656	50	6045
2026-01-28 15:42:58.20	20.32	6.67	-38.6	-39.7	21.8	0.00e+00	0	32	0	87031808	50	6189
2026-01-28 15:42:59.21	20.29	6.74	-39.0	-40.1	21.6	0.00e+00	0	32	0	88080384	50	6523
2026-01-28 15:43:00.22	20.25	6.82	-38.3	-39.3	22.2	0.00e+00	12	32	0	90177536	50	5955
2026-01-28 15:43:01.23	20.22	6.89	-38.2	-39.2	22.3	0.00e+00	0	32	0	92274688	50	5849
2026-01-28 15:43:02.24	20.18	6.97	-38.4	-39.4	22.1	0.00e+00	92	32	0	94371840	50	6019
2026-01-28 15:43:03.25	20.15	7.04	-38.3	-39.3	22.2	0.00e+00	0	32	0	96468992	50	5933
2026-01-28 15:43:04.26	20.12	7.12	-38.0	-39.0	22.5	0.00e+00	59	32	0	97517568	50	5740
2026-01-28 15:43:05.27	20.08	7.20	-37.8	-38.8	22.6	0.00e+00	0	32	0	99614720	50	5624
2026-01-28 15:43:06.28	20.05	7.27	-38.0	-39.0	22.5	0.00e+00	0	32	0	101711872	50	5739
2026-01-28 15:43:07.29	20.01	7.35	-37.9	-38.9	22.5	0.00e+00	7	32	0	103809024	50	5685
2026-01-28 15:43:08.30	19.98	7.43	-38.0	-39.0	22.5	0.00e+00	0	32	0	105906176	50	5729
2026-01-28 15:43:09.31	19.94	7.50	-38.0	-39.0	22.5	0.00e+00	92	32	0	106954752	50	5755
2026-01-28 15:43:10.32	19.91	7.58	-37.7	-38.7	22.7	0.00e+00	0	32	0	109051904	50	5535
2026-01-28 15:43:11.33	19.87	7.66	-37.8	-38.7	22.7	0.00e+00	92	32	0	111149056	48	6240
2026-01-28 15:43:12.34	19.83	7.74	-37.8	-38.8	22.7	0.00e+00	0	32	0	113246208	48	6295
2026-01-28 15:43:13.35	19.80	7.81	-37.8	-38.8	22.6	0.00e+00	0	32	0	115343360	48	6291
2026-01-28 15:43:14.36	19.76	7.89	-37.8	-38.8	22.6	0.00e+00	0	32	0	116391936	48	6294
2026-01-28 15:43:15.37	19.72	7.97	-37.7	-38.7	22.7	0.00e+00	0	32	0	118489088	48	6214
2026-01-28 15:43:16.38	19.69	8.05	-37.6	-38.6	22.9	0.00e+00	92	32	0	120586240	48	6116
2026-01-28 15:43:17.39	19.65	8.13	-37.9	-38.8	22.7	0.00e+00	0	32	0	122683392	48	6300
2026-01-28 15:43:18.40	19.61	8.21	-37.8	-38.7	22.8	0.00e+00	92	32	0	124780544	48	6215
2026-01-28 15:43:19.41	19.58	8.29	-37.9	-38.9	22.6	0.00e+00	0	32	0	126877696	48	6367
2026-01-28 15:43:20.42	19.54	8.37	-37.8	-38.7	22.8	0.00e+00	0	32	0	127926272	48	6238
2026-01-28 15:43:21.43	19.50	8.45	-37.7	-38.7	22.8	0.00e+00	0	32	0	130023424	48	6204
2026-01-28 15:43:22.44	19.46	8.53	-38.0	-39.0	22.7	0.00e+00	0	32	0	132120576	48	6409
2026-01-28 15:43:23.45	19.42	8.61	-38.0	-38.9	22.7	0.00e+00	82	32	0	134217728	48	6374
2026-01-28 15:43:24.46	19.38	8.69	-37.7	-38.7	22.8	0.00e+00	0	32	0	136314880	48	6190
2026-01-28 15:43:25.46	19.35	8.77	-37.8	-38.8	22.9	0.00e+00	80	32	0	137363456	48	6290
2026-01-28 15:43:26.47	19.31	8.85	-37.8	-38.8	22.7	0.00e+00	0	32	0	139460608	48	6270
2026-01-28 15:43:27.48	19.27	8.93	-37.7	-38.7	22.8	0.00e+00	0	32	0	141557760	48	6217
2026-01-28 15:43:28.49	19.23	9.01	-37.7	-38.7	22.8	0.00e+00	0	32	0	143654912	48	6211
2026-01-28 15:43:29.50	19.19	9.09	-37.7	-38.7	22.7	0.00e+00	0	32	0	145752064	48	6199
2026-01-28 15:43:30.51	19.15	9.18	-37.7	-38.7	22.9	0.00e+00	34	32	0	146800640	48	6201
2026-01-28 15:43:31.51	19.11	9.26	-37.7	-38.6	22.8	0.00e+00	0	32	0	148897792	48	6163
2026-01-28 15:43:32.52	19.07	9.34	-37.9	-38.8	22.8	0.00e+00	51	32	0	150994944	48	6303
2026-01-28 15:43:33.53	19.03	9.42	-37.8	-38.8	22.4	0.00e+00	0	32	0	153092096	48	6307
2026-01-28 15:43:34.54	18.98	9.51	-37.7	-38.6	22.5	0.00e+00	0	32	0	155189248	48	6162
2026-01-28 15:43:35.55	18.94	9.59	-37.6	-38.6	22.5	0.00e+00	0	32	0	156237824	48	6110
2026-01-28 15:43:36.56	18.90	9.67	-37.7	-38.7	22.5	0.00e+00	0	32	0	158334976	48	6179
2026-01-28 15:43:37.57	18.86	9.76	-37.7	-38.7	22.9	0.00e+00	1	32	0	160432128	48	6186
2026-01-28 15:43:38.58	18.82	9.84	-37.9	-38.9	22.4	0.00e+00	0	32	0	162529280	48	6339
2026-01-28 15:43:39.59	18.77	9.93	-38.1	-39.1	22.7	0.00e+00	78	32	0	164626432	48	6483
2026-01-28 15:43:40.60	18.73	10.01	-37.8	-38.8	22.8	0.00e+00	0	32	0	165675008	48	6284
2026-01-28 15:43:41.61	18.69	10.10	-37.6	-38.6	22.9	0.00e+00	92	32	0	167772160	48	6123
2026-01-28 15:43:42.62	18.65	10.18	-37.7	-38.6	22.9	0.00e+00	0	32	0	169869312	48	6151
2026-01-28 15:43:43.62	18.60	10.27	-37.8	-38.8	22.8	0.00e+00	0	32	0	171966464	48	6305
2026-01-28 15:43:44.63	18.56	10.35	-37.4	-38.4	23.1	0.00e+00	0	32	0	174063616	48	5979
2026-01-28 15:43:45.64	18.51	10.44	-37.6	-38.5	23.0	0.00e+00	0	32	0	175112192	48	6086
2026-01-28 15:43:46.65	18.47	10.53	-37.6	-38.5	23.1	0.00e+00	91	32	0	177209344	48	6081
2026-01-28 15:43:47.66	18.42	10.61	-37.5	-38.5	23.1	0.00e+00	0	32	0	179306496	48	6050
2026-01-28 15:43:48.67	18.38	10.70	-37.8	-38.8	22.8	0.00e+00	92	32	0	181403648	48	6256
2026-01-28 15:43:49.68	18.33	10.79	-37.7	-38.7	22.9	0.00e+00	0	32	0	183500800	48	6208
2026-01-28 15:43:50.69	18.29	10.87	-37.6	-38.5	23.1	0.00e+00	0	32	0	184549376	48	6084
2026-01-28 15:43:51.70	18.24	10.96	-37.7	-38.7	23.0	0.00e+00	0	32	0	186646528	48	6201
2026-01-28 15:43:52.71	18.20	11.05	-37.5	-38.5	23.1	0.00e+00	0	32	0	188743680	48	6043
2026-01-28 15:43:53.72	18.15	11.14	-37.4	-38.4	23.3	0.00e+00	91	32	0	190840832	48	5966
2026-01-28 15:43:54.73	18.10	11.23	-37.3	-38.3	23.3	0.00e+00	0	32	0	192937984	48	5905
2026-01-28 15:43:55.74	18.06	11.32	-37.3	-38.2	23.3	0.00e+00	43	32	0	195035136	48	5893
2026-01-28 15:43:56.74	18.01	11.41	-37.2	-38.1	23.4	0.00e+00	0	32	0	196083712	48	5828
2026-01-28 15:43:57.75	17.96	11.50	-37.3	-38.2	23.4	0.00e+00	0	32	0	198180864	48	5887
2026-01-28 15:43:58.76	17.91	11.59	-37.3	-38.3	23.3	0.00e+00	0	32	0	200278016	48	5919
2026-01-28 15:43:59.77	17.86	11.68	-37.2	-38.1	23.4	0.00e+00	0	32	0	202375168	48	5825
2026-01-28 15:44:00.78	17.82	11.77	-37.3	-38.2	23.4	0.00e+00	14	32	0	204472320	48	5878
2026-01-28 15:44:01.79	17.77	11.86	-37.4	-38.3	23.3	0.00e+00	0	32	0	205520896	48	5931
2026-01-28 15:44:02.80	17.72	11.95	-37.4	-38.3	23.1	0.00e+00	74	32	0	207618048	48	5952
2026-01-28 15:44:03.81	17.67	12.04	-37.4	-38.3	23.4	0.00e+00	0	32	0	209715200	48	5920
2026-01-28 15:44:04.82	17.62	12.13	-37.3	-38.2	23.4	0.00e+00	0	32	0	211812352	48	5883
2026-01-28 15:44:05.83	17.57	12.23	-37.3	-38.2	23.4	0.00e+00	0	32	0	213909504	48	5853
2026-01-28 15:44:06.84	17.52	12.32	-37.4	-38.3	23.2	0.00e+00	0	32	0	214958080	48	5962
2026-01-28 15:44:07.85	17.47	12.41	-37.3	-38.2	23.4	0.00e+00	15	32	0	217055232	48	5844
2026-01-28 15:44:08.86	17.41	12.50	-37.6	-38.5	23.2	0.00e+00	0	32	0	219152384	48	6080
2026-01-28 15:44:09.86	17.36	12.60	-37.3	-38.2	23.4	0.00e+00	92	32	0	221249536	48	5843
2026-01-28 15:44:10.87	17.31	12.69	-37.3	-38.2	23.4	0.00e+00	0	32	0	223346688	48	5854
2026-01-28 15:44:11.88	17.26	12.78	-37.3	-38.2	23.4	0.00e+00	58	32	0	224395264	48	5886
2026-01-28 15:44:12.89	17.21	12.88	-37.0	-37.9	23.6	0.00e+00	0	32	0	226492416	48	5691
2026-01-28 15:44:13.90	17.15	12.97	-36.9	-37.8	23.8	0.00e+00	0	32	0	228589568	48	5587
2026-01-28 15:44:14.91	17.10	13.07	-37.2	-38.1	23.4	0.00e+00	0	32	0	230686720	48	5825
2026-01-28 15:44:15.92	17.04	13.17	-37.1	-38.0	23.6	0.00e+00	0	32	0	232783872	48	5719
2026-01-28 15:44:16.93	16.99	13.26	-36.9	-37.8	23.7	0.00e+00	15	32	0	233832448	48	5603
2026-01-28 15:44:17.94	16.94	13.36	-37.0	-37.9	23.6	0.00e+00	0	32	0	235929600	46	6380
2026-01-28 15:44:18.95	16.88	13.45	-37.0	-37.9	23.7	0.00e+00	83	32	0	238026752	46	6339
2026-01-28 15:44:19.95	16.83	13.55	-36.9	-37.8	23.7	0.00e+00	0	32	0	240123904	46	6292
2026-01-28 15:44:20.96	16.77	13.65	-37.0	-37.9	23.8	0.00e+00	0	32	0	242221056	46	6332
2026-01-28 15:44:21.97	16.71	13.75	-37.0	-37.9	23.6	0.00e+00	0	32	0	243269632	46	6347
2026-01-28 15:44:22.98	16.66	13.84	-37.1	-38.0	23.6	0.00e+00	0	32	0	245366784	46	6408
2026-01-28 15:44:23.99	16.60	13.94	-36.7	-37.6	23.9	0.00e+00	0	32	0	247463936	46	6140
2026-01-28 15:44:25.00	16.54	14.04	-37.0	-37.9	23.7	0.00e+00	0	32	0	249561088	46	6343
2026-01-28 15:44:26.01	16.48	14.14	-37.0	-37.9	23.7	0.00e+00	92	32	0	251658240	46	6342
2026-01-28 15:44:27.02	16.43	14.24	-36.9	-37.8	23.8	0.00e+00	0	32	0	252706816	46	6258
2026-01-28 15:44:28.03	16.37	14.34	-36.7	-37.6	23.9	0.00e+00	0	32	0	254803968	46	6111
2026-01-28 15:44:29.04	16.31	14.44	-36.7	-37.5	24.0	0.00e+00	0	32	0	256901120	46	6072
2026-01-28 15:44:30.05	16.25	14.54	-36.8	-37.7	24.0	0.00e+00	0	32	0	258998272	46	6180
2026-01-28 15:44:31.06	16.19	14.64	-36.7	-37.5	24.1	0.00e+00	0	32	0	261095424	46	6087
2026-01-28 15:44:32.07	16.13	14.74	-36.7	-37.6	24.0	0.00e+00	0	32	0	263192576	46	6119
2026-01-28 15:44:33.08	16.07	14.85	-36.7	-37.5	24.1	0.00e+00	88	32	0	264241152	46	6072
2026-01-28 15:44:34.09	16.01	14.95	-36.6	-37.5	24.1	0.00e+00	0	32	0	266338304	46	6048
2026-01-28 15:44:35.10	15.94	15.05	-36.6	-37.5	24.0	0.00e+00	0	32	0	268435456	46	6063
2026-01-28 15:44:36.11	15.88	15.15	-36.5	-37.4	24.1	0.00e+00	19	32	0	270532608	46	5975
2026-01-28 15:44:37.12	15.82	15.26	-36.4	-37.3	24.2	0.00e+00	0	32	0	272629760	46	5912
2026-01-28 15:44:38.13	15.76	15.36	-36.6	-37.4	24.1	0.00e+00	76	32	0	273678336	46	6016
2026-01-28 15:44:39.14	15.69	15.47	-36.6	-37.5	24.1	0.00e+00	13	32	0	275775488	46	6059
2026-01-28 15:44:40.15	15.63	15.57	-36.6	-37.4	24.0	0.00e+00	92	32	0	277872640	46	6022
2026-01-28 15:44:41.16	15.56	15.68	-36.6	-37.4	24.1	0.00e+00	0	32	0	279969792	46	6017
2026-01-28 15:44:42.17	15.50	15.78	-36.6	-37.4	24.1	0.00e+00	16	32	0	282066944	46	6011
2026-01-28 15:44:43.18	15.43	15.89	-36.7	-37.5	24.0	0.00e+00	0	32	0	283115520	46	6099
2026-01-28 15:44:44.18	15.37	15.99	-36.7	-37.6	23.9	0.00e+00	0	32	0	285212672	46	6104
2026-01-28 15:44:45.19	15.30	16.10	-36.5	-37.3	24.2	0.00e+00	15	32	0	287309824	46	5927
2026-01-28 15:44:46.20	15.23	16.21	-36.7	-37.5	24.1	0.00e+00	0	32	0	289406976	46	6085
2026-01-28 15:44:47.21	15.17	16.31	-36.7	-37.6	23.9	0.00e+00	53	32	0	291504128	46	6127
2026-01-28 15:44:48.22	15.10	16.42	-36.5	-37.4	24.1	0.00e+00	0	32	0	292552704	46	5984
2026-01-28 15:44:49.23	15.03	16.53	-36.6	-37.4	24.0	0.00e+00	91	32	0	294649856	46	6024
2026-01-28 15:44:50.24	14.96	16.64	-36.7	-37.6	24.1	0.00e+00	0	32	0	296747008	46	6128
2026-01-28 15:44:51.25	14.89	16.75	-36.6	-37.5	24.1	0.00e+00	0	32	0	298844160	46	6040
2026-01-28 15:44:52.26	14.82	16.86	-36.7	-37.6	24.0	0.00e+00	0	32	0	300941312	46	6108
2026-01-28 15:44:53.27	14.75	16.97	-36.7	-37.5	24.1	0.00e+00	0	32	0	301989888	46	6079
2026-01-28 15:44:54.28	14.68	17.08	-36.7	-37.6	24.0	0.00e+00	92	32	0	304087040	46	6140
2026-01-28 15:44:55.29	14.61	17.19	-36.6	-37.5	24.0	0.00e+00	0	32	0	306184192	46	6060
2026-01-28 15:44:56.29	14.53	17.30	-36.7	-37.6	24.0	0.00e+00	92	32	0	308281344	46	6125
2026-01-28 15:44:57.31	14.46	17.42	-36.8	-37.7	23.8	0.00e+00	0	32	0	310378496	46	6176
2026-01-28 15:44:58.31	14.39	17.53	-36.7	-37.6	24.1	0.00e+00	0	32	0	311427072	46	6117
2026-01-28 15:44:59.32	14.31	17.64	-37.0	-37.9	23.8	0.00e+00	0	32	0	313524224	46	6356
2026-01-28 15:45:00.33	14.24	17.75	-36.9	-37.7	23.9	0.00e+00	0	32	0	315621376	46	6241
2026-01-28 15:45:01.34	14.16	17.87	-36.7	-37.6	24.0	0.00e+00	91	32	0	317718528	46	6130
2026-01-28 15:45:02.35	14.09	17.98	-36.8	-37.6	24.0	0.00e+00	0	32	0	319815680	46	6171
2026-01-28 15:45:03.36	14.01	18.10	-36.9	-37.8	23.9	0.00e+00	87	32	0	320864256	46	6278
2026-01-28 15:45:04.37	13.93	18.21	-37.0	-37.9	23.8	0.00e+00	0	32	0	322961408	46	6331
2026-01-28 15:45:05.38	13.86	18.33	-36.9	-37.7	23.9	0.00e+00	0	32	0	325058560	46	6238
2026-01-28 15:45:06.39	13.78	18.45	-36.9	-37.8	23.8	0.00e+00	0	32	0	327155712	46	6249
2026-01-28 15:45:07.40	13.70	18.56	-37.1	-38.0	23.7	0.00e+00	0	32	0	329252864	46	6425
2026-01-28 15:45:08.41	13.62	18.68	-36.8	-37.6	23.9	0.00e+00	63	32	0	330301440	46	6143
2026-01-28 15:45:09.41	13.54	18.80	-36.9	-37.8	24.0	0.00e+00	0	32	0	332398592	46	6274
2026-01-28 15:45:10.42	13.46	18.91	-36.9	-37.8	24.0	0.00e+00	72	32	0	334495744	46	6256
2026-01-28 15:45:11.43	13.38	19.03	-36.8	-37.7	24.0	0.00e+00	0	32	0	336592896	46	6192
2026-01-28 15:45:12.44	13.30	19.15	-36.6	-37.5	24.1	0.00e+00	0	32	0	338690048	46	6065
2026-01-28 15:45:13.45	13.21	19.27	-36.8	-37.7	24.0	0.00e+00	0	32	0	339738624	46	6197
2026-01-28 15:45:14.46	13.13	19.39	-36.6	-37.5	24.2	0.00e+00	0	32	0	341835776	46	6049
2026-01-28 15:45:15.47	13.04	19.51	-36.7	-37.5	24.1	0.00e+00	11	32	0	343932928	46	6080
2026-01-28 15:45:16.48	12.96	19.64	-36.6	-37.4	24.1	0.00e+00	0	32	0	346030080	46	5987
2026-01-28 15:45:17.49	12.87	19.76	-36.8	-37.6	23.9	0.00e+00	91	32	0	348127232	46	6172
2026-01-28 15:45:18.50	12.79	19.88	-37.0	-37.8	23.9	0.00e+00	0	32	0	349175808	46	6306
2026-01-28 15:45:19.51	12.70	20.00	-37.1	-38.0	23.9	0.00e+00	0	32	0	351272960	46	6427
2026-01-28 15:45:20.51	12.61	20.13	-36.9	-37.8	23.9	0.00e+00	0	32	0	353370112	46	6266
2026-01-28 15:45:21.52	12.52	20.25	-37.1	-38.0	23.8	0.00e+00	0	32	0	355467264	46	6408
2026-01-28 15:45:22.53	12.43	20.38	-37.2	-38.1	23.8	0.00e+00	10	32	0	357564416	46	6503
2026-01-28 15:45:23.54	12.34	20.50	-37.3	-38.2	23.6	0.00e+00	0	32	0	359661568	46	6548
2026-01-28 15:45:24.55	12.25	20.63	-37.3	-38.2	23.6	0.00e+00	8	32	0	360710144	46	6548
2026-01-28 15:45:25.56	12.16	20.75	-37.3	-38.2	23.7	0.00e+00	0	32	0	362807296	46	6568
2026-01-28 15:45:26.57	12.07	20.88	-37.2	-38.1	23.7	0.00e+00	27	32	0	364904448	46	6511
2026-01-28 15:45:27.58	11.98	21.01	-37.5	-38.4	23.3	0.00e+00	0	32	0	367001600	46	6747
2026-01-28 15:45:28.59	11.88	21.14	-37.7	-38.6	23.4	0.00e+00	0	32	0	369098752	46	6864
2026-01-28 15:45:29.60	11.79	21.26	-37.5	-38.4	23.6	0.00e+00	0	32	0	370147328	46	6737
2026-01-28 15:45:30.61	11.69	21.39	-37.5	-38.4	23.4	0.00e+00	0	32	0	372244480	46	6696
2026-01-28 15:45:31.62	11.59	21.52	-37.6	-38.5	23.4	0.00e+00	17	32	0	374341632	48	6100
2026-01-28 15:45:32.62	11.50	21.65	-37.5	-38.4	23.4	0.00e+00	0	32	0	376438784	48	6016
2026-01-28 15:45:33.63	11.40	21.78	-37.4	-38.3	23.5	0.00e+00	92	32	0	378535936	48	5939
2026-01-28 15:45:34.64	11.30	21.91	-37.8	-38.8	23.2	0.00e+00	0	32	0	379584512	48	6258
2026-01-28 15:45:35.65	11.20	22.05	-38.0	-39.0	23.0	0.00e+00	0	32	0	381681664	48	6402
2026-01-28 15:45:36.66	11.10	22.18	-38.2	-39.1	23.0	0.00e+00	0	32	0	383778816	48	6533
2026-01-28 15:45:37.67	11.00	22.31	-38.1	-39.0	23.1	0.00e+00	0	32	0	385875968	48	6439
2026-01-28 15:45:38.68	10.90	22.45	-38.1	-39.0	22.9	0.00e+00	82	32	0	387973120	48	6439
2026-01-28 15:45:39.69	10.79	22.58	-37.8	-38.7	23.3	0.00e+00	0	32	0	389021696	48	6223
2026-01-28 15:45:40.70	10.69	22.72	-38.1	-39.0	23.0	0.00e+00	31	32	0	391118848	48	6443
2026-01-28 15:45:41.71	10.58	22.85	-38.2	-39.1	23.0	0.00e+00	0	32	0	393216000	48	6501
2026-01-28 15:45:42.72	10.48	22.99	-37.8	-38.7	23.3	0.00e+00	0	32	0	395313152	48	6245
2026-01-28 15:45:43.72	10.37	23.12	-38.1	-39.1	23.0	0.00e+00	0	32	0	397410304	48	6471
2026-01-28 15:45:44.73	10.26	23.26	-37.8	-38.7	23.2	0.00e+00	0	32	0	398458880	48	6244
2026-01-28 15:45:45.74	10.15	23.40	-37.8	-38.7	23.3	0.00e+00	66	32	0	400556032	48	6201
2026-01-28 15:45:46.75	10.04	23.54	-38.1	-39.0	23.1	0.00e+00	0	32	0	402653184	48	6444
2026-01-28 15:45:47.76	9.93	23.68	-38.1	-39.1	23.0	0.00e+00	91	32	0	404750336	48	6490
2026-01-28 15:45:48.77	9.82	23.82	-38.4	-39.4	22.7	0.00e+00	0	32	0	406847488	48	6698
2026-01-28 15:45:49.78	9.70	23.96	-38.8	-39.8	22.5	0.00e+00	0	32	0	407896064	48	7035
2026-01-28 15:45:50.78	9.59	24.10	-38.7	-39.7	22.4	0.00e+00	0	32	0	409993216	50	6235
2026-01-28 15:45:51.79	9.47	24.24	-39.0	-40.1	22.2	0.00e+00	0	32	0	412090368	50	6487
2026-01-28 15:45:52.80	9.36	24.38	-38.6	-39.6	22.5	0.00e+00	17	32	0	414187520	50	6149
2026-01-28 15:45:53.81	9.24	24.53	-38.5	-39.4	22.6	0.00e+00	0	32	0	416284672	50	6027
2026-01-28 15:45:54.82	9.12	24.67	-38.2	-39.2	23.0	0.00e+00	62	32	0	417333248	50	5872
2026-01-28 15:45:55.83	9.00	24.81	-38.6	-39.6	22.5	0.00e+00	0	32	0	419430400	50	6160
2026-01-28 15:45:56.84	8.88	24.96	-38.7	-39.6	22.6	0.00e+00	30	32	0	421527552	50	6169
2026-01-28 15:45:57.85	8.76	25.11	-38.3	-39.2	23.0	0.00e+00	0	32	0	423624704	50	5886
2026-01-28 15:45:58.86	8.63	25.25	-38.2	-39.2	22.9	0.00e+00	0	32	0	425721856	50	5855
2026-01-28 15:45:59.87	8.51	25.40	-38.4	-39.4	23.0	0.00e+00	17	32	0	427819008	50	5986
2026-01-28 15:46:00.88	8.38	25.55	-38.4	-39.3	23.0	0.00e+00	0	32	0	428867584	50	5943
2026-01-28 15:46:01.89	8.26	25.70	-38.1	-39.0	23.1	0.00e+00	92	32	0	430964736	50	5728
2026-01-28 15:46:02.90	8.13	25.85	-38.4	-39.4	22.8	0.00e+00	0	32	0	433061888	50	5973
2026-01-28 15:46:03.90	8.00	25.99	-38.8	-39.8	22.6	0.00e+00	91	32	0	435159040	50	6269
2026-01-28 15:46:04.91	7.87	26.14	-39.0	-40.0	22.0	0.00e+00	0	32	0	436207616	50	6436
2026-01-28 15:46:05.92	7.74	26.30	-39.1	-40.1	22.3	0.00e+00	0	32	0	438304768	50	6515
2026-01-28 15:46:06.93	7.60	26.45	-38.8	-39.8	22.5	0.00e+00	0	32	0	440401920	50	6280
2026-01-28 15:46:07.94	7.47	26.60	-39.3	-40.3	22.3	0.00e+00	0	32	0	442499072	50	6683
2026-01-28 15:46:08.95	7.33	26.75	-39.1	-40.1	22.3	0.00e+00	85	32	0	444596224	50	6510
2026-01-28 15:46:09.96	7.20	26.91	-38.9	-39.9	22.6	0.00e+00	0	32	0	445644800	50	6348
2026-01-28 15:46:10.97	7.06	27.06	-38.9	-39.9	22.4	0.00e+00	75	32	0	447741952	50	6338
2026-01-28 15:46:11.97	6.92	27.22	-38.4	-39.3	22.9	0.00e+00	0	32	0	449839104	50	5951
2026-01-28 15:46:12.98	6.78	27.37	-38.8	-39.8	22.5	0.00e+00	0	32	0	451936256	50	6275
2026-01-28 15:46:13.99	6.63	27.53	-38.3	-39.2	23.0	0.00e+00	0	32	0	454033408	50	5861
2026-01-28 15:46:15.01	6.49	27.69	-38.2	-39.1	23.0	0.00e+00	0	32	0	456130560	50	5824
2026-01-28 15:46:16.02	6.34	27.85	-38.2	-39.1	23.2	0.00e+00	73	32	0	457179136	50	5778
2026-01-28 15:46:17.03	6.19	28.00	-38.2	-39.2	23.2	0.00e+00	0	32	0	459276288	50	5844
2026-01-28 15:46:18.03	6.05	28.16	-38.1	-39.1	23.1	0.00e+00	90	32	0	461373440	50	5767
2026-01-28 15:46:19.04	5.90	28.32	-38.2	-39.1	23.2	0.00e+00	0	32	0	463470592	50	5789
2026-01-28 15:46:20.05	5.74	28.48	-38.3	-39.2	23.0	0.00e+00	0	32	0	465567744	50	5848
2026-01-28 15:46:21.06	5.59	28.64	-39.1	-40.2	22.2	0.00e+00	0	32	0	466616320	50	6569
2026-01-28 15:46:22.07	5.43	28.81	-38.7	-39.7	22.5	0.00e+00	0	32	0	468713472	50	6218
2026-01-28 15:46:23.08	5.28	28.97	-38.8	-39.7	22.7	0.00e+00	15	32	0	470810624	50	6240
2026-01-28 15:46:24.09	5.12	29.13	-38.9	-39.9	22.5	0.00e+00	0	32	0	472907776	50	6320
2026-01-28 15:46:25.10	4.96	29.30	-38.7	-39.7	22.7	0.00e+00	88	32	0	475004928	50	6218
2026-01-28 15:46:26.11	4.80	29.46	-38.6	-39.6	22.7	0.00e+00	0	32	0	476053504	50	6105
2026-01-28 15:46:27.12	4.63	29.63	-38.5	-39.5	22.9	0.00e+00	0	32	0	478150656	50	6063
2026-01-28 15:46:28.13	4.47	29.80	-38.2	-39.1	23.0	0.00e+00	0	32	0	480247808	50	5793
2026-01-28 15:46:29.13	4.30	29.96	-39.1	-40.1	22.4	0.00e+00	11	32	0	482344960	50	6514
2026-01-28 15:46:30.14	4.13	30.13	-38.7	-39.7	22.6	0.00e+00	18	32	0	484442112	50	6200
2026-01-28 15:46:31.15	3.96	30.30	-38.9	-39.9	22.4	0.00e+00	0	32	0	485490688	50	6341
2026-01-28 15:46:32.16	3.79	30.47	-39.0	-40.0	22.3	0.00e+00	91	32	0	487587840	50	6451
2026-01-28 15:46:33.17	3.62	30.64	-39.3	-40.3	21.6	0.00e+00	14	32	0	489684992	50	6683
2026-01-28 15:46:34.17	3.44	30.81	-39.0	-40.0	22.1	0.00e+00	91	32	0	491782144	50	6400
2026-01-28 15:46:35.18	3.27	30.98	-39.5	-40.5	22.1	0.00e+00	0	32	0	493879296	52	6100
2026-01-28 15:46:36.19	3.09	31.15	-39.5	-40.6	21.8	0.00e+00	0	32	0	494927872	52	6138
2026-01-28 15:46:37.20	2.90	31.32	-39.8	-40.9	21.9	0.00e+00	0	32	0	497025024	52	6342
2026-01-28 15:46:38.21	2.72	31.50	-39.3	-40.3	22.1	0.00e+00	0	32	0	499122176	52	5948
2026-01-28 15:46:39.22	2.53	31.67	-39.5	-40.6	21.9	0.00e+00	91	32	0	501219328	52	6159
2026-01-28 15:46:40.23	2.35	31.85	-39.4	-40.5	21.9	0.00e+00	0	32	0	503316480	52	6052
2026-01-28 15:46:41.24	2.16	32.02	-40.2	-41.3	21.2	0.00e+00	36	32	0	504365056	52	6692
2026-01-28 15:46:42.25	1.96	32.20	-40.1	-41.3	20.9	0.00e+00	0	32	0	506462208	52	6654
2026-01-28 15:46:43.26	1.77	32.37	-40.1	-41.3	21.2	0.00e+00	0	32	0	508559360	54	5937
2026-01-28 15:46:44.27	1.57	32.55	-40.7	-42.0	20.7	0.00e+00	0	32	0	510656512	54	6401
2026-01-28 15:46:45.28	1.37	32.73	-40.5	-41.8	21.0	0.00e+00	0	32	0	512753664	54	6265
2026-01-28 15:46:46.28	1.18	32.91	-40.4	-41.6	21.0	0.00e+00	77	32	0	513802240	54	6140
2026-01-28 15:46:47.29	0.97	33.09	-40.5	-41.8	20.8	0.00e+00	0	32	0	515899392	54	6295
2026-01-28 15:46:48.30	0.77	33.27	-40.5	-41.8	20.7	0.00e+00	92	32	0	517996544	54	6274
2026-01-28 15:46:49.31	0.56	33.45	-40.9	-42.2	20.4	0.00e+00	0	32	0	520093696	54	6605
2026-01-28 15:46:50.32	0.35	33.63	-41.8	-43.4	19.2	0.00e+00	0	32	0	522190848	54	7573
2026-01-28 15:46:51.33	0.14	33.81	-41.8	-43.4	19.4	0.00e+00	0	32	0	524288000	56	6723
2026-01-28 15:46:52.34	359.92	33.99	-42.1	-43.7	19.2	0.00e+00	0	32	0	525336576	56	6953
2026-01-28 15:46:53.34	359.71	34.18	-42.0	-43.6	19.4	0.00e+00	15	32	0	527433728	56	6893
2026-01-28 15:46:54.35	359.49	34.36	-41.4	-42.8	20.0	0.00e+00	0	32	0	529530880	56	6251
2026-01-28 15:46:55.36	359.26	34.54	-41.0	-42.3	20.5	0.00e+00	40	32	0	531628032	56	5921
2026-01-28 15:46:56.37	359.04	34.73	-40.6	-41.9	20.9	0.00e+00	0	32	0	533725184	54	6338
2026-01-28 15:46:57.38	358.81	34.91	-39.9	-41.0	21.5	0.00e+00	42	32	0	534773760	54	5755
2026-01-28 15:46:58.39	358.58	35.10	-40.0	-41.1	21.2	0.00e+00	0	32	0	536870912	54	5823
2026-01-28 15:46:59.40	358.35	35.29	-39.7	-40.8	21.6	0.00e+00	0	32	0	538968064	52	6281
2026-01-28 15:47:00.41	358.11	35.48	-39.6	-40.7	21.7	0.00e+00	14	32	0	541065216	52	6201
2026-01-28 15:47:01.42	357.87	35.66	-39.7	-40.9	21.5	0.00e+00	0	32	0	543162368	52	6327
2026-01-28 15:47:02.43	357.63	35.85	-39.8	-40.9	21.6	0.00e+00	57	32	0	544210944	52	6359
2026-01-28 15:47:03.44	357.39	36.04	-39.6	-40.7	21.8	0.00e+00	0	32	0	546308096	52	6245
2026-01-28 15:47:04.45	357.14	36.23	-39.3	-40.4	22.1	0.00e+00	58	32	0	548405248	52	5990
2026-01-28 15:47:05.46	356.89	36.42	-39.3	-40.3	22.4	0.00e+00	0	32	0	550502400	52	5955
2026-01-28 15:47:06.46	356.64	36.61	-39.2	-40.2	22.5	0.00e+00	0	32	0	552599552	52	5878
2026-01-28 15:47:07.47	356.39	36.80	-39.1	-40.2	22.2	0.00e+00	15	32	0	553648128	52	5840
2026-01-28 15:47:08.48	356.13	36.99	-39.4	-40.4	22.0	0.00e+00	0	32	0	555745280	52	6015
2026-01-28 15:47:09.49	355.86	37.18	-39.2	-40.3	22.1	0.00e+00	92	32	0	557842432	52	5944
2026-01-28 15:47:10.50	355.60	37.38	-40.0	-41.1	21.5	0.00e+00	0	32	0	559939584	52	6521
2026-01-28 15:47:11.51	355.33	37.57	-39.8	-41.0	21.7	0.00e+00	92	32	0	562036736	52	6399
2026-01-28 15:47:12.52	355.06	37.76	-39.9	-41.0	21.6	0.00e+00	0	32	0	563085312	52	6464
2026-01-28 15:47:13.53	354.78	37.95	-40.0	-41.2	21.4	0.00e+00	0	32	0	565182464	52	6589
2026-01-28 15:47:14.54	354.51	38.15	-39.5	-40.7	21.7	0.00e+00	0	32	0	567279616	52	6175
2026-01-28 15:47:15.55	354.22	38.34	-40.2	-41.4	21.2	0.00e+00	0	32	0	569376768	52	6763
2026-01-28 15:47:16.56	353.94	38.54	-40.0	-41.2	21.5	0.00e+00	13	32	0	571473920	52	6545
2026-01-28 15:47:17.57	353.65	38.73	-39.6	-40.7	21.7	0.00e+00	0	32	0	572522496	52	6230
2026-01-28 15:47:18.57	353.36	38.92	-39.1	-40.1	22.3	0.00e+00	92	32	0	574619648	52	5817
2026-01-28 15:47:19.58	353.07	39.12	-38.6	-39.5	23.0	0.00e+00	0	32	0	576716800	50	6052
2026-01-28 15:47:20.59	352.77	39.31	-38.9	-39.9	22.5	0.00e+00	0	32	0	578813952	50	6346
2026-01-28 15:47:21.60	352.46	39.51	-39.3	-40.4	22.0	0.00e+00	0	32	0	580911104	50	6712
2026-01-28 15:47:22.61	352.16	39.71	-40.4	-41.7	20.8	0.00e+00	0	32	0	581959680	52	6983
2026-01-28 15:47:23.62	351.85	39.90	-40.7	-42.0	20.7	0.00e+00	43	32	0	584056832	54	6455
2026-01-28 15:47:24.63	351.53	40.10	-40.8	-42.2	20.4	0.00e+00	0	32	0	586153984	54	6594
2026-01-28 15:47:25.64	351.22	40.29	-39.9	-41.2	21.4	0.00e+00	77	32	0	588251136	54	5848
2026-01-28 15:47:26.65	350.89	40.49	-39.1	-40.1	22.3	0.00e+00	0	32	0	590348288	52	5826
2026-01-28 15:47:27.65	350.57	40.69	-38.8	-39.8	22.8	0.00e+00	38	32	0	591396864	50	6267
2026-01-28 15:47:28.66	350.24	40.88	-38.3	-39.2	23.0	0.00e+00	0	32	0	593494016	50	5878
2026-01-28 15:47:29.67	349.91	41.08	-38.3	-39.2	22.9	0.00e+00	0	32	0	595591168	50	5887
2026-01-28 15:47:30.68	349.57	41.27	-38.3	-39.3	23.0	0.00e+00	18	32	0	597688320	50	5928
2026-01-28 15:47:31.69	349.23	41.47	-39.1	-40.2	22.0	0.00e+00	0	32	0	599785472	50	6541
2026-01-28 15:47:32.70	348.88	41.67	-39.4	-40.5	22.0	0.00e+00	90	32	0	600834048	50	6770
2026-01-28 15:47:33.71	348.53	41.86	-40.0	-41.2	21.4	0.00e+00	0	32	0	602931200	52	6596
2026-01-28 15:47:34.72	348.18	42.06	-40.3	-41.5	21.0	0.00e+00	0	32	0	605028352	52	6828
2026-01-28 15:47:35.73	347.82	42.25	-40.6	-42.0	20.7	0.00e+00	0	33	0	607125504	54	6420
2026-01-28 15:47:36.74	347.45	42.45	-39.9	-41.1	21.4	0.00e+00	0	33	0	609222656	54	5822
2026-01-28 15:47:37.74	347.09	42.64	-40.1	-41.3	21.3	0.00e+00	17	33	0	610271232	54	5919
2026-01-28 15:47:38.75	346.71	42.84	-40.3	-41.5	21.2	0.00e+00	0	33	0	612368384	54	6100
2026-01-28 15:47:39.76	346.34	43.03	-40.5	-41.8	20.8	0.00e+00	11	33	0	614465536	54	6287
2026-01-28 15:47:40.77	345.96	43.22	-41.3	-42.8	20.2	0.00e+00	0	33	0	616562688	54	7032
2026-01-28 15:47:41.78	345.57	43.42	-41.5	-42.9	19.9	0.00e+00	90	32	0	618659840	54	7157
2026-01-28 15:47:42.79	345.18	43.61	-41.9	-43.5	19.6	0.00e+00	0	32	0	620756992	56	6823
2026-01-28 15:47:43.80	344.78	43.80	-41.2	-42.7	20.4	0.00e+00	0	32	0	621805568	56	6214
2026-01-28 15:47:44.81	344.38	43.99	-41.2	-42.7	20.2	0.00e+00	0	32	0	623902720	56	6199
2026-01-28 15:47:45.82	343.97	44.18	-41.0	-42.4	20.4	0.00e+00	0	32	0	625999872	56	5987
2026-01-28 15:47:46.83	343.56	44.37	-41.4	-42.9	20.1	0.00e+00	20	32	0	628097024	56	6361
2026-01-28 15:47:47.84	343.15	44.56	-41.1	-42.6	20.3	0.00e+00	0	33	0	630194176	56	6108
2026-01-28 15:47:48.84	342.73	44.75	-42.0	-43.6	19.6	0.00e+00	92	32	0	631242752	56	6866
2026-01-28 15:47:49.85	342.31	44.94	-42.0	-43.7	19.2	0.00e+00	0	32	0	633339904	56	6961
2026-01-28 15:47:50.86	341.88	45.13	-42.3	-44.0	18.9	0.00e+00	0	32	0	635437056	56	7242
2026-01-28 15:47:51.88	341.44	45.31	-41.9	-43.5	19.8	0.00e+00	0	32	0	637534208	56	6812
2026-01-28 15:47:52.89	340.99	45.50	-41.1	-42.5	20.4	0.00e+00	0	32	0	639631360	56	6060
2026-01-28 15:47:53.90	340.55	45.68	-40.9	-42.2	20.5	0.00e+00	21	33	0	640679936	56	5883
2026-01-28 15:47:54.90	340.10	45.86	-40.8	-42.1	20.5	0.00e+00	0	32	0	642777088	54	6503
2026-01-28 15:47:55.91	339.64	46.04	-41.1	-42.5	20.3	0.00e+00	92	32	0	644874240	54	6818
2026-01-28 15:47:56.92	339.18	46.23	-40.5	-41.8	21.2	0.00e+00	0	32	0	646971392	54	6282
2026-01-28 15:47:57.93	338.71	46.40	-39.4	-40.5	22.2	0.00e+00	23	32	0	649068544	52	6065
2026-01-28 15:47:58.94	338.24	46.58	-37.8	-38.7	23.5	0.00e+00	0	32	0	650117120	50	5516
2026-01-28 15:47:59.95	337.76	46.76	-37.1	-37.9	24.0	0.00e+00	0	33	0	652214272	48	5678
2026-01-28 15:48:00.96	337.28	46.93	-36.9	-37.7	24.2	0.00e+00	50	32	0	654311424	48	5539
2026-01-28 15:48:01.97	336.79	47.11	-37.7	-38.6	23.4	0.00e+00	0	32	0	656408576	48	6108
2026-01-28 15:48:02.97	336.30	47.28	-38.5	-39.6	22.6	0.00e+00	90	33	0	658505728	48	6858
2026-01-28 15:48:03.98	335.80	47.45	-39.6	-40.8	21.7	0.00e+00	0	32	0	659554304	50	7083
2026-01-28 15:48:04.99	335.29	47.61	-39.8	-41.0	21.6	0.00e+00	44	32	0	661651456	52	6429
2026-01-28 15:48:06.00	334.78	47.78	-39.0	-40.1	22.4	0.00e+00	0	32	0	663748608	52	5783
2026-01-28 15:48:07.01	334.27	47.95	-38.7	-39.7	22.7	0.00e+00	0	33	0	665845760	50	6180
2026-01-28 15:48:08.02	333.74	48.11	-38.2	-39.1	23.1	0.00e+00	0	32	0	667942912	50	5800
2026-01-28 15:48:09.03	333.22	48.27	-38.6	-39.7	22.5	0.00e+00	0	32	0	668991488	50	6180
2026-01-28 15:48:10.04	332.68	48.43	-39.5	-40.8	21.7	0.00e+00	83	33	0	671088640	50	7016
2026-01-28 15:48:11.05	332.14	48.58	-39.8	-41.0	21.5	0.00e+00	0	33	0	673185792	52	6428
2026-01-28 15:48:12.06	331.60	48.74	-39.5	-40.6	21.9	0.00e+00	73	32	0	675282944	52	6162
2026-01-28 15:48:13.07	331.05	48.89	-38.3	-39.2	23.0	0.00e+00	18	33	0	677380096	50	5873
2026-01-28 15:48:14.08	330.50	49.04	-38.1	-39.0	23.1	0.00e+00	0	33	0	678428672	50	5715
2026-01-28 15:48:15.09	329.94	49.19	-38.0	-38.9	23.2	0.00e+00	18	32	0	680525824	50	5654
2026-01-28 15:48:16.10	329.37	49.33	-38.2	-39.2	22.8	0.00e+00	18	32	0	682622976	50	5853
2026-01-28 15:48:17.11	328.80	49.47	-39.1	-40.1	22.4	0.00e+00	27	32	0	684720128	50	6530
2026-01-28 15:48:18.12	328.22	49.61	-39.0	-40.1	22.4	0.00e+00	0	32	0	686817280	50	6474
2026-01-28 15:48:19.12	327.65	49.75	-38.7	-39.7	22.6	0.00e+00	92	32	0	688914432	50	6212
2026-01-28 15:48:20.13	327.06	49.88	-38.5	-39.5	22.8	0.00e+00	22	32	0	689963008	50	6067
2026-01-28 15:48:21.14	326.47	50.01	-38.2	-39.2	22.8	0.00e+00	0	32	0	692060160	50	5882
2026-01-28 15:48:22.15	325.87	50.14	-38.6	-39.6	22.5	0.00e+00	0	32	0	694157312	50	6159
2026-01-28 15:48:23.16	325.27	50.27	-39.0	-40.0	22.4	0.00e+00	15	33	0	696254464	50	6445
2026-01-28 15:48:24.17	324.66	50.39	-39.2	-40.3	22.2	0.00e+00	19	33	0	698351616	50	6637
2026-01-28 15:48:25.18	324.05	50.51	-40.8	-42.2	20.4	0.00e+00	0	32	0	699400192	52	7351
2026-01-28 15:48:26.19	323.43	50.62	-42.4	-44.3	18.8	0.00e+00	91	33	0	701497344	56	7435
2026-01-28 15:48:27.20	322.81	50.73	-42.1	-43.9	18.8	0.00e+00	0	32	0	703594496	58	6339
2026-01-28 15:48:28.21	322.18	50.84	-41.2	-42.7	19.8	0.00e+00	0	33	0	705691648	56	6241
2026-01-28 15:48:29.22	321.55	50.95	-39.9	-41.1	21.6	0.00e+00	0	33	0	707788800	54	5767
2026-01-28 15:48:30.23	320.92	51.05	-39.1	-40.2	22.3	0.00e+00	0	32	0	708837376	52	5879
2026-01-28 15:48:31.24	320.28	51.15	-39.2	-40.3	22.1	0.00e+00	52	32	0	710934528	52	5922
2026-01-28 15:48:32.25	319.63	51.25	-39.1	-40.2	22.4	0.00e+00	0	32	0	713031680	52	5832
2026-01-28 15:48:33.26	318.98	51.34	-39.2	-40.4	22.1	0.00e+00	92	32	0	715128832	52	5966
2026-01-28 15:48:34.27	318.33	51.43	-39.4	-40.6	21.9	0.00e+00	0	32	0	717225984	52	6106
2026-01-28 15:48:35.28	317.68	51.51	-39.8	-41.0	21.6	0.00e+00	0	32	0	718274560	52	6460
2026-01-28 15:48:36.28	317.02	51.59	-39.2	-40.4	22.0	0.00e+00	0	33	0	720371712	52	6013
2026-01-28 15:48:37.29	316.36	51.67	-39.2	-40.3	21.9	0.00e+00	0	32	0	722468864	52	5931
2026-01-28 15:48:38.30	315.70	51.74	-39.0	-40.1	22.1	0.00e+00	9	32	0	724566016	52	5802
2026-01-28 15:48:39.31	315.03	51.81	-38.3	-39.3	22.9	0.00e+00	0	32	0	726663168	50	5939
2026-01-28 15:48:40.32	314.35	51.87	-37.6	-38.5	23.5	0.00e+00	70	32	0	727711744	48	6103
2026-01-28 15:48:41.33	313.68	51.93	-36.3	-37.1	24.5	0.00e+00	0	32	0	729808896	46	5812
2026-01-28 15:48:42.34	313.00	51.99	-35.6	-36.4	24.9	0.00e+00	92	33	0	731906048	44	6002
2026-01-28 15:48:43.35	312.32	52.04	-35.5	-36.2	25.1	0.00e+00	0	32	0	734003200	44	5894
2026-01-28 15:48:44.36	311.64	52.09	-35.5	-36.3	25.1	0.00e+00	0	33	0	736100352	44	5934
2026-01-28 15:48:45.37	310.95	52.13	-35.9	-36.7	24.6	0.00e+00	15	33	0	737148928	44	6243
2026-01-28 15:48:46.38	310.27	52.17	-36.6	-37.5	24.3	0.00e+00	0	32	0	739246080	44	6801
2026-01-28 15:48:47.39	309.58	52.21	-36.1	-36.9	24.7	0.00e+00	92	33	0	741343232	44	6371
2026-01-28 15:48:48.40	308.89	52.24	-35.6	-36.4	25.1	0.00e+00	0	32	0	743440384	44	5997
2026-01-28 15:48:49.41	308.20	52.27	-35.2	-36.0	25.3	0.00e+00	92	32	0	745537536	44	5696
2026-01-28 15:48:50.42	307.50	52.29	-35.2	-36.0	25.3	0.00e+00	0	32	0	746586112	42	6415
2026-01-28 15:48:51.43	306.81	52.31	-35.8	-36.6	24.8	0.00e+00	0	32	0	748683264	44	6166
2026-01-28 15:48:52.44	306.12	52.32	-35.9	-36.7	24.9	0.00e+00	0	32	0	750780416	44	6209
2026-01-28 15:48:53.44	305.43	52.33	-35.5	-36.3	25.2	0.00e+00	0	32	0	752877568	44	5925
2026-01-28 15:48:54.45	304.73	52.33	-35.3	-36.1	25.2	0.00e+00	14	32	0	754974720	44	5812
2026-01-28 15:48:55.46	304.04	52.34	-35.8	-36.6	25.0	0.00e+00	0	32	0	756023296	44	6113
2026-01-28 15:48:56.46	303.35	52.33	-36.2	-37.1	24.4	0.00e+00	63	32	0	758120448	44	6509
2026-01-28 15:48:57.47	302.65	52.32	-37.0	-37.9	23.9	0.00e+00	0	33	0	760217600	46	6357
2026-01-28 15:48:58.48	301.96	52.31	-37.7	-38.6	23.4	0.00e+00	0	32	0	762314752	46	6923
2026-01-28 15:48:59.49	301.26	52.30	-37.1	-38.0	23.9	0.00e+00	0	32	0	764411904	46	6428
2026-01-28 15:49:00.50	300.57	52.27	-36.9	-37.7	24.1	0.00e+00	0	32	0	765460480	46	6235
2026-01-28 15:49:01.51	299.88	52.25	-36.6	-37.5	24.2	0.00e+00	16	32	0	767557632	46	6066
2026-01-28 15:49:02.52	299.19	52.22	-35.9	-36.7	24.4	0.00e+00	0	32	0	769654784	46	5550
2026-01-28 15:49:03.53	298.50	52.19	-35.7	-36.5	25.0	0.00e+00	74	32	0	771751936	44	6089
2026-01-28 15:49:04.54	297.81	52.15	-36.8	-37.7	23.7	0.00e+00	0	32	0	773849088	44	6972
2026-01-28 15:49:05.55	297.13	52.10	-38.0	-39.0	23.2	0.00e+00	0	32	0	774897664	48	6433
2026-01-28 15:49:06.56	296.44	52.06	-37.8	-38.9	23.3	0.00e+00	0	32	0	776994816	48	6328
2026-01-28 15:49:07.56	295.77	52.01	-37.5	-38.4	23.6	0.00e+00	0	32	0	779091968	48	6015
2026-01-28 15:49:08.58	295.08	51.95	-37.4	-38.3	23.6	0.00e+00	22	32	0	781189120	48	5959
2026-01-28 15:49:09.59	294.40	51.89	-37.3	-38.2	23.9	0.00e+00	0	32	0	783286272	48	5891
2026-01-28 15:49:10.60	293.73	51.83	-37.1	-38.0	23.8	0.00e+00	86	32	0	785383424	48	5734
2026-01-28 15:49:11.61	293.06	51.76	-37.4	-38.4	23.7	0.00e+00	0	32	0	786432000	48	5967
2026-01-28 15:49:12.62	292.39	51.69	-37.6	-38.6	23.4	0.00e+00	0	32	0	788529152	48	6162
2026-01-28 15:49:13.62	291.73	51.62	-36.5	-37.3	24.4	0.00e+00	0	32	0	790626304	46	5951
2026-01-28 15:49:14.63	291.07	51.54	-36.0	-36.8	24.6	0.00e+00	0	32	0	792723456	46	5575
2026-01-28 15:49:15.64	290.42	51.46	-35.8	-36.6	24.7	0.00e+00	21	32	0	794820608	44	6129
2026-01-28 15:49:16.65	289.76	51.37	-36.8	-37.8	24.1	0.00e+00	0	32	0	795869184	46	6246
2026-01-28 15:49:17.66	289.11	51.28	-37.0	-37.9	23.8	0.00e+00	33	32	0	797966336	46	6382
2026-01-28 15:49:18.67	288.47	51.19	-37.7	-38.7	23.3	0.00e+00	0	32	0	800063488	48	6226
2026-01-28 15:49:19.68	287.83	51.09	-38.2	-39.2	23.3	0.00e+00	14	32	0	802160640	48	6581
2026-01-28 15:49:20.69	287.19	50.99	-38.2	-39.3	22.9	0.00e+00	0	32	0	804257792	48	6635
2026-01-28 15:49:21.70	286.55	50.88	-37.4	-38.4	23.7	0.00e+00	0	32	0	805306368	48	5973
2026-01-28 15:49:22.70	285.93	50.78	-37.4	-38.3	23.7	0.00e+00	0	32	0	807403520	48	5943
2026-01-28 15:49:23.71	285.31	50.66	-37.2	-38.1	23.9	0.00e+00	0	32	0	809500672	48	5789
2026-01-28 15:49:24.72	284.69	50.55	-37.1	-38.0	24.0	0.00e+00	92	32	0	811597824	48	5696
2026-01-28 15:49:25.73	284.07	50.43	-37.4	-38.3	23.6	0.00e+00	0	32	0	813694976	48	5916
2026-01-28 15:49:26.74	283.46	50.31	-37.7	-38.6	23.6	0.00e+00	92	32	0	814743552	48	6133
2026-01-28 15:49:27.75	282.86	50.19	-37.5	-38.5	23.5	0.00e+00	0	32	0	816840704	48	6043
2026-01-28 15:49:28.76	282.26	50.06	-38.0	-39.0	23.4	0.00e+00	0	32	0	818937856	48	6403
2026-01-28 15:49:29.77	281.66	49.93	-38.4	-39.4	23.0	0.00e+00	0	32	0	821035008	48	6716
2026-01-28 15:49:30.78	281.07	49.80	-39.3	-40.4	22.2	0.00e+00	0	32	0	823132160	50	6747
2026-01-28 15:49:31.79	280.49	49.66	-39.8	-40.9	21.5	0.00e+00	17	32	0	824180736	52	6380
2026-01-28 15:49:32.80	279.91	49.52	-40.7	-42.2	21.0	0.00e+00	0	32	0	826277888	52	7339
2026-01-28 15:49:33.81	279.34	49.38	-40.4	-41.7	21.0	0.00e+00	92	32	0	828375040	52	6991
2026-01-28 15:49:34.82	278.77	49.24	-39.0	-40.0	22.4	0.00e+00	0	32	0	830472192	52	5752
2026-01-28 15:49:35.83	278.20	49.09	-38.7	-39.7	22.8	0.00e+00	0	32	0	832569344	50	6216
2026-01-28 15:49:36.83	277.65	48.94	-38.2	-39.1	23.2	0.00e+00	0	32	0	833617920	50	5820
2026-01-28 15:49:37.84	277.10	48.79	-38.3	-39.3	23.1	0.00e+00	0	32	0	835715072	50	5923
2026-01-28 15:49:38.85	276.55	48.64	-38.0	-38.9	23.2	0.00e+00	54	32	0	837812224	48	6379
2026-01-28 15:49:39.86	276.01	48.48	-38.7	-39.7	22.6	0.00e+00	0	32	0	839909376	48	6956
2026-01-28 15:49:40.87	275.48	48.32	-39.5	-40.6	21.6	0.00e+00	71	32	0	842006528	50	6916
2026-01-28 15:49:41.88	274.94	48.16	-39.7	-40.8	21.9	0.00e+00	0	32	0	843055104	52	6279
2026-01-28 15:49:42.89	274.42	48.00	-39.9	-41.0	21.6	0.00e+00	0	32	0	845152256	52	6451
2026-01-28 15:49:43.90	273.90	47.84	-38.8	-39.8	22.8	0.00e+00	0	32	0	847249408	50	6275
2026-01-28 15:49:44.91	273.39	47.67	-38.5	-39.5	22.8	0.00e+00	0	32	0	849346560	50	6054
2026-01-28 15:49:45.92	272.88	47.50	-38.6	-39.6	22.7	0.00e+00	20	32	0	851443712	50	6128
2026-01-28 15:49:46.92	272.38	47.34	-38.8	-39.8	22.4	0.00e+00	0	32	0	853540864	50	6252
2026-01-28 15:49:47.93	271.88	47.16	-38.5	-39.5	22.9	0.00e+00	92	32	0	854589440	50	6049
2026-01-28 15:49:48.94	271.39	46.99	-38.7	-39.7	22.8	0.00e+00	0	32	0	856686592	50	6210
2026-01-28 15:49:49.95	270.90	46.82	-39.0	-40.0	22.3	0.00e+00	46	32	0	858783744	50	6405
2026-01-28 15:49:50.96	270.42	46.64	-39.8	-41.0	21.7	0.00e+00	0	32	0	860880896	52	6415
2026-01-28 15:49:51.97	269.95	46.46	-40.0	-41.2	21.5	0.00e+00	0	32	0	862978048	52	6559
2026-01-28 15:49:52.98	269.48	46.28	-39.6	-40.7	21.8	0.00e+00	0	32	0	864026624	52	6239
2026-01-28 15:49:53.99	269.01	46.10	-39.9	-41.0	21.7	0.00e+00	0	32	0	866123776	52	6404
2026-01-28 15:49:55.00	268.55	45.92	-40.7	-42.0	20.8	0.00e+00	92	32	0	868220928	52	7171
2026-01-28 15:49:56.01	268.10	45.74	-40.8	-42.1	21.0	0.00e+00	0	32	0	870318080	54	6525
2026-01-28 15:49:57.02	267.65	45.55	-39.6	-40.8	22.0	0.00e+00	87	32	0	872415232	54	5579
2026-01-28 15:49:58.03	267.20	45.37	-39.4	-40.5	22.1	0.00e+00	0	32	0	873463808	52	6042
2026-01-28 15:49:59.04	266.77	45.18	-38.1	-39.0	23.3	0.00e+00	0	32	0	875560960	50	5739
2026-01-28 15:50:00.05	266.33	45.00	-38.3	-39.3	23.1	0.00e+00	0	32	0	877658112	50	5925
2026-01-28 15:50:01.06	265.90	44.81	-38.0	-39.0	23.2	0.00e+00	0	32	0	879755264	48	6409
2026-01-28 15:50:02.07	265.48	44.62	-38.1	-39.0	23.3	0.00e+00	91	32	0	881852416	48	6464
2026-01-28 15:50:03.08	265.06	44.43	-38.4	-39.4	23.0	0.00e+00	0	32	0	882900992	48	6713
2026-01-28 15:50:04.09	264.65	44.24	-39.1	-40.1	22.4	0.00e+00	90	32	0	884998144	50	6534
2026-01-28 15:50:05.10	264.24	44.05	-39.4	-40.4	22.3	0.00e+00	0	32	0	887095296	52	6021
2026-01-28 15:50:06.11	263.84	43.86	-39.1	-40.2	22.3	0.00e+00	0	32	0	889192448	52	5850
2026-01-28 15:50:07.12	263.44	43.66	-38.7	-39.7	22.8	0.00e+00	12	32	0	891289600	50	6193
2026-01-28 15:50:08.13	263.04	43.47	-39.1	-40.2	22.3	0.00e+00	0	32	0	892338176	50	6541
2026-01-28 15:50:09.14	262.66	43.28	-38.9	-40.0	22.4	0.00e+00	91	32	0	894435328	50	6391
2026-01-28 15:50:10.15	262.27	43.08	-39.8	-40.9	21.9	0.00e+00	16	32	0	896532480	50	7151
2026-01-28 15:50:11.16	261.89	42.89	-40.2	-41.4	21.1	0.00e+00	92	32	0	898629632	52	6702
2026-01-28 15:50:12.17	261.52	42.69	-41.8	-43.3	19.6	0.00e+00	0	32	0	900726784	56	6667
2026-01-28 15:50:13.17	261.15	42.50	-42.1	-43.6	19.5	0.00e+00	10	32	0	901775360	56	6874
2026-01-28 15:50:14.19	260.78	42.30	-41.8	-43.2	19.8	0.00e+00	0	32	0	903872512	56	6604
2026-01-28 15:50:15.20	260.42	42.11	-40.5	-41.8	20.9	0.00e+00	0	32	0	905969664	54	6261
2026-01-28 15:50:16.20	260.06	41.91	-40.4	-41.6	21.1	0.00e+00	18	32	0	908066816	54	6109
2026-01-28 15:50:17.21	259.71	41.72	-39.9	-41.0	21.6	0.00e+00	0	32	0	910163968	54	5737
2026-01-28 15:50:18.22	259.36	41.52	-39.1	-40.1	21.9	0.00e+00	92	32	0	911212544	52	5793
2026-01-28 15:50:19.24	259.02	41.32	-39.5	-40.5	22.0	0.00e+00	0	32	0	913309696	52	6091
2026-01-28 15:50:20.24	258.68	41.13	-40.3	-41.5	21.4	0.00e+00	72	32	0	915406848	52	6794
2026-01-28 15:50:21.25	258.34	40.93	-40.3	-41.5	21.3	0.00e+00	0	32	0	917504000	52	6796
2026-01-28 15:50:22.26	258.01	40.73	-40.4	-41.6	21.2	0.00e+00	0	32	0	919601152	52	6884
2026-01-28 15:50:23.27	257.68	40.54	-40.4	-41.6	21.1	0.00e+00	13	32	0	921698304	52	6898
2026-01-28 15:50:24.28	257.36	40.34	-40.8	-42.1	20.6	0.00e+00	0	32	0	922746880	54	6510
2026-01-28 15:50:25.29	257.04	40.14	-40.9	-42.2	20.6	0.00e+00	90	32	0	924844032	54	6615
2026-01-28 15:50:26.30	256.72	39.95	-40.3	-41.5	21.1	0.00e+00	0	33	0	926941184	54	6083
2026-01-28 15:50:27.31	256.41	39.75	-39.7	-40.8	21.8	0.00e+00	70	32	0	929038336	52	6268
2026-01-28 15:50:28.32	256.10	39.55	-39.2	-40.2	22.3	0.00e+00	0	33	0	931135488	52	5870
2026-01-28 15:50:29.34	255.79	39.36	-39.7	-40.8	21.7	0.00e+00	0	32	0	932184064	52	6312
2026-01-28 15:50:30.34	255.50	39.16	-41.1	-42.4	20.2	0.00e+00	14	32	0	934281216	54	6760
2026-01-28 15:50:31.35	255.20	38.97	-42.8	-44.6	18.3	0.00e+00	0	32	0	936378368	56	7695
2026-01-28 15:50:32.36	254.90	38.77	-43.8	-46.0	17.2	0.00e+00	4	33	0	938475520	58	8076
2026-01-28 15:50:33.37	254.61	38.57	-43.8	-46.0	17.0	0.00e+00	0	32	0	940572672	60	7208
2026-01-28 15:50:34.38	254.33	38.38	-42.9	-44.8	18.1	0.00e+00	86	32	0	941621248	60	6276
2026-01-28 15:50:35.39	254.04	38.18	-43.1	-45.0	18.0	0.00e+00	0	32	0	943718400	60	6449
2026-01-28 15:50:36.40	253.76	37.99	-43.5	-45.6	17.6	0.00e+00	0	33	0	945815552	60	6866
2026-01-28 15:50:37.41	253.49	37.80	-43.3	-45.2	17.8	0.00e+00	0	33	0	947912704	60	6605
2026-01-28 15:50:38.42	253.21	37.60	-43.1	-45.0	18.3	0.00e+00	0	32	0	950009856	60	6464
2026-01-28 15:50:39.43	252.94	37.41	-42.5	-44.1	19.0	0.00e+00	12	32	0	951058432	58	6535
2026-01-28 15:50:40.44	252.68	37.22	-41.2	-42.6	20.3	0.00e+00	0	32	0	953155584	56	6131
2026-01-28 15:50:41.45	252.41	37.02	-40.0	-41.1	21.4	0.00e+00	92	32	0	955252736	54	5786
2026-01-28 15:50:42.46	252.15	36.83	-39.0	-39.9	22.5	0.00e+00	0	32	0	957349888	52	5665
2026-01-28 15:50:43.47	251.89	36.64	-38.0	-38.9	23.4	0.00e+00	0	32	0	959447040	50	5645
2026-01-28 15:50:44.48	251.64	36.45	-37.6	-38.4	23.7	0.00e+00	0	32	0	960495616	48	6011
2026-01-28 15:50:45.49	251.39	36.26	-37.6	-38.5	23.7	0.00e+00	0	32	0	962592768	48	6047
2026-01-28 15:50:46.50	251.14	36.07	-37.9	-38.8	23.4	0.00e+00	78	32	0	964689920	48	6294
2026-01-28 15:50:47.51	250.89	35.88	-38.1	-39.0	23.2	0.00e+00	0	32	0	966787072	48	6426
2026-01-28 15:50:48.52	250.65	35.69	-39.0	-40.0	22.3	0.00e+00	91	32	0	968884224	50	6429
2026-01-28 15:50:49.53	250.41	35.50	-39.8	-40.9	21.7	0.00e+00	0	32	0	969932800	50	7113
2026-01-28 15:50:50.54	250.17	35.31	-39.9	-41.1	21.6	0.00e+00	0	32	0	972029952	52	6469
2026-01-28 15:50:51.54	249.94	35.13	-40.9	-42.2	20.5	0.00e+00	0	32	0	974127104	54	6607
2026-01-28 15:50:52.55	249.71	34.94	-41.8	-43.3	19.6	0.00e+00	0	33	0	976224256	54	7470
2026-01-28 15:50:53.56	249.48	34.75	-42.5	-44.2	18.8	0.00e+00	10	32	0	978321408	58	6569
2026-01-28 15:50:54.57	249.25	34.57	-42.2	-43.9	18.8	0.00e+00	0	32	0	979369984	58	6335
2026-01-28 15:50:55.58	249.03	34.38	-42.2	-43.9	18.9	0.00e+00	90	33	0	981467136	58	6386
2026-01-28 15:50:56.59	248.81	34.20	-41.7	-43.2	19.5	0.00e+00	0	32	0	983564288	56	6577
2026-01-28 15:50:57.60	248.59	34.01	-41.6	-43.0	19.8	0.00e+00	81	33	0	985661440	56	6450
2026-01-28 15:50:58.61	248.37	33.83	-41.1	-42.5	20.2	0.00e+00	0	33	0	987758592	56	6079
2026-01-28 15:50:59.62	248.16	33.65	-41.2	-42.6	20.3	0.00e+00	0	32	0	989855744	56	6131
2026-01-28 15:51:00.63	247.95	33.46	-40.2	-41.4	21.2	0.00e+00	19	32	0	990904320	54	6010
2026-01-28 15:51:01.64	247.74	33.28	-39.9	-41.0	21.1	0.00e+00	0	32	0	993001472	54	5704
2026-01-28 15:51:02.65	247.53	33.10	-39.5	-40.5	22.1	0.00e+00	92	32	0	995098624	52	6089
2026-01-28 15:51:03.66	247.33	32.92	-39.4	-40.4	22.1	0.00e+00	0	32	0	997195776	52	6017
2026-01-28 15:51:04.67	247.13	32.74	-40.1	-41.2	21.3	0.00e+00	90	32	0	999292928	52	6592
2026-01-28 15:51:05.68	246.93	32.56	-40.4	-41.6	21.2	0.00e+00	0	32	0	1000341504	52	6858
2026-01-28 15:51:06.69	246.73	32.38	-40.9	-42.2	20.7	0.00e+00	0	32	0	1002438656	54	6557
2026-01-28 15:51:07.70	246.53	32.21	-41.7	-43.1	19.8	0.00e+00	15	32	0	1004535808	54	7335
2026-01-28 15:51:08.71	246.34	32.03	-42.3	-43.9	19.3	0.00e+00	0	32	0	1006632960	56	7138
2026-01-28 15:51:09.72	246.15	31.85	-41.1	-42.4	20.5	0.00e+00	92	32	0	1008730112	56	5990
2026-01-28 15:51:10.73	245.96	31.68	-39.5	-40.6	22.0	0.00e+00	0	32	0	1009778688	52	6106
2026-01-28 15:51:11.74	245.77	31.50	-38.8	-39.8	22.8	0.00e+00	85	32	0	1011875840	52	5592
2026-01-28 15:51:12.75	245.59	31.33	-38.3	-39.2	23.0	0.00e+00	0	33	0	1013972992	50	5863
2026-01-28 15:51:13.76	245.40	31.15	-38.3	-39.2	23.0	0.00e+00	0	32	0	1016070144	50	5880
2026-01-28 15:51:14.77	245.22	30.98	-38.8	-39.8	22.5	0.00e+00	15	32	0	1018167296	50	6294
2026-01-28 15:51:15.77	245.05	30.81	-39.2	-40.2	22.2	0.00e+00	0	33	0	1019215872	50	6607
2026-01-28 15:51:16.78	244.87	30.64	-39.9	-41.0	21.7	0.00e+00	76	33	0	1021313024	52	6399
2026-01-28 15:51:17.79	244.69	30.47	-40.1	-41.3	21.1	0.00e+00	0	33	0	1023410176	52	6635
2026-01-28 15:51:18.80	244.52	30.30	-40.9	-42.2	20.3	0.00e+00	64	32	0	1025507328	54	6578
2026-01-28 15:51:19.81	244.35	30.13	-40.8	-42.1	20.8	0.00e+00	0	33	0	1027604480	54	6521
2026-01-28 15:51:20.82	244.18	29.96	-40.6	-41.9	20.9	0.00e+00	0	32	0	1028653056	54	6329
2026-01-28 15:51:21.83	244.01	29.79	-40.2	-41.4	21.2	0.00e+00	0	33	0	1030750208	54	6024
2026-01-28 15:51:22.84	243.84	29.63	-40.4	-41.6	21.1	0.00e+00	0	33	0	1032847360	54	6172
2026-01-28 15:51:23.85	243.68	29.46	-39.8	-40.9	21.6	0.00e+00	18	33	0	1034944512	52	6366
2026-01-28 15:51:24.86	243.52	29.29	-40.1	-41.3	21.2	0.00e+00	0	32	0	1037041664	52	6627
2026-01-28 15:51:25.87	243.36	29.13	-39.6	-40.8	21.8	0.00e+00	66	32	0	1038090240	52	6255
2026-01-28 15:51:26.88	243.20	28.96	-39.7	-40.8	21.8	0.00e+00	0	32	0	1040187392	52	6270
2026-01-28 15:51:27.89	243.04	28.80	-39.5	-40.6	22.1	0.00e+00	0	32	0	1042284544	52	6140
2026-01-28 15:51:28.90	242.88	28.64	-39.3	-40.3	22.2	0.00e+00	0	33	0	1044381696	52	5943
2026-01-28 15:51:29.91	242.73	28.48	-39.1	-40.1	22.4	0.00e+00	0	32	0	1046478848	52	5779
2026-01-28 15:51:30.92	242.57	28.31	-38.1	-39.1	23.0	0.00e+00	17	32	0	1047527424	50	5770
2026-01-28 15:51:31.93	242.42	28.15	-38.6	-39.5	22.8	0.00e+00	0	32	0	1049624576	50	6094
2026-01-28 15:51:32.94	242.27	27.99	-38.5	-39.5	22.9	0.00e+00	80	32	0	1051721728	50	6072
2026-01-28 15:51:33.95	242.12	27.83	-38.6	-39.6	22.7	0.00e+00	0	32	0	1053818880	50	6149
2026-01-28 15:51:34.96	241.98	27.67	-38.7	-39.6	22.8	0.00e+00	0	32	0	1055916032	50	6167
2026-01-28 15:51:35.96	241.83	27.52	-38.7	-39.7	22.6	0.00e+00	0	33	0	1056964608	50	6209
2026-01-28 15:51:36.97	241.69	27.36	-38.4	-39.4	23.0	0.00e+00	0	32	0	1059061760	50	5984
2026-01-28 15:51:37.98	241.55	27.20	-38.6	-39.5	22.8	0.00e+00	6	33	0	1061158912	50	6101
2026-01-28 15:51:38.99	241.41	27.05	-38.9	-39.9	22.6	0.00e+00	0	32	0	1063256064	50	6382
2026-01-28 15:51:40.00	241.27	26.89	-39.6	-40.7	21.8	0.00e+00	54	32	0	1065353216	50	6999
2026-01-28 15:51:41.00	241.13	26.74	-40.2	-41.5	21.2	0.00e+00	0	32	0	1066401792	52	6779
2026-01-28 15:51:42.01	240.99	26.59	-41.0	-42.4	20.4	0.00e+00	76	33	0	1068498944	54	6714
2026-01-28 15:51:43.02	240.86	26.43	-41.5	-43.0	19.8	0.00e+00	0	33	0	1070596096	54	7215
2026-01-28 15:51:44.03	240.72	26.28	-41.7	-43.2	19.9	0.00e+00	0	32	0	1072693248	56	6550
2026-01-28 15:51:45.04	240.59	26.13	-41.5	-43.0	19.9	0.00e+00	0	33	0	1074790400	56	6411
2026-01-28 15:51:46.05	240.46	25.98	-41.1	-42.4	20.5	0.00e+00	0	32	0	1075838976	56	6013
2026-01-28 15:51:47.06	240.33	25.83	-40.9	-42.3	20.6	0.00e+00	85	33	0	1077936128	56	5903
2026-01-28 15:51:48.07	240.20	25.68	-40.3	-41.6	21.2	0.00e+00	0	33	0	1080033280	54	6114
2026-01-28 15:51:49.08	240.07	25.53	-40.3	-41.5	21.2	0.00e+00	89	32	0	1082130432	54	6063
2026-01-28 15:51:50.09	239.94	25.38	-40.0	-41.2	21.4	0.00e+00	0	32	0	1084227584	54	5867
2026-01-28 15:51:51.10	239.82	25.23	-39.9	-41.0	21.6	0.00e+00	0	33	0	1086324736	54	5750
2026-01-28 15:51:52.10	239.69	25.09	-39.9	-41.1	21.6	0.00e+00	0	32	0	1087373312	54	5772
2026-01-28 15:51:53.11	239.57	24.94	-39.2	-40.3	22.2	0.00e+00	0	32	0	1089470464	52	5908
2026-01-28 15:51:54.12	239.45	24.79	-38.6	-39.6	22.7	0.00e+00	92	32	0	1091567616	52	5468
2026-01-28 15:51:55.13	239.33	24.65	-38.6	-39.6	22.6	0.00e+00	0	32	0	1093664768	50	6105
2026-01-28 15:51:56.14	239.21	24.50	-38.9	-39.9	22.5	0.00e+00	91	32	0	1095761920	50	6348
2026-01-28 15:51:57.15	239.09	24.36	-38.7	-39.7	22.6	0.00e+00	17	32	0	1096810496	50	6197
2026-01-28 15:51:58.16	238.97	24.22	-39.1	-40.2	22.2	0.00e+00	0	33	0	1098907648	50	6585
2026-01-28 15:51:59.17	238.86	24.07	-39.4	-40.5	21.9	0.00e+00	0	32	0	1101004800	50	6828
2026-01-28 15:52:00.18	238.74	23.93	-39.9	-41.1	21.5	0.00e+00	15	32	0	1103101952	52	6476
2026-01-28 15:52:01.19	238.63	23.79	-40.1	-41.3	21.3	0.00e+00	56	33	0	1105199104	52	6671
2026-01-28 15:52:02.20	238.51	23.65	-40.3	-41.5	21.3	0.00e+00	0	32	0	1106247680	52	6812
2026-01-28 15:52:03.21	238.40	23.51	-40.1	-41.3	21.4	0.00e+00	90	33	0	1108344832	52	6686
2026-01-28 15:52:04.22	238.29	23.37	-39.9	-41.1	21.5	0.00e+00	0	33	0	1110441984	52	6508
2026-01-28 15:52:05.23	238.18	23.23	-39.6	-40.8	21.9	0.00e+00	11	33	0	1112539136	52	6251
2026-01-28 15:52:06.23	238.07	23.10	-39.5	-40.6	21.9	0.00e+00	0	32	0	1114636288	52	6161
2026-01-28 15:52:07.25	237.96	22.96	-39.3	-40.4	22.2	0.00e+00	0	32	0	1115684864	52	5968
2026-01-28 15:52:08.26	237.85	22.82	-39.2	-40.3	22.1	0.00e+00	10	32	0	1117782016	52	5897
2026-01-28 15:52:09.27	237.75	22.68	-39.3	-40.3	22.1	0.00e+00	0	33	0	1119879168	52	5954
2026-01-28 15:52:10.27	237.64	22.55	-39.4	-40.5	22.0	0.00e+00	91	33	0	1121976320	52	6044
2026-01-28 15:52:11.28	237.54	22.41	-39.1	-40.1	22.3	0.00e+00	0	33	0	1124073472	52	5819
2026-01-28 15:52:12.29	237.43	22.28	-39.1	-40.1	22.3	0.00e+00	92	32	0	1125122048	52	5804
2026-01-28 15:52:13.30	237.33	22.15	-38.9	-39.9	22.4	0.00e+00	0	33	0	1127219200	52	5649
2026-01-28 15:52:14.31	237.23	22.01	-38.8	-39.8	22.5	0.00e+00	0	33	0	1129316352	52	5607
2026-01-28 15:52:15.32	237.13	21.88	-38.9	-39.9	22.4	0.00e+00	13	33	0	1131413504	52	5637
2026-01-28 15:52:16.33	237.03	21.75	-39.0	-40.0	22.4	0.00e+00	0	33	0	1133510656	52	5719
2026-01-28 15:52:17.34	236.93	21.62	-38.9	-39.9	22.5	0.00e+00	12	33	0	1134559232	52	5647
2026-01-28 15:52:18.35	236.83	21.49	-39.1	-40.1	22.3	0.00e+00	0	33	0	1136656384	52	5781
2026-01-28 15:52:19.36	236.74	21.36	-39.2	-40.2	22.1	0.00e+00	82	32	0	1138753536	52	5880
2026-01-28 15:52:20.37	236.64	21.23	-39.2	-40.3	21.9	0.00e+00	0	32	0	1140850688	52	5902
2026-01-28 15:52:21.38	236.54	21.10	-39.3	-40.4	22.0	0.00e+00	0	32	0	1142947840	52	5984
2026-01-28 15:52:22.38	236.45	20.97	-39.4	-40.4	21.9	0.00e+00	8	32	0	1143996416	52	6027
2026-01-28 15:52:23.40	236.35	20.84	-39.5	-40.6	21.9	0.00e+00	0	33	0	1146093568	52	6130
2026-01-28 15:52:24.40	236.26	20.71	-39.4	-40.4	21.9	0.00e+00	75	32	0	1148190720	52	6008
2026-01-28 15:52:25.41	236.17	20.59	-38.9	-39.9	22.5	0.00e+00	0	33	0	1150287872	52	5673
2026-01-28 15:52:26.42	236.08	20.46	-38.8	-39.8	22.5	0.00e+00	64	33	0	1152385024	50	6293
2026-01-28 15:52:27.43	235.99	20.33	-38.7	-39.6	22.7	0.00e+00	0	32	0	1154482176	50	6153
2026-01-28 15:52:28.44	235.90	20.21	-38.8	-39.7	22.6	0.00e+00	0	32	0	1155530752	50	6224
2026-01-28 15:52:29.45	235.81	20.08	-38.6	-39.5	22.7	0.00e+00	0	32	0	1157627904	50	6095
2026-01-28 15:52:30.46	235.72	19.96	-38.6	-39.5	22.8	0.00e+00	0	32	0	1159725056	50	6077
2026-01-28 15:52:31.47	235.63	19.84	-38.6	-39.5	22.6	0.00e+00	7	32	0	1161822208	50	6087
2026-01-28 15:52:32.48	235.54	19.71	-38.8	-39.8	22.6	0.00e+00	0	32	0	1163919360	50	6278
2026-01-28 15:52:33.49	235.46	19.59	-38.7	-39.6	22.6	0.00e+00	48	32	0	1164967936	50	6156
2026-01-28 15:52:34.49	235.37	19.47	-38.8	-39.8	22.5	0.00e+00	0	33	0	1167065088	50	6283
2026-01-28 15:52:35.50	235.29	19.35	-38.7	-39.7	22.5	0.00e+00	0	32	0	1169162240	50	6212
2026-01-28 15:52:36.51	235.20	19.23	-38.7	-39.6	22.6	0.00e+00	0	33	0	1171259392	50	6157
2026-01-28 15:52:37.52	235.12	19.11	-38.8	-39.8	22.5	0.00e+00	0	33	0	1173356544	50	6276
2026-01-28 15:52:38.53	235.04	18.99	-39.0	-40.0	22.2	0.00e+00	7	33	0	1174405120	50	6424
2026-01-28 15:52:39.54	234.95	18.87	-39.0	-40.0	22.3	0.00e+00	0	33	0	1176502272	50	6443
2026-01-28 15:52:40.55	234.87	18.75	-38.9	-39.9	22.3	0.00e+00	89	33	0	1178599424	50	6342
2026-01-28 15:52:41.56	234.79	18.63	-39.1	-40.1	22.2	0.00e+00	0	33	0	1180696576	50	6515
2026-01-28 15:52:42.57	234.71	18.51	-39.2	-40.2	22.2	0.00e+00	0	33	0	1182793728	50	6574
2026-01-28 15:52:43.58	234.63	18.40	-39.2	-40.2	22.1	0.00e+00	0	33	0	1183842304	50	6593
2026-01-28 15:52:44.59	234.55	18.28	-39.3	-40.3	22.1	0.00e+00	0	33	0	1185939456	50	6658
2026-01-28 15:52:45.60	234.47	18.16	-39.1	-40.1	22.3	0.00e+00	10	33	0	1188036608	50	6475
2026-01-28 15:52:46.61	234.39	18.05	-38.9	-39.9	22.4	0.00e+00	0	32	0	1190133760	50	6366
2026-01-28 15:52:47.62	234.32	17.93	-38.6	-39.6	22.7	0.00e+00	81	33	0	1192230912	50	6112
2026-01-28 15:52:48.62	234.24	17.82	-38.5	-39.4	22.8	0.00e+00	0	33	0	1193279488	50	5990
2026-01-28 15:52:49.64	234.16	17.70	-38.4	-39.3	22.8	0.00e+00	92	33	0	1195376640	50	5923
2026-01-28 15:52:50.65	234.09	17.59	-38.4	-39.3	22.9	0.00e+00	0	33	0	1197473792	50	5917
2026-01-28 15:52:51.66	234.01	17.47	-37.7	-38.5	23.4	0.00e+00	0	33	0	1199570944	48	6082
2026-01-28 15:52:52.67	233.94	17.36	-37.4	-38.3	23.6	0.00e+00	0	33	0	1201668096	48	5925
2026-01-28 15:52:53.68	233.87	17.25	-37.4	-38.2	23.7	0.00e+00	0	32	0	1202716672	48	5884
2026-01-28 15:52:54.68	233.79	17.14	-37.3	-38.2	23.7	0.00e+00	50	32	0	1204813824	48	5857
