passes_logs/2026/01/20/planumMaritime01/planumMaritime01__20260120_083249_METEOR-M2_3_rec.log

#Pass ID: 20260120_083249_METEOR-M2 3
#Satellite: METEOR-M2 3
#Configuration: METEOR-M2 3
#Start time: 2026-01-20 08:32:54.408963

#LorettStation: 1.0.0 05.05.2024
#Station: planumMaritime01
#Location: 37.49445 lon 55.92918 lat
#TLE: 1 57166U 23091A   26019.98490498  .00000035  00000+0  34315-4 0  9996
#TLE: 2 57166  98.6319  77.8458 0003107 230.7688 129.3216 14.24031181133429

#Time	Az	El	Level	SNR
2026-01-20 08:32:56.584670	5.4	10.2	-70.3	0.0
2026-01-20 08:32:57.715925	5.3	10.3	-69.4	0.0
2026-01-20 08:32:58.852594	5.2	10.4	-68.5	0.0
2026-01-20 08:32:59.990398	5.2	10.4	-69.5	0.0
2026-01-20 08:33:01.127902	5.1	10.5	-71.1	0.0
2026-01-20 08:33:02.265328	5.0	10.6	-71.0	0.0
2026-01-20 08:33:03.403663	4.9	10.7	-70.8	0.0
2026-01-20 08:33:04.540934	4.8	10.8	-69.7	0.0
2026-01-20 08:33:05.680113	4.7	10.9	-69.3	0.0
2026-01-20 08:33:06.818211	4.6	11.0	-68.5	0.0
2026-01-20 08:33:07.956557	4.5	11.1	-68.2	0.0
2026-01-20 08:33:09.095335	4.4	11.2	-67.0	0.0
2026-01-20 08:33:10.230414	4.4	11.3	-68.0	0.0
2026-01-20 08:33:11.367653	4.3	11.4	-67.0	0.0
2026-01-20 08:33:12.507317	4.2	11.5	-68.4	0.0
2026-01-20 08:33:13.646036	4.1	11.6	-69.1	0.0
2026-01-20 08:33:14.786321	4.0	11.7	-68.7	0.0
2026-01-20 08:33:15.923724	3.9	11.8	-68.4	0.0
2026-01-20 08:33:17.064242	3.8	11.9	-67.6	0.0
2026-01-20 08:33:18.204056	3.7	12.0	-68.8	0.0
2026-01-20 08:33:19.342704	3.6	12.0	-68.9	0.0
2026-01-20 08:33:20.482328	3.5	12.1	-68.6	0.0
2026-01-20 08:33:21.621169	3.4	12.2	-67.5	0.0
2026-01-20 08:33:22.758451	3.3	12.3	-67.7	0.0
2026-01-20 08:33:23.898537	3.2	12.4	-67.1	0.0
2026-01-20 08:33:25.034004	3.1	12.5	-67.7	0.0
2026-01-20 08:33:26.172624	3.0	12.6	-67.6	0.0
2026-01-20 08:33:27.307377	2.9	12.7	-69.6	0.0
2026-01-20 08:33:28.444640	2.8	12.8	-69.5	0.0
2026-01-20 08:33:29.579076	2.7	12.9	-67.0	0.0
2026-01-20 08:33:30.712226	2.6	13.0	-69.5	0.0
2026-01-20 08:33:31.847141	2.5	13.1	-68.6	0.0
2026-01-20 08:33:32.979664	2.4	13.2	-67.4	0.0
2026-01-20 08:33:34.111298	2.3	13.3	-66.7	0.0
2026-01-20 08:33:35.245998	2.2	13.4	-66.1	0.0
2026-01-20 08:33:36.380382	2.1	13.5	-64.8	0.0
2026-01-20 08:33:37.513355	2.0	13.6	-63.4	0.0
2026-01-20 08:33:38.647197	1.9	13.7	-67.2	0.0
2026-01-20 08:33:39.779849	1.7	13.8	-69.2	0.0
2026-01-20 08:33:40.913247	1.6	13.9	-70.8	0.0
2026-01-20 08:33:42.047844	1.5	14.0	-68.8	0.0
2026-01-20 08:33:43.182378	1.4	14.1	-68.5	0.0
2026-01-20 08:33:44.313301	1.3	14.2	-69.0	0.0
2026-01-20 08:33:45.444713	1.2	14.4	-69.9	0.0
2026-01-20 08:33:46.579311	1.1	14.5	-70.3	0.0
2026-01-20 08:33:47.712199	1.0	14.6	-70.4	0.0
2026-01-20 08:33:48.848191	0.8	14.7	-70.2	0.0
2026-01-20 08:33:49.984304	0.7	14.8	-69.6	0.0
2026-01-20 08:33:51.118736	0.6	14.9	-69.9	0.0
2026-01-20 08:33:52.251327	0.5	15.0	-69.8	0.0
2026-01-20 08:33:53.385870	0.4	15.1	-68.5	0.0
2026-01-20 08:33:54.520390	0.2	15.2	-68.8	0.0
2026-01-20 08:33:55.656741	0.1	15.3	-67.3	0.0
2026-01-20 08:33:56.788128	0.0	15.4	-69.9	0.0
2026-01-20 08:33:57.921484	359.9	15.5	-68.2	0.0
2026-01-20 08:33:59.054690	359.8	15.6	-69.8	0.0
2026-01-20 08:34:00.190920	359.6	15.7	-70.7	0.0
2026-01-20 08:34:01.324320	359.5	15.8	-70.4	0.0
2026-01-20 08:34:02.459958	359.4	15.9	-69.4	0.0
2026-01-20 08:34:03.595826	359.3	16.1	-68.4	0.0
2026-01-20 08:34:04.731449	359.1	16.2	-66.8	0.0
2026-01-20 08:34:05.867616	359.0	16.3	-70.5	0.0
2026-01-20 08:34:07.000749	358.9	16.4	-71.5	0.0
2026-01-20 08:34:08.136764	358.7	16.5	-70.4	0.0
2026-01-20 08:34:09.272910	358.6	16.6	-71.0	0.0
2026-01-20 08:34:10.409753	358.5	16.7	-71.5	0.0
2026-01-20 08:34:11.543812	358.3	16.8	-71.2	0.0
2026-01-20 08:34:12.678268	358.2	16.9	-71.6	0.0
2026-01-20 08:34:13.811428	358.1	17.1	-69.0	0.0
2026-01-20 08:34:14.944969	357.9	17.2	-69.5	0.0
2026-01-20 08:34:16.082266	357.8	17.3	-68.7	0.0
2026-01-20 08:34:17.215446	357.6	17.4	-70.4	0.0
2026-01-20 08:34:18.348870	357.5	17.5	-72.3	0.0
2026-01-20 08:34:19.490101	357.4	17.6	-70.5	0.0
2026-01-20 08:34:20.625026	357.2	17.7	-71.7	0.0
2026-01-20 08:34:21.759121	357.1	17.8	-70.3	0.0
2026-01-20 08:34:22.895133	356.9	18.0	-71.3	0.0
2026-01-20 08:34:24.030483	356.8	18.1	-71.5	0.0
2026-01-20 08:34:25.165109	356.6	18.2	-70.8	0.0
2026-01-20 08:34:26.297888	356.5	18.3	-71.8	0.0
2026-01-20 08:34:27.431713	356.3	18.4	-70.3	0.0
2026-01-20 08:34:28.563329	356.2	18.5	-70.0	0.0
2026-01-20 08:34:29.695671	356.0	18.7	-69.6	0.0
2026-01-20 08:34:30.828759	355.9	18.8	-69.9	0.0
2026-01-20 08:34:31.966163	355.7	18.9	-70.8	0.0
2026-01-20 08:34:33.099412	355.6	19.0	-72.1	0.0
2026-01-20 08:34:34.231992	355.4	19.1	-70.7	0.0
2026-01-20 08:34:35.364099	355.2	19.2	-71.6	0.0
2026-01-20 08:34:36.494122	355.1	19.4	-70.5	0.0
2026-01-20 08:34:37.624170	354.9	19.5	-71.0	0.0
2026-01-20 08:34:38.755011	354.8	19.6	-71.2	0.0
2026-01-20 08:34:39.883547	354.6	19.7	-69.3	0.0
2026-01-20 08:34:41.015587	354.4	19.8	-69.9	0.0
2026-01-20 08:34:42.146838	354.3	20.0	-70.6	0.0
2026-01-20 08:34:43.273827	354.1	20.1	-70.9	0.0
2026-01-20 08:34:44.403312	353.9	20.2	-70.7	0.0
2026-01-20 08:34:45.537077	353.8	20.3	-70.1	0.0
2026-01-20 08:34:46.673361	353.6	20.4	-69.0	0.0
2026-01-20 08:34:47.811745	353.4	20.6	-68.9	0.0
2026-01-20 08:34:48.950693	353.2	20.7	-70.1	0.0
2026-01-20 08:34:50.088524	353.1	20.8	-69.8	0.0
2026-01-20 08:34:51.227213	352.9	20.9	-69.8	0.0
2026-01-20 08:34:52.365537	352.7	21.1	-70.0	0.0
2026-01-20 08:34:53.506556	352.5	21.2	-71.0	0.0
2026-01-20 08:34:54.645599	352.3	21.3	-69.8	0.0
2026-01-20 08:34:55.782038	352.2	21.4	-70.7	0.0
2026-01-20 08:34:56.921345	352.0	21.6	-68.7	0.0
2026-01-20 08:34:58.059915	351.8	21.7	-70.5	0.0
2026-01-20 08:34:59.198217	351.6	21.8	-69.6	0.0
2026-01-20 08:35:00.336379	351.4	21.9	-70.4	0.0
2026-01-20 08:35:01.475713	351.2	22.1	-70.7	0.0
2026-01-20 08:35:02.613847	351.0	22.2	-70.4	0.0
2026-01-20 08:35:03.752648	350.8	22.3	-69.8	0.0
2026-01-20 08:35:04.892633	350.6	22.5	-69.5	0.0
2026-01-20 08:35:06.031910	350.4	22.6	-69.5	0.0
2026-01-20 08:35:07.170792	350.2	22.7	-70.5	0.0
2026-01-20 08:35:08.310647	350.0	22.8	-70.1	0.0
2026-01-20 08:35:09.447623	349.8	23.0	-69.8	0.0
2026-01-20 08:35:10.584130	349.6	23.1	-69.9	0.0
2026-01-20 08:35:11.723447	349.4	23.2	-70.7	0.0
2026-01-20 08:35:12.860690	349.2	23.4	-71.0	0.0
2026-01-20 08:35:13.998801	349.0	23.5	-70.7	0.0
2026-01-20 08:35:15.137117	348.8	23.6	-69.7	0.0
2026-01-20 08:35:16.275273	348.5	23.7	-70.8	0.0
2026-01-20 08:35:17.411549	348.3	23.9	-69.7	0.0
2026-01-20 08:35:18.549265	348.1	24.0	-70.3	0.0
2026-01-20 08:35:19.687114	347.9	24.1	-71.1	0.0
2026-01-20 08:35:20.825127	347.7	24.3	-70.6	0.0
2026-01-20 08:35:21.961060	347.4	24.4	-70.5	0.0
2026-01-20 08:35:23.100303	347.2	24.5	-70.4	0.0
2026-01-20 08:35:24.239549	347.0	24.7	-68.6	0.0
2026-01-20 08:35:25.375572	346.8	24.8	-68.9	0.0
2026-01-20 08:35:26.511040	346.5	24.9	-69.9	0.0
2026-01-20 08:35:27.648599	346.3	25.0	-70.3	0.0
2026-01-20 08:35:28.786033	346.1	25.2	-70.0	0.0
2026-01-20 08:35:29.924443	345.8	25.3	-70.0	0.0
2026-01-20 08:35:31.066462	345.6	25.4	-70.6	0.0
2026-01-20 08:35:32.205123	345.3	25.6	-70.1	0.0
2026-01-20 08:35:33.342654	345.1	25.7	-70.1	0.0
2026-01-20 08:35:34.478825	344.9	25.8	-69.6	0.0
2026-01-20 08:35:35.615861	344.6	26.0	-69.7	0.0
2026-01-20 08:35:36.746069	344.4	26.1	-70.8	0.0
2026-01-20 08:35:37.879249	344.1	26.2	-71.2	0.1
2026-01-20 08:35:39.013287	343.9	26.4	-71.6	0.0
2026-01-20 08:35:40.146593	343.6	26.5	-71.0	0.0
2026-01-20 08:35:41.281262	343.3	26.6	-71.5	0.0
2026-01-20 08:35:42.418925	343.1	26.8	-72.6	0.0
2026-01-20 08:35:43.554773	342.8	26.9	-69.9	0.0
2026-01-20 08:35:44.689593	342.6	27.0	-71.7	0.0
2026-01-20 08:35:45.826830	342.3	27.2	-71.7	0.0
2026-01-20 08:35:46.965615	342.0	27.3	-71.2	0.0
2026-01-20 08:35:48.101115	341.7	27.4	-71.8	0.0
2026-01-20 08:35:49.236797	341.5	27.6	-71.6	0.0
2026-01-20 08:35:50.374712	341.2	27.7	-71.3	0.0
2026-01-20 08:35:51.508798	340.9	27.8	-71.6	0.0
2026-01-20 08:35:52.645767	340.6	28.0	-72.2	0.0
2026-01-20 08:35:53.780312	340.4	28.1	-71.1	0.0
2026-01-20 08:35:54.915189	340.1	28.2	-72.3	0.5
2026-01-20 08:35:56.049651	339.8	28.3	-72.8	0.0
2026-01-20 08:35:57.182703	339.5	28.5	-71.3	0.0
2026-01-20 08:35:58.316276	339.2	28.6	-70.9	0.0
2026-01-20 08:35:59.451567	338.9	28.7	-71.7	0.0
2026-01-20 08:36:00.584030	338.6	28.9	-70.2	0.0
2026-01-20 08:36:01.720270	338.3	29.0	-71.9	0.0
2026-01-20 08:36:02.853188	338.0	29.1	-73.1	0.7
2026-01-20 08:36:03.987714	337.7	29.3	-70.6	0.0
2026-01-20 08:36:05.122340	337.4	29.4	-72.4	0.1
2026-01-20 08:36:06.256447	337.1	29.5	-71.5	1.1
2026-01-20 08:36:07.392373	336.8	29.6	-70.1	0.0
2026-01-20 08:36:08.528260	336.4	29.8	-72.2	0.1
2026-01-20 08:36:09.665450	336.1	29.9	-73.8	0.0
2026-01-20 08:36:10.801083	335.8	30.0	-72.2	0.0
2026-01-20 08:36:11.934619	335.5	30.2	-73.0	2.5
2026-01-20 08:36:13.069579	335.2	30.3	-73.1	4.0
2026-01-20 08:36:14.199134	334.8	30.4	-74.0	1.6
2026-01-20 08:36:15.330943	334.5	30.5	-72.9	2.2
2026-01-20 08:36:16.460156	334.2	30.7	-73.3	4.4
2026-01-20 08:36:17.590889	333.8	30.8	-74.4	3.9
2026-01-20 08:36:18.717887	333.5	30.9	-73.5	0.1
2026-01-20 08:36:19.848793	333.2	31.0	-74.0	2.2
2026-01-20 08:36:20.977495	332.8	31.1	-73.3	1.3
2026-01-20 08:36:22.108438	332.5	31.3	-72.7	0.8
2026-01-20 08:36:23.238955	332.1	31.4	-75.1	5.3
2026-01-20 08:36:24.366745	331.8	31.5	-73.8	2.7
2026-01-20 08:36:25.495441	331.4	31.6	-74.6	3.0
2026-01-20 08:36:26.624003	331.1	31.7	-73.9	2.0
2026-01-20 08:36:27.754106	330.7	31.9	-74.4	4.5
2026-01-20 08:36:28.883672	330.4	32.0	-74.6	4.5
2026-01-20 08:36:30.013564	330.0	32.1	-73.9	1.5
2026-01-20 08:36:31.142247	329.6	32.2	-74.7	2.6
2026-01-20 08:36:32.270615	329.3	32.3	-74.6	4.4
2026-01-20 08:36:33.400233	328.9	32.4	-74.4	4.1
2026-01-20 08:36:34.527669	328.5	32.6	-73.6	3.2
2026-01-20 08:36:35.660386	328.1	32.7	-74.3	3.7
2026-01-20 08:36:36.794428	327.8	32.8	-74.3	4.9
2026-01-20 08:36:37.927356	327.4	32.9	-74.6	4.0
2026-01-20 08:36:39.062328	327.0	33.0	-73.1	0.0
2026-01-20 08:36:40.198038	326.6	33.1	-74.1	3.1
2026-01-20 08:36:41.331125	326.2	33.2	-72.9	1.1
2026-01-20 08:36:42.464525	325.8	33.3	-72.8	3.1
2026-01-20 08:36:43.604504	325.4	33.4	-74.5	5.1
2026-01-20 08:36:44.739249	325.0	33.5	-74.0	2.1
2026-01-20 08:36:45.873901	324.6	33.6	-74.4	5.0
2026-01-20 08:36:47.007066	324.2	33.7	-74.7	5.8
2026-01-20 08:36:48.138231	323.8	33.8	-74.9	6.3
2026-01-20 08:36:49.273277	323.4	33.9	-74.3	3.9
2026-01-20 08:36:50.408753	323.0	34.0	-75.2	5.6
2026-01-20 08:36:51.542299	322.6	34.1	-74.8	5.4
2026-01-20 08:36:52.677049	322.2	34.2	-73.9	3.8
2026-01-20 08:36:53.811535	321.7	34.3	-75.6	6.2
2026-01-20 08:36:54.948306	321.3	34.4	-75.7	7.3
2026-01-20 08:36:56.086594	320.9	34.5	-75.5	7.5
2026-01-20 08:36:57.224419	320.5	34.6	-74.9	5.3
2026-01-20 08:36:58.363159	320.0	34.7	-75.9	7.0
2026-01-20 08:36:59.499839	319.6	34.7	-75.6	6.6
2026-01-20 08:37:00.635694	319.2	34.8	-74.7	4.0
2026-01-20 08:37:01.774723	318.7	34.9	-75.9	7.6
2026-01-20 08:37:02.914357	318.3	35.0	-76.0	7.3
2026-01-20 08:37:04.052849	317.9	35.1	-75.3	6.9
2026-01-20 08:37:05.188849	317.4	35.1	-76.4	6.8
2026-01-20 08:37:06.322302	317.0	35.2	-76.6	4.0
2026-01-20 08:37:07.458096	316.5	35.3	-76.2	5.4
2026-01-20 08:37:08.592144	316.1	35.4	-76.9	6.1
2026-01-20 08:37:09.725958	315.6	35.4	-77.2	7.1
2026-01-20 08:37:10.862402	315.2	35.5	-77.1	7.9
2026-01-20 08:37:11.996749	314.7	35.6	-77.1	8.2
2026-01-20 08:37:13.131081	314.3	35.6	-77.0	8.2
2026-01-20 08:37:14.265166	313.8	35.7	-76.9	6.0
2026-01-20 08:37:15.400681	313.4	35.7	-77.2	7.7
2026-01-20 08:37:16.535421	312.9	35.8	-76.2	5.3
2026-01-20 08:37:17.669312	312.4	35.9	-76.8	6.2
2026-01-20 08:37:18.804672	312.0	35.9	-76.6	7.6
2026-01-20 08:37:19.938383	311.5	36.0	-76.5	5.4
2026-01-20 08:37:21.076381	311.0	36.0	-76.4	6.9
2026-01-20 08:37:22.211478	310.6	36.1	-75.2	4.1
2026-01-20 08:37:23.346897	310.1	36.1	-76.2	4.3
2026-01-20 08:37:24.480174	309.6	36.2	-75.4	2.1
2026-01-20 08:37:25.614122	309.2	36.2	-77.2	5.0
2026-01-20 08:37:26.748014	308.7	36.2	-74.1	0.2
2026-01-20 08:37:27.880661	308.2	36.3	-74.5	0.5
2026-01-20 08:37:29.015570	307.7	36.3	-72.7	0.0
2026-01-20 08:37:30.148330	307.3	36.3	-73.8	0.0
2026-01-20 08:37:31.282770	306.8	36.4	-76.3	0.0
2026-01-20 08:37:32.419119	306.3	36.4	-76.7	5.7
2026-01-20 08:37:33.552400	305.8	36.4	-74.3	2.9
2026-01-20 08:37:34.688602	305.3	36.4	-74.1	0.0
2026-01-20 08:37:35.824043	304.9	36.5	-76.0	2.7
2026-01-20 08:37:36.958505	304.4	36.5	-76.5	1.1
2026-01-20 08:37:38.093854	303.9	36.5	-76.6	3.8
2026-01-20 08:37:39.224356	303.4	36.5	-77.3	7.0
2026-01-20 08:37:40.354959	302.9	36.5	-76.5	2.1
2026-01-20 08:37:41.491743	302.5	36.5	-75.6	5.2
2026-01-20 08:37:42.625929	302.0	36.5	-75.3	3.8
2026-01-20 08:37:43.762797	301.5	36.5	-76.3	5.8
2026-01-20 08:37:44.894967	301.0	36.5	-75.8	4.6
2026-01-20 08:37:46.027935	300.5	36.5	-76.2	5.9
2026-01-20 08:37:47.163111	300.0	36.5	-76.6	4.8
2026-01-20 08:37:48.295307	299.6	36.5	-74.8	3.1
2026-01-20 08:37:49.432948	299.1	36.5	-74.4	1.1
2026-01-20 08:37:50.571454	298.6	36.5	-74.7	6.1
2026-01-20 08:37:51.710398	298.1	36.5	-77.0	6.8
2026-01-20 08:37:52.847363	297.6	36.5	-76.6	5.9
2026-01-20 08:37:53.986986	297.1	36.5	-76.1	3.8
2026-01-20 08:37:55.124806	296.7	36.5	-73.6	0.0
2026-01-20 08:37:56.262197	296.2	36.4	-75.7	4.7
2026-01-20 08:37:57.399550	295.7	36.4	-76.4	5.7
2026-01-20 08:37:58.536987	295.2	36.4	-75.3	2.6
2026-01-20 08:37:59.676671	294.7	36.4	-77.4	5.2
2026-01-20 08:38:00.814783	294.3	36.3	-76.4	6.2
2026-01-20 08:38:01.952295	293.8	36.3	-76.3	4.2
2026-01-20 08:38:03.090877	293.3	36.3	-77.8	7.8
2026-01-20 08:38:04.226506	292.8	36.2	-76.9	4.8
2026-01-20 08:38:05.361444	292.3	36.2	-76.1	4.7
2026-01-20 08:38:06.495683	291.9	36.2	-74.9	1.2
2026-01-20 08:38:07.632546	291.4	36.1	-75.0	2.1
2026-01-20 08:38:08.766451	290.9	36.1	-76.1	2.6
2026-01-20 08:38:09.902175	290.5	36.0	-76.6	2.9
2026-01-20 08:38:11.038377	290.0	36.0	-76.2	6.5
2026-01-20 08:38:12.175914	289.5	35.9	-76.3	3.0
2026-01-20 08:38:13.311091	289.1	35.9	-75.8	2.0
2026-01-20 08:38:14.448079	288.6	35.8	-74.7	0.0
2026-01-20 08:38:15.585240	288.1	35.8	-77.0	6.5
2026-01-20 08:38:16.724077	287.7	35.7	-76.5	6.4
2026-01-20 08:38:17.861327	287.2	35.6	-77.2	7.1
2026-01-20 08:38:19.001097	286.8	35.6	-77.0	5.0
2026-01-20 08:38:20.137535	286.3	35.5	-76.4	5.6
2026-01-20 08:38:21.276039	285.8	35.4	-76.3	5.5
2026-01-20 08:38:22.416159	285.4	35.4	-75.6	5.4
2026-01-20 08:38:23.554099	284.9	35.3	-76.6	5.4
2026-01-20 08:38:24.691511	284.5	35.2	-76.9	4.1
2026-01-20 08:38:25.828744	284.0	35.2	-77.1	7.4
2026-01-20 08:38:26.965908	283.6	35.1	-77.8	9.2
2026-01-20 08:38:28.103325	283.2	35.0	-77.0	10.0
2026-01-20 08:38:29.241269	282.7	34.9	-77.8	9.2
2026-01-20 08:38:30.380398	282.3	34.8	-76.9	9.0
2026-01-20 08:38:31.514974	281.9	34.8	-77.2	7.9
2026-01-20 08:38:32.646729	281.4	34.7	-77.7	8.4
2026-01-20 08:38:33.777443	281.0	34.6	-77.9	9.3
2026-01-20 08:38:34.908355	280.6	34.5	-77.3	8.8
2026-01-20 08:38:36.039642	280.1	34.4	-77.6	8.4
2026-01-20 08:38:37.169568	279.7	34.3	-77.9	8.7
2026-01-20 08:38:38.300885	279.3	34.2	-77.3	8.5
2026-01-20 08:38:39.430364	278.9	34.1	-77.6	8.9
2026-01-20 08:38:40.558523	278.5	34.0	-77.0	7.3
2026-01-20 08:38:41.688360	278.1	33.9	-77.8	10.4
2026-01-20 08:38:42.816821	277.7	33.8	-77.7	10.7
2026-01-20 08:38:43.946750	277.2	33.7	-77.2	10.6
2026-01-20 08:38:45.075971	276.8	33.6	-77.5	11.3
2026-01-20 08:38:46.205457	276.4	33.5	-77.6	11.1
2026-01-20 08:38:47.333786	276.0	33.4	-77.7	10.7
2026-01-20 08:38:48.464142	275.6	33.3	-77.3	10.1
2026-01-20 08:38:49.594302	275.2	33.2	-77.5	9.5
2026-01-20 08:38:50.723800	274.9	33.1	-76.9	8.3
2026-01-20 08:38:51.854786	274.5	33.0	-76.4	9.0
2026-01-20 08:38:52.986256	274.1	32.9	-77.0	9.6
2026-01-20 08:38:54.113089	273.7	32.8	-77.6	10.3
2026-01-20 08:38:55.246471	273.3	32.7	-77.5	10.4
2026-01-20 08:38:56.383767	272.9	32.6	-77.1	9.2
2026-01-20 08:38:57.518639	272.6	32.5	-77.2	9.7
2026-01-20 08:38:58.650879	272.2	32.3	-77.3	10.1
2026-01-20 08:38:59.784119	271.8	32.2	-77.3	10.6
2026-01-20 08:39:00.916682	271.4	32.1	-77.6	10.9
2026-01-20 08:39:02.048621	271.1	32.0	-78.0	11.5
2026-01-20 08:39:03.184494	270.7	31.9	-77.9	9.9
2026-01-20 08:39:04.317313	270.4	31.8	-77.0	5.5
2026-01-20 08:39:05.448644	270.0	31.6	-76.1	5.5
2026-01-20 08:39:06.582278	269.6	31.5	-76.0	5.9
2026-01-20 08:39:07.715640	269.3	31.4	-76.7	8.7
2026-01-20 08:39:08.850671	268.9	31.3	-75.9	5.4
2026-01-20 08:39:09.983746	268.6	31.2	-77.8	8.8
2026-01-20 08:39:11.117247	268.2	31.0	-77.8	10.6
2026-01-20 08:39:12.252765	267.9	30.9	-77.6	8.7
2026-01-20 08:39:13.387321	267.6	30.8	-77.7	10.8
2026-01-20 08:39:14.522466	267.2	30.7	-77.5	9.7
2026-01-20 08:39:15.660595	266.9	30.5	-75.2	4.4
2026-01-20 08:39:16.800487	266.6	30.4	-77.7	11.6
2026-01-20 08:39:17.939520	266.2	30.3	-78.0	12.0
2026-01-20 08:39:19.074923	265.9	30.2	-78.0	11.1
2026-01-20 08:39:20.213241	265.6	30.0	-77.4	11.2
2026-01-20 08:39:21.351072	265.2	29.9	-77.2	9.5
2026-01-20 08:39:22.489549	264.9	29.8	-77.3	9.9
2026-01-20 08:39:23.626394	264.6	29.6	-77.7	12.2
2026-01-20 08:39:24.764746	264.3	29.5	-77.4	11.8
2026-01-20 08:39:25.903769	264.0	29.4	-77.8	12.0
2026-01-20 08:39:27.040746	263.7	29.3	-77.7	11.0
2026-01-20 08:39:28.179399	263.4	29.1	-77.8	9.8
2026-01-20 08:39:29.318866	263.1	29.0	-78.0	10.5
2026-01-20 08:39:30.455973	262.7	28.9	-78.0	10.7
2026-01-20 08:39:31.592669	262.4	28.7	-77.7	9.8
2026-01-20 08:39:32.727631	262.2	28.6	-77.8	9.0
2026-01-20 08:39:33.863560	261.9	28.5	-78.0	11.3
2026-01-20 08:39:34.998101	261.6	28.3	-76.7	8.5
2026-01-20 08:39:36.137378	261.3	28.2	-78.0	10.4
2026-01-20 08:39:37.276022	261.0	28.1	-78.1	10.5
2026-01-20 08:39:38.414023	260.7	27.9	-78.0	10.9
2026-01-20 08:39:39.552931	260.4	27.8	-77.7	10.5
2026-01-20 08:39:40.688927	260.1	27.7	-78.1	9.9
2026-01-20 08:39:41.827064	259.9	27.5	-77.9	10.1
2026-01-20 08:39:42.964540	259.6	27.4	-77.6	9.1
2026-01-20 08:39:44.102471	259.3	27.3	-77.7	10.8
2026-01-20 08:39:45.238873	259.0	27.1	-77.6	9.8
2026-01-20 08:39:46.370037	258.8	27.0	-77.8	10.0
2026-01-20 08:39:47.503029	258.5	26.9	-77.7	10.0
2026-01-20 08:39:48.635193	258.2	26.7	-75.9	5.2
2026-01-20 08:39:49.767355	258.0	26.6	-78.1	10.7
2026-01-20 08:39:50.902136	257.7	26.5	-78.1	10.3
2026-01-20 08:39:52.033026	257.5	26.3	-77.9	9.8
2026-01-20 08:39:53.163826	257.2	26.2	-78.1	10.0
2026-01-20 08:39:54.298438	257.0	26.1	-77.8	11.0
2026-01-20 08:39:55.433931	256.7	25.9	-78.0	10.3
2026-01-20 08:39:56.567373	256.5	25.8	-77.9	9.5
2026-01-20 08:39:57.702320	256.2	25.7	-78.1	9.2
2026-01-20 08:39:58.835435	256.0	25.5	-78.0	9.8
2026-01-20 08:39:59.968304	255.7	25.4	-77.9	10.4
2026-01-20 08:40:01.102345	255.5	25.3	-78.1	8.6
2026-01-20 08:40:02.236231	255.2	25.2	-78.0	10.4
2026-01-20 08:40:03.369396	255.0	25.0	-78.4	8.8
2026-01-20 08:40:04.501667	254.8	24.9	-78.2	10.8
2026-01-20 08:40:05.633049	254.5	24.8	-78.4	9.2
2026-01-20 08:40:06.767173	254.3	24.6	-78.6	9.9
2026-01-20 08:40:07.898897	254.1	24.5	-78.3	9.2
2026-01-20 08:40:09.032340	253.9	24.4	-78.0	8.0
2026-01-20 08:40:10.167353	253.6	24.2	-78.0	7.5
2026-01-20 08:40:11.306742	253.4	24.1	-78.0	8.2
2026-01-20 08:40:12.440512	253.2	24.0	-78.0	8.3
2026-01-20 08:40:13.573015	253.0	23.8	-78.0	10.4
2026-01-20 08:40:14.704803	252.7	23.7	-77.6	10.5
2026-01-20 08:40:15.835916	252.5	23.6	-77.9	7.4
2026-01-20 08:40:16.966945	252.3	23.4	-77.0	6.7
2026-01-20 08:40:18.098347	252.1	23.3	-77.9	8.7
2026-01-20 08:40:19.228004	251.9	23.2	-78.1	10.4
2026-01-20 08:40:20.361929	251.7	23.1	-77.1	6.1
2026-01-20 08:40:21.493857	251.5	22.9	-78.3	10.1
2026-01-20 08:40:22.624181	251.3	22.8	-78.1	7.8
2026-01-20 08:40:23.754677	251.1	22.7	-78.0	10.0
2026-01-20 08:40:24.888894	250.9	22.5	-78.6	9.6
2026-01-20 08:40:26.022792	250.7	22.4	-78.5	11.5
2026-01-20 08:40:27.157248	250.5	22.3	-78.7	12.1
2026-01-20 08:40:28.287967	250.3	22.2	-78.7	11.3
2026-01-20 08:40:29.419412	250.1	22.0	-78.5	11.6
2026-01-20 08:40:30.551347	249.9	21.9	-78.6	10.4
2026-01-20 08:40:31.682342	249.7	21.8	-78.9	11.5
2026-01-20 08:40:32.813001	249.5	21.7	-79.1	11.3
2026-01-20 08:40:33.943442	249.3	21.5	-78.8	11.8
2026-01-20 08:40:35.074011	249.1	21.4	-78.8	11.7
2026-01-20 08:40:36.206871	248.9	21.3	-78.6	10.7
2026-01-20 08:40:37.338052	248.8	21.2	-78.9	11.1
2026-01-20 08:40:38.471563	248.6	21.0	-78.5	9.8
2026-01-20 08:40:39.605788	248.4	20.9	-78.5	8.7
2026-01-20 08:40:40.742703	248.2	20.8	-78.9	11.5
2026-01-20 08:40:41.877806	248.0	20.7	-78.2	10.6
2026-01-20 08:40:43.016045	247.9	20.5	-78.2	8.6
2026-01-20 08:40:44.151868	247.7	20.4	-78.8	10.8
2026-01-20 08:40:45.288345	247.5	20.3	-79.4	11.1
2026-01-20 08:40:46.425577	247.3	20.2	-79.0	11.0
2026-01-20 08:40:47.561060	247.2	20.0	-78.7	10.5
2026-01-20 08:40:48.695302	247.0	19.9	-79.1	11.5
2026-01-20 08:40:49.831696	246.8	19.8	-79.0	10.9
2026-01-20 08:40:50.966599	246.7	19.7	-79.1	9.9
2026-01-20 08:40:52.104362	246.5	19.6	-79.2	10.7
2026-01-20 08:40:53.239979	246.3	19.4	-79.1	10.6
2026-01-20 08:40:54.377545	246.2	19.3	-79.0	9.3
2026-01-20 08:40:55.514409	246.0	19.2	-78.6	8.7
2026-01-20 08:40:56.650734	245.9	19.1	-78.0	8.2
2026-01-20 08:40:57.787141	245.7	19.0	-78.4	9.7
2026-01-20 08:40:58.925608	245.5	18.8	-78.1	7.9
2026-01-20 08:41:00.061136	245.4	18.7	-78.0	7.4
2026-01-20 08:41:01.197179	245.2	18.6	-78.3	9.4
2026-01-20 08:41:02.331386	245.1	18.5	-78.3	8.2
2026-01-20 08:41:03.465987	244.9	18.4	-78.7	9.6
2026-01-20 08:41:04.602775	244.8	18.2	-78.5	10.1
2026-01-20 08:41:05.736346	244.6	18.1	-78.6	9.1
2026-01-20 08:41:06.871748	244.5	18.0	-78.5	7.1
2026-01-20 08:41:08.007301	244.3	17.9	-78.8	7.9
2026-01-20 08:41:09.145239	244.2	17.8	-78.2	8.9
2026-01-20 08:41:10.278740	244.0	17.7	-78.2	6.7
2026-01-20 08:41:11.415904	243.9	17.6	-77.7	6.4
2026-01-20 08:41:12.552995	243.7	17.4	-78.4	7.7
2026-01-20 08:41:13.693657	243.6	17.3	-78.5	9.1
2026-01-20 08:41:14.824270	243.4	17.2	-78.3	6.4
2026-01-20 08:41:15.951956	243.3	17.1	-77.9	6.7
2026-01-20 08:41:17.081022	243.2	17.0	-78.0	7.1
2026-01-20 08:41:18.207367	243.0	16.9	-77.8	6.2
2026-01-20 08:41:19.334373	242.9	16.8	-79.1	9.4
2026-01-20 08:41:20.464043	242.8	16.6	-77.6	7.5
2026-01-20 08:41:21.591367	242.6	16.5	-78.4	8.1
2026-01-20 08:41:22.719239	242.5	16.4	-77.7	6.8
2026-01-20 08:41:23.851313	242.4	16.3	-78.4	7.9
2026-01-20 08:41:24.979562	242.2	16.2	-78.7	8.1
2026-01-20 08:41:26.111300	242.1	16.1	-77.9	6.5
2026-01-20 08:41:27.240415	242.0	16.0	-78.2	6.5
2026-01-20 08:41:28.367464	241.8	15.9	-78.7	5.8
2026-01-20 08:41:29.496600	241.7	15.8	-77.6	5.0
2026-01-20 08:41:30.624776	241.6	15.7	-78.7	7.3
2026-01-20 08:41:31.753493	241.5	15.6	-78.3	6.9
2026-01-20 08:41:32.884453	241.3	15.4	-78.3	5.7
2026-01-20 08:41:34.012282	241.2	15.3	-78.3	7.1
2026-01-20 08:41:35.143335	241.1	15.2	-77.8	6.4
2026-01-20 08:41:36.272960	241.0	15.1	-78.9	8.4
2026-01-20 08:41:37.406311	240.8	15.0	-78.5	6.3
2026-01-20 08:41:38.537876	240.7	14.9	-78.6	6.3
2026-01-20 08:41:39.668079	240.6	14.8	-78.7	7.3
2026-01-20 08:41:40.803107	240.5	14.7	-78.8	7.3
2026-01-20 08:41:41.934162	240.4	14.6	-79.0	7.2
2026-01-20 08:41:43.067029	240.2	14.5	-78.7	7.5
2026-01-20 08:41:44.201333	240.1	14.4	-78.6	8.0
2026-01-20 08:41:45.338491	240.0	14.3	-78.6	7.1
2026-01-20 08:41:46.469704	239.9	14.2	-78.8	7.5
2026-01-20 08:41:47.603309	239.8	14.1	-78.9	7.2
2026-01-20 08:41:48.737093	239.7	14.0	-78.4	6.1
2026-01-20 08:41:49.871088	239.6	13.9	-79.9	8.6
2026-01-20 08:41:51.006914	239.4	13.8	-79.8	8.9
2026-01-20 08:41:52.137922	239.3	13.7	-79.9	8.9
2026-01-20 08:41:53.269734	239.2	13.6	-79.7	7.8
2026-01-20 08:41:54.406827	239.1	13.5	-79.8	8.6
2026-01-20 08:41:55.540271	239.0	13.4	-80.0	8.6
2026-01-20 08:41:56.675859	238.9	13.3	-79.9	9.9
2026-01-20 08:41:57.813724	238.8	13.2	-80.3	9.3
2026-01-20 08:41:58.953347	238.7	13.0	-80.1	9.6
2026-01-20 08:42:00.090423	238.6	12.9	-79.9	8.6
2026-01-20 08:42:01.224001	238.5	12.8	-79.8	8.3
2026-01-20 08:42:02.358066	238.4	12.8	-80.0	7.9
2026-01-20 08:42:03.486375	238.3	12.7	-80.0	8.8
2026-01-20 08:42:04.619572	238.2	12.6	-80.1	8.7
2026-01-20 08:42:05.752682	238.1	12.5	-79.9	8.3
2026-01-20 08:42:06.884634	238.0	12.4	-79.8	9.7
2026-01-20 08:42:08.018292	237.9	12.3	-79.6	7.9
2026-01-20 08:42:09.151826	237.8	12.2	-80.0	8.6
2026-01-20 08:42:10.282165	237.7	12.1	-79.5	9.8
2026-01-20 08:42:11.413806	237.6	12.0	-79.7	8.2
2026-01-20 08:42:12.546360	237.5	11.9	-79.9	8.7
2026-01-20 08:42:13.678029	237.4	11.8	-80.0	8.7
2026-01-20 08:42:14.808110	237.3	11.7	-80.4	8.8
2026-01-20 08:42:15.941825	237.2	11.6	-80.3	8.7
2026-01-20 08:42:17.074950	237.1	11.5	-80.4	7.8
2026-01-20 08:42:18.206291	237.0	11.4	-80.5	7.8
2026-01-20 08:42:19.340182	236.9	11.3	-80.2	7.9
2026-01-20 08:42:20.470817	236.8	11.2	-79.6	8.9
2026-01-20 08:42:21.601013	236.7	11.1	-80.1	9.0
2026-01-20 08:42:22.730492	236.6	11.0	-79.8	9.0
2026-01-20 08:42:23.863944	236.5	10.9	-79.9	10.2
2026-01-20 08:42:24.997147	236.4	10.8	-80.2	8.8
2026-01-20 08:42:26.130562	236.3	10.7	-80.8	9.2
2026-01-20 08:42:27.261632	236.3	10.6	-81.9	6.1
2026-01-20 08:42:28.390978	236.2	10.5	-83.0	3.6
2026-01-20 08:42:29.523256	236.1	10.5	-84.1	0.0
2026-01-20 08:42:30.655119	236.0	10.4	-84.9	0.0
2026-01-20 08:42:31.787369	235.9	10.3	-85.4	0.0
2026-01-20 08:42:32.917558	235.8	10.2	-85.1	0.0
2026-01-20 08:42:34.051609	235.7	10.1	-84.8	0.0
#Closed at: 2026-01-20 08:32:49.415918