passes_logs/2026/01/20/planumMaritime01/planumMaritime01__20260120_081536_METOP-C_rec.log

#Pass ID: 20260120_081536_METOP-C
#Satellite: METOP-C
#Configuration: METOP-C
#Start time: 2026-01-20 08:15:41.907637

#LorettStation: 1.0.0 05.05.2024
#Station: planumMaritime01
#Location: 37.49445 lon 55.92918 lat
#TLE: 1 43689U 18087A   26019.90179106  .00000159  00000+0  92796-4 0  9996
#TLE: 2 43689  98.6868  82.0755 0000796 174.2820 185.8367 14.21500134373765

#Time	Az	El	Level	SNR
2026-01-20 08:15:44.076702	11.6	10.2	-64.7	0.0
2026-01-20 08:15:45.201722	11.6	10.3	-63.4	0.0
2026-01-20 08:15:46.329253	11.5	10.4	-64.5	0.0
2026-01-20 08:15:47.452759	11.5	10.5	-61.8	0.0
2026-01-20 08:15:48.577521	11.5	10.6	-63.2	0.0
2026-01-20 08:15:49.706236	11.4	10.7	-62.2	0.0
2026-01-20 08:15:50.832454	11.4	10.8	-61.7	0.0
2026-01-20 08:15:51.958586	11.4	10.9	-61.3	0.0
2026-01-20 08:15:53.085145	11.3	11.0	-61.4	0.0
2026-01-20 08:15:54.214000	11.3	11.1	-60.6	0.0
2026-01-20 08:15:55.342166	11.2	11.2	-60.4	0.0
2026-01-20 08:15:56.470391	11.2	11.3	-58.7	0.0
2026-01-20 08:15:57.595758	11.2	11.4	-59.8	0.0
2026-01-20 08:15:58.723735	11.1	11.5	-60.1	0.0
2026-01-20 08:15:59.849836	11.1	11.6	-59.6	0.0
2026-01-20 08:16:00.976450	11.1	11.7	-60.3	0.0
2026-01-20 08:16:02.101791	11.0	11.8	-61.6	0.0
2026-01-20 08:16:03.229881	11.0	11.9	-58.7	0.0
2026-01-20 08:16:04.355767	10.9	12.0	-57.6	0.0
2026-01-20 08:16:05.484391	10.9	12.1	-59.0	0.0
2026-01-20 08:16:06.611154	10.8	12.2	-57.6	0.0
2026-01-20 08:16:07.737769	10.8	12.3	-59.5	0.0
2026-01-20 08:16:08.863920	10.8	12.4	-59.2	0.0
2026-01-20 08:16:09.990088	10.7	12.5	-60.9	0.0
2026-01-20 08:16:11.116188	10.7	12.6	-59.6	0.0
2026-01-20 08:16:12.243164	10.6	12.7	-60.6	0.0
2026-01-20 08:16:13.370766	10.6	12.8	-60.0	0.0
2026-01-20 08:16:14.498060	10.5	12.9	-61.0	0.0
2026-01-20 08:16:15.627744	10.5	13.1	-59.0	0.0
2026-01-20 08:16:16.753830	10.5	13.2	-59.8	0.0
2026-01-20 08:16:17.879624	10.4	13.3	-62.2	0.0
2026-01-20 08:16:19.005727	10.4	13.4	-61.6	0.0
2026-01-20 08:16:20.131758	10.3	13.5	-60.0	0.0
2026-01-20 08:16:21.259466	10.3	13.6	-60.8	0.0
2026-01-20 08:16:22.388197	10.2	13.7	-62.9	0.0
2026-01-20 08:16:23.515305	10.2	13.8	-63.3	0.0
2026-01-20 08:16:24.642661	10.1	13.9	-61.9	0.0
2026-01-20 08:16:25.768594	10.1	14.1	-60.3	0.0
2026-01-20 08:16:26.894583	10.0	14.2	-63.0	0.0
2026-01-20 08:16:28.022506	10.0	14.3	-62.2	0.0
2026-01-20 08:16:29.148854	9.9	14.4	-62.3	0.0
2026-01-20 08:16:30.274340	9.9	14.5	-64.4	0.0
2026-01-20 08:16:31.399816	9.8	14.6	-61.8	0.0
2026-01-20 08:16:32.527619	9.8	14.7	-61.0	0.0
2026-01-20 08:16:33.655060	9.7	14.9	-61.0	0.0
2026-01-20 08:16:34.783646	9.7	15.0	-61.2	0.0
2026-01-20 08:16:35.909937	9.6	15.1	-59.8	0.0
2026-01-20 08:16:37.035723	9.6	15.2	-59.5	0.0
2026-01-20 08:16:38.164515	9.5	15.3	-57.8	0.0
2026-01-20 08:16:39.290556	9.5	15.5	-60.8	0.0
2026-01-20 08:16:40.418454	9.4	15.6	-60.1	0.0
2026-01-20 08:16:41.546048	9.4	15.7	-58.9	0.0
2026-01-20 08:16:42.672406	9.3	15.8	-60.1	0.0
2026-01-20 08:16:43.797787	9.3	15.9	-59.1	0.0
2026-01-20 08:16:44.924260	9.2	16.1	-59.2	0.0
2026-01-20 08:16:46.050375	9.2	16.2	-60.9	0.0
2026-01-20 08:16:47.177850	9.1	16.3	-60.1	0.0
2026-01-20 08:16:48.305240	9.0	16.4	-61.8	0.0
2026-01-20 08:16:49.429788	9.0	16.5	-61.9	0.0
2026-01-20 08:16:50.557160	8.9	16.7	-60.1	0.0
2026-01-20 08:16:51.683835	8.9	16.8	-61.9	0.0
2026-01-20 08:16:52.809478	8.8	16.9	-62.3	0.0
2026-01-20 08:16:53.935152	8.8	17.1	-61.8	0.0
2026-01-20 08:16:55.060818	8.7	17.2	-61.3	0.0
2026-01-20 08:16:56.189275	8.6	17.3	-61.4	0.0
2026-01-20 08:16:57.314593	8.6	17.4	-61.7	0.0
2026-01-20 08:16:58.441804	8.5	17.6	-58.5	0.0
2026-01-20 08:16:59.567855	8.5	17.7	-58.8	0.0
2026-01-20 08:17:00.694643	8.4	17.8	-60.1	0.0
2026-01-20 08:17:01.821544	8.3	18.0	-58.0	0.0
2026-01-20 08:17:02.946372	8.3	18.1	-65.7	0.0
2026-01-20 08:17:04.073663	8.2	18.2	-61.1	0.0
2026-01-20 08:17:05.199256	8.1	18.4	-63.6	0.0
2026-01-20 08:17:06.325574	8.1	18.5	-65.4	0.0
2026-01-20 08:17:07.452866	8.0	18.6	-64.9	0.0
2026-01-20 08:17:08.580093	7.9	18.8	-64.2	0.0
2026-01-20 08:17:09.706834	7.9	18.9	-61.5	0.0
2026-01-20 08:17:10.832836	7.8	19.0	-65.6	0.0
2026-01-20 08:17:11.958672	7.7	19.2	-63.1	0.0
2026-01-20 08:17:13.084751	7.7	19.3	-63.0	0.0
2026-01-20 08:17:14.212572	7.6	19.5	-62.8	0.0
2026-01-20 08:17:15.338211	7.5	19.6	-64.2	0.0
2026-01-20 08:17:16.463284	7.5	19.7	-61.7	0.0
2026-01-20 08:17:17.590729	7.4	19.9	-62.6	0.0
2026-01-20 08:17:18.718124	7.3	20.0	-62.0	0.0
2026-01-20 08:17:19.844440	7.2	20.2	-63.6	0.0
2026-01-20 08:17:20.970877	7.2	20.3	-63.9	0.0
2026-01-20 08:17:22.097258	7.1	20.4	-63.0	0.0
2026-01-20 08:17:23.223530	7.0	20.6	-63.7	0.0
2026-01-20 08:17:24.349864	6.9	20.7	-62.3	0.0
2026-01-20 08:17:25.476545	6.9	20.9	-62.9	0.0
2026-01-20 08:17:26.603917	6.8	21.0	-62.4	0.0
2026-01-20 08:17:27.730405	6.7	21.2	-64.5	0.0
2026-01-20 08:17:28.857883	6.6	21.3	-64.6	0.0
2026-01-20 08:17:29.984345	6.5	21.5	-63.2	0.0
2026-01-20 08:17:31.111273	6.5	21.6	-63.4	0.0
2026-01-20 08:17:32.239397	6.4	21.8	-63.0	0.0
2026-01-20 08:17:33.367873	6.3	21.9	-64.4	0.0
2026-01-20 08:17:34.494919	6.2	22.1	-64.1	0.0
2026-01-20 08:17:35.622321	6.1	22.2	-64.7	0.0
2026-01-20 08:17:36.749658	6.0	22.4	-63.5	0.0
2026-01-20 08:17:37.875644	6.0	22.6	-62.9	0.0
2026-01-20 08:17:39.002191	5.9	22.7	-65.5	0.0
2026-01-20 08:17:40.129049	5.8	22.9	-63.3	0.0
2026-01-20 08:17:41.257479	5.7	23.0	-64.8	0.0
2026-01-20 08:17:42.384325	5.6	23.2	-62.4	0.0
2026-01-20 08:17:43.510247	5.5	23.4	-63.2	0.0
2026-01-20 08:17:44.636737	5.4	23.5	-63.0	0.0
2026-01-20 08:17:45.764635	5.3	23.7	-64.0	0.0
2026-01-20 08:17:46.892684	5.2	23.8	-61.7	0.0
2026-01-20 08:17:48.019666	5.1	24.0	-62.3	0.0
2026-01-20 08:17:49.145777	5.0	24.2	-64.4	0.0
2026-01-20 08:17:50.271406	4.9	24.3	-63.6	0.0
2026-01-20 08:17:51.398151	4.8	24.5	-63.5	0.0
2026-01-20 08:17:52.525454	4.7	24.7	-63.1	0.0
2026-01-20 08:17:53.653602	4.6	24.8	-63.5	0.0
2026-01-20 08:17:54.777266	4.5	25.0	-62.5	0.0
2026-01-20 08:17:55.901775	4.4	25.2	-63.6	0.0
2026-01-20 08:17:57.027105	4.3	25.4	-63.6	0.0
2026-01-20 08:17:58.154405	4.2	25.5	-63.5	0.0
2026-01-20 08:17:59.281425	4.1	25.7	-63.1	0.0
2026-01-20 08:18:00.409427	4.0	25.9	-62.8	0.0
2026-01-20 08:18:01.536718	3.9	26.1	-62.5	0.0
2026-01-20 08:18:02.667277	3.8	26.2	-62.9	0.0
2026-01-20 08:18:03.794622	3.7	26.4	-63.5	0.0
2026-01-20 08:18:04.922269	3.6	26.6	-63.5	0.0
2026-01-20 08:18:06.049260	3.5	26.8	-62.4	0.0
2026-01-20 08:18:07.176063	3.3	27.0	-64.4	0.0
2026-01-20 08:18:08.302976	3.2	27.1	-63.9	0.0
2026-01-20 08:18:09.427499	3.1	27.3	-64.1	0.0
2026-01-20 08:18:10.553936	3.0	27.5	-63.6	0.0
2026-01-20 08:18:11.681649	2.9	27.7	-65.8	0.0
2026-01-20 08:18:12.809049	2.7	27.9	-65.6	0.0
2026-01-20 08:18:13.935309	2.6	28.1	-65.8	0.0
2026-01-20 08:18:15.064910	2.5	28.3	-64.9	0.0
2026-01-20 08:18:16.191068	2.4	28.4	-64.3	0.0
2026-01-20 08:18:17.318352	2.2	28.6	-65.9	0.0
2026-01-20 08:18:18.444983	2.1	28.8	-64.5	0.0
2026-01-20 08:18:19.571330	2.0	29.0	-65.5	0.0
2026-01-20 08:18:20.697816	1.8	29.2	-62.9	0.0
2026-01-20 08:18:21.824288	1.7	29.4	-65.9	0.0
2026-01-20 08:18:22.950653	1.6	29.6	-63.6	0.0
2026-01-20 08:18:24.078140	1.4	29.8	-64.0	0.0
2026-01-20 08:18:25.204393	1.3	30.0	-65.8	0.0
2026-01-20 08:18:26.329637	1.1	30.2	-64.6	0.0
2026-01-20 08:18:27.456102	1.0	30.4	-64.4	0.0
2026-01-20 08:18:28.583556	0.9	30.6	-64.9	0.0
2026-01-20 08:18:29.710000	0.7	30.8	-63.2	0.0
2026-01-20 08:18:30.837355	0.6	31.0	-63.2	0.0
2026-01-20 08:18:31.964048	0.4	31.2	-65.3	0.0
2026-01-20 08:18:33.090157	0.2	31.5	-64.7	0.0
2026-01-20 08:18:34.216422	0.1	31.7	-63.6	0.0
2026-01-20 08:18:35.341863	359.9	31.9	-63.1	0.0
2026-01-20 08:18:36.469620	359.8	32.1	-62.2	0.0
2026-01-20 08:18:37.597007	359.6	32.3	-63.4	0.0
2026-01-20 08:18:38.724628	359.4	32.5	-64.7	0.0
2026-01-20 08:18:39.851546	359.3	32.7	-66.8	0.0
2026-01-20 08:18:40.977224	359.1	33.0	-65.9	0.0
2026-01-20 08:18:42.104135	358.9	33.2	-65.8	0.0
2026-01-20 08:18:43.231797	358.8	33.4	-67.0	0.0
2026-01-20 08:18:44.358487	358.6	33.6	-67.1	0.0
2026-01-20 08:18:45.485879	358.4	33.8	-66.9	0.0
2026-01-20 08:18:46.612428	358.2	34.1	-65.9	0.0
2026-01-20 08:18:47.738489	358.0	34.3	-68.5	0.0
2026-01-20 08:18:48.868087	357.9	34.5	-65.2	0.0
2026-01-20 08:18:49.996838	357.7	34.8	-64.3	0.0
2026-01-20 08:18:51.124173	357.5	35.0	-66.8	0.0
2026-01-20 08:18:52.251278	357.3	35.2	-66.8	0.0
2026-01-20 08:18:53.377448	357.1	35.4	-66.2	0.0
2026-01-20 08:18:54.502220	356.9	35.7	-65.1	0.0
2026-01-20 08:18:55.628084	356.7	35.9	-68.4	0.0
2026-01-20 08:18:56.754444	356.5	36.2	-67.3	0.0
2026-01-20 08:18:57.879425	356.3	36.4	-68.7	0.0
2026-01-20 08:18:59.006624	356.0	36.6	-69.0	0.0
2026-01-20 08:19:00.133472	355.8	36.9	-68.9	0.0
2026-01-20 08:19:01.258590	355.6	37.1	-68.9	0.0
2026-01-20 08:19:02.384853	355.4	37.4	-68.2	0.0
2026-01-20 08:19:03.514439	355.2	37.6	-66.4	0.0
2026-01-20 08:19:04.640971	354.9	37.8	-69.1	0.0
2026-01-20 08:19:05.767277	354.7	38.1	-70.0	2.2
2026-01-20 08:19:06.894849	354.5	38.3	-63.5	0.0
2026-01-20 08:19:08.020826	354.2	38.6	-69.5	0.8
2026-01-20 08:19:09.145717	354.0	38.8	-69.7	2.9
2026-01-20 08:19:10.271401	353.7	39.1	-68.6	1.4
2026-01-20 08:19:11.397108	353.5	39.3	-68.4	2.8
2026-01-20 08:19:12.521569	353.2	39.6	-67.6	2.9
2026-01-20 08:19:13.645983	353.0	39.9	-69.1	5.1
2026-01-20 08:19:14.772211	352.7	40.1	-67.7	2.2
2026-01-20 08:19:15.900011	352.4	40.4	-67.1	0.0
2026-01-20 08:19:17.030298	352.2	40.6	-67.0	0.0
2026-01-20 08:19:18.158311	351.9	40.9	-68.0	5.4
2026-01-20 08:19:19.283885	351.6	41.1	-68.1	1.9
2026-01-20 08:19:20.410530	351.3	41.4	-67.7	1.8
2026-01-20 08:19:21.535229	351.0	41.7	-68.4	5.2
2026-01-20 08:19:22.663214	350.7	41.9	-67.1	0.0
2026-01-20 08:19:23.791433	350.4	42.2	-69.4	6.8
2026-01-20 08:19:24.919135	350.1	42.5	-67.7	2.2
2026-01-20 08:19:26.044377	349.8	42.7	-69.8	4.5
2026-01-20 08:19:27.169980	349.5	43.0	-70.7	7.9
2026-01-20 08:19:28.294355	349.2	43.3	-69.2	7.1
2026-01-20 08:19:29.419816	348.8	43.5	-70.7	7.6
2026-01-20 08:19:30.545994	348.5	43.8	-69.0	4.4
2026-01-20 08:19:31.671148	348.2	44.1	-70.4	7.4
2026-01-20 08:19:32.797476	347.8	44.4	-68.6	1.8
2026-01-20 08:19:33.922087	347.5	44.6	-69.3	4.1
2026-01-20 08:19:35.048349	347.1	44.9	-69.8	5.4
2026-01-20 08:19:36.174649	346.7	45.2	-70.8	7.8
2026-01-20 08:19:37.301397	346.4	45.5	-71.7	7.3
2026-01-20 08:19:38.427653	346.0	45.7	-70.7	3.9
2026-01-20 08:19:39.553782	345.6	46.0	-71.6	8.8
2026-01-20 08:19:40.678315	345.2	46.3	-71.7	8.0
2026-01-20 08:19:41.803799	344.8	46.6	-69.9	8.1
2026-01-20 08:19:42.930476	344.4	46.8	-71.8	8.9
2026-01-20 08:19:44.056306	344.0	47.1	-71.8	10.2
2026-01-20 08:19:45.183047	343.6	47.4	-71.1	7.0
2026-01-20 08:19:46.309547	343.1	47.7	-72.2	8.4
2026-01-20 08:19:47.440405	342.7	48.0	-71.2	6.9
2026-01-20 08:19:48.564856	342.3	48.2	-70.1	5.9
2026-01-20 08:19:49.690604	341.8	48.5	-71.3	6.6
2026-01-20 08:19:50.814497	341.4	48.8	-70.3	5.7
2026-01-20 08:19:51.941708	340.9	49.1	-71.0	4.4
2026-01-20 08:19:53.068014	340.4	49.3	-71.2	8.7
2026-01-20 08:19:54.194396	339.9	49.6	-71.5	8.4
2026-01-20 08:19:55.320638	339.4	49.9	-70.6	7.7
2026-01-20 08:19:56.448233	338.9	50.2	-70.5	6.7
2026-01-20 08:19:57.573282	338.4	50.4	-71.7	8.5
2026-01-20 08:19:58.699502	337.9	50.7	-70.4	6.9
2026-01-20 08:19:59.825084	337.4	51.0	-70.1	3.9
2026-01-20 08:20:00.950593	336.8	51.3	-71.0	7.9
2026-01-20 08:20:02.077633	336.3	51.5	-71.1	8.2
2026-01-20 08:20:03.204318	335.7	51.8	-70.7	9.0
2026-01-20 08:20:04.329719	335.1	52.1	-71.1	8.7
2026-01-20 08:20:05.456193	334.6	52.3	-71.0	6.7
2026-01-20 08:20:06.582466	334.0	52.6	-69.5	5.7
2026-01-20 08:20:07.709762	333.4	52.9	-70.9	7.7
2026-01-20 08:20:08.837387	332.7	53.1	-69.9	8.9
2026-01-20 08:20:09.964972	332.1	53.4	-71.7	10.8
2026-01-20 08:20:11.091069	331.5	53.6	-71.6	9.9
2026-01-20 08:20:12.217397	330.8	53.9	-72.1	8.6
2026-01-20 08:20:13.344156	330.2	54.1	-71.3	5.5
2026-01-20 08:20:14.469688	329.5	54.4	-71.3	7.7
2026-01-20 08:20:15.594849	328.8	54.6	-70.6	6.4
2026-01-20 08:20:16.722140	328.1	54.9	-69.9	5.2
2026-01-20 08:20:17.849732	327.4	55.1	-70.1	5.7
2026-01-20 08:20:18.974912	326.7	55.4	-71.0	5.4
2026-01-20 08:20:20.102244	325.9	55.6	-70.7	4.8
2026-01-20 08:20:21.226614	325.2	55.8	-69.6	2.8
2026-01-20 08:20:22.353798	324.4	56.1	-71.3	5.7
2026-01-20 08:20:23.477464	323.7	56.3	-70.9	4.0
2026-01-20 08:20:24.602939	322.9	56.5	-71.3	7.1
2026-01-20 08:20:25.728773	322.1	56.7	-71.0	4.9
2026-01-20 08:20:26.854485	321.3	56.9	-70.1	1.6
2026-01-20 08:20:27.980283	320.5	57.1	-70.8	2.1
2026-01-20 08:20:29.109047	319.6	57.3	-71.6	3.6
2026-01-20 08:20:30.234169	318.8	57.5	-72.6	7.9
2026-01-20 08:20:31.359411	318.0	57.7	-72.4	8.5
2026-01-20 08:20:32.483395	317.1	57.9	-71.1	2.7
2026-01-20 08:20:33.611415	316.2	58.1	-71.4	5.2
2026-01-20 08:20:34.735177	315.3	58.2	-70.3	2.2
2026-01-20 08:20:35.863111	314.4	58.4	-71.5	3.0
2026-01-20 08:20:36.988531	313.5	58.5	-71.4	4.0
2026-01-20 08:20:38.115823	312.6	58.7	-71.6	4.2
2026-01-20 08:20:39.240779	311.6	58.8	-71.7	2.4
2026-01-20 08:20:40.366706	310.7	59.0	-72.0	3.6
2026-01-20 08:20:41.496117	309.7	59.1	-72.9	7.8
2026-01-20 08:20:42.620718	308.8	59.2	-72.1	5.2
2026-01-20 08:20:43.747548	307.8	59.4	-72.2	2.2
2026-01-20 08:20:44.874050	306.8	59.5	-72.5	5.3
2026-01-20 08:20:45.998697	305.8	59.6	-72.9	8.1
2026-01-20 08:20:47.124718	304.9	59.7	-73.1	8.5
2026-01-20 08:20:48.250608	303.8	59.8	-73.0	6.4
2026-01-20 08:20:49.375631	302.8	59.8	-68.3	0.6
2026-01-20 08:20:50.502449	301.8	59.9	-70.0	3.6
2026-01-20 08:20:51.629002	300.8	60.0	-71.3	5.3
2026-01-20 08:20:52.755058	299.8	60.0	-70.6	2.9
2026-01-20 08:20:53.881370	298.7	60.1	-71.1	6.6
2026-01-20 08:20:55.007550	297.7	60.1	-70.1	4.4
2026-01-20 08:20:56.133693	296.7	60.1	-71.8	5.9
2026-01-20 08:20:57.259265	295.6	60.2	-72.0	6.6
2026-01-20 08:20:58.384387	294.6	60.2	-71.8	7.6
2026-01-20 08:20:59.509473	293.6	60.2	-71.7	7.9
2026-01-20 08:21:00.635944	292.5	60.2	-72.0	8.4
2026-01-20 08:21:01.760764	291.5	60.2	-71.1	7.0
2026-01-20 08:21:02.886294	290.4	60.1	-72.8	7.7
2026-01-20 08:21:04.009323	289.4	60.1	-72.0	7.2
2026-01-20 08:21:05.135783	288.4	60.1	-72.4	8.1
2026-01-20 08:21:06.261312	287.3	60.0	-69.0	0.0
2026-01-20 08:21:07.390179	286.3	60.0	-71.2	5.9
2026-01-20 08:21:08.515622	285.3	59.9	-71.9	1.6
2026-01-20 08:21:09.642766	284.3	59.8	-73.2	7.6
2026-01-20 08:21:10.767612	283.3	59.8	-72.2	7.4
2026-01-20 08:21:11.896906	282.3	59.7	-73.1	5.7
2026-01-20 08:21:13.021169	281.3	59.6	-73.4	7.9
2026-01-20 08:21:14.145424	280.3	59.5	-72.8	9.2
2026-01-20 08:21:15.272442	279.3	59.4	-73.5	8.1
2026-01-20 08:21:16.399051	278.3	59.2	-71.8	5.3
2026-01-20 08:21:17.523515	277.4	59.1	-73.2	7.8
2026-01-20 08:21:18.649362	276.4	59.0	-72.7	4.5
2026-01-20 08:21:19.775629	275.5	58.9	-72.9	6.8
2026-01-20 08:21:20.902893	274.5	58.7	-73.5	8.0
2026-01-20 08:21:22.028720	273.6	58.6	-73.7	10.5
2026-01-20 08:21:23.153585	272.7	58.4	-73.8	9.6
2026-01-20 08:21:24.281389	271.8	58.2	-74.0	8.8
2026-01-20 08:21:25.403735	270.9	58.1	-73.8	6.9
2026-01-20 08:21:26.529932	270.0	57.9	-73.2	7.9
2026-01-20 08:21:27.653838	269.1	57.7	-73.5	9.0
2026-01-20 08:21:28.780063	268.3	57.5	-74.0	9.4
2026-01-20 08:21:29.906764	267.4	57.3	-74.1	7.0
2026-01-20 08:21:31.032829	266.6	57.1	-73.8	9.1
2026-01-20 08:21:32.162440	265.8	56.9	-74.2	8.6
2026-01-20 08:21:33.287007	265.0	56.7	-74.3	9.9
2026-01-20 08:21:34.412543	264.2	56.5	-73.8	7.2
2026-01-20 08:21:35.537364	263.4	56.3	-73.8	9.7
2026-01-20 08:21:36.662400	262.6	56.1	-73.7	9.4
2026-01-20 08:21:37.788999	261.9	55.8	-74.4	8.8
2026-01-20 08:21:38.916176	261.1	55.6	-73.8	9.2
2026-01-20 08:21:40.041876	260.4	55.4	-74.2	10.5
2026-01-20 08:21:41.166374	259.7	55.1	-74.3	11.0
2026-01-20 08:21:42.291207	259.0	54.9	-74.0	10.7
2026-01-20 08:21:43.417561	258.3	54.6	-74.0	10.7
2026-01-20 08:21:44.542538	257.6	54.4	-73.4	9.0
2026-01-20 08:21:45.672860	256.9	54.1	-73.4	9.8
2026-01-20 08:21:46.798240	256.2	53.9	-73.9	9.7
2026-01-20 08:21:47.925333	255.6	53.6	-73.9	10.7
2026-01-20 08:21:49.051908	254.9	53.4	-72.7	9.4
2026-01-20 08:21:50.177609	254.3	53.1	-73.0	10.9
2026-01-20 08:21:51.302500	253.7	52.9	-73.7	11.6
2026-01-20 08:21:52.426826	253.1	52.6	-73.7	11.7
2026-01-20 08:21:53.551788	252.5	52.3	-73.6	11.7
2026-01-20 08:21:54.677995	251.9	52.1	-72.5	9.4
2026-01-20 08:21:55.802344	251.3	51.8	-73.3	11.5
2026-01-20 08:21:56.929219	250.8	51.5	-72.8	10.1
2026-01-20 08:21:58.055038	250.2	51.3	-73.3	10.3
2026-01-20 08:21:59.180809	249.7	51.0	-73.4	12.9
2026-01-20 08:22:00.305485	249.1	50.7	-73.3	12.3
2026-01-20 08:22:01.432394	248.6	50.4	-73.5	12.9
2026-01-20 08:22:02.559618	248.1	50.2	-73.3	11.8
2026-01-20 08:22:03.686451	247.6	49.9	-73.0	10.9
2026-01-20 08:22:04.810887	247.1	49.6	-73.5	13.1
2026-01-20 08:22:05.939235	246.6	49.3	-72.9	12.5
2026-01-20 08:22:07.064840	246.1	49.1	-73.1	12.9
2026-01-20 08:22:08.191220	245.7	48.8	-73.3	13.1
2026-01-20 08:22:09.317748	245.2	48.5	-73.3	12.8
2026-01-20 08:22:10.443878	244.8	48.2	-73.3	11.7
2026-01-20 08:22:11.569451	244.3	47.9	-73.5	11.5
2026-01-20 08:22:12.694050	243.9	47.7	-73.5	12.2
2026-01-20 08:22:13.820609	243.4	47.4	-73.9	11.3
2026-01-20 08:22:14.946455	243.0	47.1	-73.9	11.5
2026-01-20 08:22:16.074280	242.6	46.8	-73.5	12.5
2026-01-20 08:22:17.199029	242.2	46.5	-73.8	11.8
2026-01-20 08:22:18.324732	241.8	46.3	-73.6	11.7
2026-01-20 08:22:19.450389	241.4	46.0	-73.9	11.7
2026-01-20 08:22:20.575784	241.0	45.7	-73.9	11.1
2026-01-20 08:22:21.701327	240.7	45.4	-73.7	11.8
2026-01-20 08:22:22.827285	240.3	45.2	-73.9	10.6
2026-01-20 08:22:23.952357	239.9	44.9	-73.8	10.7
2026-01-20 08:22:25.078543	239.6	44.6	-74.0	10.9
2026-01-20 08:22:26.206199	239.2	44.3	-74.1	11.6
2026-01-20 08:22:27.331657	238.9	44.1	-74.0	11.6
2026-01-20 08:22:28.458093	238.5	43.8	-74.1	12.0
2026-01-20 08:22:29.584562	238.2	43.5	-74.0	11.3
2026-01-20 08:22:30.710850	237.8	43.2	-73.8	12.4
2026-01-20 08:22:31.836546	237.5	43.0	-73.9	12.2
2026-01-20 08:22:32.963303	237.2	42.7	-73.8	11.6
2026-01-20 08:22:34.088486	236.9	42.4	-74.1	12.3
2026-01-20 08:22:35.214884	236.6	42.2	-74.0	10.8
2026-01-20 08:22:36.338661	236.3	41.9	-74.2	11.3
2026-01-20 08:22:37.463013	236.0	41.6	-74.1	12.0
2026-01-20 08:22:38.591155	235.7	41.4	-74.1	12.4
2026-01-20 08:22:39.715598	235.4	41.1	-74.2	11.7
2026-01-20 08:22:40.841863	235.1	40.8	-74.3	12.4
2026-01-20 08:22:41.967077	234.8	40.6	-73.9	11.7
2026-01-20 08:22:43.092109	234.6	40.3	-73.7	11.5
2026-01-20 08:22:44.220260	234.3	40.1	-73.7	12.8
2026-01-20 08:22:45.345029	234.0	39.8	-73.7	11.5
2026-01-20 08:22:46.470916	233.8	39.5	-74.0	11.9
2026-01-20 08:22:47.597518	233.5	39.3	-73.8	11.6
2026-01-20 08:22:48.724480	233.3	39.0	-74.0	12.1
2026-01-20 08:22:49.849958	233.0	38.8	-74.2	12.2
2026-01-20 08:22:50.976248	232.8	38.5	-74.0	12.0
2026-01-20 08:22:52.105402	232.5	38.3	-74.2	10.9
2026-01-20 08:22:53.231414	232.3	38.0	-74.3	11.8
2026-01-20 08:22:54.358090	232.0	37.8	-74.1	12.2
2026-01-20 08:22:55.483647	231.8	37.5	-74.1	11.2
2026-01-20 08:22:56.609184	231.6	37.3	-74.3	11.9
2026-01-20 08:22:57.734689	231.4	37.0	-74.3	11.7
2026-01-20 08:22:58.860162	231.1	36.8	-74.3	11.2
2026-01-20 08:22:59.986735	230.9	36.6	-74.4	12.1
2026-01-20 08:23:01.111210	230.7	36.3	-74.4	12.0
2026-01-20 08:23:02.237317	230.5	36.1	-74.3	11.0
2026-01-20 08:23:03.362593	230.3	35.8	-74.6	12.2
2026-01-20 08:23:04.487302	230.1	35.6	-74.5	11.3
2026-01-20 08:23:05.614059	229.9	35.4	-74.5	12.1
2026-01-20 08:23:06.740182	229.7	35.1	-74.4	11.7
2026-01-20 08:23:07.867223	229.5	34.9	-74.6	11.6
2026-01-20 08:23:08.992472	229.3	34.7	-73.9	11.6
2026-01-20 08:23:10.120126	229.1	34.4	-74.2	12.4
2026-01-20 08:23:11.245580	228.9	34.2	-74.0	12.0
2026-01-20 08:23:12.371635	228.7	34.0	-74.2	11.6
2026-01-20 08:23:13.496128	228.6	33.8	-74.0	12.0
2026-01-20 08:23:14.622561	228.4	33.5	-74.3	10.4
2026-01-20 08:23:15.749186	228.2	33.3	-74.3	10.8
2026-01-20 08:23:16.873664	228.0	33.1	-74.4	11.6
2026-01-20 08:23:18.004095	227.9	32.9	-74.1	11.0
2026-01-20 08:23:19.128578	227.7	32.7	-74.4	10.9
2026-01-20 08:23:20.255164	227.5	32.4	-74.5	11.4
2026-01-20 08:23:21.382750	227.3	32.2	-74.3	10.9
2026-01-20 08:23:22.508438	227.2	32.0	-74.6	11.0
2026-01-20 08:23:23.634112	227.0	31.8	-74.7	11.5
2026-01-20 08:23:24.761755	226.9	31.6	-74.5	11.1
2026-01-20 08:23:25.886300	226.7	31.4	-74.3	11.1
2026-01-20 08:23:27.011976	226.6	31.2	-74.3	8.6
2026-01-20 08:23:28.138353	226.4	31.0	-74.7	11.5
2026-01-20 08:23:29.267194	226.2	30.7	-74.4	11.8
2026-01-20 08:23:30.392684	226.1	30.5	-74.4	10.7
2026-01-20 08:23:31.519488	226.0	30.3	-74.5	10.8
2026-01-20 08:23:32.645569	225.8	30.1	-74.7	11.0
2026-01-20 08:23:33.770431	225.7	29.9	-74.2	10.3
2026-01-20 08:23:34.896118	225.5	29.7	-74.2	8.5
2026-01-20 08:23:36.021658	225.4	29.5	-74.0	7.9
2026-01-20 08:23:37.146400	225.2	29.3	-74.3	8.0
2026-01-20 08:23:38.272224	225.1	29.1	-74.1	8.4
2026-01-20 08:23:39.397449	225.0	28.9	-74.4	9.3
2026-01-20 08:23:40.522847	224.8	28.7	-74.5	9.8
2026-01-20 08:23:41.647345	224.7	28.5	-74.0	8.5
2026-01-20 08:23:42.774602	224.6	28.4	-74.3	7.8
2026-01-20 08:23:43.899776	224.5	28.2	-74.1	9.1
2026-01-20 08:23:45.025324	224.3	28.0	-74.5	8.2
2026-01-20 08:23:46.152029	224.2	27.8	-73.9	7.3
2026-01-20 08:23:47.279049	224.1	27.6	-74.4	8.6
2026-01-20 08:23:48.405601	224.0	27.4	-74.0	8.8
2026-01-20 08:23:49.531786	223.8	27.2	-73.9	6.4
2026-01-20 08:23:50.656869	223.7	27.0	-74.2	7.7
2026-01-20 08:23:51.784058	223.6	26.8	-74.4	6.8
2026-01-20 08:23:52.910576	223.5	26.7	-74.0	6.9
2026-01-20 08:23:54.037547	223.4	26.5	-73.9	7.3
2026-01-20 08:23:55.163970	223.3	26.3	-73.8	8.2
2026-01-20 08:23:56.288521	223.1	26.1	-74.0	7.6
2026-01-20 08:23:57.415198	223.0	25.9	-73.7	8.0
2026-01-20 08:23:58.541644	222.9	25.8	-73.7	7.1
2026-01-20 08:23:59.667885	222.8	25.6	-73.7	7.2
2026-01-20 08:24:00.793912	222.7	25.4	-73.8	7.0
2026-01-20 08:24:01.919808	222.6	25.2	-73.5	7.0
2026-01-20 08:24:03.044570	222.5	25.1	-73.7	5.8
2026-01-20 08:24:04.168411	222.4	24.9	-73.4	5.2
2026-01-20 08:24:05.294169	222.3	24.7	-73.7	4.9
2026-01-20 08:24:06.420747	222.2	24.6	-73.9	7.3
2026-01-20 08:24:07.545980	222.1	24.4	-73.4	6.2
2026-01-20 08:24:08.673465	222.0	24.2	-74.2	6.1
2026-01-20 08:24:09.804520	221.9	24.1	-73.7	5.7
2026-01-20 08:24:10.931358	221.8	23.9	-73.7	6.7
2026-01-20 08:24:12.057959	221.7	23.7	-73.7	5.6
2026-01-20 08:24:13.183987	221.6	23.6	-74.0	4.7
2026-01-20 08:24:14.310999	221.5	23.4	-73.9	6.9
2026-01-20 08:24:15.440696	221.4	23.2	-73.4	4.8
2026-01-20 08:24:16.566120	221.3	23.1	-73.7	5.4
2026-01-20 08:24:17.692614	221.2	22.9	-73.5	4.7
2026-01-20 08:24:18.819316	221.1	22.7	-73.3	5.2
2026-01-20 08:24:19.945317	221.1	22.6	-73.4	4.9
2026-01-20 08:24:21.072525	221.0	22.4	-73.0	5.1
2026-01-20 08:24:22.197446	220.9	22.3	-73.6	5.5
2026-01-20 08:24:23.322207	220.8	22.1	-73.3	5.4
2026-01-20 08:24:24.449141	220.7	22.0	-73.6	5.1
2026-01-20 08:24:25.573433	220.6	21.8	-73.2	4.9
2026-01-20 08:24:26.698000	220.5	21.7	-73.4	4.3
2026-01-20 08:24:27.823294	220.5	21.5	-73.1	5.2
2026-01-20 08:24:28.949539	220.4	21.4	-73.7	5.6
2026-01-20 08:24:30.075107	220.3	21.2	-73.4	3.4
2026-01-20 08:24:31.200221	220.2	21.1	-73.5	5.1
2026-01-20 08:24:32.326594	220.1	20.9	-73.6	5.1
2026-01-20 08:24:33.452431	220.1	20.8	-73.2	2.7
2026-01-20 08:24:34.582614	220.0	20.6	-73.3	3.5
2026-01-20 08:24:35.708615	219.9	20.5	-73.5	4.9
2026-01-20 08:24:36.835044	219.8	20.3	-73.5	5.1
2026-01-20 08:24:37.959596	219.7	20.2	-73.6	3.6
2026-01-20 08:24:39.085627	219.7	20.0	-73.3	3.0
2026-01-20 08:24:40.211099	219.6	19.9	-73.4	4.7
2026-01-20 08:24:41.337722	219.5	19.7	-73.3	3.3
2026-01-20 08:24:42.463908	219.4	19.6	-72.7	1.2
2026-01-20 08:24:43.588295	219.4	19.5	-73.2	2.0
2026-01-20 08:24:44.716096	219.3	19.3	-72.7	1.8
2026-01-20 08:24:45.842350	219.2	19.2	-72.2	0.0
2026-01-20 08:24:46.968343	219.2	19.0	-72.7	3.6
2026-01-20 08:24:48.094047	219.1	18.9	-72.9	2.5
2026-01-20 08:24:49.219121	219.0	18.8	-72.7	2.2
2026-01-20 08:24:50.345346	219.0	18.6	-72.4	2.3
2026-01-20 08:24:51.471742	218.9	18.5	-72.9	1.8
2026-01-20 08:24:52.600878	218.8	18.4	-72.6	2.1
2026-01-20 08:24:53.725133	218.8	18.2	-72.7	1.2
2026-01-20 08:24:54.850815	218.7	18.1	-72.4	1.0
2026-01-20 08:24:55.975650	218.6	18.0	-72.3	1.9
2026-01-20 08:24:57.101417	218.6	17.8	-72.5	2.8
2026-01-20 08:24:58.226473	218.5	17.7	-72.4	1.4
2026-01-20 08:24:59.352347	218.4	17.6	-72.8	1.6
2026-01-20 08:25:00.480134	218.4	17.4	-72.5	2.9
2026-01-20 08:25:01.604981	218.3	17.3	-72.3	0.1
2026-01-20 08:25:02.731562	218.2	17.2	-72.6	2.5
2026-01-20 08:25:03.857505	218.2	17.0	-72.8	1.9
2026-01-20 08:25:04.982062	218.1	16.9	-72.6	2.3
2026-01-20 08:25:06.107619	218.1	16.8	-72.0	0.1
2026-01-20 08:25:07.233391	218.0	16.7	-72.5	0.8
2026-01-20 08:25:08.359501	217.9	16.5	-72.2	0.4
2026-01-20 08:25:09.484803	217.9	16.4	-72.2	0.0
2026-01-20 08:25:10.611125	217.8	16.3	-72.2	0.0
2026-01-20 08:25:11.738118	217.8	16.2	-72.6	0.0
2026-01-20 08:25:12.863109	217.7	16.0	-72.9	0.0
2026-01-20 08:25:13.989634	217.7	15.9	-72.6	0.0
2026-01-20 08:25:15.116488	217.6	15.8	-72.9	1.1
2026-01-20 08:25:16.241624	217.5	15.7	-72.8	0.0
2026-01-20 08:25:17.368608	217.5	15.5	-72.5	0.0
2026-01-20 08:25:18.495069	217.4	15.4	-72.4	0.0
2026-01-20 08:25:19.622608	217.4	15.3	-71.9	0.0
2026-01-20 08:25:20.749842	217.3	15.2	-72.2	0.0
2026-01-20 08:25:21.875319	217.3	15.1	-72.5	2.3
2026-01-20 08:25:23.002985	217.2	14.9	-72.4	0.0
2026-01-20 08:25:24.129005	217.2	14.8	-72.2	0.0
2026-01-20 08:25:25.255386	217.1	14.7	-72.0	0.0
2026-01-20 08:25:26.384754	217.1	14.6	-71.8	0.0
2026-01-20 08:25:27.512562	217.0	14.5	-72.1	0.0
2026-01-20 08:25:28.639219	217.0	14.4	-71.5	0.0
2026-01-20 08:25:29.767320	216.9	14.2	-71.1	0.0
2026-01-20 08:25:30.894839	216.9	14.1	-72.1	0.0
2026-01-20 08:25:32.019302	216.8	14.0	-72.4	0.0
2026-01-20 08:25:33.145904	216.8	13.9	-71.8	0.0
2026-01-20 08:25:34.272325	216.7	13.8	-71.4	0.0
2026-01-20 08:25:35.400306	216.7	13.7	-72.3	0.0
2026-01-20 08:25:36.527415	216.6	13.6	-72.1	0.0
2026-01-20 08:25:37.654575	216.6	13.5	-71.6	0.0
2026-01-20 08:25:38.779553	216.5	13.3	-72.1	0.0
2026-01-20 08:25:39.906665	216.5	13.2	-71.5	0.0
2026-01-20 08:25:41.033443	216.4	13.1	-72.0	0.0
2026-01-20 08:25:42.160262	216.4	13.0	-72.0	0.0
2026-01-20 08:25:43.286942	216.3	12.9	-71.9	0.0
2026-01-20 08:25:44.415035	216.3	12.8	-71.9	0.0
2026-01-20 08:25:45.539746	216.3	12.7	-71.8	0.0
2026-01-20 08:25:46.664139	216.2	12.6	-71.2	0.0
2026-01-20 08:25:47.791455	216.2	12.5	-71.6	0.0
2026-01-20 08:25:48.918090	216.1	12.4	-71.1	0.0
2026-01-20 08:25:50.042902	216.1	12.3	-71.6	0.0
2026-01-20 08:25:51.169070	216.0	12.2	-71.6	0.0
2026-01-20 08:25:52.294203	216.0	12.0	-72.0	0.0
2026-01-20 08:25:53.419420	216.0	11.9	-72.2	0.0
2026-01-20 08:25:54.543716	215.9	11.8	-71.9	0.0
2026-01-20 08:25:55.668162	215.9	11.7	-71.6	0.0
2026-01-20 08:25:56.793022	215.8	11.6	-71.8	0.0
2026-01-20 08:25:57.918360	215.8	11.5	-72.2	0.0
2026-01-20 08:25:59.044426	215.7	11.4	-71.6	0.0
2026-01-20 08:26:00.169549	215.7	11.3	-72.3	0.0
2026-01-20 08:26:01.296099	215.7	11.2	-71.7	0.0
2026-01-20 08:26:02.423908	215.6	11.1	-72.0	0.0
2026-01-20 08:26:03.550520	215.6	11.0	-73.4	0.0
2026-01-20 08:26:04.675210	215.5	10.9	-73.3	0.0
2026-01-20 08:26:05.802260	215.5	10.8	-75.7	0.0
2026-01-20 08:26:06.929625	215.5	10.7	-77.3	0.0
2026-01-20 08:26:08.055110	215.4	10.6	-77.5	0.0
2026-01-20 08:26:09.181822	215.4	10.5	-77.3	0.0
2026-01-20 08:26:10.308665	215.4	10.4	-78.0	0.0
2026-01-20 08:26:11.434671	215.3	10.3	-78.9	0.0
2026-01-20 08:26:12.560606	215.3	10.2	-79.2	0.0
2026-01-20 08:26:13.687951	215.2	10.1	-78.7	0.0
2026-01-20 08:26:14.813532	215.2	10.0	-79.2	0.0
#Closed at: 2026-01-20 08:15:36.913928