passes_logs/2026/01/16/planumMaritime01/planumMaritime01__20260116_011603_METEOR-M2_4_rec.log

#Pass ID: 20260116_011603_METEOR-M2 4
#Satellite: METEOR-M2 4
#Configuration: METEOR-M2 4
#Start time: 2026-01-16 01:16:08.825255

#LorettStation: 1.0.0 05.05.2024
#Station: planumMaritime01
#Location: 37.49445 lon 55.92918 lat
#TLE: 1 59051U 24039A   26015.18854106 -.00000002  00000+0  18802-4 0  9990
#TLE: 2 59051  98.6812 336.5811 0005992 250.4853 109.5678 14.22407234 97512

#Time	Az	El	Level	SNR
2026-01-16 01:16:10.995905	14.4	10.2	-75.3	0.0
2026-01-16 01:16:12.120201	14.4	10.3	-74.7	0.0
2026-01-16 01:16:13.243435	14.4	10.4	-77.5	0.0
2026-01-16 01:16:14.368055	14.4	10.5	-77.2	0.0
2026-01-16 01:16:15.490405	14.4	10.6	-74.3	0.0
2026-01-16 01:16:16.614800	14.3	10.7	-73.2	0.0
2026-01-16 01:16:17.738627	14.3	10.8	-71.5	0.0
2026-01-16 01:16:18.861640	14.3	10.9	-73.3	0.0
2026-01-16 01:16:19.985327	14.3	11.0	-73.7	0.0
2026-01-16 01:16:21.110442	14.3	11.1	-71.0	0.0
2026-01-16 01:16:22.235743	14.3	11.2	-70.6	0.0
2026-01-16 01:16:23.358866	14.3	11.3	-71.9	0.0
2026-01-16 01:16:24.481656	14.3	11.4	-70.8	0.0
2026-01-16 01:16:25.606817	14.2	11.5	-72.1	0.0
2026-01-16 01:16:26.730096	14.2	11.6	-70.9	0.0
2026-01-16 01:16:27.857845	14.2	11.7	-73.2	0.0
2026-01-16 01:16:28.981950	14.2	11.8	-72.9	0.0
2026-01-16 01:16:30.106902	14.2	11.9	-73.6	0.0
2026-01-16 01:16:31.230046	14.2	12.0	-71.9	0.0
2026-01-16 01:16:32.352447	14.1	12.1	-74.0	0.0
2026-01-16 01:16:33.475149	14.1	12.2	-71.9	0.0
2026-01-16 01:16:34.597253	14.1	12.3	-73.0	0.0
2026-01-16 01:16:35.721292	14.1	12.4	-71.2	0.0
2026-01-16 01:16:36.845846	14.1	12.6	-74.4	0.0
2026-01-16 01:16:37.972175	14.1	12.7	-73.9	0.0
2026-01-16 01:16:39.099915	14.1	12.8	-73.2	0.0
2026-01-16 01:16:40.222764	14.0	12.9	-73.9	0.0
2026-01-16 01:16:41.345505	14.0	13.0	-74.1	0.0
2026-01-16 01:16:42.469200	14.0	13.1	-71.3	0.0
2026-01-16 01:16:43.592826	14.0	13.2	-72.8	0.0
2026-01-16 01:16:44.717346	14.0	13.3	-73.2	0.0
2026-01-16 01:16:45.841240	14.0	13.4	-71.1	0.0
2026-01-16 01:16:46.963691	13.9	13.5	-70.2	0.0
2026-01-16 01:16:48.087671	13.9	13.7	-70.9	0.0
2026-01-16 01:16:49.213706	13.9	13.8	-73.0	0.0
2026-01-16 01:16:50.339901	13.9	13.9	-71.0	0.0
2026-01-16 01:16:51.462746	13.9	14.0	-73.0	0.0
2026-01-16 01:16:52.589607	13.9	14.1	-71.6	0.0
2026-01-16 01:16:53.713825	13.8	14.2	-73.0	0.0
2026-01-16 01:16:54.837995	13.8	14.3	-72.0	0.0
2026-01-16 01:16:55.963254	13.8	14.5	-72.7	0.0
2026-01-16 01:16:57.086506	13.8	14.6	-71.3	0.0
2026-01-16 01:16:58.208550	13.8	14.7	-71.5	0.0
2026-01-16 01:16:59.333668	13.7	14.8	-73.5	0.0
2026-01-16 01:17:00.457930	13.7	14.9	-72.4	0.0
2026-01-16 01:17:01.582122	13.7	15.0	-73.3	0.0
2026-01-16 01:17:02.705713	13.7	15.2	-71.9	0.0
2026-01-16 01:17:03.827778	13.7	15.3	-68.1	0.0
2026-01-16 01:17:04.953015	13.6	15.4	-69.5	0.0
2026-01-16 01:17:06.078440	13.6	15.5	-70.2	0.0
2026-01-16 01:17:07.203544	13.6	15.7	-73.1	0.0
2026-01-16 01:17:08.326658	13.6	15.8	-71.6	0.0
2026-01-16 01:17:09.449373	13.6	15.9	-69.8	0.0
2026-01-16 01:17:10.575369	13.5	16.0	-74.2	0.0
2026-01-16 01:17:11.701551	13.5	16.2	-70.3	0.0
2026-01-16 01:17:12.825206	13.5	16.3	-75.1	0.0
2026-01-16 01:17:13.952879	13.5	16.4	-75.7	0.0
2026-01-16 01:17:15.076381	13.5	16.5	-73.1	0.0
2026-01-16 01:17:16.199942	13.4	16.7	-73.3	0.0
2026-01-16 01:17:17.323908	13.4	16.8	-73.8	0.0
2026-01-16 01:17:18.448384	13.4	16.9	-74.4	0.0
2026-01-16 01:17:19.574626	13.4	17.0	-73.4	0.0
2026-01-16 01:17:20.698490	13.3	17.2	-73.8	0.0
2026-01-16 01:17:21.822516	13.3	17.3	-73.1	0.0
2026-01-16 01:17:22.946060	13.3	17.4	-69.4	0.0
2026-01-16 01:17:24.070989	13.3	17.6	-73.3	0.0
2026-01-16 01:17:25.196464	13.2	17.7	-74.1	0.0
2026-01-16 01:17:26.320341	13.2	17.8	-73.7	0.0
2026-01-16 01:17:27.445250	13.2	18.0	-73.6	0.0
2026-01-16 01:17:28.568920	13.2	18.1	-73.5	0.0
2026-01-16 01:17:29.693570	13.1	18.2	-74.3	0.0
2026-01-16 01:17:30.817603	13.1	18.4	-74.1	0.0
2026-01-16 01:17:31.939862	13.1	18.5	-72.8	0.0
2026-01-16 01:17:33.065216	13.1	18.7	-74.6	0.0
2026-01-16 01:17:34.189231	13.0	18.8	-73.8	0.0
2026-01-16 01:17:35.313897	13.0	18.9	-73.6	0.0
2026-01-16 01:17:36.436500	13.0	19.1	-74.2	0.0
2026-01-16 01:17:37.560594	13.0	19.2	-73.4	0.0
2026-01-16 01:17:38.686698	12.9	19.4	-73.7	0.0
2026-01-16 01:17:39.809606	12.9	19.5	-71.8	0.0
2026-01-16 01:17:40.930455	12.9	19.6	-71.7	0.0
2026-01-16 01:17:42.053448	12.9	19.8	-72.8	0.0
2026-01-16 01:17:43.176718	12.8	19.9	-73.1	0.0
2026-01-16 01:17:44.300882	12.8	20.1	-73.2	0.0
2026-01-16 01:17:45.424525	12.8	20.2	-73.7	0.4
2026-01-16 01:17:46.548801	12.7	20.4	-72.8	0.0
2026-01-16 01:17:47.672792	12.7	20.5	-72.6	0.0
2026-01-16 01:17:48.793799	12.7	20.7	-73.0	0.0
2026-01-16 01:17:49.917688	12.6	20.8	-75.0	1.6
2026-01-16 01:17:51.041498	12.6	21.0	-73.7	0.0
2026-01-16 01:17:52.167559	12.6	21.1	-73.4	0.0
2026-01-16 01:17:53.290477	12.6	21.3	-72.7	0.0
2026-01-16 01:17:54.414769	12.5	21.4	-72.1	0.0
2026-01-16 01:17:55.537971	12.5	21.6	-73.5	0.0
2026-01-16 01:17:56.660671	12.5	21.7	-72.9	0.0
2026-01-16 01:17:57.784427	12.4	21.9	-74.3	0.0
2026-01-16 01:17:58.909689	12.4	22.1	-74.3	1.0
2026-01-16 01:18:00.033165	12.4	22.2	-74.9	0.0
2026-01-16 01:18:01.155654	12.3	22.4	-73.1	0.0
2026-01-16 01:18:02.280953	12.3	22.5	-73.0	0.0
2026-01-16 01:18:03.406609	12.3	22.7	-74.1	0.0
2026-01-16 01:18:04.529895	12.2	22.9	-72.7	2.3
2026-01-16 01:18:05.654299	12.2	23.0	-74.2	0.0
2026-01-16 01:18:06.778394	12.1	23.2	-73.7	0.0
2026-01-16 01:18:07.901453	12.1	23.4	-73.8	0.0
2026-01-16 01:18:09.025745	12.1	23.5	-75.0	0.2
2026-01-16 01:18:10.148518	12.0	23.7	-74.6	2.0
2026-01-16 01:18:11.274483	12.0	23.9	-74.6	0.0
2026-01-16 01:18:12.400983	12.0	24.0	-73.7	0.0
2026-01-16 01:18:13.523055	11.9	24.2	-73.9	0.8
2026-01-16 01:18:14.648371	11.9	24.4	-72.0	0.0
2026-01-16 01:18:15.771858	11.8	24.6	-73.1	0.0
2026-01-16 01:18:16.897589	11.8	24.7	-73.8	0.0
2026-01-16 01:18:18.021667	11.8	24.9	-73.2	0.0
2026-01-16 01:18:19.144719	11.7	25.1	-74.2	0.3
2026-01-16 01:18:20.268177	11.7	25.3	-73.7	0.0
2026-01-16 01:18:21.392415	11.6	25.4	-73.9	0.6
2026-01-16 01:18:22.517370	11.6	25.6	-72.5	0.0
2026-01-16 01:18:23.643629	11.6	25.8	-73.2	2.2
2026-01-16 01:18:24.767338	11.5	26.0	-72.3	0.0
2026-01-16 01:18:25.890462	11.5	26.2	-74.4	0.0
2026-01-16 01:18:27.014348	11.4	26.4	-74.3	3.0
2026-01-16 01:18:28.138652	11.4	26.5	-73.6	2.0
2026-01-16 01:18:29.262226	11.3	26.7	-73.5	1.7
2026-01-16 01:18:30.387414	11.3	26.9	-73.4	1.4
2026-01-16 01:18:31.510134	11.2	27.1	-74.4	2.3
2026-01-16 01:18:32.634360	11.2	27.3	-74.8	5.0
2026-01-16 01:18:33.759736	11.1	27.5	-74.4	3.5
2026-01-16 01:18:34.884356	11.1	27.7	-74.4	3.0
2026-01-16 01:18:36.009158	11.0	27.9	-75.3	3.5
2026-01-16 01:18:37.132011	11.0	28.1	-74.9	3.5
2026-01-16 01:18:38.257652	10.9	28.3	-75.5	3.9
2026-01-16 01:18:39.380579	10.9	28.5	-73.7	4.1
2026-01-16 01:18:40.504200	10.8	28.7	-75.0	3.4
2026-01-16 01:18:41.629041	10.8	28.9	-75.0	3.2
2026-01-16 01:18:42.753958	10.7	29.1	-74.6	0.9
2026-01-16 01:18:43.877213	10.7	29.3	-74.5	3.5
2026-01-16 01:18:44.999736	10.6	29.5	-75.8	5.6
2026-01-16 01:18:46.124374	10.6	29.7	-75.6	4.9
2026-01-16 01:18:47.247350	10.5	29.9	-76.1	5.0
2026-01-16 01:18:48.371743	10.4	30.2	-74.8	2.5
2026-01-16 01:18:49.498446	10.4	30.4	-74.3	2.6
2026-01-16 01:18:50.623774	10.3	30.6	-75.5	3.8
2026-01-16 01:18:51.745471	10.3	30.8	-75.1	2.7
2026-01-16 01:18:52.869549	10.2	31.0	-75.2	3.6
2026-01-16 01:18:53.994525	10.1	31.2	-75.4	4.5
2026-01-16 01:18:55.118166	10.1	31.5	-74.0	0.9
2026-01-16 01:18:56.242716	10.0	31.7	-74.6	2.8
2026-01-16 01:18:57.367184	9.9	31.9	-75.0	5.7
2026-01-16 01:18:58.492238	9.9	32.1	-74.6	1.7
2026-01-16 01:18:59.613840	9.8	32.4	-74.2	2.2
2026-01-16 01:19:00.737963	9.7	32.6	-75.2	5.6
2026-01-16 01:19:01.863737	9.7	32.8	-75.8	2.3
2026-01-16 01:19:02.988503	9.6	33.1	-75.3	2.4
2026-01-16 01:19:04.112378	9.5	33.3	-75.6	8.4
2026-01-16 01:19:05.237306	9.5	33.6	-75.2	6.5
2026-01-16 01:19:06.359957	9.4	33.8	-75.4	5.7
2026-01-16 01:19:07.485754	9.3	34.0	-73.8	1.3
2026-01-16 01:19:08.610285	9.2	34.3	-75.5	6.6
2026-01-16 01:19:09.733704	9.1	34.5	-75.3	7.1
2026-01-16 01:19:10.858200	9.1	34.8	-74.8	4.4
2026-01-16 01:19:11.983801	9.0	35.0	-74.7	4.1
2026-01-16 01:19:13.111455	8.9	35.3	-74.1	4.0
2026-01-16 01:19:14.235677	8.8	35.5	-75.0	4.6
2026-01-16 01:19:15.361928	8.7	35.8	-75.4	6.9
2026-01-16 01:19:16.485450	8.7	36.0	-75.2	3.6
2026-01-16 01:19:17.608328	8.6	36.3	-75.7	3.8
2026-01-16 01:19:18.731940	8.5	36.6	-75.4	5.2
2026-01-16 01:19:19.855957	8.4	36.8	-76.5	7.7
2026-01-16 01:19:20.981470	8.3	37.1	-75.9	7.9
2026-01-16 01:19:22.106838	8.2	37.4	-76.5	8.0
2026-01-16 01:19:23.229477	8.1	37.6	-76.7	8.1
2026-01-16 01:19:24.353787	8.0	37.9	-75.9	9.1
2026-01-16 01:19:25.480524	7.9	38.2	-75.8	7.7
2026-01-16 01:19:26.606164	7.8	38.5	-75.6	6.2
2026-01-16 01:19:27.730045	7.7	38.7	-76.3	8.7
2026-01-16 01:19:28.853568	7.6	39.0	-76.4	7.5
2026-01-16 01:19:29.979381	7.5	39.3	-76.2	7.9
2026-01-16 01:19:31.103257	7.4	39.6	-76.0	7.8
2026-01-16 01:19:32.228450	7.3	39.9	-76.2	8.2
2026-01-16 01:19:33.353533	7.2	40.2	-76.8	9.8
2026-01-16 01:19:34.476857	7.1	40.5	-76.7	9.4
2026-01-16 01:19:35.601625	7.0	40.7	-76.9	6.3
2026-01-16 01:19:36.726781	6.8	41.0	-76.8	9.0
2026-01-16 01:19:37.850565	6.7	41.3	-76.5	9.5
2026-01-16 01:19:38.974640	6.6	41.6	-76.6	8.7
2026-01-16 01:19:40.097340	6.5	41.9	-76.4	6.5
2026-01-16 01:19:41.221897	6.3	42.3	-76.9	8.2
2026-01-16 01:19:42.347308	6.2	42.6	-77.5	10.2
2026-01-16 01:19:43.472394	6.1	42.9	-77.8	10.4
2026-01-16 01:19:44.596575	5.9	43.2	-76.8	7.2
2026-01-16 01:19:45.720101	5.8	43.5	-77.1	6.6
2026-01-16 01:19:46.843724	5.7	43.8	-76.8	6.8
2026-01-16 01:19:47.967574	5.5	44.1	-77.2	9.0
2026-01-16 01:19:49.090505	5.4	44.5	-77.1	7.0
2026-01-16 01:19:50.218597	5.2	44.8	-78.2	9.4
2026-01-16 01:19:51.343028	5.1	45.1	-77.7	8.3
2026-01-16 01:19:52.466990	4.9	45.4	-78.0	9.8
2026-01-16 01:19:53.591128	4.8	45.8	-78.1	8.7
2026-01-16 01:19:54.715757	4.6	46.1	-78.2	8.6
2026-01-16 01:19:55.841022	4.4	46.5	-78.9	10.5
2026-01-16 01:19:56.964783	4.3	46.8	-78.3	9.4
2026-01-16 01:19:58.088594	4.1	47.1	-78.7	10.8
2026-01-16 01:19:59.214089	3.9	47.5	-79.1	11.0
2026-01-16 01:20:00.337937	3.7	47.8	-78.6	7.2
2026-01-16 01:20:01.461743	3.5	48.2	-78.7	10.4
2026-01-16 01:20:02.587610	3.3	48.5	-79.2	10.9
2026-01-16 01:20:03.709049	3.2	48.9	-78.6	9.5
2026-01-16 01:20:04.833376	3.0	49.2	-79.3	11.2
2026-01-16 01:20:05.957404	2.7	49.6	-79.3	10.1
2026-01-16 01:20:07.080216	2.5	50.0	-78.6	7.8
2026-01-16 01:20:08.204176	2.3	50.3	-78.9	9.6
2026-01-16 01:20:09.331075	2.1	50.7	-78.9	8.9
2026-01-16 01:20:10.453352	1.9	51.1	-79.1	10.3
2026-01-16 01:20:11.577274	1.6	51.4	-79.2	7.4
2026-01-16 01:20:12.701787	1.4	51.8	-79.5	6.0
2026-01-16 01:20:13.827809	1.2	52.2	-79.8	9.9
2026-01-16 01:20:14.951477	0.9	52.6	-79.6	9.3
2026-01-16 01:20:16.075709	0.7	53.0	-79.8	10.0
2026-01-16 01:20:17.199120	0.4	53.4	-80.3	10.4
2026-01-16 01:20:18.322970	0.1	53.7	-80.3	8.8
2026-01-16 01:20:19.449035	359.8	54.1	-80.2	9.7
2026-01-16 01:20:20.575688	359.6	54.5	-79.8	9.1
2026-01-16 01:20:21.699568	359.3	54.9	-79.0	8.9
2026-01-16 01:20:22.826004	359.0	55.3	-80.0	8.4
2026-01-16 01:20:23.949822	358.6	55.7	-80.2	8.1
2026-01-16 01:20:25.072369	358.3	56.1	-79.9	7.9
2026-01-16 01:20:26.198154	358.0	56.5	-80.4	9.1
2026-01-16 01:20:27.323401	357.7	56.9	-80.7	9.2
2026-01-16 01:20:28.449655	357.3	57.3	-79.7	8.2
2026-01-16 01:20:29.571723	356.9	57.7	-80.3	7.4
2026-01-16 01:20:30.696206	356.6	58.2	-79.8	6.4
2026-01-16 01:20:31.820395	356.2	58.6	-79.9	8.8
2026-01-16 01:20:32.944298	355.8	59.0	-80.1	9.5
2026-01-16 01:20:34.069167	355.4	59.4	-80.2	9.0
2026-01-16 01:20:35.193619	355.0	59.8	-79.7	9.0
2026-01-16 01:20:36.317209	354.5	60.2	-80.1	7.5
2026-01-16 01:20:37.442339	354.1	60.6	-80.0	9.0
2026-01-16 01:20:38.569029	353.6	61.1	-80.5	7.3
2026-01-16 01:20:39.694274	353.1	61.5	-79.6	8.0
2026-01-16 01:20:40.818250	352.6	61.9	-79.4	6.7
2026-01-16 01:20:41.944082	352.1	62.3	-80.6	10.1
2026-01-16 01:20:43.070624	351.6	62.8	-79.9	7.1
2026-01-16 01:20:44.194510	351.0	63.2	-80.2	9.3
2026-01-16 01:20:45.318424	350.4	63.6	-80.2	8.5
2026-01-16 01:20:46.441541	349.8	64.0	-80.3	8.8
2026-01-16 01:20:47.565363	349.2	64.5	-80.7	8.5
2026-01-16 01:20:48.689199	348.6	64.9	-80.5	6.6
2026-01-16 01:20:49.813636	347.9	65.3	-80.8	8.9
2026-01-16 01:20:50.939908	347.2	65.7	-80.1	6.0
2026-01-16 01:20:52.064341	346.5	66.1	-80.4	7.6
2026-01-16 01:20:53.189512	345.7	66.6	-80.9	8.1
2026-01-16 01:20:54.314106	344.9	67.0	-81.1	7.3
2026-01-16 01:20:55.439422	344.1	67.4	-81.6	7.2
2026-01-16 01:20:56.562001	343.3	67.8	-81.0	7.9
2026-01-16 01:20:57.688133	342.4	68.2	-79.8	6.9
2026-01-16 01:20:58.812329	341.5	68.6	-80.0	8.4
2026-01-16 01:20:59.936983	340.5	69.0	-80.7	6.0
2026-01-16 01:21:01.060100	339.5	69.4	-80.4	7.7
2026-01-16 01:21:02.185061	338.5	69.8	-80.5	9.0
2026-01-16 01:21:03.310447	337.4	70.2	-79.7	7.8
2026-01-16 01:21:04.435541	336.3	70.6	-80.3	8.3
2026-01-16 01:21:05.558764	335.1	71.0	-79.4	6.4
2026-01-16 01:21:06.685473	333.8	71.4	-79.4	9.8
2026-01-16 01:21:07.811546	332.6	71.7	-79.6	8.4
2026-01-16 01:21:08.933513	331.2	72.1	-79.7	9.9
2026-01-16 01:21:10.058950	329.8	72.4	-79.7	9.7
2026-01-16 01:21:11.183407	328.4	72.8	-79.3	8.4
2026-01-16 01:21:12.305312	326.8	73.1	-79.9	9.8
2026-01-16 01:21:13.429446	325.3	73.4	-79.9	11.4
2026-01-16 01:21:14.552306	323.6	73.7	-79.5	11.0
2026-01-16 01:21:15.678414	321.9	74.0	-78.6	6.1
2026-01-16 01:21:16.802268	320.1	74.3	-79.7	11.4
2026-01-16 01:21:17.927879	318.3	74.6	-78.1	8.7
2026-01-16 01:21:19.053082	316.4	74.8	-79.9	10.2
2026-01-16 01:21:20.179300	314.4	75.1	-79.6	10.2
2026-01-16 01:21:21.303675	312.3	75.3	-79.6	11.1
2026-01-16 01:21:22.427276	310.2	75.5	-79.9	11.9
2026-01-16 01:21:23.554480	308.1	75.7	-79.8	11.2
2026-01-16 01:21:24.677292	305.9	75.8	-80.0	10.7
2026-01-16 01:21:25.806471	303.6	76.0	-80.0	9.8
2026-01-16 01:21:26.930771	301.3	76.1	-79.7	10.2
2026-01-16 01:21:28.055665	298.9	76.2	-80.1	10.9
2026-01-16 01:21:29.178953	296.6	76.3	-79.8	11.0
2026-01-16 01:21:30.303036	294.2	76.3	-79.7	10.8
2026-01-16 01:21:31.427381	291.8	76.3	-80.2	11.2
2026-01-16 01:21:32.551158	289.4	76.3	-80.6	10.7
2026-01-16 01:21:33.676856	286.9	76.3	-80.3	10.2
2026-01-16 01:21:34.801767	284.5	76.3	-80.2	10.5
2026-01-16 01:21:35.927056	282.1	76.2	-80.4	10.9
2026-01-16 01:21:37.052641	279.8	76.1	-79.8	9.8
2026-01-16 01:21:38.176164	277.5	76.0	-79.8	10.4
2026-01-16 01:21:39.301982	275.2	75.9	-79.6	10.6
2026-01-16 01:21:40.427565	273.0	75.7	-79.9	11.3
2026-01-16 01:21:41.552363	270.8	75.6	-79.6	11.3
2026-01-16 01:21:42.676983	268.7	75.4	-79.5	11.5
2026-01-16 01:21:43.800713	266.6	75.1	-79.7	11.6
2026-01-16 01:21:44.924608	264.6	74.9	-79.5	10.8
2026-01-16 01:21:46.047140	262.7	74.7	-80.0	10.8
2026-01-16 01:21:47.173762	260.8	74.4	-80.1	10.0
2026-01-16 01:21:48.298476	259.0	74.1	-80.2	9.8
2026-01-16 01:21:49.422789	257.3	73.8	-80.2	9.5
2026-01-16 01:21:50.547018	255.6	73.5	-80.5	9.9
2026-01-16 01:21:51.673747	254.0	73.2	-80.3	9.9
2026-01-16 01:21:52.799743	252.5	72.9	-80.5	8.9
2026-01-16 01:21:53.921779	251.0	72.5	-80.9	9.2
2026-01-16 01:21:55.047300	249.6	72.2	-80.8	9.3
2026-01-16 01:21:56.171751	248.2	71.8	-80.4	9.1
2026-01-16 01:21:57.295987	246.9	71.5	-80.2	10.1
2026-01-16 01:21:58.421114	245.6	71.1	-79.7	10.4
2026-01-16 01:21:59.545835	244.4	70.7	-79.7	10.3
2026-01-16 01:22:00.672109	243.3	70.3	-79.6	10.4
2026-01-16 01:22:01.797039	242.2	69.9	-79.9	10.7
2026-01-16 01:22:02.920420	241.1	69.6	-79.9	10.3
2026-01-16 01:22:04.043780	240.1	69.2	-80.2	10.0
2026-01-16 01:22:05.167483	239.2	68.7	-79.7	9.8
2026-01-16 01:22:06.292828	238.2	68.3	-80.1	8.9
2026-01-16 01:22:07.417883	237.3	67.9	-80.1	9.3
2026-01-16 01:22:08.543557	236.5	67.5	-80.3	9.1
2026-01-16 01:22:09.665896	235.6	67.1	-80.3	7.8
2026-01-16 01:22:10.791492	234.9	66.7	-80.4	8.9
2026-01-16 01:22:11.914746	234.1	66.3	-80.6	7.9
2026-01-16 01:22:13.038555	233.4	65.8	-80.7	8.4
2026-01-16 01:22:14.166933	232.7	65.4	-80.4	8.1
2026-01-16 01:22:15.290246	232.0	65.0	-80.3	7.7
2026-01-16 01:22:16.414222	231.3	64.6	-80.3	8.4
2026-01-16 01:22:17.537567	230.7	64.1	-80.6	7.9
2026-01-16 01:22:18.661989	230.1	63.7	-80.5	7.6
2026-01-16 01:22:19.788606	229.5	63.3	-80.3	8.3
2026-01-16 01:22:20.911604	228.9	62.9	-80.2	8.4
2026-01-16 01:22:22.035357	228.4	62.4	-80.2	8.5
2026-01-16 01:22:23.161618	227.9	62.0	-79.8	9.1
2026-01-16 01:22:24.285432	227.4	61.6	-79.9	9.0
2026-01-16 01:22:25.408567	226.9	61.2	-80.1	9.2
2026-01-16 01:22:26.532468	226.4	60.7	-80.2	8.9
2026-01-16 01:22:27.656880	226.0	60.3	-80.3	8.4
2026-01-16 01:22:28.781418	225.5	59.9	-80.4	8.8
2026-01-16 01:22:29.906342	225.1	59.5	-80.3	9.0
2026-01-16 01:22:31.031796	224.7	59.1	-80.1	8.6
2026-01-16 01:22:32.155352	224.3	58.6	-80.2	9.9
2026-01-16 01:22:33.278565	223.9	58.2	-80.6	8.9
2026-01-16 01:22:34.403991	223.5	57.8	-80.5	8.8
2026-01-16 01:22:35.528532	223.1	57.4	-80.6	9.3
2026-01-16 01:22:36.651802	222.8	57.0	-80.7	8.3
2026-01-16 01:22:37.777993	222.4	56.6	-80.6	7.7
2026-01-16 01:22:38.899996	222.1	56.2	-80.5	9.0
2026-01-16 01:22:40.022885	221.8	55.8	-80.5	8.9
2026-01-16 01:22:41.146967	221.5	55.4	-80.6	9.1
2026-01-16 01:22:42.270898	221.2	55.0	-80.7	9.7
2026-01-16 01:22:43.394608	220.9	54.6	-80.7	9.2
2026-01-16 01:22:44.517282	220.6	54.2	-80.7	9.5
2026-01-16 01:22:45.640192	220.3	53.8	-80.6	9.3
2026-01-16 01:22:46.765713	220.0	53.4	-80.6	9.5
2026-01-16 01:22:47.888531	219.7	53.0	-80.9	9.1
2026-01-16 01:22:49.012647	219.5	52.6	-80.9	9.4
2026-01-16 01:22:50.136242	219.2	52.2	-80.7	10.1
2026-01-16 01:22:51.263325	219.0	51.9	-81.1	9.4
2026-01-16 01:22:52.389704	218.7	51.5	-81.2	9.1
2026-01-16 01:22:53.514854	218.5	51.1	-81.0	9.8
2026-01-16 01:22:54.637012	218.3	50.7	-81.1	10.7
2026-01-16 01:22:55.758926	218.1	50.4	-80.8	10.5
2026-01-16 01:22:56.883438	217.8	50.0	-80.9	10.2
2026-01-16 01:22:58.006909	217.6	49.6	-80.7	10.3
2026-01-16 01:22:59.131723	217.4	49.3	-81.0	9.7
2026-01-16 01:23:00.255848	217.2	48.9	-80.8	10.5
2026-01-16 01:23:01.380615	217.0	48.5	-80.8	9.7
2026-01-16 01:23:02.507467	216.8	48.2	-80.8	10.7
2026-01-16 01:23:03.629897	216.7	47.8	-80.5	10.6
2026-01-16 01:23:04.753807	216.5	47.5	-80.5	11.2
2026-01-16 01:23:05.879323	216.3	47.1	-80.3	11.4
2026-01-16 01:23:07.002885	216.1	46.8	-80.3	11.2
2026-01-16 01:23:08.126037	215.9	46.5	-80.1	11.5
2026-01-16 01:23:09.251582	215.8	46.1	-80.1	11.0
2026-01-16 01:23:10.377250	215.6	45.8	-80.4	10.8
2026-01-16 01:23:11.501533	215.4	45.4	-80.2	11.0
2026-01-16 01:23:12.625287	215.3	45.1	-80.0	10.9
2026-01-16 01:23:13.751212	215.1	44.8	-80.4	11.1
2026-01-16 01:23:14.873311	215.0	44.4	-80.3	11.3
2026-01-16 01:23:16.000272	214.8	44.1	-80.0	10.8
2026-01-16 01:23:17.122037	214.7	43.8	-79.9	11.3
2026-01-16 01:23:18.246069	214.6	43.5	-79.9	11.3
2026-01-16 01:23:19.369634	214.4	43.2	-79.6	11.5
2026-01-16 01:23:20.492719	214.3	42.8	-79.6	11.4
2026-01-16 01:23:21.616516	214.1	42.5	-79.2	11.1
2026-01-16 01:23:22.740010	214.0	42.2	-79.5	10.7
2026-01-16 01:23:23.864313	213.9	41.9	-79.5	11.4
2026-01-16 01:23:24.987015	213.8	41.6	-79.3	11.0
2026-01-16 01:23:26.111727	213.6	41.3	-79.2	11.1
2026-01-16 01:23:27.235782	213.5	41.0	-79.4	10.9
2026-01-16 01:23:28.358666	213.4	40.7	-79.4	10.6
2026-01-16 01:23:29.484046	213.3	40.4	-79.2	10.8
2026-01-16 01:23:30.607185	213.2	40.1	-79.1	10.9
2026-01-16 01:23:31.731746	213.1	39.8	-79.1	10.7
2026-01-16 01:23:32.854010	212.9	39.5	-79.0	10.6
2026-01-16 01:23:33.978323	212.8	39.2	-79.1	10.3
2026-01-16 01:23:35.105438	212.7	39.0	-78.9	10.8
2026-01-16 01:23:36.226901	212.6	38.7	-78.9	11.3
2026-01-16 01:23:37.351841	212.5	38.4	-78.5	10.9
2026-01-16 01:23:38.477746	212.4	38.1	-78.6	10.4
2026-01-16 01:23:39.601580	212.3	37.8	-78.6	10.9
2026-01-16 01:23:40.723415	212.2	37.6	-78.5	11.2
2026-01-16 01:23:41.846357	212.1	37.3	-78.5	10.7
2026-01-16 01:23:42.968869	212.0	37.0	-78.5	10.2
2026-01-16 01:23:44.093652	211.9	36.8	-78.3	10.6
2026-01-16 01:23:45.217224	211.9	36.5	-78.4	10.3
2026-01-16 01:23:46.341283	211.8	36.2	-78.6	9.9
2026-01-16 01:23:47.467206	211.7	36.0	-78.4	9.7
2026-01-16 01:23:48.591831	211.6	35.7	-78.4	10.6
2026-01-16 01:23:49.717265	211.5	35.5	-78.5	10.1
2026-01-16 01:23:50.839470	211.4	35.2	-78.3	10.7
2026-01-16 01:23:51.963612	211.3	34.9	-78.3	10.4
2026-01-16 01:23:53.087073	211.3	34.7	-78.3	9.4
2026-01-16 01:23:54.211758	211.2	34.4	-78.1	9.7
2026-01-16 01:23:55.334649	211.1	34.2	-78.4	10.4
2026-01-16 01:23:56.458804	211.0	34.0	-78.3	10.5
2026-01-16 01:23:57.583299	210.9	33.7	-78.3	10.7
2026-01-16 01:23:58.705790	210.9	33.5	-78.4	9.0
2026-01-16 01:23:59.830506	210.8	33.2	-78.0	9.1
2026-01-16 01:24:00.956197	210.7	33.0	-78.0	9.6
2026-01-16 01:24:02.077621	210.7	32.8	-78.2	8.8
2026-01-16 01:24:03.200452	210.6	32.5	-78.0	10.1
2026-01-16 01:24:04.323560	210.5	32.3	-78.1	10.6
2026-01-16 01:24:05.448049	210.4	32.1	-78.1	9.6
2026-01-16 01:24:06.570110	210.4	31.8	-77.9	10.4
2026-01-16 01:24:07.696771	210.3	31.6	-77.9	10.5
2026-01-16 01:24:08.822220	210.2	31.4	-78.0	8.8
2026-01-16 01:24:09.946206	210.2	31.1	-77.9	8.6
2026-01-16 01:24:11.068926	210.1	30.9	-77.8	8.5
2026-01-16 01:24:12.193825	210.1	30.7	-78.2	9.8
2026-01-16 01:24:13.317716	210.0	30.5	-78.5	9.1
2026-01-16 01:24:14.443157	209.9	30.3	-78.1	10.4
2026-01-16 01:24:15.567920	209.9	30.1	-77.8	9.0
2026-01-16 01:24:16.692322	209.8	29.8	-78.1	9.9
2026-01-16 01:24:17.816615	209.8	29.6	-77.7	9.0
2026-01-16 01:24:18.938501	209.7	29.4	-77.5	8.2
2026-01-16 01:24:20.064015	209.6	29.2	-77.8	8.4
2026-01-16 01:24:21.188416	209.6	29.0	-78.0	6.9
2026-01-16 01:24:22.312579	209.5	28.8	-77.7	10.7
2026-01-16 01:24:23.437261	209.5	28.6	-77.7	8.0
2026-01-16 01:24:24.561593	209.4	28.4	-77.5	9.6
2026-01-16 01:24:25.683418	209.4	28.2	-78.3	10.9
2026-01-16 01:24:26.806557	209.3	28.0	-78.1	9.8
2026-01-16 01:24:27.932779	209.3	27.8	-77.7	10.1
2026-01-16 01:24:29.058418	209.2	27.6	-77.7	7.1
2026-01-16 01:24:30.182125	209.2	27.4	-77.9	5.5
2026-01-16 01:24:31.305367	209.1	27.2	-78.2	9.2
2026-01-16 01:24:32.430123	209.1	27.0	-78.0	8.4
2026-01-16 01:24:33.555007	209.0	26.8	-77.9	8.2
2026-01-16 01:24:34.681518	209.0	26.6	-78.0	9.7
2026-01-16 01:24:35.807516	208.9	26.4	-77.6	6.7
2026-01-16 01:24:36.933679	208.9	26.2	-77.9	8.2
2026-01-16 01:24:38.058595	208.8	26.0	-77.4	7.8
2026-01-16 01:24:39.182372	208.8	25.9	-77.6	7.8
2026-01-16 01:24:40.306862	208.7	25.7	-77.6	6.1
2026-01-16 01:24:41.433312	208.7	25.5	-78.2	7.7
2026-01-16 01:24:42.557343	208.6	25.3	-77.8	9.6
2026-01-16 01:24:43.680222	208.6	25.1	-77.5	5.2
2026-01-16 01:24:44.804846	208.6	24.9	-77.7	5.6
2026-01-16 01:24:45.929654	208.5	24.8	-77.7	7.1
2026-01-16 01:24:47.053598	208.5	24.6	-77.8	6.1
2026-01-16 01:24:48.177164	208.4	24.4	-77.7	6.2
2026-01-16 01:24:49.299226	208.4	24.2	-77.6	7.1
2026-01-16 01:24:50.424468	208.4	24.1	-77.6	8.1
2026-01-16 01:24:51.549415	208.3	23.9	-77.7	5.2
2026-01-16 01:24:52.673329	208.3	23.7	-78.1	8.7
2026-01-16 01:24:53.799360	208.2	23.5	-77.9	8.0
2026-01-16 01:24:54.922774	208.2	23.4	-77.8	8.8
2026-01-16 01:24:56.047553	208.2	23.2	-77.9	8.3
2026-01-16 01:24:57.171076	208.1	23.0	-77.8	8.5
2026-01-16 01:24:58.297316	208.1	22.9	-77.5	6.3
2026-01-16 01:24:59.422464	208.1	22.7	-77.9	6.4
2026-01-16 01:25:00.546163	208.0	22.5	-77.7	7.1
2026-01-16 01:25:01.670964	208.0	22.4	-77.9	7.8
2026-01-16 01:25:02.795858	207.9	22.2	-77.7	7.1
2026-01-16 01:25:03.919189	207.9	22.1	-78.1	6.8
2026-01-16 01:25:05.042200	207.9	21.9	-77.6	7.2
2026-01-16 01:25:06.165226	207.8	21.7	-77.6	4.7
2026-01-16 01:25:07.289645	207.8	21.6	-77.9	7.3
2026-01-16 01:25:08.414725	207.8	21.4	-77.7	4.6
2026-01-16 01:25:09.537950	207.7	21.3	-77.7	8.2
2026-01-16 01:25:10.665348	207.7	21.1	-77.5	7.0
2026-01-16 01:25:11.788990	207.7	21.0	-77.8	6.4
2026-01-16 01:25:12.913205	207.6	20.8	-77.6	7.6
2026-01-16 01:25:14.035729	207.6	20.7	-77.7	7.2
2026-01-16 01:25:15.160346	207.6	20.5	-77.6	6.3
2026-01-16 01:25:16.285191	207.6	20.4	-77.6	3.5
2026-01-16 01:25:17.408962	207.5	20.2	-77.7	4.1
2026-01-16 01:25:18.535440	207.5	20.1	-77.6	6.5
2026-01-16 01:25:19.658137	207.5	19.9	-77.4	7.2
2026-01-16 01:25:20.781434	207.4	19.8	-77.6	5.5
2026-01-16 01:25:21.905175	207.4	19.6	-77.2	4.9
2026-01-16 01:25:23.026954	207.4	19.5	-77.8	8.3
2026-01-16 01:25:24.149015	207.3	19.3	-77.8	4.2
2026-01-16 01:25:25.272090	207.3	19.2	-77.7	7.2
2026-01-16 01:25:26.397202	207.3	19.0	-77.4	3.5
2026-01-16 01:25:27.522807	207.3	18.9	-77.4	6.7
2026-01-16 01:25:28.648169	207.2	18.8	-77.8	5.4
2026-01-16 01:25:29.772202	207.2	18.6	-78.2	8.2
2026-01-16 01:25:30.896353	207.2	18.5	-77.8	8.2
2026-01-16 01:25:32.021106	207.2	18.3	-78.6	10.2
2026-01-16 01:25:33.144300	207.1	18.2	-79.1	9.6
2026-01-16 01:25:34.268405	207.1	18.1	-78.6	7.3
2026-01-16 01:25:35.395404	207.1	17.9	-78.5	9.8
2026-01-16 01:25:36.518523	207.0	17.8	-78.9	6.0
2026-01-16 01:25:37.642156	207.0	17.7	-78.3	4.4
2026-01-16 01:25:38.765025	207.0	17.5	-78.5	8.5
2026-01-16 01:25:39.887460	207.0	17.4	-78.2	5.2
2026-01-16 01:25:41.010734	206.9	17.2	-78.6	5.1
2026-01-16 01:25:42.132322	206.9	17.1	-78.2	4.6
2026-01-16 01:25:43.258708	206.9	17.0	-78.4	4.0
2026-01-16 01:25:44.384534	206.9	16.9	-78.4	3.4
2026-01-16 01:25:45.507184	206.8	16.7	-79.2	3.9
2026-01-16 01:25:46.632374	206.8	16.6	-79.5	5.9
2026-01-16 01:25:47.756558	206.8	16.5	-78.8	8.1
2026-01-16 01:25:48.878974	206.8	16.3	-79.0	5.7
2026-01-16 01:25:50.003257	206.8	16.2	-78.8	6.0
2026-01-16 01:25:51.127625	206.7	16.1	-79.1	8.2
2026-01-16 01:25:52.251228	206.7	16.0	-78.6	5.8
2026-01-16 01:25:53.375542	206.7	15.8	-78.9	6.8
2026-01-16 01:25:54.499176	206.7	15.7	-79.2	4.3
2026-01-16 01:25:55.621724	206.6	15.6	-79.3	7.7
2026-01-16 01:25:56.746685	206.6	15.5	-78.9	5.4
2026-01-16 01:25:57.869133	206.6	15.3	-79.2	6.0
2026-01-16 01:25:58.991979	206.6	15.2	-78.9	6.3
2026-01-16 01:26:00.116201	206.6	15.1	-79.1	5.2
2026-01-16 01:26:01.238446	206.5	15.0	-78.8	2.7
2026-01-16 01:26:02.363762	206.5	14.9	-78.5	8.1
2026-01-16 01:26:03.488505	206.5	14.7	-78.9	9.6
2026-01-16 01:26:04.612102	206.5	14.6	-78.0	5.5
2026-01-16 01:26:05.735076	206.5	14.5	-78.5	5.6
2026-01-16 01:26:06.859815	206.4	14.4	-79.2	8.5
2026-01-16 01:26:07.986508	206.4	14.3	-78.4	8.6
2026-01-16 01:26:09.111899	206.4	14.1	-79.3	4.7
2026-01-16 01:26:10.235027	206.4	14.0	-78.6	4.4
2026-01-16 01:26:11.359633	206.4	13.9	-78.8	6.2
2026-01-16 01:26:12.483998	206.3	13.8	-79.2	6.6
2026-01-16 01:26:13.608145	206.3	13.7	-79.4	4.2
2026-01-16 01:26:14.733229	206.3	13.6	-79.2	5.8
2026-01-16 01:26:15.856843	206.3	13.5	-79.3	5.6
2026-01-16 01:26:16.980694	206.3	13.3	-79.3	7.6
2026-01-16 01:26:18.107256	206.3	13.2	-79.2	4.7
2026-01-16 01:26:19.230145	206.2	13.1	-78.6	3.3
2026-01-16 01:26:20.354551	206.2	13.0	-79.0	5.6
2026-01-16 01:26:21.479118	206.2	12.9	-78.9	7.4
2026-01-16 01:26:22.602005	206.2	12.8	-78.9	6.8
2026-01-16 01:26:23.728597	206.2	12.7	-79.2	5.4
2026-01-16 01:26:24.853597	206.1	12.6	-78.9	6.2
2026-01-16 01:26:25.978683	206.1	12.5	-79.4	6.2
2026-01-16 01:26:27.103016	206.1	12.3	-78.6	6.2
2026-01-16 01:26:28.226922	206.1	12.2	-79.1	6.0
2026-01-16 01:26:29.351748	206.1	12.1	-79.3	7.1
2026-01-16 01:26:30.478444	206.1	12.0	-79.1	4.4
2026-01-16 01:26:31.602731	206.0	11.9	-79.6	4.0
2026-01-16 01:26:32.726187	206.0	11.8	-78.9	4.7
2026-01-16 01:26:33.852435	206.0	11.7	-79.9	8.1
2026-01-16 01:26:34.977645	206.0	11.6	-78.5	3.9
2026-01-16 01:26:36.100011	206.0	11.5	-79.3	2.3
2026-01-16 01:26:37.222740	206.0	11.4	-79.8	8.2
2026-01-16 01:26:38.347479	206.0	11.3	-79.3	6.4
2026-01-16 01:26:39.471761	205.9	11.2	-79.4	6.9
2026-01-16 01:26:40.593992	205.9	11.1	-79.4	3.1
2026-01-16 01:26:41.718633	205.9	11.0	-79.0	2.5
2026-01-16 01:26:42.840188	205.9	10.9	-79.5	6.6
2026-01-16 01:26:43.965485	205.9	10.8	-81.2	3.5
2026-01-16 01:26:45.089550	205.9	10.7	-83.8	0.5
2026-01-16 01:26:46.214031	205.8	10.6	-85.5	0.0
2026-01-16 01:26:47.336919	205.8	10.5	-85.9	0.0
2026-01-16 01:26:48.462668	205.8	10.4	-85.2	0.2
2026-01-16 01:26:49.586444	205.8	10.3	-85.7	0.0
2026-01-16 01:26:50.708280	205.8	10.2	-85.7	0.0
2026-01-16 01:26:51.831077	205.8	10.1	-85.4	0.0
#Closed at: 2026-01-16 01:16:03.832260