passes_logs/2026/01/16/planumMaritime01/planumMaritime01__20260116_110531_METEOR-M2_4_rec.log

#Pass ID: 20260116_110531_METEOR-M2 4
#Satellite: METEOR-M2 4
#Configuration: METEOR-M2 4
#Start time: 2026-01-16 11:05:36.825412

#LorettStation: 1.0.0 05.05.2024
#Station: planumMaritime01
#Location: 37.49445 lon 55.92918 lat
#TLE: 1 59051U 24039A   26015.18854106 -.00000002  00000+0  18802-4 0  9990
#TLE: 2 59051  98.6812 336.5811 0005992 250.4853 109.5678 14.22407234 97512

#Time	Az	El	Level	SNR
2026-01-16 11:05:38.986291	152.4	10.2	-82.1	0.0
2026-01-16 11:05:40.111564	152.4	10.3	-81.4	0.0
2026-01-16 11:05:41.237042	152.4	10.4	-80.2	0.0
2026-01-16 11:05:42.361416	152.4	10.5	-78.6	0.0
2026-01-16 11:05:43.486725	152.4	10.6	-78.9	0.0
2026-01-16 11:05:44.611997	152.3	10.7	-78.5	2.4
2026-01-16 11:05:45.736824	152.3	10.8	-74.5	0.0
2026-01-16 11:05:46.863454	152.3	10.9	-77.8	4.8
2026-01-16 11:05:47.987495	152.3	11.0	-77.3	5.1
2026-01-16 11:05:49.110812	152.3	11.1	-78.0	5.8
2026-01-16 11:05:50.235594	152.2	11.2	-78.2	7.4
2026-01-16 11:05:51.357159	152.2	11.3	-78.1	7.1
2026-01-16 11:05:52.481620	152.2	11.4	-78.0	5.4
2026-01-16 11:05:53.605753	152.2	11.5	-77.6	6.7
2026-01-16 11:05:54.731390	152.2	11.6	-77.9	5.7
2026-01-16 11:05:55.854361	152.1	11.7	-78.1	6.4
2026-01-16 11:05:56.975898	152.1	11.8	-76.9	4.8
2026-01-16 11:05:58.100014	152.1	11.9	-76.9	4.1
2026-01-16 11:05:59.226045	152.1	12.0	-75.9	3.5
2026-01-16 11:06:00.350258	152.0	12.1	-77.7	6.1
2026-01-16 11:06:01.473480	152.0	12.3	-78.0	6.5
2026-01-16 11:06:02.598052	152.0	12.4	-77.5	6.4
2026-01-16 11:06:03.723928	152.0	12.5	-77.9	5.8
2026-01-16 11:06:04.846182	152.0	12.6	-77.4	6.9
2026-01-16 11:06:05.970048	151.9	12.7	-77.3	6.0
2026-01-16 11:06:07.093394	151.9	12.8	-78.0	7.0
2026-01-16 11:06:08.217736	151.9	12.9	-78.0	5.3
2026-01-16 11:06:09.344934	151.9	13.0	-77.6	6.2
2026-01-16 11:06:10.471997	151.8	13.1	-77.1	3.9
2026-01-16 11:06:11.595355	151.8	13.2	-77.8	6.6
2026-01-16 11:06:12.719611	151.8	13.4	-77.8	5.4
2026-01-16 11:06:13.842196	151.8	13.5	-77.9	6.5
2026-01-16 11:06:14.968403	151.8	13.6	-77.5	3.0
2026-01-16 11:06:16.091799	151.7	13.7	-77.7	7.4
2026-01-16 11:06:17.217164	151.7	13.8	-76.8	6.3
2026-01-16 11:06:18.342067	151.7	13.9	-76.7	7.8
2026-01-16 11:06:19.467739	151.7	14.0	-75.4	5.1
2026-01-16 11:06:20.591167	151.6	14.2	-77.3	7.2
2026-01-16 11:06:21.715704	151.6	14.3	-77.0	7.3
2026-01-16 11:06:22.841049	151.6	14.4	-76.8	6.0
2026-01-16 11:06:23.965859	151.6	14.5	-76.5	1.8
2026-01-16 11:06:25.092355	151.5	14.6	-77.7	7.6
2026-01-16 11:06:26.216237	151.5	14.7	-76.0	5.1
2026-01-16 11:06:27.339828	151.5	14.9	-75.9	5.7
2026-01-16 11:06:28.464600	151.5	15.0	-76.4	4.2
2026-01-16 11:06:29.589122	151.4	15.1	-76.0	5.7
2026-01-16 11:06:30.713946	151.4	15.2	-75.1	3.6
2026-01-16 11:06:31.839108	151.4	15.3	-76.7	3.7
2026-01-16 11:06:32.963381	151.3	15.5	-76.3	4.8
2026-01-16 11:06:34.088043	151.3	15.6	-76.6	3.7
2026-01-16 11:06:35.213808	151.3	15.7	-76.7	6.4
2026-01-16 11:06:36.339759	151.3	15.8	-76.6	6.6
2026-01-16 11:06:37.461963	151.2	16.0	-76.5	4.4
2026-01-16 11:06:38.590059	151.2	16.1	-76.7	7.6
2026-01-16 11:06:39.713650	151.2	16.2	-76.7	7.6
2026-01-16 11:06:40.837628	151.1	16.3	-77.2	7.5
2026-01-16 11:06:41.961542	151.1	16.5	-77.2	7.3
2026-01-16 11:06:43.085218	151.1	16.6	-77.0	7.0
2026-01-16 11:06:44.209031	151.1	16.7	-76.7	6.0
2026-01-16 11:06:45.333100	151.0	16.9	-76.2	3.8
2026-01-16 11:06:46.457134	151.0	17.0	-76.9	7.1
2026-01-16 11:06:47.580104	151.0	17.1	-76.5	5.9
2026-01-16 11:06:48.705668	150.9	17.2	-76.9	6.7
2026-01-16 11:06:49.828927	150.9	17.4	-77.2	8.5
2026-01-16 11:06:50.953889	150.9	17.5	-77.6	8.3
2026-01-16 11:06:52.077623	150.8	17.6	-76.1	4.9
2026-01-16 11:06:53.201383	150.8	17.8	-76.6	5.6
2026-01-16 11:06:54.326051	150.8	17.9	-75.4	3.9
2026-01-16 11:06:55.452922	150.7	18.0	-74.3	1.8
2026-01-16 11:06:56.577957	150.7	18.2	-77.1	7.7
2026-01-16 11:06:57.701540	150.7	18.3	-77.4	7.5
2026-01-16 11:06:58.824916	150.6	18.5	-76.9	7.1
2026-01-16 11:06:59.949953	150.6	18.6	-75.6	4.1
2026-01-16 11:07:01.073852	150.6	18.7	-76.8	7.2
2026-01-16 11:07:02.200185	150.5	18.9	-77.4	8.8
2026-01-16 11:07:03.324770	150.5	19.0	-77.3	8.4
2026-01-16 11:07:04.450246	150.5	19.2	-77.8	9.8
2026-01-16 11:07:05.575716	150.4	19.3	-76.2	6.8
2026-01-16 11:07:06.701976	150.4	19.4	-76.6	6.4
2026-01-16 11:07:07.823909	150.3	19.6	-76.5	6.1
2026-01-16 11:07:08.949877	150.3	19.7	-76.5	6.9
2026-01-16 11:07:10.073535	150.3	19.9	-77.6	8.8
2026-01-16 11:07:11.198964	150.2	20.0	-76.9	8.0
2026-01-16 11:07:12.324803	150.2	20.2	-77.1	8.9
2026-01-16 11:07:13.450446	150.2	20.3	-77.5	9.5
2026-01-16 11:07:14.575642	150.1	20.5	-77.4	8.8
2026-01-16 11:07:15.699068	150.1	20.6	-77.3	8.4
2026-01-16 11:07:16.823394	150.0	20.8	-77.5	8.7
2026-01-16 11:07:17.947782	150.0	20.9	-77.4	9.4
2026-01-16 11:07:19.072395	150.0	21.1	-77.0	7.0
2026-01-16 11:07:20.195805	149.9	21.2	-76.7	7.0
2026-01-16 11:07:21.318833	149.9	21.4	-77.0	7.5
2026-01-16 11:07:22.443701	149.8	21.6	-76.5	7.5
2026-01-16 11:07:23.568330	149.8	21.7	-76.8	7.0
2026-01-16 11:07:24.693896	149.7	21.9	-76.5	7.3
2026-01-16 11:07:25.819369	149.7	22.0	-76.6	8.5
2026-01-16 11:07:26.946830	149.7	22.2	-76.3	8.2
2026-01-16 11:07:28.070015	149.6	22.3	-76.8	9.6
2026-01-16 11:07:29.195342	149.6	22.5	-76.7	8.5
2026-01-16 11:07:30.317268	149.5	22.7	-77.1	9.5
2026-01-16 11:07:31.439965	149.5	22.8	-77.4	9.6
2026-01-16 11:07:32.561065	149.4	23.0	-77.1	8.6
2026-01-16 11:07:33.685772	149.4	23.2	-76.8	8.4
2026-01-16 11:07:34.808750	149.3	23.3	-77.1	9.0
2026-01-16 11:07:35.934326	149.3	23.5	-77.3	9.0
2026-01-16 11:07:37.057559	149.2	23.7	-76.7	8.1
2026-01-16 11:07:38.181714	149.2	23.8	-76.5	8.7
2026-01-16 11:07:39.302809	149.1	24.0	-77.0	8.3
2026-01-16 11:07:40.428240	149.1	24.2	-77.3	9.1
2026-01-16 11:07:41.552257	149.0	24.4	-77.2	9.2
2026-01-16 11:07:42.678115	149.0	24.5	-76.4	6.9
2026-01-16 11:07:43.803209	148.9	24.7	-76.9	8.3
2026-01-16 11:07:44.929219	148.9	24.9	-76.5	6.8
2026-01-16 11:07:46.053949	148.8	25.1	-77.0	9.5
2026-01-16 11:07:47.177148	148.8	25.2	-76.6	7.8
2026-01-16 11:07:48.300224	148.7	25.4	-76.9	7.6
2026-01-16 11:07:49.425721	148.7	25.6	-77.2	9.0
2026-01-16 11:07:50.553998	148.6	25.8	-77.2	8.5
2026-01-16 11:07:51.676174	148.5	26.0	-76.9	8.7
2026-01-16 11:07:52.799805	148.5	26.2	-77.0	9.6
2026-01-16 11:07:53.925891	148.4	26.3	-76.9	9.6
2026-01-16 11:07:55.048217	148.4	26.5	-77.0	9.7
2026-01-16 11:07:56.171792	148.3	26.7	-77.4	10.5
2026-01-16 11:07:57.297059	148.2	26.9	-77.2	10.4
2026-01-16 11:07:58.420513	148.2	27.1	-77.3	10.4
2026-01-16 11:07:59.545234	148.1	27.3	-76.9	9.0
2026-01-16 11:08:00.669020	148.1	27.5	-77.1	10.0
2026-01-16 11:08:01.794113	148.0	27.7	-76.7	9.1
2026-01-16 11:08:02.919097	147.9	27.9	-77.2	10.6
2026-01-16 11:08:04.044320	147.9	28.1	-77.3	10.1
2026-01-16 11:08:05.168964	147.8	28.3	-77.5	10.0
2026-01-16 11:08:06.294886	147.7	28.5	-77.5	9.7
2026-01-16 11:08:07.418520	147.7	28.7	-77.6	9.1
2026-01-16 11:08:08.542928	147.6	28.9	-77.5	9.5
2026-01-16 11:08:09.669897	147.5	29.1	-77.4	8.6
2026-01-16 11:08:10.793666	147.4	29.3	-77.6	9.1
2026-01-16 11:08:11.917925	147.4	29.5	-77.7	9.3
2026-01-16 11:08:13.042082	147.3	29.7	-77.7	8.7
2026-01-16 11:08:14.167615	147.2	29.9	-77.5	8.9
2026-01-16 11:08:15.290166	147.2	30.1	-78.0	9.7
2026-01-16 11:08:16.415250	147.1	30.4	-77.9	8.4
2026-01-16 11:08:17.538030	147.0	30.6	-78.1	9.1
2026-01-16 11:08:18.665432	146.9	30.8	-77.8	9.4
2026-01-16 11:08:19.789430	146.8	31.0	-77.4	8.3
2026-01-16 11:08:20.913515	146.8	31.2	-77.2	8.1
2026-01-16 11:08:22.038941	146.7	31.5	-77.3	9.7
2026-01-16 11:08:23.163106	146.6	31.7	-77.6	9.6
2026-01-16 11:08:24.288360	146.5	31.9	-77.1	8.9
2026-01-16 11:08:25.414853	146.4	32.1	-77.5	8.6
2026-01-16 11:08:26.540634	146.3	32.4	-77.0	9.7
2026-01-16 11:08:27.663966	146.3	32.6	-77.4	9.9
2026-01-16 11:08:28.790060	146.2	32.8	-77.2	8.9
2026-01-16 11:08:29.913754	146.1	33.1	-77.4	9.6
2026-01-16 11:08:31.036883	146.0	33.3	-77.0	9.4
2026-01-16 11:08:32.163499	145.9	33.5	-77.3	9.3
2026-01-16 11:08:33.288033	145.8	33.8	-76.8	8.7
2026-01-16 11:08:34.413044	145.7	34.0	-77.2	9.5
2026-01-16 11:08:35.537173	145.6	34.3	-77.3	9.2
2026-01-16 11:08:36.661401	145.5	34.5	-77.2	9.3
2026-01-16 11:08:37.785193	145.4	34.8	-77.9	10.0
2026-01-16 11:08:38.909543	145.3	35.0	-77.7	10.2
2026-01-16 11:08:40.035146	145.2	35.3	-77.4	8.9
2026-01-16 11:08:41.161871	145.1	35.5	-77.7	10.6
2026-01-16 11:08:42.287684	145.0	35.8	-77.7	10.0
2026-01-16 11:08:43.413023	144.9	36.0	-77.4	9.0
2026-01-16 11:08:44.537709	144.8	36.3	-77.8	10.8
2026-01-16 11:08:45.662787	144.6	36.5	-77.9	10.4
2026-01-16 11:08:46.787972	144.5	36.8	-77.3	10.0
2026-01-16 11:08:47.910700	144.4	37.1	-77.1	9.3
2026-01-16 11:08:49.034760	144.3	37.3	-77.4	9.7
2026-01-16 11:08:50.157826	144.2	37.6	-77.3	8.5
2026-01-16 11:08:51.283846	144.1	37.9	-77.3	9.4
2026-01-16 11:08:52.407448	143.9	38.1	-77.5	10.4
2026-01-16 11:08:53.532740	143.8	38.4	-77.4	8.2
2026-01-16 11:08:54.658030	143.7	38.7	-77.3	9.0
2026-01-16 11:08:55.780322	143.5	39.0	-77.7	9.3
2026-01-16 11:08:56.905345	143.4	39.2	-77.3	8.5
2026-01-16 11:08:58.027384	143.3	39.5	-77.4	8.2
2026-01-16 11:08:59.150147	143.1	39.8	-77.4	8.9
2026-01-16 11:09:00.274695	143.0	40.1	-77.0	9.2
2026-01-16 11:09:01.399053	142.9	40.4	-76.8	8.6
2026-01-16 11:09:02.522688	142.7	40.7	-76.9	8.0
2026-01-16 11:09:03.645224	142.6	41.0	-77.1	8.8
2026-01-16 11:09:04.772528	142.4	41.3	-77.2	8.7
2026-01-16 11:09:05.898153	142.3	41.6	-76.8	8.8
2026-01-16 11:09:07.021965	142.1	41.9	-77.7	10.2
2026-01-16 11:09:08.147256	141.9	42.2	-77.2	9.3
2026-01-16 11:09:09.272106	141.8	42.5	-77.5	8.5
2026-01-16 11:09:10.398051	141.6	42.8	-77.7	8.6
2026-01-16 11:09:11.522252	141.4	43.1	-77.7	10.3
2026-01-16 11:09:12.649568	141.3	43.4	-77.7	9.2
2026-01-16 11:09:13.774572	141.1	43.7	-77.5	8.5
2026-01-16 11:09:14.898745	140.9	44.0	-77.4	6.3
2026-01-16 11:09:16.023215	140.7	44.3	-77.6	7.9
2026-01-16 11:09:17.148746	140.5	44.7	-77.6	7.7
2026-01-16 11:09:18.272420	140.3	45.0	-77.5	6.8
2026-01-16 11:09:19.397419	140.1	45.3	-78.0	7.8
2026-01-16 11:09:20.520770	139.9	45.6	-78.2	8.3
2026-01-16 11:09:21.645310	139.7	46.0	-78.5	7.8
2026-01-16 11:09:22.770879	139.5	46.3	-78.0	7.3
2026-01-16 11:09:23.895235	139.3	46.6	-78.4	6.0
2026-01-16 11:09:25.020258	139.1	47.0	-77.8	5.7
2026-01-16 11:09:26.145433	138.9	47.3	-77.9	6.2
2026-01-16 11:09:27.270066	138.7	47.6	-78.0	5.6
2026-01-16 11:09:28.393530	138.4	48.0	-78.0	4.9
2026-01-16 11:09:29.517018	138.2	48.3	-78.0	5.0
2026-01-16 11:09:30.643605	137.9	48.7	-79.4	6.8
2026-01-16 11:09:31.767424	137.7	49.0	-78.6	5.3
2026-01-16 11:09:32.889353	137.4	49.4	-78.7	3.8
2026-01-16 11:09:34.015218	137.2	49.7	-78.4	5.7
2026-01-16 11:09:35.139478	136.9	50.1	-79.1	4.1
2026-01-16 11:09:36.263755	136.6	50.4	-78.3	3.4
2026-01-16 11:09:37.388094	136.4	50.8	-78.7	3.6
2026-01-16 11:09:38.513518	136.1	51.2	-78.8	4.0
2026-01-16 11:09:39.638639	135.8	51.5	-79.2	5.1
2026-01-16 11:09:40.762133	135.5	51.9	-79.6	5.2
2026-01-16 11:09:41.887088	135.2	52.3	-78.9	5.1
2026-01-16 11:09:43.012664	134.8	52.6	-78.9	5.1
2026-01-16 11:09:44.135144	134.5	53.0	-79.2	6.9
2026-01-16 11:09:45.258128	134.2	53.4	-78.3	5.3
2026-01-16 11:09:46.382471	133.8	53.8	-79.4	6.3
2026-01-16 11:09:47.507642	133.5	54.1	-78.8	5.0
2026-01-16 11:09:48.631987	133.1	54.5	-78.0	3.8
2026-01-16 11:09:49.756212	132.8	54.9	-79.3	5.5
2026-01-16 11:09:50.881058	132.4	55.3	-79.0	6.5
2026-01-16 11:09:52.004765	132.0	55.7	-79.1	5.9
2026-01-16 11:09:53.129805	131.6	56.0	-78.9	6.9
2026-01-16 11:09:54.254166	131.2	56.4	-78.2	4.2
2026-01-16 11:09:55.378697	130.8	56.8	-78.2	4.9
2026-01-16 11:09:56.503028	130.3	57.2	-78.7	5.0
2026-01-16 11:09:57.626680	129.9	57.6	-78.8	4.7
2026-01-16 11:09:58.752653	129.4	58.0	-78.6	3.7
2026-01-16 11:09:59.876363	128.9	58.4	-78.6	3.1
2026-01-16 11:10:00.999728	128.4	58.8	-79.2	4.9
2026-01-16 11:10:02.124828	127.9	59.1	-79.1	2.4
2026-01-16 11:10:03.254442	127.4	59.5	-79.0	3.8
2026-01-16 11:10:04.378209	126.9	59.9	-79.0	2.7
2026-01-16 11:10:05.502380	126.3	60.3	-79.4	4.2
2026-01-16 11:10:06.624608	125.8	60.7	-79.3	3.7
2026-01-16 11:10:07.749086	125.2	61.1	-78.3	1.7
2026-01-16 11:10:08.871902	124.6	61.5	-78.2	1.7
2026-01-16 11:10:09.995488	123.9	61.9	-78.6	1.8
2026-01-16 11:10:11.119469	123.3	62.3	-78.3	3.3
2026-01-16 11:10:12.244508	122.6	62.7	-78.6	2.9
2026-01-16 11:10:13.370318	121.9	63.0	-79.0	3.2
2026-01-16 11:10:14.494183	121.2	63.4	-79.1	5.0
2026-01-16 11:10:15.618146	120.5	63.8	-76.6	0.0
2026-01-16 11:10:16.741855	119.7	64.2	-77.6	2.1
2026-01-16 11:10:17.865740	118.9	64.6	-77.8	2.4
2026-01-16 11:10:18.990545	118.1	65.0	-78.4	5.6
2026-01-16 11:10:20.115410	117.3	65.3	-78.0	4.0
2026-01-16 11:10:21.239706	116.4	65.7	-78.0	5.4
2026-01-16 11:10:22.363776	115.5	66.1	-78.1	5.2
2026-01-16 11:10:23.488600	114.6	66.4	-77.0	1.7
2026-01-16 11:10:24.613829	113.6	66.8	-77.5	4.3
2026-01-16 11:10:25.738255	112.6	67.1	-78.1	4.5
2026-01-16 11:10:26.861564	111.6	67.5	-77.6	4.0
2026-01-16 11:10:27.983962	110.5	67.8	-77.3	3.5
2026-01-16 11:10:29.112735	109.4	68.2	-76.7	3.5
2026-01-16 11:10:30.237647	108.3	68.5	-77.1	3.1
2026-01-16 11:10:31.362625	107.1	68.8	-76.5	0.9
2026-01-16 11:10:32.487440	105.9	69.2	-78.3	3.9
2026-01-16 11:10:33.611942	104.6	69.5	-76.2	0.0
2026-01-16 11:10:34.736178	103.3	69.8	-76.5	0.3
2026-01-16 11:10:35.860384	102.0	70.1	-75.4	0.0
2026-01-16 11:10:36.985516	100.6	70.3	-74.8	0.0
2026-01-16 11:10:38.108897	99.2	70.6	-74.5	0.0
2026-01-16 11:10:39.233544	97.7	70.9	-75.1	1.6
2026-01-16 11:10:40.359002	96.2	71.1	-77.1	4.5
2026-01-16 11:10:41.484623	94.6	71.4	-75.4	3.1
2026-01-16 11:10:42.607540	93.0	71.6	-75.6	3.0
2026-01-16 11:10:43.732224	91.4	71.8	-74.7	0.0
2026-01-16 11:10:44.855235	89.7	72.0	-75.7	2.7
2026-01-16 11:10:45.980933	88.0	72.2	-76.5	3.7
2026-01-16 11:10:47.106485	86.3	72.3	-75.5	2.6
2026-01-16 11:10:48.231774	84.5	72.5	-76.5	3.5
2026-01-16 11:10:49.355659	82.7	72.6	-76.1	3.2
2026-01-16 11:10:50.479584	80.9	72.7	-77.3	3.3
2026-01-16 11:10:51.604264	79.0	72.8	-75.2	0.0
2026-01-16 11:10:52.728066	77.1	72.9	-76.4	2.4
2026-01-16 11:10:53.852805	75.2	73.0	-77.1	2.0
2026-01-16 11:10:54.979047	73.3	73.0	-77.3	5.0
2026-01-16 11:10:56.101730	71.4	73.1	-77.8	4.2
2026-01-16 11:10:57.224382	69.5	73.1	-76.3	3.0
2026-01-16 11:10:58.348255	67.5	73.1	-76.1	1.7
2026-01-16 11:10:59.473747	65.6	73.0	-75.8	2.5
2026-01-16 11:11:00.597254	63.7	73.0	-75.8	2.8
2026-01-16 11:11:01.721795	61.8	72.9	-77.1	4.9
2026-01-16 11:11:02.847348	59.9	72.9	-77.1	5.4
2026-01-16 11:11:03.969615	58.0	72.8	-76.6	3.7
2026-01-16 11:11:05.093928	56.2	72.7	-76.8	3.8
2026-01-16 11:11:06.217036	54.4	72.5	-77.1	3.7
2026-01-16 11:11:07.340406	52.6	72.4	-75.8	3.4
2026-01-16 11:11:08.464749	50.8	72.2	-76.2	0.8
2026-01-16 11:11:09.588742	49.1	72.0	-76.8	0.0
2026-01-16 11:11:10.714078	47.4	71.8	-75.4	0.0
2026-01-16 11:11:11.840137	45.8	71.6	-75.3	0.0
2026-01-16 11:11:12.965176	44.2	71.4	-75.7	0.0
2026-01-16 11:11:14.088006	42.6	71.2	-77.7	0.0
2026-01-16 11:11:15.212839	41.1	70.9	-76.8	0.0
2026-01-16 11:11:16.336096	39.6	70.7	-77.2	0.5
2026-01-16 11:11:17.459630	38.2	70.4	-76.1	0.0
2026-01-16 11:11:18.582400	36.8	70.1	-75.7	0.0
2026-01-16 11:11:19.711969	35.5	69.9	-76.2	0.0
2026-01-16 11:11:20.836903	34.1	69.6	-76.0	0.8
2026-01-16 11:11:21.963019	32.9	69.2	-76.8	4.8
2026-01-16 11:11:23.085441	31.6	68.9	-75.6	1.1
2026-01-16 11:11:24.209709	30.5	68.6	-77.0	3.7
2026-01-16 11:11:25.332653	29.3	68.3	-76.2	2.5
2026-01-16 11:11:26.458147	28.2	67.9	-76.0	0.1
2026-01-16 11:11:27.581541	27.1	67.6	-76.5	0.9
2026-01-16 11:11:28.706456	26.1	67.3	-76.2	0.6
2026-01-16 11:11:29.829840	25.1	66.9	-76.9	1.1
2026-01-16 11:11:30.956217	24.1	66.5	-76.7	0.0
2026-01-16 11:11:32.080625	23.2	66.2	-77.1	1.9
2026-01-16 11:11:33.203659	22.3	65.8	-76.3	0.0
2026-01-16 11:11:34.326734	21.4	65.5	-76.4	0.0
2026-01-16 11:11:35.451702	20.5	65.1	-75.5	0.0
2026-01-16 11:11:36.573890	19.7	64.7	-76.8	0.0
2026-01-16 11:11:37.697672	18.9	64.3	-77.2	3.8
2026-01-16 11:11:38.821868	18.1	63.9	-76.5	2.1
2026-01-16 11:11:39.945580	17.4	63.6	-77.0	2.9
2026-01-16 11:11:41.070848	16.7	63.2	-76.6	1.5
2026-01-16 11:11:42.196124	16.0	62.8	-76.2	1.7
2026-01-16 11:11:43.318089	15.3	62.4	-76.9	0.7
2026-01-16 11:11:44.441260	14.7	62.0	-76.6	1.1
2026-01-16 11:11:45.565524	14.0	61.6	-77.1	2.1
2026-01-16 11:11:46.689275	13.4	61.2	-77.5	5.8
2026-01-16 11:11:47.815748	12.8	60.8	-78.1	5.1
2026-01-16 11:11:48.939315	12.3	60.5	-76.7	1.6
2026-01-16 11:11:50.062850	11.7	60.1	-77.9	3.9
2026-01-16 11:11:51.187298	11.2	59.7	-76.8	3.0
2026-01-16 11:11:52.311495	10.6	59.3	-77.0	3.3
2026-01-16 11:11:53.435345	10.1	58.9	-77.9	3.2
2026-01-16 11:11:54.560921	9.6	58.5	-79.1	4.9
2026-01-16 11:11:55.687988	9.1	58.1	-78.3	3.9
2026-01-16 11:11:56.810729	8.7	57.7	-78.5	4.3
2026-01-16 11:11:57.935736	8.2	57.3	-77.2	2.4
2026-01-16 11:11:59.060568	7.8	57.0	-76.5	2.8
2026-01-16 11:12:00.184189	7.4	56.6	-76.9	0.0
2026-01-16 11:12:01.308456	6.9	56.2	-78.3	3.0
2026-01-16 11:12:02.431379	6.5	55.8	-77.7	2.3
2026-01-16 11:12:03.555250	6.1	55.4	-77.1	4.1
2026-01-16 11:12:04.680945	5.8	55.0	-77.9	1.9
2026-01-16 11:12:05.805164	5.4	54.7	-77.0	1.0
2026-01-16 11:12:06.930688	5.0	54.3	-76.6	1.6
2026-01-16 11:12:08.053188	4.7	53.9	-76.2	0.3
2026-01-16 11:12:09.177542	4.3	53.5	-77.5	1.4
2026-01-16 11:12:10.301983	4.0	53.2	-79.0	5.3
2026-01-16 11:12:11.427433	3.7	52.8	-76.8	0.8
2026-01-16 11:12:12.550517	3.4	52.4	-77.9	3.1
2026-01-16 11:12:13.673122	3.0	52.1	-77.7	1.7
2026-01-16 11:12:14.794956	2.7	51.7	-77.3	0.0
2026-01-16 11:12:15.919787	2.4	51.3	-76.2	1.0
2026-01-16 11:12:17.043373	2.2	51.0	-77.7	4.0
2026-01-16 11:12:18.167715	1.9	50.6	-77.4	3.3
2026-01-16 11:12:19.291866	1.6	50.3	-76.5	0.6
2026-01-16 11:12:20.418143	1.3	49.9	-77.5	1.2
2026-01-16 11:12:21.542302	1.1	49.6	-76.3	1.6
2026-01-16 11:12:22.666909	0.8	49.2	-76.0	0.0
2026-01-16 11:12:23.793100	0.6	48.9	-75.0	0.0
2026-01-16 11:12:24.918040	0.3	48.5	-75.2	0.0
2026-01-16 11:12:26.042025	0.1	48.2	-76.2	2.1
2026-01-16 11:12:27.167559	359.8	47.8	-74.0	0.0
2026-01-16 11:12:28.290687	359.6	47.5	-73.2	0.0
2026-01-16 11:12:29.413797	359.4	47.1	-73.7	0.0
2026-01-16 11:12:30.538078	359.2	46.8	-74.0	1.3
2026-01-16 11:12:31.662950	359.0	46.5	-73.2	0.0
2026-01-16 11:12:32.787121	358.8	46.1	-73.9	0.0
2026-01-16 11:12:33.910486	358.5	45.8	-73.2	0.0
2026-01-16 11:12:35.032715	358.3	45.5	-72.6	0.0
2026-01-16 11:12:36.155945	358.2	45.2	-75.8	0.0
2026-01-16 11:12:37.281465	358.0	44.8	-74.0	0.0
2026-01-16 11:12:38.409005	357.8	44.5	-74.3	0.0
2026-01-16 11:12:39.531741	357.6	44.2	-73.1	0.0
2026-01-16 11:12:40.659281	357.4	43.9	-71.8	0.0
2026-01-16 11:12:41.781180	357.2	43.6	-73.6	0.0
2026-01-16 11:12:42.906224	357.1	43.3	-72.4	0.0
2026-01-16 11:12:44.030628	356.9	43.0	-74.1	0.0
2026-01-16 11:12:45.157316	356.7	42.7	-72.2	0.0
2026-01-16 11:12:46.282261	356.6	42.4	-72.6	0.0
2026-01-16 11:12:47.406082	356.4	42.1	-73.9	0.0
2026-01-16 11:12:48.528357	356.2	41.8	-71.3	0.0
2026-01-16 11:12:49.651479	356.1	41.5	-73.2	0.0
2026-01-16 11:12:50.775169	355.9	41.2	-73.4	0.0
2026-01-16 11:12:51.899578	355.8	40.9	-73.1	0.0
2026-01-16 11:12:53.022309	355.6	40.6	-72.8	0.0
2026-01-16 11:12:54.148004	355.5	40.3	-72.8	0.0
2026-01-16 11:12:55.271541	355.3	40.0	-70.7	0.0
2026-01-16 11:12:56.395374	355.2	39.7	-72.7	0.0
2026-01-16 11:12:57.522306	355.1	39.4	-71.1	0.0
2026-01-16 11:12:58.646852	354.9	39.2	-72.8	0.0
2026-01-16 11:12:59.769228	354.8	38.9	-72.7	0.0
2026-01-16 11:13:00.894913	354.7	38.6	-71.9	0.0
2026-01-16 11:13:02.017610	354.6	38.3	-72.5	0.0
2026-01-16 11:13:03.142336	354.4	38.1	-72.0	0.0
2026-01-16 11:13:04.270144	354.3	37.8	-72.7	0.0
2026-01-16 11:13:05.394953	354.2	37.5	-70.5	0.0
2026-01-16 11:13:06.520911	354.1	37.3	-72.1	0.0
2026-01-16 11:13:07.645066	353.9	37.0	-71.2	0.0
2026-01-16 11:13:08.767006	353.8	36.7	-71.0	0.0
2026-01-16 11:13:09.890592	353.7	36.5	-71.1	0.0
2026-01-16 11:13:11.015012	353.6	36.2	-70.5	0.0
2026-01-16 11:13:12.139409	353.5	36.0	-69.8	0.0
2026-01-16 11:13:13.264044	353.4	35.7	-71.1	0.0
2026-01-16 11:13:14.390097	353.3	35.4	-70.9	0.0
2026-01-16 11:13:15.513557	353.2	35.2	-66.9	0.0
2026-01-16 11:13:16.638044	353.1	35.0	-70.7	0.0
2026-01-16 11:13:17.760833	353.0	34.7	-70.5	0.0
2026-01-16 11:13:18.886895	352.9	34.5	-70.8	0.0
2026-01-16 11:13:20.010063	352.8	34.2	-70.3	0.0
2026-01-16 11:13:21.133682	352.7	34.0	-71.0	0.0
2026-01-16 11:13:22.257599	352.6	33.7	-70.6	0.0
2026-01-16 11:13:23.380571	352.5	33.5	-64.6	0.0
2026-01-16 11:13:24.506972	352.4	33.3	-71.0	0.0
2026-01-16 11:13:25.631762	352.3	33.0	-70.3	0.0
2026-01-16 11:13:26.758042	352.2	32.8	-70.6	0.0
2026-01-16 11:13:27.883554	352.1	32.6	-71.0	0.0
2026-01-16 11:13:29.008938	352.1	32.3	-72.3	0.0
2026-01-16 11:13:30.132403	352.0	32.1	-71.5	0.0
2026-01-16 11:13:31.256862	351.9	31.9	-70.4	0.0
2026-01-16 11:13:32.381855	351.8	31.7	-71.2	0.0
2026-01-16 11:13:33.505832	351.7	31.4	-71.3	0.0
2026-01-16 11:13:34.631643	351.6	31.2	-67.4	0.0
2026-01-16 11:13:35.755091	351.6	31.0	-69.6	0.0
2026-01-16 11:13:36.879856	351.5	30.8	-70.6	0.0
2026-01-16 11:13:38.005555	351.4	30.6	-69.7	0.0
2026-01-16 11:13:39.128566	351.3	30.4	-69.9	0.0
2026-01-16 11:13:40.254764	351.3	30.1	-71.0	0.0
2026-01-16 11:13:41.379936	351.2	29.9	-69.0	0.0
2026-01-16 11:13:42.503015	351.1	29.7	-69.3	0.0
2026-01-16 11:13:43.626852	351.0	29.5	-69.2	0.0
2026-01-16 11:13:44.749833	351.0	29.3	-70.0	0.0
2026-01-16 11:13:45.872958	350.9	29.1	-69.3	0.0
2026-01-16 11:13:46.998649	350.8	28.9	-69.5	0.0
2026-01-16 11:13:48.123823	350.8	28.7	-69.3	0.0
2026-01-16 11:13:49.247599	350.7	28.5	-69.5	0.0
2026-01-16 11:13:50.371492	350.6	28.3	-67.9	0.0
2026-01-16 11:13:51.495440	350.6	28.1	-68.0	0.0
2026-01-16 11:13:52.619161	350.5	27.9	-69.4	0.0
2026-01-16 11:13:53.743429	350.4	27.7	-67.7	0.0
2026-01-16 11:13:54.866575	350.4	27.5	-68.7	0.0
2026-01-16 11:13:55.989380	350.3	27.3	-69.1	0.0
2026-01-16 11:13:57.114223	350.2	27.1	-69.1	0.0
2026-01-16 11:13:58.235815	350.2	26.9	-70.2	0.0
2026-01-16 11:13:59.357424	350.1	26.7	-69.1	0.0
2026-01-16 11:14:00.479376	350.1	26.6	-69.4	0.0
2026-01-16 11:14:01.601896	350.0	26.4	-68.9	0.0
2026-01-16 11:14:02.725112	350.0	26.2	-69.6	0.0
2026-01-16 11:14:03.848663	349.9	26.0	-70.0	0.0
2026-01-16 11:14:04.973458	349.8	25.8	-69.5	0.0
2026-01-16 11:14:06.097395	349.8	25.6	-69.1	0.0
2026-01-16 11:14:07.220371	349.7	25.5	-69.6	0.0
2026-01-16 11:14:08.344848	349.7	25.3	-70.4	0.0
2026-01-16 11:14:09.469419	349.6	25.1	-70.7	0.0
2026-01-16 11:14:10.592505	349.6	24.9	-71.1	0.0
2026-01-16 11:14:11.717933	349.5	24.7	-70.2	0.0
2026-01-16 11:14:12.842068	349.5	24.6	-69.7	0.0
2026-01-16 11:14:13.965453	349.4	24.4	-71.3	0.0
2026-01-16 11:14:15.088852	349.4	24.2	-68.6	0.0
2026-01-16 11:14:16.212711	349.3	24.1	-70.4	0.0
2026-01-16 11:14:17.338600	349.3	23.9	-69.6	0.0
2026-01-16 11:14:18.463853	349.2	23.7	-70.1	0.0
2026-01-16 11:14:19.587419	349.2	23.5	-70.4	0.0
2026-01-16 11:14:20.711460	349.1	23.4	-69.2	0.0
2026-01-16 11:14:21.835538	349.1	23.2	-70.7	0.0
2026-01-16 11:14:22.960097	349.0	23.1	-69.6	0.0
2026-01-16 11:14:24.083641	349.0	22.9	-70.5	0.0
2026-01-16 11:14:25.208045	348.9	22.7	-69.4	0.0
2026-01-16 11:14:26.331692	348.9	22.6	-69.3	0.0
2026-01-16 11:14:27.456588	348.9	22.4	-69.9	0.0
2026-01-16 11:14:28.583645	348.8	22.2	-71.1	0.0
2026-01-16 11:14:29.707506	348.8	22.1	-71.7	0.0
2026-01-16 11:14:30.830188	348.7	21.9	-71.4	0.0
2026-01-16 11:14:31.953069	348.7	21.8	-70.9	0.0
2026-01-16 11:14:33.077614	348.6	21.6	-69.5	0.0
2026-01-16 11:14:34.201790	348.6	21.5	-70.1	0.0
2026-01-16 11:14:35.326166	348.6	21.3	-66.3	0.0
2026-01-16 11:14:36.450583	348.5	21.2	-71.5	0.0
2026-01-16 11:14:37.572920	348.5	21.0	-70.5	0.0
2026-01-16 11:14:38.696892	348.4	20.9	-70.9	0.0
2026-01-16 11:14:39.822193	348.4	20.7	-70.8	0.0
2026-01-16 11:14:40.945915	348.4	20.6	-70.1	0.0
2026-01-16 11:14:42.070189	348.3	20.4	-71.3	0.0
2026-01-16 11:14:43.193605	348.3	20.3	-67.7	0.0
2026-01-16 11:14:44.316247	348.2	20.1	-72.4	0.0
2026-01-16 11:14:45.438687	348.2	20.0	-71.1	0.0
2026-01-16 11:14:46.562586	348.2	19.8	-71.9	0.0
2026-01-16 11:14:47.685642	348.1	19.7	-71.9	0.0
2026-01-16 11:14:48.809059	348.1	19.5	-72.0	0.0
2026-01-16 11:14:49.933936	348.1	19.4	-72.5	0.0
2026-01-16 11:14:51.057026	348.0	19.2	-72.4	0.0
2026-01-16 11:14:52.178495	348.0	19.1	-71.1	0.0
2026-01-16 11:14:53.302873	348.0	19.0	-73.2	0.0
2026-01-16 11:14:54.426389	347.9	18.8	-72.1	0.0
2026-01-16 11:14:55.550588	347.9	18.7	-73.2	0.0
2026-01-16 11:14:56.673738	347.9	18.5	-73.2	0.0
2026-01-16 11:14:57.797325	347.8	18.4	-71.9	0.0
2026-01-16 11:14:58.921119	347.8	18.3	-71.5	0.0
2026-01-16 11:15:00.045334	347.8	18.1	-71.3	0.0
2026-01-16 11:15:01.168898	347.7	18.0	-72.0	0.0
2026-01-16 11:15:02.291445	347.7	17.9	-71.6	0.0
2026-01-16 11:15:03.416372	347.7	17.7	-72.0	0.0
2026-01-16 11:15:04.541939	347.6	17.6	-72.5	0.0
2026-01-16 11:15:05.667055	347.6	17.5	-71.3	0.0
2026-01-16 11:15:06.791457	347.6	17.3	-70.5	0.0
2026-01-16 11:15:07.914971	347.5	17.2	-72.8	0.0
2026-01-16 11:15:09.039973	347.5	17.1	-72.2	0.0
2026-01-16 11:15:10.164546	347.5	17.0	-70.2	0.0
2026-01-16 11:15:11.288864	347.5	16.8	-71.3	0.0
2026-01-16 11:15:12.411787	347.4	16.7	-73.1	0.0
2026-01-16 11:15:13.536805	347.4	16.6	-72.8	0.0
2026-01-16 11:15:14.660555	347.4	16.4	-73.1	0.0
2026-01-16 11:15:15.784421	347.3	16.3	-71.2	0.0
2026-01-16 11:15:16.910019	347.3	16.2	-71.4	0.0
2026-01-16 11:15:18.034551	347.3	16.1	-72.3	0.0
2026-01-16 11:15:19.157791	347.3	15.9	-70.6	0.0
2026-01-16 11:15:20.281501	347.2	15.8	-72.8	0.0
2026-01-16 11:15:21.406998	347.2	15.7	-72.9	0.0
2026-01-16 11:15:22.530625	347.2	15.6	-72.2	0.0
2026-01-16 11:15:23.652864	347.1	15.5	-72.2	0.0
2026-01-16 11:15:24.776080	347.1	15.3	-71.7	0.0
2026-01-16 11:15:25.899425	347.1	15.2	-70.0	0.0
2026-01-16 11:15:27.023738	347.1	15.1	-70.7	0.0
2026-01-16 11:15:28.147491	347.0	15.0	-72.9	0.0
2026-01-16 11:15:29.269771	347.0	14.9	-72.5	0.0
2026-01-16 11:15:30.392649	347.0	14.7	-72.8	0.0
2026-01-16 11:15:31.514274	347.0	14.6	-70.7	0.0
2026-01-16 11:15:32.639581	346.9	14.5	-72.7	0.0
2026-01-16 11:15:33.765282	346.9	14.4	-71.0	0.0
2026-01-16 11:15:34.891921	346.9	14.3	-70.7	0.0
2026-01-16 11:15:36.016836	346.9	14.2	-70.9	0.0
2026-01-16 11:15:37.139973	346.8	14.0	-71.8	0.0
2026-01-16 11:15:38.265118	346.8	13.9	-72.7	0.0
2026-01-16 11:15:39.390587	346.8	13.8	-72.6	0.0
2026-01-16 11:15:40.513971	346.8	13.7	-72.0	0.0
2026-01-16 11:15:41.636820	346.8	13.6	-72.7	0.0
2026-01-16 11:15:42.758670	346.7	13.5	-72.5	0.0
2026-01-16 11:15:43.882105	346.7	13.4	-70.4	0.0
2026-01-16 11:15:45.006954	346.7	13.3	-72.2	0.0
2026-01-16 11:15:46.130697	346.7	13.1	-72.8	0.0
2026-01-16 11:15:47.254709	346.6	13.0	-71.1	0.0
2026-01-16 11:15:48.378676	346.6	12.9	-73.0	0.0
2026-01-16 11:15:49.502842	346.6	12.8	-73.0	0.0
2026-01-16 11:15:50.627016	346.6	12.7	-71.7	0.0
2026-01-16 11:15:51.753342	346.6	12.6	-72.7	0.0
2026-01-16 11:15:52.876837	346.5	12.5	-71.6	0.0
2026-01-16 11:15:53.999544	346.5	12.4	-71.1	0.0
2026-01-16 11:15:55.123803	346.5	12.3	-72.3	0.0
2026-01-16 11:15:56.248929	346.5	12.2	-71.6	0.0
2026-01-16 11:15:57.374776	346.5	12.1	-73.2	0.0
2026-01-16 11:15:58.498388	346.4	12.0	-72.8	0.0
2026-01-16 11:15:59.620993	346.4	11.9	-70.9	0.0
2026-01-16 11:16:00.743911	346.4	11.7	-71.5	0.0
2026-01-16 11:16:01.867684	346.4	11.6	-72.4	0.0
2026-01-16 11:16:02.990047	346.4	11.5	-71.0	0.0
2026-01-16 11:16:04.113430	346.3	11.4	-70.6	0.0
2026-01-16 11:16:05.237969	346.3	11.3	-72.7	0.0
2026-01-16 11:16:06.361713	346.3	11.2	-73.8	0.0
2026-01-16 11:16:07.484888	346.3	11.1	-71.1	0.0
2026-01-16 11:16:08.607045	346.3	11.0	-72.3	0.0
2026-01-16 11:16:09.729076	346.3	10.9	-72.3	0.0
2026-01-16 11:16:10.853558	346.2	10.8	-71.9	0.0
2026-01-16 11:16:11.977979	346.2	10.7	-68.9	0.0
2026-01-16 11:16:13.103203	346.2	10.6	-67.6	0.0
2026-01-16 11:16:14.227136	346.2	10.5	-69.2	0.0
2026-01-16 11:16:15.352699	346.2	10.4	-70.4	0.0
2026-01-16 11:16:16.477576	346.1	10.3	-69.8	0.0
2026-01-16 11:16:17.605058	346.1	10.2	-71.4	0.0
2026-01-16 11:16:18.728670	346.1	10.1	-74.3	0.0
2026-01-16 11:16:19.852651	346.1	10.0	-79.9	0.0
#Closed at: 2026-01-16 11:05:31.832082