passes_logs/2026/01/16/planumMaritime01/planumMaritime01__20260116_185059_METOP-B_rec.log

#Pass ID: 20260116_185059_METOP-B
#Satellite: METOP-B
#Configuration: METOP-B
#Start time: 2026-01-16 18:51:04.353160

#LorettStation: 1.0.0 05.05.2024
#Station: planumMaritime01
#Location: 37.49445 lon 55.92918 lat
#TLE: 1 38771U 12049A   26016.56671284  .00000095  00000+0  63334-4 0  9992
#TLE: 2 38771  98.6748  70.9267 0003245  73.6608 286.4926 14.21422866691723

#Time	Az	El	Level	SNR
2026-01-16 18:51:06.514764	210.5	10.2	-78.3	0.0
2026-01-16 18:51:07.639199	210.6	10.2	-78.8	0.0
2026-01-16 18:51:08.760514	210.7	10.3	-77.8	0.0
2026-01-16 18:51:09.885506	210.9	10.4	-78.2	0.0
2026-01-16 18:51:11.010781	211.0	10.5	-76.9	0.0
2026-01-16 18:51:12.132225	211.1	10.6	-76.2	0.0
2026-01-16 18:51:13.254631	211.2	10.6	-75.7	0.0
2026-01-16 18:51:14.379933	211.4	10.7	-73.6	0.0
2026-01-16 18:51:15.502058	211.5	10.8	-73.1	0.0
2026-01-16 18:51:16.625527	211.6	10.9	-72.3	0.0
2026-01-16 18:51:17.750930	211.7	11.0	-71.7	0.0
2026-01-16 18:51:18.875449	211.9	11.1	-71.4	0.0
2026-01-16 18:51:19.997572	212.0	11.1	-71.6	0.0
2026-01-16 18:51:21.119068	212.1	11.2	-70.7	0.0
2026-01-16 18:51:22.244160	212.2	11.3	-70.7	0.0
2026-01-16 18:51:23.366873	212.4	11.4	-71.3	0.0
2026-01-16 18:51:24.493039	212.5	11.5	-71.1	0.0
2026-01-16 18:51:25.613927	212.6	11.6	-70.8	0.0
2026-01-16 18:51:26.734601	212.8	11.6	-71.1	0.0
2026-01-16 18:51:27.856220	212.9	11.7	-70.6	0.0
2026-01-16 18:51:28.977462	213.0	11.8	-71.0	0.0
2026-01-16 18:51:30.099888	213.1	11.9	-70.3	0.0
2026-01-16 18:51:31.222052	213.3	12.0	-70.8	0.0
2026-01-16 18:51:32.347708	213.4	12.1	-71.5	0.0
2026-01-16 18:51:33.471669	213.6	12.1	-71.9	0.0
2026-01-16 18:51:34.593227	213.7	12.2	-71.8	0.0
2026-01-16 18:51:35.716640	213.8	12.3	-71.5	0.0
2026-01-16 18:51:36.840442	214.0	12.4	-70.5	0.0
2026-01-16 18:51:37.964744	214.1	12.5	-71.8	0.0
2026-01-16 18:51:39.086148	214.2	12.6	-71.5	0.0
2026-01-16 18:51:40.209442	214.4	12.6	-70.9	0.0
2026-01-16 18:51:41.331612	214.5	12.7	-70.4	0.0
2026-01-16 18:51:42.454218	214.7	12.8	-71.2	0.0
2026-01-16 18:51:43.576353	214.8	12.9	-71.6	0.5
2026-01-16 18:51:44.698587	214.9	13.0	-71.9	3.1
2026-01-16 18:51:45.820879	215.1	13.1	-71.9	0.0
2026-01-16 18:51:46.942112	215.2	13.2	-71.8	0.0
2026-01-16 18:51:48.066575	215.4	13.3	-72.0	0.0
2026-01-16 18:51:49.190918	215.5	13.3	-72.1	2.6
2026-01-16 18:51:50.316580	215.7	13.4	-72.1	0.0
2026-01-16 18:51:51.438828	215.8	13.5	-72.1	0.4
2026-01-16 18:51:52.562145	216.0	13.6	-71.5	0.0
2026-01-16 18:51:53.686397	216.1	13.7	-71.9	0.2
2026-01-16 18:51:54.809341	216.3	13.8	-72.1	0.7
2026-01-16 18:51:55.931792	216.4	13.9	-73.0	1.9
2026-01-16 18:51:57.053846	216.6	13.9	-72.2	2.2
2026-01-16 18:51:58.178691	216.7	14.0	-72.2	0.0
2026-01-16 18:51:59.303932	216.9	14.1	-72.5	1.6
2026-01-16 18:52:00.425295	217.0	14.2	-72.0	1.2
2026-01-16 18:52:01.547514	217.2	14.3	-72.5	3.2
2026-01-16 18:52:02.671859	217.4	14.4	-72.3	1.6
2026-01-16 18:52:03.795929	217.5	14.5	-72.4	1.4
2026-01-16 18:52:04.917524	217.7	14.6	-72.6	2.0
2026-01-16 18:52:06.039853	217.8	14.7	-72.6	4.2
2026-01-16 18:52:07.161099	218.0	14.7	-72.3	2.7
2026-01-16 18:52:08.283483	218.2	14.8	-72.9	2.8
2026-01-16 18:52:09.406144	218.3	14.9	-72.5	0.8
2026-01-16 18:52:10.526215	218.5	15.0	-73.0	2.5
2026-01-16 18:52:11.650066	218.6	15.1	-72.6	2.4
2026-01-16 18:52:12.771805	218.8	15.2	-72.9	3.8
2026-01-16 18:52:13.898651	219.0	15.3	-73.0	4.7
2026-01-16 18:52:15.021004	219.1	15.4	-73.0	3.5
2026-01-16 18:52:16.142713	219.3	15.5	-71.9	1.8
2026-01-16 18:52:17.266107	219.5	15.5	-73.0	4.3
2026-01-16 18:52:18.388378	219.6	15.6	-73.0	4.3
2026-01-16 18:52:19.509020	219.8	15.7	-72.7	3.5
2026-01-16 18:52:20.632377	220.0	15.8	-72.9	3.7
2026-01-16 18:52:21.755640	220.2	15.9	-72.8	4.3
2026-01-16 18:52:22.878561	220.3	16.0	-73.0	4.1
2026-01-16 18:52:24.002011	220.5	16.1	-73.1	4.1
2026-01-16 18:52:25.126083	220.7	16.2	-73.1	3.8
2026-01-16 18:52:26.247768	220.9	16.3	-73.1	4.2
2026-01-16 18:52:27.368934	221.0	16.4	-73.4	6.5
2026-01-16 18:52:28.492081	221.2	16.4	-72.6	4.0
2026-01-16 18:52:29.614693	221.4	16.5	-73.4	4.4
2026-01-16 18:52:30.737627	221.6	16.6	-73.2	4.4
2026-01-16 18:52:31.860823	221.8	16.7	-73.6	5.1
2026-01-16 18:52:32.981627	222.0	16.8	-73.2	5.0
2026-01-16 18:52:34.104661	222.1	16.9	-72.9	5.2
2026-01-16 18:52:35.228028	222.3	17.0	-72.6	5.1
2026-01-16 18:52:36.351582	222.5	17.1	-73.0	5.4
2026-01-16 18:52:37.474168	222.7	17.2	-73.3	6.0
2026-01-16 18:52:38.597860	222.9	17.3	-73.5	4.5
2026-01-16 18:52:39.720781	223.1	17.3	-73.4	5.0
2026-01-16 18:52:40.841880	223.3	17.4	-73.3	6.3
2026-01-16 18:52:41.968713	223.5	17.5	-73.4	6.8
2026-01-16 18:52:43.091288	223.7	17.6	-73.2	5.8
2026-01-16 18:52:44.213611	223.8	17.7	-73.1	5.2
2026-01-16 18:52:45.336665	224.0	17.8	-73.6	5.7
2026-01-16 18:52:46.460373	224.2	17.9	-73.3	6.6
2026-01-16 18:52:47.584165	224.4	18.0	-73.2	6.1
2026-01-16 18:52:48.707389	224.6	18.1	-73.5	6.0
2026-01-16 18:52:49.832244	224.8	18.2	-73.7	7.0
2026-01-16 18:52:50.955355	225.0	18.3	-73.6	7.1
2026-01-16 18:52:52.082038	225.2	18.4	-73.6	7.3
2026-01-16 18:52:53.203305	225.4	18.4	-73.9	6.5
2026-01-16 18:52:54.325686	225.7	18.5	-73.2	7.0
2026-01-16 18:52:55.449807	225.9	18.6	-73.7	5.9
2026-01-16 18:52:56.570803	226.1	18.7	-73.7	6.8
2026-01-16 18:52:57.690399	226.3	18.8	-73.9	6.6
2026-01-16 18:52:58.815035	226.5	18.9	-73.6	6.4
2026-01-16 18:52:59.937504	226.7	19.0	-74.0	7.3
2026-01-16 18:53:01.062292	226.9	19.1	-74.0	7.1
2026-01-16 18:53:02.186346	227.1	19.2	-73.9	7.0
2026-01-16 18:53:03.308920	227.3	19.3	-73.7	5.5
2026-01-16 18:53:04.431397	227.6	19.4	-73.8	6.5
2026-01-16 18:53:05.557326	227.8	19.4	-74.2	7.5
2026-01-16 18:53:06.679607	228.0	19.5	-74.2	7.1
2026-01-16 18:53:07.801871	228.2	19.6	-74.2	6.4
2026-01-16 18:53:08.924114	228.4	19.7	-74.3	7.7
2026-01-16 18:53:10.047504	228.7	19.8	-74.0	7.4
2026-01-16 18:53:11.171086	228.9	19.9	-74.3	7.3
2026-01-16 18:53:12.293936	229.1	20.0	-73.8	6.2
2026-01-16 18:53:13.415607	229.3	20.1	-74.1	7.7
2026-01-16 18:53:14.540302	229.6	20.2	-73.9	7.5
2026-01-16 18:53:15.661819	229.8	20.3	-73.8	7.0
2026-01-16 18:53:16.783119	230.0	20.3	-74.2	8.3
2026-01-16 18:53:17.907264	230.3	20.4	-74.2	7.7
2026-01-16 18:53:19.029805	230.5	20.5	-73.9	7.5
2026-01-16 18:53:20.151832	230.7	20.6	-74.2	7.6
2026-01-16 18:53:21.274490	231.0	20.7	-74.0	7.1
2026-01-16 18:53:22.397765	231.2	20.8	-74.0	6.6
2026-01-16 18:53:23.519781	231.4	20.9	-73.9	6.7
2026-01-16 18:53:24.644109	231.7	21.0	-74.0	7.8
2026-01-16 18:53:25.768977	231.9	21.1	-73.8	6.4
2026-01-16 18:53:26.889661	232.2	21.1	-74.0	7.2
2026-01-16 18:53:28.012241	232.4	21.2	-73.6	7.2
2026-01-16 18:53:29.136312	232.6	21.3	-73.8	8.0
2026-01-16 18:53:30.259969	232.9	21.4	-73.7	9.1
2026-01-16 18:53:31.384937	233.1	21.5	-73.6	7.6
2026-01-16 18:53:32.507465	233.4	21.6	-73.7	7.6
2026-01-16 18:53:33.632015	233.6	21.7	-73.7	5.8
2026-01-16 18:53:34.753419	233.9	21.8	-73.2	7.2
2026-01-16 18:53:35.878235	234.1	21.8	-73.7	6.9
2026-01-16 18:53:36.998764	234.4	21.9	-73.6	7.1
2026-01-16 18:53:38.120752	234.7	22.0	-73.7	8.7
2026-01-16 18:53:39.244416	234.9	22.1	-73.6	7.8
2026-01-16 18:53:40.364760	235.2	22.2	-73.1	6.6
2026-01-16 18:53:41.486712	235.4	22.3	-73.1	1.4
2026-01-16 18:53:42.609496	235.7	22.4	-73.3	6.3
2026-01-16 18:53:43.731613	236.0	22.4	-73.7	7.2
2026-01-16 18:53:44.854680	236.2	22.5	-73.7	7.9
2026-01-16 18:53:45.980294	236.5	22.6	-73.4	7.6
2026-01-16 18:53:47.102952	236.8	22.7	-73.4	7.5
2026-01-16 18:53:48.226960	237.0	22.8	-73.1	6.0
2026-01-16 18:53:49.351616	237.3	22.9	-73.7	8.3
2026-01-16 18:53:50.478453	237.6	22.9	-73.8	8.5
2026-01-16 18:53:51.601875	237.8	23.0	-73.7	6.4
2026-01-16 18:53:52.728164	238.1	23.1	-73.8	5.9
2026-01-16 18:53:53.850022	238.4	23.2	-73.7	8.0
2026-01-16 18:53:54.973689	238.7	23.3	-73.8	7.9
2026-01-16 18:53:56.097335	239.0	23.3	-73.6	7.4
2026-01-16 18:53:57.220123	239.2	23.4	-73.4	7.4
2026-01-16 18:53:58.342149	239.5	23.5	-73.4	7.7
2026-01-16 18:53:59.466216	239.8	23.6	-73.8	8.5
2026-01-16 18:54:00.589504	240.1	23.7	-73.8	7.6
2026-01-16 18:54:01.710790	240.4	23.7	-73.8	8.0
2026-01-16 18:54:02.832071	240.7	23.8	-73.6	7.8
2026-01-16 18:54:03.958182	240.9	23.9	-73.6	8.1
2026-01-16 18:54:05.080947	241.2	24.0	-73.8	9.5
2026-01-16 18:54:06.205259	241.5	24.0	-73.5	8.1
2026-01-16 18:54:07.328851	241.8	24.1	-73.3	8.4
2026-01-16 18:54:08.451872	242.1	24.2	-73.5	8.2
2026-01-16 18:54:09.574584	242.4	24.3	-73.4	8.6
2026-01-16 18:54:10.695843	242.7	24.3	-73.6	8.9
2026-01-16 18:54:11.816807	243.0	24.4	-73.4	8.5
2026-01-16 18:54:12.940060	243.3	24.5	-73.6	9.1
2026-01-16 18:54:14.066150	243.6	24.6	-73.1	7.2
2026-01-16 18:54:15.186852	243.9	24.6	-73.4	8.8
2026-01-16 18:54:16.308992	244.2	24.7	-72.9	7.7
2026-01-16 18:54:17.431496	244.5	24.8	-73.1	8.5
2026-01-16 18:54:18.553930	244.8	24.8	-73.4	8.6
2026-01-16 18:54:19.678180	245.1	24.9	-73.0	8.2
2026-01-16 18:54:20.802223	245.4	25.0	-73.2	9.0
2026-01-16 18:54:21.928648	245.7	25.0	-72.9	7.8
2026-01-16 18:54:23.054372	246.1	25.1	-73.3	7.5
2026-01-16 18:54:24.180461	246.4	25.2	-73.0	7.7
2026-01-16 18:54:25.302079	246.7	25.2	-73.0	7.8
2026-01-16 18:54:26.425012	247.0	25.3	-73.1	8.4
2026-01-16 18:54:27.548568	247.3	25.4	-72.9	8.1
2026-01-16 18:54:28.672812	247.6	25.4	-73.0	8.0
2026-01-16 18:54:29.799021	247.9	25.5	-73.0	8.4
2026-01-16 18:54:30.921715	248.3	25.6	-72.7	7.7
2026-01-16 18:54:32.046811	248.6	25.6	-72.5	6.9
2026-01-16 18:54:33.171384	248.9	25.7	-73.1	8.3
2026-01-16 18:54:34.293958	249.2	25.7	-73.1	7.8
2026-01-16 18:54:35.419267	249.6	25.8	-72.2	7.0
2026-01-16 18:54:36.542364	249.9	25.8	-72.5	7.2
2026-01-16 18:54:37.667980	250.2	25.9	-73.0	7.9
2026-01-16 18:54:38.791024	250.5	26.0	-73.2	7.8
2026-01-16 18:54:39.913776	250.9	26.0	-72.6	6.2
2026-01-16 18:54:41.035768	251.2	26.1	-72.1	5.5
2026-01-16 18:54:42.160075	251.5	26.1	-72.9	7.6
2026-01-16 18:54:43.284227	251.9	26.2	-72.2	7.0
2026-01-16 18:54:44.407078	252.2	26.2	-72.7	7.3
2026-01-16 18:54:45.529204	252.5	26.3	-72.4	6.6
2026-01-16 18:54:46.651176	252.9	26.3	-72.8	7.8
2026-01-16 18:54:47.776982	253.2	26.4	-71.9	7.6
2026-01-16 18:54:48.900239	253.5	26.4	-72.6	7.4
2026-01-16 18:54:50.022388	253.9	26.5	-72.5	6.9
2026-01-16 18:54:51.143669	254.2	26.5	-72.1	5.5
2026-01-16 18:54:52.270189	254.6	26.5	-72.1	6.6
2026-01-16 18:54:53.393275	254.9	26.6	-72.5	7.6
2026-01-16 18:54:54.514504	255.2	26.6	-72.5	7.3
2026-01-16 18:54:55.637774	255.6	26.7	-72.4	7.3
2026-01-16 18:54:56.759635	255.9	26.7	-72.7	7.7
2026-01-16 18:54:57.882720	256.3	26.8	-72.3	7.2
2026-01-16 18:54:59.004336	256.6	26.8	-72.5	7.7
2026-01-16 18:55:00.126400	257.0	26.8	-72.5	7.1
2026-01-16 18:55:01.251708	257.3	26.9	-72.5	6.6
2026-01-16 18:55:02.376307	257.7	26.9	-72.2	6.0
2026-01-16 18:55:03.499228	258.0	26.9	-71.9	5.8
2026-01-16 18:55:04.622869	258.4	27.0	-72.2	5.9
2026-01-16 18:55:05.745918	258.7	27.0	-72.4	6.2
2026-01-16 18:55:06.869112	259.1	27.0	-71.5	5.1
2026-01-16 18:55:07.990602	259.4	27.1	-71.9	5.1
2026-01-16 18:55:09.109848	259.8	27.1	-72.0	6.6
2026-01-16 18:55:10.230628	260.1	27.1	-72.1	5.9
2026-01-16 18:55:11.354035	260.5	27.1	-72.1	6.8
2026-01-16 18:55:12.474413	260.8	27.2	-72.3	5.5
2026-01-16 18:55:13.597111	261.2	27.2	-72.4	7.2
2026-01-16 18:55:14.721135	261.5	27.2	-72.0	2.4
2026-01-16 18:55:15.843969	261.9	27.2	-72.1	7.2
2026-01-16 18:55:16.969084	262.2	27.3	-72.0	7.0
2026-01-16 18:55:18.089615	262.6	27.3	-72.5	6.7
2026-01-16 18:55:19.211973	262.9	27.3	-72.5	7.7
2026-01-16 18:55:20.335973	263.3	27.3	-72.3	6.5
2026-01-16 18:55:21.462166	263.7	27.3	-72.4	6.6
2026-01-16 18:55:22.585017	264.0	27.3	-72.4	7.4
2026-01-16 18:55:23.707664	264.4	27.4	-72.3	5.1
2026-01-16 18:55:24.834142	264.7	27.4	-72.6	6.7
2026-01-16 18:55:25.956891	265.1	27.4	-72.7	6.3
2026-01-16 18:55:27.081259	265.5	27.4	-72.4	6.5
2026-01-16 18:55:28.203999	265.8	27.4	-72.5	5.6
2026-01-16 18:55:29.326316	266.2	27.4	-72.2	4.2
2026-01-16 18:55:30.445848	266.5	27.4	-72.5	5.5
2026-01-16 18:55:31.569825	266.9	27.4	-72.2	5.4
2026-01-16 18:55:32.691142	267.2	27.4	-71.1	4.1
2026-01-16 18:55:33.813818	267.6	27.4	-71.2	4.2
2026-01-16 18:55:34.935708	268.0	27.4	-70.7	4.8
2026-01-16 18:55:36.058491	268.3	27.4	-71.0	1.2
2026-01-16 18:55:37.180734	268.7	27.4	-71.5	3.4
2026-01-16 18:55:38.304876	269.0	27.4	-71.4	3.3
2026-01-16 18:55:39.426308	269.4	27.4	-71.7	5.2
2026-01-16 18:55:40.547250	269.8	27.4	-72.0	5.4
2026-01-16 18:55:41.671983	270.1	27.4	-71.2	4.9
2026-01-16 18:55:42.797187	270.5	27.4	-68.9	2.1
2026-01-16 18:55:43.919711	270.8	27.4	-72.0	3.9
2026-01-16 18:55:45.043076	271.2	27.4	-71.8	5.2
2026-01-16 18:55:46.165733	271.6	27.4	-70.2	4.4
2026-01-16 18:55:47.288640	271.9	27.4	-71.5	4.8
2026-01-16 18:55:48.411636	272.3	27.3	-71.2	3.2
2026-01-16 18:55:49.535714	272.6	27.3	-70.1	3.8
2026-01-16 18:55:50.658435	273.0	27.3	-70.7	5.4
2026-01-16 18:55:51.779454	273.3	27.3	-70.0	4.2
2026-01-16 18:55:52.901012	273.7	27.3	-69.8	1.7
2026-01-16 18:55:54.025616	274.1	27.3	-70.8	3.5
2026-01-16 18:55:55.148798	274.4	27.2	-71.8	3.9
2026-01-16 18:55:56.272248	274.8	27.2	-70.5	1.6
2026-01-16 18:55:57.393459	275.1	27.2	-70.7	4.7
2026-01-16 18:55:58.515669	275.5	27.2	-71.8	5.6
2026-01-16 18:55:59.640907	275.8	27.2	-70.6	4.6
2026-01-16 18:56:00.767305	276.2	27.1	-70.9	3.9
2026-01-16 18:56:01.890030	276.5	27.1	-69.5	0.5
2026-01-16 18:56:03.013001	276.9	27.1	-70.2	0.7
2026-01-16 18:56:04.135149	277.2	27.1	-69.2	2.2
2026-01-16 18:56:05.257705	277.6	27.0	-71.5	3.3
2026-01-16 18:56:06.380444	277.9	27.0	-71.1	5.5
2026-01-16 18:56:07.502581	278.3	27.0	-70.4	3.4
2026-01-16 18:56:08.623992	278.6	26.9	-69.9	3.2
2026-01-16 18:56:09.747674	279.0	26.9	-70.0	3.0
2026-01-16 18:56:10.869660	279.3	26.9	-69.2	3.5
2026-01-16 18:56:11.990945	279.7	26.8	-69.9	2.7
2026-01-16 18:56:13.112964	280.0	26.8	-70.3	3.4
2026-01-16 18:56:14.235326	280.4	26.7	-69.5	3.5
2026-01-16 18:56:15.361804	280.7	26.7	-68.1	0.0
2026-01-16 18:56:16.486306	281.0	26.7	-69.2	0.0
2026-01-16 18:56:17.607848	281.4	26.6	-70.8	3.2
2026-01-16 18:56:18.729773	281.7	26.6	-70.5	2.2
2026-01-16 18:56:19.853012	282.1	26.5	-67.7	0.0
2026-01-16 18:56:20.975971	282.4	26.5	-69.7	0.7
2026-01-16 18:56:22.097133	282.7	26.4	-70.0	1.9
2026-01-16 18:56:23.219408	283.1	26.4	-69.3	3.3
2026-01-16 18:56:24.342125	283.4	26.4	-69.6	1.5
2026-01-16 18:56:25.465898	283.8	26.3	-69.0	0.0
2026-01-16 18:56:26.589330	284.1	26.3	-69.3	3.1
2026-01-16 18:56:27.710406	284.4	26.2	-69.2	0.0
2026-01-16 18:56:28.832646	284.8	26.2	-69.1	0.0
2026-01-16 18:56:29.953529	285.1	26.1	-69.9	2.2
2026-01-16 18:56:31.078544	285.4	26.1	-69.6	0.6
2026-01-16 18:56:32.204001	285.7	26.0	-68.4	0.0
2026-01-16 18:56:33.326682	286.1	25.9	-67.1	0.0
2026-01-16 18:56:34.450903	286.4	25.9	-69.1	1.4
2026-01-16 18:56:35.571936	286.7	25.8	-68.2	0.1
2026-01-16 18:56:36.695052	287.0	25.8	-68.7	1.8
2026-01-16 18:56:37.815628	287.4	25.7	-68.8	0.0
2026-01-16 18:56:38.938892	287.7	25.7	-68.3	0.0
2026-01-16 18:56:40.061025	288.0	25.6	-68.5	0.5
2026-01-16 18:56:41.184934	288.3	25.5	-67.5	0.0
2026-01-16 18:56:42.308263	288.7	25.5	-67.8	0.0
2026-01-16 18:56:43.430692	289.0	25.4	-68.1	0.0
2026-01-16 18:56:44.553420	289.3	25.4	-67.3	0.0
2026-01-16 18:56:45.677799	289.6	25.3	-67.9	0.0
2026-01-16 18:56:46.799044	289.9	25.2	-67.2	0.0
2026-01-16 18:56:47.922219	290.2	25.2	-68.1	0.0
2026-01-16 18:56:49.044448	290.5	25.1	-69.1	0.0
2026-01-16 18:56:50.166340	290.8	25.0	-68.9	0.0
2026-01-16 18:56:51.291603	291.2	25.0	-66.8	0.0
2026-01-16 18:56:52.417822	291.5	24.9	-69.0	0.0
2026-01-16 18:56:53.540670	291.8	24.8	-68.8	0.0
2026-01-16 18:56:54.664221	292.1	24.8	-68.9	0.0
2026-01-16 18:56:55.787368	292.4	24.7	-68.2	0.0
2026-01-16 18:56:56.911450	292.7	24.6	-67.5	0.0
2026-01-16 18:56:58.032233	293.0	24.6	-68.8	0.0
2026-01-16 18:56:59.156635	293.3	24.5	-68.4	0.0
2026-01-16 18:57:00.278883	293.6	24.4	-69.3	0.1
2026-01-16 18:57:01.401825	293.9	24.3	-68.3	0.0
2026-01-16 18:57:02.524428	294.2	24.3	-68.4	0.0
2026-01-16 18:57:03.643874	294.5	24.2	-67.9	0.0
2026-01-16 18:57:04.768101	294.8	24.1	-69.6	0.0
2026-01-16 18:57:05.893780	295.0	24.0	-67.9	0.0
2026-01-16 18:57:07.016009	295.3	24.0	-68.1	0.0
2026-01-16 18:57:08.139527	295.6	23.9	-67.2	0.0
2026-01-16 18:57:09.260954	295.9	23.8	-67.7	0.0
2026-01-16 18:57:10.383906	296.2	23.7	-68.0	0.0
2026-01-16 18:57:11.505966	296.5	23.7	-67.6	0.0
2026-01-16 18:57:12.628382	296.8	23.6	-67.7	0.0
2026-01-16 18:57:13.750747	297.0	23.5	-68.1	0.0
2026-01-16 18:57:14.870974	297.3	23.4	-68.2	0.0
2026-01-16 18:57:15.992256	297.6	23.3	-66.3	0.0
2026-01-16 18:57:17.114378	297.9	23.3	-62.8	0.0
2026-01-16 18:57:18.236812	298.2	23.2	-68.1	0.0
2026-01-16 18:57:19.358703	298.4	23.1	-67.2	0.0
2026-01-16 18:57:20.481328	298.7	23.0	-67.2	0.0
2026-01-16 18:57:21.603686	299.0	22.9	-67.1	0.0
2026-01-16 18:57:22.725408	299.2	22.9	-64.2	0.0
2026-01-16 18:57:23.848382	299.5	22.8	-68.2	0.0
2026-01-16 18:57:24.970906	299.8	22.7	-67.1	0.0
2026-01-16 18:57:26.095994	300.0	22.6	-69.3	0.0
2026-01-16 18:57:27.217506	300.3	22.5	-66.8	0.0
2026-01-16 18:57:28.337683	300.6	22.5	-68.8	0.0
2026-01-16 18:57:29.459895	300.8	22.4	-67.9	0.0
2026-01-16 18:57:30.582440	301.1	22.3	-67.5	0.0
2026-01-16 18:57:31.704154	301.4	22.2	-69.1	0.0
2026-01-16 18:57:32.825089	301.6	22.1	-69.5	0.0
2026-01-16 18:57:33.947457	301.9	22.0	-68.4	0.0
2026-01-16 18:57:35.070479	302.1	21.9	-70.2	0.0
2026-01-16 18:57:36.192047	302.4	21.9	-69.8	0.0
2026-01-16 18:57:37.318118	302.6	21.8	-68.8	0.0
2026-01-16 18:57:38.442222	302.9	21.7	-69.9	0.0
2026-01-16 18:57:39.564780	303.1	21.6	-68.6	0.0
2026-01-16 18:57:40.686769	303.4	21.5	-69.6	0.0
2026-01-16 18:57:41.810332	303.6	21.4	-68.4	0.0
2026-01-16 18:57:42.932303	303.9	21.3	-69.6	0.0
2026-01-16 18:57:44.056379	304.1	21.3	-69.0	0.0
2026-01-16 18:57:45.179344	304.4	21.2	-70.3	0.0
2026-01-16 18:57:46.302069	304.6	21.1	-70.0	0.0
2026-01-16 18:57:47.426895	304.8	21.0	-69.8	0.0
2026-01-16 18:57:48.547834	305.1	20.9	-69.9	0.0
2026-01-16 18:57:49.669385	305.3	20.8	-71.3	0.0
2026-01-16 18:57:50.791409	305.6	20.7	-70.5	0.0
2026-01-16 18:57:51.915211	305.8	20.6	-67.3	0.0
2026-01-16 18:57:53.035630	306.0	20.5	-68.6	0.0
2026-01-16 18:57:54.158233	306.3	20.5	-70.7	0.0
2026-01-16 18:57:55.281127	306.5	20.4	-67.1	0.0
2026-01-16 18:57:56.404819	306.7	20.3	-67.7	0.0
2026-01-16 18:57:57.526987	306.9	20.2	-68.0	0.0
2026-01-16 18:57:58.649834	307.2	20.1	-66.3	0.0
2026-01-16 18:57:59.773098	307.4	20.0	-68.6	0.0
2026-01-16 18:58:00.896763	307.6	19.9	-66.7	0.0
2026-01-16 18:58:02.018748	307.8	19.8	-67.8	0.0
2026-01-16 18:58:03.140737	308.1	19.7	-66.1	0.0
2026-01-16 18:58:04.259997	308.3	19.7	-68.6	0.0
2026-01-16 18:58:05.381822	308.5	19.6	-69.0	0.0
2026-01-16 18:58:06.504798	308.7	19.5	-66.7	0.0
2026-01-16 18:58:07.627804	308.9	19.4	-66.3	0.0
2026-01-16 18:58:08.749984	309.2	19.3	-66.6	0.0
2026-01-16 18:58:09.874298	309.4	19.2	-63.3	0.0
2026-01-16 18:58:10.997127	309.6	19.1	-64.9	0.0
2026-01-16 18:58:12.116934	309.8	19.0	-65.3	0.0
2026-01-16 18:58:13.237848	310.0	18.9	-64.2	0.0
2026-01-16 18:58:14.360602	310.2	18.8	-67.2	0.0
2026-01-16 18:58:15.482144	310.4	18.8	-66.1	0.0
2026-01-16 18:58:16.606861	310.6	18.7	-66.5	0.0
2026-01-16 18:58:17.769023	310.8	18.6	-66.4	0.0
2026-01-16 18:58:18.893357	311.0	18.5	-65.7	0.0
2026-01-16 18:58:20.016453	311.2	18.4	-66.7	0.0
2026-01-16 18:58:21.139855	311.4	18.3	-68.4	0.0
2026-01-16 18:58:22.263658	311.6	18.2	-65.0	0.0
2026-01-16 18:58:23.388225	311.8	18.1	-68.1	0.0
2026-01-16 18:58:24.510526	312.0	18.0	-69.5	0.0
2026-01-16 18:58:25.632160	312.2	17.9	-67.2	0.0
2026-01-16 18:58:26.754984	312.4	17.8	-67.4	0.0
2026-01-16 18:58:27.878409	312.6	17.8	-67.8	0.0
2026-01-16 18:58:29.002413	312.8	17.7	-65.8	0.0
2026-01-16 18:58:30.125208	313.0	17.6	-66.3	0.0
2026-01-16 18:58:31.246911	313.2	17.5	-67.2	0.0
2026-01-16 18:58:32.370069	313.4	17.4	-66.9	0.0
2026-01-16 18:58:33.493204	313.6	17.3	-66.0	0.0
2026-01-16 18:58:34.613754	313.8	17.2	-68.9	0.0
2026-01-16 18:58:35.734845	314.0	17.1	-67.3	0.0
2026-01-16 18:58:36.859916	314.2	17.0	-66.8	0.0
2026-01-16 18:58:37.982453	314.3	16.9	-66.8	0.0
2026-01-16 18:58:39.103950	314.5	16.9	-67.2	0.0
2026-01-16 18:58:40.225577	314.7	16.8	-65.7	0.0
2026-01-16 18:58:41.347916	314.9	16.7	-65.9	0.0
2026-01-16 18:58:42.470055	315.1	16.6	-67.0	0.0
2026-01-16 18:58:43.590442	315.2	16.5	-68.6	0.0
2026-01-16 18:58:44.712556	315.4	16.4	-65.2	0.0
2026-01-16 18:58:45.833662	315.6	16.3	-65.9	0.0
2026-01-16 18:58:46.955597	315.8	16.2	-65.3	0.0
2026-01-16 18:58:48.078307	316.0	16.1	-66.6	0.0
2026-01-16 18:58:49.202315	316.1	16.1	-67.1	0.0
2026-01-16 18:58:50.324480	316.3	16.0	-65.3	0.0
2026-01-16 18:58:51.446970	316.5	15.9	-66.8	0.0
2026-01-16 18:58:52.568076	316.6	15.8	-66.1	0.0
2026-01-16 18:58:53.688930	316.8	15.7	-63.9	0.0
2026-01-16 18:58:54.815267	317.0	15.6	-67.4	0.0
2026-01-16 18:58:55.936837	317.2	15.5	-67.9	0.0
2026-01-16 18:58:57.060192	317.3	15.4	-66.3	0.0
2026-01-16 18:58:58.184445	317.5	15.3	-65.0	0.0
2026-01-16 18:58:59.303991	317.7	15.3	-65.3	0.0
2026-01-16 18:59:00.423593	317.8	15.2	-66.3	0.0
2026-01-16 18:59:01.547021	318.0	15.1	-66.6	0.0
2026-01-16 18:59:02.668437	318.1	15.0	-65.1	0.0
2026-01-16 18:59:03.791754	318.3	14.9	-64.6	0.0
2026-01-16 18:59:04.912716	318.5	14.8	-67.3	0.0
2026-01-16 18:59:06.033884	318.6	14.7	-67.0	0.0
2026-01-16 18:59:07.156634	318.8	14.6	-66.1	0.0
2026-01-16 18:59:08.279731	318.9	14.5	-66.0	0.0
2026-01-16 18:59:09.400456	319.1	14.5	-67.4	0.0
2026-01-16 18:59:10.521515	319.3	14.4	-67.1	0.0
2026-01-16 18:59:11.641733	319.4	14.3	-66.0	0.0
2026-01-16 18:59:12.763692	319.6	14.2	-66.3	0.0
2026-01-16 18:59:13.886079	319.7	14.1	-67.8	0.0
2026-01-16 18:59:15.011102	319.9	14.0	-67.6	0.0
2026-01-16 18:59:16.134315	320.0	13.9	-66.6	0.0
2026-01-16 18:59:17.255093	320.2	13.9	-67.6	0.0
2026-01-16 18:59:18.376917	320.3	13.8	-68.1	0.0
2026-01-16 18:59:19.498999	320.5	13.7	-68.0	0.0
2026-01-16 18:59:20.619026	320.6	13.6	-69.5	0.0
2026-01-16 18:59:21.740170	320.8	13.5	-68.4	0.0
2026-01-16 18:59:22.865322	320.9	13.4	-69.5	0.0
2026-01-16 18:59:23.988827	321.1	13.3	-68.2	0.0
2026-01-16 18:59:25.110934	321.2	13.3	-68.5	0.0
2026-01-16 18:59:26.233295	321.4	13.2	-69.0	0.0
2026-01-16 18:59:27.356572	321.5	13.1	-66.7	0.0
2026-01-16 18:59:28.477808	321.6	13.0	-66.9	0.0
2026-01-16 18:59:29.600010	321.8	12.9	-67.2	0.0
2026-01-16 18:59:30.722857	321.9	12.8	-67.9	0.0
2026-01-16 18:59:31.845223	322.1	12.7	-65.4	0.0
2026-01-16 18:59:32.967657	322.2	12.7	-66.0	0.0
2026-01-16 18:59:34.089959	322.4	12.6	-67.3	0.0
2026-01-16 18:59:35.211744	322.5	12.5	-66.4	0.0
2026-01-16 18:59:36.334957	322.6	12.4	-66.8	0.0
2026-01-16 18:59:37.458637	322.8	12.3	-67.8	0.0
2026-01-16 18:59:38.581918	322.9	12.2	-67.2	0.0
2026-01-16 18:59:39.704599	323.0	12.2	-67.6	0.0
2026-01-16 18:59:40.825695	323.2	12.1	-68.1	0.0
2026-01-16 18:59:41.947652	323.3	12.0	-66.7	0.0
2026-01-16 18:59:43.069731	323.4	11.9	-66.5	0.0
2026-01-16 18:59:44.193021	323.6	11.8	-65.9	0.0
2026-01-16 18:59:45.312500	323.7	11.7	-66.2	0.0
2026-01-16 18:59:46.433322	323.8	11.7	-66.6	0.0
2026-01-16 18:59:47.555376	324.0	11.6	-68.6	0.0
2026-01-16 18:59:48.676839	324.1	11.5	-64.7	0.0
2026-01-16 18:59:49.801179	324.2	11.4	-66.8	0.0
2026-01-16 18:59:50.923542	324.3	11.3	-67.6	0.0
2026-01-16 18:59:52.046657	324.5	11.2	-66.5	0.0
2026-01-16 18:59:53.168622	324.6	11.2	-66.6	0.0
2026-01-16 18:59:54.290469	324.7	11.1	-67.3	0.0
2026-01-16 18:59:55.413827	324.9	11.0	-66.9	0.0
2026-01-16 18:59:56.537066	325.0	10.9	-67.8	0.0
2026-01-16 18:59:57.658809	325.1	10.8	-68.5	0.0
2026-01-16 18:59:58.779879	325.2	10.8	-69.1	0.0
2026-01-16 18:59:59.902424	325.3	10.7	-70.7	0.0
2026-01-16 19:00:01.024739	325.5	10.6	-70.4	0.0
2026-01-16 19:00:02.146971	325.6	10.5	-71.0	0.0
2026-01-16 19:00:03.268690	325.7	10.4	-69.2	0.0
2026-01-16 19:00:04.391175	325.8	10.4	-71.3	0.0
2026-01-16 19:00:05.515653	326.0	10.3	-73.7	0.0
2026-01-16 19:00:06.636321	326.1	10.2	-73.8	0.0
2026-01-16 19:00:07.759273	326.2	10.1	-73.9	0.0
2026-01-16 19:00:08.882961	326.3	10.0	-74.2	0.0
2026-01-16 19:00:10.007392	326.4	10.0	-72.6	0.0
#Closed at: 2026-01-16 18:50:59.360179