passes_logs/2025/01/16/LEX_Murmansk/LEX_Murmansk__20250116_173352_NOAA_18_rec.log

#Pass ID: 20250116_173352_NOAA 18
#Satellite: NOAA 18
#Configuration: NOAA 18
#Start time: 2025-01-16 17:33:47.285548

#LorettStation: 1.0.0 05.05.2024
#Station: LEX_Murmansk
#Location: 33.156738 lon 68.926811 lat
#TLE: 1 28654U 05018A   25016.15379782  .00000321  00000+0  19399-3 0  9994
#TLE: 2 28654  98.8565  97.1968 0014416 175.9109 184.2183 14.13487365 13346

#Time	Az	El	Level	SNR
2025-01-16 17:33:59.408047	112.8	16.2	-90.5	8.7
2025-01-16 17:34:00.555553	112.7	16.3	-91.0	7.4
2025-01-16 17:34:01.703183	112.7	16.5	-91.0	9.0
2025-01-16 17:34:02.846300	112.6	16.6	-90.1	7.7
2025-01-16 17:34:03.990123	112.5	16.7	-90.1	6.9
2025-01-16 17:34:05.139585	112.4	16.8	-90.0	7.5
2025-01-16 17:34:06.293516	112.3	16.9	-90.5	7.2
2025-01-16 17:34:07.433069	112.2	17.1	-90.4	5.9
2025-01-16 17:34:08.574654	112.1	17.2	-90.4	7.3
2025-01-16 17:34:09.709242	112.0	17.3	-90.4	9.0
2025-01-16 17:34:10.841773	111.9	17.4	-89.8	7.4
2025-01-16 17:34:11.993462	111.8	17.5	-89.9	5.7
2025-01-16 17:34:13.122793	111.7	17.7	-90.0	6.8
2025-01-16 17:34:14.257079	111.6	17.8	-90.2	9.3
2025-01-16 17:34:15.392915	111.5	17.9	-89.5	7.9
2025-01-16 17:34:16.535988	111.4	18.0	-90.4	11.0
2025-01-16 17:34:17.680444	111.3	18.2	-90.5	9.6
2025-01-16 17:34:18.825964	111.2	18.3	-90.7	11.5
2025-01-16 17:34:19.974135	111.1	18.4	-90.4	8.0
2025-01-16 17:34:21.118390	111.0	18.6	-90.4	8.5
2025-01-16 17:34:22.270803	110.9	18.7	-90.9	9.3
2025-01-16 17:34:23.418622	110.8	18.8	-90.5	7.3
2025-01-16 17:34:24.558986	110.7	18.9	-90.4	6.9
2025-01-16 17:34:25.700624	110.6	19.1	-90.5	7.6
2025-01-16 17:34:26.833427	110.5	19.2	-91.1	8.2
2025-01-16 17:34:27.967896	110.4	19.3	-90.3	4.0
2025-01-16 17:34:29.109467	110.3	19.5	-90.9	4.2
2025-01-16 17:34:30.243723	110.2	19.6	-90.5	8.1
2025-01-16 17:34:31.389592	110.1	19.7	-90.5	8.2
2025-01-16 17:34:32.532808	109.9	19.9	-90.2	8.0
2025-01-16 17:34:33.673555	109.8	20.0	-90.6	8.3
2025-01-16 17:34:34.804914	109.7	20.1	-90.7	8.2
2025-01-16 17:34:35.933220	109.6	20.3	-90.0	7.4
2025-01-16 17:34:37.078502	109.5	20.4	-90.6	4.7
2025-01-16 17:34:38.211024	109.4	20.5	-90.6	8.7
2025-01-16 17:34:39.335895	109.3	20.7	-90.1	6.2
2025-01-16 17:34:40.480575	109.1	20.8	-90.0	6.1
2025-01-16 17:34:41.618072	109.0	20.9	-90.3	4.9
2025-01-16 17:34:42.767889	108.9	21.1	-90.6	8.5
2025-01-16 17:34:43.915161	108.8	21.2	-90.4	4.6
2025-01-16 17:34:45.051146	108.7	21.3	-90.7	5.0
2025-01-16 17:34:46.197110	108.5	21.5	-90.8	8.9
2025-01-16 17:34:47.341971	108.4	21.6	-90.7	5.9
2025-01-16 17:34:48.490166	108.3	21.8	-90.7	8.6
2025-01-16 17:34:49.636616	108.1	21.9	-90.6	8.9
2025-01-16 17:34:50.779284	108.0	22.1	-90.4	5.7
2025-01-16 17:34:51.925382	107.9	22.2	-90.9	6.9
2025-01-16 17:34:53.084216	107.8	22.3	-90.6	4.5
2025-01-16 17:34:54.225781	107.6	22.5	-90.4	6.2
2025-01-16 17:34:55.375397	107.5	22.6	-90.6	3.0
2025-01-16 17:34:56.500333	107.4	22.8	-90.1	5.9
2025-01-16 17:34:57.641589	107.2	22.9	-90.2	5.2
2025-01-16 17:34:58.782721	107.1	23.1	-90.1	7.4
2025-01-16 17:34:59.923666	106.9	23.2	-90.5	5.1
2025-01-16 17:35:01.066822	106.8	23.4	-90.4	5.0
2025-01-16 17:35:02.207964	106.7	23.5	-90.1	6.1
2025-01-16 17:35:03.329469	106.5	23.7	-90.3	9.3
2025-01-16 17:35:04.470576	106.4	23.8	-90.2	7.8
2025-01-16 17:35:05.609492	106.2	24.0	-90.6	12.6
2025-01-16 17:35:06.750123	106.1	24.1	-90.6	10.8
2025-01-16 17:35:07.896403	105.9	24.3	-90.1	10.1
2025-01-16 17:35:09.045362	105.8	24.4	-90.8	11.1
2025-01-16 17:35:10.184546	105.6	24.6	-90.0	12.0
2025-01-16 17:35:11.328931	105.5	24.7	-90.3	15.5
2025-01-16 17:35:12.451855	105.3	24.9	-89.9	8.0
2025-01-16 17:35:13.589633	105.2	25.0	-90.0	12.7
2025-01-16 17:35:14.735363	105.0	25.2	-90.4	6.6
2025-01-16 17:35:15.881715	104.8	25.4	-89.8	13.9
2025-01-16 17:35:17.024379	104.7	25.5	-90.4	5.3
2025-01-16 17:35:18.168764	104.5	25.7	-90.4	8.5
2025-01-16 17:35:19.310359	104.3	25.8	-90.4	4.2
2025-01-16 17:35:20.453640	104.2	26.0	-90.5	4.0
2025-01-16 17:35:21.599217	104.0	26.2	-90.5	3.8
2025-01-16 17:35:22.744643	103.8	26.3	-90.4	7.1
2025-01-16 17:35:23.893675	103.7	26.5	-90.4	7.4
2025-01-16 17:35:25.036001	103.5	26.6	-90.3	7.9
2025-01-16 17:35:26.187580	103.3	26.8	-90.6	8.9
2025-01-16 17:35:27.337637	103.1	27.0	-90.9	7.0
2025-01-16 17:35:28.481444	103.0	27.1	-90.9	8.0
2025-01-16 17:35:29.648866	102.8	27.3	-90.9	13.3
2025-01-16 17:35:30.793207	102.6	27.5	-90.4	10.6
2025-01-16 17:35:31.941816	102.4	27.6	-91.0	7.0
2025-01-16 17:35:33.091139	102.2	27.8	-91.4	10.3
2025-01-16 17:35:34.239381	102.0	28.0	-90.8	8.5
2025-01-16 17:35:35.390895	101.8	28.1	-90.7	6.5
2025-01-16 17:35:36.537028	101.6	28.3	-90.4	5.5
2025-01-16 17:35:37.682747	101.4	28.5	-90.2	7.4
2025-01-16 17:35:38.825872	101.2	28.6	-90.7	7.1
2025-01-16 17:35:39.969563	101.0	28.8	-90.0	4.8
2025-01-16 17:35:41.118795	100.8	29.0	-89.8	6.6
2025-01-16 17:35:42.263584	100.6	29.2	-90.9	8.9
2025-01-16 17:35:43.392109	100.4	29.3	-90.8	8.3
2025-01-16 17:35:44.531839	100.2	29.5	-90.8	10.3
2025-01-16 17:35:45.674259	100.0	29.7	-90.3	10.7
2025-01-16 17:35:46.808511	99.8	29.9	-90.5	16.9
2025-01-16 17:35:47.952889	99.6	30.0	-90.9	11.0
2025-01-16 17:35:49.096937	99.4	30.2	-90.7	10.6
2025-01-16 17:35:50.241923	99.2	30.4	-90.1	15.2
2025-01-16 17:35:51.379361	98.9	30.6	-90.7	19.6
2025-01-16 17:35:52.505111	98.7	30.7	-90.3	19.3
2025-01-16 17:35:53.647209	98.5	30.9	-90.9	21.0
2025-01-16 17:35:54.789399	98.3	31.1	-90.1	21.7
2025-01-16 17:35:55.927539	98.0	31.3	-90.6	11.8
2025-01-16 17:35:57.072688	97.8	31.4	-90.1	9.9
2025-01-16 17:35:58.216833	97.5	31.6	-90.2	12.8
2025-01-16 17:35:59.363227	97.3	31.8	-90.2	15.5
2025-01-16 17:36:00.504210	97.1	32.0	-90.8	9.0
2025-01-16 17:36:01.649340	96.8	32.2	-90.7	11.7
2025-01-16 17:36:02.797806	96.6	32.4	-90.4	11.7
2025-01-16 17:36:03.947098	96.3	32.5	-90.6	10.6
2025-01-16 17:36:05.095036	96.1	32.7	-90.6	7.7
2025-01-16 17:36:06.252245	95.8	32.9	-90.6	10.9
2025-01-16 17:36:07.399564	95.5	33.1	-90.5	11.0
2025-01-16 17:36:08.545689	95.3	33.3	-90.6	9.7
2025-01-16 17:36:09.689996	95.0	33.5	-90.8	15.2
2025-01-16 17:36:10.812382	94.7	33.6	-90.6	19.2
2025-01-16 17:36:11.955020	94.5	33.8	-90.4	15.3
2025-01-16 17:36:13.094626	94.2	34.0	-90.6	18.0
2025-01-16 17:36:14.236898	93.9	34.2	-90.5	15.6
2025-01-16 17:36:15.385604	93.6	34.4	-90.6	12.1
2025-01-16 17:36:16.530223	93.3	34.6	-90.5	8.5
2025-01-16 17:36:17.675960	93.1	34.8	-90.4	15.6
2025-01-16 17:36:18.831942	92.8	35.0	-90.7	9.8
2025-01-16 17:36:19.980121	92.5	35.1	-90.9	7.2
2025-01-16 17:36:21.132931	92.2	35.3	-90.6	11.6
2025-01-16 17:36:22.282271	91.9	35.5	-90.8	18.1
2025-01-16 17:36:23.432285	91.5	35.7	-90.8	16.4
2025-01-16 17:36:24.574358	91.2	35.9	-90.8	21.9
2025-01-16 17:36:25.720754	90.9	36.1	-90.8	16.4
2025-01-16 17:36:26.862047	90.6	36.3	-90.7	20.4
2025-01-16 17:36:28.008659	90.3	36.5	-90.3	13.3
2025-01-16 17:36:29.156237	90.0	36.7	-90.2	15.5
2025-01-16 17:36:30.300190	89.6	36.8	-90.8	11.5
2025-01-16 17:36:31.452307	89.3	37.0	-91.1	9.5
2025-01-16 17:36:32.605226	89.0	37.2	-91.1	7.2
2025-01-16 17:36:33.749325	88.6	37.4	-90.6	11.8
2025-01-16 17:36:34.890634	88.3	37.6	-90.8	10.8
2025-01-16 17:36:36.036664	87.9	37.8	-90.4	12.2
2025-01-16 17:36:37.180185	87.6	38.0	-90.2	12.3
2025-01-16 17:36:38.328405	87.2	38.2	-90.7	10.4
2025-01-16 17:36:39.476478	86.8	38.4	-90.7	5.7
2025-01-16 17:36:40.621766	86.5	38.5	-90.4	10.2
2025-01-16 17:36:41.774199	86.1	38.7	-90.4	8.5
2025-01-16 17:36:42.918977	85.7	38.9	-90.4	8.0
2025-01-16 17:36:44.067946	85.4	39.1	-90.1	5.6
2025-01-16 17:36:45.209840	85.0	39.3	-90.4	19.0
2025-01-16 17:36:46.359927	84.6	39.5	-90.5	9.9
2025-01-16 17:36:47.509389	84.2	39.7	-90.6	9.4
2025-01-16 17:36:48.656257	83.8	39.9	-90.2	11.5
2025-01-16 17:36:49.802506	83.4	40.0	-90.8	14.3
2025-01-16 17:36:50.951904	83.0	40.2	-90.5	11.8
2025-01-16 17:36:52.099062	82.6	40.4	-90.5	6.9
2025-01-16 17:36:53.244990	82.2	40.6	-90.9	8.9
2025-01-16 17:36:54.372280	81.7	40.8	-90.3	6.0
2025-01-16 17:36:55.492481	81.3	40.9	-90.7	7.7
2025-01-16 17:36:56.612536	80.9	41.1	-90.8	10.8
2025-01-16 17:36:57.735642	80.5	41.3	-90.9	13.9
2025-01-16 17:36:58.858958	80.1	41.5	-90.8	13.5
2025-01-16 17:36:59.979710	79.6	41.6	-90.9	14.1
2025-01-16 17:37:01.100441	79.2	41.8	-89.9	18.0
2025-01-16 17:37:02.235993	78.7	42.0	-90.0	18.2
2025-01-16 17:37:03.358661	78.3	42.2	-90.1	19.5
2025-01-16 17:37:04.504051	77.8	42.3	-90.3	13.1
2025-01-16 17:37:05.649003	77.4	42.5	-91.1	13.2
2025-01-16 17:37:06.802456	76.9	42.7	-90.5	14.9
2025-01-16 17:37:07.947136	76.4	42.8	-90.4	8.1
2025-01-16 17:37:09.096422	75.9	43.0	-90.7	9.1
2025-01-16 17:37:10.238831	75.4	43.2	-90.3	14.9
2025-01-16 17:37:11.378050	74.9	43.3	-90.4	11.4
2025-01-16 17:37:12.513112	74.4	43.5	-90.5	11.6
2025-01-16 17:37:13.647599	74.0	43.6	-90.8	14.0
2025-01-16 17:37:14.792786	73.4	43.8	-90.2	12.2
2025-01-16 17:37:15.937922	72.9	44.0	-90.5	14.2
2025-01-16 17:37:17.081876	72.4	44.1	-90.6	13.1
2025-01-16 17:37:18.225892	71.9	44.3	-90.3	14.6
2025-01-16 17:37:19.369928	71.4	44.4	-90.5	13.6
2025-01-16 17:37:20.514514	70.8	44.6	-90.3	10.9
2025-01-16 17:37:21.662292	70.3	44.7	-90.3	12.8
2025-01-16 17:37:22.813052	69.8	44.8	-90.4	15.7
2025-01-16 17:37:23.958948	69.2	45.0	-90.6	11.0
2025-01-16 17:37:25.099228	68.7	45.1	-90.7	10.6
2025-01-16 17:37:26.225297	68.1	45.3	-90.7	15.5
2025-01-16 17:37:27.371348	67.5	45.4	-90.9	12.7
2025-01-16 17:37:28.509024	67.0	45.5	-90.8	6.5
2025-01-16 17:37:29.649432	66.4	45.6	-90.6	6.9
2025-01-16 17:37:30.799495	65.8	45.8	-90.7	11.6
2025-01-16 17:37:31.940224	65.3	45.9	-90.4	9.4
2025-01-16 17:37:33.087380	64.7	46.0	-90.3	10.7
2025-01-16 17:37:34.225682	64.1	46.1	-90.0	9.9
2025-01-16 17:37:35.360350	63.5	46.2	-90.0	10.6
2025-01-16 17:37:36.495038	62.9	46.3	-90.1	10.0
2025-01-16 17:37:37.636586	62.3	46.4	-90.5	8.5
2025-01-16 17:37:38.785293	61.7	46.5	-90.6	9.9
2025-01-16 17:37:39.937293	61.1	46.6	-90.4	7.0
2025-01-16 17:37:41.086805	60.5	46.7	-91.0	7.1
2025-01-16 17:37:42.226959	59.9	46.8	-90.8	9.3
2025-01-16 17:37:43.372447	59.2	46.9	-90.3	11.6
2025-01-16 17:37:44.521742	58.6	47.0	-90.9	5.9
2025-01-16 17:37:45.667561	58.0	47.1	-90.9	8.9
2025-01-16 17:37:46.811379	57.4	47.2	-90.2	6.9
2025-01-16 17:37:47.957570	56.7	47.2	-90.8	6.3
2025-01-16 17:37:49.105859	56.1	47.3	-91.0	5.1
2025-01-16 17:37:50.264477	55.4	47.4	-90.8	12.4
2025-01-16 17:37:51.414707	54.8	47.4	-90.6	9.7
2025-01-16 17:37:52.557886	54.2	47.5	-91.3	6.7
2025-01-16 17:37:53.682032	53.5	47.6	-90.4	12.1
2025-01-16 17:37:54.820727	52.9	47.6	-90.3	11.4
2025-01-16 17:37:55.960461	52.2	47.7	-90.8	6.1
2025-01-16 17:37:57.097531	51.6	47.7	-90.5	5.8
2025-01-16 17:37:58.245290	50.9	47.7	-90.6	9.8
2025-01-16 17:37:59.385764	50.3	47.8	-90.5	10.8
2025-01-16 17:38:00.525732	49.6	47.8	-90.5	6.4
2025-01-16 17:38:01.676702	49.0	47.8	-90.5	8.7
2025-01-16 17:38:02.823258	48.3	47.9	-90.8	10.4
2025-01-16 17:38:03.970112	47.6	47.9	-90.2	7.1
2025-01-16 17:38:05.117841	47.0	47.9	-90.7	9.8
2025-01-16 17:38:06.260539	46.3	47.9	-90.1	6.9
2025-01-16 17:38:07.409017	45.6	47.9	-90.2	4.8
2025-01-16 17:38:08.552647	45.0	47.9	-90.1	8.2
2025-01-16 17:38:09.697596	44.3	47.9	-90.3	7.0
2025-01-16 17:38:10.846963	43.7	47.9	-90.0	10.6
2025-01-16 17:38:11.997787	43.0	47.9	-90.4	6.9
2025-01-16 17:38:13.146048	42.3	47.9	-90.6	11.7
2025-01-16 17:38:14.285870	41.7	47.9	-90.3	10.7
2025-01-16 17:38:15.420152	41.0	47.8	-90.2	9.0
2025-01-16 17:38:16.548060	40.4	47.8	-90.3	10.0
2025-01-16 17:38:17.690810	39.7	47.8	-90.3	13.4
2025-01-16 17:38:18.826191	39.1	47.8	-90.4	16.4
2025-01-16 17:38:19.965937	38.4	47.7	-90.6	10.7
2025-01-16 17:38:21.115022	37.8	47.7	-90.5	10.6
2025-01-16 17:38:22.252790	37.1	47.6	-90.6	15.5
2025-01-16 17:38:23.395241	36.5	47.6	-90.5	9.8
2025-01-16 17:38:24.539208	35.8	47.5	-90.5	9.6
2025-01-16 17:38:25.682661	35.2	47.5	-90.1	13.6
2025-01-16 17:38:26.834041	34.5	47.4	-89.9	10.2
2025-01-16 17:38:27.982603	33.9	47.3	-90.0	11.0
2025-01-16 17:38:29.126764	33.2	47.3	-90.0	9.3
2025-01-16 17:38:30.269615	32.6	47.2	-90.6	7.5
2025-01-16 17:38:31.391196	32.0	47.1	-90.6	8.8
2025-01-16 17:38:32.532175	31.4	47.0	-90.4	6.1
2025-01-16 17:38:33.672001	30.7	46.9	-90.2	8.4
2025-01-16 17:38:34.809900	30.1	46.9	-89.9	15.3
2025-01-16 17:38:35.943678	29.5	46.8	-90.0	16.7
2025-01-16 17:38:37.074050	28.9	46.7	-90.2	14.8
2025-01-16 17:38:38.223883	28.3	46.6	-90.5	18.4
2025-01-16 17:38:39.364147	27.7	46.5	-90.6	15.3
2025-01-16 17:38:40.504794	27.1	46.4	-90.4	17.2
2025-01-16 17:38:41.645482	26.5	46.3	-90.2	15.4
2025-01-16 17:38:42.794562	25.9	46.2	-90.2	10.9
2025-01-16 17:38:43.915449	25.3	46.0	-89.8	18.8
2025-01-16 17:38:45.062076	24.7	45.9	-89.9	21.9
2025-01-16 17:38:46.196967	24.2	45.8	-89.9	17.8
2025-01-16 17:38:47.341298	23.6	45.7	-90.3	18.0
2025-01-16 17:38:48.484558	23.0	45.6	-90.1	16.7
2025-01-16 17:38:49.629310	22.4	45.4	-89.9	12.9
2025-01-16 17:38:50.774343	21.9	45.3	-89.8	21.1
2025-01-16 17:38:51.919763	21.3	45.2	-90.1	19.6
2025-01-16 17:38:53.064262	20.8	45.0	-90.3	15.8
2025-01-16 17:38:54.208126	20.2	44.9	-90.1	11.6
2025-01-16 17:38:55.350144	19.7	44.7	-89.8	9.9
2025-01-16 17:38:56.499660	19.1	44.6	-90.6	16.0
2025-01-16 17:38:57.643436	18.6	44.5	-89.9	23.5
2025-01-16 17:38:58.795111	18.1	44.3	-90.0	16.9
2025-01-16 17:38:59.937765	17.6	44.2	-90.4	16.5
2025-01-16 17:39:01.087728	17.0	44.0	-90.9	20.9
2025-01-16 17:39:02.240141	16.5	43.8	-90.1	17.9
2025-01-16 17:39:03.385817	16.0	43.7	-90.5	13.0
2025-01-16 17:39:04.531191	15.5	43.5	-90.6	18.9
2025-01-16 17:39:05.671347	15.0	43.4	-90.8	16.3
2025-01-16 17:39:06.794983	14.5	43.2	-90.5	16.2
2025-01-16 17:39:07.937270	14.0	43.0	-90.4	13.7
2025-01-16 17:39:09.075301	13.5	42.9	-90.2	11.8
2025-01-16 17:39:10.218216	13.1	42.7	-90.2	13.1
2025-01-16 17:39:11.365309	12.6	42.5	-90.6	14.4
2025-01-16 17:39:12.502840	12.1	42.4	-90.8	9.1
2025-01-16 17:39:13.643264	11.7	42.2	-90.6	10.8
2025-01-16 17:39:14.788717	11.2	42.0	-91.1	14.4
2025-01-16 17:39:15.927987	10.8	41.9	-90.6	12.7
2025-01-16 17:39:17.076629	10.3	41.7	-90.7	13.6
2025-01-16 17:39:18.224779	9.9	41.5	-90.6	23.0
2025-01-16 17:39:19.373674	9.4	41.3	-90.7	14.1
2025-01-16 17:39:20.495235	9.0	41.2	-91.0	8.7
2025-01-16 17:39:21.634830	8.6	41.0	-90.7	9.6
2025-01-16 17:39:22.772248	8.1	40.8	-91.1	23.2
2025-01-16 17:39:23.917896	7.7	40.6	-91.0	9.6
2025-01-16 17:39:25.059700	7.3	40.4	-91.0	7.9
2025-01-16 17:39:26.203347	6.9	40.3	-90.3	13.9
2025-01-16 17:39:27.349138	6.5	40.1	-90.3	19.6
2025-01-16 17:39:28.494175	6.1	39.9	-90.2	10.6
2025-01-16 17:39:29.637220	5.7	39.7	-90.0	12.2
2025-01-16 17:39:30.787311	5.3	39.5	-89.9	13.0
2025-01-16 17:39:31.938125	4.9	39.3	-90.0	7.1
2025-01-16 17:39:33.081515	4.5	39.1	-90.1	11.5
2025-01-16 17:39:34.229807	4.1	39.0	-90.4	15.2
2025-01-16 17:39:35.377141	3.8	38.8	-90.5	11.1
2025-01-16 17:39:36.522756	3.4	38.6	-90.4	13.6
2025-01-16 17:39:37.660670	3.0	38.4	-90.5	13.1
2025-01-16 17:39:38.782172	2.7	38.2	-90.8	15.7
2025-01-16 17:39:39.922265	2.3	38.0	-90.7	15.4
2025-01-16 17:39:41.059410	2.0	37.8	-90.7	17.7
2025-01-16 17:39:42.198481	1.6	37.6	-90.7	16.4
2025-01-16 17:39:43.341443	1.3	37.5	-90.7	13.3
2025-01-16 17:39:44.482223	0.9	37.3	-90.7	18.1
2025-01-16 17:39:45.626815	0.6	37.1	-90.8	19.7
2025-01-16 17:39:46.769604	0.3	36.9	-90.5	14.0
2025-01-16 17:39:47.913422	359.9	36.7	-90.8	12.8
2025-01-16 17:39:49.062214	359.6	36.5	-90.9	10.4
2025-01-16 17:39:50.209420	359.3	36.3	-90.7	14.6
2025-01-16 17:39:51.354503	359.0	36.1	-90.7	12.6
2025-01-16 17:39:52.502429	358.6	35.9	-90.8	12.5
2025-01-16 17:39:53.647805	358.3	35.7	-90.8	11.3
2025-01-16 17:39:54.795920	358.0	35.6	-90.8	12.2
2025-01-16 17:39:55.943680	357.7	35.4	-90.9	6.9
2025-01-16 17:39:57.092499	357.4	35.2	-90.5	10.8
2025-01-16 17:39:58.242992	357.1	35.0	-90.0	16.6
2025-01-16 17:39:59.391212	356.8	34.8	-90.6	9.1
2025-01-16 17:40:00.538494	356.5	34.6	-90.9	10.0
2025-01-16 17:40:01.682628	356.2	34.4	-90.2	13.9
2025-01-16 17:40:02.826608	356.0	34.2	-89.8	11.7
2025-01-16 17:40:03.971850	355.7	34.1	-90.3	10.3
2025-01-16 17:40:05.117400	355.4	33.9	-90.0	14.4
2025-01-16 17:40:06.263359	355.1	33.7	-90.3	6.1
2025-01-16 17:40:07.408377	354.9	33.5	-90.4	9.4
2025-01-16 17:40:08.553114	354.6	33.3	-90.1	6.3
2025-01-16 17:40:09.704864	354.3	33.1	-91.0	5.3
2025-01-16 17:40:10.834306	354.1	32.9	-90.6	9.8
2025-01-16 17:40:11.970409	353.8	32.8	-90.8	7.5
2025-01-16 17:40:13.098688	353.6	32.6	-91.3	7.0
2025-01-16 17:40:14.231850	353.3	32.4	-90.3	4.6
2025-01-16 17:40:15.374971	353.1	32.2	-90.9	7.8
2025-01-16 17:40:16.514638	352.8	32.0	-90.8	4.7
2025-01-16 17:40:17.655230	352.6	31.8	-91.2	9.4
2025-01-16 17:40:18.791786	352.3	31.7	-91.1	7.0
2025-01-16 17:40:19.928934	352.1	31.5	-90.5	5.1
2025-01-16 17:40:21.067599	351.9	31.3	-90.9	5.1
2025-01-16 17:40:22.213831	351.6	31.1	-90.7	10.4
2025-01-16 17:40:23.354262	351.4	30.9	-90.2	12.4
2025-01-16 17:40:24.479397	351.2	30.8	-90.9	7.4
2025-01-16 17:40:25.630003	350.9	30.6	-90.4	9.0
2025-01-16 17:40:26.767675	350.7	30.4	-90.7	12.1
2025-01-16 17:40:27.913514	350.5	30.2	-90.6	10.5
2025-01-16 17:40:29.056746	350.3	30.1	-90.9	8.9
2025-01-16 17:40:30.196006	350.1	29.9	-90.5	9.5
2025-01-16 17:40:31.340541	349.8	29.7	-91.0	10.9
2025-01-16 17:40:32.488652	349.6	29.5	-90.7	11.2
2025-01-16 17:40:33.636511	349.4	29.4	-90.6	15.8
2025-01-16 17:40:34.758397	349.2	29.2	-90.9	9.0
2025-01-16 17:40:35.895314	349.0	29.0	-91.1	7.4
2025-01-16 17:40:37.036446	348.8	28.8	-90.7	5.5
2025-01-16 17:40:38.175818	348.6	28.7	-90.9	5.8
2025-01-16 17:40:39.323670	348.4	28.5	-91.3	10.6
2025-01-16 17:40:40.466780	348.2	28.3	-91.0	9.3
2025-01-16 17:40:41.614996	348.0	28.2	-90.8	7.9
2025-01-16 17:40:42.765166	347.8	28.0	-90.9	4.8
2025-01-16 17:40:43.914173	347.6	27.8	-90.9	6.9
2025-01-16 17:40:45.057696	347.4	27.7	-90.3	6.6
2025-01-16 17:40:46.180764	347.3	27.5	-90.8	4.5
2025-01-16 17:40:47.318400	347.1	27.3	-90.4	5.3
2025-01-16 17:40:48.454387	346.9	27.2	-90.4	8.8
2025-01-16 17:40:49.600292	346.7	27.0	-90.3	6.7
2025-01-16 17:40:50.749151	346.5	26.8	-90.4	8.7
2025-01-16 17:40:51.895240	346.4	26.7	-90.3	10.6
2025-01-16 17:40:53.040673	346.2	26.5	-89.9	9.3
2025-01-16 17:40:54.188564	346.0	26.3	-89.9	18.6
2025-01-16 17:40:55.334157	345.8	26.2	-90.1	14.9
2025-01-16 17:40:56.485967	345.7	26.0	-89.9	9.4
2025-01-16 17:40:57.631738	345.5	25.9	-89.8	6.5
2025-01-16 17:40:58.775639	345.3	25.7	-89.4	14.0
2025-01-16 17:40:59.921466	345.2	25.5	-89.6	4.8
2025-01-16 17:41:01.063062	345.0	25.4	-89.8	4.1
2025-01-16 17:41:02.216120	344.9	25.2	-89.5	18.2
2025-01-16 17:41:03.367469	344.7	25.1	-89.9	10.6
2025-01-16 17:41:04.514345	344.5	24.9	-89.6	10.1
2025-01-16 17:41:05.666618	344.4	24.8	-89.6	12.6
2025-01-16 17:41:06.796360	344.2	24.6	-89.5	9.0
2025-01-16 17:41:07.929010	344.1	24.4	-89.6	10.5
2025-01-16 17:41:09.067031	343.9	24.3	-89.5	9.6
2025-01-16 17:41:10.207762	343.8	24.1	-89.6	19.8
2025-01-16 17:41:11.351756	343.6	24.0	-89.7	16.1
2025-01-16 17:41:12.492292	343.5	23.8	-89.8	14.5
2025-01-16 17:41:13.640611	343.3	23.7	-89.8	14.8
2025-01-16 17:41:14.786834	343.2	23.5	-90.0	8.5
2025-01-16 17:41:15.939755	343.0	23.4	-90.1	7.5
2025-01-16 17:41:17.080932	342.9	23.2	-89.8	7.7
2025-01-16 17:41:18.229716	342.8	23.1	-89.8	16.8
2025-01-16 17:41:19.367697	342.6	22.9	-89.7	10.2
2025-01-16 17:41:20.497183	342.5	22.8	-89.8	9.6
2025-01-16 17:41:21.636065	342.4	22.7	-89.6	8.9
2025-01-16 17:41:22.775624	342.2	22.5	-89.9	13.1
2025-01-16 17:41:23.925207	342.1	22.4	-90.3	13.5
2025-01-16 17:41:25.068092	342.0	22.2	-89.7	11.5
2025-01-16 17:41:26.193056	341.8	22.1	-89.9	4.5
2025-01-16 17:41:27.332542	341.7	21.9	-89.7	5.8
2025-01-16 17:41:28.471142	341.6	21.8	-89.9	7.0
2025-01-16 17:41:29.616143	341.4	21.6	-90.3	9.2
2025-01-16 17:41:30.758983	341.3	21.5	-89.7	5.3
2025-01-16 17:41:31.900343	341.2	21.4	-89.7	8.9
2025-01-16 17:41:33.043983	341.1	21.2	-89.6	4.8
2025-01-16 17:41:34.187483	340.9	21.1	-89.5	6.9
2025-01-16 17:41:35.319171	340.8	20.9	-89.1	8.9
2025-01-16 17:41:36.444466	340.7	20.8	-89.7	5.8
2025-01-16 17:41:37.588628	340.6	20.7	-89.7	7.3
2025-01-16 17:41:38.728662	340.5	20.5	-90.4	6.6
2025-01-16 17:41:39.872586	340.4	20.4	-89.6	7.6
2025-01-16 17:41:41.017012	340.2	20.3	-89.9	8.1
2025-01-16 17:41:42.161970	340.1	20.1	-90.2	9.3
2025-01-16 17:41:43.327766	340.0	20.0	-90.1	6.6
2025-01-16 17:41:44.472239	339.9	19.9	-90.5	5.1
2025-01-16 17:41:45.620951	339.8	19.7	-90.9	5.3
2025-01-16 17:41:46.771948	339.7	19.6	-90.8	10.5
2025-01-16 17:41:47.919117	339.6	19.5	-90.4	3.9
2025-01-16 17:41:49.064647	339.4	19.3	-90.9	5.5
2025-01-16 17:41:50.213455	339.3	19.2	-91.0	6.9
2025-01-16 17:41:51.357302	339.2	19.1	-90.9	6.2
2025-01-16 17:41:52.504962	339.1	18.9	-91.1	5.8
2025-01-16 17:41:53.652259	339.0	18.8	-90.6	10.9
2025-01-16 17:41:54.797628	338.9	18.7	-90.6	10.8
2025-01-16 17:41:55.943099	338.8	18.5	-90.4	11.1
2025-01-16 17:41:57.068511	338.7	18.4	-90.2	12.0
2025-01-16 17:41:58.208795	338.6	18.3	-90.8	3.4
2025-01-16 17:41:59.345192	338.5	18.2	-90.8	6.5
2025-01-16 17:42:00.487660	338.4	18.0	-90.8	5.5
2025-01-16 17:42:01.624486	338.3	17.9	-89.8	4.5
2025-01-16 17:42:02.762153	338.2	17.8	-90.4	6.5
2025-01-16 17:42:03.907019	338.1	17.7	-90.6	6.9
2025-01-16 17:42:05.050262	338.0	17.5	-90.0	5.4
2025-01-16 17:42:06.196338	337.9	17.4	-90.5	11.7
2025-01-16 17:42:07.346584	337.8	17.3	-90.3	5.9
2025-01-16 17:42:08.501714	337.7	17.2	-90.4	5.1
2025-01-16 17:42:09.641263	337.6	17.1	-90.6	6.3
2025-01-16 17:42:10.768724	337.5	16.9	-90.0	5.2
2025-01-16 17:42:11.918481	337.5	16.8	-91.2	3.2
2025-01-16 17:42:13.056447	337.4	16.7	-90.1	5.3
2025-01-16 17:42:14.181465	337.3	16.6	-90.5	8.3
2025-01-16 17:42:15.312591	337.2	16.5	-90.2	4.4
2025-01-16 17:42:16.455421	337.1	16.3	-90.5	5.1
2025-01-16 17:42:17.589629	337.0	16.2	-90.2	6.1
2025-01-16 17:42:18.733037	336.9	16.1	-90.0	5.4
2025-01-16 17:42:19.873086	336.8	16.0	-90.8	5.2
2025-01-16 17:42:21.016408	336.7	15.9	-91.0	6.5
2025-01-16 17:42:22.167507	336.7	15.7	-90.7	9.7
2025-01-16 17:42:23.321057	336.6	15.6	-90.5	6.5
2025-01-16 17:42:24.469355	336.5	15.5	-90.7	7.8
2025-01-16 17:42:25.619524	336.4	15.4	-89.7	10.5
2025-01-16 17:42:26.762563	336.3	15.3	-90.1	5.2
2025-01-16 17:42:27.903439	336.2	15.2	-90.3	4.2
2025-01-16 17:42:29.046592	336.2	15.1	-90.0	5.7
2025-01-16 17:42:30.189099	336.1	14.9	-90.2	2.8
2025-01-16 17:42:31.336965	336.0	14.8	-90.5	4.3
2025-01-16 17:42:32.482855	335.9	14.7	-90.6	4.6
2025-01-16 17:42:33.631921	335.8	14.6	-90.4	4.9
2025-01-16 17:42:34.802701	335.8	14.5	-90.3	6.8
#Closed at: 2025-01-16 17:33:52.220394