passes_logs/2025/01/16/LEX_Murmansk/LEX_Murmansk__20250116_084916_NOAA_19_rec.log

#Pass ID: 20250116_084916_NOAA 19
#Satellite: NOAA 19
#Configuration: NOAA 19
#Start time: 2025-01-16 08:49:11.742707

#LorettStation: 1.0.0 05.05.2024
#Station: LEX_Murmansk
#Location: 33.156738 lon 68.926811 lat
#TLE: 1 33591U 09005A   25015.14570653  .00000261  00000+0  16322-3 0  9994
#TLE: 2 33591  99.0196  78.9093 0014467  57.1425 303.1137 14.13259366821569

#Time	Az	El	Level	SNR
2025-01-16 08:49:23.969437	26.3	16.3	-90.8	2.1
2025-01-16 08:49:25.129101	26.4	16.5	-91.0	2.5
2025-01-16 08:49:26.289943	26.4	16.6	-90.9	3.1
2025-01-16 08:49:27.439416	26.4	16.7	-90.8	1.4
2025-01-16 08:49:28.595424	26.4	16.8	-90.9	3.5
2025-01-16 08:49:29.752488	26.4	17.0	-90.9	3.6
2025-01-16 08:49:30.910978	26.4	17.1	-91.0	1.6
2025-01-16 08:49:32.062963	26.4	17.2	-91.0	3.1
2025-01-16 08:49:33.211530	26.5	17.4	-91.1	4.2
2025-01-16 08:49:34.363474	26.5	17.5	-91.0	3.3
2025-01-16 08:49:35.508729	26.5	17.6	-90.9	5.1
2025-01-16 08:49:36.665218	26.5	17.8	-90.9	3.4
2025-01-16 08:49:37.821566	26.5	17.9	-90.6	5.3
2025-01-16 08:49:38.980621	26.5	18.1	-90.7	7.0
2025-01-16 08:49:40.148219	26.5	18.2	-90.6	6.7
2025-01-16 08:49:41.303190	26.6	18.3	-90.8	8.2
2025-01-16 08:49:42.456906	26.6	18.5	-90.8	6.6
2025-01-16 08:49:43.608170	26.6	18.6	-90.9	3.7
2025-01-16 08:49:44.763326	26.6	18.8	-91.0	1.6
2025-01-16 08:49:45.910660	26.6	18.9	-91.1	2.7
2025-01-16 08:49:47.060004	26.6	19.0	-90.9	4.0
2025-01-16 08:49:48.222312	26.6	19.2	-90.7	4.6
2025-01-16 08:49:49.382786	26.7	19.3	-90.9	3.8
2025-01-16 08:49:50.533763	26.7	19.5	-90.9	4.7
2025-01-16 08:49:51.703214	26.7	19.6	-90.8	6.2
2025-01-16 08:49:52.856140	26.7	19.8	-90.8	4.7
2025-01-16 08:49:54.012121	26.7	19.9	-91.0	9.1
2025-01-16 08:49:55.171133	26.7	20.1	-90.8	5.2
2025-01-16 08:49:56.331420	26.8	20.2	-90.7	6.4
2025-01-16 08:49:57.492031	26.8	20.4	-90.9	3.5
2025-01-16 08:49:58.646560	26.8	20.5	-90.9	3.9
2025-01-16 08:49:59.803159	26.8	20.7	-90.9	3.0
2025-01-16 08:50:00.958234	26.8	20.8	-91.1	3.4
2025-01-16 08:50:02.111874	26.8	21.0	-90.9	2.4
2025-01-16 08:50:03.271287	26.9	21.1	-91.3	1.5
2025-01-16 08:50:04.426564	26.9	21.3	-91.0	7.1
2025-01-16 08:50:05.585947	26.9	21.4	-91.1	11.1
2025-01-16 08:50:06.733725	26.9	21.6	-89.9	9.9
2025-01-16 08:50:07.888417	26.9	21.8	-90.3	7.6
2025-01-16 08:50:09.035798	26.9	21.9	-90.7	8.9
2025-01-16 08:50:10.183804	27.0	22.1	-90.9	5.6
2025-01-16 08:50:11.334315	27.0	22.2	-90.6	7.4
2025-01-16 08:50:12.478923	27.0	22.4	-90.7	2.6
2025-01-16 08:50:13.630183	27.0	22.6	-91.2	5.1
2025-01-16 08:50:14.778075	27.0	22.7	-91.1	5.0
2025-01-16 08:50:15.930598	27.0	22.9	-90.6	4.0
2025-01-16 08:50:17.088806	27.1	23.1	-90.7	0.9
2025-01-16 08:50:18.242219	27.1	23.2	-90.5	2.2
2025-01-16 08:50:19.392073	27.1	23.4	-90.9	5.3
2025-01-16 08:50:20.550256	27.1	23.6	-90.9	10.4
2025-01-16 08:50:21.698735	27.1	23.7	-91.0	11.2
2025-01-16 08:50:22.859456	27.2	23.9	-91.2	10.2
2025-01-16 08:50:24.008806	27.2	24.1	-91.0	6.2
2025-01-16 08:50:25.162595	27.2	24.3	-90.8	4.4
2025-01-16 08:50:26.311731	27.2	24.4	-90.8	6.9
2025-01-16 08:50:27.464723	27.2	24.6	-91.0	13.0
2025-01-16 08:50:28.619468	27.2	24.8	-91.2	11.8
2025-01-16 08:50:29.764132	27.3	25.0	-90.7	11.5
2025-01-16 08:50:30.919601	27.3	25.2	-90.9	4.5
2025-01-16 08:50:32.067757	27.3	25.3	-91.0	4.0
2025-01-16 08:50:33.227579	27.3	25.5	-90.9	3.3
2025-01-16 08:50:34.382460	27.4	25.7	-91.1	4.7
2025-01-16 08:50:35.534384	27.4	25.9	-91.0	6.3
2025-01-16 08:50:36.683327	27.4	26.1	-91.1	9.7
2025-01-16 08:50:37.838173	27.4	26.3	-90.8	13.1
2025-01-16 08:50:38.989259	27.4	26.5	-91.3	14.0
2025-01-16 08:50:40.153854	27.5	26.7	-90.9	10.5
2025-01-16 08:50:41.309116	27.5	26.9	-90.9	6.0
2025-01-16 08:50:42.463419	27.5	27.0	-91.2	7.6
2025-01-16 08:50:43.619184	27.5	27.2	-91.1	6.8
2025-01-16 08:50:44.775034	27.5	27.4	-91.3	9.4
2025-01-16 08:50:45.928080	27.6	27.6	-91.3	8.7
2025-01-16 08:50:47.074144	27.6	27.8	-91.1	6.1
2025-01-16 08:50:48.234431	27.6	28.0	-91.1	3.2
2025-01-16 08:50:49.387223	27.6	28.2	-91.1	2.3
2025-01-16 08:50:50.544324	27.7	28.4	-91.3	2.9
2025-01-16 08:50:51.696529	27.7	28.7	-91.1	3.5
2025-01-16 08:50:52.849320	27.7	28.9	-91.1	4.2
2025-01-16 08:50:53.999147	27.7	29.1	-90.7	6.4
2025-01-16 08:50:55.153194	27.8	29.3	-90.9	6.4
2025-01-16 08:50:56.314101	27.8	29.5	-91.2	6.1
2025-01-16 08:50:57.465671	27.8	29.7	-91.0	5.0
2025-01-16 08:50:58.621573	27.8	29.9	-91.0	6.4
2025-01-16 08:50:59.777000	27.9	30.1	-91.1	5.5
2025-01-16 08:51:00.935046	27.9	30.4	-90.1	5.3
2025-01-16 08:51:02.090278	27.9	30.6	-90.9	2.8
2025-01-16 08:51:03.244961	27.9	30.8	-90.7	5.3
2025-01-16 08:51:04.402379	28.0	31.0	-91.1	5.8
2025-01-16 08:51:05.556891	28.0	31.2	-91.0	4.3
2025-01-16 08:51:06.709598	28.0	31.5	-90.8	1.7
2025-01-16 08:51:07.864062	28.0	31.7	-91.1	2.8
2025-01-16 08:51:09.011899	28.1	31.9	-90.7	5.3
2025-01-16 08:51:10.165223	28.1	32.2	-90.9	8.5
2025-01-16 08:51:11.309041	28.1	32.4	-90.9	10.6
2025-01-16 08:51:12.463502	28.2	32.6	-90.5	10.0
2025-01-16 08:51:13.621363	28.2	32.9	-90.8	8.2
2025-01-16 08:51:14.775659	28.2	33.1	-90.8	5.9
2025-01-16 08:51:15.935727	28.2	33.3	-91.0	5.5
2025-01-16 08:51:17.083392	28.3	33.6	-91.1	7.5
2025-01-16 08:51:18.230929	28.3	33.8	-90.6	8.2
2025-01-16 08:51:19.382648	28.3	34.1	-90.8	10.6
2025-01-16 08:51:20.538112	28.4	34.3	-90.5	12.3
2025-01-16 08:51:21.685403	28.4	34.6	-90.7	8.4
2025-01-16 08:51:22.834832	28.4	34.8	-90.9	5.7
2025-01-16 08:51:23.992735	28.5	35.1	-91.0	3.5
2025-01-16 08:51:25.145651	28.5	35.3	-90.9	3.9
2025-01-16 08:51:26.304641	28.5	35.6	-90.9	3.5
2025-01-16 08:51:27.455232	28.6	35.9	-90.5	7.0
2025-01-16 08:51:28.617870	28.6	36.1	-90.4	10.4
2025-01-16 08:51:29.765535	28.6	36.4	-90.7	9.7
2025-01-16 08:51:30.920682	28.7	36.7	-90.8	10.2
2025-01-16 08:51:32.070893	28.7	36.9	-91.0	9.8
2025-01-16 08:51:33.225301	28.7	37.2	-90.9	8.4
2025-01-16 08:51:34.376921	28.8	37.5	-91.0	7.8
2025-01-16 08:51:35.537327	28.8	37.8	-91.2	11.3
2025-01-16 08:51:36.689616	28.9	38.0	-90.9	13.1
2025-01-16 08:51:37.848611	28.9	38.3	-90.9	14.6
2025-01-16 08:51:39.001674	28.9	38.6	-91.2	12.5
2025-01-16 08:51:40.161668	29.0	38.9	-90.7	8.3
2025-01-16 08:51:41.321379	29.0	39.2	-90.9	4.6
2025-01-16 08:51:42.482977	29.1	39.5	-91.0	5.2
2025-01-16 08:51:43.637982	29.1	39.8	-91.0	7.5
2025-01-16 08:51:44.795387	29.1	40.1	-90.9	5.1
2025-01-16 08:51:45.944715	29.2	40.4	-91.2	10.2
2025-01-16 08:51:47.099559	29.2	40.7	-91.4	12.6
2025-01-16 08:51:48.247613	29.3	41.0	-90.8	14.3
2025-01-16 08:51:49.413862	29.3	41.3	-91.2	15.1
2025-01-16 08:51:50.569840	29.4	41.6	-91.1	13.6
2025-01-16 08:51:51.728707	29.4	41.9	-90.9	8.0
2025-01-16 08:51:52.880646	29.5	42.2	-90.7	9.2
2025-01-16 08:51:54.034708	29.5	42.5	-90.7	13.1
2025-01-16 08:51:55.188928	29.6	42.8	-91.0	14.6
2025-01-16 08:51:56.334745	29.6	43.2	-91.2	17.8
2025-01-16 08:51:57.486947	29.7	43.5	-90.5	16.5
2025-01-16 08:51:58.641060	29.7	43.8	-90.8	14.0
2025-01-16 08:51:59.791226	29.8	44.1	-90.6	6.5
2025-01-16 08:52:00.940107	29.8	44.5	-90.9	4.3
2025-01-16 08:52:02.090402	29.9	44.8	-90.6	2.2
2025-01-16 08:52:03.244487	29.9	45.1	-91.0	4.2
2025-01-16 08:52:04.396975	30.0	45.5	-91.0	7.7
2025-01-16 08:52:05.547434	30.1	45.8	-91.2	10.9
2025-01-16 08:52:06.698052	30.1	46.2	-91.3	13.0
2025-01-16 08:52:07.854392	30.2	46.5	-91.5	11.8
2025-01-16 08:52:09.012214	30.2	46.9	-91.2	11.4
2025-01-16 08:52:10.174343	30.3	47.2	-91.1	5.0
2025-01-16 08:52:11.332976	30.4	47.6	-91.4	5.9
2025-01-16 08:52:12.480211	30.4	48.0	-91.0	8.3
2025-01-16 08:52:13.639903	30.5	48.3	-91.0	10.7
2025-01-16 08:52:14.793588	30.6	48.7	-91.1	10.2
2025-01-16 08:52:15.941211	30.6	49.1	-91.0	16.3
2025-01-16 08:52:17.093751	30.7	49.4	-91.4	15.7
2025-01-16 08:52:18.247125	30.8	49.8	-91.4	12.5
2025-01-16 08:52:19.396471	30.9	50.2	-91.4	9.9
2025-01-16 08:52:20.553227	31.0	50.6	-91.0	6.5
2025-01-16 08:52:21.716125	31.0	51.0	-91.1	3.7
2025-01-16 08:52:22.865573	31.1	51.3	-91.5	0.8
2025-01-16 08:52:24.028019	31.2	51.7	-91.2	3.6
2025-01-16 08:52:25.186885	31.3	52.1	-91.2	5.3
2025-01-16 08:52:26.347336	31.4	52.5	-91.2	8.3
2025-01-16 08:52:27.495046	31.5	52.9	-91.4	10.5
2025-01-16 08:52:28.654830	31.6	53.3	-91.5	15.7
2025-01-16 08:52:29.802951	31.7	53.7	-91.4	16.5
2025-01-16 08:52:30.959690	31.8	54.2	-91.5	16.5
2025-01-16 08:52:32.111975	31.9	54.6	-91.7	13.3
2025-01-16 08:52:33.267523	32.0	55.0	-91.2	8.4
2025-01-16 08:52:34.422064	32.1	55.4	-91.3	9.9
2025-01-16 08:52:35.575324	32.2	55.8	-91.1	8.1
2025-01-16 08:52:36.733240	32.3	56.3	-90.8	5.8
2025-01-16 08:52:37.886016	32.4	56.7	-91.3	7.0
2025-01-16 08:52:39.040010	32.5	57.1	-91.2	8.7
2025-01-16 08:52:40.195382	32.7	57.6	-91.4	6.8
2025-01-16 08:52:41.352506	32.8	58.0	-91.2	8.8
2025-01-16 08:52:42.503383	32.9	58.5	-91.2	8.9
2025-01-16 08:52:43.659976	33.1	58.9	-91.1	5.7
2025-01-16 08:52:44.813734	33.2	59.4	-91.1	2.7
2025-01-16 08:52:45.973672	33.3	59.8	-91.0	3.9
2025-01-16 08:52:47.118029	33.5	60.3	-91.3	7.4
2025-01-16 08:52:48.281534	33.6	60.7	-91.2	3.7
2025-01-16 08:52:49.441900	33.8	61.2	-91.3	6.8
2025-01-16 08:52:50.596460	34.0	61.7	-91.2	8.6
2025-01-16 08:52:51.754094	34.2	62.1	-91.2	7.7
2025-01-16 08:52:52.912777	34.3	62.6	-91.4	7.4
2025-01-16 08:52:54.066893	34.5	63.1	-91.4	8.3
2025-01-16 08:52:55.226107	34.7	63.6	-91.0	11.2
2025-01-16 08:52:56.380799	34.9	64.0	-91.5	11.0
2025-01-16 08:52:57.530757	35.1	64.5	-91.0	12.1
2025-01-16 08:52:58.678049	35.4	65.0	-91.2	9.2
2025-01-16 08:52:59.834409	35.6	65.5	-91.1	6.9
2025-01-16 08:53:00.985628	35.8	66.0	-91.2	8.3
2025-01-16 08:53:02.142352	36.1	66.5	-91.3	6.9
2025-01-16 08:53:03.299701	36.3	67.0	-91.0	10.1
2025-01-16 08:53:04.445145	36.6	67.5	-90.7	12.0
2025-01-16 08:53:05.592387	36.9	68.0	-90.7	7.2
2025-01-16 08:53:06.754255	37.2	68.5	-90.9	3.8
2025-01-16 08:53:07.911531	37.5	69.0	-90.9	4.6
2025-01-16 08:53:09.068718	37.9	69.5	-91.2	6.3
2025-01-16 08:53:10.230092	38.2	70.0	-91.0	7.9
2025-01-16 08:53:11.389657	38.6	70.5	-90.8	5.6
2025-01-16 08:53:12.543036	39.0	71.0	-91.3	5.2
2025-01-16 08:53:13.692864	39.4	71.6	-91.1	4.0
2025-01-16 08:53:14.856144	39.9	72.1	-91.0	3.7
2025-01-16 08:53:16.000692	40.3	72.6	-91.2	5.2
2025-01-16 08:53:17.149019	40.8	73.1	-90.9	5.3
2025-01-16 08:53:18.304703	41.4	73.6	-91.2	4.9
2025-01-16 08:53:19.455624	41.9	74.2	-91.3	7.4
2025-01-16 08:53:20.613821	42.6	74.7	-91.2	7.1
2025-01-16 08:53:21.765839	43.2	75.2	-90.6	4.4
2025-01-16 08:53:22.918703	43.9	75.7	-90.9	11.2
2025-01-16 08:53:24.072253	44.7	76.3	-90.6	13.4
2025-01-16 08:53:25.227066	45.5	76.8	-90.7	16.7
2025-01-16 08:53:26.373329	46.4	77.3	-90.9	16.2
2025-01-16 08:53:27.525257	47.4	77.8	-91.2	17.8
2025-01-16 08:53:28.678636	48.4	78.3	-90.9	17.1
2025-01-16 08:53:29.834250	49.6	78.8	-90.8	16.8
2025-01-16 08:53:30.987556	50.9	79.4	-91.0	15.1
2025-01-16 08:53:32.149809	52.3	79.9	-90.8	13.2
2025-01-16 08:53:33.301433	53.8	80.4	-90.9	9.5
2025-01-16 08:53:34.454854	55.6	80.9	-91.0	11.3
2025-01-16 08:53:35.624614	57.5	81.4	-91.0	11.5
2025-01-16 08:53:36.771833	59.7	81.8	-91.0	7.9
2025-01-16 08:53:37.925458	62.1	82.3	-91.2	11.2
2025-01-16 08:53:39.082928	64.9	82.8	-91.1	13.1
2025-01-16 08:53:40.232103	68.0	83.2	-90.6	11.2
2025-01-16 08:53:41.387447	71.5	83.6	-90.9	11.7
2025-01-16 08:53:42.540721	75.5	84.0	-90.9	15.5
2025-01-16 08:53:43.688266	80.0	84.3	-91.3	15.6
2025-01-16 08:53:44.839224	85.0	84.7	-91.5	17.9
2025-01-16 08:53:45.987874	90.7	84.9	-91.1	16.2
2025-01-16 08:53:47.151149	96.9	85.1	-91.3	17.3
2025-01-16 08:53:48.304494	103.6	85.3	-90.9	19.7
2025-01-16 08:53:49.464281	110.7	85.4	-90.6	20.5
2025-01-16 08:53:50.618150	117.9	85.4	-90.8	20.7
2025-01-16 08:53:51.778006	125.1	85.3	-90.8	22.7
2025-01-16 08:53:52.925477	131.9	85.2	-91.0	18.6
2025-01-16 08:53:54.086536	138.4	85.0	-90.9	21.7
2025-01-16 08:53:55.238846	144.2	84.7	-90.9	19.7
2025-01-16 08:53:56.395292	149.5	84.4	-90.9	19.1
2025-01-16 08:53:57.555303	154.2	84.1	-91.1	19.6
2025-01-16 08:53:58.705770	158.3	83.7	-91.0	18.6
2025-01-16 08:53:59.861219	162.0	83.3	-90.6	16.4
2025-01-16 08:54:01.011385	165.2	82.9	-91.0	15.4
2025-01-16 08:54:02.170219	168.0	82.4	-90.9	16.7
2025-01-16 08:54:03.317630	170.6	82.0	-91.3	13.0
2025-01-16 08:54:04.479281	172.8	81.5	-91.2	16.1
2025-01-16 08:54:05.635489	174.8	81.0	-91.2	17.2
2025-01-16 08:54:06.789270	176.6	80.5	-91.2	12.8
2025-01-16 08:54:07.944722	178.2	80.0	-91.2	8.6
2025-01-16 08:54:09.095212	179.7	79.5	-90.9	13.8
2025-01-16 08:54:10.239134	181.0	79.0	-90.9	8.5
2025-01-16 08:54:11.406933	182.2	78.5	-91.2	7.0
2025-01-16 08:54:12.556154	183.3	78.0	-91.1	10.6
2025-01-16 08:54:13.705360	184.3	77.5	-91.1	8.1
2025-01-16 08:54:14.857247	185.2	76.9	-91.4	4.4
2025-01-16 08:54:16.010251	186.0	76.4	-90.9	9.5
2025-01-16 08:54:17.163341	186.8	75.9	-91.1	14.0
2025-01-16 08:54:18.307314	187.5	75.4	-91.1	17.6
2025-01-16 08:54:19.463503	188.2	74.9	-91.3	9.1
2025-01-16 08:54:20.620849	188.8	74.3	-90.9	8.9
2025-01-16 08:54:21.779460	189.4	73.8	-91.2	9.1
2025-01-16 08:54:22.937545	190.0	73.3	-91.4	12.0
2025-01-16 08:54:24.101711	190.5	72.8	-91.1	11.6
2025-01-16 08:54:25.245824	191.0	72.2	-90.9	13.8
2025-01-16 08:54:26.402185	191.4	71.7	-90.7	9.2
2025-01-16 08:54:27.552897	191.8	71.2	-90.5	10.8
2025-01-16 08:54:28.702844	192.3	70.7	-91.0	14.8
2025-01-16 08:54:29.866057	192.6	70.2	-90.9	10.2
2025-01-16 08:54:31.015953	193.0	69.7	-91.4	6.2
2025-01-16 08:54:32.162808	193.3	69.2	-90.8	9.5
2025-01-16 08:54:33.317183	193.7	68.6	-91.0	12.9
2025-01-16 08:54:34.475555	194.0	68.1	-91.1	8.1
2025-01-16 08:54:35.623015	194.3	67.6	-91.3	7.6
2025-01-16 08:54:36.774770	194.5	67.1	-91.3	7.7
2025-01-16 08:54:37.924998	194.8	66.6	-91.4	8.5
2025-01-16 08:54:39.084159	195.1	66.1	-91.2	9.5
2025-01-16 08:54:40.240332	195.3	65.7	-91.0	4.1
2025-01-16 08:54:41.391296	195.5	65.2	-91.1	8.5
2025-01-16 08:54:42.541270	195.8	64.7	-91.3	8.5
2025-01-16 08:54:43.695690	196.0	64.2	-91.2	6.4
2025-01-16 08:54:44.852123	196.2	63.7	-91.3	10.9
2025-01-16 08:54:46.008657	196.4	63.2	-91.4	9.9
2025-01-16 08:54:47.162691	196.6	62.8	-90.9	17.0
2025-01-16 08:54:48.314156	196.8	62.3	-91.0	17.4
2025-01-16 08:54:49.474383	196.9	61.8	-91.3	12.9
2025-01-16 08:54:50.632396	197.1	61.3	-91.2	14.1
2025-01-16 08:54:51.785908	197.3	60.9	-91.1	15.3
2025-01-16 08:54:52.933589	197.4	60.4	-91.3	14.0
2025-01-16 08:54:54.089494	197.6	60.0	-91.4	8.2
2025-01-16 08:54:55.244028	197.7	59.5	-91.3	12.0
2025-01-16 08:54:56.401509	197.9	59.1	-91.0	6.1
2025-01-16 08:54:57.549700	198.0	58.6	-90.7	6.5
2025-01-16 08:54:58.701868	198.1	58.2	-90.6	15.5
2025-01-16 08:54:59.859263	198.3	57.7	-91.0	16.2
2025-01-16 08:55:01.010027	198.4	57.3	-90.8	8.5
2025-01-16 08:55:02.164175	198.5	56.8	-90.7	17.9
2025-01-16 08:55:03.321937	198.6	56.4	-91.1	17.1
2025-01-16 08:55:04.471563	198.8	56.0	-91.0	8.2
2025-01-16 08:55:05.619143	198.9	55.6	-91.3	4.8
2025-01-16 08:55:06.775671	199.0	55.1	-91.2	15.2
2025-01-16 08:55:07.928536	199.1	54.7	-91.2	10.2
2025-01-16 08:55:09.080326	199.2	54.3	-91.3	10.2
2025-01-16 08:55:10.242131	199.3	53.9	-91.4	14.1
2025-01-16 08:55:11.399013	199.4	53.5	-91.5	11.4
2025-01-16 08:55:12.548716	199.5	53.1	-91.2	11.5
2025-01-16 08:55:13.698756	199.6	52.7	-91.0	17.5
2025-01-16 08:55:14.850286	199.7	52.3	-91.1	16.5
2025-01-16 08:55:16.012771	199.7	51.9	-91.2	13.5
2025-01-16 08:55:17.168936	199.8	51.5	-90.8	12.2
2025-01-16 08:55:18.316324	199.9	51.1	-90.8	14.4
2025-01-16 08:55:19.466009	200.0	50.7	-90.6	15.2
2025-01-16 08:55:20.621245	200.1	50.3	-91.0	15.8
2025-01-16 08:55:21.775504	200.1	49.9	-91.1	13.5
2025-01-16 08:55:22.937132	200.2	49.6	-90.9	12.5
2025-01-16 08:55:24.084143	200.3	49.2	-91.1	10.6
2025-01-16 08:55:25.241817	200.4	48.8	-91.1	15.6
2025-01-16 08:55:26.393190	200.4	48.4	-91.1	10.5
2025-01-16 08:55:27.545598	200.5	48.1	-91.3	7.7
2025-01-16 08:55:28.711085	200.6	47.7	-91.3	13.2
2025-01-16 08:55:29.863799	200.6	47.4	-91.2	12.7
2025-01-16 08:55:31.016671	200.7	47.0	-91.0	10.1
2025-01-16 08:55:32.174742	200.8	46.6	-91.2	15.1
2025-01-16 08:55:33.329675	200.8	46.3	-91.0	18.3
2025-01-16 08:55:34.480066	200.9	45.9	-91.0	14.1
2025-01-16 08:55:35.631475	200.9	45.6	-91.3	13.5
2025-01-16 08:55:36.778107	201.0	45.3	-91.3	18.2
2025-01-16 08:55:37.926298	201.1	44.9	-91.1	18.0
2025-01-16 08:55:39.091333	201.1	44.6	-90.7	19.8
2025-01-16 08:55:40.239216	201.2	44.3	-90.6	17.9
2025-01-16 08:55:41.392692	201.2	43.9	-90.8	15.5
2025-01-16 08:55:42.541872	201.3	43.6	-91.0	15.5
2025-01-16 08:55:43.690398	201.3	43.3	-90.5	18.2
2025-01-16 08:55:44.850113	201.4	42.9	-90.6	17.5
2025-01-16 08:55:46.000183	201.4	42.6	-90.7	10.6
2025-01-16 08:55:47.149887	201.5	42.3	-91.2	13.8
2025-01-16 08:55:48.304327	201.5	42.0	-91.0	16.9
2025-01-16 08:55:49.468415	201.6	41.7	-90.8	8.0
2025-01-16 08:55:50.622063	201.6	41.4	-91.0	6.1
2025-01-16 08:55:51.776881	201.7	41.1	-90.8	14.2
2025-01-16 08:55:52.927857	201.7	40.8	-90.9	8.3
2025-01-16 08:55:54.074492	201.8	40.5	-90.9	9.0
2025-01-16 08:55:55.227503	201.8	40.2	-91.1	13.4
2025-01-16 08:55:56.385985	201.8	39.9	-91.3	12.0
2025-01-16 08:55:57.544732	201.9	39.6	-91.5	11.1
2025-01-16 08:55:58.701800	201.9	39.3	-91.2	11.9
2025-01-16 08:55:59.856811	202.0	39.0	-91.2	13.1
2025-01-16 08:56:01.005894	202.0	38.7	-91.1	11.4
2025-01-16 08:56:02.153413	202.0	38.4	-91.3	9.1
2025-01-16 08:56:03.315348	202.1	38.1	-91.2	6.8
2025-01-16 08:56:04.470917	202.1	37.9	-90.9	3.4
2025-01-16 08:56:05.636784	202.2	37.6	-91.0	4.1
2025-01-16 08:56:06.785627	202.2	37.3	-91.3	4.2
2025-01-16 08:56:07.940390	202.2	37.0	-91.0	2.7
2025-01-16 08:56:09.088815	202.3	36.8	-91.4	5.9
2025-01-16 08:56:10.240693	202.3	36.5	-91.0	9.6
2025-01-16 08:56:11.390776	202.3	36.2	-91.1	10.8
2025-01-16 08:56:12.542773	202.4	36.0	-91.1	9.4
2025-01-16 08:56:13.701329	202.4	35.7	-91.3	11.2
2025-01-16 08:56:14.852580	202.4	35.4	-91.2	12.7
2025-01-16 08:56:16.005634	202.5	35.2	-91.0	10.4
2025-01-16 08:56:17.159176	202.5	34.9	-90.8	9.8
2025-01-16 08:56:18.313159	202.5	34.7	-90.6	9.0
2025-01-16 08:56:19.470245	202.6	34.4	-91.1	5.1
2025-01-16 08:56:20.631728	202.6	34.2	-90.8	4.4
2025-01-16 08:56:21.777590	202.6	33.9	-91.1	3.9
2025-01-16 08:56:22.945613	202.7	33.7	-90.7	1.3
2025-01-16 08:56:24.104226	202.7	33.4	-90.5	3.8
2025-01-16 08:56:25.261628	202.7	33.2	-90.7	5.7
2025-01-16 08:56:26.411462	202.8	32.9	-90.9	3.9
2025-01-16 08:56:27.567699	202.8	32.7	-90.8	3.2
2025-01-16 08:56:28.715780	202.8	32.5	-90.7	4.2
2025-01-16 08:56:29.866602	202.8	32.2	-90.4	3.8
2025-01-16 08:56:31.022761	202.9	32.0	-90.9	7.0
2025-01-16 08:56:32.177358	202.9	31.8	-90.6	7.3
2025-01-16 08:56:33.333355	202.9	31.5	-90.5	5.1
2025-01-16 08:56:34.482010	203.0	31.3	-90.6	4.9
2025-01-16 08:56:35.635755	203.0	31.1	-90.6	5.5
2025-01-16 08:56:36.780223	203.0	30.9	-90.3	6.1
2025-01-16 08:56:37.928881	203.0	30.7	-90.6	3.9
2025-01-16 08:56:39.077808	203.1	30.4	-90.8	3.6
2025-01-16 08:56:40.218637	203.1	30.2	-90.4	0.9
2025-01-16 08:56:41.376591	203.1	30.0	-90.5	2.5
2025-01-16 08:56:42.523461	203.1	29.8	-90.7	4.5
2025-01-16 08:56:43.683011	203.2	29.6	-90.7	6.5
2025-01-16 08:56:44.832721	203.2	29.4	-90.4	4.1
2025-01-16 08:56:45.986655	203.2	29.1	-90.7	7.3
2025-01-16 08:56:47.132974	203.2	28.9	-90.4	7.4
2025-01-16 08:56:48.288601	203.3	28.7	-90.6	9.5
2025-01-16 08:56:49.441153	203.3	28.5	-90.4	8.6
2025-01-16 08:56:50.590380	203.3	28.3	-90.9	7.9
2025-01-16 08:56:51.742319	203.3	28.1	-90.6	8.1
2025-01-16 08:56:52.894217	203.3	27.9	-90.5	5.2
2025-01-16 08:56:54.045974	203.4	27.7	-90.8	5.4
2025-01-16 08:56:55.191794	203.4	27.5	-91.0	6.4
2025-01-16 08:56:56.355822	203.4	27.3	-90.8	8.1
2025-01-16 08:56:57.507907	203.4	27.1	-91.3	6.0
2025-01-16 08:56:58.660414	203.5	26.9	-90.5	8.5
2025-01-16 08:56:59.810297	203.5	26.7	-91.0	11.0
2025-01-16 08:57:00.959556	203.5	26.5	-91.2	11.3
2025-01-16 08:57:02.123199	203.5	26.3	-90.9	12.0
2025-01-16 08:57:03.269912	203.5	26.2	-91.1	11.0
2025-01-16 08:57:04.423752	203.6	26.0	-91.2	9.2
2025-01-16 08:57:05.576955	203.6	25.8	-91.3	6.4
2025-01-16 08:57:06.727887	203.6	25.6	-91.1	9.2
2025-01-16 08:57:07.881506	203.6	25.4	-91.1	6.8
2025-01-16 08:57:09.029814	203.6	25.2	-91.4	7.0
2025-01-16 08:57:10.182662	203.7	25.1	-91.2	9.1
2025-01-16 08:57:11.336815	203.7	24.9	-91.0	7.4
2025-01-16 08:57:12.486598	203.7	24.7	-91.1	6.9
2025-01-16 08:57:13.636200	203.7	24.5	-91.2	6.8
2025-01-16 08:57:14.798462	203.7	24.3	-91.4	7.4
2025-01-16 08:57:15.947024	203.8	24.2	-91.3	7.9
2025-01-16 08:57:17.100632	203.8	24.0	-91.2	6.9
2025-01-16 08:57:18.249152	203.8	23.8	-91.2	8.2
2025-01-16 08:57:19.409470	203.8	23.6	-91.2	7.1
2025-01-16 08:57:20.563146	203.8	23.5	-91.0	7.1
2025-01-16 08:57:21.727112	203.8	23.3	-90.7	7.5
2025-01-16 08:57:22.879100	203.9	23.1	-91.0	5.5
2025-01-16 08:57:24.039553	203.9	23.0	-91.2	3.1
2025-01-16 08:57:25.188705	203.9	22.8	-90.9	6.9
2025-01-16 08:57:26.344853	203.9	22.6	-91.3	7.0
2025-01-16 08:57:27.496895	203.9	22.5	-91.3	5.4
2025-01-16 08:57:28.646732	204.0	22.3	-91.2	8.1
2025-01-16 08:57:29.805401	204.0	22.1	-91.1	9.4
2025-01-16 08:57:30.959415	204.0	22.0	-91.2	9.0
2025-01-16 08:57:32.109176	204.0	21.8	-91.0	8.1
2025-01-16 08:57:33.261872	204.0	21.7	-91.4	8.0
2025-01-16 08:57:34.417596	204.0	21.5	-91.3	6.5
2025-01-16 08:57:35.572877	204.1	21.3	-91.3	5.6
2025-01-16 08:57:36.730737	204.1	21.2	-91.2	8.2
2025-01-16 08:57:37.880315	204.1	21.0	-91.0	7.0
2025-01-16 08:57:39.031118	204.1	20.9	-91.0	6.5
2025-01-16 08:57:40.188290	204.1	20.7	-91.0	8.1
2025-01-16 08:57:41.338572	204.1	20.6	-91.1	7.6
2025-01-16 08:57:42.495951	204.2	20.4	-91.4	8.8
2025-01-16 08:57:43.653277	204.2	20.3	-91.2	7.9
2025-01-16 08:57:44.807555	204.2	20.1	-91.4	5.0
2025-01-16 08:57:45.964587	204.2	20.0	-91.1	6.8
2025-01-16 08:57:47.130531	204.2	19.8	-91.1	5.4
2025-01-16 08:57:48.285950	204.2	19.7	-91.2	5.1
2025-01-16 08:57:49.437746	204.2	19.5	-91.3	4.0
2025-01-16 08:57:50.586454	204.3	19.4	-91.1	1.5
2025-01-16 08:57:51.742098	204.3	19.2	-91.2	3.0
2025-01-16 08:57:52.903005	204.3	19.1	-91.1	3.4
2025-01-16 08:57:54.057059	204.3	18.9	-91.4	4.8
2025-01-16 08:57:55.216715	204.3	18.8	-91.2	3.1
2025-01-16 08:57:56.368863	204.3	18.7	-91.4	3.1
2025-01-16 08:57:57.519219	204.3	18.5	-91.4	1.7
2025-01-16 08:57:58.670858	204.4	18.4	-91.1	3.5
2025-01-16 08:57:59.824131	204.4	18.2	-91.3	2.7
2025-01-16 08:58:00.974874	204.4	18.1	-91.4	3.7
2025-01-16 08:58:02.127604	204.4	18.0	-91.2	1.6
2025-01-16 08:58:03.287052	204.4	17.8	-91.0	1.7
2025-01-16 08:58:04.442697	204.4	17.7	-91.3	2.9
2025-01-16 08:58:05.590509	204.4	17.6	-91.1	2.7
2025-01-16 08:58:06.744813	204.5	17.4	-91.2	2.8
2025-01-16 08:58:07.910791	204.5	17.3	-91.3	3.0
2025-01-16 08:58:09.062907	204.5	17.2	-91.1	1.3
2025-01-16 08:58:10.200296	204.5	17.0	-91.1	1.5
2025-01-16 08:58:11.352030	204.5	16.9	-91.2	2.3
2025-01-16 08:58:12.506010	204.5	16.8	-91.5	3.5
2025-01-16 08:58:13.658716	204.5	16.6	-91.0	3.0
2025-01-16 08:58:14.812802	204.6	16.5	-90.8	1.8
2025-01-16 08:58:15.967182	204.6	16.4	-90.7	2.8
2025-01-16 08:58:17.115376	204.6	16.2	-91.2	2.5
2025-01-16 08:58:18.267878	204.6	16.1	-90.5	4.1
2025-01-16 08:58:19.422160	204.6	16.0	-91.1	2.5
2025-01-16 08:58:20.576940	204.6	15.9	-91.0	1.6
2025-01-16 08:58:21.721502	204.6	15.7	-91.2	4.0
2025-01-16 08:58:22.881159	204.6	15.6	-91.0	4.5
2025-01-16 08:58:24.037111	204.7	15.5	-90.9	3.9
2025-01-16 08:58:25.190746	204.7	15.4	-90.9	3.3
2025-01-16 08:58:26.345281	204.7	15.2	-91.0	2.9
2025-01-16 08:58:27.492364	204.7	15.1	-90.9	4.1
2025-01-16 08:58:28.638891	204.7	15.0	-90.8	4.1
2025-01-16 08:58:29.787942	204.7	14.9	-91.1	5.5
2025-01-16 08:58:30.936563	204.7	14.8	-91.0	4.4
2025-01-16 08:58:32.087331	204.7	14.6	-90.5	5.8
2025-01-16 08:58:33.236157	204.7	14.5	-91.1	5.2
#Closed at: 2025-01-16 08:49:16.757589