passes_logs/2025/01/16/LEX_Murmansk/LEX_Murmansk__20250116_105500_NOAA_18_rec.log

#Pass ID: 20250116_105500_NOAA 18
#Satellite: NOAA 18
#Configuration: NOAA 18
#Start time: 2025-01-16 10:54:55.492865

#LorettStation: 1.0.0 05.05.2024
#Station: LEX_Murmansk
#Location: 33.156738 lon 68.926811 lat
#TLE: 1 28654U 05018A   25015.16278545  .00000300  00000+0  18295-3 0  9990
#TLE: 2 28654  98.8567  96.2156 0014367 178.7074 181.4138 14.13486503 13201

#Time	Az	El	Level	SNR
2025-01-16 10:55:07.739287	23.4	16.3	-90.6	4.9
2025-01-16 10:55:08.905317	23.4	16.4	-90.7	5.7
2025-01-16 10:55:10.069566	23.3	16.5	-90.9	5.5
2025-01-16 10:55:11.228577	23.2	16.7	-90.7	5.2
2025-01-16 10:55:12.387099	23.2	16.8	-90.4	5.4
2025-01-16 10:55:13.547272	23.1	16.9	-90.9	5.5
2025-01-16 10:55:14.710690	23.0	17.0	-91.0	7.2
2025-01-16 10:55:15.872572	23.0	17.2	-90.8	8.6
2025-01-16 10:55:17.027729	22.9	17.3	-90.8	7.4
2025-01-16 10:55:18.184584	22.9	17.4	-90.9	9.5
2025-01-16 10:55:19.344501	22.8	17.6	-91.2	8.7
2025-01-16 10:55:20.497241	22.7	17.7	-90.7	7.6
2025-01-16 10:55:21.658310	22.7	17.8	-91.1	6.3
2025-01-16 10:55:22.823360	22.6	18.0	-91.1	8.5
2025-01-16 10:55:23.983197	22.5	18.1	-91.2	4.5
2025-01-16 10:55:25.144251	22.5	18.2	-91.3	7.9
2025-01-16 10:55:26.309346	22.4	18.4	-91.1	9.1
2025-01-16 10:55:27.470976	22.3	18.5	-91.1	13.4
2025-01-16 10:55:28.639411	22.3	18.6	-91.0	9.1
2025-01-16 10:55:29.799917	22.2	18.8	-91.0	11.9
2025-01-16 10:55:30.968230	22.1	18.9	-91.0	8.0
2025-01-16 10:55:32.129323	22.0	19.0	-90.6	10.1
2025-01-16 10:55:33.293974	22.0	19.2	-90.8	10.6
2025-01-16 10:55:34.454011	21.9	19.3	-91.2	10.7
2025-01-16 10:55:35.614770	21.8	19.5	-91.3	8.1
2025-01-16 10:55:36.778374	21.8	19.6	-91.3	10.1
2025-01-16 10:55:37.935543	21.7	19.7	-91.3	5.7
2025-01-16 10:55:39.100173	21.6	19.9	-91.2	2.7
2025-01-16 10:55:40.256597	21.5	20.0	-91.1	9.7
2025-01-16 10:55:41.426635	21.5	20.2	-91.2	9.5
2025-01-16 10:55:42.579023	21.4	20.3	-91.4	9.8
2025-01-16 10:55:43.749752	21.3	20.5	-91.3	9.9
2025-01-16 10:55:44.911441	21.2	20.6	-91.1	10.2
2025-01-16 10:55:46.077945	21.1	20.8	-91.1	8.7
2025-01-16 10:55:47.232480	21.1	20.9	-91.0	11.4
2025-01-16 10:55:48.383076	21.0	21.0	-91.3	10.7
2025-01-16 10:55:49.543733	20.9	21.2	-91.4	13.7
2025-01-16 10:55:50.702680	20.8	21.3	-91.2	10.9
2025-01-16 10:55:51.856405	20.7	21.5	-91.4	9.4
2025-01-16 10:55:53.020289	20.6	21.6	-91.0	6.3
2025-01-16 10:55:54.177666	20.6	21.8	-90.8	9.4
2025-01-16 10:55:55.335887	20.5	22.0	-90.8	8.5
2025-01-16 10:55:56.493316	20.4	22.1	-91.0	6.6
2025-01-16 10:55:57.651501	20.3	22.3	-91.1	13.6
2025-01-16 10:55:58.811500	20.2	22.4	-91.1	13.5
2025-01-16 10:55:59.969211	20.1	22.6	-91.2	15.9
2025-01-16 10:56:01.125372	20.0	22.7	-91.5	13.1
2025-01-16 10:56:02.283344	19.9	22.9	-91.3	14.5
2025-01-16 10:56:03.442643	19.8	23.0	-91.5	10.9
2025-01-16 10:56:04.602818	19.7	23.2	-91.5	11.8
2025-01-16 10:56:05.766636	19.7	23.4	-91.0	13.4
2025-01-16 10:56:06.932904	19.6	23.5	-90.9	12.4
2025-01-16 10:56:08.096228	19.5	23.7	-90.7	10.4
2025-01-16 10:56:09.259997	19.4	23.9	-90.7	10.5
2025-01-16 10:56:10.433372	19.3	24.0	-91.0	6.4
2025-01-16 10:56:11.587754	19.2	24.2	-91.1	4.9
2025-01-16 10:56:12.746698	19.1	24.4	-91.2	9.1
2025-01-16 10:56:13.908989	19.0	24.5	-91.3	6.8
2025-01-16 10:56:15.074852	18.8	24.7	-91.2	11.2
2025-01-16 10:56:16.244341	18.7	24.9	-91.2	7.5
2025-01-16 10:56:17.400831	18.6	25.0	-91.4	10.8
2025-01-16 10:56:18.566414	18.5	25.2	-91.0	9.2
2025-01-16 10:56:19.734381	18.4	25.4	-91.3	11.7
2025-01-16 10:56:20.889845	18.3	25.6	-91.3	9.2
2025-01-16 10:56:22.040638	18.2	25.7	-91.3	10.3
2025-01-16 10:56:23.201105	18.1	25.9	-91.3	9.8
2025-01-16 10:56:24.366803	18.0	26.1	-91.2	10.3
2025-01-16 10:56:25.529684	17.9	26.3	-91.2	7.9
2025-01-16 10:56:26.688948	17.7	26.4	-91.2	9.7
2025-01-16 10:56:27.847715	17.6	26.6	-90.9	6.2
2025-01-16 10:56:29.005215	17.5	26.8	-91.3	5.0
2025-01-16 10:56:30.170249	17.4	27.0	-91.4	9.4
2025-01-16 10:56:31.329319	17.3	27.2	-91.1	9.6
2025-01-16 10:56:32.484663	17.1	27.4	-91.1	7.8
2025-01-16 10:56:33.646437	17.0	27.5	-91.4	12.6
2025-01-16 10:56:34.811186	16.9	27.7	-91.5	14.0
2025-01-16 10:56:35.973104	16.8	27.9	-91.2	9.7
2025-01-16 10:56:37.131483	16.6	28.1	-91.2	11.6
2025-01-16 10:56:38.296320	16.5	28.3	-91.2	9.4
2025-01-16 10:56:39.458805	16.4	28.5	-91.3	8.0
2025-01-16 10:56:40.616806	16.2	28.7	-91.3	11.0
2025-01-16 10:56:41.778555	16.1	28.9	-91.3	8.9
2025-01-16 10:56:42.946640	16.0	29.1	-90.7	8.4
2025-01-16 10:56:44.103473	15.8	29.3	-91.0	4.8
2025-01-16 10:56:45.268166	15.7	29.5	-91.1	9.1
2025-01-16 10:56:46.430711	15.5	29.7	-91.0	5.1
2025-01-16 10:56:47.590837	15.4	29.8	-91.0	5.7
2025-01-16 10:56:48.746964	15.2	30.0	-91.1	10.4
2025-01-16 10:56:49.907799	15.1	30.2	-90.8	9.6
2025-01-16 10:56:51.067549	14.9	30.5	-90.7	11.8
2025-01-16 10:56:52.230843	14.8	30.7	-91.0	11.9
2025-01-16 10:56:53.383309	14.6	30.9	-91.2	9.9
2025-01-16 10:56:54.542532	14.5	31.1	-91.1	10.6
2025-01-16 10:56:55.699437	14.3	31.3	-90.9	12.8
2025-01-16 10:56:56.865965	14.2	31.5	-90.8	11.2
2025-01-16 10:56:58.022202	14.0	31.7	-91.1	9.5
2025-01-16 10:56:59.176409	13.8	31.9	-91.0	11.3
2025-01-16 10:57:00.334482	13.7	32.1	-91.0	12.9
2025-01-16 10:57:01.493849	13.5	32.3	-90.9	10.2
2025-01-16 10:57:02.661289	13.3	32.5	-91.2	9.5
2025-01-16 10:57:03.826200	13.1	32.8	-91.1	10.0
2025-01-16 10:57:04.978895	13.0	33.0	-91.1	4.6
2025-01-16 10:57:06.136353	12.8	33.2	-90.8	11.1
2025-01-16 10:57:07.292636	12.6	33.4	-91.1	14.6
2025-01-16 10:57:08.453007	12.4	33.6	-91.1	14.2
2025-01-16 10:57:09.616003	12.2	33.9	-90.9	14.5
2025-01-16 10:57:10.779492	12.0	34.1	-90.8	14.4
2025-01-16 10:57:11.935912	11.9	34.3	-90.9	13.5
2025-01-16 10:57:13.090854	11.7	34.5	-91.0	9.5
2025-01-16 10:57:14.256655	11.5	34.8	-90.9	13.4
2025-01-16 10:57:15.411717	11.3	35.0	-91.1	9.5
2025-01-16 10:57:16.564600	11.1	35.2	-91.3	11.9
2025-01-16 10:57:17.720517	10.9	35.4	-91.3	15.8
2025-01-16 10:57:18.884294	10.6	35.7	-91.2	15.6
2025-01-16 10:57:20.039556	10.4	35.9	-91.4	16.0
2025-01-16 10:57:21.198234	10.2	36.1	-91.3	15.0
2025-01-16 10:57:22.363976	10.0	36.4	-91.3	15.6
2025-01-16 10:57:23.520460	9.8	36.6	-91.1	7.3
2025-01-16 10:57:24.678604	9.6	36.8	-91.2	15.4
2025-01-16 10:57:25.834348	9.3	37.1	-91.3	15.7
2025-01-16 10:57:26.989964	9.1	37.3	-91.3	14.3
2025-01-16 10:57:28.147046	8.9	37.6	-91.6	17.1
2025-01-16 10:57:29.299628	8.6	37.8	-91.4	17.3
2025-01-16 10:57:30.468051	8.4	38.0	-91.3	15.3
2025-01-16 10:57:31.626600	8.1	38.3	-91.2	15.5
2025-01-16 10:57:32.789147	7.9	38.5	-91.1	18.1
2025-01-16 10:57:33.950955	7.6	38.8	-91.1	13.8
2025-01-16 10:57:35.124948	7.4	39.0	-90.9	14.0
2025-01-16 10:57:36.292257	7.1	39.3	-91.3	16.4
2025-01-16 10:57:37.457171	6.8	39.5	-91.1	18.8
2025-01-16 10:57:38.617263	6.6	39.8	-91.3	18.7
2025-01-16 10:57:39.776128	6.3	40.0	-91.3	17.6
2025-01-16 10:57:40.939103	6.0	40.3	-91.4	13.0
2025-01-16 10:57:42.096144	5.7	40.6	-91.2	9.5
2025-01-16 10:57:43.252888	5.5	40.8	-91.1	18.4
2025-01-16 10:57:44.407853	5.2	41.1	-91.5	10.5
2025-01-16 10:57:45.570754	4.9	41.3	-91.2	8.1
2025-01-16 10:57:46.729343	4.6	41.6	-91.2	16.6
2025-01-16 10:57:47.878447	4.3	41.8	-91.5	14.1
2025-01-16 10:57:49.038255	3.9	42.1	-91.0	18.1
2025-01-16 10:57:50.206134	3.6	42.4	-91.0	19.5
2025-01-16 10:57:51.363866	3.3	42.6	-91.1	20.9
2025-01-16 10:57:52.524025	3.0	42.9	-91.2	15.9
2025-01-16 10:57:53.687117	2.6	43.1	-91.4	19.6
2025-01-16 10:57:54.844126	2.3	43.4	-91.3	18.2
2025-01-16 10:57:56.002296	2.0	43.7	-91.5	13.5
2025-01-16 10:57:57.164053	1.6	43.9	-91.5	18.4
2025-01-16 10:57:58.317081	1.3	44.2	-91.3	18.4
2025-01-16 10:57:59.482577	0.9	44.5	-91.2	18.6
2025-01-16 10:58:00.646161	0.5	44.7	-91.2	18.0
2025-01-16 10:58:01.805520	0.1	45.0	-91.3	14.4
2025-01-16 10:58:02.971928	359.8	45.3	-91.1	10.0
2025-01-16 10:58:04.126925	359.4	45.5	-91.3	11.6
2025-01-16 10:58:05.293265	359.0	45.8	-91.1	13.5
2025-01-16 10:58:06.455625	358.6	46.1	-91.3	6.9
2025-01-16 10:58:07.611510	358.2	46.4	-91.2	10.2
2025-01-16 10:58:08.769095	357.8	46.6	-91.1	14.3
2025-01-16 10:58:09.928423	357.3	46.9	-91.3	13.3
2025-01-16 10:58:11.085206	356.9	47.2	-91.2	12.7
2025-01-16 10:58:12.240852	356.5	47.4	-91.1	15.9
2025-01-16 10:58:13.374579	356.0	47.7	-91.0	17.0
2025-01-16 10:58:14.532148	355.6	48.0	-91.2	16.9
2025-01-16 10:58:15.693049	355.1	48.2	-91.3	16.1
2025-01-16 10:58:16.858696	354.6	48.5	-91.1	16.7
2025-01-16 10:58:18.012800	354.2	48.8	-91.2	10.3
2025-01-16 10:58:19.173599	353.7	49.0	-91.2	16.6
2025-01-16 10:58:20.332009	353.2	49.3	-91.1	13.3
2025-01-16 10:58:21.493016	352.7	49.6	-91.0	9.1
2025-01-16 10:58:22.649161	352.2	49.8	-91.2	10.1
2025-01-16 10:58:23.809775	351.7	50.1	-91.2	9.4
2025-01-16 10:58:24.971852	351.1	50.4	-91.4	11.2
2025-01-16 10:58:26.134369	350.6	50.6	-91.7	13.7
2025-01-16 10:58:27.293279	350.0	50.9	-91.0	12.8
2025-01-16 10:58:28.456296	349.5	51.1	-91.2	11.5
2025-01-16 10:58:29.616418	348.9	51.4	-91.4	13.3
2025-01-16 10:58:30.773033	348.3	51.7	-91.5	17.1
2025-01-16 10:58:31.932109	347.7	51.9	-91.1	7.2
2025-01-16 10:58:33.090499	347.1	52.2	-91.3	7.9
2025-01-16 10:58:34.248494	346.5	52.4	-91.5	10.6
2025-01-16 10:58:35.419354	345.9	52.7	-91.5	5.5
2025-01-16 10:58:36.578440	345.3	52.9	-91.6	6.7
2025-01-16 10:58:37.740639	344.6	53.1	-91.3	11.0
2025-01-16 10:58:38.895792	344.0	53.4	-91.3	15.4
2025-01-16 10:58:40.052451	343.3	53.6	-91.0	14.8
2025-01-16 10:58:41.214241	342.7	53.9	-91.1	14.8
2025-01-16 10:58:42.376891	342.0	54.1	-91.0	17.4
2025-01-16 10:58:43.538592	341.3	54.3	-91.2	15.9
2025-01-16 10:58:44.696027	340.6	54.5	-91.4	14.5
2025-01-16 10:58:45.849361	339.9	54.8	-91.4	13.2
2025-01-16 10:58:47.011452	339.1	55.0	-91.6	10.1
2025-01-16 10:58:48.164193	338.4	55.2	-91.3	11.3
2025-01-16 10:58:49.326854	337.6	55.4	-91.5	16.2
2025-01-16 10:58:50.481124	336.9	55.6	-91.3	11.8
2025-01-16 10:58:51.634236	336.1	55.8	-91.4	15.3
2025-01-16 10:58:52.794521	335.3	56.0	-91.2	20.1
2025-01-16 10:58:53.958245	334.5	56.2	-91.4	18.3
2025-01-16 10:58:55.122147	333.7	56.4	-91.3	18.9
2025-01-16 10:58:56.286548	332.9	56.6	-90.9	16.1
2025-01-16 10:58:57.445521	332.1	56.8	-91.2	16.8
2025-01-16 10:58:58.601343	331.2	56.9	-91.5	10.8
2025-01-16 10:58:59.762195	330.4	57.1	-90.4	11.5
2025-01-16 10:59:00.913461	329.5	57.3	-91.4	14.3
2025-01-16 10:59:02.082215	328.6	57.4	-91.2	15.1
2025-01-16 10:59:03.243336	327.7	57.6	-91.4	19.7
2025-01-16 10:59:04.412459	326.9	57.7	-91.2	14.7
2025-01-16 10:59:05.568363	326.0	57.8	-91.3	13.9
2025-01-16 10:59:06.728074	325.0	58.0	-91.2	20.2
2025-01-16 10:59:07.885812	324.1	58.1	-91.0	11.8
2025-01-16 10:59:09.038212	323.2	58.2	-90.9	9.5
2025-01-16 10:59:10.201530	322.3	58.3	-90.8	15.2
2025-01-16 10:59:11.359772	321.3	58.4	-91.2	17.0
2025-01-16 10:59:12.519227	320.4	58.5	-91.2	11.6
2025-01-16 10:59:13.679149	319.4	58.6	-91.6	20.0
2025-01-16 10:59:14.831715	318.5	58.7	-91.4	20.0
2025-01-16 10:59:15.995536	317.5	58.8	-91.3	14.9
2025-01-16 10:59:17.156862	316.5	58.8	-91.3	18.3
2025-01-16 10:59:18.311103	315.5	58.9	-91.3	19.2
2025-01-16 10:59:19.471669	314.6	58.9	-91.5	16.7
2025-01-16 10:59:20.624547	313.6	59.0	-91.2	17.9
2025-01-16 10:59:21.789550	312.6	59.0	-91.2	18.7
2025-01-16 10:59:22.958340	311.6	59.1	-91.4	19.9
2025-01-16 10:59:24.118558	310.6	59.1	-91.1	18.4
2025-01-16 10:59:25.272600	309.6	59.1	-91.1	20.4
2025-01-16 10:59:26.435920	308.6	59.1	-91.3	17.7
2025-01-16 10:59:27.596997	307.6	59.1	-91.1	17.5
2025-01-16 10:59:28.749155	306.6	59.1	-91.2	17.4
2025-01-16 10:59:29.906874	305.6	59.1	-91.3	19.0
2025-01-16 10:59:31.067479	304.6	59.0	-91.4	18.0
2025-01-16 10:59:32.232152	303.7	59.0	-91.2	19.1
2025-01-16 10:59:33.396248	302.7	58.9	-91.3	16.0
2025-01-16 10:59:34.560895	301.7	58.9	-91.4	15.1
2025-01-16 10:59:35.727856	300.7	58.8	-91.1	20.2
2025-01-16 10:59:36.890909	299.7	58.8	-91.5	17.3
2025-01-16 10:59:38.063086	298.7	58.7	-91.7	13.8
2025-01-16 10:59:39.216898	297.8	58.6	-91.7	17.6
2025-01-16 10:59:40.372614	296.8	58.5	-91.7	13.3
2025-01-16 10:59:41.539768	295.9	58.4	-91.6	8.5
2025-01-16 10:59:42.703309	294.9	58.3	-91.6	15.6
2025-01-16 10:59:43.867993	294.0	58.2	-91.5	11.0
2025-01-16 10:59:45.027332	293.1	58.1	-91.0	11.7
2025-01-16 10:59:46.185762	292.1	58.0	-91.1	17.2
2025-01-16 10:59:47.347605	291.2	57.8	-91.5	17.7
2025-01-16 10:59:48.507685	290.3	57.7	-91.3	10.0
2025-01-16 10:59:49.674550	289.4	57.6	-90.8	17.7
2025-01-16 10:59:50.830728	288.5	57.4	-91.3	16.4
2025-01-16 10:59:51.985869	287.7	57.3	-91.5	11.8
2025-01-16 10:59:53.152526	286.8	57.1	-91.2	11.8
2025-01-16 10:59:54.308222	286.0	56.9	-91.3	14.7
2025-01-16 10:59:55.472786	285.1	56.7	-91.3	6.9
2025-01-16 10:59:56.640437	284.3	56.6	-91.8	14.1
2025-01-16 10:59:57.801558	283.5	56.4	-91.4	18.3
2025-01-16 10:59:58.958946	282.6	56.2	-91.5	7.3
2025-01-16 11:00:00.118099	281.8	56.0	-91.5	8.9
2025-01-16 11:00:01.276225	281.1	55.8	-91.7	16.7
2025-01-16 11:00:02.429150	280.3	55.6	-91.8	8.8
2025-01-16 11:00:03.595729	279.5	55.4	-91.7	8.5
2025-01-16 11:00:04.756647	278.8	55.2	-91.8	12.1
2025-01-16 11:00:05.933106	278.0	55.0	-91.4	7.8
2025-01-16 11:00:07.089505	277.3	54.7	-91.5	6.1
2025-01-16 11:00:08.254058	276.6	54.5	-91.2	15.0
2025-01-16 11:00:09.412961	275.9	54.3	-91.4	9.6
2025-01-16 11:00:10.577087	275.2	54.1	-91.2	7.5
2025-01-16 11:00:11.740375	274.5	53.8	-91.3	13.2
2025-01-16 11:00:12.903036	273.8	53.6	-91.4	11.0
2025-01-16 11:00:14.060567	273.1	53.4	-91.6	10.7
2025-01-16 11:00:15.219606	272.5	53.1	-91.4	16.2
2025-01-16 11:00:16.380370	271.8	52.9	-91.2	16.9
2025-01-16 11:00:17.544621	271.2	52.6	-91.1	11.6
2025-01-16 11:00:18.697163	270.6	52.4	-90.5	20.2
2025-01-16 11:00:19.861787	270.0	52.1	-91.4	18.7
2025-01-16 11:00:21.022294	269.4	51.9	-91.6	15.1
2025-01-16 11:00:22.178810	268.8	51.6	-90.1	19.5
2025-01-16 11:00:23.337811	268.2	51.4	-90.6	20.8
2025-01-16 11:00:24.495152	267.6	51.1	-90.0	15.4
2025-01-16 11:00:25.657850	267.1	50.8	-91.6	15.6
2025-01-16 11:00:26.823108	266.5	50.6	-91.5	21.1
2025-01-16 11:00:27.980827	266.0	50.3	-91.4	19.7
2025-01-16 11:00:29.140085	265.4	50.0	-91.6	19.0
2025-01-16 11:00:30.298938	264.9	49.8	-91.6	20.6
2025-01-16 11:00:31.460335	264.4	49.5	-91.6	19.4
2025-01-16 11:00:32.622118	263.9	49.2	-91.3	19.3
2025-01-16 11:00:33.783471	263.4	49.0	-91.0	19.0
2025-01-16 11:00:34.941755	262.9	48.7	-91.8	20.7
2025-01-16 11:00:36.106871	262.4	48.4	-91.6	19.3
2025-01-16 11:00:37.266928	262.0	48.2	-91.5	20.4
2025-01-16 11:00:38.427981	261.5	47.9	-91.7	20.3
2025-01-16 11:00:39.580693	261.1	47.6	-91.4	21.0
2025-01-16 11:00:40.739098	260.6	47.4	-91.4	22.6
2025-01-16 11:00:41.899094	260.2	47.1	-91.5	22.4
2025-01-16 11:00:43.058715	259.7	46.8	-91.4	18.3
2025-01-16 11:00:44.214862	259.3	46.6	-91.4	22.8
2025-01-16 11:00:45.369844	258.9	46.3	-91.4	19.8
2025-01-16 11:00:46.527146	258.5	46.0	-91.4	18.5
2025-01-16 11:00:47.687243	258.1	45.7	-91.6	18.7
2025-01-16 11:00:48.846400	257.7	45.5	-91.6	23.8
2025-01-16 11:00:50.003036	257.3	45.2	-89.8	15.8
2025-01-16 11:00:51.158370	256.9	44.9	-90.0	20.9
2025-01-16 11:00:52.323416	256.6	44.7	-89.4	23.2
2025-01-16 11:00:53.480626	256.2	44.4	-91.3	17.3
2025-01-16 11:00:54.640701	255.8	44.1	-88.2	18.4
2025-01-16 11:00:55.797470	255.5	43.9	-87.6	17.8
2025-01-16 11:00:56.960047	255.1	43.6	-87.7	13.0
2025-01-16 11:00:58.111995	254.8	43.3	-86.1	11.9
2025-01-16 11:00:59.281343	254.4	43.1	-91.3	23.3
2025-01-16 11:01:00.442390	254.1	42.8	-90.6	18.4
2025-01-16 11:01:01.600700	253.8	42.5	-91.5	21.5
2025-01-16 11:01:02.755917	253.5	42.3	-91.6	20.4
2025-01-16 11:01:03.919235	253.1	42.0	-91.6	22.4
2025-01-16 11:01:05.082772	252.8	41.7	-91.3	21.1
2025-01-16 11:01:06.238717	252.5	41.5	-91.3	22.1
2025-01-16 11:01:07.396855	252.2	41.2	-91.6	22.4
2025-01-16 11:01:08.552308	251.9	41.0	-91.6	22.0
2025-01-16 11:01:09.703225	251.6	40.7	-91.2	19.4
2025-01-16 11:01:10.864809	251.3	40.4	-91.6	22.1
2025-01-16 11:01:12.029056	251.1	40.2	-91.7	14.8
2025-01-16 11:01:13.185373	250.8	39.9	-91.2	15.6
2025-01-16 11:01:14.353890	250.5	39.7	-91.4	13.5
2025-01-16 11:01:15.516036	250.2	39.4	-91.4	11.0
2025-01-16 11:01:16.680277	250.0	39.2	-91.1	11.9
2025-01-16 11:01:17.838593	249.7	38.9	-91.5	14.8
2025-01-16 11:01:18.992530	249.4	38.7	-91.4	7.0
2025-01-16 11:01:20.156015	249.2	38.4	-91.1	11.3
2025-01-16 11:01:21.318482	248.9	38.2	-91.5	11.8
2025-01-16 11:01:22.483039	248.7	37.9	-91.4	6.0
2025-01-16 11:01:23.656118	248.4	37.7	-91.7	9.5
2025-01-16 11:01:24.812859	248.2	37.4	-91.2	13.9
2025-01-16 11:01:25.976961	248.0	37.2	-87.3	7.1
2025-01-16 11:01:27.142897	247.7	37.0	-87.6	8.7
2025-01-16 11:01:28.304623	247.5	36.7	-86.6	10.5
2025-01-16 11:01:29.467615	247.3	36.5	-87.0	7.4
2025-01-16 11:01:30.636597	247.1	36.2	-91.0	11.3
2025-01-16 11:01:31.795320	246.8	36.0	-87.1	10.1
2025-01-16 11:01:32.954929	246.6	35.8	-89.6	11.0
2025-01-16 11:01:34.114292	246.4	35.5	-89.0	9.5
2025-01-16 11:01:35.281639	246.2	35.3	-89.4	6.3
2025-01-16 11:01:36.444843	246.0	35.1	-88.9	5.3
2025-01-16 11:01:37.609643	245.8	34.8	-91.1	7.3
2025-01-16 11:01:38.767565	245.6	34.6	-91.2	13.8
2025-01-16 11:01:39.923052	245.4	34.4	-91.2	9.1
2025-01-16 11:01:41.084804	245.2	34.1	-91.4	10.2
2025-01-16 11:01:42.248648	245.0	33.9	-91.8	8.2
2025-01-16 11:01:43.408095	244.8	33.7	-91.7	10.3
2025-01-16 11:01:44.585046	244.6	33.5	-91.4	9.2
2025-01-16 11:01:45.749419	244.4	33.2	-91.4	9.3
2025-01-16 11:01:46.915977	244.3	33.0	-91.2	13.6
2025-01-16 11:01:48.078735	244.1	32.8	-91.4	14.7
2025-01-16 11:01:49.241545	243.9	32.6	-91.8	17.0
2025-01-16 11:01:50.403000	243.7	32.4	-91.5	17.8
2025-01-16 11:01:51.565363	243.5	32.2	-91.3	16.8
2025-01-16 11:01:52.729498	243.4	31.9	-91.3	15.1
2025-01-16 11:01:53.893513	243.2	31.7	-91.3	14.2
2025-01-16 11:01:55.052275	243.0	31.5	-91.3	10.7
2025-01-16 11:01:56.216831	242.9	31.3	-91.1	17.2
2025-01-16 11:01:57.367282	242.7	31.1	-91.6	13.4
2025-01-16 11:01:58.524960	242.6	30.9	-91.3	11.2
2025-01-16 11:01:59.686366	242.4	30.7	-91.2	16.6
2025-01-16 11:02:00.841478	242.3	30.5	-91.3	17.3
2025-01-16 11:02:02.001112	242.1	30.3	-91.5	16.0
2025-01-16 11:02:03.162766	241.9	30.1	-91.5	17.5
2025-01-16 11:02:04.316815	241.8	29.9	-91.5	16.6
2025-01-16 11:02:05.481327	241.7	29.7	-91.5	18.2
2025-01-16 11:02:06.645969	241.5	29.5	-91.4	18.0
2025-01-16 11:02:07.808099	241.4	29.3	-91.5	17.3
2025-01-16 11:02:08.965960	241.2	29.1	-91.4	14.5
2025-01-16 11:02:10.128770	241.1	28.9	-91.4	13.9
2025-01-16 11:02:11.290944	240.9	28.7	-91.3	17.0
2025-01-16 11:02:12.448325	240.8	28.5	-90.9	11.7
2025-01-16 11:02:13.609948	240.7	28.3	-90.9	12.9
2025-01-16 11:02:14.776705	240.5	28.1	-91.6	20.2
2025-01-16 11:02:15.941229	240.4	27.9	-88.7	11.1
2025-01-16 11:02:17.104975	240.3	27.7	-89.2	14.0
2025-01-16 11:02:18.261220	240.1	27.5	-90.8	19.3
2025-01-16 11:02:19.410701	240.0	27.3	-91.4	18.2
2025-01-16 11:02:20.561746	239.9	27.2	-91.3	18.6
2025-01-16 11:02:21.701302	239.8	27.0	-91.6	18.0
2025-01-16 11:02:22.828483	239.7	26.8	-91.4	13.5
2025-01-16 11:02:23.949675	239.5	26.6	-91.4	11.8
2025-01-16 11:02:25.070549	239.4	26.4	-91.5	10.4
2025-01-16 11:02:26.191583	239.3	26.3	-91.4	10.7
2025-01-16 11:02:27.312615	239.2	26.1	-91.3	8.7
2025-01-16 11:02:28.433158	239.1	25.9	-91.6	3.6
2025-01-16 11:02:29.553041	239.0	25.7	-91.2	6.2
2025-01-16 11:02:30.677757	238.9	25.6	-91.6	8.5
2025-01-16 11:02:31.808541	238.8	25.4	-91.3	6.0
2025-01-16 11:02:32.972174	238.6	25.2	-91.5	6.9
2025-01-16 11:02:34.134416	238.5	25.1	-91.4	8.4
2025-01-16 11:02:35.296031	238.4	24.9	-91.1	5.3
2025-01-16 11:02:36.450077	238.3	24.7	-91.0	7.5
2025-01-16 11:02:37.611300	238.2	24.5	-91.0	2.9
2025-01-16 11:02:38.765394	238.1	24.4	-90.9	6.5
2025-01-16 11:02:39.927650	238.0	24.2	-91.1	4.8
2025-01-16 11:02:41.088981	237.9	24.0	-89.6	5.4
2025-01-16 11:02:42.246244	237.8	23.9	-91.5	5.2
2025-01-16 11:02:43.405672	237.7	23.7	-90.4	4.7
2025-01-16 11:02:44.567225	237.6	23.5	-91.5	5.8
2025-01-16 11:02:45.729247	237.5	23.4	-92.0	3.8
2025-01-16 11:02:46.895968	237.4	23.2	-92.0	4.9
2025-01-16 11:02:48.064815	237.3	23.0	-91.9	6.1
2025-01-16 11:02:49.220330	237.2	22.9	-91.8	10.7
2025-01-16 11:02:50.384261	237.1	22.7	-91.5	12.6
2025-01-16 11:02:51.535147	237.0	22.6	-91.4	13.5
2025-01-16 11:02:52.684561	236.9	22.4	-91.4	10.5
2025-01-16 11:02:53.837600	236.8	22.3	-91.2	11.9
2025-01-16 11:02:54.994074	236.8	22.1	-91.3	9.7
2025-01-16 11:02:56.152337	236.7	21.9	-91.4	11.3
2025-01-16 11:02:57.313147	236.6	21.8	-91.3	9.9
2025-01-16 11:02:58.471481	236.5	21.6	-91.2	5.6
2025-01-16 11:02:59.628529	236.4	21.5	-91.3	7.9
2025-01-16 11:03:00.768824	236.3	21.3	-91.4	9.5
2025-01-16 11:03:01.928639	236.2	21.2	-91.4	6.1
2025-01-16 11:03:03.082251	236.2	21.0	-91.4	8.3
2025-01-16 11:03:04.246729	236.1	20.9	-91.3	9.5
2025-01-16 11:03:05.411345	236.0	20.7	-91.4	8.2
2025-01-16 11:03:06.564860	235.9	20.6	-91.4	11.1
2025-01-16 11:03:07.728005	235.8	20.4	-91.4	10.0
2025-01-16 11:03:08.892120	235.7	20.3	-91.4	11.3
2025-01-16 11:03:10.051382	235.7	20.1	-91.6	10.9
2025-01-16 11:03:11.215234	235.6	20.0	-91.5	11.5
2025-01-16 11:03:12.374641	235.5	19.8	-91.3	10.5
2025-01-16 11:03:13.537728	235.4	19.7	-91.3	7.5
2025-01-16 11:03:14.701791	235.4	19.6	-91.4	11.0
2025-01-16 11:03:15.861737	235.3	19.4	-91.3	11.4
2025-01-16 11:03:17.026021	235.2	19.3	-91.2	10.2
2025-01-16 11:03:18.189539	235.1	19.1	-91.3	8.6
2025-01-16 11:03:19.342456	235.1	19.0	-91.4	10.2
2025-01-16 11:03:20.504943	235.0	18.9	-90.8	8.8
2025-01-16 11:03:21.655651	234.9	18.7	-90.1	8.9
2025-01-16 11:03:22.810551	234.8	18.6	-91.3	11.8
2025-01-16 11:03:23.975612	234.8	18.4	-91.4	9.4
2025-01-16 11:03:25.132788	234.7	18.3	-91.2	8.6
2025-01-16 11:03:26.297180	234.6	18.2	-91.5	8.8
2025-01-16 11:03:27.459521	234.6	18.0	-91.4	4.9
2025-01-16 11:03:28.611439	234.5	17.9	-91.2	5.7
2025-01-16 11:03:29.762537	234.4	17.8	-91.6	8.3
2025-01-16 11:03:30.933673	234.4	17.6	-91.3	7.1
2025-01-16 11:03:32.092195	234.3	17.5	-91.1	5.0
2025-01-16 11:03:33.252264	234.2	17.4	-91.2	8.2
2025-01-16 11:03:34.414253	234.2	17.2	-91.1	7.1
2025-01-16 11:03:35.575286	234.1	17.1	-91.3	9.2
2025-01-16 11:03:36.731982	234.0	17.0	-91.2	8.5
2025-01-16 11:03:37.891425	234.0	16.8	-91.5	7.0
2025-01-16 11:03:39.053637	233.9	16.7	-91.5	8.3
2025-01-16 11:03:40.206482	233.9	16.6	-91.5	7.2
2025-01-16 11:03:41.360437	233.8	16.5	-91.6	6.7
2025-01-16 11:03:42.527259	233.7	16.3	-91.6	7.8
2025-01-16 11:03:43.683283	233.7	16.2	-91.0	7.6
2025-01-16 11:03:44.846276	233.6	16.1	-90.7	7.7
2025-01-16 11:03:46.010237	233.6	16.0	-90.8	9.3
2025-01-16 11:03:47.169438	233.5	15.8	-91.2	8.3
2025-01-16 11:03:48.325415	233.4	15.7	-91.2	7.4
2025-01-16 11:03:49.482634	233.4	15.6	-91.0	7.8
2025-01-16 11:03:50.640542	233.3	15.5	-90.7	6.9
2025-01-16 11:03:51.804323	233.3	15.3	-91.6	7.8
2025-01-16 11:03:52.972694	233.2	15.2	-91.7	7.1
2025-01-16 11:03:54.133427	233.2	15.1	-91.7	6.5
2025-01-16 11:03:55.292452	233.1	15.0	-91.6	8.4
2025-01-16 11:03:56.449584	233.0	14.9	-91.2	6.5
2025-01-16 11:03:57.613061	233.0	14.7	-91.4	5.0
2025-01-16 11:03:58.780356	232.9	14.6	-91.7	8.7
2025-01-16 11:03:59.932132	232.9	14.5	-91.4	5.9
#Closed at: 2025-01-16 10:55:00.532962