passes_logs/2025/01/16/LEX_Murmansk/LEX_Murmansk__20250116_170838_NOAA_19_rec.log

#Pass ID: 20250116_170838_NOAA 19
#Satellite: NOAA 19
#Configuration: NOAA 19
#Start time: 2025-01-16 17:08:33.122701

#LorettStation: 1.0.0 05.05.2024
#Station: LEX_Murmansk
#Location: 33.156738 lon 68.926811 lat
#TLE: 1 33591U 09005A   25016.13687281  .00000278  00000+0  17226-3 0  9992
#TLE: 2 33591  99.0193  79.9081 0014432  54.5182 305.7334 14.13260212821702

#Time	Az	El	Level	SNR
2025-01-16 17:08:45.206313	134.7	16.3	-89.2	7.6
2025-01-16 17:08:46.361023	134.7	16.4	-87.7	6.1
2025-01-16 17:08:47.511082	134.6	16.6	-88.7	6.1
2025-01-16 17:08:48.659806	134.6	16.7	-88.5	2.6
2025-01-16 17:08:49.813976	134.5	16.8	-88.6	3.1
2025-01-16 17:08:50.961484	134.5	17.0	-88.6	3.4
2025-01-16 17:08:52.115773	134.5	17.1	-88.7	2.0
2025-01-16 17:08:53.263668	134.4	17.2	-88.9	3.5
2025-01-16 17:08:54.409187	134.4	17.3	-88.5	6.8
2025-01-16 17:08:55.560158	134.3	17.5	-88.8	9.9
2025-01-16 17:08:56.715886	134.3	17.6	-89.1	8.4
2025-01-16 17:08:57.868626	134.2	17.7	-89.3	7.1
2025-01-16 17:08:59.015746	134.2	17.9	-89.1	6.6
2025-01-16 17:09:00.168060	134.2	18.0	-89.3	7.0
2025-01-16 17:09:01.318058	134.1	18.2	-88.6	8.1
2025-01-16 17:09:02.462424	134.1	18.3	-89.3	9.5
2025-01-16 17:09:03.617040	134.0	18.4	-89.5	7.8
2025-01-16 17:09:04.769525	134.0	18.6	-88.5	3.9
2025-01-16 17:09:05.918777	133.9	18.7	-88.7	4.3
2025-01-16 17:09:07.071564	133.9	18.9	-89.4	3.4
2025-01-16 17:09:08.216808	133.8	19.0	-88.9	4.9
2025-01-16 17:09:09.366955	133.8	19.1	-89.5	4.6
2025-01-16 17:09:10.512653	133.7	19.3	-89.3	9.0
2025-01-16 17:09:11.667257	133.7	19.4	-88.8	10.9
2025-01-16 17:09:12.822501	133.6	19.6	-89.0	7.9
2025-01-16 17:09:13.970953	133.6	19.7	-89.0	9.2
2025-01-16 17:09:15.116815	133.5	19.9	-88.4	7.6
2025-01-16 17:09:16.271273	133.5	20.0	-88.7	7.3
2025-01-16 17:09:17.416210	133.4	20.2	-88.9	11.2
2025-01-16 17:09:18.566146	133.4	20.3	-88.9	12.1
2025-01-16 17:09:19.719047	133.3	20.4	-88.6	8.6
2025-01-16 17:09:20.865888	133.3	20.6	-88.6	4.9
2025-01-16 17:09:22.020072	133.2	20.8	-88.7	6.8
2025-01-16 17:09:23.175251	133.2	20.9	-88.9	3.9
2025-01-16 17:09:24.329015	133.1	21.1	-89.2	4.2
2025-01-16 17:09:25.480467	133.1	21.2	-89.0	9.2
2025-01-16 17:09:26.635511	133.0	21.4	-88.7	13.2
2025-01-16 17:09:27.780075	133.0	21.5	-88.8	14.4
2025-01-16 17:09:28.920034	132.9	21.7	-88.9	13.2
2025-01-16 17:09:30.040903	132.9	21.8	-88.6	11.4
2025-01-16 17:09:31.161123	132.8	22.0	-88.5	7.7
2025-01-16 17:09:32.284504	132.7	22.1	-89.6	9.3
2025-01-16 17:09:33.401256	132.7	22.3	-90.1	12.1
2025-01-16 17:09:34.521491	132.6	22.5	-90.4	13.6
2025-01-16 17:09:35.641127	132.6	22.6	-89.6	10.5
2025-01-16 17:09:36.760709	132.5	22.8	-89.6	4.4
2025-01-16 17:09:37.883733	132.4	22.9	-90.0	3.6
2025-01-16 17:09:39.036823	132.4	23.1	-89.9	2.4
2025-01-16 17:09:40.182400	132.3	23.3	-90.1	3.5
2025-01-16 17:09:41.336375	132.3	23.4	-88.8	6.4
2025-01-16 17:09:42.483786	132.2	23.6	-89.8	10.3
2025-01-16 17:09:43.628334	132.1	23.8	-88.8	12.5
2025-01-16 17:09:44.777846	132.1	23.9	-88.6	10.6
2025-01-16 17:09:45.936546	132.0	24.1	-89.8	8.3
2025-01-16 17:09:47.086819	131.9	24.3	-89.3	10.5
2025-01-16 17:09:48.240824	131.9	24.5	-89.4	6.2
2025-01-16 17:09:49.383721	131.8	24.6	-89.2	10.1
2025-01-16 17:09:50.532693	131.7	24.8	-88.8	10.0
2025-01-16 17:09:51.688133	131.7	25.0	-89.2	8.0
2025-01-16 17:09:52.833831	131.6	25.2	-89.0	5.8
2025-01-16 17:09:53.985156	131.5	25.3	-89.2	4.3
2025-01-16 17:09:55.131824	131.4	25.5	-88.8	3.4
2025-01-16 17:09:56.285619	131.4	25.7	-89.3	2.3
2025-01-16 17:09:57.437981	131.3	25.9	-89.7	4.4
2025-01-16 17:09:58.595238	131.2	26.1	-89.4	4.0
2025-01-16 17:09:59.744984	131.1	26.3	-89.3	5.2
2025-01-16 17:10:00.893559	131.1	26.4	-89.7	4.5
2025-01-16 17:10:02.031050	131.0	26.6	-89.6	4.1
2025-01-16 17:10:03.166986	130.9	26.8	-89.3	4.3
2025-01-16 17:10:04.317722	130.8	27.0	-89.5	1.8
2025-01-16 17:10:05.460372	130.7	27.2	-89.8	3.8
2025-01-16 17:10:06.614309	130.7	27.4	-89.5	4.3
2025-01-16 17:10:07.761258	130.6	27.6	-90.0	3.6
2025-01-16 17:10:08.910224	130.5	27.8	-89.9	3.9
2025-01-16 17:10:10.061315	130.4	28.0	-90.3	3.2
2025-01-16 17:10:11.212377	130.3	28.2	-89.5	5.0
2025-01-16 17:10:12.365136	130.2	28.4	-89.7	4.1
2025-01-16 17:10:13.514822	130.1	28.6	-90.1	2.7
2025-01-16 17:10:14.667923	130.0	28.8	-90.3	3.7
2025-01-16 17:10:15.816237	130.0	29.0	-90.3	4.4
2025-01-16 17:10:16.962721	129.9	29.2	-89.6	4.7
2025-01-16 17:10:18.113404	129.8	29.4	-90.2	2.2
2025-01-16 17:10:19.256208	129.7	29.6	-89.7	3.6
2025-01-16 17:10:20.402603	129.6	29.8	-89.7	3.5
2025-01-16 17:10:21.552134	129.5	30.0	-90.2	2.3
2025-01-16 17:10:22.699374	129.4	30.2	-89.9	2.7
2025-01-16 17:10:23.853940	129.3	30.4	-89.9	4.5
2025-01-16 17:10:25.001878	129.2	30.6	-89.8	7.9
2025-01-16 17:10:26.150592	129.1	30.9	-89.8	5.2
2025-01-16 17:10:27.304215	129.0	31.1	-89.8	2.6
2025-01-16 17:10:28.454438	128.9	31.3	-89.8	2.2
2025-01-16 17:10:29.599736	128.8	31.5	-89.8	4.1
2025-01-16 17:10:30.750821	128.7	31.7	-89.6	3.1
2025-01-16 17:10:31.904628	128.5	32.0	-90.1	4.7
2025-01-16 17:10:33.058111	128.4	32.2	-89.7	9.3
2025-01-16 17:10:34.208658	128.3	32.4	-89.7	11.9
2025-01-16 17:10:35.361235	128.2	32.6	-90.0	11.0
2025-01-16 17:10:36.511180	128.1	32.9	-90.3	10.2
2025-01-16 17:10:37.661573	128.0	33.1	-90.0	8.2
2025-01-16 17:10:38.810512	127.8	33.3	-90.2	8.1
2025-01-16 17:10:39.955942	127.7	33.6	-89.9	9.1
2025-01-16 17:10:41.111106	127.6	33.8	-90.1	12.5
2025-01-16 17:10:42.259330	127.5	34.0	-90.2	13.3
2025-01-16 17:10:43.416770	127.3	34.3	-90.2	12.7
2025-01-16 17:10:44.566818	127.2	34.5	-89.8	9.2
2025-01-16 17:10:45.713714	127.1	34.8	-90.3	4.7
2025-01-16 17:10:46.867001	126.9	35.0	-89.7	2.9
2025-01-16 17:10:48.024125	126.8	35.3	-89.4	4.1
2025-01-16 17:10:49.172995	126.7	35.5	-89.4	5.1
2025-01-16 17:10:50.323035	126.5	35.8	-89.2	4.9
2025-01-16 17:10:51.475979	126.4	36.0	-89.6	10.0
2025-01-16 17:10:52.626638	126.2	36.3	-89.5	12.2
2025-01-16 17:10:53.774574	126.1	36.5	-89.4	11.3
2025-01-16 17:10:54.929148	125.9	36.8	-89.5	9.7
2025-01-16 17:10:56.078623	125.8	37.0	-89.6	12.1
2025-01-16 17:10:57.230911	125.6	37.3	-89.3	6.6
2025-01-16 17:10:58.383968	125.5	37.6	-89.9	8.8
2025-01-16 17:10:59.535823	125.3	37.8	-89.9	12.7
2025-01-16 17:11:00.683987	125.2	38.1	-90.1	13.5
2025-01-16 17:11:01.831304	125.0	38.4	-89.2	10.3
2025-01-16 17:11:02.983381	124.8	38.6	-89.4	8.7
2025-01-16 17:11:04.129015	124.7	38.9	-89.2	6.2
2025-01-16 17:11:05.379702	124.5	39.2	-89.5	4.5
2025-01-16 17:11:06.536013	124.3	39.5	-89.2	4.8
2025-01-16 17:11:07.686899	124.1	39.8	-89.7	4.5
2025-01-16 17:11:08.836647	123.9	40.0	-89.3	4.9
2025-01-16 17:11:09.984623	123.7	40.3	-89.7	11.3
2025-01-16 17:11:11.139635	123.5	40.6	-89.6	14.2
2025-01-16 17:11:12.286322	123.4	40.9	-89.4	15.4
2025-01-16 17:11:13.435362	123.2	41.2	-90.0	12.0
2025-01-16 17:11:14.588859	123.0	41.5	-89.4	9.8
2025-01-16 17:11:15.739980	122.8	41.7	-88.7	6.1
2025-01-16 17:11:16.888731	122.5	42.0	-89.0	8.4
2025-01-16 17:11:18.034963	122.3	42.3	-88.4	9.7
2025-01-16 17:11:19.155780	122.1	42.6	-88.6	11.8
2025-01-16 17:11:20.276271	121.9	42.9	-88.5	12.9
2025-01-16 17:11:21.397440	121.7	43.2	-89.4	11.3
2025-01-16 17:11:22.518880	121.5	43.5	-89.7	8.1
2025-01-16 17:11:23.639539	121.2	43.8	-90.7	6.3
2025-01-16 17:11:24.761778	121.0	44.1	-90.1	3.4
2025-01-16 17:11:25.882444	120.8	44.4	-90.3	3.6
2025-01-16 17:11:27.006147	120.5	44.7	-90.4	4.9
2025-01-16 17:11:28.143201	120.3	45.0	-89.8	3.8
2025-01-16 17:11:29.285944	120.0	45.3	-90.7	3.1
2025-01-16 17:11:30.437065	119.8	45.6	-89.1	6.7
2025-01-16 17:11:31.588374	119.5	45.9	-90.3	5.7
2025-01-16 17:11:32.733078	119.2	46.2	-90.3	7.5
2025-01-16 17:11:33.891017	119.0	46.6	-90.3	7.2
2025-01-16 17:11:35.038864	118.7	46.9	-89.6	8.3
2025-01-16 17:11:36.190026	118.4	47.2	-89.8	5.2
2025-01-16 17:11:37.319489	118.1	47.5	-90.1	4.7
2025-01-16 17:11:38.461701	117.8	47.9	-89.9	9.8
2025-01-16 17:11:39.606409	117.5	48.2	-90.0	13.0
2025-01-16 17:11:40.745818	117.2	48.5	-88.8	12.0
2025-01-16 17:11:41.898390	116.9	48.8	-89.7	14.7
2025-01-16 17:11:43.045976	116.5	49.2	-89.8	12.1
2025-01-16 17:11:44.194191	116.2	49.5	-89.6	10.1
2025-01-16 17:11:45.349551	115.9	49.8	-89.9	7.1
2025-01-16 17:11:46.489760	115.5	50.2	-90.1	5.2
2025-01-16 17:11:47.649190	115.2	50.5	-90.1	2.3
2025-01-16 17:11:48.802357	114.8	50.8	-89.0	2.7
2025-01-16 17:11:49.952114	114.4	51.2	-89.5	4.3
2025-01-16 17:11:51.099748	114.0	51.5	-89.3	4.4
2025-01-16 17:11:52.250224	113.6	51.9	-89.3	4.6
2025-01-16 17:11:53.402042	113.2	52.2	-89.4	11.7
2025-01-16 17:11:54.557891	112.8	52.6	-89.6	11.6
2025-01-16 17:11:55.710744	112.4	52.9	-88.9	12.8
2025-01-16 17:11:56.863745	112.0	53.2	-89.3	9.2
2025-01-16 17:11:58.009049	111.5	53.6	-89.6	5.5
2025-01-16 17:11:59.157573	111.1	53.9	-89.9	5.0
2025-01-16 17:12:00.315118	110.6	54.3	-89.8	7.3
2025-01-16 17:12:01.470276	110.1	54.6	-90.3	10.2
2025-01-16 17:12:02.623617	109.7	55.0	-89.2	11.1
2025-01-16 17:12:03.771705	109.2	55.3	-89.7	11.0
2025-01-16 17:12:04.920223	108.6	55.7	-90.1	9.9
2025-01-16 17:12:06.069684	108.1	56.0	-89.6	15.1
2025-01-16 17:12:07.215336	107.6	56.4	-89.2	15.6
2025-01-16 17:12:08.374725	107.0	56.7	-89.3	13.2
2025-01-16 17:12:09.525174	106.5	57.1	-90.3	12.0
2025-01-16 17:12:10.679667	105.9	57.4	-89.3	8.7
2025-01-16 17:12:11.823660	105.3	57.7	-89.3	5.5
2025-01-16 17:12:12.971723	104.7	58.1	-89.0	6.8
2025-01-16 17:12:14.120372	104.1	58.4	-89.5	7.1
2025-01-16 17:12:15.263857	103.4	58.8	-89.2	3.7
2025-01-16 17:12:16.412503	102.8	59.1	-88.4	7.0
2025-01-16 17:12:17.566848	102.1	59.4	-89.8	7.9
2025-01-16 17:12:18.692505	101.4	59.8	-89.7	8.9
2025-01-16 17:12:19.813376	100.7	60.1	-89.3	9.6
2025-01-16 17:12:20.934163	100.0	60.4	-89.6	12.6
2025-01-16 17:12:22.054875	99.3	60.7	-90.1	7.1
2025-01-16 17:12:23.177231	98.5	61.1	-90.4	10.8
2025-01-16 17:12:24.297229	97.8	61.4	-89.8	11.8
2025-01-16 17:12:25.418110	97.0	61.7	-89.8	16.1
2025-01-16 17:12:26.539597	96.2	62.0	-89.6	13.5
2025-01-16 17:12:27.670384	95.3	62.3	-89.7	7.9
2025-01-16 17:12:28.813562	94.5	62.6	-89.7	6.8
2025-01-16 17:12:29.963680	93.6	62.9	-89.8	8.8
2025-01-16 17:12:31.115680	92.7	63.2	-90.3	12.4
2025-01-16 17:12:32.259798	91.7	63.5	-89.8	6.4
2025-01-16 17:12:33.409948	90.8	63.8	-89.9	8.5
2025-01-16 17:12:34.547716	89.8	64.1	-90.0	11.9
2025-01-16 17:12:35.676735	88.8	64.4	-89.7	9.5
2025-01-16 17:12:36.823750	87.8	64.6	-89.6	14.2
2025-01-16 17:12:37.957360	86.7	64.9	-90.3	18.4
2025-01-16 17:12:39.100718	85.7	65.1	-90.0	19.4
2025-01-16 17:12:40.240718	84.6	65.4	-90.2	18.3
2025-01-16 17:12:41.388857	83.4	65.6	-90.8	13.6
2025-01-16 17:12:42.538795	82.3	65.9	-90.4	11.1
2025-01-16 17:12:43.688196	81.1	66.1	-90.5	10.7
2025-01-16 17:12:44.841495	79.9	66.3	-89.5	7.0
2025-01-16 17:12:45.988100	78.6	66.5	-90.5	8.3
2025-01-16 17:12:47.135953	77.4	66.7	-89.1	6.1
2025-01-16 17:12:48.277877	76.1	66.9	-90.3	4.2
2025-01-16 17:12:49.424799	74.8	67.1	-90.5	6.9
2025-01-16 17:12:50.577644	73.5	67.3	-90.2	6.3
2025-01-16 17:12:51.732797	72.2	67.4	-89.0	2.8
2025-01-16 17:12:52.891021	70.8	67.6	-89.4	4.6
2025-01-16 17:12:54.045781	69.4	67.7	-89.5	6.7
2025-01-16 17:12:55.196428	68.0	67.8	-89.4	5.2
2025-01-16 17:12:56.351685	66.6	67.9	-90.4	6.5
2025-01-16 17:12:57.501548	65.1	68.0	-89.5	7.1
2025-01-16 17:12:58.656392	63.7	68.1	-89.4	6.6
2025-01-16 17:12:59.802482	62.3	68.2	-89.6	6.7
2025-01-16 17:13:00.953330	60.8	68.2	-89.5	9.4
2025-01-16 17:13:02.105438	59.3	68.3	-89.3	12.6
2025-01-16 17:13:03.258785	57.8	68.3	-89.3	16.1
2025-01-16 17:13:04.413426	56.4	68.3	-89.3	14.3
2025-01-16 17:13:05.558109	54.9	68.3	-89.9	15.2
2025-01-16 17:13:06.716044	53.4	68.3	-90.0	14.6
2025-01-16 17:13:07.863729	51.9	68.3	-89.9	12.2
2025-01-16 17:13:09.012010	50.4	68.3	-89.9	14.5
2025-01-16 17:13:10.157586	49.0	68.2	-89.4	13.7
2025-01-16 17:13:11.308304	47.5	68.2	-89.4	13.8
2025-01-16 17:13:12.460748	46.1	68.1	-89.8	14.3
2025-01-16 17:13:13.604649	44.6	68.0	-89.9	15.2
2025-01-16 17:13:14.756801	43.2	67.9	-89.6	15.0
2025-01-16 17:13:15.907068	41.8	67.8	-89.5	13.6
2025-01-16 17:13:17.059725	40.4	67.7	-89.6	11.7
2025-01-16 17:13:18.208873	39.0	67.5	-89.0	7.3
2025-01-16 17:13:19.364749	37.7	67.4	-89.2	9.3
2025-01-16 17:13:20.517992	36.3	67.2	-89.9	10.6
2025-01-16 17:13:21.669619	35.0	67.0	-89.6	7.2
2025-01-16 17:13:22.826666	33.7	66.9	-90.0	7.8
2025-01-16 17:13:23.980124	32.4	66.7	-89.5	10.4
2025-01-16 17:13:25.134610	31.2	66.5	-89.6	11.7
2025-01-16 17:13:26.281825	30.0	66.3	-88.8	6.2
2025-01-16 17:13:27.434229	28.8	66.0	-89.1	7.1
2025-01-16 17:13:28.587565	27.6	65.8	-89.4	7.2
2025-01-16 17:13:29.738816	26.4	65.6	-89.6	5.9
2025-01-16 17:13:30.889774	25.3	65.3	-89.4	6.6
2025-01-16 17:13:32.036557	24.2	65.1	-89.3	7.7
2025-01-16 17:13:33.195648	23.1	64.8	-89.2	4.5
2025-01-16 17:13:34.349158	22.1	64.5	-89.4	3.4
2025-01-16 17:13:35.502563	21.1	64.3	-89.5	5.2
2025-01-16 17:13:36.651239	20.1	64.0	-90.0	3.2
2025-01-16 17:13:37.804767	19.1	63.7	-90.0	3.9
2025-01-16 17:13:38.961415	18.1	63.4	-90.5	10.0
2025-01-16 17:13:40.110563	17.2	63.1	-90.6	11.6
2025-01-16 17:13:41.265101	16.3	62.8	-90.1	5.5
2025-01-16 17:13:42.415356	15.4	62.5	-90.3	6.6
2025-01-16 17:13:43.560113	14.5	62.2	-90.1	8.9
2025-01-16 17:13:44.700632	13.7	61.9	-89.7	7.1
2025-01-16 17:13:45.821810	12.9	61.6	-90.1	9.3
2025-01-16 17:13:46.943360	12.1	61.3	-90.1	7.6
2025-01-16 17:13:48.066591	11.4	60.9	-89.8	7.9
2025-01-16 17:13:49.187529	10.6	60.6	-90.1	6.3
2025-01-16 17:13:50.308294	9.9	60.3	-89.9	7.9
2025-01-16 17:13:51.428668	9.2	60.0	-90.1	13.0
2025-01-16 17:13:52.549417	8.5	59.7	-90.2	11.5
2025-01-16 17:13:53.670422	7.9	59.3	-90.0	10.2
2025-01-16 17:13:54.807371	7.2	59.0	-90.7	6.9
2025-01-16 17:13:55.952474	6.6	58.7	-89.7	9.0
2025-01-16 17:13:57.103705	5.9	58.3	-90.0	11.6
2025-01-16 17:13:58.253206	5.3	58.0	-90.3	12.1
2025-01-16 17:13:59.403351	4.7	57.6	-90.5	8.3
2025-01-16 17:14:00.549329	4.1	57.3	-88.9	13.0
2025-01-16 17:14:01.697292	3.5	56.9	-89.3	13.5
2025-01-16 17:14:02.845771	3.0	56.6	-89.1	9.8
2025-01-16 17:14:03.996791	2.4	56.3	-89.0	10.9
2025-01-16 17:14:05.157479	1.9	55.9	-89.1	14.5
2025-01-16 17:14:06.306301	1.4	55.6	-89.5	13.0
2025-01-16 17:14:07.459756	0.9	55.2	-89.3	14.7
2025-01-16 17:14:08.607201	0.4	54.9	-89.4	14.9
2025-01-16 17:14:09.757944	359.9	54.5	-90.0	17.5
2025-01-16 17:14:10.907886	359.4	54.2	-89.5	13.0
2025-01-16 17:14:12.053408	359.0	53.8	-89.8	10.4
2025-01-16 17:14:13.208250	358.5	53.5	-89.7	14.7
2025-01-16 17:14:14.358015	358.1	53.1	-89.0	14.9
2025-01-16 17:14:15.507789	357.7	52.8	-89.2	15.8
2025-01-16 17:14:16.648044	357.3	52.5	-89.4	11.7
2025-01-16 17:14:17.772121	356.9	52.1	-89.5	9.7
2025-01-16 17:14:18.915265	356.5	51.8	-89.9	10.7
2025-01-16 17:14:20.043138	356.1	51.5	-90.4	9.7
2025-01-16 17:14:21.176939	355.7	51.1	-89.0	6.7
2025-01-16 17:14:22.322144	355.3	50.8	-89.6	5.9
2025-01-16 17:14:23.464957	355.0	50.5	-89.6	6.2
2025-01-16 17:14:24.605372	354.6	50.1	-89.1	5.4
2025-01-16 17:14:25.749645	354.3	49.8	-88.9	4.2
2025-01-16 17:14:26.891812	354.0	49.5	-88.8	2.6
2025-01-16 17:14:28.032383	353.6	49.1	-88.6	8.5
2025-01-16 17:14:29.182349	353.3	48.8	-89.1	5.3
2025-01-16 17:14:30.314240	353.0	48.5	-89.0	5.7
2025-01-16 17:14:31.449502	352.7	48.2	-89.6	6.0
2025-01-16 17:14:32.591966	352.4	47.8	-89.4	9.7
2025-01-16 17:14:33.733913	352.1	47.5	-89.1	8.5
2025-01-16 17:14:34.878487	351.8	47.2	-89.4	12.2
2025-01-16 17:14:36.023216	351.5	46.9	-89.0	8.4
2025-01-16 17:14:37.169710	351.2	46.6	-89.2	12.4
2025-01-16 17:14:38.319276	350.9	46.2	-89.4	15.1
2025-01-16 17:14:39.473875	350.7	45.9	-89.0	17.0
2025-01-16 17:14:40.619657	350.4	45.6	-89.6	14.5
2025-01-16 17:14:41.776800	350.2	45.3	-89.6	20.3
2025-01-16 17:14:42.927975	349.9	45.0	-90.0	14.7
2025-01-16 17:14:44.069477	349.7	44.7	-89.5	16.2
2025-01-16 17:14:45.195800	349.4	44.4	-89.8	9.1
2025-01-16 17:14:46.336856	349.2	44.1	-90.0	8.4
2025-01-16 17:14:47.476379	348.9	43.8	-90.6	10.3
2025-01-16 17:14:48.612817	348.7	43.5	-90.7	10.2
2025-01-16 17:14:49.747166	348.5	43.2	-90.1	4.0
2025-01-16 17:14:50.891041	348.3	42.9	-90.7	7.3
2025-01-16 17:14:52.028588	348.1	42.6	-90.5	9.4
2025-01-16 17:14:53.170407	347.8	42.3	-90.0	3.6
2025-01-16 17:14:54.323208	347.6	42.0	-89.7	7.9
2025-01-16 17:14:55.470749	347.4	41.7	-90.3	9.4
2025-01-16 17:14:56.619114	347.2	41.4	-89.5	12.9
2025-01-16 17:14:57.772003	347.0	41.1	-89.8	9.1
2025-01-16 17:14:58.916569	346.8	40.9	-89.5	13.3
2025-01-16 17:15:00.057844	346.6	40.6	-89.4	14.3
2025-01-16 17:15:01.198049	346.5	40.3	-89.5	7.7
2025-01-16 17:15:02.324447	346.3	40.0	-89.7	15.8
2025-01-16 17:15:03.472251	346.1	39.7	-89.5	15.5
2025-01-16 17:15:04.614341	345.9	39.5	-89.8	12.8
2025-01-16 17:15:05.737427	345.7	39.2	-90.5	9.0
2025-01-16 17:15:06.880956	345.6	38.9	-90.4	7.2
2025-01-16 17:15:08.025203	345.4	38.7	-89.6	9.9
2025-01-16 17:15:09.162969	345.2	38.4	-89.4	3.9
2025-01-16 17:15:10.308531	345.1	38.1	-90.0	4.7
2025-01-16 17:15:11.452936	344.9	37.9	-90.0	6.6
2025-01-16 17:15:12.592322	344.8	37.6	-90.2	7.9
2025-01-16 17:15:13.714232	344.6	37.4	-90.6	5.1
2025-01-16 17:15:14.854802	344.5	37.1	-90.3	7.0
2025-01-16 17:15:15.992734	344.3	36.8	-89.5	5.3
2025-01-16 17:15:17.142364	344.2	36.6	-89.9	4.0
2025-01-16 17:15:18.289447	344.0	36.3	-90.1	5.7
2025-01-16 17:15:19.436123	343.9	36.1	-90.0	5.7
2025-01-16 17:15:20.590707	343.7	35.8	-90.9	15.2
2025-01-16 17:15:21.738063	343.6	35.6	-90.4	6.6
2025-01-16 17:15:22.885247	343.4	35.3	-90.7	4.3
2025-01-16 17:15:24.031187	343.3	35.1	-90.7	10.0
2025-01-16 17:15:25.180008	343.2	34.9	-90.1	6.3
2025-01-16 17:15:26.331557	343.0	34.6	-90.1	4.2
2025-01-16 17:15:27.484974	342.9	34.4	-90.1	6.1
2025-01-16 17:15:28.634067	342.8	34.1	-89.8	5.3
2025-01-16 17:15:29.780605	342.7	33.9	-90.3	3.8
2025-01-16 17:15:30.934080	342.5	33.7	-89.8	3.8
2025-01-16 17:15:32.086521	342.4	33.4	-90.0	7.5
2025-01-16 17:15:33.238489	342.3	33.2	-89.8	4.5
2025-01-16 17:15:34.386102	342.2	33.0	-90.0	5.4
2025-01-16 17:15:35.543267	342.1	32.7	-90.6	6.2
2025-01-16 17:15:36.693584	341.9	32.5	-90.0	12.9
2025-01-16 17:15:37.841214	341.8	32.3	-90.5	13.0
2025-01-16 17:15:38.993546	341.7	32.1	-90.6	8.5
2025-01-16 17:15:40.147061	341.6	31.8	-90.7	6.5
2025-01-16 17:15:41.290735	341.5	31.6	-90.5	7.9
2025-01-16 17:15:42.441482	341.4	31.4	-90.7	4.8
2025-01-16 17:15:43.599803	341.3	31.2	-90.6	6.4
2025-01-16 17:15:44.751660	341.2	31.0	-90.3	4.5
2025-01-16 17:15:45.902365	341.1	30.7	-90.8	5.7
2025-01-16 17:15:47.059527	341.0	30.5	-90.4	4.2
2025-01-16 17:15:48.214407	340.9	30.3	-90.3	4.4
2025-01-16 17:15:49.367089	340.8	30.1	-90.4	5.6
2025-01-16 17:15:50.520452	340.7	29.9	-90.6	5.5
2025-01-16 17:15:51.676837	340.6	29.7	-90.9	8.7
2025-01-16 17:15:52.825177	340.5	29.5	-91.1	10.5
2025-01-16 17:15:53.987382	340.4	29.3	-91.1	4.6
2025-01-16 17:15:55.138929	340.3	29.1	-90.6	4.4
2025-01-16 17:15:56.300662	340.2	28.9	-90.0	4.4
2025-01-16 17:15:57.450548	340.1	28.7	-89.9	5.1
2025-01-16 17:15:58.607203	340.0	28.5	-90.1	2.2
2025-01-16 17:15:59.762404	340.0	28.3	-90.3	3.1
2025-01-16 17:16:00.914195	339.9	28.1	-90.3	3.7
2025-01-16 17:16:02.069487	339.8	27.9	-90.5	3.8
2025-01-16 17:16:03.220218	339.7	27.7	-90.9	3.4
2025-01-16 17:16:04.382480	339.6	27.5	-90.8	1.7
2025-01-16 17:16:05.536574	339.5	27.3	-91.0	3.3
2025-01-16 17:16:06.686092	339.4	27.1	-90.5	3.6
2025-01-16 17:16:07.838971	339.4	26.9	-90.0	4.5
2025-01-16 17:16:08.988341	339.3	26.7	-90.7	2.4
2025-01-16 17:16:10.127146	339.2	26.5	-90.4	10.9
2025-01-16 17:16:11.266585	339.1	26.3	-91.1	4.6
2025-01-16 17:16:12.386736	339.1	26.2	-90.7	3.8
2025-01-16 17:16:13.508270	339.0	26.0	-90.8	7.7
2025-01-16 17:16:14.630057	338.9	25.8	-91.1	7.4
2025-01-16 17:16:15.750687	338.8	25.6	-90.6	4.9
2025-01-16 17:16:16.872793	338.8	25.5	-91.2	2.1
2025-01-16 17:16:17.993297	338.7	25.3	-91.0	2.7
2025-01-16 17:16:19.114198	338.6	25.1	-90.4	4.1
2025-01-16 17:16:20.240365	338.6	24.9	-91.0	4.5
2025-01-16 17:16:21.376962	338.5	24.8	-91.1	3.0
2025-01-16 17:16:22.522368	338.4	24.6	-90.8	4.3
2025-01-16 17:16:23.670770	338.4	24.4	-91.1	4.3
2025-01-16 17:16:24.818219	338.3	24.3	-90.9	4.6
2025-01-16 17:16:25.974635	338.2	24.1	-90.5	4.9
2025-01-16 17:16:27.117380	338.2	23.9	-90.2	5.7
2025-01-16 17:16:28.267406	338.1	23.7	-90.9	4.2
2025-01-16 17:16:29.412684	338.0	23.6	-90.8	2.0
2025-01-16 17:16:30.534093	338.0	23.4	-90.6	2.6
2025-01-16 17:16:31.678318	337.9	23.2	-90.7	4.2
2025-01-16 17:16:32.923976	337.8	23.1	-90.9	2.2
2025-01-16 17:16:34.060190	337.8	22.9	-91.1	3.2
2025-01-16 17:16:35.209091	337.7	22.7	-90.2	3.5
2025-01-16 17:16:36.352584	337.7	22.6	-89.9	2.8
2025-01-16 17:16:37.497637	337.6	22.4	-90.9	13.0
2025-01-16 17:16:38.646270	337.6	22.3	-90.3	8.6
2025-01-16 17:16:39.790741	337.5	22.1	-89.7	13.8
2025-01-16 17:16:40.940376	337.4	21.9	-90.2	10.3
2025-01-16 17:16:42.089446	337.4	21.8	-91.3	3.9
2025-01-16 17:16:43.235939	337.3	21.6	-90.9	2.3
2025-01-16 17:16:44.391525	337.3	21.5	-90.8	3.6
2025-01-16 17:16:45.541399	337.2	21.3	-90.0	5.2
2025-01-16 17:16:46.695011	337.2	21.2	-90.8	1.9
2025-01-16 17:16:47.843280	337.1	21.0	-90.6	4.3
2025-01-16 17:16:48.994341	337.1	20.9	-90.5	4.0
2025-01-16 17:16:50.136926	337.0	20.7	-90.7	5.5
2025-01-16 17:16:51.281517	337.0	20.6	-90.3	3.4
2025-01-16 17:16:52.439489	336.9	20.4	-90.4	4.1
2025-01-16 17:16:53.595167	336.8	20.3	-90.3	6.1
2025-01-16 17:16:54.752186	336.8	20.1	-89.8	3.8
2025-01-16 17:16:55.897956	336.7	20.0	-90.1	2.6
2025-01-16 17:16:57.060381	336.7	19.8	-90.5	2.6
2025-01-16 17:16:58.213599	336.6	19.7	-90.4	3.8
2025-01-16 17:16:59.364762	336.6	19.5	-89.8	3.0
2025-01-16 17:17:00.513917	336.6	19.4	-90.6	2.6
2025-01-16 17:17:01.663006	336.5	19.3	-90.1	3.0
2025-01-16 17:17:02.813993	336.5	19.1	-90.3	5.0
2025-01-16 17:17:03.962346	336.4	19.0	-90.3	3.5
2025-01-16 17:17:05.114162	336.4	18.8	-90.1	3.8
2025-01-16 17:17:06.244761	336.3	18.7	-90.2	4.2
2025-01-16 17:17:07.366063	336.3	18.6	-90.2	4.4
2025-01-16 17:17:08.486384	336.2	18.4	-90.7	3.4
2025-01-16 17:17:09.607364	336.2	18.3	-90.7	3.6
2025-01-16 17:17:10.731693	336.2	18.2	-90.4	3.4
2025-01-16 17:17:11.852358	336.1	18.0	-90.2	2.7
2025-01-16 17:17:12.972839	336.1	17.9	-90.6	1.8
2025-01-16 17:17:14.095213	336.0	17.8	-90.1	3.6
2025-01-16 17:17:15.214579	336.0	17.6	-90.5	2.5
2025-01-16 17:17:16.368493	335.9	17.5	-90.9	1.2
2025-01-16 17:17:17.506057	335.9	17.4	-90.5	2.2
2025-01-16 17:17:18.637854	335.9	17.2	-90.0	1.2
2025-01-16 17:17:19.781978	335.8	17.1	-90.2	1.3
2025-01-16 17:17:20.927745	335.8	17.0	-91.1	5.4
2025-01-16 17:17:22.073047	335.7	16.9	-90.4	0.6
2025-01-16 17:17:23.216938	335.7	16.7	-90.4	2.8
2025-01-16 17:17:24.361790	335.7	16.6	-90.1	1.5
2025-01-16 17:17:25.513595	335.6	16.5	-90.8	3.7
2025-01-16 17:17:26.665614	335.6	16.3	-91.2	2.7
2025-01-16 17:17:27.821586	335.6	16.2	-90.8	4.3
2025-01-16 17:17:28.969036	335.5	16.1	-90.7	2.4
2025-01-16 17:17:30.119006	335.5	16.0	-90.9	1.5
2025-01-16 17:17:31.270635	335.4	15.8	-90.3	3.8
2025-01-16 17:17:32.420278	335.4	15.7	-90.3	4.7
2025-01-16 17:17:33.571489	335.4	15.6	-90.0	5.4
2025-01-16 17:17:34.721658	335.3	15.5	-90.4	1.2
2025-01-16 17:17:35.879952	335.3	15.4	-90.8	5.7
2025-01-16 17:17:37.029254	335.3	15.2	-90.9	3.3
2025-01-16 17:17:38.178930	335.2	15.1	-91.0	3.6
2025-01-16 17:17:39.334906	335.2	15.0	-90.8	3.2
2025-01-16 17:17:40.502042	335.2	14.9	-90.8	4.4
2025-01-16 17:17:41.654477	335.1	14.7	-90.3	1.3
2025-01-16 17:17:42.791660	335.1	14.6	-90.3	2.4
2025-01-16 17:17:43.921132	335.1	14.5	-90.3	2.7
#Closed at: 2025-01-16 17:08:38.038733