passes_logs/2025/01/16/LEX_Murmansk/LEX_Murmansk__20250116_184945_NOAA_19_rec.log

#Pass ID: 20250116_184945_NOAA 19
#Satellite: NOAA 19
#Configuration: NOAA 19
#Start time: 2025-01-16 18:49:40.577440

#LorettStation: 1.0.0 05.05.2024
#Station: LEX_Murmansk
#Location: 33.156738 lon 68.926811 lat
#TLE: 1 33591U 09005A   25016.13687281  .00000278  00000+0  17226-3 0  9992
#TLE: 2 33591  99.0193  79.9081 0014432  54.5182 305.7334 14.13260212821702

#Time	Az	El	Level	SNR
2025-01-16 18:49:52.766643	188.2	16.2	-92.5	4.3
2025-01-16 18:49:53.916332	188.3	16.4	-92.8	6.8
2025-01-16 18:49:55.063197	188.4	16.5	-92.1	5.3
2025-01-16 18:49:56.218786	188.5	16.6	-92.6	0.1
2025-01-16 18:49:57.370485	188.6	16.7	-92.8	0.7
2025-01-16 18:49:58.524195	188.7	16.8	-93.1	4.8
2025-01-16 18:49:59.676537	188.8	17.0	-93.1	3.2
2025-01-16 18:50:00.822267	188.9	17.1	-93.1	4.1
2025-01-16 18:50:01.971733	189.0	17.2	-92.9	4.1
2025-01-16 18:50:03.119113	189.1	17.3	-92.9	2.6
2025-01-16 18:50:04.274861	189.2	17.5	-92.9	3.3
2025-01-16 18:50:05.428916	189.3	17.6	-92.9	1.9
2025-01-16 18:50:06.579159	189.4	17.7	-92.7	0.3
2025-01-16 18:50:07.731040	189.5	17.8	-92.8	3.4
2025-01-16 18:50:08.876022	189.6	18.0	-92.9	3.9
2025-01-16 18:50:10.025103	189.7	18.1	-92.6	3.1
2025-01-16 18:50:11.180357	189.8	18.2	-92.9	2.3
2025-01-16 18:50:12.331955	189.9	18.3	-92.4	2.8
2025-01-16 18:50:13.485947	190.1	18.5	-92.5	5.5
2025-01-16 18:50:14.636385	190.2	18.6	-92.7	4.2
2025-01-16 18:50:15.785163	190.3	18.7	-92.7	5.0
2025-01-16 18:50:16.937673	190.4	18.9	-92.4	9.1
2025-01-16 18:50:18.103369	190.5	19.0	-92.8	11.5
2025-01-16 18:50:19.256056	190.6	19.1	-92.9	9.4
2025-01-16 18:50:20.401918	190.7	19.2	-92.5	5.0
2025-01-16 18:50:21.546137	190.9	19.4	-92.9	4.1
2025-01-16 18:50:22.693448	191.0	19.5	-93.0	2.2
2025-01-16 18:50:23.844048	191.1	19.6	-92.6	2.2
2025-01-16 18:50:24.986097	191.2	19.8	-92.8	7.3
2025-01-16 18:50:26.138416	191.3	19.9	-92.7	8.9
2025-01-16 18:50:27.292184	191.5	20.1	-92.4	9.5
2025-01-16 18:50:28.435754	191.6	20.2	-92.5	12.2
2025-01-16 18:50:29.588087	191.7	20.3	-93.0	11.2
2025-01-16 18:50:30.738760	191.8	20.5	-92.8	7.9
2025-01-16 18:50:31.893102	191.9	20.6	-92.8	6.9
2025-01-16 18:50:33.040084	192.1	20.7	-92.5	11.6
2025-01-16 18:50:34.189504	192.2	20.9	-92.8	10.6
2025-01-16 18:50:35.339889	192.3	21.0	-92.8	8.7
2025-01-16 18:50:36.486023	192.5	21.2	-92.7	10.1
2025-01-16 18:50:37.636662	192.6	21.3	-92.7	8.0
2025-01-16 18:50:38.783531	192.7	21.4	-92.8	1.2
2025-01-16 18:50:39.928139	192.9	21.6	-92.7	4.5
2025-01-16 18:50:41.075200	193.0	21.7	-92.8	4.5
2025-01-16 18:50:42.224559	193.1	21.9	-92.4	5.8
2025-01-16 18:50:43.375436	193.3	22.0	-92.6	10.1
2025-01-16 18:50:44.528418	193.4	22.2	-92.5	13.5
2025-01-16 18:50:45.679917	193.5	22.3	-92.7	12.1
2025-01-16 18:50:46.831199	193.7	22.4	-92.6	7.8
2025-01-16 18:50:47.979756	193.8	22.6	-92.7	9.7
2025-01-16 18:50:49.126872	194.0	22.7	-92.6	8.9
2025-01-16 18:50:50.284859	194.1	22.9	-92.5	7.3
2025-01-16 18:50:51.429682	194.3	23.0	-93.0	12.0
2025-01-16 18:50:52.576940	194.4	23.2	-93.1	12.9
2025-01-16 18:50:53.728580	194.5	23.3	-93.1	11.2
2025-01-16 18:50:54.881379	194.7	23.5	-92.6	6.3
2025-01-16 18:50:56.037086	194.9	23.6	-92.6	5.7
2025-01-16 18:50:57.184289	195.0	23.8	-92.6	1.4
2025-01-16 18:50:58.338030	195.2	23.9	-92.7	2.3
2025-01-16 18:50:59.484901	195.3	24.1	-92.6	7.1
2025-01-16 18:51:00.611016	195.5	24.3	-92.9	9.5
2025-01-16 18:51:01.731273	195.6	24.4	-92.7	9.6
2025-01-16 18:51:02.852387	195.8	24.6	-92.7	12.8
2025-01-16 18:51:03.973551	195.9	24.7	-92.9	12.8
2025-01-16 18:51:05.094980	196.1	24.9	-92.6	11.4
2025-01-16 18:51:06.214901	196.3	25.0	-92.6	6.5
2025-01-16 18:51:07.336310	196.4	25.2	-92.9	5.7
2025-01-16 18:51:08.460555	196.6	25.3	-93.1	8.7
2025-01-16 18:51:09.584218	196.7	25.5	-92.9	10.4
2025-01-16 18:51:10.737604	196.9	25.6	-92.8	9.6
2025-01-16 18:51:11.881217	197.1	25.8	-92.7	6.6
2025-01-16 18:51:13.033909	197.3	26.0	-92.3	4.2
2025-01-16 18:51:14.181104	197.4	26.1	-92.9	2.7
2025-01-16 18:51:15.324620	197.6	26.3	-93.0	3.1
2025-01-16 18:51:16.479206	197.8	26.5	-92.7	2.1
2025-01-16 18:51:17.630493	198.0	26.6	-92.9	6.2
2025-01-16 18:51:18.776405	198.2	26.8	-93.1	7.4
2025-01-16 18:51:19.923987	198.3	27.0	-93.1	10.6
2025-01-16 18:51:21.070417	198.5	27.1	-92.7	9.3
2025-01-16 18:51:22.224577	198.7	27.3	-92.9	8.5
2025-01-16 18:51:23.377706	198.9	27.5	-93.2	5.9
2025-01-16 18:51:24.525474	199.1	27.6	-92.7	6.4
2025-01-16 18:51:25.668672	199.3	27.8	-92.8	3.8
2025-01-16 18:51:26.818095	199.5	28.0	-93.2	5.4
2025-01-16 18:51:27.965365	199.7	28.1	-92.8	7.3
2025-01-16 18:51:29.111989	199.9	28.3	-92.6	7.9
2025-01-16 18:51:30.266305	200.1	28.5	-92.7	9.2
2025-01-16 18:51:31.414153	200.3	28.6	-92.9	6.0
2025-01-16 18:51:32.564481	200.5	28.8	-93.0	4.6
2025-01-16 18:51:33.711259	200.7	29.0	-92.7	2.9
2025-01-16 18:51:34.968736	201.0	29.2	-93.1	3.9
2025-01-16 18:51:36.124353	201.2	29.4	-93.0	4.2
2025-01-16 18:51:37.278502	201.4	29.5	-93.1	4.4
2025-01-16 18:51:38.424755	201.6	29.7	-92.5	6.1
2025-01-16 18:51:39.573988	201.8	29.9	-93.0	5.2
2025-01-16 18:51:40.725691	202.0	30.1	-93.1	2.4
2025-01-16 18:51:41.874661	202.3	30.3	-93.0	4.4
2025-01-16 18:51:43.022543	202.5	30.4	-93.0	6.4
2025-01-16 18:51:44.166082	202.7	30.6	-92.9	5.7
2025-01-16 18:51:45.312823	203.0	30.8	-92.8	4.8
2025-01-16 18:51:46.457221	203.2	31.0	-92.9	5.6
2025-01-16 18:51:47.609759	203.4	31.2	-92.8	9.7
2025-01-16 18:51:48.758493	203.7	31.3	-92.9	5.0
2025-01-16 18:51:49.912550	203.9	31.5	-93.3	2.7
2025-01-16 18:51:51.061779	204.2	31.7	-92.8	0.9
2025-01-16 18:51:52.211469	204.4	31.9	-93.0	3.6
2025-01-16 18:51:53.458321	204.7	32.1	-92.9	1.7
2025-01-16 18:51:54.605499	204.9	32.3	-93.0	3.4
2025-01-16 18:51:55.758423	205.2	32.5	-92.8	2.1
2025-01-16 18:51:56.910934	205.5	32.7	-92.8	4.7
2025-01-16 18:51:58.061529	205.7	32.8	-92.4	6.1
2025-01-16 18:51:59.214834	206.0	33.0	-92.9	8.9
2025-01-16 18:52:00.367283	206.3	33.2	-92.8	7.3
2025-01-16 18:52:01.520480	206.5	33.4	-93.1	5.7
2025-01-16 18:52:02.669764	206.8	33.6	-92.9	7.3
2025-01-16 18:52:03.816658	207.1	33.8	-92.9	5.7
2025-01-16 18:52:04.960266	207.4	34.0	-92.8	10.4
2025-01-16 18:52:06.109223	207.7	34.2	-93.1	9.5
2025-01-16 18:52:07.262391	207.9	34.4	-93.2	8.3
2025-01-16 18:52:08.408133	208.2	34.5	-92.8	12.9
2025-01-16 18:52:09.555000	208.5	34.7	-93.0	9.4
2025-01-16 18:52:10.702399	208.8	34.9	-93.2	12.7
2025-01-16 18:52:11.853378	209.1	35.1	-92.6	6.4
2025-01-16 18:52:12.997818	209.4	35.3	-92.8	4.0
2025-01-16 18:52:14.147001	209.7	35.5	-93.3	3.9
2025-01-16 18:52:15.301042	210.1	35.7	-92.7	1.7
2025-01-16 18:52:16.448088	210.4	35.9	-92.9	5.4
2025-01-16 18:52:17.594371	210.7	36.1	-93.2	4.3
2025-01-16 18:52:18.741864	211.0	36.3	-92.8	3.8
2025-01-16 18:52:19.895385	211.4	36.5	-93.2	10.0
2025-01-16 18:52:21.043143	211.7	36.7	-92.7	11.6
2025-01-16 18:52:22.189557	212.0	36.9	-92.7	10.4
2025-01-16 18:52:23.339760	212.4	37.1	-93.0	8.4
2025-01-16 18:52:24.486117	212.7	37.2	-92.6	8.3
2025-01-16 18:52:25.636701	213.0	37.4	-92.9	7.8
2025-01-16 18:52:26.788362	213.4	37.6	-92.7	3.0
2025-01-16 18:52:27.941416	213.8	37.8	-93.0	8.8
2025-01-16 18:52:29.090681	214.1	38.0	-92.4	6.2
2025-01-16 18:52:30.238478	214.5	38.2	-92.9	7.9
2025-01-16 18:52:31.386824	214.8	38.4	-93.1	10.7
2025-01-16 18:52:32.539255	215.2	38.6	-93.0	10.8
2025-01-16 18:52:33.688720	215.6	38.8	-93.0	8.7
2025-01-16 18:52:34.838170	216.0	39.0	-93.0	6.6
2025-01-16 18:52:35.985500	216.4	39.2	-93.2	6.6
2025-01-16 18:52:37.133846	216.8	39.4	-93.2	3.5
2025-01-16 18:52:38.283099	217.1	39.6	-92.8	3.5
2025-01-16 18:52:39.432410	217.5	39.8	-92.9	1.3
2025-01-16 18:52:40.579313	217.9	39.9	-93.2	2.6
2025-01-16 18:52:41.721523	218.4	40.1	-92.6	2.4
2025-01-16 18:52:42.874701	218.8	40.3	-92.6	7.0
2025-01-16 18:52:44.022079	219.2	40.5	-92.9	7.8
2025-01-16 18:52:45.172012	219.6	40.7	-92.8	7.7
2025-01-16 18:52:46.321010	220.0	40.9	-92.7	9.2
2025-01-16 18:52:47.472233	220.5	41.1	-92.7	7.7
2025-01-16 18:52:48.620723	220.9	41.3	-93.0	3.6
2025-01-16 18:52:49.766881	221.3	41.4	-93.2	0.8
2025-01-16 18:52:50.914730	221.8	41.6	-92.7	4.4
2025-01-16 18:52:52.060369	222.2	41.8	-92.9	5.7
2025-01-16 18:52:53.206440	222.7	42.0	-92.7	2.9
2025-01-16 18:52:54.355153	223.2	42.2	-92.6	5.5
2025-01-16 18:52:55.501695	223.6	42.3	-93.0	4.5
2025-01-16 18:52:56.653509	224.1	42.5	-92.9	5.9
2025-01-16 18:52:57.800254	224.6	42.7	-92.6	8.2
2025-01-16 18:52:58.948846	225.1	42.9	-93.0	6.0
2025-01-16 18:53:00.104198	225.6	43.0	-93.0	6.5
2025-01-16 18:53:01.254892	226.0	43.2	-93.1	6.1
2025-01-16 18:53:02.405845	226.5	43.4	-93.2	5.7
2025-01-16 18:53:03.555888	227.1	43.6	-93.0	2.5
2025-01-16 18:53:04.710146	227.6	43.7	-93.0	1.7
2025-01-16 18:53:05.854736	228.1	43.9	-93.3	2.3
2025-01-16 18:53:07.005088	228.6	44.1	-93.3	5.0
2025-01-16 18:53:08.152812	229.1	44.2	-92.1	1.5
2025-01-16 18:53:09.307459	229.7	44.4	-92.7	2.8
2025-01-16 18:53:10.452409	230.2	44.5	-92.8	4.6
2025-01-16 18:53:11.594974	230.7	44.7	-92.8	7.8
2025-01-16 18:53:12.723918	231.3	44.8	-93.0	3.8
2025-01-16 18:53:13.844284	231.8	45.0	-93.2	6.8
2025-01-16 18:53:14.964787	232.3	45.1	-93.1	5.0
2025-01-16 18:53:16.085240	232.9	45.3	-92.7	3.7
2025-01-16 18:53:17.206446	233.4	45.4	-93.2	4.4
2025-01-16 18:53:18.326535	234.0	45.6	-93.0	7.0
2025-01-16 18:53:19.449366	234.6	45.7	-93.2	13.7
2025-01-16 18:53:20.570465	235.1	45.8	-93.2	7.9
2025-01-16 18:53:21.691713	235.7	46.0	-93.0	4.3
2025-01-16 18:53:22.838179	236.3	46.1	-93.3	3.3
2025-01-16 18:53:23.982425	236.9	46.2	-93.0	10.6
2025-01-16 18:53:25.128233	237.5	46.3	-92.9	9.9
2025-01-16 18:53:26.268650	238.1	46.5	-92.6	3.3
2025-01-16 18:53:27.409171	238.7	46.6	-93.0	7.2
2025-01-16 18:53:28.555163	239.3	46.7	-92.8	8.5
2025-01-16 18:53:29.700419	239.9	46.8	-93.0	6.4
2025-01-16 18:53:30.846687	240.5	46.9	-92.9	14.9
2025-01-16 18:53:31.989367	241.1	47.0	-92.6	10.1
2025-01-16 18:53:33.138816	241.8	47.1	-93.0	12.0
2025-01-16 18:53:34.283520	242.4	47.2	-92.7	8.3
2025-01-16 18:53:35.437604	243.0	47.3	-93.1	9.6
2025-01-16 18:53:36.585344	243.7	47.4	-92.7	7.8
2025-01-16 18:53:37.736104	244.3	47.5	-92.8	6.1
2025-01-16 18:53:38.890376	245.0	47.6	-92.9	9.4
2025-01-16 18:53:40.039441	245.6	47.7	-92.3	10.9
2025-01-16 18:53:41.183605	246.3	47.7	-92.6	6.8
2025-01-16 18:53:42.332547	246.9	47.8	-92.8	7.2
2025-01-16 18:53:43.480666	247.6	47.9	-92.6	9.2
2025-01-16 18:53:44.636811	248.3	48.0	-92.8	8.6
2025-01-16 18:53:45.782919	248.9	48.0	-92.7	3.3
2025-01-16 18:53:46.931202	249.6	48.1	-92.6	10.6
2025-01-16 18:53:48.077839	250.3	48.1	-92.7	8.0
2025-01-16 18:53:49.229638	251.0	48.2	-92.8	4.3
2025-01-16 18:53:50.375071	251.6	48.2	-92.9	11.1
2025-01-16 18:53:51.520304	252.3	48.3	-92.8	8.1
2025-01-16 18:53:52.669154	253.0	48.3	-92.6	9.5
2025-01-16 18:53:53.813027	253.7	48.3	-92.9	12.5
2025-01-16 18:53:54.967023	254.4	48.4	-92.6	15.4
2025-01-16 18:53:56.115710	255.0	48.4	-93.0	22.6
2025-01-16 18:53:57.264155	255.7	48.4	-92.1	17.5
2025-01-16 18:53:58.409748	256.4	48.4	-92.6	18.1
2025-01-16 18:53:59.561054	257.1	48.4	-93.0	20.3
2025-01-16 18:54:00.704198	257.8	48.4	-92.8	17.9
2025-01-16 18:54:01.845908	258.5	48.4	-93.0	18.9
2025-01-16 18:54:02.993629	259.1	48.4	-92.6	20.8
2025-01-16 18:54:04.137230	259.8	48.4	-92.8	22.9
2025-01-16 18:54:05.281974	260.5	48.4	-93.1	17.2
2025-01-16 18:54:06.423143	261.2	48.4	-92.7	21.3
2025-01-16 18:54:07.571610	261.9	48.4	-92.9	8.3
2025-01-16 18:54:08.718267	262.6	48.4	-92.9	21.3
2025-01-16 18:54:09.864302	263.2	48.3	-92.5	19.8
2025-01-16 18:54:11.011786	263.9	48.3	-92.6	13.0
2025-01-16 18:54:12.160403	264.6	48.3	-92.8	15.7
2025-01-16 18:54:13.304332	265.3	48.2	-91.5	13.5
2025-01-16 18:54:14.454991	265.9	48.2	-92.8	13.8
2025-01-16 18:54:15.604245	266.6	48.1	-92.8	12.9
2025-01-16 18:54:16.753153	267.3	48.1	-92.7	11.0
2025-01-16 18:54:17.900070	268.0	48.0	-92.8	5.3
2025-01-16 18:54:19.049551	268.6	48.0	-92.8	9.3
2025-01-16 18:54:20.198247	269.3	47.9	-92.6	9.1
2025-01-16 18:54:21.343344	269.9	47.8	-92.4	6.7
2025-01-16 18:54:22.497984	270.6	47.7	-92.5	8.2
2025-01-16 18:54:23.639679	271.3	47.7	-92.8	4.8
2025-01-16 18:54:24.788390	271.9	47.6	-92.4	5.0
2025-01-16 18:54:25.938974	272.6	47.5	-92.1	9.3
2025-01-16 18:54:27.096674	273.2	47.4	-92.1	10.9
2025-01-16 18:54:28.246310	273.9	47.3	-92.3	7.8
2025-01-16 18:54:29.389946	274.5	47.2	-92.6	11.2
2025-01-16 18:54:30.525403	275.1	47.1	-92.6	9.3
2025-01-16 18:54:31.676022	275.7	47.0	-93.1	7.2
2025-01-16 18:54:32.820716	276.4	46.9	-92.9	3.5
2025-01-16 18:54:33.946214	277.0	46.8	-93.0	7.8
2025-01-16 18:54:35.066030	277.6	46.7	-92.9	6.4
2025-01-16 18:54:36.187240	278.2	46.6	-92.6	2.0
2025-01-16 18:54:37.307930	278.8	46.5	-93.1	5.4
2025-01-16 18:54:38.428246	279.4	46.4	-92.4	9.6
2025-01-16 18:54:39.548864	279.9	46.2	-92.7	13.6
2025-01-16 18:54:40.669319	280.5	46.1	-92.9	6.3
2025-01-16 18:54:41.792890	281.1	46.0	-93.0	4.9
2025-01-16 18:54:42.924122	281.7	45.9	-92.9	10.0
2025-01-16 18:54:44.069735	282.2	45.7	-93.2	7.0
2025-01-16 18:54:45.218978	282.8	45.6	-92.7	3.8
2025-01-16 18:54:46.371414	283.4	45.4	-92.9	7.0
2025-01-16 18:54:47.513673	284.0	45.3	-92.9	10.6
2025-01-16 18:54:48.669509	284.5	45.2	-92.8	7.0
2025-01-16 18:54:49.825693	285.1	45.0	-93.1	6.2
2025-01-16 18:54:50.977481	285.6	44.9	-93.1	6.8
2025-01-16 18:54:52.122830	286.2	44.7	-93.1	12.6
2025-01-16 18:54:53.272928	286.7	44.5	-93.3	7.1
2025-01-16 18:54:54.420662	287.2	44.4	-93.0	4.2
2025-01-16 18:54:55.567071	287.8	44.2	-93.1	6.6
2025-01-16 18:54:56.719686	288.3	44.1	-93.0	9.8
2025-01-16 18:54:57.866861	288.8	43.9	-93.1	3.7
2025-01-16 18:54:59.015380	289.3	43.7	-92.5	11.4
2025-01-16 18:55:00.158104	289.8	43.6	-92.8	11.6
2025-01-16 18:55:01.314014	290.3	43.4	-92.9	10.4
2025-01-16 18:55:02.462092	290.8	43.2	-92.7	15.3
2025-01-16 18:55:03.609593	291.3	43.1	-92.9	12.1
2025-01-16 18:55:04.752298	291.8	42.9	-92.9	12.7
2025-01-16 18:55:05.905409	292.3	42.7	-92.7	14.5
2025-01-16 18:55:07.057491	292.8	42.5	-93.1	17.3
2025-01-16 18:55:08.200825	293.2	42.4	-92.8	13.2
2025-01-16 18:55:09.354434	293.7	42.2	-92.7	16.5
2025-01-16 18:55:10.508153	294.2	42.0	-92.8	17.3
2025-01-16 18:55:11.651838	294.6	41.8	-92.6	18.7
2025-01-16 18:55:12.801401	295.1	41.6	-92.7	18.2
2025-01-16 18:55:13.949822	295.5	41.5	-93.2	20.7
2025-01-16 18:55:15.102472	296.0	41.3	-93.0	16.0
2025-01-16 18:55:16.250493	296.4	41.1	-92.8	18.6
2025-01-16 18:55:17.383792	296.8	40.9	-92.9	17.0
2025-01-16 18:55:18.523269	297.2	40.7	-92.8	18.8
2025-01-16 18:55:19.663184	297.7	40.5	-93.1	14.8
2025-01-16 18:55:20.799122	298.1	40.4	-92.9	15.8
2025-01-16 18:55:21.948538	298.5	40.2	-92.7	17.8
2025-01-16 18:55:23.089779	298.9	40.0	-92.2	13.0
2025-01-16 18:55:24.239947	299.3	39.8	-92.5	12.2
2025-01-16 18:55:25.386401	299.7	39.6	-92.7	16.4
2025-01-16 18:55:26.534258	300.1	39.4	-92.4	11.6
2025-01-16 18:55:27.682451	300.5	39.2	-92.3	11.1
2025-01-16 18:55:28.831965	300.9	39.0	-92.3	6.9
2025-01-16 18:55:29.978625	301.2	38.8	-92.4	9.4
2025-01-16 18:55:31.124889	301.6	38.6	-92.6	7.5
2025-01-16 18:55:32.273057	302.0	38.5	-92.2	6.1
2025-01-16 18:55:33.424310	302.4	38.3	-92.5	7.1
2025-01-16 18:55:34.573246	302.7	38.1	-92.3	9.0
2025-01-16 18:55:35.720503	303.1	37.9	-92.6	6.0
2025-01-16 18:55:36.865502	303.4	37.7	-92.3	6.1
2025-01-16 18:55:38.019213	303.8	37.5	-92.7	7.1
2025-01-16 18:55:39.165129	304.1	37.3	-92.3	3.7
2025-01-16 18:55:40.310081	304.5	37.1	-92.4	2.9
2025-01-16 18:55:41.460418	304.8	36.9	-92.3	8.5
2025-01-16 18:55:42.604798	305.1	36.7	-91.9	8.0
2025-01-16 18:55:43.752771	305.5	36.5	-92.7	5.9
2025-01-16 18:55:44.899759	305.8	36.3	-92.9	6.3
2025-01-16 18:55:46.049751	306.1	36.1	-92.7	8.2
2025-01-16 18:55:47.194976	306.4	36.0	-92.9	6.0
2025-01-16 18:55:48.344213	306.8	35.8	-92.7	10.7
2025-01-16 18:55:49.494321	307.1	35.6	-93.2	11.7
2025-01-16 18:55:50.637406	307.4	35.4	-93.0	7.8
2025-01-16 18:55:51.782738	307.7	35.2	-93.4	6.0
2025-01-16 18:55:52.930406	308.0	35.0	-92.7	0.6
2025-01-16 18:55:54.073455	308.3	34.8	-92.9	6.1
2025-01-16 18:55:55.224431	308.6	34.6	-93.1	5.8
2025-01-16 18:55:56.367062	308.9	34.4	-92.8	5.3
2025-01-16 18:55:57.512387	309.2	34.2	-93.1	8.7
2025-01-16 18:55:58.665132	309.4	34.1	-93.2	4.1
2025-01-16 18:55:59.812341	309.7	33.9	-92.7	3.7
2025-01-16 18:56:00.957863	310.0	33.7	-92.8	6.8
2025-01-16 18:56:02.105212	310.3	33.5	-92.3	7.2
2025-01-16 18:56:03.254747	310.5	33.3	-92.4	3.1
2025-01-16 18:56:04.401752	310.8	33.1	-92.7	4.4
2025-01-16 18:56:05.552706	311.1	32.9	-92.5	5.4
2025-01-16 18:56:06.707250	311.3	32.7	-92.3	5.1
2025-01-16 18:56:07.859873	311.6	32.6	-92.4	4.5
2025-01-16 18:56:09.007429	311.9	32.4	-93.2	6.3
2025-01-16 18:56:10.146268	312.1	32.2	-93.0	13.3
2025-01-16 18:56:11.267789	312.4	32.0	-92.8	11.3
2025-01-16 18:56:12.387760	312.6	31.8	-93.1	14.3
2025-01-16 18:56:13.510094	312.8	31.6	-92.6	17.6
2025-01-16 18:56:14.630404	313.1	31.5	-92.6	11.2
2025-01-16 18:56:15.751892	313.3	31.3	-93.0	7.9
2025-01-16 18:56:16.873051	313.6	31.1	-92.6	10.4
2025-01-16 18:56:17.993647	313.8	30.9	-92.8	10.3
2025-01-16 18:56:19.118288	314.0	30.8	-92.8	7.7
2025-01-16 18:56:20.255609	314.2	30.6	-92.8	7.8
2025-01-16 18:56:21.405168	314.5	30.4	-92.8	9.1
2025-01-16 18:56:22.547625	314.7	30.2	-93.1	6.6
2025-01-16 18:56:23.700954	314.9	30.1	-93.3	6.6
2025-01-16 18:56:24.846611	315.1	29.9	-92.6	4.2
2025-01-16 18:56:25.991987	315.4	29.7	-93.0	6.6
2025-01-16 18:56:27.136109	315.6	29.5	-93.0	7.8
2025-01-16 18:56:28.282380	315.8	29.4	-92.7	5.2
2025-01-16 18:56:29.429357	316.0	29.2	-92.9	10.4
2025-01-16 18:56:30.579112	316.2	29.0	-93.3	11.5
2025-01-16 18:56:31.723514	316.4	28.8	-92.9	7.5
2025-01-16 18:56:32.869946	316.6	28.7	-92.9	14.3
2025-01-16 18:56:34.015219	316.8	28.5	-93.0	14.5
2025-01-16 18:56:35.159455	317.0	28.3	-92.8	9.9
2025-01-16 18:56:36.304891	317.2	28.1	-92.9	7.8
2025-01-16 18:56:37.441298	317.4	28.0	-92.7	9.5
2025-01-16 18:56:38.566356	317.6	27.8	-93.2	8.6
2025-01-16 18:56:39.712221	317.8	27.6	-92.1	5.0
2025-01-16 18:56:40.849314	318.0	27.5	-93.2	6.3
2025-01-16 18:56:41.993753	318.2	27.3	-92.7	7.7
2025-01-16 18:56:43.132168	318.4	27.2	-92.6	3.0
2025-01-16 18:56:44.272542	318.6	27.0	-92.2	2.9
2025-01-16 18:56:45.424205	318.7	26.8	-92.6	5.6
2025-01-16 18:56:46.566646	318.9	26.7	-92.7	6.2
2025-01-16 18:56:47.713016	319.1	26.5	-92.6	3.4
2025-01-16 18:56:48.859701	319.3	26.3	-92.7	6.7
2025-01-16 18:56:50.006806	319.5	26.2	-92.8	9.7
2025-01-16 18:56:51.153113	319.6	26.0	-92.7	6.9
2025-01-16 18:56:52.299125	319.8	25.9	-92.7	13.4
2025-01-16 18:56:53.451720	320.0	25.7	-92.7	10.4
2025-01-16 18:56:54.600319	320.1	25.5	-92.1	6.7
2025-01-16 18:56:55.751444	320.3	25.4	-92.9	10.8
2025-01-16 18:56:56.894601	320.5	25.2	-93.0	12.9
2025-01-16 18:56:58.037220	320.6	25.1	-92.8	7.6
2025-01-16 18:56:59.182884	320.8	24.9	-92.9	5.4
2025-01-16 18:57:00.330689	321.0	24.7	-92.9	5.8
2025-01-16 18:57:01.480113	321.1	24.6	-92.8	5.8
2025-01-16 18:57:02.618332	321.3	24.4	-92.8	8.8
2025-01-16 18:57:03.766899	321.4	24.3	-92.9	7.6
2025-01-16 18:57:04.912970	321.6	24.1	-92.8	9.3
2025-01-16 18:57:06.060195	321.8	24.0	-92.8	10.6
2025-01-16 18:57:07.207515	321.9	23.8	-93.1	8.2
2025-01-16 18:57:08.354970	322.1	23.7	-93.0	8.2
2025-01-16 18:57:09.509186	322.2	23.5	-92.9	7.5
2025-01-16 18:57:10.662925	322.4	23.4	-92.8	7.4
2025-01-16 18:57:11.810348	322.5	23.2	-93.1	2.4
2025-01-16 18:57:12.960192	322.7	23.1	-93.1	2.2
2025-01-16 18:57:14.109444	322.8	22.9	-92.6	5.8
2025-01-16 18:57:15.257466	322.9	22.8	-92.8	1.2
2025-01-16 18:57:16.403837	323.1	22.6	-93.1	3.0
2025-01-16 18:57:17.558129	323.2	22.5	-93.2	0.8
2025-01-16 18:57:18.708501	323.4	22.3	-93.1	2.7
2025-01-16 18:57:19.856153	323.5	22.2	-93.1	2.8
2025-01-16 18:57:21.006833	323.6	22.1	-93.1	4.4
2025-01-16 18:57:22.161099	323.8	21.9	-93.2	4.1
2025-01-16 18:57:23.312286	323.9	21.8	-93.2	6.2
2025-01-16 18:57:24.453287	324.0	21.6	-93.0	5.2
2025-01-16 18:57:25.600429	324.2	21.5	-92.6	9.5
2025-01-16 18:57:26.747886	324.3	21.4	-92.9	3.3
2025-01-16 18:57:27.896918	324.4	21.2	-92.8	3.6
2025-01-16 18:57:29.044458	324.6	21.1	-92.9	3.0
2025-01-16 18:57:30.194840	324.7	20.9	-92.5	3.9
2025-01-16 18:57:31.343941	324.8	20.8	-92.5	1.4
2025-01-16 18:57:32.490051	325.0	20.7	-93.1	2.6
2025-01-16 18:57:33.743573	325.1	20.5	-93.5	2.8
2025-01-16 18:57:34.892529	325.2	20.4	-92.9	2.0
2025-01-16 18:57:36.043399	325.3	20.2	-93.2	3.5
2025-01-16 18:57:37.194354	325.5	20.1	-93.2	2.5
2025-01-16 18:57:38.349721	325.6	20.0	-93.2	1.0
2025-01-16 18:57:39.499213	325.7	19.8	-93.2	0.9
2025-01-16 18:57:40.653138	325.8	19.7	-93.1	2.4
2025-01-16 18:57:41.803322	325.9	19.6	-93.0	1.5
2025-01-16 18:57:42.955642	326.1	19.4	-93.1	4.2
2025-01-16 18:57:44.109372	326.2	19.3	-93.1	1.7
2025-01-16 18:57:45.259292	326.3	19.2	-93.0	2.6
2025-01-16 18:57:46.412934	326.4	19.0	-93.0	2.8
2025-01-16 18:57:47.562046	326.5	18.9	-92.8	1.7
2025-01-16 18:57:48.714619	326.6	18.8	-93.2	1.2
2025-01-16 18:57:49.867715	326.7	18.7	-93.1	3.3
2025-01-16 18:57:51.022514	326.8	18.5	-93.2	3.1
2025-01-16 18:57:52.173105	327.0	18.4	-92.9	3.3
2025-01-16 18:57:53.326288	327.1	18.3	-92.8	1.9
2025-01-16 18:57:54.470187	327.2	18.1	-93.3	2.6
2025-01-16 18:57:55.618865	327.3	18.0	-93.3	2.3
2025-01-16 18:57:56.772057	327.4	17.9	-93.0	2.7
2025-01-16 18:57:57.926408	327.5	17.8	-93.1	1.3
2025-01-16 18:57:59.079691	327.6	17.6	-92.9	1.5
2025-01-16 18:58:00.230535	327.7	17.5	-93.2	1.2
2025-01-16 18:58:01.381610	327.8	17.4	-93.0	1.8
2025-01-16 18:58:02.528402	327.9	17.3	-92.8	2.5
2025-01-16 18:58:03.676081	328.0	17.2	-93.4	1.2
2025-01-16 18:58:04.831243	328.1	17.0	-93.1	3.5
2025-01-16 18:58:05.990280	328.2	16.9	-92.9	4.5
2025-01-16 18:58:07.140663	328.3	16.8	-93.1	3.6
2025-01-16 18:58:08.289655	328.4	16.7	-93.0	0.7
2025-01-16 18:58:09.440882	328.5	16.6	-93.1	4.3
2025-01-16 18:58:10.590955	328.6	16.4	-93.0	4.7
2025-01-16 18:58:11.737535	328.7	16.3	-93.2	4.6
2025-01-16 18:58:12.885182	328.8	16.2	-93.1	7.9
2025-01-16 18:58:14.035807	328.9	16.1	-92.8	6.6
2025-01-16 18:58:15.178452	329.0	16.0	-93.3	4.9
2025-01-16 18:58:16.323872	329.1	15.8	-92.9	1.0
2025-01-16 18:58:17.479933	329.2	15.7	-92.6	3.4
2025-01-16 18:58:18.627302	329.3	15.6	-92.9	3.0
2025-01-16 18:58:19.774276	329.3	15.5	-93.2	2.2
2025-01-16 18:58:20.921231	329.4	15.4	-92.6	0.2
2025-01-16 18:58:22.071416	329.5	15.3	-93.0	2.0
2025-01-16 18:58:23.217855	329.6	15.2	-93.0	3.1
2025-01-16 18:58:24.363101	329.7	15.0	-92.9	1.4
2025-01-16 18:58:25.511860	329.8	14.9	-93.1	1.7
2025-01-16 18:58:26.657771	329.9	14.8	-93.0	6.6
2025-01-16 18:58:27.811202	330.0	14.7	-93.1	4.4
2025-01-16 18:58:28.959816	330.1	14.6	-92.9	9.1
2025-01-16 18:58:30.111744	330.1	14.5	-92.8	8.8
#Closed at: 2025-01-16 18:49:45.604771