passes_logs/2025/01/16/LEX_Murmansk/LEX_Murmansk__20250116_191405_NOAA_18_rec.log

#Pass ID: 20250116_191405_NOAA 18
#Satellite: NOAA 18
#Configuration: NOAA 18
#Start time: 2025-01-16 19:14:00.784293

#LorettStation: 1.0.0 05.05.2024
#Station: LEX_Murmansk
#Location: 33.156738 lon 68.926811 lat
#TLE: 1 28654U 05018A   25016.15379782  .00000321  00000+0  19399-3 0  9994
#TLE: 2 28654  98.8565  97.1968 0014416 175.9109 184.2183 14.13487365 13346

#Time	Az	El	Level	SNR
2025-01-16 19:14:13.021854	163.3	16.3	-92.6	7.8
2025-01-16 19:14:14.176195	163.3	16.4	-92.5	6.3
2025-01-16 19:14:15.322254	163.3	16.6	-92.7	10.5
2025-01-16 19:14:16.470363	163.4	16.7	-92.4	9.4
2025-01-16 19:14:17.619945	163.4	16.8	-92.7	7.9
2025-01-16 19:14:18.770404	163.4	17.0	-92.7	7.7
2025-01-16 19:14:19.925834	163.5	17.1	-92.7	9.5
2025-01-16 19:14:21.070679	163.5	17.2	-92.5	8.1
2025-01-16 19:14:22.226426	163.5	17.3	-92.5	6.3
2025-01-16 19:14:23.376738	163.6	17.5	-92.7	6.7
2025-01-16 19:14:24.524573	163.6	17.6	-92.5	5.7
2025-01-16 19:14:25.674971	163.6	17.7	-92.7	5.3
2025-01-16 19:14:26.822623	163.7	17.9	-92.8	7.1
2025-01-16 19:14:27.971827	163.7	18.0	-92.9	4.1
2025-01-16 19:14:29.122877	163.7	18.1	-93.0	6.8
2025-01-16 19:14:30.270142	163.8	18.3	-92.9	8.0
2025-01-16 19:14:31.413945	163.8	18.4	-92.5	7.3
2025-01-16 19:14:32.559809	163.8	18.6	-93.0	4.1
2025-01-16 19:14:33.729704	163.9	18.7	-92.4	8.2
2025-01-16 19:14:34.882556	163.9	18.8	-92.3	5.4
2025-01-16 19:14:36.034740	163.9	19.0	-92.5	9.2
2025-01-16 19:14:37.183366	164.0	19.1	-92.8	9.0
2025-01-16 19:14:38.332141	164.0	19.3	-92.7	7.4
2025-01-16 19:14:39.480806	164.0	19.4	-92.9	6.3
2025-01-16 19:14:40.630755	164.1	19.5	-92.7	5.7
2025-01-16 19:14:41.777692	164.1	19.7	-92.7	7.2
2025-01-16 19:14:42.929704	164.2	19.8	-92.6	5.0
2025-01-16 19:14:44.087688	164.2	20.0	-92.8	10.0
2025-01-16 19:14:45.240134	164.2	20.1	-93.0	9.8
2025-01-16 19:14:46.388519	164.3	20.3	-93.2	11.9
2025-01-16 19:14:47.531409	164.3	20.4	-92.5	8.9
2025-01-16 19:14:48.673100	164.4	20.6	-92.9	13.1
2025-01-16 19:14:49.821131	164.4	20.7	-92.7	12.8
2025-01-16 19:14:50.971433	164.4	20.9	-92.6	10.5
2025-01-16 19:14:52.130788	164.5	21.0	-92.6	10.7
2025-01-16 19:14:53.278997	164.5	21.2	-92.6	11.9
2025-01-16 19:14:54.425287	164.6	21.3	-93.1	11.1
2025-01-16 19:14:55.573618	164.6	21.5	-92.5	6.2
2025-01-16 19:14:56.725092	164.6	21.6	-93.0	10.5
2025-01-16 19:14:57.875879	164.7	21.8	-92.5	7.1
2025-01-16 19:14:59.024173	164.7	22.0	-92.9	6.6
2025-01-16 19:15:00.173696	164.8	22.1	-93.2	9.8
2025-01-16 19:15:01.326790	164.8	22.3	-92.7	9.6
2025-01-16 19:15:02.474982	164.9	22.4	-93.0	12.2
2025-01-16 19:15:03.622326	164.9	22.6	-93.2	14.3
2025-01-16 19:15:04.767114	165.0	22.8	-93.1	14.5
2025-01-16 19:15:05.921301	165.0	22.9	-92.9	9.6
2025-01-16 19:15:07.075666	165.0	23.1	-93.1	11.2
2025-01-16 19:15:08.234963	165.1	23.2	-92.8	12.2
2025-01-16 19:15:09.385007	165.1	23.4	-93.1	12.9
2025-01-16 19:15:10.533363	165.2	23.6	-92.9	10.0
2025-01-16 19:15:11.685930	165.2	23.8	-93.0	12.4
2025-01-16 19:15:12.832996	165.3	23.9	-93.1	12.2
2025-01-16 19:15:13.981028	165.3	24.1	-93.0	6.9
2025-01-16 19:15:15.127777	165.4	24.3	-92.8	9.3
2025-01-16 19:15:16.279090	165.4	24.4	-92.8	14.8
2025-01-16 19:15:17.424850	165.5	24.6	-93.0	12.7
2025-01-16 19:15:18.573774	165.5	24.8	-93.2	16.2
2025-01-16 19:15:19.718213	165.6	25.0	-92.2	13.2
2025-01-16 19:15:20.868317	165.6	25.1	-92.6	12.9
2025-01-16 19:15:22.015324	165.7	25.3	-92.7	11.8
2025-01-16 19:15:23.171280	165.7	25.5	-92.5	13.2
2025-01-16 19:15:24.314901	165.8	25.7	-92.9	15.1
2025-01-16 19:15:25.462103	165.8	25.9	-93.1	13.6
2025-01-16 19:15:26.614661	165.9	26.0	-92.6	11.0
2025-01-16 19:15:27.761472	166.0	26.2	-93.0	8.9
2025-01-16 19:15:28.902577	166.0	26.4	-92.9	7.0
2025-01-16 19:15:30.053479	166.1	26.6	-93.3	5.7
2025-01-16 19:15:31.199199	166.1	26.8	-93.0	8.8
2025-01-16 19:15:32.349021	166.2	27.0	-93.1	9.8
2025-01-16 19:15:33.494170	166.2	27.2	-92.8	7.3
2025-01-16 19:15:34.644487	166.3	27.4	-93.0	10.4
2025-01-16 19:15:35.800323	166.4	27.5	-93.0	10.8
2025-01-16 19:15:36.947163	166.4	27.7	-92.9	11.5
2025-01-16 19:15:38.105846	166.5	27.9	-93.0	13.2
2025-01-16 19:15:39.254529	166.5	28.1	-93.3	15.8
2025-01-16 19:15:40.409550	166.6	28.3	-93.2	15.0
2025-01-16 19:15:41.568111	166.7	28.5	-93.2	17.5
2025-01-16 19:15:42.724321	166.7	28.7	-93.7	14.9
2025-01-16 19:15:43.869050	166.8	28.9	-93.0	13.1
2025-01-16 19:15:45.021476	166.9	29.1	-93.2	7.2
2025-01-16 19:15:46.167950	166.9	29.4	-93.2	10.3
2025-01-16 19:15:47.312484	167.0	29.6	-93.0	10.5
2025-01-16 19:15:48.467434	167.1	29.8	-92.9	7.3
2025-01-16 19:15:49.612047	167.1	30.0	-92.9	10.8
2025-01-16 19:15:50.765540	167.2	30.2	-93.3	11.1
2025-01-16 19:15:51.913752	167.3	30.4	-93.1	14.2
2025-01-16 19:15:53.065766	167.3	30.6	-93.0	14.3
2025-01-16 19:15:54.220158	167.4	30.8	-93.0	17.0
2025-01-16 19:15:55.374818	167.5	31.1	-93.0	10.5
2025-01-16 19:15:56.530586	167.5	31.3	-93.1	12.0
2025-01-16 19:15:57.682712	167.6	31.5	-93.2	14.5
2025-01-16 19:15:58.830854	167.7	31.7	-93.0	14.6
2025-01-16 19:15:59.978349	167.8	31.9	-92.7	15.4
2025-01-16 19:16:01.127334	167.9	32.2	-93.1	13.8
2025-01-16 19:16:02.272943	167.9	32.4	-93.1	16.6
2025-01-16 19:16:03.428395	168.0	32.6	-92.9	8.7
2025-01-16 19:16:04.584854	168.1	32.9	-92.6	7.5
2025-01-16 19:16:05.741236	168.2	33.1	-92.6	16.0
2025-01-16 19:16:06.892018	168.3	33.3	-92.8	15.0
2025-01-16 19:16:08.041451	168.3	33.6	-92.6	14.6
2025-01-16 19:16:09.196593	168.4	33.8	-92.7	14.3
2025-01-16 19:16:10.348635	168.5	34.0	-93.0	10.7
2025-01-16 19:16:11.498951	168.6	34.3	-92.9	8.5
2025-01-16 19:16:12.647453	168.7	34.5	-93.2	13.7
2025-01-16 19:16:13.802155	168.8	34.8	-93.1	15.2
2025-01-16 19:16:14.960053	168.9	35.0	-93.1	11.5
2025-01-16 19:16:16.102446	169.0	35.3	-92.5	10.4
2025-01-16 19:16:17.254748	169.1	35.5	-92.8	5.9
2025-01-16 19:16:18.403115	169.1	35.8	-92.9	8.1
2025-01-16 19:16:19.558634	169.2	36.0	-93.2	9.9
2025-01-16 19:16:20.712163	169.3	36.3	-93.4	12.8
2025-01-16 19:16:21.862039	169.4	36.5	-93.3	8.9
2025-01-16 19:16:23.013921	169.5	36.8	-92.9	9.6
2025-01-16 19:16:24.161966	169.6	37.1	-93.0	14.4
2025-01-16 19:16:25.308186	169.8	37.3	-93.0	14.5
2025-01-16 19:16:26.461725	169.9	37.6	-92.9	13.0
2025-01-16 19:16:27.617012	170.0	37.9	-92.9	14.7
2025-01-16 19:16:28.744305	170.1	38.1	-92.9	17.2
2025-01-16 19:16:29.865994	170.2	38.4	-93.0	9.4
2025-01-16 19:16:30.986504	170.3	38.7	-92.5	9.4
2025-01-16 19:16:32.107587	170.4	38.9	-93.0	14.5
2025-01-16 19:16:33.230352	170.5	39.2	-92.9	16.5
2025-01-16 19:16:34.351250	170.6	39.5	-93.1	13.9
2025-01-16 19:16:35.471623	170.7	39.8	-93.0	16.7
2025-01-16 19:16:36.593777	170.9	40.0	-93.2	10.8
2025-01-16 19:16:37.717270	171.0	40.3	-93.5	9.6
2025-01-16 19:16:38.874899	171.1	40.6	-93.3	8.8
2025-01-16 19:16:40.014385	171.2	40.9	-93.0	8.2
2025-01-16 19:16:41.155615	171.4	41.2	-92.9	12.2
2025-01-16 19:16:42.295561	171.5	41.5	-92.8	14.2
2025-01-16 19:16:43.439533	171.6	41.8	-93.0	9.7
2025-01-16 19:16:44.586084	171.8	42.1	-92.5	12.0
2025-01-16 19:16:45.733849	171.9	42.4	-92.7	17.9
2025-01-16 19:16:46.884878	172.1	42.7	-92.2	11.9
2025-01-16 19:16:48.032458	172.2	43.0	-92.7	7.2
2025-01-16 19:16:49.178130	172.4	43.3	-92.5	19.8
2025-01-16 19:16:50.326023	172.5	43.6	-92.9	17.7
2025-01-16 19:16:51.483805	172.7	43.9	-92.8	16.0
2025-01-16 19:16:52.636367	172.8	44.2	-92.9	14.8
2025-01-16 19:16:53.785395	173.0	44.6	-93.2	18.9
2025-01-16 19:16:54.944693	173.1	44.9	-93.2	16.6
2025-01-16 19:16:56.099845	173.3	45.2	-92.7	11.4
2025-01-16 19:16:57.249408	173.5	45.5	-93.0	20.6
2025-01-16 19:16:58.404344	173.6	45.9	-92.6	13.1
2025-01-16 19:16:59.559859	173.8	46.2	-93.0	10.5
2025-01-16 19:17:00.713229	174.0	46.5	-91.6	17.9
2025-01-16 19:17:01.870436	174.2	46.9	-93.2	11.4
2025-01-16 19:17:03.016213	174.4	47.2	-93.0	10.0
2025-01-16 19:17:04.168680	174.6	47.5	-92.8	12.3
2025-01-16 19:17:05.317707	174.8	47.9	-92.9	18.7
2025-01-16 19:17:06.462391	175.0	48.2	-93.2	18.6
2025-01-16 19:17:07.612975	175.2	48.6	-92.8	17.2
2025-01-16 19:17:08.758927	175.4	48.9	-92.7	18.5
2025-01-16 19:17:09.908539	175.6	49.3	-93.2	12.8
2025-01-16 19:17:11.060558	175.8	49.6	-93.2	13.7
2025-01-16 19:17:12.206222	176.0	50.0	-92.7	16.3
2025-01-16 19:17:13.351321	176.3	50.3	-93.2	11.0
2025-01-16 19:17:14.494562	176.5	50.7	-93.0	17.3
2025-01-16 19:17:15.643098	176.7	51.1	-92.8	11.3
2025-01-16 19:17:16.801277	177.0	51.4	-92.8	8.9
2025-01-16 19:17:17.944838	177.2	51.8	-92.9	10.3
2025-01-16 19:17:19.095487	177.5	52.2	-93.3	11.4
2025-01-16 19:17:20.238963	177.8	52.5	-92.7	14.2
2025-01-16 19:17:21.387598	178.0	52.9	-92.8	10.5
2025-01-16 19:17:22.533571	178.3	53.3	-93.0	6.5
2025-01-16 19:17:23.682642	178.6	53.7	-92.8	12.2
2025-01-16 19:17:24.833221	178.9	54.0	-92.8	14.3
2025-01-16 19:17:25.982267	179.2	54.4	-93.1	10.8
2025-01-16 19:17:27.134059	179.5	54.8	-92.9	12.9
2025-01-16 19:17:28.287458	179.8	55.2	-93.1	14.1
2025-01-16 19:17:29.439879	180.1	55.6	-92.7	15.8
2025-01-16 19:17:30.584057	180.5	56.0	-92.7	16.9
2025-01-16 19:17:31.732974	180.8	56.4	-93.2	21.7
2025-01-16 19:17:32.880150	181.2	56.8	-92.8	12.2
2025-01-16 19:17:34.034746	181.5	57.2	-92.6	15.1
2025-01-16 19:17:35.191594	181.9	57.6	-92.9	19.3
2025-01-16 19:17:36.345059	182.3	58.0	-92.8	18.5
2025-01-16 19:17:37.498530	182.7	58.4	-93.2	13.4
2025-01-16 19:17:38.648721	183.1	58.8	-92.9	19.8
2025-01-16 19:17:39.798218	183.5	59.2	-92.9	17.7
2025-01-16 19:17:40.950312	183.9	59.6	-92.9	16.1
2025-01-16 19:17:42.103933	184.4	60.0	-93.0	12.6
2025-01-16 19:17:43.261798	184.9	60.4	-92.7	16.9
2025-01-16 19:17:44.412629	185.3	60.8	-93.0	12.7
2025-01-16 19:17:45.559581	185.8	61.2	-92.5	12.7
2025-01-16 19:17:46.686219	186.3	61.6	-92.4	15.5
2025-01-16 19:17:47.806804	186.8	62.0	-93.1	22.9
2025-01-16 19:17:48.926485	187.4	62.4	-92.8	11.9
2025-01-16 19:17:50.047300	187.9	62.8	-92.9	13.7
2025-01-16 19:17:51.168559	188.5	63.2	-92.9	12.3
2025-01-16 19:17:52.289405	189.1	63.6	-93.2	18.1
2025-01-16 19:17:53.409867	189.7	64.0	-93.1	12.5
2025-01-16 19:17:54.533983	190.3	64.4	-92.7	20.5
2025-01-16 19:17:55.661928	190.9	64.8	-92.9	16.0
2025-01-16 19:17:56.809089	191.6	65.2	-93.3	21.9
2025-01-16 19:17:57.957794	192.3	65.6	-92.6	20.7
2025-01-16 19:17:59.108857	193.1	66.0	-92.8	13.2
2025-01-16 19:18:00.242706	193.8	66.4	-92.8	13.0
2025-01-16 19:18:01.400284	194.6	66.8	-92.8	7.6
2025-01-16 19:18:02.552976	195.5	67.2	-93.1	11.3
2025-01-16 19:18:03.705755	196.3	67.6	-93.0	20.0
2025-01-16 19:18:04.859337	197.2	68.0	-93.0	15.5
2025-01-16 19:18:06.007316	198.1	68.4	-93.2	15.9
2025-01-16 19:18:07.159406	199.1	68.8	-92.8	12.2
2025-01-16 19:18:08.311681	200.1	69.2	-92.6	10.6
2025-01-16 19:18:09.457054	201.1	69.6	-92.8	10.4
2025-01-16 19:18:10.605222	202.2	69.9	-92.9	19.3
2025-01-16 19:18:11.753399	203.4	70.3	-92.3	21.3
2025-01-16 19:18:12.897601	204.5	70.7	-92.5	18.9
2025-01-16 19:18:14.045480	205.7	71.0	-93.1	21.3
2025-01-16 19:18:15.195620	207.0	71.4	-93.0	17.8
2025-01-16 19:18:16.341267	208.3	71.7	-92.5	18.2
2025-01-16 19:18:17.495296	209.7	72.0	-92.9	11.6
2025-01-16 19:18:18.644810	211.1	72.4	-92.6	16.1
2025-01-16 19:18:19.794943	212.6	72.7	-93.1	19.5
2025-01-16 19:18:20.947981	214.1	73.0	-93.0	12.3
2025-01-16 19:18:22.096847	215.7	73.3	-93.2	7.5
2025-01-16 19:18:23.254828	217.4	73.6	-93.0	18.6
2025-01-16 19:18:24.402596	219.1	73.8	-92.6	12.2
2025-01-16 19:18:25.553467	220.9	74.1	-92.8	9.4
2025-01-16 19:18:26.699781	222.7	74.3	-92.9	13.5
2025-01-16 19:18:27.852405	224.6	74.5	-93.1	15.5
2025-01-16 19:18:28.995287	226.5	74.7	-92.8	15.0
2025-01-16 19:18:30.128861	228.5	74.9	-93.1	12.4
2025-01-16 19:18:31.277542	230.5	75.1	-92.9	19.0
2025-01-16 19:18:32.431098	232.6	75.3	-92.9	15.8
2025-01-16 19:18:33.581129	234.8	75.4	-92.6	17.9
2025-01-16 19:18:34.732468	236.9	75.5	-92.6	23.0
2025-01-16 19:18:35.881163	239.1	75.6	-92.9	29.8
2025-01-16 19:18:37.034028	241.4	75.7	-92.8	25.8
2025-01-16 19:18:38.182809	243.6	75.7	-92.7	26.9
2025-01-16 19:18:39.336559	245.9	75.8	-93.1	23.3
2025-01-16 19:18:40.485833	248.2	75.8	-93.3	12.3
2025-01-16 19:18:41.636348	250.4	75.8	-93.0	21.7
2025-01-16 19:18:42.789588	252.7	75.7	-92.6	25.9
2025-01-16 19:18:43.939518	255.0	75.7	-92.7	24.4
2025-01-16 19:18:45.089459	257.2	75.6	-92.9	22.7
2025-01-16 19:18:46.239461	259.4	75.5	-92.5	16.5
2025-01-16 19:18:47.394936	261.6	75.4	-93.2	22.2
2025-01-16 19:18:48.542942	263.7	75.3	-93.0	21.3
2025-01-16 19:18:49.696844	265.8	75.1	-92.7	28.9
2025-01-16 19:18:50.854382	267.9	74.9	-92.8	29.1
2025-01-16 19:18:52.009957	269.9	74.7	-92.8	20.3
2025-01-16 19:18:53.160001	271.8	74.5	-92.9	18.5
2025-01-16 19:18:54.315922	273.7	74.3	-92.7	27.4
2025-01-16 19:18:55.465247	275.5	74.1	-92.8	13.7
2025-01-16 19:18:56.614957	277.3	73.8	-92.6	19.3
2025-01-16 19:18:57.767938	279.0	73.6	-92.8	21.9
2025-01-16 19:18:58.917595	280.7	73.3	-92.9	17.3
2025-01-16 19:19:00.062539	282.3	73.0	-92.8	16.3
2025-01-16 19:19:01.211323	283.8	72.7	-93.0	23.5
2025-01-16 19:19:02.357859	285.3	72.4	-93.2	26.6
2025-01-16 19:19:03.513642	286.7	72.0	-92.7	18.3
2025-01-16 19:19:04.664847	288.1	71.7	-93.0	25.9
2025-01-16 19:19:05.816786	289.4	71.4	-93.1	27.0
2025-01-16 19:19:06.969446	290.7	71.0	-92.9	20.8
2025-01-16 19:19:08.119071	291.9	70.7	-92.7	13.6
2025-01-16 19:19:09.264449	293.1	70.3	-93.2	18.6
2025-01-16 19:19:10.400333	294.2	69.9	-93.1	11.2
2025-01-16 19:19:11.549687	295.3	69.6	-93.1	12.9
2025-01-16 19:19:12.699788	296.3	69.2	-93.1	22.9
2025-01-16 19:19:13.852608	297.3	68.8	-92.9	18.9
2025-01-16 19:19:15.001669	298.3	68.4	-93.2	11.0
2025-01-16 19:19:16.150537	299.2	68.0	-93.3	16.2
2025-01-16 19:19:17.300667	300.1	67.6	-93.1	7.3
2025-01-16 19:19:18.452056	301.0	67.2	-93.1	4.6
2025-01-16 19:19:19.601663	301.8	66.8	-93.0	5.6
2025-01-16 19:19:20.754711	302.6	66.4	-92.2	10.5
2025-01-16 19:19:21.904230	303.4	66.0	-92.7	6.7
2025-01-16 19:19:23.055390	304.1	65.6	-93.1	7.2
2025-01-16 19:19:24.204786	304.8	65.2	-92.6	12.0
2025-01-16 19:19:25.351182	305.5	64.8	-93.1	19.6
2025-01-16 19:19:26.502706	306.2	64.4	-93.2	10.5
2025-01-16 19:19:27.656888	306.8	64.0	-92.8	7.4
2025-01-16 19:19:28.802930	307.4	63.6	-92.9	20.8
2025-01-16 19:19:29.953141	308.0	63.2	-92.5	9.9
2025-01-16 19:19:31.107443	308.6	62.8	-93.1	10.4
2025-01-16 19:19:32.255163	309.2	62.3	-92.7	19.0
2025-01-16 19:19:33.411951	309.7	61.9	-93.2	13.5
2025-01-16 19:19:34.566965	310.2	61.5	-93.0	11.2
2025-01-16 19:19:35.723634	310.7	61.1	-92.8	10.9
2025-01-16 19:19:36.878736	311.2	60.7	-93.1	14.7
2025-01-16 19:19:38.029657	311.7	60.3	-92.6	15.4
2025-01-16 19:19:39.181948	312.2	59.9	-90.7	17.5
2025-01-16 19:19:40.333756	312.6	59.5	-93.0	19.7
2025-01-16 19:19:41.486048	313.0	59.1	-93.0	18.4
2025-01-16 19:19:42.641374	313.5	58.7	-92.8	20.1
2025-01-16 19:19:43.795769	313.9	58.3	-92.9	22.1
2025-01-16 19:19:44.932037	314.3	57.9	-93.0	20.3
2025-01-16 19:19:46.052856	314.6	57.5	-93.0	19.5
2025-01-16 19:19:47.185524	315.0	57.1	-92.9	22.8
2025-01-16 19:19:48.328383	315.4	56.7	-92.8	23.2
2025-01-16 19:19:49.476631	315.7	56.3	-93.0	14.4
2025-01-16 19:19:50.620864	316.1	55.9	-93.0	21.0
2025-01-16 19:19:51.772834	316.4	55.5	-93.2	17.9
2025-01-16 19:19:52.922023	316.7	55.1	-93.0	21.8
2025-01-16 19:19:54.074839	317.0	54.7	-93.0	11.6
2025-01-16 19:19:55.228496	317.3	54.4	-92.8	16.1
2025-01-16 19:19:56.375360	317.6	54.0	-93.0	13.7
2025-01-16 19:19:57.521391	317.9	53.6	-92.4	13.6
2025-01-16 19:19:58.665492	318.2	53.2	-93.3	13.4
2025-01-16 19:19:59.808378	318.5	52.8	-93.2	18.0
2025-01-16 19:20:00.959660	318.8	52.5	-92.8	12.2
2025-01-16 19:20:02.106650	319.0	52.1	-92.8	6.0
2025-01-16 19:20:03.264485	319.3	51.7	-92.9	11.9
2025-01-16 19:20:04.410166	319.5	51.4	-93.0	6.8
2025-01-16 19:20:05.557904	319.8	51.0	-92.8	3.2
2025-01-16 19:20:06.709049	320.0	50.6	-92.9	13.8
2025-01-16 19:20:07.856889	320.2	50.3	-92.7	9.8
2025-01-16 19:20:09.008489	320.5	49.9	-93.2	10.0
2025-01-16 19:20:10.160979	320.7	49.6	-93.1	11.2
2025-01-16 19:20:11.311035	320.9	49.2	-92.9	10.3
2025-01-16 19:20:12.458072	321.1	48.9	-93.0	12.1
2025-01-16 19:20:13.603901	321.3	48.5	-93.0	12.4
2025-01-16 19:20:14.750504	321.5	48.2	-92.9	16.5
2025-01-16 19:20:15.898602	321.7	47.8	-92.9	22.6
2025-01-16 19:20:17.045399	321.9	47.5	-92.7	15.9
2025-01-16 19:20:18.194271	322.1	47.1	-92.7	14.9
2025-01-16 19:20:19.345572	322.3	46.8	-93.0	18.7
2025-01-16 19:20:20.493441	322.5	46.5	-93.2	17.9
2025-01-16 19:20:21.640068	322.7	46.1	-92.7	21.0
2025-01-16 19:20:22.795178	322.9	45.8	-93.2	20.3
2025-01-16 19:20:23.943377	323.0	45.5	-93.0	14.5
2025-01-16 19:20:25.099761	323.2	45.1	-93.0	10.4
2025-01-16 19:20:26.250031	323.4	44.8	-92.7	20.5
2025-01-16 19:20:27.404809	323.5	44.5	-92.9	13.7
2025-01-16 19:20:28.552139	323.7	44.2	-92.9	9.9
2025-01-16 19:20:29.698686	323.8	43.9	-92.9	14.8
2025-01-16 19:20:30.845177	324.0	43.6	-93.2	19.2
2025-01-16 19:20:32.000393	324.1	43.2	-93.0	9.4
2025-01-16 19:20:33.149974	324.3	42.9	-93.0	17.4
2025-01-16 19:20:34.295831	324.4	42.6	-92.8	16.4
2025-01-16 19:20:35.445203	324.6	42.3	-92.9	14.0
2025-01-16 19:20:36.600650	324.7	42.0	-92.9	20.9
2025-01-16 19:20:37.747586	324.9	41.7	-93.1	15.8
2025-01-16 19:20:38.895288	325.0	41.4	-93.0	18.6
2025-01-16 19:20:40.042585	325.1	41.1	-93.3	17.7
2025-01-16 19:20:41.193221	325.3	40.8	-92.9	17.2
2025-01-16 19:20:42.346649	325.4	40.6	-92.7	15.1
2025-01-16 19:20:43.499720	325.5	40.3	-93.2	10.7
2025-01-16 19:20:44.650266	325.6	40.0	-93.0	14.5
2025-01-16 19:20:45.802585	325.8	39.7	-93.0	22.5
2025-01-16 19:20:46.952370	325.9	39.4	-92.8	11.7
2025-01-16 19:20:48.107233	326.0	39.1	-93.3	13.4
2025-01-16 19:20:49.253671	326.1	38.8	-92.6	9.7
2025-01-16 19:20:50.402717	326.2	38.6	-92.8	12.4
2025-01-16 19:20:51.552075	326.3	38.3	-93.4	9.6
2025-01-16 19:20:52.699310	326.4	38.0	-92.9	15.4
2025-01-16 19:20:53.845447	326.6	37.8	-93.0	22.6
2025-01-16 19:20:54.993219	326.7	37.5	-93.0	11.4
2025-01-16 19:20:56.142043	326.8	37.2	-92.8	12.8
2025-01-16 19:20:57.295259	326.9	37.0	-93.0	15.5
2025-01-16 19:20:58.446857	327.0	36.7	-92.9	20.2
2025-01-16 19:20:59.592794	327.1	36.4	-93.3	3.3
2025-01-16 19:21:00.739101	327.2	36.2	-93.1	9.5
2025-01-16 19:21:01.886198	327.3	35.9	-92.7	9.7
2025-01-16 19:21:03.036148	327.4	35.7	-92.7	7.9
2025-01-16 19:21:04.191521	327.5	35.4	-93.1	11.9
2025-01-16 19:21:05.345276	327.6	35.2	-93.2	11.7
2025-01-16 19:21:06.496650	327.6	34.9	-93.0	5.0
2025-01-16 19:21:07.646336	327.7	34.7	-92.9	13.0
2025-01-16 19:21:08.790985	327.8	34.4	-93.3	14.0
2025-01-16 19:21:09.939865	327.9	34.2	-93.0	10.8
2025-01-16 19:21:11.089940	328.0	34.0	-93.3	13.4
2025-01-16 19:21:12.237857	328.1	33.7	-92.8	12.2
2025-01-16 19:21:13.396516	328.2	33.5	-93.1	11.1
2025-01-16 19:21:14.547226	328.3	33.2	-93.0	19.2
2025-01-16 19:21:15.699059	328.3	33.0	-93.2	9.3
2025-01-16 19:21:16.851003	328.4	32.8	-92.8	14.4
2025-01-16 19:21:17.997615	328.5	32.5	-92.7	16.1
2025-01-16 19:21:19.142920	328.6	32.3	-92.8	17.7
2025-01-16 19:21:20.291170	328.7	32.1	-93.0	10.5
2025-01-16 19:21:21.444596	328.7	31.9	-92.6	12.1
2025-01-16 19:21:22.597515	328.8	31.6	-93.2	16.7
2025-01-16 19:21:23.752651	328.9	31.4	-92.7	14.2
2025-01-16 19:21:24.900808	329.0	31.2	-92.9	5.6
2025-01-16 19:21:26.047937	329.0	31.0	-92.7	11.6
2025-01-16 19:21:27.191325	329.1	30.8	-92.7	9.7
2025-01-16 19:21:28.339612	329.2	30.5	-92.6	18.7
2025-01-16 19:21:29.491983	329.3	30.3	-93.1	19.3
2025-01-16 19:21:30.637677	329.3	30.1	-92.8	15.8
2025-01-16 19:21:31.796047	329.4	29.9	-92.9	17.0
2025-01-16 19:21:32.944462	329.5	29.7	-93.1	10.4
2025-01-16 19:21:34.092815	329.5	29.5	-92.8	9.6
2025-01-16 19:21:35.245478	329.6	29.3	-93.1	10.9
2025-01-16 19:21:36.401708	329.7	29.1	-93.4	4.8
2025-01-16 19:21:37.548523	329.7	28.9	-93.3	4.9
2025-01-16 19:21:38.699757	329.8	28.7	-93.2	5.2
2025-01-16 19:21:39.853842	329.9	28.5	-93.3	9.8
2025-01-16 19:21:40.998783	329.9	28.3	-92.4	8.6
2025-01-16 19:21:42.146511	330.0	28.1	-93.1	12.8
2025-01-16 19:21:43.301903	330.0	27.9	-92.7	7.9
2025-01-16 19:21:44.450312	330.1	27.7	-92.9	8.7
2025-01-16 19:21:45.596396	330.2	27.5	-93.3	10.4
2025-01-16 19:21:46.750627	330.2	27.3	-93.0	13.1
2025-01-16 19:21:47.905553	330.3	27.1	-93.3	5.0
2025-01-16 19:21:49.059248	330.3	26.9	-93.0	6.1
2025-01-16 19:21:50.206108	330.4	26.7	-93.1	9.9
2025-01-16 19:21:51.352787	330.5	26.5	-92.7	13.6
2025-01-16 19:21:52.510018	330.5	26.3	-92.3	9.9
2025-01-16 19:21:53.661224	330.6	26.2	-92.8	13.3
2025-01-16 19:21:54.819707	330.6	26.0	-92.8	5.2
2025-01-16 19:21:55.971201	330.7	25.8	-93.0	6.4
2025-01-16 19:21:57.123113	330.7	25.6	-92.9	11.7
2025-01-16 19:21:58.270074	330.8	25.4	-92.9	3.5
2025-01-16 19:21:59.424034	330.8	25.2	-92.9	10.0
2025-01-16 19:22:00.574746	330.9	25.1	-93.0	14.6
2025-01-16 19:22:01.729700	330.9	24.9	-92.9	5.6
2025-01-16 19:22:02.882694	331.0	24.7	-93.0	11.1
2025-01-16 19:22:04.030948	331.0	24.5	-92.7	8.4
2025-01-16 19:22:05.180408	331.1	24.4	-92.8	12.1
2025-01-16 19:22:06.329464	331.1	24.2	-92.5	10.8
2025-01-16 19:22:07.480070	331.2	24.0	-93.1	4.8
2025-01-16 19:22:08.630186	331.2	23.9	-92.7	5.8
2025-01-16 19:22:09.780843	331.3	23.7	-92.7	4.2
2025-01-16 19:22:10.934890	331.3	23.5	-92.7	10.2
2025-01-16 19:22:12.089592	331.4	23.3	-92.6	10.8
2025-01-16 19:22:13.243042	331.4	23.2	-93.2	6.7
2025-01-16 19:22:14.387236	331.5	23.0	-92.5	5.7
2025-01-16 19:22:15.536207	331.5	22.9	-93.0	16.5
2025-01-16 19:22:16.685169	331.6	22.7	-93.1	11.6
2025-01-16 19:22:17.828514	331.6	22.5	-93.0	9.3
2025-01-16 19:22:18.980219	331.7	22.4	-92.9	8.6
2025-01-16 19:22:20.127143	331.7	22.2	-92.3	9.1
2025-01-16 19:22:21.278760	331.8	22.0	-93.0	10.8
2025-01-16 19:22:22.425816	331.8	21.9	-93.0	9.5
2025-01-16 19:22:23.573794	331.8	21.7	-93.3	9.3
2025-01-16 19:22:24.725100	331.9	21.6	-92.9	20.3
2025-01-16 19:22:25.875475	331.9	21.4	-93.6	14.5
2025-01-16 19:22:27.020880	332.0	21.3	-93.0	9.2
2025-01-16 19:22:28.168781	332.0	21.1	-93.0	13.8
2025-01-16 19:22:29.322069	332.1	21.0	-93.2	10.4
2025-01-16 19:22:30.471183	332.1	20.8	-92.6	11.1
2025-01-16 19:22:31.626211	332.1	20.7	-93.0	8.7
2025-01-16 19:22:32.777478	332.2	20.5	-92.7	8.3
2025-01-16 19:22:33.930431	332.2	20.4	-92.8	7.4
2025-01-16 19:22:35.088827	332.3	20.2	-92.8	3.3
2025-01-16 19:22:36.238575	332.3	20.1	-93.2	7.6
2025-01-16 19:22:37.394218	332.3	19.9	-93.1	5.5
2025-01-16 19:22:38.541879	332.4	19.8	-92.6	5.3
2025-01-16 19:22:39.695912	332.4	19.6	-92.6	7.8
2025-01-16 19:22:40.848225	332.4	19.5	-93.0	8.5
2025-01-16 19:22:42.001101	332.5	19.3	-93.2	13.2
2025-01-16 19:22:43.152440	332.5	19.2	-92.9	8.6
2025-01-16 19:22:44.306765	332.6	19.1	-93.3	7.7
2025-01-16 19:22:45.459788	332.6	18.9	-92.9	8.5
2025-01-16 19:22:46.614402	332.6	18.8	-92.8	5.9
2025-01-16 19:22:47.760696	332.7	18.6	-93.1	7.1
2025-01-16 19:22:48.913427	332.7	18.5	-93.3	8.4
2025-01-16 19:22:50.064814	332.7	18.4	-93.0	5.4
2025-01-16 19:22:51.217634	332.8	18.2	-93.4	4.7
2025-01-16 19:22:52.372129	332.8	18.1	-92.8	7.2
2025-01-16 19:22:53.526396	332.9	18.0	-93.2	4.7
2025-01-16 19:22:54.671625	332.9	17.8	-92.8	5.4
2025-01-16 19:22:55.821960	332.9	17.7	-93.4	5.9
2025-01-16 19:22:56.972065	333.0	17.5	-92.9	6.7
2025-01-16 19:22:58.123162	333.0	17.4	-93.0	5.1
2025-01-16 19:22:59.274514	333.0	17.3	-93.1	3.4
2025-01-16 19:23:00.420564	333.1	17.2	-93.2	1.6
2025-01-16 19:23:01.564989	333.1	17.0	-92.9	3.0
2025-01-16 19:23:02.713298	333.1	16.9	-93.2	4.8
2025-01-16 19:23:03.863878	333.2	16.8	-92.8	4.2
2025-01-16 19:23:05.012837	333.2	16.6	-93.5	3.7
2025-01-16 19:23:06.168731	333.2	16.5	-92.7	4.1
2025-01-16 19:23:07.322168	333.3	16.4	-92.9	2.0
2025-01-16 19:23:08.475447	333.3	16.3	-92.8	4.7
2025-01-16 19:23:09.626670	333.3	16.1	-93.3	4.8
2025-01-16 19:23:10.782599	333.3	16.0	-93.0	4.4
2025-01-16 19:23:11.936853	333.4	15.9	-92.7	5.8
2025-01-16 19:23:13.084967	333.4	15.8	-92.6	4.5
2025-01-16 19:23:14.240542	333.4	15.6	-92.9	4.3
2025-01-16 19:23:15.390252	333.5	15.5	-93.1	3.5
2025-01-16 19:23:16.539432	333.5	15.4	-93.1	5.9
2025-01-16 19:23:17.684046	333.5	15.3	-92.8	4.1
2025-01-16 19:23:18.837300	333.6	15.1	-93.0	5.1
2025-01-16 19:23:19.986635	333.6	15.0	-93.1	5.3
2025-01-16 19:23:21.135502	333.6	14.9	-93.1	3.0
2025-01-16 19:23:22.284620	333.6	14.8	-92.8	3.4
2025-01-16 19:23:23.427969	333.7	14.7	-92.8	2.4
2025-01-16 19:23:24.597755	333.7	14.5	-92.9	2.6
2025-01-16 19:23:25.743761	333.7	14.4	-93.3	5.3
#Closed at: 2025-01-16 19:14:05.828339