passes_logs/2026/01/02/planumMaritime01/planumMaritime01__20260102_183952_METEOR-M2_3_rec.log

#Pass ID: 20260102_183952_METEOR-M2 3
#Satellite: METEOR-M2 3
#Configuration: METEOR-M2 3
#Start time: 2026-01-02 18:39:57.658623

#LorettStation: 1.0.0 05.05.2024
#Station: planumMaritime01
#Location: 37.49445 lon 55.92918 lat
#TLE: 1 57166U 23091A   26001.29492983  .00000064  00000+0  46916-4 0  9994
#TLE: 2 57166  98.6349  59.4901 0002979 303.9888  56.1007 14.24028798130761

#Time	Az	El	Level	SNR
2026-01-02 18:40:03.876036	193.9	10.5	-81.3	0.0
2026-01-02 18:40:05.012540	194.0	10.6	-79.9	0.0
2026-01-02 18:40:06.147790	194.1	10.7	-79.5	0.0
2026-01-02 18:40:07.285260	194.2	10.8	-78.4	1.0
2026-01-02 18:40:08.420302	194.3	10.9	-77.5	3.9
2026-01-02 18:40:09.554216	194.4	11.0	-77.7	3.1
2026-01-02 18:40:10.693811	194.5	11.1	-77.0	5.3
2026-01-02 18:40:11.831564	194.6	11.2	-77.3	3.5
2026-01-02 18:40:12.968177	194.6	11.3	-77.4	4.9
2026-01-02 18:40:14.102401	194.7	11.4	-77.1	5.3
2026-01-02 18:40:15.237312	194.8	11.5	-77.6	5.9
2026-01-02 18:40:16.372857	194.9	11.6	-77.0	5.5
2026-01-02 18:40:17.506147	195.0	11.7	-77.5	6.0
2026-01-02 18:40:18.640708	195.1	11.7	-77.4	4.5
2026-01-02 18:40:19.774257	195.2	11.8	-77.1	6.2
2026-01-02 18:40:20.905653	195.3	11.9	-77.4	6.1
2026-01-02 18:40:22.032716	195.4	12.0	-77.4	5.0
2026-01-02 18:40:23.161970	195.5	12.1	-77.7	6.0
2026-01-02 18:40:24.289671	195.6	12.2	-77.3	5.6
2026-01-02 18:40:25.418649	195.7	12.3	-77.3	6.1
2026-01-02 18:40:26.545683	195.8	12.4	-76.9	4.8
2026-01-02 18:40:27.674151	195.9	12.5	-77.0	7.4
2026-01-02 18:40:28.802680	195.9	12.6	-77.3	6.0
2026-01-02 18:40:29.929523	196.0	12.7	-77.3	6.4
2026-01-02 18:40:31.057794	196.1	12.8	-76.5	5.8
2026-01-02 18:40:32.187447	196.2	12.9	-77.1	5.9
2026-01-02 18:40:33.314208	196.3	13.0	-76.9	5.8
2026-01-02 18:40:34.441474	196.4	13.1	-76.9	6.1
2026-01-02 18:40:35.572223	196.5	13.2	-77.3	5.0
2026-01-02 18:40:36.697428	196.6	13.3	-76.7	5.1
2026-01-02 18:40:37.830248	196.7	13.4	-77.2	5.9
2026-01-02 18:40:38.956704	196.8	13.5	-77.1	6.0
2026-01-02 18:40:40.082804	197.0	13.7	-77.3	6.3
2026-01-02 18:40:41.209277	197.1	13.8	-77.4	5.7
2026-01-02 18:40:42.334970	197.2	13.9	-77.1	6.7
2026-01-02 18:40:43.461241	197.3	14.0	-77.3	7.3
2026-01-02 18:40:44.587847	197.4	14.1	-77.1	6.5
2026-01-02 18:40:45.723664	197.5	14.2	-76.8	5.8
2026-01-02 18:40:46.861748	197.6	14.3	-77.1	6.7
2026-01-02 18:40:47.996136	197.7	14.4	-77.3	6.8
2026-01-02 18:40:49.126847	197.8	14.5	-77.3	7.3
2026-01-02 18:40:50.258867	197.9	14.6	-77.2	7.2
2026-01-02 18:40:51.394438	198.0	14.7	-77.4	6.7
2026-01-02 18:40:52.527363	198.1	14.8	-77.1	7.3
2026-01-02 18:40:53.659587	198.3	14.9	-77.2	7.4
2026-01-02 18:40:54.795530	198.4	15.0	-77.3	7.0
2026-01-02 18:40:55.928712	198.5	15.1	-77.3	8.0
2026-01-02 18:40:57.062398	198.6	15.3	-77.3	6.3
2026-01-02 18:40:58.195926	198.7	15.4	-77.2	7.3
2026-01-02 18:40:59.328441	198.8	15.5	-77.1	7.7
2026-01-02 18:41:00.463407	199.0	15.6	-77.2	7.6
2026-01-02 18:41:01.598247	199.1	15.7	-77.1	7.1
2026-01-02 18:41:02.730550	199.2	15.8	-76.5	6.3
2026-01-02 18:41:03.862638	199.3	15.9	-77.3	7.9
2026-01-02 18:41:04.997340	199.4	16.0	-76.9	6.2
2026-01-02 18:41:06.128228	199.6	16.1	-77.4	8.7
2026-01-02 18:41:07.258688	199.7	16.3	-77.7	8.3
2026-01-02 18:41:08.390520	199.8	16.4	-77.2	6.2
2026-01-02 18:41:09.520835	199.9	16.5	-77.0	5.7
2026-01-02 18:41:10.651289	200.1	16.6	-76.8	7.3
2026-01-02 18:41:11.779254	200.2	16.7	-76.9	5.8
2026-01-02 18:41:12.908246	200.3	16.8	-76.8	7.2
2026-01-02 18:41:14.037531	200.4	16.9	-77.1	7.7
2026-01-02 18:41:15.166106	200.6	17.1	-77.0	8.0
2026-01-02 18:41:16.294669	200.7	17.2	-77.0	6.0
2026-01-02 18:41:17.423294	200.8	17.3	-76.9	8.6
2026-01-02 18:41:18.554262	201.0	17.4	-76.8	6.2
2026-01-02 18:41:19.684903	201.1	17.5	-76.8	6.5
2026-01-02 18:41:20.815852	201.2	17.6	-76.9	7.1
2026-01-02 18:41:21.943260	201.4	17.8	-77.0	8.0
2026-01-02 18:41:23.071938	201.5	17.9	-77.1	7.8
2026-01-02 18:41:24.202601	201.6	18.0	-77.3	8.1
2026-01-02 18:41:25.332109	201.8	18.1	-77.0	8.6
2026-01-02 18:41:26.461775	201.9	18.2	-76.5	7.8
2026-01-02 18:41:27.590795	202.1	18.4	-76.8	7.9
2026-01-02 18:41:28.720627	202.2	18.5	-76.9	8.3
2026-01-02 18:41:29.852332	202.3	18.6	-76.7	7.8
2026-01-02 18:41:30.985592	202.5	18.7	-76.9	8.2
2026-01-02 18:41:32.121729	202.6	18.8	-76.6	8.3
2026-01-02 18:41:33.253993	202.8	19.0	-77.1	8.2
2026-01-02 18:41:34.386527	202.9	19.1	-76.8	8.8
2026-01-02 18:41:35.521276	203.1	19.2	-76.8	7.7
2026-01-02 18:41:36.658521	203.2	19.3	-76.6	9.1
2026-01-02 18:41:37.796079	203.4	19.5	-76.8	7.7
2026-01-02 18:41:38.932563	203.5	19.6	-77.2	8.7
2026-01-02 18:41:40.070184	203.7	19.7	-77.0	8.6
2026-01-02 18:41:41.204992	203.8	19.8	-76.8	7.5
2026-01-02 18:41:42.342420	204.0	20.0	-77.0	8.3
2026-01-02 18:41:43.479609	204.1	20.1	-77.0	8.2
2026-01-02 18:41:44.617600	204.3	20.2	-76.7	7.7
2026-01-02 18:41:45.754229	204.5	20.3	-76.8	8.8
2026-01-02 18:41:46.892798	204.6	20.5	-76.7	7.9
2026-01-02 18:41:48.028037	204.8	20.6	-76.8	8.5
2026-01-02 18:41:49.163830	205.0	20.7	-76.8	8.7
2026-01-02 18:41:50.300491	205.1	20.9	-76.9	8.9
2026-01-02 18:41:51.437394	205.3	21.0	-77.3	8.8
2026-01-02 18:41:52.575823	205.5	21.1	-77.0	9.1
2026-01-02 18:41:53.712218	205.6	21.3	-77.1	9.0
2026-01-02 18:41:54.848734	205.8	21.4	-76.9	8.9
2026-01-02 18:41:55.986824	206.0	21.5	-77.1	8.9
2026-01-02 18:41:57.123218	206.1	21.7	-77.1	8.4
2026-01-02 18:41:58.258508	206.3	21.8	-77.3	9.6
2026-01-02 18:41:59.394649	206.5	21.9	-77.3	8.5
2026-01-02 18:42:00.529570	206.7	22.0	-77.5	9.1
2026-01-02 18:42:01.666630	206.9	22.2	-77.1	8.8
2026-01-02 18:42:02.804566	207.0	22.3	-77.4	9.7
2026-01-02 18:42:03.942212	207.2	22.5	-77.3	9.4
2026-01-02 18:42:05.080007	207.4	22.6	-77.4	8.4
2026-01-02 18:42:06.217383	207.6	22.7	-77.1	9.8
2026-01-02 18:42:07.356912	207.8	22.9	-77.1	9.4
2026-01-02 18:42:08.495100	208.0	23.0	-77.3	9.6
2026-01-02 18:42:09.634593	208.2	23.1	-77.2	9.7
2026-01-02 18:42:10.769444	208.4	23.3	-77.2	9.6
2026-01-02 18:42:11.906417	208.6	23.4	-77.5	9.5
2026-01-02 18:42:13.043100	208.8	23.5	-77.6	10.0
2026-01-02 18:42:14.179747	208.9	23.7	-77.8	11.1
2026-01-02 18:42:15.318112	209.1	23.8	-77.6	10.3
2026-01-02 18:42:16.453959	209.3	24.0	-77.7	10.7
2026-01-02 18:42:17.588995	209.6	24.1	-77.5	10.2
2026-01-02 18:42:18.723789	209.8	24.2	-77.3	10.6
2026-01-02 18:42:19.858061	210.0	24.4	-77.8	11.6
2026-01-02 18:42:20.991341	210.2	24.5	-77.9	11.5
2026-01-02 18:42:22.126167	210.4	24.7	-77.9	10.2
2026-01-02 18:42:23.263656	210.6	24.8	-78.0	10.6
2026-01-02 18:42:24.398650	210.8	25.0	-77.9	10.7
2026-01-02 18:42:25.532532	211.0	25.1	-77.8	11.3
2026-01-02 18:42:26.668338	211.2	25.2	-77.9	10.7
2026-01-02 18:42:27.805725	211.5	25.4	-77.9	10.6
2026-01-02 18:42:28.939971	211.7	25.5	-78.2	11.2
2026-01-02 18:42:30.074185	211.9	25.7	-78.1	10.7
2026-01-02 18:42:31.211502	212.1	25.8	-77.6	11.2
2026-01-02 18:42:32.347674	212.4	26.0	-77.5	11.1
2026-01-02 18:42:33.484503	212.6	26.1	-77.7	11.5
2026-01-02 18:42:34.619070	212.8	26.2	-77.7	11.5
2026-01-02 18:42:35.756247	213.1	26.4	-78.0	11.5
2026-01-02 18:42:36.892279	213.3	26.5	-78.1	11.7
2026-01-02 18:42:38.027142	213.5	26.7	-77.6	11.6
2026-01-02 18:42:39.163369	213.8	26.8	-77.7	12.2
2026-01-02 18:42:40.299783	214.0	27.0	-77.6	11.9
2026-01-02 18:42:41.436701	214.3	27.1	-77.3	11.6
2026-01-02 18:42:42.573601	214.5	27.3	-77.8	11.1
2026-01-02 18:42:43.712344	214.8	27.4	-77.6	11.8
2026-01-02 18:42:44.846216	215.0	27.6	-77.8	12.1
2026-01-02 18:42:45.982461	215.3	27.7	-77.6	12.0
2026-01-02 18:42:47.119990	215.5	27.9	-77.9	12.3
2026-01-02 18:42:48.253741	215.8	28.0	-77.7	11.0
2026-01-02 18:42:49.388354	216.0	28.2	-77.8	11.4
2026-01-02 18:42:50.522469	216.3	28.3	-77.8	11.9
2026-01-02 18:42:51.654453	216.6	28.5	-78.1	12.1
2026-01-02 18:42:52.788142	216.8	28.6	-77.8	12.0
2026-01-02 18:42:53.918617	217.1	28.7	-78.2	11.8
2026-01-02 18:42:55.052944	217.4	28.9	-78.2	12.0
2026-01-02 18:42:56.185402	217.6	29.0	-78.1	11.9
2026-01-02 18:42:57.320782	217.9	29.2	-78.2	11.9
2026-01-02 18:42:58.457796	218.2	29.3	-77.9	12.0
2026-01-02 18:42:59.594467	218.5	29.5	-78.0	12.5
2026-01-02 18:43:00.731002	218.8	29.6	-78.3	12.7
2026-01-02 18:43:01.868400	219.1	29.8	-78.2	12.2
2026-01-02 18:43:02.997922	219.4	29.9	-78.5	13.1
2026-01-02 18:43:04.127710	219.6	30.1	-78.2	13.6
2026-01-02 18:43:05.258304	219.9	30.2	-78.1	13.2
2026-01-02 18:43:06.384943	220.2	30.4	-78.5	13.5
2026-01-02 18:43:07.513809	220.5	30.5	-78.0	13.5
2026-01-02 18:43:08.644072	220.8	30.7	-77.8	13.1
2026-01-02 18:43:09.772360	221.1	30.8	-78.0	13.5
2026-01-02 18:43:10.903676	221.4	31.0	-78.3	13.4
2026-01-02 18:43:12.031855	221.8	31.1	-78.3	13.1
2026-01-02 18:43:13.162061	222.1	31.3	-77.9	12.7
2026-01-02 18:43:14.289530	222.4	31.4	-78.3	13.4
2026-01-02 18:43:15.417199	222.7	31.6	-78.5	13.4
2026-01-02 18:43:16.546756	223.0	31.7	-78.1	13.0
2026-01-02 18:43:17.677546	223.4	31.9	-78.0	12.9
2026-01-02 18:43:18.803227	223.7	32.0	-78.0	12.9
2026-01-02 18:43:19.930969	224.0	32.2	-78.1	13.0
2026-01-02 18:43:21.060083	224.3	32.3	-78.5	12.5
2026-01-02 18:43:22.189756	224.7	32.4	-77.7	13.1
2026-01-02 18:43:23.318446	225.0	32.6	-78.0	13.0
2026-01-02 18:43:24.446771	225.4	32.7	-77.9	13.0
2026-01-02 18:43:25.576363	225.7	32.9	-78.0	13.7
2026-01-02 18:43:26.707449	226.1	33.0	-77.8	13.1
2026-01-02 18:43:27.842531	226.4	33.2	-78.2	12.9
2026-01-02 18:43:28.978710	226.8	33.3	-78.3	12.5
2026-01-02 18:43:30.116411	227.1	33.5	-78.1	13.4
2026-01-02 18:43:31.253804	227.5	33.6	-78.0	13.4
2026-01-02 18:43:32.391176	227.9	33.7	-77.9	12.7
2026-01-02 18:43:33.526242	228.2	33.9	-77.9	13.1
2026-01-02 18:43:34.662282	228.6	34.0	-78.2	12.8
2026-01-02 18:43:35.801244	229.0	34.2	-77.9	12.6
2026-01-02 18:43:36.939384	229.4	34.3	-77.7	12.6
2026-01-02 18:43:38.077045	229.7	34.4	-77.6	13.2
2026-01-02 18:43:39.211898	230.1	34.6	-77.7	12.9
2026-01-02 18:43:40.348718	230.5	34.7	-77.0	11.2
2026-01-02 18:43:41.486376	230.9	34.8	-77.7	12.8
2026-01-02 18:43:42.622448	231.3	35.0	-77.6	12.9
2026-01-02 18:43:43.762578	231.7	35.1	-77.3	12.9
2026-01-02 18:43:44.897219	232.1	35.3	-77.5	13.6
2026-01-02 18:43:46.029845	232.5	35.4	-77.4	12.9
2026-01-02 18:43:47.162699	232.9	35.5	-77.4	13.4
2026-01-02 18:43:48.295632	233.3	35.6	-77.4	12.6
2026-01-02 18:43:49.425572	233.7	35.8	-77.5	13.8
2026-01-02 18:43:50.559063	234.2	35.9	-77.7	13.5
2026-01-02 18:43:51.689565	234.6	36.0	-77.5	12.5
2026-01-02 18:43:52.822375	235.0	36.2	-77.6	13.2
2026-01-02 18:43:53.954951	235.4	36.3	-77.3	12.1
2026-01-02 18:43:55.089180	235.8	36.4	-77.4	13.1
2026-01-02 18:43:56.221704	236.3	36.5	-77.8	13.1
2026-01-02 18:43:57.353047	236.7	36.6	-77.5	10.2
2026-01-02 18:43:58.485244	237.2	36.8	-77.6	12.6
2026-01-02 18:43:59.617462	237.6	36.9	-78.0	11.0
2026-01-02 18:44:00.747643	238.0	37.0	-78.4	12.9
2026-01-02 18:44:01.879501	238.5	37.1	-78.2	12.2
2026-01-02 18:44:03.009763	238.9	37.2	-78.0	11.6
2026-01-02 18:44:04.139007	239.4	37.3	-78.3	12.5
2026-01-02 18:44:05.269899	239.8	37.4	-78.2	12.6
2026-01-02 18:44:06.401392	240.3	37.5	-78.1	12.1
2026-01-02 18:44:07.536147	240.8	37.6	-78.2	11.7
2026-01-02 18:44:08.674492	241.2	37.8	-78.6	11.9
2026-01-02 18:44:09.810178	241.7	37.9	-78.9	12.2
2026-01-02 18:44:10.945928	242.2	38.0	-78.5	12.3
2026-01-02 18:44:12.084580	242.7	38.1	-78.1	12.8
2026-01-02 18:44:13.219357	243.1	38.2	-78.1	11.9
2026-01-02 18:44:14.356450	243.6	38.2	-78.0	13.0
2026-01-02 18:44:15.495142	244.1	38.3	-78.1	12.8
2026-01-02 18:44:16.631423	244.6	38.4	-77.8	12.1
2026-01-02 18:44:17.767906	245.1	38.5	-77.5	12.6
2026-01-02 18:44:18.908419	245.6	38.6	-77.7	12.2
2026-01-02 18:44:20.044105	246.1	38.7	-77.6	13.1
2026-01-02 18:44:21.180786	246.6	38.8	-77.9	13.2
2026-01-02 18:44:22.317274	247.1	38.9	-77.2	11.1
2026-01-02 18:44:23.455247	247.6	38.9	-77.8	12.1
2026-01-02 18:44:24.589688	248.1	39.0	-77.9	12.3
2026-01-02 18:44:25.724688	248.6	39.1	-76.9	11.1
2026-01-02 18:44:26.861345	249.1	39.2	-77.5	12.6
2026-01-02 18:44:27.997925	249.6	39.2	-77.8	12.9
2026-01-02 18:44:29.132773	250.1	39.3	-77.7	12.3
2026-01-02 18:44:30.269213	250.6	39.4	-77.7	11.4
2026-01-02 18:44:31.406183	251.2	39.4	-77.5	10.3
2026-01-02 18:44:32.539303	251.7	39.5	-77.8	12.5
2026-01-02 18:44:33.672891	252.2	39.5	-77.5	10.2
2026-01-02 18:44:34.807485	252.7	39.6	-76.8	10.2
2026-01-02 18:44:35.942706	253.2	39.6	-77.6	10.2
2026-01-02 18:44:37.078829	253.8	39.7	-77.0	9.2
2026-01-02 18:44:38.213963	254.3	39.7	-77.3	10.4
2026-01-02 18:44:39.349618	254.8	39.8	-77.3	9.0
2026-01-02 18:44:40.486387	255.3	39.8	-77.5	10.6
2026-01-02 18:44:41.622244	255.9	39.9	-77.3	11.6
2026-01-02 18:44:42.756084	256.4	39.9	-77.7	11.0
2026-01-02 18:44:43.892090	256.9	39.9	-77.6	10.6
2026-01-02 18:44:45.027375	257.5	40.0	-78.0	10.7
2026-01-02 18:44:46.162316	258.0	40.0	-77.7	9.7
2026-01-02 18:44:47.297776	258.6	40.0	-77.2	8.9
2026-01-02 18:44:48.430308	259.1	40.0	-77.1	9.0
2026-01-02 18:44:49.564292	259.6	40.1	-77.2	9.7
2026-01-02 18:44:50.698981	260.2	40.1	-76.0	6.6
2026-01-02 18:44:51.836196	260.7	40.1	-76.8	7.9
2026-01-02 18:44:52.971040	261.2	40.1	-76.7	9.2
2026-01-02 18:44:54.103276	261.8	40.1	-76.6	8.8
2026-01-02 18:44:55.237315	262.3	40.1	-77.2	11.0
2026-01-02 18:44:56.374546	262.9	40.1	-76.6	8.3
2026-01-02 18:44:57.509542	263.4	40.1	-76.5	7.6
2026-01-02 18:44:58.644226	263.9	40.1	-75.6	7.0
2026-01-02 18:44:59.778599	264.5	40.1	-76.8	8.8
2026-01-02 18:45:00.913809	265.0	40.1	-75.9	6.4
2026-01-02 18:45:02.050138	265.6	40.1	-76.5	6.8
2026-01-02 18:45:03.184870	266.1	40.1	-75.9	4.9
2026-01-02 18:45:04.319775	266.6	40.1	-76.7	7.9
2026-01-02 18:45:05.454572	267.2	40.0	-76.6	9.4
2026-01-02 18:45:06.590673	267.7	40.0	-76.3	6.5
2026-01-02 18:45:07.728584	268.3	40.0	-76.2	6.3
2026-01-02 18:45:08.865020	268.8	40.0	-77.1	8.9
2026-01-02 18:45:10.003713	269.3	39.9	-76.1	6.8
2026-01-02 18:45:11.142307	269.9	39.9	-76.2	5.9
2026-01-02 18:45:12.278973	270.4	39.9	-76.5	5.5
2026-01-02 18:45:13.415848	270.9	39.8	-76.5	7.4
2026-01-02 18:45:14.553854	271.5	39.8	-75.7	6.3
2026-01-02 18:45:15.690263	272.0	39.7	-76.0	5.0
2026-01-02 18:45:16.827643	272.5	39.7	-76.1	6.9
2026-01-02 18:45:17.967426	273.0	39.6	-75.9	6.9
2026-01-02 18:45:19.103998	273.6	39.6	-76.1	7.1
2026-01-02 18:45:20.238375	274.1	39.5	-76.1	5.7
2026-01-02 18:45:21.377311	274.6	39.5	-75.2	5.8
2026-01-02 18:45:22.511770	275.1	39.4	-75.3	6.3
2026-01-02 18:45:23.644394	275.6	39.4	-75.9	7.6
2026-01-02 18:45:24.772666	276.1	39.3	-75.4	5.7
2026-01-02 18:45:25.901454	276.7	39.2	-76.6	8.5
2026-01-02 18:45:27.030683	277.2	39.2	-75.8	7.0
2026-01-02 18:45:28.160180	277.7	39.1	-75.8	6.3
2026-01-02 18:45:29.289365	278.2	39.0	-76.2	7.9
2026-01-02 18:45:30.419279	278.7	38.9	-75.1	4.5
2026-01-02 18:45:31.549558	279.2	38.9	-75.8	6.8
2026-01-02 18:45:32.678355	279.7	38.8	-75.5	6.7
2026-01-02 18:45:33.807800	280.2	38.7	-75.3	6.4
2026-01-02 18:45:34.938587	280.7	38.6	-74.9	4.2
2026-01-02 18:45:36.071736	281.1	38.5	-74.8	5.3
2026-01-02 18:45:37.199883	281.6	38.4	-75.4	6.5
2026-01-02 18:45:38.327343	282.1	38.4	-75.5	6.3
2026-01-02 18:45:39.455054	282.6	38.3	-74.7	5.8
2026-01-02 18:45:40.584130	283.1	38.2	-75.1	4.7
2026-01-02 18:45:41.712418	283.5	38.1	-74.5	2.9
2026-01-02 18:45:42.841339	284.0	38.0	-75.7	7.3
2026-01-02 18:45:43.971006	284.5	37.9	-75.3	5.9
2026-01-02 18:45:45.101256	285.0	37.8	-73.4	0.0
2026-01-02 18:45:46.231999	285.4	37.7	-75.5	5.3
2026-01-02 18:45:47.368758	285.9	37.6	-75.7	6.6
2026-01-02 18:45:48.508956	286.3	37.5	-75.4	6.0
2026-01-02 18:45:49.646295	286.8	37.3	-76.2	7.3
2026-01-02 18:45:50.783600	287.3	37.2	-75.8	6.3
2026-01-02 18:45:51.919272	287.7	37.1	-76.1	7.5
2026-01-02 18:45:53.051538	288.2	37.0	-75.1	5.9
2026-01-02 18:45:54.184519	288.6	36.9	-75.1	6.6
2026-01-02 18:45:55.316249	289.0	36.8	-74.5	6.2
2026-01-02 18:45:56.450075	289.5	36.7	-74.6	5.9
2026-01-02 18:45:57.580279	289.9	36.5	-75.5	6.8
2026-01-02 18:45:58.712425	290.3	36.4	-75.0	6.8
2026-01-02 18:45:59.844893	290.8	36.3	-74.8	4.9
2026-01-02 18:46:00.978609	291.2	36.2	-75.4	7.0
2026-01-02 18:46:02.112764	291.6	36.1	-75.1	4.4
2026-01-02 18:46:03.246025	292.0	35.9	-75.2	4.1
2026-01-02 18:46:04.377359	292.4	35.8	-75.2	7.0
2026-01-02 18:46:05.511403	292.9	35.7	-75.9	7.1
2026-01-02 18:46:06.643556	293.3	35.5	-74.4	3.2
2026-01-02 18:46:07.775548	293.7	35.4	-75.8	7.1
2026-01-02 18:46:08.905284	294.1	35.3	-75.4	5.6
2026-01-02 18:46:10.035385	294.5	35.2	-74.2	5.3
2026-01-02 18:46:11.165718	294.9	35.0	-74.9	6.3
2026-01-02 18:46:12.296959	295.3	34.9	-74.2	4.5
2026-01-02 18:46:13.429191	295.7	34.8	-75.4	6.5
2026-01-02 18:46:14.561189	296.0	34.6	-75.1	6.1
2026-01-02 18:46:15.690359	296.4	34.5	-75.6	7.7
2026-01-02 18:46:16.819827	296.8	34.3	-75.5	7.1
2026-01-02 18:46:17.948200	297.2	34.2	-75.9	6.3
2026-01-02 18:46:19.077119	297.5	34.1	-74.8	4.9
2026-01-02 18:46:20.206973	297.9	33.9	-75.7	6.7
2026-01-02 18:46:21.337435	298.3	33.8	-75.2	6.8
2026-01-02 18:46:22.471387	298.6	33.7	-74.8	5.7
2026-01-02 18:46:23.604832	299.0	33.5	-74.5	7.1
2026-01-02 18:46:24.737810	299.4	33.4	-74.7	7.2
2026-01-02 18:46:25.874086	299.7	33.2	-75.1	6.3
2026-01-02 18:46:27.009662	300.1	33.1	-73.9	4.4
2026-01-02 18:46:28.145218	300.4	32.9	-75.2	6.7
2026-01-02 18:46:29.276287	300.8	32.8	-75.4	7.9
2026-01-02 18:46:30.407187	301.1	32.7	-74.6	6.0
2026-01-02 18:46:31.539437	301.5	32.5	-74.8	6.6
2026-01-02 18:46:32.673059	301.8	32.4	-75.4	5.3
2026-01-02 18:46:33.806018	302.1	32.2	-74.1	0.6
2026-01-02 18:46:34.939292	302.5	32.1	-75.6	5.5
2026-01-02 18:46:36.071268	302.8	31.9	-75.0	6.6
2026-01-02 18:46:37.204783	303.1	31.8	-75.1	6.2
2026-01-02 18:46:38.337026	303.4	31.6	-74.6	5.4
2026-01-02 18:46:39.471398	303.8	31.5	-74.9	6.3
2026-01-02 18:46:40.605310	304.1	31.3	-74.8	3.6
2026-01-02 18:46:41.740871	304.4	31.2	-74.0	3.1
2026-01-02 18:46:42.879139	304.7	31.0	-75.7	5.8
2026-01-02 18:46:44.014168	305.0	30.9	-74.0	2.4
2026-01-02 18:46:45.148742	305.3	30.8	-74.8	5.6
2026-01-02 18:46:46.284301	305.6	30.6	-75.4	6.4
2026-01-02 18:46:47.420163	305.9	30.5	-74.1	3.0
2026-01-02 18:46:48.557521	306.2	30.3	-74.4	3.9
2026-01-02 18:46:49.693437	306.5	30.2	-75.1	5.1
2026-01-02 18:46:50.828902	306.8	30.0	-75.2	3.2
2026-01-02 18:46:51.966193	307.1	29.9	-74.0	4.2
2026-01-02 18:46:53.104044	307.4	29.7	-75.2	4.5
2026-01-02 18:46:54.241339	307.7	29.6	-75.2	5.8
2026-01-02 18:46:55.375595	307.9	29.4	-74.3	4.5
2026-01-02 18:46:56.511681	308.2	29.3	-75.7	5.0
2026-01-02 18:46:57.648728	308.5	29.1	-75.4	5.3
2026-01-02 18:46:58.786762	308.8	29.0	-74.3	4.0
2026-01-02 18:46:59.925808	309.1	28.8	-75.1	4.4
2026-01-02 18:47:01.063454	309.3	28.7	-73.5	3.2
2026-01-02 18:47:02.199203	309.6	28.5	-74.8	4.5
2026-01-02 18:47:03.334979	309.9	28.4	-73.9	4.8
2026-01-02 18:47:04.470599	310.1	28.2	-73.6	3.3
2026-01-02 18:47:05.607247	310.4	28.1	-72.7	0.4
2026-01-02 18:47:06.745204	310.6	27.9	-74.3	5.4
2026-01-02 18:47:07.882607	310.9	27.8	-73.9	5.4
2026-01-02 18:47:09.022030	311.1	27.7	-75.0	5.1
2026-01-02 18:47:10.158883	311.4	27.5	-73.0	2.4
2026-01-02 18:47:11.296586	311.6	27.4	-74.8	4.9
2026-01-02 18:47:12.431186	311.9	27.2	-73.5	2.4
2026-01-02 18:47:13.568731	312.1	27.1	-73.5	2.3
2026-01-02 18:47:14.707373	312.4	26.9	-74.2	2.7
2026-01-02 18:47:15.840738	312.6	26.8	-74.6	3.6
2026-01-02 18:47:16.976353	312.9	26.6	-73.5	3.3
2026-01-02 18:47:18.113067	313.1	26.5	-74.5	4.2
2026-01-02 18:47:19.248801	313.3	26.3	-73.9	4.3
2026-01-02 18:47:20.385853	313.6	26.2	-74.0	0.3
2026-01-02 18:47:21.519275	313.8	26.1	-75.3	3.3
2026-01-02 18:47:22.648759	314.0	25.9	-72.2	1.0
2026-01-02 18:47:23.776354	314.2	25.8	-74.1	3.6
2026-01-02 18:47:24.905721	314.5	25.6	-73.9	2.5
2026-01-02 18:47:26.032511	314.7	25.5	-71.8	1.4
2026-01-02 18:47:27.160598	314.9	25.3	-72.5	0.4
2026-01-02 18:47:28.289712	315.1	25.2	-74.2	1.5
2026-01-02 18:47:29.419000	315.3	25.1	-74.6	3.7
2026-01-02 18:47:30.550160	315.5	24.9	-73.8	1.2
2026-01-02 18:47:31.678414	315.8	24.8	-75.5	4.1
2026-01-02 18:47:32.807131	316.0	24.6	-73.4	0.0
2026-01-02 18:47:33.938273	316.2	24.5	-73.2	1.5
2026-01-02 18:47:35.071726	316.4	24.4	-74.2	2.9
2026-01-02 18:47:36.201312	316.6	24.2	-73.5	0.0
2026-01-02 18:47:37.329778	316.8	24.1	-75.3	2.1
2026-01-02 18:47:38.459079	317.0	24.0	-71.6	0.0
2026-01-02 18:47:39.588547	317.2	23.8	-72.9	0.0
2026-01-02 18:47:40.717987	317.4	23.7	-72.4	0.1
2026-01-02 18:47:41.847808	317.6	23.5	-74.0	0.8
2026-01-02 18:47:42.977589	317.8	23.4	-74.6	0.0
2026-01-02 18:47:44.104283	318.0	23.3	-74.3	0.0
2026-01-02 18:47:45.239135	318.1	23.1	-72.7	0.0
2026-01-02 18:47:46.372646	318.3	23.0	-73.9	0.0
2026-01-02 18:47:47.509012	318.5	22.9	-73.7	0.0
2026-01-02 18:47:48.646020	318.7	22.7	-73.4	0.0
2026-01-02 18:47:49.782740	318.9	22.6	-72.2	0.0
2026-01-02 18:47:50.920311	319.1	22.5	-71.5	0.0
2026-01-02 18:47:52.055952	319.3	22.3	-73.1	0.0
2026-01-02 18:47:53.194464	319.4	22.2	-73.2	0.0
2026-01-02 18:47:54.327805	319.6	22.1	-73.4	0.8
2026-01-02 18:47:55.463902	319.8	21.9	-74.9	0.0
2026-01-02 18:47:56.600314	320.0	21.8	-73.8	1.3
2026-01-02 18:47:57.737148	320.1	21.7	-74.3	0.3
2026-01-02 18:47:58.873611	320.3	21.5	-74.3	0.0
2026-01-02 18:48:00.012197	320.5	21.4	-75.0	1.1
2026-01-02 18:48:01.147746	320.7	21.3	-73.1	0.0
2026-01-02 18:48:02.277858	320.8	21.2	-72.9	0.0
2026-01-02 18:48:03.407366	321.0	21.0	-72.5	0.9
2026-01-02 18:48:04.534871	321.2	20.9	-73.6	2.3
2026-01-02 18:48:05.662632	321.3	20.8	-71.8	0.0
2026-01-02 18:48:06.789859	321.5	20.6	-71.9	0.0
2026-01-02 18:48:07.922453	321.6	20.5	-72.5	0.0
2026-01-02 18:48:09.055007	321.8	20.4	-71.6	0.0
2026-01-02 18:48:10.186383	322.0	20.3	-72.1	0.0
2026-01-02 18:48:11.315911	322.1	20.1	-69.4	0.0
2026-01-02 18:48:12.445990	322.3	20.0	-72.5	0.0
2026-01-02 18:48:13.577604	322.4	19.9	-73.6	0.0
2026-01-02 18:48:14.707589	322.6	19.8	-73.6	0.0
2026-01-02 18:48:15.840354	322.7	19.6	-74.6	1.7
2026-01-02 18:48:16.973625	322.9	19.5	-74.0	0.0
2026-01-02 18:48:18.106690	323.0	19.4	-74.0	0.0
2026-01-02 18:48:19.235642	323.2	19.3	-74.3	1.5
2026-01-02 18:48:20.366220	323.3	19.1	-74.2	0.3
2026-01-02 18:48:21.494177	323.5	19.0	-74.2	0.0
2026-01-02 18:48:22.623637	323.6	18.9	-74.4	0.0
2026-01-02 18:48:23.754314	323.8	18.8	-73.8	0.4
2026-01-02 18:48:24.888048	323.9	18.7	-74.1	0.7
2026-01-02 18:48:26.024585	324.1	18.5	-72.9	0.0
2026-01-02 18:48:27.157260	324.2	18.4	-73.5	0.0
2026-01-02 18:48:28.292221	324.3	18.3	-72.6	0.0
2026-01-02 18:48:29.428384	324.5	18.2	-74.4	0.0
2026-01-02 18:48:30.562860	324.6	18.1	-73.3	0.0
2026-01-02 18:48:31.697780	324.8	17.9	-73.8	0.8
2026-01-02 18:48:32.830190	324.9	17.8	-73.3	0.0
2026-01-02 18:48:33.970211	325.0	17.7	-73.3	0.0
2026-01-02 18:48:35.104033	325.2	17.6	-72.5	0.0
2026-01-02 18:48:36.241258	325.3	17.5	-72.3	0.0
2026-01-02 18:48:37.374154	325.4	17.4	-73.0	0.0
2026-01-02 18:48:38.509933	325.6	17.2	-72.2	0.0
2026-01-02 18:48:39.644039	325.7	17.1	-72.4	0.3
2026-01-02 18:48:40.776062	325.8	17.0	-72.4	0.0
2026-01-02 18:48:41.910490	326.0	16.9	-72.6	0.0
2026-01-02 18:48:43.048157	326.1	16.8	-72.8	0.0
2026-01-02 18:48:44.182244	326.2	16.7	-72.2	0.0
2026-01-02 18:48:45.318993	326.3	16.6	-71.8	0.0
2026-01-02 18:48:46.457714	326.5	16.4	-72.2	0.0
2026-01-02 18:48:47.593439	326.6	16.3	-73.4	0.0
2026-01-02 18:48:48.727991	326.7	16.2	-72.3	0.0
2026-01-02 18:48:49.863604	326.8	16.1	-72.8	0.0
2026-01-02 18:48:50.997155	326.9	16.0	-72.7	0.0
2026-01-02 18:48:52.130231	327.1	15.9	-73.6	0.0
2026-01-02 18:48:53.264240	327.2	15.8	-73.1	0.0
2026-01-02 18:48:54.398056	327.3	15.7	-72.1	0.0
2026-01-02 18:48:55.528068	327.4	15.6	-73.4	0.0
2026-01-02 18:48:56.659645	327.5	15.4	-73.5	0.0
2026-01-02 18:48:57.792440	327.7	15.3	-71.9	0.0
2026-01-02 18:48:58.925009	327.8	15.2	-72.0	0.0
2026-01-02 18:49:00.056590	327.9	15.1	-72.5	0.0
2026-01-02 18:49:01.186061	328.0	15.0	-72.4	0.0
2026-01-02 18:49:02.319078	328.1	14.9	-72.4	0.0
2026-01-02 18:49:03.450529	328.2	14.8	-70.9	0.0
2026-01-02 18:49:04.582889	328.3	14.7	-72.0	0.0
2026-01-02 18:49:05.716180	328.4	14.6	-73.1	0.0
2026-01-02 18:49:06.851652	328.6	14.5	-70.8	0.0
2026-01-02 18:49:07.986343	328.7	14.4	-73.3	0.0
2026-01-02 18:49:09.124553	328.8	14.3	-71.5	0.0
2026-01-02 18:49:10.263624	328.9	14.2	-72.1	0.0
2026-01-02 18:49:11.397770	329.0	14.1	-72.0	0.0
2026-01-02 18:49:12.537305	329.1	14.0	-71.2	0.0
2026-01-02 18:49:13.673584	329.2	13.9	-72.2	0.0
2026-01-02 18:49:14.810418	329.3	13.8	-72.1	0.0
2026-01-02 18:49:15.947387	329.4	13.7	-71.7	0.0
2026-01-02 18:49:17.081570	329.5	13.5	-72.5	0.0
2026-01-02 18:49:18.216583	329.6	13.4	-70.9	0.0
2026-01-02 18:49:19.351188	329.7	13.3	-71.8	0.0
2026-01-02 18:49:20.485263	329.8	13.2	-73.2	0.0
2026-01-02 18:49:21.620268	329.9	13.1	-71.1	0.0
2026-01-02 18:49:22.754355	330.0	13.0	-70.7	0.0
2026-01-02 18:49:23.891931	330.1	12.9	-71.7	0.0
2026-01-02 18:49:25.025488	330.2	12.8	-70.8	0.0
2026-01-02 18:49:26.159241	330.3	12.7	-70.3	0.0
2026-01-02 18:49:27.293804	330.4	12.6	-70.3	0.0
2026-01-02 18:49:28.431336	330.5	12.5	-70.7	0.0
2026-01-02 18:49:29.568009	330.6	12.4	-70.6	0.0
2026-01-02 18:49:30.705416	330.7	12.3	-66.9	0.0
2026-01-02 18:49:31.838192	330.8	12.2	-70.7	0.0
2026-01-02 18:49:32.974901	330.9	12.1	-71.3	0.0
2026-01-02 18:49:34.108530	331.0	12.1	-71.7	0.0
2026-01-02 18:49:35.245164	331.1	12.0	-70.6	0.0
2026-01-02 18:49:36.378419	331.2	11.9	-70.2	0.0
2026-01-02 18:49:37.512207	331.3	11.8	-72.0	0.0
2026-01-02 18:49:38.648793	331.4	11.7	-70.8	0.0
2026-01-02 18:49:39.784571	331.4	11.6	-72.0	0.0
2026-01-02 18:49:40.921204	331.5	11.5	-71.1	0.0
2026-01-02 18:49:42.058073	331.6	11.4	-72.3	0.0
2026-01-02 18:49:43.195453	331.7	11.3	-71.8	0.0
2026-01-02 18:49:44.331382	331.8	11.2	-70.8	0.0
2026-01-02 18:49:45.466821	331.9	11.1	-72.2	0.0
2026-01-02 18:49:46.604365	332.0	11.0	-71.5	0.0
2026-01-02 18:49:47.740771	332.1	10.9	-74.2	0.0
2026-01-02 18:49:48.876777	332.2	10.8	-75.0	0.0
2026-01-02 18:49:50.014305	332.2	10.7	-75.3	0.0
2026-01-02 18:49:51.149790	332.3	10.6	-74.9	0.0
2026-01-02 18:49:52.286592	332.4	10.5	-76.2	0.0
2026-01-02 18:49:53.418319	332.5	10.4	-77.9	0.0
2026-01-02 18:49:54.548292	332.6	10.4	-77.3	0.0
2026-01-02 18:49:55.680874	332.7	10.3	-79.0	0.0
2026-01-02 18:49:56.809723	332.7	10.2	-79.6	0.0
2026-01-02 18:49:57.937808	332.8	10.1	-81.0	0.0
2026-01-02 18:49:59.068006	332.9	10.0	-81.0	0.0
#Closed at: 2026-01-02 18:39:52.664476