passes_logs/2026/01/02/planumMaritime01/planumMaritime01__20260102_191907_METOP-C_rec.log

#Pass ID: 20260102_191907_METOP-C
#Satellite: METOP-C
#Configuration: METOP-C
#Start time: 2026-01-02 19:19:12.515554

#LorettStation: 1.0.0 05.05.2024
#Station: planumMaritime01
#Location: 37.49445 lon 55.92918 lat
#TLE: 1 43689U 18087A   26001.31932789  .00000269  00000+0  14274-3 0  9992
#TLE: 2 43689  98.6901  63.7860 0000249 350.8424   9.2749 14.21492938371124

#Time	Az	El	Level	SNR
2026-01-02 19:19:14.685707	208.2	10.2	-78.2	0.0
2026-01-02 19:19:15.813034	208.3	10.2	-77.9	0.0
2026-01-02 19:19:16.937950	208.4	10.3	-77.3	0.0
2026-01-02 19:19:18.063991	208.5	10.4	-77.0	0.0
2026-01-02 19:19:19.190047	208.6	10.5	-76.6	0.0
2026-01-02 19:19:20.317251	208.7	10.6	-75.6	0.0
2026-01-02 19:19:21.440962	208.9	10.7	-74.9	0.0
2026-01-02 19:19:22.565881	209.0	10.7	-74.4	0.0
2026-01-02 19:19:23.692680	209.1	10.8	-73.3	0.0
2026-01-02 19:19:24.818742	209.2	10.9	-72.3	0.0
2026-01-02 19:19:25.944110	209.3	11.0	-71.8	0.0
2026-01-02 19:19:27.069907	209.5	11.1	-71.1	0.0
2026-01-02 19:19:28.197904	209.6	11.2	-71.6	0.0
2026-01-02 19:19:29.324346	209.7	11.2	-71.4	0.0
2026-01-02 19:19:30.451067	209.8	11.3	-71.5	0.0
2026-01-02 19:19:31.577106	209.9	11.4	-71.2	0.0
2026-01-02 19:19:32.704137	210.1	11.5	-71.3	0.0
2026-01-02 19:19:33.829378	210.2	11.6	-71.4	0.4
2026-01-02 19:19:34.955238	210.3	11.7	-71.5	0.0
2026-01-02 19:19:36.083223	210.4	11.8	-71.4	0.5
2026-01-02 19:19:37.208138	210.6	11.8	-70.9	0.0
2026-01-02 19:19:38.335862	210.7	11.9	-71.5	0.0
2026-01-02 19:19:39.461578	210.8	12.0	-71.9	0.0
2026-01-02 19:19:40.587740	211.0	12.1	-71.8	0.0
2026-01-02 19:19:41.714179	211.1	12.2	-71.4	0.0
2026-01-02 19:19:42.841093	211.2	12.3	-71.6	0.0
2026-01-02 19:19:43.967408	211.4	12.4	-71.1	0.0
2026-01-02 19:19:45.092732	211.5	12.5	-71.5	0.0
2026-01-02 19:19:46.217756	211.6	12.5	-71.7	0.0
2026-01-02 19:19:47.345610	211.8	12.6	-71.2	0.0
2026-01-02 19:19:48.473636	211.9	12.7	-71.7	0.0
2026-01-02 19:19:49.601142	212.0	12.8	-71.6	0.9
2026-01-02 19:19:50.725812	212.2	12.9	-71.7	2.4
2026-01-02 19:19:51.851821	212.3	13.0	-71.9	1.1
2026-01-02 19:19:52.979690	212.4	13.1	-71.6	0.0
2026-01-02 19:19:54.105257	212.6	13.2	-71.4	0.8
2026-01-02 19:19:55.234846	212.7	13.2	-71.6	2.3
2026-01-02 19:19:56.359883	212.9	13.3	-71.6	0.9
2026-01-02 19:19:57.489197	213.0	13.4	-72.0	1.5
2026-01-02 19:19:58.616665	213.1	13.5	-71.9	2.1
2026-01-02 19:19:59.743716	213.3	13.6	-71.8	0.5
2026-01-02 19:20:00.870588	213.4	13.7	-72.3	1.9
2026-01-02 19:20:01.997511	213.6	13.8	-71.8	2.7
2026-01-02 19:20:03.122220	213.7	13.9	-72.2	3.8
2026-01-02 19:20:04.249210	213.9	14.0	-71.8	0.7
2026-01-02 19:20:05.377013	214.0	14.1	-72.1	1.9
2026-01-02 19:20:06.506196	214.2	14.1	-72.6	3.9
2026-01-02 19:20:07.632398	214.3	14.2	-72.1	1.6
2026-01-02 19:20:08.757941	214.5	14.3	-72.2	3.0
2026-01-02 19:20:09.882549	214.6	14.4	-72.3	3.6
2026-01-02 19:20:11.009954	214.8	14.5	-72.3	2.4
2026-01-02 19:20:12.136595	214.9	14.6	-72.3	1.9
2026-01-02 19:20:13.263737	215.1	14.7	-72.4	2.7
2026-01-02 19:20:14.392379	215.2	14.8	-72.7	2.3
2026-01-02 19:20:15.518657	215.4	14.9	-72.6	3.2
2026-01-02 19:20:16.645115	215.5	15.0	-72.8	5.1
2026-01-02 19:20:17.770827	215.7	15.1	-72.8	1.8
2026-01-02 19:20:18.896766	215.9	15.2	-73.1	4.0
2026-01-02 19:20:20.023676	216.0	15.2	-73.3	5.0
2026-01-02 19:20:21.149101	216.2	15.3	-73.0	3.6
2026-01-02 19:20:22.278363	216.3	15.4	-73.6	4.3
2026-01-02 19:20:23.403989	216.5	15.5	-73.2	4.6
2026-01-02 19:20:24.530599	216.7	15.6	-73.8	5.3
2026-01-02 19:20:25.657874	216.8	15.7	-73.3	5.1
2026-01-02 19:20:26.784039	217.0	15.8	-73.1	4.6
2026-01-02 19:20:27.911006	217.2	15.9	-73.3	4.2
2026-01-02 19:20:29.037732	217.3	16.0	-74.1	3.5
2026-01-02 19:20:30.163495	217.5	16.1	-74.0	6.7
2026-01-02 19:20:31.290295	217.7	16.2	-73.6	4.8
2026-01-02 19:20:32.417865	217.8	16.3	-73.6	2.2
2026-01-02 19:20:33.545632	218.0	16.4	-73.8	3.7
2026-01-02 19:20:34.673473	218.2	16.5	-73.9	5.6
2026-01-02 19:20:35.801054	218.3	16.6	-73.8	4.4
2026-01-02 19:20:36.926327	218.5	16.7	-73.9	5.8
2026-01-02 19:20:38.050455	218.7	16.8	-73.7	6.6
2026-01-02 19:20:39.177233	218.9	16.8	-74.0	4.7
2026-01-02 19:20:40.303409	219.1	16.9	-73.8	5.6
2026-01-02 19:20:41.429138	219.2	17.0	-73.9	6.3
2026-01-02 19:20:42.555709	219.4	17.1	-74.0	6.4
2026-01-02 19:20:43.682721	219.6	17.2	-74.0	6.5
2026-01-02 19:20:44.812753	219.8	17.3	-74.2	6.7
2026-01-02 19:20:45.941069	220.0	17.4	-73.9	7.7
2026-01-02 19:20:47.066655	220.1	17.5	-74.2	7.1
2026-01-02 19:20:48.194113	220.3	17.6	-74.1	7.7
2026-01-02 19:20:49.321117	220.5	17.7	-74.3	7.7
2026-01-02 19:20:50.449031	220.7	17.8	-74.2	8.3
2026-01-02 19:20:51.576473	220.9	17.9	-74.1	8.2
2026-01-02 19:20:52.702114	221.1	18.0	-73.8	9.2
2026-01-02 19:20:53.826069	221.3	18.1	-74.1	8.7
2026-01-02 19:20:54.952672	221.5	18.2	-74.0	7.2
2026-01-02 19:20:56.077404	221.7	18.3	-74.1	7.3
2026-01-02 19:20:57.204679	221.9	18.4	-74.3	8.7
2026-01-02 19:20:58.330608	222.0	18.5	-74.1	7.9
2026-01-02 19:20:59.460133	222.2	18.6	-74.1	7.9
2026-01-02 19:21:00.584421	222.4	18.7	-73.9	8.2
2026-01-02 19:21:01.712255	222.6	18.8	-74.1	8.1
2026-01-02 19:21:02.837985	222.8	18.9	-74.2	9.2
2026-01-02 19:21:03.965396	223.0	19.0	-73.8	9.5
2026-01-02 19:21:05.092564	223.3	19.1	-74.2	9.2
2026-01-02 19:21:06.219203	223.5	19.1	-74.2	9.9
2026-01-02 19:21:07.346112	223.7	19.2	-74.3	9.9
2026-01-02 19:21:08.472536	223.9	19.3	-73.8	9.1
2026-01-02 19:21:09.598320	224.1	19.4	-74.2	9.8
2026-01-02 19:21:10.723941	224.3	19.5	-74.3	10.4
2026-01-02 19:21:11.850998	224.5	19.6	-74.2	10.0
2026-01-02 19:21:12.976217	224.7	19.7	-74.3	9.7
2026-01-02 19:21:14.104746	224.9	19.8	-74.3	10.4
2026-01-02 19:21:15.230792	225.1	19.9	-74.3	10.0
2026-01-02 19:21:16.358229	225.4	20.0	-74.4	9.3
2026-01-02 19:21:17.482978	225.6	20.1	-74.5	10.0
2026-01-02 19:21:18.611019	225.8	20.2	-74.4	10.1
2026-01-02 19:21:19.737365	226.0	20.3	-74.5	10.4
2026-01-02 19:21:20.863110	226.2	20.4	-74.4	10.5
2026-01-02 19:21:21.988725	226.5	20.5	-74.2	10.8
2026-01-02 19:21:23.114030	226.7	20.6	-74.6	10.4
2026-01-02 19:21:24.240433	226.9	20.7	-74.3	10.7
2026-01-02 19:21:25.366825	227.1	20.8	-74.7	10.4
2026-01-02 19:21:26.493187	227.4	20.9	-74.6	10.3
2026-01-02 19:21:27.618165	227.6	21.0	-74.6	10.8
2026-01-02 19:21:28.747476	227.8	21.1	-74.6	10.7
2026-01-02 19:21:29.875275	228.1	21.2	-74.3	9.6
2026-01-02 19:21:31.001159	228.3	21.3	-74.7	10.7
2026-01-02 19:21:32.127231	228.5	21.4	-74.6	10.5
2026-01-02 19:21:33.254766	228.8	21.5	-74.6	10.5
2026-01-02 19:21:34.384307	229.0	21.6	-74.8	11.2
2026-01-02 19:21:35.511032	229.2	21.6	-74.6	10.9
2026-01-02 19:21:36.638354	229.5	21.7	-74.6	10.3
2026-01-02 19:21:37.765248	229.7	21.8	-74.5	10.2
2026-01-02 19:21:38.891855	230.0	21.9	-74.7	10.5
2026-01-02 19:21:40.016766	230.2	22.0	-74.6	11.4
2026-01-02 19:21:41.141333	230.5	22.1	-74.5	11.4
2026-01-02 19:21:42.268877	230.7	22.2	-74.5	10.9
2026-01-02 19:21:43.395171	231.0	22.3	-74.3	10.6
2026-01-02 19:21:44.521165	231.2	22.4	-74.0	10.3
2026-01-02 19:21:45.646952	231.5	22.5	-74.4	11.4
2026-01-02 19:21:46.773475	231.7	22.6	-74.4	10.9
2026-01-02 19:21:47.898773	232.0	22.7	-74.4	10.7
2026-01-02 19:21:49.023572	232.2	22.8	-74.2	11.1
2026-01-02 19:21:50.150216	232.5	22.9	-73.9	11.1
2026-01-02 19:21:51.277313	232.8	23.0	-74.2	11.9
2026-01-02 19:21:52.404353	233.0	23.1	-74.0	11.5
2026-01-02 19:21:53.531775	233.3	23.1	-74.1	10.4
2026-01-02 19:21:54.655396	233.6	23.2	-74.1	10.7
2026-01-02 19:21:55.781579	233.8	23.3	-74.1	10.4
2026-01-02 19:21:56.907129	234.1	23.4	-73.9	11.1
2026-01-02 19:21:58.032334	234.4	23.5	-73.8	10.7
2026-01-02 19:21:59.157406	234.6	23.6	-73.7	10.7
2026-01-02 19:22:00.282540	234.9	23.7	-73.7	11.1
2026-01-02 19:22:01.408369	235.2	23.8	-73.8	11.1
2026-01-02 19:22:02.535137	235.5	23.9	-73.7	11.3
2026-01-02 19:22:03.661023	235.7	24.0	-73.8	11.0
2026-01-02 19:22:04.787066	236.0	24.0	-73.5	10.8
2026-01-02 19:22:05.913006	236.3	24.1	-73.7	11.0
2026-01-02 19:22:07.038719	236.6	24.2	-73.7	11.3
2026-01-02 19:22:08.164758	236.9	24.3	-73.8	11.9
2026-01-02 19:22:09.290028	237.1	24.4	-73.5	11.2
2026-01-02 19:22:10.415442	237.4	24.5	-73.7	12.5
2026-01-02 19:22:11.539546	237.7	24.6	-73.6	12.0
2026-01-02 19:22:12.665961	238.0	24.6	-73.4	11.8
2026-01-02 19:22:13.792170	238.3	24.7	-73.8	11.7
2026-01-02 19:22:14.920242	238.6	24.8	-73.5	10.3
2026-01-02 19:22:16.047391	238.9	24.9	-73.7	10.9
2026-01-02 19:22:17.173911	239.2	25.0	-73.7	10.7
2026-01-02 19:22:18.301513	239.5	25.1	-73.7	10.9
2026-01-02 19:22:19.427196	239.8	25.1	-73.6	11.1
2026-01-02 19:22:20.554531	240.1	25.2	-73.6	10.3
2026-01-02 19:22:21.678632	240.4	25.3	-73.8	10.9
2026-01-02 19:22:22.806703	240.7	25.4	-73.7	10.3
2026-01-02 19:22:23.933895	241.0	25.5	-73.9	10.2
2026-01-02 19:22:25.064459	241.3	25.5	-73.6	10.4
2026-01-02 19:22:26.193065	241.6	25.6	-73.8	10.3
2026-01-02 19:22:27.318182	241.9	25.7	-73.7	9.7
2026-01-02 19:22:28.445648	242.2	25.8	-73.8	10.0
2026-01-02 19:22:29.571516	242.5	25.9	-73.6	10.0
2026-01-02 19:22:30.699162	242.9	25.9	-73.9	11.1
2026-01-02 19:22:31.823721	243.2	26.0	-74.0	10.7
2026-01-02 19:22:32.949381	243.5	26.1	-73.9	11.7
2026-01-02 19:22:34.074654	243.8	26.2	-74.1	11.1
2026-01-02 19:22:35.200645	244.1	26.2	-73.8	10.3
2026-01-02 19:22:36.329355	244.4	26.3	-74.2	11.8
2026-01-02 19:22:37.453628	244.8	26.4	-74.0	10.5
2026-01-02 19:22:38.579058	245.1	26.4	-74.3	10.2
2026-01-02 19:22:39.706015	245.4	26.5	-73.8	11.0
2026-01-02 19:22:40.832042	245.7	26.6	-73.5	9.6
2026-01-02 19:22:41.956915	246.1	26.7	-73.9	10.1
2026-01-02 19:22:43.081822	246.4	26.7	-73.4	8.8
2026-01-02 19:22:44.210964	246.7	26.8	-74.0	10.3
2026-01-02 19:22:45.336480	247.1	26.9	-74.0	11.1
2026-01-02 19:22:46.460827	247.4	26.9	-73.6	10.4
2026-01-02 19:22:47.586028	247.7	27.0	-73.6	9.9
2026-01-02 19:22:48.712841	248.1	27.0	-73.7	10.2
2026-01-02 19:22:49.839907	248.4	27.1	-73.2	9.7
2026-01-02 19:22:50.966503	248.7	27.2	-73.2	9.7
2026-01-02 19:22:52.093049	249.1	27.2	-73.4	10.2
2026-01-02 19:22:53.219231	249.4	27.3	-73.1	10.2
2026-01-02 19:22:54.346133	249.8	27.3	-73.5	11.1
2026-01-02 19:22:55.473173	250.1	27.4	-73.1	10.1
2026-01-02 19:22:56.599203	250.5	27.5	-72.6	9.2
2026-01-02 19:22:57.724940	250.8	27.5	-72.9	10.7
2026-01-02 19:22:58.851165	251.1	27.6	-73.1	10.5
2026-01-02 19:22:59.976829	251.5	27.6	-73.1	9.7
2026-01-02 19:23:01.103753	251.8	27.7	-72.6	10.7
2026-01-02 19:23:02.230725	252.2	27.7	-72.9	11.0
2026-01-02 19:23:03.360500	252.6	27.8	-72.9	11.5
2026-01-02 19:23:04.485239	252.9	27.8	-73.2	11.4
2026-01-02 19:23:05.611139	253.3	27.9	-72.2	10.3
2026-01-02 19:23:06.738050	253.6	27.9	-72.4	9.6
2026-01-02 19:23:07.864119	254.0	28.0	-72.6	9.9
2026-01-02 19:23:08.991373	254.3	28.0	-72.6	10.5
2026-01-02 19:23:10.116466	254.7	28.1	-72.4	9.9
2026-01-02 19:23:11.244247	255.0	28.1	-72.7	10.5
2026-01-02 19:23:12.371338	255.4	28.1	-73.1	10.4
2026-01-02 19:23:13.498508	255.8	28.2	-72.9	9.3
2026-01-02 19:23:14.626843	256.1	28.2	-72.7	9.6
2026-01-02 19:23:15.750760	256.5	28.3	-73.3	10.5
2026-01-02 19:23:16.877665	256.9	28.3	-73.2	9.1
2026-01-02 19:23:18.002905	257.2	28.3	-72.9	10.4
2026-01-02 19:23:19.131153	257.6	28.4	-72.8	9.3
2026-01-02 19:23:20.254994	257.9	28.4	-72.6	8.8
2026-01-02 19:23:21.383285	258.3	28.4	-73.2	10.2
2026-01-02 19:23:22.509020	258.7	28.5	-72.9	8.5
2026-01-02 19:23:23.635245	259.0	28.5	-73.0	9.7
2026-01-02 19:23:24.760535	259.4	28.5	-73.0	9.5
2026-01-02 19:23:25.887092	259.8	28.6	-73.1	8.7
2026-01-02 19:23:27.011905	260.2	28.6	-72.4	7.6
2026-01-02 19:23:28.137723	260.5	28.6	-72.9	10.1
2026-01-02 19:23:29.264416	260.9	28.6	-72.6	8.4
2026-01-02 19:23:30.390857	261.3	28.7	-73.3	10.5
2026-01-02 19:23:31.518887	261.6	28.7	-73.1	8.7
2026-01-02 19:23:32.645780	262.0	28.7	-72.8	8.4
2026-01-02 19:23:33.773167	262.4	28.7	-73.0	7.3
2026-01-02 19:23:34.897587	262.8	28.7	-72.9	8.2
2026-01-02 19:23:36.022928	263.1	28.7	-72.3	7.9
2026-01-02 19:23:37.149153	263.5	28.8	-72.0	6.4
2026-01-02 19:23:38.275666	263.9	28.8	-72.4	7.8
2026-01-02 19:23:39.400348	264.3	28.8	-73.1	7.6
2026-01-02 19:23:40.527208	264.6	28.8	-73.2	7.1
2026-01-02 19:23:41.653765	265.0	28.8	-72.3	6.6
2026-01-02 19:23:42.780755	265.4	28.8	-72.1	8.3
2026-01-02 19:23:43.906329	265.8	28.8	-72.2	7.8
2026-01-02 19:23:45.031644	266.1	28.8	-71.8	5.8
2026-01-02 19:23:46.159771	266.5	28.8	-71.6	6.9
2026-01-02 19:23:47.285448	266.9	28.8	-71.6	6.7
2026-01-02 19:23:48.412220	267.3	28.8	-71.9	6.5
2026-01-02 19:23:49.539690	267.6	28.8	-71.4	4.6
2026-01-02 19:23:50.666094	268.0	28.8	-71.3	7.2
2026-01-02 19:23:51.792285	268.4	28.8	-71.5	7.7
2026-01-02 19:23:52.918238	268.8	28.8	-72.0	6.9
2026-01-02 19:23:54.044744	269.1	28.8	-72.4	9.1
2026-01-02 19:23:55.170898	269.5	28.8	-71.4	7.9
2026-01-02 19:23:56.295115	269.9	28.8	-71.8	7.0
2026-01-02 19:23:57.420731	270.3	28.8	-71.7	8.3
2026-01-02 19:23:58.547921	270.6	28.8	-71.6	8.2
2026-01-02 19:23:59.673481	271.0	28.8	-71.5	5.9
2026-01-02 19:24:00.799330	271.4	28.8	-71.7	7.3
2026-01-02 19:24:01.926425	271.8	28.8	-72.0	9.5
2026-01-02 19:24:03.052592	272.1	28.7	-71.1	5.4
2026-01-02 19:24:04.178488	272.5	28.7	-71.4	4.7
2026-01-02 19:24:05.305229	272.9	28.7	-72.7	8.0
2026-01-02 19:24:06.433340	273.2	28.7	-71.5	5.9
2026-01-02 19:24:07.558877	273.6	28.7	-71.5	5.3
2026-01-02 19:24:08.684792	274.0	28.7	-71.3	5.4
2026-01-02 19:24:09.810891	274.4	28.6	-71.2	4.4
2026-01-02 19:24:10.937623	274.7	28.6	-71.2	6.7
2026-01-02 19:24:12.062399	275.1	28.6	-71.5	5.9
2026-01-02 19:24:13.188714	275.5	28.6	-72.0	7.2
2026-01-02 19:24:14.316112	275.8	28.5	-71.0	6.1
2026-01-02 19:24:15.441383	276.2	28.5	-70.9	3.8
2026-01-02 19:24:16.566642	276.6	28.5	-71.8	4.7
2026-01-02 19:24:17.693451	276.9	28.4	-71.0	4.5
2026-01-02 19:24:18.821718	277.3	28.4	-71.0	6.2
2026-01-02 19:24:19.947619	277.7	28.4	-71.0	5.4
2026-01-02 19:24:21.073991	278.0	28.3	-71.5	4.9
2026-01-02 19:24:22.199175	278.4	28.3	-70.1	4.3
2026-01-02 19:24:23.325363	278.8	28.3	-71.3	4.6
2026-01-02 19:24:24.451425	279.1	28.2	-71.3	6.3
2026-01-02 19:24:25.578645	279.5	28.2	-70.8	1.7
2026-01-02 19:24:26.705992	279.8	28.1	-70.9	5.4
2026-01-02 19:24:27.833878	280.2	28.1	-70.6	3.3
2026-01-02 19:24:28.960935	280.6	28.1	-70.7	3.5
2026-01-02 19:24:30.088521	280.9	28.0	-70.4	6.2
2026-01-02 19:24:31.213637	281.3	28.0	-69.7	4.0
2026-01-02 19:24:32.340900	281.6	27.9	-71.2	4.4
2026-01-02 19:24:33.466929	282.0	27.9	-71.2	4.8
2026-01-02 19:24:34.592906	282.3	27.8	-71.9	5.9
2026-01-02 19:24:35.720305	282.7	27.8	-71.1	4.4
2026-01-02 19:24:36.847382	283.0	27.7	-71.4	5.1
2026-01-02 19:24:37.975608	283.4	27.7	-70.7	4.5
2026-01-02 19:24:39.100273	283.7	27.6	-71.6	7.2
2026-01-02 19:24:40.225070	284.1	27.6	-71.5	5.9
2026-01-02 19:24:41.352568	284.4	27.5	-70.8	5.6
2026-01-02 19:24:42.479268	284.8	27.5	-70.7	3.7
2026-01-02 19:24:43.606913	285.1	27.4	-70.6	3.2
2026-01-02 19:24:44.730881	285.5	27.3	-69.9	0.8
2026-01-02 19:24:45.855459	285.8	27.3	-69.2	2.6
2026-01-02 19:24:46.982068	286.1	27.2	-70.8	5.3
2026-01-02 19:24:48.109191	286.5	27.2	-70.7	1.2
2026-01-02 19:24:49.236741	286.8	27.1	-69.9	0.0
2026-01-02 19:24:50.364046	287.2	27.0	-69.4	0.9
2026-01-02 19:24:51.491794	287.5	27.0	-69.7	1.2
2026-01-02 19:24:52.617522	287.8	26.9	-70.3	1.3
2026-01-02 19:24:53.743231	288.2	26.8	-70.1	2.9
2026-01-02 19:24:54.869766	288.5	26.8	-70.2	4.1
2026-01-02 19:24:55.994983	288.8	26.7	-71.2	3.5
2026-01-02 19:24:57.123982	289.1	26.6	-71.8	5.0
2026-01-02 19:24:58.250480	289.5	26.6	-68.5	3.8
2026-01-02 19:24:59.376969	289.8	26.5	-71.0	5.7
2026-01-02 19:25:00.502168	290.1	26.4	-69.9	3.3
2026-01-02 19:25:01.631170	290.4	26.4	-71.7	5.6
2026-01-02 19:25:02.754839	290.8	26.3	-72.0	5.4
2026-01-02 19:25:03.879196	291.1	26.2	-70.5	3.1
2026-01-02 19:25:05.006374	291.4	26.2	-70.0	2.1
2026-01-02 19:25:06.131692	291.7	26.1	-70.8	3.0
2026-01-02 19:25:07.255534	292.0	26.0	-69.4	0.1
2026-01-02 19:25:08.381183	292.3	25.9	-69.6	0.0
2026-01-02 19:25:09.505970	292.7	25.9	-70.6	2.0
2026-01-02 19:25:10.634038	293.0	25.8	-71.8	1.7
2026-01-02 19:25:11.759431	293.3	25.7	-71.7	4.3
2026-01-02 19:25:12.885389	293.6	25.6	-69.1	0.0
2026-01-02 19:25:14.012688	293.9	25.5	-72.2	1.6
2026-01-02 19:25:15.138733	294.2	25.5	-71.6	2.2
2026-01-02 19:25:16.264593	294.5	25.4	-71.1	2.4
2026-01-02 19:25:17.392028	294.8	25.3	-70.5	2.5
2026-01-02 19:25:18.519342	295.1	25.2	-71.2	3.9
2026-01-02 19:25:19.646885	295.4	25.1	-71.3	4.8
2026-01-02 19:25:20.774438	295.7	25.1	-71.3	3.8
2026-01-02 19:25:21.899945	296.0	25.0	-70.0	0.0
2026-01-02 19:25:23.024978	296.3	24.9	-70.7	3.7
2026-01-02 19:25:24.152869	296.6	24.8	-70.2	1.3
2026-01-02 19:25:25.280349	296.9	24.7	-70.1	1.3
2026-01-02 19:25:26.406780	297.2	24.6	-70.1	2.3
2026-01-02 19:25:27.534302	297.5	24.6	-70.2	1.6
2026-01-02 19:25:28.659266	297.7	24.5	-69.9	0.0
2026-01-02 19:25:29.783981	298.0	24.4	-69.8	0.5
2026-01-02 19:25:30.911978	298.3	24.3	-71.4	2.6
2026-01-02 19:25:32.037320	298.6	24.2	-69.7	0.0
2026-01-02 19:25:33.164047	298.9	24.1	-70.7	1.1
2026-01-02 19:25:34.293606	299.2	24.0	-70.8	0.0
2026-01-02 19:25:35.421760	299.4	24.0	-70.5	2.1
2026-01-02 19:25:36.548911	299.7	23.9	-71.7	2.7
2026-01-02 19:25:37.678028	300.0	23.8	-70.1	0.9
2026-01-02 19:25:38.804781	300.3	23.7	-70.8	0.2
2026-01-02 19:25:39.934977	300.5	23.6	-70.6	0.0
2026-01-02 19:25:41.059498	300.8	23.5	-71.9	3.0
2026-01-02 19:25:42.186679	301.1	23.4	-71.6	4.3
2026-01-02 19:25:43.313353	301.3	23.3	-71.8	3.1
2026-01-02 19:25:44.438523	301.6	23.2	-71.5	4.4
2026-01-02 19:25:45.564711	301.9	23.2	-70.0	0.6
2026-01-02 19:25:46.690035	302.1	23.1	-70.9	1.9
2026-01-02 19:25:47.819448	302.4	23.0	-71.1	5.5
2026-01-02 19:25:48.945875	302.6	22.9	-70.6	0.0
2026-01-02 19:25:50.073566	302.9	22.8	-71.2	4.8
2026-01-02 19:25:51.199286	303.2	22.7	-71.7	4.5
2026-01-02 19:25:52.324115	303.4	22.6	-70.6	2.8
2026-01-02 19:25:53.450840	303.7	22.5	-70.7	3.2
2026-01-02 19:25:54.577868	303.9	22.4	-69.6	2.3
2026-01-02 19:25:55.705383	304.2	22.3	-71.3	5.5
2026-01-02 19:25:56.832945	304.4	22.2	-69.6	0.2
2026-01-02 19:25:57.959442	304.7	22.1	-70.9	4.3
2026-01-02 19:25:59.085816	304.9	22.0	-70.2	0.8
2026-01-02 19:26:00.211863	305.2	22.0	-70.0	0.0
2026-01-02 19:26:01.341531	305.4	21.9	-69.3	5.0
2026-01-02 19:26:02.469057	305.6	21.8	-70.5	3.2
2026-01-02 19:26:03.594222	305.9	21.7	-69.7	0.0
2026-01-02 19:26:04.719458	306.1	21.6	-69.0	0.0
2026-01-02 19:26:05.846146	306.4	21.5	-68.6	0.0
2026-01-02 19:26:06.972748	306.6	21.4	-69.0	0.0
2026-01-02 19:26:08.099905	306.8	21.3	-69.0	0.0
2026-01-02 19:26:09.225882	307.1	21.2	-70.6	0.0
2026-01-02 19:26:10.352761	307.3	21.1	-69.0	0.0
2026-01-02 19:26:11.479906	307.5	21.0	-68.6	0.0
2026-01-02 19:26:12.606421	307.8	20.9	-70.4	3.2
2026-01-02 19:26:13.733987	308.0	20.8	-68.8	0.0
2026-01-02 19:26:14.859204	308.2	20.7	-68.8	0.0
2026-01-02 19:26:15.986578	308.4	20.6	-69.9	2.2
2026-01-02 19:26:17.113575	308.7	20.5	-69.2	0.0
2026-01-02 19:26:18.241648	308.9	20.4	-70.2	2.4
2026-01-02 19:26:19.368407	309.1	20.3	-69.9	0.0
2026-01-02 19:26:20.495497	309.3	20.2	-69.1	0.0
2026-01-02 19:26:21.622861	309.5	20.1	-68.5	0.0
2026-01-02 19:26:22.749083	309.8	20.1	-69.3	0.0
2026-01-02 19:26:23.875746	310.0	20.0	-68.1	0.0
2026-01-02 19:26:25.002942	310.2	19.9	-69.1	0.0
2026-01-02 19:26:26.130392	310.4	19.8	-69.1	0.0
2026-01-02 19:26:27.256835	310.6	19.7	-68.6	0.0
2026-01-02 19:26:28.384050	310.8	19.6	-70.1	0.0
2026-01-02 19:26:29.509696	311.0	19.5	-68.4	0.0
2026-01-02 19:26:30.636948	311.2	19.4	-71.5	0.0
2026-01-02 19:26:31.764145	311.4	19.3	-72.0	0.0
2026-01-02 19:26:32.889535	311.7	19.2	-68.2	0.0
2026-01-02 19:26:34.016008	311.9	19.1	-69.0	0.0
2026-01-02 19:26:35.143656	312.1	19.0	-67.7	0.0
2026-01-02 19:26:36.270194	312.3	18.9	-69.7	0.0
2026-01-02 19:26:37.397766	312.5	18.8	-70.3	0.0
2026-01-02 19:26:38.523842	312.7	18.7	-68.1	0.0
2026-01-02 19:26:39.650328	312.9	18.6	-69.4	0.0
2026-01-02 19:26:40.777639	313.1	18.5	-68.6	0.0
2026-01-02 19:26:41.902857	313.2	18.4	-68.9	0.0
2026-01-02 19:26:43.030457	313.4	18.3	-68.3	0.0
2026-01-02 19:26:44.158923	313.6	18.2	-70.5	0.0
2026-01-02 19:26:45.286374	313.8	18.1	-65.7	0.0
2026-01-02 19:26:46.412212	314.0	18.0	-67.4	0.0
2026-01-02 19:26:47.537982	314.2	17.9	-69.5	0.0
2026-01-02 19:26:48.664492	314.4	17.9	-67.8	0.0
2026-01-02 19:26:49.790804	314.6	17.8	-67.3	0.0
2026-01-02 19:26:50.915512	314.8	17.7	-67.5	0.0
2026-01-02 19:26:52.041472	315.0	17.6	-68.3	0.0
2026-01-02 19:26:53.166530	315.1	17.5	-66.3	0.0
2026-01-02 19:26:54.293494	315.3	17.4	-66.3	0.0
2026-01-02 19:26:55.417166	315.5	17.3	-66.3	0.0
2026-01-02 19:26:56.544307	315.7	17.2	-66.1	0.0
2026-01-02 19:26:57.670622	315.9	17.1	-67.6	0.0
2026-01-02 19:26:58.800686	316.0	17.0	-68.6	0.0
2026-01-02 19:26:59.926623	316.2	16.9	-67.3	0.0
2026-01-02 19:27:01.053860	316.4	16.8	-67.5	0.0
2026-01-02 19:27:02.182067	316.6	16.7	-64.6	0.0
2026-01-02 19:27:03.309689	316.7	16.6	-68.6	0.0
2026-01-02 19:27:04.435970	316.9	16.5	-64.3	0.0
2026-01-02 19:27:05.562676	317.1	16.4	-68.6	0.0
2026-01-02 19:27:06.688147	317.3	16.3	-68.9	0.0
2026-01-02 19:27:07.814458	317.4	16.3	-69.4	0.0
2026-01-02 19:27:08.939874	317.6	16.2	-69.6	0.0
2026-01-02 19:27:10.067508	317.8	16.1	-67.6	0.0
2026-01-02 19:27:11.196419	317.9	16.0	-68.6	0.0
2026-01-02 19:27:12.323067	318.1	15.9	-68.2	0.0
2026-01-02 19:27:13.449367	318.3	15.8	-69.3	0.0
2026-01-02 19:27:14.575887	318.4	15.7	-68.2	0.0
2026-01-02 19:27:15.702203	318.6	15.6	-70.3	0.0
2026-01-02 19:27:16.833502	318.7	15.5	-69.2	0.0
2026-01-02 19:27:17.958251	318.9	15.4	-68.1	0.0
2026-01-02 19:27:19.084915	319.1	15.3	-66.7	0.0
2026-01-02 19:27:20.211958	319.2	15.2	-67.6	0.0
2026-01-02 19:27:21.338252	319.4	15.1	-68.0	0.0
2026-01-02 19:27:22.462391	319.5	15.1	-68.4	0.0
2026-01-02 19:27:23.591291	319.7	15.0	-69.0	0.0
2026-01-02 19:27:24.718369	319.9	14.9	-68.6	0.0
2026-01-02 19:27:25.842876	320.0	14.8	-68.3	0.0
2026-01-02 19:27:26.970333	320.2	14.7	-67.6	0.0
2026-01-02 19:27:28.097423	320.3	14.6	-67.6	0.0
2026-01-02 19:27:29.228050	320.5	14.5	-67.0	0.0
2026-01-02 19:27:30.354472	320.6	14.4	-67.0	0.0
2026-01-02 19:27:31.481578	320.8	14.3	-67.2	0.0
2026-01-02 19:27:32.605334	320.9	14.2	-65.8	0.0
2026-01-02 19:27:33.732933	321.1	14.1	-65.9	0.0
2026-01-02 19:27:34.857599	321.2	14.1	-66.9	0.0
2026-01-02 19:27:35.984622	321.4	14.0	-65.9	0.0
2026-01-02 19:27:37.110042	321.5	13.9	-66.6	0.0
2026-01-02 19:27:38.236836	321.6	13.8	-66.1	0.0
2026-01-02 19:27:39.363091	321.8	13.7	-65.9	0.0
2026-01-02 19:27:40.488725	321.9	13.6	-67.5	0.0
2026-01-02 19:27:41.615639	322.1	13.5	-67.5	0.0
2026-01-02 19:27:42.744035	322.2	13.4	-66.4	0.0
2026-01-02 19:27:43.870406	322.4	13.3	-68.9	0.0
2026-01-02 19:27:44.996102	322.5	13.3	-70.1	0.0
2026-01-02 19:27:46.122752	322.6	13.2	-67.9	0.0
2026-01-02 19:27:47.249712	322.8	13.1	-70.1	0.0
2026-01-02 19:27:48.375035	322.9	13.0	-69.1	0.0
2026-01-02 19:27:49.502014	323.0	12.9	-68.4	0.0
2026-01-02 19:27:50.629927	323.2	12.8	-67.9	0.0
2026-01-02 19:27:51.756153	323.3	12.7	-66.7	0.0
2026-01-02 19:27:52.882616	323.5	12.6	-67.3	0.0
2026-01-02 19:27:54.007879	323.6	12.6	-69.3	0.0
2026-01-02 19:27:55.133371	323.7	12.5	-66.4	0.0
2026-01-02 19:27:56.261161	323.8	12.4	-69.1	0.0
2026-01-02 19:27:57.388520	324.0	12.3	-68.6	0.0
2026-01-02 19:27:58.513565	324.1	12.2	-67.9	0.0
2026-01-02 19:27:59.639994	324.2	12.1	-70.2	0.0
2026-01-02 19:28:00.769336	324.4	12.0	-70.2	0.0
2026-01-02 19:28:01.894286	324.5	12.0	-69.7	0.0
2026-01-02 19:28:03.021405	324.6	11.9	-68.8	0.0
2026-01-02 19:28:04.149463	324.8	11.8	-68.6	0.0
2026-01-02 19:28:05.277545	324.9	11.7	-68.9	0.0
2026-01-02 19:28:06.404205	325.0	11.6	-68.6	0.0
2026-01-02 19:28:07.531334	325.1	11.5	-70.0	0.0
2026-01-02 19:28:08.659413	325.3	11.4	-69.6	0.0
2026-01-02 19:28:09.789050	325.4	11.4	-69.3	0.0
2026-01-02 19:28:10.916562	325.5	11.3	-69.4	0.0
2026-01-02 19:28:12.042905	325.6	11.2	-67.8	0.0
2026-01-02 19:28:13.169949	325.7	11.1	-69.1	0.0
2026-01-02 19:28:14.296898	325.9	11.0	-69.7	0.0
2026-01-02 19:28:15.424127	326.0	10.9	-69.3	0.0
2026-01-02 19:28:16.550340	326.1	10.9	-69.3	0.0
2026-01-02 19:28:17.676762	326.2	10.8	-69.6	0.0
2026-01-02 19:28:18.802243	326.3	10.7	-70.3	0.0
2026-01-02 19:28:19.927355	326.5	10.6	-70.6	0.0
2026-01-02 19:28:21.052617	326.6	10.5	-72.2	0.0
2026-01-02 19:28:22.179608	326.7	10.4	-71.5	0.0
2026-01-02 19:28:23.306295	326.8	10.4	-73.1	0.0
2026-01-02 19:28:24.434135	326.9	10.3	-75.5	0.0
2026-01-02 19:28:25.560418	327.0	10.2	-74.4	0.0
2026-01-02 19:28:26.686794	327.1	10.1	-76.1	0.0
2026-01-02 19:28:27.812620	327.3	10.0	-75.7	0.0
#Closed at: 2026-01-02 19:19:07.522404