passes_logs/2026/01/13/R4.6S_Anadyr/R4.6S_Anadyr__20260113_180146_FENGYUN_3D_rec.log

#Pass ID: 20260113_180146_FENGYUN 3D
#Satellite: FENGYUN 3D
#Configuration: FENGYUN 3D
#almurnet v.1.7.20251203
#Start time: 2026-01-13 18:01:48

#Version: 2.2.20231116
#Station: R4.6S_Anadyr
#Location: 177.4865 lon 64.73178 lat
#TLE: 1 43010U 17072A   26012.32543542  .00000598  00000+0  30457-3 0  9997
#TLE: 2 43010  98.9935 344.1005 0002233 112.6136 247.5276 14.19696644422876

#Time	Az	El	Level	Level2	SNR	BER	BlckErr	Temp	State	Recorded	gain1	gain2
2026-01-13 18:01:48.96	24.56	0.17	-48.3	-59.0	3.3	8.39e-01	0	26	0	0	60	32317
2026-01-13 18:01:49.97	24.53	0.23	-48.4	-60.5	3.6	8.46e-01	0	26	104	0	60	38433
2026-01-13 18:01:50.98	24.50	0.29	-48.4	-60.5	3.6	8.46e-01	0	26	104	0	60	38277
2026-01-13 18:01:51.99	24.47	0.35	-48.4	-60.6	3.6	8.45e-01	0	26	104	0	60	38568
2026-01-13 18:01:53.00	24.44	0.41	-48.4	-60.5	3.6	8.46e-01	0	26	104	0	60	38462
2026-01-13 18:01:54.01	24.41	0.47	-48.4	-60.4	3.6	8.45e-01	0	26	104	0	60	37959
2026-01-13 18:01:55.01	24.38	0.53	-48.2	-60.4	3.6	8.45e-01	0	26	104	0	60	37940
2026-01-13 18:01:56.02	24.36	0.59	-48.3	-60.3	3.6	8.45e-01	0	26	104	0	60	37604
2026-01-13 18:01:57.03	24.33	0.65	-48.2	-60.3	3.6	8.45e-01	0	26	104	0	60	37222
2026-01-13 18:01:58.04	24.30	0.71	-48.0	-60.1	3.6	8.46e-01	0	26	104	0	60	36472
2026-01-13 18:01:59.05	24.27	0.77	-47.9	-60.0	3.6	8.44e-01	0	26	104	0	60	36057
2026-01-13 18:02:00.06	24.24	0.83	-47.8	-59.9	3.5	8.46e-01	0	26	104	0	60	35585
2026-01-13 18:02:01.07	24.21	0.89	-47.5	-59.6	3.6	8.45e-01	0	26	104	0	60	34626
2026-01-13 18:02:02.08	24.18	0.95	-47.2	-59.3	3.6	8.45e-01	0	26	104	0	60	33303
2026-01-13 18:02:03.08	24.15	1.01	-46.8	-58.9	3.6	8.45e-01	0	26	104	0	60	31774
2026-01-13 18:02:04.09	24.12	1.07	-46.8	-58.8	3.6	8.45e-01	0	26	104	0	60	31523
2026-01-13 18:02:05.10	24.09	1.13	-46.8	-58.8	3.6	8.44e-01	0	26	104	0	60	31584
2026-01-13 18:02:06.11	24.06	1.19	-46.8	-58.8	3.6	8.45e-01	0	26	104	0	60	31325
2026-01-13 18:02:07.12	24.03	1.25	-46.8	-58.8	3.6	8.43e-01	0	26	104	0	60	31396
2026-01-13 18:02:08.13	24.00	1.31	-46.8	-58.6	3.6	8.45e-01	0	26	104	0	60	30855
2026-01-13 18:02:09.14	23.96	1.38	-46.8	-58.7	3.6	8.46e-01	0	26	104	0	60	31102
2026-01-13 18:02:10.15	23.93	1.44	-46.8	-58.8	3.6	8.45e-01	0	26	104	0	60	31302
2026-01-13 18:02:11.16	23.90	1.50	-46.8	-58.8	3.6	8.45e-01	0	26	104	0	60	31402
2026-01-13 18:02:12.17	23.87	1.56	-46.8	-58.9	3.6	8.46e-01	0	27	104	0	60	31832
2026-01-13 18:02:13.17	23.84	1.62	-46.8	-58.8	3.6	8.45e-01	0	27	104	0	60	31519
2026-01-13 18:02:14.18	23.81	1.68	-46.8	-58.7	3.6	8.44e-01	0	26	104	0	60	31279
2026-01-13 18:02:15.19	23.78	1.75	-46.8	-58.7	3.6	8.44e-01	0	26	104	0	60	30950
2026-01-13 18:02:16.20	23.74	1.81	-46.7	-58.5	3.6	8.44e-01	0	27	104	0	60	30397
2026-01-13 18:02:17.21	23.71	1.87	-46.7	-58.4	3.6	8.44e-01	0	27	104	0	60	30007
2026-01-13 18:02:18.22	23.68	1.93	-46.7	-58.3	3.6	8.45e-01	0	27	104	0	60	29831
2026-01-13 18:02:19.23	23.65	1.99	-46.7	-58.5	3.6	8.45e-01	0	26	104	0	60	30308
2026-01-13 18:02:20.24	23.62	2.06	-46.7	-58.7	3.5	8.46e-01	0	27	104	0	60	30989
2026-01-13 18:02:21.24	23.58	2.12	-46.7	-58.8	3.6	8.46e-01	0	27	104	0	60	31482
2026-01-13 18:02:22.25	23.55	2.18	-46.8	-58.8	3.6	8.47e-01	0	27	104	0	60	31530
2026-01-13 18:02:23.26	23.52	2.25	-46.7	-58.8	3.6	8.46e-01	0	27	104	0	60	31470
2026-01-13 18:02:24.27	23.48	2.31	-46.7	-58.7	3.6	8.44e-01	0	27	104	0	60	31075
2026-01-13 18:02:25.28	23.45	2.37	-46.7	-58.6	3.6	8.45e-01	0	27	104	0	60	30787
2026-01-13 18:02:26.29	23.42	2.44	-46.7	-58.4	3.6	8.46e-01	0	27	104	0	60	30226
2026-01-13 18:02:27.30	23.38	2.50	-46.7	-58.3	3.6	8.45e-01	0	27	104	0	60	29789
2026-01-13 18:02:28.31	23.35	2.56	-46.7	-58.0	3.6	8.44e-01	0	27	104	0	60	28710
2026-01-13 18:02:29.32	23.32	2.63	-46.7	-57.7	3.6	8.45e-01	0	27	104	0	60	27805
2026-01-13 18:02:30.33	23.28	2.69	-46.7	-57.7	3.6	8.45e-01	0	27	104	0	60	27652
2026-01-13 18:02:31.34	23.25	2.76	-46.6	-57.6	3.6	8.45e-01	0	27	104	0	60	27321
2026-01-13 18:02:32.35	23.21	2.82	-46.6	-57.8	3.6	8.45e-01	0	27	104	0	60	28053
2026-01-13 18:02:33.36	23.18	2.88	-46.7	-58.3	3.6	8.44e-01	0	27	104	0	60	29790
2026-01-13 18:02:34.37	23.14	2.95	-46.7	-58.8	3.6	8.46e-01	0	27	104	0	60	31476
2026-01-13 18:02:35.38	23.11	3.01	-46.6	-57.8	3.6	8.44e-01	0	27	104	0	60	27939
2026-01-13 18:02:36.39	23.07	3.08	-46.3	-54.8	4.2	8.44e-01	0	27	104	0	60	19801
2026-01-13 18:02:37.40	23.04	3.14	-45.6	-50.5	6.2	5.04e-01	0	27	0	1048576	60	12154
2026-01-13 18:02:38.41	23.00	3.21	-44.9	-48.9	8.1	1.25e-01	0	27	0	7340032	60	10077
2026-01-13 18:02:39.42	22.97	3.27	-44.0	-47.1	10.4	1.30e-02	0	27	0	12582912	60	8230
2026-01-13 18:02:40.43	22.93	3.34	-43.2	-45.7	12.0	7.36e-04	0	27	0	18874368	60	6975
2026-01-13 18:02:41.44	22.89	3.40	-42.7	-45.1	12.7	1.85e-04	0	27	0	24117248	60	6469
2026-01-13 18:02:42.45	22.86	3.47	-42.3	-44.4	13.3	4.46e-05	0	27	0	30408704	58	6711
2026-01-13 18:02:43.46	22.82	3.54	-42.1	-44.2	13.5	2.05e-05	0	27	0	35651584	58	6584
2026-01-13 18:02:44.47	22.78	3.60	-45.4	-50.5	4.3	6.75e-05	0	27	0	40894464	60	12117
2026-01-13 18:02:45.48	22.75	3.67	-46.6	-56.1	3.8	8.40e-01	0	27	104	40894464	60	23143
2026-01-13 18:02:46.49	22.71	3.73	-42.8	-45.2	13.5	4.29e-01	0	27	104	40894464	60	6604
2026-01-13 18:02:47.50	22.67	3.80	-44.2	-47.7	14.0	7.17e-01	0	27	104	41943040	60	8807
2026-01-13 18:02:48.51	22.64	3.87	-37.8	-39.0	14.6	0.00e+00	0	27	0	44040192	44	8049
2026-01-13 18:02:49.52	22.60	3.93	-46.7	-58.6	4.4	8.46e-01	0	27	104	44040192	60	30876
2026-01-13 18:02:50.53	22.56	4.00	-35.4	-36.2	19.9	0.00e+00	0	27	104	44040192	44	5850
2026-01-13 18:02:51.54	22.52	4.07	-35.4	-36.3	21.6	0.00e+00	0	27	0	48234496	44	5906
2026-01-13 18:02:52.54	22.49	4.13	-35.5	-36.3	21.6	0.00e+00	0	27	0	54525952	44	5907
2026-01-13 18:02:53.55	22.45	4.20	-35.4	-36.2	21.6	0.00e+00	0	27	0	59768832	44	5884
2026-01-13 18:02:54.56	22.41	4.27	-35.4	-36.2	21.7	0.00e+00	0	27	0	66060288	44	5852
2026-01-13 18:02:55.57	22.37	4.34	-35.1	-36.0	22.0	0.00e+00	0	27	0	71303168	44	5703
2026-01-13 18:02:56.58	22.33	4.40	-35.1	-36.0	22.0	0.00e+00	0	27	0	77594624	44	5720
2026-01-13 18:02:57.59	22.29	4.47	-35.2	-36.0	21.9	0.00e+00	0	27	0	82837504	44	5726
2026-01-13 18:02:58.60	22.25	4.54	-34.8	-35.6	22.3	0.00e+00	0	27	0	88080384	44	5497
2026-01-13 18:02:59.61	22.21	4.61	-35.2	-36.1	22.0	0.00e+00	0	27	0	94371840	44	5770
2026-01-13 18:03:00.62	22.17	4.68	-35.4	-36.2	21.7	0.00e+00	0	27	0	99614720	44	5877
2026-01-13 18:03:01.63	22.13	4.75	-35.1	-35.9	22.0	0.00e+00	0	27	0	105906176	44	5666
2026-01-13 18:03:02.64	22.09	4.81	-35.2	-36.0	21.9	0.00e+00	0	27	0	111149056	44	5745
2026-01-13 18:03:03.65	22.05	4.88	-35.1	-35.8	22.1	0.00e+00	0	27	0	116391936	44	5628
2026-01-13 18:03:04.66	22.01	4.95	-35.0	-35.8	22.2	0.00e+00	0	27	0	122683392	44	5586
2026-01-13 18:03:05.67	21.97	5.02	-35.0	-35.8	22.2	0.00e+00	0	27	0	127926272	44	5618
2026-01-13 18:03:06.68	21.93	5.09	-34.9	-35.7	22.3	0.00e+00	0	27	0	134217728	44	5543
2026-01-13 18:03:07.69	21.89	5.16	-34.8	-35.6	22.4	0.00e+00	0	27	0	139460608	42	6166
2026-01-13 18:03:08.70	21.85	5.23	-34.8	-35.6	22.5	0.00e+00	0	27	0	144703488	42	6130
2026-01-13 18:03:09.71	21.81	5.30	-34.9	-35.7	22.5	0.00e+00	0	27	0	150994944	42	6178
2026-01-13 18:03:10.72	21.76	5.37	-35.1	-35.9	22.2	0.00e+00	0	27	0	156237824	42	6373
2026-01-13 18:03:11.73	21.72	5.44	-34.7	-35.5	22.7	0.00e+00	0	27	0	162529280	42	6038
2026-01-13 18:03:12.73	21.68	5.51	-34.7	-35.5	22.5	0.00e+00	0	27	0	167772160	42	6076
2026-01-13 18:03:13.74	21.64	5.58	-34.8	-35.6	22.5	0.00e+00	0	27	0	174063616	42	6115
2026-01-13 18:03:14.75	21.60	5.65	-34.7	-35.5	22.7	0.00e+00	0	27	0	179306496	42	6067
2026-01-13 18:03:15.76	21.55	5.72	-34.6	-35.4	22.8	0.00e+00	0	27	0	184549376	42	5982
2026-01-13 18:03:16.77	21.51	5.79	-34.6	-35.3	22.7	0.00e+00	0	27	0	190840832	42	5962
2026-01-13 18:03:17.79	21.47	5.87	-34.6	-35.4	22.8	0.00e+00	0	27	0	196083712	42	5985
2026-01-13 18:03:18.79	21.42	5.94	-34.6	-35.4	22.8	0.00e+00	0	27	0	202375168	42	5992
2026-01-13 18:03:19.80	21.38	6.01	-34.7	-35.5	22.8	0.00e+00	0	27	0	207618048	42	6043
2026-01-13 18:03:20.81	21.33	6.08	-34.6	-35.4	22.7	0.00e+00	0	27	0	212860928	42	5967
2026-01-13 18:03:21.82	21.29	6.15	-34.7	-35.4	22.8	0.00e+00	0	27	0	219152384	42	6011
2026-01-13 18:03:22.84	21.24	6.22	-34.6	-35.4	22.8	0.00e+00	0	27	0	224395264	42	6008
2026-01-13 18:03:23.85	21.20	6.30	-34.6	-35.4	22.8	0.00e+00	0	27	0	230686720	42	5979
2026-01-13 18:03:24.86	21.15	6.37	-34.5	-35.3	22.9	0.00e+00	0	27	0	235929600	42	5907
2026-01-13 18:03:25.87	21.11	6.44	-34.4	-35.1	23.1	0.00e+00	0	27	0	241172480	42	5802
2026-01-13 18:03:26.88	21.06	6.52	-34.4	-35.1	23.1	0.00e+00	0	27	0	247463936	42	5811
2026-01-13 18:03:27.89	21.02	6.59	-34.3	-35.1	23.1	0.00e+00	0	27	0	252706816	42	5771
2026-01-13 18:03:28.90	20.97	6.66	-34.4	-35.2	23.2	0.00e+00	0	27	0	258998272	42	5829
2026-01-13 18:03:29.91	20.93	6.74	-34.2	-34.9	23.3	0.00e+00	0	27	0	264241152	42	5688
2026-01-13 18:03:30.92	20.88	6.81	-34.3	-35.1	23.2	0.00e+00	0	27	0	270532608	42	5763
2026-01-13 18:03:31.93	20.83	6.88	-34.3	-35.0	23.2	0.00e+00	0	27	0	275775488	42	5729
2026-01-13 18:03:32.94	20.78	6.96	-34.1	-34.9	23.4	0.00e+00	0	27	0	282066944	42	5658
2026-01-13 18:03:33.95	20.74	7.03	-34.2	-35.0	23.3	0.00e+00	0	27	0	287309824	42	5714
2026-01-13 18:03:34.96	20.69	7.11	-34.2	-35.0	23.3	0.00e+00	0	27	0	292552704	42	5715
2026-01-13 18:03:35.97	20.64	7.18	-34.2	-34.9	23.4	0.00e+00	0	27	0	298844160	42	5687
2026-01-13 18:03:36.98	20.59	7.26	-34.1	-34.9	23.4	0.00e+00	0	27	0	304087040	42	5642
2026-01-13 18:03:37.99	20.54	7.33	-34.1	-34.8	23.5	0.00e+00	0	27	0	310378496	42	5591
2026-01-13 18:03:39.00	20.50	7.41	-33.9	-34.7	23.6	0.00e+00	0	27	0	315621376	42	5530
2026-01-13 18:03:40.01	20.45	7.48	-33.9	-34.6	23.7	0.00e+00	0	27	0	320864256	42	5487
2026-01-13 18:03:41.02	20.40	7.56	-33.9	-34.6	23.7	0.00e+00	0	27	0	327155712	42	5480
2026-01-13 18:03:42.03	20.35	7.63	-33.8	-34.5	23.7	0.00e+00	0	27	0	332398592	42	5416
2026-01-13 18:03:43.04	20.30	7.71	-33.8	-34.5	23.8	0.00e+00	0	27	0	338690048	40	6083
2026-01-13 18:03:44.05	20.25	7.78	-33.8	-34.5	23.8	0.00e+00	0	27	0	343932928	40	6063
2026-01-13 18:03:45.06	20.20	7.86	-33.8	-34.5	23.8	0.00e+00	0	27	0	349175808	40	6093
2026-01-13 18:03:46.07	20.15	7.94	-33.7	-34.5	23.9	0.00e+00	0	27	0	355467264	40	6055
2026-01-13 18:03:47.07	20.10	8.01	-33.8	-34.5	23.8	0.00e+00	0	27	0	360710144	40	6099
2026-01-13 18:03:48.08	20.05	8.09	-33.7	-34.4	23.9	0.00e+00	0	27	0	367001600	40	6012
2026-01-13 18:03:49.09	19.99	8.17	-33.7	-34.4	23.9	0.00e+00	0	27	0	372244480	40	6015
2026-01-13 18:03:50.10	19.94	8.25	-33.8	-34.5	23.8	0.00e+00	0	27	0	378535936	40	6085
2026-01-13 18:03:51.11	19.89	8.32	-33.7	-34.4	24.0	0.00e+00	0	27	0	383778816	40	5986
2026-01-13 18:03:52.12	19.84	8.40	-33.7	-34.4	23.9	0.00e+00	0	27	0	390070272	40	5997
2026-01-13 18:03:53.14	19.78	8.48	-33.6	-34.3	24.0	0.00e+00	0	27	0	395313152	40	5947
2026-01-13 18:03:54.15	19.73	8.56	-33.8	-34.5	23.9	0.00e+00	0	27	0	400556032	40	6061
2026-01-13 18:03:55.16	19.68	8.64	-33.7	-34.5	23.9	0.00e+00	0	27	0	406847488	40	6039
2026-01-13 18:03:56.17	19.62	8.72	-33.6	-34.3	24.0	0.00e+00	0	27	0	412090368	40	5932
2026-01-13 18:03:57.18	19.57	8.80	-33.7	-34.4	23.9	0.00e+00	0	27	0	418381824	40	5984
2026-01-13 18:03:58.19	19.52	8.87	-33.6	-34.4	24.0	0.00e+00	0	27	0	423624704	40	5982
2026-01-13 18:03:59.20	19.46	8.95	-33.7	-34.4	23.9	0.00e+00	0	27	0	428867584	40	6018
2026-01-13 18:04:00.20	19.41	9.03	-33.7	-34.4	24.0	0.00e+00	0	27	0	435159040	40	6019
2026-01-13 18:04:01.21	19.35	9.11	-33.7	-34.4	24.0	0.00e+00	0	27	0	440401920	40	5973
2026-01-13 18:04:02.22	19.30	9.19	-33.7	-34.5	24.0	0.00e+00	0	27	0	445644800	40	6041
2026-01-13 18:04:03.23	19.24	9.27	-33.7	-34.5	24.0	0.00e+00	0	27	0	451936256	40	6057
2026-01-13 18:04:04.24	19.18	9.35	-33.6	-34.4	24.0	0.00e+00	0	27	0	457179136	40	5974
2026-01-13 18:04:05.24	19.13	9.43	-33.6	-34.3	24.1	0.00e+00	0	27	0	463470592	40	5959
2026-01-13 18:04:06.25	19.07	9.52	-33.8	-34.6	23.9	0.00e+00	0	27	0	468713472	40	6114
2026-01-13 18:04:07.26	19.01	9.60	-33.5	-34.2	24.2	0.00e+00	0	27	0	475004928	40	5870
2026-01-13 18:04:08.27	18.96	9.68	-33.6	-34.3	24.1	0.00e+00	0	27	0	480247808	40	5930
2026-01-13 18:04:09.28	18.90	9.76	-33.6	-34.3	24.2	0.00e+00	0	27	0	486539264	40	5952
2026-01-13 18:04:10.29	18.84	9.84	-33.6	-34.3	24.2	0.00e+00	0	27	0	491782144	40	5912
2026-01-13 18:04:11.30	18.78	9.92	-33.5	-34.3	24.1	0.00e+00	0	27	0	497025024	40	5902
2026-01-13 18:04:12.31	18.72	10.01	-33.5	-34.2	24.1	0.00e+00	0	27	0	503316480	40	5888
2026-01-13 18:04:13.32	18.66	10.09	-33.5	-34.3	24.1	0.00e+00	0	27	0	508559360	40	5918
2026-01-13 18:04:14.33	18.60	10.17	-33.7	-34.4	23.9	0.00e+00	0	27	0	514850816	40	5993
2026-01-13 18:04:15.34	18.54	10.26	-33.6	-34.3	24.1	0.00e+00	0	27	0	520093696	40	5946
2026-01-13 18:04:16.35	18.48	10.34	-33.5	-34.2	24.2	0.00e+00	0	27	0	525336576	40	5883
2026-01-13 18:04:17.35	18.42	10.42	-33.4	-34.1	24.3	0.00e+00	0	27	0	531628032	40	5807
2026-01-13 18:04:18.36	18.36	10.51	-33.4	-34.1	24.3	0.00e+00	0	27	0	536870912	40	5822
2026-01-13 18:04:19.37	18.30	10.59	-33.5	-34.2	24.3	0.00e+00	0	27	0	543162368	40	5836
2026-01-13 18:04:20.38	18.24	10.68	-33.4	-34.1	24.4	0.00e+00	0	27	0	548405248	40	5794
2026-01-13 18:04:21.39	18.17	10.76	-33.4	-34.1	24.2	0.00e+00	0	27	0	553648128	40	5821
2026-01-13 18:04:22.40	18.11	10.85	-33.3	-34.0	24.4	0.00e+00	0	27	0	559939584	40	5717
2026-01-13 18:04:23.41	18.05	10.93	-33.3	-34.0	24.5	0.00e+00	0	27	0	565182464	40	5724
2026-01-13 18:04:24.42	17.98	11.02	-33.3	-34.0	24.4	0.00e+00	0	27	0	571473920	40	5736
2026-01-13 18:04:25.43	17.92	11.10	-33.3	-34.0	24.4	0.00e+00	0	27	0	576716800	40	5754
2026-01-13 18:04:26.44	17.86	11.19	-33.3	-34.0	24.5	0.00e+00	0	27	0	583008256	40	5736
2026-01-13 18:04:27.45	17.79	11.27	-33.1	-33.8	24.7	0.00e+00	0	27	0	588251136	40	5628
2026-01-13 18:04:28.46	17.73	11.36	-33.2	-33.9	24.6	0.00e+00	0	27	0	593494016	40	5635
2026-01-13 18:04:29.47	17.66	11.45	-33.0	-33.7	24.8	0.00e+00	0	27	0	599785472	40	5538
2026-01-13 18:04:30.48	17.59	11.54	-33.0	-33.7	24.8	0.00e+00	0	27	0	605028352	40	5513
2026-01-13 18:04:31.49	17.53	11.62	-33.0	-33.6	24.9	0.00e+00	0	27	0	611319808	40	5499
2026-01-13 18:04:32.50	17.46	11.71	-32.9	-33.6	24.8	0.00e+00	0	27	0	616562688	40	5485
2026-01-13 18:04:33.51	17.39	11.80	-33.0	-33.7	24.8	0.00e+00	0	27	0	621805568	40	5515
2026-01-13 18:04:34.52	17.33	11.89	-32.8	-33.5	25.0	0.00e+00	0	27	0	628097024	40	5413
2026-01-13 18:04:35.53	17.26	11.98	-32.8	-33.5	25.0	0.00e+00	0	27	0	633339904	38	6041
2026-01-13 18:04:36.54	17.19	12.06	-32.8	-33.5	25.0	0.00e+00	0	27	0	639631360	38	6085
2026-01-13 18:04:37.55	17.12	12.15	-32.9	-33.6	24.9	0.00e+00	0	27	0	644874240	38	6125
2026-01-13 18:04:38.56	17.05	12.24	-32.9	-33.6	24.8	0.00e+00	0	27	0	650117120	38	6162
2026-01-13 18:04:39.58	16.98	12.33	-32.9	-33.6	24.8	0.00e+00	0	27	0	656408576	38	6156
2026-01-13 18:04:40.58	16.91	12.42	-33.1	-33.8	24.8	0.00e+00	0	27	0	661651456	38	6255
2026-01-13 18:04:41.60	16.84	12.51	-32.8	-33.5	25.1	0.00e+00	0	27	0	667942912	38	6089
2026-01-13 18:04:42.60	16.77	12.60	-33.0	-33.7	24.9	0.00e+00	0	27	0	673185792	38	6203
2026-01-13 18:04:43.62	16.70	12.69	-33.0	-33.6	24.8	0.00e+00	0	27	0	679477248	38	6171
2026-01-13 18:04:44.63	16.63	12.79	-32.7	-33.4	25.1	0.00e+00	0	27	0	684720128	38	5994
2026-01-13 18:04:45.63	16.55	12.88	-32.7	-33.4	25.1	0.00e+00	0	27	0	691011584	38	5985
2026-01-13 18:04:46.64	16.48	12.97	-32.7	-33.3	25.1	0.00e+00	0	27	0	696254464	38	5957
2026-01-13 18:04:47.65	16.41	13.06	-32.7	-33.4	25.2	0.00e+00	0	27	0	701497344	38	5980
2026-01-13 18:04:48.66	16.33	13.15	-32.6	-33.3	25.2	0.00e+00	0	27	0	707788800	38	5942
2026-01-13 18:04:49.67	16.26	13.25	-32.7	-33.4	25.2	0.00e+00	0	27	0	713031680	38	5967
2026-01-13 18:04:50.68	16.18	13.34	-32.8	-33.4	25.1	0.00e+00	0	27	0	719323136	38	6023
2026-01-13 18:04:51.69	16.11	13.43	-32.5	-33.2	25.3	0.00e+00	0	27	0	724566016	38	5877
2026-01-13 18:04:52.70	16.03	13.52	-32.6	-33.2	25.2	0.00e+00	0	27	0	729808896	38	5889
2026-01-13 18:04:53.71	15.96	13.62	-32.5	-33.2	25.3	0.00e+00	0	27	0	736100352	38	5862
2026-01-13 18:04:54.72	15.88	13.71	-32.6	-33.3	25.2	0.00e+00	0	27	0	741343232	38	5923
2026-01-13 18:04:55.73	15.80	13.81	-32.4	-33.1	25.4	0.00e+00	0	27	0	747634688	38	5819
2026-01-13 18:04:56.74	15.72	13.90	-32.5	-33.2	25.4	0.00e+00	0	27	0	752877568	38	5850
2026-01-13 18:04:57.75	15.64	14.00	-32.4	-33.0	25.5	0.00e+00	0	27	0	758120448	38	5741
2026-01-13 18:04:58.76	15.56	14.09	-32.3	-33.0	25.4	0.00e+00	0	27	0	764411904	38	5733
2026-01-13 18:04:59.77	15.48	14.19	-32.2	-32.9	25.6	0.00e+00	0	27	0	769654784	38	5669
2026-01-13 18:05:00.78	15.40	14.28	-32.2	-32.9	25.6	0.00e+00	0	27	0	775946240	38	5639
2026-01-13 18:05:01.79	15.32	14.38	-32.3	-33.0	25.5	0.00e+00	0	27	0	781189120	38	5707
2026-01-13 18:05:02.80	15.24	14.48	-32.2	-32.9	25.6	0.00e+00	0	27	0	787480576	38	5661
2026-01-13 18:05:03.81	15.16	14.57	-32.2	-32.8	25.7	0.00e+00	0	27	0	792723456	38	5616
2026-01-13 18:05:04.82	15.08	14.67	-32.2	-32.8	25.6	0.00e+00	0	27	0	797966336	38	5628
2026-01-13 18:05:05.83	15.00	14.77	-32.2	-32.9	25.6	0.00e+00	0	27	0	804257792	38	5644
2026-01-13 18:05:06.84	14.91	14.87	-32.1	-32.8	25.7	0.00e+00	0	27	0	809500672	38	5567
2026-01-13 18:05:07.85	14.83	14.97	-32.0	-32.7	25.8	0.00e+00	0	27	0	815792128	38	5519
2026-01-13 18:05:08.85	14.74	15.06	-32.1	-32.8	25.8	0.00e+00	0	27	0	821035008	38	5572
2026-01-13 18:05:09.86	14.66	15.16	-32.0	-32.7	25.8	0.00e+00	0	27	0	826277888	38	5519
2026-01-13 18:05:10.88	14.57	15.26	-32.1	-32.7	25.8	0.00e+00	0	27	0	832569344	38	5558
2026-01-13 18:05:11.88	14.49	15.36	-32.1	-32.7	25.8	0.00e+00	0	27	0	837812224	38	5548
2026-01-13 18:05:12.89	14.40	15.46	-32.1	-32.8	25.7	0.00e+00	0	27	0	844103680	38	5603
2026-01-13 18:05:13.90	14.31	15.56	-32.1	-32.8	25.7	0.00e+00	0	27	0	849346560	38	5585
2026-01-13 18:05:14.91	14.22	15.66	-32.0	-32.7	25.8	0.00e+00	0	27	0	854589440	38	5512
2026-01-13 18:05:15.92	14.13	15.76	-32.1	-32.7	25.8	0.00e+00	0	27	0	860880896	38	5565
2026-01-13 18:05:16.93	14.04	15.86	-31.9	-32.6	25.9	0.00e+00	0	27	0	866123776	38	5460
2026-01-13 18:05:17.94	13.95	15.97	-31.8	-32.5	26.0	0.00e+00	0	27	0	872415232	38	5400
2026-01-13 18:05:18.95	13.86	16.07	-31.7	-32.4	26.1	0.00e+00	0	27	0	877658112	36	5991
2026-01-13 18:05:19.96	13.77	16.17	-31.5	-32.2	26.2	0.00e+00	0	27	0	883949568	36	5836
2026-01-13 18:05:20.97	13.68	16.27	-31.5	-32.1	26.3	0.00e+00	0	27	0	889192448	36	5827
2026-01-13 18:05:21.98	13.59	16.38	-31.6	-32.2	26.2	0.00e+00	0	27	0	895483904	36	5861
2026-01-13 18:05:22.99	13.49	16.48	-31.3	-32.0	26.4	0.00e+00	0	27	0	900726784	36	5714
2026-01-13 18:05:24.00	13.40	16.58	-31.4	-32.1	26.4	0.00e+00	0	27	0	905969664	36	5768
2026-01-13 18:05:25.01	13.30	16.69	-31.4	-32.1	26.3	0.00e+00	0	27	0	912261120	36	5777
2026-01-13 18:05:26.02	13.21	16.79	-31.4	-32.0	26.4	0.00e+00	0	27	0	917504000	36	5727
2026-01-13 18:05:27.03	13.11	16.90	-31.4	-32.0	26.4	0.00e+00	0	27	0	923795456	36	5761
2026-01-13 18:05:28.04	13.01	17.00	-31.4	-32.0	26.4	0.00e+00	0	27	0	929038336	36	5732
2026-01-13 18:05:29.05	12.92	17.11	-31.4	-32.1	26.4	0.00e+00	0	27	0	934281216	36	5783
2026-01-13 18:05:30.06	12.82	17.22	-31.4	-32.0	26.4	0.00e+00	0	27	0	940572672	36	5736
2026-01-13 18:05:31.07	12.72	17.32	-31.4	-32.0	26.4	0.00e+00	0	27	0	945815552	36	5736
2026-01-13 18:05:32.08	12.62	17.43	-31.5	-32.1	26.4	0.00e+00	0	27	0	952107008	36	5821
2026-01-13 18:05:33.08	12.52	17.53	-31.6	-32.2	26.3	0.00e+00	0	27	0	957349888	36	5868
2026-01-13 18:05:34.09	12.42	17.64	-31.4	-32.1	26.4	0.00e+00	0	27	0	962592768	36	5764
2026-01-13 18:05:35.10	12.32	17.75	-31.4	-32.0	26.4	0.00e+00	0	27	0	968884224	36	5742
2026-01-13 18:05:36.11	12.21	17.86	-31.4	-32.1	26.4	0.00e+00	0	27	0	974127104	36	5765
2026-01-13 18:05:37.12	12.11	17.97	-31.4	-32.1	26.4	0.00e+00	0	27	0	980418560	36	5762
2026-01-13 18:05:38.13	12.01	18.08	-31.4	-32.1	26.5	0.00e+00	0	27	0	985661440	36	5774
2026-01-13 18:05:39.14	11.90	18.19	-31.2	-31.8	26.6	0.00e+00	0	27	0	991952896	36	5601
2026-01-13 18:05:40.15	11.79	18.30	-31.1	-31.7	26.7	0.00e+00	0	27	0	997195776	36	5545
2026-01-13 18:05:41.16	11.69	18.41	-31.0	-31.6	26.8	0.00e+00	0	27	0	1002438656	36	5486
2026-01-13 18:05:42.17	11.58	18.52	-31.1	-31.8	26.6	0.00e+00	0	27	0	1008730112	36	5579
2026-01-13 18:05:43.18	11.47	18.63	-30.9	-31.5	26.8	0.00e+00	0	27	0	1013972992	36	5421
2026-01-13 18:05:44.19	11.36	18.74	-30.9	-31.6	26.9	0.00e+00	0	27	0	1020264448	36	5465
2026-01-13 18:05:45.20	11.25	18.85	-30.9	-31.6	26.9	0.00e+00	0	27	0	1025507328	36	5448
2026-01-13 18:05:46.21	11.14	18.96	-30.9	-31.5	26.8	0.00e+00	0	27	0	1030750208	36	5419
2026-01-13 18:05:47.22	11.03	19.08	-30.9	-31.5	26.9	0.00e+00	0	27	0	1037041664	36	5417
2026-01-13 18:05:48.22	10.92	19.19	-30.9	-31.6	26.9	0.00e+00	0	27	0	1042284544	36	5457
2026-01-13 18:05:49.23	10.81	19.30	-30.9	-31.5	26.9	0.00e+00	0	27	0	1048576000	36	5409
2026-01-13 18:05:50.24	10.69	19.41	-30.9	-31.6	26.9	0.00e+00	0	27	0	1053818880	36	5440
2026-01-13 18:05:51.25	10.58	19.53	-30.8	-31.5	27.0	0.00e+00	0	27	0	1059061760	36	5388
2026-01-13 18:05:52.25	10.46	19.64	-30.9	-31.5	26.9	0.00e+00	0	27	0	1065353216	36	5424
2026-01-13 18:05:53.26	10.34	19.76	-30.6	-31.3	27.1	0.00e+00	0	27	0	1070596096	34	5932
2026-01-13 18:05:54.27	10.23	19.87	-30.8	-31.4	26.9	0.00e+00	0	27	0	1076887552	34	6017
2026-01-13 18:05:55.28	10.11	19.99	-30.8	-31.4	27.0	0.00e+00	0	27	0	1082130432	34	6010
2026-01-13 18:05:56.29	9.99	20.10	-30.6	-31.3	27.1	0.00e+00	0	27	0	1088421888	34	5906
2026-01-13 18:05:57.30	9.87	20.22	-30.6	-31.3	27.0	0.00e+00	0	27	0	1093664768	34	5904
2026-01-13 18:05:58.31	9.75	20.34	-30.7	-31.4	27.0	0.00e+00	0	27	0	1098907648	34	5979
2026-01-13 18:05:59.32	9.62	20.46	-30.5	-31.1	27.2	0.00e+00	0	27	0	1105199104	34	5776
2026-01-13 18:06:00.33	9.50	20.57	-30.5	-31.1	27.2	0.00e+00	0	27	0	1110441984	34	5828
2026-01-13 18:06:01.34	9.38	20.69	-30.4	-31.0	27.3	0.00e+00	0	27	0	1116733440	34	5739
2026-01-13 18:06:02.35	9.25	20.81	-30.5	-31.1	27.2	0.00e+00	0	27	0	1121976320	34	5787
2026-01-13 18:06:03.36	9.12	20.93	-30.5	-31.2	27.2	0.00e+00	0	27	0	1127219200	34	5830
2026-01-13 18:06:04.37	9.00	21.05	-30.5	-31.1	27.2	0.00e+00	0	27	0	1133510656	34	5781
2026-01-13 18:06:05.38	8.87	21.17	-30.6	-31.2	27.2	0.00e+00	0	27	0	1138753536	34	5881
2026-01-13 18:06:06.39	8.74	21.29	-30.5	-31.1	27.2	0.00e+00	0	27	0	1145044992	34	5805
2026-01-13 18:06:07.39	8.61	21.41	-30.5	-31.2	27.2	0.00e+00	0	27	0	1150287872	34	5857
2026-01-13 18:06:08.40	8.48	21.53	-30.6	-31.2	27.2	0.00e+00	0	27	0	1155530752	34	5879
2026-01-13 18:06:09.41	8.34	21.65	-30.6	-31.3	27.1	0.00e+00	0	27	0	1161822208	34	5919
2026-01-13 18:06:10.42	8.21	21.77	-30.6	-31.2	27.1	0.00e+00	0	27	0	1167065088	34	5880
2026-01-13 18:06:11.43	8.08	21.90	-30.5	-31.2	27.3	0.00e+00	0	27	0	1173356544	34	5854
2026-01-13 18:06:12.44	7.94	22.02	-30.5	-31.1	27.3	0.00e+00	0	27	0	1178599424	34	5819
2026-01-13 18:06:13.45	7.80	22.14	-30.4	-31.0	27.3	0.00e+00	0	27	0	1184890880	34	5742
2026-01-13 18:06:14.46	7.66	22.27	-30.4	-31.0	27.2	0.00e+00	0	27	0	1190133760	34	5751
2026-01-13 18:06:15.47	7.53	22.39	-30.3	-30.9	27.3	0.00e+00	0	27	0	1195376640	34	5660
2026-01-13 18:06:16.48	7.38	22.51	-30.4	-31.0	27.3	0.00e+00	0	27	0	1201668096	34	5738
2026-01-13 18:06:17.49	7.24	22.64	-30.3	-30.9	27.4	0.00e+00	0	27	0	1206910976	34	5668
2026-01-13 18:06:18.50	7.10	22.76	-30.3	-31.0	27.4	0.00e+00	0	27	0	1213202432	34	5699
2026-01-13 18:06:19.51	6.96	22.89	-30.4	-31.1	27.3	0.00e+00	0	27	0	1218445312	34	5783
2026-01-13 18:06:20.52	6.81	23.02	-30.4	-31.0	27.4	0.00e+00	0	27	0	1223688192	34	5714
2026-01-13 18:06:21.53	6.66	23.14	-30.5	-31.1	27.2	0.00e+00	0	27	0	1229979648	34	5827
2026-01-13 18:06:22.54	6.52	23.27	-30.5	-31.1	27.4	0.00e+00	0	27	0	1235222528	34	5802
2026-01-13 18:06:23.55	6.37	23.40	-30.3	-31.0	27.4	0.00e+00	0	27	0	1241513984	34	5716
2026-01-13 18:06:24.56	6.22	23.52	-30.4	-31.1	27.3	0.00e+00	0	27	0	1246756864	34	5777
2026-01-13 18:06:25.57	6.07	23.65	-30.2	-30.8	27.5	0.00e+00	0	27	0	1251999744	34	5621
2026-01-13 18:06:26.58	5.91	23.78	-30.0	-30.6	27.7	0.00e+00	0	27	0	1258291200	34	5464
2026-01-13 18:06:27.59	5.76	23.91	-30.0	-30.6	27.7	0.00e+00	0	27	0	1263534080	34	5442
2026-01-13 18:06:28.60	5.61	24.04	-29.8	-30.4	27.8	0.00e+00	0	27	0	1269825536	34	5319
2026-01-13 18:06:29.60	5.45	24.17	-29.8	-30.4	27.8	0.00e+00	0	27	0	1275068416	34	5357
2026-01-13 18:06:30.61	5.29	24.30	-30.0	-30.6	27.7	0.00e+00	0	27	0	1281359872	34	5468
2026-01-13 18:06:31.63	5.13	24.43	-29.9	-30.5	27.8	0.00e+00	0	27	0	1286602752	34	5389
2026-01-13 18:06:32.63	4.97	24.56	-29.8	-30.4	27.8	0.00e+00	0	27	0	1292894208	32	6000
2026-01-13 18:06:33.64	4.81	24.69	-30.0	-30.6	27.7	0.00e+00	0	27	0	1298137088	32	6169
2026-01-13 18:06:34.65	4.65	24.82	-29.9	-30.5	27.8	0.00e+00	0	27	0	1303379968	32	6081
2026-01-13 18:06:35.66	4.48	24.96	-29.9	-30.6	27.7	0.00e+00	0	27	0	1309671424	32	6130
2026-01-13 18:06:36.67	4.32	25.09	-30.0	-30.7	27.7	0.00e+00	0	27	0	1314914304	32	6174
2026-01-13 18:06:37.68	4.15	25.22	-29.9	-30.5	27.7	0.00e+00	0	27	0	1321205760	32	6090
2026-01-13 18:06:38.69	3.98	25.36	-29.9	-30.6	27.8	0.00e+00	0	27	0	1326448640	32	6107
2026-01-13 18:06:39.70	3.81	25.49	-29.9	-30.5	27.8	0.00e+00	0	27	0	1331691520	32	6080
2026-01-13 18:06:40.71	3.64	25.62	-29.9	-30.5	27.7	0.00e+00	0	27	0	1337982976	32	6096
2026-01-13 18:06:41.72	3.46	25.76	-29.8	-30.4	27.8	0.00e+00	0	27	0	1343225856	32	6005
2026-01-13 18:06:42.73	3.29	25.89	-29.9	-30.5	27.8	0.00e+00	0	27	0	1349517312	32	6065
2026-01-13 18:06:43.74	3.11	26.03	-29.7	-30.3	27.9	0.00e+00	0	27	0	1354760192	32	5943
2026-01-13 18:06:44.75	2.93	26.17	-29.9	-30.5	27.7	0.00e+00	0	27	0	1360003072	32	6059
2026-01-13 18:06:45.76	2.75	26.30	-29.9	-30.6	27.7	0.00e+00	0	27	0	1366294528	32	6109
2026-01-13 18:06:46.77	2.57	26.44	-29.8	-30.4	27.8	0.00e+00	0	27	0	1371537408	32	5997
2026-01-13 18:06:47.78	2.39	26.58	-29.7	-30.4	27.9	0.00e+00	0	27	0	1377828864	32	5966
2026-01-13 18:06:48.79	2.21	26.71	-29.7	-30.3	27.9	0.00e+00	0	27	0	1383071744	32	5943
2026-01-13 18:06:49.79	2.02	26.85	-29.9	-30.5	27.8	0.00e+00	0	27	0	1389363200	32	6055
2026-01-13 18:06:50.80	1.83	26.99	-29.8	-30.4	27.9	0.00e+00	0	27	0	1394606080	32	6019
2026-01-13 18:06:51.81	1.65	27.13	-29.6	-30.2	28.1	0.00e+00	0	27	0	1399848960	32	5847
2026-01-13 18:06:52.82	1.45	27.26	-29.7	-30.3	28.0	0.00e+00	0	27	0	1406140416	32	5931
2026-01-13 18:06:53.83	1.26	27.40	-29.5	-30.2	28.0	0.00e+00	0	27	0	1411383296	32	5832
2026-01-13 18:06:54.84	1.07	27.54	-29.5	-30.1	28.1	0.00e+00	0	27	0	1417674752	32	5792
2026-01-13 18:06:55.85	0.87	27.68	-29.4	-30.0	28.2	0.00e+00	0	27	0	1422917632	32	5750
2026-01-13 18:06:56.85	0.67	27.82	-29.5	-30.1	28.0	0.00e+00	0	27	0	1428160512	32	5808
2026-01-13 18:06:57.86	0.48	27.96	-29.5	-30.1	28.1	0.00e+00	0	27	0	1434451968	32	5781
2026-01-13 18:06:58.87	0.27	28.10	-29.4	-30.0	28.1	0.00e+00	0	27	0	1439694848	32	5740
2026-01-13 18:06:59.88	0.07	28.24	-29.4	-30.0	28.1	0.00e+00	0	27	0	1445986304	32	5702
2026-01-13 18:07:00.89	359.87	28.39	-29.4	-30.1	28.1	0.00e+00	0	27	0	1451229184	32	5773
2026-01-13 18:07:01.90	359.66	28.53	-29.3	-29.9	28.2	0.00e+00	0	27	0	1456472064	32	5632
2026-01-13 18:07:02.91	359.45	28.67	-29.2	-29.8	28.3	0.00e+00	0	27	0	1462763520	32	5606
2026-01-13 18:07:03.92	359.24	28.81	-29.2	-29.8	28.3	0.00e+00	0	27	0	1468006400	32	5617
2026-01-13 18:07:04.93	359.03	28.95	-29.3	-30.0	28.2	0.00e+00	0	27	0	1474297856	32	5718
2026-01-13 18:07:05.94	358.81	29.10	-29.3	-29.9	28.2	0.00e+00	0	27	0	1479540736	32	5695
2026-01-13 18:07:06.95	358.59	29.24	-29.5	-30.1	28.1	0.00e+00	0	27	0	1485832192	32	5790
2026-01-13 18:07:07.96	358.38	29.38	-29.5	-30.2	28.1	0.00e+00	0	27	0	1491075072	32	5832
2026-01-13 18:07:08.97	358.16	29.53	-29.6	-30.2	28.0	0.00e+00	0	27	0	1496317952	32	5875
2026-01-13 18:07:09.98	357.93	29.67	-29.5	-30.2	28.1	0.00e+00	0	27	0	1502609408	32	5852
2026-01-13 18:07:10.99	357.71	29.81	-29.6	-30.2	28.0	0.00e+00	0	27	0	1507852288	32	5889
2026-01-13 18:07:12.00	357.48	29.96	-29.3	-29.9	28.3	0.00e+00	0	27	0	1514143744	32	5687
2026-01-13 18:07:13.01	357.25	30.10	-29.2	-29.8	28.4	0.00e+00	0	27	0	1519386624	32	5603
2026-01-13 18:07:14.02	357.02	30.25	-29.2	-29.8	28.3	0.00e+00	0	27	0	1524629504	32	5601
2026-01-13 18:07:15.03	356.79	30.39	-29.1	-29.7	28.4	0.00e+00	0	27	0	1530920960	32	5544
2026-01-13 18:07:16.04	356.56	30.54	-29.1	-29.8	28.3	0.00e+00	0	27	0	1536163840	32	5575
2026-01-13 18:07:17.05	356.32	30.68	-29.3	-29.9	28.3	0.00e+00	0	27	0	1542455296	32	5655
2026-01-13 18:07:18.06	356.08	30.83	-29.2	-29.8	28.3	0.00e+00	0	27	0	1547698176	32	5620
2026-01-13 18:07:19.07	355.84	30.98	-29.3	-30.0	28.2	0.00e+00	0	27	0	1552941056	32	5697
2026-01-13 18:07:20.08	355.59	31.12	-29.4	-30.0	28.2	0.00e+00	0	27	0	1559232512	32	5759
2026-01-13 18:07:21.09	355.35	31.27	-29.4	-30.1	28.2	0.00e+00	0	27	0	1564475392	32	5766
2026-01-13 18:07:22.09	355.10	31.41	-29.3	-30.0	28.2	0.00e+00	0	27	0	1570766848	32	5723
2026-01-13 18:07:23.10	354.85	31.56	-29.3	-30.0	28.2	0.00e+00	0	27	0	1576009728	32	5709
2026-01-13 18:07:24.11	354.60	31.70	-29.4	-30.0	28.2	0.00e+00	0	27	0	1582301184	32	5717
2026-01-13 18:07:25.12	354.34	31.85	-29.3	-29.9	28.2	0.00e+00	0	27	0	1587544064	32	5679
2026-01-13 18:07:26.13	354.09	32.00	-29.3	-29.9	28.3	0.00e+00	0	27	0	1593835520	32	5648
2026-01-13 18:07:27.14	353.83	32.14	-29.4	-30.0	28.2	0.00e+00	0	27	0	1599078400	32	5742
2026-01-13 18:07:28.15	353.56	32.29	-29.5	-30.1	28.1	0.00e+00	0	27	0	1604321280	32	5784
2026-01-13 18:07:29.16	353.30	32.44	-29.3	-29.9	28.2	0.00e+00	0	27	0	1610612736	32	5635
2026-01-13 18:07:30.17	353.03	32.58	-29.2	-29.9	28.3	0.00e+00	0	27	0	1615855616	32	5639
2026-01-13 18:07:31.18	352.76	32.73	-29.3	-29.9	28.2	0.00e+00	0	27	0	1622147072	32	5680
2026-01-13 18:07:32.19	352.49	32.88	-29.1	-29.7	28.4	0.00e+00	0	27	0	1627389952	32	5535
2026-01-13 18:07:33.20	352.22	33.02	-29.0	-29.6	28.5	0.00e+00	0	27	0	1632632832	32	5482
2026-01-13 18:07:34.20	351.94	33.17	-29.2	-29.8	28.3	0.00e+00	0	27	0	1638924288	32	5621
2026-01-13 18:07:35.22	351.66	33.32	-29.1	-29.7	28.3	0.00e+00	0	27	0	1644167168	32	5541
2026-01-13 18:07:36.23	351.38	33.46	-29.3	-29.9	28.3	0.00e+00	0	27	0	1650458624	32	5647
2026-01-13 18:07:37.23	351.10	33.61	-29.4	-30.0	28.2	0.00e+00	0	27	0	1655701504	32	5708
2026-01-13 18:07:38.24	350.81	33.75	-29.6	-30.2	28.1	0.00e+00	0	27	0	1660944384	32	5837
2026-01-13 18:07:39.25	350.52	33.90	-29.5	-30.2	28.2	0.00e+00	0	27	0	1667235840	32	5848
2026-01-13 18:07:40.26	350.23	34.05	-29.2	-29.8	28.4	0.00e+00	0	27	0	1672478720	32	5571
2026-01-13 18:07:41.27	349.93	34.19	-29.3	-29.9	28.3	0.00e+00	0	27	0	1678770176	32	5643
2026-01-13 18:07:42.28	349.63	34.34	-29.0	-29.6	28.6	0.00e+00	0	27	0	1684013056	32	5453
2026-01-13 18:07:43.29	349.33	34.48	-29.1	-29.7	28.5	0.00e+00	0	27	0	1690304512	32	5523
2026-01-13 18:07:44.30	349.03	34.63	-29.0	-29.5	28.6	0.00e+00	0	27	0	1695547392	32	5428
2026-01-13 18:07:45.31	348.72	34.77	-29.0	-29.6	28.5	0.00e+00	0	27	0	1700790272	32	5470
2026-01-13 18:07:46.32	348.42	34.92	-28.9	-29.6	28.6	0.00e+00	0	27	0	1707081728	32	5457
2026-01-13 18:07:47.33	348.10	35.06	-29.0	-29.7	28.5	0.00e+00	0	27	0	1712324608	32	5503
2026-01-13 18:07:48.34	347.79	35.21	-28.9	-29.5	28.6	0.00e+00	0	27	0	1718616064	32	5407
2026-01-13 18:07:49.35	347.47	35.35	-28.8	-29.4	28.6	0.00e+00	0	27	0	1723858944	32	5363
2026-01-13 18:07:50.36	347.15	35.49	-28.8	-29.5	28.6	0.00e+00	0	27	0	1729101824	32	5387
2026-01-13 18:07:51.37	346.83	35.64	-28.9	-29.6	28.6	0.00e+00	0	27	0	1735393280	32	5465
2026-01-13 18:07:52.38	346.50	35.78	-29.1	-29.7	28.5	0.00e+00	0	27	0	1740636160	32	5557
2026-01-13 18:07:53.39	346.18	35.92	-29.3	-29.9	28.3	0.00e+00	0	27	0	1746927616	32	5685
2026-01-13 18:07:54.39	345.85	36.06	-29.2	-29.8	28.4	0.00e+00	0	27	0	1752170496	32	5616
2026-01-13 18:07:55.40	345.51	36.20	-29.1	-29.7	28.4	0.00e+00	0	27	0	1757413376	32	5551
2026-01-13 18:07:56.41	345.18	36.34	-29.1	-29.7	28.4	0.00e+00	0	27	0	1763704832	32	5536
2026-01-13 18:07:57.42	344.84	36.48	-29.2	-29.8	28.4	0.00e+00	0	27	0	1768947712	32	5582
2026-01-13 18:07:58.43	344.49	36.62	-29.3	-29.9	28.3	0.00e+00	0	27	0	1775239168	32	5631
2026-01-13 18:07:59.44	344.15	36.76	-29.3	-29.9	28.2	0.00e+00	0	27	0	1780482048	32	5686
2026-01-13 18:08:00.45	343.80	36.90	-29.3	-30.0	28.2	0.00e+00	0	27	0	1786773504	32	5721
2026-01-13 18:08:01.46	343.45	37.04	-29.4	-30.0	28.1	0.00e+00	0	27	0	1792016384	32	5736
2026-01-13 18:08:02.47	343.09	37.17	-29.4	-30.0	27.9	0.00e+00	0	27	0	1797259264	32	5736
2026-01-13 18:08:03.48	342.73	37.31	-29.1	-29.7	28.3	0.00e+00	0	27	0	1803550720	32	5548
2026-01-13 18:08:04.49	342.37	37.44	-28.9	-29.5	28.5	0.00e+00	0	27	0	1808793600	32	5418
2026-01-13 18:08:05.50	342.01	37.58	-29.1	-29.7	28.4	0.00e+00	0	27	0	1815085056	32	5525
2026-01-13 18:08:06.51	341.64	37.71	-29.3	-29.9	28.3	0.00e+00	0	27	0	1820327936	32	5663
2026-01-13 18:08:07.51	341.27	37.85	-29.4	-30.0	28.2	0.00e+00	0	27	0	1825570816	32	5756
2026-01-13 18:08:08.53	340.90	37.98	-29.3	-29.9	28.3	0.00e+00	0	27	0	1831862272	32	5694
2026-01-13 18:08:09.53	340.52	38.11	-29.3	-29.9	28.3	0.00e+00	0	27	0	1837105152	32	5693
2026-01-13 18:08:10.54	340.14	38.24	-29.2	-29.9	28.3	0.00e+00	0	27	0	1843396608	32	5631
2026-01-13 18:08:11.55	339.76	38.37	-29.3	-29.9	28.3	0.00e+00	0	27	0	1848639488	32	5684
2026-01-13 18:08:12.56	339.38	38.50	-29.2	-29.8	28.4	0.00e+00	0	27	0	1853882368	32	5611
2026-01-13 18:08:13.57	338.99	38.63	-29.3	-29.9	28.2	0.00e+00	0	27	0	1860173824	32	5654
2026-01-13 18:08:14.58	338.60	38.75	-29.4	-30.1	28.1	0.00e+00	0	27	0	1865416704	32	5789
2026-01-13 18:08:15.59	338.20	38.88	-29.3	-29.9	28.3	0.00e+00	0	27	0	1871708160	32	5692
2026-01-13 18:08:16.60	337.80	39.00	-29.4	-30.0	28.3	0.00e+00	0	27	0	1876951040	32	5705
2026-01-13 18:08:17.61	337.40	39.12	-29.0	-29.6	28.5	0.00e+00	0	27	0	1883242496	32	5482
2026-01-13 18:08:18.63	336.99	39.25	-29.1	-29.6	28.5	0.00e+00	0	27	0	1888485376	32	5492
2026-01-13 18:08:19.64	336.59	39.37	-29.2	-29.8	28.4	0.00e+00	0	27	0	1894776832	32	5624
2026-01-13 18:08:20.64	336.18	39.49	-29.4	-30.0	28.2	0.00e+00	0	27	0	1900019712	32	5741
2026-01-13 18:08:21.65	335.77	39.61	-29.3	-30.0	28.2	0.00e+00	0	27	0	1905262592	32	5700
2026-01-13 18:08:22.66	335.35	39.72	-29.2	-29.8	28.4	0.00e+00	0	27	0	1911554048	32	5610
2026-01-13 18:08:23.67	334.93	39.84	-29.1	-29.8	28.3	0.00e+00	0	27	0	1916796928	32	5587
2026-01-13 18:08:24.69	334.51	39.95	-29.2	-29.8	28.4	0.00e+00	0	27	0	1923088384	32	5609
2026-01-13 18:08:25.69	334.08	40.07	-29.3	-29.9	28.3	0.00e+00	0	27	0	1928331264	32	5686
2026-01-13 18:08:26.71	333.65	40.18	-29.3	-29.9	28.3	0.00e+00	0	27	0	1933574144	32	5691
2026-01-13 18:08:27.72	333.22	40.29	-29.1	-29.7	28.4	0.00e+00	0	27	0	1939865600	32	5527
2026-01-13 18:08:28.72	332.79	40.39	-29.1	-29.7	28.5	0.00e+00	0	27	0	1945108480	32	5564
2026-01-13 18:08:29.73	332.35	40.50	-29.0	-29.6	28.4	0.00e+00	0	27	0	1951399936	32	5484
2026-01-13 18:08:30.74	331.91	40.61	-29.0	-29.6	28.6	0.00e+00	0	27	0	1956642816	32	5476
2026-01-13 18:08:31.75	331.47	40.71	-29.1	-29.7	28.4	0.00e+00	0	27	0	1961885696	32	5566
2026-01-13 18:08:32.76	331.03	40.81	-29.1	-29.8	28.5	0.00e+00	0	27	0	1968177152	32	5584
2026-01-13 18:08:33.78	330.57	40.91	-29.1	-29.7	28.5	0.00e+00	0	27	0	1973420032	32	5510
2026-01-13 18:08:34.79	330.12	41.01	-29.0	-29.6	28.6	0.00e+00	0	27	0	1979711488	32	5480
2026-01-13 18:08:35.80	329.67	41.11	-29.0	-29.6	28.4	0.00e+00	0	27	0	1984954368	32	5500
2026-01-13 18:08:36.81	329.21	41.20	-28.9	-29.5	28.5	0.00e+00	0	27	0	1991245824	32	5430
2026-01-13 18:08:37.81	328.76	41.30	-29.0	-29.5	28.5	0.00e+00	0	27	0	1996488704	32	5423
2026-01-13 18:08:38.82	328.29	41.39	-28.9	-29.5	28.5	0.00e+00	0	27	0	2002780160	32	5416
2026-01-13 18:08:39.83	327.83	41.48	-28.9	-29.5	28.6	0.00e+00	0	27	0	2008023040	32	5437
2026-01-13 18:08:40.84	327.36	41.56	-29.1	-29.7	28.4	0.00e+00	0	27	0	2013265920	32	5552
2026-01-13 18:08:41.85	326.89	41.65	-29.0	-29.7	28.4	0.00e+00	0	27	0	2019557376	32	5505
2026-01-13 18:08:42.86	326.42	41.73	-29.2	-29.8	28.4	0.00e+00	0	27	0	2024800256	32	5599
2026-01-13 18:08:43.87	325.95	41.81	-29.0	-29.6	28.6	0.00e+00	0	27	0	2030043136	32	5462
2026-01-13 18:08:44.88	325.47	41.89	-29.1	-29.8	28.5	0.00e+00	0	27	0	2036334592	32	5570
2026-01-13 18:08:45.89	324.99	41.97	-28.9	-29.5	28.6	0.00e+00	0	27	0	2041577472	32	5420
2026-01-13 18:08:46.90	324.51	42.05	-29.1	-29.8	28.4	0.00e+00	0	27	0	2047868928	32	5592
2026-01-13 18:08:47.91	324.02	42.12	-28.9	-29.6	28.6	0.00e+00	0	27	0	2053111808	32	5447
2026-01-13 18:08:48.92	323.54	42.19	-28.8	-29.4	28.6	0.00e+00	0	27	0	2058354688	32	5360
2026-01-13 18:08:49.92	323.05	42.26	-28.8	-29.4	28.7	0.00e+00	0	27	0	2064646144	32	5355
2026-01-13 18:08:50.93	322.56	42.32	-28.8	-29.3	28.7	0.00e+00	0	27	0	2069889024	30	5964
2026-01-13 18:08:51.94	322.07	42.39	-28.8	-29.5	28.6	0.00e+00	0	27	0	2076180480	30	6040
2026-01-13 18:08:52.95	321.58	42.45	-28.8	-29.4	28.6	0.00e+00	0	27	0	2081423360	30	5994
2026-01-13 18:08:53.96	321.08	42.51	-28.8	-29.4	28.6	0.00e+00	0	27	0	2087714816	30	6014
2026-01-13 18:08:54.97	320.58	42.57	-28.8	-29.4	28.6	0.00e+00	0	27	0	2092957696	30	5999
2026-01-13 18:08:55.98	320.08	42.62	-28.6	-29.2	28.8	0.00e+00	0	27	0	2099249152	30	5874
2026-01-13 18:08:56.99	319.58	42.68	-28.7	-29.3	28.7	0.00e+00	0	27	0	2104492032	30	5934
2026-01-13 18:08:58.00	319.08	42.73	-28.9	-29.5	28.6	0.00e+00	0	27	0	2109734912	30	6068
2026-01-13 18:08:59.01	318.57	42.77	-29.2	-29.8	28.4	0.00e+00	0	27	0	2116026368	30	6300
2026-01-13 18:09:00.02	318.07	42.82	-29.2	-29.9	28.3	0.00e+00	0	27	0	2121269248	30	6337
2026-01-13 18:09:01.02	317.57	42.86	-29.2	-29.7	28.4	0.00e+00	0	27	0	2127560704	30	6239
2026-01-13 18:09:02.03	317.06	42.90	-29.1	-29.7	28.5	0.00e+00	0	27	0	2132803584	30	6214
2026-01-13 18:09:03.04	316.55	42.94	-29.1	-29.8	28.4	0.00e+00	0	27	0	2138046464	30	6255
2026-01-13 18:09:04.06	316.03	42.97	-28.9	-29.5	28.6	0.00e+00	0	27	0	2144337920	30	6054
2026-01-13 18:09:05.06	315.52	43.01	-28.9	-29.6	28.6	0.00e+00	0	27	0	2149580800	30	6113
2026-01-13 18:09:06.07	315.01	43.04	-28.6	-29.2	28.8	0.00e+00	0	27	0	2155872256	30	5863
2026-01-13 18:09:07.08	314.50	43.06	-28.8	-29.3	28.7	0.00e+00	0	27	0	2161115136	30	5963
2026-01-13 18:09:08.09	313.98	43.09	-28.7	-29.3	28.8	0.00e+00	0	27	0	2166358016	30	5947
2026-01-13 18:09:09.11	313.46	43.11	-28.8	-29.5	28.7	0.00e+00	0	27	0	2172649472	30	6042
2026-01-13 18:09:10.11	312.95	43.13	-28.6	-29.2	28.8	0.00e+00	0	27	0	2177892352	30	5883
2026-01-13 18:09:11.12	312.43	43.15	-28.8	-29.4	28.7	0.00e+00	0	27	0	2184183808	30	6000
2026-01-13 18:09:12.13	311.91	43.16	-28.9	-29.5	28.6	0.00e+00	0	27	0	2189426688	30	6099
2026-01-13 18:09:13.14	311.39	43.17	-28.9	-29.5	28.6	0.00e+00	0	27	0	2195718144	30	6035
2026-01-13 18:09:14.15	310.88	43.18	-28.9	-29.5	28.5	0.00e+00	0	27	0	2200961024	30	6094
2026-01-13 18:09:15.16	310.36	43.19	-28.9	-29.5	28.6	0.00e+00	0	27	0	2206203904	30	6084
2026-01-13 18:09:16.17	309.84	43.19	-29.1	-29.7	28.5	0.00e+00	0	27	0	2212495360	30	6233
2026-01-13 18:09:17.18	309.32	43.20	-29.0	-29.7	28.5	0.00e+00	0	27	0	2217738240	30	6185
2026-01-13 18:09:18.19	308.80	43.19	-28.9	-29.5	28.6	0.00e+00	0	27	0	2224029696	30	6052
2026-01-13 18:09:19.20	308.28	43.19	-28.7	-29.3	28.7	0.00e+00	0	27	0	2229272576	30	5923
2026-01-13 18:09:20.21	307.76	43.18	-28.6	-29.1	28.8	0.00e+00	0	27	0	2234515456	30	5816
2026-01-13 18:09:21.22	307.24	43.17	-28.6	-29.3	28.7	0.00e+00	0	27	0	2240806912	30	5909
2026-01-13 18:09:22.23	306.73	43.16	-28.3	-28.9	28.9	0.00e+00	0	27	0	2246049792	30	5646
2026-01-13 18:09:23.23	306.21	43.15	-28.5	-29.1	28.8	0.00e+00	0	27	0	2252341248	30	5802
2026-01-13 18:09:24.24	305.70	43.13	-28.7	-29.3	28.7	0.00e+00	0	27	0	2257584128	30	5927
2026-01-13 18:09:25.25	305.18	43.11	-28.6	-29.2	28.6	0.00e+00	0	27	0	2262827008	30	5842
2026-01-13 18:09:26.26	304.66	43.09	-28.8	-29.5	28.5	0.00e+00	0	27	0	2269118464	30	6035
2026-01-13 18:09:27.27	304.15	43.06	-29.1	-29.7	28.4	0.00e+00	0	27	0	2274361344	30	6184
2026-01-13 18:09:28.28	303.63	43.04	-29.1	-29.7	28.4	0.00e+00	0	27	0	2280652800	30	6242
2026-01-13 18:09:29.29	303.12	43.01	-28.9	-29.5	28.6	0.00e+00	0	27	0	2285895680	30	6098
2026-01-13 18:09:30.30	302.61	42.97	-28.9	-29.5	28.5	0.00e+00	0	27	0	2292187136	30	6068
2026-01-13 18:09:31.31	302.09	42.94	-28.7	-29.4	28.7	0.00e+00	0	27	0	2297430016	30	5984
2026-01-13 18:09:32.32	301.58	42.90	-29.0	-29.6	28.6	0.00e+00	0	27	0	2302672896	30	6112
2026-01-13 18:09:33.33	301.08	42.86	-28.7	-29.3	28.8	0.00e+00	0	27	0	2308964352	30	5916
2026-01-13 18:09:34.34	300.57	42.82	-28.7	-29.3	28.7	0.00e+00	0	27	0	2314207232	30	5945
2026-01-13 18:09:35.35	300.06	42.77	-28.6	-29.2	28.8	0.00e+00	0	27	0	2320498688	30	5889
2026-01-13 18:09:36.35	299.56	42.73	-28.6	-29.2	28.8	0.00e+00	0	27	0	2325741568	30	5841
2026-01-13 18:09:37.36	299.06	42.68	-28.6	-29.2	28.9	0.00e+00	0	27	0	2330984448	30	5879
2026-01-13 18:09:38.37	298.56	42.62	-28.5	-29.1	28.8	0.00e+00	0	27	0	2337275904	30	5821
2026-01-13 18:09:39.38	298.06	42.57	-28.6	-29.2	28.8	0.00e+00	0	27	0	2342518784	30	5877
2026-01-13 18:09:40.39	297.56	42.51	-28.9	-29.4	28.7	0.00e+00	0	27	0	2348810240	30	6021
2026-01-13 18:09:41.40	297.06	42.45	-28.9	-29.5	28.5	0.00e+00	0	27	0	2354053120	30	6047
2026-01-13 18:09:42.41	296.57	42.39	-28.8	-29.5	28.6	0.00e+00	0	27	0	2359296000	30	6040
2026-01-13 18:09:43.41	296.08	42.33	-28.7	-29.3	28.8	0.00e+00	0	27	0	2365587456	30	5948
2026-01-13 18:09:44.42	295.59	42.26	-28.6	-29.2	28.8	0.00e+00	0	27	0	2370830336	30	5866
2026-01-13 18:09:45.43	295.10	42.19	-28.5	-29.0	28.7	0.00e+00	0	27	0	2377121792	30	5755
2026-01-13 18:09:46.44	294.61	42.12	-28.7	-29.2	28.7	0.00e+00	0	27	0	2382364672	30	5870
2026-01-13 18:09:47.45	294.13	42.05	-28.9	-29.5	28.6	0.00e+00	0	27	0	2388656128	30	6061
2026-01-13 18:09:48.46	293.64	41.97	-28.9	-29.4	28.6	0.00e+00	0	27	0	2393899008	30	6031
2026-01-13 18:09:49.47	293.16	41.89	-28.8	-29.4	28.6	0.00e+00	0	27	0	2399141888	30	5995
2026-01-13 18:09:50.48	292.69	41.81	-29.0	-29.6	28.3	0.00e+00	0	27	0	2405433344	30	6152
2026-01-13 18:09:51.49	292.21	41.73	-29.0	-29.6	28.6	0.00e+00	0	27	0	2410676224	30	6153
2026-01-13 18:09:52.50	291.74	41.65	-29.0	-29.6	28.5	0.00e+00	0	27	0	2416967680	30	6155
2026-01-13 18:09:53.51	291.27	41.56	-28.8	-29.4	28.7	0.00e+00	0	27	0	2422210560	30	6016
2026-01-13 18:09:54.52	290.80	41.48	-28.8	-29.5	28.7	0.00e+00	0	27	0	2427453440	30	6077
2026-01-13 18:09:55.53	290.33	41.39	-28.7	-29.4	28.8	0.00e+00	0	27	0	2433744896	30	5983
2026-01-13 18:09:56.54	289.87	41.30	-28.7	-29.3	28.7	0.00e+00	0	27	0	2438987776	30	5897
2026-01-13 18:09:57.55	289.41	41.20	-28.8	-29.5	28.6	0.00e+00	0	27	0	2445279232	30	6046
2026-01-13 18:09:58.56	288.95	41.11	-28.8	-29.4	28.6	0.00e+00	0	27	0	2450522112	30	5967
2026-01-13 18:09:59.57	288.50	41.01	-28.6	-29.2	28.8	0.00e+00	0	27	0	2455764992	30	5842
2026-01-13 18:10:00.58	288.05	40.91	-28.6	-29.2	28.8	0.00e+00	0	27	0	2462056448	30	5880
2026-01-13 18:10:01.59	287.60	40.81	-28.7	-29.4	28.6	0.00e+00	0	27	0	2467299328	30	6005
2026-01-13 18:10:02.60	287.15	40.71	-28.8	-29.3	28.7	0.00e+00	0	27	0	2473590784	30	5935
2026-01-13 18:10:03.61	286.71	40.61	-28.9	-29.5	28.6	0.00e+00	0	27	0	2478833664	30	6071
2026-01-13 18:10:04.61	286.27	40.50	-29.0	-29.7	28.5	0.00e+00	0	27	0	2485125120	30	6187
2026-01-13 18:10:05.62	285.83	40.39	-29.0	-29.7	28.5	0.00e+00	0	27	0	2490368000	30	6218
2026-01-13 18:10:06.63	285.40	40.29	-29.0	-29.7	28.6	0.00e+00	0	27	0	2496659456	30	6186
2026-01-13 18:10:07.64	284.97	40.18	-28.9	-29.6	28.6	0.00e+00	0	27	0	2501902336	30	6133
2026-01-13 18:10:08.65	284.54	40.06	-28.7	-29.3	28.8	0.00e+00	0	27	0	2507145216	30	5957
2026-01-13 18:10:09.66	284.11	39.95	-28.7	-29.3	28.8	0.00e+00	0	27	0	2513436672	30	5956
2026-01-13 18:10:10.67	283.69	39.84	-28.7	-29.3	28.7	0.00e+00	0	27	0	2518679552	30	5913
2026-01-13 18:10:11.68	283.27	39.72	-28.7	-29.4	28.7	0.00e+00	0	27	0	2524971008	30	6007
2026-01-13 18:10:12.69	282.85	39.60	-28.5	-29.1	28.9	0.00e+00	0	27	0	2530213888	30	5770
2026-01-13 18:10:13.70	282.44	39.48	-28.6	-29.2	28.8	0.00e+00	0	27	0	2535456768	30	5848
2026-01-13 18:10:14.71	282.03	39.36	-28.8	-29.5	28.7	0.00e+00	0	27	0	2541748224	30	6086
2026-01-13 18:10:15.72	281.62	39.24	-28.8	-29.5	28.7	0.00e+00	0	27	0	2546991104	30	6093
2026-01-13 18:10:16.73	281.21	39.12	-28.7	-29.3	28.7	0.00e+00	0	27	0	2553282560	30	5911
2026-01-13 18:10:17.74	280.81	39.00	-28.7	-29.3	28.7	0.00e+00	0	27	0	2558525440	30	5930
2026-01-13 18:10:18.75	280.41	38.87	-28.9	-29.4	28.7	0.00e+00	0	27	0	2563768320	30	6025
2026-01-13 18:10:19.76	280.02	38.75	-29.1	-29.7	28.4	0.00e+00	0	27	0	2570059776	30	6243
2026-01-13 18:10:20.77	279.62	38.62	-29.0	-29.5	28.6	0.00e+00	0	27	0	2575302656	30	6089
2026-01-13 18:10:21.78	279.23	38.49	-28.8	-29.4	28.7	0.00e+00	0	27	0	2581594112	30	6007
2026-01-13 18:10:22.79	278.85	38.36	-28.9	-29.4	28.6	0.00e+00	0	27	0	2586836992	30	6020
2026-01-13 18:10:23.80	278.46	38.23	-29.1	-29.6	28.5	0.00e+00	0	27	0	2593128448	30	6164
2026-01-13 18:10:24.81	278.08	38.10	-29.2	-29.9	28.4	0.00e+00	0	27	0	2598371328	30	6370
2026-01-13 18:10:25.82	277.71	37.97	-29.1	-29.8	28.5	0.00e+00	0	27	0	2603614208	30	6271
2026-01-13 18:10:26.83	277.33	37.84	-29.0	-29.7	28.4	0.00e+00	0	27	0	2609905664	30	6225
2026-01-13 18:10:27.84	276.96	37.71	-28.9	-29.4	28.7	0.00e+00	0	27	0	2615148544	30	6010
2026-01-13 18:10:28.85	276.59	37.57	-29.0	-29.5	28.6	0.00e+00	0	27	0	2621440000	30	6092
2026-01-13 18:10:29.86	276.23	37.44	-28.9	-29.4	28.6	0.00e+00	0	27	0	2626682880	30	6028
2026-01-13 18:10:30.87	275.87	37.30	-28.9	-29.6	28.7	0.00e+00	0	27	0	2631925760	30	6163
2026-01-13 18:10:31.88	275.51	37.16	-29.0	-29.7	28.5	0.00e+00	0	27	0	2638217216	30	6183
2026-01-13 18:10:32.89	275.15	37.03	-29.0	-29.7	28.5	0.00e+00	0	27	0	2643460096	30	6205
2026-01-13 18:10:33.90	274.80	36.89	-29.1	-29.7	28.5	0.00e+00	0	27	0	2649751552	30	6236
2026-01-13 18:10:34.91	274.45	36.75	-29.1	-29.6	28.5	0.00e+00	0	27	0	2654994432	30	6168
2026-01-13 18:10:35.92	274.10	36.61	-29.1	-29.8	28.4	0.00e+00	0	27	0	2660237312	30	6252
2026-01-13 18:10:36.93	273.76	36.47	-29.1	-29.6	28.4	0.00e+00	0	27	0	2666528768	30	6164
2026-01-13 18:10:37.94	273.42	36.33	-29.0	-29.7	28.5	0.00e+00	0	27	0	2671771648	30	6187
2026-01-13 18:10:38.95	273.08	36.19	-29.1	-29.7	28.4	0.00e+00	0	27	0	2678063104	30	6177
2026-01-13 18:10:39.96	272.74	36.05	-29.2	-29.9	28.4	0.00e+00	0	27	0	2683305984	30	6350
2026-01-13 18:10:40.97	272.41	35.90	-29.3	-29.9	28.2	0.00e+00	0	27	0	2689597440	30	6337
2026-01-13 18:10:41.97	272.08	35.76	-29.1	-29.8	28.3	0.00e+00	0	27	0	2694840320	30	6302
2026-01-13 18:10:42.98	271.76	35.62	-29.0	-29.7	28.5	0.00e+00	0	27	0	2701131776	30	6222
2026-01-13 18:10:43.99	271.43	35.48	-28.9	-29.6	28.6	0.00e+00	0	27	0	2706374656	30	6122
2026-01-13 18:10:45.00	271.11	35.33	-28.8	-29.3	28.7	0.00e+00	0	27	0	2711617536	30	5934
2026-01-13 18:10:46.01	270.80	35.19	-28.8	-29.4	28.7	0.00e+00	0	27	0	2717908992	30	5991
2026-01-13 18:10:47.02	270.48	35.05	-28.7	-29.2	28.8	0.00e+00	0	27	0	2723151872	30	5867
2026-01-13 18:10:48.03	270.17	34.90	-28.4	-29.1	28.8	0.00e+00	0	27	0	2729443328	30	5809
2026-01-13 18:10:49.03	269.86	34.76	-28.4	-29.0	29.0	0.00e+00	0	27	0	2734686208	30	5747
2026-01-13 18:10:50.04	269.55	34.61	-28.3	-28.9	29.0	0.00e+00	0	27	0	2739929088	30	5655
2026-01-13 18:10:51.05	269.25	34.47	-28.4	-29.0	28.9	0.00e+00	0	27	0	2746220544	30	5756
2026-01-13 18:10:52.06	268.95	34.32	-28.4	-29.1	28.9	0.00e+00	0	27	0	2751463424	30	5784
2026-01-13 18:10:53.08	268.65	34.17	-28.6	-29.1	28.7	0.00e+00	0	27	0	2757754880	30	5804
2026-01-13 18:10:54.09	268.35	34.03	-28.6	-29.2	28.7	0.00e+00	0	27	0	2762997760	30	5891
2026-01-13 18:10:55.09	268.06	33.88	-28.6	-29.2	28.7	0.00e+00	0	27	0	2768240640	30	5857
2026-01-13 18:10:56.10	267.77	33.73	-28.7	-29.3	28.3	0.00e+00	0	27	0	2774532096	30	5910
2026-01-13 18:10:57.11	267.48	33.59	-28.9	-29.6	28.3	0.00e+00	0	27	0	2779774976	30	6140
2026-01-13 18:10:58.12	267.20	33.44	-28.9	-29.7	28.2	0.00e+00	0	27	0	2786066432	30	6177
2026-01-13 18:10:59.13	266.91	33.29	-29.0	-29.7	28.3	0.00e+00	0	27	0	2791309312	30	6197
2026-01-13 18:11:00.14	266.63	33.15	-28.9	-29.5	28.4	0.00e+00	0	27	0	2797600768	30	6046
2026-01-13 18:11:01.14	266.36	33.00	-28.8	-29.5	28.5	0.00e+00	0	27	0	2802843648	30	6043
2026-01-13 18:11:02.15	266.08	32.85	-28.8	-29.5	28.5	0.00e+00	0	27	0	2808086528	30	6037
2026-01-13 18:11:03.16	265.81	32.71	-28.9	-29.4	28.3	0.00e+00	0	27	0	2814377984	30	6012
2026-01-13 18:11:04.17	265.54	32.56	-29.0	-29.5	28.5	0.00e+00	0	27	0	2819620864	30	6063
2026-01-13 18:11:05.18	265.27	32.41	-29.2	-29.9	28.2	0.00e+00	0	27	0	2825912320	30	6380
2026-01-13 18:11:06.19	265.01	32.27	-29.0	-29.6	28.4	0.00e+00	0	27	0	2831155200	30	6128
2026-01-13 18:11:07.20	264.74	32.12	-29.0	-29.6	28.5	0.00e+00	0	27	0	2836398080	30	6109
2026-01-13 18:11:08.21	264.48	31.97	-29.1	-29.8	28.4	0.00e+00	0	27	0	2842689536	30	6255
2026-01-13 18:11:09.22	264.22	31.83	-29.1	-29.7	28.4	0.00e+00	0	27	0	2847932416	30	6207
2026-01-13 18:11:10.23	263.97	31.68	-29.2	-29.8	28.5	0.00e+00	0	27	0	2854223872	30	6295
2026-01-13 18:11:11.24	263.72	31.53	-29.0	-29.7	28.3	0.00e+00	0	27	0	2859466752	30	6175
2026-01-13 18:11:12.25	263.46	31.38	-28.9	-29.6	28.3	0.00e+00	0	27	0	2864709632	30	6151
2026-01-13 18:11:13.26	263.21	31.24	-28.9	-29.5	28.3	0.00e+00	0	27	0	2871001088	30	6051
2026-01-13 18:11:14.27	262.97	31.09	-29.0	-29.5	28.3	0.00e+00	0	27	0	2876243968	30	6089
2026-01-13 18:11:15.28	262.72	30.94	-29.1	-29.6	28.3	0.00e+00	0	27	0	2882535424	30	6155
2026-01-13 18:11:16.29	262.48	30.80	-29.3	-30.0	28.0	0.00e+00	0	27	0	2887778304	30	6459
2026-01-13 18:11:17.30	262.24	30.65	-29.4	-29.9	28.0	0.00e+00	0	27	0	2894069760	30	6378
2026-01-13 18:11:18.31	262.00	30.51	-29.3	-29.9	28.0	0.00e+00	0	27	0	2899312640	30	6357
2026-01-13 18:11:19.32	261.77	30.36	-29.2	-29.9	28.1	0.00e+00	0	27	0	2904555520	30	6328
2026-01-13 18:11:20.33	261.53	30.22	-29.2	-29.9	28.2	0.00e+00	0	27	0	2910846976	30	6318
2026-01-13 18:11:21.33	261.30	30.07	-29.2	-29.7	28.2	0.00e+00	0	27	0	2916089856	30	6235
2026-01-13 18:11:22.34	261.08	29.93	-29.2	-29.7	28.2	0.00e+00	0	27	0	2922381312	30	6207
2026-01-13 18:11:23.35	260.85	29.78	-29.2	-29.7	28.2	0.00e+00	0	27	0	2927624192	30	6205
2026-01-13 18:11:24.36	260.62	29.64	-29.2	-29.8	28.2	0.00e+00	0	27	0	2932867072	30	6266
2026-01-13 18:11:25.37	260.40	29.49	-29.3	-29.8	28.1	0.00e+00	0	27	0	2939158528	30	6294
2026-01-13 18:11:26.38	260.18	29.35	-29.4	-29.9	28.0	0.00e+00	0	27	0	2944401408	30	6367
2026-01-13 18:11:27.39	259.96	29.20	-29.5	-30.1	27.8	0.00e+00	0	27	0	2950692864	30	6478
2026-01-13 18:11:28.40	259.74	29.06	-29.5	-30.0	28.0	0.00e+00	0	27	0	2955935744	30	6439
2026-01-13 18:11:29.41	259.53	28.92	-29.6	-30.2	27.9	0.00e+00	0	27	0	2961178624	30	6605
2026-01-13 18:11:30.42	259.31	28.77	-29.7	-30.3	27.7	0.00e+00	0	27	0	2967470080	30	6619
2026-01-13 18:11:31.43	259.10	28.63	-29.7	-30.3	27.8	0.00e+00	0	27	0	2972712960	32	5911
2026-01-13 18:11:32.44	258.89	28.49	-29.7	-30.3	27.8	0.00e+00	0	27	0	2979004416	32	5951
2026-01-13 18:11:33.45	258.68	28.35	-29.6	-30.2	27.8	0.00e+00	0	27	0	2984247296	32	5846
2026-01-13 18:11:34.46	258.48	28.20	-29.6	-30.1	27.8	0.00e+00	0	27	0	2990538752	32	5817
2026-01-13 18:11:35.47	258.27	28.06	-29.6	-30.3	27.8	0.00e+00	0	27	0	2995781632	32	5939
2026-01-13 18:11:36.48	258.07	27.92	-29.7	-30.3	27.7	0.00e+00	0	27	0	3002073088	32	5904
2026-01-13 18:11:37.49	257.87	27.78	-29.7	-30.3	27.8	0.00e+00	0	27	0	3007315968	32	5919
2026-01-13 18:11:38.50	257.67	27.64	-29.7	-30.3	27.8	0.00e+00	0	27	0	3012558848	32	5899
2026-01-13 18:11:39.51	257.48	27.50	-29.5	-30.2	27.8	0.00e+00	0	27	0	3018850304	32	5850
2026-01-13 18:11:40.52	257.28	27.36	-29.4	-30.1	27.9	0.00e+00	0	27	0	3024093184	32	5804
2026-01-13 18:11:41.53	257.09	27.22	-29.5	-30.2	27.8	0.00e+00	0	27	0	3030384640	32	5887
2026-01-13 18:11:42.54	256.90	27.08	-29.7	-30.2	27.7	0.00e+00	0	27	0	3035627520	32	5895
2026-01-13 18:11:43.55	256.71	26.94	-29.7	-30.2	27.7	0.00e+00	0	27	0	3040870400	32	5873
2026-01-13 18:11:44.55	256.52	26.80	-29.8	-30.4	27.7	0.00e+00	0	27	0	3047161856	32	5978
2026-01-13 18:11:45.56	256.33	26.67	-29.8	-30.5	27.6	0.00e+00	0	27	0	3052404736	32	6079
2026-01-13 18:11:46.57	256.15	26.53	-29.7	-30.3	27.7	0.00e+00	0	27	0	3057647616	32	5920
2026-01-13 18:11:47.58	255.96	26.39	-29.8	-30.4	27.7	0.00e+00	0	27	0	3063939072	32	5967
2026-01-13 18:11:48.59	255.78	26.25	-29.7	-30.2	27.7	0.00e+00	0	27	0	3069181952	32	5873
2026-01-13 18:11:49.60	255.60	26.12	-29.6	-30.3	27.7	0.00e+00	0	27	0	3075473408	32	5928
2026-01-13 18:11:50.61	255.42	25.98	-29.7	-30.4	27.7	0.00e+00	0	27	0	3080716288	32	5966
2026-01-13 18:11:51.62	255.25	25.85	-29.8	-30.4	27.6	0.00e+00	0	27	0	3087007744	32	6032
2026-01-13 18:11:52.63	255.07	25.71	-29.8	-30.3	27.7	0.00e+00	0	27	0	3092250624	32	5947
2026-01-13 18:11:53.64	254.90	25.57	-29.9	-30.4	27.6	0.00e+00	0	27	0	3098542080	32	6016
2026-01-13 18:11:54.65	254.72	25.44	-29.8	-30.4	27.6	0.00e+00	0	27	0	3103784960	32	5984
2026-01-13 18:11:55.66	254.55	25.31	-29.9	-30.6	27.6	0.00e+00	0	27	0	3109027840	32	6107
2026-01-13 18:11:56.67	254.38	25.17	-29.9	-30.6	27.5	0.00e+00	0	27	0	3115319296	32	6112
2026-01-13 18:11:57.68	254.21	25.04	-29.8	-30.4	27.5	0.00e+00	0	27	0	3120562176	32	5987
2026-01-13 18:11:58.69	254.05	24.90	-30.0	-30.5	27.5	0.00e+00	0	27	0	3126853632	32	6064
2026-01-13 18:11:59.70	253.88	24.77	-29.8	-30.4	27.6	0.00e+00	0	27	0	3132096512	32	5976
2026-01-13 18:12:00.70	253.72	24.64	-30.0	-30.6	27.5	0.00e+00	0	27	0	3137339392	32	6110
2026-01-13 18:12:01.71	253.56	24.51	-30.0	-30.5	27.4	0.00e+00	0	27	0	3143630848	32	6097
2026-01-13 18:12:02.72	253.40	24.38	-29.8	-30.4	27.6	0.00e+00	0	27	0	3148873728	32	5971
2026-01-13 18:12:03.73	253.24	24.25	-29.8	-30.3	27.6	0.00e+00	0	27	0	3155165184	32	5940
2026-01-13 18:12:04.74	253.08	24.12	-29.7	-30.4	27.6	0.00e+00	0	27	0	3160408064	32	6000
2026-01-13 18:12:05.75	252.92	23.98	-29.7	-30.4	27.6	0.00e+00	0	27	0	3165650944	32	6027
2026-01-13 18:12:06.76	252.76	23.85	-29.8	-30.5	27.6	0.00e+00	0	27	0	3171942400	32	6080
2026-01-13 18:12:07.77	252.61	23.73	-29.8	-30.4	27.6	0.00e+00	0	27	0	3177185280	32	5987
2026-01-13 18:12:08.77	252.46	23.60	-29.7	-30.2	27.7	0.00e+00	0	27	0	3183476736	32	5886
2026-01-13 18:12:09.78	252.31	23.47	-29.8	-30.3	27.6	0.00e+00	0	27	0	3188719616	32	5937
2026-01-13 18:12:10.79	252.16	23.34	-29.8	-30.4	27.6	0.00e+00	0	27	0	3195011072	32	5975
2026-01-13 18:12:11.79	252.01	23.21	-29.8	-30.3	27.6	0.00e+00	0	27	0	3200253952	32	5949
2026-01-13 18:12:12.80	251.86	23.09	-29.8	-30.4	27.6	0.00e+00	0	27	0	3205496832	32	5978
2026-01-13 18:12:13.81	251.71	22.96	-29.9	-30.4	27.6	0.00e+00	0	27	0	3211788288	32	6022
2026-01-13 18:12:14.82	251.57	22.83	-29.9	-30.4	27.6	0.00e+00	0	27	0	3217031168	32	6017
2026-01-13 18:12:15.83	251.42	22.71	-29.9	-30.6	27.6	0.00e+00	0	27	0	3223322624	32	6109
2026-01-13 18:12:16.84	251.28	22.58	-30.0	-30.7	27.4	0.00e+00	0	27	0	3228565504	32	6224
2026-01-13 18:12:17.85	251.14	22.46	-29.9	-30.6	27.6	0.00e+00	0	27	0	3233808384	32	6133
2026-01-13 18:12:18.86	250.99	22.33	-30.0	-30.7	27.4	0.00e+00	0	27	0	3240099840	32	6219
2026-01-13 18:12:19.87	250.85	22.21	-30.0	-30.7	27.4	0.00e+00	0	27	0	3245342720	32	6226
2026-01-13 18:12:20.88	250.72	22.08	-30.1	-30.8	27.4	0.00e+00	0	27	0	3251634176	32	6246
2026-01-13 18:12:21.89	250.58	21.96	-29.9	-30.6	27.5	0.00e+00	0	27	0	3256877056	32	6139
2026-01-13 18:12:22.90	250.44	21.84	-30.1	-30.8	27.4	0.00e+00	0	27	0	3262119936	32	6261
2026-01-13 18:12:23.90	250.31	21.71	-30.1	-30.8	27.4	0.00e+00	0	27	0	3268411392	32	6262
2026-01-13 18:12:24.91	250.17	21.59	-30.0	-30.7	27.5	0.00e+00	0	27	0	3273654272	32	6237
2026-01-13 18:12:25.92	250.04	21.47	-30.2	-30.9	27.4	0.00e+00	0	27	0	3279945728	32	6349
2026-01-13 18:12:26.93	249.91	21.35	-30.1	-30.8	27.4	0.00e+00	0	27	0	3285188608	32	6298
2026-01-13 18:12:27.94	249.78	21.23	-30.2	-30.9	27.3	0.00e+00	0	27	0	3291480064	32	6325
2026-01-13 18:12:28.95	249.65	21.11	-30.3	-31.0	27.3	0.00e+00	0	27	0	3296722944	32	6409
2026-01-13 18:12:29.96	249.52	20.99	-30.2	-31.0	27.3	0.00e+00	0	27	0	3301965824	32	6393
2026-01-13 18:12:30.97	249.39	20.87	-30.4	-31.0	27.1	0.00e+00	0	27	0	3308257280	32	6420
2026-01-13 18:12:31.98	249.26	20.75	-30.3	-30.9	27.3	0.00e+00	0	27	0	3313500160	32	6357
2026-01-13 18:12:32.99	249.14	20.63	-30.4	-30.9	27.2	0.00e+00	0	27	0	3319791616	32	6388
2026-01-13 18:12:34.00	249.01	20.51	-30.4	-31.0	27.2	0.00e+00	0	27	0	3325034496	32	6397
2026-01-13 18:12:35.01	248.89	20.39	-30.4	-31.0	27.2	0.00e+00	0	27	0	3330277376	32	6422
2026-01-13 18:12:36.02	248.76	20.27	-30.4	-31.1	27.1	0.00e+00	0	27	0	3336568832	32	6527
2026-01-13 18:12:37.03	248.64	20.16	-30.5	-31.2	27.2	0.00e+00	0	27	0	3341811712	32	6572
2026-01-13 18:12:38.04	248.52	20.04	-30.4	-31.0	27.2	0.00e+00	0	27	0	3348103168	32	6435
2026-01-13 18:12:39.04	248.40	19.92	-30.3	-30.9	27.2	0.00e+00	0	27	0	3353346048	32	6343
2026-01-13 18:12:40.06	248.28	19.81	-30.3	-31.0	27.2	0.00e+00	0	27	0	3358588928	32	6445
2026-01-13 18:12:41.07	248.16	19.69	-30.3	-31.0	27.2	0.00e+00	0	27	0	3364880384	32	6432
2026-01-13 18:12:42.08	248.04	19.57	-30.5	-31.0	27.2	0.00e+00	0	27	0	3370123264	32	6462
2026-01-13 18:12:43.08	247.93	19.46	-30.4	-30.9	27.2	0.00e+00	0	27	0	3376414720	32	6387
2026-01-13 18:12:44.09	247.81	19.35	-30.4	-31.0	27.2	0.00e+00	0	27	0	3381657600	32	6417
2026-01-13 18:12:45.10	247.70	19.23	-30.5	-31.0	27.2	0.00e+00	0	27	0	3387949056	32	6430
2026-01-13 18:12:46.11	247.58	19.12	-30.5	-31.2	27.0	0.00e+00	0	27	0	3393191936	32	6612
2026-01-13 18:12:47.12	247.47	19.00	-30.7	-31.4	26.9	0.00e+00	0	27	0	3398434816	32	6701
2026-01-13 18:12:48.13	247.36	18.89	-30.7	-31.5	26.9	0.00e+00	0	27	0	3404726272	32	6778
2026-01-13 18:12:49.14	247.25	18.78	-30.8	-31.5	26.8	0.00e+00	0	27	0	3409969152	34	6048
2026-01-13 18:12:50.15	247.14	18.67	-31.0	-31.7	26.7	0.00e+00	0	27	0	3416260608	34	6211
2026-01-13 18:12:51.16	247.03	18.56	-30.9	-31.4	26.8	0.00e+00	0	27	0	3421503488	34	6032
2026-01-13 18:12:52.17	246.92	18.44	-31.0	-31.7	26.6	0.00e+00	0	27	0	3426746368	34	6236
2026-01-13 18:12:53.18	246.81	18.33	-30.9	-31.6	26.7	0.00e+00	0	27	0	3433037824	34	6122
2026-01-13 18:12:54.19	246.70	18.22	-31.0	-31.6	26.6	0.00e+00	0	27	0	3438280704	34	6161
2026-01-13 18:12:55.20	246.59	18.11	-31.0	-31.6	26.7	0.00e+00	0	27	0	3444572160	34	6114
2026-01-13 18:12:56.21	246.49	18.00	-31.1	-31.6	26.6	0.00e+00	0	27	0	3449815040	34	6166
2026-01-13 18:12:57.22	246.38	17.89	-31.0	-31.6	26.6	0.00e+00	0	27	0	3455057920	34	6119
2026-01-13 18:12:58.23	246.28	17.78	-31.1	-31.6	26.6	0.00e+00	0	27	0	3461349376	34	6159
2026-01-13 18:12:59.24	246.18	17.68	-31.1	-31.7	26.6	0.00e+00	0	27	0	3466592256	34	6176
2026-01-13 18:13:00.25	246.07	17.57	-31.1	-31.8	26.6	0.00e+00	0	27	0	3472883712	34	6285
2026-01-13 18:13:01.26	245.97	17.46	-31.2	-31.9	26.5	0.00e+00	0	27	0	3478126592	34	6359
2026-01-13 18:13:02.27	245.87	17.35	-31.3	-31.8	26.4	0.00e+00	0	27	0	3484418048	34	6316
2026-01-13 18:13:03.28	245.77	17.24	-31.2	-31.8	26.4	0.00e+00	0	27	0	3489660928	34	6274
2026-01-13 18:13:04.29	245.67	17.14	-31.4	-32.0	26.3	0.00e+00	0	27	0	3495952384	34	6393
2026-01-13 18:13:05.30	245.57	17.03	-31.3	-31.8	26.5	0.00e+00	0	27	0	3501195264	34	6300
2026-01-13 18:13:06.31	245.47	16.93	-31.4	-32.0	26.3	0.00e+00	0	27	0	3506438144	34	6397
2026-01-13 18:13:07.32	245.38	16.82	-31.4	-32.0	26.2	0.00e+00	0	27	0	3512729600	34	6430
2026-01-13 18:13:08.32	245.28	16.72	-31.4	-32.1	26.3	0.00e+00	0	27	0	3517972480	34	6502
2026-01-13 18:13:09.33	245.18	16.61	-31.5	-32.1	26.2	0.00e+00	0	27	0	3524263936	34	6507
2026-01-13 18:13:10.34	245.09	16.51	-31.4	-32.0	26.2	0.00e+00	0	27	0	3529506816	34	6441
2026-01-13 18:13:11.35	244.99	16.40	-31.6	-32.2	26.1	0.00e+00	0	27	0	3534749696	34	6605
2026-01-13 18:13:12.36	244.90	16.30	-31.6	-32.1	26.2	0.00e+00	0	27	0	3541041152	34	6533
2026-01-13 18:13:13.37	244.81	16.19	-31.7	-32.3	26.0	0.00e+00	0	27	0	3546284032	36	5922
2026-01-13 18:13:14.38	244.71	16.09	-31.9	-32.6	25.9	0.00e+00	0	27	0	3552575488	36	6171
2026-01-13 18:13:15.39	244.62	15.99	-31.8	-32.5	26.0	0.00e+00	0	27	0	3557818368	36	6075
2026-01-13 18:13:16.40	244.53	15.89	-31.7	-32.3	26.1	0.00e+00	0	27	0	3563061248	36	5928
2026-01-13 18:13:17.41	244.44	15.78	-31.7	-32.3	26.1	0.00e+00	0	27	0	3569352704	36	5911
2026-01-13 18:13:18.42	244.35	15.68	-31.7	-32.2	26.0	0.00e+00	0	27	0	3574595584	36	5895
2026-01-13 18:13:19.43	244.26	15.58	-31.7	-32.4	26.0	0.00e+00	0	27	0	3580887040	36	6016
2026-01-13 18:13:20.44	244.17	15.48	-31.7	-32.4	26.0	0.00e+00	0	27	0	3586129920	36	6001
2026-01-13 18:13:21.45	244.08	15.38	-31.7	-32.5	25.9	0.00e+00	0	27	0	3592421376	36	6051
2026-01-13 18:13:22.46	243.99	15.28	-31.8	-32.5	25.9	0.00e+00	0	27	0	3597664256	36	6095
