passes_logs/2026/01/13/R4.6S_Anadyr/R4.6S_Anadyr__20260113_131202_NOAA_21_JPSS-2_rec.log

#Pass ID: 20260113_131202_NOAA 21 (JPSS-2)
#Satellite: NOAA 21 (JPSS-2)
#Configuration: NOAA-21
#almurnet v.1.7.20251203
#Start time: 2026-01-13 13:12:04

#Version: 2.2.20231116
#Station: R4.6S_Anadyr
#Location: 177.4865 lon 64.73178 lat
#TLE: 1 54234U 22150A   26012.26378519  .00000063  00000+0  50547-4 0  9993
#TLE: 2 54234  98.7495 313.1967 0000726 309.1075  51.0036 14.19534275164425

#Time	Az	El	Level	Level2	SNR	BER	BlckErr	Temp	State	Recorded	gain1	gain2
2026-01-13 13:12:04.63	18.77	0.11	-48.6	-63.6	3.5	1.51e+00	0	25	0	0	60	54456
2026-01-13 13:12:05.63	18.82	0.17	-48.6	-61.5	3.5	1.52e+00	0	26	104	0	60	41774
2026-01-13 13:12:06.64	18.87	0.22	-48.7	-61.5	3.5	1.51e+00	0	26	104	0	60	41632
2026-01-13 13:12:07.65	18.92	0.28	-48.8	-61.6	3.5	1.52e+00	0	27	104	0	60	42316
2026-01-13 13:12:08.66	18.97	0.33	-48.7	-61.5	3.5	1.52e+00	0	27	104	0	60	41715
2026-01-13 13:12:09.67	19.02	0.39	-48.7	-61.6	3.5	1.52e+00	0	27	104	0	60	42074
2026-01-13 13:12:10.68	19.07	0.45	-48.7	-61.6	3.5	1.52e+00	0	27	104	0	60	41973
2026-01-13 13:12:11.69	19.13	0.50	-48.6	-61.5	3.5	1.52e+00	0	27	104	0	60	41763
2026-01-13 13:12:12.70	19.18	0.56	-48.6	-61.5	3.5	1.51e+00	0	27	104	0	60	41627
2026-01-13 13:12:13.71	19.23	0.62	-48.6	-61.5	3.5	1.52e+00	0	27	104	0	60	41677
2026-01-13 13:12:14.72	19.28	0.67	-48.7	-61.5	3.5	1.51e+00	0	27	104	0	60	41944
2026-01-13 13:12:15.73	19.33	0.73	-48.6	-61.5	3.5	1.52e+00	0	27	104	0	60	41719
2026-01-13 13:12:16.74	19.38	0.78	-48.8	-61.6	3.5	1.52e+00	0	27	104	0	60	42350
2026-01-13 13:12:17.75	19.44	0.84	-48.7	-61.5	3.5	1.52e+00	0	27	104	0	60	41907
2026-01-13 13:12:18.76	19.49	0.90	-48.8	-61.6	3.5	1.52e+00	0	27	104	0	60	42133
2026-01-13 13:12:19.77	19.54	0.96	-48.8	-61.6	3.5	1.52e+00	0	27	104	0	60	42343
2026-01-13 13:12:20.78	19.59	1.01	-48.8	-61.7	3.5	1.52e+00	0	27	104	0	60	42493
2026-01-13 13:12:21.79	19.65	1.07	-48.8	-61.6	3.5	1.52e+00	0	27	104	0	60	42240
2026-01-13 13:12:22.80	19.70	1.13	-48.7	-61.5	3.5	1.52e+00	0	27	104	0	60	41865
2026-01-13 13:12:23.81	19.75	1.18	-48.6	-61.5	3.5	1.52e+00	0	27	104	0	60	41832
2026-01-13 13:12:24.82	19.81	1.24	-48.6	-61.5	3.5	1.52e+00	0	27	104	0	60	41721
2026-01-13 13:12:25.83	19.86	1.30	-48.6	-61.5	3.5	1.52e+00	0	27	104	0	60	41765
2026-01-13 13:12:26.84	19.91	1.36	-48.6	-61.4	3.5	1.52e+00	0	27	104	0	60	41419
2026-01-13 13:12:27.85	19.97	1.41	-48.6	-61.5	3.5	1.52e+00	0	27	104	0	60	41584
2026-01-13 13:12:28.86	20.02	1.47	-48.6	-61.4	3.5	1.51e+00	0	27	104	0	60	41253
2026-01-13 13:12:29.87	20.08	1.53	-48.6	-61.5	3.5	1.52e+00	0	27	104	0	60	41816
2026-01-13 13:12:30.88	20.13	1.59	-48.6	-61.5	3.5	1.52e+00	0	27	104	0	60	41781
2026-01-13 13:12:31.89	20.19	1.65	-48.6	-61.4	3.5	1.52e+00	0	27	104	0	60	41471
2026-01-13 13:12:32.90	20.24	1.70	-48.6	-61.4	3.5	1.52e+00	0	27	104	0	60	41299
2026-01-13 13:12:33.91	20.30	1.76	-48.6	-61.4	3.5	1.52e+00	0	27	104	0	60	41441
2026-01-13 13:12:34.92	20.35	1.82	-48.8	-61.6	3.5	1.52e+00	0	27	104	0	60	42138
2026-01-13 13:12:35.93	20.41	1.88	-48.7	-61.6	3.5	1.52e+00	0	27	104	0	60	42027
2026-01-13 13:12:36.94	20.46	1.94	-48.7	-61.5	3.5	1.51e+00	0	27	104	0	60	41950
2026-01-13 13:12:37.94	20.52	2.00	-48.6	-61.5	3.5	1.52e+00	0	27	104	0	60	41506
2026-01-13 13:12:38.95	20.57	2.05	-48.6	-61.4	3.5	1.51e+00	0	27	104	0	60	41355
2026-01-13 13:12:39.96	20.63	2.11	-48.6	-61.4	3.5	1.52e+00	0	27	104	0	60	41276
2026-01-13 13:12:40.98	20.69	2.17	-48.6	-61.4	3.5	1.52e+00	0	27	104	0	60	41408
2026-01-13 13:12:41.99	20.74	2.23	-48.6	-61.4	3.5	1.52e+00	0	27	104	0	60	41399
2026-01-13 13:12:43.00	20.80	2.29	-48.6	-61.5	3.5	1.52e+00	0	27	104	0	60	41724
2026-01-13 13:12:44.01	20.86	2.35	-48.7	-61.6	3.5	1.52e+00	0	27	104	0	60	42198
2026-01-13 13:12:45.01	20.92	2.41	-48.6	-61.5	3.5	1.52e+00	0	28	104	0	60	41500
2026-01-13 13:12:46.02	20.97	2.47	-48.6	-61.5	3.5	1.52e+00	0	28	104	0	60	41716
2026-01-13 13:12:47.03	21.03	2.53	-48.6	-61.5	3.5	1.52e+00	0	27	104	0	60	41698
2026-01-13 13:12:48.04	21.09	2.59	-48.7	-61.5	3.5	1.52e+00	0	27	104	0	60	41828
2026-01-13 13:12:49.05	21.15	2.65	-48.8	-61.6	3.5	1.52e+00	0	27	104	0	60	42362
2026-01-13 13:12:50.06	21.21	2.71	-48.6	-61.5	3.5	1.52e+00	0	27	104	0	60	41739
2026-01-13 13:12:51.07	21.26	2.77	-48.7	-61.6	3.5	1.51e+00	0	28	104	0	60	42103
2026-01-13 13:12:52.08	21.32	2.83	-48.6	-61.5	3.5	1.52e+00	0	28	104	0	60	41822
2026-01-13 13:12:53.09	21.38	2.89	-48.5	-61.4	3.5	1.52e+00	0	28	104	0	60	41346
2026-01-13 13:12:54.10	21.44	2.95	-48.6	-61.4	3.5	1.51e+00	0	27	104	0	60	41441
2026-01-13 13:12:55.11	21.50	3.01	-48.5	-61.4	3.5	1.52e+00	0	28	104	0	60	41287
2026-01-13 13:12:56.12	21.56	3.07	-48.5	-61.4	3.5	1.52e+00	0	28	104	0	60	41377
2026-01-13 13:12:57.13	21.62	3.13	-48.5	-61.4	3.5	1.52e+00	0	28	104	0	60	41290
2026-01-13 13:12:58.14	21.68	3.19	-48.4	-61.4	3.5	1.52e+00	0	28	104	0	60	41073
2026-01-13 13:12:59.15	21.74	3.25	-48.4	-61.4	3.5	1.52e+00	0	28	104	0	60	41196
2026-01-13 13:13:00.16	21.80	3.31	-48.5	-61.3	3.5	1.52e+00	0	28	104	0	60	40959
2026-01-13 13:13:01.17	21.86	3.37	-48.4	-61.3	3.5	1.52e+00	0	28	104	0	60	40918
2026-01-13 13:13:02.18	21.93	3.44	-48.5	-61.4	3.5	1.52e+00	0	28	104	0	60	41353
2026-01-13 13:13:03.19	21.99	3.50	-48.5	-61.4	3.5	1.52e+00	0	28	104	0	60	41184
2026-01-13 13:13:04.20	22.05	3.56	-48.5	-61.4	3.5	1.51e+00	0	28	104	0	60	41150
2026-01-13 13:13:05.21	22.11	3.62	-48.6	-61.4	3.5	1.51e+00	0	28	104	0	60	41360
2026-01-13 13:13:06.22	22.17	3.68	-48.5	-61.4	3.5	1.52e+00	0	28	104	0	60	41389
2026-01-13 13:13:07.23	22.23	3.74	-48.6	-61.4	3.5	1.52e+00	0	28	104	0	60	41297
2026-01-13 13:13:08.24	22.30	3.81	-48.6	-61.4	3.5	1.52e+00	0	28	104	0	60	41270
2026-01-13 13:13:09.25	22.36	3.87	-48.5	-61.4	3.5	1.52e+00	0	28	104	0	60	41162
2026-01-13 13:13:10.26	22.42	3.93	-48.6	-61.4	3.5	1.51e+00	0	28	104	0	60	41242
2026-01-13 13:13:11.27	22.49	3.99	-48.6	-61.4	3.5	1.52e+00	0	28	104	0	60	41362
2026-01-13 13:13:12.28	22.55	4.05	-48.6	-61.4	3.5	1.52e+00	0	28	104	0	60	41298
2026-01-13 13:13:13.29	22.61	4.12	-48.6	-61.4	3.5	1.52e+00	0	28	104	0	60	41349
2026-01-13 13:13:14.30	22.68	4.18	-48.6	-61.4	3.5	1.52e+00	0	28	104	0	60	41280
2026-01-13 13:13:15.31	22.74	4.24	-48.6	-61.4	3.5	1.52e+00	0	28	104	0	60	41241
2026-01-13 13:13:16.32	22.81	4.31	-48.5	-61.4	3.5	1.52e+00	0	28	104	0	60	41180
2026-01-13 13:13:17.33	22.87	4.37	-48.6	-61.4	3.5	1.52e+00	0	28	104	0	60	41259
2026-01-13 13:13:18.34	22.94	4.43	-48.6	-61.4	3.5	1.52e+00	0	28	104	0	60	41309
2026-01-13 13:13:19.35	23.00	4.50	-48.5	-61.4	3.5	1.52e+00	0	28	104	0	60	41060
2026-01-13 13:13:20.36	23.07	4.56	-48.5	-61.4	3.5	1.52e+00	0	28	104	0	60	41322
2026-01-13 13:13:21.37	23.13	4.62	-48.5	-61.4	3.5	1.52e+00	0	28	104	0	60	41394
2026-01-13 13:13:22.38	23.20	4.69	-48.5	-61.4	3.5	1.52e+00	0	28	104	0	60	41351
2026-01-13 13:13:23.39	23.27	4.75	-48.5	-61.4	3.5	1.52e+00	0	28	104	0	60	41319
2026-01-13 13:13:24.40	23.33	4.81	-48.5	-61.4	3.5	1.52e+00	0	28	104	0	60	41332
2026-01-13 13:13:25.41	23.40	4.88	-48.5	-61.4	3.5	1.52e+00	0	28	104	0	60	41177
2026-01-13 13:13:26.42	23.47	4.94	-48.5	-61.4	3.5	1.52e+00	0	28	104	0	60	41330
2026-01-13 13:13:27.43	23.54	5.01	-48.4	-61.4	3.5	1.52e+00	0	28	104	0	60	41255
2026-01-13 13:13:28.44	23.60	5.07	-48.5	-61.5	3.5	1.51e+00	0	28	104	0	60	41492
2026-01-13 13:13:29.45	23.67	5.13	-48.4	-61.4	3.5	1.51e+00	0	28	104	0	60	41268
2026-01-13 13:13:30.46	23.74	5.20	-48.4	-61.5	3.5	1.52e+00	0	28	104	0	60	41512
2026-01-13 13:13:31.47	23.81	5.26	-48.4	-61.5	3.5	1.52e+00	0	28	104	0	60	41531
2026-01-13 13:13:32.48	23.88	5.33	-48.4	-61.4	3.5	1.52e+00	0	28	104	0	60	41295
2026-01-13 13:13:33.49	23.95	5.39	-48.4	-61.5	3.5	1.52e+00	0	28	104	0	60	41557
2026-01-13 13:13:34.49	24.02	5.46	-48.5	-61.4	3.5	1.52e+00	0	28	104	0	60	41371
2026-01-13 13:13:35.50	24.09	5.52	-48.5	-61.4	3.5	1.52e+00	0	28	104	0	60	41192
2026-01-13 13:13:36.51	24.16	5.59	-48.5	-61.4	3.5	1.51e+00	0	28	104	0	60	41188
2026-01-13 13:13:37.52	24.23	5.65	-48.5	-61.4	3.5	1.52e+00	0	28	104	0	60	41070
2026-01-13 13:13:38.53	24.30	5.72	-48.5	-61.4	3.5	1.52e+00	0	28	104	0	60	41206
2026-01-13 13:13:39.54	24.37	5.79	-48.5	-61.4	3.5	1.52e+00	0	28	104	0	60	41355
2026-01-13 13:13:40.55	24.44	5.85	-48.5	-61.4	3.5	1.52e+00	0	28	104	0	60	41265
2026-01-13 13:13:41.56	24.51	5.92	-48.5	-61.4	3.5	1.51e+00	0	28	104	0	60	41439
2026-01-13 13:13:42.57	24.58	5.98	-48.5	-61.4	3.5	1.52e+00	0	28	104	0	60	41213
2026-01-13 13:13:43.58	24.65	6.05	-48.5	-61.4	3.5	1.52e+00	0	28	104	0	60	41120
2026-01-13 13:13:44.59	24.73	6.12	-48.6	-61.4	3.5	1.52e+00	0	28	104	0	60	41334
2026-01-13 13:13:45.60	24.80	6.18	-48.6	-61.4	3.5	1.52e+00	0	28	104	0	60	41395
2026-01-13 13:13:46.61	24.87	6.25	-48.6	-61.4	3.5	1.52e+00	0	28	104	0	60	41354
2026-01-13 13:13:47.62	24.95	6.32	-48.6	-61.4	3.5	1.52e+00	0	28	104	0	60	41367
2026-01-13 13:13:48.63	25.02	6.38	-48.5	-61.4	3.5	1.52e+00	0	28	104	0	60	41437
2026-01-13 13:13:49.64	25.09	6.45	-48.5	-61.4	3.5	1.52e+00	0	28	104	0	60	41359
2026-01-13 13:13:50.65	25.17	6.52	-48.5	-61.4	3.5	1.51e+00	0	28	104	0	60	41278
2026-01-13 13:13:51.66	25.24	6.58	-48.5	-61.4	3.5	1.51e+00	0	28	104	0	60	41263
2026-01-13 13:13:52.67	25.32	6.65	-48.5	-61.4	3.5	1.52e+00	0	28	104	0	60	41173
2026-01-13 13:13:53.68	25.39	6.72	-48.5	-61.4	3.5	1.52e+00	0	28	104	0	60	41138
2026-01-13 13:13:54.69	25.47	6.79	-48.5	-61.4	3.5	1.52e+00	0	28	104	0	60	41216
2026-01-13 13:13:55.70	25.54	6.86	-48.4	-61.4	3.5	1.52e+00	0	28	104	0	60	41109
2026-01-13 13:13:56.71	25.62	6.92	-48.4	-61.4	3.5	1.52e+00	0	28	104	0	60	41313
2026-01-13 13:13:57.72	25.70	6.99	-48.4	-61.4	3.5	1.51e+00	0	28	104	0	60	41065
2026-01-13 13:13:58.73	25.77	7.06	-48.4	-61.4	3.5	1.52e+00	0	28	104	0	60	41252
2026-01-13 13:13:59.74	25.85	7.13	-48.3	-61.4	3.5	1.52e+00	0	28	104	0	60	41159
2026-01-13 13:14:00.75	25.93	7.20	-48.4	-61.4	3.5	1.52e+00	0	28	104	0	60	41356
2026-01-13 13:14:01.76	26.01	7.27	-48.4	-61.3	3.5	1.52e+00	0	28	104	0	60	40980
2026-01-13 13:14:02.77	26.09	7.33	-48.4	-61.4	3.5	1.52e+00	0	28	104	0	60	41318
2026-01-13 13:14:03.78	26.16	7.40	-48.4	-61.4	3.5	1.51e+00	0	28	104	0	60	41386
2026-01-13 13:14:04.79	26.24	7.47	-48.4	-61.4	3.5	1.51e+00	0	28	104	0	60	41267
2026-01-13 13:14:05.80	26.32	7.54	-48.5	-61.4	3.5	1.52e+00	0	28	104	0	60	41332
2026-01-13 13:14:06.81	26.40	7.61	-48.5	-61.5	3.5	1.52e+00	0	28	104	0	60	41543
2026-01-13 13:14:07.82	26.48	7.68	-48.5	-61.4	3.5	1.52e+00	0	28	104	0	60	41361
2026-01-13 13:14:08.83	26.56	7.75	-48.6	-61.4	3.5	1.52e+00	0	28	104	0	60	41445
2026-01-13 13:14:09.84	26.64	7.82	-48.6	-61.4	3.5	1.52e+00	0	28	104	0	60	41082
2026-01-13 13:14:10.85	26.73	7.89	-48.6	-61.4	3.5	1.52e+00	0	28	104	0	60	41111
2026-01-13 13:14:11.86	26.81	7.96	-48.5	-61.4	3.5	1.52e+00	0	28	104	0	60	41019
2026-01-13 13:14:12.87	26.89	8.03	-48.5	-61.4	3.5	1.51e+00	0	28	104	0	60	41234
2026-01-13 13:14:13.88	26.97	8.10	-48.5	-61.4	3.5	1.52e+00	0	28	104	0	60	41372
2026-01-13 13:14:14.89	27.05	8.17	-48.5	-61.4	3.5	1.52e+00	0	28	104	0	60	41008
2026-01-13 13:14:15.90	27.14	8.24	-48.4	-61.4	3.5	1.52e+00	0	28	104	0	60	41225
2026-01-13 13:14:16.91	27.22	8.31	-48.5	-61.4	3.5	1.52e+00	0	28	104	0	60	41104
2026-01-13 13:14:17.92	27.30	8.39	-48.4	-61.4	3.5	1.52e+00	0	28	104	0	60	41099
2026-01-13 13:14:18.93	27.39	8.46	-48.4	-61.4	3.5	1.52e+00	0	28	104	0	60	41327
2026-01-13 13:14:19.94	27.47	8.53	-48.5	-61.4	3.5	1.52e+00	0	28	104	0	60	41185
2026-01-13 13:14:20.95	27.56	8.60	-48.5	-61.4	3.5	1.52e+00	0	28	104	0	60	41232
2026-01-13 13:14:21.96	27.64	8.67	-48.5	-61.4	3.5	1.52e+00	0	28	104	0	60	41090
2026-01-13 13:14:22.97	27.73	8.74	-48.5	-61.4	3.5	1.52e+00	0	28	104	0	60	41163
2026-01-13 13:14:23.98	27.82	8.82	-48.5	-61.4	3.5	1.52e+00	0	28	104	0	60	41313
2026-01-13 13:14:24.99	27.90	8.89	-48.5	-61.4	3.5	1.52e+00	0	28	104	0	60	41078
2026-01-13 13:14:26.00	27.99	8.96	-48.5	-61.4	3.5	1.51e+00	0	28	104	0	60	41420
2026-01-13 13:14:27.01	28.08	9.03	-48.5	-61.4	3.5	1.52e+00	0	28	104	0	60	41132
2026-01-13 13:14:28.02	28.16	9.11	-48.5	-61.4	3.5	1.52e+00	0	28	104	0	60	41361
2026-01-13 13:14:29.03	28.25	9.18	-48.5	-61.4	3.5	1.52e+00	0	28	104	0	60	41191
2026-01-13 13:14:30.04	28.34	9.25	-48.5	-61.4	3.5	1.52e+00	0	28	104	0	60	41107
2026-01-13 13:14:31.05	28.43	9.32	-48.5	-61.4	3.5	1.52e+00	0	28	104	0	60	41410
2026-01-13 13:14:32.06	28.52	9.40	-48.5	-61.4	3.5	1.52e+00	0	28	104	0	60	41123
2026-01-13 13:14:33.07	28.61	9.47	-48.5	-61.4	3.5	1.52e+00	0	28	104	0	60	41082
2026-01-13 13:14:34.08	28.70	9.54	-48.5	-61.4	3.5	1.52e+00	0	28	104	0	60	41210
2026-01-13 13:14:35.09	28.79	9.62	-48.5	-61.4	3.5	1.52e+00	0	28	104	0	60	41319
2026-01-13 13:14:36.10	28.88	9.69	-48.4	-61.4	3.5	1.51e+00	0	28	104	0	60	41177
2026-01-13 13:14:37.11	28.97	9.77	-48.4	-61.4	3.5	1.52e+00	0	28	104	0	60	41336
2026-01-13 13:14:38.12	29.07	9.84	-48.4	-61.4	3.5	1.51e+00	0	28	104	0	60	41259
2026-01-13 13:14:39.13	29.16	9.92	-48.4	-61.4	3.5	1.52e+00	0	28	104	0	60	41317
2026-01-13 13:14:40.14	29.25	9.99	-48.4	-61.4	3.5	1.52e+00	0	28	104	0	60	41163
2026-01-13 13:14:41.15	29.35	10.06	-48.4	-61.4	3.5	1.52e+00	0	28	104	0	60	41188
2026-01-13 13:14:42.16	29.44	10.14	-48.4	-61.4	3.5	1.52e+00	0	28	104	0	60	41130
2026-01-13 13:14:43.17	29.53	10.21	-48.4	-61.4	3.5	1.52e+00	0	28	104	0	60	41108
2026-01-13 13:14:44.18	29.63	10.29	-48.4	-61.3	3.5	1.52e+00	0	28	104	0	60	40999
2026-01-13 13:14:45.19	29.72	10.37	-48.4	-61.4	3.5	1.52e+00	0	28	104	0	60	41076
2026-01-13 13:14:46.20	29.82	10.44	-48.4	-61.4	3.5	1.51e+00	0	28	104	0	60	41032
2026-01-13 13:14:47.21	29.92	10.52	-48.5	-61.4	3.5	1.52e+00	0	28	104	0	60	41037
2026-01-13 13:14:48.22	30.01	10.59	-48.5	-61.4	3.5	1.51e+00	0	28	104	0	60	41044
2026-01-13 13:14:49.23	30.11	10.67	-48.5	-61.4	3.5	1.52e+00	0	28	104	0	60	41110
2026-01-13 13:14:50.24	30.21	10.74	-48.5	-61.4	3.5	1.52e+00	0	28	104	0	60	41189
2026-01-13 13:14:51.25	30.31	10.82	-48.5	-61.4	3.5	1.52e+00	0	28	104	0	60	41014
2026-01-13 13:14:52.26	30.40	10.90	-48.5	-61.3	3.5	1.52e+00	0	28	104	0	60	40968
2026-01-13 13:14:53.27	30.50	10.97	-48.5	-61.4	3.5	1.52e+00	0	28	104	0	60	41135
2026-01-13 13:14:54.28	30.60	11.05	-48.5	-61.4	3.5	1.52e+00	0	28	104	0	60	41043
2026-01-13 13:14:55.29	30.70	11.13	-48.5	-61.4	3.5	1.52e+00	0	28	104	0	60	41024
2026-01-13 13:14:56.30	30.80	11.21	-48.5	-61.4	3.5	1.52e+00	0	28	104	0	60	41239
2026-01-13 13:14:57.31	30.90	11.28	-48.5	-61.4	3.5	1.51e+00	0	28	104	0	60	41250
2026-01-13 13:14:58.32	31.01	11.36	-48.5	-61.4	3.5	1.52e+00	0	28	104	0	60	41125
2026-01-13 13:14:59.33	31.11	11.44	-48.5	-61.4	3.5	1.52e+00	0	28	104	0	60	41059
2026-01-13 13:15:00.34	31.21	11.52	-48.5	-61.4	3.5	1.52e+00	0	28	104	0	60	41039
2026-01-13 13:15:01.35	31.31	11.59	-48.5	-61.4	3.5	1.52e+00	0	28	104	0	60	41121
2026-01-13 13:15:02.36	31.42	11.67	-48.5	-61.4	3.5	1.52e+00	0	28	104	0	60	41107
2026-01-13 13:15:03.37	31.52	11.75	-48.5	-61.4	3.5	1.52e+00	0	28	104	0	60	41039
2026-01-13 13:15:04.38	31.63	11.83	-48.5	-61.4	3.5	1.52e+00	0	28	104	0	60	41031
2026-01-13 13:15:05.39	31.73	11.91	-48.5	-61.4	3.5	1.52e+00	0	28	104	0	60	41133
2026-01-13 13:15:06.40	31.84	11.99	-48.5	-61.4	3.5	1.52e+00	0	28	104	0	60	41188
2026-01-13 13:15:07.41	31.94	12.07	-48.5	-61.4	3.5	1.51e+00	0	28	104	0	60	41182
2026-01-13 13:15:08.42	32.05	12.15	-48.5	-61.4	3.5	1.52e+00	0	28	104	0	60	41139
2026-01-13 13:15:09.43	32.16	12.23	-48.5	-61.4	3.5	1.52e+00	0	28	104	0	60	41161
2026-01-13 13:15:10.43	32.27	12.30	-48.5	-61.4	3.5	1.52e+00	0	28	104	0	60	41268
2026-01-13 13:15:11.44	32.37	12.38	-48.5	-61.4	3.5	1.52e+00	0	28	104	0	60	41001
2026-01-13 13:15:12.45	32.48	12.46	-48.5	-61.4	3.5	1.52e+00	0	28	104	0	60	41010
2026-01-13 13:15:13.46	32.59	12.54	-48.5	-61.4	3.5	1.52e+00	0	28	104	0	60	41289
2026-01-13 13:15:14.47	32.70	12.62	-48.5	-61.4	3.5	1.52e+00	0	28	104	0	60	41177
2026-01-13 13:15:15.48	32.81	12.70	-48.5	-61.4	3.5	1.52e+00	0	28	104	0	60	41154
2026-01-13 13:15:16.49	32.93	12.79	-48.5	-61.4	3.5	1.52e+00	0	28	104	0	60	41369
2026-01-13 13:15:17.50	33.04	12.87	-48.5	-61.4	3.5	1.52e+00	0	28	104	0	60	41044
2026-01-13 13:15:18.51	33.15	12.95	-48.5	-61.3	3.5	1.52e+00	0	28	104	0	60	40970
2026-01-13 13:15:19.52	33.26	13.03	-48.5	-61.4	3.5	1.52e+00	0	28	104	0	60	41040
2026-01-13 13:15:20.53	33.38	13.11	-48.5	-61.4	3.5	1.52e+00	0	28	104	0	60	41166
2026-01-13 13:15:21.54	33.49	13.19	-48.5	-61.3	3.5	1.52e+00	0	28	104	0	60	40986
2026-01-13 13:15:22.55	33.61	13.27	-48.5	-61.4	3.5	1.52e+00	0	28	104	0	60	41010
2026-01-13 13:15:23.56	33.72	13.35	-48.5	-61.4	3.5	1.52e+00	0	28	104	0	60	41039
2026-01-13 13:15:24.57	33.84	13.44	-48.5	-61.4	3.5	1.52e+00	0	28	104	0	60	41093
2026-01-13 13:15:25.58	33.96	13.52	-48.5	-61.4	3.5	1.52e+00	0	28	104	0	60	41087
2026-01-13 13:15:26.59	34.07	13.60	-48.5	-61.4	3.5	1.52e+00	0	28	104	0	60	41299
2026-01-13 13:15:27.60	34.19	13.68	-48.5	-61.4	3.5	1.52e+00	0	28	104	0	60	41115
2026-01-13 13:15:28.61	34.31	13.77	-48.5	-61.4	3.5	1.52e+00	0	28	104	0	60	41074
2026-01-13 13:15:29.62	34.43	13.85	-48.5	-61.4	3.5	1.52e+00	0	28	104	0	60	41061
2026-01-13 13:15:30.62	34.55	13.93	-48.5	-61.4	3.5	1.52e+00	0	28	104	0	60	41247
2026-01-13 13:15:31.63	34.67	14.02	-48.5	-61.4	3.5	1.52e+00	0	28	104	0	60	41295
2026-01-13 13:15:32.64	34.79	14.10	-48.5	-61.4	3.5	1.52e+00	0	28	104	0	60	41252
2026-01-13 13:15:33.65	34.91	14.18	-48.5	-61.4	3.5	1.52e+00	0	28	104	0	60	41055
2026-01-13 13:15:34.66	35.03	14.27	-48.5	-61.4	3.5	1.52e+00	0	28	104	0	60	41149
2026-01-13 13:15:35.67	35.16	14.35	-48.5	-61.4	3.5	1.52e+00	0	28	104	0	60	41267
2026-01-13 13:15:36.68	35.28	14.43	-48.5	-61.4	3.5	1.51e+00	0	28	104	0	60	41273
2026-01-13 13:15:37.69	35.41	14.52	-48.5	-61.4	3.5	1.52e+00	0	28	104	0	60	41163
2026-01-13 13:15:38.70	35.53	14.60	-48.4	-61.4	3.5	1.52e+00	0	28	104	0	60	41329
2026-01-13 13:15:39.71	35.66	14.69	-48.4	-61.4	3.5	1.52e+00	0	28	104	0	60	41110
2026-01-13 13:15:40.72	35.78	14.77	-48.4	-61.4	3.5	1.51e+00	0	28	104	0	60	41187
2026-01-13 13:15:41.73	35.91	14.86	-48.4	-61.4	3.5	1.51e+00	0	28	104	0	60	41223
2026-01-13 13:15:42.74	36.04	14.94	-48.4	-61.4	3.5	1.52e+00	0	28	104	0	60	41018
2026-01-13 13:15:43.75	36.17	15.03	-48.5	-61.4	3.5	1.52e+00	0	28	104	0	60	41185
2026-01-13 13:15:44.76	36.30	15.11	-48.5	-61.4	3.5	1.52e+00	0	28	104	0	60	41108
2026-01-13 13:15:45.77	36.43	15.20	-48.5	-61.3	3.5	1.52e+00	0	28	104	0	60	40955
2026-01-13 13:15:46.78	36.56	15.28	-48.5	-61.4	3.5	1.52e+00	0	28	104	0	60	41096
2026-01-13 13:15:47.79	36.69	15.37	-48.5	-61.3	3.4	1.51e+00	0	28	104	0	60	40950
2026-01-13 13:15:48.80	36.82	15.46	-48.5	-61.4	3.5	1.52e+00	0	28	104	0	60	41067
2026-01-13 13:15:49.81	36.96	15.54	-48.5	-61.4	3.5	1.52e+00	0	28	104	0	60	41131
2026-01-13 13:15:50.82	37.09	15.63	-48.5	-61.4	3.5	1.52e+00	0	28	104	0	60	41202
2026-01-13 13:15:51.83	37.23	15.72	-48.5	-61.4	3.5	1.52e+00	0	28	104	0	60	41147
2026-01-13 13:15:52.84	37.36	15.80	-48.5	-61.4	3.5	1.52e+00	0	28	104	0	60	41212
2026-01-13 13:15:53.85	37.50	15.89	-48.5	-61.4	3.5	1.52e+00	0	28	104	0	60	41217
2026-01-13 13:15:54.86	37.63	15.98	-48.5	-61.3	3.5	1.52e+00	0	28	104	0	60	40970
2026-01-13 13:15:55.87	37.77	16.06	-48.5	-61.3	3.5	1.51e+00	0	28	104	0	60	40981
2026-01-13 13:15:56.88	37.91	16.15	-48.5	-61.4	3.5	1.52e+00	0	28	104	0	60	41149
2026-01-13 13:15:57.89	38.05	16.24	-48.5	-61.4	3.5	1.52e+00	0	29	104	0	60	41031
2026-01-13 13:15:58.90	38.19	16.33	-48.5	-61.4	3.5	1.51e+00	0	28	104	0	60	41117
2026-01-13 13:15:59.91	38.33	16.42	-48.5	-61.4	3.5	1.52e+00	0	28	104	0	60	41010
2026-01-13 13:16:00.92	38.47	16.50	-48.5	-61.4	3.5	1.52e+00	0	28	104	0	60	41015
2026-01-13 13:16:01.93	38.62	16.59	-48.5	-61.4	3.5	1.52e+00	0	28	104	0	60	41219
2026-01-13 13:16:02.94	38.76	16.68	-48.5	-61.3	3.5	1.52e+00	0	28	104	0	60	40800
2026-01-13 13:16:03.95	38.90	16.77	-48.5	-61.3	3.5	1.52e+00	0	28	104	0	60	40930
2026-01-13 13:16:04.96	39.05	16.86	-48.6	-61.4	3.5	1.52e+00	0	28	104	0	60	41273
2026-01-13 13:16:05.97	39.19	16.95	-48.6	-61.4	3.5	1.52e+00	0	28	104	0	60	41275
2026-01-13 13:16:06.98	39.34	17.03	-48.5	-61.4	3.5	1.52e+00	0	28	104	0	60	41041
2026-01-13 13:16:07.99	39.49	17.12	-48.5	-61.4	3.5	1.52e+00	0	28	104	0	60	41065
2026-01-13 13:16:09.00	39.64	17.21	-48.5	-61.4	3.5	1.52e+00	0	28	104	0	60	41048
2026-01-13 13:16:10.01	39.78	17.30	-48.5	-61.3	3.5	1.52e+00	0	29	104	0	60	40944
2026-01-13 13:16:11.02	39.93	17.39	-48.5	-61.4	3.5	1.52e+00	0	28	104	0	60	41233
2026-01-13 13:16:12.03	40.09	17.48	-48.5	-61.4	3.5	1.52e+00	0	28	104	0	60	41137
2026-01-13 13:16:13.04	40.24	17.57	-48.5	-61.3	3.5	1.52e+00	0	28	104	0	60	40924
2026-01-13 13:16:14.05	40.39	17.66	-48.5	-61.4	3.5	1.52e+00	0	28	104	0	60	41059
2026-01-13 13:16:15.06	40.54	17.75	-48.5	-61.4	3.5	1.52e+00	0	28	104	0	60	41034
2026-01-13 13:16:16.07	40.70	17.84	-48.5	-61.4	3.5	1.52e+00	0	28	104	0	60	41236
2026-01-13 13:16:17.08	40.85	17.93	-48.5	-61.4	3.5	1.52e+00	0	28	104	0	60	41193
2026-01-13 13:16:18.09	41.01	18.02	-48.5	-61.3	3.5	1.51e+00	0	28	104	0	60	40991
2026-01-13 13:16:19.10	41.17	18.11	-48.5	-61.4	3.5	1.52e+00	0	28	104	0	60	41131
2026-01-13 13:16:20.11	41.32	18.21	-48.5	-61.4	3.5	1.51e+00	0	28	104	0	60	41003
2026-01-13 13:16:21.12	41.48	18.30	-48.5	-61.3	3.5	1.52e+00	0	28	104	0	60	40973
2026-01-13 13:16:22.13	41.64	18.39	-48.5	-61.3	3.5	1.52e+00	0	28	104	0	60	40844
2026-01-13 13:16:23.14	41.80	18.48	-48.5	-61.3	3.5	1.52e+00	0	28	104	0	60	40613
2026-01-13 13:16:24.15	41.96	18.57	-48.5	-61.3	3.5	1.52e+00	0	28	104	0	60	40868
2026-01-13 13:16:25.16	42.13	18.66	-48.5	-61.3	3.5	1.52e+00	0	28	104	0	60	40876
2026-01-13 13:16:26.17	42.29	18.75	-48.5	-61.3	3.5	1.51e+00	0	28	104	0	60	40590
2026-01-13 13:16:27.18	42.46	18.84	-48.5	-61.4	3.5	1.52e+00	0	28	104	0	60	41078
2026-01-13 13:16:28.19	42.62	18.94	-48.5	-61.3	3.5	1.52e+00	0	28	104	0	60	40905
2026-01-13 13:16:29.20	42.79	19.03	-48.5	-61.4	3.5	1.52e+00	0	28	104	0	60	41075
2026-01-13 13:16:30.20	42.95	19.12	-48.5	-61.3	3.5	1.52e+00	0	28	104	0	60	40915
2026-01-13 13:16:31.21	43.12	19.21	-48.5	-61.3	3.5	1.52e+00	0	28	104	0	60	40998
2026-01-13 13:16:32.23	43.29	19.30	-48.5	-61.4	3.5	1.52e+00	0	28	104	0	60	41048
2026-01-13 13:16:33.23	43.46	19.40	-48.5	-61.4	3.5	1.52e+00	0	28	104	0	60	41056
2026-01-13 13:16:34.24	43.63	19.49	-48.5	-61.4	3.5	1.52e+00	0	28	104	0	60	41046
2026-01-13 13:16:35.25	43.81	19.58	-48.5	-61.3	3.5	1.51e+00	0	28	104	0	60	40973
2026-01-13 13:16:36.26	43.98	19.67	-48.5	-61.3	3.5	1.51e+00	0	28	104	0	60	40935
2026-01-13 13:16:37.27	44.15	19.77	-48.5	-61.3	3.5	1.52e+00	0	28	104	0	60	40868
2026-01-13 13:16:38.28	44.33	19.86	-48.5	-61.3	3.5	1.52e+00	0	28	104	0	60	40878
2026-01-13 13:16:39.29	44.51	19.95	-48.5	-61.3	3.5	1.52e+00	0	28	104	0	60	40906
2026-01-13 13:16:40.30	44.68	20.05	-48.5	-61.4	3.5	1.52e+00	0	28	104	0	60	41056
2026-01-13 13:16:41.31	44.86	20.14	-48.5	-61.3	3.5	1.52e+00	0	28	104	0	60	40710
2026-01-13 13:16:42.32	45.04	20.23	-48.5	-61.3	3.5	1.52e+00	0	28	104	0	60	40904
2026-01-13 13:16:43.33	45.22	20.33	-48.5	-61.4	3.5	1.52e+00	0	28	104	0	60	41069
2026-01-13 13:16:44.34	45.40	20.42	-48.5	-61.3	3.5	1.52e+00	0	28	104	0	60	40922
2026-01-13 13:16:45.35	45.59	20.51	-48.5	-61.3	3.5	1.51e+00	0	29	104	0	60	40870
2026-01-13 13:16:46.36	45.77	20.61	-48.5	-61.4	3.5	1.52e+00	0	29	104	0	60	41010
2026-01-13 13:16:47.37	45.96	20.70	-48.5	-61.4	3.5	1.52e+00	0	28	104	0	60	41082
2026-01-13 13:16:48.38	46.14	20.79	-48.5	-61.3	3.5	1.52e+00	0	28	104	0	60	40953
2026-01-13 13:16:49.39	46.33	20.89	-48.5	-61.4	3.5	1.52e+00	0	28	104	0	60	41022
2026-01-13 13:16:50.40	46.52	20.98	-48.5	-61.3	3.5	1.52e+00	0	28	104	0	60	40807
2026-01-13 13:16:51.41	46.71	21.07	-48.5	-61.3	3.5	1.52e+00	0	28	104	0	60	40691
2026-01-13 13:16:52.42	46.90	21.17	-48.5	-61.3	3.5	1.52e+00	0	28	104	0	60	40775
2026-01-13 13:16:53.43	47.09	21.26	-48.5	-61.3	3.5	1.52e+00	0	28	104	0	60	40896
2026-01-13 13:16:54.44	47.28	21.35	-48.5	-61.3	3.5	1.52e+00	0	28	104	0	60	40887
2026-01-13 13:16:55.45	47.48	21.45	-48.5	-61.4	3.5	1.52e+00	0	29	104	0	60	41135
2026-01-13 13:16:56.46	47.67	21.54	-48.5	-61.3	3.5	1.52e+00	0	29	104	0	60	40869
2026-01-13 13:16:57.47	47.87	21.64	-48.4	-61.3	3.5	1.52e+00	0	28	104	0	60	40927
2026-01-13 13:16:58.48	48.07	21.73	-48.4	-61.4	3.5	1.52e+00	0	28	104	0	60	41026
2026-01-13 13:16:59.49	48.26	21.82	-48.4	-61.3	3.5	1.52e+00	0	28	104	0	60	40872
2026-01-13 13:17:00.50	48.46	21.92	-48.4	-61.3	3.5	1.52e+00	0	28	104	0	60	40864
2026-01-13 13:17:01.51	48.67	22.01	-48.4	-61.3	3.5	1.52e+00	0	28	104	0	60	40818
2026-01-13 13:17:02.52	48.87	22.11	-48.5	-61.3	3.5	1.52e+00	0	28	104	0	60	40818
2026-01-13 13:17:03.53	49.07	22.20	-48.5	-61.3	3.5	1.52e+00	0	29	104	0	60	40824
2026-01-13 13:17:04.54	49.28	22.29	-48.5	-61.3	3.5	1.52e+00	0	29	104	0	60	40832
2026-01-13 13:17:05.55	49.48	22.39	-48.5	-61.3	3.5	1.52e+00	0	28	104	0	60	40779
2026-01-13 13:17:06.56	49.69	22.48	-48.5	-61.3	3.5	1.52e+00	0	28	104	0	60	40554
2026-01-13 13:17:07.57	49.90	22.57	-48.5	-61.2	3.5	1.52e+00	0	29	104	0	60	40350
2026-01-13 13:17:08.58	50.11	22.67	-48.5	-61.3	3.5	1.51e+00	0	29	104	0	60	40790
2026-01-13 13:17:09.59	50.32	22.76	-48.5	-61.3	3.5	1.52e+00	0	28	104	0	60	40875
2026-01-13 13:17:10.60	50.53	22.86	-48.5	-61.3	3.5	1.52e+00	0	28	104	0	60	40832
2026-01-13 13:17:11.61	50.74	22.95	-48.5	-61.3	3.5	1.52e+00	0	28	104	0	60	40954
2026-01-13 13:17:12.62	50.96	23.04	-48.5	-61.2	3.5	1.52e+00	0	29	104	0	60	40470
2026-01-13 13:17:13.63	51.17	23.14	-48.5	-61.2	3.5	1.52e+00	0	28	104	0	60	40458
2026-01-13 13:17:14.64	51.39	23.23	-48.4	-61.2	3.5	1.52e+00	0	28	104	0	60	40324
2026-01-13 13:17:15.65	51.61	23.32	-48.4	-61.3	3.5	1.52e+00	0	28	104	0	60	40778
2026-01-13 13:17:16.66	51.83	23.42	-48.4	-61.3	3.5	1.52e+00	0	28	104	0	60	40810
2026-01-13 13:17:17.67	52.05	23.51	-48.4	-61.3	3.5	1.52e+00	0	28	104	0	60	40715
2026-01-13 13:17:18.68	52.27	23.60	-48.4	-61.3	3.5	1.52e+00	0	28	104	0	60	40766
2026-01-13 13:17:19.69	52.49	23.70	-48.4	-61.3	3.5	1.52e+00	0	28	104	0	60	40764
2026-01-13 13:17:20.70	52.72	23.79	-48.4	-61.4	3.5	1.52e+00	0	28	104	0	60	41047
2026-01-13 13:17:21.71	52.95	23.88	-48.4	-61.3	3.5	1.52e+00	0	28	104	0	60	40780
2026-01-13 13:17:22.72	53.17	23.97	-48.4	-61.3	3.5	1.52e+00	0	28	104	0	60	40931
2026-01-13 13:17:23.73	53.40	24.07	-48.4	-61.3	3.5	1.52e+00	0	28	104	0	60	40867
2026-01-13 13:17:24.74	53.63	24.16	-48.4	-61.3	3.5	1.52e+00	0	28	104	0	60	40788
2026-01-13 13:17:25.75	53.86	24.25	-48.4	-61.3	3.5	1.52e+00	0	28	104	0	60	40629
2026-01-13 13:17:26.76	54.10	24.34	-48.5	-61.3	3.5	1.52e+00	0	28	104	0	60	40709
2026-01-13 13:17:27.77	54.33	24.43	-48.5	-61.2	3.5	1.52e+00	0	28	104	0	60	40530
2026-01-13 13:17:28.78	54.56	24.53	-48.5	-61.3	3.5	1.52e+00	0	28	104	0	60	40764
2026-01-13 13:17:29.79	54.80	24.62	-48.5	-61.3	3.5	1.52e+00	0	28	104	0	60	40556
2026-01-13 13:17:30.80	55.04	24.71	-48.5	-61.2	3.5	1.52e+00	0	28	104	0	60	40440
2026-01-13 13:17:31.81	55.28	24.80	-48.4	-61.2	3.5	1.51e+00	0	28	104	0	60	40511
2026-01-13 13:17:32.82	55.52	24.89	-48.4	-61.3	3.5	1.51e+00	0	28	104	0	60	40716
2026-01-13 13:17:33.83	55.76	24.98	-48.4	-61.3	3.5	1.51e+00	0	28	104	0	60	40705
2026-01-13 13:17:34.84	56.01	25.07	-48.4	-61.3	3.5	1.52e+00	0	28	104	0	60	40666
2026-01-13 13:17:35.84	56.25	25.16	-48.4	-61.3	3.5	1.52e+00	0	28	104	0	60	40656
2026-01-13 13:17:36.85	56.49	25.25	-48.4	-61.3	3.5	1.52e+00	0	28	104	0	60	40708
2026-01-13 13:17:37.86	56.74	25.34	-48.4	-61.2	3.5	1.52e+00	0	28	104	0	60	40524
2026-01-13 13:17:38.87	56.99	25.43	-48.4	-61.3	3.5	1.52e+00	0	28	104	0	60	40544
2026-01-13 13:17:39.88	57.24	25.52	-48.4	-61.3	3.5	1.51e+00	0	28	104	0	60	40590
2026-01-13 13:17:40.89	57.49	25.61	-48.4	-61.2	3.6	1.52e+00	0	28	104	0	60	40530
2026-01-13 13:17:41.90	57.75	25.70	-48.4	-61.3	3.5	1.52e+00	0	28	104	0	60	40837
2026-01-13 13:17:42.92	58.00	25.79	-48.4	-61.3	3.5	1.51e+00	0	29	104	0	60	40749
2026-01-13 13:17:43.93	58.26	25.88	-48.4	-61.2	3.5	1.52e+00	0	29	104	0	60	40525
2026-01-13 13:17:44.94	58.52	25.96	-48.4	-61.2	3.5	1.52e+00	0	29	104	0	60	40330
2026-01-13 13:17:45.95	58.77	26.05	-48.4	-61.2	3.5	1.52e+00	0	29	104	0	60	40257
2026-01-13 13:17:46.96	59.04	26.14	-48.3	-61.2	3.5	1.52e+00	0	28	104	0	60	40450
2026-01-13 13:17:47.97	59.30	26.23	-48.3	-61.3	3.5	1.52e+00	0	29	104	0	60	40606
2026-01-13 13:17:48.98	59.56	26.31	-48.3	-61.3	3.5	1.52e+00	0	28	104	0	60	40590
2026-01-13 13:17:49.99	59.82	26.40	-48.3	-61.3	3.5	1.52e+00	0	28	104	0	60	40697
2026-01-13 13:17:51.00	60.09	26.48	-48.3	-61.3	3.5	1.52e+00	0	29	104	0	60	40588
2026-01-13 13:17:52.01	60.36	26.57	-48.4	-61.3	3.5	1.52e+00	0	28	104	0	60	40638
2026-01-13 13:17:53.02	60.63	26.66	-48.3	-61.3	3.5	1.52e+00	0	28	104	0	60	40709
2026-01-13 13:17:54.03	60.90	26.74	-48.3	-61.2	3.5	1.52e+00	0	28	104	0	60	40519
2026-01-13 13:17:55.04	61.17	26.82	-48.3	-61.2	3.5	1.52e+00	0	28	104	0	60	40505
2026-01-13 13:17:56.05	61.44	26.91	-48.3	-61.3	3.5	1.52e+00	0	28	104	0	60	40551
2026-01-13 13:17:57.06	61.71	26.99	-48.3	-61.2	3.5	1.52e+00	0	28	104	0	60	40357
2026-01-13 13:17:58.07	61.99	27.07	-48.3	-61.2	3.5	1.52e+00	0	28	104	0	60	40387
2026-01-13 13:17:59.08	62.27	27.16	-48.3	-61.2	3.5	1.52e+00	0	28	104	0	60	40423
2026-01-13 13:18:00.09	62.55	27.24	-48.3	-61.2	3.5	1.52e+00	0	29	104	0	60	40191
2026-01-13 13:18:01.10	62.83	27.32	-48.3	-61.2	3.5	1.52e+00	0	28	104	0	60	40349
2026-01-13 13:18:02.11	63.11	27.40	-48.4	-61.2	3.5	1.51e+00	0	29	104	0	60	40319
2026-01-13 13:18:03.12	63.39	27.48	-48.4	-61.2	3.5	1.51e+00	0	29	104	0	60	40413
2026-01-13 13:18:04.13	63.67	27.56	-48.3	-61.2	3.5	1.52e+00	0	29	104	0	60	40288
2026-01-13 13:18:05.14	63.96	27.64	-48.3	-61.2	3.5	1.52e+00	0	28	104	0	60	40279
2026-01-13 13:18:06.15	64.25	27.72	-48.3	-61.2	3.5	1.52e+00	0	28	104	0	60	40457
2026-01-13 13:18:07.16	64.54	27.80	-48.3	-61.2	3.5	1.52e+00	0	28	104	0	60	40400
2026-01-13 13:18:08.17	64.82	27.88	-48.3	-61.2	3.5	1.52e+00	0	28	104	0	60	40182
2026-01-13 13:18:09.18	65.12	27.96	-48.3	-61.2	3.5	1.51e+00	0	28	104	0	60	40459
2026-01-13 13:18:10.20	65.41	28.03	-48.4	-61.2	3.5	1.52e+00	0	28	104	0	60	40286
2026-01-13 13:18:11.21	65.71	28.11	-48.4	-61.2	3.5	1.52e+00	0	28	104	0	60	40180
2026-01-13 13:18:12.21	66.00	28.19	-48.4	-61.2	3.5	1.51e+00	0	28	104	0	60	40126
2026-01-13 13:18:13.22	66.29	28.26	-48.4	-61.2	3.5	1.52e+00	0	29	104	0	60	40200
2026-01-13 13:18:14.24	66.60	28.34	-48.4	-61.1	3.5	1.52e+00	0	28	104	0	60	39991
2026-01-13 13:18:15.24	66.89	28.41	-48.4	-61.2	3.5	1.52e+00	0	29	104	0	60	40217
2026-01-13 13:18:16.26	67.20	28.48	-48.4	-61.2	3.5	1.52e+00	0	28	104	0	60	40306
2026-01-13 13:18:17.27	67.50	28.56	-48.4	-61.2	3.5	1.52e+00	0	28	104	0	60	40313
2026-01-13 13:18:18.28	67.80	28.63	-48.3	-61.2	3.5	1.52e+00	0	28	104	0	60	40212
2026-01-13 13:18:19.28	68.10	28.70	-48.3	-61.2	3.5	1.51e+00	0	28	104	0	60	40233
2026-01-13 13:18:20.29	68.41	28.77	-48.3	-61.1	3.5	1.52e+00	0	28	104	0	60	40046
2026-01-13 13:18:21.30	68.72	28.84	-48.3	-61.2	3.5	1.52e+00	0	28	104	0	60	40440
2026-01-13 13:18:22.31	69.03	28.91	-48.3	-61.2	3.5	1.52e+00	0	28	104	0	60	40082
2026-01-13 13:18:23.32	69.34	28.98	-48.3	-61.2	3.5	1.51e+00	0	28	104	0	60	40079
2026-01-13 13:18:24.33	69.65	29.05	-48.3	-61.2	3.5	1.52e+00	0	28	104	0	60	40149
2026-01-13 13:18:25.34	69.96	29.11	-48.3	-61.1	3.5	1.52e+00	0	28	104	0	60	40019
2026-01-13 13:18:26.36	70.28	29.18	-48.3	-61.2	3.5	1.52e+00	0	28	104	0	60	40326
2026-01-13 13:18:27.37	70.59	29.24	-48.3	-61.2	3.5	1.52e+00	0	28	104	0	60	40284
2026-01-13 13:18:28.38	70.91	29.31	-48.3	-61.2	3.5	1.52e+00	0	29	104	0	60	40257
2026-01-13 13:18:29.39	71.23	29.37	-48.3	-61.2	3.5	1.52e+00	0	29	104	0	60	40143
2026-01-13 13:18:30.40	71.55	29.44	-48.3	-61.1	3.5	1.52e+00	0	29	104	0	60	40019
2026-01-13 13:18:31.41	71.87	29.50	-48.3	-61.2	3.5	1.51e+00	0	28	104	0	60	40158
2026-01-13 13:18:32.42	72.19	29.56	-48.3	-61.2	3.5	1.52e+00	0	28	104	0	60	40188
2026-01-13 13:18:33.43	72.51	29.62	-48.3	-61.2	3.5	1.51e+00	0	28	104	0	60	40143
2026-01-13 13:18:34.44	72.83	29.68	-48.3	-61.1	3.5	1.52e+00	0	28	104	0	60	40057
2026-01-13 13:18:35.45	73.16	29.74	-48.3	-61.2	3.5	1.52e+00	0	29	104	0	60	40110
2026-01-13 13:18:36.46	73.49	29.80	-48.3	-61.2	3.5	1.52e+00	0	28	104	0	60	40133
2026-01-13 13:18:37.47	73.81	29.86	-48.3	-61.2	3.5	1.52e+00	0	28	104	0	60	40272
2026-01-13 13:18:38.48	74.14	29.91	-48.3	-61.2	3.5	1.52e+00	0	29	104	0	60	40222
2026-01-13 13:18:39.49	74.47	29.97	-48.3	-61.1	3.5	1.52e+00	0	29	104	0	60	40012
2026-01-13 13:18:40.50	74.80	30.02	-48.3	-61.2	3.5	1.52e+00	0	28	104	0	60	40073
2026-01-13 13:18:41.51	75.13	30.08	-48.3	-61.2	3.5	1.51e+00	0	29	104	0	60	40068
2026-01-13 13:18:42.52	75.47	30.13	-48.3	-61.1	3.5	1.52e+00	0	29	104	0	60	40067
2026-01-13 13:18:43.53	75.80	30.18	-48.3	-61.1	3.5	1.51e+00	0	29	104	0	60	39969
2026-01-13 13:18:44.54	76.14	30.23	-48.3	-61.2	3.5	1.51e+00	0	28	104	0	60	40142
2026-01-13 13:18:45.55	76.47	30.28	-48.3	-61.1	3.5	1.52e+00	0	28	104	0	60	39922
2026-01-13 13:18:46.56	76.81	30.33	-48.3	-61.1	3.5	1.52e+00	0	28	104	0	60	39861
2026-01-13 13:18:47.56	77.14	30.38	-48.3	-61.1	3.5	1.52e+00	0	28	104	0	60	40038
2026-01-13 13:18:48.57	77.48	30.42	-48.3	-61.2	3.5	1.52e+00	0	28	104	0	60	40173
2026-01-13 13:18:49.58	77.82	30.47	-48.3	-61.1	3.5	1.52e+00	0	29	104	0	60	39935
2026-01-13 13:18:50.59	78.16	30.51	-48.2	-61.2	3.5	1.52e+00	0	28	104	0	60	40090
2026-01-13 13:18:51.60	78.51	30.56	-48.3	-61.1	3.5	1.52e+00	0	29	104	0	60	39989
2026-01-13 13:18:52.61	78.85	30.60	-48.2	-61.1	3.5	1.52e+00	0	29	104	0	60	39951
2026-01-13 13:18:53.62	79.19	30.64	-48.2	-61.2	3.5	1.52e+00	0	29	104	0	60	40150
2026-01-13 13:18:54.63	79.54	30.68	-48.3	-61.1	3.5	1.52e+00	0	28	104	0	60	39691
2026-01-13 13:18:55.64	79.88	30.72	-48.3	-61.1	3.5	1.52e+00	0	28	104	0	60	39957
2026-01-13 13:18:56.65	80.23	30.76	-48.3	-61.1	3.5	1.52e+00	0	29	104	0	60	39978
2026-01-13 13:18:57.66	80.58	30.80	-48.3	-61.1	3.5	1.52e+00	0	29	104	0	60	39918
2026-01-13 13:18:58.67	80.93	30.84	-48.3	-61.2	3.5	1.52e+00	0	29	104	0	60	40129
2026-01-13 13:18:59.68	81.27	30.87	-48.2	-61.1	3.5	1.51e+00	0	28	104	0	60	39819
2026-01-13 13:19:00.68	81.62	30.91	-48.3	-61.1	3.5	1.52e+00	0	29	104	0	60	39836
2026-01-13 13:19:01.69	81.97	30.94	-48.3	-61.1	3.5	1.52e+00	0	28	104	0	60	39780
2026-01-13 13:19:02.70	82.32	30.97	-48.3	-61.1	3.5	1.52e+00	0	29	104	0	60	39893
2026-01-13 13:19:03.71	82.67	31.00	-48.3	-61.1	3.5	1.52e+00	0	29	104	0	60	40037
2026-01-13 13:19:04.72	83.02	31.03	-48.3	-61.1	3.5	1.52e+00	0	28	104	0	60	39677
2026-01-13 13:19:05.73	83.38	31.06	-48.2	-61.1	3.5	1.51e+00	0	28	104	0	60	39720
2026-01-13 13:19:06.74	83.73	31.09	-48.2	-61.1	3.5	1.52e+00	0	29	104	0	60	39742
2026-01-13 13:19:07.76	84.09	31.11	-48.2	-61.1	3.5	1.52e+00	0	29	104	0	60	39712
2026-01-13 13:19:08.76	84.44	31.14	-48.2	-61.1	3.5	1.52e+00	0	28	104	0	60	39669
2026-01-13 13:19:09.78	84.80	31.16	-48.2	-61.1	3.5	1.52e+00	0	28	104	0	60	39697
2026-01-13 13:19:10.78	85.15	31.18	-48.2	-61.1	3.5	1.52e+00	0	29	104	0	60	39806
2026-01-13 13:19:11.80	85.51	31.21	-48.2	-61.1	3.5	1.52e+00	0	29	104	0	60	39956
2026-01-13 13:19:12.80	85.86	31.23	-48.2	-61.1	3.5	1.52e+00	0	28	104	0	60	39744
2026-01-13 13:19:13.81	86.22	31.25	-48.2	-61.1	3.5	1.52e+00	0	28	104	0	60	39683
2026-01-13 13:19:14.82	86.58	31.26	-48.2	-61.1	3.5	1.52e+00	0	28	104	0	60	39698
2026-01-13 13:19:15.83	86.94	31.28	-48.2	-61.0	3.5	1.52e+00	0	29	104	0	60	39557
2026-01-13 13:19:16.84	87.29	31.30	-48.2	-61.1	3.5	1.52e+00	0	28	104	0	60	39650
2026-01-13 13:19:17.84	87.65	31.31	-48.2	-61.1	3.5	1.51e+00	0	28	104	0	60	39685
2026-01-13 13:19:18.86	88.01	31.32	-48.2	-61.0	3.5	1.52e+00	0	29	104	0	60	39588
2026-01-13 13:19:19.87	88.37	31.34	-48.2	-61.1	3.5	1.52e+00	0	28	104	0	60	39696
2026-01-13 13:19:20.88	88.73	31.35	-48.2	-61.0	3.5	1.52e+00	0	28	104	0	60	39579
2026-01-13 13:19:21.89	89.09	31.36	-48.2	-61.1	3.5	1.51e+00	0	28	104	0	60	39645
2026-01-13 13:19:22.90	89.45	31.37	-48.2	-61.0	3.5	1.52e+00	0	28	104	0	60	39597
2026-01-13 13:19:23.91	89.81	31.37	-48.2	-61.0	3.5	1.52e+00	0	28	104	0	60	39351
2026-01-13 13:19:24.92	90.17	31.38	-48.2	-61.0	3.5	1.52e+00	0	28	104	0	60	39491
2026-01-13 13:19:25.93	90.53	31.38	-48.2	-61.0	3.5	1.52e+00	0	29	104	0	60	39423
2026-01-13 13:19:26.94	90.89	31.39	-48.1	-61.0	3.5	1.52e+00	0	28	104	0	60	39332
2026-01-13 13:19:27.95	91.25	31.39	-48.1	-61.0	3.5	1.52e+00	0	28	104	0	60	39471
2026-01-13 13:19:28.96	91.61	31.39	-48.2	-61.0	3.5	1.52e+00	0	28	104	0	60	39435
2026-01-13 13:19:29.97	91.97	31.39	-48.2	-61.0	3.5	1.52e+00	0	29	104	0	60	39325
2026-01-13 13:19:30.98	92.33	31.39	-48.2	-61.0	3.5	1.52e+00	0	28	104	0	60	39474
2026-01-13 13:19:31.99	92.69	31.39	-48.2	-61.0	3.5	1.52e+00	0	28	104	0	60	39245
2026-01-13 13:19:33.00	93.05	31.38	-48.2	-61.0	3.5	1.52e+00	0	29	104	0	60	39279
2026-01-13 13:19:34.01	93.41	31.38	-48.1	-61.0	3.5	1.52e+00	0	29	104	0	60	39418
2026-01-13 13:19:35.02	93.77	31.37	-48.1	-61.0	3.5	1.52e+00	0	29	104	0	60	39311
2026-01-13 13:19:36.03	94.13	31.36	-48.1	-61.0	3.5	1.52e+00	0	28	104	0	60	39401
2026-01-13 13:19:37.04	94.49	31.35	-48.1	-61.0	3.5	1.52e+00	0	28	104	0	60	39537
2026-01-13 13:19:38.05	94.85	31.34	-48.1	-61.0	3.5	1.52e+00	0	29	104	0	60	39364
2026-01-13 13:19:39.06	95.21	31.33	-48.1	-61.0	3.5	1.52e+00	0	29	104	0	60	39371
2026-01-13 13:19:40.07	95.57	31.32	-48.1	-61.0	3.5	1.51e+00	0	29	104	0	60	39220
2026-01-13 13:19:41.08	95.93	31.31	-48.1	-61.0	3.5	1.52e+00	0	29	104	0	60	39223
2026-01-13 13:19:42.09	96.29	31.29	-48.1	-61.0	3.5	1.52e+00	0	29	104	0	60	39327
2026-01-13 13:19:43.10	96.65	31.28	-48.1	-61.0	3.5	1.52e+00	0	29	104	0	60	39166
2026-01-13 13:19:44.11	97.01	31.26	-48.1	-60.9	3.5	1.52e+00	0	29	104	0	60	38962
2026-01-13 13:19:45.12	97.36	31.24	-48.1	-60.9	3.5	1.52e+00	0	29	104	0	60	39077
2026-01-13 13:19:46.13	97.72	31.22	-48.1	-60.9	3.5	1.52e+00	0	29	104	0	60	39085
2026-01-13 13:19:47.14	98.08	31.20	-48.1	-60.9	3.5	1.51e+00	0	29	104	0	60	38885
2026-01-13 13:19:48.15	98.43	31.18	-48.1	-61.0	3.5	1.52e+00	0	29	104	0	60	39329
2026-01-13 13:19:49.16	98.79	31.15	-48.1	-60.9	3.5	1.52e+00	0	29	104	0	60	39111
2026-01-13 13:19:50.17	99.15	31.13	-48.1	-60.9	3.5	1.51e+00	0	29	104	0	60	39100
2026-01-13 13:19:51.18	99.50	31.10	-48.1	-61.0	3.5	1.51e+00	0	29	104	0	60	39167
2026-01-13 13:19:52.19	99.85	31.08	-48.1	-60.9	3.5	1.52e+00	0	29	104	0	60	39050
2026-01-13 13:19:53.20	100.21	31.05	-48.1	-60.9	3.5	1.51e+00	0	29	104	0	60	39091
2026-01-13 13:19:54.20	100.56	31.02	-48.1	-60.9	3.5	1.52e+00	0	29	104	0	60	38928
2026-01-13 13:19:55.21	100.91	30.99	-48.1	-60.9	3.5	1.52e+00	0	28	104	0	60	39070
2026-01-13 13:19:56.23	101.27	30.96	-48.1	-60.9	3.5	1.52e+00	0	29	104	0	60	38926
2026-01-13 13:19:57.24	101.62	30.93	-48.1	-61.0	3.5	1.52e+00	0	28	104	0	60	39198
2026-01-13 13:19:58.25	101.97	30.89	-48.1	-60.9	3.5	1.52e+00	0	29	104	0	60	38885
2026-01-13 13:19:59.26	102.32	30.86	-48.1	-60.9	3.5	1.52e+00	0	29	104	0	60	39032
2026-01-13 13:20:00.27	102.67	30.82	-48.1	-60.9	3.5	1.52e+00	0	28	104	0	60	38970
2026-01-13 13:20:01.28	103.01	30.79	-48.1	-60.9	3.5	1.52e+00	0	29	104	0	60	38970
2026-01-13 13:20:02.29	103.36	30.75	-48.1	-60.9	3.5	1.52e+00	0	29	104	0	60	38830
2026-01-13 13:20:03.30	103.71	30.71	-48.1	-60.9	3.5	1.52e+00	0	29	104	0	60	38827
2026-01-13 13:20:04.31	104.05	30.67	-48.1	-60.9	3.5	1.52e+00	0	28	104	0	60	38824
2026-01-13 13:20:05.32	104.40	30.63	-48.0	-60.8	3.5	1.52e+00	0	29	104	0	60	38694
2026-01-13 13:20:06.33	104.74	30.59	-48.0	-60.9	3.5	1.52e+00	0	28	104	0	60	38814
2026-01-13 13:20:07.34	105.09	30.54	-48.0	-60.9	3.5	1.51e+00	0	29	104	0	60	38969
2026-01-13 13:20:08.35	105.43	30.50	-48.0	-60.8	3.5	1.52e+00	0	28	104	0	60	38640
2026-01-13 13:20:09.36	105.77	30.45	-48.0	-60.8	3.5	1.52e+00	0	28	104	0	60	38690
2026-01-13 13:20:10.37	106.11	30.41	-48.0	-60.8	3.5	1.52e+00	0	28	104	0	60	38585
2026-01-13 13:20:11.38	106.45	30.36	-48.0	-60.9	3.5	1.52e+00	0	29	104	0	60	38804
2026-01-13 13:20:12.38	106.79	30.31	-48.0	-60.8	3.5	1.52e+00	0	29	104	0	60	38704
2026-01-13 13:20:13.39	107.12	30.26	-48.0	-60.8	3.5	1.51e+00	0	28	104	0	60	38520
2026-01-13 13:20:14.40	107.46	30.21	-48.0	-60.8	3.5	1.51e+00	0	29	104	0	60	38655
2026-01-13 13:20:15.41	107.79	30.16	-48.0	-60.8	3.5	1.52e+00	0	29	104	0	60	38427
2026-01-13 13:20:16.43	108.13	30.11	-48.0	-60.8	3.5	1.52e+00	0	29	104	0	60	38550
2026-01-13 13:20:17.44	108.47	30.05	-47.9	-60.8	3.5	1.52e+00	0	29	104	0	60	38529
2026-01-13 13:20:18.44	108.79	30.00	-47.9	-60.8	3.5	1.52e+00	0	29	104	0	60	38605
2026-01-13 13:20:19.45	109.13	29.95	-47.9	-60.8	3.5	1.52e+00	0	29	104	0	60	38422
2026-01-13 13:20:20.46	109.46	29.89	-48.0	-60.8	3.5	1.52e+00	0	28	104	0	60	38558
2026-01-13 13:20:21.48	109.79	29.83	-48.0	-60.8	3.5	1.52e+00	0	28	104	0	60	38609
2026-01-13 13:20:22.49	110.12	29.77	-47.9	-60.8	3.5	1.52e+00	0	28	104	0	60	38292
2026-01-13 13:20:23.50	110.44	29.72	-48.0	-60.8	3.5	1.52e+00	0	29	104	0	60	38397
2026-01-13 13:20:24.51	110.77	29.66	-48.0	-60.8	3.5	1.52e+00	0	28	104	0	60	38323
2026-01-13 13:20:25.52	111.09	29.60	-48.0	-60.8	3.5	1.52e+00	0	28	104	0	60	38671
2026-01-13 13:20:26.53	111.42	29.53	-48.0	-60.8	3.5	1.52e+00	0	28	104	0	60	38573
2026-01-13 13:20:27.54	111.74	29.47	-47.9	-60.7	3.5	1.52e+00	0	28	104	0	60	38183
2026-01-13 13:20:28.55	112.06	29.41	-47.9	-60.7	3.5	1.52e+00	0	28	104	0	60	38201
2026-01-13 13:20:29.56	112.38	29.35	-47.9	-60.7	3.5	1.52e+00	0	29	104	0	60	38227
2026-01-13 13:20:30.57	112.70	29.28	-47.9	-60.8	3.5	1.52e+00	0	28	104	0	60	38307
2026-01-13 13:20:31.58	113.01	29.22	-47.9	-60.7	3.5	1.52e+00	0	29	104	0	60	38149
2026-01-13 13:20:32.59	113.33	29.15	-47.9	-60.8	3.5	1.52e+00	0	29	104	0	60	38451
2026-01-13 13:20:33.60	113.64	29.08	-47.9	-60.7	3.5	1.52e+00	0	28	104	0	60	38233
2026-01-13 13:20:34.61	113.96	29.02	-47.9	-60.7	3.5	1.52e+00	0	28	104	0	60	38075
2026-01-13 13:20:35.62	114.27	28.95	-47.9	-60.8	3.5	1.51e+00	0	28	104	0	60	38371
2026-01-13 13:20:36.63	114.58	28.88	-47.9	-60.7	3.5	1.52e+00	0	29	104	0	60	38175
2026-01-13 13:20:37.64	114.89	28.81	-47.9	-60.8	3.5	1.52e+00	0	29	104	0	60	38344
2026-01-13 13:20:38.65	115.20	28.74	-47.9	-60.7	3.5	1.51e+00	0	28	104	0	60	38109
2026-01-13 13:20:39.66	115.50	28.67	-47.9	-60.7	3.5	1.52e+00	0	29	104	0	60	37959
2026-01-13 13:20:40.67	115.81	28.59	-47.8	-60.8	3.5	1.52e+00	0	29	104	0	60	38337
2026-01-13 13:20:41.68	116.11	28.52	-47.7	-60.7	3.5	1.52e+00	0	29	104	0	60	38189
2026-01-13 13:20:42.69	116.41	28.45	-47.6	-60.7	3.5	1.52e+00	0	29	104	0	60	38118
2026-01-13 13:20:43.70	116.71	28.37	-47.6	-60.8	3.5	1.52e+00	0	29	104	0	60	38283
2026-01-13 13:20:44.71	117.01	28.30	-47.6	-60.7	3.5	1.52e+00	0	28	104	0	60	38052
2026-01-13 13:20:45.72	117.31	28.22	-47.6	-60.7	3.5	1.51e+00	0	29	104	0	60	38125
2026-01-13 13:20:46.74	117.61	28.15	-47.7	-60.7	3.5	1.52e+00	0	29	104	0	60	38101
2026-01-13 13:20:47.74	117.91	28.07	-47.7	-60.7	3.5	1.52e+00	0	28	104	0	60	37877
2026-01-13 13:20:48.76	118.20	27.99	-47.8	-60.7	3.5	1.52e+00	0	28	104	0	60	37994
2026-01-13 13:20:49.77	118.50	27.92	-47.8	-60.7	3.5	1.51e+00	0	28	104	0	60	37868
2026-01-13 13:20:50.78	118.79	27.84	-47.8	-60.6	3.5	1.52e+00	0	29	104	0	60	37812
2026-01-13 13:20:51.79	119.08	27.76	-47.8	-60.7	3.5	1.52e+00	0	29	104	0	60	37902
2026-01-13 13:20:52.80	119.37	27.68	-47.8	-60.6	3.5	1.52e+00	0	29	104	0	60	37795
2026-01-13 13:20:53.81	119.65	27.60	-47.8	-60.7	3.5	1.52e+00	0	29	104	0	60	37972
2026-01-13 13:20:54.82	119.94	27.52	-47.8	-60.7	3.5	1.52e+00	0	29	104	0	60	37862
2026-01-13 13:20:55.83	120.22	27.44	-47.8	-60.7	3.5	1.52e+00	0	29	104	0	60	38026
2026-01-13 13:20:56.84	120.51	27.36	-47.8	-60.7	3.5	1.52e+00	0	29	104	0	60	38054
2026-01-13 13:20:57.85	120.79	27.28	-47.8	-60.7	3.5	1.52e+00	0	29	104	0	60	37885
2026-01-13 13:20:58.86	121.07	27.19	-47.8	-60.7	3.5	1.52e+00	0	29	104	0	60	37973
2026-01-13 13:20:59.87	121.35	27.11	-47.8	-60.7	3.5	1.51e+00	0	29	104	0	60	38065
2026-01-13 13:21:00.88	121.63	27.03	-47.8	-60.7	3.5	1.52e+00	0	29	104	0	60	37864
2026-01-13 13:21:01.89	121.90	26.94	-47.7	-60.6	3.5	1.52e+00	0	29	104	0	60	37763
2026-01-13 13:21:02.90	122.18	26.86	-47.7	-60.7	3.5	1.52e+00	0	29	104	0	60	37841
2026-01-13 13:21:03.91	122.45	26.78	-47.7	-60.6	3.5	1.51e+00	0	29	104	0	60	37798
2026-01-13 13:21:04.92	122.72	26.69	-47.7	-60.6	3.5	1.52e+00	0	29	104	0	60	37689
2026-01-13 13:21:05.93	122.99	26.61	-47.8	-60.7	3.5	1.52e+00	0	29	104	0	60	37843
2026-01-13 13:21:06.94	123.26	26.52	-47.8	-60.7	3.5	1.52e+00	0	28	104	0	60	37859
2026-01-13 13:21:07.95	123.53	26.43	-47.8	-60.6	3.5	1.52e+00	0	28	104	0	60	37778
2026-01-13 13:21:08.96	123.79	26.35	-47.8	-60.6	3.5	1.51e+00	0	28	104	0	60	37517
2026-01-13 13:21:09.97	124.06	26.26	-47.8	-60.7	3.5	1.52e+00	0	28	104	0	60	37837
2026-01-13 13:21:10.99	124.33	26.17	-47.8	-60.6	3.5	1.52e+00	0	29	104	0	60	37649
2026-01-13 13:21:12.00	124.59	26.08	-47.8	-60.6	3.5	1.52e+00	0	29	104	0	60	37607
2026-01-13 13:21:13.01	124.85	26.00	-47.8	-60.6	3.5	1.52e+00	0	28	104	0	60	37633
2026-01-13 13:21:14.01	125.10	25.91	-47.8	-60.6	3.5	1.52e+00	0	29	104	0	60	37629
2026-01-13 13:21:15.02	125.36	25.82	-47.8	-60.6	3.5	1.52e+00	0	29	104	0	60	37471
2026-01-13 13:21:16.03	125.62	25.73	-47.8	-60.6	3.5	1.52e+00	0	29	104	0	60	37629
2026-01-13 13:21:17.04	125.87	25.64	-47.8	-60.6	3.5	1.52e+00	0	29	104	0	60	37611
2026-01-13 13:21:18.05	126.13	25.55	-47.8	-60.6	3.5	1.52e+00	0	29	104	0	60	37609
2026-01-13 13:21:19.06	126.38	25.46	-47.7	-60.6	3.5	1.52e+00	0	29	104	0	60	37556
2026-01-13 13:21:20.07	126.63	25.37	-47.8	-60.6	3.5	1.52e+00	0	29	104	0	60	37538
2026-01-13 13:21:21.08	126.88	25.28	-47.7	-60.6	3.5	1.52e+00	0	28	104	0	60	37425
2026-01-13 13:21:22.09	127.13	25.19	-47.7	-60.6	3.5	1.51e+00	0	29	104	0	60	37480
2026-01-13 13:21:23.10	127.37	25.10	-47.8	-60.6	3.5	1.52e+00	0	29	104	0	60	37632
2026-01-13 13:21:24.11	127.62	25.01	-47.7	-60.6	3.5	1.52e+00	0	29	104	0	60	37400
2026-01-13 13:21:25.12	127.86	24.92	-47.7	-60.6	3.5	1.52e+00	0	29	104	0	60	37537
2026-01-13 13:21:26.13	128.10	24.83	-47.7	-60.6	3.5	1.52e+00	0	29	104	0	60	37579
2026-01-13 13:21:27.14	128.35	24.74	-47.7	-60.6	3.5	1.52e+00	0	29	104	0	60	37549
2026-01-13 13:21:28.15	128.59	24.64	-47.7	-60.5	3.5	1.52e+00	0	29	104	0	60	37223
2026-01-13 13:21:29.16	128.82	24.55	-47.7	-60.5	3.5	1.52e+00	0	29	104	0	60	37353
2026-01-13 13:21:30.17	129.06	24.46	-47.7	-60.6	3.5	1.52e+00	0	29	104	0	60	37439
2026-01-13 13:21:31.18	129.30	24.37	-47.7	-60.6	3.5	1.52e+00	0	29	104	0	60	37458
2026-01-13 13:21:32.19	129.53	24.28	-47.7	-60.5	3.5	1.51e+00	0	29	104	0	60	37247
2026-01-13 13:21:33.20	129.76	24.18	-47.7	-60.5	3.5	1.52e+00	0	29	104	0	60	37355
2026-01-13 13:21:34.21	130.00	24.09	-47.6	-60.5	3.5	1.52e+00	0	29	104	0	60	37392
2026-01-13 13:21:35.22	130.23	24.00	-47.6	-60.5	3.5	1.52e+00	0	29	104	0	60	37199
2026-01-13 13:21:36.23	130.45	23.90	-47.6	-60.5	3.5	1.52e+00	0	29	104	0	60	37152
2026-01-13 13:21:37.24	130.68	23.81	-47.6	-60.5	3.5	1.52e+00	0	29	104	0	60	37190
2026-01-13 13:21:38.25	130.91	23.72	-47.6	-60.5	3.5	1.52e+00	0	28	104	0	60	36972
2026-01-13 13:21:39.26	131.13	23.62	-47.6	-60.5	3.5	1.51e+00	0	29	104	0	60	37227
2026-01-13 13:21:40.27	131.36	23.53	-47.6	-60.5	3.5	1.52e+00	0	29	104	0	60	37129
2026-01-13 13:21:41.28	131.58	23.44	-47.6	-60.5	3.5	1.52e+00	0	29	104	0	60	37118
2026-01-13 13:21:42.29	131.80	23.34	-47.6	-60.5	3.4	1.52e+00	0	28	104	0	60	37189
2026-01-13 13:21:43.30	132.02	23.25	-47.6	-60.5	3.5	1.52e+00	0	29	104	0	60	37072
2026-01-13 13:21:44.31	132.24	23.15	-47.6	-60.5	3.5	1.51e+00	0	29	104	0	60	36977
2026-01-13 13:21:45.32	132.46	23.06	-47.6	-60.5	3.5	1.52e+00	0	29	104	0	60	37003
2026-01-13 13:21:46.33	132.67	22.97	-47.6	-60.5	3.5	1.52e+00	0	29	104	0	60	37061
2026-01-13 13:21:47.34	132.89	22.87	-47.6	-60.5	3.5	1.52e+00	0	29	104	0	60	37007
2026-01-13 13:21:48.35	133.10	22.78	-47.6	-60.5	3.5	1.52e+00	0	29	104	0	60	37020
2026-01-13 13:21:49.37	133.31	22.68	-47.6	-60.4	3.5	1.52e+00	0	29	104	0	60	36885
2026-01-13 13:21:50.37	133.52	22.59	-47.6	-60.5	3.5	1.52e+00	0	29	104	0	60	37026
2026-01-13 13:21:51.38	133.73	22.49	-47.6	-60.4	3.5	1.52e+00	0	29	104	0	60	36859
2026-01-13 13:21:52.39	133.94	22.40	-47.6	-60.5	3.5	1.52e+00	0	28	104	0	60	37001
2026-01-13 13:21:53.40	134.15	22.31	-47.6	-60.4	3.5	1.52e+00	0	29	104	0	60	36880
2026-01-13 13:21:54.41	134.35	22.21	-47.6	-60.4	3.5	1.52e+00	0	29	104	0	60	36921
2026-01-13 13:21:55.43	134.56	22.12	-47.6	-60.4	3.5	1.52e+00	0	29	104	0	60	36772
2026-01-13 13:21:56.43	134.76	22.02	-47.6	-60.4	3.5	1.52e+00	0	29	104	0	60	36688
2026-01-13 13:21:57.44	134.97	21.93	-47.6	-60.4	3.5	1.52e+00	0	29	104	0	60	36774
2026-01-13 13:21:58.45	135.17	21.83	-47.6	-60.4	3.5	1.52e+00	0	29	104	0	60	36742
2026-01-13 13:21:59.46	135.37	21.74	-47.6	-60.4	3.5	1.51e+00	0	29	104	0	60	36710
2026-01-13 13:22:00.47	135.57	21.64	-47.5	-60.4	3.5	1.51e+00	0	29	104	0	60	36649
2026-01-13 13:22:01.48	135.76	21.55	-47.6	-60.4	3.5	1.52e+00	0	29	104	0	60	36572
2026-01-13 13:22:02.49	135.96	21.46	-47.5	-60.4	3.5	1.52e+00	0	29	104	0	60	36735
2026-01-13 13:22:03.51	136.16	21.36	-47.5	-60.4	3.5	1.52e+00	0	29	104	0	60	36609
2026-01-13 13:22:04.52	136.35	21.27	-47.5	-60.4	3.5	1.52e+00	0	29	104	0	60	36578
2026-01-13 13:22:05.52	136.54	21.17	-47.5	-60.3	3.5	1.52e+00	0	29	104	0	60	36422
2026-01-13 13:22:06.53	136.73	21.08	-47.5	-60.3	3.5	1.52e+00	0	28	104	0	60	36476
2026-01-13 13:22:07.54	136.92	20.98	-47.5	-60.3	3.5	1.52e+00	0	29	104	0	60	36539
2026-01-13 13:22:08.55	137.11	20.89	-47.4	-60.3	3.5	1.52e+00	0	29	104	0	60	36437
2026-01-13 13:22:09.56	137.30	20.79	-47.4	-60.3	3.5	1.52e+00	0	29	104	0	60	36481
2026-01-13 13:22:10.57	137.49	20.70	-47.4	-60.3	3.5	1.51e+00	0	29	104	0	60	36265
2026-01-13 13:22:11.58	137.68	20.61	-47.4	-60.3	3.5	1.52e+00	0	29	104	0	60	36446
2026-01-13 13:22:12.59	137.86	20.51	-47.4	-60.3	3.5	1.52e+00	0	29	104	0	60	36271
2026-01-13 13:22:13.60	138.05	20.42	-47.4	-60.2	3.5	1.52e+00	0	29	104	0	60	36104
2026-01-13 13:22:14.61	138.23	20.32	-47.4	-60.3	3.5	1.52e+00	0	29	104	0	60	36284
2026-01-13 13:22:15.62	138.41	20.23	-47.4	-60.2	3.5	1.51e+00	0	29	104	0	60	36045
2026-01-13 13:22:16.63	138.59	20.14	-47.4	-60.3	3.5	1.52e+00	0	29	104	0	60	36131
2026-01-13 13:22:17.64	138.77	20.04	-47.4	-60.2	3.5	1.52e+00	0	29	104	0	60	36061
2026-01-13 13:22:18.66	138.95	19.95	-47.4	-60.3	3.5	1.52e+00	0	29	104	0	60	36154
2026-01-13 13:22:19.67	139.13	19.85	-47.4	-60.2	3.5	1.52e+00	0	29	104	0	60	35992
2026-01-13 13:22:20.68	139.31	19.76	-47.4	-60.3	3.5	1.52e+00	0	29	104	0	60	36166
2026-01-13 13:22:21.68	139.48	19.67	-47.4	-60.2	3.5	1.52e+00	0	29	104	0	60	35988
2026-01-13 13:22:22.70	139.66	19.57	-47.4	-60.2	3.5	1.52e+00	0	29	104	0	60	35964
2026-01-13 13:22:23.71	139.83	19.48	-47.4	-60.2	3.5	1.52e+00	0	29	104	0	60	35877
2026-01-13 13:22:24.72	140.00	19.39	-47.4	-60.2	3.5	1.52e+00	0	29	104	0	60	35918
2026-01-13 13:22:25.73	140.17	19.29	-47.4	-60.2	3.5	1.52e+00	0	29	104	0	60	35995
2026-01-13 13:22:26.74	140.34	19.20	-47.4	-60.2	3.5	1.52e+00	0	29	104	0	60	35891
2026-01-13 13:22:27.74	140.51	19.11	-47.3	-60.2	3.5	1.52e+00	0	29	104	0	60	35822
2026-01-13 13:22:28.75	140.68	19.02	-47.3	-60.2	3.5	1.52e+00	0	29	104	0	60	35756
2026-01-13 13:22:29.76	140.85	18.92	-47.3	-60.2	3.5	1.52e+00	0	29	104	0	60	35856
2026-01-13 13:22:30.78	141.01	18.83	-47.3	-60.1	3.5	1.52e+00	0	29	104	0	60	35707
2026-01-13 13:22:31.78	141.18	18.74	-47.3	-60.1	3.5	1.52e+00	0	28	104	0	60	35606
2026-01-13 13:22:32.79	141.34	18.65	-47.3	-60.1	3.5	1.52e+00	0	29	104	0	60	35587
2026-01-13 13:22:33.80	141.51	18.55	-47.3	-60.1	3.5	1.52e+00	0	29	104	0	60	35554
2026-01-13 13:22:34.81	141.67	18.46	-47.3	-60.1	3.5	1.52e+00	0	29	104	0	60	35534
2026-01-13 13:22:35.82	141.83	18.37	-47.3	-60.1	3.5	1.52e+00	0	29	104	0	60	35358
2026-01-13 13:22:36.83	141.99	18.28	-47.3	-60.1	3.5	1.52e+00	0	28	104	0	60	35492
2026-01-13 13:22:37.84	142.15	18.19	-47.3	-60.1	3.5	1.52e+00	0	28	104	0	60	35313
2026-01-13 13:22:38.85	142.31	18.09	-47.2	-60.0	3.5	1.52e+00	0	29	104	0	60	35290
2026-01-13 13:22:39.86	142.47	18.00	-47.2	-60.0	3.5	1.52e+00	0	28	104	0	60	35270
2026-01-13 13:22:40.87	142.62	17.91	-47.2	-60.1	3.5	1.52e+00	0	28	104	0	60	35325
2026-01-13 13:22:41.88	142.78	17.82	-47.2	-60.0	3.5	1.52e+00	0	29	104	0	60	35241
2026-01-13 13:22:42.89	142.94	17.73	-47.2	-60.0	3.5	1.52e+00	0	29	104	0	60	35083
2026-01-13 13:22:43.90	143.09	17.64	-47.2	-60.0	3.5	1.52e+00	0	29	104	0	60	35162
2026-01-13 13:22:44.91	143.24	17.55	-47.2	-60.0	3.5	1.52e+00	0	28	104	0	60	35133
2026-01-13 13:22:45.92	143.40	17.46	-47.1	-60.0	3.5	1.52e+00	0	28	104	0	60	34967
2026-01-13 13:22:46.93	143.55	17.37	-47.1	-60.0	3.5	1.52e+00	0	28	104	0	60	34977
2026-01-13 13:22:47.94	143.70	17.28	-47.1	-60.0	3.5	1.52e+00	0	28	104	0	60	35143
2026-01-13 13:22:48.95	143.85	17.19	-47.1	-60.0	3.5	1.52e+00	0	29	104	0	60	34921
2026-01-13 13:22:49.96	144.00	17.10	-47.1	-60.0	3.5	1.52e+00	0	28	104	0	60	34993
2026-01-13 13:22:50.97	144.15	17.01	-47.1	-59.9	3.5	1.52e+00	0	29	104	0	60	34871
2026-01-13 13:22:51.98	144.29	16.92	-47.1	-59.9	3.5	1.52e+00	0	29	104	0	60	34870
2026-01-13 13:22:52.99	144.44	16.83	-47.1	-59.9	3.5	1.52e+00	0	29	104	0	60	34758
2026-01-13 13:22:54.00	144.58	16.74	-47.1	-59.9	3.5	1.52e+00	0	29	104	0	60	34730
2026-01-13 13:22:55.01	144.73	16.65	-47.0	-59.8	3.5	1.51e+00	0	29	104	0	60	34484
2026-01-13 13:22:56.02	144.87	16.56	-47.0	-59.9	3.5	1.52e+00	0	29	104	0	60	34625
2026-01-13 13:22:57.03	145.02	16.47	-47.0	-59.8	3.5	1.52e+00	0	29	104	0	60	34477
2026-01-13 13:22:58.04	145.16	16.38	-47.0	-59.8	3.5	1.51e+00	0	29	104	0	60	34287
2026-01-13 13:22:59.05	145.30	16.29	-47.0	-59.8	3.5	1.52e+00	0	29	104	0	60	34321
2026-01-13 13:23:00.06	145.44	16.20	-47.0	-59.8	3.5	1.52e+00	0	29	104	0	60	34275
2026-01-13 13:23:01.07	145.58	16.12	-46.9	-59.8	3.5	1.52e+00	0	28	104	0	60	34330
2026-01-13 13:23:02.08	145.72	16.03	-46.9	-59.8	3.5	1.52e+00	0	29	104	0	60	34242
2026-01-13 13:23:03.09	145.86	15.94	-46.9	-59.7	3.5	1.51e+00	0	28	104	0	60	34055
2026-01-13 13:23:04.10	146.00	15.85	-46.9	-59.7	3.5	1.52e+00	0	29	104	0	60	34041
2026-01-13 13:23:05.11	146.13	15.76	-46.9	-59.8	3.5	1.52e+00	0	29	104	0	60	34124
2026-01-13 13:23:06.12	146.27	15.68	-46.9	-59.7	3.5	1.52e+00	0	29	104	0	60	34002
2026-01-13 13:23:07.13	146.40	15.59	-47.5	-60.4	3.5	1.52e+00	0	28	104	0	60	36639
2026-01-13 13:23:08.14	146.54	15.50	-47.9	-60.7	3.5	1.52e+00	0	28	104	0	60	37881
2026-01-13 13:23:09.15	146.67	15.41	-48.1	-60.9	3.5	1.52e+00	0	28	104	0	60	38987
2026-01-13 13:23:10.16	146.80	15.33	-48.3	-61.1	3.5	1.52e+00	0	28	104	0	60	39869
2026-01-13 13:23:11.17	146.94	15.24	-48.3	-61.2	3.5	1.52e+00	0	28	104	0	60	40253
2026-01-13 13:23:12.18	147.07	15.15	-48.3	-61.3	3.5	1.52e+00	0	29	104	0	60	40557
2026-01-13 13:23:13.19	147.20	15.07	-48.3	-61.2	3.5	1.51e+00	0	28	104	0	60	40509
2026-01-13 13:23:14.20	147.33	14.98	-48.4	-61.3	3.5	1.52e+00	0	28	104	0	60	40579
2026-01-13 13:23:15.21	147.46	14.90	-48.4	-61.3	3.5	1.52e+00	0	29	104	0	60	40732
2026-01-13 13:23:16.22	147.59	14.81	-48.4	-61.3	3.5	1.52e+00	0	28	104	0	60	40703
2026-01-13 13:23:17.23	147.71	14.72	-48.2	-61.3	3.5	1.52e+00	0	28	104	0	60	40637
2026-01-13 13:23:18.24	147.84	14.64	-48.1	-61.3	3.5	1.52e+00	0	28	104	0	60	40641
2026-01-13 13:23:19.25	147.97	14.55	-48.3	-61.3	3.5	1.52e+00	0	28	104	0	60	40553
2026-01-13 13:23:20.26	148.09	14.47	-47.6	-61.3	3.5	1.52e+00	0	28	104	0	60	40655
2026-01-13 13:23:21.27	148.22	14.38	-48.4	-61.2	3.5	1.52e+00	0	28	104	0	60	40487
2026-01-13 13:23:22.28	148.34	14.30	-48.3	-61.2	3.5	1.52e+00	0	28	104	0	60	40363
2026-01-13 13:23:23.29	148.47	14.21	-48.4	-61.2	3.5	1.52e+00	0	28	104	0	60	40409
2026-01-13 13:23:24.30	148.59	14.13	-48.2	-61.1	3.5	1.52e+00	0	28	104	0	60	39923
2026-01-13 13:23:25.31	148.71	14.05	-47.5	-61.2	3.5	1.52e+00	0	28	104	0	60	40168
2026-01-13 13:23:26.32	148.83	13.96	-48.3	-61.1	3.5	1.52e+00	0	29	104	0	60	39920
2026-01-13 13:23:27.33	148.95	13.88	-48.1	-61.1	3.5	1.52e+00	0	28	104	0	60	39971
2026-01-13 13:23:28.34	149.07	13.79	-48.2	-61.0	3.5	1.51e+00	0	28	104	0	60	39595
2026-01-13 13:23:29.35	149.19	13.71	-47.8	-61.0	3.5	1.52e+00	0	28	104	0	60	39536
2026-01-13 13:23:30.36	149.31	13.63	-48.0	-61.0	3.5	1.52e+00	0	28	104	0	60	39260
2026-01-13 13:23:31.37	149.43	13.54	-38.6	-40.1	19.2	1.03e+00	0	28	104	0	50	6332
2026-01-13 13:23:32.38	149.55	13.46	-39.5	-40.8	19.2	0.00e+00	0	28	0	1048576	52	6132
2026-01-13 13:23:33.39	149.67	13.38	-37.7	-38.9	21.9	0.00e+00	0	28	0	4194304	50	5468
2026-01-13 13:23:34.40	149.78	13.29	-35.5	-36.4	22.6	0.00e+00	0	28	0	7340032	44	5853
2026-01-13 13:23:35.40	149.90	13.21	-45.3	-49.4	12.1	1.36e+00	0	28	104	9437184	60	10341
2026-01-13 13:23:36.42	150.01	13.13	-38.2	-39.4	21.4	2.69e-02	0	28	0	10485760	56	4101
2026-01-13 13:23:37.43	150.13	13.05	-41.9	-43.6	17.6	5.74e-04	0	28	0	13631488	60	5301
2026-01-13 13:23:38.44	150.24	12.97	-36.7	-37.8	21.8	0.00e+00	0	28	0	16777216	48	5421
2026-01-13 13:23:39.45	150.36	12.88	-36.4	-37.4	22.0	0.00e+00	0	28	0	19922944	46	5806
2026-01-13 13:23:40.46	150.47	12.80	-35.8	-36.8	22.7	0.00e+00	0	28	0	23068672	46	5414
2026-01-13 13:23:41.47	150.58	12.72	-35.3	-36.2	23.0	0.00e+00	0	28	0	26214400	44	5708
2026-01-13 13:23:42.48	150.69	12.64	-35.0	-35.9	23.3	0.00e+00	0	28	0	29360128	44	5528
2026-01-13 13:23:43.49	150.80	12.56	-35.1	-36.1	23.2	0.00e+00	0	28	0	32505856	44	5615
2026-01-13 13:23:44.50	150.91	12.48	-35.1	-36.1	23.2	0.00e+00	0	29	0	35651584	44	5604
2026-01-13 13:23:45.51	151.02	12.40	-35.3	-36.3	23.1	0.00e+00	0	29	0	38797312	44	5734
2026-01-13 13:23:46.52	151.13	12.32	-35.2	-36.2	23.1	0.00e+00	0	28	0	41943040	44	5661
2026-01-13 13:23:47.52	151.24	12.24	-35.3	-36.3	23.0	0.00e+00	0	28	0	45088768	44	5739
2026-01-13 13:23:48.53	151.35	12.16	-35.6	-36.6	22.7	0.00e+00	0	28	0	48234496	44	5938
2026-01-13 13:23:49.55	151.46	12.07	-35.1	-36.0	23.2	0.00e+00	0	28	0	51380224	44	5563
2026-01-13 13:23:50.55	151.56	12.00	-35.2	-36.2	23.2	0.00e+00	0	28	0	54525952	44	5666
2026-01-13 13:23:51.56	151.67	11.92	-35.4	-36.3	23.0	0.00e+00	0	28	0	57671680	44	5788
2026-01-13 13:23:52.58	151.78	11.84	-35.3	-36.3	23.0	0.00e+00	0	28	0	60817408	44	5727
2026-01-13 13:23:53.59	151.88	11.76	-35.3	-36.3	23.0	0.00e+00	0	28	0	63963136	44	5753
2026-01-13 13:23:54.59	151.99	11.68	-35.3	-36.3	22.9	0.00e+00	0	28	0	67108864	44	5776
2026-01-13 13:23:55.61	152.09	11.60	-35.4	-36.4	22.8	0.00e+00	0	28	0	70254592	44	5816
2026-01-13 13:23:56.62	152.20	11.52	-35.6	-36.6	22.7	0.00e+00	0	28	0	73400320	44	5955
2026-01-13 13:23:57.63	152.30	11.44	-35.6	-36.6	22.6	0.00e+00	0	29	0	76546048	44	5949
2026-01-13 13:23:58.64	152.40	11.36	-35.6	-36.6	22.7	0.00e+00	0	29	0	79691776	44	5928
2026-01-13 13:23:59.65	152.50	11.28	-35.7	-36.7	22.5	0.00e+00	0	28	0	82837504	44	6047
2026-01-13 13:24:00.65	152.61	11.21	-35.6	-36.6	22.5	0.00e+00	0	28	0	85983232	44	5972
2026-01-13 13:24:01.66	152.71	11.13	-35.7	-36.7	22.3	0.00e+00	0	28	0	89128960	44	6063
2026-01-13 13:24:02.67	152.81	11.05	-35.9	-36.9	22.3	0.00e+00	0	28	0	92274688	44	6162
2026-01-13 13:24:03.68	152.91	10.97	-36.0	-37.0	22.1	0.00e+00	0	28	0	95420416	44	6276
2026-01-13 13:24:04.69	153.01	10.89	-36.1	-37.1	22.0	0.00e+00	0	28	0	98566144	44	6345
2026-01-13 13:24:05.70	153.11	10.82	-36.3	-37.3	21.8	0.00e+00	0	29	0	101711872	44	6478
2026-01-13 13:24:06.71	153.20	10.74	-36.4	-37.5	21.6	0.00e+00	0	29	0	104857600	44	6600
2026-01-13 13:24:07.72	153.30	10.66	-36.8	-37.9	21.2	0.00e+00	0	28	0	108003328	46	6153
2026-01-13 13:24:08.73	153.40	10.59	-36.9	-38.1	21.0	0.00e+00	0	28	0	111149056	46	6296
2026-01-13 13:24:09.73	153.50	10.51	-37.1	-38.3	20.7	0.00e+00	0	28	0	114294784	46	6450
2026-01-13 13:24:10.74	153.59	10.43	-37.4	-38.6	20.4	0.00e+00	0	29	0	117440512	46	6664
2026-01-13 13:24:11.75	153.69	10.36	-37.7	-39.0	20.0	0.00e+00	0	28	0	120586240	48	6213
2026-01-13 13:24:12.76	153.79	10.28	-37.8	-39.0	19.9	0.00e+00	0	28	0	123731968	48	6257
2026-01-13 13:24:13.77	153.88	10.21	-38.1	-39.3	19.5	0.00e+00	0	28	0	126877696	48	6497
2026-01-13 13:24:14.78	153.98	10.13	-38.3	-39.6	19.2	0.00e+00	0	28	0	130023424	48	6703
2026-01-13 13:24:15.79	154.07	10.05	-38.8	-40.2	18.6	0.00e+00	0	28	0	133169152	48	7171
2026-01-13 13:24:16.80	154.16	9.98	-38.8	-40.2	18.4	0.00e+00	0	28	0	136314880	50	6386
2026-01-13 13:24:17.81	154.26	9.90	-39.1	-40.6	18.1	0.00e+00	0	28	0	139460608	50	6667
2026-01-13 13:24:18.82	154.35	9.83	-39.4	-41.0	17.7	0.00e+00	0	28	0	142606336	50	6991
2026-01-13 13:24:19.83	154.44	9.75	-39.6	-41.2	17.3	0.00e+00	0	28	0	145752064	50	7177
2026-01-13 13:24:20.84	154.53	9.68	-40.1	-41.9	16.7	0.00e+00	0	28	0	148897792	52	6905
2026-01-13 13:24:21.85	154.63	9.60	-40.4	-42.2	16.3	0.00e+00	0	28	0	152043520	52	7177
2026-01-13 13:24:22.86	154.72	9.53	-40.6	-42.5	16.0	0.00e+00	0	28	0	155189248	52	7455
2026-01-13 13:24:23.87	154.81	9.45	-40.8	-42.8	15.6	0.00e+00	0	28	0	158334976	54	6865
2026-01-13 13:24:24.88	154.90	9.38	-41.1	-43.1	15.2	0.00e+00	0	29	0	161480704	54	7112
2026-01-13 13:24:25.89	154.99	9.31	-41.0	-43.1	15.3	0.00e+00	0	28	0	164626432	54	7076
2026-01-13 13:24:26.90	155.08	9.23	-41.2	-43.3	15.2	0.00e+00	0	28	0	167772160	54	7224
2026-01-13 13:24:27.91	155.17	9.16	-40.7	-42.6	15.9	0.00e+00	0	28	0	170917888	54	6695
2026-01-13 13:24:28.92	155.25	9.08	-40.4	-42.3	16.3	0.00e+00	0	28	0	174063616	54	6424
