passes_logs/2026/01/13/R4.6S_Anadyr/R4.6S_Anadyr__20260113_023538_FENGYUN_3D_rec.log

#Pass ID: 20260113_023538_FENGYUN 3D
#Satellite: FENGYUN 3D
#Configuration: FENGYUN 3D
#almurnet v.1.7.20251203
#Start time: 2026-01-13 02:35:40

#Version: 2.2.20231116
#Station: R4.6S_Anadyr
#Location: 177.4865 lon 64.73178 lat
#TLE: 1 43010U 17072A   26012.32543542  .00000598  00000+0  30457-3 0  9997
#TLE: 2 43010  98.9935 344.1005 0002233 112.6136 247.5276 14.19696644422876

#Time	Az	El	Level	Level2	SNR	BER	BlckErr	Temp	State	Recorded	gain1	gain2
2026-01-13 02:35:40.04	164.59	0.11	-48.7	-63.6	3.5	1.51e+00	0	24	0	0	60	54422
2026-01-13 02:35:41.05	164.61	0.17	-48.8	-60.9	3.6	8.45e-01	0	25	104	0	60	39939
2026-01-13 02:35:42.06	164.62	0.23	-48.8	-60.9	3.6	8.45e-01	0	25	104	0	60	40063
2026-01-13 02:35:43.07	164.64	0.29	-48.7	-60.9	3.6	8.45e-01	0	25	104	0	60	39974
2026-01-13 02:35:44.08	164.65	0.35	-48.8	-60.9	3.6	8.45e-01	0	25	104	0	60	40019
2026-01-13 02:35:45.09	164.66	0.41	-48.8	-60.9	3.6	8.45e-01	0	26	104	0	60	40165
2026-01-13 02:35:46.10	164.68	0.47	-48.8	-60.9	3.6	8.45e-01	0	26	104	0	60	40297
2026-01-13 02:35:47.09	164.69	0.53	-48.8	-60.8	3.6	8.47e-01	0	26	104	0	60	39780
2026-01-13 02:35:48.10	164.71	0.59	-48.7	-60.8	3.6	8.46e-01	0	26	104	0	60	39812
2026-01-13 02:35:49.11	164.72	0.66	-48.4	-60.8	3.6	8.45e-01	0	26	104	0	60	39434
2026-01-13 02:35:50.12	164.74	0.72	-48.5	-60.6	3.6	8.44e-01	0	26	104	0	60	38726
2026-01-13 02:35:51.13	164.75	0.78	-48.3	-60.4	3.6	8.45e-01	0	26	104	0	60	38062
2026-01-13 02:35:52.14	164.77	0.84	-48.1	-60.2	3.6	8.46e-01	0	26	104	0	60	37132
2026-01-13 02:35:53.15	164.78	0.90	-46.6	-58.9	3.6	8.45e-01	0	26	104	0	60	31725
2026-01-13 02:35:54.16	164.79	0.97	-47.7	-59.8	3.6	8.45e-01	0	26	104	0	60	35332
2026-01-13 02:35:55.17	164.81	1.03	-47.4	-59.2	3.6	8.45e-01	0	26	104	0	60	32969
2026-01-13 02:35:56.18	164.82	1.09	-47.3	-59.4	3.6	8.45e-01	0	26	104	0	60	33650
2026-01-13 02:35:57.19	164.84	1.15	-47.3	-59.3	3.6	8.46e-01	0	26	104	0	60	33475
2026-01-13 02:35:58.20	164.85	1.22	-47.3	-59.3	3.6	8.46e-01	0	26	104	0	60	33509
2026-01-13 02:35:59.21	164.87	1.28	-47.3	-59.3	3.6	8.45e-01	0	26	104	0	60	33456
2026-01-13 02:36:00.22	164.88	1.34	-47.3	-59.3	3.6	8.44e-01	0	26	104	0	60	33186
2026-01-13 02:36:01.23	164.90	1.40	-47.3	-59.3	3.6	8.43e-01	0	26	104	0	60	33198
2026-01-13 02:36:02.24	164.91	1.47	-47.3	-59.3	3.6	8.45e-01	0	26	104	0	60	33501
2026-01-13 02:36:03.25	164.93	1.53	-47.2	-59.3	3.6	8.45e-01	0	26	104	0	60	33207
2026-01-13 02:36:04.26	164.94	1.60	-47.2	-59.3	3.6	8.45e-01	0	26	104	0	60	33402
2026-01-13 02:36:05.27	164.96	1.66	-47.3	-59.3	3.6	8.45e-01	0	26	104	0	60	33326
2026-01-13 02:36:06.28	164.98	1.72	-47.2	-59.3	3.6	8.46e-01	0	26	104	0	60	33532
2026-01-13 02:36:07.29	164.99	1.79	-47.2	-59.3	3.6	8.46e-01	0	26	104	0	60	33200
2026-01-13 02:36:08.30	165.01	1.85	-47.2	-59.2	3.6	8.44e-01	0	26	104	0	60	33000
2026-01-13 02:36:09.31	165.02	1.91	-47.2	-59.1	3.6	8.45e-01	0	26	104	0	60	32752
2026-01-13 02:36:10.32	165.04	1.98	-47.2	-59.0	3.6	8.45e-01	0	26	104	0	60	32118
2026-01-13 02:36:11.33	165.05	2.04	-47.2	-58.9	3.6	8.45e-01	0	26	104	0	60	31939
2026-01-13 02:36:12.34	165.07	2.11	-47.2	-58.7	3.6	8.46e-01	0	26	104	0	60	31203
2026-01-13 02:36:13.35	165.08	2.17	-47.1	-58.5	3.6	8.45e-01	0	26	104	0	60	30463
2026-01-13 02:36:14.36	165.10	2.24	-47.1	-58.6	3.6	8.45e-01	0	26	104	0	60	30600
2026-01-13 02:36:15.37	165.12	2.30	-47.1	-58.3	3.6	8.45e-01	0	26	104	0	60	29600
2026-01-13 02:36:16.38	165.13	2.37	-47.1	-57.9	3.6	8.45e-01	0	26	104	0	60	28505
2026-01-13 02:36:17.39	165.15	2.43	-47.0	-57.7	3.6	8.43e-01	0	26	104	0	60	27643
2026-01-13 02:36:18.40	165.16	2.50	-47.0	-57.3	3.6	8.45e-01	0	26	104	0	60	26358
2026-01-13 02:36:19.41	165.18	2.57	-47.0	-56.8	3.8	8.43e-01	0	26	104	0	60	25104
2026-01-13 02:36:20.42	165.20	2.63	-47.0	-56.8	3.8	8.43e-01	0	26	104	0	60	24982
2026-01-13 02:36:21.43	165.21	2.70	-47.0	-56.9	3.8	8.43e-01	0	26	104	0	60	25288
2026-01-13 02:36:22.44	165.23	2.76	-47.0	-56.6	3.6	8.42e-01	0	26	104	0	60	24454
2026-01-13 02:36:23.45	165.24	2.83	-47.0	-57.2	3.6	8.44e-01	0	26	104	0	60	26158
2026-01-13 02:36:24.46	165.26	2.90	-47.0	-56.6	3.6	8.44e-01	0	26	104	0	60	24534
2026-01-13 02:36:25.46	165.28	2.96	-46.5	-52.8	4.8	8.17e-01	0	26	0	0	60	15700
2026-01-13 02:36:26.47	165.29	3.03	-45.7	-50.2	7.3	2.57e-01	0	26	0	4194304	60	11679
2026-01-13 02:36:27.48	165.31	3.10	-44.7	-47.9	10.0	1.16e-02	0	26	0	9437184	60	9017
2026-01-13 02:36:28.50	165.33	3.16	-43.1	-45.4	13.0	6.74e-04	0	26	0	15728640	60	6712
2026-01-13 02:36:29.50	165.34	3.23	-41.6	-43.3	14.9	2.20e-06	0	26	0	20971520	56	6643
2026-01-13 02:36:30.51	165.36	3.30	-40.5	-42.0	16.5	0.00e+00	0	26	0	26214400	56	5706
2026-01-13 02:36:31.52	165.38	3.37	-39.4	-40.6	17.9	0.00e+00	0	26	0	32505856	52	6146
2026-01-13 02:36:32.53	165.39	3.43	-38.6	-39.7	18.7	0.00e+00	0	26	0	37748736	50	6235
2026-01-13 02:36:33.54	165.41	3.50	-37.5	-38.5	19.7	0.00e+00	0	26	0	44040192	48	6085
2026-01-13 02:36:34.55	165.43	3.57	-37.4	-38.4	19.9	0.00e+00	0	26	0	49283072	48	5995
2026-01-13 02:36:35.56	165.45	3.64	-37.1	-38.1	20.1	0.00e+00	0	26	0	54525952	48	5793
2026-01-13 02:36:36.57	165.46	3.71	-37.6	-38.5	19.6	0.00e+00	0	26	0	60817408	48	6088
2026-01-13 02:36:37.58	165.48	3.78	-38.2	-39.2	18.9	0.00e+00	0	26	0	66060288	48	6612
2026-01-13 02:36:38.59	165.50	3.84	-42.8	-45.1	11.6	0.00e+00	0	26	0	72351744	54	9192
2026-01-13 02:36:39.60	165.51	3.91	-38.3	-39.3	19.4	2.16e-04	0	26	0	75497472	54	4716
2026-01-13 02:36:40.61	165.53	3.98	-39.2	-40.4	16.9	0.00e+00	0	26	0	81788928	50	6712
2026-01-13 02:36:41.62	165.55	4.05	-44.1	-46.7	11.6	6.18e-01	0	26	0	85983232	60	7779
2026-01-13 02:36:42.63	165.57	4.12	-41.9	-43.8	13.0	0.00e+00	0	26	0	91226112	52	8850
2026-01-13 02:36:43.64	165.58	4.19	-45.7	-50.6	9.2	8.43e-01	0	26	104	92274688	60	12265
2026-01-13 02:36:44.65	165.60	4.26	-42.1	-43.9	14.0	2.40e-05	0	26	0	95420416	58	6356
2026-01-13 02:36:45.66	165.62	4.33	-42.8	-45.0	14.1	3.89e-05	0	26	0	101711872	58	7197
2026-01-13 02:36:46.67	165.64	4.40	-41.7	-43.4	13.6	1.10e-06	0	26	0	106954752	58	6019
2026-01-13 02:36:47.68	165.66	4.47	-42.7	-44.8	14.2	8.00e-06	0	26	0	113246208	58	7044
2026-01-13 02:36:48.69	165.67	4.54	-41.2	-42.7	15.7	0.00e+00	0	26	0	118489088	56	6244
2026-01-13 02:36:49.69	165.69	4.61	-41.4	-43.0	14.3	1.10e-06	0	27	0	123731968	56	6464
2026-01-13 02:36:50.71	165.71	4.68	-41.2	-42.8	15.2	0.00e+00	0	26	0	130023424	56	6258
2026-01-13 02:36:51.71	165.73	4.75	-41.9	-43.6	15.9	3.40e-06	0	26	0	135266304	56	6877
2026-01-13 02:36:52.72	165.75	4.83	-40.7	-42.1	15.2	0.00e+00	0	26	0	141557760	56	5807
2026-01-13 02:36:53.73	165.76	4.90	-40.9	-42.4	15.6	0.00e+00	0	26	0	146800640	54	6726
2026-01-13 02:36:54.74	165.78	4.97	-40.2	-41.5	16.5	0.00e+00	0	26	0	153092096	54	6093
2026-01-13 02:36:55.75	165.80	5.04	-40.2	-41.5	17.3	0.00e+00	0	26	0	158334976	54	6056
2026-01-13 02:36:56.76	165.82	5.11	-39.8	-41.0	17.1	0.00e+00	0	26	0	163577856	52	6441
2026-01-13 02:36:57.77	165.84	5.19	-39.9	-41.2	17.2	0.00e+00	0	26	0	169869312	52	6578
2026-01-13 02:36:58.78	165.86	5.26	-39.8	-41.0	17.7	0.00e+00	0	26	0	175112192	52	6435
2026-01-13 02:36:59.79	165.88	5.33	-39.1	-40.2	18.3	0.00e+00	0	26	0	181403648	52	5864
2026-01-13 02:37:00.80	165.89	5.40	-38.0	-39.0	19.5	0.00e+00	0	26	0	186646528	50	5729
2026-01-13 02:37:01.81	165.91	5.48	-37.6	-38.6	20.2	0.00e+00	0	26	0	191889408	48	6136
2026-01-13 02:37:02.82	165.93	5.55	-36.9	-37.8	20.7	0.00e+00	0	26	0	198180864	48	5584
2026-01-13 02:37:03.83	165.95	5.62	-36.6	-37.5	21.1	0.00e+00	0	26	0	203423744	46	6040
2026-01-13 02:37:04.84	165.97	5.70	-35.9	-36.7	21.9	0.00e+00	0	26	0	209715200	46	5515
2026-01-13 02:37:05.85	165.99	5.77	-35.4	-36.1	22.4	0.00e+00	0	26	0	214958080	44	5811
2026-01-13 02:37:06.86	166.01	5.85	-35.4	-36.2	22.3	0.00e+00	0	26	0	221249536	44	5829
2026-01-13 02:37:07.87	166.03	5.92	-35.1	-35.8	22.6	0.00e+00	0	27	0	226492416	44	5626
2026-01-13 02:37:08.88	166.05	5.99	-34.8	-35.6	22.9	0.00e+00	0	26	0	231735296	44	5463
2026-01-13 02:37:09.89	166.07	6.07	-34.8	-35.5	23.0	0.00e+00	0	26	0	238026752	44	5423
2026-01-13 02:37:10.89	166.09	6.14	-34.7	-35.5	23.1	0.00e+00	0	27	0	243269632	42	6034
2026-01-13 02:37:11.90	166.11	6.22	-34.8	-35.6	23.0	0.00e+00	0	26	0	249561088	42	6130
2026-01-13 02:37:12.91	166.13	6.29	-34.7	-35.4	23.1	0.00e+00	0	26	0	254803968	42	6030
2026-01-13 02:37:13.92	166.15	6.37	-34.7	-35.5	23.0	0.00e+00	0	26	0	260046848	42	6045
2026-01-13 02:37:14.93	166.17	6.45	-34.5	-35.2	23.3	0.00e+00	0	26	0	266338304	42	5873
2026-01-13 02:37:15.94	166.19	6.52	-34.5	-35.2	23.3	0.00e+00	0	26	0	271581184	42	5884
2026-01-13 02:37:16.95	166.21	6.60	-34.7	-35.4	23.2	0.00e+00	0	26	0	277872640	42	6008
2026-01-13 02:37:17.96	166.23	6.68	-34.5	-35.2	23.3	0.00e+00	0	27	0	283115520	42	5870
2026-01-13 02:37:18.97	166.25	6.75	-34.4	-35.1	23.5	0.00e+00	0	26	0	288358400	42	5814
2026-01-13 02:37:19.98	166.27	6.83	-34.4	-35.1	23.4	0.00e+00	0	26	0	294649856	42	5827
2026-01-13 02:37:20.99	166.29	6.91	-34.4	-35.2	23.5	0.00e+00	0	26	0	299892736	42	5847
2026-01-13 02:37:22.00	166.31	6.98	-34.3	-35.0	23.7	0.00e+00	0	26	0	306184192	42	5746
2026-01-13 02:37:23.01	166.33	7.06	-34.2	-34.9	23.7	0.00e+00	0	26	0	311427072	42	5651
2026-01-13 02:37:24.02	166.35	7.14	-34.2	-34.9	23.7	0.00e+00	0	26	0	317718528	42	5648
2026-01-13 02:37:25.03	166.37	7.22	-34.2	-34.9	23.7	0.00e+00	0	26	0	322961408	42	5688
2026-01-13 02:37:26.04	166.39	7.30	-34.1	-34.8	23.8	0.00e+00	0	26	0	328204288	42	5621
2026-01-13 02:37:27.05	166.41	7.37	-34.1	-34.8	23.8	0.00e+00	0	26	0	334495744	42	5616
2026-01-13 02:37:28.06	166.43	7.45	-34.3	-35.1	23.6	0.00e+00	0	26	0	339738624	42	5766
2026-01-13 02:37:29.07	166.46	7.53	-34.2	-34.9	23.7	0.00e+00	0	27	0	346030080	42	5678
2026-01-13 02:37:30.08	166.48	7.61	-34.2	-35.0	23.7	0.00e+00	0	27	0	351272960	42	5699
2026-01-13 02:37:31.09	166.50	7.69	-34.0	-34.7	23.9	0.00e+00	0	27	0	357564416	42	5545
2026-01-13 02:37:32.09	166.52	7.77	-34.0	-34.8	23.9	0.00e+00	0	27	0	362807296	42	5571
2026-01-13 02:37:33.10	166.54	7.85	-34.1	-34.9	23.8	0.00e+00	0	27	0	368050176	42	5632
2026-01-13 02:37:34.11	166.56	7.93	-34.2	-34.9	23.7	0.00e+00	0	26	0	374341632	42	5662
2026-01-13 02:37:35.12	166.59	8.01	-34.3	-35.0	23.8	0.00e+00	0	26	0	379584512	42	5709
2026-01-13 02:37:36.13	166.61	8.09	-34.3	-35.0	23.7	0.00e+00	0	26	0	384827392	42	5733
2026-01-13 02:37:37.14	166.63	8.17	-34.3	-35.0	23.7	0.00e+00	0	27	0	391118848	42	5737
2026-01-13 02:37:38.15	166.65	8.25	-33.9	-34.6	24.0	0.00e+00	0	26	0	396361728	42	5486
2026-01-13 02:37:39.16	166.67	8.34	-33.9	-34.6	24.1	0.00e+00	0	26	0	402653184	42	5462
2026-01-13 02:37:40.17	166.70	8.42	-33.9	-34.6	24.1	0.00e+00	0	26	0	407896064	42	5480
2026-01-13 02:37:41.17	166.72	8.50	-33.8	-34.5	24.2	0.00e+00	0	27	0	414187520	40	6053
2026-01-13 02:37:42.18	166.74	8.58	-33.8	-34.5	24.1	0.00e+00	0	27	0	419430400	40	6095
2026-01-13 02:37:43.19	166.76	8.67	-33.7	-34.4	24.2	0.00e+00	0	27	0	425721856	40	5992
2026-01-13 02:37:44.20	166.79	8.75	-33.9	-34.5	24.1	0.00e+00	0	26	0	430964736	40	6091
2026-01-13 02:37:45.22	166.81	8.83	-33.8	-34.5	24.1	0.00e+00	0	27	0	436207616	40	6069
2026-01-13 02:37:46.23	166.83	8.92	-33.7	-34.4	24.3	0.00e+00	0	27	0	442499072	40	6017
2026-01-13 02:37:47.24	166.86	9.00	-33.7	-34.4	24.2	0.00e+00	0	27	0	447741952	40	5966
2026-01-13 02:37:48.25	166.88	9.08	-33.7	-34.4	24.3	0.00e+00	0	26	0	454033408	40	6012
2026-01-13 02:37:49.26	166.90	9.17	-33.7	-34.4	24.3	0.00e+00	0	26	0	459276288	40	5981
2026-01-13 02:37:50.27	166.93	9.25	-33.7	-34.4	24.3	0.00e+00	0	27	0	464519168	40	5983
2026-01-13 02:37:51.27	166.95	9.34	-33.7	-34.4	24.4	0.00e+00	0	26	0	470810624	40	5990
2026-01-13 02:37:52.28	166.97	9.42	-33.7	-34.5	24.3	0.00e+00	0	26	0	476053504	40	6041
2026-01-13 02:37:53.29	167.00	9.51	-33.6	-34.3	24.4	0.00e+00	0	27	0	482344960	40	5935
2026-01-13 02:37:54.30	167.02	9.59	-33.6	-34.3	24.3	0.00e+00	0	27	0	487587840	40	5963
2026-01-13 02:37:55.31	167.05	9.68	-33.8	-34.5	24.3	0.00e+00	0	27	0	492830720	40	6046
2026-01-13 02:37:56.32	167.07	9.77	-33.6	-34.4	24.4	0.00e+00	0	27	0	499122176	40	5972
2026-01-13 02:37:57.33	167.09	9.85	-33.6	-34.3	24.5	0.00e+00	0	27	0	504365056	40	5899
2026-01-13 02:37:58.34	167.12	9.94	-33.5	-34.2	24.5	0.00e+00	0	27	0	510656512	40	5866
2026-01-13 02:37:59.35	167.14	10.03	-33.6	-34.3	24.5	0.00e+00	0	27	0	515899392	40	5947
2026-01-13 02:38:00.36	167.17	10.11	-33.6	-34.2	24.5	0.00e+00	0	27	0	522190848	40	5888
2026-01-13 02:38:01.37	167.19	10.20	-33.7	-34.4	24.3	0.00e+00	0	27	0	527433728	40	6019
2026-01-13 02:38:02.38	167.22	10.29	-33.5	-34.2	24.6	0.00e+00	0	27	0	532676608	40	5865
2026-01-13 02:38:03.39	167.24	10.38	-33.7	-34.4	24.4	0.00e+00	0	27	0	538968064	40	5977
2026-01-13 02:38:04.40	167.27	10.47	-33.5	-34.2	24.5	0.00e+00	0	27	0	544210944	40	5857
2026-01-13 02:38:05.41	167.29	10.56	-33.4	-34.1	24.6	0.00e+00	0	27	0	550502400	40	5814
2026-01-13 02:38:06.42	167.32	10.65	-33.5	-34.1	24.6	0.00e+00	0	27	0	555745280	40	5827
2026-01-13 02:38:07.43	167.34	10.74	-33.5	-34.1	24.6	0.00e+00	0	27	0	560988160	40	5825
2026-01-13 02:38:08.44	167.37	10.83	-33.5	-34.2	24.5	0.00e+00	0	27	0	567279616	40	5890
2026-01-13 02:38:09.45	167.40	10.92	-33.4	-34.1	24.6	0.00e+00	0	27	0	572522496	40	5814
2026-01-13 02:38:10.46	167.42	11.01	-33.4	-34.1	24.7	0.00e+00	0	27	0	578813952	40	5773
2026-01-13 02:38:11.47	167.45	11.10	-33.4	-34.1	24.6	0.00e+00	0	27	0	584056832	40	5813
2026-01-13 02:38:12.48	167.48	11.19	-33.3	-34.0	24.7	0.00e+00	0	27	0	589299712	40	5751
2026-01-13 02:38:13.49	167.50	11.28	-33.3	-34.0	24.8	0.00e+00	0	27	0	595591168	40	5718
2026-01-13 02:38:14.50	167.53	11.37	-33.4	-34.1	24.7	0.00e+00	0	27	0	600834048	40	5770
2026-01-13 02:38:15.51	167.56	11.47	-33.3	-34.0	24.8	0.00e+00	0	27	0	607125504	40	5726
2026-01-13 02:38:16.52	167.58	11.56	-33.3	-34.0	24.8	0.00e+00	0	26	0	612368384	40	5722
2026-01-13 02:38:17.53	167.61	11.65	-33.3	-34.0	24.8	0.00e+00	0	27	0	618659840	40	5697
2026-01-13 02:38:18.54	167.64	11.75	-33.2	-33.9	24.9	0.00e+00	0	26	0	623902720	40	5668
2026-01-13 02:38:19.55	167.66	11.84	-33.3	-33.9	24.9	0.00e+00	0	27	0	630194176	40	5681
2026-01-13 02:38:20.55	167.69	11.93	-33.3	-34.0	24.9	0.00e+00	0	26	0	635437056	40	5702
2026-01-13 02:38:21.56	167.72	12.03	-33.4	-34.1	24.8	0.00e+00	0	27	0	640679936	40	5785
2026-01-13 02:38:22.57	167.75	12.12	-33.2	-33.9	24.9	0.00e+00	0	27	0	646971392	40	5661
2026-01-13 02:38:23.58	167.77	12.22	-33.2	-33.8	25.0	0.00e+00	0	27	0	652214272	40	5605
2026-01-13 02:38:24.59	167.80	12.31	-33.1	-33.8	25.0	0.00e+00	0	26	0	658505728	40	5608
2026-01-13 02:38:25.60	167.83	12.41	-33.2	-33.9	24.9	0.00e+00	0	26	0	663748608	40	5659
2026-01-13 02:38:26.60	167.86	12.51	-33.2	-33.8	25.0	0.00e+00	0	27	0	668991488	40	5625
2026-01-13 02:38:27.61	167.89	12.60	-33.2	-33.8	24.9	0.00e+00	0	27	0	675282944	40	5627
2026-01-13 02:38:28.63	167.92	12.70	-33.1	-33.8	25.1	0.00e+00	0	27	0	680525824	40	5579
2026-01-13 02:38:29.64	167.95	12.80	-33.1	-33.8	25.0	0.00e+00	0	26	0	686817280	40	5600
2026-01-13 02:38:30.64	167.98	12.90	-33.1	-33.7	25.1	0.00e+00	0	27	0	692060160	40	5562
2026-01-13 02:38:31.65	168.00	12.99	-33.0	-33.7	25.1	0.00e+00	0	27	0	697303040	40	5535
2026-01-13 02:38:32.67	168.03	13.09	-33.1	-33.8	25.1	0.00e+00	0	27	0	703594496	40	5587
2026-01-13 02:38:33.67	168.06	13.19	-33.1	-33.7	25.1	0.00e+00	0	27	0	708837376	40	5563
2026-01-13 02:38:34.68	168.09	13.29	-33.1	-33.8	25.1	0.00e+00	0	27	0	715128832	40	5620
2026-01-13 02:38:35.69	168.12	13.39	-33.0	-33.7	25.1	0.00e+00	0	27	0	720371712	40	5513
2026-01-13 02:38:36.70	168.15	13.49	-33.0	-33.6	25.2	0.00e+00	0	27	0	726663168	40	5488
2026-01-13 02:38:37.71	168.18	13.59	-32.7	-33.4	25.4	0.00e+00	0	27	0	731906048	40	5358
2026-01-13 02:38:38.72	168.22	13.69	-32.8	-33.5	25.3	0.00e+00	0	27	0	737148928	38	6061
2026-01-13 02:38:39.73	168.25	13.80	-32.8	-33.5	25.3	0.00e+00	0	26	0	743440384	38	6091
2026-01-13 02:38:40.74	168.28	13.90	-32.6	-33.3	25.6	0.00e+00	0	26	0	748683264	38	5927
2026-01-13 02:38:41.75	168.31	14.00	-32.7	-33.4	25.5	0.00e+00	0	27	0	754974720	38	6008
2026-01-13 02:38:42.76	168.34	14.10	-32.7	-33.3	25.3	0.00e+00	0	27	0	760217600	38	5951
2026-01-13 02:38:43.77	168.37	14.21	-32.5	-33.2	25.6	0.00e+00	0	27	0	765460480	38	5835
2026-01-13 02:38:44.78	168.40	14.31	-32.5	-33.2	25.7	0.00e+00	0	27	0	771751936	38	5845
2026-01-13 02:38:45.79	168.44	14.42	-32.5	-33.2	25.6	0.00e+00	0	27	0	776994816	38	5874
2026-01-13 02:38:46.80	168.47	14.52	-32.5	-33.2	25.7	0.00e+00	0	27	0	783286272	38	5841
2026-01-13 02:38:47.81	168.50	14.62	-32.2	-32.9	25.9	0.00e+00	0	27	0	788529152	38	5648
2026-01-13 02:38:48.82	168.53	14.73	-32.2	-32.9	25.8	0.00e+00	0	27	0	793772032	38	5663
2026-01-13 02:38:49.83	168.56	14.84	-32.3	-32.9	25.8	0.00e+00	0	27	0	800063488	38	5693
2026-01-13 02:38:50.84	168.60	14.94	-32.0	-32.6	26.1	0.00e+00	0	27	0	805306368	38	5472
2026-01-13 02:38:51.85	168.63	15.05	-32.0	-32.7	26.1	0.00e+00	0	27	0	811597824	38	5505
2026-01-13 02:38:52.86	168.66	15.16	-32.0	-32.6	26.1	0.00e+00	0	27	0	816840704	38	5486
2026-01-13 02:38:53.87	168.70	15.27	-31.9	-32.5	26.2	0.00e+00	0	27	0	823132160	38	5427
2026-01-13 02:38:54.88	168.73	15.37	-32.0	-32.6	26.2	0.00e+00	0	27	0	828375040	38	5480
2026-01-13 02:38:55.89	168.77	15.48	-31.8	-32.4	26.4	0.00e+00	0	27	0	834666496	38	5344
2026-01-13 02:38:56.90	168.80	15.59	-31.6	-32.2	26.4	0.00e+00	0	27	0	839909376	36	5890
2026-01-13 02:38:57.90	168.83	15.70	-31.7	-32.3	26.3	0.00e+00	0	27	0	845152256	36	5929
2026-01-13 02:38:58.91	168.87	15.81	-31.5	-32.1	26.5	0.00e+00	0	27	0	851443712	36	5797
2026-01-13 02:38:59.92	168.90	15.92	-31.5	-32.2	26.5	0.00e+00	0	27	0	856686592	36	5854
2026-01-13 02:39:00.93	168.94	16.03	-31.5	-32.2	26.5	0.00e+00	0	27	0	861929472	36	5835
2026-01-13 02:39:01.94	168.97	16.14	-31.6	-32.2	26.5	0.00e+00	0	27	0	868220928	36	5893
2026-01-13 02:39:02.95	169.01	16.26	-31.3	-31.9	26.8	0.00e+00	0	27	0	873463808	36	5678
2026-01-13 02:39:03.96	169.05	16.37	-31.2	-31.9	26.7	0.00e+00	0	27	0	879755264	36	5632
2026-01-13 02:39:04.97	169.08	16.48	-31.2	-31.8	26.8	0.00e+00	0	27	0	884998144	36	5627
2026-01-13 02:39:05.97	169.12	16.60	-31.2	-31.9	26.8	0.00e+00	0	27	0	890241024	36	5638
2026-01-13 02:39:06.98	169.16	16.71	-31.2	-31.8	26.9	0.00e+00	0	27	0	896532480	36	5577
2026-01-13 02:39:07.99	169.19	16.82	-31.3	-32.0	26.7	0.00e+00	0	27	0	901775360	36	5706
2026-01-13 02:39:09.00	169.23	16.94	-31.1	-31.8	26.9	0.00e+00	0	27	0	908066816	36	5592
2026-01-13 02:39:10.01	169.27	17.06	-31.2	-31.8	26.8	0.00e+00	0	27	0	913309696	36	5619
2026-01-13 02:39:11.02	169.30	17.17	-31.2	-31.8	26.9	0.00e+00	0	27	0	919601152	36	5583
2026-01-13 02:39:12.03	169.34	17.29	-31.1	-31.8	26.9	0.00e+00	0	27	0	924844032	36	5567
2026-01-13 02:39:13.04	169.38	17.41	-31.1	-31.7	26.9	0.00e+00	0	27	0	931135488	36	5527
2026-01-13 02:39:14.05	169.42	17.53	-31.2	-31.8	26.9	0.00e+00	0	27	0	936378368	36	5602
2026-01-13 02:39:15.05	169.46	17.64	-31.1	-31.7	27.0	0.00e+00	0	27	0	941621248	36	5542
2026-01-13 02:39:16.06	169.50	17.76	-31.1	-31.7	27.0	0.00e+00	0	27	0	947912704	36	5527
2026-01-13 02:39:17.07	169.54	17.88	-31.1	-31.7	27.0	0.00e+00	0	27	0	953155584	36	5532
2026-01-13 02:39:18.08	169.58	18.00	-31.1	-31.7	27.0	0.00e+00	0	27	0	958398464	36	5563
2026-01-13 02:39:19.09	169.62	18.12	-31.0	-31.6	27.1	0.00e+00	0	27	0	964689920	36	5488
2026-01-13 02:39:20.10	169.66	18.25	-31.1	-31.7	27.1	0.00e+00	0	27	0	969932800	36	5517
2026-01-13 02:39:21.11	169.70	18.37	-31.2	-31.8	27.0	0.00e+00	0	27	0	976224256	36	5572
2026-01-13 02:39:22.12	169.74	18.49	-31.0	-31.7	27.0	0.00e+00	0	27	0	981467136	36	5515
2026-01-13 02:39:23.13	169.78	18.61	-31.1	-31.8	27.0	0.00e+00	0	27	0	986710016	36	5576
2026-01-13 02:39:24.14	169.82	18.74	-31.1	-31.7	27.0	0.00e+00	0	27	0	993001472	36	5556
2026-01-13 02:39:25.15	169.86	18.86	-30.9	-31.5	27.2	0.00e+00	0	27	0	998244352	36	5431
2026-01-13 02:39:26.16	169.90	18.99	-30.9	-31.6	27.1	0.00e+00	0	27	0	1004535808	36	5463
2026-01-13 02:39:27.17	169.95	19.11	-31.0	-31.6	27.1	0.00e+00	0	27	0	1009778688	36	5451
2026-01-13 02:39:28.17	169.99	19.24	-30.9	-31.6	27.1	0.00e+00	0	27	0	1016070144	36	5463
2026-01-13 02:39:29.19	170.03	19.37	-31.0	-31.6	27.1	0.00e+00	0	27	0	1021313024	36	5455
2026-01-13 02:39:30.20	170.07	19.49	-30.7	-31.3	27.3	0.00e+00	0	27	0	1027604480	34	5952
2026-01-13 02:39:31.21	170.12	19.62	-30.7	-31.3	27.3	0.00e+00	0	27	0	1032847360	34	5964
2026-01-13 02:39:32.21	170.16	19.75	-30.6	-31.3	27.4	0.00e+00	0	27	0	1038090240	34	5901
2026-01-13 02:39:33.22	170.21	19.88	-30.5	-31.1	27.4	0.00e+00	0	27	0	1044381696	34	5826
2026-01-13 02:39:34.24	170.25	20.01	-30.6	-31.2	27.4	0.00e+00	0	27	0	1049624576	34	5840
2026-01-13 02:39:35.24	170.30	20.14	-30.4	-31.0	27.5	0.00e+00	0	27	0	1055916032	34	5759
2026-01-13 02:39:36.25	170.34	20.27	-30.4	-31.0	27.5	0.00e+00	0	27	0	1061158912	34	5740
2026-01-13 02:39:37.26	170.39	20.41	-30.5	-31.1	27.6	0.00e+00	0	27	0	1066401792	34	5791
2026-01-13 02:39:38.27	170.43	20.54	-30.5	-31.1	27.5	0.00e+00	0	27	0	1072693248	34	5770
2026-01-13 02:39:39.28	170.48	20.67	-30.4	-31.0	27.6	0.00e+00	0	27	0	1077936128	34	5716
2026-01-13 02:39:40.29	170.53	20.81	-30.5	-31.1	27.5	0.00e+00	0	27	0	1084227584	34	5776
2026-01-13 02:39:41.30	170.57	20.94	-30.3	-30.9	27.6	0.00e+00	0	27	0	1089470464	34	5691
2026-01-13 02:39:42.31	170.62	21.08	-30.3	-30.9	27.6	0.00e+00	0	27	0	1094713344	34	5675
2026-01-13 02:39:43.32	170.67	21.22	-30.3	-30.9	27.6	0.00e+00	0	27	0	1101004800	34	5673
2026-01-13 02:39:44.33	170.72	21.35	-30.3	-30.9	27.7	0.00e+00	0	27	0	1106247680	34	5640
2026-01-13 02:39:45.34	170.77	21.49	-30.3	-31.0	27.7	0.00e+00	0	27	0	1112539136	34	5698
2026-01-13 02:39:46.35	170.82	21.63	-30.2	-30.8	27.8	0.00e+00	0	27	0	1117782016	34	5573
2026-01-13 02:39:47.36	170.87	21.77	-30.3	-30.9	27.6	0.00e+00	0	27	0	1124073472	34	5668
2026-01-13 02:39:48.37	170.92	21.91	-30.1	-30.7	27.8	0.00e+00	0	27	0	1129316352	34	5549
2026-01-13 02:39:49.38	170.97	22.05	-30.2	-30.8	27.8	0.00e+00	0	27	0	1134559232	34	5588
2026-01-13 02:39:50.39	171.02	22.19	-30.1	-30.8	27.8	0.00e+00	0	27	0	1140850688	34	5574
2026-01-13 02:39:51.40	171.07	22.33	-30.2	-30.8	27.8	0.00e+00	0	27	0	1146093568	34	5599
2026-01-13 02:39:52.41	171.12	22.48	-30.4	-30.9	27.6	0.00e+00	0	27	0	1152385024	34	5688
2026-01-13 02:39:53.42	171.17	22.62	-30.3	-31.0	27.5	0.00e+00	0	27	0	1157627904	34	5696
2026-01-13 02:39:54.43	171.22	22.77	-30.4	-31.0	27.6	0.00e+00	0	27	0	1162870784	34	5743
2026-01-13 02:39:55.44	171.28	22.91	-30.4	-31.0	27.5	0.00e+00	0	27	0	1169162240	34	5719
2026-01-13 02:39:56.44	171.33	23.06	-30.4	-31.0	27.6	0.00e+00	0	27	0	1174405120	34	5752
2026-01-13 02:39:57.45	171.38	23.21	-30.3	-30.9	27.7	0.00e+00	0	27	0	1180696576	34	5662
2026-01-13 02:39:58.46	171.44	23.35	-30.3	-31.0	27.7	0.00e+00	0	27	0	1185939456	34	5709
2026-01-13 02:39:59.47	171.49	23.50	-30.4	-31.1	27.6	0.00e+00	0	27	0	1191182336	34	5764
2026-01-13 02:40:00.48	171.55	23.65	-30.1	-30.8	27.8	0.00e+00	0	27	0	1197473792	34	5570
2026-01-13 02:40:01.49	171.61	23.80	-30.2	-30.8	27.7	0.00e+00	0	27	0	1202716672	34	5602
2026-01-13 02:40:02.50	171.66	23.96	-30.0	-30.6	27.9	0.00e+00	0	27	0	1209008128	34	5497
2026-01-13 02:40:03.51	171.72	24.11	-30.0	-30.6	27.9	0.00e+00	0	27	0	1214251008	34	5478
2026-01-13 02:40:04.51	171.78	24.26	-30.1	-30.7	27.9	0.00e+00	0	27	0	1220542464	34	5527
2026-01-13 02:40:05.52	171.83	24.41	-29.8	-30.3	28.1	0.00e+00	0	27	0	1225785344	34	5312
2026-01-13 02:40:06.53	171.89	24.57	-29.7	-30.3	28.1	0.00e+00	0	27	0	1231028224	32	5935
2026-01-13 02:40:07.54	171.95	24.73	-29.7	-30.3	28.2	0.00e+00	0	27	0	1237319680	32	5922
2026-01-13 02:40:08.55	172.01	24.88	-29.8	-30.4	28.1	0.00e+00	0	27	0	1242562560	32	5983
2026-01-13 02:40:09.56	172.07	25.04	-29.8	-30.4	28.1	0.00e+00	0	27	0	1248854016	32	5980
2026-01-13 02:40:10.57	172.13	25.20	-29.7	-30.3	28.1	0.00e+00	0	27	0	1254096896	32	5945
2026-01-13 02:40:11.58	172.19	25.36	-29.6	-30.2	28.2	0.00e+00	0	27	0	1259339776	32	5870
2026-01-13 02:40:12.59	172.26	25.52	-29.7	-30.3	28.2	0.00e+00	0	27	0	1265631232	32	5909
2026-01-13 02:40:13.60	172.32	25.68	-29.6	-30.2	28.3	0.00e+00	0	27	0	1270874112	32	5887
2026-01-13 02:40:14.61	172.38	25.84	-29.7	-30.4	28.2	0.00e+00	0	27	0	1277165568	32	5967
2026-01-13 02:40:15.61	172.44	26.00	-29.7	-30.3	28.1	0.00e+00	0	27	0	1282408448	32	5911
2026-01-13 02:40:16.63	172.51	26.17	-29.8	-30.4	28.1	0.00e+00	0	27	0	1287651328	32	6012
2026-01-13 02:40:17.63	172.57	26.33	-29.8	-30.4	28.1	0.00e+00	0	27	0	1293942784	32	6031
2026-01-13 02:40:18.64	172.64	26.50	-29.8	-30.4	28.1	0.00e+00	0	27	0	1299185664	32	6010
2026-01-13 02:40:19.65	172.71	26.67	-29.7	-30.3	28.2	0.00e+00	0	27	0	1305477120	32	5924
2026-01-13 02:40:20.66	172.77	26.84	-29.8	-30.4	28.2	0.00e+00	0	27	0	1310720000	32	5981
2026-01-13 02:40:21.67	172.84	27.01	-29.6	-30.2	28.3	0.00e+00	0	27	0	1317011456	32	5887
2026-01-13 02:40:22.68	172.91	27.18	-29.6	-30.2	28.2	0.00e+00	0	27	0	1322254336	32	5877
2026-01-13 02:40:23.69	172.98	27.35	-29.7	-30.3	28.2	0.00e+00	0	27	0	1328545792	32	5900
2026-01-13 02:40:24.70	173.05	27.52	-29.7	-30.4	28.1	0.00e+00	0	27	0	1333788672	32	5975
2026-01-13 02:40:25.71	173.12	27.69	-29.8	-30.4	28.1	0.00e+00	0	27	0	1339031552	32	6026
2026-01-13 02:40:26.72	173.19	27.87	-29.9	-30.5	28.0	0.00e+00	0	27	0	1345323008	32	6062
2026-01-13 02:40:27.73	173.26	28.04	-29.9	-30.5	28.1	0.00e+00	0	27	0	1350565888	32	6060
2026-01-13 02:40:28.74	173.33	28.22	-29.9	-30.5	28.1	0.00e+00	0	27	0	1356857344	32	6072
2026-01-13 02:40:29.75	173.41	28.40	-29.8	-30.4	28.1	0.00e+00	0	27	0	1362100224	32	5999
2026-01-13 02:40:30.76	173.48	28.58	-29.9	-30.5	28.1	0.00e+00	0	27	0	1367343104	32	6059
2026-01-13 02:40:31.77	173.56	28.76	-29.8	-30.4	28.1	0.00e+00	0	27	0	1373634560	32	6005
2026-01-13 02:40:32.78	173.63	28.94	-29.9	-30.4	28.2	0.00e+00	0	27	0	1378877440	32	6028
2026-01-13 02:40:33.79	173.71	29.12	-29.8	-30.3	28.2	0.00e+00	0	27	0	1385168896	32	5955
2026-01-13 02:40:34.80	173.79	29.30	-29.8	-30.4	28.1	0.00e+00	0	27	0	1390411776	32	6033
2026-01-13 02:40:35.80	173.86	29.49	-30.0	-30.6	28.0	0.00e+00	0	27	0	1395654656	32	6125
2026-01-13 02:40:36.81	173.94	29.67	-29.9	-30.5	28.1	0.00e+00	0	27	0	1401946112	32	6086
2026-01-13 02:40:37.83	174.02	29.86	-30.1	-30.8	27.9	0.00e+00	0	27	0	1407188992	32	6267
2026-01-13 02:40:38.84	174.10	30.05	-30.0	-30.6	27.8	0.00e+00	0	27	0	1413480448	32	6126
2026-01-13 02:40:39.84	174.19	30.24	-30.1	-30.7	27.9	0.00e+00	0	27	0	1418723328	32	6209
2026-01-13 02:40:40.85	174.27	30.43	-30.0	-30.6	27.9	0.00e+00	0	27	0	1425014784	32	6140
2026-01-13 02:40:41.86	174.35	30.62	-29.8	-30.4	28.2	0.00e+00	0	27	0	1430257664	32	5985
2026-01-13 02:40:42.87	174.44	30.81	-29.6	-30.2	28.4	0.00e+00	0	27	0	1435500544	32	5848
2026-01-13 02:40:43.88	174.52	31.01	-29.7	-30.3	28.1	0.00e+00	0	27	0	1441792000	32	5926
2026-01-13 02:40:44.89	174.61	31.20	-29.3	-29.9	28.5	0.00e+00	0	27	0	1447034880	32	5668
2026-01-13 02:40:45.90	174.70	31.40	-29.2	-29.7	28.6	0.00e+00	0	27	0	1453326336	32	5555
2026-01-13 02:40:46.91	174.78	31.60	-29.1	-29.7	28.7	0.00e+00	0	27	0	1458569216	32	5527
2026-01-13 02:40:47.92	174.87	31.79	-29.1	-29.6	28.7	0.00e+00	0	27	0	1463812096	32	5502
2026-01-13 02:40:48.93	174.96	31.99	-29.3	-29.9	28.5	0.00e+00	0	27	0	1470103552	32	5643
2026-01-13 02:40:49.94	175.06	32.20	-29.4	-30.0	28.5	0.00e+00	0	27	0	1475346432	32	5707
2026-01-13 02:40:50.95	175.15	32.40	-29.6	-30.2	28.4	0.00e+00	0	27	0	1481637888	32	5834
2026-01-13 02:40:51.96	175.24	32.60	-29.7	-30.3	28.3	0.00e+00	0	27	0	1486880768	32	5900
2026-01-13 02:40:52.97	175.34	32.81	-29.6	-30.3	28.2	0.00e+00	0	27	0	1492123648	32	5899
2026-01-13 02:40:53.97	175.43	33.01	-29.5	-30.1	28.4	0.00e+00	0	27	0	1498415104	32	5792
2026-01-13 02:40:54.98	175.53	33.22	-29.4	-30.1	28.4	0.00e+00	0	27	0	1503657984	32	5763
2026-01-13 02:40:55.99	175.63	33.43	-29.3	-29.8	28.4	0.00e+00	0	27	0	1509949440	32	5621
2026-01-13 02:40:57.00	175.73	33.64	-29.4	-30.0	28.5	0.00e+00	0	27	0	1515192320	32	5714
2026-01-13 02:40:58.01	175.83	33.85	-29.4	-29.9	28.5	0.00e+00	0	27	0	1521483776	32	5694
2026-01-13 02:40:59.02	175.93	34.07	-29.5	-30.1	28.4	0.00e+00	0	27	0	1526726656	32	5764
2026-01-13 02:41:00.03	176.04	34.28	-29.5	-30.1	28.4	0.00e+00	0	27	0	1531969536	32	5775
2026-01-13 02:41:01.04	176.14	34.50	-29.5	-30.1	28.4	0.00e+00	0	27	0	1538260992	32	5800
2026-01-13 02:41:02.05	176.25	34.72	-29.5	-30.1	28.3	0.00e+00	0	27	0	1543503872	32	5820
2026-01-13 02:41:03.06	176.36	34.94	-29.4	-30.0	28.4	0.00e+00	0	27	0	1549795328	32	5748
2026-01-13 02:41:04.07	176.47	35.16	-29.3	-29.9	28.4	0.00e+00	0	27	0	1555038208	32	5674
2026-01-13 02:41:05.08	176.58	35.38	-29.3	-29.9	28.5	0.00e+00	0	27	0	1560281088	32	5670
2026-01-13 02:41:06.09	176.69	35.60	-29.3	-29.9	28.6	0.00e+00	0	27	0	1566572544	32	5653
2026-01-13 02:41:07.10	176.80	35.83	-29.3	-29.9	28.5	0.00e+00	0	27	0	1571815424	32	5679
2026-01-13 02:41:08.11	176.92	36.05	-29.2	-29.8	28.6	0.00e+00	0	27	0	1578106880	32	5611
2026-01-13 02:41:09.12	177.03	36.28	-29.2	-29.7	28.7	0.00e+00	0	27	0	1583349760	32	5548
2026-01-13 02:41:10.13	177.15	36.51	-29.1	-29.7	28.7	0.00e+00	0	27	0	1588592640	32	5528
2026-01-13 02:41:11.14	177.27	36.74	-28.8	-29.4	28.9	0.00e+00	0	27	0	1594884096	32	5331
2026-01-13 02:41:12.15	177.39	36.98	-28.8	-29.3	28.8	0.00e+00	0	27	0	1600126976	30	5961
2026-01-13 02:41:13.16	177.52	37.21	-28.7	-29.3	29.0	0.00e+00	0	27	0	1606418432	30	5935
2026-01-13 02:41:14.17	177.64	37.45	-28.8	-29.4	29.0	0.00e+00	0	27	0	1611661312	30	5965
2026-01-13 02:41:15.18	177.77	37.68	-28.9	-29.4	28.9	0.00e+00	0	27	0	1617952768	30	6032
2026-01-13 02:41:16.19	177.90	37.92	-29.0	-29.6	28.7	0.00e+00	0	27	0	1623195648	30	6116
2026-01-13 02:41:17.20	178.03	38.16	-28.9	-29.5	28.8	0.00e+00	0	27	0	1629487104	30	6089
2026-01-13 02:41:18.20	178.16	38.40	-29.0	-29.6	28.8	0.00e+00	0	27	0	1634729984	30	6148
2026-01-13 02:41:19.22	178.29	38.65	-29.0	-29.6	28.7	0.00e+00	0	27	0	1639972864	30	6142
2026-01-13 02:41:20.23	178.43	38.89	-29.3	-29.8	28.6	0.00e+00	0	27	0	1646264320	30	6317
2026-01-13 02:41:21.24	178.57	39.14	-29.3	-29.9	28.6	0.00e+00	0	27	0	1651507200	30	6361
2026-01-13 02:41:22.25	178.71	39.39	-29.5	-30.1	28.4	0.00e+00	0	27	0	1657798656	30	6491
2026-01-13 02:41:23.25	178.85	39.63	-29.5	-30.1	28.4	0.00e+00	0	27	0	1663041536	30	6477
2026-01-13 02:41:24.26	178.99	39.88	-29.7	-30.3	28.4	0.00e+00	0	27	0	1668284416	30	6627
2026-01-13 02:41:25.27	179.14	40.14	-29.4	-30.0	28.5	0.00e+00	0	27	0	1674575872	30	6445
2026-01-13 02:41:26.28	179.29	40.39	-29.4	-30.0	28.5	0.00e+00	0	27	0	1679818752	30	6446
2026-01-13 02:41:27.29	179.44	40.65	-29.1	-29.6	28.7	0.00e+00	0	27	0	1686110208	30	6152
2026-01-13 02:41:28.30	179.59	40.91	-29.0	-29.6	28.7	0.00e+00	0	27	0	1691353088	30	6132
2026-01-13 02:41:29.31	179.75	41.16	-29.1	-29.7	28.7	0.00e+00	0	27	0	1696595968	30	6183
2026-01-13 02:41:30.32	179.91	41.43	-29.4	-29.9	28.5	0.00e+00	0	27	0	1702887424	30	6381
2026-01-13 02:41:31.33	180.07	41.69	-29.6	-30.2	28.4	0.00e+00	0	27	0	1708130304	30	6551
2026-01-13 02:41:32.33	180.23	41.95	-29.7	-30.3	28.2	0.00e+00	0	27	0	1714421760	32	5956
2026-01-13 02:41:33.35	180.40	42.22	-29.8	-30.4	28.1	0.00e+00	0	27	0	1719664640	32	6018
2026-01-13 02:41:34.36	180.57	42.49	-29.8	-30.4	28.2	0.00e+00	0	27	0	1725956096	32	6020
2026-01-13 02:41:35.37	180.74	42.76	-29.7	-30.3	28.3	0.00e+00	0	27	0	1731198976	32	5946
2026-01-13 02:41:36.38	180.91	43.03	-29.8	-30.3	28.2	0.00e+00	0	27	0	1736441856	32	5964
2026-01-13 02:41:37.38	181.09	43.30	-29.6	-30.2	28.4	0.00e+00	0	27	0	1742733312	32	5837
2026-01-13 02:41:38.39	181.27	43.57	-29.7	-30.3	28.4	0.00e+00	0	27	0	1747976192	32	5938
2026-01-13 02:41:39.40	181.45	43.85	-29.5	-30.1	28.5	0.00e+00	0	27	0	1754267648	32	5789
2026-01-13 02:41:40.41	181.64	44.12	-29.5	-30.1	28.4	0.00e+00	0	27	0	1759510528	32	5813
2026-01-13 02:41:41.43	181.83	44.41	-29.3	-29.9	28.6	0.00e+00	0	27	0	1764753408	32	5688
2026-01-13 02:41:42.43	182.02	44.68	-29.4	-30.0	28.5	0.00e+00	0	27	0	1771044864	32	5707
2026-01-13 02:41:43.44	182.22	44.97	-29.5	-30.1	28.5	0.00e+00	0	27	0	1776287744	32	5805
2026-01-13 02:41:44.45	182.42	45.25	-29.8	-30.3	28.2	0.00e+00	0	27	0	1782579200	32	5959
2026-01-13 02:41:45.46	182.62	45.54	-29.9	-30.5	28.1	0.00e+00	0	27	0	1787822080	32	6048
2026-01-13 02:41:46.47	182.83	45.82	-29.6	-30.2	28.3	0.00e+00	0	27	0	1793064960	32	5877
2026-01-13 02:41:47.48	183.04	46.11	-29.5	-30.1	28.4	0.00e+00	0	27	0	1799356416	32	5800
2026-01-13 02:41:48.49	183.25	46.40	-29.5	-30.1	28.4	0.00e+00	0	27	0	1804599296	32	5825
2026-01-13 02:41:49.50	183.47	46.70	-29.3	-29.9	28.5	0.00e+00	0	27	0	1810890752	32	5638
2026-01-13 02:41:50.51	183.70	46.99	-29.5	-30.1	28.4	0.00e+00	0	27	0	1816133632	32	5810
2026-01-13 02:41:51.52	183.92	47.29	-29.5	-30.2	28.4	0.00e+00	0	27	0	1822425088	32	5837
2026-01-13 02:41:52.53	184.15	47.58	-29.5	-30.1	28.4	0.00e+00	0	27	0	1827667968	32	5799
2026-01-13 02:41:53.54	184.39	47.88	-29.6	-30.2	28.4	0.00e+00	0	27	0	1833959424	32	5851
2026-01-13 02:41:54.54	184.63	48.18	-29.7	-30.3	28.3	0.00e+00	0	27	0	1839202304	32	5932
2026-01-13 02:41:55.55	184.87	48.48	-29.7	-30.3	28.3	0.00e+00	0	27	0	1844445184	32	5924
2026-01-13 02:41:56.56	185.12	48.79	-29.7	-30.4	28.3	0.00e+00	0	27	0	1850736640	32	5968
2026-01-13 02:41:57.57	185.37	49.09	-29.7	-30.3	28.3	0.00e+00	0	27	0	1855979520	32	5941
2026-01-13 02:41:58.58	185.63	49.40	-29.7	-30.3	28.3	0.00e+00	0	27	0	1861222400	32	5909
2026-01-13 02:41:59.59	185.90	49.70	-29.7	-30.3	28.3	0.00e+00	0	27	0	1867513856	32	5927
2026-01-13 02:42:00.60	186.17	50.01	-29.6	-30.2	28.3	0.00e+00	0	27	0	1872756736	32	5867
2026-01-13 02:42:01.61	186.44	50.33	-29.9	-30.5	28.1	0.00e+00	0	27	0	1879048192	32	6044
2026-01-13 02:42:02.62	186.72	50.64	-30.3	-30.9	27.9	0.00e+00	0	27	0	1884291072	32	6373
2026-01-13 02:42:03.63	187.01	50.95	-30.5	-31.1	27.8	0.00e+00	0	27	0	1889533952	32	6471
2026-01-13 02:42:04.64	187.30	51.27	-30.1	-30.8	28.0	0.00e+00	0	27	0	1895825408	32	6256
2026-01-13 02:42:05.65	187.60	51.58	-30.1	-30.7	28.0	0.00e+00	0	27	0	1901068288	32	6208
2026-01-13 02:42:06.66	187.90	51.90	-30.2	-30.8	27.9	0.00e+00	0	27	0	1907359744	32	6285
2026-01-13 02:42:07.67	188.22	52.22	-30.6	-31.2	27.6	0.00e+00	0	27	0	1912602624	32	6543
2026-01-13 02:42:08.68	188.53	52.54	-30.8	-31.4	27.5	0.00e+00	0	27	0	1918894080	34	5998
2026-01-13 02:42:09.69	188.86	52.86	-30.5	-31.1	27.6	0.00e+00	0	27	0	1924136960	34	5810
2026-01-13 02:42:10.70	189.19	53.18	-30.7	-31.3	27.5	0.00e+00	0	27	0	1930428416	34	5945
2026-01-13 02:42:11.71	189.53	53.51	-30.7	-31.3	27.6	0.00e+00	0	27	0	1935671296	34	5901
2026-01-13 02:42:12.72	189.88	53.83	-30.7	-31.4	27.5	0.00e+00	0	27	0	1940914176	34	5980
2026-01-13 02:42:13.73	190.23	54.16	-30.6	-31.2	27.7	0.00e+00	0	27	0	1947205632	34	5847
2026-01-13 02:42:14.74	190.60	54.48	-30.8	-31.4	27.5	0.00e+00	0	27	0	1952448512	34	5998
2026-01-13 02:42:15.75	190.97	54.81	-31.1	-31.7	27.2	0.00e+00	0	27	0	1958739968	34	6215
2026-01-13 02:42:16.76	191.35	55.14	-31.1	-31.7	27.2	0.00e+00	0	27	0	1963982848	34	6226
2026-01-13 02:42:17.77	191.74	55.47	-30.8	-31.4	27.4	0.00e+00	0	27	0	1969225728	34	5997
2026-01-13 02:42:18.78	192.13	55.80	-30.4	-31.1	27.7	0.00e+00	0	27	0	1975517184	34	5771
2026-01-13 02:42:19.78	192.54	56.13	-30.3	-30.9	27.9	0.00e+00	0	27	0	1980760064	34	5650
2026-01-13 02:42:20.79	192.95	56.46	-30.5	-31.1	27.6	0.00e+00	0	27	0	1987051520	34	5796
2026-01-13 02:42:21.80	193.38	56.79	-30.5	-31.1	27.6	0.00e+00	0	27	0	1992294400	34	5821
2026-01-13 02:42:22.81	193.82	57.12	-30.5	-31.1	27.5	0.00e+00	0	27	0	1997537280	34	5764
2026-01-13 02:42:23.83	194.27	57.46	-30.3	-30.9	27.5	0.00e+00	0	27	0	2003828736	34	5640
2026-01-13 02:42:24.83	194.72	57.79	-30.0	-30.6	28.0	0.00e+00	0	27	0	2009071616	34	5492
2026-01-13 02:42:25.85	195.20	58.12	-30.0	-30.6	27.9	0.00e+00	0	27	0	2015363072	34	5474
2026-01-13 02:42:26.86	195.68	58.46	-30.2	-30.8	27.9	0.00e+00	0	27	0	2020605952	34	5604
2026-01-13 02:42:27.87	196.17	58.79	-29.8	-30.4	28.2	0.00e+00	0	27	0	2026897408	34	5323
2026-01-13 02:42:28.88	196.68	59.12	-29.8	-30.4	28.1	0.00e+00	0	27	0	2032140288	32	5997
2026-01-13 02:42:29.89	197.20	59.45	-30.2	-30.8	27.9	0.00e+00	0	27	0	2038431744	32	6254
2026-01-13 02:42:30.90	197.73	59.79	-29.7	-30.3	28.2	0.00e+00	0	27	0	2043674624	32	5920
2026-01-13 02:42:31.91	198.28	60.12	-29.7	-30.3	28.2	0.00e+00	0	27	0	2048917504	32	5952
2026-01-13 02:42:32.92	198.84	60.45	-29.5	-30.1	28.4	0.00e+00	0	27	0	2055208960	32	5791
2026-01-13 02:42:33.93	199.41	60.78	-29.3	-29.9	28.5	0.00e+00	0	27	0	2060451840	32	5670
2026-01-13 02:42:34.94	200.00	61.11	-29.5	-30.1	28.4	0.00e+00	0	27	0	2066743296	32	5762
2026-01-13 02:42:35.95	200.61	61.44	-29.5	-30.1	28.3	0.00e+00	0	27	0	2071986176	32	5769
2026-01-13 02:42:36.96	201.23	61.76	-29.2	-29.8	28.5	0.00e+00	0	27	0	2077229056	32	5619
2026-01-13 02:42:37.96	201.86	62.09	-29.1	-29.7	28.6	0.00e+00	0	27	0	2083520512	32	5522
2026-01-13 02:42:38.97	202.52	62.41	-29.2	-29.8	28.4	0.00e+00	0	27	0	2088763392	32	5573
2026-01-13 02:42:39.98	203.19	62.73	-29.3	-29.9	28.5	0.00e+00	0	27	0	2094006272	32	5669
2026-01-13 02:42:40.99	203.88	63.05	-29.3	-30.0	28.4	0.00e+00	0	27	0	2100297728	32	5708
2026-01-13 02:42:42.00	204.59	63.37	-29.1	-29.7	28.6	0.00e+00	0	27	0	2105540608	32	5519
2026-01-13 02:42:43.01	205.32	63.69	-29.2	-29.7	28.6	0.00e+00	0	27	0	2111832064	32	5547
2026-01-13 02:42:44.02	206.07	64.00	-29.1	-29.7	28.7	0.00e+00	0	27	0	2117074944	32	5546
2026-01-13 02:42:45.03	206.84	64.31	-28.8	-29.4	28.9	0.00e+00	0	27	0	2123366400	32	5362
2026-01-13 02:42:46.04	207.63	64.62	-28.9	-29.5	28.8	0.00e+00	0	27	0	2128609280	32	5416
2026-01-13 02:42:47.05	208.44	64.93	-29.0	-29.6	28.7	0.00e+00	0	27	0	2134900736	32	5483
2026-01-13 02:42:48.06	209.27	65.23	-29.2	-29.8	28.6	0.00e+00	0	27	0	2140143616	32	5623
2026-01-13 02:42:49.07	210.13	65.53	-28.9	-29.5	28.8	0.00e+00	0	27	0	2145386496	32	5383
2026-01-13 02:42:50.08	211.01	65.82	-28.8	-29.4	28.9	0.00e+00	0	27	0	2151677952	32	5342
2026-01-13 02:42:51.09	211.91	66.11	-28.9	-29.6	28.7	0.00e+00	0	27	0	2156920832	32	5457
2026-01-13 02:42:52.09	212.83	66.40	-28.9	-29.5	28.8	0.00e+00	0	27	0	2163212288	32	5391
2026-01-13 02:42:53.10	213.78	66.68	-29.0	-29.5	28.7	0.00e+00	0	27	0	2168455168	32	5438
2026-01-13 02:42:54.11	214.75	66.95	-29.1	-29.8	28.7	0.00e+00	0	27	0	2173698048	32	5583
2026-01-13 02:42:55.12	215.75	67.22	-29.1	-29.7	28.7	0.00e+00	0	27	0	2179989504	32	5544
2026-01-13 02:42:56.13	216.78	67.49	-29.0	-29.6	28.7	0.00e+00	0	27	0	2185232384	32	5458
2026-01-13 02:42:57.14	217.84	67.75	-28.8	-29.4	29.0	0.00e+00	0	27	0	2191523840	30	5977
2026-01-13 02:42:58.15	218.92	68.00	-28.4	-29.0	29.1	0.00e+00	0	27	0	2196766720	30	5732
2026-01-13 02:42:59.16	220.02	68.25	-28.8	-29.4	28.8	0.00e+00	0	27	0	2202009600	30	6020
2026-01-13 02:43:00.17	221.16	68.49	-28.8	-29.4	28.9	0.00e+00	0	27	0	2208301056	30	5972
2026-01-13 02:43:01.18	222.32	68.72	-28.5	-29.1	29.0	0.00e+00	0	27	0	2213543936	30	5794
2026-01-13 02:43:02.19	223.51	68.94	-28.6	-29.2	29.0	0.00e+00	0	27	0	2219835392	30	5867
2026-01-13 02:43:03.20	224.72	69.16	-28.7	-29.3	28.8	0.00e+00	0	27	0	2225078272	30	5932
2026-01-13 02:43:04.21	225.97	69.37	-28.4	-28.9	29.1	0.00e+00	0	27	0	2231369728	30	5688
2026-01-13 02:43:05.22	227.24	69.57	-28.5	-29.1	29.1	0.00e+00	0	27	0	2236612608	30	5788
2026-01-13 02:43:06.22	228.52	69.75	-28.9	-29.6	28.7	0.00e+00	0	27	0	2241855488	30	6131
2026-01-13 02:43:07.23	229.84	69.93	-29.0	-29.7	28.6	0.00e+00	0	27	0	2248146944	30	6178
2026-01-13 02:43:08.25	231.20	70.11	-28.7	-29.3	28.9	0.00e+00	0	27	0	2253389824	30	5919
2026-01-13 02:43:09.25	232.55	70.27	-28.6	-29.1	29.0	0.00e+00	0	27	0	2259681280	30	5817
2026-01-13 02:43:10.27	233.96	70.42	-28.4	-29.0	29.1	0.00e+00	0	27	0	2264924160	30	5724
2026-01-13 02:43:11.27	235.36	70.56	-28.4	-29.1	29.0	0.00e+00	0	27	0	2270167040	30	5786
2026-01-13 02:43:12.28	236.80	70.69	-28.5	-29.1	29.1	0.00e+00	0	27	0	2276458496	30	5763
2026-01-13 02:43:13.29	238.25	70.80	-28.4	-28.9	29.2	0.00e+00	0	27	0	2281701376	30	5662
2026-01-13 02:43:14.31	239.74	70.91	-28.5	-29.0	29.1	0.00e+00	0	27	0	2287992832	30	5748
2026-01-13 02:43:15.32	241.23	71.00	-28.3	-28.9	29.3	0.00e+00	0	27	0	2293235712	30	5651
2026-01-13 02:43:16.32	242.72	71.08	-28.2	-28.7	29.3	0.00e+00	0	27	0	2298478592	30	5544
2026-01-13 02:43:17.33	244.23	71.15	-28.3	-28.8	29.2	0.00e+00	0	27	0	2304770048	30	5628
2026-01-13 02:43:18.34	245.76	71.21	-28.4	-29.0	29.1	0.00e+00	0	27	0	2310012928	30	5748
2026-01-13 02:43:19.35	247.30	71.26	-28.2	-28.9	29.3	0.00e+00	0	27	0	2316304384	30	5638
2026-01-13 02:43:20.36	248.84	71.29	-28.3	-28.9	29.1	0.00e+00	0	27	0	2321547264	30	5657
2026-01-13 02:43:21.37	250.39	71.31	-28.5	-29.1	29.1	0.00e+00	0	27	0	2327838720	30	5779
2026-01-13 02:43:22.38	251.94	71.31	-28.6	-29.2	29.0	0.00e+00	0	27	0	2333081600	30	5830
2026-01-13 02:43:23.39	253.49	71.31	-28.5	-29.2	29.0	0.00e+00	0	27	0	2339373056	30	5836
2026-01-13 02:43:24.40	255.04	71.29	-28.3	-29.0	29.0	0.00e+00	0	27	0	2344615936	30	5702
2026-01-13 02:43:25.41	256.58	71.26	-28.2	-28.8	29.2	0.00e+00	0	27	0	2349858816	30	5595
2026-01-13 02:43:26.42	258.12	71.21	-28.3	-28.9	29.1	0.00e+00	0	27	0	2356150272	30	5660
2026-01-13 02:43:27.43	259.64	71.16	-28.6	-29.2	28.7	0.00e+00	0	27	0	2361393152	30	5882
2026-01-13 02:43:28.43	261.15	71.09	-28.7	-29.2	28.8	0.00e+00	0	27	0	2367684608	30	5892
2026-01-13 02:43:29.45	262.66	71.01	-28.7	-29.3	28.9	0.00e+00	0	27	0	2372927488	30	5927
2026-01-13 02:43:30.46	264.15	70.91	-28.4	-28.9	29.1	0.00e+00	0	27	0	2378170368	30	5672
2026-01-13 02:43:31.47	265.63	70.81	-28.1	-28.7	29.3	0.00e+00	0	27	0	2384461824	30	5538
2026-01-13 02:43:32.48	267.08	70.69	-28.3	-29.0	29.2	0.00e+00	0	27	0	2389704704	30	5699
2026-01-13 02:43:33.49	268.52	70.56	-28.4	-29.0	29.1	0.00e+00	0	27	0	2395996160	30	5751
2026-01-13 02:43:34.50	269.93	70.42	-28.1	-28.6	29.4	0.00e+00	0	27	0	2401239040	30	5485
2026-01-13 02:43:35.51	271.32	70.27	-28.3	-28.9	29.2	0.00e+00	0	27	0	2406481920	30	5631
2026-01-13 02:43:36.52	272.69	70.11	-28.6	-29.2	28.9	0.00e+00	0	27	0	2412773376	30	5886
2026-01-13 02:43:37.53	274.04	69.94	-28.7	-29.4	28.8	0.00e+00	0	27	0	2418016256	30	5971
2026-01-13 02:43:38.54	275.36	69.76	-28.8	-29.4	28.7	0.00e+00	0	27	0	2424307712	30	6031
2026-01-13 02:43:39.55	276.65	69.57	-28.9	-29.5	28.8	0.00e+00	0	27	0	2429550592	30	6084
2026-01-13 02:43:40.56	277.92	69.37	-28.6	-29.2	29.0	0.00e+00	0	27	0	2435842048	30	5841
2026-01-13 02:43:41.57	279.16	69.16	-28.6	-29.1	29.0	0.00e+00	0	27	0	2441084928	30	5790
2026-01-13 02:43:42.58	280.38	68.95	-28.8	-29.4	28.9	0.00e+00	0	27	0	2446327808	30	5979
2026-01-13 02:43:43.59	281.57	68.72	-28.6	-29.2	28.9	0.00e+00	0	27	0	2452619264	30	5855
2026-01-13 02:43:44.60	282.73	68.49	-28.6	-29.2	29.1	0.00e+00	0	27	0	2457862144	30	5862
2026-01-13 02:43:45.61	283.86	68.25	-28.5	-29.2	29.1	0.00e+00	0	27	0	2464153600	30	5860
2026-01-13 02:43:46.62	284.97	68.01	-28.5	-29.1	29.1	0.00e+00	0	27	0	2469396480	30	5822
2026-01-13 02:43:47.63	286.05	67.76	-28.7	-29.4	28.9	0.00e+00	0	27	0	2474639360	30	5968
2026-01-13 02:43:48.64	287.10	67.50	-28.9	-29.5	28.7	0.00e+00	0	27	0	2480930816	30	6074
2026-01-13 02:43:49.65	288.13	67.23	-28.7	-29.3	28.9	0.00e+00	0	27	0	2486173696	30	5928
2026-01-13 02:43:50.66	289.13	66.96	-28.7	-29.3	28.8	0.00e+00	0	27	0	2492465152	30	5912
2026-01-13 02:43:51.67	290.11	66.69	-28.9	-29.4	28.8	0.00e+00	0	27	0	2497708032	30	5979
2026-01-13 02:43:52.68	291.06	66.41	-29.1	-29.6	28.6	0.00e+00	0	27	0	2502950912	30	6159
2026-01-13 02:43:53.69	291.99	66.12	-29.1	-29.6	28.6	0.00e+00	0	27	0	2509242368	30	6143
2026-01-13 02:43:54.69	292.88	65.84	-29.1	-29.8	28.6	0.00e+00	0	27	0	2514485248	30	6262
2026-01-13 02:43:55.70	293.76	65.54	-29.2	-29.9	28.6	0.00e+00	0	27	0	2520776704	30	6348
2026-01-13 02:43:56.71	294.61	65.24	-29.1	-29.7	28.7	0.00e+00	0	27	0	2526019584	30	6237
2026-01-13 02:43:57.72	295.45	64.94	-29.0	-29.6	28.7	0.00e+00	0	27	0	2532311040	30	6150
2026-01-13 02:43:58.73	296.26	64.64	-29.0	-29.5	28.7	0.00e+00	0	27	0	2537553920	30	6095
2026-01-13 02:43:59.74	297.05	64.33	-29.1	-29.7	28.7	0.00e+00	0	27	0	2543845376	30	6200
2026-01-13 02:44:00.74	297.81	64.02	-29.0	-29.6	28.6	0.00e+00	0	27	0	2549088256	30	6161
2026-01-13 02:44:01.75	298.56	63.71	-28.9	-29.5	28.8	0.00e+00	0	27	0	2554331136	30	6085
2026-01-13 02:44:02.76	299.28	63.39	-29.0	-29.5	28.8	0.00e+00	0	27	0	2560622592	30	6088
2026-01-13 02:44:03.77	299.99	63.08	-29.2	-29.9	28.7	0.00e+00	0	27	0	2565865472	30	6344
2026-01-13 02:44:04.77	300.68	62.76	-29.4	-30.0	28.4	0.00e+00	0	27	0	2571108352	30	6402
2026-01-13 02:44:05.78	301.35	62.44	-29.4	-30.0	28.5	0.00e+00	0	27	0	2577399808	30	6455
2026-01-13 02:44:06.80	302.01	62.11	-29.1	-29.7	28.6	0.00e+00	0	27	0	2582642688	30	6237
2026-01-13 02:44:07.81	302.65	61.79	-29.0	-29.6	28.8	0.00e+00	0	27	0	2588934144	30	6159
2026-01-13 02:44:08.82	303.27	61.46	-28.9	-29.5	28.7	0.00e+00	0	27	0	2594177024	30	6094
2026-01-13 02:44:09.83	303.88	61.13	-29.1	-29.8	28.6	0.00e+00	0	27	0	2599419904	30	6252
2026-01-13 02:44:10.84	304.47	60.80	-29.6	-30.3	28.3	0.00e+00	0	27	0	2605711360	30	6639
2026-01-13 02:44:11.85	305.04	60.47	-30.0	-30.6	28.0	0.00e+00	0	27	0	2610954240	32	6133
2026-01-13 02:44:12.86	305.60	60.14	-30.1	-30.6	27.9	0.00e+00	0	27	0	2617245696	32	6156
2026-01-13 02:44:13.87	306.15	59.81	-29.8	-30.4	28.1	0.00e+00	0	27	0	2622488576	32	5970
2026-01-13 02:44:14.88	306.68	59.48	-29.7	-30.4	28.1	0.00e+00	0	27	0	2628780032	32	5969
2026-01-13 02:44:15.89	307.20	59.15	-29.7	-30.4	28.1	0.00e+00	0	27	0	2634022912	32	5981
2026-01-13 02:44:16.90	307.71	58.82	-29.7	-30.4	28.2	0.00e+00	0	27	0	2640314368	32	5979
2026-01-13 02:44:17.91	308.20	58.49	-29.8	-30.5	28.1	0.00e+00	0	27	0	2645557248	32	6047
2026-01-13 02:44:18.92	308.68	58.15	-29.8	-30.4	28.0	0.00e+00	0	27	0	2650800128	32	5980
2026-01-13 02:44:19.93	309.15	57.82	-30.0	-30.7	27.8	0.00e+00	0	27	0	2657091584	32	6177
2026-01-13 02:44:20.94	309.61	57.49	-30.2	-30.8	27.8	0.00e+00	0	27	0	2662334464	32	6262
2026-01-13 02:44:21.94	310.05	57.16	-30.3	-30.9	27.7	0.00e+00	0	27	0	2668625920	32	6382
2026-01-13 02:44:22.95	310.49	56.83	-30.4	-30.9	27.6	0.00e+00	0	27	0	2673868800	32	6390
2026-01-13 02:44:23.96	310.92	56.50	-30.6	-31.2	27.5	0.00e+00	0	27	0	2679111680	32	6611
2026-01-13 02:44:24.97	311.33	56.17	-30.7	-31.4	27.4	0.00e+00	0	27	0	2685403136	34	5988
2026-01-13 02:44:25.98	311.74	55.84	-31.0	-31.6	27.1	0.00e+00	0	27	0	2690646016	34	6145
2026-01-13 02:44:26.99	312.14	55.51	-31.3	-31.9	26.9	0.00e+00	0	27	0	2696937472	34	6365
2026-01-13 02:44:28.00	312.53	55.18	-30.8	-31.5	27.3	0.00e+00	0	27	0	2702180352	34	6064
2026-01-13 02:44:29.01	312.91	54.86	-30.4	-31.0	27.7	0.00e+00	0	27	0	2707423232	34	5744
2026-01-13 02:44:30.02	313.28	54.53	-30.3	-30.9	27.7	0.00e+00	0	27	0	2713714688	34	5691
2026-01-13 02:44:31.03	313.64	54.20	-30.5	-31.1	27.5	0.00e+00	0	27	0	2718957568	34	5823
2026-01-13 02:44:32.04	314.00	53.88	-30.7	-31.4	27.4	0.00e+00	0	27	0	2725249024	34	5991
2026-01-13 02:44:33.05	314.34	53.55	-30.7	-31.4	27.3	0.00e+00	0	27	0	2730491904	34	6003
2026-01-13 02:44:34.06	314.68	53.23	-30.6	-31.3	27.5	0.00e+00	0	27	0	2735734784	34	5923
2026-01-13 02:44:35.07	315.02	52.91	-30.4	-30.9	27.5	0.00e+00	0	27	0	2742026240	34	5667
2026-01-13 02:44:36.08	315.34	52.59	-30.1	-30.8	27.9	0.00e+00	0	27	0	2747269120	34	5593
2026-01-13 02:44:37.09	315.66	52.27	-30.0	-30.5	27.9	0.00e+00	0	27	0	2753560576	34	5428
2026-01-13 02:44:38.10	315.97	51.95	-30.0	-30.5	27.8	0.00e+00	0	27	0	2758803456	34	5428
2026-01-13 02:44:39.11	316.28	51.64	-30.1	-30.8	27.4	0.00e+00	0	27	0	2765094912	34	5609
2026-01-13 02:44:40.12	316.58	51.32	-30.2	-30.9	27.7	0.00e+00	0	27	0	2770337792	34	5674
2026-01-13 02:44:41.13	316.87	51.01	-30.2	-30.8	27.7	0.00e+00	0	27	0	2775580672	34	5629
2026-01-13 02:44:42.14	317.15	50.69	-30.3	-31.0	27.6	0.00e+00	0	27	0	2781872128	34	5697
2026-01-13 02:44:43.15	317.44	50.38	-30.1	-30.7	27.8	0.00e+00	0	27	0	2787115008	34	5551
2026-01-13 02:44:44.16	317.71	50.07	-30.0	-30.6	27.7	0.00e+00	0	27	0	2793406464	34	5451
2026-01-13 02:44:45.17	317.98	49.76	-29.8	-30.4	28.0	0.00e+00	0	27	0	2798649344	34	5336
2026-01-13 02:44:46.18	318.24	49.46	-29.8	-30.5	28.1	0.00e+00	0	27	0	2803892224	34	5416
2026-01-13 02:44:47.19	318.50	49.15	-29.7	-30.4	28.1	0.00e+00	0	27	0	2810183680	32	6000
2026-01-13 02:44:48.20	318.76	48.85	-29.6	-30.2	28.3	0.00e+00	0	27	0	2815426560	32	5893
2026-01-13 02:44:49.21	319.01	48.54	-29.9	-30.4	28.1	0.00e+00	0	27	0	2821718016	32	5992
2026-01-13 02:44:50.22	319.25	48.24	-30.1	-30.7	27.9	0.00e+00	0	27	0	2826960896	32	6181
2026-01-13 02:44:51.23	319.49	47.94	-30.2	-30.7	27.9	0.00e+00	0	27	0	2832203776	32	6242
2026-01-13 02:44:52.24	319.73	47.65	-30.3	-30.9	27.7	0.00e+00	0	27	0	2838495232	32	6390
2026-01-13 02:44:53.25	319.96	47.35	-29.9	-30.4	28.1	0.00e+00	0	27	0	2843738112	32	6028
2026-01-13 02:44:54.26	320.19	47.05	-29.6	-30.3	28.3	0.00e+00	0	27	0	2850029568	32	5907
2026-01-13 02:44:55.27	320.41	46.76	-29.6	-30.3	28.3	0.00e+00	0	27	0	2855272448	32	5941
2026-01-13 02:44:56.28	320.63	46.47	-29.5	-30.2	28.3	0.00e+00	0	27	0	2861563904	32	5867
2026-01-13 02:44:57.29	320.84	46.18	-29.6	-30.2	28.3	0.00e+00	0	27	0	2866806784	32	5864
2026-01-13 02:44:58.30	321.05	45.89	-29.6	-30.2	28.2	0.00e+00	0	27	0	2873098240	32	5862
2026-01-13 02:44:59.31	321.26	45.60	-29.5	-30.1	28.3	0.00e+00	0	27	0	2878341120	32	5802
2026-01-13 02:45:00.32	321.46	45.32	-29.5	-30.1	28.3	0.00e+00	0	27	0	2883584000	32	5769
2026-01-13 02:45:01.33	321.66	45.04	-29.4	-30.0	28.4	0.00e+00	0	27	0	2889875456	32	5696
2026-01-13 02:45:02.34	321.86	44.75	-29.3	-29.8	28.5	0.00e+00	0	27	0	2895118336	32	5615
2026-01-13 02:45:03.35	322.05	44.47	-29.3	-29.9	28.4	0.00e+00	0	27	0	2901409792	32	5692
2026-01-13 02:45:04.35	322.24	44.20	-29.4	-29.9	28.5	0.00e+00	0	27	0	2906652672	32	5665
2026-01-13 02:45:05.36	322.43	43.92	-29.4	-29.9	28.5	0.00e+00	0	27	0	2911895552	32	5655
2026-01-13 02:45:06.37	322.61	43.65	-29.5	-30.0	28.4	0.00e+00	0	27	0	2918187008	32	5709
2026-01-13 02:45:07.38	322.79	43.37	-29.4	-29.9	28.4	0.00e+00	0	27	0	2923429888	32	5690
2026-01-13 02:45:08.39	322.97	43.10	-29.5	-30.0	28.4	0.00e+00	0	27	0	2929721344	32	5721
2026-01-13 02:45:09.40	323.14	42.83	-29.2	-29.7	28.6	0.00e+00	0	27	0	2934964224	32	5519
2026-01-13 02:45:10.41	323.32	42.56	-29.0	-29.5	28.7	0.00e+00	0	27	0	2940207104	32	5435
2026-01-13 02:45:11.42	323.49	42.30	-29.0	-29.5	28.6	0.00e+00	0	27	0	2946498560	32	5419
2026-01-13 02:45:12.43	323.65	42.03	-29.2	-29.7	28.6	0.00e+00	0	27	0	2951741440	32	5563
2026-01-13 02:45:13.44	323.82	41.77	-29.3	-29.9	28.5	0.00e+00	0	27	0	2958032896	32	5643
2026-01-13 02:45:14.45	323.98	41.51	-29.6	-30.1	28.3	0.00e+00	0	27	0	2963275776	32	5796
2026-01-13 02:45:15.46	324.14	41.25	-29.4	-30.0	28.4	0.00e+00	0	27	0	2969567232	32	5709
2026-01-13 02:45:16.47	324.29	40.99	-29.4	-29.9	28.4	0.00e+00	0	27	0	2974810112	32	5679
2026-01-13 02:45:17.48	324.44	40.73	-29.4	-30.1	28.4	0.00e+00	0	27	0	2980052992	32	5796
2026-01-13 02:45:18.49	324.60	40.48	-29.4	-30.0	28.5	0.00e+00	0	27	0	2986344448	32	5734
2026-01-13 02:45:19.50	324.75	40.22	-29.2	-29.8	28.6	0.00e+00	0	27	0	2991587328	32	5620
2026-01-13 02:45:20.50	324.89	39.97	-29.3	-29.9	28.6	0.00e+00	0	27	0	2997878784	32	5683
2026-01-13 02:45:21.51	325.04	39.72	-29.2	-29.7	28.6	0.00e+00	0	27	0	3003121664	32	5566
2026-01-13 02:45:22.52	325.18	39.47	-29.3	-29.8	28.4	0.00e+00	0	27	0	3008364544	32	5622
2026-01-13 02:45:23.53	325.32	39.23	-29.4	-29.9	28.4	0.00e+00	0	27	0	3014656000	32	5672
2026-01-13 02:45:24.54	325.46	38.98	-29.3	-29.9	28.5	0.00e+00	0	27	0	3019898880	32	5658
2026-01-13 02:45:25.55	325.59	38.74	-29.3	-29.9	28.5	0.00e+00	0	27	0	3026190336	32	5654
2026-01-13 02:45:26.56	325.73	38.49	-29.2	-29.9	28.6	0.00e+00	0	27	0	3031433216	32	5665
2026-01-13 02:45:27.57	325.86	38.25	-29.4	-29.9	28.4	0.00e+00	0	27	0	3036676096	32	5684
2026-01-13 02:45:28.58	325.99	38.01	-29.3	-29.8	28.5	0.00e+00	0	27	0	3042967552	32	5600
2026-01-13 02:45:29.59	326.12	37.77	-29.0	-29.5	28.7	0.00e+00	0	27	0	3048210432	32	5432
2026-01-13 02:45:30.60	326.25	37.54	-28.9	-29.5	28.7	0.00e+00	0	27	0	3054501888	32	5380
2026-01-13 02:45:31.61	326.37	37.30	-28.9	-29.4	28.7	0.00e+00	0	27	0	3059744768	32	5358
2026-01-13 02:45:32.61	326.49	37.07	-29.1	-29.6	28.7	0.00e+00	0	27	0	3066036224	32	5472
2026-01-13 02:45:33.62	326.62	36.84	-29.0	-29.5	28.7	0.00e+00	0	27	0	3071279104	32	5431
2026-01-13 02:45:34.64	326.74	36.61	-29.2	-29.7	28.5	0.00e+00	0	27	0	3077570560	32	5558
2026-01-13 02:45:35.65	326.86	36.38	-29.2	-29.9	28.5	0.00e+00	0	27	0	3082813440	32	5651
2026-01-13 02:45:36.65	326.97	36.15	-29.2	-29.9	28.6	0.00e+00	0	27	0	3088056320	32	5639
2026-01-13 02:45:37.66	327.09	35.93	-29.3	-29.8	28.5	0.00e+00	0	27	0	3094347776	32	5603
2026-01-13 02:45:38.67	327.20	35.70	-29.2	-29.8	28.6	0.00e+00	0	27	0	3099590656	32	5627
2026-01-13 02:45:39.68	327.31	35.48	-29.2	-29.7	28.6	0.00e+00	0	27	0	3104833536	32	5515
2026-01-13 02:45:40.69	327.43	35.26	-28.9	-29.4	28.9	0.00e+00	0	27	0	3111124992	32	5330
2026-01-13 02:45:41.70	327.53	35.04	-29.0	-29.5	28.7	0.00e+00	0	27	0	3116367872	32	5430
2026-01-13 02:45:42.71	327.64	34.82	-28.9	-29.4	28.8	0.00e+00	0	27	0	3122659328	32	5357
2026-01-13 02:45:43.72	327.75	34.60	-29.1	-29.6	28.7	0.00e+00	0	27	0	3127902208	32	5501
2026-01-13 02:45:44.74	327.86	34.39	-29.1	-29.6	28.6	0.00e+00	0	27	0	3134193664	32	5496
2026-01-13 02:45:45.75	327.96	34.17	-29.2	-29.7	28.5	0.00e+00	0	27	0	3139436544	32	5536
2026-01-13 02:45:46.76	328.06	33.96	-29.4	-29.9	28.5	0.00e+00	0	27	0	3144679424	32	5683
2026-01-13 02:45:47.76	328.16	33.75	-29.4	-29.9	28.5	0.00e+00	0	27	0	3150970880	32	5672
2026-01-13 02:45:48.77	328.26	33.54	-29.4	-29.9	28.4	0.00e+00	0	27	0	3156213760	32	5688
2026-01-13 02:45:49.78	328.36	33.33	-29.4	-29.9	28.4	0.00e+00	0	27	0	3162505216	32	5679
2026-01-13 02:45:50.79	328.46	33.12	-29.5	-30.2	28.2	0.00e+00	0	27	0	3167748096	32	5871
2026-01-13 02:45:51.80	328.56	32.92	-29.5	-30.1	28.4	0.00e+00	0	27	0	3174039552	32	5821
2026-01-13 02:45:52.81	328.65	32.71	-29.4	-30.0	28.4	0.00e+00	0	27	0	3179282432	32	5756
2026-01-13 02:45:53.82	328.75	32.51	-29.2	-29.9	28.5	0.00e+00	0	27	0	3184525312	32	5665
2026-01-13 02:45:54.83	328.84	32.30	-29.3	-29.9	28.5	0.00e+00	0	27	0	3190816768	32	5687
2026-01-13 02:45:55.84	328.93	32.10	-29.1	-29.8	28.7	0.00e+00	0	27	0	3196059648	32	5577
2026-01-13 02:45:56.85	329.02	31.90	-29.1	-29.7	28.6	0.00e+00	0	27	0	3202351104	32	5563
2026-01-13 02:45:57.86	329.11	31.71	-29.2	-29.7	28.5	0.00e+00	0	27	0	3207593984	32	5504
2026-01-13 02:45:58.87	329.20	31.51	-29.2	-29.7	28.6	0.00e+00	0	27	0	3212836864	32	5515
2026-01-13 02:45:59.88	329.29	31.31	-29.1	-29.8	28.6	0.00e+00	0	27	0	3219128320	32	5592
2026-01-13 02:46:00.89	329.38	31.12	-29.4	-30.0	28.4	0.00e+00	0	27	0	3224371200	32	5736
2026-01-13 02:46:01.89	329.46	30.93	-29.3	-30.0	28.5	0.00e+00	0	27	0	3230662656	32	5715
2026-01-13 02:46:02.90	329.55	30.73	-29.4	-30.1	28.4	0.00e+00	0	27	0	3235905536	32	5782
2026-01-13 02:46:03.91	329.63	30.54	-29.5	-30.2	28.3	0.00e+00	0	27	0	3241148416	32	5851
2026-01-13 02:46:04.92	329.71	30.35	-29.6	-30.2	28.3	0.00e+00	0	27	0	3247439872	32	5895
2026-01-13 02:46:05.93	329.80	30.16	-29.6	-30.3	28.2	0.00e+00	0	27	0	3252682752	32	5912
2026-01-13 02:46:06.94	329.88	29.98	-29.7	-30.4	28.1	0.00e+00	0	27	0	3258974208	32	5972
2026-01-13 02:46:07.95	329.96	29.79	-29.6	-30.3	28.2	0.00e+00	0	27	0	3264217088	32	5944
2026-01-13 02:46:08.96	330.04	29.60	-29.6	-30.1	28.2	0.00e+00	0	27	0	3270508544	32	5816
2026-01-13 02:46:09.97	330.12	29.42	-29.5	-30.0	28.3	0.00e+00	0	27	0	3275751424	32	5733
2026-01-13 02:46:10.98	330.19	29.24	-29.6	-30.1	28.3	0.00e+00	0	27	0	3280994304	32	5819
2026-01-13 02:46:11.99	330.27	29.06	-29.7	-30.2	28.2	0.00e+00	0	27	0	3287285760	32	5847
2026-01-13 02:46:13.00	330.35	28.88	-29.4	-29.9	28.4	0.00e+00	0	27	0	3292528640	32	5653
2026-01-13 02:46:14.01	330.42	28.70	-29.5	-30.0	28.3	0.00e+00	0	27	0	3298820096	32	5711
2026-01-13 02:46:15.02	330.50	28.52	-29.7	-30.2	28.3	0.00e+00	0	27	0	3304062976	32	5843
2026-01-13 02:46:16.03	330.57	28.34	-29.5	-30.1	28.3	0.00e+00	0	27	0	3309305856	32	5769
2026-01-13 02:46:17.04	330.64	28.16	-29.5	-30.1	28.2	0.00e+00	0	27	0	3315597312	32	5762
2026-01-13 02:46:18.05	330.72	27.99	-29.6	-30.1	28.2	0.00e+00	0	27	0	3320840192	32	5804
2026-01-13 02:46:19.06	330.79	27.81	-29.7	-30.2	28.2	0.00e+00	0	27	0	3327131648	32	5875
2026-01-13 02:46:20.07	330.86	27.64	-29.7	-30.3	28.1	0.00e+00	0	27	0	3332374528	32	5925
2026-01-13 02:46:21.08	330.93	27.47	-29.8	-30.5	28.1	0.00e+00	0	27	0	3337617408	32	6041
2026-01-13 02:46:22.09	331.00	27.30	-29.8	-30.5	28.1	0.00e+00	0	27	0	3343908864	32	6058
2026-01-13 02:46:23.09	331.07	27.13	-29.8	-30.5	28.1	0.00e+00	0	27	0	3349151744	32	6059
2026-01-13 02:46:24.10	331.13	26.96	-29.8	-30.5	28.0	0.00e+00	0	27	0	3355443200	32	6042
2026-01-13 02:46:25.11	331.20	26.79	-29.7	-30.4	28.1	0.00e+00	0	27	0	3360686080	32	6022
2026-01-13 02:46:26.12	331.27	26.63	-29.6	-30.3	28.2	0.00e+00	0	27	0	3366977536	32	5952
2026-01-13 02:46:27.13	331.33	26.46	-29.6	-30.1	28.1	0.00e+00	0	27	0	3372220416	32	5818
2026-01-13 02:46:28.14	331.40	26.30	-29.5	-30.2	28.2	0.00e+00	0	27	0	3378511872	32	5844
2026-01-13 02:46:29.15	331.47	26.13	-29.6	-30.3	28.2	0.00e+00	0	27	0	3383754752	32	5914
2026-01-13 02:46:30.16	331.53	25.97	-29.7	-30.2	28.2	0.00e+00	0	27	0	3388997632	32	5856
2026-01-13 02:46:31.17	331.59	25.81	-29.5	-30.1	28.3	0.00e+00	0	27	0	3395289088	32	5804
2026-01-13 02:46:32.18	331.66	25.65	-29.6	-30.1	28.3	0.00e+00	0	27	0	3400531968	32	5772
2026-01-13 02:46:33.19	331.72	25.49	-29.6	-30.1	28.2	0.00e+00	0	27	0	3406823424	32	5788
2026-01-13 02:46:34.20	331.78	25.33	-29.6	-30.1	28.3	0.00e+00	0	27	0	3412066304	32	5809
2026-01-13 02:46:35.21	331.84	25.17	-29.6	-30.1	28.2	0.00e+00	0	27	0	3417309184	32	5788
2026-01-13 02:46:36.22	331.90	25.01	-29.7	-30.3	28.1	0.00e+00	0	27	0	3423600640	32	5901
2026-01-13 02:46:37.23	331.96	24.85	-29.9	-30.5	27.9	0.00e+00	0	27	0	3428843520	32	6040
2026-01-13 02:46:38.24	332.02	24.70	-29.9	-30.4	27.9	0.00e+00	0	27	0	3435134976	32	6019
2026-01-13 02:46:39.24	332.08	24.55	-30.0	-30.6	28.0	0.00e+00	0	27	0	3440377856	32	6161
2026-01-13 02:46:40.25	332.14	24.39	-30.1	-30.8	27.7	0.00e+00	0	27	0	3445620736	32	6308
2026-01-13 02:46:41.27	332.20	24.24	-30.0	-30.7	27.8	0.00e+00	0	27	0	3451912192	32	6208
2026-01-13 02:46:42.28	332.25	24.08	-30.1	-30.8	27.8	0.00e+00	0	27	0	3457155072	32	6274
2026-01-13 02:46:43.28	332.31	23.94	-30.3	-31.0	27.7	0.00e+00	0	27	0	3463446528	32	6415
2026-01-13 02:46:44.29	332.37	23.78	-30.2	-30.9	27.8	0.00e+00	0	27	0	3468689408	32	6361
2026-01-13 02:46:45.30	332.42	23.64	-30.3	-31.0	27.7	0.00e+00	0	27	0	3474980864	32	6421
2026-01-13 02:46:46.31	332.48	23.49	-30.3	-31.0	27.6	0.00e+00	0	27	0	3480223744	32	6458
2026-01-13 02:46:47.32	332.53	23.34	-30.3	-30.9	27.6	0.00e+00	0	27	0	3485466624	32	6337
2026-01-13 02:46:48.33	332.59	23.19	-30.4	-30.9	27.6	0.00e+00	0	27	0	3491758080	32	6379
2026-01-13 02:46:49.34	332.64	23.05	-30.4	-31.0	27.5	0.00e+00	0	27	0	3497000960	32	6462
2026-01-13 02:46:50.35	332.70	22.90	-30.4	-31.0	27.6	0.00e+00	0	27	0	3503292416	32	6410
2026-01-13 02:46:51.36	332.75	22.76	-30.4	-31.0	27.5	0.00e+00	0	27	0	3508535296	32	6407
2026-01-13 02:46:52.37	332.80	22.61	-30.5	-31.0	27.5	0.00e+00	0	27	0	3513778176	32	6460
2026-01-13 02:46:53.38	332.85	22.47	-30.5	-31.0	27.5	0.00e+00	0	27	0	3520069632	32	6436
2026-01-13 02:46:54.39	332.91	22.33	-30.5	-31.1	27.5	0.00e+00	0	27	0	3525312512	32	6477
2026-01-13 02:46:55.40	332.96	22.18	-30.6	-31.1	27.5	0.00e+00	0	27	0	3531603968	32	6512
2026-01-13 02:46:56.41	333.01	22.04	-30.5	-31.0	27.6	0.00e+00	0	27	0	3536846848	32	6436
2026-01-13 02:46:57.42	333.06	21.90	-30.6	-31.2	27.4	0.00e+00	0	27	0	3542089728	32	6540
2026-01-13 02:46:58.43	333.11	21.76	-30.7	-31.4	27.4	0.00e+00	0	27	0	3548381184	32	6722
2026-01-13 02:46:59.43	333.16	21.63	-30.6	-31.3	27.5	0.00e+00	0	27	0	3553624064	32	6663
2026-01-13 02:47:00.44	333.21	21.49	-30.7	-31.4	27.3	0.00e+00	0	27	0	3559915520	34	6005
2026-01-13 02:47:01.45	333.26	21.35	-30.7	-31.4	27.3	0.00e+00	0	27	0	3565158400	34	5991
2026-01-13 02:47:02.46	333.30	21.22	-30.9	-31.6	27.1	0.00e+00	0	27	0	3571449856	34	6108
2026-01-13 02:47:03.47	333.35	21.08	-31.0	-31.7	27.1	0.00e+00	0	27	0	3576692736	34	6176
2026-01-13 02:47:04.48	333.40	20.95	-30.9	-31.6	27.1	0.00e+00	0	27	0	3581935616	34	6140
2026-01-13 02:47:05.49	333.45	20.81	-30.8	-31.5	27.2	0.00e+00	0	27	0	3588227072	34	6045
2026-01-13 02:47:06.50	333.49	20.68	-30.9	-31.6	27.1	0.00e+00	0	27	0	3593469952	34	6172
2026-01-13 02:47:07.51	333.54	20.55	-31.0	-31.7	27.0	0.00e+00	0	27	0	3599761408	34	6236
2026-01-13 02:47:08.52	333.59	20.41	-31.0	-31.7	27.0	0.00e+00	0	27	0	3605004288	34	6207
2026-01-13 02:47:09.53	333.63	20.28	-31.1	-31.7	26.9	0.00e+00	0	27	0	3610247168	34	6209
