passes_logs/2026/01/13/R4.6S_Anadyr/R4.6S_Anadyr__20260113_194141_FENGYUN_3D_rec.log

#Pass ID: 20260113_194141_FENGYUN 3D
#Satellite: FENGYUN 3D
#Configuration: FENGYUN 3D
#almurnet v.1.7.20251203
#Start time: 2026-01-13 19:41:42

#Version: 2.2.20231116
#Station: R4.6S_Anadyr
#Location: 177.4865 lon 64.73178 lat
#TLE: 1 43010U 17072A   26012.32543542  .00000598  00000+0  30457-3 0  9997
#TLE: 2 43010  98.9935 344.1005 0002233 112.6136 247.5276 14.19696644422876

#Time	Az	El	Level	Level2	SNR	BER	BlckErr	Temp	State	Recorded	gain1	gain2
2026-01-13 19:41:42.49	33.92	0.07	-48.6	-66.4	3.5	3.02e+01	0	25	0	0	60	80419
2026-01-13 19:41:43.50	33.85	0.12	-48.3	-60.5	3.6	8.45e-01	0	26	104	0	60	38348
2026-01-13 19:41:44.51	33.79	0.18	-48.4	-60.5	3.6	8.45e-01	0	26	104	0	60	38343
2026-01-13 19:41:45.52	33.73	0.23	-48.4	-60.5	3.6	8.45e-01	0	26	104	0	60	38279
2026-01-13 19:41:46.52	33.67	0.28	-48.4	-60.5	3.6	8.44e-01	0	26	104	0	60	38323
2026-01-13 19:41:47.53	33.61	0.34	-48.4	-60.5	3.6	8.46e-01	0	26	104	0	60	38392
2026-01-13 19:41:48.54	33.55	0.39	-48.4	-60.5	3.6	8.45e-01	0	27	104	0	60	38278
2026-01-13 19:41:49.55	33.48	0.44	-48.4	-60.4	3.6	8.46e-01	0	27	104	0	60	38027
2026-01-13 19:41:50.56	33.42	0.50	-48.3	-60.4	3.6	8.44e-01	0	26	104	0	60	37701
2026-01-13 19:41:51.57	33.36	0.55	-48.2	-60.3	3.6	8.47e-01	0	27	104	0	60	37328
2026-01-13 19:41:52.58	33.29	0.61	-48.1	-60.2	3.6	8.45e-01	0	27	104	0	60	37089
2026-01-13 19:41:53.59	33.23	0.66	-48.0	-60.1	3.6	8.46e-01	0	27	104	0	60	36384
2026-01-13 19:41:54.60	33.17	0.71	-47.9	-60.1	3.6	8.44e-01	0	27	104	0	60	36465
2026-01-13 19:41:55.61	33.10	0.77	-47.8	-59.9	3.6	8.45e-01	0	27	104	0	60	35545
2026-01-13 19:41:56.62	33.04	0.82	-47.6	-59.6	3.6	8.44e-01	0	27	104	0	60	34433
2026-01-13 19:41:57.63	32.97	0.88	-47.4	-59.6	3.6	8.47e-01	0	27	104	0	60	34323
2026-01-13 19:41:58.64	32.91	0.93	-46.9	-59.0	3.6	8.46e-01	0	27	104	0	60	32302
2026-01-13 19:41:59.65	32.84	0.98	-46.5	-58.5	3.6	8.45e-01	0	27	104	0	60	30524
2026-01-13 19:42:00.66	32.78	1.04	-46.5	-58.5	3.6	8.45e-01	0	27	104	0	60	30365
2026-01-13 19:42:01.67	32.71	1.09	-46.4	-58.5	3.6	8.45e-01	0	27	104	0	60	30348
2026-01-13 19:42:02.68	32.65	1.15	-46.4	-58.4	3.6	8.45e-01	0	27	104	0	60	30189
2026-01-13 19:42:03.68	32.58	1.20	-46.4	-58.4	3.6	8.45e-01	0	27	104	0	60	29986
2026-01-13 19:42:04.69	32.51	1.26	-46.4	-58.5	3.6	8.46e-01	0	27	104	0	60	30309
2026-01-13 19:42:05.70	32.45	1.31	-46.4	-58.4	3.6	8.46e-01	0	27	104	0	60	29998
2026-01-13 19:42:06.71	32.38	1.36	-46.4	-58.5	3.6	8.46e-01	0	27	104	0	60	30270
2026-01-13 19:42:07.72	32.31	1.42	-46.4	-58.4	3.6	8.45e-01	0	27	104	0	60	30197
2026-01-13 19:42:08.73	32.25	1.47	-46.4	-58.4	3.6	8.44e-01	0	27	104	0	60	30161
2026-01-13 19:42:09.74	32.18	1.53	-46.4	-58.4	3.6	8.46e-01	0	27	104	0	60	30008
2026-01-13 19:42:10.75	32.11	1.58	-46.4	-58.4	3.6	8.45e-01	0	27	104	0	60	30109
2026-01-13 19:42:11.76	32.04	1.64	-46.4	-58.5	3.6	8.46e-01	0	27	104	0	60	30362
2026-01-13 19:42:12.77	31.97	1.69	-46.4	-58.5	3.6	8.45e-01	0	27	104	0	60	30436
2026-01-13 19:42:13.78	31.90	1.75	-46.4	-58.5	3.6	8.45e-01	0	27	104	0	60	30386
2026-01-13 19:42:14.79	31.84	1.80	-46.4	-58.5	3.6	8.45e-01	0	27	104	0	60	30272
2026-01-13 19:42:15.80	31.77	1.86	-46.4	-58.5	3.6	8.45e-01	0	27	104	0	60	30404
2026-01-13 19:42:16.81	31.70	1.92	-46.4	-58.4	3.6	8.46e-01	0	27	104	0	60	30173
2026-01-13 19:42:17.82	31.63	1.97	-46.4	-58.4	3.6	8.44e-01	0	27	104	0	60	30061
2026-01-13 19:42:18.83	31.56	2.03	-46.4	-58.2	3.6	8.45e-01	0	27	104	0	60	29368
2026-01-13 19:42:19.84	31.49	2.08	-46.4	-57.9	3.6	8.45e-01	0	27	104	0	60	28501
2026-01-13 19:42:20.85	31.42	2.14	-46.3	-57.7	3.6	8.46e-01	0	27	104	0	60	27640
2026-01-13 19:42:21.86	31.34	2.19	-46.3	-57.6	3.6	8.45e-01	0	27	104	0	60	27545
2026-01-13 19:42:22.87	31.27	2.25	-46.4	-58.0	3.6	8.45e-01	0	27	104	0	60	28767
2026-01-13 19:42:23.88	31.20	2.31	-46.4	-58.4	3.6	8.46e-01	0	27	104	0	60	30008
2026-01-13 19:42:24.89	31.13	2.36	-46.4	-58.5	3.5	8.45e-01	0	27	104	0	60	30341
2026-01-13 19:42:25.90	31.06	2.42	-46.4	-58.4	3.6	8.46e-01	0	27	104	0	60	30184
2026-01-13 19:42:26.91	30.99	2.47	-46.4	-58.4	3.6	8.44e-01	0	27	104	0	60	30005
2026-01-13 19:42:27.92	30.91	2.53	-46.4	-58.4	3.6	8.45e-01	0	27	104	0	60	30141
2026-01-13 19:42:28.93	30.84	2.59	-46.4	-58.5	3.6	8.45e-01	0	27	104	0	60	30419
2026-01-13 19:42:29.94	30.77	2.64	-46.4	-58.4	3.6	8.47e-01	0	27	104	0	60	30044
2026-01-13 19:42:30.95	30.69	2.70	-46.3	-57.7	3.6	8.46e-01	0	27	104	0	60	27798
2026-01-13 19:42:31.96	30.62	2.75	-46.2	-56.8	3.6	8.45e-01	0	27	104	0	60	25034
2026-01-13 19:42:32.97	30.55	2.81	-46.2	-56.8	3.6	8.44e-01	0	27	104	0	60	24907
2026-01-13 19:42:33.98	30.47	2.87	-46.3	-57.3	3.6	8.45e-01	0	27	104	0	60	26459
2026-01-13 19:42:34.99	30.40	2.92	-46.3	-57.9	3.6	8.46e-01	0	27	104	0	60	28374
2026-01-13 19:42:36.00	30.32	2.98	-46.1	-55.9	3.7	8.45e-01	0	27	104	0	60	22419
2026-01-13 19:42:37.01	30.25	3.04	-45.4	-51.8	5.7	7.29e-01	0	27	104	0	60	14063
2026-01-13 19:42:38.02	30.17	3.09	-44.3	-48.1	8.8	9.28e-02	0	27	0	4194304	60	9132
2026-01-13 19:42:39.02	30.09	3.15	-43.0	-45.6	11.9	3.64e-03	0	27	0	9437184	60	6919
2026-01-13 19:42:40.03	30.02	3.21	-41.9	-44.1	13.2	3.54e-05	0	27	0	15728640	58	6470
2026-01-13 19:42:41.04	29.94	3.26	-46.3	-55.9	3.8	8.44e-01	0	27	104	17825792	60	22637
2026-01-13 19:42:42.05	29.86	3.32	-46.5	-58.0	3.6	8.45e-01	0	27	104	17825792	60	28550
2026-01-13 19:42:43.06	29.79	3.38	-43.7	-47.2	10.8	2.11e-01	0	27	104	17825792	58	9319
2026-01-13 19:42:44.07	29.71	3.44	-36.1	-37.1	20.8	0.00e+00	0	27	0	22020096	46	5769
2026-01-13 19:42:45.08	29.63	3.49	-46.2	-57.3	3.6	8.42e-01	0	27	104	24117248	60	26418
2026-01-13 19:42:46.09	29.55	3.55	-35.8	-36.7	19.5	3.08e-01	0	27	104	24117248	46	5529
2026-01-13 19:42:47.10	29.48	3.61	-35.5	-36.4	21.3	0.00e+00	0	27	0	26214400	44	6000
2026-01-13 19:42:48.11	29.40	3.67	-35.8	-36.7	21.0	0.00e+00	0	27	0	32505856	44	6214
2026-01-13 19:42:49.11	29.32	3.72	-35.3	-36.1	21.5	0.00e+00	0	27	0	37748736	44	5815
2026-01-13 19:42:50.12	29.24	3.78	-35.6	-36.5	21.1	0.00e+00	0	27	0	44040192	44	6057
2026-01-13 19:42:51.13	29.16	3.84	-35.5	-36.4	21.3	0.00e+00	0	27	0	49283072	44	5989
2026-01-13 19:42:52.14	29.08	3.90	-35.4	-36.3	21.5	0.00e+00	0	27	0	54525952	44	5909
2026-01-13 19:42:53.15	29.00	3.95	-35.6	-36.5	21.3	0.00e+00	0	27	0	60817408	44	6045
2026-01-13 19:42:54.16	28.92	4.01	-35.7	-36.6	21.2	0.00e+00	0	27	0	66060288	44	6128
2026-01-13 19:42:55.17	28.84	4.07	-35.3	-36.2	21.5	0.00e+00	0	27	0	72351744	44	5840
2026-01-13 19:42:56.18	28.76	4.13	-35.5	-36.3	21.4	0.00e+00	0	27	0	77594624	44	5952
2026-01-13 19:42:57.19	28.67	4.19	-35.8	-36.6	21.2	0.00e+00	0	27	0	83886080	44	6144
2026-01-13 19:42:58.20	28.59	4.24	-35.8	-36.6	21.3	0.00e+00	0	27	0	89128960	44	6143
2026-01-13 19:42:59.21	28.51	4.30	-35.3	-36.1	21.7	0.00e+00	0	27	0	95420416	44	5786
2026-01-13 19:43:00.22	28.43	4.36	-35.2	-36.0	21.8	0.00e+00	0	27	0	100663296	44	5744
2026-01-13 19:43:01.23	28.34	4.42	-35.4	-36.3	21.6	0.00e+00	0	27	0	105906176	44	5915
2026-01-13 19:43:02.24	28.26	4.48	-35.3	-36.2	21.7	0.00e+00	0	27	0	112197632	44	5845
2026-01-13 19:43:03.25	28.18	4.54	-35.6	-36.4	21.4	0.00e+00	0	27	0	117440512	44	6021
2026-01-13 19:43:04.26	28.09	4.59	-35.8	-36.7	21.1	0.00e+00	0	27	0	123731968	44	6194
2026-01-13 19:43:05.27	28.01	4.65	-35.4	-36.3	21.5	0.00e+00	0	27	0	128974848	44	5909
2026-01-13 19:43:06.28	27.92	4.71	-35.6	-36.4	21.4	0.00e+00	0	27	0	134217728	44	6028
2026-01-13 19:43:07.29	27.84	4.77	-35.3	-36.1	21.8	0.00e+00	0	27	0	140509184	44	5807
2026-01-13 19:43:08.30	27.75	4.83	-35.4	-36.2	21.7	0.00e+00	0	27	0	145752064	44	5869
2026-01-13 19:43:09.31	27.66	4.89	-35.3	-36.1	21.8	0.00e+00	0	27	0	152043520	44	5811
2026-01-13 19:43:10.32	27.58	4.95	-35.4	-36.2	21.7	0.00e+00	0	27	0	157286400	44	5889
2026-01-13 19:43:11.33	27.49	5.01	-35.5	-36.4	21.6	0.00e+00	0	27	0	162529280	44	5988
2026-01-13 19:43:12.34	27.40	5.07	-35.4	-36.2	21.7	0.00e+00	0	27	0	168820736	44	5885
2026-01-13 19:43:13.35	27.32	5.12	-35.4	-36.2	21.8	0.00e+00	0	27	0	174063616	44	5873
2026-01-13 19:43:14.36	27.23	5.18	-35.4	-36.2	21.8	0.00e+00	0	27	0	180355072	44	5859
2026-01-13 19:43:15.37	27.14	5.24	-35.2	-36.0	21.9	0.00e+00	0	27	0	185597952	44	5747
2026-01-13 19:43:16.38	27.05	5.30	-35.2	-36.0	22.0	0.00e+00	0	27	0	191889408	44	5728
2026-01-13 19:43:17.39	26.96	5.36	-35.2	-36.1	22.0	0.00e+00	0	27	0	197132288	44	5774
2026-01-13 19:43:18.40	26.87	5.42	-35.1	-35.9	22.1	0.00e+00	0	27	0	202375168	44	5638
2026-01-13 19:43:19.41	26.78	5.48	-35.1	-35.9	22.1	0.00e+00	0	27	0	208666624	44	5638
2026-01-13 19:43:20.42	26.69	5.54	-35.1	-35.9	22.1	0.00e+00	0	27	0	213909504	44	5633
2026-01-13 19:43:21.43	26.60	5.60	-35.1	-35.9	22.2	0.00e+00	0	27	0	220200960	44	5635
2026-01-13 19:43:22.44	26.51	5.66	-34.9	-35.7	22.3	0.00e+00	0	27	0	225443840	44	5553
2026-01-13 19:43:23.45	26.42	5.72	-35.0	-35.8	22.3	0.00e+00	0	27	0	230686720	44	5569
2026-01-13 19:43:24.46	26.33	5.78	-34.7	-35.5	22.4	0.00e+00	0	27	0	236978176	44	5431
2026-01-13 19:43:25.47	26.24	5.84	-34.9	-35.6	22.4	0.00e+00	0	27	0	242221056	42	6159
2026-01-13 19:43:26.48	26.14	5.90	-34.7	-35.5	22.6	0.00e+00	0	27	0	248512512	42	6056
2026-01-13 19:43:27.49	26.05	5.96	-34.8	-35.6	22.5	0.00e+00	0	27	0	253755392	42	6142
2026-01-13 19:43:28.50	25.96	6.02	-34.7	-35.5	22.6	0.00e+00	0	27	0	258998272	42	6099
2026-01-13 19:43:29.51	25.87	6.08	-34.5	-35.3	22.7	0.00e+00	0	27	0	265289728	42	5933
2026-01-13 19:43:30.52	25.77	6.14	-34.8	-35.6	22.5	0.00e+00	0	27	0	270532608	42	6161
2026-01-13 19:43:31.53	25.68	6.20	-34.7	-35.5	22.6	0.00e+00	0	27	0	276824064	42	6069
2026-01-13 19:43:32.54	25.58	6.26	-34.7	-35.4	22.7	0.00e+00	0	27	0	282066944	42	6023
2026-01-13 19:43:33.55	25.49	6.32	-34.7	-35.5	22.7	0.00e+00	0	27	0	288358400	42	6037
2026-01-13 19:43:34.56	25.39	6.38	-34.7	-35.5	22.7	0.00e+00	0	27	0	293601280	42	6077
2026-01-13 19:43:35.57	25.29	6.44	-34.7	-35.5	22.7	0.00e+00	0	27	0	299892736	42	6051
2026-01-13 19:43:36.58	25.20	6.51	-34.7	-35.5	22.7	0.00e+00	0	27	0	305135616	42	6061
2026-01-13 19:43:37.59	25.10	6.57	-34.6	-35.4	22.7	0.00e+00	0	27	0	310378496	42	5988
2026-01-13 19:43:38.61	25.00	6.63	-34.6	-35.4	22.8	0.00e+00	0	27	0	316669952	42	6012
2026-01-13 19:43:39.61	24.91	6.69	-34.6	-35.4	22.8	0.00e+00	0	27	0	321912832	42	5970
2026-01-13 19:43:40.63	24.81	6.75	-34.5	-35.3	22.9	0.00e+00	0	27	0	328204288	42	5916
2026-01-13 19:43:41.64	24.71	6.81	-34.6	-35.4	22.8	0.00e+00	0	27	0	333447168	42	5968
2026-01-13 19:43:42.65	24.61	6.87	-34.5	-35.2	22.9	0.00e+00	0	27	0	338690048	42	5884
2026-01-13 19:43:43.66	24.51	6.93	-34.4	-35.2	23.0	0.00e+00	0	27	0	344981504	42	5858
2026-01-13 19:43:44.67	24.41	6.99	-34.4	-35.2	23.0	0.00e+00	0	27	0	350224384	42	5829
2026-01-13 19:43:45.68	24.31	7.06	-34.4	-35.2	23.0	0.00e+00	0	27	0	356515840	42	5837
2026-01-13 19:43:46.68	24.21	7.12	-34.5	-35.2	22.9	0.00e+00	0	27	0	361758720	42	5896
2026-01-13 19:43:47.69	24.11	7.18	-34.5	-35.3	23.0	0.00e+00	0	27	0	367001600	42	5907
2026-01-13 19:43:48.70	24.01	7.24	-34.6	-35.3	22.9	0.00e+00	0	27	0	373293056	42	5944
2026-01-13 19:43:49.71	23.90	7.30	-34.4	-35.2	23.1	0.00e+00	0	27	0	378535936	42	5831
2026-01-13 19:43:50.72	23.80	7.36	-34.4	-35.2	23.1	0.00e+00	0	27	0	384827392	42	5848
2026-01-13 19:43:51.73	23.70	7.42	-34.3	-35.0	23.2	0.00e+00	0	27	0	390070272	42	5740
2026-01-13 19:43:52.74	23.59	7.49	-34.3	-35.1	23.1	0.00e+00	0	27	0	396361728	42	5769
2026-01-13 19:43:53.75	23.49	7.55	-34.3	-35.0	23.2	0.00e+00	0	27	0	401604608	42	5734
2026-01-13 19:43:54.76	23.39	7.61	-34.3	-35.1	23.2	0.00e+00	0	27	0	407896064	42	5763
2026-01-13 19:43:55.77	23.28	7.67	-34.4	-35.2	23.0	0.00e+00	0	27	0	413138944	42	5856
2026-01-13 19:43:56.78	23.18	7.73	-34.2	-34.9	23.3	0.00e+00	0	27	0	418381824	42	5691
2026-01-13 19:43:57.79	23.07	7.80	-34.2	-34.9	23.4	0.00e+00	0	27	0	424673280	42	5649
2026-01-13 19:43:58.80	22.96	7.86	-34.2	-34.9	23.3	0.00e+00	0	27	0	429916160	42	5685
2026-01-13 19:43:59.81	22.86	7.92	-34.2	-35.0	23.2	0.00e+00	0	27	0	436207616	42	5716
2026-01-13 19:44:00.82	22.75	7.98	-34.2	-34.9	23.4	0.00e+00	0	27	0	441450496	42	5659
2026-01-13 19:44:01.83	22.64	8.04	-34.4	-35.1	23.1	0.00e+00	0	27	0	446693376	42	5812
2026-01-13 19:44:02.83	22.54	8.11	-34.2	-34.9	23.3	0.00e+00	0	27	0	452984832	42	5693
2026-01-13 19:44:03.85	22.43	8.17	-34.1	-34.8	23.5	0.00e+00	0	27	0	458227712	42	5583
2026-01-13 19:44:04.85	22.32	8.23	-34.0	-34.7	23.5	0.00e+00	0	27	0	464519168	42	5551
2026-01-13 19:44:05.86	22.21	8.29	-34.0	-34.7	23.6	0.00e+00	0	27	0	469762048	42	5546
2026-01-13 19:44:06.87	22.10	8.36	-33.9	-34.6	23.7	0.00e+00	0	27	0	475004928	42	5471
2026-01-13 19:44:07.88	21.99	8.42	-33.8	-34.6	23.7	0.00e+00	0	27	0	481296384	42	5457
2026-01-13 19:44:08.89	21.88	8.48	-33.9	-34.6	23.6	0.00e+00	0	27	0	486539264	42	5502
2026-01-13 19:44:09.90	21.76	8.54	-34.0	-34.7	23.6	0.00e+00	0	27	0	492830720	42	5533
2026-01-13 19:44:10.91	21.65	8.61	-34.2	-34.9	23.4	0.00e+00	0	27	0	498073600	42	5667
2026-01-13 19:44:11.92	21.54	8.67	-34.1	-34.9	23.5	0.00e+00	0	27	0	504365056	42	5644
2026-01-13 19:44:12.93	21.43	8.73	-34.2	-35.0	23.3	0.00e+00	0	27	0	509607936	42	5717
2026-01-13 19:44:13.94	21.31	8.79	-34.2	-35.0	23.4	0.00e+00	0	27	0	514850816	42	5723
2026-01-13 19:44:14.94	21.20	8.86	-34.1	-34.9	23.4	0.00e+00	0	27	0	521142272	42	5648
2026-01-13 19:44:15.95	21.09	8.92	-34.0	-34.8	23.6	0.00e+00	0	27	0	526385152	42	5568
2026-01-13 19:44:16.96	20.97	8.98	-33.9	-34.7	23.6	0.00e+00	0	27	0	532676608	42	5513
2026-01-13 19:44:17.97	20.86	9.05	-34.0	-34.8	23.5	0.00e+00	0	27	0	537919488	42	5582
2026-01-13 19:44:18.98	20.74	9.11	-34.1	-34.9	23.4	0.00e+00	0	27	0	543162368	42	5642
2026-01-13 19:44:19.99	20.62	9.17	-33.9	-34.6	23.7	0.00e+00	0	27	0	549453824	42	5491
2026-01-13 19:44:21.00	20.51	9.24	-33.6	-34.4	23.9	0.00e+00	0	27	0	554696704	40	5972
2026-01-13 19:44:22.01	20.39	9.30	-33.9	-34.5	23.8	0.00e+00	0	27	0	560988160	40	6100
2026-01-13 19:44:23.02	20.27	9.36	-33.7	-34.4	23.9	0.00e+00	0	27	0	566231040	40	5984
2026-01-13 19:44:24.03	20.15	9.43	-33.7	-34.3	23.9	0.00e+00	0	28	0	571473920	40	5945
2026-01-13 19:44:25.04	20.03	9.49	-33.4	-34.1	24.2	0.00e+00	0	27	0	577765376	40	5791
2026-01-13 19:44:26.05	19.91	9.55	-33.3	-33.9	24.3	0.00e+00	0	27	0	583008256	40	5688
2026-01-13 19:44:27.06	19.79	9.62	-33.3	-34.0	24.3	0.00e+00	0	27	0	589299712	40	5705
2026-01-13 19:44:28.07	19.67	9.68	-33.3	-34.0	24.3	0.00e+00	0	27	0	594542592	40	5697
2026-01-13 19:44:29.08	19.55	9.74	-33.2	-33.8	24.4	0.00e+00	0	28	0	600834048	40	5613
2026-01-13 19:44:30.09	19.43	9.81	-33.1	-33.8	24.5	0.00e+00	0	27	0	606076928	40	5584
2026-01-13 19:44:31.10	19.30	9.87	-33.2	-33.8	24.4	0.00e+00	0	27	0	611319808	40	5627
2026-01-13 19:44:32.11	19.18	9.93	-33.1	-33.8	24.5	0.00e+00	0	27	0	617611264	40	5615
2026-01-13 19:44:33.12	19.06	10.00	-33.2	-33.9	24.4	0.00e+00	0	28	0	622854144	40	5686
2026-01-13 19:44:34.13	18.93	10.06	-33.2	-33.9	24.4	0.00e+00	0	27	0	629145600	40	5677
2026-01-13 19:44:35.14	18.81	10.12	-33.1	-33.8	24.4	0.00e+00	0	27	0	634388480	40	5596
2026-01-13 19:44:36.15	18.68	10.19	-33.2	-33.9	24.3	0.00e+00	0	27	0	639631360	40	5664
2026-01-13 19:44:37.16	18.56	10.25	-33.1	-33.8	24.5	0.00e+00	0	27	0	645922816	40	5576
2026-01-13 19:44:38.17	18.43	10.32	-33.2	-33.9	24.4	0.00e+00	0	27	0	651165696	40	5644
2026-01-13 19:44:39.18	18.30	10.38	-33.2	-33.9	24.3	0.00e+00	0	27	0	657457152	40	5669
2026-01-13 19:44:40.19	18.18	10.44	-33.1	-33.8	24.4	0.00e+00	0	27	0	662700032	40	5619
2026-01-13 19:44:41.20	18.05	10.51	-33.1	-33.8	24.4	0.00e+00	0	27	0	667942912	40	5629
2026-01-13 19:44:42.21	17.92	10.57	-33.2	-33.9	24.4	0.00e+00	0	27	0	674234368	40	5689
2026-01-13 19:44:43.21	17.79	10.63	-33.1	-33.8	24.4	0.00e+00	0	27	0	679477248	40	5601
2026-01-13 19:44:44.22	17.66	10.70	-33.3	-34.0	24.3	0.00e+00	0	27	0	685768704	40	5730
2026-01-13 19:44:45.24	17.53	10.76	-33.1	-33.8	24.4	0.00e+00	0	27	0	691011584	40	5609
2026-01-13 19:44:46.24	17.40	10.83	-33.1	-33.8	24.5	0.00e+00	0	27	0	697303040	40	5590
2026-01-13 19:44:47.25	17.27	10.89	-33.3	-34.0	24.4	0.00e+00	0	27	0	702545920	40	5727
2026-01-13 19:44:48.26	17.14	10.95	-33.2	-33.9	24.5	0.00e+00	0	27	0	708837376	40	5678
2026-01-13 19:44:49.27	17.00	11.02	-33.4	-34.1	24.3	0.00e+00	0	28	0	714080256	40	5800
2026-01-13 19:44:50.28	16.87	11.08	-33.1	-33.8	24.5	0.00e+00	0	27	0	719323136	40	5624
2026-01-13 19:44:51.29	16.74	11.15	-33.1	-33.8	24.5	0.00e+00	0	27	0	725614592	40	5614
2026-01-13 19:44:52.30	16.60	11.21	-33.1	-33.8	24.6	0.00e+00	0	27	0	730857472	40	5585
2026-01-13 19:44:53.30	16.47	11.27	-32.9	-33.6	24.7	0.00e+00	0	27	0	736100352	40	5478
2026-01-13 19:44:54.31	16.33	11.34	-32.7	-33.3	24.9	0.00e+00	0	27	0	742391808	38	5956
2026-01-13 19:44:55.32	16.20	11.40	-32.8	-33.4	24.9	0.00e+00	0	27	0	747634688	38	6026
2026-01-13 19:44:56.33	16.06	11.47	-32.6	-33.3	25.0	0.00e+00	0	27	0	753926144	38	5918
2026-01-13 19:44:57.34	15.92	11.53	-32.8	-33.5	24.8	0.00e+00	0	27	0	759169024	38	6067
2026-01-13 19:44:58.35	15.78	11.59	-32.9	-33.6	24.8	0.00e+00	0	27	0	764411904	38	6139
2026-01-13 19:44:59.36	15.64	11.66	-33.0	-33.7	24.7	0.00e+00	0	27	0	770703360	38	6241
2026-01-13 19:45:00.37	15.50	11.72	-32.9	-33.6	24.7	0.00e+00	0	27	0	775946240	38	6133
2026-01-13 19:45:01.38	15.36	11.79	-33.0	-33.7	24.7	0.00e+00	0	27	0	782237696	38	6201
2026-01-13 19:45:02.39	15.22	11.85	-32.9	-33.6	24.8	0.00e+00	0	27	0	787480576	38	6141
2026-01-13 19:45:03.40	15.08	11.92	-33.0	-33.7	24.6	0.00e+00	0	27	0	793772032	38	6230
2026-01-13 19:45:04.41	14.94	11.98	-33.0	-33.7	24.8	0.00e+00	0	28	0	799014912	38	6174
2026-01-13 19:45:05.42	14.80	12.04	-32.8	-33.5	24.8	0.00e+00	0	27	0	805306368	38	6091
2026-01-13 19:45:06.43	14.65	12.11	-32.9	-33.6	24.9	0.00e+00	0	27	0	810549248	38	6151
2026-01-13 19:45:07.44	14.51	12.17	-32.6	-33.3	25.1	0.00e+00	0	27	0	815792128	38	5928
2026-01-13 19:45:08.45	14.37	12.24	-32.6	-33.2	25.1	0.00e+00	0	27	0	822083584	38	5894
2026-01-13 19:45:09.45	14.22	12.30	-32.6	-33.3	25.1	0.00e+00	0	27	0	827326464	38	5915
2026-01-13 19:45:10.47	14.07	12.36	-32.7	-33.3	25.0	0.00e+00	0	27	0	833617920	38	5964
2026-01-13 19:45:11.47	13.93	12.43	-32.6	-33.3	25.1	0.00e+00	0	27	0	838860800	38	5918
2026-01-13 19:45:12.48	13.78	12.49	-32.6	-33.3	25.1	0.00e+00	0	27	0	844103680	38	5941
2026-01-13 19:45:13.50	13.63	12.56	-32.5	-33.2	25.1	0.00e+00	0	27	0	850395136	38	5856
2026-01-13 19:45:14.51	13.48	12.62	-32.4	-33.1	25.3	0.00e+00	0	27	0	855638016	38	5820
2026-01-13 19:45:15.52	13.34	12.68	-32.5	-33.1	25.2	0.00e+00	0	27	0	861929472	38	5804
2026-01-13 19:45:16.52	13.19	12.75	-32.3	-33.0	25.4	0.00e+00	0	27	0	867172352	38	5729
2026-01-13 19:45:17.54	13.03	12.81	-32.2	-32.9	25.4	0.00e+00	0	27	0	872415232	38	5657
2026-01-13 19:45:18.55	12.88	12.88	-32.3	-33.0	25.3	0.00e+00	0	27	0	878706688	38	5732
2026-01-13 19:45:19.56	12.73	12.94	-32.3	-32.9	25.4	0.00e+00	0	27	0	883949568	38	5678
2026-01-13 19:45:20.57	12.58	13.00	-32.3	-32.9	25.4	0.00e+00	0	27	0	890241024	38	5669
2026-01-13 19:45:21.57	12.43	13.07	-32.4	-33.1	25.4	0.00e+00	0	27	0	895483904	38	5762
2026-01-13 19:45:22.58	12.27	13.13	-32.3	-32.9	25.4	0.00e+00	0	27	0	901775360	38	5690
2026-01-13 19:45:23.59	12.12	13.19	-32.4	-33.1	25.3	0.00e+00	0	27	0	907018240	38	5793
2026-01-13 19:45:24.60	11.96	13.26	-32.4	-33.0	25.4	0.00e+00	0	27	0	912261120	38	5736
2026-01-13 19:45:25.61	11.81	13.32	-32.2	-32.9	25.5	0.00e+00	0	27	0	918552576	38	5680
2026-01-13 19:45:26.62	11.65	13.39	-32.3	-33.0	25.4	0.00e+00	0	27	0	923795456	38	5700
2026-01-13 19:45:27.63	11.49	13.45	-32.2	-32.9	25.5	0.00e+00	0	27	0	930086912	38	5639
2026-01-13 19:45:28.64	11.34	13.51	-32.2	-32.8	25.5	0.00e+00	0	28	0	935329792	38	5600
2026-01-13 19:45:29.65	11.18	13.58	-32.2	-32.9	25.5	0.00e+00	0	27	0	940572672	38	5667
2026-01-13 19:45:30.66	11.02	13.64	-32.1	-32.7	25.6	0.00e+00	0	28	0	946864128	38	5555
2026-01-13 19:45:31.67	10.86	13.70	-32.1	-32.7	25.6	0.00e+00	0	28	0	952107008	38	5566
2026-01-13 19:45:32.67	10.70	13.77	-32.2	-32.8	25.5	0.00e+00	0	27	0	958398464	38	5616
2026-01-13 19:45:33.68	10.54	13.83	-32.2	-32.9	25.4	0.00e+00	0	27	0	963641344	38	5672
2026-01-13 19:45:34.69	10.38	13.89	-32.2	-32.9	25.5	0.00e+00	0	27	0	968884224	38	5670
2026-01-13 19:45:35.70	10.21	13.95	-32.2	-32.9	25.5	0.00e+00	0	27	0	975175680	38	5643
2026-01-13 19:45:36.71	10.05	14.02	-32.3	-32.9	25.5	0.00e+00	0	27	0	980418560	38	5683
2026-01-13 19:45:37.72	9.88	14.08	-32.2	-32.9	25.6	0.00e+00	0	27	0	986710016	38	5632
2026-01-13 19:45:38.73	9.72	14.14	-32.3	-32.9	25.5	0.00e+00	0	27	0	991952896	38	5680
2026-01-13 19:45:39.74	9.55	14.21	-32.1	-32.7	25.7	0.00e+00	0	27	0	998244352	38	5555
2026-01-13 19:45:40.75	9.39	14.27	-32.2	-32.9	25.5	0.00e+00	0	27	0	1003487232	38	5662
2026-01-13 19:45:41.76	9.22	14.33	-32.1	-32.7	25.6	0.00e+00	0	27	0	1009778688	38	5551
2026-01-13 19:45:42.77	9.05	14.39	-32.1	-32.8	25.6	0.00e+00	0	27	0	1015021568	38	5610
2026-01-13 19:45:43.78	8.88	14.46	-32.1	-32.7	25.6	0.00e+00	0	27	0	1020264448	38	5561
2026-01-13 19:45:44.79	8.71	14.52	-32.1	-32.8	25.6	0.00e+00	0	27	0	1026555904	38	5595
2026-01-13 19:45:45.80	8.54	14.58	-32.1	-32.8	25.6	0.00e+00	0	27	0	1031798784	38	5574
2026-01-13 19:45:46.80	8.38	14.64	-31.9	-32.6	25.7	0.00e+00	0	27	0	1038090240	38	5450
2026-01-13 19:45:47.82	8.20	14.70	-31.9	-32.5	25.9	0.00e+00	0	27	0	1043333120	38	5400
2026-01-13 19:45:48.82	8.03	14.77	-31.8	-32.5	25.9	0.00e+00	0	27	0	1048576000	38	5381
2026-01-13 19:45:49.83	7.86	14.83	-31.8	-32.4	26.0	0.00e+00	0	27	0	1054867456	36	6009
2026-01-13 19:45:50.84	7.69	14.89	-31.6	-32.3	26.0	0.00e+00	0	27	0	1060110336	36	5907
2026-01-13 19:45:51.85	7.51	14.95	-31.7	-32.4	25.9	0.00e+00	0	27	0	1066401792	36	5980
2026-01-13 19:45:52.86	7.34	15.01	-31.6	-32.3	26.0	0.00e+00	0	27	0	1071644672	36	5916
2026-01-13 19:45:53.87	7.16	15.07	-31.7	-32.3	26.0	0.00e+00	0	27	0	1076887552	36	5943
2026-01-13 19:45:54.89	6.98	15.14	-31.7	-32.4	25.9	0.00e+00	0	27	0	1083179008	36	5975
2026-01-13 19:45:55.90	6.80	15.20	-31.9	-32.5	25.8	0.00e+00	0	27	0	1088421888	36	6055
2026-01-13 19:45:56.90	6.63	15.26	-32.0	-32.6	25.7	0.00e+00	0	27	0	1094713344	36	6162
2026-01-13 19:45:57.91	6.45	15.32	-32.0	-32.6	25.7	0.00e+00	0	27	0	1099956224	36	6156
2026-01-13 19:45:58.92	6.27	15.38	-32.0	-32.7	25.7	0.00e+00	0	27	0	1106247680	36	6217
2026-01-13 19:45:59.93	6.09	15.44	-32.0	-32.7	25.7	0.00e+00	0	27	0	1111490560	36	6188
2026-01-13 19:46:00.94	5.91	15.50	-32.0	-32.7	25.7	0.00e+00	0	27	0	1116733440	36	6189
2026-01-13 19:46:01.95	5.73	15.56	-31.9	-32.6	25.7	0.00e+00	0	27	0	1123024896	36	6136
2026-01-13 19:46:02.96	5.54	15.62	-31.9	-32.5	25.9	0.00e+00	0	27	0	1128267776	36	6103
2026-01-13 19:46:03.97	5.36	15.68	-31.6	-32.3	26.0	0.00e+00	0	27	0	1134559232	36	5927
2026-01-13 19:46:04.98	5.18	15.74	-31.8	-32.5	25.8	0.00e+00	0	27	0	1139802112	36	6066
2026-01-13 19:46:05.99	4.99	15.80	-31.6	-32.3	26.1	0.00e+00	0	28	0	1145044992	36	5902
2026-01-13 19:46:07.00	4.81	15.86	-31.6	-32.2	26.1	0.00e+00	0	27	0	1151336448	36	5867
2026-01-13 19:46:08.01	4.62	15.92	-31.5	-32.2	26.2	0.00e+00	0	27	0	1156579328	36	5837
2026-01-13 19:46:09.02	4.43	15.98	-31.5	-32.2	26.2	0.00e+00	0	27	0	1162870784	36	5831
2026-01-13 19:46:10.03	4.25	16.04	-31.5	-32.2	26.2	0.00e+00	0	27	0	1168113664	36	5836
2026-01-13 19:46:11.03	4.06	16.10	-31.5	-32.1	26.2	0.00e+00	0	28	0	1173356544	36	5807
2026-01-13 19:46:12.04	3.87	16.15	-31.5	-32.2	26.2	0.00e+00	0	27	0	1179648000	36	5841
2026-01-13 19:46:13.05	3.68	16.21	-31.5	-32.1	26.3	0.00e+00	0	27	0	1184890880	36	5796
2026-01-13 19:46:14.06	3.49	16.27	-31.5	-32.1	26.3	0.00e+00	0	27	0	1191182336	36	5801
2026-01-13 19:46:15.07	3.30	16.33	-31.5	-32.2	26.2	0.00e+00	0	28	0	1196425216	36	5838
2026-01-13 19:46:16.08	3.10	16.39	-31.6	-32.2	26.2	0.00e+00	0	27	0	1202716672	36	5876
2026-01-13 19:46:17.09	2.91	16.45	-31.5	-32.1	26.3	0.00e+00	0	27	0	1207959552	36	5822
2026-01-13 19:46:18.10	2.72	16.50	-31.5	-32.2	26.2	0.00e+00	0	27	0	1214251008	36	5840
2026-01-13 19:46:19.11	2.52	16.56	-31.4	-32.1	26.3	0.00e+00	0	27	0	1219493888	36	5785
2026-01-13 19:46:20.12	2.33	16.62	-31.4	-32.1	26.3	0.00e+00	0	27	0	1224736768	36	5766
2026-01-13 19:46:21.13	2.13	16.68	-31.2	-31.8	26.6	0.00e+00	0	27	0	1231028224	36	5599
2026-01-13 19:46:22.14	1.93	16.73	-31.1	-31.7	26.5	0.00e+00	0	28	0	1236271104	36	5560
2026-01-13 19:46:23.15	1.74	16.79	-31.0	-31.7	26.5	0.00e+00	0	27	0	1241513984	36	5506
2026-01-13 19:46:24.16	1.54	16.84	-31.1	-31.7	26.6	0.00e+00	0	28	0	1247805440	36	5543
2026-01-13 19:46:25.17	1.34	16.90	-31.2	-31.8	26.4	0.00e+00	0	27	0	1253048320	36	5628
2026-01-13 19:46:26.18	1.14	16.96	-31.3	-31.9	26.5	0.00e+00	0	28	0	1259339776	36	5662
2026-01-13 19:46:27.19	0.94	17.01	-31.4	-32.0	26.2	0.00e+00	0	28	0	1264582656	36	5740
2026-01-13 19:46:28.20	0.74	17.07	-31.3	-32.0	26.3	0.00e+00	0	28	0	1269825536	36	5704
2026-01-13 19:46:29.21	0.54	17.12	-31.4	-32.0	26.3	0.00e+00	0	27	0	1276116992	36	5746
2026-01-13 19:46:30.22	0.33	17.18	-31.3	-32.0	26.2	0.00e+00	0	27	0	1281359872	36	5715
2026-01-13 19:46:31.23	0.13	17.23	-31.3	-32.0	26.4	0.00e+00	0	27	0	1287651328	36	5710
2026-01-13 19:46:32.24	359.92	17.29	-31.2	-31.8	26.5	0.00e+00	0	27	0	1292894208	36	5588
2026-01-13 19:46:33.25	359.72	17.34	-31.1	-31.8	26.6	0.00e+00	0	27	0	1299185664	36	5576
2026-01-13 19:46:34.26	359.51	17.40	-31.2	-31.8	26.6	0.00e+00	0	28	0	1304428544	36	5607
2026-01-13 19:46:35.27	359.31	17.45	-31.2	-31.8	26.5	0.00e+00	0	28	0	1310720000	36	5604
2026-01-13 19:46:36.28	359.10	17.50	-31.2	-31.8	26.5	0.00e+00	0	28	0	1315962880	36	5592
2026-01-13 19:46:37.29	358.89	17.56	-31.1	-31.8	26.6	0.00e+00	0	28	0	1321205760	36	5579
2026-01-13 19:46:38.30	358.68	17.61	-31.2	-31.8	26.5	0.00e+00	0	28	0	1327497216	36	5621
2026-01-13 19:46:39.31	358.47	17.66	-31.0	-31.6	26.7	0.00e+00	0	27	0	1332740096	36	5488
2026-01-13 19:46:40.31	358.26	17.71	-30.9	-31.5	26.8	0.00e+00	0	27	0	1339031552	36	5425
2026-01-13 19:46:41.32	358.05	17.76	-30.8	-31.4	26.8	0.00e+00	0	27	0	1344274432	36	5372
2026-01-13 19:46:42.33	357.84	17.82	-31.0	-31.7	26.7	0.00e+00	0	27	0	1349517312	36	5511
2026-01-13 19:46:43.34	357.63	17.87	-30.8	-31.5	26.9	0.00e+00	0	27	0	1355808768	36	5386
2026-01-13 19:46:44.35	357.42	17.92	-30.9	-31.5	26.8	0.00e+00	0	28	0	1361051648	36	5426
2026-01-13 19:46:45.36	357.20	17.97	-30.7	-31.4	26.9	0.00e+00	0	27	0	1367343104	36	5339
2026-01-13 19:46:46.37	356.99	18.02	-30.9	-31.5	26.8	0.00e+00	0	27	0	1372585984	34	6054
2026-01-13 19:46:47.38	356.77	18.07	-30.8	-31.5	26.8	0.00e+00	0	27	0	1377828864	34	6038
2026-01-13 19:46:48.39	356.56	18.12	-30.8	-31.4	26.8	0.00e+00	0	27	0	1384120320	34	6012
2026-01-13 19:46:49.40	356.34	18.17	-30.7	-31.4	26.9	0.00e+00	0	27	0	1389363200	34	5972
2026-01-13 19:46:50.41	356.12	18.22	-30.7	-31.4	26.9	0.00e+00	0	27	0	1395654656	34	5989
2026-01-13 19:46:51.42	355.90	18.27	-30.8	-31.4	26.8	0.00e+00	0	27	0	1400897536	34	6009
2026-01-13 19:46:52.42	355.69	18.32	-30.8	-31.4	26.8	0.00e+00	0	28	0	1407188992	34	6029
2026-01-13 19:46:53.43	355.47	18.36	-30.8	-31.4	26.8	0.00e+00	0	27	0	1412431872	34	6000
2026-01-13 19:46:54.45	355.24	18.41	-30.7	-31.3	26.9	0.00e+00	0	27	0	1417674752	34	5955
2026-01-13 19:46:55.45	355.02	18.46	-30.6	-31.2	26.9	0.00e+00	0	27	0	1423966208	34	5896
2026-01-13 19:46:56.46	354.80	18.51	-30.5	-31.1	27.0	0.00e+00	0	27	0	1429209088	34	5801
2026-01-13 19:46:57.47	354.58	18.55	-30.5	-31.1	27.1	0.00e+00	0	27	0	1435500544	34	5788
2026-01-13 19:46:58.48	354.36	18.60	-30.4	-31.0	27.2	0.00e+00	0	27	0	1440743424	34	5722
2026-01-13 19:46:59.49	354.13	18.65	-30.5	-31.1	27.1	0.00e+00	0	27	0	1445986304	34	5819
2026-01-13 19:47:00.50	353.91	18.69	-30.7	-31.3	27.0	0.00e+00	0	27	0	1452277760	34	5911
2026-01-13 19:47:01.51	353.68	18.74	-30.6	-31.3	27.0	0.00e+00	0	27	0	1457520640	34	5904
2026-01-13 19:47:02.52	353.46	18.78	-30.7	-31.3	27.0	0.00e+00	0	27	0	1463812096	34	5925
2026-01-13 19:47:03.53	353.23	18.83	-30.6	-31.2	27.0	0.00e+00	0	27	0	1469054976	34	5868
2026-01-13 19:47:04.54	353.00	18.87	-30.5	-31.1	27.1	0.00e+00	0	27	0	1474297856	34	5800
2026-01-13 19:47:05.55	352.78	18.91	-30.6	-31.3	27.0	0.00e+00	0	27	0	1480589312	34	5908
2026-01-13 19:47:06.56	352.55	18.96	-30.6	-31.2	27.0	0.00e+00	0	27	0	1485832192	34	5894
2026-01-13 19:47:07.57	352.32	19.00	-30.7	-31.3	27.0	0.00e+00	0	27	0	1492123648	34	5945
2026-01-13 19:47:08.58	352.09	19.04	-30.8	-31.5	26.9	0.00e+00	0	27	0	1497366528	34	6048
2026-01-13 19:47:09.59	351.86	19.08	-30.8	-31.4	26.9	0.00e+00	0	27	0	1503657984	34	6033
2026-01-13 19:47:10.60	351.63	19.13	-30.9	-31.6	26.7	0.00e+00	0	27	0	1508900864	34	6137
2026-01-13 19:47:11.61	351.39	19.17	-31.0	-31.6	26.7	0.00e+00	0	27	0	1515192320	34	6137
2026-01-13 19:47:12.62	351.16	19.21	-31.0	-31.7	26.6	0.00e+00	0	27	0	1520435200	34	6209
2026-01-13 19:47:13.63	350.93	19.25	-30.9	-31.5	26.9	0.00e+00	0	27	0	1525678080	34	6058
2026-01-13 19:47:14.64	350.69	19.29	-30.8	-31.5	26.8	0.00e+00	0	27	0	1531969536	34	6040
2026-01-13 19:47:15.65	350.46	19.33	-31.0	-31.7	26.7	0.00e+00	0	27	0	1537212416	34	6207
2026-01-13 19:47:16.66	350.22	19.37	-30.9	-31.5	26.8	0.00e+00	0	27	0	1543503872	34	6071
2026-01-13 19:47:17.67	349.99	19.41	-31.0	-31.6	26.8	0.00e+00	0	27	0	1548746752	34	6136
2026-01-13 19:47:18.68	349.75	19.44	-31.1	-31.8	26.5	0.00e+00	0	27	0	1553989632	34	6278
2026-01-13 19:47:19.69	349.52	19.48	-31.1	-31.7	26.6	0.00e+00	0	27	0	1560281088	34	6244
2026-01-13 19:47:20.69	349.28	19.52	-30.9	-31.5	26.9	0.00e+00	0	27	0	1565523968	34	6051
2026-01-13 19:47:21.70	349.04	19.56	-30.8	-31.4	26.9	0.00e+00	0	27	0	1570766848	34	5986
2026-01-13 19:47:22.71	348.80	19.59	-30.8	-31.4	26.9	0.00e+00	0	27	0	1577058304	34	6003
2026-01-13 19:47:23.72	348.57	19.63	-30.7	-31.4	26.9	0.00e+00	0	27	0	1582301184	34	5967
2026-01-13 19:47:24.73	348.33	19.66	-30.4	-31.0	27.2	0.00e+00	0	27	0	1588592640	34	5737
2026-01-13 19:47:25.75	348.08	19.70	-30.3	-31.0	27.2	0.00e+00	0	27	0	1593835520	34	5699
2026-01-13 19:47:26.75	347.84	19.73	-30.2	-30.8	27.3	0.00e+00	0	27	0	1600126976	34	5619
2026-01-13 19:47:27.77	347.60	19.77	-30.1	-30.7	27.4	0.00e+00	0	27	0	1605369856	34	5557
2026-01-13 19:47:28.77	347.36	19.80	-30.1	-30.7	27.4	0.00e+00	0	27	0	1611661312	34	5562
2026-01-13 19:47:29.78	347.12	19.83	-30.1	-30.7	27.4	0.00e+00	0	27	0	1616904192	34	5552
2026-01-13 19:47:30.80	346.87	19.87	-30.0	-30.6	27.5	0.00e+00	0	27	0	1622147072	34	5483
2026-01-13 19:47:31.80	346.63	19.90	-30.1	-30.7	27.5	0.00e+00	0	27	0	1628438528	34	5516
2026-01-13 19:47:32.81	346.39	19.93	-29.9	-30.5	27.6	0.00e+00	0	27	0	1633681408	34	5429
2026-01-13 19:47:33.82	346.14	19.96	-30.1	-30.7	27.4	0.00e+00	0	27	0	1639972864	34	5531
2026-01-13 19:47:34.83	345.90	19.99	-29.9	-30.6	27.5	0.00e+00	0	28	0	1645215744	34	5461
2026-01-13 19:47:35.84	345.65	20.02	-30.1	-30.7	27.5	0.00e+00	0	27	0	1650458624	34	5552
2026-01-13 19:47:36.85	345.41	20.05	-30.1	-30.7	27.4	0.00e+00	0	27	0	1656750080	34	5527
2026-01-13 19:47:37.86	345.16	20.08	-30.1	-30.8	27.4	0.00e+00	0	27	0	1661992960	34	5569
2026-01-13 19:47:38.87	344.91	20.11	-30.0	-30.6	27.5	0.00e+00	0	27	0	1668284416	34	5492
2026-01-13 19:47:39.88	344.67	20.14	-30.1	-30.7	27.4	0.00e+00	0	27	0	1673527296	34	5506
2026-01-13 19:47:40.89	344.42	20.16	-30.1	-30.8	27.4	0.00e+00	0	27	0	1678770176	34	5570
2026-01-13 19:47:41.90	344.17	20.19	-30.0	-30.7	27.4	0.00e+00	0	27	0	1685061632	34	5521
2026-01-13 19:47:42.91	343.92	20.22	-30.0	-30.6	27.5	0.00e+00	0	27	0	1690304512	34	5470
2026-01-13 19:47:43.92	343.67	20.24	-30.1	-30.7	27.4	0.00e+00	0	27	0	1696595968	34	5525
2026-01-13 19:47:44.93	343.42	20.27	-30.0	-30.6	27.5	0.00e+00	0	27	0	1701838848	34	5464
2026-01-13 19:47:45.94	343.17	20.29	-30.0	-30.7	27.5	0.00e+00	0	27	0	1708130304	34	5510
2026-01-13 19:47:46.94	342.93	20.32	-30.0	-30.6	27.5	0.00e+00	0	27	0	1713373184	34	5474
2026-01-13 19:47:47.96	342.67	20.34	-30.0	-30.6	27.5	0.00e+00	0	27	0	1719664640	34	5482
2026-01-13 19:47:48.97	342.42	20.36	-30.0	-30.6	27.5	0.00e+00	0	27	0	1724907520	34	5483
2026-01-13 19:47:49.97	342.17	20.39	-30.1	-30.7	27.4	0.00e+00	0	27	0	1730150400	34	5548
2026-01-13 19:47:50.99	341.92	20.41	-30.2	-30.8	27.4	0.00e+00	0	27	0	1736441856	34	5567
2026-01-13 19:47:51.99	341.67	20.43	-30.3	-31.0	27.1	0.00e+00	0	27	0	1741684736	34	5718
2026-01-13 19:47:53.00	341.41	20.45	-30.4	-31.0	27.2	0.00e+00	0	27	0	1747976192	34	5754
2026-01-13 19:47:54.01	341.16	20.47	-30.5	-31.2	27.1	0.00e+00	0	27	0	1753219072	34	5829
2026-01-13 19:47:55.02	340.91	20.49	-30.3	-30.9	27.3	0.00e+00	0	27	0	1758461952	34	5695
2026-01-13 19:47:56.03	340.65	20.51	-30.2	-30.9	27.4	0.00e+00	0	27	0	1764753408	34	5631
2026-01-13 19:47:57.05	340.40	20.53	-30.2	-30.8	27.4	0.00e+00	0	27	0	1769996288	34	5579
2026-01-13 19:47:58.05	340.15	20.54	-30.1	-30.7	27.4	0.00e+00	0	27	0	1775239168	34	5522
2026-01-13 19:47:59.06	339.89	20.56	-30.1	-30.7	27.4	0.00e+00	0	27	0	1781530624	34	5539
2026-01-13 19:48:00.07	339.64	20.58	-30.2	-30.8	27.4	0.00e+00	0	27	0	1786773504	34	5603
2026-01-13 19:48:01.08	339.38	20.59	-30.2	-30.8	27.3	0.00e+00	0	27	0	1793064960	34	5601
2026-01-13 19:48:02.09	339.13	20.61	-30.4	-31.1	27.3	0.00e+00	0	27	0	1798307840	34	5770
2026-01-13 19:48:03.10	338.87	20.62	-30.3	-31.0	27.2	0.00e+00	0	27	0	1804599296	34	5714
2026-01-13 19:48:04.11	338.62	20.64	-30.3	-31.0	27.3	0.00e+00	0	27	0	1809842176	34	5704
2026-01-13 19:48:05.12	338.36	20.65	-30.3	-31.0	27.3	0.00e+00	0	27	0	1816133632	34	5699
2026-01-13 19:48:06.13	338.10	20.67	-30.4	-31.1	27.2	0.00e+00	0	27	0	1821376512	34	5779
2026-01-13 19:48:07.13	337.85	20.68	-30.1	-30.7	27.5	0.00e+00	0	27	0	1826619392	34	5507
2026-01-13 19:48:08.14	337.59	20.69	-30.1	-30.6	27.4	0.00e+00	0	27	0	1832910848	34	5491
2026-01-13 19:48:09.15	337.33	20.70	-30.0	-30.6	27.5	0.00e+00	0	27	0	1838153728	34	5489
2026-01-13 19:48:10.16	337.08	20.71	-30.0	-30.6	27.5	0.00e+00	0	27	0	1844445184	34	5491
2026-01-13 19:48:11.17	336.82	20.72	-30.0	-30.6	27.6	0.00e+00	0	27	0	1849688064	34	5463
2026-01-13 19:48:12.18	336.56	20.73	-30.0	-30.6	27.6	0.00e+00	0	27	0	1854930944	34	5456
2026-01-13 19:48:13.19	336.31	20.74	-30.0	-30.6	27.5	0.00e+00	0	27	0	1861222400	34	5451
2026-01-13 19:48:14.20	336.05	20.75	-30.1	-30.7	27.3	0.00e+00	0	27	0	1866465280	34	5540
2026-01-13 19:48:15.21	335.79	20.76	-30.1	-30.7	27.4	0.00e+00	0	27	0	1872756736	34	5556
2026-01-13 19:48:16.23	335.53	20.76	-30.2	-30.8	27.3	0.00e+00	0	27	0	1877999616	34	5628
2026-01-13 19:48:17.23	335.27	20.77	-30.2	-30.8	27.3	0.00e+00	0	27	0	1883242496	34	5594
2026-01-13 19:48:18.24	335.01	20.78	-30.3	-30.9	27.2	0.00e+00	0	27	0	1889533952	34	5647
2026-01-13 19:48:19.25	334.76	20.78	-30.4	-31.0	27.2	0.00e+00	0	27	0	1894776832	34	5727
2026-01-13 19:48:20.26	334.50	20.79	-30.6	-31.2	27.1	0.00e+00	0	27	0	1901068288	34	5845
2026-01-13 19:48:21.27	334.24	20.79	-30.6	-31.2	27.0	0.00e+00	0	27	0	1906311168	34	5878
2026-01-13 19:48:22.28	333.98	20.79	-30.8	-31.4	26.9	0.00e+00	0	27	0	1912602624	34	5983
2026-01-13 19:48:23.29	333.72	20.80	-30.6	-31.2	27.1	0.00e+00	0	27	0	1917845504	34	5875
2026-01-13 19:48:24.30	333.46	20.80	-30.2	-30.9	27.4	0.00e+00	0	27	0	1923088384	34	5639
2026-01-13 19:48:25.31	333.20	20.80	-30.2	-30.8	27.4	0.00e+00	0	27	0	1929379840	34	5596
2026-01-13 19:48:26.32	332.95	20.80	-30.2	-30.9	27.3	0.00e+00	0	27	0	1934622720	34	5634
2026-01-13 19:48:27.33	332.69	20.80	-30.1	-30.7	27.4	0.00e+00	0	27	0	1940914176	34	5558
2026-01-13 19:48:28.34	332.43	20.80	-30.1	-30.8	27.5	0.00e+00	0	27	0	1946157056	34	5568
2026-01-13 19:48:29.35	332.17	20.80	-30.0	-30.6	27.5	0.00e+00	0	27	0	1951399936	34	5461
2026-01-13 19:48:30.36	331.91	20.80	-30.0	-30.6	27.5	0.00e+00	0	27	0	1957691392	34	5444
2026-01-13 19:48:31.37	331.65	20.80	-30.1	-30.7	27.4	0.00e+00	0	27	0	1962934272	34	5514
2026-01-13 19:48:32.38	331.39	20.79	-30.0	-30.7	27.5	0.00e+00	0	27	0	1969225728	34	5524
2026-01-13 19:48:33.39	331.13	20.79	-30.2	-30.8	27.3	0.00e+00	0	27	0	1974468608	34	5612
2026-01-13 19:48:34.40	330.88	20.79	-30.2	-30.8	27.4	0.00e+00	0	27	0	1979711488	34	5583
2026-01-13 19:48:35.41	330.62	20.78	-30.1	-30.7	27.5	0.00e+00	0	27	0	1986002944	34	5550
2026-01-13 19:48:36.42	330.36	20.78	-30.1	-30.7	27.4	0.00e+00	0	27	0	1991245824	34	5535
2026-01-13 19:48:37.43	330.10	20.77	-30.2	-30.8	27.3	0.00e+00	0	27	0	1997537280	34	5621
2026-01-13 19:48:38.44	329.84	20.76	-30.3	-30.9	27.2	0.00e+00	0	27	0	2002780160	34	5692
2026-01-13 19:48:39.45	329.58	20.76	-30.2	-30.9	27.3	0.00e+00	0	27	0	2009071616	34	5645
2026-01-13 19:48:40.46	329.33	20.75	-30.3	-30.9	27.3	0.00e+00	0	27	0	2014314496	34	5659
2026-01-13 19:48:41.47	329.07	20.74	-30.2	-30.7	27.0	0.00e+00	0	27	0	2020605952	34	5564
2026-01-13 19:48:42.48	328.81	20.73	-30.2	-30.8	27.2	0.00e+00	0	27	0	2025848832	34	5608
2026-01-13 19:48:43.49	328.55	20.72	-30.4	-31.0	27.2	0.00e+00	0	27	0	2031091712	34	5742
2026-01-13 19:48:44.50	328.30	20.71	-30.4	-31.1	27.1	0.00e+00	0	27	0	2037383168	34	5789
2026-01-13 19:48:45.51	328.04	20.70	-30.5	-31.1	27.1	0.00e+00	0	27	0	2042626048	34	5826
2026-01-13 19:48:46.52	327.78	20.69	-30.5	-31.2	27.1	0.00e+00	0	27	0	2048917504	34	5879
2026-01-13 19:48:47.53	327.52	20.68	-30.5	-31.1	27.2	0.00e+00	0	27	0	2054160384	34	5772
2026-01-13 19:48:48.54	327.27	20.67	-30.4	-31.0	27.3	0.00e+00	0	27	0	2059403264	34	5757
2026-01-13 19:48:49.55	327.01	20.65	-30.2	-30.8	27.4	0.00e+00	0	27	0	2065694720	34	5600
2026-01-13 19:48:50.56	326.75	20.64	-30.3	-30.9	27.4	0.00e+00	0	27	0	2070937600	34	5680
2026-01-13 19:48:51.57	326.50	20.62	-30.1	-30.8	27.5	0.00e+00	0	27	0	2077229056	34	5583
2026-01-13 19:48:52.58	326.24	20.61	-30.1	-30.7	27.6	0.00e+00	0	27	0	2082471936	34	5520
2026-01-13 19:48:53.59	325.99	20.59	-30.2	-30.8	27.4	0.00e+00	0	27	0	2087714816	34	5573
2026-01-13 19:48:54.60	325.73	20.58	-30.3	-31.0	27.4	0.00e+00	0	27	0	2094006272	34	5709
2026-01-13 19:48:55.61	325.48	20.56	-30.1	-30.8	27.5	0.00e+00	0	27	0	2099249152	34	5576
2026-01-13 19:48:56.62	325.22	20.54	-30.3	-30.9	27.3	0.00e+00	0	27	0	2105540608	34	5694
2026-01-13 19:48:57.63	324.97	20.53	-30.2	-30.8	27.4	0.00e+00	0	27	0	2110783488	34	5625
2026-01-13 19:48:58.64	324.71	20.51	-30.3	-30.9	27.2	0.00e+00	0	27	0	2117074944	34	5666
2026-01-13 19:48:59.65	324.46	20.49	-30.2	-30.8	27.5	0.00e+00	0	27	0	2122317824	34	5577
2026-01-13 19:49:00.66	324.21	20.47	-30.0	-30.6	27.6	0.00e+00	0	27	0	2128609280	34	5477
2026-01-13 19:49:01.67	323.95	20.45	-29.9	-30.5	27.7	0.00e+00	0	27	0	2133852160	34	5406
2026-01-13 19:49:02.68	323.70	20.43	-30.0	-30.5	27.6	0.00e+00	0	27	0	2139095040	34	5426
2026-01-13 19:49:03.69	323.45	20.41	-30.1	-30.7	27.5	0.00e+00	0	27	0	2145386496	34	5515
2026-01-13 19:49:04.70	323.20	20.38	-30.1	-30.7	27.5	0.00e+00	0	27	0	2150629376	34	5515
2026-01-13 19:49:05.71	322.94	20.36	-30.1	-30.8	27.4	0.00e+00	0	27	0	2156920832	34	5579
2026-01-13 19:49:06.71	322.70	20.34	-30.2	-30.8	27.4	0.00e+00	0	27	0	2162163712	34	5590
2026-01-13 19:49:07.72	322.44	20.31	-30.1	-30.7	27.5	0.00e+00	0	27	0	2167406592	34	5538
2026-01-13 19:49:08.73	322.19	20.29	-30.0	-30.5	27.6	0.00e+00	0	27	0	2173698048	34	5437
2026-01-13 19:49:09.74	321.94	20.27	-29.9	-30.6	27.6	0.00e+00	0	27	0	2178940928	34	5440
2026-01-13 19:49:10.75	321.69	20.24	-30.0	-30.6	27.5	0.00e+00	0	27	0	2185232384	34	5494
2026-01-13 19:49:11.76	321.44	20.21	-30.0	-30.6	27.5	0.00e+00	0	27	0	2190475264	34	5492
2026-01-13 19:49:12.77	321.20	20.19	-30.1	-30.8	27.5	0.00e+00	0	27	0	2195718144	34	5577
2026-01-13 19:49:13.78	320.95	20.16	-30.2	-30.8	27.4	0.00e+00	0	27	0	2202009600	34	5606
2026-01-13 19:49:14.79	320.70	20.13	-30.2	-30.8	27.4	0.00e+00	0	28	0	2207252480	34	5572
2026-01-13 19:49:15.80	320.45	20.11	-30.2	-30.8	27.5	0.00e+00	0	27	0	2213543936	34	5606
2026-01-13 19:49:16.81	320.20	20.08	-30.2	-30.8	27.5	0.00e+00	0	27	0	2218786816	34	5583
2026-01-13 19:49:17.82	319.96	20.05	-30.2	-30.9	27.4	0.00e+00	0	27	0	2225078272	34	5649
2026-01-13 19:49:18.83	319.71	20.02	-30.2	-30.9	27.4	0.00e+00	0	27	0	2230321152	34	5656
2026-01-13 19:49:19.84	319.47	19.99	-30.3	-30.9	27.3	0.00e+00	0	27	0	2235564032	34	5647
2026-01-13 19:49:20.85	319.22	19.96	-30.4	-31.1	27.2	0.00e+00	0	27	0	2241855488	34	5767
2026-01-13 19:49:21.86	318.98	19.93	-30.2	-30.9	27.4	0.00e+00	0	27	0	2247098368	34	5640
2026-01-13 19:49:22.87	318.73	19.90	-30.2	-30.8	27.3	0.00e+00	0	27	0	2253389824	34	5590
2026-01-13 19:49:23.88	318.49	19.86	-30.1	-30.8	27.6	0.00e+00	0	27	0	2258632704	34	5567
2026-01-13 19:49:24.89	318.24	19.83	-30.1	-30.7	27.5	0.00e+00	0	27	0	2263875584	34	5541
2026-01-13 19:49:25.90	318.00	19.80	-30.1	-30.8	27.5	0.00e+00	0	27	0	2270167040	34	5567
2026-01-13 19:49:26.91	317.76	19.76	-30.1	-30.8	27.5	0.00e+00	0	27	0	2275409920	34	5576
2026-01-13 19:49:27.92	317.52	19.73	-30.2	-30.8	27.3	0.00e+00	0	27	0	2281701376	34	5594
2026-01-13 19:49:28.94	317.27	19.70	-30.2	-30.7	27.4	0.00e+00	0	27	0	2286944256	34	5535
2026-01-13 19:49:29.95	317.03	19.66	-30.3	-31.0	27.3	0.00e+00	0	27	0	2292187136	34	5703
2026-01-13 19:49:30.96	316.79	19.62	-30.2	-30.8	27.4	0.00e+00	0	27	0	2298478592	34	5577
2026-01-13 19:49:31.97	316.55	19.59	-30.3	-31.0	27.3	0.00e+00	0	27	0	2303721472	34	5756
2026-01-13 19:49:32.97	316.32	19.55	-30.5	-31.2	27.1	0.00e+00	0	27	0	2310012928	34	5891
2026-01-13 19:49:33.98	316.08	19.52	-30.5	-31.0	27.2	0.00e+00	0	27	0	2315255808	34	5747
2026-01-13 19:49:35.00	315.84	19.48	-30.6	-31.2	27.1	0.00e+00	0	27	0	2321547264	34	5891
2026-01-13 19:49:36.01	315.60	19.44	-30.6	-31.3	27.0	0.00e+00	0	27	0	2326790144	34	5939
2026-01-13 19:49:37.01	315.37	19.40	-30.5	-31.2	27.2	0.00e+00	0	27	0	2332033024	34	5884
2026-01-13 19:49:38.03	315.13	19.36	-30.5	-31.2	27.1	0.00e+00	0	27	0	2338324480	34	5849
2026-01-13 19:49:39.04	314.89	19.32	-30.5	-31.1	27.1	0.00e+00	0	27	0	2343567360	34	5822
2026-01-13 19:49:40.05	314.66	19.28	-30.5	-31.1	27.2	0.00e+00	0	27	0	2349858816	34	5770
2026-01-13 19:49:41.05	314.43	19.24	-30.6	-31.2	27.1	0.00e+00	0	27	0	2355101696	34	5840
2026-01-13 19:49:42.06	314.19	19.20	-30.5	-31.2	27.2	0.00e+00	0	27	0	2361393152	34	5839
2026-01-13 19:49:43.07	313.96	19.16	-30.5	-31.0	27.2	0.00e+00	0	27	0	2366636032	34	5754
2026-01-13 19:49:44.08	313.73	19.12	-30.2	-30.9	27.4	0.00e+00	0	27	0	2371878912	34	5659
2026-01-13 19:49:45.10	313.50	19.08	-30.2	-30.9	27.3	0.00e+00	0	27	0	2378170368	34	5631
2026-01-13 19:49:46.11	313.26	19.04	-30.4	-31.1	27.2	0.00e+00	0	27	0	2383413248	34	5791
2026-01-13 19:49:47.12	313.03	18.99	-30.4	-31.0	27.2	0.00e+00	0	27	0	2389704704	34	5700
2026-01-13 19:49:48.13	312.81	18.95	-30.4	-30.9	27.2	0.00e+00	0	27	0	2394947584	34	5695
2026-01-13 19:49:49.13	312.58	18.91	-30.4	-31.1	27.1	0.00e+00	0	27	0	2400190464	34	5773
2026-01-13 19:49:50.14	312.35	18.86	-30.5	-31.1	27.2	0.00e+00	0	27	0	2406481920	34	5791
2026-01-13 19:49:51.16	312.12	18.82	-30.6	-31.2	27.1	0.00e+00	0	27	0	2411724800	34	5887
2026-01-13 19:49:52.17	311.89	18.77	-30.7	-31.4	26.9	0.00e+00	0	27	0	2418016256	34	5965
2026-01-13 19:49:53.18	311.67	18.73	-30.6	-31.2	27.1	0.00e+00	0	27	0	2423259136	34	5856
2026-01-13 19:49:54.19	311.44	18.68	-30.6	-31.2	27.1	0.00e+00	0	27	0	2428502016	34	5849
2026-01-13 19:49:55.19	311.22	18.64	-30.6	-31.2	27.1	0.00e+00	0	27	0	2434793472	34	5870
2026-01-13 19:49:56.21	310.99	18.59	-30.6	-31.2	27.1	0.00e+00	0	27	0	2440036352	34	5867
2026-01-13 19:49:57.22	310.77	18.55	-30.7	-31.3	26.9	0.00e+00	0	27	0	2446327808	34	5916
2026-01-13 19:49:58.23	310.55	18.50	-30.7	-31.3	26.9	0.00e+00	0	27	0	2451570688	34	5959
2026-01-13 19:49:59.24	310.32	18.45	-30.8	-31.4	26.9	0.00e+00	0	27	0	2457862144	34	5981
2026-01-13 19:50:00.25	310.10	18.40	-30.8	-31.4	26.9	0.00e+00	0	27	0	2463105024	34	5967
2026-01-13 19:50:01.25	309.88	18.36	-30.9	-31.5	26.9	0.00e+00	0	27	0	2469396480	34	6068
2026-01-13 19:50:02.26	309.66	18.31	-30.7	-31.3	27.0	0.00e+00	0	27	0	2474639360	34	5908
2026-01-13 19:50:03.27	309.44	18.26	-30.7	-31.4	27.0	0.00e+00	0	27	0	2479882240	34	5971
2026-01-13 19:50:04.28	309.22	18.21	-30.7	-31.3	27.0	0.00e+00	0	27	0	2486173696	34	5961
2026-01-13 19:50:05.29	309.01	18.16	-30.9	-31.5	26.9	0.00e+00	0	27	0	2491416576	34	6062
2026-01-13 19:50:06.30	308.79	18.11	-30.9	-31.5	26.8	0.00e+00	0	27	0	2496659456	34	6089
2026-01-13 19:50:07.31	308.57	18.06	-30.9	-31.5	26.8	0.00e+00	0	27	0	2502950912	34	6074
2026-01-13 19:50:08.32	308.36	18.01	-30.8	-31.4	26.9	0.00e+00	0	28	0	2508193792	34	6000
2026-01-13 19:50:09.33	308.14	17.96	-30.9	-31.6	26.8	0.00e+00	0	27	0	2514485248	34	6114
2026-01-13 19:50:10.34	307.93	17.91	-30.9	-31.6	26.8	0.00e+00	0	27	0	2519728128	34	6163
2026-01-13 19:50:11.35	307.71	17.86	-31.0	-31.6	26.7	0.00e+00	0	27	0	2524971008	34	6133
2026-01-13 19:50:12.35	307.50	17.81	-31.1	-31.7	26.6	0.00e+00	0	27	0	2531262464	34	6203
2026-01-13 19:50:13.36	307.29	17.76	-31.2	-31.9	26.6	0.00e+00	0	27	0	2536505344	34	6371
2026-01-13 19:50:14.37	307.08	17.70	-31.1	-31.7	26.7	0.00e+00	0	27	0	2542796800	34	6188
2026-01-13 19:50:15.38	306.87	17.65	-31.2	-31.9	26.5	0.00e+00	0	27	0	2548039680	34	6341
2026-01-13 19:50:16.39	306.66	17.60	-31.2	-31.8	26.5	0.00e+00	0	27	0	2554331136	34	6275
2026-01-13 19:50:17.40	306.45	17.55	-31.4	-32.0	26.3	0.00e+00	0	27	0	2559574016	34	6415
2026-01-13 19:50:18.41	306.24	17.49	-31.6	-32.3	26.2	0.00e+00	0	27	0	2565865472	34	6627
2026-01-13 19:50:19.42	306.03	17.44	-31.4	-32.0	26.4	0.00e+00	0	27	0	2571108352	34	6427
2026-01-13 19:50:20.43	305.83	17.39	-31.3	-32.0	26.5	0.00e+00	0	27	0	2576351232	34	6408
2026-01-13 19:50:21.44	305.62	17.33	-31.2	-31.7	26.5	0.00e+00	0	27	0	2582642688	34	6220
2026-01-13 19:50:22.45	305.41	17.28	-31.1	-31.7	26.6	0.00e+00	0	27	0	2587885568	34	6186
2026-01-13 19:50:23.46	305.21	17.22	-31.2	-31.7	26.6	0.00e+00	0	27	0	2594177024	34	6211
2026-01-13 19:50:24.47	305.01	17.17	-31.3	-31.8	26.4	0.00e+00	0	27	0	2599419904	34	6302
2026-01-13 19:50:25.48	304.80	17.11	-31.4	-32.0	26.3	0.00e+00	0	27	0	2604662784	34	6395
2026-01-13 19:50:26.48	304.60	17.06	-31.3	-32.0	26.5	0.00e+00	0	27	0	2610954240	34	6455
2026-01-13 19:50:27.49	304.40	17.00	-31.3	-32.0	26.4	0.00e+00	0	27	0	2616197120	34	6415
2026-01-13 19:50:28.50	304.20	16.95	-31.3	-31.9	26.4	0.00e+00	0	27	0	2621440000	34	6327
2026-01-13 19:50:29.51	304.00	16.89	-31.1	-31.8	26.6	0.00e+00	0	27	0	2627731456	34	6257
2026-01-13 19:50:30.52	303.80	16.83	-31.1	-31.7	26.6	0.00e+00	0	27	0	2632974336	34	6239
2026-01-13 19:50:31.53	303.60	16.78	-31.0	-31.7	26.6	0.00e+00	0	27	0	2639265792	34	6176
2026-01-13 19:50:32.54	303.40	16.72	-31.1	-31.8	26.6	0.00e+00	0	27	0	2644508672	34	6247
2026-01-13 19:50:33.55	303.21	16.66	-31.1	-31.8	26.6	0.00e+00	0	27	0	2650800128	34	6283
2026-01-13 19:50:34.56	303.01	16.61	-31.2	-31.9	26.5	0.00e+00	0	27	0	2656043008	34	6355
2026-01-13 19:50:35.57	302.81	16.55	-31.2	-31.9	26.5	0.00e+00	0	27	0	2662334464	34	6334
2026-01-13 19:50:36.59	302.62	16.49	-31.3	-32.0	26.5	0.00e+00	0	27	0	2667577344	34	6402
2026-01-13 19:50:37.59	302.42	16.44	-31.3	-31.8	26.6	0.00e+00	0	27	0	2672820224	34	6298
2026-01-13 19:50:38.60	302.23	16.38	-31.2	-31.9	26.5	0.00e+00	0	27	0	2679111680	34	6353
2026-01-13 19:50:39.61	302.04	16.32	-31.3	-32.0	26.4	0.00e+00	0	27	0	2684354560	34	6392
2026-01-13 19:50:40.62	301.85	16.26	-31.4	-32.1	26.3	0.00e+00	0	27	0	2690646016	34	6516
2026-01-13 19:50:41.63	301.65	16.20	-31.4	-31.9	26.4	0.00e+00	0	27	0	2695888896	34	6389
2026-01-13 19:50:42.64	301.46	16.14	-31.3	-32.0	26.5	0.00e+00	0	27	0	2701131776	34	6410
2026-01-13 19:50:43.65	301.27	16.08	-31.4	-31.9	26.4	0.00e+00	0	27	0	2707423232	34	6381
2026-01-13 19:50:44.66	301.08	16.03	-31.3	-32.0	26.4	0.00e+00	0	27	0	2712666112	34	6437
2026-01-13 19:50:45.67	300.90	15.97	-31.4	-32.0	26.4	0.00e+00	0	27	0	2718957568	34	6437
2026-01-13 19:50:46.68	300.71	15.91	-31.5	-32.1	26.3	0.00e+00	0	27	0	2724200448	34	6515
2026-01-13 19:50:47.69	300.52	15.85	-31.6	-32.1	26.2	0.00e+00	0	27	0	2729443328	34	6539
2026-01-13 19:50:48.70	300.34	15.79	-31.5	-32.1	26.2	0.00e+00	0	27	0	2735734784	34	6513
2026-01-13 19:50:49.71	300.15	15.73	-31.4	-32.1	26.2	0.00e+00	0	27	0	2740977664	34	6474
2026-01-13 19:50:50.72	299.97	15.67	-31.4	-32.0	26.4	0.00e+00	0	27	0	2747269120	34	6449
2026-01-13 19:50:51.73	299.78	15.61	-31.4	-32.0	26.4	0.00e+00	0	27	0	2752512000	34	6427
2026-01-13 19:50:52.73	299.60	15.55	-31.4	-32.0	26.4	0.00e+00	0	27	0	2758803456	34	6397
2026-01-13 19:50:53.74	299.42	15.49	-31.6	-32.3	26.3	0.00e+00	0	28	0	2764046336	34	6638
2026-01-13 19:50:54.75	299.24	15.43	-31.7	-32.3	26.0	0.00e+00	0	27	0	2769289216	34	6649
2026-01-13 19:50:55.76	299.06	15.37	-31.7	-32.3	26.0	0.00e+00	0	27	0	2775580672	36	5948
2026-01-13 19:50:56.77	298.88	15.31	-31.7	-32.5	25.9	0.00e+00	0	27	0	2780823552	36	6038
2026-01-13 19:50:57.78	298.70	15.24	-31.7	-32.3	25.9	0.00e+00	0	27	0	2787115008	36	5904
2026-01-13 19:50:58.79	298.52	15.18	-31.6	-32.3	26.0	0.00e+00	0	27	0	2792357888	36	5927
2026-01-13 19:50:59.80	298.34	15.12	-31.5	-32.0	26.1	0.00e+00	0	27	0	2797600768	36	5738
2026-01-13 19:51:00.81	298.16	15.06	-31.5	-32.1	26.1	0.00e+00	0	27	0	2803892224	36	5794
2026-01-13 19:51:01.82	297.99	15.00	-31.7	-32.2	25.9	0.00e+00	0	27	0	2809135104	36	5887
2026-01-13 19:51:02.83	297.81	14.94	-31.7	-32.4	25.8	0.00e+00	0	27	0	2815426560	36	6023
2026-01-13 19:51:03.84	297.64	14.88	-31.9	-32.5	25.5	0.00e+00	0	27	0	2820669440	36	6068
2026-01-13 19:51:04.85	297.46	14.81	-31.8	-32.4	25.6	0.00e+00	0	28	0	2825912320	36	6024
2026-01-13 19:51:05.86	297.29	14.75	-31.7	-32.3	25.9	0.00e+00	0	27	0	2832203776	36	5940
2026-01-13 19:51:06.87	297.12	14.69	-31.6	-32.3	26.1	0.00e+00	0	27	0	2837446656	36	5905
2026-01-13 19:51:07.87	296.95	14.63	-31.7	-32.4	25.9	0.00e+00	0	27	0	2843738112	36	5965
2026-01-13 19:51:08.89	296.77	14.56	-31.8	-32.5	25.8	0.00e+00	0	27	0	2848980992	36	6070
2026-01-13 19:51:09.89	296.61	14.50	-31.7	-32.3	25.7	0.00e+00	0	27	0	2855272448	36	5943
2026-01-13 19:51:10.90	296.44	14.44	-32.0	-32.7	25.7	0.00e+00	0	27	0	2860515328	36	6211
2026-01-13 19:51:11.91	296.27	14.38	-32.2	-32.8	25.5	0.00e+00	0	27	0	2866806784	36	6287
2026-01-13 19:51:12.92	296.10	14.32	-32.2	-32.9	25.6	0.00e+00	0	27	0	2872049664	36	6340
2026-01-13 19:51:13.93	295.93	14.25	-32.1	-32.8	25.5	0.00e+00	0	27	0	2877292544	36	6279
2026-01-13 19:51:14.94	295.76	14.19	-31.9	-32.5	25.7	0.00e+00	0	27	0	2883584000	36	6076
2026-01-13 19:51:15.95	295.60	14.13	-31.9	-32.5	25.7	0.00e+00	0	27	0	2888826880	36	6075
2026-01-13 19:51:16.96	295.43	14.06	-32.0	-32.6	25.7	0.00e+00	0	27	0	2895118336	36	6130
2026-01-13 19:51:17.97	295.27	14.00	-32.0	-32.6	25.6	0.00e+00	0	27	0	2900361216	36	6161
2026-01-13 19:51:18.98	295.10	13.94	-32.1	-32.8	25.6	0.00e+00	0	27	0	2905604096	36	6292
2026-01-13 19:51:19.99	294.94	13.87	-32.1	-32.8	25.6	0.00e+00	0	27	0	2911895552	36	6273
2026-01-13 19:51:21.00	294.78	13.81	-32.2	-32.8	25.5	0.00e+00	0	27	0	2917138432	36	6290
2026-01-13 19:51:22.01	294.62	13.75	-32.1	-32.8	25.5	0.00e+00	0	27	0	2923429888	36	6257
2026-01-13 19:51:23.02	294.45	13.68	-32.1	-32.7	25.6	0.00e+00	0	27	0	2928672768	36	6177
2026-01-13 19:51:24.03	294.29	13.62	-32.1	-32.9	25.6	0.00e+00	0	27	0	2933915648	36	6342
2026-01-13 19:51:25.04	294.13	13.56	-32.2	-32.9	25.5	0.00e+00	0	27	0	2940207104	36	6351
2026-01-13 19:51:26.05	293.98	13.49	-32.1	-32.6	25.7	0.00e+00	0	27	0	2945449984	36	6172
2026-01-13 19:51:27.06	293.82	13.43	-32.2	-32.9	25.5	0.00e+00	0	27	0	2951741440	36	6360
2026-01-13 19:51:28.07	293.66	13.37	-32.4	-33.1	25.4	0.00e+00	0	27	0	2956984320	36	6514
2026-01-13 19:51:29.08	293.50	13.30	-32.3	-33.0	25.4	0.00e+00	0	27	0	2963275776	36	6409
2026-01-13 19:51:30.09	293.35	13.24	-32.2	-32.9	25.5	0.00e+00	0	27	0	2968518656	36	6330
2026-01-13 19:51:31.10	293.19	13.18	-32.2	-32.9	25.5	0.00e+00	0	27	0	2973761536	36	6330
2026-01-13 19:51:32.10	293.04	13.11	-32.3	-32.9	25.4	0.00e+00	0	27	0	2980052992	36	6335
2026-01-13 19:51:33.11	292.88	13.05	-32.4	-33.1	25.4	0.00e+00	0	27	0	2985295872	36	6511
2026-01-13 19:51:34.12	292.73	12.98	-32.4	-33.1	25.3	0.00e+00	0	27	0	2991587328	36	6511
2026-01-13 19:51:35.13	292.58	12.92	-32.5	-33.2	25.2	0.00e+00	0	27	0	2996830208	36	6604
2026-01-13 19:51:36.14	292.42	12.86	-32.5	-33.2	25.2	0.00e+00	0	27	0	3002073088	36	6580
2026-01-13 19:51:37.15	292.27	12.79	-32.7	-33.3	25.0	0.00e+00	0	27	0	3008364544	36	6635
2026-01-13 19:51:38.16	292.12	12.73	-32.7	-33.5	25.0	0.00e+00	0	27	0	3013607424	36	6802
2026-01-13 19:51:39.17	291.97	12.66	-32.7	-33.4	25.1	0.00e+00	0	27	0	3019898880	38	6030
2026-01-13 19:51:40.18	291.82	12.60	-32.6	-33.3	25.1	0.00e+00	0	28	0	3025141760	38	5936
2026-01-13 19:51:41.19	291.67	12.54	-32.6	-33.2	25.1	0.00e+00	0	27	0	3030384640	38	5863
2026-01-13 19:51:42.20	291.52	12.47	-32.6	-33.3	25.1	0.00e+00	0	27	0	3036676096	38	5942
2026-01-13 19:51:43.21	291.38	12.41	-32.6	-33.2	25.1	0.00e+00	0	27	0	3041918976	38	5843
2026-01-13 19:51:44.21	291.23	12.34	-32.7	-33.4	25.0	0.00e+00	0	27	0	3048210432	38	6002
2026-01-13 19:51:45.22	291.08	12.28	-32.7	-33.3	25.1	0.00e+00	0	27	0	3053453312	38	5938
2026-01-13 19:51:46.23	290.94	12.22	-32.5	-33.1	25.2	0.00e+00	0	27	0	3059744768	38	5812
2026-01-13 19:51:47.24	290.79	12.15	-32.6	-33.3	25.1	0.00e+00	0	27	0	3064987648	38	5923
2026-01-13 19:51:48.25	290.65	12.09	-32.6	-33.2	25.1	0.00e+00	0	27	0	3070230528	38	5887
2026-01-13 19:51:49.26	290.51	12.02	-32.8	-33.5	24.9	0.00e+00	0	27	0	3076521984	38	6052
2026-01-13 19:51:50.27	290.36	11.96	-32.7	-33.4	25.0	0.00e+00	0	27	0	3081764864	38	6011
2026-01-13 19:51:51.28	290.22	11.89	-32.6	-33.1	25.2	0.00e+00	0	28	0	3088056320	38	5826
2026-01-13 19:51:52.29	290.08	11.83	-32.5	-33.1	25.2	0.00e+00	0	27	0	3093299200	38	5811
2026-01-13 19:51:53.30	289.94	11.77	-32.6	-33.3	25.2	0.00e+00	0	27	0	3098542080	38	5927
2026-01-13 19:51:54.31	289.80	11.70	-32.7	-33.4	25.1	0.00e+00	0	27	0	3104833536	38	5972
2026-01-13 19:51:55.32	289.66	11.64	-32.7	-33.3	25.0	0.00e+00	0	27	0	3110076416	38	5933
2026-01-13 19:51:56.33	289.52	11.57	-32.8	-33.6	24.9	0.00e+00	0	27	0	3116367872	38	6133
2026-01-13 19:51:57.34	289.38	11.51	-32.9	-33.5	24.9	0.00e+00	0	27	0	3121610752	38	6071
2026-01-13 19:51:58.35	289.24	11.44	-32.9	-33.7	24.9	0.00e+00	0	27	0	3126853632	38	6204
2026-01-13 19:51:59.36	289.10	11.38	-33.0	-33.6	24.7	0.00e+00	0	27	0	3133145088	38	6127
2026-01-13 19:52:00.37	288.97	11.32	-33.0	-33.6	24.8	0.00e+00	0	27	0	3138387968	38	6139
2026-01-13 19:52:01.38	288.83	11.25	-32.9	-33.7	24.8	0.00e+00	0	27	0	3144679424	38	6186
2026-01-13 19:52:02.39	288.69	11.19	-33.0	-33.8	24.7	0.00e+00	0	27	0	3149922304	38	6263
2026-01-13 19:52:03.39	288.56	11.12	-33.1	-33.7	24.7	0.00e+00	0	27	0	3156213760	38	6210
2026-01-13 19:52:04.40	288.43	11.06	-33.4	-34.0	24.4	0.00e+00	0	27	0	3161456640	38	6414
2026-01-13 19:52:05.41	288.29	11.00	-33.3	-34.1	24.4	0.00e+00	0	27	0	3167748096	38	6496
2026-01-13 19:52:06.42	288.16	10.93	-33.5	-34.2	24.3	0.00e+00	0	27	0	3172990976	38	6561
2026-01-13 19:52:07.43	288.03	10.87	-33.6	-34.2	24.2	0.00e+00	0	27	0	3178233856	40	5870
2026-01-13 19:52:08.44	287.89	10.80	-33.1	-33.7	24.6	0.00e+00	0	27	0	3184525312	40	5543
2026-01-13 19:52:09.45	287.76	10.74	-33.3	-33.9	24.4	0.00e+00	0	27	0	3189768192	40	5664
2026-01-13 19:52:10.45	287.63	10.68	-33.1	-33.7	24.6	0.00e+00	0	27	0	3196059648	40	5519
2026-01-13 19:52:11.46	287.50	10.61	-33.2	-33.8	24.5	0.00e+00	0	27	0	3201302528	40	5593
2026-01-13 19:52:12.47	287.37	10.55	-33.1	-33.7	24.6	0.00e+00	0	27	0	3206545408	40	5539
2026-01-13 19:52:13.47	287.24	10.48	-33.2	-33.9	24.5	0.00e+00	0	27	0	3212836864	40	5684
2026-01-13 19:52:14.48	287.12	10.42	-33.2	-34.0	24.4	0.00e+00	0	27	0	3218079744	40	5715
2026-01-13 19:52:15.49	286.99	10.36	-33.2	-34.0	24.4	0.00e+00	0	27	0	3223322624	40	5744
2026-01-13 19:52:16.51	286.86	10.29	-33.3	-33.9	24.4	0.00e+00	0	27	0	3229614080	40	5673
2026-01-13 19:52:17.51	286.73	10.23	-33.4	-34.2	24.3	0.00e+00	0	27	0	3234856960	40	5831
2026-01-13 19:52:18.52	286.61	10.16	-33.4	-34.1	24.3	0.00e+00	0	27	0	3241148416	40	5762
2026-01-13 19:52:19.53	286.48	10.10	-33.1	-33.9	24.6	0.00e+00	0	27	0	3246391296	40	5636
2026-01-13 19:52:20.54	286.36	10.04	-33.2	-34.0	24.4	0.00e+00	0	27	0	3252682752	40	5726
2026-01-13 19:52:21.55	286.23	9.97	-33.4	-34.2	24.3	0.00e+00	0	27	0	3257925632	40	5830
2026-01-13 19:52:22.56	286.11	9.91	-33.3	-33.9	24.4	0.00e+00	0	27	0	3264217088	40	5663
2026-01-13 19:52:23.57	285.98	9.84	-33.4	-34.1	24.3	0.00e+00	0	27	0	3269459968	40	5763
2026-01-13 19:52:24.58	285.86	9.78	-33.4	-34.2	24.2	0.00e+00	0	27	0	3274702848	40	5874
2026-01-13 19:52:25.59	285.74	9.72	-33.6	-34.3	24.1	0.00e+00	0	27	0	3280994304	40	5935
2026-01-13 19:52:26.60	285.62	9.65	-33.4	-34.0	24.2	0.00e+00	0	27	0	3286237184	40	5750
2026-01-13 19:52:27.61	285.49	9.59	-33.5	-34.1	24.2	0.00e+00	0	27	0	3292528640	40	5807
2026-01-13 19:52:28.61	285.37	9.53	-33.6	-34.2	24.1	0.00e+00	0	27	0	3297771520	40	5875
2026-01-13 19:52:29.62	285.25	9.46	-33.6	-34.4	24.1	0.00e+00	0	27	0	3303014400	40	5980
2026-01-13 19:52:30.63	285.13	9.40	-33.5	-34.2	24.1	0.00e+00	0	27	0	3309305856	40	5847
2026-01-13 19:52:31.64	285.02	9.34	-33.6	-34.2	24.1	0.00e+00	0	27	0	3314548736	40	5869
2026-01-13 19:52:32.65	284.90	9.27	-33.6	-34.3	24.1	0.00e+00	0	27	0	3319791616	40	5955
2026-01-13 19:52:33.66	284.78	9.21	-33.6	-34.2	24.1	0.00e+00	0	27	0	3326083072	40	5848
2026-01-13 19:52:34.67	284.66	9.15	-33.8	-34.4	23.9	0.00e+00	0	28	0	3331325952	40	5991
2026-01-13 19:52:35.68	284.54	9.08	-33.8	-34.6	23.8	0.00e+00	0	27	0	3337617408	40	6159
2026-01-13 19:52:36.69	284.43	9.02	-33.7	-34.3	24.0	0.00e+00	0	27	0	3342860288	40	5959
2026-01-13 19:52:37.70	284.31	8.96	-33.9	-34.5	23.9	0.00e+00	0	27	0	3349151744	40	6073
2026-01-13 19:52:38.71	284.20	8.89	-33.9	-34.6	23.8	0.00e+00	0	27	0	3354394624	40	6110
2026-01-13 19:52:39.72	284.08	8.83	-33.8	-34.6	23.9	0.00e+00	0	27	0	3360686080	40	6119
2026-01-13 19:52:40.73	283.97	8.77	-33.9	-34.5	23.8	0.00e+00	0	27	0	3365928960	40	6100
2026-01-13 19:52:41.74	283.85	8.70	-33.9	-34.6	23.7	0.00e+00	0	27	0	3371171840	40	6135
2026-01-13 19:52:42.75	283.74	8.64	-34.0	-34.7	23.7	0.00e+00	0	27	0	3377463296	40	6240
2026-01-13 19:52:43.76	283.63	8.58	-34.0	-34.7	23.7	0.00e+00	0	27	0	3382706176	40	6233
2026-01-13 19:52:44.77	283.51	8.52	-34.0	-34.6	23.7	0.00e+00	0	27	0	3388997632	40	6161
2026-01-13 19:52:45.78	283.40	8.45	-34.1	-34.7	23.6	0.00e+00	0	27	0	3394240512	40	6224
2026-01-13 19:52:46.79	283.29	8.39	-33.9	-34.5	23.7	0.00e+00	0	27	0	3399483392	40	6096
2026-01-13 19:52:47.80	283.18	8.33	-34.0	-34.8	23.6	0.00e+00	0	27	0	3405774848	40	6264
2026-01-13 19:52:48.80	283.07	8.27	-34.1	-34.8	23.6	0.00e+00	0	27	0	3411017728	40	6310
2026-01-13 19:52:49.82	282.96	8.20	-34.1	-34.9	23.5	0.00e+00	0	27	0	3417309184	40	6339
2026-01-13 19:52:50.82	282.85	8.14	-34.2	-34.8	23.5	0.00e+00	0	27	0	3422552064	40	6301
2026-01-13 19:52:51.83	282.74	8.08	-34.1	-34.9	23.5	0.00e+00	0	27	0	3427794944	40	6369
2026-01-13 19:52:52.84	282.63	8.02	-34.1	-34.9	23.5	0.00e+00	0	27	0	3434086400	40	6378
2026-01-13 19:52:53.85	282.52	7.95	-34.0	-34.6	23.7	0.00e+00	0	27	0	3439329280	40	6158
2026-01-13 19:52:54.86	282.42	7.89	-34.0	-34.7	23.5	0.00e+00	0	27	0	3445620736	40	6235
2026-01-13 19:52:55.87	282.31	7.83	-34.0	-34.7	23.5	0.00e+00	0	27	0	3450863616	40	6190
2026-01-13 19:52:56.88	282.20	7.77	-34.1	-34.7	23.6	0.00e+00	0	27	0	3457155072	40	6227
2026-01-13 19:52:57.89	282.10	7.70	-34.1	-34.9	23.5	0.00e+00	0	27	0	3462397952	40	6327
2026-01-13 19:52:58.90	281.99	7.64	-34.1	-34.9	23.5	0.00e+00	0	27	0	3467640832	40	6335
2026-01-13 19:52:59.91	281.88	7.58	-34.1	-34.8	23.5	0.00e+00	0	27	0	3473932288	40	6280
2026-01-13 19:53:00.92	281.78	7.52	-34.1	-34.8	23.5	0.00e+00	0	27	0	3479175168	40	6306
2026-01-13 19:53:01.93	281.67	7.46	-34.2	-35.0	23.4	0.00e+00	0	27	0	3485466624	40	6451
2026-01-13 19:53:02.94	281.57	7.39	-34.3	-35.1	23.4	0.00e+00	0	27	0	3490709504	40	6470
2026-01-13 19:53:03.95	281.47	7.33	-34.3	-35.0	23.2	0.00e+00	0	27	0	3495952384	40	6422
2026-01-13 19:53:04.95	281.36	7.27	-34.4	-35.0	23.2	0.00e+00	0	27	0	3502243840	40	6451
2026-01-13 19:53:05.96	281.26	7.21	-34.4	-35.0	23.2	0.00e+00	0	27	0	3507486720	40	6459
2026-01-13 19:53:06.97	281.16	7.15	-34.4	-35.1	23.2	0.00e+00	0	27	0	3513778176	40	6479
2026-01-13 19:53:07.98	281.06	7.09	-34.6	-35.3	23.0	0.00e+00	0	27	0	3519021056	40	6629
2026-01-13 19:53:08.99	280.96	7.03	-34.4	-35.1	23.2	0.00e+00	0	27	0	3524263936	40	6490
2026-01-13 19:53:10.00	280.86	6.96	-34.5	-35.3	23.0	0.00e+00	0	27	0	3530555392	40	6663
2026-01-13 19:53:11.01	280.76	6.90	-34.7	-35.4	22.9	0.00e+00	0	27	0	3535798272	40	6720
2026-01-13 19:53:12.02	280.66	6.84	-34.5	-35.2	23.0	0.00e+00	0	27	0	3542089728	40	6583
2026-01-13 19:53:13.03	280.56	6.78	-34.5	-35.3	23.0	0.00e+00	0	27	0	3547332608	40	6644
2026-01-13 19:53:14.04	280.46	6.72	-34.4	-35.3	23.1	0.00e+00	0	27	0	3553624064	40	6625
2026-01-13 19:53:15.05	280.36	6.66	-34.5	-35.3	23.0	0.00e+00	0	27	0	3558866944	40	6639
2026-01-13 19:53:16.06	280.26	6.60	-34.6	-35.4	22.9	0.00e+00	0	27	0	3565158400	40	6739
2026-01-13 19:53:17.07	280.16	6.54	-34.6	-35.5	22.9	0.00e+00	0	27	0	3570401280	40	6777
