passes_logs/2026/01/13/R4.6S_Anadyr/R4.6S_Anadyr__20260113_075427_TY-42_rec.log

#Pass ID: 20260113_075427_TY-42
#Satellite: TY-42
#Configuration: TY-42_900M
#almurnet v.1.7.20251203
#Start time: 2026-01-13 07:54:59

#Version: 2.2.20231116
#Station: R4.6S_Anadyr
#Location: 177.4865 lon 64.73178 lat
#TLE: 1 64048U 25103A   26012.66797454  .00008010  00000-0  38191-3 0 09996
#TLE: 2 64048 097.4120 088.1293 0001877 092.3162 302.2280 15.19166642 36461

#Time	Az	El	Level	Level2	SNR	BER	BlckErr	Temp	State	Recorded	gain1	gain2
2026-01-13 07:54:59.57	115.60	1.98	-48.7	-60.4	3.5	8.45e-01	0	24	0	0	60	37950
2026-01-13 07:55:00.58	115.53	2.04	-46.3	-48.9	6.1	0.00e+00	0	26	104	0	60	34071
2026-01-13 07:55:01.59	115.45	2.11	-46.3	-48.9	6.1	0.00e+00	0	26	104	0	60	34147
2026-01-13 07:55:02.60	115.37	2.17	-46.3	-48.9	6.1	0.00e+00	0	26	104	0	60	34079
2026-01-13 07:55:03.61	115.30	2.24	-46.3	-48.9	6.1	0.00e+00	0	26	104	0	60	33989
2026-01-13 07:55:04.62	115.22	2.30	-46.3	-48.9	6.1	0.00e+00	0	26	104	0	60	34100
2026-01-13 07:55:05.63	115.14	2.37	-46.3	-48.9	6.1	0.00e+00	0	26	104	0	60	33944
2026-01-13 07:55:06.64	115.06	2.43	-46.3	-48.9	6.1	0.00e+00	0	26	104	0	60	34139
2026-01-13 07:55:07.65	114.99	2.50	-46.3	-48.9	6.1	0.00e+00	0	26	104	0	60	34098
2026-01-13 07:55:08.66	114.91	2.56	-46.3	-48.9	6.1	0.00e+00	0	26	104	0	60	33964
2026-01-13 07:55:09.66	114.83	2.63	-46.3	-48.9	6.1	0.00e+00	0	26	104	0	60	34237
2026-01-13 07:55:10.67	114.75	2.69	-46.3	-48.9	6.1	0.00e+00	0	26	104	0	60	34134
2026-01-13 07:55:11.68	114.67	2.76	-46.3	-48.9	6.1	0.00e+00	0	26	104	0	60	34194
2026-01-13 07:55:12.69	114.59	2.83	-46.3	-48.9	6.1	0.00e+00	0	26	104	0	60	34007
2026-01-13 07:55:13.70	114.50	2.89	-46.3	-48.8	6.1	0.00e+00	0	26	104	0	60	33925
2026-01-13 07:55:14.71	114.42	2.96	-46.3	-48.9	6.1	0.00e+00	0	26	104	0	60	34167
2026-01-13 07:55:15.72	114.34	3.03	-46.3	-48.9	6.1	0.00e+00	0	26	104	0	60	34245
2026-01-13 07:55:16.73	114.26	3.09	-46.3	-48.9	6.1	0.00e+00	0	26	104	0	60	34170
2026-01-13 07:55:17.74	114.17	3.16	-46.3	-48.9	6.1	0.00e+00	0	26	104	0	60	34164
2026-01-13 07:55:18.75	114.09	3.23	-46.3	-48.9	6.1	0.00e+00	0	26	104	0	60	34291
2026-01-13 07:55:19.76	114.01	3.30	-46.3	-48.9	6.1	0.00e+00	0	26	104	0	60	33957
2026-01-13 07:55:20.77	113.92	3.36	-46.3	-48.9	6.1	0.00e+00	0	27	104	0	60	34146
2026-01-13 07:55:21.78	113.83	3.43	-46.3	-48.9	6.1	0.00e+00	0	27	104	0	60	34224
2026-01-13 07:55:22.79	113.75	3.50	-46.3	-48.9	6.1	0.00e+00	0	27	104	0	60	34215
2026-01-13 07:55:23.80	113.66	3.57	-46.3	-48.9	6.1	0.00e+00	0	26	104	0	60	34214
2026-01-13 07:55:24.81	113.57	3.64	-46.3	-48.9	6.1	0.00e+00	0	27	104	0	60	34297
2026-01-13 07:55:25.82	113.49	3.71	-46.3	-48.9	6.1	0.00e+00	0	27	104	0	60	34269
2026-01-13 07:55:26.83	113.40	3.77	-46.3	-48.9	6.1	0.00e+00	0	27	104	0	60	34167
2026-01-13 07:55:27.84	113.31	3.84	-47.6	-50.1	6.1	0.00e+00	0	27	104	0	60	39062
2026-01-13 07:55:28.84	113.22	3.91	-47.1	-49.6	6.1	0.00e+00	0	27	104	0	60	37113
2026-01-13 07:55:29.85	113.13	3.98	-46.4	-48.9	6.1	0.00e+00	0	27	104	0	60	34056
2026-01-13 07:55:30.86	113.04	4.05	-46.6	-49.2	6.1	0.00e+00	0	27	104	0	60	35275
2026-01-13 07:55:31.87	112.95	4.12	-46.6	-49.1	6.1	0.00e+00	0	27	104	0	60	34883
2026-01-13 07:55:32.88	112.86	4.19	-46.6	-49.2	6.1	0.00e+00	0	27	104	0	60	35275
2026-01-13 07:55:33.89	112.77	4.26	-46.5	-49.2	6.1	0.00e+00	0	27	104	0	60	35150
2026-01-13 07:55:34.90	112.67	4.33	-46.4	-49.1	6.1	0.00e+00	0	27	104	0	60	34786
2026-01-13 07:55:35.91	112.58	4.40	-46.5	-49.1	6.1	0.00e+00	0	27	104	0	60	35111
2026-01-13 07:55:36.92	112.49	4.47	-46.8	-49.3	6.1	0.00e+00	0	27	104	0	60	35697
2026-01-13 07:55:37.93	112.39	4.54	-46.8	-49.3	6.1	0.00e+00	0	27	104	0	60	35865
2026-01-13 07:55:38.94	112.30	4.61	-47.5	-50.0	6.1	0.00e+00	0	27	104	0	60	38573
2026-01-13 07:55:39.95	112.20	4.68	-47.3	-49.8	6.1	0.00e+00	0	27	104	0	60	38026
2026-01-13 07:55:40.96	112.11	4.76	-47.0	-49.5	6.1	0.00e+00	0	27	104	0	60	36553
2026-01-13 07:55:41.97	112.01	4.83	-47.3	-49.8	6.1	0.00e+00	0	27	104	0	60	37852
2026-01-13 07:55:42.98	111.91	4.90	-47.3	-49.8	6.1	0.00e+00	0	27	104	0	60	37749
2026-01-13 07:55:43.99	111.81	4.97	-47.3	-49.8	6.1	0.00e+00	0	27	104	0	60	38042
2026-01-13 07:55:44.99	111.72	5.04	-47.4	-49.9	6.1	0.00e+00	0	27	104	0	60	38392
2026-01-13 07:55:46.01	111.61	5.12	-47.3	-49.8	6.1	0.00e+00	0	27	104	0	60	37952
2026-01-13 07:55:47.01	111.52	5.19	-47.3	-49.8	6.1	0.00e+00	0	27	104	0	60	38034
2026-01-13 07:55:48.02	111.42	5.26	-47.4	-50.0	6.1	0.00e+00	0	27	104	0	60	38583
2026-01-13 07:55:49.03	111.31	5.33	-47.5	-50.0	6.1	0.00e+00	0	27	104	0	60	38822
2026-01-13 07:55:50.04	111.21	5.41	-47.3	-49.8	6.1	0.00e+00	0	27	104	0	60	37784
2026-01-13 07:55:51.05	111.11	5.48	-47.4	-50.0	6.1	0.00e+00	0	27	104	0	60	38593
2026-01-13 07:55:52.06	111.01	5.55	-47.3	-49.8	6.1	0.00e+00	0	27	104	0	60	38001
2026-01-13 07:55:53.07	110.90	5.63	-37.3	-37.6	10.6	0.00e+00	5511	27	104	0	48	18609
2026-01-13 07:55:54.08	110.80	5.70	-47.0	-49.4	6.1	9.22e-02	0	27	104	25165824	60	36140
2026-01-13 07:55:55.08	110.69	5.77	-30.6	-30.9	12.2	0.00e+00	5393	27	104	25165824	38	15204
2026-01-13 07:55:56.09	110.59	5.85	-30.1	-30.6	14.8	0.00e+00	0	28	0	100663296	36	16605
2026-01-13 07:55:57.10	110.48	5.92	-29.6	-30.1	15.0	6.75e-02	0	28	0	209715200	34	17555
2026-01-13 07:55:58.11	110.37	6.00	-29.0	-29.5	15.4	6.75e-02	0	28	0	318767104	34	16354
2026-01-13 07:55:59.12	110.27	6.07	-28.0	-28.6	15.7	3.83e-03	0	28	0	436207616	32	16490
2026-01-13 07:56:00.13	110.16	6.15	-27.3	-27.9	16.0	3.83e-03	0	28	0	545259520	30	17052
2026-01-13 07:56:01.14	110.05	6.22	-27.3	-27.8	16.0	6.27e-04	0	28	0	662700032	30	16988
2026-01-13 07:56:02.15	109.94	6.30	-27.0	-27.6	16.0	6.27e-04	0	28	0	780140544	30	16450
2026-01-13 07:56:03.16	109.83	6.37	-27.2	-27.7	16.0	6.27e-04	0	28	0	889192448	30	16786
2026-01-13 07:56:04.17	109.71	6.45	-26.9	-27.5	16.1	4.47e-04	0	28	0	1006632960	30	16318
2026-01-13 07:56:05.18	109.60	6.53	-27.1	-27.7	16.0	4.47e-04	0	28	0	1115684864	30	16645
2026-01-13 07:56:06.19	109.49	6.60	-26.9	-27.5	16.0	4.25e-04	0	28	0	1233125376	30	16270
2026-01-13 07:56:07.20	109.37	6.68	-26.9	-27.4	16.1	4.25e-04	0	28	0	1342177280	30	16212
2026-01-13 07:56:08.20	109.26	6.76	-26.7	-27.3	16.1	3.05e-04	0	28	0	1459617792	30	15934
2026-01-13 07:56:09.22	109.14	6.83	-26.7	-27.3	16.2	3.05e-04	0	28	0	1568669696	28	17864
2026-01-13 07:56:10.22	109.03	6.91	-26.6	-27.1	16.2	3.05e-04	0	28	0	1686110208	28	17599
2026-01-13 07:56:11.23	108.91	6.99	-26.7	-27.2	16.1	1.63e-04	0	28	0	1795162112	28	17755
2026-01-13 07:56:12.25	108.79	7.07	-26.8	-27.3	16.1	1.63e-04	0	28	0	1912602624	28	17932
2026-01-13 07:56:13.25	108.67	7.14	-26.5	-27.1	16.1	1.63e-04	0	28	0	2030043136	28	17448
2026-01-13 07:56:14.27	108.55	7.22	-26.4	-26.9	16.1	2.72e-04	0	28	0	2139095040	28	17185
2026-01-13 07:56:15.28	108.43	7.30	-26.5	-27.1	16.1	2.72e-04	0	28	0	2248146944	28	17412
2026-01-13 07:56:16.29	108.31	7.38	-26.5	-27.0	16.1	2.62e-04	0	28	0	2365587456	28	17384
2026-01-13 07:56:17.30	108.19	7.46	-26.4	-26.9	16.3	2.62e-04	0	28	0	2483027968	28	17166
2026-01-13 07:56:18.31	108.07	7.54	-26.3	-26.9	16.3	2.62e-04	0	28	0	2592079872	28	17047
2026-01-13 07:56:19.31	107.94	7.61	-26.2	-26.8	16.4	1.20e-04	0	28	0	2709520384	28	16892
2026-01-13 07:56:20.33	107.82	7.69	-26.3	-26.9	16.3	1.20e-04	0	28	0	2818572288	28	17060
2026-01-13 07:56:21.34	107.69	7.77	-26.2	-26.7	16.4	1.14e-04	0	28	0	2936012800	28	16772
2026-01-13 07:56:22.34	107.57	7.85	-26.1	-26.7	16.4	1.14e-04	0	28	0	3053453312	28	16619
2026-01-13 07:56:23.35	107.44	7.93	-26.0	-26.5	16.4	1.14e-04	0	28	0	3162505216	28	16330
2026-01-13 07:56:24.36	107.31	8.01	-26.1	-26.6	16.3	4.90e-05	0	28	0	3271557120	28	16540
2026-01-13 07:56:25.37	107.18	8.09	-26.0	-26.5	16.4	4.90e-05	0	28	0	3388997632	28	16406
2026-01-13 07:56:26.38	107.05	8.17	-25.9	-26.5	16.5	5.99e-05	0	28	0	3498049536	28	16302
2026-01-13 07:56:27.39	106.92	8.25	-25.9	-26.5	16.5	5.99e-05	0	28	0	3615490048	28	16256
2026-01-13 07:56:28.40	106.79	8.34	-25.8	-26.3	16.5	2.72e-05	0	28	0	3732930560	28	16052
2026-01-13 07:56:29.41	106.66	8.42	-25.9	-26.4	16.5	2.72e-05	0	28	0	3841982464	28	16219
2026-01-13 07:56:30.42	106.53	8.50	-26.0	-26.5	16.5	9.80e-05	0	28	0	3959422976	26	18263
2026-01-13 07:56:31.43	106.39	8.58	-25.9	-26.4	16.5	9.80e-05	0	29	0	4068474880	26	18135
2026-01-13 07:56:32.44	106.26	8.66	-25.8	-26.3	16.5	9.80e-05	0	28	0	4177526784	26	17873
2026-01-13 07:56:33.45	106.12	8.75	-25.7	-26.2	16.6	4.35e-05	0	29	0	4294967296	26	17755
2026-01-13 07:56:34.46	105.98	8.83	-25.7	-26.3	16.6	4.35e-05	0	29	0	4412407808	26	17849
2026-01-13 07:56:35.47	105.84	8.91	-25.6	-26.2	16.6	7.08e-05	0	28	0	4521459712	26	17612
2026-01-13 07:56:36.48	105.70	8.99	-25.5	-26.1	16.6	7.08e-05	0	29	0	4638900224	26	17436
2026-01-13 07:56:37.49	105.56	9.08	-25.6	-26.1	16.6	2.72e-05	0	29	0	4747952128	26	17556
2026-01-13 07:56:38.49	105.42	9.16	-25.5	-26.0	16.5	2.72e-05	0	29	0	4865392640	26	17300
2026-01-13 07:56:39.50	105.28	9.24	-25.5	-26.0	16.5	4.90e-05	0	29	0	4982833152	26	17345
2026-01-13 07:56:40.51	105.14	9.33	-25.5	-26.0	16.6	4.90e-05	0	29	0	5091885056	26	17310
2026-01-13 07:56:41.52	104.99	9.41	-25.4	-25.9	16.7	4.90e-05	0	29	0	5200936960	26	17100
2026-01-13 07:56:42.53	104.85	9.49	-25.3	-25.8	16.7	2.72e-05	0	29	0	5318377472	26	16918
2026-01-13 07:56:43.54	104.70	9.58	-25.5	-26.0	16.7	2.72e-05	0	29	0	5427429376	26	17250
2026-01-13 07:56:44.54	104.56	9.66	-25.2	-25.7	16.7	2.72e-05	0	29	0	5544869888	26	16635
2026-01-13 07:56:45.55	104.41	9.75	-25.1	-25.6	16.7	7.62e-05	0	29	0	5662310400	26	16520
2026-01-13 07:56:46.56	104.26	9.83	-25.0	-25.5	16.7	7.62e-05	0	29	0	5771362304	26	16364
2026-01-13 07:56:47.57	104.11	9.92	-25.2	-25.7	16.7	3.81e-05	0	29	0	5888802816	26	16727
2026-01-13 07:56:48.58	103.95	10.00	-25.2	-25.7	16.8	3.81e-05	0	29	0	5997854720	26	16642
2026-01-13 07:56:49.59	103.80	10.09	-25.0	-25.5	16.8	1.63e-05	0	29	0	6115295232	26	16341
2026-01-13 07:56:50.60	103.65	10.18	-25.2	-25.6	16.8	1.63e-05	0	29	0	6232735744	26	16604
2026-01-13 07:56:51.61	103.49	10.26	-25.4	-25.8	16.8	1.63e-05	0	29	0	6341787648	26	16974
2026-01-13 07:56:52.61	103.34	10.35	-24.9	-25.4	16.8	1.63e-05	0	29	0	6450839552	26	16137
2026-01-13 07:56:53.62	103.18	10.44	-24.9	-25.4	16.9	5.40e-06	0	29	0	6568280064	26	16093
2026-01-13 07:56:54.63	103.02	10.52	-25.0	-25.5	16.9	5.40e-06	0	29	0	6677331968	26	16337
2026-01-13 07:56:55.63	102.86	10.61	-25.0	-25.4	16.8	1.08e-05	0	29	0	6794772480	26	16232
2026-01-13 07:56:56.64	102.70	10.70	-24.9	-25.4	16.8	1.08e-05	0	29	0	6912212992	26	16140
2026-01-13 07:56:57.65	102.54	10.78	-25.1	-25.6	16.8	1.08e-05	0	29	0	7021264896	26	16433
2026-01-13 07:56:58.66	102.38	10.87	-25.0	-25.5	16.8	0.00e+00	0	29	0	7130316800	26	16332
2026-01-13 07:56:59.67	102.21	10.96	-25.0	-25.4	16.9	0.00e+00	0	29	0	7247757312	26	16234
2026-01-13 07:57:00.68	102.05	11.05	-24.9	-25.4	16.9	1.63e-05	0	29	0	7356809216	26	16174
2026-01-13 07:57:01.69	101.88	11.14	-25.0	-25.4	17.0	1.63e-05	0	29	0	7474249728	26	16190
2026-01-13 07:57:02.70	101.71	11.22	-24.8	-25.2	17.0	1.08e-05	0	29	0	7591690240	26	15835
2026-01-13 07:57:03.71	101.54	11.31	-24.8	-25.3	17.1	1.08e-05	0	29	0	7700742144	26	15956
2026-01-13 07:57:04.72	101.37	11.40	-24.8	-25.3	17.1	0.00e+00	0	29	0	7818182656	26	15916
2026-01-13 07:57:05.73	101.20	11.49	-24.8	-25.3	17.0	0.00e+00	0	29	0	7927234560	24	17807
2026-01-13 07:57:06.74	101.02	11.58	-24.7	-25.2	17.1	0.00e+00	0	29	0	8036286464	24	17619
2026-01-13 07:57:07.74	100.85	11.67	-24.7	-25.2	17.1	5.40e-06	0	29	0	8162115584	24	17674
2026-01-13 07:57:08.75	100.67	11.76	-24.6	-25.1	17.1	5.40e-06	0	29	0	8271167488	24	17564
2026-01-13 07:57:09.76	100.50	11.85	-24.6	-25.1	17.1	5.40e-06	0	29	0	8380219392	24	17410
2026-01-13 07:57:10.77	100.32	11.94	-24.6	-25.1	17.1	0.00e+00	0	29	0	8497659904	24	17480
2026-01-13 07:57:11.78	100.14	12.03	-24.5	-25.0	17.1	0.00e+00	0	29	0	8606711808	24	17242
2026-01-13 07:57:12.79	99.96	12.12	-24.5	-25.0	17.1	0.00e+00	0	29	0	8724152320	24	17343
2026-01-13 07:57:13.80	99.77	12.21	-24.5	-25.0	17.2	0.00e+00	0	29	0	8841592832	24	17292
2026-01-13 07:57:14.81	99.59	12.30	-24.3	-24.8	17.2	5.40e-06	0	29	0	8950644736	24	16854
2026-01-13 07:57:15.82	99.40	12.40	-24.4	-24.9	17.1	5.40e-06	0	29	0	9059696640	24	17058
2026-01-13 07:57:16.83	99.22	12.49	-24.4	-24.9	17.2	5.40e-06	0	29	0	9177137152	24	17080
2026-01-13 07:57:17.84	99.03	12.58	-24.4	-24.9	17.2	0.00e+00	0	29	0	9286189056	24	17053
2026-01-13 07:57:18.84	98.84	12.67	-24.3	-24.7	17.3	0.00e+00	0	29	0	9403629568	24	16799
2026-01-13 07:57:19.85	98.65	12.76	-24.1	-24.5	17.3	0.00e+00	0	29	0	9521070080	24	16423
2026-01-13 07:57:20.87	98.46	12.86	-24.0	-24.5	17.2	0.00e+00	0	29	0	9630121984	24	16338
2026-01-13 07:57:21.88	98.26	12.95	-24.1	-24.6	17.2	5.40e-06	0	29	0	9747562496	24	16447
2026-01-13 07:57:22.89	98.07	13.04	-23.9	-24.4	17.2	5.40e-06	0	29	0	9856614400	24	16208
2026-01-13 07:57:23.90	97.87	13.13	-24.0	-24.5	17.3	0.00e+00	0	29	0	9974054912	24	16240
2026-01-13 07:57:24.91	97.67	13.23	-24.0	-24.5	17.3	0.00e+00	0	29	0	10091495424	24	16416
2026-01-13 07:57:25.92	97.47	13.32	-24.1	-24.6	17.3	0.00e+00	0	29	0	10200547328	24	16451
2026-01-13 07:57:26.92	97.27	13.41	-23.8	-24.4	17.3	0.00e+00	0	29	0	10309599232	24	16072
2026-01-13 07:57:27.93	97.07	13.51	-23.8	-24.3	17.2	0.00e+00	0	29	0	10427039744	24	15961
2026-01-13 07:57:28.94	96.86	13.60	-23.7	-24.2	17.2	0.00e+00	0	29	0	10544480256	22	17666
2026-01-13 07:57:29.95	96.66	13.69	-23.8	-24.3	17.3	0.00e+00	0	29	0	10653532160	22	17831
2026-01-13 07:57:30.96	96.45	13.79	-23.7	-24.2	17.3	0.00e+00	0	29	0	10770972672	22	17755
2026-01-13 07:57:31.97	96.24	13.88	-23.7	-24.1	17.3	0.00e+00	0	29	0	10880024576	22	17598
2026-01-13 07:57:32.98	96.03	13.98	-23.6	-24.1	17.3	0.00e+00	0	29	0	10989076480	22	17546
2026-01-13 07:57:33.99	95.81	14.07	-23.6	-24.1	17.2	0.00e+00	0	29	0	11106516992	22	17554
2026-01-13 07:57:35.00	95.60	14.16	-23.5	-24.0	17.3	5.40e-06	0	29	0	11223957504	22	17214
2026-01-13 07:57:36.01	95.38	14.26	-23.5	-24.0	17.3	5.40e-06	0	29	0	11333009408	22	17332
2026-01-13 07:57:37.02	95.17	14.35	-23.4	-23.9	17.2	5.40e-06	0	29	0	11450449920	22	17082
2026-01-13 07:57:38.03	94.95	14.45	-23.5	-24.0	17.2	0.00e+00	0	29	0	11559501824	22	17231
2026-01-13 07:57:39.04	94.73	14.54	-23.4	-23.9	17.3	0.00e+00	0	29	0	11676942336	22	17072
2026-01-13 07:57:40.05	94.50	14.64	-23.4	-23.9	17.3	0.00e+00	0	29	0	11794382848	22	17121
2026-01-13 07:57:41.06	94.28	14.73	-23.4	-23.9	17.3	0.00e+00	0	29	0	11903434752	22	17127
2026-01-13 07:57:42.06	94.06	14.83	-23.3	-23.8	17.2	0.00e+00	0	29	0	12020875264	22	16873
2026-01-13 07:57:43.07	93.83	14.92	-23.2	-23.7	17.1	0.00e+00	0	29	0	12129927168	22	16680
2026-01-13 07:57:44.08	93.60	15.02	-23.3	-23.7	17.1	0.00e+00	0	29	0	12238979072	22	16790
2026-01-13 07:57:45.10	93.36	15.12	-23.3	-23.8	17.2	0.00e+00	0	29	0	12356419584	22	16835
2026-01-13 07:57:46.10	93.13	15.21	-23.1	-23.6	17.3	0.00e+00	0	29	0	12473860096	22	16491
2026-01-13 07:57:47.11	92.90	15.31	-23.1	-23.6	17.3	0.00e+00	0	29	0	12582912000	22	16468
2026-01-13 07:57:48.12	92.66	15.40	-23.1	-23.6	17.3	0.00e+00	0	29	0	12700352512	22	16505
2026-01-13 07:57:49.13	92.42	15.50	-23.2	-23.7	17.3	0.00e+00	0	29	0	12809404416	22	16647
2026-01-13 07:57:50.14	92.18	15.59	-23.1	-23.5	17.3	0.00e+00	0	29	0	12926844928	22	16412
2026-01-13 07:57:51.15	91.94	15.69	-23.0	-23.5	17.3	0.00e+00	0	29	0	13044285440	22	16264
2026-01-13 07:57:52.16	91.70	15.78	-23.1	-23.6	17.2	0.00e+00	0	29	0	13153337344	22	16442
2026-01-13 07:57:53.17	91.45	15.88	-23.2	-23.7	17.2	0.00e+00	0	29	0	13262389248	22	16663
2026-01-13 07:57:54.18	91.20	15.98	-23.1	-23.6	17.2	0.00e+00	0	29	0	13379829760	22	16526
2026-01-13 07:57:55.19	90.95	16.07	-22.8	-23.2	17.3	0.00e+00	0	29	0	13497270272	22	15852
2026-01-13 07:57:56.20	90.70	16.17	-22.8	-23.2	17.3	0.00e+00	0	29	0	13606322176	20	17761
2026-01-13 07:57:57.21	90.45	16.26	-22.7	-23.2	17.3	0.00e+00	0	29	0	13723762688	20	17722
2026-01-13 07:57:58.22	90.19	16.36	-22.6	-23.1	17.4	0.00e+00	0	29	0	13832814592	20	17520
2026-01-13 07:57:59.23	89.94	16.46	-22.8	-23.2	17.4	0.00e+00	0	29	0	13950255104	20	17784
2026-01-13 07:58:00.24	89.68	16.55	-22.6	-23.1	17.4	0.00e+00	0	29	0	14067695616	20	17498
2026-01-13 07:58:01.25	89.42	16.65	-22.7	-23.2	17.4	0.00e+00	0	29	0	14176747520	20	17648
2026-01-13 07:58:02.26	89.15	16.74	-22.6	-23.1	17.4	0.00e+00	0	30	0	14285799424	20	17473
2026-01-13 07:58:03.27	88.89	16.84	-22.5	-22.9	17.4	0.00e+00	0	30	0	14403239936	20	17162
2026-01-13 07:58:04.28	88.62	16.93	-22.4	-22.9	17.4	0.00e+00	0	30	0	14512291840	20	17107
2026-01-13 07:58:05.29	88.35	17.03	-22.6	-23.1	17.4	0.00e+00	0	29	0	14629732352	20	17458
2026-01-13 07:58:06.30	88.08	17.12	-22.3	-22.8	17.4	0.00e+00	0	29	0	14747172864	20	16820
2026-01-13 07:58:07.31	87.81	17.22	-22.2	-22.6	17.4	0.00e+00	0	30	0	14856224768	20	16573
2026-01-13 07:58:08.32	87.53	17.31	-22.2	-22.7	17.3	0.00e+00	0	30	0	14973665280	20	16685
2026-01-13 07:58:09.33	87.26	17.41	-22.1	-22.5	17.4	0.00e+00	0	30	0	15082717184	20	16376
2026-01-13 07:58:10.34	86.98	17.50	-22.0	-22.5	17.4	0.00e+00	0	30	0	15191769088	20	16293
2026-01-13 07:58:11.35	86.70	17.60	-22.1	-22.6	17.4	0.00e+00	0	30	0	15309209600	20	16486
2026-01-13 07:58:12.36	86.42	17.69	-22.2	-22.6	17.5	0.00e+00	0	29	0	15426650112	20	16580
2026-01-13 07:58:13.37	86.13	17.79	-22.0	-22.5	17.4	0.00e+00	0	30	0	15535702016	20	16297
2026-01-13 07:58:14.38	85.84	17.88	-22.2	-22.6	17.4	0.00e+00	0	29	0	15653142528	20	16570
2026-01-13 07:58:15.38	85.56	17.98	-22.0	-22.5	17.4	0.00e+00	0	29	0	15762194432	20	16302
2026-01-13 07:58:16.39	85.27	18.07	-22.1	-22.5	17.4	0.00e+00	0	30	0	15879634944	20	16382
2026-01-13 07:58:17.40	84.97	18.16	-21.9	-22.4	17.4	0.00e+00	0	30	0	15997075456	20	16123
2026-01-13 07:58:18.41	84.68	18.26	-22.0	-22.5	17.4	0.00e+00	0	30	0	16106127360	20	16265
2026-01-13 07:58:19.42	84.38	18.35	-21.9	-22.4	17.3	0.00e+00	0	30	0	16215179264	20	16059
2026-01-13 07:58:20.43	84.08	18.44	-21.9	-22.3	17.3	0.00e+00	0	30	0	16332619776	20	15961
2026-01-13 07:58:21.44	83.78	18.53	-21.9	-22.3	17.3	0.00e+00	0	30	0	16450060288	20	16049
2026-01-13 07:58:22.45	83.47	18.63	-21.9	-22.4	17.2	0.00e+00	0	30	0	16559112192	20	16063
2026-01-13 07:58:23.46	83.17	18.72	-21.8	-22.2	17.3	0.00e+00	0	30	0	16676552704	20	15809
2026-01-13 07:58:24.47	82.86	18.81	-21.8	-22.3	17.4	0.00e+00	0	30	0	16785604608	20	15912
2026-01-13 07:58:25.48	82.55	18.90	-21.8	-22.2	17.4	0.00e+00	0	30	0	16903045120	20	15848
2026-01-13 07:58:26.49	82.24	18.99	-21.7	-22.2	17.5	0.00e+00	0	30	0	17012097024	18	17633
2026-01-13 07:58:27.49	81.92	19.08	-21.8	-22.2	17.4	0.00e+00	0	30	0	17129537536	18	17793
2026-01-13 07:58:28.50	81.61	19.17	-21.7	-22.1	17.4	0.00e+00	0	30	0	17238589440	18	17577
2026-01-13 07:58:29.51	81.29	19.26	-21.7	-22.1	17.5	0.00e+00	0	30	0	17356029952	18	17463
2026-01-13 07:58:30.52	80.97	19.35	-21.7	-22.1	17.5	0.00e+00	0	30	0	17465081856	18	17572
2026-01-13 07:58:31.53	80.64	19.44	-21.6	-22.1	17.5	0.00e+00	0	30	0	17582522368	18	17480
2026-01-13 07:58:32.54	80.32	19.53	-21.6	-22.0	17.5	0.00e+00	0	30	0	17699962880	18	17381
2026-01-13 07:58:33.55	79.99	19.61	-21.6	-22.1	17.4	0.00e+00	0	30	0	17809014784	18	17420
2026-01-13 07:58:34.56	79.66	19.70	-21.6	-22.0	17.3	0.00e+00	0	30	0	17926455296	18	17395
2026-01-13 07:58:35.57	79.33	19.79	-21.6	-22.1	17.3	0.00e+00	0	30	0	18035507200	18	17463
2026-01-13 07:58:36.58	79.00	19.87	-21.5	-22.0	17.2	0.00e+00	0	29	0	18144559104	18	17290
2026-01-13 07:58:37.58	78.66	19.96	-21.5	-21.9	17.1	0.00e+00	0	30	0	18261999616	18	17159
2026-01-13 07:58:38.59	78.32	20.04	-21.3	-21.8	17.2	0.00e+00	0	30	0	18379440128	18	16923
2026-01-13 07:58:39.60	77.98	20.13	-21.5	-21.9	17.4	0.00e+00	0	30	0	18488492032	18	17119
2026-01-13 07:58:40.61	77.64	20.21	-21.6	-22.1	17.4	0.00e+00	0	30	0	18605932544	18	17418
2026-01-13 07:58:41.62	77.30	20.29	-21.4	-21.8	17.4	0.00e+00	0	30	0	18714984448	18	16982
2026-01-13 07:58:42.63	76.95	20.38	-21.4	-21.9	17.4	0.00e+00	0	30	0	18832424960	18	17014
2026-01-13 07:58:43.64	76.60	20.46	-21.3	-21.7	17.4	0.00e+00	0	30	0	18949865472	18	16773
2026-01-13 07:58:44.65	76.25	20.54	-21.3	-21.8	17.4	0.00e+00	0	30	0	19058917376	18	16851
2026-01-13 07:58:45.66	75.90	20.62	-21.3	-21.8	17.4	0.00e+00	0	30	0	19167969280	18	16838
2026-01-13 07:58:46.67	75.54	20.70	-21.4	-21.8	17.4	0.00e+00	0	30	0	19285409792	18	16974
2026-01-13 07:58:47.68	75.18	20.78	-21.2	-21.6	17.4	0.00e+00	0	30	0	19394461696	18	16607
2026-01-13 07:58:48.69	74.83	20.86	-21.2	-21.7	17.4	0.00e+00	0	30	0	19511902208	18	16647
2026-01-13 07:58:49.70	74.46	20.94	-21.4	-21.8	17.4	0.00e+00	0	30	0	19629342720	18	16976
2026-01-13 07:58:50.70	74.10	21.01	-21.1	-21.5	17.4	0.00e+00	0	30	0	19738394624	18	16360
2026-01-13 07:58:51.71	73.74	21.09	-21.0	-21.4	17.2	0.00e+00	0	30	0	19855835136	18	16219
2026-01-13 07:58:52.72	73.37	21.16	-21.1	-21.5	17.0	0.00e+00	0	30	0	19964887040	18	16358
2026-01-13 07:58:53.73	73.00	21.24	-21.0	-21.5	17.2	0.00e+00	0	30	0	20073938944	18	16253
2026-01-13 07:58:54.74	72.63	21.31	-20.9	-21.3	17.2	0.00e+00	0	30	0	20199768064	18	16012
2026-01-13 07:58:55.75	72.26	21.38	-20.9	-21.4	17.3	0.00e+00	0	30	0	20308819968	18	16088
2026-01-13 07:58:56.76	71.88	21.46	-20.9	-21.3	17.3	0.00e+00	0	30	0	20417871872	18	16022
2026-01-13 07:58:57.77	71.50	21.53	-20.9	-21.4	17.3	0.00e+00	0	30	0	20535312384	18	16080
2026-01-13 07:58:58.78	71.12	21.60	-20.8	-21.2	17.3	0.00e+00	0	30	0	20644364288	18	15795
2026-01-13 07:58:59.78	70.75	21.66	-20.9	-21.3	17.4	0.00e+00	0	30	0	20761804800	18	15958
2026-01-13 07:59:00.80	70.36	21.73	-20.7	-21.1	17.3	0.00e+00	0	30	0	20879245312	16	17567
2026-01-13 07:59:01.81	69.97	21.80	-20.7	-21.1	17.3	0.00e+00	0	30	0	20988297216	16	17512
2026-01-13 07:59:02.82	69.59	21.86	-20.7	-21.1	17.2	0.00e+00	0	30	0	21097349120	16	17569
2026-01-13 07:59:03.83	69.20	21.93	-20.6	-21.1	17.2	0.00e+00	0	30	0	21214789632	16	17456
2026-01-13 07:59:04.83	68.81	21.99	-20.7	-21.1	17.1	0.00e+00	0	30	0	21323841536	16	17512
2026-01-13 07:59:05.84	68.42	22.05	-20.7	-21.1	17.2	0.00e+00	0	30	0	21441282048	16	17540
2026-01-13 07:59:06.85	68.02	22.12	-20.7	-21.1	17.3	0.00e+00	0	30	0	21558722560	16	17504
2026-01-13 07:59:07.86	67.63	22.18	-20.8	-21.3	17.3	0.00e+00	0	30	0	21667774464	16	17884
2026-01-13 07:59:08.87	67.23	22.24	-20.7	-21.2	17.3	0.00e+00	0	30	0	21785214976	16	17617
2026-01-13 07:59:09.88	66.83	22.29	-20.8	-21.2	17.1	0.00e+00	0	30	0	21894266880	16	17791
2026-01-13 07:59:10.89	66.43	22.35	-20.8	-21.3	17.2	0.00e+00	0	30	0	22003318784	16	17822
2026-01-13 07:59:11.90	66.03	22.41	-20.7	-21.1	17.2	0.00e+00	0	30	0	22129147904	16	17564
2026-01-13 07:59:12.91	65.62	22.46	-20.7	-21.2	17.1	0.00e+00	0	30	0	22238199808	16	17698
2026-01-13 07:59:13.91	65.22	22.51	-20.6	-21.0	17.1	0.00e+00	0	30	0	22347251712	16	17305
2026-01-13 07:59:14.93	64.81	22.57	-20.6	-21.1	17.0	0.00e+00	0	30	0	22464692224	16	17402
2026-01-13 07:59:15.93	64.40	22.62	-20.5	-21.0	17.0	0.00e+00	0	30	0	22573744128	16	17226
2026-01-13 07:59:16.94	63.99	22.66	-20.7	-21.1	17.1	0.00e+00	0	30	0	22691184640	16	17486
2026-01-13 07:59:17.95	63.58	22.71	-20.6	-21.0	17.2	0.00e+00	0	30	0	22808625152	16	17379
2026-01-13 07:59:18.96	63.17	22.76	-20.7	-21.1	17.2	0.00e+00	0	30	0	22917677056	16	17576
2026-01-13 07:59:19.97	62.75	22.80	-20.6	-21.0	17.1	0.00e+00	0	30	0	23026728960	16	17312
2026-01-13 07:59:20.98	62.34	22.85	-20.5	-21.0	17.1	0.00e+00	0	30	0	23144169472	16	17204
2026-01-13 07:59:21.99	61.92	22.89	-20.5	-21.0	17.1	0.00e+00	0	30	0	23253221376	16	17228
2026-01-13 07:59:23.00	61.50	22.93	-20.6	-21.0	17.1	0.00e+00	0	30	0	23370661888	16	17273
2026-01-13 07:59:24.00	61.09	22.97	-20.7	-21.1	17.0	0.00e+00	0	30	0	23488102400	16	17472
2026-01-13 07:59:25.01	60.67	23.01	-20.7	-21.1	17.1	0.00e+00	0	30	0	23597154304	16	17560
2026-01-13 07:59:26.03	60.24	23.05	-20.7	-21.1	17.0	0.00e+00	0	30	0	23714594816	16	17601
2026-01-13 07:59:27.03	59.82	23.08	-20.6	-21.1	17.0	0.00e+00	0	30	0	23823646720	16	17456
2026-01-13 07:59:28.04	59.40	23.12	-20.6	-21.0	16.9	0.00e+00	0	30	0	23941087232	16	17322
2026-01-13 07:59:29.05	58.97	23.15	-20.7	-21.1	16.9	0.00e+00	0	30	0	24050139136	16	17512
2026-01-13 07:59:30.06	58.55	23.18	-20.6	-21.0	16.8	0.00e+00	0	30	0	24167579648	16	17310
2026-01-13 07:59:31.07	58.12	23.21	-20.6	-21.1	16.5	0.00e+00	0	30	0	24276631552	16	17424
2026-01-13 07:59:32.08	57.69	23.24	-20.7	-21.1	16.6	0.00e+00	0	30	0	24394072064	16	17420
2026-01-13 07:59:33.09	57.26	23.26	-20.7	-21.1	16.7	0.00e+00	0	30	0	24511512576	16	17516
2026-01-13 07:59:34.10	56.83	23.29	-20.8	-21.3	16.9	0.00e+00	0	30	0	24620564480	16	17815
2026-01-13 07:59:35.10	56.41	23.31	-20.7	-21.1	16.8	0.00e+00	0	30	0	24738004992	16	17530
2026-01-13 07:59:36.11	55.98	23.33	-20.9	-21.3	16.9	0.00e+00	0	30	0	24847056896	16	17829
2026-01-13 07:59:37.12	55.55	23.35	-20.7	-21.1	16.9	0.00e+00	0	30	0	24956108800	16	17537
2026-01-13 07:59:38.13	55.11	23.37	-20.7	-21.1	16.9	0.00e+00	0	30	0	25073549312	16	17511
2026-01-13 07:59:39.14	54.68	23.39	-20.9	-21.3	16.9	0.00e+00	0	30	0	25190989824	16	17926
2026-01-13 07:59:40.15	54.25	23.40	-20.8	-21.2	16.9	0.00e+00	0	30	0	25300041728	16	17796
2026-01-13 07:59:41.16	53.82	23.42	-20.8	-21.2	16.9	0.00e+00	0	30	0	25417482240	16	17634
2026-01-13 07:59:42.17	53.38	23.43	-20.7	-21.1	16.9	0.00e+00	0	30	0	25526534144	16	17569
2026-01-13 07:59:43.18	52.95	23.44	-20.6	-21.0	16.9	0.00e+00	0	30	0	25643974656	16	17356
2026-01-13 07:59:44.19	52.51	23.45	-20.6	-21.0	16.8	0.00e+00	0	30	0	25761415168	16	17305
2026-01-13 07:59:45.20	52.08	23.46	-20.7	-21.1	16.7	0.00e+00	0	30	0	25870467072	16	17434
2026-01-13 07:59:46.21	51.64	23.46	-20.7	-21.1	16.9	0.00e+00	0	30	0	25979518976	16	17517
2026-01-13 07:59:47.22	51.21	23.47	-20.6	-21.1	17.0	0.00e+00	0	30	0	26096959488	16	17435
2026-01-13 07:59:48.23	50.77	23.47	-20.6	-21.0	17.0	0.00e+00	0	30	0	26206011392	16	17274
2026-01-13 07:59:49.24	50.34	23.47	-20.8	-21.2	17.0	0.00e+00	0	30	0	26323451904	16	17733
2026-01-13 07:59:50.24	49.91	23.47	-20.7	-21.1	17.0	0.00e+00	0	30	0	26440892416	16	17548
2026-01-13 07:59:51.25	49.47	23.47	-20.7	-21.1	17.0	0.00e+00	0	30	0	26549944320	16	17535
2026-01-13 07:59:52.26	49.04	23.46	-20.6	-21.1	17.1	0.00e+00	0	30	0	26667384832	16	17434
2026-01-13 07:59:53.27	48.60	23.46	-20.6	-21.1	17.0	0.00e+00	0	30	0	26776436736	16	17438
2026-01-13 07:59:54.28	48.17	23.45	-20.7	-21.1	17.1	0.00e+00	0	30	0	26885488640	16	17487
2026-01-13 07:59:55.29	47.73	23.44	-20.7	-21.2	17.0	0.00e+00	0	30	0	27011317760	16	17622
2026-01-13 07:59:56.30	47.30	23.43	-20.7	-21.2	17.1	0.00e+00	0	30	0	27120369664	16	17644
2026-01-13 07:59:57.31	46.87	23.42	-20.6	-21.0	17.1	0.00e+00	0	30	0	27229421568	16	17352
2026-01-13 07:59:58.32	46.43	23.41	-20.6	-21.0	17.1	0.00e+00	0	30	0	27346862080	16	17344
2026-01-13 07:59:59.33	46.00	23.39	-20.7	-21.1	17.1	0.00e+00	0	30	0	27455913984	16	17526
2026-01-13 08:00:00.34	45.57	23.37	-20.6	-21.1	17.1	0.00e+00	0	30	0	27573354496	16	17471
2026-01-13 08:00:01.35	45.14	23.36	-20.6	-21.1	17.2	0.00e+00	0	30	0	27690795008	16	17449
2026-01-13 08:00:02.36	44.70	23.34	-20.7	-21.2	17.1	0.00e+00	0	30	0	27799846912	16	17640
2026-01-13 08:00:03.37	44.27	23.31	-20.5	-21.0	17.2	0.00e+00	0	30	0	27908898816	16	17222
2026-01-13 08:00:04.38	43.84	23.29	-20.7	-21.2	17.2	0.00e+00	0	30	0	28026339328	16	17710
2026-01-13 08:00:05.39	43.42	23.27	-20.5	-21.0	17.2	0.00e+00	0	30	0	28143779840	16	17349
2026-01-13 08:00:06.40	42.99	23.24	-20.6	-21.1	17.1	0.00e+00	0	30	0	28252831744	16	17543
2026-01-13 08:00:07.41	42.56	23.21	-20.6	-21.1	17.2	0.00e+00	0	30	0	28370272256	16	17506
2026-01-13 08:00:08.42	42.13	23.18	-20.8	-21.3	17.2	0.00e+00	0	30	0	28479324160	16	17838
2026-01-13 08:00:09.43	41.71	23.15	-20.7	-21.2	17.2	0.00e+00	0	30	0	28596764672	16	17676
2026-01-13 08:00:10.44	41.28	23.12	-20.7	-21.2	17.3	0.00e+00	0	30	0	28714205184	16	17657
2026-01-13 08:00:11.45	40.86	23.09	-20.6	-21.1	17.3	0.00e+00	0	30	0	28823257088	16	17453
2026-01-13 08:00:12.46	40.44	23.05	-20.8	-21.3	17.3	0.00e+00	0	30	0	28940697600	16	17837
2026-01-13 08:00:13.46	40.02	23.02	-20.6	-21.2	17.3	0.00e+00	0	30	0	29049749504	16	17621
2026-01-13 08:00:14.47	39.60	22.98	-20.7	-21.2	17.2	0.00e+00	0	30	0	29158801408	16	17748
2026-01-13 08:00:15.48	39.18	22.94	-20.7	-21.2	17.3	0.00e+00	0	30	0	29276241920	16	17678
2026-01-13 08:00:16.49	38.76	22.90	-20.7	-21.3	17.3	0.00e+00	0	30	0	29385293824	16	17851
2026-01-13 08:00:17.50	38.34	22.86	-20.7	-21.2	17.3	0.00e+00	0	30	0	29502734336	16	17703
2026-01-13 08:00:18.51	37.93	22.81	-20.9	-21.4	17.2	0.00e+00	0	30	0	29620174848	16	18192
2026-01-13 08:00:19.52	37.52	22.77	-20.7	-21.2	17.2	0.00e+00	0	30	0	29729226752	16	17800
2026-01-13 08:00:20.53	37.10	22.72	-20.8	-21.4	17.3	0.00e+00	0	30	0	29838278656	16	18067
2026-01-13 08:00:21.54	36.69	22.68	-20.8	-21.4	17.3	0.00e+00	0	30	0	29964107776	16	18039
2026-01-13 08:00:22.55	36.28	22.63	-20.8	-21.3	17.3	0.00e+00	0	30	0	30073159680	16	17921
2026-01-13 08:00:23.56	35.87	22.58	-20.8	-21.4	17.3	0.00e+00	0	30	0	30182211584	16	18015
2026-01-13 08:00:24.57	35.47	22.53	-20.9	-21.4	17.3	0.00e+00	0	30	0	30299652096	16	18128
2026-01-13 08:00:25.58	35.06	22.47	-20.9	-21.4	17.3	0.00e+00	0	30	0	30408704000	16	18143
2026-01-13 08:00:26.59	34.66	22.42	-20.9	-21.4	17.3	0.00e+00	0	30	0	30526144512	16	18110
2026-01-13 08:00:27.60	34.26	22.36	-20.9	-21.4	17.3	0.00e+00	0	30	0	30643585024	16	18096
2026-01-13 08:00:28.60	33.86	22.31	-20.9	-21.5	17.3	0.00e+00	0	30	0	30752636928	16	18242
2026-01-13 08:00:29.61	33.46	22.25	-21.0	-21.5	17.3	0.00e+00	0	30	0	30870077440	16	18383
2026-01-13 08:00:30.62	33.06	22.19	-20.9	-21.4	17.3	0.00e+00	0	30	0	30979129344	16	18091
2026-01-13 08:00:31.63	32.67	22.13	-21.0	-21.5	17.3	0.00e+00	0	30	0	31088181248	16	18381
2026-01-13 08:00:32.64	32.27	22.07	-21.0	-21.5	17.3	0.00e+00	0	30	0	31205621760	16	18395
2026-01-13 08:00:33.65	31.88	22.01	-21.0	-21.5	17.3	0.00e+00	0	30	0	31323062272	16	18223
2026-01-13 08:00:34.66	31.49	21.95	-21.0	-21.5	17.3	0.00e+00	0	30	0	31432114176	16	18261
2026-01-13 08:00:35.67	31.10	21.88	-21.0	-21.5	17.3	0.00e+00	0	30	0	31549554688	16	18371
2026-01-13 08:00:36.68	30.72	21.82	-21.2	-21.7	17.3	0.00e+00	0	30	0	31658606592	16	18741
2026-01-13 08:00:37.69	30.33	21.75	-21.0	-21.5	17.3	0.00e+00	0	30	0	31776047104	16	18223
2026-01-13 08:00:38.70	29.95	21.68	-21.0	-21.5	17.3	0.00e+00	0	30	0	31893487616	16	18301
2026-01-13 08:00:39.71	29.57	21.61	-21.0	-21.5	17.3	0.00e+00	0	30	0	32002539520	16	18286
2026-01-13 08:00:40.72	29.19	21.54	-21.1	-21.6	17.3	0.00e+00	0	30	0	32111591424	16	18442
2026-01-13 08:00:41.72	28.82	21.47	-21.1	-21.6	17.4	0.00e+00	0	30	0	32229031936	16	18569
2026-01-13 08:00:42.73	28.44	21.40	-21.2	-21.7	17.3	0.00e+00	0	30	0	32338083840	16	18693
2026-01-13 08:00:43.74	28.07	21.33	-21.0	-21.5	17.3	0.00e+00	0	30	0	32455524352	16	18398
2026-01-13 08:00:44.75	27.70	21.26	-21.1	-21.6	17.3	0.00e+00	0	30	0	32572964864	16	18462
2026-01-13 08:00:45.76	27.33	21.18	-21.0	-21.5	17.3	0.00e+00	0	30	0	32682016768	16	18388
2026-01-13 08:00:46.77	26.96	21.11	-21.1	-21.6	17.3	0.00e+00	0	30	0	32799457280	16	18501
2026-01-13 08:00:47.78	26.60	21.03	-21.2	-21.7	17.3	0.00e+00	0	30	0	32908509184	16	18712
2026-01-13 08:00:48.79	26.23	20.96	-21.0	-21.5	17.4	0.00e+00	0	30	0	33025949696	16	18293
2026-01-13 08:00:49.80	25.87	20.88	-21.1	-21.5	17.3	0.00e+00	0	30	0	33135001600	16	18429
2026-01-13 08:00:50.81	25.51	20.80	-21.1	-21.6	17.3	0.00e+00	0	30	0	33252442112	16	18442
2026-01-13 08:00:51.81	25.16	20.72	-21.0	-21.5	17.4	0.00e+00	0	30	0	33361494016	16	18304
2026-01-13 08:00:52.83	24.80	20.64	-21.1	-21.6	17.4	0.00e+00	0	30	0	33478934528	16	18563
2026-01-13 08:00:53.83	24.45	20.56	-21.1	-21.5	17.4	0.00e+00	0	30	0	33587986432	16	18428
2026-01-13 08:00:54.84	24.10	20.48	-21.0	-21.5	17.4	0.00e+00	0	30	0	33705426944	16	18326
2026-01-13 08:00:55.86	23.75	20.40	-21.2	-21.7	17.4	0.00e+00	0	30	0	33822867456	16	18699
2026-01-13 08:00:56.87	23.41	20.32	-21.3	-21.7	17.5	0.00e+00	0	30	0	33931919360	16	18843
2026-01-13 08:00:57.88	23.06	20.24	-21.1	-21.6	17.4	0.00e+00	0	30	0	34040971264	16	18612
2026-01-13 08:00:58.88	22.72	20.15	-21.2	-21.6	17.5	0.00e+00	0	30	0	34158411776	16	18626
2026-01-13 08:00:59.89	22.38	20.07	-21.2	-21.7	17.4	0.00e+00	0	30	0	34275852288	16	18664
2026-01-13 08:01:00.90	22.05	19.99	-21.2	-21.7	17.4	0.00e+00	0	30	0	34384904192	16	18684
2026-01-13 08:01:01.92	21.71	19.90	-21.2	-21.7	17.5	0.00e+00	0	30	0	34502344704	16	18784
2026-01-13 08:01:02.92	21.38	19.81	-21.2	-21.8	17.5	0.00e+00	0	30	0	34611396608	16	18871
2026-01-13 08:01:03.93	21.05	19.73	-21.3	-21.8	17.5	0.00e+00	0	30	0	34728837120	16	19005
2026-01-13 08:01:04.94	20.72	19.64	-21.3	-21.8	17.5	0.00e+00	0	30	0	34846277632	16	19065
2026-01-13 08:01:05.95	20.39	19.55	-21.3	-21.8	17.5	0.00e+00	0	30	0	34955329536	16	19008
2026-01-13 08:01:06.96	20.07	19.47	-21.4	-21.9	17.5	0.00e+00	0	30	0	35064381440	16	19119
2026-01-13 08:01:07.97	19.75	19.38	-21.3	-21.8	17.5	0.00e+00	0	30	0	35181821952	16	19005
2026-01-13 08:01:08.98	19.42	19.29	-21.4	-21.9	17.5	0.00e+00	0	30	0	35290873856	16	19141
2026-01-13 08:01:09.99	19.11	19.20	-21.5	-21.9	17.5	0.00e+00	0	30	0	35408314368	16	19297
2026-01-13 08:01:11.00	18.79	19.11	-21.5	-22.0	17.5	0.00e+00	0	30	0	35525754880	16	19394
2026-01-13 08:01:12.01	18.48	19.02	-21.6	-22.1	17.6	0.00e+00	0	30	0	35634806784	16	19608
2026-01-13 08:01:13.02	18.17	18.93	-21.5	-22.0	17.5	0.00e+00	0	30	0	35752247296	16	19458
2026-01-13 08:01:14.03	17.86	18.84	-21.7	-22.2	17.5	0.00e+00	0	30	0	35861299200	16	19838
2026-01-13 08:01:15.04	17.55	18.75	-21.7	-22.2	17.5	0.00e+00	0	30	0	35978739712	16	19807
2026-01-13 08:01:16.05	17.24	18.66	-21.8	-22.3	17.5	0.00e+00	0	30	0	36087791616	18	17876
2026-01-13 08:01:17.06	16.94	18.57	-21.8	-22.3	17.5	0.00e+00	0	30	0	36205232128	18	17874
2026-01-13 08:01:18.07	16.64	18.47	-21.8	-22.3	17.6	0.00e+00	0	30	0	36314284032	18	17909
2026-01-13 08:01:19.08	16.34	18.38	-21.8	-22.3	17.5	0.00e+00	0	30	0	36431724544	18	17966
2026-01-13 08:01:20.09	16.04	18.29	-21.9	-22.4	17.5	0.00e+00	0	30	0	36549165056	18	18075
2026-01-13 08:01:21.10	15.75	18.20	-21.9	-22.5	17.5	0.00e+00	0	30	0	36658216960	18	18237
2026-01-13 08:01:22.11	15.46	18.10	-21.9	-22.4	17.5	0.00e+00	0	30	0	36775657472	18	18081
2026-01-13 08:01:23.12	15.17	18.01	-22.0	-22.6	17.5	0.00e+00	0	30	0	36884709376	18	18443
2026-01-13 08:01:24.13	14.88	17.92	-22.0	-22.5	17.5	0.00e+00	0	30	0	36993761280	18	18368
2026-01-13 08:01:25.13	14.59	17.83	-22.0	-22.5	17.6	0.00e+00	0	30	0	37111201792	18	18399
2026-01-13 08:01:26.14	14.31	17.73	-22.1	-22.6	17.5	0.00e+00	0	30	0	37228642304	18	18433
2026-01-13 08:01:27.15	14.03	17.64	-22.3	-22.8	17.5	0.00e+00	0	30	0	37337694208	18	18902
2026-01-13 08:01:28.16	13.75	17.54	-22.2	-22.7	17.6	0.00e+00	0	30	0	37455134720	18	18689
2026-01-13 08:01:29.17	13.47	17.45	-22.3	-22.8	17.6	0.00e+00	0	30	0	37564186624	18	19028
2026-01-13 08:01:30.18	13.19	17.35	-22.2	-22.7	17.6	0.00e+00	0	30	0	37681627136	18	18698
2026-01-13 08:01:31.19	12.92	17.26	-22.4	-22.9	17.6	0.00e+00	0	30	0	37799067648	18	19096
2026-01-13 08:01:32.20	12.65	17.16	-22.2	-22.7	17.6	0.00e+00	0	30	0	37908119552	18	18785
2026-01-13 08:01:33.21	12.38	17.07	-22.4	-22.9	17.5	0.00e+00	0	30	0	38017171456	18	19164
2026-01-13 08:01:34.22	12.11	16.98	-22.4	-22.9	17.6	0.00e+00	0	30	0	38134611968	18	19154
2026-01-13 08:01:35.23	11.84	16.88	-22.4	-22.9	17.6	0.00e+00	0	30	0	38243663872	18	19172
2026-01-13 08:01:36.24	11.58	16.78	-22.4	-22.9	17.6	0.00e+00	0	30	0	38361104384	18	19089
2026-01-13 08:01:37.25	11.32	16.69	-22.4	-22.9	17.6	0.00e+00	0	30	0	38478544896	18	19138
2026-01-13 08:01:38.26	11.06	16.59	-22.5	-23.0	17.6	0.00e+00	0	30	0	38587596800	18	19424
2026-01-13 08:01:39.27	10.80	16.50	-22.5	-23.0	17.6	0.00e+00	0	30	0	38705037312	18	19313
2026-01-13 08:01:40.28	10.54	16.40	-22.5	-23.0	17.6	0.00e+00	0	30	0	38814089216	18	19463
2026-01-13 08:01:41.29	10.29	16.31	-22.6	-23.1	17.5	0.00e+00	0	30	0	38931529728	18	19565
2026-01-13 08:01:42.30	10.03	16.21	-22.6	-23.1	17.5	0.00e+00	0	30	0	39048970240	18	19641
2026-01-13 08:01:43.31	9.78	16.12	-22.6	-23.1	17.5	0.00e+00	0	30	0	39158022144	18	19534
2026-01-13 08:01:44.32	9.53	16.02	-22.6	-23.1	17.5	0.00e+00	0	30	0	39267074048	18	19563
2026-01-13 08:01:45.32	9.29	15.93	-22.6	-23.0	17.5	0.00e+00	0	30	0	39384514560	18	19490
2026-01-13 08:01:46.33	9.05	15.83	-22.6	-23.1	17.5	0.00e+00	0	30	0	39493566464	18	19678
2026-01-13 08:01:47.34	8.80	15.74	-22.7	-23.2	17.5	0.00e+00	0	30	0	39611006976	18	19851
2026-01-13 08:01:48.35	8.56	15.64	-22.8	-23.3	17.5	0.00e+00	0	30	0	39728447488	20	17959
2026-01-13 08:01:49.36	8.32	15.55	-22.9	-23.3	17.5	0.00e+00	0	30	0	39837499392	20	18007
2026-01-13 08:01:50.37	8.08	15.45	-22.9	-23.4	17.5	0.00e+00	0	30	0	39946551296	20	18014
2026-01-13 08:01:51.38	7.85	15.36	-22.9	-23.4	17.5	0.00e+00	0	30	0	40063991808	20	18079
2026-01-13 08:01:52.39	7.61	15.26	-22.9	-23.4	17.5	0.00e+00	0	30	0	40181432320	20	18019
2026-01-13 08:01:53.40	7.38	15.17	-23.0	-23.5	17.5	0.00e+00	0	30	0	40290484224	20	18287
2026-01-13 08:01:54.41	7.15	15.07	-23.0	-23.5	17.5	0.00e+00	0	30	0	40407924736	20	18347
2026-01-13 08:01:55.42	6.92	14.98	-23.2	-23.7	17.5	0.00e+00	0	30	0	40516976640	20	18653
2026-01-13 08:01:56.43	6.70	14.88	-23.1	-23.6	17.5	0.00e+00	0	30	0	40634417152	20	18548
2026-01-13 08:01:57.44	6.47	14.79	-23.2	-23.7	17.4	0.00e+00	0	30	0	40751857664	20	18723
2026-01-13 08:01:58.45	6.25	14.69	-23.4	-23.8	17.4	0.00e+00	0	30	0	40860909568	20	19011
2026-01-13 08:01:59.46	6.02	14.60	-23.2	-23.7	17.5	0.00e+00	0	30	0	40969961472	20	18756
2026-01-13 08:02:00.48	5.80	14.50	-23.4	-23.9	17.4	0.00e+00	0	30	0	41087401984	20	19094
2026-01-13 08:02:01.48	5.59	14.41	-23.4	-23.8	17.4	0.00e+00	0	30	0	41196453888	20	19031
2026-01-13 08:02:02.50	5.37	14.31	-23.5	-23.9	17.4	0.00e+00	0	30	0	41313894400	20	19283
2026-01-13 08:02:03.51	5.15	14.22	-23.4	-23.9	17.4	0.00e+00	0	30	0	41431334912	20	19172
2026-01-13 08:02:04.52	4.94	14.12	-23.6	-24.0	17.4	0.00e+00	0	30	0	41540386816	20	19507
2026-01-13 08:02:05.53	4.73	14.03	-23.5	-24.0	17.5	0.00e+00	0	30	0	41657827328	20	19351
2026-01-13 08:02:06.54	4.52	13.94	-23.7	-24.1	17.4	0.00e+00	0	30	0	41775267840	20	19710
2026-01-13 08:02:07.55	4.31	13.84	-23.7	-24.1	17.4	0.00e+00	0	30	0	41884319744	22	17503
2026-01-13 08:02:08.56	4.10	13.75	-23.6	-24.0	17.4	0.00e+00	0	30	0	42001760256	22	17288
2026-01-13 08:02:09.57	3.89	13.66	-23.7	-24.1	17.4	0.00e+00	0	30	0	42110812160	22	17519
2026-01-13 08:02:10.58	3.69	13.56	-23.8	-24.2	17.4	0.00e+00	0	30	0	42219864064	22	17772
2026-01-13 08:02:11.58	3.49	13.47	-23.8	-24.3	17.4	0.00e+00	0	30	0	42337304576	22	17869
2026-01-13 08:02:12.59	3.29	13.38	-24.1	-24.5	17.4	0.00e+00	0	30	0	42454745088	22	18323
2026-01-13 08:02:13.60	3.09	13.28	-48.2	-50.7	6.1	0.00e+00	0	30	104	42513465344	60	42110
2026-01-13 08:02:14.61	2.89	13.19	-48.2	-50.7	6.1	0.00e+00	0	30	104	42513465344	60	41887
2026-01-13 08:02:15.62	2.70	13.10	-48.3	-50.7	6.1	0.00e+00	0	30	104	42513465344	60	42166
2026-01-13 08:02:16.63	2.50	13.01	-48.3	-50.8	6.1	0.00e+00	0	30	104	42513465344	60	42250
2026-01-13 08:02:17.64	2.31	12.91	-48.3	-50.8	6.1	0.00e+00	0	30	104	42513465344	60	42301
2026-01-13 08:02:18.65	2.12	12.82	-48.3	-50.8	6.1	0.00e+00	0	30	104	42513465344	60	42339
2026-01-13 08:02:19.66	1.92	12.73	-48.3	-50.7	6.1	0.00e+00	0	30	104	42513465344	60	42095
2026-01-13 08:02:20.67	1.74	12.64	-48.2	-50.7	6.1	0.00e+00	0	30	104	42513465344	60	42108
2026-01-13 08:02:21.68	1.55	12.55	-48.2	-50.7	6.0	0.00e+00	0	30	104	42513465344	60	41852
2026-01-13 08:02:22.69	1.36	12.46	-48.2	-50.7	6.1	0.00e+00	0	30	104	42513465344	60	42194
2026-01-13 08:02:23.70	1.18	12.37	-48.3	-50.7	6.1	0.00e+00	0	30	104	42513465344	60	42221
2026-01-13 08:02:24.70	1.00	12.28	-48.2	-50.7	6.1	0.00e+00	0	30	104	42513465344	60	42016
2026-01-13 08:02:25.71	0.81	12.19	-48.3	-50.8	6.1	0.00e+00	0	30	104	42513465344	60	42379
2026-01-13 08:02:26.72	0.63	12.10	-48.3	-50.7	6.1	0.00e+00	0	30	104	42513465344	60	42103
2026-01-13 08:02:27.73	0.45	12.01	-48.3	-50.8	6.1	0.00e+00	0	30	104	42513465344	60	42499
2026-01-13 08:02:28.74	0.28	11.91	-48.3	-50.7	6.1	0.00e+00	0	30	104	42513465344	60	42143
2026-01-13 08:02:29.75	0.10	11.83	-48.3	-50.7	6.1	0.00e+00	0	30	104	42513465344	60	42184
2026-01-13 08:02:30.76	359.92	11.74	-48.3	-50.8	6.1	0.00e+00	0	30	104	42513465344	60	42244
2026-01-13 08:02:31.76	359.75	11.65	-48.3	-50.7	6.1	0.00e+00	0	30	104	42513465344	60	42059
2026-01-13 08:02:32.78	359.58	11.56	-48.2	-50.6	6.1	0.00e+00	0	30	104	42513465344	60	41737
2026-01-13 08:02:33.78	359.41	11.47	-48.1	-50.7	6.1	0.00e+00	0	30	104	42513465344	60	41779
2026-01-13 08:02:34.79	359.24	11.38	-48.2	-50.7	6.1	0.00e+00	0	30	104	42513465344	60	42041
2026-01-13 08:02:35.80	359.07	11.29	-48.3	-50.8	6.1	0.00e+00	0	30	104	42513465344	60	42425
2026-01-13 08:02:36.81	358.90	11.20	-48.1	-50.6	6.1	0.00e+00	0	30	104	42513465344	60	41600
2026-01-13 08:02:37.82	358.73	11.11	-48.1	-50.6	6.1	0.00e+00	0	30	104	42513465344	60	41651
2026-01-13 08:02:38.83	358.57	11.03	-48.1	-50.6	6.1	0.00e+00	0	30	104	42513465344	60	41431
2026-01-13 08:02:39.84	358.40	10.94	-48.2	-50.7	6.1	0.00e+00	0	30	104	42513465344	60	41858
2026-01-13 08:02:40.85	358.24	10.85	-48.1	-50.6	6.1	0.00e+00	0	30	104	42513465344	60	41537
2026-01-13 08:02:41.86	358.08	10.76	-48.1	-50.6	6.1	0.00e+00	0	30	104	42513465344	60	41607
2026-01-13 08:02:42.87	357.92	10.68	-48.2	-50.7	6.1	0.00e+00	0	30	104	42513465344	60	41982
2026-01-13 08:02:43.88	357.76	10.59	-48.2	-50.7	6.1	0.00e+00	0	30	104	42513465344	60	41871
2026-01-13 08:02:44.89	357.60	10.50	-48.2	-50.6	6.1	0.00e+00	0	30	104	42513465344	60	41428
2026-01-13 08:02:45.90	357.45	10.42	-48.1	-50.6	6.1	0.00e+00	0	30	104	42513465344	60	41420
2026-01-13 08:02:46.91	357.29	10.33	-48.1	-50.5	6.1	0.00e+00	0	30	104	42513465344	60	41053
2026-01-13 08:02:47.92	357.14	10.25	-48.1	-50.6	6.1	0.00e+00	0	30	104	42513465344	60	41679
2026-01-13 08:02:48.93	356.98	10.16	-48.1	-50.5	6.1	0.00e+00	0	30	104	42513465344	60	41199
2026-01-13 08:02:49.94	356.83	10.07	-48.1	-50.5	6.1	0.00e+00	0	30	104	42513465344	60	41118
2026-01-13 08:02:50.95	356.68	9.99	-48.1	-50.6	6.1	0.00e+00	0	30	104	42513465344	60	41512
2026-01-13 08:02:51.96	356.53	9.90	-48.2	-50.6	6.1	0.00e+00	0	30	104	42513465344	60	41521
2026-01-13 08:02:52.97	356.38	9.82	-48.0	-50.5	6.1	0.00e+00	0	30	104	42513465344	60	41024
2026-01-13 08:02:53.98	356.23	9.73	-48.1	-50.5	6.1	0.00e+00	0	30	104	42513465344	60	41252
2026-01-13 08:02:54.99	356.09	9.65	-48.1	-50.5	6.1	0.00e+00	0	30	104	42513465344	60	41220
2026-01-13 08:02:55.99	355.94	9.57	-48.1	-50.7	6.1	0.00e+00	0	30	104	42513465344	60	41749
2026-01-13 08:02:57.00	355.80	9.48	-48.0	-50.5	6.1	0.00e+00	0	30	104	42513465344	60	40849
2026-01-13 08:02:58.01	355.65	9.40	-48.1	-50.6	6.1	0.00e+00	0	30	104	42513465344	60	41359
2026-01-13 08:02:59.02	355.51	9.31	-48.1	-50.6	6.1	0.00e+00	0	30	104	42513465344	60	41552
2026-01-13 08:03:00.03	355.37	9.23	-48.0	-50.5	6.1	0.00e+00	0	30	104	42513465344	60	41039
2026-01-13 08:03:01.04	355.23	9.15	-48.0	-50.5	6.1	0.00e+00	0	30	104	42513465344	60	40854
2026-01-13 08:03:02.05	355.09	9.07	-48.0	-50.5	6.1	0.00e+00	0	30	104	42513465344	60	40871
2026-01-13 08:03:03.06	354.95	8.98	-48.1	-50.6	6.1	0.00e+00	0	30	104	42513465344	60	41498
2026-01-13 08:03:04.07	354.81	8.90	-48.1	-50.6	6.1	0.00e+00	0	30	104	42513465344	60	41534
2026-01-13 08:03:05.08	354.68	8.82	-47.8	-50.3	6.1	0.00e+00	0	30	104	42513465344	60	39958
2026-01-13 08:03:06.09	354.54	8.74	-48.0	-50.4	6.1	0.00e+00	0	30	104	42513465344	60	40784
2026-01-13 08:03:07.10	354.40	8.65	-48.0	-50.5	6.1	0.00e+00	0	30	104	42513465344	60	41008
2026-01-13 08:03:08.11	354.27	8.57	-48.1	-50.5	6.1	0.00e+00	0	30	104	42513465344	60	41189
2026-01-13 08:03:09.12	354.14	8.49	-47.9	-50.4	6.1	0.00e+00	0	30	104	42513465344	60	40405
2026-01-13 08:03:10.13	354.01	8.41	-48.0	-50.5	6.1	0.00e+00	0	30	104	42513465344	60	41025
2026-01-13 08:03:11.14	353.88	8.33	-48.0	-50.5	6.1	0.00e+00	0	30	104	42513465344	60	41234
2026-01-13 08:03:12.14	353.75	8.25	-48.1	-50.5	6.1	0.00e+00	0	30	104	42513465344	60	41058
2026-01-13 08:03:13.15	353.62	8.17	-47.9	-50.4	6.1	0.00e+00	0	30	104	42513465344	60	40401
2026-01-13 08:03:14.16	353.49	8.09	-48.0	-50.5	6.1	0.00e+00	0	30	104	42513465344	60	40992
2026-01-13 08:03:15.17	353.36	8.01	-48.1	-50.6	6.1	0.00e+00	0	30	104	42513465344	60	41570
2026-01-13 08:03:16.18	353.24	7.93	-48.1	-50.5	6.1	0.00e+00	0	30	104	42513465344	60	41207
2026-01-13 08:03:17.18	353.11	7.85	-47.9	-50.3	6.1	0.00e+00	0	30	104	42513465344	60	40229
2026-01-13 08:03:18.19	352.99	7.77	-48.0	-50.4	6.1	0.00e+00	0	30	104	42513465344	60	40557
2026-01-13 08:03:19.20	352.86	7.69	-48.1	-50.6	6.1	0.00e+00	0	30	104	42513465344	60	41319
2026-01-13 08:03:20.21	352.74	7.61	-48.0	-50.4	6.1	0.00e+00	0	30	104	42513465344	60	40760
2026-01-13 08:03:21.22	352.62	7.54	-47.8	-50.2	6.1	0.00e+00	0	30	104	42513465344	60	39855
2026-01-13 08:03:22.23	352.50	7.46	-47.9	-50.4	6.1	0.00e+00	0	30	104	42513465344	60	40690
2026-01-13 08:03:23.24	352.38	7.38	-48.0	-50.5	6.1	0.00e+00	0	30	104	42513465344	60	41044
2026-01-13 08:03:24.25	352.26	7.30	-48.0	-50.4	6.1	0.00e+00	0	30	104	42513465344	60	40652
2026-01-13 08:03:25.26	352.14	7.22	-47.8	-50.3	6.1	0.00e+00	0	30	104	42513465344	60	40056
2026-01-13 08:03:26.27	352.02	7.15	-47.9	-50.3	6.1	0.00e+00	0	30	104	42513465344	60	40289
2026-01-13 08:03:27.28	351.90	7.07	-48.0	-50.5	6.1	0.00e+00	0	30	104	42513465344	60	40894
2026-01-13 08:03:28.29	351.78	6.99	-47.9	-50.4	6.1	0.00e+00	0	30	104	42513465344	60	40544
2026-01-13 08:03:29.29	351.67	6.91	-47.7	-50.1	6.1	0.00e+00	0	30	104	42513465344	60	39368
2026-01-13 08:03:30.30	351.56	6.84	-47.8	-50.3	6.1	0.00e+00	0	30	104	42513465344	60	39935
2026-01-13 08:03:31.31	351.44	6.76	-47.9	-50.4	6.1	0.00e+00	0	30	104	42513465344	60	40602
2026-01-13 08:03:32.32	351.33	6.68	-47.8	-50.3	6.1	0.00e+00	0	30	104	42513465344	60	40278
2026-01-13 08:03:33.33	351.22	6.61	-47.8	-50.3	6.1	0.00e+00	0	30	104	42513465344	60	39891
2026-01-13 08:03:34.34	351.10	6.53	-47.8	-50.3	6.1	0.00e+00	0	30	104	42513465344	60	39999
2026-01-13 08:03:35.35	350.99	6.46	-47.8	-50.4	6.1	0.00e+00	0	29	104	42513465344	60	40532
2026-01-13 08:03:36.36	350.88	6.38	-47.9	-50.3	6.1	0.00e+00	0	30	104	42513465344	60	40165
2026-01-13 08:03:37.37	350.77	6.31	-47.7	-50.2	6.1	0.00e+00	0	30	104	42513465344	60	39508
2026-01-13 08:03:38.38	350.66	6.23	-47.8	-50.2	6.1	0.00e+00	0	29	104	42513465344	60	39816
2026-01-13 08:03:39.39	350.56	6.16	-47.9	-50.4	6.1	0.00e+00	0	29	104	42513465344	60	40355
2026-01-13 08:03:40.40	350.45	6.08	-47.8	-50.3	6.1	0.00e+00	0	30	104	42513465344	60	40221
2026-01-13 08:03:41.41	350.34	6.01	-47.6	-50.1	6.1	0.00e+00	0	30	104	42513465344	60	39115
2026-01-13 08:03:42.42	350.24	5.93	-47.8	-50.3	6.1	0.00e+00	0	30	104	42513465344	60	40012
2026-01-13 08:03:43.43	350.13	5.86	-47.8	-50.3	6.1	0.00e+00	0	30	104	42513465344	60	40175
2026-01-13 08:03:44.44	350.03	5.78	-47.8	-50.3	6.1	0.00e+00	0	29	104	42513465344	60	40214
2026-01-13 08:03:45.45	349.92	5.71	-47.6	-50.1	6.1	0.00e+00	0	30	104	42513465344	60	39402
2026-01-13 08:03:46.46	349.82	5.64	-47.7	-50.1	6.1	0.00e+00	0	30	104	42513465344	60	39405
2026-01-13 08:03:47.46	349.72	5.57	-47.8	-50.3	6.1	0.00e+00	0	30	104	42513465344	60	39954
2026-01-13 08:03:48.47	349.61	5.49	-47.8	-50.2	6.1	0.00e+00	0	30	104	42513465344	60	39755
2026-01-13 08:03:49.48	349.51	5.42	-47.7	-50.1	6.1	0.00e+00	0	30	104	42513465344	60	39389
2026-01-13 08:03:50.49	349.41	5.35	-47.7	-50.2	6.1	0.00e+00	0	29	104	42513465344	60	39648
2026-01-13 08:03:51.50	349.31	5.27	-47.8	-50.3	6.1	0.00e+00	0	30	104	42513465344	60	40089
2026-01-13 08:03:52.51	349.21	5.20	-47.8	-50.3	6.1	0.00e+00	0	30	104	42513465344	60	40077
2026-01-13 08:03:53.52	349.12	5.13	-47.4	-49.9	6.1	0.00e+00	0	30	104	42513465344	60	38239
2026-01-13 08:03:54.53	349.02	5.06	-47.7	-50.2	6.1	0.00e+00	0	29	104	42513465344	60	39534
2026-01-13 08:03:55.54	348.92	4.99	-47.8	-50.2	6.1	0.00e+00	0	29	104	42513465344	60	39770
2026-01-13 08:03:56.55	348.82	4.91	-47.5	-50.0	6.1	0.00e+00	0	30	104	42513465344	60	38805
2026-01-13 08:03:57.56	348.73	4.84	-47.3	-49.8	6.1	0.00e+00	0	30	104	42513465344	60	37958
2026-01-13 08:03:58.57	348.63	4.77	-47.5	-50.0	6.1	0.00e+00	0	30	104	42513465344	60	38782
2026-01-13 08:03:59.58	348.54	4.70	-47.5	-50.0	6.1	0.00e+00	0	29	104	42513465344	60	38618
2026-01-13 08:04:00.58	348.44	4.63	-47.3	-49.8	6.1	0.00e+00	0	29	104	42513465344	60	37785
2026-01-13 08:04:01.59	348.35	4.56	-46.8	-49.2	6.1	0.00e+00	0	30	104	42513465344	60	35502
2026-01-13 08:04:02.60	348.26	4.49	-47.3	-49.8	6.1	0.00e+00	0	29	104	42513465344	60	37689
2026-01-13 08:04:03.61	348.16	4.42	-47.0	-49.5	6.1	0.00e+00	0	29	104	42513465344	60	36474
2026-01-13 08:04:04.62	348.07	4.35	-45.8	-48.3	6.1	0.00e+00	0	30	104	42513465344	60	31821
2026-01-13 08:04:05.63	347.98	4.28	-45.5	-48.0	6.1	0.00e+00	0	29	104	42513465344	60	30859
2026-01-13 08:04:06.64	347.89	4.21	-45.2	-47.7	6.1	0.00e+00	0	29	104	42513465344	60	29725
2026-01-13 08:04:07.65	347.80	4.14	-44.9	-47.3	6.1	0.00e+00	0	30	104	42513465344	60	28523
2026-01-13 08:04:08.66	347.71	4.07	-44.7	-47.2	6.1	0.00e+00	0	29	104	42513465344	60	28150
2026-01-13 08:04:09.66	347.62	4.00	-44.6	-47.0	6.1	0.00e+00	0	30	104	42513465344	60	27412
2026-01-13 08:04:10.67	347.53	3.93	-44.9	-47.4	6.1	0.00e+00	0	30	104	42513465344	60	28553
2026-01-13 08:04:11.68	347.44	3.86	-45.5	-48.0	6.1	0.00e+00	0	30	104	42513465344	60	30716
2026-01-13 08:04:12.69	347.36	3.80	-44.6	-47.1	6.1	0.00e+00	0	30	104	42513465344	60	27795
2026-01-13 08:04:13.70	347.27	3.73	-45.2	-47.7	6.1	0.00e+00	0	29	104	42513465344	60	29889
2026-01-13 08:04:14.71	347.18	3.66	-44.5	-47.0	6.1	0.00e+00	0	30	104	42513465344	60	27376
2026-01-13 08:04:15.72	347.10	3.59	-44.2	-46.6	6.1	0.00e+00	0	30	104	42513465344	60	26246
2026-01-13 08:04:16.73	347.01	3.52	-44.1	-46.6	6.1	0.00e+00	0	30	104	42513465344	60	26186
2026-01-13 08:04:17.74	346.93	3.46	-44.0	-46.5	6.1	0.00e+00	0	30	104	42513465344	60	25843
2026-01-13 08:04:18.75	346.84	3.39	-43.8	-46.3	6.1	0.00e+00	0	30	104	42513465344	60	25255
2026-01-13 08:04:19.75	346.76	3.32	-43.9	-46.3	6.1	0.00e+00	0	29	104	42513465344	60	25395
2026-01-13 08:04:20.76	346.68	3.25	-44.3	-46.8	6.1	0.00e+00	0	29	104	42513465344	60	26840
2026-01-13 08:04:21.77	346.59	3.19	-44.3	-46.7	6.1	0.00e+00	0	29	104	42513465344	60	26468
2026-01-13 08:04:22.78	346.51	3.12	-43.9	-46.3	6.1	0.00e+00	0	29	104	42513465344	60	25303
2026-01-13 08:04:23.79	346.43	3.05	-43.9	-46.3	6.1	0.00e+00	0	30	104	42513465344	60	25393
2026-01-13 08:04:24.80	346.35	2.99	-44.4	-46.9	6.1	0.00e+00	0	30	104	42513465344	60	27093
2026-01-13 08:04:25.81	346.27	2.92	-47.9	-50.4	6.1	0.00e+00	0	29	104	42513465344	60	40582
2026-01-13 08:04:26.82	346.19	2.85	-48.1	-50.7	6.1	0.00e+00	0	30	104	42513465344	60	41932
2026-01-13 08:04:27.83	346.11	2.79	-48.5	-51.0	6.1	0.00e+00	0	29	104	42513465344	60	43294
2026-01-13 08:04:28.84	346.03	2.72	-48.6	-51.1	6.1	0.00e+00	0	29	104	42513465344	60	44191
2026-01-13 08:04:29.85	345.95	2.66	-48.7	-51.2	6.1	0.00e+00	0	30	104	42513465344	60	44495
2026-01-13 08:04:30.86	345.87	2.59	-48.6	-51.1	6.1	0.00e+00	0	29	104	42513465344	60	43823
2026-01-13 08:04:31.87	345.79	2.52	-48.8	-51.3	6.1	0.00e+00	0	30	104	42513465344	60	44891
2026-01-13 08:04:32.88	345.72	2.46	-48.8	-51.3	6.1	0.00e+00	0	30	104	42513465344	60	44876
2026-01-13 08:04:33.89	345.64	2.39	-48.9	-51.4	6.1	0.00e+00	0	30	104	42513465344	60	45529
2026-01-13 08:04:34.90	345.56	2.33	-48.6	-51.1	6.1	0.00e+00	0	30	104	42513465344	60	44006
2026-01-13 08:04:35.91	345.49	2.26	-48.7	-51.2	6.1	0.00e+00	0	30	104	42513465344	60	44555
2026-01-13 08:04:36.92	345.41	2.20	-48.5	-51.0	6.1	0.00e+00	0	30	104	42513465344	60	43665
2026-01-13 08:04:37.93	345.33	2.13	-48.7	-51.2	6.1	0.00e+00	0	30	104	42513465344	60	44383
2026-01-13 08:04:38.94	345.26	2.07	-48.8	-51.3	6.1	0.00e+00	0	30	104	42513465344	60	44951
2026-01-13 08:04:39.94	345.19	2.01	-48.8	-51.2	6.1	0.00e+00	0	30	104	42513465344	60	44657
2026-01-13 08:04:40.95	345.11	1.94	-48.8	-51.2	6.1	0.00e+00	0	30	104	42513465344	60	44635
2026-01-13 08:04:41.96	345.04	1.88	-48.7	-51.2	6.1	0.00e+00	0	30	104	42513465344	60	44455
2026-01-13 08:04:42.97	344.97	1.81	-48.7	-51.2	6.1	0.00e+00	0	30	104	42513465344	60	44548
2026-01-13 08:04:43.98	344.89	1.75	-48.7	-51.2	6.0	0.00e+00	0	30	104	42513465344	60	44458
2026-01-13 08:04:44.99	344.82	1.69	-48.7	-51.2	6.1	0.00e+00	0	30	104	42513465344	60	44411
2026-01-13 08:04:46.00	344.75	1.62	-48.8	-51.2	6.1	0.00e+00	0	30	104	42513465344	60	44510
2026-01-13 08:04:47.01	344.68	1.56	-48.7	-51.2	6.1	0.00e+00	0	30	104	42513465344	60	44366
2026-01-13 08:04:48.02	344.61	1.50	-48.7	-51.2	6.1	0.00e+00	0	30	104	42513465344	60	44352
2026-01-13 08:04:49.03	344.54	1.43	-48.7	-51.2	6.1	0.00e+00	0	30	104	42513465344	60	44456
2026-01-13 08:04:50.04	344.47	1.37	-48.7	-51.2	6.1	0.00e+00	0	30	104	42513465344	60	44476
2026-01-13 08:04:51.05	344.40	1.31	-48.7	-51.2	6.1	0.00e+00	0	30	104	42513465344	60	44281
2026-01-13 08:04:52.06	344.33	1.25	-48.7	-51.2	6.1	0.00e+00	0	30	104	42513465344	60	44506
2026-01-13 08:04:53.07	344.26	1.18	-48.7	-51.2	6.0	0.00e+00	0	30	104	42513465344	60	44246
2026-01-13 08:04:54.08	344.19	1.12	-48.7	-51.3	6.1	0.00e+00	0	29	104	42513465344	60	44779
2026-01-13 08:04:55.09	344.12	1.06	-48.7	-51.2	6.1	0.00e+00	0	30	104	42513465344	60	44445
2026-01-13 08:04:56.10	344.05	1.00	-48.7	-51.2	6.1	0.00e+00	0	30	104	42513465344	60	44608
2026-01-13 08:04:57.11	343.99	0.94	-48.7	-51.2	6.1	0.00e+00	0	30	104	42513465344	60	44395
2026-01-13 08:04:58.12	343.92	0.87	-48.7	-51.1	6.1	0.00e+00	0	30	104	42513465344	60	44170
2026-01-13 08:04:59.13	343.85	0.81	-48.7	-51.2	6.1	0.00e+00	0	30	104	42513465344	60	44349
2026-01-13 08:05:00.14	343.78	0.75	-48.7	-51.2	6.1	0.00e+00	0	30	104	42513465344	60	44388
2026-01-13 08:05:01.15	343.72	0.69	-48.7	-51.1	6.1	0.00e+00	0	30	104	42513465344	60	44108
2026-01-13 08:05:02.16	343.65	0.63	-48.7	-51.1	6.1	0.00e+00	0	30	104	42513465344	60	44174
2026-01-13 08:05:03.17	343.59	0.57	-48.7	-51.2	6.1	0.00e+00	0	30	104	42513465344	60	44376
2026-01-13 08:05:04.18	343.52	0.51	-48.7	-51.2	6.1	0.00e+00	0	30	104	42513465344	60	44448
2026-01-13 08:05:05.19	343.46	0.45	-48.7	-51.2	6.1	0.00e+00	0	30	104	42513465344	60	44479
2026-01-13 08:05:06.20	343.39	0.39	-48.7	-51.1	6.1	0.00e+00	0	30	104	42513465344	60	44081
2026-01-13 08:05:07.21	343.33	0.33	-48.7	-51.1	6.1	0.00e+00	0	29	104	42513465344	60	44198
2026-01-13 08:05:08.22	343.27	0.26	-48.7	-51.2	6.0	0.00e+00	0	30	104	42513465344	60	44585
2026-01-13 08:05:09.23	343.20	0.20	-48.7	-51.1	6.1	0.00e+00	0	30	104	42513465344	60	44194
2026-01-13 08:05:10.24	343.14	0.14	-48.7	-51.2	6.1	0.00e+00	0	29	104	42513465344	60	44478
2026-01-13 08:05:11.25	343.08	0.08	-48.7	-51.1	6.1	0.00e+00	0	30	104	42513465344	60	44161
2026-01-13 08:05:12.25	343.02	0.03	-48.7	-51.2	6.1	0.00e+00	0	30	104	42513465344	60	44429
2026-01-13 08:05:13.27	342.95	-0.04	-48.7	-51.2	6.1	0.00e+00	0	30	104	42513465344	60	44569

#Closed at: 2026-01-13 08:05:14
#Recorded file [42513 MB]: D:/lorett/data/35029_260113_195459.dat