passes_logs/2026/01/13/R4.6S_Anadyr/R4.6S_Anadyr__20260113_032019_SUOMI_NPP_rec.log

#Pass ID: 20260113_032019_SUOMI NPP
#Satellite: SUOMI NPP
#Configuration: NPP
#almurnet v.1.7.20251203
#Start time: 2026-01-13 03:20:20

#Version: 2.2.20231116
#Station: R4.6S_Anadyr
#Location: 177.4865 lon 64.73178 lat
#TLE: 1 37849U 11061A   26012.28456845  .00000093  00000+0  65163-4 0  9999
#TLE: 2 37849  98.7807 314.3566 0002508  68.3553 291.7890 14.19524725736322

#Time	Az	El	Level	Level2	SNR	BER	BlckErr	Temp	State	Recorded	gain1	gain2
2026-01-13 03:20:20.95	238.58	0.07	-48.6	-60.3	3.5	8.46e-01	0	25	0	0	60	37205
2026-01-13 03:20:21.95	238.67	0.11	-48.8	-64.0	3.6	1.51e+00	0	26	104	0	60	57261
2026-01-13 03:20:22.96	238.76	0.15	-48.9	-64.1	3.6	1.51e+00	0	26	104	0	60	57724
2026-01-13 03:20:23.97	238.86	0.20	-48.8	-64.1	3.6	1.51e+00	0	26	104	0	60	58064
2026-01-13 03:20:24.98	238.95	0.24	-48.9	-64.1	3.6	1.51e+00	0	26	104	0	60	57941
2026-01-13 03:20:25.99	239.04	0.28	-48.7	-64.0	3.6	1.51e+00	0	26	104	0	60	57572
2026-01-13 03:20:27.00	239.14	0.32	-48.9	-64.1	3.6	1.51e+00	0	26	104	0	60	57933
2026-01-13 03:20:28.01	239.23	0.37	-48.9	-64.2	3.6	1.51e+00	0	26	104	0	60	58311
2026-01-13 03:20:29.02	239.33	0.41	-48.8	-64.2	3.6	1.51e+00	0	26	104	0	60	58314
2026-01-13 03:20:30.03	239.42	0.45	-48.7	-64.3	3.6	1.51e+00	0	26	104	0	60	58972
2026-01-13 03:20:31.04	239.52	0.50	-49.0	-64.2	3.6	1.51e+00	0	26	104	0	60	58861
2026-01-13 03:20:32.05	239.61	0.54	-49.1	-64.4	3.6	1.51e+00	0	26	104	0	60	59693
2026-01-13 03:20:33.06	239.71	0.58	-49.0	-64.3	3.6	1.51e+00	0	26	104	0	60	59118
2026-01-13 03:20:34.07	239.80	0.62	-49.0	-64.2	3.6	1.51e+00	0	26	104	0	60	58630
2026-01-13 03:20:35.08	239.90	0.67	-48.9	-64.1	3.6	1.51e+00	0	26	104	0	60	58141
2026-01-13 03:20:36.09	240.00	0.71	-48.8	-64.0	3.6	1.51e+00	0	26	104	0	60	57237
2026-01-13 03:20:37.10	240.09	0.75	-48.5	-63.7	3.6	1.51e+00	0	26	104	0	60	55050
2026-01-13 03:20:38.11	240.19	0.79	-47.9	-63.0	3.6	1.51e+00	0	26	104	0	60	51007
2026-01-13 03:20:39.12	240.29	0.84	-47.2	-62.3	3.6	1.51e+00	0	26	104	0	60	47101
2026-01-13 03:20:40.13	240.39	0.88	-47.1	-62.3	3.6	1.51e+00	0	26	104	0	60	46894
2026-01-13 03:20:41.14	240.48	0.92	-47.1	-62.3	3.6	1.51e+00	0	26	104	0	60	47266
2026-01-13 03:20:42.15	240.58	0.96	-47.1	-62.2	3.6	1.51e+00	0	26	104	0	60	46633
2026-01-13 03:20:43.16	240.68	1.01	-47.1	-62.2	3.6	1.51e+00	0	26	104	0	60	46735
2026-01-13 03:20:44.17	240.78	1.05	-47.1	-62.3	3.6	1.51e+00	0	26	104	0	60	46983
2026-01-13 03:20:45.17	240.88	1.09	-47.1	-62.2	3.6	1.51e+00	0	26	104	0	60	46668
2026-01-13 03:20:46.18	240.98	1.13	-47.1	-62.2	3.6	1.51e+00	0	26	104	0	60	46511
2026-01-13 03:20:47.20	241.08	1.18	-47.1	-62.2	3.6	1.51e+00	0	26	104	0	60	46768
2026-01-13 03:20:48.20	241.18	1.22	-47.1	-62.2	3.6	1.51e+00	0	26	104	0	60	46635
2026-01-13 03:20:49.21	241.28	1.26	-47.1	-62.3	3.6	1.51e+00	0	26	104	0	60	46942
2026-01-13 03:20:50.22	241.38	1.30	-47.1	-62.2	3.6	1.51e+00	0	26	104	0	60	46647
2026-01-13 03:20:51.23	241.48	1.35	-47.1	-62.2	3.6	1.51e+00	0	26	104	0	60	46534
2026-01-13 03:20:52.24	241.58	1.39	-47.1	-62.2	3.6	1.51e+00	0	26	104	0	60	46729
2026-01-13 03:20:53.25	241.68	1.43	-47.1	-62.3	3.6	1.51e+00	0	26	104	0	60	46850
2026-01-13 03:20:54.26	241.78	1.47	-47.1	-62.2	3.6	1.51e+00	0	26	104	0	60	46651
2026-01-13 03:20:55.27	241.88	1.52	-47.1	-62.1	3.6	1.51e+00	0	26	104	0	60	46262
2026-01-13 03:20:56.28	241.98	1.56	-47.1	-62.2	3.6	1.51e+00	0	26	104	0	60	46598
2026-01-13 03:20:57.29	242.09	1.60	-47.1	-62.1	3.6	1.51e+00	0	26	104	0	60	46234
2026-01-13 03:20:58.29	242.19	1.64	-47.1	-62.2	3.6	1.51e+00	0	26	104	0	60	46299
2026-01-13 03:20:59.30	242.29	1.69	-47.1	-62.2	3.6	1.51e+00	0	26	104	0	60	46627
2026-01-13 03:21:00.31	242.39	1.73	-47.1	-62.2	3.6	1.51e+00	0	26	104	0	60	46472
2026-01-13 03:21:01.32	242.50	1.77	-47.0	-62.2	3.6	1.51e+00	0	26	104	0	60	46380
2026-01-13 03:21:02.33	242.60	1.81	-47.1	-62.2	3.6	1.51e+00	0	26	104	0	60	46395
2026-01-13 03:21:03.34	242.70	1.85	-47.1	-62.1	3.6	1.51e+00	0	26	104	0	60	45891
2026-01-13 03:21:04.35	242.81	1.90	-47.1	-62.2	3.6	1.51e+00	0	26	104	0	60	46424
2026-01-13 03:21:05.36	242.91	1.94	-47.0	-62.1	3.6	1.51e+00	0	26	104	0	60	46298
2026-01-13 03:21:06.37	243.02	1.98	-47.1	-62.1	3.6	1.51e+00	0	26	104	0	60	45905
2026-01-13 03:21:07.38	243.12	2.02	-47.0	-62.1	3.6	1.51e+00	0	26	104	0	60	45797
2026-01-13 03:21:08.39	243.23	2.07	-47.0	-62.0	3.6	1.51e+00	0	26	104	0	60	45356
2026-01-13 03:21:09.40	243.33	2.11	-47.0	-61.8	3.6	1.51e+00	0	26	104	0	60	44493
2026-01-13 03:21:10.41	243.44	2.15	-47.0	-61.9	3.6	1.51e+00	0	26	104	0	60	44734
2026-01-13 03:21:11.42	243.54	2.19	-47.0	-61.8	3.6	1.51e+00	0	26	104	0	60	44376
2026-01-13 03:21:12.43	243.65	2.24	-47.0	-61.8	3.6	1.51e+00	0	26	104	0	60	44286
2026-01-13 03:21:13.43	243.76	2.28	-47.0	-61.7	3.6	1.51e+00	0	26	104	0	60	43848
2026-01-13 03:21:14.44	243.86	2.32	-47.0	-61.3	3.6	1.51e+00	0	26	104	0	60	41783
2026-01-13 03:21:15.45	243.97	2.36	-47.0	-60.8	3.6	1.51e+00	0	26	104	0	60	39729
2026-01-13 03:21:16.46	244.08	2.40	-47.0	-60.7	3.6	1.51e+00	0	26	104	0	60	39290
2026-01-13 03:21:17.47	244.19	2.45	-47.0	-60.6	3.6	1.51e+00	0	26	104	0	60	38834
2026-01-13 03:21:18.48	244.29	2.49	-47.0	-60.2	3.6	1.51e+00	0	26	104	0	60	36862
2026-01-13 03:21:19.49	244.40	2.53	-47.0	-61.0	3.6	1.51e+00	0	26	104	0	60	40721
2026-01-13 03:21:20.50	244.51	2.57	-47.0	-61.3	3.6	1.51e+00	0	26	104	0	60	41863
2026-01-13 03:21:21.51	244.62	2.62	-47.0	-61.2	3.6	1.51e+00	0	26	104	0	60	41314
2026-01-13 03:21:22.52	244.73	2.66	-46.9	-60.1	3.6	1.51e+00	0	26	104	0	60	36356
2026-01-13 03:21:23.53	244.84	2.70	-46.8	-57.4	4.1	1.42e+00	21	26	0	0	60	26825
2026-01-13 03:21:24.54	244.95	2.74	-46.7	-55.3	4.9	8.16e-01	92	26	0	1048576	60	20976
2026-01-13 03:21:25.55	245.06	2.78	-46.3	-53.3	6.8	2.71e-01	35	27	0	3145728	60	16778
2026-01-13 03:21:26.55	245.17	2.83	-46.0	-52.2	8.1	6.81e-02	91	26	0	5242880	60	14776
2026-01-13 03:21:27.56	245.28	2.87	-46.0	-52.0	8.5	3.02e-02	90	27	0	7340032	60	14359
2026-01-13 03:21:28.57	245.39	2.91	-45.6	-50.9	9.8	3.48e-02	0	27	0	9437184	60	12742
2026-01-13 03:21:29.58	245.50	2.95	-45.7	-51.2	9.3	1.64e-02	92	27	0	10485760	60	13159
2026-01-13 03:21:30.59	245.62	2.99	-45.8	-51.6	9.1	2.14e-02	0	27	0	12582912	60	13713
2026-01-13 03:21:31.60	245.73	3.04	-43.3	-45.8	15.0	2.72e-02	92	27	0	14680064	60	7056
2026-01-13 03:21:32.61	245.84	3.08	-44.2	-47.4	6.6	3.80e-02	92	27	0	16777216	60	8496
2026-01-13 03:21:33.62	245.95	3.12	-46.2	-53.3	5.8	1.51e+00	0	27	104	16777216	60	16675
2026-01-13 03:21:34.63	246.07	3.16	-44.1	-47.3	14.1	3.31e-01	91	27	104	16777216	60	8414
2026-01-13 03:21:35.64	246.18	3.20	-43.1	-45.6	15.0	7.00e-07	0	27	0	17825792	60	6909
2026-01-13 03:21:36.65	246.29	3.24	-44.3	-47.6	14.3	8.02e-04	90	27	0	19922944	60	8631
2026-01-13 03:21:37.65	246.41	3.29	-43.6	-46.4	14.9	0.00e+00	0	27	0	22020096	60	7557
2026-01-13 03:21:38.66	246.52	3.33	-43.1	-45.6	15.9	0.00e+00	92	27	0	24117248	60	6862
2026-01-13 03:21:39.67	246.63	3.37	-42.9	-45.3	16.2	0.00e+00	45	26	0	25165824	60	6628
2026-01-13 03:21:40.68	246.75	3.41	-43.1	-45.5	16.0	0.00e+00	92	27	0	27262976	60	6818
2026-01-13 03:21:41.69	246.87	3.45	-43.0	-45.3	16.2	0.00e+00	92	27	0	29360128	60	6660
2026-01-13 03:21:42.70	246.98	3.49	-42.3	-44.3	17.1	0.00e+00	24	27	0	31457280	58	6680
2026-01-13 03:21:43.71	247.10	3.54	-42.3	-44.3	17.2	0.00e+00	92	27	0	33554432	58	6645
2026-01-13 03:21:44.72	247.21	3.58	-42.2	-44.1	17.3	0.00e+00	0	26	0	35651584	58	6531
2026-01-13 03:21:45.73	247.33	3.62	-41.7	-43.5	18.0	0.00e+00	92	27	0	36700160	58	6075
2026-01-13 03:21:46.74	247.45	3.66	-41.9	-43.7	17.9	0.00e+00	8	27	0	38797312	56	6973
2026-01-13 03:21:47.75	247.56	3.70	-41.6	-43.3	18.2	0.00e+00	92	27	0	40894464	56	6680
2026-01-13 03:21:48.76	247.68	3.74	-41.5	-43.2	18.4	0.00e+00	92	26	0	42991616	56	6548
2026-01-13 03:21:49.77	247.80	3.78	-41.7	-43.5	18.1	0.00e+00	0	26	0	45088768	56	6815
2026-01-13 03:21:50.77	247.92	3.83	-41.6	-43.3	18.1	0.00e+00	92	27	0	46137344	56	6686
2026-01-13 03:21:51.78	248.03	3.87	-41.4	-43.0	18.5	0.00e+00	0	27	0	48234496	56	6460
2026-01-13 03:21:52.79	248.15	3.91	-41.4	-43.0	18.5	0.00e+00	90	27	0	50331648	56	6431
2026-01-13 03:21:53.80	248.27	3.95	-41.3	-43.0	18.5	0.00e+00	9	27	0	52428800	56	6393
2026-01-13 03:21:54.81	248.39	3.99	-41.2	-42.8	18.9	0.00e+00	92	27	0	54525952	56	6255
2026-01-13 03:21:55.82	248.51	4.03	-41.2	-42.7	18.9	0.00e+00	90	27	0	55574528	56	6242
2026-01-13 03:21:56.83	248.63	4.07	-40.5	-41.9	19.6	0.00e+00	89	27	0	57671680	54	6328
2026-01-13 03:21:57.84	248.75	4.11	-40.7	-42.1	19.4	0.00e+00	90	26	0	59768832	54	6503
2026-01-13 03:21:58.85	248.87	4.15	-40.5	-41.9	19.6	0.00e+00	0	27	0	61865984	54	6363
2026-01-13 03:21:59.86	248.99	4.20	-40.5	-41.9	19.7	0.00e+00	92	27	0	63963136	54	6349
2026-01-13 03:22:00.86	249.11	4.24	-40.5	-42.0	19.5	0.00e+00	0	27	0	65011712	54	6392
2026-01-13 03:22:01.87	249.23	4.28	-40.4	-41.8	19.8	0.00e+00	92	27	0	67108864	54	6301
2026-01-13 03:22:02.88	249.36	4.32	-40.3	-41.6	19.9	0.00e+00	90	27	0	69206016	54	6161
2026-01-13 03:22:03.89	249.48	4.36	-40.6	-42.0	19.6	0.00e+00	92	27	0	71303168	54	6401
2026-01-13 03:22:04.90	249.60	4.40	-40.2	-41.6	19.9	0.00e+00	92	27	0	73400320	54	6121
2026-01-13 03:22:05.91	249.72	4.44	-40.4	-41.7	19.9	0.00e+00	0	27	0	74448896	54	6237
2026-01-13 03:22:06.92	249.85	4.48	-40.2	-41.5	20.1	0.00e+00	92	27	0	76546048	54	6102
2026-01-13 03:22:07.93	249.97	4.52	-40.3	-41.7	19.8	0.00e+00	0	27	0	78643200	54	6214
2026-01-13 03:22:08.93	250.09	4.56	-40.4	-41.8	19.9	0.00e+00	92	27	0	80740352	54	6274
2026-01-13 03:22:09.94	250.22	4.60	-40.5	-41.9	19.8	0.00e+00	92	27	0	82837504	54	6336
2026-01-13 03:22:10.95	250.34	4.64	-40.4	-41.8	20.0	0.00e+00	92	27	0	83886080	54	6254
2026-01-13 03:22:11.96	250.47	4.68	-40.0	-41.3	20.3	0.00e+00	92	27	0	85983232	54	5951
2026-01-13 03:22:12.97	250.59	4.72	-40.0	-41.3	20.3	0.00e+00	0	27	0	88080384	54	5962
2026-01-13 03:22:13.98	250.72	4.76	-39.9	-41.2	20.4	0.00e+00	79	27	0	90177536	54	5846
2026-01-13 03:22:14.99	250.84	4.80	-40.1	-41.3	20.4	0.00e+00	0	27	0	92274688	54	5964
2026-01-13 03:22:16.00	250.97	4.84	-39.8	-41.0	20.5	0.00e+00	92	27	0	93323264	54	5732
2026-01-13 03:22:17.01	251.10	4.89	-39.7	-41.0	20.6	0.00e+00	0	27	0	95420416	54	5698
2026-01-13 03:22:18.02	251.22	4.93	-39.9	-41.2	20.5	0.00e+00	69	27	0	97517568	52	6544
2026-01-13 03:22:19.03	251.35	4.97	-39.7	-41.0	20.6	0.00e+00	90	27	0	99614720	52	6392
2026-01-13 03:22:20.04	251.48	5.01	-40.0	-41.3	20.4	0.00e+00	0	27	0	101711872	52	6620
2026-01-13 03:22:21.04	251.60	5.04	-40.0	-41.3	20.3	0.00e+00	75	27	0	102760448	52	6655
2026-01-13 03:22:22.05	251.73	5.08	-40.3	-41.6	20.1	0.00e+00	0	27	0	104857600	52	6886
2026-01-13 03:22:23.06	251.86	5.12	-40.2	-41.5	20.3	0.00e+00	92	27	0	106954752	52	6787
2026-01-13 03:22:24.07	251.99	5.16	-40.1	-41.5	20.2	0.00e+00	0	27	0	109051904	52	6771
2026-01-13 03:22:25.08	252.12	5.20	-40.2	-41.5	20.2	0.00e+00	90	27	0	111149056	52	6833
2026-01-13 03:22:26.09	252.25	5.24	-40.3	-41.6	20.0	0.00e+00	92	27	0	112197632	52	6922
2026-01-13 03:22:27.10	252.38	5.28	-40.5	-41.9	19.7	0.00e+00	0	27	0	114294784	52	7128
2026-01-13 03:22:28.11	252.51	5.32	-40.6	-42.0	19.7	0.00e+00	92	27	0	116391936	52	7249
2026-01-13 03:22:29.12	252.64	5.36	-40.7	-42.1	19.7	0.00e+00	0	27	0	118489088	52	7277
2026-01-13 03:22:30.13	252.77	5.40	-40.3	-41.6	20.2	0.00e+00	86	27	0	120586240	52	6852
2026-01-13 03:22:31.14	252.90	5.44	-40.1	-41.4	20.4	0.00e+00	0	27	0	121634816	52	6724
2026-01-13 03:22:32.15	253.03	5.48	-39.9	-41.2	20.5	0.00e+00	92	27	0	123731968	52	6567
2026-01-13 03:22:33.16	253.17	5.52	-39.9	-41.2	20.5	0.00e+00	37	27	0	125829120	52	6557
2026-01-13 03:22:34.17	253.30	5.56	-39.9	-41.1	20.5	0.00e+00	0	27	0	127926272	52	6504
2026-01-13 03:22:35.17	253.43	5.60	-39.8	-41.1	20.6	0.00e+00	42	27	0	130023424	52	6468
2026-01-13 03:22:36.18	253.56	5.64	-40.0	-41.2	20.5	0.00e+00	0	27	0	132120576	52	6599
2026-01-13 03:22:37.19	253.70	5.68	-40.1	-41.4	20.4	0.00e+00	92	27	0	133169152	52	6711
2026-01-13 03:22:38.20	253.83	5.71	-40.1	-41.4	20.4	0.00e+00	23	27	0	135266304	52	6713
2026-01-13 03:22:39.21	253.96	5.75	-40.1	-41.3	20.4	0.00e+00	92	27	0	137363456	52	6685
2026-01-13 03:22:40.22	254.10	5.79	-40.1	-41.3	20.4	0.00e+00	92	27	0	139460608	52	6669
2026-01-13 03:22:41.23	254.23	5.83	-40.2	-41.4	20.4	0.00e+00	0	27	0	141557760	52	6765
2026-01-13 03:22:42.24	254.37	5.87	-40.2	-41.4	20.4	0.00e+00	92	27	0	142606336	52	6758
2026-01-13 03:22:43.25	254.50	5.91	-40.2	-41.5	20.3	0.00e+00	0	27	0	144703488	52	6800
2026-01-13 03:22:44.26	254.64	5.95	-40.3	-41.6	20.2	0.00e+00	85	27	0	146800640	52	6884
2026-01-13 03:22:45.27	254.77	5.98	-40.0	-41.3	20.5	0.00e+00	8	27	0	148897792	52	6635
2026-01-13 03:22:46.28	254.91	6.02	-39.8	-41.0	20.7	0.00e+00	92	27	0	150994944	52	6457
2026-01-13 03:22:47.29	255.05	6.06	-39.8	-41.0	20.7	0.00e+00	47	27	0	152043520	52	6460
2026-01-13 03:22:48.30	255.18	6.10	-39.8	-41.0	20.7	0.00e+00	0	27	0	154140672	52	6437
2026-01-13 03:22:49.31	255.32	6.14	-39.8	-41.0	20.7	0.00e+00	92	27	0	156237824	52	6455
2026-01-13 03:22:50.32	255.46	6.18	-39.8	-41.1	20.7	0.00e+00	29	27	0	158334976	52	6475
2026-01-13 03:22:51.33	255.60	6.21	-39.9	-41.1	20.7	0.00e+00	92	27	0	160432128	52	6490
2026-01-13 03:22:52.34	255.74	6.25	-39.8	-41.0	20.7	0.00e+00	0	27	0	161480704	52	6406
2026-01-13 03:22:53.35	255.88	6.29	-39.9	-41.1	20.7	0.00e+00	92	27	0	163577856	52	6503
2026-01-13 03:22:54.36	256.01	6.33	-39.8	-41.0	20.7	0.00e+00	30	27	0	165675008	52	6415
2026-01-13 03:22:55.37	256.15	6.36	-40.0	-41.3	20.6	0.00e+00	0	27	0	167772160	52	6616
2026-01-13 03:22:56.38	256.29	6.40	-39.9	-41.1	20.7	0.00e+00	92	27	0	169869312	52	6485
2026-01-13 03:22:57.39	256.43	6.44	-40.0	-41.2	20.6	0.00e+00	0	27	0	170917888	52	6571
2026-01-13 03:22:58.40	256.57	6.48	-40.0	-41.3	20.6	0.00e+00	62	27	0	173015040	52	6621
2026-01-13 03:22:59.41	256.72	6.51	-40.1	-41.4	20.5	0.00e+00	0	27	0	175112192	52	6716
2026-01-13 03:23:00.42	256.86	6.55	-40.1	-41.4	20.4	0.00e+00	92	27	0	177209344	52	6711
2026-01-13 03:23:01.43	257.00	6.59	-40.0	-41.3	20.6	0.00e+00	0	27	0	179306496	52	6635
2026-01-13 03:23:02.43	257.14	6.62	-40.1	-41.4	20.4	0.00e+00	92	27	0	180355072	52	6713
2026-01-13 03:23:03.45	257.28	6.66	-40.1	-41.3	20.5	0.00e+00	90	27	0	182452224	52	6685
2026-01-13 03:23:04.45	257.42	6.70	-40.4	-41.7	20.1	0.00e+00	0	27	0	184549376	52	6966
2026-01-13 03:23:05.46	257.57	6.73	-40.5	-41.8	20.1	0.00e+00	92	27	0	186646528	52	7063
2026-01-13 03:23:06.47	257.71	6.77	-40.4	-41.7	20.2	0.00e+00	0	27	0	188743680	52	7004
2026-01-13 03:23:07.48	257.85	6.81	-40.3	-41.6	20.2	0.00e+00	92	27	0	189792256	52	6910
2026-01-13 03:23:08.48	258.00	6.84	-40.2	-41.5	20.3	0.00e+00	7	27	0	191889408	52	6823
2026-01-13 03:23:09.49	258.14	6.88	-40.2	-41.5	20.2	0.00e+00	91	27	0	193986560	52	6838
2026-01-13 03:23:10.50	258.29	6.92	-40.3	-41.5	20.3	0.00e+00	91	27	0	196083712	52	6848
2026-01-13 03:23:11.51	258.43	6.95	-40.1	-41.3	20.6	0.00e+00	0	27	0	198180864	52	6653
2026-01-13 03:23:12.52	258.58	6.99	-39.9	-41.1	20.8	0.00e+00	91	27	0	200278016	52	6482
2026-01-13 03:23:13.53	258.72	7.02	-40.1	-41.3	20.5	0.00e+00	0	27	0	201326592	52	6662
2026-01-13 03:23:14.54	258.87	7.06	-39.9	-41.1	20.7	0.00e+00	92	27	0	203423744	52	6493
2026-01-13 03:23:15.55	259.01	7.09	-40.1	-41.3	20.6	0.00e+00	0	27	0	205520896	52	6666
2026-01-13 03:23:16.56	259.16	7.13	-40.3	-41.7	20.2	0.00e+00	92	27	0	207618048	52	6932
2026-01-13 03:23:17.57	259.31	7.17	-40.4	-41.7	20.2	0.00e+00	90	27	0	209715200	52	6987
2026-01-13 03:23:18.58	259.46	7.20	-40.5	-41.9	20.1	0.00e+00	0	27	0	210763776	52	7089
2026-01-13 03:23:19.59	259.60	7.24	-40.6	-42.0	20.0	0.00e+00	90	27	0	212860928	52	7172
2026-01-13 03:23:20.60	259.75	7.27	-40.8	-42.2	19.8	0.00e+00	10	27	0	214958080	54	6542
2026-01-13 03:23:21.61	259.90	7.31	-40.8	-42.2	19.7	0.00e+00	63	27	0	217055232	54	6594
2026-01-13 03:23:22.62	260.05	7.34	-40.6	-42.0	20.0	0.00e+00	0	27	0	219152384	54	6420
2026-01-13 03:23:23.63	260.20	7.38	-40.5	-41.9	20.0	0.00e+00	92	27	0	220200960	54	6344
2026-01-13 03:23:24.64	260.35	7.41	-40.6	-42.0	19.9	0.00e+00	92	27	0	222298112	54	6416
2026-01-13 03:23:25.65	260.50	7.44	-40.4	-41.7	20.3	0.00e+00	11	27	0	224395264	54	6199
2026-01-13 03:23:26.66	260.65	7.48	-40.2	-41.5	20.4	0.00e+00	92	27	0	226492416	54	6041
2026-01-13 03:23:27.67	260.80	7.51	-40.4	-41.7	20.3	0.00e+00	0	27	0	228589568	54	6236
2026-01-13 03:23:28.67	260.95	7.55	-40.2	-41.5	20.4	0.00e+00	92	27	0	229638144	54	6071
2026-01-13 03:23:29.68	261.10	7.58	-40.0	-41.2	20.6	0.00e+00	0	27	0	231735296	54	5895
2026-01-13 03:23:30.69	261.25	7.61	-40.1	-41.4	20.4	0.00e+00	92	27	0	233832448	54	5979
2026-01-13 03:23:31.70	261.40	7.65	-40.0	-41.2	20.6	0.00e+00	24	27	0	235929600	54	5884
2026-01-13 03:23:32.71	261.55	7.68	-40.2	-41.5	20.4	0.00e+00	0	27	0	238026752	54	6061
2026-01-13 03:23:33.72	261.71	7.72	-40.2	-41.5	20.4	0.00e+00	92	27	0	239075328	54	6071
2026-01-13 03:23:34.73	261.86	7.75	-40.4	-41.8	20.1	0.00e+00	0	27	0	241172480	54	6252
2026-01-13 03:23:35.74	262.01	7.78	-40.5	-41.8	20.2	0.00e+00	90	27	0	243269632	54	6284
2026-01-13 03:23:36.75	262.17	7.81	-40.5	-41.9	20.1	0.00e+00	0	27	0	245366784	54	6345
2026-01-13 03:23:37.76	262.32	7.85	-40.4	-41.8	20.1	0.00e+00	81	27	0	247463936	54	6252
2026-01-13 03:23:38.77	262.47	7.88	-40.5	-41.8	20.1	0.00e+00	25	27	0	248512512	54	6288
2026-01-13 03:23:39.77	262.63	7.91	-40.8	-42.1	19.9	0.00e+00	90	27	0	250609664	54	6520
2026-01-13 03:23:40.78	262.78	7.95	-40.7	-42.1	19.9	0.00e+00	92	27	0	252706816	54	6465
2026-01-13 03:23:41.79	262.94	7.98	-40.9	-42.2	19.7	0.00e+00	0	27	0	254803968	54	6610
2026-01-13 03:23:42.80	263.09	8.01	-40.8	-42.1	19.9	0.00e+00	92	27	0	256901120	54	6531
2026-01-13 03:23:43.81	263.25	8.04	-41.0	-42.4	19.7	0.00e+00	0	27	0	257949696	54	6706
2026-01-13 03:23:44.82	263.40	8.07	-40.7	-42.1	19.9	0.00e+00	63	27	0	260046848	54	6469
2026-01-13 03:23:45.83	263.56	8.11	-40.8	-42.2	19.8	0.00e+00	0	27	0	262144000	54	6606
2026-01-13 03:23:46.84	263.72	8.14	-40.9	-42.3	19.7	0.00e+00	92	27	0	264241152	54	6634
2026-01-13 03:23:47.85	263.88	8.17	-40.9	-42.3	19.6	0.00e+00	26	27	0	266338304	54	6679
2026-01-13 03:23:48.86	264.03	8.20	-41.0	-42.4	19.8	0.00e+00	0	27	0	267386880	54	6739
2026-01-13 03:23:49.87	264.19	8.23	-40.9	-42.3	19.8	0.00e+00	30	27	0	269484032	54	6664
2026-01-13 03:23:50.88	264.35	8.26	-40.9	-42.3	19.7	0.00e+00	0	27	0	271581184	54	6668
2026-01-13 03:23:51.89	264.51	8.29	-40.6	-41.9	20.2	0.00e+00	80	27	0	273678336	54	6382
2026-01-13 03:23:52.90	264.67	8.33	-42.2	-44.0	19.2	2.20e-06	0	27	0	275775488	56	7191
2026-01-13 03:23:53.91	264.83	8.36	-40.8	-42.1	20.1	0.00e+00	92	27	0	277872640	54	6500
2026-01-13 03:23:54.92	264.98	8.39	-40.3	-41.5	20.4	0.00e+00	92	27	0	278921216	54	6084
2026-01-13 03:23:55.93	265.14	8.42	-40.2	-41.5	20.5	0.00e+00	0	27	0	281018368	54	6034
2026-01-13 03:23:56.93	265.30	8.45	-40.2	-41.5	20.5	0.00e+00	90	27	0	283115520	54	6063
2026-01-13 03:23:57.94	265.46	8.48	-40.1	-41.3	20.6	0.00e+00	0	27	0	285212672	54	5941
2026-01-13 03:23:58.95	265.62	8.51	-40.2	-41.5	20.4	0.00e+00	92	27	0	286261248	54	6059
2026-01-13 03:23:59.96	265.79	8.54	-40.1	-41.4	20.5	0.00e+00	0	27	0	288358400	54	5996
2026-01-13 03:24:00.97	265.95	8.57	-40.1	-41.4	20.6	0.00e+00	92	27	0	290455552	54	5977
2026-01-13 03:24:01.98	266.11	8.60	-40.1	-41.3	20.6	0.00e+00	6	27	0	292552704	54	5947
2026-01-13 03:24:02.99	266.27	8.62	-40.3	-41.6	20.4	0.00e+00	22	27	0	294649856	54	6110
2026-01-13 03:24:04.00	266.43	8.65	-40.4	-41.6	20.4	0.00e+00	90	27	0	296747008	54	6159
2026-01-13 03:24:05.00	266.59	8.68	-40.5	-41.8	20.3	0.00e+00	0	27	0	297795584	54	6268
2026-01-13 03:24:06.02	266.76	8.71	-40.7	-42.1	20.0	0.00e+00	54	27	0	299892736	54	6479
2026-01-13 03:24:07.03	266.92	8.74	-40.7	-42.1	19.9	0.00e+00	0	27	0	301989888	54	6466
2026-01-13 03:24:08.04	267.08	8.77	-40.8	-42.2	19.9	0.00e+00	92	27	0	304087040	54	6563
2026-01-13 03:24:09.04	267.25	8.80	-40.5	-41.8	20.3	0.00e+00	0	27	0	306184192	54	6267
2026-01-13 03:24:10.05	267.41	8.82	-40.5	-41.8	20.2	0.00e+00	16	27	0	307232768	54	6308
2026-01-13 03:24:11.06	267.58	8.85	-40.0	-41.3	20.7	0.00e+00	90	27	0	309329920	54	5903
2026-01-13 03:24:12.07	267.74	8.88	-39.9	-41.0	20.8	0.00e+00	0	27	0	311427072	54	5759
2026-01-13 03:24:13.08	267.91	8.91	-39.8	-40.9	21.0	0.00e+00	10	27	0	313524224	52	6370
2026-01-13 03:24:14.09	268.07	8.94	-39.8	-41.0	21.0	0.00e+00	0	27	0	315621376	52	6407
2026-01-13 03:24:15.10	268.24	8.96	-39.8	-40.9	20.9	0.00e+00	58	27	0	316669952	52	6376
2026-01-13 03:24:16.11	268.40	8.99	-39.9	-41.1	20.9	0.00e+00	0	27	0	318767104	52	6512
2026-01-13 03:24:17.12	268.57	9.02	-40.3	-41.6	20.3	0.00e+00	61	27	0	320864256	52	6850
2026-01-13 03:24:18.13	268.73	9.04	-40.4	-41.7	20.2	0.00e+00	74	27	0	322961408	52	6965
2026-01-13 03:24:19.14	268.90	9.07	-40.5	-41.8	20.2	0.00e+00	0	27	0	325058560	52	7078
2026-01-13 03:24:20.15	269.07	9.10	-40.8	-42.2	19.8	0.00e+00	23	27	0	326107136	54	6541
2026-01-13 03:24:21.16	269.24	9.12	-40.6	-41.9	20.0	0.00e+00	0	27	0	328204288	54	6381
2026-01-13 03:24:22.17	269.40	9.15	-40.7	-42.0	20.0	0.00e+00	92	27	0	330301440	54	6431
2026-01-13 03:24:23.18	269.57	9.17	-40.7	-42.0	20.1	0.00e+00	0	27	0	332398592	54	6428
2026-01-13 03:24:24.19	269.74	9.20	-40.3	-41.6	20.4	0.00e+00	92	27	0	334495744	54	6129
2026-01-13 03:24:25.20	269.91	9.22	-40.3	-41.5	20.4	0.00e+00	85	27	0	335544320	54	6084
2026-01-13 03:24:26.21	270.08	9.25	-40.5	-41.7	20.3	0.00e+00	0	27	0	337641472	54	6233
2026-01-13 03:24:27.21	270.24	9.27	-40.4	-41.6	20.4	0.00e+00	55	27	0	339738624	54	6161
2026-01-13 03:24:28.23	270.42	9.30	-40.4	-41.6	20.0	0.00e+00	0	27	0	341835776	54	6169
2026-01-13 03:24:29.23	270.58	9.32	-40.3	-41.6	20.4	0.00e+00	92	27	0	343932928	54	6141
2026-01-13 03:24:30.24	270.75	9.35	-40.4	-41.6	20.3	0.00e+00	0	27	0	344981504	54	6170
2026-01-13 03:24:31.25	270.92	9.37	-40.2	-41.5	20.5	0.00e+00	92	27	0	347078656	54	6067
2026-01-13 03:24:32.26	271.09	9.40	-40.2	-41.4	20.6	0.00e+00	92	27	0	349175808	54	6029
2026-01-13 03:24:33.27	271.27	9.42	-40.1	-41.3	20.9	0.00e+00	0	27	0	351272960	54	5920
2026-01-13 03:24:34.28	271.44	9.44	-40.0	-41.2	20.8	0.00e+00	92	27	0	353370112	54	5874
2026-01-13 03:24:35.29	271.61	9.47	-39.6	-40.8	21.2	0.00e+00	8	27	0	354418688	52	6274
2026-01-13 03:24:36.30	271.78	9.49	-39.7	-40.8	21.0	0.00e+00	80	27	0	356515840	52	6314
2026-01-13 03:24:37.30	271.95	9.51	-39.8	-41.0	20.9	0.00e+00	0	27	0	358612992	52	6424
2026-01-13 03:24:38.31	272.12	9.54	-40.1	-41.3	20.6	0.00e+00	92	27	0	360710144	52	6688
2026-01-13 03:24:39.32	272.29	9.56	-40.4	-41.6	20.5	0.00e+00	61	27	0	362807296	52	6909
2026-01-13 03:24:40.33	272.47	9.58	-40.6	-41.9	20.1	0.00e+00	17	27	0	364904448	52	7150
2026-01-13 03:24:41.34	272.64	9.60	-40.9	-42.3	19.8	0.00e+00	92	27	0	365953024	54	6632
2026-01-13 03:24:42.35	272.81	9.63	-41.2	-42.6	19.6	0.00e+00	0	27	0	368050176	54	6918
2026-01-13 03:24:43.36	272.99	9.65	-41.4	-42.9	19.3	0.00e+00	50	27	0	370147328	54	7105
2026-01-13 03:24:44.37	273.16	9.67	-41.3	-42.7	19.3	0.00e+00	0	27	0	372244480	54	6973
2026-01-13 03:24:45.38	273.33	9.69	-41.2	-42.6	19.5	0.00e+00	92	27	0	374341632	54	6904
2026-01-13 03:24:46.39	273.51	9.71	-41.2	-42.6	19.6	0.00e+00	0	27	0	375390208	54	6883
2026-01-13 03:24:47.40	273.68	9.73	-40.8	-42.2	20.0	0.00e+00	91	27	0	377487360	54	6542
2026-01-13 03:24:48.41	273.86	9.75	-40.5	-41.7	20.3	0.00e+00	92	27	0	379584512	54	6243
2026-01-13 03:24:49.42	274.03	9.77	-40.3	-41.6	20.4	0.00e+00	0	27	0	381681664	54	6111
2026-01-13 03:24:50.42	274.20	9.79	-40.3	-41.5	20.5	0.00e+00	34	27	0	383778816	54	6086
2026-01-13 03:24:51.43	274.38	9.81	-40.0	-41.2	20.8	0.00e+00	0	27	0	384827392	54	5887
2026-01-13 03:24:52.44	274.55	9.83	-40.2	-41.5	20.5	0.00e+00	67	27	0	386924544	54	6062
2026-01-13 03:24:53.45	274.73	9.85	-40.4	-41.6	20.4	0.00e+00	0	27	0	389021696	54	6167
2026-01-13 03:24:54.46	274.91	9.87	-40.3	-41.6	20.4	0.00e+00	92	27	0	391118848	54	6113
2026-01-13 03:24:55.47	275.08	9.89	-40.3	-41.6	20.4	0.00e+00	92	27	0	393216000	54	6139
2026-01-13 03:24:56.48	275.26	9.91	-40.4	-41.7	20.3	0.00e+00	0	27	0	394264576	54	6228
2026-01-13 03:24:57.49	275.43	9.93	-40.2	-41.5	20.6	0.00e+00	22	27	0	396361728	54	6042
2026-01-13 03:24:58.50	275.61	9.95	-39.7	-40.8	21.1	0.00e+00	0	27	0	398458880	54	5608
2026-01-13 03:24:59.51	275.79	9.97	-39.7	-40.9	21.1	0.00e+00	92	27	0	400556032	52	6354
2026-01-13 03:25:00.52	275.97	9.99	-39.5	-40.7	21.1	0.00e+00	11	27	0	402653184	52	6176
2026-01-13 03:25:01.53	276.14	10.00	-39.8	-40.9	21.0	0.00e+00	92	27	0	403701760	52	6376
2026-01-13 03:25:02.54	276.32	10.02	-39.9	-41.1	20.9	0.00e+00	90	27	0	405798912	52	6506
2026-01-13 03:25:03.55	276.50	10.04	-40.1	-41.3	20.6	0.00e+00	0	27	0	407896064	52	6676
2026-01-13 03:25:04.56	276.68	10.06	-40.2	-41.4	20.6	0.00e+00	92	27	0	409993216	52	6747
2026-01-13 03:25:05.57	276.85	10.07	-40.6	-41.9	20.4	0.00e+00	10	27	0	412090368	52	7093
2026-01-13 03:25:06.57	277.03	10.09	-40.5	-41.7	20.4	0.00e+00	92	27	0	413138944	52	7001
2026-01-13 03:25:07.58	277.21	10.11	-40.3	-41.6	20.6	0.00e+00	0	27	0	415236096	52	6877
2026-01-13 03:25:08.59	277.39	10.12	-40.1	-41.4	20.6	0.00e+00	92	27	0	417333248	52	6705
2026-01-13 03:25:09.60	277.57	10.14	-39.8	-41.0	21.0	0.00e+00	0	27	0	419430400	52	6403
2026-01-13 03:25:10.61	277.75	10.15	-39.6	-40.8	21.3	0.00e+00	68	27	0	421527552	52	6254
2026-01-13 03:25:11.62	277.93	10.17	-39.7	-40.8	21.1	0.00e+00	91	27	0	422576128	52	6288
2026-01-13 03:25:12.63	278.11	10.18	-40.1	-41.3	20.7	0.00e+00	0	27	0	424673280	52	6684
2026-01-13 03:25:13.64	278.29	10.20	-40.3	-41.5	20.4	0.00e+00	92	27	0	426770432	52	6847
2026-01-13 03:25:14.65	278.47	10.21	-40.6	-41.9	20.2	0.00e+00	0	27	0	428867584	52	7101
2026-01-13 03:25:15.66	278.65	10.23	-40.7	-42.1	19.9	0.00e+00	79	27	0	430964736	54	6492
2026-01-13 03:25:16.67	278.83	10.24	-40.6	-41.9	20.2	0.00e+00	24	27	0	433061888	54	6343
2026-01-13 03:25:17.68	279.01	10.26	-40.3	-41.6	20.5	0.00e+00	76	27	0	434110464	54	6131
2026-01-13 03:25:18.69	279.19	10.27	-40.0	-41.2	20.8	0.00e+00	92	27	0	436207616	54	5862
2026-01-13 03:25:19.70	279.37	10.29	-39.7	-40.8	21.1	0.00e+00	0	27	0	438304768	54	5606
2026-01-13 03:25:20.71	279.55	10.30	-39.6	-40.8	21.3	0.00e+00	53	27	0	440401920	52	6257
2026-01-13 03:25:21.72	279.73	10.31	-39.6	-40.7	21.1	0.00e+00	0	27	0	442499072	52	6242
2026-01-13 03:25:22.73	279.91	10.32	-39.9	-41.1	20.9	0.00e+00	55	27	0	443547648	52	6497
2026-01-13 03:25:23.74	280.09	10.34	-40.0	-41.2	20.9	0.00e+00	0	27	0	445644800	52	6547
2026-01-13 03:25:24.75	280.27	10.35	-40.3	-41.6	20.5	0.00e+00	92	27	0	447741952	52	6886
2026-01-13 03:25:25.75	280.45	10.36	-40.4	-41.7	20.3	0.00e+00	92	27	0	449839104	52	6943
2026-01-13 03:25:26.76	280.63	10.37	-40.4	-41.6	20.5	0.00e+00	0	27	0	451936256	52	6906
2026-01-13 03:25:27.77	280.82	10.39	-40.3	-41.6	20.6	0.00e+00	69	27	0	452984832	52	6852
2026-01-13 03:25:28.78	281.00	10.40	-40.5	-41.7	20.4	0.00e+00	0	27	0	455081984	52	6979
2026-01-13 03:25:29.79	281.18	10.41	-40.5	-41.8	20.3	0.00e+00	71	27	0	457179136	52	7043
2026-01-13 03:25:30.80	281.36	10.42	-40.7	-42.0	20.1	0.00e+00	0	27	0	459276288	52	7179
2026-01-13 03:25:31.81	281.55	10.43	-41.1	-42.5	19.7	0.00e+00	92	27	0	461373440	54	6792
2026-01-13 03:25:32.81	281.73	10.44	-41.4	-42.9	19.3	0.00e+00	60	27	0	462422016	54	7151
2026-01-13 03:25:33.82	281.91	10.45	-42.0	-43.6	18.7	0.00e+00	0	27	0	464519168	56	6908
2026-01-13 03:25:34.83	282.09	10.46	-42.3	-44.0	18.2	0.00e+00	90	27	0	466616320	56	7244
2026-01-13 03:25:35.84	282.27	10.47	-42.4	-44.2	18.2	0.00e+00	0	27	0	468713472	56	7354
2026-01-13 03:25:36.85	282.46	10.48	-42.1	-43.7	18.6	0.00e+00	79	27	0	470810624	56	6997
2026-01-13 03:25:37.86	282.64	10.49	-42.0	-43.6	18.8	0.00e+00	0	27	0	471859200	56	6908
2026-01-13 03:25:38.87	282.82	10.50	-41.7	-43.2	19.0	0.00e+00	90	27	0	473956352	56	6570
2026-01-13 03:25:39.88	283.01	10.51	-41.5	-43.0	19.3	0.00e+00	92	27	0	476053504	56	6449
2026-01-13 03:25:40.89	283.19	10.51	-41.5	-42.9	19.4	0.00e+00	0	27	0	478150656	56	6384
2026-01-13 03:25:41.90	283.37	10.52	-41.4	-42.9	19.3	0.00e+00	92	27	0	480247808	56	6354
2026-01-13 03:25:42.91	283.56	10.53	-41.3	-42.7	19.5	0.00e+00	0	27	0	481296384	56	6221
2026-01-13 03:25:43.92	283.74	10.54	-41.3	-42.7	19.4	0.00e+00	79	27	0	483393536	56	6221
2026-01-13 03:25:44.93	283.93	10.55	-41.3	-42.7	19.5	0.00e+00	0	27	0	485490688	56	6225
2026-01-13 03:25:45.94	284.11	10.55	-41.3	-42.8	19.4	0.00e+00	91	27	0	487587840	56	6283
2026-01-13 03:25:46.95	284.29	10.56	-41.4	-42.8	19.4	0.00e+00	78	27	0	489684992	56	6276
2026-01-13 03:25:47.96	284.48	10.57	-41.2	-42.6	19.7	0.00e+00	0	27	0	490733568	56	6122
2026-01-13 03:25:48.97	284.66	10.57	-40.9	-42.2	20.0	0.00e+00	77	27	0	492830720	56	5885
2026-01-13 03:25:49.98	284.85	10.58	-41.0	-42.4	19.9	0.00e+00	0	27	0	494927872	56	5970
2026-01-13 03:25:50.99	285.03	10.58	-40.8	-42.1	20.0	0.00e+00	70	27	0	497025024	54	6508
2026-01-13 03:25:51.99	285.21	10.59	-40.6	-42.0	20.1	0.00e+00	0	27	0	499122176	54	6394
2026-01-13 03:25:53.00	285.40	10.60	-40.6	-41.9	20.2	0.00e+00	92	27	0	500170752	54	6385
2026-01-13 03:25:54.01	285.58	10.60	-40.7	-42.1	20.1	0.00e+00	38	27	0	502267904	54	6481
2026-01-13 03:25:55.02	285.77	10.61	-40.8	-42.1	20.0	0.00e+00	14	27	0	504365056	54	6524
2026-01-13 03:25:56.03	285.95	10.61	-40.6	-41.9	20.3	0.00e+00	92	27	0	506462208	54	6351
2026-01-13 03:25:57.04	286.14	10.61	-40.6	-41.9	20.2	0.00e+00	0	27	0	508559360	54	6348
2026-01-13 03:25:58.05	286.32	10.62	-40.4	-41.7	20.4	0.00e+00	27	27	0	509607936	54	6224
2026-01-13 03:25:59.06	286.51	10.62	-40.2	-41.5	20.7	0.00e+00	0	27	0	511705088	54	6037
2026-01-13 03:26:00.07	286.69	10.63	-40.0	-41.2	20.8	0.00e+00	73	27	0	513802240	54	5892
2026-01-13 03:26:01.08	286.87	10.63	-40.0	-41.2	20.8	0.00e+00	0	27	0	515899392	54	5830
2026-01-13 03:26:02.09	287.06	10.63	-39.9	-41.1	20.9	0.00e+00	92	27	0	517996544	54	5802
2026-01-13 03:26:03.10	287.24	10.63	-40.0	-41.2	20.9	0.00e+00	92	27	0	519045120	54	5870
2026-01-13 03:26:04.11	287.43	10.64	-40.1	-41.3	20.8	0.00e+00	0	27	0	521142272	54	5947
2026-01-13 03:26:05.11	287.61	10.64	-40.1	-41.3	20.8	0.00e+00	88	27	0	523239424	54	5932
2026-01-13 03:26:06.12	287.80	10.64	-40.1	-41.3	20.7	0.00e+00	0	27	0	525336576	54	5954
2026-01-13 03:26:07.13	287.98	10.64	-40.1	-41.3	20.9	0.00e+00	84	27	0	527433728	54	5937
2026-01-13 03:26:08.14	288.17	10.64	-40.0	-41.2	20.9	0.00e+00	0	27	0	529530880	54	5852
2026-01-13 03:26:09.15	288.35	10.65	-40.0	-41.2	20.9	0.00e+00	83	27	0	530579456	54	5840
2026-01-13 03:26:10.16	288.54	10.65	-39.8	-41.0	21.0	0.00e+00	86	27	0	532676608	54	5727
2026-01-13 03:26:11.17	288.72	10.65	-39.9	-41.1	21.0	0.00e+00	0	27	0	534773760	52	6471
2026-01-13 03:26:12.18	288.91	10.65	-40.0	-41.2	20.8	0.00e+00	27	27	0	536870912	52	6577
2026-01-13 03:26:13.19	289.09	10.65	-40.0	-41.2	20.9	0.00e+00	0	27	0	538968064	52	6552
2026-01-13 03:26:14.20	289.28	10.65	-40.0	-41.2	20.8	0.00e+00	92	27	0	540016640	52	6580
2026-01-13 03:26:15.21	289.46	10.65	-40.2	-41.4	20.7	0.00e+00	0	27	0	542113792	52	6740
2026-01-13 03:26:16.22	289.65	10.65	-40.2	-41.4	20.7	0.00e+00	92	27	0	544210944	52	6745
2026-01-13 03:26:17.23	289.83	10.64	-39.9	-41.1	20.9	0.00e+00	92	27	0	546308096	52	6533
2026-01-13 03:26:18.24	290.02	10.64	-39.7	-40.8	21.2	0.00e+00	0	27	0	548405248	52	6296
2026-01-13 03:26:19.25	290.20	10.64	-39.5	-40.6	21.4	0.00e+00	92	27	0	549453824	52	6141
2026-01-13 03:26:20.26	290.39	10.64	-39.2	-40.3	21.6	0.00e+00	0	27	0	551550976	52	5928
2026-01-13 03:26:21.26	290.57	10.64	-39.3	-40.4	21.5	0.00e+00	64	27	0	553648128	52	5992
2026-01-13 03:26:22.27	290.76	10.64	-39.4	-40.5	21.5	0.00e+00	0	27	0	555745280	52	6083
2026-01-13 03:26:23.28	290.94	10.63	-39.3	-40.4	21.6	0.00e+00	92	27	0	557842432	52	6004
2026-01-13 03:26:24.29	291.13	10.63	-39.3	-40.4	21.5	0.00e+00	27	27	0	558891008	52	5975
2026-01-13 03:26:25.30	291.31	10.63	-39.3	-40.4	21.6	0.00e+00	9	27	0	560988160	52	5995
2026-01-13 03:26:26.31	291.49	10.62	-39.2	-40.3	21.7	0.00e+00	92	27	0	563085312	52	5911
2026-01-13 03:26:27.32	291.68	10.62	-39.1	-40.2	21.8	0.00e+00	0	27	0	565182464	52	5836
2026-01-13 03:26:28.33	291.86	10.62	-38.9	-40.0	21.9	0.00e+00	92	27	0	567279616	52	5711
2026-01-13 03:26:29.34	292.05	10.61	-38.9	-39.9	22.0	0.00e+00	0	27	0	568328192	52	5685
2026-01-13 03:26:30.35	292.23	10.61	-38.8	-39.9	22.0	0.00e+00	92	27	0	570425344	52	5640
2026-01-13 03:26:31.36	292.42	10.60	-38.9	-40.0	21.4	0.00e+00	0	27	0	572522496	52	5720
2026-01-13 03:26:32.37	292.60	10.60	-39.1	-40.2	21.5	0.00e+00	0	27	0	574619648	52	5871
2026-01-13 03:26:33.38	292.79	10.59	-39.3	-40.4	21.5	0.00e+00	92	27	0	576716800	52	6012
2026-01-13 03:26:34.39	292.97	10.59	-39.4	-40.5	21.4	0.00e+00	0	27	0	577765376	52	6091
2026-01-13 03:26:35.40	293.15	10.58	-39.6	-40.7	21.3	0.00e+00	37	27	0	579862528	52	6244
2026-01-13 03:26:36.41	293.34	10.58	-39.5	-40.6	21.4	0.00e+00	0	27	0	581959680	52	6167
2026-01-13 03:26:37.41	293.52	10.57	-39.6	-40.8	21.2	0.00e+00	92	27	0	584056832	52	6262
2026-01-13 03:26:38.42	293.70	10.56	-39.5	-40.6	21.4	0.00e+00	0	27	0	586153984	52	6123
2026-01-13 03:26:39.43	293.89	10.56	-39.3	-40.4	21.5	0.00e+00	0	27	0	587202560	52	6032
2026-01-13 03:26:40.44	294.07	10.55	-39.2	-40.3	21.7	0.00e+00	50	27	0	589299712	52	5908
2026-01-13 03:26:41.45	294.26	10.54	-39.2	-40.3	21.7	0.00e+00	0	27	0	591396864	52	5913
2026-01-13 03:26:42.46	294.44	10.54	-39.1	-40.2	21.7	0.00e+00	92	27	0	593494016	52	5875
2026-01-13 03:26:43.47	294.62	10.53	-39.3	-40.4	21.5	0.00e+00	0	27	0	595591168	52	6022
2026-01-13 03:26:44.48	294.81	10.52	-39.3	-40.4	21.5	0.00e+00	79	27	0	597688320	52	6020
2026-01-13 03:26:45.49	294.99	10.51	-39.3	-40.5	21.4	0.00e+00	0	27	0	598736896	52	6038
2026-01-13 03:26:46.50	295.17	10.50	-39.5	-40.6	21.4	0.00e+00	54	27	0	600834048	52	6131
2026-01-13 03:26:47.51	295.36	10.49	-39.3	-40.5	21.6	0.00e+00	25	27	0	602931200	52	6039
2026-01-13 03:26:48.52	295.54	10.49	-39.2	-40.3	21.7	0.00e+00	0	27	0	605028352	52	5924
2026-01-13 03:26:49.53	295.72	10.48	-39.0	-40.1	21.8	0.00e+00	19	27	0	607125504	52	5809
2026-01-13 03:26:50.54	295.90	10.47	-38.8	-39.9	22.0	0.00e+00	0	27	0	608174080	52	5662
2026-01-13 03:26:51.55	296.09	10.46	-38.9	-39.9	22.0	0.00e+00	58	27	0	610271232	52	5668
2026-01-13 03:26:52.56	296.27	10.45	-38.9	-40.0	22.0	0.00e+00	0	27	0	612368384	52	5696
2026-01-13 03:26:53.57	296.45	10.44	-38.9	-40.0	21.9	0.00e+00	77	27	0	614465536	52	5722
2026-01-13 03:26:54.57	296.63	10.43	-38.8	-39.8	22.0	0.00e+00	21	27	0	616562688	52	5620
2026-01-13 03:26:55.58	296.81	10.42	-38.8	-39.9	22.0	0.00e+00	0	27	0	617611264	52	5658
2026-01-13 03:26:56.59	297.00	10.40	-38.9	-40.0	21.8	0.00e+00	27	27	0	619708416	52	5738
2026-01-13 03:26:57.60	297.18	10.39	-38.8	-39.9	22.1	0.00e+00	0	27	0	621805568	52	5640
2026-01-13 03:26:58.61	297.36	10.38	-38.7	-39.7	22.1	0.00e+00	92	27	0	623902720	50	6232
2026-01-13 03:26:59.62	297.54	10.37	-38.3	-39.3	22.4	0.00e+00	0	27	0	625999872	50	5926
2026-01-13 03:27:00.63	297.72	10.36	-38.2	-39.1	22.6	0.00e+00	87	27	0	627048448	50	5820
2026-01-13 03:27:01.64	297.90	10.35	-38.2	-39.1	22.4	0.00e+00	19	27	0	629145600	50	5819
2026-01-13 03:27:02.65	298.09	10.33	-38.0	-38.9	22.6	0.00e+00	0	27	0	631242752	50	5695
2026-01-13 03:27:03.66	298.27	10.32	-38.0	-38.9	22.7	0.00e+00	92	27	0	633339904	50	5679
2026-01-13 03:27:04.67	298.45	10.31	-38.0	-38.9	22.8	0.00e+00	0	27	0	635437056	50	5682
2026-01-13 03:27:05.68	298.63	10.29	-38.2	-39.1	22.6	0.00e+00	92	27	0	636485632	50	5823
2026-01-13 03:27:06.69	298.81	10.28	-38.3	-39.3	22.5	0.00e+00	0	27	0	638582784	50	5912
2026-01-13 03:27:07.70	298.99	10.27	-38.5	-39.5	22.3	0.00e+00	92	27	0	640679936	50	6096
2026-01-13 03:27:08.70	299.17	10.25	-38.6	-39.6	22.2	0.00e+00	9	27	0	642777088	50	6117
2026-01-13 03:27:09.72	299.35	10.24	-38.6	-39.6	22.1	0.00e+00	6	27	0	644874240	50	6155
2026-01-13 03:27:10.73	299.53	10.22	-38.6	-39.6	22.1	0.00e+00	92	27	0	645922816	50	6142
2026-01-13 03:27:11.73	299.71	10.21	-38.6	-39.6	22.2	0.00e+00	0	27	0	648019968	50	6168
2026-01-13 03:27:12.74	299.89	10.19	-38.4	-39.5	22.3	0.00e+00	22	27	0	650117120	50	6035
2026-01-13 03:27:13.75	300.07	10.18	-38.6	-39.7	22.2	0.00e+00	0	27	0	652214272	50	6174
2026-01-13 03:27:14.76	300.24	10.16	-38.4	-39.4	22.3	0.00e+00	90	27	0	654311424	50	6022
2026-01-13 03:27:15.77	300.42	10.15	-38.5	-39.6	22.2	0.00e+00	0	27	0	655360000	50	6109
2026-01-13 03:27:16.78	300.60	10.13	-38.7	-39.8	22.0	0.00e+00	64	27	0	657457152	50	6260
2026-01-13 03:27:17.79	300.78	10.12	-39.0	-40.1	21.9	0.00e+00	92	27	0	659554304	50	6474
2026-01-13 03:27:18.80	300.96	10.10	-38.9	-40.0	22.0	0.00e+00	0	27	0	661651456	50	6423
2026-01-13 03:27:19.81	301.14	10.08	-38.9	-40.0	21.7	0.00e+00	51	27	0	663748608	50	6414
2026-01-13 03:27:20.82	301.32	10.07	-38.9	-40.0	21.7	0.00e+00	0	27	0	665845760	50	6420
2026-01-13 03:27:21.83	301.49	10.05	-39.2	-40.3	21.7	0.00e+00	71	27	0	666894336	50	6639
2026-01-13 03:27:22.84	301.67	10.03	-39.1	-40.2	21.7	0.00e+00	0	27	0	668991488	50	6569
2026-01-13 03:27:23.85	301.85	10.02	-39.3	-40.4	21.6	0.00e+00	86	27	0	671088640	50	6759
2026-01-13 03:27:24.86	302.02	10.00	-39.0	-40.0	21.9	0.00e+00	24	27	0	673185792	50	6454
2026-01-13 03:27:25.87	302.20	9.98	-39.1	-40.1	21.6	0.00e+00	0	27	0	675282944	50	6527
2026-01-13 03:27:26.87	302.38	9.96	-39.3	-40.4	21.6	0.00e+00	40	27	0	676331520	50	6748
2026-01-13 03:27:27.88	302.55	9.94	-39.1	-40.1	21.7	0.00e+00	0	27	0	678428672	50	6525
2026-01-13 03:27:28.89	302.73	9.93	-39.3	-40.5	21.3	0.00e+00	92	27	0	680525824	50	6774
2026-01-13 03:27:29.90	302.91	9.91	-39.6	-40.8	21.3	0.00e+00	0	27	0	682622976	50	7035
2026-01-13 03:27:30.91	303.08	9.89	-39.5	-40.6	21.3	0.00e+00	92	27	0	683671552	50	6890
2026-01-13 03:27:31.92	303.26	9.87	-39.8	-41.0	21.0	0.00e+00	26	27	0	685768704	52	6454
2026-01-13 03:27:32.93	303.43	9.85	-40.0	-41.2	20.9	0.00e+00	0	27	0	687865856	52	6573
2026-01-13 03:27:33.93	303.61	9.83	-40.1	-41.3	20.5	0.00e+00	92	27	0	689963008	52	6651
2026-01-13 03:27:34.94	303.78	9.81	-40.2	-41.5	20.9	0.00e+00	0	27	0	692060160	52	6786
2026-01-13 03:27:35.95	303.95	9.79	-39.9	-41.1	20.6	0.00e+00	92	27	0	694157312	52	6527
2026-01-13 03:27:36.97	304.13	9.77	-39.7	-40.8	21.2	0.00e+00	0	27	0	695205888	52	6292
2026-01-13 03:27:37.97	304.30	9.75	-39.8	-41.0	20.9	0.00e+00	92	27	0	697303040	52	6455
2026-01-13 03:27:38.98	304.48	9.73	-39.9	-41.0	21.1	0.00e+00	0	27	0	699400192	52	6447
2026-01-13 03:27:39.99	304.65	9.71	-39.5	-40.7	21.6	0.00e+00	0	27	0	701497344	52	6180
2026-01-13 03:27:41.00	304.82	9.69	-39.4	-40.5	21.5	0.00e+00	92	27	0	703594496	52	6102
2026-01-13 03:27:42.01	305.00	9.66	-39.3	-40.4	21.2	0.00e+00	0	27	0	704643072	52	5983
2026-01-13 03:27:43.02	305.17	9.64	-39.2	-40.3	21.5	0.00e+00	43	27	0	706740224	52	5898
2026-01-13 03:27:44.03	305.34	9.62	-39.3	-40.4	21.6	0.00e+00	0	27	0	708837376	52	6005
2026-01-13 03:27:45.04	305.52	9.60	-38.8	-39.8	22.1	0.00e+00	91	27	0	710934528	50	6275
2026-01-13 03:27:46.05	305.69	9.58	-38.6	-39.7	22.1	0.00e+00	0	27	0	713031680	50	6174
2026-01-13 03:27:47.06	305.86	9.55	-38.0	-39.0	22.7	0.00e+00	11	27	0	714080256	50	5710
2026-01-13 03:27:48.07	306.03	9.53	-37.6	-38.5	23.0	0.00e+00	82	27	0	716177408	48	6088
2026-01-13 03:27:49.08	306.20	9.51	-37.7	-38.6	23.1	0.00e+00	0	27	0	718274560	48	6153
2026-01-13 03:27:50.09	306.37	9.49	-37.7	-38.6	22.8	0.00e+00	5	27	0	720371712	48	6161
2026-01-13 03:27:51.09	306.54	9.46	-38.0	-39.0	22.8	0.00e+00	0	27	0	722468864	48	6413
2026-01-13 03:27:52.10	306.71	9.44	-38.0	-39.0	22.5	0.00e+00	82	27	0	723517440	48	6427
2026-01-13 03:27:53.11	306.88	9.42	-38.1	-39.0	22.7	0.00e+00	0	27	0	725614592	48	6440
2026-01-13 03:27:54.12	307.05	9.39	-38.2	-39.2	22.5	0.00e+00	0	27	0	727711744	48	6590
2026-01-13 03:27:55.13	307.22	9.37	-38.4	-39.4	22.2	0.00e+00	5	27	0	729808896	48	6696
2026-01-13 03:27:56.14	307.39	9.34	-38.6	-39.7	22.3	0.00e+00	0	27	0	731906048	48	6951
2026-01-13 03:27:57.15	307.56	9.32	-38.3	-39.3	22.2	0.00e+00	0	27	0	732954624	48	6671
2026-01-13 03:27:58.16	307.73	9.30	-38.5	-39.5	22.2	0.00e+00	0	27	0	735051776	48	6810
2026-01-13 03:27:59.16	307.90	9.27	-38.5	-39.5	22.3	0.00e+00	83	27	0	737148928	48	6814
2026-01-13 03:28:00.17	308.07	9.25	-38.4	-39.4	22.3	0.00e+00	0	27	0	739246080	48	6728
2026-01-13 03:28:01.18	308.24	9.22	-38.4	-39.4	22.3	0.00e+00	86	27	0	741343232	48	6751
2026-01-13 03:28:02.19	308.40	9.20	-38.3	-39.3	22.4	0.00e+00	73	27	0	742391808	48	6632
2026-01-13 03:28:03.20	308.57	9.17	-38.2	-39.2	22.5	0.00e+00	23	27	0	744488960	48	6555
2026-01-13 03:28:04.21	308.74	9.14	-38.1	-39.1	22.5	0.00e+00	63	27	0	746586112	48	6503
2026-01-13 03:28:05.22	308.91	9.12	-38.2	-39.2	22.4	0.00e+00	0	27	0	748683264	48	6604
2026-01-13 03:28:06.23	309.07	9.09	-38.3	-39.3	22.3	0.00e+00	92	27	0	750780416	48	6665
2026-01-13 03:28:07.24	309.24	9.07	-38.3	-39.3	22.2	0.00e+00	0	27	0	751828992	48	6669
2026-01-13 03:28:08.25	309.40	9.04	-38.5	-39.5	22.2	0.00e+00	92	27	0	753926144	48	6800
2026-01-13 03:28:09.26	309.57	9.01	-38.3	-39.3	22.4	0.00e+00	60	27	0	756023296	48	6675
2026-01-13 03:28:10.27	309.74	8.99	-38.4	-39.4	22.2	0.00e+00	0	27	0	758120448	48	6713
2026-01-13 03:28:11.28	309.90	8.96	-38.1	-39.1	22.4	0.00e+00	92	27	0	760217600	48	6528
2026-01-13 03:28:12.29	310.07	8.93	-38.0	-39.0	22.6	0.00e+00	0	27	0	762314752	48	6397
2026-01-13 03:28:13.29	310.23	8.91	-37.8	-38.8	22.8	0.00e+00	89	27	0	763363328	48	6272
2026-01-13 03:28:14.30	310.39	8.88	-37.4	-38.4	23.2	0.00e+00	0	27	0	765460480	48	5971
2026-01-13 03:28:15.31	310.56	8.85	-37.4	-38.3	23.1	0.00e+00	92	27	0	767557632	48	5961
2026-01-13 03:28:16.32	310.72	8.82	-37.5	-38.4	23.1	0.00e+00	25	27	0	769654784	48	5984
2026-01-13 03:28:17.33	310.88	8.79	-37.5	-38.4	23.1	0.00e+00	0	27	0	771751936	48	6010
2026-01-13 03:28:18.34	311.05	8.77	-37.7	-38.6	22.8	0.00e+00	92	27	0	772800512	48	6161
2026-01-13 03:28:19.35	311.21	8.74	-37.9	-38.9	22.6	0.00e+00	0	27	0	774897664	48	6351
2026-01-13 03:28:20.36	311.37	8.71	-38.1	-39.1	22.5	0.00e+00	24	27	0	776994816	48	6490
2026-01-13 03:28:21.37	311.54	8.68	-38.3	-39.3	22.3	0.00e+00	0	27	0	779091968	48	6674
2026-01-13 03:28:22.37	311.70	8.65	-38.4	-39.5	22.1	0.00e+00	92	27	0	781189120	48	6783
2026-01-13 03:28:23.38	311.86	8.62	-38.4	-39.5	22.1	0.00e+00	0	27	0	782237696	48	6795
2026-01-13 03:28:24.39	312.02	8.59	-38.3	-39.3	21.9	0.00e+00	0	27	0	784334848	48	6654
2026-01-13 03:28:25.40	312.18	8.56	-38.4	-39.4	22.2	0.00e+00	92	27	0	786432000	48	6736
2026-01-13 03:28:26.41	312.34	8.54	-38.3	-39.3	22.2	0.00e+00	0	27	0	788529152	48	6671
2026-01-13 03:28:27.42	312.50	8.51	-38.2	-39.2	22.3	0.00e+00	92	27	0	790626304	48	6599
2026-01-13 03:28:28.43	312.66	8.48	-38.2	-39.2	22.2	0.00e+00	0	27	0	791674880	48	6608
2026-01-13 03:28:29.44	312.82	8.45	-38.4	-39.4	22.2	0.00e+00	81	27	0	793772032	48	6725
2026-01-13 03:28:30.45	312.98	8.42	-38.6	-39.7	21.9	0.00e+00	0	27	0	795869184	48	6940
2026-01-13 03:28:31.46	313.14	8.39	-38.8	-39.8	21.9	0.00e+00	41	27	0	797966336	50	6317
2026-01-13 03:28:32.47	313.30	8.36	-39.0	-40.1	21.6	0.00e+00	86	27	0	800063488	50	6509
2026-01-13 03:28:33.48	313.46	8.33	-39.2	-40.4	21.4	0.00e+00	0	27	0	801112064	50	6696
2026-01-13 03:28:34.49	313.61	8.29	-39.5	-40.7	21.0	0.00e+00	17	27	0	803209216	50	6955
2026-01-13 03:28:35.50	313.77	8.26	-39.8	-41.0	20.9	0.00e+00	0	27	0	805306368	50	7191
2026-01-13 03:28:36.51	313.93	8.23	-40.1	-41.3	20.6	0.00e+00	72	27	0	807403520	52	6657
2026-01-13 03:28:37.52	314.09	8.20	-40.1	-41.3	20.6	0.00e+00	0	27	0	809500672	52	6692
2026-01-13 03:28:38.52	314.24	8.17	-40.0	-41.2	20.7	0.00e+00	37	27	0	810549248	52	6595
2026-01-13 03:28:39.53	314.40	8.14	-39.8	-41.0	20.7	0.00e+00	18	27	0	812646400	52	6448
2026-01-13 03:28:40.54	314.55	8.11	-39.8	-41.0	20.8	0.00e+00	0	27	0	814743552	52	6396
2026-01-13 03:28:41.55	314.71	8.08	-39.9	-41.2	20.6	0.00e+00	30	27	0	816840704	52	6559
2026-01-13 03:28:42.56	314.87	8.04	-40.0	-41.2	20.6	0.00e+00	0	27	0	818937856	52	6579
2026-01-13 03:28:43.57	315.02	8.01	-40.1	-41.4	20.6	0.00e+00	92	27	0	819986432	52	6695
2026-01-13 03:28:44.58	315.17	7.98	-40.0	-41.2	20.5	0.00e+00	0	27	0	822083584	52	6592
2026-01-13 03:28:45.59	315.33	7.95	-40.1	-41.4	20.5	0.00e+00	51	27	0	824180736	52	6700
2026-01-13 03:28:46.60	315.48	7.92	-40.3	-41.6	20.3	0.00e+00	19	27	0	826277888	52	6866
2026-01-13 03:28:47.61	315.64	7.88	-40.2	-41.5	20.4	0.00e+00	0	27	0	828375040	52	6799
2026-01-13 03:28:48.62	315.79	7.85	-40.1	-41.3	20.3	0.00e+00	76	27	0	830472192	52	6683
2026-01-13 03:28:49.62	315.94	7.82	-40.1	-41.4	20.5	0.00e+00	0	27	0	831520768	52	6719
2026-01-13 03:28:50.63	316.10	7.79	-40.1	-41.4	20.5	0.00e+00	90	27	0	833617920	52	6718
2026-01-13 03:28:51.64	316.25	7.75	-39.9	-41.2	20.7	0.00e+00	0	27	0	835715072	52	6562
2026-01-13 03:28:52.65	316.40	7.72	-40.0	-41.3	20.4	0.00e+00	90	27	0	837812224	52	6658
2026-01-13 03:28:53.66	316.55	7.69	-40.1	-41.4	20.3	0.00e+00	0	27	0	838860800	52	6736
2026-01-13 03:28:54.67	316.70	7.65	-40.2	-41.5	20.4	0.00e+00	0	27	0	840957952	52	6805
2026-01-13 03:28:55.68	316.85	7.62	-40.4	-41.7	20.1	0.00e+00	59	27	0	843055104	52	7005
2026-01-13 03:28:56.69	317.01	7.59	-40.4	-41.7	20.1	0.00e+00	0	27	0	845152256	52	6967
2026-01-13 03:28:57.70	317.16	7.55	-40.7	-42.2	19.7	0.00e+00	48	27	0	847249408	54	6541
2026-01-13 03:28:58.71	317.31	7.52	-40.6	-41.9	19.9	0.00e+00	0	27	0	848297984	54	6377
2026-01-13 03:28:59.72	317.46	7.48	-40.6	-42.0	19.9	0.00e+00	92	27	0	850395136	54	6424
2026-01-13 03:29:00.73	317.61	7.45	-40.5	-41.9	19.9	0.00e+00	0	27	0	852492288	54	6332
2026-01-13 03:29:01.74	317.75	7.42	-40.6	-41.9	19.9	0.00e+00	0	27	0	854589440	54	6384
2026-01-13 03:29:02.75	317.90	7.38	-40.5	-41.8	20.0	0.00e+00	25	27	0	856686592	54	6281
2026-01-13 03:29:03.76	318.05	7.35	-40.6	-42.0	19.7	0.00e+00	0	27	0	858783744	54	6449
2026-01-13 03:29:04.77	318.20	7.31	-40.8	-42.3	19.5	0.00e+00	21	27	0	859832320	54	6623
2026-01-13 03:29:05.78	318.35	7.28	-41.2	-42.7	19.4	0.00e+00	0	27	0	861929472	54	6942
2026-01-13 03:29:06.78	318.49	7.24	-41.3	-42.9	19.0	0.00e+00	92	27	0	864026624	54	7116
2026-01-13 03:29:07.79	318.64	7.21	-41.8	-43.4	18.7	0.00e+00	0	27	0	866123776	56	6738
2026-01-13 03:29:08.80	318.79	7.17	-41.9	-43.6	18.4	0.00e+00	92	27	0	868220928	56	6868
2026-01-13 03:29:09.81	318.93	7.14	-42.3	-44.1	18.0	0.00e+00	92	27	0	869269504	56	7283
2026-01-13 03:29:10.82	319.08	7.10	-42.2	-44.0	18.1	0.00e+00	0	27	0	871366656	56	7191
2026-01-13 03:29:11.83	319.23	7.07	-42.3	-44.2	17.9	0.00e+00	24	27	0	873463808	56	7389
2026-01-13 03:29:12.84	319.37	7.03	-42.1	-43.9	18.1	0.00e+00	0	27	0	875560960	56	7124
2026-01-13 03:29:13.85	319.52	7.00	-42.1	-43.9	18.2	0.00e+00	90	27	0	877658112	56	7100
2026-01-13 03:29:14.86	319.66	6.96	-42.1	-43.9	18.1	0.00e+00	0	27	0	878706688	56	7139
2026-01-13 03:29:15.87	319.80	6.93	-41.9	-43.6	18.3	0.00e+00	92	27	0	880803840	56	6892
2026-01-13 03:29:16.88	319.95	6.89	-41.9	-43.5	18.3	0.00e+00	22	27	0	882900992	56	6841
2026-01-13 03:29:17.89	320.09	6.85	-41.8	-43.4	18.8	0.00e+00	0	27	0	884998144	56	6768
2026-01-13 03:29:18.90	320.24	6.82	-41.4	-42.9	19.0	0.00e+00	92	27	0	887095296	56	6357
2026-01-13 03:29:19.91	320.38	6.78	-41.3	-42.8	19.2	0.00e+00	0	27	0	888143872	56	6264
2026-01-13 03:29:20.92	320.52	6.75	-41.2	-42.7	19.1	0.00e+00	0	27	0	890241024	56	6233
2026-01-13 03:29:21.92	320.66	6.71	-41.4	-42.9	18.8	0.00e+00	0	27	0	892338176	56	6352
2026-01-13 03:29:22.93	320.80	6.67	-41.6	-43.3	18.9	0.00e+00	0	27	0	894435328	56	6639
2026-01-13 03:29:23.94	320.95	6.64	-41.4	-43.0	18.7	0.00e+00	34	27	0	896532480	56	6437
2026-01-13 03:29:24.95	321.09	6.60	-41.6	-43.2	18.7	0.00e+00	0	27	0	897581056	56	6615
2026-01-13 03:29:25.96	321.23	6.56	-41.8	-43.4	18.5	0.00e+00	20	27	0	899678208	56	6755
2026-01-13 03:29:26.97	321.37	6.53	-42.0	-43.8	18.2	0.00e+00	0	27	0	901775360	56	7039
2026-01-13 03:29:27.97	321.51	6.49	-41.9	-43.6	18.4	0.00e+00	89	27	0	903872512	56	6873
2026-01-13 03:29:28.98	321.65	6.45	-42.1	-43.9	17.9	0.00e+00	0	27	0	905969664	56	7140
2026-01-13 03:29:29.99	321.79	6.42	-42.0	-43.7	18.0	0.00e+00	0	27	0	907018240	56	6989
2026-01-13 03:29:31.00	321.93	6.38	-41.8	-43.5	18.4	0.00e+00	17	27	0	909115392	56	6799
2026-01-13 03:29:32.01	322.06	6.34	-42.0	-43.8	18.1	0.00e+00	0	27	0	911212544	56	7022
2026-01-13 03:29:33.02	322.20	6.30	-42.1	-44.0	18.0	0.00e+00	90	27	0	913309696	56	7187
2026-01-13 03:29:34.03	322.34	6.27	-41.8	-43.6	18.3	0.00e+00	0	27	0	915406848	56	6852
2026-01-13 03:29:35.04	322.48	6.23	-41.8	-43.5	18.3	0.00e+00	90	27	0	916455424	56	6816
2026-01-13 03:29:36.05	322.62	6.19	-41.7	-43.4	18.5	0.00e+00	0	27	0	918552576	56	6746
2026-01-13 03:29:37.06	322.75	6.15	-41.6	-43.3	18.6	0.00e+00	0	27	0	920649728	56	6635
2026-01-13 03:29:38.07	322.89	6.12	-41.4	-42.9	19.0	0.00e+00	0	27	0	922746880	56	6375
2026-01-13 03:29:39.08	323.03	6.08	-41.1	-42.6	19.4	0.00e+00	0	27	0	924844032	56	6106
2026-01-13 03:29:40.09	323.16	6.04	-41.0	-42.5	19.2	0.00e+00	50	27	0	926941184	56	6060
2026-01-13 03:29:41.10	323.30	6.00	-41.1	-42.6	19.3	0.00e+00	0	27	0	927989760	56	6108
2026-01-13 03:29:42.10	323.43	5.97	-41.1	-42.6	19.2	0.00e+00	0	27	0	930086912	56	6140
2026-01-13 03:29:43.11	323.57	5.93	-41.3	-42.8	19.0	0.00e+00	0	27	0	932184064	56	6298
2026-01-13 03:29:44.12	323.70	5.89	-41.3	-42.8	18.9	0.00e+00	0	27	0	934281216	56	6296
2026-01-13 03:29:45.13	323.84	5.85	-41.3	-42.8	18.9	0.00e+00	0	27	0	936378368	56	6314
2026-01-13 03:29:46.14	323.97	5.81	-41.2	-42.8	19.0	0.00e+00	0	27	0	937426944	56	6279
2026-01-13 03:29:47.15	324.11	5.77	-41.2	-42.8	18.9	0.00e+00	83	27	0	939524096	56	6267
2026-01-13 03:29:48.16	324.24	5.74	-41.3	-42.9	18.9	0.00e+00	0	27	0	941621248	56	6340
2026-01-13 03:29:49.17	324.37	5.70	-41.1	-42.6	19.1	0.00e+00	65	27	0	943718400	56	6162
2026-01-13 03:29:50.18	324.50	5.66	-41.0	-42.6	19.1	0.00e+00	0	27	0	945815552	56	6114
2026-01-13 03:29:51.19	324.64	5.62	-40.9	-42.4	19.2	0.00e+00	0	27	0	946864128	56	6007
2026-01-13 03:29:52.20	324.77	5.58	-40.8	-42.3	19.3	0.00e+00	0	27	0	948961280	56	5941
2026-01-13 03:29:53.21	324.90	5.54	-40.8	-42.2	19.5	0.00e+00	0	27	0	951058432	56	5869
2026-01-13 03:29:54.22	325.03	5.50	-40.7	-42.1	19.4	0.00e+00	19	27	0	953155584	54	6538
2026-01-13 03:29:55.23	325.16	5.46	-40.5	-41.9	19.7	0.00e+00	0	27	0	955252736	54	6345
2026-01-13 03:29:56.24	325.29	5.43	-40.5	-41.9	19.7	0.00e+00	92	27	0	956301312	54	6368
2026-01-13 03:29:57.25	325.42	5.39	-40.6	-42.0	19.6	0.00e+00	0	27	0	958398464	54	6447
2026-01-13 03:29:58.25	325.55	5.35	-40.5	-41.9	19.7	0.00e+00	71	27	0	960495616	54	6343
2026-01-13 03:29:59.26	325.68	5.31	-40.6	-42.0	19.6	0.00e+00	0	27	0	962592768	54	6409
2026-01-13 03:30:00.27	325.81	5.27	-40.5	-41.9	19.7	0.00e+00	0	27	0	964689920	54	6358
2026-01-13 03:30:01.28	325.94	5.23	-40.5	-41.9	19.6	0.00e+00	16	27	0	965738496	54	6334
2026-01-13 03:30:02.29	326.07	5.19	-40.6	-42.0	19.6	0.00e+00	0	27	0	967835648	54	6409
2026-01-13 03:30:03.30	326.20	5.15	-40.6	-42.0	19.4	0.00e+00	92	27	0	969932800	54	6427
2026-01-13 03:30:04.31	326.33	5.11	-40.7	-42.2	19.4	0.00e+00	0	27	0	972029952	54	6559
2026-01-13 03:30:05.32	326.45	5.07	-40.8	-42.3	19.4	0.00e+00	59	27	0	974127104	54	6620
2026-01-13 03:30:06.34	326.58	5.03	-40.7	-42.2	19.3	0.00e+00	0	27	0	975175680	54	6572
2026-01-13 03:30:07.35	326.71	4.99	-40.9	-42.4	19.1	0.00e+00	0	27	0	977272832	54	6730
2026-01-13 03:30:08.35	326.83	4.95	-40.8	-42.2	19.3	0.00e+00	0	27	0	979369984	54	6603
2026-01-13 03:30:09.36	326.96	4.91	-40.9	-42.4	19.1	0.00e+00	0	27	0	981467136	54	6729
2026-01-13 03:30:10.38	327.09	4.87	-41.0	-42.5	19.0	0.00e+00	83	27	0	983564288	54	6800
2026-01-13 03:30:11.38	327.21	4.83	-41.1	-42.6	18.9	0.00e+00	0	27	0	984612864	54	6908
2026-01-13 03:30:12.39	327.34	4.79	-41.3	-42.9	18.7	0.00e+00	90	27	0	986710016	54	7128
2026-01-13 03:30:13.40	327.46	4.75	-41.2	-42.8	18.8	0.00e+00	0	27	0	988807168	54	7055
2026-01-13 03:30:14.41	327.59	4.71	-41.2	-42.9	18.7	0.00e+00	22	27	0	990904320	54	7105
2026-01-13 03:30:15.42	327.71	4.67	-41.1	-42.7	18.8	0.00e+00	0	27	0	993001472	54	6957
2026-01-13 03:30:16.43	327.84	4.63	-40.9	-42.4	19.1	0.00e+00	0	27	0	995098624	54	6735
2026-01-13 03:30:17.44	327.96	4.59	-40.9	-42.4	18.9	0.00e+00	76	27	0	996147200	54	6763
2026-01-13 03:30:18.45	328.08	4.55	-40.9	-42.5	19.2	0.00e+00	0	27	0	998244352	54	6803
2026-01-13 03:30:19.46	328.21	4.51	-40.5	-42.0	19.5	0.00e+00	92	27	0	1000341504	54	6410
2026-01-13 03:30:20.47	328.33	4.47	-40.4	-41.8	19.5	0.00e+00	0	27	0	1002438656	54	6314
2026-01-13 03:30:21.48	328.45	4.43	-40.2	-41.6	19.7	0.00e+00	0	27	0	1004535808	54	6123
2026-01-13 03:30:22.49	328.57	4.39	-40.2	-41.6	19.7	0.00e+00	0	27	0	1005584384	54	6139
2026-01-13 03:30:23.50	328.70	4.35	-40.1	-41.5	19.9	0.00e+00	0	27	0	1007681536	54	6043
2026-01-13 03:30:24.51	328.82	4.31	-39.9	-41.3	20.1	0.00e+00	61	27	0	1009778688	52	6633
2026-01-13 03:30:25.52	328.94	4.27	-40.0	-41.3	20.1	0.00e+00	16	27	0	1011875840	52	6671
2026-01-13 03:30:26.53	329.06	4.23	-39.8	-41.1	20.1	0.00e+00	91	27	0	1013972992	52	6493
2026-01-13 03:30:27.54	329.18	4.19	-40.1	-41.4	19.8	0.00e+00	0	27	0	1015021568	52	6744
2026-01-13 03:30:28.55	329.30	4.15	-39.9	-41.3	20.0	0.00e+00	0	27	0	1017118720	52	6646
2026-01-13 03:30:29.55	329.42	4.11	-39.9	-41.3	20.0	0.00e+00	0	27	0	1019215872	52	6636
2026-01-13 03:30:30.56	329.54	4.07	-39.9	-41.3	20.0	0.00e+00	0	27	0	1021313024	52	6651
2026-01-13 03:30:31.57	329.66	4.03	-39.6	-40.9	20.2	0.00e+00	42	27	0	1023410176	52	6339
2026-01-13 03:30:32.58	329.78	3.99	-39.7	-41.1	20.0	0.00e+00	0	27	0	1024458752	52	6492
2026-01-13 03:30:33.59	329.89	3.95	-39.9	-41.2	19.9	0.00e+00	59	27	0	1026555904	52	6610
2026-01-13 03:30:34.60	330.01	3.90	-39.7	-41.1	20.1	0.00e+00	0	27	0	1028653056	52	6465
2026-01-13 03:30:35.61	330.13	3.86	-39.8	-41.1	19.9	0.00e+00	44	27	0	1030750208	52	6538
2026-01-13 03:30:36.62	330.25	3.82	-39.6	-40.9	20.1	0.00e+00	0	27	0	1032847360	52	6357
2026-01-13 03:30:37.63	330.37	3.78	-39.6	-40.9	20.0	0.00e+00	0	27	0	1033895936	52	6365
2026-01-13 03:30:38.64	330.48	3.74	-39.7	-41.1	20.0	0.00e+00	10	27	0	1035993088	52	6492
2026-01-13 03:30:39.65	330.60	3.70	-39.8	-41.3	19.6	0.00e+00	0	27	0	1038090240	52	6617
2026-01-13 03:30:40.66	330.72	3.66	-40.0	-41.4	19.2	0.00e+00	82	27	0	1040187392	52	6766
2026-01-13 03:30:41.67	330.83	3.62	-40.3	-41.9	18.7	0.00e+00	0	27	0	1042284544	52	7130
2026-01-13 03:30:42.68	330.95	3.58	-40.8	-42.5	18.0	0.00e+00	92	27	0	1043333120	52	7665
2026-01-13 03:30:43.69	331.06	3.54	-41.0	-42.9	17.5	0.00e+00	0	27	0	1045430272	54	7154
2026-01-13 03:30:44.70	331.18	3.49	-41.6	-43.7	16.5	0.00e+00	0	27	0	1047527424	54	7821
2026-01-13 03:30:45.71	331.29	3.45	-42.1	-44.7	15.6	0.00e+00	0	27	0	1049624576	56	7775
2026-01-13 03:30:46.72	331.41	3.41	-42.4	-45.3	14.3	0.00e+00	0	27	0	1051721728	56	8400
2026-01-13 03:30:47.73	331.52	3.37	-42.7	-46.1	13.2	1.06e-05	18	27	0	1052770304	56	9173
2026-01-13 03:30:48.74	331.64	3.33	-43.2	-47.6	11.3	3.63e-04	0	27	0	1054867456	58	9766
2026-01-13 03:30:49.74	331.75	3.29	-43.3	-48.4	9.9	3.34e-03	92	27	0	1056964608	58	10729
2026-01-13 03:30:50.75	331.86	3.25	-43.5	-49.7	8.1	4.15e-02	0	27	0	1059061760	58	12353
2026-01-13 03:30:51.76	331.98	3.21	-43.6	-50.8	6.4	1.49e-01	0	27	0	1061158912	58	14112
2026-01-13 03:30:52.78	332.09	3.16	-43.7	-52.1	5.0	3.66e-01	0	27	0	1063256064	58	16320
2026-01-13 03:30:53.79	332.20	3.12	-43.8	-53.5	4.1	7.47e-01	6	27	0	1064304640	60	17026
2026-01-13 03:30:54.79	332.31	3.08	-43.8	-56.1	3.8	1.46e+00	0	27	104	1065353216	60	23027
2026-01-13 03:30:55.80	332.42	3.04	-43.8	-57.1	3.6	1.49e+00	0	27	104	1065353216	60	25882
2026-01-13 03:30:56.81	332.54	3.00	-47.4	-62.6	3.6	1.51e+00	0	27	104	1065353216	60	48532
2026-01-13 03:30:57.82	332.65	2.96	-48.1	-63.2	3.6	1.51e+00	0	27	104	1065353216	60	52383
2026-01-13 03:30:58.83	332.76	2.92	-48.4	-63.6	3.6	1.51e+00	0	27	104	1065353216	60	54548
2026-01-13 03:30:59.84	332.87	2.87	-48.6	-63.9	3.6	1.51e+00	0	27	104	1065353216	60	56357
2026-01-13 03:31:00.85	332.98	2.83	-48.8	-63.9	3.6	1.51e+00	0	27	104	1065353216	60	56890
2026-01-13 03:31:01.86	333.09	2.79	-48.8	-64.1	3.6	1.51e+00	0	27	104	1065353216	60	57753
2026-01-13 03:31:02.87	333.20	2.75	-48.9	-64.1	3.6	1.51e+00	0	27	104	1065353216	60	57808
2026-01-13 03:31:03.88	333.31	2.71	-48.9	-64.1	3.6	1.51e+00	0	27	104	1065353216	60	57951
2026-01-13 03:31:04.89	333.42	2.67	-48.9	-64.1	3.6	1.51e+00	0	27	104	1065353216	60	58027
2026-01-13 03:31:05.90	333.53	2.62	-48.8	-64.2	3.6	1.51e+00	0	27	104	1065353216	60	58300
2026-01-13 03:31:06.91	333.63	2.58	-48.3	-64.1	3.6	1.51e+00	0	27	104	1065353216	60	57673
2026-01-13 03:31:07.92	333.74	2.54	-48.4	-64.0	3.6	1.51e+00	0	27	104	1065353216	60	57406
2026-01-13 03:31:08.93	333.85	2.50	-48.7	-64.1	3.6	1.51e+00	0	27	104	1065353216	60	57636
2026-01-13 03:31:09.94	333.96	2.46	-48.6	-64.0	3.6	1.51e+00	0	27	104	1065353216	60	57160
2026-01-13 03:31:10.95	334.07	2.42	-48.6	-63.9	3.6	1.51e+00	0	27	104	1065353216	60	56863
2026-01-13 03:31:11.96	334.17	2.37	-48.8	-64.0	3.6	1.51e+00	0	27	104	1065353216	60	57228
2026-01-13 03:31:12.97	334.28	2.33	-48.9	-64.1	3.6	1.51e+00	0	27	104	1065353216	60	57918
2026-01-13 03:31:13.98	334.39	2.29	-48.8	-64.1	3.6	1.51e+00	0	27	104	1065353216	60	57740
2026-01-13 03:31:14.98	334.49	2.25	-48.8	-64.0	3.6	1.51e+00	0	27	104	1065353216	60	57539
2026-01-13 03:31:15.99	334.60	2.21	-48.8	-64.1	3.6	1.51e+00	0	27	104	1065353216	60	57774
2026-01-13 03:31:17.00	334.70	2.16	-48.8	-64.0	3.5	1.51e+00	0	27	104	1065353216	60	57358
2026-01-13 03:31:18.01	334.81	2.12	-48.8	-64.1	3.6	1.51e+00	0	27	104	1065353216	60	57625
2026-01-13 03:31:19.02	334.91	2.08	-48.8	-64.0	3.6	1.51e+00	0	27	104	1065353216	60	57177
2026-01-13 03:31:20.03	335.02	2.04	-48.8	-64.0	3.6	1.51e+00	0	27	104	1065353216	60	57215
2026-01-13 03:31:21.04	335.12	2.00	-48.8	-64.0	3.6	1.51e+00	0	27	104	1065353216	60	57584
2026-01-13 03:31:22.05	335.23	1.96	-48.8	-64.0	3.5	1.51e+00	0	27	104	1065353216	60	57366
2026-01-13 03:31:23.06	335.33	1.91	-48.8	-64.0	3.6	1.51e+00	0	27	104	1065353216	60	57339
2026-01-13 03:31:24.07	335.44	1.87	-48.8	-64.0	3.6	1.51e+00	0	27	104	1065353216	60	57354
2026-01-13 03:31:25.08	335.54	1.83	-48.8	-64.0	3.5	1.51e+00	0	27	104	1065353216	60	57229
2026-01-13 03:31:26.09	335.64	1.79	-48.8	-64.0	3.6	1.51e+00	0	27	104	1065353216	60	57270
2026-01-13 03:31:27.10	335.74	1.75	-48.8	-64.0	3.6	1.51e+00	0	27	104	1065353216	60	57315
2026-01-13 03:31:28.11	335.85	1.70	-48.8	-64.0	3.6	1.51e+00	0	27	104	1065353216	60	57231
2026-01-13 03:31:29.12	335.95	1.66	-48.8	-64.0	3.6	1.51e+00	0	27	104	1065353216	60	57185
2026-01-13 03:31:30.13	336.05	1.62	-48.8	-64.0	3.6	1.51e+00	0	27	104	1065353216	60	57219
2026-01-13 03:31:31.14	336.15	1.58	-48.8	-64.0	3.6	1.51e+00	0	27	104	1065353216	60	57482
2026-01-13 03:31:32.15	336.25	1.54	-48.8	-64.0	3.6	1.51e+00	0	27	104	1065353216	60	57192
2026-01-13 03:31:33.16	336.36	1.49	-48.8	-64.0	3.6	1.51e+00	0	27	104	1065353216	60	56995
2026-01-13 03:31:34.17	336.46	1.45	-48.8	-64.0	3.6	1.51e+00	0	27	104	1065353216	60	57024
2026-01-13 03:31:35.18	336.56	1.41	-48.8	-64.0	3.6	1.51e+00	0	27	104	1065353216	60	57201
2026-01-13 03:31:36.19	336.66	1.37	-48.8	-64.0	3.6	1.51e+00	0	27	104	1065353216	60	56964
2026-01-13 03:31:37.20	336.76	1.33	-48.8	-64.0	3.6	1.51e+00	0	27	104	1065353216	60	57260
2026-01-13 03:31:38.21	336.86	1.28	-48.8	-63.9	3.6	1.51e+00	0	27	104	1065353216	60	56892
2026-01-13 03:31:39.22	336.96	1.24	-48.8	-64.0	3.6	1.51e+00	0	27	104	1065353216	60	57095
2026-01-13 03:31:40.23	337.06	1.20	-48.8	-64.0	3.6	1.51e+00	0	27	104	1065353216	60	57147
2026-01-13 03:31:41.24	337.16	1.16	-48.8	-64.0	3.6	1.51e+00	0	27	104	1065353216	60	57270
2026-01-13 03:31:42.25	337.25	1.12	-48.8	-64.0	3.6	1.51e+00	0	27	104	1065353216	60	57414
2026-01-13 03:31:43.26	337.35	1.07	-48.8	-64.0	3.6	1.51e+00	0	27	104	1065353216	60	57314
2026-01-13 03:31:44.27	337.45	1.03	-48.8	-64.0	3.6	1.51e+00	0	27	104	1065353216	60	57078
2026-01-13 03:31:45.28	337.55	0.99	-48.8	-64.0	3.6	1.51e+00	0	27	104	1065353216	60	57358
2026-01-13 03:31:46.29	337.65	0.95	-48.8	-64.0	3.6	1.51e+00	0	27	104	1065353216	60	57197
2026-01-13 03:31:47.30	337.74	0.90	-48.8	-64.0	3.6	1.51e+00	0	27	104	1065353216	60	57328
2026-01-13 03:31:48.31	337.84	0.86	-48.8	-64.0	3.6	1.51e+00	0	27	104	1065353216	60	57451
2026-01-13 03:31:49.31	337.94	0.82	-48.8	-64.0	3.6	1.51e+00	0	27	104	1065353216	60	57065
2026-01-13 03:31:50.32	338.03	0.78	-48.8	-64.0	3.6	1.51e+00	0	27	104	1065353216	60	57330
2026-01-13 03:31:51.33	338.13	0.74	-48.8	-63.9	3.6	1.51e+00	0	27	104	1065353216	60	56866
2026-01-13 03:31:52.34	338.23	0.69	-48.8	-64.0	3.6	1.51e+00	0	27	104	1065353216	60	57142
2026-01-13 03:31:53.35	338.32	0.65	-48.7	-63.9	3.6	1.51e+00	0	27	104	1065353216	60	56925
2026-01-13 03:31:54.36	338.42	0.61	-48.8	-64.0	3.6	1.51e+00	0	27	104	1065353216	60	57269
2026-01-13 03:31:55.37	338.51	0.57	-48.8	-63.9	3.6	1.51e+00	0	27	104	1065353216	60	56856
