passes_logs/2026/01/13/R4.6S_Anadyr/R4.6S_Anadyr__20260113_202021_SUOMI_NPP_rec.log

#Pass ID: 20260113_202021_SUOMI NPP
#Satellite: SUOMI NPP
#Configuration: NPP
#almurnet v.1.7.20251203
#Start time: 2026-01-13 20:20:24

#Version: 2.2.20231116
#Station: R4.6S_Anadyr
#Location: 177.4865 lon 64.73178 lat
#TLE: 1 37849U 11061A   26012.28456845  .00000093  00000+0  65163-4 0  9999
#TLE: 2 37849  98.7807 314.3566 0002508  68.3553 291.7890 14.19524725736322

#Time	Az	El	Level	Level2	SNR	BER	BlckErr	Temp	State	Recorded	gain1	gain2
2026-01-13 20:20:24.61	66.75	0.16	-48.5	-62.2	3.3	1.54e+00	0	25	0	0	60	46676
2026-01-13 20:20:25.61	66.68	0.21	-48.4	-63.6	3.6	1.51e+00	0	25	104	0	60	54478
2026-01-13 20:20:26.63	66.60	0.26	-48.4	-63.6	3.6	1.51e+00	0	26	104	0	60	54853
2026-01-13 20:20:27.63	66.53	0.31	-48.4	-63.6	3.6	1.51e+00	0	26	104	0	60	54755
2026-01-13 20:20:28.65	66.45	0.36	-48.4	-63.6	3.6	1.51e+00	0	26	104	0	60	54706
2026-01-13 20:20:29.66	66.38	0.41	-48.4	-63.6	3.6	1.51e+00	0	26	104	0	60	54667
2026-01-13 20:20:30.67	66.30	0.46	-48.4	-63.6	3.6	1.51e+00	0	26	104	0	60	54538
2026-01-13 20:20:31.68	66.22	0.51	-48.4	-63.6	3.6	1.51e+00	0	26	104	0	60	54868
2026-01-13 20:20:32.69	66.15	0.56	-48.4	-63.5	3.6	1.51e+00	0	26	104	0	60	54346
2026-01-13 20:20:33.70	66.07	0.61	-48.3	-63.5	3.6	1.51e+00	0	26	104	0	60	54395
2026-01-13 20:20:34.71	65.99	0.66	-48.3	-63.5	3.6	1.51e+00	0	26	104	0	60	54031
2026-01-13 20:20:35.72	65.92	0.71	-48.0	-63.3	3.6	1.51e+00	0	26	104	0	60	53090
2026-01-13 20:20:36.73	65.84	0.76	-48.0	-63.2	3.6	1.51e+00	0	26	104	0	60	52036
2026-01-13 20:20:37.74	65.76	0.81	-47.8	-62.9	3.6	1.51e+00	0	26	104	0	60	50704
2026-01-13 20:20:38.75	65.68	0.86	-47.4	-62.6	3.6	1.51e+00	0	26	104	0	60	48821
2026-01-13 20:20:39.76	65.60	0.91	-46.5	-61.7	3.6	1.51e+00	0	26	104	0	60	43881
2026-01-13 20:20:40.77	65.53	0.96	-46.4	-61.6	3.6	1.51e+00	0	26	104	0	60	43578
2026-01-13 20:20:41.78	65.45	1.01	-46.4	-61.6	3.6	1.51e+00	0	26	104	0	60	43553
2026-01-13 20:20:42.79	65.37	1.06	-46.4	-61.6	3.6	1.51e+00	0	26	104	0	60	43261
2026-01-13 20:20:43.80	65.29	1.11	-46.4	-61.6	3.6	1.51e+00	0	26	104	0	60	43308
2026-01-13 20:20:44.81	65.21	1.17	-46.4	-61.6	3.6	1.51e+00	0	26	104	0	60	43460
2026-01-13 20:20:45.82	65.13	1.22	-46.4	-61.6	3.6	1.51e+00	0	26	104	0	60	43336
2026-01-13 20:20:46.83	65.05	1.27	-46.4	-61.6	3.6	1.51e+00	0	26	104	0	60	43411
2026-01-13 20:20:47.84	64.97	1.32	-46.4	-61.5	3.6	1.51e+00	0	26	104	0	60	43156
2026-01-13 20:20:48.85	64.89	1.37	-46.4	-61.5	3.6	1.51e+00	0	26	104	0	60	43110
2026-01-13 20:20:49.86	64.81	1.42	-46.4	-61.6	3.6	1.51e+00	0	26	104	0	60	43607
2026-01-13 20:20:50.87	64.73	1.47	-46.4	-61.5	3.6	1.51e+00	0	26	104	0	60	43137
2026-01-13 20:20:51.88	64.64	1.52	-46.4	-61.6	3.6	1.51e+00	0	26	104	0	60	43372
2026-01-13 20:20:52.88	64.56	1.57	-46.4	-61.5	3.6	1.51e+00	0	26	104	0	60	43062
2026-01-13 20:20:53.89	64.48	1.62	-46.4	-61.5	3.6	1.51e+00	0	26	104	0	60	42808
2026-01-13 20:20:54.90	64.40	1.67	-46.4	-61.6	3.6	1.51e+00	0	26	104	0	60	43227
2026-01-13 20:20:55.91	64.31	1.72	-46.4	-61.5	3.6	1.51e+00	0	26	104	0	60	43107
2026-01-13 20:20:56.92	64.23	1.77	-46.4	-61.5	3.6	1.51e+00	0	26	104	0	60	43114
2026-01-13 20:20:57.93	64.15	1.82	-46.4	-61.6	3.6	1.51e+00	0	26	104	0	60	43319
2026-01-13 20:20:58.94	64.06	1.88	-46.4	-61.5	3.6	1.51e+00	0	26	104	0	60	43047
2026-01-13 20:20:59.95	63.98	1.93	-46.4	-61.4	3.6	1.51e+00	0	26	104	0	60	42708
2026-01-13 20:21:00.96	63.90	1.98	-46.4	-61.5	3.6	1.51e+00	0	26	104	0	60	42823
2026-01-13 20:21:01.97	63.81	2.03	-46.3	-61.4	3.6	1.51e+00	0	26	104	0	60	42243
2026-01-13 20:21:02.98	63.73	2.08	-46.3	-61.2	3.6	1.51e+00	0	26	104	0	60	41693
2026-01-13 20:21:03.99	63.64	2.13	-46.3	-61.2	3.6	1.51e+00	0	26	104	0	60	41439
2026-01-13 20:21:05.00	63.56	2.18	-46.3	-61.1	3.6	1.51e+00	0	26	104	0	60	41112
2026-01-13 20:21:06.01	63.47	2.23	-46.3	-61.3	3.6	1.51e+00	0	26	104	0	60	41771
2026-01-13 20:21:07.02	63.38	2.28	-46.3	-61.4	3.6	1.51e+00	0	26	104	0	60	42298
2026-01-13 20:21:08.03	63.30	2.34	-46.3	-61.5	3.6	1.51e+00	0	26	104	0	60	42998
2026-01-13 20:21:09.04	63.21	2.39	-46.3	-61.5	3.6	1.51e+00	0	26	104	0	60	42989
2026-01-13 20:21:10.05	63.12	2.44	-46.3	-61.4	3.6	1.51e+00	0	26	104	0	60	42617
2026-01-13 20:21:11.05	63.04	2.49	-46.3	-61.4	3.6	1.51e+00	0	26	104	0	60	42521
2026-01-13 20:21:12.06	62.95	2.54	-46.3	-61.5	3.6	1.51e+00	0	26	104	0	60	42872
2026-01-13 20:21:13.07	62.86	2.59	-46.3	-61.4	3.6	1.51e+00	0	26	104	0	60	42541
2026-01-13 20:21:14.08	62.77	2.64	-46.3	-60.9	3.6	1.51e+00	0	26	104	0	60	40311
2026-01-13 20:21:15.09	62.68	2.70	-46.3	-60.4	3.6	1.51e+00	0	26	104	0	60	38010
2026-01-13 20:21:16.10	62.60	2.75	-46.3	-60.4	3.6	1.51e+00	0	26	104	0	60	37957
2026-01-13 20:21:17.11	62.51	2.80	-46.3	-61.0	3.6	1.51e+00	0	26	104	0	60	40612
2026-01-13 20:21:18.12	62.42	2.85	-46.3	-60.7	3.6	1.51e+00	0	26	104	0	60	39120
2026-01-13 20:21:19.13	62.33	2.90	-46.1	-57.8	4.1	1.50e+00	0	26	104	0	60	27941
2026-01-13 20:21:20.14	62.24	2.95	-45.7	-52.9	6.6	9.38e-01	15	26	0	1048576	60	15945
2026-01-13 20:21:21.15	62.15	3.01	-45.2	-51.0	8.9	6.10e-02	0	26	0	3145728	60	12889
2026-01-13 20:21:22.16	62.05	3.06	-44.6	-49.3	11.1	8.71e-03	70	26	0	5242880	60	10561
2026-01-13 20:21:23.18	61.96	3.11	-46.7	-61.0	3.6	8.29e-01	0	26	104	5242880	60	40480
2026-01-13 20:21:24.18	61.87	3.16	-46.4	-59.7	3.7	1.51e+00	0	26	104	5242880	60	34788
2026-01-13 20:21:25.19	61.78	3.21	-44.5	-49.4	11.3	4.37e-01	92	26	104	5242880	60	10610
2026-01-13 20:21:26.20	61.69	3.26	-41.5	-43.4	17.2	0.00e+00	0	26	0	6291456	56	6759
2026-01-13 20:21:27.21	61.59	3.32	-46.1	-60.3	3.6	1.51e+00	0	26	104	7340032	60	37350
2026-01-13 20:21:28.22	61.50	3.37	-41.7	-43.9	16.1	7.48e-01	28	26	104	7340032	58	6348
2026-01-13 20:21:29.23	61.41	3.42	-41.9	-44.0	16.7	0.00e+00	92	26	0	8388608	56	7250
2026-01-13 20:21:30.24	61.31	3.47	-42.3	-44.6	16.0	0.00e+00	0	26	0	10485760	56	7753
2026-01-13 20:21:31.25	61.22	3.52	-41.8	-44.0	16.8	0.00e+00	92	26	0	11534336	56	7179
2026-01-13 20:21:32.25	61.13	3.58	-42.1	-44.4	16.3	0.00e+00	91	26	0	13631488	56	7512
2026-01-13 20:21:33.26	61.03	3.63	-41.8	-44.0	16.8	0.00e+00	0	26	0	15728640	56	7187
2026-01-13 20:21:34.27	60.94	3.68	-41.6	-43.6	17.1	0.00e+00	90	26	0	17825792	56	6883
2026-01-13 20:21:35.28	60.84	3.73	-41.7	-43.8	17.0	0.00e+00	0	26	0	19922944	56	7049
2026-01-13 20:21:36.29	60.75	3.78	-41.6	-43.7	16.9	0.00e+00	92	26	0	20971520	56	6950
2026-01-13 20:21:37.30	60.65	3.84	-41.8	-43.9	16.8	0.00e+00	0	26	0	23068672	56	7154
2026-01-13 20:21:38.31	60.55	3.89	-42.1	-44.3	16.5	0.00e+00	90	26	0	25165824	56	7496
2026-01-13 20:21:39.32	60.46	3.94	-42.0	-44.2	16.6	0.00e+00	92	26	0	27262976	56	7412
2026-01-13 20:21:40.33	60.36	3.99	-42.1	-44.3	16.5	0.00e+00	0	26	0	29360128	56	7489
2026-01-13 20:21:41.34	60.26	4.04	-42.1	-44.3	16.5	0.00e+00	92	26	0	30408704	56	7492
2026-01-13 20:21:42.35	60.16	4.10	-41.9	-44.0	16.7	0.00e+00	0	26	0	32505856	56	7191
2026-01-13 20:21:43.36	60.07	4.15	-41.8	-43.9	16.9	0.00e+00	92	26	0	34603008	56	7159
2026-01-13 20:21:44.37	59.97	4.20	-42.0	-44.1	16.6	0.00e+00	0	26	0	36700160	56	7297
2026-01-13 20:21:45.38	59.87	4.25	-41.7	-43.8	17.2	0.00e+00	92	26	0	38797312	56	7014
2026-01-13 20:21:46.39	59.77	4.31	-41.5	-43.4	17.5	0.00e+00	0	26	0	39845888	56	6757
2026-01-13 20:21:47.40	59.67	4.36	-41.3	-43.2	17.7	0.00e+00	0	26	0	41943040	56	6567
2026-01-13 20:21:48.41	59.57	4.41	-41.3	-43.1	17.8	0.00e+00	92	26	0	44040192	56	6494
2026-01-13 20:21:49.41	59.47	4.46	-41.3	-43.2	17.6	0.00e+00	0	26	0	46137344	56	6568
2026-01-13 20:21:50.43	59.37	4.52	-41.5	-43.4	17.4	0.00e+00	65	26	0	48234496	56	6728
2026-01-13 20:21:51.44	59.27	4.57	-41.7	-43.8	17.2	0.00e+00	0	26	0	49283072	56	7024
2026-01-13 20:21:52.45	59.17	4.62	-41.7	-43.7	17.3	0.00e+00	92	26	0	51380224	56	6961
2026-01-13 20:21:53.46	59.06	4.67	-41.3	-43.2	17.8	0.00e+00	0	26	0	53477376	56	6602
2026-01-13 20:21:54.47	58.96	4.72	-41.7	-43.7	17.3	0.00e+00	59	26	0	55574528	56	6941
2026-01-13 20:21:55.48	58.86	4.78	-41.3	-43.1	17.9	0.00e+00	92	26	0	57671680	56	6519
2026-01-13 20:21:56.49	58.76	4.83	-41.3	-43.1	17.8	0.00e+00	0	26	0	58720256	56	6528
2026-01-13 20:21:57.49	58.65	4.88	-41.2	-43.0	17.9	0.00e+00	48	26	0	60817408	56	6450
2026-01-13 20:21:58.50	58.55	4.93	-41.0	-42.8	18.2	0.00e+00	0	26	0	62914560	56	6268
2026-01-13 20:21:59.51	58.45	4.99	-41.0	-42.7	18.2	0.00e+00	91	26	0	65011712	56	6229
2026-01-13 20:22:00.52	58.34	5.04	-41.3	-43.1	17.9	0.00e+00	0	26	0	67108864	56	6515
2026-01-13 20:22:01.53	58.24	5.09	-41.4	-43.2	17.8	0.00e+00	92	26	0	68157440	56	6601
2026-01-13 20:22:02.54	58.13	5.14	-41.6	-43.5	17.5	0.00e+00	92	26	0	70254592	56	6835
2026-01-13 20:22:03.54	58.03	5.20	-41.5	-43.4	17.7	0.00e+00	0	26	0	72351744	56	6729
2026-01-13 20:22:04.56	57.92	5.25	-41.3	-43.2	17.9	0.00e+00	5	26	0	74448896	56	6568
2026-01-13 20:22:05.56	57.81	5.30	-41.4	-43.3	17.8	0.00e+00	0	26	0	76546048	56	6671
2026-01-13 20:22:06.57	57.71	5.35	-41.2	-43.0	18.0	0.00e+00	91	26	0	78643200	56	6451
2026-01-13 20:22:07.58	57.60	5.41	-41.4	-43.2	17.9	0.00e+00	0	26	0	79691776	56	6579
2026-01-13 20:22:08.59	57.49	5.46	-41.2	-43.0	18.2	0.00e+00	91	26	0	81788928	56	6397
2026-01-13 20:22:09.60	57.38	5.51	-41.1	-42.8	18.3	0.00e+00	81	26	0	83886080	56	6303
2026-01-13 20:22:10.61	57.27	5.57	-41.3	-43.1	18.0	0.00e+00	0	26	0	85983232	56	6487
2026-01-13 20:22:11.62	57.16	5.62	-41.2	-43.0	18.1	0.00e+00	22	26	0	87031808	56	6451
2026-01-13 20:22:12.63	57.06	5.67	-41.4	-43.2	17.9	0.00e+00	26	26	0	89128960	56	6583
2026-01-13 20:22:13.64	56.95	5.72	-41.3	-43.1	18.0	0.00e+00	92	26	0	91226112	56	6515
2026-01-13 20:22:14.64	56.84	5.78	-41.1	-42.9	18.2	0.00e+00	0	26	0	93323264	56	6342
2026-01-13 20:22:15.65	56.73	5.83	-41.4	-43.2	17.9	0.00e+00	92	26	0	95420416	56	6586
2026-01-13 20:22:16.66	56.62	5.88	-41.1	-42.9	18.2	0.00e+00	1	26	0	96468992	56	6346
2026-01-13 20:22:17.67	56.50	5.93	-40.9	-42.6	18.5	0.00e+00	0	26	0	98566144	56	6129
2026-01-13 20:22:18.68	56.39	5.99	-41.1	-42.8	18.3	0.00e+00	39	26	0	100663296	56	6284
2026-01-13 20:22:19.69	56.28	6.04	-41.2	-43.0	18.1	0.00e+00	0	26	0	102760448	56	6403
2026-01-13 20:22:20.70	56.17	6.09	-41.0	-42.7	18.5	0.00e+00	90	27	0	104857600	56	6216
2026-01-13 20:22:21.71	56.05	6.14	-40.9	-42.6	18.6	0.00e+00	0	27	0	106954752	56	6125
2026-01-13 20:22:22.72	55.94	6.20	-41.0	-42.6	18.5	0.00e+00	90	26	0	108003328	56	6143
2026-01-13 20:22:23.73	55.83	6.25	-40.7	-42.3	18.9	0.00e+00	30	27	0	110100480	54	6629
2026-01-13 20:22:24.73	55.71	6.30	-40.6	-42.2	18.9	0.00e+00	0	26	0	112197632	54	6580
2026-01-13 20:22:25.74	55.60	6.36	-40.4	-42.0	19.1	0.00e+00	92	27	0	114294784	54	6394
2026-01-13 20:22:26.75	55.48	6.41	-40.6	-42.1	18.9	0.00e+00	0	26	0	116391936	54	6515
2026-01-13 20:22:27.76	55.37	6.46	-40.6	-42.1	19.0	0.00e+00	54	27	0	117440512	54	6502
2026-01-13 20:22:28.77	55.25	6.51	-40.1	-41.5	19.6	0.00e+00	0	27	0	119537664	54	6063
2026-01-13 20:22:29.77	55.14	6.57	-40.2	-41.7	19.5	0.00e+00	92	27	0	121634816	54	6203
2026-01-13 20:22:30.78	55.02	6.62	-39.9	-41.3	19.8	0.00e+00	0	27	0	123731968	54	5931
2026-01-13 20:22:31.79	54.90	6.67	-40.1	-41.5	19.6	0.00e+00	35	27	0	125829120	54	6075
2026-01-13 20:22:32.80	54.78	6.72	-39.8	-41.2	19.8	0.00e+00	89	27	0	126877696	54	5869
2026-01-13 20:22:33.81	54.67	6.78	-39.7	-41.1	20.0	0.00e+00	0	27	0	128974848	52	6467
2026-01-13 20:22:34.82	54.55	6.83	-39.9	-41.2	19.9	0.00e+00	5	26	0	131072000	52	6599
2026-01-13 20:22:35.83	54.43	6.88	-39.9	-41.3	19.8	0.00e+00	0	26	0	133169152	52	6659
2026-01-13 20:22:36.84	54.31	6.93	-39.9	-41.3	19.9	0.00e+00	91	27	0	135266304	52	6663
2026-01-13 20:22:37.85	54.19	6.99	-39.9	-41.3	19.8	0.00e+00	0	27	0	136314880	52	6651
2026-01-13 20:22:38.86	54.07	7.04	-40.1	-41.5	19.6	0.00e+00	44	26	0	138412032	52	6842
2026-01-13 20:22:39.87	53.95	7.09	-40.1	-41.5	19.6	0.00e+00	92	27	0	140509184	52	6805
2026-01-13 20:22:40.88	53.83	7.15	-40.2	-41.7	19.5	0.00e+00	0	27	0	142606336	52	6938
2026-01-13 20:22:41.89	53.70	7.20	-40.4	-41.9	19.4	0.00e+00	1	27	0	144703488	52	7109
2026-01-13 20:22:42.90	53.58	7.25	-40.3	-41.7	19.4	0.00e+00	0	27	0	145752064	52	6958
2026-01-13 20:22:43.91	53.46	7.30	-40.0	-41.4	19.8	0.00e+00	77	27	0	147849216	52	6719
2026-01-13 20:22:44.92	53.34	7.36	-40.0	-41.4	19.5	0.00e+00	0	27	0	149946368	52	6697
2026-01-13 20:22:45.93	53.21	7.41	-40.0	-41.4	19.8	0.00e+00	59	27	0	152043520	52	6730
2026-01-13 20:22:46.94	53.09	7.46	-40.1	-41.6	19.7	0.00e+00	92	27	0	154140672	52	6856
2026-01-13 20:22:47.94	52.97	7.51	-40.1	-41.5	19.5	0.00e+00	0	27	0	155189248	52	6839
2026-01-13 20:22:48.95	52.84	7.57	-40.1	-41.5	19.7	0.00e+00	62	27	0	157286400	52	6805
2026-01-13 20:22:49.96	52.72	7.62	-40.0	-41.4	19.9	0.00e+00	0	27	0	159383552	52	6715
2026-01-13 20:22:50.97	52.59	7.67	-39.9	-41.3	19.9	0.00e+00	92	26	0	161480704	52	6633
2026-01-13 20:22:51.98	52.46	7.72	-40.1	-41.5	19.8	0.00e+00	0	27	0	163577856	52	6788
2026-01-13 20:22:52.99	52.34	7.78	-40.2	-41.6	19.7	0.00e+00	48	27	0	164626432	52	6898
2026-01-13 20:22:54.00	52.21	7.83	-40.1	-41.5	19.7	0.00e+00	0	27	0	166723584	52	6830
2026-01-13 20:22:55.01	52.08	7.88	-40.3	-41.7	19.5	0.00e+00	0	27	0	168820736	52	6987
2026-01-13 20:22:56.02	51.95	7.93	-40.3	-41.7	19.6	0.00e+00	81	27	0	170917888	52	6964
2026-01-13 20:22:57.04	51.82	7.99	-40.3	-41.8	19.5	0.00e+00	0	27	0	173015040	52	7016
2026-01-13 20:22:58.05	51.69	8.04	-40.2	-41.6	19.6	0.00e+00	67	27	0	175112192	52	6907
2026-01-13 20:22:59.05	51.57	8.09	-40.1	-41.5	19.8	0.00e+00	0	27	0	176160768	52	6775
2026-01-13 20:23:00.07	51.43	8.14	-40.2	-41.5	19.7	0.00e+00	72	27	0	178257920	52	6840
2026-01-13 20:23:01.07	51.30	8.19	-40.1	-41.5	19.9	0.00e+00	5	27	0	180355072	52	6777
2026-01-13 20:23:02.08	51.17	8.25	-39.9	-41.3	19.9	0.00e+00	0	27	0	182452224	52	6635
2026-01-13 20:23:03.09	51.04	8.30	-40.1	-41.5	19.7	0.00e+00	92	27	0	184549376	52	6833
2026-01-13 20:23:04.10	50.91	8.35	-40.2	-41.6	19.7	0.00e+00	0	27	0	185597952	52	6870
2026-01-13 20:23:05.11	50.78	8.40	-40.1	-41.5	19.8	0.00e+00	83	27	0	187695104	52	6786
2026-01-13 20:23:06.12	50.64	8.45	-40.1	-41.5	19.7	0.00e+00	0	27	0	189792256	52	6786
2026-01-13 20:23:07.13	50.51	8.51	-40.0	-41.3	19.9	0.00e+00	92	27	0	191889408	52	6671
2026-01-13 20:23:08.14	50.38	8.56	-39.8	-41.1	20.1	0.00e+00	0	27	0	193986560	52	6537
2026-01-13 20:23:09.15	50.24	8.61	-40.1	-41.4	19.9	0.00e+00	17	27	0	195035136	52	6748
2026-01-13 20:23:10.16	50.11	8.66	-39.9	-41.2	20.0	0.00e+00	74	27	0	197132288	52	6589
2026-01-13 20:23:11.17	49.97	8.71	-39.9	-41.2	20.2	0.00e+00	0	27	0	199229440	52	6543
2026-01-13 20:23:12.18	49.84	8.76	-39.7	-41.0	20.3	0.00e+00	25	27	0	201326592	52	6415
2026-01-13 20:23:13.19	49.70	8.82	-39.7	-41.0	20.3	0.00e+00	29	27	0	203423744	52	6394
2026-01-13 20:23:14.20	49.56	8.87	-39.8	-41.2	20.1	0.00e+00	92	27	0	204472320	52	6550
2026-01-13 20:23:15.20	49.43	8.92	-39.8	-41.2	20.2	0.00e+00	0	27	0	206569472	52	6541
2026-01-13 20:23:16.22	49.29	8.97	-39.9	-41.2	20.1	0.00e+00	41	27	0	208666624	52	6572
2026-01-13 20:23:17.22	49.15	9.02	-39.9	-41.2	20.1	0.00e+00	92	27	0	210763776	52	6599
2026-01-13 20:23:18.23	49.01	9.07	-40.0	-41.3	20.0	0.00e+00	0	27	0	212860928	52	6671
2026-01-13 20:23:19.24	48.87	9.12	-40.1	-41.5	19.9	0.00e+00	58	27	0	213909504	52	6809
2026-01-13 20:23:20.25	48.73	9.18	-40.2	-41.6	19.7	0.00e+00	0	27	0	216006656	52	6901
2026-01-13 20:23:21.26	48.59	9.23	-40.3	-41.8	19.6	0.00e+00	87	27	0	218103808	52	7049
2026-01-13 20:23:22.27	48.45	9.28	-40.6	-42.1	19.3	0.00e+00	0	27	0	220200960	52	7277
2026-01-13 20:23:23.27	48.31	9.33	-40.6	-42.2	19.2	0.00e+00	92	27	0	222298112	52	7347
2026-01-13 20:23:24.28	48.17	9.38	-40.6	-42.1	19.3	0.00e+00	5	27	0	223346688	52	7310
2026-01-13 20:23:25.29	48.03	9.43	-40.3	-41.8	19.6	0.00e+00	0	27	0	225443840	52	7028
2026-01-13 20:23:26.30	47.88	9.48	-40.4	-41.8	19.6	0.00e+00	90	27	0	227540992	52	7046
2026-01-13 20:23:27.31	47.74	9.53	-40.2	-41.6	19.7	0.00e+00	0	27	0	229638144	52	6875
2026-01-13 20:23:28.32	47.60	9.58	-40.1	-41.5	19.9	0.00e+00	92	27	0	231735296	52	6808
2026-01-13 20:23:29.33	47.45	9.63	-40.0	-41.4	19.9	0.00e+00	0	27	0	232783872	52	6735
2026-01-13 20:23:30.34	47.31	9.68	-40.0	-41.3	20.0	0.00e+00	91	27	0	234881024	52	6633
2026-01-13 20:23:31.35	47.16	9.74	-39.8	-41.1	20.3	0.00e+00	43	27	0	236978176	52	6468
2026-01-13 20:23:32.36	47.02	9.79	-39.6	-40.9	20.4	0.00e+00	0	27	0	239075328	52	6347
2026-01-13 20:23:33.36	46.87	9.84	-39.6	-40.8	20.4	0.00e+00	90	27	0	241172480	52	6316
2026-01-13 20:23:34.37	46.72	9.89	-39.8	-41.1	20.2	0.00e+00	0	27	0	243269632	52	6513
2026-01-13 20:23:35.38	46.58	9.94	-39.7	-41.0	20.4	0.00e+00	90	27	0	244318208	52	6415
2026-01-13 20:23:36.39	46.43	9.99	-39.6	-40.8	20.5	0.00e+00	0	27	0	246415360	52	6298
2026-01-13 20:23:37.40	46.28	10.04	-39.4	-40.6	20.6	0.00e+00	92	27	0	248512512	52	6116
2026-01-13 20:23:38.41	46.13	10.09	-39.4	-40.6	20.8	0.00e+00	0	27	0	250609664	52	6142
2026-01-13 20:23:39.41	45.98	10.14	-39.3	-40.5	20.7	0.00e+00	0	27	0	251658240	52	6074
2026-01-13 20:23:40.42	45.83	10.19	-39.0	-40.2	21.1	0.00e+00	92	27	0	253755392	52	5840
2026-01-13 20:23:41.43	45.68	10.24	-39.0	-40.2	21.1	0.00e+00	0	27	0	255852544	52	5842
2026-01-13 20:23:42.44	45.53	10.29	-39.0	-40.2	21.1	0.00e+00	0	27	0	257949696	52	5848
2026-01-13 20:23:43.45	45.38	10.33	-38.8	-40.0	21.3	0.00e+00	0	27	0	260046848	50	6428
2026-01-13 20:23:44.46	45.23	10.38	-38.7	-39.8	21.4	0.00e+00	92	27	0	261095424	50	6272
2026-01-13 20:23:45.47	45.07	10.43	-38.7	-39.9	21.4	0.00e+00	0	27	0	263192576	50	6322
2026-01-13 20:23:46.48	44.92	10.48	-38.7	-39.8	21.4	0.00e+00	0	27	0	265289728	50	6291
2026-01-13 20:23:47.49	44.77	10.53	-38.5	-39.6	21.6	0.00e+00	87	27	0	267386880	50	6108
2026-01-13 20:23:48.50	44.61	10.58	-38.4	-39.4	21.5	0.00e+00	0	27	0	269484032	50	6017
2026-01-13 20:23:49.51	44.46	10.63	-38.3	-39.4	21.8	0.00e+00	49	27	0	271581184	50	5979
2026-01-13 20:23:50.52	44.30	10.68	-38.1	-39.1	22.0	0.00e+00	0	27	0	272629760	50	5827
2026-01-13 20:23:51.53	44.15	10.73	-38.0	-39.0	22.3	0.00e+00	92	27	0	274726912	50	5714
2026-01-13 20:23:52.54	43.99	10.78	-37.9	-38.9	22.2	0.00e+00	0	27	0	276824064	50	5657
2026-01-13 20:23:53.54	43.84	10.82	-37.9	-38.9	22.1	0.00e+00	61	27	0	278921216	50	5667
2026-01-13 20:23:54.56	43.68	10.87	-38.3	-39.4	21.8	0.00e+00	87	27	0	281018368	50	5972
2026-01-13 20:23:55.57	43.52	10.92	-38.2	-39.3	21.8	0.00e+00	0	27	0	282066944	50	5949
2026-01-13 20:23:56.57	43.36	10.97	-38.3	-39.4	21.7	0.00e+00	3	27	0	284164096	50	5968
2026-01-13 20:23:57.59	43.20	11.02	-38.4	-39.5	21.6	0.00e+00	0	27	0	286261248	50	6068
2026-01-13 20:23:58.59	43.04	11.06	-38.2	-39.3	21.8	0.00e+00	71	27	0	288358400	50	5963
2026-01-13 20:23:59.61	42.88	11.11	-38.3	-39.4	21.8	0.00e+00	0	27	0	290455552	50	5978
2026-01-13 20:24:00.61	42.72	11.16	-38.3	-39.4	21.7	0.00e+00	94	27	0	291504128	50	5978
2026-01-13 20:24:01.62	42.56	11.21	-38.2	-39.4	21.8	0.00e+00	0	27	0	293601280	50	5966
2026-01-13 20:24:02.63	42.40	11.25	-38.3	-39.4	21.8	0.00e+00	0	27	0	295698432	50	5973
2026-01-13 20:24:03.64	42.24	11.30	-38.2	-39.3	21.8	0.00e+00	76	27	0	297795584	50	5925
2026-01-13 20:24:04.64	42.08	11.35	-37.9	-39.0	22.2	0.00e+00	0	27	0	299892736	50	5709
2026-01-13 20:24:05.65	41.91	11.40	-37.7	-38.7	22.3	0.00e+00	76	27	0	300941312	48	6188
2026-01-13 20:24:06.66	41.75	11.44	-37.6	-38.6	22.1	0.00e+00	0	27	0	303038464	48	6169
2026-01-13 20:24:07.67	41.58	11.49	-37.5	-38.5	22.5	0.00e+00	92	27	0	305135616	48	6072
2026-01-13 20:24:08.68	41.42	11.54	-37.5	-38.5	22.5	0.00e+00	0	27	0	307232768	48	6050
2026-01-13 20:24:09.69	41.25	11.58	-37.5	-38.5	22.6	0.00e+00	0	27	0	309329920	48	6034
2026-01-13 20:24:10.70	41.09	11.63	-37.2	-38.2	22.8	0.00e+00	90	27	0	310378496	48	5853
2026-01-13 20:24:11.71	40.92	11.67	-37.4	-38.3	22.6	0.00e+00	0	27	0	312475648	48	5956
2026-01-13 20:24:12.72	40.75	11.72	-37.3	-38.2	22.6	0.00e+00	92	27	0	314572800	48	5895
2026-01-13 20:24:13.73	40.59	11.77	-37.5	-38.4	22.5	0.00e+00	0	27	0	316669952	48	6031
2026-01-13 20:24:14.74	40.42	11.81	-37.5	-38.5	22.3	0.00e+00	76	27	0	318767104	48	6080
2026-01-13 20:24:15.75	40.25	11.86	-37.5	-38.5	22.5	0.00e+00	0	27	0	319815680	48	6103
2026-01-13 20:24:16.76	40.08	11.90	-37.6	-38.6	22.3	0.00e+00	0	27	0	321912832	48	6111
2026-01-13 20:24:17.77	39.91	11.95	-37.8	-38.9	22.2	0.00e+00	5	27	0	324009984	48	6323
2026-01-13 20:24:18.78	39.74	11.99	-37.8	-38.9	22.1	0.00e+00	0	27	0	326107136	48	6342
2026-01-13 20:24:19.79	39.57	12.04	-37.7	-38.8	22.3	0.00e+00	89	27	0	328204288	48	6251
2026-01-13 20:24:20.80	39.40	12.08	-37.6	-38.6	22.3	0.00e+00	0	27	0	329252864	48	6167
2026-01-13 20:24:21.81	39.23	12.13	-37.5	-38.5	22.5	0.00e+00	0	28	0	331350016	48	6039
2026-01-13 20:24:22.82	39.06	12.17	-37.4	-38.4	22.6	0.00e+00	0	27	0	333447168	48	6002
2026-01-13 20:24:23.83	38.88	12.22	-36.9	-37.9	23.0	0.00e+00	0	27	0	335544320	48	5657
2026-01-13 20:24:24.84	38.71	12.26	-36.7	-37.6	23.1	0.00e+00	92	27	0	337641472	48	5488
2026-01-13 20:24:25.85	38.54	12.30	-36.7	-37.6	23.2	0.00e+00	0	27	0	339738624	46	6133
2026-01-13 20:24:26.85	38.36	12.35	-37.0	-37.9	23.0	0.00e+00	44	28	0	340787200	46	6362
2026-01-13 20:24:27.86	38.19	12.39	-37.0	-38.0	22.9	0.00e+00	0	27	0	342884352	46	6404
2026-01-13 20:24:28.87	38.01	12.43	-36.9	-37.8	23.1	0.00e+00	0	27	0	344981504	46	6302
2026-01-13 20:24:29.88	37.84	12.48	-37.0	-37.9	23.1	0.00e+00	0	28	0	347078656	46	6380
2026-01-13 20:24:30.89	37.66	12.52	-37.1	-38.1	22.8	0.00e+00	0	28	0	349175808	46	6508
2026-01-13 20:24:31.90	37.48	12.56	-37.0	-38.0	23.0	0.00e+00	7	27	0	350224384	46	6415
2026-01-13 20:24:32.91	37.31	12.60	-37.3	-38.3	22.7	0.00e+00	0	28	0	352321536	46	6687
2026-01-13 20:24:33.91	37.13	12.65	-37.5	-38.5	22.4	0.00e+00	90	27	0	354418688	46	6845
2026-01-13 20:24:34.92	36.95	12.69	-37.6	-38.6	22.4	0.00e+00	0	28	0	356515840	46	6877
2026-01-13 20:24:35.93	36.77	12.73	-37.7	-38.7	22.3	0.00e+00	0	27	0	358612992	48	6199
2026-01-13 20:24:36.94	36.59	12.77	-37.5	-38.5	22.3	0.00e+00	0	28	0	359661568	48	6099
2026-01-13 20:24:37.95	36.41	12.81	-37.6	-38.6	22.3	0.00e+00	0	28	0	361758720	48	6112
2026-01-13 20:24:38.96	36.23	12.85	-37.6	-38.6	22.0	0.00e+00	67	28	0	363855872	48	6158
2026-01-13 20:24:39.97	36.05	12.90	-37.8	-38.8	22.3	0.00e+00	0	28	0	365953024	48	6292
2026-01-13 20:24:40.97	35.87	12.94	-37.7	-38.8	22.3	0.00e+00	64	28	0	368050176	48	6252
2026-01-13 20:24:41.98	35.69	12.98	-37.8	-38.8	22.3	0.00e+00	0	28	0	369098752	48	6296
2026-01-13 20:24:42.99	35.51	13.02	-37.8	-38.8	22.3	0.00e+00	0	28	0	371195904	48	6301
2026-01-13 20:24:44.00	35.32	13.06	-37.8	-38.9	22.3	0.00e+00	0	28	0	373293056	48	6332
2026-01-13 20:24:45.01	35.14	13.10	-37.8	-38.8	22.3	0.00e+00	0	28	0	375390208	48	6306
2026-01-13 20:24:46.02	34.95	13.14	-38.0	-39.1	22.1	0.00e+00	0	28	0	377487360	48	6467
2026-01-13 20:24:47.03	34.77	13.18	-38.2	-39.3	21.8	0.00e+00	0	28	0	378535936	48	6664
2026-01-13 20:24:48.04	34.59	13.22	-38.4	-39.5	21.7	0.00e+00	0	28	0	380633088	48	6816
2026-01-13 20:24:49.05	34.40	13.26	-38.3	-39.4	21.8	0.00e+00	0	28	0	382730240	48	6744
2026-01-13 20:24:50.06	34.21	13.29	-38.1	-39.2	22.0	0.00e+00	82	28	0	384827392	48	6604
2026-01-13 20:24:51.07	34.03	13.33	-37.6	-38.7	22.3	0.00e+00	0	28	0	386924544	48	6178
2026-01-13 20:24:52.08	33.84	13.37	-37.5	-38.5	22.5	0.00e+00	0	28	0	387973120	48	6087
2026-01-13 20:24:53.09	33.65	13.41	-37.4	-38.4	22.7	0.00e+00	0	28	0	390070272	48	5975
2026-01-13 20:24:54.09	33.47	13.45	-37.4	-38.4	22.6	0.00e+00	0	28	0	392167424	48	6003
2026-01-13 20:24:55.10	33.28	13.48	-37.4	-38.4	22.6	0.00e+00	11	28	0	394264576	48	5985
2026-01-13 20:24:56.11	33.09	13.52	-37.4	-38.3	22.7	0.00e+00	0	28	0	396361728	48	5945
2026-01-13 20:24:57.12	32.90	13.56	-37.5	-38.5	22.6	0.00e+00	91	28	0	397410304	48	6041
2026-01-13 20:24:58.13	32.71	13.60	-37.4	-38.4	22.6	0.00e+00	0	28	0	399507456	48	6025
2026-01-13 20:24:59.14	32.52	13.63	-37.4	-38.4	22.6	0.00e+00	0	28	0	401604608	48	6009
2026-01-13 20:25:00.15	32.33	13.67	-37.4	-38.4	22.7	0.00e+00	10	28	0	403701760	48	5990
2026-01-13 20:25:01.16	32.14	13.70	-37.5	-38.5	22.7	0.00e+00	0	28	0	405798912	48	6067
2026-01-13 20:25:02.17	31.94	13.74	-37.4	-38.4	22.7	0.00e+00	85	28	0	406847488	48	6000
2026-01-13 20:25:03.18	31.75	13.78	-37.1	-38.1	22.9	0.00e+00	0	28	0	408944640	48	5781
2026-01-13 20:25:04.18	31.56	13.81	-37.1	-38.0	22.9	0.00e+00	47	28	0	411041792	48	5732
2026-01-13 20:25:05.19	31.37	13.85	-37.1	-38.1	22.9	0.00e+00	0	28	0	413138944	48	5775
2026-01-13 20:25:06.20	31.17	13.88	-37.0	-38.0	23.0	0.00e+00	3	28	0	415236096	48	5706
2026-01-13 20:25:07.21	30.98	13.91	-37.3	-38.3	22.6	0.00e+00	30	28	0	416284672	48	5903
2026-01-13 20:25:08.22	30.78	13.95	-37.6	-38.7	22.4	0.00e+00	0	28	0	418381824	48	6189
2026-01-13 20:25:09.23	30.59	13.98	-37.6	-38.7	22.4	0.00e+00	89	28	0	420478976	48	6192
2026-01-13 20:25:10.24	30.39	14.02	-37.9	-39.0	22.2	0.00e+00	0	28	0	422576128	48	6404
2026-01-13 20:25:11.25	30.20	14.05	-37.8	-38.9	22.3	0.00e+00	91	28	0	424673280	48	6345
2026-01-13 20:25:12.26	30.00	14.08	-37.6	-38.6	22.4	0.00e+00	0	28	0	425721856	48	6149
2026-01-13 20:25:13.27	29.80	14.11	-37.7	-38.8	22.4	0.00e+00	92	28	0	427819008	48	6262
2026-01-13 20:25:14.28	29.61	14.15	-37.7	-38.8	22.2	0.00e+00	0	28	0	429916160	48	6282
2026-01-13 20:25:15.29	29.41	14.18	-37.4	-38.4	22.6	0.00e+00	0	28	0	432013312	48	5988
2026-01-13 20:25:16.29	29.21	14.21	-37.2	-38.1	22.8	0.00e+00	0	28	0	434110464	48	5820
2026-01-13 20:25:17.30	29.01	14.24	-37.0	-37.9	23.0	0.00e+00	0	28	0	436207616	48	5694
2026-01-13 20:25:18.31	28.82	14.27	-36.7	-37.6	23.3	0.00e+00	43	28	0	437256192	48	5500
2026-01-13 20:25:19.32	28.62	14.30	-36.8	-37.7	23.1	0.00e+00	0	28	0	439353344	46	6190
2026-01-13 20:25:20.33	28.42	14.33	-36.8	-37.7	22.4	0.00e+00	79	28	0	441450496	46	6243
2026-01-13 20:25:21.34	28.22	14.37	-36.7	-37.6	23.1	0.00e+00	0	28	0	443547648	46	6166
2026-01-13 20:25:22.35	28.02	14.40	-36.8	-37.7	23.2	0.00e+00	0	28	0	445644800	46	6219
2026-01-13 20:25:23.36	27.81	14.42	-36.8	-37.7	23.2	0.00e+00	0	28	0	446693376	46	6208
2026-01-13 20:25:24.37	27.61	14.45	-36.7	-37.7	23.3	0.00e+00	0	28	0	448790528	46	6186
2026-01-13 20:25:25.38	27.41	14.48	-36.9	-37.9	23.1	0.00e+00	92	28	0	450887680	46	6339
2026-01-13 20:25:26.39	27.21	14.51	-37.1	-38.0	23.0	0.00e+00	0	28	0	452984832	46	6433
2026-01-13 20:25:27.40	27.01	14.54	-37.0	-38.0	23.1	0.00e+00	88	28	0	455081984	46	6396
2026-01-13 20:25:28.41	26.80	14.57	-36.9	-37.9	23.2	0.00e+00	0	28	0	456130560	46	6332
2026-01-13 20:25:29.41	26.60	14.60	-37.0	-37.9	23.1	0.00e+00	0	28	0	458227712	46	6359
2026-01-13 20:25:30.42	26.40	14.62	-36.8	-37.7	23.2	0.00e+00	0	28	0	460324864	46	6235
2026-01-13 20:25:31.43	26.19	14.65	-36.8	-37.7	23.3	0.00e+00	0	28	0	462422016	46	6191
2026-01-13 20:25:32.44	25.99	14.68	-37.0	-38.0	22.9	0.00e+00	90	28	0	464519168	46	6410
2026-01-13 20:25:33.45	25.78	14.70	-37.2	-38.1	22.6	0.00e+00	0	28	0	465567744	46	6529
2026-01-13 20:25:34.46	25.58	14.73	-37.5	-38.5	22.6	0.00e+00	90	28	0	467664896	46	6789
2026-01-13 20:25:35.47	25.37	14.75	-37.7	-38.8	22.4	0.00e+00	0	28	0	469762048	46	7016
2026-01-13 20:25:36.48	25.17	14.78	-37.7	-38.7	22.4	0.00e+00	0	28	0	471859200	48	6240
2026-01-13 20:25:37.49	24.96	14.80	-37.8	-38.8	22.3	0.00e+00	0	28	0	473956352	48	6306
2026-01-13 20:25:38.50	24.75	14.83	-37.7	-38.7	22.5	0.00e+00	0	28	0	475004928	48	6187
2026-01-13 20:25:39.51	24.55	14.85	-37.5	-38.4	22.7	0.00e+00	70	28	0	477102080	48	6033
2026-01-13 20:25:40.52	24.34	14.88	-37.4	-38.4	22.6	0.00e+00	0	28	0	479199232	48	6028
2026-01-13 20:25:41.53	24.13	14.90	-37.7	-38.7	22.4	0.00e+00	92	28	0	481296384	48	6208
2026-01-13 20:25:42.54	23.92	14.92	-37.9	-39.0	22.2	0.00e+00	0	28	0	483393536	48	6426
2026-01-13 20:25:43.54	23.72	14.95	-38.1	-39.1	22.1	0.00e+00	0	28	0	484442112	48	6508
2026-01-13 20:25:44.56	23.51	14.97	-37.8	-38.8	22.4	0.00e+00	0	28	0	486539264	48	6289
2026-01-13 20:25:45.57	23.30	14.99	-37.8	-38.8	22.1	0.00e+00	0	28	0	488636416	48	6298
2026-01-13 20:25:46.57	23.09	15.01	-37.7	-38.7	22.4	0.00e+00	0	28	0	490733568	48	6217
2026-01-13 20:25:47.58	22.88	15.04	-37.7	-38.7	22.4	0.00e+00	0	28	0	492830720	48	6210
2026-01-13 20:25:48.59	22.67	15.06	-37.8	-38.8	22.2	0.00e+00	78	28	0	493879296	48	6301
2026-01-13 20:25:49.60	22.46	15.08	-37.9	-38.9	22.1	0.00e+00	0	28	0	495976448	48	6389
2026-01-13 20:25:50.61	22.25	15.10	-37.8	-38.8	22.3	0.00e+00	92	28	0	498073600	48	6290
2026-01-13 20:25:51.62	22.04	15.12	-37.8	-38.8	22.2	0.00e+00	0	28	0	500170752	48	6281
2026-01-13 20:25:52.63	21.83	15.14	-37.4	-38.4	22.8	0.00e+00	0	28	0	502267904	48	5968
2026-01-13 20:25:53.64	21.62	15.16	-37.4	-38.3	22.7	0.00e+00	30	28	0	503316480	48	5959
2026-01-13 20:25:54.65	21.40	15.17	-37.1	-38.0	23.0	0.00e+00	0	28	0	505413632	48	5727
2026-01-13 20:25:55.66	21.19	15.19	-36.9	-37.8	23.2	0.00e+00	8	28	0	507510784	48	5613
2026-01-13 20:25:56.67	20.98	15.21	-37.0	-37.9	23.2	0.00e+00	0	28	0	509607936	48	5643
2026-01-13 20:25:57.68	20.77	15.23	-37.1	-38.0	22.9	0.00e+00	60	28	0	511705088	48	5724
2026-01-13 20:25:58.69	20.55	15.25	-37.1	-38.1	22.9	0.00e+00	0	28	0	513802240	48	5772
2026-01-13 20:25:59.69	20.34	15.26	-36.9	-37.8	23.1	0.00e+00	0	28	0	514850816	48	5628
2026-01-13 20:26:00.70	20.13	15.28	-37.2	-38.2	22.8	0.00e+00	0	28	0	516947968	48	5843
2026-01-13 20:26:01.70	19.92	15.30	-37.2	-38.1	23.0	0.00e+00	0	28	0	519045120	48	5808
2026-01-13 20:26:02.71	19.71	15.31	-37.4	-38.3	22.7	0.00e+00	10	28	0	521142272	48	5955
2026-01-13 20:26:03.72	19.49	15.33	-37.3	-38.3	22.7	0.00e+00	0	28	0	522190848	48	5943
2026-01-13 20:26:04.72	19.28	15.34	-37.5	-38.4	22.6	0.00e+00	90	28	0	524288000	48	6020
2026-01-13 20:26:05.73	19.07	15.36	-37.4	-38.3	22.8	0.00e+00	0	28	0	526385152	48	5951
2026-01-13 20:26:06.74	18.85	15.37	-37.4	-38.4	22.6	0.00e+00	0	28	0	528482304	48	6005
2026-01-13 20:26:07.75	18.64	15.38	-37.6	-38.6	22.4	0.00e+00	0	28	0	530579456	48	6172
2026-01-13 20:26:08.75	18.42	15.40	-37.5	-38.5	22.5	0.00e+00	0	28	0	532676608	48	6086
2026-01-13 20:26:09.76	18.21	15.41	-37.5	-38.5	22.4	0.00e+00	78	28	0	533725184	48	6044
2026-01-13 20:26:10.77	17.99	15.42	-37.7	-38.7	22.4	0.00e+00	0	28	0	535822336	48	6215
2026-01-13 20:26:11.78	17.78	15.43	-37.6	-38.6	22.5	0.00e+00	49	28	0	537919488	48	6149
2026-01-13 20:26:12.79	17.56	15.45	-37.8	-38.8	22.2	0.00e+00	0	28	0	540016640	48	6285
2026-01-13 20:26:13.80	17.35	15.46	-37.9	-39.0	22.2	0.00e+00	0	28	0	542113792	48	6408
2026-01-13 20:26:14.81	17.13	15.47	-38.0	-39.1	22.1	0.00e+00	0	28	0	543162368	48	6511
2026-01-13 20:26:15.82	16.91	15.48	-37.8	-38.8	22.3	0.00e+00	0	28	0	545259520	48	6279
2026-01-13 20:26:16.83	16.70	15.49	-38.0	-39.0	22.2	0.00e+00	8	28	0	547356672	48	6432
2026-01-13 20:26:17.84	16.48	15.50	-37.9	-39.0	22.2	0.00e+00	0	28	0	549453824	48	6405
2026-01-13 20:26:18.85	16.26	15.51	-37.8	-38.9	22.2	0.00e+00	46	28	0	551550976	48	6327
2026-01-13 20:26:19.86	16.05	15.52	-37.9	-38.9	22.3	0.00e+00	0	28	0	552599552	48	6390
2026-01-13 20:26:20.87	15.83	15.53	-37.8	-38.8	22.4	0.00e+00	32	28	0	554696704	48	6307
2026-01-13 20:26:21.88	15.61	15.53	-37.7	-38.7	22.3	0.00e+00	0	28	0	556793856	48	6211
2026-01-13 20:26:22.88	15.40	15.54	-37.5	-38.5	22.5	0.00e+00	0	28	0	558891008	48	6091
2026-01-13 20:26:23.89	15.18	15.55	-37.7	-38.7	22.4	0.00e+00	6	28	0	560988160	48	6220
2026-01-13 20:26:24.90	14.97	15.56	-37.6	-38.7	22.4	0.00e+00	0	28	0	562036736	48	6179
2026-01-13 20:26:25.91	14.75	15.56	-37.6	-38.6	22.5	0.00e+00	92	28	0	564133888	48	6160
2026-01-13 20:26:26.92	14.53	15.57	-37.7	-38.7	22.4	0.00e+00	0	28	0	566231040	48	6196
2026-01-13 20:26:27.93	14.31	15.57	-37.5	-38.4	22.7	0.00e+00	50	29	0	568328192	48	6030
2026-01-13 20:26:28.94	14.10	15.58	-37.3	-38.3	22.9	0.00e+00	0	28	0	570425344	48	5903
2026-01-13 20:26:29.95	13.88	15.58	-37.2	-38.2	23.0	0.00e+00	0	28	0	571473920	48	5838
2026-01-13 20:26:30.96	13.66	15.59	-37.2	-38.2	22.8	0.00e+00	0	28	0	573571072	48	5871
2026-01-13 20:26:31.97	13.44	15.59	-37.6	-38.6	22.5	0.00e+00	0	28	0	575668224	48	6119
2026-01-13 20:26:32.97	13.23	15.59	-37.5	-38.5	22.6	0.00e+00	3	28	0	577765376	48	6100
2026-01-13 20:26:33.98	13.01	15.60	-37.6	-38.6	22.6	0.00e+00	0	28	0	579862528	48	6116
2026-01-13 20:26:34.99	12.79	15.60	-37.6	-38.6	22.4	0.00e+00	92	28	0	580911104	48	6169
2026-01-13 20:26:36.00	12.57	15.60	-37.6	-38.6	22.4	0.00e+00	0	28	0	583008256	48	6166
2026-01-13 20:26:37.01	12.35	15.60	-37.7	-38.7	22.5	0.00e+00	0	28	0	585105408	48	6212
2026-01-13 20:26:38.02	12.14	15.61	-37.6	-38.6	22.5	0.00e+00	0	28	0	587202560	48	6144
2026-01-13 20:26:39.03	11.92	15.61	-37.5	-38.5	22.6	0.00e+00	0	28	0	589299712	48	6096
2026-01-13 20:26:40.04	11.70	15.61	-37.2	-38.2	22.8	0.00e+00	0	29	0	590348288	48	5858
2026-01-13 20:26:41.04	11.48	15.61	-37.2	-38.1	22.9	0.00e+00	0	28	0	592445440	48	5801
2026-01-13 20:26:42.05	11.27	15.61	-37.0	-37.9	23.0	0.00e+00	80	29	0	594542592	48	5687
2026-01-13 20:26:43.06	11.05	15.61	-36.9	-37.8	23.1	0.00e+00	0	29	0	596639744	48	5605
2026-01-13 20:26:44.07	10.83	15.61	-36.8	-37.7	23.1	0.00e+00	0	29	0	598736896	48	5559
2026-01-13 20:26:45.08	10.61	15.60	-37.1	-38.0	22.9	0.00e+00	0	29	0	599785472	48	5722
2026-01-13 20:26:46.09	10.39	15.60	-37.2	-38.1	22.9	0.00e+00	0	28	0	601882624	48	5828
2026-01-13 20:26:47.09	10.18	15.60	-37.5	-38.5	22.6	0.00e+00	57	28	0	603979776	48	6069
2026-01-13 20:26:48.10	9.96	15.60	-37.3	-38.3	22.7	0.00e+00	0	29	0	606076928	48	5918
2026-01-13 20:26:49.11	9.74	15.59	-37.8	-38.8	22.5	0.00e+00	92	29	0	608174080	48	6264
2026-01-13 20:26:50.12	9.53	15.59	-37.8	-38.9	22.2	0.00e+00	0	29	0	609222656	48	6329
2026-01-13 20:26:51.13	9.31	15.59	-37.8	-38.9	22.2	0.00e+00	58	29	0	611319808	48	6321
2026-01-13 20:26:52.14	9.09	15.58	-38.0	-39.0	22.3	0.00e+00	0	29	0	613416960	48	6452
2026-01-13 20:26:53.15	8.87	15.58	-38.0	-39.0	22.4	0.00e+00	0	29	0	615514112	48	6439
2026-01-13 20:26:54.16	8.65	15.57	-38.0	-39.1	22.1	0.00e+00	8	28	0	617611264	48	6488
2026-01-13 20:26:55.17	8.44	15.57	-38.2	-39.3	21.9	0.00e+00	0	29	0	618659840	48	6647
2026-01-13 20:26:56.17	8.22	15.56	-38.3	-39.3	21.9	0.00e+00	92	29	0	620756992	48	6681
2026-01-13 20:26:57.18	8.00	15.55	-38.4	-39.5	21.4	0.00e+00	0	28	0	622854144	48	6774
2026-01-13 20:26:58.20	7.79	15.55	-38.6	-39.8	21.6	0.00e+00	67	29	0	624951296	48	7013
2026-01-13 20:26:59.21	7.57	15.54	-38.1	-39.2	21.9	0.00e+00	0	29	0	627048448	48	6596
2026-01-13 20:27:00.21	7.35	15.53	-38.2	-39.3	22.0	0.00e+00	0	29	0	628097024	48	6628
2026-01-13 20:27:01.22	7.14	15.52	-37.8	-38.9	22.3	0.00e+00	0	29	0	630194176	48	6351
2026-01-13 20:27:02.23	6.92	15.51	-37.9	-39.0	22.2	0.00e+00	0	29	0	632291328	48	6408
2026-01-13 20:27:03.24	6.70	15.51	-37.7	-38.8	22.4	0.00e+00	32	29	0	634388480	48	6254
2026-01-13 20:27:04.24	6.49	15.50	-37.9	-39.0	22.3	0.00e+00	0	29	0	636485632	48	6404
2026-01-13 20:27:05.25	6.27	15.49	-37.8	-38.8	22.3	0.00e+00	92	29	0	638582784	48	6270
2026-01-13 20:27:06.26	6.06	15.48	-37.4	-38.4	22.8	0.00e+00	0	29	0	639631360	48	6015
2026-01-13 20:27:07.27	5.84	15.47	-37.5	-38.5	22.7	0.00e+00	0	29	0	641728512	48	6045
2026-01-13 20:27:08.28	5.62	15.46	-37.6	-38.6	22.6	0.00e+00	0	29	0	643825664	48	6105
2026-01-13 20:27:09.29	5.41	15.44	-37.5	-38.6	22.6	0.00e+00	0	29	0	645922816	48	6108
2026-01-13 20:27:10.30	5.19	15.43	-37.6	-38.6	22.5	0.00e+00	90	29	0	648019968	48	6116
2026-01-13 20:27:11.31	4.98	15.42	-37.7	-38.7	22.5	0.00e+00	0	29	0	649068544	48	6194
2026-01-13 20:27:12.32	4.76	15.41	-37.6	-38.6	22.5	0.00e+00	38	29	0	651165696	48	6169
2026-01-13 20:27:13.33	4.55	15.39	-37.7	-38.7	22.5	0.00e+00	0	29	0	653262848	48	6233
2026-01-13 20:27:14.34	4.33	15.38	-37.7	-38.7	22.6	0.00e+00	0	29	0	655360000	48	6222
2026-01-13 20:27:15.35	4.12	15.37	-37.2	-38.2	22.9	0.00e+00	0	29	0	657457152	48	5873
2026-01-13 20:27:16.36	3.90	15.35	-37.0	-37.9	23.1	0.00e+00	0	29	0	658505728	48	5655
2026-01-13 20:27:17.37	3.69	15.34	-37.0	-38.0	23.0	0.00e+00	5	29	0	660602880	48	5714
2026-01-13 20:27:18.37	3.48	15.32	-37.0	-37.9	23.1	0.00e+00	0	29	0	662700032	48	5687
2026-01-13 20:27:19.38	3.26	15.31	-37.0	-37.9	23.0	0.00e+00	92	29	0	664797184	48	5680
2026-01-13 20:27:20.39	3.05	15.29	-37.1	-38.0	22.9	0.00e+00	0	29	0	666894336	48	5743
2026-01-13 20:27:21.40	2.84	15.28	-37.3	-38.3	22.8	0.00e+00	0	29	0	667942912	48	5898
2026-01-13 20:27:22.41	2.62	15.26	-37.2	-38.2	22.9	0.00e+00	0	29	0	670040064	48	5880
2026-01-13 20:27:23.42	2.41	15.24	-37.6	-38.6	22.4	0.00e+00	0	29	0	672137216	48	6144
2026-01-13 20:27:24.43	2.20	15.22	-37.8	-38.8	22.5	0.00e+00	0	29	0	674234368	48	6286
2026-01-13 20:27:25.44	1.99	15.21	-37.7	-38.8	22.5	0.00e+00	0	29	0	676331520	48	6261
2026-01-13 20:27:26.45	1.77	15.19	-38.1	-39.2	22.2	0.00e+00	83	29	0	677380096	48	6597
2026-01-13 20:27:27.45	1.56	15.17	-37.8	-38.8	22.3	0.00e+00	0	29	0	679477248	48	6294
2026-01-13 20:27:28.47	1.35	15.15	-37.9	-39.0	22.3	0.00e+00	55	29	0	681574400	48	6403
2026-01-13 20:27:29.47	1.14	15.13	-38.0	-39.1	22.1	0.00e+00	0	29	0	683671552	48	6503
2026-01-13 20:27:30.48	0.93	15.11	-37.9	-39.0	22.2	0.00e+00	0	29	0	685768704	48	6407
2026-01-13 20:27:31.49	0.72	15.09	-38.1	-39.2	22.1	0.00e+00	0	29	0	686817280	48	6583
2026-01-13 20:27:32.50	0.51	15.07	-38.4	-39.5	21.8	0.00e+00	0	29	0	688914432	48	6799
2026-01-13 20:27:33.51	0.30	15.05	-38.2	-39.3	22.0	0.00e+00	90	29	0	691011584	48	6632
2026-01-13 20:27:34.52	0.09	15.03	-38.3	-39.4	21.9	0.00e+00	0	29	0	693108736	48	6769
2026-01-13 20:27:35.53	359.88	15.01	-38.5	-39.7	21.7	0.00e+00	86	29	0	695205888	50	6191
2026-01-13 20:27:36.54	359.67	14.99	-38.4	-39.5	21.9	0.00e+00	0	29	0	696254464	50	6072
2026-01-13 20:27:37.55	359.46	14.96	-38.2	-39.3	22.1	0.00e+00	0	29	0	698351616	50	5923
2026-01-13 20:27:38.56	359.25	14.94	-37.3	-38.3	22.8	0.00e+00	0	29	0	700448768	48	5918
2026-01-13 20:27:39.57	359.05	14.92	-37.2	-38.2	23.0	0.00e+00	0	29	0	702545920	48	5860
2026-01-13 20:27:40.58	358.84	14.90	-36.7	-37.6	23.3	0.00e+00	14	29	0	704643072	48	5495
2026-01-13 20:27:41.59	358.63	14.87	-36.8	-37.7	23.4	0.00e+00	0	29	0	706740224	46	6200
2026-01-13 20:27:42.60	358.42	14.85	-36.8	-37.7	23.3	0.00e+00	88	29	0	707788800	46	6187
2026-01-13 20:27:43.61	358.22	14.82	-37.1	-38.0	23.0	0.00e+00	0	29	0	709885952	46	6421
2026-01-13 20:27:44.62	358.01	14.80	-36.8	-37.7	23.2	0.00e+00	0	29	0	711983104	46	6209
2026-01-13 20:27:45.63	357.80	14.77	-36.8	-37.7	23.3	0.00e+00	0	29	0	714080256	46	6199
2026-01-13 20:27:46.64	357.60	14.75	-36.9	-37.8	23.3	0.00e+00	0	29	0	716177408	46	6257
2026-01-13 20:27:47.65	357.39	14.72	-36.7	-37.6	23.4	0.00e+00	6	29	0	717225984	46	6143
2026-01-13 20:27:48.66	357.19	14.70	-36.8	-37.7	23.3	0.00e+00	0	29	0	719323136	46	6199
2026-01-13 20:27:49.67	356.98	14.67	-36.8	-37.7	23.1	0.00e+00	92	29	0	721420288	46	6223
2026-01-13 20:27:50.67	356.78	14.64	-37.2	-38.1	22.9	0.00e+00	0	29	0	723517440	46	6524
2026-01-13 20:27:51.68	356.58	14.62	-37.2	-38.2	22.9	0.00e+00	0	29	0	725614592	46	6572
2026-01-13 20:27:52.69	356.37	14.59	-37.5	-38.5	22.6	0.00e+00	0	29	0	726663168	46	6811
2026-01-13 20:27:53.70	356.17	14.56	-37.7	-38.7	22.5	0.00e+00	0	29	0	728760320	46	6996
2026-01-13 20:27:54.71	355.97	14.53	-37.5	-38.5	22.5	0.00e+00	49	29	0	730857472	46	6835
2026-01-13 20:27:55.72	355.76	14.51	-37.5	-38.5	22.6	0.00e+00	0	29	0	732954624	46	6841
2026-01-13 20:27:56.73	355.56	14.48	-37.5	-38.5	22.6	0.00e+00	90	29	0	735051776	46	6808
2026-01-13 20:27:57.74	355.36	14.45	-37.5	-38.5	22.5	0.00e+00	0	29	0	736100352	46	6803
2026-01-13 20:27:58.75	355.16	14.42	-37.4	-38.4	22.7	0.00e+00	0	29	0	738197504	46	6760
2026-01-13 20:27:59.76	354.96	14.39	-37.8	-38.8	22.3	0.00e+00	0	29	0	740294656	48	6300
2026-01-13 20:28:00.77	354.76	14.36	-37.8	-38.9	22.3	0.00e+00	0	29	0	742391808	48	6344
2026-01-13 20:28:01.77	354.56	14.33	-37.9	-38.9	22.2	0.00e+00	15	29	0	744488960	48	6389
2026-01-13 20:28:02.78	354.36	14.30	-38.0	-39.1	22.1	0.00e+00	0	29	0	745537536	48	6503
2026-01-13 20:28:03.79	354.16	14.27	-38.0	-39.1	22.1	0.00e+00	71	29	0	747634688	48	6495
2026-01-13 20:28:04.80	353.96	14.24	-38.0	-39.0	22.4	0.00e+00	0	29	0	749731840	48	6416
2026-01-13 20:28:05.81	353.76	14.20	-37.8	-38.9	22.4	0.00e+00	92	29	0	751828992	48	6318
2026-01-13 20:28:06.82	353.57	14.17	-37.7	-38.7	22.5	0.00e+00	0	29	0	753926144	48	6174
2026-01-13 20:28:07.83	353.37	14.14	-37.4	-38.4	22.7	0.00e+00	0	29	0	754974720	48	5993
2026-01-13 20:28:08.84	353.17	14.11	-37.4	-38.4	22.7	0.00e+00	0	29	0	757071872	48	6016
2026-01-13 20:28:09.85	352.97	14.08	-37.5	-38.5	22.6	0.00e+00	0	29	0	759169024	48	6058
2026-01-13 20:28:10.86	352.78	14.04	-37.6	-38.6	22.6	0.00e+00	5	29	0	761266176	48	6105
2026-01-13 20:28:11.87	352.58	14.01	-37.3	-38.2	23.0	0.00e+00	0	29	0	763363328	48	5858
2026-01-13 20:28:12.88	352.39	13.98	-37.3	-38.2	22.8	0.00e+00	90	29	0	764411904	48	5868
2026-01-13 20:28:13.88	352.19	13.94	-37.4	-38.3	22.8	0.00e+00	0	29	0	766509056	48	5939
2026-01-13 20:28:14.89	352.00	13.91	-37.2	-38.2	22.9	0.00e+00	0	29	0	768606208	48	5855
2026-01-13 20:28:15.90	351.81	13.87	-37.2	-38.2	23.0	0.00e+00	0	29	0	770703360	48	5842
2026-01-13 20:28:16.91	351.61	13.84	-37.0	-37.9	23.2	0.00e+00	0	29	0	772800512	48	5639
2026-01-13 20:28:17.93	351.42	13.80	-36.8	-37.7	23.3	0.00e+00	5	29	0	774897664	48	5536
2026-01-13 20:28:18.94	351.23	13.77	-36.6	-37.5	23.4	0.00e+00	0	29	0	775946240	46	6064
2026-01-13 20:28:19.94	351.04	13.73	-36.5	-37.3	23.5	0.00e+00	64	29	0	778043392	46	5960
2026-01-13 20:28:20.96	350.84	13.70	-36.4	-37.3	23.5	0.00e+00	0	29	0	780140544	46	5928
2026-01-13 20:28:21.96	350.65	13.66	-36.4	-37.2	23.6	0.00e+00	0	29	0	782237696	46	5868
2026-01-13 20:28:22.97	350.46	13.62	-36.6	-37.5	23.4	0.00e+00	0	29	0	784334848	46	6048
2026-01-13 20:28:23.98	350.27	13.59	-36.5	-37.4	23.2	0.00e+00	0	29	0	785383424	46	6015
2026-01-13 20:28:24.99	350.08	13.55	-36.7	-37.6	23.1	0.00e+00	60	29	0	787480576	46	6171
2026-01-13 20:28:26.00	349.89	13.51	-36.9	-37.8	23.2	0.00e+00	0	29	0	789577728	46	6292
2026-01-13 20:28:27.01	349.70	13.48	-37.0	-38.0	23.0	0.00e+00	92	29	0	791674880	46	6409
2026-01-13 20:28:28.02	349.52	13.44	-37.5	-38.4	22.4	0.00e+00	0	29	0	792723456	46	6769
2026-01-13 20:28:29.03	349.33	13.40	-37.5	-38.5	22.6	0.00e+00	0	29	0	794820608	46	6812
2026-01-13 20:28:30.04	349.14	13.36	-37.6	-38.6	22.5	0.00e+00	0	29	0	796917760	46	6922
2026-01-13 20:28:31.05	348.95	13.32	-38.0	-39.1	22.1	0.00e+00	0	29	0	799014912	48	6465
2026-01-13 20:28:32.06	348.77	13.29	-38.2	-39.3	21.9	0.00e+00	0	29	0	801112064	48	6648
2026-01-13 20:28:33.07	348.58	13.25	-38.6	-39.7	21.8	0.00e+00	0	29	0	803209216	48	6981
2026-01-13 20:28:34.08	348.40	13.21	-38.5	-39.6	21.7	0.00e+00	61	29	0	804257792	48	6910
2026-01-13 20:28:35.09	348.21	13.17	-38.7	-39.9	21.6	0.00e+00	0	29	0	806354944	48	7121
2026-01-13 20:28:36.09	348.03	13.13	-38.7	-39.8	21.6	0.00e+00	9	29	0	808452096	50	6288
2026-01-13 20:28:37.10	347.85	13.09	-38.6	-39.7	21.6	0.00e+00	0	29	0	810549248	50	6194
2026-01-13 20:28:38.11	347.66	13.05	-38.3	-39.4	21.9	0.00e+00	0	29	0	812646400	50	5967
2026-01-13 20:28:39.11	347.48	13.01	-38.3	-39.3	21.9	0.00e+00	1	29	0	813694976	50	5944
2026-01-13 20:28:40.12	347.30	12.97	-38.5	-39.6	21.8	0.00e+00	0	29	0	815792128	50	6164
2026-01-13 20:28:41.13	347.12	12.93	-38.3	-39.4	21.8	0.00e+00	27	29	0	817889280	50	5996
2026-01-13 20:28:42.14	346.94	12.89	-38.3	-39.4	21.6	0.00e+00	0	29	0	819986432	50	5980
2026-01-13 20:28:43.15	346.76	12.85	-38.8	-39.9	21.5	0.00e+00	92	29	0	822083584	50	6362
2026-01-13 20:28:44.16	346.58	12.81	-38.6	-39.8	21.5	0.00e+00	6	29	0	823132160	50	6277
2026-01-13 20:28:45.17	346.40	12.76	-38.9	-40.1	21.4	0.00e+00	0	29	0	825229312	50	6501
2026-01-13 20:28:46.18	346.22	12.72	-38.4	-39.5	21.7	0.00e+00	6	29	0	827326464	50	6070
2026-01-13 20:28:47.18	346.04	12.68	-38.3	-39.4	21.9	0.00e+00	0	29	0	829423616	50	6023
2026-01-13 20:28:48.19	345.86	12.64	-38.4	-39.5	21.8	0.00e+00	1	29	0	831520768	50	6041
2026-01-13 20:28:49.20	345.68	12.60	-38.2	-39.2	22.1	7.00e-07	0	29	0	832569344	50	5895
2026-01-13 20:28:50.21	345.51	12.55	-38.3	-39.4	22.2	0.00e+00	92	29	0	834666496	50	5988
2026-01-13 20:28:51.22	345.33	12.51	-38.2	-39.3	21.9	0.00e+00	0	29	0	836763648	50	5940
2026-01-13 20:28:52.23	345.15	12.47	-38.4	-39.6	21.7	0.00e+00	0	29	0	838860800	50	6105
2026-01-13 20:28:53.24	344.98	12.43	-38.2	-39.3	22.0	0.00e+00	0	29	0	840957952	50	5928
2026-01-13 20:28:54.25	344.80	12.38	-38.6	-39.7	21.7	0.00e+00	0	29	0	842006528	50	6201
2026-01-13 20:28:55.26	344.63	12.34	-38.4	-39.5	21.8	0.00e+00	84	29	0	844103680	50	6070
2026-01-13 20:28:56.27	344.45	12.30	-38.1	-39.2	22.1	0.00e+00	0	30	0	846200832	50	5876
2026-01-13 20:28:57.28	344.28	12.25	-37.8	-38.8	22.3	0.00e+00	92	29	0	848297984	50	5603
2026-01-13 20:28:58.29	344.11	12.21	-37.9	-38.9	22.3	0.00e+00	0	29	0	850395136	48	6386
2026-01-13 20:28:59.30	343.94	12.16	-37.6	-38.5	22.5	0.00e+00	0	29	0	851443712	48	6099
2026-01-13 20:29:00.30	343.77	12.12	-37.5	-38.5	22.6	0.00e+00	0	29	0	853540864	48	6046
2026-01-13 20:29:01.31	343.59	12.08	-37.5	-38.5	22.6	0.00e+00	0	29	0	855638016	48	6036
2026-01-13 20:29:02.32	343.42	12.03	-37.8	-38.8	22.2	0.00e+00	3	29	0	857735168	48	6295
2026-01-13 20:29:03.33	343.25	11.99	-38.0	-39.1	22.0	0.00e+00	0	29	0	859832320	48	6475
2026-01-13 20:29:04.34	343.08	11.94	-38.3	-39.4	21.8	0.00e+00	71	30	0	860880896	48	6745
2026-01-13 20:29:05.35	342.91	11.90	-38.7	-39.9	21.4	0.00e+00	0	29	0	862978048	48	7126
2026-01-13 20:29:06.36	342.74	11.85	-38.7	-39.8	21.4	0.00e+00	92	29	0	865075200	50	6274
2026-01-13 20:29:07.37	342.58	11.80	-39.3	-40.5	20.9	0.00e+00	0	29	0	867172352	50	6821
2026-01-13 20:29:08.38	342.41	11.76	-39.3	-40.5	20.9	0.00e+00	0	30	0	869269504	50	6847
2026-01-13 20:29:09.39	342.24	11.71	-39.1	-40.3	21.1	0.00e+00	0	29	0	871366656	50	6688
2026-01-13 20:29:10.40	342.08	11.67	-39.0	-40.2	21.1	0.00e+00	0	30	0	872415232	50	6613
2026-01-13 20:29:11.41	341.91	11.62	-39.0	-40.2	21.1	0.00e+00	80	29	0	874512384	50	6611
2026-01-13 20:29:12.42	341.74	11.57	-39.2	-40.5	21.1	0.00e+00	0	30	0	876609536	50	6771
2026-01-13 20:29:13.43	341.58	11.53	-38.6	-39.7	21.6	0.00e+00	22	30	0	878706688	50	6215
2026-01-13 20:29:14.43	341.42	11.48	-38.9	-40.1	21.2	0.00e+00	0	30	0	880803840	50	6518
2026-01-13 20:29:15.44	341.25	11.44	-38.8	-40.0	21.3	0.00e+00	0	29	0	881852416	50	6417
2026-01-13 20:29:16.45	341.09	11.39	-39.3	-40.6	20.8	0.00e+00	0	30	0	883949568	50	6856
2026-01-13 20:29:17.46	340.93	11.34	-39.7	-41.0	20.4	0.00e+00	0	29	0	886046720	50	7243
2026-01-13 20:29:18.47	340.76	11.29	-40.4	-41.9	19.7	0.00e+00	3	29	0	888143872	52	7115
2026-01-13 20:29:19.48	340.60	11.25	-41.2	-42.9	19.0	0.00e+00	0	30	0	890241024	54	7108
2026-01-13 20:29:20.49	340.44	11.20	-41.4	-43.2	18.4	0.00e+00	70	30	0	891289600	54	7393
2026-01-13 20:29:21.50	340.28	11.15	-41.8	-43.8	18.0	0.00e+00	0	29	0	893386752	54	7906
2026-01-13 20:29:22.51	340.12	11.11	-41.6	-43.5	18.0	0.00e+00	0	30	0	895483904	56	6842
2026-01-13 20:29:23.52	339.96	11.06	-41.6	-43.4	18.3	0.00e+00	0	30	0	897581056	56	6744
2026-01-13 20:29:24.53	339.80	11.01	-41.3	-43.0	18.7	0.00e+00	0	30	0	899678208	56	6442
2026-01-13 20:29:25.54	339.64	10.96	-41.2	-42.9	18.9	0.00e+00	88	30	0	900726784	56	6354
2026-01-13 20:29:26.55	339.48	10.91	-41.0	-42.7	18.9	0.00e+00	0	30	0	902823936	56	6216
2026-01-13 20:29:27.56	339.33	10.87	-40.9	-42.6	18.9	0.00e+00	91	30	0	904921088	54	6901
2026-01-13 20:29:28.56	339.17	10.82	-40.7	-42.3	19.1	0.00e+00	0	30	0	907018240	54	6631
2026-01-13 20:29:29.57	339.01	10.77	-40.5	-42.0	19.5	0.00e+00	0	30	0	909115392	54	6455
2026-01-13 20:29:30.58	338.86	10.72	-40.5	-42.1	19.5	0.00e+00	0	30	0	910163968	54	6475
2026-01-13 20:29:31.59	338.70	10.67	-40.3	-41.8	19.6	0.00e+00	0	30	0	912261120	54	6305
2026-01-13 20:29:32.60	338.55	10.62	-40.1	-41.5	20.0	0.00e+00	65	30	0	914358272	54	6092
2026-01-13 20:29:33.61	338.39	10.57	-39.9	-41.2	20.2	0.00e+00	0	30	0	916455424	54	5892
2026-01-13 20:29:34.62	338.24	10.52	-39.7	-41.0	20.4	0.00e+00	66	30	0	918552576	52	6451
2026-01-13 20:29:35.63	338.08	10.48	-39.4	-40.7	20.6	0.00e+00	0	30	0	919601152	52	6206
2026-01-13 20:29:36.64	337.93	10.43	-39.7	-41.0	20.3	0.00e+00	0	30	0	921698304	52	6431
2026-01-13 20:29:37.65	337.78	10.38	-39.7	-41.1	20.3	0.00e+00	0	30	0	923795456	52	6474
2026-01-13 20:29:38.66	337.63	10.33	-39.3	-40.5	20.7	0.00e+00	0	30	0	925892608	52	6059
2026-01-13 20:29:39.67	337.48	10.28	-39.5	-40.8	20.5	0.00e+00	64	30	0	927989760	52	6299
2026-01-13 20:29:40.68	337.33	10.23	-39.6	-40.9	20.5	0.00e+00	0	30	0	929038336	52	6344
2026-01-13 20:29:41.69	337.18	10.18	-39.6	-40.8	20.7	0.00e+00	78	30	0	931135488	52	6309
2026-01-13 20:29:42.70	337.03	10.13	-39.5	-40.8	20.7	0.00e+00	0	30	0	933232640	52	6255
2026-01-13 20:29:43.71	336.88	10.08	-39.5	-40.8	20.6	0.00e+00	13	30	0	935329792	52	6260
2026-01-13 20:29:44.71	336.73	10.03	-39.2	-40.4	20.9	0.00e+00	0	30	0	937426944	52	6019
2026-01-13 20:29:45.72	336.58	9.98	-39.0	-40.2	21.0	0.00e+00	0	30	0	938475520	52	5880
2026-01-13 20:29:46.72	336.44	9.93	-38.9	-40.1	21.1	0.00e+00	0	30	0	940572672	52	5800
2026-01-13 20:29:47.73	336.29	9.88	-38.9	-40.1	21.1	0.00e+00	0	30	0	942669824	52	5811
2026-01-13 20:29:48.74	336.14	9.83	-38.9	-40.1	21.2	0.00e+00	5	30	0	944766976	52	5794
2026-01-13 20:29:49.75	336.00	9.78	-38.8	-40.0	21.2	0.00e+00	0	30	0	946864128	52	5746
2026-01-13 20:29:50.76	335.85	9.73	-38.8	-40.0	21.2	0.00e+00	78	30	0	947912704	50	6438
2026-01-13 20:29:51.77	335.70	9.68	-38.8	-39.9	21.2	0.00e+00	0	30	0	950009856	50	6388
2026-01-13 20:29:52.78	335.56	9.63	-38.9	-40.1	21.1	0.00e+00	0	30	0	952107008	50	6533
2026-01-13 20:29:53.79	335.42	9.58	-38.9	-40.1	21.0	0.00e+00	0	30	0	954204160	50	6516
2026-01-13 20:29:54.80	335.27	9.53	-39.0	-40.2	21.0	0.00e+00	0	30	0	956301312	50	6585
2026-01-13 20:29:55.81	335.13	9.48	-39.0	-40.3	21.0	0.00e+00	81	30	0	957349888	50	6624
2026-01-13 20:29:56.82	334.99	9.42	-39.2	-40.4	20.9	0.00e+00	0	30	0	959447040	50	6760
2026-01-13 20:29:57.83	334.84	9.37	-39.3	-40.5	20.6	0.00e+00	75	30	0	961544192	50	6824
2026-01-13 20:29:58.84	334.70	9.32	-39.5	-40.8	20.5	0.00e+00	0	30	0	963641344	50	7039
2026-01-13 20:29:59.85	334.56	9.27	-39.4	-40.7	20.6	0.00e+00	0	30	0	965738496	50	6936
2026-01-13 20:30:00.86	334.42	9.22	-39.7	-41.0	20.4	0.00e+00	0	30	0	967835648	50	7194
2026-01-13 20:30:01.87	334.28	9.17	-39.5	-40.8	20.5	0.00e+00	0	30	0	968884224	50	7031
2026-01-13 20:30:02.88	334.14	9.12	-39.4	-40.7	20.6	0.00e+00	5	30	0	970981376	50	6961
2026-01-13 20:30:03.89	334.00	9.07	-39.6	-40.9	20.4	0.00e+00	0	30	0	973078528	50	7096
2026-01-13 20:30:04.90	333.86	9.02	-39.6	-40.9	20.4	0.00e+00	92	30	0	975175680	50	7100
2026-01-13 20:30:05.90	333.73	8.96	-39.5	-40.8	20.4	0.00e+00	0	30	0	977272832	50	7047
2026-01-13 20:30:06.91	333.59	8.91	-39.5	-40.7	20.5	0.00e+00	0	30	0	978321408	50	6993
2026-01-13 20:30:07.93	333.45	8.86	-39.3	-40.6	20.6	0.00e+00	0	30	0	980418560	50	6894
2026-01-13 20:30:08.94	333.32	8.81	-39.5	-40.8	20.4	0.00e+00	0	30	0	982515712	50	7065
2026-01-13 20:30:09.95	333.18	8.76	-39.4	-40.7	20.5	0.00e+00	1	30	0	984612864	50	6984
2026-01-13 20:30:10.95	333.05	8.71	-39.4	-40.6	20.6	0.00e+00	0	30	0	986710016	50	6925
2026-01-13 20:30:11.96	332.91	8.66	-39.1	-40.3	20.9	0.00e+00	89	30	0	987758592	50	6666
2026-01-13 20:30:12.97	332.78	8.60	-39.0	-40.2	21.0	0.00e+00	0	30	0	989855744	50	6583
2026-01-13 20:30:13.98	332.64	8.55	-39.0	-40.2	21.1	0.00e+00	0	30	0	991952896	50	6564
2026-01-13 20:30:14.99	332.51	8.50	-38.5	-39.7	21.4	0.00e+00	0	30	0	994050048	50	6203
2026-01-13 20:30:16.00	332.37	8.45	-38.4	-39.5	21.6	0.00e+00	0	30	0	996147200	50	6062
2026-01-13 20:30:17.01	332.24	8.40	-38.1	-39.2	21.9	0.00e+00	0	30	0	997195776	50	5836
2026-01-13 20:30:18.02	332.11	8.34	-38.1	-39.2	21.8	0.00e+00	0	30	0	999292928	50	5881
2026-01-13 20:30:19.02	331.98	8.29	-37.8	-38.8	22.2	0.00e+00	43	30	0	1001390080	50	5624
2026-01-13 20:30:20.04	331.85	8.24	-37.7	-38.7	22.2	0.00e+00	0	30	0	1003487232	48	6208
2026-01-13 20:30:21.04	331.72	8.19	-37.8	-38.8	22.2	1.50e-06	92	30	0	1005584384	48	6303
2026-01-13 20:30:22.05	331.59	8.14	-37.7	-38.8	22.1	0.00e+00	0	30	0	1006632960	48	6272
2026-01-13 20:30:23.06	331.46	8.08	-37.9	-38.9	22.1	0.00e+00	0	30	0	1008730112	48	6359
2026-01-13 20:30:24.07	331.33	8.03	-38.1	-39.2	21.8	0.00e+00	0	30	0	1010827264	48	6571
2026-01-13 20:30:25.08	331.20	7.98	-38.0	-39.1	21.9	0.00e+00	0	30	0	1012924416	48	6496
2026-01-13 20:30:26.09	331.07	7.93	-38.3	-39.5	21.5	0.00e+00	46	30	0	1015021568	48	6789
2026-01-13 20:30:27.10	330.94	7.88	-38.5	-39.6	21.4	0.00e+00	0	30	0	1016070144	48	6896
2026-01-13 20:30:28.11	330.82	7.82	-38.2	-39.3	21.7	0.00e+00	58	30	0	1018167296	48	6680
2026-01-13 20:30:29.12	330.69	7.77	-38.1	-39.2	21.8	0.00e+00	0	30	0	1020264448	48	6585
2026-01-13 20:30:30.12	330.56	7.72	-38.1	-39.2	21.8	0.00e+00	0	30	0	1022361600	48	6545
2026-01-13 20:30:31.13	330.44	7.67	-37.9	-39.0	21.9	0.00e+00	0	30	0	1024458752	48	6422
2026-01-13 20:30:32.14	330.31	7.61	-37.9	-38.9	22.0	0.00e+00	0	30	0	1025507328	48	6361
2026-01-13 20:30:33.15	330.19	7.56	-37.8	-38.9	22.0	0.00e+00	5	30	0	1027604480	48	6349
2026-01-13 20:30:34.16	330.06	7.51	-37.9	-39.0	22.0	0.00e+00	0	30	0	1029701632	48	6427
2026-01-13 20:30:35.17	329.94	7.46	-38.0	-39.1	21.9	0.00e+00	90	30	0	1031798784	48	6486
2026-01-13 20:30:36.18	329.82	7.40	-38.4	-39.5	21.4	0.00e+00	0	30	0	1033895936	48	6839
2026-01-13 20:30:37.19	329.69	7.35	-38.0	-39.1	21.8	0.00e+00	30	30	0	1035993088	48	6511
2026-01-13 20:30:38.20	329.57	7.30	-38.0	-39.1	21.9	0.00e+00	0	30	0	1037041664	48	6511
2026-01-13 20:30:39.21	329.45	7.25	-38.2	-39.3	21.7	0.00e+00	0	30	0	1039138816	48	6663
2026-01-13 20:30:40.22	329.33	7.19	-38.5	-39.6	21.3	0.00e+00	65	30	0	1041235968	48	6895
2026-01-13 20:30:41.23	329.20	7.14	-38.5	-39.7	21.3	0.00e+00	0	30	0	1043333120	48	6941
2026-01-13 20:30:42.24	329.08	7.09	-38.7	-39.9	21.1	0.00e+00	73	30	0	1045430272	48	7155
2026-01-13 20:30:43.24	328.96	7.04	-38.7	-39.9	21.1	0.00e+00	0	30	0	1046478848	50	6371
2026-01-13 20:30:44.25	328.84	6.98	-38.8	-40.0	21.2	0.00e+00	0	30	0	1048576000	50	6403
2026-01-13 20:30:45.26	328.72	6.93	-38.9	-40.2	21.0	0.00e+00	0	30	0	1050673152	50	6540
2026-01-13 20:30:46.27	328.60	6.88	-39.0	-40.3	20.9	0.00e+00	0	30	0	1052770304	50	6616
2026-01-13 20:30:47.28	328.49	6.83	-38.7	-39.8	21.3	0.00e+00	0	30	0	1054867456	50	6301
2026-01-13 20:30:48.29	328.37	6.77	-38.7	-39.9	21.1	0.00e+00	0	30	0	1055916032	50	6367
2026-01-13 20:30:49.30	328.25	6.72	-38.9	-40.1	20.9	0.00e+00	89	30	0	1058013184	50	6489
2026-01-13 20:30:50.31	328.13	6.67	-38.9	-40.1	21.0	0.00e+00	0	30	0	1060110336	50	6481
2026-01-13 20:30:51.32	328.02	6.62	-39.0	-40.2	20.9	0.00e+00	90	30	0	1062207488	50	6548
2026-01-13 20:30:52.32	327.90	6.56	-38.8	-39.9	21.0	0.00e+00	0	30	0	1064304640	50	6370
2026-01-13 20:30:53.33	327.78	6.51	-38.6	-39.7	21.3	0.00e+00	0	30	0	1065353216	50	6209
2026-01-13 20:30:54.34	327.67	6.46	-38.9	-40.0	21.1	0.00e+00	7	30	0	1067450368	50	6463
2026-01-13 20:30:55.35	327.55	6.41	-38.9	-40.0	21.0	0.00e+00	0	30	0	1069547520	50	6459
2026-01-13 20:30:56.36	327.44	6.35	-38.5	-39.6	21.3	0.00e+00	89	30	0	1071644672	50	6166
2026-01-13 20:30:57.37	327.32	6.30	-38.4	-39.5	21.2	0.00e+00	0	30	0	1073741824	50	6055
2026-01-13 20:30:58.38	327.21	6.25	-38.5	-39.7	21.2	0.00e+00	61	30	0	1074790400	50	6174
2026-01-13 20:30:59.39	327.10	6.19	-38.2	-39.3	21.5	0.00e+00	0	30	0	1076887552	50	5943
2026-01-13 20:31:00.40	326.98	6.14	-38.1	-39.2	21.6	0.00e+00	0	30	0	1078984704	50	5865
2026-01-13 20:31:01.41	326.87	6.09	-38.2	-39.2	21.6	0.00e+00	0	30	0	1081081856	50	5893
2026-01-13 20:31:02.42	326.76	6.04	-38.1	-39.2	21.6	0.00e+00	0	30	0	1083179008	50	5871
2026-01-13 20:31:03.43	326.65	5.98	-37.9	-38.9	21.8	0.00e+00	85	30	0	1084227584	50	5674
2026-01-13 20:31:04.44	326.53	5.93	-38.1	-39.1	21.1	0.00e+00	0	30	0	1086324736	50	5809
2026-01-13 20:31:05.45	326.42	5.88	-38.1	-39.1	21.7	0.00e+00	85	30	0	1088421888	50	5815
2026-01-13 20:31:06.46	326.31	5.83	-38.0	-39.1	21.7	0.00e+00	33	30	0	1090519040	50	5803
2026-01-13 20:31:07.47	326.20	5.77	-38.1	-39.1	21.7	0.00e+00	0	30	0	1092616192	50	5820
2026-01-13 20:31:08.48	326.09	5.72	-38.3	-39.4	21.4	0.00e+00	0	30	0	1093664768	50	6010
2026-01-13 20:31:09.48	325.98	5.67	-38.4	-39.5	21.3	0.00e+00	0	30	0	1095761920	50	6093
2026-01-13 20:31:10.49	325.88	5.62	-39.0	-40.2	20.7	0.00e+00	81	30	0	1097859072	50	6581
2026-01-13 20:31:11.50	325.77	5.56	-39.3	-40.6	20.6	0.00e+00	0	30	0	1099956224	50	6867
2026-01-13 20:31:12.51	325.66	5.51	-39.3	-40.5	20.5	0.00e+00	52	30	0	1102053376	50	6839
2026-01-13 20:31:13.52	325.55	5.46	-39.5	-40.8	20.2	0.00e+00	0	30	0	1104150528	50	7058
2026-01-13 20:31:14.53	325.44	5.41	-39.1	-40.4	20.6	0.00e+00	0	30	0	1105199104	50	6729
2026-01-13 20:31:15.54	325.34	5.35	-39.4	-40.7	20.4	0.00e+00	0	30	0	1107296256	50	6970
2026-01-13 20:31:16.55	325.23	5.30	-39.6	-40.9	20.2	0.00e+00	0	30	0	1109393408	50	7159
2026-01-13 20:31:17.56	325.12	5.25	-39.5	-40.8	20.2	0.00e+00	0	30	0	1111490560	50	7018
2026-01-13 20:31:18.57	325.02	5.20	-39.2	-40.5	20.5	0.00e+00	0	30	0	1112539136	50	6808
2026-01-13 20:31:19.58	324.91	5.14	-39.0	-40.2	20.6	0.00e+00	69	30	0	1114636288	50	6609
2026-01-13 20:31:20.59	324.81	5.09	-39.2	-40.5	20.4	0.00e+00	0	30	0	1116733440	50	6814
2026-01-13 20:31:21.60	324.70	5.04	-39.2	-40.4	20.5	0.00e+00	0	30	0	1118830592	50	6733
2026-01-13 20:31:22.61	324.60	4.98	-39.4	-40.8	20.3	0.00e+00	0	30	0	1120927744	50	7008
2026-01-13 20:31:23.62	324.50	4.93	-39.2	-40.5	20.4	0.00e+00	0	30	0	1121976320	50	6793
2026-01-13 20:31:24.62	324.39	4.88	-38.9	-40.1	20.9	0.00e+00	0	30	0	1124073472	50	6486
2026-01-13 20:31:25.63	324.29	4.83	-38.6	-39.7	21.1	0.00e+00	0	30	0	1126170624	50	6243
2026-01-13 20:31:26.64	324.19	4.78	-38.6	-39.7	21.1	0.00e+00	84	30	0	1128267776	50	6219
2026-01-13 20:31:27.65	324.08	4.72	-38.6	-39.8	21.0	0.00e+00	0	30	0	1130364928	50	6265
2026-01-13 20:31:28.66	323.98	4.67	-38.7	-39.9	20.9	0.00e+00	84	30	0	1132462080	50	6376
2026-01-13 20:31:29.67	323.88	4.62	-38.9	-40.2	20.6	0.00e+00	0	30	0	1133510656	50	6541
2026-01-13 20:31:30.68	323.78	4.57	-39.1	-40.3	20.4	0.00e+00	0	30	0	1135607808	50	6683
2026-01-13 20:31:31.69	323.68	4.51	-39.3	-40.6	20.1	0.00e+00	0	30	0	1137704960	50	6889
2026-01-13 20:31:32.69	323.58	4.46	-39.4	-40.7	20.2	0.00e+00	0	30	0	1139802112	50	6976
2026-01-13 20:31:33.70	323.48	4.41	-39.2	-40.5	20.3	0.00e+00	92	30	0	1141899264	50	6809
2026-01-13 20:31:34.71	323.38	4.36	-39.4	-40.7	20.2	0.00e+00	0	30	0	1142947840	50	6972
2026-01-13 20:31:35.72	323.28	4.30	-39.1	-40.4	20.4	0.00e+00	90	30	0	1145044992	50	6701
2026-01-13 20:31:36.73	323.18	4.25	-39.5	-40.8	20.0	0.00e+00	0	30	0	1147142144	50	7051
2026-01-13 20:31:37.74	323.08	4.20	-39.6	-41.0	19.8	0.00e+00	0	30	0	1149239296	50	7209
2026-01-13 20:31:38.75	322.98	4.15	-39.9	-41.4	19.5	0.00e+00	0	30	0	1151336448	52	6721
2026-01-13 20:31:39.76	322.89	4.10	-40.3	-41.8	19.1	0.00e+00	0	30	0	1152385024	52	7069
2026-01-13 20:31:40.76	322.79	4.04	-40.3	-41.9	19.0	0.00e+00	0	30	0	1154482176	52	7111
2026-01-13 20:31:41.76	322.69	3.99	-40.1	-41.6	19.4	0.00e+00	0	30	0	1156579328	52	6905
2026-01-13 20:31:42.77	322.60	3.94	-40.2	-41.8	19.2	0.00e+00	87	30	0	1158676480	52	7014
2026-01-13 20:31:43.78	322.50	3.89	-40.8	-42.5	18.5	0.00e+00	0	30	0	1160773632	52	7627
2026-01-13 20:31:44.79	322.40	3.84	-40.7	-42.4	18.6	0.00e+00	0	30	0	1161822208	54	6693
2026-01-13 20:31:45.80	322.31	3.78	-40.7	-42.3	18.6	0.00e+00	0	30	0	1163919360	54	6679
2026-01-13 20:31:46.81	322.21	3.73	-40.7	-42.4	18.5	0.00e+00	0	30	0	1166016512	54	6736
2026-01-13 20:31:47.82	322.12	3.68	-40.4	-42.0	18.7	0.00e+00	0	30	0	1168113664	54	6448
2026-01-13 20:31:48.83	322.02	3.63	-40.6	-42.3	18.4	0.00e+00	0	30	0	1170210816	54	6623
2026-01-13 20:31:49.84	321.93	3.58	-40.3	-41.9	19.0	0.00e+00	92	30	0	1171259392	54	6364
2026-01-13 20:31:50.85	321.84	3.52	-40.5	-42.1	18.7	0.00e+00	0	30	0	1173356544	54	6524
2026-01-13 20:31:51.86	321.74	3.47	-40.5	-42.1	18.8	0.00e+00	0	30	0	1175453696	54	6518
2026-01-13 20:31:52.87	321.65	3.42	-40.4	-42.1	18.7	0.00e+00	0	30	0	1177550848	54	6466
2026-01-13 20:31:53.88	321.56	3.37	-40.4	-42.0	18.8	0.00e+00	0	30	0	1179648000	54	6409
2026-01-13 20:31:54.89	321.46	3.32	-40.6	-42.2	18.4	0.00e+00	33	30	0	1180696576	54	6585
2026-01-13 20:31:55.90	321.37	3.26	-40.7	-42.5	18.3	0.00e+00	0	30	0	1182793728	54	6771
2026-01-13 20:31:56.91	321.28	3.21	-40.5	-42.1	18.5	0.00e+00	66	30	0	1184890880	54	6512
2026-01-13 20:31:57.92	321.19	3.16	-41.0	-42.8	18.1	0.00e+00	0	30	0	1186988032	54	7021
2026-01-13 20:31:58.93	321.10	3.11	-41.0	-42.8	17.9	0.00e+00	63	30	0	1189085184	54	7034
2026-01-13 20:31:59.94	321.00	3.06	-41.1	-43.0	17.8	0.00e+00	0	30	0	1190133760	54	7189
2026-01-13 20:32:00.95	320.91	3.01	-41.1	-42.9	17.8	0.00e+00	0	30	0	1192230912	54	7142
2026-01-13 20:32:01.96	320.82	2.95	-47.3	-62.5	3.6	1.44e+00	0	30	104	1193279488	60	47956
2026-01-13 20:32:02.97	320.73	2.90	-47.8	-63.0	3.6	1.51e+00	0	30	104	1193279488	60	50860
2026-01-13 20:32:03.97	320.65	2.85	-48.1	-63.3	3.6	1.51e+00	0	30	104	1193279488	60	52585
