passes_logs/2026/01/13/R4.6S_Anadyr/R4.6S_Anadyr__20260113_233715_SUOMI_NPP_rec.log

#Pass ID: 20260113_233715_SUOMI NPP
#Satellite: SUOMI NPP
#Configuration: NPP
#almurnet v.1.7.20251203
#Start time: 2026-01-13 23:37:16

#Version: 2.2.20231116
#Station: R4.6S_Anadyr
#Location: 177.4865 lon 64.73178 lat
#TLE: 1 37849U 11061A   26013.55331121  .00000059  00000+0  48721-4 0  9992
#TLE: 2 37849  98.7808 315.6144 0002478  66.1553 293.9883 14.19524925736509

#Time	Az	El	Level	Level2	SNR	BER	BlckErr	Temp	State	Recorded	gain1	gain2
2026-01-13 23:37:16.47	139.73	0.07	-48.4	-60.9	3.4	1.52e+00	0	25	0	0	60	38907
2026-01-13 23:37:17.47	139.72	0.13	-48.6	-63.8	3.6	1.51e+00	0	26	104	0	60	55791
2026-01-13 23:37:18.49	139.70	0.19	-48.6	-63.8	3.6	1.51e+00	0	26	104	0	60	55817
2026-01-13 23:37:19.50	139.69	0.25	-48.7	-63.8	3.6	1.51e+00	0	26	104	0	60	55858
2026-01-13 23:37:20.51	139.67	0.31	-48.7	-63.8	3.6	1.51e+00	0	26	104	0	60	56047
2026-01-13 23:37:21.52	139.66	0.37	-48.6	-63.8	3.6	1.51e+00	0	26	104	0	60	56188
2026-01-13 23:37:22.53	139.64	0.44	-48.6	-63.8	3.6	1.51e+00	0	26	104	0	60	55736
2026-01-13 23:37:23.54	139.62	0.50	-48.6	-63.8	3.6	1.51e+00	0	26	104	0	60	55816
2026-01-13 23:37:24.55	139.61	0.56	-48.6	-63.7	3.6	1.51e+00	0	26	104	0	60	55327
2026-01-13 23:37:25.56	139.59	0.62	-48.4	-63.6	3.6	1.51e+00	0	26	104	0	60	54770
2026-01-13 23:37:26.57	139.58	0.68	-48.4	-63.5	3.6	1.51e+00	0	26	104	0	60	54360
2026-01-13 23:37:27.58	139.56	0.74	-48.3	-63.4	3.6	1.51e+00	0	26	104	0	60	53651
2026-01-13 23:37:28.59	139.54	0.80	-48.1	-63.3	3.6	1.51e+00	0	26	104	0	60	53137
2026-01-13 23:37:29.60	139.53	0.87	-47.8	-62.9	3.6	1.51e+00	0	26	104	0	60	50654
2026-01-13 23:37:30.60	139.51	0.93	-47.5	-62.7	3.6	1.51e+00	0	26	104	0	60	49399
2026-01-13 23:37:31.62	139.50	0.99	-47.5	-62.5	3.6	1.51e+00	0	26	104	0	60	48410
2026-01-13 23:37:32.62	139.48	1.05	-47.0	-62.2	3.6	1.51e+00	0	26	104	0	60	46411
2026-01-13 23:37:33.64	139.46	1.11	-46.9	-62.0	3.6	1.51e+00	0	26	104	0	60	45738
2026-01-13 23:37:34.65	139.45	1.18	-46.9	-62.0	3.6	1.51e+00	0	26	104	0	60	45395
2026-01-13 23:37:35.66	139.43	1.24	-46.9	-62.0	3.6	1.51e+00	0	26	104	0	60	45645
2026-01-13 23:37:36.67	139.41	1.30	-46.9	-62.0	3.6	1.51e+00	0	26	104	0	60	45678
2026-01-13 23:37:37.68	139.40	1.37	-46.9	-62.0	3.6	1.51e+00	0	26	104	0	60	45508
2026-01-13 23:37:38.69	139.38	1.43	-46.9	-62.1	3.6	1.51e+00	0	26	104	0	60	45896
2026-01-13 23:37:39.70	139.36	1.49	-46.8	-62.0	3.6	1.51e+00	0	26	104	0	60	45318
2026-01-13 23:37:40.70	139.34	1.55	-46.8	-62.0	3.6	1.51e+00	0	26	104	0	60	45353
2026-01-13 23:37:41.71	139.33	1.62	-46.8	-61.9	3.6	1.51e+00	0	26	104	0	60	45124
2026-01-13 23:37:42.72	139.31	1.68	-46.8	-61.9	3.6	1.51e+00	0	26	104	0	60	44792
2026-01-13 23:37:43.73	139.29	1.75	-46.8	-61.8	3.6	1.51e+00	0	26	104	0	60	44380
2026-01-13 23:37:44.73	139.28	1.81	-46.8	-61.6	3.6	1.51e+00	0	26	104	0	60	43430
2026-01-13 23:37:45.74	139.26	1.87	-46.8	-61.6	3.6	1.51e+00	0	26	104	0	60	43540
2026-01-13 23:37:46.75	139.24	1.94	-46.8	-61.6	3.6	1.51e+00	0	26	104	0	60	43351
2026-01-13 23:37:47.76	139.22	2.00	-46.8	-61.6	3.6	1.51e+00	0	26	104	0	60	43639
2026-01-13 23:37:48.77	139.20	2.07	-46.8	-61.7	3.6	1.51e+00	0	26	104	0	60	44177
2026-01-13 23:37:49.78	139.19	2.13	-46.8	-61.8	3.6	1.51e+00	0	26	104	0	60	44596
2026-01-13 23:37:50.79	139.17	2.19	-46.8	-61.9	3.6	1.51e+00	0	26	104	0	60	45020
2026-01-13 23:37:51.80	139.15	2.26	-46.8	-61.8	3.6	1.51e+00	0	26	104	0	60	44679
2026-01-13 23:37:52.81	139.13	2.32	-46.8	-61.9	3.6	1.51e+00	0	26	104	0	60	44782
2026-01-13 23:37:53.82	139.11	2.39	-46.8	-61.7	3.6	1.51e+00	0	26	104	0	60	44126
2026-01-13 23:37:54.83	139.10	2.46	-46.8	-61.7	3.6	1.51e+00	0	26	104	0	60	43886
2026-01-13 23:37:55.84	139.08	2.52	-46.8	-61.7	3.6	1.51e+00	0	26	104	0	60	43710
2026-01-13 23:37:56.85	139.06	2.59	-46.8	-61.7	3.6	1.51e+00	0	26	104	0	60	43937
2026-01-13 23:37:57.86	139.04	2.65	-46.8	-61.6	3.6	1.51e+00	0	26	104	0	60	43234
2026-01-13 23:37:58.87	139.02	2.72	-46.8	-61.6	3.6	1.51e+00	0	26	104	0	60	43416
2026-01-13 23:37:59.88	139.00	2.78	-46.6	-61.6	3.6	1.51e+00	0	26	104	0	60	43468
2026-01-13 23:38:00.89	138.98	2.85	-46.7	-61.8	3.6	1.51e+00	0	26	104	0	60	44228
2026-01-13 23:38:01.90	138.96	2.92	-46.7	-61.9	3.6	1.51e+00	0	26	104	0	60	44778
2026-01-13 23:38:02.91	138.95	2.98	-46.7	-61.7	3.6	1.51e+00	0	26	104	0	60	43826
2026-01-13 23:38:03.92	138.93	3.05	-46.7	-59.7	3.6	1.51e+00	0	26	104	0	60	34946
2026-01-13 23:38:04.93	138.91	3.12	-46.5	-58.6	4.0	1.49e+00	0	26	104	0	60	30923
2026-01-13 23:38:05.94	138.89	3.18	-46.2	-54.7	5.4	8.28e-01	91	26	0	1048576	60	19587
2026-01-13 23:38:06.95	138.87	3.25	-45.8	-52.4	7.7	1.26e-01	0	26	0	3145728	60	15025
2026-01-13 23:38:07.96	138.85	3.32	-45.3	-50.4	10.1	2.09e-02	91	26	0	4194304	60	12017
2026-01-13 23:38:08.97	138.83	3.39	-44.7	-48.9	11.8	2.08e-03	91	26	0	6291456	60	10093
2026-01-13 23:38:09.98	138.81	3.45	-44.0	-47.5	13.3	1.32e-04	0	26	0	8388608	60	8553
2026-01-13 23:38:10.99	138.79	3.52	-43.3	-46.2	14.6	3.00e-06	91	26	0	10485760	60	7420
2026-01-13 23:38:12.00	138.77	3.59	-43.0	-45.7	15.2	7.00e-07	0	26	0	12582912	60	6950
2026-01-13 23:38:13.01	138.75	3.66	-42.8	-45.3	15.6	0.00e+00	92	26	0	13631488	60	6670
2026-01-13 23:38:14.02	138.73	3.73	-42.4	-44.7	16.0	0.00e+00	0	26	0	15728640	58	6983
2026-01-13 23:38:15.03	138.71	3.79	-47.1	-61.6	3.6	1.02e+00	0	26	104	16777216	60	43591
2026-01-13 23:38:16.04	138.69	3.86	-40.3	-41.8	17.7	1.37e+00	92	26	104	16777216	54	6306
2026-01-13 23:38:17.05	138.67	3.93	-46.9	-61.5	3.6	6.80e-01	0	26	104	16777216	60	42890
2026-01-13 23:38:18.06	138.64	4.00	-46.6	-56.1	5.3	3.50e-02	90	27	0	16777216	60	23075
2026-01-13 23:38:19.07	138.62	4.07	-45.7	-52.4	7.9	7.00e-07	0	26	0	17825792	60	15038
2026-01-13 23:38:20.08	138.60	4.14	-40.5	-42.2	18.4	0.00e+00	70	26	0	19922944	54	6569
2026-01-13 23:38:21.09	138.58	4.21	-41.0	-42.7	18.2	0.00e+00	0	26	0	22020096	54	6990
2026-01-13 23:38:22.10	138.56	4.28	-40.7	-42.4	18.2	0.00e+00	87	26	0	24117248	54	6733
2026-01-13 23:38:23.10	138.54	4.35	-40.4	-42.0	18.9	0.00e+00	12	26	0	26214400	54	6400
2026-01-13 23:38:24.12	138.52	4.42	-40.4	-42.0	18.7	0.00e+00	57	26	0	27262976	54	6404
2026-01-13 23:38:25.13	138.50	4.49	-40.2	-41.8	19.1	0.00e+00	90	27	0	29360128	54	6247
2026-01-13 23:38:26.13	138.47	4.56	-39.7	-41.1	19.7	0.00e+00	0	26	0	31457280	52	6500
2026-01-13 23:38:27.14	138.45	4.63	-39.4	-40.7	20.0	0.00e+00	92	26	0	33554432	52	6229
2026-01-13 23:38:28.15	138.43	4.70	-39.3	-40.7	20.1	0.00e+00	0	26	0	35651584	52	6205
2026-01-13 23:38:29.16	138.41	4.77	-39.3	-40.6	20.1	0.00e+00	92	27	0	36700160	52	6161
2026-01-13 23:38:30.17	138.39	4.84	-39.2	-40.5	20.2	0.00e+00	0	26	0	38797312	52	6035
2026-01-13 23:38:31.18	138.36	4.91	-39.1	-40.4	20.3	0.00e+00	80	26	0	40894464	52	6021
2026-01-13 23:38:32.19	138.34	4.98	-38.9	-40.2	20.5	0.00e+00	92	26	0	42991616	52	5832
2026-01-13 23:38:33.20	138.32	5.06	-38.9	-40.1	20.6	0.00e+00	0	26	0	45088768	52	5799
2026-01-13 23:38:34.21	138.30	5.13	-39.0	-40.2	20.6	0.00e+00	92	26	0	47185920	52	5888
2026-01-13 23:38:35.22	138.27	5.20	-38.7	-39.9	20.7	0.00e+00	0	26	0	48234496	50	6348
2026-01-13 23:38:36.23	138.25	5.27	-38.7	-39.9	20.9	0.00e+00	90	26	0	50331648	50	6348
2026-01-13 23:38:37.24	138.23	5.34	-38.7	-39.8	20.9	0.00e+00	0	26	0	52428800	50	6308
2026-01-13 23:38:38.25	138.20	5.42	-38.8	-40.0	20.8	0.00e+00	92	26	0	54525952	50	6429
2026-01-13 23:38:39.26	138.18	5.49	-38.9	-40.1	20.6	0.00e+00	92	26	0	56623104	50	6490
2026-01-13 23:38:40.27	138.16	5.56	-39.0	-40.2	20.7	0.00e+00	18	27	0	57671680	50	6614
2026-01-13 23:38:41.28	138.13	5.64	-39.0	-40.2	20.6	0.00e+00	92	26	0	59768832	50	6592
2026-01-13 23:38:42.29	138.11	5.71	-38.9	-40.1	20.9	0.00e+00	0	27	0	61865984	50	6530
2026-01-13 23:38:43.30	138.09	5.78	-38.7	-40.0	20.8	0.00e+00	91	27	0	63963136	50	6398
2026-01-13 23:38:44.31	138.06	5.86	-38.6	-39.8	21.0	0.00e+00	0	26	0	66060288	50	6293
2026-01-13 23:38:45.32	138.04	5.93	-38.6	-39.7	21.1	0.00e+00	91	26	0	67108864	50	6237
2026-01-13 23:38:46.33	138.01	6.01	-38.5	-39.7	21.2	0.00e+00	92	26	0	69206016	50	6208
2026-01-13 23:38:47.34	137.99	6.08	-38.5	-39.6	21.2	0.00e+00	0	26	0	71303168	50	6172
2026-01-13 23:38:48.35	137.97	6.16	-38.2	-39.4	21.5	0.00e+00	91	26	0	73400320	50	5974
2026-01-13 23:38:49.36	137.94	6.23	-38.1	-39.2	21.6	0.00e+00	0	27	0	75497472	50	5892
2026-01-13 23:38:50.37	137.92	6.30	-38.2	-39.3	21.6	0.00e+00	91	27	0	76546048	50	5914
2026-01-13 23:38:51.38	137.89	6.38	-37.9	-38.9	21.9	0.00e+00	0	27	0	78643200	50	5680
2026-01-13 23:38:52.39	137.87	6.46	-37.9	-38.9	21.8	0.00e+00	91	26	0	80740352	50	5688
2026-01-13 23:38:53.40	137.84	6.53	-37.6	-38.6	22.2	0.00e+00	92	27	0	82837504	48	6146
2026-01-13 23:38:54.41	137.82	6.61	-37.7	-38.8	22.0	0.00e+00	90	27	0	84934656	48	6275
2026-01-13 23:38:55.42	137.79	6.68	-37.6	-38.7	22.1	0.00e+00	91	26	0	85983232	48	6178
2026-01-13 23:38:56.43	137.76	6.76	-37.6	-38.6	22.3	0.00e+00	0	27	0	88080384	48	6170
2026-01-13 23:38:57.44	137.74	6.84	-37.6	-38.7	22.0	0.00e+00	92	27	0	90177536	48	6174
2026-01-13 23:38:58.45	137.71	6.91	-37.8	-38.9	22.0	0.00e+00	0	27	0	92274688	48	6342
2026-01-13 23:38:59.46	137.69	6.99	-37.7	-38.8	22.0	0.00e+00	92	27	0	94371840	48	6257
2026-01-13 23:39:00.47	137.66	7.07	-37.8	-38.9	22.0	0.00e+00	42	27	0	95420416	48	6339
2026-01-13 23:39:01.48	137.63	7.15	-37.7	-38.8	22.1	0.00e+00	90	27	0	97517568	48	6251
2026-01-13 23:39:02.49	137.61	7.22	-37.7	-38.7	22.1	0.00e+00	92	27	0	99614720	48	6209
2026-01-13 23:39:03.50	137.58	7.30	-37.6	-38.7	22.2	0.00e+00	0	27	0	101711872	48	6186
2026-01-13 23:39:04.51	137.55	7.38	-37.6	-38.6	22.2	0.00e+00	92	27	0	103809024	48	6158
2026-01-13 23:39:05.52	137.53	7.46	-37.5	-38.5	22.3	0.00e+00	0	27	0	104857600	48	6091
2026-01-13 23:39:06.53	137.50	7.54	-37.6	-38.6	22.3	0.00e+00	92	27	0	106954752	48	6117
2026-01-13 23:39:07.54	137.47	7.62	-37.4	-38.4	22.4	0.00e+00	44	27	0	109051904	48	5972
2026-01-13 23:39:08.55	137.44	7.69	-37.3	-38.3	22.5	0.00e+00	92	27	0	111149056	48	5925
2026-01-13 23:39:09.56	137.42	7.77	-37.2	-38.2	22.7	0.00e+00	92	27	0	113246208	48	5832
2026-01-13 23:39:10.57	137.39	7.85	-37.0	-37.9	22.9	0.00e+00	0	27	0	115343360	48	5675
2026-01-13 23:39:11.58	137.36	7.93	-37.0	-37.9	22.9	0.00e+00	71	27	0	116391936	48	5651
2026-01-13 23:39:12.59	137.33	8.01	-37.1	-38.0	22.9	0.00e+00	0	27	0	118489088	48	5732
2026-01-13 23:39:13.60	137.30	8.09	-37.0	-37.9	22.8	0.00e+00	90	27	0	120586240	48	5655
2026-01-13 23:39:14.61	137.27	8.17	-36.9	-37.9	22.9	0.00e+00	0	27	0	122683392	48	5638
2026-01-13 23:39:15.62	137.24	8.26	-37.0	-37.9	22.8	0.00e+00	92	27	0	124780544	48	5677
2026-01-13 23:39:16.63	137.22	8.34	-37.1	-38.1	22.7	0.00e+00	92	27	0	125829120	48	5796
2026-01-13 23:39:17.64	137.19	8.42	-37.2	-38.1	22.7	0.00e+00	0	27	0	127926272	48	5812
2026-01-13 23:39:18.65	137.16	8.50	-37.4	-38.4	22.5	0.00e+00	86	27	0	130023424	48	5968
2026-01-13 23:39:19.66	137.13	8.58	-37.4	-38.4	22.6	0.00e+00	0	27	0	132120576	48	5981
2026-01-13 23:39:20.67	137.10	8.66	-37.2	-38.2	22.6	0.00e+00	90	27	0	134217728	48	5880
2026-01-13 23:39:21.68	137.07	8.75	-37.3	-38.3	22.7	0.00e+00	0	27	0	135266304	48	5902
2026-01-13 23:39:22.69	137.04	8.83	-37.3	-38.3	22.6	0.00e+00	90	27	0	137363456	48	5956
2026-01-13 23:39:23.70	137.01	8.91	-37.3	-38.3	22.7	0.00e+00	83	27	0	139460608	48	5902
2026-01-13 23:39:24.71	136.98	8.99	-37.1	-38.1	22.9	0.00e+00	43	27	0	141557760	48	5776
2026-01-13 23:39:25.72	136.95	9.08	-37.1	-38.0	22.9	0.00e+00	92	27	0	143654912	48	5752
2026-01-13 23:39:26.73	136.92	9.16	-37.1	-38.0	22.8	0.00e+00	0	27	0	144703488	48	5758
2026-01-13 23:39:27.74	136.88	9.25	-37.1	-38.0	22.8	0.00e+00	90	27	0	146800640	48	5738
2026-01-13 23:39:28.75	136.85	9.33	-37.1	-38.0	22.9	0.00e+00	0	27	0	148897792	48	5730
2026-01-13 23:39:29.76	136.82	9.41	-37.1	-38.1	22.9	0.00e+00	92	27	0	150994944	48	5766
2026-01-13 23:39:30.76	136.79	9.50	-37.0	-38.0	22.9	0.00e+00	74	27	0	153092096	48	5719
2026-01-13 23:39:31.77	136.76	9.58	-37.0	-37.9	23.0	0.00e+00	0	27	0	154140672	48	5681
2026-01-13 23:39:32.78	136.73	9.67	-37.1	-38.1	22.8	0.00e+00	90	27	0	156237824	48	5765
2026-01-13 23:39:33.79	136.69	9.76	-36.9	-37.9	23.0	0.00e+00	0	27	0	158334976	48	5643
2026-01-13 23:39:34.80	136.66	9.84	-37.0	-38.0	22.9	0.00e+00	92	27	0	160432128	48	5709
2026-01-13 23:39:35.81	136.63	9.93	-37.2	-38.2	22.8	0.00e+00	0	27	0	162529280	48	5833
2026-01-13 23:39:36.82	136.60	10.01	-37.0	-37.9	22.9	0.00e+00	90	27	0	163577856	48	5665
2026-01-13 23:39:37.83	136.56	10.10	-37.0	-37.9	23.1	0.00e+00	49	27	0	165675008	48	5677
2026-01-13 23:39:38.84	136.53	10.19	-37.0	-38.0	23.0	0.00e+00	16	27	0	167772160	48	5697
2026-01-13 23:39:39.85	136.50	10.28	-36.9	-37.9	23.0	0.00e+00	92	27	0	169869312	48	5653
2026-01-13 23:39:40.86	136.46	10.36	-36.9	-37.9	23.1	0.00e+00	0	27	0	171966464	48	5638
2026-01-13 23:39:41.87	136.43	10.45	-36.9	-37.8	23.1	0.00e+00	92	27	0	173015040	48	5604
2026-01-13 23:39:42.88	136.39	10.54	-37.0	-37.9	23.0	0.00e+00	0	27	0	175112192	48	5682
2026-01-13 23:39:43.89	136.36	10.63	-37.0	-37.9	23.1	0.00e+00	92	27	0	177209344	48	5692
2026-01-13 23:39:44.90	136.33	10.72	-36.8	-37.8	23.1	0.00e+00	31	27	0	179306496	46	6267
2026-01-13 23:39:45.90	136.29	10.81	-36.9	-37.8	23.1	0.00e+00	92	27	0	181403648	46	6317
2026-01-13 23:39:46.91	136.26	10.90	-36.7	-37.6	23.3	0.00e+00	92	27	0	183500800	46	6161
2026-01-13 23:39:47.92	136.22	10.99	-36.7	-37.6	23.3	0.00e+00	0	27	0	184549376	46	6124
2026-01-13 23:39:48.93	136.18	11.08	-36.8	-37.7	23.1	0.00e+00	88	27	0	186646528	46	6231
2026-01-13 23:39:49.94	136.15	11.17	-36.7	-37.7	23.2	0.00e+00	0	27	0	188743680	46	6181
2026-01-13 23:39:50.95	136.11	11.26	-37.0	-37.9	23.1	0.00e+00	92	27	0	190840832	46	6363
2026-01-13 23:39:51.96	136.08	11.35	-37.1	-38.1	23.1	0.00e+00	0	27	0	192937984	46	6471
2026-01-13 23:39:52.97	136.04	11.44	-36.7	-37.7	23.3	0.00e+00	92	27	0	193986560	46	6199
2026-01-13 23:39:53.98	136.00	11.53	-36.6	-37.5	23.4	0.00e+00	92	27	0	196083712	46	6071
2026-01-13 23:39:54.99	135.97	11.62	-36.6	-37.5	23.3	0.00e+00	0	27	0	198180864	46	6063
2026-01-13 23:39:56.00	135.93	11.72	-36.6	-37.5	23.3	0.00e+00	92	27	0	200278016	46	6102
2026-01-13 23:39:57.01	135.89	11.81	-36.5	-37.4	23.4	0.00e+00	0	27	0	202375168	46	6027
2026-01-13 23:39:58.02	135.85	11.90	-36.6	-37.5	23.3	0.00e+00	92	27	0	203423744	46	6072
2026-01-13 23:39:59.03	135.82	12.00	-36.6	-37.6	23.4	0.00e+00	0	27	0	205520896	46	6112
2026-01-13 23:40:00.04	135.78	12.09	-36.6	-37.5	23.5	0.00e+00	92	27	0	207618048	46	6054
2026-01-13 23:40:01.05	135.74	12.18	-36.4	-37.3	23.5	0.00e+00	90	27	0	209715200	46	5920
2026-01-13 23:40:02.06	135.70	12.28	-36.5	-37.4	22.9	0.00e+00	0	27	0	211812352	46	6003
2026-01-13 23:40:03.07	135.66	12.37	-36.5	-37.3	23.5	0.00e+00	92	27	0	212860928	46	5957
2026-01-13 23:40:04.08	135.62	12.47	-36.7	-37.6	23.1	0.00e+00	0	27	0	214958080	46	6169
2026-01-13 23:40:05.09	135.58	12.57	-36.5	-37.4	23.5	0.00e+00	92	27	0	217055232	46	5989
2026-01-13 23:40:06.10	135.54	12.66	-36.5	-37.4	23.4	0.00e+00	0	27	0	219152384	46	5996
2026-01-13 23:40:07.11	135.50	12.76	-36.4	-37.3	23.6	0.00e+00	91	27	0	221249536	46	5938
2026-01-13 23:40:08.12	135.46	12.85	-36.5	-37.4	23.6	0.00e+00	9	27	0	222298112	46	5967
2026-01-13 23:40:09.13	135.42	12.95	-36.5	-37.4	23.7	0.00e+00	92	27	0	224395264	46	5981
2026-01-13 23:40:10.14	135.38	13.05	-36.5	-37.4	23.6	0.00e+00	92	27	0	226492416	46	5977
2026-01-13 23:40:11.15	135.34	13.15	-36.6	-37.5	23.4	0.00e+00	0	27	0	228589568	46	6064
2026-01-13 23:40:12.15	135.30	13.24	-36.5	-37.4	23.6	0.00e+00	92	27	0	230686720	46	5986
2026-01-13 23:40:13.16	135.25	13.34	-36.5	-37.4	23.6	0.00e+00	0	27	0	231735296	46	5992
2026-01-13 23:40:14.18	135.21	13.44	-36.4	-37.3	23.6	0.00e+00	92	27	0	233832448	46	5925
2026-01-13 23:40:15.18	135.17	13.54	-36.6	-37.5	23.5	0.00e+00	92	27	0	235929600	46	6052
2026-01-13 23:40:16.19	135.13	13.64	-36.4	-37.2	23.8	0.00e+00	90	27	0	238026752	46	5893
2026-01-13 23:40:17.20	135.08	13.74	-36.4	-37.3	23.6	0.00e+00	92	27	0	240123904	46	5956
2026-01-13 23:40:18.21	135.04	13.84	-36.4	-37.3	23.7	0.00e+00	33	27	0	241172480	46	5952
2026-01-13 23:40:19.22	135.00	13.94	-36.4	-37.3	23.6	0.00e+00	91	27	0	243269632	46	5941
2026-01-13 23:40:20.23	134.95	14.04	-36.2	-37.1	23.8	0.00e+00	0	27	0	245366784	46	5809
2026-01-13 23:40:21.24	134.91	14.15	-36.2	-37.1	23.8	0.00e+00	91	27	0	247463936	46	5797
2026-01-13 23:40:22.25	134.86	14.25	-36.2	-37.1	23.8	0.00e+00	51	27	0	249561088	46	5762
2026-01-13 23:40:23.26	134.82	14.35	-36.2	-37.0	23.8	0.00e+00	91	27	0	251658240	46	5756
2026-01-13 23:40:24.27	134.77	14.45	-36.0	-36.9	24.0	0.00e+00	91	27	0	252706816	46	5632
2026-01-13 23:40:25.28	134.73	14.56	-36.1	-37.0	23.9	0.00e+00	0	27	0	254803968	46	5699
2026-01-13 23:40:26.29	134.68	14.66	-36.0	-36.9	23.9	0.00e+00	92	27	0	256901120	46	5636
2026-01-13 23:40:27.30	134.63	14.77	-36.1	-37.0	23.9	0.00e+00	0	27	0	258998272	46	5702
2026-01-13 23:40:28.31	134.59	14.87	-36.2	-37.1	23.9	0.00e+00	92	27	0	261095424	46	5796
2026-01-13 23:40:29.32	134.54	14.98	-36.2	-37.1	23.8	0.00e+00	0	27	0	262144000	46	5796
2026-01-13 23:40:30.33	134.49	15.08	-36.1	-37.0	23.9	0.00e+00	92	27	0	264241152	46	5741
2026-01-13 23:40:31.34	134.44	15.19	-36.2	-37.1	23.8	0.00e+00	90	27	0	266338304	46	5798
2026-01-13 23:40:32.34	134.39	15.29	-36.2	-37.1	23.8	0.00e+00	0	27	0	268435456	46	5774
2026-01-13 23:40:33.35	134.35	15.40	-36.2	-37.0	23.8	0.00e+00	92	27	0	270532608	46	5758
2026-01-13 23:40:34.36	134.30	15.51	-36.1	-37.0	24.0	0.00e+00	0	27	0	271581184	46	5727
2026-01-13 23:40:35.37	134.25	15.62	-36.2	-37.0	23.9	0.00e+00	90	27	0	273678336	46	5757
2026-01-13 23:40:36.38	134.20	15.72	-36.2	-37.1	23.9	0.00e+00	0	27	0	275775488	46	5772
2026-01-13 23:40:37.39	134.15	15.83	-36.2	-37.0	23.9	0.00e+00	90	27	0	277872640	46	5751
2026-01-13 23:40:38.40	134.10	15.94	-36.1	-36.9	23.9	0.00e+00	52	27	0	279969792	46	5664
2026-01-13 23:40:39.41	134.05	16.05	-36.1	-37.0	24.0	0.00e+00	47	27	0	281018368	46	5709
2026-01-13 23:40:40.42	133.99	16.16	-36.0	-36.8	24.0	0.00e+00	91	27	0	283115520	46	5614
2026-01-13 23:40:41.43	133.94	16.27	-35.9	-36.8	24.1	0.00e+00	0	27	0	285212672	46	5584
2026-01-13 23:40:42.44	133.89	16.38	-36.0	-36.8	24.1	0.00e+00	92	27	0	287309824	46	5599
2026-01-13 23:40:43.45	133.84	16.50	-36.0	-36.9	24.1	0.00e+00	0	27	0	289406976	46	5640
2026-01-13 23:40:44.46	133.79	16.61	-36.0	-36.9	24.1	0.00e+00	90	27	0	290455552	46	5631
2026-01-13 23:40:45.47	133.73	16.72	-36.0	-36.9	24.0	0.00e+00	36	27	0	292552704	46	5645
2026-01-13 23:40:46.48	133.68	16.83	-36.1	-37.0	23.9	0.00e+00	91	27	0	294649856	46	5726
2026-01-13 23:40:47.49	133.62	16.95	-36.1	-36.9	23.9	0.00e+00	92	27	0	296747008	46	5690
2026-01-13 23:40:48.50	133.57	17.06	-36.0	-36.8	24.1	0.00e+00	0	27	0	298844160	46	5601
2026-01-13 23:40:49.51	133.51	17.18	-36.0	-36.9	24.1	0.00e+00	91	27	0	299892736	46	5645
2026-01-13 23:40:50.52	133.46	17.29	-35.9	-36.8	24.1	0.00e+00	0	27	0	301989888	46	5581
2026-01-13 23:40:51.53	133.40	17.41	-36.0	-36.8	24.1	0.00e+00	92	27	0	304087040	46	5598
2026-01-13 23:40:52.54	133.35	17.52	-36.2	-37.0	23.9	0.00e+00	0	27	0	306184192	46	5731
2026-01-13 23:40:53.56	133.29	17.64	-36.0	-36.8	24.0	0.00e+00	92	27	0	308281344	46	5613
2026-01-13 23:40:54.56	133.23	17.76	-35.9	-36.8	24.1	0.00e+00	90	27	0	309329920	46	5579
2026-01-13 23:40:55.57	133.17	17.87	-36.0	-36.9	24.0	0.00e+00	0	27	0	311427072	46	5636
2026-01-13 23:40:56.58	133.11	17.99	-36.1	-37.0	24.0	0.00e+00	89	27	0	313524224	46	5711
2026-01-13 23:40:57.59	133.06	18.11	-36.1	-37.0	24.0	0.00e+00	0	27	0	315621376	46	5716
2026-01-13 23:40:58.60	133.00	18.23	-36.0	-36.9	24.0	0.00e+00	92	27	0	317718528	46	5661
2026-01-13 23:40:59.61	132.94	18.35	-36.5	-37.4	23.6	0.00e+00	0	27	0	319815680	46	5972
2026-01-13 23:41:00.62	132.88	18.47	-36.5	-37.3	23.7	0.00e+00	92	27	0	320864256	46	5962
2026-01-13 23:41:01.63	132.82	18.59	-36.4	-37.2	23.8	0.00e+00	87	27	0	322961408	46	5870
2026-01-13 23:41:02.64	132.75	18.71	-36.4	-37.3	23.8	0.00e+00	0	27	0	325058560	46	5903
2026-01-13 23:41:03.65	132.69	18.84	-36.4	-37.3	23.8	0.00e+00	92	27	0	327155712	46	5899
2026-01-13 23:41:04.66	132.63	18.96	-36.2	-37.0	23.8	0.00e+00	0	27	0	329252864	46	5758
2026-01-13 23:41:05.66	132.57	19.08	-36.3	-37.2	23.9	0.00e+00	92	27	0	330301440	46	5862
2026-01-13 23:41:06.67	132.50	19.20	-36.1	-36.9	24.1	0.00e+00	0	27	0	332398592	46	5667
2026-01-13 23:41:07.68	132.44	19.33	-36.3	-37.2	23.8	0.00e+00	92	27	0	334495744	46	5837
2026-01-13 23:41:08.69	132.38	19.45	-36.2	-37.1	23.9	0.00e+00	92	27	0	336592896	46	5791
2026-01-13 23:41:09.70	132.31	19.58	-36.4	-37.2	23.9	0.00e+00	3	27	0	338690048	46	5894
2026-01-13 23:41:10.71	132.25	19.71	-36.3	-37.2	23.9	0.00e+00	92	27	0	339738624	46	5831
2026-01-13 23:41:11.72	132.18	19.83	-36.2	-37.1	24.1	0.00e+00	0	27	0	341835776	46	5783
2026-01-13 23:41:12.73	132.11	19.96	-36.4	-37.3	23.7	0.00e+00	92	27	0	343932928	46	5947
2026-01-13 23:41:13.74	132.04	20.09	-36.6	-37.5	23.6	0.00e+00	0	27	0	346030080	46	6070
2026-01-13 23:41:14.75	131.98	20.22	-36.2	-37.0	23.9	0.00e+00	90	27	0	348127232	46	5739
2026-01-13 23:41:15.76	131.91	20.35	-36.3	-37.2	23.8	0.00e+00	92	27	0	349175808	46	5867
2026-01-13 23:41:16.77	131.84	20.48	-36.3	-37.2	23.8	0.00e+00	90	27	0	351272960	46	5862
2026-01-13 23:41:17.78	131.77	20.61	-36.3	-37.1	23.9	0.00e+00	92	27	0	353370112	46	5820
2026-01-13 23:41:18.79	131.70	20.74	-36.2	-37.1	24.0	0.00e+00	0	27	0	355467264	46	5771
2026-01-13 23:41:19.80	131.63	20.87	-36.0	-36.9	24.2	0.00e+00	92	27	0	357564416	46	5632
2026-01-13 23:41:20.81	131.56	21.00	-36.3	-37.2	23.9	0.00e+00	0	27	0	358612992	46	5847
2026-01-13 23:41:21.82	131.48	21.13	-36.6	-37.5	23.6	0.00e+00	92	27	0	360710144	46	6056
2026-01-13 23:41:22.83	131.41	21.27	-36.7	-37.6	23.4	0.00e+00	92	27	0	362807296	46	6163
2026-01-13 23:41:23.84	131.34	21.40	-36.9	-37.9	23.3	0.00e+00	90	27	0	364904448	46	6327
2026-01-13 23:41:24.85	131.26	21.54	-37.0	-37.9	23.4	0.00e+00	92	27	0	367001600	46	6334
2026-01-13 23:41:25.86	131.19	21.67	-36.8	-37.7	23.6	0.00e+00	0	27	0	368050176	46	6226
2026-01-13 23:41:26.87	131.11	21.81	-36.7	-37.6	23.6	0.00e+00	92	27	0	370147328	46	6138
2026-01-13 23:41:27.88	131.04	21.95	-36.4	-37.3	23.9	0.00e+00	0	27	0	372244480	46	5915
2026-01-13 23:41:28.88	130.96	22.08	-36.5	-37.4	23.7	0.00e+00	92	27	0	374341632	46	5981
2026-01-13 23:41:29.89	130.88	22.22	-36.6	-37.5	23.6	0.00e+00	66	27	0	376438784	46	6065
2026-01-13 23:41:30.91	130.80	22.36	-36.5	-37.4	23.7	0.00e+00	92	27	0	377487360	46	5984
2026-01-13 23:41:31.91	130.72	22.50	-36.5	-37.4	23.8	0.00e+00	90	27	0	379584512	46	5971
2026-01-13 23:41:32.92	130.64	22.64	-36.4	-37.2	23.8	0.00e+00	0	27	0	381681664	46	5871
2026-01-13 23:41:33.93	130.56	22.78	-36.8	-37.7	23.6	0.00e+00	92	27	0	383778816	46	6193
2026-01-13 23:41:34.94	130.48	22.92	-37.0	-37.9	23.3	0.00e+00	0	27	0	385875968	46	6378
2026-01-13 23:41:35.95	130.40	23.07	-36.6	-37.4	23.7	0.00e+00	92	27	0	387973120	46	6030
2026-01-13 23:41:36.96	130.32	23.21	-37.1	-38.0	23.2	0.00e+00	52	27	0	389021696	46	6401
2026-01-13 23:41:37.97	130.23	23.35	-37.4	-38.4	23.2	0.00e+00	92	27	0	391118848	46	6706
2026-01-13 23:41:38.98	130.15	23.50	-37.3	-38.2	23.2	0.00e+00	90	27	0	393216000	46	6581
2026-01-13 23:41:39.99	130.06	23.64	-37.3	-38.2	23.1	0.00e+00	52	27	0	395313152	46	6579
2026-01-13 23:41:41.00	129.98	23.79	-37.6	-38.5	23.0	0.00e+00	92	27	0	397410304	46	6834
2026-01-13 23:41:42.01	129.89	23.94	-37.8	-38.8	22.6	0.00e+00	0	27	0	398458880	48	6268
2026-01-13 23:41:43.02	129.80	24.09	-38.3	-39.3	22.4	0.00e+00	91	27	0	400556032	48	6663
2026-01-13 23:41:44.03	129.71	24.23	-37.5	-38.5	23.0	0.00e+00	0	27	0	402653184	48	6036
2026-01-13 23:41:45.04	129.62	24.38	-37.8	-38.8	22.6	0.00e+00	92	27	0	404750336	48	6278
2026-01-13 23:41:46.05	129.53	24.53	-38.0	-39.0	22.4	0.00e+00	92	27	0	406847488	48	6428
2026-01-13 23:41:47.06	129.44	24.69	-38.1	-39.1	22.5	0.00e+00	43	27	0	407896064	48	6517
2026-01-13 23:41:48.07	129.35	24.84	-38.2	-39.3	22.4	0.00e+00	91	27	0	409993216	48	6641
2026-01-13 23:41:49.08	129.25	24.99	-38.0	-39.0	22.6	0.00e+00	0	27	0	412090368	48	6419
2026-01-13 23:41:50.09	129.16	25.14	-38.3	-39.3	22.4	0.00e+00	66	27	0	414187520	48	6663
2026-01-13 23:41:51.09	129.07	25.30	-37.8	-38.8	22.8	0.00e+00	0	27	0	416284672	48	6254
2026-01-13 23:41:52.10	128.97	25.45	-37.7	-38.7	22.9	0.00e+00	92	27	0	417333248	48	6193
2026-01-13 23:41:53.11	128.87	25.61	-37.7	-38.7	22.7	0.00e+00	92	27	0	419430400	48	6194
2026-01-13 23:41:54.12	128.77	25.76	-37.8	-38.8	22.8	0.00e+00	92	27	0	421527552	48	6267
2026-01-13 23:41:55.13	128.67	25.92	-37.7	-38.7	22.7	0.00e+00	92	27	0	423624704	48	6192
2026-01-13 23:41:56.14	128.57	26.08	-37.9	-38.8	22.9	0.00e+00	0	27	0	425721856	48	6308
2026-01-13 23:41:57.14	128.47	26.24	-37.2	-38.1	23.3	0.00e+00	92	27	0	426770432	48	5781
2026-01-13 23:41:58.15	128.37	26.40	-37.6	-38.5	23.1	0.00e+00	0	27	0	428867584	48	6091
2026-01-13 23:41:59.16	128.27	26.56	-37.8	-38.8	22.8	0.00e+00	92	27	0	430964736	48	6256
2026-01-13 23:42:00.17	128.16	26.72	-37.6	-38.5	23.0	0.00e+00	3	27	0	433061888	48	6085
2026-01-13 23:42:01.18	128.06	26.88	-37.7	-38.7	22.8	0.00e+00	90	27	0	435159040	48	6182
2026-01-13 23:42:02.19	127.95	27.04	-38.0	-39.0	22.5	0.00e+00	92	27	0	436207616	48	6430
2026-01-13 23:42:03.19	127.85	27.21	-38.4	-39.4	22.3	0.00e+00	0	27	0	438304768	48	6764
2026-01-13 23:42:04.21	127.74	27.37	-38.3	-39.4	22.3	0.00e+00	92	27	0	440401920	48	6699
2026-01-13 23:42:05.22	127.63	27.54	-38.3	-39.3	22.1	0.00e+00	33	27	0	442499072	48	6688
2026-01-13 23:42:06.22	127.52	27.70	-38.5	-39.5	22.2	0.00e+00	92	27	0	444596224	50	6059
2026-01-13 23:42:07.23	127.40	27.87	-38.4	-39.4	22.3	0.00e+00	55	27	0	445644800	50	6004
2026-01-13 23:42:08.24	127.29	28.04	-38.7	-39.7	21.9	0.00e+00	92	27	0	447741952	50	6228
2026-01-13 23:42:09.25	127.17	28.21	-38.8	-39.9	22.1	0.00e+00	90	27	0	449839104	50	6323
2026-01-13 23:42:10.27	127.06	28.38	-38.7	-39.7	22.3	0.00e+00	0	27	0	451936256	50	6208
2026-01-13 23:42:11.27	126.94	28.55	-38.6	-39.6	22.1	0.00e+00	80	27	0	454033408	50	6143
2026-01-13 23:42:12.28	126.82	28.72	-39.1	-40.2	21.7	0.00e+00	0	27	0	456130560	50	6547
2026-01-13 23:42:13.29	126.70	28.90	-38.8	-39.8	21.9	0.00e+00	91	27	0	457179136	50	6305
2026-01-13 23:42:14.30	126.58	29.07	-39.2	-40.3	21.6	0.00e+00	0	27	0	459276288	50	6679
2026-01-13 23:42:15.31	126.46	29.25	-39.5	-40.6	21.3	0.00e+00	92	27	0	461373440	50	6900
2026-01-13 23:42:16.32	126.33	29.42	-39.3	-40.4	21.5	0.00e+00	90	27	0	463470592	50	6733
2026-01-13 23:42:17.33	126.21	29.60	-39.4	-40.5	21.2	0.00e+00	0	27	0	464519168	50	6844
2026-01-13 23:42:18.34	126.08	29.78	-38.8	-39.8	22.0	0.00e+00	92	27	0	466616320	50	6283
2026-01-13 23:42:19.35	125.95	29.96	-39.5	-40.6	21.3	0.00e+00	0	27	0	468713472	50	6920
2026-01-13 23:42:20.36	125.82	30.14	-39.6	-40.8	21.2	0.00e+00	90	27	0	470810624	52	6286
2026-01-13 23:42:21.37	125.69	30.32	-39.1	-40.2	21.7	0.00e+00	0	27	0	472907776	50	6544
2026-01-13 23:42:22.38	125.56	30.50	-39.0	-40.1	21.7	0.00e+00	90	27	0	473956352	50	6531
2026-01-13 23:42:23.39	125.42	30.68	-39.0	-40.1	21.8	0.00e+00	92	27	0	476053504	50	6484
2026-01-13 23:42:24.40	125.29	30.87	-38.9	-40.0	21.8	0.00e+00	0	27	0	478150656	50	6430
2026-01-13 23:42:25.40	125.15	31.05	-38.8	-39.8	22.1	0.00e+00	90	27	0	480247808	50	6301
2026-01-13 23:42:26.42	125.01	31.24	-38.0	-39.0	22.7	0.00e+00	0	27	0	482344960	50	5703
2026-01-13 23:42:27.42	124.87	31.42	-38.6	-39.7	22.1	0.00e+00	78	27	0	484442112	50	6205
2026-01-13 23:42:28.43	124.73	31.61	-38.5	-39.5	22.3	0.00e+00	0	27	0	485490688	50	6086
2026-01-13 23:42:29.44	124.59	31.80	-38.4	-39.5	22.3	0.00e+00	90	27	0	487587840	50	6062
2026-01-13 23:42:30.46	124.44	31.99	-38.7	-39.7	21.9	0.00e+00	92	27	0	489684992	50	6240
2026-01-13 23:42:31.47	124.29	32.18	-38.5	-39.5	22.2	0.00e+00	0	27	0	491782144	50	6069
2026-01-13 23:42:32.47	124.14	32.37	-37.9	-38.9	22.8	0.00e+00	92	27	0	493879296	48	6323
2026-01-13 23:42:33.48	123.99	32.56	-37.9	-38.9	22.9	0.00e+00	0	27	0	494927872	48	6323
2026-01-13 23:42:34.49	123.84	32.76	-37.7	-38.6	23.0	0.00e+00	76	27	0	497025024	48	6157
2026-01-13 23:42:35.50	123.68	32.95	-38.5	-39.5	22.4	0.00e+00	0	27	0	499122176	48	6832
2026-01-13 23:42:36.51	123.53	33.15	-38.8	-39.9	21.8	0.00e+00	92	27	0	501219328	50	6338
2026-01-13 23:42:37.52	123.37	33.34	-39.4	-40.5	21.4	0.00e+00	92	27	0	503316480	50	6820
2026-01-13 23:42:38.53	123.21	33.54	-39.7	-40.8	21.0	0.00e+00	65	27	0	504365056	50	7076
2026-01-13 23:42:39.54	123.05	33.74	-39.9	-41.1	21.2	0.00e+00	92	27	0	506462208	52	6531
2026-01-13 23:42:40.55	122.88	33.94	-39.1	-40.2	21.7	0.00e+00	0	27	0	508559360	52	5889
2026-01-13 23:42:41.56	122.71	34.14	-38.8	-39.8	22.1	0.00e+00	87	27	0	510656512	52	5629
2026-01-13 23:42:42.57	122.55	34.34	-38.8	-39.8	21.5	0.00e+00	0	27	0	512753664	50	6265
2026-01-13 23:42:43.58	122.37	34.54	-39.2	-40.3	21.9	0.00e+00	92	27	0	513802240	50	6638
2026-01-13 23:42:44.59	122.20	34.75	-39.7	-40.9	21.2	0.00e+00	20	27	0	515899392	50	7114
2026-01-13 23:42:45.60	122.03	34.95	-40.5	-41.9	20.3	0.00e+00	92	27	0	517996544	52	7101
2026-01-13 23:42:46.60	121.85	35.16	-40.8	-42.1	20.1	0.00e+00	92	27	0	520093696	54	6530
2026-01-13 23:42:47.61	121.67	35.36	-40.7	-42.1	20.2	0.00e+00	0	27	0	522190848	54	6492
2026-01-13 23:42:48.63	121.49	35.57	-40.1	-41.3	20.8	0.00e+00	87	27	0	523239424	54	5925
2026-01-13 23:42:49.63	121.30	35.78	-39.8	-41.0	21.0	0.00e+00	0	27	0	525336576	52	6408
2026-01-13 23:42:50.64	121.12	35.99	-39.9	-41.2	20.9	0.00e+00	92	27	0	527433728	52	6551
2026-01-13 23:42:51.65	120.93	36.20	-40.5	-41.9	20.3	0.00e+00	52	27	0	529530880	52	7137
2026-01-13 23:42:52.67	120.73	36.41	-41.4	-43.0	19.2	0.00e+00	92	27	0	531628032	54	7232
2026-01-13 23:42:53.68	120.54	36.63	-41.9	-43.7	18.6	0.00e+00	92	27	0	532676608	56	6995
2026-01-13 23:42:54.69	120.34	36.84	-42.0	-43.9	18.5	0.00e+00	0	27	0	534773760	56	7089
2026-01-13 23:42:55.70	120.14	37.06	-41.9	-43.7	18.5	0.00e+00	52	27	0	536870912	56	6965
2026-01-13 23:42:56.71	119.94	37.27	-41.8	-43.6	18.6	0.00e+00	0	27	0	538968064	56	6876
2026-01-13 23:42:57.72	119.73	37.49	-41.6	-43.3	19.0	0.00e+00	92	27	0	541065216	56	6690
2026-01-13 23:42:58.73	119.52	37.71	-41.3	-42.9	19.7	0.00e+00	0	27	0	542113792	56	6383
2026-01-13 23:42:59.74	119.31	37.93	-40.3	-41.7	20.6	0.00e+00	92	27	0	544210944	54	6196
2026-01-13 23:43:00.74	119.10	38.14	-39.5	-40.7	21.4	0.00e+00	90	27	0	546308096	52	6211
2026-01-13 23:43:01.75	118.88	38.36	-39.1	-40.2	21.7	0.00e+00	0	27	0	548405248	52	5883
2026-01-13 23:43:02.76	118.66	38.59	-38.8	-39.9	22.0	0.00e+00	76	27	0	550502400	50	6344
2026-01-13 23:43:03.78	118.44	38.81	-39.2	-40.3	21.0	0.00e+00	0	27	0	552599552	50	6687
2026-01-13 23:43:04.78	118.22	39.03	-39.4	-40.6	21.3	0.00e+00	92	27	0	553648128	52	6135
2026-01-13 23:43:05.79	117.99	39.26	-39.9	-41.2	20.8	0.00e+00	0	27	0	555745280	52	6569
2026-01-13 23:43:06.80	117.75	39.48	-40.0	-41.3	20.8	0.00e+00	92	27	0	557842432	52	6676
2026-01-13 23:43:07.81	117.52	39.71	-40.5	-41.9	20.2	0.00e+00	92	27	0	559939584	52	7157
2026-01-13 23:43:08.82	117.28	39.94	-40.5	-41.9	20.3	0.00e+00	0	27	0	562036736	52	7100
2026-01-13 23:43:09.84	117.03	40.17	-41.1	-42.6	19.5	0.00e+00	90	27	0	563085312	54	6891
2026-01-13 23:43:10.84	116.79	40.39	-41.5	-43.1	19.1	0.00e+00	0	27	0	565182464	54	7305
2026-01-13 23:43:11.86	116.54	40.63	-40.7	-42.1	20.0	0.00e+00	92	27	0	567279616	54	6472
2026-01-13 23:43:12.87	116.29	40.86	-41.3	-42.8	19.4	0.00e+00	0	27	0	569376768	54	7067
2026-01-13 23:43:13.88	116.03	41.09	-41.6	-43.3	19.0	0.00e+00	92	27	0	571473920	54	7451
2026-01-13 23:43:14.89	115.77	41.32	-41.4	-43.0	19.3	0.00e+00	92	27	0	572522496	54	7198
2026-01-13 23:43:15.90	115.50	41.56	-41.5	-43.1	18.9	0.00e+00	0	27	0	574619648	54	7315
2026-01-13 23:43:16.91	115.24	41.79	-42.0	-43.8	19.5	0.00e+00	90	27	0	576716800	56	7017
2026-01-13 23:43:17.92	114.96	42.02	-41.4	-43.0	19.5	0.00e+00	0	27	0	578813952	56	6406
2026-01-13 23:43:18.92	114.69	42.26	-41.1	-42.6	19.8	0.00e+00	56	27	0	580911104	56	6113
2026-01-13 23:43:19.94	114.41	42.50	-41.1	-42.5	19.7	0.00e+00	0	27	0	581959680	56	6093
2026-01-13 23:43:20.95	114.12	42.73	-41.0	-42.5	19.7	0.00e+00	90	27	0	584056832	56	6042
2026-01-13 23:43:21.96	113.83	42.97	-41.2	-42.7	19.6	0.00e+00	58	27	0	586153984	56	6220
2026-01-13 23:43:22.97	113.54	43.21	-40.9	-42.3	19.9	0.00e+00	32	27	0	588251136	56	5934
2026-01-13 23:43:23.98	113.24	43.45	-40.2	-41.5	20.6	0.00e+00	90	27	0	590348288	54	6052
2026-01-13 23:43:24.99	112.94	43.69	-40.1	-41.4	20.6	0.00e+00	0	27	0	592445440	54	5988
2026-01-13 23:43:26.00	112.63	43.93	-40.2	-41.5	20.4	0.00e+00	92	27	0	593494016	54	6077
2026-01-13 23:43:27.01	112.32	44.17	-40.1	-41.4	20.7	0.00e+00	0	27	0	595591168	54	5998
2026-01-13 23:43:28.02	112.01	44.41	-39.8	-41.0	21.0	0.00e+00	92	27	0	597688320	54	5747
2026-01-13 23:43:29.03	111.69	44.65	-39.2	-40.3	21.6	0.00e+00	0	27	0	599785472	52	5947
2026-01-13 23:43:30.04	111.36	44.90	-39.5	-40.6	21.6	0.00e+00	95	27	0	601882624	52	6144
2026-01-13 23:43:31.05	111.03	45.14	-38.7	-39.8	22.0	0.00e+00	92	27	0	602931200	50	6247
2026-01-13 23:43:32.06	110.69	45.38	-39.2	-40.3	21.6	0.00e+00	0	27	0	605028352	50	6635
2026-01-13 23:43:33.07	110.35	45.62	-39.1	-40.2	21.6	0.00e+00	21	27	0	607125504	50	6594
2026-01-13 23:43:34.08	110.00	45.87	-39.1	-40.2	21.8	0.00e+00	0	27	0	609222656	50	6591
2026-01-13 23:43:35.09	109.65	46.11	-39.0	-40.1	21.7	0.00e+00	92	27	0	611319808	50	6499
2026-01-13 23:43:36.10	109.29	46.36	-39.1	-40.2	21.5	0.00e+00	0	27	0	612368384	50	6554
2026-01-13 23:43:37.11	108.93	46.60	-39.2	-40.4	21.6	0.00e+00	90	27	0	614465536	50	6711
2026-01-13 23:43:38.12	108.56	46.85	-39.6	-40.9	21.1	0.00e+00	20	27	0	616562688	50	7127
2026-01-13 23:43:39.13	108.19	47.09	-39.5	-40.7	21.4	0.00e+00	0	27	0	618659840	52	6187
2026-01-13 23:43:40.14	107.81	47.33	-39.3	-40.5	21.4	0.00e+00	53	27	0	620756992	52	6045
2026-01-13 23:43:41.15	107.42	47.58	-38.5	-39.5	22.5	0.00e+00	0	27	0	621805568	52	5426
2026-01-13 23:43:42.16	107.03	47.82	-38.4	-39.5	22.3	0.00e+00	92	27	0	623902720	50	6050
2026-01-13 23:43:43.17	106.63	48.07	-39.2	-40.3	21.7	0.00e+00	8	27	0	625999872	50	6658
2026-01-13 23:43:44.18	106.22	48.31	-39.7	-40.9	21.1	0.00e+00	92	27	0	628097024	50	7102
2026-01-13 23:43:45.19	105.81	48.56	-40.0	-41.2	20.8	0.00e+00	53	27	0	630194176	52	6596
2026-01-13 23:43:46.20	105.39	48.80	-39.8	-40.9	20.8	0.00e+00	33	27	0	631242752	52	6389
2026-01-13 23:43:47.21	104.96	49.04	-39.6	-40.8	21.2	0.00e+00	70	27	0	633339904	52	6272
2026-01-13 23:43:48.22	104.53	49.29	-39.9	-41.1	20.8	0.00e+00	0	27	0	635437056	52	6513
2026-01-13 23:43:49.23	104.09	49.53	-40.1	-41.4	20.6	0.00e+00	92	27	0	637534208	52	6712
2026-01-13 23:43:50.24	103.64	49.77	-39.5	-40.7	21.3	0.00e+00	0	27	0	639631360	52	6183
2026-01-13 23:43:51.25	103.19	50.01	-39.2	-40.4	21.5	0.00e+00	92	27	0	640679936	52	6011
2026-01-13 23:43:52.26	102.73	50.25	-39.0	-40.2	22.0	0.00e+00	54	27	0	642777088	52	5853
2026-01-13 23:43:53.27	102.26	50.49	-38.5	-39.6	22.3	0.00e+00	0	27	0	644874240	50	6109
2026-01-13 23:43:54.28	101.78	50.73	-37.5	-38.5	23.1	0.00e+00	92	27	0	646971392	48	6034
2026-01-13 23:43:55.29	101.30	50.97	-37.4	-38.3	23.3	0.00e+00	0	27	0	649068544	48	5927
2026-01-13 23:43:56.30	100.81	51.21	-37.8	-38.8	22.8	0.00e+00	92	27	0	650117120	48	6275
2026-01-13 23:43:57.31	100.31	51.45	-37.3	-38.2	23.1	0.00e+00	0	27	0	652214272	48	5895
2026-01-13 23:43:58.32	99.80	51.68	-37.6	-38.5	23.1	0.00e+00	92	27	0	654311424	48	6074
2026-01-13 23:43:59.33	99.29	51.91	-37.2	-38.1	23.3	0.00e+00	56	27	0	656408576	48	5774
2026-01-13 23:44:00.34	98.76	52.15	-37.6	-38.6	22.7	0.00e+00	58	27	0	658505728	48	6170
2026-01-13 23:44:01.35	98.23	52.38	-38.2	-39.2	22.4	0.00e+00	92	27	0	660602880	48	6596
2026-01-13 23:44:02.36	97.69	52.61	-38.1	-39.1	22.6	0.00e+00	0	27	0	661651456	48	6528
2026-01-13 23:44:03.37	97.14	52.84	-37.6	-38.5	23.1	0.00e+00	60	27	0	663748608	48	6098
2026-01-13 23:44:04.38	96.59	53.06	-36.6	-37.5	23.8	0.00e+00	0	27	0	665845760	48	5403
2026-01-13 23:44:05.39	96.02	53.29	-36.9	-37.8	23.6	0.00e+00	92	27	0	667942912	46	6305
2026-01-13 23:44:06.40	95.45	53.51	-37.0	-38.0	23.6	0.00e+00	9	27	0	670040064	46	6404
2026-01-13 23:44:07.41	94.86	53.73	-37.1	-38.1	23.3	0.00e+00	90	27	0	671088640	46	6486
2026-01-13 23:44:08.42	94.27	53.95	-37.7	-38.7	22.3	0.00e+00	92	27	0	673185792	46	6992
2026-01-13 23:44:09.43	93.67	54.16	-37.8	-38.8	23.0	0.00e+00	0	27	0	675282944	48	6282
2026-01-13 23:44:10.44	93.06	54.38	-38.1	-39.1	22.5	0.00e+00	64	27	0	677380096	48	6531
2026-01-13 23:44:11.45	92.44	54.59	-37.9	-39.0	22.4	0.00e+00	0	27	0	679477248	48	6402
2026-01-13 23:44:12.46	91.81	54.80	-37.8	-38.8	22.8	0.00e+00	92	27	0	680525824	48	6286
2026-01-13 23:44:13.47	91.17	55.00	-37.9	-38.9	22.6	0.00e+00	9	27	0	682622976	48	6349
2026-01-13 23:44:14.48	90.52	55.21	-37.4	-38.4	23.1	0.00e+00	33	27	0	684720128	48	5989
2026-01-13 23:44:15.49	89.86	55.41	-37.0	-38.0	23.6	0.00e+00	92	27	0	686817280	48	5702
2026-01-13 23:44:16.50	89.20	55.60	-36.2	-37.1	24.0	0.00e+00	0	27	0	688914432	46	5774
2026-01-13 23:44:17.51	88.52	55.80	-36.4	-37.3	23.0	0.00e+00	71	27	0	689963008	46	5916
2026-01-13 23:44:18.52	87.84	55.99	-36.8	-37.7	23.5	0.00e+00	0	27	0	692060160	46	6234
2026-01-13 23:44:19.53	87.14	56.18	-37.6	-38.7	22.9	0.00e+00	85	27	0	694157312	46	6929
2026-01-13 23:44:20.54	86.44	56.36	-37.0	-38.0	23.6	0.00e+00	0	27	0	696254464	46	6392
2026-01-13 23:44:21.55	85.73	56.54	-36.4	-37.3	23.8	0.00e+00	90	27	0	698351616	46	5939
2026-01-13 23:44:22.56	85.00	56.72	-36.8	-37.7	23.4	0.00e+00	92	27	0	699400192	46	6232
2026-01-13 23:44:23.57	84.27	56.89	-37.5	-38.5	22.8	0.00e+00	0	27	0	701497344	46	6801
2026-01-13 23:44:24.58	83.53	57.06	-38.5	-39.7	22.0	0.00e+00	75	27	0	703594496	48	6968
2026-01-13 23:44:25.59	82.78	57.22	-39.1	-40.4	21.5	0.00e+00	0	27	0	705691648	50	6741
2026-01-13 23:44:26.60	82.02	57.38	-39.6	-40.9	21.1	0.00e+00	79	27	0	707788800	50	7151
2026-01-13 23:44:27.61	81.26	57.54	-39.0	-40.1	21.9	0.00e+00	0	27	0	708837376	50	6525
2026-01-13 23:44:28.62	80.48	57.69	-37.6	-38.6	23.0	0.00e+00	91	27	0	710934528	48	6110
2026-01-13 23:44:29.63	79.69	57.83	-38.0	-39.1	22.5	0.00e+00	50	27	0	713031680	48	6476
2026-01-13 23:44:30.64	78.90	57.97	-38.2	-39.3	22.6	0.00e+00	0	27	0	715128832	48	6658
2026-01-13 23:44:31.65	78.10	58.11	-37.8	-38.8	22.7	0.00e+00	69	27	0	717225984	48	6246
2026-01-13 23:44:32.65	77.30	58.24	-37.0	-37.9	23.4	0.00e+00	0	27	0	718274560	48	5687
2026-01-13 23:44:33.66	76.48	58.37	-37.2	-38.2	23.4	0.00e+00	92	27	0	720371712	48	5838
2026-01-13 23:44:34.67	75.65	58.49	-36.6	-37.5	23.9	0.00e+00	0	27	0	722468864	46	6050
2026-01-13 23:44:35.68	74.82	58.60	-35.6	-36.4	24.6	0.00e+00	92	27	0	724566016	44	5968
2026-01-13 23:44:36.69	73.98	58.71	-35.6	-36.4	24.5	0.00e+00	54	27	0	726663168	44	5996
2026-01-13 23:44:37.70	73.14	58.82	-36.6	-37.5	23.7	0.00e+00	0	27	0	728760320	44	6771
2026-01-13 23:44:38.71	72.28	58.92	-37.1	-38.1	23.3	0.00e+00	92	27	0	729808896	46	6490
2026-01-13 23:44:39.72	71.42	59.01	-37.7	-38.7	22.7	0.00e+00	0	27	0	731906048	46	6982
2026-01-13 23:44:40.73	70.56	59.10	-38.0	-39.1	22.5	0.00e+00	92	27	0	734003200	48	6503
2026-01-13 23:44:41.74	69.69	59.18	-36.8	-37.7	23.6	0.00e+00	0	27	0	736100352	48	5544
2026-01-13 23:44:42.75	68.81	59.26	-36.5	-37.3	23.9	0.00e+00	92	27	0	738197504	46	5943
2026-01-13 23:44:43.76	67.93	59.32	-36.2	-37.0	24.1	0.00e+00	53	27	0	739246080	46	5750
2026-01-13 23:44:44.77	67.04	59.39	-35.9	-36.7	24.3	0.00e+00	45	27	0	741343232	46	5544
2026-01-13 23:44:45.78	66.16	59.45	-35.6	-36.4	24.4	0.00e+00	90	27	0	743440384	44	6012
2026-01-13 23:44:46.79	65.26	59.50	-36.2	-37.1	24.0	0.00e+00	0	27	0	745537536	44	6526
2026-01-13 23:44:47.80	64.37	59.54	-36.0	-36.9	24.1	0.00e+00	90	27	0	747634688	44	6374
2026-01-13 23:44:48.81	63.47	59.58	-35.0	-35.8	25.1	0.00e+00	0	27	0	748683264	44	5607
2026-01-13 23:44:49.82	62.56	59.61	-34.8	-35.6	25.2	0.00e+00	90	27	0	750780416	42	6126
2026-01-13 23:44:50.83	61.66	59.63	-34.7	-35.4	25.3	0.00e+00	0	27	0	752877568	42	6011
2026-01-13 23:44:51.84	60.76	59.65	-34.9	-35.7	25.1	0.00e+00	0	27	0	754974720	42	6183
2026-01-13 23:44:52.85	59.85	59.67	-34.1	-34.8	25.7	0.00e+00	92	27	0	757071872	42	5576
2026-01-13 23:44:53.86	58.94	59.67	-34.1	-34.9	25.6	0.00e+00	0	27	0	758120448	40	6332
2026-01-13 23:44:54.87	58.04	59.67	-34.6	-35.4	25.3	0.00e+00	56	27	0	760217600	40	6720
2026-01-13 23:44:55.88	57.13	59.66	-34.9	-35.7	24.9	0.00e+00	0	27	0	762314752	40	6981
2026-01-13 23:44:56.89	56.22	59.65	-35.7	-36.5	24.5	0.00e+00	82	27	0	764411904	44	6091
2026-01-13 23:44:57.90	55.32	59.63	-35.1	-36.0	25.0	0.00e+00	0	27	0	766509056	44	5713
2026-01-13 23:44:58.91	54.42	59.60	-34.4	-35.1	25.5	0.00e+00	47	27	0	767557632	42	5787
2026-01-13 23:44:59.92	53.52	59.57	-34.2	-35.0	25.5	0.00e+00	92	27	0	769654784	42	5700
2026-01-13 23:45:00.93	52.62	59.53	-34.9	-35.7	24.6	0.00e+00	0	27	0	771751936	42	6200
2026-01-13 23:45:01.94	51.72	59.48	-35.8	-36.6	24.4	0.00e+00	52	27	0	773849088	42	6898
2026-01-13 23:45:02.95	50.83	59.43	-35.8	-36.7	24.2	0.00e+00	0	27	0	775946240	44	6218
2026-01-13 23:45:03.96	49.94	59.37	-35.4	-36.3	24.5	0.00e+00	69	27	0	776994816	44	5900
2026-01-13 23:45:04.97	49.06	59.30	-34.6	-35.4	25.3	0.00e+00	0	27	0	779091968	42	5979
2026-01-13 23:45:05.98	48.18	59.23	-34.0	-34.7	25.7	0.00e+00	83	27	0	781189120	42	5562
2026-01-13 23:45:06.98	47.32	59.16	-34.0	-34.7	25.6	0.00e+00	56	27	0	783286272	42	5561
2026-01-13 23:45:07.99	46.45	59.07	-35.0	-35.8	24.8	0.00e+00	0	27	0	785383424	42	6313
2026-01-13 23:45:09.00	45.58	58.98	-36.1	-37.0	24.4	0.00e+00	25	27	0	786432000	44	6436
2026-01-13 23:45:10.01	44.73	58.89	-36.8	-37.7	23.7	0.00e+00	0	27	0	788529152	44	6966
2026-01-13 23:45:11.02	43.88	58.79	-37.3	-38.3	23.3	0.00e+00	77	27	0	790626304	46	6684
2026-01-13 23:45:12.03	43.03	58.68	-37.0	-37.9	23.2	0.00e+00	0	27	0	792723456	46	6363
2026-01-13 23:45:13.04	42.20	58.57	-37.0	-38.0	23.5	0.00e+00	53	27	0	794820608	46	6395
2026-01-13 23:45:14.05	41.37	58.45	-37.5	-38.6	22.9	0.00e+00	27	27	0	796917760	46	6873
2026-01-13 23:45:15.06	40.54	58.33	-37.8	-38.8	23.0	0.00e+00	0	27	0	797966336	48	6292
2026-01-13 23:45:16.07	39.73	58.20	-36.3	-37.2	24.1	0.00e+00	88	27	0	800063488	46	5858
2026-01-13 23:45:17.08	38.92	58.07	-36.1	-36.9	24.2	0.00e+00	0	27	0	802160640	46	5673
2026-01-13 23:45:18.09	38.12	57.93	-35.9	-36.7	24.3	0.00e+00	20	27	0	804257792	46	5552
2026-01-13 23:45:19.11	37.33	57.79	-36.3	-37.2	23.9	0.00e+00	0	27	0	806354944	46	5832
2026-01-13 23:45:20.12	36.54	57.64	-36.3	-37.1	24.2	0.00e+00	61	27	0	807403520	46	5814
2026-01-13 23:45:21.13	35.77	57.49	-35.6	-36.4	24.6	0.00e+00	9	27	0	809500672	44	5995
2026-01-13 23:45:22.14	35.01	57.33	-36.0	-36.8	24.5	0.00e+00	0	27	0	811597824	44	6288
2026-01-13 23:45:23.15	34.25	57.17	-36.3	-37.2	24.1	0.00e+00	90	27	0	813694976	44	6554
2026-01-13 23:45:24.16	33.51	57.01	-36.0	-36.8	24.3	0.00e+00	0	27	0	815792128	44	6296
2026-01-13 23:45:25.17	32.77	56.84	-35.6	-36.4	24.7	0.00e+00	64	27	0	816840704	44	5971
2026-01-13 23:45:26.18	32.04	56.66	-35.4	-36.2	24.7	0.00e+00	0	27	0	818937856	44	5865
2026-01-13 23:45:27.19	31.32	56.49	-35.1	-35.8	25.1	0.00e+00	90	27	0	821035008	44	5594
2026-01-13 23:45:28.20	30.61	56.31	-34.6	-35.3	25.4	0.00e+00	0	27	0	823132160	42	5927
2026-01-13 23:45:29.21	29.91	56.12	-35.1	-35.9	24.9	0.00e+00	15	27	0	825229312	42	6354
2026-01-13 23:45:30.22	29.22	55.93	-35.1	-35.9	24.7	0.00e+00	92	27	0	826277888	42	6365
2026-01-13 23:45:31.23	28.54	55.74	-35.3	-36.1	24.8	0.00e+00	0	27	0	828375040	42	6488
2026-01-13 23:45:32.24	27.87	55.55	-35.9	-36.8	24.3	0.00e+00	51	27	0	830472192	44	6253
2026-01-13 23:45:33.25	27.21	55.35	-35.9	-36.8	24.4	0.00e+00	0	27	0	832569344	44	6256
2026-01-13 23:45:34.26	26.56	55.15	-36.2	-37.0	24.2	0.00e+00	92	27	0	834666496	44	6436
2026-01-13 23:45:35.27	25.91	54.95	-36.9	-37.8	23.6	0.00e+00	0	27	0	835715072	46	6291
2026-01-13 23:45:36.28	25.28	54.74	-36.9	-37.8	23.6	0.00e+00	0	27	0	837812224	46	6286
2026-01-13 23:45:37.29	24.65	54.53	-36.9	-37.8	23.6	0.00e+00	77	27	0	839909376	46	6259
2026-01-13 23:45:38.30	24.04	54.32	-36.8	-37.7	23.7	0.00e+00	0	27	0	842006528	46	6217
2026-01-13 23:45:39.31	23.43	54.10	-36.6	-37.4	23.9	0.00e+00	54	27	0	844103680	46	6032
2026-01-13 23:45:40.32	22.83	53.89	-36.3	-37.1	24.0	0.00e+00	0	27	0	845152256	46	5787
2026-01-13 23:45:41.33	22.24	53.67	-37.5	-38.4	23.1	0.00e+00	92	27	0	847249408	46	6763
2026-01-13 23:45:42.34	21.66	53.45	-38.0	-39.1	22.6	0.00e+00	0	27	0	849346560	48	6484
2026-01-13 23:45:43.35	21.09	53.23	-37.9	-38.9	22.8	0.00e+00	69	27	0	851443712	48	6372
2026-01-13 23:45:44.36	20.53	53.00	-37.3	-38.3	23.3	0.00e+00	65	27	0	853540864	48	5911
2026-01-13 23:45:45.37	19.98	52.78	-36.8	-37.8	23.7	0.00e+00	0	27	0	854589440	48	5569
2026-01-13 23:45:46.38	19.43	52.55	-37.0	-37.9	23.4	0.00e+00	82	27	0	856686592	46	6377
2026-01-13 23:45:47.39	18.89	52.32	-36.9	-37.8	23.4	0.00e+00	0	27	0	858783744	46	6258
2026-01-13 23:45:48.40	18.37	52.09	-36.7	-37.6	23.7	0.00e+00	92	27	0	860880896	46	6173
2026-01-13 23:45:49.41	17.85	51.86	-36.6	-37.6	23.5	0.00e+00	0	27	0	862978048	46	6108
2026-01-13 23:45:50.42	17.33	51.62	-37.7	-38.7	23.0	0.00e+00	92	27	0	865075200	46	6976
2026-01-13 23:45:51.43	16.83	51.39	-37.2	-38.1	23.5	0.00e+00	49	27	0	866123776	46	6515
2026-01-13 23:45:52.44	16.33	51.15	-35.7	-36.5	24.7	0.00e+00	0	27	0	868220928	46	5438
2026-01-13 23:45:53.45	15.85	50.91	-35.6	-36.4	24.5	0.00e+00	51	27	0	870318080	44	5971
2026-01-13 23:45:54.46	15.36	50.68	-36.8	-37.7	23.7	0.00e+00	0	27	0	872415232	46	6225
2026-01-13 23:45:55.47	14.89	50.44	-37.9	-38.9	22.7	0.00e+00	89	27	0	874512384	48	6329
2026-01-13 23:45:56.48	14.43	50.20	-39.0	-40.1	22.0	0.00e+00	0	27	0	875560960	50	6512
2026-01-13 23:45:57.49	13.97	49.96	-38.5	-39.5	22.3	0.00e+00	92	27	0	877658112	50	6096
2026-01-13 23:45:58.50	13.52	49.72	-37.4	-38.4	23.2	0.00e+00	49	27	0	879755264	48	5965
2026-01-13 23:45:59.51	13.07	49.48	-37.4	-38.3	22.8	0.00e+00	0	27	0	881852416	48	5942
2026-01-13 23:46:00.52	12.64	49.23	-38.7	-39.7	22.4	0.00e+00	85	27	0	883949568	48	6965
2026-01-13 23:46:01.53	12.21	48.99	-38.9	-39.9	21.8	0.00e+00	0	27	0	884998144	50	6358
2026-01-13 23:46:02.54	11.79	48.75	-39.1	-40.2	21.6	0.00e+00	71	27	0	887095296	50	6581
2026-01-13 23:46:03.55	11.37	48.50	-41.1	-42.6	19.5	0.00e+00	0	27	0	889192448	54	6880
2026-01-13 23:46:04.56	10.96	48.26	-41.0	-42.5	19.7	0.00e+00	88	27	0	891289600	54	6810
2026-01-13 23:46:05.56	10.56	48.02	-40.3	-41.6	20.5	0.00e+00	33	27	0	893386752	54	6145
2026-01-13 23:46:06.57	10.16	47.78	-38.5	-39.5	22.3	0.00e+00	0	27	0	894435328	50	6083
2026-01-13 23:46:07.58	9.77	47.53	-38.4	-39.5	22.4	0.00e+00	80	27	0	896532480	50	6071
2026-01-13 23:46:08.59	9.39	47.29	-38.4	-39.5	22.3	0.00e+00	0	27	0	898629632	50	6045
2026-01-13 23:46:09.60	9.01	47.04	-38.8	-39.9	21.7	0.00e+00	51	27	0	900726784	50	6372
2026-01-13 23:46:10.61	8.64	46.80	-40.1	-41.5	20.7	0.00e+00	0	27	0	902823936	50	7629
2026-01-13 23:46:11.62	8.27	46.56	-40.1	-41.4	20.7	0.00e+00	90	27	0	903872512	52	6719
2026-01-13 23:46:12.63	7.91	46.31	-39.0	-40.1	21.9	0.00e+00	0	27	0	905969664	52	5808
2026-01-13 23:46:13.64	7.55	46.07	-38.5	-39.5	22.6	0.00e+00	0	27	0	908066816	50	6092
2026-01-13 23:46:14.65	7.20	45.83	-37.9	-38.8	22.8	0.00e+00	90	27	0	910163968	50	5615
2026-01-13 23:46:15.66	6.86	45.58	-37.8	-38.7	22.7	0.00e+00	0	27	0	912261120	48	6241
2026-01-13 23:46:16.67	6.52	45.34	-38.0	-39.0	22.8	0.00e+00	50	27	0	913309696	48	6402
2026-01-13 23:46:17.68	6.19	45.10	-38.9	-40.1	21.8	0.00e+00	0	27	0	915406848	50	6469
2026-01-13 23:46:18.69	5.86	44.86	-39.8	-41.0	20.9	0.00e+00	92	27	0	917504000	52	6449
2026-01-13 23:46:19.70	5.53	44.62	-39.8	-41.0	20.9	0.00e+00	0	27	0	919601152	52	6434
2026-01-13 23:46:20.71	5.22	44.38	-39.2	-40.3	21.6	0.00e+00	64	27	0	921698304	52	5953
2026-01-13 23:46:21.73	4.90	44.13	-38.7	-39.7	22.2	0.00e+00	54	27	0	922746880	50	6237
2026-01-13 23:46:22.73	4.59	43.89	-38.6	-39.6	22.2	0.00e+00	0	27	0	924844032	50	6168
2026-01-13 23:46:23.74	4.29	43.66	-38.7	-39.8	22.2	0.00e+00	5	27	0	926941184	50	6246
2026-01-13 23:46:24.75	3.99	43.42	-38.7	-39.8	22.1	0.00e+00	0	27	0	929038336	50	6296
2026-01-13 23:46:25.76	3.69	43.18	-39.1	-40.3	21.7	0.00e+00	60	27	0	931135488	50	6617
2026-01-13 23:46:26.77	3.40	42.94	-38.9	-40.0	21.8	0.00e+00	0	27	0	933232640	50	6443
2026-01-13 23:46:27.78	3.11	42.70	-38.7	-39.8	22.1	0.00e+00	10	27	0	934281216	50	6305
2026-01-13 23:46:28.79	2.83	42.47	-38.2	-39.2	22.5	0.00e+00	52	27	0	936378368	50	5859
2026-01-13 23:46:29.80	2.55	42.23	-37.8	-38.8	22.9	0.00e+00	0	27	0	938475520	48	6283
2026-01-13 23:46:30.81	2.28	42.00	-37.9	-38.9	22.8	0.00e+00	13	27	0	940572672	48	6383
2026-01-13 23:46:31.82	2.01	41.76	-38.4	-39.5	22.2	0.00e+00	0	27	0	942669824	48	6813
2026-01-13 23:46:32.83	1.74	41.53	-38.5	-39.6	22.2	0.00e+00	92	27	0	943718400	48	6911
2026-01-13 23:46:33.84	1.48	41.30	-39.3	-40.5	21.4	0.00e+00	0	27	0	945815552	50	6847
2026-01-13 23:46:34.85	1.22	41.07	-40.6	-42.0	20.1	0.00e+00	92	27	0	947912704	52	7229
2026-01-13 23:46:35.86	0.96	40.84	-41.4	-43.0	19.2	0.00e+00	0	27	0	950009856	54	7239
2026-01-13 23:46:36.87	0.71	40.61	-41.6	-43.2	19.5	0.00e+00	0	27	0	952107008	54	7403
2026-01-13 23:46:37.88	0.46	40.38	-40.7	-42.1	20.1	0.00e+00	92	27	0	953155584	54	6502
2026-01-13 23:46:38.89	0.22	40.15	-40.7	-42.0	20.2	0.00e+00	0	27	0	955252736	54	6464
2026-01-13 23:46:39.90	359.98	39.92	-40.4	-41.7	20.5	0.00e+00	64	27	0	957349888	54	6200
2026-01-13 23:46:40.91	359.74	39.70	-40.2	-41.5	20.6	0.00e+00	0	27	0	959447040	54	6102
2026-01-13 23:46:41.92	359.51	39.47	-40.7	-42.1	20.2	0.00e+00	92	27	0	961544192	54	6515
2026-01-13 23:46:42.93	359.28	39.25	-41.2	-42.7	19.6	0.00e+00	0	27	0	962592768	54	7004
2026-01-13 23:46:43.94	359.05	39.02	-41.2	-42.8	19.3	0.00e+00	0	27	0	964689920	54	7011
2026-01-13 23:46:44.95	358.83	38.80	-40.8	-42.3	20.0	0.00e+00	92	27	0	966787072	54	6634
2026-01-13 23:46:45.96	358.60	38.58	-40.9	-42.4	19.9	0.00e+00	0	27	0	968884224	54	6696
2026-01-13 23:46:46.97	358.39	38.36	-40.2	-41.5	20.5	0.00e+00	55	27	0	970981376	54	6067
2026-01-13 23:46:47.98	358.17	38.14	-39.4	-40.6	21.2	0.00e+00	0	27	0	973078528	52	6154
2026-01-13 23:46:48.99	357.96	37.92	-39.1	-40.2	21.6	0.00e+00	92	27	0	974127104	52	5842
2026-01-13 23:46:50.00	357.75	37.70	-39.3	-40.4	21.5	0.00e+00	0	27	0	976224256	52	6022
2026-01-13 23:46:51.01	357.54	37.48	-40.4	-41.7	20.4	0.00e+00	0	27	0	978321408	52	6978
2026-01-13 23:46:52.02	357.34	37.27	-40.6	-42.0	19.1	0.00e+00	53	27	0	980418560	52	7178
2026-01-13 23:46:53.03	357.14	37.05	-42.3	-44.1	18.4	0.00e+00	0	27	0	982515712	56	7334
2026-01-13 23:46:54.04	356.94	36.84	-42.0	-43.7	18.7	0.00e+00	18	27	0	983564288	56	6985
2026-01-13 23:46:55.05	356.74	36.63	-41.8	-43.5	18.8	0.00e+00	0	27	0	985661440	56	6826
2026-01-13 23:46:56.06	356.55	36.41	-41.2	-42.7	19.4	0.00e+00	92	27	0	987758592	56	6229
2026-01-13 23:46:57.07	356.36	36.20	-42.2	-44.1	18.3	0.00e+00	0	27	0	989855744	56	7286
2026-01-13 23:46:58.08	356.17	35.99	-42.4	-44.5	17.8	0.00e+00	0	27	0	991952896	56	7609
2026-01-13 23:46:59.09	355.98	35.78	-42.7	-44.9	17.6	0.00e+00	92	27	0	993001472	56	7964
2026-01-13 23:47:00.10	355.80	35.58	-41.5	-43.2	19.1	0.00e+00	0	27	0	995098624	56	6601
2026-01-13 23:47:01.11	355.62	35.37	-41.0	-42.5	20.0	0.00e+00	92	27	0	997195776	56	6077
2026-01-13 23:47:02.12	355.44	35.16	-40.3	-41.7	20.4	0.00e+00	0	27	0	999292928	54	6226
2026-01-13 23:47:03.13	355.26	34.96	-40.4	-41.8	20.2	0.00e+00	41	27	0	1001390080	54	6299
2026-01-13 23:47:04.14	355.09	34.76	-41.2	-42.8	19.4	0.00e+00	33	27	0	1002438656	54	7073
2026-01-13 23:47:05.15	354.92	34.55	-41.8	-43.6	18.7	0.00e+00	4	27	0	1004535808	56	6879
2026-01-13 23:47:06.16	354.75	34.35	-42.1	-44.0	19.0	0.00e+00	54	27	0	1006632960	56	7234
2026-01-13 23:47:07.17	354.58	34.15	-41.2	-42.7	19.6	0.00e+00	33	27	0	1008730112	56	6214
2026-01-13 23:47:08.18	354.41	33.95	-40.6	-42.0	20.1	0.00e+00	49	27	0	1010827264	56	5745
2026-01-13 23:47:09.19	354.25	33.75	-41.0	-42.5	19.6	0.00e+00	0	27	0	1011875840	54	6844
2026-01-13 23:47:10.20	354.09	33.55	-41.7	-43.5	18.7	0.00e+00	90	27	0	1013972992	56	6793
2026-01-13 23:47:11.21	353.93	33.36	-42.2	-44.2	18.2	0.00e+00	0	27	0	1016070144	56	7388
2026-01-13 23:47:12.22	353.77	33.16	-42.4	-44.4	18.0	0.00e+00	92	27	0	1018167296	56	7547
2026-01-13 23:47:13.23	353.61	32.97	-41.0	-42.5	19.6	0.00e+00	0	27	0	1020264448	56	6094
2026-01-13 23:47:14.24	353.46	32.77	-40.2	-41.6	20.6	0.00e+00	0	27	0	1021313024	54	6124
2026-01-13 23:47:15.25	353.31	32.58	-39.5	-40.7	21.2	0.00e+00	92	27	0	1023410176	52	6198
2026-01-13 23:47:16.26	353.16	32.39	-39.4	-40.5	21.4	0.00e+00	0	27	0	1025507328	52	6100
2026-01-13 23:47:17.27	353.01	32.20	-39.6	-40.9	21.1	0.00e+00	92	27	0	1027604480	52	6319
2026-01-13 23:47:18.28	352.86	32.01	-40.5	-41.9	20.3	0.00e+00	0	27	0	1029701632	52	7127
2026-01-13 23:47:19.29	352.72	31.82	-40.4	-41.7	20.4	0.00e+00	0	27	0	1030750208	52	7007
2026-01-13 23:47:20.30	352.58	31.63	-39.8	-41.0	20.9	0.00e+00	52	27	0	1032847360	52	6439
2026-01-13 23:47:21.31	352.43	31.45	-39.3	-40.5	21.5	0.00e+00	0	27	0	1034944512	52	6043
2026-01-13 23:47:22.32	352.29	31.26	-39.5	-40.7	21.3	0.00e+00	91	27	0	1037041664	52	6210
2026-01-13 23:47:23.32	352.16	31.08	-39.5	-40.6	21.2	0.00e+00	0	27	0	1039138816	52	6149
2026-01-13 23:47:24.33	352.02	30.89	-40.1	-41.3	20.7	0.00e+00	84	27	0	1041235968	52	6663
2026-01-13 23:47:25.34	351.89	30.71	-40.8	-42.2	19.9	0.00e+00	0	27	0	1042284544	52	7419
2026-01-13 23:47:26.35	351.75	30.53	-40.2	-41.5	20.4	0.00e+00	0	27	0	1044381696	54	6103
2026-01-13 23:47:27.36	351.62	30.35	-39.3	-40.4	21.5	0.00e+00	9	27	0	1046478848	52	6033
2026-01-13 23:47:28.37	351.49	30.17	-38.6	-39.7	22.1	0.00e+00	0	27	0	1048576000	50	6202
2026-01-13 23:47:29.38	351.36	29.99	-37.5	-38.4	23.1	0.00e+00	92	27	0	1050673152	48	5993
2026-01-13 23:47:30.39	351.23	29.81	-37.1	-38.0	23.5	0.00e+00	0	27	0	1051721728	48	5719
2026-01-13 23:47:31.40	351.11	29.63	-37.2	-38.1	23.3	0.00e+00	60	27	0	1053818880	48	5810
2026-01-13 23:47:32.41	350.98	29.46	-37.4	-38.3	23.2	0.00e+00	0	27	0	1055916032	48	5943
2026-01-13 23:47:33.42	350.86	29.28	-37.9	-38.9	22.8	0.00e+00	0	27	0	1058013184	48	6321
2026-01-13 23:47:34.43	350.74	29.11	-38.1	-39.1	22.5	0.00e+00	17	27	0	1060110336	48	6502
2026-01-13 23:47:35.44	350.62	28.93	-38.3	-39.3	22.3	0.00e+00	0	27	0	1061158912	48	6664
2026-01-13 23:47:36.45	350.50	28.76	-38.0	-39.0	22.9	0.00e+00	62	27	0	1063256064	48	6460
2026-01-13 23:47:37.46	350.38	28.59	-38.2	-39.2	22.5	0.00e+00	0	27	0	1065353216	48	6583
2026-01-13 23:47:38.47	350.26	28.42	-37.8	-38.8	22.7	0.00e+00	91	27	0	1067450368	48	6299
2026-01-13 23:47:39.48	350.15	28.25	-38.5	-39.5	22.3	0.00e+00	0	27	0	1069547520	48	6832
2026-01-13 23:47:40.49	350.04	28.08	-39.0	-40.1	21.8	0.00e+00	0	27	0	1070596096	50	6482
2026-01-13 23:47:41.50	349.92	27.91	-40.0	-41.3	20.7	0.00e+00	0	27	0	1072693248	52	6633
2026-01-13 23:47:42.51	349.81	27.75	-40.5	-41.9	20.1	0.00e+00	0	27	0	1074790400	52	7150
2026-01-13 23:47:43.52	349.70	27.58	-40.8	-42.3	19.7	0.00e+00	43	27	0	1076887552	54	6624
2026-01-13 23:47:44.53	349.59	27.42	-41.1	-42.6	19.6	0.00e+00	0	27	0	1078984704	54	6883
2026-01-13 23:47:45.54	349.48	27.25	-41.0	-42.5	19.7	0.00e+00	45	27	0	1080033280	54	6773
2026-01-13 23:47:46.55	349.38	27.09	-40.4	-41.7	20.6	0.00e+00	0	27	0	1082130432	54	6227
2026-01-13 23:47:47.56	349.27	26.93	-40.2	-41.5	20.3	0.00e+00	0	27	0	1084227584	54	6074
2026-01-13 23:47:48.57	349.17	26.76	-40.0	-41.2	20.9	0.00e+00	0	27	0	1086324736	54	5855
2026-01-13 23:47:49.58	349.06	26.60	-39.8	-41.0	21.0	0.00e+00	0	27	0	1088421888	52	6398
2026-01-13 23:47:50.59	348.96	26.44	-39.6	-40.8	21.2	0.00e+00	28	27	0	1089470464	52	6268
2026-01-13 23:47:51.60	348.86	26.28	-39.4	-40.5	21.4	0.00e+00	0	27	0	1091567616	52	6084
2026-01-13 23:47:52.61	348.76	26.12	-38.7	-39.8	22.0	0.00e+00	86	27	0	1093664768	52	5574
2026-01-13 23:47:53.62	348.66	25.97	-38.4	-39.4	22.3	0.00e+00	0	27	0	1095761920	50	6015
2026-01-13 23:47:54.63	348.56	25.81	-38.3	-39.4	22.3	0.00e+00	0	27	0	1097859072	50	5974
2026-01-13 23:47:55.64	348.46	25.65	-37.9	-38.9	22.7	0.00e+00	0	27	0	1098907648	50	5639
2026-01-13 23:47:56.65	348.37	25.50	-37.8	-38.8	22.8	0.00e+00	0	27	0	1101004800	50	5589
2026-01-13 23:47:57.66	348.27	25.35	-37.8	-38.8	22.8	0.00e+00	47	27	0	1103101952	50	5598
2026-01-13 23:47:58.68	348.18	25.19	-38.0	-39.0	22.6	0.00e+00	0	27	0	1105199104	50	5708
2026-01-13 23:47:59.68	348.08	25.04	-38.3	-39.3	22.3	0.00e+00	91	27	0	1107296256	50	5952
2026-01-13 23:48:00.69	347.99	24.89	-38.7	-39.8	22.0	0.00e+00	0	27	0	1108344832	50	6265
2026-01-13 23:48:01.70	347.90	24.74	-38.8	-39.9	21.7	0.00e+00	28	27	0	1110441984	50	6381
2026-01-13 23:48:02.71	347.81	24.59	-39.0	-40.2	21.7	0.00e+00	0	27	0	1112539136	50	6571
2026-01-13 23:48:03.72	347.72	24.44	-39.3	-40.5	21.3	0.00e+00	0	27	0	1114636288	50	6824
2026-01-13 23:48:04.73	347.63	24.29	-39.1	-40.2	21.6	0.00e+00	46	27	0	1116733440	50	6592
2026-01-13 23:48:05.74	347.54	24.14	-38.6	-39.8	21.9	0.00e+00	0	27	0	1118830592	50	6252
2026-01-13 23:48:06.75	347.45	23.99	-38.5	-39.6	22.1	0.00e+00	47	27	0	1119879168	50	6145
2026-01-13 23:48:07.76	347.37	23.85	-38.1	-39.2	22.4	0.00e+00	0	27	0	1121976320	50	5832
2026-01-13 23:48:08.77	347.28	23.70	-37.8	-38.8	22.7	0.00e+00	80	27	0	1124073472	50	5576
2026-01-13 23:48:09.78	347.20	23.56	-38.0	-39.1	22.5	0.00e+00	0	27	0	1126170624	48	6495
2026-01-13 23:48:10.79	347.11	23.41	-38.3	-39.3	22.3	0.00e+00	0	27	0	1128267776	48	6677
2026-01-13 23:48:11.80	347.03	23.27	-38.6	-39.7	22.0	0.00e+00	0	27	0	1129316352	48	6966
2026-01-13 23:48:12.81	346.95	23.13	-39.1	-40.4	21.3	0.00e+00	0	27	0	1131413504	50	6699
2026-01-13 23:48:13.82	346.87	22.98	-39.8	-41.1	20.7	0.00e+00	47	27	0	1133510656	52	6483
2026-01-13 23:48:14.83	346.79	22.84	-40.5	-42.0	20.1	0.00e+00	0	27	0	1135607808	52	7198
2026-01-13 23:48:15.84	346.71	22.70	-41.1	-42.7	19.3	0.00e+00	92	27	0	1137704960	54	6964
2026-01-13 23:48:16.85	346.63	22.56	-41.1	-42.7	19.4	0.00e+00	0	27	0	1138753536	54	6976
2026-01-13 23:48:17.86	346.55	22.42	-40.9	-42.5	19.5	0.00e+00	0	27	0	1140850688	54	6822
2026-01-13 23:48:18.87	346.47	22.28	-40.8	-42.3	19.7	0.00e+00	0	27	0	1142947840	54	6651
2026-01-13 23:48:19.88	346.39	22.15	-40.2	-41.5	20.3	0.00e+00	0	27	0	1145044992	54	6099
2026-01-13 23:48:20.89	346.32	22.01	-39.4	-40.6	21.2	0.00e+00	50	27	0	1147142144	52	6152
2026-01-13 23:48:21.90	346.24	21.87	-39.2	-40.3	21.5	0.00e+00	0	27	0	1148190720	52	5951
2026-01-13 23:48:22.91	346.17	21.74	-38.4	-39.4	22.3	0.00e+00	66	27	0	1150287872	50	6032
2026-01-13 23:48:23.92	346.09	21.60	-38.1	-39.1	22.6	0.00e+00	0	27	0	1152385024	50	5796
2026-01-13 23:48:24.93	346.02	21.47	-38.0	-39.1	22.5	0.00e+00	0	27	0	1154482176	50	5764
2026-01-13 23:48:25.94	345.95	21.33	-37.8	-38.8	22.8	0.00e+00	0	27	0	1156579328	50	5580
2026-01-13 23:48:26.94	345.87	21.20	-37.4	-38.3	23.1	0.00e+00	0	27	0	1157627904	48	5951
2026-01-13 23:48:27.95	345.80	21.07	-37.5	-38.4	22.9	0.00e+00	0	27	0	1159725056	48	6019
2026-01-13 23:48:28.96	345.73	20.94	-37.4	-38.4	23.1	0.00e+00	0	27	0	1161822208	48	5970
2026-01-13 23:48:29.97	345.66	20.81	-37.3	-38.2	23.0	0.00e+00	92	27	0	1163919360	48	5865
2026-01-13 23:48:30.98	345.59	20.68	-37.3	-38.2	23.2	0.00e+00	0	27	0	1166016512	48	5856
2026-01-13 23:48:31.98	345.52	20.55	-37.3	-38.3	23.1	0.00e+00	0	27	0	1167065088	48	5900
2026-01-13 23:48:32.99	345.45	20.42	-37.2	-38.1	23.2	0.00e+00	0	27	0	1169162240	48	5797
2026-01-13 23:48:34.00	345.39	20.29	-37.1	-38.0	23.2	0.00e+00	0	27	0	1171259392	48	5731
2026-01-13 23:48:35.01	345.32	20.16	-37.2	-38.1	23.2	0.00e+00	0	27	0	1173356544	48	5795
2026-01-13 23:48:36.02	345.25	20.03	-37.4	-38.4	23.0	0.00e+00	0	27	0	1175453696	48	5974
2026-01-13 23:48:37.03	345.19	19.91	-37.4	-38.4	23.0	0.00e+00	49	27	0	1176502272	48	5992
2026-01-13 23:48:38.04	345.12	19.78	-37.7	-38.7	22.7	0.00e+00	0	27	0	1178599424	48	6180
2026-01-13 23:48:39.05	345.06	19.65	-37.5	-38.5	22.9	0.00e+00	36	27	0	1180696576	48	6069
2026-01-13 23:48:40.06	344.99	19.53	-37.9	-38.9	22.5	0.00e+00	0	27	0	1182793728	48	6342
2026-01-13 23:48:41.07	344.93	19.40	-38.0	-39.0	22.4	0.00e+00	0	27	0	1184890880	48	6461
2026-01-13 23:48:42.08	344.86	19.28	-37.9	-38.9	22.5	0.00e+00	0	27	0	1186988032	48	6380
2026-01-13 23:48:43.09	344.80	19.16	-38.5	-39.5	22.0	0.00e+00	0	27	0	1188036608	48	6842
2026-01-13 23:48:44.10	344.74	19.03	-38.4	-39.5	22.2	0.00e+00	92	27	0	1190133760	48	6787
2026-01-13 23:48:45.11	344.68	18.91	-38.4	-39.4	22.2	0.00e+00	0	27	0	1192230912	48	6754
2026-01-13 23:48:46.12	344.62	18.79	-38.4	-39.5	22.0	0.00e+00	14	27	0	1194328064	48	6801
2026-01-13 23:48:47.13	344.56	18.67	-38.3	-39.4	22.2	0.00e+00	0	27	0	1196425216	48	6724
2026-01-13 23:48:48.14	344.50	18.55	-38.4	-39.4	22.2	0.00e+00	0	27	0	1197473792	48	6761
2026-01-13 23:48:49.15	344.44	18.43	-38.3	-39.4	22.2	0.00e+00	0	27	0	1199570944	48	6700
