passes_logs/2026/01/13/R4.6S_Anadyr/R4.6S_Anadyr__20260113_155119_AQUA_rec.log

#Pass ID: 20260113_155119_AQUA
#Satellite: AQUA
#Configuration: AQUA
#almurnet v.1.7.20251203
#Start time: 2026-01-13 15:51:20

#Version: 2.2.20231116
#Station: R4.6S_Anadyr
#Location: 177.4865 lon 64.73178 lat
#TLE: 1 27424U 02022A   26012.29577270  .00001027  00000+0  21555-3 0  9995
#TLE: 2 27424  98.4078 338.6778 0002034  81.5885  29.6294 14.61817302260499

#Time	Az	El	Level	Level2	SNR	BER	BlckErr	Temp	State	Recorded	gain1	gain2
2026-01-13 15:51:20.90	19.56	0.07	-48.4	-63.3	3.6	1.51e+00	0	24	0	0	60	53046
2026-01-13 15:51:21.91	19.59	0.13	-48.9	-66.8	3.5	3.01e+01	0	26	104	0	60	84226
2026-01-13 15:51:22.92	19.61	0.19	-48.9	-66.7	3.5	3.01e+01	0	26	104	0	60	83039
2026-01-13 15:51:23.93	19.63	0.25	-48.8	-66.6	3.5	3.01e+01	0	26	104	0	60	82689
2026-01-13 15:51:24.94	19.66	0.31	-48.8	-66.7	3.5	3.01e+01	0	26	104	0	60	82885
2026-01-13 15:51:25.95	19.68	0.38	-48.8	-66.7	3.5	3.01e+01	0	26	104	0	60	83520
2026-01-13 15:51:26.96	19.70	0.44	-48.8	-66.6	3.5	3.01e+01	0	26	104	0	60	82593
2026-01-13 15:51:27.97	19.73	0.50	-48.7	-66.6	3.5	3.01e+01	0	26	104	0	60	82461
2026-01-13 15:51:28.98	19.75	0.56	-48.6	-66.6	3.5	3.01e+01	0	26	104	0	60	82216
2026-01-13 15:51:29.99	19.77	0.63	-48.5	-66.5	3.5	3.01e+01	0	26	104	0	60	81313
2026-01-13 15:51:31.00	19.80	0.69	-48.5	-66.4	3.5	3.01e+01	0	26	104	0	60	80603
2026-01-13 15:51:32.01	19.82	0.75	-48.2	-66.2	3.5	3.01e+01	0	26	104	0	60	78784
2026-01-13 15:51:33.02	19.85	0.81	-48.1	-66.0	3.5	3.01e+01	0	26	104	0	60	76850
2026-01-13 15:51:34.03	19.87	0.88	-48.1	-65.9	3.5	3.01e+01	0	26	104	0	60	76085
2026-01-13 15:51:35.04	19.90	0.94	-47.9	-65.7	3.5	3.01e+01	0	26	104	0	60	74060
2026-01-13 15:51:36.04	19.92	1.00	-47.5	-65.4	3.5	3.01e+01	0	26	104	0	60	71320
2026-01-13 15:51:37.05	19.94	1.07	-47.3	-65.1	3.5	3.01e+01	0	26	104	0	60	69105
2026-01-13 15:51:38.06	19.97	1.13	-47.3	-65.1	3.5	3.01e+01	0	26	104	0	60	69060
2026-01-13 15:51:39.07	19.99	1.19	-47.3	-65.2	3.5	3.01e+01	0	26	104	0	60	69737
2026-01-13 15:51:40.08	20.02	1.26	-47.3	-65.1	3.5	3.01e+01	0	26	104	0	60	69050
2026-01-13 15:51:41.09	20.04	1.32	-47.3	-65.1	3.5	3.01e+01	0	26	104	0	60	69076
2026-01-13 15:51:42.10	20.07	1.38	-47.3	-65.1	3.5	3.01e+01	0	26	104	0	60	69060
2026-01-13 15:51:43.11	20.09	1.45	-47.3	-65.1	3.5	3.01e+01	0	26	104	0	60	69031
2026-01-13 15:51:44.12	20.12	1.51	-47.3	-65.1	3.5	3.01e+01	0	26	104	0	60	68875
2026-01-13 15:51:45.13	20.15	1.58	-47.3	-64.9	3.5	3.01e+01	0	26	104	0	60	67749
2026-01-13 15:51:46.14	20.17	1.64	-47.3	-65.0	3.5	3.01e+01	0	26	104	0	60	68048
2026-01-13 15:51:47.15	20.20	1.71	-47.3	-64.9	3.5	3.01e+01	0	26	104	0	60	67888
2026-01-13 15:51:48.16	20.22	1.77	-47.3	-65.0	3.5	3.01e+01	0	26	104	0	60	68110
2026-01-13 15:51:49.17	20.25	1.84	-47.3	-65.0	3.5	3.01e+01	0	26	104	0	60	68710
2026-01-13 15:51:50.18	20.27	1.90	-47.3	-65.0	3.5	3.01e+01	0	26	104	0	60	68807
2026-01-13 15:51:51.19	20.30	1.97	-47.3	-65.0	3.5	3.01e+01	0	26	104	0	60	68612
2026-01-13 15:51:52.20	20.33	2.04	-47.3	-64.8	3.5	3.01e+01	0	26	104	0	60	66958
2026-01-13 15:51:53.21	20.35	2.10	-47.3	-64.8	3.5	3.01e+01	0	26	104	0	60	66526
2026-01-13 15:51:54.21	20.38	2.17	-47.3	-64.9	3.5	3.01e+01	0	26	104	0	60	67622
2026-01-13 15:51:55.23	20.40	2.23	-47.3	-64.9	3.5	3.01e+01	0	26	104	0	60	67751
2026-01-13 15:51:56.24	20.43	2.30	-47.3	-65.0	3.5	3.01e+01	0	26	104	0	60	68653
2026-01-13 15:51:57.25	20.46	2.37	-47.2	-64.4	3.5	3.01e+01	0	26	104	0	60	63877
2026-01-13 15:51:58.26	20.48	2.43	-47.2	-63.2	3.5	3.01e+01	0	26	104	0	60	55601
2026-01-13 15:51:59.27	20.51	2.50	-47.1	-61.1	4.4	3.01e+01	0	26	104	0	60	43657
2026-01-13 15:52:00.28	20.54	2.57	-47.0	-59.9	5.1	3.01e+01	2	26	104	0	60	37879
2026-01-13 15:52:01.28	20.57	2.63	-46.9	-58.6	6.0	3.01e+01	92	26	104	0	60	32695
2026-01-13 15:52:02.29	20.59	2.70	-47.0	-58.0	5.6	3.01e+01	92	26	0	1048576	60	30500
2026-01-13 15:52:03.30	20.62	2.77	-47.0	-59.0	5.7	3.01e+01	0	26	104	1048576	60	34474
2026-01-13 15:52:04.31	20.65	2.84	-46.9	-57.8	6.1	3.01e+01	91	26	0	1572864	60	29834
2026-01-13 15:52:05.32	20.67	2.91	-46.6	-55.1	8.9	3.01e+01	63	26	0	3670016	60	21880
2026-01-13 15:52:06.33	20.70	2.97	-45.8	-51.8	12.6	3.01e+01	55	26	0	5767168	60	14917
2026-01-13 15:52:07.34	20.73	3.04	-44.6	-48.8	15.9	3.01e+01	59	26	0	7340032	60	10551
2026-01-13 15:52:08.35	20.76	3.11	-42.9	-45.9	18.8	3.01e+01	58	26	0	9437184	60	7565
2026-01-13 15:52:09.36	20.79	3.18	-41.7	-44.0	20.6	3.01e+01	53	26	0	11010048	58	6867
2026-01-13 15:52:10.37	20.81	3.25	-40.4	-42.4	22.3	3.01e+01	61	26	0	13107200	56	6373
2026-01-13 15:52:11.38	20.84	3.32	-39.7	-50.4	3.4	3.01e+01	0	26	104	14680064	54	18100
2026-01-13 15:52:12.39	20.87	3.39	-39.4	-50.2	3.4	3.01e+01	0	26	104	14680064	54	17517
2026-01-13 15:52:13.40	20.90	3.46	-39.1	-49.6	3.5	3.01e+01	0	26	104	14680064	54	16501
2026-01-13 15:52:14.41	20.93	3.53	-39.2	-49.8	3.6	3.01e+01	0	26	104	14680064	54	16802
2026-01-13 15:52:15.42	20.96	3.60	-39.7	-50.4	3.6	3.01e+01	0	26	104	14680064	54	17976
2026-01-13 15:52:16.43	20.99	3.67	-40.6	-51.4	3.6	3.01e+01	0	26	104	14680064	54	20262
2026-01-13 15:52:17.44	21.01	3.74	-41.7	-52.8	3.4	3.01e+01	0	26	104	14680064	56	21225
2026-01-13 15:52:18.45	21.04	3.81	-42.9	-54.5	3.5	3.01e+01	0	26	104	14680064	58	22945
2026-01-13 15:52:19.45	21.07	3.88	-41.6	-52.7	3.6	3.01e+01	0	26	104	14680064	60	16627
2026-01-13 15:52:20.46	21.10	3.95	-38.3	-48.7	3.6	3.01e+01	0	26	104	14680064	52	16584
2026-01-13 15:52:21.47	21.13	4.02	-40.7	-51.6	3.5	3.01e+01	0	26	104	14680064	52	23241
2026-01-13 15:52:22.48	21.16	4.09	-47.1	-64.4	3.5	3.01e+01	0	26	104	14680064	60	64215
2026-01-13 15:52:23.49	21.19	4.16	-37.9	-48.4	4.1	3.01e+01	0	26	104	14680064	52	15987
2026-01-13 15:52:24.50	21.22	4.23	-44.4	-56.8	3.6	3.01e+01	0	26	104	14680064	60	26540
2026-01-13 15:52:25.51	21.25	4.30	-38.5	-48.9	3.8	3.01e+01	0	26	104	14680064	52	17073
2026-01-13 15:52:26.51	21.28	4.38	-38.2	-48.7	4.0	3.01e+01	0	26	104	14680064	52	16526
2026-01-13 15:52:27.52	21.31	4.45	-38.1	-48.5	4.0	3.01e+01	0	26	104	14680064	50	18187
2026-01-13 15:52:28.53	21.34	4.52	-37.7	-48.2	3.4	3.01e+01	0	26	104	14680064	50	17506
2026-01-13 15:52:29.54	21.37	4.59	-39.9	-50.7	3.5	3.01e+01	0	26	104	14680064	56	16519
2026-01-13 15:52:30.55	21.40	4.67	-41.1	-52.1	3.4	3.01e+01	0	26	104	14680064	52	24674
2026-01-13 15:52:31.56	21.43	4.74	-46.9	-63.2	3.5	3.01e+01	0	26	104	14680064	60	55675
2026-01-13 15:52:32.57	21.46	4.81	-37.8	-48.3	3.5	3.01e+01	0	26	104	14680064	50	17735
2026-01-13 15:52:33.58	21.50	4.89	-44.1	-56.2	3.5	3.01e+01	0	26	104	14680064	60	24935
2026-01-13 15:52:34.59	21.53	4.96	-37.9	-48.4	3.5	3.01e+01	0	26	104	14680064	52	16036
2026-01-13 15:52:35.60	21.56	5.03	-38.1	-48.5	3.5	3.01e+01	0	26	104	14680064	50	18288
2026-01-13 15:52:36.60	21.59	5.11	-37.7	-48.2	3.5	3.01e+01	0	26	104	14680064	50	17503
2026-01-13 15:52:37.61	21.62	5.18	-37.5	-47.9	3.5	3.01e+01	0	26	104	14680064	50	17027
2026-01-13 15:52:38.62	21.65	5.26	-39.1	-49.8	3.5	3.01e+01	0	26	104	14680064	52	18751
2026-01-13 15:52:39.63	21.69	5.33	-45.6	-59.2	3.5	3.01e+01	0	26	104	14680064	58	39213
2026-01-13 15:52:40.64	21.72	5.41	-45.2	-58.6	3.5	3.01e+01	0	26	104	14680064	60	32576
2026-01-13 15:52:41.65	21.75	5.48	-40.9	-51.7	3.6	3.01e+01	0	26	104	14680064	52	23548
2026-01-13 15:52:42.66	21.78	5.56	-41.3	-52.2	3.2	3.01e+01	0	26	104	14680064	60	15615
2026-01-13 15:52:43.67	21.81	5.63	-38.6	-49.1	3.5	3.01e+01	0	27	104	14680064	52	17480
2026-01-13 15:52:44.68	21.85	5.71	-38.4	-49.0	3.5	3.01e+01	0	27	104	14680064	52	17097
2026-01-13 15:52:45.69	21.88	5.79	-37.5	-47.9	3.5	3.01e+01	0	27	104	14680064	50	17042
2026-01-13 15:52:46.70	21.91	5.86	-38.1	-48.5	3.5	3.01e+01	0	26	104	14680064	48	20468
2026-01-13 15:52:47.71	21.95	5.94	-39.4	-50.1	3.5	3.01e+01	0	26	104	14680064	54	17355
2026-01-13 15:52:48.72	21.98	6.02	-46.6	-61.1	3.5	3.01e+01	0	26	104	14680064	60	43450
2026-01-13 15:52:49.73	22.01	6.09	-44.2	-56.5	3.5	3.01e+01	0	27	104	14680064	60	25730
2026-01-13 15:52:50.74	22.05	6.17	-41.5	-52.5	3.5	3.01e+01	0	26	104	14680064	52	25589
2026-01-13 15:52:51.74	22.08	6.25	-40.8	-51.7	3.5	3.01e+01	0	26	104	14680064	60	14779
2026-01-13 15:52:52.76	22.12	6.33	-38.5	-49.0	3.5	3.01e+01	0	26	104	14680064	52	17195
2026-01-13 15:52:53.77	22.15	6.41	-38.1	-48.6	3.5	3.01e+01	0	26	104	14680064	52	16398
2026-01-13 15:52:54.77	22.19	6.48	-37.6	-48.1	3.5	3.01e+01	0	27	104	14680064	50	17345
2026-01-13 15:52:55.78	22.22	6.56	-40.1	-50.9	3.6	3.01e+01	0	26	104	14680064	52	21314
2026-01-13 15:52:56.79	22.25	6.64	-39.7	-50.4	3.5	3.01e+01	0	27	104	14680064	54	18074
2026-01-13 15:52:57.80	22.29	6.72	-47.6	-65.3	3.5	3.01e+01	0	27	104	14680064	60	70845
2026-01-13 15:52:58.81	22.32	6.80	-39.6	-50.4	3.6	3.01e+01	0	27	104	14680064	56	15971
2026-01-13 15:52:59.82	22.36	6.88	-45.8	-59.2	3.5	3.01e+01	0	27	104	14680064	60	34972
2026-01-13 15:53:00.83	22.40	6.96	-39.2	-49.8	3.5	3.01e+01	0	27	104	14680064	54	16865
2026-01-13 15:53:01.84	22.43	7.04	-37.9	-48.3	3.5	3.01e+01	0	27	104	14680064	50	17865
2026-01-13 15:53:02.85	22.47	7.12	-37.1	-47.5	3.5	3.01e+01	0	27	104	14680064	50	16157
2026-01-13 15:53:03.86	22.50	7.20	-36.7	-47.0	3.5	3.01e+01	0	27	104	14680064	48	17219
2026-01-13 15:53:04.87	22.54	7.29	-41.2	-52.1	3.5	3.01e+01	0	27	104	14680064	54	22009
2026-01-13 15:53:05.88	22.58	7.37	-39.9	-50.6	3.5	3.01e+01	0	27	104	14680064	56	16454
2026-01-13 15:53:06.89	22.61	7.45	-47.6	-65.3	3.5	3.01e+01	0	26	104	14680064	60	70537
2026-01-13 15:53:07.90	22.65	7.53	-41.5	-52.6	3.5	3.01e+01	0	27	104	14680064	60	16385
2026-01-13 15:53:08.91	22.69	7.61	-46.1	-59.7	3.5	3.01e+01	0	27	104	14680064	60	37317
2026-01-13 15:53:09.92	22.73	7.70	-39.1	-49.7	3.5	3.01e+01	0	27	104	14680064	56	14738
2026-01-13 15:53:10.93	22.76	7.78	-38.2	-48.7	3.5	3.01e+01	0	27	104	14680064	52	16635
2026-01-13 15:53:11.93	22.80	7.86	-37.8	-48.2	3.5	3.01e+01	0	27	104	14680064	50	17642
2026-01-13 15:53:12.94	22.84	7.95	-37.2	-47.6	3.5	3.01e+01	0	27	104	14680064	50	16484
2026-01-13 15:53:13.95	22.88	8.03	-37.1	-47.5	3.5	3.01e+01	0	27	104	14680064	48	18169
2026-01-13 15:53:14.96	22.91	8.11	-39.2	-49.8	3.5	3.01e+01	0	27	104	14680064	50	21048
2026-01-13 15:53:15.97	22.95	8.20	-47.6	-64.5	3.5	3.01e+01	0	27	104	14680064	60	64816
2026-01-13 15:53:16.98	22.99	8.28	-40.6	-51.4	3.5	3.01e+01	0	27	104	14680064	56	17987
2026-01-13 15:53:17.99	23.03	8.37	-47.5	-63.7	3.5	3.01e+01	0	27	104	14680064	60	58896
2026-01-13 15:53:19.00	23.07	8.45	-38.0	-48.4	3.5	3.01e+01	0	27	104	14680064	50	17949
2026-01-13 15:53:20.01	23.11	8.54	-37.6	-48.0	3.5	3.01e+01	0	27	104	14680064	50	17137
2026-01-13 15:53:21.02	23.15	8.63	-37.0	-47.4	3.5	3.01e+01	0	27	104	14680064	50	15973
2026-01-13 15:53:22.03	23.19	8.71	-36.7	-47.0	3.5	3.01e+01	0	27	104	14680064	48	17231
2026-01-13 15:53:23.04	23.23	8.80	-42.6	-53.8	3.5	3.01e+01	0	27	104	14680064	56	23804
2026-01-13 15:53:24.05	23.27	8.89	-39.4	-50.0	3.6	3.01e+01	0	27	104	14680064	54	17231
2026-01-13 15:53:25.05	23.31	8.97	-47.6	-64.5	3.5	3.01e+01	0	27	104	14680064	60	64293
2026-01-13 15:53:26.06	23.35	9.06	-40.3	-51.0	3.5	3.01e+01	0	27	104	14680064	56	17185
2026-01-13 15:53:27.07	23.39	9.15	-47.7	-64.1	3.5	3.01e+01	0	27	104	14680064	60	61839
2026-01-13 15:53:28.08	23.43	9.24	-40.4	-51.2	3.5	3.01e+01	0	27	104	14680064	56	17507
2026-01-13 15:53:29.09	23.48	9.33	-39.7	-50.2	3.5	3.01e+01	0	27	104	14680064	54	17680
2026-01-13 15:53:30.09	23.52	9.42	-39.9	-50.5	3.6	3.01e+01	0	27	104	14680064	54	18313
2026-01-13 15:53:31.10	23.56	9.50	-39.9	-50.4	3.5	3.01e+01	0	27	104	14680064	54	18097
2026-01-13 15:53:32.11	23.60	9.59	-47.6	-63.7	3.5	3.01e+01	0	27	104	14680064	60	58684
2026-01-13 15:53:33.12	23.64	9.68	-39.2	-49.8	3.5	3.01e+01	0	27	104	14680064	54	16882
2026-01-13 15:53:34.13	23.69	9.78	-47.7	-64.5	3.5	3.01e+01	0	27	104	14680064	60	64280
2026-01-13 15:53:35.14	23.73	9.87	-39.7	-50.4	3.5	3.01e+01	0	27	104	14680064	56	16037
2026-01-13 15:53:36.15	23.77	9.96	-47.6	-64.8	3.5	3.01e+01	0	27	104	14680064	60	66695
2026-01-13 15:53:37.16	23.82	10.05	-37.7	-48.1	3.5	3.01e+01	0	27	104	14680064	50	17390
2026-01-13 15:53:38.17	23.86	10.14	-37.8	-48.3	3.5	3.01e+01	0	27	104	14680064	50	17863
2026-01-13 15:53:39.18	23.90	10.23	-37.1	-47.5	3.5	3.01e+01	0	27	104	14680064	50	16174
2026-01-13 15:53:40.19	23.95	10.33	-36.8	-47.1	3.5	3.01e+01	0	27	104	14680064	48	17475
2026-01-13 15:53:41.19	23.99	10.42	-38.2	-48.7	3.5	3.01e+01	0	27	104	14680064	50	18574
2026-01-13 15:53:42.21	24.04	10.51	-38.5	-49.2	3.6	3.01e+01	0	27	104	14680064	52	17504
2026-01-13 15:53:43.21	24.08	10.61	-47.6	-64.3	3.5	3.01e+01	0	27	104	14680064	60	62983
2026-01-13 15:53:44.22	24.13	10.70	-39.3	-50.0	3.5	3.01e+01	0	27	104	14680064	54	17207
2026-01-13 15:53:45.23	24.18	10.79	-47.1	-64.3	3.5	3.01e+01	0	27	104	14680064	60	63244
2026-01-13 15:53:46.24	24.22	10.89	-37.3	-47.8	3.5	3.01e+01	0	27	104	14680064	50	16725
2026-01-13 15:53:47.25	24.27	10.99	-36.5	-47.0	3.5	3.01e+01	0	27	104	14680064	48	17178
2026-01-13 15:53:48.26	24.31	11.08	-36.0	-46.4	3.5	3.01e+01	0	27	104	14680064	48	15952
2026-01-13 15:53:49.27	24.36	11.18	-36.0	-46.3	3.5	3.01e+01	0	27	104	14680064	46	17861
2026-01-13 15:53:50.28	24.41	11.27	-36.9	-47.3	3.5	3.01e+01	0	27	104	14680064	46	20041
2026-01-13 15:53:51.29	24.46	11.37	-37.2	-47.6	3.3	3.01e+01	0	27	104	14680064	52	14644
2026-01-13 15:53:52.30	24.50	11.47	-46.9	-64.8	3.5	3.01e+01	0	27	104	14680064	60	66587
2026-01-13 15:53:53.31	24.55	11.57	-38.6	-49.2	3.6	3.01e+01	0	27	104	14680064	54	15748
2026-01-13 15:53:54.32	24.60	11.66	-47.2	-62.9	3.5	3.01e+01	0	27	104	14680064	60	53625
2026-01-13 15:53:55.33	24.65	11.76	-39.8	-50.4	3.5	3.01e+01	0	27	104	14680064	56	16026
2026-01-13 15:53:56.34	24.70	11.86	-39.7	-50.3	3.6	3.01e+01	0	27	104	14680064	54	17717
2026-01-13 15:53:57.34	24.75	11.96	-38.9	-49.4	3.5	3.01e+01	0	27	104	14680064	52	17945
2026-01-13 15:53:58.35	24.80	12.06	-37.9	-48.3	3.6	3.01e+01	0	27	104	14680064	52	15805
2026-01-13 15:53:59.36	24.85	12.16	-36.9	-47.3	3.5	3.01e+01	0	27	104	14680064	48	17788
2026-01-13 15:54:00.37	24.90	12.26	-37.2	-47.6	3.6	3.01e+01	0	27	104	14680064	50	16341
2026-01-13 15:54:01.38	24.95	12.36	-47.4	-65.0	3.5	3.01e+01	0	27	104	14680064	60	68514
2026-01-13 15:54:02.39	25.00	12.47	-37.1	-47.5	3.5	3.01e+01	0	27	104	14680064	50	16201
2026-01-13 15:54:03.40	25.05	12.57	-46.9	-61.1	3.6	3.01e+01	0	27	104	14680064	60	43618
2026-01-13 15:54:04.41	25.10	12.67	-36.8	-47.2	3.6	3.01e+01	0	27	104	14680064	50	15679
2026-01-13 15:54:05.42	25.16	12.77	-36.7	-47.1	3.5	3.01e+01	0	27	104	14680064	48	17318
2026-01-13 15:54:06.43	25.21	12.88	-36.6	-47.0	3.5	3.01e+01	0	27	104	14680064	48	17123
2026-01-13 15:54:07.44	25.26	12.98	-35.8	-46.1	3.5	3.01e+01	0	27	104	14680064	48	15459
2026-01-13 15:54:08.45	25.32	13.09	-36.4	-46.8	3.5	3.01e+01	0	27	104	14680064	50	14929
2026-01-13 15:54:09.46	25.37	13.19	-36.9	-47.3	3.5	3.01e+01	0	27	104	14680064	48	17797
2026-01-13 15:54:10.47	25.42	13.30	-48.0	-65.2	3.5	3.01e+01	0	27	104	14680064	60	70310
2026-01-13 15:54:11.48	25.48	13.40	-36.2	-46.5	3.5	3.01e+01	0	27	104	14680064	48	16320
2026-01-13 15:54:12.49	25.53	13.51	-44.4	-56.5	3.5	3.01e+01	0	27	104	14680064	60	25665
2026-01-13 15:54:13.49	25.59	13.62	-36.6	-47.0	3.5	3.01e+01	0	27	104	14680064	48	17139
2026-01-13 15:54:14.50	25.64	13.73	-36.2	-46.5	3.5	3.01e+01	0	27	104	14680064	48	16136
2026-01-13 15:54:15.51	25.70	13.83	-36.0	-46.3	3.5	3.01e+01	0	27	104	14680064	48	15823
2026-01-13 15:54:16.52	25.76	13.94	-35.8	-46.0	3.5	3.01e+01	0	27	104	14680064	46	17246
2026-01-13 15:54:17.53	25.81	14.05	-38.6	-49.2	3.5	3.01e+01	0	27	104	14680064	50	19643
2026-01-13 15:54:18.54	25.87	14.16	-37.9	-48.2	3.5	3.01e+01	0	27	104	14680064	48	19688
2026-01-13 15:54:19.55	25.93	14.27	-47.1	-62.0	3.6	3.01e+01	0	27	104	14680064	60	48450
2026-01-13 15:54:20.56	25.99	14.38	-36.1	-46.3	3.5	3.01e+01	0	27	104	14680064	48	15895
2026-01-13 15:54:21.57	26.04	14.49	-45.3	-58.0	3.6	3.01e+01	0	27	104	14680064	60	30469
2026-01-13 15:54:22.58	26.10	14.61	-39.3	-49.9	3.5	3.01e+01	0	27	104	14680064	54	16908
2026-01-13 15:54:23.59	26.16	14.72	-38.8	-49.3	3.5	3.01e+01	0	27	104	14680064	52	17778
2026-01-13 15:54:24.60	26.22	14.83	-37.3	-47.6	3.5	3.01e+01	0	27	104	14680064	50	16498
2026-01-13 15:54:25.61	26.28	14.94	-36.0	-46.2	3.5	3.01e+01	0	27	104	14680064	48	15723
2026-01-13 15:54:26.62	26.34	15.06	-36.8	-47.2	3.5	3.01e+01	0	27	104	14680064	46	19663
2026-01-13 15:54:27.63	26.40	15.17	-43.6	-55.0	3.5	3.01e+01	0	27	104	14680064	52	34404
2026-01-13 15:54:28.64	26.47	15.29	-42.8	-54.2	3.6	3.01e+01	0	27	104	14680064	60	19739
2026-01-13 15:54:29.65	26.53	15.40	-39.2	-49.7	3.6	3.01e+01	0	27	104	14680064	46	26451
2026-01-13 15:54:30.66	26.59	15.52	-39.9	-50.5	3.2	3.01e+01	0	27	104	14680064	60	12835
2026-01-13 15:54:31.66	26.65	15.64	-36.5	-46.9	3.5	3.01e+01	0	27	104	14680064	48	16957
2026-01-13 15:54:32.67	26.72	15.75	-35.8	-46.1	3.5	3.01e+01	0	27	104	14680064	46	17455
2026-01-13 15:54:33.68	26.78	15.87	-35.6	-45.9	3.5	3.01e+01	0	27	104	14680064	46	17042
2026-01-13 15:54:34.69	26.85	15.99	-35.9	-46.1	3.5	3.01e+01	0	27	104	14680064	46	17462
2026-01-13 15:54:35.70	26.91	16.11	-38.4	-48.9	3.5	3.01e+01	0	27	104	14680064	50	19008
2026-01-13 15:54:36.71	26.98	16.23	-44.8	-57.0	3.5	3.01e+01	0	27	104	14680064	54	38397
2026-01-13 15:54:37.71	27.04	16.35	-41.6	-52.6	3.5	3.01e+01	0	27	104	14680064	60	16456
2026-01-13 15:54:38.72	27.11	16.47	-40.4	-51.1	3.5	3.01e+01	0	27	104	14680064	46	30862
2026-01-13 15:54:39.73	27.18	16.59	-39.1	-49.6	3.5	3.01e+01	0	27	104	14680064	58	13029
2026-01-13 15:54:40.74	27.24	16.72	-36.3	-46.6	3.5	3.01e+01	0	27	104	14680064	48	16351
2026-01-13 15:54:41.76	27.31	16.84	-35.5	-45.7	3.5	3.01e+01	0	27	104	14680064	46	16609
2026-01-13 15:54:42.76	27.38	16.96	-35.2	-45.3	3.5	3.01e+01	0	27	104	14680064	46	15909
2026-01-13 15:54:43.77	27.45	17.09	-36.0	-46.3	3.7	3.01e+01	0	27	104	14680064	44	20033
2026-01-13 15:54:44.78	27.52	17.21	-38.5	-48.9	3.5	3.01e+01	0	27	104	14680064	50	19147
2026-01-13 15:54:45.79	27.59	17.34	-48.0	-65.0	3.5	3.01e+01	0	27	104	14680064	60	68772
2026-01-13 15:54:46.81	27.66	17.47	-39.6	-50.3	3.6	3.01e+01	0	27	104	14680064	56	15799
2026-01-13 15:54:47.81	27.74	17.59	-41.8	-52.8	3.4	3.01e+01	0	27	104	14680064	50	29959
2026-01-13 15:54:48.82	27.81	17.72	-40.8	-51.6	3.5	3.01e+01	0	27	104	14680064	58	16420
2026-01-13 15:54:49.83	27.88	17.85	-39.1	-49.6	3.5	3.01e+01	0	27	104	14680064	52	18457
2026-01-13 15:54:50.84	27.95	17.98	-38.8	-49.3	3.5	3.01e+01	0	27	104	14680064	52	17791
2026-01-13 15:54:51.85	28.03	18.11	-39.2	-49.8	3.5	3.01e+01	0	27	104	14680064	52	18794
2026-01-13 15:54:52.86	28.10	18.24	-43.3	-54.8	3.5	3.01e+01	0	27	104	14680064	58	23834
2026-01-13 15:54:53.87	28.18	18.37	-39.8	-50.4	3.6	3.01e+01	0	27	104	14680064	56	15977
2026-01-13 15:54:54.88	28.26	18.50	-48.0	-64.8	3.5	3.01e+01	0	27	104	14680064	60	67168
2026-01-13 15:54:55.89	28.33	18.64	-39.3	-49.8	3.5	3.01e+01	0	27	104	14680064	54	16795
2026-01-13 15:54:56.89	28.41	18.77	-46.2	-59.5	3.5	3.01e+01	0	27	104	14680064	60	36256
2026-01-13 15:54:57.90	28.49	18.90	-37.2	-47.5	3.5	3.01e+01	0	27	104	14680064	50	16316
2026-01-13 15:54:58.91	28.57	19.04	-36.3	-46.6	3.5	3.01e+01	0	27	104	14680064	48	16395
2026-01-13 15:54:59.92	28.65	19.17	-36.2	-46.5	3.5	3.01e+01	0	27	104	14680064	48	16146
2026-01-13 15:55:00.93	28.73	19.31	-36.0	-46.2	3.5	3.01e+01	0	27	104	14680064	48	15672
2026-01-13 15:55:01.94	28.81	19.45	-37.1	-47.5	3.5	3.01e+01	0	27	104	14680064	46	20372
2026-01-13 15:55:02.95	28.89	19.59	-37.6	-48.0	3.5	3.01e+01	0	27	104	14680064	46	21710
2026-01-13 15:55:03.96	28.97	19.73	-48.0	-64.5	3.5	3.01e+01	0	27	104	14680064	60	64602
2026-01-13 15:55:04.97	29.06	19.87	-38.8	-49.4	3.5	3.01e+01	0	27	104	14680064	54	16015
2026-01-13 15:55:05.97	29.14	20.01	-47.7	-63.2	3.5	3.01e+01	0	27	104	14680064	60	55466
2026-01-13 15:55:06.98	29.22	20.15	-36.3	-46.5	3.6	3.01e+01	0	27	104	14680064	48	16318
2026-01-13 15:55:07.99	29.31	20.29	-35.9	-46.1	3.5	3.01e+01	0	27	104	14680064	48	15449
2026-01-13 15:55:09.00	29.40	20.43	-36.0	-46.2	3.5	3.01e+01	0	27	104	14680064	46	17605
2026-01-13 15:55:10.01	29.48	20.58	-35.8	-46.1	3.5	3.01e+01	0	27	104	14680064	46	17348
2026-01-13 15:55:11.02	29.57	20.72	-42.7	-53.9	3.5	3.01e+01	0	27	104	14680064	58	21385
2026-01-13 15:55:12.03	29.66	20.87	-39.3	-49.8	3.5	3.01e+01	0	27	104	14680064	52	18883
2026-01-13 15:55:13.03	29.75	21.01	-47.8	-63.5	3.5	3.01e+01	0	27	104	14680064	60	57522
2026-01-13 15:55:14.04	29.84	21.16	-39.2	-49.8	3.5	3.01e+01	0	27	104	14680064	54	16849
2026-01-13 15:55:15.05	29.93	21.31	-47.8	-63.4	3.5	3.01e+01	0	27	104	14680064	60	56927
2026-01-13 15:55:16.06	30.02	21.46	-39.1	-49.6	3.5	3.01e+01	0	27	104	14680064	54	16468
2026-01-13 15:55:17.07	30.12	21.61	-38.8	-49.3	3.5	3.01e+01	0	27	104	14680064	52	17698
2026-01-13 15:55:18.08	30.21	21.76	-38.7	-49.1	3.5	3.01e+01	0	27	104	14680064	52	17440
2026-01-13 15:55:19.09	30.31	21.91	-39.2	-49.8	3.5	3.01e+01	0	27	104	14680064	52	18892
2026-01-13 15:55:20.10	30.40	22.07	-39.9	-50.5	3.6	3.01e+01	0	27	104	14680064	54	18272
2026-01-13 15:55:21.11	30.50	22.22	-39.2	-49.7	3.5	3.01e+01	0	27	104	14680064	54	16550
2026-01-13 15:55:22.12	30.60	22.37	-47.9	-63.4	3.5	3.01e+01	0	27	104	14680064	60	57234
2026-01-13 15:55:23.13	30.70	22.53	-39.7	-50.3	3.5	3.01e+01	0	27	104	14680064	54	17841
2026-01-13 15:55:24.14	30.80	22.69	-47.8	-63.5	3.5	3.01e+01	0	27	104	14680064	60	57691
2026-01-13 15:55:25.15	30.90	22.85	-36.3	-46.6	3.5	3.01e+01	0	27	104	14680064	48	16399
2026-01-13 15:55:26.16	31.00	23.00	-36.0	-46.3	3.5	3.01e+01	0	27	104	14680064	46	17746
2026-01-13 15:55:27.17	31.10	23.16	-35.8	-46.0	3.5	3.01e+01	0	27	104	14680064	46	17286
2026-01-13 15:55:28.18	31.21	23.32	-35.7	-45.9	3.5	3.01e+01	0	27	104	14680064	46	17056
2026-01-13 15:55:29.18	31.31	23.49	-43.0	-54.2	3.5	3.01e+01	0	27	104	14680064	60	19829
2026-01-13 15:55:30.20	31.42	23.65	-38.4	-48.8	3.5	3.01e+01	0	27	104	14680064	54	14982
2026-01-13 15:55:31.20	31.52	23.81	-47.9	-63.6	3.5	3.01e+01	0	27	104	14680064	60	58201
2026-01-13 15:55:32.21	31.63	23.98	-39.9	-50.5	3.6	3.01e+01	0	27	104	14680064	54	18282
2026-01-13 15:55:33.22	31.74	24.14	-47.9	-63.7	3.5	3.01e+01	0	27	104	14680064	60	58988
2026-01-13 15:55:34.23	31.85	24.31	-36.5	-46.8	3.5	3.01e+01	0	27	104	14680064	48	16862
2026-01-13 15:55:35.24	31.97	24.48	-36.1	-46.4	3.5	3.01e+01	0	27	104	14680064	48	16012
2026-01-13 15:55:36.25	32.08	24.65	-35.7	-45.9	3.5	3.01e+01	0	27	104	14680064	46	17059
2026-01-13 15:55:37.26	32.19	24.82	-35.5	-45.7	3.5	3.01e+01	0	27	104	14680064	46	16596
2026-01-13 15:55:38.27	32.31	24.99	-42.3	-53.3	3.5	3.01e+01	0	27	104	14680064	60	17847
2026-01-13 15:55:39.28	32.43	25.16	-37.0	-47.4	3.5	3.01e+01	0	27	104	14680064	50	15983
2026-01-13 15:55:40.29	32.55	25.33	-48.1	-64.4	3.5	3.01e+01	0	27	104	14680064	60	63570
2026-01-13 15:55:41.30	32.66	25.51	-39.4	-50.0	3.6	3.01e+01	0	27	104	14680064	54	17211
2026-01-13 15:55:42.31	32.79	25.68	-47.8	-63.5	3.5	3.01e+01	0	27	104	14680064	60	57606
2026-01-13 15:55:43.32	32.91	25.86	-39.8	-50.3	3.5	3.01e+01	0	27	104	14680064	54	17816
2026-01-13 15:55:44.33	33.03	26.04	-39.8	-50.4	3.5	3.01e+01	0	27	104	14680064	54	17927
2026-01-13 15:55:45.34	33.16	26.22	-39.2	-49.7	3.5	3.01e+01	0	27	104	14680064	54	16575
2026-01-13 15:55:46.35	33.28	26.40	-37.6	-48.0	3.5	3.01e+01	0	27	104	14680064	50	17124
2026-01-13 15:55:47.36	33.41	26.58	-37.5	-47.7	3.5	3.01e+01	0	27	104	14680064	50	16679
2026-01-13 15:55:48.36	33.54	26.76	-36.6	-46.7	3.5	3.01e+01	0	27	104	14680064	48	16701
2026-01-13 15:55:49.38	33.67	26.95	-48.2	-64.7	3.5	3.01e+01	0	27	104	14680064	60	65883
2026-01-13 15:55:50.38	33.80	27.13	-36.9	-47.2	3.6	3.01e+01	0	27	104	14680064	50	15760
2026-01-13 15:55:51.39	33.94	27.32	-47.2	-61.6	3.5	3.01e+01	0	27	104	14680064	60	46142
2026-01-13 15:55:52.40	34.07	27.50	-36.2	-46.5	3.5	3.01e+01	0	27	104	14680064	48	16178
2026-01-13 15:55:53.41	34.21	27.69	-36.3	-46.6	3.5	3.01e+01	0	27	104	14680064	48	16362
2026-01-13 15:55:54.42	34.35	27.88	-36.4	-46.6	3.5	3.01e+01	0	27	104	14680064	48	16442
2026-01-13 15:55:55.43	34.49	28.07	-36.7	-47.0	3.5	3.01e+01	0	27	104	14680064	48	17178
2026-01-13 15:55:56.44	34.63	28.27	-41.1	-52.0	3.6	3.01e+01	0	27	104	14680064	58	17279
2026-01-13 15:55:57.45	34.78	28.46	-36.3	-46.7	3.5	3.01e+01	0	27	104	14680064	50	14734
2026-01-13 15:55:58.46	34.92	28.66	-48.0	-65.2	3.5	3.01e+01	0	27	104	14680064	60	69931
2026-01-13 15:55:59.47	35.07	28.85	-35.2	-45.4	3.5	3.01e+01	0	27	104	14680064	46	16001
2026-01-13 15:56:00.48	35.22	29.05	-44.1	-55.9	3.5	3.01e+01	0	27	104	14680064	60	24084
2026-01-13 15:56:01.49	35.37	29.25	-36.2	-46.5	3.5	3.01e+01	0	27	104	14680064	46	18125
2026-01-13 15:56:02.50	35.52	29.45	-35.9	-46.2	3.5	3.01e+01	0	27	104	14680064	46	17652
2026-01-13 15:56:03.51	35.68	29.65	-35.3	-45.5	3.5	3.01e+01	0	27	104	14680064	46	16245
2026-01-13 15:56:04.52	35.84	29.85	-34.8	-45.1	3.5	3.01e+01	0	27	104	14680064	44	17337
2026-01-13 15:56:05.53	35.99	30.06	-37.4	-47.7	3.5	3.01e+01	0	27	104	14680064	48	18738
2026-01-13 15:56:06.54	36.16	30.26	-37.2	-47.4	3.5	3.01e+01	0	27	104	14680064	48	18092
2026-01-13 15:56:07.55	36.32	30.47	-46.9	-61.2	3.5	3.01e+01	0	27	104	14680064	60	43939
2026-01-13 15:56:08.56	36.48	30.68	-35.4	-45.6	3.5	3.01e+01	0	27	104	14680064	46	16477
2026-01-13 15:56:09.57	36.65	30.89	-45.7	-58.4	3.5	3.01e+01	0	27	104	14680064	60	31957
2026-01-13 15:56:10.57	36.82	31.10	-38.8	-49.2	3.5	3.01e+01	0	27	104	14680064	52	17576
2026-01-13 15:56:11.58	36.99	31.31	-38.6	-49.0	3.5	3.01e+01	0	27	104	14680064	52	17151
2026-01-13 15:56:12.59	37.17	31.53	-39.1	-49.5	3.5	3.01e+01	0	27	104	14680064	52	18273
2026-01-13 15:56:13.60	37.34	31.74	-40.7	-51.6	3.5	3.01e+01	0	27	104	14680064	54	20601
2026-01-13 15:56:14.61	37.52	31.96	-43.7	-55.7	3.5	3.01e+01	0	27	104	14680064	60	23370
2026-01-13 15:56:15.62	37.70	32.18	-42.0	-53.0	3.5	3.01e+01	0	27	104	14680064	50	30715
2026-01-13 15:56:16.63	37.89	32.40	-45.1	-57.8	3.5	3.01e+01	0	27	104	14680064	60	29791
2026-01-13 15:56:17.64	38.07	32.62	-40.1	-50.7	3.5	3.01e+01	0	27	104	14680064	50	23412
2026-01-13 15:56:18.65	38.26	32.84	-44.3	-56.1	3.5	3.01e+01	0	27	104	14680064	60	24626
2026-01-13 15:56:19.66	38.45	33.06	-40.6	-51.3	3.5	3.01e+01	0	27	104	14680064	56	17839
2026-01-13 15:56:20.67	38.65	33.29	-40.3	-51.0	3.5	3.01e+01	0	27	104	14680064	56	17173
2026-01-13 15:56:21.68	38.84	33.51	-39.8	-50.4	3.5	3.01e+01	0	27	104	14680064	54	18006
2026-01-13 15:56:22.69	39.04	33.74	-40.5	-51.2	3.5	3.01e+01	0	27	104	14680064	54	19649
2026-01-13 15:56:23.70	39.25	33.97	-47.1	-61.6	3.5	3.01e+01	0	27	104	14680064	60	46023
2026-01-13 15:56:24.71	39.45	34.20	-38.7	-49.2	3.5	3.01e+01	0	27	104	14680064	54	15688
2026-01-13 15:56:25.71	39.66	34.43	-37.0	-47.3	3.5	3.01e+01	0	27	104	14680064	50	15892
2026-01-13 15:56:26.72	39.87	34.67	-45.1	-57.7	3.4	3.01e+01	0	27	104	14680064	54	41706
2026-01-13 15:56:27.73	40.08	34.90	-40.4	-51.3	3.5	3.01e+01	0	27	104	14680064	60	14068
2026-01-13 15:56:28.74	40.30	35.14	-36.7	-47.0	3.5	3.01e+01	0	27	104	14680064	48	17242
2026-01-13 15:56:29.75	40.52	35.38	-36.1	-46.3	3.5	3.01e+01	0	27	104	14680064	48	15773
2026-01-13 15:56:30.76	40.75	35.62	-36.1	-46.4	3.5	3.01e+01	0	27	104	14680064	48	16015
2026-01-13 15:56:31.77	40.97	35.86	-47.4	-62.7	3.5	3.01e+01	0	27	104	14680064	60	52720
2026-01-13 15:56:32.78	41.21	36.10	-42.9	-54.2	3.5	3.01e+01	0	27	104	14680064	60	19785
2026-01-13 15:56:33.79	41.44	36.35	-48.1	-64.9	3.4	3.01e+01	0	27	104	14680064	60	67646
2026-01-13 15:56:34.80	41.68	36.59	-40.7	-51.6	3.4	3.01e+01	0	27	104	14680064	58	16330
2026-01-13 15:56:35.81	41.92	36.84	-46.4	-59.5	3.5	3.01e+01	0	27	104	14680064	60	36427
2026-01-13 15:56:36.82	42.16	37.09	-38.8	-49.3	3.5	3.01e+01	0	27	104	14680064	54	15804
2026-01-13 15:56:37.82	42.41	37.34	-37.6	-48.0	3.5	3.01e+01	0	27	104	14680064	50	17160
2026-01-13 15:56:38.83	42.66	37.59	-37.8	-48.2	3.5	3.01e+01	0	27	104	14680064	50	17510
2026-01-13 15:56:39.84	42.92	37.84	-37.1	-47.4	3.5	3.01e+01	0	27	104	14680064	50	15996
2026-01-13 15:56:40.85	43.18	38.10	-44.9	-57.4	3.5	3.01e+01	0	27	104	14680064	60	28691
2026-01-13 15:56:41.86	43.45	38.35	-42.7	-53.9	3.5	3.01e+01	0	27	104	14680064	60	19152
2026-01-13 15:56:42.87	43.72	38.61	-47.9	-65.8	3.5	3.01e+01	0	27	104	14680064	60	74848
2026-01-13 15:56:43.88	43.99	38.87	-43.8	-55.7	3.5	3.01e+01	0	27	104	14680064	60	23474
2026-01-13 15:56:44.89	44.27	39.13	-46.9	-61.7	3.5	3.01e+01	0	27	104	14680064	60	46716
2026-01-13 15:56:45.90	44.55	39.39	-42.7	-53.9	3.5	3.01e+01	0	27	104	14680064	60	19068
2026-01-13 15:56:46.91	44.84	39.65	-41.5	-52.3	3.5	3.01e+01	0	27	104	14680064	58	17783
2026-01-13 15:56:47.92	45.13	39.91	-40.9	-51.6	3.5	3.01e+01	0	27	104	14680064	56	18414
2026-01-13 15:56:48.93	45.43	40.18	-41.1	-51.9	3.5	3.01e+01	0	27	104	14680064	56	19010
2026-01-13 15:56:49.94	45.73	40.45	-36.1	-46.4	3.5	3.01e+01	0	27	104	14680064	48	16100
2026-01-13 15:56:50.95	46.04	40.71	-47.9	-64.1	3.5	3.01e+01	0	27	104	14680064	60	61463
2026-01-13 15:56:51.96	46.35	40.98	-41.2	-51.9	3.5	3.01e+01	0	27	104	14680064	52	24093
2026-01-13 15:56:52.97	46.66	41.25	-38.2	-48.7	3.5	3.01e+01	0	27	104	14680064	50	18532
2026-01-13 15:56:53.98	46.99	41.52	-48.0	-64.4	3.5	3.01e+01	0	27	104	14680064	60	63944
2026-01-13 15:56:54.99	47.31	41.80	-36.2	-46.4	3.5	3.01e+01	0	27	104	14680064	48	16047
2026-01-13 15:56:55.99	47.64	42.07	-36.2	-46.5	3.6	3.01e+01	0	27	104	14680064	48	16300
2026-01-13 15:56:57.00	47.98	42.34	-35.9	-46.3	3.6	3.01e+01	0	27	104	14680064	46	17717
2026-01-13 15:56:58.01	48.33	42.62	-35.5	-45.7	3.5	3.01e+01	0	27	104	14680064	46	16621
2026-01-13 15:56:59.02	48.68	42.89	-47.0	-60.7	3.5	3.01e+01	0	27	104	14680064	60	41795
2026-01-13 15:57:00.03	49.04	43.17	-43.0	-54.2	3.5	3.01e+01	0	27	104	14680064	56	24871
2026-01-13 15:57:01.04	49.40	43.45	-48.4	-65.0	3.5	3.01e+01	0	27	104	14680064	60	68453
2026-01-13 15:57:02.05	49.77	43.73	-39.0	-49.6	3.5	3.01e+01	0	27	104	14680064	54	16336
2026-01-13 15:57:03.06	50.15	44.01	-48.0	-63.4	3.5	3.01e+01	0	27	104	14680064	60	56771
2026-01-13 15:57:04.07	50.53	44.29	-35.2	-45.4	3.5	3.01e+01	0	27	104	14680064	46	16014
2026-01-13 15:57:05.08	50.92	44.57	-34.8	-45.0	3.5	3.01e+01	0	27	104	14680064	44	17280
2026-01-13 15:57:06.09	51.32	44.86	-34.6	-44.8	3.5	3.01e+01	0	27	104	14680064	44	16795
2026-01-13 15:57:07.09	51.72	45.14	-34.4	-44.5	3.5	3.01e+01	0	27	104	14680064	44	16233
2026-01-13 15:57:08.10	52.13	45.42	-48.3	-64.9	3.5	3.01e+01	0	27	104	14680064	60	67407
2026-01-13 15:57:09.11	52.55	45.71	-39.3	-49.8	3.5	3.01e+01	0	27	104	14680064	54	16874
2026-01-13 15:57:10.12	52.98	45.99	-47.9	-63.0	3.5	3.01e+01	0	27	104	14680064	60	54482
2026-01-13 15:57:11.13	53.41	46.28	-43.0	-54.3	3.5	3.01e+01	0	27	104	14680064	58	22352
2026-01-13 15:57:12.14	53.85	46.56	-48.2	-64.5	3.5	3.01e+01	0	27	104	14680064	60	64828
2026-01-13 15:57:13.15	54.30	46.85	-39.8	-50.2	3.5	3.01e+01	0	27	104	14680064	54	17691
2026-01-13 15:57:14.16	54.76	47.13	-38.7	-49.1	3.5	3.01e+01	0	27	104	14680064	52	17460
2026-01-13 15:57:15.17	55.23	47.42	-37.1	-47.4	3.5	3.01e+01	0	27	104	14680064	50	15967
2026-01-13 15:57:16.17	55.70	47.70	-36.3	-46.6	3.5	3.01e+01	0	27	104	14680064	48	16348
2026-01-13 15:57:17.18	56.19	47.99	-34.5	-44.8	3.5	3.01e+01	0	27	104	14680064	44	16748
2026-01-13 15:57:18.19	56.68	48.27	-43.5	-54.8	3.5	3.01e+01	0	27	104	14680064	60	21121
2026-01-13 15:57:19.20	57.18	48.56	-48.4	-65.0	3.5	3.01e+01	0	27	104	14680064	60	68422
2026-01-13 15:57:20.21	57.70	48.84	-37.5	-47.8	3.5	3.01e+01	0	27	104	14680064	52	14899
2026-01-13 15:57:21.22	58.22	49.13	-48.0	-63.3	3.5	3.01e+01	0	27	104	14680064	60	55974
2026-01-13 15:57:22.22	58.74	49.41	-35.0	-45.2	3.5	3.01e+01	0	27	104	14680064	46	15633
2026-01-13 15:57:23.23	59.29	49.69	-35.0	-45.4	3.5	3.01e+01	0	27	104	14680064	44	17899
2026-01-13 15:57:24.24	59.84	49.98	-34.6	-44.9	3.5	3.01e+01	0	27	104	14680064	44	16939
2026-01-13 15:57:25.25	60.40	50.26	-34.6	-44.8	3.5	3.01e+01	0	27	104	14680064	44	16805
2026-01-13 15:57:26.26	60.97	50.54	-45.9	-58.7	3.5	3.01e+01	0	27	104	14680064	60	33113
2026-01-13 15:57:27.27	61.56	50.82	-40.9	-51.7	3.3	3.01e+01	0	27	104	14680064	60	14858
2026-01-13 15:57:28.28	62.15	51.09	-48.0	-63.6	3.5	3.01e+01	0	27	104	14680064	60	58372
2026-01-13 15:57:29.29	62.76	51.37	-35.4	-45.7	3.4	3.01e+01	0	27	104	14680064	48	14776
2026-01-13 15:57:30.30	63.38	51.64	-47.7	-63.3	3.5	3.01e+01	0	27	104	14680064	60	55990
2026-01-13 15:57:31.31	64.00	51.92	-34.9	-45.2	3.5	3.01e+01	0	27	104	14680064	44	17490
2026-01-13 15:57:32.32	64.65	52.19	-35.1	-45.3	3.5	3.01e+01	0	27	104	14680064	44	17825
2026-01-13 15:57:33.33	65.30	52.46	-34.9	-45.2	3.5	3.01e+01	0	27	104	14680064	44	17585
2026-01-13 15:57:34.33	65.96	52.72	-34.2	-44.2	3.5	3.01e+01	0	27	104	14680064	44	15766
2026-01-13 15:57:35.34	66.63	52.98	-47.0	-60.8	3.5	3.01e+01	0	27	104	14680064	60	42319
2026-01-13 15:57:36.35	67.32	53.25	-35.8	-46.1	3.5	3.01e+01	0	27	104	14680064	48	15460
2026-01-13 15:57:37.36	68.02	53.50	-48.2	-64.3	3.5	3.01e+01	0	27	104	14680064	60	62990
2026-01-13 15:57:38.37	68.73	53.76	-39.4	-49.9	3.5	3.01e+01	0	27	104	14680064	58	13522
2026-01-13 15:57:39.38	69.46	54.01	-48.4	-65.0	3.5	3.01e+01	0	27	104	14680064	60	68571
2026-01-13 15:57:40.39	70.20	54.26	-39.5	-50.0	3.5	3.01e+01	0	27	104	14680064	54	17219
2026-01-13 15:57:41.40	70.95	54.51	-39.3	-49.7	3.5	3.01e+01	0	27	104	14680064	54	16621
2026-01-13 15:57:42.41	71.72	54.75	-39.9	-50.6	3.5	3.01e+01	0	27	104	14680064	52	20738
2026-01-13 15:57:43.42	72.49	54.99	-38.0	-48.3	3.5	3.01e+01	0	27	104	14680064	52	15875
2026-01-13 15:57:44.43	73.28	55.22	-42.7	-53.8	3.5	3.01e+01	0	27	104	14680064	60	18826
2026-01-13 15:57:45.44	74.09	55.45	-46.7	-60.1	3.5	3.01e+01	0	27	104	14680064	60	39004
2026-01-13 15:57:46.45	74.91	55.68	-42.0	-52.9	3.5	3.01e+01	0	27	104	14680064	60	17052
2026-01-13 15:57:47.45	75.73	55.90	-36.2	-46.4	3.5	3.01e+01	0	27	104	14680064	48	16130
2026-01-13 15:57:48.46	76.57	56.11	-48.5	-66.0	3.5	3.01e+01	0	27	104	14680064	60	76734
2026-01-13 15:57:49.47	77.43	56.32	-36.5	-46.8	3.5	3.01e+01	0	27	104	14680064	48	16761
2026-01-13 15:57:50.48	78.30	56.53	-36.4	-46.7	3.5	3.01e+01	0	27	104	14680064	48	16561
2026-01-13 15:57:51.49	79.18	56.73	-36.5	-46.9	3.5	3.01e+01	0	27	104	14680064	48	16990
2026-01-13 15:57:52.50	80.07	56.92	-39.0	-49.3	3.5	3.01e+01	0	27	104	14680064	48	22483
2026-01-13 15:57:53.51	80.98	57.11	-42.8	-53.9	3.5	3.01e+01	0	27	104	14680064	60	19068
2026-01-13 15:57:54.52	81.90	57.29	-38.4	-48.9	3.5	3.01e+01	0	27	104	14680064	54	15066
2026-01-13 15:57:55.53	82.83	57.46	-44.7	-56.6	3.5	3.01e+01	0	27	104	14680064	60	26056
2026-01-13 15:57:56.54	83.78	57.63	-37.3	-47.7	3.5	3.01e+01	0	27	104	14680064	48	18625
2026-01-13 15:57:57.55	84.73	57.79	-44.9	-57.0	3.5	3.01e+01	0	27	104	14680064	60	27147
2026-01-13 15:57:58.56	85.70	57.95	-36.8	-47.1	3.5	3.01e+01	0	27	104	14680064	48	17460
2026-01-13 15:57:59.57	86.68	58.10	-37.1	-47.6	3.5	3.01e+01	0	27	104	14680064	48	18395
2026-01-13 15:58:00.58	87.67	58.24	-36.8	-46.8	3.5	3.01e+01	0	27	104	14680064	48	16891
2026-01-13 15:58:01.59	88.67	58.37	-38.3	-48.7	3.5	3.01e+01	0	27	104	14680064	48	20960
2026-01-13 15:58:02.60	89.67	58.49	-39.7	-50.3	3.5	3.01e+01	0	27	104	14680064	58	14079
2026-01-13 15:58:03.61	90.69	58.61	-38.5	-49.0	3.5	3.01e+01	0	27	104	14680064	52	17109
2026-01-13 15:58:04.62	91.72	58.72	-46.2	-59.0	3.5	3.01e+01	0	27	104	14680064	60	34309
2026-01-13 15:58:05.63	92.75	58.82	-43.4	-54.6	3.6	3.01e+01	0	27	104	14680064	54	29231
2026-01-13 15:58:06.64	93.80	58.91	-44.7	-56.7	3.5	3.01e+01	0	27	104	14680064	60	26249
2026-01-13 15:58:07.65	94.84	59.00	-40.9	-51.5	3.5	3.01e+01	0	27	104	14680064	56	18141
2026-01-13 15:58:08.66	95.90	59.07	-40.1	-50.8	3.5	3.01e+01	0	27	104	14680064	56	16707
2026-01-13 15:58:09.67	96.96	59.14	-38.6	-48.9	3.5	3.01e+01	0	27	104	14680064	52	16998
2026-01-13 15:58:10.67	98.02	59.19	-42.8	-54.1	3.5	3.01e+01	0	27	104	14680064	52	30795
2026-01-13 15:58:11.68	99.09	59.24	-45.8	-58.1	3.5	3.01e+01	0	27	104	14680064	60	31041
2026-01-13 15:58:12.69	100.16	59.28	-41.6	-52.3	3.5	3.01e+01	0	27	104	14680064	50	28322
2026-01-13 15:58:13.71	101.25	59.31	-43.0	-54.2	3.5	3.01e+01	0	27	104	14680064	60	19814
2026-01-13 15:58:14.71	102.32	59.33	-41.3	-52.2	3.5	3.01e+01	0	27	104	14680064	50	27722
2026-01-13 15:58:15.72	103.40	59.35	-40.1	-50.6	3.5	3.01e+01	0	27	104	14680064	60	13012
2026-01-13 15:58:16.73	104.48	59.35	-38.1	-48.4	3.5	3.01e+01	0	27	104	14680064	50	17959
2026-01-13 15:58:17.74	105.56	59.34	-37.6	-48.1	3.5	3.01e+01	0	27	104	14680064	50	17357
2026-01-13 15:58:18.75	106.64	59.33	-37.4	-47.7	3.5	3.01e+01	0	27	104	14680064	50	16540
2026-01-13 15:58:19.76	107.72	59.30	-42.6	-53.7	3.5	3.01e+01	0	27	104	14680064	54	26237
2026-01-13 15:58:20.77	108.80	59.27	-45.0	-57.0	3.5	3.01e+01	0	27	104	14680064	60	27374
2026-01-13 15:58:21.77	109.86	59.23	-46.4	-59.7	3.5	3.01e+01	0	27	104	14680064	60	37224
2026-01-13 15:58:22.78	110.93	59.18	-41.4	-52.1	3.5	3.01e+01	0	27	104	14680064	56	19426
2026-01-13 15:58:23.79	112.00	59.12	-42.4	-53.5	3.4	3.01e+01	0	27	104	14680064	50	32558
2026-01-13 15:58:24.80	113.06	59.05	-42.4	-53.2	3.6	3.01e+01	0	27	104	14680064	60	17669
2026-01-13 15:58:25.81	114.11	58.97	-39.5	-50.2	3.5	3.01e+01	0	27	104	14680064	54	17577
2026-01-13 15:58:26.81	115.15	58.88	-37.9	-48.2	3.5	3.01e+01	0	27	104	14680064	52	15689
2026-01-13 15:58:27.82	116.19	58.79	-38.2	-48.5	3.5	3.01e+01	0	27	104	14680064	50	18203
2026-01-13 15:58:28.83	117.22	58.69	-44.0	-55.7	3.5	3.01e+01	0	27	104	14680064	60	23351
2026-01-13 15:58:29.84	118.25	58.57	-44.0	-55.5	3.5	3.01e+01	0	27	104	14680064	60	22981
2026-01-13 15:58:30.84	119.25	58.46	-46.7	-60.5	3.5	3.01e+01	0	27	104	14680064	60	40998
2026-01-13 15:58:31.85	120.26	58.33	-42.7	-53.7	3.5	3.01e+01	0	27	104	14680064	60	18569
2026-01-13 15:58:32.86	121.25	58.19	-46.6	-59.9	3.4	3.01e+01	0	27	104	14680064	60	37850
2026-01-13 15:58:33.87	122.24	58.05	-40.2	-50.6	3.5	3.01e+01	0	27	104	14680064	56	16458
2026-01-13 15:58:34.88	123.22	57.90	-39.1	-49.5	3.5	3.01e+01	0	27	104	14680064	52	18114
2026-01-13 15:58:35.89	124.18	57.74	-38.6	-48.9	3.6	3.01e+01	0	27	104	14680064	52	16993
2026-01-13 15:58:36.90	125.13	57.58	-39.0	-49.6	3.5	3.01e+01	0	27	104	14680064	52	18361
2026-01-13 15:58:37.91	126.08	57.41	-41.7	-52.7	3.5	3.01e+01	0	27	104	14680064	56	20855
2026-01-13 15:58:38.92	127.01	57.23	-47.8	-63.0	3.5	3.01e+01	0	27	104	14680064	60	54667
2026-01-13 15:58:39.92	127.91	57.05	-40.9	-51.6	3.4	3.01e+01	0	27	104	14680064	50	26116
2026-01-13 15:58:40.93	128.82	56.86	-43.5	-55.1	5.1	3.01e+01	0	27	104	14680064	60	21908
2026-01-13 15:58:41.94	129.71	56.66	-47.9	-57.3	3.5	3.01e+01	77	27	104	14680064	60	28069
2026-01-13 15:58:42.95	130.59	56.46	-37.4	-39.0	23.7	3.01e+01	61	27	104	14680064	50	6095
2026-01-13 15:58:43.96	131.46	56.26	-37.4	-38.7	27.0	3.01e+01	45	27	0	15728640	48	6619
2026-01-13 15:58:44.97	132.31	56.04	-37.1	-38.5	27.0	3.01e+01	56	27	0	17825792	48	6444
2026-01-13 15:58:45.98	133.15	55.83	-37.2	-38.6	27.1	3.01e+01	58	27	0	19398656	48	6502
2026-01-13 15:58:46.99	133.98	55.60	-36.7	-38.0	27.6	3.01e+01	60	27	0	21495808	48	6125
2026-01-13 15:58:48.00	134.79	55.38	-35.6	-36.8	28.7	3.01e+01	59	27	0	23068672	46	5958
2026-01-13 15:58:49.01	135.59	55.14	-35.7	-36.9	28.6	3.01e+01	53	27	0	25165824	46	6041
2026-01-13 15:58:50.01	136.37	54.91	-35.0	-36.2	29.1	3.01e+01	56	27	0	27262976	46	5557
2026-01-13 15:58:51.02	137.15	54.67	-34.6	-35.8	29.5	3.01e+01	64	27	0	28835840	44	5986
2026-01-13 15:58:52.03	137.91	54.43	-34.6	-35.8	29.5	3.01e+01	50	27	0	30932992	44	5955
2026-01-13 15:58:53.04	138.66	54.18	-35.0	-36.3	29.1	3.01e+01	61	27	0	32505856	44	6282
2026-01-13 15:58:54.05	139.40	53.93	-34.6	-35.8	29.5	3.01e+01	59	27	0	34603008	44	5945
2026-01-13 15:58:55.06	140.12	53.67	-34.8	-36.1	29.2	3.01e+01	60	27	0	36700160	44	6136
2026-01-13 15:58:56.07	140.83	53.42	-34.7	-35.9	29.3	3.01e+01	59	27	0	38273024	44	6064
2026-01-13 15:58:57.08	141.53	53.16	-34.2	-35.4	29.8	3.01e+01	49	27	0	40370176	44	5679
2026-01-13 15:58:58.09	142.22	52.89	-34.3	-35.5	29.8	3.01e+01	58	27	0	42467328	44	5750
2026-01-13 15:58:59.10	142.89	52.63	-34.3	-35.5	29.8	3.01e+01	60	27	0	44040192	44	5760
2026-01-13 15:59:00.11	143.55	52.36	-34.8	-36.0	29.3	3.01e+01	49	27	0	46137344	44	6099
2026-01-13 15:59:01.12	144.20	52.09	-34.9	-36.1	28.8	3.01e+01	63	27	0	47710208	44	6194
2026-01-13 15:59:02.12	144.83	51.82	-34.9	-36.1	29.2	3.01e+01	57	27	0	49807360	44	6144
2026-01-13 15:59:03.13	145.46	51.55	-34.6	-35.9	29.5	3.01e+01	61	27	0	51904512	44	5995
2026-01-13 15:59:04.14	146.07	51.27	-34.8	-36.1	29.2	3.01e+01	57	27	0	53477376	44	6148
2026-01-13 15:59:05.15	146.68	50.99	-34.7	-35.9	29.2	3.01e+01	51	27	0	55574528	44	6035
2026-01-13 15:59:06.16	147.27	50.71	-34.9	-36.1	29.2	3.01e+01	59	27	0	57147392	44	6203
2026-01-13 15:59:07.17	147.85	50.43	-35.3	-36.6	28.8	3.01e+01	56	27	0	59244544	44	6518
2026-01-13 15:59:08.18	148.42	50.15	-34.8	-36.0	29.2	3.01e+01	60	27	0	61341696	44	6082
2026-01-13 15:59:09.20	148.99	49.87	-34.9	-36.0	29.3	3.01e+01	61	27	0	62914560	44	6133
2026-01-13 15:59:10.20	149.53	49.59	-35.5	-36.7	28.8	3.01e+01	46	27	0	65011712	44	6623
2026-01-13 15:59:11.22	150.08	49.30	-35.6	-36.9	28.6	3.01e+01	61	27	0	66584576	44	6732
2026-01-13 15:59:12.23	150.61	49.01	-35.6	-36.8	28.5	3.01e+01	57	27	0	68681728	44	6719
2026-01-13 15:59:13.23	151.12	48.73	-35.4	-36.6	28.8	3.01e+01	53	27	0	70778880	44	6536
2026-01-13 15:59:14.24	151.63	48.44	-35.2	-36.4	29.0	3.01e+01	60	27	0	72351744	44	6367
2026-01-13 15:59:15.25	152.13	48.16	-35.2	-36.4	28.9	3.01e+01	58	27	0	74448896	44	6383
2026-01-13 15:59:16.26	152.62	47.87	-35.3	-36.5	28.8	3.01e+01	58	27	0	76021760	44	6457
2026-01-13 15:59:17.27	153.11	47.58	-35.2	-36.5	28.9	3.01e+01	56	27	0	78118912	44	6435
2026-01-13 15:59:18.28	153.58	47.30	-35.4	-36.6	28.8	3.01e+01	58	27	0	80216064	44	6568
2026-01-13 15:59:19.29	154.05	47.01	-35.4	-36.6	28.7	3.01e+01	58	27	0	81788928	44	6551
2026-01-13 15:59:20.30	154.50	46.72	-35.2	-36.5	28.9	3.01e+01	59	27	0	83886080	44	6442
2026-01-13 15:59:21.31	154.95	46.44	-35.1	-36.3	29.0	3.01e+01	45	27	0	85983232	44	6295
2026-01-13 15:59:22.32	155.39	46.15	-35.0	-36.2	29.2	3.01e+01	57	27	0	87556096	44	6236
2026-01-13 15:59:23.33	155.83	45.86	-35.1	-36.3	29.0	3.01e+01	56	27	0	89653248	44	6320
2026-01-13 15:59:24.34	156.25	45.58	-35.1	-36.4	29.0	3.01e+01	62	27	0	91226112	44	6360
2026-01-13 15:59:25.34	156.66	45.30	-35.1	-36.3	29.0	3.01e+01	59	27	0	93323264	44	6306
2026-01-13 15:59:26.35	157.07	45.01	-34.7	-35.9	29.3	3.01e+01	57	27	0	95420416	44	6026
2026-01-13 15:59:27.36	157.48	44.73	-34.8	-35.9	29.4	3.01e+01	61	27	0	96993280	44	6062
2026-01-13 15:59:28.37	157.87	44.44	-34.7	-35.9	29.4	3.01e+01	58	27	0	99090432	44	6064
2026-01-13 15:59:29.38	158.26	44.16	-35.0	-36.2	29.1	3.01e+01	44	27	0	100663296	44	6236
2026-01-13 15:59:30.39	158.64	43.88	-35.0	-36.3	29.1	3.01e+01	60	27	0	102760448	44	6299
2026-01-13 15:59:31.40	159.02	43.60	-35.1	-36.3	29.0	3.01e+01	58	27	0	104857600	44	6334
2026-01-13 15:59:32.41	159.38	43.32	-35.1	-36.3	29.1	3.01e+01	60	27	0	106430464	44	6308
2026-01-13 15:59:33.42	159.75	43.04	-35.2	-36.4	29.0	3.01e+01	61	27	0	108527616	44	6387
2026-01-13 15:59:34.43	160.10	42.76	-35.0	-36.2	29.1	3.01e+01	48	27	0	110624768	44	6250
2026-01-13 15:59:35.44	160.45	42.48	-35.1	-36.3	29.1	3.01e+01	60	27	0	112197632	44	6299
2026-01-13 15:59:36.45	160.79	42.20	-35.1	-36.3	29.1	3.01e+01	60	27	0	114294784	44	6299
2026-01-13 15:59:37.45	161.13	41.93	-35.1	-36.3	29.1	3.01e+01	46	27	0	115867648	44	6336
2026-01-13 15:59:38.46	161.46	41.66	-35.4	-36.6	28.8	3.01e+01	57	27	0	117964800	44	6542
2026-01-13 15:59:39.47	161.79	41.38	-35.4	-36.7	28.7	3.01e+01	56	27	0	120061952	44	6586
2026-01-13 15:59:40.48	162.11	41.11	-35.5	-36.7	28.7	3.01e+01	56	27	0	121634816	44	6641
2026-01-13 15:59:41.49	162.42	40.84	-35.3	-36.6	28.8	3.01e+01	59	27	0	123731968	44	6520
2026-01-13 15:59:42.50	162.74	40.57	-35.6	-36.8	28.6	3.01e+01	53	27	0	125304832	44	6711
2026-01-13 15:59:43.51	163.04	40.30	-35.5	-36.8	28.6	3.01e+01	58	27	0	127401984	44	6674
2026-01-13 15:59:44.52	163.34	40.04	-35.6	-36.9	28.5	3.01e+01	60	27	0	129499136	44	6752
2026-01-13 15:59:45.53	163.64	39.77	-35.4	-36.7	28.8	3.01e+01	59	27	0	131072000	44	6575
2026-01-13 15:59:46.54	163.93	39.51	-35.4	-36.7	28.7	3.01e+01	56	27	0	133169152	44	6576
2026-01-13 15:59:47.55	164.21	39.24	-35.5	-36.7	28.7	3.01e+01	47	27	0	134742016	44	6605
2026-01-13 15:59:48.55	164.49	38.98	-35.2	-36.4	28.9	3.01e+01	59	27	0	136839168	44	6420
2026-01-13 15:59:49.56	164.77	38.72	-35.2	-36.4	29.0	3.01e+01	58	27	0	138936320	44	6392
2026-01-13 15:59:50.57	165.04	38.46	-35.2	-36.5	28.9	3.01e+01	45	27	0	140509184	44	6442
2026-01-13 15:59:51.58	165.31	38.21	-35.3	-36.6	28.8	3.01e+01	60	27	0	142606336	44	6524
2026-01-13 15:59:52.59	165.57	37.95	-35.4	-36.6	28.8	3.01e+01	62	27	0	144179200	44	6544
2026-01-13 15:59:53.60	165.83	37.69	-35.2	-36.5	28.9	3.01e+01	59	27	0	146276352	44	6446
2026-01-13 15:59:54.61	166.09	37.44	-35.3	-36.6	28.8	3.01e+01	59	27	0	148373504	44	6516
2026-01-13 15:59:55.62	166.34	37.19	-35.0	-36.2	29.1	3.01e+01	60	27	0	149946368	44	6269
2026-01-13 15:59:56.63	166.59	36.94	-35.0	-36.2	29.1	3.01e+01	55	27	0	152043520	44	6249
2026-01-13 15:59:57.64	166.83	36.69	-35.0	-36.2	29.2	3.01e+01	60	27	0	153616384	44	6244
2026-01-13 15:59:58.65	167.07	36.44	-34.8	-36.0	29.3	3.01e+01	45	27	0	155713536	44	6087
2026-01-13 15:59:59.66	167.31	36.20	-34.7	-35.9	29.3	3.01e+01	59	27	0	157810688	44	6045
2026-01-13 16:00:00.67	167.54	35.95	-34.6	-35.8	29.5	3.01e+01	61	27	0	159383552	44	5964
2026-01-13 16:00:01.68	167.77	35.71	-34.4	-35.6	29.6	3.01e+01	60	27	0	161480704	44	5807
2026-01-13 16:00:02.68	168.00	35.47	-34.2	-35.4	29.8	3.01e+01	60	27	0	163577856	44	5695
2026-01-13 16:00:03.69	168.22	35.23	-34.2	-35.4	29.8	3.01e+01	58	27	0	165150720	44	5695
2026-01-13 16:00:04.70	168.44	34.99	-34.0	-35.1	30.0	3.01e+01	58	27	0	167247872	44	5511
2026-01-13 16:00:05.71	168.66	34.75	-33.8	-35.0	30.3	3.01e+01	58	27	0	168820736	42	6074
2026-01-13 16:00:06.71	168.87	34.52	-33.7	-34.9	30.3	3.01e+01	46	27	0	170917888	42	6026
2026-01-13 16:00:07.72	169.08	34.28	-33.7	-34.8	30.4	3.01e+01	57	27	0	173015040	42	5991
2026-01-13 16:00:08.73	169.29	34.05	-33.7	-34.9	30.4	3.01e+01	57	27	0	174587904	42	6004
2026-01-13 16:00:09.74	169.49	33.82	-33.8	-35.0	30.2	3.01e+01	59	27	0	176685056	42	6118
2026-01-13 16:00:10.75	169.69	33.59	-33.9	-35.1	30.1	3.01e+01	51	27	0	178257920	42	6169
2026-01-13 16:00:11.76	169.89	33.36	-33.9	-35.1	30.1	3.01e+01	46	27	0	180355072	42	6156
2026-01-13 16:00:12.76	170.09	33.13	-33.7	-34.8	30.3	3.01e+01	59	27	0	181927936	42	5987
2026-01-13 16:00:13.77	170.28	32.91	-33.6	-34.8	30.3	3.01e+01	60	27	0	184025088	42	5930
2026-01-13 16:00:14.78	170.47	32.68	-33.7	-34.9	30.3	3.01e+01	45	27	0	186122240	42	6016
2026-01-13 16:00:15.79	170.66	32.46	-33.5	-34.7	30.3	3.01e+01	61	27	0	187695104	42	5882
2026-01-13 16:00:16.80	170.84	32.24	-33.6	-34.7	30.3	3.01e+01	59	27	0	189792256	42	5922
2026-01-13 16:00:17.81	171.03	32.02	-33.5	-34.6	30.4	3.01e+01	61	27	0	191889408	42	5834
2026-01-13 16:00:18.82	171.21	31.80	-33.5	-34.6	30.4	3.01e+01	60	27	0	193462272	42	5833
2026-01-13 16:00:19.83	171.39	31.58	-33.6	-34.7	30.3	3.01e+01	50	27	0	195559424	42	5926
2026-01-13 16:00:20.84	171.56	31.37	-33.5	-34.6	30.3	3.01e+01	61	27	0	197132288	42	5857
2026-01-13 16:00:21.85	171.73	31.15	-33.5	-34.6	30.2	3.01e+01	59	27	0	199229440	42	5849
2026-01-13 16:00:22.86	171.91	30.94	-33.4	-34.5	30.5	3.01e+01	46	27	0	201326592	42	5765
2026-01-13 16:00:23.87	172.07	30.73	-33.3	-34.5	30.4	3.01e+01	59	27	0	202899456	42	5736
2026-01-13 16:00:24.88	172.24	30.52	-33.3	-34.5	30.5	3.01e+01	43	27	0	204996608	42	5754
2026-01-13 16:00:25.88	172.40	30.31	-33.4	-34.6	30.4	3.01e+01	60	27	0	207093760	42	5816
2026-01-13 16:00:26.89	172.57	30.10	-33.5	-34.7	30.3	3.01e+01	63	27	0	208666624	42	5905
2026-01-13 16:00:27.90	172.73	29.90	-33.5	-34.7	30.3	3.01e+01	54	27	0	210763776	42	5867
2026-01-13 16:00:28.91	172.89	29.69	-33.6	-34.8	30.1	3.01e+01	59	27	0	212336640	42	5969
2026-01-13 16:00:29.92	173.04	29.49	-33.6	-34.7	30.2	3.01e+01	57	27	0	214433792	42	5909
2026-01-13 16:00:30.93	173.20	29.29	-33.6	-34.8	30.2	3.01e+01	63	27	0	216530944	42	5941
2026-01-13 16:00:31.94	173.35	29.09	-33.6	-34.8	30.2	3.01e+01	56	27	0	218103808	42	5973
2026-01-13 16:00:32.95	173.50	28.89	-33.6	-34.8	30.2	3.01e+01	36	27	0	220200960	42	5959
2026-01-13 16:00:33.96	173.65	28.69	-33.8	-34.9	30.0	3.01e+01	57	27	0	221773824	42	6060
2026-01-13 16:00:34.97	173.79	28.49	-33.7	-34.9	30.1	3.01e+01	58	27	0	223870976	42	6045
2026-01-13 16:00:35.97	173.94	28.30	-33.8	-35.0	30.0	3.01e+01	51	27	0	225968128	42	6087
2026-01-13 16:00:36.98	174.08	28.11	-33.8	-34.9	30.0	3.01e+01	60	27	0	227540992	42	6055
2026-01-13 16:00:37.99	174.22	27.91	-33.9	-35.1	30.0	3.01e+01	56	27	0	229638144	42	6186
2026-01-13 16:00:39.00	174.36	27.72	-33.8	-35.0	30.0	3.01e+01	59	27	0	231211008	42	6088
2026-01-13 16:00:40.01	174.50	27.53	-34.0	-35.2	29.8	3.01e+01	59	27	0	233308160	42	6221
2026-01-13 16:00:41.02	174.64	27.34	-34.0	-35.2	29.9	3.01e+01	53	27	0	235405312	42	6269
2026-01-13 16:00:42.03	174.77	27.15	-34.1	-35.3	29.7	3.01e+01	61	27	0	236978176	42	6333
2026-01-13 16:00:43.04	174.91	26.97	-34.2	-35.4	29.7	3.01e+01	57	27	0	239075328	42	6390
2026-01-13 16:00:44.05	175.04	26.78	-34.2	-35.4	29.8	3.01e+01	48	27	0	240648192	42	6381
2026-01-13 16:00:45.06	175.17	26.60	-34.3	-35.5	29.6	3.01e+01	61	27	0	242745344	42	6431
2026-01-13 16:00:46.07	175.30	26.41	-34.4	-35.6	29.5	3.01e+01	64	27	0	244842496	42	6540
2026-01-13 16:00:47.08	175.42	26.23	-34.4	-35.6	29.5	3.01e+01	57	27	0	246415360	42	6541
2026-01-13 16:00:48.09	175.55	26.05	-34.5	-35.7	29.5	3.01e+01	62	27	0	248512512	42	6603
2026-01-13 16:00:49.10	175.68	25.87	-34.4	-35.6	29.4	3.01e+01	50	27	0	250085376	42	6540
2026-01-13 16:00:50.10	175.80	25.70	-34.4	-35.6	29.5	3.01e+01	61	27	0	252182528	42	6521
2026-01-13 16:00:51.11	175.92	25.52	-34.3	-35.5	29.7	3.01e+01	58	27	0	254279680	42	6428
2026-01-13 16:00:52.12	176.04	25.34	-34.5	-35.7	29.6	3.01e+01	52	27	0	255852544	42	6584
2026-01-13 16:00:53.13	176.16	25.17	-34.5	-35.7	29.5	3.01e+01	58	27	0	257949696	42	6576
2026-01-13 16:00:54.14	176.28	24.99	-34.5	-35.7	29.5	3.01e+01	58	27	0	260046848	42	6584
2026-01-13 16:00:55.15	176.39	24.82	-34.7	-35.9	29.3	3.01e+01	55	27	0	261619712	42	6741
2026-01-13 16:00:56.16	176.51	24.65	-34.6	-35.8	29.4	3.01e+01	55	27	0	263716864	42	6696
2026-01-13 16:00:57.17	176.62	24.48	-34.6	-35.8	29.4	3.01e+01	52	27	0	265289728	42	6708
2026-01-13 16:00:58.18	176.73	24.31	-34.5	-35.7	29.4	3.01e+01	58	27	0	267386880	42	6604
2026-01-13 16:00:59.19	176.85	24.14	-34.7	-35.9	29.3	3.01e+01	58	27	0	269484032	42	6752
2026-01-13 16:01:00.20	176.96	23.97	-34.6	-35.8	29.4	3.01e+01	59	27	0	271056896	42	6701
2026-01-13 16:01:01.21	177.06	23.81	-34.6	-35.7	29.5	3.01e+01	60	27	0	273154048	42	6648
2026-01-13 16:01:02.22	177.17	23.64	-34.7	-35.9	29.3	3.01e+01	46	27	0	274726912	42	6739
2026-01-13 16:01:03.23	177.28	23.48	-34.6	-35.9	29.3	3.01e+01	58	27	0	276824064	42	6728
2026-01-13 16:01:04.23	177.38	23.32	-34.7	-35.9	29.2	3.01e+01	61	27	0	278921216	42	6779
2026-01-13 16:01:05.24	177.49	23.16	-34.7	-35.9	29.2	3.01e+01	45	27	0	280494080	42	6762
2026-01-13 16:01:06.25	177.59	22.99	-34.7	-35.9	29.2	3.01e+01	58	27	0	282591232	42	6788
2026-01-13 16:01:07.26	177.69	22.83	-34.8	-36.0	29.2	3.01e+01	57	27	0	284164096	42	6833
2026-01-13 16:01:08.27	177.80	22.68	-34.7	-35.9	29.3	3.01e+01	58	27	0	286261248	42	6744
2026-01-13 16:01:09.28	177.90	22.52	-34.7	-35.9	29.3	3.01e+01	57	27	0	288358400	42	6742
2026-01-13 16:01:10.29	178.00	22.36	-34.7	-35.9	29.2	3.01e+01	55	27	0	289931264	42	6740
2026-01-13 16:01:11.30	178.09	22.20	-34.8	-36.0	29.2	3.01e+01	59	27	0	292028416	42	6853
2026-01-13 16:01:12.31	178.19	22.05	-34.6	-35.8	29.3	3.01e+01	60	27	0	293601280	42	6706
2026-01-13 16:01:13.32	178.29	21.89	-34.6	-35.9	29.2	3.01e+01	44	27	0	295698432	42	6731
2026-01-13 16:01:14.33	178.38	21.74	-34.6	-35.9	29.2	3.01e+01	65	27	0	297795584	42	6734
2026-01-13 16:01:15.33	178.48	21.59	-34.4	-35.6	29.4	3.01e+01	58	27	0	299368448	42	6557
2026-01-13 16:01:16.34	178.57	21.44	-34.6	-35.8	29.4	3.01e+01	59	27	0	301465600	42	6688
2026-01-13 16:01:17.35	178.66	21.29	-34.4	-35.7	29.5	3.01e+01	58	27	0	303562752	42	6577
2026-01-13 16:01:18.36	178.76	21.14	-34.3	-35.5	29.6	3.01e+01	55	27	0	305135616	42	6439
2026-01-13 16:01:19.37	178.85	20.99	-34.3	-35.5	29.5	3.01e+01	59	27	0	307232768	42	6489
2026-01-13 16:01:20.39	178.94	20.84	-34.3	-35.5	29.6	3.01e+01	59	27	0	308805632	42	6445
2026-01-13 16:01:21.40	179.03	20.69	-34.4	-35.6	29.5	3.01e+01	46	27	0	310902784	42	6517
2026-01-13 16:01:22.41	179.11	20.55	-34.4	-35.6	29.6	3.01e+01	59	27	0	312999936	42	6553
2026-01-13 16:01:23.41	179.20	20.40	-34.3	-35.5	29.6	3.01e+01	59	27	0	314572800	42	6487
2026-01-13 16:01:24.42	179.29	20.26	-34.3	-35.5	29.6	3.01e+01	62	27	0	316669952	42	6486
2026-01-13 16:01:25.43	179.37	20.12	-34.3	-35.4	29.7	3.01e+01	60	27	0	318242816	42	6422
2026-01-13 16:01:26.44	179.46	19.97	-34.3	-35.5	29.6	3.01e+01	47	27	0	320339968	42	6471
2026-01-13 16:01:27.45	179.54	19.83	-34.2	-35.4	29.6	3.01e+01	59	27	0	322437120	42	6403
2026-01-13 16:01:28.46	179.63	19.69	-34.3	-35.5	29.6	3.01e+01	61	27	0	324009984	42	6451
2026-01-13 16:01:29.47	179.71	19.55	-34.2	-35.3	29.7	3.01e+01	53	27	0	326107136	42	6346
2026-01-13 16:01:30.48	179.79	19.41	-34.2	-35.4	29.7	3.01e+01	51	27	0	328204288	42	6403
2026-01-13 16:01:31.49	179.87	19.27	-34.2	-35.4	29.7	3.01e+01	62	27	0	329777152	42	6380
2026-01-13 16:01:32.50	179.95	19.13	-34.3	-35.5	29.6	3.01e+01	58	27	0	331874304	42	6485
2026-01-13 16:01:33.51	180.03	19.00	-34.2	-35.4	29.7	3.01e+01	59	27	0	333447168	42	6395
2026-01-13 16:01:34.52	180.11	18.86	-34.2	-35.5	29.7	3.01e+01	51	27	0	335544320	42	6426
2026-01-13 16:01:35.53	180.19	18.73	-34.3	-35.5	29.6	3.01e+01	60	27	0	337641472	42	6484
2026-01-13 16:01:36.54	180.27	18.59	-34.4	-35.6	29.4	3.01e+01	59	27	0	339214336	42	6535
2026-01-13 16:01:37.54	180.34	18.46	-34.3	-35.5	29.6	3.01e+01	58	27	0	341311488	42	6437
2026-01-13 16:01:38.55	180.42	18.32	-34.3	-35.5	29.6	3.01e+01	61	27	0	342884352	42	6435
2026-01-13 16:01:39.56	180.50	18.19	-34.4	-35.6	29.5	3.01e+01	56	27	0	344981504	42	6558
2026-01-13 16:01:40.57	180.57	18.06	-34.2	-35.4	29.7	3.01e+01	58	27	0	347078656	42	6411
2026-01-13 16:01:41.58	180.64	17.93	-34.3	-35.5	29.5	3.01e+01	61	27	0	348651520	42	6482
2026-01-13 16:01:42.59	180.72	17.80	-34.3	-35.6	29.5	3.01e+01	51	27	0	350748672	42	6501
2026-01-13 16:01:43.60	180.79	17.67	-34.2	-35.4	29.7	3.01e+01	61	27	0	352321536	42	6411
2026-01-13 16:01:44.61	180.86	17.54	-34.3	-35.5	29.6	3.01e+01	58	27	0	354418688	42	6448
2026-01-13 16:01:45.62	180.94	17.41	-34.3	-35.5	29.6	3.01e+01	60	27	0	356515840	42	6440
2026-01-13 16:01:46.63	181.01	17.29	-34.4	-35.6	29.5	3.01e+01	61	27	0	358088704	42	6530
2026-01-13 16:01:47.64	181.08	17.16	-34.4	-35.6	29.5	3.01e+01	46	27	0	360185856	42	6560
2026-01-13 16:01:48.65	181.15	17.03	-34.3	-35.5	29.6	3.01e+01	58	27	0	361758720	42	6444
2026-01-13 16:01:49.65	181.22	16.91	-34.4	-35.6	29.5	3.01e+01	60	27	0	363855872	42	6518
2026-01-13 16:01:50.66	181.29	16.78	-34.2	-35.5	29.6	3.01e+01	47	27	0	365953024	42	6424
2026-01-13 16:01:51.67	181.35	16.66	-34.3	-35.5	29.6	3.01e+01	59	27	0	367525888	42	6456
2026-01-13 16:01:52.68	181.42	16.54	-34.3	-35.5	29.5	3.01e+01	58	27	0	369623040	42	6460
2026-01-13 16:01:53.69	181.49	16.41	-34.2	-35.4	29.6	3.01e+01	58	27	0	371720192	42	6416
2026-01-13 16:01:54.70	181.56	16.29	-34.3	-35.5	29.5	3.01e+01	60	27	0	373293056	42	6448
2026-01-13 16:01:55.71	181.62	16.17	-34.3	-35.5	29.4	3.01e+01	58	27	0	375390208	42	6474
2026-01-13 16:01:56.72	181.69	16.05	-34.2	-35.5	29.5	3.01e+01	59	27	0	376963072	42	6431
2026-01-13 16:01:57.73	181.75	15.93	-34.2	-35.5	29.5	3.01e+01	58	27	0	379060224	42	6439
2026-01-13 16:01:58.73	181.82	15.81	-34.3	-35.5	29.5	3.01e+01	45	27	0	381157376	42	6472
2026-01-13 16:01:59.74	181.88	15.69	-34.2	-35.4	29.5	3.01e+01	56	27	0	382730240	42	6413
2026-01-13 16:02:00.75	181.94	15.57	-34.3	-35.5	29.5	3.01e+01	58	27	0	384827392	42	6445
2026-01-13 16:02:01.76	182.01	15.46	-34.1	-35.3	29.7	3.01e+01	59	27	0	386400256	42	6338
2026-01-13 16:02:02.77	182.07	15.34	-34.2	-35.5	29.5	3.01e+01	60	27	0	388497408	42	6425
2026-01-13 16:02:03.78	182.13	15.22	-34.3	-35.6	29.5	3.01e+01	44	27	0	390594560	42	6499
2026-01-13 16:02:04.78	182.19	15.11	-34.2	-35.4	29.6	3.01e+01	60	27	0	392167424	42	6379
2026-01-13 16:02:05.79	182.25	14.99	-34.2	-35.5	29.5	3.01e+01	56	27	0	394264576	42	6437
2026-01-13 16:02:06.80	182.31	14.88	-34.2	-35.4	29.6	3.01e+01	46	27	0	395837440	42	6419
2026-01-13 16:02:07.81	182.37	14.76	-34.2	-35.4	29.5	3.01e+01	62	27	0	397934592	42	6405
2026-01-13 16:02:08.82	182.43	14.65	-34.1	-35.3	29.7	3.01e+01	53	27	0	400031744	42	6280
2026-01-13 16:02:09.83	182.49	14.54	-34.2	-35.4	29.6	3.01e+01	60	27	0	401604608	42	6391
2026-01-13 16:02:10.84	182.55	14.42	-34.1	-35.3	29.6	3.01e+01	60	27	0	403701760	42	6346
2026-01-13 16:02:11.85	182.61	14.31	-34.2	-35.4	29.6	3.01e+01	58	27	0	405274624	42	6363
2026-01-13 16:02:12.85	182.67	14.20	-34.2	-35.4	29.6	3.01e+01	61	27	0	407371776	42	6360
2026-01-13 16:02:13.87	182.72	14.09	-34.2	-35.4	29.5	3.01e+01	60	27	0	409468928	42	6416
2026-01-13 16:02:14.88	182.78	13.98	-34.1	-35.3	29.6	3.01e+01	57	27	0	411041792	42	6340
2026-01-13 16:02:15.89	182.84	13.87	-34.2	-35.4	29.5	3.01e+01	58	27	0	413138944	42	6415
2026-01-13 16:02:16.90	182.89	13.76	-34.1	-35.3	29.6	3.01e+01	43	27	0	414711808	42	6344
2026-01-13 16:02:17.91	182.95	13.65	-34.2	-35.4	29.5	3.01e+01	61	27	0	416808960	42	6420
2026-01-13 16:02:18.92	183.01	13.54	-34.2	-35.5	29.5	3.01e+01	58	27	0	418906112	42	6428
2026-01-13 16:02:19.93	183.06	13.43	-34.2	-35.4	29.5	3.01e+01	45	27	0	420478976	42	6403
2026-01-13 16:02:20.94	183.12	13.33	-34.2	-35.4	29.5	3.01e+01	57	27	0	422576128	42	6411
2026-01-13 16:02:21.95	183.17	13.22	-34.3	-35.5	29.5	3.01e+01	60	27	0	424673280	42	6440
2026-01-13 16:02:22.96	183.22	13.11	-34.4	-35.6	29.4	3.01e+01	59	27	0	426246144	42	6513
2026-01-13 16:02:23.97	183.28	13.01	-34.3	-35.5	29.4	3.01e+01	61	27	0	428343296	42	6473
2026-01-13 16:02:24.98	183.33	12.90	-34.3	-35.5	29.4	3.01e+01	56	27	0	429916160	42	6480
2026-01-13 16:02:25.99	183.38	12.80	-34.4	-35.6	29.3	3.01e+01	58	27	0	432013312	42	6573
2026-01-13 16:02:27.00	183.43	12.69	-34.4	-35.6	29.3	3.01e+01	58	27	0	434110464	42	6536
2026-01-13 16:02:28.01	183.49	12.59	-34.4	-35.7	29.3	3.01e+01	46	27	0	435683328	42	6575
2026-01-13 16:02:29.02	183.54	12.49	-34.4	-35.6	29.3	3.01e+01	61	27	0	437780480	42	6550
2026-01-13 16:02:30.03	183.59	12.38	-34.5	-35.7	29.2	3.01e+01	60	27	0	439877632	42	6612
2026-01-13 16:02:31.04	183.64	12.28	-34.5	-35.8	29.3	3.01e+01	55	27	0	441450496	42	6651
2026-01-13 16:02:32.05	183.69	12.18	-34.6	-35.8	29.1	3.01e+01	61	27	0	443547648	42	6688
2026-01-13 16:02:33.06	183.74	12.08	-34.8	-36.1	29.1	3.01e+01	54	27	0	445120512	42	6887
2026-01-13 16:02:34.07	183.79	11.98	-34.8	-36.1	29.0	3.01e+01	61	27	0	447217664	42	6902
2026-01-13 16:02:35.08	183.84	11.87	-35.0	-36.2	28.8	3.01e+01	61	27	0	449314816	44	6252
2026-01-13 16:02:36.09	183.89	11.77	-34.9	-36.1	28.9	3.01e+01	45	27	0	450887680	44	6182
2026-01-13 16:02:37.10	183.94	11.67	-34.7	-35.9	29.1	3.01e+01	57	27	0	452984832	44	6026
2026-01-13 16:02:38.11	183.99	11.58	-34.6	-35.9	29.1	3.01e+01	62	27	0	454557696	44	6009
2026-01-13 16:02:39.11	184.03	11.48	-34.9	-36.2	28.7	3.01e+01	55	27	0	456654848	44	6215
2026-01-13 16:02:40.12	184.08	11.38	-34.6	-35.9	29.1	3.01e+01	59	27	0	458752000	44	6014
2026-01-13 16:02:41.13	184.13	11.28	-34.6	-35.8	29.1	3.01e+01	50	27	0	460324864	44	5971
2026-01-13 16:02:42.14	184.18	11.18	-34.4	-35.7	29.2	3.01e+01	56	27	0	462422016	44	5861
2026-01-13 16:02:43.15	184.22	11.09	-34.5	-35.7	29.1	3.01e+01	59	27	0	463994880	44	5919
2026-01-13 16:02:44.16	184.27	10.99	-34.7	-35.9	29.0	3.01e+01	44	27	0	466092032	44	6056
2026-01-13 16:02:45.17	184.32	10.89	-34.6	-35.8	29.1	3.01e+01	61	27	0	468189184	44	5949
2026-01-13 16:02:46.18	184.36	10.80	-34.8	-36.0	29.0	3.01e+01	47	27	0	469762048	44	6080
2026-01-13 16:02:47.19	184.41	10.70	-34.6	-35.8	29.1	3.01e+01	60	27	0	471859200	44	5945
2026-01-13 16:02:48.20	184.45	10.61	-34.7	-36.0	29.0	3.01e+01	59	27	0	473432064	44	6085
2026-01-13 16:02:49.21	184.50	10.51	-34.7	-35.9	29.0	3.01e+01	57	27	0	475529216	44	6050
2026-01-13 16:02:50.22	184.54	10.42	-34.8	-36.0	29.0	3.01e+01	60	27	0	477626368	44	6121
2026-01-13 16:02:51.22	184.59	10.32	-34.8	-36.1	28.9	3.01e+01	58	27	0	479199232	44	6144
2026-01-13 16:02:52.23	184.63	10.23	-34.8	-36.1	28.9	3.01e+01	61	27	0	481296384	44	6156
