passes_logs/2026/01/13/R4.6S_Anadyr/R4.6S_Anadyr__20260113_221950_TY-42_rec.log

#Pass ID: 20260113_221950_TY-42
#Satellite: TY-42
#Configuration: TY-42_900M
#almurnet v.1.7.20251203
#Start time: 2026-01-13 22:20:21

#Version: 2.2.20231116
#Station: R4.6S_Anadyr
#Location: 177.4865 lon 64.73178 lat
#TLE: 1 64048U 25103A   26013.70377315  .00008011  00000-0  38191-3 0 09993
#TLE: 2 64048 097.4118 089.1457 0001799 091.6416 204.0819 15.19171765 36614

#Time	Az	El	Level	Level2	SNR	BER	BlckErr	Temp	State	Recorded	gain1	gain2
2026-01-13 22:20:21.35	22.44	1.88	-48.4	-63.3	3.5	1.51e+00	0	25	0	0	60	53127
2026-01-13 22:20:22.35	22.51	1.95	-46.9	-49.5	6.1	0.00e+00	0	26	104	0	60	36525
2026-01-13 22:20:23.36	22.58	2.01	-46.9	-49.5	6.0	0.00e+00	0	26	104	0	60	36577
2026-01-13 22:20:24.37	22.66	2.08	-47.0	-49.5	6.1	0.00e+00	0	27	104	0	60	36460
2026-01-13 22:20:25.38	22.73	2.14	-47.0	-49.5	6.1	0.00e+00	0	26	104	0	60	36578
2026-01-13 22:20:26.39	22.80	2.21	-47.0	-49.5	6.1	0.00e+00	0	26	104	0	60	36590
2026-01-13 22:20:27.40	22.88	2.27	-47.0	-49.5	6.1	0.00e+00	0	26	104	0	60	36759
2026-01-13 22:20:28.41	22.95	2.34	-47.0	-49.5	6.1	0.00e+00	0	27	104	0	60	36545
2026-01-13 22:20:29.42	23.03	2.40	-47.0	-49.5	6.1	0.00e+00	0	26	104	0	60	36600
2026-01-13 22:20:30.43	23.10	2.47	-47.0	-49.5	6.1	0.00e+00	0	27	104	0	60	36390
2026-01-13 22:20:31.44	23.18	2.53	-47.0	-49.5	6.1	0.00e+00	0	27	104	0	60	36372
2026-01-13 22:20:32.45	23.26	2.60	-47.0	-49.5	6.1	0.00e+00	0	27	104	0	60	36510
2026-01-13 22:20:33.47	23.33	2.66	-46.9	-49.5	6.1	0.00e+00	0	27	104	0	60	36425
2026-01-13 22:20:34.48	23.41	2.73	-46.9	-49.5	6.1	0.00e+00	0	27	104	0	60	36562
2026-01-13 22:20:35.49	23.49	2.80	-46.9	-49.5	6.1	0.00e+00	0	27	104	0	60	36518
2026-01-13 22:20:36.50	23.57	2.86	-46.9	-49.5	6.1	0.00e+00	0	27	104	0	60	36363
2026-01-13 22:20:37.51	23.64	2.93	-46.9	-49.4	6.1	0.00e+00	0	27	104	0	60	36246
2026-01-13 22:20:38.51	23.72	3.00	-46.9	-49.5	6.1	0.00e+00	0	27	104	0	60	36371
2026-01-13 22:20:39.53	23.80	3.06	-46.9	-49.5	6.1	0.00e+00	0	27	104	0	60	36455
2026-01-13 22:20:40.53	23.88	3.13	-46.9	-49.5	6.1	0.00e+00	0	27	104	0	60	36401
2026-01-13 22:20:41.54	23.96	3.20	-46.9	-49.5	6.1	0.00e+00	0	27	104	0	60	36439
2026-01-13 22:20:42.55	24.04	3.26	-46.9	-49.5	6.0	0.00e+00	0	27	104	0	60	36385
2026-01-13 22:20:43.56	24.12	3.33	-46.9	-49.5	6.1	0.00e+00	0	27	104	0	60	36414
2026-01-13 22:20:44.57	24.20	3.40	-46.9	-49.4	6.1	0.00e+00	0	27	104	0	60	36347
2026-01-13 22:20:45.58	24.29	3.47	-46.9	-49.4	6.1	0.00e+00	0	27	104	0	60	36225
2026-01-13 22:20:46.59	24.37	3.54	-46.9	-49.4	6.1	0.00e+00	0	27	104	0	60	36233
2026-01-13 22:20:47.60	24.45	3.60	-34.7	-35.0	11.2	0.00e+00	5461	27	104	0	42	19521
2026-01-13 22:20:48.62	24.54	3.67	-34.4	-34.9	9.7	1.12e-01	1	27	0	67108864	34	30391
2026-01-13 22:20:49.63	24.62	3.74	-31.4	-31.9	11.3	0.00e+00	480	27	0	75497472	32	24034
2026-01-13 22:20:50.63	24.70	3.81	-34.3	-34.7	10.7	0.00e+00	0	27	104	83886080	46	14829
2026-01-13 22:20:51.64	24.79	3.88	-32.2	-32.5	13.7	0.00e+00	0	27	0	100663296	44	12994
2026-01-13 22:20:52.65	24.87	3.95	-42.4	-43.1	6.2	5.39e-02	0	27	104	201326592	46	39313
2026-01-13 22:20:53.66	24.96	4.02	-36.5	-36.9	11.5	0.00e+00	1755	27	104	201326592	56	10809
2026-01-13 22:20:54.67	25.04	4.09	-31.9	-32.3	14.0	0.00e+00	0	28	0	234881024	38	17831
2026-01-13 22:20:55.68	25.13	4.16	-31.2	-31.6	14.2	6.74e-02	0	28	0	343932928	38	16479
2026-01-13 22:20:56.69	25.22	4.23	-30.0	-30.4	15.0	6.74e-02	0	28	0	461373440	36	16096
2026-01-13 22:20:57.70	25.31	4.30	-28.9	-29.3	15.3	1.22e-02	0	28	0	570425344	34	15925
2026-01-13 22:20:58.71	25.39	4.37	-28.8	-29.2	15.4	1.22e-02	0	28	0	687865856	32	17615
2026-01-13 22:20:59.72	25.48	4.44	-27.8	-28.2	15.7	2.59e-03	0	28	0	805306368	32	15696
2026-01-13 22:21:00.73	25.57	4.51	-27.7	-28.1	15.7	2.59e-03	0	28	0	914358272	30	17462
2026-01-13 22:21:01.74	25.66	4.58	-27.6	-28.0	15.8	9.81e-04	0	28	0	1023410176	30	17271
2026-01-13 22:21:02.75	25.75	4.65	-27.0	-27.3	16.0	6.21e-04	0	28	0	1140850688	30	16044
2026-01-13 22:21:03.75	25.84	4.72	-27.1	-27.5	16.0	6.21e-04	0	28	0	1249902592	30	16308
2026-01-13 22:21:04.76	25.93	4.80	-26.9	-27.2	16.0	6.21e-04	0	28	0	1367343104	30	15812
2026-01-13 22:21:05.78	26.03	4.87	-26.9	-27.3	16.1	5.18e-04	0	28	0	1484783616	30	15885
2026-01-13 22:21:06.79	26.12	4.94	-27.0	-27.4	16.0	5.18e-04	0	28	0	1593835520	30	16233
2026-01-13 22:21:07.80	26.21	5.01	-26.8	-27.2	16.1	5.34e-04	0	28	0	1711276032	30	15732
2026-01-13 22:21:08.81	26.30	5.09	-26.5	-26.9	16.2	5.34e-04	0	28	0	1820327936	28	17134
2026-01-13 22:21:09.82	26.40	5.16	-26.6	-27.0	16.2	4.31e-04	0	28	0	1937768448	28	17326
2026-01-13 22:21:10.83	26.49	5.23	-26.5	-26.9	16.3	4.31e-04	0	28	0	2046820352	28	17047
2026-01-13 22:21:11.84	26.59	5.31	-26.6	-26.9	16.2	3.11e-04	0	28	0	2164260864	28	17192
2026-01-13 22:21:12.85	26.68	5.38	-26.7	-27.1	16.2	3.11e-04	0	28	0	2273312768	28	17420
2026-01-13 22:21:13.86	26.78	5.45	-26.5	-26.9	16.3	3.11e-04	0	28	0	2390753280	28	17159
2026-01-13 22:21:14.87	26.88	5.53	-26.5	-26.9	16.2	3.60e-04	0	28	0	2508193792	28	17096
2026-01-13 22:21:15.88	26.97	5.60	-26.7	-27.1	16.2	3.60e-04	0	28	0	2617245696	28	17428
2026-01-13 22:21:16.89	27.07	5.68	-26.8	-27.2	16.1	2.62e-04	0	28	0	2734686208	28	17736
2026-01-13 22:21:17.90	27.17	5.75	-26.6	-27.0	16.2	2.62e-04	0	28	0	2843738112	28	17348
2026-01-13 22:21:18.91	27.27	5.82	-26.6	-27.0	16.2	4.47e-04	0	28	0	2961178624	28	17220
2026-01-13 22:21:19.92	27.37	5.90	-26.6	-27.0	16.2	4.47e-04	0	28	0	3078619136	28	17285
2026-01-13 22:21:20.93	27.47	5.97	-26.7	-27.0	16.2	4.47e-04	0	28	0	3187671040	28	17397
2026-01-13 22:21:21.94	27.57	6.05	-26.7	-27.1	16.2	4.09e-04	0	28	0	3296722944	28	17545
2026-01-13 22:21:22.95	27.67	6.13	-26.7	-27.1	16.2	4.09e-04	0	28	0	3414163456	28	17412
2026-01-13 22:21:23.96	27.78	6.20	-26.8	-27.2	16.2	4.09e-04	0	28	0	3523215360	28	17641
2026-01-13 22:21:24.97	27.88	6.28	-26.7	-27.1	16.3	3.71e-04	0	28	0	3640655872	28	17515
2026-01-13 22:21:25.98	27.98	6.35	-26.2	-26.7	16.4	3.71e-04	0	28	0	3758096384	28	16625
2026-01-13 22:21:26.99	28.09	6.43	-26.4	-26.8	16.3	3.71e-04	0	28	0	3867148288	28	16901
2026-01-13 22:21:28.00	28.19	6.51	-26.2	-26.6	16.4	1.96e-04	0	28	0	3976200192	28	16547
2026-01-13 22:21:29.01	28.30	6.58	-26.4	-26.8	16.3	1.96e-04	0	28	0	4102029312	28	16845
2026-01-13 22:21:30.02	28.40	6.66	-26.4	-26.8	16.3	2.07e-04	0	29	0	4211081216	28	16871
2026-01-13 22:21:31.03	28.51	6.74	-26.2	-26.6	16.3	2.07e-04	0	29	0	4320133120	28	16594
2026-01-13 22:21:32.04	28.62	6.82	-26.2	-26.6	16.3	2.51e-04	0	29	0	4437573632	28	16556
2026-01-13 22:21:33.05	28.73	6.90	-26.1	-26.5	16.3	2.51e-04	0	29	0	4546625536	28	16403
2026-01-13 22:21:34.06	28.84	6.97	-26.3	-26.7	16.3	2.29e-04	0	29	0	4664066048	28	16743
2026-01-13 22:21:35.07	28.95	7.05	-26.6	-27.0	16.3	2.29e-04	0	29	0	4781506560	28	17350
2026-01-13 22:21:36.08	29.06	7.13	-26.4	-26.8	16.4	1.74e-04	0	29	0	4890558464	28	16942
2026-01-13 22:21:37.09	29.17	7.21	-26.2	-26.6	16.4	1.74e-04	0	29	0	5007998976	28	16601
2026-01-13 22:21:38.10	29.28	7.29	-26.2	-26.6	16.4	1.74e-04	0	29	0	5117050880	28	16480
2026-01-13 22:21:39.11	29.39	7.37	-26.2	-26.6	16.4	1.42e-04	0	29	0	5234491392	28	16524
2026-01-13 22:21:40.12	29.50	7.45	-26.0	-26.4	16.5	1.42e-04	0	29	0	5343543296	28	16164
2026-01-13 22:21:41.13	29.62	7.53	-26.1	-26.5	16.4	5.99e-05	0	29	0	5460983808	28	16390
2026-01-13 22:21:42.14	29.73	7.61	-26.1	-26.5	16.4	5.99e-05	0	29	0	5570035712	28	16313
2026-01-13 22:21:43.15	29.85	7.69	-26.2	-26.6	16.5	1.03e-04	0	29	0	5687476224	28	16508
2026-01-13 22:21:44.16	29.97	7.77	-26.1	-26.5	16.5	1.03e-04	0	29	0	5804916736	28	16363
2026-01-13 22:21:45.17	30.08	7.85	-25.9	-26.3	16.4	1.09e-04	0	29	0	5913968640	28	15997
2026-01-13 22:21:46.18	30.20	7.93	-25.9	-26.3	16.5	1.09e-04	0	29	0	6031409152	28	15958
2026-01-13 22:21:47.19	30.32	8.01	-25.8	-26.2	16.4	1.09e-04	0	29	0	6140461056	28	15724
2026-01-13 22:21:48.20	30.44	8.10	-25.9	-26.3	16.4	5.44e-05	0	29	0	6249512960	28	16020
2026-01-13 22:21:49.21	30.56	8.18	-26.1	-26.5	16.3	5.44e-05	0	29	0	6366953472	28	16336
2026-01-13 22:21:50.22	30.68	8.26	-25.8	-26.2	16.4	7.08e-05	0	29	0	6484393984	28	15845
2026-01-13 22:21:51.23	30.80	8.34	-26.0	-26.4	16.4	7.08e-05	0	29	0	6593445888	26	18145
2026-01-13 22:21:52.24	30.93	8.43	-25.6	-26.0	16.6	1.03e-04	0	29	0	6710886400	26	17373
2026-01-13 22:21:53.26	31.05	8.51	-25.6	-26.1	16.6	1.03e-04	0	29	0	6819938304	26	17407
2026-01-13 22:21:54.26	31.17	8.59	-25.5	-26.0	16.6	4.90e-05	0	29	0	6937378816	26	17227
2026-01-13 22:21:55.28	31.30	8.68	-25.6	-26.0	16.6	4.90e-05	0	29	0	7054819328	26	17271
2026-01-13 22:21:56.28	31.42	8.76	-25.5	-25.9	16.6	5.44e-05	0	29	0	7163871232	26	17195
2026-01-13 22:21:57.30	31.55	8.85	-25.5	-26.0	16.6	5.44e-05	0	29	0	7272923136	26	17223
2026-01-13 22:21:58.31	31.68	8.93	-25.5	-25.9	16.6	7.62e-05	0	29	0	7390363648	26	17097
2026-01-13 22:21:59.32	31.81	9.02	-25.4	-25.8	16.7	7.62e-05	0	29	0	7507804160	26	16961
2026-01-13 22:22:00.33	31.94	9.10	-25.3	-25.7	16.6	3.81e-05	0	29	0	7616856064	26	16791
2026-01-13 22:22:01.34	32.07	9.19	-25.3	-25.7	16.7	3.81e-05	0	29	0	7734296576	26	16722
2026-01-13 22:22:02.34	32.20	9.27	-25.2	-25.6	16.7	3.81e-05	0	29	0	7843348480	26	16503
2026-01-13 22:22:03.35	32.33	9.36	-25.1	-25.5	16.7	5.40e-06	0	29	0	7960788992	26	16402
2026-01-13 22:22:04.36	32.47	9.44	-25.3	-25.7	16.5	5.40e-06	0	29	0	8078229504	26	16686
2026-01-13 22:22:05.37	32.60	9.53	-25.2	-25.6	16.4	8.17e-05	0	29	0	8187281408	26	16531
2026-01-13 22:22:06.38	32.74	9.62	-25.2	-25.6	16.3	8.71e-05	0	29	0	8296333312	26	16512
2026-01-13 22:22:07.39	32.87	9.70	-25.2	-25.6	16.4	8.71e-05	0	29	0	8413773824	26	16524
2026-01-13 22:22:08.40	33.01	9.79	-25.3	-25.7	16.4	8.71e-05	0	29	0	8522825728	26	16691
2026-01-13 22:22:09.41	33.15	9.88	-25.5	-25.9	16.5	6.53e-05	0	29	0	8640266240	26	17125
2026-01-13 22:22:10.42	33.29	9.97	-25.3	-25.7	16.5	6.53e-05	0	29	0	8757706752	26	16770
2026-01-13 22:22:11.43	33.43	10.05	-25.5	-26.0	16.6	6.53e-05	0	29	0	8866758656	26	17224
2026-01-13 22:22:12.44	33.57	10.14	-25.1	-25.5	16.7	2.17e-05	0	29	0	8984199168	26	16349
2026-01-13 22:22:13.45	33.71	10.23	-25.2	-25.6	16.6	2.17e-05	0	29	0	9093251072	26	16603
2026-01-13 22:22:14.46	33.85	10.32	-25.2	-25.7	16.7	7.62e-05	0	29	0	9210691584	26	16634
2026-01-13 22:22:15.47	34.00	10.41	-25.1	-25.5	16.7	7.62e-05	0	29	0	9328132096	26	16396
2026-01-13 22:22:16.48	34.14	10.50	-24.8	-25.2	16.8	1.63e-05	0	29	0	9437184000	24	17723
2026-01-13 22:22:17.49	34.29	10.59	-24.8	-25.2	16.7	1.63e-05	0	29	0	9546235904	24	17801
2026-01-13 22:22:18.50	34.44	10.68	-24.7	-25.1	16.6	1.63e-05	0	29	0	9663676416	24	17496
2026-01-13 22:22:19.51	34.58	10.77	-24.6	-25.0	13.9	0.00e+00	0	29	0	9781116928	24	17346
2026-01-13 22:22:20.52	34.73	10.86	-24.8	-25.2	14.4	0.00e+00	0	29	0	9890168832	24	17738
2026-01-13 22:22:21.54	34.89	10.95	-24.9	-25.3	16.6	1.65e-02	0	29	0	10007609344	24	17982
2026-01-13 22:22:22.55	35.04	11.05	-24.7	-25.1	16.7	1.65e-02	0	29	0	10116661248	24	17601
2026-01-13 22:22:23.55	35.19	11.14	-24.7	-25.2	16.7	5.72e-04	0	29	0	10225713152	24	17662
2026-01-13 22:22:24.57	35.34	11.23	-24.7	-25.2	16.7	5.72e-04	0	29	0	10351542272	24	17656
2026-01-13 22:22:25.58	35.50	11.32	-24.5	-25.0	16.8	5.40e-06	0	29	0	10460594176	24	17234
2026-01-13 22:22:26.59	35.66	11.41	-24.6	-25.0	16.8	5.40e-06	0	29	0	10569646080	24	17341
2026-01-13 22:22:27.60	35.81	11.51	-24.6	-25.0	16.8	5.40e-06	0	29	0	10687086592	24	17382
2026-01-13 22:22:28.61	35.97	11.60	-24.5	-25.0	16.9	5.40e-06	0	29	0	10796138496	24	17281
2026-01-13 22:22:29.62	36.13	11.69	-24.5	-25.0	16.8	0.00e+00	0	29	0	10913579008	24	17292
2026-01-13 22:22:30.63	36.29	11.79	-24.6	-25.0	16.8	0.00e+00	0	29	0	11031019520	24	17376
2026-01-13 22:22:31.63	36.45	11.88	-24.4	-24.8	16.9	5.40e-06	0	29	0	11140071424	24	16976
2026-01-13 22:22:32.64	36.62	11.98	-24.2	-24.7	16.9	5.40e-06	0	29	0	11257511936	24	16691
2026-01-13 22:22:33.65	36.78	12.07	-24.3	-24.7	16.8	5.40e-06	0	29	0	11366563840	24	16803
2026-01-13 22:22:34.66	36.95	12.17	-24.2	-24.7	16.7	5.40e-06	0	29	0	11484004352	24	16633
2026-01-13 22:22:35.67	37.11	12.26	-24.2	-24.6	16.6	5.40e-06	0	29	0	11593056256	24	16554
2026-01-13 22:22:36.68	37.28	12.36	-24.4	-24.8	16.6	2.17e-05	0	29	0	11710496768	24	16887
2026-01-13 22:22:37.69	37.45	12.45	-24.2	-24.6	16.7	2.17e-05	0	29	0	11819548672	24	16607
2026-01-13 22:22:38.70	37.62	12.55	-24.1	-24.5	16.8	1.08e-05	0	29	0	11936989184	24	16419
2026-01-13 22:22:39.71	37.80	12.64	-24.1	-24.6	16.9	1.08e-05	0	29	0	12054429696	24	16501
2026-01-13 22:22:40.72	37.97	12.74	-24.0	-24.4	17.0	1.08e-05	0	29	0	12163481600	24	16192
2026-01-13 22:22:41.73	38.15	12.84	-24.0	-24.5	16.9	5.40e-06	0	29	0	12280922112	24	16271
2026-01-13 22:22:42.74	38.32	12.94	-23.8	-24.2	16.9	5.40e-06	0	29	0	12389974016	24	15836
2026-01-13 22:22:43.75	38.50	13.03	-23.8	-24.2	16.9	5.40e-06	0	29	0	12499025920	24	15803
2026-01-13 22:22:44.76	38.68	13.13	-23.7	-24.2	16.9	5.40e-06	0	29	0	12616466432	22	17625
2026-01-13 22:22:45.77	38.86	13.23	-23.6	-24.1	17.1	5.40e-06	0	29	0	12733906944	22	17422
2026-01-13 22:22:46.78	39.04	13.33	-23.5	-24.0	17.1	5.40e-06	0	29	0	12842958848	22	17331
2026-01-13 22:22:47.79	39.22	13.43	-23.7	-24.1	17.0	0.00e+00	0	29	0	12960399360	22	17564
2026-01-13 22:22:48.80	39.41	13.53	-23.5	-23.9	17.0	0.00e+00	0	29	0	13069451264	22	17198
2026-01-13 22:22:49.81	39.60	13.63	-23.5	-24.0	17.1	0.00e+00	0	30	0	13186891776	22	17251
2026-01-13 22:22:50.82	39.78	13.73	-23.3	-23.8	17.0	0.00e+00	0	29	0	13304332288	22	16837
2026-01-13 22:22:51.83	39.97	13.83	-23.5	-23.9	16.9	0.00e+00	0	29	0	13413384192	22	17141
2026-01-13 22:22:52.84	40.16	13.93	-23.2	-23.7	17.0	0.00e+00	0	29	0	13522436096	22	16714
2026-01-13 22:22:53.85	40.35	14.03	-23.2	-23.7	17.1	0.00e+00	0	30	0	13639876608	22	16715
2026-01-13 22:22:54.85	40.55	14.13	-23.4	-23.8	17.1	0.00e+00	0	29	0	13748928512	22	16931
2026-01-13 22:22:55.86	40.74	14.23	-23.5	-23.9	17.1	0.00e+00	0	29	0	13866369024	22	17103
2026-01-13 22:22:56.88	40.94	14.33	-23.1	-23.5	17.2	0.00e+00	0	29	0	13983809536	22	16361
2026-01-13 22:22:57.89	41.14	14.43	-23.1	-23.6	17.2	0.00e+00	0	30	0	14092861440	22	16521
2026-01-13 22:22:58.90	41.34	14.54	-23.0	-23.4	17.2	0.00e+00	0	30	0	14210301952	22	16185
2026-01-13 22:22:59.90	41.54	14.64	-23.1	-23.5	17.2	0.00e+00	0	30	0	14319353856	22	16420
2026-01-13 22:23:00.92	41.74	14.74	-23.0	-23.4	17.2	0.00e+00	0	30	0	14436794368	22	16203
2026-01-13 22:23:01.93	41.95	14.84	-22.9	-23.4	17.1	0.00e+00	0	30	0	14545846272	22	16078
2026-01-13 22:23:02.94	42.15	14.95	-22.8	-23.3	17.0	0.00e+00	0	29	0	14663286784	22	15925
2026-01-13 22:23:03.94	42.36	15.05	-22.8	-23.3	16.9	0.00e+00	0	30	0	14772338688	20	17892
2026-01-13 22:23:04.95	42.57	15.15	-22.8	-23.3	16.9	0.00e+00	0	30	0	14889779200	20	17821
2026-01-13 22:23:05.97	42.78	15.26	-22.7	-23.2	17.0	0.00e+00	0	30	0	15007219712	20	17713
2026-01-13 22:23:06.97	42.99	15.36	-22.6	-23.1	17.0	5.40e-06	0	30	0	15116271616	20	17470
2026-01-13 22:23:07.98	43.21	15.46	-22.5	-23.0	17.2	5.40e-06	0	30	0	15233712128	20	17290
2026-01-13 22:23:08.99	43.43	15.57	-22.5	-23.0	17.3	0.00e+00	0	30	0	15342764032	20	17225
2026-01-13 22:23:10.00	43.64	15.67	-22.4	-22.9	17.3	0.00e+00	0	30	0	15451815936	20	17055
2026-01-13 22:23:11.01	43.86	15.78	-22.4	-22.9	17.3	0.00e+00	0	30	0	15569256448	20	17025
2026-01-13 22:23:12.02	44.09	15.88	-22.4	-22.8	17.3	0.00e+00	0	30	0	15686696960	20	17001
2026-01-13 22:23:13.03	44.31	15.99	-22.4	-22.9	17.3	0.00e+00	0	30	0	15795748864	20	17013
2026-01-13 22:23:14.04	44.54	16.10	-22.4	-22.9	17.3	0.00e+00	0	30	0	15913189376	20	17118
2026-01-13 22:23:15.05	44.76	16.20	-22.4	-22.9	17.3	0.00e+00	0	30	0	16022241280	20	17010
2026-01-13 22:23:16.06	44.99	16.31	-22.3	-22.8	17.2	0.00e+00	0	30	0	16139681792	20	16878
2026-01-13 22:23:17.07	45.22	16.41	-22.2	-22.7	17.3	0.00e+00	0	30	0	16257122304	20	16755
2026-01-13 22:23:18.08	45.46	16.52	-22.1	-22.5	17.2	0.00e+00	0	30	0	16366174208	20	16379
2026-01-13 22:23:19.09	45.69	16.63	-21.9	-22.4	17.4	0.00e+00	0	30	0	16475226112	20	16180
2026-01-13 22:23:20.10	45.93	16.74	-22.0	-22.5	17.4	0.00e+00	0	30	0	16592666624	20	16257
2026-01-13 22:23:21.11	46.17	16.84	-22.0	-22.5	17.4	0.00e+00	0	30	0	16710107136	20	16385
2026-01-13 22:23:22.12	46.41	16.95	-21.7	-22.2	17.4	0.00e+00	0	30	0	16819159040	20	15846
2026-01-13 22:23:23.13	46.65	17.06	-21.9	-22.4	17.4	0.00e+00	0	30	0	16936599552	18	18029
2026-01-13 22:23:24.14	46.89	17.17	-21.7	-22.2	17.4	0.00e+00	0	30	0	17045651456	18	17782
2026-01-13 22:23:25.15	47.14	17.27	-21.7	-22.2	17.4	0.00e+00	0	30	0	17163091968	18	17691
2026-01-13 22:23:26.16	47.39	17.38	-21.6	-22.1	17.4	0.00e+00	0	30	0	17272143872	18	17575
2026-01-13 22:23:27.16	47.64	17.49	-21.5	-22.0	17.4	0.00e+00	0	30	0	17389584384	18	17269
2026-01-13 22:23:28.17	47.89	17.60	-21.5	-22.0	17.4	0.00e+00	0	30	0	17498636288	18	17217
2026-01-13 22:23:29.18	48.14	17.71	-21.5	-21.9	17.5	0.00e+00	0	30	0	17616076800	18	17151
2026-01-13 22:23:30.19	48.40	17.81	-21.4	-21.9	17.5	0.00e+00	0	30	0	17725128704	18	17077
2026-01-13 22:23:31.19	48.66	17.92	-21.5	-22.0	17.4	0.00e+00	0	30	0	17842569216	18	17231
2026-01-13 22:23:32.21	48.92	18.03	-21.5	-21.9	17.5	0.00e+00	0	30	0	17951621120	18	17199
2026-01-13 22:23:33.21	49.18	18.14	-21.3	-21.8	17.5	0.00e+00	0	30	0	18069061632	18	16955
2026-01-13 22:23:34.22	49.45	18.25	-21.5	-21.9	17.5	0.00e+00	0	30	0	18186502144	18	17173
2026-01-13 22:23:35.23	49.72	18.36	-21.4	-21.9	17.4	0.00e+00	0	30	0	18295554048	18	17051
2026-01-13 22:23:36.24	49.98	18.47	-21.2	-21.7	17.3	0.00e+00	0	30	0	18404605952	18	16705
2026-01-13 22:23:37.25	50.26	18.58	-21.4	-21.8	17.3	0.00e+00	0	30	0	18522046464	18	16985
2026-01-13 22:23:38.26	50.53	18.69	-21.1	-21.6	17.4	0.00e+00	0	30	0	18639486976	18	16564
2026-01-13 22:23:39.27	50.81	18.79	-21.2	-21.7	17.5	0.00e+00	0	30	0	18748538880	18	16754
2026-01-13 22:23:40.29	51.09	18.90	-21.1	-21.6	17.5	0.00e+00	0	30	0	18865979392	18	16554
2026-01-13 22:23:41.30	51.37	19.01	-21.4	-21.9	17.5	0.00e+00	0	30	0	18975031296	18	17111
2026-01-13 22:23:42.31	51.65	19.12	-21.0	-21.5	17.5	0.00e+00	0	30	0	19092471808	18	16281
2026-01-13 22:23:43.31	51.94	19.23	-21.0	-21.5	17.4	0.00e+00	0	30	0	19209912320	18	16242
2026-01-13 22:23:44.32	52.22	19.34	-21.0	-21.5	17.5	0.00e+00	0	30	0	19318964224	18	16337
2026-01-13 22:23:45.34	52.52	19.45	-21.0	-21.5	17.4	0.00e+00	0	30	0	19436404736	18	16272
2026-01-13 22:23:46.35	52.81	19.56	-21.0	-21.5	17.4	0.00e+00	0	30	0	19545456640	18	16359
2026-01-13 22:23:47.35	53.10	19.67	-21.0	-21.5	17.4	0.00e+00	0	30	0	19654508544	18	16306
2026-01-13 22:23:48.36	53.40	19.78	-20.9	-21.4	17.4	0.00e+00	0	30	0	19771949056	18	16054
2026-01-13 22:23:49.37	53.70	19.89	-20.9	-21.4	17.4	0.00e+00	0	30	0	19889389568	18	16087
2026-01-13 22:23:50.38	54.00	20.00	-20.7	-21.2	17.5	0.00e+00	0	30	0	19998441472	16	17742
2026-01-13 22:23:51.39	54.30	20.10	-20.7	-21.2	17.5	0.00e+00	0	30	0	20115881984	16	17781
2026-01-13 22:23:52.40	54.61	20.21	-29.3	-29.6	14.0	0.00e+00	0	30	0	20224933888	34	16547
2026-01-13 22:23:53.41	54.92	20.32	-29.2	-29.5	13.9	6.60e-03	0	30	0	20342374400	34	16391
2026-01-13 22:23:54.42	55.23	20.43	-29.2	-29.5	13.3	6.60e-03	0	30	0	20459814912	34	16393
2026-01-13 22:23:55.43	55.55	20.54	-28.9	-29.3	12.6	3.66e-02	0	30	0	20568866816	34	15930
2026-01-13 22:23:56.44	55.86	20.65	-28.9	-29.2	13.0	3.66e-02	0	30	0	20677918720	34	15715
2026-01-13 22:23:57.45	56.18	20.75	-28.9	-29.2	13.8	4.92e-02	0	30	0	20795359232	34	15837
2026-01-13 22:23:58.46	56.50	20.86	-28.8	-29.2	14.0	4.92e-02	0	30	0	20904411136	34	15703
2026-01-13 22:23:59.46	56.83	20.97	-28.7	-29.0	13.8	2.68e-02	0	30	0	21021851648	32	17309
2026-01-13 22:24:00.47	57.15	21.07	-28.6	-28.9	13.7	2.68e-02	0	30	0	21139292160	32	17113
2026-01-13 22:24:01.49	57.48	21.18	-28.6	-28.9	14.0	2.68e-02	0	30	0	21248344064	32	17094
2026-01-13 22:24:02.50	57.82	21.29	-28.4	-28.7	14.3	2.58e-02	0	30	0	21365784576	32	16782
2026-01-13 22:24:03.51	58.15	21.39	-28.2	-28.6	14.1	2.58e-02	0	30	0	21483225088	32	16509
2026-01-13 22:24:04.52	58.49	21.50	-20.1	-20.3	16.9	2.58e-02	52	30	0	21592276992	32	6343
2026-01-13 22:24:05.53	58.83	21.61	-20.2	-20.7	17.0	2.32e-02	0	30	0	21701328896	14	18759
2026-01-13 22:24:06.54	59.17	21.71	-20.2	-20.7	16.9	2.32e-02	0	30	0	21818769408	14	18698
2026-01-13 22:24:07.55	59.51	21.82	-20.2	-20.7	17.2	0.00e+00	0	30	0	21927821312	14	18740
2026-01-13 22:24:08.56	59.86	21.92	-20.1	-20.6	17.5	0.00e+00	0	30	0	22045261824	14	18551
2026-01-13 22:24:09.57	60.21	22.02	-20.2	-20.7	17.4	0.00e+00	0	30	0	22162702336	14	18767
2026-01-13 22:24:10.58	60.56	22.13	-20.1	-20.6	17.3	0.00e+00	0	30	0	22271754240	14	18441
2026-01-13 22:24:11.59	60.92	22.23	-20.0	-20.5	17.4	0.00e+00	0	30	0	22389194752	14	18370
2026-01-13 22:24:12.60	61.28	22.33	-20.0	-20.5	17.4	0.00e+00	0	30	0	22498246656	14	18263
2026-01-13 22:24:13.61	61.64	22.43	-19.9	-20.4	17.5	0.00e+00	0	30	0	22615687168	14	18157
2026-01-13 22:24:14.62	62.00	22.53	-19.9	-20.4	17.5	0.00e+00	0	30	0	22724739072	14	18033
2026-01-13 22:24:15.63	62.37	22.63	-19.9	-20.4	17.5	0.00e+00	0	30	0	22842179584	14	18100
2026-01-13 22:24:16.64	62.74	22.73	-19.8	-20.3	17.5	0.00e+00	0	30	0	22951231488	14	17967
2026-01-13 22:24:17.65	63.11	22.83	-19.8	-20.3	17.5	0.00e+00	0	30	0	23068672000	14	17844
2026-01-13 22:24:18.66	63.48	22.93	-19.9	-20.4	17.5	0.00e+00	0	30	0	23186112512	14	18092
2026-01-13 22:24:19.67	63.86	23.03	-19.8	-20.3	17.4	0.00e+00	0	30	0	23295164416	14	17969
2026-01-13 22:24:20.68	64.24	23.13	-19.8	-20.3	17.4	0.00e+00	0	30	0	23412604928	14	17836
2026-01-13 22:24:21.69	64.62	23.22	-19.8	-20.3	17.3	0.00e+00	0	30	0	23521656832	14	17863
2026-01-13 22:24:22.70	65.00	23.32	-19.6	-20.1	17.4	0.00e+00	0	30	0	23630708736	14	17457
2026-01-13 22:24:23.71	65.39	23.41	-19.6	-20.1	17.5	0.00e+00	0	30	0	23756537856	14	17520
2026-01-13 22:24:24.72	65.78	23.51	-19.6	-20.1	17.5	0.00e+00	0	30	0	23865589760	14	17451
2026-01-13 22:24:25.73	66.17	23.60	-19.7	-20.2	17.5	0.00e+00	0	30	0	23974641664	14	17610
2026-01-13 22:24:26.74	66.56	23.69	-19.6	-20.1	17.6	0.00e+00	0	30	0	24092082176	14	17559
2026-01-13 22:24:27.75	66.96	23.79	-19.5	-20.0	17.6	0.00e+00	0	30	0	24201134080	14	17330
2026-01-13 22:24:28.76	67.36	23.88	-19.5	-20.0	17.5	0.00e+00	0	30	0	24318574592	14	17295
2026-01-13 22:24:29.78	67.77	23.97	-19.5	-20.0	17.6	0.00e+00	0	30	0	24436015104	14	17220
2026-01-13 22:24:30.79	68.17	24.06	-19.4	-19.9	17.5	0.00e+00	0	30	0	24545067008	14	17012
2026-01-13 22:24:31.80	68.58	24.14	-19.3	-19.8	17.6	0.00e+00	0	30	0	24654118912	14	16822
2026-01-13 22:24:32.81	68.99	24.23	-19.3	-19.8	17.5	0.00e+00	0	30	0	24771559424	14	16832
2026-01-13 22:24:33.82	69.40	24.32	-19.2	-19.6	17.5	0.00e+00	0	30	0	24888999936	14	16584
2026-01-13 22:24:34.82	69.81	24.40	-19.3	-19.7	17.5	0.00e+00	0	30	0	24998051840	14	16786
2026-01-13 22:24:35.84	70.23	24.48	-19.0	-19.5	17.5	0.00e+00	0	30	0	25115492352	14	16335
2026-01-13 22:24:36.84	70.65	24.57	-19.2	-19.7	17.5	0.00e+00	0	30	0	25224544256	14	16662
2026-01-13 22:24:37.86	71.07	24.65	-19.0	-19.5	17.5	0.00e+00	0	30	0	25341984768	14	16334
2026-01-13 22:24:38.86	71.49	24.73	-19.1	-19.6	17.5	0.00e+00	0	30	0	25459425280	14	16499
2026-01-13 22:24:39.88	71.92	24.81	-19.1	-19.5	17.5	0.00e+00	0	30	0	25568477184	14	16427
2026-01-13 22:24:40.88	72.35	24.88	-19.0	-19.5	17.5	0.00e+00	0	30	0	25685917696	14	16296
2026-01-13 22:24:41.89	72.78	24.96	-18.9	-19.4	17.5	0.00e+00	0	30	0	25794969600	14	16182
2026-01-13 22:24:42.90	73.21	25.03	-19.0	-19.5	17.5	0.00e+00	0	30	0	25904021504	14	16306
2026-01-13 22:24:43.91	73.65	25.11	-18.9	-19.4	17.5	0.00e+00	0	30	0	26021462016	14	16106
2026-01-13 22:24:44.92	74.09	25.18	-19.1	-19.5	17.5	0.00e+00	0	30	0	26138902528	14	16424
2026-01-13 22:24:45.93	74.53	25.25	-19.1	-19.6	17.3	0.00e+00	0	30	0	26247954432	14	16478
2026-01-13 22:24:46.94	74.97	25.32	-19.0	-19.5	17.3	0.00e+00	0	30	0	26365394944	14	16330
2026-01-13 22:24:47.95	75.41	25.39	-18.7	-19.2	17.2	0.00e+00	0	30	0	26474446848	12	17743
2026-01-13 22:24:48.96	75.86	25.46	-18.8	-19.3	17.4	0.00e+00	0	30	0	26583498752	12	17934
2026-01-13 22:24:49.97	76.31	25.52	-18.9	-19.4	17.4	0.00e+00	0	30	0	26709327872	12	18015
2026-01-13 22:24:50.98	76.76	25.58	-18.7	-19.2	17.5	0.00e+00	0	30	0	26818379776	12	17762
2026-01-13 22:24:51.99	77.21	25.65	-18.8	-19.3	17.5	0.00e+00	0	30	0	26927431680	12	17855
2026-01-13 22:24:53.00	77.67	25.71	-18.8	-19.3	17.5	0.00e+00	0	30	0	27044872192	12	17939
2026-01-13 22:24:54.01	78.12	25.77	-18.7	-19.2	17.5	0.00e+00	0	30	0	27153924096	12	17672
2026-01-13 22:24:55.02	78.58	25.82	-18.8	-19.3	17.5	0.00e+00	0	30	0	27271364608	12	17925
2026-01-13 22:24:56.02	79.04	25.88	-18.7	-19.2	17.5	0.00e+00	0	30	0	27388805120	12	17657
2026-01-13 22:24:57.03	79.50	25.93	-18.7	-19.2	17.5	0.00e+00	0	30	0	27497857024	12	17731
2026-01-13 22:24:58.04	79.96	25.98	-18.6	-19.1	17.5	0.00e+00	0	30	0	27615297536	12	17519
2026-01-13 22:24:59.05	80.43	26.03	-18.7	-19.2	17.5	0.00e+00	0	30	0	27724349440	12	17731
2026-01-13 22:25:00.07	80.90	26.08	-18.7	-19.1	17.4	0.00e+00	0	30	0	27841789952	12	17598
2026-01-13 22:25:01.07	81.36	26.13	-18.7	-19.2	17.4	0.00e+00	0	30	0	27950841856	12	17731
2026-01-13 22:25:02.08	81.83	26.18	-18.9	-19.3	17.3	0.00e+00	0	30	0	28068282368	12	17968
2026-01-13 22:25:03.09	82.30	26.22	-18.7	-19.1	17.4	0.00e+00	0	30	0	28177334272	12	17600
2026-01-13 22:25:04.10	82.78	26.26	-18.7	-19.2	17.3	0.00e+00	0	30	0	28294774784	12	17644
2026-01-13 22:25:05.11	83.25	26.30	-18.8	-19.3	17.3	0.00e+00	0	30	0	28403826688	12	17865
2026-01-13 22:25:06.12	83.73	26.34	-18.8	-19.3	17.3	0.00e+00	0	30	0	28521267200	12	17945
2026-01-13 22:25:07.13	84.20	26.37	-18.6	-19.1	17.4	0.00e+00	0	30	0	28638707712	12	17496
2026-01-13 22:25:08.14	84.68	26.41	-18.7	-19.1	17.4	0.00e+00	0	30	0	28747759616	12	17561
2026-01-13 22:25:09.15	85.16	26.44	-18.6	-19.1	17.3	0.00e+00	0	30	0	28856811520	12	17495
2026-01-13 22:25:10.16	85.64	26.47	-18.6	-19.1	17.3	0.00e+00	0	30	0	28974252032	12	17442
2026-01-13 22:25:11.17	86.12	26.50	-18.4	-18.9	17.3	0.00e+00	0	30	0	29091692544	12	17026
2026-01-13 22:25:12.18	86.60	26.53	-18.6	-19.0	17.3	0.00e+00	0	30	0	29200744448	12	17347
2026-01-13 22:25:13.19	87.08	26.55	-18.5	-19.0	17.3	0.00e+00	0	30	0	29318184960	12	17247
2026-01-13 22:25:14.20	87.57	26.57	-18.6	-19.0	17.3	0.00e+00	0	30	0	29427236864	12	17350
2026-01-13 22:25:15.20	88.05	26.59	-18.6	-19.1	17.3	0.00e+00	0	30	0	29544677376	12	17457
2026-01-13 22:25:16.22	88.54	26.61	-18.6	-19.1	17.3	0.00e+00	0	30	0	29662117888	12	17441
2026-01-13 22:25:17.23	89.02	26.63	-18.6	-19.0	17.3	0.00e+00	0	30	0	29771169792	12	17296
2026-01-13 22:25:18.24	89.51	26.64	-18.8	-19.2	17.3	0.00e+00	0	30	0	29880221696	12	17679
2026-01-13 22:25:19.25	90.00	26.66	-18.5	-18.9	17.2	0.00e+00	0	30	0	29997662208	12	17087
2026-01-13 22:25:20.26	90.48	26.67	-18.6	-19.0	17.3	0.00e+00	0	30	0	30106714112	12	17311
2026-01-13 22:25:21.27	90.97	26.68	-18.7	-19.1	17.3	0.00e+00	0	30	0	30224154624	12	17489
2026-01-13 22:25:22.28	91.46	26.68	-18.5	-19.0	17.3	0.00e+00	0	30	0	30341595136	12	17207
2026-01-13 22:25:23.29	91.94	26.69	-18.4	-18.8	17.3	0.00e+00	0	30	0	30450647040	12	16972
2026-01-13 22:25:24.30	92.43	26.69	-18.3	-18.8	17.3	0.00e+00	0	30	0	30568087552	12	16810
2026-01-13 22:25:25.31	92.92	26.69	-18.3	-18.7	17.3	0.00e+00	0	30	0	30677139456	12	16779
2026-01-13 22:25:26.32	93.41	26.69	-47.5	-50.1	6.1	0.00e+00	0	30	104	30685528064	60	39375
2026-01-13 22:25:27.32	93.89	26.68	-48.0	-50.5	6.1	0.00e+00	0	30	104	30685528064	60	41259
2026-01-13 22:25:28.33	94.38	26.68	-47.0	-49.7	6.1	0.00e+00	0	30	104	30685528064	60	37580
2026-01-13 22:25:29.34	94.87	26.67	-47.7	-50.3	6.1	0.00e+00	0	30	104	30685528064	60	40131
2026-01-13 22:25:30.35	95.35	26.66	-47.3	-50.0	6.1	0.00e+00	0	30	104	30685528064	60	38868
2026-01-13 22:25:31.36	95.84	26.65	-48.0	-50.5	6.1	0.00e+00	0	30	104	30685528064	60	41205
2026-01-13 22:25:32.36	96.32	26.64	-47.4	-50.0	6.1	0.00e+00	0	30	104	30685528064	60	38814
2026-01-13 22:25:33.37	96.81	26.62	-48.0	-50.6	6.1	0.00e+00	0	30	104	30685528064	60	41628
2026-01-13 22:25:34.38	97.29	26.60	-47.5	-50.2	6.1	0.00e+00	0	30	104	30685528064	60	39627
2026-01-13 22:25:35.39	97.78	26.58	-47.6	-50.2	6.1	0.00e+00	0	30	104	30685528064	60	39767
2026-01-13 22:25:36.40	98.26	26.56	-47.3	-50.0	6.1	0.00e+00	0	30	104	30685528064	60	38530
2026-01-13 22:25:37.41	98.75	26.54	-48.3	-50.8	6.1	0.00e+00	0	30	104	30685528064	60	42447
2026-01-13 22:25:38.42	99.23	26.51	-48.1	-50.7	6.1	0.00e+00	0	30	104	30685528064	60	41780
2026-01-13 22:25:39.43	99.71	26.48	-47.7	-50.4	6.1	0.00e+00	0	30	104	30685528064	60	40505
2026-01-13 22:25:40.44	100.19	26.45	-47.9	-50.5	6.1	0.00e+00	0	30	104	30685528064	60	41072
2026-01-13 22:25:41.46	100.68	26.42	-48.0	-50.6	6.1	0.00e+00	0	30	104	30685528064	60	41332
2026-01-13 22:25:42.46	101.15	26.39	-48.3	-50.8	6.1	0.00e+00	0	30	104	30685528064	60	42553
2026-01-13 22:25:43.47	101.63	26.35	-48.4	-50.9	6.1	0.00e+00	0	30	104	30685528064	60	42752
2026-01-13 22:25:44.48	102.10	26.31	-48.4	-50.9	6.1	0.00e+00	0	30	104	30685528064	60	42748
2026-01-13 22:25:45.49	102.58	26.28	-48.4	-50.9	6.1	0.00e+00	0	30	104	30685528064	60	42997
2026-01-13 22:25:46.50	103.05	26.23	-48.4	-50.9	6.1	0.00e+00	0	30	104	30685528064	60	42913
2026-01-13 22:25:47.51	103.53	26.19	-48.4	-50.9	6.1	0.00e+00	0	30	104	30685528064	60	42727
2026-01-13 22:25:48.52	104.00	26.15	-48.4	-50.9	6.1	0.00e+00	0	30	104	30685528064	60	42882
2026-01-13 22:25:49.53	104.47	26.10	-48.2	-50.7	6.1	0.00e+00	0	30	104	30685528064	60	42088
2026-01-13 22:25:50.54	104.94	26.05	-48.4	-50.9	6.1	0.00e+00	0	30	104	30685528064	60	42909
2026-01-13 22:25:51.55	105.40	26.00	-48.3	-50.8	6.1	0.00e+00	0	30	104	30685528064	60	42601
2026-01-13 22:25:52.56	105.87	25.95	-48.4	-50.8	6.0	0.00e+00	0	30	104	30685528064	60	42692
2026-01-13 22:25:53.56	106.33	25.90	-48.4	-50.9	6.1	0.00e+00	0	30	104	30685528064	60	42827
2026-01-13 22:25:54.57	106.79	25.84	-48.4	-50.9	6.1	0.00e+00	0	30	104	30685528064	60	42885
2026-01-13 22:25:55.58	107.25	25.79	-48.4	-50.9	6.1	0.00e+00	0	30	104	30685528064	60	42895
2026-01-13 22:25:56.59	107.71	25.73	-48.3	-50.8	6.1	0.00e+00	0	30	104	30685528064	60	42534
2026-01-13 22:25:57.60	108.16	25.67	-48.4	-50.8	6.1	0.00e+00	0	29	104	30685528064	60	42605
2026-01-13 22:25:58.60	108.61	25.61	-48.3	-50.8	6.1	0.00e+00	0	30	104	30685528064	60	42293
2026-01-13 22:25:59.61	109.07	25.54	-48.2	-50.7	6.1	0.00e+00	0	30	104	30685528064	60	42013
2026-01-13 22:26:00.62	109.52	25.48	-48.4	-50.9	6.1	0.00e+00	0	30	104	30685528064	60	42908
2026-01-13 22:26:01.63	109.96	25.41	-48.3	-50.8	6.1	0.00e+00	0	30	104	30685528064	60	42343
2026-01-13 22:26:02.64	110.41	25.34	-48.4	-50.9	6.1	0.00e+00	0	30	104	30685528064	60	42815
2026-01-13 22:26:03.65	110.86	25.28	-48.4	-50.8	6.1	0.00e+00	0	30	104	30685528064	60	42638
2026-01-13 22:26:04.66	111.30	25.20	-48.4	-50.8	6.1	0.00e+00	0	29	104	30685528064	60	42707
2026-01-13 22:26:05.67	111.74	25.13	-48.4	-50.9	6.1	0.00e+00	0	29	104	30685528064	60	42858
2026-01-13 22:26:06.68	112.18	25.06	-48.4	-50.9	6.1	0.00e+00	0	29	104	30685528064	60	42860
2026-01-13 22:26:07.69	112.61	24.98	-48.4	-50.9	6.1	0.00e+00	0	30	104	30685528064	60	42920
2026-01-13 22:26:08.69	113.04	24.91	-48.3	-50.8	6.1	0.00e+00	0	30	104	30685528064	60	42304
2026-01-13 22:26:09.70	113.47	24.83	-48.4	-50.9	6.1	0.00e+00	0	29	104	30685528064	60	42942
2026-01-13 22:26:10.71	113.90	24.75	-48.4	-50.9	6.1	0.00e+00	0	29	104	30685528064	60	42769
2026-01-13 22:26:11.72	114.33	24.67	-48.3	-50.8	6.1	0.00e+00	0	30	104	30685528064	60	42642
2026-01-13 22:26:12.73	114.75	24.59	-48.2	-50.7	6.1	0.00e+00	0	30	104	30685528064	60	41994
2026-01-13 22:26:13.74	115.17	24.51	-48.3	-50.7	6.1	0.00e+00	0	30	104	30685528064	60	42180
2026-01-13 22:26:14.74	115.59	24.43	-48.2	-50.8	6.1	0.00e+00	0	30	104	30685528064	60	42376
2026-01-13 22:26:15.75	116.01	24.34	-48.2	-50.7	6.1	0.00e+00	0	30	104	30685528064	60	41754
2026-01-13 22:26:16.76	116.42	24.26	-48.3	-50.8	6.1	0.00e+00	0	30	104	30685528064	60	42696
2026-01-13 22:26:17.77	116.83	24.17	-48.4	-50.9	6.1	0.00e+00	0	30	104	30685528064	60	42934
2026-01-13 22:26:18.78	117.24	24.08	-48.4	-50.9	6.1	0.00e+00	0	30	104	30685528064	60	42963
2026-01-13 22:26:19.79	117.65	23.99	-48.3	-50.8	6.1	0.00e+00	0	29	104	30685528064	60	42536
2026-01-13 22:26:20.80	118.05	23.90	-48.2	-50.8	6.1	0.00e+00	0	30	104	30685528064	60	42387
2026-01-13 22:26:21.80	118.45	23.81	-48.4	-50.8	6.1	0.00e+00	0	30	104	30685528064	60	42624
2026-01-13 22:26:22.82	118.86	23.72	-48.3	-50.8	6.1	0.00e+00	0	29	104	30685528064	60	42455
2026-01-13 22:26:23.82	119.25	23.63	-48.3	-50.8	6.1	0.00e+00	0	30	104	30685528064	60	42378
2026-01-13 22:26:24.84	119.65	23.53	-48.2	-50.7	6.1	0.00e+00	0	30	104	30685528064	60	42015
2026-01-13 22:26:25.84	120.04	23.44	-48.3	-50.8	6.1	0.00e+00	0	29	104	30685528064	60	42550
2026-01-13 22:26:26.86	120.43	23.35	-48.3	-50.7	6.1	0.00e+00	0	30	104	30685528064	60	42191
2026-01-13 22:26:27.87	120.81	23.25	-48.2	-50.7	6.1	0.00e+00	0	30	104	30685528064	60	42064
2026-01-13 22:26:28.88	121.20	23.15	-47.9	-50.4	6.1	0.00e+00	0	30	104	30685528064	60	40590
2026-01-13 22:26:29.88	121.58	23.06	-48.2	-50.7	6.1	0.00e+00	0	30	104	30685528064	60	42202
2026-01-13 22:26:30.89	121.96	22.96	-48.1	-50.6	6.1	0.00e+00	0	30	104	30685528064	60	41660
2026-01-13 22:26:31.90	122.33	22.86	-48.1	-50.6	6.1	0.00e+00	0	29	104	30685528064	60	41722
2026-01-13 22:26:32.91	122.70	22.76	-48.3	-50.8	6.1	0.00e+00	0	29	104	30685528064	60	42612
2026-01-13 22:26:33.92	123.08	22.66	-48.3	-50.8	6.1	0.00e+00	0	30	104	30685528064	60	42394
2026-01-13 22:26:34.92	123.44	22.56	-48.0	-50.6	6.1	0.00e+00	0	29	104	30685528064	60	41334
2026-01-13 22:26:35.93	123.81	22.46	-48.3	-50.8	6.1	0.00e+00	0	29	104	30685528064	60	42242
2026-01-13 22:26:36.94	124.17	22.36	-48.3	-50.8	6.1	0.00e+00	0	29	104	30685528064	60	42552
2026-01-13 22:26:37.95	124.53	22.25	-48.2	-50.7	6.1	0.00e+00	0	29	104	30685528064	60	42066
2026-01-13 22:26:38.96	124.89	22.15	-48.3	-50.8	6.1	0.00e+00	0	29	104	30685528064	60	42319
2026-01-13 22:26:39.97	125.24	22.05	-48.3	-50.8	6.1	0.00e+00	0	30	104	30685528064	60	42523
2026-01-13 22:26:40.98	125.60	21.94	-48.2	-50.7	6.1	0.00e+00	0	29	104	30685528064	60	41787
2026-01-13 22:26:41.99	125.95	21.84	-48.3	-50.8	6.1	0.00e+00	0	30	104	30685528064	60	42624
2026-01-13 22:26:43.00	126.29	21.73	-48.3	-50.8	6.1	0.00e+00	0	29	104	30685528064	60	42400
2026-01-13 22:26:44.00	126.63	21.63	-48.3	-50.8	6.1	0.00e+00	0	29	104	30685528064	60	42642
2026-01-13 22:26:45.01	126.98	21.52	-48.1	-50.6	6.1	0.00e+00	0	30	104	30685528064	60	41585
2026-01-13 22:26:46.02	127.32	21.42	-48.3	-50.8	6.1	0.00e+00	0	29	104	30685528064	60	42392
2026-01-13 22:26:47.03	127.65	21.31	-48.3	-50.8	6.1	0.00e+00	0	29	104	30685528064	60	42628
2026-01-13 22:26:48.04	127.99	21.20	-48.3	-50.8	6.1	0.00e+00	0	29	104	30685528064	60	42353
2026-01-13 22:26:49.05	128.32	21.09	-48.3	-50.8	6.1	0.00e+00	0	29	104	30685528064	60	42485
2026-01-13 22:26:50.06	128.65	20.99	-48.3	-50.8	6.1	0.00e+00	0	29	104	30685528064	60	42576
2026-01-13 22:26:51.07	128.97	20.88	-48.3	-50.7	6.1	0.00e+00	0	29	104	30685528064	60	42220
2026-01-13 22:26:52.08	129.30	20.77	-48.2	-50.7	6.1	0.00e+00	0	29	104	30685528064	60	42167
2026-01-13 22:26:53.08	129.62	20.66	-48.2	-50.7	6.1	0.00e+00	0	29	104	30685528064	60	42090
2026-01-13 22:26:54.09	129.94	20.55	-48.1	-50.6	6.1	0.00e+00	0	29	104	30685528064	60	41603
2026-01-13 22:26:55.10	130.25	20.45	-48.3	-50.8	6.1	0.00e+00	0	29	104	30685528064	60	42311
2026-01-13 22:26:56.11	130.57	20.34	-48.3	-50.8	6.1	0.00e+00	0	30	104	30685528064	60	42324
2026-01-13 22:26:57.12	130.88	20.23	-48.3	-50.8	6.1	0.00e+00	0	30	104	30685528064	60	42450
2026-01-13 22:26:58.13	131.19	20.12	-48.3	-50.8	6.0	0.00e+00	0	29	104	30685528064	60	42340
2026-01-13 22:26:59.14	131.50	20.01	-48.2	-50.6	6.1	0.00e+00	0	30	104	30685528064	60	41596
2026-01-13 22:27:00.15	131.80	19.90	-48.3	-50.7	6.1	0.00e+00	0	30	104	30685528064	60	42008
2026-01-13 22:27:01.16	132.10	19.79	-48.1	-50.6	6.1	0.00e+00	0	29	104	30685528064	60	41627
2026-01-13 22:27:02.17	132.40	19.68	-48.1	-50.6	6.1	0.00e+00	0	29	104	30685528064	60	41444
2026-01-13 22:27:03.18	132.70	19.57	-48.3	-50.7	6.1	0.00e+00	0	29	104	30685528064	60	42202
2026-01-13 22:27:04.18	132.99	19.46	-48.3	-50.7	6.1	0.00e+00	0	30	104	30685528064	60	42191
2026-01-13 22:27:05.19	133.28	19.35	-48.3	-50.8	6.1	0.00e+00	0	29	104	30685528064	60	42292
2026-01-13 22:27:06.20	133.57	19.24	-48.2	-50.7	6.1	0.00e+00	0	29	104	30685528064	60	42008
2026-01-13 22:27:07.21	133.86	19.13	-48.1	-50.6	6.1	0.00e+00	0	29	104	30685528064	60	41515
2026-01-13 22:27:08.22	134.15	19.02	-48.0	-50.5	6.1	0.00e+00	0	29	104	30685528064	60	41146
2026-01-13 22:27:09.23	134.43	18.91	-48.3	-50.8	6.1	0.00e+00	0	29	104	30685528064	60	42311
2026-01-13 22:27:10.24	134.71	18.80	-48.1	-50.6	6.1	0.00e+00	0	30	104	30685528064	60	41661
2026-01-13 22:27:11.25	134.99	18.69	-48.2	-50.7	6.1	0.00e+00	0	29	104	30685528064	60	42165
2026-01-13 22:27:12.26	135.27	18.58	-48.2	-50.7	6.1	0.00e+00	0	30	104	30685528064	60	42040
2026-01-13 22:27:13.27	135.54	18.47	-48.3	-50.8	6.1	0.00e+00	0	30	104	30685528064	60	42269
2026-01-13 22:27:14.28	135.81	18.36	-48.1	-50.6	6.1	0.00e+00	0	30	104	30685528064	60	41503
2026-01-13 22:27:15.29	136.08	18.25	-48.0	-50.6	6.1	0.00e+00	0	29	104	30685528064	60	41465
2026-01-13 22:27:16.30	136.35	18.14	-48.1	-50.6	6.1	0.00e+00	0	29	104	30685528064	60	41538
2026-01-13 22:27:17.31	136.61	18.03	-48.1	-50.7	6.1	0.00e+00	0	29	104	30685528064	60	41792
2026-01-13 22:27:18.31	136.87	17.92	-48.2	-50.7	6.1	0.00e+00	0	29	104	30685528064	60	42029
2026-01-13 22:27:19.32	137.14	17.81	-48.2	-50.6	6.1	0.00e+00	0	30	104	30685528064	60	41712
2026-01-13 22:27:20.33	137.39	17.70	-48.2	-50.7	6.1	0.00e+00	0	29	104	30685528064	60	41818
2026-01-13 22:27:21.34	137.65	17.59	-48.1	-50.6	6.1	0.00e+00	0	29	104	30685528064	60	41679
2026-01-13 22:27:22.35	137.91	17.48	-48.1	-50.6	6.1	0.00e+00	0	29	104	30685528064	60	41342
2026-01-13 22:27:23.36	138.16	17.38	-48.2	-50.7	6.1	0.00e+00	0	29	104	30685528064	60	42101
2026-01-13 22:27:24.37	138.41	17.27	-48.2	-50.7	6.1	0.00e+00	0	29	104	30685528064	60	42014
2026-01-13 22:27:25.38	138.66	17.16	-48.1	-50.6	6.1	0.00e+00	0	29	104	30685528064	60	41545
2026-01-13 22:27:26.39	138.90	17.05	-48.0	-50.5	6.1	0.00e+00	0	29	104	30685528064	60	41052
2026-01-13 22:27:27.40	139.15	16.94	-48.1	-50.6	6.1	0.00e+00	0	29	104	30685528064	60	41396
2026-01-13 22:27:28.41	139.39	16.83	-48.1	-50.6	6.1	0.00e+00	0	29	104	30685528064	60	41674
2026-01-13 22:27:29.42	139.63	16.72	-48.0	-50.5	6.1	0.00e+00	0	29	104	30685528064	60	41249
2026-01-13 22:27:30.42	139.87	16.62	-48.1	-50.6	6.1	0.00e+00	0	29	104	30685528064	60	41423
2026-01-13 22:27:31.43	140.10	16.51	-48.1	-50.6	6.1	0.00e+00	0	29	104	30685528064	60	41415
2026-01-13 22:27:32.44	140.34	16.40	-48.2	-50.7	6.1	0.00e+00	0	29	104	30685528064	60	41754
2026-01-13 22:27:33.45	140.57	16.29	-48.2	-50.7	6.1	0.00e+00	0	30	104	30685528064	60	41985
2026-01-13 22:27:34.46	140.80	16.19	-48.1	-50.6	6.1	0.00e+00	0	29	104	30685528064	60	41388
2026-01-13 22:27:35.47	141.03	16.08	-48.1	-50.6	6.1	0.00e+00	0	29	104	30685528064	60	41489
2026-01-13 22:27:36.48	141.26	15.97	-48.0	-50.5	6.1	0.00e+00	0	29	104	30685528064	60	40925
2026-01-13 22:27:37.49	141.48	15.87	-48.1	-50.6	6.1	0.00e+00	0	29	104	30685528064	60	41719
2026-01-13 22:27:38.50	141.71	15.76	-48.0	-50.5	6.1	0.00e+00	0	29	104	30685528064	60	41009
2026-01-13 22:27:39.51	141.93	15.65	-48.1	-50.6	6.1	0.00e+00	0	29	104	30685528064	60	41600
2026-01-13 22:27:40.52	142.15	15.55	-48.0	-50.6	6.1	0.00e+00	0	29	104	30685528064	60	41513
2026-01-13 22:27:41.53	142.37	15.44	-47.9	-50.4	6.0	0.00e+00	0	29	104	30685528064	60	40687
2026-01-13 22:27:42.54	142.58	15.34	-48.1	-50.5	6.1	0.00e+00	0	29	104	30685528064	60	41259
2026-01-13 22:27:43.55	142.80	15.23	-48.0	-50.5	6.1	0.00e+00	0	29	104	30685528064	60	41151
2026-01-13 22:27:44.56	143.01	15.13	-48.1	-50.5	6.1	0.00e+00	0	29	104	30685528064	60	41169
2026-01-13 22:27:45.56	143.22	15.02	-48.1	-50.6	6.1	0.00e+00	0	29	104	30685528064	60	41313
2026-01-13 22:27:46.58	143.43	14.92	-48.1	-50.6	6.1	0.00e+00	0	29	104	30685528064	60	41358
2026-01-13 22:27:47.58	143.64	14.82	-48.0	-50.5	6.1	0.00e+00	0	29	104	30685528064	60	40997
2026-01-13 22:27:48.59	143.84	14.71	-48.0	-50.6	6.1	0.00e+00	0	29	104	30685528064	60	41276
2026-01-13 22:27:49.60	144.05	14.61	-48.0	-50.5	6.1	0.00e+00	0	29	104	30685528064	60	41245
2026-01-13 22:27:50.61	144.25	14.51	-48.0	-50.5	6.1	0.00e+00	0	29	104	30685528064	60	41039
2026-01-13 22:27:51.62	144.45	14.40	-47.9	-50.4	6.1	0.00e+00	0	29	104	30685528064	60	40389
2026-01-13 22:27:52.63	144.65	14.30	-48.1	-50.5	6.1	0.00e+00	0	30	104	30685528064	60	41173
2026-01-13 22:27:53.64	144.85	14.20	-48.1	-50.5	6.1	0.00e+00	0	29	104	30685528064	60	41189
2026-01-13 22:27:54.65	145.05	14.10	-48.0	-50.5	6.1	0.00e+00	0	29	104	30685528064	60	40800
2026-01-13 22:27:55.66	145.24	13.99	-47.9	-50.4	6.1	0.00e+00	0	29	104	30685528064	60	40461
2026-01-13 22:27:56.67	145.43	13.89	-48.0	-50.5	6.1	0.00e+00	0	29	104	30685528064	60	40973
2026-01-13 22:27:57.68	145.63	13.79	-48.1	-50.5	6.1	0.00e+00	0	29	104	30685528064	60	41232
2026-01-13 22:27:58.68	145.81	13.69	-48.0	-50.6	6.1	0.00e+00	0	29	104	30685528064	60	41268
2026-01-13 22:27:59.69	146.00	13.59	-48.0	-50.5	6.1	0.00e+00	0	29	104	30685528064	60	40893
2026-01-13 22:28:00.71	146.19	13.49	-48.1	-50.5	6.1	0.00e+00	0	29	104	30685528064	60	41219
2026-01-13 22:28:01.71	146.38	13.39	-47.9	-50.4	6.1	0.00e+00	0	29	104	30685528064	60	40494
2026-01-13 22:28:02.73	146.56	13.29	-48.0	-50.5	6.1	0.00e+00	0	29	104	30685528064	60	40969
2026-01-13 22:28:03.73	146.74	13.19	-48.0	-50.4	6.1	0.00e+00	0	29	104	30685528064	60	40776
2026-01-13 22:28:04.74	146.93	13.09	-47.8	-50.3	6.1	0.00e+00	0	29	104	30685528064	60	40191
2026-01-13 22:28:05.76	147.11	12.99	-47.9	-50.4	6.1	0.00e+00	0	29	104	30685528064	60	40646
2026-01-13 22:28:06.77	147.29	12.89	-48.0	-50.5	6.1	0.00e+00	0	29	104	30685528064	60	41077
2026-01-13 22:28:07.77	147.46	12.80	-48.0	-50.5	6.1	0.00e+00	0	29	104	30685528064	60	40969
2026-01-13 22:28:08.78	147.64	12.70	-48.1	-50.5	6.1	0.00e+00	0	29	104	30685528064	60	41120
2026-01-13 22:28:09.79	147.81	12.60	-48.0	-50.5	6.1	0.00e+00	0	29	104	30685528064	60	40953
2026-01-13 22:28:10.80	147.99	12.50	-48.0	-50.5	6.1	0.00e+00	0	29	104	30685528064	60	41122
2026-01-13 22:28:11.81	148.16	12.41	-48.0	-50.5	6.0	0.00e+00	0	29	104	30685528064	60	40888
2026-01-13 22:28:12.82	148.33	12.31	-48.0	-50.5	6.1	0.00e+00	0	29	104	30685528064	60	41108
2026-01-13 22:28:13.83	148.50	12.21	-48.0	-50.5	6.1	0.00e+00	0	29	104	30685528064	60	40981
2026-01-13 22:28:14.84	148.67	12.12	-48.0	-50.5	6.1	0.00e+00	0	29	104	30685528064	60	40894
2026-01-13 22:28:15.85	148.83	12.02	-48.0	-50.4	6.1	0.00e+00	0	29	104	30685528064	60	40714
2026-01-13 22:28:16.86	149.00	11.93	-48.0	-50.5	6.1	0.00e+00	0	29	104	30685528064	60	40948
2026-01-13 22:28:17.87	149.16	11.83	-48.0	-50.5	6.1	0.00e+00	0	29	104	30685528064	60	40809
2026-01-13 22:28:18.87	149.32	11.74	-48.0	-50.4	6.1	0.00e+00	0	29	104	30685528064	60	40781
2026-01-13 22:28:19.88	149.49	11.64	-47.9	-50.4	6.1	0.00e+00	0	29	104	30685528064	60	40489
2026-01-13 22:28:20.89	149.65	11.55	-48.0	-50.5	6.1	0.00e+00	0	29	104	30685528064	60	40866
2026-01-13 22:28:21.90	149.81	11.45	-47.9	-50.4	6.1	0.00e+00	0	29	104	30685528064	60	40373
2026-01-13 22:28:22.91	149.97	11.36	-47.9	-50.4	6.1	0.00e+00	0	29	104	30685528064	60	40777
2026-01-13 22:28:23.92	150.12	11.27	-47.8	-50.3	6.1	0.00e+00	0	29	104	30685528064	60	39909
2026-01-13 22:28:24.93	150.28	11.17	-48.0	-50.4	6.1	0.00e+00	0	29	104	30685528064	60	40683
2026-01-13 22:28:25.94	150.43	11.08	-47.9	-50.4	6.1	0.00e+00	0	29	104	30685528064	60	40610
2026-01-13 22:28:26.95	150.59	10.99	-47.9	-50.4	6.1	0.00e+00	0	29	104	30685528064	60	40578
2026-01-13 22:28:27.96	150.74	10.90	-47.7	-50.2	6.1	0.00e+00	0	29	104	30685528064	60	39524
2026-01-13 22:28:28.97	150.89	10.80	-47.9	-50.4	6.1	0.00e+00	0	29	104	30685528064	60	40731
2026-01-13 22:28:29.98	151.04	10.71	-47.9	-50.4	6.1	0.00e+00	0	29	104	30685528064	60	40488
2026-01-13 22:28:30.99	151.19	10.62	-47.9	-50.4	6.1	0.00e+00	0	29	104	30685528064	60	40678
2026-01-13 22:28:32.00	151.34	10.53	-47.8	-50.3	6.1	0.00e+00	0	29	104	30685528064	60	39905
2026-01-13 22:28:33.01	151.48	10.44	-47.9	-50.4	6.1	0.00e+00	0	29	104	30685528064	60	40354
2026-01-13 22:28:34.02	151.63	10.35	-47.8	-50.4	6.1	0.00e+00	0	29	104	30685528064	60	40358
2026-01-13 22:28:35.02	151.77	10.26	-47.9	-50.4	6.1	0.00e+00	0	29	104	30685528064	60	40417
2026-01-13 22:28:36.03	151.92	10.17	-47.8	-50.3	6.1	0.00e+00	0	29	104	30685528064	60	40302
2026-01-13 22:28:37.04	152.06	10.08	-47.9	-50.3	6.1	0.00e+00	0	29	104	30685528064	60	40210
2026-01-13 22:28:38.05	152.20	9.99	-47.8	-50.2	6.1	0.00e+00	0	29	104	30685528064	60	39829
2026-01-13 22:28:39.06	152.34	9.90	-47.8	-50.4	6.1	0.00e+00	0	29	104	30685528064	60	40362
2026-01-13 22:28:40.07	152.48	9.81	-47.8	-50.3	6.1	0.00e+00	0	29	104	30685528064	60	39959
2026-01-13 22:28:41.08	152.62	9.72	-47.8	-50.3	6.1	0.00e+00	0	29	104	30685528064	60	39926
2026-01-13 22:28:42.09	152.76	9.64	-47.5	-50.0	6.1	0.00e+00	0	29	104	30685528064	60	38671
2026-01-13 22:28:43.10	152.90	9.55	-47.8	-50.3	6.1	0.00e+00	0	29	104	30685528064	60	40090
2026-01-13 22:28:44.11	153.03	9.46	-47.6	-50.1	6.1	0.00e+00	0	29	104	30685528064	60	39362
2026-01-13 22:28:45.12	153.17	9.37	-47.5	-50.0	6.1	0.00e+00	0	30	104	30685528064	60	38681
2026-01-13 22:28:46.13	153.30	9.29	-47.1	-49.6	6.1	0.00e+00	0	30	104	30685528064	60	37011
2026-01-13 22:28:47.14	153.43	9.20	-47.5	-50.1	6.1	0.00e+00	0	29	104	30685528064	60	39004
2026-01-13 22:28:48.14	153.56	9.11	-47.5	-49.9	6.1	0.00e+00	0	29	104	30685528064	60	38405
2026-01-13 22:28:49.15	153.70	9.03	-47.1	-49.5	6.1	0.00e+00	0	29	104	30685528064	60	36704
2026-01-13 22:28:50.16	153.83	8.94	-46.8	-49.3	6.0	0.00e+00	0	30	104	30685528064	60	35752
2026-01-13 22:28:51.16	153.95	8.86	-47.2	-49.7	6.1	0.00e+00	0	29	104	30685528064	60	37531
2026-01-13 22:28:52.17	154.08	8.77	-47.0	-49.5	6.1	0.00e+00	0	29	104	30685528064	60	36657
2026-01-13 22:28:53.18	154.21	8.69	-46.5	-49.0	6.1	0.00e+00	0	30	104	30685528064	60	34519
2026-01-13 22:28:54.19	154.34	8.60	-46.3	-48.9	6.1	0.00e+00	0	30	104	30685528064	60	33956
2026-01-13 22:28:55.20	154.46	8.52	-46.6	-49.1	6.1	0.00e+00	0	30	104	30685528064	60	34982
2026-01-13 22:28:56.21	154.59	8.43	-46.3	-48.8	6.1	0.00e+00	0	30	104	30685528064	60	33876
2026-01-13 22:28:57.22	154.71	8.35	-46.3	-48.8	6.1	0.00e+00	0	29	104	30685528064	60	33923
2026-01-13 22:28:58.23	154.83	8.27	-46.4	-48.8	6.1	0.00e+00	0	30	104	30685528064	60	33911
2026-01-13 22:28:59.23	154.95	8.18	-46.4	-48.9	6.1	0.00e+00	0	29	104	30685528064	60	33965
2026-01-13 22:29:00.24	155.08	8.10	-46.6	-49.1	6.1	0.00e+00	0	29	104	30685528064	60	34907
2026-01-13 22:29:01.25	155.20	8.02	-46.4	-49.0	6.1	0.00e+00	0	30	104	30685528064	60	34429
2026-01-13 22:29:02.26	155.32	7.94	-46.4	-48.9	6.1	0.00e+00	0	29	104	30685528064	60	34236
2026-01-13 22:29:03.27	155.44	7.85	-46.8	-49.3	6.1	0.00e+00	0	29	104	30685528064	60	35657
2026-01-13 22:29:04.28	155.55	7.77	-46.6	-49.1	6.1	0.00e+00	0	29	104	30685528064	60	35054
2026-01-13 22:29:05.29	155.67	7.69	-46.6	-49.1	6.1	0.00e+00	0	30	104	30685528064	60	35012
2026-01-13 22:29:06.30	155.79	7.61	-47.0	-49.5	6.1	0.00e+00	0	30	104	30685528064	60	36624
2026-01-13 22:29:07.31	155.90	7.53	-47.1	-49.6	6.1	0.00e+00	0	29	104	30685528064	60	36923
2026-01-13 22:29:08.32	156.02	7.45	-46.9	-49.3	6.1	0.00e+00	0	29	104	30685528064	60	35903
2026-01-13 22:29:09.33	156.13	7.37	-47.0	-49.5	6.1	0.00e+00	0	29	104	30685528064	60	36397
2026-01-13 22:29:10.34	156.25	7.29	-47.3	-49.8	6.1	0.00e+00	0	29	104	30685528064	60	37800
2026-01-13 22:29:11.35	156.36	7.21	-47.2	-49.6	6.1	0.00e+00	0	29	104	30685528064	60	37197
2026-01-13 22:29:12.36	156.47	7.13	-47.1	-49.5	6.1	0.00e+00	0	29	104	30685528064	60	36717
2026-01-13 22:29:13.37	156.58	7.05	-46.9	-49.4	6.1	0.00e+00	0	29	104	30685528064	60	35970
2026-01-13 22:29:14.37	156.69	6.97	-47.4	-49.8	6.1	0.00e+00	0	29	104	30685528064	60	37934
2026-01-13 22:29:15.38	156.80	6.89	-47.1	-49.5	6.1	0.00e+00	0	29	104	30685528064	60	36716
2026-01-13 22:29:16.40	156.91	6.81	-46.7	-49.3	6.1	0.00e+00	0	30	104	30685528064	60	35740
2026-01-13 22:29:17.41	157.02	6.73	-47.0	-49.5	6.1	0.00e+00	0	29	104	30685528064	60	36748
2026-01-13 22:29:18.42	157.13	6.65	-47.0	-49.6	6.1	0.00e+00	0	29	104	30685528064	60	36835
2026-01-13 22:29:19.43	157.24	6.57	-47.0	-49.6	6.1	0.00e+00	0	29	104	30685528064	60	36876
2026-01-13 22:29:20.44	157.34	6.50	-47.2	-49.7	6.1	0.00e+00	0	29	104	30685528064	60	37610
2026-01-13 22:29:21.45	157.45	6.42	-47.3	-49.8	6.1	0.00e+00	0	29	104	30685528064	60	37895
2026-01-13 22:29:22.46	157.55	6.34	-47.2	-49.7	6.1	0.00e+00	0	29	104	30685528064	60	37238
2026-01-13 22:29:23.47	157.66	6.26	-47.5	-50.0	6.1	0.00e+00	0	29	104	30685528064	60	38934
2026-01-13 22:29:24.48	157.76	6.19	-47.4	-50.0	6.1	0.00e+00	0	29	104	30685528064	60	38517
2026-01-13 22:29:25.49	157.87	6.11	-47.3	-49.8	6.1	0.00e+00	0	29	104	30685528064	60	37801
2026-01-13 22:29:26.50	157.97	6.03	-47.5	-50.0	6.1	0.00e+00	0	29	104	30685528064	60	38669
2026-01-13 22:29:27.51	158.07	5.96	-47.5	-50.0	6.1	0.00e+00	0	29	104	30685528064	60	38832
2026-01-13 22:29:28.52	158.17	5.88	-47.5	-49.9	6.1	0.00e+00	0	29	104	30685528064	60	38456
2026-01-13 22:29:29.53	158.27	5.81	-47.4	-49.9	6.1	0.00e+00	0	29	104	30685528064	60	38340
2026-01-13 22:29:30.54	158.37	5.73	-47.4	-49.9	6.1	0.00e+00	0	29	104	30685528064	60	38345
2026-01-13 22:29:31.55	158.47	5.65	-47.4	-49.9	6.1	0.00e+00	0	29	104	30685528064	60	38154
2026-01-13 22:29:32.56	158.57	5.58	-47.4	-49.9	6.1	0.00e+00	0	29	104	30685528064	60	38245
2026-01-13 22:29:33.57	158.67	5.50	-47.4	-49.9	6.1	0.00e+00	0	29	104	30685528064	60	38102
2026-01-13 22:29:34.58	158.77	5.43	-47.3	-49.8	6.1	0.00e+00	0	29	104	30685528064	60	37993
2026-01-13 22:29:35.59	158.86	5.36	-47.2	-49.7	6.1	0.00e+00	0	29	104	30685528064	60	37368
2026-01-13 22:29:36.60	158.96	5.28	-47.2	-49.8	6.1	0.00e+00	0	29	104	30685528064	60	37790
2026-01-13 22:29:37.61	159.05	5.21	-47.2	-49.8	6.1	0.00e+00	0	29	104	30685528064	60	37729
2026-01-13 22:29:38.62	159.15	5.13	-47.2	-49.7	6.1	0.00e+00	0	29	104	30685528064	60	37368
2026-01-13 22:29:39.63	159.24	5.06	-47.3	-49.8	6.1	0.00e+00	0	29	104	30685528064	60	37668
2026-01-13 22:29:40.64	159.34	4.99	-47.2	-49.7	6.1	0.00e+00	0	29	104	30685528064	60	37607
2026-01-13 22:29:41.65	159.43	4.91	-47.2	-49.6	6.1	0.00e+00	0	29	104	30685528064	60	37178
2026-01-13 22:29:42.66	159.52	4.84	-47.2	-49.8	6.1	0.00e+00	0	29	104	30685528064	60	37746
2026-01-13 22:29:43.67	159.62	4.77	-47.2	-49.8	6.1	0.00e+00	0	29	104	30685528064	60	37633
2026-01-13 22:29:44.68	159.71	4.70	-47.2	-49.7	6.1	0.00e+00	0	29	104	30685528064	60	37561
2026-01-13 22:29:45.69	159.80	4.62	-47.2	-49.7	6.1	0.00e+00	0	29	104	30685528064	60	37300
2026-01-13 22:29:46.70	159.89	4.55	-47.4	-49.9	6.1	0.00e+00	0	29	104	30685528064	60	38218
2026-01-13 22:29:47.71	159.98	4.48	-47.2	-49.7	6.1	0.00e+00	0	29	104	30685528064	60	37559
2026-01-13 22:29:48.72	160.07	4.41	-47.2	-49.7	6.1	0.00e+00	0	29	104	30685528064	60	37328
2026-01-13 22:29:49.73	160.16	4.34	-47.0	-49.5	6.1	0.00e+00	0	29	104	30685528064	60	36611
2026-01-13 22:29:50.74	160.25	4.26	-47.3	-49.8	6.1	0.00e+00	0	29	104	30685528064	60	37709
2026-01-13 22:29:51.75	160.34	4.19	-47.2	-49.7	6.1	0.00e+00	0	29	104	30685528064	60	37411
2026-01-13 22:29:52.76	160.42	4.12	-47.2	-49.7	6.1	0.00e+00	0	29	104	30685528064	60	37450
2026-01-13 22:29:53.77	160.51	4.05	-47.0	-49.5	6.1	0.00e+00	0	29	104	30685528064	60	36426
2026-01-13 22:29:54.78	160.60	3.98	-47.3	-49.8	6.1	0.00e+00	0	29	104	30685528064	60	37645
2026-01-13 22:29:55.79	160.68	3.91	-47.0	-49.5	6.1	0.00e+00	0	29	104	30685528064	60	36590
2026-01-13 22:29:56.79	160.77	3.84	-47.2	-49.6	6.1	0.00e+00	0	29	104	30685528064	60	37119
2026-01-13 22:29:57.81	160.85	3.77	-46.8	-49.3	6.1	0.00e+00	0	29	104	30685528064	60	35884
2026-01-13 22:29:58.81	160.94	3.70	-47.2	-49.6	6.1	0.00e+00	0	29	104	30685528064	60	37132
2026-01-13 22:29:59.82	161.02	3.63	-47.0	-49.5	6.1	0.00e+00	0	29	104	30685528064	60	36642
2026-01-13 22:30:00.83	161.10	3.56	-47.0	-49.5	6.1	0.00e+00	0	29	104	30685528064	60	36701
2026-01-13 22:30:01.85	161.19	3.49	-46.9	-49.4	6.1	0.00e+00	0	29	104	30685528064	60	36250
2026-01-13 22:30:02.86	161.27	3.43	-47.0	-49.5	6.1	0.00e+00	0	30	104	30685528064	60	36580
2026-01-13 22:30:03.87	161.35	3.36	-46.8	-49.4	6.1	0.00e+00	0	29	104	30685528064	60	35952
2026-01-13 22:30:04.88	161.43	3.29	-47.0	-49.5	6.1	0.00e+00	0	29	104	30685528064	60	36541
2026-01-13 22:30:05.89	161.52	3.22	-46.8	-49.3	6.1	0.00e+00	0	29	104	30685528064	60	35682
2026-01-13 22:30:06.90	161.60	3.15	-47.1	-49.5	6.1	0.00e+00	0	29	104	30685528064	60	36725
2026-01-13 22:30:07.91	161.68	3.08	-46.8	-49.3	6.1	0.00e+00	0	29	104	30685528064	60	35894
2026-01-13 22:30:08.92	161.76	3.02	-47.0	-49.5	6.1	0.00e+00	0	29	104	30685528064	60	36423
2026-01-13 22:30:09.93	161.84	2.95	-47.3	-49.8	6.1	0.00e+00	0	29	104	30685528064	60	37879
2026-01-13 22:30:10.94	161.91	2.88	-46.7	-49.2	6.1	0.00e+00	0	29	104	30685528064	60	35416
2026-01-13 22:30:11.95	161.99	2.81	-48.0	-50.5	6.1	0.00e+00	0	29	104	30685528064	60	41201
2026-01-13 22:30:12.96	162.07	2.75	-48.2	-50.7	6.1	0.00e+00	0	29	104	30685528064	60	42078
2026-01-13 22:30:13.97	162.15	2.68	-48.4	-50.9	6.1	0.00e+00	0	29	104	30685528064	60	43006
2026-01-13 22:30:14.98	162.23	2.61	-48.5	-51.0	6.1	0.00e+00	0	29	104	30685528064	60	43458
2026-01-13 22:30:15.99	162.30	2.55	-48.6	-51.1	6.1	0.00e+00	0	29	104	30685528064	60	43955
2026-01-13 22:30:17.00	162.38	2.48	-48.6	-51.1	6.1	0.00e+00	0	29	104	30685528064	60	43976
2026-01-13 22:30:18.01	162.46	2.41	-48.5	-51.0	6.1	0.00e+00	0	29	104	30685528064	60	43532
2026-01-13 22:30:19.02	162.53	2.35	-48.7	-51.2	6.1	0.00e+00	0	29	104	30685528064	60	44312
2026-01-13 22:30:20.03	162.61	2.28	-48.7	-51.2	6.1	0.00e+00	0	29	104	30685528064	60	44540
2026-01-13 22:30:21.04	162.68	2.22	-48.8	-51.3	6.1	0.00e+00	0	29	104	30685528064	60	45088
2026-01-13 22:30:22.05	162.76	2.15	-48.6	-51.1	6.1	0.00e+00	0	29	104	30685528064	60	44017
2026-01-13 22:30:23.06	162.83	2.09	-48.7	-51.2	6.0	0.00e+00	0	29	104	30685528064	60	44439
2026-01-13 22:30:24.07	162.90	2.02	-48.7	-51.1	6.1	0.00e+00	0	29	104	30685528064	60	44018
2026-01-13 22:30:25.08	162.98	1.96	-48.7	-51.2	6.1	0.00e+00	0	29	104	30685528064	60	44319
2026-01-13 22:30:26.09	163.05	1.89	-48.6	-51.1	6.1	0.00e+00	0	29	104	30685528064	60	43903
2026-01-13 22:30:27.10	163.12	1.83	-48.6	-51.1	6.1	0.00e+00	0	29	104	30685528064	60	44040
2026-01-13 22:30:28.11	163.19	1.76	-48.6	-51.1	6.1	0.00e+00	0	29	104	30685528064	60	43987
2026-01-13 22:30:29.12	163.26	1.70	-48.6	-51.1	6.1	0.00e+00	0	29	104	30685528064	60	43962
2026-01-13 22:30:30.13	163.34	1.63	-48.6	-51.1	6.1	0.00e+00	0	30	104	30685528064	60	43920
2026-01-13 22:30:31.14	163.41	1.57	-48.6	-51.1	6.1	0.00e+00	0	29	104	30685528064	60	44008
2026-01-13 22:30:32.15	163.48	1.50	-48.7	-51.1	6.1	0.00e+00	0	29	104	30685528064	60	44134
2026-01-13 22:30:33.16	163.55	1.44	-48.6	-51.1	6.1	0.00e+00	0	29	104	30685528064	60	44092
2026-01-13 22:30:34.17	163.62	1.38	-48.7	-51.1	6.1	0.00e+00	0	29	104	30685528064	60	44147
2026-01-13 22:30:35.18	163.69	1.31	-48.6	-51.1	6.1	0.00e+00	0	29	104	30685528064	60	43973
2026-01-13 22:30:36.20	163.76	1.25	-48.6	-51.1	6.1	0.00e+00	0	29	104	30685528064	60	43893
2026-01-13 22:30:37.21	163.83	1.19	-48.6	-51.1	6.1	0.00e+00	0	29	104	30685528064	60	43953
2026-01-13 22:30:38.22	163.89	1.12	-48.6	-51.1	6.1	0.00e+00	0	29	104	30685528064	60	44111
2026-01-13 22:30:39.23	163.96	1.06	-48.6	-51.1	6.1	0.00e+00	0	29	104	30685528064	60	43837
2026-01-13 22:30:40.24	164.03	1.00	-48.6	-51.1	6.1	0.00e+00	0	29	104	30685528064	60	43902
2026-01-13 22:30:41.25	164.10	0.94	-48.6	-51.1	6.1	0.00e+00	0	29	104	30685528064	60	43885
2026-01-13 22:30:42.26	164.16	0.87	-48.6	-51.1	6.1	0.00e+00	0	29	104	30685528064	60	43985
2026-01-13 22:30:43.27	164.23	0.81	-48.7	-51.1	6.1	0.00e+00	0	29	104	30685528064	60	44176
2026-01-13 22:30:44.28	164.30	0.75	-48.6	-51.1	6.1	0.00e+00	0	29	104	30685528064	60	44029
2026-01-13 22:30:45.29	164.36	0.69	-48.6	-51.1	6.1	0.00e+00	0	29	104	30685528064	60	44017
2026-01-13 22:30:46.30	164.43	0.63	-48.6	-51.0	6.1	0.00e+00	0	29	104	30685528064	60	43688
2026-01-13 22:30:47.31	164.49	0.56	-48.6	-51.0	6.1	0.00e+00	0	29	104	30685528064	60	43676
2026-01-13 22:30:48.32	164.56	0.50	-48.6	-51.1	6.1	0.00e+00	0	29	104	30685528064	60	44045
2026-01-13 22:30:49.33	164.62	0.44	-48.6	-51.1	6.1	0.00e+00	0	29	104	30685528064	60	44100
2026-01-13 22:30:50.34	164.69	0.38	-48.6	-51.1	6.1	0.00e+00	0	29	104	30685528064	60	44034
2026-01-13 22:30:51.35	164.75	0.32	-48.6	-51.2	6.1	0.00e+00	0	29	104	30685528064	60	44284
2026-01-13 22:30:52.36	164.82	0.26	-48.6	-51.1	6.1	0.00e+00	0	29	104	30685528064	60	43997
2026-01-13 22:30:53.37	164.88	0.20	-48.6	-51.1	6.1	0.00e+00	0	29	104	30685528064	60	43952
2026-01-13 22:30:54.38	164.94	0.14	-48.6	-51.1	6.1	0.00e+00	0	29	104	30685528064	60	43841
2026-01-13 22:30:55.39	165.00	0.08	-48.6	-51.1	6.1	0.00e+00	0	29	104	30685528064	60	44069
2026-01-13 22:30:56.40	165.07	0.01	-48.6	-51.1	6.1	0.00e+00	0	29	104	30685528064	60	43992
2026-01-13 22:30:57.41	165.13	-0.05	-48.6	-51.1	6.1	0.00e+00	0	29	104	30685528064	60	43917

#Closed at: 2026-01-13 22:30:57
#Recorded file [30685 MB]: D:/lorett/data/35029_260114_102021.dat