passes_logs/2026/01/13/R4.6S_Anadyr/R4.6S_Anadyr__20260113_091556_TY-39_rec.log

#Pass ID: 20260113_091556_TY-39
#Satellite: TY-39
#Configuration: TY-39
#almurnet v.1.7.20251203
#Start time: 2026-01-13 09:15:59

#Version: 2.2.20231116
#Station: R4.6S_Anadyr
#Location: 177.4865 lon 64.73178 lat
#TLE: 1 51832U 22019J   26012.32466558  .00003209  00000-0  15361-3 0  9996
#TLE: 2 51832  97.3649  79.0801 0010062  60.6005 299.6233 15.19628684214124

#Time	Az	El	Level	Level2	SNR	BER	BlckErr	Temp	State	Recorded	gain1	gain2
2026-01-13 09:15:59.43	172.33	0.21	-48.7	-50.3	5.7	0.00e+00	0	25	0	0	60	40016
2026-01-13 09:16:00.40	172.35	0.27	-48.5	-51.1	3.6	0.00e+00	0	26	104	0	60	43826
2026-01-13 09:16:01.38	172.38	0.33	-48.4	-50.9	3.6	0.00e+00	0	26	104	0	60	43054
2026-01-13 09:16:02.36	172.40	0.40	-48.7	-51.2	3.6	0.00e+00	0	26	104	0	60	44290
2026-01-13 09:16:03.34	172.43	0.46	-48.7	-51.1	3.6	0.00e+00	0	26	104	0	60	44129
2026-01-13 09:16:04.33	172.45	0.52	-48.7	-51.1	3.6	0.00e+00	0	26	104	0	60	44166
2026-01-13 09:16:05.31	172.48	0.59	-48.7	-51.2	3.6	0.00e+00	0	26	104	0	60	44461
2026-01-13 09:16:06.28	172.50	0.65	-48.8	-51.2	3.6	0.00e+00	0	27	104	0	60	44459
2026-01-13 09:16:07.26	172.53	0.72	-48.5	-51.0	3.6	0.00e+00	0	27	104	0	60	43474
2026-01-13 09:16:08.25	172.55	0.78	-48.4	-50.9	3.6	0.00e+00	0	27	104	0	60	42894
2026-01-13 09:16:09.22	172.58	0.84	-48.4	-50.9	3.6	0.00e+00	0	27	104	0	60	43018
2026-01-13 09:16:10.20	172.60	0.91	-48.3	-50.8	3.6	0.00e+00	0	27	104	0	60	42474
2026-01-13 09:16:11.18	172.63	0.97	-48.1	-50.6	3.6	0.00e+00	0	27	104	0	60	41610
2026-01-13 09:16:12.16	172.65	1.04	-47.8	-50.2	3.6	0.00e+00	0	27	104	0	60	39846
2026-01-13 09:16:13.14	172.68	1.10	-47.5	-49.9	3.5	0.00e+00	0	27	104	0	60	38413
2026-01-13 09:16:14.12	172.70	1.17	-47.4	-50.0	3.6	0.00e+00	0	27	104	0	60	38557
2026-01-13 09:16:15.10	172.73	1.24	-47.5	-49.9	3.6	0.00e+00	0	27	104	0	60	38253
2026-01-13 09:16:16.08	172.76	1.30	-47.4	-49.9	3.6	0.00e+00	0	27	104	0	60	38361
2026-01-13 09:16:17.07	172.78	1.37	-47.4	-49.9	3.6	0.00e+00	0	27	104	0	60	38341
2026-01-13 09:16:18.04	172.81	1.43	-47.4	-49.9	3.6	0.00e+00	0	27	104	0	60	38232
2026-01-13 09:16:19.02	172.84	1.50	-47.4	-49.9	3.6	0.00e+00	0	27	104	0	60	38310
2026-01-13 09:16:20.00	172.86	1.57	-47.4	-49.9	3.6	0.00e+00	0	27	104	0	60	38362
2026-01-13 09:16:20.98	172.89	1.63	-47.4	-49.9	3.6	0.00e+00	0	27	104	0	60	38307
2026-01-13 09:16:21.96	172.92	1.70	-47.4	-49.9	3.6	0.00e+00	0	27	104	0	60	38303
2026-01-13 09:16:22.94	172.94	1.77	-47.4	-49.9	3.6	0.00e+00	0	27	104	0	60	38315
2026-01-13 09:16:23.92	172.97	1.83	-47.4	-49.9	3.6	0.00e+00	0	27	104	0	60	38258
2026-01-13 09:16:24.89	173.00	1.90	-47.4	-49.9	3.6	0.00e+00	0	27	104	0	60	38179
2026-01-13 09:16:25.87	173.03	1.97	-47.4	-49.9	3.6	0.00e+00	0	27	104	0	60	38471
2026-01-13 09:16:26.85	173.05	2.04	-47.4	-49.9	3.6	0.00e+00	0	27	104	0	60	38337
2026-01-13 09:16:27.83	173.08	2.11	-47.4	-49.9	3.6	0.00e+00	0	27	104	0	60	38119
2026-01-13 09:16:28.81	173.11	2.17	-47.4	-49.9	3.6	0.00e+00	0	27	104	0	60	38143
2026-01-13 09:16:29.79	173.14	2.24	-47.4	-50.0	3.6	0.00e+00	0	27	104	0	60	38574
2026-01-13 09:16:30.77	173.17	2.31	-47.4	-49.9	3.6	0.00e+00	0	27	104	0	60	38386
2026-01-13 09:16:31.74	173.19	2.38	-47.4	-49.9	3.6	0.00e+00	0	27	104	0	60	38181
2026-01-13 09:16:32.72	173.22	2.45	-47.4	-49.9	3.6	0.00e+00	0	27	104	0	60	38349
2026-01-13 09:16:33.70	173.25	2.52	-47.4	-49.9	3.6	0.00e+00	0	27	104	0	60	38320
2026-01-13 09:16:34.68	173.28	2.59	-47.4	-49.9	3.6	0.00e+00	0	27	104	0	60	38262
2026-01-13 09:16:35.66	173.31	2.66	-47.4	-49.9	3.6	0.00e+00	0	27	104	0	60	38322
2026-01-13 09:16:36.64	173.34	2.73	-47.4	-49.9	3.6	0.00e+00	0	27	104	0	60	38215
2026-01-13 09:16:37.62	173.37	2.80	-47.4	-49.9	3.6	0.00e+00	0	27	104	0	60	38397
2026-01-13 09:16:38.60	173.40	2.87	-47.4	-49.9	3.6	0.00e+00	0	27	104	0	60	38174
2026-01-13 09:16:39.58	173.43	2.94	-47.4	-49.9	3.6	0.00e+00	0	27	104	0	60	38297
2026-01-13 09:16:40.56	173.46	3.01	-47.4	-49.9	3.6	0.00e+00	0	28	104	0	60	38312
2026-01-13 09:16:41.55	173.49	3.09	-47.4	-49.9	3.6	0.00e+00	0	28	104	0	60	38370
2026-01-13 09:16:42.53	173.52	3.16	-47.4	-49.8	3.6	0.00e+00	0	28	104	0	60	38048
2026-01-13 09:16:43.52	173.55	3.23	-47.4	-49.9	3.6	0.00e+00	0	28	104	0	60	38144
2026-01-13 09:16:44.51	173.58	3.30	-47.4	-49.9	3.6	0.00e+00	0	28	104	0	60	38353
2026-01-13 09:16:45.50	173.61	3.38	-47.4	-49.9	3.6	0.00e+00	0	28	104	0	60	38306
2026-01-13 09:16:46.48	173.64	3.45	-47.4	-49.9	3.6	0.00e+00	0	28	104	0	60	38154
2026-01-13 09:16:47.47	173.67	3.52	-47.4	-49.9	3.6	0.00e+00	0	28	104	0	60	38288
2026-01-13 09:16:48.45	173.71	3.60	-47.4	-49.9	3.6	0.00e+00	0	27	104	0	60	38239
2026-01-13 09:16:49.44	173.74	3.67	-47.4	-49.9	3.6	0.00e+00	0	28	104	0	60	38268
2026-01-13 09:16:50.42	173.77	3.74	-47.4	-49.9	3.6	0.00e+00	0	28	104	0	60	38278
2026-01-13 09:16:51.40	173.80	3.82	-47.4	-49.9	3.6	0.00e+00	0	28	104	0	60	38098
2026-01-13 09:16:52.39	173.83	3.89	-47.4	-49.9	3.6	0.00e+00	0	28	104	0	60	38189
2026-01-13 09:16:53.37	173.87	3.97	-47.4	-49.9	3.6	0.00e+00	0	28	104	0	60	38110
2026-01-13 09:16:54.35	173.90	4.04	-47.4	-49.9	3.6	0.00e+00	0	28	104	0	60	38317
2026-01-13 09:16:55.33	173.93	4.12	-47.5	-50.0	3.5	0.00e+00	0	28	104	0	60	38546
2026-01-13 09:16:56.31	173.96	4.19	-47.4	-49.8	3.6	0.00e+00	0	28	104	0	60	37957
2026-01-13 09:16:57.29	174.00	4.27	-47.6	-50.0	3.6	0.00e+00	0	28	104	0	60	38878
2026-01-13 09:16:58.28	174.03	4.34	-47.7	-50.2	3.6	0.00e+00	0	28	104	0	60	39614
2026-01-13 09:16:59.26	174.06	4.42	-47.5	-50.0	3.6	0.00e+00	0	28	104	0	60	38564
2026-01-13 09:17:00.26	174.10	4.50	-37.6	-38.1	7.5	0.00e+00	500	28	104	0	48	19606
2026-01-13 09:17:01.25	174.13	4.58	-41.1	-41.3	5.6	5.30e-03	0	28	0	16777216	52	22673
2026-01-13 09:17:02.24	174.17	4.65	-40.5	-40.7	6.2	4.94e-02	0	28	0	92274688	52	21053
2026-01-13 09:17:03.22	174.20	4.73	-44.7	-45.1	3.3	3.44e-02	542	28	0	159383552	56	27590
2026-01-13 09:17:04.21	174.23	4.81	-33.8	-34.1	13.0	1.05e-01	0	28	0	159383552	46	13834
2026-01-13 09:17:05.21	174.27	4.89	-33.5	-33.9	12.9	2.08e-05	0	28	0	234881024	42	17092
2026-01-13 09:17:06.20	174.31	4.97	-33.5	-33.9	12.9	6.90e-06	0	28	0	310378496	42	17105
2026-01-13 09:17:07.19	174.34	5.05	-32.9	-33.3	13.6	0.00e+00	0	28	0	385875968	40	18003
2026-01-13 09:17:08.19	174.38	5.13	-31.6	-32.1	14.3	6.90e-06	0	28	0	461373440	40	15523
2026-01-13 09:17:09.19	174.41	5.21	-31.8	-32.2	14.3	0.00e+00	0	28	0	528482304	38	17685
2026-01-13 09:17:10.18	174.45	5.29	-30.4	-30.8	14.9	0.00e+00	0	28	0	603979776	36	16931
2026-01-13 09:17:11.17	174.49	5.37	-30.2	-30.7	14.9	0.00e+00	0	28	0	679477248	36	16627
2026-01-13 09:17:12.17	174.52	5.45	-29.5	-30.0	15.3	0.00e+00	0	28	0	754974720	34	17224
2026-01-13 09:17:13.18	174.56	5.53	-29.3	-29.8	15.4	0.00e+00	0	28	0	830472192	34	16839
2026-01-13 09:17:14.19	174.60	5.62	-29.0	-29.4	15.4	0.00e+00	0	28	0	905969664	34	16229
2026-01-13 09:17:15.19	174.64	5.70	-28.8	-29.3	15.6	0.00e+00	0	28	0	989855744	34	15895
2026-01-13 09:17:16.20	174.67	5.78	-28.8	-29.3	15.6	0.00e+00	0	28	0	1056964608	32	17898
2026-01-13 09:17:17.20	174.71	5.87	-28.9	-29.4	15.5	0.00e+00	0	28	0	1132462080	32	18147
2026-01-13 09:17:18.19	174.75	5.95	-28.8	-29.3	15.6	0.00e+00	0	28	0	1207959552	32	17824
2026-01-13 09:17:19.19	174.79	6.03	-28.7	-29.1	15.6	0.00e+00	0	28	0	1283457024	32	17536
2026-01-13 09:17:20.19	174.83	6.12	-28.7	-29.1	15.6	0.00e+00	0	28	0	1358954496	32	17599
2026-01-13 09:17:21.18	174.87	6.20	-28.6	-29.1	15.6	0.00e+00	0	28	0	1434451968	32	17424
2026-01-13 09:17:22.18	174.91	6.29	-28.7	-29.2	15.6	0.00e+00	0	28	0	1509949440	32	17624
2026-01-13 09:17:23.17	174.95	6.37	-28.7	-29.2	15.6	0.00e+00	0	28	0	1585446912	32	17707
2026-01-13 09:17:24.16	174.98	6.46	-28.7	-29.1	15.6	0.00e+00	0	28	0	1660944384	32	17543
2026-01-13 09:17:25.16	175.02	6.54	-28.7	-29.1	15.6	0.00e+00	0	28	0	1728053248	32	17535
2026-01-13 09:17:26.17	175.07	6.63	-28.6	-29.1	15.7	0.00e+00	0	28	0	1803550720	32	17485
2026-01-13 09:17:27.16	175.11	6.72	-28.6	-29.1	15.7	0.00e+00	0	28	0	1879048192	32	17419
2026-01-13 09:17:28.16	175.15	6.81	-28.4	-28.8	15.7	0.00e+00	0	28	0	1954545664	32	16971
2026-01-13 09:17:29.16	175.19	6.89	-28.5	-28.9	15.7	0.00e+00	0	28	0	2030043136	32	17147
2026-01-13 09:17:30.16	175.23	6.98	-28.4	-28.9	15.7	0.00e+00	0	28	0	2105540608	32	17046
2026-01-13 09:17:31.15	175.27	7.07	-28.6	-29.0	15.7	0.00e+00	0	28	0	2181038080	32	17375
2026-01-13 09:17:32.15	175.31	7.16	-28.2	-28.7	15.8	0.00e+00	0	28	0	2256535552	32	16715
2026-01-13 09:17:33.15	175.36	7.25	-28.1	-28.6	15.9	0.00e+00	0	29	0	2332033024	32	16518
2026-01-13 09:17:34.14	175.40	7.34	-28.3	-28.8	15.8	0.00e+00	0	29	0	2407530496	32	16855
2026-01-13 09:17:35.13	175.44	7.43	-28.1	-28.6	15.8	0.00e+00	0	29	0	2474639360	32	16531
2026-01-13 09:17:36.13	175.49	7.52	-28.1	-28.6	15.9	0.00e+00	0	29	0	2550136832	32	16465
2026-01-13 09:17:37.13	175.53	7.61	-28.0	-28.4	15.9	0.00e+00	0	29	0	2625634304	32	16231
2026-01-13 09:17:38.13	175.57	7.70	-28.0	-28.5	15.9	0.00e+00	0	28	0	2701131776	32	16345
2026-01-13 09:17:39.13	175.62	7.79	-28.1	-28.5	15.9	0.00e+00	0	28	0	2776629248	32	16409
2026-01-13 09:17:40.12	175.66	7.88	-27.9	-28.4	15.9	0.00e+00	0	29	0	2852126720	32	16172
2026-01-13 09:17:41.12	175.71	7.98	-28.0	-28.5	15.9	0.00e+00	0	29	0	2927624192	32	16240
2026-01-13 09:17:42.12	175.75	8.07	-27.8	-28.2	16.0	0.00e+00	0	28	0	3003121664	32	15827
2026-01-13 09:17:43.12	175.80	8.16	-27.9	-28.4	16.0	0.00e+00	0	28	0	3078619136	32	16082
2026-01-13 09:17:44.13	175.84	8.26	-27.8	-28.3	16.0	0.00e+00	0	29	0	3154116608	32	15966
2026-01-13 09:17:45.14	175.89	8.35	-27.8	-28.3	16.0	0.00e+00	0	29	0	3229614080	32	15885
2026-01-13 09:17:46.15	175.94	8.45	-27.9	-28.4	16.0	0.00e+00	0	29	0	3305111552	32	16062
2026-01-13 09:17:47.15	175.99	8.55	-27.7	-28.2	16.0	0.00e+00	0	29	0	3380609024	30	17667
2026-01-13 09:17:48.16	176.03	8.64	-27.9	-28.3	16.0	0.00e+00	0	29	0	3456106496	30	17942
2026-01-13 09:17:49.17	176.08	8.74	-27.7	-28.1	16.0	0.00e+00	0	29	0	3531603968	30	17578
2026-01-13 09:17:50.18	176.13	8.84	-27.7	-28.2	16.0	0.00e+00	0	29	0	3607101440	30	17621
2026-01-13 09:17:51.19	176.18	8.94	-27.6	-28.1	16.1	0.00e+00	0	29	0	3682598912	30	17504
2026-01-13 09:17:52.19	176.23	9.04	-27.6	-28.1	16.1	0.00e+00	0	29	0	3758096384	30	17401
2026-01-13 09:17:53.20	176.28	9.14	-27.4	-27.9	16.1	0.00e+00	0	29	0	3833593856	30	17056
2026-01-13 09:17:54.21	176.33	9.24	-27.4	-27.9	16.1	0.00e+00	0	29	0	3909091328	30	17130
2026-01-13 09:17:55.22	176.38	9.34	-27.5	-27.9	16.0	0.00e+00	0	29	0	3984588800	30	17128
2026-01-13 09:17:56.22	176.43	9.44	-27.4	-27.9	16.1	0.00e+00	0	29	0	4060086272	30	17029
2026-01-13 09:17:57.23	176.48	9.54	-27.4	-27.9	16.0	0.00e+00	0	29	0	4135583744	30	17021
2026-01-13 09:17:58.24	176.53	9.64	-27.4	-27.8	16.0	0.00e+00	0	29	0	4211081216	30	16985
2026-01-13 09:17:59.25	176.58	9.74	-27.4	-27.9	16.0	0.00e+00	0	29	0	4286578688	30	17092
2026-01-13 09:18:00.25	176.64	9.85	-27.3	-27.8	16.1	0.00e+00	0	29	0	4362076160	30	16816
2026-01-13 09:18:01.24	176.69	9.95	-27.2	-27.7	16.1	0.00e+00	0	29	0	4437573632	30	16764
2026-01-13 09:18:02.25	176.74	10.05	-27.1	-27.6	16.2	0.00e+00	0	29	0	4513071104	30	16533
2026-01-13 09:18:03.26	176.80	10.16	-27.2	-27.6	16.2	0.00e+00	0	29	0	4588568576	30	16588
2026-01-13 09:18:04.27	176.85	10.26	-27.2	-27.7	16.2	0.00e+00	0	29	0	4664066048	30	16640
2026-01-13 09:18:05.28	176.91	10.37	-27.1	-27.5	16.1	0.00e+00	0	29	0	4739563520	30	16369
2026-01-13 09:18:06.28	176.96	10.47	-27.1	-27.5	16.1	0.00e+00	0	29	0	4815060992	30	16405
2026-01-13 09:18:07.29	177.02	10.58	-26.9	-27.4	16.1	0.00e+00	0	29	0	4890558464	30	16151
2026-01-13 09:18:08.31	177.07	10.69	-27.0	-27.5	16.1	0.00e+00	0	29	0	4966055936	30	16311
2026-01-13 09:18:09.32	177.13	10.80	-26.9	-27.3	16.2	0.00e+00	0	29	0	5041553408	30	16045
2026-01-13 09:18:10.32	177.19	10.91	-26.9	-27.3	16.2	0.00e+00	0	29	0	5117050880	30	16050
2026-01-13 09:18:11.33	177.24	11.02	-26.8	-27.3	16.2	0.00e+00	0	29	0	5192548352	30	16010
2026-01-13 09:18:12.34	177.30	11.13	-26.8	-27.3	16.2	0.00e+00	0	29	0	5276434432	30	15893
2026-01-13 09:18:13.35	177.36	11.24	-26.9	-27.3	16.2	0.00e+00	0	29	0	5343543296	28	17971
2026-01-13 09:18:14.36	177.42	11.35	-26.7	-27.2	16.2	0.00e+00	0	29	0	5419040768	28	17712
2026-01-13 09:18:15.37	177.48	11.46	-26.7	-27.1	16.1	0.00e+00	0	29	0	5494538240	28	17583
2026-01-13 09:18:16.38	177.54	11.58	-26.8	-27.3	16.2	0.00e+00	0	29	0	5570035712	28	17831
2026-01-13 09:18:17.39	177.60	11.69	-26.5	-27.0	16.2	0.00e+00	0	29	0	5653921792	28	17256
2026-01-13 09:18:18.40	177.66	11.81	-26.6	-27.1	16.3	0.00e+00	0	29	0	5729419264	28	17493
2026-01-13 09:18:19.41	177.72	11.92	-26.5	-27.0	16.3	0.00e+00	0	29	0	5804916736	28	17282
2026-01-13 09:18:20.42	177.79	12.04	-26.4	-26.9	16.3	0.00e+00	0	29	0	5872025600	28	17138
2026-01-13 09:18:21.43	177.85	12.15	-26.4	-26.9	16.3	0.00e+00	0	29	0	5947523072	28	17027
2026-01-13 09:18:22.44	177.91	12.27	-26.4	-26.9	16.3	0.00e+00	0	29	0	6023020544	28	17013
2026-01-13 09:18:23.45	177.98	12.39	-26.3	-26.8	16.3	0.00e+00	0	29	0	6106906624	28	16854
2026-01-13 09:18:24.46	178.04	12.51	-26.4	-26.9	16.3	0.00e+00	0	29	0	6182404096	28	17089
2026-01-13 09:18:25.47	178.11	12.63	-26.3	-26.8	16.4	0.00e+00	0	29	0	6257901568	28	16854
2026-01-13 09:18:26.48	178.17	12.75	-26.3	-26.8	16.4	0.00e+00	0	29	0	6333399040	28	16843
2026-01-13 09:18:27.49	178.24	12.87	-26.3	-26.7	16.4	0.00e+00	0	29	0	6408896512	28	16799
2026-01-13 09:18:28.50	178.31	12.99	-26.2	-26.6	16.4	0.00e+00	0	29	0	6484393984	28	16549
2026-01-13 09:18:29.51	178.37	13.11	-26.2	-26.7	16.4	0.00e+00	0	29	0	6559891456	28	16721
2026-01-13 09:18:30.52	178.44	13.24	-26.1	-26.6	16.4	0.00e+00	0	29	0	6635388928	28	16496
2026-01-13 09:18:31.53	178.51	13.36	-26.0	-26.5	16.4	0.00e+00	0	29	0	6710886400	28	16250
2026-01-13 09:18:32.53	178.58	13.48	-26.2	-26.7	16.5	0.00e+00	0	29	0	6786383872	28	16625
2026-01-13 09:18:33.54	178.65	13.61	-25.9	-26.4	16.5	0.00e+00	0	29	0	6861881344	28	16145
2026-01-13 09:18:34.55	178.72	13.74	-26.0	-26.5	16.5	0.00e+00	0	29	0	6937378816	28	16249
2026-01-13 09:18:35.56	178.79	13.86	-25.8	-26.3	16.5	0.00e+00	0	29	0	7012876288	28	15941
2026-01-13 09:18:36.57	178.87	13.99	-25.9	-26.4	16.5	0.00e+00	0	29	0	7088373760	28	16159
2026-01-13 09:18:37.58	178.94	14.12	-25.8	-26.2	16.5	0.00e+00	0	29	0	7163871232	28	15838
2026-01-13 09:18:38.59	179.01	14.25	-25.8	-26.2	16.5	0.00e+00	0	29	0	7239368704	26	17777
2026-01-13 09:18:39.60	179.09	14.38	-25.8	-26.3	16.6	0.00e+00	0	29	0	7314866176	26	17844
2026-01-13 09:18:40.61	179.16	14.51	-25.8	-26.3	16.5	0.00e+00	0	29	0	7390363648	26	17889
2026-01-13 09:18:41.62	179.24	14.65	-25.6	-26.1	16.6	0.00e+00	0	29	0	7465861120	26	17551
2026-01-13 09:18:42.63	179.32	14.78	-25.7	-26.2	16.5	0.00e+00	0	29	0	7541358592	26	17623
2026-01-13 09:18:43.64	179.40	14.91	-25.7	-26.2	16.6	0.00e+00	0	29	0	7616856064	26	17696
2026-01-13 09:18:44.65	179.47	15.05	-25.5	-26.0	16.6	0.00e+00	0	29	0	7692353536	26	17274
2026-01-13 09:18:45.66	179.55	15.19	-25.5	-26.0	16.7	0.00e+00	0	29	0	7767851008	26	17233
2026-01-13 09:18:46.67	179.63	15.32	-25.6	-26.1	16.6	0.00e+00	0	29	0	7843348480	26	17428
2026-01-13 09:18:47.68	179.71	15.46	-25.6	-26.0	16.7	0.00e+00	0	29	0	7918845952	26	17387
2026-01-13 09:18:48.68	179.80	15.60	-25.6	-26.1	16.6	0.00e+00	0	29	0	7994343424	26	17476
2026-01-13 09:18:49.69	179.88	15.74	-25.3	-25.8	16.6	0.00e+00	0	29	0	8069840896	26	16942
2026-01-13 09:18:50.70	179.96	15.88	-25.4	-25.9	16.7	0.00e+00	0	29	0	8145338368	26	17094
2026-01-13 09:18:51.71	180.05	16.02	-25.3	-25.8	16.6	0.00e+00	0	29	0	8220835840	26	16876
2026-01-13 09:18:52.72	180.13	16.17	-25.4	-25.9	16.6	0.00e+00	0	29	0	8296333312	26	17088
2026-01-13 09:18:53.73	180.22	16.31	-25.3	-25.8	16.6	0.00e+00	0	29	0	8371830784	26	16827
2026-01-13 09:18:54.74	180.31	16.46	-25.1	-25.6	16.7	0.00e+00	0	29	0	8455716864	26	16530
2026-01-13 09:18:55.75	180.39	16.60	-25.2	-25.6	16.7	0.00e+00	0	29	0	8531214336	26	16616
2026-01-13 09:18:56.76	180.48	16.75	-25.1	-25.5	16.7	0.00e+00	0	29	0	8598323200	26	16394
2026-01-13 09:18:57.77	180.57	16.90	-25.0	-25.4	16.7	0.00e+00	0	29	0	8673820672	26	16186
2026-01-13 09:18:58.78	180.66	17.05	-25.0	-25.5	16.8	0.00e+00	0	29	0	8749318144	26	16269
2026-01-13 09:18:59.79	180.76	17.20	-24.9	-25.4	16.7	0.00e+00	0	29	0	8824815616	26	16122
2026-01-13 09:19:00.79	180.85	17.35	-24.8	-25.3	16.8	0.00e+00	0	29	0	8908701696	26	16012
2026-01-13 09:19:01.81	180.94	17.51	-24.9	-25.4	16.7	0.00e+00	0	29	0	8984199168	26	16179
2026-01-13 09:19:02.81	181.04	17.66	-24.9	-25.4	16.7	0.00e+00	0	29	0	9059696640	26	16058
2026-01-13 09:19:03.82	181.13	17.81	-24.7	-25.2	16.8	0.00e+00	0	29	0	9135194112	24	17725
2026-01-13 09:19:04.84	181.23	17.97	-24.9	-25.3	16.8	0.00e+00	0	29	0	9202302976	24	17992
2026-01-13 09:19:05.85	181.33	18.13	-24.8	-25.3	16.8	0.00e+00	0	29	0	9286189056	24	17862
2026-01-13 09:19:06.85	181.43	18.29	-24.7	-25.1	16.8	0.00e+00	0	29	0	9361686528	24	17568
2026-01-13 09:19:07.86	181.53	18.45	-24.5	-25.0	16.8	0.00e+00	0	29	0	9437184000	24	17326
2026-01-13 09:19:08.87	181.63	18.61	-24.5	-25.0	16.8	0.00e+00	0	29	0	9512681472	24	17228
2026-01-13 09:19:09.88	181.74	18.77	-24.5	-25.0	16.8	0.00e+00	0	29	0	9588178944	24	17350
2026-01-13 09:19:10.89	181.84	18.94	-24.4	-24.9	16.8	0.00e+00	0	29	0	9663676416	24	17068
2026-01-13 09:19:11.89	181.95	19.10	-24.5	-25.0	16.9	0.00e+00	0	29	0	9739173888	24	17268
2026-01-13 09:19:12.90	182.05	19.27	-24.5	-25.0	16.8	0.00e+00	0	29	0	9814671360	24	17287
2026-01-13 09:19:13.91	182.16	19.44	-24.3	-24.8	16.9	0.00e+00	0	29	0	9890168832	24	16855
2026-01-13 09:19:14.92	182.27	19.61	-24.4	-24.9	16.8	0.00e+00	0	29	0	9965666304	24	17049
2026-01-13 09:19:15.92	182.38	19.78	-24.2	-24.7	16.8	0.00e+00	0	29	0	10041163776	24	16745
2026-01-13 09:19:16.93	182.49	19.95	-24.2	-24.7	16.9	0.00e+00	0	29	0	10116661248	24	16620
2026-01-13 09:19:17.94	182.61	20.12	-24.1	-24.5	16.9	0.00e+00	0	29	0	10192158720	24	16419
2026-01-13 09:19:18.95	182.72	20.30	-24.1	-24.6	16.8	0.00e+00	0	29	0	10267656192	24	16515
2026-01-13 09:19:19.96	182.84	20.47	-24.0	-24.5	16.9	0.00e+00	0	29	0	10343153664	24	16363
2026-01-13 09:19:20.97	182.96	20.65	-24.2	-24.6	16.8	0.00e+00	0	29	0	10418651136	24	16582
2026-01-13 09:19:21.98	183.08	20.83	-24.1	-24.6	16.9	0.00e+00	0	29	0	10494148608	24	16571
2026-01-13 09:19:22.99	183.20	21.01	-23.9	-24.4	17.0	0.00e+00	0	29	0	10569646080	24	16067
2026-01-13 09:19:24.00	183.32	21.20	-23.9	-24.4	16.9	0.00e+00	0	29	0	10645143552	24	16108
2026-01-13 09:19:25.01	183.45	21.38	-23.9	-24.4	16.9	0.00e+00	0	29	0	10720641024	24	16120
2026-01-13 09:19:26.02	183.57	21.57	-23.8	-24.3	16.9	0.00e+00	0	29	0	10796138496	24	15941
2026-01-13 09:19:27.03	183.70	21.75	-23.8	-24.3	16.9	0.00e+00	0	29	0	10871635968	22	17847
2026-01-13 09:19:28.04	183.83	21.94	-23.7	-24.2	17.0	0.00e+00	0	29	0	10947133440	22	17648
2026-01-13 09:19:29.05	183.96	22.13	-23.6	-24.0	17.0	0.00e+00	0	30	0	11022630912	22	17372
2026-01-13 09:19:30.06	184.10	22.33	-23.6	-24.0	16.9	0.00e+00	0	29	0	11098128384	22	17344
2026-01-13 09:19:31.07	184.23	22.52	-23.5	-24.0	17.1	0.00e+00	0	30	0	11173625856	22	17325
2026-01-13 09:19:32.08	184.37	22.72	-23.5	-24.0	16.9	0.00e+00	0	30	0	11249123328	22	17247
2026-01-13 09:19:33.09	184.51	22.91	-23.6	-24.1	17.0	0.00e+00	0	30	0	11324620800	22	17482
2026-01-13 09:19:34.10	184.65	23.11	-23.7	-24.2	17.0	0.00e+00	0	30	0	11400118272	22	17639
2026-01-13 09:19:35.11	184.79	23.31	-23.3	-23.8	17.0	0.00e+00	0	30	0	11475615744	22	16876
2026-01-13 09:19:36.12	184.94	23.52	-23.3	-23.8	16.9	0.00e+00	0	30	0	11551113216	22	16852
2026-01-13 09:19:37.13	185.08	23.72	-23.3	-23.7	17.0	0.00e+00	0	30	0	11626610688	22	16796
2026-01-13 09:19:38.14	185.23	23.93	-23.3	-23.8	17.0	0.00e+00	0	29	0	11710496768	22	16852
2026-01-13 09:19:39.15	185.38	24.14	-23.2	-23.7	17.0	0.00e+00	0	29	0	11785994240	22	16642
2026-01-13 09:19:40.16	185.53	24.35	-23.1	-23.6	17.0	0.00e+00	0	30	0	11861491712	22	16534
2026-01-13 09:19:41.17	185.69	24.56	-23.0	-23.5	17.0	0.00e+00	0	30	0	11928600576	22	16388
2026-01-13 09:19:42.18	185.85	24.77	-23.2	-23.7	17.1	0.00e+00	0	30	0	12004098048	22	16688
2026-01-13 09:19:43.19	186.01	24.99	-22.9	-23.4	17.0	0.00e+00	0	30	0	12087984128	22	16113
2026-01-13 09:19:44.20	186.17	25.20	-23.0	-23.5	17.0	0.00e+00	0	30	0	12163481600	22	16262
2026-01-13 09:19:45.21	186.34	25.42	-22.7	-23.2	17.0	0.00e+00	0	30	0	12238979072	22	15815
2026-01-13 09:19:46.22	186.50	25.65	-22.8	-23.3	17.0	0.00e+00	0	30	0	12314476544	20	17925
2026-01-13 09:19:47.23	186.67	25.87	-22.8	-23.2	17.0	0.00e+00	0	30	0	12389974016	20	17778
2026-01-13 09:19:48.24	186.84	26.10	-22.7	-23.2	17.0	0.00e+00	0	30	0	12465471488	20	17781
2026-01-13 09:19:49.25	187.02	26.32	-22.7	-23.2	17.0	0.00e+00	0	30	0	12540968960	20	17663
2026-01-13 09:19:50.26	187.20	26.55	-22.7	-23.2	17.0	0.00e+00	0	30	0	12616466432	20	17630
2026-01-13 09:19:51.27	187.38	26.79	-22.5	-23.0	17.1	0.00e+00	0	30	0	12691963904	20	17350
2026-01-13 09:19:52.28	187.56	27.02	-22.6	-23.1	17.0	0.00e+00	0	30	0	12767461376	20	17499
2026-01-13 09:19:53.29	187.75	27.26	-22.6	-23.1	17.0	0.00e+00	0	30	0	12842958848	20	17547
2026-01-13 09:19:54.30	187.94	27.49	-22.6	-23.1	17.2	0.00e+00	0	30	0	12918456320	20	17535
2026-01-13 09:19:55.31	188.13	27.74	-22.5	-22.9	17.0	0.00e+00	0	30	0	12993953792	20	17182
2026-01-13 09:19:56.32	188.33	27.98	-22.4	-22.9	17.1	0.00e+00	0	30	0	13069451264	20	17037
2026-01-13 09:19:57.33	188.53	28.22	-22.3	-22.8	17.1	0.00e+00	0	30	0	13144948736	20	16878
2026-01-13 09:19:58.34	188.73	28.47	-22.4	-22.9	17.0	0.00e+00	0	30	0	13220446208	20	17106
2026-01-13 09:19:59.35	188.93	28.72	-22.4	-22.9	17.1	0.00e+00	0	30	0	13295943680	20	17081
2026-01-13 09:20:00.36	189.14	28.97	-22.0	-22.5	17.0	0.00e+00	0	30	0	13371441152	20	16377
2026-01-13 09:20:01.37	189.35	29.23	-21.9	-22.4	17.1	0.00e+00	0	30	0	13446938624	20	16095
2026-01-13 09:20:02.38	189.57	29.49	-22.0	-22.5	17.2	0.00e+00	0	30	0	13522436096	20	16281
2026-01-13 09:20:03.39	189.79	29.74	-21.8	-22.3	17.1	0.00e+00	0	30	0	13597933568	20	15940
2026-01-13 09:20:04.40	190.01	30.01	-21.9	-22.4	17.1	0.00e+00	0	30	0	13673431040	20	16143
2026-01-13 09:20:05.41	190.24	30.27	-21.8	-22.3	17.1	0.00e+00	0	30	0	13748928512	20	15945
2026-01-13 09:20:06.42	190.47	30.54	-21.8	-22.2	17.1	0.00e+00	0	30	0	13824425984	18	17779
2026-01-13 09:20:07.43	190.71	30.81	-21.9	-22.3	17.1	0.00e+00	0	30	0	13899923456	18	18001
2026-01-13 09:20:08.44	190.95	31.08	-21.6	-22.1	17.1	0.00e+00	0	30	0	13983809536	18	17562
2026-01-13 09:20:09.45	191.19	31.35	-21.7	-22.2	17.1	0.00e+00	0	30	0	14050918400	18	17639
2026-01-13 09:20:10.46	191.44	31.63	-21.7	-22.2	17.1	0.00e+00	0	30	0	14126415872	18	17614
2026-01-13 09:20:11.47	191.70	31.91	-21.4	-21.9	17.2	0.00e+00	0	30	0	14201913344	18	17119
2026-01-13 09:20:12.48	191.95	32.19	-21.5	-22.0	17.2	0.00e+00	0	30	0	14277410816	18	17230
2026-01-13 09:20:13.49	192.22	32.47	-21.4	-21.9	17.2	0.00e+00	0	30	0	14361296896	18	17086
2026-01-13 09:20:14.50	192.48	32.76	-21.3	-21.8	17.2	0.00e+00	0	30	0	14436794368	18	16838
2026-01-13 09:20:15.51	192.76	33.05	-21.3	-21.8	17.2	0.00e+00	0	30	0	14512291840	18	16922
2026-01-13 09:20:16.52	193.03	33.34	-21.2	-21.7	17.2	0.00e+00	0	30	0	14587789312	18	16659
2026-01-13 09:20:17.53	193.32	33.63	-21.1	-21.6	17.1	0.00e+00	0	30	0	14654898176	18	16486
2026-01-13 09:20:18.54	193.61	33.93	-21.1	-21.6	17.2	0.00e+00	0	30	0	14730395648	18	16551
2026-01-13 09:20:19.55	193.90	34.23	-21.2	-21.7	17.2	0.00e+00	0	30	0	14814281728	18	16766
2026-01-13 09:20:20.55	194.20	34.53	-21.0	-21.5	17.2	0.00e+00	0	30	0	14889779200	18	16319
2026-01-13 09:20:21.56	194.50	34.83	-21.0	-21.5	17.3	0.00e+00	0	30	0	14965276672	18	16301
2026-01-13 09:20:22.57	194.81	35.14	-21.0	-21.5	17.2	0.00e+00	0	30	0	15040774144	18	16329
2026-01-13 09:20:23.58	195.13	35.45	-20.9	-21.3	17.2	0.00e+00	0	30	0	15116271616	18	16015
2026-01-13 09:20:24.59	195.46	35.76	-20.8	-21.3	17.2	0.00e+00	0	30	0	15191769088	18	15965
2026-01-13 09:20:25.60	195.79	36.08	-20.7	-21.2	17.2	0.00e+00	0	30	0	15267266560	16	17635
2026-01-13 09:20:26.61	196.12	36.40	-20.7	-21.2	17.3	0.00e+00	0	30	0	15342764032	16	17668
2026-01-13 09:20:27.62	196.47	36.72	-20.7	-21.2	17.3	0.00e+00	0	30	0	15418261504	16	17635
2026-01-13 09:20:28.63	196.82	37.04	-20.6	-21.1	17.2	0.00e+00	0	30	0	15493758976	16	17427
2026-01-13 09:20:29.64	197.18	37.36	-20.6	-21.0	17.2	0.00e+00	0	30	0	15569256448	16	17397
2026-01-13 09:20:30.65	197.55	37.69	-20.4	-20.9	17.2	0.00e+00	0	30	0	15644753920	16	17008
2026-01-13 09:20:31.66	197.92	38.02	-20.4	-20.9	17.2	0.00e+00	0	30	0	15720251392	16	17031
2026-01-13 09:20:32.67	198.30	38.35	-20.3	-20.8	17.3	0.00e+00	0	30	0	15795748864	16	16953
2026-01-13 09:20:33.68	198.69	38.69	-20.4	-20.9	17.2	0.00e+00	0	30	0	15871246336	16	17164
2026-01-13 09:20:34.69	199.09	39.03	-20.4	-20.9	17.2	0.00e+00	0	30	0	15946743808	16	17099
2026-01-13 09:20:35.70	199.50	39.36	-20.1	-20.6	17.3	0.00e+00	0	30	0	16022241280	16	16512
2026-01-13 09:20:36.71	199.92	39.71	-20.1	-20.6	17.2	0.00e+00	0	30	0	16097738752	16	16428
2026-01-13 09:20:37.72	200.34	40.05	-20.0	-20.5	17.2	0.00e+00	0	30	0	16173236224	16	16365
2026-01-13 09:20:38.73	200.78	40.40	-20.0	-20.5	17.3	0.00e+00	0	30	0	16248733696	16	16311
2026-01-13 09:20:39.74	201.22	40.74	-20.0	-20.4	17.3	0.00e+00	0	30	0	16324231168	16	16228
2026-01-13 09:20:40.75	201.68	41.09	-20.0	-20.5	17.2	0.00e+00	0	30	0	16399728640	16	16298
2026-01-13 09:20:41.76	202.15	41.45	-19.9	-20.4	17.3	0.00e+00	0	30	0	16475226112	16	16084
2026-01-13 09:20:42.77	202.62	41.80	-19.7	-20.2	17.3	0.00e+00	0	30	0	16550723584	14	17690
2026-01-13 09:20:43.78	203.11	42.16	-19.8	-20.2	17.2	0.00e+00	0	30	0	16626221056	14	17790
2026-01-13 09:20:44.79	203.61	42.51	-19.6	-20.1	17.3	0.00e+00	0	30	0	16710107136	14	17565
2026-01-13 09:20:45.80	204.12	42.87	-19.6	-20.1	17.3	0.00e+00	0	30	0	16777216000	14	17436
2026-01-13 09:20:46.81	204.64	43.23	-19.6	-20.0	17.3	0.00e+00	0	30	0	16852713472	14	17392
2026-01-13 09:20:47.82	205.17	43.59	-19.5	-20.0	17.3	0.00e+00	0	30	0	16928210944	14	17335
2026-01-13 09:20:48.83	205.72	43.95	-19.5	-20.0	17.3	0.00e+00	0	30	0	17003708416	14	17244
2026-01-13 09:20:49.83	206.27	44.31	-19.5	-20.0	17.3	0.00e+00	0	30	0	17079205888	14	17301
2026-01-13 09:20:50.84	206.84	44.68	-19.5	-20.0	17.3	0.00e+00	0	30	0	17163091968	14	17223
2026-01-13 09:20:51.85	207.43	45.04	-19.5	-20.0	17.3	0.00e+00	0	30	0	17238589440	14	17276
2026-01-13 09:20:52.86	208.03	45.41	-19.3	-19.8	17.3	0.00e+00	0	30	0	17314086912	14	16817
2026-01-13 09:20:53.87	208.64	45.77	-19.2	-19.7	17.3	0.00e+00	0	30	0	17381195776	14	16769
2026-01-13 09:20:54.88	209.27	46.14	-19.4	-19.9	17.3	0.00e+00	0	30	0	17456693248	14	17074
2026-01-13 09:20:55.89	209.92	46.51	-19.1	-19.6	17.3	0.00e+00	0	30	0	17540579328	14	16519
2026-01-13 09:20:56.90	210.58	46.87	-19.4	-19.9	17.3	0.00e+00	0	30	0	17616076800	14	17015
2026-01-13 09:20:57.91	211.25	47.24	-19.1	-19.6	17.4	0.00e+00	0	30	0	17691574272	14	16489
2026-01-13 09:20:58.92	211.95	47.60	-19.0	-19.5	17.3	0.00e+00	0	30	0	17767071744	14	16352
2026-01-13 09:20:59.92	212.65	47.96	-19.0	-19.5	17.2	0.00e+00	0	30	0	17842569216	14	16348
2026-01-13 09:21:00.93	213.37	48.32	-19.0	-19.5	17.3	0.00e+00	0	30	0	17909678080	14	16319
2026-01-13 09:21:01.94	214.12	48.68	-19.0	-19.5	17.3	0.00e+00	0	30	0	17993564160	14	16270
2026-01-13 09:21:02.95	214.88	49.04	-18.9	-19.4	17.4	0.00e+00	0	30	0	18069061632	14	16118
2026-01-13 09:21:03.96	215.66	49.40	-18.9	-19.4	17.3	0.00e+00	0	30	0	18144559104	14	16203
2026-01-13 09:21:04.97	216.46	49.75	-18.8	-19.3	17.4	0.00e+00	0	30	0	18220056576	14	15922
2026-01-13 09:21:05.98	217.27	50.10	-18.7	-19.2	17.3	0.00e+00	0	30	0	18295554048	12	17722
2026-01-13 09:21:06.99	218.11	50.45	-18.7	-19.1	17.4	0.00e+00	0	30	0	18371051520	12	17601
2026-01-13 09:21:08.00	218.97	50.80	-18.7	-19.2	17.3	0.00e+00	0	30	0	18446548992	12	17672
2026-01-13 09:21:09.01	219.84	51.14	-18.7	-19.2	17.3	0.00e+00	0	30	0	18522046464	12	17655
2026-01-13 09:21:10.02	220.74	51.47	-18.8	-19.3	17.3	0.00e+00	0	30	0	18597543936	12	17921
2026-01-13 09:21:11.03	221.66	51.80	-18.5	-19.0	17.3	0.00e+00	0	30	0	18673041408	12	17242
2026-01-13 09:21:12.04	222.59	52.13	-18.6	-19.1	17.3	0.00e+00	0	30	0	18748538880	12	17482
2026-01-13 09:21:13.05	223.55	52.45	-18.5	-19.0	17.4	0.00e+00	0	30	0	18824036352	12	17316
2026-01-13 09:21:14.06	224.53	52.77	-18.8	-19.2	17.3	0.00e+00	0	30	0	18899533824	12	17757
2026-01-13 09:21:15.07	225.53	53.08	-18.6	-19.1	17.3	0.00e+00	0	30	0	18975031296	12	17461
2026-01-13 09:21:16.08	226.56	53.38	-18.3	-18.8	17.4	0.00e+00	0	30	0	19050528768	12	16924
2026-01-13 09:21:17.09	227.60	53.67	-18.4	-18.9	17.3	0.00e+00	0	30	0	19126026240	12	17158
2026-01-13 09:21:18.10	228.67	53.96	-18.4	-18.8	17.4	0.00e+00	0	30	0	19201523712	12	16972
2026-01-13 09:21:19.11	229.76	54.24	-18.5	-19.0	17.3	0.00e+00	0	30	0	19277021184	12	17244
2026-01-13 09:21:20.12	230.87	54.51	-18.5	-18.9	17.3	0.00e+00	0	30	0	19352518656	12	17196
2026-01-13 09:21:21.12	231.98	54.77	-18.3	-18.8	17.4	0.00e+00	0	30	0	19428016128	12	16942
2026-01-13 09:21:22.13	233.13	55.02	-18.2	-18.7	17.4	0.00e+00	0	30	0	19503513600	12	16775
2026-01-13 09:21:23.14	234.31	55.26	-18.4	-18.8	17.3	0.00e+00	0	30	0	19579011072	12	16997
2026-01-13 09:21:24.15	235.50	55.49	-18.3	-18.8	17.4	0.00e+00	0	30	0	19654508544	12	16908
2026-01-13 09:21:25.16	236.71	55.71	-18.2	-18.7	17.4	0.00e+00	0	30	0	19730006016	12	16631
2026-01-13 09:21:26.17	237.94	55.92	-18.3	-18.8	17.4	0.00e+00	0	30	0	19805503488	12	16890
2026-01-13 09:21:27.18	239.18	56.12	-18.3	-18.8	17.4	0.00e+00	0	30	0	19881000960	12	16882
2026-01-13 09:21:28.19	240.45	56.30	-18.3	-18.8	17.4	0.00e+00	0	30	0	19956498432	12	16812
2026-01-13 09:21:29.20	241.73	56.47	-18.2	-18.7	17.4	0.00e+00	0	30	0	20040384512	12	16708
2026-01-13 09:21:30.21	243.03	56.63	-18.1	-18.6	17.4	0.00e+00	0	30	0	20107493376	12	16570
2026-01-13 09:21:31.22	244.34	56.77	-18.2	-18.7	17.3	0.00e+00	0	30	0	20182990848	12	16639
2026-01-13 09:21:32.23	245.66	56.91	-18.1	-18.6	17.4	0.00e+00	0	30	0	20258488320	12	16461
2026-01-13 09:21:33.24	247.00	57.02	-18.0	-18.5	17.4	0.00e+00	0	30	0	20333985792	12	16358
2026-01-13 09:21:34.25	248.34	57.12	-18.0	-18.5	17.4	0.00e+00	0	30	0	20417871872	12	16399
2026-01-13 09:21:35.26	249.70	57.21	-18.1	-18.5	17.4	0.00e+00	0	30	0	20493369344	12	16425
2026-01-13 09:21:36.26	251.05	57.28	-18.0	-18.5	17.4	0.00e+00	0	30	0	20568866816	12	16340
2026-01-13 09:21:37.27	252.42	57.34	-18.2	-18.7	17.3	0.00e+00	0	30	0	20635975680	12	16668
2026-01-13 09:21:38.28	253.80	57.38	-18.1	-18.6	17.4	0.00e+00	0	30	0	20711473152	12	16568
2026-01-13 09:21:39.29	255.18	57.41	-18.1	-18.5	17.4	0.00e+00	0	30	0	20795359232	12	16422
2026-01-13 09:21:40.30	256.56	57.42	-18.0	-18.5	17.4	0.00e+00	0	30	0	20870856704	12	16282
2026-01-13 09:21:41.31	257.94	57.42	-18.0	-18.5	17.4	0.00e+00	0	30	0	20946354176	12	16403
2026-01-13 09:21:42.32	259.32	57.40	-18.1	-18.6	17.3	0.00e+00	0	30	0	21021851648	12	16481
2026-01-13 09:21:43.33	260.70	57.37	-18.0	-18.5	17.3	0.00e+00	0	30	0	21097349120	12	16275
2026-01-13 09:21:44.34	262.07	57.32	-18.1	-18.6	17.4	0.00e+00	0	30	0	21172846592	12	16488
2026-01-13 09:21:45.35	263.44	57.25	-18.1	-18.6	17.3	0.00e+00	0	30	0	21248344064	12	16455
2026-01-13 09:21:46.36	264.80	57.17	-18.1	-18.6	17.4	0.00e+00	0	30	0	21323841536	12	16495
2026-01-13 09:21:47.37	266.15	57.08	-18.2	-18.7	17.4	0.00e+00	0	30	0	21399339008	12	16620
2026-01-13 09:21:48.37	267.48	56.97	-18.0	-18.5	17.4	0.00e+00	0	30	0	21474836480	12	16393
2026-01-13 09:21:49.38	268.81	56.84	-18.1	-18.6	17.3	0.00e+00	0	30	0	21550333952	12	16544
2026-01-13 09:21:50.39	270.13	56.71	-18.1	-18.6	17.4	0.00e+00	0	30	0	21625831424	12	16526
2026-01-13 09:21:51.40	271.43	56.56	-18.1	-18.6	17.3	0.00e+00	0	30	0	21701328896	12	16546
2026-01-13 09:21:52.41	272.72	56.39	-18.1	-18.6	17.4	0.00e+00	0	30	0	21776826368	12	16495
2026-01-13 09:21:53.42	273.99	56.21	-18.1	-18.6	17.3	0.00e+00	0	30	0	21852323840	12	16572
2026-01-13 09:21:54.43	275.24	56.02	-18.1	-18.6	17.4	0.00e+00	0	30	0	21927821312	12	16571
2026-01-13 09:21:55.45	276.49	55.82	-18.1	-18.6	17.3	0.00e+00	0	30	0	22003318784	12	16555
2026-01-13 09:21:56.46	277.71	55.61	-18.2	-18.7	17.3	0.00e+00	0	30	0	22078816256	12	16661
2026-01-13 09:21:57.46	278.90	55.38	-18.3	-18.8	17.4	0.00e+00	0	30	0	22154313728	12	16819
2026-01-13 09:21:58.47	280.08	55.15	-18.3	-18.8	17.3	0.00e+00	0	30	0	22229811200	12	16831
2026-01-13 09:21:59.48	281.24	54.90	-18.2	-18.7	17.4	0.00e+00	0	30	0	22305308672	12	16799
2026-01-13 09:22:00.49	282.38	54.65	-18.4	-18.9	17.3	0.00e+00	0	30	0	22380806144	12	17076
2026-01-13 09:22:01.50	283.49	54.38	-18.3	-18.8	17.4	0.00e+00	0	30	0	22456303616	12	16933
2026-01-13 09:22:02.51	284.59	54.11	-18.4	-18.9	17.4	0.00e+00	0	30	0	22531801088	12	17021
2026-01-13 09:22:03.52	285.67	53.83	-18.3	-18.8	17.3	0.00e+00	0	30	0	22607298560	12	16911
2026-01-13 09:22:04.53	286.72	53.54	-18.5	-19.0	17.4	0.00e+00	0	30	0	22682796032	12	17230
2026-01-13 09:22:05.54	287.75	53.24	-18.5	-19.0	17.3	0.00e+00	0	30	0	22758293504	12	17213
2026-01-13 09:22:06.55	288.76	52.93	-18.6	-19.1	17.3	0.00e+00	0	30	0	22833790976	12	17478
2026-01-13 09:22:07.56	289.75	52.62	-18.5	-19.0	17.3	0.00e+00	0	30	0	22909288448	12	17286
2026-01-13 09:22:08.57	290.72	52.31	-18.7	-19.2	17.3	0.00e+00	0	30	0	22984785920	12	17741
2026-01-13 09:22:09.58	291.67	51.98	-18.5	-19.0	17.3	0.00e+00	0	30	0	23060283392	12	17318
2026-01-13 09:22:10.59	292.59	51.65	-18.6	-19.1	17.3	0.00e+00	0	30	0	23135780864	12	17557
2026-01-13 09:22:11.60	293.50	51.32	-18.7	-19.2	17.4	0.00e+00	0	30	0	23219666944	12	17723
2026-01-13 09:22:12.61	294.38	50.98	-18.6	-19.1	17.3	0.00e+00	0	30	0	23295164416	12	17554
2026-01-13 09:22:13.61	295.24	50.65	-18.7	-19.2	17.4	0.00e+00	0	30	0	23362273280	12	17734
2026-01-13 09:22:14.62	296.08	50.30	-18.8	-19.3	17.3	0.00e+00	0	30	0	23437770752	12	17888
2026-01-13 09:22:15.63	296.91	49.95	-18.7	-19.2	17.3	0.00e+00	0	30	0	23513268224	12	17766
2026-01-13 09:22:16.64	297.72	49.60	-18.9	-19.4	17.3	0.00e+00	0	30	0	23597154304	12	18062
2026-01-13 09:22:17.65	298.50	49.25	-18.9	-19.4	17.4	0.00e+00	0	30	0	23672651776	12	18160
2026-01-13 09:22:18.66	299.27	48.89	-19.0	-19.5	17.4	0.00e+00	0	30	0	23748149248	12	18278
2026-01-13 09:22:19.67	300.02	48.53	-18.9	-19.4	17.3	0.00e+00	0	30	0	23823646720	12	18111
2026-01-13 09:22:20.68	300.76	48.17	-19.0	-19.5	17.3	0.00e+00	0	30	0	23899144192	12	18390
2026-01-13 09:22:21.69	301.47	47.81	-19.0	-19.5	17.3	0.00e+00	0	30	0	23966253056	12	18381
2026-01-13 09:22:22.70	302.17	47.45	-19.1	-19.6	17.3	0.00e+00	0	30	0	24050139136	12	18516
2026-01-13 09:22:23.71	302.85	47.09	-19.1	-19.6	17.3	0.00e+00	0	30	0	24125636608	12	18537
2026-01-13 09:22:24.72	303.52	46.72	-19.2	-19.7	17.3	0.00e+00	0	30	0	24201134080	12	18832
2026-01-13 09:22:25.73	304.17	46.36	-19.3	-19.8	17.3	0.00e+00	0	30	0	24276631552	12	18955
2026-01-13 09:22:26.74	304.81	46.00	-19.2	-19.7	17.3	0.00e+00	0	30	0	24352129024	12	18817
2026-01-13 09:22:27.75	305.43	45.63	-19.3	-19.8	17.3	0.00e+00	0	30	0	24427626496	12	19015
2026-01-13 09:22:28.76	306.03	45.27	-19.3	-19.8	17.3	0.00e+00	0	30	0	24503123968	12	19005
2026-01-13 09:22:29.76	306.62	44.91	-19.5	-19.9	17.3	0.00e+00	0	30	0	24578621440	12	19286
2026-01-13 09:22:30.77	307.20	44.55	-19.5	-20.0	17.3	0.00e+00	0	30	0	24654118912	12	19328
2026-01-13 09:22:31.78	307.76	44.18	-19.5	-20.0	17.3	0.00e+00	0	30	0	24729616384	12	19391
2026-01-13 09:22:32.79	308.31	43.82	-19.6	-20.1	17.4	0.00e+00	0	30	0	24805113856	12	19673
2026-01-13 09:22:33.80	308.85	43.46	-19.7	-20.1	17.4	0.00e+00	0	30	0	24880611328	12	19739
2026-01-13 09:22:34.81	309.38	43.10	-19.8	-20.3	17.3	0.00e+00	0	30	0	24956108800	14	17833
2026-01-13 09:22:35.82	309.89	42.75	-19.7	-20.2	17.3	0.00e+00	0	30	0	25031606272	14	17671
2026-01-13 09:22:36.83	310.40	42.39	-19.7	-20.2	17.3	0.00e+00	0	30	0	25107103744	14	17731
2026-01-13 09:22:37.84	310.89	42.03	-19.9	-20.4	17.3	0.00e+00	0	30	0	25182601216	14	18187
2026-01-13 09:22:38.85	311.37	41.68	-20.0	-20.5	17.3	0.00e+00	0	30	0	25258098688	14	18255
2026-01-13 09:22:39.86	311.84	41.33	-19.9	-20.4	17.3	0.00e+00	0	30	0	25333596160	14	18107
2026-01-13 09:22:40.87	312.30	40.98	-20.2	-20.7	17.3	0.00e+00	0	30	0	25409093632	14	18727
2026-01-13 09:22:41.88	312.75	40.63	-20.0	-20.5	17.3	0.00e+00	0	30	0	25484591104	14	18274
2026-01-13 09:22:42.89	313.19	40.29	-20.1	-20.6	17.3	0.00e+00	0	30	0	25560088576	14	18571
2026-01-13 09:22:43.90	313.62	39.95	-20.2	-20.7	17.3	0.00e+00	0	30	0	25635586048	14	18730
2026-01-13 09:22:44.91	314.04	39.60	-20.2	-20.7	17.3	0.00e+00	0	30	0	25711083520	14	18694
2026-01-13 09:22:45.92	314.45	39.27	-20.3	-20.8	17.3	0.00e+00	0	30	0	25786580992	14	19047
2026-01-13 09:22:46.93	314.85	38.93	-20.3	-20.8	17.2	0.00e+00	0	30	0	25862078464	14	18926
2026-01-13 09:22:47.93	315.24	38.60	-20.4	-20.9	17.3	0.00e+00	0	30	0	25937575936	14	19133
2026-01-13 09:22:48.95	315.63	38.26	-20.3	-20.8	17.3	0.00e+00	0	30	0	26021462016	14	19036
2026-01-13 09:22:49.96	316.01	37.93	-20.4	-20.9	17.2	0.00e+00	0	30	0	26088570880	14	19279
2026-01-13 09:22:50.96	316.38	37.61	-20.6	-21.1	17.3	0.00e+00	0	30	0	26164068352	14	19553
2026-01-13 09:22:51.97	316.74	37.28	-20.6	-21.1	17.2	0.00e+00	0	30	0	26239565824	14	19574
2026-01-13 09:22:52.98	317.09	36.96	-20.6	-21.1	17.2	0.00e+00	0	30	0	26315063296	14	19529
2026-01-13 09:22:53.99	317.44	36.64	-20.7	-21.2	17.3	0.00e+00	0	30	0	26398949376	14	19844
2026-01-13 09:22:55.00	317.78	36.32	-20.7	-21.2	17.3	0.00e+00	0	30	0	26474446848	16	17682
2026-01-13 09:22:56.01	318.12	36.01	-20.8	-21.3	17.3	0.00e+00	0	30	0	26549944320	16	17922
2026-01-13 09:22:57.02	318.44	35.70	-20.8	-21.3	17.3	0.00e+00	0	30	0	26617053184	16	17863
2026-01-13 09:22:58.03	318.77	35.39	-20.9	-21.4	17.3	0.00e+00	0	30	0	26692550656	16	18133
2026-01-13 09:22:59.04	319.08	35.08	-20.9	-21.4	17.3	0.00e+00	0	30	0	26776436736	16	18118
2026-01-13 09:23:00.05	319.39	34.78	-21.0	-21.4	17.3	0.00e+00	0	30	0	26851934208	16	18199
2026-01-13 09:23:01.06	319.69	34.47	-21.0	-21.5	17.2	0.00e+00	0	30	0	26927431680	16	18338
2026-01-13 09:23:02.07	319.99	34.18	-21.1	-21.6	17.3	0.00e+00	0	30	0	27002929152	16	18437
2026-01-13 09:23:03.08	320.28	33.88	-21.2	-21.7	17.2	0.00e+00	0	30	0	27078426624	16	18722
2026-01-13 09:23:04.09	320.56	33.58	-21.2	-21.7	17.2	0.00e+00	0	30	0	27153924096	16	18809
2026-01-13 09:23:05.10	320.84	33.29	-21.5	-22.0	17.2	0.00e+00	0	30	0	27229421568	16	19352
2026-01-13 09:23:06.11	321.12	33.00	-21.3	-21.8	17.2	0.00e+00	0	30	0	27304919040	16	18877
2026-01-13 09:23:07.12	321.39	32.72	-21.5	-22.0	17.1	0.00e+00	0	30	0	27380416512	16	19441
2026-01-13 09:23:08.13	321.65	32.43	-21.5	-22.0	17.2	0.00e+00	0	30	0	27455913984	16	19365
2026-01-13 09:23:09.14	321.91	32.15	-21.4	-21.9	17.2	0.00e+00	0	30	0	27531411456	16	19266
2026-01-13 09:23:10.15	322.17	31.87	-21.5	-22.0	17.2	0.00e+00	0	30	0	27606908928	16	19361
2026-01-13 09:23:11.16	322.42	31.60	-21.6	-22.1	17.2	0.00e+00	0	30	0	27682406400	16	19689
2026-01-13 09:23:12.16	322.66	31.32	-21.5	-22.0	17.2	0.00e+00	0	30	0	27757903872	16	19494
2026-01-13 09:23:13.17	322.91	31.05	-21.6	-22.1	17.2	0.00e+00	0	30	0	27833401344	16	19721
2026-01-13 09:23:14.18	323.14	30.78	-21.7	-22.1	17.2	0.00e+00	0	30	0	27908898816	16	19740
2026-01-13 09:23:15.19	323.38	30.52	-21.8	-22.2	17.2	0.00e+00	0	30	0	27984396288	18	17804
2026-01-13 09:23:16.20	323.61	30.25	-21.9	-22.4	17.2	0.00e+00	0	30	0	28059893760	18	18039
2026-01-13 09:23:17.21	323.83	29.99	-22.0	-22.5	17.1	0.00e+00	0	30	0	28135391232	18	18271
2026-01-13 09:23:18.22	324.05	29.73	-22.0	-22.5	17.1	0.00e+00	0	30	0	28210888704	18	18307
2026-01-13 09:23:19.23	324.27	29.48	-22.0	-22.5	17.1	0.00e+00	0	30	0	28286386176	18	18318
2026-01-13 09:23:20.24	324.49	29.22	-22.2	-22.7	17.1	0.00e+00	0	30	0	28361883648	18	18656
2026-01-13 09:23:21.25	324.70	28.97	-22.2	-22.7	17.2	0.00e+00	0	30	0	28437381120	18	18711
2026-01-13 09:23:22.26	324.90	28.72	-22.2	-22.7	17.2	0.00e+00	0	30	0	28512878592	18	18769
2026-01-13 09:23:23.27	325.11	28.47	-22.2	-22.6	17.2	0.00e+00	0	30	0	28588376064	18	18636
2026-01-13 09:23:24.28	325.31	28.23	-22.3	-22.8	17.1	0.00e+00	0	30	0	28663873536	18	18883
2026-01-13 09:23:25.29	325.51	27.98	-22.3	-22.8	17.1	0.00e+00	0	30	0	28739371008	18	18986
2026-01-13 09:23:26.30	325.70	27.74	-22.4	-22.9	17.1	0.00e+00	0	30	0	28814868480	18	19125
2026-01-13 09:23:27.30	325.89	27.51	-22.4	-22.9	17.1	0.00e+00	0	30	0	28890365952	18	19179
2026-01-13 09:23:28.32	326.08	27.27	-22.5	-23.0	17.1	0.00e+00	0	30	0	28965863424	18	19420
2026-01-13 09:23:29.33	326.26	27.03	-22.6	-23.1	17.1	0.00e+00	0	30	0	29041360896	18	19561
2026-01-13 09:23:30.33	326.44	26.80	-22.6	-23.1	17.1	0.00e+00	0	30	0	29116858368	18	19729
2026-01-13 09:23:31.34	326.62	26.57	-22.6	-23.1	17.0	0.00e+00	0	30	0	29200744448	18	19707
2026-01-13 09:23:32.35	326.80	26.34	-22.8	-23.3	17.1	0.00e+00	0	30	0	29276241920	20	17846
2026-01-13 09:23:33.36	326.97	26.12	-22.9	-23.4	17.1	0.00e+00	0	30	0	29343350784	20	18037
2026-01-13 09:23:34.37	327.15	25.90	-22.8	-23.3	17.1	0.00e+00	0	30	0	29418848256	20	17917
2026-01-13 09:23:35.38	327.31	25.67	-23.0	-23.5	17.1	0.00e+00	0	30	0	29494345728	20	18281
2026-01-13 09:23:36.39	327.48	25.45	-22.9	-23.4	17.1	0.00e+00	0	30	0	29569843200	20	18138
2026-01-13 09:23:37.39	327.64	25.24	-22.9	-23.4	17.0	0.00e+00	0	30	0	29653729280	20	18105
2026-01-13 09:23:38.40	327.80	25.02	-23.1	-23.6	17.0	0.00e+00	0	30	0	29729226752	20	18453
2026-01-13 09:23:39.41	327.96	24.81	-23.0	-23.5	17.0	0.00e+00	0	30	0	29804724224	20	18332
2026-01-13 09:23:40.42	328.12	24.60	-23.1	-23.6	17.1	0.00e+00	0	30	0	29880221696	20	18571
2026-01-13 09:23:41.43	328.27	24.39	-23.1	-23.6	17.0	0.00e+00	0	30	0	29947330560	20	18574
2026-01-13 09:23:42.44	328.43	24.18	-23.2	-23.7	17.1	0.00e+00	0	30	0	30031216640	20	18668
2026-01-13 09:23:43.45	328.58	23.97	-23.3	-23.8	17.0	0.00e+00	0	30	0	30106714112	20	18871
2026-01-13 09:23:44.46	328.73	23.77	-23.3	-23.8	17.0	0.00e+00	0	30	0	30182211584	20	18889
2026-01-13 09:23:45.47	328.87	23.56	-23.3	-23.8	17.1	0.00e+00	0	30	0	30257709056	20	19048
2026-01-13 09:23:46.48	329.01	23.36	-23.4	-23.9	17.0	0.00e+00	0	30	0	30333206528	20	19096
2026-01-13 09:23:47.49	329.16	23.16	-23.5	-24.0	17.0	0.00e+00	0	30	0	30408704000	20	19456
2026-01-13 09:23:48.50	329.30	22.97	-23.6	-24.1	17.0	0.00e+00	0	30	0	30484201472	20	19597
2026-01-13 09:23:49.51	329.43	22.77	-23.7	-24.2	17.0	0.00e+00	0	30	0	30559698944	20	19781
2026-01-13 09:23:50.52	329.57	22.58	-23.6	-24.1	17.0	0.00e+00	0	30	0	30635196416	20	19676
2026-01-13 09:23:51.53	329.71	22.38	-23.8	-24.3	17.0	0.00e+00	0	30	0	30710693888	20	20097
2026-01-13 09:23:52.53	329.84	22.19	-23.7	-24.2	16.9	0.00e+00	0	30	0	30786191360	22	17659
2026-01-13 09:23:53.54	329.97	22.00	-23.8	-24.3	17.0	0.00e+00	0	30	0	30861688832	22	17862
2026-01-13 09:23:54.55	330.10	21.82	-23.9	-24.4	17.1	0.00e+00	0	30	0	30937186304	22	18051
2026-01-13 09:23:55.56	330.22	21.63	-24.0	-24.5	16.9	0.00e+00	0	30	0	31012683776	22	18245
2026-01-13 09:23:56.57	330.35	21.45	-24.0	-24.5	17.0	0.00e+00	0	30	0	31088181248	22	18338
2026-01-13 09:23:57.58	330.47	21.26	-24.0	-24.5	16.9	0.00e+00	0	30	0	31163678720	22	18283
2026-01-13 09:23:58.59	330.60	21.08	-24.1	-24.6	16.9	0.00e+00	0	30	0	31239176192	22	18582
2026-01-13 09:23:59.60	330.72	20.90	-24.1	-24.6	16.9	0.00e+00	0	30	0	31314673664	22	18467
2026-01-13 09:24:00.61	330.84	20.72	-24.2	-24.7	16.9	0.00e+00	0	30	0	31390171136	22	18703
2026-01-13 09:24:01.62	330.95	20.55	-24.2	-24.7	16.9	0.00e+00	0	30	0	31465668608	22	18814
2026-01-13 09:24:02.63	331.07	20.37	-24.2	-24.7	16.9	0.00e+00	0	30	0	31541166080	22	18786
2026-01-13 09:24:03.64	331.19	20.20	-24.4	-24.9	16.9	0.00e+00	0	30	0	31616663552	22	19090
2026-01-13 09:24:04.65	331.30	20.03	-24.3	-24.8	16.9	0.00e+00	0	30	0	31692161024	22	19018
2026-01-13 09:24:05.66	331.41	19.85	-24.5	-24.9	16.9	0.00e+00	0	30	0	31767658496	22	19291
2026-01-13 09:24:06.67	331.52	19.68	-24.5	-24.9	16.9	0.00e+00	0	30	0	31843155968	22	19283
2026-01-13 09:24:07.68	331.63	19.52	-24.5	-25.0	16.8	0.00e+00	0	30	0	31918653440	22	19460
2026-01-13 09:24:08.69	331.74	19.35	-24.6	-25.1	16.9	0.00e+00	0	30	0	31994150912	22	19549
2026-01-13 09:24:09.70	331.85	19.18	-24.6	-25.1	16.8	0.00e+00	0	30	0	32069648384	22	19555
2026-01-13 09:24:10.71	331.95	19.02	-24.5	-25.0	16.9	0.00e+00	0	30	0	32145145856	22	19492
2026-01-13 09:24:11.72	332.06	18.86	-24.7	-25.2	16.8	0.00e+00	0	30	0	32220643328	22	19862
2026-01-13 09:24:12.73	332.16	18.69	-24.7	-25.2	16.9	0.00e+00	0	30	0	32296140800	22	19752
2026-01-13 09:24:13.74	332.26	18.53	-24.7	-25.2	16.8	0.00e+00	0	30	0	32371638272	22	19761
2026-01-13 09:24:14.74	332.36	18.38	-24.8	-25.2	16.6	0.00e+00	0	30	0	32455524352	24	17778
2026-01-13 09:24:15.76	332.46	18.22	-24.8	-25.2	16.2	0.00e+00	0	30	0	32531021824	24	17774
2026-01-13 09:24:16.76	332.56	18.06	-24.8	-25.3	16.1	0.00e+00	0	30	0	32598130688	24	17883
2026-01-13 09:24:17.77	332.66	17.90	-24.9	-25.4	16.5	0.00e+00	0	30	0	32673628160	24	18124
2026-01-13 09:24:18.78	332.75	17.75	-24.9	-25.4	16.6	0.00e+00	0	30	0	32749125632	24	18099
2026-01-13 09:24:19.79	332.85	17.60	-25.0	-25.5	16.7	0.00e+00	0	30	0	32833011712	24	18275
2026-01-13 09:24:20.80	332.94	17.44	-25.1	-25.6	16.7	0.00e+00	0	30	0	32908509184	24	18485
2026-01-13 09:24:21.81	333.03	17.29	-25.0	-25.5	16.7	0.00e+00	0	30	0	32984006656	24	18360
2026-01-13 09:24:22.82	333.13	17.14	-25.1	-25.6	16.8	0.00e+00	0	30	0	33059504128	24	18459
2026-01-13 09:24:23.83	333.22	17.00	-25.2	-25.7	16.7	0.00e+00	0	30	0	33135001600	24	18689
2026-01-13 09:24:24.83	333.31	16.85	-25.2	-25.7	16.8	0.00e+00	0	30	0	33202110464	24	18646
2026-01-13 09:24:25.84	333.40	16.70	-25.2	-25.7	16.7	0.00e+00	0	30	0	33285996544	24	18816
2026-01-13 09:24:26.85	333.48	16.56	-25.4	-25.9	16.7	0.00e+00	0	30	0	33361494016	24	19185
2026-01-13 09:24:27.86	333.57	16.41	-25.3	-25.8	16.8	0.00e+00	0	30	0	33436991488	24	19052
2026-01-13 09:24:28.87	333.66	16.27	-25.5	-26.0	16.6	0.00e+00	0	30	0	33512488960	24	19454
2026-01-13 09:24:29.88	333.74	16.13	-25.4	-25.9	16.7	0.00e+00	0	30	0	33587986432	24	19200
2026-01-13 09:24:30.89	333.83	15.99	-25.5	-26.0	16.7	0.00e+00	0	30	0	33663483904	24	19311
2026-01-13 09:24:31.90	333.91	15.84	-25.5	-26.0	16.7	0.00e+00	0	30	0	33738981376	24	19337
2026-01-13 09:24:32.91	333.99	15.71	-25.6	-26.1	16.6	0.00e+00	0	30	0	33814478848	24	19668
2026-01-13 09:24:33.92	334.08	15.57	-25.6	-26.1	16.7	0.00e+00	0	30	0	33889976320	24	19575
2026-01-13 09:24:34.93	334.16	15.43	-25.7	-26.1	16.7	0.00e+00	0	30	0	33965473792	24	19740
2026-01-13 09:24:35.94	334.24	15.29	-25.6	-26.1	16.6	0.00e+00	0	30	0	34040971264	24	19666
2026-01-13 09:24:36.95	334.32	15.16	-25.7	-26.2	16.6	0.00e+00	0	30	0	34116468736	26	17732
2026-01-13 09:24:37.96	334.39	15.02	-25.8	-26.2	16.6	0.00e+00	0	30	0	34191966208	26	17777
2026-01-13 09:24:38.97	334.47	14.89	-25.8	-26.3	16.6	0.00e+00	0	30	0	34267463680	26	17824
2026-01-13 09:24:39.98	334.55	14.76	-25.8	-26.3	16.7	0.00e+00	0	30	0	34342961152	26	17919
2026-01-13 09:24:40.99	334.63	14.62	-25.9	-26.4	16.6	0.00e+00	0	30	0	34418458624	26	18139
2026-01-13 09:24:42.00	334.70	14.49	-26.0	-26.5	16.6	0.00e+00	0	30	0	34493956096	26	18231
2026-01-13 09:24:43.01	334.78	14.36	-26.0	-26.5	16.6	0.00e+00	0	30	0	34569453568	26	18328
2026-01-13 09:24:44.02	334.85	14.23	-26.0	-26.4	16.6	0.00e+00	0	30	0	34644951040	26	18199
2026-01-13 09:24:45.02	334.92	14.11	-26.1	-26.6	16.6	0.00e+00	0	30	0	34720448512	26	18487
2026-01-13 09:24:46.03	334.99	13.98	-26.1	-26.6	16.5	0.00e+00	0	30	0	34795945984	26	18551
2026-01-13 09:24:47.04	335.07	13.85	-26.2	-26.7	16.5	0.00e+00	0	30	0	34871443456	26	18723
2026-01-13 09:24:48.05	335.14	13.73	-26.2	-26.7	16.5	0.00e+00	0	30	0	34946940928	26	18787
2026-01-13 09:24:49.06	335.21	13.60	-26.5	-27.0	16.5	0.00e+00	0	30	0	35022438400	26	19364
2026-01-13 09:24:50.07	335.28	13.48	-26.3	-26.8	16.5	0.00e+00	0	30	0	35097935872	26	18887
2026-01-13 09:24:51.08	335.35	13.35	-26.3	-26.8	16.5	0.00e+00	0	30	0	35173433344	26	19032
2026-01-13 09:24:52.09	335.42	13.23	-26.4	-26.9	16.5	0.00e+00	0	30	0	35248930816	26	19101
2026-01-13 09:24:53.10	335.48	13.11	-26.5	-27.0	16.4	0.00e+00	0	30	0	35324428288	26	19398
2026-01-13 09:24:54.11	335.55	12.99	-26.5	-27.0	16.4	0.00e+00	0	30	0	35399925760	26	19307
2026-01-13 09:24:55.12	335.62	12.87	-26.4	-26.9	16.4	0.00e+00	0	30	0	35475423232	26	19225
2026-01-13 09:24:56.13	335.68	12.75	-26.5	-27.0	16.5	0.00e+00	0	30	0	35550920704	26	19374
2026-01-13 09:24:57.14	335.75	12.63	-26.6	-27.1	16.4	0.00e+00	0	30	0	35626418176	26	19635
2026-01-13 09:24:58.15	335.81	12.51	-26.6	-27.1	16.4	0.00e+00	0	30	0	35710304256	26	19685
2026-01-13 09:24:59.16	335.88	12.40	-26.7	-27.2	16.4	0.00e+00	0	30	0	35785801728	28	17701
2026-01-13 09:25:00.16	335.94	12.28	-26.8	-27.3	16.3	0.00e+00	0	30	0	35861299200	28	17816
2026-01-13 09:25:01.17	336.01	12.16	-26.7	-27.1	16.3	0.00e+00	0	30	0	35928408064	28	17602
2026-01-13 09:25:02.18	336.07	12.05	-26.8	-27.3	16.3	0.00e+00	0	30	0	36003905536	28	17961
2026-01-13 09:25:03.19	336.13	11.93	-27.0	-27.5	16.3	0.00e+00	0	30	0	36087791616	28	18260
2026-01-13 09:25:04.20	336.19	11.82	-27.0	-27.4	16.2	0.00e+00	0	30	0	36163289088	28	18220
2026-01-13 09:25:05.21	336.25	11.71	-26.9	-27.4	16.3	0.00e+00	0	30	0	36238786560	28	18103
2026-01-13 09:25:06.22	336.31	11.59	-26.9	-27.4	16.2	0.00e+00	0	30	0	36314284032	28	18127
2026-01-13 09:25:07.23	336.37	11.48	-27.1	-27.6	16.2	0.00e+00	0	30	0	36389781504	28	18467
2026-01-13 09:25:08.24	336.43	11.37	-27.1	-27.6	16.1	0.00e+00	0	30	0	36456890368	28	18581
2026-01-13 09:25:09.25	336.49	11.26	-27.2	-27.6	16.2	0.00e+00	0	30	0	36540776448	28	18624
2026-01-13 09:25:10.26	336.55	11.15	-27.1	-27.5	16.2	0.00e+00	0	30	0	36616273920	28	18400
2026-01-13 09:25:11.26	336.61	11.04	-27.1	-27.6	16.2	0.00e+00	0	30	0	36691771392	28	18488
2026-01-13 09:25:12.28	336.67	10.93	-27.2	-27.7	16.3	0.00e+00	0	30	0	36767268864	28	18744
2026-01-13 09:25:13.28	336.72	10.83	-27.0	-27.5	16.2	0.00e+00	0	30	0	36842766336	28	18371
2026-01-13 09:25:14.29	336.78	10.72	-27.3	-27.8	16.1	0.00e+00	0	30	0	36918263808	28	18992
2026-01-13 09:25:15.30	336.83	10.61	-27.2	-27.6	16.1	0.00e+00	0	30	0	36993761280	28	18608
2026-01-13 09:25:16.31	336.89	10.51	-27.3	-27.8	16.1	0.00e+00	0	30	0	37069258752	28	19026
2026-01-13 09:25:17.32	336.95	10.40	-27.4	-27.9	16.1	0.00e+00	0	30	0	37144756224	28	19239
2026-01-13 09:25:18.33	337.00	10.29	-27.3	-27.8	16.1	0.00e+00	0	30	0	37220253696	28	19007
2026-01-13 09:25:19.34	337.05	10.19	-27.4	-27.9	16.2	0.00e+00	0	30	0	37295751168	28	19158
2026-01-13 09:25:20.35	337.11	10.09	-27.3	-27.8	16.1	0.00e+00	0	30	0	37371248640	28	19022
2026-01-13 09:25:21.36	337.16	9.98	-27.4	-27.9	16.1	0.00e+00	0	30	0	37446746112	28	19215
2026-01-13 09:25:22.37	337.21	9.88	-27.5	-28.0	16.1	0.00e+00	0	30	0	37522243584	28	19466
2026-01-13 09:25:23.37	337.27	9.78	-27.6	-28.1	16.1	0.00e+00	0	30	0	37597741056	28	19532
2026-01-13 09:25:24.38	337.32	9.68	-27.5	-28.0	16.0	0.00e+00	0	30	0	37673238528	28	19376
2026-01-13 09:25:25.39	337.37	9.58	-27.6	-28.1	16.0	0.00e+00	0	30	0	37748736000	28	19705
2026-01-13 09:25:26.40	337.42	9.48	-27.9	-28.3	16.0	0.00e+00	0	30	0	37824233472	30	18007
2026-01-13 09:25:27.41	337.47	9.37	-27.9	-28.3	16.0	0.00e+00	0	30	0	37899730944	30	17986
2026-01-13 09:25:28.42	337.52	9.28	-48.0	-50.4	3.6	0.00e+00	0	30	104	37916508160	60	40759
2026-01-13 09:25:29.43	337.57	9.18	-48.0	-50.5	3.6	0.00e+00	0	30	104	37916508160	60	41039
2026-01-13 09:25:30.44	337.62	9.08	-48.0	-50.4	3.6	0.00e+00	0	30	104	37916508160	60	40788
2026-01-13 09:25:31.45	337.67	8.98	-48.0	-50.5	3.6	0.00e+00	0	30	104	37916508160	60	40904
2026-01-13 09:25:32.46	337.72	8.88	-48.0	-50.4	3.6	0.00e+00	0	30	104	37916508160	60	40543
2026-01-13 09:25:33.47	337.77	8.78	-47.9	-50.4	3.6	0.00e+00	0	30	104	37916508160	60	40578
2026-01-13 09:25:34.48	337.82	8.69	-47.9	-50.4	3.6	0.00e+00	0	30	104	37916508160	60	40699
2026-01-13 09:25:35.49	337.87	8.59	-48.0	-50.5	3.6	0.00e+00	0	30	104	37916508160	60	41034
2026-01-13 09:25:36.50	337.91	8.50	-47.9	-50.4	3.6	0.00e+00	0	30	104	37916508160	60	40513
2026-01-13 09:25:37.51	337.96	8.40	-48.0	-50.5	3.6	0.00e+00	0	30	104	37916508160	60	40905
2026-01-13 09:25:38.52	338.01	8.31	-47.9	-50.3	3.6	0.00e+00	0	30	104	37916508160	60	40299
2026-01-13 09:25:39.53	338.06	8.21	-48.0	-50.5	3.6	0.00e+00	0	30	104	37916508160	60	40902
2026-01-13 09:25:40.53	338.10	8.12	-47.9	-50.3	3.6	0.00e+00	0	30	104	37916508160	60	40187
2026-01-13 09:25:41.54	338.15	8.03	-47.9	-50.4	3.6	0.00e+00	0	30	104	37916508160	60	40757
2026-01-13 09:25:42.55	338.19	7.93	-47.9	-50.4	3.6	0.00e+00	0	30	104	37916508160	60	40456
2026-01-13 09:25:43.56	338.24	7.84	-47.8	-50.4	3.6	0.00e+00	0	30	104	37916508160	60	40461
2026-01-13 09:25:44.57	338.28	7.75	-47.8	-50.4	3.6	0.00e+00	0	29	104	37916508160	60	40334
2026-01-13 09:25:45.58	338.33	7.66	-47.9	-50.4	3.6	0.00e+00	0	30	104	37916508160	60	40492
2026-01-13 09:25:46.59	338.37	7.57	-47.8	-50.3	3.6	0.00e+00	0	30	104	37916508160	60	39944
2026-01-13 09:25:47.60	338.42	7.48	-47.9	-50.3	3.6	0.00e+00	0	30	104	37916508160	60	40322
2026-01-13 09:25:48.61	338.46	7.38	-47.8	-50.3	3.6	0.00e+00	0	30	104	37916508160	60	40051
2026-01-13 09:25:49.62	338.50	7.30	-47.8	-50.3	3.6	0.00e+00	0	30	104	37916508160	60	40160
2026-01-13 09:25:50.63	338.55	7.21	-47.7	-50.3	3.6	0.00e+00	0	30	104	37916508160	60	39866
2026-01-13 09:25:51.64	338.59	7.12	-47.8	-50.3	3.6	0.00e+00	0	30	104	37916508160	60	40084
2026-01-13 09:25:52.65	338.63	7.03	-47.7	-50.3	3.6	0.00e+00	0	30	104	37916508160	60	39960
2026-01-13 09:25:53.65	338.67	6.94	-47.8	-50.3	3.6	0.00e+00	0	30	104	37916508160	60	40091
2026-01-13 09:25:54.66	338.71	6.85	-47.7	-50.2	3.6	0.00e+00	0	30	104	37916508160	60	39439
2026-01-13 09:25:55.67	338.76	6.77	-47.8	-50.3	3.6	0.00e+00	0	30	104	37916508160	60	39883
2026-01-13 09:25:56.68	338.80	6.68	-47.7	-50.1	3.6	0.00e+00	0	30	104	37916508160	60	39214
2026-01-13 09:25:57.69	338.84	6.59	-47.8	-50.2	3.6	0.00e+00	0	30	104	37916508160	60	39693
2026-01-13 09:25:58.70	338.88	6.51	-47.6	-50.1	3.5	0.00e+00	0	30	104	37916508160	60	39202
2026-01-13 09:25:59.71	338.92	6.42	-47.7	-50.2	3.6	0.00e+00	0	30	104	37916508160	60	39423
2026-01-13 09:26:00.72	338.96	6.33	-47.6	-50.1	3.6	0.00e+00	0	30	104	37916508160	60	39059
2026-01-13 09:26:01.73	339.00	6.25	-47.7	-50.2	3.6	0.00e+00	0	30	104	37916508160	60	39438
2026-01-13 09:26:02.74	339.04	6.16	-47.5	-50.0	3.6	0.00e+00	0	30	104	37916508160	60	38590
2026-01-13 09:26:03.75	339.08	6.08	-47.5	-50.0	3.6	0.00e+00	0	30	104	37916508160	60	38596
2026-01-13 09:26:04.75	339.12	6.00	-47.3	-49.8	3.6	0.00e+00	0	30	104	37916508160	60	37996
2026-01-13 09:26:05.76	339.16	5.91	-47.5	-50.0	3.6	0.00e+00	0	30	104	37916508160	60	38553
2026-01-13 09:26:06.77	339.20	5.83	-46.4	-48.9	3.6	0.00e+00	0	30	104	37916508160	60	34069
2026-01-13 09:26:07.78	339.23	5.75	-46.7	-49.1	3.6	0.00e+00	0	30	104	37916508160	60	34940
2026-01-13 09:26:08.79	339.27	5.66	-45.5	-47.9	3.6	0.00e+00	0	30	104	37916508160	60	30550
2026-01-13 09:26:09.80	339.31	5.58	-45.1	-47.6	3.6	0.00e+00	0	30	104	37916508160	60	29244
2026-01-13 09:26:10.81	339.35	5.50	-44.7	-47.2	3.6	0.00e+00	0	30	104	37916508160	60	28044
2026-01-13 09:26:11.82	339.39	5.42	-44.3	-46.8	3.6	0.00e+00	0	30	104	37916508160	60	26805
2026-01-13 09:26:12.83	339.42	5.34	-44.3	-46.8	3.6	0.00e+00	0	30	104	37916508160	60	26663
2026-01-13 09:26:13.84	339.46	5.25	-46.1	-48.6	3.6	0.00e+00	0	30	104	37916508160	60	32803
2026-01-13 09:26:14.84	339.50	5.17	-45.7	-48.2	3.6	0.00e+00	0	30	104	37916508160	60	31363
2026-01-13 09:26:15.85	339.53	5.09	-45.1	-47.6	3.6	0.00e+00	0	30	104	37916508160	60	29309
2026-01-13 09:26:16.86	339.57	5.01	-44.8	-47.2	3.6	0.00e+00	0	30	104	37916508160	60	28125
2026-01-13 09:26:17.87	339.61	4.93	-44.4	-46.8	3.6	0.00e+00	0	30	104	37916508160	60	26931
2026-01-13 09:26:18.88	339.64	4.85	-44.2	-46.7	3.6	0.00e+00	0	30	104	37916508160	60	26437
2026-01-13 09:26:19.89	339.68	4.78	-44.2	-46.7	3.6	0.00e+00	0	30	104	37916508160	60	26428
2026-01-13 09:26:20.90	339.71	4.70	-44.4	-46.9	3.6	0.00e+00	0	30	104	37916508160	60	27093
2026-01-13 09:26:21.91	339.75	4.62	-44.5	-47.0	3.6	0.00e+00	0	30	104	37916508160	60	27288
2026-01-13 09:26:22.92	339.78	4.54	-44.8	-47.3	3.6	0.00e+00	0	30	104	37916508160	60	28312
2026-01-13 09:26:23.93	339.82	4.46	-44.4	-46.8	3.6	0.00e+00	0	30	104	37916508160	60	26867
2026-01-13 09:26:24.94	339.85	4.38	-44.5	-47.0	3.6	0.00e+00	0	30	104	37916508160	60	27377
2026-01-13 09:26:25.94	339.89	4.31	-44.4	-46.9	3.6	0.00e+00	0	30	104	37916508160	60	27098
2026-01-13 09:26:26.95	339.92	4.23	-44.3	-46.7	3.6	0.00e+00	0	30	104	37916508160	60	26480
2026-01-13 09:26:27.96	339.96	4.15	-44.3	-46.8	3.6	0.00e+00	0	30	104	37916508160	60	26670
2026-01-13 09:26:28.97	339.99	4.08	-44.2	-46.7	3.6	0.00e+00	0	30	104	37916508160	60	26535
2026-01-13 09:26:29.98	340.02	4.00	-44.3	-46.9	3.6	0.00e+00	0	29	104	37916508160	60	26974
2026-01-13 09:26:30.98	340.06	3.93	-44.2	-46.7	3.6	0.00e+00	0	30	104	37916508160	60	26456
2026-01-13 09:26:31.99	340.09	3.85	-44.3	-46.9	3.6	0.00e+00	0	29	104	37916508160	60	26985
2026-01-13 09:26:33.00	340.12	3.77	-44.3	-46.7	3.6	0.00e+00	0	30	104	37916508160	60	26588
2026-01-13 09:26:34.01	340.16	3.70	-44.4	-46.8	3.6	0.00e+00	0	30	104	37916508160	60	26853
2026-01-13 09:26:35.02	340.19	3.62	-44.3	-46.8	3.6	0.00e+00	0	30	104	37916508160	60	26777
2026-01-13 09:26:36.03	340.22	3.55	-44.3	-46.8	3.6	0.00e+00	0	29	104	37916508160	60	26851
2026-01-13 09:26:37.04	340.25	3.48	-44.3	-46.8	3.6	0.00e+00	0	30	104	37916508160	60	26739
2026-01-13 09:26:38.05	340.29	3.40	-44.4	-46.8	3.6	0.00e+00	0	30	104	37916508160	60	26916
2026-01-13 09:26:39.06	340.32	3.33	-44.3	-46.8	3.6	0.00e+00	0	30	104	37916508160	60	26739
2026-01-13 09:26:40.07	340.35	3.25	-44.3	-46.9	3.6	0.00e+00	0	30	104	37916508160	60	27000
2026-01-13 09:26:41.08	340.38	3.18	-44.3	-46.8	3.6	0.00e+00	0	30	104	37916508160	60	26737
2026-01-13 09:26:42.09	340.41	3.11	-44.3	-46.8	3.6	0.00e+00	0	30	104	37916508160	60	26855
2026-01-13 09:26:43.10	340.45	3.03	-44.3	-46.8	3.6	0.00e+00	0	30	104	37916508160	60	26857
2026-01-13 09:26:44.11	340.48	2.96	-44.1	-46.6	3.6	0.00e+00	0	30	104	37916508160	60	26220
2026-01-13 09:26:45.12	340.51	2.89	-47.5	-50.1	3.6	0.00e+00	0	30	104	37916508160	60	38989
2026-01-13 09:26:46.12	340.54	2.82	-48.2	-50.7	3.6	0.00e+00	0	30	104	37916508160	60	42099
2026-01-13 09:26:47.13	340.57	2.75	-48.4	-50.9	3.6	0.00e+00	0	30	104	37916508160	60	43178
2026-01-13 09:26:48.14	340.60	2.67	-48.6	-51.1	3.6	0.00e+00	0	30	104	37916508160	60	43759
2026-01-13 09:26:49.15	340.63	2.60	-48.6	-51.0	3.6	0.00e+00	0	30	104	37916508160	60	43623
2026-01-13 09:26:50.16	340.66	2.53	-48.8	-51.3	3.6	0.00e+00	0	29	104	37916508160	60	44788
2026-01-13 09:26:51.17	340.69	2.46	-48.8	-51.3	3.6	0.00e+00	0	30	104	37916508160	60	44918
2026-01-13 09:26:52.18	340.72	2.39	-48.8	-51.3	3.6	0.00e+00	0	29	104	37916508160	60	44914
2026-01-13 09:26:53.19	340.75	2.32	-48.7	-51.2	3.6	0.00e+00	0	29	104	37916508160	60	44606
2026-01-13 09:26:54.20	340.78	2.25	-48.7	-51.2	3.6	0.00e+00	0	29	104	37916508160	60	44308
2026-01-13 09:26:55.21	340.81	2.18	-48.2	-50.8	3.6	0.00e+00	0	29	104	37916508160	60	42305
2026-01-13 09:26:56.22	340.84	2.11	-48.6	-51.1	3.6	0.00e+00	0	29	104	37916508160	60	43776
2026-01-13 09:26:57.23	340.87	2.04	-48.7	-51.1	3.6	0.00e+00	0	29	104	37916508160	60	43966
2026-01-13 09:26:58.23	340.90	1.97	-48.2	-50.7	3.6	0.00e+00	0	29	104	37916508160	60	41917
2026-01-13 09:26:59.24	340.92	1.90	-49.0	-51.5	3.5	0.00e+00	0	29	104	37916508160	60	46117
2026-01-13 09:27:00.25	340.95	1.83	-48.7	-51.2	3.6	0.00e+00	0	29	104	37916508160	60	44445
2026-01-13 09:27:01.26	340.98	1.77	-48.7	-51.2	3.6	0.00e+00	0	29	104	37916508160	60	44484
2026-01-13 09:27:02.27	341.01	1.70	-48.7	-51.2	3.6	0.00e+00	0	29	104	37916508160	60	44436
2026-01-13 09:27:03.28	341.04	1.63	-48.7	-51.2	3.6	0.00e+00	0	29	104	37916508160	60	44219
2026-01-13 09:27:04.29	341.07	1.56	-48.7	-51.2	3.6	0.00e+00	0	29	104	37916508160	60	44296
2026-01-13 09:27:05.30	341.09	1.49	-48.7	-51.1	3.6	0.00e+00	0	30	104	37916508160	60	44149
2026-01-13 09:27:06.31	341.12	1.43	-48.7	-51.1	3.6	0.00e+00	0	29	104	37916508160	60	44201
2026-01-13 09:27:07.32	341.15	1.36	-48.7	-51.2	3.6	0.00e+00	0	30	104	37916508160	60	44342
2026-01-13 09:27:08.33	341.18	1.29	-48.7	-51.2	3.6	0.00e+00	0	30	104	37916508160	60	44328
2026-01-13 09:27:09.34	341.20	1.22	-48.7	-51.1	3.6	0.00e+00	0	29	104	37916508160	60	44119
2026-01-13 09:27:10.35	341.23	1.16	-48.7	-51.2	3.6	0.00e+00	0	29	104	37916508160	60	44281
2026-01-13 09:27:11.35	341.26	1.09	-48.7	-51.1	3.6	0.00e+00	0	30	104	37916508160	60	44109
2026-01-13 09:27:12.36	341.29	1.02	-48.7	-51.1	3.6	0.00e+00	0	30	104	37916508160	60	44033
2026-01-13 09:27:13.37	341.31	0.96	-48.7	-51.1	3.6	0.00e+00	0	30	104	37916508160	60	44046
