passes_logs/2026/01/13/R4.6S_Anadyr/R4.6S_Anadyr__20260113_134143_SUOMI_NPP_rec.log

#Pass ID: 20260113_134143_SUOMI NPP
#Satellite: SUOMI NPP
#Configuration: NPP
#almurnet v.1.7.20251203
#Start time: 2026-01-13 13:41:46

#Version: 2.2.20231116
#Station: R4.6S_Anadyr
#Location: 177.4865 lon 64.73178 lat
#TLE: 1 37849U 11061A   26012.28456845  .00000093  00000+0  65163-4 0  9999
#TLE: 2 37849  98.7807 314.3566 0002508  68.3553 291.7890 14.19524725736322

#Time	Az	El	Level	Level2	SNR	BER	BlckErr	Temp	State	Recorded	gain1	gain2
2026-01-13 13:41:46.36	19.09	0.17	-48.8	-62.5	3.3	1.54e+00	0	26	0	0	60	48260
2026-01-13 13:41:47.37	19.13	0.22	-48.6	-63.8	3.6	1.51e+00	0	26	104	0	60	55767
2026-01-13 13:41:48.38	19.17	0.28	-48.6	-63.8	3.6	1.51e+00	0	27	104	0	60	55885
2026-01-13 13:41:49.39	19.21	0.34	-48.6	-63.9	3.6	1.51e+00	0	26	104	0	60	56414
2026-01-13 13:41:50.40	19.25	0.40	-48.6	-63.8	3.6	1.51e+00	0	27	104	0	60	55737
2026-01-13 13:41:51.41	19.28	0.46	-48.6	-63.8	3.6	1.51e+00	0	27	104	0	60	55712
2026-01-13 13:41:52.42	19.32	0.52	-48.5	-63.7	3.6	1.51e+00	0	27	104	0	60	55234
2026-01-13 13:41:53.43	19.36	0.57	-48.4	-63.6	3.6	1.51e+00	0	27	104	0	60	54672
2026-01-13 13:41:54.44	19.40	0.63	-48.3	-63.5	3.6	1.51e+00	0	27	104	0	60	53901
2026-01-13 13:41:55.45	19.44	0.69	-48.1	-63.3	3.6	1.51e+00	0	27	104	0	60	52908
2026-01-13 13:41:56.46	19.48	0.75	-47.8	-63.1	3.6	1.51e+00	0	27	104	0	60	51775
2026-01-13 13:41:57.47	19.52	0.81	-47.8	-63.0	3.6	1.51e+00	0	27	104	0	60	50877
2026-01-13 13:41:58.48	19.56	0.87	-47.6	-62.7	3.6	1.51e+00	0	27	104	0	60	49530
2026-01-13 13:41:59.49	19.59	0.93	-47.1	-62.3	3.6	1.51e+00	0	27	104	0	60	46953
2026-01-13 13:42:00.50	19.63	0.99	-47.0	-62.2	3.6	1.51e+00	0	27	104	0	60	46395
2026-01-13 13:42:01.51	19.67	1.05	-47.0	-62.2	3.5	1.51e+00	0	27	104	0	60	46423
2026-01-13 13:42:02.52	19.71	1.11	-47.0	-62.2	3.6	1.51e+00	0	27	104	0	60	46365
2026-01-13 13:42:03.53	19.75	1.17	-47.0	-62.2	3.6	1.51e+00	0	27	104	0	60	46331
2026-01-13 13:42:04.54	19.79	1.23	-47.0	-62.1	3.6	1.51e+00	0	27	104	0	60	46138
2026-01-13 13:42:05.55	19.83	1.29	-47.0	-62.1	3.6	1.51e+00	0	27	104	0	60	46271
2026-01-13 13:42:06.56	19.87	1.35	-47.0	-62.1	3.6	1.51e+00	0	27	104	0	60	46102
2026-01-13 13:42:07.57	19.91	1.41	-47.0	-62.1	3.6	1.51e+00	0	27	104	0	60	45810
2026-01-13 13:42:08.58	19.96	1.47	-47.0	-62.1	3.6	1.51e+00	0	27	104	0	60	45809
2026-01-13 13:42:09.59	20.00	1.53	-46.9	-62.1	3.6	1.51e+00	0	27	104	0	60	45965
2026-01-13 13:42:10.60	20.04	1.59	-47.0	-62.1	3.6	1.51e+00	0	27	104	0	60	46007
2026-01-13 13:42:11.61	20.08	1.65	-47.0	-62.1	3.6	1.51e+00	0	27	104	0	60	46077
2026-01-13 13:42:12.62	20.12	1.71	-47.0	-62.1	3.6	1.51e+00	0	27	104	0	60	46197
2026-01-13 13:42:13.63	20.16	1.77	-47.0	-62.1	3.6	1.51e+00	0	27	104	0	60	46123
2026-01-13 13:42:14.64	20.20	1.83	-46.9	-62.1	3.6	1.51e+00	0	27	104	0	60	46104
2026-01-13 13:42:15.65	20.24	1.89	-47.0	-62.1	3.6	1.51e+00	0	27	104	0	60	46068
2026-01-13 13:42:16.66	20.29	1.95	-47.0	-62.2	3.6	1.51e+00	0	27	104	0	60	46314
2026-01-13 13:42:17.67	20.33	2.01	-47.0	-62.2	3.6	1.51e+00	0	27	104	0	60	46554
2026-01-13 13:42:18.68	20.37	2.08	-46.9	-62.1	3.6	1.51e+00	0	27	104	0	60	45844
2026-01-13 13:42:19.69	20.41	2.14	-46.9	-62.0	3.6	1.51e+00	0	27	104	0	60	45344
2026-01-13 13:42:20.70	20.45	2.20	-46.9	-61.5	3.6	1.51e+00	0	27	104	0	60	43131
2026-01-13 13:42:21.71	20.50	2.26	-46.9	-61.2	3.6	1.51e+00	0	27	104	0	60	41507
2026-01-13 13:42:22.72	20.54	2.32	-46.9	-61.1	3.6	1.51e+00	0	27	104	0	60	41219
2026-01-13 13:42:23.73	20.58	2.38	-46.9	-61.4	3.6	1.51e+00	0	27	104	0	60	42266
2026-01-13 13:42:24.74	20.63	2.45	-46.9	-61.9	3.6	1.51e+00	0	27	104	0	60	44765
2026-01-13 13:42:25.75	20.67	2.51	-46.9	-61.9	3.6	1.51e+00	0	27	104	0	60	44770
2026-01-13 13:42:26.76	20.71	2.57	-46.8	-59.9	3.6	1.51e+00	0	27	104	0	60	35579
2026-01-13 13:42:27.77	20.76	2.63	-46.6	-56.2	4.9	9.62e-01	0	27	0	0	60	23303
2026-01-13 13:42:28.78	20.80	2.70	-46.0	-52.4	7.9	2.55e-01	92	27	0	1048576	60	15070
2026-01-13 13:42:29.79	20.84	2.76	-45.2	-50.0	10.7	1.80e-02	0	27	0	3145728	60	11467
2026-01-13 13:42:30.80	20.89	2.82	-44.5	-48.3	12.8	1.94e-04	0	27	0	5242880	60	9359
2026-01-13 13:42:31.81	20.93	2.88	-43.6	-46.7	14.4	3.80e-06	0	27	0	6291456	60	7800
2026-01-13 13:42:32.82	20.98	2.95	-42.9	-45.4	15.7	0.00e+00	0	27	0	8388608	60	6751
2026-01-13 13:42:33.83	21.02	3.01	-42.3	-44.6	16.5	0.00e+00	27	27	0	10485760	58	6886
2026-01-13 13:42:34.84	21.07	3.07	-42.0	-44.1	16.8	0.00e+00	0	27	0	12582912	58	6530
2026-01-13 13:42:35.85	21.11	3.14	-41.9	-43.9	17.1	0.00e+00	44	27	0	13631488	58	6362
2026-01-13 13:42:36.86	21.16	3.20	-42.0	-44.2	16.9	0.00e+00	31	27	0	15728640	58	6570
2026-01-13 13:42:37.87	21.20	3.27	-42.5	-45.0	15.9	0.00e+00	63	27	0	17825792	58	7176
2026-01-13 13:42:38.88	21.25	3.33	-43.3	-46.1	14.8	0.00e+00	0	27	0	19922944	58	8230
2026-01-13 13:42:39.89	21.29	3.39	-44.3	-47.9	13.1	7.00e-07	0	27	0	22020096	60	8955
2026-01-13 13:42:40.90	21.34	3.46	-45.2	-49.9	10.8	1.04e-03	0	27	0	24117248	60	11309
2026-01-13 13:42:41.91	21.38	3.52	-42.3	-44.4	16.7	1.29e-05	0	27	0	25165824	58	6751
2026-01-13 13:42:42.92	21.43	3.59	-42.0	-44.1	17.1	0.00e+00	35	27	0	27262976	56	7281
2026-01-13 13:42:43.93	21.48	3.65	-46.9	-61.2	3.6	1.03e+00	0	27	104	28311552	60	41572
2026-01-13 13:42:44.94	21.52	3.72	-45.4	-50.9	10.0	1.48e+00	40	27	104	28311552	60	12676
2026-01-13 13:42:45.95	21.57	3.78	-46.7	-55.4	5.3	2.20e-06	0	27	0	28311552	60	21303
2026-01-13 13:42:46.96	21.62	3.85	-42.9	-45.3	16.1	3.59e-02	0	27	0	30408704	60	6632
2026-01-13 13:42:47.97	21.66	3.91	-42.8	-45.1	16.0	0.00e+00	0	27	0	32505856	58	7333
2026-01-13 13:42:48.98	21.71	3.98	-43.0	-45.5	16.1	0.00e+00	0	27	0	34603008	58	7624
2026-01-13 13:42:49.99	21.76	4.04	-43.0	-45.5	15.8	0.00e+00	67	27	0	35651584	58	7637
2026-01-13 13:42:51.00	21.81	4.11	-43.2	-45.8	15.7	0.00e+00	0	27	0	37748736	58	7866
2026-01-13 13:42:52.01	21.85	4.17	-43.0	-45.4	15.4	0.00e+00	45	27	0	39845888	58	7556
2026-01-13 13:42:53.02	21.90	4.24	-42.9	-45.2	16.3	0.00e+00	0	27	0	41943040	58	7418
2026-01-13 13:42:54.02	21.95	4.31	-43.0	-45.5	15.8	0.00e+00	0	27	0	44040192	58	7664
2026-01-13 13:42:55.03	22.00	4.37	-42.3	-44.4	16.9	0.00e+00	0	27	0	45088768	58	6725
2026-01-13 13:42:56.04	22.05	4.44	-41.9	-43.9	17.4	0.00e+00	0	27	0	47185920	58	6342
2026-01-13 13:42:57.05	22.10	4.51	-41.9	-43.8	17.3	0.00e+00	5	27	0	49283072	58	6311
2026-01-13 13:42:58.06	22.14	4.57	-42.0	-44.0	17.0	0.00e+00	0	27	0	51380224	58	6418
2026-01-13 13:42:59.07	22.19	4.64	-42.4	-44.5	17.3	0.00e+00	92	27	0	53477376	56	7602
2026-01-13 13:43:00.08	22.24	4.71	-42.0	-43.9	17.6	0.00e+00	0	27	0	54525952	56	7147
2026-01-13 13:43:01.09	22.29	4.77	-42.2	-44.2	17.1	0.00e+00	0	27	0	56623104	56	7421
2026-01-13 13:43:02.10	22.34	4.84	-41.9	-43.8	17.7	0.00e+00	0	27	0	58720256	56	7024
2026-01-13 13:43:03.10	22.39	4.91	-42.1	-44.0	17.3	0.00e+00	0	27	0	60817408	56	7243
2026-01-13 13:43:04.11	22.44	4.98	-41.8	-43.6	17.7	0.00e+00	38	27	0	62914560	56	6906
2026-01-13 13:43:05.12	22.49	5.04	-41.6	-43.4	18.0	0.00e+00	0	27	0	63963136	56	6696
2026-01-13 13:43:06.13	22.54	5.11	-41.4	-43.1	18.3	0.00e+00	78	27	0	66060288	56	6510
2026-01-13 13:43:07.14	22.59	5.18	-41.4	-43.2	18.1	0.00e+00	0	27	0	68157440	56	6567
2026-01-13 13:43:08.15	22.65	5.25	-41.2	-42.9	18.5	0.00e+00	0	27	0	70254592	56	6377
2026-01-13 13:43:09.16	22.70	5.32	-41.3	-43.1	18.3	0.00e+00	0	27	0	72351744	56	6472
2026-01-13 13:43:10.17	22.75	5.38	-41.3	-43.1	18.3	0.00e+00	0	27	0	73400320	56	6481
2026-01-13 13:43:11.18	22.80	5.45	-41.2	-42.9	18.5	0.00e+00	39	27	0	75497472	56	6378
2026-01-13 13:43:12.19	22.85	5.52	-41.1	-42.7	18.7	0.00e+00	0	27	0	77594624	56	6199
2026-01-13 13:43:13.20	22.90	5.59	-41.3	-43.0	18.4	0.00e+00	90	27	0	79691776	56	6453
2026-01-13 13:43:14.21	22.96	5.66	-41.1	-42.8	18.6	0.00e+00	0	27	0	81788928	56	6292
2026-01-13 13:43:15.22	23.01	5.73	-41.1	-42.7	18.7	0.00e+00	66	27	0	82837504	56	6218
2026-01-13 13:43:16.23	23.06	5.80	-41.1	-42.7	18.7	0.00e+00	0	27	0	84934656	56	6223
2026-01-13 13:43:17.24	23.12	5.87	-41.0	-42.6	18.9	0.00e+00	0	27	0	87031808	56	6107
2026-01-13 13:43:18.24	23.17	5.94	-41.1	-42.8	18.7	0.00e+00	0	27	0	89128960	56	6275
2026-01-13 13:43:19.25	23.22	6.01	-41.2	-42.8	18.7	0.00e+00	0	27	0	91226112	56	6302
2026-01-13 13:43:20.26	23.28	6.08	-41.1	-42.8	18.7	0.00e+00	89	27	0	93323264	56	6248
2026-01-13 13:43:21.27	23.33	6.15	-40.9	-42.5	19.0	0.00e+00	0	27	0	94371840	56	6064
2026-01-13 13:43:22.28	23.38	6.22	-40.9	-42.5	18.9	0.00e+00	85	27	0	96468992	56	6098
2026-01-13 13:43:23.30	23.44	6.29	-40.9	-42.4	19.0	0.00e+00	33	27	0	98566144	56	6032
2026-01-13 13:43:24.30	23.49	6.36	-41.3	-43.0	18.7	0.00e+00	0	27	0	100663296	56	6398
2026-01-13 13:43:25.31	23.55	6.43	-41.1	-42.7	18.8	0.00e+00	0	27	0	102760448	56	6202
2026-01-13 13:43:26.32	23.60	6.50	-41.1	-42.7	18.9	0.00e+00	0	27	0	103809024	56	6225
2026-01-13 13:43:27.33	23.66	6.58	-41.0	-42.7	18.7	0.00e+00	81	27	0	105906176	56	6176
2026-01-13 13:43:28.34	23.72	6.65	-41.0	-42.5	19.0	0.00e+00	0	27	0	108003328	56	6087
2026-01-13 13:43:29.35	23.77	6.72	-40.9	-42.4	19.1	0.00e+00	92	27	0	110100480	56	5995
2026-01-13 13:43:30.36	23.83	6.79	-40.6	-42.1	19.4	0.00e+00	0	27	0	112197632	54	6496
2026-01-13 13:43:31.37	23.88	6.86	-40.5	-42.0	19.3	0.00e+00	0	27	0	113246208	54	6391
2026-01-13 13:43:32.38	23.94	6.94	-40.6	-42.1	19.4	0.00e+00	0	27	0	115343360	54	6537
2026-01-13 13:43:33.39	24.00	7.01	-40.5	-42.0	19.5	0.00e+00	0	27	0	117440512	54	6396
2026-01-13 13:43:34.40	24.06	7.08	-40.4	-41.9	19.5	0.00e+00	34	28	0	119537664	54	6344
2026-01-13 13:43:35.40	24.11	7.15	-40.4	-41.8	19.7	0.00e+00	0	27	0	121634816	54	6295
2026-01-13 13:43:36.42	24.17	7.23	-40.4	-41.8	19.6	0.00e+00	59	27	0	122683392	54	6304
2026-01-13 13:43:37.42	24.23	7.30	-40.4	-41.8	19.6	0.00e+00	0	27	0	124780544	54	6312
2026-01-13 13:43:38.43	24.29	7.37	-40.2	-41.7	19.8	0.00e+00	0	27	0	126877696	54	6178
2026-01-13 13:43:39.44	24.35	7.45	-40.3	-41.8	19.7	0.00e+00	0	27	0	128974848	54	6247
2026-01-13 13:43:40.45	24.40	7.52	-40.3	-41.6	19.9	0.00e+00	0	27	0	131072000	54	6167
2026-01-13 13:43:41.46	24.46	7.60	-40.1	-41.5	20.0	0.00e+00	35	27	0	132120576	54	6058
2026-01-13 13:43:42.47	24.52	7.67	-40.4	-41.8	19.8	0.00e+00	0	27	0	134217728	54	6282
2026-01-13 13:43:43.48	24.58	7.74	-40.2	-41.6	19.9	0.00e+00	81	27	0	136314880	54	6146
2026-01-13 13:43:44.49	24.64	7.82	-39.9	-41.2	20.2	0.00e+00	0	27	0	138412032	54	5851
2026-01-13 13:43:45.50	24.70	7.89	-40.1	-41.4	20.0	0.00e+00	33	27	0	140509184	54	6022
2026-01-13 13:43:46.50	24.76	7.97	-39.8	-41.1	20.4	0.00e+00	0	27	0	141557760	54	5777
2026-01-13 13:43:47.51	24.82	8.04	-39.7	-41.0	20.5	0.00e+00	0	27	0	143654912	52	6408
2026-01-13 13:43:48.52	24.88	8.12	-39.9	-41.2	20.3	0.00e+00	0	27	0	145752064	52	6584
2026-01-13 13:43:49.53	24.95	8.19	-39.8	-41.1	20.4	0.00e+00	0	27	0	147849216	52	6484
2026-01-13 13:43:50.53	25.01	8.27	-39.8	-41.1	20.5	0.00e+00	92	27	0	149946368	52	6535
2026-01-13 13:43:51.54	25.07	8.35	-39.9	-41.3	20.3	0.00e+00	0	27	0	150994944	52	6625
2026-01-13 13:43:52.55	25.13	8.42	-39.6	-40.8	20.7	0.00e+00	80	27	0	153092096	52	6308
2026-01-13 13:43:53.57	25.20	8.50	-39.4	-40.6	20.9	0.00e+00	0	27	0	155189248	52	6158
2026-01-13 13:43:54.58	25.26	8.58	-39.6	-40.8	20.7	0.00e+00	0	27	0	157286400	52	6307
2026-01-13 13:43:55.58	25.32	8.65	-39.5	-40.8	20.7	0.00e+00	0	27	0	159383552	52	6277
2026-01-13 13:43:56.59	25.38	8.73	-39.4	-40.6	20.9	0.00e+00	0	27	0	161480704	52	6147
2026-01-13 13:43:57.60	25.45	8.81	-39.2	-40.3	21.1	0.00e+00	32	27	0	162529280	52	5955
2026-01-13 13:43:58.61	25.51	8.88	-39.4	-40.6	20.9	0.00e+00	0	27	0	164626432	52	6131
2026-01-13 13:43:59.62	25.58	8.96	-39.3	-40.4	21.0	0.00e+00	92	27	0	166723584	52	6024
2026-01-13 13:44:00.63	25.64	9.04	-39.1	-40.3	21.3	0.00e+00	0	27	0	168820736	52	5915
2026-01-13 13:44:01.64	25.71	9.12	-39.0	-40.2	21.2	0.00e+00	0	27	0	170917888	52	5851
2026-01-13 13:44:02.65	25.77	9.20	-38.9	-40.0	21.3	0.00e+00	0	27	0	171966464	52	5754
2026-01-13 13:44:03.66	25.84	9.27	-39.0	-40.2	21.3	0.00e+00	0	27	0	174063616	52	5833
2026-01-13 13:44:04.67	25.90	9.35	-39.1	-40.2	21.2	0.00e+00	39	27	0	176160768	52	5884
2026-01-13 13:44:05.68	25.97	9.43	-38.7	-39.8	21.6	0.00e+00	0	27	0	178257920	50	6267
2026-01-13 13:44:06.69	26.04	9.51	-38.8	-39.9	21.4	0.00e+00	44	28	0	180355072	50	6372
2026-01-13 13:44:07.70	26.11	9.59	-38.9	-40.0	21.5	0.00e+00	0	27	0	181403648	50	6413
2026-01-13 13:44:08.71	26.17	9.67	-38.6	-39.7	21.6	0.00e+00	0	27	0	183500800	50	6180
2026-01-13 13:44:09.72	26.24	9.75	-38.7	-39.8	21.5	0.00e+00	0	27	0	185597952	50	6297
2026-01-13 13:44:10.73	26.31	9.83	-38.8	-39.9	21.6	0.00e+00	0	27	0	187695104	50	6370
2026-01-13 13:44:11.73	26.38	9.91	-38.7	-39.8	21.6	0.00e+00	39	27	0	189792256	50	6299
2026-01-13 13:44:12.74	26.45	9.99	-38.5	-39.6	21.8	0.00e+00	0	27	0	190840832	50	6131
2026-01-13 13:44:13.76	26.52	10.07	-38.6	-39.7	21.6	0.00e+00	92	28	0	192937984	50	6225
2026-01-13 13:44:14.77	26.58	10.15	-38.3	-39.3	22.1	0.00e+00	0	27	0	195035136	50	5935
2026-01-13 13:44:15.77	26.65	10.23	-38.2	-39.3	22.1	0.00e+00	0	27	0	197132288	50	5911
2026-01-13 13:44:16.78	26.72	10.32	-38.4	-39.4	22.0	0.00e+00	0	27	0	199229440	50	6001
2026-01-13 13:44:17.79	26.80	10.40	-38.5	-39.5	21.8	0.00e+00	0	27	0	200278016	50	6098
2026-01-13 13:44:18.80	26.87	10.48	-38.2	-39.2	22.1	0.00e+00	0	27	0	202375168	50	5874
2026-01-13 13:44:19.81	26.94	10.56	-38.3	-39.4	22.1	0.00e+00	0	27	0	204472320	50	5965
2026-01-13 13:44:20.83	27.01	10.65	-38.3	-39.4	22.1	0.00e+00	63	27	0	206569472	50	5983
2026-01-13 13:44:21.84	27.08	10.73	-38.3	-39.4	22.0	0.00e+00	0	27	0	208666624	50	5991
2026-01-13 13:44:22.85	27.16	10.81	-38.3	-39.3	22.0	0.00e+00	87	27	0	209715200	50	5946
2026-01-13 13:44:23.86	27.23	10.89	-38.2	-39.2	22.1	0.00e+00	0	27	0	211812352	50	5871
2026-01-13 13:44:24.87	27.30	10.98	-38.2	-39.2	22.1	0.00e+00	0	28	0	213909504	50	5892
2026-01-13 13:44:25.88	27.38	11.06	-38.3	-39.3	22.0	0.00e+00	40	27	0	216006656	50	5935
2026-01-13 13:44:26.89	27.45	11.15	-38.5	-39.5	21.9	0.00e+00	0	27	0	218103808	50	6094
2026-01-13 13:44:27.89	27.52	11.23	-38.2	-39.2	22.1	0.00e+00	92	27	0	219152384	50	5865
2026-01-13 13:44:28.90	27.60	11.31	-38.3	-39.3	22.1	0.00e+00	0	27	0	221249536	50	5947
2026-01-13 13:44:29.91	27.67	11.40	-38.2	-39.2	22.2	0.00e+00	87	27	0	223346688	50	5891
2026-01-13 13:44:30.92	27.75	11.48	-38.3	-39.4	22.0	0.00e+00	0	27	0	225443840	50	5999
2026-01-13 13:44:31.93	27.83	11.57	-38.3	-39.3	22.1	0.00e+00	0	27	0	227540992	50	5956
2026-01-13 13:44:32.94	27.90	11.65	-38.3	-39.4	22.0	0.00e+00	0	27	0	229638144	50	6008
2026-01-13 13:44:33.95	27.98	11.74	-38.2	-39.3	22.2	0.00e+00	0	27	0	230686720	50	5902
2026-01-13 13:44:34.96	28.06	11.83	-38.4	-39.4	22.0	0.00e+00	57	28	0	232783872	50	6015
2026-01-13 13:44:35.97	28.13	11.91	-38.5	-39.5	21.9	0.00e+00	0	27	0	234881024	50	6094
2026-01-13 13:44:36.98	28.21	12.00	-38.3	-39.3	22.1	0.00e+00	92	27	0	236978176	50	5963
2026-01-13 13:44:37.99	28.29	12.08	-38.3	-39.4	22.1	0.00e+00	0	27	0	239075328	50	5985
2026-01-13 13:44:39.00	28.37	12.17	-38.2	-39.3	22.2	0.00e+00	0	27	0	240123904	50	5923
2026-01-13 13:44:40.01	28.45	12.26	-38.3	-39.3	22.1	0.00e+00	0	27	0	242221056	50	5960
2026-01-13 13:44:41.02	28.53	12.35	-38.3	-39.3	22.2	0.00e+00	0	27	0	244318208	50	5955
2026-01-13 13:44:42.03	28.61	12.43	-38.4	-39.5	22.0	0.00e+00	80	27	0	246415360	50	6057
2026-01-13 13:44:43.04	28.69	12.52	-38.1	-39.2	22.2	0.00e+00	0	27	0	248512512	50	5857
2026-01-13 13:44:44.05	28.77	12.61	-38.4	-39.4	22.0	0.00e+00	32	27	0	249561088	50	6017
2026-01-13 13:44:45.06	28.85	12.70	-38.2	-39.2	22.2	0.00e+00	0	27	0	251658240	50	5855
2026-01-13 13:44:46.07	28.94	12.79	-38.2	-39.2	22.3	0.00e+00	0	27	0	253755392	50	5866
2026-01-13 13:44:47.08	29.02	12.88	-38.2	-39.2	22.3	0.00e+00	0	27	0	255852544	50	5850
2026-01-13 13:44:48.09	29.10	12.97	-38.2	-39.2	22.2	0.00e+00	0	27	0	257949696	50	5860
2026-01-13 13:44:49.10	29.19	13.06	-38.1	-39.1	22.3	0.00e+00	36	28	0	258998272	50	5816
2026-01-13 13:44:50.10	29.27	13.15	-38.1	-39.2	22.3	0.00e+00	33	27	0	261095424	50	5836
2026-01-13 13:44:51.11	29.35	13.24	-38.4	-39.4	22.1	0.00e+00	91	27	0	263192576	50	6033
2026-01-13 13:44:52.12	29.44	13.33	-38.4	-39.4	22.1	0.00e+00	0	27	0	265289728	50	6032
2026-01-13 13:44:53.13	29.53	13.42	-38.2	-39.2	22.3	0.00e+00	0	28	0	267386880	50	5864
2026-01-13 13:44:54.14	29.61	13.51	-38.3	-39.3	22.2	0.00e+00	0	28	0	268435456	50	5927
2026-01-13 13:44:55.15	29.70	13.60	-38.3	-39.3	22.2	0.00e+00	0	27	0	270532608	50	5952
2026-01-13 13:44:56.16	29.79	13.69	-38.2	-39.3	22.1	0.00e+00	30	27	0	272629760	50	5907
2026-01-13 13:44:57.17	29.87	13.78	-38.1	-39.1	22.3	0.00e+00	0	27	0	274726912	50	5802
2026-01-13 13:44:58.18	29.96	13.88	-38.3	-39.3	22.2	0.00e+00	91	27	0	276824064	50	5921
2026-01-13 13:44:59.19	30.05	13.97	-37.9	-38.9	22.5	0.00e+00	0	27	0	277872640	50	5650
2026-01-13 13:45:00.20	30.14	14.06	-37.9	-38.9	22.5	0.00e+00	3	27	0	279969792	50	5662
2026-01-13 13:45:01.20	30.23	14.16	-38.1	-39.1	22.3	0.00e+00	0	28	0	282066944	50	5815
2026-01-13 13:45:02.21	30.32	14.25	-37.9	-38.9	22.4	0.00e+00	0	28	0	284164096	50	5687
2026-01-13 13:45:03.22	30.41	14.34	-38.0	-39.0	22.5	0.00e+00	17	27	0	286261248	50	5730
2026-01-13 13:45:04.23	30.50	14.44	-38.2	-39.2	22.3	0.00e+00	0	28	0	287309824	50	5873
2026-01-13 13:45:05.24	30.59	14.53	-38.2	-39.2	22.3	0.00e+00	91	28	0	289406976	50	5893
2026-01-13 13:45:06.25	30.69	14.63	-38.4	-39.5	22.2	0.00e+00	0	28	0	291504128	50	6045
2026-01-13 13:45:07.26	30.78	14.72	-38.1	-39.1	22.4	0.00e+00	91	27	0	293601280	50	5816
2026-01-13 13:45:08.27	30.87	14.82	-38.2	-39.3	22.3	0.00e+00	0	28	0	295698432	50	5916
2026-01-13 13:45:09.28	30.97	14.91	-38.1	-39.1	22.5	0.00e+00	0	27	0	297795584	50	5801
2026-01-13 13:45:10.29	31.06	15.01	-37.9	-38.9	22.6	0.00e+00	0	28	0	298844160	50	5676
2026-01-13 13:45:11.30	31.16	15.10	-38.1	-39.1	22.5	0.00e+00	0	28	0	300941312	50	5814
2026-01-13 13:45:12.31	31.25	15.20	-37.9	-38.9	22.5	0.00e+00	47	28	0	303038464	50	5648
2026-01-13 13:45:13.32	31.35	15.30	-38.1	-39.1	22.4	0.00e+00	0	28	0	305135616	50	5805
2026-01-13 13:45:14.33	31.45	15.40	-38.1	-39.1	22.2	0.00e+00	90	28	0	307232768	50	5821
2026-01-13 13:45:15.34	31.55	15.49	-38.0	-39.0	22.6	0.00e+00	0	28	0	308281344	50	5711
2026-01-13 13:45:16.34	31.64	15.59	-38.2	-39.2	22.4	0.00e+00	0	28	0	310378496	50	5853
2026-01-13 13:45:17.35	31.74	15.69	-37.8	-38.8	22.7	0.00e+00	0	28	0	312475648	48	6273
2026-01-13 13:45:18.36	31.84	15.79	-37.8	-38.8	22.7	0.00e+00	0	28	0	314572800	48	6288
2026-01-13 13:45:19.37	31.94	15.89	-37.7	-38.6	22.8	0.00e+00	42	28	0	315621376	48	6165
2026-01-13 13:45:20.38	32.04	15.98	-37.6	-38.5	22.9	0.00e+00	0	28	0	317718528	48	6085
2026-01-13 13:45:21.39	32.14	16.08	-37.6	-38.5	22.9	0.00e+00	92	28	0	319815680	48	6097
2026-01-13 13:45:22.40	32.25	16.18	-37.6	-38.6	22.9	0.00e+00	0	27	0	321912832	48	6119
2026-01-13 13:45:23.41	32.35	16.28	-37.7	-38.6	22.8	0.00e+00	0	27	0	324009984	48	6160
2026-01-13 13:45:24.42	32.45	16.38	-37.7	-38.6	22.8	0.00e+00	0	28	0	326107136	48	6161
2026-01-13 13:45:25.43	32.56	16.48	-38.0	-39.0	22.5	0.00e+00	0	28	0	327155712	48	6455
2026-01-13 13:45:26.44	32.66	16.59	-38.1	-39.1	22.5	0.00e+00	36	27	0	329252864	48	6515
2026-01-13 13:45:27.45	32.77	16.69	-37.8	-38.7	22.8	0.00e+00	0	27	0	331350016	48	6231
2026-01-13 13:45:28.46	32.87	16.79	-38.2	-39.2	22.3	0.00e+00	44	28	0	333447168	48	6577
2026-01-13 13:45:29.47	32.98	16.89	-38.2	-39.2	22.3	0.00e+00	0	27	0	335544320	48	6592
2026-01-13 13:45:30.48	33.09	16.99	-38.1	-39.1	22.5	0.00e+00	19	28	0	336592896	48	6480
2026-01-13 13:45:31.48	33.20	17.10	-38.3	-39.3	22.3	0.00e+00	0	28	0	338690048	48	6686
2026-01-13 13:45:32.50	33.31	17.20	-38.1	-39.1	22.5	0.00e+00	0	28	0	340787200	48	6504
2026-01-13 13:45:33.51	33.41	17.30	-38.1	-39.1	22.4	0.00e+00	39	28	0	342884352	48	6496
2026-01-13 13:45:34.52	33.53	17.41	-38.4	-39.4	22.4	0.00e+00	0	28	0	344981504	48	6735
2026-01-13 13:45:35.53	33.64	17.51	-38.3	-39.3	22.2	0.00e+00	35	27	0	346030080	48	6691
2026-01-13 13:45:36.53	33.75	17.61	-38.4	-39.4	22.1	0.00e+00	0	28	0	348127232	48	6765
2026-01-13 13:45:37.54	33.86	17.72	-38.3	-39.3	22.3	0.00e+00	35	28	0	350224384	48	6668
2026-01-13 13:45:38.55	33.97	17.83	-38.2	-39.2	22.3	0.00e+00	0	27	0	352321536	48	6604
2026-01-13 13:45:39.56	34.09	17.93	-38.4	-39.4	22.1	0.00e+00	0	28	0	354418688	48	6722
2026-01-13 13:45:40.57	34.20	18.04	-38.3	-39.4	22.0	0.00e+00	0	27	0	355467264	48	6707
2026-01-13 13:45:41.58	34.32	18.14	-38.5	-39.6	22.1	0.00e+00	0	27	0	357564416	48	6854
2026-01-13 13:45:42.59	34.43	18.25	-38.6	-39.7	22.0	0.00e+00	41	28	0	359661568	48	6952
2026-01-13 13:45:43.60	34.55	18.36	-38.6	-39.6	22.0	0.00e+00	0	28	0	361758720	48	6920
2026-01-13 13:45:44.61	34.67	18.46	-38.5	-39.6	22.1	0.00e+00	83	27	0	363855872	50	6119
2026-01-13 13:45:45.62	34.79	18.57	-38.6	-39.6	22.0	0.00e+00	0	27	0	364904448	50	6171
2026-01-13 13:45:46.63	34.91	18.68	-38.7	-39.8	21.9	0.00e+00	0	27	0	367001600	50	6271
2026-01-13 13:45:47.64	35.03	18.79	-38.5	-39.6	22.0	0.00e+00	0	27	0	369098752	50	6143
2026-01-13 13:45:48.65	35.15	18.90	-38.5	-39.6	22.2	0.00e+00	0	28	0	371195904	50	6151
2026-01-13 13:45:49.66	35.27	19.01	-38.6	-39.7	22.0	0.00e+00	41	28	0	373293056	50	6230
2026-01-13 13:45:50.67	35.40	19.12	-38.4	-39.4	22.2	0.00e+00	0	28	0	374341632	50	6028
2026-01-13 13:45:51.68	35.52	19.23	-38.2	-39.3	22.4	0.00e+00	92	28	0	376438784	50	5905
2026-01-13 13:45:52.69	35.64	19.34	-38.3	-39.3	22.4	0.00e+00	0	27	0	378535936	50	5924
2026-01-13 13:45:53.70	35.77	19.45	-38.4	-39.4	22.3	0.00e+00	0	27	0	380633088	50	6003
2026-01-13 13:45:54.71	35.90	19.56	-38.4	-39.4	22.3	0.00e+00	0	27	0	382730240	50	6024
2026-01-13 13:45:55.72	36.02	19.67	-38.4	-39.4	22.2	0.00e+00	0	27	0	383778816	50	6030
2026-01-13 13:45:56.73	36.15	19.78	-38.4	-39.5	22.2	0.00e+00	41	27	0	385875968	50	6058
2026-01-13 13:45:57.73	36.28	19.89	-38.4	-39.5	22.3	0.00e+00	0	27	0	387973120	50	6040
2026-01-13 13:45:58.74	36.41	20.00	-38.4	-39.5	22.2	0.00e+00	74	28	0	390070272	50	6068
2026-01-13 13:45:59.75	36.54	20.12	-38.7	-39.8	22.1	0.00e+00	0	27	0	392167424	50	6254
2026-01-13 13:46:00.76	36.67	20.23	-38.4	-39.5	22.3	0.00e+00	0	28	0	394264576	50	6064
2026-01-13 13:46:01.77	36.81	20.34	-38.5	-39.6	22.1	0.00e+00	0	28	0	395313152	50	6140
2026-01-13 13:46:02.78	36.94	20.46	-38.5	-39.6	22.1	0.00e+00	0	28	0	397410304	50	6104
2026-01-13 13:46:03.79	37.07	20.57	-38.6	-39.6	22.0	0.00e+00	44	27	0	399507456	50	6167
2026-01-13 13:46:04.80	37.21	20.69	-38.6	-39.7	21.9	0.00e+00	0	27	0	401604608	50	6203
2026-01-13 13:46:05.81	37.35	20.80	-38.6	-39.8	21.9	0.00e+00	92	27	0	403701760	50	6258
2026-01-13 13:46:06.82	37.48	20.92	-38.8	-39.9	22.0	0.00e+00	0	27	0	404750336	50	6378
2026-01-13 13:46:07.83	37.62	21.03	-38.7	-39.8	21.9	0.00e+00	13	28	0	406847488	50	6263
2026-01-13 13:46:08.84	37.76	21.15	-38.8	-39.9	21.9	0.00e+00	0	27	0	408944640	50	6343
2026-01-13 13:46:09.85	37.90	21.26	-38.7	-39.8	21.9	0.00e+00	0	27	0	411041792	50	6283
2026-01-13 13:46:10.86	38.05	21.38	-38.5	-39.6	22.1	0.00e+00	0	27	0	413138944	50	6120
2026-01-13 13:46:11.87	38.19	21.50	-38.5	-39.6	22.2	0.00e+00	0	27	0	414187520	50	6112
2026-01-13 13:46:12.88	38.33	21.62	-38.2	-39.3	22.6	0.00e+00	92	28	0	416284672	50	5912
2026-01-13 13:46:13.89	38.48	21.73	-37.9	-38.9	22.6	0.00e+00	0	28	0	418381824	50	5666
2026-01-13 13:46:14.90	38.62	21.85	-37.9	-38.9	22.7	0.00e+00	66	27	0	420478976	50	5680
2026-01-13 13:46:15.91	38.77	21.97	-37.9	-38.8	22.9	0.00e+00	0	27	0	422576128	50	5616
2026-01-13 13:46:16.92	38.92	22.09	-37.8	-38.7	22.8	0.00e+00	0	27	0	423624704	48	6234
2026-01-13 13:46:17.92	39.07	22.21	-37.8	-38.7	22.9	0.00e+00	0	27	0	425721856	48	6223
2026-01-13 13:46:18.93	39.22	22.33	-37.4	-38.4	23.3	0.00e+00	0	27	0	427819008	48	5974
2026-01-13 13:46:19.94	39.37	22.45	-37.3	-38.2	23.3	0.00e+00	43	27	0	429916160	48	5861
2026-01-13 13:46:20.95	39.52	22.57	-37.4	-38.3	23.3	0.00e+00	0	27	0	432013312	48	5939
2026-01-13 13:46:21.96	39.67	22.69	-37.4	-38.3	23.3	0.00e+00	92	27	0	433061888	48	5909
2026-01-13 13:46:22.97	39.83	22.81	-37.2	-38.1	23.4	0.00e+00	0	27	0	435159040	48	5784
2026-01-13 13:46:23.98	39.99	22.93	-37.3	-38.3	23.3	0.00e+00	0	27	0	437256192	48	5897
2026-01-13 13:46:24.99	40.14	23.06	-37.4	-38.3	23.1	0.00e+00	0	27	0	439353344	48	5936
2026-01-13 13:46:26.00	40.30	23.18	-37.4	-38.3	23.2	0.00e+00	0	27	0	441450496	48	5960
2026-01-13 13:46:27.01	40.46	23.30	-38.0	-39.0	22.7	0.00e+00	38	27	0	442499072	48	6409
2026-01-13 13:46:28.01	40.62	23.42	-37.9	-38.9	22.7	0.00e+00	0	27	0	444596224	48	6346
2026-01-13 13:46:29.02	40.78	23.55	-38.0	-39.0	22.6	0.00e+00	37	27	0	446693376	48	6415
2026-01-13 13:46:30.03	40.95	23.67	-38.3	-39.3	22.0	0.00e+00	0	27	0	448790528	48	6675
2026-01-13 13:46:31.04	41.11	23.79	-38.3	-39.3	22.0	0.00e+00	0	27	0	450887680	48	6663
2026-01-13 13:46:32.05	41.28	23.92	-38.2	-39.3	22.3	0.00e+00	0	27	0	451936256	48	6637
2026-01-13 13:46:33.06	41.44	24.04	-38.1	-39.1	22.6	0.00e+00	0	27	0	454033408	48	6480
2026-01-13 13:46:34.07	41.61	24.17	-38.0	-39.0	22.7	0.00e+00	16	27	0	456130560	48	6398
2026-01-13 13:46:35.08	41.78	24.29	-38.0	-38.9	22.7	0.00e+00	0	27	0	458227712	48	6379
2026-01-13 13:46:36.09	41.95	24.42	-37.9	-38.9	22.9	0.00e+00	89	27	0	460324864	48	6332
2026-01-13 13:46:37.10	42.13	24.55	-37.6	-38.5	23.2	0.00e+00	0	27	0	462422016	48	6063
2026-01-13 13:46:38.11	42.30	24.67	-37.6	-38.5	23.1	0.00e+00	0	27	0	463470592	48	6056
2026-01-13 13:46:39.12	42.48	24.80	-37.4	-38.3	23.2	0.00e+00	0	27	0	465567744	48	5950
2026-01-13 13:46:40.13	42.65	24.93	-37.4	-38.3	23.3	0.00e+00	0	27	0	467664896	48	5925
2026-01-13 13:46:41.14	42.83	25.06	-37.9	-38.9	22.8	0.00e+00	39	28	0	469762048	48	6355
2026-01-13 13:46:42.15	43.01	25.18	-37.9	-38.9	22.9	0.00e+00	0	28	0	471859200	48	6364
2026-01-13 13:46:43.16	43.19	25.31	-38.0	-39.1	22.6	0.00e+00	92	28	0	472907776	48	6476
2026-01-13 13:46:44.17	43.37	25.44	-38.3	-39.4	22.3	0.00e+00	0	28	0	475004928	48	6732
2026-01-13 13:46:45.18	43.56	25.57	-38.3	-39.4	22.4	0.00e+00	66	28	0	477102080	48	6700
2026-01-13 13:46:46.19	43.74	25.70	-38.4	-39.4	22.4	0.00e+00	0	27	0	479199232	48	6740
2026-01-13 13:46:47.20	43.93	25.83	-38.2	-39.3	22.5	0.00e+00	0	28	0	481296384	48	6631
2026-01-13 13:46:48.21	44.12	25.96	-38.0	-38.9	22.7	0.00e+00	33	27	0	482344960	48	6384
2026-01-13 13:46:49.22	44.31	26.09	-37.9	-38.8	22.8	0.00e+00	0	28	0	484442112	48	6303
2026-01-13 13:46:50.22	44.50	26.22	-37.8	-38.8	22.6	0.00e+00	89	27	0	486539264	48	6255
2026-01-13 13:46:51.23	44.69	26.35	-37.5	-38.5	23.1	0.00e+00	0	28	0	488636416	48	6052
2026-01-13 13:46:52.24	44.88	26.48	-37.9	-38.9	22.8	0.00e+00	92	28	0	490733568	48	6321
2026-01-13 13:46:53.25	45.08	26.61	-37.9	-38.9	22.7	0.00e+00	0	27	0	491782144	48	6374
2026-01-13 13:46:54.26	45.28	26.75	-37.9	-38.8	22.9	0.00e+00	0	27	0	493879296	48	6311
2026-01-13 13:46:55.27	45.48	26.88	-38.3	-39.4	22.4	0.00e+00	0	27	0	495976448	48	6699
2026-01-13 13:46:56.28	45.68	27.01	-38.7	-39.8	22.0	0.00e+00	0	27	0	498073600	48	7017
2026-01-13 13:46:57.29	45.88	27.14	-38.8	-39.8	22.2	0.00e+00	42	28	0	500170752	50	6297
2026-01-13 13:46:58.30	46.08	27.28	-38.6	-39.6	22.1	0.00e+00	0	28	0	501219328	50	6160
2026-01-13 13:46:59.31	46.29	27.41	-38.8	-39.8	22.0	0.00e+00	92	28	0	503316480	50	6312
2026-01-13 13:47:00.32	46.50	27.54	-38.5	-39.5	22.4	0.00e+00	0	28	0	505413632	50	6076
2026-01-13 13:47:01.33	46.71	27.68	-38.3	-39.4	22.4	0.00e+00	0	28	0	507510784	50	5966
2026-01-13 13:47:02.34	46.92	27.81	-38.1	-39.1	22.5	0.00e+00	0	27	0	509607936	50	5775
2026-01-13 13:47:03.35	47.13	27.95	-37.7	-38.7	23.0	0.00e+00	0	28	0	510656512	48	6178
2026-01-13 13:47:04.35	47.34	28.08	-37.3	-38.2	22.8	0.00e+00	45	28	0	512753664	48	5884
2026-01-13 13:47:05.37	47.56	28.21	-37.6	-38.5	22.8	0.00e+00	0	28	0	514850816	48	6072
2026-01-13 13:47:06.38	47.78	28.35	-37.6	-38.6	22.9	0.00e+00	92	28	0	516947968	48	6116
2026-01-13 13:47:07.38	48.00	28.48	-38.1	-39.1	22.5	0.00e+00	0	28	0	519045120	48	6496
2026-01-13 13:47:08.39	48.22	28.62	-38.5	-39.5	22.4	0.00e+00	0	28	0	520093696	48	6794
2026-01-13 13:47:09.40	48.44	28.76	-38.6	-39.6	22.2	0.00e+00	0	28	0	522190848	50	6129
2026-01-13 13:47:10.41	48.67	28.89	-38.6	-39.6	22.2	0.00e+00	0	28	0	524288000	50	6167
2026-01-13 13:47:11.42	48.89	29.03	-38.5	-39.6	22.2	0.00e+00	0	28	0	526385152	50	6108
2026-01-13 13:47:12.43	49.12	29.16	-38.5	-39.6	22.3	0.00e+00	0	28	0	528482304	50	6116
2026-01-13 13:47:13.44	49.35	29.30	-38.2	-39.2	22.6	0.00e+00	91	28	0	530579456	50	5833
2026-01-13 13:47:14.45	49.59	29.44	-38.3	-39.3	22.6	0.00e+00	0	28	0	531628032	50	5899
2026-01-13 13:47:15.46	49.82	29.57	-38.2	-39.2	22.6	0.00e+00	0	27	0	533725184	50	5873
2026-01-13 13:47:16.47	50.06	29.71	-38.6	-39.6	22.2	0.00e+00	0	28	0	535822336	50	6171
2026-01-13 13:47:17.48	50.30	29.85	-38.7	-39.8	22.3	0.00e+00	0	28	0	537919488	50	6251
2026-01-13 13:47:18.49	50.54	29.98	-39.1	-40.3	21.8	0.00e+00	0	28	0	540016640	50	6617
2026-01-13 13:47:19.50	50.78	30.12	-39.3	-40.4	21.8	0.00e+00	0	28	0	541065216	50	6728
2026-01-13 13:47:20.51	51.02	30.26	-39.2	-40.3	21.7	0.00e+00	92	28	0	543162368	50	6679
2026-01-13 13:47:21.52	51.27	30.40	-39.0	-40.0	21.9	0.00e+00	0	28	0	545259520	50	6461
2026-01-13 13:47:22.53	51.52	30.53	-38.5	-39.5	22.4	0.00e+00	71	28	0	547356672	50	6068
2026-01-13 13:47:23.54	51.77	30.67	-38.4	-39.4	22.4	0.00e+00	0	28	0	549453824	50	5994
2026-01-13 13:47:24.55	52.02	30.81	-38.3	-39.2	22.5	0.00e+00	0	28	0	550502400	50	5890
2026-01-13 13:47:25.56	52.28	30.95	-38.4	-39.4	22.4	0.00e+00	0	28	0	552599552	50	6011
2026-01-13 13:47:26.57	52.54	31.09	-38.3	-39.3	22.5	0.00e+00	0	28	0	554696704	50	5939
2026-01-13 13:47:27.57	52.79	31.22	-38.5	-39.5	22.3	0.00e+00	92	28	0	556793856	50	6047
2026-01-13 13:47:28.58	53.06	31.36	-38.4	-39.4	22.4	0.00e+00	0	28	0	558891008	50	6014
2026-01-13 13:47:29.59	53.32	31.50	-38.6	-39.6	22.3	0.00e+00	90	28	0	559939584	50	6163
2026-01-13 13:47:30.60	53.59	31.64	-39.1	-40.2	21.6	0.00e+00	0	28	0	562036736	50	6599
2026-01-13 13:47:31.61	53.85	31.77	-39.6	-40.8	21.0	0.00e+00	0	28	0	564133888	50	7051
2026-01-13 13:47:32.62	54.12	31.91	-40.7	-42.1	20.1	0.00e+00	0	28	0	566231040	52	7290
2026-01-13 13:47:33.63	54.40	32.05	-41.7	-43.4	18.9	0.00e+00	0	28	0	568328192	54	7514
2026-01-13 13:47:34.64	54.67	32.19	-42.2	-44.0	18.3	0.00e+00	47	28	0	569376768	56	7220
2026-01-13 13:47:35.65	54.95	32.33	-42.3	-44.2	18.0	0.00e+00	0	28	0	571473920	56	7362
2026-01-13 13:47:36.66	55.23	32.46	-42.2	-44.0	18.6	0.00e+00	71	28	0	573571072	56	7192
2026-01-13 13:47:37.67	55.51	32.60	-41.0	-42.4	19.9	0.00e+00	0	28	0	575668224	56	5997
2026-01-13 13:47:38.68	55.80	32.74	-40.8	-42.1	20.1	0.00e+00	0	28	0	577765376	54	6527
2026-01-13 13:47:39.69	56.08	32.87	-40.4	-41.7	20.5	0.00e+00	0	28	0	578813952	54	6186
2026-01-13 13:47:40.70	56.37	33.01	-40.7	-42.0	20.3	0.00e+00	0	28	0	580911104	54	6454
2026-01-13 13:47:41.71	56.66	33.15	-40.7	-42.0	20.2	0.00e+00	14	28	0	583008256	54	6457
2026-01-13 13:47:42.72	56.96	33.29	-41.3	-42.8	19.5	0.00e+00	0	28	0	585105408	54	7024
2026-01-13 13:47:43.73	57.25	33.42	-41.7	-43.3	19.3	0.00e+00	79	28	0	587202560	56	6678
2026-01-13 13:47:44.74	57.55	33.56	-41.7	-43.3	19.2	0.00e+00	0	28	0	588251136	56	6650
2026-01-13 13:47:45.75	57.85	33.69	-41.6	-43.2	19.2	0.00e+00	0	28	0	590348288	56	6545
2026-01-13 13:47:46.76	58.16	33.83	-41.5	-43.1	19.2	0.00e+00	0	28	0	592445440	56	6497
2026-01-13 13:47:47.77	58.47	33.97	-41.3	-42.9	19.5	0.00e+00	0	28	0	594542592	56	6320
2026-01-13 13:47:48.78	58.77	34.10	-41.2	-42.7	19.6	0.00e+00	6	28	0	596639744	56	6186
2026-01-13 13:47:49.79	59.09	34.24	-41.2	-42.8	19.5	0.00e+00	0	28	0	598736896	56	6261
2026-01-13 13:47:50.80	59.40	34.37	-41.0	-42.5	19.9	0.00e+00	90	28	0	599785472	56	6043
2026-01-13 13:47:51.80	59.71	34.50	-40.9	-42.4	19.9	0.00e+00	0	28	0	601882624	56	5972
2026-01-13 13:47:52.81	60.03	34.64	-41.4	-42.9	19.5	0.00e+00	90	28	0	603979776	56	6359
2026-01-13 13:47:53.82	60.35	34.77	-41.9	-43.5	19.2	0.00e+00	0	28	0	606076928	56	6800
2026-01-13 13:47:54.83	60.68	34.90	-42.1	-43.8	18.6	0.00e+00	0	28	0	608174080	56	7045
2026-01-13 13:47:55.84	61.01	35.04	-41.9	-43.5	18.9	0.00e+00	0	28	0	609222656	56	6811
2026-01-13 13:47:56.85	61.34	35.17	-41.6	-43.1	19.3	0.00e+00	0	28	0	611319808	56	6496
2026-01-13 13:47:57.86	61.67	35.30	-41.7	-43.3	19.0	0.00e+00	92	28	0	613416960	56	6670
2026-01-13 13:47:58.87	62.00	35.43	-41.7	-43.4	19.3	0.00e+00	0	28	0	615514112	56	6706
2026-01-13 13:47:59.88	62.34	35.56	-41.2	-42.6	19.7	0.00e+00	92	28	0	616562688	56	6148
2026-01-13 13:48:00.88	62.68	35.69	-41.1	-42.5	19.9	0.00e+00	0	28	0	618659840	56	6071
2026-01-13 13:48:01.90	63.02	35.82	-41.2	-42.6	19.7	0.00e+00	0	28	0	620756992	56	6171
2026-01-13 13:48:02.91	63.37	35.95	-41.7	-43.3	19.2	0.00e+00	0	28	0	622854144	56	6678
2026-01-13 13:48:03.92	63.72	36.08	-41.5	-43.0	19.4	0.00e+00	0	28	0	624951296	56	6428
2026-01-13 13:48:04.92	64.06	36.20	-41.6	-43.1	19.3	0.00e+00	34	28	0	627048448	56	6466
2026-01-13 13:48:05.93	64.42	36.33	-42.0	-43.6	19.0	0.00e+00	0	28	0	628097024	56	6914
2026-01-13 13:48:06.94	64.77	36.46	-41.3	-42.8	19.8	0.00e+00	91	28	0	630194176	56	6279
2026-01-13 13:48:07.95	65.13	36.58	-40.5	-41.8	20.4	0.00e+00	0	28	0	632291328	54	6275
2026-01-13 13:48:08.96	65.50	36.71	-40.2	-41.5	20.8	0.00e+00	0	28	0	634388480	54	6056
2026-01-13 13:48:09.97	65.86	36.83	-40.6	-41.9	20.4	0.00e+00	0	28	0	636485632	54	6353
2026-01-13 13:48:10.98	66.23	36.95	-40.5	-41.8	20.3	0.00e+00	0	28	0	637534208	54	6267
2026-01-13 13:48:11.99	66.60	37.08	-41.2	-42.6	19.6	0.00e+00	18	28	0	639631360	54	6899
2026-01-13 13:48:12.99	66.97	37.20	-41.4	-42.9	19.2	0.00e+00	0	28	0	641728512	54	7116
2026-01-13 13:48:14.01	67.35	37.32	-41.8	-43.5	19.1	0.00e+00	21	28	0	643825664	56	6775
2026-01-13 13:48:15.01	67.72	37.44	-41.1	-42.5	20.2	0.00e+00	0	28	0	645922816	56	6071
2026-01-13 13:48:16.02	68.10	37.55	-40.4	-41.7	20.5	0.00e+00	0	28	0	646971392	54	6232
2026-01-13 13:48:17.03	68.49	37.67	-39.6	-40.8	21.3	0.00e+00	0	28	0	649068544	54	5608
2026-01-13 13:48:18.04	68.87	37.79	-39.2	-40.4	21.6	0.00e+00	0	28	0	651165696	52	5985
2026-01-13 13:48:19.05	69.26	37.90	-39.3	-40.4	21.4	0.00e+00	23	28	0	653262848	52	6023
2026-01-13 13:48:20.06	69.65	38.02	-40.0	-41.3	20.8	0.00e+00	0	28	0	655360000	52	6617
2026-01-13 13:48:21.07	70.05	38.13	-40.2	-41.5	20.7	0.00e+00	92	28	0	656408576	52	6794
2026-01-13 13:48:22.08	70.44	38.24	-40.3	-41.6	20.7	0.00e+00	0	28	0	658505728	52	6919
2026-01-13 13:48:23.09	70.84	38.35	-40.2	-41.5	20.7	0.00e+00	19	28	0	660602880	52	6834
2026-01-13 13:48:24.10	71.25	38.46	-40.0	-41.2	20.9	0.00e+00	0	28	0	662700032	52	6599
2026-01-13 13:48:25.11	71.65	38.57	-39.9	-41.1	21.1	0.00e+00	0	28	0	664797184	52	6497
2026-01-13 13:48:26.12	72.06	38.68	-39.4	-40.6	21.3	0.00e+00	0	28	0	665845760	52	6139
2026-01-13 13:48:27.13	72.47	38.79	-39.1	-40.2	21.4	0.00e+00	33	28	0	667942912	52	5877
2026-01-13 13:48:28.14	72.89	38.89	-39.2	-40.3	21.7	0.00e+00	51	28	0	670040064	52	5941
2026-01-13 13:48:29.15	73.30	39.00	-39.9	-41.2	21.0	0.00e+00	0	28	0	672137216	52	6564
2026-01-13 13:48:30.16	73.72	39.10	-40.3	-41.7	20.8	0.00e+00	91	28	0	674234368	52	6939
2026-01-13 13:48:31.17	74.14	39.20	-40.1	-41.4	20.6	0.00e+00	0	28	0	675282944	52	6707
2026-01-13 13:48:32.18	74.57	39.30	-40.1	-41.4	20.9	0.00e+00	0	28	0	677380096	52	6719
2026-01-13 13:48:33.19	74.99	39.40	-39.0	-40.1	21.8	0.00e+00	0	28	0	679477248	52	5812
2026-01-13 13:48:34.20	75.42	39.49	-38.8	-39.8	22.0	0.00e+00	0	28	0	681574400	52	5628
2026-01-13 13:48:35.20	75.85	39.59	-39.4	-40.5	21.5	0.00e+00	44	28	0	683671552	52	6080
2026-01-13 13:48:36.21	76.28	39.68	-39.0	-40.1	21.9	0.00e+00	0	28	0	684720128	52	5788
2026-01-13 13:48:37.23	76.72	39.77	-38.5	-39.6	22.2	0.00e+00	92	28	0	686817280	50	6125
2026-01-13 13:48:38.24	77.16	39.86	-39.3	-40.5	21.5	0.00e+00	0	28	0	688914432	50	6778
2026-01-13 13:48:39.25	77.60	39.95	-40.6	-42.0	20.2	0.00e+00	0	28	0	691011584	52	7240
2026-01-13 13:48:40.25	78.04	40.04	-41.5	-43.2	19.1	0.00e+00	0	28	0	693108736	54	7348
2026-01-13 13:48:41.26	78.49	40.12	-41.0	-42.5	19.7	0.00e+00	0	28	0	695205888	54	6776
2026-01-13 13:48:42.27	78.94	40.21	-40.2	-41.5	20.5	0.00e+00	48	28	0	696254464	54	6057
2026-01-13 13:48:43.28	79.39	40.29	-39.9	-41.1	20.8	0.00e+00	0	28	0	698351616	54	5799
2026-01-13 13:48:44.29	79.84	40.37	-40.4	-41.7	20.6	0.00e+00	92	28	0	700448768	54	6204
2026-01-13 13:48:45.30	80.29	40.45	-39.7	-40.9	21.3	0.00e+00	0	28	0	702545920	52	6364
2026-01-13 13:48:46.31	80.75	40.52	-39.2	-40.3	21.8	0.00e+00	0	28	0	704643072	52	5915
2026-01-13 13:48:47.32	81.21	40.60	-39.1	-40.2	21.7	0.00e+00	0	28	0	705691648	52	5832
2026-01-13 13:48:48.33	81.67	40.67	-40.4	-41.7	20.5	0.00e+00	0	28	0	707788800	52	6942
2026-01-13 13:48:49.34	82.14	40.74	-41.7	-43.3	18.9	0.00e+00	53	28	0	709885952	54	7469
2026-01-13 13:48:50.34	82.60	40.81	-42.6	-44.5	18.0	0.00e+00	0	28	0	711983104	56	7676
2026-01-13 13:48:51.35	83.06	40.88	-42.0	-43.6	18.7	0.00e+00	92	28	0	714080256	56	6918
2026-01-13 13:48:52.36	83.53	40.94	-41.5	-43.0	19.4	0.00e+00	0	28	0	715128832	56	6459
2026-01-13 13:48:53.37	84.00	41.00	-41.3	-42.8	19.6	0.00e+00	46	28	0	717225984	56	6284
2026-01-13 13:48:54.38	84.48	41.06	-41.5	-43.0	19.4	0.00e+00	0	28	0	719323136	56	6451
2026-01-13 13:48:55.39	84.95	41.12	-41.1	-42.5	19.8	0.00e+00	0	28	0	721420288	56	6074
2026-01-13 13:48:56.40	85.43	41.18	-41.4	-42.8	19.5	0.00e+00	0	28	0	723517440	56	6310
2026-01-13 13:48:57.41	85.91	41.23	-41.7	-43.2	19.1	0.00e+00	0	28	0	724566016	56	6565
2026-01-13 13:48:58.42	86.39	41.29	-42.2	-43.9	18.5	0.00e+00	92	28	0	726663168	56	7150
2026-01-13 13:48:59.42	86.86	41.34	-43.0	-45.0	17.4	0.00e+00	0	28	0	728760320	58	7207
2026-01-13 13:49:00.43	87.34	41.39	-43.4	-45.7	16.7	0.00e+00	0	28	0	730857472	58	7856
2026-01-13 13:49:01.44	87.83	41.43	-43.4	-45.6	17.2	0.00e+00	0	28	0	732954624	58	7704
2026-01-13 13:49:02.45	88.31	41.48	-43.0	-45.0	17.2	0.00e+00	0	28	0	734003200	58	7230
2026-01-13 13:49:03.46	88.80	41.52	-42.6	-44.4	18.0	0.00e+00	0	28	0	736100352	58	6705
2026-01-13 13:49:04.47	89.29	41.56	-42.6	-44.5	17.8	0.00e+00	0	28	0	738197504	58	6789
2026-01-13 13:49:05.48	89.78	41.59	-42.8	-44.7	17.7	0.00e+00	67	28	0	740294656	58	6984
2026-01-13 13:49:06.49	90.27	41.63	-42.6	-44.5	18.2	0.00e+00	0	28	0	742391808	58	6826
2026-01-13 13:49:07.50	90.76	41.66	-42.6	-44.4	17.8	0.00e+00	92	28	0	743440384	58	6744
2026-01-13 13:49:08.51	91.25	41.69	-43.7	-46.0	15.9	0.00e+00	0	28	0	745537536	58	8076
2026-01-13 13:49:09.52	91.74	41.72	-44.8	-48.0	14.7	0.00e+00	0	28	0	747634688	60	9062
2026-01-13 13:49:10.53	92.24	41.75	-44.7	-47.9	15.0	3.00e-06	0	28	0	749731840	60	9023
2026-01-13 13:49:11.54	92.73	41.77	-43.9	-46.4	16.2	0.00e+00	0	28	0	751828992	60	7534
2026-01-13 13:49:12.55	93.23	41.79	-42.1	-43.7	18.6	0.00e+00	92	28	0	752877568	58	6230
2026-01-13 13:49:13.56	93.72	41.81	-41.0	-42.3	20.0	0.00e+00	0	28	0	754974720	56	5964
2026-01-13 13:49:14.57	94.22	41.83	-40.4	-41.7	20.4	0.00e+00	48	28	0	757071872	54	6209
2026-01-13 13:49:15.57	94.71	41.84	-41.4	-42.9	19.4	0.00e+00	0	28	0	759169024	54	7097
2026-01-13 13:49:16.59	95.21	41.85	-42.2	-44.0	18.4	0.00e+00	0	28	0	761266176	56	7189
2026-01-13 13:49:17.59	95.70	41.86	-42.0	-43.7	19.1	0.00e+00	0	28	0	763363328	56	6964
2026-01-13 13:49:18.61	96.21	41.87	-41.2	-42.6	19.8	0.00e+00	0	28	0	764411904	56	6161
2026-01-13 13:49:19.61	96.70	41.87	-40.3	-41.6	20.7	0.00e+00	41	28	0	766509056	54	6131
2026-01-13 13:49:20.62	97.20	41.88	-40.6	-42.0	20.1	0.00e+00	0	28	0	768606208	54	6459
2026-01-13 13:49:21.63	97.70	41.88	-41.3	-42.9	19.2	0.00e+00	90	28	0	770703360	54	7104
2026-01-13 13:49:22.64	98.19	41.87	-41.7	-43.3	18.8	0.00e+00	0	28	0	772800512	56	6631
2026-01-13 13:49:23.65	98.69	41.87	-41.8	-43.4	19.0	0.00e+00	0	28	0	773849088	56	6700
2026-01-13 13:49:24.66	99.19	41.86	-40.9	-42.2	20.2	0.00e+00	0	28	0	775946240	56	5871
2026-01-13 13:49:25.67	99.69	41.85	-41.0	-42.4	19.8	0.00e+00	0	28	0	778043392	54	6757
2026-01-13 13:49:26.68	100.19	41.84	-41.5	-43.0	19.3	0.00e+00	42	28	0	780140544	54	7247
2026-01-13 13:49:27.69	100.68	41.83	-41.6	-43.2	19.3	0.00e+00	0	28	0	782237696	56	6550
2026-01-13 13:49:28.71	101.18	41.81	-39.9	-41.1	20.9	0.00e+00	73	28	0	783286272	54	5825
2026-01-13 13:49:29.71	101.68	41.79	-38.9	-39.9	21.9	0.00e+00	0	28	0	785383424	52	5653
2026-01-13 13:49:30.72	102.17	41.77	-38.7	-39.8	21.5	0.00e+00	44	27	0	787480576	50	6276
2026-01-13 13:49:31.73	102.67	41.75	-40.7	-42.1	20.0	0.00e+00	0	28	0	789577728	52	7293
2026-01-13 13:49:32.74	103.16	41.72	-42.9	-44.9	17.7	0.00e+00	0	28	0	791674880	56	8022
2026-01-13 13:49:33.75	103.65	41.69	-42.5	-44.3	18.3	0.00e+00	38	28	0	792723456	58	6661
2026-01-13 13:49:34.76	104.14	41.66	-41.3	-42.8	19.6	0.00e+00	0	28	0	794820608	56	6271
2026-01-13 13:49:35.77	104.64	41.63	-40.1	-41.4	20.7	0.00e+00	92	28	0	796917760	54	5993
2026-01-13 13:49:36.78	105.13	41.59	-40.5	-41.9	20.1	0.00e+00	0	28	0	799014912	54	6339
2026-01-13 13:49:37.79	105.62	41.56	-41.3	-42.8	19.7	0.00e+00	0	28	0	801112064	54	7061
2026-01-13 13:49:38.80	106.10	41.52	-40.3	-41.6	20.7	0.00e+00	0	28	0	802160640	54	6139
2026-01-13 13:49:39.81	106.59	41.48	-39.8	-41.0	21.3	0.00e+00	0	28	0	804257792	52	6451
2026-01-13 13:49:40.82	107.08	41.43	-39.5	-40.7	21.5	0.00e+00	46	28	0	806354944	52	6178
2026-01-13 13:49:41.83	107.56	41.39	-40.5	-41.9	20.3	0.00e+00	0	28	0	808452096	52	7100
2026-01-13 13:49:42.84	108.04	41.34	-41.0	-42.5	19.8	0.00e+00	92	28	0	810549248	54	6792
2026-01-13 13:49:43.84	108.52	41.29	-40.6	-42.0	20.3	0.00e+00	0	28	0	811597824	54	6433
2026-01-13 13:49:44.85	109.00	41.23	-40.1	-41.5	20.7	0.00e+00	92	28	0	813694976	54	6043
2026-01-13 13:49:45.86	109.48	41.18	-40.2	-41.6	20.7	0.00e+00	33	28	0	815792128	54	6116
2026-01-13 13:49:46.87	109.96	41.12	-40.9	-42.4	19.9	0.00e+00	0	28	0	817889280	54	6700
2026-01-13 13:49:47.88	110.43	41.06	-41.8	-43.5	18.8	0.00e+00	41	28	0	819986432	54	7619
2026-01-13 13:49:48.89	110.90	41.00	-41.7	-43.3	19.3	0.00e+00	0	28	0	821035008	56	6634
2026-01-13 13:49:49.90	111.38	40.94	-41.4	-43.0	19.5	0.00e+00	53	28	0	823132160	56	6404
2026-01-13 13:49:50.91	111.85	40.87	-41.0	-42.6	19.9	0.00e+00	0	28	0	825229312	56	6124
2026-01-13 13:49:51.92	112.31	40.81	-40.3	-41.6	20.6	0.00e+00	91	28	0	827326464	54	6166
2026-01-13 13:49:52.93	112.78	40.74	-40.1	-41.4	20.9	0.00e+00	0	28	0	829423616	54	6013
2026-01-13 13:49:53.94	113.24	40.67	-39.1	-40.3	21.5	0.00e+00	0	28	0	831520768	52	5913
2026-01-13 13:49:54.95	113.71	40.60	-38.8	-39.9	22.2	0.00e+00	0	28	0	832569344	52	5656
2026-01-13 13:49:55.96	114.17	40.52	-38.4	-39.4	22.4	0.00e+00	0	28	0	834666496	50	6006
2026-01-13 13:49:56.97	114.62	40.44	-38.8	-39.8	22.1	0.00e+00	46	28	0	836763648	50	6317
2026-01-13 13:49:57.98	115.08	40.37	-38.7	-39.8	22.1	0.00e+00	0	28	0	838860800	50	6300
2026-01-13 13:49:58.99	115.53	40.28	-38.6	-39.7	22.2	0.00e+00	25	28	0	840957952	50	6191
2026-01-13 13:50:00.00	115.98	40.20	-39.0	-40.2	21.8	0.00e+00	0	28	0	842006528	50	6556
2026-01-13 13:50:01.01	116.43	40.12	-39.5	-40.7	21.5	0.00e+00	0	28	0	844103680	50	7007
2026-01-13 13:50:02.02	116.88	40.03	-38.6	-39.7	22.2	0.00e+00	0	28	0	846200832	50	6201
2026-01-13 13:50:03.03	117.32	39.95	-37.8	-38.8	23.0	0.00e+00	0	28	0	848297984	50	5611
2026-01-13 13:50:04.04	117.77	39.86	-37.0	-37.9	23.7	0.00e+00	64	28	0	850395136	48	5650
2026-01-13 13:50:05.05	118.21	39.77	-37.4	-38.3	23.3	0.00e+00	0	28	0	851443712	46	6642
2026-01-13 13:50:06.06	118.64	39.68	-37.6	-38.6	23.0	0.00e+00	90	28	0	853540864	48	6149
2026-01-13 13:50:07.07	119.08	39.58	-36.9	-37.8	23.7	0.00e+00	0	28	0	855638016	48	5588
2026-01-13 13:50:08.08	119.51	39.49	-35.9	-36.7	24.7	0.00e+00	67	28	0	857735168	46	5503
2026-01-13 13:50:09.09	119.94	39.39	-35.2	-35.9	25.0	0.00e+00	0	28	0	859832320	44	5695
2026-01-13 13:50:10.10	120.37	39.29	-34.7	-35.4	25.4	0.00e+00	0	28	0	860880896	42	6000
2026-01-13 13:50:11.11	120.79	39.19	-34.9	-35.7	25.2	0.00e+00	38	28	0	862978048	42	6197
2026-01-13 13:50:12.12	121.21	39.09	-35.2	-36.0	25.0	0.00e+00	0	28	0	865075200	42	6403
2026-01-13 13:50:13.13	121.63	38.99	-35.7	-36.5	24.6	0.00e+00	64	28	0	867172352	42	6805
2026-01-13 13:50:14.14	122.05	38.88	-35.3	-36.1	24.9	0.00e+00	0	28	0	869269504	42	6535
2026-01-13 13:50:15.15	122.46	38.78	-35.1	-35.9	25.1	0.00e+00	92	28	0	870318080	42	6326
2026-01-13 13:50:16.16	122.88	38.67	-35.6	-36.4	24.6	0.00e+00	0	28	0	872415232	42	6719
2026-01-13 13:50:17.17	123.28	38.56	-36.0	-36.9	24.4	0.00e+00	33	28	0	874512384	44	6336
2026-01-13 13:50:18.17	123.69	38.46	-35.9	-36.8	24.5	0.00e+00	0	28	0	876609536	44	6275
2026-01-13 13:50:19.19	124.09	38.34	-35.0	-35.8	25.1	0.00e+00	0	28	0	878706688	44	5602
2026-01-13 13:50:20.19	124.49	38.23	-34.3	-35.0	25.6	0.00e+00	90	28	0	879755264	42	5734
2026-01-13 13:50:21.21	124.89	38.12	-34.1	-34.8	24.9	0.00e+00	0	28	0	881852416	42	5620
2026-01-13 13:50:22.21	125.28	38.01	-33.7	-34.4	25.9	0.00e+00	92	28	0	883949568	42	5374
2026-01-13 13:50:23.22	125.68	37.89	-34.0	-34.7	25.2	0.00e+00	0	28	0	886046720	40	6216
2026-01-13 13:50:24.23	126.07	37.78	-33.9	-34.6	25.9	0.00e+00	0	28	0	888143872	40	6145
2026-01-13 13:50:25.24	126.45	37.66	-33.9	-34.7	25.7	0.00e+00	0	28	0	889192448	40	6195
2026-01-13 13:50:26.25	126.84	37.54	-34.2	-35.0	25.6	0.00e+00	0	28	0	891289600	40	6404
2026-01-13 13:50:27.26	127.22	37.42	-34.8	-35.6	25.2	0.00e+00	43	28	0	893386752	42	6148
2026-01-13 13:50:28.27	127.60	37.30	-35.5	-36.3	24.8	0.00e+00	0	28	0	895483904	42	6657
2026-01-13 13:50:29.27	127.97	37.18	-35.1	-35.9	25.0	0.00e+00	92	28	0	897581056	42	6376
2026-01-13 13:50:30.28	128.35	37.06	-34.7	-35.4	25.3	0.00e+00	0	28	0	899678208	42	6014
2026-01-13 13:50:31.29	128.72	36.94	-34.3	-35.1	25.3	0.00e+00	0	28	0	900726784	42	5763
2026-01-13 13:50:32.30	129.09	36.82	-34.6	-35.4	25.4	0.00e+00	0	28	0	902823936	42	5968
2026-01-13 13:50:33.31	129.45	36.69	-34.9	-35.7	25.3	0.00e+00	0	28	0	904921088	42	6195
2026-01-13 13:50:34.32	129.81	36.57	-35.1	-35.9	25.0	0.00e+00	44	28	0	907018240	42	6331
2026-01-13 13:50:35.33	130.17	36.44	-35.4	-36.2	24.8	0.00e+00	0	28	0	909115392	42	6558
2026-01-13 13:50:36.34	130.53	36.31	-35.1	-35.9	25.0	0.00e+00	92	28	0	910163968	42	6371
2026-01-13 13:50:37.35	130.89	36.19	-35.5	-36.3	24.7	0.00e+00	0	28	0	912261120	42	6620
2026-01-13 13:50:38.36	131.24	36.06	-36.2	-37.1	24.2	0.00e+00	0	28	0	914358272	44	6515
2026-01-13 13:50:39.37	131.59	35.93	-36.8	-37.7	23.8	0.00e+00	0	28	0	916455424	46	6223
2026-01-13 13:50:40.38	131.93	35.80	-37.2	-38.2	23.5	0.00e+00	0	28	0	918552576	46	6541
2026-01-13 13:50:41.38	132.27	35.67	-36.8	-37.7	23.7	0.00e+00	36	28	0	919601152	46	6226
2026-01-13 13:50:42.39	132.61	35.54	-36.4	-37.3	24.1	0.00e+00	0	28	0	921698304	46	5907
2026-01-13 13:50:43.40	132.95	35.41	-36.1	-36.9	24.3	0.00e+00	92	28	0	923795456	46	5686
2026-01-13 13:50:44.41	133.29	35.28	-36.6	-37.4	24.0	0.00e+00	0	28	0	925892608	46	6013
2026-01-13 13:50:45.42	133.62	35.15	-36.8	-37.7	23.8	0.00e+00	92	28	0	927989760	46	6207
2026-01-13 13:50:46.43	133.95	35.01	-37.0	-37.9	23.7	0.00e+00	0	28	0	929038336	46	6362
2026-01-13 13:50:47.44	134.28	34.88	-36.7	-37.5	23.9	0.00e+00	0	28	0	931135488	46	6089
2026-01-13 13:50:48.45	134.60	34.75	-35.6	-36.3	24.8	0.00e+00	0	28	0	933232640	44	5956
2026-01-13 13:50:49.46	134.93	34.61	-35.7	-36.5	24.6	0.00e+00	0	28	0	935329792	44	6057
2026-01-13 13:50:50.47	135.25	34.48	-36.7	-37.5	23.8	0.00e+00	34	28	0	937426944	44	6830
2026-01-13 13:50:51.48	135.56	34.34	-38.6	-39.6	22.2	0.00e+00	0	28	0	938475520	48	6922
2026-01-13 13:50:52.49	135.88	34.21	-38.9	-40.0	21.9	0.00e+00	80	28	0	940572672	50	6402
2026-01-13 13:50:53.50	136.19	34.07	-38.2	-39.3	22.6	0.00e+00	0	28	0	942669824	50	5916
2026-01-13 13:50:54.51	136.50	33.94	-36.9	-37.8	23.8	0.00e+00	0	28	0	944766976	48	5586
2026-01-13 13:50:55.52	136.81	33.80	-36.4	-37.3	24.0	0.00e+00	0	28	0	946864128	46	5905
2026-01-13 13:50:56.53	137.11	33.66	-37.6	-38.6	23.1	0.00e+00	0	28	0	947912704	46	6876
2026-01-13 13:50:57.54	137.41	33.53	-39.6	-40.9	21.0	0.00e+00	90	28	0	950009856	50	7097
2026-01-13 13:50:58.55	137.71	33.39	-41.3	-42.9	19.4	0.00e+00	0	28	0	952107008	54	7140
2026-01-13 13:50:59.55	138.01	33.25	-41.5	-43.1	19.2	0.00e+00	42	28	0	954204160	54	7278
2026-01-13 13:51:00.56	138.30	33.12	-40.4	-41.7	20.5	0.00e+00	0	28	0	956301312	54	6196
2026-01-13 13:51:01.57	138.59	32.98	-38.8	-39.9	22.2	0.00e+00	0	28	0	957349888	52	5642
2026-01-13 13:51:02.58	138.88	32.84	-38.2	-39.1	22.7	0.00e+00	0	28	0	959447040	50	5809
2026-01-13 13:51:03.59	139.17	32.70	-37.9	-38.8	22.9	0.00e+00	0	28	0	961544192	50	5585
2026-01-13 13:51:04.60	139.46	32.57	-39.1	-40.2	21.7	0.00e+00	39	28	0	963641344	50	6559
2026-01-13 13:51:05.61	139.74	32.43	-41.5	-43.2	19.0	0.00e+00	0	28	0	965738496	54	7362
2026-01-13 13:51:06.62	140.02	32.29	-42.7	-44.7	17.5	0.00e+00	66	28	0	966787072	58	7006
2026-01-13 13:51:07.63	140.30	32.15	-40.9	-42.4	20.0	0.00e+00	0	28	0	968884224	56	5968
2026-01-13 13:51:08.64	140.57	32.01	-38.3	-39.3	22.4	0.00e+00	0	28	0	970981376	50	5939
2026-01-13 13:51:09.65	140.85	31.87	-37.1	-38.0	23.6	0.00e+00	0	28	0	973078528	48	5720
2026-01-13 13:51:10.66	141.12	31.74	-36.5	-37.4	23.9	0.00e+00	0	28	0	975175680	46	5975
2026-01-13 13:51:11.67	141.39	31.60	-37.5	-38.4	23.2	0.00e+00	38	28	0	976224256	46	6702
2026-01-13 13:51:12.68	141.65	31.46	-39.5	-40.6	21.4	0.00e+00	0	28	0	978321408	50	6904
2026-01-13 13:51:13.69	141.92	31.32	-41.0	-42.5	19.7	0.00e+00	92	28	0	980418560	54	6819
2026-01-13 13:51:14.70	142.18	31.18	-41.2	-42.7	19.6	0.00e+00	0	28	0	982515712	54	6985
2026-01-13 13:51:15.71	142.44	31.04	-39.6	-40.8	21.2	0.00e+00	0	28	0	984612864	54	5621
2026-01-13 13:51:16.72	142.70	30.90	-38.3	-39.2	22.5	0.00e+00	0	28	0	985661440	50	5892
2026-01-13 13:51:17.73	142.95	30.77	-37.4	-38.3	23.5	0.00e+00	0	28	0	987758592	48	5916
2026-01-13 13:51:18.74	143.21	30.63	-36.8	-37.7	23.7	0.00e+00	36	28	0	989855744	48	5527
2026-01-13 13:51:19.75	143.46	30.49	-37.4	-38.3	23.1	0.00e+00	0	28	0	991952896	48	5909
2026-01-13 13:51:20.76	143.71	30.35	-38.3	-39.4	22.3	0.00e+00	69	28	0	994050048	48	6698
2026-01-13 13:51:21.77	143.95	30.21	-39.4	-40.6	21.2	0.00e+00	0	28	0	995098624	50	6913
2026-01-13 13:51:22.77	144.20	30.07	-39.9	-41.2	20.8	0.00e+00	90	28	0	997195776	52	6584
2026-01-13 13:51:23.78	144.44	29.94	-39.1	-40.2	21.8	0.00e+00	0	28	0	999292928	52	5888
2026-01-13 13:51:24.79	144.68	29.80	-37.8	-38.7	23.0	0.00e+00	0	28	0	1001390080	50	5559
2026-01-13 13:51:25.80	144.92	29.66	-37.2	-38.1	23.5	0.00e+00	42	28	0	1003487232	48	5810
2026-01-13 13:51:26.81	145.16	29.52	-36.7	-37.6	23.9	0.00e+00	0	28	0	1005584384	46	6121
2026-01-13 13:51:27.82	145.39	29.39	-37.2	-38.1	23.5	0.00e+00	90	28	0	1006632960	46	6498
2026-01-13 13:51:28.83	145.63	29.25	-38.4	-39.4	22.3	0.00e+00	0	28	0	1008730112	48	6718
2026-01-13 13:51:29.84	145.86	29.11	-39.6	-40.8	21.3	0.00e+00	92	28	0	1010827264	50	7053
2026-01-13 13:51:30.85	146.09	28.97	-40.2	-41.5	20.7	0.00e+00	0	28	0	1012924416	52	6848
2026-01-13 13:51:31.85	146.31	28.84	-39.7	-41.0	21.1	0.00e+00	0	28	0	1015021568	52	6424
2026-01-13 13:51:32.86	146.54	28.70	-39.1	-40.2	21.7	0.00e+00	0	28	0	1016070144	52	5895
2026-01-13 13:51:33.87	146.76	28.57	-37.2	-38.1	23.4	0.00e+00	0	28	0	1018167296	48	5813
2026-01-13 13:51:34.88	146.98	28.43	-36.2	-37.0	24.2	0.00e+00	88	28	0	1020264448	46	5732
2026-01-13 13:51:35.89	147.20	28.29	-36.3	-37.2	24.1	0.00e+00	0	28	0	1022361600	46	5837
2026-01-13 13:51:36.90	147.42	28.16	-36.2	-37.0	24.1	0.00e+00	92	28	0	1024458752	46	5761
2026-01-13 13:51:37.91	147.64	28.02	-36.9	-37.8	23.6	0.00e+00	0	28	0	1025507328	46	6276
2026-01-13 13:51:38.92	147.85	27.89	-37.8	-38.7	23.0	0.00e+00	0	28	0	1027604480	48	6235
2026-01-13 13:51:39.93	148.07	27.75	-38.6	-39.7	22.1	0.00e+00	0	28	0	1029701632	48	6973
2026-01-13 13:51:40.94	148.28	27.62	-38.9	-40.1	22.1	0.00e+00	0	28	0	1031798784	50	6508
2026-01-13 13:51:41.95	148.49	27.48	-38.2	-39.3	22.8	0.00e+00	40	28	0	1033895936	50	5906
2026-01-13 13:51:42.96	148.69	27.35	-37.6	-38.6	23.0	0.00e+00	0	28	0	1034944512	48	6164
2026-01-13 13:51:43.97	148.90	27.21	-37.3	-38.2	23.4	0.00e+00	90	28	0	1037041664	48	5880
2026-01-13 13:51:44.98	149.10	27.08	-37.0	-37.9	23.5	0.00e+00	0	28	0	1039138816	48	5693
2026-01-13 13:51:45.98	149.30	26.95	-36.9	-37.8	23.6	0.00e+00	0	28	0	1041235968	48	5606
2026-01-13 13:51:46.99	149.51	26.82	-37.1	-38.0	23.4	0.00e+00	0	28	0	1043333120	48	5761
2026-01-13 13:51:48.00	149.71	26.68	-37.8	-38.8	22.7	0.00e+00	0	28	0	1044381696	48	6255
2026-01-13 13:51:49.01	149.90	26.55	-37.9	-38.9	22.8	0.00e+00	14	28	0	1046478848	48	6319
2026-01-13 13:51:50.02	150.10	26.42	-37.7	-38.7	22.8	0.00e+00	0	28	0	1048576000	48	6223
2026-01-13 13:51:51.03	150.29	26.29	-37.9	-38.9	22.7	0.00e+00	67	28	0	1050673152	48	6370
2026-01-13 13:51:52.04	150.49	26.15	-37.7	-38.6	22.6	0.00e+00	0	28	0	1052770304	48	6170
2026-01-13 13:51:53.05	150.68	26.02	-37.5	-38.4	22.8	0.00e+00	69	28	0	1053818880	48	6008
2026-01-13 13:51:54.06	150.87	25.89	-37.0	-37.9	23.6	0.00e+00	0	28	0	1055916032	48	5668
2026-01-13 13:51:55.07	151.06	25.76	-36.8	-37.7	23.7	0.00e+00	0	28	0	1058013184	48	5524
2026-01-13 13:51:56.08	151.24	25.63	-36.6	-37.4	23.9	0.00e+00	13	28	0	1060110336	46	6023
2026-01-13 13:51:57.09	151.43	25.50	-36.4	-37.3	23.8	0.00e+00	0	28	0	1062207488	46	5898
2026-01-13 13:51:58.10	151.61	25.37	-36.4	-37.2	24.0	0.00e+00	92	28	0	1063256064	46	5878
2026-01-13 13:51:59.11	151.80	25.24	-36.5	-37.4	24.0	0.00e+00	0	28	0	1065353216	46	5965
2026-01-13 13:52:00.12	151.98	25.11	-36.6	-37.4	24.0	0.00e+00	92	28	0	1067450368	46	6024
2026-01-13 13:52:01.13	152.16	24.98	-36.5	-37.3	24.0	0.00e+00	0	28	0	1069547520	46	5942
2026-01-13 13:52:02.14	152.33	24.85	-36.5	-37.4	24.0	0.00e+00	0	28	0	1071644672	46	5981
2026-01-13 13:52:03.14	152.51	24.73	-36.7	-37.6	23.8	0.00e+00	0	28	0	1073741824	46	6149
2026-01-13 13:52:04.15	152.68	24.60	-36.8	-37.7	23.7	0.00e+00	0	28	0	1074790400	46	6217
2026-01-13 13:52:05.16	152.86	24.47	-37.0	-37.9	23.4	0.00e+00	37	28	0	1076887552	46	6383
2026-01-13 13:52:06.17	153.03	24.35	-37.4	-38.3	23.3	0.00e+00	0	28	0	1078984704	46	6660
2026-01-13 13:52:07.18	153.20	24.22	-36.9	-37.8	23.5	0.00e+00	90	28	0	1081081856	46	6290
2026-01-13 13:52:08.19	153.37	24.09	-37.0	-37.9	23.5	0.00e+00	0	28	0	1083179008	46	6363
2026-01-13 13:52:09.20	153.54	23.97	-36.8	-37.7	23.7	0.00e+00	0	28	0	1084227584	46	6178
2026-01-13 13:52:10.21	153.71	23.84	-36.7	-37.5	23.6	0.00e+00	0	28	0	1086324736	46	6096
2026-01-13 13:52:11.22	153.87	23.72	-36.8	-37.7	23.6	0.00e+00	0	28	0	1088421888	46	6226
2026-01-13 13:52:12.23	154.04	23.59	-36.7	-37.6	23.7	0.00e+00	41	28	0	1090519040	46	6131
2026-01-13 13:52:13.24	154.20	23.47	-36.9	-37.8	23.5	0.00e+00	0	28	0	1092616192	46	6257
2026-01-13 13:52:14.25	154.37	23.34	-37.2	-38.1	23.3	0.00e+00	92	28	0	1093664768	46	6522
2026-01-13 13:52:15.26	154.53	23.22	-37.4	-38.3	23.2	0.00e+00	0	28	0	1095761920	46	6651
2026-01-13 13:52:16.27	154.69	23.09	-37.9	-38.9	22.6	0.00e+00	0	28	0	1097859072	48	6356
2026-01-13 13:52:17.27	154.84	22.97	-38.2	-39.2	22.5	0.00e+00	0	28	0	1099956224	48	6587
2026-01-13 13:52:18.29	155.00	22.85	-38.5	-39.6	22.2	0.00e+00	0	28	0	1102053376	48	6852
2026-01-13 13:52:19.30	155.16	22.73	-38.8	-39.9	22.0	0.00e+00	41	28	0	1103101952	48	7112
2026-01-13 13:52:20.31	155.31	22.60	-38.3	-39.4	22.2	0.00e+00	0	28	0	1105199104	50	5990
2026-01-13 13:52:21.32	155.47	22.48	-38.3	-39.4	22.3	0.00e+00	92	28	0	1107296256	50	5985
2026-01-13 13:52:22.33	155.62	22.36	-38.1	-39.2	22.4	0.00e+00	0	28	0	1109393408	50	5848
2026-01-13 13:52:23.34	155.77	22.24	-37.6	-38.6	23.0	0.00e+00	0	28	0	1111490560	50	5452
2026-01-13 13:52:24.35	155.92	22.12	-37.6	-38.5	23.0	0.00e+00	0	28	0	1112539136	48	6096
2026-01-13 13:52:25.36	156.07	22.00	-37.7	-38.7	22.9	0.00e+00	0	28	0	1114636288	48	6210
2026-01-13 13:52:26.37	156.22	21.88	-37.6	-38.5	23.0	0.00e+00	40	28	0	1116733440	48	6060
2026-01-13 13:52:27.38	156.37	21.76	-37.8	-38.8	22.9	0.00e+00	0	28	0	1118830592	48	6251
2026-01-13 13:52:28.39	156.51	21.64	-38.0	-39.0	22.6	0.00e+00	90	28	0	1120927744	48	6438
2026-01-13 13:52:29.40	156.66	21.52	-38.5	-39.5	22.1	0.00e+00	0	28	0	1121976320	48	6819
2026-01-13 13:52:30.41	156.80	21.41	-38.8	-39.9	21.7	0.00e+00	92	28	0	1124073472	48	7114
2026-01-13 13:52:31.42	156.94	21.29	-39.1	-40.3	21.5	0.00e+00	0	28	0	1126170624	50	6629
2026-01-13 13:52:32.43	157.08	21.17	-38.8	-40.0	21.9	0.00e+00	0	28	0	1128267776	50	6397
2026-01-13 13:52:33.44	157.23	21.05	-39.0	-40.1	21.9	0.00e+00	33	28	0	1130364928	50	6497
2026-01-13 13:52:34.44	157.36	20.94	-38.3	-39.3	22.4	0.00e+00	0	28	0	1131413504	50	5949
2026-01-13 13:52:35.45	157.50	20.82	-37.8	-38.7	22.8	0.00e+00	27	28	0	1133510656	50	5560
2026-01-13 13:52:36.46	157.64	20.71	-37.3	-38.2	23.1	0.00e+00	0	28	0	1135607808	48	5879
2026-01-13 13:52:37.47	157.78	20.59	-37.0	-37.9	23.4	0.00e+00	92	28	0	1137704960	48	5688
2026-01-13 13:52:38.48	157.91	20.47	-36.9	-37.8	23.5	0.00e+00	0	28	0	1139802112	48	5588
2026-01-13 13:52:39.49	158.05	20.36	-36.7	-37.6	23.8	0.00e+00	0	28	0	1141899264	46	6136
2026-01-13 13:52:40.50	158.18	20.24	-36.4	-37.2	23.8	0.00e+00	35	28	0	1142947840	46	5884
2026-01-13 13:52:41.51	158.31	20.13	-36.7	-37.6	23.7	0.00e+00	0	28	0	1145044992	46	6161
2026-01-13 13:52:42.52	158.44	20.02	-36.7	-37.6	23.7	0.00e+00	32	28	0	1147142144	46	6121
2026-01-13 13:52:43.53	158.58	19.90	-36.9	-37.8	23.5	0.00e+00	0	28	0	1149239296	46	6300
2026-01-13 13:52:44.54	158.71	19.79	-37.2	-38.2	23.2	0.00e+00	67	28	0	1151336448	46	6545
2026-01-13 13:52:45.55	158.83	19.68	-37.4	-38.4	23.1	0.00e+00	0	28	0	1152385024	46	6700
2026-01-13 13:52:46.55	158.96	19.57	-37.7	-38.7	22.8	0.00e+00	0	28	0	1154482176	48	6220
2026-01-13 13:52:47.56	159.09	19.46	-37.8	-38.8	22.8	0.00e+00	0	28	0	1156579328	48	6303
2026-01-13 13:52:48.57	159.21	19.34	-37.6	-38.6	22.9	0.00e+00	0	28	0	1158676480	48	6115
2026-01-13 13:52:49.58	159.34	19.23	-37.9	-39.0	22.5	0.00e+00	56	28	0	1160773632	48	6408
2026-01-13 13:52:50.59	159.46	19.12	-37.6	-38.6	23.0	0.00e+00	0	28	0	1161822208	48	6161
2026-01-13 13:52:51.60	159.59	19.01	-37.8	-38.8	22.7	0.00e+00	58	28	0	1163919360	48	6247
2026-01-13 13:52:52.61	159.71	18.90	-37.8	-38.8	22.6	0.00e+00	0	28	0	1166016512	48	6297
2026-01-13 13:52:53.62	159.83	18.79	-37.7	-38.6	22.9	0.00e+00	0	28	0	1168113664	48	6160
2026-01-13 13:52:54.63	159.95	18.68	-37.9	-38.9	22.6	0.00e+00	0	28	0	1170210816	48	6379
2026-01-13 13:52:55.64	160.07	18.57	-37.1	-38.0	23.4	0.00e+00	0	28	0	1171259392	48	5704
2026-01-13 13:52:56.65	160.19	18.46	-36.9	-37.8	23.4	0.00e+00	48	28	0	1173356544	48	5611
2026-01-13 13:52:57.66	160.31	18.36	-36.9	-37.8	23.5	0.00e+00	0	28	0	1175453696	48	5573
2026-01-13 13:52:58.66	160.43	18.25	-36.6	-37.5	23.8	0.00e+00	84	28	0	1177550848	46	6068
2026-01-13 13:52:59.67	160.55	18.14	-37.0	-37.9	23.3	0.00e+00	0	28	0	1179648000	46	6345
2026-01-13 13:53:00.68	160.66	18.03	-37.1	-38.1	23.2	0.00e+00	0	28	0	1180696576	46	6477
2026-01-13 13:53:01.69	160.78	17.93	-36.9	-37.8	23.5	0.00e+00	0	28	0	1182793728	46	6299
2026-01-13 13:53:02.70	160.89	17.82	-37.3	-38.3	23.1	0.00e+00	0	28	0	1184890880	46	6623
2026-01-13 13:53:03.71	161.01	17.72	-37.3	-38.2	23.1	0.00e+00	36	28	0	1186988032	46	6613
2026-01-13 13:53:04.72	161.12	17.61	-37.3	-38.2	23.1	0.00e+00	0	28	0	1189085184	46	6588
2026-01-13 13:53:05.73	161.23	17.50	-37.6	-38.6	22.8	0.00e+00	90	28	0	1190133760	46	6854
2026-01-13 13:53:06.74	161.34	17.40	-37.4	-38.4	23.0	0.00e+00	0	28	0	1192230912	46	6705
2026-01-13 13:53:07.75	161.45	17.29	-37.9	-38.9	22.6	0.00e+00	92	28	0	1194328064	48	6370
2026-01-13 13:53:08.76	161.56	17.19	-37.9	-38.9	22.6	0.00e+00	0	28	0	1196425216	48	6345
2026-01-13 13:53:09.77	161.67	17.09	-37.7	-38.7	22.7	0.00e+00	0	28	0	1198522368	48	6176
2026-01-13 13:53:10.78	161.78	16.98	-38.1	-39.2	22.3	0.00e+00	0	28	0	1199570944	48	6555
2026-01-13 13:53:11.79	161.89	16.88	-38.1	-39.1	22.4	0.00e+00	0	28	0	1201668096	48	6515
2026-01-13 13:53:12.80	162.00	16.78	-38.4	-39.4	22.1	0.00e+00	69	28	0	1203765248	48	6750
2026-01-13 13:53:13.81	162.10	16.67	-38.7	-39.7	21.9	0.00e+00	0	28	0	1205862400	48	7007
2026-01-13 13:53:14.82	162.21	16.57	-38.6	-39.7	21.8	0.00e+00	92	28	0	1207959552	50	6180
2026-01-13 13:53:15.83	162.32	16.47	-39.3	-40.4	21.2	0.00e+00	0	28	0	1210056704	50	6756
2026-01-13 13:53:16.83	162.42	16.37	-39.3	-40.4	21.2	0.00e+00	0	28	0	1211105280	50	6751
2026-01-13 13:53:17.84	162.52	16.27	-39.5	-40.7	21.1	0.00e+00	0	28	0	1213202432	50	6981
2026-01-13 13:53:18.85	162.63	16.17	-39.8	-41.0	20.8	0.00e+00	0	28	0	1215299584	52	6458
2026-01-13 13:53:19.86	162.73	16.07	-39.8	-41.1	20.7	0.00e+00	36	28	0	1217396736	52	6506
2026-01-13 13:53:20.87	162.83	15.97	-40.1	-41.4	20.4	0.00e+00	0	28	0	1218445312	52	6751
2026-01-13 13:53:21.88	162.93	15.87	-39.9	-41.2	20.6	0.00e+00	92	28	0	1220542464	52	6589
2026-01-13 13:53:22.89	163.03	15.77	-39.7	-41.0	20.9	0.00e+00	0	28	0	1222639616	52	6397
