passes_logs/2026/01/13/R4.6S_Anadyr/R4.6S_Anadyr__20260113_190610_AQUA_rec.log

#Pass ID: 20260113_190610_AQUA
#Satellite: AQUA
#Configuration: AQUA
#almurnet v.1.7.20251203
#Start time: 2026-01-13 19:06:12

#Version: 2.2.20231116
#Station: R4.6S_Anadyr
#Location: 177.4865 lon 64.73178 lat
#TLE: 1 27424U 02022A   26012.29577270  .00001027  00000+0  21555-3 0  9995
#TLE: 2 27424  98.4078 338.6778 0002034  81.5885  29.6294 14.61817302260499

#Time	Az	El	Level	Level2	SNR	BER	BlckErr	Temp	State	Recorded	gain1	gain2
2026-01-13 19:06:12.31	27.99	0.07	-48.3	-63.2	3.5	1.51e+00	0	24	0	0	60	52307
2026-01-13 19:06:13.31	27.92	0.13	-48.7	-66.6	3.5	3.02e+01	0	25	104	0	60	82349
2026-01-13 19:06:14.33	27.85	0.18	-48.7	-66.6	3.5	3.02e+01	0	25	104	0	60	82627
2026-01-13 19:06:15.33	27.77	0.23	-48.7	-66.7	3.5	3.02e+01	0	26	104	0	60	83058
2026-01-13 19:06:16.34	27.70	0.29	-48.7	-66.7	3.5	3.02e+01	0	26	104	0	60	82861
2026-01-13 19:06:17.35	27.63	0.34	-48.8	-66.7	3.5	3.02e+01	0	26	104	0	60	83273
2026-01-13 19:06:18.36	27.55	0.39	-48.8	-66.7	3.5	3.02e+01	0	26	104	0	60	82909
2026-01-13 19:06:19.37	27.48	0.45	-48.5	-66.7	3.5	3.02e+01	0	26	104	0	60	83231
2026-01-13 19:06:20.38	27.40	0.50	-48.7	-66.6	3.5	3.02e+01	0	26	104	0	60	82286
2026-01-13 19:06:21.39	27.33	0.56	-48.4	-66.6	3.5	3.02e+01	0	26	104	0	60	81823
2026-01-13 19:06:22.40	27.25	0.61	-48.4	-66.5	3.5	3.02e+01	0	26	104	0	60	80962
2026-01-13 19:06:23.41	27.17	0.66	-48.2	-66.3	3.5	3.02e+01	0	26	104	0	60	79661
2026-01-13 19:06:24.42	27.10	0.72	-48.1	-66.2	3.5	3.02e+01	0	26	104	0	60	79009
2026-01-13 19:06:25.43	27.02	0.77	-47.9	-66.0	3.5	3.02e+01	0	26	104	0	60	77192
2026-01-13 19:06:26.44	26.94	0.83	-47.9	-65.9	3.5	3.02e+01	0	26	104	0	60	75612
2026-01-13 19:06:27.45	26.87	0.88	-47.6	-65.6	3.5	3.02e+01	0	26	104	0	60	73551
2026-01-13 19:06:28.46	26.79	0.94	-47.3	-65.3	3.5	3.02e+01	0	26	104	0	60	70783
2026-01-13 19:06:29.47	26.71	0.99	-47.0	-65.0	3.5	3.02e+01	0	26	104	0	60	68188
2026-01-13 19:06:30.48	26.63	1.05	-47.0	-64.9	3.5	3.02e+01	0	26	104	0	60	67433
2026-01-13 19:06:31.48	26.55	1.10	-47.0	-64.9	3.5	3.02e+01	0	26	104	0	60	67838
2026-01-13 19:06:32.49	26.47	1.15	-47.0	-64.9	3.5	3.02e+01	0	26	104	0	60	67748
2026-01-13 19:06:33.50	26.40	1.21	-47.0	-64.9	3.5	3.02e+01	0	26	104	0	60	67852
2026-01-13 19:06:34.51	26.32	1.26	-47.0	-64.9	3.5	3.02e+01	0	26	104	0	60	67810
2026-01-13 19:06:35.52	26.24	1.32	-47.0	-64.9	3.5	3.02e+01	0	26	104	0	60	67459
2026-01-13 19:06:36.53	26.16	1.37	-47.0	-64.9	3.5	3.02e+01	0	26	104	0	60	67484
2026-01-13 19:06:37.54	26.07	1.43	-47.0	-64.9	3.5	3.02e+01	0	26	104	0	60	67433
2026-01-13 19:06:38.55	25.99	1.49	-47.0	-64.9	3.5	3.02e+01	0	26	104	0	60	67489
2026-01-13 19:06:39.56	25.91	1.54	-46.9	-64.9	3.5	3.02e+01	0	26	104	0	60	67435
2026-01-13 19:06:40.57	25.83	1.60	-47.0	-64.9	3.5	3.02e+01	0	26	104	0	60	67522
2026-01-13 19:06:41.58	25.75	1.65	-47.0	-64.8	3.5	3.02e+01	0	26	104	0	60	67245
2026-01-13 19:06:42.59	25.67	1.71	-46.9	-64.8	3.5	3.02e+01	0	26	104	0	60	67165
2026-01-13 19:06:43.60	25.58	1.76	-46.9	-64.8	3.5	3.02e+01	0	26	104	0	60	66789
2026-01-13 19:06:44.61	25.50	1.82	-46.9	-64.8	3.5	3.02e+01	0	26	104	0	60	67129
2026-01-13 19:06:45.62	25.42	1.87	-46.9	-64.8	3.5	3.02e+01	0	26	104	0	60	67068
2026-01-13 19:06:46.63	25.33	1.93	-46.9	-64.9	3.5	3.02e+01	0	26	104	0	60	67311
2026-01-13 19:06:47.64	25.25	1.98	-46.9	-64.9	3.5	3.02e+01	0	26	104	0	60	67475
2026-01-13 19:06:48.65	25.16	2.04	-46.9	-64.8	3.5	3.02e+01	0	26	104	0	60	67128
2026-01-13 19:06:49.66	25.08	2.10	-46.9	-64.8	3.5	3.02e+01	0	26	104	0	60	67261
2026-01-13 19:06:50.67	24.99	2.15	-46.9	-64.8	3.5	3.02e+01	0	26	104	0	60	66952
2026-01-13 19:06:51.68	24.91	2.21	-46.9	-64.7	3.5	3.02e+01	0	26	104	0	60	66187
2026-01-13 19:06:52.69	24.82	2.26	-46.9	-64.6	3.5	3.02e+01	0	26	104	0	60	65392
2026-01-13 19:06:53.71	24.73	2.32	-46.9	-64.5	3.5	3.02e+01	0	26	104	0	60	64841
2026-01-13 19:06:54.72	24.65	2.38	-46.9	-64.5	3.5	3.02e+01	0	26	104	0	60	64559
2026-01-13 19:06:55.72	24.56	2.43	-46.9	-64.7	3.5	3.02e+01	0	26	104	0	60	65821
2026-01-13 19:06:56.74	24.47	2.49	-46.9	-64.8	3.5	3.02e+01	0	26	104	0	60	66715
2026-01-13 19:06:57.75	24.38	2.55	-46.9	-64.9	3.5	3.02e+01	0	26	104	0	60	67445
2026-01-13 19:06:58.75	24.30	2.60	-46.9	-64.7	3.5	3.02e+01	0	26	104	0	60	66405
2026-01-13 19:06:59.76	24.21	2.66	-46.9	-64.8	3.5	3.02e+01	0	26	104	0	60	66537
2026-01-13 19:07:00.77	24.12	2.72	-46.9	-64.8	3.5	3.02e+01	0	26	104	0	60	66498
2026-01-13 19:07:01.78	24.03	2.77	-46.9	-64.7	3.5	3.02e+01	0	26	104	0	60	66097
2026-01-13 19:07:02.79	23.94	2.83	-46.8	-64.3	3.5	3.02e+01	0	26	104	0	60	63327
2026-01-13 19:07:03.80	23.85	2.89	-46.7	-63.9	3.5	3.02e+01	0	26	104	0	60	60531
2026-01-13 19:07:04.81	23.76	2.94	-46.7	-63.9	3.5	3.02e+01	0	26	104	0	60	60193
2026-01-13 19:07:05.82	23.67	3.00	-46.8	-64.3	3.5	3.02e+01	0	26	104	0	60	63246
2026-01-13 19:07:06.83	23.57	3.06	-46.8	-64.2	3.5	3.02e+01	0	26	104	0	60	62101
2026-01-13 19:07:07.84	23.48	3.11	-46.2	-61.7	3.5	3.02e+01	0	26	104	0	60	46738
2026-01-13 19:07:08.85	23.39	3.17	-45.3	-59.1	3.5	3.02e+01	0	26	104	0	60	34739
2026-01-13 19:07:09.86	23.30	3.23	-44.3	-56.9	3.6	3.02e+01	0	26	104	0	60	26994
2026-01-13 19:07:10.87	23.20	3.29	-45.9	-60.5	3.5	3.02e+01	0	26	104	0	60	40711
2026-01-13 19:07:11.88	23.11	3.34	-40.6	-51.6	3.5	3.02e+01	0	26	104	0	56	18448
2026-01-13 19:07:12.88	23.02	3.40	-46.8	-64.5	3.5	3.02e+01	0	26	104	0	60	64518
2026-01-13 19:07:13.89	22.92	3.46	-47.0	-64.5	3.5	3.02e+01	0	26	104	0	60	64278
2026-01-13 19:07:14.90	22.83	3.51	-40.2	-51.1	3.5	3.02e+01	0	26	104	0	54	19577
2026-01-13 19:07:15.91	22.73	3.57	-39.6	-50.4	3.5	3.02e+01	0	26	104	0	54	17967
2026-01-13 19:07:16.92	22.64	3.63	-40.0	-50.9	3.5	3.02e+01	0	26	104	0	54	18990
2026-01-13 19:07:17.93	22.54	3.69	-38.9	-49.5	3.6	3.02e+01	0	26	104	0	52	18303
2026-01-13 19:07:18.94	22.44	3.75	-38.4	-48.9	3.5	3.02e+01	0	26	104	0	52	17081
2026-01-13 19:07:19.94	22.35	3.80	-38.1	-48.7	3.5	3.02e+01	0	26	104	0	50	18617
2026-01-13 19:07:20.95	22.25	3.86	-44.3	-57.0	3.5	3.02e+01	0	26	104	0	60	27112
2026-01-13 19:07:21.96	22.15	3.92	-47.0	-64.8	3.5	3.02e+01	0	26	104	0	60	66525
2026-01-13 19:07:22.97	22.05	3.98	-40.4	-51.3	3.5	3.02e+01	0	26	104	0	56	17765
2026-01-13 19:07:23.98	21.96	4.03	-47.0	-64.6	3.5	3.02e+01	0	26	104	0	60	65610
2026-01-13 19:07:24.99	21.86	4.09	-40.0	-50.9	3.6	3.02e+01	0	26	104	0	56	16942
2026-01-13 19:07:26.00	21.76	4.15	-38.9	-49.6	3.5	3.02e+01	0	26	104	0	54	16473
2026-01-13 19:07:27.01	21.66	4.21	-39.1	-49.8	3.5	3.02e+01	0	26	104	0	52	18864
2026-01-13 19:07:28.02	21.56	4.27	-38.8	-49.4	3.5	3.02e+01	0	26	104	0	52	17925
2026-01-13 19:07:29.03	21.45	4.33	-46.6	-62.2	3.5	3.02e+01	0	26	104	0	60	49715
2026-01-13 19:07:30.04	21.35	4.38	-40.5	-51.5	3.5	3.02e+01	0	26	104	0	56	18172
2026-01-13 19:07:31.04	21.25	4.44	-47.0	-64.8	3.5	3.02e+01	0	26	104	0	60	66859
2026-01-13 19:07:32.05	21.15	4.50	-47.2	-64.7	3.5	3.02e+01	0	26	104	0	60	66453
2026-01-13 19:07:33.06	21.05	4.56	-40.0	-50.8	3.6	3.02e+01	0	27	104	0	52	21149
2026-01-13 19:07:34.07	20.94	4.62	-38.6	-49.3	3.5	3.02e+01	0	26	104	0	52	17799
2026-01-13 19:07:35.08	20.84	4.68	-38.8	-49.5	3.5	3.02e+01	0	26	104	0	52	18158
2026-01-13 19:07:36.09	20.74	4.74	-38.9	-49.6	3.5	3.02e+01	0	26	104	0	52	18384
2026-01-13 19:07:37.09	20.63	4.79	-39.0	-49.6	3.5	3.02e+01	0	26	104	0	52	18320
2026-01-13 19:07:38.11	20.52	4.85	-37.8	-48.3	3.5	3.02e+01	0	26	104	0	50	17854
2026-01-13 19:07:39.11	20.42	4.91	-44.0	-56.3	3.5	3.02e+01	0	26	104	0	60	25048
2026-01-13 19:07:40.12	20.31	4.97	-47.2	-65.0	3.5	3.02e+01	0	26	104	0	60	68665
2026-01-13 19:07:41.13	20.21	5.03	-39.8	-50.5	3.5	3.02e+01	0	26	104	0	56	16245
2026-01-13 19:07:42.14	20.10	5.09	-47.2	-64.8	3.5	3.02e+01	0	26	104	0	60	66957
2026-01-13 19:07:43.15	19.99	5.15	-39.1	-49.8	3.6	3.02e+01	0	26	104	0	54	16860
2026-01-13 19:07:44.16	19.88	5.21	-39.1	-49.7	3.5	3.02e+01	0	26	104	0	54	16640
2026-01-13 19:07:45.17	19.78	5.27	-39.0	-49.6	3.5	3.02e+01	0	27	104	0	52	18461
2026-01-13 19:07:46.18	19.67	5.33	-38.1	-48.6	3.5	3.02e+01	0	26	104	0	52	16356
2026-01-13 19:07:47.19	19.56	5.39	-44.3	-56.9	3.5	3.02e+01	0	26	104	0	60	26781
2026-01-13 19:07:48.19	19.45	5.45	-38.9	-49.5	3.4	3.02e+01	0	26	104	0	54	16161
2026-01-13 19:07:49.20	19.34	5.50	-47.2	-64.5	3.5	3.02e+01	0	26	104	0	60	64545
2026-01-13 19:07:50.21	19.23	5.56	-47.2	-64.2	3.5	3.02e+01	0	27	104	0	60	62468
2026-01-13 19:07:51.22	19.11	5.62	-38.9	-49.5	3.5	3.02e+01	0	26	104	0	50	20367
2026-01-13 19:07:52.23	19.00	5.68	-38.5	-49.1	3.5	3.02e+01	0	26	104	0	52	17338
2026-01-13 19:07:53.23	18.89	5.74	-38.6	-49.2	3.5	3.02e+01	0	27	104	0	52	17677
2026-01-13 19:07:54.25	18.78	5.80	-38.1	-48.6	3.5	3.02e+01	0	27	104	0	52	16470
2026-01-13 19:07:55.25	18.66	5.86	-37.4	-47.8	3.5	3.02e+01	0	27	104	0	50	16852
2026-01-13 19:07:56.26	18.55	5.92	-37.8	-48.2	3.5	3.02e+01	0	27	104	0	50	17612
2026-01-13 19:07:57.27	18.43	5.98	-42.1	-53.3	3.5	3.02e+01	0	27	104	0	60	17818
2026-01-13 19:07:58.28	18.32	6.04	-47.4	-64.8	3.5	3.02e+01	0	27	104	0	60	67196
2026-01-13 19:07:59.29	18.20	6.10	-41.3	-52.3	3.5	3.02e+01	0	26	104	0	60	15909
2026-01-13 19:08:00.30	18.09	6.16	-47.2	-64.3	3.5	3.02e+01	0	27	104	0	60	63386
2026-01-13 19:08:01.31	17.97	6.22	-44.4	-56.7	3.5	3.02e+01	0	26	104	0	60	26448
2026-01-13 19:08:02.32	17.85	6.28	-44.0	-56.0	3.5	3.02e+01	0	27	104	0	60	24390
2026-01-13 19:08:03.32	17.73	6.34	-44.0	-56.0	3.5	3.02e+01	0	26	104	0	60	24380
2026-01-13 19:08:04.33	17.62	6.40	-43.1	-54.7	3.5	3.02e+01	0	27	104	0	60	20965
2026-01-13 19:08:05.34	17.50	6.46	-47.2	-64.2	3.5	3.02e+01	0	27	104	0	60	62428
2026-01-13 19:08:06.35	17.38	6.52	-47.0	-63.0	3.5	3.02e+01	0	27	104	0	60	54406
2026-01-13 19:08:07.36	17.26	6.58	-40.7	-51.7	3.5	3.02e+01	0	26	104	0	58	16541
2026-01-13 19:08:08.37	17.14	6.65	-36.5	-46.8	3.5	3.02e+01	0	26	104	0	48	16763
2026-01-13 19:08:09.38	17.01	6.71	-47.4	-65.1	3.6	3.02e+01	0	26	104	0	60	69289
2026-01-13 19:08:10.39	16.89	6.77	-37.3	-47.7	3.5	3.02e+01	0	26	104	0	50	16656
2026-01-13 19:08:11.40	16.77	6.83	-36.8	-47.2	3.5	3.02e+01	0	26	104	0	50	15691
2026-01-13 19:08:12.41	16.65	6.89	-37.0	-47.5	3.5	3.02e+01	0	26	104	0	48	18160
2026-01-13 19:08:13.42	16.52	6.95	-36.7	-47.2	3.5	3.02e+01	0	26	104	0	48	17539
2026-01-13 19:08:14.42	16.40	7.01	-38.4	-49.0	3.5	3.02e+01	0	27	104	0	56	13608
2026-01-13 19:08:15.43	16.27	7.07	-41.0	-51.9	3.5	3.02e+01	0	27	104	0	58	16943
2026-01-13 19:08:16.44	16.15	7.13	-45.6	-59.0	3.6	3.02e+01	0	27	104	0	60	34179
2026-01-13 19:08:17.45	16.02	7.19	-38.8	-49.4	3.5	3.02e+01	0	27	104	0	50	20233
2026-01-13 19:08:18.46	15.90	7.25	-47.4	-65.0	3.5	3.02e+01	0	27	104	0	60	68385
2026-01-13 19:08:19.47	15.77	7.31	-40.8	-51.7	3.5	3.02e+01	0	27	104	0	58	16669
2026-01-13 19:08:20.48	15.64	7.37	-39.3	-49.9	3.5	3.02e+01	0	26	104	0	54	16983
2026-01-13 19:08:21.49	15.51	7.44	-38.3	-48.9	3.5	3.02e+01	0	27	104	0	52	16942
2026-01-13 19:08:22.50	15.38	7.50	-41.0	-52.0	3.5	3.02e+01	0	27	104	0	52	24285
2026-01-13 19:08:23.51	15.25	7.56	-45.4	-58.6	3.5	3.02e+01	0	27	104	0	60	32817
2026-01-13 19:08:24.52	15.12	7.62	-39.7	-50.4	3.5	3.02e+01	0	27	104	0	50	22637
2026-01-13 19:08:25.53	14.99	7.68	-47.4	-64.4	3.5	3.02e+01	0	27	104	0	60	63994
2026-01-13 19:08:26.54	14.86	7.74	-41.2	-52.1	3.4	3.02e+01	0	27	104	0	60	15582
2026-01-13 19:08:27.55	14.73	7.80	-41.1	-52.0	3.5	3.02e+01	0	27	104	0	56	19333
2026-01-13 19:08:28.56	14.60	7.86	-40.9	-51.7	3.5	3.02e+01	0	26	104	0	56	18675
2026-01-13 19:08:29.56	14.46	7.92	-41.2	-52.2	3.6	3.02e+01	0	27	104	0	56	19627
2026-01-13 19:08:30.57	14.33	7.99	-41.4	-52.4	3.5	3.02e+01	0	26	104	0	56	20091
2026-01-13 19:08:31.58	14.20	8.05	-40.5	-51.4	3.5	3.02e+01	0	27	104	0	56	17920
2026-01-13 19:08:32.59	14.06	8.11	-41.0	-51.9	3.5	3.02e+01	0	27	104	0	56	18986
2026-01-13 19:08:33.60	13.93	8.17	-44.1	-56.1	3.5	3.02e+01	0	27	104	0	56	30789
2026-01-13 19:08:34.61	13.79	8.23	-42.2	-53.6	3.5	3.02e+01	0	27	104	0	60	18407
2026-01-13 19:08:35.62	13.65	8.29	-45.8	-59.1	3.5	3.02e+01	0	27	104	0	56	43579
2026-01-13 19:08:36.63	13.51	8.35	-43.9	-55.8	3.5	3.02e+01	0	27	104	0	60	23685
2026-01-13 19:08:37.64	13.38	8.42	-38.1	-48.6	3.5	3.02e+01	0	27	104	0	52	16511
2026-01-13 19:08:38.65	13.24	8.48	-38.3	-48.8	3.5	3.02e+01	0	27	104	0	50	18941
2026-01-13 19:08:39.66	13.10	8.54	-38.4	-48.9	3.5	3.02e+01	0	27	104	0	50	19041
2026-01-13 19:08:40.67	12.96	8.60	-45.9	-59.3	3.5	3.02e+01	0	27	104	0	60	35592
2026-01-13 19:08:41.68	12.81	8.66	-42.2	-53.4	3.5	3.02e+01	0	26	104	0	60	17995
2026-01-13 19:08:42.69	12.67	8.72	-47.5	-64.6	3.5	3.02e+01	0	27	104	0	60	65059
2026-01-13 19:08:43.70	12.53	8.78	-47.6	-64.7	3.5	3.02e+01	0	27	104	0	60	66280
2026-01-13 19:08:44.70	12.39	8.85	-37.2	-47.7	3.5	3.02e+01	0	27	104	0	52	14745
2026-01-13 19:08:45.71	12.25	8.91	-37.2	-47.6	3.5	3.02e+01	0	27	104	0	50	16413
2026-01-13 19:08:46.72	12.10	8.97	-37.3	-47.7	3.5	3.02e+01	0	27	104	0	50	16620
2026-01-13 19:08:47.73	11.96	9.03	-36.7	-47.1	3.5	3.02e+01	0	27	104	0	48	17407
2026-01-13 19:08:48.74	11.81	9.09	-36.2	-46.5	3.5	3.02e+01	0	27	104	0	48	16210
2026-01-13 19:08:49.75	11.66	9.15	-36.0	-46.3	3.5	3.02e+01	0	27	104	0	46	17822
2026-01-13 19:08:50.76	11.52	9.21	-40.1	-50.9	3.5	3.02e+01	0	27	104	0	54	18974
2026-01-13 19:08:51.76	11.37	9.28	-47.5	-63.7	3.4	3.02e+01	0	27	104	0	60	59161
2026-01-13 19:08:52.77	11.22	9.34	-40.4	-51.3	3.5	3.02e+01	0	27	104	0	56	17881
2026-01-13 19:08:53.78	11.07	9.40	-47.5	-64.3	3.5	3.02e+01	0	27	104	0	60	62845
2026-01-13 19:08:54.79	10.92	9.46	-44.2	-56.1	3.5	3.02e+01	0	26	104	0	60	24651
2026-01-13 19:08:55.80	10.77	9.52	-41.0	-51.9	3.5	3.02e+01	0	27	104	0	58	17090
2026-01-13 19:08:56.81	10.62	9.58	-39.4	-50.1	3.5	3.02e+01	0	27	104	0	54	17481
2026-01-13 19:08:57.82	10.47	9.64	-38.3	-48.9	3.5	3.02e+01	0	27	104	0	52	16950
2026-01-13 19:08:58.82	10.32	9.70	-47.1	-62.4	3.5	3.02e+01	0	27	104	0	60	50489
2026-01-13 19:08:59.83	10.16	9.77	-41.7	-52.8	3.6	3.02e+01	0	27	104	0	60	16724
2026-01-13 19:09:00.84	10.01	9.83	-47.2	-63.7	3.5	3.02e+01	0	27	104	0	60	58805
2026-01-13 19:09:01.85	9.86	9.89	-47.7	-64.8	3.5	3.02e+01	0	27	104	0	60	67157
2026-01-13 19:09:02.86	9.70	9.95	-36.6	-47.0	3.5	3.02e+01	0	27	104	0	48	17243
2026-01-13 19:09:03.87	9.54	10.01	-36.6	-47.0	3.5	3.02e+01	0	26	104	0	48	17138
2026-01-13 19:09:04.88	9.39	10.07	-35.9	-46.1	3.5	3.02e+01	0	27	104	0	48	15573
2026-01-13 19:09:05.89	9.23	10.13	-35.9	-46.2	3.5	3.02e+01	0	27	104	0	46	17634
2026-01-13 19:09:06.90	9.07	10.20	-35.8	-46.0	3.5	3.02e+01	0	27	104	0	46	17240
2026-01-13 19:09:07.91	8.91	10.26	-35.8	-46.1	3.6	3.02e+01	0	27	104	0	46	17342
2026-01-13 19:09:08.92	8.75	10.32	-41.3	-52.3	3.5	3.02e+01	0	27	104	0	56	19980
2026-01-13 19:09:09.93	8.59	10.38	-47.9	-65.9	3.5	3.02e+01	0	27	104	0	60	75551
2026-01-13 19:09:10.94	8.43	10.44	-39.4	-50.1	3.5	3.02e+01	0	27	104	0	52	19414
2026-01-13 19:09:11.94	8.27	10.50	-47.5	-63.8	3.5	3.02e+01	0	27	104	0	60	59311
2026-01-13 19:09:12.95	8.11	10.56	-41.7	-52.6	3.5	3.02e+01	0	27	104	0	60	16483
2026-01-13 19:09:13.96	7.94	10.62	-40.8	-51.6	3.5	3.02e+01	0	27	104	0	56	18363
2026-01-13 19:09:14.97	7.78	10.68	-40.7	-51.5	3.5	3.02e+01	0	27	104	0	56	18147
2026-01-13 19:09:15.98	7.61	10.74	-39.9	-50.5	3.5	3.02e+01	0	27	104	0	56	16206
2026-01-13 19:09:16.99	7.45	10.81	-47.5	-63.8	3.5	3.02e+01	0	27	104	0	60	59742
2026-01-13 19:09:17.99	7.28	10.87	-39.7	-50.4	3.5	3.02e+01	0	27	104	0	54	17905
2026-01-13 19:09:19.00	7.11	10.93	-47.4	-63.8	3.5	3.02e+01	0	27	104	0	60	59484
2026-01-13 19:09:20.01	6.95	10.99	-48.0	-65.8	3.5	3.02e+01	0	27	104	0	60	74723
2026-01-13 19:09:21.02	6.78	11.05	-40.9	-51.8	3.5	3.02e+01	0	27	104	0	54	21028
2026-01-13 19:09:22.03	6.61	11.11	-40.9	-51.7	3.5	3.02e+01	0	27	104	0	56	18675
2026-01-13 19:09:23.04	6.44	11.17	-40.8	-51.6	3.5	3.02e+01	0	27	104	0	56	18326
2026-01-13 19:09:24.05	6.27	11.23	-38.7	-49.2	3.5	3.02e+01	0	27	104	0	52	17592
2026-01-13 19:09:25.06	6.09	11.29	-37.0	-47.4	3.5	3.02e+01	0	27	104	0	50	16059
2026-01-13 19:09:26.07	5.92	11.35	-35.5	-45.8	3.5	3.02e+01	0	27	104	0	46	16746
2026-01-13 19:09:27.08	5.75	11.41	-42.8	-54.1	3.5	3.02e+01	0	27	104	0	58	21849
2026-01-13 19:09:28.09	5.57	11.47	-47.9	-65.7	3.5	3.02e+01	0	27	104	0	60	74443
2026-01-13 19:09:29.10	5.40	11.53	-38.2	-48.7	3.5	3.02e+01	0	27	104	0	52	16597
2026-01-13 19:09:30.11	5.22	11.59	-47.4	-63.9	3.5	3.02e+01	0	27	104	0	60	59976
2026-01-13 19:09:31.12	5.04	11.65	-37.3	-47.7	3.5	3.02e+01	0	27	104	0	50	16584
2026-01-13 19:09:32.13	4.87	11.71	-37.2	-47.6	3.5	3.02e+01	0	27	104	0	50	16405
2026-01-13 19:09:33.14	4.69	11.77	-36.8	-47.2	3.5	3.02e+01	0	27	104	0	50	15616
2026-01-13 19:09:34.15	4.51	11.83	-37.3	-47.7	3.5	3.02e+01	0	27	104	0	48	18674
2026-01-13 19:09:35.16	4.33	11.89	-47.8	-64.4	3.5	3.02e+01	0	27	104	0	60	63657
2026-01-13 19:09:36.16	4.15	11.95	-37.9	-48.4	3.5	3.02e+01	0	27	104	0	52	16064
2026-01-13 19:09:37.17	3.97	12.01	-47.6	-63.8	3.5	3.02e+01	0	27	104	0	60	59291
2026-01-13 19:09:38.18	3.79	12.07	-46.7	-61.1	3.5	3.02e+01	0	27	104	0	60	43494
2026-01-13 19:09:39.19	3.60	12.12	-38.3	-48.8	3.5	3.02e+01	0	27	104	0	50	18811
2026-01-13 19:09:40.20	3.42	12.18	-37.4	-47.9	3.5	3.02e+01	0	27	104	0	50	16963
2026-01-13 19:09:41.20	3.24	12.24	-37.7	-48.1	3.5	3.02e+01	0	27	104	0	50	17467
2026-01-13 19:09:42.21	3.05	12.30	-37.5	-47.9	3.5	3.02e+01	0	27	104	0	50	17041
2026-01-13 19:09:43.22	2.86	12.36	-37.6	-48.0	3.5	3.02e+01	0	27	104	0	50	17130
2026-01-13 19:09:44.23	2.68	12.42	-37.1	-47.5	3.5	3.02e+01	0	27	104	0	48	18187
2026-01-13 19:09:45.24	2.49	12.48	-41.9	-52.9	3.5	3.02e+01	0	27	104	0	60	17005
2026-01-13 19:09:46.25	2.30	12.53	-47.2	-62.5	3.5	3.02e+01	0	27	104	0	60	51538
2026-01-13 19:09:47.26	2.11	12.59	-38.4	-49.0	3.3	3.02e+01	0	27	104	0	54	15241
2026-01-13 19:09:48.27	1.92	12.65	-47.6	-63.9	3.5	3.02e+01	0	27	104	0	60	60283
2026-01-13 19:09:49.28	1.73	12.71	-39.5	-50.1	3.5	3.02e+01	0	27	104	0	52	19456
2026-01-13 19:09:50.29	1.54	12.77	-38.7	-49.2	3.5	3.02e+01	0	27	104	0	52	17622
2026-01-13 19:09:51.30	1.34	12.82	-37.4	-47.8	3.5	3.02e+01	0	27	104	0	50	16849
2026-01-13 19:09:52.31	1.15	12.88	-37.8	-48.2	3.5	3.02e+01	0	27	104	0	48	19756
2026-01-13 19:09:53.31	0.96	12.94	-47.3	-62.5	3.6	3.02e+01	0	27	104	0	60	51169
2026-01-13 19:09:54.32	0.76	12.99	-36.0	-46.3	3.5	3.02e+01	0	27	104	0	48	15772
2026-01-13 19:09:55.33	0.57	13.05	-47.6	-63.8	3.5	3.02e+01	0	27	104	0	60	59578
2026-01-13 19:09:56.34	0.37	13.11	-42.6	-53.9	3.5	3.02e+01	0	27	104	0	60	18987
2026-01-13 19:09:57.35	0.17	13.16	-39.1	-49.7	3.5	3.02e+01	0	27	104	0	52	18608
2026-01-13 19:09:58.36	359.97	13.22	-37.6	-48.1	3.5	3.02e+01	0	27	104	0	50	17326
2026-01-13 19:09:59.36	359.78	13.28	-37.2	-47.6	3.5	3.02e+01	0	27	104	0	50	16365
2026-01-13 19:10:00.37	359.58	13.33	-36.2	-46.5	3.5	3.02e+01	0	27	104	0	48	16244
2026-01-13 19:10:01.38	359.37	13.39	-35.5	-45.8	3.5	3.02e+01	0	27	104	0	46	16758
2026-01-13 19:10:02.39	359.17	13.44	-36.6	-46.9	3.5	3.02e+01	0	27	104	0	46	19135
2026-01-13 19:10:03.40	358.97	13.50	-40.6	-51.3	3.6	3.02e+01	0	27	104	0	58	15827
2026-01-13 19:10:04.41	358.77	13.55	-42.2	-53.4	3.5	3.02e+01	0	27	104	0	60	17944
2026-01-13 19:10:05.42	358.56	13.61	-35.6	-45.8	3.4	3.02e+01	0	27	104	0	46	16890
2026-01-13 19:10:06.43	358.36	13.66	-47.8	-64.7	3.5	3.02e+01	0	27	104	0	60	65943
2026-01-13 19:10:07.44	358.15	13.72	-39.1	-49.6	3.5	3.02e+01	0	27	104	0	54	16508
2026-01-13 19:10:08.44	357.95	13.77	-37.2	-47.6	3.5	3.02e+01	0	27	104	0	50	16474
2026-01-13 19:10:09.45	357.74	13.83	-35.9	-46.2	3.5	3.02e+01	0	27	104	0	48	15646
2026-01-13 19:10:10.46	357.53	13.88	-36.6	-46.9	3.5	3.02e+01	0	27	104	0	46	18962
2026-01-13 19:10:11.47	357.32	13.93	-41.9	-52.9	3.5	3.02e+01	0	27	104	0	60	16914
2026-01-13 19:10:12.48	357.11	13.99	-37.6	-47.9	3.5	3.02e+01	0	27	104	0	46	21467
2026-01-13 19:10:13.49	356.90	14.04	-48.0	-65.8	3.5	3.02e+01	0	27	104	0	60	74989
2026-01-13 19:10:14.50	356.69	14.09	-40.5	-51.1	3.5	3.02e+01	0	27	104	0	60	13882
2026-01-13 19:10:15.50	356.48	14.14	-42.7	-54.0	3.5	3.02e+01	0	27	104	0	60	19209
2026-01-13 19:10:16.51	356.26	14.20	-40.5	-51.2	3.5	3.02e+01	0	27	104	0	56	17677
2026-01-13 19:10:17.52	356.05	14.25	-39.7	-50.3	3.5	3.02e+01	0	27	104	0	54	17735
2026-01-13 19:10:18.53	355.83	14.30	-39.3	-49.9	3.5	3.02e+01	0	27	104	0	54	17002
2026-01-13 19:10:19.54	355.62	14.35	-37.9	-48.3	3.5	3.02e+01	0	27	104	0	50	17743
2026-01-13 19:10:20.55	355.40	14.40	-38.1	-48.5	3.5	3.02e+01	0	27	104	0	50	18180
2026-01-13 19:10:21.56	355.18	14.46	-40.2	-50.8	3.5	3.02e+01	0	27	104	0	56	16864
2026-01-13 19:10:22.57	354.97	14.51	-41.2	-52.1	3.5	3.02e+01	0	27	104	0	60	15571
2026-01-13 19:10:23.58	354.75	14.56	-45.6	-58.2	3.4	3.02e+01	0	27	104	0	54	44386
2026-01-13 19:10:24.59	354.53	14.61	-43.6	-55.2	3.5	3.02e+01	0	27	104	0	60	22243
2026-01-13 19:10:25.60	354.31	14.66	-37.1	-47.5	3.5	3.02e+01	0	27	104	0	48	18182
2026-01-13 19:10:26.60	354.09	14.71	-37.2	-47.6	3.5	3.02e+01	0	27	104	0	48	18319
2026-01-13 19:10:27.61	353.86	14.76	-37.4	-47.8	3.5	3.02e+01	0	27	104	0	48	18859
2026-01-13 19:10:28.62	353.64	14.80	-43.5	-55.1	3.8	3.02e+01	0	27	104	0	54	30906
2026-01-13 19:10:29.63	353.42	14.85	-40.8	-51.6	3.5	3.02e+01	0	27	104	0	60	14583
2026-01-13 19:10:30.63	353.20	14.90	-46.0	-59.0	3.5	3.02e+01	0	27	104	0	54	48533
2026-01-13 19:10:31.64	352.97	14.95	-44.7	-56.8	3.5	3.02e+01	0	27	104	0	60	26526
2026-01-13 19:10:32.65	352.74	15.00	-36.2	-46.5	3.5	3.02e+01	0	27	104	0	48	16306
2026-01-13 19:10:33.66	352.52	15.04	-37.9	-48.3	3.5	3.02e+01	0	27	104	0	52	15935
2026-01-13 19:10:34.67	352.29	15.09	-36.8	-47.2	3.5	3.02e+01	0	27	104	0	50	15608
2026-01-13 19:10:35.68	352.06	15.14	-36.7	-47.1	3.5	3.02e+01	0	27	104	0	48	17302
2026-01-13 19:10:36.69	351.83	15.19	-36.2	-46.5	3.5	3.02e+01	0	27	104	0	48	16286
2026-01-13 19:10:37.70	351.60	15.23	-36.9	-47.2	3.5	3.02e+01	0	27	104	0	46	19718
2026-01-13 19:10:38.71	351.37	15.28	-36.5	-46.8	3.5	3.02e+01	0	27	104	0	48	16752
2026-01-13 19:10:39.71	351.14	15.32	-46.9	-61.0	3.5	3.02e+01	0	27	104	0	56	54296
2026-01-13 19:10:40.72	350.91	15.37	-46.3	-59.8	3.5	3.02e+01	0	27	104	0	60	37822
2026-01-13 19:10:41.73	350.67	15.41	-41.4	-52.2	3.6	3.02e+01	0	27	104	0	52	24990
2026-01-13 19:10:42.74	350.44	15.46	-40.8	-51.6	3.6	3.02e+01	0	27	104	0	56	18389
2026-01-13 19:10:43.74	350.21	15.50	-41.1	-52.0	3.5	3.02e+01	0	27	104	0	56	19212
2026-01-13 19:10:44.75	349.97	15.54	-39.9	-50.5	3.5	3.02e+01	0	27	104	0	56	16200
2026-01-13 19:10:45.76	349.74	15.59	-40.1	-50.7	3.5	3.02e+01	0	27	104	0	54	18614
2026-01-13 19:10:46.77	349.50	15.63	-38.4	-48.8	3.5	3.02e+01	0	27	104	0	52	16712
2026-01-13 19:10:47.78	349.26	15.67	-43.5	-55.0	3.5	3.02e+01	0	27	104	0	58	24335
2026-01-13 19:10:48.79	349.02	15.71	-43.3	-54.9	3.5	3.02e+01	0	27	104	0	56	27019
2026-01-13 19:10:49.80	348.78	15.76	-38.3	-48.8	3.5	3.02e+01	0	27	104	0	50	18751
2026-01-13 19:10:50.81	348.54	15.80	-48.1	-65.8	3.5	3.02e+01	0	27	104	0	60	74725
2026-01-13 19:10:51.82	348.30	15.84	-37.4	-47.7	3.5	3.02e+01	0	27	104	0	52	14842
2026-01-13 19:10:52.83	348.06	15.88	-36.2	-46.5	3.5	3.02e+01	0	27	104	0	48	16160
2026-01-13 19:10:53.84	347.82	15.92	-35.7	-46.0	3.5	3.02e+01	0	27	104	0	46	17129
2026-01-13 19:10:54.85	347.58	15.96	-36.0	-46.3	3.5	3.02e+01	0	27	104	0	46	17733
2026-01-13 19:10:55.86	347.33	16.00	-47.8	-63.9	3.5	3.02e+01	0	27	104	0	60	59987
2026-01-13 19:10:56.86	347.09	16.04	-39.0	-49.6	3.5	3.02e+01	0	27	104	0	54	16363
2026-01-13 19:10:57.87	346.85	16.07	-48.1	-65.4	3.5	3.02e+01	0	27	104	0	60	72047
2026-01-13 19:10:58.88	346.60	16.11	-42.6	-53.9	3.5	3.02e+01	0	27	104	0	60	19003
2026-01-13 19:10:59.89	346.36	16.15	-39.9	-50.5	3.5	3.02e+01	0	27	104	0	50	23006
2026-01-13 19:11:00.90	346.11	16.19	-37.6	-48.0	3.5	3.02e+01	0	27	104	0	52	15407
2026-01-13 19:11:01.91	345.86	16.22	-37.8	-48.2	3.5	3.02e+01	0	27	104	0	50	17652
2026-01-13 19:11:02.92	345.61	16.26	-37.3	-47.6	3.5	3.02e+01	0	27	104	0	50	16496
2026-01-13 19:11:03.93	345.37	16.30	-37.0	-47.4	3.5	3.02e+01	0	27	104	0	48	17924
2026-01-13 19:11:04.94	345.12	16.33	-36.8	-47.1	3.5	3.02e+01	0	27	104	0	46	19546
2026-01-13 19:11:05.95	344.87	16.37	-45.4	-58.0	3.5	3.02e+01	0	27	104	0	60	30445
2026-01-13 19:11:06.96	344.62	16.40	-44.4	-56.4	3.5	3.02e+01	0	27	104	0	60	25422
2026-01-13 19:11:07.97	344.36	16.43	-40.8	-51.7	3.5	3.02e+01	0	27	104	0	54	20824
2026-01-13 19:11:08.98	344.11	16.47	-47.9	-64.4	3.5	3.02e+01	0	27	104	0	60	63949
2026-01-13 19:11:09.99	343.86	16.50	-39.9	-50.5	3.5	3.02e+01	0	27	104	0	56	16252
2026-01-13 19:11:11.00	343.61	16.53	-39.2	-49.7	3.5	3.02e+01	0	27	104	0	54	16599
2026-01-13 19:11:12.00	343.36	16.56	-39.8	-50.5	3.5	3.02e+01	0	27	104	0	54	18228
2026-01-13 19:11:13.01	343.10	16.59	-39.0	-49.5	3.5	3.02e+01	0	27	104	0	54	16299
2026-01-13 19:11:14.02	342.85	16.63	-47.7	-63.8	3.5	3.02e+01	0	27	104	0	60	59841
2026-01-13 19:11:15.03	342.59	16.66	-44.3	-56.2	3.5	3.02e+01	0	27	104	0	60	24966
2026-01-13 19:11:16.04	342.34	16.69	-45.9	-59.0	3.6	3.02e+01	0	27	104	0	60	34163
2026-01-13 19:11:17.05	342.08	16.71	-39.0	-49.6	3.5	3.02e+01	0	27	104	0	50	20582
2026-01-13 19:11:18.06	341.82	16.74	-48.1	-65.5	3.5	3.02e+01	0	27	104	0	60	72616
2026-01-13 19:11:19.06	341.57	16.77	-38.4	-48.8	3.6	3.02e+01	0	27	104	0	52	16712
2026-01-13 19:11:20.08	341.31	16.80	-36.3	-37.9	5.2	3.02e+01	0	27	104	0	48	6057
2026-01-13 19:11:21.09	341.05	16.83	-35.7	-37.3	24.3	3.02e+01	0	27	104	0	46	6284
2026-01-13 19:11:22.09	340.79	16.85	-35.6	-36.9	28.3	3.02e+01	0	27	0	1572864	46	6023
2026-01-13 19:11:23.10	340.53	16.88	-35.2	-36.5	28.7	3.02e+01	0	27	0	3145728	46	5752
2026-01-13 19:11:24.11	340.27	16.90	-35.1	-36.3	28.8	3.02e+01	0	27	0	5242880	46	5633
2026-01-13 19:11:25.12	340.01	16.93	-35.1	-36.4	28.8	3.02e+01	0	27	0	7340032	46	5691
2026-01-13 19:11:26.13	339.75	16.95	-35.1	-36.4	28.8	3.02e+01	0	27	0	8912896	46	5666
2026-01-13 19:11:27.14	339.49	16.98	-35.0	-36.3	28.9	3.02e+01	0	27	0	11010048	46	5612
2026-01-13 19:11:28.15	339.23	17.00	-35.2	-36.5	28.7	3.02e+01	0	27	0	12582912	46	5728
2026-01-13 19:11:29.15	338.97	17.02	-35.2	-36.4	28.8	3.02e+01	0	27	0	14680064	46	5690
2026-01-13 19:11:30.16	338.71	17.05	-35.2	-36.4	28.7	3.02e+01	0	27	0	16777216	46	5691
2026-01-13 19:11:31.17	338.45	17.07	-35.2	-36.4	28.8	3.02e+01	0	27	0	18350080	46	5688
2026-01-13 19:11:32.18	338.18	17.09	-35.2	-36.4	28.7	3.02e+01	0	27	0	20447232	46	5707
2026-01-13 19:11:33.19	337.92	17.11	-35.2	-36.5	28.7	3.02e+01	0	27	0	22544384	46	5741
2026-01-13 19:11:34.20	337.65	17.13	-35.3	-36.6	28.7	3.02e+01	0	27	0	24117248	46	5804
2026-01-13 19:11:35.21	337.39	17.15	-35.3	-36.5	28.6	3.02e+01	0	27	0	26214400	46	5759
2026-01-13 19:11:36.22	337.12	17.17	-35.2	-36.4	28.8	3.02e+01	0	27	0	27787264	46	5697
2026-01-13 19:11:37.23	336.86	17.19	-35.1	-36.3	28.9	3.02e+01	0	27	0	29884416	46	5620
2026-01-13 19:11:38.24	336.59	17.20	-35.0	-36.3	28.9	3.02e+01	0	27	0	31981568	46	5613
2026-01-13 19:11:39.25	336.33	17.22	-35.2	-36.4	28.8	3.02e+01	0	27	0	33554432	46	5700
2026-01-13 19:11:40.26	336.06	17.24	-35.2	-36.4	28.8	3.02e+01	0	27	0	35651584	46	5690
2026-01-13 19:11:41.27	335.80	17.25	-35.2	-36.4	28.8	3.02e+01	0	27	0	37224448	46	5705
2026-01-13 19:11:42.28	335.53	17.27	-35.1	-36.3	28.8	3.02e+01	0	27	0	39321600	46	5653
2026-01-13 19:11:43.29	335.26	17.28	-35.3	-36.5	28.6	3.02e+01	0	27	0	41418752	46	5788
2026-01-13 19:11:44.30	334.99	17.30	-35.1	-36.3	28.9	3.02e+01	0	27	0	42991616	46	5636
2026-01-13 19:11:45.31	334.73	17.31	-35.3	-36.5	28.7	3.02e+01	0	27	0	45088768	46	5785
2026-01-13 19:11:46.32	334.46	17.32	-35.2	-36.5	28.7	3.02e+01	0	27	0	46661632	46	5733
2026-01-13 19:11:47.33	334.19	17.33	-35.2	-36.5	28.7	3.02e+01	0	27	0	48758784	46	5742
2026-01-13 19:11:48.34	333.92	17.35	-35.2	-36.4	28.8	3.02e+01	0	26	0	50855936	46	5703
2026-01-13 19:11:49.35	333.65	17.36	-35.2	-36.4	28.8	3.02e+01	0	27	0	52428800	46	5698
2026-01-13 19:11:50.36	333.38	17.37	-35.1	-36.3	28.8	3.02e+01	0	27	0	54525952	46	5647
2026-01-13 19:11:51.36	333.12	17.38	-35.0	-36.3	28.9	3.02e+01	0	27	0	56098816	46	5602
2026-01-13 19:11:52.37	332.85	17.39	-35.1	-36.4	28.8	3.02e+01	0	26	0	58195968	46	5669
2026-01-13 19:11:53.38	332.58	17.40	-35.2	-36.5	28.7	3.02e+01	0	27	0	60293120	46	5760
2026-01-13 19:11:54.39	332.31	17.40	-35.3	-36.5	28.7	3.02e+01	0	27	0	61865984	46	5771
2026-01-13 19:11:55.40	332.04	17.41	-35.2	-36.5	28.7	3.02e+01	0	27	0	63963136	46	5750
2026-01-13 19:11:56.41	331.77	17.42	-35.3	-36.5	28.8	3.02e+01	0	27	0	65536000	46	5760
2026-01-13 19:11:57.42	331.50	17.42	-35.4	-36.6	28.6	3.02e+01	0	27	0	67633152	46	5835
2026-01-13 19:11:58.43	331.23	17.43	-35.2	-36.4	28.9	3.02e+01	0	27	0	69730304	46	5701
2026-01-13 19:11:59.44	330.96	17.43	-35.5	-36.7	28.5	3.02e+01	0	27	0	71303168	46	5897
2026-01-13 19:12:00.45	330.69	17.44	-35.5	-36.8	28.4	3.02e+01	0	27	0	73400320	46	5953
2026-01-13 19:12:01.45	330.42	17.44	-35.4	-36.7	28.6	3.02e+01	0	26	0	75497472	46	5859
2026-01-13 19:12:02.46	330.15	17.45	-35.3	-36.6	28.7	3.02e+01	0	27	0	77070336	46	5794
2026-01-13 19:12:03.47	329.88	17.45	-35.2	-36.4	28.8	3.02e+01	0	27	0	79167488	46	5685
2026-01-13 19:12:04.48	329.61	17.45	-35.2	-36.4	28.8	3.02e+01	0	27	0	80740352	46	5691
2026-01-13 19:12:05.49	329.34	17.45	-35.2	-36.4	28.8	3.02e+01	0	27	0	82837504	46	5723
2026-01-13 19:12:06.50	329.07	17.45	-35.3	-36.6	28.7	3.02e+01	0	27	0	84934656	46	5796
2026-01-13 19:12:07.51	328.80	17.45	-35.3	-36.6	28.7	3.02e+01	0	26	0	86507520	46	5818
2026-01-13 19:12:08.52	328.53	17.45	-35.4	-36.7	28.6	3.02e+01	0	27	0	88604672	46	5887
2026-01-13 19:12:09.53	328.26	17.45	-35.1	-36.3	28.9	3.02e+01	0	26	0	90701824	46	5635
2026-01-13 19:12:10.54	327.99	17.45	-35.3	-36.5	28.8	3.02e+01	0	27	0	92274688	46	5749
2026-01-13 19:12:11.54	327.72	17.44	-35.0	-36.2	28.9	3.02e+01	0	27	0	94371840	46	5580
2026-01-13 19:12:12.55	327.45	17.44	-35.3	-36.5	28.7	3.02e+01	0	26	0	95944704	46	5783
2026-01-13 19:12:13.56	327.18	17.44	-35.4	-36.7	28.6	3.02e+01	0	27	0	98041856	46	5883
2026-01-13 19:12:14.57	326.91	17.43	-35.3	-36.6	28.6	3.02e+01	0	27	0	100139008	46	5822
2026-01-13 19:12:15.58	326.64	17.43	-35.3	-36.5	28.7	3.02e+01	0	27	0	101711872	46	5770
2026-01-13 19:12:16.59	326.37	17.42	-35.1	-36.4	28.8	3.02e+01	0	27	0	103809024	46	5678
2026-01-13 19:12:17.60	326.10	17.42	-35.0	-36.2	28.9	3.02e+01	0	27	0	105381888	46	5570
2026-01-13 19:12:18.61	325.83	17.41	-35.3	-36.6	28.7	3.02e+01	0	27	0	107479040	44	6508
2026-01-13 19:12:19.62	325.56	17.40	-34.9	-36.2	29.0	3.02e+01	0	27	0	109051904	44	6217
2026-01-13 19:12:20.63	325.29	17.39	-35.5	-36.7	28.5	3.02e+01	0	27	0	111149056	44	6642
2026-01-13 19:12:21.64	325.02	17.38	-35.2	-36.4	28.7	3.02e+01	0	27	0	113246208	44	6420
2026-01-13 19:12:22.65	324.75	17.37	-35.3	-36.6	28.7	3.02e+01	0	27	0	114819072	44	6500
2026-01-13 19:12:23.66	324.48	17.36	-35.6	-36.9	28.4	3.02e+01	0	27	0	116916224	44	6774
2026-01-13 19:12:24.67	324.21	17.35	-34.9	-36.1	29.0	3.02e+01	0	27	0	119013376	44	6190
2026-01-13 19:12:25.68	323.95	17.34	-35.2	-36.5	28.7	3.02e+01	0	27	0	120586240	44	6444
2026-01-13 19:12:26.69	323.68	17.33	-35.5	-36.8	28.5	3.02e+01	0	27	0	122683392	44	6674
2026-01-13 19:12:27.70	323.41	17.32	-35.3	-36.5	28.8	3.02e+01	0	27	0	124256256	44	6446
2026-01-13 19:12:28.71	323.14	17.31	-35.7	-37.0	28.4	3.02e+01	0	27	0	126353408	44	6807
2026-01-13 19:12:29.72	322.87	17.29	-35.3	-36.5	28.7	3.02e+01	0	27	0	128450560	44	6458
2026-01-13 19:12:30.73	322.61	17.28	-35.2	-36.5	28.6	3.02e+01	0	27	0	130023424	44	6442
2026-01-13 19:12:31.74	322.34	17.26	-35.7	-37.0	28.3	3.02e+01	0	27	0	132120576	44	6819
2026-01-13 19:12:32.75	322.07	17.25	-35.1	-36.3	28.9	3.02e+01	0	27	0	133693440	44	6300
2026-01-13 19:12:33.75	321.81	17.23	-35.8	-37.0	28.3	3.02e+01	0	27	0	135790592	44	6877
2026-01-13 19:12:34.76	321.54	17.21	-35.8	-37.0	28.3	3.02e+01	0	27	0	137887744	44	6876
2026-01-13 19:12:35.77	321.28	17.20	-35.2	-36.5	28.8	3.02e+01	0	27	0	139460608	46	5738
2026-01-13 19:12:36.78	321.01	17.18	-35.8	-37.1	28.2	3.02e+01	0	27	0	141557760	46	6202
2026-01-13 19:12:37.79	320.74	17.16	-35.6	-36.8	28.4	3.02e+01	0	27	0	143654912	46	5983
2026-01-13 19:12:38.80	320.48	17.14	-35.0	-36.2	29.0	3.02e+01	0	27	0	145227776	46	5547
2026-01-13 19:12:39.81	320.21	17.12	-35.4	-36.7	28.5	3.02e+01	0	27	0	147324928	44	6607
2026-01-13 19:12:40.82	319.95	17.10	-35.4	-36.6	28.6	3.02e+01	0	27	0	148897792	44	6530
2026-01-13 19:12:41.82	319.69	17.08	-35.0	-36.2	29.0	3.02e+01	0	27	0	150994944	44	6235
2026-01-13 19:12:42.84	319.42	17.06	-35.7	-37.0	28.3	3.02e+01	0	26	0	153092096	44	6858
2026-01-13 19:12:43.84	319.16	17.04	-35.0	-36.2	28.9	3.02e+01	0	27	0	154664960	44	6244
2026-01-13 19:12:44.86	318.90	17.02	-35.2	-36.4	28.8	3.02e+01	0	27	0	156762112	44	6383
2026-01-13 19:12:45.86	318.64	16.99	-35.3	-36.5	28.7	3.02e+01	0	27	0	158334976	44	6492
2026-01-13 19:12:46.87	318.38	16.97	-35.1	-36.4	28.8	3.02e+01	0	27	0	160432128	44	6378
2026-01-13 19:12:47.88	318.11	16.95	-35.0	-36.3	28.9	3.02e+01	0	27	0	162529280	44	6291
2026-01-13 19:12:48.89	317.85	16.92	-35.0	-36.2	29.0	3.02e+01	0	27	0	164102144	44	6260
2026-01-13 19:12:49.90	317.59	16.90	-35.4	-36.7	28.6	3.02e+01	0	27	0	166199296	44	6620
2026-01-13 19:12:50.91	317.33	16.87	-35.2	-36.4	28.6	3.02e+01	0	27	0	167772160	44	6401
2026-01-13 19:12:51.92	317.07	16.84	-35.3	-36.5	28.8	3.02e+01	0	27	0	169869312	44	6450
2026-01-13 19:12:52.93	316.82	16.82	-35.5	-36.7	28.5	3.02e+01	0	27	0	171966464	44	6637
2026-01-13 19:12:53.94	316.56	16.79	-35.4	-36.6	28.7	3.02e+01	0	27	0	173539328	44	6570
2026-01-13 19:12:54.95	316.30	16.76	-35.5	-36.7	28.6	3.02e+01	0	27	0	175636480	44	6613
2026-01-13 19:12:55.96	316.04	16.73	-35.0	-36.2	29.0	3.02e+01	0	27	0	177209344	44	6232
2026-01-13 19:12:56.97	315.78	16.70	-35.5	-36.7	28.4	3.02e+01	0	27	0	179306496	44	6648
2026-01-13 19:12:57.98	315.53	16.67	-35.3	-36.6	28.6	3.02e+01	0	27	0	181403648	44	6515
2026-01-13 19:12:58.99	315.27	16.64	-35.2	-36.5	28.7	3.02e+01	0	27	0	182976512	44	6441
2026-01-13 19:13:00.00	315.02	16.61	-35.9	-37.2	28.0	3.02e+01	0	27	0	185073664	44	7036
2026-01-13 19:13:01.01	314.76	16.58	-35.5	-36.7	28.6	3.02e+01	0	27	0	187170816	46	5924
2026-01-13 19:13:02.02	314.51	16.55	-35.6	-36.9	28.4	3.02e+01	0	27	0	188743680	46	6014
2026-01-13 19:13:03.03	314.25	16.52	-35.4	-36.6	28.6	3.02e+01	0	27	0	190840832	46	5836
2026-01-13 19:13:04.04	314.00	16.49	-35.4	-36.7	28.6	3.02e+01	0	27	0	192413696	46	5889
2026-01-13 19:13:05.05	313.75	16.45	-35.1	-36.3	28.9	3.02e+01	0	27	0	194510848	46	5652
2026-01-13 19:13:06.06	313.50	16.42	-35.8	-37.1	27.9	3.02e+01	0	27	0	196608000	44	6914
2026-01-13 19:13:07.06	313.25	16.39	-34.9	-36.1	28.9	3.02e+01	0	27	0	198180864	46	5512
2026-01-13 19:13:08.07	313.00	16.35	-36.6	-38.0	27.2	3.02e+01	0	27	0	200278016	46	6861
2026-01-13 19:13:09.08	312.75	16.32	-35.2	-36.4	28.8	3.02e+01	0	27	0	201850880	46	5683
2026-01-13 19:13:10.09	312.50	16.28	-35.9	-37.2	28.2	3.02e+01	0	27	0	203948032	46	6230
2026-01-13 19:13:11.10	312.25	16.25	-34.6	-35.7	29.3	3.02e+01	0	27	0	206045184	44	5923
2026-01-13 19:13:12.10	312.00	16.21	-36.0	-37.4	26.6	3.02e+01	0	27	0	207618048	44	7147
2026-01-13 19:13:13.11	311.76	16.17	-34.7	-35.9	29.2	3.02e+01	0	27	0	209715200	44	5995
2026-01-13 19:13:14.12	311.51	16.14	-36.7	-38.1	27.1	3.02e+01	0	27	0	211288064	46	6926
2026-01-13 19:13:15.13	311.26	16.10	-34.6	-35.8	29.1	3.02e+01	0	27	0	213385216	44	5949
2026-01-13 19:13:16.13	311.02	16.06	-36.4	-37.9	27.3	3.02e+01	0	27	0	215482368	46	6727
2026-01-13 19:13:17.15	310.77	16.02	-35.1	-36.3	28.7	3.02e+01	0	27	0	217055232	46	5642
2026-01-13 19:13:18.16	310.53	15.98	-36.1	-37.4	27.9	3.02e+01	0	27	0	219152384	46	6402
2026-01-13 19:13:19.17	310.28	15.94	-35.8	-37.1	28.2	3.02e+01	0	27	0	220725248	46	6165
2026-01-13 19:13:20.18	310.04	15.90	-36.0	-37.3	27.9	3.02e+01	0	27	0	222822400	46	6336
2026-01-13 19:13:21.18	309.80	15.86	-34.9	-36.1	29.0	3.02e+01	0	27	0	224919552	46	5489
2026-01-13 19:13:22.20	309.56	15.82	-36.1	-37.5	27.8	3.02e+01	0	27	0	226492416	44	7235
2026-01-13 19:13:23.20	309.32	15.78	-35.3	-36.5	28.6	3.02e+01	0	27	0	228589568	46	5751
2026-01-13 19:13:24.21	309.08	15.74	-36.5	-37.8	27.5	3.02e+01	0	27	0	230162432	46	6703
2026-01-13 19:13:25.22	308.84	15.70	-35.5	-36.8	28.5	3.02e+01	0	27	0	232259584	46	5928
2026-01-13 19:13:26.23	308.60	15.66	-35.4	-36.6	28.7	3.02e+01	0	27	0	234356736	46	5828
2026-01-13 19:13:27.24	308.36	15.61	-35.9	-37.2	28.2	3.02e+01	0	27	0	235929600	46	6211
2026-01-13 19:13:28.25	308.13	15.57	-34.7	-35.9	29.1	3.02e+01	0	26	0	238026752	44	6001
2026-01-13 19:13:29.26	307.89	15.53	-35.6	-36.9	28.2	3.02e+01	0	27	0	240123904	44	6780
2026-01-13 19:13:30.27	307.65	15.48	-34.8	-36.0	28.9	3.02e+01	0	27	0	241696768	44	6114
2026-01-13 19:13:31.28	307.42	15.44	-35.4	-36.7	28.4	3.02e+01	0	27	0	243793920	44	6638
2026-01-13 19:13:32.29	307.18	15.39	-35.5	-36.8	28.4	3.02e+01	0	27	0	245366784	44	6666
2026-01-13 19:13:33.30	306.95	15.35	-35.5	-36.8	28.5	3.02e+01	0	27	0	247463936	44	6660
2026-01-13 19:13:34.30	306.72	15.30	-35.8	-37.1	28.2	3.02e+01	0	27	0	249561088	44	6945
2026-01-13 19:13:35.31	306.49	15.26	-35.0	-36.2	29.0	3.02e+01	0	27	0	251133952	44	6239
2026-01-13 19:13:36.32	306.26	15.21	-35.6	-36.9	28.2	3.02e+01	0	27	0	253231104	44	6765
2026-01-13 19:13:37.33	306.03	15.17	-35.4	-36.6	28.6	3.02e+01	0	27	0	255328256	44	6537
2026-01-13 19:13:38.34	305.80	15.12	-35.7	-37.0	28.2	3.02e+01	0	27	0	256901120	44	6842
2026-01-13 19:13:39.35	305.57	15.07	-35.4	-36.7	28.5	3.02e+01	0	27	0	258998272	44	6618
2026-01-13 19:13:40.36	305.34	15.02	-35.0	-36.3	28.9	3.02e+01	0	27	0	260571136	44	6316
2026-01-13 19:13:41.37	305.11	14.98	-35.1	-36.4	28.8	3.02e+01	0	27	0	262668288	44	6404
2026-01-13 19:13:42.38	304.89	14.93	-35.1	-36.3	28.8	3.02e+01	0	27	0	264765440	44	6343
2026-01-13 19:13:43.39	304.66	14.88	-35.4	-36.7	28.5	3.02e+01	0	27	0	266338304	44	6624
2026-01-13 19:13:44.40	304.44	14.83	-35.3	-36.6	28.6	3.02e+01	0	27	0	268435456	44	6505
2026-01-13 19:13:45.41	304.21	14.78	-35.9	-37.2	28.1	3.02e+01	0	27	0	270008320	44	6971
2026-01-13 19:13:46.42	303.99	14.73	-35.8	-37.1	28.4	3.02e+01	0	27	0	272105472	46	6182
2026-01-13 19:13:47.43	303.77	14.68	-35.0	-36.3	29.0	3.02e+01	0	27	0	274202624	46	5596
2026-01-13 19:13:48.43	303.55	14.63	-35.4	-36.7	28.6	3.02e+01	0	27	0	275775488	46	5887
2026-01-13 19:13:49.44	303.33	14.58	-35.5	-36.7	28.5	3.02e+01	0	27	0	277872640	46	5925
2026-01-13 19:13:50.45	303.11	14.53	-35.9	-37.3	28.1	3.02e+01	0	27	0	279445504	46	6287
2026-01-13 19:13:51.46	302.89	14.48	-35.7	-37.0	28.1	3.02e+01	0	27	0	281542656	46	6106
2026-01-13 19:13:52.47	302.67	14.43	-34.7	-35.9	29.1	3.02e+01	0	27	0	283639808	44	6039
2026-01-13 19:13:53.48	302.45	14.38	-35.8	-37.1	28.1	3.02e+01	0	27	0	285212672	44	6926
2026-01-13 19:13:54.49	302.23	14.33	-35.3	-36.5	28.6	3.02e+01	0	27	0	287309824	44	6457
2026-01-13 19:13:55.50	302.02	14.28	-35.9	-37.3	28.1	3.02e+01	0	27	0	288882688	44	7047
2026-01-13 19:13:56.51	301.80	14.23	-35.1	-36.3	28.8	3.02e+01	0	27	0	290979840	46	5653
2026-01-13 19:13:57.52	301.59	14.17	-35.1	-36.3	28.8	3.02e+01	0	27	0	293076992	44	6345
2026-01-13 19:13:58.53	301.37	14.12	-35.2	-36.5	28.7	3.02e+01	0	27	0	294649856	44	6454
2026-01-13 19:13:59.54	301.16	14.07	-35.2	-36.4	28.8	3.02e+01	0	27	0	296747008	44	6409
2026-01-13 19:14:00.55	300.95	14.01	-35.5	-36.7	28.4	3.02e+01	0	27	0	298319872	44	6640
2026-01-13 19:14:01.56	300.74	13.96	-35.0	-36.2	28.9	3.02e+01	0	27	0	300417024	44	6219
2026-01-13 19:14:02.56	300.53	13.91	-35.9	-37.3	28.0	3.02e+01	0	27	0	302514176	44	7060
2026-01-13 19:14:03.58	300.32	13.85	-35.3	-36.5	28.3	3.02e+01	0	27	0	304087040	46	5773
2026-01-13 19:14:04.59	300.11	13.80	-35.3	-36.5	28.5	3.02e+01	0	27	0	306184192	46	5747
2026-01-13 19:14:05.60	299.90	13.75	-36.0	-37.4	27.7	3.02e+01	0	27	0	308281344	46	6385
2026-01-13 19:14:06.61	299.69	13.69	-34.9	-36.1	29.0	3.02e+01	0	27	0	309854208	44	6140
2026-01-13 19:14:07.62	299.49	13.64	-35.6	-36.9	28.3	3.02e+01	0	27	0	311951360	44	6763
2026-01-13 19:14:08.63	299.28	13.58	-35.6	-36.9	28.2	3.02e+01	0	27	0	313524224	44	6760
2026-01-13 19:14:09.64	299.08	13.53	-35.8	-37.0	28.1	3.02e+01	0	27	0	315621376	44	6845
2026-01-13 19:14:10.65	298.87	13.47	-36.7	-38.1	27.2	3.02e+01	0	27	0	317718528	46	6896
2026-01-13 19:14:11.66	298.67	13.42	-36.1	-37.4	27.9	3.02e+01	0	27	0	319291392	46	6380
2026-01-13 19:14:12.67	298.47	13.36	-35.6	-36.8	28.4	3.02e+01	0	27	0	321388544	46	5988
2026-01-13 19:14:13.68	298.27	13.30	-35.8	-37.0	28.2	3.02e+01	0	27	0	323485696	46	6134
2026-01-13 19:14:14.69	298.07	13.25	-35.3	-36.5	28.7	3.02e+01	0	27	0	325058560	46	5736
2026-01-13 19:14:15.69	297.87	13.19	-35.8	-37.1	28.2	3.02e+01	0	27	0	327155712	46	6136
2026-01-13 19:14:16.71	297.67	13.13	-35.5	-36.8	28.5	3.02e+01	0	27	0	328728576	46	5934
2026-01-13 19:14:17.72	297.47	13.08	-35.6	-36.8	28.4	3.02e+01	0	27	0	330825728	46	5974
2026-01-13 19:14:18.72	297.27	13.02	-36.0	-37.3	27.9	3.02e+01	0	27	0	332922880	46	6338
2026-01-13 19:14:19.73	297.08	12.96	-35.6	-36.9	28.2	3.02e+01	0	27	0	334495744	46	6026
2026-01-13 19:14:20.74	296.88	12.91	-35.9	-37.2	27.9	3.02e+01	0	27	0	336592896	46	6226
2026-01-13 19:14:21.75	296.69	12.85	-36.5	-37.9	27.7	3.02e+01	0	27	0	338165760	46	6731
2026-01-13 19:14:22.76	296.49	12.79	-36.4	-37.7	27.5	3.02e+01	0	26	0	340262912	46	6603
2026-01-13 19:14:23.77	296.30	12.74	-36.1	-37.3	28.0	3.02e+01	0	27	0	341835776	46	6349
2026-01-13 19:14:24.78	296.11	12.68	-35.9	-37.2	28.1	3.02e+01	0	27	0	343932928	46	6229
2026-01-13 19:14:25.79	295.92	12.62	-35.5	-36.8	28.5	3.02e+01	0	27	0	346030080	46	5940
2026-01-13 19:14:26.80	295.73	12.56	-35.4	-36.7	28.5	3.02e+01	0	27	0	347602944	46	5890
2026-01-13 19:14:27.81	295.54	12.50	-35.6	-36.9	28.3	3.02e+01	0	27	0	349700096	46	6039
2026-01-13 19:14:28.81	295.35	12.45	-35.5	-36.7	28.4	3.02e+01	0	27	0	351797248	46	5922
2026-01-13 19:14:29.82	295.16	12.39	-35.6	-36.9	28.4	3.02e+01	0	27	0	353370112	46	6005
2026-01-13 19:14:30.83	294.97	12.33	-35.9	-37.2	28.1	3.02e+01	0	27	0	355467264	46	6250
2026-01-13 19:14:31.84	294.79	12.27	-35.9	-37.2	28.1	3.02e+01	0	27	0	357040128	46	6206
2026-01-13 19:14:32.85	294.60	12.21	-35.6	-36.8	28.4	3.02e+01	0	27	0	359137280	46	5972
2026-01-13 19:14:33.86	294.42	12.15	-35.5	-36.7	28.4	3.02e+01	0	27	0	361234432	46	5924
2026-01-13 19:14:34.87	294.23	12.09	-35.6	-36.9	28.3	3.02e+01	0	27	0	362807296	46	6022
2026-01-13 19:14:35.88	294.05	12.03	-35.5	-36.8	28.5	3.02e+01	0	27	0	364904448	46	5958
2026-01-13 19:14:36.89	293.87	11.97	-35.6	-36.8	28.4	3.02e+01	0	27	0	366477312	46	5993
2026-01-13 19:14:37.90	293.68	11.91	-35.7	-37.0	28.2	3.02e+01	0	27	0	368574464	46	6098
2026-01-13 19:14:38.91	293.50	11.85	-35.8	-37.1	28.1	3.02e+01	0	27	0	370671616	46	6149
2026-01-13 19:14:39.92	293.32	11.80	-35.8	-37.1	28.2	3.02e+01	0	27	0	372244480	46	6159
2026-01-13 19:14:40.92	293.15	11.74	-35.8	-37.0	28.2	3.02e+01	0	27	0	374341632	46	6124
2026-01-13 19:14:41.93	292.97	11.68	-35.8	-37.0	28.2	3.02e+01	0	27	0	376438784	46	6119
2026-01-13 19:14:42.94	292.79	11.62	-35.6	-36.9	28.3	3.02e+01	0	27	0	378011648	46	6018
2026-01-13 19:14:43.95	292.61	11.56	-35.9	-37.2	28.1	3.02e+01	0	27	0	380108800	46	6247
2026-01-13 19:14:44.96	292.44	11.50	-35.8	-37.1	28.0	3.02e+01	0	27	0	381681664	46	6169
2026-01-13 19:14:45.97	292.26	11.44	-35.7	-37.0	28.2	3.02e+01	0	27	0	383778816	46	6067
2026-01-13 19:14:46.98	292.09	11.38	-35.7	-36.9	28.2	3.02e+01	0	27	0	385875968	46	6061
2026-01-13 19:14:47.99	291.91	11.32	-35.7	-36.9	28.3	3.02e+01	0	27	0	387448832	46	6056
2026-01-13 19:14:48.99	291.74	11.26	-35.8	-37.1	28.1	3.02e+01	0	27	0	389545984	46	6166
2026-01-13 19:14:50.00	291.57	11.20	-35.8	-37.1	28.1	3.02e+01	0	27	0	391118848	46	6144
2026-01-13 19:14:51.01	291.40	11.13	-35.8	-37.0	28.2	3.02e+01	0	27	0	393216000	46	6127
2026-01-13 19:14:52.02	291.23	11.07	-35.8	-37.1	28.1	3.02e+01	0	27	0	395313152	46	6181
2026-01-13 19:14:53.03	291.06	11.01	-35.9	-37.2	28.1	3.02e+01	0	27	0	396886016	46	6212
2026-01-13 19:14:54.04	290.89	10.95	-35.9	-37.1	28.0	3.02e+01	0	27	0	398983168	46	6204
2026-01-13 19:14:55.05	290.72	10.89	-36.0	-37.2	27.9	3.02e+01	0	27	0	400556032	46	6271
2026-01-13 19:14:56.06	290.55	10.83	-36.0	-37.3	27.9	3.02e+01	0	27	0	402653184	46	6323
2026-01-13 19:14:57.07	290.38	10.77	-36.1	-37.4	27.8	3.02e+01	0	27	0	404750336	46	6397
2026-01-13 19:14:58.08	290.22	10.71	-35.7	-37.0	28.2	3.02e+01	0	27	0	406323200	46	6109
2026-01-13 19:14:59.08	290.05	10.65	-35.8	-37.0	28.2	3.02e+01	0	27	0	408420352	46	6129
2026-01-13 19:15:00.09	289.89	10.59	-36.0	-37.2	27.9	3.02e+01	0	27	0	409993216	46	6271
2026-01-13 19:15:01.10	289.72	10.53	-36.1	-37.4	27.9	3.02e+01	0	27	0	412090368	46	6384
2026-01-13 19:15:02.11	289.56	10.46	-35.8	-37.1	28.1	3.02e+01	0	27	0	414187520	46	6175
2026-01-13 19:15:03.12	289.40	10.40	-36.1	-37.3	27.9	3.02e+01	0	27	0	415760384	46	6349
2026-01-13 19:15:04.13	289.24	10.34	-36.2	-37.5	27.8	3.02e+01	0	27	0	417857536	46	6446
2026-01-13 19:15:05.14	289.08	10.28	-36.4	-37.7	27.5	3.02e+01	0	27	0	419954688	46	6630
2026-01-13 19:15:06.15	288.92	10.22	-36.0	-37.3	27.8	3.02e+01	0	27	0	421527552	46	6303
2026-01-13 19:15:07.16	288.76	10.16	-35.9	-37.1	28.0	3.02e+01	0	27	0	423624704	46	6192
2026-01-13 19:15:08.17	288.60	10.10	-35.9	-37.1	28.0	3.02e+01	0	27	0	425197568	46	6194
2026-01-13 19:15:09.18	288.44	10.04	-35.8	-37.1	28.0	3.02e+01	0	27	0	427294720	46	6189
2026-01-13 19:15:10.18	288.28	9.97	-36.2	-37.5	27.7	3.02e+01	0	27	0	429391872	46	6447
2026-01-13 19:15:11.19	288.13	9.91	-36.3	-37.6	27.6	3.02e+01	0	27	0	430964736	46	6528
2026-01-13 19:15:12.20	287.97	9.85	-36.1	-37.5	27.6	3.02e+01	0	27	0	433061888	46	6432
2026-01-13 19:15:13.21	287.82	9.79	-35.9	-37.2	27.8	3.02e+01	0	27	0	434634752	46	6260
2026-01-13 19:15:14.22	287.66	9.73	-35.9	-37.2	28.0	3.02e+01	0	27	0	436731904	46	6234
2026-01-13 19:15:15.23	287.51	9.67	-36.2	-37.5	27.8	3.02e+01	0	27	0	438829056	46	6438
2026-01-13 19:15:16.24	287.36	9.61	-36.2	-37.5	27.6	3.02e+01	0	27	0	440401920	46	6482
2026-01-13 19:15:17.25	287.20	9.54	-36.6	-38.0	27.3	3.02e+01	0	27	0	442499072	46	6806
2026-01-13 19:15:18.26	287.05	9.48	-36.4	-37.7	27.5	3.02e+01	0	27	0	444071936	46	6616
2026-01-13 19:15:19.26	286.90	9.42	-36.2	-37.6	27.6	3.02e+01	0	27	0	446169088	46	6499
2026-01-13 19:15:20.27	286.75	9.36	-36.3	-37.6	27.6	3.02e+01	0	27	0	448266240	46	6518
2026-01-13 19:15:21.28	286.60	9.30	-36.1	-37.4	27.7	3.02e+01	0	27	0	449839104	46	6410
2026-01-13 19:15:22.29	286.45	9.24	-36.2	-37.5	27.6	3.02e+01	0	27	0	451936256	46	6468
2026-01-13 19:15:23.30	286.31	9.17	-36.2	-37.5	27.6	3.02e+01	0	27	0	453509120	46	6456
2026-01-13 19:15:24.31	286.16	9.11	-36.3	-37.7	27.5	3.02e+01	0	27	0	455606272	46	6580
2026-01-13 19:15:25.32	286.01	9.05	-36.5	-37.8	27.3	3.02e+01	0	27	0	457703424	46	6693
2026-01-13 19:15:26.33	285.87	8.99	-36.4	-37.7	27.4	3.02e+01	0	27	0	459276288	46	6637
2026-01-13 19:15:27.34	285.72	8.93	-36.3	-37.6	27.5	3.02e+01	0	27	0	461373440	46	6573
2026-01-13 19:15:28.34	285.58	8.87	-36.2	-37.5	27.6	3.02e+01	0	27	0	462946304	46	6440
2026-01-13 19:15:29.35	285.43	8.80	-36.3	-37.6	27.5	3.02e+01	0	27	0	465043456	46	6572
2026-01-13 19:15:30.36	285.29	8.74	-36.5	-37.8	27.3	3.02e+01	0	27	0	467140608	46	6716
2026-01-13 19:15:31.36	285.15	8.68	-36.6	-38.0	27.2	3.02e+01	0	27	0	468713472	46	6820
2026-01-13 19:15:32.37	285.01	8.62	-36.5	-37.9	27.3	3.02e+01	0	27	0	470810624	46	6743
2026-01-13 19:15:33.38	284.86	8.56	-36.6	-37.9	27.2	3.02e+01	0	27	0	472907776	46	6785
2026-01-13 19:15:34.39	284.72	8.50	-36.4	-37.7	27.4	3.02e+01	0	27	0	474480640	46	6627
2026-01-13 19:15:35.40	284.58	8.44	-36.3	-37.6	27.4	3.02e+01	0	27	0	476577792	46	6562
2026-01-13 19:15:36.41	284.44	8.37	-36.3	-37.6	27.5	3.02e+01	0	27	0	478150656	46	6530
2026-01-13 19:15:37.41	284.31	8.31	-36.4	-37.7	27.4	3.02e+01	0	27	0	480247808	46	6607
2026-01-13 19:15:38.42	284.17	8.25	-36.4	-37.8	27.3	3.02e+01	0	27	0	481820672	46	6669
2026-01-13 19:15:39.43	284.03	8.19	-36.6	-38.0	27.1	3.02e+01	0	27	0	483917824	46	6831
2026-01-13 19:15:40.44	283.89	8.13	-36.7	-38.1	27.1	3.02e+01	0	27	0	486014976	46	6936
2026-01-13 19:15:41.45	283.76	8.07	-36.8	-38.1	27.1	3.02e+01	0	27	0	487587840	46	6942
2026-01-13 19:15:42.46	283.62	8.01	-36.9	-38.2	26.9	3.02e+01	0	27	0	489684992	46	7031
2026-01-13 19:15:43.46	283.49	7.94	-36.6	-38.0	27.1	3.02e+01	0	27	0	491257856	46	6814
2026-01-13 19:15:44.47	283.35	7.88	-36.6	-37.9	27.1	3.02e+01	0	27	0	493355008	46	6803
2026-01-13 19:15:45.48	283.22	7.82	-36.7	-38.0	27.0	3.02e+01	0	27	0	495452160	46	6855
2026-01-13 19:15:46.49	283.09	7.76	-36.7	-38.0	27.0	3.02e+01	0	27	0	497025024	46	6866
2026-01-13 19:15:47.50	282.96	7.70	-36.7	-38.0	27.0	3.02e+01	0	27	0	499122176	46	6872
2026-01-13 19:15:48.51	282.82	7.64	-36.7	-38.1	27.0	3.02e+01	0	27	0	501219328	46	6917
2026-01-13 19:15:49.52	282.69	7.58	-36.9	-38.3	26.8	3.02e+01	0	27	0	502792192	46	7100
2026-01-13 19:15:50.53	282.56	7.52	-37.0	-38.3	26.7	3.02e+01	0	27	0	504889344	48	6345
2026-01-13 19:15:51.54	282.43	7.45	-36.9	-38.2	26.8	3.02e+01	0	27	0	506462208	48	6258
2026-01-13 19:15:52.55	282.30	7.39	-36.9	-38.3	26.7	3.02e+01	0	27	0	508559360	48	6319
2026-01-13 19:15:53.55	282.17	7.33	-36.9	-38.3	26.7	3.02e+01	0	27	0	510656512	48	6293
2026-01-13 19:15:54.56	282.05	7.27	-36.9	-38.3	26.7	3.02e+01	0	27	0	512229376	48	6330
2026-01-13 19:15:55.57	281.92	7.21	-36.9	-38.2	26.8	3.02e+01	0	27	0	514326528	48	6262
2026-01-13 19:15:56.58	281.79	7.15	-37.0	-38.3	26.8	3.02e+01	0	27	0	516423680	48	6340
2026-01-13 19:15:57.59	281.67	7.09	-36.9	-38.3	26.7	3.02e+01	0	27	0	517996544	48	6282
2026-01-13 19:15:58.60	281.54	7.03	-36.8	-38.2	26.8	3.02e+01	0	27	0	520093696	48	6237
2026-01-13 19:15:59.61	281.41	6.97	-36.8	-38.2	26.8	3.02e+01	0	27	0	521666560	48	6239
2026-01-13 19:16:00.62	281.29	6.91	-36.8	-38.2	26.8	3.02e+01	0	27	0	523763712	48	6240
2026-01-13 19:16:01.62	281.17	6.85	-36.8	-38.1	26.9	3.02e+01	0	27	0	525860864	48	6186
2026-01-13 19:16:02.63	281.04	6.78	-36.9	-38.3	26.7	3.02e+01	0	27	0	527433728	48	6287
2026-01-13 19:16:03.64	280.92	6.72	-36.8	-38.2	26.8	3.02e+01	0	27	0	529530880	48	6243
2026-01-13 19:16:04.65	280.80	6.66	-37.0	-38.4	26.6	3.02e+01	0	27	0	531103744	48	6410
2026-01-13 19:16:05.65	280.68	6.60	-37.1	-38.5	26.5	3.02e+01	0	27	0	533200896	48	6480
2026-01-13 19:16:06.66	280.56	6.54	-37.1	-38.6	26.5	3.02e+01	0	27	0	534773760	48	6499
2026-01-13 19:16:07.67	280.44	6.48	-37.2	-38.6	26.4	3.02e+01	0	27	0	536870912	48	6522
2026-01-13 19:16:08.68	280.32	6.42	-37.1	-38.5	26.3	3.02e+01	0	27	0	538968064	48	6494
2026-01-13 19:16:09.69	280.20	6.36	-37.2	-38.6	26.3	3.02e+01	0	27	0	540540928	48	6572
2026-01-13 19:16:10.70	280.08	6.30	-37.0	-38.3	26.6	3.02e+01	0	27	0	542638080	48	6345
2026-01-13 19:16:11.71	279.96	6.24	-37.0	-38.3	26.6	3.02e+01	0	27	0	544735232	48	6342
2026-01-13 19:16:12.72	279.84	6.18	-37.0	-38.4	26.5	3.02e+01	0	27	0	546308096	48	6415
2026-01-13 19:16:13.72	279.72	6.12	-37.0	-38.4	26.5	3.02e+01	0	27	0	548405248	48	6423
2026-01-13 19:16:14.73	279.61	6.06	-37.1	-38.5	26.4	3.02e+01	0	27	0	549978112	48	6467
2026-01-13 19:16:15.74	279.49	6.00	-37.3	-38.7	26.2	3.02e+01	0	27	0	552075264	48	6634
2026-01-13 19:16:16.75	279.37	5.94	-37.4	-38.8	26.0	3.02e+01	0	27	0	554172416	48	6690
2026-01-13 19:16:17.77	279.26	5.88	-37.3	-38.7	26.2	3.02e+01	0	27	0	555745280	48	6649
2026-01-13 19:16:18.77	279.14	5.82	-37.4	-38.9	26.0	3.02e+01	0	27	0	557842432	48	6734
2026-01-13 19:16:19.78	279.03	5.76	-37.2	-38.6	26.3	3.02e+01	0	27	0	559415296	48	6544
2026-01-13 19:16:20.79	278.92	5.70	-37.3	-38.7	26.2	3.02e+01	0	27	0	561512448	48	6597
2026-01-13 19:16:21.80	278.80	5.64	-37.3	-38.7	26.1	3.02e+01	0	27	0	563609600	48	6638
2026-01-13 19:16:22.81	278.69	5.58	-37.5	-39.0	25.8	3.02e+01	0	27	0	565182464	48	6810
2026-01-13 19:16:23.82	278.58	5.52	-37.4	-38.9	26.1	3.02e+01	0	27	0	567279616	48	6730
2026-01-13 19:16:24.83	278.47	5.46	-37.6	-39.1	25.8	3.02e+01	0	27	0	569376768	48	6902
2026-01-13 19:16:25.84	278.36	5.40	-37.8	-39.2	25.6	3.02e+01	0	27	0	570949632	48	7028
2026-01-13 19:16:26.85	278.25	5.34	-37.6	-39.1	25.8	3.02e+01	0	27	0	573046784	50	6162
2026-01-13 19:16:27.86	278.14	5.28	-37.5	-38.9	26.0	3.02e+01	0	27	0	574619648	50	6036
2026-01-13 19:16:28.86	278.03	5.22	-37.4	-38.8	26.0	3.02e+01	0	26	0	576716800	50	5989
2026-01-13 19:16:29.87	277.92	5.16	-37.5	-39.0	25.9	3.02e+01	0	27	0	578813952	50	6104
2026-01-13 19:16:30.88	277.81	5.10	-37.5	-38.9	25.9	3.02e+01	0	27	0	580386816	50	6056
2026-01-13 19:16:31.89	277.70	5.04	-37.6	-39.0	25.8	3.02e+01	0	27	0	582483968	50	6131
2026-01-13 19:16:32.90	277.59	4.98	-37.5	-39.0	25.8	3.02e+01	0	27	0	584056832	50	6093
2026-01-13 19:16:33.90	277.49	4.93	-37.6	-39.1	25.8	3.02e+01	0	27	0	586153984	50	6161
2026-01-13 19:16:34.92	277.38	4.87	-37.6	-39.1	25.7	3.02e+01	0	27	0	587726848	50	6137
2026-01-13 19:16:35.92	277.27	4.81	-37.6	-39.0	25.8	3.02e+01	0	27	0	589824000	50	6117
2026-01-13 19:16:36.93	277.17	4.75	-37.7	-39.2	25.6	3.02e+01	0	26	0	591921152	50	6215
2026-01-13 19:16:37.94	277.06	4.69	-37.5	-39.0	25.8	3.02e+01	0	27	0	593494016	50	6107
2026-01-13 19:16:38.95	276.96	4.63	-37.5	-39.0	25.7	3.02e+01	0	26	0	595591168	50	6069
2026-01-13 19:16:39.96	276.86	4.57	-37.6	-39.1	25.6	3.02e+01	0	27	0	597688320	50	6174
2026-01-13 19:16:40.97	276.75	4.51	-37.6	-39.1	25.7	3.02e+01	0	27	0	599261184	50	6185
2026-01-13 19:16:41.98	276.65	4.45	-37.7	-39.2	25.6	3.02e+01	0	27	0	601358336	50	6242
2026-01-13 19:16:42.99	276.55	4.40	-37.6	-39.1	25.7	3.02e+01	0	27	0	602931200	50	6138
2026-01-13 19:16:43.99	276.44	4.34	-37.7	-39.2	25.5	3.02e+01	0	27	0	605028352	50	6253
2026-01-13 19:16:45.00	276.34	4.28	-38.0	-39.6	25.2	3.02e+01	0	26	0	607125504	50	6516
2026-01-13 19:16:46.01	276.24	4.22	-37.9	-39.4	25.3	3.02e+01	0	26	0	608698368	50	6382
2026-01-13 19:16:47.02	276.14	4.16	-38.2	-39.8	24.9	3.02e+01	0	27	0	610795520	50	6682
2026-01-13 19:16:48.03	276.04	4.10	-37.8	-39.3	25.3	3.02e+01	0	27	0	612368384	50	6350
2026-01-13 19:16:49.04	275.94	4.05	-38.0	-39.5	25.2	3.02e+01	0	27	0	614465536	50	6469
2026-01-13 19:16:50.05	275.84	3.99	-37.8	-39.3	25.3	3.02e+01	0	27	0	616562688	50	6312
2026-01-13 19:16:51.05	275.74	3.93	-38.1	-39.6	25.0	3.02e+01	0	27	0	618135552	50	6571
2026-01-13 19:16:52.06	275.64	3.87	-38.0	-39.5	25.1	3.02e+01	0	27	0	620232704	50	6495
2026-01-13 19:16:53.07	275.54	3.81	-37.8	-39.3	25.3	3.02e+01	0	27	0	621805568	50	6313
2026-01-13 19:16:54.08	275.45	3.76	-37.9	-39.5	25.1	3.02e+01	0	27	0	623902720	50	6430
2026-01-13 19:16:55.08	275.35	3.70	-38.1	-39.6	24.9	3.02e+01	0	27	0	625999872	50	6563
2026-01-13 19:16:56.09	275.25	3.64	-38.0	-39.6	25.1	3.02e+01	0	27	0	627572736	50	6500
2026-01-13 19:16:57.11	275.15	3.58	-37.9	-39.4	25.1	3.02e+01	0	27	0	629669888	50	6417
2026-01-13 19:16:58.12	275.06	3.52	-37.9	-39.4	25.1	3.02e+01	0	27	0	631242752	50	6406
2026-01-13 19:16:59.12	274.96	3.47	-37.9	-39.5	25.1	3.02e+01	0	27	0	633339904	50	6450
2026-01-13 19:17:00.13	274.87	3.41	-38.1	-39.7	24.8	3.02e+01	0	27	0	635437056	50	6610
2026-01-13 19:17:01.14	274.77	3.35	-38.0	-39.6	25.0	3.02e+01	0	27	0	637009920	50	6502
2026-01-13 19:17:02.15	274.68	3.29	-38.0	-39.5	25.0	3.02e+01	0	27	0	639107072	50	6462
2026-01-13 19:17:03.16	274.58	3.24	-38.0	-39.6	24.9	3.02e+01	0	27	0	640679936	50	6549
2026-01-13 19:17:04.17	274.49	3.18	-38.2	-39.8	24.5	3.02e+01	0	27	0	642777088	50	6704
2026-01-13 19:17:05.18	274.40	3.12	-38.1	-39.7	24.7	3.02e+01	0	27	0	644874240	50	6633
2026-01-13 19:17:06.19	274.30	3.07	-38.5	-40.1	24.4	3.02e+01	0	27	0	646447104	50	6934
2026-01-13 19:17:07.20	274.21	3.01	-38.9	-40.6	24.1	3.02e+01	0	27	0	648544256	50	7360
2026-01-13 19:17:08.21	274.12	2.95	-48.0	-65.7	3.5	3.02e+01	0	27	104	649068544	60	73985
2026-01-13 19:17:09.22	274.03	2.89	-48.3	-66.3	3.5	3.02e+01	0	27	104	649068544	60	79089
2026-01-13 19:17:10.22	273.94	2.84	-48.5	-66.4	3.5	3.02e+01	0	27	104	649068544	60	80300
2026-01-13 19:17:11.23	273.85	2.78	-48.7	-66.6	3.5	3.02e+01	0	27	104	649068544	60	81818
2026-01-13 19:17:12.24	273.76	2.72	-48.7	-66.6	3.5	3.02e+01	0	27	104	649068544	60	81990
2026-01-13 19:17:13.25	273.67	2.67	-48.8	-66.6	3.5	3.02e+01	0	27	104	649068544	60	82073
2026-01-13 19:17:14.26	273.58	2.61	-48.8	-66.7	3.5	3.02e+01	0	27	104	649068544	60	83121
2026-01-13 19:17:15.27	273.49	2.55	-48.8	-66.6	3.5	3.02e+01	0	27	104	649068544	60	82394
2026-01-13 19:17:16.28	273.40	2.50	-48.7	-66.6	3.5	3.02e+01	0	27	104	649068544	60	82710
2026-01-13 19:17:17.29	273.31	2.44	-48.7	-66.7	3.5	3.02e+01	0	27	104	649068544	60	83186
2026-01-13 19:17:18.30	273.22	2.38	-48.5	-66.7	3.5	3.02e+01	0	27	104	649068544	60	82821
2026-01-13 19:17:19.31	273.13	2.33	-48.6	-66.6	3.5	3.02e+01	0	27	104	649068544	60	82703
2026-01-13 19:17:20.32	273.05	2.27	-48.5	-66.6	3.5	3.02e+01	0	27	104	649068544	60	82681
2026-01-13 19:17:21.33	272.96	2.22	-48.3	-66.6	3.5	3.02e+01	0	27	104	649068544	60	82128
2026-01-13 19:17:22.34	272.87	2.16	-48.6	-66.6	3.5	3.02e+01	0	27	104	649068544	60	81916
2026-01-13 19:17:23.35	272.79	2.10	-48.2	-66.5	3.5	3.02e+01	0	27	104	649068544	60	81707
2026-01-13 19:17:24.36	272.70	2.05	-48.8	-66.9	3.5	3.02e+01	0	27	104	649068544	60	84890
2026-01-13 19:17:25.37	272.62	1.99	-48.7	-66.6	3.5	3.02e+01	0	27	104	649068544	60	82673
2026-01-13 19:17:26.38	272.53	1.94	-48.7	-66.6	3.5	3.02e+01	0	27	104	649068544	60	82306
2026-01-13 19:17:27.39	272.45	1.88	-48.7	-66.6	3.5	3.02e+01	0	27	104	649068544	60	82100
2026-01-13 19:17:28.40	272.36	1.82	-48.7	-66.6	3.5	3.02e+01	0	27	104	649068544	60	82078
2026-01-13 19:17:29.41	272.28	1.77	-48.7	-66.6	3.5	3.02e+01	0	27	104	649068544	60	82389
2026-01-13 19:17:30.42	272.19	1.71	-48.6	-66.6	3.5	3.02e+01	0	27	104	649068544	60	81892
2026-01-13 19:17:31.43	272.11	1.66	-48.7	-66.6	3.5	3.02e+01	0	27	104	649068544	60	81950
2026-01-13 19:17:32.44	272.03	1.60	-48.7	-66.6	3.5	3.02e+01	0	27	104	649068544	60	82111
2026-01-13 19:17:33.45	271.95	1.55	-48.7	-66.6	3.5	3.02e+01	0	27	104	649068544	60	81814
2026-01-13 19:17:34.46	271.86	1.49	-48.7	-66.6	3.5	3.02e+01	0	27	104	649068544	60	82672
2026-01-13 19:17:35.47	271.78	1.44	-48.7	-66.6	3.5	3.02e+01	0	27	104	649068544	60	81881
2026-01-13 19:17:36.47	271.70	1.38	-48.7	-66.5	3.5	3.02e+01	0	27	104	649068544	60	81541
2026-01-13 19:17:37.48	271.62	1.33	-48.6	-66.6	3.5	3.02e+01	0	27	104	649068544	60	82065
2026-01-13 19:17:38.49	271.54	1.27	-48.6	-66.5	3.5	3.02e+01	0	27	104	649068544	60	81706
2026-01-13 19:17:39.50	271.46	1.22	-48.6	-66.5	3.5	3.02e+01	0	27	104	649068544	60	81660
2026-01-13 19:17:40.51	271.38	1.16	-48.6	-66.5	3.5	3.02e+01	0	27	104	649068544	60	81636
2026-01-13 19:17:41.52	271.30	1.11	-48.6	-66.5	3.5	3.02e+01	0	27	104	649068544	60	81677
2026-01-13 19:17:42.53	271.22	1.05	-48.7	-66.6	3.5	3.02e+01	0	27	104	649068544	60	82215
2026-01-13 19:17:43.54	271.14	1.00	-48.6	-66.5	3.5	3.02e+01	0	27	104	649068544	60	81613
2026-01-13 19:17:44.55	271.06	0.94	-48.6	-66.5	3.5	3.02e+01	0	27	104	649068544	60	81760
2026-01-13 19:17:45.56	270.98	0.89	-48.6	-66.5	3.5	3.02e+01	0	27	104	649068544	60	81574
2026-01-13 19:17:46.57	270.90	0.83	-48.7	-66.6	3.5	3.02e+01	0	27	104	649068544	60	82340
2026-01-13 19:17:47.58	270.83	0.78	-48.7	-66.5	3.5	3.02e+01	0	27	104	649068544	60	81742
2026-01-13 19:17:48.59	270.75	0.72	-48.6	-66.5	3.5	3.02e+01	0	27	104	649068544	60	81617
2026-01-13 19:17:49.60	270.67	0.67	-48.6	-66.5	3.5	3.02e+01	0	27	104	649068544	60	81585
2026-01-13 19:17:50.61	270.59	0.61	-48.7	-66.6	3.5	3.02e+01	0	27	104	649068544	60	81934
2026-01-13 19:17:51.62	270.52	0.56	-48.6	-66.6	3.5	3.02e+01	0	27	104	649068544	60	81997
2026-01-13 19:17:52.63	270.44	0.51	-48.6	-66.5	3.5	3.02e+01	0	27	104	649068544	60	81477
2026-01-13 19:17:53.64	270.36	0.45	-48.6	-66.6	3.5	3.02e+01	0	27	104	649068544	60	82177
2026-01-13 19:17:54.65	270.29	0.40	-48.7	-66.6	3.5	3.02e+01	0	27	104	649068544	60	82020
2026-01-13 19:17:55.66	270.21	0.34	-48.6	-66.5	3.5	3.02e+01	0	27	104	649068544	60	81703
2026-01-13 19:17:56.66	270.14	0.29	-48.7	-66.6	3.5	3.02e+01	0	27	104	649068544	60	81922
2026-01-13 19:17:57.67	270.06	0.24	-48.7	-66.6	3.5	3.02e+01	0	27	104	649068544	60	82675
2026-01-13 19:17:58.68	269.99	0.18	-48.7	-66.6	3.5	3.02e+01	0	27	104	649068544	60	82017
2026-01-13 19:17:59.70	269.92	0.13	-48.6	-66.5	3.5	3.02e+01	0	27	104	649068544	60	81734
2026-01-13 19:18:00.70	269.84	0.08	-48.6	-66.5	3.5	3.02e+01	0	27	104	649068544	60	81459
2026-01-13 19:18:01.71	269.77	0.02	-48.6	-66.6	3.5	3.02e+01	0	27	104	649068544	60	81865
2026-01-13 19:18:02.72	269.70	-0.03	-48.6	-66.5	3.5	3.02e+01	0	27	104	649068544	60	81795
2026-01-13 19:18:03.73	269.62	-0.09	-48.6	-66.6	3.5	3.02e+01	0	27	104	649068544	60	82006
2026-01-13 19:18:04.74	269.55	-0.14	-48.7	-66.6	3.5	3.02e+01	0	27	104	649068544	60	82407

#Closed at: 2026-01-13 19:18:05
#Recorded file [649 MB]: D:/lorett/data/35029_260114_070612.dat