passes_logs/2026/01/13/R4.6S_Anadyr/R4.6S_Anadyr__20260113_170220_SUOMI_NPP_rec.log

#Pass ID: 20260113_170220_SUOMI NPP
#Satellite: SUOMI NPP
#Configuration: NPP
#almurnet v.1.7.20251203
#Start time: 2026-01-13 17:02:23

#Version: 2.2.20231116
#Station: R4.6S_Anadyr
#Location: 177.4865 lon 64.73178 lat
#TLE: 1 37849U 11061A   26012.28456845  .00000093  00000+0  65163-4 0  9999
#TLE: 2 37849  98.7807 314.3566 0002508  68.3553 291.7890 14.19524725736322

#Time	Az	El	Level	Level2	SNR	BER	BlckErr	Temp	State	Recorded	gain1	gain2
2026-01-13 17:02:23.61	28.77	0.19	-48.5	-62.4	3.4	1.54e+00	0	26	0	0	60	47466
2026-01-13 17:02:24.62	28.72	0.24	-48.5	-63.7	3.6	1.51e+00	0	26	104	0	60	55475
2026-01-13 17:02:25.63	28.67	0.30	-48.5	-63.7	3.6	1.51e+00	0	26	104	0	60	55608
2026-01-13 17:02:26.64	28.62	0.35	-48.5	-63.7	3.6	1.51e+00	0	26	104	0	60	55230
2026-01-13 17:02:27.64	28.56	0.41	-48.5	-63.7	3.6	1.51e+00	0	26	104	0	60	55123
2026-01-13 17:02:28.66	28.51	0.47	-48.4	-63.6	3.6	1.51e+00	0	26	104	0	60	54544
2026-01-13 17:02:29.67	28.46	0.52	-48.3	-63.5	3.6	1.51e+00	0	26	104	0	60	54008
2026-01-13 17:02:30.68	28.41	0.58	-48.2	-63.4	3.6	1.51e+00	0	26	104	0	60	53351
2026-01-13 17:02:31.69	28.35	0.63	-48.0	-63.3	3.6	1.51e+00	0	26	104	0	60	52568
2026-01-13 17:02:32.69	28.30	0.69	-47.9	-63.1	3.6	1.51e+00	0	26	104	0	60	51842
2026-01-13 17:02:33.70	28.25	0.75	-47.8	-62.9	3.6	1.51e+00	0	26	104	0	60	50637
2026-01-13 17:02:34.71	28.19	0.80	-47.5	-62.7	3.6	1.51e+00	0	26	104	0	60	49114
2026-01-13 17:02:35.72	28.14	0.86	-47.1	-62.3	3.6	1.51e+00	0	26	104	0	60	46999
2026-01-13 17:02:36.73	28.09	0.92	-46.9	-62.0	3.6	1.51e+00	0	26	104	0	60	45447
2026-01-13 17:02:37.74	28.03	0.97	-46.8	-61.9	3.6	1.51e+00	0	26	104	0	60	44941
2026-01-13 17:02:38.75	27.98	1.03	-46.8	-61.9	3.6	1.51e+00	0	26	104	0	60	45085
2026-01-13 17:02:39.75	27.93	1.09	-46.8	-62.0	3.6	1.51e+00	0	26	104	0	60	45503
2026-01-13 17:02:40.76	27.87	1.14	-46.8	-62.0	3.6	1.51e+00	0	26	104	0	60	45245
2026-01-13 17:02:41.77	27.82	1.20	-46.8	-62.0	3.6	1.51e+00	0	26	104	0	60	45289
2026-01-13 17:02:42.78	27.76	1.26	-46.8	-61.9	3.6	1.51e+00	0	26	104	0	60	45158
2026-01-13 17:02:43.79	27.71	1.32	-46.8	-61.9	3.6	1.51e+00	0	26	104	0	60	45196
2026-01-13 17:02:44.80	27.65	1.37	-46.8	-62.0	3.6	1.51e+00	0	26	104	0	60	45278
2026-01-13 17:02:45.81	27.59	1.43	-46.8	-61.9	3.6	1.51e+00	0	26	104	0	60	44976
2026-01-13 17:02:46.82	27.54	1.49	-46.8	-62.0	3.6	1.51e+00	0	26	104	0	60	45286
2026-01-13 17:02:47.83	27.48	1.55	-46.8	-62.0	3.6	1.51e+00	0	26	104	0	60	45507
2026-01-13 17:02:48.84	27.43	1.60	-46.8	-62.0	3.6	1.51e+00	0	26	104	0	60	45403
2026-01-13 17:02:49.85	27.37	1.66	-46.8	-62.0	3.6	1.51e+00	0	26	104	0	60	45317
2026-01-13 17:02:50.86	27.31	1.72	-46.8	-62.0	3.6	1.51e+00	0	26	104	0	60	45423
2026-01-13 17:02:51.87	27.25	1.78	-46.8	-61.9	3.6	1.51e+00	0	26	104	0	60	45231
2026-01-13 17:02:52.88	27.20	1.84	-46.8	-61.9	3.6	1.51e+00	0	26	104	0	60	45178
2026-01-13 17:02:53.89	27.14	1.89	-46.8	-62.0	3.6	1.51e+00	0	26	104	0	60	45295
2026-01-13 17:02:54.90	27.08	1.95	-46.8	-61.8	3.6	1.51e+00	0	26	104	0	60	44687
2026-01-13 17:02:55.91	27.02	2.01	-46.8	-61.7	3.6	1.51e+00	0	26	104	0	60	43881
2026-01-13 17:02:56.92	26.96	2.07	-46.8	-61.7	3.6	1.51e+00	0	26	104	0	60	44117
2026-01-13 17:02:57.93	26.91	2.13	-46.8	-61.7	3.6	1.51e+00	0	27	104	0	60	44099
2026-01-13 17:02:58.94	26.85	2.19	-46.8	-61.8	3.6	1.51e+00	0	26	104	0	60	44543
2026-01-13 17:02:59.95	26.79	2.24	-46.8	-61.9	3.6	1.51e+00	0	26	104	0	60	45069
2026-01-13 17:03:00.95	26.73	2.30	-46.8	-61.9	3.6	1.51e+00	0	27	104	0	60	45132
2026-01-13 17:03:01.96	26.67	2.36	-46.8	-61.9	3.6	1.51e+00	0	27	104	0	60	45150
2026-01-13 17:03:02.97	26.61	2.42	-46.8	-61.9	3.6	1.51e+00	0	27	104	0	60	44859
2026-01-13 17:03:03.98	26.55	2.48	-46.8	-61.9	3.6	1.51e+00	0	27	104	0	60	45144
2026-01-13 17:03:04.99	26.49	2.54	-46.8	-62.0	3.6	1.51e+00	0	27	104	0	60	45274
2026-01-13 17:03:06.00	26.43	2.60	-46.8	-61.9	3.6	1.51e+00	0	27	104	0	60	44878
2026-01-13 17:03:07.01	26.37	2.66	-46.8	-61.6	3.6	1.51e+00	0	27	104	0	60	43662
2026-01-13 17:03:08.02	26.31	2.72	-46.8	-61.4	3.6	1.51e+00	0	27	104	0	60	42280
2026-01-13 17:03:09.03	26.24	2.78	-46.8	-61.3	3.6	1.51e+00	0	26	104	0	60	42164
2026-01-13 17:03:10.04	26.18	2.84	-46.8	-61.5	3.6	1.51e+00	0	26	104	0	60	42740
2026-01-13 17:03:11.05	26.12	2.90	-46.8	-61.7	3.6	1.51e+00	0	27	104	0	60	43841
2026-01-13 17:03:12.06	26.06	2.96	-46.8	-61.6	3.6	1.51e+00	0	27	104	0	60	43399
2026-01-13 17:03:13.06	26.00	3.02	-46.7	-60.3	3.6	1.51e+00	0	27	104	0	60	37295
2026-01-13 17:03:14.07	25.93	3.08	-46.5	-57.5	3.9	1.50e+00	0	27	104	0	60	27121
2026-01-13 17:03:15.08	25.87	3.14	-46.2	-54.3	6.2	3.66e-01	0	27	0	0	60	18736
2026-01-13 17:03:16.09	25.81	3.20	-45.9	-52.4	7.7	1.09e-01	2	27	0	2097152	60	15152
2026-01-13 17:03:17.10	25.74	3.26	-45.6	-51.3	9.2	4.83e-02	0	27	0	3145728	60	13268
2026-01-13 17:03:18.11	25.68	3.32	-45.1	-50.0	10.4	9.01e-03	86	27	0	5242880	60	11385
2026-01-13 17:03:19.12	25.61	3.38	-46.8	-60.8	3.6	1.30e+00	0	27	104	6291456	60	39713
2026-01-13 17:03:20.13	25.55	3.44	-46.8	-60.0	3.6	1.51e+00	0	27	104	6291456	60	36227
2026-01-13 17:03:21.14	25.49	3.50	-46.3	-55.8	5.4	1.47e+00	0	27	104	6291456	60	22240
2026-01-13 17:03:22.15	25.42	3.56	-41.4	-43.3	17.8	0.00e+00	0	27	0	6291456	56	6642
2026-01-13 17:03:23.16	25.35	3.62	-46.7	-61.4	3.6	1.17e+00	0	27	104	7340032	60	42613
2026-01-13 17:03:24.17	25.29	3.68	-41.3	-43.2	17.0	1.17e+00	0	27	104	7340032	56	6549
2026-01-13 17:03:25.18	25.22	3.74	-41.2	-42.9	18.0	0.00e+00	92	27	0	8388608	56	6381
2026-01-13 17:03:26.19	25.16	3.80	-41.4	-43.2	17.7	0.00e+00	0	27	0	9437184	56	6615
2026-01-13 17:03:27.20	25.09	3.87	-40.9	-42.6	18.4	0.00e+00	0	27	0	11534336	56	6150
2026-01-13 17:03:28.21	25.02	3.93	-41.0	-42.7	18.2	0.00e+00	0	27	0	13631488	56	6245
2026-01-13 17:03:29.22	24.96	3.99	-41.2	-43.0	18.1	0.00e+00	0	27	0	15728640	56	6428
2026-01-13 17:03:30.23	24.89	4.05	-41.2	-43.0	18.0	0.00e+00	0	27	0	17825792	56	6449
2026-01-13 17:03:31.23	24.82	4.11	-40.8	-42.4	18.5	0.00e+00	0	27	0	18874368	56	6019
2026-01-13 17:03:32.24	24.75	4.17	-41.0	-42.7	18.4	0.00e+00	90	27	0	20971520	56	6185
2026-01-13 17:03:33.25	24.69	4.24	-41.1	-42.8	18.4	0.00e+00	0	27	0	23068672	56	6274
2026-01-13 17:03:34.26	24.62	4.30	-40.6	-42.1	18.9	0.00e+00	69	27	0	25165824	54	6531
2026-01-13 17:03:35.26	24.55	4.36	-40.8	-42.4	18.7	0.00e+00	0	27	0	27262976	54	6730
2026-01-13 17:03:36.27	24.48	4.42	-40.7	-42.4	18.6	0.00e+00	0	27	0	28311552	54	6713
2026-01-13 17:03:37.28	24.41	4.48	-41.1	-42.9	18.3	0.00e+00	0	27	0	30408704	54	7128
2026-01-13 17:03:38.29	24.34	4.55	-40.9	-42.5	18.5	0.00e+00	0	27	0	32505856	54	6839
2026-01-13 17:03:39.29	24.27	4.61	-40.7	-42.3	18.6	0.00e+00	59	27	0	34603008	54	6676
2026-01-13 17:03:40.30	24.20	4.67	-40.9	-42.5	18.3	0.00e+00	0	27	0	36700160	54	6829
2026-01-13 17:03:41.31	24.13	4.73	-41.1	-42.8	18.5	0.00e+00	92	27	0	37748736	54	7039
2026-01-13 17:03:42.32	24.06	4.80	-41.1	-42.8	18.2	0.00e+00	0	27	0	39845888	54	7045
2026-01-13 17:03:43.33	23.99	4.86	-41.4	-43.2	17.9	0.00e+00	0	27	0	41943040	54	7367
2026-01-13 17:03:44.34	23.91	4.92	-41.7	-43.6	17.6	0.00e+00	0	27	0	44040192	56	6924
2026-01-13 17:03:45.35	23.84	4.99	-41.9	-43.8	17.5	0.00e+00	0	27	0	46137344	56	7064
2026-01-13 17:03:46.36	23.77	5.05	-41.8	-43.7	17.5	0.00e+00	2	27	0	47185920	56	6973
2026-01-13 17:03:47.36	23.70	5.11	-41.7	-43.5	17.7	0.00e+00	0	27	0	49283072	56	6826
2026-01-13 17:03:48.37	23.62	5.17	-41.1	-42.8	18.5	0.00e+00	81	27	0	51380224	56	6292
2026-01-13 17:03:49.38	23.55	5.24	-41.0	-42.7	18.6	0.00e+00	0	27	0	53477376	56	6177
2026-01-13 17:03:50.39	23.48	5.30	-40.7	-42.3	18.8	0.00e+00	0	27	0	55574528	54	6649
2026-01-13 17:03:51.40	23.40	5.37	-40.6	-42.1	19.0	0.00e+00	0	27	0	56623104	54	6510
2026-01-13 17:03:52.41	23.33	5.43	-40.9	-42.6	18.6	0.00e+00	0	27	0	58720256	54	6859
2026-01-13 17:03:53.42	23.25	5.49	-40.6	-42.2	18.8	0.00e+00	17	27	0	60817408	54	6584
2026-01-13 17:03:54.43	23.18	5.56	-41.1	-42.8	18.4	0.00e+00	0	27	0	62914560	54	7047
2026-01-13 17:03:55.44	23.10	5.62	-40.8	-42.4	18.8	0.00e+00	61	27	0	65011712	54	6723
2026-01-13 17:03:56.45	23.03	5.69	-40.7	-42.3	18.9	0.00e+00	0	27	0	66060288	54	6674
2026-01-13 17:03:57.46	22.95	5.75	-41.0	-42.7	18.7	0.00e+00	0	27	0	68157440	54	6929
2026-01-13 17:03:58.47	22.87	5.82	-40.9	-42.6	18.7	0.00e+00	0	27	0	70254592	54	6855
2026-01-13 17:03:59.48	22.80	5.88	-41.0	-42.7	18.5	0.00e+00	0	27	0	72351744	54	6962
2026-01-13 17:04:00.49	22.72	5.95	-40.8	-42.4	18.8	0.00e+00	54	27	0	74448896	54	6752
2026-01-13 17:04:01.50	22.64	6.01	-40.7	-42.3	18.9	0.00e+00	0	27	0	75497472	54	6620
2026-01-13 17:04:02.51	22.56	6.08	-40.9	-42.5	19.0	0.00e+00	92	27	0	77594624	54	6818
2026-01-13 17:04:03.52	22.49	6.14	-40.9	-42.5	18.7	0.00e+00	0	27	0	79691776	54	6827
2026-01-13 17:04:04.53	22.41	6.21	-40.8	-42.4	18.9	0.00e+00	0	27	0	81788928	54	6709
2026-01-13 17:04:05.54	22.33	6.27	-40.9	-42.6	18.6	0.00e+00	0	27	0	83886080	54	6855
2026-01-13 17:04:06.55	22.25	6.34	-40.9	-42.5	18.9	0.00e+00	0	27	0	84934656	54	6820
2026-01-13 17:04:07.56	22.17	6.40	-40.6	-42.2	19.0	0.00e+00	0	27	0	87031808	54	6555
2026-01-13 17:04:08.57	22.09	6.47	-40.6	-42.1	19.1	0.00e+00	0	27	0	89128960	54	6530
2026-01-13 17:04:09.58	22.01	6.53	-40.4	-41.9	19.5	0.00e+00	59	27	0	91226112	54	6345
2026-01-13 17:04:10.59	21.93	6.60	-40.6	-42.2	19.2	0.00e+00	0	27	0	93323264	54	6551
2026-01-13 17:04:11.60	21.85	6.67	-40.3	-41.7	19.6	0.00e+00	65	27	0	95420416	54	6226
2026-01-13 17:04:12.61	21.76	6.73	-40.2	-41.6	19.7	0.00e+00	0	27	0	96468992	54	6123
2026-01-13 17:04:13.62	21.68	6.80	-40.4	-41.9	19.5	0.00e+00	0	27	0	98566144	54	6347
2026-01-13 17:04:14.63	21.60	6.86	-39.7	-41.0	20.2	0.00e+00	0	27	0	100663296	54	5705
2026-01-13 17:04:15.64	21.52	6.93	-40.0	-41.4	19.9	0.00e+00	0	27	0	102760448	52	6719
2026-01-13 17:04:16.64	21.43	7.00	-39.8	-41.2	20.1	0.00e+00	63	27	0	104857600	52	6548
2026-01-13 17:04:17.65	21.35	7.06	-39.7	-41.0	20.3	0.00e+00	0	27	0	105906176	52	6411
2026-01-13 17:04:18.66	21.27	7.13	-39.7	-41.0	20.3	0.00e+00	92	27	0	108003328	52	6453
2026-01-13 17:04:19.67	21.18	7.20	-39.8	-41.1	20.2	0.00e+00	0	27	0	110100480	52	6516
2026-01-13 17:04:20.68	21.10	7.26	-39.4	-40.7	20.6	0.00e+00	0	27	0	112197632	52	6179
2026-01-13 17:04:21.69	21.01	7.33	-39.6	-40.9	20.4	0.00e+00	0	27	0	114294784	52	6329
2026-01-13 17:04:22.70	20.92	7.40	-39.5	-40.8	20.5	0.00e+00	0	27	0	115343360	52	6248
2026-01-13 17:04:23.71	20.84	7.47	-39.6	-40.8	20.4	0.00e+00	6	27	0	117440512	52	6301
2026-01-13 17:04:24.72	20.75	7.53	-39.6	-40.9	20.4	0.00e+00	0	27	0	119537664	52	6336
2026-01-13 17:04:25.73	20.66	7.60	-39.5	-40.8	20.5	0.00e+00	92	27	0	121634816	52	6292
2026-01-13 17:04:26.74	20.58	7.67	-39.9	-41.3	20.1	0.00e+00	0	27	0	123731968	52	6641
2026-01-13 17:04:27.75	20.49	7.74	-39.7	-41.0	20.3	0.00e+00	0	27	0	124780544	52	6432
2026-01-13 17:04:28.76	20.40	7.80	-39.8	-41.1	20.2	0.00e+00	0	27	0	126877696	52	6503
2026-01-13 17:04:29.77	20.31	7.87	-39.9	-41.2	20.2	0.00e+00	0	27	0	128974848	52	6576
2026-01-13 17:04:30.78	20.22	7.94	-39.8	-41.1	20.2	0.00e+00	64	27	0	131072000	52	6534
2026-01-13 17:04:31.79	20.13	8.01	-39.9	-41.2	20.1	0.00e+00	0	27	0	133169152	52	6590
2026-01-13 17:04:32.80	20.04	8.08	-39.7	-41.0	20.3	0.00e+00	90	27	0	134217728	52	6464
2026-01-13 17:04:33.81	19.95	8.15	-39.7	-41.0	20.4	0.00e+00	0	27	0	136314880	52	6405
2026-01-13 17:04:34.82	19.86	8.22	-40.0	-41.3	20.0	0.00e+00	0	27	0	138412032	52	6687
2026-01-13 17:04:35.83	19.77	8.28	-39.9	-41.2	20.2	0.00e+00	0	27	0	140509184	52	6578
2026-01-13 17:04:36.84	19.68	8.35	-39.8	-41.1	20.2	0.00e+00	0	27	0	142606336	52	6535
2026-01-13 17:04:37.85	19.59	8.42	-39.8	-41.1	20.1	0.00e+00	0	27	0	143654912	52	6529
2026-01-13 17:04:38.86	19.49	8.49	-39.9	-41.2	20.0	0.00e+00	0	27	0	145752064	52	6594
2026-01-13 17:04:39.87	19.40	8.56	-39.9	-41.2	20.1	0.00e+00	61	27	0	147849216	52	6604
2026-01-13 17:04:40.88	19.31	8.63	-40.0	-41.4	19.9	0.00e+00	0	27	0	149946368	52	6720
2026-01-13 17:04:41.88	19.21	8.70	-40.2	-41.5	19.8	0.00e+00	0	27	0	152043520	52	6848
2026-01-13 17:04:42.89	19.12	8.77	-40.0	-41.4	20.1	0.00e+00	0	27	0	153092096	52	6704
2026-01-13 17:04:43.90	19.02	8.84	-39.6	-40.9	20.5	0.00e+00	0	27	0	155189248	52	6340
2026-01-13 17:04:44.91	18.93	8.91	-39.7	-41.0	20.4	0.00e+00	0	27	0	157286400	52	6422
2026-01-13 17:04:45.92	18.83	8.98	-39.6	-40.8	20.6	0.00e+00	0	27	0	159383552	52	6302
2026-01-13 17:04:46.92	18.74	9.05	-39.6	-40.9	20.4	0.00e+00	63	27	0	161480704	52	6342
2026-01-13 17:04:47.93	18.64	9.12	-39.7	-41.1	20.2	0.00e+00	0	27	0	163577856	52	6467
2026-01-13 17:04:48.94	18.54	9.19	-39.7	-40.9	20.4	0.00e+00	67	27	0	164626432	52	6388
2026-01-13 17:04:49.95	18.44	9.26	-39.9	-41.2	20.4	0.00e+00	0	27	0	166723584	52	6604
2026-01-13 17:04:50.96	18.35	9.33	-39.9	-41.2	20.2	0.00e+00	0	27	0	168820736	52	6599
2026-01-13 17:04:51.96	18.25	9.40	-40.3	-41.7	19.9	0.00e+00	0	27	0	170917888	52	6953
2026-01-13 17:04:52.97	18.15	9.47	-40.0	-41.3	20.2	0.00e+00	0	27	0	171966464	52	6671
2026-01-13 17:04:53.98	18.05	9.54	-39.9	-41.2	20.2	0.00e+00	64	27	0	174063616	52	6595
2026-01-13 17:04:54.99	17.95	9.61	-40.0	-41.3	20.2	0.00e+00	0	27	0	176160768	52	6670
2026-01-13 17:04:56.00	17.85	9.68	-39.9	-41.3	20.2	0.00e+00	88	27	0	178257920	52	6623
2026-01-13 17:04:57.01	17.74	9.75	-39.9	-41.2	20.3	0.00e+00	0	27	0	180355072	52	6615
2026-01-13 17:04:58.02	17.64	9.82	-39.9	-41.2	20.2	0.00e+00	0	27	0	181403648	52	6596
2026-01-13 17:04:59.03	17.54	9.90	-40.1	-41.5	20.1	0.00e+00	0	27	0	183500800	52	6792
2026-01-13 17:05:00.04	17.44	9.97	-40.2	-41.7	20.0	0.00e+00	0	27	0	185597952	52	6941
2026-01-13 17:05:01.05	17.33	10.04	-40.2	-41.6	20.0	0.00e+00	16	27	0	187695104	52	6880
2026-01-13 17:05:02.06	17.23	10.11	-40.4	-41.9	19.7	0.00e+00	0	27	0	189792256	52	7161
2026-01-13 17:05:03.07	17.13	10.18	-40.3	-41.7	19.9	0.00e+00	68	27	0	191889408	52	6957
2026-01-13 17:05:04.08	17.02	10.25	-40.0	-41.3	20.2	0.00e+00	0	27	0	192937984	52	6653
2026-01-13 17:05:05.09	16.91	10.33	-39.7	-41.0	20.5	0.00e+00	0	27	0	195035136	52	6402
2026-01-13 17:05:06.10	16.81	10.40	-39.7	-41.0	20.4	0.00e+00	0	27	0	197132288	52	6427
2026-01-13 17:05:07.11	16.70	10.47	-39.9	-41.2	20.4	0.00e+00	0	27	0	199229440	52	6587
2026-01-13 17:05:08.12	16.59	10.54	-39.5	-40.7	20.8	0.00e+00	38	27	0	201326592	52	6238
2026-01-13 17:05:09.13	16.49	10.62	-39.3	-40.6	20.9	0.00e+00	0	27	0	202375168	52	6104
2026-01-13 17:05:10.14	16.38	10.69	-39.4	-40.7	20.8	0.00e+00	92	27	0	204472320	52	6178
2026-01-13 17:05:11.15	16.27	10.76	-39.4	-40.6	21.0	0.00e+00	0	27	0	206569472	52	6120
2026-01-13 17:05:12.15	16.16	10.83	-39.4	-40.7	20.8	0.00e+00	46	27	0	208666624	52	6199
2026-01-13 17:05:13.16	16.05	10.91	-39.3	-40.5	20.9	0.00e+00	0	27	0	210763776	52	6080
2026-01-13 17:05:14.17	15.94	10.98	-39.1	-40.3	21.0	0.00e+00	0	27	0	211812352	52	5948
2026-01-13 17:05:15.18	15.83	11.05	-39.2	-40.4	21.1	0.00e+00	61	27	0	213909504	52	5967
2026-01-13 17:05:16.19	15.72	11.13	-39.1	-40.3	21.2	0.00e+00	0	27	0	216006656	52	5906
2026-01-13 17:05:17.20	15.60	11.20	-39.2	-40.4	21.0	0.00e+00	60	27	0	218103808	52	5999
2026-01-13 17:05:18.21	15.49	11.27	-39.4	-40.6	20.9	0.00e+00	0	27	0	220200960	52	6134
2026-01-13 17:05:19.22	15.38	11.35	-39.4	-40.6	20.8	0.00e+00	92	27	0	221249536	52	6145
2026-01-13 17:05:20.23	15.26	11.42	-39.3	-40.5	21.0	0.00e+00	0	27	0	223346688	52	6050
2026-01-13 17:05:21.24	15.15	11.50	-39.1	-40.3	21.2	0.00e+00	0	27	0	225443840	52	5924
2026-01-13 17:05:22.24	15.03	11.57	-39.2	-40.4	21.1	0.00e+00	33	27	0	227540992	52	5974
2026-01-13 17:05:23.25	14.92	11.64	-38.8	-40.0	21.5	0.00e+00	0	27	0	229638144	52	5708
2026-01-13 17:05:24.27	14.80	11.72	-38.8	-39.9	21.6	0.00e+00	66	27	0	230686720	52	5647
2026-01-13 17:05:25.28	14.68	11.79	-38.6	-39.7	21.6	0.00e+00	0	27	0	232783872	50	6179
2026-01-13 17:05:26.29	14.57	11.87	-38.7	-39.7	21.7	0.00e+00	92	27	0	234881024	50	6240
2026-01-13 17:05:27.30	14.45	11.94	-38.5	-39.6	21.8	0.00e+00	0	27	0	236978176	50	6111
2026-01-13 17:05:28.31	14.33	12.02	-38.6	-39.7	21.6	0.00e+00	0	27	0	239075328	50	6219
2026-01-13 17:05:29.32	14.21	12.09	-38.6	-39.7	21.8	0.00e+00	0	27	0	240123904	50	6186
2026-01-13 17:05:30.32	14.09	12.16	-38.5	-39.6	21.8	0.00e+00	0	27	0	242221056	50	6131
2026-01-13 17:05:31.33	13.97	12.24	-38.8	-39.9	21.5	0.00e+00	64	27	0	244318208	50	6350
2026-01-13 17:05:32.34	13.85	12.32	-38.7	-39.8	21.7	0.00e+00	0	27	0	246415360	50	6260
2026-01-13 17:05:33.35	13.73	12.39	-38.7	-39.9	21.6	0.00e+00	69	27	0	248512512	50	6320
2026-01-13 17:05:34.36	13.60	12.47	-39.0	-40.1	21.4	0.00e+00	0	27	0	249561088	50	6498
2026-01-13 17:05:35.37	13.48	12.54	-38.9	-40.0	21.4	0.00e+00	14	27	0	251658240	50	6446
2026-01-13 17:05:36.38	13.35	12.62	-39.0	-40.2	21.4	0.00e+00	0	27	0	253755392	50	6544
2026-01-13 17:05:37.39	13.23	12.69	-38.8	-39.9	21.4	0.00e+00	0	27	0	255852544	50	6385
2026-01-13 17:05:38.40	13.10	12.77	-38.8	-39.9	21.5	0.00e+00	66	27	0	257949696	50	6334
2026-01-13 17:05:39.40	12.98	12.84	-38.9	-40.0	21.3	0.00e+00	0	27	0	260046848	50	6455
2026-01-13 17:05:40.41	12.85	12.92	-39.2	-40.4	21.1	0.00e+00	82	27	0	261095424	50	6715
2026-01-13 17:05:41.42	12.73	12.99	-39.3	-40.5	21.0	0.00e+00	0	27	0	263192576	50	6804
2026-01-13 17:05:42.43	12.60	13.07	-39.3	-40.5	20.8	0.00e+00	1	27	0	265289728	50	6805
2026-01-13 17:05:43.44	12.47	13.15	-39.4	-40.6	20.4	0.00e+00	0	27	0	267386880	50	6899
2026-01-13 17:05:44.45	12.34	13.22	-39.4	-40.7	20.7	0.00e+00	0	27	0	269484032	50	6934
2026-01-13 17:05:45.46	12.21	13.30	-39.4	-40.6	20.9	0.00e+00	0	27	0	270532608	50	6891
2026-01-13 17:05:46.47	12.08	13.38	-39.2	-40.4	21.1	0.00e+00	0	27	0	272629760	50	6723
2026-01-13 17:05:47.48	11.95	13.45	-39.1	-40.2	21.3	0.00e+00	92	27	0	274726912	50	6584
2026-01-13 17:05:48.49	11.81	13.53	-38.9	-40.1	21.4	0.00e+00	0	27	0	276824064	50	6475
2026-01-13 17:05:49.50	11.68	13.61	-38.9	-40.0	21.5	0.00e+00	90	27	0	278921216	50	6431
2026-01-13 17:05:50.51	11.55	13.68	-38.7	-39.8	21.7	0.00e+00	0	27	0	279969792	50	6297
2026-01-13 17:05:51.52	11.41	13.76	-38.6	-39.7	21.8	0.00e+00	0	27	0	282066944	50	6229
2026-01-13 17:05:52.52	11.28	13.84	-38.6	-39.7	21.6	0.00e+00	0	27	0	284164096	50	6230
2026-01-13 17:05:53.53	11.14	13.91	-38.6	-39.7	21.8	0.00e+00	0	27	0	286261248	50	6174
2026-01-13 17:05:54.54	11.01	13.99	-38.3	-39.4	22.0	0.00e+00	59	27	0	288358400	50	5968
2026-01-13 17:05:55.55	10.87	14.07	-38.5	-39.6	21.8	0.00e+00	0	27	0	289406976	50	6116
2026-01-13 17:05:56.56	10.73	14.14	-38.3	-39.4	22.0	0.00e+00	92	27	0	291504128	50	5974
2026-01-13 17:05:57.57	10.59	14.22	-38.2	-39.3	22.1	0.00e+00	0	27	0	293601280	50	5913
2026-01-13 17:05:58.58	10.45	14.30	-38.2	-39.3	22.2	0.00e+00	0	27	0	295698432	50	5913
2026-01-13 17:05:59.60	10.31	14.38	-37.8	-38.8	22.6	0.00e+00	0	27	0	297795584	50	5591
2026-01-13 17:06:00.60	10.17	14.45	-37.6	-38.6	22.7	0.00e+00	0	27	0	298844160	48	6110
2026-01-13 17:06:01.61	10.03	14.53	-37.8	-38.7	22.6	0.00e+00	31	27	0	300941312	48	6234
2026-01-13 17:06:02.62	9.89	14.61	-37.6	-38.6	22.6	0.00e+00	0	27	0	303038464	48	6153
2026-01-13 17:06:03.63	9.75	14.69	-37.9	-38.9	22.4	0.00e+00	64	27	0	305135616	48	6329
2026-01-13 17:06:04.64	9.60	14.76	-37.8	-38.8	22.4	0.00e+00	0	27	0	307232768	48	6301
2026-01-13 17:06:05.64	9.46	14.84	-37.9	-38.9	22.4	0.00e+00	0	27	0	308281344	48	6372
2026-01-13 17:06:06.65	9.31	14.92	-38.1	-39.1	22.1	0.00e+00	0	27	0	310378496	48	6520
2026-01-13 17:06:07.66	9.17	15.00	-38.0	-39.0	22.3	0.00e+00	0	27	0	312475648	48	6406
2026-01-13 17:06:08.67	9.02	15.08	-38.1	-39.2	22.3	0.00e+00	62	27	0	314572800	48	6556
2026-01-13 17:06:09.67	8.87	15.15	-37.9	-38.9	22.4	0.00e+00	0	27	0	316669952	48	6371
2026-01-13 17:06:10.69	8.72	15.23	-37.9	-39.0	22.4	0.00e+00	58	27	0	317718528	48	6396
2026-01-13 17:06:11.70	8.57	15.31	-37.9	-39.0	22.4	0.00e+00	0	27	0	319815680	48	6400
2026-01-13 17:06:12.71	8.42	15.39	-38.0	-39.0	22.3	0.00e+00	11	27	0	321912832	48	6420
2026-01-13 17:06:13.72	8.27	15.47	-37.9	-38.9	22.4	0.00e+00	0	27	0	324009984	48	6382
2026-01-13 17:06:14.73	8.12	15.54	-38.0	-39.1	22.3	0.00e+00	0	27	0	326107136	48	6477
2026-01-13 17:06:15.73	7.97	15.62	-37.9	-39.0	22.5	0.00e+00	64	27	0	328204288	48	6391
2026-01-13 17:06:16.74	7.82	15.70	-38.0	-39.0	22.4	0.00e+00	0	27	0	329252864	48	6438
2026-01-13 17:06:17.75	7.66	15.78	-38.1	-39.2	22.3	0.00e+00	60	27	0	331350016	48	6580
2026-01-13 17:06:18.76	7.51	15.86	-38.0	-39.0	22.4	0.00e+00	0	27	0	333447168	48	6456
2026-01-13 17:06:19.76	7.35	15.94	-38.0	-39.0	22.4	0.00e+00	10	27	0	335544320	48	6451
2026-01-13 17:06:20.77	7.19	16.01	-37.9	-39.0	22.4	0.00e+00	0	27	0	336592896	48	6414
2026-01-13 17:06:21.78	7.04	16.09	-37.9	-39.0	22.4	0.00e+00	0	27	0	338690048	48	6412
2026-01-13 17:06:22.79	6.88	16.17	-37.9	-38.9	22.5	0.00e+00	0	27	0	340787200	48	6352
2026-01-13 17:06:23.79	6.72	16.25	-37.8	-38.8	22.5	0.00e+00	0	27	0	342884352	48	6267
2026-01-13 17:06:24.80	6.56	16.33	-38.1	-39.1	22.2	0.00e+00	62	27	0	344981504	48	6509
2026-01-13 17:06:25.81	6.40	16.41	-38.3	-39.4	22.0	0.00e+00	0	27	0	346030080	48	6747
2026-01-13 17:06:26.82	6.24	16.49	-38.1	-39.1	22.2	0.00e+00	90	27	0	348127232	48	6515
2026-01-13 17:06:27.83	6.07	16.56	-38.1	-39.1	22.0	0.00e+00	0	27	0	350224384	48	6499
2026-01-13 17:06:28.84	5.91	16.64	-38.2	-39.3	22.1	0.00e+00	0	27	0	352321536	48	6644
2026-01-13 17:06:29.85	5.75	16.72	-38.5	-39.5	21.9	0.00e+00	0	27	0	354418688	48	6841
2026-01-13 17:06:30.85	5.58	16.80	-38.7	-39.8	21.8	0.00e+00	0	27	0	356515840	48	7040
2026-01-13 17:06:31.86	5.42	16.88	-38.8	-40.0	21.6	0.00e+00	65	27	0	357564416	50	6414
2026-01-13 17:06:32.88	5.25	16.96	-39.1	-40.2	21.5	0.00e+00	0	27	0	359661568	50	6615
2026-01-13 17:06:33.88	5.08	17.04	-38.9	-40.1	21.5	0.00e+00	92	27	0	361758720	50	6484
2026-01-13 17:06:34.89	4.91	17.12	-39.0	-40.2	21.5	0.00e+00	0	27	0	363855872	50	6547
2026-01-13 17:06:35.90	4.74	17.19	-39.1	-40.3	21.3	0.00e+00	0	27	0	365953024	50	6650
2026-01-13 17:06:36.92	4.57	17.27	-39.6	-40.8	20.9	0.00e+00	0	27	0	367001600	50	7044
2026-01-13 17:06:37.92	4.40	17.35	-39.3	-40.5	21.1	0.00e+00	0	27	0	369098752	50	6812
2026-01-13 17:06:38.93	4.23	17.43	-39.0	-40.1	21.5	0.00e+00	67	27	0	371195904	50	6536
2026-01-13 17:06:39.94	4.05	17.51	-39.1	-40.3	21.4	0.00e+00	0	27	0	373293056	50	6632
2026-01-13 17:06:40.95	3.88	17.59	-38.9	-40.0	21.7	0.00e+00	66	27	0	375390208	50	6408
2026-01-13 17:06:41.96	3.70	17.67	-38.5	-39.5	22.0	0.00e+00	0	27	0	376438784	50	6084
2026-01-13 17:06:42.97	3.53	17.75	-38.6	-39.7	22.0	0.00e+00	0	27	0	378535936	50	6185
2026-01-13 17:06:43.97	3.35	17.82	-38.7	-39.8	21.8	0.00e+00	0	27	0	380633088	50	6277
2026-01-13 17:06:44.99	3.17	17.90	-38.6	-39.7	21.9	0.00e+00	0	27	0	382730240	50	6197
2026-01-13 17:06:46.00	2.99	17.98	-38.6	-39.7	22.0	0.00e+00	68	27	0	384827392	50	6178
2026-01-13 17:06:47.00	2.81	18.06	-38.9	-40.0	21.8	0.00e+00	0	27	0	385875968	50	6417
2026-01-13 17:06:48.01	2.63	18.14	-38.8	-39.8	21.7	0.00e+00	88	27	0	387973120	50	6312
2026-01-13 17:06:49.03	2.45	18.22	-38.4	-39.4	22.1	0.00e+00	0	27	0	390070272	50	6016
2026-01-13 17:06:50.04	2.26	18.30	-38.3	-39.4	22.2	0.00e+00	0	27	0	392167424	50	5984
2026-01-13 17:06:51.04	2.08	18.37	-38.3	-39.3	22.3	0.00e+00	0	27	0	394264576	50	5922
2026-01-13 17:06:52.05	1.90	18.45	-38.5	-39.6	22.1	0.00e+00	0	27	0	395313152	50	6133
2026-01-13 17:06:53.06	1.71	18.53	-38.3	-39.4	22.1	0.00e+00	0	27	0	397410304	50	5991
2026-01-13 17:06:54.07	1.52	18.61	-38.5	-39.5	22.0	0.00e+00	0	27	0	399507456	50	6092
2026-01-13 17:06:55.08	1.34	18.69	-38.6	-39.6	22.0	0.00e+00	31	27	0	401604608	50	6168
2026-01-13 17:06:56.08	1.15	18.76	-38.5	-39.6	21.9	0.00e+00	0	27	0	403701760	50	6148
2026-01-13 17:06:57.09	0.96	18.84	-38.5	-39.5	22.0	0.00e+00	59	27	0	404750336	50	6100
2026-01-13 17:06:58.10	0.77	18.92	-38.6	-39.7	21.9	0.00e+00	0	27	0	406847488	50	6205
2026-01-13 17:06:59.11	0.58	19.00	-38.4	-39.4	22.1	0.00e+00	0	27	0	408944640	50	6019
2026-01-13 17:07:00.12	0.38	19.07	-38.5	-39.5	22.0	0.00e+00	0	27	0	411041792	50	6099
2026-01-13 17:07:01.13	0.19	19.15	-38.4	-39.5	21.9	0.00e+00	0	27	0	413138944	50	6045
2026-01-13 17:07:02.14	360.00	19.23	-38.5	-39.6	22.0	0.00e+00	94	27	0	414187520	50	6132
2026-01-13 17:07:03.15	359.80	19.31	-38.2	-39.2	22.3	0.00e+00	0	27	0	416284672	50	5881
2026-01-13 17:07:04.16	359.60	19.38	-38.3	-39.3	22.4	0.00e+00	32	27	0	418381824	50	5929
2026-01-13 17:07:05.17	359.41	19.46	-37.9	-38.9	22.7	0.00e+00	0	27	0	420478976	50	5651
2026-01-13 17:07:06.18	359.21	19.54	-37.8	-38.8	22.6	0.00e+00	0	27	0	422576128	48	6246
2026-01-13 17:07:07.19	359.01	19.61	-37.9	-38.9	22.6	0.00e+00	0	27	0	424673280	48	6324
2026-01-13 17:07:08.19	358.81	19.69	-37.5	-38.4	22.9	0.00e+00	0	27	0	425721856	48	6013
2026-01-13 17:07:09.20	358.61	19.77	-37.7	-38.7	22.7	0.00e+00	39	27	0	427819008	48	6229
2026-01-13 17:07:10.21	358.40	19.84	-37.7	-38.7	22.7	0.00e+00	33	27	0	429916160	48	6188
2026-01-13 17:07:11.23	358.20	19.92	-38.1	-39.1	22.4	0.00e+00	92	27	0	432013312	48	6498
2026-01-13 17:07:12.23	357.99	20.00	-38.6	-39.7	21.9	0.00e+00	0	27	0	434110464	48	6971
2026-01-13 17:07:13.24	357.79	20.07	-38.6	-39.7	21.9	0.00e+00	0	27	0	435159040	48	6959
2026-01-13 17:07:14.25	357.58	20.15	-38.8	-39.9	21.7	0.00e+00	0	27	0	437256192	48	7124
2026-01-13 17:07:15.26	357.37	20.22	-38.3	-39.4	21.7	0.00e+00	0	27	0	439353344	50	6019
2026-01-13 17:07:16.27	357.16	20.30	-38.2	-39.3	22.2	0.00e+00	33	27	0	441450496	50	5958
2026-01-13 17:07:17.28	356.95	20.37	-38.2	-39.2	22.4	0.00e+00	0	27	0	443547648	50	5878
2026-01-13 17:07:18.28	356.74	20.45	-38.1	-39.2	22.2	0.00e+00	81	27	0	444596224	50	5835
2026-01-13 17:07:19.29	356.53	20.52	-38.0	-39.1	22.5	0.00e+00	0	27	0	446693376	50	5784
2026-01-13 17:07:20.30	356.32	20.60	-37.6	-38.6	22.9	0.00e+00	21	27	0	448790528	48	6150
2026-01-13 17:07:21.31	356.10	20.67	-37.8	-38.8	22.6	0.00e+00	33	27	0	450887680	48	6255
2026-01-13 17:07:22.32	355.89	20.75	-37.3	-38.2	22.9	0.00e+00	0	27	0	452984832	48	5878
2026-01-13 17:07:23.33	355.67	20.82	-37.3	-38.3	23.1	0.00e+00	0	27	0	454033408	48	5933
2026-01-13 17:07:24.34	355.46	20.89	-37.0	-38.0	23.3	0.00e+00	0	27	0	456130560	48	5713
2026-01-13 17:07:25.35	355.24	20.97	-36.9	-37.8	23.4	0.00e+00	92	27	0	458227712	46	6316
2026-01-13 17:07:26.36	355.02	21.04	-37.0	-38.0	23.3	0.00e+00	0	27	0	460324864	46	6431
2026-01-13 17:07:27.37	354.80	21.12	-37.1	-38.1	23.3	0.00e+00	51	27	0	462422016	46	6482
2026-01-13 17:07:28.37	354.58	21.19	-37.2	-38.2	23.0	0.00e+00	0	27	0	463470592	46	6540
2026-01-13 17:07:29.38	354.35	21.26	-37.3	-38.3	23.0	0.00e+00	0	27	0	465567744	46	6657
2026-01-13 17:07:30.39	354.13	21.33	-37.1	-38.1	23.3	0.00e+00	0	27	0	467664896	46	6470
2026-01-13 17:07:31.40	353.90	21.40	-37.2	-38.2	23.2	0.00e+00	0	27	0	469762048	46	6561
2026-01-13 17:07:32.41	353.68	21.48	-36.7	-37.6	23.6	0.00e+00	31	27	0	471859200	46	6171
2026-01-13 17:07:33.42	353.45	21.55	-36.6	-37.5	23.6	0.00e+00	0	27	0	472907776	46	6084
2026-01-13 17:07:34.43	353.22	21.62	-36.7	-37.6	23.7	0.00e+00	78	27	0	475004928	46	6108
2026-01-13 17:07:35.44	352.99	21.69	-36.5	-37.4	23.9	0.00e+00	0	27	0	477102080	46	6001
2026-01-13 17:07:36.45	352.76	21.76	-36.5	-37.4	23.8	0.00e+00	0	27	0	479199232	46	5993
2026-01-13 17:07:37.46	352.53	21.83	-36.4	-37.3	23.8	0.00e+00	0	27	0	481296384	46	5919
2026-01-13 17:07:38.47	352.30	21.90	-36.3	-37.2	23.9	0.00e+00	0	27	0	482344960	46	5855
2026-01-13 17:07:39.48	352.07	21.97	-36.2	-37.0	24.0	0.00e+00	22	27	0	484442112	46	5748
2026-01-13 17:07:40.49	351.83	22.04	-36.2	-37.0	23.9	0.00e+00	0	27	0	486539264	46	5761
2026-01-13 17:07:41.50	351.60	22.11	-36.2	-37.1	24.0	0.00e+00	86	27	0	488636416	46	5808
2026-01-13 17:07:42.51	351.36	22.18	-36.6	-37.5	23.8	0.00e+00	0	27	0	490733568	46	6052
2026-01-13 17:07:43.52	351.12	22.25	-36.5	-37.4	23.8	0.00e+00	0	27	0	491782144	46	6032
2026-01-13 17:07:44.52	350.89	22.32	-36.5	-37.4	23.9	0.00e+00	0	27	0	493879296	46	6009
2026-01-13 17:07:45.53	350.65	22.38	-36.4	-37.2	23.9	0.00e+00	0	27	0	495976448	46	5875
2026-01-13 17:07:46.54	350.41	22.45	-36.0	-36.8	24.2	0.00e+00	22	27	0	498073600	46	5604
2026-01-13 17:07:47.55	350.16	22.52	-35.7	-36.5	24.3	0.00e+00	0	27	0	500170752	44	6093
2026-01-13 17:07:48.56	349.92	22.58	-35.7	-36.6	24.4	0.00e+00	92	27	0	501219328	44	6115
2026-01-13 17:07:49.56	349.68	22.65	-35.9	-36.8	24.2	0.00e+00	0	27	0	503316480	44	6277
2026-01-13 17:07:50.57	349.43	22.72	-36.1	-37.0	24.0	0.00e+00	0	27	0	505413632	44	6415
2026-01-13 17:07:51.58	349.19	22.78	-36.5	-37.4	23.8	0.00e+00	0	27	0	507510784	44	6747
2026-01-13 17:07:52.59	348.94	22.85	-36.5	-37.3	23.3	0.00e+00	0	27	0	509607936	44	6687
2026-01-13 17:07:53.60	348.69	22.91	-36.4	-37.3	23.8	0.00e+00	60	27	0	510656512	44	6678
2026-01-13 17:07:54.61	348.44	22.98	-36.3	-37.2	24.0	0.00e+00	0	27	0	512753664	44	6561
2026-01-13 17:07:55.62	348.19	23.04	-36.1	-37.0	24.0	0.00e+00	90	27	0	514850816	44	6410
2026-01-13 17:07:56.63	347.94	23.10	-35.7	-36.5	24.5	0.00e+00	0	27	0	516947968	44	6087
2026-01-13 17:07:57.64	347.69	23.17	-35.8	-36.6	24.5	0.00e+00	46	27	0	519045120	44	6139
2026-01-13 17:07:58.65	347.43	23.23	-35.8	-36.6	24.3	0.00e+00	0	27	0	521142272	44	6138
2026-01-13 17:07:59.66	347.18	23.29	-36.1	-36.9	24.1	0.00e+00	0	27	0	522190848	44	6352
2026-01-13 17:08:00.67	346.92	23.35	-36.5	-37.4	23.8	0.00e+00	0	27	0	524288000	44	6736
2026-01-13 17:08:01.68	346.67	23.41	-36.6	-37.5	23.8	0.00e+00	0	27	0	526385152	44	6771
2026-01-13 17:08:02.69	346.41	23.47	-36.3	-37.1	24.0	0.00e+00	90	27	0	528482304	44	6531
2026-01-13 17:08:03.70	346.15	23.53	-36.0	-36.9	24.1	0.00e+00	0	27	0	530579456	44	6331
2026-01-13 17:08:04.70	345.90	23.59	-35.9	-36.7	24.2	0.00e+00	92	27	0	531628032	44	6241
2026-01-13 17:08:05.72	345.63	23.65	-35.9	-36.7	24.3	0.00e+00	0	27	0	533725184	44	6218
2026-01-13 17:08:06.72	345.37	23.71	-36.1	-37.0	24.2	0.00e+00	0	27	0	535822336	44	6405
2026-01-13 17:08:07.73	345.11	23.77	-36.4	-37.3	23.8	0.00e+00	0	27	0	537919488	44	6670
2026-01-13 17:08:08.74	344.85	23.83	-36.4	-37.3	23.8	0.00e+00	0	27	0	540016640	44	6665
2026-01-13 17:08:09.75	344.58	23.88	-36.2	-37.0	24.2	0.00e+00	65	27	0	541065216	44	6435
2026-01-13 17:08:10.76	344.32	23.94	-35.8	-36.6	24.4	0.00e+00	0	27	0	543162368	44	6164
2026-01-13 17:08:11.77	344.05	24.00	-35.7	-36.5	24.5	0.00e+00	92	27	0	545259520	44	6046
2026-01-13 17:08:12.78	343.78	24.05	-35.8	-36.6	24.2	0.00e+00	0	27	0	547356672	44	6148
2026-01-13 17:08:13.79	343.52	24.11	-36.0	-36.8	23.8	0.00e+00	0	27	0	549453824	44	6276
2026-01-13 17:08:14.79	343.25	24.16	-36.4	-37.3	23.8	0.00e+00	0	27	0	550502400	44	6686
2026-01-13 17:08:15.80	342.98	24.21	-36.7	-37.7	23.6	0.00e+00	0	27	0	552599552	46	6175
2026-01-13 17:08:16.82	342.70	24.27	-36.6	-37.5	23.7	0.00e+00	67	27	0	554696704	46	6086
2026-01-13 17:08:17.82	342.44	24.32	-36.5	-37.4	23.8	0.00e+00	0	27	0	556793856	46	5993
2026-01-13 17:08:18.84	342.16	24.37	-36.1	-37.0	24.1	0.00e+00	90	27	0	558891008	46	5707
2026-01-13 17:08:19.85	341.89	24.42	-35.9	-36.7	24.3	0.00e+00	0	27	0	559939584	46	5540
2026-01-13 17:08:20.86	341.61	24.48	-36.0	-36.9	24.1	0.00e+00	0	27	0	562036736	46	5649
2026-01-13 17:08:21.86	341.34	24.52	-36.1	-36.9	24.2	0.00e+00	0	27	0	564133888	46	5667
2026-01-13 17:08:22.87	341.06	24.57	-36.2	-37.1	24.0	0.00e+00	0	27	0	566231040	46	5763
2026-01-13 17:08:23.88	340.78	24.62	-36.2	-37.1	24.0	0.00e+00	0	27	0	568328192	46	5797
2026-01-13 17:08:24.89	340.51	24.67	-36.0	-36.9	24.1	0.00e+00	0	27	0	569376768	46	5643
2026-01-13 17:08:25.90	340.23	24.72	-35.9	-36.8	24.2	0.00e+00	81	27	0	571473920	46	5571
2026-01-13 17:08:26.91	339.95	24.77	-35.7	-36.5	24.5	0.00e+00	0	27	0	573571072	44	6067
2026-01-13 17:08:27.92	339.67	24.81	-35.7	-36.5	24.5	0.00e+00	39	27	0	575668224	44	6052
2026-01-13 17:08:28.93	339.38	24.86	-35.6	-36.4	24.5	0.00e+00	0	27	0	577765376	44	5998
2026-01-13 17:08:29.94	339.10	24.90	-35.8	-36.7	24.4	0.00e+00	0	27	0	578813952	44	6180
2026-01-13 17:08:30.95	338.82	24.95	-36.1	-37.0	24.1	0.00e+00	57	27	0	580911104	44	6393
2026-01-13 17:08:31.96	338.53	24.99	-36.2	-37.0	24.1	0.00e+00	0	27	0	583008256	44	6463
2026-01-13 17:08:32.97	338.25	25.03	-36.0	-36.8	24.2	0.00e+00	90	27	0	585105408	44	6273
2026-01-13 17:08:33.98	337.96	25.08	-35.9	-36.8	24.1	0.00e+00	0	27	0	587202560	44	6261
2026-01-13 17:08:34.99	337.68	25.12	-35.4	-36.2	24.7	0.00e+00	0	27	0	589299712	44	5884
2026-01-13 17:08:35.99	337.39	25.16	-35.6	-36.4	24.5	0.00e+00	0	27	0	590348288	44	6010
2026-01-13 17:08:37.00	337.10	25.20	-36.2	-37.0	24.1	0.00e+00	0	27	0	592445440	44	6460
2026-01-13 17:08:38.02	336.81	25.24	-36.8	-37.7	23.6	0.00e+00	0	27	0	594542592	44	7000
2026-01-13 17:08:39.03	336.52	25.27	-37.5	-38.5	23.0	0.00e+00	0	27	0	596639744	46	6826
2026-01-13 17:08:40.04	336.23	25.31	-37.8	-38.8	22.8	0.00e+00	64	27	0	598736896	46	7084
2026-01-13 17:08:41.04	335.95	25.35	-37.5	-38.4	23.0	0.00e+00	0	27	0	599785472	48	6012
2026-01-13 17:08:42.06	335.65	25.39	-37.3	-38.3	23.2	0.00e+00	90	27	0	601882624	48	5899
2026-01-13 17:08:43.07	335.36	25.42	-38.1	-39.1	22.2	0.00e+00	0	27	0	603979776	48	6530
2026-01-13 17:08:44.08	335.07	25.46	-38.7	-39.8	21.9	0.00e+00	0	27	0	606076928	48	7029
2026-01-13 17:08:45.09	334.77	25.49	-39.2	-40.4	21.4	0.00e+00	0	27	0	608174080	50	6720
2026-01-13 17:08:46.10	334.48	25.52	-39.7	-40.9	20.9	0.00e+00	0	27	0	609222656	50	7146
2026-01-13 17:08:47.11	334.18	25.55	-39.7	-41.0	20.9	0.00e+00	36	27	0	611319808	52	6402
2026-01-13 17:08:48.11	333.89	25.59	-38.8	-39.9	21.9	0.00e+00	0	27	0	613416960	52	5663
2026-01-13 17:08:49.12	333.60	25.62	-38.2	-39.2	22.6	0.00e+00	66	27	0	615514112	50	5835
2026-01-13 17:08:50.13	333.30	25.65	-37.4	-38.3	23.2	0.00e+00	0	27	0	617611264	48	5944
2026-01-13 17:08:51.14	333.00	25.68	-37.1	-38.0	23.4	0.00e+00	0	27	0	618659840	48	5751
2026-01-13 17:08:52.15	332.71	25.70	-37.3	-38.2	23.1	0.00e+00	0	27	0	620756992	48	5868
2026-01-13 17:08:53.16	332.41	25.73	-37.8	-38.8	22.7	0.00e+00	0	27	0	622854144	48	6248
2026-01-13 17:08:54.17	332.11	25.76	-38.1	-39.1	22.3	0.00e+00	47	27	0	624951296	48	6520
2026-01-13 17:08:55.18	331.81	25.78	-38.6	-39.7	22.0	0.00e+00	0	27	0	627048448	48	6956
2026-01-13 17:08:56.19	331.51	25.81	-38.9	-40.0	21.7	0.00e+00	83	27	0	628097024	50	6444
2026-01-13 17:08:57.20	331.21	25.83	-38.8	-39.9	22.0	0.00e+00	33	27	0	630194176	50	6338
2026-01-13 17:08:58.21	330.91	25.86	-38.1	-39.1	22.6	0.00e+00	0	27	0	632291328	50	5804
2026-01-13 17:08:59.22	330.61	25.88	-37.6	-38.5	23.0	0.00e+00	0	27	0	634388480	48	6094
2026-01-13 17:09:00.23	330.31	25.90	-37.4	-38.3	23.1	0.00e+00	0	27	0	636485632	48	5927
2026-01-13 17:09:01.24	330.01	25.92	-37.7	-38.7	22.6	0.00e+00	9	27	0	637534208	48	6187
2026-01-13 17:09:02.25	329.70	25.94	-38.4	-39.5	22.3	0.00e+00	0	27	0	639631360	48	6786
2026-01-13 17:09:03.26	329.40	25.96	-38.9	-40.1	21.7	0.00e+00	90	27	0	641728512	50	6493
2026-01-13 17:09:04.27	329.10	25.98	-38.8	-39.9	22.0	0.00e+00	0	27	0	643825664	50	6340
2026-01-13 17:09:05.27	328.80	26.00	-38.3	-39.3	22.3	0.00e+00	0	27	0	645922816	50	5947
2026-01-13 17:09:06.28	328.49	26.01	-38.1	-39.1	22.5	0.00e+00	0	27	0	646971392	50	5810
2026-01-13 17:09:07.29	328.19	26.03	-37.5	-38.5	23.0	0.00e+00	0	27	0	649068544	48	6039
2026-01-13 17:09:08.30	327.89	26.04	-37.4	-38.4	23.1	0.00e+00	0	27	0	651165696	48	5978
2026-01-13 17:09:09.31	327.58	26.06	-37.5	-38.5	23.1	0.00e+00	0	27	0	653262848	48	6067
2026-01-13 17:09:10.32	327.28	26.07	-37.7	-38.6	22.8	0.00e+00	92	27	0	655360000	48	6152
2026-01-13 17:09:11.33	326.97	26.08	-37.7	-38.6	22.9	0.00e+00	0	27	0	657457152	48	6166
2026-01-13 17:09:12.34	326.67	26.09	-38.1	-39.1	22.5	0.00e+00	0	27	0	658505728	48	6489
2026-01-13 17:09:13.35	326.36	26.10	-38.1	-39.1	22.6	0.00e+00	0	27	0	660602880	48	6491
2026-01-13 17:09:14.36	326.06	26.11	-38.1	-39.1	22.6	0.00e+00	0	27	0	662700032	48	6475
2026-01-13 17:09:15.37	325.75	26.12	-38.2	-39.2	22.4	0.00e+00	0	27	0	664797184	48	6586
2026-01-13 17:09:16.38	325.44	26.13	-38.3	-39.3	22.4	0.00e+00	0	27	0	666894336	48	6681
2026-01-13 17:09:17.39	325.14	26.13	-38.4	-39.5	22.3	0.00e+00	65	27	0	667942912	48	6770
2026-01-13 17:09:18.40	324.83	26.14	-38.3	-39.4	22.4	0.00e+00	0	27	0	670040064	48	6706
2026-01-13 17:09:19.40	324.53	26.14	-38.4	-39.4	22.3	0.00e+00	91	27	0	672137216	48	6751
2026-01-13 17:09:20.41	324.22	26.15	-38.4	-39.4	22.4	0.00e+00	0	27	0	674234368	48	6719
2026-01-13 17:09:21.42	323.91	26.15	-38.1	-39.1	22.5	0.00e+00	0	27	0	675282944	48	6528
2026-01-13 17:09:22.43	323.61	26.15	-38.0	-39.0	22.7	0.00e+00	0	27	0	677380096	48	6415
2026-01-13 17:09:23.44	323.30	26.15	-37.6	-38.5	22.9	0.00e+00	0	27	0	679477248	48	6059
2026-01-13 17:09:24.45	323.00	26.15	-37.3	-38.2	23.3	0.00e+00	67	27	0	681574400	48	5871
2026-01-13 17:09:25.46	322.69	26.15	-37.1	-38.0	23.5	0.00e+00	0	27	0	683671552	48	5708
2026-01-13 17:09:26.47	322.38	26.15	-37.2	-38.1	23.3	0.00e+00	73	27	0	685768704	48	5808
2026-01-13 17:09:27.48	322.08	26.15	-37.6	-38.6	23.1	0.00e+00	0	27	0	686817280	48	6136
2026-01-13 17:09:28.48	321.77	26.15	-38.0	-39.0	22.7	0.00e+00	0	27	0	688914432	48	6458
2026-01-13 17:09:29.50	321.46	26.14	-38.5	-39.6	22.2	0.00e+00	0	27	0	691011584	48	6873
2026-01-13 17:09:30.50	321.16	26.14	-39.0	-40.1	21.8	0.00e+00	0	27	0	693108736	50	6519
2026-01-13 17:09:31.51	320.85	26.13	-38.8	-39.9	21.9	0.00e+00	60	27	0	695205888	50	6387
2026-01-13 17:09:32.52	320.55	26.13	-38.8	-39.9	22.0	0.00e+00	0	27	0	696254464	50	6362
2026-01-13 17:09:33.53	320.24	26.12	-38.5	-39.5	22.2	0.00e+00	65	27	0	698351616	50	6082
2026-01-13 17:09:34.54	319.94	26.11	-38.0	-39.0	22.6	0.00e+00	0	27	0	700448768	50	5755
2026-01-13 17:09:35.55	319.63	26.10	-37.7	-38.7	22.9	0.00e+00	0	27	0	702545920	48	6212
2026-01-13 17:09:36.55	319.33	26.09	-37.1	-38.0	22.7	0.00e+00	0	27	0	704643072	48	5726
2026-01-13 17:09:37.56	319.02	26.08	-37.0	-37.9	23.5	0.00e+00	0	27	0	705691648	48	5642
2026-01-13 17:09:38.57	318.72	26.07	-36.9	-37.8	23.5	0.00e+00	17	27	0	707788800	46	6296
2026-01-13 17:09:39.58	318.41	26.05	-36.7	-37.5	23.7	0.00e+00	0	27	0	709885952	46	6097
2026-01-13 17:09:40.59	318.11	26.04	-36.6	-37.4	23.8	0.00e+00	63	27	0	711983104	46	6006
2026-01-13 17:09:41.60	317.80	26.02	-36.7	-37.6	23.7	0.00e+00	0	27	0	714080256	46	6121
2026-01-13 17:09:42.61	317.50	26.01	-37.0	-37.9	23.6	0.00e+00	77	27	0	715128832	46	6329
2026-01-13 17:09:43.62	317.20	25.99	-37.2	-38.2	23.4	0.00e+00	0	27	0	717225984	46	6542
2026-01-13 17:09:44.63	316.89	25.97	-37.1	-38.0	23.5	0.00e+00	0	27	0	719323136	46	6445
2026-01-13 17:09:45.64	316.59	25.96	-36.5	-37.3	24.0	0.00e+00	0	27	0	721420288	46	5952
2026-01-13 17:09:46.65	316.29	25.94	-36.3	-37.2	24.2	0.00e+00	0	27	0	723517440	46	5853
2026-01-13 17:09:47.66	315.98	25.92	-35.9	-36.7	24.5	0.00e+00	62	27	0	724566016	46	5510
2026-01-13 17:09:48.67	315.68	25.90	-35.8	-36.5	24.5	0.00e+00	0	27	0	726663168	46	5439
2026-01-13 17:09:49.68	315.38	25.87	-35.0	-35.8	25.0	0.00e+00	29	27	0	728760320	44	5583
2026-01-13 17:09:50.68	315.08	25.85	-35.0	-35.8	25.0	0.00e+00	0	27	0	730857472	44	5589
2026-01-13 17:09:51.69	314.78	25.83	-35.4	-36.2	24.8	0.00e+00	0	27	0	732954624	44	5871
2026-01-13 17:09:52.70	314.48	25.80	-35.5	-36.3	24.7	0.00e+00	0	27	0	734003200	44	5925
2026-01-13 17:09:53.71	314.18	25.78	-35.6	-36.4	24.6	0.00e+00	0	27	0	736100352	44	6019
2026-01-13 17:09:54.72	313.88	25.75	-35.6	-36.4	24.6	0.00e+00	27	27	0	738197504	44	6001
2026-01-13 17:09:55.73	313.58	25.72	-35.4	-36.1	24.8	0.00e+00	0	27	0	740294656	44	5809
2026-01-13 17:09:56.74	313.29	25.70	-35.5	-36.2	24.8	0.00e+00	64	27	0	742391808	44	5893
2026-01-13 17:09:57.75	312.99	25.67	-35.6	-36.4	24.7	0.00e+00	0	27	0	743440384	44	5975
2026-01-13 17:09:58.76	312.69	25.64	-35.8	-36.6	24.4	0.00e+00	0	27	0	745537536	44	6116
2026-01-13 17:09:59.77	312.40	25.61	-36.2	-37.1	24.1	0.00e+00	0	27	0	747634688	44	6493
2026-01-13 17:10:00.78	312.10	25.58	-35.6	-36.4	24.5	0.00e+00	0	27	0	749731840	44	6014
2026-01-13 17:10:01.79	311.80	25.55	-35.9	-36.7	24.5	0.00e+00	18	27	0	751828992	44	6236
2026-01-13 17:10:02.80	311.51	25.51	-36.2	-37.0	24.2	0.00e+00	0	27	0	752877568	44	6459
2026-01-13 17:10:03.81	311.21	25.48	-36.3	-37.2	24.0	0.00e+00	83	27	0	754974720	44	6567
2026-01-13 17:10:04.82	310.92	25.45	-36.3	-37.2	24.1	0.00e+00	0	27	0	757071872	44	6573
2026-01-13 17:10:05.83	310.63	25.41	-36.3	-37.1	24.1	0.00e+00	0	27	0	759169024	44	6487
2026-01-13 17:10:06.84	310.34	25.38	-36.3	-37.2	24.1	0.00e+00	0	27	0	761266176	44	6541
2026-01-13 17:10:07.84	310.05	25.34	-36.7	-37.5	23.8	0.00e+00	0	27	0	763363328	44	6828
2026-01-13 17:10:08.85	309.76	25.30	-36.8	-37.7	23.7	0.00e+00	66	27	0	764411904	46	6208
2026-01-13 17:10:09.86	309.47	25.27	-37.0	-37.9	23.6	0.00e+00	0	27	0	766509056	46	6332
2026-01-13 17:10:10.87	309.18	25.23	-36.9	-37.8	23.7	0.00e+00	92	27	0	768606208	46	6289
2026-01-13 17:10:11.88	308.89	25.19	-36.8	-37.7	23.7	0.00e+00	0	27	0	770703360	46	6203
2026-01-13 17:10:12.88	308.60	25.15	-37.0	-37.9	23.4	0.00e+00	0	27	0	772800512	46	6332
2026-01-13 17:10:13.89	308.32	25.11	-37.2	-38.1	23.3	0.00e+00	0	27	0	773849088	46	6504
2026-01-13 17:10:14.90	308.03	25.07	-37.4	-38.4	23.2	0.00e+00	0	27	0	775946240	46	6711
2026-01-13 17:10:15.91	307.74	25.02	-37.2	-38.2	23.3	0.00e+00	57	27	0	778043392	46	6542
2026-01-13 17:10:16.92	307.46	24.98	-37.0	-37.9	23.6	0.00e+00	0	27	0	780140544	46	6332
2026-01-13 17:10:17.93	307.17	24.94	-36.7	-37.6	23.8	0.00e+00	90	27	0	782237696	46	6121
2026-01-13 17:10:18.94	306.89	24.89	-36.9	-37.8	23.7	0.00e+00	0	27	0	783286272	46	6247
2026-01-13 17:10:19.95	306.61	24.85	-37.2	-38.1	23.3	0.00e+00	16	27	0	785383424	46	6498
2026-01-13 17:10:20.96	306.33	24.80	-37.9	-38.9	23.0	0.00e+00	0	27	0	787480576	48	6319
2026-01-13 17:10:21.97	306.04	24.75	-38.2	-39.2	22.7	0.00e+00	0	27	0	789577728	48	6557
2026-01-13 17:10:22.98	305.76	24.71	-38.2	-39.2	22.3	0.00e+00	0	27	0	791674880	48	6610
2026-01-13 17:10:23.99	305.49	24.66	-38.5	-39.5	22.3	0.00e+00	0	27	0	792723456	48	6813
2026-01-13 17:10:25.00	305.21	24.61	-38.7	-39.8	22.0	0.00e+00	47	27	0	794820608	48	7014
2026-01-13 17:10:26.00	304.93	24.56	-38.7	-39.8	22.0	0.00e+00	0	27	0	796917760	50	6281
2026-01-13 17:10:27.01	304.65	24.51	-38.4	-39.4	22.3	0.00e+00	92	27	0	799014912	50	6029
2026-01-13 17:10:28.02	304.38	24.46	-38.6	-39.7	22.2	0.00e+00	0	27	0	801112064	50	6175
2026-01-13 17:10:29.03	304.10	24.41	-38.5	-39.5	22.2	0.00e+00	0	27	0	802160640	50	6080
2026-01-13 17:10:30.03	303.83	24.36	-38.8	-39.9	21.9	0.00e+00	0	27	0	804257792	50	6384
2026-01-13 17:10:31.05	303.56	24.31	-38.7	-39.9	22.0	0.00e+00	0	27	0	806354944	50	6332
2026-01-13 17:10:32.06	303.28	24.26	-38.6	-39.7	22.1	0.00e+00	66	27	0	808452096	50	6224
2026-01-13 17:10:33.07	303.01	24.20	-38.4	-39.4	22.4	0.00e+00	33	27	0	810549248	50	5987
2026-01-13 17:10:34.08	302.74	24.15	-38.1	-39.1	22.7	0.00e+00	92	27	0	811597824	50	5809
2026-01-13 17:10:35.09	302.47	24.09	-38.0	-38.9	22.8	0.00e+00	0	27	0	813694976	50	5690
2026-01-13 17:10:36.10	302.20	24.04	-37.9	-38.8	22.9	0.00e+00	0	27	0	815792128	48	6308
2026-01-13 17:10:37.11	301.94	23.98	-37.9	-38.8	22.8	0.00e+00	0	27	0	817889280	48	6289
2026-01-13 17:10:38.12	301.67	23.93	-38.0	-38.9	22.7	0.00e+00	0	27	0	819986432	48	6382
2026-01-13 17:10:39.13	301.40	23.87	-38.2	-39.2	22.5	0.00e+00	41	27	0	821035008	48	6571
2026-01-13 17:10:40.14	301.14	23.81	-38.5	-39.5	22.4	0.00e+00	0	27	0	823132160	48	6795
2026-01-13 17:10:41.15	300.88	23.75	-38.5	-39.6	22.3	0.00e+00	92	27	0	825229312	48	6851
2026-01-13 17:10:42.16	300.61	23.70	-38.4	-39.4	22.3	0.00e+00	0	27	0	827326464	48	6742
2026-01-13 17:10:43.17	300.35	23.64	-38.2	-39.2	22.1	0.00e+00	0	27	0	829423616	48	6543
2026-01-13 17:10:44.18	300.09	23.58	-38.0	-38.9	22.6	0.00e+00	33	27	0	831520768	48	6362
2026-01-13 17:10:45.19	299.83	23.52	-38.0	-38.9	22.7	0.00e+00	0	27	0	832569344	48	6388
2026-01-13 17:10:46.20	299.57	23.46	-38.0	-39.0	22.7	0.00e+00	67	27	0	834666496	48	6399
2026-01-13 17:10:47.21	299.31	23.40	-38.2	-39.2	22.5	0.00e+00	33	27	0	836763648	48	6581
2026-01-13 17:10:48.22	299.06	23.34	-38.0	-39.0	22.6	0.00e+00	90	27	0	838860800	48	6395
2026-01-13 17:10:49.23	298.80	23.27	-38.3	-39.3	22.4	0.00e+00	0	27	0	840957952	48	6687
2026-01-13 17:10:50.24	298.55	23.21	-38.4	-39.4	22.4	0.00e+00	24	27	0	842006528	48	6761
2026-01-13 17:10:51.25	298.29	23.15	-38.9	-39.9	21.9	0.00e+00	0	27	0	844103680	50	6376
2026-01-13 17:10:52.25	298.04	23.09	-39.1	-40.3	21.7	0.00e+00	0	27	0	846200832	50	6617
2026-01-13 17:10:53.26	297.79	23.02	-38.8	-39.9	21.8	0.00e+00	0	27	0	848297984	50	6329
2026-01-13 17:10:54.27	297.54	22.96	-38.4	-39.4	22.3	0.00e+00	0	27	0	850395136	50	5989
2026-01-13 17:10:55.28	297.29	22.89	-38.2	-39.2	22.6	0.00e+00	92	27	0	851443712	50	5832
2026-01-13 17:10:56.29	297.04	22.83	-37.9	-38.8	22.8	0.00e+00	0	27	0	853540864	48	6295
2026-01-13 17:10:57.30	296.80	22.76	-37.8	-38.7	23.0	0.00e+00	90	27	0	855638016	48	6215
2026-01-13 17:10:58.31	296.55	22.70	-37.7	-38.6	23.0	0.00e+00	0	27	0	857735168	48	6166
2026-01-13 17:10:59.32	296.30	22.63	-37.8	-38.7	22.8	0.00e+00	0	27	0	859832320	48	6239
2026-01-13 17:11:00.33	296.06	22.56	-38.0	-38.9	22.7	0.00e+00	0	27	0	860880896	48	6388
2026-01-13 17:11:01.34	295.82	22.50	-38.0	-39.0	22.8	0.00e+00	0	27	0	862978048	48	6409
2026-01-13 17:11:02.35	295.57	22.43	-38.5	-39.6	22.2	0.00e+00	46	27	0	865075200	48	6879
2026-01-13 17:11:03.36	295.33	22.36	-38.5	-39.6	22.3	0.00e+00	0	27	0	867172352	48	6880
2026-01-13 17:11:04.37	295.09	22.29	-38.2	-39.2	22.5	0.00e+00	91	27	0	869269504	48	6581
2026-01-13 17:11:05.38	294.85	22.23	-37.8	-38.8	22.7	0.00e+00	0	27	0	870318080	48	6247
2026-01-13 17:11:06.39	294.62	22.16	-37.9	-38.9	22.9	0.00e+00	0	27	0	872415232	48	6323
2026-01-13 17:11:07.39	294.38	22.09	-36.9	-37.8	23.7	0.00e+00	0	27	0	874512384	48	5568
2026-01-13 17:11:08.40	294.15	22.02	-36.8	-37.6	23.7	0.00e+00	0	27	0	876609536	48	5501
2026-01-13 17:11:09.41	293.91	21.95	-36.6	-37.4	23.8	0.00e+00	5	27	0	878706688	48	5375
2026-01-13 17:11:10.42	293.68	21.88	-37.0	-37.9	23.5	0.00e+00	0	27	0	879755264	46	6376
2026-01-13 17:11:11.43	293.44	21.81	-37.1	-38.0	23.4	0.00e+00	88	27	0	881852416	46	6405
2026-01-13 17:11:12.44	293.21	21.74	-37.3	-38.2	23.2	0.00e+00	0	27	0	883949568	46	6607
2026-01-13 17:11:13.45	292.98	21.67	-37.8	-38.8	22.9	0.00e+00	0	27	0	886046720	48	6280
2026-01-13 17:11:14.46	292.75	21.60	-37.9	-39.0	22.4	0.00e+00	0	27	0	888143872	48	6393
2026-01-13 17:11:15.47	292.52	21.53	-38.4	-39.5	22.3	0.00e+00	0	27	0	889192448	48	6796
2026-01-13 17:11:16.48	292.30	21.45	-38.1	-39.1	22.5	0.00e+00	60	27	0	891289600	48	6529
2026-01-13 17:11:17.48	292.07	21.38	-37.9	-38.8	22.7	0.00e+00	0	27	0	893386752	48	6300
2026-01-13 17:11:18.49	291.85	21.31	-37.6	-38.5	23.0	0.00e+00	88	27	0	895483904	48	6084
2026-01-13 17:11:19.50	291.62	21.24	-37.0	-37.8	23.5	0.00e+00	0	27	0	897581056	48	5615
2026-01-13 17:11:20.51	291.40	21.16	-36.6	-37.4	23.8	0.00e+00	0	27	0	898629632	46	6014
2026-01-13 17:11:21.52	291.18	21.09	-36.1	-36.9	24.4	0.00e+00	0	27	0	900726784	46	5665
2026-01-13 17:11:22.53	290.96	21.02	-35.8	-36.6	24.5	0.00e+00	0	27	0	902823936	44	6111
2026-01-13 17:11:23.54	290.74	20.94	-35.7	-36.5	24.5	0.00e+00	57	27	0	904921088	44	6062
2026-01-13 17:11:24.55	290.52	20.87	-36.0	-36.9	24.3	0.00e+00	0	27	0	907018240	44	6325
2026-01-13 17:11:25.56	290.30	20.80	-36.3	-37.1	24.1	0.00e+00	55	27	0	908066816	44	6500
2026-01-13 17:11:26.57	290.08	20.72	-36.6	-37.4	23.9	0.00e+00	0	27	0	910163968	44	6740
2026-01-13 17:11:27.58	289.87	20.65	-36.7	-37.5	23.7	0.00e+00	0	27	0	912261120	44	6844
2026-01-13 17:11:28.59	289.65	20.57	-36.8	-37.7	23.7	0.00e+00	0	27	0	914358272	46	6200
2026-01-13 17:11:29.60	289.44	20.50	-36.7	-37.6	23.8	0.00e+00	0	27	0	916455424	46	6122
2026-01-13 17:11:30.61	289.23	20.42	-36.8	-37.7	23.4	0.00e+00	0	27	0	917504000	46	6183
2026-01-13 17:11:31.62	289.01	20.35	-36.8	-37.7	23.7	0.00e+00	0	27	0	919601152	46	6211
2026-01-13 17:11:32.63	288.80	20.27	-36.9	-37.8	23.6	0.00e+00	60	27	0	921698304	46	6298
2026-01-13 17:11:33.64	288.59	20.20	-36.9	-37.8	23.4	0.00e+00	0	27	0	923795456	46	6279
2026-01-13 17:11:34.64	288.39	20.12	-37.0	-37.9	23.4	0.00e+00	83	27	0	925892608	46	6340
2026-01-13 17:11:35.65	288.18	20.04	-36.9	-37.8	23.6	0.00e+00	0	27	0	927989760	46	6278
2026-01-13 17:11:36.66	287.97	19.97	-36.7	-37.6	23.8	0.00e+00	0	27	0	929038336	46	6130
2026-01-13 17:11:37.67	287.77	19.89	-36.8	-37.6	23.7	0.00e+00	0	27	0	931135488	46	6162
2026-01-13 17:11:38.68	287.57	19.82	-36.9	-37.8	23.6	0.00e+00	0	27	0	933232640	46	6312
2026-01-13 17:11:39.69	287.36	19.74	-36.9	-37.8	23.6	0.00e+00	64	27	0	935329792	46	6291
2026-01-13 17:11:40.70	287.16	19.66	-36.7	-37.6	23.7	0.00e+00	0	27	0	937426944	46	6134
2026-01-13 17:11:41.71	286.96	19.59	-36.6	-37.5	23.8	0.00e+00	92	27	0	938475520	46	6073
2026-01-13 17:11:42.71	286.76	19.51	-36.7	-37.6	23.7	0.00e+00	0	27	0	940572672	46	6120
2026-01-13 17:11:43.72	286.56	19.43	-37.0	-37.9	23.4	0.00e+00	0	27	0	942669824	46	6380
2026-01-13 17:11:44.73	286.36	19.35	-37.3	-38.2	23.2	0.00e+00	0	27	0	944766976	46	6608
2026-01-13 17:11:45.74	286.17	19.28	-37.6	-38.5	23.1	0.00e+00	0	27	0	946864128	46	6809
2026-01-13 17:11:46.75	285.97	19.20	-37.4	-38.4	23.0	0.00e+00	55	27	0	947912704	46	6697
2026-01-13 17:11:47.76	285.77	19.12	-37.5	-38.4	23.1	0.00e+00	0	27	0	950009856	46	6743
2026-01-13 17:11:48.77	285.58	19.04	-37.1	-38.0	23.4	0.00e+00	74	27	0	952107008	46	6448
2026-01-13 17:11:49.78	285.39	18.97	-37.0	-37.8	23.5	0.00e+00	0	27	0	954204160	46	6312
2026-01-13 17:11:50.79	285.20	18.89	-36.8	-37.7	23.7	0.00e+00	0	27	0	956301312	46	6192
2026-01-13 17:11:51.80	285.00	18.81	-36.8	-37.7	23.6	0.00e+00	0	27	0	957349888	46	6196
2026-01-13 17:11:52.81	284.81	18.73	-37.1	-38.0	23.3	0.00e+00	0	27	0	959447040	46	6425
2026-01-13 17:11:53.81	284.63	18.65	-37.4	-38.3	23.1	0.00e+00	0	27	0	961544192	46	6688
2026-01-13 17:11:54.82	284.44	18.58	-37.8	-38.8	22.9	0.00e+00	0	27	0	963641344	46	7016
2026-01-13 17:11:55.83	284.25	18.50	-37.4	-38.3	23.1	0.00e+00	90	27	0	965738496	48	5923
2026-01-13 17:11:56.84	284.06	18.42	-36.8	-37.7	23.5	0.00e+00	0	27	0	966787072	48	5521
2026-01-13 17:11:57.85	283.88	18.34	-36.5	-37.4	23.9	0.00e+00	0	27	0	968884224	46	5972
2026-01-13 17:11:58.86	283.70	18.26	-36.4	-37.2	23.8	0.00e+00	0	27	0	970981376	46	5876
2026-01-13 17:11:59.87	283.51	18.18	-36.4	-37.2	23.6	0.00e+00	0	27	0	973078528	46	5879
2026-01-13 17:12:00.88	283.33	18.11	-36.4	-37.3	23.8	0.00e+00	0	27	0	975175680	46	5898
2026-01-13 17:12:01.89	283.15	18.03	-36.3	-37.1	24.1	0.00e+00	0	27	0	976224256	46	5774
2026-01-13 17:12:02.90	282.97	17.95	-36.1	-36.9	24.2	0.00e+00	61	27	0	978321408	46	5659
2026-01-13 17:12:03.91	282.79	17.87	-36.1	-36.9	24.1	0.00e+00	0	27	0	980418560	46	5647
2026-01-13 17:12:04.91	282.61	17.79	-36.2	-37.0	24.2	0.00e+00	92	27	0	982515712	46	5712
2026-01-13 17:12:05.92	282.43	17.71	-36.1	-36.9	24.1	0.00e+00	0	27	0	984612864	46	5687
2026-01-13 17:12:06.93	282.26	17.63	-36.4	-37.2	23.9	0.00e+00	0	27	0	985661440	46	5893
2026-01-13 17:12:07.94	282.08	17.55	-36.5	-37.4	23.9	0.00e+00	0	27	0	987758592	46	5999
2026-01-13 17:12:08.95	281.91	17.48	-36.9	-37.8	23.6	0.00e+00	0	27	0	989855744	46	6258
2026-01-13 17:12:09.96	281.73	17.40	-36.9	-37.8	23.5	0.00e+00	63	27	0	991952896	46	6307
2026-01-13 17:12:10.97	281.56	17.32	-36.9	-37.8	23.5	0.00e+00	0	27	0	994050048	46	6307
2026-01-13 17:12:11.98	281.39	17.24	-36.7	-37.6	23.6	0.00e+00	80	27	0	996147200	46	6146
2026-01-13 17:12:12.99	281.22	17.16	-36.4	-37.3	23.9	0.00e+00	0	27	0	997195776	46	5917
2026-01-13 17:12:14.00	281.05	17.08	-36.4	-37.3	23.9	0.00e+00	0	27	0	999292928	46	5931
2026-01-13 17:12:15.01	280.88	17.00	-36.4	-37.2	24.0	0.00e+00	0	27	0	1001390080	46	5891
2026-01-13 17:12:16.02	280.71	16.92	-36.1	-36.9	24.2	0.00e+00	0	27	0	1003487232	46	5684
2026-01-13 17:12:17.03	280.54	16.84	-36.3	-37.1	23.9	0.00e+00	63	27	0	1005584384	46	5818
2026-01-13 17:12:18.03	280.37	16.77	-36.4	-37.2	23.9	0.00e+00	0	27	0	1006632960	46	5884
2026-01-13 17:12:19.04	280.21	16.69	-36.5	-37.4	23.8	0.00e+00	81	27	0	1008730112	46	5991
2026-01-13 17:12:20.05	280.04	16.61	-36.7	-37.5	23.7	0.00e+00	0	27	0	1010827264	46	6093
2026-01-13 17:12:21.06	279.88	16.53	-36.7	-37.6	23.7	0.00e+00	0	27	0	1012924416	46	6112
2026-01-13 17:12:22.07	279.72	16.45	-36.7	-37.6	23.6	0.00e+00	0	27	0	1013972992	46	6119
2026-01-13 17:12:23.08	279.55	16.37	-36.9	-37.8	23.6	0.00e+00	0	27	0	1016070144	46	6248
2026-01-13 17:12:24.09	279.39	16.29	-37.0	-37.9	23.4	0.00e+00	1	27	0	1018167296	46	6341
2026-01-13 17:12:25.10	279.23	16.21	-37.1	-38.0	23.3	0.00e+00	0	27	0	1020264448	46	6439
2026-01-13 17:12:26.11	279.07	16.13	-36.8	-37.7	23.5	0.00e+00	42	27	0	1022361600	46	6222
2026-01-13 17:12:27.12	278.91	16.06	-36.7	-37.5	23.7	0.00e+00	0	27	0	1024458752	46	6103
2026-01-13 17:12:28.13	278.76	15.98	-36.5	-37.3	23.8	0.00e+00	0	27	0	1025507328	46	5943
2026-01-13 17:12:29.13	278.60	15.90	-36.4	-37.2	23.9	0.00e+00	0	27	0	1027604480	46	5879
2026-01-13 17:12:30.14	278.44	15.82	-36.0	-36.8	24.2	0.00e+00	0	27	0	1029701632	46	5624
2026-01-13 17:12:31.15	278.29	15.74	-36.1	-36.9	24.1	0.00e+00	29	27	0	1031798784	46	5685
2026-01-13 17:12:32.16	278.13	15.66	-36.0	-36.8	24.3	0.00e+00	0	27	0	1033895936	46	5596
2026-01-13 17:12:33.17	277.98	15.58	-36.5	-37.3	23.8	0.00e+00	38	27	0	1034944512	46	5953
2026-01-13 17:12:34.18	277.83	15.51	-36.9	-37.8	23.5	0.00e+00	33	27	0	1037041664	46	6280
2026-01-13 17:12:35.19	277.67	15.43	-37.2	-38.1	23.1	0.00e+00	83	27	0	1039138816	46	6485
2026-01-13 17:12:36.19	277.52	15.35	-37.5	-38.5	22.6	0.00e+00	0	27	0	1041235968	46	6784
2026-01-13 17:12:37.20	277.37	15.27	-37.6	-38.5	22.5	0.00e+00	33	27	0	1043333120	46	6841
2026-01-13 17:12:38.21	277.22	15.19	-37.6	-38.6	22.8	0.00e+00	25	27	0	1044381696	48	6139
2026-01-13 17:12:39.22	277.07	15.11	-37.4	-38.3	23.0	0.00e+00	0	27	0	1046478848	48	5947
2026-01-13 17:12:40.23	276.93	15.04	-37.4	-38.3	23.0	0.00e+00	91	27	0	1048576000	48	5950
2026-01-13 17:12:41.23	276.78	14.96	-37.1	-38.0	23.0	0.00e+00	33	27	0	1050673152	48	5719
2026-01-13 17:12:42.24	276.63	14.88	-37.0	-37.9	22.7	0.00e+00	92	27	0	1052770304	48	5683
2026-01-13 17:12:43.25	276.49	14.80	-36.7	-37.6	23.4	0.00e+00	0	27	0	1053818880	48	5489
2026-01-13 17:12:44.26	276.34	14.72	-36.8	-37.7	23.4	0.00e+00	33	27	0	1055916032	46	6231
2026-01-13 17:12:45.27	276.20	14.65	-37.0	-37.9	23.4	0.00e+00	0	27	0	1058013184	46	6373
2026-01-13 17:12:46.28	276.05	14.57	-37.0	-37.9	23.3	0.00e+00	0	27	0	1060110336	46	6377
2026-01-13 17:12:47.29	275.91	14.49	-36.8	-37.7	23.5	0.00e+00	55	27	0	1062207488	46	6186
2026-01-13 17:12:48.30	275.77	14.41	-36.5	-37.4	23.6	0.00e+00	0	27	0	1063256064	46	6005
2026-01-13 17:12:49.31	275.63	14.33	-36.8	-37.7	23.5	0.00e+00	77	27	0	1065353216	46	6211
2026-01-13 17:12:50.31	275.49	14.26	-36.8	-37.6	23.6	0.00e+00	0	27	0	1067450368	46	6173
2026-01-13 17:12:51.32	275.35	14.18	-37.1	-38.1	23.2	0.00e+00	0	27	0	1069547520	46	6467
2026-01-13 17:12:52.33	275.21	14.10	-37.5	-38.4	23.0	0.00e+00	0	27	0	1071644672	46	6733
2026-01-13 17:12:53.34	275.07	14.03	-38.0	-39.0	22.5	0.00e+00	0	27	0	1072693248	48	6404
2026-01-13 17:12:54.35	274.93	13.95	-38.1	-39.1	22.4	0.00e+00	34	27	0	1074790400	48	6519
2026-01-13 17:12:55.35	274.80	13.87	-38.4	-39.5	22.1	0.00e+00	0	27	0	1076887552	48	6809
2026-01-13 17:12:56.36	274.66	13.79	-38.6	-39.7	21.9	0.00e+00	74	27	0	1078984704	50	6219
2026-01-13 17:12:57.37	274.53	13.72	-38.5	-39.6	22.0	0.00e+00	0	27	0	1081081856	50	6146
2026-01-13 17:12:58.38	274.39	13.64	-38.3	-39.3	22.2	0.00e+00	0	27	0	1082130432	50	5964
2026-01-13 17:12:59.39	274.26	13.56	-38.0	-38.9	22.5	0.00e+00	0	27	0	1084227584	50	5692
2026-01-13 17:13:00.40	274.12	13.49	-37.8	-38.7	22.8	0.00e+00	0	27	0	1086324736	48	6226
2026-01-13 17:13:01.41	273.99	13.41	-37.3	-38.2	23.1	0.00e+00	0	27	0	1088421888	48	5838
2026-01-13 17:13:02.42	273.86	13.33	-37.2	-38.1	23.2	0.00e+00	0	27	0	1090519040	48	5827
2026-01-13 17:13:03.43	273.73	13.26	-36.9	-37.8	23.3	0.00e+00	58	27	0	1092616192	48	5615
2026-01-13 17:13:04.43	273.60	13.18	-36.8	-37.6	23.5	0.00e+00	0	27	0	1093664768	46	6170
2026-01-13 17:13:05.44	273.47	13.10	-36.9	-37.8	23.2	0.00e+00	70	27	0	1095761920	46	6288
2026-01-13 17:13:06.46	273.34	13.03	-36.9	-37.8	23.3	0.00e+00	0	27	0	1097859072	46	6253
2026-01-13 17:13:07.47	273.21	12.95	-37.0	-37.9	23.2	0.00e+00	0	27	0	1099956224	46	6385
2026-01-13 17:13:08.47	273.08	12.88	-37.1	-38.0	23.2	0.00e+00	0	27	0	1102053376	46	6424
2026-01-13 17:13:09.48	272.96	12.80	-37.3	-38.2	23.1	0.00e+00	0	27	0	1103101952	46	6559
2026-01-13 17:13:10.49	272.83	12.72	-37.2	-38.1	23.1	0.00e+00	48	27	0	1105199104	46	6532
2026-01-13 17:13:11.50	272.70	12.65	-37.1	-38.0	23.4	0.00e+00	0	27	0	1107296256	46	6423
2026-01-13 17:13:12.51	272.58	12.57	-37.3	-38.2	23.1	0.00e+00	92	27	0	1109393408	46	6551
2026-01-13 17:13:13.52	272.45	12.50	-37.2	-38.1	23.2	0.00e+00	0	27	0	1110441984	46	6484
2026-01-13 17:13:14.53	272.33	12.42	-37.3	-38.2	23.0	0.00e+00	0	27	0	1112539136	46	6589
2026-01-13 17:13:15.54	272.21	12.35	-37.4	-38.3	22.9	0.00e+00	0	27	0	1114636288	46	6663
2026-01-13 17:13:16.54	272.09	12.27	-37.4	-38.3	23.0	0.00e+00	0	27	0	1116733440	46	6686
2026-01-13 17:13:17.55	271.96	12.20	-37.6	-38.5	22.7	0.00e+00	69	27	0	1118830592	46	6844
2026-01-13 17:13:18.56	271.84	12.12	-37.8	-38.8	22.5	0.00e+00	0	27	0	1120927744	48	6272
2026-01-13 17:13:19.57	271.72	12.05	-37.9	-38.9	22.6	0.00e+00	92	27	0	1121976320	48	6326
2026-01-13 17:13:20.58	271.60	11.97	-38.0	-39.0	22.4	0.00e+00	0	27	0	1124073472	48	6394
2026-01-13 17:13:21.59	271.48	11.90	-38.2	-39.2	22.2	0.00e+00	0	27	0	1126170624	48	6585
2026-01-13 17:13:22.60	271.36	11.82	-37.9	-38.9	22.5	0.00e+00	0	27	0	1128267776	48	6353
2026-01-13 17:13:23.60	271.25	11.75	-38.1	-39.1	22.3	0.00e+00	0	27	0	1130364928	48	6499
2026-01-13 17:13:24.62	271.13	11.67	-38.2	-39.2	22.1	0.00e+00	55	27	0	1131413504	48	6615
2026-01-13 17:13:25.63	271.01	11.60	-38.4	-39.5	22.1	0.00e+00	0	27	0	1133510656	48	6815
2026-01-13 17:13:26.63	270.90	11.52	-38.1	-39.1	22.2	0.00e+00	92	27	0	1135607808	48	6539
2026-01-13 17:13:27.64	270.78	11.45	-38.4	-39.5	21.9	0.00e+00	0	27	0	1137704960	48	6812
2026-01-13 17:13:28.65	270.66	11.38	-38.6	-39.6	21.8	0.00e+00	0	27	0	1139802112	48	6924
2026-01-13 17:13:29.66	270.55	11.30	-38.7	-39.8	21.7	0.00e+00	0	27	0	1140850688	48	7051
2026-01-13 17:13:30.67	270.44	11.23	-38.9	-40.0	21.4	0.00e+00	0	27	0	1142947840	50	6460
2026-01-13 17:13:31.68	270.32	11.15	-39.2	-40.4	21.2	0.00e+00	56	27	0	1145044992	50	6695
2026-01-13 17:13:32.69	270.21	11.08	-39.1	-40.3	21.3	0.00e+00	0	27	0	1147142144	50	6639
2026-01-13 17:13:33.70	270.10	11.01	-39.1	-40.3	21.2	0.00e+00	83	27	0	1149239296	50	6632
2026-01-13 17:13:34.71	269.99	10.93	-39.1	-40.3	21.3	0.00e+00	0	27	0	1150287872	50	6630
2026-01-13 17:13:35.72	269.87	10.86	-38.9	-40.0	21.5	0.00e+00	0	27	0	1152385024	50	6424
2026-01-13 17:13:36.72	269.77	10.79	-38.8	-39.9	21.6	0.00e+00	0	27	0	1154482176	50	6384
2026-01-13 17:13:37.73	269.66	10.72	-38.5	-39.6	21.9	0.00e+00	0	27	0	1156579328	50	6111
2026-01-13 17:13:38.74	269.55	10.64	-38.1	-39.1	22.3	0.00e+00	0	27	0	1158676480	50	5791
2026-01-13 17:13:39.75	269.44	10.57	-38.3	-39.3	22.1	0.00e+00	0	27	0	1159725056	50	5910
2026-01-13 17:13:40.76	269.33	10.50	-38.1	-39.1	22.3	0.00e+00	92	27	0	1161822208	50	5768
2026-01-13 17:13:41.77	269.22	10.42	-37.9	-38.9	22.3	0.00e+00	0	27	0	1163919360	48	6326
2026-01-13 17:13:42.78	269.11	10.35	-38.1	-39.0	22.3	0.00e+00	0	27	0	1166016512	48	6463
2026-01-13 17:13:43.79	269.01	10.28	-38.0	-39.0	22.3	0.00e+00	0	27	0	1168113664	48	6427
2026-01-13 17:13:44.80	268.90	10.21	-38.2	-39.3	22.0	0.00e+00	0	27	0	1169162240	48	6620
2026-01-13 17:13:45.81	268.80	10.14	-38.3	-39.4	22.0	0.00e+00	0	27	0	1171259392	48	6720
2026-01-13 17:13:46.82	268.69	10.06	-38.5	-39.5	21.9	0.00e+00	0	27	0	1173356544	48	6830
2026-01-13 17:13:47.83	268.59	9.99	-38.5	-39.6	21.8	0.00e+00	92	27	0	1175453696	48	6865
2026-01-13 17:13:48.84	268.48	9.92	-38.6	-39.7	21.7	0.00e+00	0	27	0	1177550848	48	6960
2026-01-13 17:13:49.85	268.38	9.85	-38.9	-40.0	21.4	2.20e-06	57	27	0	1178599424	50	6432
2026-01-13 17:13:50.85	268.28	9.78	-39.0	-40.1	21.3	0.00e+00	0	27	0	1180696576	50	6483
2026-01-13 17:13:51.86	268.17	9.71	-38.9	-40.0	21.5	0.00e+00	0	27	0	1182793728	50	6447
2026-01-13 17:13:52.87	268.07	9.63	-38.7	-39.8	21.6	0.00e+00	0	27	0	1184890880	50	6271
2026-01-13 17:13:53.88	267.97	9.56	-38.7	-39.8	21.5	0.00e+00	0	27	0	1186988032	50	6287
2026-01-13 17:13:54.89	267.87	9.49	-38.5	-39.5	21.9	0.00e+00	24	27	0	1189085184	50	6100
2026-01-13 17:13:55.90	267.77	9.42	-38.5	-39.5	21.9	0.00e+00	0	27	0	1190133760	50	6077
2026-01-13 17:13:56.91	267.67	9.35	-38.5	-39.6	21.7	0.00e+00	91	27	0	1192230912	50	6135
2026-01-13 17:13:57.92	267.57	9.28	-38.4	-39.4	21.9	0.00e+00	0	27	0	1194328064	50	6020
2026-01-13 17:13:58.93	267.47	9.21	-38.4	-39.4	21.9	0.00e+00	0	27	0	1196425216	50	6009
2026-01-13 17:13:59.93	267.37	9.14	-38.3	-39.3	21.9	0.00e+00	0	27	0	1198522368	50	5943
