passes_logs/2026/01/13/R4.6S_Anadyr/R4.6S_Anadyr__20260113_230751_NOAA_21_JPSS-2_rec.log

#Pass ID: 20260113_230751_NOAA 21 (JPSS-2)
#Satellite: NOAA 21 (JPSS-2)
#Configuration: NOAA-21
#almurnet v.1.7.20251203
#Start time: 2026-01-13 23:07:55

#Version: 2.2.20231116
#Station: R4.6S_Anadyr
#Location: 177.4865 lon 64.73178 lat
#TLE: 1 54234U 22150A   26013.60300550  .00000047  00000+0  43143-4 0  9998
#TLE: 2 54234  98.7496 314.5197 0000681 301.0337  59.0772 14.19534502164617

#Time	Az	El	Level	Level2	SNR	BER	BlckErr	Temp	State	Recorded	gain1	gain2
2026-01-13 23:07:55.80	129.57	0.28	-48.6	-50.2	5.7	0.00e+00	0	25	0	0	60	39665
2026-01-13 23:07:56.77	129.55	0.34	-48.5	-61.4	3.5	1.52e+00	0	27	104	0	60	41153
2026-01-13 23:07:57.75	129.52	0.40	-48.6	-61.4	3.5	1.52e+00	0	27	104	0	60	41461
2026-01-13 23:07:58.73	129.49	0.46	-48.6	-61.4	3.5	1.52e+00	0	27	104	0	60	41237
2026-01-13 23:07:59.71	129.47	0.51	-48.6	-61.4	3.5	1.52e+00	0	27	104	0	60	41191
2026-01-13 23:08:00.69	129.44	0.57	-48.5	-61.3	3.5	1.52e+00	0	27	104	0	60	40965
2026-01-13 23:08:01.67	129.42	0.63	-48.5	-61.3	3.5	1.52e+00	0	27	104	0	60	40741
2026-01-13 23:08:02.64	129.39	0.69	-48.4	-61.2	3.5	1.52e+00	0	27	104	0	60	40524
2026-01-13 23:08:03.63	129.36	0.75	-48.2	-61.2	3.5	1.52e+00	0	27	104	0	60	40087
2026-01-13 23:08:04.61	129.34	0.81	-48.2	-61.1	3.5	1.52e+00	0	27	104	0	60	39914
2026-01-13 23:08:05.58	129.31	0.87	-47.9	-61.0	3.5	1.51e+00	0	27	104	0	60	39321
2026-01-13 23:08:06.56	129.28	0.93	-48.0	-60.8	3.5	1.52e+00	0	27	104	0	60	38649
2026-01-13 23:08:07.54	129.25	0.99	-47.8	-60.7	3.5	1.52e+00	0	27	104	0	60	37992
2026-01-13 23:08:08.51	129.23	1.05	-47.3	-60.3	3.5	1.52e+00	0	27	104	0	60	36483
2026-01-13 23:08:09.49	129.20	1.10	-47.1	-59.8	3.5	1.52e+00	0	27	104	0	60	34205
2026-01-13 23:08:10.47	129.17	1.16	-46.9	-59.7	3.5	1.52e+00	0	27	104	0	60	33786
2026-01-13 23:08:11.44	129.14	1.22	-46.8	-59.7	3.5	1.52e+00	0	27	104	0	60	33939
2026-01-13 23:08:12.42	129.12	1.28	-46.8	-59.7	3.5	1.52e+00	0	27	104	0	60	33978
2026-01-13 23:08:13.40	129.09	1.34	-46.8	-59.7	3.5	1.52e+00	0	27	104	0	60	33794
2026-01-13 23:08:14.38	129.06	1.40	-46.8	-59.6	3.4	1.52e+00	0	27	104	0	60	33707
2026-01-13 23:08:15.35	129.03	1.46	-46.8	-59.6	3.5	1.52e+00	0	27	104	0	60	33435
2026-01-13 23:08:16.33	129.00	1.52	-46.8	-59.6	3.5	1.52e+00	0	27	104	0	60	33347
2026-01-13 23:08:17.31	128.98	1.58	-46.8	-59.6	3.5	1.52e+00	0	27	104	0	60	33517
2026-01-13 23:08:18.29	128.95	1.65	-46.8	-59.6	3.5	1.52e+00	0	27	104	0	60	33698
2026-01-13 23:08:19.26	128.92	1.71	-46.8	-59.7	3.5	1.52e+00	0	27	104	0	60	33797
2026-01-13 23:08:20.24	128.89	1.77	-46.8	-59.7	3.5	1.52e+00	0	27	104	0	60	33824
2026-01-13 23:08:21.22	128.86	1.83	-46.8	-59.7	3.5	1.52e+00	0	27	104	0	60	33914
2026-01-13 23:08:22.20	128.83	1.89	-46.8	-59.7	3.5	1.52e+00	0	27	104	0	60	33981
2026-01-13 23:08:23.18	128.80	1.95	-46.8	-59.6	3.5	1.52e+00	0	27	104	0	60	33695
2026-01-13 23:08:24.15	128.77	2.01	-46.8	-59.5	3.5	1.52e+00	0	27	104	0	60	33243
2026-01-13 23:08:25.13	128.75	2.07	-46.8	-59.5	3.5	1.52e+00	0	27	104	0	60	33129
2026-01-13 23:08:26.11	128.72	2.13	-46.8	-59.5	3.5	1.52e+00	0	27	104	0	60	32998
2026-01-13 23:08:27.09	128.69	2.20	-46.8	-59.5	3.5	1.52e+00	0	27	104	0	60	33044
2026-01-13 23:08:28.07	128.66	2.26	-46.8	-59.6	3.5	1.52e+00	0	27	104	0	60	33332
2026-01-13 23:08:29.05	128.63	2.32	-46.8	-59.7	3.5	1.52e+00	0	27	104	0	60	33739
2026-01-13 23:08:30.02	128.60	2.38	-46.8	-59.6	3.5	1.52e+00	0	27	104	0	60	33596
2026-01-13 23:08:31.00	128.57	2.44	-46.8	-59.7	3.5	1.52e+00	0	27	104	0	60	33785
2026-01-13 23:08:31.98	128.54	2.51	-46.8	-59.7	3.5	1.51e+00	0	27	104	0	60	33743
2026-01-13 23:08:32.96	128.50	2.57	-46.8	-59.7	3.5	1.52e+00	0	27	104	0	60	33986
2026-01-13 23:08:33.94	128.47	2.63	-46.8	-59.7	3.5	1.52e+00	0	27	104	0	60	33812
2026-01-13 23:08:34.91	128.44	2.69	-46.8	-59.6	3.5	1.51e+00	0	27	104	0	60	33335
2026-01-13 23:08:35.89	128.41	2.76	-46.8	-59.4	3.5	1.52e+00	0	27	104	0	60	32883
2026-01-13 23:08:36.87	128.38	2.82	-46.8	-59.2	3.5	1.52e+00	0	27	104	0	60	32076
2026-01-13 23:08:37.85	128.35	2.88	-46.8	-59.0	3.5	1.52e+00	0	27	104	0	60	31380
2026-01-13 23:08:38.82	128.32	2.94	-46.8	-59.1	3.5	1.52e+00	0	27	104	0	60	31819
2026-01-13 23:08:39.80	128.29	3.01	-46.8	-59.2	3.5	1.51e+00	0	27	104	0	60	31913
2026-01-13 23:08:40.78	128.26	3.07	-46.8	-59.5	3.5	1.52e+00	0	27	104	0	60	33303
2026-01-13 23:08:41.75	128.22	3.13	-46.8	-59.5	3.5	1.52e+00	0	27	104	0	60	32992
2026-01-13 23:08:42.73	128.19	3.20	-46.7	-57.9	3.5	1.51e+00	0	27	104	0	60	27641
2026-01-13 23:08:43.70	128.16	3.26	-46.4	-55.5	4.6	1.31e+00	8	27	104	0	60	20956
2026-01-13 23:08:44.68	128.13	3.33	-45.4	-50.8	7.7	2.83e-01	0	27	0	0	60	12212
2026-01-13 23:08:45.66	128.10	3.39	-44.5	-48.4	10.2	1.63e-02	0	27	0	3145728	60	9211
2026-01-13 23:08:46.64	128.06	3.45	-44.0	-47.3	11.4	1.42e-03	0	27	0	6291456	60	8160
2026-01-13 23:08:47.62	128.03	3.52	-42.8	-45.4	13.7	2.28e-05	0	27	0	9437184	60	6521
2026-01-13 23:08:48.59	128.00	3.58	-41.6	-43.6	15.4	7.00e-07	0	27	0	12582912	56	6706
2026-01-13 23:08:49.57	127.96	3.65	-41.3	-43.3	15.5	0.00e+00	0	27	0	14680064	56	6437
2026-01-13 23:08:50.55	127.93	3.71	-41.3	-43.3	15.0	0.00e+00	0	27	0	17825792	56	6465
2026-01-13 23:08:51.52	127.90	3.78	-47.0	-59.1	3.5	1.52e+00	0	27	104	18874368	60	31797
2026-01-13 23:08:52.51	127.86	3.84	-46.6	-55.6	4.2	1.52e+00	0	27	104	18874368	60	21153
2026-01-13 23:08:53.48	127.83	3.91	-45.1	-50.4	10.3	4.37e-02	0	27	104	18874368	60	11607
2026-01-13 23:08:54.46	127.80	3.97	-37.7	-38.9	20.0	0.00e+00	0	27	0	20971520	48	6145
2026-01-13 23:08:55.44	127.76	4.04	-46.7	-58.8	3.5	1.43e+00	0	28	104	23068672	60	30560
2026-01-13 23:08:56.42	127.73	4.11	-38.8	-40.5	17.9	1.07e+00	0	27	104	23068672	50	6618
2026-01-13 23:08:57.39	127.69	4.17	-39.0	-40.4	18.7	0.00e+00	0	27	0	24117248	50	6509
2026-01-13 23:08:58.37	127.66	4.24	-38.8	-40.1	18.7	0.00e+00	0	27	0	27262976	50	6324
2026-01-13 23:08:59.35	127.62	4.30	-38.5	-39.8	19.2	0.00e+00	0	28	0	30408704	50	6093
2026-01-13 23:09:00.32	127.59	4.37	-37.7	-38.9	19.9	0.00e+00	0	27	0	33554432	48	6205
2026-01-13 23:09:01.29	127.56	4.44	-37.3	-38.5	20.2	0.00e+00	0	27	0	36700160	48	5902
2026-01-13 23:09:02.27	127.52	4.50	-37.3	-38.5	20.4	0.00e+00	0	27	0	39845888	48	5861
2026-01-13 23:09:03.25	127.48	4.57	-37.0	-38.1	20.7	0.00e+00	0	27	0	42991616	48	5630
2026-01-13 23:09:04.22	127.45	4.64	-37.1	-38.2	20.6	0.00e+00	0	28	0	45088768	48	5695
2026-01-13 23:09:05.20	127.41	4.70	-37.0	-38.2	20.7	0.00e+00	0	27	0	48234496	48	5691
2026-01-13 23:09:06.18	127.38	4.77	-37.2	-38.4	20.5	0.00e+00	0	27	0	51380224	48	5814
2026-01-13 23:09:07.15	127.34	4.84	-36.9	-38.1	20.7	0.00e+00	0	28	0	54525952	48	5596
2026-01-13 23:09:08.13	127.31	4.90	-37.2	-38.3	20.6	0.00e+00	0	27	0	57671680	48	5787
2026-01-13 23:09:09.11	127.27	4.97	-37.0	-38.1	20.7	0.00e+00	0	27	0	60817408	48	5643
2026-01-13 23:09:10.09	127.23	5.04	-37.0	-38.2	20.7	0.00e+00	0	28	0	63963136	48	5662
2026-01-13 23:09:11.06	127.20	5.11	-37.1	-38.3	20.7	0.00e+00	0	28	0	67108864	48	5732
2026-01-13 23:09:12.03	127.16	5.18	-37.1	-38.2	20.8	0.00e+00	0	28	0	70254592	48	5704
2026-01-13 23:09:13.01	127.12	5.24	-37.1	-38.3	20.8	0.00e+00	0	28	0	73400320	48	5728
2026-01-13 23:09:13.99	127.08	5.31	-37.1	-38.3	20.8	0.00e+00	0	28	0	76546048	48	5752
2026-01-13 23:09:14.97	127.05	5.38	-37.0	-38.2	20.9	0.00e+00	0	28	0	79691776	48	5664
2026-01-13 23:09:15.94	127.01	5.45	-37.1	-38.2	20.7	0.00e+00	0	27	0	81788928	48	5715
2026-01-13 23:09:16.92	126.97	5.52	-36.9	-38.1	20.9	0.00e+00	0	28	0	84934656	48	5604
2026-01-13 23:09:17.90	126.93	5.59	-36.9	-38.1	21.0	0.00e+00	0	27	0	88080384	48	5602
2026-01-13 23:09:18.87	126.90	5.66	-36.7	-37.8	21.2	0.00e+00	0	27	0	91226112	46	6090
2026-01-13 23:09:19.85	126.86	5.73	-36.8	-37.9	21.2	0.00e+00	0	27	0	94371840	46	6154
2026-01-13 23:09:20.82	126.82	5.80	-36.7	-37.8	21.3	0.00e+00	0	28	0	97517568	46	6116
2026-01-13 23:09:21.80	126.78	5.87	-36.6	-37.7	21.3	0.00e+00	0	27	0	100663296	46	6043
2026-01-13 23:09:22.78	126.74	5.94	-36.7	-37.7	21.2	0.00e+00	0	28	0	103809024	46	6064
2026-01-13 23:09:23.76	126.70	6.01	-36.6	-37.7	21.4	0.00e+00	0	28	0	106954752	46	6004
2026-01-13 23:09:24.73	126.66	6.08	-36.8	-37.9	21.1	0.00e+00	0	28	0	110100480	46	6174
2026-01-13 23:09:25.71	126.62	6.15	-36.6	-37.7	21.4	0.00e+00	0	28	0	113246208	46	5999
2026-01-13 23:09:26.69	126.58	6.22	-36.2	-37.3	21.6	0.00e+00	0	28	0	115343360	46	5772
2026-01-13 23:09:27.66	126.54	6.29	-36.4	-37.5	21.5	0.00e+00	0	28	0	118489088	46	5862
2026-01-13 23:09:28.65	126.50	6.36	-36.6	-37.7	21.4	0.00e+00	0	28	0	121634816	46	5997
2026-01-13 23:09:29.62	126.46	6.43	-36.4	-37.5	21.5	0.00e+00	0	28	0	124780544	46	5874
2026-01-13 23:09:30.60	126.42	6.50	-36.4	-37.6	21.5	0.00e+00	0	28	0	127926272	46	5933
2026-01-13 23:09:31.58	126.38	6.58	-36.2	-37.4	21.6	0.00e+00	0	28	0	131072000	46	5808
2026-01-13 23:09:32.55	126.34	6.65	-36.3	-37.5	21.6	0.00e+00	0	28	0	134217728	46	5874
2026-01-13 23:09:33.53	126.30	6.72	-36.0	-37.1	21.8	0.00e+00	0	28	0	137363456	46	5655
2026-01-13 23:09:34.51	126.25	6.79	-36.0	-37.1	21.8	0.00e+00	0	28	0	140509184	46	5621
2026-01-13 23:09:35.48	126.21	6.86	-36.0	-37.1	21.9	0.00e+00	0	28	0	143654912	46	5599
2026-01-13 23:09:36.46	126.17	6.94	-36.0	-37.1	21.8	0.00e+00	0	28	0	145752064	46	5628
2026-01-13 23:09:37.43	126.13	7.01	-36.2	-37.3	21.8	0.00e+00	0	28	0	148897792	46	5729
2026-01-13 23:09:38.41	126.09	7.08	-36.0	-37.0	21.9	0.00e+00	0	28	0	152043520	46	5590
2026-01-13 23:09:39.39	126.04	7.15	-36.1	-37.2	21.9	0.00e+00	0	28	0	155189248	46	5665
2026-01-13 23:09:40.36	126.00	7.23	-36.0	-37.0	22.0	0.00e+00	0	28	0	158334976	46	5554
2026-01-13 23:09:41.34	125.96	7.30	-36.0	-37.0	22.0	0.00e+00	0	28	0	161480704	46	5567
2026-01-13 23:09:42.32	125.91	7.38	-36.0	-37.1	22.0	0.00e+00	0	28	0	164626432	46	5605
2026-01-13 23:09:43.30	125.87	7.45	-35.8	-36.9	22.2	0.00e+00	0	28	0	167772160	46	5482
2026-01-13 23:09:44.27	125.83	7.52	-35.9	-37.0	22.1	0.00e+00	0	28	0	170917888	46	5539
2026-01-13 23:09:45.25	125.78	7.60	-35.8	-36.8	22.2	0.00e+00	0	28	0	174063616	46	5448
2026-01-13 23:09:46.23	125.74	7.67	-36.0	-37.0	22.1	0.00e+00	0	28	0	177209344	46	5553
2026-01-13 23:09:47.21	125.69	7.75	-35.9	-36.9	22.2	0.00e+00	0	28	0	180355072	46	5492
2026-01-13 23:09:48.18	125.65	7.82	-36.0	-37.1	22.0	0.00e+00	0	28	0	182452224	46	5616
2026-01-13 23:09:49.16	125.60	7.90	-36.0	-37.0	22.1	0.00e+00	0	28	0	185597952	46	5573
2026-01-13 23:09:50.14	125.56	7.97	-36.3	-37.3	21.8	0.00e+00	0	28	0	188743680	46	5788
2026-01-13 23:09:51.11	125.51	8.05	-35.7	-36.8	22.2	0.00e+00	0	28	0	191889408	46	5409
2026-01-13 23:09:52.10	125.47	8.12	-35.8	-36.8	22.2	0.00e+00	0	28	0	195035136	44	6133
2026-01-13 23:09:53.07	125.42	8.20	-35.9	-36.9	22.1	0.00e+00	0	28	0	198180864	44	6186
2026-01-13 23:09:54.06	125.37	8.28	-35.5	-36.5	22.5	0.00e+00	0	28	0	201326592	44	5912
2026-01-13 23:09:55.03	125.33	8.35	-35.7	-36.7	22.3	0.00e+00	0	28	0	204472320	44	6040
2026-01-13 23:09:56.01	125.28	8.43	-35.5	-36.5	22.6	0.00e+00	0	28	0	207618048	44	5869
2026-01-13 23:09:56.99	125.23	8.51	-35.6	-36.6	22.4	0.00e+00	0	28	0	210763776	44	5932
2026-01-13 23:09:57.97	125.19	8.58	-35.4	-36.4	22.6	0.00e+00	0	28	0	213909504	44	5837
2026-01-13 23:09:58.95	125.14	8.66	-35.4	-36.4	22.6	0.00e+00	0	28	0	217055232	44	5838
2026-01-13 23:09:59.92	125.09	8.74	-35.4	-36.4	22.7	0.00e+00	0	28	0	219152384	44	5811
2026-01-13 23:10:00.90	125.04	8.82	-35.4	-36.4	22.7	0.00e+00	0	28	0	222298112	44	5806
2026-01-13 23:10:01.87	124.99	8.89	-35.3	-36.3	22.8	0.00e+00	0	28	0	225443840	44	5738
2026-01-13 23:10:02.85	124.94	8.97	-35.5	-36.5	22.7	0.00e+00	0	28	0	228589568	44	5867
2026-01-13 23:10:03.82	124.90	9.05	-35.2	-36.1	22.9	0.00e+00	0	28	0	231735296	44	5646
2026-01-13 23:10:04.80	124.85	9.13	-35.3	-36.3	22.8	0.00e+00	0	28	0	234881024	44	5732
2026-01-13 23:10:05.77	124.80	9.21	-35.2	-36.1	22.9	0.00e+00	0	28	0	238026752	44	5653
2026-01-13 23:10:06.74	124.75	9.28	-35.1	-36.1	22.9	0.00e+00	0	28	0	241172480	44	5624
2026-01-13 23:10:07.72	124.70	9.36	-35.1	-36.0	23.0	0.00e+00	0	28	0	244318208	44	5581
2026-01-13 23:10:08.70	124.65	9.44	-35.0	-35.9	23.1	0.00e+00	0	28	0	247463936	44	5522
2026-01-13 23:10:09.67	124.60	9.52	-35.0	-35.9	23.1	0.00e+00	0	28	0	250609664	44	5506
2026-01-13 23:10:10.65	124.55	9.60	-35.0	-35.9	23.1	0.00e+00	0	28	0	252706816	44	5525
2026-01-13 23:10:11.62	124.49	9.68	-35.1	-36.1	23.0	0.00e+00	0	28	0	255852544	44	5599
2026-01-13 23:10:12.60	124.44	9.76	-34.9	-35.9	23.0	0.00e+00	0	28	0	258998272	44	5496
2026-01-13 23:10:13.57	124.39	9.84	-35.0	-36.0	23.1	0.00e+00	0	28	0	262144000	44	5547
2026-01-13 23:10:14.55	124.34	9.92	-34.8	-35.8	23.2	0.00e+00	0	28	0	265289728	44	5424
2026-01-13 23:10:15.54	124.29	10.01	-35.0	-35.9	23.1	0.00e+00	0	28	0	268435456	44	5519
2026-01-13 23:10:16.51	124.23	10.09	-35.1	-36.0	23.0	0.00e+00	0	28	0	271581184	44	5569
2026-01-13 23:10:17.49	124.18	10.17	-35.2	-36.2	22.8	0.00e+00	0	28	0	274726912	44	5669
2026-01-13 23:10:18.47	124.13	10.25	-35.2	-36.2	22.8	0.00e+00	0	28	0	277872640	44	5707
2026-01-13 23:10:19.44	124.07	10.33	-34.9	-35.9	23.2	0.00e+00	0	28	0	281018368	44	5487
2026-01-13 23:10:20.42	124.02	10.42	-34.9	-35.9	23.1	0.00e+00	0	28	0	284164096	44	5470
2026-01-13 23:10:21.40	123.96	10.50	-34.8	-35.8	23.1	0.00e+00	0	28	0	286261248	44	5432
2026-01-13 23:10:22.37	123.91	10.58	-35.0	-35.9	23.1	0.00e+00	0	28	0	289406976	44	5527
2026-01-13 23:10:23.35	123.85	10.66	-34.8	-35.8	23.2	0.00e+00	0	28	0	292552704	44	5413
2026-01-13 23:10:24.33	123.80	10.75	-34.9	-35.8	23.2	0.00e+00	0	28	0	295698432	44	5455
2026-01-13 23:10:25.31	123.74	10.83	-35.0	-35.9	23.1	0.00e+00	0	28	0	298844160	44	5530
2026-01-13 23:10:26.28	123.69	10.92	-34.8	-35.8	23.2	0.00e+00	0	28	0	301989888	44	5414
2026-01-13 23:10:27.27	123.63	11.00	-34.9	-35.8	23.1	0.00e+00	0	28	0	305135616	44	5452
2026-01-13 23:10:28.24	123.57	11.08	-34.9	-35.8	23.2	0.00e+00	0	28	0	308281344	44	5466
2026-01-13 23:10:29.22	123.52	11.17	-34.9	-35.8	23.2	0.00e+00	0	28	0	311427072	44	5455
2026-01-13 23:10:30.20	123.46	11.25	-34.9	-35.9	23.2	0.00e+00	0	28	0	314572800	44	5471
2026-01-13 23:10:31.18	123.40	11.34	-34.9	-35.9	23.2	0.00e+00	0	28	0	317718528	44	5506
2026-01-13 23:10:32.16	123.34	11.43	-34.9	-35.9	23.2	0.00e+00	0	28	0	319815680	44	5470
2026-01-13 23:10:33.13	123.28	11.51	-34.8	-35.7	23.4	0.00e+00	0	28	0	322961408	44	5403
2026-01-13 23:10:34.11	123.22	11.60	-34.8	-35.7	23.4	0.00e+00	0	28	0	326107136	42	6036
2026-01-13 23:10:35.09	123.17	11.68	-34.8	-35.7	23.5	0.00e+00	0	28	0	329252864	42	6042
2026-01-13 23:10:36.06	123.11	11.77	-34.7	-35.7	23.4	0.00e+00	0	28	0	332398592	42	5998
2026-01-13 23:10:37.04	123.05	11.86	-34.8	-35.8	23.4	0.00e+00	0	28	0	335544320	42	6100
2026-01-13 23:10:38.02	122.99	11.94	-34.8	-35.8	23.4	0.00e+00	0	28	0	338690048	42	6089
2026-01-13 23:10:39.00	122.92	12.03	-34.7	-35.7	23.5	0.00e+00	0	28	0	341835776	42	6001
2026-01-13 23:10:39.98	122.86	12.12	-34.5	-35.4	23.7	0.00e+00	0	28	0	344981504	42	5825
2026-01-13 23:10:40.96	122.80	12.21	-34.5	-35.4	23.7	0.00e+00	0	28	0	348127232	42	5835
2026-01-13 23:10:41.93	122.74	12.29	-34.5	-35.4	23.7	0.00e+00	0	28	0	351272960	42	5825
2026-01-13 23:10:42.91	122.68	12.38	-34.4	-35.4	23.8	0.00e+00	0	28	0	353370112	42	5794
2026-01-13 23:10:43.88	122.62	12.47	-34.5	-35.4	23.7	0.00e+00	0	28	0	356515840	42	5819
2026-01-13 23:10:44.86	122.55	12.56	-34.4	-35.3	23.8	0.00e+00	0	28	0	359661568	42	5757
2026-01-13 23:10:45.83	122.49	12.65	-34.2	-35.1	23.9	0.00e+00	0	28	0	362807296	42	5632
2026-01-13 23:10:46.81	122.43	12.74	-34.3	-35.3	23.8	0.00e+00	0	28	0	365953024	42	5735
2026-01-13 23:10:47.78	122.36	12.83	-34.2	-35.1	23.9	0.00e+00	0	28	0	369098752	42	5643
2026-01-13 23:10:48.76	122.30	12.92	-34.2	-35.1	23.9	0.00e+00	0	28	0	372244480	42	5607
2026-01-13 23:10:49.74	122.23	13.01	-34.2	-35.1	23.9	0.00e+00	0	28	0	375390208	42	5628
2026-01-13 23:10:50.71	122.17	13.10	-34.3	-35.2	23.8	0.00e+00	0	28	0	378535936	42	5695
2026-01-13 23:10:51.69	122.10	13.19	-34.3	-35.2	23.8	0.00e+00	0	28	0	381681664	42	5725
2026-01-13 23:10:52.67	122.03	13.28	-34.4	-35.3	23.7	0.00e+00	0	28	0	384827392	42	5769
2026-01-13 23:10:53.64	121.97	13.37	-34.2	-35.1	23.9	0.00e+00	0	28	0	387973120	42	5615
2026-01-13 23:10:54.62	121.90	13.47	-34.2	-35.1	23.9	0.00e+00	0	28	0	391118848	42	5625
2026-01-13 23:10:55.59	121.83	13.56	-34.3	-35.2	23.9	0.00e+00	0	28	0	393216000	42	5702
2026-01-13 23:10:56.57	121.76	13.65	-34.3	-35.2	23.8	0.00e+00	0	28	0	396361728	42	5725
2026-01-13 23:10:57.54	121.70	13.74	-34.3	-35.3	23.7	0.00e+00	0	28	0	399507456	42	5732
2026-01-13 23:10:58.52	121.63	13.84	-34.4	-35.4	23.7	0.00e+00	0	28	0	402653184	42	5802
2026-01-13 23:10:59.50	121.56	13.93	-34.3	-35.2	23.8	0.00e+00	0	28	0	405798912	42	5719
2026-01-13 23:11:00.48	121.49	14.03	-34.3	-35.2	23.8	0.00e+00	0	28	0	408944640	42	5712
2026-01-13 23:11:01.46	121.42	14.12	-34.3	-35.3	23.8	0.00e+00	0	28	0	412090368	42	5731
2026-01-13 23:11:02.43	121.35	14.21	-34.5	-35.4	23.7	0.00e+00	0	28	0	415236096	42	5838
2026-01-13 23:11:03.40	121.28	14.31	-34.4	-35.3	23.7	0.00e+00	0	28	0	418381824	42	5742
2026-01-13 23:11:04.38	121.20	14.40	-34.5	-35.4	23.7	0.00e+00	0	28	0	421527552	42	5837
2026-01-13 23:11:05.36	121.13	14.50	-34.4	-35.3	23.9	0.00e+00	0	28	0	424673280	42	5743
2026-01-13 23:11:06.34	121.06	14.60	-34.4	-35.3	23.9	0.00e+00	0	28	0	426770432	42	5746
2026-01-13 23:11:07.31	120.99	14.69	-34.4	-35.3	23.9	0.00e+00	0	28	0	429916160	42	5750
2026-01-13 23:11:08.28	120.91	14.79	-34.2	-35.1	23.9	0.00e+00	0	28	0	433061888	42	5626
2026-01-13 23:11:09.26	120.84	14.88	-34.2	-35.1	24.0	0.00e+00	0	28	0	436207616	42	5648
2026-01-13 23:11:10.24	120.76	14.98	-34.2	-35.1	23.9	0.00e+00	0	28	0	439353344	42	5645
2026-01-13 23:11:11.22	120.69	15.08	-34.2	-35.1	24.0	0.00e+00	0	28	0	442499072	42	5606
2026-01-13 23:11:12.20	120.61	15.18	-34.1	-35.0	24.0	0.00e+00	0	28	0	445644800	42	5588
2026-01-13 23:11:13.17	120.54	15.27	-34.3	-35.3	23.8	0.00e+00	0	28	0	448790528	42	5728
2026-01-13 23:11:14.15	120.46	15.37	-34.1	-35.0	24.0	0.00e+00	0	28	0	451936256	42	5578
2026-01-13 23:11:15.13	120.38	15.47	-34.2	-35.1	23.9	0.00e+00	0	28	0	455081984	42	5649
2026-01-13 23:11:16.10	120.31	15.57	-34.2	-35.1	24.0	0.00e+00	0	28	0	457179136	42	5614
2026-01-13 23:11:17.08	120.23	15.67	-34.2	-35.1	23.9	0.00e+00	0	28	0	460324864	42	5627
2026-01-13 23:11:18.06	120.15	15.77	-34.1	-35.0	24.1	0.00e+00	0	28	0	463470592	42	5584
2026-01-13 23:11:19.03	120.07	15.87	-34.2	-35.2	23.9	0.00e+00	0	28	0	466616320	42	5660
2026-01-13 23:11:20.01	119.99	15.97	-34.0	-34.9	24.1	0.00e+00	0	28	0	469762048	42	5511
2026-01-13 23:11:20.99	119.91	16.07	-34.1	-35.0	24.0	0.00e+00	0	28	0	472907776	42	5557
2026-01-13 23:11:21.97	119.83	16.18	-34.1	-35.1	23.9	0.00e+00	0	28	0	476053504	42	5595
2026-01-13 23:11:22.95	119.74	16.28	-34.2	-35.1	23.9	0.00e+00	0	28	0	479199232	42	5621
2026-01-13 23:11:23.92	119.66	16.38	-34.2	-35.1	23.9	0.00e+00	0	28	0	482344960	42	5658
2026-01-13 23:11:24.90	119.58	16.48	-34.3	-35.2	23.8	0.00e+00	0	28	0	485490688	42	5681
2026-01-13 23:11:25.88	119.50	16.58	-34.4	-35.3	23.8	0.00e+00	0	28	0	488636416	42	5761
2026-01-13 23:11:26.86	119.41	16.69	-34.5	-35.4	23.7	0.00e+00	0	28	0	490733568	42	5830
2026-01-13 23:11:27.84	119.33	16.79	-34.5	-35.4	23.6	0.00e+00	0	28	0	493879296	42	5851
2026-01-13 23:11:28.81	119.24	16.90	-34.5	-35.5	23.6	0.00e+00	0	28	0	497025024	42	5875
2026-01-13 23:11:29.79	119.16	17.00	-34.6	-35.5	23.6	0.00e+00	0	28	0	500170752	42	5917
2026-01-13 23:11:30.77	119.07	17.10	-34.6	-35.5	23.7	0.00e+00	0	28	0	503316480	42	5905
2026-01-13 23:11:31.74	118.98	17.21	-34.7	-35.6	23.6	0.00e+00	0	28	0	506462208	42	5972
2026-01-13 23:11:32.72	118.89	17.31	-34.8	-35.7	23.6	0.00e+00	0	28	0	509607936	42	6034
2026-01-13 23:11:33.70	118.81	17.42	-34.9	-35.8	23.4	0.00e+00	0	28	0	512753664	42	6100
2026-01-13 23:11:34.68	118.72	17.53	-34.7	-35.6	23.6	0.00e+00	0	28	0	515899392	42	5982
2026-01-13 23:11:35.66	118.63	17.63	-34.8	-35.7	23.5	0.00e+00	0	28	0	519045120	42	6051
2026-01-13 23:11:36.63	118.54	17.74	-34.8	-35.7	23.5	0.00e+00	0	28	0	522190848	42	6042
2026-01-13 23:11:37.61	118.45	17.85	-34.8	-35.7	23.6	0.00e+00	0	28	0	525336576	42	6046
2026-01-13 23:11:38.58	118.36	17.96	-34.8	-35.8	23.5	0.00e+00	0	28	0	527433728	42	6104
2026-01-13 23:11:39.56	118.26	18.06	-34.8	-35.8	23.6	0.00e+00	0	28	0	530579456	42	6088
2026-01-13 23:11:40.54	118.17	18.17	-34.7	-35.6	23.7	0.00e+00	0	28	0	533725184	42	5976
2026-01-13 23:11:41.51	118.08	18.28	-34.6	-35.6	23.8	0.00e+00	0	28	0	536870912	42	5933
2026-01-13 23:11:42.49	117.98	18.39	-34.6	-35.6	23.7	0.00e+00	0	28	0	540016640	42	5940
2026-01-13 23:11:43.47	117.89	18.50	-34.8	-35.7	23.6	0.00e+00	0	28	0	543162368	42	6026
2026-01-13 23:11:44.45	117.79	18.61	-34.8	-35.7	23.5	0.00e+00	0	28	0	546308096	42	6055
2026-01-13 23:11:45.43	117.69	18.72	-34.7	-35.6	23.6	0.00e+00	0	28	0	549453824	42	5945
2026-01-13 23:11:46.41	117.60	18.83	-34.8	-35.8	23.5	0.00e+00	0	28	0	552599552	42	6072
2026-01-13 23:11:47.39	117.50	18.95	-34.7	-35.6	23.6	0.00e+00	0	28	0	555745280	42	5954
2026-01-13 23:11:48.36	117.40	19.06	-34.5	-35.5	23.7	0.00e+00	0	28	0	558891008	42	5868
2026-01-13 23:11:49.34	117.30	19.17	-34.5	-35.5	23.7	0.00e+00	0	28	0	562036736	42	5867
2026-01-13 23:11:50.32	117.20	19.28	-34.6	-35.5	23.6	0.00e+00	0	28	0	565182464	42	5905
2026-01-13 23:11:51.29	117.10	19.39	-34.6	-35.6	23.6	0.00e+00	0	28	0	567279616	42	5949
2026-01-13 23:11:52.28	117.00	19.51	-34.4	-35.4	23.8	0.00e+00	0	28	0	570425344	42	5808
2026-01-13 23:11:53.25	116.90	19.62	-34.5	-35.4	23.7	0.00e+00	0	28	0	573571072	42	5842
2026-01-13 23:11:54.23	116.79	19.74	-34.4	-35.3	23.8	0.00e+00	0	28	0	576716800	42	5781
2026-01-13 23:11:55.20	116.69	19.85	-34.4	-35.3	23.9	0.00e+00	0	28	0	579862528	42	5737
2026-01-13 23:11:56.18	116.58	19.97	-34.3	-35.2	24.0	0.00e+00	0	28	0	583008256	42	5673
2026-01-13 23:11:57.16	116.48	20.08	-34.2	-35.1	24.1	0.00e+00	0	28	0	586153984	42	5616
2026-01-13 23:11:58.14	116.37	20.20	-34.1	-35.0	24.1	0.00e+00	0	28	0	589299712	42	5538
2026-01-13 23:11:59.11	116.26	20.31	-34.2	-35.1	24.1	0.00e+00	0	28	0	592445440	42	5614
2026-01-13 23:12:00.09	116.16	20.43	-34.0	-34.9	24.2	0.00e+00	0	28	0	595591168	42	5497
2026-01-13 23:12:01.07	116.05	20.55	-34.0	-34.9	24.3	0.00e+00	0	28	0	598736896	42	5498
2026-01-13 23:12:02.05	115.94	20.67	-33.9	-34.8	24.4	0.00e+00	0	28	0	600834048	42	5430
2026-01-13 23:12:03.02	115.83	20.78	-33.5	-34.4	24.6	0.00e+00	0	28	0	603979776	40	5802
2026-01-13 23:12:04.00	115.71	20.90	-33.5	-34.4	24.6	0.00e+00	0	28	0	607125504	40	5797
2026-01-13 23:12:04.97	115.60	21.02	-33.6	-34.5	24.5	0.00e+00	0	28	0	610271232	40	5883
2026-01-13 23:12:05.95	115.49	21.14	-33.4	-34.3	24.6	0.00e+00	0	28	0	613416960	40	5753
2026-01-13 23:12:06.93	115.37	21.26	-33.4	-34.3	24.5	0.00e+00	0	28	0	616562688	40	5765
2026-01-13 23:12:07.91	115.26	21.38	-33.5	-34.3	24.6	0.00e+00	0	28	0	619708416	40	5782
2026-01-13 23:12:08.89	115.14	21.50	-33.1	-34.0	24.8	0.00e+00	0	28	0	622854144	40	5555
2026-01-13 23:12:09.86	115.03	21.62	-33.1	-34.0	24.8	0.00e+00	0	28	0	625999872	40	5542
2026-01-13 23:12:10.84	114.91	21.75	-33.0	-33.9	25.0	0.00e+00	0	28	0	629145600	40	5493
2026-01-13 23:12:11.82	114.79	21.87	-32.9	-33.8	25.0	0.00e+00	0	28	0	632291328	40	5412
2026-01-13 23:12:12.80	114.67	21.99	-32.9	-33.8	25.0	0.00e+00	0	28	0	634388480	40	5438
2026-01-13 23:12:13.77	114.55	22.11	-32.8	-33.7	25.1	0.00e+00	0	28	0	637534208	40	5377
2026-01-13 23:12:14.75	114.43	22.24	-32.8	-33.7	25.1	0.00e+00	0	28	0	640679936	40	5356
2026-01-13 23:12:15.73	114.30	22.36	-32.8	-33.6	25.1	0.00e+00	0	28	0	643825664	38	5991
2026-01-13 23:12:16.70	114.18	22.49	-32.8	-33.6	25.2	0.00e+00	0	28	0	646971392	38	5982
2026-01-13 23:12:17.68	114.06	22.61	-32.7	-33.6	25.4	0.00e+00	0	28	0	650117120	38	5934
2026-01-13 23:12:18.66	113.93	22.74	-32.7	-33.5	25.4	0.00e+00	0	28	0	653262848	38	5923
2026-01-13 23:12:19.63	113.80	22.86	-32.7	-33.5	25.3	0.00e+00	0	28	0	656408576	38	5923
2026-01-13 23:12:20.60	113.68	22.99	-32.7	-33.6	25.2	0.00e+00	0	28	0	659554304	38	5941
2026-01-13 23:12:21.58	113.55	23.12	-32.8	-33.7	25.2	0.00e+00	0	28	0	662700032	38	6018
2026-01-13 23:12:22.56	113.42	23.24	-32.7	-33.6	25.3	0.00e+00	0	28	0	664797184	38	5967
2026-01-13 23:12:23.53	113.29	23.37	-32.8	-33.7	25.2	0.00e+00	0	28	0	667942912	38	6017
2026-01-13 23:12:24.51	113.15	23.50	-32.9	-33.8	25.1	0.00e+00	0	28	0	671088640	38	6099
2026-01-13 23:12:25.49	113.02	23.63	-33.1	-34.0	25.0	0.00e+00	0	28	0	674234368	38	6251
2026-01-13 23:12:26.47	112.88	23.76	-32.8	-33.6	25.2	0.00e+00	0	28	0	677380096	38	5986
2026-01-13 23:12:27.44	112.75	23.89	-32.9	-33.8	25.1	0.00e+00	0	28	0	680525824	38	6101
2026-01-13 23:12:28.42	112.61	24.02	-32.7	-33.6	25.3	0.00e+00	0	28	0	683671552	38	5936
2026-01-13 23:12:29.40	112.47	24.15	-32.9	-33.8	25.2	0.00e+00	0	28	0	686817280	38	6066
2026-01-13 23:12:30.37	112.34	24.28	-32.8	-33.6	25.3	0.00e+00	0	28	0	689963008	38	5973
2026-01-13 23:12:31.35	112.20	24.41	-32.9	-33.8	25.1	0.00e+00	0	28	0	693108736	38	6099
2026-01-13 23:12:32.33	112.05	24.54	-32.8	-33.7	25.1	0.00e+00	0	28	0	696254464	38	6028
2026-01-13 23:12:33.30	111.91	24.67	-32.9	-33.8	25.0	0.00e+00	0	28	0	699400192	38	6103
2026-01-13 23:12:34.28	111.77	24.81	-33.0	-33.8	25.0	0.00e+00	0	28	0	701497344	38	6111
2026-01-13 23:12:35.26	111.62	24.94	-33.0	-33.9	25.0	0.00e+00	0	28	0	704643072	38	6177
2026-01-13 23:12:36.24	111.48	25.07	-33.1	-34.0	25.0	0.00e+00	0	28	0	707788800	38	6248
2026-01-13 23:12:37.21	111.33	25.21	-33.2	-34.0	25.0	0.00e+00	0	28	0	710934528	38	6269
2026-01-13 23:12:38.19	111.18	25.34	-33.1	-34.0	25.0	0.00e+00	0	28	0	714080256	38	6257
2026-01-13 23:12:39.16	111.03	25.48	-33.3	-34.2	24.9	0.00e+00	0	28	0	717225984	38	6406
2026-01-13 23:12:40.14	110.88	25.61	-33.4	-34.3	24.9	0.00e+00	0	28	0	720371712	38	6463
2026-01-13 23:12:41.12	110.72	25.75	-33.2	-34.1	24.9	0.00e+00	0	28	0	723517440	38	6298
2026-01-13 23:12:42.09	110.57	25.89	-33.2	-34.1	25.0	0.00e+00	0	28	0	726663168	38	6295
2026-01-13 23:12:43.07	110.42	26.02	-33.1	-34.0	25.0	0.00e+00	0	28	0	729808896	38	6226
2026-01-13 23:12:44.04	110.26	26.16	-33.4	-34.3	24.9	0.00e+00	0	28	0	732954624	38	6424
2026-01-13 23:12:45.02	110.10	26.30	-33.4	-34.3	24.8	0.00e+00	0	28	0	736100352	38	6426
2026-01-13 23:12:46.00	109.94	26.44	-33.3	-34.2	24.9	0.00e+00	0	28	0	738197504	38	6369
2026-01-13 23:12:46.98	109.78	26.58	-33.4	-34.2	24.8	0.00e+00	0	28	0	741343232	38	6420
2026-01-13 23:12:47.96	109.62	26.72	-33.4	-34.3	24.7	0.00e+00	0	28	0	744488960	38	6455
2026-01-13 23:12:48.93	109.45	26.86	-33.4	-34.3	24.7	0.00e+00	0	28	0	747634688	38	6469
2026-01-13 23:12:49.91	109.29	27.00	-33.5	-34.4	24.7	0.00e+00	0	28	0	750780416	38	6516
2026-01-13 23:12:50.89	109.12	27.14	-33.5	-34.4	24.6	0.00e+00	0	28	0	753926144	38	6540
2026-01-13 23:12:51.87	108.95	27.28	-33.6	-34.5	24.5	0.00e+00	0	28	0	757071872	38	6637
2026-01-13 23:12:52.84	108.78	27.42	-33.8	-34.7	24.4	0.00e+00	0	28	0	760217600	40	5999
2026-01-13 23:12:53.82	108.61	27.56	-33.7	-34.5	24.6	0.00e+00	0	28	0	763363328	40	5907
2026-01-13 23:12:54.79	108.44	27.70	-33.8	-34.7	24.5	0.00e+00	0	28	0	766509056	40	6037
2026-01-13 23:12:55.77	108.26	27.85	-33.7	-34.6	24.6	0.00e+00	0	28	0	769654784	40	5965
2026-01-13 23:12:56.75	108.09	27.99	-33.8	-34.7	24.6	0.00e+00	0	28	0	771751936	40	6028
2026-01-13 23:12:57.72	107.91	28.13	-33.8	-34.7	24.6	0.00e+00	0	28	0	774897664	40	6024
2026-01-13 23:12:58.70	107.73	28.28	-33.9	-34.8	24.3	0.00e+00	0	28	0	778043392	40	6123
2026-01-13 23:12:59.68	107.55	28.42	-33.8	-34.7	24.5	0.00e+00	0	28	0	781189120	40	6024
2026-01-13 23:13:00.66	107.36	28.57	-34.0	-34.9	24.3	0.00e+00	0	28	0	784334848	40	6166
2026-01-13 23:13:01.64	107.18	28.72	-34.0	-34.9	24.3	0.00e+00	0	28	0	787480576	40	6168
2026-01-13 23:13:02.62	106.99	28.86	-34.0	-34.9	24.3	0.00e+00	0	28	0	790626304	40	6177
2026-01-13 23:13:03.59	106.81	29.01	-34.0	-35.0	24.2	0.00e+00	0	28	0	793772032	40	6212
2026-01-13 23:13:04.57	106.62	29.16	-34.1	-35.1	24.0	0.00e+00	0	28	0	796917760	40	6292
2026-01-13 23:13:05.55	106.42	29.30	-34.2	-35.2	24.0	0.00e+00	0	28	0	800063488	40	6352
2026-01-13 23:13:06.52	106.23	29.45	-34.5	-35.5	23.8	0.00e+00	0	28	0	803209216	40	6599
2026-01-13 23:13:07.50	106.04	29.60	-34.7	-35.6	23.7	0.00e+00	0	28	0	805306368	40	6726
2026-01-13 23:13:08.48	105.84	29.75	-34.5	-35.5	23.8	0.00e+00	0	28	0	808452096	40	6603
2026-01-13 23:13:09.46	105.64	29.90	-34.8	-35.8	23.8	0.00e+00	0	28	0	811597824	42	6080
2026-01-13 23:13:10.43	105.44	30.04	-34.4	-35.3	24.0	0.00e+00	0	28	0	814743552	42	5776
2026-01-13 23:13:11.40	105.24	30.19	-34.6	-35.5	23.9	0.00e+00	0	28	0	817889280	42	5879
2026-01-13 23:13:12.38	105.03	30.34	-34.5	-35.4	24.0	0.00e+00	0	28	0	821035008	42	5825
2026-01-13 23:13:13.36	104.83	30.49	-34.4	-35.3	24.0	0.00e+00	0	28	0	824180736	42	5759
2026-01-13 23:13:14.34	104.62	30.65	-34.3	-35.2	24.0	0.00e+00	0	28	0	827326464	42	5703
2026-01-13 23:13:15.32	104.41	30.80	-34.3	-35.2	24.0	0.00e+00	0	28	0	830472192	42	5686
2026-01-13 23:13:16.29	104.20	30.95	-34.4	-35.3	23.9	0.00e+00	0	28	0	833617920	42	5770
2026-01-13 23:13:17.27	103.98	31.10	-34.3	-35.2	24.0	0.00e+00	0	28	0	836763648	42	5714
2026-01-13 23:13:18.25	103.76	31.25	-34.3	-35.3	24.0	0.00e+00	0	28	0	838860800	42	5731
2026-01-13 23:13:19.23	103.55	31.40	-34.4	-35.4	24.0	0.00e+00	0	28	0	842006528	42	5800
2026-01-13 23:13:20.20	103.33	31.56	-34.6	-35.6	24.1	0.00e+00	0	28	0	845152256	42	5942
2026-01-13 23:13:21.18	103.10	31.71	-34.3	-35.2	24.2	0.00e+00	0	28	0	848297984	42	5711
2026-01-13 23:13:22.16	102.88	31.86	-34.6	-35.5	24.0	0.00e+00	0	28	0	851443712	42	5881
2026-01-13 23:13:23.14	102.65	32.02	-34.2	-35.1	24.3	0.00e+00	0	28	0	854589440	42	5640
2026-01-13 23:13:24.11	102.42	32.17	-34.3	-35.2	24.2	0.00e+00	0	28	0	857735168	42	5713
2026-01-13 23:13:25.09	102.19	32.32	-34.1	-35.0	24.3	0.00e+00	0	28	0	860880896	42	5590
2026-01-13 23:13:26.07	101.96	32.48	-34.1	-35.0	24.3	0.00e+00	0	28	0	864026624	42	5556
2026-01-13 23:13:27.05	101.72	32.63	-34.1	-35.0	24.2	0.00e+00	0	28	0	867172352	42	5587
2026-01-13 23:13:28.02	101.48	32.79	-34.3	-35.2	24.1	0.00e+00	0	28	0	870318080	42	5706
2026-01-13 23:13:29.00	101.24	32.94	-34.0	-34.9	24.4	0.00e+00	0	28	0	873463808	42	5520
2026-01-13 23:13:29.98	101.00	33.10	-34.1	-34.9	24.4	0.00e+00	0	28	0	875560960	42	5529
2026-01-13 23:13:30.96	100.75	33.26	-34.0	-34.9	24.4	0.00e+00	0	28	0	878706688	42	5478
2026-01-13 23:13:31.93	100.51	33.41	-34.0	-34.9	24.5	0.00e+00	0	28	0	881852416	42	5477
2026-01-13 23:13:32.91	100.26	33.57	-33.9	-34.8	24.5	0.00e+00	0	28	0	884998144	42	5408
2026-01-13 23:13:33.89	100.01	33.72	-33.9	-34.7	24.5	0.00e+00	0	28	0	888143872	42	5397
2026-01-13 23:13:34.87	99.75	33.88	-34.0	-34.9	24.4	0.00e+00	0	28	0	891289600	42	5475
2026-01-13 23:13:35.84	99.50	34.03	-33.9	-34.7	24.5	0.00e+00	0	28	0	894435328	42	5404
2026-01-13 23:13:36.82	99.23	34.19	-34.1	-35.0	24.4	0.00e+00	0	28	0	897581056	42	5586
2026-01-13 23:13:37.79	98.97	34.35	-34.4	-35.3	24.1	0.00e+00	0	28	0	900726784	42	5747
2026-01-13 23:13:38.77	98.71	34.50	-34.5	-35.4	24.0	0.00e+00	0	28	0	903872512	42	5855
2026-01-13 23:13:39.75	98.44	34.66	-35.0	-36.0	23.6	0.00e+00	0	28	0	907018240	42	6233
2026-01-13 23:13:40.73	98.17	34.82	-35.1	-36.0	23.6	0.00e+00	0	28	0	910163968	42	6275
2026-01-13 23:13:41.70	97.90	34.97	-35.2	-36.2	23.5	0.00e+00	0	28	0	912261120	42	6353
2026-01-13 23:13:42.68	97.62	35.13	-35.4	-36.3	23.4	0.00e+00	0	28	0	915406848	42	6485
2026-01-13 23:13:43.66	97.35	35.29	-35.3	-36.2	23.4	0.00e+00	0	28	0	918552576	42	6419
2026-01-13 23:13:44.64	97.06	35.45	-35.3	-36.3	23.4	0.00e+00	0	28	0	921698304	42	6424
2026-01-13 23:13:45.62	96.78	35.60	-35.3	-36.3	23.4	0.00e+00	0	28	0	924844032	42	6436
2026-01-13 23:13:46.60	96.49	35.76	-35.3	-36.3	23.4	0.00e+00	0	28	0	927989760	42	6431
2026-01-13 23:13:47.58	96.20	35.92	-35.5	-36.5	23.2	0.00e+00	0	28	0	931135488	42	6576
2026-01-13 23:13:48.55	95.91	36.07	-35.4	-36.3	23.4	0.00e+00	0	28	0	934281216	42	6454
2026-01-13 23:13:49.53	95.62	36.23	-35.5	-36.4	23.3	0.00e+00	0	28	0	937426944	42	6559
2026-01-13 23:13:50.51	95.32	36.39	-35.3	-36.2	23.4	0.00e+00	0	28	0	940572672	42	6404
2026-01-13 23:13:51.49	95.02	36.54	-35.2	-36.1	23.4	0.00e+00	0	28	0	943718400	42	6321
2026-01-13 23:13:52.47	94.72	36.70	-35.3	-36.3	23.4	0.00e+00	0	28	0	946864128	42	6429
2026-01-13 23:13:53.44	94.41	36.86	-35.3	-36.2	23.5	0.00e+00	0	28	0	948961280	42	6373
2026-01-13 23:13:54.42	94.10	37.01	-35.2	-36.1	23.5	0.00e+00	0	28	0	952107008	42	6341
2026-01-13 23:13:55.40	93.79	37.17	-35.3	-36.2	23.4	0.00e+00	0	28	0	955252736	42	6396
2026-01-13 23:13:56.37	93.48	37.32	-35.4	-36.3	23.2	0.00e+00	0	28	0	958398464	42	6478
2026-01-13 23:13:57.35	93.16	37.48	-35.5	-36.5	23.1	0.00e+00	0	28	0	961544192	42	6618
2026-01-13 23:13:58.33	92.84	37.63	-35.6	-36.6	23.0	0.00e+00	0	28	0	964689920	42	6694
2026-01-13 23:13:59.31	92.51	37.79	-35.8	-36.8	23.0	0.00e+00	0	28	0	967835648	44	6071
2026-01-13 23:14:00.28	92.19	37.94	-35.6	-36.5	23.1	0.00e+00	0	28	0	970981376	44	5926
2026-01-13 23:14:01.25	91.86	38.09	-35.8	-36.8	22.9	0.00e+00	0	28	0	974127104	44	6067
2026-01-13 23:14:02.23	91.52	38.25	-35.7	-36.7	22.9	0.00e+00	0	28	0	977272832	44	6042
2026-01-13 23:14:03.21	91.19	38.40	-35.8	-36.8	22.9	0.00e+00	0	28	0	979369984	44	6114
2026-01-13 23:14:04.19	90.85	38.55	-36.0	-37.0	22.8	0.00e+00	0	28	0	982515712	44	6242
2026-01-13 23:14:05.16	90.51	38.70	-35.9	-36.9	22.8	0.00e+00	0	28	0	985661440	44	6153
2026-01-13 23:14:06.14	90.16	38.85	-36.1	-37.1	22.6	0.00e+00	0	28	0	988807168	44	6348
2026-01-13 23:14:07.12	89.81	39.01	-36.1	-37.1	22.6	0.00e+00	0	28	0	991952896	44	6328
2026-01-13 23:14:08.09	89.46	39.15	-36.2	-37.3	22.5	0.00e+00	0	28	0	995098624	44	6441
2026-01-13 23:14:09.07	89.10	39.30	-36.3	-37.3	22.5	0.00e+00	0	28	0	998244352	44	6486
2026-01-13 23:14:10.05	88.74	39.45	-35.9	-37.0	22.8	0.00e+00	0	28	0	1001390080	44	6217
2026-01-13 23:14:11.03	88.38	39.60	-36.1	-37.1	22.6	0.00e+00	0	28	0	1004535808	44	6297
2026-01-13 23:14:12.01	88.01	39.75	-36.3	-37.3	22.5	0.00e+00	0	28	0	1007681536	44	6441
2026-01-13 23:14:12.98	87.64	39.90	-36.3	-37.3	22.6	0.00e+00	0	28	0	1010827264	44	6481
2026-01-13 23:14:13.96	87.27	40.04	-36.1	-37.1	22.7	0.00e+00	0	28	0	1013972992	44	6315
2026-01-13 23:14:14.94	86.89	40.19	-36.2	-37.2	22.7	0.00e+00	0	28	0	1016070144	44	6365
2026-01-13 23:14:15.91	86.52	40.33	-36.3	-37.3	22.6	0.00e+00	0	28	0	1019215872	44	6424
2026-01-13 23:14:16.89	86.13	40.48	-35.9	-36.9	22.7	0.00e+00	0	28	0	1022361600	44	6158
2026-01-13 23:14:17.87	85.75	40.62	-35.9	-36.9	22.9	0.00e+00	0	28	0	1025507328	44	6170
2026-01-13 23:14:18.84	85.36	40.76	-36.0	-37.0	22.7	0.00e+00	0	28	0	1028653056	44	6234
2026-01-13 23:14:19.82	84.96	40.90	-36.2	-37.2	22.4	0.00e+00	0	28	0	1031798784	44	6402
2026-01-13 23:14:20.80	84.57	41.04	-36.4	-37.5	22.2	0.00e+00	0	28	0	1034944512	44	6578
2026-01-13 23:14:21.78	84.17	41.18	-36.5	-37.5	22.2	0.00e+00	0	28	0	1038090240	44	6637
2026-01-13 23:14:22.76	83.76	41.32	-36.7	-37.7	22.0	0.00e+00	0	28	0	1041235968	44	6762
2026-01-13 23:14:23.73	83.36	41.45	-36.5	-37.6	22.1	0.00e+00	0	28	0	1044381696	44	6660
2026-01-13 23:14:24.71	82.95	41.59	-36.5	-37.5	22.3	0.00e+00	0	28	0	1047527424	44	6590
2026-01-13 23:14:25.69	82.53	41.72	-36.4	-37.4	22.4	0.00e+00	0	28	0	1049624576	44	6573
2026-01-13 23:14:26.66	82.12	41.86	-36.7	-37.7	22.1	0.00e+00	0	28	0	1052770304	44	6781
2026-01-13 23:14:27.64	81.69	41.99	-37.2	-38.2	21.7	0.00e+00	0	28	0	1055916032	46	6419
2026-01-13 23:14:28.61	81.27	42.12	-37.3	-38.4	21.6	0.00e+00	0	28	0	1059061760	46	6517
2026-01-13 23:14:29.59	80.85	42.25	-37.0	-38.1	21.9	0.00e+00	0	28	0	1062207488	46	6320
2026-01-13 23:14:30.57	80.41	42.38	-37.0	-38.1	21.9	0.00e+00	0	28	0	1065353216	46	6327
2026-01-13 23:14:31.54	79.98	42.50	-37.0	-38.0	21.9	0.00e+00	0	28	0	1068498944	46	6258
2026-01-13 23:14:32.52	79.54	42.63	-36.8	-37.8	22.0	0.00e+00	0	28	0	1071644672	46	6112
2026-01-13 23:14:33.50	79.10	42.75	-36.8	-37.9	22.0	0.00e+00	0	28	0	1074790400	46	6156
2026-01-13 23:14:34.48	78.65	42.87	-36.7	-37.7	22.2	0.00e+00	0	28	0	1077936128	46	6046
2026-01-13 23:14:35.45	78.21	42.99	-36.5	-37.5	22.5	0.00e+00	0	28	0	1081081856	46	5869
2026-01-13 23:14:36.43	77.76	43.11	-36.4	-37.4	22.6	0.00e+00	0	28	0	1084227584	46	5831
2026-01-13 23:14:37.40	77.31	43.23	-36.4	-37.4	22.5	0.00e+00	0	28	0	1086324736	46	5803
2026-01-13 23:14:38.38	76.85	43.34	-36.4	-37.3	22.5	0.00e+00	0	28	0	1089470464	46	5789
2026-01-13 23:14:39.36	76.38	43.46	-36.2	-37.2	22.6	0.00e+00	0	28	0	1092616192	46	5696
2026-01-13 23:14:40.34	75.92	43.57	-36.5	-37.5	22.4	0.00e+00	0	28	0	1095761920	46	5898
2026-01-13 23:14:41.31	75.45	43.68	-36.4	-37.4	22.6	0.00e+00	0	28	0	1098907648	46	5792
2026-01-13 23:14:42.29	74.98	43.79	-36.1	-37.1	22.7	0.00e+00	0	28	0	1102053376	46	5629
2026-01-13 23:14:43.27	74.51	43.89	-36.1	-37.1	22.8	0.00e+00	0	28	0	1105199104	46	5615
2026-01-13 23:14:44.24	74.03	44.00	-35.8	-36.7	22.9	0.00e+00	0	28	0	1108344832	46	5401
2026-01-13 23:14:45.22	73.55	44.10	-35.8	-36.8	23.0	0.00e+00	0	28	0	1111490560	46	5416
2026-01-13 23:14:46.20	73.07	44.20	-35.9	-36.9	22.6	0.00e+00	0	28	0	1114636288	46	5469
2026-01-13 23:14:47.17	72.58	44.30	-36.5	-37.5	22.2	0.00e+00	0	28	0	1117782016	46	5895
2026-01-13 23:14:48.15	72.09	44.40	-36.7	-37.8	22.1	0.00e+00	0	28	0	1119879168	46	6100
2026-01-13 23:14:49.12	71.60	44.49	-36.9	-37.9	21.8	0.00e+00	0	28	0	1123024896	46	6171
2026-01-13 23:14:50.10	71.11	44.58	-37.1	-38.2	21.6	0.00e+00	0	28	0	1126170624	46	6374
2026-01-13 23:14:51.08	70.61	44.67	-37.3	-38.5	21.4	0.00e+00	0	28	0	1129316352	46	6588
2026-01-13 23:14:52.05	70.11	44.76	-37.6	-38.7	21.5	0.00e+00	0	28	0	1132462080	46	6753
2026-01-13 23:14:53.03	69.61	44.84	-37.3	-38.4	21.6	0.00e+00	0	28	0	1135607808	46	6519
2026-01-13 23:14:54.00	69.10	44.93	-37.4	-38.5	21.4	0.00e+00	0	28	0	1138753536	46	6618
2026-01-13 23:14:54.98	68.59	45.01	-36.8	-37.9	22.1	0.00e+00	0	28	0	1141899264	46	6159
2026-01-13 23:14:55.96	68.08	45.09	-36.5	-37.5	22.5	0.00e+00	0	28	0	1145044992	46	5871
2026-01-13 23:14:56.93	67.57	45.16	-36.2	-37.2	22.6	0.00e+00	0	28	0	1148190720	46	5698
2026-01-13 23:14:57.91	67.05	45.23	-36.2	-37.2	22.5	0.00e+00	0	28	0	1151336448	46	5722
2026-01-13 23:14:58.88	66.54	45.31	-36.3	-37.3	22.6	0.00e+00	0	28	0	1153433600	46	5733
2026-01-13 23:14:59.86	66.01	45.37	-36.2	-37.1	22.8	0.00e+00	0	28	0	1156579328	46	5649
2026-01-13 23:15:00.84	65.49	45.44	-36.2	-37.2	22.6	0.00e+00	0	28	0	1159725056	46	5669
2026-01-13 23:15:01.81	64.97	45.50	-36.3	-37.3	22.4	0.00e+00	0	28	0	1162870784	46	5790
2026-01-13 23:15:02.79	64.44	45.56	-36.2	-37.2	22.6	0.00e+00	0	28	0	1166016512	46	5674
2026-01-13 23:15:03.76	63.91	45.62	-36.3	-37.3	22.3	0.00e+00	0	28	0	1169162240	46	5764
2026-01-13 23:15:04.74	63.38	45.68	-36.7	-37.8	22.1	0.00e+00	0	28	0	1172307968	46	6083
2026-01-13 23:15:05.72	62.85	45.73	-36.9	-38.0	22.0	0.00e+00	0	28	0	1175453696	46	6248
2026-01-13 23:15:06.70	62.31	45.78	-37.3	-38.4	21.5	0.00e+00	0	28	0	1178599424	46	6508
2026-01-13 23:15:07.67	61.78	45.83	-37.6	-38.7	21.3	0.00e+00	0	28	0	1181745152	46	6762
2026-01-13 23:15:08.65	61.24	45.87	-37.3	-38.4	21.8	0.00e+00	0	28	0	1183842304	46	6533
2026-01-13 23:15:09.63	60.70	45.92	-37.1	-38.2	21.9	0.00e+00	0	28	0	1186988032	46	6357
2026-01-13 23:15:10.60	60.16	45.95	-36.7	-37.8	22.2	0.00e+00	0	28	0	1190133760	46	6086
2026-01-13 23:15:11.58	59.62	45.99	-36.5	-37.6	22.3	0.00e+00	0	28	0	1193279488	46	5929
2026-01-13 23:15:12.55	59.08	46.02	-36.8	-37.8	22.1	0.00e+00	0	28	0	1196425216	46	6114
2026-01-13 23:15:13.53	58.53	46.06	-36.5	-37.5	22.4	0.00e+00	0	28	0	1199570944	46	5905
2026-01-13 23:15:14.51	57.98	46.08	-36.1	-37.1	22.8	0.00e+00	0	28	0	1202716672	46	5620
2026-01-13 23:15:15.49	57.44	46.11	-36.3	-37.3	22.6	0.00e+00	0	28	0	1205862400	46	5771
2026-01-13 23:15:16.46	56.89	46.13	-36.4	-37.4	22.6	0.00e+00	0	28	0	1209008128	46	5839
2026-01-13 23:15:17.44	56.34	46.15	-36.3	-37.3	22.6	0.00e+00	0	28	0	1212153856	46	5729
2026-01-13 23:15:18.41	55.80	46.17	-36.5	-37.6	22.4	0.00e+00	0	28	0	1215299584	46	5928
2026-01-13 23:15:19.39	55.25	46.18	-36.4	-37.5	22.4	0.00e+00	0	28	0	1218445312	46	5859
2026-01-13 23:15:20.37	54.70	46.19	-36.7	-37.7	22.1	0.00e+00	0	28	0	1221591040	46	6053
2026-01-13 23:15:21.35	54.15	46.20	-37.1	-38.2	21.6	0.00e+00	0	28	0	1223688192	46	6408
2026-01-13 23:15:22.33	53.59	46.20	-37.2	-38.2	21.7	0.00e+00	0	28	0	1226833920	46	6404
2026-01-13 23:15:23.30	53.05	46.21	-37.1	-38.2	21.6	0.00e+00	0	28	0	1229979648	46	6351
2026-01-13 23:15:24.28	52.50	46.20	-36.8	-37.8	22.2	0.00e+00	0	28	0	1233125376	46	6095
2026-01-13 23:15:25.26	51.94	46.20	-36.2	-37.2	22.7	0.00e+00	0	28	0	1236271104	46	5681
2026-01-13 23:15:26.24	51.39	46.19	-36.4	-37.4	22.5	0.00e+00	0	28	0	1239416832	46	5802
2026-01-13 23:15:27.21	50.85	46.18	-36.9	-38.0	22.0	0.00e+00	0	28	0	1242562560	46	6217
2026-01-13 23:15:28.19	50.30	46.17	-37.3	-38.4	21.6	0.00e+00	0	28	0	1245708288	46	6543
2026-01-13 23:15:29.16	49.75	46.16	-37.7	-38.8	21.2	0.00e+00	0	28	0	1248854016	46	6875
2026-01-13 23:15:30.14	49.20	46.14	-37.1	-38.2	21.7	0.00e+00	0	28	0	1251999744	46	6354
2026-01-13 23:15:31.12	48.65	46.12	-37.0	-38.0	22.1	0.00e+00	0	28	0	1255145472	46	6234
2026-01-13 23:15:32.09	48.11	46.09	-36.9	-38.0	22.0	0.00e+00	0	28	0	1257242624	46	6211
2026-01-13 23:15:33.07	47.56	46.07	-36.4	-37.4	22.5	0.00e+00	0	28	0	1260388352	46	5839
2026-01-13 23:15:34.04	47.02	46.04	-36.3	-37.2	22.6	0.00e+00	0	28	0	1263534080	46	5714
2026-01-13 23:15:35.02	46.48	46.00	-36.3	-37.3	22.7	0.00e+00	0	28	0	1266679808	46	5756
2026-01-13 23:15:36.00	45.93	45.97	-36.4	-37.4	22.6	0.00e+00	0	28	0	1269825536	46	5846
2026-01-13 23:15:36.98	45.39	45.93	-36.6	-37.6	22.2	0.00e+00	0	28	0	1272971264	46	5988
2026-01-13 23:15:37.96	44.85	45.89	-36.9	-37.9	22.1	0.00e+00	0	28	0	1276116992	46	6181
2026-01-13 23:15:38.93	44.32	45.84	-36.6	-37.6	22.4	0.00e+00	0	28	0	1279262720	46	5945
2026-01-13 23:15:39.91	43.78	45.80	-36.2	-37.2	22.7	0.00e+00	0	28	0	1282408448	46	5691
2026-01-13 23:15:40.88	43.25	45.75	-35.8	-36.8	22.2	0.00e+00	0	28	0	1285554176	46	5431
2026-01-13 23:15:41.86	42.71	45.70	-35.1	-36.0	23.6	0.00e+00	0	28	0	1288699904	44	5574
2026-01-13 23:15:42.84	42.18	45.64	-35.2	-36.1	23.4	0.00e+00	0	28	0	1290797056	44	5613
2026-01-13 23:15:43.82	41.65	45.58	-35.7	-36.6	23.1	0.00e+00	0	28	0	1293942784	44	5980
2026-01-13 23:15:44.79	41.12	45.53	-36.0	-37.0	22.8	0.00e+00	0	28	0	1297088512	44	6208
2026-01-13 23:15:45.77	40.60	45.46	-36.5	-37.5	22.4	0.00e+00	0	28	0	1300234240	44	6643
2026-01-13 23:15:46.74	40.08	45.40	-37.0	-38.0	22.0	0.00e+00	0	28	0	1303379968	46	6250
2026-01-13 23:15:47.72	39.55	45.33	-37.2	-38.2	21.7	0.00e+00	0	28	0	1306525696	46	6418
2026-01-13 23:15:48.70	39.03	45.26	-37.4	-38.5	21.5	0.00e+00	0	28	0	1309671424	46	6609
2026-01-13 23:15:49.67	38.52	45.19	-37.3	-38.4	21.7	0.00e+00	0	28	0	1312817152	46	6547
2026-01-13 23:15:50.65	38.01	45.11	-37.0	-38.0	22.0	0.00e+00	0	28	0	1315962880	46	6234
2026-01-13 23:15:51.63	37.49	45.03	-36.8	-37.9	22.1	0.00e+00	0	28	0	1319108608	46	6160
2026-01-13 23:15:52.60	36.99	44.96	-36.8	-37.9	22.1	0.00e+00	0	28	0	1321205760	46	6155
2026-01-13 23:15:53.58	36.48	44.87	-37.1	-38.2	21.8	0.00e+00	0	28	0	1324351488	46	6367
2026-01-13 23:15:54.56	35.97	44.79	-37.5	-38.6	21.4	0.00e+00	0	28	0	1327497216	46	6718
2026-01-13 23:15:55.54	35.47	44.70	-37.6	-38.8	21.4	0.00e+00	0	28	0	1330642944	46	6810
2026-01-13 23:15:56.52	34.97	44.61	-37.1	-38.2	21.7	0.00e+00	0	28	0	1333788672	46	6402
2026-01-13 23:15:57.49	34.48	44.52	-36.8	-37.8	21.9	0.00e+00	0	28	0	1336934400	46	6124
2026-01-13 23:15:58.47	33.99	44.43	-36.4	-37.4	22.3	0.00e+00	0	28	0	1340080128	46	5837
2026-01-13 23:15:59.45	33.49	44.33	-35.8	-36.8	23.0	0.00e+00	0	28	0	1343225856	46	5450
2026-01-13 23:16:00.43	33.01	44.23	-35.7	-36.6	23.0	0.00e+00	0	28	0	1346371584	44	5986
2026-01-13 23:16:01.40	32.53	44.14	-35.4	-36.3	23.3	0.00e+00	0	28	0	1349517312	44	5784
2026-01-13 23:16:02.38	32.04	44.03	-35.6	-36.5	23.2	0.00e+00	0	28	0	1352663040	44	5915
2026-01-13 23:16:03.35	31.57	43.93	-35.9	-36.9	22.8	0.00e+00	0	28	0	1355808768	44	6176
2026-01-13 23:16:04.33	31.09	43.83	-36.0	-37.0	22.5	0.00e+00	0	28	0	1357905920	44	6251
2026-01-13 23:16:05.31	30.62	43.72	-36.1	-37.1	22.5	0.00e+00	0	28	0	1361051648	44	6295
2026-01-13 23:16:06.29	30.15	43.61	-36.0	-37.0	22.6	0.00e+00	0	28	0	1364197376	44	6243
2026-01-13 23:16:07.26	29.69	43.50	-36.1	-37.1	22.7	0.00e+00	0	28	0	1367343104	44	6324
2026-01-13 23:16:08.24	29.23	43.39	-36.2	-37.2	22.7	0.00e+00	0	28	0	1370488832	44	6353
2026-01-13 23:16:09.22	28.77	43.27	-36.4	-37.4	22.3	0.00e+00	0	28	0	1373634560	44	6548
2026-01-13 23:16:10.19	28.32	43.15	-36.4	-37.4	22.2	0.00e+00	0	28	0	1376780288	44	6516
2026-01-13 23:16:11.17	27.86	43.04	-36.1	-37.1	22.3	0.00e+00	0	28	0	1379926016	44	6341
2026-01-13 23:16:12.15	27.42	42.92	-35.5	-36.4	23.0	0.00e+00	0	28	0	1383071744	44	5846
2026-01-13 23:16:13.12	26.97	42.80	-35.3	-36.3	23.3	0.00e+00	0	28	0	1386217472	44	5755
2026-01-13 23:16:14.10	26.53	42.67	-35.8	-36.8	22.9	0.00e+00	0	28	0	1389363200	44	6099
2026-01-13 23:16:15.08	26.09	42.55	-36.7	-37.8	22.0	0.00e+00	0	28	0	1392508928	44	6841
2026-01-13 23:16:16.05	25.66	42.42	-37.6	-38.8	21.2	0.00e+00	0	28	0	1394606080	46	6807
2026-01-13 23:16:17.03	25.23	42.30	-37.6	-38.7	20.8	0.00e+00	0	28	0	1397751808	46	6794
2026-01-13 23:16:18.01	24.80	42.17	-36.4	-37.5	21.7	0.00e+00	0	28	0	1400897536	46	5878
2026-01-13 23:16:18.98	24.38	42.04	-35.6	-36.6	22.3	0.00e+00	0	28	0	1404043264	44	5992
2026-01-13 23:16:19.96	23.96	41.91	-35.1	-36.1	23.0	0.00e+00	0	28	0	1407188992	44	5632
2026-01-13 23:16:20.93	23.54	41.78	-34.4	-35.3	24.1	0.00e+00	0	28	0	1410334720	42	5749
2026-01-13 23:16:21.91	23.13	41.64	-34.7	-35.6	23.9	0.00e+00	0	28	0	1413480448	42	5976
2026-01-13 23:16:22.89	22.71	41.51	-35.9	-36.9	22.8	0.00e+00	0	28	0	1416626176	42	6914
2026-01-13 23:16:23.87	22.31	41.37	-37.3	-38.5	21.5	0.00e+00	0	28	0	1419771904	46	6579
2026-01-13 23:16:24.84	21.91	41.24	-37.8	-39.0	20.5	0.00e+00	0	28	0	1422917632	48	6234
2026-01-13 23:16:25.82	21.50	41.10	-37.0	-38.2	20.6	0.00e+00	0	28	0	1426063360	48	5687
2026-01-13 23:16:26.80	21.11	40.96	-36.4	-37.6	21.0	0.00e+00	0	28	0	1428160512	46	5934
2026-01-13 23:16:27.78	20.71	40.82	-36.0	-37.1	22.0	0.00e+00	0	28	0	1431306240	46	5610
2026-01-13 23:16:28.75	20.33	40.68	-35.3	-36.3	23.0	0.00e+00	0	28	0	1434451968	44	5727
2026-01-13 23:16:29.73	19.94	40.53	-35.8	-36.8	23.0	0.00e+00	0	28	0	1437597696	44	6081
2026-01-13 23:16:30.72	19.55	40.39	-36.4	-37.4	22.2	0.00e+00	0	28	0	1440743424	44	6565
2026-01-13 23:16:31.69	19.17	40.25	-37.1	-38.2	21.7	0.00e+00	0	28	0	1443889152	46	6387
2026-01-13 23:16:32.67	18.80	40.10	-37.3	-38.4	21.6	0.00e+00	0	28	0	1447034880	46	6543
2026-01-13 23:16:33.65	18.42	39.96	-36.6	-37.6	22.5	0.00e+00	0	28	0	1450180608	46	5950
2026-01-13 23:16:34.63	18.05	39.81	-35.4	-36.3	23.4	0.00e+00	0	28	0	1453326336	44	5774
2026-01-13 23:16:35.60	17.69	39.66	-35.0	-35.9	23.7	0.00e+00	0	28	0	1456472064	44	5514
2026-01-13 23:16:36.58	17.32	39.52	-34.6	-35.5	24.0	0.00e+00	0	28	0	1459617792	42	5903
2026-01-13 23:16:37.56	16.96	39.37	-34.7	-35.6	23.8	0.00e+00	0	28	0	1462763520	42	5956
2026-01-13 23:16:38.54	16.61	39.22	-35.9	-36.9	22.4	0.00e+00	0	28	0	1464860672	42	6918
2026-01-13 23:16:39.52	16.25	39.07	-37.4	-38.6	21.0	0.00e+00	0	28	0	1468006400	46	6669
2026-01-13 23:16:40.49	15.91	38.92	-38.1	-39.3	20.7	0.00e+00	0	28	0	1471152128	48	6474
2026-01-13 23:16:41.47	15.56	38.77	-37.6	-38.8	20.9	0.00e+00	0	28	0	1474297856	48	6106
2026-01-13 23:16:42.45	15.21	38.62	-36.8	-37.9	21.5	0.00e+00	0	28	0	1477443584	48	5505
2026-01-13 23:16:43.43	14.87	38.46	-36.1	-37.2	22.2	0.00e+00	0	28	0	1480589312	46	5682
2026-01-13 23:16:44.41	14.54	38.31	-35.5	-36.5	22.7	0.00e+00	0	28	0	1483735040	44	5912
2026-01-13 23:16:45.39	14.20	38.16	-35.7	-36.7	22.9	0.00e+00	0	28	0	1486880768	44	6033
2026-01-13 23:16:46.36	13.87	38.01	-36.2	-37.2	22.6	0.00e+00	0	28	0	1490026496	44	6416
2026-01-13 23:16:47.34	13.54	37.85	-36.8	-37.8	22.0	0.00e+00	0	28	0	1493172224	44	6848
2026-01-13 23:16:48.32	13.22	37.70	-37.5	-38.6	21.4	0.00e+00	0	28	0	1496317952	46	6686
2026-01-13 23:16:49.30	12.90	37.54	-37.6	-38.8	21.3	0.00e+00	0	28	0	1498415104	48	6072
2026-01-13 23:16:50.28	12.58	37.39	-37.4	-38.5	21.5	0.00e+00	0	28	0	1501560832	48	5899
2026-01-13 23:16:51.25	12.27	37.24	-37.0	-38.1	21.8	0.00e+00	0	28	0	1504706560	48	5619
2026-01-13 23:16:52.23	11.95	37.08	-36.4	-37.5	22.4	0.00e+00	0	28	0	1507852288	46	5886
2026-01-13 23:16:53.21	11.64	36.93	-35.6	-36.6	23.0	0.00e+00	0	28	0	1510998016	44	5959
2026-01-13 23:16:54.19	11.34	36.77	-35.5	-36.5	23.2	0.00e+00	0	28	0	1514143744	44	5881
2026-01-13 23:16:55.17	11.03	36.61	-35.6	-36.5	23.1	0.00e+00	0	28	0	1517289472	44	5921
2026-01-13 23:16:56.15	10.73	36.46	-36.1	-37.1	22.6	0.00e+00	0	28	0	1520435200	44	6292
2026-01-13 23:16:57.12	10.44	36.30	-36.9	-38.0	21.7	0.00e+00	0	28	0	1523580928	44	6992
2026-01-13 23:16:58.10	10.14	36.15	-37.3	-38.4	21.5	0.00e+00	0	28	0	1526726656	46	6507
2026-01-13 23:16:59.08	9.85	35.99	-36.3	-37.3	22.5	0.00e+00	0	28	0	1529872384	46	5778
2026-01-13 23:17:00.06	9.56	35.83	-35.6	-36.6	23.1	0.00e+00	0	28	0	1531969536	44	5960
2026-01-13 23:17:01.03	9.28	35.68	-35.3	-36.3	23.4	0.00e+00	0	28	0	1535115264	44	5746
2026-01-13 23:17:02.01	8.99	35.52	-35.2	-36.1	23.5	0.00e+00	0	28	0	1538260992	44	5637
2026-01-13 23:17:02.99	8.71	35.36	-34.8	-35.7	23.8	0.00e+00	0	28	0	1541406720	44	5367
2026-01-13 23:17:03.97	8.43	35.21	-34.9	-35.8	23.7	0.00e+00	0	28	0	1544552448	42	6111
2026-01-13 23:17:04.95	8.16	35.05	-35.2	-36.2	23.4	0.00e+00	0	28	0	1547698176	42	6374
2026-01-13 23:17:05.93	7.88	34.89	-35.5	-36.5	23.3	0.00e+00	0	28	0	1550843904	42	6593
2026-01-13 23:17:06.91	7.61	34.74	-35.7	-36.7	23.2	0.00e+00	0	28	0	1553989632	44	6009
2026-01-13 23:17:07.89	7.34	34.58	-35.7	-36.7	22.9	0.00e+00	0	28	0	1557135360	44	6003
2026-01-13 23:17:08.86	7.08	34.43	-35.5	-36.5	23.2	0.00e+00	0	28	0	1560281088	44	5880
2026-01-13 23:17:09.84	6.82	34.27	-35.6	-36.6	23.1	0.00e+00	0	28	0	1563426816	44	5952
2026-01-13 23:17:10.82	6.56	34.11	-35.2	-36.1	23.5	0.00e+00	0	28	0	1566572544	44	5638
2026-01-13 23:17:11.80	6.30	33.96	-34.7	-35.6	23.8	0.00e+00	0	28	0	1569718272	42	5985
2026-01-13 23:17:12.78	6.04	33.80	-34.7	-35.6	23.8	0.00e+00	0	28	0	1571815424	42	5969
2026-01-13 23:17:13.76	5.79	33.65	-34.4	-35.3	24.2	0.00e+00	0	28	0	1574961152	42	5773
2026-01-13 23:17:14.74	5.54	33.49	-34.2	-35.1	24.3	0.00e+00	0	28	0	1578106880	42	5641
2026-01-13 23:17:15.72	5.29	33.33	-34.3	-35.2	24.1	0.00e+00	0	28	0	1581252608	42	5680
2026-01-13 23:17:16.69	5.05	33.18	-34.4	-35.3	23.9	0.00e+00	0	28	0	1584398336	42	5783
2026-01-13 23:17:17.67	4.81	33.02	-34.5	-35.4	23.9	0.00e+00	0	28	0	1587544064	42	5828
2026-01-13 23:17:18.65	4.57	32.87	-34.6	-35.5	24.0	0.00e+00	0	28	0	1590689792	42	5896
2026-01-13 23:17:19.63	4.33	32.72	-34.4	-35.3	24.2	0.00e+00	0	28	0	1593835520	42	5750
2026-01-13 23:17:20.61	4.09	32.56	-34.3	-35.2	24.2	0.00e+00	0	28	0	1596981248	42	5700
2026-01-13 23:17:21.59	3.86	32.41	-34.3	-35.2	24.1	0.00e+00	0	28	0	1600126976	42	5675
2026-01-13 23:17:22.57	3.63	32.25	-34.0	-34.9	24.3	0.00e+00	0	28	0	1603272704	42	5487
2026-01-13 23:17:23.55	3.40	32.10	-34.0	-35.0	24.3	0.00e+00	0	28	0	1606418432	42	5533
2026-01-13 23:17:24.53	3.17	31.94	-34.3	-35.2	24.1	0.00e+00	0	28	0	1609564160	42	5691
2026-01-13 23:17:25.51	2.94	31.79	-34.5	-35.4	23.9	0.00e+00	0	28	0	1611661312	42	5833
2026-01-13 23:17:26.49	2.72	31.64	-34.7	-35.6	23.8	0.00e+00	0	28	0	1614807040	42	5963
2026-01-13 23:17:27.46	2.50	31.49	-34.4	-35.3	24.0	0.00e+00	0	28	0	1617952768	42	5770
2026-01-13 23:17:28.44	2.28	31.34	-33.8	-34.7	24.4	0.00e+00	0	28	0	1621098496	42	5395
2026-01-13 23:17:29.42	2.07	31.18	-33.8	-34.7	24.5	0.00e+00	0	28	0	1624244224	40	6031
2026-01-13 23:17:30.40	1.85	31.03	-33.7	-34.6	24.6	0.00e+00	0	28	0	1627389952	40	5934
2026-01-13 23:17:31.38	1.64	30.88	-33.7	-34.6	24.6	0.00e+00	0	28	0	1630535680	40	5939
2026-01-13 23:17:32.35	1.43	30.73	-33.9	-34.8	24.5	0.00e+00	0	28	0	1633681408	40	6103
2026-01-13 23:17:33.33	1.22	30.58	-33.8	-34.7	24.5	0.00e+00	0	28	0	1636827136	40	6059
2026-01-13 23:17:34.30	1.02	30.43	-33.9	-34.9	24.4	0.00e+00	0	28	0	1639972864	40	6146
2026-01-13 23:17:35.28	0.81	30.28	-34.1	-35.0	24.2	0.00e+00	0	28	0	1643118592	40	6243
2026-01-13 23:17:36.27	0.61	30.13	-34.0	-35.0	24.2	0.00e+00	0	28	0	1646264320	40	6217
2026-01-13 23:17:37.25	0.41	29.98	-34.2	-35.1	24.2	0.00e+00	0	28	0	1648361472	40	6308
2026-01-13 23:17:38.23	0.21	29.83	-34.1	-35.0	24.1	0.00e+00	0	28	0	1651507200	40	6261
2026-01-13 23:17:39.21	0.01	29.68	-34.1	-35.0	24.2	0.00e+00	0	28	0	1654652928	40	6267
2026-01-13 23:17:40.19	359.81	29.54	-34.1	-35.0	24.2	0.00e+00	0	28	0	1657798656	40	6242
2026-01-13 23:17:41.17	359.62	29.39	-33.9	-34.8	24.3	0.00e+00	0	28	0	1660944384	40	6107
2026-01-13 23:17:42.15	359.43	29.24	-33.6	-34.5	24.5	0.00e+00	0	28	0	1664090112	40	5910
2026-01-13 23:17:43.13	359.24	29.09	-33.7	-34.6	24.5	0.00e+00	0	28	0	1667235840	40	5941
2026-01-13 23:17:44.11	359.05	28.95	-33.6	-34.5	24.4	0.00e+00	0	28	0	1670381568	40	5908
2026-01-13 23:17:45.09	358.86	28.80	-33.6	-34.5	24.5	0.00e+00	0	28	0	1673527296	40	5888
2026-01-13 23:17:46.07	358.68	28.66	-33.8	-34.7	24.5	0.00e+00	0	28	0	1676673024	40	6017
2026-01-13 23:17:47.05	358.50	28.51	-33.9	-34.8	24.5	0.00e+00	0	28	0	1679818752	40	6085
2026-01-13 23:17:48.03	358.31	28.37	-34.0	-34.9	24.4	0.00e+00	0	28	0	1682964480	40	6155
2026-01-13 23:17:49.01	358.13	28.22	-34.2	-35.1	24.2	0.00e+00	0	28	0	1685061632	40	6284
2026-01-13 23:17:49.98	357.96	28.08	-34.3	-35.2	24.1	0.00e+00	0	28	0	1688207360	40	6404
2026-01-13 23:17:50.96	357.78	27.94	-34.4	-35.3	24.0	0.00e+00	0	28	0	1691353088	40	6492
2026-01-13 23:17:51.94	357.61	27.79	-34.3	-35.2	24.0	0.00e+00	0	28	0	1694498816	40	6399
2026-01-13 23:17:52.92	357.43	27.65	-34.1	-35.0	24.2	0.00e+00	0	28	0	1697644544	40	6239
2026-01-13 23:17:53.90	357.26	27.51	-34.0	-35.0	24.2	0.00e+00	0	28	0	1700790272	40	6213
2026-01-13 23:17:54.89	357.09	27.36	-34.1	-35.0	24.1	0.00e+00	0	28	0	1703936000	40	6233
2026-01-13 23:17:55.89	356.92	27.22	-33.6	-34.5	24.4	0.00e+00	0	28	0	1707081728	40	5872
2026-01-13 23:17:56.90	356.75	27.08	-33.5	-34.4	24.5	0.00e+00	0	28	0	1710227456	40	5827
2026-01-13 23:17:57.90	356.58	26.93	-33.3	-34.2	24.6	0.00e+00	0	28	0	1713373184	40	5713
2026-01-13 23:17:58.90	356.41	26.79	-33.4	-34.3	24.7	0.00e+00	0	28	0	1716518912	40	5769
2026-01-13 23:17:59.90	356.24	26.65	-33.5	-34.4	24.6	0.00e+00	0	28	0	1719664640	40	5806
2026-01-13 23:18:00.90	356.08	26.51	-33.5	-34.4	24.6	0.00e+00	0	28	0	1722810368	40	5843
2026-01-13 23:18:01.89	355.92	26.37	-33.7	-34.6	24.6	0.00e+00	0	28	0	1725956096	40	5939
2026-01-13 23:18:02.89	355.76	26.23	-33.7	-34.6	24.5	0.00e+00	0	28	0	1729101824	40	5977
2026-01-13 23:18:03.89	355.60	26.08	-33.8	-34.7	24.5	0.00e+00	0	28	0	1732247552	40	6010
2026-01-13 23:18:04.88	355.44	25.95	-33.9	-34.8	24.5	0.00e+00	0	28	0	1735393280	40	6101
2026-01-13 23:18:05.88	355.28	25.81	-33.9	-34.8	24.5	0.00e+00	0	28	0	1738539008	40	6104
2026-01-13 23:18:06.88	355.13	25.67	-33.9	-34.8	24.4	0.00e+00	0	28	0	1741684736	40	6086
2026-01-13 23:18:07.87	354.97	25.53	-33.8	-34.7	24.4	0.00e+00	0	28	0	1744830464	40	6053
2026-01-13 23:18:08.87	354.82	25.39	-33.9	-34.8	24.4	0.00e+00	0	28	0	1747976192	40	6090
2026-01-13 23:18:09.86	354.67	25.26	-33.6	-34.5	24.6	0.00e+00	0	28	0	1751121920	40	5912
2026-01-13 23:18:10.86	354.52	25.12	-33.8	-34.7	24.5	0.00e+00	0	28	0	1753219072	40	6014
2026-01-13 23:18:11.85	354.37	24.99	-33.7	-34.6	24.5	0.00e+00	0	28	0	1756364800	40	5967
2026-01-13 23:18:12.84	354.23	24.85	-33.5	-34.4	24.7	0.00e+00	0	28	0	1759510528	40	5828
2026-01-13 23:18:13.84	354.08	24.72	-33.6	-34.5	24.5	0.00e+00	0	28	0	1762656256	40	5894
2026-01-13 23:18:14.84	353.93	24.58	-33.6	-34.5	24.5	0.00e+00	0	28	0	1765801984	40	5886
2026-01-13 23:18:15.85	353.79	24.44	-33.7	-34.6	24.4	0.00e+00	0	28	0	1768947712	40	5974
2026-01-13 23:18:16.85	353.65	24.31	-33.8	-34.7	24.4	0.00e+00	0	28	0	1772093440	40	6008
2026-01-13 23:18:17.86	353.50	24.18	-33.8	-34.7	24.5	0.00e+00	0	28	0	1775239168	40	6016
2026-01-13 23:18:18.86	353.36	24.04	-33.7	-34.6	24.6	0.00e+00	0	28	0	1778384896	40	5970
2026-01-13 23:18:19.86	353.22	23.91	-33.8	-34.7	24.5	0.00e+00	0	28	0	1781530624	40	6012
2026-01-13 23:18:20.85	353.09	23.78	-33.7	-34.6	24.5	0.00e+00	0	28	0	1784676352	40	5961
2026-01-13 23:18:21.85	352.95	23.65	-33.7	-34.6	24.5	0.00e+00	0	28	0	1787822080	40	5933
2026-01-13 23:18:22.85	352.82	23.52	-33.7	-34.6	24.5	0.00e+00	0	28	0	1790967808	40	5985
2026-01-13 23:18:23.85	352.68	23.39	-33.5	-34.3	24.7	0.00e+00	0	28	0	1794113536	40	5785
2026-01-13 23:18:24.84	352.55	23.26	-33.4	-34.3	24.8	0.00e+00	0	28	0	1797259264	40	5764
2026-01-13 23:18:25.84	352.42	23.13	-33.5	-34.4	24.7	0.00e+00	0	28	0	1800404992	40	5820
2026-01-13 23:18:26.84	352.29	23.00	-33.4	-34.3	24.7	0.00e+00	0	28	0	1803550720	40	5775
2026-01-13 23:18:27.84	352.16	22.87	-33.4	-34.2	24.8	0.00e+00	0	28	0	1806696448	40	5723
2026-01-13 23:18:28.83	352.03	22.74	-33.5	-34.4	24.6	0.00e+00	0	28	0	1809842176	40	5832
2026-01-13 23:18:29.83	351.90	22.62	-33.4	-34.3	24.6	0.00e+00	0	28	0	1812987904	40	5774
2026-01-13 23:18:30.83	351.78	22.49	-33.4	-34.3	24.7	0.00e+00	0	28	0	1816133632	40	5778
2026-01-13 23:18:31.83	351.65	22.36	-33.5	-34.4	24.7	0.00e+00	0	28	0	1819279360	40	5811
2026-01-13 23:18:32.83	351.53	22.24	-33.6	-34.5	24.6	0.00e+00	0	28	0	1822425088	40	5865
2026-01-13 23:18:33.83	351.40	22.11	-33.6	-34.5	24.5	0.00e+00	0	28	0	1825570816	40	5913
2026-01-13 23:18:34.82	351.28	21.99	-33.6	-34.5	24.5	0.00e+00	0	28	0	1828716544	40	5915
2026-01-13 23:18:35.83	351.16	21.86	-33.6	-34.5	24.5	0.00e+00	0	28	0	1831862272	40	5915
2026-01-13 23:18:36.83	351.04	21.74	-33.6	-34.5	24.6	0.00e+00	0	28	0	1835008000	40	5898
2026-01-13 23:18:37.84	350.92	21.61	-33.7	-34.6	24.5	0.00e+00	0	28	0	1838153728	40	5971
2026-01-13 23:18:38.85	350.80	21.49	-33.6	-34.5	24.5	0.00e+00	0	28	0	1841299456	40	5904
2026-01-13 23:18:39.86	350.68	21.36	-33.7	-34.6	24.5	0.00e+00	0	28	0	1844445184	40	5942
2026-01-13 23:18:40.87	350.56	21.24	-33.6	-34.5	24.6	0.00e+00	0	28	0	1847590912	40	5889
2026-01-13 23:18:41.88	350.45	21.11	-33.7	-34.6	24.6	0.00e+00	0	28	0	1850736640	40	5944
2026-01-13 23:18:42.89	350.33	20.99	-33.6	-34.5	24.6	0.00e+00	0	28	0	1853882368	40	5878
2026-01-13 23:18:43.90	350.21	20.87	-33.8	-34.7	24.5	0.00e+00	0	28	0	1857028096	40	6015
2026-01-13 23:18:44.91	350.10	20.75	-33.7	-34.6	24.5	0.00e+00	0	28	0	1860173824	40	5987
2026-01-13 23:18:45.93	349.99	20.63	-33.7	-34.6	24.5	0.00e+00	0	28	0	1863319552	40	5943
2026-01-13 23:18:46.94	349.88	20.50	-33.7	-34.6	24.4	0.00e+00	0	28	0	1866465280	40	5967
2026-01-13 23:18:47.95	349.76	20.38	-33.7	-34.6	24.3	0.00e+00	0	28	0	1869611008	40	5940
2026-01-13 23:18:48.96	349.65	20.26	-33.6	-34.5	24.5	0.00e+00	0	28	0	1872756736	40	5915
2026-01-13 23:18:49.97	349.54	20.14	-33.6	-34.5	24.4	0.00e+00	0	28	0	1875902464	40	5915
2026-01-13 23:18:50.98	349.44	20.03	-33.4	-34.3	24.5	0.00e+00	0	28	0	1879048192	40	5774
2026-01-13 23:18:51.99	349.33	19.91	-33.6	-34.4	24.4	0.00e+00	0	28	0	1882193920	40	5858
2026-01-13 23:18:53.00	349.22	19.79	-33.5	-34.3	24.5	0.00e+00	0	28	0	1885339648	40	5784
2026-01-13 23:18:54.01	349.12	19.67	-33.4	-34.2	24.7	0.00e+00	0	28	0	1888485376	40	5715
2026-01-13 23:18:55.02	349.01	19.55	-33.5	-34.4	24.5	0.00e+00	0	28	0	1891631104	40	5828
2026-01-13 23:18:56.03	348.91	19.44	-33.3	-34.2	24.6	0.00e+00	0	28	0	1894776832	40	5673
2026-01-13 23:18:57.04	348.80	19.32	-33.3	-34.2	24.6	0.00e+00	0	28	0	1897922560	40	5699
2026-01-13 23:18:58.05	348.70	19.20	-33.5	-34.4	24.6	0.00e+00	0	28	0	1901068288	40	5837
2026-01-13 23:18:59.06	348.60	19.09	-33.4	-34.2	24.6	0.00e+00	0	28	0	1904214016	40	5719
2026-01-13 23:19:00.07	348.50	18.97	-33.5	-34.4	24.6	0.00e+00	0	28	0	1907359744	40	5823
2026-01-13 23:19:01.08	348.40	18.86	-33.6	-34.5	24.5	0.00e+00	0	28	0	1910505472	40	5894
2026-01-13 23:19:02.09	348.30	18.75	-33.6	-34.5	24.4	0.00e+00	0	28	0	1913651200	40	5924
2026-01-13 23:19:03.10	348.20	18.63	-33.8	-34.7	24.4	0.00e+00	0	28	0	1916796928	40	6004
2026-01-13 23:19:04.11	348.10	18.52	-33.9	-34.8	24.3	0.00e+00	0	28	0	1919942656	40	6109
2026-01-13 23:19:05.12	348.00	18.41	-33.8	-34.7	24.4	0.00e+00	0	28	0	1923088384	40	6044
2026-01-13 23:19:06.13	347.91	18.29	-33.9	-34.8	24.2	0.00e+00	0	28	0	1926234112	40	6132
2026-01-13 23:19:07.14	347.81	18.18	-34.0	-34.9	24.1	0.00e+00	0	28	0	1929379840	40	6167
2026-01-13 23:19:08.15	347.72	18.07	-34.1	-35.0	24.0	0.00e+00	0	28	0	1932525568	40	6258
2026-01-13 23:19:09.16	347.62	17.96	-34.1	-35.0	24.1	0.00e+00	0	28	0	1935671296	40	6266
2026-01-13 23:19:10.17	347.53	17.85	-34.2	-35.1	24.0	0.00e+00	0	28	0	1938817024	40	6318
