passes_logs/2026/01/13/R4.6S_Anadyr/R4.6S_Anadyr__20260113_015802_NOAA_20_JPSS-1_rec.log

#Pass ID: 20260113_015802_NOAA 20 (JPSS-1)
#Satellite: NOAA 20 (JPSS-1)
#Configuration: NOAA 20
#almurnet v.1.7.20251203
#Start time: 2026-01-13 01:58:03

#Version: 2.2.20231116
#Station: R4.6S_Anadyr
#Location: 177.4865 lon 64.73178 lat
#TLE: 1 43013U 17073A   26012.29914746  .00000087  00000+0  62270-4 0  9997
#TLE: 2 43013  98.7632 313.2670 0001616  43.2193 316.9110 14.19535514422351

#Time	Az	El	Level	Level2	SNR	BER	BlckErr	Temp	State	Recorded	gain1	gain2
2026-01-13 01:58:03.10	201.35	0.05	-48.6	-63.6	3.5	1.51e+00	0	24	0	0	60	54403
2026-01-13 01:58:04.10	201.41	0.10	-48.7	-63.9	3.6	1.51e+00	0	25	104	0	60	56538
2026-01-13 01:58:05.12	201.47	0.16	-48.7	-64.0	3.6	1.51e+00	0	26	104	0	60	57272
2026-01-13 01:58:06.13	201.52	0.21	-48.7	-64.0	3.6	1.51e+00	0	26	104	0	60	57182
2026-01-13 01:58:07.14	201.58	0.27	-48.8	-64.0	3.6	1.51e+00	0	26	104	0	60	57324
2026-01-13 01:58:08.14	201.63	0.32	-48.8	-64.0	3.6	1.51e+00	0	26	104	0	60	57306
2026-01-13 01:58:09.15	201.69	0.38	-48.8	-64.0	3.6	1.51e+00	0	26	104	0	60	57170
2026-01-13 01:58:10.16	201.75	0.43	-48.7	-64.1	3.6	1.51e+00	0	26	104	0	60	57802
2026-01-13 01:58:11.17	201.81	0.49	-48.8	-64.1	3.6	1.51e+00	0	26	104	0	60	57828
2026-01-13 01:58:12.18	201.86	0.54	-48.8	-64.0	3.6	1.51e+00	0	26	104	0	60	57255
2026-01-13 01:58:13.19	201.92	0.60	-48.8	-64.0	3.6	1.51e+00	0	26	104	0	60	57445
2026-01-13 01:58:14.20	201.98	0.65	-48.7	-64.0	3.6	1.51e+00	0	26	104	0	60	57159
2026-01-13 01:58:15.21	202.04	0.71	-48.5	-63.8	3.6	1.51e+00	0	26	104	0	60	55968
2026-01-13 01:58:16.22	202.10	0.77	-48.5	-63.7	3.5	1.51e+00	0	26	104	0	60	55118
2026-01-13 01:58:17.23	202.16	0.82	-48.4	-63.6	3.6	1.51e+00	0	26	104	0	60	54424
2026-01-13 01:58:18.24	202.22	0.88	-48.1	-63.4	3.6	1.51e+00	0	26	104	0	60	53563
2026-01-13 01:58:19.25	202.28	0.93	-47.9	-63.0	3.6	1.51e+00	0	26	104	0	60	51177
2026-01-13 01:58:20.26	202.33	0.99	-47.4	-62.5	3.6	1.51e+00	0	26	104	0	60	48453
2026-01-13 01:58:21.27	202.39	1.05	-47.3	-62.5	3.6	1.51e+00	0	26	104	0	60	48391
2026-01-13 01:58:22.28	202.45	1.10	-47.3	-62.5	3.6	1.51e+00	0	26	104	0	60	48211
2026-01-13 01:58:23.29	202.51	1.16	-47.3	-62.4	3.6	1.51e+00	0	26	104	0	60	47765
2026-01-13 01:58:24.30	202.57	1.22	-47.3	-62.4	3.6	1.51e+00	0	26	104	0	60	47901
2026-01-13 01:58:25.31	202.63	1.27	-47.3	-62.5	3.6	1.51e+00	0	26	104	0	60	48316
2026-01-13 01:58:26.32	202.70	1.33	-47.3	-62.5	3.6	1.51e+00	0	26	104	0	60	48442
2026-01-13 01:58:27.32	202.76	1.38	-47.3	-62.5	3.6	1.51e+00	0	26	104	0	60	48242
2026-01-13 01:58:28.33	202.82	1.44	-47.3	-62.5	3.6	1.51e+00	0	26	104	0	60	48264
2026-01-13 01:58:29.34	202.88	1.50	-47.3	-62.5	3.6	1.51e+00	0	26	104	0	60	48445
2026-01-13 01:58:30.35	202.94	1.56	-47.3	-62.5	3.6	1.51e+00	0	26	104	0	60	48309
2026-01-13 01:58:31.36	203.00	1.61	-47.3	-62.5	3.6	1.51e+00	0	26	104	0	60	48236
2026-01-13 01:58:32.37	203.06	1.67	-47.3	-62.5	3.6	1.51e+00	0	26	104	0	60	48465
2026-01-13 01:58:33.38	203.13	1.73	-47.3	-62.5	3.6	1.51e+00	0	26	104	0	60	48115
2026-01-13 01:58:34.39	203.19	1.78	-47.3	-62.5	3.6	1.51e+00	0	26	104	0	60	48145
2026-01-13 01:58:35.40	203.25	1.84	-47.3	-62.4	3.6	1.51e+00	0	26	104	0	60	47661
2026-01-13 01:58:36.41	203.31	1.90	-47.3	-62.4	3.6	1.51e+00	0	26	104	0	60	47615
2026-01-13 01:58:37.42	203.38	1.96	-47.3	-62.4	3.6	1.51e+00	0	26	104	0	60	47546
2026-01-13 01:58:38.43	203.44	2.02	-47.3	-62.4	3.6	1.51e+00	0	26	104	0	60	47645
2026-01-13 01:58:39.44	203.50	2.07	-47.3	-62.4	3.6	1.51e+00	0	26	104	0	60	47385
2026-01-13 01:58:40.45	203.57	2.13	-47.2	-62.4	3.6	1.51e+00	0	26	104	0	60	47593
2026-01-13 01:58:41.46	203.63	2.19	-47.2	-62.4	3.6	1.51e+00	0	26	104	0	60	47587
2026-01-13 01:58:42.47	203.70	2.25	-47.2	-62.4	3.5	1.51e+00	0	26	104	0	60	47743
2026-01-13 01:58:43.48	203.76	2.31	-47.2	-62.5	3.6	1.51e+00	0	26	104	0	60	47985
2026-01-13 01:58:44.49	203.83	2.36	-47.2	-62.4	3.6	1.51e+00	0	26	104	0	60	47879
2026-01-13 01:58:45.50	203.89	2.42	-47.2	-62.3	3.6	1.51e+00	0	26	104	0	60	47333
2026-01-13 01:58:46.51	203.96	2.48	-47.2	-61.8	3.6	1.51e+00	0	26	104	0	60	44547
2026-01-13 01:58:47.52	204.02	2.54	-47.2	-61.2	3.6	1.51e+00	0	26	104	0	60	41362
2026-01-13 01:58:48.52	204.09	2.60	-47.2	-60.6	3.6	1.51e+00	0	26	104	0	60	38600
2026-01-13 01:58:49.53	204.15	2.66	-47.1	-60.1	3.7	1.50e+00	0	26	104	0	60	36770
2026-01-13 01:58:50.54	204.22	2.71	-47.2	-61.1	3.6	1.50e+00	0	26	104	0	60	41179
2026-01-13 01:58:51.55	204.29	2.77	-47.2	-62.1	3.6	1.51e+00	0	26	104	0	60	45938
2026-01-13 01:58:52.56	204.35	2.83	-47.1	-60.3	3.6	1.51e+00	0	26	104	0	60	37601
2026-01-13 01:58:53.57	204.42	2.89	-46.7	-55.8	5.7	1.16e+00	92	26	104	0	60	22369
2026-01-13 01:58:54.58	204.49	2.95	-46.2	-52.2	8.8	2.07e-01	92	26	0	1048576	60	14801
2026-01-13 01:58:55.59	204.56	3.01	-45.3	-49.7	11.5	2.56e-03	90	26	0	3145728	60	11008
2026-01-13 01:58:56.60	204.62	3.07	-44.5	-48.0	13.4	6.71e-05	92	26	0	4194304	60	9042
2026-01-13 01:58:57.61	204.69	3.13	-43.8	-46.7	15.0	3.00e-06	0	27	0	6291456	60	7774
2026-01-13 01:58:58.62	204.76	3.19	-43.2	-45.7	15.7	0.00e+00	92	26	0	8388608	60	6992
2026-01-13 01:58:59.62	204.83	3.25	-43.3	-45.9	15.4	0.00e+00	92	26	0	9437184	60	7153
2026-01-13 01:59:00.64	204.90	3.31	-43.4	-46.0	15.3	0.00e+00	92	26	0	11534336	60	7240
2026-01-13 01:59:01.65	204.97	3.37	-43.6	-46.3	9.7	7.17e-05	92	26	0	13631488	58	8349
2026-01-13 01:59:02.65	205.04	3.43	-46.2	-52.4	5.5	1.49e+00	0	26	104	13631488	60	15068
2026-01-13 01:59:03.67	205.11	3.49	-44.7	-48.5	11.5	1.67e-01	92	26	104	13631488	60	9649
2026-01-13 01:59:04.68	205.18	3.55	-47.2	-61.6	3.6	1.18e+00	0	26	104	13631488	60	43431
2026-01-13 01:59:05.68	205.25	3.61	-42.2	-44.2	6.1	1.48e+00	0	26	104	13631488	60	5843
2026-01-13 01:59:06.69	205.32	3.67	-43.0	-45.3	16.0	2.44e-01	90	26	104	13631488	60	6671
2026-01-13 01:59:07.70	205.39	3.73	-42.2	-44.2	17.4	0.00e+00	92	26	0	14680064	58	6551
2026-01-13 01:59:08.71	205.46	3.79	-41.9	-43.8	17.8	0.00e+00	91	27	0	16777216	58	6277
2026-01-13 01:59:09.72	205.53	3.85	-41.9	-43.8	17.8	0.00e+00	92	26	0	18874368	58	6275
2026-01-13 01:59:10.73	205.60	3.91	-41.9	-43.8	17.7	0.00e+00	92	26	0	20971520	58	6310
2026-01-13 01:59:11.74	205.67	3.97	-41.8	-43.6	18.1	0.00e+00	92	26	0	22020096	56	6868
2026-01-13 01:59:12.75	205.75	4.03	-41.6	-43.3	18.4	0.00e+00	92	26	0	24117248	56	6661
2026-01-13 01:59:13.76	205.82	4.09	-41.7	-43.5	18.2	0.00e+00	0	26	0	26214400	56	6807
2026-01-13 01:59:14.77	205.89	4.16	-41.7	-43.4	18.4	0.00e+00	92	26	0	28311552	56	6744
2026-01-13 01:59:15.78	205.96	4.22	-41.5	-43.2	18.5	0.00e+00	92	26	0	30408704	56	6605
2026-01-13 01:59:16.79	206.04	4.28	-41.5	-43.2	18.5	0.00e+00	92	26	0	31457280	56	6553
2026-01-13 01:59:17.80	206.11	4.34	-41.7	-43.5	18.2	0.00e+00	92	26	0	33554432	56	6786
2026-01-13 01:59:18.80	206.18	4.40	-41.7	-43.4	18.3	0.00e+00	90	26	0	35651584	56	6767
2026-01-13 01:59:19.82	206.26	4.46	-42.1	-44.0	17.8	0.00e+00	92	26	0	37748736	56	7183
2026-01-13 01:59:20.83	206.33	4.53	-41.7	-43.5	18.3	0.00e+00	62	26	0	39845888	56	6775
2026-01-13 01:59:21.84	206.41	4.59	-41.1	-42.7	19.1	0.00e+00	92	26	0	40894464	56	6222
2026-01-13 01:59:22.85	206.48	4.65	-40.9	-42.4	19.4	0.00e+00	92	26	0	42991616	56	6031
2026-01-13 01:59:23.86	206.56	4.71	-40.7	-42.2	19.5	0.00e+00	92	26	0	45088768	54	6569
2026-01-13 01:59:24.87	206.63	4.77	-40.9	-42.4	19.3	0.00e+00	92	27	0	47185920	54	6727
2026-01-13 01:59:25.88	206.71	4.84	-41.0	-42.5	19.3	0.00e+00	92	26	0	49283072	54	6809
2026-01-13 01:59:26.89	206.79	4.90	-40.5	-41.9	19.7	0.00e+00	92	26	0	50331648	54	6375
2026-01-13 01:59:27.90	206.86	4.96	-40.8	-42.3	19.6	0.00e+00	32	26	0	52428800	54	6634
2026-01-13 01:59:28.90	206.94	5.02	-41.1	-42.6	19.1	0.00e+00	92	26	0	54525952	54	6899
2026-01-13 01:59:29.91	207.02	5.09	-41.0	-42.5	19.2	0.00e+00	74	26	0	56623104	54	6824
2026-01-13 01:59:30.92	207.09	5.15	-40.4	-41.8	20.1	0.00e+00	92	26	0	58720256	54	6278
2026-01-13 01:59:31.93	207.17	5.21	-40.3	-41.6	20.3	0.00e+00	92	26	0	59768832	54	6124
2026-01-13 01:59:32.94	207.25	5.27	-40.1	-41.4	20.3	0.00e+00	92	26	0	61865984	54	6031
2026-01-13 01:59:33.95	207.33	5.34	-40.3	-41.6	20.1	0.00e+00	92	26	0	63963136	54	6121
2026-01-13 01:59:34.96	207.41	5.40	-40.1	-41.4	20.4	0.00e+00	92	27	0	66060288	54	6020
2026-01-13 01:59:35.97	207.49	5.46	-40.1	-41.4	20.5	0.00e+00	92	27	0	68157440	54	6005
2026-01-13 01:59:36.97	207.57	5.53	-40.4	-41.7	20.2	0.00e+00	0	26	0	69206016	54	6203
2026-01-13 01:59:37.98	207.65	5.59	-40.2	-41.5	20.3	0.00e+00	92	27	0	71303168	54	6091
2026-01-13 01:59:38.99	207.73	5.66	-40.1	-41.4	20.5	0.00e+00	92	27	0	73400320	54	5977
2026-01-13 01:59:40.00	207.81	5.72	-40.0	-41.3	20.6	0.00e+00	91	26	0	75497472	54	5922
2026-01-13 01:59:41.01	207.89	5.78	-40.1	-41.4	20.5	0.00e+00	92	26	0	77594624	54	5979
2026-01-13 01:59:42.02	207.97	5.85	-39.9	-41.2	20.7	0.00e+00	91	26	0	78643200	54	5849
2026-01-13 01:59:43.03	208.05	5.91	-39.9	-41.1	20.7	0.00e+00	92	27	0	80740352	54	5813
2026-01-13 01:59:44.04	208.13	5.98	-39.9	-41.1	20.8	0.00e+00	80	26	0	82837504	54	5821
2026-01-13 01:59:45.05	208.22	6.04	-39.9	-41.1	20.8	0.00e+00	92	26	0	84934656	54	5797
2026-01-13 01:59:46.06	208.30	6.10	-39.8	-41.0	20.9	0.00e+00	65	26	0	87031808	52	6417
2026-01-13 01:59:47.07	208.38	6.17	-39.9	-41.1	20.8	0.00e+00	92	26	0	89128960	52	6521
2026-01-13 01:59:48.08	208.46	6.23	-39.8	-41.0	21.0	0.00e+00	90	26	0	90177536	52	6391
2026-01-13 01:59:49.08	208.55	6.30	-39.8	-41.0	21.0	0.00e+00	92	26	0	92274688	52	6412
2026-01-13 01:59:50.09	208.63	6.36	-39.7	-40.9	21.0	0.00e+00	92	26	0	94371840	52	6343
2026-01-13 01:59:51.10	208.72	6.43	-39.5	-40.7	21.3	0.00e+00	68	27	0	96468992	52	6222
2026-01-13 01:59:52.11	208.80	6.49	-39.6	-40.8	21.1	0.00e+00	92	26	0	98566144	52	6299
2026-01-13 01:59:53.12	208.89	6.56	-39.6	-40.8	21.2	0.00e+00	36	27	0	99614720	52	6270
2026-01-13 01:59:54.13	208.97	6.62	-39.6	-40.8	21.2	0.00e+00	90	27	0	101711872	52	6251
2026-01-13 01:59:55.14	209.06	6.69	-39.5	-40.7	21.3	0.00e+00	92	27	0	103809024	52	6219
2026-01-13 01:59:56.15	209.14	6.76	-39.4	-40.6	21.4	0.00e+00	92	27	0	105906176	52	6129
2026-01-13 01:59:57.15	209.23	6.82	-39.5	-40.7	21.3	0.00e+00	92	27	0	106954752	52	6212
2026-01-13 01:59:58.16	209.32	6.89	-39.4	-40.6	21.4	0.00e+00	92	27	0	109051904	52	6149
2026-01-13 01:59:59.17	209.40	6.95	-39.5	-40.7	21.3	0.00e+00	92	26	0	111149056	52	6203
2026-01-13 02:00:00.18	209.49	7.02	-39.5	-40.7	21.4	0.00e+00	0	27	0	113246208	52	6201
2026-01-13 02:00:01.20	209.58	7.09	-39.5	-40.7	21.4	0.00e+00	92	27	0	115343360	52	6176
2026-01-13 02:00:02.20	209.67	7.15	-39.4	-40.5	21.5	0.00e+00	92	27	0	117440512	52	6101
2026-01-13 02:00:03.21	209.76	7.22	-39.3	-40.5	21.5	0.00e+00	92	27	0	118489088	52	6051
2026-01-13 02:00:04.22	209.84	7.28	-39.5	-40.6	21.5	0.00e+00	90	27	0	120586240	52	6165
2026-01-13 02:00:05.23	209.93	7.35	-39.2	-40.3	21.7	0.00e+00	92	26	0	122683392	52	5962
2026-01-13 02:00:06.24	210.02	7.42	-39.2	-40.4	21.7	0.00e+00	92	27	0	124780544	52	5971
2026-01-13 02:00:07.25	210.12	7.48	-39.2	-40.3	21.7	0.00e+00	59	27	0	126877696	52	5960
2026-01-13 02:00:08.26	210.21	7.55	-39.3	-40.4	21.7	0.00e+00	92	27	0	127926272	52	5975
2026-01-13 02:00:09.27	210.30	7.62	-39.2	-40.3	21.8	0.00e+00	92	27	0	130023424	52	5911
2026-01-13 02:00:10.28	210.39	7.69	-39.2	-40.3	21.6	0.00e+00	92	27	0	132120576	52	5946
2026-01-13 02:00:11.28	210.48	7.75	-39.2	-40.3	21.8	0.00e+00	92	27	0	134217728	52	5906
2026-01-13 02:00:12.29	210.57	7.82	-39.0	-40.1	21.8	0.00e+00	32	27	0	136314880	52	5809
2026-01-13 02:00:13.30	210.67	7.89	-39.1	-40.2	21.9	0.00e+00	92	27	0	137363456	52	5855
2026-01-13 02:00:14.32	210.76	7.96	-39.3	-40.4	21.7	0.00e+00	0	27	0	139460608	52	5982
2026-01-13 02:00:15.32	210.85	8.02	-39.2	-40.3	21.7	0.00e+00	92	26	0	141557760	52	5962
2026-01-13 02:00:16.33	210.95	8.09	-39.2	-40.3	21.8	0.00e+00	0	27	0	143654912	52	5951
2026-01-13 02:00:17.34	211.04	8.16	-39.2	-40.3	21.7	0.00e+00	92	27	0	145752064	52	5959
2026-01-13 02:00:18.35	211.14	8.23	-39.2	-40.3	21.8	0.00e+00	92	27	0	146800640	52	5897
2026-01-13 02:00:19.36	211.23	8.30	-39.2	-40.3	21.8	0.00e+00	92	27	0	148897792	52	5919
2026-01-13 02:00:20.37	211.33	8.36	-39.3	-40.4	21.6	0.00e+00	90	27	0	150994944	52	5996
2026-01-13 02:00:21.38	211.42	8.43	-39.2	-40.4	21.8	0.00e+00	92	27	0	153092096	52	5967
2026-01-13 02:00:22.38	211.52	8.50	-39.2	-40.3	21.8	0.00e+00	92	27	0	155189248	52	5916
2026-01-13 02:00:23.39	211.62	8.57	-39.2	-40.3	21.9	0.00e+00	0	27	0	156237824	52	5934
2026-01-13 02:00:24.40	211.71	8.64	-39.1	-40.2	22.0	0.00e+00	92	27	0	158334976	52	5853
2026-01-13 02:00:25.42	211.81	8.71	-39.2	-40.3	21.8	0.00e+00	92	27	0	160432128	52	5898
2026-01-13 02:00:26.42	211.91	8.78	-39.2	-40.3	21.9	0.00e+00	92	27	0	162529280	52	5909
2026-01-13 02:00:27.43	212.01	8.85	-39.1	-40.2	21.9	0.00e+00	90	27	0	164626432	52	5873
2026-01-13 02:00:28.44	212.11	8.92	-39.1	-40.2	21.9	0.00e+00	92	27	0	165675008	52	5871
2026-01-13 02:00:29.45	212.21	8.99	-39.1	-40.2	22.0	0.00e+00	92	27	0	167772160	52	5845
2026-01-13 02:00:30.46	212.31	9.06	-39.1	-40.2	22.0	0.00e+00	27	27	0	169869312	52	5837
2026-01-13 02:00:31.47	212.41	9.13	-39.0	-40.0	22.1	0.00e+00	92	27	0	171966464	52	5760
2026-01-13 02:00:32.48	212.51	9.20	-38.9	-40.0	22.1	0.00e+00	90	27	0	174063616	52	5722
2026-01-13 02:00:33.49	212.61	9.27	-38.9	-40.0	22.2	0.00e+00	92	27	0	175112192	52	5721
2026-01-13 02:00:34.50	212.71	9.34	-39.0	-40.0	22.1	0.00e+00	90	27	0	177209344	52	5753
2026-01-13 02:00:35.51	212.82	9.41	-38.9	-40.0	22.2	0.00e+00	38	27	0	179306496	52	5701
2026-01-13 02:00:36.52	212.92	9.48	-39.0	-40.1	22.1	0.00e+00	92	27	0	181403648	52	5767
2026-01-13 02:00:37.52	213.02	9.55	-38.8	-39.9	22.3	0.00e+00	12	27	0	183500800	52	5648
2026-01-13 02:00:38.53	213.13	9.62	-39.0	-40.0	22.1	0.00e+00	90	27	0	185597952	52	5736
2026-01-13 02:00:39.54	213.23	9.69	-38.8	-39.8	22.3	0.00e+00	0	27	0	186646528	52	5628
2026-01-13 02:00:40.55	213.33	9.76	-38.7	-39.7	22.4	0.00e+00	92	27	0	188743680	50	6227
2026-01-13 02:00:41.56	213.44	9.83	-38.7	-39.8	22.4	0.00e+00	92	27	0	190840832	50	6255
2026-01-13 02:00:42.58	213.55	9.90	-38.6	-39.6	22.5	0.00e+00	92	27	0	192937984	50	6119
2026-01-13 02:00:43.58	213.65	9.97	-38.6	-39.6	22.5	0.00e+00	92	27	0	195035136	50	6127
2026-01-13 02:00:44.59	213.76	10.04	-38.6	-39.6	22.5	0.00e+00	0	27	0	196083712	50	6118
2026-01-13 02:00:45.60	213.87	10.11	-38.7	-39.7	22.5	0.00e+00	90	27	0	198180864	50	6241
2026-01-13 02:00:46.61	213.97	10.19	-38.6	-39.6	22.4	0.00e+00	41	27	0	200278016	50	6156
2026-01-13 02:00:47.62	214.08	10.26	-38.5	-39.5	22.6	0.00e+00	90	27	0	202375168	50	6078
2026-01-13 02:00:48.63	214.19	10.33	-38.6	-39.6	22.5	0.00e+00	91	27	0	204472320	50	6140
2026-01-13 02:00:49.64	214.30	10.40	-38.5	-39.5	22.6	0.00e+00	90	27	0	205520896	50	6085
2026-01-13 02:00:50.65	214.41	10.47	-38.6	-39.6	22.6	0.00e+00	92	27	0	207618048	50	6147
2026-01-13 02:00:51.66	214.52	10.55	-38.6	-39.6	22.3	0.00e+00	24	27	0	209715200	50	6118
2026-01-13 02:00:52.67	214.63	10.62	-38.5	-39.5	22.6	0.00e+00	91	27	0	211812352	50	6087
2026-01-13 02:00:53.68	214.74	10.69	-38.6	-39.6	22.4	0.00e+00	5	27	0	213909504	50	6129
2026-01-13 02:00:54.69	214.86	10.76	-38.7	-39.7	22.6	0.00e+00	92	27	0	214958080	50	6186
2026-01-13 02:00:55.70	214.97	10.84	-38.7	-39.7	22.5	0.00e+00	37	27	0	217055232	50	6229
2026-01-13 02:00:56.71	215.08	10.91	-38.7	-39.7	22.5	0.00e+00	90	27	0	219152384	50	6175
2026-01-13 02:00:57.72	215.20	10.98	-38.8	-39.8	22.3	0.00e+00	92	27	0	221249536	50	6312
2026-01-13 02:00:58.72	215.31	11.05	-38.8	-39.8	22.4	0.00e+00	91	27	0	223346688	50	6288
2026-01-13 02:00:59.73	215.42	11.13	-38.8	-39.9	22.3	0.00e+00	91	27	0	224395264	50	6329
2026-01-13 02:01:00.74	215.54	11.20	-39.0	-40.1	22.1	0.00e+00	12	27	0	226492416	50	6472
2026-01-13 02:01:01.75	215.66	11.27	-38.8	-39.8	22.4	0.00e+00	90	27	0	228589568	50	6313
2026-01-13 02:01:02.76	215.77	11.35	-38.8	-39.8	22.5	0.00e+00	60	27	0	230686720	50	6281
2026-01-13 02:01:03.77	215.89	11.42	-38.8	-39.9	22.4	0.00e+00	92	27	0	232783872	50	6335
2026-01-13 02:01:04.78	216.01	11.49	-38.8	-39.8	22.4	0.00e+00	90	27	0	233832448	50	6257
2026-01-13 02:01:05.79	216.12	11.57	-38.7	-39.7	22.4	0.00e+00	92	27	0	235929600	50	6231
2026-01-13 02:01:06.80	216.24	11.64	-38.6	-39.6	22.6	0.00e+00	92	27	0	238026752	50	6143
2026-01-13 02:01:07.81	216.36	11.72	-38.8	-39.8	22.4	0.00e+00	61	27	0	240123904	50	6271
2026-01-13 02:01:08.82	216.48	11.79	-38.5	-39.5	22.8	0.00e+00	91	27	0	242221056	50	6065
2026-01-13 02:01:09.83	216.60	11.87	-38.5	-39.5	22.7	0.00e+00	53	27	0	243269632	50	6089
2026-01-13 02:01:10.84	216.72	11.94	-38.5	-39.5	22.8	0.00e+00	92	27	0	245366784	50	6064
2026-01-13 02:01:11.85	216.85	12.01	-38.5	-39.4	22.8	0.00e+00	92	27	0	247463936	50	6017
2026-01-13 02:01:12.86	216.97	12.09	-38.5	-39.4	22.8	0.00e+00	92	27	0	249561088	50	6023
2026-01-13 02:01:13.87	217.09	12.16	-38.6	-39.6	22.7	0.00e+00	92	27	0	251658240	50	6111
2026-01-13 02:01:14.88	217.21	12.24	-38.5	-39.4	22.8	0.00e+00	26	27	0	253755392	50	6019
2026-01-13 02:01:15.89	217.34	12.31	-38.4	-39.4	22.8	0.00e+00	90	27	0	254803968	50	5987
2026-01-13 02:01:16.89	217.46	12.39	-38.5	-39.5	22.7	0.00e+00	21	27	0	256901120	50	6073
2026-01-13 02:01:17.90	217.59	12.46	-38.5	-39.5	22.7	0.00e+00	92	27	0	258998272	50	6079
2026-01-13 02:01:18.91	217.71	12.54	-38.5	-39.5	22.7	0.00e+00	92	27	0	261095424	50	6079
2026-01-13 02:01:19.92	217.84	12.61	-38.4	-39.3	22.9	0.00e+00	92	27	0	263192576	50	5963
2026-01-13 02:01:20.93	217.97	12.69	-38.4	-39.3	22.9	0.00e+00	92	27	0	264241152	50	5962
2026-01-13 02:01:21.94	218.09	12.77	-38.4	-39.3	22.8	0.00e+00	92	27	0	266338304	50	5954
2026-01-13 02:01:22.95	218.22	12.84	-38.4	-39.4	22.9	0.00e+00	90	27	0	268435456	50	5966
2026-01-13 02:01:23.96	218.35	12.92	-38.3	-39.2	22.9	0.00e+00	0	27	0	270532608	50	5873
2026-01-13 02:01:24.97	218.48	12.99	-38.3	-39.2	23.0	0.00e+00	92	27	0	272629760	50	5877
2026-01-13 02:01:25.98	218.61	13.07	-38.4	-39.3	22.9	0.00e+00	0	27	0	273678336	50	5960
2026-01-13 02:01:26.98	218.74	13.14	-38.5	-39.5	22.8	0.00e+00	90	27	0	275775488	50	6062
2026-01-13 02:01:28.00	218.88	13.22	-38.6	-39.6	22.7	0.00e+00	92	27	0	277872640	50	6124
2026-01-13 02:01:29.00	219.01	13.30	-38.5	-39.5	22.8	0.00e+00	90	27	0	279969792	50	6052
2026-01-13 02:01:30.02	219.14	13.37	-38.6	-39.6	22.6	0.00e+00	92	27	0	282066944	50	6164
2026-01-13 02:01:31.02	219.27	13.45	-38.7	-39.7	22.6	0.00e+00	5	27	0	283115520	50	6229
2026-01-13 02:01:32.03	219.41	13.53	-38.8	-39.8	22.5	0.00e+00	91	27	0	285212672	50	6255
2026-01-13 02:01:33.04	219.54	13.60	-38.8	-39.8	22.5	0.00e+00	28	27	0	287309824	50	6268
2026-01-13 02:01:34.05	219.68	13.68	-38.8	-39.8	22.6	0.00e+00	91	27	0	289406976	50	6247
2026-01-13 02:01:35.06	219.81	13.76	-38.8	-39.8	22.6	0.00e+00	91	27	0	291504128	50	6257
2026-01-13 02:01:36.07	219.95	13.83	-38.6	-39.6	22.7	0.00e+00	91	27	0	292552704	50	6129
2026-01-13 02:01:37.08	220.09	13.91	-38.7	-39.7	22.5	0.00e+00	91	27	0	294649856	50	6201
2026-01-13 02:01:38.09	220.23	13.99	-38.6	-39.5	22.8	0.00e+00	92	27	0	296747008	50	6095
2026-01-13 02:01:39.10	220.37	14.07	-38.5	-39.5	22.8	0.00e+00	92	27	0	298844160	50	6080
2026-01-13 02:01:40.11	220.51	14.14	-38.5	-39.4	22.8	0.00e+00	7	27	0	300941312	50	6021
2026-01-13 02:01:41.12	220.65	14.22	-38.4	-39.4	22.9	0.00e+00	92	27	0	301989888	50	5995
2026-01-13 02:01:42.13	220.79	14.30	-38.6	-39.6	22.7	0.00e+00	81	27	0	304087040	50	6118
2026-01-13 02:01:43.14	220.93	14.38	-38.6	-39.6	22.7	0.00e+00	92	27	0	306184192	50	6126
2026-01-13 02:01:44.15	221.07	14.45	-38.7	-39.7	22.6	0.00e+00	92	27	0	308281344	50	6199
2026-01-13 02:01:45.15	221.21	14.53	-38.6	-39.6	22.7	0.00e+00	92	27	0	310378496	50	6129
2026-01-13 02:01:46.16	221.36	14.61	-38.4	-39.4	22.9	0.00e+00	90	27	0	311427072	50	5992
2026-01-13 02:01:47.17	221.50	14.69	-38.5	-39.5	22.7	0.00e+00	0	27	0	313524224	50	6079
2026-01-13 02:01:48.18	221.65	14.77	-38.4	-39.4	22.9	0.00e+00	91	27	0	315621376	50	5984
2026-01-13 02:01:49.19	221.80	14.84	-38.3	-39.3	22.2	0.00e+00	0	27	0	317718528	50	5898
2026-01-13 02:01:50.20	221.94	14.92	-38.4	-39.3	23.0	0.00e+00	91	27	0	319815680	50	5950
2026-01-13 02:01:51.21	222.09	15.00	-38.3	-39.3	23.0	0.00e+00	90	27	0	320864256	50	5920
2026-01-13 02:01:52.22	222.24	15.08	-38.1	-39.1	23.2	0.00e+00	92	27	0	322961408	50	5768
2026-01-13 02:01:53.23	222.39	15.16	-38.2	-39.1	23.2	0.00e+00	92	27	0	325058560	50	5808
2026-01-13 02:01:54.23	222.54	15.24	-38.3	-39.3	23.0	0.00e+00	0	27	0	327155712	50	5908
2026-01-13 02:01:55.24	222.69	15.31	-38.2	-39.1	23.2	0.00e+00	90	27	0	329252864	50	5823
2026-01-13 02:01:56.25	222.84	15.39	-38.2	-39.2	23.1	0.00e+00	68	27	0	330301440	50	5832
2026-01-13 02:01:57.26	222.99	15.47	-38.2	-39.2	23.1	0.00e+00	92	27	0	332398592	50	5852
2026-01-13 02:01:58.27	223.14	15.55	-38.3	-39.3	23.0	0.00e+00	92	27	0	334495744	50	5926
2026-01-13 02:01:59.28	223.30	15.63	-38.2	-39.2	23.0	0.00e+00	92	27	0	336592896	50	5865
2026-01-13 02:02:00.29	223.45	15.71	-38.3	-39.2	23.1	0.00e+00	92	27	0	338690048	50	5886
2026-01-13 02:02:01.30	223.61	15.79	-38.1	-39.1	23.2	0.00e+00	90	27	0	340787200	50	5801
2026-01-13 02:02:02.31	223.76	15.87	-38.2	-39.2	23.1	0.00e+00	92	27	0	341835776	50	5843
2026-01-13 02:02:03.32	223.92	15.95	-38.4	-39.3	23.1	0.00e+00	0	27	0	343932928	50	5953
2026-01-13 02:02:04.33	224.08	16.03	-38.0	-38.9	23.4	0.00e+00	92	27	0	346030080	50	5687
2026-01-13 02:02:05.34	224.24	16.11	-37.8	-38.7	23.5	0.00e+00	20	27	0	348127232	50	5560
2026-01-13 02:02:06.35	224.40	16.18	-37.8	-38.7	23.5	0.00e+00	92	27	0	350224384	50	5531
2026-01-13 02:02:07.36	224.56	16.26	-37.9	-38.8	23.5	0.00e+00	92	27	0	351272960	50	5588
2026-01-13 02:02:08.37	224.72	16.34	-37.9	-38.8	23.4	0.00e+00	92	27	0	353370112	50	5589
2026-01-13 02:02:09.38	224.88	16.42	-37.9	-38.8	23.5	0.00e+00	92	27	0	355467264	50	5613
2026-01-13 02:02:10.39	225.04	16.50	-37.9	-38.8	23.5	0.00e+00	0	27	0	357564416	50	5623
2026-01-13 02:02:11.40	225.21	16.58	-37.8	-38.7	23.5	0.00e+00	92	27	0	359661568	48	6224
2026-01-13 02:02:12.41	225.37	16.66	-37.7	-38.6	23.6	0.00e+00	0	27	0	360710144	48	6169
2026-01-13 02:02:13.41	225.54	16.74	-37.8	-38.7	23.6	0.00e+00	92	27	0	362807296	48	6200
2026-01-13 02:02:14.42	225.70	16.82	-37.6	-38.5	23.7	0.00e+00	90	27	0	364904448	48	6080
2026-01-13 02:02:15.43	225.87	16.90	-37.7	-38.6	23.8	0.00e+00	92	27	0	367001600	48	6113
2026-01-13 02:02:16.44	226.04	16.98	-37.7	-38.6	23.6	0.00e+00	92	27	0	369098752	48	6130
2026-01-13 02:02:17.45	226.21	17.06	-37.6	-38.5	23.7	0.00e+00	92	27	0	370147328	48	6052
2026-01-13 02:02:18.46	226.38	17.14	-37.6	-38.5	23.7	0.00e+00	92	27	0	372244480	48	6097
2026-01-13 02:02:19.47	226.55	17.22	-37.6	-38.5	23.7	0.00e+00	0	27	0	374341632	48	6087
2026-01-13 02:02:20.48	226.72	17.30	-37.6	-38.5	23.7	0.00e+00	92	27	0	376438784	48	6102
2026-01-13 02:02:21.49	226.89	17.38	-37.5	-38.4	23.8	0.00e+00	51	27	0	378535936	48	5995
2026-01-13 02:02:22.50	227.06	17.46	-37.5	-38.4	23.8	0.00e+00	92	27	0	379584512	48	5991
2026-01-13 02:02:23.51	227.24	17.54	-37.4	-38.3	23.9	0.00e+00	90	27	0	381681664	48	5911
2026-01-13 02:02:24.52	227.41	17.62	-37.4	-38.2	24.0	0.00e+00	92	27	0	383778816	48	5888
2026-01-13 02:02:25.53	227.59	17.70	-37.3	-38.2	24.0	0.00e+00	90	27	0	385875968	48	5887
2026-01-13 02:02:26.54	227.77	17.78	-37.3	-38.2	24.1	0.00e+00	6	27	0	387973120	48	5832
2026-01-13 02:02:27.55	227.94	17.86	-37.3	-38.2	24.0	0.00e+00	92	27	0	389021696	48	5868
2026-01-13 02:02:28.55	228.12	17.94	-37.3	-38.2	24.0	0.00e+00	22	27	0	391118848	48	5856
2026-01-13 02:02:29.56	228.30	18.02	-37.2	-38.1	24.1	0.00e+00	92	27	0	393216000	48	5779
2026-01-13 02:02:30.58	228.48	18.10	-37.2	-38.0	24.2	0.00e+00	92	27	0	395313152	48	5739
2026-01-13 02:02:31.58	228.66	18.18	-37.1	-37.9	24.2	0.00e+00	92	27	0	397410304	48	5685
2026-01-13 02:02:32.59	228.84	18.26	-37.2	-38.0	24.2	0.00e+00	92	27	0	398458880	48	5738
2026-01-13 02:02:33.60	229.03	18.34	-37.3	-38.1	24.0	0.00e+00	0	27	0	400556032	48	5825
2026-01-13 02:02:34.61	229.21	18.42	-37.2	-38.1	24.1	0.00e+00	92	27	0	402653184	48	5800
2026-01-13 02:02:35.62	229.40	18.50	-37.1	-38.0	24.2	0.00e+00	0	27	0	404750336	48	5719
2026-01-13 02:02:36.63	229.58	18.58	-37.3	-38.2	24.1	0.00e+00	92	27	0	406847488	48	5848
2026-01-13 02:02:37.63	229.77	18.65	-37.2	-38.1	24.1	0.00e+00	92	27	0	408944640	48	5779
2026-01-13 02:02:38.64	229.96	18.73	-37.2	-38.0	24.1	0.00e+00	90	27	0	409993216	48	5752
2026-01-13 02:02:39.65	230.14	18.81	-37.1	-38.0	24.3	0.00e+00	92	27	0	412090368	48	5729
2026-01-13 02:02:40.66	230.33	18.89	-37.2	-38.1	24.1	0.00e+00	34	27	0	414187520	48	5792
2026-01-13 02:02:41.67	230.52	18.97	-37.2	-38.1	24.2	0.00e+00	92	27	0	416284672	48	5777
2026-01-13 02:02:42.68	230.72	19.05	-37.3	-38.1	24.1	0.00e+00	11	27	0	418381824	48	5813
2026-01-13 02:02:43.69	230.91	19.13	-37.3	-38.2	24.1	0.00e+00	91	27	0	419430400	48	5829
2026-01-13 02:02:44.70	231.10	19.21	-37.4	-38.3	24.0	0.00e+00	47	27	0	421527552	48	5904
2026-01-13 02:02:45.71	231.30	19.29	-37.4	-38.3	24.0	0.00e+00	92	27	0	423624704	48	5922
2026-01-13 02:02:46.72	231.49	19.37	-37.3	-38.2	24.1	0.00e+00	91	27	0	425721856	48	5851
2026-01-13 02:02:47.73	231.69	19.45	-37.2	-38.0	24.2	0.00e+00	91	27	0	427819008	48	5746
2026-01-13 02:02:48.74	231.89	19.53	-37.2	-38.0	24.2	0.00e+00	91	27	0	428867584	48	5755
2026-01-13 02:02:49.75	232.09	19.61	-37.2	-38.0	24.2	0.00e+00	12	27	0	430964736	48	5759
2026-01-13 02:02:50.76	232.29	19.69	-37.1	-38.0	24.2	0.00e+00	92	27	0	433061888	48	5703
2026-01-13 02:02:51.77	232.49	19.76	-37.2	-38.0	24.2	0.00e+00	62	27	0	435159040	48	5731
2026-01-13 02:02:52.78	232.69	19.84	-37.1	-37.9	24.3	0.00e+00	91	27	0	437256192	48	5675
2026-01-13 02:02:53.79	232.89	19.92	-37.0	-37.9	24.3	0.00e+00	92	27	0	438304768	48	5657
2026-01-13 02:02:54.80	233.09	20.00	-37.0	-37.8	24.4	0.00e+00	92	27	0	440401920	48	5610
2026-01-13 02:02:55.80	233.30	20.08	-36.8	-37.6	24.5	0.00e+00	92	27	0	442499072	48	5500
2026-01-13 02:02:56.81	233.50	20.16	-36.8	-37.6	24.6	0.00e+00	23	27	0	444596224	48	5491
2026-01-13 02:02:57.82	233.71	20.23	-36.9	-37.7	24.5	0.00e+00	90	27	0	446693376	48	5540
2026-01-13 02:02:58.83	233.92	20.31	-36.9	-37.7	24.4	0.00e+00	75	27	0	447741952	48	5551
2026-01-13 02:02:59.83	234.12	20.39	-36.9	-37.8	24.4	0.00e+00	92	27	0	449839104	48	5585
2026-01-13 02:03:00.84	234.33	20.47	-36.8	-37.7	24.5	0.00e+00	92	27	0	451936256	48	5516
2026-01-13 02:03:01.85	234.55	20.54	-36.9	-37.8	24.5	0.00e+00	92	27	0	454033408	48	5567
2026-01-13 02:03:02.86	234.76	20.62	-36.6	-37.4	24.6	0.00e+00	92	27	0	456130560	46	6009
2026-01-13 02:03:03.87	234.97	20.70	-36.7	-37.5	24.7	0.00e+00	86	27	0	457179136	46	6049
2026-01-13 02:03:04.88	235.18	20.78	-36.6	-37.4	24.8	0.00e+00	90	27	0	459276288	46	5973
2026-01-13 02:03:05.89	235.40	20.85	-36.7	-37.6	24.6	0.00e+00	0	27	0	461373440	46	6111
2026-01-13 02:03:06.90	235.61	20.93	-36.6	-37.4	24.7	0.00e+00	92	27	0	463470592	46	6031
2026-01-13 02:03:07.90	235.83	21.01	-36.7	-37.5	24.6	0.00e+00	91	27	0	465567744	46	6080
2026-01-13 02:03:08.91	236.05	21.08	-36.5	-37.3	24.9	0.00e+00	92	27	0	466616320	46	5927
2026-01-13 02:03:09.92	236.27	21.16	-36.5	-37.3	24.7	0.00e+00	90	27	0	468713472	46	5957
2026-01-13 02:03:10.93	236.49	21.24	-36.5	-37.4	24.8	0.00e+00	92	27	0	470810624	46	5965
2026-01-13 02:03:11.94	236.71	21.31	-36.6	-37.4	24.8	0.00e+00	92	27	0	472907776	46	5966
2026-01-13 02:03:12.95	236.93	21.39	-36.5	-37.3	24.8	0.00e+00	52	27	0	475004928	46	5963
2026-01-13 02:03:13.96	237.15	21.46	-36.6	-37.4	24.8	0.00e+00	91	27	0	476053504	46	6002
2026-01-13 02:03:14.97	237.38	21.54	-36.4	-37.2	24.8	0.00e+00	7	27	0	478150656	46	5896
2026-01-13 02:03:15.98	237.60	21.61	-36.2	-37.0	25.1	0.00e+00	92	27	0	480247808	46	5728
2026-01-13 02:03:16.99	237.83	21.69	-36.2	-37.0	25.1	0.00e+00	91	27	0	482344960	46	5701
2026-01-13 02:03:18.00	238.06	21.76	-36.2	-37.0	25.0	0.00e+00	90	27	0	484442112	46	5732
2026-01-13 02:03:19.00	238.29	21.84	-36.1	-36.9	25.1	0.00e+00	92	27	0	485490688	46	5679
2026-01-13 02:03:20.01	238.52	21.91	-36.3	-37.1	25.0	0.00e+00	62	27	0	487587840	46	5784
2026-01-13 02:03:21.02	238.75	21.98	-36.4	-37.2	24.9	0.00e+00	92	27	0	489684992	46	5876
2026-01-13 02:03:22.03	238.98	22.06	-36.5	-37.3	24.9	0.00e+00	53	27	0	491782144	46	5942
2026-01-13 02:03:23.04	239.21	22.13	-36.4	-37.2	24.9	0.00e+00	91	27	0	493879296	46	5844
2026-01-13 02:03:24.05	239.45	22.20	-36.4	-37.2	25.0	0.00e+00	92	27	0	494927872	46	5840
2026-01-13 02:03:25.06	239.68	22.28	-36.4	-37.2	24.9	0.00e+00	92	27	0	497025024	46	5868
2026-01-13 02:03:26.07	239.92	22.35	-36.5	-37.3	24.8	0.00e+00	91	27	0	499122176	46	5940
2026-01-13 02:03:27.07	240.15	22.42	-36.6	-37.4	24.8	0.00e+00	34	27	0	501219328	46	5981
2026-01-13 02:03:28.08	240.39	22.49	-36.6	-37.4	24.7	0.00e+00	90	27	0	503316480	46	6032
2026-01-13 02:03:29.09	240.63	22.56	-36.6	-37.4	23.8	0.00e+00	14	27	0	505413632	46	6003
2026-01-13 02:03:30.10	240.87	22.64	-36.7	-37.6	24.6	0.00e+00	91	27	0	506462208	46	6108
2026-01-13 02:03:31.11	241.11	22.71	-36.9	-37.7	24.5	0.00e+00	69	27	0	508559360	46	6195
2026-01-13 02:03:32.12	241.35	22.78	-37.0	-37.9	24.3	0.00e+00	90	27	0	510656512	46	6324
2026-01-13 02:03:33.13	241.60	22.85	-37.1	-37.9	24.4	0.00e+00	91	27	0	512753664	46	6350
2026-01-13 02:03:34.14	241.84	22.92	-37.4	-38.3	24.1	0.00e+00	73	27	0	514850816	46	6634
2026-01-13 02:03:35.15	242.09	22.99	-37.6	-38.5	23.8	0.00e+00	92	27	0	515899392	46	6788
2026-01-13 02:03:36.16	242.34	23.06	-37.7	-38.6	23.8	0.00e+00	2	27	0	517996544	48	6150
2026-01-13 02:03:37.16	242.58	23.13	-37.6	-38.5	23.9	0.00e+00	91	27	0	520093696	48	6036
2026-01-13 02:03:38.17	242.83	23.19	-37.6	-38.5	23.9	0.00e+00	0	27	0	522190848	48	6039
2026-01-13 02:03:39.18	243.08	23.26	-37.4	-38.3	24.1	0.00e+00	90	27	0	524288000	48	5905
2026-01-13 02:03:40.19	243.33	23.33	-37.4	-38.3	24.0	0.00e+00	91	27	0	525336576	48	5908
2026-01-13 02:03:41.20	243.58	23.40	-37.2	-38.1	24.2	0.00e+00	92	27	0	527433728	48	5766
2026-01-13 02:03:42.21	243.84	23.47	-37.2	-38.1	24.2	0.00e+00	92	27	0	529530880	48	5795
2026-01-13 02:03:43.22	244.09	23.53	-37.2	-38.1	24.3	0.00e+00	68	27	0	531628032	48	5774
2026-01-13 02:03:44.23	244.35	23.60	-37.1	-37.9	24.3	0.00e+00	90	27	0	533725184	48	5690
2026-01-13 02:03:45.24	244.60	23.66	-37.2	-38.1	24.2	0.00e+00	24	27	0	534773760	48	5772
2026-01-13 02:03:46.25	244.86	23.73	-37.3	-38.1	24.2	0.00e+00	92	27	0	536870912	48	5810
2026-01-13 02:03:47.26	245.12	23.79	-37.3	-38.1	24.1	0.00e+00	65	27	0	538968064	48	5827
2026-01-13 02:03:48.27	245.38	23.86	-37.5	-38.3	24.0	0.00e+00	92	27	0	541065216	48	5945
2026-01-13 02:03:49.27	245.64	23.92	-37.4	-38.3	24.0	0.00e+00	91	27	0	543162368	48	5913
2026-01-13 02:03:50.28	245.90	23.99	-37.5	-38.3	24.1	0.00e+00	90	27	0	544210944	48	5938
2026-01-13 02:03:51.30	246.16	24.05	-37.5	-38.4	23.9	0.00e+00	92	27	0	546308096	48	5967
2026-01-13 02:03:52.30	246.43	24.11	-37.6	-38.5	23.6	0.00e+00	24	27	0	548405248	48	6056
2026-01-13 02:03:53.32	246.69	24.18	-37.6	-38.4	23.9	0.00e+00	92	27	0	550502400	48	6027
2026-01-13 02:03:54.32	246.96	24.24	-37.6	-38.5	23.9	0.00e+00	0	27	0	552599552	48	6046
2026-01-13 02:03:55.33	247.22	24.30	-37.7	-38.6	23.7	0.00e+00	92	27	0	553648128	48	6127
2026-01-13 02:03:56.34	247.49	24.36	-37.8	-38.7	23.6	0.00e+00	92	27	0	555745280	48	6243
2026-01-13 02:03:57.35	247.76	24.42	-38.0	-38.9	23.6	0.00e+00	90	27	0	557842432	48	6342
2026-01-13 02:03:58.36	248.03	24.48	-38.1	-39.1	23.4	0.00e+00	91	27	0	559939584	48	6477
2026-01-13 02:03:59.37	248.30	24.54	-38.2	-39.1	23.3	0.00e+00	0	27	0	562036736	48	6532
2026-01-13 02:04:00.38	248.57	24.60	-38.3	-39.3	23.2	0.00e+00	92	27	0	563085312	48	6620
2026-01-13 02:04:01.39	248.84	24.65	-38.5	-39.5	23.0	0.00e+00	0	27	0	565182464	48	6795
2026-01-13 02:04:02.40	249.12	24.71	-38.6	-39.5	22.9	0.00e+00	92	27	0	567279616	48	6834
2026-01-13 02:04:03.40	249.39	24.77	-38.6	-39.6	22.9	0.00e+00	90	27	0	569376768	48	6873
2026-01-13 02:04:04.41	249.67	24.83	-38.6	-39.5	22.9	0.00e+00	62	27	0	571473920	50	6085
2026-01-13 02:04:05.42	249.94	24.88	-38.7	-39.6	22.9	0.00e+00	92	27	0	573571072	50	6166
2026-01-13 02:04:06.43	250.22	24.94	-38.8	-39.8	22.8	0.00e+00	68	27	0	574619648	50	6296
2026-01-13 02:04:07.44	250.50	24.99	-38.6	-39.6	22.9	0.00e+00	90	27	0	576716800	50	6121
2026-01-13 02:04:08.45	250.78	25.05	-38.7	-39.7	22.8	0.00e+00	13	27	0	578813952	50	6224
2026-01-13 02:04:09.46	251.06	25.10	-38.9	-39.9	22.6	0.00e+00	92	27	0	580911104	50	6359
2026-01-13 02:04:10.47	251.34	25.15	-39.1	-40.1	22.4	0.00e+00	92	27	0	583008256	50	6515
2026-01-13 02:04:11.48	251.62	25.21	-39.4	-40.4	22.2	0.00e+00	0	27	0	584056832	50	6740
2026-01-13 02:04:12.49	251.91	25.26	-39.6	-40.6	21.9	0.00e+00	90	27	0	586153984	50	6907
2026-01-13 02:04:13.50	252.19	25.31	-39.7	-40.8	21.8	0.00e+00	6	27	0	588251136	52	6311
2026-01-13 02:04:14.51	252.47	25.36	-39.9	-41.0	21.7	0.00e+00	90	27	0	590348288	52	6444
2026-01-13 02:04:15.51	252.76	25.41	-39.7	-40.8	21.8	0.00e+00	7	27	0	592445440	52	6297
2026-01-13 02:04:16.52	253.04	25.46	-39.7	-40.7	21.9	0.00e+00	91	27	0	593494016	52	6236
2026-01-13 02:04:17.53	253.33	25.51	-39.5	-40.5	22.1	0.00e+00	0	27	0	595591168	52	6100
2026-01-13 02:04:18.54	253.62	25.55	-39.5	-40.6	22.0	0.00e+00	92	27	0	597688320	52	6147
2026-01-13 02:04:19.55	253.91	25.60	-39.8	-40.9	21.8	0.00e+00	92	27	0	599785472	52	6328
2026-01-13 02:04:20.56	254.20	25.65	-39.9	-41.0	21.7	0.00e+00	74	27	0	601882624	52	6411
2026-01-13 02:04:21.57	254.49	25.69	-40.3	-41.4	21.2	0.00e+00	92	27	0	602931200	52	6769
2026-01-13 02:04:22.58	254.78	25.74	-40.7	-42.0	20.7	0.00e+00	61	27	0	605028352	52	7204
2026-01-13 02:04:23.59	255.08	25.78	-40.9	-42.2	20.4	0.00e+00	92	27	0	607125504	54	6598
2026-01-13 02:04:24.60	255.37	25.83	-40.9	-42.2	20.3	0.00e+00	0	27	0	609222656	54	6598
2026-01-13 02:04:25.61	255.66	25.87	-41.0	-42.3	20.4	0.00e+00	92	27	0	611319808	54	6650
2026-01-13 02:04:26.62	255.96	25.91	-40.6	-41.9	20.8	0.00e+00	92	27	0	612368384	54	6342
2026-01-13 02:04:27.63	256.25	25.95	-40.2	-41.3	21.4	0.00e+00	67	27	0	614465536	54	5938
2026-01-13 02:04:28.64	256.55	26.00	-40.1	-41.3	21.3	0.00e+00	92	27	0	616562688	54	5927
2026-01-13 02:04:29.65	256.85	26.04	-39.9	-41.1	21.6	0.00e+00	31	27	0	618659840	54	5762
2026-01-13 02:04:30.66	257.15	26.07	-39.8	-40.9	21.7	0.00e+00	92	27	0	620756992	54	5649
2026-01-13 02:04:31.67	257.44	26.11	-39.7	-40.8	21.9	0.00e+00	29	27	0	621805568	54	5583
2026-01-13 02:04:32.68	257.74	26.15	-39.9	-41.0	21.6	0.00e+00	92	27	0	623902720	52	6458
2026-01-13 02:04:33.69	258.04	26.19	-40.0	-41.1	21.5	0.00e+00	92	27	0	625999872	52	6489
2026-01-13 02:04:34.70	258.34	26.22	-40.1	-41.3	21.4	0.00e+00	92	27	0	628097024	52	6643
2026-01-13 02:04:35.71	258.65	26.26	-40.3	-41.4	21.3	0.00e+00	92	27	0	630194176	52	6753
2026-01-13 02:04:36.72	258.95	26.30	-40.3	-41.5	21.3	0.00e+00	0	27	0	631242752	52	6772
2026-01-13 02:04:37.73	259.25	26.33	-40.3	-41.4	21.3	0.00e+00	92	27	0	633339904	52	6741
2026-01-13 02:04:38.73	259.55	26.36	-40.1	-41.2	21.5	0.00e+00	7	27	0	635437056	52	6607
2026-01-13 02:04:39.74	259.85	26.39	-40.1	-41.3	21.4	0.00e+00	92	27	0	637534208	52	6616
2026-01-13 02:04:40.75	260.16	26.43	-40.1	-41.2	21.5	0.00e+00	0	27	0	639631360	52	6588
2026-01-13 02:04:41.76	260.46	26.46	-39.9	-41.1	21.6	0.00e+00	91	27	0	641728512	52	6467
2026-01-13 02:04:42.77	260.77	26.49	-39.9	-41.0	21.7	0.00e+00	91	27	0	642777088	52	6440
2026-01-13 02:04:43.78	261.08	26.52	-39.9	-41.0	21.7	0.00e+00	0	27	0	644874240	52	6436
2026-01-13 02:04:44.79	261.38	26.54	-39.7	-40.8	21.9	0.00e+00	92	27	0	646971392	52	6283
2026-01-13 02:04:45.80	261.69	26.57	-39.5	-40.6	22.1	0.00e+00	0	27	0	649068544	52	6120
2026-01-13 02:04:46.81	262.00	26.60	-39.4	-40.5	22.2	0.00e+00	92	27	0	650117120	52	6040
2026-01-13 02:04:47.82	262.30	26.62	-38.9	-39.9	22.7	0.00e+00	65	27	0	652214272	52	5674
2026-01-13 02:04:48.82	262.61	26.65	-39.0	-40.0	22.6	0.00e+00	92	27	0	654311424	52	5707
2026-01-13 02:04:49.83	262.92	26.67	-38.8	-39.8	22.7	0.00e+00	92	27	0	656408576	50	6301
2026-01-13 02:04:50.84	263.23	26.70	-38.6	-39.6	22.9	0.00e+00	92	27	0	658505728	50	6140
2026-01-13 02:04:51.85	263.54	26.72	-38.8	-39.7	22.8	0.00e+00	92	27	0	659554304	50	6235
2026-01-13 02:04:52.86	263.85	26.74	-39.0	-40.0	22.5	0.00e+00	22	27	0	661651456	50	6451
2026-01-13 02:04:53.87	264.16	26.76	-39.2	-40.2	22.4	0.00e+00	92	27	0	663748608	50	6569
2026-01-13 02:04:54.88	264.47	26.78	-39.4	-40.4	22.2	0.00e+00	7	27	0	665845760	50	6741
2026-01-13 02:04:55.89	264.78	26.80	-39.4	-40.5	22.3	0.00e+00	92	27	0	667942912	50	6785
2026-01-13 02:04:56.90	265.10	26.82	-39.4	-40.5	22.1	0.00e+00	65	27	0	670040064	50	6800
2026-01-13 02:04:57.91	265.41	26.83	-39.5	-40.6	22.0	0.00e+00	92	27	0	671088640	50	6896
2026-01-13 02:04:58.92	265.72	26.85	-39.6	-40.7	22.0	0.00e+00	91	27	0	673185792	50	6940
2026-01-13 02:04:59.93	266.03	26.87	-39.4	-40.5	22.1	0.00e+00	8	27	0	675282944	50	6802
2026-01-13 02:05:00.93	266.34	26.88	-39.5	-40.6	22.0	0.00e+00	92	27	0	677380096	50	6879
2026-01-13 02:05:01.94	266.66	26.89	-39.6	-40.7	22.0	0.00e+00	8	27	0	679477248	50	6937
2026-01-13 02:05:02.95	266.97	26.91	-39.8	-41.0	21.7	0.00e+00	91	27	0	680525824	52	6397
2026-01-13 02:05:03.96	267.28	26.92	-39.7	-40.8	22.0	0.00e+00	0	27	0	682622976	52	6256
2026-01-13 02:05:04.97	267.60	26.93	-39.5	-40.5	22.1	0.00e+00	91	27	0	684720128	52	6098
2026-01-13 02:05:05.98	267.91	26.94	-39.2	-40.3	22.3	0.00e+00	92	27	0	686817280	52	5904
2026-01-13 02:05:06.99	268.23	26.95	-39.2	-40.2	22.4	0.00e+00	40	27	0	688914432	52	5867
2026-01-13 02:05:08.00	268.54	26.96	-39.0	-40.0	22.6	0.00e+00	92	27	0	689963008	52	5723
2026-01-13 02:05:09.00	268.85	26.96	-38.9	-39.9	22.7	0.00e+00	64	27	0	692060160	52	5641
2026-01-13 02:05:10.01	269.17	26.97	-38.7	-39.6	22.8	0.00e+00	92	27	0	694157312	50	6162
2026-01-13 02:05:11.02	269.48	26.98	-38.9	-39.8	22.8	0.00e+00	31	27	0	696254464	50	6307
2026-01-13 02:05:12.03	269.80	26.98	-38.6	-39.5	23.0	0.00e+00	92	27	0	698351616	50	6089
2026-01-13 02:05:13.04	270.11	26.98	-38.7	-39.6	22.9	0.00e+00	92	27	0	699400192	50	6171
2026-01-13 02:05:14.05	270.43	26.99	-38.4	-39.3	23.2	0.00e+00	92	27	0	701497344	50	5938
2026-01-13 02:05:15.06	270.74	26.99	-38.4	-39.4	23.1	0.00e+00	92	27	0	703594496	50	5968
2026-01-13 02:05:16.07	271.06	26.99	-38.4	-39.4	23.1	0.00e+00	2	27	0	705691648	50	5983
2026-01-13 02:05:17.08	271.37	26.99	-38.6	-39.6	23.0	0.00e+00	92	27	0	707788800	50	6115
2026-01-13 02:05:18.09	271.69	26.99	-38.4	-39.4	23.1	0.00e+00	13	27	0	708837376	50	5977
2026-01-13 02:05:19.10	272.00	26.99	-38.3	-39.3	23.2	0.00e+00	92	27	0	710934528	50	5921
2026-01-13 02:05:20.11	272.32	26.98	-38.3	-39.2	23.2	0.00e+00	92	27	0	713031680	50	5869
2026-01-13 02:05:21.12	272.63	26.98	-38.2	-39.1	23.4	0.00e+00	91	27	0	715128832	50	5779
2026-01-13 02:05:22.13	272.95	26.98	-37.7	-38.6	23.8	0.00e+00	90	27	0	717225984	50	5487
2026-01-13 02:05:23.14	273.26	26.97	-37.9	-38.7	23.7	0.00e+00	0	27	0	718274560	48	6241
2026-01-13 02:05:24.15	273.58	26.96	-37.8	-38.7	23.6	0.00e+00	91	27	0	720371712	48	6208
2026-01-13 02:05:25.16	273.89	26.96	-37.9	-38.8	23.7	0.00e+00	0	27	0	722468864	48	6262
2026-01-13 02:05:26.17	274.21	26.95	-38.3	-39.2	23.3	0.00e+00	92	27	0	724566016	48	6607
2026-01-13 02:05:27.18	274.52	26.94	-38.3	-39.3	23.2	0.00e+00	0	27	0	726663168	48	6625
2026-01-13 02:05:28.19	274.84	26.93	-38.4	-39.4	23.1	0.00e+00	90	27	0	727711744	48	6718
2026-01-13 02:05:29.20	275.15	26.92	-38.4	-39.3	23.2	0.00e+00	92	27	0	729808896	48	6674
2026-01-13 02:05:30.21	275.46	26.91	-38.5	-39.4	23.2	0.00e+00	90	27	0	731906048	48	6728
2026-01-13 02:05:31.22	275.78	26.89	-38.1	-39.0	23.4	0.00e+00	92	27	0	734003200	48	6422
2026-01-13 02:05:32.23	276.09	26.88	-38.0	-38.9	23.6	0.00e+00	62	27	0	736100352	48	6351
2026-01-13 02:05:33.23	276.40	26.87	-37.9	-38.8	23.7	0.00e+00	92	27	0	738197504	48	6246
2026-01-13 02:05:34.24	276.71	26.85	-38.1	-39.0	23.4	0.00e+00	28	27	0	739246080	48	6411
2026-01-13 02:05:35.25	277.02	26.84	-38.3	-39.2	23.1	0.00e+00	90	27	0	741343232	48	6601
2026-01-13 02:05:36.26	277.34	26.82	-38.8	-39.8	22.8	0.00e+00	92	27	0	743440384	48	7018
2026-01-13 02:05:37.27	277.65	26.80	-39.2	-40.2	22.3	0.00e+00	92	27	0	745537536	50	6581
2026-01-13 02:05:38.28	277.96	26.78	-39.5	-40.6	22.0	0.00e+00	92	27	0	747634688	50	6895
2026-01-13 02:05:39.28	278.27	26.76	-39.6	-40.6	22.0	0.00e+00	7	27	0	748683264	50	6923
2026-01-13 02:05:40.29	278.58	26.74	-39.4	-40.4	22.2	0.00e+00	92	27	0	750780416	50	6765
2026-01-13 02:05:41.30	278.89	26.72	-39.2	-40.3	22.3	0.00e+00	2	27	0	752877568	50	6631
2026-01-13 02:05:42.31	279.20	26.70	-39.1	-40.1	22.5	0.00e+00	92	27	0	754974720	50	6465
2026-01-13 02:05:43.32	279.51	26.67	-38.8	-39.8	22.7	0.00e+00	92	27	0	757071872	50	6271
2026-01-13 02:05:44.33	279.82	26.65	-38.9	-39.9	22.7	0.00e+00	92	27	0	758120448	50	6367
2026-01-13 02:05:45.34	280.12	26.63	-38.4	-39.3	23.2	0.00e+00	92	27	0	760217600	50	5938
2026-01-13 02:05:46.35	280.43	26.60	-38.3	-39.2	23.2	0.00e+00	0	27	0	762314752	50	5881
2026-01-13 02:05:47.35	280.74	26.57	-38.5	-39.4	23.1	0.00e+00	90	27	0	764411904	50	6016
2026-01-13 02:05:48.36	281.04	26.55	-38.6	-39.6	22.9	0.00e+00	0	27	0	766509056	50	6138
2026-01-13 02:05:49.37	281.35	26.52	-38.8	-39.8	22.8	0.00e+00	92	27	0	767557632	50	6247
2026-01-13 02:05:50.39	281.66	26.49	-39.0	-40.0	22.6	0.00e+00	0	27	0	769654784	50	6397
2026-01-13 02:05:51.39	281.96	26.46	-39.0	-40.0	22.6	0.00e+00	92	27	0	771751936	50	6452
2026-01-13 02:05:52.40	282.26	26.43	-38.8	-39.8	22.8	0.00e+00	92	27	0	773849088	50	6263
2026-01-13 02:05:53.41	282.57	26.40	-38.5	-39.5	23.1	0.00e+00	92	27	0	775946240	50	6050
2026-01-13 02:05:54.42	282.87	26.36	-38.3	-39.3	23.2	0.00e+00	90	27	0	776994816	50	5900
2026-01-13 02:05:55.43	283.17	26.33	-38.2	-39.1	23.4	0.00e+00	0	27	0	779091968	50	5821
2026-01-13 02:05:56.43	283.47	26.30	-38.2	-39.1	23.4	0.00e+00	92	27	0	781189120	50	5804
2026-01-13 02:05:57.44	283.77	26.26	-38.2	-39.1	23.4	0.00e+00	61	27	0	783286272	50	5796
2026-01-13 02:05:58.45	284.08	26.23	-38.2	-39.1	23.4	0.00e+00	92	27	0	785383424	50	5785
2026-01-13 02:05:59.46	284.38	26.19	-38.2	-39.2	23.3	0.00e+00	92	27	0	786432000	50	5841
2026-01-13 02:06:00.47	284.67	26.15	-38.4	-39.3	23.1	0.00e+00	56	27	0	788529152	50	5945
2026-01-13 02:06:01.48	284.97	26.12	-38.3	-39.2	23.3	0.00e+00	92	27	0	790626304	50	5852
2026-01-13 02:06:02.49	285.27	26.08	-38.1	-39.1	23.4	0.00e+00	0	27	0	792723456	50	5764
2026-01-13 02:06:03.50	285.57	26.04	-38.2	-39.1	23.3	0.00e+00	92	27	0	794820608	50	5813
2026-01-13 02:06:04.51	285.87	26.00	-38.0	-38.9	23.5	0.00e+00	27	27	0	795869184	50	5659
2026-01-13 02:06:05.51	286.16	25.96	-38.1	-39.0	23.3	0.00e+00	92	27	0	797966336	50	5740
2026-01-13 02:06:06.53	286.46	25.92	-38.0	-38.9	23.5	0.00e+00	65	27	0	800063488	50	5689
2026-01-13 02:06:07.54	286.75	25.87	-37.9	-38.8	23.6	0.00e+00	92	27	0	802160640	50	5612
2026-01-13 02:06:08.55	287.04	25.83	-37.9	-38.8	23.6	0.00e+00	92	27	0	804257792	50	5570
2026-01-13 02:06:09.55	287.33	25.79	-37.8	-38.7	23.7	0.00e+00	13	27	0	805306368	50	5550
2026-01-13 02:06:10.56	287.63	25.74	-37.7	-38.6	23.8	0.00e+00	92	27	0	807403520	48	6143
2026-01-13 02:06:11.57	287.92	25.70	-37.6	-38.5	23.9	0.00e+00	58	27	0	809500672	48	6049
2026-01-13 02:06:12.58	288.21	25.65	-37.5	-38.4	23.9	0.00e+00	92	27	0	811597824	48	5980
2026-01-13 02:06:13.59	288.50	25.61	-37.5	-38.4	24.0	0.00e+00	0	27	0	813694976	48	6007
2026-01-13 02:06:14.59	288.78	25.56	-37.3	-38.1	24.1	0.00e+00	92	27	0	814743552	48	5821
2026-01-13 02:06:15.60	289.07	25.51	-37.0	-37.9	24.3	0.00e+00	92	27	0	816840704	48	5652
2026-01-13 02:06:16.61	289.36	25.46	-37.0	-37.8	24.5	0.00e+00	31	27	0	818937856	48	5609
2026-01-13 02:06:17.62	289.64	25.42	-37.0	-37.9	24.4	0.00e+00	90	27	0	821035008	48	5647
2026-01-13 02:06:18.63	289.93	25.37	-36.9	-37.8	24.4	0.00e+00	20	27	0	823132160	48	5588
2026-01-13 02:06:19.64	290.21	25.32	-36.9	-37.8	24.5	0.00e+00	92	27	0	824180736	48	5575
2026-01-13 02:06:20.65	290.50	25.26	-37.0	-37.8	24.5	0.00e+00	20	27	0	826277888	48	5611
2026-01-13 02:06:21.66	290.78	25.21	-36.8	-37.6	24.6	0.00e+00	92	27	0	828375040	48	5472
2026-01-13 02:06:22.67	291.06	25.16	-37.0	-37.8	24.4	0.00e+00	92	27	0	830472192	48	5619
2026-01-13 02:06:23.68	291.34	25.11	-36.8	-37.7	24.6	0.00e+00	6	27	0	832569344	48	5504
2026-01-13 02:06:24.69	291.62	25.06	-36.9	-37.8	24.4	0.00e+00	92	27	0	834666496	48	5572
2026-01-13 02:06:25.70	291.90	25.00	-36.9	-37.7	24.5	0.00e+00	8	27	0	835715072	48	5531
2026-01-13 02:06:26.71	292.18	24.95	-36.8	-37.6	24.6	0.00e+00	92	27	0	837812224	48	5486
2026-01-13 02:06:27.72	292.45	24.89	-36.6	-37.4	24.8	0.00e+00	5	27	0	839909376	46	5980
2026-01-13 02:06:28.73	292.73	24.84	-36.5	-37.4	24.8	0.00e+00	92	27	0	842006528	46	5967
2026-01-13 02:06:29.74	293.00	24.78	-36.1	-36.9	25.3	0.00e+00	0	27	0	844103680	46	5640
2026-01-13 02:06:30.75	293.28	24.72	-35.9	-36.7	25.3	0.00e+00	41	27	0	845152256	46	5541
2026-01-13 02:06:31.76	293.55	24.67	-36.1	-36.9	25.1	0.00e+00	92	27	0	847249408	46	5671
2026-01-13 02:06:32.77	293.82	24.61	-36.5	-37.2	24.9	0.00e+00	67	27	0	849346560	46	5895
2026-01-13 02:06:33.78	294.09	24.55	-36.7	-37.5	24.7	0.00e+00	92	27	0	851443712	46	6074
2026-01-13 02:06:34.79	294.36	24.49	-36.9	-37.7	24.5	0.00e+00	0	27	0	853540864	46	6202
2026-01-13 02:06:35.80	294.63	24.43	-36.9	-37.8	24.5	0.00e+00	92	27	0	854589440	46	6252
2026-01-13 02:06:36.81	294.90	24.37	-36.8	-37.7	24.5	0.00e+00	55	27	0	856686592	46	6187
2026-01-13 02:06:37.82	295.17	24.31	-36.9	-37.7	24.3	0.00e+00	14	27	0	858783744	46	6191
2026-01-13 02:06:38.83	295.43	24.25	-36.8	-37.6	24.6	0.00e+00	92	27	0	860880896	46	6172
2026-01-13 02:06:39.84	295.70	24.19	-36.4	-37.2	24.8	0.00e+00	15	27	0	862978048	46	5832
2026-01-13 02:06:40.85	295.96	24.13	-36.5	-37.3	24.8	0.00e+00	92	27	0	864026624	46	5924
2026-01-13 02:06:41.86	296.23	24.06	-36.4	-37.2	24.9	0.00e+00	0	27	0	866123776	46	5880
2026-01-13 02:06:42.87	296.49	24.00	-36.4	-37.2	24.9	0.00e+00	92	27	0	868220928	46	5838
2026-01-13 02:06:43.88	296.75	23.94	-36.7	-37.5	24.7	0.00e+00	16	27	0	870318080	46	6069
2026-01-13 02:06:44.89	297.01	23.87	-36.9	-37.7	24.5	0.00e+00	92	27	0	872415232	46	6234
2026-01-13 02:06:45.90	297.27	23.81	-37.0	-37.9	24.4	0.00e+00	92	27	0	873463808	46	6327
2026-01-13 02:06:46.91	297.52	23.74	-37.2	-38.1	24.2	0.00e+00	0	27	0	875560960	46	6478
2026-01-13 02:06:47.92	297.78	23.68	-37.4	-38.2	24.0	0.00e+00	91	27	0	877658112	46	6595
2026-01-13 02:06:48.93	298.04	23.61	-37.6	-38.5	23.8	0.00e+00	0	27	0	879755264	46	6824
2026-01-13 02:06:49.94	298.29	23.55	-37.8	-38.7	23.7	0.00e+00	92	27	0	881852416	48	6244
2026-01-13 02:06:50.95	298.55	23.48	-37.9	-38.9	23.5	0.00e+00	2	27	0	882900992	48	6326
2026-01-13 02:06:51.96	298.80	23.42	-37.9	-38.8	23.5	0.00e+00	0	27	0	884998144	48	6303
2026-01-13 02:06:52.97	299.05	23.35	-37.8	-38.7	23.7	0.00e+00	74	27	0	887095296	48	6193
2026-01-13 02:06:53.97	299.30	23.28	-37.5	-38.3	24.0	0.00e+00	0	27	0	889192448	48	5952
2026-01-13 02:06:54.98	299.55	23.21	-37.5	-38.4	23.9	0.00e+00	92	27	0	891289600	48	6001
2026-01-13 02:06:55.99	299.79	23.15	-37.5	-38.4	23.9	0.00e+00	0	27	0	892338176	48	5973
2026-01-13 02:06:57.00	300.04	23.08	-37.5	-38.4	23.9	0.00e+00	92	27	0	894435328	48	5996
2026-01-13 02:06:58.01	300.29	23.01	-37.6	-38.5	23.8	0.00e+00	0	27	0	896532480	48	6080
2026-01-13 02:06:59.02	300.53	22.94	-37.5	-38.4	23.9	0.00e+00	90	27	0	898629632	48	5970
2026-01-13 02:07:00.03	300.78	22.87	-37.6	-38.4	23.8	0.00e+00	0	27	0	900726784	48	6030
2026-01-13 02:07:01.04	301.02	22.80	-37.6	-38.5	23.7	0.00e+00	15	27	0	902823936	48	6065
2026-01-13 02:07:02.05	301.26	22.73	-37.6	-38.5	23.8	0.00e+00	92	27	0	903872512	48	6084
2026-01-13 02:07:03.06	301.50	22.66	-37.7	-38.6	23.7	0.00e+00	16	27	0	905969664	48	6131
2026-01-13 02:07:04.07	301.74	22.59	-37.7	-38.6	23.6	0.00e+00	92	27	0	908066816	48	6152
2026-01-13 02:07:05.07	301.98	22.52	-37.6	-38.5	23.8	0.00e+00	15	27	0	910163968	48	6090
2026-01-13 02:07:06.09	302.22	22.45	-37.5	-38.4	23.9	0.00e+00	92	27	0	912261120	48	6001
2026-01-13 02:07:07.09	302.45	22.37	-37.6	-38.4	23.8	0.00e+00	2	27	0	913309696	48	6028
2026-01-13 02:07:08.10	302.69	22.30	-37.5	-38.4	23.9	0.00e+00	41	27	0	915406848	48	6008
2026-01-13 02:07:09.11	302.92	22.23	-37.6	-38.5	23.8	0.00e+00	92	27	0	917504000	48	6047
2026-01-13 02:07:10.12	303.16	22.16	-37.7	-38.6	23.7	0.00e+00	2	27	0	919601152	48	6108
2026-01-13 02:07:11.13	303.39	22.08	-37.7	-38.6	23.7	0.00e+00	92	27	0	921698304	48	6117
2026-01-13 02:07:12.14	303.62	22.01	-37.8	-38.7	23.6	0.00e+00	0	27	0	922746880	48	6211
2026-01-13 02:07:13.15	303.85	21.94	-37.8	-38.7	23.5	0.00e+00	92	27	0	924844032	48	6245
2026-01-13 02:07:14.16	304.08	21.86	-37.7	-38.6	23.6	0.00e+00	0	27	0	926941184	48	6154
2026-01-13 02:07:15.17	304.31	21.79	-37.7	-38.6	23.7	0.00e+00	4	27	0	929038336	48	6131
2026-01-13 02:07:16.18	304.53	21.72	-37.6	-38.5	23.8	0.00e+00	66	27	0	931135488	48	6072
2026-01-13 02:07:17.19	304.76	21.64	-37.5	-38.3	23.9	0.00e+00	65	27	0	932184064	48	5949
2026-01-13 02:07:18.20	304.98	21.57	-37.5	-38.4	23.9	0.00e+00	92	27	0	934281216	48	5998
2026-01-13 02:07:19.21	305.21	21.49	-37.6	-38.5	23.7	0.00e+00	0	27	0	936378368	48	6098
2026-01-13 02:07:20.22	305.43	21.42	-37.7	-38.6	23.7	0.00e+00	92	27	0	938475520	48	6137
2026-01-13 02:07:21.22	305.65	21.34	-37.8	-38.7	23.6	0.00e+00	16	27	0	940572672	48	6202
2026-01-13 02:07:22.23	305.87	21.27	-37.7	-38.6	23.8	0.00e+00	92	27	0	941621248	48	6105
2026-01-13 02:07:23.24	306.09	21.19	-37.6	-38.5	23.7	0.00e+00	0	27	0	943718400	48	6041
2026-01-13 02:07:24.25	306.31	21.12	-37.2	-38.1	24.2	0.00e+00	67	27	0	945815552	48	5784
2026-01-13 02:07:25.26	306.52	21.04	-37.3	-38.1	24.0	0.00e+00	92	27	0	947912704	48	5824
2026-01-13 02:07:26.27	306.74	20.96	-37.4	-38.2	24.0	0.00e+00	14	27	0	950009856	48	5867
2026-01-13 02:07:27.28	306.96	20.89	-37.5	-38.4	23.9	0.00e+00	90	27	0	951058432	48	5965
2026-01-13 02:07:28.29	307.17	20.81	-37.8	-38.7	23.6	0.00e+00	16	27	0	953155584	48	6196
2026-01-13 02:07:29.30	307.38	20.74	-37.8	-38.7	23.6	0.00e+00	92	27	0	955252736	48	6198
2026-01-13 02:07:30.31	307.60	20.66	-38.0	-38.9	23.3	0.00e+00	0	27	0	957349888	48	6382
2026-01-13 02:07:31.32	307.81	20.58	-38.1	-39.0	23.2	0.00e+00	0	27	0	959447040	48	6413
2026-01-13 02:07:32.33	308.02	20.50	-37.8	-38.7	23.6	0.00e+00	90	27	0	960495616	48	6232
2026-01-13 02:07:33.34	308.23	20.43	-37.9	-38.8	23.5	0.00e+00	0	27	0	962592768	48	6297
2026-01-13 02:07:34.35	308.43	20.35	-38.1	-39.0	23.3	0.00e+00	92	27	0	964689920	48	6409
2026-01-13 02:07:35.36	308.64	20.27	-38.4	-39.3	23.1	0.00e+00	0	27	0	966787072	48	6680
2026-01-13 02:07:36.37	308.85	20.20	-38.8	-39.8	22.6	0.00e+00	90	27	0	968884224	50	6294
2026-01-13 02:07:37.38	309.05	20.12	-39.2	-40.2	22.2	0.00e+00	0	27	0	970981376	50	6590
2026-01-13 02:07:38.39	309.26	20.04	-39.4	-40.5	22.0	0.00e+00	92	27	0	972029952	50	6795
2026-01-13 02:07:39.39	309.46	19.96	-39.2	-40.2	22.2	0.00e+00	65	27	0	974127104	50	6588
2026-01-13 02:07:40.40	309.66	19.88	-39.0	-40.1	22.4	0.00e+00	0	27	0	976224256	50	6481
2026-01-13 02:07:41.41	309.86	19.81	-38.6	-39.6	22.7	0.00e+00	92	27	0	978321408	50	6161
2026-01-13 02:07:42.42	310.06	19.73	-38.6	-39.5	22.8	0.00e+00	64	27	0	980418560	50	6082
2026-01-13 02:07:43.43	310.26	19.65	-38.3	-39.3	23.1	0.00e+00	92	27	0	981467136	50	5907
2026-01-13 02:07:44.44	310.46	19.57	-38.3	-39.3	23.1	0.00e+00	64	27	0	983564288	50	5907
2026-01-13 02:07:45.45	310.65	19.49	-38.6	-39.6	22.7	0.00e+00	92	27	0	985661440	50	6110
2026-01-13 02:07:46.46	310.85	19.42	-38.8	-39.9	22.5	0.00e+00	2	27	0	987758592	50	6318
2026-01-13 02:07:47.47	311.05	19.34	-39.0	-40.1	22.4	0.00e+00	0	27	0	989855744	50	6467
2026-01-13 02:07:48.47	311.24	19.26	-38.9	-39.9	22.5	0.00e+00	92	27	0	990904320	50	6360
2026-01-13 02:07:49.48	311.43	19.18	-39.0	-40.0	22.5	0.00e+00	5	27	0	993001472	50	6418
2026-01-13 02:07:50.49	311.62	19.10	-38.3	-39.2	23.1	0.00e+00	90	27	0	995098624	50	5883
2026-01-13 02:07:51.50	311.81	19.02	-37.8	-38.6	23.7	0.00e+00	6	27	0	997195776	50	5498
2026-01-13 02:07:52.51	312.00	18.94	-37.9	-38.8	23.5	0.00e+00	91	27	0	999292928	48	6246
2026-01-13 02:07:53.52	312.19	18.86	-37.8	-38.7	23.5	0.00e+00	0	27	0	1000341504	48	6236
2026-01-13 02:07:54.53	312.38	18.79	-38.2	-39.1	23.3	0.00e+00	6	27	0	1002438656	48	6509
2026-01-13 02:07:55.54	312.57	18.71	-38.5	-39.5	22.8	0.00e+00	50	27	0	1004535808	48	6793
2026-01-13 02:07:56.55	312.76	18.63	-38.7	-39.7	22.7	0.00e+00	6	27	0	1006632960	48	6938
2026-01-13 02:07:57.55	312.94	18.55	-38.7	-39.7	22.6	0.00e+00	91	27	0	1008730112	50	6207
2026-01-13 02:07:58.56	313.12	18.47	-38.7	-39.7	22.6	0.00e+00	63	27	0	1009778688	50	6180
2026-01-13 02:07:59.57	313.31	18.39	-38.5	-39.5	22.9	0.00e+00	92	27	0	1011875840	50	6041
2026-01-13 02:08:00.58	313.49	18.31	-38.7	-39.7	22.8	0.00e+00	0	27	0	1013972992	50	6208
2026-01-13 02:08:01.59	313.67	18.23	-38.4	-39.4	22.9	0.00e+00	92	27	0	1016070144	50	6001
2026-01-13 02:08:02.60	313.85	18.15	-38.5	-39.5	22.9	0.00e+00	0	27	0	1018167296	50	6059
2026-01-13 02:08:03.61	314.03	18.07	-38.5	-39.5	22.8	0.00e+00	0	27	0	1019215872	50	6072
2026-01-13 02:08:04.62	314.21	17.99	-38.9	-39.9	22.4	0.00e+00	92	27	0	1021313024	50	6374
2026-01-13 02:08:05.62	314.39	17.92	-39.3	-40.4	22.1	0.00e+00	22	27	0	1023410176	50	6712
2026-01-13 02:08:06.63	314.56	17.84	-39.1	-40.1	22.2	0.00e+00	90	27	0	1025507328	50	6537
2026-01-13 02:08:07.64	314.74	17.76	-39.0	-40.1	22.2	0.00e+00	24	27	0	1027604480	50	6499
2026-01-13 02:08:08.65	314.92	17.68	-38.7	-39.7	22.7	0.00e+00	92	27	0	1028653056	50	6243
2026-01-13 02:08:09.66	315.09	17.60	-38.1	-39.0	23.4	0.00e+00	0	27	0	1030750208	50	5714
2026-01-13 02:08:10.67	315.26	17.52	-37.5	-38.4	23.8	0.00e+00	6	27	0	1032847360	48	5997
2026-01-13 02:08:11.68	315.44	17.44	-37.7	-38.5	23.6	0.00e+00	92	27	0	1034944512	48	6103
2026-01-13 02:08:12.69	315.61	17.36	-37.6	-38.5	23.7	0.00e+00	23	27	0	1037041664	48	6034
2026-01-13 02:08:13.69	315.78	17.28	-38.0	-38.9	23.3	0.00e+00	92	27	0	1038090240	48	6387
2026-01-13 02:08:14.70	315.95	17.20	-38.5	-39.5	22.9	0.00e+00	23	27	0	1040187392	48	6791
2026-01-13 02:08:15.71	316.12	17.12	-39.0	-40.1	22.2	0.00e+00	92	27	0	1042284544	50	6487
2026-01-13 02:08:16.72	316.29	17.05	-39.5	-40.6	21.5	0.00e+00	0	27	0	1044381696	50	6909
2026-01-13 02:08:17.73	316.45	16.97	-39.7	-40.8	21.3	0.00e+00	30	27	0	1046478848	52	6279
2026-01-13 02:08:18.74	316.62	16.89	-39.8	-40.9	21.5	0.00e+00	90	27	0	1047527424	52	6361
2026-01-13 02:08:19.75	316.79	16.81	-39.4	-40.5	21.9	0.00e+00	0	27	0	1049624576	52	6056
2026-01-13 02:08:20.76	316.95	16.73	-39.0	-40.0	22.4	0.00e+00	91	27	0	1051721728	52	5749
2026-01-13 02:08:21.77	317.12	16.65	-38.8	-39.8	22.5	0.00e+00	64	27	0	1053818880	52	5575
2026-01-13 02:08:22.78	317.28	16.57	-38.8	-39.8	22.7	0.00e+00	90	27	0	1055916032	50	6284
2026-01-13 02:08:23.79	317.44	16.49	-38.4	-39.3	22.9	0.00e+00	0	27	0	1056964608	50	5934
2026-01-13 02:08:24.79	317.60	16.41	-38.3	-39.3	23.0	0.00e+00	92	27	0	1059061760	50	5906
2026-01-13 02:08:25.80	317.76	16.34	-38.4	-39.4	22.9	0.00e+00	0	27	0	1061158912	50	5990
2026-01-13 02:08:26.81	317.92	16.26	-38.5	-39.5	22.8	0.00e+00	19	27	0	1063256064	50	6051
2026-01-13 02:08:27.82	318.08	16.18	-38.6	-39.5	22.7	0.00e+00	92	27	0	1065353216	50	6097
2026-01-13 02:08:28.83	318.24	16.10	-38.6	-39.6	22.7	0.00e+00	64	27	0	1066401792	50	6111
2026-01-13 02:08:29.84	318.40	16.02	-38.4	-39.4	22.9	0.00e+00	92	27	0	1068498944	50	5986
2026-01-13 02:08:30.85	318.55	15.94	-38.3	-39.3	22.9	0.00e+00	62	27	0	1070596096	50	5932
2026-01-13 02:08:31.86	318.71	15.86	-38.3	-39.2	22.9	0.00e+00	92	27	0	1072693248	50	5881
2026-01-13 02:08:32.86	318.86	15.79	-38.3	-39.2	23.1	0.00e+00	18	27	0	1074790400	50	5894
2026-01-13 02:08:33.87	319.02	15.71	-38.2	-39.2	23.1	0.00e+00	2	27	0	1076887552	50	5834
2026-01-13 02:08:34.88	319.17	15.63	-38.1	-39.0	23.2	0.00e+00	90	27	0	1077936128	50	5716
2026-01-13 02:08:35.89	319.32	15.55	-38.3	-39.2	23.0	0.00e+00	0	27	0	1080033280	50	5889
2026-01-13 02:08:36.90	319.48	15.47	-38.5	-39.5	22.8	0.00e+00	92	27	0	1082130432	50	6035
2026-01-13 02:08:37.91	319.63	15.39	-38.6	-39.6	22.6	0.00e+00	18	27	0	1084227584	50	6137
2026-01-13 02:08:38.92	319.78	15.32	-38.8	-39.8	22.4	0.00e+00	92	27	0	1086324736	50	6284
2026-01-13 02:08:39.93	319.93	15.24	-38.8	-39.8	22.5	0.00e+00	0	27	0	1087373312	50	6297
2026-01-13 02:08:40.94	320.08	15.16	-38.9	-39.9	22.5	0.00e+00	0	27	0	1089470464	50	6364
2026-01-13 02:08:41.95	320.23	15.08	-38.6	-39.6	22.6	0.00e+00	32	27	0	1091567616	50	6140
2026-01-13 02:08:42.96	320.37	15.01	-38.6	-39.6	22.6	0.00e+00	0	27	0	1093664768	50	6138
2026-01-13 02:08:43.97	320.52	14.93	-38.4	-39.4	22.8	0.00e+00	92	27	0	1095761920	50	6001
2026-01-13 02:08:44.97	320.66	14.85	-38.4	-39.4	22.8	0.00e+00	63	27	0	1096810496	50	5969
2026-01-13 02:08:45.98	320.81	14.77	-38.3	-39.3	22.9	0.00e+00	63	27	0	1098907648	50	5906
2026-01-13 02:08:46.99	320.95	14.70	-38.4	-39.4	22.8	0.00e+00	0	27	0	1101004800	50	5993
2026-01-13 02:08:48.00	321.10	14.62	-38.4	-39.3	22.9	0.00e+00	62	27	0	1103101952	50	5951
2026-01-13 02:08:49.01	321.24	14.54	-38.5	-39.5	22.8	0.00e+00	0	27	0	1105199104	50	6039
2026-01-13 02:08:50.02	321.38	14.46	-38.5	-39.5	22.7	0.00e+00	19	27	0	1106247680	50	6086
2026-01-13 02:08:51.03	321.53	14.39	-38.5	-39.5	22.7	0.00e+00	90	27	0	1108344832	50	6042
2026-01-13 02:08:52.04	321.67	14.31	-38.5	-39.5	22.7	0.00e+00	60	27	0	1110441984	50	6044
2026-01-13 02:08:53.05	321.81	14.23	-38.6	-39.6	22.6	0.00e+00	90	27	0	1112539136	50	6105
2026-01-13 02:08:54.06	321.95	14.16	-38.5	-39.5	22.7	0.00e+00	62	27	0	1114636288	50	6064
2026-01-13 02:08:55.06	322.08	14.08	-38.5	-39.5	22.7	0.00e+00	2	27	0	1115684864	50	6098
2026-01-13 02:08:56.08	322.22	14.00	-38.6	-39.6	22.7	0.00e+00	0	27	0	1117782016	50	6127
2026-01-13 02:08:57.08	322.36	13.93	-38.6	-39.6	22.6	0.00e+00	20	27	0	1119879168	50	6113
2026-01-13 02:08:58.09	322.50	13.85	-38.6	-39.6	22.5	0.00e+00	92	27	0	1121976320	50	6117
2026-01-13 02:08:59.10	322.63	13.77	-38.6	-39.6	22.6	0.00e+00	0	27	0	1124073472	50	6119
2026-01-13 02:09:00.11	322.77	13.70	-38.5	-39.5	22.7	0.00e+00	92	27	0	1125122048	50	6075
2026-01-13 02:09:01.12	322.90	13.62	-38.3	-39.2	22.9	0.00e+00	0	27	0	1127219200	50	5893
2026-01-13 02:09:02.13	323.04	13.55	-38.3	-39.3	22.8	0.00e+00	24	27	0	1129316352	50	5942
2026-01-13 02:09:03.14	323.17	13.47	-38.3	-39.3	22.8	0.00e+00	2	27	0	1131413504	50	5936
2026-01-13 02:09:04.15	323.30	13.39	-38.5	-39.4	22.6	0.00e+00	0	27	0	1133510656	50	6026
2026-01-13 02:09:05.16	323.44	13.32	-38.4	-39.4	22.7	0.00e+00	18	27	0	1134559232	50	6016
2026-01-13 02:09:06.17	323.57	13.24	-38.6	-39.6	22.6	0.00e+00	0	27	0	1136656384	50	6130
2026-01-13 02:09:07.18	323.70	13.17	-38.6	-39.6	22.6	0.00e+00	92	27	0	1138753536	50	6104
2026-01-13 02:09:08.19	323.83	13.09	-38.6	-39.6	22.5	0.00e+00	0	27	0	1140850688	50	6159
2026-01-13 02:09:09.20	323.96	13.02	-38.7	-39.7	22.4	0.00e+00	90	27	0	1142947840	50	6194
2026-01-13 02:09:10.20	324.09	12.94	-38.7	-39.8	22.4	0.00e+00	62	27	0	1143996416	50	6253
2026-01-13 02:09:11.22	324.22	12.87	-38.7	-39.7	22.5	0.00e+00	62	27	0	1146093568	50	6210
2026-01-13 02:09:12.22	324.34	12.79	-38.6	-39.7	22.5	0.00e+00	0	27	0	1148190720	50	6175
2026-01-13 02:09:13.23	324.47	12.72	-38.6	-39.6	22.5	0.00e+00	18	27	0	1150287872	50	6151
2026-01-13 02:09:14.25	324.60	12.64	-38.7	-39.7	22.4	0.00e+00	91	27	0	1152385024	50	6237
2026-01-13 02:09:15.25	324.72	12.57	-38.7	-39.7	22.5	0.00e+00	0	27	0	1153433600	50	6233
2026-01-13 02:09:16.26	324.85	12.49	-38.8	-39.9	22.3	0.00e+00	92	27	0	1155530752	50	6334
2026-01-13 02:09:17.27	324.97	12.42	-39.0	-40.0	22.1	0.00e+00	20	27	0	1157627904	50	6464
2026-01-13 02:09:18.29	325.10	12.34	-39.0	-40.1	22.1	0.00e+00	18	27	0	1159725056	50	6486
2026-01-13 02:09:19.30	325.22	12.27	-38.9	-39.9	22.2	0.00e+00	2	27	0	1161822208	50	6386
2026-01-13 02:09:20.31	325.34	12.19	-38.9	-40.0	22.2	0.00e+00	0	27	0	1162870784	50	6415
2026-01-13 02:09:21.31	325.46	12.12	-39.0	-40.0	22.2	0.00e+00	92	27	0	1164967936	50	6445
2026-01-13 02:09:22.32	325.59	12.05	-39.0	-40.0	22.1	0.00e+00	0	27	0	1167065088	50	6440
2026-01-13 02:09:23.33	325.71	11.97	-38.9	-40.0	22.1	0.00e+00	92	27	0	1169162240	50	6421
2026-01-13 02:09:24.34	325.83	11.90	-39.0	-40.0	22.2	0.00e+00	0	27	0	1171259392	50	6426
2026-01-13 02:09:25.35	325.95	11.82	-38.9	-39.9	22.2	0.00e+00	0	27	0	1173356544	50	6381
2026-01-13 02:09:26.36	326.07	11.75	-38.8	-39.8	22.3	0.00e+00	0	27	0	1174405120	50	6273
2026-01-13 02:09:27.37	326.19	11.68	-38.7	-39.7	22.4	0.00e+00	60	27	0	1176502272	50	6234
2026-01-13 02:09:28.38	326.30	11.60	-38.7	-39.7	22.3	0.00e+00	61	27	0	1178599424	50	6227
2026-01-13 02:09:29.39	326.42	11.53	-38.7	-39.7	22.3	0.00e+00	0	27	0	1180696576	50	6233
2026-01-13 02:09:30.39	326.54	11.46	-38.8	-39.8	22.3	0.00e+00	92	27	0	1182793728	50	6314
2026-01-13 02:09:31.40	326.65	11.39	-38.8	-39.9	22.2	0.00e+00	0	27	0	1183842304	50	6324
