passes_logs/2026/01/13/R4.6S_Anadyr/R4.6S_Anadyr__20260113_184150_SUOMI_NPP_rec.log

#Pass ID: 20260113_184150_SUOMI NPP
#Satellite: SUOMI NPP
#Configuration: NPP
#almurnet v.1.7.20251203
#Start time: 2026-01-13 18:41:53

#Version: 2.2.20231116
#Station: R4.6S_Anadyr
#Location: 177.4865 lon 64.73178 lat
#TLE: 1 37849U 11061A   26012.28456845  .00000093  00000+0  65163-4 0  9999
#TLE: 2 37849  98.7807 314.3566 0002508  68.3553 291.7890 14.19524725736322

#Time	Az	El	Level	Level2	SNR	BER	BlckErr	Temp	State	Recorded	gain1	gain2
2026-01-13 18:41:53.47	42.52	0.17	-48.4	-62.1	3.3	1.54e+00	0	26	0	0	60	46082
2026-01-13 18:41:54.48	42.45	0.22	-48.5	-63.7	3.6	1.51e+00	0	26	104	0	60	55150
2026-01-13 18:41:55.49	42.38	0.27	-48.5	-63.6	3.6	1.51e+00	0	26	104	0	60	54858
2026-01-13 18:41:56.50	42.30	0.32	-48.5	-63.7	3.6	1.51e+00	0	26	104	0	60	55093
2026-01-13 18:41:57.50	42.23	0.37	-48.5	-63.7	3.6	1.51e+00	0	26	104	0	60	55097
2026-01-13 18:41:58.51	42.15	0.42	-48.4	-63.6	3.6	1.51e+00	0	26	104	0	60	54828
2026-01-13 18:41:59.52	42.08	0.47	-48.4	-63.6	3.6	1.51e+00	0	26	104	0	60	54606
2026-01-13 18:42:00.53	42.00	0.52	-48.3	-63.5	3.6	1.51e+00	0	26	104	0	60	53904
2026-01-13 18:42:01.54	41.93	0.57	-48.3	-63.4	3.6	1.51e+00	0	26	104	0	60	53653
2026-01-13 18:42:02.55	41.85	0.62	-48.2	-63.4	3.6	1.51e+00	0	26	104	0	60	53533
2026-01-13 18:42:03.56	41.78	0.67	-48.1	-63.3	3.6	1.51e+00	0	26	104	0	60	52579
2026-01-13 18:42:04.57	41.70	0.72	-47.9	-63.1	3.6	1.51e+00	0	26	104	0	60	51885
2026-01-13 18:42:05.58	41.62	0.78	-47.7	-62.9	3.6	1.51e+00	0	26	104	0	60	50595
2026-01-13 18:42:06.59	41.55	0.83	-47.3	-62.5	3.5	1.51e+00	0	26	104	0	60	48062
2026-01-13 18:42:07.60	41.47	0.88	-46.7	-61.8	3.6	1.51e+00	0	26	104	0	60	44264
2026-01-13 18:42:08.61	41.39	0.93	-46.6	-61.8	3.6	1.51e+00	0	26	104	0	60	44495
2026-01-13 18:42:09.62	41.31	0.98	-46.6	-61.7	3.6	1.51e+00	0	26	104	0	60	44127
2026-01-13 18:42:10.62	41.24	1.03	-46.6	-61.7	3.6	1.51e+00	0	26	104	0	60	44167
2026-01-13 18:42:11.63	41.16	1.08	-46.6	-61.8	3.6	1.51e+00	0	26	104	0	60	44249
2026-01-13 18:42:12.64	41.08	1.13	-46.6	-61.7	3.6	1.51e+00	0	26	104	0	60	43988
2026-01-13 18:42:13.66	41.00	1.18	-46.6	-61.8	3.6	1.51e+00	0	26	104	0	60	44236
2026-01-13 18:42:14.66	40.92	1.23	-46.6	-61.7	3.6	1.51e+00	0	26	104	0	60	44200
2026-01-13 18:42:15.67	40.84	1.28	-46.6	-61.8	3.6	1.51e+00	0	26	104	0	60	44274
2026-01-13 18:42:16.68	40.76	1.33	-46.6	-61.7	3.6	1.51e+00	0	26	104	0	60	44123
2026-01-13 18:42:17.69	40.68	1.38	-46.6	-61.7	3.6	1.51e+00	0	26	104	0	60	44013
2026-01-13 18:42:18.70	40.60	1.43	-46.6	-61.7	3.6	1.51e+00	0	26	104	0	60	43843
2026-01-13 18:42:19.71	40.52	1.48	-46.6	-61.7	3.6	1.51e+00	0	26	104	0	60	44033
2026-01-13 18:42:20.72	40.44	1.54	-46.6	-61.7	3.6	1.51e+00	0	26	104	0	60	44005
2026-01-13 18:42:21.73	40.36	1.59	-46.6	-61.6	3.6	1.51e+00	0	26	104	0	60	43509
2026-01-13 18:42:22.74	40.28	1.64	-46.6	-61.7	3.6	1.51e+00	0	26	104	0	60	43803
2026-01-13 18:42:23.75	40.20	1.69	-46.6	-61.7	3.6	1.51e+00	0	26	104	0	60	43788
2026-01-13 18:42:24.76	40.12	1.74	-46.6	-61.7	3.6	1.51e+00	0	26	104	0	60	43872
2026-01-13 18:42:25.77	40.04	1.79	-46.6	-61.7	3.6	1.51e+00	0	26	104	0	60	43969
2026-01-13 18:42:26.78	39.95	1.84	-46.6	-61.7	3.6	1.51e+00	0	26	104	0	60	43830
2026-01-13 18:42:27.79	39.87	1.89	-46.6	-61.6	3.6	1.51e+00	0	26	104	0	60	43667
2026-01-13 18:42:28.80	39.79	1.94	-46.6	-61.6	3.6	1.51e+00	0	26	104	0	60	43528
2026-01-13 18:42:29.81	39.70	2.00	-46.6	-61.5	3.6	1.51e+00	0	26	104	0	60	43137
2026-01-13 18:42:30.82	39.62	2.05	-46.5	-61.5	3.6	1.51e+00	0	26	104	0	60	42773
2026-01-13 18:42:31.83	39.54	2.10	-46.5	-61.2	3.5	1.51e+00	0	26	104	0	60	41699
2026-01-13 18:42:32.84	39.45	2.15	-46.5	-61.2	3.6	1.51e+00	0	26	104	0	60	41655
2026-01-13 18:42:33.85	39.37	2.20	-46.5	-61.3	3.6	1.51e+00	0	26	104	0	60	42046
2026-01-13 18:42:34.85	39.28	2.25	-46.5	-61.6	3.6	1.51e+00	0	26	104	0	60	43351
2026-01-13 18:42:35.86	39.20	2.30	-46.6	-61.7	3.6	1.51e+00	0	26	104	0	60	44018
2026-01-13 18:42:36.87	39.11	2.36	-46.6	-61.7	3.6	1.51e+00	0	27	104	0	60	43852
2026-01-13 18:42:37.88	39.03	2.41	-46.6	-61.6	3.6	1.51e+00	0	27	104	0	60	43573
2026-01-13 18:42:38.89	38.94	2.46	-46.6	-61.6	3.6	1.51e+00	0	26	104	0	60	43673
2026-01-13 18:42:39.90	38.85	2.51	-46.6	-61.7	3.6	1.51e+00	0	26	104	0	60	44198
2026-01-13 18:42:40.91	38.77	2.56	-46.6	-61.6	3.6	1.51e+00	0	26	104	0	60	43299
2026-01-13 18:42:41.92	38.68	2.61	-46.5	-61.1	3.6	1.51e+00	0	27	104	0	60	41171
2026-01-13 18:42:42.93	38.59	2.67	-46.5	-60.6	3.6	1.51e+00	0	27	104	0	60	38555
2026-01-13 18:42:43.94	38.50	2.72	-46.5	-60.6	3.5	1.51e+00	0	27	104	0	60	38750
2026-01-13 18:42:44.95	38.42	2.77	-46.5	-61.1	3.6	1.51e+00	0	27	104	0	60	41158
2026-01-13 18:42:45.96	38.33	2.82	-46.5	-61.2	3.6	1.51e+00	0	27	104	0	60	41464
2026-01-13 18:42:46.97	38.24	2.87	-46.4	-59.1	3.7	1.51e+00	0	27	104	0	60	32710
2026-01-13 18:42:47.98	38.15	2.93	-46.1	-55.3	5.6	1.39e+00	0	27	104	0	60	21024
2026-01-13 18:42:48.98	38.06	2.98	-45.8	-52.6	7.3	1.81e-01	0	27	0	1048576	60	15380
2026-01-13 18:42:49.99	37.97	3.03	-45.3	-50.9	9.3	3.75e-02	0	27	0	3145728	60	12659
2026-01-13 18:42:51.00	37.88	3.08	-46.7	-61.7	3.6	4.59e-01	0	27	104	4194304	60	44193
2026-01-13 18:42:52.01	37.79	3.13	-44.0	-47.5	13.5	1.06e+00	0	27	104	4194304	60	8596
2026-01-13 18:42:53.02	37.70	3.18	-46.4	-61.2	3.6	8.77e-01	0	27	104	4194304	60	41672
2026-01-13 18:42:54.03	37.61	3.24	-46.7	-60.5	3.6	1.51e+00	0	27	104	4194304	60	38288
2026-01-13 18:42:55.04	37.52	3.29	-43.4	-46.5	13.9	3.40e-01	0	27	104	4194304	58	8557
2026-01-13 18:42:56.05	37.43	3.34	-42.7	-45.2	15.3	0.00e+00	0	27	0	5242880	58	7411
2026-01-13 18:42:57.06	37.34	3.39	-42.4	-44.8	15.9	0.00e+00	0	27	0	7340032	58	7024
2026-01-13 18:42:58.06	37.24	3.45	-41.9	-44.0	16.7	0.00e+00	0	27	0	8388608	58	6417
2026-01-13 18:42:59.07	37.15	3.50	-41.9	-44.0	16.8	0.00e+00	0	27	0	10485760	58	6448
2026-01-13 18:43:00.08	37.06	3.55	-41.8	-43.8	17.0	0.00e+00	0	27	0	12582912	56	7056
2026-01-13 18:43:01.09	36.97	3.60	-41.9	-44.0	17.0	0.00e+00	0	27	0	14680064	56	7211
2026-01-13 18:43:02.09	36.87	3.65	-41.6	-43.5	17.3	0.00e+00	0	27	0	16777216	56	6814
2026-01-13 18:43:03.10	36.78	3.71	-41.3	-43.1	17.7	0.00e+00	0	27	0	17825792	56	6497
2026-01-13 18:43:04.11	36.68	3.76	-41.2	-43.0	17.8	0.00e+00	0	26	0	19922944	56	6416
2026-01-13 18:43:05.12	36.59	3.81	-41.2	-42.9	17.9	0.00e+00	0	27	0	22020096	56	6384
2026-01-13 18:43:06.13	36.49	3.86	-41.1	-42.9	18.2	0.00e+00	0	26	0	24117248	56	6324
2026-01-13 18:43:07.13	36.40	3.92	-41.1	-42.9	18.0	0.00e+00	0	26	0	26214400	56	6323
2026-01-13 18:43:08.14	36.30	3.97	-41.1	-42.8	18.0	0.00e+00	0	27	0	27262976	56	6315
2026-01-13 18:43:09.15	36.21	4.02	-41.1	-42.8	18.0	0.00e+00	0	26	0	29360128	56	6291
2026-01-13 18:43:10.16	36.11	4.07	-41.6	-43.5	17.6	0.00e+00	0	27	0	31457280	56	6788
2026-01-13 18:43:11.17	36.01	4.13	-41.2	-43.0	17.9	0.00e+00	0	27	0	33554432	56	6405
2026-01-13 18:43:12.18	35.92	4.18	-41.3	-43.1	17.9	0.00e+00	0	27	0	35651584	56	6488
2026-01-13 18:43:13.18	35.82	4.23	-41.3	-43.2	17.7	0.00e+00	0	27	0	36700160	56	6561
2026-01-13 18:43:14.19	35.72	4.28	-41.3	-43.2	17.8	0.00e+00	0	27	0	38797312	56	6547
2026-01-13 18:43:15.20	35.62	4.34	-41.2	-43.0	17.9	0.00e+00	0	27	0	40894464	56	6433
2026-01-13 18:43:16.21	35.52	4.39	-41.4	-43.2	17.6	0.00e+00	0	27	0	42991616	56	6589
2026-01-13 18:43:17.22	35.43	4.44	-41.7	-43.6	17.4	0.00e+00	0	27	0	45088768	56	6908
2026-01-13 18:43:18.22	35.33	4.49	-41.5	-43.4	17.5	0.00e+00	0	26	0	46137344	56	6758
2026-01-13 18:43:19.23	35.23	4.55	-41.5	-43.4	17.6	0.00e+00	0	26	0	48234496	56	6731
2026-01-13 18:43:20.24	35.13	4.60	-41.6	-43.6	17.6	0.00e+00	0	27	0	50331648	56	6859
2026-01-13 18:43:21.24	35.03	4.65	-41.2	-43.0	18.0	0.00e+00	0	27	0	52428800	56	6456
2026-01-13 18:43:22.25	34.93	4.70	-41.4	-43.2	17.8	0.00e+00	0	27	0	54525952	56	6611
2026-01-13 18:43:23.26	34.83	4.76	-41.5	-43.3	17.9	0.00e+00	0	27	0	55574528	56	6668
2026-01-13 18:43:24.27	34.72	4.81	-41.5	-43.4	17.6	0.00e+00	0	27	0	57671680	56	6765
2026-01-13 18:43:25.28	34.62	4.86	-41.6	-43.6	17.5	0.00e+00	0	27	0	59768832	56	6867
2026-01-13 18:43:26.29	34.52	4.92	-41.5	-43.3	17.8	0.00e+00	0	27	0	61865984	56	6686
2026-01-13 18:43:27.30	34.42	4.97	-41.2	-43.0	18.0	0.00e+00	0	26	0	63963136	56	6401
2026-01-13 18:43:28.31	34.31	5.02	-41.3	-43.2	17.9	0.00e+00	0	27	0	65011712	56	6541
2026-01-13 18:43:29.32	34.21	5.07	-41.2	-43.0	18.2	0.00e+00	0	27	0	67108864	56	6398
2026-01-13 18:43:30.33	34.11	5.13	-41.2	-43.0	18.2	0.00e+00	0	27	0	69206016	56	6429
2026-01-13 18:43:31.34	34.00	5.18	-41.2	-42.9	18.4	0.00e+00	0	27	0	71303168	56	6356
2026-01-13 18:43:32.35	33.90	5.23	-41.2	-42.9	18.3	0.00e+00	0	27	0	73400320	56	6348
2026-01-13 18:43:33.36	33.79	5.29	-41.1	-42.9	18.2	0.00e+00	0	27	0	74448896	56	6343
2026-01-13 18:43:34.36	33.69	5.34	-41.1	-42.8	18.3	0.00e+00	0	27	0	76546048	56	6313
2026-01-13 18:43:35.38	33.58	5.39	-41.3	-43.1	18.1	0.00e+00	0	27	0	78643200	56	6533
2026-01-13 18:43:36.38	33.47	5.44	-41.1	-42.8	18.4	0.00e+00	0	27	0	80740352	56	6261
2026-01-13 18:43:37.39	33.37	5.50	-41.1	-42.9	18.4	0.00e+00	0	27	0	82837504	56	6333
2026-01-13 18:43:38.40	33.26	5.55	-41.2	-42.9	18.3	0.00e+00	0	27	0	83886080	56	6366
2026-01-13 18:43:39.41	33.15	5.60	-41.0	-42.7	18.5	0.00e+00	0	27	0	85983232	56	6184
2026-01-13 18:43:40.42	33.04	5.66	-40.9	-42.5	18.8	0.00e+00	0	27	0	88080384	56	6056
2026-01-13 18:43:41.42	32.94	5.71	-41.0	-42.7	18.5	0.00e+00	0	27	0	90177536	56	6195
2026-01-13 18:43:42.43	32.83	5.76	-40.9	-42.6	18.6	0.00e+00	0	27	0	92274688	56	6151
2026-01-13 18:43:43.44	32.72	5.82	-41.0	-42.7	18.4	0.00e+00	0	27	0	93323264	56	6225
2026-01-13 18:43:44.45	32.61	5.87	-41.1	-42.8	18.4	0.00e+00	0	27	0	95420416	56	6281
2026-01-13 18:43:45.46	32.50	5.92	-41.1	-42.8	18.5	0.00e+00	0	27	0	97517568	56	6252
2026-01-13 18:43:46.47	32.39	5.98	-41.1	-42.9	18.4	0.00e+00	0	27	0	99614720	56	6323
2026-01-13 18:43:47.48	32.28	6.03	-41.1	-42.8	18.4	0.00e+00	0	27	0	101711872	56	6257
2026-01-13 18:43:48.49	32.17	6.08	-40.9	-42.5	18.6	0.00e+00	0	27	0	103809024	56	6088
2026-01-13 18:43:49.49	32.06	6.13	-41.0	-42.6	18.7	0.00e+00	0	27	0	104857600	56	6166
2026-01-13 18:43:50.50	31.94	6.19	-40.8	-42.4	18.8	0.00e+00	0	27	0	106954752	56	6010
2026-01-13 18:43:51.51	31.83	6.24	-40.7	-42.3	18.6	0.00e+00	0	27	0	109051904	54	6674
2026-01-13 18:43:52.52	31.72	6.29	-40.8	-42.5	18.6	0.00e+00	0	27	0	111149056	54	6807
2026-01-13 18:43:53.53	31.61	6.35	-41.0	-42.7	18.4	0.00e+00	0	27	0	112197632	54	6984
2026-01-13 18:43:54.54	31.49	6.40	-41.1	-42.8	18.4	0.00e+00	0	27	0	114294784	54	7033
2026-01-13 18:43:55.55	31.38	6.45	-41.0	-42.7	18.5	0.00e+00	0	27	0	116391936	54	6991
2026-01-13 18:43:56.56	31.26	6.51	-41.0	-42.8	18.5	0.00e+00	0	27	0	118489088	54	7023
2026-01-13 18:43:57.57	31.15	6.56	-41.0	-42.6	18.6	0.00e+00	0	27	0	120586240	54	6923
2026-01-13 18:43:58.58	31.03	6.61	-40.9	-42.6	18.7	0.00e+00	0	27	0	121634816	54	6854
2026-01-13 18:43:59.59	30.92	6.67	-41.0	-42.7	18.5	0.00e+00	0	27	0	123731968	54	6970
2026-01-13 18:44:00.60	30.80	6.72	-40.6	-42.2	19.1	0.00e+00	0	27	0	125829120	54	6579
2026-01-13 18:44:01.61	30.68	6.77	-40.7	-42.3	19.0	0.00e+00	0	27	0	127926272	54	6646
2026-01-13 18:44:02.62	30.57	6.83	-40.8	-42.4	18.9	0.00e+00	0	27	0	130023424	54	6712
2026-01-13 18:44:03.63	30.45	6.88	-40.8	-42.4	18.9	0.00e+00	0	27	0	132120576	54	6764
2026-01-13 18:44:04.64	30.33	6.93	-40.5	-42.1	19.2	0.00e+00	0	27	0	133169152	54	6509
2026-01-13 18:44:05.64	30.21	6.99	-40.3	-41.8	19.5	0.00e+00	0	27	0	135266304	54	6312
2026-01-13 18:44:06.65	30.09	7.04	-40.2	-41.6	19.7	0.00e+00	0	27	0	137363456	54	6149
2026-01-13 18:44:07.66	29.97	7.09	-40.2	-41.6	19.7	0.00e+00	0	27	0	139460608	54	6151
2026-01-13 18:44:08.67	29.85	7.14	-39.8	-41.1	20.1	0.00e+00	0	27	0	141557760	54	5791
2026-01-13 18:44:09.68	29.73	7.20	-39.7	-41.1	20.1	0.00e+00	0	27	0	142606336	52	6476
2026-01-13 18:44:10.69	29.61	7.25	-40.0	-41.3	19.9	0.00e+00	0	27	0	144703488	52	6680
2026-01-13 18:44:11.70	29.49	7.30	-40.1	-41.5	19.8	0.00e+00	0	27	0	146800640	52	6771
2026-01-13 18:44:12.71	29.37	7.36	-40.2	-41.6	19.7	0.00e+00	0	27	0	148897792	52	6925
2026-01-13 18:44:13.72	29.25	7.41	-40.2	-41.6	19.6	0.00e+00	0	27	0	150994944	52	6881
2026-01-13 18:44:14.72	29.13	7.46	-40.2	-41.6	19.6	0.00e+00	0	27	0	152043520	52	6903
2026-01-13 18:44:15.73	29.00	7.52	-40.4	-41.8	19.3	0.00e+00	0	27	0	154140672	52	7063
2026-01-13 18:44:16.74	28.88	7.57	-39.8	-41.1	19.7	0.00e+00	0	27	0	156237824	52	6505
2026-01-13 18:44:17.75	28.76	7.62	-40.1	-41.4	19.7	0.00e+00	0	27	0	158334976	52	6763
2026-01-13 18:44:18.76	28.63	7.68	-40.1	-41.5	19.7	0.00e+00	0	27	0	160432128	52	6811
2026-01-13 18:44:19.76	28.51	7.73	-40.0	-41.4	19.9	0.00e+00	0	27	0	161480704	52	6713
2026-01-13 18:44:20.77	28.38	7.78	-40.2	-41.6	19.8	0.00e+00	0	27	0	163577856	52	6863
2026-01-13 18:44:21.78	28.26	7.83	-40.2	-41.7	19.6	0.00e+00	0	27	0	165675008	52	6949
2026-01-13 18:44:22.79	28.13	7.89	-40.1	-41.5	19.8	0.00e+00	0	27	0	167772160	52	6784
2026-01-13 18:44:23.80	28.00	7.94	-40.0	-41.4	20.0	0.00e+00	0	27	0	169869312	52	6719
2026-01-13 18:44:24.81	27.88	7.99	-39.9	-41.3	20.0	0.00e+00	0	27	0	170917888	52	6629
2026-01-13 18:44:25.82	27.75	8.05	-39.9	-41.3	20.0	0.00e+00	0	27	0	173015040	52	6655
2026-01-13 18:44:26.83	27.62	8.10	-39.9	-41.2	20.1	0.00e+00	0	27	0	175112192	52	6584
2026-01-13 18:44:27.83	27.49	8.15	-40.1	-41.5	19.8	0.00e+00	0	27	0	177209344	52	6838
2026-01-13 18:44:28.84	27.36	8.20	-40.1	-41.5	19.8	0.00e+00	0	27	0	179306496	52	6773
2026-01-13 18:44:29.85	27.23	8.26	-40.4	-41.8	19.5	0.00e+00	0	27	0	180355072	52	7074
2026-01-13 18:44:30.86	27.10	8.31	-40.3	-41.8	19.6	0.00e+00	0	27	0	182452224	52	7008
2026-01-13 18:44:31.87	26.97	8.36	-40.1	-41.5	19.7	0.00e+00	0	27	0	184549376	52	6779
2026-01-13 18:44:32.88	26.84	8.41	-40.1	-41.5	19.8	0.00e+00	0	27	0	186646528	52	6779
2026-01-13 18:44:33.89	26.71	8.47	-40.1	-41.4	19.9	0.00e+00	0	27	0	188743680	52	6764
2026-01-13 18:44:34.90	26.58	8.52	-40.1	-41.4	19.9	0.00e+00	0	27	0	189792256	52	6754
2026-01-13 18:44:35.91	26.44	8.57	-40.1	-41.5	19.8	0.00e+00	0	27	0	191889408	52	6829
2026-01-13 18:44:36.92	26.31	8.62	-40.1	-41.5	19.9	0.00e+00	0	27	0	193986560	52	6809
2026-01-13 18:44:37.93	26.18	8.68	-40.1	-41.5	19.9	0.00e+00	0	27	0	196083712	52	6780
2026-01-13 18:44:38.94	26.04	8.73	-40.0	-41.3	20.0	0.00e+00	0	27	0	198180864	52	6662
2026-01-13 18:44:39.94	25.91	8.78	-40.0	-41.3	19.9	0.00e+00	0	27	0	200278016	52	6687
2026-01-13 18:44:40.95	25.77	8.83	-39.9	-41.2	20.2	0.00e+00	0	27	0	201326592	52	6574
2026-01-13 18:44:41.96	25.64	8.89	-40.0	-41.3	20.1	0.00e+00	0	27	0	203423744	52	6689
2026-01-13 18:44:42.97	25.50	8.94	-39.9	-41.2	20.2	0.00e+00	0	27	0	205520896	52	6609
2026-01-13 18:44:43.98	25.37	8.99	-39.8	-41.1	20.3	0.00e+00	0	27	0	207618048	52	6489
2026-01-13 18:44:44.99	25.23	9.04	-39.9	-41.2	20.2	0.00e+00	0	27	0	209715200	52	6583
2026-01-13 18:44:46.00	25.09	9.09	-39.7	-41.0	20.3	0.00e+00	0	27	0	210763776	52	6418
2026-01-13 18:44:47.01	24.95	9.15	-39.7	-41.0	20.4	0.00e+00	0	27	0	212860928	52	6418
2026-01-13 18:44:48.02	24.82	9.20	-39.7	-41.0	20.4	0.00e+00	0	27	0	214958080	52	6431
2026-01-13 18:44:49.02	24.68	9.25	-39.8	-41.1	20.3	0.00e+00	0	27	0	217055232	52	6513
2026-01-13 18:44:50.03	24.54	9.30	-39.8	-41.1	20.3	0.00e+00	0	27	0	218103808	52	6498
2026-01-13 18:44:51.04	24.40	9.35	-39.7	-41.0	20.3	0.00e+00	0	27	0	220200960	52	6409
2026-01-13 18:44:52.05	24.26	9.41	-39.7	-41.0	20.4	0.00e+00	0	27	0	222298112	52	6394
2026-01-13 18:44:53.06	24.12	9.46	-39.6	-40.9	20.5	0.00e+00	0	27	0	224395264	52	6348
2026-01-13 18:44:54.06	23.98	9.51	-39.6	-40.9	20.5	0.00e+00	0	27	0	226492416	52	6341
2026-01-13 18:44:55.07	23.83	9.56	-39.8	-41.1	20.3	0.00e+00	0	27	0	228589568	52	6495
2026-01-13 18:44:56.08	23.69	9.61	-39.9	-41.3	20.1	0.00e+00	0	27	0	229638144	52	6652
2026-01-13 18:44:57.09	23.55	9.66	-40.1	-41.6	19.8	0.00e+00	0	27	0	231735296	52	6850
2026-01-13 18:44:58.10	23.40	9.71	-40.3	-41.8	19.6	0.00e+00	0	27	0	233832448	52	7027
2026-01-13 18:44:59.11	23.26	9.77	-40.3	-41.7	19.7	0.00e+00	0	27	0	235929600	52	6975
2026-01-13 18:45:00.12	23.12	9.82	-40.4	-41.8	19.7	0.00e+00	0	27	0	238026752	52	7086
2026-01-13 18:45:01.13	22.97	9.87	-40.5	-42.0	19.5	0.00e+00	0	27	0	239075328	52	7180
2026-01-13 18:45:02.14	22.82	9.92	-40.2	-41.6	19.8	0.00e+00	0	27	0	241172480	52	6924
2026-01-13 18:45:03.15	22.68	9.97	-40.3	-41.7	19.9	0.00e+00	0	27	0	243269632	52	6984
2026-01-13 18:45:04.16	22.53	10.02	-40.2	-41.6	19.9	0.00e+00	0	27	0	245366784	52	6874
2026-01-13 18:45:05.17	22.38	10.07	-40.1	-41.5	19.9	0.00e+00	0	27	0	247463936	52	6816
2026-01-13 18:45:06.17	22.24	10.12	-40.2	-41.6	19.9	0.00e+00	0	27	0	248512512	52	6894
2026-01-13 18:45:07.18	22.09	10.17	-40.0	-41.4	20.0	0.00e+00	0	27	0	250609664	52	6695
2026-01-13 18:45:08.19	21.94	10.22	-40.0	-41.4	20.3	0.00e+00	0	27	0	252706816	52	6712
2026-01-13 18:45:09.20	21.79	10.27	-39.6	-40.9	20.5	0.00e+00	0	27	0	254803968	52	6333
2026-01-13 18:45:10.21	21.64	10.32	-39.5	-40.8	20.6	0.00e+00	0	27	0	256901120	52	6272
2026-01-13 18:45:11.22	21.49	10.37	-39.5	-40.7	20.7	0.00e+00	0	27	0	257949696	52	6242
2026-01-13 18:45:12.23	21.34	10.43	-39.4	-40.7	20.7	0.00e+00	0	27	0	260046848	52	6210
2026-01-13 18:45:13.24	21.19	10.48	-39.5	-40.7	20.7	0.00e+00	0	27	0	262144000	52	6221
2026-01-13 18:45:14.25	21.04	10.53	-39.3	-40.5	20.8	0.00e+00	0	27	0	264241152	52	6063
2026-01-13 18:45:15.26	20.88	10.58	-39.4	-40.6	20.8	0.00e+00	0	27	0	266338304	52	6142
2026-01-13 18:45:16.27	20.73	10.63	-39.1	-40.3	21.1	0.00e+00	0	27	0	267386880	52	5916
2026-01-13 18:45:17.28	20.58	10.68	-39.1	-40.3	21.0	0.00e+00	0	27	0	269484032	52	5924
2026-01-13 18:45:18.29	20.42	10.72	-38.9	-40.1	21.2	0.00e+00	0	27	0	271581184	52	5781
2026-01-13 18:45:19.29	20.27	10.77	-39.0	-40.2	21.1	0.00e+00	0	27	0	273678336	52	5865
2026-01-13 18:45:20.30	20.11	10.82	-38.8	-39.9	21.3	0.00e+00	0	27	0	275775488	52	5669
2026-01-13 18:45:21.31	19.96	10.87	-38.6	-39.8	21.3	0.00e+00	0	27	0	276824064	50	6259
2026-01-13 18:45:22.32	19.80	10.92	-38.6	-39.7	21.4	0.00e+00	0	27	0	278921216	50	6240
2026-01-13 18:45:23.33	19.64	10.97	-38.7	-39.8	21.4	0.00e+00	0	27	0	281018368	50	6311
2026-01-13 18:45:24.34	19.49	11.02	-38.6	-39.7	21.7	0.00e+00	0	27	0	283115520	50	6203
2026-01-13 18:45:25.35	19.33	11.07	-38.4	-39.6	21.8	0.00e+00	0	27	0	285212672	50	6106
2026-01-13 18:45:26.36	19.17	11.12	-38.1	-39.2	22.1	0.00e+00	0	27	0	286261248	50	5848
2026-01-13 18:45:27.37	19.01	11.17	-38.1	-39.1	22.2	0.00e+00	0	27	0	288358400	50	5796
2026-01-13 18:45:28.38	18.85	11.22	-38.0	-39.0	22.1	0.00e+00	0	27	0	290455552	50	5740
2026-01-13 18:45:29.39	18.69	11.26	-38.2	-39.2	21.9	0.00e+00	0	27	0	292552704	50	5895
2026-01-13 18:45:30.40	18.53	11.31	-38.2	-39.3	21.8	0.00e+00	0	27	0	294649856	50	5929
2026-01-13 18:45:31.41	18.37	11.36	-38.3	-39.4	21.9	0.00e+00	0	27	0	296747008	50	5991
2026-01-13 18:45:32.41	18.21	11.41	-38.2	-39.2	21.9	0.00e+00	0	27	0	297795584	50	5886
2026-01-13 18:45:33.42	18.05	11.46	-38.4	-39.6	21.7	0.00e+00	0	27	0	299892736	50	6115
2026-01-13 18:45:34.43	17.88	11.50	-38.2	-39.3	21.9	0.00e+00	0	27	0	301989888	50	5925
2026-01-13 18:45:35.44	17.72	11.55	-38.3	-39.4	21.8	0.00e+00	0	27	0	304087040	50	5975
2026-01-13 18:45:36.45	17.56	11.60	-38.4	-39.5	21.7	0.00e+00	0	27	0	306184192	50	6099
2026-01-13 18:45:37.46	17.39	11.65	-38.4	-39.5	21.8	0.00e+00	0	27	0	307232768	50	6090
2026-01-13 18:45:38.47	17.23	11.69	-38.3	-39.4	21.6	0.00e+00	0	27	0	309329920	50	5994
2026-01-13 18:45:39.48	17.06	11.74	-38.2	-39.3	21.9	0.00e+00	0	27	0	311427072	50	5964
2026-01-13 18:45:40.49	16.90	11.79	-38.1	-39.2	22.1	0.00e+00	0	27	0	313524224	50	5876
2026-01-13 18:45:41.50	16.73	11.84	-38.0	-39.0	22.3	0.00e+00	0	27	0	315621376	50	5731
2026-01-13 18:45:42.51	16.56	11.88	-37.8	-38.9	22.3	0.00e+00	0	27	0	316669952	50	5641
2026-01-13 18:45:43.52	16.40	11.93	-37.8	-38.8	22.5	0.00e+00	0	27	0	318767104	48	6262
2026-01-13 18:45:44.52	16.23	11.97	-37.7	-38.7	22.5	0.00e+00	0	27	0	320864256	48	6199
2026-01-13 18:45:45.53	16.06	12.02	-37.8	-38.8	22.3	0.00e+00	0	27	0	322961408	48	6269
2026-01-13 18:45:46.54	15.89	12.07	-37.6	-38.6	22.5	0.00e+00	0	27	0	325058560	48	6142
2026-01-13 18:45:47.55	15.72	12.11	-37.6	-38.6	22.5	0.00e+00	0	27	0	326107136	48	6159
2026-01-13 18:45:48.56	15.55	12.16	-37.4	-38.4	22.7	0.00e+00	0	27	0	328204288	48	5994
2026-01-13 18:45:49.57	15.38	12.20	-37.5	-38.5	22.6	0.00e+00	0	27	0	330301440	48	6035
2026-01-13 18:45:50.58	15.21	12.25	-37.5	-38.5	22.6	0.00e+00	0	27	0	332398592	48	6093
2026-01-13 18:45:51.58	15.04	12.29	-37.8	-38.9	22.3	0.00e+00	0	27	0	334495744	48	6332
2026-01-13 18:45:52.59	14.87	12.34	-38.0	-39.1	22.1	0.00e+00	0	27	0	335544320	48	6507
2026-01-13 18:45:53.60	14.69	12.38	-38.2	-39.2	22.0	0.00e+00	0	27	0	337641472	48	6611
2026-01-13 18:45:54.61	14.52	12.43	-38.3	-39.4	21.8	0.00e+00	0	27	0	339738624	48	6713
2026-01-13 18:45:55.62	14.34	12.47	-38.2	-39.3	22.0	0.00e+00	0	27	0	341835776	48	6644
2026-01-13 18:45:56.63	14.17	12.52	-37.8	-38.8	22.4	0.00e+00	0	27	0	343932928	48	6282
2026-01-13 18:45:57.64	13.99	12.56	-37.4	-38.4	22.8	0.00e+00	0	27	0	344981504	48	6005
2026-01-13 18:45:58.65	13.82	12.61	-37.2	-38.1	23.0	0.00e+00	0	27	0	347078656	48	5823
2026-01-13 18:45:59.66	13.64	12.65	-37.1	-38.0	23.1	0.00e+00	0	27	0	349175808	48	5724
2026-01-13 18:46:00.67	13.47	12.69	-37.2	-38.1	23.0	0.00e+00	0	27	0	351272960	48	5792
2026-01-13 18:46:01.67	13.29	12.74	-37.0	-38.0	23.1	0.00e+00	0	27	0	353370112	48	5711
2026-01-13 18:46:02.68	13.11	12.78	-36.8	-37.8	23.2	0.00e+00	0	27	0	354418688	48	5567
2026-01-13 18:46:03.69	12.93	12.82	-36.8	-37.7	23.4	0.00e+00	0	27	0	356515840	46	6181
2026-01-13 18:46:04.70	12.76	12.87	-36.7	-37.6	23.5	0.00e+00	0	27	0	358612992	46	6107
2026-01-13 18:46:05.71	12.58	12.91	-36.6	-37.5	23.5	0.00e+00	0	27	0	360710144	46	6064
2026-01-13 18:46:06.72	12.40	12.95	-36.9	-37.8	23.1	0.00e+00	0	27	0	362807296	46	6305
2026-01-13 18:46:07.73	12.22	12.99	-37.1	-38.0	22.9	0.00e+00	0	27	0	363855872	46	6463
2026-01-13 18:46:08.74	12.03	13.04	-37.2	-38.2	22.9	0.00e+00	0	27	0	365953024	46	6575
2026-01-13 18:46:09.75	11.85	13.08	-37.5	-38.4	22.4	0.00e+00	0	27	0	368050176	46	6768
2026-01-13 18:46:10.75	11.67	13.12	-37.6	-38.6	22.4	0.00e+00	0	27	0	370147328	46	6869
2026-01-13 18:46:11.76	11.49	13.16	-37.7	-38.7	22.4	0.00e+00	0	27	0	372244480	46	6944
2026-01-13 18:46:12.77	11.31	13.20	-37.7	-38.7	22.5	0.00e+00	0	27	0	373293056	46	6966
2026-01-13 18:46:13.78	11.12	13.24	-37.7	-38.7	22.5	0.00e+00	0	27	0	375390208	48	6214
2026-01-13 18:46:14.79	10.94	13.28	-37.7	-38.7	22.4	0.00e+00	0	27	0	377487360	48	6227
2026-01-13 18:46:15.80	10.75	13.32	-38.0	-39.0	22.3	0.00e+00	0	27	0	379584512	48	6431
2026-01-13 18:46:16.81	10.57	13.36	-37.9	-39.0	22.3	0.00e+00	0	27	0	381681664	48	6404
2026-01-13 18:46:17.82	10.38	13.40	-37.8	-38.8	22.5	0.00e+00	0	27	0	382730240	48	6268
2026-01-13 18:46:18.83	10.20	13.44	-37.8	-38.8	22.4	0.00e+00	0	27	0	384827392	48	6308
2026-01-13 18:46:19.84	10.01	13.48	-37.7	-38.7	22.6	0.00e+00	0	27	0	386924544	48	6186
2026-01-13 18:46:20.85	9.82	13.52	-37.7	-38.7	22.5	0.00e+00	0	27	0	389021696	48	6226
2026-01-13 18:46:21.86	9.64	13.56	-38.0	-39.1	22.1	0.00e+00	0	27	0	391118848	48	6479
2026-01-13 18:46:22.86	9.45	13.60	-38.4	-39.5	21.8	0.00e+00	0	27	0	393216000	48	6795
2026-01-13 18:46:23.87	9.26	13.64	-38.4	-39.6	21.6	0.00e+00	0	27	0	394264576	48	6861
2026-01-13 18:46:24.88	9.07	13.68	-38.4	-39.6	21.7	0.00e+00	0	27	0	396361728	48	6861
2026-01-13 18:46:25.89	8.88	13.71	-38.2	-39.3	22.0	0.00e+00	0	27	0	398458880	48	6678
2026-01-13 18:46:26.90	8.69	13.75	-37.8	-38.9	22.3	0.00e+00	0	27	0	400556032	48	6354
2026-01-13 18:46:27.91	8.50	13.79	-37.6	-38.6	22.6	0.00e+00	0	27	0	402653184	48	6135
2026-01-13 18:46:28.91	8.31	13.83	-37.6	-38.6	22.6	0.00e+00	0	27	0	403701760	48	6111
2026-01-13 18:46:29.92	8.12	13.86	-37.5	-38.5	22.6	0.00e+00	0	27	0	405798912	48	6058
2026-01-13 18:46:30.93	7.93	13.90	-37.6	-38.6	22.5	0.00e+00	0	27	0	407896064	48	6140
2026-01-13 18:46:31.94	7.74	13.94	-37.7	-38.7	22.5	0.00e+00	0	27	0	409993216	48	6176
2026-01-13 18:46:32.95	7.54	13.97	-37.6	-38.6	22.6	0.00e+00	0	27	0	412090368	48	6147
2026-01-13 18:46:33.96	7.35	14.01	-37.6	-38.6	22.6	0.00e+00	0	27	0	413138944	48	6110
2026-01-13 18:46:34.97	7.15	14.05	-37.3	-38.3	22.8	0.00e+00	0	27	0	415236096	48	5928
2026-01-13 18:46:35.98	6.96	14.08	-37.3	-38.2	22.9	0.00e+00	0	27	0	417333248	48	5875
2026-01-13 18:46:36.98	6.77	14.12	-37.2	-38.2	22.9	0.00e+00	0	27	0	419430400	48	5863
2026-01-13 18:46:37.99	6.57	14.15	-37.3	-38.2	22.7	0.00e+00	0	27	0	421527552	48	5894
2026-01-13 18:46:39.00	6.38	14.19	-37.3	-38.2	22.8	0.00e+00	0	27	0	422576128	48	5894
2026-01-13 18:46:40.01	6.18	14.22	-37.3	-38.3	22.8	0.00e+00	0	27	0	424673280	48	5928
2026-01-13 18:46:41.02	5.98	14.25	-37.3	-38.3	22.9	0.00e+00	0	27	0	426770432	48	5924
2026-01-13 18:46:42.03	5.79	14.29	-37.2	-38.2	22.9	0.00e+00	0	27	0	428867584	48	5848
2026-01-13 18:46:43.04	5.59	14.32	-37.3	-38.2	22.9	0.00e+00	0	27	0	430964736	48	5893
2026-01-13 18:46:44.05	5.39	14.35	-37.4	-38.4	22.9	0.00e+00	0	27	0	432013312	48	6029
2026-01-13 18:46:45.06	5.19	14.39	-37.4	-38.4	22.7	0.00e+00	0	27	0	434110464	48	5995
2026-01-13 18:46:46.07	4.99	14.42	-37.9	-39.0	22.3	0.00e+00	0	27	0	436207616	48	6409
2026-01-13 18:46:47.07	4.79	14.45	-37.8	-38.8	22.4	0.00e+00	0	27	0	438304768	48	6301
2026-01-13 18:46:48.08	4.59	14.48	-37.6	-38.6	22.6	0.00e+00	0	27	0	440401920	48	6165
2026-01-13 18:46:49.09	4.39	14.51	-37.5	-38.5	22.7	0.00e+00	0	27	0	441450496	48	6054
2026-01-13 18:46:50.10	4.19	14.55	-37.4	-38.4	22.7	0.00e+00	0	27	0	443547648	48	5974
2026-01-13 18:46:51.11	3.99	14.58	-36.9	-37.8	23.2	0.00e+00	0	27	0	445644800	48	5589
2026-01-13 18:46:52.12	3.79	14.61	-36.7	-37.6	23.0	0.00e+00	0	27	0	447741952	46	6115
2026-01-13 18:46:53.13	3.59	14.64	-36.8	-37.7	23.3	0.00e+00	0	27	0	449839104	46	6198
2026-01-13 18:46:54.14	3.39	14.67	-36.6	-37.4	23.5	0.00e+00	0	27	0	450887680	46	6026
2026-01-13 18:46:55.15	3.18	14.70	-36.6	-37.5	23.4	0.00e+00	0	27	0	452984832	46	6096
2026-01-13 18:46:56.16	2.98	14.73	-36.6	-37.5	23.5	0.00e+00	0	27	0	455081984	46	6091
2026-01-13 18:46:57.17	2.78	14.76	-36.7	-37.6	23.4	0.00e+00	0	27	0	457179136	46	6166
2026-01-13 18:46:58.17	2.57	14.78	-36.7	-37.6	23.3	0.00e+00	0	27	0	459276288	46	6105
2026-01-13 18:46:59.18	2.37	14.81	-36.9	-37.8	23.4	0.00e+00	0	27	0	461373440	46	6280
2026-01-13 18:47:00.20	2.16	14.84	-36.9	-37.9	23.2	0.00e+00	0	27	0	462422016	46	6324
2026-01-13 18:47:01.20	1.96	14.87	-37.0	-37.9	23.2	0.00e+00	0	27	0	464519168	46	6378
2026-01-13 18:47:02.21	1.75	14.90	-37.3	-38.3	22.9	0.00e+00	0	27	0	466616320	46	6631
2026-01-13 18:47:03.22	1.55	14.92	-37.3	-38.2	22.9	0.00e+00	0	27	0	468713472	46	6600
2026-01-13 18:47:04.23	1.34	14.95	-37.1	-38.0	23.0	0.00e+00	0	27	0	469762048	46	6428
2026-01-13 18:47:05.24	1.13	14.98	-36.7	-37.6	23.4	0.00e+00	0	27	0	471859200	46	6138
2026-01-13 18:47:06.25	0.93	15.00	-36.6	-37.5	23.5	0.00e+00	0	27	0	473956352	46	6074
2026-01-13 18:47:07.26	0.72	15.03	-36.9	-37.8	23.2	0.00e+00	0	27	0	476053504	46	6261
2026-01-13 18:47:08.27	0.51	15.05	-37.1	-38.0	23.2	0.00e+00	0	27	0	478150656	46	6434
2026-01-13 18:47:09.28	0.30	15.08	-37.4	-38.4	22.8	0.00e+00	0	27	0	479199232	46	6716
2026-01-13 18:47:10.28	0.10	15.10	-37.6	-38.6	22.6	0.00e+00	0	27	0	481296384	46	6870
2026-01-13 18:47:11.29	359.89	15.13	-37.5	-38.5	22.7	0.00e+00	0	27	0	483393536	48	6070
2026-01-13 18:47:12.30	359.68	15.15	-37.6	-38.5	22.6	0.00e+00	0	27	0	485490688	48	6095
2026-01-13 18:47:13.31	359.47	15.17	-37.4	-38.3	22.9	0.00e+00	0	27	0	487587840	48	5948
2026-01-13 18:47:14.32	359.26	15.20	-37.4	-38.4	22.9	0.00e+00	0	27	0	489684992	48	5999
2026-01-13 18:47:15.33	359.05	15.22	-37.4	-38.3	22.9	0.00e+00	0	27	0	490733568	48	5939
2026-01-13 18:47:16.34	358.84	15.24	-37.5	-38.5	22.6	0.00e+00	0	27	0	492830720	48	6036
2026-01-13 18:47:17.35	358.63	15.27	-37.7	-38.7	22.5	0.00e+00	0	27	0	494927872	48	6190
2026-01-13 18:47:18.36	358.41	15.29	-37.9	-38.9	22.4	0.00e+00	0	27	0	497025024	48	6374
2026-01-13 18:47:19.37	358.20	15.31	-37.9	-38.9	22.4	0.00e+00	0	27	0	499122176	48	6382
2026-01-13 18:47:20.37	357.99	15.33	-37.7	-38.7	22.6	0.00e+00	0	27	0	500170752	48	6210
2026-01-13 18:47:21.38	357.78	15.35	-37.5	-38.5	22.8	0.00e+00	0	27	0	502267904	48	6055
2026-01-13 18:47:22.39	357.57	15.37	-37.5	-38.4	22.7	0.00e+00	0	27	0	504365056	48	6026
2026-01-13 18:47:23.40	357.36	15.39	-37.5	-38.5	22.8	0.00e+00	0	27	0	506462208	48	6034
2026-01-13 18:47:24.41	357.14	15.41	-37.3	-38.3	22.8	0.00e+00	0	27	0	508559360	48	5920
2026-01-13 18:47:25.42	356.93	15.43	-37.6	-38.6	22.7	0.00e+00	0	27	0	509607936	48	6107
2026-01-13 18:47:26.43	356.72	15.45	-37.6	-38.6	22.6	0.00e+00	0	27	0	511705088	48	6165
2026-01-13 18:47:27.44	356.50	15.46	-37.4	-38.3	22.8	0.00e+00	0	27	0	513802240	48	5952
2026-01-13 18:47:28.45	356.29	15.48	-37.3	-38.3	22.9	0.00e+00	0	27	0	515899392	48	5916
2026-01-13 18:47:29.46	356.07	15.50	-37.1	-38.0	23.0	0.00e+00	0	27	0	517996544	48	5715
2026-01-13 18:47:30.47	355.86	15.52	-36.7	-37.6	23.5	0.00e+00	0	27	0	519045120	46	6138
2026-01-13 18:47:31.48	355.64	15.53	-36.6	-37.5	23.5	0.00e+00	0	27	0	521142272	46	6081
2026-01-13 18:47:32.49	355.43	15.55	-36.7	-37.5	23.4	0.00e+00	0	27	0	523239424	46	6098
2026-01-13 18:47:33.50	355.21	15.57	-36.9	-37.8	23.4	0.00e+00	0	27	0	525336576	46	6279
2026-01-13 18:47:34.51	355.00	15.58	-37.2	-38.1	23.0	0.00e+00	0	27	0	527433728	46	6520
2026-01-13 18:47:35.52	354.78	15.60	-37.2	-38.1	22.8	0.00e+00	0	27	0	528482304	46	6528
2026-01-13 18:47:36.52	354.57	15.61	-37.2	-38.1	23.1	0.00e+00	0	27	0	530579456	46	6525
2026-01-13 18:47:37.53	354.35	15.63	-37.1	-38.0	23.1	0.00e+00	0	27	0	532676608	46	6450
2026-01-13 18:47:38.54	354.14	15.64	-37.1	-38.1	23.1	0.00e+00	0	27	0	534773760	46	6465
2026-01-13 18:47:39.55	353.92	15.65	-37.0	-37.9	23.2	0.00e+00	0	27	0	536870912	46	6371
2026-01-13 18:47:40.56	353.70	15.67	-37.1	-38.1	22.9	0.00e+00	0	27	0	537919488	46	6477
2026-01-13 18:47:41.57	353.48	15.68	-37.3	-38.3	22.9	0.00e+00	0	27	0	540016640	46	6667
2026-01-13 18:47:42.58	353.27	15.69	-37.4	-38.3	22.9	0.00e+00	0	27	0	542113792	46	6676
2026-01-13 18:47:43.59	353.05	15.70	-37.6	-38.6	22.6	0.00e+00	0	27	0	544210944	46	6885
2026-01-13 18:47:44.60	352.83	15.71	-37.7	-38.7	22.6	0.00e+00	0	27	0	546308096	48	6216
2026-01-13 18:47:45.60	352.62	15.73	-37.6	-38.6	22.6	0.00e+00	0	27	0	547356672	48	6133
2026-01-13 18:47:46.61	352.40	15.74	-37.6	-38.6	22.7	0.00e+00	0	27	0	549453824	48	6138
2026-01-13 18:47:47.62	352.18	15.75	-37.8	-38.8	22.5	0.00e+00	0	27	0	551550976	48	6262
2026-01-13 18:47:48.63	351.96	15.76	-37.8	-38.9	22.5	0.00e+00	0	27	0	553648128	48	6324
2026-01-13 18:47:49.64	351.74	15.76	-37.9	-38.9	22.4	0.00e+00	0	27	0	555745280	48	6369
2026-01-13 18:47:50.65	351.53	15.77	-37.8	-38.8	22.5	0.00e+00	0	27	0	557842432	48	6291
2026-01-13 18:47:51.66	351.31	15.78	-37.8	-38.8	22.6	0.00e+00	0	27	0	558891008	48	6267
2026-01-13 18:47:52.67	351.09	15.79	-37.9	-38.9	22.4	0.00e+00	0	27	0	560988160	48	6327
2026-01-13 18:47:53.67	350.87	15.80	-37.8	-38.8	22.6	0.00e+00	0	27	0	563085312	48	6277
2026-01-13 18:47:54.68	350.65	15.81	-37.8	-38.8	22.5	0.00e+00	0	27	0	565182464	48	6303
2026-01-13 18:47:55.69	350.43	15.81	-37.5	-38.5	22.7	0.00e+00	0	27	0	567279616	48	6044
2026-01-13 18:47:56.70	350.21	15.82	-37.6	-38.6	22.7	0.00e+00	0	27	0	568328192	48	6127
2026-01-13 18:47:57.71	350.00	15.82	-37.5	-38.5	22.7	0.00e+00	0	27	0	570425344	48	6052
2026-01-13 18:47:58.72	349.78	15.83	-37.7	-38.7	22.7	0.00e+00	0	27	0	572522496	48	6194
2026-01-13 18:47:59.73	349.56	15.84	-37.7	-38.7	22.5	0.00e+00	0	27	0	574619648	48	6233
2026-01-13 18:48:00.74	349.34	15.84	-37.5	-38.5	22.8	0.00e+00	0	27	0	576716800	48	6095
2026-01-13 18:48:01.75	349.12	15.84	-37.5	-38.5	22.7	0.00e+00	0	27	0	577765376	48	6071
2026-01-13 18:48:02.76	348.90	15.85	-37.6	-38.5	22.7	0.00e+00	0	27	0	579862528	48	6101
2026-01-13 18:48:03.77	348.68	15.85	-37.5	-38.5	22.8	0.00e+00	0	27	0	581959680	48	6052
2026-01-13 18:48:04.78	348.46	15.85	-37.4	-38.4	22.8	0.00e+00	0	27	0	584056832	48	5997
2026-01-13 18:48:05.78	348.24	15.86	-37.4	-38.4	22.8	0.00e+00	0	27	0	586153984	48	6025
2026-01-13 18:48:06.79	348.02	15.86	-37.5	-38.4	22.7	0.00e+00	0	27	0	587202560	48	6025
2026-01-13 18:48:07.80	347.80	15.86	-37.5	-38.5	22.7	0.00e+00	0	27	0	589299712	48	6074
2026-01-13 18:48:08.81	347.58	15.86	-37.7	-38.7	22.7	0.00e+00	0	27	0	591396864	48	6184
2026-01-13 18:48:09.82	347.36	15.86	-37.8	-38.9	22.5	0.00e+00	0	27	0	593494016	48	6335
2026-01-13 18:48:10.83	347.14	15.86	-37.7	-38.7	22.6	0.00e+00	0	27	0	595591168	48	6245
2026-01-13 18:48:11.84	346.92	15.86	-37.9	-38.9	22.6	0.00e+00	0	27	0	596639744	48	6348
2026-01-13 18:48:12.85	346.70	15.86	-37.8	-38.8	22.5	0.00e+00	0	27	0	598736896	48	6280
2026-01-13 18:48:13.86	346.48	15.86	-37.6	-38.6	22.7	0.00e+00	0	27	0	600834048	48	6151
2026-01-13 18:48:14.86	346.26	15.86	-37.5	-38.5	22.8	0.00e+00	0	27	0	602931200	48	6084
2026-01-13 18:48:15.87	346.04	15.86	-37.4	-38.4	22.6	0.00e+00	0	27	0	605028352	48	5971
2026-01-13 18:48:16.88	345.82	15.86	-37.2	-38.1	23.0	0.00e+00	0	27	0	606076928	48	5796
2026-01-13 18:48:17.89	345.60	15.86	-36.8	-37.7	23.3	0.00e+00	0	27	0	608174080	48	5563
2026-01-13 18:48:18.90	345.39	15.85	-36.9	-37.8	23.3	0.00e+00	0	27	0	610271232	48	5607
2026-01-13 18:48:19.91	345.17	15.85	-37.0	-37.9	23.2	0.00e+00	0	27	0	612368384	48	5648
2026-01-13 18:48:20.92	344.95	15.85	-37.0	-38.0	23.2	0.00e+00	0	27	0	614465536	48	5697
2026-01-13 18:48:21.93	344.73	15.84	-37.1	-38.1	22.9	0.00e+00	0	27	0	615514112	48	5800
2026-01-13 18:48:22.94	344.51	15.84	-37.4	-38.4	22.9	0.00e+00	0	27	0	617611264	48	5967
2026-01-13 18:48:23.94	344.29	15.83	-37.4	-38.4	22.8	0.00e+00	0	27	0	619708416	48	6015
2026-01-13 18:48:24.95	344.07	15.83	-37.6	-38.6	22.7	0.00e+00	0	27	0	621805568	48	6110
2026-01-13 18:48:25.96	343.85	15.82	-37.7	-38.7	22.5	0.00e+00	0	27	0	623902720	48	6223
2026-01-13 18:48:26.97	343.63	15.81	-37.7	-38.7	22.0	0.00e+00	0	27	0	624951296	48	6219
2026-01-13 18:48:27.98	343.41	15.81	-37.9	-39.0	22.1	0.00e+00	0	27	0	627048448	48	6407
2026-01-13 18:48:28.99	343.19	15.80	-38.0	-39.0	22.3	0.00e+00	0	27	0	629145600	48	6419
2026-01-13 18:48:30.00	342.97	15.79	-38.2	-39.2	21.9	0.00e+00	0	27	0	631242752	48	6610
2026-01-13 18:48:31.01	342.76	15.78	-38.2	-39.3	22.0	0.00e+00	0	27	0	633339904	48	6657
2026-01-13 18:48:32.02	342.54	15.78	-38.2	-39.2	22.1	0.00e+00	0	27	0	634388480	48	6610
2026-01-13 18:48:33.03	342.32	15.77	-38.2	-39.2	22.0	0.00e+00	0	27	0	636485632	48	6603
2026-01-13 18:48:34.04	342.10	15.76	-38.1	-39.1	22.3	0.00e+00	0	27	0	638582784	48	6527
2026-01-13 18:48:35.05	341.88	15.75	-37.9	-39.0	22.4	0.00e+00	0	27	0	640679936	48	6406
2026-01-13 18:48:36.06	341.66	15.74	-37.7	-38.8	22.5	0.00e+00	0	27	0	642777088	48	6266
2026-01-13 18:48:37.06	341.45	15.73	-37.8	-38.8	22.6	0.00e+00	0	27	0	643825664	48	6271
2026-01-13 18:48:38.07	341.23	15.72	-37.6	-38.6	22.6	0.00e+00	0	27	0	645922816	48	6140
2026-01-13 18:48:39.08	341.01	15.70	-37.5	-38.5	22.6	0.00e+00	0	27	0	648019968	48	6067
2026-01-13 18:48:40.09	340.80	15.69	-37.3	-38.3	22.8	0.00e+00	0	27	0	650117120	48	5941
2026-01-13 18:48:41.10	340.58	15.68	-37.5	-38.4	22.8	0.00e+00	0	27	0	652214272	48	6028
2026-01-13 18:48:42.11	340.36	15.67	-37.5	-38.5	22.7	0.00e+00	0	27	0	653262848	48	6063
2026-01-13 18:48:43.12	340.14	15.65	-37.4	-38.4	22.6	0.00e+00	0	27	0	655360000	48	6009
2026-01-13 18:48:44.13	339.93	15.64	-37.5	-38.5	22.8	0.00e+00	0	27	0	657457152	48	6079
2026-01-13 18:48:45.14	339.71	15.63	-37.8	-38.8	22.4	0.00e+00	0	27	0	659554304	48	6280
2026-01-13 18:48:46.14	339.50	15.61	-37.6	-38.6	22.7	0.00e+00	0	27	0	661651456	48	6141
2026-01-13 18:48:47.15	339.28	15.60	-37.5	-38.5	22.7	0.00e+00	0	27	0	663748608	48	6071
2026-01-13 18:48:48.16	339.06	15.58	-37.5	-38.5	22.7	0.00e+00	0	27	0	664797184	48	6082
2026-01-13 18:48:49.17	338.85	15.57	-37.1	-38.1	23.1	0.00e+00	0	27	0	666894336	48	5767
2026-01-13 18:48:50.18	338.63	15.55	-37.2	-38.1	23.0	0.00e+00	0	27	0	668991488	48	5805
2026-01-13 18:48:51.19	338.42	15.54	-37.1	-38.0	23.1	0.00e+00	0	27	0	671088640	48	5760
2026-01-13 18:48:52.20	338.20	15.52	-36.6	-37.5	23.4	0.00e+00	0	27	0	673185792	46	6079
2026-01-13 18:48:53.21	337.99	15.50	-36.7	-37.6	23.3	0.00e+00	0	27	0	674234368	46	6164
2026-01-13 18:48:54.22	337.77	15.49	-37.0	-38.0	23.0	0.00e+00	0	27	0	676331520	46	6411
2026-01-13 18:48:55.23	337.56	15.47	-37.2	-38.2	22.9	0.00e+00	0	27	0	678428672	46	6584
2026-01-13 18:48:56.24	337.35	15.45	-37.2	-38.2	23.0	0.00e+00	0	27	0	680525824	46	6588
2026-01-13 18:48:57.25	337.13	15.43	-37.3	-38.2	23.0	0.00e+00	0	27	0	682622976	46	6599
2026-01-13 18:48:58.26	336.92	15.41	-37.1	-38.1	23.1	0.00e+00	0	27	0	683671552	46	6501
2026-01-13 18:48:59.26	336.71	15.39	-37.2	-38.2	22.9	0.00e+00	0	27	0	685768704	46	6542
2026-01-13 18:49:00.27	336.49	15.37	-37.2	-38.2	23.0	0.00e+00	0	27	0	687865856	46	6543
2026-01-13 18:49:01.28	336.28	15.35	-37.2	-38.2	23.0	0.00e+00	0	27	0	689963008	46	6553
2026-01-13 18:49:02.29	336.07	15.33	-37.3	-38.3	22.8	0.00e+00	0	27	0	692060160	46	6647
2026-01-13 18:49:03.30	335.86	15.31	-37.4	-38.4	22.7	0.00e+00	0	27	0	693108736	46	6745
2026-01-13 18:49:04.31	335.65	15.29	-37.5	-38.5	22.8	0.00e+00	0	27	0	695205888	46	6808
2026-01-13 18:49:05.32	335.43	15.27	-37.5	-38.5	22.8	0.00e+00	0	27	0	697303040	46	6785
2026-01-13 18:49:06.33	335.22	15.25	-37.7	-38.7	22.6	0.00e+00	0	27	0	699400192	46	6958
2026-01-13 18:49:07.34	335.01	15.22	-37.6	-38.6	22.6	0.00e+00	0	27	0	701497344	48	6163
2026-01-13 18:49:08.34	334.80	15.20	-37.8	-38.9	22.4	0.00e+00	0	27	0	702545920	48	6322
2026-01-13 18:49:09.35	334.59	15.18	-38.0	-39.0	22.4	0.00e+00	0	27	0	704643072	48	6429
2026-01-13 18:49:10.36	334.38	15.16	-38.2	-39.3	22.1	0.00e+00	0	27	0	706740224	48	6666
2026-01-13 18:49:11.37	334.17	15.13	-37.9	-39.0	22.4	0.00e+00	0	27	0	708837376	48	6409
2026-01-13 18:49:12.38	333.97	15.11	-37.5	-38.5	22.6	0.00e+00	0	27	0	710934528	48	6095
2026-01-13 18:49:13.39	333.76	15.08	-37.6	-38.6	22.6	0.00e+00	0	27	0	711983104	48	6147
2026-01-13 18:49:14.40	333.55	15.06	-37.4	-38.3	22.8	0.00e+00	0	27	0	714080256	48	5953
2026-01-13 18:49:15.41	333.34	15.03	-37.5	-38.4	22.8	0.00e+00	0	27	0	716177408	48	6022
2026-01-13 18:49:16.42	333.13	15.01	-37.5	-38.4	22.9	0.00e+00	0	27	0	718274560	48	6033
2026-01-13 18:49:17.43	332.93	14.98	-37.5	-38.4	22.8	0.00e+00	0	27	0	720371712	48	6008
2026-01-13 18:49:18.44	332.72	14.95	-37.0	-37.9	23.2	0.00e+00	0	27	0	721420288	48	5636
2026-01-13 18:49:19.45	332.51	14.93	-36.9	-37.8	23.2	0.00e+00	0	27	0	723517440	46	6263
2026-01-13 18:49:20.46	332.31	14.90	-36.7	-37.6	23.4	0.00e+00	0	27	0	725614592	46	6144
2026-01-13 18:49:21.47	332.10	14.87	-36.9	-37.7	23.4	0.00e+00	0	27	0	727711744	46	6241
2026-01-13 18:49:22.48	331.89	14.85	-36.8	-37.7	23.4	0.00e+00	0	27	0	729808896	46	6184
2026-01-13 18:49:23.49	331.69	14.82	-36.9	-37.8	23.3	0.00e+00	0	27	0	731906048	46	6316
2026-01-13 18:49:24.50	331.48	14.79	-37.2	-38.2	23.0	0.00e+00	0	27	0	732954624	46	6547
2026-01-13 18:49:25.50	331.28	14.76	-37.4	-38.3	22.9	0.00e+00	0	27	0	735051776	46	6690
2026-01-13 18:49:26.51	331.08	14.73	-37.7	-38.7	22.6	0.00e+00	0	27	0	737148928	46	6941
2026-01-13 18:49:27.52	330.87	14.70	-37.7	-38.6	22.6	0.00e+00	0	27	0	739246080	46	6922
2026-01-13 18:49:28.53	330.67	14.67	-37.9	-38.9	22.5	0.00e+00	0	27	0	740294656	48	6380
2026-01-13 18:49:29.54	330.47	14.64	-37.7	-38.7	22.5	0.00e+00	0	27	0	742391808	48	6200
2026-01-13 18:49:30.55	330.27	14.61	-37.8	-38.9	22.4	0.00e+00	0	27	0	744488960	48	6319
2026-01-13 18:49:31.56	330.06	14.58	-37.8	-38.8	22.5	0.00e+00	0	27	0	746586112	48	6309
2026-01-13 18:49:32.57	329.86	14.55	-37.8	-38.8	22.5	0.00e+00	0	27	0	748683264	48	6316
2026-01-13 18:49:33.58	329.66	14.52	-38.1	-39.2	22.2	0.00e+00	0	27	0	749731840	48	6554
2026-01-13 18:49:34.59	329.46	14.49	-38.4	-39.4	22.0	0.00e+00	0	27	0	751828992	48	6763
2026-01-13 18:49:35.60	329.26	14.46	-38.3	-39.3	22.1	0.00e+00	0	27	0	753926144	48	6681
2026-01-13 18:49:36.61	329.06	14.42	-38.5	-39.6	21.8	0.00e+00	0	27	0	756023296	48	6921
2026-01-13 18:49:37.61	328.86	14.39	-38.5	-39.6	21.9	0.00e+00	0	27	0	758120448	48	6911
2026-01-13 18:49:38.62	328.67	14.36	-38.2	-39.3	22.1	0.00e+00	0	27	0	760217600	48	6656
2026-01-13 18:49:39.63	328.47	14.33	-38.0	-39.1	22.3	0.00e+00	0	27	0	761266176	48	6494
2026-01-13 18:49:40.64	328.27	14.29	-37.8	-38.8	22.5	0.00e+00	0	27	0	763363328	48	6262
2026-01-13 18:49:41.65	328.07	14.26	-37.6	-38.6	22.6	0.00e+00	0	27	0	765460480	48	6149
2026-01-13 18:49:42.66	327.88	14.22	-37.7	-38.7	22.6	0.00e+00	0	27	0	767557632	48	6223
2026-01-13 18:49:43.67	327.68	14.19	-37.4	-38.3	22.9	0.00e+00	0	27	0	769654784	48	5924
2026-01-13 18:49:44.68	327.48	14.16	-37.2	-38.2	23.0	0.00e+00	0	27	0	770703360	48	5851
2026-01-13 18:49:45.69	327.29	14.12	-37.3	-38.2	22.9	0.00e+00	0	27	0	772800512	48	5889
2026-01-13 18:49:46.70	327.09	14.09	-37.3	-38.2	23.0	0.00e+00	0	27	0	774897664	48	5863
2026-01-13 18:49:47.71	326.90	14.05	-37.2	-38.2	23.0	0.00e+00	0	27	0	776994816	48	5849
2026-01-13 18:49:48.72	326.70	14.01	-37.2	-38.1	23.1	0.00e+00	0	27	0	779091968	48	5817
2026-01-13 18:49:49.73	326.51	13.98	-37.2	-38.2	23.1	0.00e+00	0	27	0	780140544	48	5833
2026-01-13 18:49:50.73	326.32	13.94	-37.0	-37.9	23.2	0.00e+00	0	27	0	782237696	48	5679
2026-01-13 18:49:51.75	326.12	13.91	-37.1	-38.0	23.3	0.00e+00	0	27	0	784334848	48	5739
2026-01-13 18:49:52.75	325.93	13.87	-36.8	-37.7	23.5	0.00e+00	0	27	0	786432000	46	6176
2026-01-13 18:49:53.77	325.74	13.83	-36.8	-37.7	23.2	0.00e+00	0	27	0	788529152	46	6190
2026-01-13 18:49:54.78	325.55	13.79	-36.4	-37.2	23.4	0.00e+00	0	27	0	789577728	46	5875
2026-01-13 18:49:55.78	325.36	13.76	-36.5	-37.4	23.5	0.00e+00	0	27	0	791674880	46	5997
2026-01-13 18:49:56.79	325.17	13.72	-36.6	-37.5	23.6	0.00e+00	0	27	0	793772032	46	6041
2026-01-13 18:49:57.80	324.98	13.68	-36.8	-37.6	23.4	0.00e+00	0	27	0	795869184	46	6165
2026-01-13 18:49:58.81	324.79	13.64	-37.1	-38.0	23.2	0.00e+00	0	27	0	797966336	46	6402
2026-01-13 18:49:59.82	324.60	13.60	-37.4	-38.3	22.9	0.00e+00	0	27	0	799014912	46	6666
2026-01-13 18:50:00.83	324.41	13.57	-37.5	-38.4	22.9	0.00e+00	0	27	0	801112064	46	6739
2026-01-13 18:50:01.84	324.22	13.53	-37.4	-38.3	22.8	0.00e+00	0	27	0	803209216	46	6682
2026-01-13 18:50:02.85	324.04	13.49	-37.8	-38.7	22.6	0.00e+00	0	27	0	805306368	48	6243
2026-01-13 18:50:03.86	323.85	13.45	-37.9	-38.9	22.4	0.00e+00	0	27	0	807403520	48	6371
2026-01-13 18:50:04.87	323.66	13.41	-38.3	-39.4	22.0	0.00e+00	0	27	0	808452096	48	6735
2026-01-13 18:50:05.88	323.48	13.37	-38.5	-39.6	21.9	0.00e+00	0	27	0	810549248	48	6865
2026-01-13 18:50:06.88	323.29	13.33	-38.5	-39.6	21.9	0.00e+00	0	27	0	812646400	48	6873
2026-01-13 18:50:07.89	323.11	13.29	-38.7	-39.8	21.7	0.00e+00	0	27	0	814743552	50	6302
2026-01-13 18:50:08.90	322.92	13.25	-38.8	-39.9	21.4	0.00e+00	0	27	0	816840704	50	6353
2026-01-13 18:50:09.91	322.74	13.21	-38.8	-39.9	21.6	0.00e+00	0	27	0	817889280	50	6335
2026-01-13 18:50:10.92	322.56	13.17	-38.5	-39.6	21.9	0.00e+00	0	27	0	819986432	50	6114
2026-01-13 18:50:11.93	322.37	13.12	-38.5	-39.5	21.8	0.00e+00	0	27	0	822083584	50	6081
2026-01-13 18:50:12.93	322.19	13.08	-38.4	-39.5	22.0	0.00e+00	0	27	0	824180736	50	6062
2026-01-13 18:50:13.94	322.01	13.04	-38.4	-39.4	21.9	0.00e+00	0	27	0	826277888	50	6024
2026-01-13 18:50:14.95	321.83	13.00	-38.4	-39.5	21.9	0.00e+00	0	27	0	828375040	50	6057
2026-01-13 18:50:15.96	321.65	12.96	-38.8	-39.9	21.6	0.00e+00	0	27	0	829423616	50	6325
2026-01-13 18:50:16.97	321.47	12.91	-38.6	-39.7	21.8	0.00e+00	0	27	0	831520768	50	6191
2026-01-13 18:50:17.98	321.29	12.87	-38.7	-39.8	21.6	0.00e+00	0	27	0	833617920	50	6305
2026-01-13 18:50:18.99	321.11	12.83	-38.8	-40.0	21.5	0.00e+00	0	27	0	835715072	50	6394
2026-01-13 18:50:20.00	320.93	12.79	-38.8	-39.9	21.6	0.00e+00	0	27	0	837812224	50	6358
2026-01-13 18:50:21.01	320.75	12.74	-38.8	-39.9	21.5	0.00e+00	0	27	0	838860800	50	6385
2026-01-13 18:50:22.01	320.58	12.70	-38.7	-39.8	21.7	0.00e+00	0	27	0	840957952	50	6264
2026-01-13 18:50:23.02	320.40	12.66	-38.8	-39.9	21.7	0.00e+00	0	27	0	843055104	50	6359
2026-01-13 18:50:24.03	320.23	12.61	-38.7	-39.8	21.7	0.00e+00	0	27	0	845152256	50	6262
2026-01-13 18:50:25.04	320.05	12.57	-38.9	-40.0	21.6	0.00e+00	0	27	0	847249408	50	6457
2026-01-13 18:50:26.05	319.87	12.52	-38.8	-39.8	21.6	0.00e+00	0	27	0	848297984	50	6311
2026-01-13 18:50:27.06	319.70	12.48	-38.8	-39.9	21.6	0.00e+00	0	27	0	850395136	50	6338
2026-01-13 18:50:28.07	319.52	12.43	-38.9	-40.0	21.5	0.00e+00	0	27	0	852492288	50	6449
2026-01-13 18:50:29.08	319.35	12.39	-38.7	-39.8	21.7	0.00e+00	0	27	0	854589440	50	6264
2026-01-13 18:50:30.09	319.18	12.35	-38.3	-39.3	22.1	0.00e+00	0	27	0	856686592	50	5915
2026-01-13 18:50:31.10	319.01	12.30	-38.0	-39.0	22.3	0.00e+00	0	27	0	857735168	50	5746
2026-01-13 18:50:32.11	318.83	12.25	-38.1	-39.1	22.3	0.00e+00	0	27	0	859832320	50	5800
2026-01-13 18:50:33.12	318.66	12.21	-38.1	-39.1	22.4	0.00e+00	0	27	0	861929472	50	5765
2026-01-13 18:50:34.13	318.49	12.16	-37.9	-38.8	22.5	0.00e+00	0	27	0	864026624	50	5623
2026-01-13 18:50:35.14	318.32	12.12	-38.2	-39.2	22.3	0.00e+00	0	27	0	866123776	50	5838
2026-01-13 18:50:36.14	318.15	12.07	-38.2	-39.2	22.2	0.00e+00	0	27	0	867172352	50	5843
2026-01-13 18:50:37.15	317.98	12.03	-38.3	-39.3	22.0	0.00e+00	0	27	0	869269504	50	5956
2026-01-13 18:50:38.16	317.81	11.98	-38.5	-39.6	21.9	0.00e+00	0	27	0	871366656	50	6135
2026-01-13 18:50:39.17	317.64	11.93	-38.7	-39.8	21.6	0.00e+00	0	27	0	873463808	50	6293
2026-01-13 18:50:40.18	317.48	11.89	-38.8	-39.9	21.6	0.00e+00	0	27	0	875560960	50	6321
2026-01-13 18:50:41.19	317.31	11.84	-39.1	-40.3	21.3	1.50e-06	0	27	0	876609536	50	6618
2026-01-13 18:50:42.20	317.14	11.79	-39.0	-40.2	21.3	0.00e+00	0	27	0	878706688	50	6548
2026-01-13 18:50:43.21	316.98	11.75	-39.2	-40.3	21.4	0.00e+00	0	27	0	880803840	50	6648
2026-01-13 18:50:44.22	316.81	11.70	-39.1	-40.2	21.3	0.00e+00	0	27	0	882900992	50	6603
2026-01-13 18:50:45.23	316.64	11.65	-38.9	-40.0	21.5	0.00e+00	0	27	0	884998144	50	6413
2026-01-13 18:50:46.24	316.48	11.60	-38.4	-39.5	21.9	0.00e+00	0	27	0	886046720	50	6042
2026-01-13 18:50:47.25	316.32	11.56	-38.5	-39.6	21.9	0.00e+00	0	27	0	888143872	50	6113
2026-01-13 18:50:48.26	316.15	11.51	-38.6	-39.6	22.0	0.00e+00	0	27	0	890241024	50	6131
2026-01-13 18:50:49.27	315.99	11.46	-38.4	-39.4	21.9	0.00e+00	0	27	0	892338176	50	6023
2026-01-13 18:50:50.28	315.83	11.41	-39.0	-40.1	21.5	0.00e+00	0	27	0	894435328	50	6473
2026-01-13 18:50:51.29	315.67	11.37	-39.3	-40.4	21.2	0.00e+00	0	27	0	896532480	50	6733
2026-01-13 18:50:52.30	315.50	11.32	-39.9	-41.2	20.5	0.00e+00	0	27	0	897581056	52	6568
2026-01-13 18:50:53.30	315.34	11.27	-40.5	-41.8	19.9	0.00e+00	0	27	0	899678208	52	7087
2026-01-13 18:50:54.31	315.18	11.22	-41.0	-42.5	19.1	0.00e+00	0	27	0	901775360	54	6843
2026-01-13 18:50:55.32	315.02	11.17	-41.6	-43.3	18.5	0.00e+00	0	27	0	903872512	54	7472
2026-01-13 18:50:56.33	314.86	11.12	-41.7	-43.4	18.4	0.00e+00	0	27	0	904921088	54	7560
2026-01-13 18:50:57.33	314.71	11.08	-41.6	-43.3	18.4	0.00e+00	0	27	0	907018240	54	7503
2026-01-13 18:50:58.35	314.55	11.03	-41.3	-42.9	18.9	0.00e+00	0	27	0	909115392	54	7164
2026-01-13 18:50:59.35	314.39	10.98	-41.3	-42.9	18.9	0.00e+00	0	27	0	911212544	54	7134
2026-01-13 18:51:00.36	314.23	10.93	-40.8	-42.3	19.4	0.00e+00	0	27	0	913309696	54	6663
2026-01-13 18:51:01.37	314.08	10.88	-40.9	-42.3	19.4	0.00e+00	0	27	0	914358272	54	6687
2026-01-13 18:51:02.38	313.92	10.83	-40.5	-41.9	19.8	0.00e+00	0	27	0	916455424	54	6337
2026-01-13 18:51:03.39	313.77	10.78	-40.5	-41.9	19.8	0.00e+00	0	27	0	918552576	54	6328
2026-01-13 18:51:04.40	313.61	10.73	-40.3	-41.7	19.9	0.00e+00	0	27	0	920649728	54	6209
2026-01-13 18:51:05.41	313.46	10.68	-40.2	-41.6	20.2	0.00e+00	0	27	0	922746880	54	6112
2026-01-13 18:51:06.42	313.30	10.63	-40.1	-41.4	20.3	0.00e+00	0	27	0	924844032	54	6032
2026-01-13 18:51:07.43	313.15	10.58	-40.0	-41.3	20.3	0.00e+00	0	27	0	925892608	54	5908
2026-01-13 18:51:08.44	313.00	10.53	-39.7	-40.9	20.7	0.00e+00	0	27	0	927989760	54	5664
2026-01-13 18:51:09.45	312.84	10.48	-39.5	-40.7	20.9	0.00e+00	0	27	0	930086912	52	6206
2026-01-13 18:51:10.46	312.69	10.43	-39.3	-40.5	21.1	0.00e+00	0	27	0	932184064	52	6060
2026-01-13 18:51:11.47	312.54	10.38	-39.2	-40.3	21.2	0.00e+00	0	27	0	934281216	52	5937
2026-01-13 18:51:12.48	312.39	10.33	-39.3	-40.4	21.3	0.00e+00	0	27	0	935329792	52	6008
2026-01-13 18:51:13.49	312.24	10.28	-39.4	-40.6	21.0	0.00e+00	0	27	0	937426944	52	6104
2026-01-13 18:51:14.49	312.09	10.23	-39.5	-40.6	20.9	0.00e+00	0	27	0	939524096	52	6161
2026-01-13 18:51:15.50	311.94	10.18	-39.4	-40.5	20.9	0.00e+00	0	27	0	941621248	52	6097
2026-01-13 18:51:16.51	311.79	10.13	-39.5	-40.6	20.9	0.00e+00	0	27	0	943718400	52	6161
2026-01-13 18:51:17.52	311.65	10.08	-39.5	-40.7	20.9	0.00e+00	0	27	0	944766976	52	6204
2026-01-13 18:51:18.53	311.50	10.03	-39.3	-40.5	21.1	0.00e+00	0	27	0	946864128	52	6043
2026-01-13 18:51:19.54	311.35	9.98	-39.2	-40.4	21.2	0.00e+00	0	27	0	948961280	52	5972
2026-01-13 18:51:20.55	311.21	9.92	-39.2	-40.3	21.2	0.00e+00	0	27	0	951058432	52	5911
2026-01-13 18:51:21.56	311.06	9.87	-38.9	-39.9	21.4	0.00e+00	0	27	0	953155584	52	5689
2026-01-13 18:51:22.57	310.91	9.82	-38.6	-39.7	21.6	0.00e+00	0	27	0	954204160	50	6212
2026-01-13 18:51:23.58	310.77	9.77	-38.6	-39.7	21.7	0.00e+00	0	27	0	956301312	50	6199
2026-01-13 18:51:24.59	310.62	9.72	-38.5	-39.5	21.9	0.00e+00	0	27	0	958398464	50	6075
2026-01-13 18:51:25.60	310.48	9.67	-38.7	-39.8	21.6	0.00e+00	0	27	0	960495616	50	6251
2026-01-13 18:51:26.61	310.34	9.62	-38.7	-39.7	21.6	0.00e+00	0	27	0	962592768	50	6243
2026-01-13 18:51:27.62	310.19	9.56	-38.6	-39.7	21.6	0.00e+00	0	27	0	963641344	50	6184
2026-01-13 18:51:28.62	310.05	9.51	-38.7	-39.8	21.5	0.00e+00	0	27	0	965738496	50	6304
2026-01-13 18:51:29.63	309.91	9.46	-38.8	-39.9	21.5	0.00e+00	0	27	0	967835648	50	6378
2026-01-13 18:51:30.64	309.77	9.41	-38.8	-39.9	21.5	0.00e+00	0	27	0	969932800	50	6323
2026-01-13 18:51:31.66	309.63	9.36	-38.9	-40.0	21.4	0.00e+00	0	27	0	972029952	50	6451
2026-01-13 18:51:32.66	309.49	9.31	-39.2	-40.4	21.1	0.00e+00	0	27	0	973078528	50	6717
2026-01-13 18:51:33.67	309.35	9.25	-39.4	-40.6	21.0	0.00e+00	0	27	0	975175680	50	6861
2026-01-13 18:51:34.69	309.21	9.20	-39.3	-40.5	21.0	0.00e+00	0	27	0	977272832	50	6772
2026-01-13 18:51:35.70	309.07	9.15	-39.5	-40.8	20.8	0.00e+00	0	27	0	979369984	50	7010
2026-01-13 18:51:36.70	308.93	9.10	-39.5	-40.7	20.6	0.00e+00	0	27	0	981467136	50	6978
2026-01-13 18:51:37.72	308.79	9.05	-39.4	-40.6	20.9	0.00e+00	0	27	0	982515712	50	6899
2026-01-13 18:51:38.73	308.66	8.99	-39.5	-40.7	20.8	0.00e+00	0	27	0	984612864	50	6935
2026-01-13 18:51:39.74	308.52	8.94	-39.3	-40.5	21.0	0.00e+00	0	27	0	986710016	50	6827
2026-01-13 18:51:40.75	308.38	8.89	-39.2	-40.4	21.0	0.00e+00	0	27	0	988807168	50	6727
2026-01-13 18:51:41.76	308.25	8.84	-39.4	-40.6	20.8	0.00e+00	0	27	0	990904320	50	6920
2026-01-13 18:51:42.77	308.11	8.78	-39.0	-40.2	21.2	0.00e+00	0	27	0	993001472	50	6546
2026-01-13 18:51:43.78	307.98	8.73	-39.1	-40.3	21.1	0.00e+00	0	27	0	994050048	50	6618
2026-01-13 18:51:44.78	307.84	8.68	-39.0	-40.1	21.3	0.00e+00	0	27	0	996147200	50	6525
2026-01-13 18:51:45.79	307.71	8.63	-39.0	-40.1	21.3	0.00e+00	0	27	0	998244352	50	6523
2026-01-13 18:51:46.80	307.58	8.58	-38.9	-40.1	21.4	0.00e+00	0	27	0	1000341504	50	6495
2026-01-13 18:51:47.81	307.44	8.52	-38.7	-39.9	21.5	0.00e+00	0	27	0	1002438656	50	6322
2026-01-13 18:51:48.82	307.31	8.47	-38.8	-39.9	21.6	0.00e+00	0	27	0	1003487232	50	6328
2026-01-13 18:51:49.83	307.18	8.42	-38.4	-39.5	21.8	0.00e+00	0	27	0	1005584384	50	6080
2026-01-13 18:51:50.84	307.05	8.36	-38.2	-39.3	22.0	0.00e+00	0	27	0	1007681536	50	5916
2026-01-13 18:51:51.85	306.92	8.31	-37.9	-39.0	22.2	0.00e+00	0	27	0	1009778688	50	5697
2026-01-13 18:51:52.86	306.79	8.26	-38.0	-39.0	22.2	0.00e+00	0	27	0	1011875840	50	5747
2026-01-13 18:51:53.87	306.66	8.21	-37.7	-38.7	22.5	0.00e+00	0	27	0	1012924416	48	6194
2026-01-13 18:51:54.88	306.53	8.15	-37.7	-38.6	22.5	0.00e+00	0	27	0	1015021568	48	6166
2026-01-13 18:51:55.89	306.40	8.10	-37.6	-38.6	22.5	0.00e+00	0	27	0	1017118720	48	6152
2026-01-13 18:51:56.89	306.27	8.05	-37.7	-38.7	22.5	0.00e+00	0	27	0	1019215872	48	6177
2026-01-13 18:51:57.90	306.14	8.00	-37.9	-38.9	22.4	0.00e+00	0	27	0	1021313024	48	6334
2026-01-13 18:51:58.91	306.02	7.94	-37.8	-38.9	22.3	0.00e+00	0	27	0	1022361600	48	6320
2026-01-13 18:51:59.92	305.89	7.89	-38.2	-39.2	22.0	0.00e+00	0	27	0	1024458752	48	6592
2026-01-13 18:52:00.93	305.76	7.84	-38.0	-39.0	22.1	0.00e+00	0	27	0	1026555904	48	6414
2026-01-13 18:52:01.94	305.64	7.78	-38.0	-39.0	22.1	0.00e+00	0	27	0	1028653056	48	6461
2026-01-13 18:52:02.95	305.51	7.73	-38.0	-39.0	22.2	0.00e+00	0	27	0	1030750208	48	6429
2026-01-13 18:52:03.96	305.38	7.68	-38.0	-39.1	22.1	0.00e+00	0	27	0	1031798784	48	6473
2026-01-13 18:52:04.97	305.26	7.63	-37.9	-38.9	22.2	0.00e+00	0	27	0	1033895936	48	6356
2026-01-13 18:52:05.98	305.14	7.57	-37.8	-38.8	22.3	0.00e+00	0	27	0	1035993088	48	6302
2026-01-13 18:52:06.99	305.01	7.52	-37.8	-38.8	22.4	0.00e+00	0	27	0	1038090240	48	6270
2026-01-13 18:52:08.00	304.89	7.47	-37.8	-38.8	22.2	0.00e+00	0	27	0	1040187392	48	6272
2026-01-13 18:52:09.01	304.77	7.41	-37.8	-38.8	22.3	0.00e+00	0	27	0	1041235968	48	6286
2026-01-13 18:52:10.02	304.64	7.36	-38.1	-39.1	22.1	0.00e+00	0	27	0	1043333120	48	6503
2026-01-13 18:52:11.02	304.52	7.31	-37.9	-39.0	22.3	0.00e+00	0	27	0	1045430272	48	6404
2026-01-13 18:52:12.03	304.40	7.25	-38.1	-39.2	21.9	0.00e+00	0	27	0	1047527424	48	6552
2026-01-13 18:52:13.04	304.28	7.20	-38.2	-39.3	21.9	0.00e+00	0	27	0	1049624576	48	6640
2026-01-13 18:52:14.05	304.16	7.15	-38.3	-39.4	21.7	0.00e+00	0	27	0	1050673152	48	6749
2026-01-13 18:52:15.06	304.04	7.09	-38.4	-39.5	21.6	0.00e+00	0	27	0	1052770304	48	6827
2026-01-13 18:52:16.07	303.92	7.04	-38.8	-40.0	21.3	0.00e+00	0	27	0	1054867456	50	6416
2026-01-13 18:52:17.08	303.80	6.99	-38.5	-39.7	21.6	0.00e+00	0	27	0	1056964608	50	6175
2026-01-13 18:52:18.09	303.68	6.93	-38.6	-39.7	21.5	0.00e+00	0	27	0	1059061760	50	6233
2026-01-13 18:52:19.10	303.56	6.88	-39.0	-40.1	21.1	0.00e+00	0	27	0	1061158912	50	6527
2026-01-13 18:52:20.11	303.44	6.83	-38.9	-40.0	21.2	0.00e+00	0	27	0	1062207488	50	6454
2026-01-13 18:52:21.12	303.33	6.78	-38.9	-40.0	21.2	0.00e+00	0	27	0	1064304640	50	6446
2026-01-13 18:52:22.13	303.21	6.72	-38.9	-40.1	21.2	0.00e+00	0	27	0	1066401792	50	6489
2026-01-13 18:52:23.14	303.09	6.67	-38.8	-40.0	21.2	0.00e+00	0	27	0	1068498944	50	6404
2026-01-13 18:52:24.15	302.98	6.62	-38.8	-39.9	21.2	0.00e+00	0	27	0	1070596096	50	6380
2026-01-13 18:52:25.16	302.86	6.56	-39.0	-40.2	20.9	0.00e+00	0	27	0	1071644672	50	6556
2026-01-13 18:52:26.17	302.75	6.51	-39.0	-40.1	20.9	0.00e+00	0	27	0	1073741824	50	6536
2026-01-13 18:52:27.18	302.63	6.46	-39.0	-40.2	21.0	0.00e+00	0	27	0	1075838976	50	6541
2026-01-13 18:52:28.18	302.52	6.40	-39.1	-40.3	20.8	0.00e+00	0	27	0	1077936128	50	6684
2026-01-13 18:52:29.19	302.40	6.35	-38.7	-39.8	21.3	0.00e+00	0	27	0	1080033280	50	6314
2026-01-13 18:52:30.20	302.29	6.30	-39.0	-40.2	21.0	0.00e+00	0	27	0	1081081856	50	6556
2026-01-13 18:52:31.21	302.18	6.24	-39.1	-40.3	20.9	0.00e+00	0	27	0	1083179008	50	6635
2026-01-13 18:52:32.22	302.06	6.19	-39.1	-40.2	20.7	0.00e+00	0	27	0	1085276160	50	6608
2026-01-13 18:52:33.23	301.95	6.14	-38.8	-39.9	20.8	0.00e+00	0	27	0	1087373312	50	6375
2026-01-13 18:52:34.24	301.84	6.08	-38.7	-39.9	21.1	0.00e+00	0	27	0	1089470464	50	6343
2026-01-13 18:52:35.25	301.73	6.03	-38.6	-39.8	21.3	0.00e+00	0	27	0	1090519040	50	6262
2026-01-13 18:52:36.25	301.62	5.98	-38.7	-39.8	21.5	0.00e+00	0	27	0	1092616192	50	6271
2026-01-13 18:52:37.26	301.51	5.92	-38.7	-39.9	21.1	0.00e+00	0	27	0	1094713344	50	6318
2026-01-13 18:52:38.27	301.40	5.87	-38.4	-39.5	21.6	0.00e+00	0	27	0	1096810496	50	6076
2026-01-13 18:52:39.28	301.29	5.82	-38.5	-39.6	21.4	0.00e+00	0	27	0	1098907648	50	6172
2026-01-13 18:52:40.29	301.18	5.77	-38.5	-39.6	21.3	0.00e+00	0	27	0	1099956224	50	6142
2026-01-13 18:52:41.30	301.07	5.71	-38.4	-39.5	21.5	0.00e+00	0	27	0	1102053376	50	6068
2026-01-13 18:52:42.31	300.96	5.66	-38.5	-39.6	21.5	0.00e+00	0	27	0	1104150528	50	6110
2026-01-13 18:52:43.32	300.85	5.61	-38.5	-39.6	21.5	0.00e+00	0	27	0	1106247680	50	6115
2026-01-13 18:52:44.33	300.74	5.55	-38.5	-39.7	21.4	0.00e+00	0	27	0	1108344832	50	6180
2026-01-13 18:52:45.34	300.64	5.50	-38.7	-39.8	21.3	0.00e+00	0	27	0	1109393408	50	6304
2026-01-13 18:52:46.35	300.53	5.45	-38.9	-40.1	21.0	0.00e+00	0	27	0	1111490560	50	6491
2026-01-13 18:52:47.36	300.42	5.39	-39.2	-40.4	20.8	0.00e+00	0	27	0	1113587712	50	6724
2026-01-13 18:52:48.37	300.32	5.34	-39.3	-40.5	20.6	0.00e+00	0	27	0	1115684864	50	6831
2026-01-13 18:52:49.38	300.21	5.29	-39.7	-41.0	20.2	0.00e+00	0	27	0	1117782016	50	7220
2026-01-13 18:52:50.39	300.11	5.23	-39.6	-40.8	20.5	0.00e+00	0	27	0	1118830592	52	6307
2026-01-13 18:52:51.40	300.00	5.18	-39.7	-41.0	20.1	0.00e+00	0	27	0	1120927744	52	6460
2026-01-13 18:52:52.41	299.90	5.13	-39.8	-41.1	20.1	0.00e+00	0	27	0	1123024896	52	6498
2026-01-13 18:52:53.42	299.79	5.08	-39.5	-40.7	20.4	0.00e+00	0	27	0	1125122048	52	6229
2026-01-13 18:52:54.43	299.69	5.02	-39.4	-40.7	20.4	0.00e+00	0	27	0	1127219200	52	6209
2026-01-13 18:52:55.44	299.58	4.97	-39.3	-40.6	20.4	0.00e+00	0	27	0	1129316352	52	6124
2026-01-13 18:52:56.45	299.48	4.92	-39.5	-40.8	20.4	0.00e+00	0	27	0	1130364928	52	6247
2026-01-13 18:52:57.46	299.38	4.86	-39.3	-40.6	20.5	0.00e+00	0	27	0	1132462080	52	6120
2026-01-13 18:52:58.47	299.28	4.81	-39.4	-40.6	20.5	0.00e+00	0	27	0	1134559232	52	6150
2026-01-13 18:52:59.47	299.18	4.76	-38.5	-39.6	21.3	0.00e+00	0	27	0	1136656384	50	6150
2026-01-13 18:53:00.48	299.07	4.71	-38.4	-39.5	21.5	0.00e+00	0	27	0	1137704960	50	6067
2026-01-13 18:53:01.49	298.97	4.65	-38.4	-39.5	21.5	0.00e+00	0	27	0	1139802112	50	6065
2026-01-13 18:53:02.49	298.87	4.60	-38.5	-39.6	21.3	0.00e+00	0	27	0	1141899264	50	6135
2026-01-13 18:53:03.50	298.77	4.55	-38.5	-39.6	21.2	0.00e+00	0	27	0	1143996416	50	6170
2026-01-13 18:53:04.51	298.67	4.49	-38.5	-39.6	21.2	0.00e+00	0	27	0	1146093568	50	6154
2026-01-13 18:53:05.52	298.57	4.44	-38.4	-39.5	21.3	0.00e+00	0	27	0	1147142144	50	6100
2026-01-13 18:53:06.53	298.47	4.39	-38.6	-39.7	21.1	0.00e+00	0	27	0	1149239296	50	6235
2026-01-13 18:53:07.54	298.37	4.34	-38.7	-39.9	20.9	0.00e+00	0	27	0	1151336448	50	6349
2026-01-13 18:53:08.55	298.28	4.28	-39.0	-40.2	20.8	0.00e+00	0	27	0	1153433600	50	6545
2026-01-13 18:53:09.56	298.18	4.23	-38.8	-40.0	20.9	0.00e+00	0	27	0	1155530752	50	6433
2026-01-13 18:53:10.57	298.08	4.18	-39.2	-40.4	20.5	0.00e+00	0	27	0	1157627904	50	6746
2026-01-13 18:53:11.58	297.98	4.13	-39.2	-40.5	20.5	0.00e+00	0	27	0	1158676480	50	6788
2026-01-13 18:53:12.59	297.88	4.07	-39.6	-41.0	20.0	0.00e+00	0	27	0	1160773632	50	7175
2026-01-13 18:53:13.59	297.79	4.02	-39.9	-41.2	19.8	0.00e+00	0	27	0	1162870784	52	6612
2026-01-13 18:53:14.60	297.69	3.97	-39.8	-41.2	19.8	0.00e+00	0	27	0	1164967936	52	6579
2026-01-13 18:53:15.61	297.60	3.92	-40.0	-41.4	19.6	0.00e+00	0	27	0	1167065088	52	6731
2026-01-13 18:53:16.62	297.50	3.86	-40.1	-41.6	19.4	0.00e+00	0	27	0	1168113664	52	6864
2026-01-13 18:53:17.63	297.41	3.81	-40.6	-42.1	19.0	0.00e+00	0	27	0	1170210816	52	7334
2026-01-13 18:53:18.64	297.31	3.76	-40.7	-42.3	18.7	0.00e+00	0	27	0	1172307968	52	7469
2026-01-13 18:53:19.65	297.22	3.71	-40.8	-42.5	18.5	0.00e+00	0	27	0	1174405120	54	6789
2026-01-13 18:53:20.66	297.12	3.65	-40.6	-42.2	18.8	0.00e+00	0	27	0	1176502272	54	6599
2026-01-13 18:53:21.67	297.03	3.60	-40.8	-42.5	18.5	0.00e+00	0	27	0	1177550848	54	6819
2026-01-13 18:53:22.67	296.93	3.55	-41.0	-42.7	18.3	0.00e+00	0	27	0	1179648000	54	6983
2026-01-13 18:53:23.68	296.84	3.50	-40.9	-42.6	18.4	0.00e+00	0	27	0	1181745152	54	6873
2026-01-13 18:53:24.69	296.75	3.45	-40.6	-42.1	18.8	0.00e+00	0	27	0	1183842304	54	6531
2026-01-13 18:53:25.70	296.66	3.39	-40.4	-41.9	19.0	0.00e+00	0	27	0	1185939456	54	6368
2026-01-13 18:53:26.71	296.56	3.34	-40.4	-41.9	19.0	0.00e+00	0	27	0	1186988032	54	6357
2026-01-13 18:53:27.72	296.47	3.29	-40.4	-42.0	18.9	0.00e+00	0	27	0	1189085184	54	6419
2026-01-13 18:53:28.73	296.38	3.24	-40.5	-42.1	18.7	0.00e+00	0	27	0	1191182336	54	6502
2026-01-13 18:53:29.74	296.29	3.18	-40.6	-42.2	18.7	0.00e+00	0	27	0	1193279488	54	6569
2026-01-13 18:53:30.75	296.20	3.13	-40.4	-41.9	18.9	0.00e+00	0	27	0	1195376640	54	6351
2026-01-13 18:53:31.76	296.11	3.08	-40.7	-42.3	18.6	0.00e+00	0	27	0	1196425216	54	6688
2026-01-13 18:53:32.77	296.02	3.03	-40.9	-42.6	18.3	0.00e+00	0	27	0	1198522368	54	6849
2026-01-13 18:53:33.78	295.93	2.98	-47.3	-62.5	3.6	7.54e-01	0	27	104	1199570944	60	48099
