passes_logs/2026/01/13/R4.6S_Anadyr/R4.6S_Anadyr__20260113_041729_FENGYUN_3D_rec.log

#Pass ID: 20260113_041729_FENGYUN 3D
#Satellite: FENGYUN 3D
#Configuration: FENGYUN 3D
#almurnet v.1.7.20251203
#Start time: 2026-01-13 04:17:31

#Version: 2.2.20231116
#Station: R4.6S_Anadyr
#Location: 177.4865 lon 64.73178 lat
#TLE: 1 43010U 17072A   26012.32543542  .00000598  00000+0  30457-3 0  9997
#TLE: 2 43010  98.9935 344.1005 0002233 112.6136 247.5276 14.19696644422876

#Time	Az	El	Level	Level2	SNR	BER	BlckErr	Temp	State	Recorded	gain1	gain2
2026-01-13 04:17:31.12	209.07	0.08	-48.8	-63.7	3.5	1.51e+00	0	24	0	0	60	55141
2026-01-13 04:17:32.12	209.14	0.13	-48.8	-60.9	3.6	8.45e-01	0	25	104	0	60	40201
2026-01-13 04:17:33.13	209.20	0.18	-48.8	-61.0	3.6	8.46e-01	0	25	104	0	60	40505
2026-01-13 04:17:34.14	209.27	0.24	-48.8	-60.9	3.6	8.45e-01	0	25	104	0	60	39884
2026-01-13 04:17:35.15	209.33	0.29	-48.8	-60.9	3.5	8.46e-01	0	26	104	0	60	40101
2026-01-13 04:17:36.16	209.40	0.34	-48.8	-60.9	3.6	8.44e-01	0	26	104	0	60	40196
2026-01-13 04:17:37.17	209.47	0.39	-48.8	-61.0	3.6	8.46e-01	0	26	104	0	60	40397
2026-01-13 04:17:38.18	209.53	0.45	-48.8	-60.9	3.6	8.46e-01	0	26	104	0	60	40244
2026-01-13 04:17:39.19	209.60	0.50	-48.8	-60.9	3.6	8.45e-01	0	26	104	0	60	40134
2026-01-13 04:17:40.20	209.67	0.55	-48.7	-60.9	3.6	8.45e-01	0	26	104	0	60	39876
2026-01-13 04:17:41.21	209.73	0.61	-48.8	-60.9	3.6	8.44e-01	0	26	104	0	60	40256
2026-01-13 04:17:42.21	209.80	0.66	-48.7	-60.9	3.6	8.44e-01	0	26	104	0	60	39896
2026-01-13 04:17:43.22	209.87	0.71	-48.7	-60.8	3.6	8.47e-01	0	26	104	0	60	39487
2026-01-13 04:17:44.23	209.94	0.77	-48.6	-60.7	3.6	8.46e-01	0	26	104	0	60	39142
2026-01-13 04:17:45.24	210.00	0.82	-48.4	-60.5	3.6	8.46e-01	0	26	104	0	60	38116
2026-01-13 04:17:46.25	210.07	0.87	-48.1	-60.2	3.6	8.46e-01	0	26	104	0	60	36849
2026-01-13 04:17:47.26	210.14	0.93	-47.5	-59.6	3.6	8.45e-01	0	26	104	0	60	34331
2026-01-13 04:17:48.27	210.21	0.98	-47.4	-59.4	3.6	8.46e-01	0	26	104	0	60	33880
2026-01-13 04:17:49.28	210.28	1.03	-47.4	-59.5	3.6	8.46e-01	0	26	104	0	60	34013
2026-01-13 04:17:50.29	210.35	1.09	-47.4	-59.4	3.6	8.45e-01	0	26	104	0	60	33750
2026-01-13 04:17:51.30	210.42	1.14	-47.4	-59.4	3.6	8.45e-01	0	26	104	0	60	33700
2026-01-13 04:17:52.31	210.49	1.20	-47.4	-59.4	3.6	8.46e-01	0	26	104	0	60	33652
2026-01-13 04:17:53.32	210.56	1.25	-47.4	-59.3	3.6	8.46e-01	0	26	104	0	60	33462
2026-01-13 04:17:54.33	210.63	1.30	-47.4	-59.4	3.6	8.46e-01	0	26	104	0	60	33605
2026-01-13 04:17:55.34	210.70	1.36	-47.4	-59.3	3.6	8.46e-01	0	26	104	0	60	33451
2026-01-13 04:17:56.35	210.77	1.41	-47.3	-59.3	3.6	8.46e-01	0	26	104	0	60	33379
2026-01-13 04:17:57.36	210.84	1.47	-47.3	-59.4	3.6	8.44e-01	0	26	104	0	60	33743
2026-01-13 04:17:58.37	210.91	1.52	-47.3	-59.4	3.6	8.46e-01	0	26	104	0	60	33646
2026-01-13 04:17:59.37	210.98	1.58	-47.3	-59.3	3.6	8.45e-01	0	26	104	0	60	33482
2026-01-13 04:18:00.38	211.05	1.63	-47.3	-59.4	3.6	8.44e-01	0	26	104	0	60	33719
2026-01-13 04:18:01.39	211.13	1.69	-47.3	-59.4	3.6	8.46e-01	0	26	104	0	60	33859
2026-01-13 04:18:02.40	211.20	1.74	-47.3	-59.4	3.6	8.44e-01	0	26	104	0	60	33773
2026-01-13 04:18:03.41	211.27	1.79	-47.3	-59.4	3.6	8.45e-01	0	26	104	0	60	33790
2026-01-13 04:18:04.42	211.34	1.85	-47.3	-59.4	3.6	8.45e-01	0	26	104	0	60	33699
2026-01-13 04:18:05.43	211.42	1.90	-47.3	-59.4	3.6	8.45e-01	0	26	104	0	60	33616
2026-01-13 04:18:06.44	211.49	1.96	-47.3	-59.3	3.6	8.45e-01	0	26	104	0	60	33257
2026-01-13 04:18:07.45	211.56	2.01	-47.3	-59.3	3.6	8.44e-01	0	26	104	0	60	33332
2026-01-13 04:18:08.46	211.64	2.07	-47.3	-59.3	3.6	8.45e-01	0	26	104	0	60	33484
2026-01-13 04:18:09.47	211.71	2.12	-47.3	-59.3	3.6	8.45e-01	0	26	104	0	60	33493
2026-01-13 04:18:10.48	211.79	2.18	-47.3	-59.3	3.6	8.45e-01	0	26	104	0	60	33510
2026-01-13 04:18:11.49	211.86	2.24	-47.3	-59.3	3.6	8.45e-01	0	26	104	0	60	33206
2026-01-13 04:18:12.50	211.94	2.29	-47.3	-59.2	3.6	8.45e-01	0	26	104	0	60	32890
2026-01-13 04:18:13.51	212.01	2.35	-47.3	-59.2	3.6	8.45e-01	0	26	104	0	60	32988
2026-01-13 04:18:14.52	212.09	2.40	-47.3	-59.0	3.6	8.45e-01	0	26	104	0	60	32307
2026-01-13 04:18:15.53	212.16	2.46	-47.2	-58.5	3.6	8.45e-01	0	26	104	0	60	30420
2026-01-13 04:18:16.53	212.24	2.51	-47.1	-57.3	3.6	8.45e-01	0	26	104	0	60	26478
2026-01-13 04:18:17.54	212.31	2.57	-47.1	-56.7	3.7	8.42e-01	0	26	104	0	60	24800
2026-01-13 04:18:18.55	212.39	2.62	-47.1	-57.0	3.7	8.43e-01	0	26	104	0	60	25610
2026-01-13 04:18:19.56	212.47	2.68	-47.2	-57.8	3.6	8.47e-01	0	26	104	0	60	28100
2026-01-13 04:18:20.57	212.54	2.74	-47.1	-56.7	3.7	8.45e-01	0	26	104	0	60	24828
2026-01-13 04:18:21.58	212.62	2.79	-46.1	-51.0	6.9	6.95e-01	0	26	0	1048576	60	12782
2026-01-13 04:18:22.59	212.70	2.85	-44.5	-47.5	10.6	1.48e-02	0	26	0	6291456	60	8538
2026-01-13 04:18:23.60	212.78	2.90	-42.2	-44.1	14.4	7.78e-05	0	26	0	12582912	58	6484
2026-01-13 04:18:24.61	212.85	2.96	-40.4	-41.8	16.6	0.00e+00	0	26	0	17825792	54	6279
2026-01-13 04:18:25.63	212.93	3.02	-39.1	-40.2	18.2	0.00e+00	0	26	0	23068672	52	5889
2026-01-13 04:18:26.64	213.01	3.07	-37.9	-38.9	19.4	0.00e+00	0	26	0	29360128	50	5681
2026-01-13 04:18:27.65	213.09	3.13	-38.5	-39.6	18.9	0.00e+00	0	26	0	34603008	50	6113
2026-01-13 04:18:28.66	213.17	3.19	-38.5	-39.5	18.8	0.00e+00	0	26	0	40894464	50	6092
2026-01-13 04:18:29.67	213.25	3.24	-38.7	-39.9	18.0	0.00e+00	0	26	0	46137344	50	6320
2026-01-13 04:18:30.68	213.33	3.30	-40.2	-41.5	16.8	0.00e+00	0	26	0	52428800	52	6846
2026-01-13 04:18:31.69	213.41	3.36	-42.0	-43.8	13.1	0.00e+00	0	26	0	57671680	50	10010
2026-01-13 04:18:32.70	213.49	3.41	-46.9	-55.9	4.0	8.42e-01	0	26	104	58720256	60	22547
2026-01-13 04:18:33.71	213.57	3.47	-35.7	-36.5	20.1	7.02e-01	0	26	104	58720256	46	5382
2026-01-13 04:18:34.72	213.65	3.53	-36.4	-37.2	21.3	0.00e+00	0	26	0	60817408	46	5849
2026-01-13 04:18:35.73	213.73	3.58	-36.5	-37.3	21.3	0.00e+00	0	26	0	66060288	46	5933
2026-01-13 04:18:36.74	213.82	3.64	-36.0	-36.8	21.7	0.00e+00	0	26	0	72351744	46	5616
2026-01-13 04:18:37.75	213.90	3.70	-35.7	-36.5	22.0	0.00e+00	0	26	0	77594624	44	6044
2026-01-13 04:18:38.76	213.98	3.76	-35.8	-36.6	21.8	0.00e+00	0	26	0	83886080	44	6119
2026-01-13 04:18:39.77	214.06	3.81	-35.9	-36.7	21.8	0.00e+00	0	26	0	89128960	44	6202
2026-01-13 04:18:40.78	214.15	3.87	-35.6	-36.4	22.0	0.00e+00	0	26	0	95420416	44	6024
2026-01-13 04:18:41.79	214.23	3.93	-35.6	-36.4	22.0	0.00e+00	0	26	0	100663296	44	6007
2026-01-13 04:18:42.79	214.31	3.99	-35.8	-36.7	21.8	0.00e+00	0	26	0	105906176	44	6180
2026-01-13 04:18:43.80	214.40	4.04	-36.1	-36.9	21.7	0.00e+00	0	27	0	112197632	44	6349
2026-01-13 04:18:44.81	214.48	4.10	-35.6	-36.4	22.1	0.00e+00	0	26	0	117440512	44	6013
2026-01-13 04:18:45.82	214.56	4.16	-35.6	-36.4	22.1	0.00e+00	0	26	0	122683392	44	6018
2026-01-13 04:18:46.83	214.65	4.22	-35.8	-36.6	21.9	0.00e+00	0	26	0	128974848	44	6166
2026-01-13 04:18:47.84	214.73	4.27	-35.6	-36.4	22.0	0.00e+00	0	26	0	134217728	44	6027
2026-01-13 04:18:48.85	214.82	4.33	-35.6	-36.4	22.1	0.00e+00	0	26	0	140509184	44	6014
2026-01-13 04:18:49.86	214.91	4.39	-35.3	-36.1	22.5	0.00e+00	0	26	0	145752064	44	5778
2026-01-13 04:18:50.87	214.99	4.45	-35.3	-36.1	22.4	0.00e+00	0	26	0	150994944	44	5814
2026-01-13 04:18:51.88	215.08	4.51	-35.5	-36.3	22.3	0.00e+00	0	26	0	157286400	44	5917
2026-01-13 04:18:52.89	215.16	4.57	-35.4	-36.1	22.3	0.00e+00	0	26	0	162529280	44	5818
2026-01-13 04:18:53.89	215.25	4.62	-35.4	-36.2	22.4	0.00e+00	0	27	0	168820736	44	5851
2026-01-13 04:18:54.91	215.34	4.68	-35.1	-35.9	22.7	0.00e+00	0	26	0	174063616	44	5638
2026-01-13 04:18:55.91	215.43	4.74	-35.3	-36.1	22.5	0.00e+00	0	26	0	180355072	44	5766
2026-01-13 04:18:56.92	215.51	4.80	-35.3	-36.0	22.5	0.00e+00	0	26	0	185597952	44	5746
2026-01-13 04:18:57.93	215.60	4.86	-35.2	-35.9	22.6	0.00e+00	0	26	0	191889408	44	5661
2026-01-13 04:18:58.94	215.69	4.92	-35.1	-35.8	22.7	0.00e+00	0	26	0	197132288	44	5609
2026-01-13 04:18:59.95	215.78	4.97	-35.3	-36.1	22.4	0.00e+00	0	26	0	202375168	44	5766
2026-01-13 04:19:00.95	215.87	5.03	-35.1	-35.8	22.8	0.00e+00	0	26	0	208666624	44	5615
2026-01-13 04:19:01.96	215.96	5.09	-35.1	-35.8	22.8	0.00e+00	0	26	0	213909504	44	5621
2026-01-13 04:19:02.97	216.05	5.15	-35.0	-35.8	22.9	0.00e+00	0	27	0	219152384	44	5567
2026-01-13 04:19:03.97	216.14	5.21	-35.0	-35.7	22.9	0.00e+00	0	26	0	225443840	44	5535
2026-01-13 04:19:04.98	216.23	5.27	-34.9	-35.7	23.0	0.00e+00	0	27	0	230686720	44	5509
2026-01-13 04:19:05.99	216.32	5.33	-35.0	-35.8	22.8	0.00e+00	0	26	0	236978176	44	5584
2026-01-13 04:19:07.00	216.41	5.39	-35.1	-35.9	22.8	0.00e+00	0	26	0	242221056	44	5633
2026-01-13 04:19:08.01	216.50	5.45	-35.2	-36.0	22.8	0.00e+00	0	26	0	247463936	44	5696
2026-01-13 04:19:09.02	216.60	5.51	-35.2	-35.9	22.7	0.00e+00	0	26	0	253755392	44	5695
2026-01-13 04:19:10.03	216.69	5.57	-35.4	-36.1	22.6	0.00e+00	0	26	0	258998272	44	5826
2026-01-13 04:19:11.04	216.78	5.63	-35.1	-35.9	22.8	0.00e+00	0	27	0	265289728	44	5664
2026-01-13 04:19:12.05	216.87	5.69	-35.2	-35.9	22.8	0.00e+00	0	27	0	270532608	44	5670
2026-01-13 04:19:13.06	216.97	5.75	-35.0	-35.8	22.9	0.00e+00	0	26	0	276824064	44	5599
2026-01-13 04:19:14.07	217.06	5.80	-35.2	-36.0	22.7	0.00e+00	0	27	0	282066944	44	5696
2026-01-13 04:19:15.08	217.16	5.86	-35.0	-35.7	23.0	0.00e+00	0	26	0	288358400	44	5536
2026-01-13 04:19:16.09	217.25	5.92	-35.0	-35.8	23.0	0.00e+00	0	26	0	293601280	44	5586
2026-01-13 04:19:17.10	217.35	5.98	-35.0	-35.7	23.0	0.00e+00	0	27	0	298844160	44	5562
2026-01-13 04:19:18.11	217.44	6.05	-34.9	-35.7	23.1	0.00e+00	0	27	0	305135616	44	5512
2026-01-13 04:19:19.12	217.54	6.11	-35.0	-35.7	23.1	0.00e+00	0	27	0	310378496	44	5544
2026-01-13 04:19:20.13	217.63	6.17	-34.8	-35.5	23.2	0.00e+00	0	27	0	316669952	42	6095
2026-01-13 04:19:21.14	217.73	6.23	-34.8	-35.5	23.3	0.00e+00	0	27	0	321912832	42	6065
2026-01-13 04:19:22.15	217.83	6.29	-34.7	-35.5	23.3	0.00e+00	0	27	0	327155712	42	6040
2026-01-13 04:19:23.16	217.93	6.35	-34.7	-35.4	23.4	0.00e+00	0	27	0	333447168	42	5997
2026-01-13 04:19:24.17	218.02	6.41	-34.7	-35.5	23.3	0.00e+00	0	27	0	338690048	42	6042
2026-01-13 04:19:25.18	218.12	6.47	-34.8	-35.5	23.3	0.00e+00	0	27	0	343932928	42	6089
2026-01-13 04:19:26.18	218.22	6.53	-34.9	-35.6	23.2	0.00e+00	0	26	0	350224384	42	6168
2026-01-13 04:19:27.19	218.32	6.59	-34.8	-35.5	23.3	0.00e+00	0	27	0	355467264	42	6075
2026-01-13 04:19:28.20	218.42	6.65	-34.7	-35.4	23.4	0.00e+00	0	27	0	361758720	42	6019
2026-01-13 04:19:29.21	218.52	6.71	-34.6	-35.4	23.4	0.00e+00	0	27	0	367001600	42	6001
2026-01-13 04:19:30.22	218.62	6.77	-34.6	-35.3	23.5	0.00e+00	0	27	0	373293056	42	5948
2026-01-13 04:19:31.23	218.72	6.83	-34.7	-35.4	23.4	0.00e+00	0	27	0	378535936	42	6027
2026-01-13 04:19:32.24	218.82	6.89	-34.5	-35.3	23.6	0.00e+00	0	26	0	384827392	42	5914
2026-01-13 04:19:33.25	218.92	6.96	-34.5	-35.3	23.5	0.00e+00	0	27	0	390070272	42	5908
2026-01-13 04:19:34.25	219.02	7.02	-34.5	-35.2	23.6	0.00e+00	0	27	0	395313152	42	5894
2026-01-13 04:19:35.26	219.12	7.08	-34.5	-35.3	23.6	0.00e+00	0	27	0	401604608	42	5902
2026-01-13 04:19:36.27	219.23	7.14	-34.5	-35.3	23.6	0.00e+00	0	27	0	406847488	42	5909
2026-01-13 04:19:37.28	219.33	7.20	-34.6	-35.3	23.6	0.00e+00	0	26	0	413138944	42	5961
2026-01-13 04:19:38.29	219.43	7.26	-34.7	-35.4	23.5	0.00e+00	0	27	0	418381824	42	6011
2026-01-13 04:19:39.30	219.54	7.32	-34.6	-35.4	23.4	0.00e+00	0	27	0	423624704	42	5972
2026-01-13 04:19:40.31	219.64	7.39	-34.7	-35.5	23.4	0.00e+00	0	27	0	429916160	42	6036
2026-01-13 04:19:41.32	219.75	7.45	-34.7	-35.5	23.4	0.00e+00	0	27	0	435159040	42	6061
2026-01-13 04:19:42.33	219.85	7.51	-34.8	-35.6	23.3	0.00e+00	0	27	0	441450496	42	6105
2026-01-13 04:19:43.34	219.96	7.57	-34.8	-35.5	23.4	0.00e+00	0	27	0	446693376	42	6083
2026-01-13 04:19:44.35	220.06	7.63	-34.7	-35.5	23.4	0.00e+00	0	27	0	451936256	42	6038
2026-01-13 04:19:45.37	220.17	7.70	-34.7	-35.5	23.5	0.00e+00	0	27	0	458227712	42	6043
2026-01-13 04:19:46.37	220.28	7.76	-34.6	-35.4	23.5	0.00e+00	0	27	0	463470592	42	6004
2026-01-13 04:19:47.38	220.38	7.82	-34.6	-35.3	23.6	0.00e+00	0	27	0	469762048	42	5924
2026-01-13 04:19:48.39	220.49	7.88	-34.5	-35.2	23.7	0.00e+00	0	27	0	475004928	42	5890
2026-01-13 04:19:49.40	220.60	7.95	-34.5	-35.2	23.7	0.00e+00	0	27	0	481296384	42	5854
2026-01-13 04:19:50.41	220.71	8.01	-34.5	-35.2	23.7	0.00e+00	0	27	0	486539264	42	5888
2026-01-13 04:19:51.42	220.82	8.07	-34.5	-35.2	23.6	0.00e+00	0	27	0	491782144	42	5896
2026-01-13 04:19:52.43	220.93	8.13	-34.5	-35.2	23.7	0.00e+00	0	27	0	498073600	42	5862
2026-01-13 04:19:53.44	221.04	8.20	-34.5	-35.2	23.7	0.00e+00	0	27	0	503316480	42	5860
2026-01-13 04:19:54.45	221.15	8.26	-34.5	-35.2	23.7	0.00e+00	0	27	0	509607936	42	5840
2026-01-13 04:19:55.46	221.26	8.32	-34.6	-35.3	23.6	0.00e+00	0	27	0	514850816	42	5923
2026-01-13 04:19:56.47	221.37	8.38	-34.4	-35.2	23.7	0.00e+00	0	27	0	520093696	42	5844
2026-01-13 04:19:57.48	221.48	8.45	-34.5	-35.2	23.7	0.00e+00	0	27	0	526385152	42	5896
2026-01-13 04:19:58.49	221.59	8.51	-34.4	-35.2	23.7	0.00e+00	0	27	0	531628032	42	5850
2026-01-13 04:19:59.50	221.71	8.57	-34.6	-35.3	23.6	0.00e+00	0	27	0	537919488	42	5919
2026-01-13 04:20:00.51	221.82	8.64	-34.4	-35.2	23.8	0.00e+00	0	27	0	543162368	42	5831
2026-01-13 04:20:01.52	221.93	8.70	-34.5	-35.2	23.7	0.00e+00	0	27	0	548405248	42	5864
2026-01-13 04:20:02.53	222.05	8.76	-34.3	-35.1	23.9	0.00e+00	0	27	0	554696704	42	5767
2026-01-13 04:20:03.53	222.16	8.82	-34.4	-35.2	23.7	0.00e+00	0	27	0	559939584	42	5853
2026-01-13 04:20:04.54	222.28	8.89	-34.5	-35.2	23.7	0.00e+00	0	27	0	566231040	42	5879
2026-01-13 04:20:05.55	222.39	8.95	-34.1	-34.8	24.0	0.00e+00	0	27	0	571473920	42	5621
2026-01-13 04:20:06.56	222.51	9.02	-34.1	-34.8	24.0	0.00e+00	0	27	0	577765376	42	5578
2026-01-13 04:20:07.57	222.63	9.08	-34.2	-34.9	23.9	0.00e+00	0	27	0	583008256	42	5675
2026-01-13 04:20:08.58	222.74	9.14	-34.1	-34.9	24.1	0.00e+00	0	27	0	589299712	42	5642
2026-01-13 04:20:09.59	222.86	9.21	-34.0	-34.6	24.2	0.00e+00	0	27	0	594542592	42	5496
2026-01-13 04:20:10.60	222.98	9.27	-34.0	-34.7	24.2	0.00e+00	0	27	0	599785472	42	5548
2026-01-13 04:20:11.61	223.10	9.33	-34.1	-34.8	24.1	0.00e+00	0	27	0	606076928	42	5590
2026-01-13 04:20:12.62	223.22	9.40	-34.1	-34.8	24.1	0.00e+00	0	27	0	611319808	42	5629
2026-01-13 04:20:13.63	223.34	9.46	-34.1	-34.8	24.1	0.00e+00	0	27	0	617611264	42	5630
2026-01-13 04:20:14.64	223.46	9.53	-34.2	-34.9	24.0	0.00e+00	0	27	0	622854144	42	5681
2026-01-13 04:20:15.65	223.58	9.59	-34.3	-35.1	23.9	0.00e+00	0	27	0	628097024	42	5763
2026-01-13 04:20:16.66	223.70	9.65	-34.2	-34.9	24.0	0.00e+00	0	27	0	634388480	42	5669
2026-01-13 04:20:17.67	223.82	9.72	-34.2	-34.9	24.0	0.00e+00	0	27	0	639631360	42	5654
2026-01-13 04:20:18.68	223.94	9.78	-34.0	-34.8	24.1	0.00e+00	0	27	0	645922816	42	5570
2026-01-13 04:20:19.69	224.07	9.85	-34.1	-34.9	24.0	0.00e+00	0	27	0	651165696	42	5636
2026-01-13 04:20:20.70	224.19	9.91	-33.9	-34.6	24.2	0.00e+00	0	27	0	656408576	42	5499
2026-01-13 04:20:21.71	224.31	9.97	-33.9	-34.6	24.2	0.00e+00	0	27	0	662700032	42	5489
2026-01-13 04:20:22.72	224.44	10.04	-34.0	-34.7	24.3	0.00e+00	0	27	0	667942912	42	5503
2026-01-13 04:20:23.73	224.56	10.10	-34.2	-34.9	24.1	0.00e+00	0	27	0	674234368	42	5676
2026-01-13 04:20:24.74	224.69	10.17	-34.3	-34.9	24.0	0.00e+00	0	27	0	679477248	42	5690
2026-01-13 04:20:25.74	224.81	10.23	-34.2	-34.9	24.0	0.00e+00	0	27	0	685768704	42	5651
2026-01-13 04:20:26.75	224.94	10.30	-34.0	-34.7	24.2	0.00e+00	0	27	0	691011584	42	5510
2026-01-13 04:20:27.76	225.06	10.36	-34.1	-34.8	24.3	0.00e+00	0	27	0	696254464	42	5584
2026-01-13 04:20:28.77	225.19	10.43	-34.1	-34.8	24.2	0.00e+00	0	27	0	702545920	42	5588
2026-01-13 04:20:29.78	225.32	10.49	-34.0	-34.6	24.3	0.00e+00	0	27	0	707788800	42	5501
2026-01-13 04:20:30.79	225.45	10.56	-34.1	-34.8	24.2	0.00e+00	0	27	0	714080256	42	5630
2026-01-13 04:20:31.80	225.58	10.62	-34.0	-34.7	24.2	0.00e+00	0	27	0	719323136	42	5522
2026-01-13 04:20:32.81	225.71	10.68	-34.1	-34.8	24.2	0.00e+00	0	27	0	724566016	42	5583
2026-01-13 04:20:33.82	225.84	10.75	-34.1	-34.8	24.1	0.00e+00	0	27	0	730857472	42	5627
2026-01-13 04:20:34.83	225.97	10.81	-34.1	-34.8	24.1	0.00e+00	0	27	0	736100352	42	5619
2026-01-13 04:20:35.84	226.10	10.88	-34.1	-34.8	24.1	0.00e+00	0	27	0	742391808	42	5601
2026-01-13 04:20:36.85	226.23	10.94	-34.3	-35.0	24.0	0.00e+00	0	27	0	747634688	42	5725
2026-01-13 04:20:37.86	226.36	11.01	-34.2	-34.9	24.0	0.00e+00	0	27	0	752877568	42	5682
2026-01-13 04:20:38.87	226.50	11.07	-34.2	-34.9	24.0	0.00e+00	0	27	0	759169024	42	5673
2026-01-13 04:20:39.88	226.63	11.14	-34.3	-35.0	23.9	0.00e+00	0	27	0	764411904	42	5721
2026-01-13 04:20:40.89	226.76	11.21	-34.4	-35.1	23.9	0.00e+00	0	27	0	770703360	42	5793
2026-01-13 04:20:41.89	226.90	11.27	-34.1	-34.8	24.1	0.00e+00	0	27	0	775946240	42	5618
2026-01-13 04:20:42.90	227.03	11.33	-34.2	-34.9	24.0	0.00e+00	0	27	0	782237696	42	5691
2026-01-13 04:20:43.92	227.17	11.40	-34.2	-35.0	24.1	0.00e+00	0	27	0	787480576	42	5709
2026-01-13 04:20:44.92	227.31	11.47	-33.9	-34.7	24.4	0.00e+00	0	27	0	792723456	42	5505
2026-01-13 04:20:45.93	227.44	11.53	-33.9	-34.6	24.3	0.00e+00	0	27	0	799014912	42	5477
2026-01-13 04:20:46.95	227.58	11.60	-33.9	-34.6	24.3	0.00e+00	0	27	0	804257792	42	5494
2026-01-13 04:20:47.95	227.72	11.66	-33.9	-34.6	24.4	0.00e+00	0	27	0	810549248	42	5488
2026-01-13 04:20:48.96	227.86	11.73	-34.0	-34.7	24.3	0.00e+00	0	27	0	815792128	42	5564
2026-01-13 04:20:49.97	228.00	11.79	-33.9	-34.6	24.4	0.00e+00	0	27	0	821035008	42	5485
2026-01-13 04:20:50.98	228.14	11.86	-34.0	-34.7	24.3	0.00e+00	0	27	0	827326464	42	5522
2026-01-13 04:20:51.99	228.28	11.92	-34.1	-34.8	24.2	0.00e+00	0	27	0	832569344	42	5590
2026-01-13 04:20:53.00	228.42	11.99	-34.0	-34.7	24.4	0.00e+00	0	27	0	838860800	42	5540
2026-01-13 04:20:54.01	228.56	12.05	-34.0	-34.7	24.3	0.00e+00	0	27	0	844103680	42	5551
2026-01-13 04:20:55.02	228.70	12.12	-34.1	-34.8	24.3	0.00e+00	0	27	0	849346560	42	5587
2026-01-13 04:20:56.03	228.85	12.19	-34.1	-34.8	24.3	0.00e+00	0	27	0	855638016	42	5570
2026-01-13 04:20:57.04	228.99	12.25	-34.1	-34.8	24.1	0.00e+00	0	27	0	860880896	42	5609
2026-01-13 04:20:58.05	229.14	12.32	-34.3	-34.9	24.1	0.00e+00	0	27	0	867172352	42	5692
2026-01-13 04:20:59.06	229.28	12.38	-34.1	-34.8	24.3	0.00e+00	0	27	0	872415232	42	5622
2026-01-13 04:21:00.07	229.43	12.45	-33.9	-34.5	24.4	0.00e+00	0	27	0	878706688	42	5432
2026-01-13 04:21:01.08	229.57	12.51	-33.7	-34.4	24.6	0.00e+00	0	27	0	883949568	40	5984
2026-01-13 04:21:02.09	229.72	12.58	-33.6	-34.3	24.7	0.00e+00	0	27	0	890241024	40	5927
2026-01-13 04:21:03.10	229.87	12.65	-33.6	-34.3	24.7	0.00e+00	0	27	0	895483904	40	5942
2026-01-13 04:21:04.11	230.01	12.71	-33.6	-34.2	24.7	0.00e+00	0	27	0	900726784	40	5892
2026-01-13 04:21:05.12	230.16	12.78	-33.6	-34.3	24.6	0.00e+00	0	27	0	907018240	40	5897
2026-01-13 04:21:06.13	230.31	12.84	-33.5	-34.2	24.8	0.00e+00	0	27	0	912261120	40	5847
2026-01-13 04:21:07.14	230.46	12.91	-33.5	-34.2	24.8	0.00e+00	0	27	0	918552576	40	5852
2026-01-13 04:21:08.15	230.61	12.97	-33.4	-34.1	24.9	0.00e+00	0	27	0	923795456	40	5772
2026-01-13 04:21:09.16	230.76	13.04	-33.4	-34.1	24.8	0.00e+00	0	27	0	929038336	40	5797
2026-01-13 04:21:10.17	230.92	13.10	-33.6	-34.3	24.7	0.00e+00	0	27	0	935329792	40	5938
2026-01-13 04:21:11.18	231.07	13.17	-33.6	-34.3	24.7	0.00e+00	0	27	0	940572672	40	5907
2026-01-13 04:21:12.19	231.22	13.24	-33.5	-34.2	24.7	0.00e+00	0	27	0	946864128	40	5857
2026-01-13 04:21:13.20	231.38	13.30	-33.8	-34.4	24.5	0.00e+00	0	27	0	952107008	40	6028
2026-01-13 04:21:14.21	231.53	13.37	-33.5	-34.1	24.7	0.00e+00	0	27	0	957349888	40	5827
2026-01-13 04:21:15.22	231.69	13.43	-33.5	-34.2	24.7	0.00e+00	0	27	0	963641344	40	5842
2026-01-13 04:21:16.23	231.84	13.50	-33.5	-34.2	24.7	0.00e+00	0	27	0	968884224	40	5845
2026-01-13 04:21:17.24	232.00	13.56	-33.5	-34.2	24.7	0.00e+00	0	27	0	975175680	40	5839
2026-01-13 04:21:18.25	232.16	13.63	-33.6	-34.2	24.7	0.00e+00	0	27	0	980418560	40	5885
2026-01-13 04:21:19.26	232.31	13.70	-33.4	-34.1	24.9	0.00e+00	0	27	0	986710016	40	5788
2026-01-13 04:21:20.27	232.47	13.76	-33.5	-34.2	24.8	0.00e+00	0	27	0	991952896	40	5863
2026-01-13 04:21:21.28	232.63	13.83	-33.3	-34.0	24.9	0.00e+00	0	27	0	997195776	40	5740
2026-01-13 04:21:22.29	232.79	13.89	-33.4	-34.1	24.8	0.00e+00	0	27	0	1003487232	40	5814
2026-01-13 04:21:23.30	232.95	13.96	-33.2	-33.9	25.0	0.00e+00	0	27	0	1008730112	40	5692
2026-01-13 04:21:24.30	233.11	14.02	-33.3	-34.0	24.9	0.00e+00	0	27	0	1015021568	40	5739
2026-01-13 04:21:25.32	233.28	14.09	-33.3	-34.0	24.9	0.00e+00	0	27	0	1020264448	40	5725
2026-01-13 04:21:26.33	233.44	14.15	-33.3	-34.0	25.0	0.00e+00	0	27	0	1025507328	40	5699
2026-01-13 04:21:27.33	233.60	14.22	-33.3	-33.9	25.0	0.00e+00	0	27	0	1031798784	40	5676
2026-01-13 04:21:28.34	233.77	14.28	-33.2	-33.9	25.0	0.00e+00	0	27	0	1037041664	40	5655
2026-01-13 04:21:29.35	233.93	14.35	-33.2	-33.9	25.0	0.00e+00	0	27	0	1043333120	40	5668
2026-01-13 04:21:30.36	234.10	14.41	-33.2	-33.9	25.0	0.00e+00	0	27	0	1048576000	40	5679
2026-01-13 04:21:31.37	234.26	14.48	-32.9	-33.6	25.3	0.00e+00	0	27	0	1053818880	40	5443
2026-01-13 04:21:32.38	234.43	14.54	-32.9	-33.5	25.4	0.00e+00	0	27	0	1060110336	40	5419
2026-01-13 04:21:33.39	234.60	14.61	-32.8	-33.4	25.4	0.00e+00	0	27	0	1065353216	40	5356
2026-01-13 04:21:34.40	234.77	14.67	-32.7	-33.4	25.5	0.00e+00	0	27	0	1071644672	38	5995
2026-01-13 04:21:35.41	234.93	14.74	-32.8	-33.5	25.5	0.00e+00	0	27	0	1076887552	38	6048
2026-01-13 04:21:36.42	235.10	14.80	-32.9	-33.5	25.4	0.00e+00	0	27	0	1083179008	38	6078
2026-01-13 04:21:37.43	235.27	14.87	-33.0	-33.6	25.3	0.00e+00	0	27	0	1088421888	38	6147
2026-01-13 04:21:38.44	235.45	14.93	-32.8	-33.4	25.5	0.00e+00	0	27	0	1094713344	38	6026
2026-01-13 04:21:39.45	235.62	15.00	-32.9	-33.6	25.3	0.00e+00	0	27	0	1099956224	38	6132
2026-01-13 04:21:40.46	235.79	15.06	-32.7	-33.3	25.5	0.00e+00	0	27	0	1105199104	38	5947
2026-01-13 04:21:41.47	235.96	15.13	-32.8	-33.5	25.4	0.00e+00	0	27	0	1111490560	38	6039
2026-01-13 04:21:42.48	236.14	15.19	-32.6	-33.3	25.6	0.00e+00	0	27	0	1116733440	38	5899
2026-01-13 04:21:43.49	236.31	15.26	-32.6	-33.3	25.6	0.00e+00	0	27	0	1123024896	38	5952
2026-01-13 04:21:44.50	236.49	15.32	-32.7	-33.3	25.7	0.00e+00	0	27	0	1128267776	38	5940
2026-01-13 04:21:45.51	236.67	15.38	-32.7	-33.3	25.6	0.00e+00	0	27	0	1133510656	38	5951
2026-01-13 04:21:46.52	236.84	15.45	-32.7	-33.4	25.6	0.00e+00	0	27	0	1139802112	38	6000
2026-01-13 04:21:47.53	237.02	15.51	-32.5	-33.1	25.8	0.00e+00	0	27	0	1145044992	38	5804
2026-01-13 04:21:48.54	237.20	15.58	-32.3	-32.9	25.9	0.00e+00	0	27	0	1151336448	38	5689
2026-01-13 04:21:49.55	237.38	15.64	-32.4	-33.0	25.8	0.00e+00	0	27	0	1156579328	38	5759
2026-01-13 04:21:50.55	237.56	15.70	-32.3	-33.0	25.9	0.00e+00	0	27	0	1161822208	38	5703
2026-01-13 04:21:51.56	237.74	15.77	-32.1	-32.8	26.0	0.00e+00	0	27	0	1168113664	38	5578
2026-01-13 04:21:52.57	237.92	15.83	-32.1	-32.8	26.1	0.00e+00	0	27	0	1173356544	38	5568
2026-01-13 04:21:53.58	238.10	15.89	-32.3	-32.9	26.0	0.00e+00	0	27	0	1179648000	38	5652
2026-01-13 04:21:54.59	238.28	15.96	-32.3	-33.0	25.9	0.00e+00	0	27	0	1184890880	38	5725
2026-01-13 04:21:55.60	238.47	16.02	-32.4	-33.0	25.9	0.00e+00	0	27	0	1191182336	38	5748
2026-01-13 04:21:56.61	238.65	16.08	-32.4	-33.0	25.9	0.00e+00	0	27	0	1196425216	38	5748
2026-01-13 04:21:57.62	238.84	16.15	-32.4	-33.0	25.8	0.00e+00	0	27	0	1201668096	38	5742
2026-01-13 04:21:58.63	239.02	16.21	-32.1	-32.8	26.1	0.00e+00	0	27	0	1207959552	38	5587
2026-01-13 04:21:59.64	239.21	16.27	-32.2	-32.8	26.1	0.00e+00	0	27	0	1213202432	38	5619
2026-01-13 04:22:00.65	239.40	16.34	-31.9	-32.5	26.3	0.00e+00	0	27	0	1219493888	38	5391
2026-01-13 04:22:01.66	239.59	16.40	-31.9	-32.5	26.3	0.00e+00	0	27	0	1224736768	38	5409
2026-01-13 04:22:02.67	239.78	16.46	-31.9	-32.5	26.3	0.00e+00	0	27	0	1229979648	38	5401
2026-01-13 04:22:03.68	239.97	16.52	-31.8	-32.5	26.4	0.00e+00	0	27	0	1236271104	36	6041
2026-01-13 04:22:04.69	240.16	16.59	-31.7	-32.3	26.5	0.00e+00	0	27	0	1241513984	36	5925
2026-01-13 04:22:05.70	240.35	16.65	-31.7	-32.3	26.4	0.00e+00	0	27	0	1247805440	36	5928
2026-01-13 04:22:06.70	240.54	16.71	-31.7	-32.4	26.4	0.00e+00	0	27	0	1253048320	36	5995
2026-01-13 04:22:07.71	240.73	16.77	-31.6	-32.2	26.5	0.00e+00	0	27	0	1258291200	36	5896
2026-01-13 04:22:08.72	240.92	16.83	-31.6	-32.2	26.6	0.00e+00	0	27	0	1264582656	36	5872
2026-01-13 04:22:09.73	241.12	16.89	-31.7	-32.3	26.5	0.00e+00	0	27	0	1269825536	36	5956
2026-01-13 04:22:10.74	241.31	16.95	-31.7	-32.4	26.4	0.00e+00	0	27	0	1276116992	36	5966
2026-01-13 04:22:11.75	241.51	17.02	-31.7	-32.4	26.4	0.00e+00	0	27	0	1281359872	36	5986
2026-01-13 04:22:12.76	241.71	17.08	-31.8	-32.4	26.4	0.00e+00	0	27	0	1287651328	36	6012
2026-01-13 04:22:13.77	241.90	17.14	-31.8	-32.5	26.4	0.00e+00	0	27	0	1292894208	36	6048
2026-01-13 04:22:14.78	242.10	17.20	-31.8	-32.4	26.4	0.00e+00	0	27	0	1299185664	36	6015
2026-01-13 04:22:15.79	242.30	17.26	-31.9	-32.5	26.3	0.00e+00	0	27	0	1304428544	36	6076
2026-01-13 04:22:16.80	242.50	17.32	-31.8	-32.5	26.3	0.00e+00	0	27	0	1309671424	36	6056
2026-01-13 04:22:17.81	242.70	17.38	-31.8	-32.5	26.3	0.00e+00	0	27	0	1315962880	36	6059
2026-01-13 04:22:18.82	242.90	17.44	-31.8	-32.5	26.3	0.00e+00	0	27	0	1321205760	36	6040
2026-01-13 04:22:19.83	243.11	17.50	-31.9	-32.5	26.3	0.00e+00	0	27	0	1327497216	36	6068
2026-01-13 04:22:20.84	243.31	17.56	-31.7	-32.3	26.5	0.00e+00	0	27	0	1332740096	36	5928
2026-01-13 04:22:21.85	243.51	17.62	-31.7	-32.3	26.4	0.00e+00	0	27	0	1337982976	36	5957
2026-01-13 04:22:22.86	243.72	17.67	-31.7	-32.3	26.4	0.00e+00	0	27	0	1344274432	36	5953
2026-01-13 04:22:23.87	243.92	17.73	-31.5	-32.1	26.5	0.00e+00	0	27	0	1349517312	36	5801
2026-01-13 04:22:24.88	244.13	17.79	-31.5	-32.1	26.5	0.00e+00	0	27	0	1355808768	36	5819
2026-01-13 04:22:25.89	244.34	17.85	-31.5	-32.1	26.6	0.00e+00	0	27	0	1361051648	36	5774
2026-01-13 04:22:26.90	244.54	17.91	-31.6	-32.2	26.6	0.00e+00	0	27	0	1366294528	36	5875
2026-01-13 04:22:27.91	244.75	17.97	-31.6	-32.2	26.5	0.00e+00	0	27	0	1372585984	36	5870
2026-01-13 04:22:28.92	244.96	18.02	-31.5	-32.1	26.6	0.00e+00	0	27	0	1377828864	36	5778
2026-01-13 04:22:29.93	245.17	18.08	-31.5	-32.1	26.6	0.00e+00	0	27	0	1384120320	36	5814
2026-01-13 04:22:30.94	245.38	18.14	-31.6	-32.2	26.5	0.00e+00	0	27	0	1389363200	36	5867
2026-01-13 04:22:31.95	245.59	18.20	-31.7	-32.3	26.5	0.00e+00	0	27	0	1395654656	36	5920
2026-01-13 04:22:32.96	245.81	18.25	-31.5	-32.1	26.6	0.00e+00	0	27	0	1400897536	36	5824
2026-01-13 04:22:33.97	246.02	18.31	-31.5	-32.1	26.6	0.00e+00	0	27	0	1406140416	36	5786
2026-01-13 04:22:34.98	246.23	18.37	-31.3	-31.9	26.8	0.00e+00	0	27	0	1412431872	36	5681
2026-01-13 04:22:35.98	246.44	18.42	-31.3	-32.0	26.8	0.00e+00	0	27	0	1417674752	36	5698
2026-01-13 04:22:36.99	246.66	18.48	-31.3	-32.0	26.8	0.00e+00	0	27	0	1423966208	36	5710
2026-01-13 04:22:38.00	246.88	18.53	-31.4	-32.0	26.8	0.00e+00	0	27	0	1429209088	36	5726
2026-01-13 04:22:39.01	247.09	18.59	-31.7	-32.3	26.5	0.00e+00	0	27	0	1434451968	36	5961
2026-01-13 04:22:40.02	247.31	18.64	-31.8	-32.4	26.4	0.00e+00	0	27	0	1440743424	36	6019
2026-01-13 04:22:41.03	247.53	18.70	-31.9	-32.6	26.2	0.00e+00	0	27	0	1445986304	36	6128
2026-01-13 04:22:42.04	247.75	18.75	-31.9	-32.6	26.1	0.00e+00	0	27	0	1452277760	36	6127
2026-01-13 04:22:43.05	247.97	18.80	-31.9	-32.5	26.4	0.00e+00	0	27	0	1457520640	36	6059
2026-01-13 04:22:44.06	248.19	18.86	-31.8	-32.4	26.4	0.00e+00	0	27	0	1462763520	36	6012
2026-01-13 04:22:45.07	248.41	18.91	-31.5	-32.1	26.7	0.00e+00	0	27	0	1469054976	36	5820
2026-01-13 04:22:46.09	248.63	18.97	-31.5	-32.2	26.5	0.00e+00	0	27	0	1474297856	36	5868
2026-01-13 04:22:47.10	248.86	19.02	-31.6	-32.2	26.6	0.00e+00	0	27	0	1480589312	36	5874
2026-01-13 04:22:48.11	249.08	19.07	-31.4	-32.1	26.7	0.00e+00	0	27	0	1485832192	36	5767
2026-01-13 04:22:49.12	249.31	19.12	-31.3	-31.9	26.8	0.00e+00	0	27	0	1492123648	36	5671
2026-01-13 04:22:50.13	249.53	19.17	-31.4	-32.0	26.8	0.00e+00	0	27	0	1497366528	36	5732
2026-01-13 04:22:51.14	249.76	19.23	-31.3	-31.9	26.8	0.00e+00	0	27	0	1503657984	36	5635
2026-01-13 04:22:52.15	249.98	19.28	-31.4	-32.0	26.8	0.00e+00	0	27	0	1508900864	36	5725
2026-01-13 04:22:53.16	250.21	19.33	-31.4	-32.1	26.7	0.00e+00	0	27	0	1514143744	36	5777
2026-01-13 04:22:54.17	250.44	19.38	-31.2	-31.8	26.8	0.00e+00	0	27	0	1520435200	36	5609
2026-01-13 04:22:55.18	250.67	19.43	-31.1	-31.8	26.9	0.00e+00	0	27	0	1525678080	36	5590
2026-01-13 04:22:56.19	250.90	19.48	-31.2	-31.8	26.9	0.00e+00	0	27	0	1531969536	36	5576
2026-01-13 04:22:57.20	251.13	19.53	-31.1	-31.7	26.9	0.00e+00	0	27	0	1537212416	36	5557
2026-01-13 04:22:58.21	251.36	19.58	-31.0	-31.6	27.1	0.00e+00	0	27	0	1542455296	36	5462
2026-01-13 04:22:59.22	251.59	19.63	-30.9	-31.5	27.1	0.00e+00	0	27	0	1548746752	36	5413
2026-01-13 04:23:00.23	251.82	19.67	-30.8	-31.4	27.2	0.00e+00	0	27	0	1553989632	36	5326
2026-01-13 04:23:01.24	252.06	19.72	-30.9	-31.5	27.2	0.00e+00	0	27	0	1560281088	34	6043
2026-01-13 04:23:02.25	252.29	19.77	-30.9	-31.5	27.1	0.00e+00	0	27	0	1565523968	34	6068
2026-01-13 04:23:03.26	252.52	19.82	-30.9	-31.5	27.1	0.00e+00	0	27	0	1570766848	34	6072
2026-01-13 04:23:04.27	252.76	19.86	-30.9	-31.5	27.1	0.00e+00	0	27	0	1577058304	34	6101
2026-01-13 04:23:05.28	253.00	19.91	-31.1	-31.7	27.0	0.00e+00	0	27	0	1582301184	34	6187
2026-01-13 04:23:06.28	253.23	19.96	-31.0	-31.7	27.0	0.00e+00	0	27	0	1588592640	34	6178
2026-01-13 04:23:07.29	253.47	20.00	-31.1	-31.7	27.0	0.00e+00	0	27	0	1593835520	34	6205
2026-01-13 04:23:08.31	253.71	20.05	-31.0	-31.6	27.0	0.00e+00	0	27	0	1600126976	34	6156
2026-01-13 04:23:09.32	253.95	20.09	-31.0	-31.6	27.0	0.00e+00	0	27	0	1605369856	34	6130
2026-01-13 04:23:10.33	254.19	20.14	-30.9	-31.5	27.1	0.00e+00	0	27	0	1610612736	34	6051
2026-01-13 04:23:11.34	254.43	20.18	-31.0	-31.6	27.1	0.00e+00	0	27	0	1616904192	34	6111
2026-01-13 04:23:12.35	254.67	20.23	-31.0	-31.6	27.0	0.00e+00	0	27	0	1622147072	34	6144
2026-01-13 04:23:13.36	254.91	20.27	-31.3	-31.9	26.7	0.00e+00	0	27	0	1628438528	34	6344
2026-01-13 04:23:14.37	255.15	20.31	-31.4	-32.0	26.8	0.00e+00	0	27	0	1633681408	34	6412
2026-01-13 04:23:15.37	255.39	20.35	-31.1	-31.7	26.9	0.00e+00	0	27	0	1638924288	34	6236
2026-01-13 04:23:16.39	255.64	20.40	-31.1	-31.8	26.9	0.00e+00	0	27	0	1645215744	34	6252
2026-01-13 04:23:17.40	255.88	20.44	-31.0	-31.6	27.0	0.00e+00	0	27	0	1650458624	34	6163
2026-01-13 04:23:18.41	256.12	20.48	-31.0	-31.6	27.0	0.00e+00	0	27	0	1656750080	34	6126
2026-01-13 04:23:19.42	256.37	20.52	-30.8	-31.4	27.2	0.00e+00	0	27	0	1661992960	34	6000
2026-01-13 04:23:20.43	256.62	20.56	-30.8	-31.5	27.2	0.00e+00	0	27	0	1668284416	34	6039
2026-01-13 04:23:21.44	256.86	20.60	-30.9	-31.6	27.1	0.00e+00	0	27	0	1673527296	34	6124
2026-01-13 04:23:22.45	257.11	20.64	-30.8	-31.5	27.1	0.00e+00	0	27	0	1678770176	34	6039
2026-01-13 04:23:23.46	257.36	20.68	-30.9	-31.5	27.1	0.00e+00	0	27	0	1685061632	34	6059
2026-01-13 04:23:24.47	257.61	20.71	-30.9	-31.5	27.2	0.00e+00	0	27	0	1690304512	34	6058
2026-01-13 04:23:25.48	257.85	20.75	-30.8	-31.5	27.2	0.00e+00	0	27	0	1696595968	34	6043
2026-01-13 04:23:26.49	258.10	20.79	-30.9	-31.5	27.1	0.00e+00	0	27	0	1701838848	34	6095
2026-01-13 04:23:27.49	258.35	20.83	-31.1	-31.7	27.0	0.00e+00	0	27	0	1708130304	34	6210
2026-01-13 04:23:28.50	258.60	20.86	-30.8	-31.4	27.1	0.00e+00	0	27	0	1713373184	34	6020
2026-01-13 04:23:29.51	258.85	20.90	-30.8	-31.4	27.2	0.00e+00	0	27	0	1718616064	34	5986
2026-01-13 04:23:30.52	259.11	20.93	-30.7	-31.3	27.3	0.00e+00	0	27	0	1724907520	34	5952
2026-01-13 04:23:31.53	259.36	20.97	-30.6	-31.2	27.3	0.00e+00	0	27	0	1730150400	34	5864
2026-01-13 04:23:32.54	259.61	21.00	-30.6	-31.3	27.3	0.00e+00	0	27	0	1736441856	34	5906
2026-01-13 04:23:33.55	259.86	21.04	-30.4	-31.1	27.5	0.00e+00	0	27	0	1741684736	34	5769
2026-01-13 04:23:34.56	260.12	21.07	-30.5	-31.1	27.4	0.00e+00	0	27	0	1746927616	34	5785
2026-01-13 04:23:35.57	260.37	21.10	-30.5	-31.1	27.4	0.00e+00	0	27	0	1753219072	34	5785
2026-01-13 04:23:36.58	260.63	21.13	-30.5	-31.1	27.4	0.00e+00	0	27	0	1758461952	34	5793
2026-01-13 04:23:37.59	260.88	21.17	-30.5	-31.1	27.3	0.00e+00	0	27	0	1764753408	34	5809
2026-01-13 04:23:38.60	261.14	21.20	-30.6	-31.2	27.3	0.00e+00	0	27	0	1769996288	34	5847
2026-01-13 04:23:39.61	261.40	21.23	-30.5	-31.2	27.3	0.00e+00	0	27	0	1775239168	34	5834
2026-01-13 04:23:40.62	261.65	21.26	-30.6	-31.2	27.3	0.00e+00	0	27	0	1781530624	34	5876
2026-01-13 04:23:41.63	261.91	21.29	-30.7	-31.3	27.2	0.00e+00	0	27	0	1786773504	34	5932
2026-01-13 04:23:42.64	262.17	21.32	-30.7	-31.3	27.3	0.00e+00	0	27	0	1793064960	34	5911
2026-01-13 04:23:43.65	262.43	21.35	-30.8	-31.4	27.1	0.00e+00	0	27	0	1798307840	34	6005
2026-01-13 04:23:44.66	262.69	21.37	-30.8	-31.4	27.1	0.00e+00	0	27	0	1804599296	34	5999
2026-01-13 04:23:45.67	262.95	21.40	-30.8	-31.4	27.1	0.00e+00	0	27	0	1809842176	34	6021
2026-01-13 04:23:46.67	263.20	21.43	-30.8	-31.4	27.2	0.00e+00	0	27	0	1815085056	34	6024
2026-01-13 04:23:47.68	263.46	21.45	-30.8	-31.4	27.2	0.00e+00	0	27	0	1821376512	34	5985
2026-01-13 04:23:48.69	263.72	21.48	-30.8	-31.4	27.1	0.00e+00	0	27	0	1826619392	34	6031
2026-01-13 04:23:49.70	263.98	21.50	-30.9	-31.5	27.1	0.00e+00	0	27	0	1832910848	34	6082
2026-01-13 04:23:50.71	264.25	21.53	-30.9	-31.5	27.1	0.00e+00	0	27	0	1838153728	34	6075
2026-01-13 04:23:51.72	264.51	21.55	-30.6	-31.3	27.2	0.00e+00	0	27	0	1843396608	34	5918
2026-01-13 04:23:52.73	264.77	21.58	-30.6	-31.2	27.3	0.00e+00	0	27	0	1849688064	34	5865
2026-01-13 04:23:53.74	265.03	21.60	-30.6	-31.2	27.3	0.00e+00	0	27	0	1854930944	34	5840
2026-01-13 04:23:54.75	265.30	21.62	-30.9	-31.5	27.2	0.00e+00	0	27	0	1861222400	34	6045
2026-01-13 04:23:55.76	265.56	21.64	-30.6	-31.2	27.3	0.00e+00	0	27	0	1866465280	34	5883
2026-01-13 04:23:56.77	265.82	21.66	-30.8	-31.4	27.1	0.00e+00	0	27	0	1871708160	34	6007
2026-01-13 04:23:57.78	266.09	21.68	-30.6	-31.2	27.3	0.00e+00	0	27	0	1877999616	34	5857
2026-01-13 04:23:58.79	266.35	21.70	-30.6	-31.2	27.4	0.00e+00	0	27	0	1883242496	34	5850
2026-01-13 04:23:59.80	266.62	21.72	-30.4	-31.0	27.5	0.00e+00	0	27	0	1889533952	34	5697
2026-01-13 04:24:00.81	266.88	21.74	-30.3	-31.0	27.5	0.00e+00	0	27	0	1894776832	34	5706
2026-01-13 04:24:01.82	267.15	21.76	-30.6	-31.2	27.4	0.00e+00	0	27	0	1901068288	34	5868
2026-01-13 04:24:02.83	267.41	21.78	-30.5	-31.1	27.5	0.00e+00	0	27	0	1906311168	34	5815
2026-01-13 04:24:03.83	267.68	21.79	-30.4	-31.0	27.4	0.00e+00	0	27	0	1912602624	34	5743
2026-01-13 04:24:04.84	267.94	21.81	-30.6	-31.2	27.4	0.00e+00	0	27	0	1917845504	34	5830
2026-01-13 04:24:05.85	268.21	21.83	-30.6	-31.2	27.3	0.00e+00	0	27	0	1923088384	34	5874
2026-01-13 04:24:06.86	268.47	21.84	-30.4	-31.1	27.4	0.00e+00	0	27	0	1929379840	34	5766
2026-01-13 04:24:07.87	268.74	21.86	-30.3	-31.0	27.5	0.00e+00	0	27	0	1934622720	34	5719
2026-01-13 04:24:08.88	269.01	21.87	-30.2	-30.9	27.6	0.00e+00	0	27	0	1940914176	34	5638
2026-01-13 04:24:09.89	269.28	21.88	-30.2	-30.8	27.6	0.00e+00	0	27	0	1946157056	34	5620
2026-01-13 04:24:10.90	269.54	21.89	-30.4	-31.0	27.4	0.00e+00	0	27	0	1951399936	34	5727
2026-01-13 04:24:11.91	269.81	21.91	-30.4	-31.0	27.5	0.00e+00	0	27	0	1957691392	34	5756
2026-01-13 04:24:12.92	270.08	21.92	-30.5	-31.1	27.4	0.00e+00	0	27	0	1962934272	34	5779
2026-01-13 04:24:13.93	270.35	21.93	-30.4	-31.0	27.5	0.00e+00	0	27	0	1969225728	34	5755
2026-01-13 04:24:14.94	270.62	21.94	-30.4	-31.0	27.4	0.00e+00	0	27	0	1974468608	34	5761
2026-01-13 04:24:15.95	270.88	21.95	-30.3	-30.9	27.5	0.00e+00	0	27	0	1979711488	34	5674
2026-01-13 04:24:16.96	271.15	21.96	-30.3	-30.9	27.6	0.00e+00	0	27	0	1986002944	34	5643
2026-01-13 04:24:17.97	271.42	21.96	-30.2	-30.8	27.6	0.00e+00	0	27	0	1991245824	34	5627
2026-01-13 04:24:18.98	271.69	21.97	-30.3	-30.9	27.5	0.00e+00	0	27	0	1997537280	34	5692
2026-01-13 04:24:19.99	271.96	21.98	-30.3	-31.0	27.5	0.00e+00	0	27	0	2002780160	34	5699
2026-01-13 04:24:21.00	272.23	21.99	-30.5	-31.1	27.4	0.00e+00	0	27	0	2009071616	34	5804
2026-01-13 04:24:22.01	272.50	21.99	-30.5	-31.2	27.3	0.00e+00	0	27	0	2014314496	34	5848
2026-01-13 04:24:23.02	272.77	22.00	-30.6	-31.2	27.4	0.00e+00	0	27	0	2019557376	34	5843
2026-01-13 04:24:24.03	273.04	22.00	-30.4	-30.9	27.5	0.00e+00	0	27	0	2025848832	34	5695
2026-01-13 04:24:25.04	273.31	22.00	-30.4	-31.0	27.5	0.00e+00	0	27	0	2031091712	34	5717
2026-01-13 04:24:26.05	273.58	22.01	-30.3	-31.0	27.5	0.00e+00	0	27	0	2037383168	34	5725
2026-01-13 04:24:27.06	273.85	22.01	-30.4	-31.0	27.5	0.00e+00	0	27	0	2042626048	34	5751
2026-01-13 04:24:28.07	274.11	22.01	-30.4	-31.1	27.5	0.00e+00	0	27	0	2047868928	34	5771
2026-01-13 04:24:29.08	274.38	22.01	-30.4	-31.0	27.5	0.00e+00	0	27	0	2054160384	34	5746
2026-01-13 04:24:30.09	274.65	22.01	-30.5	-31.1	27.4	0.00e+00	0	27	0	2059403264	34	5782
2026-01-13 04:24:31.10	274.92	22.01	-30.5	-31.0	27.4	0.00e+00	0	27	0	2065694720	34	5759
2026-01-13 04:24:32.11	275.19	22.01	-30.6	-31.2	27.3	0.00e+00	0	27	0	2070937600	34	5864
2026-01-13 04:24:33.12	275.46	22.01	-30.4	-31.0	27.5	0.00e+00	0	27	0	2076180480	34	5709
2026-01-13 04:24:34.13	275.73	22.01	-30.4	-31.0	27.5	0.00e+00	0	27	0	2082471936	34	5715
2026-01-13 04:24:35.14	276.00	22.01	-30.3	-31.0	27.5	0.00e+00	0	27	0	2087714816	34	5716
2026-01-13 04:24:36.15	276.27	22.00	-30.2	-30.8	27.5	0.00e+00	0	27	0	2094006272	34	5600
2026-01-13 04:24:37.16	276.54	22.00	-30.4	-31.0	27.4	0.00e+00	0	27	0	2099249152	34	5729
2026-01-13 04:24:38.16	276.81	21.99	-30.3	-30.9	27.4	0.00e+00	0	27	0	2105540608	34	5675
2026-01-13 04:24:39.17	277.08	21.99	-30.4	-31.0	27.3	0.00e+00	0	27	0	2110783488	34	5724
2026-01-13 04:24:40.18	277.35	21.98	-30.5	-31.0	27.2	0.00e+00	0	27	0	2117074944	34	5760
2026-01-13 04:24:41.19	277.61	21.98	-30.3	-31.0	27.4	0.00e+00	0	27	0	2122317824	34	5700
2026-01-13 04:24:42.20	277.88	21.97	-30.4	-31.0	27.3	0.00e+00	0	27	0	2127560704	34	5750
2026-01-13 04:24:43.21	278.15	21.96	-30.4	-31.0	27.3	0.00e+00	0	27	0	2133852160	34	5723
2026-01-13 04:24:44.22	278.42	21.95	-30.6	-31.3	27.2	0.00e+00	0	27	0	2139095040	34	5919
2026-01-13 04:24:45.23	278.69	21.94	-30.5	-31.2	27.2	0.00e+00	0	27	0	2145386496	34	5868
2026-01-13 04:24:46.24	278.96	21.93	-30.5	-31.2	27.3	0.00e+00	0	27	0	2150629376	34	5863
2026-01-13 04:24:47.25	279.23	21.92	-30.5	-31.1	27.4	0.00e+00	0	27	0	2155872256	34	5766
2026-01-13 04:24:48.26	279.49	21.91	-30.5	-31.1	27.3	0.00e+00	0	27	0	2162163712	34	5771
2026-01-13 04:24:49.27	279.76	21.90	-30.5	-31.2	27.3	0.00e+00	0	27	0	2167406592	34	5848
2026-01-13 04:24:50.28	280.03	21.89	-30.6	-31.2	27.3	0.00e+00	0	27	0	2173698048	34	5851
2026-01-13 04:24:51.29	280.30	21.88	-30.5	-31.1	27.3	0.00e+00	0	27	0	2178940928	34	5828
2026-01-13 04:24:52.30	280.56	21.86	-30.4	-31.0	27.4	0.00e+00	0	27	0	2184183808	34	5753
2026-01-13 04:24:53.31	280.83	21.85	-30.3	-30.9	27.6	0.00e+00	0	27	0	2190475264	34	5669
2026-01-13 04:24:54.32	281.10	21.84	-30.2	-30.8	27.6	0.00e+00	0	27	0	2195718144	34	5618
2026-01-13 04:24:55.33	281.36	21.82	-30.3	-30.9	27.6	0.00e+00	0	27	0	2202009600	34	5661
2026-01-13 04:24:56.34	281.63	21.80	-30.2	-30.9	27.6	0.00e+00	0	27	0	2207252480	34	5637
2026-01-13 04:24:57.34	281.89	21.79	-30.2	-30.8	27.6	0.00e+00	0	27	0	2213543936	34	5600
2026-01-13 04:24:58.35	282.16	21.77	-30.2	-30.8	27.5	0.00e+00	0	27	0	2218786816	34	5613
2026-01-13 04:24:59.36	282.42	21.75	-30.3	-30.9	27.5	0.00e+00	0	27	0	2224029696	34	5637
2026-01-13 04:25:00.37	282.69	21.74	-30.4	-30.9	27.5	0.00e+00	0	27	0	2230321152	34	5689
2026-01-13 04:25:01.38	282.95	21.72	-30.4	-31.1	27.4	0.00e+00	0	27	0	2235564032	34	5764
2026-01-13 04:25:02.39	283.22	21.70	-30.5	-31.1	27.3	0.00e+00	0	27	0	2241855488	34	5818
2026-01-13 04:25:03.40	283.48	21.68	-30.6	-31.2	27.2	0.00e+00	0	27	0	2247098368	34	5870
2026-01-13 04:25:04.41	283.74	21.66	-30.5	-31.1	27.3	0.00e+00	0	27	0	2252341248	34	5782
2026-01-13 04:25:05.42	284.01	21.63	-30.5	-31.2	27.3	0.00e+00	0	27	0	2258632704	34	5846
2026-01-13 04:25:06.43	284.27	21.61	-30.6	-31.2	27.3	0.00e+00	0	27	0	2263875584	34	5880
2026-01-13 04:25:07.44	284.53	21.59	-30.6	-31.2	27.2	0.00e+00	0	27	0	2270167040	34	5845
2026-01-13 04:25:08.45	284.79	21.57	-30.6	-31.2	27.3	0.00e+00	0	27	0	2275409920	34	5877
2026-01-13 04:25:09.46	285.06	21.54	-30.6	-31.3	27.2	0.00e+00	0	27	0	2280652800	34	5937
2026-01-13 04:25:10.47	285.32	21.52	-30.6	-31.1	27.3	0.00e+00	0	27	0	2286944256	34	5800
2026-01-13 04:25:11.48	285.58	21.50	-30.5	-31.1	27.3	0.00e+00	0	27	0	2292187136	34	5789
2026-01-13 04:25:12.49	285.84	21.47	-30.5	-31.2	27.3	0.00e+00	0	27	0	2298478592	34	5837
2026-01-13 04:25:13.50	286.10	21.44	-30.5	-31.1	27.4	0.00e+00	0	27	0	2303721472	34	5807
2026-01-13 04:25:14.51	286.36	21.42	-30.6	-31.2	27.3	0.00e+00	0	27	0	2308964352	34	5884
2026-01-13 04:25:15.52	286.62	21.39	-30.7	-31.2	27.2	0.00e+00	0	27	0	2315255808	34	5883
2026-01-13 04:25:16.53	286.88	21.36	-30.8	-31.5	27.1	0.00e+00	0	27	0	2321547264	34	6035
2026-01-13 04:25:17.54	287.13	21.34	-30.8	-31.5	27.1	0.00e+00	0	27	0	2326790144	34	6037
2026-01-13 04:25:18.55	287.39	21.31	-30.9	-31.5	27.0	0.00e+00	0	27	0	2332033024	34	6066
2026-01-13 04:25:19.56	287.65	21.28	-30.9	-31.5	27.0	0.00e+00	0	27	0	2338324480	34	6099
2026-01-13 04:25:20.57	287.91	21.25	-30.9	-31.5	27.0	0.00e+00	0	27	0	2343567360	34	6103
2026-01-13 04:25:21.58	288.16	21.22	-30.8	-31.4	27.1	0.00e+00	0	27	0	2348810240	34	6003
2026-01-13 04:25:22.59	288.42	21.19	-30.8	-31.4	27.1	0.00e+00	0	27	0	2355101696	34	5972
2026-01-13 04:25:23.59	288.67	21.16	-30.6	-31.3	27.2	0.00e+00	0	27	0	2360344576	34	5911
2026-01-13 04:25:24.60	288.93	21.12	-30.8	-31.4	27.1	0.00e+00	0	27	0	2366636032	34	6026
2026-01-13 04:25:25.62	289.18	21.09	-30.5	-31.1	27.4	0.00e+00	0	27	0	2371878912	34	5801
2026-01-13 04:25:26.62	289.43	21.06	-30.6	-31.2	27.3	0.00e+00	0	27	0	2377121792	34	5857
2026-01-13 04:25:27.63	289.69	21.03	-30.6	-31.1	27.3	0.00e+00	0	27	0	2383413248	34	5786
2026-01-13 04:25:28.64	289.94	20.99	-30.6	-31.2	27.3	0.00e+00	0	27	0	2388656128	34	5853
2026-01-13 04:25:29.65	290.19	20.96	-30.6	-31.2	27.2	0.00e+00	0	27	0	2394947584	34	5834
2026-01-13 04:25:30.66	290.44	20.92	-30.7	-31.3	27.2	0.00e+00	0	27	0	2400190464	34	5932
2026-01-13 04:25:31.67	290.69	20.89	-30.7	-31.3	27.2	0.00e+00	0	27	0	2406481920	34	5900
2026-01-13 04:25:32.68	290.95	20.85	-30.6	-31.3	27.2	0.00e+00	0	27	0	2411724800	34	5932
2026-01-13 04:25:33.69	291.20	20.82	-30.6	-31.1	27.2	0.00e+00	0	27	0	2418016256	34	5818
2026-01-13 04:25:34.70	291.44	20.78	-30.7	-31.2	27.2	0.00e+00	0	27	0	2423259136	34	5870
2026-01-13 04:25:35.71	291.69	20.74	-30.7	-31.3	27.2	0.00e+00	0	27	0	2428502016	34	5910
2026-01-13 04:25:36.72	291.94	20.70	-30.7	-31.4	27.2	0.00e+00	0	27	0	2434793472	34	5983
2026-01-13 04:25:37.73	292.19	20.66	-30.8	-31.4	27.1	0.00e+00	0	27	0	2440036352	34	5988
2026-01-13 04:25:38.74	292.44	20.63	-30.8	-31.5	27.1	0.00e+00	0	27	0	2446327808	34	6038
2026-01-13 04:25:39.75	292.68	20.59	-30.8	-31.5	27.1	0.00e+00	0	27	0	2451570688	34	6063
2026-01-13 04:25:40.76	292.93	20.55	-30.8	-31.5	27.1	0.00e+00	0	27	0	2456813568	34	6054
2026-01-13 04:25:41.76	293.17	20.51	-30.9	-31.5	27.0	0.00e+00	0	27	0	2463105024	34	6046
2026-01-13 04:25:42.78	293.42	20.47	-30.9	-31.6	27.0	0.00e+00	0	27	0	2468347904	34	6137
2026-01-13 04:25:43.78	293.66	20.43	-31.1	-31.7	26.8	0.00e+00	0	27	0	2474639360	34	6216
2026-01-13 04:25:44.80	293.90	20.38	-31.3	-32.0	26.6	0.00e+00	0	27	0	2479882240	34	6454
2026-01-13 04:25:45.80	294.14	20.34	-31.4	-32.1	26.6	0.00e+00	0	27	0	2485125120	34	6502
2026-01-13 04:25:46.82	294.39	20.30	-31.5	-32.1	26.5	0.00e+00	0	27	0	2491416576	34	6525
2026-01-13 04:25:47.82	294.63	20.26	-31.5	-32.2	26.5	0.00e+00	0	27	0	2496659456	34	6585
2026-01-13 04:25:48.83	294.87	20.21	-31.6	-32.3	26.3	0.00e+00	0	27	0	2502950912	34	6631
2026-01-13 04:25:49.84	295.11	20.17	-31.8	-32.5	26.2	0.00e+00	0	27	0	2508193792	36	6038
2026-01-13 04:25:50.85	295.35	20.13	-31.7	-32.4	26.5	0.00e+00	0	27	0	2514485248	36	5989
2026-01-13 04:25:51.86	295.58	20.08	-31.7	-32.3	26.4	0.00e+00	0	27	0	2519728128	36	5914
2026-01-13 04:25:52.87	295.82	20.04	-31.3	-31.9	26.8	0.00e+00	0	27	0	2524971008	36	5658
2026-01-13 04:25:53.88	296.06	19.99	-31.3	-31.9	26.9	0.00e+00	0	27	0	2531262464	36	5645
2026-01-13 04:25:54.89	296.30	19.95	-31.2	-31.8	27.0	0.00e+00	0	27	0	2536505344	36	5583
2026-01-13 04:25:55.90	296.53	19.90	-31.2	-31.8	27.0	0.00e+00	0	27	0	2542796800	36	5610
2026-01-13 04:25:56.91	296.77	19.85	-31.3	-32.0	26.9	0.00e+00	0	27	0	2548039680	36	5746
2026-01-13 04:25:57.92	297.00	19.81	-31.4	-32.1	26.8	0.00e+00	0	27	0	2553282560	36	5783
2026-01-13 04:25:58.93	297.23	19.76	-31.3	-32.0	26.9	0.00e+00	0	27	0	2559574016	36	5698
2026-01-13 04:25:59.94	297.47	19.71	-31.5	-32.1	26.8	0.00e+00	0	27	0	2564816896	36	5817
2026-01-13 04:26:00.95	297.70	19.66	-31.5	-32.1	26.8	0.00e+00	0	27	0	2571108352	36	5784
2026-01-13 04:26:01.96	297.93	19.62	-31.4	-32.1	26.9	0.00e+00	0	27	0	2576351232	36	5772
2026-01-13 04:26:02.97	298.16	19.57	-31.4	-32.1	26.8	0.00e+00	0	27	0	2581594112	36	5792
2026-01-13 04:26:03.98	298.39	19.52	-31.4	-32.0	26.8	0.00e+00	0	27	0	2587885568	36	5741
2026-01-13 04:26:04.99	298.62	19.47	-31.5	-32.1	26.8	0.00e+00	0	27	0	2593128448	36	5781
2026-01-13 04:26:06.00	298.85	19.42	-31.4	-32.0	26.9	0.00e+00	0	27	0	2599419904	36	5735
2026-01-13 04:26:07.01	299.08	19.37	-31.3	-31.9	26.8	0.00e+00	0	27	0	2604662784	36	5641
2026-01-13 04:26:08.02	299.31	19.32	-31.3	-31.8	26.9	0.00e+00	0	27	0	2610954240	36	5624
2026-01-13 04:26:09.03	299.53	19.27	-31.2	-31.9	26.9	0.00e+00	0	27	0	2616197120	36	5680
2026-01-13 04:26:10.04	299.76	19.22	-31.3	-32.0	26.9	0.00e+00	0	27	0	2622488576	36	5700
2026-01-13 04:26:11.05	299.98	19.17	-31.3	-31.9	26.9	0.00e+00	0	27	0	2627731456	36	5657
2026-01-13 04:26:12.06	300.21	19.11	-31.3	-31.9	26.9	0.00e+00	0	27	0	2632974336	36	5640
2026-01-13 04:26:13.07	300.43	19.06	-31.4	-32.1	26.8	0.00e+00	0	27	0	2639265792	36	5777
2026-01-13 04:26:14.08	300.65	19.01	-31.4	-32.0	26.8	0.00e+00	0	27	0	2644508672	36	5701
2026-01-13 04:26:15.09	300.87	18.96	-31.5	-32.0	26.8	0.00e+00	0	27	0	2650800128	36	5749
2026-01-13 04:26:16.10	301.10	18.91	-31.4	-32.0	26.8	0.00e+00	0	27	0	2656043008	36	5735
2026-01-13 04:26:17.11	301.32	18.85	-31.4	-32.0	26.8	0.00e+00	0	27	0	2661285888	36	5752
2026-01-13 04:26:18.12	301.54	18.80	-31.4	-32.0	26.8	0.00e+00	0	27	0	2667577344	36	5699
2026-01-13 04:26:19.13	301.75	18.74	-31.5	-32.2	26.7	0.00e+00	0	27	0	2672820224	36	5862
2026-01-13 04:26:20.14	301.97	18.69	-31.4	-32.0	26.7	0.00e+00	0	27	0	2679111680	36	5736
2026-01-13 04:26:21.15	302.19	18.64	-31.5	-32.1	26.7	0.00e+00	0	27	0	2684354560	36	5803
2026-01-13 04:26:22.16	302.41	18.58	-31.5	-32.2	26.7	0.00e+00	0	27	0	2689597440	36	5868
2026-01-13 04:26:23.17	302.62	18.53	-31.5	-32.1	26.6	0.00e+00	0	27	0	2695888896	36	5823
2026-01-13 04:26:24.18	302.84	18.47	-31.5	-32.2	26.7	0.00e+00	0	27	0	2701131776	36	5862
2026-01-13 04:26:25.19	303.05	18.42	-31.5	-32.1	26.7	0.00e+00	0	27	0	2707423232	36	5806
2026-01-13 04:26:26.20	303.27	18.36	-31.5	-32.1	26.7	0.00e+00	0	27	0	2712666112	36	5819
2026-01-13 04:26:27.21	303.48	18.30	-31.3	-31.9	26.9	0.00e+00	0	27	0	2718957568	36	5682
2026-01-13 04:26:28.22	303.69	18.25	-31.4	-32.0	26.8	0.00e+00	0	27	0	2724200448	36	5710
2026-01-13 04:26:29.23	303.90	18.19	-31.4	-32.1	26.7	0.00e+00	0	27	0	2730491904	36	5790
2026-01-13 04:26:30.24	304.11	18.14	-31.5	-32.2	26.7	0.00e+00	0	27	0	2735734784	36	5838
2026-01-13 04:26:31.25	304.32	18.08	-31.6	-32.3	26.5	0.00e+00	0	27	0	2740977664	36	5960
2026-01-13 04:26:32.26	304.53	18.02	-31.8	-32.5	26.4	0.00e+00	0	27	0	2747269120	36	6064
2026-01-13 04:26:33.27	304.74	17.96	-31.9	-32.6	26.3	0.00e+00	0	27	0	2752512000	36	6117
2026-01-13 04:26:34.28	304.95	17.91	-31.9	-32.6	26.3	0.00e+00	0	27	0	2758803456	36	6161
2026-01-13 04:26:35.29	305.15	17.85	-32.0	-32.7	26.3	0.00e+00	0	27	0	2764046336	36	6219
2026-01-13 04:26:36.30	305.36	17.79	-31.9	-32.6	26.2	0.00e+00	0	27	0	2769289216	36	6140
2026-01-13 04:26:37.31	305.56	17.73	-31.9	-32.6	26.4	0.00e+00	0	27	0	2775580672	36	6123
2026-01-13 04:26:38.31	305.77	17.67	-31.9	-32.5	26.3	0.00e+00	0	27	0	2780823552	36	6036
2026-01-13 04:26:39.32	305.97	17.62	-31.8	-32.4	26.4	0.00e+00	0	27	0	2786066432	36	5984
2026-01-13 04:26:40.33	306.17	17.56	-31.8	-32.4	26.4	0.00e+00	0	27	0	2792357888	36	6018
2026-01-13 04:26:41.34	306.37	17.50	-31.7	-32.4	26.4	0.00e+00	0	27	0	2797600768	36	6007
2026-01-13 04:26:42.34	306.57	17.44	-31.7	-32.3	26.4	0.00e+00	0	27	0	2803892224	36	5943
2026-01-13 04:26:43.35	306.77	17.38	-31.7	-32.4	26.4	0.00e+00	0	27	0	2809135104	36	5991
2026-01-13 04:26:44.36	306.97	17.32	-31.8	-32.5	26.4	0.00e+00	0	27	0	2815426560	36	6094
2026-01-13 04:26:45.37	307.17	17.26	-31.7	-32.2	26.5	0.00e+00	0	27	0	2820669440	36	5892
2026-01-13 04:26:46.38	307.37	17.20	-31.7	-32.4	26.4	0.00e+00	0	27	0	2826960896	36	6020
2026-01-13 04:26:47.39	307.57	17.14	-31.7	-32.4	26.5	0.00e+00	0	27	0	2832203776	36	5968
2026-01-13 04:26:48.40	307.77	17.08	-31.7	-32.3	26.5	0.00e+00	0	27	0	2837446656	36	5944
2026-01-13 04:26:49.41	307.96	17.02	-31.9	-32.5	26.4	0.00e+00	0	27	0	2843738112	36	6101
2026-01-13 04:26:50.42	308.16	16.96	-32.0	-32.7	26.2	0.00e+00	0	27	0	2848980992	36	6216
2026-01-13 04:26:51.43	308.35	16.90	-31.9	-32.5	26.4	0.00e+00	0	27	0	2855272448	36	6062
2026-01-13 04:26:52.44	308.54	16.84	-32.1	-32.8	26.2	0.00e+00	0	27	0	2860515328	36	6268
2026-01-13 04:26:53.45	308.74	16.78	-32.1	-32.9	26.0	0.00e+00	0	27	0	2865758208	36	6334
2026-01-13 04:26:54.46	308.93	16.71	-32.2	-32.8	26.1	0.00e+00	0	27	0	2872049664	36	6246
2026-01-13 04:26:55.46	309.12	16.65	-32.3	-33.0	26.0	0.00e+00	0	27	0	2877292544	36	6407
2026-01-13 04:26:56.47	309.31	16.59	-32.4	-33.0	25.9	0.00e+00	0	27	0	2882535424	36	6404
2026-01-13 04:26:57.48	309.50	16.53	-32.5	-33.1	25.8	0.00e+00	0	27	0	2888826880	36	6500
2026-01-13 04:26:58.49	309.69	16.47	-32.4	-33.1	25.9	0.00e+00	0	27	0	2894069760	36	6525
2026-01-13 04:26:59.50	309.88	16.41	-32.5	-33.2	25.8	0.00e+00	0	27	0	2900361216	36	6561
2026-01-13 04:27:00.51	310.06	16.34	-32.5	-33.1	25.8	0.00e+00	0	27	0	2905604096	36	6494
2026-01-13 04:27:01.52	310.25	16.28	-32.6	-33.1	25.7	0.00e+00	0	27	0	2911895552	36	6532
2026-01-13 04:27:02.53	310.44	16.22	-32.7	-33.3	25.6	0.00e+00	0	27	0	2917138432	36	6667
2026-01-13 04:27:03.54	310.62	16.16	-32.7	-33.3	25.6	0.00e+00	0	27	0	2923429888	38	5912
2026-01-13 04:27:04.55	310.81	16.09	-32.8	-33.4	25.5	0.00e+00	0	27	0	2928672768	38	5982
2026-01-13 04:27:05.56	310.99	16.03	-32.9	-33.5	25.5	0.00e+00	0	27	0	2933915648	38	6076
2026-01-13 04:27:06.57	311.17	15.97	-32.6	-33.2	25.6	0.00e+00	0	27	0	2940207104	38	5884
2026-01-13 04:27:07.58	311.35	15.91	-32.4	-33.0	25.9	0.00e+00	0	27	0	2945449984	38	5722
2026-01-13 04:27:08.59	311.54	15.84	-32.3	-33.0	25.9	0.00e+00	0	27	0	2951741440	38	5705
2026-01-13 04:27:09.60	311.72	15.78	-32.3	-33.0	25.9	0.00e+00	0	27	0	2956984320	38	5732
2026-01-13 04:27:10.61	311.90	15.72	-32.3	-32.9	25.9	0.00e+00	0	27	0	2962227200	38	5662
2026-01-13 04:27:11.62	312.08	15.65	-32.4	-33.1	25.5	0.00e+00	0	27	0	2968518656	38	5801
2026-01-13 04:27:12.63	312.25	15.59	-32.3	-32.9	25.8	0.00e+00	0	27	0	2973761536	38	5669
2026-01-13 04:27:13.64	312.43	15.53	-32.4	-33.0	25.5	0.00e+00	0	27	0	2980052992	38	5717
2026-01-13 04:27:14.65	312.61	15.46	-32.4	-33.0	25.7	0.00e+00	0	27	0	2985295872	38	5712
2026-01-13 04:27:15.66	312.79	15.40	-32.4	-33.0	25.9	0.00e+00	0	27	0	2990538752	38	5745
2026-01-13 04:27:16.67	312.96	15.33	-32.4	-33.1	25.8	0.00e+00	0	27	0	2996830208	38	5796
2026-01-13 04:27:17.68	313.14	15.27	-32.3	-32.9	25.8	0.00e+00	0	27	0	3002073088	38	5631
2026-01-13 04:27:18.69	313.31	15.21	-32.2	-32.9	25.9	0.00e+00	0	27	0	3008364544	38	5671
2026-01-13 04:27:19.70	313.48	15.14	-32.2	-32.8	25.9	0.00e+00	0	27	0	3013607424	38	5573
2026-01-13 04:27:20.71	313.66	15.08	-32.2	-32.8	26.0	0.00e+00	0	27	0	3018850304	38	5607
2026-01-13 04:27:21.72	313.83	15.01	-32.3	-33.0	25.8	0.00e+00	0	27	0	3025141760	38	5757
2026-01-13 04:27:22.73	314.00	14.95	-32.5	-33.0	25.6	0.00e+00	0	27	0	3030384640	38	5750
2026-01-13 04:27:23.74	314.17	14.89	-32.5	-33.2	25.5	0.00e+00	0	27	0	3036676096	38	5866
2026-01-13 04:27:24.75	314.34	14.82	-32.6	-33.2	25.6	0.00e+00	0	27	0	3041918976	38	5838
2026-01-13 04:27:25.76	314.51	14.76	-32.6	-33.3	25.6	0.00e+00	0	27	0	3048210432	38	5932
2026-01-13 04:27:26.77	314.68	14.69	-32.8	-33.4	25.5	0.00e+00	0	27	0	3053453312	38	6000
2026-01-13 04:27:27.78	314.85	14.63	-32.7	-33.3	25.5	0.00e+00	0	27	0	3058696192	38	5958
2026-01-13 04:27:28.78	315.01	14.56	-32.8	-33.3	25.5	0.00e+00	0	27	0	3064987648	38	5960
2026-01-13 04:27:29.79	315.18	14.50	-32.7	-33.4	25.6	0.00e+00	0	27	0	3070230528	38	6010
2026-01-13 04:27:30.80	315.34	14.44	-32.8	-33.4	25.5	0.00e+00	0	27	0	3076521984	38	5979
2026-01-13 04:27:31.81	315.51	14.37	-32.8	-33.4	25.6	0.00e+00	0	27	0	3081764864	38	5977
2026-01-13 04:27:32.82	315.67	14.31	-32.8	-33.5	25.5	0.00e+00	0	27	0	3087007744	38	6080
2026-01-13 04:27:33.83	315.84	14.24	-32.9	-33.4	25.4	0.00e+00	0	27	0	3093299200	38	6032
2026-01-13 04:27:34.84	316.00	14.18	-32.8	-33.4	25.5	0.00e+00	0	27	0	3098542080	38	6032
2026-01-13 04:27:35.84	316.16	14.11	-32.9	-33.6	25.4	0.00e+00	0	27	0	3104833536	38	6161
2026-01-13 04:27:36.86	316.32	14.05	-33.0	-33.8	25.2	0.00e+00	0	27	0	3110076416	38	6246
2026-01-13 04:27:37.87	316.48	13.98	-33.0	-33.7	25.2	0.00e+00	0	27	0	3115319296	38	6198
2026-01-13 04:27:38.88	316.64	13.92	-33.1	-33.8	25.2	0.00e+00	0	27	0	3121610752	38	6307
2026-01-13 04:27:39.89	316.80	13.85	-33.1	-33.9	25.2	0.00e+00	0	27	0	3126853632	38	6322
2026-01-13 04:27:40.90	316.96	13.79	-33.1	-33.7	25.2	0.00e+00	0	27	0	3133145088	38	6220
2026-01-13 04:27:41.91	317.12	13.72	-33.0	-33.6	25.3	0.00e+00	0	27	0	3138387968	38	6132
2026-01-13 04:27:42.92	317.28	13.66	-33.0	-33.7	25.3	0.00e+00	0	27	0	3144679424	38	6236
2026-01-13 04:27:43.93	317.43	13.59	-32.9	-33.5	25.3	0.00e+00	0	27	0	3149922304	38	6070
2026-01-13 04:27:44.94	317.59	13.53	-32.8	-33.3	25.5	0.00e+00	0	27	0	3156213760	38	5964
2026-01-13 04:27:45.95	317.74	13.46	-32.8	-33.4	25.5	0.00e+00	0	27	0	3161456640	38	6017
2026-01-13 04:27:46.96	317.90	13.40	-32.8	-33.4	25.4	0.00e+00	0	27	0	3166699520	38	6010
2026-01-13 04:27:47.97	318.05	13.33	-32.9	-33.6	25.3	0.00e+00	0	27	0	3172990976	38	6169
2026-01-13 04:27:48.98	318.21	13.27	-32.9	-33.6	25.3	0.00e+00	0	27	0	3178233856	38	6115
2026-01-13 04:27:49.99	318.36	13.20	-32.9	-33.5	25.4	0.00e+00	0	27	0	3184525312	38	6066
2026-01-13 04:27:51.00	318.51	13.14	-33.0	-33.6	25.3	0.00e+00	0	27	0	3189768192	38	6161
2026-01-13 04:27:52.01	318.66	13.07	-33.1	-33.6	25.1	0.00e+00	0	27	0	3195011072	38	6173
2026-01-13 04:27:53.02	318.81	13.01	-33.1	-33.7	25.2	0.00e+00	0	27	0	3201302528	38	6228
2026-01-13 04:27:54.03	318.96	12.94	-32.9	-33.5	25.3	0.00e+00	0	27	0	3206545408	38	6080
2026-01-13 04:27:55.04	319.11	12.88	-33.0	-33.6	25.2	0.00e+00	0	27	0	3212836864	38	6162
2026-01-13 04:27:56.05	319.26	12.81	-33.0	-33.6	25.3	0.00e+00	0	27	0	3218079744	38	6134
2026-01-13 04:27:57.06	319.41	12.74	-33.0	-33.7	25.3	0.00e+00	0	27	0	3223322624	38	6202
2026-01-13 04:27:58.06	319.56	12.68	-33.1	-33.7	25.2	0.00e+00	0	27	0	3229614080	38	6222
2026-01-13 04:27:59.07	319.70	12.62	-33.1	-33.9	25.1	0.00e+00	0	27	0	3234856960	38	6324
2026-01-13 04:28:00.08	319.85	12.55	-33.1	-33.8	25.1	0.00e+00	0	27	0	3241148416	38	6251
2026-01-13 04:28:01.10	320.00	12.48	-33.0	-33.8	25.2	0.00e+00	0	27	0	3246391296	38	6257
2026-01-13 04:28:02.10	320.14	12.42	-33.1	-33.7	25.2	0.00e+00	0	27	0	3252682752	38	6225
2026-01-13 04:28:03.11	320.28	12.35	-33.0	-33.7	25.3	0.00e+00	0	27	0	3257925632	38	6243
2026-01-13 04:28:04.12	320.43	12.29	-33.2	-33.9	25.1	0.00e+00	0	27	0	3263168512	38	6346
2026-01-13 04:28:05.13	320.57	12.22	-33.2	-33.9	25.1	0.00e+00	0	27	0	3269459968	38	6332
2026-01-13 04:28:06.15	320.72	12.16	-33.2	-33.8	25.0	0.00e+00	0	27	0	3274702848	38	6314
2026-01-13 04:28:07.16	320.86	12.09	-33.3	-34.0	25.0	0.00e+00	0	27	0	3280994304	38	6404
2026-01-13 04:28:08.17	321.00	12.03	-33.4	-34.0	24.9	0.00e+00	0	27	0	3286237184	38	6398
2026-01-13 04:28:09.18	321.14	11.96	-33.5	-34.1	24.8	0.00e+00	0	27	0	3291480064	38	6499
2026-01-13 04:28:10.19	321.28	11.90	-33.6	-34.2	24.6	0.00e+00	0	27	0	3297771520	38	6598
2026-01-13 04:28:11.20	321.42	11.83	-33.5	-34.2	24.7	0.00e+00	0	27	0	3303014400	38	6608
2026-01-13 04:28:12.21	321.56	11.77	-33.6	-34.2	24.6	0.00e+00	0	27	0	3309305856	38	6569
2026-01-13 04:28:13.22	321.70	11.70	-33.5	-34.3	24.7	0.00e+00	0	27	0	3314548736	38	6627
2026-01-13 04:28:14.23	321.84	11.64	-33.6	-34.2	24.7	0.00e+00	0	27	0	3320840192	38	6590
2026-01-13 04:28:15.24	321.97	11.57	-33.6	-34.4	24.6	0.00e+00	0	27	0	3326083072	38	6747
2026-01-13 04:28:16.25	322.11	11.51	-33.4	-34.1	24.8	0.00e+00	0	27	0	3331325952	38	6480
2026-01-13 04:28:17.26	322.25	11.44	-33.4	-34.2	24.8	0.00e+00	0	27	0	3337617408	38	6568
2026-01-13 04:28:18.27	322.38	11.38	-33.4	-34.0	24.9	0.00e+00	0	27	0	3342860288	38	6407
2026-01-13 04:28:19.29	322.52	11.31	-33.5	-34.1	24.7	0.00e+00	0	27	0	3349151744	38	6479
2026-01-13 04:28:20.29	322.65	11.25	-33.4	-34.2	24.8	0.00e+00	0	27	0	3354394624	38	6553
2026-01-13 04:28:21.30	322.78	11.19	-33.5	-34.1	24.8	0.00e+00	0	27	0	3360686080	38	6468
2026-01-13 04:28:22.31	322.92	11.12	-33.5	-34.1	24.7	0.00e+00	0	27	0	3365928960	38	6526
2026-01-13 04:28:23.32	323.05	11.06	-33.6	-34.2	24.7	0.00e+00	0	27	0	3371171840	38	6575
2026-01-13 04:28:24.33	323.18	10.99	-33.7	-34.4	24.5	0.00e+00	0	27	0	3377463296	38	6748
2026-01-13 04:28:25.34	323.31	10.93	-33.7	-34.5	24.5	0.00e+00	0	27	0	3382706176	40	6076
2026-01-13 04:28:26.35	323.44	10.86	-33.6	-34.2	24.6	0.00e+00	0	27	0	3388997632	40	5891
2026-01-13 04:28:27.36	323.58	10.80	-33.8	-34.4	24.4	0.00e+00	0	27	0	3394240512	40	5988
2026-01-13 04:28:28.36	323.70	10.74	-33.8	-34.5	24.4	0.00e+00	0	27	0	3399483392	40	6049
2026-01-13 04:28:29.37	323.83	10.67	-33.8	-34.4	24.3	0.00e+00	0	27	0	3405774848	40	6020
2026-01-13 04:28:30.38	323.96	10.61	-33.9	-34.7	24.3	0.00e+00	0	27	0	3411017728	40	6206
2026-01-13 04:28:31.39	324.09	10.54	-33.9	-34.7	24.3	0.00e+00	0	27	0	3417309184	40	6216
2026-01-13 04:28:32.40	324.22	10.48	-34.0	-34.7	24.3	0.00e+00	0	27	0	3422552064	40	6177
2026-01-13 04:28:33.41	324.35	10.41	-34.0	-34.8	24.2	0.00e+00	0	27	0	3427794944	40	6249
2026-01-13 04:28:34.42	324.47	10.35	-34.0	-34.7	24.1	0.00e+00	0	27	0	3434086400	40	6242
2026-01-13 04:28:35.43	324.60	10.29	-34.0	-34.6	24.3	0.00e+00	0	27	0	3439329280	40	6142
2026-01-13 04:28:36.44	324.72	10.22	-34.0	-34.8	24.1	0.00e+00	0	27	0	3445620736	40	6277
2026-01-13 04:28:37.45	324.85	10.16	-34.1	-34.7	24.1	0.00e+00	0	27	0	3450863616	40	6215
2026-01-13 04:28:38.46	324.97	10.09	-34.0	-34.8	24.2	0.00e+00	0	27	0	3457155072	40	6250
2026-01-13 04:28:39.47	325.10	10.03	-34.1	-34.8	24.1	0.00e+00	0	27	0	3462397952	40	6291
2026-01-13 04:28:40.48	325.22	9.97	-34.2	-34.9	24.0	0.00e+00	0	27	0	3468689408	40	6359
2026-01-13 04:28:41.49	325.34	9.90	-34.0	-34.8	24.1	0.00e+00	0	27	0	3473932288	40	6277
2026-01-13 04:28:42.50	325.47	9.84	-34.1	-34.7	24.1	0.00e+00	0	27	0	3479175168	40	6211
2026-01-13 04:28:43.50	325.59	9.78	-34.1	-34.8	24.0	0.00e+00	0	27	0	3485466624	40	6264
2026-01-13 04:28:44.51	325.71	9.71	-34.1	-34.9	24.1	0.00e+00	0	27	0	3490709504	40	6351
2026-01-13 04:28:45.52	325.83	9.65	-34.1	-34.7	24.0	0.00e+00	0	27	0	3495952384	40	6238
2026-01-13 04:28:46.53	325.95	9.59	-34.2	-34.8	23.9	0.00e+00	0	27	0	3502243840	40	6289
2026-01-13 04:28:47.54	326.07	9.52	-34.2	-34.8	23.9	0.00e+00	0	27	0	3507486720	40	6309
2026-01-13 04:28:48.55	326.19	9.46	-34.1	-34.7	24.0	0.00e+00	0	27	0	3513778176	40	6239
2026-01-13 04:28:49.56	326.31	9.40	-34.3	-35.1	23.8	0.00e+00	0	27	0	3519021056	40	6509
2026-01-13 04:28:50.57	326.43	9.33	-34.2	-35.0	23.9	0.00e+00	0	27	0	3524263936	40	6395
2026-01-13 04:28:51.58	326.54	9.27	-34.3	-35.1	23.8	0.00e+00	0	27	0	3530555392	40	6522
2026-01-13 04:28:52.58	326.66	9.21	-34.3	-35.1	23.8	0.00e+00	0	27	0	3535798272	40	6466
2026-01-13 04:28:53.59	326.78	9.14	-34.3	-35.0	23.8	0.00e+00	0	27	0	3542089728	40	6417
2026-01-13 04:28:54.60	326.89	9.08	-34.3	-35.1	23.8	0.00e+00	0	27	0	3547332608	40	6510
2026-01-13 04:28:55.61	327.01	9.02	-34.1	-34.8	24.0	0.00e+00	0	27	0	3553624064	40	6264
2026-01-13 04:28:56.62	327.13	8.95	-34.1	-34.7	24.0	0.00e+00	0	27	0	3558866944	40	6239
2026-01-13 04:28:57.63	327.24	8.89	-34.2	-34.9	23.9	0.00e+00	0	27	0	3565158400	40	6359
2026-01-13 04:28:58.64	327.36	8.83	-34.2	-34.8	23.9	0.00e+00	0	27	0	3570401280	40	6283
2026-01-13 04:28:59.65	327.47	8.77	-34.3	-35.1	23.8	0.00e+00	0	27	0	3575644160	40	6481
2026-01-13 04:29:00.66	327.58	8.70	-34.2	-34.8	23.9	0.00e+00	0	27	0	3581935616	40	6308
2026-01-13 04:29:01.67	327.70	8.64	-34.4	-35.1	23.7	0.00e+00	0	27	0	3587178496	40	6465
