passes_logs/2026/01/13/R4.6S_Anadyr/R4.6S_Anadyr__20260113_013650_SUOMI_NPP_rec.log

#Pass ID: 20260113_013650_SUOMI NPP
#Satellite: SUOMI NPP
#Configuration: NPP
#almurnet v.1.7.20251203
#Start time: 2026-01-13 01:36:53

#Version: 2.2.20231116
#Station: R4.6S_Anadyr
#Location: 177.4865 lon 64.73178 lat
#TLE: 1 37849U 11061A   26012.28456845  .00000093  00000+0  65163-4 0  9999
#TLE: 2 37849  98.7807 314.3566 0002508  68.3553 291.7890 14.19524725736322

#Time	Az	El	Level	Level2	SNR	BER	BlckErr	Temp	State	Recorded	gain1	gain2
2026-01-13 01:36:53.52	190.12	0.19	-48.8	-62.5	3.3	1.54e+00	0	25	0	0	60	48064
2026-01-13 01:36:54.53	190.16	0.25	-48.7	-63.9	3.6	1.51e+00	0	26	104	0	60	56900
2026-01-13 01:36:55.54	190.21	0.31	-48.8	-64.0	3.6	1.51e+00	0	26	104	0	60	57381
2026-01-13 01:36:56.55	190.25	0.37	-48.7	-64.0	3.6	1.51e+00	0	26	104	0	60	57123
2026-01-13 01:36:57.56	190.29	0.43	-48.7	-64.0	3.6	1.51e+00	0	26	104	0	60	57060
2026-01-13 01:36:58.57	190.34	0.48	-48.9	-64.0	3.6	1.51e+00	0	26	104	0	60	57298
2026-01-13 01:36:59.58	190.38	0.54	-48.8	-64.0	3.6	1.51e+00	0	26	104	0	60	57302
2026-01-13 01:37:00.59	190.43	0.60	-48.8	-64.0	3.6	1.51e+00	0	26	104	0	60	57349
2026-01-13 01:37:01.60	190.47	0.66	-48.6	-63.9	3.6	1.51e+00	0	26	104	0	60	56805
2026-01-13 01:37:02.61	190.52	0.72	-48.5	-63.7	3.6	1.51e+00	0	26	104	0	60	55620
2026-01-13 01:37:03.61	190.56	0.77	-48.3	-63.5	3.6	1.51e+00	0	26	104	0	60	54069
2026-01-13 01:37:04.62	190.61	0.83	-48.0	-63.1	3.6	1.51e+00	0	26	104	0	60	51921
2026-01-13 01:37:05.63	190.66	0.89	-47.7	-62.9	3.6	1.51e+00	0	26	104	0	60	50367
2026-01-13 01:37:06.64	190.70	0.95	-47.5	-62.5	3.6	1.51e+00	0	26	104	0	60	47977
2026-01-13 01:37:07.65	190.75	1.01	-47.5	-62.5	3.6	1.51e+00	0	26	104	0	60	48434
2026-01-13 01:37:08.66	190.79	1.07	-47.5	-62.6	3.6	1.51e+00	0	26	104	0	60	48557
2026-01-13 01:37:09.67	190.84	1.13	-47.5	-62.5	3.6	1.51e+00	0	26	104	0	60	48344
2026-01-13 01:37:10.68	190.89	1.19	-47.5	-62.6	3.6	1.51e+00	0	26	104	0	60	48696
2026-01-13 01:37:11.69	190.93	1.25	-47.5	-62.6	3.6	1.51e+00	0	26	104	0	60	48986
2026-01-13 01:37:12.70	190.98	1.31	-47.5	-62.6	3.6	1.51e+00	0	26	104	0	60	48902
2026-01-13 01:37:13.71	191.03	1.37	-47.4	-62.6	3.6	1.51e+00	0	26	104	0	60	48971
2026-01-13 01:37:14.72	191.07	1.42	-47.4	-62.6	3.6	1.51e+00	0	26	104	0	60	48791
2026-01-13 01:37:15.73	191.12	1.48	-47.4	-62.6	3.6	1.51e+00	0	26	104	0	60	48672
2026-01-13 01:37:16.74	191.17	1.54	-47.4	-62.6	3.6	1.51e+00	0	26	104	0	60	48654
2026-01-13 01:37:17.75	191.22	1.60	-47.4	-62.6	3.6	1.51e+00	0	26	104	0	60	48804
2026-01-13 01:37:18.76	191.26	1.66	-47.4	-62.5	3.6	1.51e+00	0	26	104	0	60	48401
2026-01-13 01:37:19.77	191.31	1.72	-47.4	-62.5	3.6	1.51e+00	0	26	104	0	60	48479
2026-01-13 01:37:20.78	191.36	1.79	-47.4	-62.6	3.6	1.51e+00	0	26	104	0	60	48482
2026-01-13 01:37:21.78	191.41	1.84	-47.4	-62.6	3.6	1.51e+00	0	26	104	0	60	48804
2026-01-13 01:37:22.80	191.46	1.91	-47.4	-62.6	3.6	1.51e+00	0	26	104	0	60	48612
2026-01-13 01:37:23.80	191.51	1.97	-47.4	-62.6	3.6	1.51e+00	0	26	104	0	60	48617
2026-01-13 01:37:24.81	191.55	2.03	-47.4	-62.6	3.6	1.51e+00	0	26	104	0	60	48608
2026-01-13 01:37:25.82	191.60	2.09	-47.4	-62.6	3.6	1.51e+00	0	26	104	0	60	48791
2026-01-13 01:37:26.83	191.65	2.15	-47.4	-62.5	3.6	1.51e+00	0	26	104	0	60	48362
2026-01-13 01:37:27.84	191.70	2.21	-47.4	-62.6	3.6	1.51e+00	0	26	104	0	60	48678
2026-01-13 01:37:28.85	191.75	2.27	-47.4	-62.6	3.6	1.51e+00	0	26	104	0	60	48589
2026-01-13 01:37:29.86	191.80	2.33	-47.4	-62.6	3.6	1.51e+00	0	26	104	0	60	48602
2026-01-13 01:37:30.87	191.85	2.39	-47.4	-62.4	3.6	1.51e+00	0	26	104	0	60	47573
2026-01-13 01:37:31.88	191.90	2.46	-47.4	-62.1	3.6	1.51e+00	0	26	104	0	60	46018
2026-01-13 01:37:32.89	191.95	2.52	-47.4	-61.7	3.6	1.51e+00	0	26	104	0	60	43893
2026-01-13 01:37:33.90	192.00	2.58	-47.4	-61.6	3.6	1.51e+00	0	26	104	0	60	43518
2026-01-13 01:37:34.91	192.06	2.64	-47.4	-61.8	3.6	1.51e+00	0	26	104	0	60	44483
2026-01-13 01:37:35.92	192.11	2.70	-47.4	-62.1	3.6	1.51e+00	0	26	104	0	60	45849
2026-01-13 01:37:36.93	192.16	2.77	-47.4	-62.0	3.6	1.51e+00	0	26	104	0	60	45480
2026-01-13 01:37:37.94	192.21	2.83	-47.2	-59.8	3.6	1.51e+00	0	26	104	0	60	35326
2026-01-13 01:37:38.95	192.26	2.89	-46.9	-55.9	5.5	7.48e-01	91	26	0	0	60	22573
2026-01-13 01:37:39.96	192.31	2.95	-46.5	-52.9	7.9	1.88e-01	90	26	0	1048576	60	15995
2026-01-13 01:37:40.96	192.36	3.01	-45.7	-50.4	10.7	3.32e-02	0	26	0	3145728	60	12032
2026-01-13 01:37:41.97	192.42	3.08	-45.0	-48.8	12.6	2.70e-04	89	26	0	5242880	60	9906
2026-01-13 01:37:42.99	192.47	3.14	-44.1	-47.2	14.3	3.00e-06	0	26	0	7340032	60	8300
2026-01-13 01:37:44.00	192.52	3.20	-43.3	-45.7	15.7	0.00e+00	92	26	0	9437184	60	7000
2026-01-13 01:37:45.01	192.58	3.27	-43.2	-45.6	15.9	0.00e+00	6	26	0	10485760	60	6886
2026-01-13 01:37:46.02	192.63	3.33	-42.7	-44.9	16.6	0.00e+00	92	26	0	12582912	60	6326
2026-01-13 01:37:47.03	192.68	3.39	-43.1	-45.4	16.0	0.00e+00	92	26	0	14680064	58	7595
2026-01-13 01:37:48.04	192.74	3.46	-43.4	-46.0	15.4	0.00e+00	0	26	0	16777216	58	8109
2026-01-13 01:37:49.05	192.79	3.52	-45.6	-50.2	11.0	3.96e-05	68	26	0	18874368	60	11720
2026-01-13 01:37:50.05	192.84	3.58	-47.2	-61.1	3.6	4.02e-01	0	26	104	19922944	60	40891
2026-01-13 01:37:51.07	192.90	3.65	-43.9	-46.7	14.0	1.27e+00	0	26	104	19922944	58	8766
2026-01-13 01:37:52.07	192.95	3.71	-46.4	-52.2	8.7	4.21e-03	0	26	0	19922944	60	14782
2026-01-13 01:37:53.08	193.01	3.78	-46.5	-52.9	6.9	2.13e-05	92	26	0	22020096	60	16001
2026-01-13 01:37:54.09	193.06	3.84	-44.7	-48.0	13.5	2.76e-02	72	26	0	24117248	60	9089
2026-01-13 01:37:55.10	193.12	3.91	-44.4	-47.6	13.8	5.30e-06	14	26	0	26214400	60	8641
2026-01-13 01:37:56.11	193.17	3.97	-44.3	-47.4	14.1	4.50e-06	90	26	0	27262976	60	8475
2026-01-13 01:37:57.12	193.23	4.03	-44.2	-47.1	14.6	0.00e+00	0	26	0	29360128	60	8213
2026-01-13 01:37:58.13	193.28	4.10	-44.0	-46.9	15.2	7.00e-07	71	26	0	31457280	60	7954
2026-01-13 01:37:59.15	193.34	4.17	-44.0	-46.7	15.0	0.00e+00	7	26	0	33554432	60	7841
2026-01-13 01:38:00.15	193.40	4.23	-44.3	-47.2	14.6	0.00e+00	92	26	0	35651584	60	8279
2026-01-13 01:38:01.16	193.45	4.30	-44.1	-46.9	14.8	0.00e+00	67	26	0	36700160	60	8012
2026-01-13 01:38:02.17	193.51	4.36	-43.6	-46.2	15.5	0.00e+00	92	26	0	38797312	60	7376
2026-01-13 01:38:03.18	193.57	4.43	-43.8	-46.4	15.3	0.00e+00	93	26	0	40894464	60	7570
2026-01-13 01:38:04.19	193.62	4.49	-43.1	-45.4	16.4	0.00e+00	0	26	0	42991616	60	6704
2026-01-13 01:38:05.20	193.68	4.56	-43.2	-45.5	16.1	0.00e+00	92	26	0	45088768	60	6841
2026-01-13 01:38:06.21	193.74	4.62	-42.9	-45.1	16.6	0.00e+00	0	26	0	46137344	60	6490
2026-01-13 01:38:07.22	193.80	4.69	-43.0	-45.1	16.7	0.00e+00	92	26	0	48234496	58	7328
2026-01-13 01:38:08.23	193.86	4.76	-42.7	-44.8	16.8	0.00e+00	7	26	0	50331648	58	7035
2026-01-13 01:38:09.23	193.91	4.82	-42.6	-44.6	17.1	0.00e+00	92	26	0	52428800	58	6888
2026-01-13 01:38:10.24	193.97	4.89	-42.3	-44.3	17.4	0.00e+00	92	26	0	54525952	58	6643
2026-01-13 01:38:11.25	194.03	4.95	-42.2	-44.1	17.7	0.00e+00	0	26	0	55574528	58	6535
2026-01-13 01:38:12.26	194.09	5.02	-42.1	-43.9	17.9	0.00e+00	92	26	0	57671680	58	6342
2026-01-13 01:38:13.27	194.15	5.09	-42.1	-43.9	17.9	0.00e+00	0	26	0	59768832	58	6356
2026-01-13 01:38:14.28	194.21	5.16	-42.1	-44.0	17.8	0.00e+00	92	26	0	61865984	58	6443
2026-01-13 01:38:15.29	194.27	5.22	-42.1	-44.0	17.8	0.00e+00	77	26	0	63963136	58	6413
2026-01-13 01:38:16.30	194.33	5.29	-41.8	-43.6	18.1	0.00e+00	92	26	0	65011712	58	6116
2026-01-13 01:38:17.31	194.39	5.36	-41.8	-43.5	18.2	0.00e+00	92	26	0	67108864	58	6080
2026-01-13 01:38:18.32	194.45	5.43	-42.0	-43.8	18.1	0.00e+00	0	26	0	69206016	58	6251
2026-01-13 01:38:19.33	194.51	5.49	-41.7	-43.4	18.4	0.00e+00	90	26	0	71303168	56	6716
2026-01-13 01:38:20.34	194.57	5.56	-41.9	-43.7	18.2	0.00e+00	0	26	0	73400320	56	6934
2026-01-13 01:38:21.35	194.64	5.63	-41.5	-43.2	18.6	0.00e+00	90	26	0	74448896	56	6568
2026-01-13 01:38:22.35	194.70	5.70	-41.8	-43.5	18.3	0.00e+00	0	27	0	76546048	56	6843
2026-01-13 01:38:23.36	194.76	5.77	-41.6	-43.3	18.6	0.00e+00	92	26	0	78643200	56	6644
2026-01-13 01:38:24.37	194.82	5.83	-41.4	-42.9	18.8	0.00e+00	92	26	0	80740352	56	6382
2026-01-13 01:38:25.38	194.89	5.90	-41.5	-43.2	18.7	0.00e+00	15	26	0	82837504	56	6569
2026-01-13 01:38:26.39	194.95	5.97	-41.2	-42.8	19.0	0.00e+00	76	26	0	84934656	56	6264
2026-01-13 01:38:27.40	195.01	6.04	-41.4	-43.0	18.9	0.00e+00	0	26	0	85983232	56	6410
2026-01-13 01:38:28.41	195.08	6.11	-41.5	-43.2	18.7	0.00e+00	92	26	0	88080384	56	6549
2026-01-13 01:38:29.42	195.14	6.18	-41.4	-43.0	18.9	0.00e+00	0	26	0	90177536	56	6398
2026-01-13 01:38:30.43	195.20	6.25	-41.4	-42.9	18.9	0.00e+00	90	26	0	92274688	56	6377
2026-01-13 01:38:31.44	195.27	6.32	-41.3	-42.8	19.1	0.00e+00	92	26	0	94371840	56	6269
2026-01-13 01:38:32.45	195.33	6.39	-41.3	-42.8	19.0	0.00e+00	0	26	0	95420416	56	6301
2026-01-13 01:38:33.46	195.40	6.46	-41.2	-42.8	19.1	0.00e+00	90	26	0	97517568	56	6251
2026-01-13 01:38:34.47	195.46	6.53	-41.1	-42.6	19.2	0.00e+00	0	26	0	99614720	56	6153
2026-01-13 01:38:35.48	195.53	6.60	-41.3	-42.9	19.0	0.00e+00	92	26	0	101711872	56	6320
2026-01-13 01:38:36.48	195.59	6.67	-41.2	-42.7	19.1	0.00e+00	0	26	0	102760448	56	6237
2026-01-13 01:38:37.50	195.66	6.74	-41.2	-42.7	19.2	0.00e+00	92	26	0	104857600	56	6242
2026-01-13 01:38:38.50	195.73	6.81	-41.0	-42.5	19.4	0.00e+00	92	27	0	106954752	56	6067
2026-01-13 01:38:39.52	195.79	6.88	-41.0	-42.5	19.4	0.00e+00	92	26	0	109051904	56	6047
2026-01-13 01:38:40.53	195.86	6.95	-41.0	-42.5	19.4	0.00e+00	92	27	0	111149056	56	6066
2026-01-13 01:38:41.54	195.93	7.03	-41.0	-42.6	19.3	0.00e+00	0	27	0	113246208	56	6125
2026-01-13 01:38:42.55	196.00	7.10	-40.7	-42.2	19.7	0.00e+00	91	26	0	114294784	54	6547
2026-01-13 01:38:43.56	196.06	7.17	-40.5	-42.0	19.9	0.00e+00	0	26	0	116391936	54	6391
2026-01-13 01:38:44.57	196.13	7.24	-40.5	-41.9	19.8	0.00e+00	92	26	0	118489088	54	6380
2026-01-13 01:38:45.58	196.20	7.31	-40.8	-42.2	19.7	0.00e+00	25	26	0	120586240	54	6612
2026-01-13 01:38:46.59	196.27	7.38	-40.5	-41.8	19.8	0.00e+00	92	27	0	122683392	54	6313
2026-01-13 01:38:47.59	196.34	7.46	-40.6	-42.0	19.9	0.00e+00	92	26	0	123731968	54	6421
2026-01-13 01:38:48.60	196.41	7.53	-40.4	-41.7	20.1	0.00e+00	0	26	0	125829120	54	6225
2026-01-13 01:38:49.61	196.48	7.60	-40.4	-41.7	20.2	0.00e+00	92	26	0	127926272	54	6203
2026-01-13 01:38:50.62	196.55	7.67	-40.6	-41.9	20.1	0.00e+00	0	26	0	130023424	54	6371
2026-01-13 01:38:51.63	196.62	7.75	-40.3	-41.6	20.2	0.00e+00	92	26	0	132120576	54	6121
2026-01-13 01:38:52.64	196.69	7.82	-40.6	-41.9	20.0	0.00e+00	10	27	0	133169152	54	6351
2026-01-13 01:38:53.65	196.76	7.89	-40.2	-41.5	20.4	0.00e+00	91	27	0	135266304	54	6037
2026-01-13 01:38:54.66	196.83	7.97	-40.0	-41.3	20.6	0.00e+00	92	26	0	137363456	54	5925
2026-01-13 01:38:55.67	196.91	8.04	-39.9	-41.1	20.8	0.00e+00	0	26	0	139460608	54	5812
2026-01-13 01:38:56.68	196.98	8.12	-39.9	-41.1	20.7	0.00e+00	69	27	0	141557760	54	5801
2026-01-13 01:38:57.69	197.05	8.19	-39.8	-41.0	20.9	0.00e+00	0	27	0	142606336	54	5708
2026-01-13 01:38:58.70	197.13	8.26	-39.8	-40.9	21.0	0.00e+00	92	27	0	144703488	52	6381
2026-01-13 01:38:59.71	197.20	8.34	-39.8	-41.0	20.9	0.00e+00	0	27	0	146800640	52	6440
2026-01-13 01:39:00.72	197.27	8.41	-39.7	-40.9	21.0	0.00e+00	92	26	0	148897792	52	6364
2026-01-13 01:39:01.73	197.35	8.49	-39.5	-40.7	21.2	0.00e+00	92	26	0	150994944	52	6209
2026-01-13 01:39:02.74	197.42	8.56	-39.5	-40.7	21.1	0.00e+00	0	27	0	153092096	52	6193
2026-01-13 01:39:03.75	197.50	8.64	-39.5	-40.6	21.3	0.00e+00	92	27	0	154140672	52	6122
2026-01-13 01:39:04.76	197.57	8.71	-39.4	-40.5	21.3	0.00e+00	0	27	0	156237824	52	6092
2026-01-13 01:39:05.77	197.65	8.79	-39.5	-40.6	21.2	0.00e+00	92	27	0	158334976	52	6140
2026-01-13 01:39:06.78	197.72	8.86	-39.3	-40.4	21.4	0.00e+00	0	27	0	160432128	52	6003
2026-01-13 01:39:07.79	197.80	8.94	-39.4	-40.5	21.3	0.00e+00	92	26	0	162529280	52	6075
2026-01-13 01:39:08.80	197.88	9.02	-39.2	-40.3	21.6	0.00e+00	84	27	0	163577856	52	5914
2026-01-13 01:39:09.81	197.95	9.09	-39.2	-40.3	21.5	0.00e+00	0	26	0	165675008	52	5922
2026-01-13 01:39:10.82	198.03	9.17	-39.1	-40.2	21.5	0.00e+00	92	26	0	167772160	52	5862
2026-01-13 01:39:11.82	198.11	9.25	-39.0	-40.0	21.7	0.00e+00	0	27	0	169869312	52	5759
2026-01-13 01:39:12.83	198.19	9.32	-39.3	-40.4	21.4	0.00e+00	90	27	0	170917888	52	6017
2026-01-13 01:39:13.84	198.27	9.40	-39.5	-40.6	21.3	0.00e+00	0	27	0	173015040	52	6129
2026-01-13 01:39:14.85	198.34	9.48	-39.3	-40.4	21.4	0.00e+00	90	27	0	175112192	52	5977
2026-01-13 01:39:15.86	198.42	9.55	-39.4	-40.5	21.3	0.00e+00	30	27	0	177209344	52	6075
2026-01-13 01:39:16.87	198.50	9.63	-39.2	-40.3	21.5	0.00e+00	90	27	0	179306496	52	5955
2026-01-13 01:39:17.88	198.58	9.71	-39.2	-40.3	21.6	0.00e+00	90	27	0	181403648	52	5910
2026-01-13 01:39:18.89	198.67	9.79	-39.1	-40.2	21.7	0.00e+00	0	27	0	182452224	52	5846
2026-01-13 01:39:19.90	198.75	9.87	-39.2	-40.3	21.6	0.00e+00	92	27	0	184549376	52	5901
2026-01-13 01:39:20.91	198.83	9.95	-39.1	-40.2	21.6	0.00e+00	0	27	0	186646528	52	5877
2026-01-13 01:39:21.92	198.91	10.02	-39.0	-40.1	21.7	0.00e+00	92	26	0	188743680	52	5763
2026-01-13 01:39:22.93	198.99	10.10	-39.2	-40.3	21.5	0.00e+00	13	27	0	190840832	52	5944
2026-01-13 01:39:23.94	199.08	10.18	-39.1	-40.1	21.7	0.00e+00	90	27	0	191889408	52	5823
2026-01-13 01:39:24.95	199.16	10.26	-38.9	-40.0	21.9	0.00e+00	92	27	0	193986560	52	5727
2026-01-13 01:39:25.96	199.24	10.34	-39.1	-40.2	21.7	0.00e+00	0	27	0	196083712	52	5855
2026-01-13 01:39:26.97	199.33	10.42	-39.1	-40.2	21.7	0.00e+00	61	27	0	198180864	52	5870
2026-01-13 01:39:27.98	199.41	10.50	-38.9	-40.0	21.9	0.00e+00	0	27	0	200278016	52	5715
2026-01-13 01:39:28.99	199.50	10.58	-39.0	-40.1	21.8	0.00e+00	92	27	0	201326592	52	5769
2026-01-13 01:39:30.00	199.58	10.66	-39.0	-40.0	21.8	0.00e+00	12	27	0	203423744	52	5743
2026-01-13 01:39:31.01	199.67	10.74	-38.8	-39.9	21.8	0.00e+00	92	27	0	205520896	52	5652
2026-01-13 01:39:32.02	199.75	10.82	-39.1	-40.1	21.7	0.00e+00	92	27	0	207618048	52	5816
2026-01-13 01:39:33.03	199.84	10.90	-39.1	-40.2	21.7	0.00e+00	0	27	0	209715200	52	5856
2026-01-13 01:39:34.04	199.93	10.98	-39.2	-40.3	21.6	0.00e+00	49	27	0	210763776	52	5921
2026-01-13 01:39:35.05	200.02	11.07	-39.0	-40.1	21.8	0.00e+00	0	27	0	212860928	52	5809
2026-01-13 01:39:36.06	200.10	11.15	-39.1	-40.2	21.7	0.00e+00	91	27	0	214958080	52	5844
2026-01-13 01:39:37.06	200.19	11.23	-39.1	-40.2	21.8	0.00e+00	0	27	0	217055232	52	5840
2026-01-13 01:39:38.07	200.28	11.31	-38.8	-39.9	21.9	0.00e+00	91	27	0	219152384	52	5636
2026-01-13 01:39:39.08	200.37	11.39	-38.7	-39.8	22.1	0.00e+00	90	27	0	220200960	50	6271
2026-01-13 01:39:40.09	200.46	11.47	-38.6	-39.6	22.2	0.00e+00	0	26	0	222298112	50	6114
2026-01-13 01:39:41.10	200.55	11.56	-38.5	-39.6	22.2	0.00e+00	69	27	0	224395264	50	6112
2026-01-13 01:39:42.11	200.64	11.64	-38.5	-39.6	22.2	0.00e+00	0	27	0	226492416	50	6106
2026-01-13 01:39:43.12	200.73	11.72	-38.4	-39.4	22.3	0.00e+00	92	27	0	228589568	50	6017
2026-01-13 01:39:44.12	200.82	11.81	-38.5	-39.5	22.2	0.00e+00	0	27	0	229638144	50	6062
2026-01-13 01:39:45.13	200.92	11.89	-38.5	-39.5	22.2	0.00e+00	92	27	0	231735296	50	6075
2026-01-13 01:39:46.15	201.01	11.97	-38.3	-39.3	22.4	0.00e+00	91	27	0	233832448	50	5926
2026-01-13 01:39:47.15	201.10	12.06	-38.5	-39.5	22.4	0.00e+00	0	27	0	235929600	50	6060
2026-01-13 01:39:48.16	201.20	12.14	-38.5	-39.5	22.3	0.00e+00	92	27	0	238026752	50	6044
2026-01-13 01:39:49.17	201.29	12.23	-38.1	-39.1	22.8	0.00e+00	0	27	0	239075328	50	5766
2026-01-13 01:39:50.18	201.39	12.31	-38.1	-39.1	22.6	0.00e+00	91	27	0	241172480	50	5765
2026-01-13 01:39:51.19	201.48	12.40	-38.3	-39.2	22.5	0.00e+00	0	27	0	243269632	50	5896
2026-01-13 01:39:52.20	201.58	12.48	-38.3	-39.3	22.5	0.00e+00	92	27	0	245366784	50	5904
2026-01-13 01:39:53.20	201.68	12.57	-38.2	-39.2	22.5	0.00e+00	91	27	0	247463936	50	5853
2026-01-13 01:39:54.21	201.77	12.65	-38.4	-39.4	22.3	0.00e+00	92	27	0	249561088	50	6011
2026-01-13 01:39:55.22	201.87	12.74	-38.3	-39.3	22.4	0.00e+00	92	27	0	250609664	50	5928
2026-01-13 01:39:56.23	201.97	12.82	-38.5	-39.5	22.4	0.00e+00	20	27	0	252706816	50	6100
2026-01-13 01:39:57.24	202.07	12.91	-38.3	-39.3	22.4	0.00e+00	92	27	0	254803968	50	5949
2026-01-13 01:39:58.25	202.17	13.00	-38.2	-39.2	22.6	0.00e+00	0	27	0	256901120	50	5852
2026-01-13 01:39:59.26	202.27	13.08	-38.3	-39.3	22.5	0.00e+00	91	27	0	258998272	50	5927
2026-01-13 01:40:00.27	202.37	13.17	-38.2	-39.2	22.6	0.00e+00	0	27	0	260046848	50	5839
2026-01-13 01:40:01.27	202.47	13.26	-38.1	-39.1	22.6	0.00e+00	92	27	0	262144000	50	5809
2026-01-13 01:40:02.28	202.57	13.34	-38.1	-39.1	22.7	0.00e+00	90	27	0	264241152	50	5795
2026-01-13 01:40:03.29	202.67	13.43	-38.1	-39.1	22.7	0.00e+00	0	27	0	266338304	50	5820
2026-01-13 01:40:04.30	202.77	13.52	-38.2	-39.1	22.6	0.00e+00	91	27	0	268435456	50	5817
2026-01-13 01:40:05.31	202.88	13.61	-38.2	-39.2	22.6	0.00e+00	0	26	0	269484032	50	5850
2026-01-13 01:40:06.32	202.98	13.70	-38.1	-39.0	22.7	0.00e+00	91	27	0	271581184	50	5757
2026-01-13 01:40:07.33	203.09	13.78	-38.2	-39.2	22.6	0.00e+00	0	27	0	273678336	50	5849
2026-01-13 01:40:08.34	203.19	13.87	-38.0	-38.9	22.8	0.00e+00	91	27	0	275775488	50	5674
2026-01-13 01:40:09.35	203.30	13.96	-38.0	-39.0	22.8	0.00e+00	91	27	0	277872640	50	5720
2026-01-13 01:40:10.36	203.40	14.05	-38.0	-38.9	22.8	0.00e+00	0	27	0	278921216	50	5682
2026-01-13 01:40:11.37	203.51	14.14	-38.0	-39.0	22.7	0.00e+00	92	27	0	281018368	50	5717
2026-01-13 01:40:12.38	203.62	14.23	-38.2	-39.2	22.8	0.00e+00	0	27	0	283115520	50	5839
2026-01-13 01:40:13.39	203.73	14.32	-38.1	-39.1	22.6	0.00e+00	92	27	0	285212672	50	5791
2026-01-13 01:40:14.40	203.84	14.41	-38.1	-39.1	22.7	0.00e+00	0	27	0	287309824	50	5791
2026-01-13 01:40:15.41	203.95	14.50	-38.1	-39.1	22.6	0.00e+00	92	27	0	288358400	50	5787
2026-01-13 01:40:16.42	204.06	14.59	-38.2	-39.2	22.5	0.00e+00	92	27	0	290455552	50	5882
2026-01-13 01:40:17.43	204.17	14.68	-38.2	-39.2	22.6	0.00e+00	43	27	0	292552704	50	5832
2026-01-13 01:40:18.44	204.28	14.77	-38.1	-39.1	22.6	0.00e+00	92	27	0	294649856	50	5773
2026-01-13 01:40:19.45	204.39	14.87	-38.2	-39.1	22.6	0.00e+00	0	27	0	296747008	50	5808
2026-01-13 01:40:20.46	204.50	14.96	-38.2	-39.1	22.8	0.00e+00	92	27	0	297795584	50	5803
2026-01-13 01:40:21.47	204.62	15.05	-38.1	-39.0	22.7	0.00e+00	0	27	0	299892736	50	5736
2026-01-13 01:40:22.48	204.73	15.14	-38.1	-39.0	22.7	0.00e+00	92	27	0	301989888	50	5759
2026-01-13 01:40:23.49	204.85	15.23	-38.0	-39.0	22.6	0.00e+00	7	27	0	304087040	50	5708
2026-01-13 01:40:24.50	204.96	15.33	-37.8	-38.8	22.9	0.00e+00	92	27	0	306184192	50	5578
2026-01-13 01:40:25.51	205.08	15.42	-38.2	-39.2	22.6	0.00e+00	92	27	0	307232768	50	5859
2026-01-13 01:40:26.52	205.20	15.51	-38.3	-39.2	22.7	0.00e+00	0	27	0	309329920	50	5882
2026-01-13 01:40:27.53	205.31	15.61	-38.1	-39.1	22.6	0.00e+00	85	27	0	311427072	50	5766
2026-01-13 01:40:28.54	205.43	15.70	-38.3	-39.3	22.5	0.00e+00	0	27	0	313524224	50	5931
2026-01-13 01:40:29.54	205.55	15.79	-38.3	-39.4	22.5	0.00e+00	92	27	0	315621376	50	5968
2026-01-13 01:40:30.55	205.67	15.89	-38.5	-39.5	22.4	0.00e+00	45	27	0	317718528	50	6088
2026-01-13 01:40:31.56	205.79	15.98	-38.4	-39.4	22.5	0.00e+00	92	27	0	318767104	50	5983
2026-01-13 01:40:32.57	205.91	16.08	-38.4	-39.5	22.5	0.00e+00	92	27	0	320864256	50	6040
2026-01-13 01:40:33.58	206.03	16.17	-38.4	-39.4	22.5	0.00e+00	0	27	0	322961408	50	5972
2026-01-13 01:40:34.59	206.16	16.27	-38.2	-39.2	22.6	0.00e+00	92	27	0	325058560	50	5833
2026-01-13 01:40:35.60	206.28	16.36	-38.5	-39.5	22.5	0.00e+00	0	27	0	327155712	50	6049
2026-01-13 01:40:36.61	206.41	16.46	-38.5	-39.5	22.4	0.00e+00	92	27	0	328204288	50	6057
2026-01-13 01:40:37.62	206.53	16.55	-38.3	-39.2	22.6	0.00e+00	6	27	0	330301440	50	5886
2026-01-13 01:40:38.63	206.66	16.65	-38.2	-39.2	22.7	0.00e+00	92	27	0	332398592	50	5849
2026-01-13 01:40:39.64	206.78	16.75	-37.9	-38.8	22.9	0.00e+00	92	27	0	334495744	50	5605
2026-01-13 01:40:40.65	206.91	16.84	-38.2	-39.1	22.7	0.00e+00	0	27	0	336592896	50	5807
2026-01-13 01:40:41.66	207.04	16.94	-38.0	-39.0	22.8	0.00e+00	92	27	0	337641472	50	5703
2026-01-13 01:40:42.66	207.17	17.04	-38.2	-39.2	22.7	0.00e+00	0	27	0	339738624	50	5831
2026-01-13 01:40:43.67	207.30	17.13	-38.4	-39.4	22.6	0.00e+00	92	27	0	341835776	50	5984
2026-01-13 01:40:44.68	207.43	17.23	-38.1	-39.1	22.7	0.00e+00	0	27	0	343932928	50	5794
2026-01-13 01:40:45.69	207.56	17.33	-38.1	-39.1	22.8	0.00e+00	92	27	0	346030080	50	5768
2026-01-13 01:40:46.70	207.69	17.43	-38.1	-39.0	22.8	0.00e+00	92	27	0	347078656	50	5752
2026-01-13 01:40:47.71	207.82	17.53	-38.3	-39.2	22.7	0.00e+00	0	27	0	349175808	50	5895
2026-01-13 01:40:48.72	207.96	17.63	-38.1	-39.0	22.9	0.00e+00	92	27	0	351272960	50	5724
2026-01-13 01:40:49.73	208.09	17.73	-38.0	-38.9	22.9	0.00e+00	0	27	0	353370112	50	5695
2026-01-13 01:40:50.74	208.23	17.82	-38.1	-39.1	22.7	0.00e+00	92	27	0	355467264	50	5788
2026-01-13 01:40:51.74	208.36	17.92	-38.4	-39.4	22.6	0.00e+00	0	27	0	356515840	50	5984
2026-01-13 01:40:52.75	208.50	18.02	-38.5	-39.6	22.4	0.00e+00	92	27	0	358612992	50	6108
2026-01-13 01:40:53.76	208.64	18.12	-38.8	-39.8	22.2	0.00e+00	92	27	0	360710144	50	6280
2026-01-13 01:40:54.77	208.78	18.22	-38.8	-39.8	22.3	0.00e+00	92	27	0	362807296	50	6287
2026-01-13 01:40:55.78	208.92	18.32	-38.8	-39.9	22.1	0.00e+00	91	27	0	364904448	50	6335
2026-01-13 01:40:56.79	209.06	18.42	-38.9	-39.9	22.1	0.00e+00	0	27	0	365953024	50	6372
2026-01-13 01:40:57.80	209.20	18.52	-38.9	-39.9	22.2	0.00e+00	92	27	0	368050176	50	6362
2026-01-13 01:40:58.81	209.34	18.63	-38.9	-39.9	22.2	0.00e+00	0	27	0	370147328	50	6375
2026-01-13 01:40:59.82	209.49	18.73	-38.9	-40.0	22.0	0.00e+00	92	27	0	372244480	50	6392
2026-01-13 01:41:00.83	209.63	18.83	-38.6	-39.6	22.5	0.00e+00	12	27	0	374341632	50	6165
2026-01-13 01:41:01.84	209.78	18.93	-38.5	-39.5	22.4	0.00e+00	23	27	0	375390208	50	6088
2026-01-13 01:41:02.85	209.92	19.03	-38.9	-39.9	22.1	0.00e+00	92	27	0	377487360	50	6363
2026-01-13 01:41:03.86	210.07	19.14	-38.7	-39.7	22.3	0.00e+00	0	27	0	379584512	50	6175
2026-01-13 01:41:04.87	210.22	19.24	-38.7	-39.7	22.2	0.00e+00	78	27	0	381681664	50	6222
2026-01-13 01:41:05.88	210.37	19.34	-38.9	-39.9	22.2	0.00e+00	0	27	0	383778816	50	6363
2026-01-13 01:41:06.88	210.52	19.44	-38.7	-39.7	22.2	0.00e+00	92	27	0	384827392	50	6182
2026-01-13 01:41:07.89	210.67	19.55	-38.8	-39.8	22.2	0.00e+00	90	27	0	386924544	50	6293
2026-01-13 01:41:08.90	210.82	19.65	-38.9	-39.9	22.1	0.00e+00	92	27	0	389021696	50	6354
2026-01-13 01:41:09.91	210.98	19.75	-38.7	-39.8	22.2	0.00e+00	92	27	0	391118848	50	6249
2026-01-13 01:41:10.92	211.13	19.86	-38.7	-39.7	22.3	0.00e+00	0	27	0	393216000	50	6191
2026-01-13 01:41:11.93	211.29	19.96	-38.8	-39.8	22.3	0.00e+00	91	27	0	394264576	50	6300
2026-01-13 01:41:12.94	211.44	20.07	-39.0	-40.1	22.1	0.00e+00	0	27	0	396361728	50	6519
2026-01-13 01:41:13.95	211.60	20.17	-38.9	-39.9	22.0	0.00e+00	92	27	0	398458880	50	6384
2026-01-13 01:41:14.96	211.76	20.28	-38.8	-39.9	22.2	0.00e+00	15	27	0	400556032	50	6359
2026-01-13 01:41:15.97	211.92	20.38	-39.1	-40.2	22.0	0.00e+00	92	27	0	402653184	50	6611
2026-01-13 01:41:16.98	212.08	20.49	-38.9	-40.0	21.9	0.00e+00	91	27	0	403701760	50	6441
2026-01-13 01:41:17.99	212.24	20.59	-38.7	-39.7	22.3	0.00e+00	0	27	0	405798912	50	6231
2026-01-13 01:41:19.00	212.40	20.70	-38.7	-39.8	22.3	0.00e+00	69	27	0	407896064	50	6263
2026-01-13 01:41:20.01	212.57	20.81	-38.7	-39.7	22.4	0.00e+00	0	27	0	409993216	50	6212
2026-01-13 01:41:21.01	212.73	20.91	-38.5	-39.5	22.6	0.00e+00	92	27	0	412090368	50	6071
2026-01-13 01:41:22.03	212.90	21.02	-38.3	-39.3	22.7	0.00e+00	0	27	0	414187520	50	5914
2026-01-13 01:41:23.03	213.06	21.12	-38.2	-39.2	22.8	0.00e+00	92	27	0	415236096	50	5835
2026-01-13 01:41:24.04	213.23	21.23	-38.1	-39.0	22.9	0.00e+00	92	27	0	417333248	50	5740
2026-01-13 01:41:25.05	213.40	21.34	-37.8	-38.8	23.0	0.00e+00	0	27	0	419430400	50	5576
2026-01-13 01:41:26.06	213.57	21.45	-37.8	-38.7	23.2	0.00e+00	92	27	0	421527552	50	5535
2026-01-13 01:41:27.07	213.74	21.55	-38.0	-38.9	23.0	0.00e+00	0	27	0	423624704	50	5671
2026-01-13 01:41:28.08	213.92	21.66	-38.0	-39.0	22.8	0.00e+00	92	27	0	424673280	50	5723
2026-01-13 01:41:29.09	214.09	21.77	-38.0	-39.0	22.9	0.00e+00	0	27	0	426770432	50	5712
2026-01-13 01:41:30.09	214.26	21.88	-38.1	-39.0	22.9	0.00e+00	92	27	0	428867584	50	5754
2026-01-13 01:41:31.11	214.44	21.99	-38.3	-39.2	22.7	0.00e+00	0	27	0	430964736	50	5888
2026-01-13 01:41:32.11	214.62	22.09	-38.3	-39.3	22.7	0.00e+00	90	27	0	433061888	50	5930
2026-01-13 01:41:33.12	214.80	22.20	-38.3	-39.3	22.6	0.00e+00	92	27	0	434110464	50	5933
2026-01-13 01:41:34.13	214.98	22.31	-38.6	-39.6	22.4	0.00e+00	0	27	0	436207616	50	6156
2026-01-13 01:41:35.14	215.16	22.42	-38.5	-39.6	22.4	0.00e+00	92	27	0	438304768	50	6112
2026-01-13 01:41:36.15	215.34	22.53	-38.5	-39.5	22.6	0.00e+00	0	27	0	440401920	50	6097
2026-01-13 01:41:37.16	215.53	22.64	-38.4	-39.4	22.8	0.00e+00	86	27	0	442499072	50	6002
2026-01-13 01:41:38.17	215.71	22.75	-38.4	-39.4	22.7	0.00e+00	13	27	0	443547648	50	5977
2026-01-13 01:41:39.18	215.90	22.86	-37.8	-38.7	23.1	0.00e+00	92	27	0	445644800	50	5552
2026-01-13 01:41:40.19	216.09	22.97	-37.8	-38.7	23.2	0.00e+00	92	27	0	447741952	50	5523
2026-01-13 01:41:41.20	216.27	23.08	-37.7	-38.6	23.2	0.00e+00	0	27	0	449839104	48	6173
2026-01-13 01:41:42.20	216.46	23.19	-37.7	-38.6	23.2	0.00e+00	90	27	0	451936256	48	6156
2026-01-13 01:41:43.22	216.66	23.30	-37.9	-38.8	23.0	0.00e+00	19	27	0	452984832	48	6273
2026-01-13 01:41:44.23	216.85	23.41	-38.3	-39.3	22.6	0.00e+00	92	27	0	455081984	48	6642
2026-01-13 01:41:45.24	217.04	23.52	-38.4	-39.4	22.6	0.00e+00	15	27	0	457179136	48	6708
2026-01-13 01:41:46.24	217.24	23.63	-38.5	-39.5	22.4	0.00e+00	90	27	0	459276288	48	6831
2026-01-13 01:41:47.25	217.43	23.74	-38.7	-39.8	22.3	0.00e+00	92	27	0	461373440	48	7010
2026-01-13 01:41:48.26	217.63	23.85	-38.4	-39.4	22.5	0.00e+00	0	27	0	462422016	48	6743
2026-01-13 01:41:49.27	217.83	23.97	-38.2	-39.1	22.7	0.00e+00	92	27	0	464519168	48	6527
2026-01-13 01:41:50.28	218.03	24.08	-37.8	-38.8	23.1	0.00e+00	0	27	0	466616320	48	6255
2026-01-13 01:41:51.29	218.24	24.19	-37.7	-38.6	23.2	0.00e+00	90	27	0	468713472	48	6135
2026-01-13 01:41:52.30	218.44	24.30	-37.3	-38.1	23.6	0.00e+00	0	27	0	470810624	48	5816
2026-01-13 01:41:53.31	218.64	24.41	-37.1	-38.0	23.6	0.00e+00	92	27	0	471859200	48	5720
2026-01-13 01:41:54.32	218.85	24.52	-37.1	-37.9	23.8	0.00e+00	90	27	0	473956352	48	5683
2026-01-13 01:41:55.33	219.06	24.64	-37.1	-38.0	23.8	0.00e+00	0	27	0	476053504	48	5726
2026-01-13 01:41:56.34	219.27	24.75	-37.1	-37.9	23.6	0.00e+00	90	27	0	478150656	48	5673
2026-01-13 01:41:57.35	219.48	24.86	-37.2	-38.1	23.7	0.00e+00	0	27	0	480247808	48	5764
2026-01-13 01:41:58.36	219.69	24.97	-37.3	-38.1	23.6	0.00e+00	63	27	0	482344960	48	5812
2026-01-13 01:41:59.37	219.91	25.08	-37.1	-38.0	23.8	0.00e+00	0	27	0	483393536	48	5700
2026-01-13 01:42:00.38	220.12	25.20	-37.0	-37.8	23.9	0.00e+00	92	27	0	485490688	48	5629
2026-01-13 01:42:01.39	220.34	25.31	-37.0	-37.9	23.8	0.00e+00	90	27	0	487587840	48	5650
2026-01-13 01:42:02.40	220.56	25.42	-36.9	-37.8	23.9	0.00e+00	0	27	0	489684992	48	5596
2026-01-13 01:42:03.41	220.78	25.53	-36.9	-37.7	23.8	0.00e+00	92	27	0	491782144	46	6220
2026-01-13 01:42:04.42	221.00	25.65	-36.9	-37.8	23.9	0.00e+00	0	27	0	492830720	46	6263
2026-01-13 01:42:05.43	221.22	25.76	-36.8	-37.6	24.0	0.00e+00	69	27	0	494927872	46	6151
2026-01-13 01:42:06.44	221.45	25.87	-36.9	-37.8	24.0	0.00e+00	0	27	0	497025024	46	6265
2026-01-13 01:42:07.45	221.67	25.98	-36.8	-37.6	23.8	0.00e+00	92	27	0	499122176	46	6130
2026-01-13 01:42:08.46	221.90	26.10	-36.9	-37.8	23.9	0.00e+00	60	27	0	501219328	46	6282
2026-01-13 01:42:09.47	222.13	26.21	-36.7	-37.5	24.1	0.00e+00	28	27	0	502267904	46	6064
2026-01-13 01:42:10.48	222.36	26.32	-36.4	-37.2	24.1	0.00e+00	92	27	0	504365056	46	5874
2026-01-13 01:42:11.49	222.59	26.43	-36.4	-37.2	24.4	0.00e+00	0	27	0	506462208	46	5851
2026-01-13 01:42:12.50	222.83	26.55	-36.3	-37.1	24.2	0.00e+00	92	27	0	508559360	46	5765
2026-01-13 01:42:13.50	223.06	26.66	-36.3	-37.1	24.4	0.00e+00	0	27	0	510656512	46	5827
2026-01-13 01:42:14.51	223.30	26.77	-36.8	-37.6	23.9	0.00e+00	92	27	0	511705088	46	6136
2026-01-13 01:42:15.52	223.54	26.88	-37.0	-37.9	23.6	0.00e+00	92	27	0	513802240	46	6353
2026-01-13 01:42:16.53	223.78	26.99	-37.0	-37.9	23.7	0.00e+00	92	27	0	515899392	46	6351
2026-01-13 01:42:17.53	224.02	27.11	-37.5	-38.4	23.4	0.00e+00	92	27	0	517996544	46	6706
2026-01-13 01:42:18.54	224.26	27.22	-37.8	-38.7	23.2	0.00e+00	0	27	0	520093696	46	6980
2026-01-13 01:42:19.55	224.51	27.33	-37.7	-38.6	23.2	0.00e+00	92	27	0	521142272	48	6152
2026-01-13 01:42:20.56	224.76	27.44	-37.6	-38.5	23.4	0.00e+00	0	27	0	523239424	48	6061
2026-01-13 01:42:21.57	225.00	27.55	-37.6	-38.5	23.3	0.00e+00	92	27	0	525336576	48	6078
2026-01-13 01:42:22.58	225.25	27.67	-37.6	-38.6	23.3	0.00e+00	0	27	0	527433728	48	6117
2026-01-13 01:42:23.59	225.51	27.78	-37.5	-38.4	23.5	0.00e+00	92	27	0	529530880	48	6033
2026-01-13 01:42:24.60	225.76	27.89	-37.1	-38.0	23.7	0.00e+00	92	27	0	530579456	48	5713
2026-01-13 01:42:25.61	226.02	28.00	-37.2	-38.1	23.7	0.00e+00	0	27	0	532676608	48	5811
2026-01-13 01:42:26.62	226.28	28.11	-37.4	-38.3	23.5	0.00e+00	92	27	0	534773760	48	5958
2026-01-13 01:42:27.63	226.53	28.22	-37.7	-38.6	23.0	0.00e+00	0	27	0	536870912	48	6135
2026-01-13 01:42:28.64	226.80	28.33	-37.9	-38.9	23.0	0.00e+00	92	27	0	538968064	48	6342
2026-01-13 01:42:29.64	227.06	28.44	-38.2	-39.1	22.8	0.00e+00	0	27	0	540016640	48	6539
2026-01-13 01:42:30.65	227.32	28.55	-38.5	-39.5	22.6	0.00e+00	92	27	0	542113792	48	6787
2026-01-13 01:42:31.66	227.59	28.66	-38.5	-39.5	22.5	0.00e+00	92	27	0	544210944	50	6054
2026-01-13 01:42:32.67	227.86	28.77	-38.6	-39.6	22.5	0.00e+00	58	27	0	546308096	50	6152
2026-01-13 01:42:33.68	228.13	28.88	-38.3	-39.2	22.7	0.00e+00	92	27	0	548405248	50	5882
2026-01-13 01:42:34.68	228.40	28.99	-38.3	-39.3	22.7	0.00e+00	0	27	0	549453824	50	5939
2026-01-13 01:42:35.69	228.67	29.10	-38.1	-39.1	22.9	0.00e+00	92	27	0	551550976	50	5778
2026-01-13 01:42:36.70	228.94	29.21	-38.5	-39.5	22.6	0.00e+00	0	27	0	553648128	50	6046
2026-01-13 01:42:37.71	229.22	29.32	-38.3	-39.3	22.8	0.00e+00	92	27	0	555745280	50	5939
2026-01-13 01:42:38.72	229.50	29.43	-38.6	-39.6	22.2	0.00e+00	90	27	0	557842432	50	6122
2026-01-13 01:42:39.73	229.78	29.54	-39.0	-40.0	22.0	0.00e+00	90	27	0	558891008	50	6432
2026-01-13 01:42:40.74	230.07	29.64	-39.2	-40.2	22.0	0.00e+00	76	27	0	560988160	50	6603
2026-01-13 01:42:41.75	230.35	29.75	-39.3	-40.4	22.0	0.00e+00	0	27	0	563085312	50	6724
2026-01-13 01:42:42.76	230.64	29.86	-39.6	-40.7	21.5	0.00e+00	92	27	0	565182464	50	6962
2026-01-13 01:42:43.77	230.93	29.96	-40.0	-41.2	21.3	0.00e+00	0	27	0	567279616	52	6573
2026-01-13 01:42:44.78	231.22	30.07	-39.9	-41.1	21.4	0.00e+00	92	27	0	568328192	52	6487
2026-01-13 01:42:45.79	231.51	30.18	-40.3	-41.5	20.9	0.00e+00	91	27	0	570425344	52	6770
2026-01-13 01:42:46.80	231.80	30.28	-40.2	-41.4	20.8	0.00e+00	77	27	0	572522496	52	6698
2026-01-13 01:42:47.80	232.10	30.39	-40.7	-41.9	20.6	0.00e+00	91	27	0	574619648	52	7158
2026-01-13 01:42:48.81	232.39	30.49	-40.6	-41.9	20.5	0.00e+00	0	27	0	576716800	54	6376
2026-01-13 01:42:49.82	232.69	30.59	-41.6	-43.2	19.5	0.00e+00	78	27	0	578813952	54	7341
2026-01-13 01:42:50.83	233.00	30.70	-41.9	-43.4	19.1	0.00e+00	0	27	0	579862528	56	6735
2026-01-13 01:42:51.84	233.30	30.80	-42.2	-43.8	18.9	0.00e+00	92	27	0	581959680	56	7023
2026-01-13 01:42:52.85	233.60	30.90	-41.7	-43.2	19.4	0.00e+00	10	27	0	584056832	56	6610
2026-01-13 01:42:53.86	233.91	31.01	-41.4	-42.8	19.8	0.00e+00	92	27	0	586153984	56	6283
2026-01-13 01:42:54.86	234.22	31.11	-40.8	-42.1	20.4	0.00e+00	92	27	0	588251136	56	5796
2026-01-13 01:42:55.87	234.53	31.21	-40.6	-41.9	20.6	0.00e+00	0	27	0	589299712	54	6335
2026-01-13 01:42:56.88	234.84	31.31	-40.9	-42.2	20.4	0.00e+00	71	27	0	591396864	54	6615
2026-01-13 01:42:57.89	235.16	31.41	-40.3	-41.5	20.9	0.00e+00	0	27	0	593494016	54	6047
2026-01-13 01:42:58.90	235.47	31.51	-40.3	-41.6	20.9	0.00e+00	88	27	0	595591168	54	6106
2026-01-13 01:42:59.91	235.79	31.61	-40.6	-41.9	20.5	0.00e+00	0	27	0	597688320	54	6357
2026-01-13 01:43:00.92	236.11	31.70	-41.0	-42.4	20.2	0.00e+00	91	27	0	598736896	54	6719
2026-01-13 01:43:01.93	236.44	31.80	-41.3	-42.7	19.7	0.00e+00	91	27	0	600834048	54	6994
2026-01-13 01:43:02.94	236.76	31.90	-41.6	-43.0	19.5	0.00e+00	0	27	0	602931200	54	7249
2026-01-13 01:43:03.94	237.08	31.99	-41.6	-43.1	19.6	0.00e+00	45	27	0	605028352	54	7275
2026-01-13 01:43:04.95	237.41	32.09	-41.4	-42.9	20.0	0.00e+00	0	27	0	607125504	56	6319
2026-01-13 01:43:05.96	237.74	32.18	-41.0	-42.4	20.2	0.00e+00	89	27	0	608174080	56	5968
2026-01-13 01:43:06.97	238.07	32.28	-40.6	-41.8	20.7	0.00e+00	0	27	0	610271232	54	6286
2026-01-13 01:43:07.98	238.41	32.37	-40.7	-42.0	20.4	0.00e+00	92	27	0	612368384	54	6449
2026-01-13 01:43:08.98	238.74	32.46	-40.4	-41.6	20.8	0.00e+00	92	27	0	614465536	54	6121
2026-01-13 01:43:09.99	239.08	32.55	-40.7	-42.0	20.7	0.00e+00	0	27	0	616562688	54	6407
2026-01-13 01:43:11.00	239.42	32.64	-40.6	-41.9	20.2	0.00e+00	90	27	0	617611264	54	6368
2026-01-13 01:43:12.01	239.76	32.73	-41.0	-42.3	20.3	0.00e+00	0	27	0	619708416	54	6679
2026-01-13 01:43:13.02	240.10	32.82	-41.2	-42.5	20.1	0.00e+00	91	27	0	621805568	54	6848
2026-01-13 01:43:14.03	240.45	32.91	-40.8	-42.1	20.3	0.00e+00	0	27	0	623902720	54	6509
2026-01-13 01:43:15.04	240.79	33.00	-40.2	-41.4	21.0	0.00e+00	92	27	0	625999872	54	5971
2026-01-13 01:43:16.05	241.14	33.08	-40.5	-41.7	20.7	0.00e+00	89	27	0	627048448	54	6244
2026-01-13 01:43:17.06	241.49	33.17	-41.0	-42.3	20.2	0.00e+00	0	27	0	629145600	54	6655
2026-01-13 01:43:18.07	241.85	33.25	-41.1	-42.4	20.1	0.00e+00	92	27	0	631242752	54	6756
2026-01-13 01:43:19.08	242.20	33.34	-41.0	-42.3	20.2	0.00e+00	0	27	0	633339904	54	6661
2026-01-13 01:43:20.09	242.56	33.42	-41.3	-42.6	20.0	0.00e+00	71	27	0	635437056	54	6925
2026-01-13 01:43:21.09	242.91	33.50	-41.2	-42.6	19.9	0.00e+00	0	27	0	636485632	54	6868
2026-01-13 01:43:22.10	243.27	33.58	-41.3	-42.6	19.8	0.00e+00	77	27	0	638582784	54	6924
2026-01-13 01:43:23.11	243.63	33.66	-40.9	-42.2	20.2	0.00e+00	0	27	0	640679936	54	6579
2026-01-13 01:43:24.11	243.99	33.74	-41.1	-42.4	20.1	0.00e+00	92	27	0	642777088	54	6753
2026-01-13 01:43:25.12	244.35	33.82	-40.6	-41.9	20.5	0.00e+00	87	27	0	644874240	54	6343
2026-01-13 01:43:26.13	244.72	33.89	-40.5	-41.7	20.5	0.00e+00	0	27	0	645922816	54	6234
2026-01-13 01:43:27.14	245.09	33.97	-40.2	-41.4	20.9	0.00e+00	75	27	0	648019968	54	5970
2026-01-13 01:43:28.15	245.46	34.04	-40.0	-41.1	21.3	0.00e+00	0	27	0	650117120	54	5797
2026-01-13 01:43:29.16	245.83	34.12	-39.9	-41.0	21.4	0.00e+00	74	27	0	652214272	52	6448
2026-01-13 01:43:30.16	246.20	34.19	-40.2	-41.4	21.0	0.00e+00	0	27	0	654311424	52	6756
2026-01-13 01:43:31.17	246.57	34.26	-40.6	-41.8	20.6	0.00e+00	71	27	0	655360000	54	6303
2026-01-13 01:43:32.18	246.95	34.33	-40.9	-42.2	20.3	0.00e+00	92	27	0	657457152	54	6566
2026-01-13 01:43:33.19	247.33	34.40	-40.5	-41.7	20.7	0.00e+00	14	27	0	659554304	54	6205
2026-01-13 01:43:34.20	247.70	34.46	-40.2	-41.4	21.0	0.00e+00	92	27	0	661651456	54	5991
2026-01-13 01:43:35.21	248.09	34.53	-40.0	-41.2	21.2	0.00e+00	0	27	0	663748608	54	5845
2026-01-13 01:43:36.22	248.47	34.59	-39.9	-41.0	21.2	0.00e+00	92	27	0	664797184	54	5757
2026-01-13 01:43:37.23	248.85	34.66	-40.4	-41.6	20.7	0.00e+00	0	27	0	666894336	54	6168
2026-01-13 01:43:38.24	249.24	34.72	-40.7	-42.0	20.4	0.00e+00	91	27	0	668991488	54	6458
2026-01-13 01:43:39.24	249.62	34.78	-40.3	-41.4	20.9	0.00e+00	92	27	0	671088640	54	6029
2026-01-13 01:43:40.25	250.01	34.84	-40.0	-41.2	21.2	0.00e+00	0	27	0	673185792	54	5852
2026-01-13 01:43:41.26	250.40	34.90	-39.4	-40.5	21.8	0.00e+00	91	27	0	675282944	52	6058
2026-01-13 01:43:42.27	250.79	34.95	-39.7	-40.8	21.5	0.00e+00	0	27	0	676331520	52	6283
2026-01-13 01:43:43.27	251.17	35.01	-40.5	-41.7	20.8	0.00e+00	92	27	0	678428672	52	6983
2026-01-13 01:43:44.28	251.57	35.06	-40.5	-41.8	20.8	0.00e+00	0	27	0	680525824	52	7012
2026-01-13 01:43:45.29	251.96	35.11	-40.0	-41.1	21.4	0.00e+00	92	27	0	682622976	52	6507
2026-01-13 01:43:46.30	252.36	35.17	-39.7	-40.7	21.7	0.00e+00	17	27	0	684720128	52	6243
2026-01-13 01:43:47.31	252.75	35.22	-39.4	-40.4	22.0	0.00e+00	57	27	0	685768704	52	6020
2026-01-13 01:43:48.32	253.15	35.26	-39.6	-40.7	21.6	0.00e+00	92	27	0	687865856	52	6202
2026-01-13 01:43:49.33	253.55	35.31	-40.6	-41.9	20.7	0.00e+00	0	27	0	689963008	52	7106
2026-01-13 01:43:50.33	253.95	35.36	-40.7	-42.0	20.5	0.00e+00	46	27	0	692060160	54	6437
2026-01-13 01:43:51.34	254.35	35.40	-40.4	-41.7	20.8	0.00e+00	0	27	0	694157312	54	6196
2026-01-13 01:43:52.35	254.75	35.44	-39.8	-40.9	21.5	0.00e+00	92	27	0	695205888	54	5695
2026-01-13 01:43:53.36	255.16	35.48	-39.8	-40.9	21.3	0.00e+00	16	27	0	697303040	52	6380
2026-01-13 01:43:54.37	255.56	35.52	-40.0	-41.1	21.4	0.00e+00	92	27	0	699400192	52	6538
2026-01-13 01:43:55.38	255.96	35.56	-39.9	-41.1	21.3	0.00e+00	92	27	0	701497344	52	6519
2026-01-13 01:43:56.39	256.37	35.60	-39.6	-40.8	21.5	0.00e+00	0	27	0	703594496	52	6252
2026-01-13 01:43:57.40	256.78	35.63	-39.1	-40.2	22.1	0.00e+00	46	27	0	704643072	52	5856
2026-01-13 01:43:58.41	257.19	35.67	-38.8	-39.8	22.3	0.00e+00	0	27	0	706740224	50	6295
2026-01-13 01:43:59.42	257.59	35.70	-39.5	-40.6	21.5	0.00e+00	92	27	0	708837376	50	6852
2026-01-13 01:44:00.43	258.00	35.73	-40.5	-41.7	20.7	0.00e+00	0	27	0	710934528	52	6982
2026-01-13 01:44:01.44	258.41	35.76	-40.8	-42.2	20.4	0.00e+00	92	27	0	713031680	54	6556
2026-01-13 01:44:02.45	258.83	35.78	-40.9	-42.2	20.3	0.00e+00	92	27	0	714080256	54	6613
2026-01-13 01:44:03.46	259.24	35.81	-40.5	-41.7	20.9	0.00e+00	0	27	0	716177408	54	6182
2026-01-13 01:44:04.47	259.65	35.83	-39.6	-40.7	21.6	0.00e+00	92	27	0	718274560	52	6219
2026-01-13 01:44:05.48	260.06	35.86	-39.5	-40.5	21.7	0.00e+00	0	27	0	720371712	52	6096
2026-01-13 01:44:06.49	260.47	35.88	-39.8	-41.0	21.4	0.00e+00	91	27	0	722468864	52	6399
2026-01-13 01:44:07.50	260.89	35.90	-40.1	-41.2	21.1	0.00e+00	0	27	0	723517440	52	6604
2026-01-13 01:44:08.51	261.30	35.91	-40.6	-41.8	20.7	0.00e+00	91	27	0	725614592	52	7067
2026-01-13 01:44:09.52	261.72	35.93	-41.0	-42.3	20.1	0.00e+00	92	27	0	727711744	54	6686
2026-01-13 01:44:10.53	262.13	35.94	-41.4	-42.8	19.8	0.00e+00	0	27	0	729808896	54	7045
2026-01-13 01:44:11.54	262.55	35.96	-41.9	-43.4	19.4	0.00e+00	40	27	0	731906048	56	6708
2026-01-13 01:44:12.54	262.96	35.97	-42.4	-44.1	18.6	0.00e+00	0	27	0	732954624	56	7320
2026-01-13 01:44:13.55	263.37	35.97	-42.7	-44.5	18.1	0.00e+00	92	27	0	735051776	58	6829
2026-01-13 01:44:14.56	263.79	35.98	-42.7	-44.5	18.3	0.00e+00	0	27	0	737148928	58	6783
2026-01-13 01:44:15.57	264.21	35.99	-41.9	-43.4	19.3	0.00e+00	92	27	0	739246080	58	6031
2026-01-13 01:44:16.58	264.62	35.99	-41.5	-42.9	19.8	0.00e+00	90	27	0	741343232	56	6363
2026-01-13 01:44:17.59	265.04	35.99	-41.1	-42.4	20.2	0.00e+00	0	27	0	743440384	56	6024
2026-01-13 01:44:18.60	265.46	36.00	-40.7	-42.0	20.5	0.00e+00	92	27	0	744488960	54	6397
2026-01-13 01:44:19.61	265.87	35.99	-40.8	-42.0	20.5	0.00e+00	0	27	0	746586112	54	6438
2026-01-13 01:44:20.61	266.28	35.99	-41.3	-42.6	19.9	0.00e+00	92	27	0	748683264	54	6924
2026-01-13 01:44:21.62	266.70	35.99	-41.9	-43.4	19.2	0.00e+00	0	27	0	750780416	54	7520
2026-01-13 01:44:22.63	267.12	35.98	-42.1	-43.7	19.0	0.00e+00	92	27	0	751828992	56	6936
2026-01-13 01:44:23.64	267.53	35.98	-42.0	-43.5	19.2	0.00e+00	92	27	0	753926144	56	6815
2026-01-13 01:44:24.65	267.95	35.97	-41.9	-43.4	19.2	0.00e+00	40	27	0	756023296	56	6713
2026-01-13 01:44:25.66	268.36	35.96	-41.8	-43.3	19.5	0.00e+00	92	27	0	758120448	56	6659
2026-01-13 01:44:26.67	268.78	35.94	-40.9	-42.2	20.4	0.00e+00	0	27	0	760217600	56	5861
2026-01-13 01:44:27.68	269.19	35.93	-40.0	-41.2	21.3	0.00e+00	92	27	0	761266176	54	5840
2026-01-13 01:44:28.69	269.61	35.91	-39.8	-40.9	21.4	0.00e+00	0	27	0	763363328	52	6390
2026-01-13 01:44:29.70	270.02	35.90	-39.9	-41.0	21.2	0.00e+00	92	27	0	765460480	52	6412
2026-01-13 01:44:30.70	270.43	35.88	-40.0	-41.2	21.1	0.00e+00	13	27	0	767557632	52	6561
2026-01-13 01:44:31.71	270.84	35.86	-40.3	-41.5	20.9	0.00e+00	92	27	0	769654784	52	6817
2026-01-13 01:44:32.72	271.26	35.83	-40.6	-41.8	20.4	0.00e+00	92	27	0	771751936	52	7040
2026-01-13 01:44:33.73	271.67	35.81	-41.6	-43.1	19.4	0.00e+00	0	27	0	772800512	54	7280
2026-01-13 01:44:34.74	272.08	35.79	-43.1	-45.1	17.7	0.00e+00	92	27	0	774897664	58	7275
2026-01-13 01:44:35.75	272.49	35.76	-44.2	-46.5	16.2	0.00e+00	0	27	0	776994816	60	7665
2026-01-13 01:44:36.76	272.90	35.73	-43.6	-45.7	17.1	0.00e+00	92	27	0	779091968	60	6972
2026-01-13 01:44:37.77	273.31	35.70	-42.0	-43.5	19.1	0.00e+00	14	27	0	781189120	58	6078
2026-01-13 01:44:38.78	273.72	35.67	-41.3	-42.6	20.0	0.00e+00	90	27	0	782237696	56	6160
2026-01-13 01:44:39.79	274.12	35.64	-41.4	-42.8	19.7	0.00e+00	91	27	0	784334848	56	6305
2026-01-13 01:44:40.80	274.53	35.60	-41.7	-43.1	19.5	0.00e+00	0	27	0	786432000	56	6515
2026-01-13 01:44:41.80	274.93	35.56	-41.6	-43.0	19.6	0.00e+00	91	27	0	788529152	56	6412
2026-01-13 01:44:42.81	275.34	35.53	-41.4	-42.7	19.9	0.00e+00	0	27	0	790626304	56	6236
2026-01-13 01:44:43.82	275.74	35.49	-41.4	-42.8	19.9	0.00e+00	90	27	0	791674880	56	6275
2026-01-13 01:44:44.83	276.14	35.45	-42.1	-43.6	18.9	0.00e+00	0	27	0	793772032	56	6910
2026-01-13 01:44:45.83	276.54	35.40	-43.0	-44.9	18.1	0.00e+00	92	27	0	795869184	58	7155
2026-01-13 01:44:46.84	276.94	35.36	-44.1	-46.4	16.1	0.00e+00	92	27	0	797966336	60	7589
2026-01-13 01:44:47.85	277.34	35.31	-43.7	-45.7	17.2	0.00e+00	0	27	0	800063488	60	6985
2026-01-13 01:44:48.86	277.74	35.27	-42.3	-43.9	18.8	0.00e+00	92	27	0	801112064	58	6361
2026-01-13 01:44:49.87	278.14	35.22	-41.6	-43.0	19.6	0.00e+00	0	27	0	803209216	56	6426
2026-01-13 01:44:50.88	278.54	35.17	-41.7	-43.1	19.5	0.00e+00	80	27	0	805306368	56	6539
2026-01-13 01:44:51.89	278.93	35.12	-42.6	-44.3	18.4	0.00e+00	0	27	0	807403520	56	7487
2026-01-13 01:44:52.90	279.32	35.07	-42.8	-44.5	18.1	0.00e+00	92	27	0	809500672	58	6812
2026-01-13 01:44:53.91	279.72	35.01	-41.9	-43.4	19.2	0.00e+00	92	27	0	810549248	58	6006
2026-01-13 01:44:54.92	280.11	34.96	-42.1	-43.7	19.0	0.00e+00	0	27	0	812646400	58	6180
2026-01-13 01:44:55.92	280.49	34.90	-42.2	-43.8	18.7	0.00e+00	92	27	0	814743552	58	6278
2026-01-13 01:44:56.93	280.88	34.84	-43.2	-45.1	17.7	0.00e+00	0	27	0	816840704	58	7254
2026-01-13 01:44:57.94	281.27	34.78	-43.2	-45.1	17.5	0.00e+00	90	27	0	818937856	58	7267
2026-01-13 01:44:58.95	281.66	34.72	-42.8	-44.6	18.0	0.00e+00	0	27	0	819986432	58	6883
2026-01-13 01:44:59.96	282.04	34.66	-42.1	-43.6	18.9	0.00e+00	90	27	0	822083584	58	6169
2026-01-13 01:45:00.97	282.42	34.60	-42.6	-44.2	18.5	0.00e+00	1	27	0	824180736	58	6613
2026-01-13 01:45:01.98	282.80	34.53	-42.9	-44.7	18.0	0.00e+00	41	27	0	826277888	58	6973
2026-01-13 01:45:02.99	283.18	34.47	-43.4	-45.4	17.3	0.00e+00	92	27	0	828375040	58	7541
2026-01-13 01:45:04.00	283.56	34.40	-43.6	-45.7	17.5	0.00e+00	0	27	0	829423616	60	6931
2026-01-13 01:45:05.00	283.94	34.33	-42.8	-44.6	18.3	0.00e+00	54	27	0	831520768	60	6144
2026-01-13 01:45:06.01	284.31	34.27	-41.9	-43.4	19.3	0.00e+00	0	27	0	833617920	58	6008
2026-01-13 01:45:07.02	284.68	34.20	-42.0	-43.5	19.0	0.00e+00	92	27	0	835715072	58	6101
2026-01-13 01:45:08.03	285.06	34.12	-42.5	-44.1	18.8	0.00e+00	0	27	0	837812224	58	6488
2026-01-13 01:45:09.04	285.43	34.05	-42.6	-44.2	18.7	0.00e+00	0	27	0	839909376	58	6607
2026-01-13 01:45:10.05	285.80	33.98	-41.4	-42.8	19.9	0.00e+00	92	27	0	840957952	56	6262
2026-01-13 01:45:11.06	286.16	33.90	-40.5	-41.7	21.0	0.00e+00	0	27	0	843055104	54	6235
2026-01-13 01:45:12.07	286.53	33.83	-39.9	-41.0	21.4	0.00e+00	30	27	0	845152256	54	5732
2026-01-13 01:45:13.08	286.89	33.75	-40.2	-41.4	21.0	0.00e+00	0	27	0	847249408	54	5983
2026-01-13 01:45:14.09	287.25	33.67	-40.3	-41.6	20.8	0.00e+00	86	27	0	849346560	54	6104
2026-01-13 01:45:15.10	287.61	33.59	-39.9	-41.0	21.3	0.00e+00	0	27	0	850395136	54	5758
2026-01-13 01:45:16.11	287.97	33.51	-39.4	-40.5	21.9	0.00e+00	0	27	0	852492288	52	6060
2026-01-13 01:45:17.12	288.33	33.43	-38.9	-39.9	22.3	0.00e+00	76	27	0	854589440	52	5648
2026-01-13 01:45:18.13	288.69	33.35	-39.3	-40.4	21.9	0.00e+00	0	27	0	856686592	52	5988
2026-01-13 01:45:19.14	289.04	33.26	-39.8	-41.0	21.2	0.00e+00	61	27	0	858783744	52	6399
2026-01-13 01:45:20.15	289.39	33.18	-40.5	-41.8	20.6	0.00e+00	11	27	0	859832320	52	7030
2026-01-13 01:45:21.16	289.74	33.10	-40.2	-41.3	21.1	0.00e+00	72	27	0	861929472	52	6691
2026-01-13 01:45:22.17	290.09	33.01	-39.5	-40.5	21.7	0.00e+00	0	27	0	864026624	52	6086
2026-01-13 01:45:23.18	290.43	32.92	-38.9	-39.9	22.3	0.00e+00	74	27	0	866123776	52	5666
2026-01-13 01:45:24.19	290.78	32.83	-38.8	-39.8	22.3	0.00e+00	92	27	0	868220928	50	6274
2026-01-13 01:45:25.20	291.12	32.75	-39.2	-40.3	21.8	0.00e+00	0	27	0	869269504	50	6677
2026-01-13 01:45:26.21	291.46	32.66	-40.0	-41.2	21.2	0.00e+00	90	27	0	871366656	52	6595
2026-01-13 01:45:27.22	291.80	32.57	-40.4	-41.6	20.7	0.00e+00	15	27	0	873463808	52	6919
2026-01-13 01:45:28.22	292.13	32.48	-39.9	-41.0	21.4	0.00e+00	92	27	0	875560960	52	6457
2026-01-13 01:45:29.23	292.47	32.38	-39.4	-40.5	22.0	0.00e+00	0	27	0	877658112	52	6083
2026-01-13 01:45:30.24	292.80	32.29	-38.3	-39.2	22.8	0.00e+00	91	27	0	878706688	50	5866
2026-01-13 01:45:31.25	293.13	32.20	-38.1	-39.1	22.9	0.00e+00	92	27	0	880803840	50	5763
2026-01-13 01:45:32.26	293.46	32.10	-38.8	-39.8	22.4	0.00e+00	0	27	0	882900992	50	6251
2026-01-13 01:45:33.27	293.79	32.01	-39.3	-40.4	21.9	0.00e+00	50	27	0	884998144	50	6720
2026-01-13 01:45:34.28	294.11	31.91	-39.0	-40.0	22.2	0.00e+00	0	27	0	887095296	50	6428
2026-01-13 01:45:35.29	294.44	31.82	-38.7	-39.6	22.4	0.00e+00	92	27	0	888143872	50	6165
2026-01-13 01:45:36.30	294.76	31.72	-38.0	-38.9	23.0	0.00e+00	0	27	0	890241024	50	5658
2026-01-13 01:45:37.31	295.08	31.62	-38.1	-39.1	23.0	0.00e+00	92	27	0	892338176	50	5785
2026-01-13 01:45:38.32	295.40	31.53	-38.1	-39.1	22.8	0.00e+00	92	27	0	894435328	50	5788
2026-01-13 01:45:39.32	295.71	31.43	-38.5	-39.5	22.6	0.00e+00	18	27	0	896532480	50	6051
2026-01-13 01:45:40.33	296.02	31.33	-38.7	-39.7	22.4	0.00e+00	92	27	0	897581056	50	6207
2026-01-13 01:45:41.34	296.34	31.23	-38.3	-39.2	22.9	0.00e+00	0	27	0	899678208	50	5884
2026-01-13 01:45:42.35	296.65	31.13	-37.1	-38.0	23.6	0.00e+00	92	27	0	901775360	48	5748
2026-01-13 01:45:43.36	296.96	31.03	-36.6	-37.4	24.2	0.00e+00	0	27	0	903872512	46	5995
2026-01-13 01:45:44.36	297.26	30.93	-36.5	-37.4	24.1	0.00e+00	76	27	0	905969664	46	5974
2026-01-13 01:45:45.37	297.56	30.82	-36.9	-37.8	23.9	0.00e+00	15	27	0	907018240	46	6251
2026-01-13 01:45:46.38	297.87	30.72	-37.6	-38.5	23.4	0.00e+00	0	27	0	909115392	46	6785
2026-01-13 01:45:47.39	298.17	30.62	-38.5	-39.5	22.6	0.00e+00	91	27	0	911212544	48	6775
2026-01-13 01:45:48.40	298.47	30.52	-38.8	-39.9	22.5	0.00e+00	0	27	0	913309696	50	6320
2026-01-13 01:45:49.41	298.76	30.41	-38.3	-39.3	22.9	0.00e+00	92	27	0	915406848	50	5936
2026-01-13 01:45:50.42	299.06	30.31	-38.0	-38.9	23.0	0.00e+00	0	27	0	916455424	50	5683
2026-01-13 01:45:51.43	299.35	30.20	-37.9	-38.8	23.2	0.00e+00	92	27	0	918552576	50	5604
2026-01-13 01:45:52.44	299.64	30.10	-38.1	-39.1	22.9	0.00e+00	7	27	0	920649728	48	6514
2026-01-13 01:45:53.45	299.93	29.99	-38.8	-39.8	22.3	0.00e+00	0	27	0	922746880	48	7042
2026-01-13 01:45:54.46	300.22	29.89	-39.3	-40.4	21.8	0.00e+00	86	27	0	924844032	50	6758
2026-01-13 01:45:55.47	300.51	29.78	-38.8	-39.8	22.4	0.00e+00	0	27	0	925892608	50	6291
2026-01-13 01:45:56.48	300.79	29.67	-37.5	-38.4	23.5	0.00e+00	92	27	0	927989760	48	5987
2026-01-13 01:45:57.49	301.07	29.56	-37.0	-37.9	23.9	0.00e+00	0	27	0	930086912	48	5655
2026-01-13 01:45:58.50	301.35	29.46	-36.3	-37.1	24.4	0.00e+00	91	27	0	932184064	46	5772
2026-01-13 01:45:59.51	301.63	29.35	-36.2	-36.9	24.4	0.00e+00	0	27	0	934281216	46	5681
2026-01-13 01:46:00.52	301.91	29.24	-36.9	-37.7	23.9	0.00e+00	6	27	0	936378368	46	6235
2026-01-13 01:46:01.53	302.18	29.13	-38.1	-39.0	22.9	0.00e+00	92	27	0	937426944	48	6412
2026-01-13 01:46:02.54	302.46	29.02	-38.3	-39.2	22.8	0.00e+00	0	27	0	939524096	48	6583
2026-01-13 01:46:03.55	302.73	28.92	-37.9	-38.8	23.2	0.00e+00	92	27	0	941621248	48	6283
2026-01-13 01:46:04.56	303.00	28.81	-37.6	-38.5	23.3	0.00e+00	0	27	0	943718400	48	6061
2026-01-13 01:46:05.57	303.26	28.70	-37.2	-38.0	23.8	0.00e+00	92	27	0	945815552	48	5743
2026-01-13 01:46:06.58	303.53	28.59	-37.3	-38.2	23.4	0.00e+00	0	27	0	946864128	48	5835
2026-01-13 01:46:07.59	303.79	28.48	-38.1	-39.0	22.8	0.00e+00	0	27	0	948961280	48	6461
2026-01-13 01:46:08.60	304.06	28.37	-38.5	-39.4	22.5	0.00e+00	9	27	0	951058432	48	6768
2026-01-13 01:46:09.61	304.32	28.26	-39.0	-40.0	22.1	0.00e+00	0	27	0	953155584	50	6436
2026-01-13 01:46:10.61	304.57	28.15	-38.5	-39.5	22.5	0.00e+00	92	27	0	955252736	50	6059
2026-01-13 01:46:11.62	304.83	28.04	-38.2	-39.2	22.9	0.00e+00	0	27	0	956301312	50	5843
2026-01-13 01:46:12.63	305.09	27.93	-38.0	-39.0	23.0	0.00e+00	64	27	0	958398464	50	5697
2026-01-13 01:46:13.64	305.34	27.82	-38.6	-39.6	22.4	0.00e+00	0	27	0	960495616	50	6156
2026-01-13 01:46:14.65	305.59	27.71	-38.9	-40.0	22.2	0.00e+00	69	27	0	962592768	50	6400
2026-01-13 01:46:15.66	305.84	27.59	-39.0	-40.1	22.1	0.00e+00	0	27	0	964689920	50	6492
2026-01-13 01:46:16.67	306.09	27.48	-39.2	-40.2	22.0	0.00e+00	0	27	0	965738496	50	6612
2026-01-13 01:46:17.68	306.34	27.37	-38.3	-39.2	22.7	0.00e+00	91	27	0	967835648	50	5879
2026-01-13 01:46:18.69	306.58	27.26	-37.6	-38.5	23.5	0.00e+00	0	27	0	969932800	48	6043
2026-01-13 01:46:19.70	306.82	27.15	-37.1	-37.9	23.8	0.00e+00	92	27	0	972029952	48	5692
2026-01-13 01:46:20.70	307.06	27.04	-37.1	-37.9	23.7	0.00e+00	0	27	0	974127104	48	5695
2026-01-13 01:46:21.71	307.30	26.93	-37.6	-38.4	23.2	0.00e+00	42	27	0	975175680	48	6025
2026-01-13 01:46:22.72	307.54	26.82	-38.7	-39.7	22.3	0.00e+00	0	27	0	977272832	48	6950
2026-01-13 01:46:23.73	307.78	26.70	-39.8	-41.0	21.4	0.00e+00	0	27	0	979369984	52	6391
2026-01-13 01:46:24.74	308.01	26.59	-40.2	-41.4	20.9	0.00e+00	92	27	0	981467136	52	6767
2026-01-13 01:46:25.75	308.25	26.48	-39.9	-41.2	21.2	0.00e+00	0	27	0	983564288	52	6552
2026-01-13 01:46:26.76	308.48	26.37	-39.3	-40.4	21.8	0.00e+00	92	27	0	984612864	52	6002
2026-01-13 01:46:27.76	308.71	26.26	-38.8	-39.9	22.4	0.00e+00	0	27	0	986710016	52	5643
2026-01-13 01:46:28.77	308.94	26.15	-38.9	-39.9	22.2	0.00e+00	92	27	0	988807168	50	6345
2026-01-13 01:46:29.78	309.16	26.03	-38.7	-39.7	22.1	0.00e+00	0	27	0	990904320	50	6202
2026-01-13 01:46:30.79	309.39	25.92	-39.3	-40.3	21.8	0.00e+00	0	27	0	993001472	50	6687
2026-01-13 01:46:31.80	309.61	25.81	-39.6	-40.7	21.5	0.00e+00	92	27	0	994050048	50	6972
2026-01-13 01:46:32.81	309.84	25.70	-39.4	-40.4	21.8	0.00e+00	0	27	0	996147200	50	6764
2026-01-13 01:46:33.82	310.06	25.59	-38.7	-39.7	22.5	0.00e+00	92	27	0	998244352	50	6203
2026-01-13 01:46:34.83	310.28	25.48	-38.7	-39.7	22.3	0.00e+00	0	27	0	1000341504	50	6242
2026-01-13 01:46:35.84	310.49	25.36	-38.4	-39.3	22.7	0.00e+00	81	27	0	1002438656	50	5946
2026-01-13 01:46:36.85	310.71	25.25	-38.7	-39.6	22.2	0.00e+00	0	27	0	1004535808	50	6172
2026-01-13 01:46:37.86	310.93	25.14	-39.3	-40.4	21.7	0.00e+00	0	27	0	1005584384	50	6735
2026-01-13 01:46:38.87	311.14	25.03	-39.9	-41.1	21.0	0.00e+00	90	27	0	1007681536	52	6535
2026-01-13 01:46:39.87	311.35	24.92	-40.7	-42.1	20.4	0.00e+00	0	27	0	1009778688	54	6484
2026-01-13 01:46:40.89	311.56	24.81	-40.5	-41.8	20.6	0.00e+00	91	27	0	1011875840	54	6268
2026-01-13 01:46:41.90	311.77	24.69	-40.0	-41.3	21.0	0.00e+00	0	27	0	1013972992	54	5915
2026-01-13 01:46:42.91	311.98	24.58	-39.2	-40.3	22.0	0.00e+00	92	27	0	1015021568	52	5932
2026-01-13 01:46:43.92	312.19	24.47	-38.3	-39.2	22.9	0.00e+00	0	27	0	1017118720	50	5883
2026-01-13 01:46:44.92	312.39	24.36	-37.6	-38.5	23.1	0.00e+00	84	27	0	1019215872	48	6087
2026-01-13 01:46:45.94	312.59	24.25	-37.4	-38.2	23.5	0.00e+00	14	27	0	1021313024	48	5888
2026-01-13 01:46:46.94	312.79	24.14	-37.7	-38.6	23.2	0.00e+00	0	27	0	1023410176	48	6149
2026-01-13 01:46:47.95	312.99	24.03	-38.2	-39.1	22.8	0.00e+00	87	27	0	1024458752	48	6518
2026-01-13 01:46:48.96	313.19	23.92	-38.8	-39.8	22.2	0.00e+00	0	27	0	1026555904	50	6273
2026-01-13 01:46:49.97	313.39	23.81	-39.0	-40.0	22.1	0.00e+00	92	27	0	1028653056	50	6423
2026-01-13 01:46:50.98	313.59	23.70	-38.7	-39.7	22.4	0.00e+00	0	27	0	1030750208	50	6206
2026-01-13 01:46:51.98	313.78	23.59	-38.1	-39.1	22.8	0.00e+00	90	27	0	1032847360	50	5771
2026-01-13 01:46:52.99	313.98	23.48	-37.6	-38.5	23.3	0.00e+00	14	27	0	1033895936	48	6067
2026-01-13 01:46:54.00	314.17	23.37	-37.1	-37.9	23.8	0.00e+00	0	27	0	1035993088	48	5683
2026-01-13 01:46:55.01	314.36	23.26	-36.3	-37.1	24.3	0.00e+00	92	27	0	1038090240	46	5805
2026-01-13 01:46:56.02	314.55	23.15	-36.1	-36.9	24.5	0.00e+00	0	27	0	1040187392	46	5646
2026-01-13 01:46:57.03	314.74	23.04	-36.4	-37.2	24.2	0.00e+00	91	27	0	1042284544	46	5837
2026-01-13 01:46:58.03	314.92	22.93	-36.9	-37.8	23.8	0.00e+00	0	27	0	1043333120	46	6254
2026-01-13 01:46:59.04	315.11	22.82	-37.4	-38.3	23.3	0.00e+00	92	27	0	1045430272	46	6686
2026-01-13 01:47:00.05	315.29	22.71	-37.7	-38.6	23.0	0.00e+00	0	27	0	1047527424	46	6875
2026-01-13 01:47:01.06	315.48	22.61	-37.9	-38.9	22.8	0.00e+00	0	27	0	1049624576	48	6331
2026-01-13 01:47:02.07	315.66	22.50	-37.4	-38.3	22.9	0.00e+00	66	27	0	1051721728	48	5933
2026-01-13 01:47:03.08	315.84	22.39	-37.3	-38.2	23.4	0.00e+00	0	27	0	1052770304	48	5829
2026-01-13 01:47:04.09	316.02	22.28	-37.0	-37.8	23.6	0.00e+00	65	27	0	1054867456	48	5622
2026-01-13 01:47:05.10	316.20	22.17	-36.8	-37.7	23.7	0.00e+00	0	27	0	1056964608	48	5512
2026-01-13 01:47:06.11	316.38	22.06	-36.7	-37.6	23.8	0.00e+00	74	27	0	1059061760	48	5467
2026-01-13 01:47:07.12	316.55	21.96	-37.0	-37.8	23.3	0.00e+00	0	27	0	1061158912	46	6311
2026-01-13 01:47:08.13	316.73	21.85	-37.0	-37.9	23.6	0.00e+00	8	27	0	1062207488	46	6338
2026-01-13 01:47:09.14	316.90	21.74	-37.3	-38.2	23.4	0.00e+00	92	27	0	1064304640	46	6570
2026-01-13 01:47:10.14	317.07	21.64	-37.2	-38.1	23.4	0.00e+00	0	27	0	1066401792	46	6498
2026-01-13 01:47:11.15	317.25	21.53	-37.3	-38.2	23.4	0.00e+00	36	27	0	1068498944	46	6613
2026-01-13 01:47:12.16	317.42	21.42	-37.3	-38.2	23.4	0.00e+00	0	27	0	1070596096	46	6591
2026-01-13 01:47:13.18	317.59	21.31	-37.3	-38.3	23.4	0.00e+00	92	27	0	1071644672	46	6624
2026-01-13 01:47:14.18	317.75	21.21	-36.9	-37.8	23.7	0.00e+00	21	27	0	1073741824	46	6311
2026-01-13 01:47:15.19	317.92	21.10	-37.1	-38.0	23.6	0.00e+00	68	27	0	1075838976	46	6429
2026-01-13 01:47:16.20	318.09	21.00	-36.9	-37.8	23.7	0.00e+00	8	27	0	1077936128	46	6247
2026-01-13 01:47:17.21	318.25	20.89	-36.7	-37.6	23.9	0.00e+00	9	27	0	1080033280	46	6111
2026-01-13 01:47:18.22	318.41	20.79	-36.8	-37.7	23.8	0.00e+00	59	27	0	1081081856	46	6200
2026-01-13 01:47:19.23	318.58	20.68	-36.9	-37.8	23.9	0.00e+00	0	27	0	1083179008	46	6280
2026-01-13 01:47:20.24	318.74	20.58	-37.0	-37.9	23.6	0.00e+00	92	27	0	1085276160	46	6335
2026-01-13 01:47:21.24	318.90	20.47	-37.1	-38.0	23.6	0.00e+00	0	27	0	1087373312	46	6425
2026-01-13 01:47:22.25	319.06	20.37	-37.2	-38.0	23.5	0.00e+00	92	27	0	1089470464	46	6461
2026-01-13 01:47:23.26	319.22	20.26	-37.4	-38.3	23.4	0.00e+00	10	27	0	1090519040	46	6622
2026-01-13 01:47:24.27	319.37	20.16	-37.2	-38.1	23.5	0.00e+00	26	27	0	1092616192	46	6496
2026-01-13 01:47:25.28	319.53	20.06	-37.3	-38.2	23.4	0.00e+00	92	27	0	1094713344	46	6607
2026-01-13 01:47:26.29	319.68	19.95	-37.3	-38.2	23.4	0.00e+00	0	27	0	1096810496	46	6547
2026-01-13 01:47:27.30	319.84	19.85	-37.0	-37.9	23.6	0.00e+00	92	27	0	1098907648	46	6368
2026-01-13 01:47:28.31	319.99	19.74	-36.7	-37.6	23.8	0.00e+00	0	27	0	1099956224	46	6137
2026-01-13 01:47:29.32	320.14	19.64	-36.5	-37.4	24.0	0.00e+00	85	27	0	1102053376	46	5975
2026-01-13 01:47:30.33	320.30	19.54	-36.4	-37.2	24.2	0.00e+00	0	27	0	1104150528	46	5896
2026-01-13 01:47:31.34	320.45	19.44	-36.3	-37.1	24.2	0.00e+00	0	27	0	1106247680	46	5805
2026-01-13 01:47:32.35	320.60	19.33	-36.3	-37.2	24.2	0.00e+00	95	27	0	1108344832	46	5850
2026-01-13 01:47:33.36	320.74	19.23	-36.3	-37.1	24.2	0.00e+00	0	27	0	1110441984	46	5816
2026-01-13 01:47:34.37	320.89	19.13	-36.4	-37.2	24.0	0.00e+00	67	27	0	1111490560	46	5881
2026-01-13 01:47:35.38	321.04	19.03	-36.8	-37.7	23.9	0.00e+00	0	27	0	1113587712	46	6175
2026-01-13 01:47:36.39	321.18	18.93	-36.9	-37.8	23.6	0.00e+00	92	27	0	1115684864	46	6298
2026-01-13 01:47:37.40	321.33	18.83	-37.0	-37.9	23.7	0.00e+00	0	27	0	1117782016	46	6353
2026-01-13 01:47:38.41	321.47	18.73	-36.8	-37.7	23.8	0.00e+00	0	27	0	1119879168	46	6182
2026-01-13 01:47:39.42	321.61	18.63	-36.7	-37.6	23.8	0.00e+00	90	27	0	1120927744	46	6147
2026-01-13 01:47:40.43	321.76	18.52	-36.8	-37.7	23.8	0.00e+00	0	27	0	1123024896	46	6224
2026-01-13 01:47:41.44	321.90	18.42	-36.7	-37.5	23.8	0.00e+00	39	27	0	1125122048	46	6092
2026-01-13 01:47:42.44	322.04	18.33	-36.7	-37.5	23.9	0.00e+00	0	27	0	1127219200	46	6091
2026-01-13 01:47:43.45	322.18	18.23	-36.6	-37.4	23.9	0.00e+00	92	27	0	1129316352	46	6013
2026-01-13 01:47:44.46	322.31	18.13	-36.5	-37.4	24.0	0.00e+00	0	27	0	1130364928	46	5968
2026-01-13 01:47:45.47	322.45	18.03	-36.6	-37.5	23.8	0.00e+00	78	27	0	1132462080	46	6059
2026-01-13 01:47:46.47	322.59	17.93	-36.8	-37.7	23.7	0.00e+00	5	27	0	1134559232	46	6181
2026-01-13 01:47:47.48	322.72	17.83	-36.7	-37.6	23.8	0.00e+00	0	27	0	1136656384	46	6142
2026-01-13 01:47:48.49	322.86	17.73	-37.2	-38.1	23.3	0.00e+00	41	27	0	1138753536	46	6522
2026-01-13 01:47:49.50	322.99	17.63	-37.4	-38.3	23.3	0.00e+00	0	27	0	1139802112	46	6625
2026-01-13 01:47:50.50	323.12	17.54	-37.9	-38.8	22.9	0.00e+00	0	27	0	1141899264	48	6301
2026-01-13 01:47:51.51	323.26	17.44	-38.4	-39.4	22.3	0.00e+00	0	27	0	1143996416	48	6753
2026-01-13 01:47:52.52	323.39	17.34	-38.6	-39.6	22.2	0.00e+00	0	27	0	1146093568	48	6892
2026-01-13 01:47:53.53	323.52	17.25	-39.1	-40.2	21.7	0.00e+00	3	27	0	1148190720	50	6566
2026-01-13 01:47:54.54	323.65	17.15	-39.2	-40.3	21.7	0.00e+00	0	27	0	1149239296	50	6655
2026-01-13 01:47:55.55	323.78	17.05	-39.3	-40.4	21.3	0.00e+00	90	27	0	1151336448	50	6732
2026-01-13 01:47:56.55	323.90	16.96	-39.6	-40.8	21.1	0.00e+00	0	27	0	1153433600	50	7051
2026-01-13 01:47:57.56	324.03	16.86	-39.5	-40.7	21.3	0.00e+00	73	27	0	1155530752	52	6211
2026-01-13 01:47:58.57	324.16	16.76	-39.7	-40.9	21.3	0.00e+00	0	27	0	1157627904	52	6365
2026-01-13 01:47:59.58	324.28	16.67	-39.6	-40.8	21.3	0.00e+00	0	27	0	1158676480	52	6250
2026-01-13 01:48:00.59	324.41	16.57	-39.2	-40.4	21.6	0.00e+00	69	27	0	1160773632	52	5966
2026-01-13 01:48:01.60	324.53	16.48	-39.0	-40.1	21.9	0.00e+00	0	27	0	1162870784	52	5786
2026-01-13 01:48:02.61	324.66	16.38	-38.7	-39.8	22.0	0.00e+00	19	27	0	1164967936	50	6246
2026-01-13 01:48:03.62	324.78	16.29	-38.5	-39.6	22.2	0.00e+00	0	27	0	1167065088	50	6117
2026-01-13 01:48:04.63	324.90	16.19	-38.3	-39.3	22.4	0.00e+00	91	27	0	1168113664	50	5960
2026-01-13 01:48:05.64	325.02	16.10	-38.2	-39.2	22.5	0.00e+00	0	27	0	1170210816	50	5884
2026-01-13 01:48:06.65	325.15	16.01	-38.3	-39.3	22.4	0.00e+00	0	27	0	1172307968	50	5953
2026-01-13 01:48:07.66	325.27	15.91	-38.6	-39.6	22.4	0.00e+00	11	27	0	1174405120	50	6163
2026-01-13 01:48:08.67	325.39	15.82	-38.5	-39.6	22.1	0.00e+00	0	27	0	1176502272	50	6104
2026-01-13 01:48:09.68	325.50	15.73	-38.6	-39.7	22.1	0.00e+00	12	27	0	1177550848	50	6191
2026-01-13 01:48:10.69	325.62	15.63	-38.4	-39.4	22.4	0.00e+00	0	27	0	1179648000	50	6013
2026-01-13 01:48:11.70	325.74	15.54	-38.6	-39.6	22.0	0.00e+00	92	27	0	1181745152	50	6156
2026-01-13 01:48:12.71	325.86	15.45	-38.8	-39.8	22.0	0.00e+00	0	27	0	1183842304	50	6298
2026-01-13 01:48:13.71	325.97	15.36	-38.5	-39.5	22.3	0.00e+00	0	27	0	1185939456	50	6092
2026-01-13 01:48:14.72	326.09	15.26	-38.7	-39.7	22.0	0.00e+00	0	27	0	1186988032	50	6235
2026-01-13 01:48:15.73	326.20	15.17	-38.5	-39.5	22.2	0.00e+00	0	27	0	1189085184	50	6092
2026-01-13 01:48:16.74	326.31	15.08	-38.2	-39.2	22.4	0.00e+00	84	27	0	1191182336	50	5875
2026-01-13 01:48:17.75	326.43	14.99	-38.0	-39.0	22.6	0.00e+00	0	27	0	1193279488	50	5746
2026-01-13 01:48:18.76	326.54	14.90	-37.7	-38.6	22.5	0.00e+00	91	27	0	1195376640	50	5480
2026-01-13 01:48:19.77	326.65	14.81	-37.6	-38.6	23.0	0.00e+00	0	27	0	1196425216	48	6126
2026-01-13 01:48:20.78	326.76	14.72	-37.6	-38.6	22.8	0.00e+00	0	27	0	1198522368	48	6126
2026-01-13 01:48:21.79	326.87	14.63	-37.5	-38.4	23.0	0.00e+00	0	27	0	1200619520	48	5991
2026-01-13 01:48:22.80	326.98	14.54	-37.7	-38.6	22.8	0.00e+00	0	27	0	1202716672	48	6148
