passes_logs/2026/01/13/R4.6S_Anadyr/R4.6S_Anadyr__20260113_172853_AQUA_rec.log

#Pass ID: 20260113_172853_AQUA
#Satellite: AQUA
#Configuration: AQUA
#almurnet v.1.7.20251203
#Start time: 2026-01-13 17:28:56

#Version: 2.2.20231116
#Station: R4.6S_Anadyr
#Location: 177.4865 lon 64.73178 lat
#TLE: 1 27424U 02022A   26012.29577270  .00001027  00000+0  21555-3 0  9995
#TLE: 2 27424  98.4078 338.6778 0002034  81.5885  29.6294 14.61817302260499

#Time	Az	El	Level	Level2	SNR	BER	BlckErr	Temp	State	Recorded	gain1	gain2
2026-01-13 17:28:56.95	21.49	0.18	-48.8	-65.2	3.3	3.02e+01	0	26	0	0	60	69700
2026-01-13 17:28:57.95	21.46	0.24	-48.7	-66.7	3.5	3.02e+01	0	26	104	0	60	82814
2026-01-13 17:28:58.96	21.43	0.31	-48.8	-66.7	3.5	3.02e+01	0	26	104	0	60	82876
2026-01-13 17:28:59.98	21.40	0.37	-48.7	-66.7	3.5	3.02e+01	0	26	104	0	60	82815
2026-01-13 17:29:00.98	21.37	0.43	-48.6	-66.6	3.5	3.02e+01	0	26	104	0	60	82008
2026-01-13 17:29:01.99	21.33	0.49	-48.6	-66.5	3.5	3.02e+01	0	26	104	0	60	81677
2026-01-13 17:29:03.00	21.30	0.55	-48.5	-66.4	3.5	3.02e+01	0	26	104	0	60	80717
2026-01-13 17:29:04.01	21.27	0.61	-48.4	-66.4	3.5	3.02e+01	0	26	104	0	60	80092
2026-01-13 17:29:05.02	21.23	0.67	-48.0	-66.2	3.5	3.02e+01	0	26	104	0	60	78443
2026-01-13 17:29:06.03	21.20	0.74	-47.8	-66.0	3.5	3.02e+01	0	26	104	0	60	77118
2026-01-13 17:29:07.04	21.17	0.80	-47.9	-65.9	3.5	3.02e+01	0	26	104	0	60	75488
2026-01-13 17:29:08.05	21.13	0.86	-47.7	-65.6	3.5	3.02e+01	0	26	104	0	60	73288
2026-01-13 17:29:09.06	21.10	0.92	-47.5	-65.3	3.5	3.02e+01	0	27	104	0	60	70970
2026-01-13 17:29:10.07	21.07	0.99	-47.2	-65.0	3.5	3.02e+01	0	26	104	0	60	68643
2026-01-13 17:29:11.08	21.03	1.05	-47.2	-65.0	3.5	3.02e+01	0	26	104	0	60	68220
2026-01-13 17:29:12.09	21.00	1.11	-47.2	-65.0	3.5	3.02e+01	0	27	104	0	60	68294
2026-01-13 17:29:13.10	20.96	1.17	-47.2	-65.0	3.4	3.02e+01	0	27	104	0	60	68734
2026-01-13 17:29:14.11	20.93	1.24	-47.2	-65.0	3.5	3.02e+01	0	27	104	0	60	68804
2026-01-13 17:29:15.12	20.89	1.30	-47.2	-65.0	3.5	3.02e+01	0	27	104	0	60	68720
2026-01-13 17:29:16.13	20.86	1.36	-47.2	-65.1	3.5	3.02e+01	0	27	104	0	60	68958
2026-01-13 17:29:17.14	20.82	1.43	-47.2	-65.0	3.5	3.02e+01	0	27	104	0	60	68749
2026-01-13 17:29:18.15	20.79	1.49	-47.2	-65.1	3.5	3.02e+01	0	27	104	0	60	68934
2026-01-13 17:29:19.16	20.75	1.55	-47.2	-65.0	3.5	3.02e+01	0	27	104	0	60	68458
2026-01-13 17:29:20.17	20.72	1.62	-47.2	-65.0	3.5	3.02e+01	0	27	104	0	60	68450
2026-01-13 17:29:21.18	20.68	1.68	-47.2	-65.0	3.5	3.02e+01	0	27	104	0	60	68760
2026-01-13 17:29:22.19	20.64	1.75	-47.2	-65.0	3.5	3.02e+01	0	27	104	0	60	68748
2026-01-13 17:29:23.20	20.61	1.81	-47.2	-65.0	3.5	3.02e+01	0	27	104	0	60	68654
2026-01-13 17:29:24.21	20.57	1.87	-47.2	-65.0	3.5	3.02e+01	0	27	104	0	60	68566
2026-01-13 17:29:25.22	20.53	1.94	-47.1	-65.0	3.5	3.02e+01	0	27	104	0	60	68710
2026-01-13 17:29:26.23	20.50	2.00	-47.1	-65.0	3.5	3.02e+01	0	27	104	0	60	68181
2026-01-13 17:29:27.24	20.46	2.07	-47.1	-64.9	3.5	3.02e+01	0	27	104	0	60	67622
2026-01-13 17:29:28.24	20.42	2.13	-47.1	-64.9	3.5	3.02e+01	0	27	104	0	60	67382
2026-01-13 17:29:29.25	20.38	2.20	-47.1	-64.9	3.5	3.02e+01	0	27	104	0	60	67502
2026-01-13 17:29:30.26	20.35	2.26	-47.1	-64.9	3.5	3.02e+01	0	27	104	0	60	67703
2026-01-13 17:29:31.27	20.31	2.33	-47.1	-65.0	3.5	3.02e+01	0	27	104	0	60	68285
2026-01-13 17:29:32.28	20.27	2.39	-47.2	-65.1	3.5	3.02e+01	0	27	104	0	60	68847
2026-01-13 17:29:33.29	20.23	2.46	-47.2	-65.0	3.5	3.02e+01	0	27	104	0	60	68767
2026-01-13 17:29:34.30	20.19	2.53	-47.2	-65.0	3.5	3.02e+01	0	27	104	0	60	68571
2026-01-13 17:29:35.31	20.15	2.59	-47.1	-65.0	3.5	3.02e+01	0	27	104	0	60	68280
2026-01-13 17:29:36.32	20.12	2.66	-47.1	-64.9	3.5	3.02e+01	0	27	104	0	60	68007
2026-01-13 17:29:37.33	20.08	2.72	-47.1	-64.9	3.5	3.02e+01	0	27	104	0	60	67359
2026-01-13 17:29:38.34	20.04	2.79	-47.1	-64.7	3.5	3.02e+01	0	27	104	0	60	66107
2026-01-13 17:29:39.35	20.00	2.86	-47.1	-64.7	3.5	3.02e+01	0	27	104	0	60	65799
2026-01-13 17:29:40.36	19.96	2.93	-47.1	-64.5	3.5	3.02e+01	0	27	104	0	60	64667
2026-01-13 17:29:41.37	19.92	2.99	-47.1	-64.4	3.5	3.02e+01	0	27	104	0	60	63944
2026-01-13 17:29:42.37	19.88	3.06	-47.1	-64.6	3.5	3.02e+01	0	27	104	0	60	65626
2026-01-13 17:29:43.39	19.84	3.13	-47.1	-64.9	3.5	3.02e+01	0	27	104	0	60	67900
2026-01-13 17:29:44.40	19.79	3.19	-47.2	-65.1	3.5	3.02e+01	0	27	104	0	60	69137
2026-01-13 17:29:45.40	19.75	3.26	-47.0	-64.3	3.5	3.02e+01	0	27	104	0	60	63326
2026-01-13 17:29:46.42	19.71	3.33	-46.7	-62.7	3.5	3.02e+01	0	27	104	0	60	52605
2026-01-13 17:29:47.43	19.67	3.40	-46.1	-60.8	3.5	3.02e+01	0	27	104	0	60	42388
2026-01-13 17:29:48.44	19.63	3.47	-45.3	-58.7	3.5	3.02e+01	0	27	104	0	60	32966
2026-01-13 17:29:49.44	19.59	3.53	-44.9	-57.8	3.5	3.02e+01	0	27	104	0	60	29897
2026-01-13 17:29:50.46	19.55	3.60	-44.4	-57.1	3.5	3.02e+01	0	27	104	0	60	27470
2026-01-13 17:29:51.47	19.50	3.67	-44.1	-56.4	3.5	3.02e+01	0	27	104	0	60	25518
2026-01-13 17:29:52.47	19.46	3.74	-45.9	-59.9	3.5	3.02e+01	0	27	104	0	60	37908
2026-01-13 17:29:53.48	19.42	3.81	-45.9	-60.1	3.6	3.02e+01	0	27	104	0	60	38798
2026-01-13 17:29:54.49	19.37	3.88	-38.7	-49.4	3.3	3.02e+01	0	27	104	0	50	20109
2026-01-13 17:29:55.50	19.33	3.95	-47.0	-64.3	3.5	3.02e+01	0	27	104	0	60	62997
2026-01-13 17:29:56.51	19.29	4.02	-42.4	-53.8	3.5	3.02e+01	0	27	104	0	60	18831
2026-01-13 17:29:57.52	19.24	4.09	-44.3	-56.7	3.5	3.02e+01	0	27	104	0	60	26434
2026-01-13 17:29:58.53	19.20	4.16	-41.3	-52.5	3.5	3.02e+01	0	27	104	0	58	18114
2026-01-13 17:29:59.54	19.15	4.23	-41.4	-52.6	3.5	3.02e+01	0	27	104	0	58	18380
2026-01-13 17:30:00.54	19.11	4.30	-41.5	-52.7	3.5	3.02e+01	0	27	104	0	58	18650
2026-01-13 17:30:01.55	19.07	4.37	-39.2	-49.8	3.5	3.02e+01	0	27	104	0	54	16880
2026-01-13 17:30:02.56	19.02	4.44	-40.9	-52.0	3.5	3.02e+01	0	27	104	0	52	24314
2026-01-13 17:30:03.57	18.97	4.51	-43.9	-56.1	3.5	3.02e+01	0	27	104	0	60	24465
2026-01-13 17:30:04.58	18.93	4.58	-45.3	-58.5	3.5	3.02e+01	0	28	104	0	60	32318
2026-01-13 17:30:05.59	18.88	4.65	-44.5	-56.9	3.5	3.02e+01	0	27	104	0	60	26909
2026-01-13 17:30:06.60	18.84	4.73	-47.2	-64.3	3.5	3.02e+01	0	28	104	0	60	63200
2026-01-13 17:30:07.61	18.79	4.80	-42.7	-54.2	3.5	3.02e+01	0	28	104	0	60	19655
2026-01-13 17:30:08.62	18.74	4.87	-42.1	-53.4	3.5	3.02e+01	0	28	104	0	60	17921
2026-01-13 17:30:09.63	18.70	4.94	-42.7	-54.1	3.4	3.02e+01	0	27	104	0	60	19524
2026-01-13 17:30:10.64	18.65	5.01	-42.3	-53.6	3.6	3.02e+01	0	28	104	0	58	20634
2026-01-13 17:30:11.65	18.60	5.09	-44.7	-57.2	3.5	3.02e+01	0	28	104	0	60	27732
2026-01-13 17:30:12.66	18.55	5.16	-43.3	-46.6	17.2	3.02e+01	62	28	104	0	60	8268
2026-01-13 17:30:13.67	18.51	5.23	-37.9	-39.3	25.8	3.02e+01	60	28	0	1048576	56	4473
2026-01-13 17:30:14.67	18.46	5.30	-47.1	-57.5	4.2	3.02e+01	54	28	0	3145728	60	28893
2026-01-13 17:30:15.69	18.41	5.38	-40.8	-43.1	21.4	3.02e+01	59	28	104	3145728	60	5498
2026-01-13 17:30:16.69	18.36	5.45	-36.4	-37.7	26.9	3.02e+01	59	28	0	4718592	48	5909
2026-01-13 17:30:17.70	18.31	5.52	-36.4	-37.8	26.8	3.02e+01	57	28	0	6291456	48	5938
2026-01-13 17:30:18.71	18.26	5.60	-36.3	-37.7	26.9	3.02e+01	59	28	0	8388608	48	5863
2026-01-13 17:30:19.72	18.21	5.67	-36.3	-37.7	27.0	3.02e+01	48	28	0	10485760	48	5903
2026-01-13 17:30:20.73	18.16	5.75	-36.4	-37.7	27.0	3.02e+01	59	28	0	12058624	48	5908
2026-01-13 17:30:21.74	18.11	5.82	-36.3	-37.6	27.0	3.02e+01	62	28	0	14155776	48	5844
2026-01-13 17:30:22.75	18.06	5.90	-36.2	-37.6	27.1	3.02e+01	46	28	0	15728640	48	5835
2026-01-13 17:30:23.76	18.01	5.97	-36.3	-37.7	26.9	3.02e+01	57	28	0	17825792	48	5878
2026-01-13 17:30:24.76	17.96	6.05	-36.3	-37.6	27.1	3.02e+01	61	28	0	19922944	48	5851
2026-01-13 17:30:25.77	17.91	6.12	-36.2	-37.6	27.0	3.02e+01	60	28	0	21495808	48	5809
2026-01-13 17:30:26.78	17.85	6.20	-36.1	-37.4	27.3	3.02e+01	60	28	0	23592960	48	5718
2026-01-13 17:30:27.79	17.80	6.27	-36.2	-37.6	27.1	3.02e+01	48	28	0	25690112	48	5822
2026-01-13 17:30:28.80	17.75	6.35	-36.0	-37.3	27.4	3.02e+01	55	28	0	27262976	48	5655
2026-01-13 17:30:29.81	17.69	6.43	-36.0	-37.3	27.4	3.02e+01	57	28	0	29360128	46	6311
2026-01-13 17:30:30.82	17.64	6.50	-35.9	-37.3	27.4	3.02e+01	44	28	0	30932992	46	6286
2026-01-13 17:30:31.83	17.59	6.58	-35.9	-37.3	27.5	3.02e+01	63	28	0	33030144	46	6298
2026-01-13 17:30:32.84	17.53	6.66	-36.0	-37.3	27.5	3.02e+01	62	28	0	35127296	46	6296
2026-01-13 17:30:33.84	17.48	6.73	-35.9	-37.3	27.4	3.02e+01	62	28	0	36700160	46	6288
2026-01-13 17:30:34.85	17.42	6.81	-35.8	-37.1	27.6	3.02e+01	63	28	0	38797312	46	6176
2026-01-13 17:30:35.86	17.37	6.89	-35.9	-37.2	27.5	3.02e+01	51	28	0	40370176	46	6240
2026-01-13 17:30:36.87	17.31	6.97	-35.8	-37.1	27.7	3.02e+01	55	28	0	42467328	46	6158
2026-01-13 17:30:37.88	17.26	7.05	-35.8	-37.1	27.7	3.02e+01	59	28	0	44564480	46	6165
2026-01-13 17:30:38.89	17.20	7.12	-35.7	-37.0	27.7	3.02e+01	60	28	0	46137344	46	6134
2026-01-13 17:30:39.90	17.15	7.20	-35.8	-37.1	27.7	3.02e+01	58	28	0	48234496	46	6187
2026-01-13 17:30:40.91	17.09	7.28	-35.5	-36.8	27.9	3.02e+01	60	28	0	49807360	46	5959
2026-01-13 17:30:41.91	17.03	7.36	-35.7	-37.1	27.8	3.02e+01	59	28	0	51904512	46	6139
2026-01-13 17:30:42.92	16.97	7.44	-35.6	-36.8	27.9	3.02e+01	58	28	0	54001664	46	5994
2026-01-13 17:30:43.93	16.92	7.52	-35.8	-37.1	27.8	3.02e+01	44	28	0	55574528	46	6147
2026-01-13 17:30:44.94	16.86	7.60	-35.5	-36.8	27.9	3.02e+01	57	28	0	57671680	46	5993
2026-01-13 17:30:45.95	16.80	7.68	-35.5	-36.8	27.9	3.02e+01	57	28	0	59244544	46	5984
2026-01-13 17:30:46.96	16.74	7.76	-35.5	-36.8	27.9	3.02e+01	59	28	0	61341696	46	5954
2026-01-13 17:30:47.97	16.68	7.84	-35.6	-36.9	28.0	3.02e+01	54	28	0	63438848	46	6059
2026-01-13 17:30:48.98	16.62	7.92	-35.3	-36.6	28.2	3.02e+01	58	28	0	65011712	46	5818
2026-01-13 17:30:49.99	16.56	8.00	-35.5	-36.8	28.1	3.02e+01	60	28	0	67108864	46	5938
2026-01-13 17:30:51.00	16.50	8.09	-35.2	-36.5	28.3	3.02e+01	58	28	0	68681728	46	5748
2026-01-13 17:30:52.01	16.44	8.17	-35.2	-36.5	28.3	3.02e+01	44	28	0	70778880	46	5734
2026-01-13 17:30:53.02	16.38	8.25	-35.1	-36.4	28.4	3.02e+01	57	28	0	72876032	46	5685
2026-01-13 17:30:54.03	16.32	8.33	-35.2	-36.5	28.3	3.02e+01	60	28	0	74448896	46	5740
2026-01-13 17:30:55.04	16.25	8.41	-35.3	-36.6	28.3	3.02e+01	58	28	0	76546048	46	5802
2026-01-13 17:30:56.05	16.19	8.50	-35.0	-36.3	28.5	3.02e+01	58	28	0	78643200	46	5616
2026-01-13 17:30:57.06	16.13	8.58	-35.3	-36.5	28.4	3.02e+01	59	28	0	80216064	46	5772
2026-01-13 17:30:58.07	16.07	8.66	-35.2	-36.5	28.4	3.02e+01	60	28	0	82313216	46	5753
2026-01-13 17:30:59.07	16.00	8.75	-35.2	-36.5	28.4	3.02e+01	58	28	0	83886080	46	5739
2026-01-13 17:31:00.09	15.94	8.83	-35.0	-36.3	28.6	3.02e+01	49	28	0	85983232	46	5595
2026-01-13 17:31:01.10	15.87	8.92	-35.2	-36.4	28.4	3.02e+01	58	28	0	88080384	46	5720
2026-01-13 17:31:02.11	15.81	9.00	-35.0	-36.3	28.6	3.02e+01	61	28	0	89653248	46	5613
2026-01-13 17:31:03.11	15.74	9.08	-35.0	-36.3	28.6	3.02e+01	62	28	0	91750400	46	5625
2026-01-13 17:31:04.12	15.68	9.17	-34.9	-36.2	28.6	3.02e+01	59	28	0	93847552	44	6247
2026-01-13 17:31:05.13	15.61	9.25	-34.9	-36.2	28.6	3.02e+01	47	28	0	95420416	44	6224
2026-01-13 17:31:06.14	15.54	9.34	-35.0	-36.2	28.6	3.02e+01	61	28	0	97517568	44	6252
2026-01-13 17:31:07.15	15.48	9.43	-35.1	-36.4	28.5	3.02e+01	61	28	0	99090432	44	6353
2026-01-13 17:31:08.16	15.41	9.51	-34.9	-36.1	28.7	3.02e+01	48	28	0	101187584	44	6195
2026-01-13 17:31:09.16	15.34	9.60	-35.0	-36.2	28.6	3.02e+01	59	28	0	103284736	44	6246
2026-01-13 17:31:10.17	15.27	9.69	-35.0	-36.2	28.6	3.02e+01	54	28	0	104857600	44	6245
2026-01-13 17:31:11.18	15.20	9.77	-34.8	-36.1	28.7	3.02e+01	60	28	0	106954752	44	6160
2026-01-13 17:31:12.19	15.13	9.86	-34.9	-36.1	28.7	3.02e+01	58	28	0	108527616	44	6196
2026-01-13 17:31:13.20	15.06	9.95	-34.8	-36.0	28.8	3.02e+01	57	28	0	110624768	44	6104
2026-01-13 17:31:14.21	14.99	10.04	-34.9	-36.2	28.6	3.02e+01	62	28	0	112721920	44	6223
2026-01-13 17:31:15.22	14.92	10.12	-35.0	-36.2	28.7	3.02e+01	57	28	0	114294784	44	6271
2026-01-13 17:31:16.23	14.85	10.21	-34.9	-36.2	28.7	3.02e+01	56	28	0	116391936	44	6245
2026-01-13 17:31:17.24	14.78	10.30	-34.8	-36.0	28.8	3.02e+01	58	28	0	117964800	44	6104
2026-01-13 17:31:18.25	14.70	10.39	-34.7	-36.0	28.9	3.02e+01	52	28	0	120061952	44	6101
2026-01-13 17:31:19.26	14.63	10.48	-34.7	-35.9	28.8	3.02e+01	58	28	0	122159104	44	6048
2026-01-13 17:31:20.27	14.56	10.57	-34.6	-35.9	28.9	3.02e+01	59	28	0	123731968	44	6011
2026-01-13 17:31:21.28	14.48	10.66	-34.8	-36.0	28.8	3.02e+01	48	28	0	125829120	44	6115
2026-01-13 17:31:22.29	14.41	10.75	-34.7	-35.9	28.9	3.02e+01	57	28	0	127401984	44	6025
2026-01-13 17:31:23.29	14.33	10.84	-34.6	-35.8	29.0	3.02e+01	60	28	0	129499136	44	5982
2026-01-13 17:31:24.30	14.26	10.93	-34.6	-35.8	29.0	3.02e+01	59	28	0	131596288	44	5951
2026-01-13 17:31:25.31	14.18	11.02	-34.5	-35.8	29.1	3.02e+01	59	28	0	133169152	44	5936
2026-01-13 17:31:26.32	14.11	11.12	-34.6	-35.8	29.0	3.02e+01	63	28	0	135266304	44	5960
2026-01-13 17:31:27.33	14.03	11.21	-34.5	-35.8	29.1	3.02e+01	58	28	0	136839168	44	5931
2026-01-13 17:31:28.34	13.95	11.30	-34.6	-35.8	29.1	3.02e+01	58	28	0	138936320	44	5953
2026-01-13 17:31:29.35	13.87	11.39	-34.6	-35.8	29.0	3.02e+01	44	28	0	141033472	44	5982
2026-01-13 17:31:30.36	13.79	11.49	-34.5	-35.7	29.1	3.02e+01	57	28	0	142606336	44	5916
2026-01-13 17:31:31.37	13.71	11.58	-34.6	-35.8	29.0	3.02e+01	57	28	0	144703488	44	5965
2026-01-13 17:31:32.38	13.63	11.68	-34.8	-36.1	28.8	3.02e+01	60	28	0	146800640	44	6144
2026-01-13 17:31:33.39	13.55	11.77	-34.5	-35.7	29.1	3.02e+01	60	28	0	148373504	44	5920
2026-01-13 17:31:34.40	13.47	11.86	-34.7	-35.9	29.1	3.02e+01	60	28	0	150470656	44	6012
2026-01-13 17:31:35.41	13.39	11.96	-34.6	-35.8	29.1	3.02e+01	61	28	0	152043520	44	5955
2026-01-13 17:31:36.42	13.31	12.05	-34.6	-35.8	29.1	3.02e+01	60	28	0	154140672	44	5967
2026-01-13 17:31:37.43	13.22	12.15	-34.6	-35.8	29.1	3.02e+01	45	28	0	156237824	44	5984
2026-01-13 17:31:38.43	13.14	12.25	-34.6	-35.8	29.1	3.02e+01	58	28	0	157810688	44	5988
2026-01-13 17:31:39.44	13.06	12.34	-34.6	-35.8	29.1	3.02e+01	59	28	0	159907840	44	5982
2026-01-13 17:31:40.45	12.97	12.44	-34.4	-35.6	29.2	3.02e+01	60	28	0	161480704	44	5852
2026-01-13 17:31:41.47	12.88	12.54	-34.4	-35.6	29.2	3.02e+01	60	28	0	163577856	44	5849
2026-01-13 17:31:42.47	12.80	12.63	-34.4	-35.7	29.2	3.02e+01	54	28	0	165675008	44	5862
2026-01-13 17:31:43.48	12.71	12.73	-34.3	-35.6	29.3	3.02e+01	57	28	0	167247872	44	5802
2026-01-13 17:31:44.49	12.62	12.83	-34.4	-35.6	29.2	3.02e+01	57	28	0	169345024	44	5845
2026-01-13 17:31:45.50	12.54	12.93	-34.3	-35.5	29.4	3.02e+01	47	28	0	170917888	44	5738
2026-01-13 17:31:46.51	12.45	13.03	-34.4	-35.6	29.3	3.02e+01	59	28	0	173015040	44	5826
2026-01-13 17:31:47.52	12.36	13.13	-34.3	-35.5	29.3	3.02e+01	58	28	0	175112192	44	5745
2026-01-13 17:31:48.53	12.27	13.23	-34.3	-35.5	29.3	3.02e+01	58	28	0	176685056	44	5784
2026-01-13 17:31:49.54	12.18	13.33	-34.3	-35.5	29.4	3.02e+01	61	28	0	178782208	44	5736
2026-01-13 17:31:50.55	12.09	13.43	-34.1	-35.3	29.6	3.02e+01	50	28	0	180355072	44	5611
2026-01-13 17:31:51.56	11.99	13.53	-34.0	-35.2	29.6	3.02e+01	58	28	0	182452224	44	5582
2026-01-13 17:31:52.57	11.90	13.63	-34.0	-35.2	29.6	3.02e+01	60	28	0	184549376	44	5546
2026-01-13 17:31:53.58	11.81	13.73	-34.2	-35.4	29.5	3.02e+01	61	28	0	186122240	44	5695
2026-01-13 17:31:54.59	11.71	13.83	-34.0	-35.2	29.7	3.02e+01	62	28	0	188219392	44	5550
2026-01-13 17:31:55.60	11.62	13.94	-34.0	-35.2	29.7	3.02e+01	45	28	0	190316544	44	5536
2026-01-13 17:31:56.60	11.52	14.04	-34.0	-35.2	29.7	3.02e+01	60	28	0	191889408	42	6264
2026-01-13 17:31:57.62	11.42	14.14	-34.1	-35.3	29.6	3.02e+01	59	29	0	193986560	42	6291
2026-01-13 17:31:58.62	11.33	14.25	-34.0	-35.2	29.6	3.02e+01	48	29	0	195559424	42	6262
2026-01-13 17:31:59.64	11.23	14.35	-34.1	-35.3	29.6	3.02e+01	61	28	0	197656576	42	6312
2026-01-13 17:32:00.64	11.13	14.45	-34.1	-35.3	29.6	3.02e+01	62	28	0	199753728	42	6284
2026-01-13 17:32:01.65	11.03	14.56	-34.1	-35.3	29.6	3.02e+01	58	28	0	201326592	42	6316
2026-01-13 17:32:02.66	10.93	14.66	-34.2	-35.4	29.6	3.02e+01	59	28	0	203423744	42	6362
2026-01-13 17:32:03.67	10.83	14.77	-34.0	-35.2	29.7	3.02e+01	60	28	0	204996608	42	6254
2026-01-13 17:32:04.68	10.73	14.88	-34.1	-35.3	29.6	3.02e+01	58	28	0	207093760	42	6332
2026-01-13 17:32:05.69	10.62	14.98	-34.0	-35.1	29.8	3.02e+01	60	28	0	209190912	42	6205
2026-01-13 17:32:06.70	10.52	15.09	-34.0	-35.2	29.7	3.02e+01	50	29	0	210763776	42	6227
2026-01-13 17:32:07.71	10.42	15.20	-34.0	-35.2	29.8	3.02e+01	60	28	0	212860928	42	6220
2026-01-13 17:32:08.72	10.31	15.31	-34.0	-35.1	29.7	3.02e+01	56	28	0	214958080	42	6202
2026-01-13 17:32:09.73	10.20	15.41	-34.0	-35.1	29.7	3.02e+01	59	29	0	216530944	42	6203
2026-01-13 17:32:10.74	10.10	15.52	-34.1	-35.3	29.6	3.02e+01	53	29	0	218628096	42	6333
2026-01-13 17:32:11.75	9.99	15.63	-34.0	-35.2	29.7	3.02e+01	46	29	0	220200960	42	6274
2026-01-13 17:32:12.76	9.88	15.74	-33.8	-35.0	29.9	3.02e+01	60	28	0	222298112	42	6091
2026-01-13 17:32:13.77	9.77	15.85	-33.9	-35.1	29.7	3.02e+01	58	29	0	224395264	42	6192
2026-01-13 17:32:14.78	9.66	15.96	-33.8	-35.0	29.9	3.02e+01	46	29	0	225968128	42	6092
2026-01-13 17:32:15.79	9.55	16.07	-33.9	-35.1	29.9	3.02e+01	60	29	0	228065280	42	6144
2026-01-13 17:32:16.80	9.44	16.19	-33.9	-35.1	29.9	3.02e+01	57	29	0	229638144	42	6140
2026-01-13 17:32:17.81	9.32	16.30	-33.9	-35.1	29.9	3.02e+01	59	29	0	231735296	42	6145
2026-01-13 17:32:18.82	9.21	16.41	-33.9	-35.1	29.8	3.02e+01	57	29	0	233832448	42	6172
2026-01-13 17:32:19.83	9.09	16.52	-33.8	-35.0	29.9	3.02e+01	49	29	0	235405312	42	6113
2026-01-13 17:32:20.83	8.98	16.64	-33.9	-35.1	29.8	3.02e+01	61	29	0	237502464	42	6163
2026-01-13 17:32:21.84	8.86	16.75	-33.9	-35.1	29.9	3.02e+01	59	29	0	239075328	42	6162
2026-01-13 17:32:22.85	8.74	16.86	-34.0	-35.2	29.9	3.02e+01	47	29	0	241172480	42	6207
2026-01-13 17:32:23.86	8.62	16.98	-34.1	-35.3	29.7	3.02e+01	60	29	0	243269632	42	6281
2026-01-13 17:32:24.87	8.50	17.09	-34.0	-35.2	29.8	3.02e+01	44	29	0	244842496	42	6235
2026-01-13 17:32:25.88	8.38	17.21	-34.0	-35.2	29.8	3.02e+01	60	29	0	246939648	42	6262
2026-01-13 17:32:26.89	8.26	17.33	-34.0	-35.2	29.9	3.02e+01	60	29	0	248512512	42	6223
2026-01-13 17:32:27.90	8.14	17.44	-34.0	-35.2	29.9	3.02e+01	53	29	0	250609664	42	6207
2026-01-13 17:32:28.91	8.01	17.56	-34.0	-35.2	29.8	3.02e+01	58	29	0	252706816	42	6213
2026-01-13 17:32:29.92	7.89	17.68	-33.9	-35.1	29.9	3.02e+01	57	29	0	254279680	42	6193
2026-01-13 17:32:30.93	7.76	17.80	-34.0	-35.2	29.8	3.02e+01	58	28	0	256376832	42	6252
2026-01-13 17:32:31.94	7.63	17.91	-34.0	-35.2	29.8	3.02e+01	57	29	0	258473984	42	6275
2026-01-13 17:32:32.94	7.51	18.03	-34.0	-35.2	29.8	3.02e+01	42	29	0	260046848	42	6251
2026-01-13 17:32:33.95	7.38	18.15	-34.2	-35.4	29.7	3.02e+01	58	29	0	262144000	42	6398
2026-01-13 17:32:34.96	7.25	18.27	-34.3	-35.5	29.6	3.02e+01	60	29	0	263716864	42	6466
2026-01-13 17:32:35.97	7.11	18.39	-34.3	-35.5	29.6	3.02e+01	47	29	0	265814016	42	6437
2026-01-13 17:32:36.98	6.98	18.51	-34.2	-35.4	29.7	3.02e+01	60	29	0	267911168	42	6417
2026-01-13 17:32:37.99	6.85	18.64	-34.2	-35.3	29.7	3.02e+01	59	29	0	269484032	42	6349
2026-01-13 17:32:39.00	6.71	18.76	-34.3	-35.5	29.7	3.02e+01	60	29	0	271581184	42	6468
2026-01-13 17:32:40.01	6.58	18.88	-34.3	-35.5	29.6	3.02e+01	59	29	0	273154048	42	6449
2026-01-13 17:32:41.02	6.44	19.00	-34.3	-35.5	29.6	3.02e+01	58	29	0	275251200	42	6482
2026-01-13 17:32:42.03	6.30	19.13	-34.4	-35.6	29.6	3.02e+01	59	29	0	277348352	42	6511
2026-01-13 17:32:43.04	6.16	19.25	-34.4	-35.6	29.6	3.02e+01	59	29	0	278921216	42	6562
2026-01-13 17:32:44.05	6.02	19.37	-34.2	-35.4	29.7	3.02e+01	53	29	0	281018368	42	6387
2026-01-13 17:32:45.06	5.88	19.50	-34.3	-35.4	29.7	3.02e+01	58	29	0	282591232	42	6423
2026-01-13 17:32:46.07	5.73	19.63	-34.2	-35.4	29.7	3.02e+01	59	29	0	284688384	42	6396
2026-01-13 17:32:47.08	5.59	19.75	-34.2	-35.4	29.8	3.02e+01	59	29	0	286785536	42	6384
2026-01-13 17:32:48.09	5.44	19.88	-34.2	-35.4	29.7	3.02e+01	60	29	0	288358400	42	6400
2026-01-13 17:32:49.10	5.29	20.01	-34.2	-35.4	29.7	3.02e+01	57	29	0	290455552	42	6417
2026-01-13 17:32:50.11	5.14	20.13	-34.3	-35.5	29.7	3.02e+01	57	29	0	292552704	42	6428
2026-01-13 17:32:51.12	4.99	20.26	-34.4	-35.6	29.6	3.02e+01	56	29	0	294125568	42	6499
2026-01-13 17:32:52.13	4.84	20.39	-34.4	-35.6	29.7	3.02e+01	44	29	0	296222720	42	6523
2026-01-13 17:32:53.14	4.69	20.52	-34.3	-35.5	29.6	3.02e+01	58	29	0	297795584	42	6459
2026-01-13 17:32:54.15	4.53	20.65	-34.2	-35.4	29.8	3.02e+01	56	29	0	299892736	42	6372
2026-01-13 17:32:55.16	4.38	20.78	-34.3	-35.5	29.6	3.02e+01	62	29	0	301465600	42	6464
2026-01-13 17:32:56.16	4.22	20.91	-34.3	-35.5	29.7	3.02e+01	58	29	0	303562752	42	6442
2026-01-13 17:32:57.18	4.06	21.04	-34.0	-35.2	29.9	3.02e+01	57	29	0	305659904	42	6258
2026-01-13 17:32:58.19	3.90	21.17	-34.1	-35.2	29.9	3.02e+01	57	29	0	307232768	42	6273
2026-01-13 17:32:59.20	3.74	21.31	-34.1	-35.3	30.0	3.02e+01	59	29	0	309329920	42	6280
2026-01-13 17:33:00.20	3.58	21.44	-34.1	-35.3	29.8	3.02e+01	58	29	0	311427072	42	6337
2026-01-13 17:33:01.21	3.41	21.57	-34.2	-35.4	29.8	3.02e+01	60	29	0	312999936	42	6402
2026-01-13 17:33:02.22	3.24	21.70	-34.4	-35.6	29.7	3.02e+01	45	29	0	315097088	42	6513
2026-01-13 17:33:03.23	3.08	21.84	-34.4	-35.6	29.7	3.02e+01	57	29	0	316669952	42	6504
2026-01-13 17:33:04.24	2.91	21.97	-34.5	-35.7	29.5	3.02e+01	61	29	0	318767104	42	6586
2026-01-13 17:33:05.25	2.74	22.11	-34.6	-35.8	29.4	3.02e+01	50	29	0	320864256	42	6686
2026-01-13 17:33:06.26	2.56	22.25	-34.5	-35.7	29.4	3.02e+01	60	29	0	322437120	42	6634
2026-01-13 17:33:07.26	2.39	22.38	-34.6	-35.8	29.4	3.02e+01	60	29	0	324534272	42	6724
2026-01-13 17:33:08.28	2.21	22.52	-34.6	-35.7	29.5	3.02e+01	57	29	0	326631424	42	6649
2026-01-13 17:33:09.28	2.04	22.65	-34.6	-35.8	29.4	3.02e+01	58	29	0	328204288	42	6693
2026-01-13 17:33:10.29	1.86	22.79	-34.6	-35.8	29.4	3.02e+01	45	29	0	330301440	42	6661
2026-01-13 17:33:11.30	1.68	22.93	-34.7	-35.9	29.3	3.02e+01	53	29	0	331874304	42	6779
2026-01-13 17:33:12.31	1.49	23.07	-34.8	-36.0	29.3	3.02e+01	58	29	0	333971456	42	6876
2026-01-13 17:33:13.32	1.31	23.21	-34.9	-36.2	29.1	3.02e+01	52	29	0	336068608	44	6211
2026-01-13 17:33:14.33	1.12	23.35	-34.8	-36.0	29.2	3.02e+01	57	29	0	337641472	44	6085
2026-01-13 17:33:15.34	0.94	23.49	-34.6	-35.8	29.5	3.02e+01	58	29	0	339738624	44	5943
2026-01-13 17:33:16.35	0.75	23.63	-34.6	-35.7	29.5	3.02e+01	60	29	0	341311488	44	5926
2026-01-13 17:33:17.36	0.55	23.77	-34.3	-35.5	29.6	3.02e+01	57	29	0	343408640	44	5766
2026-01-13 17:33:18.36	0.36	23.91	-34.3	-35.5	29.6	3.02e+01	61	29	0	345505792	44	5770
2026-01-13 17:33:19.37	0.17	24.06	-34.2	-35.4	29.8	3.02e+01	59	29	0	347078656	44	5681
2026-01-13 17:33:20.38	359.97	24.20	-34.3	-35.5	29.6	3.02e+01	63	29	0	349175808	44	5771
2026-01-13 17:33:21.39	359.77	24.34	-34.3	-35.5	29.7	3.02e+01	47	29	0	350748672	44	5769
2026-01-13 17:33:22.39	359.57	24.49	-34.3	-35.5	29.7	3.02e+01	58	29	0	352845824	44	5777
2026-01-13 17:33:23.40	359.37	24.63	-34.3	-35.4	29.7	3.02e+01	56	29	0	354942976	44	5719
2026-01-13 17:33:24.41	359.16	24.78	-34.4	-35.6	29.6	3.02e+01	58	29	0	356515840	44	5840
2026-01-13 17:33:25.42	358.96	24.92	-34.4	-35.6	29.5	3.02e+01	61	29	0	358612992	44	5851
2026-01-13 17:33:26.43	358.75	25.07	-34.5	-35.7	29.5	3.02e+01	50	29	0	360185856	44	5873
2026-01-13 17:33:27.44	358.54	25.21	-34.6	-35.8	29.4	3.02e+01	60	29	0	362283008	44	5944
2026-01-13 17:33:28.45	358.32	25.36	-34.7	-35.9	29.4	3.02e+01	59	29	0	364380160	44	6014
2026-01-13 17:33:29.46	358.11	25.51	-34.5	-35.7	29.5	3.02e+01	47	29	0	365953024	44	5880
2026-01-13 17:33:30.47	357.89	25.66	-34.5	-35.7	29.6	3.02e+01	51	29	0	368050176	44	5879
2026-01-13 17:33:31.48	357.67	25.80	-34.4	-35.6	29.6	3.02e+01	58	29	0	369623040	44	5794
2026-01-13 17:33:32.49	357.45	25.95	-34.5	-35.7	29.6	3.02e+01	59	29	0	371720192	44	5883
2026-01-13 17:33:33.50	357.22	26.10	-34.5	-35.7	29.5	3.02e+01	51	29	0	373817344	44	5870
2026-01-13 17:33:34.51	357.00	26.25	-34.4	-35.7	29.6	3.02e+01	56	29	0	375390208	44	5862
2026-01-13 17:33:35.52	356.77	26.40	-34.2	-35.4	29.7	3.02e+01	59	29	0	377487360	44	5703
2026-01-13 17:33:36.53	356.54	26.55	-34.2	-35.4	29.8	3.02e+01	57	29	0	379584512	44	5703
2026-01-13 17:33:37.54	356.30	26.70	-34.1	-35.3	29.9	3.02e+01	50	29	0	381157376	44	5629
2026-01-13 17:33:38.55	356.07	26.85	-34.1	-35.3	29.9	3.02e+01	59	29	0	383254528	44	5598
2026-01-13 17:33:39.55	355.83	27.00	-34.2	-35.4	29.8	3.02e+01	62	29	0	384827392	44	5698
2026-01-13 17:33:40.56	355.59	27.15	-34.2	-35.4	29.8	3.02e+01	61	29	0	386924544	44	5688
2026-01-13 17:33:41.57	355.35	27.31	-34.0	-35.2	30.0	3.02e+01	58	29	0	389021696	44	5560
2026-01-13 17:33:42.58	355.11	27.46	-34.2	-35.3	29.8	3.02e+01	48	29	0	390594560	44	5659
2026-01-13 17:33:43.59	354.86	27.61	-34.1	-35.3	29.9	3.02e+01	60	29	0	392691712	44	5602
2026-01-13 17:33:44.60	354.61	27.77	-34.0	-35.2	30.0	3.02e+01	61	29	0	394264576	44	5571
2026-01-13 17:33:45.61	354.35	27.92	-34.1	-35.3	29.9	3.02e+01	60	29	0	396361728	44	5611
2026-01-13 17:33:46.62	354.10	28.07	-34.1	-35.3	30.0	3.02e+01	61	29	0	398458880	44	5604
2026-01-13 17:33:47.63	353.84	28.23	-34.0	-35.2	30.1	3.02e+01	53	29	0	400031744	44	5548
2026-01-13 17:33:48.64	353.58	28.38	-33.9	-35.1	30.1	3.02e+01	62	29	0	402128896	42	6165
2026-01-13 17:33:49.65	353.32	28.54	-33.9	-35.0	30.1	3.02e+01	60	29	0	403701760	42	6117
2026-01-13 17:33:50.65	353.06	28.69	-33.8	-35.0	30.2	3.02e+01	45	29	0	405798912	42	6092
2026-01-13 17:33:51.66	352.79	28.85	-33.9	-35.0	30.2	3.02e+01	58	29	0	407896064	42	6122
2026-01-13 17:33:52.67	352.52	29.00	-33.7	-34.8	30.3	3.02e+01	56	29	0	409468928	42	5991
2026-01-13 17:33:53.68	352.24	29.16	-33.9	-35.1	30.1	3.02e+01	59	29	0	411566080	42	6145
2026-01-13 17:33:54.69	351.96	29.31	-34.0	-35.1	30.1	3.02e+01	59	29	0	413138944	42	6203
2026-01-13 17:33:55.70	351.69	29.47	-33.8	-35.0	30.2	3.02e+01	60	29	0	415236096	42	6119
2026-01-13 17:33:56.71	351.40	29.63	-33.8	-35.0	30.2	3.02e+01	59	29	0	417333248	42	6085
2026-01-13 17:33:57.72	351.12	29.78	-33.6	-34.8	30.4	3.02e+01	57	29	0	418906112	42	5928
2026-01-13 17:33:58.73	350.83	29.94	-33.6	-34.7	30.4	3.02e+01	44	29	0	421003264	42	5926
2026-01-13 17:33:59.74	350.54	30.10	-33.6	-34.7	30.5	3.02e+01	59	29	0	423100416	42	5922
2026-01-13 17:34:00.75	350.24	30.25	-33.7	-34.8	30.4	3.02e+01	58	29	0	424673280	42	5985
2026-01-13 17:34:01.76	349.95	30.41	-33.7	-34.8	30.4	3.02e+01	61	29	0	426770432	42	5988
2026-01-13 17:34:02.77	349.65	30.57	-33.7	-34.9	30.4	3.02e+01	59	29	0	428343296	42	6018
2026-01-13 17:34:03.78	349.34	30.72	-33.7	-34.8	30.3	3.02e+01	53	29	0	430440448	42	5990
2026-01-13 17:34:04.79	349.04	30.88	-33.5	-34.7	30.5	3.02e+01	60	29	0	432537600	42	5906
2026-01-13 17:34:05.79	348.73	31.04	-33.5	-34.7	30.5	3.02e+01	58	29	0	434110464	42	5870
2026-01-13 17:34:06.80	348.42	31.19	-33.6	-34.7	30.5	3.02e+01	44	29	0	436207616	42	5918
2026-01-13 17:34:07.81	348.10	31.35	-33.5	-34.7	30.4	3.02e+01	58	29	0	437780480	42	5897
2026-01-13 17:34:08.82	347.78	31.51	-33.7	-34.9	30.4	3.02e+01	57	29	0	439877632	42	6033
2026-01-13 17:34:09.83	347.46	31.66	-33.8	-35.0	30.2	3.02e+01	57	29	0	441974784	42	6081
2026-01-13 17:34:10.84	347.14	31.82	-33.6	-34.7	30.5	3.02e+01	60	29	0	443547648	42	5920
2026-01-13 17:34:11.85	346.81	31.98	-33.6	-34.8	30.4	3.02e+01	51	29	0	445644800	42	5962
2026-01-13 17:34:12.86	346.48	32.13	-33.7	-34.9	30.3	3.02e+01	61	29	0	447217664	42	6033
2026-01-13 17:34:13.87	346.14	32.29	-33.6	-34.8	30.5	3.02e+01	61	29	0	449314816	42	5938
2026-01-13 17:34:14.88	345.80	32.44	-33.6	-34.8	30.4	3.02e+01	53	29	0	451411968	42	5947
2026-01-13 17:34:15.89	345.46	32.60	-33.6	-34.8	30.4	3.02e+01	61	29	0	452984832	42	5944
2026-01-13 17:34:16.90	345.11	32.76	-33.7	-34.9	30.4	3.02e+01	60	29	0	455081984	42	6012
2026-01-13 17:34:17.91	344.76	32.91	-33.8	-35.0	30.3	3.02e+01	61	29	0	456654848	42	6089
2026-01-13 17:34:18.92	344.41	33.07	-34.0	-35.1	30.1	3.02e+01	60	29	0	458752000	42	6195
2026-01-13 17:34:19.93	344.06	33.22	-33.9	-35.1	30.1	3.02e+01	46	29	0	460849152	42	6177
2026-01-13 17:34:20.93	343.70	33.37	-34.1	-35.3	30.0	3.02e+01	60	29	0	462422016	42	6316
2026-01-13 17:34:21.94	343.34	33.53	-34.0	-35.2	30.1	3.02e+01	55	29	0	464519168	42	6213
2026-01-13 17:34:22.95	342.97	33.68	-34.0	-35.2	30.1	3.02e+01	61	29	0	466092032	42	6207
2026-01-13 17:34:23.96	342.60	33.83	-33.9	-35.1	30.1	3.02e+01	60	29	0	468189184	42	6166
2026-01-13 17:34:24.97	342.23	33.98	-34.2	-35.4	29.9	3.02e+01	57	29	0	470286336	42	6363
2026-01-13 17:34:25.98	341.85	34.13	-34.4	-35.6	29.7	3.02e+01	61	29	0	471859200	42	6567
2026-01-13 17:34:26.99	341.47	34.29	-34.4	-35.6	29.7	3.02e+01	62	29	0	473956352	42	6513
2026-01-13 17:34:28.00	341.08	34.44	-34.4	-35.6	29.7	3.02e+01	47	29	0	476053504	42	6547
2026-01-13 17:34:29.01	340.70	34.58	-34.3	-35.5	29.8	3.02e+01	59	29	0	477626368	42	6479
2026-01-13 17:34:30.02	340.30	34.73	-34.4	-35.6	29.7	3.02e+01	60	29	0	479723520	42	6553
2026-01-13 17:34:31.03	339.91	34.88	-34.7	-35.9	29.5	3.02e+01	61	29	0	481296384	42	6790
2026-01-13 17:34:32.04	339.51	35.03	-34.6	-35.8	29.6	3.02e+01	58	29	0	483393536	42	6692
2026-01-13 17:34:33.05	339.11	35.18	-34.5	-35.7	29.7	3.02e+01	60	29	0	485490688	42	6621
2026-01-13 17:34:34.06	338.70	35.32	-34.6	-35.8	29.6	3.02e+01	55	29	0	487063552	42	6663
2026-01-13 17:34:35.06	338.29	35.46	-34.8	-36.0	29.4	3.02e+01	57	29	0	489160704	42	6819
2026-01-13 17:34:36.07	337.88	35.61	-35.0	-36.2	29.3	3.02e+01	54	29	0	491257856	42	6983
2026-01-13 17:34:37.08	337.46	35.75	-34.9	-36.1	29.3	3.02e+01	62	29	0	492830720	44	6159
2026-01-13 17:34:38.09	337.04	35.89	-34.6	-35.8	29.6	3.02e+01	60	29	0	494927872	44	5958
2026-01-13 17:34:39.10	336.61	36.03	-34.7	-35.9	29.4	3.02e+01	61	29	0	496500736	44	6045
2026-01-13 17:34:40.11	336.18	36.17	-34.9	-36.1	29.3	3.02e+01	57	29	0	498597888	44	6168
2026-01-13 17:34:41.12	335.75	36.31	-35.3	-36.6	28.9	3.02e+01	47	29	0	500695040	44	6521
2026-01-13 17:34:42.13	335.31	36.45	-35.4	-36.6	28.8	3.02e+01	58	29	0	502267904	44	6533
2026-01-13 17:34:43.14	334.87	36.58	-35.3	-36.5	29.0	3.02e+01	58	29	0	504365056	44	6448
2026-01-13 17:34:44.15	334.43	36.72	-34.9	-36.1	29.3	3.02e+01	47	29	0	505937920	44	6156
2026-01-13 17:34:45.16	333.98	36.85	-35.2	-36.4	29.1	3.02e+01	60	29	0	508035072	44	6390
2026-01-13 17:34:46.16	333.53	36.98	-35.2	-36.5	29.0	3.02e+01	57	29	0	510132224	44	6444
2026-01-13 17:34:47.17	333.07	37.11	-35.3	-36.5	29.0	3.02e+01	57	29	0	511705088	44	6469
2026-01-13 17:34:48.18	332.61	37.24	-35.3	-36.6	28.9	3.02e+01	59	29	0	513802240	44	6507
2026-01-13 17:34:49.19	332.15	37.36	-35.3	-36.6	29.0	3.02e+01	56	29	0	515375104	44	6507
2026-01-13 17:34:50.20	331.68	37.49	-35.4	-36.6	28.9	3.02e+01	60	29	0	517472256	44	6527
2026-01-13 17:34:51.21	331.21	37.61	-35.4	-36.6	28.9	3.02e+01	57	29	0	519569408	44	6557
2026-01-13 17:34:52.22	330.74	37.74	-35.3	-36.5	29.0	3.02e+01	57	29	0	521142272	44	6466
2026-01-13 17:34:53.22	330.27	37.85	-35.5	-36.8	28.8	3.02e+01	62	30	0	523239424	44	6650
2026-01-13 17:34:54.23	329.78	37.97	-35.7	-37.0	28.6	3.02e+01	46	29	0	524812288	44	6832
2026-01-13 17:34:55.24	329.30	38.09	-35.6	-36.9	28.6	3.02e+01	59	29	0	526909440	44	6753
2026-01-13 17:34:56.25	328.81	38.20	-35.5	-36.8	28.8	3.02e+01	63	29	0	529006592	44	6658
2026-01-13 17:34:57.26	328.32	38.32	-35.4	-36.6	28.9	3.02e+01	44	29	0	530579456	44	6561
2026-01-13 17:34:58.27	327.82	38.43	-35.4	-36.6	28.9	3.02e+01	57	29	0	532676608	44	6542
2026-01-13 17:34:59.28	327.32	38.54	-35.7	-37.0	28.6	3.02e+01	60	29	0	534249472	44	6829
2026-01-13 17:35:00.29	326.82	38.64	-35.7	-37.0	28.5	3.02e+01	59	29	0	536346624	44	6829
2026-01-13 17:35:01.30	326.31	38.75	-36.0	-37.3	28.4	3.02e+01	60	30	0	538443776	46	6298
2026-01-13 17:35:02.31	325.80	38.85	-35.7	-36.9	28.6	3.02e+01	60	29	0	540016640	46	6045
2026-01-13 17:35:03.32	325.29	38.95	-35.9	-37.1	28.5	3.02e+01	59	29	0	542113792	46	6190
2026-01-13 17:35:04.33	324.78	39.05	-35.6	-36.9	28.7	3.02e+01	57	29	0	544210944	46	6012
2026-01-13 17:35:05.34	324.26	39.14	-35.8	-37.0	28.5	3.02e+01	51	29	0	545783808	46	6117
2026-01-13 17:35:06.35	323.73	39.24	-35.7	-36.9	28.7	3.02e+01	59	30	0	547880960	46	6037
2026-01-13 17:35:07.35	323.21	39.33	-35.4	-36.6	28.9	3.02e+01	56	30	0	549453824	46	5845
2026-01-13 17:35:08.36	322.69	39.41	-35.7	-37.0	28.6	3.02e+01	60	30	0	551550976	46	6086
2026-01-13 17:35:09.37	322.16	39.50	-35.9	-37.2	28.5	3.02e+01	61	30	0	553648128	46	6224
2026-01-13 17:35:10.38	321.62	39.58	-35.3	-36.6	28.9	3.02e+01	60	29	0	555220992	46	5810
2026-01-13 17:35:11.39	321.08	39.66	-35.4	-36.7	28.9	3.02e+01	61	30	0	557318144	46	5867
2026-01-13 17:35:12.40	320.55	39.74	-35.6	-36.8	28.7	3.02e+01	55	29	0	558891008	46	5994
2026-01-13 17:35:13.41	320.00	39.82	-35.4	-36.7	28.9	3.02e+01	47	30	0	560988160	46	5877
2026-01-13 17:35:14.42	319.46	39.89	-35.3	-36.6	28.9	3.02e+01	59	29	0	563085312	46	5812
2026-01-13 17:35:15.43	318.91	39.96	-35.7	-37.0	28.6	3.02e+01	61	30	0	564658176	46	6107
2026-01-13 17:35:16.43	318.37	40.03	-35.5	-36.8	28.8	3.02e+01	59	30	0	566755328	46	5944
2026-01-13 17:35:17.44	317.82	40.09	-35.5	-36.8	28.8	3.02e+01	61	30	0	568328192	46	5938
2026-01-13 17:35:18.45	317.26	40.15	-35.3	-36.6	29.0	3.02e+01	56	29	0	570425344	46	5803
2026-01-13 17:35:19.46	316.71	40.21	-35.5	-36.8	28.7	3.02e+01	58	30	0	572522496	46	5954
2026-01-13 17:35:20.47	316.15	40.27	-35.5	-36.8	28.7	3.02e+01	57	30	0	574095360	46	5950
2026-01-13 17:35:21.48	315.59	40.32	-35.6	-36.8	28.7	3.02e+01	47	30	0	576192512	46	5968
2026-01-13 17:35:22.49	315.03	40.37	-35.3	-36.6	28.9	3.02e+01	61	30	0	577765376	46	5796
2026-01-13 17:35:23.50	314.46	40.42	-35.2	-36.4	29.0	3.02e+01	56	30	0	579862528	46	5707
2026-01-13 17:35:24.51	313.90	40.46	-35.4	-36.6	28.9	3.02e+01	61	30	0	581959680	46	5827
2026-01-13 17:35:25.51	313.34	40.50	-35.5	-36.8	28.8	3.02e+01	60	30	0	583532544	46	5936
2026-01-13 17:35:26.52	312.77	40.54	-35.6	-36.8	28.8	3.02e+01	53	30	0	585629696	46	5972
2026-01-13 17:35:27.53	312.20	40.57	-35.3	-36.6	28.9	3.02e+01	60	30	0	587726848	46	5814
2026-01-13 17:35:28.54	311.63	40.60	-35.6	-36.9	28.7	3.02e+01	61	30	0	589299712	46	6012
2026-01-13 17:35:29.55	311.06	40.63	-35.9	-37.2	28.4	3.02e+01	59	30	0	591396864	46	6211
2026-01-13 17:35:30.56	310.48	40.66	-36.0	-37.2	28.3	3.02e+01	63	30	0	592969728	46	6277
2026-01-13 17:35:31.57	309.91	40.68	-36.4	-37.7	28.0	3.02e+01	40	30	0	595066880	46	6631
2026-01-13 17:35:32.58	309.34	40.70	-36.3	-37.6	28.2	3.02e+01	59	30	0	597164032	46	6536
2026-01-13 17:35:33.59	308.76	40.71	-36.0	-37.3	28.2	3.02e+01	60	30	0	598736896	46	6310
2026-01-13 17:35:34.60	308.19	40.72	-35.8	-37.1	28.6	3.02e+01	51	30	0	600834048	46	6156
2026-01-13 17:35:35.61	307.61	40.73	-35.6	-36.9	28.7	3.02e+01	61	30	0	602406912	46	6005
2026-01-13 17:35:36.62	307.04	40.74	-35.9	-37.1	28.5	3.02e+01	61	30	0	604504064	46	6203
2026-01-13 17:35:37.63	306.46	40.74	-36.1	-37.4	28.3	3.02e+01	57	30	0	606601216	46	6373
2026-01-13 17:35:38.64	305.88	40.74	-35.8	-37.2	28.4	3.02e+01	58	30	0	608174080	46	6208
2026-01-13 17:35:39.65	305.31	40.74	-36.1	-37.4	28.3	3.02e+01	47	30	0	610271232	46	6413
2026-01-13 17:35:40.65	304.74	40.73	-36.6	-38.0	27.8	3.02e+01	58	30	0	611844096	46	6812
2026-01-13 17:35:41.66	304.16	40.72	-36.7	-38.0	27.7	3.02e+01	58	30	0	613941248	46	6875
2026-01-13 17:35:42.67	303.59	40.70	-36.8	-38.1	27.6	3.02e+01	50	30	0	616038400	48	6204
2026-01-13 17:35:43.68	303.01	40.69	-36.3	-37.7	27.8	3.02e+01	57	30	0	617611264	46	6574
2026-01-13 17:35:44.69	302.44	40.67	-36.3	-37.6	27.9	3.02e+01	58	30	0	619708416	46	6512
2026-01-13 17:35:45.70	301.86	40.64	-36.5	-37.8	27.8	3.02e+01	59	30	0	621281280	46	6690
2026-01-13 17:35:46.70	301.30	40.62	-36.5	-37.8	27.8	3.02e+01	61	30	0	623378432	46	6673
2026-01-13 17:35:47.71	300.73	40.59	-35.5	-36.8	28.7	3.02e+01	44	30	0	625475584	46	5934
2026-01-13 17:35:48.70	300.17	40.56	-34.8	-36.0	29.3	3.02e+01	58	30	0	627048448	44	6122
2026-01-13 17:35:49.71	299.60	40.52	-35.0	-36.2	29.0	3.02e+01	58	30	0	629145600	44	6266
2026-01-13 17:35:50.72	299.03	40.48	-35.3	-36.5	28.6	3.02e+01	51	30	0	630718464	46	5764
2026-01-13 17:35:51.73	298.46	40.44	-35.3	-36.5	28.6	3.02e+01	55	30	0	632815616	46	5771
2026-01-13 17:35:52.74	297.90	40.39	-35.3	-36.5	29.0	3.02e+01	56	30	0	634912768	44	6483
2026-01-13 17:35:53.75	297.34	40.35	-35.8	-37.1	28.4	3.02e+01	52	30	0	636485632	44	6940
2026-01-13 17:35:54.76	296.77	40.30	-35.8	-37.1	28.1	3.02e+01	56	30	0	638582784	46	6170
2026-01-13 17:35:55.77	296.21	40.24	-35.8	-37.1	27.8	3.02e+01	53	30	0	640679936	46	6145
2026-01-13 17:35:56.77	295.66	40.18	-35.7	-37.0	28.1	3.02e+01	60	30	0	642252800	46	6097
2026-01-13 17:35:57.78	295.11	40.12	-35.6	-36.9	28.6	3.02e+01	58	30	0	644349952	46	6012
2026-01-13 17:35:58.79	294.55	40.06	-36.5	-37.9	27.7	3.02e+01	50	30	0	645922816	46	6767
2026-01-13 17:35:59.80	294.00	40.00	-36.8	-38.3	27.2	3.02e+01	60	30	0	648019968	48	6281
2026-01-13 17:36:00.81	293.45	39.93	-36.3	-37.7	24.3	3.02e+01	62	30	0	650117120	44	7454
2026-01-13 17:36:01.82	292.91	39.86	-35.5	-36.7	25.4	3.02e+01	58	30	0	651689984	44	6632
2026-01-13 17:36:02.83	292.36	39.78	-35.1	-36.3	28.8	3.02e+01	59	30	0	653787136	46	5658
2026-01-13 17:36:03.83	291.83	39.71	-34.7	-35.8	29.6	3.02e+01	53	30	0	655360000	46	5330
2026-01-13 17:36:04.85	291.28	39.63	-35.1	-36.2	28.9	3.02e+01	56	30	0	657457152	46	5590
2026-01-13 17:36:05.85	290.75	39.55	-35.8	-37.1	28.1	3.02e+01	61	30	0	659554304	46	6190
2026-01-13 17:36:06.86	290.22	39.46	-36.3	-37.7	27.9	3.02e+01	53	30	0	661127168	46	6609
2026-01-13 17:36:07.87	289.69	39.37	-35.4	-36.6	28.4	3.02e+01	64	30	0	663224320	44	6543
2026-01-13 17:36:08.88	289.16	39.28	-35.3	-36.5	28.8	3.02e+01	43	30	0	664797184	46	5764
2026-01-13 17:36:09.89	288.64	39.19	-35.4	-36.6	29.0	3.02e+01	61	30	0	666894336	46	5821
2026-01-13 17:36:10.90	288.11	39.10	-35.5	-36.7	28.9	3.02e+01	59	30	0	668991488	46	5920
2026-01-13 17:36:11.91	287.60	39.00	-35.2	-36.4	29.1	3.02e+01	47	30	0	670564352	46	5688
2026-01-13 17:36:12.91	287.09	38.90	-35.7	-36.9	28.5	3.02e+01	60	30	0	672661504	46	6020
2026-01-13 17:36:13.92	286.57	38.80	-35.9	-37.2	28.4	3.02e+01	60	30	0	674234368	46	6270
2026-01-13 17:36:14.93	286.07	38.70	-35.7	-37.0	28.7	3.02e+01	58	30	0	676331520	46	6070
2026-01-13 17:36:15.94	285.56	38.59	-35.3	-36.5	29.0	3.02e+01	61	30	0	678428672	46	5754
2026-01-13 17:36:16.95	285.06	38.48	-35.8	-37.0	28.7	3.02e+01	47	30	0	680001536	46	6099
2026-01-13 17:36:17.96	284.56	38.38	-36.1	-37.4	28.2	3.02e+01	58	30	0	682098688	46	6377
2026-01-13 17:36:18.97	284.06	38.26	-35.9	-37.1	28.1	3.02e+01	60	30	0	684195840	46	6191
2026-01-13 17:36:19.98	283.57	38.15	-35.6	-36.7	28.8	3.02e+01	45	30	0	685768704	46	5910
2026-01-13 17:36:20.99	283.08	38.03	-36.4	-37.7	26.9	3.02e+01	56	30	0	687865856	48	5899
2026-01-13 17:36:22.00	282.60	37.92	-36.8	-38.3	27.1	3.02e+01	61	30	0	689438720	46	7058
2026-01-13 17:36:23.01	282.12	37.80	-35.1	-36.3	28.9	3.02e+01	60	30	0	691535872	46	5598
2026-01-13 17:36:24.02	281.64	37.67	-35.6	-36.8	28.4	3.02e+01	61	30	0	693633024	46	5991
2026-01-13 17:36:25.03	281.17	37.55	-36.6	-38.0	27.8	3.02e+01	57	30	0	695205888	46	6829
2026-01-13 17:36:26.04	280.70	37.43	-35.6	-36.9	28.6	3.02e+01	57	30	0	697303040	46	5995
2026-01-13 17:36:27.05	280.23	37.30	-36.0	-37.3	28.1	3.02e+01	58	30	0	698875904	46	6288
2026-01-13 17:36:28.06	279.77	37.17	-36.1	-37.4	28.2	3.02e+01	50	30	0	700973056	46	6380
2026-01-13 17:36:29.06	279.31	37.04	-35.9	-37.1	28.1	3.02e+01	59	30	0	703070208	46	6179
2026-01-13 17:36:30.07	278.86	36.91	-36.7	-37.9	27.5	3.02e+01	63	30	0	704643072	48	6055
2026-01-13 17:36:31.08	278.41	36.78	-37.7	-39.2	26.5	3.02e+01	56	30	0	706740224	48	6976
2026-01-13 17:36:32.09	277.96	36.65	-34.9	-36.0	29.1	3.02e+01	60	30	0	708837376	46	5433
2026-01-13 17:36:33.10	277.52	36.51	-36.1	-37.4	27.7	3.02e+01	47	30	0	710410240	46	6404
2026-01-13 17:36:34.11	277.08	36.37	-35.8	-37.0	27.6	3.02e+01	59	30	0	712507392	46	6129
2026-01-13 17:36:35.12	276.64	36.24	-36.0	-37.3	27.9	3.02e+01	57	30	0	714080256	48	5623
2026-01-13 17:36:36.13	276.21	36.10	-36.6	-38.0	27.5	3.02e+01	47	30	0	716177408	46	6864
2026-01-13 17:36:37.13	275.78	35.96	-34.7	-35.8	29.4	3.02e+01	60	30	0	717750272	46	5324
2026-01-13 17:36:38.14	275.36	35.82	-36.8	-38.2	27.1	3.02e+01	51	30	0	719847424	46	7013
2026-01-13 17:36:39.15	274.94	35.68	-34.9	-36.0	29.1	3.02e+01	59	30	0	721944576	44	6082
2026-01-13 17:36:40.16	274.52	35.53	-37.3	-38.8	25.7	3.02e+01	60	30	0	723517440	48	6710
2026-01-13 17:36:41.17	274.11	35.39	-35.2	-36.3	28.3	3.02e+01	52	30	0	725614592	46	5619
2026-01-13 17:36:42.18	273.70	35.24	-37.2	-38.7	26.2	3.02e+01	59	30	0	727187456	48	6578
2026-01-13 17:36:43.19	273.29	35.10	-35.0	-36.2	28.6	3.02e+01	62	30	0	729284608	44	6231
2026-01-13 17:36:44.20	272.89	34.95	-36.4	-37.8	27.2	3.02e+01	58	30	0	731381760	46	6656
2026-01-13 17:36:45.21	272.49	34.80	-35.7	-36.9	28.2	3.02e+01	59	30	0	732954624	46	6006
2026-01-13 17:36:46.22	272.09	34.65	-37.4	-38.9	26.3	3.02e+01	45	30	0	735051776	48	6748
2026-01-13 17:36:47.23	271.70	34.50	-34.9	-36.1	29.2	3.02e+01	57	30	0	737148928	46	5481
2026-01-13 17:36:48.23	271.32	34.35	-36.7	-38.1	27.5	3.02e+01	58	30	0	738721792	46	6892
2026-01-13 17:36:49.24	270.93	34.20	-36.1	-37.3	28.2	3.02e+01	48	30	0	740818944	46	6322
2026-01-13 17:36:50.25	270.55	34.05	-37.0	-38.3	27.2	3.02e+01	58	30	0	742391808	46	7107
2026-01-13 17:36:51.26	270.18	33.90	-36.3	-37.6	27.5	3.02e+01	60	30	0	744488960	48	5842
2026-01-13 17:36:52.27	269.80	33.75	-35.8	-37.0	28.2	3.02e+01	59	30	0	746586112	46	6112
2026-01-13 17:36:53.28	269.44	33.59	-36.8	-38.1	27.6	3.02e+01	55	30	0	748158976	46	6945
2026-01-13 17:36:54.29	269.07	33.44	-35.7	-36.9	28.6	3.02e+01	46	30	0	750256128	46	6052
2026-01-13 17:36:55.30	268.71	33.28	-36.2	-37.5	28.0	3.02e+01	58	30	0	752353280	46	6473
2026-01-13 17:36:56.31	268.35	33.13	-36.4	-37.7	27.8	3.02e+01	58	30	0	753926144	46	6612
2026-01-13 17:36:57.32	267.99	32.98	-36.0	-37.2	28.5	3.02e+01	38	30	0	756023296	46	6252
2026-01-13 17:36:58.32	267.64	32.82	-35.8	-37.1	28.5	3.02e+01	56	30	0	757596160	46	6163
2026-01-13 17:36:59.33	267.30	32.67	-35.1	-36.3	29.1	3.02e+01	56	30	0	759693312	46	5614
2026-01-13 17:37:00.34	266.95	32.51	-35.1	-36.3	28.9	3.02e+01	58	30	0	761790464	44	6332
2026-01-13 17:37:01.35	266.61	32.35	-35.7	-37.0	28.4	3.02e+01	62	30	0	763363328	44	6856
2026-01-13 17:37:02.36	266.27	32.20	-35.4	-36.6	28.8	3.02e+01	58	30	0	765460480	44	6522
2026-01-13 17:37:03.37	265.94	32.04	-35.2	-36.4	29.1	3.02e+01	57	30	0	767033344	44	6381
2026-01-13 17:37:04.38	265.61	31.88	-35.7	-37.0	28.6	3.02e+01	59	30	0	769130496	44	6807
2026-01-13 17:37:05.39	265.28	31.73	-35.5	-36.7	28.7	3.02e+01	50	30	0	770703360	44	6632
2026-01-13 17:37:06.40	264.95	31.57	-34.7	-35.9	29.5	3.02e+01	61	30	0	772800512	44	6028
2026-01-13 17:37:07.40	264.63	31.41	-35.0	-36.2	29.2	3.02e+01	57	30	0	774897664	44	6276
2026-01-13 17:37:08.41	264.32	31.26	-34.9	-36.2	29.3	3.02e+01	61	30	0	776470528	44	6210
2026-01-13 17:37:09.42	264.00	31.10	-34.7	-35.9	29.5	3.02e+01	59	30	0	778567680	44	6004
2026-01-13 17:37:10.43	263.69	30.94	-35.1	-36.3	29.2	3.02e+01	49	30	0	780664832	44	6289
2026-01-13 17:37:11.44	263.38	30.78	-35.9	-37.2	28.4	3.02e+01	60	30	0	782237696	44	6990
2026-01-13 17:37:12.45	263.07	30.62	-35.7	-36.9	28.6	3.02e+01	61	30	0	784334848	46	6049
2026-01-13 17:37:13.46	262.77	30.47	-34.7	-35.9	29.4	3.02e+01	46	30	0	785907712	44	6031
2026-01-13 17:37:14.47	262.47	30.31	-34.7	-35.9	29.4	3.02e+01	61	30	0	788004864	44	6016
2026-01-13 17:37:15.48	262.18	30.15	-35.1	-36.3	29.2	3.02e+01	59	30	0	790102016	44	6302
2026-01-13 17:37:16.48	261.88	30.00	-35.3	-36.6	28.9	3.02e+01	52	30	0	791674880	44	6540
2026-01-13 17:37:17.49	261.59	29.84	-34.9	-36.1	29.2	3.02e+01	56	30	0	793772032	44	6198
2026-01-13 17:37:18.50	261.31	29.68	-35.2	-36.3	29.1	3.02e+01	54	30	0	795344896	44	6347
2026-01-13 17:37:19.51	261.02	29.53	-34.9	-36.1	29.3	3.02e+01	60	30	0	797442048	44	6195
2026-01-13 17:37:20.52	260.74	29.37	-34.7	-35.9	29.5	3.02e+01	56	30	0	799539200	44	6026
2026-01-13 17:37:21.53	260.46	29.21	-34.8	-36.0	29.5	3.02e+01	47	30	0	801112064	44	6078
2026-01-13 17:37:22.54	260.18	29.06	-34.6	-35.8	29.5	3.02e+01	62	30	0	803209216	44	5984
2026-01-13 17:37:23.55	259.91	28.90	-34.9	-36.1	29.3	3.02e+01	48	30	0	805306368	44	6191
2026-01-13 17:37:24.56	259.64	28.74	-35.0	-36.2	29.2	3.02e+01	62	30	0	806879232	44	6231
2026-01-13 17:37:25.56	259.37	28.59	-34.9	-36.1	29.3	3.02e+01	61	30	0	808976384	44	6143
2026-01-13 17:37:26.58	259.11	28.43	-34.6	-35.8	29.6	3.02e+01	48	30	0	810549248	44	5956
2026-01-13 17:37:27.59	258.84	28.28	-34.8	-36.0	29.5	3.02e+01	60	30	0	812646400	44	6097
2026-01-13 17:37:28.60	258.58	28.12	-35.1	-36.3	29.1	3.02e+01	62	30	0	814743552	44	6305
2026-01-13 17:37:29.60	258.33	27.97	-34.9	-36.1	29.3	3.02e+01	62	30	0	816316416	44	6139
2026-01-13 17:37:30.61	258.07	27.81	-34.8	-36.0	29.4	3.02e+01	60	30	0	818413568	44	6076
2026-01-13 17:37:31.62	257.82	27.66	-34.5	-35.7	29.7	3.02e+01	45	30	0	819986432	44	5859
2026-01-13 17:37:32.63	257.57	27.51	-34.9	-36.1	29.3	3.02e+01	60	30	0	822083584	44	6179
2026-01-13 17:37:33.64	257.32	27.35	-35.4	-36.6	28.9	3.02e+01	59	30	0	824180736	44	6549
2026-01-13 17:37:34.65	257.08	27.20	-35.2	-36.4	28.9	3.02e+01	53	30	0	825753600	44	6392
2026-01-13 17:37:35.66	256.84	27.05	-34.9	-36.2	29.2	3.02e+01	52	30	0	827850752	44	6211
2026-01-13 17:37:36.67	256.60	26.90	-34.9	-36.1	29.2	3.02e+01	58	30	0	829423616	44	6201
2026-01-13 17:37:37.68	256.36	26.74	-35.0	-36.2	29.2	3.02e+01	58	30	0	831520768	44	6253
2026-01-13 17:37:38.69	256.12	26.59	-35.1	-36.3	29.1	3.02e+01	58	30	0	833617920	44	6299
2026-01-13 17:37:39.70	255.89	26.44	-35.3	-36.5	29.0	3.02e+01	47	30	0	835190784	44	6471
2026-01-13 17:37:40.71	255.66	26.29	-34.9	-36.1	29.3	3.02e+01	60	30	0	837287936	44	6143
2026-01-13 17:37:41.71	255.43	26.14	-35.2	-36.4	29.1	3.02e+01	59	30	0	838860800	44	6367
2026-01-13 17:37:42.72	255.21	25.99	-35.3	-36.5	29.0	3.02e+01	44	30	0	840957952	44	6455
2026-01-13 17:37:43.73	254.98	25.84	-35.1	-36.4	29.0	3.02e+01	59	30	0	843055104	44	6354
2026-01-13 17:37:44.74	254.76	25.69	-35.2	-36.4	29.0	3.02e+01	63	30	0	844627968	44	6377
2026-01-13 17:37:45.75	254.54	25.54	-35.1	-36.3	29.2	3.02e+01	57	30	0	846725120	44	6294
2026-01-13 17:37:46.76	254.32	25.40	-34.9	-36.1	29.2	3.02e+01	59	30	0	848822272	44	6203
2026-01-13 17:37:47.77	254.11	25.25	-35.1	-36.3	29.2	3.02e+01	46	30	0	850395136	44	6327
2026-01-13 17:37:48.78	253.90	25.10	-35.3	-36.5	29.0	3.02e+01	60	30	0	852492288	44	6471
2026-01-13 17:37:49.79	253.69	24.95	-35.3	-36.6	28.9	3.02e+01	62	30	0	854065152	44	6512
2026-01-13 17:37:50.79	253.48	24.81	-35.3	-36.5	28.9	3.02e+01	55	30	0	856162304	44	6456
2026-01-13 17:37:51.80	253.27	24.66	-35.2	-36.4	29.0	3.02e+01	62	30	0	858259456	44	6372
2026-01-13 17:37:52.81	253.07	24.52	-34.9	-36.1	29.2	3.02e+01	61	30	0	859832320	44	6179
2026-01-13 17:37:53.82	252.86	24.37	-35.0	-36.2	29.2	3.02e+01	58	30	0	861929472	44	6243
2026-01-13 17:37:54.83	252.66	24.23	-35.2	-36.5	29.0	3.02e+01	62	30	0	863502336	44	6432
2026-01-13 17:37:55.84	252.46	24.09	-35.4	-36.7	28.8	3.02e+01	50	30	0	865599488	44	6597
2026-01-13 17:37:56.85	252.27	23.94	-35.4	-36.6	28.8	3.02e+01	59	30	0	867696640	44	6538
2026-01-13 17:37:57.86	252.07	23.80	-35.4	-36.6	28.8	3.02e+01	56	30	0	869269504	44	6545
2026-01-13 17:37:58.87	251.88	23.66	-35.4	-36.6	28.8	3.02e+01	54	30	0	871366656	44	6550
2026-01-13 17:37:59.88	251.69	23.51	-35.2	-36.4	29.0	3.02e+01	57	30	0	872939520	44	6391
2026-01-13 17:38:00.89	251.50	23.37	-35.0	-36.2	29.2	3.02e+01	45	30	0	875036672	44	6236
2026-01-13 17:38:01.90	251.31	23.23	-35.0	-36.2	29.1	3.02e+01	59	30	0	877133824	44	6247
2026-01-13 17:38:02.91	251.12	23.09	-35.1	-36.3	29.2	3.02e+01	57	30	0	878706688	44	6294
2026-01-13 17:38:03.92	250.94	22.95	-35.0	-36.2	29.1	3.02e+01	50	30	0	880803840	44	6252
2026-01-13 17:38:04.93	250.76	22.81	-35.2	-36.4	29.0	3.02e+01	57	30	0	882376704	44	6417
2026-01-13 17:38:05.94	250.57	22.67	-35.2	-36.4	29.0	3.02e+01	59	30	0	884473856	44	6375
2026-01-13 17:38:06.95	250.40	22.54	-35.3	-36.5	28.8	3.02e+01	62	30	0	886571008	44	6494
2026-01-13 17:38:07.96	250.22	22.40	-35.2	-36.4	29.0	3.02e+01	59	30	0	888143872	44	6383
2026-01-13 17:38:08.96	250.04	22.26	-35.4	-36.6	28.9	3.02e+01	58	30	0	890241024	44	6569
2026-01-13 17:38:09.98	249.87	22.12	-35.2	-36.4	28.9	3.02e+01	59	30	0	891813888	44	6398
2026-01-13 17:38:10.99	249.69	21.99	-35.1	-36.4	29.0	3.02e+01	59	30	0	893911040	44	6358
2026-01-13 17:38:12.00	249.52	21.85	-35.1	-36.3	29.1	3.02e+01	45	30	0	896008192	44	6328
2026-01-13 17:38:13.00	249.36	21.72	-35.2	-36.4	29.0	3.02e+01	60	30	0	897581056	44	6402
2026-01-13 17:38:14.01	249.19	21.58	-35.3	-36.5	28.8	3.02e+01	59	30	0	899678208	44	6462
2026-01-13 17:38:15.02	249.02	21.45	-34.9	-36.1	29.2	3.02e+01	58	30	0	901775360	44	6172
2026-01-13 17:38:16.03	248.86	21.32	-34.8	-36.0	29.2	3.02e+01	61	30	0	903348224	44	6130
2026-01-13 17:38:17.04	248.69	21.18	-34.8	-36.0	29.4	3.02e+01	53	30	0	905445376	44	6102
2026-01-13 17:38:18.04	248.53	21.05	-34.8	-36.0	29.3	3.02e+01	57	30	0	907018240	44	6121
2026-01-13 17:38:19.05	248.37	20.92	-35.1	-36.3	29.0	3.02e+01	61	30	0	909115392	44	6297
2026-01-13 17:38:20.07	248.21	20.79	-35.2	-36.5	28.9	3.02e+01	50	30	0	911212544	44	6430
2026-01-13 17:38:21.08	248.06	20.66	-35.2	-36.4	28.9	3.02e+01	59	30	0	912785408	44	6379
2026-01-13 17:38:22.08	247.90	20.53	-35.3	-36.5	28.9	3.02e+01	62	30	0	914882560	44	6457
2026-01-13 17:38:23.09	247.75	20.40	-35.0	-36.2	29.1	3.02e+01	61	30	0	916979712	44	6275
2026-01-13 17:38:24.10	247.59	20.27	-35.0	-36.2	29.1	3.02e+01	62	30	0	918552576	44	6259
2026-01-13 17:38:25.11	247.44	20.14	-35.1	-36.4	29.0	3.02e+01	60	30	0	920649728	44	6361
2026-01-13 17:38:26.12	247.29	20.01	-35.3	-36.5	28.9	3.02e+01	61	30	0	922222592	44	6460
2026-01-13 17:38:27.13	247.14	19.88	-34.9	-36.1	29.1	3.02e+01	59	30	0	924319744	44	6201
2026-01-13 17:38:28.13	246.99	19.76	-34.8	-36.0	29.2	3.02e+01	44	30	0	925892608	44	6102
2026-01-13 17:38:29.15	246.85	19.63	-34.8	-35.9	29.3	3.02e+01	57	30	0	927989760	44	6058
2026-01-13 17:38:30.15	246.70	19.50	-34.7	-35.9	29.4	3.02e+01	50	30	0	930086912	44	6006
2026-01-13 17:38:31.16	246.56	19.38	-34.8	-36.0	29.2	3.02e+01	60	30	0	931659776	44	6069
2026-01-13 17:38:32.17	246.42	19.25	-34.9	-36.1	29.1	3.02e+01	61	30	0	933756928	44	6178
2026-01-13 17:38:33.18	246.27	19.13	-35.0	-36.2	29.0	3.02e+01	52	30	0	935329792	44	6272
2026-01-13 17:38:34.19	246.13	19.00	-35.0	-36.2	29.0	3.02e+01	60	30	0	937426944	44	6272
2026-01-13 17:38:35.20	246.00	18.88	-35.0	-36.3	29.0	3.02e+01	62	30	0	939524096	44	6287
2026-01-13 17:38:36.21	245.86	18.76	-35.0	-36.2	29.0	3.02e+01	51	30	0	941096960	44	6232
2026-01-13 17:38:37.22	245.72	18.63	-35.1	-36.3	28.9	3.02e+01	60	30	0	943194112	44	6320
2026-01-13 17:38:38.23	245.59	18.51	-35.0	-36.2	29.1	3.02e+01	51	30	0	945291264	44	6255
2026-01-13 17:38:39.24	245.45	18.39	-34.9	-36.1	29.1	3.02e+01	52	30	0	946864128	44	6192
2026-01-13 17:38:40.24	245.32	18.27	-35.0	-36.2	29.2	3.02e+01	59	30	0	948961280	44	6219
2026-01-13 17:38:41.25	245.19	18.15	-35.1	-36.3	28.9	3.02e+01	45	30	0	950534144	44	6320
2026-01-13 17:38:42.26	245.06	18.03	-35.0	-36.3	29.0	3.02e+01	58	30	0	952631296	44	6292
2026-01-13 17:38:43.27	244.93	17.91	-35.1	-36.3	29.0	3.02e+01	60	30	0	954728448	44	6325
2026-01-13 17:38:44.28	244.80	17.79	-35.0	-36.2	29.0	3.02e+01	60	30	0	956301312	44	6265
2026-01-13 17:38:45.29	244.67	17.67	-34.9	-36.1	29.1	3.02e+01	56	30	0	958398464	44	6139
2026-01-13 17:38:46.30	244.54	17.55	-35.0	-36.2	29.1	3.02e+01	48	30	0	959971328	44	6228
2026-01-13 17:38:47.31	244.42	17.43	-34.9	-36.1	29.2	3.02e+01	60	30	0	962068480	44	6178
2026-01-13 17:38:48.32	244.29	17.32	-35.0	-36.2	29.1	3.02e+01	58	30	0	964165632	44	6230
2026-01-13 17:38:49.33	244.17	17.20	-35.1	-36.4	29.0	3.02e+01	51	30	0	965738496	44	6352
2026-01-13 17:38:50.34	244.05	17.08	-35.3	-36.5	28.9	3.02e+01	57	30	0	967835648	44	6464
2026-01-13 17:38:51.35	243.93	16.97	-35.2	-36.4	28.9	3.02e+01	57	30	0	969932800	44	6399
2026-01-13 17:38:52.36	243.81	16.85	-35.1	-36.4	28.8	3.02e+01	59	30	0	971505664	44	6362
2026-01-13 17:38:53.37	243.69	16.74	-35.0	-36.2	29.0	3.02e+01	61	30	0	973602816	44	6251
2026-01-13 17:38:54.38	243.57	16.62	-34.9	-36.1	29.1	3.02e+01	54	30	0	975175680	44	6146
2026-01-13 17:38:55.38	243.45	16.51	-34.9	-36.1	29.1	3.02e+01	59	30	0	977272832	44	6167
2026-01-13 17:38:56.39	243.34	16.40	-34.7	-35.9	29.3	3.02e+01	58	30	0	979369984	44	6050
2026-01-13 17:38:57.40	243.22	16.28	-34.8	-36.0	29.2	3.02e+01	49	30	0	980942848	44	6132
2026-01-13 17:38:58.41	243.11	16.17	-35.0	-36.2	29.1	3.02e+01	62	30	0	983040000	44	6225
2026-01-13 17:38:59.42	242.99	16.06	-35.2	-36.4	28.9	3.02e+01	57	30	0	984612864	44	6379
2026-01-13 17:39:00.43	242.88	15.95	-35.2	-36.5	28.8	3.02e+01	60	30	0	986710016	44	6445
2026-01-13 17:39:01.44	242.77	15.84	-35.2	-36.5	28.8	3.02e+01	60	30	0	988807168	44	6451
2026-01-13 17:39:02.45	242.66	15.73	-35.2	-36.5	28.8	3.02e+01	50	30	0	990380032	44	6428
2026-01-13 17:39:03.46	242.55	15.62	-35.0	-36.2	29.0	3.02e+01	59	30	0	992477184	44	6237
2026-01-13 17:39:04.47	242.44	15.51	-35.0	-36.2	29.0	3.02e+01	60	30	0	994050048	44	6271
2026-01-13 17:39:05.48	242.33	15.40	-34.8	-36.0	29.2	3.02e+01	47	30	0	996147200	44	6092
2026-01-13 17:39:06.49	242.22	15.29	-35.0	-36.2	29.0	3.02e+01	60	30	0	998244352	44	6237
2026-01-13 17:39:07.50	242.12	15.18	-35.0	-36.3	29.0	3.02e+01	61	30	0	999817216	44	6292
2026-01-13 17:39:08.51	242.01	15.07	-35.1	-36.3	28.9	3.02e+01	60	30	0	1001914368	44	6327
2026-01-13 17:39:09.52	241.91	14.96	-35.2	-36.4	28.8	3.02e+01	56	30	0	1003487232	44	6384
2026-01-13 17:39:10.52	241.80	14.86	-35.3	-36.5	28.7	3.02e+01	46	30	0	1005584384	44	6474
2026-01-13 17:39:11.53	241.70	14.75	-35.4	-36.7	28.5	3.02e+01	60	30	0	1007681536	44	6602
2026-01-13 17:39:12.54	241.60	14.64	-35.5	-36.8	28.4	3.02e+01	63	30	0	1009254400	44	6683
2026-01-13 17:39:13.55	241.50	14.54	-35.6	-36.8	28.4	3.02e+01	60	30	0	1011351552	44	6701
2026-01-13 17:39:14.56	241.40	14.43	-35.4	-36.7	28.4	3.02e+01	64	30	0	1013448704	44	6605
2026-01-13 17:39:15.57	241.30	14.33	-35.5	-36.8	28.4	3.02e+01	46	30	0	1015021568	44	6658
2026-01-13 17:39:16.58	241.20	14.22	-35.5	-36.8	28.4	3.02e+01	65	30	0	1017118720	44	6688
2026-01-13 17:39:17.59	241.10	14.12	-35.6	-36.9	28.2	3.02e+01	56	30	0	1018691584	44	6736
2026-01-13 17:39:18.60	241.00	14.01	-35.5	-36.8	28.3	3.02e+01	49	30	0	1020788736	44	6673
2026-01-13 17:39:19.61	240.90	13.91	-35.5	-36.8	28.3	3.02e+01	64	30	0	1022885888	44	6684
2026-01-13 17:39:20.62	240.81	13.81	-35.6	-36.8	28.3	3.02e+01	60	30	0	1024458752	44	6699
2026-01-13 17:39:21.62	240.71	13.71	-35.7	-36.9	28.2	3.02e+01	58	30	0	1026555904	44	6783
2026-01-13 17:39:22.63	240.62	13.60	-35.7	-37.0	28.2	3.02e+01	59	30	0	1028128768	44	6826
2026-01-13 17:39:23.64	240.52	13.50	-35.7	-37.0	28.2	3.02e+01	52	30	0	1030225920	44	6814
2026-01-13 17:39:24.65	240.43	13.40	-35.9	-37.1	28.0	3.02e+01	58	30	0	1032323072	44	6954
2026-01-13 17:39:25.66	240.34	13.30	-35.9	-37.2	28.0	3.02e+01	60	30	0	1033895936	46	6226
2026-01-13 17:39:26.67	240.25	13.20	-36.1	-37.4	27.8	3.02e+01	44	30	0	1035993088	46	6367
2026-01-13 17:39:27.68	240.16	13.10	-36.2	-37.5	27.7	3.02e+01	58	30	0	1037565952	46	6488
2026-01-13 17:39:28.69	240.06	13.00	-36.6	-37.9	27.3	3.02e+01	58	30	0	1039663104	46	6787
2026-01-13 17:39:29.70	239.97	12.90	-36.5	-37.8	27.4	3.02e+01	60	30	0	1041760256	46	6689
2026-01-13 17:39:30.71	239.89	12.80	-36.7	-38.1	27.2	3.02e+01	56	29	0	1043333120	46	6889
2026-01-13 17:39:31.72	239.80	12.70	-36.7	-38.1	27.1	3.02e+01	46	29	0	1045430272	46	6899
2026-01-13 17:39:32.73	239.71	12.60	-36.6	-38.0	27.2	3.02e+01	58	30	0	1047003136	46	6809
2026-01-13 17:39:33.74	239.62	12.50	-36.7	-38.0	27.2	3.02e+01	59	30	0	1049100288	46	6883
2026-01-13 17:39:34.75	239.54	12.41	-36.7	-38.0	27.1	3.02e+01	45	30	0	1051197440	46	6871
2026-01-13 17:39:35.76	239.45	12.31	-36.7	-38.1	27.1	3.02e+01	60	30	0	1052770304	46	6884
2026-01-13 17:39:36.77	239.36	12.21	-36.8	-38.2	27.0	3.02e+01	60	30	0	1054867456	46	6996
2026-01-13 17:39:37.78	239.28	12.12	-37.0	-38.3	26.8	3.02e+01	57	29	0	1056440320	48	6335
2026-01-13 17:39:38.79	239.19	12.02	-37.0	-38.4	26.7	3.02e+01	58	30	0	1058537472	48	6356
2026-01-13 17:39:39.80	239.11	11.92	-37.3	-38.7	26.4	3.02e+01	57	30	0	1060634624	48	6595
2026-01-13 17:39:40.81	239.03	11.83	-37.3	-38.8	26.3	3.02e+01	62	30	0	1062207488	48	6690
2026-01-13 17:39:41.81	238.95	11.73	-37.5	-39.0	26.1	3.02e+01	57	29	0	1064304640	48	6851
2026-01-13 17:39:42.82	238.87	11.64	-37.7	-39.2	26.0	3.02e+01	45	29	0	1066401792	48	6968
2026-01-13 17:39:43.83	238.78	11.54	-37.9	-39.4	25.8	3.02e+01	62	29	0	1067974656	48	7161
2026-01-13 17:39:44.84	238.70	11.45	-38.0	-39.5	25.6	3.02e+01	62	29	0	1070071808	50	6458
2026-01-13 17:39:45.85	238.62	11.36	-38.3	-39.8	25.4	3.02e+01	60	30	0	1071644672	50	6681
2026-01-13 17:39:46.86	238.54	11.26	-38.2	-39.8	25.4	3.02e+01	58	29	0	1073741824	50	6690
2026-01-13 17:39:47.87	238.47	11.17	-38.2	-39.7	25.5	3.02e+01	49	29	0	1075838976	50	6634
2026-01-13 17:39:48.88	238.39	11.08	-38.4	-39.9	25.3	3.02e+01	59	29	0	1077411840	50	6762
2026-01-13 17:39:49.89	238.31	10.99	-38.4	-40.0	25.2	3.02e+01	59	29	0	1079508992	50	6838
2026-01-13 17:39:50.90	238.23	10.89	-38.5	-40.0	25.2	3.02e+01	58	29	0	1081081856	50	6873
2026-01-13 17:39:51.91	238.16	10.80	-38.6	-40.2	25.0	3.02e+01	58	29	0	1083179008	50	6983
2026-01-13 17:39:52.92	238.08	10.71	-38.7	-40.2	25.0	3.02e+01	45	29	0	1085276160	50	7017
2026-01-13 17:39:53.93	238.00	10.62	-39.1	-40.6	24.6	3.02e+01	57	29	0	1086849024	52	6569
2026-01-13 17:39:54.94	237.93	10.53	-38.9	-40.5	24.8	3.02e+01	59	29	0	1088946176	52	6428
2026-01-13 17:39:55.95	237.85	10.44	-39.1	-40.7	24.6	3.02e+01	45	29	0	1091043328	52	6632
2026-01-13 17:39:56.96	237.78	10.35	-39.1	-40.7	24.6	3.02e+01	60	29	0	1092616192	52	6605
2026-01-13 17:39:57.97	237.71	10.26	-39.3	-40.9	24.4	3.02e+01	56	29	0	1094713344	52	6786
2026-01-13 17:39:58.98	237.63	10.17	-39.4	-41.2	24.1	3.02e+01	61	29	0	1096286208	52	6977
2026-01-13 17:39:59.99	237.56	10.08	-39.7	-41.4	23.9	3.02e+01	55	29	0	1098383360	52	7165
2026-01-13 17:40:00.99	237.49	9.99	-39.8	-41.5	23.7	3.02e+01	56	29	0	1100480512	52	7278
2026-01-13 17:40:01.99	237.42	9.90	-40.0	-41.8	23.5	3.02e+01	59	29	0	1102053376	54	6660
2026-01-13 17:40:03.00	237.35	9.82	-40.2	-42.0	23.3	3.02e+01	60	30	0	1104150528	54	6814
2026-01-13 17:40:04.01	237.28	9.73	-40.2	-42.0	23.2	3.02e+01	51	29	0	1105723392	54	6882
2026-01-13 17:40:05.02	237.21	9.64	-40.4	-42.3	22.9	3.02e+01	61	29	0	1107820544	54	7096
2026-01-13 17:40:06.03	237.14	9.55	-40.6	-42.5	22.8	3.02e+01	59	29	0	1109393408	54	7220
2026-01-13 17:40:07.04	237.07	9.47	-40.7	-42.7	22.6	3.02e+01	60	29	0	1111490560	54	7381
2026-01-13 17:40:08.05	237.00	9.38	-41.0	-43.0	22.4	3.02e+01	59	29	0	1113587712	56	6822
2026-01-13 17:40:09.06	236.93	9.29	-40.9	-42.8	22.5	3.02e+01	58	29	0	1115160576	56	6691
2026-01-13 17:40:10.07	236.86	9.21	-41.0	-43.0	22.3	3.02e+01	59	29	0	1117257728	56	6846
2026-01-13 17:40:11.08	236.80	9.12	-41.2	-43.3	22.0	3.02e+01	57	29	0	1119354880	56	7052
2026-01-13 17:40:12.08	236.73	9.04	-41.4	-43.5	21.8	3.02e+01	46	29	0	1120927744	56	7231
2026-01-13 17:40:13.09	236.66	8.95	-41.5	-43.7	21.6	3.02e+01	58	29	0	1123024896	56	7396
2026-01-13 17:40:14.10	236.60	8.87	-41.7	-43.9	21.4	3.02e+01	62	30	0	1124597760	56	7579
2026-01-13 17:40:15.11	236.53	8.78	-41.7	-44.0	21.2	3.02e+01	60	29	0	1126694912	56	7719
2026-01-13 17:40:16.12	236.47	8.70	-41.8	-44.2	21.1	3.02e+01	60	29	0	1128792064	56	7867
2026-01-13 17:40:17.13	236.40	8.61	-41.9	-44.4	20.8	3.02e+01	45	29	0	1130364928	58	7165
2026-01-13 17:40:18.14	236.34	8.53	-42.2	-44.8	20.5	3.02e+01	58	29	0	1132462080	58	7480
2026-01-13 17:40:19.15	236.27	8.45	-42.3	-44.9	20.2	3.02e+01	61	29	0	1134559232	58	7603
2026-01-13 17:40:20.16	236.21	8.36	-42.5	-45.1	20.1	3.02e+01	45	29	0	1136132096	58	7746
2026-01-13 17:40:21.17	236.15	8.28	-42.7	-45.4	19.8	3.02e+01	55	29	0	1138229248	58	7998
2026-01-13 17:40:22.18	236.08	8.20	-42.8	-45.5	19.6	3.02e+01	52	29	0	1139802112	58	8178
2026-01-13 17:40:23.19	236.02	8.12	-42.9	-45.7	19.4	3.02e+01	59	29	0	1141899264	58	8318
2026-01-13 17:40:24.20	235.96	8.03	-43.1	-46.1	19.1	3.02e+01	57	29	0	1143996416	60	7789
2026-01-13 17:40:25.21	235.90	7.95	-43.1	-46.2	19.0	3.02e+01	47	29	0	1145569280	60	7885
2026-01-13 17:40:26.22	235.84	7.87	-43.2	-46.4	18.8	3.02e+01	61	29	0	1147666432	60	8006
2026-01-13 17:40:27.23	235.78	7.79	-43.4	-46.7	18.5	3.02e+01	58	29	0	1149239296	60	8309
2026-01-13 17:40:28.23	235.72	7.71	-43.5	-46.8	18.4	3.02e+01	58	29	0	1151336448	60	8399
2026-01-13 17:40:29.24	235.66	7.63	-43.6	-47.0	18.2	3.02e+01	59	29	0	1153433600	60	8580
2026-01-13 17:40:30.25	235.60	7.55	-43.9	-47.4	17.8	3.02e+01	44	29	0	1155006464	60	9025
