passes_logs/2026/01/13/R4.6S_Anadyr/R4.6S_Anadyr__20260113_145230_NOAA_21_JPSS-2_rec.log

#Pass ID: 20260113_145230_NOAA 21 (JPSS-2)
#Satellite: NOAA 21 (JPSS-2)
#Configuration: NOAA-21
#almurnet v.1.7.20251203
#Start time: 2026-01-13 14:52:31

#Version: 2.2.20231116
#Station: R4.6S_Anadyr
#Location: 177.4865 lon 64.73178 lat
#TLE: 1 54234U 22150A   26012.26378519  .00000063  00000+0  50547-4 0  9993
#TLE: 2 54234  98.7495 313.1967 0000726 309.1075  51.0036 14.19534275164425

#Time	Az	El	Level	Level2	SNR	BER	BlckErr	Temp	State	Recorded	gain1	gain2
2026-01-13 14:52:31.73	20.81	0.08	-48.5	-63.4	3.5	1.51e+00	0	24	0	0	60	53286
2026-01-13 14:52:32.74	20.81	0.14	-48.8	-61.6	3.5	1.52e+00	0	26	104	0	60	42331
2026-01-13 14:52:33.75	20.81	0.20	-48.6	-61.4	3.5	1.52e+00	0	26	104	0	60	41468
2026-01-13 14:52:34.76	20.81	0.26	-48.6	-61.5	3.5	1.52e+00	0	26	104	0	60	41574
2026-01-13 14:52:35.77	20.81	0.32	-48.6	-61.5	3.5	1.52e+00	0	26	104	0	60	41543
2026-01-13 14:52:36.78	20.81	0.38	-48.7	-61.6	3.5	1.52e+00	0	26	104	0	60	42053
2026-01-13 14:52:37.79	20.81	0.45	-48.7	-61.5	3.5	1.52e+00	0	26	104	0	60	41797
2026-01-13 14:52:38.80	20.81	0.51	-48.6	-61.4	3.5	1.52e+00	0	26	104	0	60	41360
2026-01-13 14:52:39.81	20.81	0.57	-48.5	-61.4	3.5	1.51e+00	0	26	104	0	60	41176
2026-01-13 14:52:40.82	20.81	0.63	-48.4	-61.3	3.5	1.52e+00	0	26	104	0	60	40579
2026-01-13 14:52:41.83	20.81	0.69	-48.2	-61.1	3.5	1.52e+00	0	26	104	0	60	39863
2026-01-13 14:52:42.84	20.81	0.75	-48.1	-60.9	3.5	1.52e+00	0	26	104	0	60	39069
2026-01-13 14:52:43.85	20.81	0.81	-47.9	-60.7	3.5	1.52e+00	0	26	104	0	60	38198
2026-01-13 14:52:44.86	20.81	0.88	-47.7	-60.6	3.5	1.51e+00	0	26	104	0	60	37529
2026-01-13 14:52:45.87	20.81	0.94	-47.4	-60.3	3.5	1.52e+00	0	26	104	0	60	36452
2026-01-13 14:52:46.88	20.81	1.00	-47.1	-59.8	3.5	1.52e+00	0	26	104	0	60	34474
2026-01-13 14:52:47.89	20.81	1.06	-47.1	-59.9	3.5	1.52e+00	0	26	104	0	60	34682
2026-01-13 14:52:48.90	20.81	1.12	-47.0	-59.8	3.5	1.52e+00	0	26	104	0	60	34495
2026-01-13 14:52:49.91	20.81	1.19	-47.0	-59.9	3.5	1.51e+00	0	26	104	0	60	34591
2026-01-13 14:52:50.92	20.81	1.25	-47.0	-59.8	3.5	1.52e+00	0	26	104	0	60	34428
2026-01-13 14:52:51.93	20.81	1.31	-47.0	-59.7	3.5	1.51e+00	0	26	104	0	60	33730
2026-01-13 14:52:52.94	20.81	1.38	-47.0	-59.6	3.5	1.52e+00	0	26	104	0	60	33590
2026-01-13 14:52:53.95	20.81	1.44	-47.0	-59.5	3.5	1.52e+00	0	26	104	0	60	33188
2026-01-13 14:52:54.96	20.81	1.50	-47.0	-59.5	3.5	1.52e+00	0	26	104	0	60	32971
2026-01-13 14:52:55.97	20.81	1.57	-47.0	-59.4	3.5	1.52e+00	0	27	104	0	60	32842
2026-01-13 14:52:56.98	20.81	1.63	-47.0	-59.6	3.5	1.52e+00	0	26	104	0	60	33454
2026-01-13 14:52:57.99	20.81	1.69	-47.0	-59.6	3.5	1.52e+00	0	26	104	0	60	33418
2026-01-13 14:52:59.00	20.81	1.76	-47.0	-59.7	3.5	1.52e+00	0	27	104	0	60	33867
2026-01-13 14:53:00.00	20.81	1.82	-47.0	-59.7	3.5	1.52e+00	0	27	104	0	60	34059
2026-01-13 14:53:01.01	20.81	1.88	-47.0	-59.8	3.5	1.52e+00	0	27	104	0	60	34247
2026-01-13 14:53:02.02	20.81	1.95	-47.0	-59.8	3.5	1.52e+00	0	27	104	0	60	34216
2026-01-13 14:53:03.03	20.81	2.01	-47.0	-59.8	3.5	1.52e+00	0	27	104	0	60	34228
2026-01-13 14:53:04.03	20.81	2.08	-47.0	-59.8	3.5	1.52e+00	0	27	104	0	60	34142
2026-01-13 14:53:05.04	20.81	2.14	-47.0	-59.7	3.5	1.51e+00	0	27	104	0	60	33826
2026-01-13 14:53:06.05	20.81	2.21	-46.9	-59.5	3.5	1.52e+00	0	27	104	0	60	33049
2026-01-13 14:53:07.06	20.80	2.27	-46.9	-59.3	3.5	1.52e+00	0	27	104	0	60	32359
2026-01-13 14:53:08.07	20.80	2.34	-46.9	-59.0	3.5	1.52e+00	0	27	104	0	60	31335
2026-01-13 14:53:09.08	20.80	2.40	-46.9	-58.5	3.5	1.52e+00	0	27	104	0	60	29552
2026-01-13 14:53:10.09	20.80	2.47	-46.8	-57.8	3.5	1.51e+00	0	27	104	0	60	27225
2026-01-13 14:53:11.10	20.80	2.53	-46.8	-57.6	3.8	1.50e+00	0	27	104	0	60	26641
2026-01-13 14:53:12.11	20.80	2.60	-46.7	-57.2	3.6	1.49e+00	0	27	104	0	60	25451
2026-01-13 14:53:13.12	20.80	2.66	-46.8	-57.4	3.7	1.55e+00	0	27	104	0	60	25911
2026-01-13 14:53:14.12	20.80	2.73	-46.7	-57.0	3.9	1.50e+00	0	27	104	0	60	24925
2026-01-13 14:53:15.14	20.80	2.80	-46.7	-56.9	4.0	1.48e+00	0	27	104	0	60	24628
2026-01-13 14:53:16.15	20.80	2.86	-46.5	-55.7	4.5	1.31e+00	41	27	104	0	60	21339
2026-01-13 14:53:17.16	20.80	2.93	-46.2	-53.2	5.8	5.27e-01	0	27	0	0	60	16042
2026-01-13 14:53:18.16	20.80	2.99	-45.3	-50.0	8.3	6.01e-02	0	27	0	3145728	60	11108
2026-01-13 14:53:19.17	20.80	3.06	-44.8	-48.8	9.9	1.17e-02	0	27	0	6291456	60	9680
2026-01-13 14:53:20.18	20.80	3.13	-43.7	-46.7	12.3	1.66e-03	0	27	0	9437184	60	7606
2026-01-13 14:53:21.19	20.79	3.19	-43.3	-46.2	12.9	1.09e-04	0	27	0	12582912	60	7127
2026-01-13 14:53:22.20	20.79	3.26	-42.9	-45.5	13.6	1.14e-05	0	27	0	15728640	60	6619
2026-01-13 14:53:23.21	20.79	3.33	-41.9	-44.0	14.8	0.00e+00	0	27	0	18874368	58	6262
2026-01-13 14:53:24.22	20.79	3.40	-41.8	-43.9	15.1	0.00e+00	0	27	0	22020096	56	6948
2026-01-13 14:53:25.23	20.79	3.46	-41.9	-44.0	15.0	0.00e+00	0	27	0	25165824	56	7029
2026-01-13 14:53:26.24	20.79	3.53	-41.7	-43.7	15.3	0.00e+00	0	27	0	28311552	56	6758
2026-01-13 14:53:27.25	20.79	3.60	-42.0	-44.1	14.9	0.00e+00	0	27	0	31457280	56	7078
2026-01-13 14:53:28.26	20.79	3.67	-42.3	-44.6	14.3	1.50e-06	0	27	0	34603008	56	7507
2026-01-13 14:53:29.27	20.79	3.74	-43.2	-45.9	13.0	2.05e-05	0	27	0	37748736	58	7785
2026-01-13 14:53:30.28	20.79	3.81	-38.2	-39.5	19.4	0.00e+00	0	27	0	40894464	50	5917
2026-01-13 14:53:31.29	20.78	3.87	-44.4	-47.8	11.2	4.94e-04	0	27	0	44040192	60	8654
2026-01-13 14:53:32.30	20.78	3.94	-46.8	-59.0	3.5	1.51e+00	0	27	104	46137344	60	31378
2026-01-13 14:53:33.31	20.78	4.01	-39.0	-40.7	17.8	3.30e-01	0	27	104	46137344	52	6031
2026-01-13 14:53:34.32	20.78	4.08	-47.0	-58.4	3.5	1.14e+00	0	27	104	46137344	60	29260
2026-01-13 14:53:35.32	20.78	4.15	-39.0	-40.7	17.8	1.40e+00	0	27	104	46137344	52	6028
2026-01-13 14:53:36.33	20.78	4.22	-37.7	-38.9	20.0	0.00e+00	0	27	0	47185920	50	5517
2026-01-13 14:53:37.34	20.78	4.29	-37.4	-38.6	20.4	0.00e+00	0	27	0	50331648	48	5935
2026-01-13 14:53:38.35	20.78	4.36	-37.6	-38.8	20.2	0.00e+00	0	27	0	53477376	48	6069
2026-01-13 14:53:39.36	20.78	4.43	-37.5	-38.7	20.3	0.00e+00	0	27	0	56623104	48	6004
2026-01-13 14:53:40.37	20.77	4.50	-37.3	-38.5	20.5	0.00e+00	0	27	0	59768832	48	5881
2026-01-13 14:53:41.38	20.77	4.57	-37.4	-38.6	20.3	0.00e+00	0	27	0	62914560	48	5939
2026-01-13 14:53:42.39	20.77	4.64	-37.6	-38.8	20.3	0.00e+00	0	27	0	66060288	48	6082
2026-01-13 14:53:43.40	20.77	4.71	-37.6	-38.8	20.2	0.00e+00	0	27	0	69206016	48	6083
2026-01-13 14:53:44.41	20.77	4.78	-37.6	-38.8	20.2	0.00e+00	0	27	0	72351744	48	6125
2026-01-13 14:53:45.42	20.77	4.86	-37.4	-38.6	20.4	0.00e+00	0	27	0	75497472	48	5967
2026-01-13 14:53:46.43	20.76	4.93	-37.3	-38.4	20.6	0.00e+00	0	27	0	78643200	48	5835
2026-01-13 14:53:47.44	20.76	5.00	-37.3	-38.5	20.5	0.00e+00	0	27	0	81788928	48	5902
2026-01-13 14:53:48.45	20.76	5.07	-37.4	-38.5	20.5	0.00e+00	0	27	0	84934656	48	5923
2026-01-13 14:53:49.46	20.76	5.14	-37.0	-38.1	20.9	0.00e+00	0	27	0	88080384	48	5654
2026-01-13 14:53:50.47	20.76	5.22	-37.2	-38.4	20.7	0.00e+00	0	27	0	91226112	48	5809
2026-01-13 14:53:51.48	20.76	5.29	-37.1	-38.3	20.8	0.00e+00	0	27	0	94371840	48	5736
2026-01-13 14:53:52.48	20.76	5.36	-37.0	-38.1	20.9	0.00e+00	0	27	0	97517568	48	5657
2026-01-13 14:53:53.49	20.75	5.43	-37.4	-38.6	20.6	0.00e+00	0	27	0	100663296	48	5931
2026-01-13 14:53:54.50	20.75	5.51	-37.1	-38.3	20.8	0.00e+00	0	27	0	103809024	48	5748
2026-01-13 14:53:55.51	20.75	5.58	-36.8	-38.0	21.1	0.00e+00	0	27	0	106954752	48	5538
2026-01-13 14:53:56.52	20.75	5.65	-37.0	-38.1	21.0	0.00e+00	0	27	0	110100480	48	5626
2026-01-13 14:53:57.53	20.75	5.73	-37.0	-38.2	20.9	0.00e+00	0	27	0	113246208	48	5666
2026-01-13 14:53:58.54	20.74	5.80	-36.9	-38.0	21.1	0.00e+00	0	27	0	116391936	48	5536
2026-01-13 14:53:59.56	20.74	5.87	-37.1	-38.3	20.8	0.00e+00	0	27	0	119537664	48	5729
2026-01-13 14:54:00.56	20.74	5.95	-37.4	-38.6	20.6	0.00e+00	0	27	0	122683392	48	5939
2026-01-13 14:54:01.58	20.74	6.02	-37.4	-38.5	20.5	0.00e+00	0	27	0	125829120	48	5912
2026-01-13 14:54:02.58	20.74	6.10	-37.7	-38.9	20.5	0.00e+00	0	27	0	128974848	48	6199
2026-01-13 14:54:03.59	20.73	6.17	-37.2	-38.3	20.7	0.00e+00	0	27	0	132120576	48	5779
2026-01-13 14:54:04.60	20.73	6.25	-36.9	-38.0	21.1	0.00e+00	0	27	0	135266304	48	5572
2026-01-13 14:54:05.61	20.73	6.32	-37.0	-38.2	21.0	0.00e+00	0	27	0	138412032	48	5660
2026-01-13 14:54:06.62	20.73	6.40	-36.8	-38.0	21.2	0.00e+00	0	27	0	141557760	48	5537
2026-01-13 14:54:07.63	20.73	6.47	-36.8	-37.9	21.2	0.00e+00	0	27	0	144703488	48	5479
2026-01-13 14:54:08.64	20.72	6.55	-36.6	-37.7	21.4	0.00e+00	0	27	0	147849216	46	6020
2026-01-13 14:54:09.65	20.72	6.63	-36.7	-37.8	21.3	0.00e+00	0	27	0	150994944	46	6080
2026-01-13 14:54:10.66	20.72	6.70	-36.8	-37.9	21.3	0.00e+00	0	27	0	154140672	46	6163
2026-01-13 14:54:11.67	20.72	6.78	-36.8	-37.9	21.4	0.00e+00	0	27	0	157286400	46	6138
2026-01-13 14:54:12.68	20.71	6.86	-36.7	-37.8	21.3	0.00e+00	0	27	0	160432128	46	6119
2026-01-13 14:54:13.68	20.71	6.93	-36.9	-38.0	21.2	0.00e+00	0	27	0	163577856	46	6259
2026-01-13 14:54:14.69	20.71	7.01	-36.7	-37.8	21.3	0.00e+00	0	27	0	166723584	46	6117
2026-01-13 14:54:15.70	20.71	7.09	-36.7	-37.8	21.5	0.00e+00	0	27	0	169869312	46	6082
2026-01-13 14:54:16.71	20.70	7.17	-36.4	-37.4	21.7	0.00e+00	0	27	0	173015040	46	5852
2026-01-13 14:54:17.72	20.70	7.24	-36.7	-37.8	21.4	0.00e+00	0	27	0	176160768	46	6125
2026-01-13 14:54:18.73	20.70	7.32	-36.5	-37.6	21.6	0.00e+00	0	27	0	179306496	46	5943
2026-01-13 14:54:19.74	20.70	7.40	-36.4	-37.5	21.7	0.00e+00	0	27	0	182452224	46	5876
2026-01-13 14:54:20.75	20.69	7.48	-36.4	-37.5	21.7	0.00e+00	0	27	0	185597952	46	5866
2026-01-13 14:54:21.76	20.69	7.56	-36.4	-37.5	21.7	0.00e+00	0	27	0	188743680	46	5875
2026-01-13 14:54:22.77	20.69	7.64	-36.3	-37.4	21.8	0.00e+00	0	27	0	191889408	46	5817
2026-01-13 14:54:23.78	20.69	7.72	-36.3	-37.4	21.8	0.00e+00	0	27	0	195035136	46	5805
2026-01-13 14:54:24.79	20.68	7.80	-36.2	-37.3	21.9	0.00e+00	0	27	0	198180864	46	5737
2026-01-13 14:54:25.79	20.68	7.88	-36.4	-37.5	21.7	0.00e+00	0	27	0	201326592	46	5863
2026-01-13 14:54:26.80	20.68	7.96	-36.3	-37.3	21.9	0.00e+00	0	27	0	204472320	46	5758
2026-01-13 14:54:27.81	20.67	8.04	-36.2	-37.2	22.0	0.00e+00	0	27	0	207618048	46	5713
2026-01-13 14:54:28.82	20.67	8.12	-36.2	-37.3	21.9	0.00e+00	0	27	0	210763776	46	5755
2026-01-13 14:54:29.83	20.67	8.20	-36.3	-37.3	22.0	0.00e+00	0	27	0	213909504	46	5765
2026-01-13 14:54:30.85	20.66	8.28	-36.1	-37.1	22.1	0.00e+00	0	27	0	217055232	46	5615
2026-01-13 14:54:31.85	20.66	8.36	-36.3	-37.4	21.7	0.00e+00	0	27	0	220200960	46	5803
2026-01-13 14:54:32.86	20.66	8.45	-36.4	-37.5	21.9	0.00e+00	0	27	0	223346688	46	5875
2026-01-13 14:54:33.88	20.66	8.53	-36.3	-37.3	21.7	0.00e+00	0	27	0	226492416	46	5769
2026-01-13 14:54:34.88	20.65	8.61	-36.3	-37.4	22.0	0.00e+00	0	27	0	229638144	46	5809
2026-01-13 14:54:35.89	20.65	8.69	-36.3	-37.3	21.9	0.00e+00	0	27	0	232783872	46	5764
2026-01-13 14:54:36.90	20.65	8.78	-36.2	-37.2	22.1	0.00e+00	0	27	0	236978176	46	5722
2026-01-13 14:54:37.91	20.64	8.86	-36.0	-37.1	22.2	0.00e+00	0	27	0	240123904	46	5603
2026-01-13 14:54:38.92	20.64	8.94	-35.8	-36.9	22.3	0.00e+00	0	27	0	242221056	46	5477
2026-01-13 14:54:39.93	20.63	9.03	-35.9	-36.9	22.3	0.00e+00	0	27	0	245366784	46	5500
2026-01-13 14:54:40.94	20.63	9.11	-35.9	-37.0	22.3	0.00e+00	0	27	0	248512512	46	5534
2026-01-13 14:54:41.95	20.63	9.19	-35.9	-37.0	22.2	0.00e+00	0	27	0	252706816	46	5540
2026-01-13 14:54:42.96	20.62	9.28	-35.9	-36.9	22.3	0.00e+00	0	27	0	255852544	46	5482
2026-01-13 14:54:43.97	20.62	9.36	-35.8	-36.8	22.4	0.00e+00	0	27	0	258998272	46	5432
2026-01-13 14:54:44.98	20.62	9.45	-35.8	-36.8	22.4	0.00e+00	0	27	0	262144000	44	6108
2026-01-13 14:54:45.99	20.61	9.54	-35.8	-36.8	22.5	0.00e+00	0	27	0	265289728	44	6071
2026-01-13 14:54:47.00	20.61	9.62	-35.7	-36.7	22.5	0.00e+00	0	27	0	268435456	44	6022
2026-01-13 14:54:48.01	20.61	9.71	-35.8	-36.8	22.5	0.00e+00	0	27	0	271581184	44	6081
2026-01-13 14:54:49.02	20.60	9.79	-35.7	-36.7	22.5	0.00e+00	0	27	0	274726912	44	6013
2026-01-13 14:54:50.02	20.60	9.88	-35.7	-36.7	22.5	0.00e+00	0	27	0	277872640	44	6048
2026-01-13 14:54:51.03	20.59	9.97	-35.6	-36.6	22.6	0.00e+00	0	27	0	281018368	44	5977
2026-01-13 14:54:52.04	20.59	10.05	-35.5	-36.5	22.8	0.00e+00	0	27	0	284164096	44	5873
2026-01-13 14:54:53.06	20.59	10.14	-35.5	-36.5	22.6	0.00e+00	0	27	0	287309824	44	5923
2026-01-13 14:54:54.06	20.58	10.23	-35.5	-36.5	22.8	0.00e+00	0	27	0	290455552	44	5863
2026-01-13 14:54:55.07	20.58	10.32	-35.4	-36.4	22.8	0.00e+00	0	27	0	293601280	44	5810
2026-01-13 14:54:56.08	20.57	10.41	-35.5	-36.5	22.7	0.00e+00	0	27	0	296747008	44	5871
2026-01-13 14:54:57.09	20.57	10.50	-35.4	-36.4	22.8	0.00e+00	0	27	0	299892736	44	5805
2026-01-13 14:54:58.10	20.56	10.58	-35.4	-36.4	22.8	0.00e+00	0	27	0	303038464	44	5838
2026-01-13 14:54:59.11	20.56	10.67	-35.4	-36.4	22.8	0.00e+00	0	27	0	306184192	44	5808
2026-01-13 14:55:00.12	20.56	10.76	-35.2	-36.2	22.9	0.00e+00	0	27	0	309329920	44	5693
2026-01-13 14:55:01.13	20.55	10.85	-35.3	-36.3	22.9	0.00e+00	0	27	0	312475648	44	5749
2026-01-13 14:55:02.14	20.55	10.94	-35.2	-36.2	22.9	0.00e+00	0	27	0	315621376	44	5680
2026-01-13 14:55:03.15	20.54	11.04	-35.1	-36.1	23.0	0.00e+00	0	27	0	318767104	44	5639
2026-01-13 14:55:04.16	20.54	11.13	-35.2	-36.2	23.0	0.00e+00	0	27	0	321912832	44	5666
2026-01-13 14:55:05.17	20.53	11.22	-35.1	-36.1	23.0	0.00e+00	0	27	0	325058560	44	5628
2026-01-13 14:55:06.18	20.53	11.31	-35.1	-36.1	23.1	0.00e+00	0	27	0	328204288	44	5631
2026-01-13 14:55:07.18	20.52	11.40	-35.0	-35.9	23.2	0.00e+00	0	27	0	331350016	44	5505
2026-01-13 14:55:08.19	20.52	11.49	-35.0	-36.0	23.2	0.00e+00	0	27	0	334495744	44	5574
2026-01-13 14:55:09.20	20.51	11.59	-35.1	-36.1	23.0	0.00e+00	0	27	0	337641472	44	5629
2026-01-13 14:55:10.21	20.51	11.68	-35.0	-36.0	23.2	0.00e+00	0	27	0	340787200	44	5553
2026-01-13 14:55:11.22	20.50	11.77	-35.0	-36.0	23.2	0.00e+00	0	27	0	343932928	44	5566
2026-01-13 14:55:12.23	20.50	11.87	-35.0	-36.0	23.2	0.00e+00	0	27	0	347078656	44	5557
2026-01-13 14:55:13.24	20.49	11.96	-34.9	-35.9	23.3	0.00e+00	0	27	0	350224384	44	5494
2026-01-13 14:55:14.25	20.49	12.06	-34.9	-35.8	23.3	0.00e+00	0	27	0	353370112	44	5447
2026-01-13 14:55:15.26	20.48	12.15	-35.0	-35.9	23.2	0.00e+00	0	27	0	356515840	44	5525
2026-01-13 14:55:16.27	20.48	12.25	-34.9	-35.8	23.3	0.00e+00	0	27	0	359661568	44	5444
2026-01-13 14:55:17.28	20.47	12.34	-34.8	-35.8	23.4	0.00e+00	0	27	0	362807296	44	5409
2026-01-13 14:55:18.29	20.47	12.44	-34.8	-35.7	23.5	0.00e+00	0	27	0	365953024	42	6056
2026-01-13 14:55:19.30	20.46	12.54	-34.7	-35.7	23.5	0.00e+00	0	27	0	369098752	42	5995
2026-01-13 14:55:20.31	20.45	12.63	-34.9	-35.8	23.4	0.00e+00	0	27	0	372244480	42	6096
2026-01-13 14:55:21.32	20.45	12.73	-34.8	-35.8	23.5	0.00e+00	0	27	0	375390208	42	6070
2026-01-13 14:55:22.33	20.44	12.83	-34.8	-35.7	23.4	0.00e+00	0	27	0	378535936	42	6041
2026-01-13 14:55:23.34	20.44	12.93	-34.6	-35.5	23.7	0.00e+00	0	27	0	381681664	42	5892
2026-01-13 14:55:24.35	20.43	13.03	-34.7	-35.6	23.6	0.00e+00	0	27	0	384827392	42	5960
2026-01-13 14:55:25.36	20.43	13.12	-34.6	-35.5	23.7	0.00e+00	0	27	0	387973120	42	5918
2026-01-13 14:55:26.37	20.42	13.22	-34.6	-35.6	23.6	0.00e+00	0	27	0	391118848	42	5938
2026-01-13 14:55:27.38	20.41	13.32	-34.6	-35.5	23.6	0.00e+00	0	27	0	394264576	42	5924
2026-01-13 14:55:28.38	20.41	13.42	-34.4	-35.3	23.8	0.00e+00	0	27	0	397410304	42	5788
2026-01-13 14:55:29.39	20.40	13.52	-34.4	-35.3	23.9	0.00e+00	0	27	0	400556032	42	5747
2026-01-13 14:55:30.40	20.39	13.62	-34.4	-35.4	23.7	0.00e+00	0	27	0	403701760	42	5806
2026-01-13 14:55:31.41	20.39	13.73	-34.4	-35.3	23.8	0.00e+00	0	27	0	406847488	42	5773
2026-01-13 14:55:32.42	20.38	13.83	-34.5	-35.4	23.7	0.00e+00	0	27	0	409993216	42	5829
2026-01-13 14:55:33.43	20.37	13.93	-34.4	-35.4	23.8	0.00e+00	0	27	0	413138944	42	5792
2026-01-13 14:55:34.44	20.37	14.03	-34.4	-35.3	23.8	0.00e+00	0	27	0	416284672	42	5786
2026-01-13 14:55:35.45	20.36	14.14	-34.5	-35.4	23.8	0.00e+00	0	27	0	419430400	42	5818
2026-01-13 14:55:36.46	20.35	14.24	-34.4	-35.4	23.8	0.00e+00	0	27	0	422576128	42	5809
2026-01-13 14:55:37.47	20.35	14.34	-34.3	-35.3	23.9	0.00e+00	0	27	0	425721856	42	5738
2026-01-13 14:55:38.48	20.34	14.45	-34.4	-35.3	23.8	0.00e+00	0	27	0	428867584	42	5781
2026-01-13 14:55:39.49	20.33	14.55	-34.4	-35.4	23.8	0.00e+00	0	27	0	432013312	42	5803
2026-01-13 14:55:40.50	20.33	14.66	-34.3	-35.2	23.9	0.00e+00	0	27	0	435159040	42	5701
2026-01-13 14:55:41.51	20.32	14.76	-34.3	-35.2	23.9	0.00e+00	0	27	0	438304768	42	5707
2026-01-13 14:55:42.52	20.31	14.87	-34.3	-35.2	23.9	0.00e+00	0	27	0	441450496	42	5708
2026-01-13 14:55:43.53	20.31	14.98	-34.2	-35.2	24.0	0.00e+00	0	28	0	444596224	42	5664
2026-01-13 14:55:44.54	20.30	15.08	-34.3	-35.2	24.0	0.00e+00	0	27	0	447741952	42	5676
2026-01-13 14:55:45.54	20.29	15.19	-34.4	-35.3	23.8	0.00e+00	0	27	0	450887680	42	5761
2026-01-13 14:55:46.55	20.28	15.30	-34.2	-35.2	24.0	0.00e+00	0	27	0	454033408	42	5663
2026-01-13 14:55:47.56	20.28	15.41	-34.3	-35.2	24.0	0.00e+00	0	27	0	457179136	42	5686
2026-01-13 14:55:48.58	20.27	15.52	-34.3	-35.2	23.9	0.00e+00	0	27	0	460324864	42	5706
2026-01-13 14:55:49.58	20.26	15.63	-34.2	-35.2	24.0	0.00e+00	0	27	0	463470592	42	5666
2026-01-13 14:55:50.59	20.25	15.74	-34.2	-35.1	24.0	0.00e+00	0	27	0	466616320	42	5627
2026-01-13 14:55:51.60	20.24	15.85	-34.3	-35.2	24.1	0.00e+00	0	27	0	469762048	42	5678
2026-01-13 14:55:52.61	20.24	15.96	-34.3	-35.2	24.0	0.00e+00	0	27	0	472907776	42	5668
2026-01-13 14:55:53.62	20.23	16.07	-34.3	-35.2	24.0	0.00e+00	0	27	0	476053504	42	5715
2026-01-13 14:55:54.63	20.22	16.18	-34.3	-35.2	24.0	0.00e+00	0	27	0	479199232	42	5675
2026-01-13 14:55:55.64	20.21	16.30	-34.3	-35.2	23.9	0.00e+00	0	27	0	482344960	42	5724
2026-01-13 14:55:56.65	20.20	16.41	-34.3	-35.2	24.0	0.00e+00	0	27	0	485490688	42	5725
2026-01-13 14:55:57.66	20.19	16.52	-34.3	-35.2	23.9	0.00e+00	0	27	0	488636416	42	5724
2026-01-13 14:55:58.67	20.18	16.64	-34.3	-35.3	23.9	0.00e+00	0	27	0	491782144	42	5739
2026-01-13 14:55:59.68	20.18	16.75	-34.3	-35.2	23.9	0.00e+00	0	27	0	494927872	42	5698
2026-01-13 14:56:00.69	20.17	16.87	-34.5	-35.4	23.8	0.00e+00	0	27	0	498073600	42	5824
2026-01-13 14:56:01.70	20.16	16.98	-34.3	-35.2	23.9	0.00e+00	0	27	0	501219328	42	5676
2026-01-13 14:56:02.71	20.15	17.10	-34.4	-35.3	23.9	0.00e+00	0	27	0	504365056	42	5771
2026-01-13 14:56:03.72	20.14	17.22	-34.4	-35.4	23.9	0.00e+00	0	27	0	507510784	42	5802
2026-01-13 14:56:04.73	20.13	17.33	-34.3	-35.2	23.9	0.00e+00	0	27	0	510656512	42	5696
2026-01-13 14:56:05.74	20.12	17.45	-34.4	-35.3	23.9	0.00e+00	0	27	0	513802240	42	5740
2026-01-13 14:56:06.75	20.11	17.57	-34.2	-35.1	24.0	0.00e+00	0	27	0	516947968	42	5642
2026-01-13 14:56:07.76	20.10	17.69	-34.3	-35.2	24.0	0.00e+00	0	27	0	520093696	42	5684
2026-01-13 14:56:08.77	20.09	17.81	-34.4	-35.3	23.9	0.00e+00	0	27	0	523239424	42	5773
2026-01-13 14:56:09.78	20.08	17.93	-34.3	-35.3	23.9	0.00e+00	0	27	0	526385152	42	5734
2026-01-13 14:56:10.79	20.07	18.05	-34.3	-35.3	24.0	0.00e+00	0	27	0	529530880	42	5728
2026-01-13 14:56:11.80	20.06	18.17	-34.3	-35.2	24.0	0.00e+00	0	27	0	532676608	42	5719
2026-01-13 14:56:12.81	20.05	18.30	-34.4	-35.3	23.9	0.00e+00	0	27	0	535822336	42	5752
2026-01-13 14:56:13.82	20.04	18.42	-34.4	-35.3	23.9	0.00e+00	0	27	0	538968064	42	5749
2026-01-13 14:56:14.83	20.03	18.54	-34.4	-35.4	23.9	0.00e+00	0	27	0	542113792	42	5793
2026-01-13 14:56:15.84	20.02	18.67	-34.4	-35.3	23.9	0.00e+00	0	27	0	545259520	42	5745
2026-01-13 14:56:16.85	20.01	18.79	-34.3	-35.2	23.9	0.00e+00	0	27	0	548405248	42	5700
2026-01-13 14:56:17.86	20.00	18.92	-34.4	-35.3	24.0	0.00e+00	0	27	0	551550976	42	5731
2026-01-13 14:56:18.87	19.99	19.04	-34.4	-35.3	24.0	0.00e+00	0	27	0	554696704	42	5760
2026-01-13 14:56:19.88	19.98	19.17	-34.3	-35.2	24.1	0.00e+00	0	27	0	557842432	42	5698
2026-01-13 14:56:20.89	19.97	19.30	-34.3	-35.2	24.1	0.00e+00	0	27	0	560988160	42	5664
2026-01-13 14:56:21.90	19.96	19.42	-34.2	-35.1	24.1	0.00e+00	0	27	0	564133888	42	5659
2026-01-13 14:56:22.91	19.94	19.55	-34.2	-35.1	24.1	0.00e+00	0	27	0	567279616	42	5638
2026-01-13 14:56:23.92	19.93	19.68	-34.1	-35.0	24.2	0.00e+00	0	27	0	570425344	42	5570
2026-01-13 14:56:24.93	19.92	19.81	-34.1	-35.1	24.2	0.00e+00	0	27	0	573571072	42	5596
2026-01-13 14:56:25.94	19.91	19.94	-34.2	-35.1	24.1	0.00e+00	0	27	0	576716800	42	5604
2026-01-13 14:56:26.95	19.90	20.07	-33.9	-34.8	24.2	0.00e+00	0	27	0	580911104	42	5466
2026-01-13 14:56:27.96	19.89	20.21	-34.0	-34.9	24.2	0.00e+00	0	27	0	583008256	42	5519
2026-01-13 14:56:28.97	19.87	20.34	-34.1	-35.0	24.2	0.00e+00	0	27	0	586153984	42	5540
2026-01-13 14:56:29.98	19.86	20.47	-33.9	-34.8	24.3	0.00e+00	0	27	0	589299712	42	5428
2026-01-13 14:56:30.99	19.85	20.61	-33.8	-34.7	24.4	0.00e+00	0	27	0	592445440	42	5351
2026-01-13 14:56:32.00	19.84	20.74	-33.7	-34.6	24.5	0.00e+00	0	27	0	595591168	40	5934
2026-01-13 14:56:33.01	19.82	20.88	-33.7	-34.6	24.3	0.00e+00	0	27	0	599785472	40	5943
2026-01-13 14:56:34.01	19.81	21.01	-33.6	-34.5	24.5	0.00e+00	0	27	0	602931200	40	5905
2026-01-13 14:56:35.02	19.80	21.15	-33.6	-34.5	24.5	0.00e+00	0	27	0	606076928	40	5908
2026-01-13 14:56:36.03	19.78	21.29	-33.6	-34.5	24.6	0.00e+00	0	27	0	608174080	40	5901
2026-01-13 14:56:37.04	19.77	21.42	-33.6	-34.4	24.6	0.00e+00	0	27	0	611319808	40	5854
2026-01-13 14:56:38.05	19.76	21.56	-33.5	-34.3	24.7	0.00e+00	0	27	0	615514112	40	5789
2026-01-13 14:56:39.06	19.74	21.70	-33.4	-34.3	24.7	0.00e+00	0	27	0	618659840	40	5761
2026-01-13 14:56:40.07	19.73	21.85	-33.3	-34.2	24.7	0.00e+00	0	27	0	621805568	40	5709
2026-01-13 14:56:41.08	19.71	21.99	-33.2	-34.1	24.8	0.00e+00	0	27	0	624951296	40	5641
2026-01-13 14:56:42.09	19.70	22.13	-33.2	-34.0	24.8	0.00e+00	0	27	0	628097024	40	5578
2026-01-13 14:56:43.10	19.69	22.27	-33.1	-34.0	24.8	0.00e+00	0	27	0	630194176	40	5561
2026-01-13 14:56:44.11	19.67	22.42	-33.0	-33.9	25.0	0.00e+00	0	27	0	634388480	40	5487
2026-01-13 14:56:45.12	19.66	22.56	-33.1	-34.0	24.9	0.00e+00	0	27	0	637534208	40	5557
2026-01-13 14:56:46.12	19.64	22.71	-32.9	-33.7	25.2	0.00e+00	0	27	0	640679936	40	5397
2026-01-13 14:56:47.14	19.63	22.85	-32.9	-33.8	25.1	0.00e+00	0	27	0	643825664	40	5422
2026-01-13 14:56:48.14	19.61	23.00	-32.9	-33.8	25.1	0.00e+00	0	27	0	646971392	40	5437
2026-01-13 14:56:49.15	19.60	23.15	-32.9	-33.8	25.2	0.00e+00	0	28	0	650117120	40	5415
2026-01-13 14:56:50.16	19.58	23.30	-32.7	-33.5	25.2	0.00e+00	0	27	0	653262848	38	5908
2026-01-13 14:56:51.17	19.56	23.45	-32.7	-33.6	25.2	0.00e+00	0	27	0	656408576	38	5950
2026-01-13 14:56:52.18	19.55	23.60	-32.6	-33.5	25.4	0.00e+00	0	27	0	659554304	38	5880
2026-01-13 14:56:53.19	19.53	23.75	-32.5	-33.3	25.5	0.00e+00	0	27	0	662700032	38	5777
2026-01-13 14:56:54.20	19.52	23.90	-32.6	-33.4	25.5	0.00e+00	0	27	0	665845760	38	5826
2026-01-13 14:56:55.21	19.50	24.05	-32.5	-33.3	25.5	0.00e+00	0	27	0	668991488	38	5772
2026-01-13 14:56:56.22	19.48	24.21	-32.7	-33.5	25.3	0.00e+00	0	28	0	672137216	38	5891
2026-01-13 14:56:57.23	19.47	24.36	-32.5	-33.3	25.4	0.00e+00	0	27	0	675282944	38	5748
2026-01-13 14:56:58.24	19.45	24.52	-32.6	-33.5	25.3	0.00e+00	0	27	0	678428672	38	5882
2026-01-13 14:56:59.25	19.43	24.68	-32.7	-33.5	25.3	0.00e+00	0	27	0	681574400	38	5900
2026-01-13 14:57:00.26	19.41	24.84	-32.6	-33.5	25.3	0.00e+00	0	28	0	684720128	38	5886
2026-01-13 14:57:01.27	19.40	25.00	-32.8	-33.6	25.2	0.00e+00	0	28	0	687865856	38	5987
2026-01-13 14:57:02.28	19.38	25.15	-32.7	-33.5	25.3	0.00e+00	0	28	0	691011584	38	5907
2026-01-13 14:57:03.29	19.36	25.32	-32.8	-33.7	25.2	0.00e+00	0	27	0	694157312	38	6033
2026-01-13 14:57:04.30	19.34	25.48	-32.9	-33.8	25.1	0.00e+00	0	28	0	697303040	38	6093
2026-01-13 14:57:05.31	19.32	25.64	-33.1	-33.9	25.0	0.00e+00	0	27	0	700448768	38	6181
2026-01-13 14:57:06.32	19.30	25.80	-33.1	-33.9	25.0	0.00e+00	0	27	0	703594496	38	6188
2026-01-13 14:57:07.33	19.28	25.97	-33.3	-34.1	24.9	0.00e+00	0	27	0	706740224	38	6336
2026-01-13 14:57:08.34	19.26	26.14	-33.4	-34.3	24.7	0.00e+00	0	28	0	709885952	38	6465
2026-01-13 14:57:09.35	19.24	26.30	-33.6	-34.4	24.7	0.00e+00	0	27	0	713031680	38	6557
2026-01-13 14:57:10.36	19.22	26.47	-33.6	-34.4	24.6	0.00e+00	0	27	0	716177408	38	6559
2026-01-13 14:57:11.37	19.20	26.64	-33.7	-34.6	24.6	0.00e+00	0	28	0	719323136	38	6660
2026-01-13 14:57:12.38	19.18	26.81	-33.9	-34.8	24.4	0.00e+00	0	28	0	722468864	40	6076
2026-01-13 14:57:13.39	19.16	26.98	-33.9	-34.8	24.4	0.00e+00	0	27	0	725614592	40	6108
2026-01-13 14:57:14.40	19.14	27.15	-34.0	-34.9	24.4	0.00e+00	0	28	0	728760320	40	6198
2026-01-13 14:57:15.40	19.12	27.33	-34.2	-35.1	24.2	0.00e+00	0	27	0	731906048	40	6291
2026-01-13 14:57:16.41	19.10	27.50	-34.2	-35.2	24.2	0.00e+00	0	28	0	735051776	40	6351
2026-01-13 14:57:17.42	19.08	27.68	-34.3	-35.2	24.1	0.00e+00	0	28	0	738197504	40	6374
2026-01-13 14:57:18.43	19.05	27.85	-34.3	-35.2	24.2	0.00e+00	0	27	0	741343232	40	6379
2026-01-13 14:57:19.44	19.03	28.03	-34.4	-35.3	24.1	0.00e+00	0	27	0	744488960	40	6473
2026-01-13 14:57:20.45	19.01	28.21	-34.4	-35.3	24.1	0.00e+00	0	28	0	747634688	40	6456
2026-01-13 14:57:21.46	18.99	28.39	-34.4	-35.4	24.1	0.00e+00	0	28	0	750780416	40	6500
2026-01-13 14:57:22.47	18.96	28.57	-34.6	-35.5	24.0	0.00e+00	0	28	0	753926144	40	6608
2026-01-13 14:57:23.48	18.94	28.75	-34.7	-35.6	23.9	0.00e+00	0	27	0	757071872	40	6670
2026-01-13 14:57:24.48	18.92	28.93	-34.7	-35.6	23.9	0.00e+00	0	28	0	760217600	42	5981
2026-01-13 14:57:25.49	18.89	29.12	-34.5	-35.5	24.0	0.00e+00	0	27	0	763363328	42	5867
2026-01-13 14:57:26.50	18.87	29.31	-34.4	-35.4	24.1	0.00e+00	0	28	0	766509056	42	5792
2026-01-13 14:57:27.51	18.84	29.49	-34.3	-35.2	24.2	0.00e+00	0	28	0	769654784	42	5676
2026-01-13 14:57:28.52	18.82	29.68	-34.2	-35.1	24.2	0.00e+00	0	28	0	772800512	42	5628
2026-01-13 14:57:29.53	18.79	29.87	-34.1	-35.0	24.3	0.00e+00	0	27	0	775946240	42	5578
2026-01-13 14:57:30.54	18.76	30.06	-34.0	-34.9	24.4	0.00e+00	0	28	0	779091968	42	5502
2026-01-13 14:57:31.55	18.74	30.25	-34.1	-35.0	24.4	0.00e+00	0	28	0	782237696	42	5556
2026-01-13 14:57:32.56	18.71	30.45	-33.8	-34.7	24.5	0.00e+00	0	27	0	785383424	42	5393
2026-01-13 14:57:33.57	18.68	30.64	-33.8	-34.7	24.6	0.00e+00	0	28	0	788529152	42	5360
2026-01-13 14:57:34.58	18.66	30.84	-33.7	-34.6	24.7	0.00e+00	0	27	0	791674880	40	5958
2026-01-13 14:57:35.59	18.63	31.04	-33.5	-34.4	24.8	0.00e+00	0	27	0	794820608	40	5826
2026-01-13 14:57:36.60	18.60	31.24	-33.5	-34.4	24.7	0.00e+00	0	27	0	797966336	40	5832
2026-01-13 14:57:37.61	18.57	31.44	-33.8	-34.6	24.6	0.00e+00	0	28	0	801112064	40	5988
2026-01-13 14:57:38.62	18.54	31.64	-33.6	-34.4	24.7	0.00e+00	0	28	0	804257792	40	5846
2026-01-13 14:57:39.63	18.51	31.84	-33.6	-34.5	24.6	0.00e+00	0	28	0	807403520	40	5890
2026-01-13 14:57:40.64	18.48	32.05	-33.7	-34.6	24.6	0.00e+00	0	28	0	810549248	40	5939
2026-01-13 14:57:41.65	18.45	32.25	-33.7	-34.6	24.6	0.00e+00	0	28	0	813694976	40	5954
2026-01-13 14:57:42.66	18.42	32.46	-33.7	-34.6	24.6	0.00e+00	0	28	0	816840704	40	5956
2026-01-13 14:57:43.67	18.39	32.67	-33.8	-34.7	24.6	0.00e+00	0	27	0	819986432	40	6020
2026-01-13 14:57:44.67	18.36	32.88	-33.9	-34.8	24.5	0.00e+00	0	27	0	823132160	40	6075
2026-01-13 14:57:45.68	18.33	33.09	-34.0	-34.9	24.4	0.00e+00	0	28	0	826277888	40	6188
2026-01-13 14:57:46.70	18.29	33.30	-34.2	-35.1	24.2	0.00e+00	0	27	0	829423616	40	6344
2026-01-13 14:57:47.71	18.26	33.52	-34.6	-35.5	23.9	0.00e+00	0	27	0	832569344	40	6605
2026-01-13 14:57:48.72	18.23	33.73	-34.7	-35.6	23.8	0.00e+00	0	27	0	835715072	40	6690
2026-01-13 14:57:49.72	18.19	33.95	-35.0	-35.9	23.5	0.00e+00	0	28	0	838860800	42	6184
2026-01-13 14:57:50.73	18.16	34.17	-35.2	-36.1	23.5	0.00e+00	0	27	0	842006528	42	6320
2026-01-13 14:57:51.75	18.12	34.39	-35.3	-36.3	23.3	0.00e+00	0	27	0	845152256	42	6447
2026-01-13 14:57:52.75	18.09	34.61	-35.4	-36.4	23.1	0.00e+00	0	28	0	848297984	42	6559
2026-01-13 14:57:53.77	18.05	34.84	-35.6	-36.6	23.1	0.00e+00	0	27	0	851443712	42	6697
2026-01-13 14:57:54.78	18.01	35.06	-35.7	-36.7	23.0	0.00e+00	0	28	0	854589440	42	6783
2026-01-13 14:57:55.79	17.98	35.29	-35.8	-36.9	22.9	0.00e+00	0	28	0	857735168	44	6140
2026-01-13 14:57:56.80	17.94	35.52	-35.8	-36.7	23.0	0.00e+00	0	27	0	860880896	44	6061
2026-01-13 14:57:57.80	17.90	35.75	-35.8	-36.8	23.1	0.00e+00	0	28	0	864026624	44	6070
2026-01-13 14:57:58.81	17.86	35.98	-35.8	-36.8	22.9	0.00e+00	0	28	0	867172352	44	6084
2026-01-13 14:57:59.82	17.82	36.21	-35.7	-36.7	23.0	0.00e+00	0	28	0	870318080	44	6013
2026-01-13 14:58:00.83	17.78	36.45	-35.7	-36.6	23.1	0.00e+00	0	27	0	873463808	44	5974
2026-01-13 14:58:01.84	17.74	36.69	-35.9	-36.8	22.8	0.00e+00	0	27	0	876609536	44	6132
2026-01-13 14:58:02.85	17.70	36.92	-35.9	-36.9	22.7	0.00e+00	0	28	0	879755264	44	6163
2026-01-13 14:58:03.86	17.66	37.16	-36.2	-37.3	22.4	0.00e+00	0	27	0	882900992	44	6426
2026-01-13 14:58:04.86	17.61	37.40	-36.0	-37.0	22.5	0.00e+00	0	27	0	886046720	44	6243
2026-01-13 14:58:05.87	17.57	37.65	-36.0	-37.0	22.5	0.00e+00	0	27	0	889192448	44	6225
2026-01-13 14:58:06.88	17.53	37.89	-35.9	-37.0	22.5	0.00e+00	0	27	0	892338176	44	6219
2026-01-13 14:58:07.89	17.48	38.14	-35.8	-36.9	22.5	0.00e+00	0	28	0	895483904	44	6145
2026-01-13 14:58:08.90	17.43	38.39	-35.9	-37.0	22.5	0.00e+00	0	28	0	898629632	44	6215
2026-01-13 14:58:09.91	17.39	38.64	-36.0	-37.0	22.4	0.00e+00	0	27	0	901775360	44	6266
2026-01-13 14:58:10.92	17.34	38.90	-36.0	-37.0	22.7	0.00e+00	0	28	0	904921088	44	6245
2026-01-13 14:58:11.93	17.29	39.15	-35.9	-36.9	22.7	0.00e+00	0	27	0	908066816	44	6192
2026-01-13 14:58:12.94	17.24	39.41	-35.9	-36.8	22.9	0.00e+00	0	27	0	911212544	44	6114
2026-01-13 14:58:13.95	17.19	39.67	-35.9	-36.9	22.9	0.00e+00	0	27	0	914358272	44	6190
2026-01-13 14:58:14.96	17.14	39.93	-36.0	-37.0	22.8	0.00e+00	0	28	0	917504000	44	6244
2026-01-13 14:58:15.97	17.09	40.19	-36.1	-37.0	22.8	0.00e+00	0	27	0	920649728	44	6275
2026-01-13 14:58:16.98	17.04	40.45	-35.9	-36.9	22.9	0.00e+00	0	27	0	923795456	44	6172
2026-01-13 14:58:17.99	16.98	40.72	-36.0	-37.0	22.9	0.00e+00	0	27	0	926941184	44	6228
2026-01-13 14:58:19.00	16.93	40.99	-36.1	-37.1	22.8	0.00e+00	0	27	0	930086912	44	6305
2026-01-13 14:58:20.01	16.87	41.26	-36.2	-37.2	22.7	0.00e+00	0	28	0	933232640	44	6377
2026-01-13 14:58:21.02	16.82	41.53	-36.0	-37.0	22.8	0.00e+00	0	27	0	936378368	44	6220
2026-01-13 14:58:22.03	16.76	41.81	-36.2	-37.1	22.8	0.00e+00	0	28	0	939524096	44	6343
2026-01-13 14:58:23.04	16.70	42.08	-36.2	-37.2	22.6	0.00e+00	0	28	0	942669824	44	6410
2026-01-13 14:58:24.05	16.64	42.36	-36.3	-37.3	22.6	0.00e+00	0	27	0	945815552	44	6476
2026-01-13 14:58:25.06	16.58	42.64	-36.6	-37.6	22.4	0.00e+00	0	27	0	948961280	44	6683
2026-01-13 14:58:26.06	16.52	42.92	-36.8	-37.9	22.1	0.00e+00	0	27	0	952107008	46	6154
2026-01-13 14:58:27.07	16.45	43.21	-36.9	-37.9	22.1	0.00e+00	0	27	0	955252736	46	6186
2026-01-13 14:58:28.08	16.39	43.49	-37.2	-38.3	21.8	0.00e+00	0	27	0	958398464	46	6475
2026-01-13 14:58:29.09	16.32	43.78	-36.9	-38.0	22.1	0.00e+00	0	28	0	961544192	46	6235
2026-01-13 14:58:30.10	16.26	44.07	-36.7	-37.7	22.3	0.00e+00	0	28	0	965738496	46	6035
2026-01-13 14:58:31.11	16.19	44.37	-36.6	-37.7	22.4	0.00e+00	0	27	0	968884224	46	6008
2026-01-13 14:58:32.12	16.12	44.66	-36.6	-37.6	22.4	0.00e+00	0	28	0	970981376	46	5975
2026-01-13 14:58:33.14	16.05	44.96	-36.7	-37.7	22.3	0.00e+00	0	28	0	974127104	46	6028
2026-01-13 14:58:34.15	15.98	45.26	-36.9	-37.9	22.1	0.00e+00	0	28	0	977272832	46	6167
2026-01-13 14:58:35.16	15.90	45.57	-37.1	-38.1	21.9	0.00e+00	0	28	0	981467136	46	6313
2026-01-13 14:58:36.17	15.83	45.87	-37.0	-38.0	21.9	0.00e+00	0	27	0	984612864	46	6257
2026-01-13 14:58:37.18	15.75	46.18	-36.9	-37.9	22.1	0.00e+00	0	27	0	987758592	46	6158
2026-01-13 14:58:38.19	15.67	46.48	-36.9	-37.9	22.1	0.00e+00	0	27	0	990904320	46	6154
2026-01-13 14:58:39.20	15.59	46.80	-36.8	-37.9	21.9	0.00e+00	0	27	0	994050048	46	6159
2026-01-13 14:58:40.21	15.51	47.11	-36.5	-37.5	22.2	0.00e+00	0	28	0	997195776	46	5920
2026-01-13 14:58:41.22	15.43	47.42	-36.4	-37.4	22.2	0.00e+00	0	28	0	1000341504	46	5854
2026-01-13 14:58:42.23	15.34	47.74	-36.2	-37.2	22.7	0.00e+00	0	28	0	1003487232	46	5712
2026-01-13 14:58:43.24	15.25	48.06	-36.2	-37.2	22.7	0.00e+00	0	28	0	1006632960	46	5692
2026-01-13 14:58:44.25	15.16	48.39	-36.1	-37.0	22.9	0.00e+00	0	28	0	1009778688	46	5590
2026-01-13 14:58:45.26	15.07	48.71	-35.9	-36.9	22.9	0.00e+00	0	27	0	1012924416	46	5482
2026-01-13 14:58:46.27	14.98	49.04	-35.9	-36.9	22.8	0.00e+00	0	27	0	1016070144	46	5468
2026-01-13 14:58:47.28	14.88	49.37	-35.7	-36.7	22.9	0.00e+00	0	27	0	1019215872	46	5369
2026-01-13 14:58:48.29	14.79	49.70	-35.7	-36.7	22.9	0.00e+00	0	28	0	1022361600	44	6034
2026-01-13 14:58:49.30	14.69	50.03	-35.9	-36.9	22.8	0.00e+00	0	28	0	1025507328	44	6155
2026-01-13 14:58:50.30	14.59	50.37	-35.8	-36.8	23.0	0.00e+00	0	28	0	1028653056	44	6113
2026-01-13 14:58:51.31	14.48	50.71	-36.1	-37.1	22.7	0.00e+00	0	27	0	1031798784	44	6345
2026-01-13 14:58:52.32	14.38	51.05	-35.9	-36.9	22.8	0.00e+00	0	28	0	1034944512	44	6168
2026-01-13 14:58:53.33	14.27	51.39	-35.9	-36.8	22.9	0.00e+00	0	27	0	1038090240	44	6123
2026-01-13 14:58:54.34	14.15	51.74	-35.8	-36.7	22.9	0.00e+00	0	28	0	1041235968	44	6063
2026-01-13 14:58:55.35	14.04	52.09	-35.5	-36.4	23.0	0.00e+00	0	27	0	1044381696	44	5831
2026-01-13 14:58:56.36	13.92	52.44	-35.2	-36.2	23.2	0.00e+00	0	27	0	1047527424	44	5686
2026-01-13 14:58:57.36	13.80	52.79	-35.2	-36.2	23.3	0.00e+00	0	28	0	1050673152	44	5681
2026-01-13 14:58:58.37	13.68	53.14	-35.1	-36.0	23.5	0.00e+00	0	27	0	1053818880	44	5582
2026-01-13 14:58:59.38	13.55	53.50	-35.2	-36.2	23.5	0.00e+00	0	28	0	1056964608	44	5678
2026-01-13 14:59:00.39	13.42	53.86	-34.9	-35.8	23.7	0.00e+00	0	27	0	1060110336	44	5443
2026-01-13 14:59:01.40	13.29	54.22	-34.3	-35.2	24.0	0.00e+00	0	27	0	1063256064	42	5718
2026-01-13 14:59:02.41	13.15	54.59	-34.3	-35.2	24.1	0.00e+00	0	27	0	1066401792	42	5691
2026-01-13 14:59:03.42	13.01	54.96	-34.2	-35.2	24.1	0.00e+00	0	27	0	1069547520	42	5662
2026-01-13 14:59:04.43	12.87	55.33	-34.0	-34.9	24.3	0.00e+00	0	27	0	1072693248	42	5503
2026-01-13 14:59:05.44	12.72	55.70	-33.9	-34.8	24.4	0.00e+00	0	27	0	1075838976	42	5463
2026-01-13 14:59:06.45	12.57	56.08	-33.9	-34.8	24.5	0.00e+00	0	27	0	1078984704	42	5407
2026-01-13 14:59:07.46	12.41	56.45	-33.9	-34.8	24.5	0.00e+00	0	27	0	1082130432	42	5456
2026-01-13 14:59:08.47	12.25	56.83	-33.4	-34.3	24.9	0.00e+00	0	27	0	1085276160	40	5756
2026-01-13 14:59:09.48	12.08	57.22	-33.5	-34.4	24.8	0.00e+00	0	27	0	1088421888	40	5826
2026-01-13 14:59:10.48	11.91	57.60	-33.4	-34.3	24.9	0.00e+00	0	28	0	1091567616	40	5757
2026-01-13 14:59:11.49	11.74	57.98	-33.1	-33.9	25.2	0.00e+00	0	28	0	1094713344	40	5527
2026-01-13 14:59:12.50	11.56	58.37	-33.1	-33.9	25.3	0.00e+00	0	27	0	1097859072	40	5498
2026-01-13 14:59:13.51	11.37	58.76	-32.9	-33.7	25.2	0.00e+00	0	27	0	1101004800	40	5380
2026-01-13 14:59:14.52	11.18	59.16	-32.9	-33.8	25.2	0.00e+00	0	27	0	1104150528	40	5439
2026-01-13 14:59:15.53	10.98	59.55	-33.0	-33.8	25.2	0.00e+00	0	27	0	1107296256	40	5445
2026-01-13 14:59:16.54	10.78	59.95	-33.1	-33.9	25.1	0.00e+00	0	27	0	1110441984	40	5517
2026-01-13 14:59:17.55	10.57	60.35	-33.3	-34.2	24.9	0.00e+00	0	27	0	1113587712	40	5666
2026-01-13 14:59:18.56	10.35	60.75	-33.2	-34.1	24.9	0.00e+00	0	27	0	1116733440	40	5627
2026-01-13 14:59:19.57	10.12	61.16	-33.1	-33.9	25.0	0.00e+00	0	27	0	1119879168	40	5516
2026-01-13 14:59:20.58	9.89	61.57	-32.9	-33.8	25.0	0.00e+00	0	27	0	1123024896	40	5412
2026-01-13 14:59:21.59	9.65	61.97	-32.9	-33.8	24.9	0.00e+00	0	27	0	1126170624	40	5416
2026-01-13 14:59:22.60	9.40	62.39	-32.8	-33.7	25.1	0.00e+00	0	27	0	1129316352	38	6010
2026-01-13 14:59:23.61	9.14	62.80	-32.6	-33.4	25.3	0.00e+00	0	27	0	1132462080	38	5854
2026-01-13 14:59:24.62	8.88	63.21	-32.5	-33.3	25.4	0.00e+00	0	27	0	1135607808	38	5762
2026-01-13 14:59:25.63	8.60	63.63	-32.4	-33.3	25.4	0.00e+00	0	27	0	1138753536	38	5740
2026-01-13 14:59:26.64	8.31	64.05	-32.6	-33.5	25.4	0.00e+00	0	27	0	1141899264	38	5878
2026-01-13 14:59:27.64	8.02	64.46	-32.4	-33.2	25.6	0.00e+00	0	28	0	1145044992	38	5708
2026-01-13 14:59:28.65	7.71	64.89	-32.4	-33.2	25.5	0.00e+00	0	27	0	1148190720	38	5697
2026-01-13 14:59:29.66	7.39	65.31	-32.5	-33.3	25.6	0.00e+00	0	27	0	1151336448	38	5755
2026-01-13 14:59:30.67	7.06	65.74	-31.9	-32.7	25.9	0.00e+00	0	28	0	1154482176	38	5373
2026-01-13 14:59:31.68	6.71	66.16	-32.0	-32.8	25.8	0.00e+00	0	27	0	1157627904	38	5429
2026-01-13 14:59:32.69	6.35	66.59	-32.1	-32.9	25.8	0.00e+00	0	27	0	1160773632	38	5519
2026-01-13 14:59:33.70	5.98	67.02	-32.1	-32.9	25.8	0.00e+00	0	27	0	1163919360	38	5483
2026-01-13 14:59:34.71	5.58	67.45	-32.2	-33.0	25.8	0.00e+00	0	27	0	1167065088	38	5579
2026-01-13 14:59:35.71	5.18	67.88	-32.3	-33.2	25.7	0.00e+00	0	27	0	1170210816	38	5666
2026-01-13 14:59:36.73	4.75	68.32	-31.9	-32.7	26.0	0.00e+00	0	27	0	1173356544	38	5376
2026-01-13 14:59:37.74	4.31	68.75	-32.3	-33.1	25.7	0.00e+00	0	27	0	1176502272	38	5621
2026-01-13 14:59:38.75	3.84	69.19	-32.6	-33.5	25.5	0.00e+00	0	28	0	1179648000	38	5861
2026-01-13 14:59:39.76	3.35	69.62	-33.0	-33.9	25.1	0.00e+00	0	27	0	1182793728	38	6141
2026-01-13 14:59:40.76	2.85	70.05	-33.1	-34.0	25.1	0.00e+00	0	27	0	1185939456	38	6218
2026-01-13 14:59:41.78	2.31	70.49	-33.0	-33.8	25.2	0.00e+00	0	27	0	1189085184	38	6128
2026-01-13 14:59:42.79	1.75	70.93	-32.9	-33.8	25.3	0.00e+00	0	27	0	1192230912	38	6073
2026-01-13 14:59:43.79	1.17	71.36	-33.0	-33.9	25.3	0.00e+00	0	27	0	1195376640	38	6168
2026-01-13 14:59:44.81	0.54	71.81	-32.7	-33.6	25.5	0.00e+00	0	28	0	1198522368	38	5963
2026-01-13 14:59:45.82	359.89	72.24	-32.5	-33.4	25.6	0.00e+00	0	27	0	1201668096	38	5820
2026-01-13 14:59:46.82	359.21	72.67	-32.6	-33.4	25.4	0.00e+00	0	28	0	1204813824	38	5850
2026-01-13 14:59:47.84	358.48	73.11	-32.9	-33.7	25.2	0.00e+00	0	27	0	1207959552	38	6059
2026-01-13 14:59:48.84	357.72	73.54	-32.6	-33.4	25.4	0.00e+00	0	27	0	1211105280	38	5858
2026-01-13 14:59:49.85	356.91	73.98	-32.6	-33.5	25.4	0.00e+00	0	27	0	1214251008	38	5889
2026-01-13 14:59:50.86	356.06	74.41	-32.8	-33.7	25.1	0.00e+00	0	27	0	1217396736	38	6043
2026-01-13 14:59:51.87	355.15	74.84	-32.9	-33.8	24.9	0.00e+00	0	27	0	1220542464	38	6102
2026-01-13 14:59:52.88	354.19	75.26	-32.8	-33.7	25.1	0.00e+00	0	27	0	1223688192	38	6035
2026-01-13 14:59:53.89	353.17	75.69	-32.9	-33.8	24.7	0.00e+00	0	27	0	1226833920	38	6086
2026-01-13 14:59:54.90	352.09	76.11	-32.5	-33.4	24.9	0.00e+00	0	27	0	1229979648	38	5806
2026-01-13 14:59:55.91	350.93	76.52	-32.4	-33.3	25.1	0.00e+00	0	28	0	1233125376	38	5752
2026-01-13 14:59:56.92	349.70	76.93	-32.4	-33.3	25.1	0.00e+00	0	27	0	1236271104	38	5774
2026-01-13 14:59:57.93	348.39	77.34	-32.6	-33.4	25.3	0.00e+00	0	28	0	1239416832	38	5850
2026-01-13 14:59:58.94	346.99	77.74	-32.8	-33.7	24.8	0.00e+00	0	27	0	1242562560	38	6027
2026-01-13 14:59:59.95	345.49	78.13	-32.8	-33.7	25.1	0.00e+00	0	27	0	1245708288	38	6002
2026-01-13 15:00:00.96	343.89	78.52	-32.8	-33.7	25.2	0.00e+00	0	27	0	1248854016	38	6039
2026-01-13 15:00:01.97	342.17	78.90	-32.6	-33.4	25.5	0.00e+00	0	27	0	1251999744	38	5846
2026-01-13 15:00:02.98	340.33	79.27	-32.7	-33.5	25.4	0.00e+00	0	27	0	1255145472	38	5922
2026-01-13 15:00:03.99	338.36	79.62	-33.0	-33.9	25.1	0.00e+00	0	27	0	1258291200	38	6176
2026-01-13 15:00:05.00	336.25	79.97	-33.1	-34.0	25.1	0.00e+00	0	27	0	1261436928	38	6253
2026-01-13 15:00:06.01	333.99	80.30	-32.9	-33.8	25.3	0.00e+00	0	27	0	1264582656	38	6073
2026-01-13 15:00:07.02	331.57	80.62	-32.5	-33.4	25.5	0.00e+00	0	27	0	1267728384	38	5807
2026-01-13 15:00:08.03	328.98	80.91	-32.8	-33.7	25.3	0.00e+00	0	28	0	1270874112	38	6002
2026-01-13 15:00:09.04	326.22	81.19	-33.2	-34.1	25.0	0.00e+00	0	27	0	1274019840	38	6279
2026-01-13 15:00:10.05	323.29	81.45	-33.3	-34.2	24.9	0.00e+00	0	27	0	1277165568	38	6356
2026-01-13 15:00:11.06	320.18	81.69	-33.2	-34.0	25.0	0.00e+00	0	27	0	1280311296	38	6274
2026-01-13 15:00:12.07	316.89	81.90	-33.0	-33.9	25.1	0.00e+00	0	28	0	1283457024	38	6143
2026-01-13 15:00:13.08	313.44	82.08	-32.9	-33.8	24.9	0.00e+00	0	28	0	1286602752	38	6109
2026-01-13 15:00:14.09	309.84	82.23	-33.1	-33.9	25.0	0.00e+00	0	27	0	1289748480	38	6185
2026-01-13 15:00:15.10	306.11	82.35	-33.0	-33.9	25.1	0.00e+00	0	27	0	1292894208	38	6175
2026-01-13 15:00:16.11	302.27	82.44	-33.1	-33.9	25.1	0.00e+00	0	27	0	1296039936	38	6197
2026-01-13 15:00:17.12	298.37	82.49	-33.3	-34.2	25.0	0.00e+00	0	28	0	1299185664	38	6419
2026-01-13 15:00:18.12	294.46	82.51	-33.3	-34.3	25.1	0.00e+00	0	27	0	1302331392	38	6427
2026-01-13 15:00:19.13	290.52	82.49	-33.0	-33.9	25.3	0.00e+00	0	27	0	1305477120	38	6138
2026-01-13 15:00:20.14	286.61	82.44	-33.3	-34.1	25.1	0.00e+00	0	27	0	1308622848	38	6318
2026-01-13 15:00:21.15	282.77	82.36	-33.2	-34.0	24.9	0.00e+00	0	27	0	1311768576	38	6268
2026-01-13 15:00:22.16	279.03	82.24	-33.6	-34.5	24.6	0.00e+00	0	27	0	1314914304	38	6648
2026-01-13 15:00:23.17	275.42	82.08	-33.6	-34.5	24.7	0.00e+00	0	28	0	1318060032	40	5895
2026-01-13 15:00:24.18	271.97	81.90	-33.3	-34.2	24.9	0.00e+00	0	27	0	1321205760	40	5671
2026-01-13 15:00:25.19	268.67	81.70	-33.3	-34.2	24.8	0.00e+00	0	28	0	1324351488	40	5681
2026-01-13 15:00:26.20	265.55	81.46	-33.3	-34.2	25.1	0.00e+00	0	27	0	1328545792	40	5676
2026-01-13 15:00:27.21	262.61	81.20	-33.3	-34.1	25.1	0.00e+00	0	28	0	1331691520	40	5642
2026-01-13 15:00:28.22	259.84	80.93	-33.1	-34.0	25.0	0.00e+00	0	28	0	1334837248	40	5554
2026-01-13 15:00:29.23	257.25	80.63	-32.6	-33.5	24.9	0.00e+00	0	27	0	1336934400	38	5909
2026-01-13 15:00:30.24	254.82	80.31	-32.9	-33.8	24.9	0.00e+00	0	28	0	1340080128	38	6124
2026-01-13 15:00:31.25	252.55	79.98	-33.2	-34.1	25.1	0.00e+00	0	27	0	1344274432	38	6313
2026-01-13 15:00:32.26	250.43	79.64	-33.1	-34.0	24.8	0.00e+00	0	28	0	1347420160	38	6252
2026-01-13 15:00:33.27	248.46	79.28	-33.9	-34.9	24.3	0.00e+00	0	27	0	1350565888	40	6163
2026-01-13 15:00:34.28	246.61	78.91	-33.8	-34.7	24.7	0.00e+00	0	27	0	1353711616	40	6015
2026-01-13 15:00:35.28	244.91	78.54	-33.7	-34.6	24.6	0.00e+00	0	27	0	1356857344	40	5968
2026-01-13 15:00:36.29	243.30	78.15	-33.1	-33.9	25.0	0.00e+00	0	28	0	1358954496	40	5530
2026-01-13 15:00:37.30	241.80	77.76	-32.6	-33.5	25.3	0.00e+00	0	27	0	1363148800	38	5884
2026-01-13 15:00:38.31	240.39	77.36	-32.7	-33.6	25.4	0.00e+00	0	28	0	1366294528	38	5956
2026-01-13 15:00:39.32	239.07	76.95	-32.3	-33.2	25.8	0.00e+00	0	27	0	1369440256	38	5666
2026-01-13 15:00:40.33	237.84	76.54	-32.3	-33.2	25.6	0.00e+00	0	27	0	1372585984	38	5660
2026-01-13 15:00:41.34	236.68	76.12	-32.8	-33.7	25.4	0.00e+00	0	27	0	1375731712	38	6004
2026-01-13 15:00:42.35	235.59	75.70	-32.5	-33.3	25.4	0.00e+00	0	27	0	1378877440	38	5763
2026-01-13 15:00:43.36	234.57	75.28	-32.5	-33.4	25.4	0.00e+00	0	27	0	1382023168	38	5812
2026-01-13 15:00:44.37	233.60	74.85	-32.7	-33.5	25.4	0.00e+00	0	27	0	1385168896	38	5903
2026-01-13 15:00:45.38	232.69	74.42	-32.9	-33.7	25.4	0.00e+00	0	28	0	1388314624	38	6059
2026-01-13 15:00:46.38	231.84	73.99	-32.8	-33.6	25.3	0.00e+00	0	27	0	1391460352	38	5972
2026-01-13 15:00:47.39	231.03	73.56	-32.6	-33.5	24.9	0.00e+00	0	27	0	1394606080	38	5900
2026-01-13 15:00:48.40	230.27	73.12	-32.5	-33.4	25.1	0.00e+00	0	27	0	1397751808	38	5804
2026-01-13 15:00:49.42	229.53	72.68	-32.1	-32.9	25.4	0.00e+00	0	27	0	1400897536	38	5517
2026-01-13 15:00:50.42	228.85	72.25	-31.7	-32.5	25.8	0.00e+00	0	27	0	1404043264	38	5274
2026-01-13 15:00:51.43	228.20	71.82	-31.7	-32.5	25.8	0.00e+00	0	27	0	1407188992	36	5916
2026-01-13 15:00:52.44	227.58	71.38	-32.3	-33.1	25.6	0.00e+00	0	27	0	1410334720	36	6316
2026-01-13 15:00:53.45	226.98	70.94	-33.1	-34.0	24.7	0.00e+00	0	27	0	1413480448	38	6227
2026-01-13 15:00:54.46	226.42	70.50	-33.4	-34.3	24.0	0.00e+00	0	27	0	1416626176	38	6480
2026-01-13 15:00:55.47	225.89	70.06	-33.1	-34.0	24.3	0.00e+00	0	27	0	1419771904	38	6270
2026-01-13 15:00:56.48	225.38	69.63	-32.6	-33.5	25.2	0.00e+00	0	27	0	1422917632	38	5866
2026-01-13 15:00:57.49	224.89	69.19	-32.1	-32.9	25.8	0.00e+00	0	28	0	1426063360	38	5503
2026-01-13 15:00:58.50	224.42	68.76	-32.7	-33.6	25.2	0.00e+00	0	27	0	1429209088	38	5956
2026-01-13 15:00:59.51	223.97	68.32	-33.5	-34.5	24.6	0.00e+00	0	27	0	1432354816	38	6581
2026-01-13 15:01:00.51	223.55	67.89	-34.3	-35.3	24.1	0.00e+00	0	27	0	1435500544	40	6457
2026-01-13 15:01:01.53	223.14	67.45	-34.2	-35.2	24.4	0.00e+00	0	28	0	1438646272	40	6354
2026-01-13 15:01:02.54	222.75	67.02	-33.5	-34.4	24.6	0.00e+00	0	27	0	1441792000	40	5800
2026-01-13 15:01:03.55	222.37	66.59	-32.7	-33.5	25.3	0.00e+00	0	27	0	1444937728	38	5899
2026-01-13 15:01:04.55	222.01	66.17	-32.6	-33.4	25.7	0.00e+00	0	28	0	1448083456	38	5850
2026-01-13 15:01:05.56	221.66	65.74	-31.8	-32.6	25.8	0.00e+00	0	28	0	1451229184	38	5313
2026-01-13 15:01:06.57	221.33	65.31	-31.8	-32.6	25.4	0.00e+00	0	28	0	1454374912	36	5971
2026-01-13 15:01:07.58	221.01	64.89	-32.3	-33.1	25.6	0.00e+00	0	27	0	1457520640	36	6313
2026-01-13 15:01:08.59	220.70	64.46	-32.5	-33.3	25.6	0.00e+00	0	28	0	1460666368	36	6478
2026-01-13 15:01:09.60	220.40	64.04	-32.5	-33.3	25.3	0.00e+00	0	27	0	1463812096	36	6486
2026-01-13 15:01:10.61	220.12	63.62	-32.5	-33.3	25.2	0.00e+00	0	28	0	1466957824	36	6472
2026-01-13 15:01:11.62	219.84	63.20	-32.2	-33.1	25.6	0.00e+00	0	28	0	1470103552	36	6282
2026-01-13 15:01:12.63	219.57	62.79	-32.1	-32.9	25.8	0.00e+00	0	28	0	1473249280	36	6195
2026-01-13 15:01:13.64	219.31	62.37	-32.6	-33.4	25.6	0.00e+00	0	28	0	1476395008	36	6532
2026-01-13 15:01:14.64	219.07	61.97	-33.5	-34.4	25.0	0.00e+00	0	27	0	1479540736	38	6533
2026-01-13 15:01:15.65	218.82	61.56	-34.6	-35.5	24.0	0.00e+00	0	28	0	1482686464	40	6630
2026-01-13 15:01:16.66	218.59	61.15	-34.9	-35.8	23.6	0.00e+00	0	28	0	1485832192	42	6125
2026-01-13 15:01:17.67	218.37	60.74	-34.2	-35.2	23.8	0.00e+00	0	27	0	1488977920	42	5675
2026-01-13 15:01:18.68	218.15	60.34	-33.5	-34.4	24.4	0.00e+00	0	28	0	1492123648	40	5843
2026-01-13 15:01:19.69	217.94	59.94	-33.3	-34.2	24.6	0.00e+00	0	27	0	1495269376	40	5709
2026-01-13 15:01:20.70	217.73	59.54	-32.8	-33.7	25.3	0.00e+00	0	27	0	1498415104	40	5354
2026-01-13 15:01:21.71	217.53	59.14	-32.5	-33.3	25.6	0.00e+00	0	27	0	1501560832	38	5780
2026-01-13 15:01:22.72	217.34	58.75	-32.6	-33.5	25.4	0.00e+00	0	27	0	1504706560	38	5897
2026-01-13 15:01:23.73	217.15	58.35	-33.4	-34.3	25.0	0.00e+00	0	27	0	1507852288	38	6459
2026-01-13 15:01:24.74	216.97	57.96	-34.3	-35.2	24.3	0.00e+00	0	27	0	1510998016	40	6394
2026-01-13 15:01:25.75	216.80	57.58	-35.2	-36.2	23.6	0.00e+00	0	27	0	1514143744	42	6362
2026-01-13 15:01:26.76	216.62	57.19	-35.0	-35.9	23.7	0.00e+00	0	27	0	1517289472	42	6178
2026-01-13 15:01:27.78	216.46	56.80	-34.2	-35.1	24.2	0.00e+00	0	27	0	1520435200	42	5650
2026-01-13 15:01:28.78	216.30	56.43	-34.2	-35.1	24.3	0.00e+00	0	27	0	1523580928	42	5647
2026-01-13 15:01:29.79	216.14	56.05	-33.6	-34.4	24.8	0.00e+00	0	27	0	1526726656	40	5839
2026-01-13 15:01:30.80	215.99	55.67	-33.2	-34.1	25.0	0.00e+00	0	27	0	1529872384	40	5633
2026-01-13 15:01:31.81	215.84	55.30	-33.7	-34.6	24.5	0.00e+00	0	28	0	1533018112	40	5928
2026-01-13 15:01:32.82	215.69	54.93	-34.2	-35.1	24.0	0.00e+00	0	27	0	1536163840	40	6344
2026-01-13 15:01:33.83	215.55	54.56	-34.8	-35.7	23.6	0.00e+00	0	27	0	1539309568	40	6784
2026-01-13 15:01:34.84	215.42	54.19	-35.6	-36.6	23.1	0.00e+00	0	27	0	1542455296	42	6662
2026-01-13 15:01:35.85	215.28	53.83	-36.3	-37.4	22.6	0.00e+00	0	27	0	1545601024	44	6506
2026-01-13 15:01:36.86	215.15	53.47	-36.3	-37.3	22.7	0.00e+00	0	28	0	1548746752	44	6445
2026-01-13 15:01:37.87	215.02	53.11	-35.8	-36.8	22.8	0.00e+00	0	27	0	1551892480	44	6094
2026-01-13 15:01:38.88	214.90	52.75	-35.8	-36.8	22.8	0.00e+00	0	27	0	1555038208	44	6079
2026-01-13 15:01:39.89	214.78	52.39	-34.9	-35.8	23.4	0.00e+00	0	27	0	1558183936	44	5459
2026-01-13 15:01:40.90	214.66	52.04	-34.9	-35.9	23.6	0.00e+00	0	27	0	1561329664	44	5491
2026-01-13 15:01:41.91	214.55	51.69	-35.1	-36.0	23.6	0.00e+00	0	27	0	1564475392	44	5574
2026-01-13 15:01:42.92	214.43	51.35	-35.3	-36.2	23.5	0.00e+00	0	27	0	1567621120	44	5720
2026-01-13 15:01:43.93	214.32	51.00	-35.2	-36.2	23.6	0.00e+00	0	27	0	1570766848	44	5660
2026-01-13 15:01:44.94	214.22	50.66	-35.2	-36.1	23.6	0.00e+00	0	27	0	1573912576	44	5631
2026-01-13 15:01:45.94	214.11	50.32	-35.5	-36.5	23.3	0.00e+00	0	27	0	1577058304	44	5879
2026-01-13 15:01:46.95	214.01	49.98	-35.6	-36.6	23.2	0.00e+00	0	27	0	1580204032	44	5935
2026-01-13 15:01:47.96	213.91	49.65	-36.0	-37.0	22.8	0.00e+00	0	27	0	1583349760	44	6257
2026-01-13 15:01:48.97	213.81	49.32	-36.4	-37.4	22.6	0.00e+00	0	27	0	1586495488	44	6532
2026-01-13 15:01:49.98	213.72	48.98	-36.7	-37.7	22.2	0.00e+00	0	28	0	1589641216	44	6802
2026-01-13 15:01:50.99	213.62	48.66	-36.8	-37.8	22.2	0.00e+00	0	27	0	1592786944	46	6112
2026-01-13 15:01:52.00	213.53	48.33	-36.6	-37.6	22.1	0.00e+00	0	28	0	1595932672	46	5983
2026-01-13 15:01:53.01	213.44	48.01	-36.2	-37.2	22.3	0.00e+00	0	27	0	1599078400	46	5723
2026-01-13 15:01:54.02	213.36	47.69	-35.7	-36.7	22.7	0.00e+00	0	27	0	1602224128	44	6003
2026-01-13 15:01:55.03	213.27	47.37	-35.5	-36.5	22.9	0.00e+00	0	27	0	1605369856	44	5874
2026-01-13 15:01:56.04	213.19	47.05	-35.6	-36.6	23.1	0.00e+00	0	28	0	1608515584	44	5931
2026-01-13 15:01:57.04	213.11	46.74	-35.9	-36.9	22.8	0.00e+00	0	27	0	1611661312	44	6180
2026-01-13 15:01:58.05	213.02	46.43	-36.3	-37.3	22.6	0.00e+00	0	28	0	1614807040	44	6479
2026-01-13 15:01:59.07	212.95	46.11	-36.8	-37.8	22.0	0.00e+00	0	27	0	1617952768	46	6131
2026-01-13 15:02:00.08	212.87	45.81	-37.4	-38.5	21.4	0.00e+00	0	28	0	1621098496	46	6618
2026-01-13 15:02:01.09	212.79	45.50	-37.5	-38.6	21.5	0.00e+00	0	27	0	1624244224	46	6654
2026-01-13 15:02:02.10	212.72	45.20	-37.1	-38.1	22.0	0.00e+00	0	27	0	1627389952	46	6308
2026-01-13 15:02:03.10	212.65	44.90	-36.6	-37.7	22.4	0.00e+00	0	27	0	1630535680	46	5996
2026-01-13 15:02:04.11	212.57	44.60	-36.7	-37.8	22.3	0.00e+00	0	27	0	1633681408	46	6066
2026-01-13 15:02:05.12	212.51	44.31	-36.6	-37.6	22.4	0.00e+00	0	28	0	1636827136	46	5937
2026-01-13 15:02:06.13	212.44	44.01	-36.7	-37.7	22.3	0.00e+00	0	27	0	1639972864	46	6054
2026-01-13 15:02:07.14	212.37	43.72	-36.9	-38.0	22.0	0.00e+00	0	27	0	1643118592	46	6222
2026-01-13 15:02:08.15	212.30	43.43	-37.3	-38.4	21.5	0.00e+00	0	28	0	1646264320	46	6535
2026-01-13 15:02:09.16	212.24	43.14	-37.6	-38.8	21.1	0.00e+00	0	28	0	1649410048	46	6831
2026-01-13 15:02:10.17	212.17	42.86	-37.7	-38.9	21.3	0.00e+00	0	27	0	1652555776	46	6916
2026-01-13 15:02:11.18	212.11	42.57	-37.2	-38.3	21.8	0.00e+00	0	28	0	1655701504	46	6465
2026-01-13 15:02:12.19	212.05	42.29	-36.5	-37.5	22.7	0.00e+00	0	28	0	1658847232	46	5874
2026-01-13 15:02:13.20	211.99	42.01	-36.3	-37.2	22.7	0.00e+00	0	28	0	1661992960	46	5722
2026-01-13 15:02:14.21	211.93	41.73	-36.0	-37.0	22.9	0.00e+00	0	28	0	1665138688	46	5534
2026-01-13 15:02:15.22	211.87	41.46	-35.8	-36.7	23.1	0.00e+00	0	28	0	1668284416	46	5394
2026-01-13 15:02:16.23	211.82	41.18	-36.1	-37.1	22.8	0.00e+00	0	28	0	1671430144	46	5596
2026-01-13 15:02:17.24	211.76	40.91	-36.0	-37.0	22.8	0.00e+00	0	28	0	1674575872	46	5578
2026-01-13 15:02:18.25	211.71	40.64	-36.2	-37.2	22.7	0.00e+00	0	27	0	1677721600	46	5672
2026-01-13 15:02:19.26	211.65	40.38	-36.4	-37.5	22.5	0.00e+00	0	28	0	1680867328	46	5873
2026-01-13 15:02:20.27	211.60	40.11	-36.3	-37.3	22.7	0.00e+00	0	28	0	1684013056	46	5745
2026-01-13 15:02:21.28	211.55	39.85	-36.1	-37.1	22.8	0.00e+00	0	27	0	1687158784	46	5648
2026-01-13 15:02:22.29	211.50	39.59	-36.1	-37.0	22.8	0.00e+00	0	28	0	1690304512	46	5594
2026-01-13 15:02:23.29	211.45	39.33	-36.2	-37.2	22.7	0.00e+00	0	27	0	1693450240	46	5699
2026-01-13 15:02:24.30	211.40	39.07	-36.4	-37.4	22.5	0.00e+00	0	27	0	1697644544	46	5842
2026-01-13 15:02:25.31	211.35	38.82	-36.8	-37.8	22.2	0.00e+00	0	27	0	1699741696	46	6131
2026-01-13 15:02:26.32	211.30	38.56	-36.8	-37.9	22.2	0.00e+00	0	28	0	1702887424	46	6147
2026-01-13 15:02:27.33	211.25	38.31	-36.6	-37.6	22.3	0.00e+00	0	28	0	1706033152	46	5976
2026-01-13 15:02:28.34	211.21	38.06	-36.5	-37.5	22.4	0.00e+00	0	28	0	1709178880	46	5902
2026-01-13 15:02:29.35	211.16	37.81	-36.0	-37.0	22.9	0.00e+00	0	28	0	1713373184	46	5560
2026-01-13 15:02:30.36	211.12	37.56	-35.7	-36.7	23.3	0.00e+00	0	27	0	1716518912	44	5996
2026-01-13 15:02:31.37	211.07	37.32	-35.6	-36.5	23.2	0.00e+00	0	27	0	1719664640	44	5918
2026-01-13 15:02:32.38	211.03	37.08	-35.7	-36.6	23.1	0.00e+00	0	27	0	1721761792	44	5985
2026-01-13 15:02:33.39	210.99	36.84	-35.5	-36.5	23.2	0.00e+00	0	27	0	1724907520	44	5912
2026-01-13 15:02:34.40	210.94	36.60	-35.6	-36.6	23.1	0.00e+00	0	28	0	1729101824	44	5968
2026-01-13 15:02:35.41	210.90	36.36	-35.7	-36.7	23.1	0.00e+00	0	28	0	1732247552	44	6010
2026-01-13 15:02:36.42	210.86	36.12	-35.7	-36.7	23.2	0.00e+00	0	28	0	1735393280	44	6001
2026-01-13 15:02:37.42	210.82	35.89	-35.4	-36.4	23.5	0.00e+00	0	28	0	1738539008	44	5815
2026-01-13 15:02:38.44	210.78	35.65	-35.1	-36.1	23.6	0.00e+00	0	28	0	1741684736	44	5601
2026-01-13 15:02:39.45	210.74	35.42	-35.3	-36.3	23.4	0.00e+00	0	28	0	1744830464	44	5740
2026-01-13 15:02:40.46	210.70	35.19	-35.4	-36.3	23.4	0.00e+00	0	28	0	1747976192	44	5771
2026-01-13 15:02:41.47	210.67	34.97	-35.5	-36.4	23.4	0.00e+00	0	28	0	1751121920	44	5836
2026-01-13 15:02:42.48	210.63	34.74	-35.2	-36.1	23.6	0.00e+00	0	28	0	1754267648	44	5635
2026-01-13 15:02:43.49	210.59	34.52	-35.1	-36.0	23.7	0.00e+00	0	28	0	1757413376	44	5571
2026-01-13 15:02:44.50	210.56	34.29	-35.0	-35.9	23.7	0.00e+00	0	28	0	1760559104	44	5510
2026-01-13 15:02:45.51	210.52	34.07	-34.8	-35.7	23.9	0.00e+00	0	28	0	1763704832	42	6010
2026-01-13 15:02:46.52	210.49	33.85	-34.4	-35.3	24.2	0.00e+00	0	28	0	1766850560	42	5787
2026-01-13 15:02:47.53	210.45	33.63	-34.4	-35.3	24.2	0.00e+00	0	28	0	1769996288	42	5734
2026-01-13 15:02:48.54	210.42	33.42	-34.2	-35.0	24.2	0.00e+00	0	28	0	1773142016	42	5579
2026-01-13 15:02:49.55	210.38	33.20	-34.2	-35.1	24.2	0.00e+00	0	28	0	1776287744	42	5632
2026-01-13 15:02:50.56	210.35	32.99	-34.3	-35.2	23.9	0.00e+00	0	28	0	1779433472	42	5675
2026-01-13 15:02:51.57	210.32	32.77	-34.4	-35.4	23.8	0.00e+00	0	28	0	1782579200	42	5794
2026-01-13 15:02:52.58	210.29	32.56	-34.6	-35.6	23.8	0.00e+00	0	28	0	1785724928	42	5951
2026-01-13 15:02:53.59	210.26	32.35	-34.7	-35.6	23.8	0.00e+00	0	28	0	1788870656	42	5983
2026-01-13 15:02:54.60	210.22	32.15	-34.8	-35.8	23.9	0.00e+00	0	28	0	1792016384	42	6068
2026-01-13 15:02:55.60	210.19	31.94	-34.8	-35.7	23.9	0.00e+00	0	27	0	1795162112	42	6037
2026-01-13 15:02:56.61	210.16	31.74	-34.7	-35.6	24.0	0.00e+00	0	28	0	1798307840	42	5938
2026-01-13 15:02:57.62	210.13	31.53	-34.6	-35.5	24.2	0.00e+00	0	28	0	1801453568	42	5879
2026-01-13 15:02:58.63	210.10	31.33	-34.6	-35.5	24.1	0.00e+00	0	28	0	1804599296	42	5924
2026-01-13 15:02:59.64	210.07	31.13	-34.5	-35.4	24.2	0.00e+00	0	28	0	1807745024	42	5841
2026-01-13 15:03:00.65	210.05	30.93	-34.6	-35.6	24.2	0.00e+00	0	28	0	1810890752	42	5936
2026-01-13 15:03:01.66	210.02	30.73	-34.4	-35.3	24.3	0.00e+00	0	28	0	1814036480	42	5761
2026-01-13 15:03:02.67	209.99	30.54	-34.5	-35.4	24.1	0.00e+00	0	28	0	1817182208	42	5829
2026-01-13 15:03:03.68	209.96	30.34	-34.6	-35.5	24.2	0.00e+00	0	28	0	1820327936	42	5879
2026-01-13 15:03:04.69	209.94	30.15	-34.4	-35.3	24.2	0.00e+00	0	28	0	1823473664	42	5773
2026-01-13 15:03:05.70	209.91	29.95	-34.2	-35.1	24.4	0.00e+00	0	28	0	1826619392	42	5634
2026-01-13 15:03:06.71	209.88	29.76	-34.3	-35.2	24.2	0.00e+00	0	28	0	1829765120	42	5692
2026-01-13 15:03:07.72	209.86	29.57	-34.2	-35.1	24.3	0.00e+00	0	28	0	1832910848	42	5620
2026-01-13 15:03:08.73	209.83	29.38	-34.4	-35.3	24.2	0.00e+00	0	28	0	1836056576	42	5760
2026-01-13 15:03:09.73	209.81	29.20	-34.4	-35.3	24.2	0.00e+00	0	28	0	1839202304	42	5768
2026-01-13 15:03:10.74	209.78	29.01	-34.4	-35.3	24.2	0.00e+00	0	28	0	1842348032	42	5742
2026-01-13 15:03:11.75	209.76	28.82	-34.5	-35.4	24.1	0.00e+00	0	28	0	1845493760	42	5834
2026-01-13 15:03:12.76	209.73	28.64	-34.6	-35.5	24.0	0.00e+00	0	28	0	1848639488	42	5902
2026-01-13 15:03:13.77	209.71	28.46	-34.8	-35.7	23.9	0.00e+00	0	28	0	1851785216	42	6023
2026-01-13 15:03:14.78	209.68	28.27	-34.7	-35.7	24.0	0.00e+00	0	28	0	1854930944	42	6002
2026-01-13 15:03:15.79	209.66	28.09	-34.7	-35.6	24.0	0.00e+00	0	28	0	1858076672	42	5984
2026-01-13 15:03:16.80	209.64	27.91	-34.6	-35.5	24.1	0.00e+00	0	28	0	1861222400	42	5903
2026-01-13 15:03:17.81	209.61	27.74	-34.3	-35.2	24.3	0.00e+00	0	28	0	1864368128	42	5686
2026-01-13 15:03:18.82	209.59	27.56	-34.3	-35.2	24.4	0.00e+00	0	28	0	1867513856	42	5675
2026-01-13 15:03:19.83	209.57	27.38	-33.9	-34.7	24.7	0.00e+00	0	28	0	1870659584	42	5389
2026-01-13 15:03:20.84	209.55	27.21	-33.7	-34.6	24.7	0.00e+00	0	28	0	1873805312	40	5950
2026-01-13 15:03:21.85	209.52	27.03	-33.8	-34.7	24.6	0.00e+00	0	28	0	1876951040	40	6009
2026-01-13 15:03:22.86	209.50	26.86	-33.7	-34.6	24.6	0.00e+00	0	28	0	1880096768	40	5966
2026-01-13 15:03:23.87	209.48	26.69	-33.5	-34.3	24.8	0.00e+00	0	28	0	1883242496	40	5790
2026-01-13 15:03:24.88	209.46	26.52	-33.4	-34.2	24.8	0.00e+00	0	28	0	1886388224	40	5721
2026-01-13 15:03:25.89	209.44	26.35	-33.3	-34.2	25.0	0.00e+00	0	28	0	1889533952	40	5692
2026-01-13 15:03:26.90	209.42	26.18	-33.3	-34.2	24.9	0.00e+00	0	28	0	1892679680	40	5697
2026-01-13 15:03:27.91	209.40	26.01	-33.3	-34.2	24.9	0.00e+00	0	28	0	1895825408	40	5686
2026-01-13 15:03:28.92	209.38	25.85	-33.2	-34.1	24.9	0.00e+00	0	28	0	1898971136	40	5617
2026-01-13 15:03:29.93	209.36	25.68	-33.2	-34.0	24.8	0.00e+00	0	28	0	1902116864	40	5586
2026-01-13 15:03:30.93	209.34	25.52	-33.2	-34.0	24.7	0.00e+00	0	28	0	1905262592	40	5588
2026-01-13 15:03:31.94	209.32	25.35	-33.3	-34.2	24.7	0.00e+00	0	28	0	1908408320	40	5677
2026-01-13 15:03:32.95	209.30	25.19	-33.4	-34.3	24.6	0.00e+00	0	28	0	1911554048	40	5744
2026-01-13 15:03:33.96	209.28	25.03	-33.4	-34.3	24.6	0.00e+00	0	28	0	1914699776	40	5772
2026-01-13 15:03:34.97	209.26	24.87	-33.4	-34.3	24.7	0.00e+00	0	27	0	1917845504	40	5750
2026-01-13 15:03:35.98	209.25	24.71	-33.5	-34.4	24.6	0.00e+00	0	28	0	1920991232	40	5837
2026-01-13 15:03:36.99	209.23	24.55	-33.5	-34.4	24.6	0.00e+00	0	28	0	1924136960	40	5799
2026-01-13 15:03:38.00	209.21	24.39	-33.5	-34.4	24.6	0.00e+00	0	28	0	1927282688	40	5795
2026-01-13 15:03:39.01	209.19	24.24	-33.6	-34.5	24.5	0.00e+00	0	28	0	1930428416	40	5882
2026-01-13 15:03:40.02	209.18	24.08	-33.6	-34.5	24.4	0.00e+00	0	28	0	1933574144	40	5913
2026-01-13 15:03:41.03	209.16	23.93	-33.6	-34.5	24.3	0.00e+00	0	28	0	1936719872	40	5915
2026-01-13 15:03:42.04	209.14	23.77	-33.8	-34.7	24.4	0.00e+00	0	28	0	1939865600	40	6009
2026-01-13 15:03:43.04	209.12	23.62	-33.9	-34.8	24.3	0.00e+00	0	27	0	1943011328	40	6068
2026-01-13 15:03:44.05	209.11	23.47	-33.8	-34.7	24.5	0.00e+00	0	28	0	1946157056	40	6018
2026-01-13 15:03:45.05	209.09	23.32	-33.8	-34.7	24.4	0.00e+00	0	28	0	1949302784	40	6043
2026-01-13 15:03:46.06	209.07	23.17	-33.8	-34.7	24.5	0.00e+00	0	28	0	1952448512	40	6019
2026-01-13 15:03:47.07	209.06	23.02	-33.5	-34.4	24.7	0.00e+00	0	27	0	1955594240	40	5812
2026-01-13 15:03:48.08	209.04	22.87	-33.4	-34.3	24.8	0.00e+00	0	27	0	1958739968	40	5738
2026-01-13 15:03:49.09	209.03	22.72	-33.6	-34.5	24.6	0.00e+00	0	27	0	1961885696	40	5890
2026-01-13 15:03:50.10	209.01	22.58	-33.4	-34.2	24.8	0.00e+00	0	27	0	1965031424	40	5720
2026-01-13 15:03:51.11	209.00	22.43	-33.2	-34.1	24.9	0.00e+00	0	27	0	1968177152	40	5620
2026-01-13 15:03:52.11	208.98	22.29	-33.3	-34.2	24.9	0.00e+00	0	28	0	1971322880	40	5677
2026-01-13 15:03:53.13	208.97	22.14	-33.3	-34.2	24.9	0.00e+00	0	28	0	1974468608	40	5688
2026-01-13 15:03:54.14	208.95	22.00	-33.3	-34.1	24.9	0.00e+00	0	28	0	1977614336	40	5650
2026-01-13 15:03:55.15	208.94	21.86	-33.3	-34.1	24.9	0.00e+00	0	27	0	1980760064	40	5649
2026-01-13 15:03:56.15	208.92	21.71	-33.2	-34.0	25.0	0.00e+00	0	28	0	1983905792	40	5586
2026-01-13 15:03:57.16	208.91	21.57	-33.2	-34.1	25.0	0.00e+00	0	28	0	1987051520	40	5597
2026-01-13 15:03:58.17	208.89	21.43	-33.3	-34.2	24.9	0.00e+00	0	27	0	1990197248	40	5660
2026-01-13 15:03:59.18	208.88	21.29	-33.2	-34.0	25.0	0.00e+00	0	27	0	1993342976	40	5590
2026-01-13 15:04:00.19	208.87	21.15	-33.3	-34.1	24.9	0.00e+00	0	28	0	1996488704	40	5643
2026-01-13 15:04:01.20	208.85	21.02	-33.3	-34.2	24.9	0.00e+00	0	28	0	1999634432	40	5695
2026-01-13 15:04:02.21	208.84	20.88	-33.4	-34.3	24.9	0.00e+00	0	28	0	2002780160	40	5729
2026-01-13 15:04:03.21	208.82	20.74	-33.3	-34.2	25.0	0.00e+00	0	27	0	2005925888	40	5668
2026-01-13 15:04:04.22	208.81	20.61	-33.4	-34.3	24.9	0.00e+00	0	27	0	2009071616	40	5748
2026-01-13 15:04:05.23	208.80	20.47	-33.5	-34.4	24.8	0.00e+00	0	27	0	2012217344	40	5831
2026-01-13 15:04:06.24	208.78	20.34	-33.5	-34.3	24.8	0.00e+00	0	28	0	2015363072	40	5762
2026-01-13 15:04:07.25	208.77	20.20	-33.6	-34.4	24.7	0.00e+00	0	27	0	2018508800	40	5844
