passes_logs/2026/01/13/R4.6S_Anadyr/R4.6S_Anadyr__20260113_215826_SUOMI_NPP_rec.log

#Pass ID: 20260113_215826_SUOMI NPP
#Satellite: SUOMI NPP
#Configuration: NPP
#almurnet v.1.7.20251203
#Start time: 2026-01-13 21:58:28

#Version: 2.2.20231116
#Station: R4.6S_Anadyr
#Location: 177.4865 lon 64.73178 lat
#TLE: 1 37849U 11061A   26013.55331121  .00000059  00000+0  48721-4 0  9992
#TLE: 2 37849  98.7808 315.6144 0002478  66.1553 293.9883 14.19524925736509

#Time	Az	El	Level	Level2	SNR	BER	BlckErr	Temp	State	Recorded	gain1	gain2
2026-01-13 21:58:28.17	100.70	0.12	-48.4	-60.9	3.5	1.52e+00	0	26	0	0	60	38970
2026-01-13 21:58:29.18	100.65	0.18	-48.5	-63.7	3.6	1.51e+00	0	27	104	0	60	55255
2026-01-13 21:58:30.19	100.59	0.23	-48.6	-63.7	3.6	1.51e+00	0	27	104	0	60	55651
2026-01-13 21:58:31.20	100.54	0.29	-48.5	-63.7	3.6	1.51e+00	0	27	104	0	60	55102
2026-01-13 21:58:32.21	100.49	0.34	-48.5	-63.6	3.6	1.51e+00	0	27	104	0	60	54922
2026-01-13 21:58:33.22	100.43	0.40	-48.5	-63.7	3.6	1.51e+00	0	27	104	0	60	55048
2026-01-13 21:58:34.23	100.38	0.45	-48.6	-63.7	3.5	1.51e+00	0	27	104	0	60	55585
2026-01-13 21:58:35.24	100.32	0.51	-48.4	-63.7	3.6	1.51e+00	0	27	104	0	60	55155
2026-01-13 21:58:36.24	100.27	0.56	-48.5	-63.7	3.6	1.51e+00	0	27	104	0	60	55074
2026-01-13 21:58:37.25	100.21	0.62	-48.4	-63.6	3.6	1.51e+00	0	27	104	0	60	54906
2026-01-13 21:58:38.26	100.16	0.68	-48.4	-63.6	3.6	1.51e+00	0	27	104	0	60	54525
2026-01-13 21:58:39.27	100.10	0.73	-48.4	-63.6	3.6	1.51e+00	0	27	104	0	60	54458
2026-01-13 21:58:40.28	100.04	0.79	-48.4	-63.5	3.6	1.51e+00	0	27	104	0	60	54376
2026-01-13 21:58:41.29	99.99	0.85	-48.2	-63.4	3.6	1.51e+00	0	27	104	0	60	53580
2026-01-13 21:58:42.30	99.93	0.90	-48.1	-63.3	3.6	1.51e+00	0	27	104	0	60	52745
2026-01-13 21:58:43.31	99.87	0.96	-47.7	-63.1	3.6	1.51e+00	0	27	104	0	60	51540
2026-01-13 21:58:44.32	99.82	1.02	-47.2	-62.8	3.6	1.51e+00	0	27	104	0	60	49769
2026-01-13 21:58:45.33	99.76	1.07	-45.8	-62.1	3.6	1.51e+00	0	27	104	0	60	46003
2026-01-13 21:58:46.34	99.70	1.13	-46.3	-61.6	3.6	1.51e+00	0	27	104	0	60	43393
2026-01-13 21:58:47.35	99.64	1.19	-46.3	-61.6	3.6	1.51e+00	0	27	104	0	60	43360
2026-01-13 21:58:48.36	99.59	1.24	-46.2	-61.6	3.6	1.51e+00	0	27	104	0	60	43658
2026-01-13 21:58:49.36	99.53	1.30	-46.2	-61.7	3.6	1.51e+00	0	27	104	0	60	43911
2026-01-13 21:58:50.37	99.47	1.36	-46.2	-61.5	3.5	1.51e+00	0	27	104	0	60	43082
2026-01-13 21:58:51.38	99.41	1.41	-46.2	-61.6	3.6	1.51e+00	0	27	104	0	60	43351
2026-01-13 21:58:52.39	99.35	1.47	-46.2	-61.6	3.6	1.51e+00	0	27	104	0	60	43387
2026-01-13 21:58:53.40	99.29	1.53	-46.2	-61.6	3.6	1.51e+00	0	27	104	0	60	43440
2026-01-13 21:58:54.41	99.23	1.59	-46.2	-61.6	3.6	1.51e+00	0	27	104	0	60	43706
2026-01-13 21:58:55.42	99.17	1.64	-46.2	-61.6	3.6	1.51e+00	0	27	104	0	60	43663
2026-01-13 21:58:56.43	99.11	1.70	-46.2	-61.7	3.6	1.51e+00	0	27	104	0	60	43830
2026-01-13 21:58:57.44	99.05	1.76	-46.2	-61.7	3.6	1.51e+00	0	27	104	0	60	43869
2026-01-13 21:58:58.45	98.99	1.82	-46.2	-61.6	3.6	1.51e+00	0	27	104	0	60	43481
2026-01-13 21:58:59.46	98.93	1.87	-46.2	-61.6	3.6	1.51e+00	0	27	104	0	60	43674
2026-01-13 21:59:00.47	98.87	1.93	-46.2	-61.6	3.6	1.51e+00	0	27	104	0	60	43430
2026-01-13 21:59:01.48	98.81	1.99	-46.2	-61.6	3.6	1.51e+00	0	27	104	0	60	43668
2026-01-13 21:59:02.49	98.75	2.05	-46.2	-61.5	3.6	1.51e+00	0	27	104	0	60	43136
2026-01-13 21:59:03.50	98.69	2.11	-46.2	-61.6	3.6	1.51e+00	0	27	104	0	60	43426
2026-01-13 21:59:04.51	98.63	2.16	-46.2	-61.5	3.6	1.51e+00	0	27	104	0	60	42834
2026-01-13 21:59:05.52	98.56	2.22	-46.2	-61.4	3.6	1.51e+00	0	27	104	0	60	42619
2026-01-13 21:59:06.53	98.50	2.28	-46.2	-61.5	3.6	1.51e+00	0	27	104	0	60	42945
2026-01-13 21:59:07.54	98.44	2.34	-46.3	-61.5	3.6	1.51e+00	0	27	104	0	60	42757
2026-01-13 21:59:08.55	98.38	2.40	-46.2	-61.6	3.6	1.51e+00	0	27	104	0	60	43476
2026-01-13 21:59:09.56	98.31	2.46	-46.2	-61.7	3.6	1.51e+00	0	27	104	0	60	43736
2026-01-13 21:59:10.57	98.25	2.52	-46.3	-61.6	3.6	1.51e+00	0	27	104	0	60	43439
2026-01-13 21:59:11.58	98.19	2.57	-46.2	-61.7	3.6	1.51e+00	0	27	104	0	60	43723
2026-01-13 21:59:12.59	98.12	2.63	-46.2	-61.5	3.6	1.51e+00	0	27	104	0	60	43126
2026-01-13 21:59:13.61	98.06	2.69	-46.2	-61.7	3.6	1.51e+00	0	27	104	0	60	44017
2026-01-13 21:59:14.61	97.99	2.75	-46.2	-61.5	3.6	1.51e+00	0	27	104	0	60	43090
2026-01-13 21:59:15.62	97.93	2.81	-46.2	-61.5	3.6	1.51e+00	0	27	104	0	60	42760
2026-01-13 21:59:16.63	97.86	2.87	-46.2	-61.0	3.6	1.51e+00	0	27	104	0	60	40769
2026-01-13 21:59:17.64	97.80	2.93	-46.2	-60.9	3.6	1.51e+00	0	28	104	0	60	39904
2026-01-13 21:59:18.65	97.73	2.99	-46.2	-60.9	3.6	1.51e+00	0	27	104	0	60	40095
2026-01-13 21:59:19.66	97.67	3.05	-46.3	-61.4	3.6	1.51e+00	0	27	104	0	60	42590
2026-01-13 21:59:20.67	97.60	3.11	-46.3	-61.1	3.5	1.51e+00	0	27	104	0	60	41066
2026-01-13 21:59:21.68	97.53	3.17	-46.1	-58.6	3.8	1.51e+00	0	28	104	0	60	30912
2026-01-13 21:59:22.69	97.47	3.23	-45.8	-54.4	5.3	6.99e-01	90	28	0	0	60	19053
2026-01-13 21:59:23.70	97.40	3.29	-45.5	-52.4	7.3	2.08e-01	0	27	0	2097152	60	15019
2026-01-13 21:59:24.71	97.33	3.35	-44.9	-50.4	9.8	4.22e-02	92	27	0	4194304	60	11940
2026-01-13 21:59:25.72	97.26	3.41	-44.5	-49.1	11.4	2.88e-03	91	28	0	6291456	60	10343
2026-01-13 21:59:26.73	97.20	3.47	-44.8	-49.6	10.3	7.54e-04	4	28	0	8388608	60	10933
2026-01-13 21:59:27.74	97.13	3.53	-43.9	-47.9	12.6	7.63e-03	92	28	0	9437184	60	8982
2026-01-13 21:59:28.75	97.06	3.59	-46.2	-59.9	3.6	3.25e-01	9	28	104	11534336	60	35570
2026-01-13 21:59:29.76	96.99	3.65	-45.6	-59.5	3.6	1.51e+00	0	28	104	11534336	60	34284
2026-01-13 21:59:30.77	96.92	3.71	-43.6	-47.1	5.8	1.49e+00	0	28	104	11534336	60	8165
2026-01-13 21:59:31.78	96.85	3.77	-43.9	-47.6	13.1	1.51e-03	92	28	0	11534336	60	8626
2026-01-13 21:59:32.79	96.78	3.83	-43.1	-46.1	14.6	9.10e-06	92	28	0	13631488	60	7283
2026-01-13 21:59:33.80	96.71	3.89	-42.8	-45.8	14.9	0.00e+00	0	28	0	15728640	58	7879
2026-01-13 21:59:34.81	96.64	3.96	-41.9	-44.7	15.9	0.00e+00	92	28	0	16777216	58	6959
2026-01-13 21:59:35.82	96.57	4.02	-41.7	-44.5	16.1	0.00e+00	0	28	0	18874368	56	7596
2026-01-13 21:59:36.83	96.50	4.08	-41.6	-44.2	16.6	0.00e+00	92	28	0	20971520	56	7413
2026-01-13 21:59:37.84	96.43	4.14	-41.3	-43.6	17.1	0.00e+00	0	28	0	23068672	56	6898
2026-01-13 21:59:38.85	96.36	4.20	-41.8	-44.2	17.0	0.00e+00	90	28	0	25165824	56	7373
2026-01-13 21:59:39.86	96.29	4.26	-41.3	-43.3	17.5	0.00e+00	37	28	0	26214400	56	6691
2026-01-13 21:59:40.87	96.21	4.32	-41.0	-42.9	17.8	0.00e+00	82	28	0	28311552	56	6338
2026-01-13 21:59:41.88	96.14	4.39	-41.2	-43.1	17.6	0.00e+00	91	28	0	30408704	56	6520
2026-01-13 21:59:42.89	96.07	4.45	-40.7	-42.4	18.2	0.00e+00	0	28	0	32505856	54	6726
2026-01-13 21:59:43.90	96.00	4.51	-40.7	-42.5	18.3	0.00e+00	87	28	0	34603008	54	6823
2026-01-13 21:59:44.91	95.92	4.57	-41.0	-42.8	18.0	0.00e+00	0	28	0	36700160	54	7083
2026-01-13 21:59:45.92	95.85	4.63	-41.1	-43.0	17.8	0.00e+00	92	28	0	37748736	54	7232
2026-01-13 21:59:46.93	95.77	4.70	-41.0	-42.9	18.0	0.00e+00	0	28	0	39845888	54	7120
2026-01-13 21:59:47.94	95.70	4.76	-40.7	-42.5	18.5	0.00e+00	41	28	0	41943040	54	6818
2026-01-13 21:59:48.95	95.62	4.82	-40.3	-42.0	18.9	0.00e+00	92	28	0	44040192	54	6454
2026-01-13 21:59:49.95	95.55	4.88	-40.4	-42.2	18.8	0.00e+00	0	28	0	46137344	54	6586
2026-01-13 21:59:50.96	95.47	4.95	-40.4	-42.1	18.7	0.00e+00	91	28	0	47185920	54	6521
2026-01-13 21:59:51.97	95.40	5.01	-40.5	-42.2	18.6	0.00e+00	0	28	0	49283072	54	6610
2026-01-13 21:59:52.98	95.32	5.07	-40.3	-42.0	19.0	0.00e+00	91	27	0	51380224	54	6452
2026-01-13 21:59:53.99	95.25	5.13	-40.2	-42.0	18.8	0.00e+00	0	28	0	53477376	54	6414
2026-01-13 21:59:55.00	95.17	5.20	-40.1	-42.0	18.8	0.00e+00	91	28	0	55574528	54	6430
2026-01-13 21:59:56.01	95.09	5.26	-40.1	-42.1	18.8	0.00e+00	79	28	0	56623104	54	6484
2026-01-13 21:59:57.02	95.02	5.32	-40.1	-42.0	18.9	0.00e+00	0	28	0	58720256	54	6463
2026-01-13 21:59:58.03	94.94	5.39	-40.2	-42.2	18.9	0.00e+00	61	28	0	60817408	54	6564
2026-01-13 21:59:59.04	94.86	5.45	-40.6	-42.5	18.6	0.00e+00	0	28	0	62914560	54	6780
2026-01-13 22:00:00.05	94.78	5.51	-40.2	-41.8	19.1	0.00e+00	92	27	0	65011712	54	6299
2026-01-13 22:00:01.06	94.70	5.58	-40.2	-41.8	19.2	0.00e+00	0	28	0	66060288	54	6261
2026-01-13 22:00:02.07	94.62	5.64	-40.0	-41.6	19.3	0.00e+00	92	28	0	68157440	54	6108
2026-01-13 22:00:03.08	94.54	5.70	-40.0	-41.5	19.3	0.00e+00	92	28	0	70254592	54	6095
2026-01-13 22:00:04.09	94.46	5.77	-39.9	-41.4	19.4	0.00e+00	0	28	0	72351744	54	6006
2026-01-13 22:00:05.10	94.38	5.83	-39.8	-41.3	19.6	0.00e+00	65	28	0	74448896	54	5921
2026-01-13 22:00:06.11	94.30	5.90	-40.0	-41.5	19.4	0.00e+00	0	28	0	75497472	54	6096
2026-01-13 22:00:07.12	94.22	5.96	-40.0	-41.5	19.6	0.00e+00	92	28	0	77594624	54	6040
2026-01-13 22:00:08.13	94.14	6.03	-40.1	-41.5	19.5	0.00e+00	0	28	0	79691776	54	6088
2026-01-13 22:00:09.14	94.06	6.09	-40.3	-41.8	19.1	0.00e+00	92	28	0	81788928	54	6259
2026-01-13 22:00:10.15	93.98	6.15	-40.3	-41.7	19.3	0.00e+00	38	28	0	83886080	54	6221
2026-01-13 22:00:11.16	93.89	6.22	-40.5	-42.0	19.1	0.00e+00	60	28	0	84934656	54	6450
2026-01-13 22:00:12.17	93.81	6.28	-40.1	-41.5	19.5	0.00e+00	92	28	0	87031808	54	6047
2026-01-13 22:00:13.18	93.73	6.35	-40.0	-41.4	19.8	0.00e+00	0	28	0	89128960	54	5995
2026-01-13 22:00:14.19	93.64	6.41	-40.2	-41.7	19.5	0.00e+00	92	28	0	91226112	54	6187
2026-01-13 22:00:15.19	93.56	6.48	-40.1	-41.6	19.5	0.00e+00	0	28	0	93323264	54	6143
2026-01-13 22:00:16.20	93.47	6.54	-40.1	-41.6	19.6	0.00e+00	92	28	0	94371840	54	6140
2026-01-13 22:00:17.21	93.39	6.61	-40.1	-41.6	19.5	0.00e+00	10	28	0	96468992	54	6111
2026-01-13 22:00:18.22	93.30	6.67	-39.7	-41.1	20.0	0.00e+00	92	28	0	98566144	52	6494
2026-01-13 22:00:19.23	93.22	6.74	-40.2	-41.6	19.6	0.00e+00	92	28	0	100663296	52	6880
2026-01-13 22:00:20.24	93.13	6.81	-39.9	-41.3	20.0	0.00e+00	0	27	0	102760448	52	6642
2026-01-13 22:00:21.25	93.05	6.87	-40.2	-41.6	19.6	0.00e+00	92	28	0	104857600	52	6884
2026-01-13 22:00:22.26	92.96	6.94	-40.3	-41.7	19.6	0.00e+00	0	28	0	105906176	52	6951
2026-01-13 22:00:23.27	92.87	7.00	-40.3	-41.8	19.4	0.00e+00	92	28	0	108003328	52	7026
2026-01-13 22:00:24.27	92.79	7.07	-40.2	-41.7	19.5	0.00e+00	0	28	0	110100480	52	6987
2026-01-13 22:00:25.28	92.70	7.13	-40.2	-41.7	19.6	0.00e+00	92	28	0	112197632	52	6946
2026-01-13 22:00:26.29	92.61	7.20	-40.5	-42.0	19.2	0.00e+00	90	28	0	114294784	52	7242
2026-01-13 22:00:27.30	92.52	7.27	-40.5	-42.1	19.2	0.00e+00	0	28	0	115343360	52	7265
2026-01-13 22:00:28.31	92.43	7.33	-40.4	-42.0	19.1	0.00e+00	88	28	0	117440512	52	7181
2026-01-13 22:00:29.32	92.34	7.40	-40.6	-42.2	19.0	0.00e+00	0	28	0	119537664	52	7380
2026-01-13 22:00:30.33	92.25	7.47	-40.6	-42.2	18.9	0.00e+00	78	28	0	121634816	52	7410
2026-01-13 22:00:31.34	92.16	7.53	-40.5	-42.1	19.1	0.00e+00	0	28	0	123731968	52	7265
2026-01-13 22:00:32.35	92.07	7.60	-40.7	-42.2	19.1	0.00e+00	92	28	0	124780544	52	7409
2026-01-13 22:00:33.36	91.98	7.67	-40.5	-42.0	19.3	0.00e+00	91	28	0	126877696	52	7227
2026-01-13 22:00:34.37	91.89	7.73	-40.6	-42.1	19.0	0.00e+00	0	28	0	128974848	52	7334
2026-01-13 22:00:35.38	91.79	7.80	-40.4	-41.9	19.3	0.00e+00	92	28	0	131072000	52	7162
2026-01-13 22:00:36.39	91.70	7.87	-40.3	-41.9	19.4	0.00e+00	0	28	0	133169152	52	7120
2026-01-13 22:00:37.40	91.61	7.94	-40.4	-41.9	19.4	0.00e+00	92	28	0	134217728	52	7160
2026-01-13 22:00:38.41	91.51	8.00	-40.5	-42.0	19.4	0.00e+00	0	28	0	136314880	52	7194
2026-01-13 22:00:39.42	91.42	8.07	-39.9	-41.3	19.9	0.00e+00	90	28	0	138412032	52	6689
2026-01-13 22:00:40.42	91.33	8.14	-39.9	-41.4	19.9	0.00e+00	92	28	0	140509184	52	6702
2026-01-13 22:00:41.44	91.23	8.21	-39.7	-41.1	20.0	0.00e+00	0	28	0	142606336	52	6510
2026-01-13 22:00:42.45	91.13	8.28	-39.7	-41.2	20.1	0.00e+00	92	28	0	143654912	52	6563
2026-01-13 22:00:43.45	91.04	8.34	-39.9	-41.4	19.9	0.00e+00	0	28	0	145752064	52	6728
2026-01-13 22:00:44.47	90.94	8.41	-39.9	-41.3	20.0	0.00e+00	78	28	0	147849216	52	6665
2026-01-13 22:00:45.47	90.85	8.48	-39.9	-41.3	20.1	0.00e+00	0	28	0	149946368	52	6631
2026-01-13 22:00:46.48	90.75	8.55	-39.7	-41.0	20.3	0.00e+00	92	28	0	152043520	52	6410
2026-01-13 22:00:47.49	90.65	8.62	-39.5	-40.7	20.5	0.00e+00	91	28	0	153092096	52	6240
2026-01-13 22:00:48.50	90.55	8.68	-39.2	-40.4	20.8	0.00e+00	37	28	0	155189248	52	5998
2026-01-13 22:00:49.51	90.45	8.75	-39.2	-40.4	20.7	0.00e+00	92	28	0	157286400	52	6010
2026-01-13 22:00:50.52	90.35	8.82	-39.3	-40.5	20.7	0.00e+00	0	28	0	159383552	52	6084
2026-01-13 22:00:51.53	90.25	8.89	-39.5	-40.8	20.6	0.00e+00	92	28	0	161480704	52	6251
2026-01-13 22:00:52.54	90.15	8.96	-39.6	-40.9	20.4	0.00e+00	0	28	0	162529280	52	6320
2026-01-13 22:00:53.55	90.05	9.03	-39.6	-41.0	20.4	0.00e+00	92	28	0	164626432	52	6393
2026-01-13 22:00:54.56	89.95	9.10	-39.3	-40.5	20.7	0.00e+00	36	28	0	166723584	52	6094
2026-01-13 22:00:55.57	89.85	9.17	-39.2	-40.5	20.8	0.00e+00	11	28	0	168820736	52	6053
2026-01-13 22:00:56.58	89.75	9.24	-39.0	-40.2	21.0	0.00e+00	90	28	0	170917888	52	5892
2026-01-13 22:00:57.60	89.64	9.31	-38.8	-40.1	21.2	0.00e+00	0	28	0	173015040	52	5764
2026-01-13 22:00:58.61	89.54	9.38	-39.0	-40.3	21.0	0.00e+00	92	28	0	174063616	52	5904
2026-01-13 22:00:59.62	89.44	9.45	-38.9	-40.2	21.1	0.00e+00	0	28	0	176160768	52	5837
2026-01-13 22:01:00.63	89.33	9.52	-39.2	-40.5	20.8	0.00e+00	92	28	0	178257920	52	6042
2026-01-13 22:01:01.64	89.23	9.59	-39.5	-40.8	20.6	0.00e+00	41	28	0	180355072	52	6267
2026-01-13 22:01:02.64	89.12	9.66	-39.7	-41.0	20.3	0.00e+00	90	28	0	182452224	52	6432
2026-01-13 22:01:03.65	89.02	9.73	-39.6	-40.9	20.4	0.00e+00	92	28	0	183500800	52	6365
2026-01-13 22:01:04.66	88.91	9.80	-39.6	-40.8	20.6	0.00e+00	0	28	0	185597952	52	6310
2026-01-13 22:01:05.67	88.81	9.87	-39.3	-40.5	20.8	0.00e+00	71	28	0	187695104	52	6064
2026-01-13 22:01:06.68	88.70	9.94	-39.2	-40.4	20.9	0.00e+00	0	28	0	189792256	52	5989
2026-01-13 22:01:07.69	88.59	10.01	-39.1	-40.2	21.0	0.00e+00	91	28	0	191889408	52	5895
2026-01-13 22:01:08.70	88.48	10.08	-39.3	-40.4	20.8	0.00e+00	0	28	0	192937984	52	6030
2026-01-13 22:01:09.70	88.37	10.15	-39.3	-40.5	20.8	0.00e+00	91	28	0	195035136	52	6060
2026-01-13 22:01:10.71	88.26	10.22	-39.4	-40.7	20.7	0.00e+00	90	28	0	197132288	52	6197
2026-01-13 22:01:11.72	88.15	10.29	-39.8	-41.2	20.2	0.00e+00	0	28	0	199229440	52	6548
2026-01-13 22:01:12.73	88.04	10.36	-39.9	-41.2	20.2	0.00e+00	49	28	0	201326592	52	6586
2026-01-13 22:01:13.74	87.93	10.43	-40.0	-41.3	20.1	0.00e+00	0	28	0	202375168	52	6686
2026-01-13 22:01:14.75	87.82	10.50	-40.0	-41.3	20.1	0.00e+00	91	28	0	204472320	52	6655
2026-01-13 22:01:15.76	87.71	10.58	-39.6	-40.8	20.5	0.00e+00	0	28	0	206569472	52	6317
2026-01-13 22:01:16.77	87.60	10.65	-39.6	-40.9	20.5	0.00e+00	91	28	0	208666624	52	6323
2026-01-13 22:01:17.78	87.48	10.72	-39.4	-40.6	20.8	0.00e+00	40	28	0	210763776	52	6155
2026-01-13 22:01:18.79	87.37	10.79	-39.4	-40.6	20.8	0.00e+00	0	28	0	211812352	52	6151
2026-01-13 22:01:19.80	87.25	10.86	-39.7	-41.0	20.5	0.00e+00	92	28	0	213909504	52	6439
2026-01-13 22:01:20.81	87.14	10.93	-39.7	-41.0	20.4	0.00e+00	0	28	0	216006656	52	6453
2026-01-13 22:01:21.82	87.02	11.01	-39.8	-41.2	20.2	0.00e+00	91	28	0	218103808	52	6552
2026-01-13 22:01:22.83	86.91	11.08	-39.7	-41.0	20.3	0.00e+00	0	28	0	220200960	52	6450
2026-01-13 22:01:23.84	86.79	11.15	-39.5	-40.8	20.6	0.00e+00	92	28	0	221249536	52	6268
2026-01-13 22:01:24.85	86.67	11.22	-39.6	-40.9	20.4	0.00e+00	40	28	0	223346688	52	6366
2026-01-13 22:01:25.86	86.55	11.29	-39.3	-40.6	20.8	0.00e+00	0	28	0	225443840	52	6111
2026-01-13 22:01:26.87	86.44	11.37	-39.4	-40.6	20.8	0.00e+00	92	28	0	227540992	52	6143
2026-01-13 22:01:27.88	86.32	11.44	-39.4	-40.6	20.8	0.00e+00	0	28	0	229638144	52	6155
2026-01-13 22:01:28.89	86.20	11.51	-39.4	-40.6	20.8	0.00e+00	87	28	0	230686720	52	6151
2026-01-13 22:01:29.90	86.08	11.58	-39.6	-40.8	20.7	0.00e+00	0	28	0	232783872	52	6269
2026-01-13 22:01:30.91	85.96	11.66	-39.6	-40.8	20.6	0.00e+00	92	28	0	234881024	52	6293
2026-01-13 22:01:31.92	85.83	11.73	-39.2	-40.4	21.0	0.00e+00	41	28	0	236978176	52	5998
2026-01-13 22:01:32.92	85.71	11.80	-39.3	-40.5	20.9	0.00e+00	21	28	0	239075328	52	6064
2026-01-13 22:01:33.93	85.59	11.88	-39.0	-40.1	21.2	0.00e+00	92	28	0	240123904	52	5820
2026-01-13 22:01:34.94	85.47	11.95	-38.8	-39.9	21.4	0.00e+00	0	28	0	242221056	50	6318
2026-01-13 22:01:35.95	85.34	12.02	-38.7	-39.8	21.5	0.00e+00	45	28	0	244318208	50	6282
2026-01-13 22:01:36.96	85.22	12.10	-38.7	-39.8	21.5	0.00e+00	0	28	0	246415360	50	6252
2026-01-13 22:01:37.97	85.09	12.17	-38.5	-39.6	21.7	0.00e+00	92	28	0	248512512	50	6125
2026-01-13 22:01:38.98	84.97	12.24	-38.5	-39.6	21.3	0.00e+00	0	28	0	249561088	50	6135
2026-01-13 22:01:39.99	84.84	12.32	-38.4	-39.4	21.8	0.00e+00	57	28	0	251658240	50	6031
2026-01-13 22:01:41.00	84.71	12.39	-38.4	-39.5	21.8	0.00e+00	92	28	0	253755392	50	6052
2026-01-13 22:01:42.01	84.58	12.46	-38.4	-39.5	21.8	0.00e+00	0	28	0	255852544	50	6046
2026-01-13 22:01:43.02	84.45	12.54	-38.4	-39.4	21.9	0.00e+00	89	28	0	257949696	50	6007
2026-01-13 22:01:44.03	84.33	12.61	-38.4	-39.5	21.8	0.00e+00	0	28	0	258998272	50	6036
2026-01-13 22:01:45.04	84.20	12.68	-38.4	-39.4	21.9	0.00e+00	55	28	0	261095424	50	6009
2026-01-13 22:01:46.05	84.06	12.76	-38.5	-39.6	22.0	0.00e+00	0	28	0	263192576	50	6133
2026-01-13 22:01:47.06	83.93	12.83	-38.2	-39.2	22.0	0.00e+00	92	28	0	265289728	50	5873
2026-01-13 22:01:48.07	83.80	12.91	-38.4	-39.4	21.9	0.00e+00	92	28	0	267386880	50	6002
2026-01-13 22:01:49.08	83.67	12.98	-38.5	-39.5	21.8	0.00e+00	0	28	0	269484032	50	6092
2026-01-13 22:01:50.09	83.54	13.06	-38.5	-39.5	21.9	0.00e+00	75	28	0	270532608	50	6087
2026-01-13 22:01:51.10	83.40	13.13	-38.5	-39.5	21.8	0.00e+00	0	28	0	272629760	50	6100
2026-01-13 22:01:52.11	83.27	13.20	-38.3	-39.3	22.0	0.00e+00	92	28	0	274726912	50	5956
2026-01-13 22:01:53.12	83.13	13.28	-38.2	-39.3	22.1	0.00e+00	0	28	0	276824064	50	5933
2026-01-13 22:01:54.13	82.99	13.35	-38.3	-39.3	22.0	0.00e+00	92	28	0	278921216	50	5946
2026-01-13 22:01:55.14	82.86	13.43	-38.3	-39.4	22.0	0.00e+00	91	28	0	279969792	50	5975
2026-01-13 22:01:56.15	82.72	13.50	-38.2	-39.2	22.1	0.00e+00	0	28	0	282066944	50	5847
2026-01-13 22:01:57.16	82.58	13.58	-38.3	-39.4	22.1	0.00e+00	92	28	0	284164096	50	5968
2026-01-13 22:01:58.16	82.44	13.65	-38.4	-39.5	21.8	0.00e+00	0	28	0	286261248	50	6068
2026-01-13 22:01:59.18	82.30	13.73	-38.4	-39.5	21.9	0.00e+00	92	28	0	288358400	50	6055
2026-01-13 22:02:00.19	82.16	13.80	-38.2	-39.2	22.1	0.00e+00	0	28	0	289406976	50	5866
2026-01-13 22:02:01.20	82.02	13.88	-38.3	-39.3	22.0	0.00e+00	90	28	0	291504128	50	5942
2026-01-13 22:02:02.21	81.88	13.95	-38.2	-39.3	21.9	0.00e+00	88	28	0	293601280	50	5917
2026-01-13 22:02:03.22	81.74	14.03	-38.3	-39.3	21.9	0.00e+00	0	28	0	295698432	50	5955
2026-01-13 22:02:04.23	81.59	14.10	-38.2	-39.3	22.0	0.00e+00	92	28	0	297795584	50	5937
2026-01-13 22:02:05.24	81.45	14.18	-38.1	-39.1	22.2	0.00e+00	0	28	0	298844160	50	5796
2026-01-13 22:02:06.25	81.31	14.25	-38.1	-39.2	22.2	0.00e+00	73	28	0	300941312	50	5832
2026-01-13 22:02:07.26	81.16	14.33	-38.1	-39.1	22.3	0.00e+00	0	28	0	303038464	50	5788
2026-01-13 22:02:08.27	81.01	14.40	-37.9	-38.9	22.3	0.00e+00	92	28	0	305135616	50	5639
2026-01-13 22:02:09.28	80.87	14.48	-38.1	-39.2	22.1	0.00e+00	22	28	0	307232768	50	5838
2026-01-13 22:02:10.29	80.72	14.56	-38.2	-39.3	22.0	0.00e+00	0	28	0	309329920	50	5913
2026-01-13 22:02:11.30	80.57	14.63	-38.4	-39.5	21.7	0.00e+00	92	28	0	310378496	50	6078
2026-01-13 22:02:12.31	80.42	14.71	-38.6	-39.7	21.7	0.00e+00	0	28	0	312475648	50	6207
2026-01-13 22:02:13.32	80.27	14.78	-38.4	-39.4	21.8	0.00e+00	73	28	0	314572800	50	6030
2026-01-13 22:02:14.33	80.12	14.86	-38.4	-39.5	21.8	0.00e+00	0	28	0	316669952	50	6060
2026-01-13 22:02:15.34	79.97	14.93	-38.5	-39.5	21.8	0.00e+00	92	28	0	318767104	50	6092
2026-01-13 22:02:16.35	79.82	15.01	-38.8	-40.0	21.5	0.00e+00	41	28	0	319815680	50	6396
2026-01-13 22:02:17.36	79.66	15.09	-39.0	-40.1	21.3	0.00e+00	92	28	0	321912832	50	6539
2026-01-13 22:02:18.37	79.51	15.16	-39.1	-40.2	21.2	0.00e+00	92	28	0	324009984	50	6607
2026-01-13 22:02:19.38	79.35	15.24	-39.0	-40.2	21.3	0.00e+00	0	28	0	326107136	50	6555
2026-01-13 22:02:20.39	79.20	15.31	-39.0	-40.1	21.4	0.00e+00	55	28	0	328204288	50	6524
2026-01-13 22:02:21.40	79.04	15.39	-38.7	-39.8	21.5	0.00e+00	0	28	0	329252864	50	6281
2026-01-13 22:02:22.41	78.88	15.46	-38.6	-39.7	21.7	0.00e+00	92	28	0	331350016	50	6216
2026-01-13 22:02:23.42	78.73	15.54	-38.6	-39.7	21.0	0.00e+00	0	28	0	333447168	50	6174
2026-01-13 22:02:24.43	78.57	15.62	-38.7	-39.7	21.6	0.00e+00	90	28	0	335544320	50	6241
2026-01-13 22:02:25.44	78.41	15.69	-38.9	-40.0	21.5	0.00e+00	92	28	0	337641472	50	6398
2026-01-13 22:02:26.45	78.25	15.77	-39.0	-40.1	21.3	0.00e+00	0	28	0	338690048	50	6519
2026-01-13 22:02:27.46	78.08	15.84	-39.2	-40.4	21.2	0.00e+00	37	28	0	340787200	50	6750
2026-01-13 22:02:28.46	77.92	15.92	-39.3	-40.5	21.2	0.00e+00	0	28	0	342884352	50	6815
2026-01-13 22:02:29.47	77.76	15.99	-39.2	-40.4	21.1	0.00e+00	72	28	0	344981504	50	6742
2026-01-13 22:02:30.48	77.60	16.07	-39.1	-40.3	21.3	0.00e+00	0	28	0	347078656	50	6664
2026-01-13 22:02:31.49	77.43	16.15	-39.3	-40.5	21.0	0.00e+00	92	28	0	348127232	50	6842
2026-01-13 22:02:32.50	77.27	16.22	-39.3	-40.5	21.0	0.00e+00	90	28	0	350224384	50	6846
2026-01-13 22:02:33.51	77.10	16.30	-39.3	-40.5	21.0	0.00e+00	0	28	0	352321536	50	6814
2026-01-13 22:02:34.52	76.93	16.37	-39.3	-40.5	21.0	0.00e+00	72	28	0	354418688	50	6846
2026-01-13 22:02:35.53	76.77	16.45	-39.2	-40.3	21.3	0.00e+00	0	28	0	356515840	50	6675
2026-01-13 22:02:36.54	76.60	16.53	-39.1	-40.3	21.3	0.00e+00	92	27	0	357564416	50	6632
2026-01-13 22:02:37.54	76.43	16.60	-38.9	-40.0	21.5	0.00e+00	0	28	0	359661568	50	6421
2026-01-13 22:02:38.55	76.26	16.68	-38.9	-40.0	21.6	0.00e+00	92	28	0	361758720	50	6400
2026-01-13 22:02:39.56	76.09	16.75	-38.7	-39.7	21.8	0.00e+00	37	28	0	363855872	50	6238
2026-01-13 22:02:40.57	75.91	16.83	-38.3	-39.3	22.1	0.00e+00	0	28	0	365953024	50	5928
2026-01-13 22:02:41.58	75.74	16.90	-38.4	-39.4	22.0	0.00e+00	81	28	0	367001600	50	6010
2026-01-13 22:02:42.59	75.57	16.98	-38.5	-39.6	21.9	0.00e+00	0	28	0	369098752	50	6115
2026-01-13 22:02:43.60	75.39	17.06	-38.7	-39.7	21.7	0.00e+00	92	28	0	371195904	50	6243
2026-01-13 22:02:44.61	75.21	17.13	-38.8	-39.9	21.7	0.00e+00	0	28	0	373293056	50	6325
2026-01-13 22:02:45.62	75.04	17.21	-38.5	-39.5	21.9	0.00e+00	92	28	0	375390208	50	6073
2026-01-13 22:02:46.63	74.86	17.28	-38.6	-39.7	21.8	0.00e+00	39	28	0	376438784	50	6215
2026-01-13 22:02:47.64	74.68	17.36	-38.5	-39.5	22.0	0.00e+00	0	28	0	378535936	50	6084
2026-01-13 22:02:48.65	74.50	17.43	-38.7	-39.8	21.8	0.00e+00	92	28	0	380633088	50	6249
2026-01-13 22:02:49.66	74.32	17.51	-38.7	-39.7	21.6	0.00e+00	0	28	0	382730240	50	6230
2026-01-13 22:02:50.67	74.14	17.58	-38.9	-40.0	21.7	0.00e+00	34	28	0	384827392	50	6405
2026-01-13 22:02:51.68	73.96	17.66	-38.7	-39.7	21.9	0.00e+00	0	28	0	385875968	50	6204
2026-01-13 22:02:52.69	73.77	17.73	-38.4	-39.4	22.0	0.00e+00	90	28	0	387973120	50	6024
2026-01-13 22:02:53.70	73.59	17.81	-38.4	-39.5	22.0	0.00e+00	0	28	0	390070272	50	6040
2026-01-13 22:02:54.71	73.40	17.88	-38.6	-39.7	21.9	0.00e+00	0	28	0	392167424	50	6201
2026-01-13 22:02:55.72	73.22	17.96	-38.7	-39.8	21.8	0.00e+00	92	28	0	394264576	50	6255
2026-01-13 22:02:56.73	73.03	18.03	-38.9	-40.0	21.6	0.00e+00	0	28	0	395313152	50	6450
2026-01-13 22:02:57.74	72.84	18.11	-39.0	-40.1	21.5	0.00e+00	91	28	0	397410304	50	6493
2026-01-13 22:02:58.75	72.65	18.18	-39.1	-40.2	21.4	0.00e+00	0	28	0	399507456	50	6573
2026-01-13 22:02:59.76	72.46	18.26	-38.9	-40.0	21.7	0.00e+00	77	28	0	401604608	50	6403
2026-01-13 22:03:00.77	72.27	18.33	-38.9	-40.0	21.7	0.00e+00	0	28	0	403701760	50	6398
2026-01-13 22:03:01.78	72.08	18.41	-38.8	-39.9	21.6	0.00e+00	50	28	0	405798912	50	6355
2026-01-13 22:03:02.79	71.89	18.48	-38.7	-39.7	21.9	0.00e+00	91	28	0	406847488	50	6242
2026-01-13 22:03:03.80	71.70	18.55	-38.5	-39.6	22.0	0.00e+00	33	28	0	408944640	50	6105
2026-01-13 22:03:04.81	71.50	18.63	-38.1	-39.1	22.4	0.00e+00	63	28	0	411041792	50	5765
2026-01-13 22:03:05.82	71.31	18.70	-38.0	-39.0	22.5	0.00e+00	0	27	0	413138944	50	5751
2026-01-13 22:03:06.84	71.11	18.78	-37.9	-38.8	22.6	0.00e+00	92	28	0	415236096	50	5609
2026-01-13 22:03:07.85	70.91	18.85	-37.8	-38.7	22.6	0.00e+00	0	28	0	416284672	48	6225
2026-01-13 22:03:08.86	70.71	18.92	-37.7	-38.7	22.5	0.00e+00	80	28	0	418381824	48	6226
2026-01-13 22:03:09.87	70.51	19.00	-37.9	-38.8	22.5	0.00e+00	41	28	0	420478976	48	6313
2026-01-13 22:03:10.88	70.31	19.07	-37.8	-38.8	22.6	0.00e+00	0	28	0	422576128	48	6246
2026-01-13 22:03:11.88	70.11	19.14	-37.7	-38.7	22.7	0.00e+00	48	28	0	424673280	48	6190
2026-01-13 22:03:12.89	69.91	19.21	-37.9	-39.0	22.1	0.00e+00	0	28	0	425721856	48	6410
2026-01-13 22:03:13.90	69.71	19.29	-37.9	-38.9	22.5	0.00e+00	79	28	0	427819008	48	6383
2026-01-13 22:03:14.91	69.50	19.36	-37.5	-38.4	22.7	0.00e+00	0	28	0	429916160	48	6029
2026-01-13 22:03:15.92	69.30	19.43	-37.4	-38.4	22.9	0.00e+00	92	28	0	432013312	48	6000
2026-01-13 22:03:16.93	69.09	19.50	-37.1	-38.1	23.2	0.00e+00	43	28	0	434110464	48	5766
2026-01-13 22:03:17.94	68.88	19.58	-37.1	-38.1	23.2	0.00e+00	0	28	0	435159040	48	5776
2026-01-13 22:03:18.95	68.68	19.65	-37.1	-38.0	23.2	0.00e+00	43	28	0	437256192	48	5728
2026-01-13 22:03:19.96	68.47	19.72	-36.6	-37.5	23.6	0.00e+00	0	28	0	439353344	46	6082
2026-01-13 22:03:20.97	68.26	19.79	-36.8	-37.7	23.5	0.00e+00	92	28	0	441450496	46	6203
2026-01-13 22:03:21.98	68.05	19.86	-36.6	-37.5	23.7	0.00e+00	0	28	0	443547648	46	6057
2026-01-13 22:03:22.99	67.83	19.93	-36.6	-37.4	23.7	0.00e+00	73	28	0	445644800	46	6027
2026-01-13 22:03:24.00	67.62	20.00	-36.8	-37.6	23.5	0.00e+00	10	28	0	446693376	46	6167
2026-01-13 22:03:25.01	67.41	20.07	-36.8	-37.7	23.5	0.00e+00	0	28	0	448790528	46	6205
2026-01-13 22:03:26.02	67.19	20.14	-36.9	-37.8	23.4	0.00e+00	90	28	0	450887680	46	6276
2026-01-13 22:03:27.03	66.98	20.21	-36.8	-37.6	23.5	0.00e+00	0	28	0	452984832	46	6162
2026-01-13 22:03:28.04	66.76	20.28	-36.8	-37.7	23.4	0.00e+00	92	28	0	455081984	46	6221
2026-01-13 22:03:29.05	66.54	20.35	-36.6	-37.5	23.6	0.00e+00	0	28	0	456130560	46	6075
2026-01-13 22:03:30.06	66.32	20.42	-36.6	-37.4	23.7	0.00e+00	63	28	0	458227712	46	6033
2026-01-13 22:03:31.07	66.10	20.49	-36.8	-37.7	23.5	0.00e+00	9	28	0	460324864	46	6195
2026-01-13 22:03:32.09	65.88	20.56	-36.7	-37.6	23.6	0.00e+00	0	28	0	462422016	46	6116
2026-01-13 22:03:33.10	65.66	20.63	-36.6	-37.5	23.7	0.00e+00	92	28	0	464519168	46	6036
2026-01-13 22:03:34.10	65.44	20.70	-36.5	-37.4	23.8	0.00e+00	0	28	0	465567744	46	5983
2026-01-13 22:03:35.11	65.21	20.76	-36.7	-37.6	23.5	0.00e+00	92	28	0	467664896	46	6132
2026-01-13 22:03:36.11	64.99	20.83	-36.7	-37.6	23.6	0.00e+00	0	27	0	469762048	46	6124
2026-01-13 22:03:37.12	64.76	20.90	-36.7	-37.6	23.6	0.00e+00	90	28	0	471859200	46	6134
2026-01-13 22:03:38.13	64.54	20.97	-36.3	-37.1	23.9	0.00e+00	0	28	0	473956352	46	5809
2026-01-13 22:03:39.14	64.31	21.03	-36.2	-37.1	23.8	0.00e+00	2	28	0	475004928	46	5786
2026-01-13 22:03:40.15	64.08	21.10	-36.2	-37.1	23.9	0.00e+00	92	28	0	477102080	46	5793
2026-01-13 22:03:41.16	63.85	21.17	-36.3	-37.2	23.9	0.00e+00	0	28	0	479199232	46	5879
2026-01-13 22:03:42.17	63.62	21.23	-36.4	-37.3	23.8	0.00e+00	92	28	0	481296384	46	5909
2026-01-13 22:03:43.18	63.39	21.30	-36.4	-37.2	23.9	0.00e+00	0	28	0	483393536	46	5876
2026-01-13 22:03:44.19	63.15	21.36	-36.3	-37.2	24.0	0.00e+00	92	28	0	484442112	46	5847
2026-01-13 22:03:45.20	62.92	21.43	-36.1	-37.0	24.1	0.00e+00	0	28	0	486539264	46	5720
2026-01-13 22:03:46.21	62.68	21.49	-36.2	-37.1	23.9	0.00e+00	92	28	0	488636416	46	5769
2026-01-13 22:03:47.22	62.45	21.56	-36.1	-36.9	24.0	0.00e+00	92	28	0	490733568	46	5669
2026-01-13 22:03:48.23	62.21	21.62	-36.3	-37.1	24.1	0.00e+00	0	28	0	492830720	46	5787
2026-01-13 22:03:49.24	61.97	21.68	-36.1	-36.9	24.0	0.00e+00	90	28	0	493879296	46	5692
2026-01-13 22:03:50.25	61.73	21.75	-36.0	-36.9	24.1	0.00e+00	0	28	0	495976448	46	5644
2026-01-13 22:03:51.26	61.49	21.81	-36.0	-36.8	24.1	0.00e+00	92	28	0	498073600	46	5589
2026-01-13 22:03:52.27	61.25	21.87	-36.1	-36.9	24.1	0.00e+00	0	28	0	500170752	46	5658
2026-01-13 22:03:53.28	61.01	21.93	-36.1	-37.0	24.0	0.00e+00	92	28	0	502267904	46	5710
2026-01-13 22:03:54.29	60.77	21.99	-36.2	-37.0	24.0	0.00e+00	49	28	0	503316480	46	5736
2026-01-13 22:03:55.30	60.53	22.06	-36.2	-37.1	24.1	0.00e+00	0	28	0	505413632	46	5774
2026-01-13 22:03:56.31	60.28	22.12	-36.0	-36.8	24.2	0.00e+00	59	28	0	507510784	46	5584
2026-01-13 22:03:57.32	60.04	22.18	-35.9	-36.7	24.2	0.00e+00	0	27	0	509607936	44	6231
2026-01-13 22:03:58.33	59.79	22.24	-35.9	-36.7	24.3	0.00e+00	91	28	0	511705088	44	6191
2026-01-13 22:03:59.34	59.54	22.30	-36.0	-36.8	24.2	0.00e+00	0	27	0	513802240	44	6275
2026-01-13 22:04:00.35	59.29	22.35	-36.1	-36.9	24.1	0.00e+00	91	28	0	514850816	44	6372
2026-01-13 22:04:01.36	59.04	22.41	-35.8	-36.6	24.3	0.00e+00	45	28	0	516947968	44	6158
2026-01-13 22:04:02.37	58.79	22.47	-35.9	-36.8	23.9	0.00e+00	0	28	0	519045120	44	6253
2026-01-13 22:04:03.38	58.54	22.53	-35.9	-36.7	24.2	0.00e+00	87	28	0	521142272	44	6229
2026-01-13 22:04:04.39	58.29	22.59	-35.9	-36.8	24.2	0.00e+00	0	27	0	523239424	44	6272
2026-01-13 22:04:05.40	58.04	22.64	-36.0	-36.8	24.1	0.00e+00	92	28	0	524288000	44	6317
2026-01-13 22:04:06.41	57.78	22.70	-36.1	-37.0	24.1	0.00e+00	0	28	0	526385152	44	6424
2026-01-13 22:04:07.43	57.52	22.76	-36.0	-36.8	24.2	0.00e+00	92	28	0	528482304	44	6305
2026-01-13 22:04:08.44	57.27	22.81	-36.1	-36.9	24.1	0.00e+00	38	28	0	530579456	44	6377
2026-01-13 22:04:09.44	57.01	22.86	-36.3	-37.2	24.0	0.00e+00	0	28	0	532676608	44	6583
2026-01-13 22:04:10.45	56.76	22.92	-36.4	-37.3	24.0	0.00e+00	92	28	0	533725184	44	6629
2026-01-13 22:04:11.46	56.50	22.97	-36.2	-37.0	24.0	0.00e+00	0	28	0	535822336	44	6456
2026-01-13 22:04:12.47	56.24	23.03	-36.0	-36.8	24.1	0.00e+00	38	28	0	537919488	44	6300
2026-01-13 22:04:13.48	55.98	23.08	-36.1	-37.0	24.0	0.00e+00	0	28	0	540016640	44	6407
2026-01-13 22:04:14.49	55.72	23.13	-35.9	-36.7	24.2	0.00e+00	67	28	0	542113792	44	6205
2026-01-13 22:04:15.50	55.45	23.18	-36.1	-37.0	24.0	0.00e+00	0	28	0	543162368	44	6403
2026-01-13 22:04:16.51	55.19	23.23	-36.1	-36.9	24.2	0.00e+00	0	27	0	545259520	44	6342
2026-01-13 22:04:17.52	54.93	23.28	-36.0	-36.9	24.1	0.00e+00	90	28	0	547356672	44	6336
2026-01-13 22:04:18.52	54.67	23.33	-35.7	-36.5	24.5	0.00e+00	0	28	0	549453824	44	6068
2026-01-13 22:04:19.54	54.40	23.38	-35.6	-36.4	24.4	0.00e+00	41	28	0	551550976	44	6031
2026-01-13 22:04:20.54	54.13	23.43	-35.6	-36.4	24.5	0.00e+00	0	27	0	552599552	44	6024
2026-01-13 22:04:21.55	53.87	23.48	-35.7	-36.5	24.4	0.00e+00	92	28	0	554696704	44	6102
2026-01-13 22:04:22.56	53.60	23.53	-35.7	-36.5	24.4	0.00e+00	0	27	0	556793856	44	6039
2026-01-13 22:04:23.57	53.33	23.57	-35.3	-36.1	23.7	0.00e+00	47	28	0	558891008	44	5795
2026-01-13 22:04:24.58	53.06	23.62	-35.5	-36.3	24.5	0.00e+00	92	28	0	560988160	44	5956
2026-01-13 22:04:25.59	52.79	23.67	-35.6	-36.4	24.4	0.00e+00	0	28	0	562036736	44	5992
2026-01-13 22:04:26.60	52.52	23.71	-35.6	-36.4	24.6	0.00e+00	73	28	0	564133888	44	5984
2026-01-13 22:04:27.61	52.25	23.76	-35.5	-36.3	24.7	0.00e+00	0	27	0	566231040	44	5932
2026-01-13 22:04:28.62	51.97	23.80	-35.4	-36.1	24.7	0.00e+00	92	28	0	568328192	44	5826
2026-01-13 22:04:29.63	51.70	23.84	-35.8	-36.6	24.4	0.00e+00	0	28	0	570425344	44	6119
2026-01-13 22:04:30.64	51.42	23.89	-36.2	-37.1	24.0	0.00e+00	0	28	0	571473920	44	6492
2026-01-13 22:04:31.65	51.15	23.93	-36.5	-37.3	23.8	0.00e+00	40	28	0	573571072	44	6683
2026-01-13 22:04:32.66	50.87	23.97	-36.6	-37.5	23.6	0.00e+00	0	28	0	575668224	44	6816
2026-01-13 22:04:33.67	50.60	24.01	-36.8	-37.7	23.4	0.00e+00	44	28	0	577765376	46	6206
2026-01-13 22:04:34.68	50.32	24.05	-36.8	-37.6	23.6	0.00e+00	0	28	0	579862528	46	6171
2026-01-13 22:04:35.69	50.04	24.09	-37.4	-38.3	23.2	0.00e+00	78	27	0	581959680	46	6660
2026-01-13 22:04:36.70	49.76	24.13	-38.0	-39.0	22.6	0.00e+00	0	28	0	583008256	48	6427
2026-01-13 22:04:37.71	49.48	24.17	-38.5	-39.6	22.0	0.00e+00	90	28	0	585105408	48	6871
2026-01-13 22:04:38.72	49.20	24.20	-38.4	-39.4	22.2	0.00e+00	0	28	0	587202560	48	6757
2026-01-13 22:04:39.73	48.92	24.24	-38.3	-39.3	22.4	0.00e+00	0	28	0	589299712	48	6631
2026-01-13 22:04:40.74	48.64	24.28	-37.8	-38.7	22.7	0.00e+00	51	28	0	591396864	48	6203
2026-01-13 22:04:41.75	48.36	24.31	-37.7	-38.6	22.9	0.00e+00	0	28	0	592445440	48	6160
2026-01-13 22:04:42.76	48.08	24.35	-37.7	-38.6	22.9	0.00e+00	92	28	0	594542592	48	6163
2026-01-13 22:04:43.77	47.79	24.38	-37.6	-38.5	22.9	0.00e+00	0	28	0	596639744	48	6073
2026-01-13 22:04:44.78	47.51	24.41	-37.1	-38.0	23.3	0.00e+00	62	28	0	598736896	48	5705
2026-01-13 22:04:45.79	47.23	24.45	-37.0	-37.9	23.3	0.00e+00	43	28	0	600834048	48	5682
2026-01-13 22:04:46.80	46.94	24.48	-37.1	-38.0	23.3	0.00e+00	0	28	0	601882624	48	5739
2026-01-13 22:04:47.81	46.65	24.51	-37.2	-38.1	23.2	0.00e+00	92	28	0	603979776	48	5825
2026-01-13 22:04:48.82	46.37	24.54	-37.7	-38.6	22.9	0.00e+00	0	28	0	606076928	48	6146
2026-01-13 22:04:49.82	46.08	24.57	-37.7	-38.7	22.8	0.00e+00	92	28	0	608174080	48	6215
2026-01-13 22:04:50.83	45.80	24.60	-37.6	-38.5	22.9	0.00e+00	33	28	0	610271232	48	6081
2026-01-13 22:04:51.84	45.51	24.62	-37.4	-38.3	23.0	0.00e+00	87	28	0	611319808	48	5927
2026-01-13 22:04:52.85	45.22	24.65	-37.5	-38.5	22.9	0.00e+00	0	28	0	613416960	48	6043
2026-01-13 22:04:53.86	44.93	24.68	-38.2	-39.2	22.4	0.00e+00	0	28	0	615514112	48	6606
2026-01-13 22:04:54.87	44.64	24.70	-38.1	-39.1	22.4	0.00e+00	92	28	0	617611264	48	6480
2026-01-13 22:04:55.88	44.35	24.73	-38.0	-38.9	22.7	0.00e+00	0	28	0	619708416	48	6374
2026-01-13 22:04:56.89	44.06	24.75	-38.0	-39.0	22.5	0.00e+00	63	28	0	620756992	48	6436
2026-01-13 22:04:57.90	43.77	24.78	-38.0	-39.0	22.5	0.00e+00	0	28	0	622854144	48	6422
2026-01-13 22:04:58.90	43.49	24.80	-38.1	-39.1	22.5	0.00e+00	92	28	0	624951296	48	6500
2026-01-13 22:04:59.91	43.19	24.82	-38.3	-39.3	22.2	0.00e+00	0	28	0	627048448	48	6688
2026-01-13 22:05:00.92	42.90	24.84	-38.4	-39.4	22.2	0.00e+00	29	28	0	629145600	48	6757
2026-01-13 22:05:01.93	42.61	24.86	-38.2	-39.3	22.4	0.00e+00	64	28	0	630194176	48	6618
2026-01-13 22:05:02.94	42.32	24.88	-38.1	-39.1	22.5	0.00e+00	0	28	0	632291328	48	6487
2026-01-13 22:05:03.95	42.02	24.90	-38.1	-39.1	22.5	0.00e+00	86	28	0	634388480	48	6483
2026-01-13 22:05:04.96	41.73	24.92	-37.9	-38.9	22.7	0.00e+00	0	28	0	636485632	48	6390
2026-01-13 22:05:05.97	41.44	24.93	-37.8	-38.8	22.7	0.00e+00	61	27	0	638582784	48	6255
2026-01-13 22:05:06.98	41.14	24.95	-38.0	-39.0	22.7	0.00e+00	0	28	0	639631360	48	6418
2026-01-13 22:05:07.99	40.85	24.97	-37.7	-38.6	22.9	0.00e+00	0	28	0	641728512	48	6171
2026-01-13 22:05:09.00	40.56	24.98	-37.7	-38.7	22.8	0.00e+00	12	28	0	643825664	48	6179
2026-01-13 22:05:10.01	40.26	24.99	-38.2	-39.2	22.4	0.00e+00	0	28	0	645922816	48	6544
2026-01-13 22:05:11.02	39.97	25.01	-38.4	-39.4	22.2	0.00e+00	23	27	0	648019968	48	6750
2026-01-13 22:05:12.03	39.67	25.02	-38.5	-39.6	22.2	0.00e+00	0	27	0	649068544	48	6863
2026-01-13 22:05:13.04	39.38	25.03	-38.2	-39.2	22.5	0.00e+00	5	28	0	651165696	48	6556
2026-01-13 22:05:14.05	39.08	25.04	-38.2	-39.1	22.4	0.00e+00	0	28	0	653262848	48	6531
2026-01-13 22:05:15.06	38.78	25.05	-38.0	-38.9	22.7	0.00e+00	92	28	0	655360000	48	6378
2026-01-13 22:05:16.07	38.49	25.06	-37.7	-38.6	22.9	0.00e+00	17	28	0	657457152	48	6149
2026-01-13 22:05:17.08	38.19	25.07	-37.6	-38.6	22.9	0.00e+00	0	28	0	659554304	48	6117
2026-01-13 22:05:18.09	37.90	25.07	-37.3	-38.2	23.1	0.00e+00	41	27	0	660602880	48	5829
2026-01-13 22:05:19.10	37.60	25.08	-37.0	-37.9	23.4	0.00e+00	0	28	0	662700032	48	5676
2026-01-13 22:05:20.11	37.30	25.08	-37.0	-37.9	23.3	0.00e+00	92	28	0	664797184	48	5667
2026-01-13 22:05:21.12	37.01	25.09	-37.6	-38.5	23.0	0.00e+00	0	27	0	666894336	48	6056
2026-01-13 22:05:22.13	36.71	25.09	-37.7	-38.7	22.8	0.00e+00	70	27	0	668991488	48	6207
2026-01-13 22:05:23.14	36.41	25.10	-38.1	-39.2	22.4	0.00e+00	33	27	0	670040064	48	6543
2026-01-13 22:05:24.15	36.12	25.10	-38.5	-39.6	22.1	0.00e+00	0	28	0	672137216	48	6864
2026-01-13 22:05:25.16	35.82	25.10	-38.5	-39.6	22.1	0.00e+00	85	28	0	674234368	48	6889
2026-01-13 22:05:26.17	35.52	25.10	-38.3	-39.4	22.3	0.00e+00	0	28	0	676331520	48	6705
2026-01-13 22:05:27.18	35.23	25.10	-38.4	-39.5	22.2	0.00e+00	92	28	0	678428672	48	6808
2026-01-13 22:05:28.19	34.93	25.10	-38.3	-39.3	22.2	0.00e+00	0	28	0	679477248	48	6686
2026-01-13 22:05:29.20	34.63	25.10	-38.1	-39.1	22.6	0.00e+00	92	27	0	681574400	48	6472
2026-01-13 22:05:30.21	34.34	25.09	-37.8	-38.7	22.9	0.00e+00	9	28	0	683671552	48	6229
2026-01-13 22:05:31.22	34.04	25.09	-37.4	-38.3	23.1	0.00e+00	0	28	0	685768704	48	5927
2026-01-13 22:05:32.23	33.74	25.08	-37.0	-37.9	23.3	0.00e+00	92	27	0	687865856	48	5688
2026-01-13 22:05:33.24	33.45	25.08	-36.9	-37.7	23.6	0.00e+00	0	27	0	688914432	48	5553
2026-01-13 22:05:34.25	33.15	25.07	-36.4	-37.2	23.8	0.00e+00	92	28	0	691011584	46	5881
2026-01-13 22:05:35.26	32.86	25.06	-36.6	-37.4	23.8	0.00e+00	0	27	0	693108736	46	5996
2026-01-13 22:05:36.27	32.56	25.06	-36.4	-37.2	23.8	0.00e+00	92	28	0	695205888	46	5887
2026-01-13 22:05:37.28	32.26	25.05	-36.5	-37.4	23.5	0.00e+00	0	27	0	697303040	46	5991
2026-01-13 22:05:38.29	31.97	25.04	-36.6	-37.4	23.1	0.00e+00	0	27	0	698351616	46	6010
2026-01-13 22:05:39.30	31.67	25.03	-36.2	-37.0	24.0	0.00e+00	67	28	0	700448768	46	5748
2026-01-13 22:05:40.31	31.38	25.02	-36.2	-37.0	23.7	0.00e+00	0	28	0	702545920	46	5734
2026-01-13 22:05:41.32	31.08	25.00	-36.1	-37.0	24.0	0.00e+00	43	27	0	704643072	46	5699
2026-01-13 22:05:42.33	30.79	24.99	-36.2	-37.1	24.1	0.00e+00	0	28	0	706740224	46	5773
2026-01-13 22:05:43.34	30.49	24.98	-35.8	-36.6	24.5	0.00e+00	90	28	0	707788800	46	5450
2026-01-13 22:05:44.35	30.20	24.96	-35.5	-36.2	24.6	0.00e+00	0	28	0	709885952	44	5893
2026-01-13 22:05:45.36	29.91	24.95	-35.1	-35.9	24.9	0.00e+00	30	28	0	711983104	44	5655
2026-01-13 22:05:46.37	29.61	24.93	-35.2	-36.0	24.7	0.00e+00	92	28	0	714080256	44	5717
2026-01-13 22:05:47.38	29.32	24.91	-35.0	-35.7	24.7	0.00e+00	0	27	0	716177408	44	5560
2026-01-13 22:05:48.40	29.02	24.90	-35.2	-36.0	24.7	0.00e+00	92	28	0	718274560	44	5708
2026-01-13 22:05:49.41	28.73	24.88	-35.3	-36.0	24.7	0.00e+00	0	28	0	719323136	44	5756
2026-01-13 22:05:50.41	28.44	24.86	-35.0	-35.8	24.9	0.00e+00	0	28	0	721420288	44	5587
2026-01-13 22:05:51.43	28.15	24.84	-35.0	-35.7	24.9	0.00e+00	0	28	0	723517440	44	5531
2026-01-13 22:05:52.44	27.85	24.82	-35.0	-35.7	25.0	0.00e+00	0	28	0	725614592	42	6216
2026-01-13 22:05:53.45	27.56	24.79	-35.3	-36.0	24.7	0.00e+00	38	27	0	727711744	42	6461
2026-01-13 22:05:54.46	27.27	24.77	-35.3	-36.1	24.8	0.00e+00	0	27	0	728760320	42	6468
2026-01-13 22:05:55.47	26.98	24.75	-35.5	-36.3	24.6	0.00e+00	84	27	0	730857472	42	6631
2026-01-13 22:05:56.48	26.69	24.72	-35.6	-36.4	24.1	0.00e+00	0	27	0	732954624	42	6758
2026-01-13 22:05:57.49	26.40	24.70	-35.7	-36.5	24.4	0.00e+00	0	28	0	735051776	44	6070
2026-01-13 22:05:58.50	26.11	24.67	-35.9	-36.7	24.1	0.00e+00	0	27	0	737148928	44	6228
2026-01-13 22:05:59.51	25.83	24.65	-35.7	-36.5	24.3	0.00e+00	0	28	0	738197504	44	6097
2026-01-13 22:06:00.52	25.54	24.62	-35.7	-36.5	24.3	0.00e+00	0	28	0	740294656	44	6050
2026-01-13 22:06:01.53	25.25	24.59	-35.8	-36.7	24.2	0.00e+00	0	28	0	742391808	44	6177
2026-01-13 22:06:02.54	24.96	24.56	-36.0	-36.8	24.3	0.00e+00	57	27	0	744488960	44	6288
2026-01-13 22:06:03.55	24.68	24.53	-36.2	-37.1	23.9	0.00e+00	0	28	0	746586112	44	6479
2026-01-13 22:06:04.56	24.39	24.50	-36.1	-37.0	24.0	0.00e+00	90	27	0	747634688	44	6403
2026-01-13 22:06:05.57	24.11	24.47	-36.3	-37.2	23.6	0.00e+00	0	27	0	749731840	44	6580
2026-01-13 22:06:06.58	23.82	24.44	-36.0	-36.9	23.9	0.00e+00	0	28	0	751828992	44	6337
2026-01-13 22:06:07.58	23.54	24.41	-36.4	-37.3	23.8	0.00e+00	0	28	0	753926144	44	6632
2026-01-13 22:06:08.59	23.26	24.38	-36.7	-37.6	23.5	0.00e+00	0	28	0	756023296	44	6895
2026-01-13 22:06:09.60	22.97	24.34	-37.1	-38.0	23.2	0.00e+00	88	28	0	757071872	46	6404
2026-01-13 22:06:10.61	22.69	24.31	-37.2	-38.1	23.1	0.00e+00	0	28	0	759169024	46	6502
2026-01-13 22:06:11.62	22.41	24.27	-36.8	-37.8	23.4	0.00e+00	92	28	0	761266176	46	6251
2026-01-13 22:06:12.63	22.13	24.24	-36.5	-37.4	23.7	0.00e+00	0	28	0	763363328	46	5991
2026-01-13 22:06:13.64	21.85	24.20	-36.4	-37.2	24.0	0.00e+00	0	28	0	765460480	46	5867
2026-01-13 22:06:14.65	21.57	24.16	-36.8	-37.7	23.5	0.00e+00	0	28	0	766509056	46	6191
2026-01-13 22:06:15.66	21.29	24.12	-37.2	-38.1	23.0	0.00e+00	0	28	0	768606208	46	6512
2026-01-13 22:06:16.67	21.01	24.08	-37.4	-38.3	23.0	0.00e+00	40	28	0	770703360	46	6683
2026-01-13 22:06:17.68	20.74	24.04	-37.4	-38.3	23.0	0.00e+00	0	28	0	772800512	46	6691
2026-01-13 22:06:18.69	20.46	24.00	-37.7	-38.7	22.7	0.00e+00	91	27	0	774897664	48	6203
2026-01-13 22:06:19.70	20.18	23.96	-37.8	-38.8	22.6	0.00e+00	0	28	0	775946240	48	6297
2026-01-13 22:06:20.71	19.91	23.92	-38.1	-39.1	22.5	0.00e+00	0	28	0	778043392	48	6513
2026-01-13 22:06:21.72	19.63	23.88	-37.8	-38.8	22.5	0.00e+00	0	28	0	780140544	48	6307
2026-01-13 22:06:22.73	19.36	23.84	-37.9	-38.9	22.6	0.00e+00	0	27	0	782237696	48	6333
2026-01-13 22:06:23.74	19.09	23.79	-38.0	-39.0	22.5	0.00e+00	64	28	0	784334848	48	6403
2026-01-13 22:06:24.75	18.81	23.75	-38.1	-39.1	22.3	0.00e+00	0	28	0	786432000	48	6535
2026-01-13 22:06:25.76	18.54	23.71	-38.4	-39.5	22.0	0.00e+00	78	28	0	787480576	48	6834
2026-01-13 22:06:26.77	18.27	23.66	-38.6	-39.7	21.8	0.00e+00	0	27	0	789577728	48	6997
2026-01-13 22:06:27.78	18.00	23.61	-38.7	-39.8	21.8	0.00e+00	0	28	0	791674880	50	6267
2026-01-13 22:06:28.79	17.73	23.57	-38.2	-39.3	22.1	0.00e+00	0	27	0	793772032	50	5906
2026-01-13 22:06:29.80	17.46	23.52	-38.0	-39.0	22.5	0.00e+00	0	28	0	795869184	50	5710
2026-01-13 22:06:30.81	17.20	23.47	-37.5	-38.4	22.8	0.00e+00	30	28	0	796917760	48	6012
2026-01-13 22:06:31.82	16.93	23.43	-37.6	-38.6	22.9	0.00e+00	0	27	0	799014912	48	6119
2026-01-13 22:06:32.83	16.66	23.38	-37.8	-38.8	22.7	0.00e+00	74	27	0	801112064	48	6281
2026-01-13 22:06:33.84	16.40	23.33	-37.9	-38.9	22.5	0.00e+00	0	28	0	803209216	48	6380
2026-01-13 22:06:34.85	16.14	23.28	-38.3	-39.3	22.1	0.00e+00	0	27	0	805306368	48	6689
2026-01-13 22:06:35.86	15.87	23.23	-38.5	-39.6	22.0	0.00e+00	0	28	0	806354944	48	6871
2026-01-13 22:06:36.87	15.61	23.18	-38.5	-39.5	21.9	0.00e+00	0	27	0	808452096	48	6831
2026-01-13 22:06:37.88	15.35	23.12	-38.3	-39.4	22.2	0.00e+00	15	28	0	810549248	48	6710
2026-01-13 22:06:38.89	15.09	23.07	-38.2	-39.3	22.2	0.00e+00	0	28	0	812646400	48	6629
2026-01-13 22:06:39.90	14.83	23.02	-38.2	-39.3	22.3	0.00e+00	78	27	0	814743552	48	6642
2026-01-13 22:06:40.91	14.57	22.97	-38.0	-39.0	22.4	0.00e+00	0	28	0	815792128	48	6460
2026-01-13 22:06:41.92	14.31	22.91	-37.9	-38.9	22.6	0.00e+00	0	28	0	817889280	48	6382
2026-01-13 22:06:42.93	14.05	22.86	-37.9	-38.9	22.5	0.00e+00	0	27	0	819986432	48	6362
2026-01-13 22:06:43.94	13.80	22.80	-37.6	-38.6	22.8	0.00e+00	0	28	0	822083584	48	6143
2026-01-13 22:06:44.95	13.54	22.75	-37.8	-38.8	22.6	0.00e+00	17	28	0	824180736	48	6290
2026-01-13 22:06:45.96	13.29	22.69	-38.1	-39.1	21.9	0.00e+00	0	28	0	825229312	48	6513
2026-01-13 22:06:46.97	13.03	22.64	-38.6	-39.7	21.8	0.00e+00	92	27	0	827326464	48	6996
2026-01-13 22:06:47.98	12.78	22.58	-38.8	-39.9	21.7	0.00e+00	33	28	0	829423616	50	6363
2026-01-13 22:06:48.99	12.53	22.52	-38.9	-40.1	21.4	0.00e+00	92	28	0	831520768	50	6497
2026-01-13 22:06:50.00	12.28	22.47	-38.4	-39.5	22.0	0.00e+00	0	28	0	833617920	50	6076
2026-01-13 22:06:51.01	12.03	22.41	-38.2	-39.2	22.4	0.00e+00	0	28	0	834666496	50	5851
2026-01-13 22:06:52.02	11.78	22.35	-37.7	-38.7	22.7	0.00e+00	0	28	0	836763648	48	6223
2026-01-13 22:06:53.03	11.53	22.29	-37.9	-39.0	22.5	0.00e+00	0	28	0	838860800	48	6392
2026-01-13 22:06:54.04	11.29	22.23	-37.6	-38.6	22.8	0.00e+00	90	28	0	840957952	48	6140
2026-01-13 22:06:55.05	11.04	22.17	-37.8	-38.8	22.5	0.00e+00	0	27	0	843055104	48	6280
2026-01-13 22:06:56.06	10.80	22.11	-38.1	-39.2	22.2	0.00e+00	19	27	0	844103680	48	6545
2026-01-13 22:06:57.07	10.55	22.05	-38.5	-39.7	21.6	0.00e+00	0	28	0	846200832	48	6937
2026-01-13 22:06:58.08	10.31	21.99	-38.9	-40.1	21.7	0.00e+00	0	28	0	848297984	50	6478
2026-01-13 22:06:59.09	10.07	21.93	-38.7	-39.9	21.7	0.00e+00	0	28	0	850395136	50	6321
2026-01-13 22:07:00.11	9.82	21.86	-38.8	-39.9	21.6	0.00e+00	0	28	0	852492288	50	6361
2026-01-13 22:07:01.11	9.59	21.80	-38.2	-39.3	22.3	0.00e+00	79	28	0	853540864	50	5897
2026-01-13 22:07:02.12	9.35	21.74	-37.5	-38.4	22.9	0.00e+00	0	28	0	855638016	48	6018
2026-01-13 22:07:03.13	9.11	21.68	-37.3	-38.2	23.1	0.00e+00	91	27	0	857735168	48	5867
2026-01-13 22:07:04.14	8.87	21.61	-37.2	-38.1	23.1	0.00e+00	0	28	0	859832320	48	5789
2026-01-13 22:07:05.15	8.64	21.55	-37.0	-38.0	23.3	0.00e+00	0	28	0	861929472	48	5723
2026-01-13 22:07:06.16	8.40	21.49	-37.0	-37.9	23.2	0.00e+00	0	28	0	864026624	48	5690
2026-01-13 22:07:07.17	8.17	21.42	-37.1	-38.1	23.1	0.00e+00	0	28	0	865075200	48	5792
2026-01-13 22:07:08.18	7.93	21.36	-37.2	-38.2	22.9	0.00e+00	37	28	0	867172352	48	5878
2026-01-13 22:07:09.19	7.70	21.29	-37.5	-38.5	22.9	0.00e+00	0	27	0	869269504	48	6043
2026-01-13 22:07:10.20	7.47	21.23	-37.6	-38.6	22.7	0.00e+00	90	28	0	871366656	48	6144
2026-01-13 22:07:11.21	7.24	21.16	-37.4	-38.4	22.9	0.00e+00	0	27	0	873463808	48	6010
2026-01-13 22:07:12.22	7.01	21.09	-37.3	-38.2	23.1	0.00e+00	55	28	0	874512384	48	5882
2026-01-13 22:07:13.24	6.78	21.03	-36.9	-37.8	23.3	0.00e+00	0	28	0	876609536	48	5614
2026-01-13 22:07:14.24	6.56	20.96	-36.9	-37.8	23.3	0.00e+00	0	28	0	878706688	48	5595
2026-01-13 22:07:15.26	6.33	20.89	-36.4	-37.3	23.8	0.00e+00	40	27	0	880803840	46	5902
2026-01-13 22:07:16.27	6.10	20.83	-36.1	-37.0	24.0	0.00e+00	0	27	0	882900992	46	5714
2026-01-13 22:07:17.28	5.88	20.76	-35.8	-36.6	24.2	0.00e+00	40	27	0	883949568	46	5499
2026-01-13 22:07:18.28	5.66	20.69	-35.9	-36.8	24.2	0.00e+00	0	27	0	886046720	44	6258
2026-01-13 22:07:19.30	5.43	20.62	-35.9	-36.7	24.1	0.00e+00	0	28	0	888143872	44	6222
2026-01-13 22:07:20.31	5.21	20.55	-35.8	-36.7	24.2	0.00e+00	0	27	0	890241024	44	6179
2026-01-13 22:07:21.32	4.99	20.49	-36.3	-37.2	23.7	0.00e+00	0	27	0	892338176	44	6586
2026-01-13 22:07:22.33	4.77	20.42	-36.5	-37.4	23.7	0.00e+00	41	27	0	893386752	44	6744
2026-01-13 22:07:23.34	4.55	20.35	-36.6	-37.5	23.6	0.00e+00	0	27	0	895483904	44	6795
2026-01-13 22:07:24.35	4.34	20.28	-36.8	-37.7	23.4	0.00e+00	38	27	0	897581056	46	6238
2026-01-13 22:07:25.36	4.12	20.21	-37.1	-38.0	23.2	0.00e+00	0	27	0	899678208	46	6431
2026-01-13 22:07:26.37	3.91	20.14	-37.1	-38.1	23.2	0.00e+00	67	27	0	901775360	46	6465
2026-01-13 22:07:27.38	3.69	20.07	-37.2	-38.2	23.0	0.00e+00	0	28	0	902823936	46	6587
2026-01-13 22:07:28.39	3.48	20.00	-37.2	-38.1	23.0	0.00e+00	0	27	0	904921088	46	6518
2026-01-13 22:07:29.40	3.27	19.93	-37.1	-38.1	23.1	0.00e+00	0	27	0	907018240	46	6509
2026-01-13 22:07:30.41	3.05	19.86	-37.3	-38.3	23.0	0.00e+00	0	27	0	909115392	46	6642
2026-01-13 22:07:31.42	2.84	19.79	-36.9	-37.8	23.2	0.00e+00	31	28	0	911212544	46	6304
2026-01-13 22:07:32.43	2.63	19.72	-36.9	-37.9	23.4	0.00e+00	33	27	0	912261120	46	6322
2026-01-13 22:07:33.44	2.43	19.64	-36.9	-37.9	23.3	0.00e+00	71	27	0	914358272	46	6350
2026-01-13 22:07:34.45	2.22	19.57	-36.9	-37.8	23.2	0.00e+00	0	28	0	916455424	46	6310
2026-01-13 22:07:35.46	2.01	19.50	-36.9	-37.8	23.4	0.00e+00	0	28	0	918552576	46	6288
2026-01-13 22:07:36.47	1.81	19.43	-36.6	-37.5	23.6	0.00e+00	0	28	0	920649728	46	6053
2026-01-13 22:07:37.48	1.60	19.36	-36.6	-37.5	23.5	0.00e+00	0	27	0	921698304	46	6044
2026-01-13 22:07:38.49	1.40	19.28	-36.7	-37.6	23.5	0.00e+00	33	27	0	923795456	46	6155
2026-01-13 22:07:39.50	1.20	19.21	-36.9	-37.8	23.3	0.00e+00	0	27	0	925892608	46	6281
2026-01-13 22:07:40.51	1.00	19.14	-37.0	-38.0	23.1	0.00e+00	38	28	0	927989760	46	6424
2026-01-13 22:07:41.52	0.80	19.07	-37.3	-38.3	22.8	0.00e+00	0	28	0	930086912	46	6658
2026-01-13 22:07:42.53	0.60	18.99	-37.3	-38.3	22.8	0.00e+00	0	28	0	932184064	46	6672
2026-01-13 22:07:43.54	0.40	18.92	-37.0	-37.9	23.3	0.00e+00	0	27	0	933232640	46	6383
2026-01-13 22:07:44.55	0.20	18.85	-37.1	-38.0	23.2	0.00e+00	0	27	0	935329792	46	6424
2026-01-13 22:07:45.56	0.00	18.77	-36.9	-37.8	23.4	0.00e+00	43	27	0	937426944	46	6281
2026-01-13 22:07:46.57	359.81	18.70	-36.7	-37.6	23.6	0.00e+00	0	27	0	939524096	46	6134
2026-01-13 22:07:47.58	359.61	18.63	-36.9	-37.8	23.3	0.00e+00	91	28	0	941621248	46	6251
2026-01-13 22:07:48.59	359.42	18.55	-37.0	-37.9	23.2	0.00e+00	0	27	0	942669824	46	6384
2026-01-13 22:07:49.60	359.23	18.48	-37.0	-37.9	23.2	0.00e+00	0	27	0	944766976	46	6380
2026-01-13 22:07:50.61	359.04	18.41	-36.8	-37.7	23.4	0.00e+00	0	27	0	946864128	46	6207
2026-01-13 22:07:51.62	358.84	18.33	-36.8	-37.7	23.4	0.00e+00	0	27	0	948961280	46	6240
2026-01-13 22:07:52.63	358.65	18.26	-36.4	-37.2	23.8	0.00e+00	37	27	0	951058432	46	5880
2026-01-13 22:07:53.64	358.47	18.18	-36.3	-37.1	23.8	0.00e+00	0	28	0	952107008	46	5811
2026-01-13 22:07:54.65	358.28	18.11	-36.3	-37.2	23.8	0.00e+00	77	28	0	954204160	46	5852
2026-01-13 22:07:55.66	358.09	18.03	-36.0	-36.9	24.0	0.00e+00	0	27	0	956301312	46	5650
2026-01-13 22:07:56.67	357.90	17.96	-36.0	-36.9	24.0	0.00e+00	51	27	0	958398464	46	5651
2026-01-13 22:07:57.68	357.72	17.88	-36.0	-36.8	24.0	0.00e+00	0	27	0	960495616	46	5626
2026-01-13 22:07:58.68	357.54	17.81	-35.8	-36.7	24.2	0.00e+00	0	27	0	961544192	46	5516
2026-01-13 22:07:59.69	357.35	17.74	-35.8	-36.7	24.1	0.00e+00	0	27	0	963641344	46	5521
2026-01-13 22:08:00.70	357.17	17.66	-36.1	-36.9	24.0	0.00e+00	0	27	0	965738496	46	5677
2026-01-13 22:08:01.71	356.99	17.59	-36.2	-37.1	23.8	0.00e+00	92	28	0	967835648	46	5763
2026-01-13 22:08:02.72	356.81	17.51	-36.5	-37.4	23.6	0.00e+00	0	28	0	969932800	46	5989
2026-01-13 22:08:03.73	356.63	17.44	-36.9	-37.8	23.3	0.00e+00	15	27	0	972029952	46	6265
2026-01-13 22:08:04.74	356.45	17.36	-36.7	-37.6	23.2	0.00e+00	0	27	0	973078528	46	6168
2026-01-13 22:08:05.75	356.27	17.29	-36.7	-37.6	23.3	0.00e+00	0	28	0	975175680	46	6154
2026-01-13 22:08:06.76	356.10	17.21	-36.1	-37.0	23.9	0.00e+00	0	27	0	977272832	46	5729
2026-01-13 22:08:07.77	355.92	17.13	-36.0	-36.8	24.0	0.00e+00	0	27	0	979369984	46	5592
2026-01-13 22:08:08.78	355.74	17.06	-35.7	-36.6	24.2	0.00e+00	37	27	0	980418560	46	5440
2026-01-13 22:08:09.79	355.57	16.98	-35.5	-36.4	24.4	0.00e+00	0	27	0	982515712	44	5965
2026-01-13 22:08:10.80	355.40	16.91	-35.6	-36.4	24.3	0.00e+00	92	27	0	984612864	44	6024
2026-01-13 22:08:11.81	355.22	16.83	-35.8	-36.7	24.1	0.00e+00	0	27	0	986710016	44	6178
2026-01-13 22:08:12.82	355.05	16.76	-36.0	-36.9	24.1	0.00e+00	0	27	0	988807168	44	6347
2026-01-13 22:08:13.83	354.88	16.68	-36.0	-36.9	24.0	0.00e+00	0	27	0	989855744	44	6334
2026-01-13 22:08:14.84	354.71	16.61	-36.2	-37.0	23.8	0.00e+00	0	28	0	991952896	44	6461
2026-01-13 22:08:15.85	354.54	16.53	-36.2	-37.0	23.9	0.00e+00	74	27	0	994050048	44	6458
2026-01-13 22:08:16.86	354.37	16.46	-36.3	-37.1	23.8	0.00e+00	0	27	0	996147200	44	6536
2026-01-13 22:08:17.87	354.21	16.38	-36.3	-37.2	23.7	0.00e+00	92	28	0	998244352	44	6583
2026-01-13 22:08:18.88	354.04	16.30	-36.5	-37.4	23.6	0.00e+00	0	28	0	1000341504	44	6733
2026-01-13 22:08:19.88	353.88	16.23	-36.5	-37.3	23.7	0.00e+00	0	27	0	1001390080	44	6692
2026-01-13 22:08:20.89	353.71	16.15	-36.3	-37.2	23.8	0.00e+00	0	27	0	1003487232	44	6546
2026-01-13 22:08:21.90	353.55	16.08	-36.0	-36.8	24.0	0.00e+00	0	27	0	1005584384	44	6291
2026-01-13 22:08:22.91	353.38	16.00	-35.6	-36.4	24.2	0.00e+00	40	27	0	1007681536	44	6024
2026-01-13 22:08:23.92	353.22	15.93	-35.5	-36.3	24.4	0.00e+00	0	27	0	1009778688	44	5936
2026-01-13 22:08:24.93	353.06	15.85	-35.5	-36.3	24.4	0.00e+00	82	27	0	1010827264	44	5924
2026-01-13 22:08:25.94	352.90	15.78	-35.7	-36.5	24.2	0.00e+00	0	27	0	1012924416	44	6052
2026-01-13 22:08:26.95	352.74	15.70	-36.0	-36.9	24.0	0.00e+00	0	28	0	1015021568	44	6342
2026-01-13 22:08:27.96	352.58	15.62	-36.4	-37.3	23.6	0.00e+00	0	27	0	1017118720	44	6624
2026-01-13 22:08:28.97	352.42	15.55	-36.6	-37.5	23.5	0.00e+00	0	28	0	1019215872	44	6811
2026-01-13 22:08:29.98	352.27	15.47	-37.1	-38.0	23.1	0.00e+00	26	28	0	1020264448	46	6460
2026-01-13 22:08:30.99	352.11	15.40	-37.2	-38.2	23.0	0.00e+00	0	28	0	1022361600	46	6573
2026-01-13 22:08:32.00	351.95	15.32	-37.3	-38.3	22.9	0.00e+00	35	27	0	1024458752	46	6637
2026-01-13 22:08:33.00	351.80	15.25	-37.1	-38.0	23.2	0.00e+00	0	28	0	1026555904	46	6415
2026-01-13 22:08:34.02	351.65	15.17	-36.8	-37.7	23.4	0.00e+00	72	28	0	1028653056	46	6195
2026-01-13 22:08:35.03	351.49	15.09	-37.0	-37.9	23.3	0.00e+00	0	27	0	1029701632	46	6355
2026-01-13 22:08:36.04	351.34	15.02	-36.9	-37.8	23.3	0.00e+00	0	27	0	1031798784	46	6296
2026-01-13 22:08:37.05	351.19	14.94	-36.6	-37.5	23.5	0.00e+00	50	28	0	1033895936	46	6091
2026-01-13 22:08:38.06	351.04	14.87	-36.5	-37.4	23.6	0.00e+00	0	28	0	1035993088	46	5965
2026-01-13 22:08:39.07	350.89	14.79	-36.9	-37.8	23.2	0.00e+00	2	28	0	1038090240	46	6270
2026-01-13 22:08:40.08	350.74	14.72	-36.5	-37.4	23.5	0.00e+00	0	27	0	1039138816	46	5979
2026-01-13 22:08:41.09	350.59	14.64	-36.7	-37.6	23.3	0.00e+00	92	27	0	1041235968	46	6159
2026-01-13 22:08:42.10	350.44	14.57	-36.7	-37.6	23.1	0.00e+00	0	28	0	1043333120	46	6120
2026-01-13 22:08:43.11	350.29	14.49	-36.7	-37.6	23.1	0.00e+00	0	27	0	1045430272	46	6159
2026-01-13 22:08:44.12	350.15	14.42	-36.8	-37.8	23.2	0.00e+00	39	27	0	1047527424	46	6261
2026-01-13 22:08:45.13	350.00	14.34	-37.1	-38.0	23.1	0.00e+00	0	27	0	1048576000	46	6434
2026-01-13 22:08:46.14	349.86	14.27	-37.5	-38.5	22.7	0.00e+00	33	27	0	1050673152	46	6803
2026-01-13 22:08:47.14	349.71	14.19	-37.8	-38.8	22.1	0.00e+00	0	27	0	1052770304	48	6310
2026-01-13 22:08:48.15	349.57	14.12	-38.3	-39.4	21.9	0.00e+00	92	28	0	1054867456	48	6726
2026-01-13 22:08:49.16	349.43	14.04	-38.2	-39.2	21.9	0.00e+00	0	28	0	1056964608	48	6605
2026-01-13 22:08:50.17	349.29	13.97	-38.1	-39.2	21.8	0.00e+00	0	27	0	1058013184	48	6600
2026-01-13 22:08:51.18	349.15	13.89	-38.1	-39.2	22.0	0.00e+00	0	27	0	1060110336	48	6558
2026-01-13 22:08:52.20	349.00	13.82	-38.0	-39.0	22.3	0.00e+00	0	27	0	1062207488	48	6418
2026-01-13 22:08:53.20	348.87	13.74	-37.6	-38.6	22.7	0.00e+00	33	27	0	1064304640	48	6111
2026-01-13 22:08:54.21	348.73	13.67	-37.1	-38.1	23.0	0.00e+00	0	28	0	1066401792	48	5786
2026-01-13 22:08:55.22	348.59	13.59	-37.1	-38.0	23.0	0.00e+00	51	28	0	1068498944	48	5730
2026-01-13 22:08:56.23	348.45	13.52	-36.6	-37.5	23.4	0.00e+00	0	28	0	1069547520	46	6094
2026-01-13 22:08:57.24	348.31	13.44	-37.0	-38.0	23.2	0.00e+00	0	27	0	1071644672	46	6403
2026-01-13 22:08:58.25	348.18	13.37	-36.5	-37.4	23.5	0.00e+00	0	28	0	1073741824	46	6004
2026-01-13 22:08:59.26	348.04	13.29	-36.9	-37.8	23.2	0.00e+00	0	27	0	1075838976	46	6285
2026-01-13 22:09:00.27	347.91	13.22	-37.0	-37.9	23.1	0.00e+00	43	27	0	1077936128	46	6371
2026-01-13 22:09:01.28	347.77	13.15	-37.1	-38.1	23.0	0.00e+00	0	27	0	1078984704	46	6482
2026-01-13 22:09:02.29	347.64	13.07	-37.1	-38.0	23.1	0.00e+00	92	27	0	1081081856	46	6414
2026-01-13 22:09:03.30	347.51	13.00	-37.1	-38.0	23.0	0.00e+00	0	27	0	1083179008	46	6451
2026-01-13 22:09:04.31	347.38	12.92	-37.2	-38.1	23.0	0.00e+00	17	27	0	1085276160	46	6499
2026-01-13 22:09:05.32	347.25	12.85	-37.0	-37.9	23.0	0.00e+00	0	27	0	1087373312	46	6337
2026-01-13 22:09:06.33	347.12	12.78	-37.2	-38.1	23.0	0.00e+00	0	27	0	1088421888	46	6518
2026-01-13 22:09:07.34	346.99	12.70	-37.0	-37.9	23.1	0.00e+00	35	27	0	1090519040	46	6355
2026-01-13 22:09:08.35	346.86	12.63	-37.2	-38.2	23.0	0.00e+00	0	27	0	1092616192	46	6541
2026-01-13 22:09:09.36	346.73	12.55	-37.3	-38.3	22.8	0.00e+00	92	27	0	1094713344	46	6636
2026-01-13 22:09:10.37	346.60	12.48	-37.4	-38.4	22.7	0.00e+00	0	27	0	1096810496	46	6720
2026-01-13 22:09:11.38	346.47	12.41	-37.7	-38.7	22.4	0.00e+00	3	27	0	1097859072	46	6990
2026-01-13 22:09:12.38	346.35	12.34	-37.6	-38.6	22.4	0.00e+00	0	27	0	1099956224	46	6920
2026-01-13 22:09:13.39	346.22	12.26	-37.8	-38.8	22.3	0.00e+00	0	27	0	1102053376	48	6275
2026-01-13 22:09:14.40	346.10	12.19	-37.7	-38.7	22.4	0.00e+00	32	27	0	1104150528	48	6240
2026-01-13 22:09:15.41	345.97	12.12	-37.9	-38.9	22.2	0.00e+00	0	28	0	1106247680	48	6371
2026-01-13 22:09:16.42	345.85	12.04	-37.7	-38.7	22.4	0.00e+00	29	27	0	1107296256	48	6211
2026-01-13 22:09:17.43	345.72	11.97	-37.8	-38.8	22.3	0.00e+00	0	27	0	1109393408	48	6284
2026-01-13 22:09:18.44	345.60	11.90	-38.0	-39.0	22.2	0.00e+00	39	28	0	1111490560	48	6451
2026-01-13 22:09:19.45	345.48	11.82	-37.8	-38.8	22.3	0.00e+00	0	28	0	1113587712	48	6290
2026-01-13 22:09:20.46	345.36	11.75	-37.9	-39.0	22.2	0.00e+00	0	27	0	1115684864	48	6413
2026-01-13 22:09:21.47	345.24	11.68	-38.2	-39.3	21.8	0.00e+00	0	28	0	1116733440	48	6667
2026-01-13 22:09:22.48	345.12	11.61	-38.5	-39.6	21.7	0.00e+00	0	27	0	1118830592	48	6887
2026-01-13 22:09:23.49	345.00	11.53	-38.5	-39.7	21.6	0.00e+00	29	28	0	1120927744	48	6953
2026-01-13 22:09:24.50	344.88	11.46	-38.5	-39.6	21.7	0.00e+00	0	27	0	1123024896	48	6896
2026-01-13 22:09:25.50	344.76	11.39	-38.5	-39.6	21.7	0.00e+00	92	27	0	1125122048	48	6871
2026-01-13 22:09:26.51	344.64	11.32	-38.5	-39.6	21.5	0.00e+00	0	28	0	1126170624	48	6927
2026-01-13 22:09:27.52	344.52	11.24	-38.4	-39.5	21.7	0.00e+00	0	27	0	1128267776	48	6831
2026-01-13 22:09:28.53	344.41	11.17	-38.3	-39.4	21.8	0.00e+00	0	27	0	1130364928	48	6726
2026-01-13 22:09:29.54	344.29	11.10	-38.1	-39.2	22.0	0.00e+00	0	27	0	1132462080	48	6577
2026-01-13 22:09:30.55	344.18	11.03	-38.1	-39.1	22.1	0.00e+00	26	27	0	1134559232	48	6516
2026-01-13 22:09:31.56	344.06	10.96	-38.2	-39.2	22.0	0.00e+00	0	27	0	1136656384	48	6604
2026-01-13 22:09:32.57	343.95	10.89	-38.1	-39.1	21.9	0.00e+00	92	27	0	1137704960	48	6519
2026-01-13 22:09:33.58	343.83	10.81	-38.2	-39.2	21.9	0.00e+00	0	27	0	1139802112	48	6613
2026-01-13 22:09:34.59	343.72	10.74	-38.3	-39.4	21.7	0.00e+00	0	27	0	1141899264	48	6735
2026-01-13 22:09:35.60	343.61	10.67	-38.4	-39.5	21.9	0.00e+00	0	28	0	1143996416	48	6823
2026-01-13 22:09:36.61	343.49	10.60	-38.3	-39.3	21.8	0.00e+00	0	27	0	1146093568	48	6684
2026-01-13 22:09:37.62	343.38	10.53	-38.4	-39.6	21.7	0.00e+00	7	28	0	1147142144	48	6864
2026-01-13 22:09:38.63	343.27	10.46	-38.5	-39.7	21.5	0.00e+00	0	27	0	1149239296	48	6942
2026-01-13 22:09:39.64	343.16	10.39	-38.6	-39.8	21.5	0.00e+00	90	28	0	1151336448	50	6261
2026-01-13 22:09:40.65	343.05	10.32	-38.8	-39.9	21.3	0.00e+00	0	28	0	1153433600	50	6368
2026-01-13 22:09:41.65	342.94	10.25	-38.9	-40.1	21.3	0.00e+00	6	28	0	1155530752	50	6498
2026-01-13 22:09:42.66	342.83	10.18	-38.8	-40.0	21.3	0.00e+00	0	28	0	1156579328	50	6399
2026-01-13 22:09:43.67	342.73	10.10	-39.0	-40.2	21.2	0.00e+00	0	28	0	1158676480	50	6581
2026-01-13 22:09:44.68	342.62	10.03	-38.8	-39.9	21.4	0.00e+00	0	27	0	1160773632	50	6381
2026-01-13 22:09:45.69	342.51	9.96	-38.5	-39.7	21.5	0.00e+00	0	27	0	1162870784	50	6179
2026-01-13 22:09:46.70	342.41	9.89	-38.5	-39.7	21.7	0.00e+00	91	27	0	1164967936	50	6185
2026-01-13 22:09:47.71	342.30	9.82	-38.4	-39.5	21.7	0.00e+00	0	27	0	1166016512	50	6064
2026-01-13 22:09:48.71	342.19	9.75	-38.2	-39.3	21.8	0.00e+00	32	27	0	1168113664	50	5935
2026-01-13 22:09:49.72	342.09	9.68	-38.2	-39.3	22.0	0.00e+00	0	27	0	1170210816	50	5908
2026-01-13 22:09:50.73	341.98	9.61	-38.1	-39.1	22.0	0.00e+00	0	27	0	1172307968	50	5812
2026-01-13 22:09:51.74	341.88	9.54	-38.1	-39.1	22.0	0.00e+00	0	27	0	1174405120	50	5826
2026-01-13 22:09:52.75	341.78	9.47	-38.2	-39.3	21.9	0.00e+00	0	28	0	1175453696	50	5939
2026-01-13 22:09:53.75	341.68	9.41	-38.2	-39.4	21.8	0.00e+00	90	28	0	1177550848	50	5977
2026-01-13 22:09:54.77	341.57	9.34	-38.3	-39.4	21.7	0.00e+00	0	27	0	1179648000	50	6027
2026-01-13 22:09:55.77	341.47	9.27	-38.5	-39.6	21.6	0.00e+00	90	27	0	1181745152	50	6151
2026-01-13 22:09:56.78	341.37	9.20	-38.5	-39.6	21.6	0.00e+00	0	27	0	1183842304	50	6163
2026-01-13 22:09:57.79	341.27	9.13	-38.8	-40.0	21.2	0.00e+00	0	27	0	1184890880	50	6415
2026-01-13 22:09:58.80	341.17	9.06	-39.0	-40.3	21.0	0.00e+00	0	27	0	1186988032	50	6639
2026-01-13 22:09:59.81	341.07	8.99	-39.1	-40.3	20.8	0.00e+00	0	27	0	1189085184	50	6675
2026-01-13 22:10:00.82	340.97	8.92	-39.4	-40.8	20.6	0.00e+00	48	27	0	1191182336	50	7015
2026-01-13 22:10:01.83	340.87	8.85	-39.7	-41.1	20.3	0.00e+00	0	27	0	1193279488	50	7275
2026-01-13 22:10:02.84	340.77	8.78	-39.5	-40.9	20.5	0.00e+00	92	27	0	1194328064	50	7098
2026-01-13 22:10:03.85	340.67	8.72	-39.7	-41.0	20.3	0.00e+00	0	27	0	1196425216	50	7228
2026-01-13 22:10:04.86	340.57	8.65	-39.9	-41.3	20.1	0.00e+00	0	27	0	1198522368	52	6670
2026-01-13 22:10:05.87	340.48	8.58	-40.0	-41.4	19.9	0.00e+00	0	27	0	1200619520	52	6742
2026-01-13 22:10:06.88	340.38	8.51	-40.0	-41.4	19.9	0.00e+00	0	28	0	1202716672	52	6696
