passes_logs/2026/01/13/R4.6S_Anadyr/R4.6S_Anadyr__20260113_204028_NOAA_20_JPSS-1_rec.log

#Pass ID: 20260113_204028_NOAA 20 (JPSS-1)
#Satellite: NOAA 20 (JPSS-1)
#Configuration: NOAA 20
#almurnet v.1.7.20251203
#Start time: 2026-01-13 20:40:31

#Version: 2.2.20231116
#Station: R4.6S_Anadyr
#Location: 177.4865 lon 64.73178 lat
#TLE: 1 43013U 17073A   26013.56788096  .00000060  00000+0  49292-4 0  9995
#TLE: 2 43013  98.7633 314.5224 0001558  41.3934 318.7360 14.19535692422532

#Time	Az	El	Level	Level2	SNR	BER	BlckErr	Temp	State	Recorded	gain1	gain2
2026-01-13 20:40:31.52	74.49	0.15	-48.4	-62.1	3.3	1.54e+00	0	27	0	0	60	46147
2026-01-13 20:40:32.52	74.42	0.20	-48.5	-63.6	3.6	1.51e+00	0	27	104	0	60	54820
2026-01-13 20:40:33.53	74.35	0.25	-48.4	-63.6	3.6	1.51e+00	0	27	104	0	60	54407
2026-01-13 20:40:34.55	74.27	0.30	-48.4	-63.6	3.6	1.51e+00	0	27	104	0	60	54629
2026-01-13 20:40:35.56	74.20	0.36	-48.4	-63.6	3.6	1.51e+00	0	27	104	0	60	54684
2026-01-13 20:40:36.56	74.13	0.41	-48.4	-63.6	3.6	1.51e+00	0	27	104	0	60	54800
2026-01-13 20:40:37.57	74.06	0.46	-48.4	-63.6	3.6	1.51e+00	0	27	104	0	60	54538
2026-01-13 20:40:38.58	73.99	0.51	-48.4	-63.6	3.6	1.51e+00	0	27	104	0	60	54474
2026-01-13 20:40:39.59	73.91	0.56	-48.3	-63.5	3.6	1.51e+00	0	27	104	0	60	54357
2026-01-13 20:40:40.61	73.84	0.61	-48.3	-63.4	3.6	1.51e+00	0	27	104	0	60	53770
2026-01-13 20:40:41.62	73.77	0.66	-48.2	-63.3	3.6	1.51e+00	0	27	104	0	60	53081
2026-01-13 20:40:42.63	73.69	0.71	-48.0	-63.2	3.6	1.51e+00	0	27	104	0	60	52257
2026-01-13 20:40:43.64	73.62	0.76	-47.8	-62.9	3.6	1.51e+00	0	27	104	0	60	50655
2026-01-13 20:40:44.65	73.54	0.82	-47.5	-62.6	3.6	1.51e+00	0	27	104	0	60	48799
2026-01-13 20:40:45.66	73.47	0.87	-46.5	-61.7	3.6	1.51e+00	0	28	104	0	60	43816
2026-01-13 20:40:46.67	73.39	0.92	-46.5	-61.6	3.6	1.51e+00	0	27	104	0	60	43470
2026-01-13 20:40:47.68	73.32	0.97	-46.5	-61.6	3.6	1.51e+00	0	27	104	0	60	43337
2026-01-13 20:40:48.69	73.24	1.02	-46.5	-61.6	3.6	1.51e+00	0	28	104	0	60	43472
2026-01-13 20:40:49.70	73.17	1.07	-46.5	-61.6	3.6	1.51e+00	0	28	104	0	60	43439
2026-01-13 20:40:50.71	73.09	1.13	-46.5	-61.6	3.6	1.51e+00	0	27	104	0	60	43416
2026-01-13 20:40:51.72	73.01	1.18	-46.5	-61.5	3.6	1.51e+00	0	28	104	0	60	43177
2026-01-13 20:40:52.73	72.94	1.23	-46.5	-61.6	3.6	1.51e+00	0	27	104	0	60	43332
2026-01-13 20:40:53.74	72.86	1.28	-46.5	-61.6	3.6	1.51e+00	0	27	104	0	60	43525
2026-01-13 20:40:54.75	72.78	1.33	-46.5	-61.6	3.6	1.51e+00	0	27	104	0	60	43374
2026-01-13 20:40:55.76	72.71	1.38	-46.5	-61.6	3.6	1.51e+00	0	27	104	0	60	43402
2026-01-13 20:40:56.77	72.63	1.44	-46.5	-61.6	3.6	1.51e+00	0	28	104	0	60	43360
2026-01-13 20:40:57.78	72.55	1.49	-46.4	-61.5	3.6	1.51e+00	0	28	104	0	60	43121
2026-01-13 20:40:58.78	72.47	1.54	-46.5	-61.6	3.6	1.51e+00	0	28	104	0	60	43543
2026-01-13 20:40:59.80	72.39	1.59	-46.5	-61.5	3.6	1.51e+00	0	28	104	0	60	43039
2026-01-13 20:41:00.81	72.31	1.64	-46.4	-61.6	3.6	1.51e+00	0	28	104	0	60	43417
2026-01-13 20:41:01.82	72.24	1.70	-46.5	-61.6	3.6	1.51e+00	0	28	104	0	60	43379
2026-01-13 20:41:02.82	72.16	1.75	-46.4	-61.6	3.6	1.51e+00	0	28	104	0	60	43345
2026-01-13 20:41:03.84	72.08	1.80	-46.4	-61.6	3.6	1.51e+00	0	28	104	0	60	43502
2026-01-13 20:41:04.85	72.00	1.85	-46.4	-61.5	3.6	1.51e+00	0	28	104	0	60	42886
2026-01-13 20:41:05.86	71.92	1.91	-46.4	-61.5	3.6	1.51e+00	0	28	104	0	60	42753
2026-01-13 20:41:06.87	71.84	1.96	-46.4	-61.5	3.6	1.51e+00	0	28	104	0	60	42728
2026-01-13 20:41:07.88	71.75	2.01	-46.4	-61.3	3.6	1.51e+00	0	28	104	0	60	42097
2026-01-13 20:41:08.89	71.67	2.06	-46.4	-61.2	3.6	1.51e+00	0	28	104	0	60	41702
2026-01-13 20:41:09.90	71.59	2.11	-46.4	-61.3	3.6	1.51e+00	0	27	104	0	60	41992
2026-01-13 20:41:10.91	71.51	2.17	-46.4	-61.3	3.6	1.51e+00	0	28	104	0	60	42141
2026-01-13 20:41:11.91	71.43	2.22	-46.4	-61.5	3.6	1.51e+00	0	28	104	0	60	43061
2026-01-13 20:41:12.92	71.35	2.27	-46.4	-61.6	3.6	1.51e+00	0	28	104	0	60	43409
2026-01-13 20:41:13.94	71.26	2.33	-46.4	-61.5	3.6	1.51e+00	0	28	104	0	60	43066
2026-01-13 20:41:14.95	71.18	2.38	-46.4	-61.5	3.6	1.51e+00	0	28	104	0	60	42940
2026-01-13 20:41:15.96	71.10	2.43	-46.4	-61.5	3.6	1.51e+00	0	28	104	0	60	43056
2026-01-13 20:41:16.97	71.01	2.48	-46.4	-61.5	3.6	1.51e+00	0	28	104	0	60	43202
2026-01-13 20:41:17.97	70.93	2.54	-46.4	-61.5	3.6	1.51e+00	0	28	104	0	60	42790
2026-01-13 20:41:18.99	70.85	2.59	-46.4	-61.1	3.6	1.51e+00	0	28	104	0	60	40822
2026-01-13 20:41:20.00	70.76	2.64	-46.4	-60.7	3.6	1.51e+00	0	28	104	0	60	39361
2026-01-13 20:41:21.01	70.68	2.69	-46.4	-60.7	3.6	1.51e+00	0	28	104	0	60	39222
2026-01-13 20:41:22.02	70.59	2.75	-46.4	-61.3	3.6	1.51e+00	0	28	104	0	60	41965
2026-01-13 20:41:23.03	70.50	2.80	-46.4	-61.0	3.6	1.51e+00	0	28	104	0	60	40671
2026-01-13 20:41:24.04	70.42	2.85	-46.3	-58.1	4.1	1.49e+00	0	28	104	0	60	28968
2026-01-13 20:41:25.05	70.33	2.91	-45.8	-53.2	6.4	5.98e-01	90	28	0	0	60	16599
2026-01-13 20:41:26.06	70.25	2.96	-45.3	-51.2	8.6	1.11e-01	68	28	0	2097152	60	13160
2026-01-13 20:41:27.07	70.16	3.01	-44.7	-49.4	10.8	1.56e-02	92	28	0	4194304	60	10648
2026-01-13 20:41:28.08	70.07	3.07	-46.4	-56.5	4.3	3.90e-01	73	28	0	6291456	60	24066
2026-01-13 20:41:29.09	69.99	3.12	-46.5	-61.0	3.6	1.43e+00	0	28	104	6291456	60	40763
2026-01-13 20:41:30.10	69.90	3.17	-45.1	-51.0	10.1	2.48e-01	0	28	104	6291456	60	12869
2026-01-13 20:41:31.11	69.81	3.23	-42.1	-44.4	16.7	0.00e+00	92	28	0	7340032	58	6710
2026-01-13 20:41:32.12	69.72	3.28	-46.2	-60.5	3.6	9.38e-01	0	28	104	8388608	60	38130
2026-01-13 20:41:33.13	69.63	3.33	-42.2	-44.6	15.6	4.44e-01	70	28	104	8388608	58	6897
2026-01-13 20:41:34.14	69.54	3.39	-42.6	-45.2	15.4	0.00e+00	90	28	0	9437184	58	7405
2026-01-13 20:41:35.15	69.45	3.44	-42.5	-45.0	15.6	0.00e+00	16	28	0	10485760	58	7196
2026-01-13 20:41:36.16	69.36	3.49	-41.7	-43.8	16.9	0.00e+00	90	28	0	12582912	58	6309
2026-01-13 20:41:37.16	69.27	3.55	-41.8	-43.9	17.0	0.00e+00	65	28	0	14680064	56	7095
2026-01-13 20:41:38.17	69.18	3.60	-41.6	-43.6	17.1	0.00e+00	92	28	0	16777216	56	6869
2026-01-13 20:41:39.18	69.09	3.65	-41.7	-43.8	17.0	0.00e+00	47	28	0	18874368	56	7050
2026-01-13 20:41:40.19	69.00	3.71	-41.5	-43.5	17.4	0.00e+00	92	28	0	19922944	56	6798
2026-01-13 20:41:41.20	68.91	3.76	-41.7	-43.6	17.2	0.00e+00	91	28	0	22020096	56	6926
2026-01-13 20:41:42.21	68.82	3.81	-41.7	-43.7	17.2	0.00e+00	92	28	0	24117248	56	6941
2026-01-13 20:41:43.22	68.73	3.87	-41.7	-43.7	17.2	0.00e+00	92	28	0	26214400	56	6938
2026-01-13 20:41:44.22	68.63	3.92	-41.8	-43.8	17.1	0.00e+00	28	28	0	28311552	56	7052
2026-01-13 20:41:45.23	68.54	3.98	-41.8	-43.8	17.2	0.00e+00	92	28	0	29360128	56	7023
2026-01-13 20:41:46.24	68.45	4.03	-41.6	-43.6	17.3	0.00e+00	8	28	0	31457280	56	6903
2026-01-13 20:41:47.25	68.36	4.08	-41.8	-43.8	17.2	0.00e+00	92	28	0	33554432	56	7081
2026-01-13 20:41:48.26	68.26	4.14	-41.9	-44.0	17.0	0.00e+00	92	28	0	35651584	56	7195
2026-01-13 20:41:49.26	68.17	4.19	-41.7	-43.8	17.2	0.00e+00	24	28	0	37748736	56	7027
2026-01-13 20:41:50.28	68.07	4.25	-41.7	-43.7	17.3	0.00e+00	92	28	0	38797312	56	6943
2026-01-13 20:41:51.28	67.98	4.30	-41.7	-43.8	17.2	0.00e+00	57	28	0	40894464	56	7040
2026-01-13 20:41:52.29	67.88	4.35	-41.7	-43.7	17.3	0.00e+00	92	28	0	42991616	56	6951
2026-01-13 20:41:53.30	67.79	4.41	-41.6	-43.5	17.5	0.00e+00	0	28	0	45088768	56	6806
2026-01-13 20:41:54.31	67.69	4.46	-41.8	-43.9	17.2	0.00e+00	92	28	0	47185920	56	7097
2026-01-13 20:41:55.32	67.59	4.52	-41.7	-43.7	17.3	0.00e+00	90	28	0	48234496	56	6983
2026-01-13 20:41:56.33	67.50	4.57	-42.0	-44.1	17.0	0.00e+00	91	28	0	50331648	56	7315
2026-01-13 20:41:57.34	67.40	4.62	-41.7	-43.7	17.5	0.00e+00	92	28	0	52428800	56	6961
2026-01-13 20:41:58.35	67.30	4.68	-41.7	-43.7	17.4	0.00e+00	26	28	0	54525952	56	6929
2026-01-13 20:41:59.36	67.20	4.73	-41.7	-43.6	17.5	0.00e+00	91	28	0	56623104	56	6899
2026-01-13 20:42:00.37	67.11	4.79	-41.6	-43.6	17.5	0.00e+00	64	28	0	57671680	56	6857
2026-01-13 20:42:01.38	67.01	4.84	-41.6	-43.5	17.7	0.00e+00	92	28	0	59768832	56	6778
2026-01-13 20:42:02.39	66.91	4.90	-41.7	-43.6	17.5	0.00e+00	51	28	0	61865984	56	6891
2026-01-13 20:42:03.39	66.81	4.95	-41.5	-43.4	17.8	0.00e+00	12	28	0	63963136	56	6709
2026-01-13 20:42:04.40	66.71	5.00	-41.7	-43.7	17.5	0.00e+00	90	28	0	66060288	56	6945
2026-01-13 20:42:05.41	66.61	5.06	-41.4	-43.2	18.0	0.00e+00	7	28	0	67108864	56	6557
2026-01-13 20:42:06.42	66.51	5.11	-41.7	-43.7	17.5	0.00e+00	92	28	0	69206016	56	6944
2026-01-13 20:42:07.43	66.41	5.17	-41.7	-43.6	17.5	0.00e+00	0	28	0	71303168	56	6925
2026-01-13 20:42:08.44	66.31	5.22	-41.8	-43.7	17.6	0.00e+00	92	28	0	73400320	56	6943
2026-01-13 20:42:09.45	66.21	5.28	-41.5	-43.4	17.9	0.00e+00	0	28	0	75497472	56	6727
2026-01-13 20:42:10.45	66.10	5.33	-41.5	-43.3	17.9	0.00e+00	90	28	0	76546048	56	6623
2026-01-13 20:42:11.46	66.00	5.39	-41.7	-43.6	17.7	0.00e+00	90	28	0	78643200	56	6854
2026-01-13 20:42:12.47	65.90	5.44	-41.7	-43.5	17.7	0.00e+00	6	28	0	80740352	56	6843
2026-01-13 20:42:13.48	65.80	5.50	-41.6	-43.5	17.7	0.00e+00	92	28	0	82837504	56	6775
2026-01-13 20:42:14.49	65.69	5.55	-41.7	-43.6	17.6	0.00e+00	63	28	0	84934656	56	6903
2026-01-13 20:42:15.50	65.59	5.60	-41.7	-43.6	17.8	0.00e+00	92	28	0	85983232	56	6893
2026-01-13 20:42:16.51	65.48	5.66	-41.5	-43.3	18.0	0.00e+00	0	28	0	88080384	56	6670
2026-01-13 20:42:17.52	65.38	5.71	-41.7	-43.5	17.8	0.00e+00	92	28	0	90177536	56	6821
2026-01-13 20:42:18.53	65.27	5.77	-41.5	-43.3	18.1	0.00e+00	92	28	0	92274688	56	6653
2026-01-13 20:42:19.53	65.17	5.82	-41.2	-42.8	18.5	0.00e+00	61	28	0	94371840	56	6316
2026-01-13 20:42:20.54	65.06	5.88	-41.2	-42.9	18.4	0.00e+00	92	28	0	96468992	56	6372
2026-01-13 20:42:21.55	64.95	5.93	-41.0	-42.6	18.7	0.00e+00	39	28	0	97517568	56	6168
2026-01-13 20:42:22.56	64.85	5.99	-41.4	-43.2	18.1	0.00e+00	92	28	0	99614720	56	6571
2026-01-13 20:42:23.57	64.74	6.04	-41.1	-42.7	18.6	0.00e+00	58	28	0	101711872	56	6234
2026-01-13 20:42:24.58	64.63	6.10	-41.2	-42.9	18.4	0.00e+00	92	28	0	103809024	56	6371
2026-01-13 20:42:25.59	64.52	6.15	-41.1	-42.7	18.6	0.00e+00	5	28	0	105906176	56	6216
2026-01-13 20:42:26.60	64.42	6.21	-41.1	-42.8	18.6	0.00e+00	92	28	0	106954752	56	6261
2026-01-13 20:42:27.61	64.31	6.26	-41.0	-42.7	18.7	0.00e+00	92	28	0	109051904	56	6196
2026-01-13 20:42:28.62	64.20	6.32	-40.8	-42.4	19.0	0.00e+00	50	28	0	111149056	56	6008
2026-01-13 20:42:29.63	64.09	6.37	-40.7	-42.3	19.1	0.00e+00	90	28	0	113246208	54	6647
2026-01-13 20:42:30.64	63.98	6.43	-40.6	-42.1	19.2	0.00e+00	0	28	0	115343360	54	6506
2026-01-13 20:42:31.65	63.87	6.48	-40.6	-42.2	19.0	0.00e+00	92	28	0	116391936	54	6558
2026-01-13 20:42:32.66	63.75	6.54	-40.7	-42.3	19.0	0.00e+00	7	28	0	118489088	54	6622
2026-01-13 20:42:33.67	63.64	6.59	-40.5	-42.0	19.4	0.00e+00	92	28	0	120586240	54	6435
2026-01-13 20:42:34.68	63.53	6.65	-40.4	-41.9	19.4	0.00e+00	92	28	0	122683392	54	6351
2026-01-13 20:42:35.69	63.42	6.70	-40.5	-42.0	19.3	0.00e+00	0	28	0	124780544	54	6413
2026-01-13 20:42:36.70	63.30	6.76	-40.6	-42.1	19.2	0.00e+00	90	28	0	125829120	54	6505
2026-01-13 20:42:37.71	63.19	6.81	-40.4	-41.8	19.5	0.00e+00	65	28	0	127926272	54	6289
2026-01-13 20:42:38.72	63.08	6.87	-40.4	-41.9	19.4	0.00e+00	92	28	0	130023424	54	6327
2026-01-13 20:42:39.72	62.96	6.92	-40.5	-42.1	19.3	0.00e+00	0	28	0	132120576	54	6466
2026-01-13 20:42:40.74	62.85	6.98	-40.5	-42.0	19.3	0.00e+00	90	28	0	134217728	54	6436
2026-01-13 20:42:41.74	62.73	7.04	-40.5	-41.9	19.4	0.00e+00	60	28	0	135266304	54	6378
2026-01-13 20:42:42.76	62.62	7.09	-40.4	-41.9	19.1	0.00e+00	18	28	0	137363456	54	6364
2026-01-13 20:42:43.76	62.50	7.15	-40.4	-41.9	19.5	0.00e+00	92	28	0	139460608	54	6327
2026-01-13 20:42:44.77	62.39	7.20	-40.5	-42.0	19.3	0.00e+00	66	28	0	141557760	54	6437
2026-01-13 20:42:45.78	62.27	7.26	-40.7	-42.2	19.2	0.00e+00	92	28	0	143654912	54	6603
2026-01-13 20:42:46.79	62.15	7.31	-40.4	-41.8	19.6	0.00e+00	8	28	0	144703488	54	6286
2026-01-13 20:42:47.80	62.03	7.37	-40.4	-41.8	19.6	0.00e+00	91	28	0	146800640	54	6281
2026-01-13 20:42:48.80	61.92	7.42	-40.3	-41.7	19.7	0.00e+00	62	28	0	148897792	54	6243
2026-01-13 20:42:49.81	61.80	7.48	-40.1	-41.5	19.8	0.00e+00	90	28	0	150994944	54	6058
2026-01-13 20:42:50.82	61.68	7.53	-40.1	-41.4	20.0	0.00e+00	92	28	0	153092096	54	6002
2026-01-13 20:42:51.83	61.56	7.59	-40.0	-41.3	20.1	0.00e+00	7	28	0	154140672	54	5923
2026-01-13 20:42:52.84	61.44	7.64	-40.1	-41.5	19.9	0.00e+00	90	28	0	156237824	54	6077
2026-01-13 20:42:53.85	61.32	7.70	-40.0	-41.3	20.1	0.00e+00	7	28	0	158334976	54	5940
2026-01-13 20:42:54.86	61.20	7.75	-40.2	-41.6	19.9	1.50e-06	90	28	0	160432128	54	6121
2026-01-13 20:42:55.87	61.07	7.81	-40.1	-41.4	19.9	0.00e+00	0	28	0	162529280	54	6018
2026-01-13 20:42:56.88	60.95	7.86	-40.2	-41.6	19.8	0.00e+00	92	28	0	163577856	54	6111
2026-01-13 20:42:57.89	60.83	7.92	-40.3	-41.8	19.7	0.00e+00	91	28	0	165675008	54	6250
2026-01-13 20:42:58.90	60.71	7.97	-40.2	-41.5	19.9	0.00e+00	0	28	0	167772160	54	6092
2026-01-13 20:42:59.90	60.58	8.03	-40.3	-41.7	19.8	0.00e+00	92	28	0	169869312	54	6181
2026-01-13 20:43:00.92	60.46	8.08	-40.3	-41.7	19.8	0.00e+00	0	28	0	171966464	54	6221
2026-01-13 20:43:01.92	60.34	8.14	-40.2	-41.6	19.8	0.00e+00	90	28	0	173015040	54	6161
2026-01-13 20:43:02.93	60.21	8.19	-40.3	-41.7	19.7	0.00e+00	65	28	0	175112192	54	6192
2026-01-13 20:43:03.94	60.09	8.25	-40.3	-41.7	19.8	0.00e+00	92	28	0	177209344	54	6197
2026-01-13 20:43:04.95	59.96	8.31	-40.2	-41.6	19.9	0.00e+00	65	28	0	179306496	54	6124
2026-01-13 20:43:05.96	59.83	8.36	-40.2	-41.5	20.0	0.00e+00	59	28	0	181403648	54	6094
2026-01-13 20:43:06.97	59.71	8.42	-40.1	-41.5	20.0	0.00e+00	91	28	0	182452224	54	6065
2026-01-13 20:43:07.97	59.58	8.47	-40.1	-41.5	20.0	0.00e+00	66	28	0	184549376	54	6062
2026-01-13 20:43:08.98	59.45	8.53	-40.0	-41.3	20.1	0.00e+00	91	28	0	186646528	54	5944
2026-01-13 20:43:09.99	59.32	8.58	-39.9	-41.2	20.2	0.00e+00	16	28	0	188743680	54	5872
2026-01-13 20:43:11.00	59.19	8.64	-39.9	-41.2	20.3	0.00e+00	92	28	0	190840832	54	5836
2026-01-13 20:43:12.01	59.07	8.69	-39.9	-41.2	20.3	0.00e+00	34	28	0	192937984	54	5857
2026-01-13 20:43:13.02	58.94	8.75	-39.9	-41.2	20.3	0.00e+00	92	28	0	193986560	54	5876
2026-01-13 20:43:14.03	58.80	8.80	-39.9	-41.3	20.3	0.00e+00	92	28	0	196083712	54	5905
2026-01-13 20:43:15.04	58.67	8.86	-39.7	-40.9	20.6	0.00e+00	0	28	0	198180864	52	6362
2026-01-13 20:43:16.05	58.54	8.91	-39.6	-40.9	20.7	0.00e+00	92	28	0	200278016	52	6341
2026-01-13 20:43:17.05	58.41	8.97	-39.8	-41.1	20.5	0.00e+00	0	28	0	202375168	52	6468
2026-01-13 20:43:18.06	58.28	9.02	-39.7	-41.0	20.6	0.00e+00	92	28	0	203423744	52	6434
2026-01-13 20:43:19.07	58.15	9.08	-39.8	-41.1	20.4	0.00e+00	0	28	0	205520896	52	6507
2026-01-13 20:43:20.08	58.01	9.13	-39.7	-41.0	20.6	0.00e+00	92	28	0	207618048	52	6397
2026-01-13 20:43:21.09	57.88	9.19	-39.7	-41.0	20.6	0.00e+00	92	28	0	209715200	52	6408
2026-01-13 20:43:22.10	57.74	9.24	-39.7	-40.9	20.7	0.00e+00	0	28	0	211812352	52	6360
2026-01-13 20:43:23.11	57.61	9.29	-39.8	-41.0	20.6	0.00e+00	92	28	0	212860928	52	6455
2026-01-13 20:43:24.12	57.47	9.35	-39.7	-40.9	20.7	0.00e+00	66	28	0	214958080	52	6389
2026-01-13 20:43:25.13	57.34	9.40	-39.8	-41.1	20.5	0.00e+00	92	28	0	217055232	52	6493
2026-01-13 20:43:26.14	57.20	9.46	-39.8	-41.1	20.5	0.00e+00	66	28	0	219152384	52	6474
2026-01-13 20:43:27.15	57.06	9.51	-39.7	-41.0	20.6	0.00e+00	92	28	0	221249536	52	6419
2026-01-13 20:43:28.15	56.93	9.57	-39.7	-41.0	20.6	0.00e+00	31	28	0	222298112	52	6397
2026-01-13 20:43:29.16	56.79	9.62	-39.7	-41.0	20.6	0.00e+00	16	28	0	224395264	52	6406
2026-01-13 20:43:30.17	56.65	9.68	-39.6	-40.9	20.7	0.00e+00	91	28	0	226492416	52	6328
2026-01-13 20:43:31.18	56.51	9.73	-39.9	-41.1	20.5	0.00e+00	2	28	0	228589568	52	6528
2026-01-13 20:43:32.19	56.37	9.79	-40.0	-41.3	20.3	0.00e+00	91	28	0	230686720	52	6627
2026-01-13 20:43:33.20	56.23	9.84	-39.9	-41.2	20.4	0.00e+00	15	28	0	231735296	52	6604
2026-01-13 20:43:34.21	56.09	9.89	-40.0	-41.3	20.4	0.00e+00	91	28	0	233832448	52	6618
2026-01-13 20:43:35.21	55.95	9.95	-40.0	-41.4	20.4	0.00e+00	16	28	0	235929600	52	6699
2026-01-13 20:43:36.23	55.81	10.00	-39.9	-41.3	20.4	0.00e+00	92	28	0	238026752	52	6620
2026-01-13 20:43:37.23	55.67	10.06	-39.9	-41.1	20.5	0.00e+00	91	28	0	240123904	52	6527
2026-01-13 20:43:38.24	55.52	10.11	-39.9	-41.2	20.5	0.00e+00	0	28	0	241172480	52	6568
2026-01-13 20:43:39.26	55.38	10.17	-39.8	-41.0	20.6	0.00e+00	92	28	0	243269632	52	6458
2026-01-13 20:43:40.26	55.24	10.22	-39.8	-41.1	20.6	0.00e+00	0	28	0	245366784	52	6515
2026-01-13 20:43:41.27	55.09	10.27	-39.6	-40.9	20.8	0.00e+00	92	28	0	247463936	52	6332
2026-01-13 20:43:42.28	54.95	10.33	-39.6	-40.9	20.7	0.00e+00	0	28	0	249561088	52	6328
2026-01-13 20:43:43.29	54.80	10.38	-39.7	-41.0	20.6	0.00e+00	73	28	0	250609664	52	6400
2026-01-13 20:43:44.30	54.66	10.44	-39.8	-41.0	20.7	0.00e+00	92	28	0	252706816	52	6451
2026-01-13 20:43:45.31	54.51	10.49	-39.7	-40.9	20.7	0.00e+00	64	28	0	254803968	52	6385
2026-01-13 20:43:46.32	54.36	10.54	-39.9	-41.2	20.5	0.00e+00	90	28	0	256901120	52	6542
2026-01-13 20:43:47.33	54.21	10.60	-39.8	-41.1	20.6	0.00e+00	0	28	0	258998272	52	6508
2026-01-13 20:43:48.34	54.07	10.65	-39.8	-41.0	20.7	0.00e+00	91	28	0	261095424	52	6462
2026-01-13 20:43:49.35	53.92	10.70	-39.9	-41.2	20.6	0.00e+00	66	28	0	262144000	52	6540
2026-01-13 20:43:50.36	53.77	10.76	-39.8	-41.0	20.6	0.00e+00	91	28	0	264241152	52	6451
2026-01-13 20:43:51.37	53.62	10.81	-40.0	-41.2	20.5	0.00e+00	22	28	0	266338304	52	6612
2026-01-13 20:43:52.38	53.47	10.86	-39.9	-41.2	20.4	0.00e+00	66	28	0	268435456	52	6563
2026-01-13 20:43:53.38	53.32	10.92	-39.9	-41.1	20.6	0.00e+00	92	28	0	270532608	52	6533
2026-01-13 20:43:54.39	53.16	10.97	-39.8	-41.0	20.7	0.00e+00	0	28	0	271581184	52	6435
2026-01-13 20:43:55.40	53.01	11.02	-39.6	-40.8	20.8	0.00e+00	92	28	0	273678336	52	6317
2026-01-13 20:43:56.41	52.86	11.07	-39.6	-40.9	20.9	0.00e+00	14	28	0	275775488	52	6318
2026-01-13 20:43:57.42	52.71	11.13	-39.7	-40.9	20.8	0.00e+00	92	28	0	277872640	52	6377
2026-01-13 20:43:58.43	52.55	11.18	-39.6	-40.8	21.0	0.00e+00	7	28	0	279969792	52	6261
2026-01-13 20:43:59.44	52.40	11.23	-39.5	-40.7	21.0	0.00e+00	36	28	0	281018368	52	6180
2026-01-13 20:44:00.45	52.24	11.29	-39.5	-40.8	21.0	0.00e+00	90	28	0	283115520	52	6247
2026-01-13 20:44:01.46	52.09	11.34	-39.3	-40.5	21.2	0.00e+00	0	28	0	285212672	52	6087
2026-01-13 20:44:02.46	51.93	11.39	-39.3	-40.5	21.2	0.00e+00	92	28	0	287309824	52	6067
2026-01-13 20:44:03.47	51.78	11.44	-39.3	-40.5	21.3	0.00e+00	0	28	0	289406976	52	6058
2026-01-13 20:44:04.48	51.62	11.49	-39.3	-40.5	21.2	0.00e+00	91	28	0	290455552	52	6076
2026-01-13 20:44:05.49	51.46	11.55	-39.4	-40.6	21.1	0.00e+00	54	28	0	292552704	52	6165
2026-01-13 20:44:06.50	51.30	11.60	-39.2	-40.3	21.4	0.00e+00	92	28	0	294649856	52	5928
2026-01-13 20:44:07.52	51.14	11.65	-39.0	-40.2	21.5	0.00e+00	92	28	0	296747008	52	5839
2026-01-13 20:44:08.52	50.98	11.70	-39.0	-40.1	21.6	0.00e+00	67	28	0	298844160	52	5803
2026-01-13 20:44:09.54	50.82	11.75	-38.7	-39.8	21.9	0.00e+00	92	28	0	299892736	52	5594
2026-01-13 20:44:10.55	50.66	11.81	-38.7	-39.8	21.8	0.00e+00	65	28	0	301989888	50	6249
2026-01-13 20:44:11.56	50.50	11.86	-38.4	-39.5	22.1	0.00e+00	92	28	0	304087040	50	6051
2026-01-13 20:44:12.56	50.34	11.91	-38.3	-39.3	22.3	0.00e+00	23	28	0	306184192	50	5958
2026-01-13 20:44:13.57	50.18	11.96	-38.4	-39.4	22.2	0.00e+00	92	28	0	308281344	50	6025
2026-01-13 20:44:14.58	50.01	12.01	-38.3	-39.3	22.3	0.00e+00	92	28	0	309329920	50	5949
2026-01-13 20:44:15.59	49.85	12.06	-38.4	-39.4	22.3	0.00e+00	20	28	0	311427072	50	5985
2026-01-13 20:44:16.60	49.69	12.11	-38.2	-39.2	22.4	0.00e+00	92	28	0	313524224	50	5858
2026-01-13 20:44:17.61	49.52	12.16	-38.1	-39.1	22.5	0.00e+00	9	28	0	315621376	50	5803
2026-01-13 20:44:18.62	49.36	12.21	-38.1	-39.1	22.5	0.00e+00	92	28	0	317718528	50	5802
2026-01-13 20:44:19.63	49.19	12.26	-38.2	-39.2	22.5	0.00e+00	0	28	0	318767104	50	5839
2026-01-13 20:44:20.64	49.02	12.31	-38.1	-39.1	22.5	0.00e+00	92	28	0	320864256	50	5795
2026-01-13 20:44:21.65	48.86	12.36	-38.2	-39.2	22.5	0.00e+00	6	28	0	322961408	50	5845
2026-01-13 20:44:22.66	48.69	12.41	-38.2	-39.2	22.5	0.00e+00	91	28	0	325058560	50	5859
2026-01-13 20:44:23.67	48.52	12.46	-38.1	-39.1	22.6	0.00e+00	91	28	0	327155712	50	5773
2026-01-13 20:44:24.67	48.35	12.51	-38.1	-39.1	22.7	0.00e+00	7	28	0	328204288	50	5784
2026-01-13 20:44:25.69	48.18	12.56	-38.0	-39.0	22.6	0.00e+00	92	28	0	330301440	50	5759
2026-01-13 20:44:26.69	48.01	12.61	-38.1	-39.2	22.5	0.00e+00	68	28	0	332398592	50	5829
2026-01-13 20:44:27.71	47.84	12.66	-38.0	-39.0	22.6	0.00e+00	92	28	0	334495744	50	5742
2026-01-13 20:44:28.72	47.67	12.71	-37.9	-38.9	22.8	0.00e+00	0	28	0	336592896	50	5632
2026-01-13 20:44:29.72	47.50	12.76	-37.8	-38.8	22.8	0.00e+00	92	28	0	337641472	50	5606
2026-01-13 20:44:30.73	47.33	12.81	-37.8	-38.8	22.9	0.00e+00	90	28	0	339738624	48	6249
2026-01-13 20:44:31.75	47.15	12.86	-37.7	-38.7	22.9	0.00e+00	66	28	0	341835776	48	6189
2026-01-13 20:44:32.76	46.98	12.91	-37.6	-38.6	23.0	0.00e+00	92	28	0	343932928	48	6134
2026-01-13 20:44:33.76	46.81	12.95	-37.6	-38.5	23.1	0.00e+00	15	28	0	346030080	48	6074
2026-01-13 20:44:34.77	46.63	13.00	-37.7	-38.7	22.9	0.00e+00	92	28	0	347078656	48	6206
2026-01-13 20:44:35.78	46.46	13.05	-37.5	-38.4	23.2	0.00e+00	15	28	0	349175808	48	6031
2026-01-13 20:44:36.79	46.28	13.10	-37.4	-38.3	23.3	0.00e+00	83	28	0	351272960	48	5913
2026-01-13 20:44:37.80	46.11	13.15	-37.4	-38.4	23.2	0.00e+00	61	28	0	353370112	48	5970
2026-01-13 20:44:38.81	45.93	13.19	-37.3	-38.2	23.4	0.00e+00	2	28	0	355467264	48	5846
2026-01-13 20:44:39.82	45.75	13.24	-37.4	-38.3	23.3	0.00e+00	92	28	0	357564416	48	5932
2026-01-13 20:44:40.83	45.57	13.29	-37.3	-38.3	23.3	0.00e+00	15	28	0	358612992	48	5900
2026-01-13 20:44:41.84	45.40	13.34	-37.2	-38.1	23.4	0.00e+00	90	28	0	360710144	48	5814
2026-01-13 20:44:42.85	45.22	13.38	-37.2	-38.1	23.2	0.00e+00	0	28	0	362807296	48	5805
2026-01-13 20:44:43.86	45.04	13.43	-37.2	-38.1	23.5	0.00e+00	92	28	0	364904448	48	5803
2026-01-13 20:44:44.87	44.86	13.47	-37.1	-38.0	23.4	0.00e+00	0	28	0	367001600	48	5760
2026-01-13 20:44:45.88	44.68	13.52	-37.1	-38.0	23.5	0.00e+00	0	28	0	368050176	48	5743
2026-01-13 20:44:46.89	44.49	13.57	-37.2	-38.1	23.4	0.00e+00	92	28	0	370147328	48	5820
2026-01-13 20:44:47.90	44.31	13.61	-37.3	-38.3	23.3	0.00e+00	68	28	0	372244480	48	5907
2026-01-13 20:44:48.91	44.13	13.66	-37.3	-38.3	23.4	0.00e+00	90	28	0	374341632	48	5902
2026-01-13 20:44:49.92	43.95	13.70	-37.3	-38.2	23.4	0.00e+00	66	28	0	376438784	48	5892
2026-01-13 20:44:50.93	43.76	13.75	-37.4	-38.4	23.2	0.00e+00	90	28	0	377487360	48	5976
2026-01-13 20:44:51.94	43.58	13.79	-37.4	-38.3	23.4	0.00e+00	16	28	0	379584512	48	5939
2026-01-13 20:44:52.95	43.39	13.84	-37.5	-38.4	23.2	0.00e+00	90	28	0	381681664	48	6032
2026-01-13 20:44:53.96	43.21	13.88	-37.6	-38.6	23.1	0.00e+00	67	28	0	383778816	48	6138
2026-01-13 20:44:54.97	43.02	13.93	-37.6	-38.6	23.1	0.00e+00	67	28	0	385875968	48	6120
2026-01-13 20:44:55.98	42.84	13.97	-37.7	-38.7	22.9	0.00e+00	90	28	0	386924544	48	6191
2026-01-13 20:44:56.98	42.65	14.02	-37.7	-38.7	22.9	0.00e+00	14	28	0	389021696	48	6200
2026-01-13 20:44:57.99	42.46	14.06	-37.7	-38.6	23.1	0.00e+00	92	28	0	391118848	48	6164
2026-01-13 20:44:59.00	42.27	14.10	-37.7	-38.6	22.9	0.00e+00	0	28	0	393216000	48	6144
2026-01-13 20:45:00.01	42.09	14.15	-37.5	-38.5	23.2	0.00e+00	91	28	0	395313152	48	6053
2026-01-13 20:45:01.02	41.90	14.19	-37.7	-38.6	23.0	0.00e+00	0	28	0	396361728	48	6153
2026-01-13 20:45:02.03	41.71	14.23	-37.6	-38.5	23.1	0.00e+00	0	28	0	398458880	48	6099
2026-01-13 20:45:03.04	41.52	14.27	-37.7	-38.6	23.0	0.00e+00	92	28	0	400556032	48	6154
2026-01-13 20:45:04.05	41.32	14.32	-37.6	-38.6	23.1	0.00e+00	0	28	0	402653184	48	6136
2026-01-13 20:45:05.06	41.13	14.36	-37.6	-38.6	23.1	0.00e+00	90	28	0	404750336	48	6138
2026-01-13 20:45:06.07	40.94	14.40	-37.7	-38.6	23.1	0.00e+00	0	28	0	405798912	48	6134
2026-01-13 20:45:07.08	40.75	14.44	-37.7	-38.7	23.0	0.00e+00	91	28	0	407896064	48	6208
2026-01-13 20:45:08.09	40.56	14.48	-37.8	-38.7	23.0	0.00e+00	0	28	0	409993216	48	6245
2026-01-13 20:45:09.10	40.36	14.52	-37.6	-38.5	23.1	0.00e+00	67	28	0	412090368	48	6077
2026-01-13 20:45:10.11	40.17	14.56	-37.5	-38.4	23.2	0.00e+00	91	28	0	414187520	48	6012
2026-01-13 20:45:11.12	39.97	14.60	-37.3	-38.2	23.4	0.00e+00	0	28	0	415236096	48	5849
2026-01-13 20:45:12.12	39.78	14.64	-37.4	-38.3	23.4	0.00e+00	92	28	0	417333248	48	5906
2026-01-13 20:45:13.13	39.58	14.68	-37.3	-38.2	23.4	0.00e+00	21	28	0	419430400	48	5834
2026-01-13 20:45:14.14	39.39	14.72	-37.4	-38.3	23.4	0.00e+00	2	28	0	421527552	48	5921
2026-01-13 20:45:15.15	39.19	14.76	-37.5	-38.4	23.3	0.00e+00	0	28	0	423624704	48	6022
2026-01-13 20:45:16.16	38.99	14.80	-37.5	-38.5	23.2	0.00e+00	14	28	0	425721856	48	6053
2026-01-13 20:45:17.17	38.79	14.84	-37.2	-38.1	23.6	0.00e+00	91	28	0	426770432	48	5776
2026-01-13 20:45:18.18	38.60	14.88	-37.1	-38.0	23.6	0.00e+00	0	28	0	428867584	48	5748
2026-01-13 20:45:19.19	38.40	14.92	-37.1	-38.0	23.5	0.00e+00	90	28	0	430964736	48	5752
2026-01-13 20:45:20.20	38.20	14.96	-37.0	-37.9	23.7	0.00e+00	13	28	0	433061888	48	5679
2026-01-13 20:45:21.21	38.00	14.99	-37.0	-37.9	23.7	0.00e+00	56	28	0	435159040	48	5648
2026-01-13 20:45:22.21	37.80	15.03	-37.0	-37.9	23.7	0.00e+00	0	28	0	436207616	48	5668
2026-01-13 20:45:23.22	37.60	15.07	-37.1	-38.0	23.6	0.00e+00	0	28	0	438304768	48	5706
2026-01-13 20:45:24.23	37.40	15.10	-37.2	-38.1	23.5	0.00e+00	0	28	0	440401920	48	5765
2026-01-13 20:45:25.24	37.19	15.14	-37.2	-38.1	23.1	0.00e+00	0	28	0	442499072	48	5775
2026-01-13 20:45:26.25	36.99	15.18	-37.2	-38.1	23.5	0.00e+00	91	28	0	444596224	48	5782
2026-01-13 20:45:27.26	36.79	15.21	-37.1	-38.0	23.6	0.00e+00	0	28	0	445644800	48	5743
2026-01-13 20:45:28.27	36.59	15.25	-36.9	-37.7	23.8	0.00e+00	92	28	0	447741952	48	5561
2026-01-13 20:45:29.28	36.38	15.28	-36.9	-37.8	23.7	0.00e+00	2	28	0	449839104	48	5605
2026-01-13 20:45:30.28	36.18	15.32	-37.0	-37.9	23.8	0.00e+00	0	28	0	451936256	48	5641
2026-01-13 20:45:31.29	35.97	15.35	-37.0	-37.8	23.8	0.00e+00	0	28	0	454033408	48	5626
2026-01-13 20:45:32.30	35.77	15.39	-36.9	-37.7	23.8	0.00e+00	67	28	0	455081984	48	5566
2026-01-13 20:45:33.31	35.56	15.42	-36.8	-37.7	23.8	0.00e+00	92	28	0	457179136	48	5540
2026-01-13 20:45:34.31	35.36	15.45	-36.9	-37.8	23.8	0.00e+00	0	28	0	459276288	48	5599
2026-01-13 20:45:35.32	35.15	15.49	-36.9	-37.7	23.9	0.00e+00	92	28	0	461373440	48	5555
2026-01-13 20:45:36.33	34.94	15.52	-37.1	-38.0	23.7	0.00e+00	0	28	0	463470592	48	5707
2026-01-13 20:45:37.34	34.74	15.55	-37.1	-38.0	23.6	0.00e+00	66	28	0	464519168	48	5715
2026-01-13 20:45:38.35	34.53	15.58	-37.1	-38.0	23.6	0.00e+00	2	28	0	466616320	48	5702
2026-01-13 20:45:39.36	34.32	15.62	-37.1	-38.0	23.6	0.00e+00	0	28	0	468713472	48	5711
2026-01-13 20:45:40.36	34.11	15.65	-37.2	-38.1	23.6	0.00e+00	62	28	0	470810624	48	5803
2026-01-13 20:45:41.37	33.90	15.68	-37.2	-38.1	23.5	0.00e+00	14	28	0	472907776	48	5770
2026-01-13 20:45:42.38	33.69	15.71	-37.3	-38.2	23.4	0.00e+00	92	28	0	473956352	48	5884
2026-01-13 20:45:43.39	33.48	15.74	-37.2	-38.1	23.6	0.00e+00	5	28	0	476053504	48	5814
2026-01-13 20:45:44.40	33.27	15.77	-37.1	-38.0	23.6	0.00e+00	73	28	0	478150656	48	5731
2026-01-13 20:45:45.42	33.06	15.80	-37.0	-37.9	23.7	0.00e+00	14	28	0	480247808	48	5685
2026-01-13 20:45:46.42	32.85	15.83	-37.0	-37.9	23.7	0.00e+00	6	28	0	482344960	48	5678
2026-01-13 20:45:47.43	32.64	15.86	-37.1	-38.0	23.6	0.00e+00	0	28	0	483393536	48	5715
2026-01-13 20:45:48.45	32.42	15.89	-37.3	-38.2	23.5	0.00e+00	5	28	0	485490688	48	5868
2026-01-13 20:45:49.45	32.21	15.92	-37.3	-38.2	23.4	0.00e+00	92	28	0	487587840	48	5895
2026-01-13 20:45:50.47	32.00	15.94	-37.2	-38.1	23.4	0.00e+00	0	28	0	489684992	48	5803
2026-01-13 20:45:51.47	31.78	15.97	-37.3	-38.2	23.4	0.00e+00	92	28	0	491782144	48	5871
2026-01-13 20:45:52.49	31.57	16.00	-37.3	-38.2	23.4	0.00e+00	0	28	0	493879296	48	5857
2026-01-13 20:45:53.50	31.35	16.03	-37.1	-38.0	23.7	0.00e+00	5	28	0	494927872	48	5748
2026-01-13 20:45:54.50	31.14	16.05	-37.3	-38.2	23.5	0.00e+00	0	28	0	497025024	48	5846
2026-01-13 20:45:55.51	30.93	16.08	-37.1	-38.0	23.6	0.00e+00	67	28	0	499122176	48	5756
2026-01-13 20:45:56.52	30.71	16.10	-37.2	-38.1	23.6	7.00e-07	90	28	0	501219328	48	5797
2026-01-13 20:45:57.53	30.49	16.13	-37.4	-38.3	23.4	0.00e+00	65	28	0	503316480	48	5929
2026-01-13 20:45:58.55	30.27	16.15	-37.3	-38.2	23.4	0.00e+00	92	28	0	504365056	48	5831
2026-01-13 20:45:59.55	30.06	16.18	-37.3	-38.2	23.4	0.00e+00	21	28	0	506462208	48	5893
2026-01-13 20:46:00.56	29.84	16.20	-37.4	-38.4	23.4	0.00e+00	20	28	0	508559360	48	5976
2026-01-13 20:46:01.57	29.63	16.23	-37.6	-38.6	23.1	0.00e+00	0	28	0	510656512	48	6118
2026-01-13 20:46:02.58	29.41	16.25	-37.8	-38.8	22.9	0.00e+00	8	28	0	512753664	48	6295
2026-01-13 20:46:03.59	29.19	16.27	-37.9	-38.9	22.9	0.00e+00	92	28	0	513802240	48	6342
2026-01-13 20:46:04.60	28.97	16.30	-37.8	-38.8	23.0	0.00e+00	6	28	0	515899392	48	6271
2026-01-13 20:46:05.61	28.75	16.32	-38.0	-38.9	22.8	0.00e+00	92	28	0	517996544	48	6382
2026-01-13 20:46:06.62	28.53	16.34	-37.8	-38.7	23.0	0.00e+00	6	28	0	520093696	48	6239
2026-01-13 20:46:07.63	28.31	16.36	-37.9	-38.8	22.9	0.00e+00	83	28	0	522190848	48	6300
2026-01-13 20:46:08.64	28.09	16.38	-37.9	-38.8	22.9	0.00e+00	0	28	0	523239424	48	6306
2026-01-13 20:46:09.65	27.87	16.40	-37.8	-38.7	23.1	0.00e+00	0	28	0	525336576	48	6230
2026-01-13 20:46:10.66	27.65	16.42	-37.7	-38.6	23.2	0.00e+00	6	28	0	527433728	48	6137
2026-01-13 20:46:11.67	27.43	16.44	-37.6	-38.5	23.2	0.00e+00	0	28	0	529530880	48	6071
2026-01-13 20:46:12.68	27.21	16.46	-37.4	-38.3	23.4	0.00e+00	92	28	0	531628032	48	5917
2026-01-13 20:46:13.69	26.99	16.48	-37.3	-38.2	23.5	0.00e+00	0	28	0	532676608	48	5879
2026-01-13 20:46:14.70	26.77	16.50	-37.4	-38.3	23.5	0.00e+00	92	28	0	534773760	48	5906
2026-01-13 20:46:15.71	26.55	16.52	-37.6	-38.5	23.3	0.00e+00	67	28	0	536870912	48	6067
2026-01-13 20:46:16.72	26.33	16.53	-37.7	-38.6	23.2	0.00e+00	68	28	0	538968064	48	6144
2026-01-13 20:46:17.72	26.11	16.55	-37.8	-38.7	23.1	0.00e+00	0	28	0	541065216	48	6213
2026-01-13 20:46:18.74	25.88	16.57	-37.5	-38.5	23.3	0.00e+00	14	28	0	542113792	48	6049
2026-01-13 20:46:19.74	25.66	16.58	-37.7	-38.6	23.1	0.00e+00	90	28	0	544210944	48	6159
2026-01-13 20:46:20.75	25.44	16.60	-37.7	-38.6	23.1	0.00e+00	67	28	0	546308096	48	6164
2026-01-13 20:46:21.76	25.21	16.62	-37.8	-38.8	23.0	0.00e+00	92	28	0	548405248	48	6255
2026-01-13 20:46:22.77	24.99	16.63	-38.0	-39.0	22.8	0.00e+00	15	28	0	550502400	48	6412
2026-01-13 20:46:23.78	24.77	16.65	-38.0	-39.0	22.8	0.00e+00	14	28	0	551550976	48	6391
2026-01-13 20:46:24.79	24.54	16.66	-38.0	-38.9	22.8	0.00e+00	12	28	0	553648128	48	6390
2026-01-13 20:46:25.80	24.32	16.67	-37.8	-38.8	22.8	0.00e+00	22	28	0	555745280	48	6274
2026-01-13 20:46:26.81	24.09	16.69	-37.6	-38.5	23.2	0.00e+00	49	28	0	557842432	48	6103
2026-01-13 20:46:27.82	23.87	16.70	-37.7	-38.6	23.1	0.00e+00	15	28	0	559939584	48	6141
2026-01-13 20:46:28.83	23.65	16.71	-37.9	-38.8	22.9	0.00e+00	92	28	0	560988160	48	6305
2026-01-13 20:46:29.84	23.42	16.72	-37.9	-38.9	22.9	0.00e+00	0	28	0	563085312	48	6332
2026-01-13 20:46:30.84	23.20	16.74	-38.0	-39.0	22.9	0.00e+00	13	28	0	565182464	48	6416
2026-01-13 20:46:31.85	22.97	16.75	-38.1	-39.1	22.8	0.00e+00	0	28	0	567279616	48	6469
2026-01-13 20:46:32.86	22.75	16.76	-38.0	-39.0	22.8	0.00e+00	0	28	0	569376768	48	6407
2026-01-13 20:46:33.87	22.52	16.77	-37.9	-38.9	22.9	0.00e+00	0	28	0	570425344	48	6334
2026-01-13 20:46:34.88	22.30	16.78	-37.8	-38.8	22.9	0.00e+00	0	28	0	572522496	48	6289
2026-01-13 20:46:35.89	22.07	16.79	-37.9	-38.9	22.9	0.00e+00	92	28	0	574619648	48	6324
2026-01-13 20:46:36.90	21.84	16.79	-37.9	-38.9	22.8	0.00e+00	67	28	0	576716800	48	6346
2026-01-13 20:46:37.91	21.62	16.80	-38.0	-38.9	22.7	0.00e+00	92	28	0	578813952	48	6384
2026-01-13 20:46:38.92	21.39	16.81	-38.1	-39.1	22.6	0.00e+00	60	28	0	579862528	48	6527
2026-01-13 20:46:39.93	21.17	16.82	-38.2	-39.2	22.7	0.00e+00	68	28	0	581959680	48	6581
2026-01-13 20:46:40.94	20.94	16.83	-38.0	-38.9	22.8	0.00e+00	18	28	0	584056832	48	6370
2026-01-13 20:46:41.95	20.71	16.83	-37.8	-38.7	23.0	0.00e+00	67	28	0	586153984	48	6245
2026-01-13 20:46:42.96	20.49	16.84	-37.8	-38.8	22.9	0.00e+00	92	28	0	588251136	48	6248
2026-01-13 20:46:43.97	20.26	16.84	-37.8	-38.8	23.0	0.00e+00	16	28	0	590348288	48	6265
2026-01-13 20:46:44.98	20.03	16.85	-37.8	-38.8	22.9	0.00e+00	90	28	0	591396864	48	6260
2026-01-13 20:46:45.99	19.80	16.85	-38.0	-39.0	22.9	0.00e+00	14	28	0	593494016	48	6408
2026-01-13 20:46:47.00	19.58	16.86	-38.0	-38.9	22.8	0.00e+00	0	28	0	595591168	48	6387
2026-01-13 20:46:48.00	19.35	16.86	-37.9	-38.8	23.0	0.00e+00	15	28	0	597688320	48	6300
2026-01-13 20:46:49.01	19.13	16.86	-37.8	-38.8	22.8	0.00e+00	14	28	0	599785472	48	6293
2026-01-13 20:46:50.02	18.90	16.87	-37.9	-38.8	22.9	0.00e+00	49	28	0	600834048	48	6291
2026-01-13 20:46:51.03	18.67	16.87	-37.9	-38.9	22.8	0.00e+00	0	28	0	602931200	48	6330
2026-01-13 20:46:52.04	18.44	16.87	-38.1	-39.1	22.6	0.00e+00	92	28	0	605028352	48	6534
2026-01-13 20:46:53.05	18.22	16.87	-38.1	-39.1	22.7	0.00e+00	0	28	0	607125504	48	6503
2026-01-13 20:46:54.06	17.99	16.87	-38.1	-39.1	22.7	0.00e+00	28	28	0	609222656	48	6469
2026-01-13 20:46:55.07	17.76	16.87	-38.2	-39.2	22.6	0.00e+00	0	28	0	610271232	48	6599
2026-01-13 20:46:56.07	17.54	16.88	-38.1	-39.0	22.8	0.00e+00	0	28	0	612368384	48	6451
2026-01-13 20:46:57.09	17.31	16.87	-37.8	-38.7	23.0	0.00e+00	0	28	0	614465536	48	6210
2026-01-13 20:46:58.10	17.08	16.87	-37.8	-38.7	23.0	0.00e+00	0	28	0	616562688	48	6221
2026-01-13 20:46:59.11	16.85	16.87	-37.7	-38.6	23.1	0.00e+00	92	28	0	618659840	48	6151
2026-01-13 20:47:00.11	16.63	16.87	-37.6	-38.5	22.9	0.00e+00	67	28	0	619708416	48	6042
2026-01-13 20:47:01.12	16.40	16.87	-37.8	-38.7	23.1	0.00e+00	92	28	0	621805568	48	6217
2026-01-13 20:47:02.13	16.18	16.87	-37.7	-38.7	23.0	0.00e+00	68	28	0	623902720	48	6188
2026-01-13 20:47:03.14	15.95	16.86	-37.9	-38.8	22.7	0.00e+00	65	28	0	625999872	48	6300
2026-01-13 20:47:04.15	15.72	16.86	-38.0	-38.9	22.8	0.00e+00	13	28	0	628097024	48	6386
2026-01-13 20:47:05.16	15.49	16.86	-37.9	-38.9	22.8	0.00e+00	15	28	0	629145600	48	6346
2026-01-13 20:47:06.17	15.27	16.85	-37.9	-38.9	22.9	0.00e+00	68	28	0	631242752	48	6326
2026-01-13 20:47:07.18	15.04	16.85	-37.7	-38.7	23.1	0.00e+00	0	28	0	633339904	48	6209
2026-01-13 20:47:08.19	14.81	16.84	-37.7	-38.7	23.0	0.00e+00	92	28	0	635437056	48	6199
2026-01-13 20:47:09.19	14.59	16.83	-37.8	-38.7	23.0	0.00e+00	14	28	0	637534208	48	6219
2026-01-13 20:47:10.20	14.36	16.83	-37.8	-38.7	23.1	0.00e+00	0	28	0	638582784	48	6213
2026-01-13 20:47:11.21	14.14	16.82	-37.8	-38.7	23.0	0.00e+00	13	28	0	640679936	48	6230
2026-01-13 20:47:12.22	13.91	16.81	-37.9	-38.9	22.9	0.00e+00	14	28	0	642777088	48	6333
2026-01-13 20:47:13.23	13.68	16.81	-37.7	-38.6	23.1	0.00e+00	90	28	0	644874240	48	6157
2026-01-13 20:47:14.24	13.46	16.80	-37.7	-38.6	23.1	0.00e+00	0	28	0	646971392	48	6139
2026-01-13 20:47:15.25	13.23	16.79	-37.5	-38.5	23.2	0.00e+00	90	28	0	648019968	48	6049
2026-01-13 20:47:16.26	13.01	16.78	-37.4	-38.3	23.4	0.00e+00	0	28	0	650117120	48	5925
2026-01-13 20:47:17.27	12.78	16.77	-37.4	-38.3	23.4	0.00e+00	8	28	0	652214272	48	5919
2026-01-13 20:47:18.28	12.55	16.76	-37.3	-38.2	23.4	0.00e+00	0	28	0	654311424	48	5846
2026-01-13 20:47:19.29	12.33	16.75	-37.4	-38.3	23.4	0.00e+00	0	28	0	656408576	48	5917
2026-01-13 20:47:20.30	12.10	16.74	-37.3	-38.2	23.5	0.00e+00	0	28	0	658505728	48	5866
2026-01-13 20:47:21.30	11.88	16.73	-37.4	-38.4	23.3	0.00e+00	0	28	0	659554304	48	5983
2026-01-13 20:47:22.31	11.66	16.72	-37.5	-38.4	23.2	0.00e+00	92	28	0	661651456	48	6022
2026-01-13 20:47:23.32	11.43	16.70	-37.5	-38.5	23.1	0.00e+00	0	28	0	663748608	48	6047
2026-01-13 20:47:24.33	11.21	16.69	-37.5	-38.4	23.3	0.00e+00	92	28	0	665845760	48	6007
2026-01-13 20:47:25.34	10.98	16.68	-37.4	-38.3	23.4	0.00e+00	22	28	0	667942912	48	5948
2026-01-13 20:47:26.35	10.76	16.67	-37.2	-38.1	23.6	0.00e+00	23	28	0	668991488	48	5812
2026-01-13 20:47:27.36	10.53	16.65	-37.1	-38.0	23.7	0.00e+00	21	28	0	671088640	48	5746
2026-01-13 20:47:28.37	10.31	16.64	-37.1	-38.0	23.8	0.00e+00	21	28	0	673185792	48	5697
2026-01-13 20:47:29.38	10.09	16.62	-36.8	-37.7	23.9	0.00e+00	90	28	0	675282944	48	5528
2026-01-13 20:47:30.39	9.86	16.61	-36.9	-37.8	23.9	0.00e+00	0	28	0	677380096	48	5599
2026-01-13 20:47:31.40	9.64	16.59	-36.9	-37.8	23.8	0.00e+00	90	28	0	678428672	48	5590
2026-01-13 20:47:32.41	9.42	16.58	-36.8	-37.7	23.9	0.00e+00	15	28	0	680525824	48	5540
2026-01-13 20:47:33.42	9.20	16.56	-36.9	-37.8	23.9	0.00e+00	5	28	0	682622976	48	5579
2026-01-13 20:47:34.43	8.97	16.54	-36.8	-37.7	23.7	0.00e+00	8	28	0	684720128	48	5528
2026-01-13 20:47:35.44	8.75	16.52	-36.9	-37.8	23.9	0.00e+00	6	28	0	686817280	48	5571
2026-01-13 20:47:36.44	8.53	16.51	-36.8	-37.7	24.0	0.00e+00	45	28	0	687865856	48	5533
2026-01-13 20:47:37.45	8.31	16.49	-37.0	-37.9	23.8	0.00e+00	5	28	0	689963008	48	5631
2026-01-13 20:47:38.46	8.09	16.47	-36.8	-37.7	23.9	0.00e+00	92	28	0	692060160	48	5540
2026-01-13 20:47:39.47	7.87	16.45	-36.9	-37.8	23.8	0.00e+00	5	28	0	694157312	48	5570
2026-01-13 20:47:40.48	7.65	16.43	-37.0	-37.8	23.8	0.00e+00	3	28	0	696254464	48	5626
2026-01-13 20:47:41.49	7.43	16.41	-36.8	-37.7	23.8	0.00e+00	0	28	0	697303040	48	5548
2026-01-13 20:47:42.50	7.21	16.39	-37.0	-37.9	23.7	0.00e+00	0	28	0	699400192	48	5664
2026-01-13 20:47:43.51	6.99	16.37	-37.2	-38.1	23.6	0.00e+00	0	28	0	701497344	48	5787
2026-01-13 20:47:44.52	6.77	16.35	-37.0	-37.9	23.7	0.00e+00	0	28	0	703594496	48	5667
2026-01-13 20:47:45.53	6.55	16.33	-37.1	-38.0	23.6	0.00e+00	92	28	0	705691648	48	5726
2026-01-13 20:47:46.53	6.33	16.31	-37.3	-38.2	23.4	0.00e+00	21	28	0	706740224	48	5832
2026-01-13 20:47:47.54	6.11	16.28	-37.2	-38.1	23.6	0.00e+00	91	28	0	708837376	48	5783
2026-01-13 20:47:48.55	5.90	16.26	-37.3	-38.2	23.5	0.00e+00	21	28	0	710934528	48	5840
2026-01-13 20:47:49.56	5.68	16.24	-37.4	-38.3	23.4	0.00e+00	20	28	0	713031680	48	5931
2026-01-13 20:47:50.57	5.46	16.21	-37.2	-38.1	23.6	0.00e+00	65	28	0	715128832	48	5810
2026-01-13 20:47:51.58	5.24	16.19	-37.2	-38.1	23.6	0.00e+00	34	28	0	716177408	48	5769
2026-01-13 20:47:52.59	5.03	16.17	-37.2	-38.1	23.5	0.00e+00	92	28	0	718274560	48	5819
2026-01-13 20:47:53.60	4.81	16.14	-37.3	-38.2	23.6	0.00e+00	0	28	0	720371712	48	5843
2026-01-13 20:47:54.61	4.60	16.12	-37.2	-38.0	23.6	0.00e+00	91	28	0	722468864	48	5755
2026-01-13 20:47:55.62	4.38	16.09	-37.3	-38.2	23.5	0.00e+00	27	28	0	724566016	48	5864
2026-01-13 20:47:56.63	4.16	16.06	-37.4	-38.3	23.4	0.00e+00	92	28	0	725614592	48	5923
2026-01-13 20:47:57.64	3.95	16.04	-37.4	-38.3	23.3	0.00e+00	0	28	0	727711744	48	5957
2026-01-13 20:47:58.65	3.73	16.01	-37.5	-38.4	23.3	0.00e+00	0	28	0	729808896	48	6029
2026-01-13 20:47:59.66	3.52	15.98	-37.6	-38.6	23.1	0.00e+00	15	28	0	731906048	48	6122
2026-01-13 20:48:00.67	3.31	15.96	-37.7	-38.7	23.0	0.00e+00	0	28	0	734003200	48	6199
2026-01-13 20:48:01.68	3.09	15.93	-37.8	-38.8	23.0	0.00e+00	92	28	0	735051776	48	6253
2026-01-13 20:48:02.68	2.88	15.90	-37.9	-38.8	22.9	0.00e+00	0	28	0	737148928	48	6293
2026-01-13 20:48:03.69	2.67	15.87	-37.9	-38.8	23.0	0.00e+00	66	28	0	739246080	48	6312
2026-01-13 20:48:04.70	2.46	15.84	-37.9	-38.8	23.1	0.00e+00	60	28	0	741343232	48	6280
2026-01-13 20:48:05.71	2.25	15.81	-37.9	-38.8	22.9	0.00e+00	0	28	0	743440384	48	6306
2026-01-13 20:48:06.72	2.04	15.78	-37.8	-38.8	23.0	0.00e+00	0	28	0	744488960	48	6272
2026-01-13 20:48:07.73	1.82	15.75	-37.8	-38.8	23.1	0.00e+00	16	28	0	746586112	48	6256
2026-01-13 20:48:08.74	1.61	15.72	-37.8	-38.7	23.0	0.00e+00	92	28	0	748683264	48	6237
2026-01-13 20:48:09.75	1.40	15.69	-37.7	-38.6	23.1	0.00e+00	17	28	0	750780416	48	6171
2026-01-13 20:48:10.76	1.19	15.66	-37.7	-38.6	23.1	0.00e+00	92	28	0	752877568	48	6144
2026-01-13 20:48:11.77	0.99	15.63	-37.8	-38.8	23.0	0.00e+00	66	28	0	754974720	48	6289
2026-01-13 20:48:12.78	0.78	15.60	-37.8	-38.7	23.0	0.00e+00	16	28	0	756023296	48	6241
2026-01-13 20:48:13.79	0.57	15.57	-37.6	-38.6	23.2	0.00e+00	2	28	0	758120448	48	6128
2026-01-13 20:48:14.79	0.36	15.54	-37.5	-38.5	23.2	0.00e+00	2	28	0	760217600	48	6053
2026-01-13 20:48:15.80	0.16	15.50	-37.6	-38.5	23.2	0.00e+00	90	28	0	762314752	48	6075
2026-01-13 20:48:16.81	359.95	15.47	-37.5	-38.4	23.4	0.00e+00	0	28	0	764411904	48	5995
2026-01-13 20:48:17.82	359.74	15.44	-37.4	-38.4	23.4	0.00e+00	92	28	0	765460480	48	5972
2026-01-13 20:48:18.83	359.54	15.40	-37.3	-38.2	23.5	0.00e+00	0	28	0	767557632	48	5866
2026-01-13 20:48:19.84	359.33	15.37	-37.4	-38.4	23.3	0.00e+00	18	28	0	769654784	48	5971
2026-01-13 20:48:20.85	359.13	15.33	-37.3	-38.3	23.5	0.00e+00	0	28	0	771751936	48	5902
2026-01-13 20:48:21.86	358.92	15.30	-37.4	-38.3	23.3	0.00e+00	0	28	0	773849088	48	5934
2026-01-13 20:48:22.87	358.72	15.26	-37.4	-38.3	23.1	0.00e+00	0	28	0	774897664	48	5930
2026-01-13 20:48:23.88	358.52	15.23	-37.4	-38.4	23.3	0.00e+00	0	28	0	776994816	48	5975
2026-01-13 20:48:24.89	358.31	15.19	-37.5	-38.4	23.3	0.00e+00	92	28	0	779091968	48	5994
2026-01-13 20:48:25.90	358.11	15.16	-37.4	-38.3	23.3	0.00e+00	59	28	0	781189120	48	5938
2026-01-13 20:48:26.91	357.91	15.12	-37.5	-38.4	23.2	0.00e+00	92	28	0	783286272	48	6017
2026-01-13 20:48:27.92	357.71	15.08	-37.4	-38.4	23.3	0.00e+00	0	28	0	784334848	48	5969
2026-01-13 20:48:28.93	357.51	15.05	-37.3	-38.2	23.3	0.00e+00	61	28	0	786432000	48	5887
2026-01-13 20:48:29.94	357.31	15.01	-37.5	-38.4	23.2	0.00e+00	33	28	0	788529152	48	6029
2026-01-13 20:48:30.95	357.11	14.97	-37.5	-38.5	23.2	0.00e+00	17	28	0	790626304	48	6059
2026-01-13 20:48:31.96	356.91	14.94	-37.6	-38.6	23.1	0.00e+00	90	28	0	792723456	48	6116
2026-01-13 20:48:32.97	356.71	14.90	-37.5	-38.4	23.3	0.00e+00	65	28	0	793772032	48	5984
2026-01-13 20:48:33.98	356.51	14.86	-37.4	-38.3	23.3	0.00e+00	92	28	0	795869184	48	5922
2026-01-13 20:48:34.99	356.31	14.82	-37.3	-38.2	23.4	0.00e+00	0	28	0	797966336	48	5848
2026-01-13 20:48:36.00	356.11	14.78	-37.3	-38.2	23.0	0.00e+00	2	28	0	800063488	48	5889
2026-01-13 20:48:37.01	355.92	14.74	-37.4	-38.3	23.2	0.00e+00	18	28	0	802160640	48	5938
2026-01-13 20:48:38.02	355.72	14.70	-37.6	-38.5	23.0	0.00e+00	16	28	0	803209216	48	6081
2026-01-13 20:48:39.02	355.53	14.66	-37.8	-38.8	23.0	0.00e+00	39	28	0	805306368	48	6267
2026-01-13 20:48:40.04	355.33	14.62	-38.0	-39.0	22.5	0.00e+00	0	28	0	807403520	48	6452
2026-01-13 20:48:41.04	355.14	14.58	-38.0	-39.0	22.7	0.00e+00	92	28	0	809500672	48	6429
2026-01-13 20:48:42.05	354.94	14.54	-38.1	-39.1	22.6	0.00e+00	0	28	0	811597824	48	6487
2026-01-13 20:48:43.06	354.75	14.50	-38.2	-39.2	22.5	0.00e+00	43	28	0	812646400	48	6586
2026-01-13 20:48:44.07	354.56	14.46	-38.1	-39.2	22.6	0.00e+00	0	28	0	814743552	48	6547
2026-01-13 20:48:45.08	354.36	14.42	-38.0	-39.0	22.7	0.00e+00	0	28	0	816840704	48	6443
2026-01-13 20:48:46.09	354.17	14.38	-37.9	-38.9	22.8	0.00e+00	0	28	0	818937856	48	6368
2026-01-13 20:48:47.10	353.98	14.34	-37.8	-38.8	22.9	0.00e+00	65	28	0	821035008	48	6274
2026-01-13 20:48:48.11	353.79	14.29	-37.7	-38.6	23.0	0.00e+00	92	28	0	823132160	48	6165
2026-01-13 20:48:49.12	353.60	14.25	-37.7	-38.6	22.9	0.00e+00	64	28	0	824180736	48	6163
2026-01-13 20:48:50.13	353.41	14.21	-37.8	-38.8	22.9	0.00e+00	85	28	0	826277888	48	6249
2026-01-13 20:48:51.14	353.22	14.17	-37.7	-38.6	23.1	0.00e+00	0	28	0	828375040	48	6161
2026-01-13 20:48:52.15	353.03	14.12	-37.8	-38.7	23.0	0.00e+00	60	28	0	830472192	48	6214
2026-01-13 20:48:53.16	352.84	14.08	-37.8	-38.8	22.9	0.00e+00	22	28	0	832569344	48	6274
2026-01-13 20:48:54.17	352.65	14.04	-37.9	-38.9	22.8	0.00e+00	59	28	0	833617920	48	6349
2026-01-13 20:48:55.18	352.47	13.99	-38.1	-39.1	22.7	0.00e+00	90	28	0	835715072	48	6487
2026-01-13 20:48:56.19	352.28	13.95	-38.1	-39.0	22.7	0.00e+00	0	28	0	837812224	48	6458
2026-01-13 20:48:57.19	352.10	13.91	-38.0	-39.0	22.7	0.00e+00	92	28	0	839909376	48	6412
2026-01-13 20:48:58.20	351.91	13.86	-38.1	-39.1	22.7	0.00e+00	2	28	0	842006528	48	6465
2026-01-13 20:48:59.21	351.73	13.82	-38.1	-39.1	22.7	0.00e+00	0	28	0	843055104	48	6469
2026-01-13 20:49:00.22	351.54	13.77	-38.1	-39.1	22.5	0.00e+00	16	28	0	845152256	48	6533
2026-01-13 20:49:01.23	351.36	13.73	-38.3	-39.3	22.4	0.00e+00	2	28	0	847249408	48	6647
2026-01-13 20:49:02.24	351.18	13.68	-38.4	-39.4	22.3	0.00e+00	92	28	0	849346560	48	6721
2026-01-13 20:49:03.25	350.99	13.64	-38.3	-39.3	22.4	0.00e+00	2	28	0	851443712	48	6672
2026-01-13 20:49:04.26	350.81	13.59	-38.5	-39.5	22.1	0.00e+00	92	28	0	852492288	48	6838
2026-01-13 20:49:05.27	350.63	13.54	-38.6	-39.7	22.0	0.00e+00	0	28	0	854589440	48	6973
2026-01-13 20:49:06.28	350.45	13.50	-38.6	-39.7	22.0	0.00e+00	22	28	0	856686592	48	6936
2026-01-13 20:49:07.29	350.27	13.45	-38.6	-39.7	22.0	0.00e+00	0	28	0	858783744	48	6964
2026-01-13 20:49:08.30	350.09	13.41	-38.6	-39.7	22.0	0.00e+00	63	28	0	860880896	48	6958
2026-01-13 20:49:09.31	349.91	13.36	-38.8	-39.9	21.9	0.00e+00	0	28	0	861929472	50	6352
2026-01-13 20:49:10.32	349.73	13.31	-38.8	-39.8	21.9	0.00e+00	0	28	0	864026624	50	6307
2026-01-13 20:49:11.33	349.55	13.27	-38.9	-40.0	21.7	0.00e+00	90	28	0	866123776	50	6455
2026-01-13 20:49:12.34	349.38	13.22	-39.0	-40.2	21.6	0.00e+00	63	28	0	868220928	50	6545
2026-01-13 20:49:13.34	349.20	13.17	-39.2	-40.3	21.4	0.00e+00	92	28	0	870318080	50	6678
2026-01-13 20:49:14.35	349.03	13.12	-39.2	-40.3	21.4	0.00e+00	0	28	0	871366656	50	6667
2026-01-13 20:49:15.36	348.85	13.08	-39.2	-40.4	21.4	0.00e+00	0	28	0	873463808	50	6718
2026-01-13 20:49:16.37	348.67	13.03	-39.3	-40.5	21.2	0.00e+00	20	28	0	875560960	50	6817
2026-01-13 20:49:17.38	348.50	12.98	-39.3	-40.5	21.3	0.00e+00	23	28	0	877658112	50	6810
2026-01-13 20:49:18.39	348.33	12.93	-39.3	-40.5	21.3	0.00e+00	92	28	0	879755264	50	6814
2026-01-13 20:49:19.40	348.15	12.88	-39.4	-40.6	21.2	0.00e+00	6	28	0	880803840	50	6864
2026-01-13 20:49:20.41	347.98	12.83	-39.3	-40.5	21.3	0.00e+00	90	28	0	882900992	50	6785
2026-01-13 20:49:21.42	347.81	12.79	-39.3	-40.5	21.2	0.00e+00	24	28	0	884998144	50	6777
2026-01-13 20:49:22.43	347.64	12.74	-39.4	-40.6	21.2	0.00e+00	0	28	0	887095296	50	6851
2026-01-13 20:49:23.44	347.47	12.69	-39.4	-40.6	21.2	0.00e+00	0	28	0	889192448	50	6870
2026-01-13 20:49:24.45	347.29	12.64	-39.5	-40.7	20.9	0.00e+00	0	28	0	891289600	50	6973
2026-01-13 20:49:25.46	347.13	12.59	-39.6	-40.8	21.0	0.00e+00	54	28	0	892338176	50	7015
2026-01-13 20:49:26.47	346.96	12.54	-39.6	-40.9	20.9	0.00e+00	0	28	0	894435328	50	7101
2026-01-13 20:49:27.48	346.79	12.49	-39.8	-41.1	20.8	0.00e+00	92	28	0	896532480	52	6472
2026-01-13 20:49:28.49	346.62	12.44	-39.9	-41.2	20.7	0.00e+00	0	28	0	898629632	52	6559
2026-01-13 20:49:29.49	346.45	12.39	-39.8	-41.1	20.7	0.00e+00	28	28	0	900726784	52	6509
2026-01-13 20:49:30.50	346.29	12.34	-39.7	-41.0	20.8	0.00e+00	0	28	0	901775360	52	6407
2026-01-13 20:49:31.51	346.12	12.29	-39.8	-41.0	20.8	0.00e+00	61	28	0	903872512	52	6437
2026-01-13 20:49:32.52	345.95	12.24	-39.8	-41.1	20.7	0.00e+00	0	28	0	905969664	52	6496
2026-01-13 20:49:33.53	345.79	12.19	-39.9	-41.1	20.7	0.00e+00	23	28	0	908066816	52	6535
2026-01-13 20:49:34.54	345.62	12.14	-40.0	-41.3	20.5	0.00e+00	92	28	0	910163968	52	6620
2026-01-13 20:49:35.55	345.46	12.09	-40.0	-41.3	20.5	0.00e+00	24	28	0	911212544	52	6682
2026-01-13 20:49:36.56	345.30	12.04	-40.0	-41.3	20.5	0.00e+00	92	28	0	913309696	52	6688
2026-01-13 20:49:37.57	345.13	11.99	-40.1	-41.4	20.4	0.00e+00	4	28	0	915406848	52	6703
2026-01-13 20:49:38.58	344.97	11.94	-40.1	-41.4	20.3	0.00e+00	6	28	0	917504000	52	6749
2026-01-13 20:49:39.59	344.81	11.89	-40.2	-41.5	20.2	0.00e+00	26	28	0	919601152	52	6830
2026-01-13 20:49:40.60	344.65	11.83	-40.3	-41.6	20.2	0.00e+00	27	28	0	920649728	52	6927
2026-01-13 20:49:41.61	344.49	11.78	-40.2	-41.6	20.3	0.00e+00	92	28	0	922746880	52	6879
2026-01-13 20:49:42.62	344.33	11.73	-40.2	-41.5	20.3	0.00e+00	7	28	0	924844032	52	6806
2026-01-13 20:49:43.63	344.17	11.68	-40.0	-41.3	20.5	0.00e+00	90	28	0	926941184	52	6641
2026-01-13 20:49:44.64	344.01	11.63	-40.0	-41.3	20.5	0.00e+00	0	28	0	929038336	52	6622
2026-01-13 20:49:45.64	343.85	11.58	-40.0	-41.3	20.5	0.00e+00	8	28	0	930086912	52	6626
2026-01-13 20:49:46.65	343.69	11.52	-40.0	-41.3	20.5	0.00e+00	0	28	0	932184064	52	6634
2026-01-13 20:49:47.66	343.54	11.47	-40.0	-41.3	20.6	0.00e+00	0	28	0	934281216	52	6627
2026-01-13 20:49:48.67	343.38	11.42	-40.2	-41.5	20.2	0.00e+00	0	28	0	936378368	52	6807
2026-01-13 20:49:49.68	343.22	11.37	-40.1	-41.5	20.3	0.00e+00	63	28	0	938475520	52	6775
2026-01-13 20:49:50.69	343.07	11.32	-40.3	-41.6	20.1	0.00e+00	90	28	0	939524096	52	6914
2026-01-13 20:49:51.70	342.91	11.26	-40.1	-41.4	20.3	0.00e+00	0	28	0	941621248	52	6749
2026-01-13 20:49:52.71	342.76	11.21	-40.1	-41.5	20.3	0.00e+00	92	28	0	943718400	52	6793
2026-01-13 20:49:53.72	342.61	11.16	-40.1	-41.4	20.3	0.00e+00	0	28	0	945815552	52	6759
2026-01-13 20:49:54.73	342.45	11.11	-40.0	-41.3	20.4	0.00e+00	64	28	0	947912704	52	6687
2026-01-13 20:49:55.74	342.30	11.05	-40.1	-41.4	20.5	0.00e+00	0	28	0	948961280	52	6723
2026-01-13 20:49:56.75	342.15	11.00	-39.9	-41.2	20.5	0.00e+00	18	28	0	951058432	52	6590
2026-01-13 20:49:57.76	342.00	10.95	-39.6	-40.9	20.9	0.00e+00	92	28	0	953155584	52	6325
2026-01-13 20:49:58.77	341.85	10.89	-39.7	-40.9	20.8	0.00e+00	62	28	0	955252736	52	6343
2026-01-13 20:49:59.78	341.70	10.84	-39.6	-40.8	21.0	0.00e+00	90	28	0	957349888	52	6280
2026-01-13 20:50:00.79	341.55	10.79	-39.6	-40.8	20.9	0.00e+00	22	28	0	959447040	52	6268
2026-01-13 20:50:01.80	341.40	10.73	-39.8	-41.0	20.8	0.00e+00	2	28	0	960495616	52	6439
2026-01-13 20:50:02.81	341.25	10.68	-39.7	-41.0	20.9	0.00e+00	20	28	0	962592768	52	6424
2026-01-13 20:50:03.82	341.10	10.63	-39.4	-40.6	21.2	0.00e+00	0	28	0	964689920	52	6119
2026-01-13 20:50:04.83	340.95	10.57	-39.2	-40.3	21.3	0.00e+00	92	28	0	966787072	52	5950
2026-01-13 20:50:05.84	340.80	10.52	-39.2	-40.3	21.3	0.00e+00	0	28	0	968884224	52	5954
2026-01-13 20:50:06.85	340.66	10.47	-39.2	-40.3	21.4	0.00e+00	92	28	0	969932800	52	5941
2026-01-13 20:50:07.86	340.51	10.41	-39.1	-40.3	21.5	0.00e+00	2	28	0	972029952	52	5911
2026-01-13 20:50:08.87	340.37	10.36	-39.1	-40.3	21.4	0.00e+00	0	28	0	974127104	52	5926
2026-01-13 20:50:09.88	340.22	10.31	-39.2	-40.4	21.3	0.00e+00	0	28	0	976224256	52	5980
2026-01-13 20:50:10.89	340.08	10.25	-39.1	-40.3	21.3	0.00e+00	4	28	0	978321408	52	5913
2026-01-13 20:50:11.90	339.93	10.20	-39.0	-40.2	21.4	0.00e+00	60	28	0	979369984	52	5855
2026-01-13 20:50:12.90	339.79	10.14	-39.0	-40.2	21.4	0.00e+00	62	28	0	981467136	52	5869
2026-01-13 20:50:13.91	339.65	10.09	-38.9	-40.1	21.5	0.00e+00	91	28	0	983564288	52	5803
2026-01-13 20:50:14.92	339.51	10.04	-38.9	-40.0	21.5	0.00e+00	61	28	0	985661440	52	5754
2026-01-13 20:50:15.93	339.36	9.98	-38.9	-40.0	21.5	0.00e+00	43	28	0	987758592	52	5741
2026-01-13 20:50:16.94	339.22	9.93	-38.7	-39.9	21.7	0.00e+00	56	28	0	988807168	50	6334
2026-01-13 20:50:17.95	339.08	9.87	-38.8	-39.9	21.7	0.00e+00	56	28	0	990904320	50	6368
2026-01-13 20:50:18.96	338.94	9.82	-38.6	-39.7	21.8	0.00e+00	5	28	0	993001472	50	6210
2026-01-13 20:50:19.97	338.80	9.76	-38.7	-39.8	21.7	0.00e+00	23	28	0	995098624	50	6284
2026-01-13 20:50:20.98	338.66	9.71	-38.6	-39.7	21.8	0.00e+00	92	28	0	997195776	50	6203
2026-01-13 20:50:21.99	338.53	9.66	-38.6	-39.7	21.8	0.00e+00	21	28	0	998244352	50	6187
2026-01-13 20:50:22.99	338.39	9.60	-38.5	-39.6	22.0	0.00e+00	92	28	0	1000341504	50	6165
2026-01-13 20:50:24.00	338.25	9.55	-38.3	-39.3	22.1	0.00e+00	24	28	0	1002438656	50	5956
2026-01-13 20:50:25.01	338.11	9.49	-38.5	-39.6	22.1	0.00e+00	0	28	0	1004535808	50	6133
2026-01-13 20:50:26.02	337.98	9.44	-38.1	-39.2	22.3	0.00e+00	2	28	0	1006632960	50	5839
2026-01-13 20:50:27.03	337.84	9.38	-38.3	-39.4	22.2	0.00e+00	0	28	0	1007681536	50	6002
2026-01-13 20:50:28.03	337.71	9.33	-38.3	-39.3	22.1	0.00e+00	92	28	0	1009778688	50	5964
2026-01-13 20:50:29.04	337.57	9.27	-38.1	-39.2	22.3	0.00e+00	0	28	0	1011875840	50	5842
2026-01-13 20:50:30.05	337.44	9.22	-38.2	-39.3	22.1	0.00e+00	90	28	0	1013972992	50	5936
2026-01-13 20:50:31.06	337.31	9.16	-38.2	-39.2	22.2	0.00e+00	0	28	0	1016070144	50	5872
2026-01-13 20:50:32.07	337.17	9.11	-38.2	-39.2	22.2	0.00e+00	8	28	0	1017118720	50	5882
2026-01-13 20:50:33.08	337.04	9.06	-38.2	-39.3	22.2	0.00e+00	0	28	0	1019215872	50	5897
2026-01-13 20:50:34.09	336.91	9.00	-38.0	-39.1	22.4	0.00e+00	0	28	0	1021313024	50	5782
2026-01-13 20:50:35.10	336.77	8.95	-38.0	-39.0	22.4	0.00e+00	0	28	0	1023410176	50	5735
2026-01-13 20:50:36.11	336.64	8.89	-37.7	-38.7	22.7	0.00e+00	0	28	0	1025507328	50	5561
2026-01-13 20:50:37.12	336.51	8.84	-37.8	-38.8	22.6	0.00e+00	92	28	0	1026555904	48	6274
2026-01-13 20:50:38.12	336.38	8.78	-37.9	-38.9	22.5	0.00e+00	0	28	0	1028653056	48	6361
2026-01-13 20:50:39.13	336.25	8.73	-37.8	-38.9	22.3	0.00e+00	66	28	0	1030750208	48	6329
2026-01-13 20:50:40.14	336.12	8.67	-38.0	-39.0	22.3	0.00e+00	55	28	0	1032847360	48	6415
2026-01-13 20:50:41.15	336.00	8.62	-37.8	-38.8	22.5	0.00e+00	56	28	0	1034944512	48	6283
2026-01-13 20:50:42.16	335.87	8.56	-37.8	-38.8	22.5	0.00e+00	2	28	0	1035993088	48	6299
2026-01-13 20:50:43.17	335.74	8.51	-37.9	-39.0	22.2	0.00e+00	0	28	0	1038090240	48	6398
2026-01-13 20:50:44.18	335.61	8.45	-38.0	-39.1	22.3	0.00e+00	92	28	0	1040187392	48	6490
2026-01-13 20:50:45.19	335.49	8.40	-38.1	-39.2	21.9	0.00e+00	21	28	0	1042284544	48	6560
2026-01-13 20:50:46.20	335.36	8.34	-38.1	-39.2	22.1	0.00e+00	92	28	0	1044381696	48	6580
2026-01-13 20:50:47.21	335.23	8.29	-38.2	-39.2	22.1	0.00e+00	26	28	0	1045430272	48	6595
2026-01-13 20:50:48.22	335.11	8.23	-38.1	-39.2	22.1	0.00e+00	0	28	0	1047527424	48	6551
2026-01-13 20:50:49.22	334.99	8.18	-38.2	-39.3	22.0	0.00e+00	26	28	0	1049624576	48	6646
2026-01-13 20:50:50.23	334.86	8.12	-38.0	-39.0	22.3	0.00e+00	0	28	0	1051721728	48	6459
2026-01-13 20:50:51.24	334.74	8.07	-38.0	-39.1	22.3	0.00e+00	92	28	0	1053818880	48	6465
2026-01-13 20:50:52.25	334.61	8.01	-38.2	-39.2	22.1	0.00e+00	0	28	0	1055916032	48	6591
2026-01-13 20:50:53.26	334.49	7.96	-38.4	-39.5	21.8	0.00e+00	92	28	0	1056964608	48	6847
2026-01-13 20:50:54.27	334.37	7.90	-38.4	-39.5	22.0	0.00e+00	0	28	0	1059061760	48	6774
2026-01-13 20:50:55.28	334.25	7.84	-38.3	-39.4	22.0	0.00e+00	55	28	0	1061158912	48	6704
2026-01-13 20:50:56.29	334.12	7.79	-38.4	-39.5	21.8	0.00e+00	0	28	0	1063256064	48	6776
2026-01-13 20:50:57.30	334.00	7.73	-38.6	-39.7	21.8	7.00e-07	54	28	0	1065353216	48	6970
2026-01-13 20:50:58.31	333.88	7.68	-39.1	-40.3	21.1	0.00e+00	0	28	0	1066401792	50	6638
2026-01-13 20:50:59.32	333.76	7.62	-38.7	-39.9	21.6	0.00e+00	0	28	0	1068498944	50	6329
2026-01-13 20:51:00.33	333.64	7.57	-38.4	-39.5	21.9	0.00e+00	90	28	0	1070596096	50	6039
2026-01-13 20:51:01.34	333.52	7.51	-38.6	-39.7	21.6	0.00e+00	59	28	0	1072693248	50	6227
2026-01-13 20:51:02.34	333.41	7.46	-38.6	-39.8	21.6	0.00e+00	92	28	0	1074790400	50	6250
2026-01-13 20:51:03.35	333.29	7.40	-38.9	-40.0	21.4	0.00e+00	53	28	0	1075838976	50	6458
2026-01-13 20:51:04.36	333.17	7.35	-38.6	-39.7	21.6	0.00e+00	26	28	0	1077936128	50	6233
2026-01-13 20:51:05.37	333.05	7.29	-38.5	-39.6	21.7	0.00e+00	53	28	0	1080033280	50	6165
2026-01-13 20:51:06.38	332.94	7.24	-38.7	-39.9	21.5	0.00e+00	0	28	0	1082130432	50	6318
2026-01-13 20:51:07.39	332.82	7.18	-38.5	-39.6	21.8	0.00e+00	92	28	0	1084227584	50	6122
2026-01-13 20:51:08.40	332.70	7.13	-38.6	-39.7	21.7	0.00e+00	5	28	0	1085276160	50	6181
2026-01-13 20:51:09.41	332.59	7.07	-38.9	-40.0	21.3	0.00e+00	93	28	0	1087373312	50	6436
2026-01-13 20:51:10.42	332.47	7.02	-38.8	-39.9	21.4	0.00e+00	6	28	0	1089470464	50	6348
2026-01-13 20:51:11.43	332.36	6.96	-38.8	-40.0	21.4	0.00e+00	4	28	0	1091567616	50	6418
2026-01-13 20:51:12.44	332.25	6.91	-38.6	-39.7	21.5	0.00e+00	5	28	0	1093664768	50	6237
2026-01-13 20:51:13.45	332.13	6.85	-38.7	-39.9	21.5	0.00e+00	0	28	0	1094713344	50	6319
2026-01-13 20:51:14.46	332.02	6.80	-38.7	-39.8	21.5	0.00e+00	0	28	0	1096810496	50	6312
2026-01-13 20:51:15.47	331.91	6.74	-39.1	-40.2	21.1	0.00e+00	0	28	0	1098907648	50	6615
2026-01-13 20:51:16.47	331.79	6.69	-38.4	-39.5	21.8	0.00e+00	92	28	0	1101004800	50	6091
2026-01-13 20:51:17.48	331.68	6.63	-38.9	-40.0	21.2	0.00e+00	0	28	0	1103101952	50	6464
2026-01-13 20:51:18.49	331.57	6.58	-39.3	-40.5	20.7	0.00e+00	59	28	0	1104150528	50	6793
2026-01-13 20:51:19.50	331.46	6.52	-39.5	-40.8	20.7	0.00e+00	0	28	0	1106247680	52	6280
2026-01-13 20:51:20.51	331.35	6.47	-38.9	-40.1	21.2	0.00e+00	54	28	0	1108344832	52	5792
2026-01-13 20:51:21.52	331.24	6.41	-39.3	-40.5	20.8	0.00e+00	0	28	0	1110441984	52	6073
2026-01-13 20:51:22.53	331.13	6.36	-39.3	-40.6	20.7	0.00e+00	59	28	0	1112539136	52	6118
2026-01-13 20:51:23.54	331.02	6.30	-39.7	-41.0	20.4	0.00e+00	90	28	0	1113587712	52	6424
2026-01-13 20:51:24.55	330.91	6.25	-39.6	-40.8	20.5	0.00e+00	59	28	0	1115684864	52	6313
2026-01-13 20:51:25.56	330.80	6.19	-39.0	-40.2	21.1	0.00e+00	92	28	0	1117782016	52	5861
2026-01-13 20:51:26.57	330.69	6.14	-39.4	-40.6	20.7	0.00e+00	29	28	0	1119879168	52	6161
2026-01-13 20:51:27.57	330.59	6.08	-39.6	-40.9	20.5	0.00e+00	52	28	0	1121976320	52	6331
2026-01-13 20:51:28.58	330.48	6.03	-39.8	-41.1	20.2	0.00e+00	0	28	0	1124073472	52	6512
2026-01-13 20:51:29.59	330.37	5.97	-39.5	-40.8	20.6	0.00e+00	0	28	0	1125122048	52	6269
2026-01-13 20:51:30.60	330.27	5.92	-39.5	-40.7	20.5	0.00e+00	92	28	0	1127219200	52	6243
2026-01-13 20:51:31.61	330.16	5.86	-39.8	-41.1	20.3	0.00e+00	6	28	0	1129316352	52	6523
2026-01-13 20:51:32.62	330.06	5.81	-40.1	-41.5	19.8	0.00e+00	90	28	0	1131413504	52	6780
2026-01-13 20:51:33.63	329.95	5.75	-39.4	-40.7	20.5	0.00e+00	6	28	0	1133510656	52	6202
2026-01-13 20:51:34.64	329.85	5.70	-40.1	-41.5	19.8	0.00e+00	0	28	0	1134559232	52	6806
2026-01-13 20:51:35.65	329.74	5.64	-39.7	-41.0	20.3	0.00e+00	0	28	0	1136656384	52	6439
2026-01-13 20:51:36.66	329.64	5.59	-39.7	-41.0	20.3	0.00e+00	0	28	0	1138753536	52	6400
2026-01-13 20:51:37.67	329.53	5.54	-40.0	-41.4	19.9	0.00e+00	0	28	0	1140850688	52	6743
2026-01-13 20:51:38.68	329.43	5.48	-40.4	-41.9	19.4	0.00e+00	57	28	0	1142947840	52	7131
2026-01-13 20:51:39.69	329.33	5.43	-40.3	-41.7	19.6	0.00e+00	92	28	0	1143996416	52	6967
2026-01-13 20:51:40.70	329.23	5.37	-40.2	-41.6	19.7	0.00e+00	0	28	0	1146093568	52	6888
2026-01-13 20:51:41.71	329.12	5.32	-40.5	-42.0	19.3	0.00e+00	60	28	0	1148190720	52	7215
2026-01-13 20:51:42.72	329.02	5.26	-40.6	-42.2	19.2	0.00e+00	0	28	0	1150287872	54	6542
2026-01-13 20:51:43.73	328.92	5.21	-40.3	-41.8	19.3	0.00e+00	0	28	0	1152385024	54	6284
2026-01-13 20:51:44.74	328.82	5.15	-40.5	-42.0	19.2	0.00e+00	0	28	0	1153433600	54	6442
2026-01-13 20:51:45.75	328.72	5.10	-40.6	-42.1	19.1	0.00e+00	53	28	0	1155530752	54	6534
2026-01-13 20:51:46.76	328.62	5.04	-40.4	-41.9	19.3	0.00e+00	92	28	0	1157627904	54	6374
2026-01-13 20:51:47.77	328.52	4.99	-40.5	-42.0	19.1	0.00e+00	23	28	0	1159725056	54	6408
2026-01-13 20:51:48.77	328.42	4.94	-40.5	-42.0	19.2	0.00e+00	92	28	0	1161822208	54	6400
2026-01-13 20:51:49.78	328.32	4.88	-40.0	-41.3	19.8	0.00e+00	0	28	0	1162870784	54	5964
2026-01-13 20:51:50.79	328.22	4.83	-40.3	-41.8	19.4	0.00e+00	24	28	0	1164967936	54	6306
2026-01-13 20:51:51.80	328.13	4.77	-40.9	-42.5	18.7	0.00e+00	2	28	0	1167065088	54	6833
2026-01-13 20:51:52.81	328.03	4.72	-40.2	-41.6	19.6	0.00e+00	28	28	0	1169162240	54	6151
2026-01-13 20:51:53.82	327.93	4.66	-40.5	-42.1	19.1	0.00e+00	92	28	0	1171259392	54	6481
2026-01-13 20:51:54.83	327.83	4.61	-40.6	-42.1	19.0	0.00e+00	0	28	0	1172307968	54	6513
2026-01-13 20:51:55.84	327.74	4.56	-40.5	-42.0	19.3	0.00e+00	92	28	0	1174405120	54	6428
2026-01-13 20:51:56.85	327.64	4.50	-40.0	-41.5	19.5	0.00e+00	0	28	0	1176502272	54	6047
2026-01-13 20:51:57.86	327.55	4.45	-41.1	-42.8	18.4	0.00e+00	0	28	0	1178599424	54	7056
2026-01-13 20:51:58.87	327.45	4.39	-40.5	-42.1	19.0	0.00e+00	0	28	0	1180696576	54	6498
2026-01-13 20:51:59.88	327.36	4.34	-40.9	-42.5	18.5	0.00e+00	0	28	0	1181745152	54	6817
2026-01-13 20:52:00.89	327.26	4.29	-41.1	-42.9	18.2	0.00e+00	65	28	0	1183842304	54	7106
2026-01-13 20:52:01.90	327.17	4.23	-40.7	-42.3	18.9	0.00e+00	57	28	0	1185939456	54	6623
2026-01-13 20:52:02.91	327.07	4.18	-40.7	-42.3	18.8	0.00e+00	92	28	0	1188036608	54	6652
2026-01-13 20:52:03.92	326.98	4.12	-40.8	-42.4	18.6	0.00e+00	0	28	0	1190133760	54	6761
2026-01-13 20:52:04.93	326.88	4.07	-40.9	-42.5	18.6	0.00e+00	92	28	0	1191182336	54	6829
2026-01-13 20:52:05.94	326.79	4.02	-40.8	-42.5	18.4	0.00e+00	58	28	0	1193279488	54	6810
2026-01-13 20:52:06.94	326.70	3.96	-40.9	-42.6	18.4	0.00e+00	22	28	0	1195376640	54	6921
2026-01-13 20:52:07.95	326.61	3.91	-40.9	-42.6	18.5	0.00e+00	0	28	0	1197473792	54	6877
2026-01-13 20:52:08.96	326.52	3.86	-40.9	-42.5	18.6	0.00e+00	35	28	0	1199570944	54	6847
