passes_logs/2026/01/13/R4.6S_Anadyr/R4.6S_Anadyr__20260113_212919_NOAA_21_JPSS-2_rec.log

#Pass ID: 20260113_212919_NOAA 21 (JPSS-2)
#Satellite: NOAA 21 (JPSS-2)
#Configuration: NOAA-21
#almurnet v.1.7.20251203
#Start time: 2026-01-13 21:29:22

#Version: 2.2.20231116
#Station: R4.6S_Anadyr
#Location: 177.4865 lon 64.73178 lat
#TLE: 1 54234U 22150A   26013.60300550  .00000047  00000+0  43143-4 0  9998
#TLE: 2 54234  98.7496 314.5197 0000681 301.0337  59.0772 14.19534502164617

#Time	Az	El	Level	Level2	SNR	BER	BlckErr	Temp	State	Recorded	gain1	gain2
2026-01-13 21:29:22.86	91.48	0.18	-48.6	-59.9	3.3	1.54e+00	0	25	0	0	60	34891
2026-01-13 21:29:23.86	91.42	0.24	-48.4	-61.2	3.5	1.52e+00	0	25	104	0	60	40480
2026-01-13 21:29:24.87	91.36	0.29	-48.4	-61.2	3.5	1.52e+00	0	26	104	0	60	40519
2026-01-13 21:29:25.88	91.30	0.35	-48.4	-61.3	3.5	1.52e+00	0	25	104	0	60	40622
2026-01-13 21:29:26.89	91.24	0.40	-48.4	-61.3	3.5	1.51e+00	0	26	104	0	60	40718
2026-01-13 21:29:27.90	91.18	0.45	-48.4	-61.2	3.5	1.52e+00	0	26	104	0	60	40485
2026-01-13 21:29:28.91	91.11	0.51	-48.4	-61.3	3.5	1.52e+00	0	26	104	0	60	40620
2026-01-13 21:29:29.92	91.05	0.56	-48.4	-61.2	3.5	1.52e+00	0	26	104	0	60	40365
2026-01-13 21:29:30.93	90.99	0.62	-48.4	-61.2	3.5	1.52e+00	0	26	104	0	60	40401
2026-01-13 21:29:31.94	90.93	0.67	-48.4	-61.1	3.5	1.52e+00	0	26	104	0	60	39910
2026-01-13 21:29:32.95	90.86	0.73	-48.2	-61.0	3.5	1.52e+00	0	26	104	0	60	39481
2026-01-13 21:29:33.96	90.80	0.78	-48.1	-61.0	3.5	1.52e+00	0	26	104	0	60	39367
2026-01-13 21:29:34.97	90.74	0.83	-48.0	-60.8	3.5	1.52e+00	0	26	104	0	60	38586
2026-01-13 21:29:35.98	90.67	0.89	-47.5	-60.6	3.5	1.52e+00	0	26	104	0	60	37601
2026-01-13 21:29:36.99	90.61	0.94	-47.2	-60.1	3.5	1.52e+00	0	26	104	0	60	35613
2026-01-13 21:29:38.00	90.54	1.00	-46.5	-59.3	3.5	1.52e+00	0	26	104	0	60	32559
2026-01-13 21:29:39.01	90.48	1.05	-46.5	-59.3	3.5	1.52e+00	0	26	104	0	60	32263
2026-01-13 21:29:40.02	90.41	1.11	-46.5	-59.2	3.5	1.52e+00	0	26	104	0	60	32058
2026-01-13 21:29:41.03	90.35	1.16	-46.5	-59.2	3.5	1.52e+00	0	26	104	0	60	32174
2026-01-13 21:29:42.04	90.28	1.22	-46.5	-59.2	3.5	1.52e+00	0	26	104	0	60	32022
2026-01-13 21:29:43.05	90.22	1.27	-46.5	-59.2	3.5	1.51e+00	0	26	104	0	60	32066
2026-01-13 21:29:44.06	90.15	1.33	-46.5	-59.3	3.5	1.52e+00	0	26	104	0	60	32259
2026-01-13 21:29:45.07	90.09	1.38	-46.5	-59.2	3.5	1.52e+00	0	26	104	0	60	32079
2026-01-13 21:29:46.08	90.02	1.44	-46.5	-59.3	3.5	1.52e+00	0	26	104	0	60	32208
2026-01-13 21:29:47.09	89.95	1.49	-46.5	-59.2	3.5	1.52e+00	0	26	104	0	60	32101
2026-01-13 21:29:48.10	89.89	1.55	-46.5	-59.2	3.5	1.52e+00	0	26	104	0	60	32033
2026-01-13 21:29:49.11	89.82	1.60	-46.5	-59.2	3.5	1.52e+00	0	26	104	0	60	32144
2026-01-13 21:29:50.12	89.75	1.66	-46.5	-59.3	3.5	1.52e+00	0	26	104	0	60	32349
2026-01-13 21:29:51.13	89.68	1.72	-46.5	-59.3	3.5	1.52e+00	0	26	104	0	60	32382
2026-01-13 21:29:52.14	89.62	1.77	-46.5	-59.3	3.5	1.52e+00	0	26	104	0	60	32419
2026-01-13 21:29:53.14	89.55	1.83	-46.5	-59.3	3.5	1.52e+00	0	26	104	0	60	32418
2026-01-13 21:29:54.15	89.48	1.88	-46.5	-59.3	3.5	1.52e+00	0	26	104	0	60	32416
2026-01-13 21:29:55.16	89.41	1.94	-46.5	-59.2	3.5	1.52e+00	0	26	104	0	60	32135
2026-01-13 21:29:56.17	89.34	1.99	-46.4	-59.2	3.5	1.52e+00	0	26	104	0	60	31954
2026-01-13 21:29:57.18	89.27	2.05	-46.4	-59.0	3.5	1.52e+00	0	26	104	0	60	31332
2026-01-13 21:29:58.19	89.20	2.11	-46.4	-58.9	3.5	1.52e+00	0	26	104	0	60	31064
2026-01-13 21:29:59.20	89.13	2.16	-46.4	-58.8	3.5	1.52e+00	0	26	104	0	60	30481
2026-01-13 21:30:00.21	89.06	2.22	-46.4	-59.0	3.5	1.51e+00	0	26	104	0	60	31106
2026-01-13 21:30:01.22	88.99	2.28	-46.4	-59.1	3.5	1.52e+00	0	26	104	0	60	31546
2026-01-13 21:30:02.23	88.92	2.33	-46.4	-59.2	3.5	1.51e+00	0	26	104	0	60	32159
2026-01-13 21:30:03.24	88.85	2.39	-46.4	-59.3	3.5	1.52e+00	0	26	104	0	60	32320
2026-01-13 21:30:04.25	88.78	2.44	-46.4	-59.2	3.5	1.52e+00	0	26	104	0	60	32000
2026-01-13 21:30:05.26	88.71	2.50	-46.4	-59.1	3.5	1.52e+00	0	26	104	0	60	31822
2026-01-13 21:30:06.27	88.64	2.56	-46.4	-59.2	3.5	1.52e+00	0	26	104	0	60	32013
2026-01-13 21:30:07.27	88.56	2.61	-46.4	-59.2	3.5	1.52e+00	0	26	104	0	60	32016
2026-01-13 21:30:08.28	88.49	2.67	-46.4	-59.0	3.5	1.52e+00	0	26	104	0	60	31113
2026-01-13 21:30:09.29	88.42	2.73	-46.4	-58.5	3.5	1.52e+00	0	26	104	0	60	29503
2026-01-13 21:30:10.30	88.35	2.79	-46.3	-58.0	3.5	1.51e+00	0	26	104	0	60	28016
2026-01-13 21:30:11.31	88.27	2.84	-46.4	-58.3	3.5	1.51e+00	0	26	104	0	60	28805
2026-01-13 21:30:12.32	88.20	2.90	-46.4	-59.0	3.5	1.52e+00	0	26	104	0	60	31144
2026-01-13 21:30:13.33	88.12	2.96	-46.3	-58.0	3.6	1.51e+00	0	26	104	0	60	27754
2026-01-13 21:30:14.34	88.05	3.01	-45.9	-54.5	5.0	1.50e+00	0	26	104	0	60	18675
2026-01-13 21:30:15.35	87.98	3.07	-45.0	-50.0	7.9	1.14e-01	122	26	0	0	60	11158
2026-01-13 21:30:16.36	87.90	3.13	-43.8	-47.3	10.9	1.02e-02	123	26	0	3145728	60	8175
2026-01-13 21:30:17.37	87.83	3.19	-42.4	-45.1	13.3	1.44e-04	123	26	0	7340032	58	7057
2026-01-13 21:30:18.39	87.75	3.24	-42.0	-44.4	14.0	2.20e-06	123	26	0	10485760	58	6567
2026-01-13 21:30:19.40	87.67	3.30	-45.3	-51.6	8.8	1.31e+00	120	26	104	11534336	60	13409
2026-01-13 21:30:20.40	87.60	3.36	-39.8	-41.5	16.7	0.00e+00	122	26	0	12582912	54	5871
2026-01-13 21:30:21.42	87.52	3.42	-46.4	-59.3	3.5	1.52e+00	0	26	104	13631488	60	32242
2026-01-13 21:30:22.43	87.44	3.48	-42.9	-46.4	14.2	2.83e-01	122	26	104	13631488	60	7313
2026-01-13 21:30:23.43	87.37	3.53	-42.2	-44.6	13.8	6.10e-06	122	26	0	15728640	56	7536
2026-01-13 21:30:24.44	87.29	3.59	-42.0	-44.3	14.2	7.00e-07	120	26	0	18874368	56	7257
2026-01-13 21:30:25.45	87.21	3.65	-41.8	-44.2	14.4	0.00e+00	120	26	0	22020096	56	7131
2026-01-13 21:30:26.46	87.14	3.71	-41.9	-44.3	14.2	0.00e+00	123	27	0	25165824	56	7241
2026-01-13 21:30:27.47	87.06	3.76	-41.6	-43.9	14.8	0.00e+00	123	26	0	28311552	56	6946
2026-01-13 21:30:28.48	86.98	3.82	-41.5	-43.8	14.5	0.00e+00	123	27	0	31457280	56	6827
2026-01-13 21:30:29.49	86.90	3.88	-42.4	-45.1	13.6	9.10e-06	123	26	0	34603008	56	7972
2026-01-13 21:30:30.50	86.82	3.94	-42.3	-45.0	14.2	4.50e-06	123	26	0	37748736	56	7830
2026-01-13 21:30:31.51	86.74	4.00	-41.9	-44.3	14.2	0.00e+00	123	26	0	40894464	56	7258
2026-01-13 21:30:32.52	86.66	4.06	-42.0	-44.4	14.3	5.30e-06	123	27	0	44040192	56	7362
2026-01-13 21:30:33.53	86.58	4.12	-41.9	-44.4	13.9	4.50e-06	123	26	0	47185920	56	7305
2026-01-13 21:30:34.54	86.50	4.17	-42.5	-45.2	14.1	9.90e-06	121	26	0	50331648	56	8057
2026-01-13 21:30:35.54	86.42	4.23	-42.0	-44.5	14.1	1.50e-06	122	27	0	53477376	58	6579
2026-01-13 21:30:36.55	86.34	4.29	-41.9	-44.2	14.3	2.20e-06	123	27	0	56623104	56	7193
2026-01-13 21:30:37.56	86.26	4.35	-42.2	-44.8	13.9	1.50e-06	123	27	0	59768832	56	7653
2026-01-13 21:30:38.57	86.18	4.41	-42.1	-44.4	14.6	0.00e+00	123	27	0	62914560	56	7331
2026-01-13 21:30:39.57	86.09	4.47	-42.5	-45.1	13.8	7.00e-07	122	27	0	66060288	56	7931
2026-01-13 21:30:40.58	86.01	4.53	-42.3	-44.7	14.2	0.00e+00	123	27	0	69206016	56	7623
2026-01-13 21:30:41.59	85.93	4.59	-39.9	-41.5	17.4	0.00e+00	123	26	0	72351744	54	5914
2026-01-13 21:30:42.60	85.85	4.65	-38.4	-39.8	19.0	0.00e+00	120	27	0	75497472	50	6084
2026-01-13 21:30:43.61	85.76	4.71	-37.6	-38.8	19.8	0.00e+00	123	27	0	78643200	48	6115
2026-01-13 21:30:44.62	85.68	4.76	-37.1	-38.3	20.4	0.00e+00	123	27	0	81788928	48	5746
2026-01-13 21:30:45.63	85.59	4.82	-37.2	-38.4	20.3	0.00e+00	123	26	0	84934656	48	5821
2026-01-13 21:30:46.64	85.51	4.88	-37.1	-38.2	20.5	0.00e+00	123	27	0	88080384	48	5720
2026-01-13 21:30:47.65	85.42	4.94	-37.0	-38.2	20.6	0.00e+00	122	27	0	91226112	48	5678
2026-01-13 21:30:48.66	85.34	5.00	-37.0	-38.1	20.6	0.00e+00	122	27	0	94371840	48	5629
2026-01-13 21:30:49.67	85.25	5.06	-36.7	-37.8	20.9	0.00e+00	123	27	0	97517568	48	5467
2026-01-13 21:30:50.68	85.17	5.12	-36.8	-37.9	20.9	0.00e+00	120	27	0	100663296	46	6202
2026-01-13 21:30:51.69	85.08	5.18	-36.9	-38.1	20.7	0.00e+00	120	26	0	103809024	46	6316
2026-01-13 21:30:52.70	84.99	5.24	-36.7	-37.8	20.9	0.00e+00	123	27	0	106954752	46	6095
2026-01-13 21:30:53.71	84.91	5.30	-36.8	-37.9	21.0	0.00e+00	123	26	0	110100480	46	6176
2026-01-13 21:30:54.72	84.82	5.36	-36.9	-38.0	20.8	0.00e+00	123	27	0	113246208	46	6241
2026-01-13 21:30:55.73	84.73	5.42	-36.8	-38.0	20.9	0.00e+00	123	27	0	116391936	46	6214
2026-01-13 21:30:56.73	84.64	5.48	-36.6	-37.7	21.1	0.00e+00	122	27	0	119537664	46	6050
2026-01-13 21:30:57.74	84.55	5.54	-36.7	-37.8	21.0	0.00e+00	122	27	0	122683392	46	6085
2026-01-13 21:30:58.75	84.46	5.60	-36.7	-37.8	21.0	0.00e+00	123	27	0	125829120	46	6104
2026-01-13 21:30:59.76	84.38	5.66	-36.8	-37.9	21.0	0.00e+00	123	27	0	128974848	46	6158
2026-01-13 21:31:00.77	84.29	5.73	-36.8	-37.9	20.9	0.00e+00	122	27	0	132120576	46	6174
2026-01-13 21:31:01.78	84.20	5.79	-36.5	-37.6	21.2	0.00e+00	123	27	0	135266304	46	5958
2026-01-13 21:31:02.79	84.10	5.85	-36.6	-37.7	21.2	0.00e+00	121	27	0	138412032	46	6034
2026-01-13 21:31:03.80	84.01	5.91	-36.4	-37.5	21.4	0.00e+00	120	27	0	141557760	46	5881
2026-01-13 21:31:04.81	83.92	5.97	-36.5	-37.6	21.3	0.00e+00	123	27	0	144703488	46	5951
2026-01-13 21:31:05.82	83.83	6.03	-36.5	-37.7	21.1	0.00e+00	120	27	0	147849216	46	5996
2026-01-13 21:31:06.83	83.74	6.09	-36.6	-37.7	21.2	0.00e+00	122	27	0	150994944	46	6033
2026-01-13 21:31:07.84	83.65	6.15	-36.5	-37.6	21.2	0.00e+00	123	27	0	154140672	46	5956
2026-01-13 21:31:08.85	83.55	6.21	-36.5	-37.6	21.2	0.00e+00	122	27	0	157286400	46	5957
2026-01-13 21:31:09.86	83.46	6.27	-36.2	-37.3	21.5	0.00e+00	123	27	0	160432128	46	5760
2026-01-13 21:31:10.87	83.36	6.34	-36.2	-37.3	21.6	0.00e+00	123	27	0	164626432	46	5744
2026-01-13 21:31:11.88	83.27	6.40	-36.3	-37.3	21.5	0.00e+00	122	27	0	167772160	46	5779
2026-01-13 21:31:12.89	83.18	6.46	-36.3	-37.3	21.5	0.00e+00	122	27	0	169869312	46	5791
2026-01-13 21:31:13.90	83.08	6.52	-36.3	-37.4	21.4	0.00e+00	120	27	0	173015040	46	5849
2026-01-13 21:31:14.91	82.99	6.58	-36.3	-37.4	21.5	0.00e+00	123	27	0	176160768	46	5843
2026-01-13 21:31:15.92	82.89	6.64	-36.2	-37.3	21.6	0.00e+00	123	27	0	180355072	46	5758
2026-01-13 21:31:16.93	82.79	6.71	-36.3	-37.4	21.5	0.00e+00	123	27	0	183500800	46	5802
2026-01-13 21:31:17.94	82.70	6.77	-36.3	-37.3	21.6	0.00e+00	122	27	0	186646528	46	5787
2026-01-13 21:31:18.95	82.60	6.83	-36.4	-37.5	21.4	0.00e+00	122	27	0	189792256	46	5924
2026-01-13 21:31:19.96	82.50	6.89	-36.2	-37.3	21.6	0.00e+00	120	27	0	192937984	46	5757
2026-01-13 21:31:20.97	82.40	6.95	-36.3	-37.4	21.6	0.00e+00	123	27	0	196083712	46	5829
2026-01-13 21:31:21.98	82.31	7.02	-36.3	-37.4	21.4	0.00e+00	123	27	0	199229440	46	5839
2026-01-13 21:31:22.99	82.21	7.08	-36.2	-37.3	21.7	0.00e+00	120	27	0	202375168	46	5759
2026-01-13 21:31:24.00	82.11	7.14	-35.9	-37.0	21.9	0.00e+00	122	27	0	205520896	46	5553
2026-01-13 21:31:25.01	82.01	7.20	-36.0	-37.0	21.9	0.00e+00	123	27	0	208666624	46	5566
2026-01-13 21:31:26.02	81.91	7.26	-36.0	-37.1	21.8	0.00e+00	122	27	0	211812352	46	5620
2026-01-13 21:31:27.03	81.81	7.33	-35.8	-36.8	22.0	0.00e+00	120	27	0	214958080	46	5456
2026-01-13 21:31:28.04	81.71	7.39	-35.9	-36.9	22.0	0.00e+00	123	27	0	218103808	46	5508
2026-01-13 21:31:29.05	81.60	7.45	-35.9	-36.9	22.0	0.00e+00	122	27	0	221249536	44	6171
2026-01-13 21:31:30.06	81.50	7.51	-35.8	-36.8	22.0	0.00e+00	122	27	0	224395264	44	6125
2026-01-13 21:31:31.07	81.40	7.58	-35.7	-36.8	22.2	0.00e+00	120	27	0	227540992	44	6065
2026-01-13 21:31:32.08	81.30	7.64	-35.6	-36.7	22.2	0.00e+00	123	27	0	230686720	44	6009
2026-01-13 21:31:33.09	81.19	7.70	-35.7	-36.7	22.2	0.00e+00	122	27	0	233832448	44	6019
2026-01-13 21:31:34.10	81.09	7.77	-35.8	-36.8	22.1	0.00e+00	123	27	0	236978176	44	6118
2026-01-13 21:31:35.11	80.98	7.83	-35.6	-36.6	22.2	0.00e+00	122	27	0	240123904	44	5987
2026-01-13 21:31:36.12	80.88	7.89	-35.8	-36.8	22.1	0.00e+00	122	27	0	243269632	44	6126
2026-01-13 21:31:37.13	80.77	7.96	-35.9	-36.9	22.0	0.00e+00	123	27	0	246415360	44	6192
2026-01-13 21:31:38.13	80.67	8.02	-36.0	-37.0	21.9	0.00e+00	123	27	0	249561088	44	6277
2026-01-13 21:31:39.14	80.56	8.08	-36.0	-37.1	21.9	0.00e+00	123	27	0	252706816	44	6295
2026-01-13 21:31:40.15	80.46	8.14	-35.6	-36.7	22.3	0.00e+00	122	27	0	255852544	44	5999
2026-01-13 21:31:41.16	80.35	8.21	-35.7	-36.7	22.2	0.00e+00	123	27	0	258998272	44	6056
2026-01-13 21:31:42.17	80.24	8.27	-35.7	-36.7	22.1	0.00e+00	123	27	0	262144000	44	6042
2026-01-13 21:31:43.18	80.13	8.34	-35.6	-36.6	22.2	0.00e+00	123	27	0	265289728	44	5992
2026-01-13 21:31:44.20	80.03	8.40	-35.4	-36.5	22.3	0.00e+00	120	27	0	268435456	44	5871
2026-01-13 21:31:45.20	79.92	8.46	-35.6	-36.6	22.3	0.00e+00	122	27	0	271581184	44	5967
2026-01-13 21:31:46.21	79.81	8.53	-35.6	-36.7	22.3	0.00e+00	122	27	0	274726912	44	5995
2026-01-13 21:31:47.22	79.70	8.59	-35.6	-36.7	22.2	0.00e+00	120	27	0	277872640	44	6017
2026-01-13 21:31:48.23	79.59	8.65	-35.7	-36.8	22.1	0.00e+00	122	27	0	281018368	44	6078
2026-01-13 21:31:49.24	79.48	8.72	-35.6	-36.6	22.2	0.00e+00	122	27	0	284164096	44	5987
2026-01-13 21:31:50.25	79.36	8.78	-35.7	-36.7	22.2	0.00e+00	123	27	0	287309824	44	6032
2026-01-13 21:31:51.26	79.25	8.85	-35.7	-36.7	22.2	0.00e+00	123	27	0	290455552	44	6028
2026-01-13 21:31:52.27	79.14	8.91	-35.7	-36.7	22.3	0.00e+00	122	27	0	293601280	44	6021
2026-01-13 21:31:53.28	79.03	8.97	-35.7	-36.7	22.2	0.00e+00	122	27	0	296747008	44	6055
2026-01-13 21:31:54.29	78.91	9.04	-35.4	-36.5	22.5	0.00e+00	123	27	0	299892736	44	5878
2026-01-13 21:31:55.30	78.80	9.10	-35.4	-36.5	22.4	0.00e+00	123	27	0	303038464	44	5874
2026-01-13 21:31:56.31	78.69	9.17	-35.4	-36.5	22.4	0.00e+00	122	27	0	306184192	44	5874
2026-01-13 21:31:57.32	78.57	9.23	-35.5	-36.6	22.4	0.00e+00	123	27	0	309329920	44	5931
2026-01-13 21:31:58.33	78.45	9.30	-35.4	-36.4	22.5	0.00e+00	123	27	0	312475648	44	5805
2026-01-13 21:31:59.34	78.34	9.36	-35.3	-36.3	22.5	0.00e+00	123	27	0	315621376	44	5743
2026-01-13 21:32:00.35	78.22	9.42	-35.4	-36.5	22.4	0.00e+00	121	27	0	318767104	44	5878
2026-01-13 21:32:01.36	78.10	9.49	-35.1	-36.1	22.6	0.00e+00	123	27	0	321912832	44	5644
2026-01-13 21:32:02.37	77.99	9.55	-35.3	-36.3	22.6	0.00e+00	123	27	0	325058560	44	5750
2026-01-13 21:32:03.38	77.87	9.62	-35.3	-36.3	22.5	0.00e+00	123	27	0	328204288	44	5787
2026-01-13 21:32:04.39	77.75	9.68	-35.4	-36.4	22.5	0.00e+00	122	27	0	331350016	44	5840
2026-01-13 21:32:05.40	77.63	9.75	-35.4	-36.4	22.5	0.00e+00	120	27	0	334495744	44	5851
2026-01-13 21:32:06.41	77.51	9.81	-35.4	-36.4	22.5	0.00e+00	123	27	0	337641472	44	5842
2026-01-13 21:32:07.42	77.39	9.88	-35.4	-36.4	22.6	0.00e+00	123	27	0	340787200	44	5809
2026-01-13 21:32:08.43	77.27	9.94	-35.4	-36.4	22.6	0.00e+00	123	27	0	343932928	44	5827
2026-01-13 21:32:09.44	77.15	10.01	-35.3	-36.3	22.7	0.00e+00	122	27	0	347078656	44	5754
2026-01-13 21:32:10.45	77.03	10.07	-35.6	-36.6	22.4	0.00e+00	123	27	0	350224384	44	5958
2026-01-13 21:32:11.46	76.90	10.14	-35.7	-36.7	22.2	0.00e+00	122	27	0	353370112	44	6036
2026-01-13 21:32:12.47	76.78	10.20	-35.6	-36.7	22.3	0.00e+00	122	27	0	356515840	44	6013
2026-01-13 21:32:13.48	76.66	10.27	-35.3	-36.2	22.7	0.00e+00	123	27	0	359661568	44	5725
2026-01-13 21:32:14.49	76.53	10.33	-35.0	-36.0	22.8	0.00e+00	123	27	0	362807296	44	5554
2026-01-13 21:32:15.50	76.41	10.40	-35.0	-35.9	22.8	0.00e+00	123	27	0	365953024	44	5519
2026-01-13 21:32:16.51	76.28	10.46	-35.1	-36.1	22.6	0.00e+00	122	27	0	369098752	44	5646
2026-01-13 21:32:17.52	76.16	10.53	-35.2	-36.2	22.6	0.00e+00	123	27	0	372244480	44	5689
2026-01-13 21:32:18.53	76.03	10.59	-34.9	-35.9	22.9	0.00e+00	123	27	0	375390208	44	5521
2026-01-13 21:32:19.54	75.90	10.66	-35.0	-36.0	22.8	0.00e+00	123	27	0	378535936	44	5572
2026-01-13 21:32:20.55	75.77	10.72	-34.8	-35.8	23.0	0.00e+00	123	27	0	381681664	44	5440
2026-01-13 21:32:21.56	75.65	10.79	-34.9	-35.9	23.0	0.00e+00	122	27	0	384827392	44	5487
2026-01-13 21:32:22.57	75.52	10.85	-34.9	-35.9	22.9	0.00e+00	120	27	0	387973120	44	5515
2026-01-13 21:32:23.58	75.39	10.92	-34.8	-35.7	23.1	0.00e+00	122	27	0	391118848	44	5400
2026-01-13 21:32:24.59	75.26	10.99	-34.8	-35.8	23.1	0.00e+00	120	27	0	394264576	42	6086
2026-01-13 21:32:25.60	75.13	11.05	-34.7	-35.6	23.3	0.00e+00	122	27	0	397410304	42	5985
2026-01-13 21:32:26.61	75.00	11.12	-34.7	-35.7	23.3	0.00e+00	122	27	0	400556032	42	6001
2026-01-13 21:32:27.62	74.86	11.18	-34.9	-35.8	23.2	0.00e+00	123	27	0	403701760	42	6106
2026-01-13 21:32:28.63	74.73	11.25	-34.6	-35.6	23.4	0.00e+00	122	27	0	406847488	42	5936
2026-01-13 21:32:29.64	74.60	11.31	-34.3	-35.2	23.7	0.00e+00	123	27	0	409993216	42	5690
2026-01-13 21:32:30.65	74.47	11.38	-34.3	-35.2	23.6	0.00e+00	123	27	0	413138944	42	5694
2026-01-13 21:32:31.66	74.33	11.44	-34.3	-35.3	23.6	0.00e+00	123	27	0	416284672	42	5746
2026-01-13 21:32:32.67	74.20	11.51	-34.4	-35.4	23.4	0.00e+00	120	27	0	419430400	42	5817
2026-01-13 21:32:33.68	74.06	11.58	-34.5	-35.4	23.4	0.00e+00	122	27	0	422576128	42	5837
2026-01-13 21:32:34.69	73.92	11.64	-34.5	-35.5	23.3	0.00e+00	122	27	0	425721856	42	5863
2026-01-13 21:32:35.70	73.79	11.71	-34.5	-35.5	23.4	0.00e+00	119	27	0	428867584	42	5864
2026-01-13 21:32:36.71	73.65	11.77	-34.7	-35.7	23.2	0.00e+00	120	27	0	432013312	42	6001
2026-01-13 21:32:37.71	73.51	11.84	-34.4	-35.4	23.6	0.00e+00	123	27	0	435159040	42	5815
2026-01-13 21:32:38.72	73.38	11.90	-34.5	-35.4	23.6	0.00e+00	121	27	0	438304768	42	5837
2026-01-13 21:32:39.73	73.24	11.97	-34.3	-35.2	23.6	0.00e+00	122	27	0	441450496	42	5720
2026-01-13 21:32:40.75	73.09	12.04	-34.4	-35.4	23.5	0.00e+00	127	27	0	444596224	42	5812
2026-01-13 21:32:41.75	72.96	12.10	-34.3	-35.2	23.7	0.00e+00	123	27	0	447741952	42	5670
2026-01-13 21:32:42.76	72.81	12.17	-34.3	-35.2	23.6	0.00e+00	122	27	0	450887680	42	5716
2026-01-13 21:32:43.77	72.67	12.23	-34.2	-35.2	23.6	0.00e+00	123	27	0	454033408	42	5671
2026-01-13 21:32:44.79	72.53	12.30	-34.1	-35.0	23.7	0.00e+00	122	27	0	457179136	42	5557
2026-01-13 21:32:45.79	72.39	12.36	-34.1	-35.0	23.7	0.00e+00	123	27	0	460324864	42	5590
2026-01-13 21:32:46.80	72.24	12.43	-34.3	-35.2	23.5	0.00e+00	123	27	0	463470592	42	5701
2026-01-13 21:32:47.81	72.10	12.50	-34.3	-35.3	23.5	0.00e+00	122	27	0	466616320	42	5737
2026-01-13 21:32:48.82	71.95	12.56	-34.5	-35.4	23.4	0.00e+00	122	27	0	469762048	42	5850
2026-01-13 21:32:49.83	71.81	12.63	-34.6	-35.6	23.4	0.00e+00	123	27	0	472907776	42	5951
2026-01-13 21:32:50.84	71.66	12.69	-34.5	-35.5	23.5	0.00e+00	123	27	0	476053504	42	5863
2026-01-13 21:32:51.85	71.52	12.76	-34.6	-35.5	23.5	0.00e+00	123	27	0	479199232	42	5893
2026-01-13 21:32:52.86	71.37	12.83	-34.5	-35.5	23.5	0.00e+00	122	27	0	482344960	42	5871
2026-01-13 21:32:53.87	71.22	12.89	-34.4	-35.3	23.6	0.00e+00	123	27	0	486539264	42	5770
2026-01-13 21:32:54.88	71.07	12.96	-34.3	-35.2	23.7	0.00e+00	122	27	0	488636416	42	5724
2026-01-13 21:32:55.89	70.92	13.02	-34.4	-35.3	23.6	0.00e+00	124	27	0	491782144	42	5755
2026-01-13 21:32:56.90	70.77	13.09	-34.2	-35.2	23.7	0.00e+00	123	27	0	494927872	42	5667
2026-01-13 21:32:57.91	70.62	13.15	-34.4	-35.3	23.7	0.00e+00	123	27	0	498073600	42	5763
2026-01-13 21:32:58.92	70.47	13.22	-34.5	-35.4	23.6	0.00e+00	123	27	0	502267904	42	5856
2026-01-13 21:32:59.93	70.31	13.28	-34.5	-35.4	23.5	0.00e+00	123	27	0	505413632	42	5849
2026-01-13 21:33:00.94	70.16	13.35	-34.6	-35.5	23.4	0.00e+00	123	27	0	508559360	42	5917
2026-01-13 21:33:01.95	70.01	13.42	-34.5	-35.4	23.6	0.00e+00	120	27	0	510656512	42	5853
2026-01-13 21:33:02.96	69.85	13.48	-34.6	-35.5	23.5	0.00e+00	122	27	0	513802240	42	5911
2026-01-13 21:33:03.97	69.70	13.55	-34.7	-35.6	23.5	0.00e+00	123	27	0	517996544	42	5966
2026-01-13 21:33:04.98	69.54	13.61	-34.5	-35.5	23.6	0.00e+00	125	27	0	521142272	42	5872
2026-01-13 21:33:05.99	69.39	13.68	-34.4	-35.3	23.7	0.00e+00	123	27	0	524288000	42	5751
2026-01-13 21:33:07.00	69.23	13.74	-34.4	-35.3	23.7	0.00e+00	122	27	0	527433728	42	5784
2026-01-13 21:33:08.01	69.07	13.81	-34.4	-35.4	23.6	0.00e+00	123	27	0	530579456	42	5793
2026-01-13 21:33:09.02	68.91	13.87	-34.4	-35.3	23.6	0.00e+00	122	27	0	533725184	42	5784
2026-01-13 21:33:10.03	68.75	13.94	-34.5	-35.4	23.5	0.00e+00	122	27	0	536870912	42	5835
2026-01-13 21:33:11.04	68.59	14.00	-34.4	-35.3	23.6	0.00e+00	123	27	0	540016640	42	5781
2026-01-13 21:33:12.05	68.43	14.07	-34.5	-35.5	23.4	0.00e+00	123	27	0	543162368	42	5884
2026-01-13 21:33:13.06	68.27	14.14	-34.6	-35.5	23.5	0.00e+00	123	27	0	546308096	42	5925
2026-01-13 21:33:14.07	68.11	14.20	-34.5	-35.5	23.5	0.00e+00	123	27	0	549453824	42	5888
2026-01-13 21:33:15.08	67.94	14.27	-34.6	-35.5	23.6	0.00e+00	120	27	0	552599552	42	5899
2026-01-13 21:33:16.09	67.78	14.33	-34.6	-35.5	23.6	0.00e+00	122	27	0	555745280	42	5926
2026-01-13 21:33:17.10	67.62	14.39	-34.6	-35.5	23.5	0.00e+00	123	27	0	558891008	42	5911
2026-01-13 21:33:18.11	67.45	14.46	-34.5	-35.5	23.6	0.00e+00	122	27	0	562036736	42	5872
2026-01-13 21:33:19.12	67.28	14.52	-34.5	-35.4	23.5	0.00e+00	121	27	0	565182464	42	5851
2026-01-13 21:33:20.13	67.12	14.59	-34.5	-35.5	23.5	0.00e+00	124	27	0	568328192	42	5865
2026-01-13 21:33:21.14	66.95	14.65	-34.6	-35.6	23.4	0.00e+00	120	27	0	571473920	42	5948
2026-01-13 21:33:22.15	66.78	14.72	-34.5	-35.4	23.5	0.00e+00	123	27	0	574619648	42	5856
2026-01-13 21:33:23.16	66.61	14.78	-34.4	-35.4	23.6	0.00e+00	120	27	0	577765376	42	5806
2026-01-13 21:33:24.18	66.44	14.85	-34.5	-35.4	23.6	0.00e+00	123	27	0	580911104	42	5853
2026-01-13 21:33:25.19	66.27	14.91	-34.3	-35.3	23.7	0.00e+00	123	27	0	584056832	42	5744
2026-01-13 21:33:26.19	66.10	14.98	-34.2	-35.1	23.8	0.00e+00	123	27	0	587202560	42	5659
2026-01-13 21:33:27.20	65.93	15.04	-34.2	-35.1	23.9	0.00e+00	120	27	0	590348288	42	5634
2026-01-13 21:33:28.21	65.76	15.10	-34.2	-35.2	23.8	0.00e+00	123	27	0	593494016	42	5669
2026-01-13 21:33:29.22	65.58	15.17	-34.2	-35.2	23.8	0.00e+00	122	27	0	596639744	42	5664
2026-01-13 21:33:30.24	65.41	15.23	-34.3	-35.2	23.7	0.00e+00	123	27	0	599785472	42	5719
2026-01-13 21:33:31.25	65.23	15.30	-34.3	-35.2	23.7	0.00e+00	120	27	0	602931200	42	5682
2026-01-13 21:33:32.26	65.06	15.36	-34.2	-35.2	23.8	0.00e+00	123	27	0	606076928	42	5675
2026-01-13 21:33:33.27	64.88	15.42	-34.3	-35.3	23.6	0.00e+00	122	27	0	609222656	42	5742
2026-01-13 21:33:34.28	64.70	15.49	-34.4	-35.3	23.7	0.00e+00	123	27	0	612368384	42	5765
2026-01-13 21:33:35.29	64.53	15.55	-34.3	-35.3	23.7	0.00e+00	122	27	0	615514112	42	5735
2026-01-13 21:33:36.30	64.35	15.61	-34.2	-35.2	23.9	0.00e+00	123	27	0	618659840	42	5669
2026-01-13 21:33:37.31	64.17	15.68	-34.3	-35.3	23.8	0.00e+00	123	27	0	621805568	42	5734
2026-01-13 21:33:38.32	63.99	15.74	-34.5	-35.4	23.6	0.00e+00	123	27	0	624951296	42	5814
2026-01-13 21:33:39.33	63.81	15.80	-34.4	-35.3	23.7	0.00e+00	123	27	0	628097024	42	5782
2026-01-13 21:33:40.34	63.63	15.86	-34.6	-35.5	23.6	0.00e+00	123	27	0	631242752	42	5900
2026-01-13 21:33:41.35	63.44	15.93	-34.4	-35.4	23.6	0.00e+00	122	27	0	634388480	42	5812
2026-01-13 21:33:42.36	63.26	15.99	-34.5	-35.5	23.5	0.00e+00	123	27	0	637534208	42	5883
2026-01-13 21:33:43.37	63.08	16.05	-34.6	-35.5	23.5	0.00e+00	122	27	0	640679936	42	5918
2026-01-13 21:33:44.38	62.89	16.11	-34.7	-35.6	23.4	0.00e+00	122	27	0	643825664	42	5993
2026-01-13 21:33:45.39	62.71	16.18	-34.5	-35.5	23.5	0.00e+00	120	27	0	646971392	42	5893
2026-01-13 21:33:46.40	62.52	16.24	-34.6	-35.6	23.6	0.00e+00	122	27	0	650117120	42	5935
2026-01-13 21:33:47.41	62.33	16.30	-34.6	-35.5	23.6	0.00e+00	120	27	0	653262848	42	5898
2026-01-13 21:33:48.42	62.14	16.36	-34.8	-35.8	23.5	0.00e+00	123	27	0	656408576	42	6066
2026-01-13 21:33:49.43	61.96	16.42	-34.7	-35.7	23.4	0.00e+00	122	27	0	659554304	42	6020
2026-01-13 21:33:50.44	61.77	16.48	-34.9	-35.9	23.3	0.00e+00	123	27	0	662700032	42	6147
2026-01-13 21:33:51.45	61.58	16.54	-35.0	-36.0	23.2	0.00e+00	122	27	0	665845760	42	6240
2026-01-13 21:33:52.46	61.39	16.60	-35.2	-36.1	23.0	0.00e+00	122	27	0	668991488	42	6339
2026-01-13 21:33:53.47	61.19	16.66	-34.8	-35.7	23.4	0.00e+00	122	27	0	672137216	42	6041
2026-01-13 21:33:54.48	61.00	16.73	-35.0	-36.0	23.3	0.00e+00	123	27	0	675282944	42	6223
2026-01-13 21:33:55.49	60.81	16.79	-35.0	-35.9	23.3	0.00e+00	122	27	0	678428672	42	6187
2026-01-13 21:33:56.50	60.61	16.85	-34.9	-35.8	23.3	0.00e+00	122	27	0	681574400	42	6133
2026-01-13 21:33:57.51	60.42	16.91	-34.8	-35.8	23.4	0.00e+00	122	27	0	684720128	42	6071
2026-01-13 21:33:58.52	60.22	16.97	-34.6	-35.5	23.6	0.00e+00	123	27	0	687865856	42	5890
2026-01-13 21:33:59.53	60.03	17.02	-34.6	-35.6	23.5	0.00e+00	122	27	0	691011584	42	5933
2026-01-13 21:34:00.54	59.83	17.08	-34.6	-35.5	23.6	0.00e+00	123	27	0	694157312	42	5896
2026-01-13 21:34:01.55	59.63	17.14	-34.6	-35.6	23.5	0.00e+00	123	27	0	697303040	42	5937
2026-01-13 21:34:02.56	59.43	17.20	-34.7	-35.6	23.4	0.00e+00	123	27	0	700448768	42	5973
2026-01-13 21:34:03.57	59.23	17.26	-34.7	-35.7	23.5	0.00e+00	120	27	0	703594496	42	6022
2026-01-13 21:34:04.58	59.03	17.32	-34.6	-35.5	23.6	0.00e+00	121	27	0	706740224	42	5919
2026-01-13 21:34:05.59	58.83	17.38	-34.6	-35.6	23.5	0.00e+00	123	27	0	709885952	42	5946
2026-01-13 21:34:06.60	58.63	17.44	-34.6	-35.5	23.7	0.00e+00	122	27	0	713031680	42	5921
2026-01-13 21:34:07.61	58.43	17.49	-34.6	-35.6	23.6	0.00e+00	123	27	0	716177408	42	5930
2026-01-13 21:34:08.62	58.22	17.55	-34.5	-35.5	23.6	0.00e+00	120	27	0	719323136	42	5873
2026-01-13 21:34:09.63	58.02	17.61	-34.7	-35.7	23.5	0.00e+00	123	27	0	722468864	42	6020
2026-01-13 21:34:10.64	57.81	17.66	-34.6	-35.6	23.6	0.00e+00	121	27	0	725614592	42	5940
2026-01-13 21:34:11.65	57.61	17.72	-34.6	-35.5	23.7	0.00e+00	123	27	0	728760320	42	5914
2026-01-13 21:34:12.65	57.40	17.78	-34.4	-35.3	23.8	0.00e+00	122	27	0	731906048	42	5748
2026-01-13 21:34:13.67	57.19	17.83	-34.3	-35.3	23.8	0.00e+00	123	27	0	735051776	42	5726
2026-01-13 21:34:14.68	56.98	17.89	-34.2	-35.1	23.9	0.00e+00	122	27	0	738197504	42	5609
2026-01-13 21:34:15.69	56.78	17.95	-34.1	-35.1	23.9	0.00e+00	123	27	0	741343232	42	5606
2026-01-13 21:34:16.70	56.57	18.00	-34.1	-35.0	24.0	0.00e+00	123	27	0	744488960	42	5594
2026-01-13 21:34:17.71	56.36	18.06	-34.2	-35.1	24.0	0.00e+00	123	27	0	747634688	42	5608
2026-01-13 21:34:18.72	56.14	18.11	-34.0	-34.9	24.1	0.00e+00	120	27	0	750780416	42	5496
2026-01-13 21:34:19.73	55.93	18.17	-33.9	-34.8	24.2	0.00e+00	123	27	0	753926144	42	5434
2026-01-13 21:34:20.74	55.72	18.22	-33.8	-34.7	24.3	0.00e+00	121	27	0	757071872	42	5370
2026-01-13 21:34:21.75	55.51	18.27	-33.6	-34.5	24.5	0.00e+00	122	27	0	760217600	40	5886
2026-01-13 21:34:22.76	55.29	18.33	-33.6	-34.5	24.4	0.00e+00	120	27	0	763363328	40	5877
2026-01-13 21:34:23.77	55.08	18.38	-33.6	-34.5	24.4	0.00e+00	123	27	0	766509056	40	5899
2026-01-13 21:34:24.78	54.86	18.43	-33.6	-34.5	24.3	0.00e+00	121	27	0	769654784	40	5871
2026-01-13 21:34:25.79	54.64	18.49	-33.7	-34.6	24.2	0.00e+00	123	27	0	772800512	40	5986
2026-01-13 21:34:26.80	54.43	18.54	-33.6	-34.5	24.3	0.00e+00	120	27	0	775946240	40	5875
2026-01-13 21:34:27.81	54.21	18.59	-33.6	-34.5	24.3	0.00e+00	123	27	0	779091968	40	5869
2026-01-13 21:34:28.82	53.99	18.64	-33.8	-34.7	24.2	0.00e+00	123	27	0	782237696	40	6060
2026-01-13 21:34:29.83	53.77	18.70	-33.8	-34.7	24.2	0.00e+00	121	27	0	785383424	40	6028
2026-01-13 21:34:30.84	53.55	18.75	-33.7	-34.6	24.2	0.00e+00	123	27	0	788529152	40	5975
2026-01-13 21:34:31.85	53.33	18.80	-33.6	-34.5	24.3	0.00e+00	123	27	0	791674880	40	5924
2026-01-13 21:34:32.85	53.11	18.85	-33.6	-34.6	24.2	0.00e+00	120	27	0	794820608	40	5928
2026-01-13 21:34:33.86	52.89	18.90	-33.8	-34.7	24.1	0.00e+00	122	27	0	797966336	40	6030
2026-01-13 21:34:34.87	52.66	18.95	-33.9	-34.8	24.1	0.00e+00	120	27	0	802160640	40	6122
2026-01-13 21:34:35.89	52.44	19.00	-33.8	-34.7	24.2	0.00e+00	123	27	0	804257792	40	6032
2026-01-13 21:34:36.90	52.21	19.05	-33.7	-34.6	24.3	0.00e+00	123	27	0	807403520	40	5987
2026-01-13 21:34:37.90	51.99	19.09	-33.8	-34.7	24.2	0.00e+00	123	27	0	810549248	40	6018
2026-01-13 21:34:38.91	51.76	19.14	-33.9	-34.8	24.2	0.00e+00	123	27	0	813694976	40	6101
2026-01-13 21:34:39.93	51.53	19.19	-33.8	-34.7	24.2	0.00e+00	123	27	0	817889280	40	6039
2026-01-13 21:34:40.94	51.30	19.24	-33.7	-34.6	24.2	0.00e+00	122	27	0	821035008	40	5970
2026-01-13 21:34:41.95	51.08	19.29	-33.5	-34.4	24.5	0.00e+00	123	27	0	824180736	40	5828
2026-01-13 21:34:42.96	50.85	19.33	-33.5	-34.4	24.5	0.00e+00	123	27	0	826277888	40	5794
2026-01-13 21:34:43.97	50.62	19.38	-33.4	-34.3	24.5	0.00e+00	122	27	0	830472192	40	5786
2026-01-13 21:34:44.98	50.39	19.43	-33.4	-34.3	24.6	0.00e+00	122	27	0	833617920	40	5742
2026-01-13 21:34:45.99	50.16	19.47	-33.4	-34.3	24.6	0.00e+00	121	27	0	836763648	40	5768
2026-01-13 21:34:47.00	49.92	19.52	-33.3	-34.1	24.6	0.00e+00	123	27	0	839909376	40	5658
2026-01-13 21:34:48.01	49.69	19.56	-33.3	-34.2	24.6	0.00e+00	123	27	0	843055104	40	5672
2026-01-13 21:34:49.02	49.46	19.61	-33.3	-34.2	24.6	0.00e+00	123	27	0	846200832	40	5680
2026-01-13 21:34:50.02	49.23	19.65	-33.4	-34.2	24.5	0.00e+00	122	27	0	849346560	40	5720
2026-01-13 21:34:51.03	48.99	19.69	-33.3	-34.2	24.6	0.00e+00	123	27	0	852492288	40	5674
2026-01-13 21:34:52.05	48.75	19.74	-33.3	-34.2	24.5	0.00e+00	122	27	0	855638016	40	5707
2026-01-13 21:34:53.06	48.52	19.78	-33.3	-34.2	24.4	0.00e+00	123	27	0	858783744	40	5712
2026-01-13 21:34:54.06	48.28	19.82	-33.4	-34.3	24.4	0.00e+00	120	27	0	861929472	40	5769
2026-01-13 21:34:55.07	48.05	19.86	-33.6	-34.5	24.4	0.00e+00	123	27	0	865075200	40	5898
2026-01-13 21:34:56.08	47.81	19.90	-33.4	-34.2	24.7	0.00e+00	123	27	0	868220928	40	5718
2026-01-13 21:34:57.09	47.57	19.95	-33.4	-34.3	24.5	0.00e+00	123	27	0	871366656	40	5783
2026-01-13 21:34:58.10	47.33	19.99	-33.3	-34.2	24.6	0.00e+00	122	27	0	874512384	40	5697
2026-01-13 21:34:59.11	47.09	20.03	-33.3	-34.2	24.5	0.00e+00	123	27	0	877658112	40	5709
2026-01-13 21:35:00.11	46.85	20.06	-33.4	-34.3	24.5	0.00e+00	123	27	0	880803840	40	5773
2026-01-13 21:35:01.13	46.61	20.10	-33.2	-34.0	24.8	0.00e+00	122	27	0	883949568	40	5585
2026-01-13 21:35:02.13	46.37	20.14	-33.2	-34.0	24.8	0.00e+00	122	27	0	887095296	40	5584
2026-01-13 21:35:03.15	46.12	20.18	-33.1	-34.0	24.7	0.00e+00	123	27	0	890241024	40	5577
2026-01-13 21:35:04.16	45.88	20.22	-33.1	-34.0	24.8	0.00e+00	123	27	0	893386752	40	5587
2026-01-13 21:35:05.16	45.64	20.26	-33.3	-34.1	24.7	0.00e+00	123	27	0	896532480	40	5650
2026-01-13 21:35:06.18	45.39	20.29	-33.3	-34.2	24.7	0.00e+00	123	27	0	899678208	40	5703
2026-01-13 21:35:07.19	45.15	20.33	-33.3	-34.2	24.7	0.00e+00	122	27	0	902823936	40	5673
2026-01-13 21:35:08.20	44.90	20.36	-33.3	-34.1	24.7	0.00e+00	123	27	0	905969664	40	5651
2026-01-13 21:35:09.20	44.66	20.40	-33.4	-34.2	24.5	0.00e+00	122	27	0	909115392	40	5722
2026-01-13 21:35:10.21	44.41	20.43	-33.3	-34.2	24.6	0.00e+00	123	27	0	912261120	40	5706
2026-01-13 21:35:11.22	44.17	20.47	-33.5	-34.4	24.5	0.00e+00	123	27	0	915406848	40	5797
2026-01-13 21:35:12.23	43.92	20.50	-33.4	-34.3	24.5	0.00e+00	122	27	0	918552576	40	5737
2026-01-13 21:35:13.24	43.67	20.53	-33.3	-34.1	24.7	0.00e+00	122	27	0	921698304	40	5648
2026-01-13 21:35:14.25	43.42	20.57	-33.3	-34.2	24.6	0.00e+00	121	27	0	924844032	40	5689
2026-01-13 21:35:15.26	43.17	20.60	-33.3	-34.2	24.6	0.00e+00	123	27	0	927989760	40	5699
2026-01-13 21:35:16.27	42.92	20.63	-33.4	-34.2	24.6	0.00e+00	123	27	0	931135488	40	5718
2026-01-13 21:35:17.28	42.67	20.66	-33.5	-34.4	24.6	0.00e+00	122	27	0	934281216	40	5806
2026-01-13 21:35:18.29	42.42	20.69	-33.5	-34.4	24.4	0.00e+00	123	27	0	937426944	40	5848
2026-01-13 21:35:19.30	42.17	20.72	-33.5	-34.4	24.5	0.00e+00	122	27	0	940572672	40	5834
2026-01-13 21:35:20.31	41.92	20.75	-33.5	-34.4	24.5	0.00e+00	123	27	0	943718400	40	5848
2026-01-13 21:35:21.32	41.67	20.78	-33.5	-34.4	24.6	0.00e+00	120	27	0	946864128	40	5800
2026-01-13 21:35:22.33	41.42	20.81	-33.4	-34.3	24.5	0.00e+00	122	27	0	950009856	40	5746
2026-01-13 21:35:23.34	41.16	20.84	-33.4	-34.3	24.5	0.00e+00	120	27	0	953155584	40	5779
2026-01-13 21:35:24.35	40.91	20.86	-33.5	-34.4	24.6	0.00e+00	123	27	0	956301312	40	5823
2026-01-13 21:35:25.36	40.66	20.89	-33.3	-34.2	24.6	0.00e+00	123	27	0	959447040	40	5694
2026-01-13 21:35:26.37	40.40	20.91	-33.4	-34.3	24.6	0.00e+00	122	27	0	962592768	40	5761
2026-01-13 21:35:27.37	40.15	20.94	-33.4	-34.3	24.5	0.00e+00	120	27	0	965738496	40	5781
2026-01-13 21:35:28.39	39.89	20.96	-33.4	-34.3	24.6	0.00e+00	123	27	0	968884224	40	5764
2026-01-13 21:35:29.39	39.64	20.99	-33.4	-34.3	24.6	0.00e+00	122	27	0	972029952	40	5745
2026-01-13 21:35:30.40	39.38	21.01	-33.2	-34.1	24.8	0.00e+00	120	27	0	975175680	40	5642
2026-01-13 21:35:31.41	39.13	21.04	-33.4	-34.3	24.6	0.00e+00	123	27	0	978321408	40	5740
2026-01-13 21:35:32.42	38.87	21.06	-33.3	-34.2	24.6	0.00e+00	123	27	0	981467136	40	5682
2026-01-13 21:35:33.43	38.61	21.08	-33.5	-34.4	24.4	0.00e+00	123	27	0	984612864	40	5846
2026-01-13 21:35:34.44	38.36	21.10	-33.4	-34.3	24.4	0.00e+00	123	27	0	987758592	40	5759
2026-01-13 21:35:35.45	38.10	21.12	-33.7	-34.5	24.5	0.00e+00	120	27	0	990904320	40	5925
2026-01-13 21:35:36.46	37.84	21.14	-33.4	-34.3	24.6	0.00e+00	122	27	0	994050048	40	5759
2026-01-13 21:35:37.47	37.58	21.16	-33.6	-34.4	24.6	0.00e+00	123	27	0	997195776	40	5856
2026-01-13 21:35:38.48	37.32	21.18	-33.3	-34.2	24.6	0.00e+00	123	27	0	1000341504	40	5710
2026-01-13 21:35:39.49	37.06	21.20	-33.2	-34.1	24.7	0.00e+00	120	27	0	1003487232	40	5623
2026-01-13 21:35:40.50	36.80	21.22	-33.3	-34.2	24.6	0.00e+00	123	27	0	1006632960	40	5678
2026-01-13 21:35:41.51	36.54	21.23	-33.4	-34.3	24.5	0.00e+00	122	27	0	1009778688	40	5768
2026-01-13 21:35:42.52	36.28	21.25	-33.4	-34.3	24.6	0.00e+00	123	27	0	1012924416	40	5767
2026-01-13 21:35:43.53	36.02	21.27	-33.4	-34.3	24.7	0.00e+00	123	27	0	1016070144	40	5731
2026-01-13 21:35:44.54	35.76	21.28	-33.4	-34.3	24.6	0.00e+00	120	27	0	1019215872	40	5748
2026-01-13 21:35:45.55	35.50	21.29	-33.4	-34.3	24.6	0.00e+00	123	27	0	1022361600	40	5763
2026-01-13 21:35:46.56	35.24	21.31	-33.4	-34.3	24.6	0.00e+00	120	27	0	1025507328	40	5740
2026-01-13 21:35:47.57	34.98	21.32	-33.3	-34.1	24.7	0.00e+00	122	27	0	1028653056	40	5647
2026-01-13 21:35:48.57	34.72	21.33	-33.3	-34.1	24.7	0.00e+00	122	27	0	1031798784	40	5653
2026-01-13 21:35:49.56	34.47	21.35	-33.3	-34.1	24.6	0.00e+00	123	27	0	1034944512	40	5658
2026-01-13 21:35:50.57	34.20	21.36	-33.2	-34.1	24.6	0.00e+00	122	27	0	1038090240	40	5639
2026-01-13 21:35:51.58	33.94	21.37	-33.4	-34.3	24.6	0.00e+00	123	27	0	1041235968	40	5760
2026-01-13 21:35:52.59	33.68	21.38	-33.2	-34.1	24.7	0.00e+00	123	27	0	1044381696	40	5606
2026-01-13 21:35:53.60	33.42	21.39	-33.2	-34.1	24.7	0.00e+00	123	27	0	1047527424	40	5641
2026-01-13 21:35:54.61	33.15	21.40	-33.3	-34.2	24.6	0.00e+00	123	27	0	1050673152	40	5687
2026-01-13 21:35:55.62	32.89	21.41	-33.3	-34.2	24.6	0.00e+00	120	27	0	1053818880	40	5721
2026-01-13 21:35:56.63	32.63	21.41	-33.4	-34.3	24.5	0.00e+00	123	27	0	1056964608	40	5777
2026-01-13 21:35:57.64	32.37	21.42	-33.7	-34.6	24.4	0.00e+00	120	27	0	1060110336	40	5965
2026-01-13 21:35:58.65	32.10	21.43	-33.6	-34.5	24.4	0.00e+00	122	27	0	1063256064	40	5880
2026-01-13 21:35:59.66	31.84	21.43	-33.8	-34.7	24.3	0.00e+00	123	27	0	1066401792	40	6004
2026-01-13 21:36:00.67	31.58	21.44	-33.4	-34.3	24.4	0.00e+00	122	27	0	1069547520	40	5766
2026-01-13 21:36:01.68	31.31	21.44	-33.3	-34.2	24.7	0.00e+00	120	27	0	1072693248	40	5661
2026-01-13 21:36:02.69	31.05	21.45	-33.4	-34.3	24.6	0.00e+00	123	27	0	1075838976	40	5729
2026-01-13 21:36:03.70	30.79	21.45	-33.3	-34.2	24.6	0.00e+00	123	27	0	1078984704	40	5662
2026-01-13 21:36:04.71	30.52	21.45	-33.4	-34.3	24.6	0.00e+00	120	27	0	1082130432	40	5728
2026-01-13 21:36:05.72	30.26	21.45	-33.3	-34.2	24.6	0.00e+00	123	27	0	1085276160	40	5699
2026-01-13 21:36:06.73	30.00	21.45	-33.5	-34.4	24.5	0.00e+00	120	27	0	1088421888	40	5795
2026-01-13 21:36:07.74	29.73	21.45	-33.3	-34.2	24.6	0.00e+00	122	27	0	1091567616	40	5710
2026-01-13 21:36:08.75	29.47	21.45	-33.5	-34.4	24.5	0.00e+00	123	27	0	1094713344	40	5795
2026-01-13 21:36:09.76	29.21	21.45	-33.5	-34.4	24.4	0.00e+00	123	27	0	1097859072	40	5851
2026-01-13 21:36:10.77	28.94	21.45	-33.5	-34.4	24.6	0.00e+00	123	27	0	1101004800	40	5795
2026-01-13 21:36:11.78	28.68	21.45	-33.6	-34.5	24.4	0.00e+00	123	27	0	1104150528	40	5902
2026-01-13 21:36:12.79	28.42	21.45	-33.6	-34.5	24.4	0.00e+00	121	27	0	1107296256	40	5882
2026-01-13 21:36:13.80	28.15	21.44	-33.7	-34.6	24.4	0.00e+00	123	27	0	1110441984	40	5932
2026-01-13 21:36:14.81	27.89	21.44	-33.5	-34.4	24.5	0.00e+00	123	27	0	1113587712	40	5843
2026-01-13 21:36:15.82	27.63	21.44	-33.5	-34.4	24.4	0.00e+00	122	27	0	1116733440	40	5844
2026-01-13 21:36:16.82	27.37	21.43	-33.5	-34.4	24.4	0.00e+00	120	27	0	1119879168	40	5845
2026-01-13 21:36:17.83	27.10	21.43	-33.7	-34.6	24.4	0.00e+00	122	27	0	1123024896	40	5948
2026-01-13 21:36:18.85	26.84	21.42	-33.6	-34.5	24.5	0.00e+00	120	27	0	1126170624	40	5909
2026-01-13 21:36:19.86	26.57	21.41	-33.7	-34.6	24.5	0.00e+00	120	27	0	1129316352	40	5952
2026-01-13 21:36:20.87	26.31	21.40	-33.6	-34.5	24.6	0.00e+00	122	27	0	1132462080	40	5872
2026-01-13 21:36:21.88	26.05	21.40	-33.8	-34.7	24.5	0.00e+00	120	27	0	1135607808	40	5996
2026-01-13 21:36:22.89	25.79	21.39	-33.5	-34.4	24.6	0.00e+00	122	27	0	1138753536	40	5807
2026-01-13 21:36:23.90	25.52	21.38	-33.7	-34.6	24.4	0.00e+00	122	27	0	1142947840	40	5978
2026-01-13 21:36:24.91	25.26	21.37	-33.6	-34.5	24.4	0.00e+00	122	27	0	1145044992	40	5925
2026-01-13 21:36:25.91	25.00	21.36	-33.5	-34.4	24.5	0.00e+00	123	27	0	1148190720	40	5817
2026-01-13 21:36:26.92	24.74	21.34	-33.4	-34.3	24.6	0.00e+00	122	27	0	1151336448	40	5777
2026-01-13 21:36:27.93	24.48	21.33	-33.4	-34.3	24.6	0.00e+00	116	28	0	1154482176	40	5732
2026-01-13 21:36:28.94	24.22	21.32	-33.3	-34.1	24.7	0.00e+00	123	27	0	1157627904	40	5655
2026-01-13 21:36:29.95	23.96	21.31	-33.3	-34.2	24.6	0.00e+00	122	27	0	1161822208	40	5680
2026-01-13 21:36:30.96	23.70	21.29	-33.2	-34.1	24.6	0.00e+00	120	27	0	1164967936	40	5638
2026-01-13 21:36:31.97	23.44	21.28	-33.4	-34.3	24.5	0.00e+00	123	27	0	1167065088	40	5737
2026-01-13 21:36:32.98	23.18	21.26	-33.4	-34.2	24.6	0.00e+00	123	27	0	1170210816	40	5722
2026-01-13 21:36:33.99	22.92	21.25	-33.5	-34.4	24.6	0.00e+00	123	27	0	1173356544	40	5822
2026-01-13 21:36:35.00	22.66	21.23	-33.5	-34.4	24.5	0.00e+00	123	27	0	1177550848	40	5833
2026-01-13 21:36:36.01	22.40	21.21	-33.6	-34.6	24.4	0.00e+00	123	27	0	1180696576	40	5931
2026-01-13 21:36:37.02	22.14	21.19	-33.6	-34.6	24.4	0.00e+00	122	28	0	1183842304	40	5937
2026-01-13 21:36:38.03	21.88	21.18	-33.7	-34.6	24.4	0.00e+00	122	27	0	1186988032	40	5964
2026-01-13 21:36:39.04	21.62	21.16	-33.7	-34.6	24.3	0.00e+00	122	27	0	1190133760	40	5988
2026-01-13 21:36:40.05	21.36	21.14	-33.6	-34.5	24.3	0.00e+00	122	27	0	1193279488	40	5905
2026-01-13 21:36:41.06	21.10	21.12	-33.4	-34.3	24.5	0.00e+00	123	28	0	1196425216	40	5762
2026-01-13 21:36:42.07	20.85	21.10	-33.4	-34.3	24.5	0.00e+00	123	28	0	1199570944	40	5755
2026-01-13 21:36:43.08	20.59	21.07	-33.3	-34.2	24.6	0.00e+00	122	27	0	1202716672	40	5671
2026-01-13 21:36:44.09	20.33	21.05	-33.3	-34.2	24.6	0.00e+00	120	28	0	1205862400	40	5688
2026-01-13 21:36:45.10	20.08	21.03	-33.6	-34.5	24.5	0.00e+00	122	28	0	1209008128	40	5881
2026-01-13 21:36:46.11	19.82	21.01	-33.2	-34.1	24.7	0.00e+00	122	28	0	1212153856	40	5609
2026-01-13 21:36:47.12	19.56	20.98	-33.2	-34.1	24.6	0.00e+00	123	28	0	1215299584	40	5604
2026-01-13 21:36:48.13	19.31	20.96	-33.0	-33.8	24.7	0.00e+00	123	28	0	1218445312	40	5466
2026-01-13 21:36:49.14	19.05	20.93	-33.2	-34.1	24.5	0.00e+00	123	28	0	1221591040	40	5610
2026-01-13 21:36:50.15	18.80	20.91	-33.2	-34.1	24.4	0.00e+00	122	28	0	1224736768	40	5629
2026-01-13 21:36:51.16	18.55	20.88	-33.3	-34.1	24.5	0.00e+00	123	28	0	1227882496	40	5649
2026-01-13 21:36:52.17	18.29	20.86	-33.4	-34.3	24.4	0.00e+00	122	28	0	1231028224	40	5743
2026-01-13 21:36:53.18	18.04	20.83	-33.4	-34.2	24.5	0.00e+00	123	28	0	1234173952	40	5723
2026-01-13 21:36:54.19	17.79	20.80	-33.4	-34.2	24.5	0.00e+00	123	28	0	1237319680	40	5724
2026-01-13 21:36:55.19	17.54	20.77	-33.4	-34.3	24.6	0.00e+00	122	28	0	1240465408	40	5745
2026-01-13 21:36:56.20	17.29	20.74	-33.4	-34.3	24.5	0.00e+00	123	28	0	1243611136	40	5748
2026-01-13 21:36:57.21	17.04	20.71	-33.5	-34.4	24.5	0.00e+00	122	28	0	1246756864	40	5799
2026-01-13 21:36:58.22	16.78	20.68	-33.5	-34.4	24.5	0.00e+00	122	28	0	1249902592	40	5842
2026-01-13 21:36:59.23	16.53	20.65	-33.6	-34.5	24.4	0.00e+00	123	28	0	1253048320	40	5918
2026-01-13 21:37:00.24	16.28	20.62	-33.7	-34.6	24.3	0.00e+00	123	28	0	1256194048	40	5944
2026-01-13 21:37:01.25	16.04	20.59	-33.8	-34.7	24.2	0.00e+00	123	28	0	1259339776	40	6011
2026-01-13 21:37:02.26	15.79	20.56	-33.7	-34.6	24.2	0.00e+00	122	28	0	1262485504	40	5988
2026-01-13 21:37:03.27	15.54	20.53	-33.7	-34.6	24.2	0.00e+00	123	28	0	1265631232	40	5953
2026-01-13 21:37:04.28	15.29	20.49	-33.8	-34.7	24.3	0.00e+00	123	28	0	1268776960	40	6037
2026-01-13 21:37:05.29	15.04	20.46	-33.7	-34.6	24.3	0.00e+00	123	28	0	1271922688	40	5970
2026-01-13 21:37:06.30	14.80	20.42	-33.5	-34.4	24.4	0.00e+00	122	28	0	1275068416	40	5794
2026-01-13 21:37:07.31	14.55	20.39	-33.5	-34.4	24.4	0.00e+00	123	28	0	1278214144	40	5827
2026-01-13 21:37:08.32	14.31	20.36	-33.4	-34.3	24.4	0.00e+00	122	28	0	1281359872	40	5781
2026-01-13 21:37:09.33	14.06	20.32	-33.5	-34.4	24.3	0.00e+00	123	28	0	1284505600	40	5847
2026-01-13 21:37:10.34	13.82	20.28	-33.6	-34.5	24.3	0.00e+00	123	28	0	1287651328	40	5879
2026-01-13 21:37:11.35	13.57	20.25	-33.6	-34.5	24.4	0.00e+00	123	28	0	1290797056	40	5921
2026-01-13 21:37:12.36	13.33	20.21	-33.6	-34.5	24.4	0.00e+00	123	28	0	1293942784	40	5880
2026-01-13 21:37:13.37	13.09	20.17	-33.6	-34.5	24.4	0.00e+00	123	28	0	1297088512	40	5885
2026-01-13 21:37:14.38	12.85	20.13	-33.6	-34.5	24.4	0.00e+00	122	28	0	1300234240	40	5883
2026-01-13 21:37:15.39	12.61	20.09	-33.7	-34.6	24.4	0.00e+00	120	28	0	1303379968	40	5933
2026-01-13 21:37:16.40	12.37	20.06	-33.7	-34.6	24.4	0.00e+00	123	28	0	1306525696	40	5947
2026-01-13 21:37:17.41	12.13	20.02	-33.7	-34.6	24.4	0.00e+00	120	28	0	1309671424	40	5952
2026-01-13 21:37:18.42	11.89	19.98	-33.7	-34.6	24.4	0.00e+00	122	28	0	1312817152	40	5943
2026-01-13 21:37:19.43	11.65	19.94	-33.8	-34.7	24.4	0.00e+00	120	28	0	1315962880	40	6016
2026-01-13 21:37:20.44	11.41	19.89	-33.6	-34.4	24.5	0.00e+00	122	28	0	1319108608	40	5856
2026-01-13 21:37:21.45	11.17	19.85	-33.7	-34.6	24.5	0.00e+00	121	28	0	1322254336	40	5942
2026-01-13 21:37:22.46	10.94	19.81	-33.9	-34.8	24.3	0.00e+00	120	28	0	1325400064	40	6082
2026-01-13 21:37:23.47	10.70	19.77	-33.7	-34.6	24.4	0.00e+00	122	28	0	1328545792	40	5960
2026-01-13 21:37:24.48	10.46	19.73	-33.6	-34.5	24.5	0.00e+00	120	28	0	1331691520	40	5905
2026-01-13 21:37:25.49	10.23	19.68	-33.4	-34.3	24.6	0.00e+00	123	28	0	1334837248	40	5760
2026-01-13 21:37:26.50	9.99	19.64	-33.2	-34.1	24.7	0.00e+00	120	28	0	1337982976	40	5623
2026-01-13 21:37:27.51	9.76	19.60	-33.2	-34.1	24.8	0.00e+00	123	28	0	1341128704	40	5629
2026-01-13 21:37:28.52	9.53	19.55	-33.2	-34.1	24.6	0.00e+00	120	28	0	1344274432	40	5630
2026-01-13 21:37:29.53	9.30	19.51	-33.3	-34.2	24.5	0.00e+00	123	28	0	1347420160	40	5688
2026-01-13 21:37:30.54	9.07	19.46	-33.4	-34.3	24.5	0.00e+00	123	28	0	1350565888	40	5760
2026-01-13 21:37:31.55	8.83	19.42	-33.5	-34.4	24.4	0.00e+00	123	28	0	1353711616	40	5834
2026-01-13 21:37:32.55	8.61	19.37	-33.6	-34.5	24.3	0.00e+00	122	28	0	1356857344	40	5897
2026-01-13 21:37:33.56	8.38	19.32	-33.7	-34.6	24.3	0.00e+00	122	28	0	1360003072	40	5967
2026-01-13 21:37:34.57	8.15	19.28	-33.8	-34.7	24.3	0.00e+00	123	28	0	1363148800	40	6014
2026-01-13 21:37:35.58	7.92	19.23	-33.8	-34.7	24.3	0.00e+00	122	28	0	1366294528	40	6037
2026-01-13 21:37:36.59	7.69	19.18	-33.8	-34.8	24.3	0.00e+00	120	28	0	1369440256	40	6069
2026-01-13 21:37:37.60	7.47	19.13	-33.8	-34.7	24.3	0.00e+00	123	28	0	1372585984	40	6017
2026-01-13 21:37:38.61	7.24	19.08	-33.9	-34.8	24.2	0.00e+00	123	28	0	1375731712	40	6083
2026-01-13 21:37:39.62	7.02	19.04	-33.8	-34.7	24.3	0.00e+00	123	28	0	1378877440	40	6001
2026-01-13 21:37:40.63	6.79	18.99	-33.9	-34.8	24.3	0.00e+00	122	28	0	1382023168	40	6083
2026-01-13 21:37:41.64	6.57	18.94	-33.8	-34.7	24.2	0.00e+00	123	28	0	1385168896	40	6060
2026-01-13 21:37:42.65	6.35	18.89	-33.8	-34.7	24.3	0.00e+00	123	28	0	1388314624	40	6001
2026-01-13 21:37:43.66	6.13	18.84	-33.8	-34.7	24.3	0.00e+00	122	28	0	1391460352	40	6031
2026-01-13 21:37:44.66	5.91	18.79	-33.7	-34.6	24.3	0.00e+00	120	28	0	1394606080	40	5966
2026-01-13 21:37:45.67	5.69	18.74	-33.5	-34.4	24.5	0.00e+00	123	28	0	1397751808	40	5821
2026-01-13 21:37:46.68	5.47	18.69	-33.6	-34.5	24.4	0.00e+00	122	28	0	1400897536	40	5920
2026-01-13 21:37:47.69	5.25	18.63	-33.5	-34.4	24.5	0.00e+00	123	28	0	1404043264	40	5843
2026-01-13 21:37:48.69	5.03	18.58	-33.6	-34.5	24.5	0.00e+00	122	28	0	1407188992	40	5887
2026-01-13 21:37:49.70	4.81	18.53	-33.7	-34.6	24.4	0.00e+00	123	28	0	1410334720	40	5977
2026-01-13 21:37:50.71	4.60	18.48	-33.8	-34.7	24.4	0.00e+00	120	28	0	1413480448	40	6030
2026-01-13 21:37:51.72	4.38	18.43	-33.9	-34.8	24.2	0.00e+00	122	28	0	1416626176	40	6133
2026-01-13 21:37:52.73	4.17	18.37	-34.1	-35.0	24.2	0.00e+00	120	28	0	1419771904	40	6218
2026-01-13 21:37:53.74	3.95	18.32	-34.1	-35.0	24.2	0.00e+00	122	28	0	1422917632	40	6260
2026-01-13 21:37:54.75	3.74	18.27	-34.2	-35.1	24.1	0.00e+00	123	28	0	1426063360	40	6314
2026-01-13 21:37:55.76	3.52	18.21	-34.1	-35.0	24.1	0.00e+00	123	28	0	1429209088	40	6258
2026-01-13 21:37:56.77	3.31	18.16	-34.1	-35.0	24.0	0.00e+00	123	28	0	1432354816	40	6253
2026-01-13 21:37:57.78	3.10	18.10	-34.3	-35.2	24.0	0.00e+00	123	28	0	1435500544	40	6391
2026-01-13 21:37:58.79	2.89	18.05	-34.0	-34.9	24.1	0.00e+00	122	28	0	1438646272	40	6155
2026-01-13 21:37:59.80	2.68	17.99	-33.8	-34.8	24.3	0.00e+00	120	28	0	1441792000	40	6075
2026-01-13 21:38:00.81	2.47	17.94	-33.9	-34.8	24.2	0.00e+00	122	28	0	1444937728	40	6086
2026-01-13 21:38:01.82	2.26	17.88	-34.0	-34.9	24.1	0.00e+00	123	28	0	1448083456	40	6186
2026-01-13 21:38:02.83	2.06	17.83	-33.7	-34.6	24.4	0.00e+00	123	28	0	1451229184	40	5979
2026-01-13 21:38:03.84	1.85	17.77	-33.9	-34.8	24.3	0.00e+00	122	28	0	1454374912	40	6067
2026-01-13 21:38:04.85	1.64	17.71	-33.5	-34.4	24.5	0.00e+00	122	28	0	1457520640	40	5848
2026-01-13 21:38:05.86	1.44	17.66	-33.6	-34.5	24.5	0.00e+00	122	28	0	1460666368	40	5867
2026-01-13 21:38:06.86	1.24	17.60	-33.5	-34.4	24.5	0.00e+00	122	28	0	1463812096	40	5819
2026-01-13 21:38:07.87	1.03	17.54	-33.6	-34.5	24.5	0.00e+00	123	28	0	1466957824	40	5863
2026-01-13 21:38:08.88	0.83	17.48	-33.8	-34.7	24.4	0.00e+00	122	28	0	1470103552	40	6016
2026-01-13 21:38:09.89	0.63	17.43	-33.7	-34.6	24.4	0.00e+00	122	28	0	1473249280	40	5927
2026-01-13 21:38:10.90	0.43	17.37	-33.9	-34.8	24.2	0.00e+00	122	28	0	1476395008	40	6082
2026-01-13 21:38:11.91	0.23	17.31	-33.9	-34.9	24.1	0.00e+00	120	28	0	1479540736	40	6147
2026-01-13 21:38:12.92	0.03	17.25	-34.0	-35.0	24.1	0.00e+00	122	28	0	1482686464	40	6212
2026-01-13 21:38:13.93	359.83	17.19	-34.1	-35.0	24.0	0.00e+00	123	28	0	1485832192	40	6241
2026-01-13 21:38:14.94	359.63	17.14	-34.1	-35.0	24.0	0.00e+00	123	28	0	1488977920	40	6261
2026-01-13 21:38:15.95	359.43	17.08	-34.0	-34.9	24.0	0.00e+00	120	28	0	1492123648	40	6173
2026-01-13 21:38:16.96	359.24	17.02	-34.1	-35.0	24.0	0.00e+00	127	28	0	1495269376	40	6231
2026-01-13 21:38:17.97	359.04	16.96	-33.9	-34.8	24.1	0.00e+00	123	28	0	1498415104	40	6131
2026-01-13 21:38:18.98	358.84	16.90	-33.9	-34.8	24.2	0.00e+00	122	28	0	1501560832	40	6090
2026-01-13 21:38:19.98	358.65	16.84	-33.9	-34.8	24.1	0.00e+00	122	28	0	1504706560	40	6101
2026-01-13 21:38:20.99	358.46	16.78	-34.0	-34.9	24.2	0.00e+00	122	28	0	1507852288	40	6154
2026-01-13 21:38:22.00	358.27	16.72	-33.9	-34.8	24.2	0.00e+00	123	28	0	1510998016	40	6100
2026-01-13 21:38:23.01	358.07	16.66	-34.0	-34.9	24.1	0.00e+00	122	29	0	1514143744	40	6199
2026-01-13 21:38:24.02	357.88	16.60	-34.1	-35.0	24.0	0.00e+00	123	28	0	1517289472	40	6236
2026-01-13 21:38:25.03	357.69	16.54	-34.3	-35.2	23.9	0.00e+00	123	29	0	1520435200	40	6376
2026-01-13 21:38:26.04	357.50	16.48	-34.4	-35.3	23.8	0.00e+00	122	29	0	1523580928	40	6470
2026-01-13 21:38:27.05	357.31	16.42	-34.2	-35.1	24.0	0.00e+00	122	29	0	1527775232	40	6324
2026-01-13 21:38:28.06	357.13	16.35	-34.2	-35.1	23.9	0.00e+00	122	29	0	1529872384	40	6325
2026-01-13 21:38:29.07	356.94	16.29	-34.2	-35.1	23.9	0.00e+00	122	29	0	1533018112	40	6340
2026-01-13 21:38:30.08	356.75	16.23	-34.2	-35.1	24.0	0.00e+00	123	29	0	1536163840	40	6327
2026-01-13 21:38:31.09	356.57	16.17	-34.2	-35.1	24.0	0.00e+00	123	29	0	1539309568	40	6322
2026-01-13 21:38:32.09	356.38	16.11	-34.2	-35.1	24.0	0.00e+00	124	29	0	1542455296	40	6330
2026-01-13 21:38:33.11	356.20	16.05	-34.3	-35.2	23.9	0.00e+00	123	29	0	1546649600	40	6367
2026-01-13 21:38:34.11	356.02	15.98	-34.4	-35.3	23.8	0.00e+00	122	29	0	1549795328	40	6488
2026-01-13 21:38:35.13	355.83	15.92	-34.4	-35.3	23.8	0.00e+00	122	29	0	1552941056	40	6457
2026-01-13 21:38:36.14	355.65	15.86	-34.4	-35.4	23.7	0.00e+00	123	29	0	1555038208	40	6506
2026-01-13 21:38:37.15	355.47	15.80	-34.3	-35.2	23.9	0.00e+00	123	29	0	1559232512	40	6391
2026-01-13 21:38:38.16	355.29	15.73	-34.3	-35.2	23.8	0.00e+00	123	29	0	1562378240	40	6393
2026-01-13 21:38:39.17	355.11	15.67	-34.2	-35.1	24.0	0.00e+00	121	29	0	1565523968	40	6310
2026-01-13 21:38:40.17	354.93	15.61	-34.1	-35.0	24.0	0.00e+00	122	29	0	1568669696	40	6252
2026-01-13 21:38:41.18	354.76	15.55	-34.0	-34.9	24.1	0.00e+00	123	29	0	1571815424	40	6199
2026-01-13 21:38:42.19	354.58	15.48	-34.1	-35.0	24.0	0.00e+00	122	29	0	1574961152	40	6225
2026-01-13 21:38:43.20	354.40	15.42	-34.1	-35.0	24.0	0.00e+00	120	29	0	1578106880	40	6213
2026-01-13 21:38:44.21	354.23	15.36	-34.2	-35.1	24.0	0.00e+00	123	29	0	1581252608	40	6286
2026-01-13 21:38:45.22	354.05	15.29	-34.3	-35.3	23.8	0.00e+00	122	29	0	1584398336	40	6430
2026-01-13 21:38:46.22	353.88	15.23	-34.5	-35.5	23.8	0.00e+00	124	29	0	1587544064	40	6598
2026-01-13 21:38:47.24	353.70	15.17	-34.4	-35.4	23.8	0.00e+00	120	29	0	1590689792	40	6501
2026-01-13 21:38:48.25	353.53	15.10	-34.6	-35.5	23.6	0.00e+00	122	29	0	1593835520	40	6613
2026-01-13 21:38:49.26	353.36	15.04	-34.5	-35.4	23.7	0.00e+00	123	29	0	1596981248	40	6537
2026-01-13 21:38:50.27	353.19	14.97	-34.5	-35.4	23.7	0.00e+00	123	29	0	1600126976	40	6554
2026-01-13 21:38:51.27	353.02	14.91	-34.5	-35.4	23.7	0.00e+00	123	29	0	1603272704	40	6548
2026-01-13 21:38:52.29	352.85	14.85	-34.5	-35.4	23.8	0.00e+00	123	29	0	1606418432	40	6519
2026-01-13 21:38:53.30	352.68	14.78	-34.4	-35.3	23.8	0.00e+00	123	29	0	1609564160	40	6494
2026-01-13 21:38:54.31	352.51	14.72	-34.3	-35.3	23.9	0.00e+00	123	29	0	1612709888	40	6424
2026-01-13 21:38:55.32	352.34	14.65	-34.3	-35.2	23.9	0.00e+00	123	29	0	1615855616	40	6367
2026-01-13 21:38:56.33	352.18	14.59	-34.3	-35.2	23.8	0.00e+00	122	29	0	1619001344	40	6422
2026-01-13 21:38:57.34	352.01	14.52	-34.4	-35.3	23.8	0.00e+00	123	29	0	1622147072	40	6444
2026-01-13 21:38:58.35	351.85	14.46	-34.4	-35.3	23.8	0.00e+00	120	29	0	1625292800	40	6477
2026-01-13 21:38:59.36	351.68	14.39	-34.4	-35.4	23.8	0.00e+00	123	29	0	1628438528	40	6504
2026-01-13 21:39:00.36	351.52	14.33	-34.6	-35.6	23.6	0.00e+00	122	29	0	1631584256	40	6670
2026-01-13 21:39:01.37	351.36	14.27	-34.6	-35.5	23.6	0.00e+00	123	29	0	1634729984	40	6616
2026-01-13 21:39:02.38	351.19	14.20	-34.6	-35.5	23.6	0.00e+00	122	29	0	1637875712	40	6626
2026-01-13 21:39:03.39	351.03	14.14	-34.7	-35.6	23.4	0.00e+00	122	29	0	1641021440	40	6724
2026-01-13 21:39:04.40	350.87	14.07	-34.5	-35.5	23.6	0.00e+00	122	29	0	1644167168	42	5889
2026-01-13 21:39:05.41	350.71	14.01	-34.6	-35.6	23.5	0.00e+00	120	29	0	1647312896	42	5955
2026-01-13 21:39:06.42	350.55	13.94	-34.5	-35.4	23.6	0.00e+00	122	29	0	1650458624	42	5856
2026-01-13 21:39:07.43	350.39	13.88	-34.3	-35.2	23.8	0.00e+00	123	29	0	1653604352	42	5715
2026-01-13 21:39:08.44	350.23	13.81	-34.3	-35.3	23.7	0.00e+00	123	29	0	1656750080	42	5726
2026-01-13 21:39:09.45	350.08	13.75	-34.3	-35.2	23.8	0.00e+00	123	29	0	1659895808	42	5686
2026-01-13 21:39:10.46	349.92	13.68	-34.2	-35.2	23.7	0.00e+00	123	29	0	1663041536	42	5666
2026-01-13 21:39:11.47	349.77	13.61	-34.4	-35.3	23.7	0.00e+00	123	29	0	1666187264	42	5787
2026-01-13 21:39:12.48	349.61	13.55	-34.4	-35.4	23.6	0.00e+00	120	29	0	1669332992	42	5802
2026-01-13 21:39:13.49	349.46	13.48	-34.4	-35.3	23.6	0.00e+00	122	29	0	1672478720	42	5788
2026-01-13 21:39:14.50	349.30	13.42	-34.4	-35.3	23.7	0.00e+00	120	29	0	1675624448	42	5769
2026-01-13 21:39:15.51	349.15	13.35	-34.3	-35.2	23.7	0.00e+00	120	29	0	1678770176	42	5686
2026-01-13 21:39:16.52	349.00	13.29	-34.3	-35.2	23.7	0.00e+00	123	29	0	1681915904	42	5716
2026-01-13 21:39:17.53	348.84	13.22	-34.4	-35.3	23.6	0.00e+00	120	29	0	1685061632	42	5757
2026-01-13 21:39:18.54	348.69	13.16	-34.4	-35.4	23.6	0.00e+00	120	29	0	1688207360	42	5802
2026-01-13 21:39:19.55	348.54	13.09	-34.3	-35.3	23.7	0.00e+00	123	29	0	1691353088	42	5727
2026-01-13 21:39:20.56	348.39	13.03	-34.4	-35.4	23.5	0.00e+00	125	29	0	1694498816	42	5815
2026-01-13 21:39:21.57	348.24	12.96	-34.6	-35.5	23.6	0.00e+00	123	29	0	1697644544	42	5903
2026-01-13 21:39:22.58	348.10	12.89	-34.8	-35.7	23.3	0.00e+00	123	29	0	1700790272	42	6035
2026-01-13 21:39:23.59	347.95	12.83	-34.7	-35.7	23.3	0.00e+00	120	29	0	1703936000	42	6019
2026-01-13 21:39:24.60	347.80	12.76	-34.8	-35.7	23.2	0.00e+00	123	29	0	1707081728	42	6059
2026-01-13 21:39:25.61	347.65	12.70	-34.8	-35.8	23.2	0.00e+00	123	29	0	1710227456	42	6082
2026-01-13 21:39:26.62	347.51	12.63	-34.9	-35.8	23.1	0.00e+00	123	29	0	1713373184	42	6106
2026-01-13 21:39:27.62	347.37	12.57	-34.9	-35.9	23.1	0.00e+00	123	29	0	1716518912	42	6174
2026-01-13 21:39:28.63	347.22	12.50	-35.1	-36.1	22.9	0.00e+00	124	29	0	1719664640	42	6283
2026-01-13 21:39:29.65	347.08	12.43	-35.0	-36.0	23.0	0.00e+00	122	29	0	1722810368	42	6230
2026-01-13 21:39:30.66	346.93	12.37	-34.8	-35.8	23.1	0.00e+00	123	29	0	1725956096	42	6095
2026-01-13 21:39:31.67	346.79	12.30	-35.0	-35.9	23.1	0.00e+00	122	29	0	1729101824	42	6196
2026-01-13 21:39:32.68	346.65	12.24	-35.0	-35.9	23.1	0.00e+00	122	29	0	1732247552	42	6196
2026-01-13 21:39:33.68	346.51	12.17	-34.9	-35.8	23.2	0.00e+00	124	29	0	1735393280	42	6101
2026-01-13 21:39:34.70	346.37	12.11	-35.0	-36.0	23.1	0.00e+00	123	29	0	1738539008	42	6227
2026-01-13 21:39:35.70	346.23	12.04	-35.1	-36.1	23.1	0.00e+00	123	29	0	1741684736	42	6305
2026-01-13 21:39:36.71	346.09	11.98	-35.2	-36.2	23.0	0.00e+00	123	29	0	1744830464	42	6386
2026-01-13 21:39:37.72	345.95	11.91	-35.1	-36.1	23.1	0.00e+00	124	29	0	1747976192	42	6293
2026-01-13 21:39:38.73	345.81	11.84	-35.4	-36.3	22.9	0.00e+00	122	29	0	1751121920	42	6486
2026-01-13 21:39:39.74	345.68	11.78	-35.4	-36.4	22.8	0.00e+00	122	29	0	1754267648	42	6545
2026-01-13 21:39:40.75	345.54	11.71	-35.6	-36.6	22.7	0.00e+00	122	29	0	1757413376	42	6681
2026-01-13 21:39:41.76	345.40	11.65	-35.7	-36.7	22.5	0.00e+00	122	29	0	1760559104	42	6790
2026-01-13 21:39:42.77	345.27	11.58	-35.7	-36.8	22.5	0.00e+00	122	29	0	1763704832	44	6067
2026-01-13 21:39:43.78	345.13	11.52	-35.8	-36.8	22.3	0.00e+00	123	29	0	1766850560	44	6119
2026-01-13 21:39:44.79	345.00	11.45	-35.7	-36.8	22.4	0.00e+00	120	29	0	1769996288	44	6082
2026-01-13 21:39:45.80	344.87	11.39	-35.9	-36.9	22.3	0.00e+00	123	29	0	1773142016	44	6162
2026-01-13 21:39:46.81	344.73	11.32	-35.6	-36.7	22.4	0.00e+00	122	29	0	1776287744	44	6003
2026-01-13 21:39:47.82	344.60	11.26	-35.4	-36.5	22.6	0.00e+00	127	29	0	1779433472	44	5868
2026-01-13 21:39:48.83	344.47	11.19	-35.4	-36.5	22.6	0.00e+00	123	29	0	1782579200	44	5866
2026-01-13 21:39:49.84	344.34	11.12	-35.5	-36.5	22.6	0.00e+00	123	29	0	1785724928	44	5882
2026-01-13 21:39:50.85	344.21	11.06	-35.6	-36.6	22.5	0.00e+00	123	29	0	1788870656	44	5959
2026-01-13 21:39:51.86	344.08	10.99	-35.5	-36.5	22.7	0.00e+00	123	29	0	1792016384	44	5865
2026-01-13 21:39:52.87	343.95	10.93	-35.5	-36.6	22.6	0.00e+00	120	29	0	1795162112	44	5928
2026-01-13 21:39:53.87	343.82	10.86	-35.6	-36.6	22.6	0.00e+00	123	29	0	1798307840	44	5955
2026-01-13 21:39:54.88	343.69	10.80	-35.7	-36.7	22.5	0.00e+00	123	29	0	1801453568	44	6022
2026-01-13 21:39:55.89	343.56	10.73	-35.9	-36.9	22.3	0.00e+00	120	29	0	1804599296	44	6181
2026-01-13 21:39:56.90	343.44	10.67	-35.9	-36.9	22.2	0.00e+00	123	29	0	1807745024	44	6203
2026-01-13 21:39:57.92	343.31	10.60	-36.0	-37.0	22.2	0.00e+00	120	29	0	1810890752	44	6259
2026-01-13 21:39:58.93	343.18	10.54	-36.1	-37.2	22.0	0.00e+00	123	29	0	1814036480	44	6365
2026-01-13 21:39:59.94	343.06	10.47	-36.0	-37.0	22.1	0.00e+00	122	29	0	1817182208	44	6233
2026-01-13 21:40:00.94	342.93	10.41	-36.2	-37.3	21.8	0.00e+00	122	29	0	1820327936	44	6449
2026-01-13 21:40:01.95	342.81	10.34	-36.1	-37.1	21.9	0.00e+00	123	29	0	1823473664	44	6349
2026-01-13 21:40:02.96	342.69	10.28	-36.2	-37.3	22.0	0.00e+00	123	29	0	1826619392	44	6457
2026-01-13 21:40:03.96	342.57	10.21	-35.9	-37.0	22.0	0.00e+00	122	29	0	1829765120	44	6238
2026-01-13 21:40:04.97	342.44	10.15	-35.9	-36.9	22.2	0.00e+00	120	29	0	1832910848	44	6175
2026-01-13 21:40:05.98	342.32	10.08	-35.6	-36.6	22.4	0.00e+00	123	29	0	1836056576	44	5981
2026-01-13 21:40:06.99	342.20	10.02	-35.4	-36.4	22.7	0.00e+00	122	29	0	1839202304	44	5811
2026-01-13 21:40:08.00	342.08	9.95	-35.5	-36.5	22.6	0.00e+00	122	29	0	1842348032	44	5895
2026-01-13 21:40:09.01	341.96	9.89	-35.6	-36.6	22.5	0.00e+00	122	29	0	1845493760	44	5986
2026-01-13 21:40:10.02	341.84	9.82	-35.8	-36.8	22.3	0.00e+00	123	29	0	1848639488	44	6100
2026-01-13 21:40:11.03	341.72	9.76	-35.8	-36.8	22.3	0.00e+00	122	29	0	1851785216	44	6091
2026-01-13 21:40:12.04	341.60	9.70	-35.9	-36.9	22.1	0.00e+00	123	29	0	1854930944	44	6198
2026-01-13 21:40:13.05	341.48	9.63	-36.1	-37.2	22.0	0.00e+00	123	29	0	1858076672	44	6386
2026-01-13 21:40:14.06	341.37	9.57	-36.2	-37.3	22.0	0.00e+00	122	29	0	1861222400	44	6425
2026-01-13 21:40:15.07	341.25	9.50	-36.2	-37.3	21.9	0.00e+00	123	29	0	1864368128	44	6437
2026-01-13 21:40:16.08	341.13	9.44	-36.4	-37.5	21.8	0.00e+00	123	29	0	1867513856	44	6584
2026-01-13 21:40:17.09	341.02	9.37	-36.4	-37.5	21.6	0.00e+00	122	29	0	1870659584	44	6608
2026-01-13 21:40:18.10	340.90	9.31	-36.4	-37.5	21.6	0.00e+00	121	29	0	1873805312	44	6640
2026-01-13 21:40:19.11	340.79	9.24	-36.4	-37.5	21.6	0.00e+00	123	29	0	1876951040	44	6590
2026-01-13 21:40:20.12	340.67	9.18	-36.1	-37.2	21.9	0.00e+00	123	29	0	1880096768	44	6376
2026-01-13 21:40:21.13	340.56	9.12	-36.1	-37.2	21.8	0.00e+00	123	29	0	1883242496	44	6352
2026-01-13 21:40:22.14	340.44	9.05	-36.0	-37.1	22.0	0.00e+00	123	29	0	1886388224	44	6301
2026-01-13 21:40:23.15	340.33	8.99	-36.0	-37.1	21.9	0.00e+00	122	29	0	1890582528	44	6290
2026-01-13 21:40:24.16	340.22	8.92	-36.0	-37.0	22.0	0.00e+00	120	29	0	1892679680	44	6252
2026-01-13 21:40:25.17	340.11	8.86	-35.8	-36.9	22.2	0.00e+00	122	29	0	1895825408	44	6142
2026-01-13 21:40:26.18	340.00	8.80	-36.0	-37.0	22.1	0.00e+00	123	29	0	1898971136	44	6242
2026-01-13 21:40:27.19	339.88	8.73	-36.0	-37.0	22.1	0.00e+00	123	29	0	1902116864	44	6256
2026-01-13 21:40:28.20	339.77	8.67	-36.1	-37.1	22.0	0.00e+00	123	29	0	1906311168	44	6337
2026-01-13 21:40:29.21	339.66	8.61	-36.0	-37.1	22.1	0.00e+00	123	29	0	1909456896	44	6295
2026-01-13 21:40:30.22	339.56	8.54	-36.1	-37.1	22.1	0.00e+00	122	30	0	1912602624	44	6326
2026-01-13 21:40:31.23	339.45	8.48	-36.2	-37.3	21.8	0.00e+00	123	29	0	1915748352	44	6461
2026-01-13 21:40:32.24	339.34	8.41	-36.5	-37.6	21.7	0.00e+00	121	29	0	1917845504	44	6698
2026-01-13 21:40:33.25	339.23	8.35	-36.6	-37.7	21.5	0.00e+00	123	29	0	1920991232	44	6785
2026-01-13 21:40:34.26	339.12	8.29	-36.8	-37.9	21.4	0.00e+00	121	29	0	1925185536	46	6175
2026-01-13 21:40:35.27	339.02	8.22	-36.8	-37.9	21.4	0.00e+00	123	29	0	1928331264	46	6155
2026-01-13 21:40:36.27	338.91	8.16	-36.8	-37.9	21.3	0.00e+00	123	29	0	1931476992	46	6175
2026-01-13 21:40:37.28	338.80	8.10	-36.9	-38.0	21.2	0.00e+00	123	29	0	1934622720	46	6232
2026-01-13 21:40:38.30	338.70	8.03	-36.8	-37.9	21.1	0.00e+00	122	29	0	1937768448	46	6161
2026-01-13 21:40:39.30	338.59	7.97	-36.7	-37.8	21.2	0.00e+00	123	29	0	1940914176	46	6108
2026-01-13 21:40:40.32	338.49	7.91	-36.6	-37.8	21.3	0.00e+00	120	30	0	1944059904	46	6074
2026-01-13 21:40:41.33	338.38	7.85	-36.7	-37.8	21.2	0.00e+00	122	29	0	1947205632	46	6124
2026-01-13 21:40:42.34	338.28	7.78	-36.7	-37.7	21.5	0.00e+00	120	29	0	1950351360	46	6057
2026-01-13 21:40:43.35	338.18	7.72	-36.3	-37.3	21.7	0.00e+00	120	29	0	1953497088	46	5772
2026-01-13 21:40:44.36	338.07	7.66	-36.3	-37.3	21.7	0.00e+00	123	29	0	1956642816	46	5759
2026-01-13 21:40:45.37	337.97	7.59	-36.3	-37.3	21.8	0.00e+00	120	29	0	1959788544	46	5758
2026-01-13 21:40:46.38	337.87	7.53	-35.9	-36.9	22.1	0.00e+00	122	30	0	1962934272	46	5526
2026-01-13 21:40:47.39	337.77	7.47	-36.0	-37.0	22.0	0.00e+00	120	30	0	1966080000	46	5572
