passes_logs/2026/01/13/R4.6S_Anadyr/R4.6S_Anadyr__20260113_001633_NOAA_20_JPSS-1_rec.log

#Pass ID: 20260113_001633_NOAA 20 (JPSS-1)
#Satellite: NOAA 20 (JPSS-1)
#Configuration: NOAA 20
#almurnet v.1.7.20251203
#Start time: 2026-01-13 00:16:35

#Version: 2.2.20231116
#Station: R4.6S_Anadyr
#Location: 177.4865 lon 64.73178 lat
#TLE: 1 43013U 17073A   26012.29914746  .00000087  00000+0  62270-4 0  9997
#TLE: 2 43013  98.7632 313.2670 0001616  43.2193 316.9110 14.19535514422351

#Time	Az	El	Level	Level2	SNR	BER	BlckErr	Temp	State	Recorded	gain1	gain2
2026-01-13 00:16:35.18	157.70	0.08	-48.7	-63.6	3.5	1.51e+00	0	25	0	0	60	54444
2026-01-13 00:16:36.16	157.71	0.13	-48.9	-64.0	3.6	1.51e+00	0	26	104	0	60	57565
2026-01-13 00:16:37.14	157.71	0.19	-48.8	-64.0	3.6	1.51e+00	0	26	104	0	60	57461
2026-01-13 00:16:38.11	157.72	0.25	-48.8	-64.0	3.6	1.51e+00	0	26	104	0	60	57007
2026-01-13 00:16:39.09	157.72	0.31	-48.8	-63.9	3.6	1.51e+00	0	26	104	0	60	56943
2026-01-13 00:16:40.06	157.73	0.37	-48.8	-64.0	3.6	1.51e+00	0	26	104	0	60	57413
2026-01-13 00:16:41.04	157.73	0.43	-48.8	-63.9	3.6	1.51e+00	0	26	104	0	60	56862
2026-01-13 00:16:42.02	157.74	0.49	-48.7	-64.0	3.6	1.51e+00	0	26	104	0	60	57028
2026-01-13 00:16:43.01	157.74	0.55	-48.7	-63.9	3.6	1.51e+00	0	26	104	0	60	56451
2026-01-13 00:16:43.98	157.75	0.61	-48.6	-63.8	3.6	1.51e+00	0	27	104	0	60	55910
2026-01-13 00:16:44.96	157.75	0.67	-48.5	-63.7	3.6	1.51e+00	0	27	104	0	60	55062
2026-01-13 00:16:45.94	157.76	0.73	-48.2	-63.5	3.6	1.51e+00	0	27	104	0	60	54041
2026-01-13 00:16:46.92	157.76	0.79	-48.1	-63.3	3.6	1.51e+00	0	27	104	0	60	52714
2026-01-13 00:16:47.90	157.77	0.85	-46.9	-62.1	3.6	1.51e+00	0	27	104	0	60	46071
2026-01-13 00:16:48.87	157.77	0.91	-47.4	-62.6	3.6	1.51e+00	0	27	104	0	60	48574
2026-01-13 00:16:49.85	157.78	0.97	-47.2	-62.3	3.6	1.51e+00	0	27	104	0	60	47228
2026-01-13 00:16:50.82	157.79	1.03	-47.2	-62.4	3.6	1.51e+00	0	27	104	0	60	47403
2026-01-13 00:16:51.80	157.79	1.09	-47.2	-62.3	3.6	1.51e+00	0	27	104	0	60	47192
2026-01-13 00:16:52.78	157.80	1.15	-47.2	-62.3	3.6	1.51e+00	0	27	104	0	60	47145
2026-01-13 00:16:53.76	157.80	1.21	-47.2	-62.3	3.6	1.51e+00	0	27	104	0	60	47155
2026-01-13 00:16:54.73	157.81	1.28	-47.2	-62.2	3.6	1.51e+00	0	27	104	0	60	46717
2026-01-13 00:16:55.71	157.81	1.34	-47.2	-62.3	3.6	1.51e+00	0	27	104	0	60	46936
2026-01-13 00:16:56.69	157.82	1.40	-47.2	-62.3	3.6	1.51e+00	0	27	104	0	60	46974
2026-01-13 00:16:57.67	157.82	1.46	-47.2	-62.3	3.5	1.51e+00	0	27	104	0	60	46872
2026-01-13 00:16:58.65	157.83	1.52	-47.1	-62.2	3.6	1.51e+00	0	27	104	0	60	46729
2026-01-13 00:16:59.62	157.83	1.58	-47.1	-62.2	3.6	1.51e+00	0	27	104	0	60	46716
2026-01-13 00:17:00.60	157.84	1.65	-47.1	-62.2	3.6	1.51e+00	0	27	104	0	60	46764
2026-01-13 00:17:01.58	157.84	1.71	-47.1	-62.2	3.6	1.51e+00	0	27	104	0	60	46703
2026-01-13 00:17:02.56	157.85	1.77	-47.1	-62.2	3.6	1.51e+00	0	27	104	0	60	46809
2026-01-13 00:17:03.54	157.85	1.83	-47.1	-62.3	3.6	1.51e+00	0	27	104	0	60	46950
2026-01-13 00:17:04.51	157.86	1.89	-47.1	-62.2	3.6	1.51e+00	0	27	104	0	60	46455
2026-01-13 00:17:05.49	157.87	1.96	-47.1	-62.2	3.6	1.51e+00	0	27	104	0	60	46433
2026-01-13 00:17:06.47	157.87	2.02	-47.1	-62.2	3.6	1.51e+00	0	27	104	0	60	46409
2026-01-13 00:17:07.44	157.88	2.08	-47.1	-62.1	3.6	1.51e+00	0	27	104	0	60	46110
2026-01-13 00:17:08.42	157.88	2.15	-47.1	-62.1	3.6	1.51e+00	0	27	104	0	60	45961
2026-01-13 00:17:09.39	157.89	2.21	-47.1	-62.1	3.6	1.51e+00	0	27	104	0	60	46096
2026-01-13 00:17:10.37	157.89	2.27	-47.1	-62.0	3.6	1.51e+00	0	27	104	0	60	45388
2026-01-13 00:17:11.35	157.90	2.34	-47.1	-61.9	3.6	1.51e+00	0	27	104	0	60	44998
2026-01-13 00:17:12.33	157.90	2.40	-47.1	-61.8	3.6	1.51e+00	0	27	104	0	60	44357
2026-01-13 00:17:13.30	157.91	2.46	-47.1	-61.6	3.6	1.51e+00	0	27	104	0	60	43601
2026-01-13 00:17:14.28	157.91	2.53	-47.1	-61.6	3.6	1.51e+00	0	27	104	0	60	43467
2026-01-13 00:17:15.26	157.92	2.59	-47.1	-61.4	3.6	1.51e+00	0	27	104	0	60	42618
2026-01-13 00:17:16.23	157.93	2.65	-47.1	-61.5	3.6	1.51e+00	0	27	104	0	60	42804
2026-01-13 00:17:17.21	157.93	2.72	-47.1	-61.6	3.6	1.51e+00	0	27	104	0	60	43440
2026-01-13 00:17:18.19	157.94	2.78	-47.1	-61.6	3.6	1.51e+00	0	27	104	0	60	43586
2026-01-13 00:17:19.17	157.94	2.85	-47.1	-61.7	3.6	1.51e+00	0	27	104	0	60	44174
2026-01-13 00:17:20.14	157.95	2.91	-47.1	-61.3	3.6	1.51e+00	0	27	104	0	60	41896
2026-01-13 00:17:21.12	157.95	2.98	-47.0	-59.9	3.7	1.51e+00	0	27	104	0	60	35679
2026-01-13 00:17:22.10	157.96	3.04	-46.8	-57.3	4.6	1.11e+00	93	27	104	0	60	26585
2026-01-13 00:17:23.08	157.97	3.11	-46.6	-54.3	5.9	5.33e-01	50	27	0	1048576	60	18791
2026-01-13 00:17:24.06	157.97	3.17	-46.2	-52.4	8.1	1.50e-01	93	27	0	3145728	60	15117
2026-01-13 00:17:25.03	157.98	3.24	-45.8	-51.1	9.6	3.38e-02	90	27	0	4194304	60	13019
2026-01-13 00:17:26.01	157.98	3.31	-45.2	-49.5	11.4	1.91e-03	90	27	0	6291456	60	10839
2026-01-13 00:17:26.99	157.99	3.37	-44.6	-48.3	12.8	2.53e-04	66	27	0	8388608	60	9405
2026-01-13 00:17:27.96	157.99	3.44	-44.2	-47.4	13.8	1.75e-05	93	27	0	10485760	60	8493
2026-01-13 00:17:28.94	158.00	3.50	-43.9	-46.9	14.3	3.00e-06	0	27	0	11534336	60	7996
2026-01-13 00:17:29.92	158.00	3.57	-43.6	-46.4	14.9	7.00e-07	93	27	0	13631488	60	7553
2026-01-13 00:17:30.89	158.01	3.64	-43.7	-46.5	14.8	0.00e+00	92	27	0	15728640	60	7667
2026-01-13 00:17:31.87	158.02	3.70	-43.8	-46.7	14.4	0.00e+00	92	27	0	17825792	60	7814
2026-01-13 00:17:32.84	158.02	3.77	-43.9	-46.9	14.3	1.50e-06	92	27	0	18874368	60	7988
2026-01-13 00:17:33.82	158.03	3.84	-47.4	-61.7	3.6	1.50e-06	0	27	104	20971520	60	44091
2026-01-13 00:17:34.80	158.03	3.90	-46.6	-54.2	4.8	1.50e+00	5	27	104	20971520	60	18455
2026-01-13 00:17:35.78	158.04	3.97	-46.8	-57.6	3.4	4.70e-04	7	27	0	20971520	60	27373
2026-01-13 00:17:36.76	158.05	4.04	-43.5	-46.3	6.0	1.50e+00	0	27	104	20971520	60	7500
2026-01-13 00:17:37.73	158.05	4.11	-46.6	-54.6	5.9	2.63e-01	68	27	0	20971520	60	19459
2026-01-13 00:17:38.70	158.06	4.17	-43.1	-45.7	15.5	3.27e-01	92	27	104	20971520	60	6933
2026-01-13 00:17:39.68	158.06	4.24	-42.3	-44.4	16.9	0.00e+00	0	27	0	22020096	58	6752
2026-01-13 00:17:40.66	158.07	4.31	-42.2	-44.3	17.2	0.00e+00	92	27	0	24117248	58	6644
2026-01-13 00:17:41.64	158.07	4.38	-41.8	-43.6	17.9	0.00e+00	92	27	0	25165824	56	6897
2026-01-13 00:17:42.62	158.08	4.45	-41.7	-43.5	18.1	0.00e+00	91	27	0	27262976	56	6798
2026-01-13 00:17:43.59	158.09	4.52	-41.7	-43.5	18.0	0.00e+00	91	27	0	29360128	56	6844
2026-01-13 00:17:44.57	158.09	4.58	-41.8	-43.6	18.0	0.00e+00	91	27	0	30408704	56	6902
2026-01-13 00:17:45.54	158.10	4.65	-41.7	-43.5	18.0	0.00e+00	94	27	0	32505856	56	6803
2026-01-13 00:17:46.52	158.10	4.72	-41.7	-43.4	18.1	0.00e+00	75	27	0	34603008	56	6767
2026-01-13 00:17:47.50	158.11	4.79	-41.6	-43.3	18.2	0.00e+00	93	27	0	36700160	56	6688
2026-01-13 00:17:48.48	158.12	4.86	-41.7	-43.5	18.0	0.00e+00	0	27	0	37748736	56	6830
2026-01-13 00:17:49.46	158.12	4.93	-41.7	-43.5	18.0	0.00e+00	92	27	0	39845888	56	6829
2026-01-13 00:17:50.43	158.13	5.00	-41.7	-43.5	18.1	0.00e+00	71	27	0	41943040	56	6784
2026-01-13 00:17:51.41	158.13	5.07	-41.7	-43.4	18.2	0.00e+00	90	27	0	44040192	56	6733
2026-01-13 00:17:52.38	158.14	5.14	-41.7	-43.5	18.2	0.00e+00	92	27	0	45088768	56	6784
2026-01-13 00:17:53.36	158.15	5.21	-41.6	-43.3	18.4	0.00e+00	93	27	0	47185920	56	6656
2026-01-13 00:17:54.34	158.15	5.28	-41.6	-43.3	18.4	0.00e+00	92	27	0	49283072	56	6674
2026-01-13 00:17:55.32	158.16	5.35	-41.5	-43.2	18.4	0.00e+00	0	27	0	51380224	56	6572
2026-01-13 00:17:56.29	158.16	5.42	-41.6	-43.3	18.4	0.00e+00	91	27	0	52428800	56	6616
2026-01-13 00:17:57.27	158.17	5.50	-41.5	-43.1	18.5	0.00e+00	76	27	0	54525952	56	6516
2026-01-13 00:17:58.25	158.18	5.57	-41.5	-43.2	18.5	0.00e+00	92	27	0	56623104	56	6564
2026-01-13 00:17:59.23	158.18	5.64	-41.5	-43.2	18.5	0.00e+00	5	27	0	58720256	56	6560
2026-01-13 00:18:00.21	158.19	5.71	-41.4	-43.1	18.6	0.00e+00	92	27	0	59768832	56	6469
2026-01-13 00:18:01.18	158.19	5.78	-41.3	-42.9	18.7	0.00e+00	93	27	0	61865984	56	6384
2026-01-13 00:18:02.16	158.20	5.86	-41.3	-42.9	18.8	0.00e+00	93	27	0	63963136	56	6345
2026-01-13 00:18:03.14	158.21	5.93	-41.4	-43.0	18.7	0.00e+00	91	27	0	66060288	56	6459
2026-01-13 00:18:04.12	158.21	6.00	-41.3	-43.0	18.7	0.00e+00	93	27	0	67108864	56	6394
2026-01-13 00:18:05.10	158.22	6.07	-41.3	-42.9	18.8	0.00e+00	92	27	0	69206016	56	6383
2026-01-13 00:18:06.08	158.23	6.15	-41.3	-42.9	18.9	0.00e+00	91	27	0	71303168	56	6325
2026-01-13 00:18:07.05	158.23	6.22	-41.3	-42.9	18.9	0.00e+00	90	27	0	73400320	56	6348
2026-01-13 00:18:08.03	158.24	6.29	-41.2	-42.8	19.0	0.00e+00	90	27	0	74448896	56	6289
2026-01-13 00:18:09.00	158.24	6.37	-41.3	-42.9	18.9	0.00e+00	90	27	0	76546048	56	6322
2026-01-13 00:18:09.98	158.25	6.44	-41.3	-42.9	18.9	0.00e+00	58	27	0	78643200	56	6360
2026-01-13 00:18:10.96	158.26	6.52	-41.4	-43.1	18.7	0.00e+00	92	27	0	80740352	56	6469
2026-01-13 00:18:11.94	158.26	6.59	-41.3	-42.8	19.0	0.00e+00	91	27	0	81788928	56	6298
2026-01-13 00:18:12.92	158.27	6.67	-41.3	-42.8	18.9	0.00e+00	90	27	0	83886080	56	6313
2026-01-13 00:18:13.89	158.28	6.74	-41.4	-43.0	18.8	0.00e+00	92	27	0	85983232	56	6417
2026-01-13 00:18:14.87	158.28	6.81	-41.4	-43.0	18.8	0.00e+00	92	27	0	88080384	56	6439
2026-01-13 00:18:15.85	158.29	6.89	-41.1	-42.7	19.1	0.00e+00	92	27	0	89128960	56	6189
2026-01-13 00:18:16.83	158.30	6.97	-41.1	-42.6	19.2	0.00e+00	92	27	0	91226112	56	6138
2026-01-13 00:18:17.80	158.30	7.04	-41.3	-42.9	18.9	0.00e+00	93	27	0	93323264	56	6363
2026-01-13 00:18:18.78	158.31	7.12	-41.1	-42.7	19.2	0.00e+00	4	27	0	95420416	56	6181
2026-01-13 00:18:19.76	158.32	7.19	-41.0	-42.5	19.3	0.00e+00	91	27	0	96468992	56	6076
2026-01-13 00:18:20.74	158.32	7.27	-41.0	-42.5	19.4	0.00e+00	0	27	0	98566144	56	6053
2026-01-13 00:18:21.72	158.33	7.35	-41.1	-42.6	19.2	0.00e+00	92	27	0	100663296	56	6116
2026-01-13 00:18:22.70	158.33	7.42	-41.0	-42.5	19.3	0.00e+00	92	27	0	102760448	56	6100
2026-01-13 00:18:23.67	158.34	7.50	-41.0	-42.5	19.3	0.00e+00	91	27	0	103809024	56	6070
2026-01-13 00:18:24.65	158.35	7.58	-41.0	-42.5	19.5	0.00e+00	91	27	0	105906176	56	6036
2026-01-13 00:18:25.63	158.35	7.66	-41.0	-42.5	19.5	0.00e+00	91	27	0	108003328	56	6041
2026-01-13 00:18:26.61	158.36	7.73	-41.0	-42.4	19.4	0.00e+00	92	27	0	110100480	56	6031
2026-01-13 00:18:27.59	158.37	7.81	-40.9	-42.4	19.5	0.00e+00	67	27	0	111149056	56	6001
2026-01-13 00:18:28.56	158.37	7.89	-40.9	-42.3	19.5	0.00e+00	91	27	0	113246208	56	5955
2026-01-13 00:18:29.54	158.38	7.97	-40.9	-42.3	19.5	0.00e+00	31	27	0	115343360	56	5948
2026-01-13 00:18:30.52	158.39	8.05	-40.9	-42.4	19.5	0.00e+00	91	27	0	117440512	56	5997
2026-01-13 00:18:31.49	158.39	8.12	-40.9	-42.3	19.6	0.00e+00	5	27	0	118489088	56	5957
2026-01-13 00:18:32.47	158.40	8.20	-40.8	-42.3	19.6	0.00e+00	91	27	0	120586240	56	5898
2026-01-13 00:18:33.44	158.41	8.28	-40.7	-42.2	19.7	0.00e+00	91	27	0	122683392	54	6556
2026-01-13 00:18:34.42	158.41	8.36	-40.7	-42.1	19.7	0.00e+00	91	27	0	124780544	54	6505
2026-01-13 00:18:35.39	158.42	8.44	-40.7	-42.1	19.7	0.00e+00	92	27	0	125829120	54	6532
2026-01-13 00:18:36.37	158.43	8.52	-40.6	-42.0	19.8	0.00e+00	92	27	0	127926272	54	6450
2026-01-13 00:18:37.34	158.43	8.60	-40.6	-42.0	19.8	0.00e+00	92	27	0	130023424	54	6439
2026-01-13 00:18:38.32	158.44	8.68	-40.6	-42.0	19.9	0.00e+00	92	27	0	132120576	54	6434
2026-01-13 00:18:39.30	158.45	8.76	-40.7	-42.1	19.8	0.00e+00	91	27	0	133169152	54	6489
2026-01-13 00:18:40.28	158.46	8.85	-40.6	-42.0	20.0	0.00e+00	0	27	0	135266304	54	6413
2026-01-13 00:18:41.25	158.46	8.93	-40.6	-42.0	20.0	0.00e+00	91	27	0	137363456	54	6405
2026-01-13 00:18:42.23	158.47	9.01	-40.5	-41.9	20.0	0.00e+00	6	27	0	139460608	54	6343
2026-01-13 00:18:43.21	158.48	9.09	-40.7	-42.0	19.9	0.00e+00	91	27	0	140509184	54	6454
2026-01-13 00:18:44.19	158.48	9.17	-40.5	-41.9	20.1	0.00e+00	91	27	0	142606336	54	6322
2026-01-13 00:18:45.17	158.49	9.26	-40.5	-41.8	20.1	0.00e+00	94	27	0	144703488	54	6296
2026-01-13 00:18:46.15	158.50	9.34	-40.4	-41.8	20.1	0.00e+00	92	27	0	146800640	54	6276
2026-01-13 00:18:47.13	158.50	9.42	-40.5	-41.8	20.1	0.00e+00	90	27	0	147849216	54	6303
2026-01-13 00:18:48.11	158.51	9.51	-40.5	-41.8	20.1	0.00e+00	92	27	0	149946368	54	6295
2026-01-13 00:18:49.08	158.52	9.59	-40.4	-41.7	20.2	0.00e+00	93	27	0	152043520	54	6217
2026-01-13 00:18:50.05	158.53	9.67	-40.3	-41.6	20.4	0.00e+00	90	27	0	154140672	54	6146
2026-01-13 00:18:51.04	158.53	9.76	-40.3	-41.6	20.3	0.00e+00	0	27	0	155189248	54	6170
2026-01-13 00:18:52.01	158.54	9.84	-40.4	-41.7	20.3	0.00e+00	92	27	0	157286400	54	6194
2026-01-13 00:18:52.99	158.55	9.93	-40.4	-41.7	20.2	0.00e+00	0	27	0	159383552	54	6226
2026-01-13 00:18:53.96	158.55	10.01	-40.3	-41.6	20.3	0.00e+00	94	27	0	161480704	54	6171
2026-01-13 00:18:54.94	158.56	10.10	-40.3	-41.6	20.3	0.00e+00	92	27	0	162529280	54	6151
2026-01-13 00:18:55.92	158.57	10.18	-40.3	-41.6	20.4	0.00e+00	92	27	0	164626432	54	6173
2026-01-13 00:18:56.89	158.58	10.27	-40.2	-41.5	20.4	0.00e+00	94	27	0	166723584	54	6100
2026-01-13 00:18:57.87	158.58	10.36	-40.2	-41.5	20.5	0.00e+00	91	27	0	168820736	54	6068
2026-01-13 00:18:58.85	158.59	10.44	-40.2	-41.4	20.5	0.00e+00	92	27	0	169869312	54	6027
2026-01-13 00:18:59.83	158.60	10.53	-40.2	-41.5	20.5	0.00e+00	17	27	0	171966464	54	6096
2026-01-13 00:19:00.80	158.60	10.62	-40.1	-41.3	20.7	0.00e+00	91	27	0	174063616	54	5928
2026-01-13 00:19:01.78	158.61	10.70	-40.1	-41.4	20.6	0.00e+00	14	27	0	176160768	54	5982
2026-01-13 00:19:02.76	158.62	10.79	-40.0	-41.2	20.8	0.00e+00	92	27	0	177209344	54	5878
2026-01-13 00:19:03.74	158.63	10.88	-40.0	-41.2	20.8	0.00e+00	41	27	0	179306496	54	5895
2026-01-13 00:19:04.71	158.63	10.97	-40.0	-41.2	20.8	0.00e+00	90	27	0	181403648	54	5872
2026-01-13 00:19:05.69	158.64	11.06	-40.0	-41.2	20.8	0.00e+00	91	27	0	182452224	54	5873
2026-01-13 00:19:06.67	158.65	11.15	-39.9	-41.2	20.9	0.00e+00	90	27	0	184549376	54	5835
2026-01-13 00:19:07.64	158.66	11.24	-39.8	-41.0	21.0	0.00e+00	90	27	0	186646528	54	5734
2026-01-13 00:19:08.62	158.66	11.33	-39.9	-41.1	20.9	0.00e+00	7	27	0	188743680	54	5811
2026-01-13 00:19:09.60	158.67	11.42	-39.9	-41.1	20.9	0.00e+00	93	27	0	190840832	54	5809
2026-01-13 00:19:10.58	158.68	11.51	-39.8	-41.0	21.1	0.00e+00	14	27	0	191889408	52	6439
2026-01-13 00:19:11.56	158.69	11.60	-39.7	-40.9	21.2	0.00e+00	93	27	0	193986560	52	6366
2026-01-13 00:19:12.54	158.70	11.69	-39.9	-41.1	21.0	0.00e+00	0	27	0	196083712	52	6518
2026-01-13 00:19:13.51	158.70	11.78	-39.7	-40.9	21.1	0.00e+00	91	27	0	198180864	52	6373
2026-01-13 00:19:14.48	158.71	11.87	-39.7	-40.8	21.2	0.00e+00	92	27	0	199229440	52	6289
2026-01-13 00:19:15.46	158.72	11.96	-39.7	-40.8	21.3	0.00e+00	91	27	0	201326592	52	6305
2026-01-13 00:19:16.44	158.73	12.06	-39.6	-40.8	21.3	0.00e+00	92	27	0	203423744	52	6268
2026-01-13 00:19:17.42	158.73	12.15	-39.6	-40.8	21.3	0.00e+00	93	27	0	205520896	52	6263
2026-01-13 00:19:18.40	158.74	12.24	-39.5	-40.6	21.5	0.00e+00	93	27	0	206569472	52	6131
2026-01-13 00:19:19.37	158.75	12.34	-39.5	-40.7	21.5	0.00e+00	92	27	0	208666624	52	6175
2026-01-13 00:19:20.35	158.76	12.43	-39.5	-40.7	21.4	0.00e+00	91	27	0	210763776	52	6180
2026-01-13 00:19:21.33	158.77	12.53	-39.5	-40.6	21.5	0.00e+00	76	27	0	211812352	52	6159
2026-01-13 00:19:22.30	158.77	12.62	-39.4	-40.5	21.5	0.00e+00	94	27	0	213909504	52	6075
2026-01-13 00:19:23.28	158.78	12.71	-39.3	-40.4	21.7	0.00e+00	8	27	0	216006656	52	6024
2026-01-13 00:19:24.25	158.79	12.81	-39.4	-40.5	21.6	0.00e+00	91	27	0	218103808	52	6076
2026-01-13 00:19:25.23	158.80	12.91	-39.5	-40.6	21.7	0.00e+00	90	27	0	219152384	52	6134
2026-01-13 00:19:26.21	158.81	13.00	-39.4	-40.5	21.7	0.00e+00	92	27	0	221249536	52	6035
2026-01-13 00:19:27.18	158.81	13.10	-39.2	-40.3	21.7	0.00e+00	91	27	0	223346688	52	5908
2026-01-13 00:19:28.16	158.82	13.20	-39.1	-40.2	21.9	0.00e+00	91	27	0	225443840	52	5860
2026-01-13 00:19:29.14	158.83	13.29	-39.1	-40.2	21.9	0.00e+00	91	27	0	226492416	52	5851
2026-01-13 00:19:30.11	158.84	13.39	-39.2	-40.3	21.9	0.00e+00	29	27	0	228589568	52	5898
2026-01-13 00:19:31.09	158.85	13.49	-39.2	-40.3	21.8	0.00e+00	94	27	0	230686720	52	5918
2026-01-13 00:19:32.07	158.86	13.59	-39.0	-40.1	22.0	0.00e+00	0	27	0	232783872	52	5794
2026-01-13 00:19:33.04	158.86	13.69	-39.0	-40.0	22.0	0.00e+00	90	27	0	233832448	52	5739
2026-01-13 00:19:34.02	158.87	13.78	-39.1	-40.2	22.0	0.00e+00	73	27	0	235929600	52	5869
2026-01-13 00:19:35.00	158.88	13.88	-39.0	-40.0	22.1	0.00e+00	92	27	0	238026752	52	5741
2026-01-13 00:19:35.97	158.89	13.98	-39.0	-40.1	22.0	0.00e+00	91	27	0	240123904	52	5772
2026-01-13 00:19:36.95	158.90	14.08	-38.9	-39.9	22.1	0.00e+00	89	27	0	241172480	52	5687
2026-01-13 00:19:37.93	158.91	14.19	-38.9	-39.9	22.2	0.00e+00	91	27	0	243269632	52	5669
2026-01-13 00:19:38.91	158.91	14.29	-38.9	-39.9	22.2	0.00e+00	47	27	0	245366784	52	5673
2026-01-13 00:19:39.88	158.92	14.39	-38.8	-39.8	22.2	0.00e+00	90	27	0	247463936	52	5608
2026-01-13 00:19:40.85	158.93	14.49	-38.6	-39.6	22.4	0.00e+00	91	27	0	248512512	50	6168
2026-01-13 00:19:41.83	158.94	14.59	-38.6	-39.6	22.5	0.00e+00	90	27	0	250609664	50	6129
2026-01-13 00:19:42.81	158.95	14.70	-38.7	-39.7	22.4	0.00e+00	14	27	0	252706816	50	6191
2026-01-13 00:19:43.78	158.96	14.80	-38.7	-39.7	22.3	0.00e+00	92	27	0	254803968	50	6240
2026-01-13 00:19:44.76	158.97	14.90	-38.6	-39.6	22.5	0.00e+00	0	27	0	255852544	50	6142
2026-01-13 00:19:45.74	158.97	15.01	-38.5	-39.5	22.6	0.00e+00	91	27	0	257949696	50	6072
2026-01-13 00:19:46.72	158.98	15.11	-38.5	-39.5	22.6	0.00e+00	90	27	0	260046848	50	6039
2026-01-13 00:19:47.69	158.99	15.22	-38.3	-39.3	22.8	0.00e+00	91	27	0	262144000	50	5911
2026-01-13 00:19:48.67	159.00	15.32	-38.4	-39.4	22.7	0.00e+00	92	27	0	263192576	50	5966
2026-01-13 00:19:49.65	159.01	15.43	-38.2	-39.2	22.8	0.00e+00	91	27	0	265289728	50	5830
2026-01-13 00:19:50.63	159.02	15.54	-38.2	-39.2	22.8	0.00e+00	92	27	0	267386880	50	5843
2026-01-13 00:19:51.60	159.03	15.64	-38.1	-39.1	23.0	0.00e+00	6	27	0	269484032	50	5773
2026-01-13 00:19:52.58	159.04	15.75	-38.1	-39.0	23.0	0.00e+00	90	27	0	270532608	50	5757
2026-01-13 00:19:53.56	159.05	15.86	-38.1	-39.1	23.0	0.00e+00	5	27	0	272629760	50	5763
2026-01-13 00:19:54.53	159.06	15.97	-38.2	-39.1	23.0	0.00e+00	92	27	0	274726912	50	5824
2026-01-13 00:19:55.50	159.06	16.08	-38.1	-39.0	23.0	0.00e+00	28	27	0	276824064	50	5737
2026-01-13 00:19:56.48	159.07	16.19	-38.1	-39.1	22.9	0.00e+00	91	27	0	277872640	50	5791
2026-01-13 00:19:57.45	159.08	16.30	-38.0	-38.9	23.2	0.00e+00	91	27	0	279969792	50	5657
2026-01-13 00:19:58.43	159.09	16.41	-38.0	-38.9	23.1	0.00e+00	90	27	0	282066944	50	5688
2026-01-13 00:19:59.41	159.10	16.52	-37.9	-38.8	23.2	0.00e+00	90	27	0	284164096	50	5629
2026-01-13 00:20:00.38	159.11	16.63	-38.0	-38.9	23.1	0.00e+00	91	27	0	285212672	50	5658
2026-01-13 00:20:01.36	159.12	16.74	-38.0	-38.9	23.1	0.00e+00	91	27	0	287309824	50	5679
2026-01-13 00:20:02.34	159.13	16.85	-37.9	-38.8	23.3	0.00e+00	0	27	0	289406976	50	5605
2026-01-13 00:20:03.31	159.14	16.97	-37.9	-38.9	23.2	0.00e+00	91	27	0	291504128	50	5636
2026-01-13 00:20:04.29	159.15	17.08	-38.0	-38.9	23.2	0.00e+00	0	27	0	292552704	50	5675
2026-01-13 00:20:05.27	159.16	17.20	-38.0	-38.9	23.2	0.00e+00	91	27	0	294649856	50	5665
2026-01-13 00:20:06.24	159.17	17.31	-37.8	-38.7	23.3	0.00e+00	57	27	0	296747008	50	5519
2026-01-13 00:20:07.22	159.18	17.43	-37.7	-38.6	23.4	0.00e+00	92	27	0	298844160	48	6134
2026-01-13 00:20:08.20	159.19	17.54	-37.8	-38.7	23.3	0.00e+00	92	27	0	299892736	48	6202
2026-01-13 00:20:09.18	159.20	17.66	-37.6	-38.5	23.5	0.00e+00	94	27	0	301989888	48	6097
2026-01-13 00:20:10.16	159.21	17.78	-37.7	-38.7	23.4	0.00e+00	93	27	0	304087040	48	6179
2026-01-13 00:20:11.13	159.22	17.89	-37.6	-38.4	23.6	0.00e+00	39	27	0	306184192	48	6033
2026-01-13 00:20:12.11	159.23	18.01	-37.6	-38.4	23.6	0.00e+00	91	27	0	307232768	48	6033
2026-01-13 00:20:13.08	159.24	18.13	-37.5	-38.4	23.6	0.00e+00	91	27	0	309329920	48	6009
2026-01-13 00:20:14.06	159.25	18.25	-37.5	-38.4	23.6	0.00e+00	92	27	0	311427072	48	5983
2026-01-13 00:20:15.05	159.26	18.37	-37.6	-38.5	23.6	0.00e+00	14	27	0	313524224	48	6064
2026-01-13 00:20:16.02	159.27	18.49	-37.7	-38.6	23.5	0.00e+00	92	27	0	314572800	48	6159
2026-01-13 00:20:17.00	159.28	18.61	-37.6	-38.5	23.6	0.00e+00	93	27	0	316669952	48	6081
2026-01-13 00:20:17.98	159.29	18.73	-37.6	-38.5	23.6	0.00e+00	91	27	0	318767104	48	6052
2026-01-13 00:20:18.96	159.30	18.85	-37.6	-38.5	23.5	0.00e+00	93	27	0	320864256	48	6083
2026-01-13 00:20:19.93	159.31	18.98	-37.4	-38.3	23.8	0.00e+00	93	27	0	321912832	48	5953
2026-01-13 00:20:20.91	159.32	19.10	-37.4	-38.2	23.8	0.00e+00	91	27	0	324009984	48	5894
2026-01-13 00:20:21.89	159.33	19.22	-37.3	-38.2	23.8	0.00e+00	92	27	0	326107136	48	5876
2026-01-13 00:20:22.87	159.34	19.35	-37.4	-38.3	23.7	0.00e+00	92	27	0	328204288	48	5916
2026-01-13 00:20:23.85	159.35	19.48	-37.3	-38.2	24.0	0.00e+00	0	27	0	329252864	48	5855
2026-01-13 00:20:24.82	159.36	19.60	-37.4	-38.3	23.9	0.00e+00	91	27	0	331350016	48	5931
2026-01-13 00:20:25.80	159.37	19.73	-37.3	-38.2	23.9	0.00e+00	24	27	0	333447168	48	5881
2026-01-13 00:20:26.78	159.38	19.85	-37.4	-38.3	23.8	0.00e+00	91	27	0	335544320	48	5900
2026-01-13 00:20:27.75	159.40	19.98	-37.4	-38.3	23.7	0.00e+00	93	27	0	336592896	48	5911
2026-01-13 00:20:28.73	159.41	20.11	-37.3	-38.1	23.9	0.00e+00	91	27	0	338690048	48	5822
2026-01-13 00:20:29.70	159.42	20.24	-37.2	-38.1	23.9	0.00e+00	92	27	0	340787200	48	5773
2026-01-13 00:20:30.68	159.43	20.37	-37.3	-38.2	24.0	0.00e+00	93	27	0	341835776	48	5845
2026-01-13 00:20:31.67	159.44	20.50	-37.2	-38.0	24.0	0.00e+00	93	27	0	343932928	48	5748
2026-01-13 00:20:32.64	159.45	20.63	-37.2	-38.1	23.9	0.00e+00	89	27	0	346030080	48	5790
2026-01-13 00:20:33.62	159.46	20.76	-37.2	-38.1	23.9	0.00e+00	93	27	0	348127232	48	5807
2026-01-13 00:20:34.59	159.47	20.90	-37.3	-38.2	23.9	0.00e+00	16	27	0	349175808	48	5851
2026-01-13 00:20:35.57	159.49	21.03	-37.1	-38.0	24.0	0.00e+00	91	27	0	351272960	48	5736
2026-01-13 00:20:36.54	159.50	21.16	-37.2	-38.1	24.0	0.00e+00	0	27	0	353370112	48	5772
2026-01-13 00:20:37.52	159.51	21.30	-37.1	-38.0	24.0	0.00e+00	92	27	0	355467264	48	5714
2026-01-13 00:20:38.50	159.52	21.43	-37.1	-38.0	24.0	0.00e+00	90	27	0	357564416	48	5728
2026-01-13 00:20:39.48	159.53	21.57	-37.2	-38.0	24.1	0.00e+00	91	27	0	358612992	48	5737
2026-01-13 00:20:40.46	159.54	21.71	-37.2	-38.1	24.0	0.00e+00	92	27	0	360710144	48	5773
2026-01-13 00:20:41.43	159.56	21.84	-37.2	-38.0	24.0	0.00e+00	91	27	0	362807296	48	5759
2026-01-13 00:20:42.41	159.57	21.98	-37.2	-38.1	24.0	0.00e+00	91	27	0	364904448	48	5768
2026-01-13 00:20:43.38	159.58	22.12	-37.1	-38.0	24.1	0.00e+00	0	27	0	365953024	48	5715
2026-01-13 00:20:44.36	159.59	22.26	-37.2	-38.1	24.1	0.00e+00	92	27	0	368050176	48	5770
2026-01-13 00:20:45.33	159.60	22.40	-37.1	-38.0	24.1	0.00e+00	0	27	0	370147328	48	5720
2026-01-13 00:20:46.31	159.62	22.54	-37.3	-38.2	23.9	0.00e+00	91	27	0	371195904	48	5862
2026-01-13 00:20:47.28	159.63	22.68	-37.3	-38.1	24.0	0.00e+00	33	27	0	373293056	48	5824
2026-01-13 00:20:48.26	159.64	22.83	-37.4	-38.3	23.8	0.00e+00	92	27	0	375390208	48	5920
2026-01-13 00:20:49.24	159.65	22.97	-37.2	-38.1	24.0	0.00e+00	91	27	0	377487360	48	5803
2026-01-13 00:20:50.21	159.67	23.11	-37.3	-38.2	23.9	0.00e+00	93	27	0	378535936	48	5852
2026-01-13 00:20:51.19	159.68	23.26	-37.2	-38.0	24.0	0.00e+00	91	27	0	380633088	48	5752
2026-01-13 00:20:52.16	159.69	23.41	-37.2	-38.0	24.1	0.00e+00	91	27	0	382730240	48	5758
2026-01-13 00:20:53.14	159.70	23.55	-37.2	-38.1	24.1	0.00e+00	93	27	0	384827392	48	5762
2026-01-13 00:20:54.11	159.72	23.70	-37.1	-37.9	24.2	0.00e+00	93	27	0	385875968	48	5677
2026-01-13 00:20:55.09	159.73	23.85	-37.2	-38.0	24.1	0.00e+00	93	27	0	387973120	48	5751
2026-01-13 00:20:56.07	159.74	24.00	-37.2	-38.0	23.9	0.00e+00	0	27	0	390070272	48	5748
2026-01-13 00:20:57.04	159.76	24.15	-37.2	-38.1	24.0	0.00e+00	91	27	0	392167424	48	5774
2026-01-13 00:20:58.02	159.77	24.30	-37.3	-38.2	24.0	0.00e+00	59	27	0	393216000	48	5853
2026-01-13 00:20:59.00	159.78	24.45	-37.3	-38.2	23.9	0.00e+00	93	27	0	395313152	48	5859
2026-01-13 00:20:59.98	159.80	24.61	-37.4	-38.3	23.9	0.00e+00	93	27	0	397410304	48	5897
2026-01-13 00:21:00.96	159.81	24.76	-37.3	-38.1	24.0	0.00e+00	90	27	0	399507456	48	5826
2026-01-13 00:21:01.93	159.82	24.92	-37.3	-38.1	24.0	0.00e+00	91	27	0	400556032	48	5807
2026-01-13 00:21:02.91	159.84	25.07	-37.4	-38.2	24.0	0.00e+00	92	27	0	402653184	48	5893
2026-01-13 00:21:03.88	159.85	25.23	-37.4	-38.3	23.8	0.00e+00	90	27	0	404750336	48	5939
2026-01-13 00:21:04.85	159.87	25.38	-37.4	-38.3	23.9	0.00e+00	92	27	0	406847488	48	5933
2026-01-13 00:21:05.83	159.88	25.54	-37.5	-38.4	23.8	0.00e+00	91	27	0	407896064	48	6012
2026-01-13 00:21:06.81	159.89	25.70	-37.8	-38.7	23.7	0.00e+00	7	27	0	409993216	48	6200
2026-01-13 00:21:07.78	159.91	25.86	-37.7	-38.6	23.6	0.00e+00	92	27	0	412090368	48	6108
2026-01-13 00:21:08.76	159.92	26.02	-37.8	-38.7	23.6	0.00e+00	93	27	0	414187520	48	6175
2026-01-13 00:21:09.74	159.94	26.19	-37.8	-38.7	23.6	0.00e+00	93	27	0	415236096	48	6178
2026-01-13 00:21:10.72	159.95	26.35	-37.9	-38.8	23.5	0.00e+00	90	27	0	417333248	48	6252
2026-01-13 00:21:11.70	159.97	26.52	-37.9	-38.8	23.5	0.00e+00	90	27	0	419430400	48	6286
2026-01-13 00:21:12.68	159.98	26.68	-38.1	-39.0	23.2	0.00e+00	92	27	0	421527552	48	6427
2026-01-13 00:21:13.65	160.00	26.85	-38.2	-39.1	23.2	0.00e+00	91	27	0	422576128	48	6500
2026-01-13 00:21:14.63	160.01	27.02	-38.3	-39.2	23.1	0.00e+00	92	27	0	424673280	48	6569
2026-01-13 00:21:15.61	160.03	27.18	-38.5	-39.5	23.0	0.00e+00	13	27	0	426770432	48	6775
2026-01-13 00:21:16.58	160.04	27.35	-38.5	-39.5	22.9	0.00e+00	90	27	0	428867584	48	6776
2026-01-13 00:21:17.56	160.06	27.52	-38.7	-39.7	22.7	0.00e+00	33	27	0	429916160	48	6981
2026-01-13 00:21:18.54	160.07	27.70	-38.8	-39.8	22.6	0.00e+00	90	27	0	432013312	50	6300
2026-01-13 00:21:19.51	160.09	27.87	-39.0	-40.0	22.4	0.00e+00	29	27	0	434110464	50	6430
2026-01-13 00:21:20.49	160.11	28.04	-39.3	-40.3	22.0	0.00e+00	91	27	0	436207616	50	6663
2026-01-13 00:21:21.47	160.12	28.22	-39.2	-40.3	22.1	0.00e+00	93	27	0	437256192	50	6621
2026-01-13 00:21:22.44	160.14	28.39	-39.3	-40.4	22.1	0.00e+00	92	27	0	439353344	50	6734
2026-01-13 00:21:23.42	160.16	28.57	-39.7	-40.8	21.7	0.00e+00	91	27	0	441450496	50	7016
2026-01-13 00:21:24.40	160.17	28.75	-39.9	-41.0	21.6	0.00e+00	61	27	0	443547648	52	6428
2026-01-13 00:21:25.37	160.19	28.93	-40.0	-41.1	21.4	0.00e+00	92	27	0	444596224	52	6525
2026-01-13 00:21:26.36	160.21	29.11	-40.2	-41.3	21.2	0.00e+00	81	27	0	446693376	52	6691
2026-01-13 00:21:27.33	160.22	29.29	-40.2	-41.3	21.2	0.00e+00	92	27	0	448790528	52	6683
2026-01-13 00:21:28.31	160.24	29.47	-40.1	-41.3	21.2	0.00e+00	0	27	0	450887680	52	6662
2026-01-13 00:21:29.29	160.26	29.66	-40.2	-41.4	21.2	0.00e+00	92	27	0	451936256	52	6743
2026-01-13 00:21:30.26	160.27	29.84	-40.3	-41.4	21.1	0.00e+00	90	27	0	454033408	52	6750
2026-01-13 00:21:31.24	160.29	30.03	-40.3	-41.5	21.0	0.00e+00	92	27	0	456130560	52	6811
2026-01-13 00:21:32.22	160.31	30.22	-40.5	-41.7	20.8	0.00e+00	92	27	0	458227712	52	6990
2026-01-13 00:21:33.19	160.33	30.41	-40.6	-41.8	20.8	0.00e+00	92	27	0	459276288	52	7039
2026-01-13 00:21:34.17	160.35	30.60	-40.6	-41.8	20.8	0.00e+00	91	27	0	461373440	52	7036
2026-01-13 00:21:35.15	160.36	30.79	-40.6	-41.8	20.7	0.00e+00	91	27	0	463470592	52	7059
2026-01-13 00:21:36.13	160.38	30.98	-40.6	-41.8	20.8	0.00e+00	93	27	0	465567744	52	7086
2026-01-13 00:21:37.11	160.40	31.18	-40.7	-41.9	20.7	0.00e+00	75	27	0	466616320	52	7152
2026-01-13 00:21:38.09	160.42	31.37	-40.7	-42.0	20.6	0.00e+00	93	27	0	468713472	54	6394
2026-01-13 00:21:39.06	160.44	31.57	-40.7	-42.0	20.7	0.00e+00	0	27	0	470810624	54	6433
2026-01-13 00:21:40.04	160.46	31.77	-40.8	-42.0	20.6	0.00e+00	93	27	0	472907776	54	6445
2026-01-13 00:21:41.02	160.48	31.97	-40.7	-42.0	20.6	0.00e+00	91	27	0	473956352	54	6418
2026-01-13 00:21:42.00	160.50	32.17	-40.7	-42.0	20.6	0.00e+00	92	27	0	476053504	54	6419
2026-01-13 00:21:42.98	160.52	32.37	-40.8	-42.1	20.6	0.00e+00	91	27	0	478150656	54	6475
2026-01-13 00:21:43.96	160.54	32.58	-40.6	-41.9	20.8	0.00e+00	90	27	0	480247808	54	6342
2026-01-13 00:21:44.93	160.56	32.78	-40.5	-41.7	20.9	0.00e+00	93	27	0	481296384	54	6205
2026-01-13 00:21:45.91	160.58	32.99	-40.1	-41.3	21.2	0.00e+00	91	27	0	483393536	54	5946
2026-01-13 00:21:46.89	160.60	33.19	-40.1	-41.3	21.2	0.00e+00	92	27	0	485490688	54	5905
2026-01-13 00:21:47.86	160.62	33.40	-39.8	-41.0	21.6	0.00e+00	0	27	0	487587840	54	5701
2026-01-13 00:21:48.84	160.64	33.61	-39.4	-40.4	22.2	0.00e+00	92	27	0	488636416	52	5998
2026-01-13 00:21:49.82	160.66	33.83	-39.2	-40.3	22.3	0.00e+00	80	27	0	490733568	52	5897
2026-01-13 00:21:50.80	160.68	34.04	-38.9	-39.9	22.6	0.00e+00	92	27	0	492830720	52	5666
2026-01-13 00:21:51.77	160.70	34.25	-39.1	-40.1	22.4	0.00e+00	92	27	0	494927872	52	5788
2026-01-13 00:21:52.75	160.73	34.47	-38.5	-39.5	22.9	0.00e+00	90	27	0	495976448	50	6073
2026-01-13 00:21:53.73	160.75	34.69	-38.5	-39.4	22.9	0.00e+00	91	27	0	498073600	50	6032
2026-01-13 00:21:54.71	160.77	34.91	-38.0	-38.9	23.4	0.00e+00	86	27	0	500170752	50	5676
2026-01-13 00:21:55.69	160.79	35.13	-37.9	-38.8	23.6	0.00e+00	91	27	0	501219328	50	5613
2026-01-13 00:21:56.67	160.82	35.35	-38.0	-38.9	23.6	0.00e+00	0	27	0	503316480	50	5687
2026-01-13 00:21:57.65	160.84	35.58	-37.6	-38.5	23.8	0.00e+00	91	27	0	505413632	48	6057
2026-01-13 00:21:58.63	160.86	35.81	-37.5	-38.4	24.0	0.00e+00	7	27	0	507510784	48	5971
2026-01-13 00:21:59.60	160.89	36.03	-37.4	-38.3	23.9	0.00e+00	92	27	0	509607936	48	5940
2026-01-13 00:22:00.58	160.91	36.26	-37.5	-38.3	24.0	0.00e+00	82	27	0	510656512	48	5952
2026-01-13 00:22:01.56	160.94	36.49	-37.1	-37.9	24.3	0.00e+00	90	27	0	512753664	48	5680
2026-01-13 00:22:02.54	160.96	36.72	-36.9	-37.8	24.4	0.00e+00	93	27	0	514850816	48	5593
2026-01-13 00:22:03.51	160.99	36.96	-36.8	-37.6	23.7	0.00e+00	90	27	0	516947968	48	5466
2026-01-13 00:22:04.49	161.01	37.19	-36.5	-37.3	24.8	0.00e+00	91	27	0	517996544	46	5960
2026-01-13 00:22:05.47	161.04	37.43	-36.5	-37.3	24.9	0.00e+00	93	27	0	520093696	46	5903
2026-01-13 00:22:06.45	161.06	37.67	-36.0	-36.8	25.3	0.00e+00	90	27	0	522190848	46	5598
2026-01-13 00:22:07.42	161.09	37.91	-36.1	-36.8	24.7	0.00e+00	40	27	0	524288000	46	5621
2026-01-13 00:22:08.40	161.12	38.15	-36.1	-36.9	25.1	0.00e+00	92	27	0	525336576	46	5640
2026-01-13 00:22:09.38	161.14	38.40	-36.1	-36.9	25.2	0.00e+00	66	27	0	527433728	46	5661
2026-01-13 00:22:10.35	161.17	38.64	-36.3	-37.1	25.0	0.00e+00	91	27	0	529530880	46	5765
2026-01-13 00:22:11.33	161.20	38.89	-36.5	-37.3	24.8	0.00e+00	90	27	0	530579456	46	5908
2026-01-13 00:22:12.31	161.23	39.14	-36.3	-37.1	24.9	0.00e+00	92	27	0	532676608	46	5783
2026-01-13 00:22:13.29	161.26	39.39	-36.2	-37.0	25.1	0.00e+00	91	27	0	534773760	46	5754
2026-01-13 00:22:14.27	161.28	39.65	-36.2	-37.0	25.0	0.00e+00	90	27	0	536870912	46	5733
2026-01-13 00:22:15.24	161.31	39.90	-36.1	-36.8	25.2	0.00e+00	93	27	0	537919488	46	5627
2026-01-13 00:22:16.22	161.34	40.16	-36.0	-36.7	25.3	0.00e+00	91	27	0	540016640	46	5553
2026-01-13 00:22:17.19	161.37	40.41	-35.9	-36.6	25.4	0.00e+00	90	27	0	542113792	46	5486
2026-01-13 00:22:18.17	161.40	40.67	-35.6	-36.3	25.7	0.00e+00	0	27	0	544210944	44	5939
2026-01-13 00:22:19.16	161.44	40.94	-35.5	-36.3	25.7	0.00e+00	91	27	0	546308096	44	5905
2026-01-13 00:22:20.14	161.47	41.21	-35.6	-36.4	25.6	0.00e+00	0	27	0	547356672	44	5984
2026-01-13 00:22:21.12	161.50	41.47	-35.9	-36.6	25.3	0.00e+00	92	27	0	549453824	44	6152
2026-01-13 00:22:22.10	161.53	41.74	-35.9	-36.7	25.3	0.00e+00	92	27	0	551550976	44	6205
2026-01-13 00:22:23.08	161.56	42.01	-36.4	-37.2	24.9	0.00e+00	92	27	0	552599552	44	6550
2026-01-13 00:22:24.06	161.60	42.29	-36.6	-37.4	24.7	0.00e+00	91	27	0	554696704	44	6734
2026-01-13 00:22:25.04	161.63	42.56	-36.7	-37.5	24.6	0.00e+00	93	27	0	556793856	46	6083
2026-01-13 00:22:26.02	161.67	42.84	-36.8	-37.7	24.5	0.00e+00	93	27	0	558891008	46	6197
2026-01-13 00:22:26.99	161.70	43.11	-36.9	-37.8	24.5	0.00e+00	0	27	0	559939584	46	6256
2026-01-13 00:22:27.97	161.74	43.40	-36.9	-37.7	24.6	0.00e+00	92	27	0	562036736	46	6197
2026-01-13 00:22:28.95	161.77	43.68	-37.2	-38.1	24.2	0.00e+00	82	27	0	564133888	46	6482
2026-01-13 00:22:29.93	161.81	43.96	-37.3	-38.2	24.0	0.00e+00	92	27	0	566231040	46	6584
2026-01-13 00:22:30.91	161.85	44.25	-37.6	-38.5	23.8	0.00e+00	80	27	0	568328192	46	6811
2026-01-13 00:22:31.89	161.88	44.54	-38.0	-38.9	23.6	0.00e+00	91	27	0	569376768	48	6346
2026-01-13 00:22:32.87	161.92	44.83	-38.3	-39.2	23.2	0.00e+00	90	27	0	571473920	48	6569
2026-01-13 00:22:33.84	161.96	45.12	-38.7	-39.7	22.7	0.00e+00	92	27	0	573571072	48	6928
2026-01-13 00:22:34.82	162.00	45.42	-39.1	-40.1	22.4	0.00e+00	92	27	0	575668224	50	6514
2026-01-13 00:22:35.80	162.04	45.72	-39.3	-40.3	22.3	0.00e+00	91	27	0	576716800	50	6679
2026-01-13 00:22:36.78	162.08	46.02	-39.2	-40.3	22.2	0.00e+00	90	27	0	578813952	50	6626
2026-01-13 00:22:37.76	162.13	46.32	-39.3	-40.4	22.2	0.00e+00	36	27	0	580911104	50	6729
2026-01-13 00:22:38.74	162.17	46.63	-39.4	-40.5	22.0	0.00e+00	91	27	0	581959680	50	6786
2026-01-13 00:22:39.71	162.21	46.93	-39.4	-40.4	22.2	0.00e+00	46	27	0	584056832	50	6734
2026-01-13 00:22:40.69	162.26	47.24	-39.4	-40.4	22.1	0.00e+00	92	27	0	586153984	50	6766
2026-01-13 00:22:41.67	162.30	47.55	-39.5	-40.6	22.0	0.00e+00	92	27	0	588251136	50	6865
2026-01-13 00:22:42.64	162.35	47.86	-39.7	-40.8	21.9	0.00e+00	92	27	0	589299712	50	7037
2026-01-13 00:22:43.62	162.39	48.18	-39.8	-40.9	21.7	0.00e+00	91	27	0	591396864	52	6318
2026-01-13 00:22:44.59	162.44	48.49	-40.2	-41.4	21.3	0.00e+00	91	27	0	593494016	52	6704
2026-01-13 00:22:45.57	162.49	48.81	-40.4	-41.6	21.1	0.00e+00	91	27	0	595591168	52	6869
2026-01-13 00:22:46.55	162.54	49.14	-40.4	-41.6	21.0	0.00e+00	92	27	0	597688320	52	6913
2026-01-13 00:22:47.53	162.59	49.46	-40.4	-41.5	21.2	0.00e+00	91	27	0	598736896	52	6843
2026-01-13 00:22:48.51	162.64	49.79	-40.1	-41.2	21.4	0.00e+00	0	27	0	600834048	52	6609
2026-01-13 00:22:49.48	162.69	50.11	-39.9	-41.1	21.6	0.00e+00	91	27	0	602931200	52	6485
2026-01-13 00:22:50.46	162.75	50.45	-39.2	-40.2	22.4	0.00e+00	5	27	0	603979776	52	5839
2026-01-13 00:22:51.44	162.80	50.78	-38.8	-39.8	22.7	0.00e+00	91	27	0	606076928	52	5622
2026-01-13 00:22:52.41	162.86	51.12	-38.4	-39.3	23.2	0.00e+00	93	27	0	608174080	50	5923
2026-01-13 00:22:53.39	162.91	51.45	-37.5	-38.4	23.9	0.00e+00	90	27	0	610271232	48	5975
2026-01-13 00:22:54.37	162.97	51.80	-37.2	-38.1	24.3	0.00e+00	92	27	0	611319808	48	5774
2026-01-13 00:22:55.35	163.03	52.14	-36.5	-37.3	24.9	0.00e+00	91	27	0	613416960	46	5921
2026-01-13 00:22:56.32	163.09	52.48	-36.3	-37.1	25.0	0.00e+00	91	27	0	615514112	46	5766
2026-01-13 00:22:57.31	163.16	52.84	-35.9	-36.6	25.4	0.00e+00	75	27	0	617611264	46	5484
2026-01-13 00:22:58.28	163.22	53.18	-36.0	-36.7	25.2	0.00e+00	94	27	0	618659840	46	5556
2026-01-13 00:22:59.26	163.28	53.54	-35.8	-36.6	25.4	0.00e+00	0	27	0	620756992	44	6156
2026-01-13 00:23:00.24	163.35	53.90	-36.0	-36.8	25.3	0.00e+00	93	27	0	622854144	44	6258
2026-01-13 00:23:01.21	163.42	54.25	-35.4	-36.2	25.8	0.00e+00	0	27	0	624951296	44	5858
2026-01-13 00:23:02.19	163.49	54.61	-35.4	-36.2	25.7	0.00e+00	91	27	0	625999872	44	5835
2026-01-13 00:23:03.17	163.56	54.98	-35.9	-36.6	25.3	0.00e+00	91	27	0	628097024	44	6168
2026-01-13 00:23:04.14	163.63	55.34	-36.2	-37.0	25.1	0.00e+00	93	27	0	630194176	44	6407
2026-01-13 00:23:05.12	163.71	55.71	-36.4	-37.2	24.8	0.00e+00	92	27	0	632291328	44	6560
2026-01-13 00:23:06.09	163.78	56.07	-36.5	-37.3	24.8	0.00e+00	90	27	0	633339904	44	6640
2026-01-13 00:23:07.07	163.86	56.45	-36.7	-37.5	24.7	0.00e+00	90	27	0	635437056	44	6800
2026-01-13 00:23:08.05	163.94	56.82	-37.0	-37.8	24.4	0.00e+00	0	27	0	637534208	46	6282
2026-01-13 00:23:09.03	164.03	57.20	-37.6	-38.5	23.9	0.00e+00	91	27	0	639631360	46	6790
2026-01-13 00:23:10.01	164.11	57.58	-38.1	-39.1	23.1	0.00e+00	4	27	0	640679936	48	6474
2026-01-13 00:23:10.99	164.20	57.97	-38.7	-39.7	22.7	0.00e+00	92	27	0	642777088	48	7004
2026-01-13 00:23:11.97	164.29	58.35	-39.0	-40.0	22.5	0.00e+00	0	27	0	644874240	50	6440
2026-01-13 00:23:12.96	164.38	58.75	-38.5	-39.4	23.1	0.00e+00	90	27	0	646971392	50	6022
2026-01-13 00:23:13.94	164.48	59.14	-38.1	-39.0	23.4	0.00e+00	93	27	0	648019968	50	5720
2026-01-13 00:23:14.92	164.58	59.53	-37.4	-38.3	24.1	0.00e+00	92	27	0	650117120	48	5901
2026-01-13 00:23:15.90	164.68	59.93	-36.5	-37.3	24.9	0.00e+00	89	27	0	652214272	46	5903
2026-01-13 00:23:16.88	164.78	60.32	-36.0	-36.8	25.2	0.00e+00	40	27	0	654311424	46	5575
2026-01-13 00:23:17.86	164.89	60.73	-35.5	-36.2	25.7	0.00e+00	91	27	0	655360000	44	5882
2026-01-13 00:23:18.84	165.00	61.13	-35.1	-35.9	26.0	0.00e+00	4	27	0	657457152	44	5631
2026-01-13 00:23:19.82	165.12	61.53	-35.1	-35.8	26.0	0.00e+00	91	27	0	659554304	44	5590
2026-01-13 00:23:20.80	165.24	61.94	-34.9	-35.7	26.2	0.00e+00	0	27	0	661651456	44	5503
2026-01-13 00:23:21.78	165.36	62.35	-34.5	-35.2	26.3	0.00e+00	91	27	0	662700032	42	5891
2026-01-13 00:23:22.76	165.48	62.77	-34.5	-35.3	26.5	0.00e+00	90	27	0	664797184	42	5897
2026-01-13 00:23:23.74	165.61	63.18	-34.5	-35.2	26.4	0.00e+00	91	27	0	666894336	42	5877
2026-01-13 00:23:24.72	165.75	63.60	-35.3	-36.0	25.9	0.00e+00	92	27	0	668991488	42	6453
2026-01-13 00:23:25.69	165.89	64.01	-36.1	-36.9	25.1	0.00e+00	92	27	0	670040064	44	6361
2026-01-13 00:23:26.67	166.03	64.43	-37.1	-37.9	24.3	0.00e+00	91	27	0	672137216	46	6371
2026-01-13 00:23:27.65	166.18	64.86	-37.3	-38.1	24.1	0.00e+00	0	27	0	674234368	46	6522
2026-01-13 00:23:28.64	166.34	65.29	-37.4	-38.3	24.0	0.00e+00	92	27	0	676331520	46	6650
2026-01-13 00:23:29.63	166.50	65.72	-37.6	-38.5	23.6	0.00e+00	12	27	0	677380096	46	6814
2026-01-13 00:23:30.62	166.67	66.16	-38.0	-38.9	23.6	0.00e+00	93	27	0	679477248	48	6369
2026-01-13 00:23:31.62	166.85	66.60	-37.9	-38.8	23.5	0.00e+00	0	27	0	681574400	48	6286
2026-01-13 00:23:32.62	167.04	67.04	-38.2	-39.1	23.3	0.00e+00	92	27	0	683671552	48	6503
2026-01-13 00:23:33.62	167.23	67.49	-38.8	-39.8	22.7	0.00e+00	91	27	0	685768704	48	7026
2026-01-13 00:23:34.62	167.43	67.94	-39.1	-40.2	22.4	0.00e+00	89	27	0	686817280	50	6559
2026-01-13 00:23:35.62	167.64	68.39	-38.8	-39.8	22.6	0.00e+00	91	27	0	688914432	50	6268
2026-01-13 00:23:36.62	167.86	68.84	-38.0	-38.9	23.5	0.00e+00	16	27	0	691011584	50	5688
2026-01-13 00:23:37.61	168.09	69.29	-38.1	-39.0	23.5	0.00e+00	91	27	0	693108736	50	5723
2026-01-13 00:23:38.61	168.33	69.75	-37.7	-38.6	23.7	0.00e+00	3	27	0	695205888	48	6110
2026-01-13 00:23:39.62	168.59	70.21	-37.5	-38.4	23.9	0.00e+00	91	27	0	696254464	48	5992
2026-01-13 00:23:40.61	168.85	70.66	-37.4	-38.3	24.0	0.00e+00	91	27	0	698351616	48	5930
2026-01-13 00:23:41.61	169.13	71.12	-37.8	-38.7	23.6	0.00e+00	92	27	0	700448768	48	6212
2026-01-13 00:23:42.60	169.42	71.58	-38.1	-39.0	23.2	0.00e+00	92	27	0	702545920	48	6460
2026-01-13 00:23:43.60	169.73	72.05	-38.5	-39.5	23.0	0.00e+00	92	27	0	704643072	48	6790
2026-01-13 00:23:44.60	170.06	72.51	-38.6	-39.6	22.8	0.00e+00	92	27	0	705691648	48	6889
2026-01-13 00:23:45.61	170.41	72.98	-38.8	-39.7	22.6	0.00e+00	7	27	0	707788800	50	6235
2026-01-13 00:23:46.61	170.78	73.45	-39.1	-40.1	22.3	0.00e+00	92	27	0	709885952	50	6492
2026-01-13 00:23:47.62	171.17	73.93	-39.4	-40.5	22.0	0.00e+00	14	27	0	711983104	50	6777
2026-01-13 00:23:48.62	171.58	74.40	-39.9	-41.1	21.6	0.00e+00	91	27	0	713031680	52	6470
2026-01-13 00:23:49.63	172.03	74.88	-39.9	-41.0	21.7	0.00e+00	90	27	0	715128832	52	6399
2026-01-13 00:23:50.63	172.50	75.35	-39.6	-40.7	21.8	0.00e+00	93	27	0	717225984	52	6208
2026-01-13 00:23:51.63	173.00	75.82	-39.5	-40.5	22.1	0.00e+00	91	27	0	719323136	52	6092
2026-01-13 00:23:52.62	173.53	76.29	-38.8	-39.8	22.7	0.00e+00	91	27	0	721420288	52	5567
2026-01-13 00:23:53.62	174.11	76.77	-38.6	-39.6	22.9	0.00e+00	92	27	0	722468864	50	6133
2026-01-13 00:23:54.62	174.73	77.24	-38.9	-39.8	22.5	0.00e+00	14	27	0	724566016	50	6307
2026-01-13 00:23:55.61	175.39	77.71	-39.1	-40.1	22.5	0.00e+00	92	27	0	726663168	50	6483
2026-01-13 00:23:56.61	176.11	78.18	-38.7	-39.7	22.7	0.00e+00	0	27	0	728760320	50	6207
2026-01-13 00:23:57.61	176.90	78.66	-37.7	-38.7	23.7	0.00e+00	92	27	0	730857472	50	5515
2026-01-13 00:23:58.61	177.75	79.13	-36.9	-37.8	24.4	0.00e+00	92	27	0	731906048	48	5582
2026-01-13 00:23:59.60	178.68	79.60	-36.6	-37.4	24.7	0.00e+00	92	27	0	734003200	46	5982
2026-01-13 00:24:00.60	179.70	80.06	-36.3	-37.1	25.0	0.00e+00	91	27	0	736100352	46	5804
2026-01-13 00:24:01.59	180.81	80.53	-36.2	-37.0	25.0	0.00e+00	0	27	0	738197504	46	5743
2026-01-13 00:24:02.59	182.05	80.99	-36.8	-37.6	24.5	0.00e+00	92	27	0	739246080	46	6140
2026-01-13 00:24:03.58	183.42	81.45	-38.9	-40.0	22.4	0.00e+00	80	27	0	741343232	48	7195
2026-01-13 00:24:04.58	184.95	81.90	-41.5	-43.0	19.5	0.00e+00	92	27	0	743440384	54	7237
2026-01-13 00:24:05.58	186.66	82.35	-41.9	-43.4	19.3	0.00e+00	0	27	0	745537536	56	6762
2026-01-13 00:24:06.58	188.60	82.80	-40.9	-42.2	20.6	0.00e+00	91	27	0	747634688	56	5874
2026-01-13 00:24:07.57	190.76	83.23	-39.8	-40.9	21.6	0.00e+00	92	27	0	748683264	54	5645
2026-01-13 00:24:08.57	193.23	83.65	-38.4	-39.3	23.0	0.00e+00	91	27	0	750780416	50	5940
2026-01-13 00:24:09.56	196.03	84.06	-38.1	-39.0	23.3	0.00e+00	92	27	0	752877568	50	5727
2026-01-13 00:24:10.56	199.27	84.46	-37.4	-38.2	24.1	0.00e+00	84	27	0	754974720	48	5855
2026-01-13 00:24:11.55	202.96	84.83	-36.9	-37.7	24.5	0.00e+00	92	27	0	757071872	48	5532
2026-01-13 00:24:12.55	207.25	85.18	-36.4	-37.2	24.9	0.00e+00	11	27	0	758120448	46	5877
2026-01-13 00:24:13.55	212.18	85.50	-36.7	-37.6	24.6	0.00e+00	92	27	0	760217600	46	6114
2026-01-13 00:24:14.55	217.82	85.78	-37.1	-38.0	24.2	0.00e+00	12	27	0	762314752	46	6396
2026-01-13 00:24:15.54	224.14	86.02	-37.8	-38.7	23.6	0.00e+00	92	27	0	764411904	46	6959
2026-01-13 00:24:16.54	231.23	86.20	-38.1	-39.0	23.4	0.00e+00	92	27	0	765460480	48	6423
2026-01-13 00:24:17.54	238.91	86.32	-38.1	-39.0	23.4	0.00e+00	30	27	0	767557632	48	6458
2026-01-13 00:24:18.55	247.02	86.37	-38.4	-39.3	23.2	0.00e+00	92	27	0	769654784	48	6675
2026-01-13 00:24:19.55	255.12	86.35	-38.2	-39.1	23.2	0.00e+00	17	27	0	771751936	48	6538
2026-01-13 00:24:20.56	263.04	86.25	-38.1	-39.0	23.4	0.00e+00	90	27	0	773849088	48	6449
2026-01-13 00:24:21.57	270.44	86.09	-37.8	-38.7	23.4	0.00e+00	66	27	0	774897664	48	6221
2026-01-13 00:24:22.58	277.14	85.87	-38.0	-38.9	23.4	0.00e+00	91	27	0	776994816	48	6369
2026-01-13 00:24:23.59	283.09	85.60	-37.6	-38.5	23.8	0.00e+00	92	27	0	779091968	48	6080
2026-01-13 00:24:24.60	288.30	85.29	-37.8	-38.7	23.7	0.00e+00	92	27	0	781189120	48	6185
2026-01-13 00:24:25.61	292.82	84.94	-37.8	-38.7	23.7	0.00e+00	92	27	0	783286272	48	6226
2026-01-13 00:24:26.62	296.75	84.57	-37.9	-38.8	23.5	0.00e+00	14	27	0	784334848	48	6316
2026-01-13 00:24:27.63	300.15	84.17	-38.2	-39.2	23.1	0.00e+00	92	27	0	786432000	48	6585
2026-01-13 00:24:28.63	303.09	83.77	-39.5	-40.6	22.0	0.00e+00	5	27	0	788529152	50	6853
2026-01-13 00:24:29.64	305.68	83.34	-40.6	-41.8	20.8	0.00e+00	90	27	0	790626304	52	7042
2026-01-13 00:24:30.65	307.95	82.90	-42.0	-43.5	19.3	0.00e+00	91	27	0	792723456	56	6805
2026-01-13 00:24:31.66	309.96	82.46	-42.0	-43.5	19.4	0.00e+00	90	27	0	793772032	56	6798
2026-01-13 00:24:32.67	311.73	82.00	-41.1	-42.4	20.3	0.00e+00	92	27	0	795869184	56	5977
2026-01-13 00:24:33.68	313.32	81.55	-39.9	-41.0	21.5	0.00e+00	7	27	0	797966336	54	5756
2026-01-13 00:24:34.69	314.74	81.08	-38.5	-39.5	23.0	0.00e+00	92	27	0	800063488	50	6061
2026-01-13 00:24:35.70	316.02	80.61	-37.9	-38.8	23.6	0.00e+00	81	27	0	802160640	50	5601
2026-01-13 00:24:36.71	317.17	80.14	-37.6	-38.5	23.9	0.00e+00	90	27	0	803209216	48	6065
2026-01-13 00:24:37.72	318.22	79.67	-37.2	-38.1	24.1	0.00e+00	0	27	0	805306368	48	5787
2026-01-13 00:24:38.73	319.17	79.20	-37.7	-38.5	23.8	0.00e+00	92	27	0	807403520	48	6103
2026-01-13 00:24:39.74	320.05	78.72	-39.4	-40.5	22.0	0.00e+00	91	27	0	809500672	50	6801
2026-01-13 00:24:40.75	320.85	78.24	-40.0	-41.1	21.4	0.00e+00	91	27	0	811597824	52	6532
2026-01-13 00:24:41.76	321.58	77.76	-41.1	-42.5	20.2	0.00e+00	90	27	0	813694976	54	6801
2026-01-13 00:24:42.77	322.26	77.28	-43.2	-45.1	17.1	0.00e+00	81	27	0	814743552	58	7283
2026-01-13 00:24:43.78	322.89	76.81	-44.0	-46.3	16.7	0.00e+00	92	27	0	816840704	60	7505
2026-01-13 00:24:44.79	323.48	76.33	-43.0	-45.0	18.0	0.00e+00	76	27	0	818937856	60	6392
2026-01-13 00:24:45.80	324.02	75.85	-42.4	-44.1	18.7	0.00e+00	90	27	0	821035008	58	6532
2026-01-13 00:24:46.81	324.53	75.37	-41.4	-42.9	19.8	0.00e+00	92	27	0	823132160	56	6323
2026-01-13 00:24:47.82	325.01	74.90	-41.4	-42.8	19.9	0.00e+00	90	27	0	824180736	56	6280
2026-01-13 00:24:48.83	325.45	74.42	-41.8	-43.3	19.7	0.00e+00	92	27	0	826277888	56	6639
2026-01-13 00:24:49.84	325.87	73.94	-40.2	-41.5	21.3	0.00e+00	5	27	0	828375040	54	6045
2026-01-13 00:24:50.85	326.26	73.47	-39.7	-40.9	21.7	0.00e+00	92	27	0	830472192	52	6323
2026-01-13 00:24:51.86	326.63	73.00	-39.1	-40.1	22.5	0.00e+00	0	27	0	832569344	52	5788
2026-01-13 00:24:52.87	326.98	72.53	-38.9	-40.0	22.5	0.00e+00	92	27	0	833617920	52	5713
2026-01-13 00:24:53.88	327.31	72.06	-37.8	-38.7	23.7	0.00e+00	71	27	0	835715072	50	5540
2026-01-13 00:24:54.89	327.63	71.59	-37.2	-38.0	24.1	0.00e+00	91	27	0	837812224	48	5756
2026-01-13 00:24:55.90	327.92	71.12	-37.4	-38.3	24.0	0.00e+00	91	27	0	839909376	48	5901
2026-01-13 00:24:56.91	328.20	70.66	-37.2	-38.1	24.0	0.00e+00	77	27	0	842006528	48	5792
2026-01-13 00:24:57.92	328.47	70.19	-38.1	-39.1	23.1	0.00e+00	92	27	0	843055104	48	6476
2026-01-13 00:24:58.93	328.73	69.73	-38.3	-39.2	23.2	0.00e+00	9	27	0	845152256	48	6599
2026-01-13 00:24:59.94	328.97	69.27	-37.4	-38.3	23.9	0.00e+00	91	27	0	847249408	48	5917
2026-01-13 00:25:00.95	329.20	68.82	-38.3	-39.3	23.1	0.00e+00	0	27	0	849346560	48	6632
2026-01-13 00:25:01.96	329.42	68.36	-40.8	-42.2	20.2	0.00e+00	92	27	0	851443712	52	7355
2026-01-13 00:25:02.97	329.64	67.91	-42.7	-44.5	18.2	0.00e+00	92	27	0	852492288	58	6780
2026-01-13 00:25:03.97	329.84	67.46	-41.7	-43.2	19.6	0.00e+00	11	27	0	854589440	58	5875
2026-01-13 00:25:04.98	330.03	67.01	-40.6	-41.9	20.7	0.00e+00	92	27	0	856686592	54	6389
2026-01-13 00:25:05.99	330.22	66.56	-40.0	-41.2	21.5	0.00e+00	82	27	0	858783744	54	5850
2026-01-13 00:25:07.00	330.40	66.12	-39.6	-40.8	21.8	0.00e+00	92	27	0	860880896	52	6256
2026-01-13 00:25:08.01	330.57	65.68	-40.2	-41.4	21.3	0.00e+00	0	27	0	861929472	52	6744
2026-01-13 00:25:09.02	330.74	65.24	-40.0	-41.2	21.4	0.00e+00	92	27	0	864026624	52	6595
2026-01-13 00:25:10.03	330.89	64.80	-38.0	-38.9	23.4	0.00e+00	92	27	0	866123776	50	5682
2026-01-13 00:25:11.04	331.05	64.36	-37.6	-38.5	23.8	0.00e+00	75	27	0	868220928	48	6071
2026-01-13 00:25:12.05	331.20	63.93	-37.0	-37.8	24.5	0.00e+00	92	27	0	870318080	48	5608
2026-01-13 00:25:13.06	331.34	63.50	-36.5	-37.3	24.7	0.00e+00	2	27	0	871366656	46	5963
2026-01-13 00:25:14.07	331.48	63.07	-35.8	-36.6	25.3	0.00e+00	92	27	0	873463808	46	5463
2026-01-13 00:25:15.08	331.61	62.65	-35.4	-36.2	25.7	0.00e+00	0	27	0	875560960	44	5831
2026-01-13 00:25:16.09	331.74	62.22	-35.4	-36.1	25.7	0.00e+00	92	27	0	877658112	44	5801
2026-01-13 00:25:17.10	331.86	61.80	-35.3	-36.0	25.8	0.00e+00	36	27	0	879755264	44	5734
2026-01-13 00:25:18.11	331.98	61.38	-35.5	-36.3	25.5	0.00e+00	81	27	0	881852416	44	5927
2026-01-13 00:25:19.12	332.10	60.97	-36.7	-37.5	24.5	0.00e+00	92	27	0	882900992	44	6788
2026-01-13 00:25:20.13	332.21	60.55	-38.4	-39.4	22.9	0.00e+00	81	27	0	884998144	48	6706
2026-01-13 00:25:21.14	332.32	60.14	-39.0	-40.1	22.5	0.00e+00	92	27	0	887095296	50	6503
2026-01-13 00:25:22.15	332.43	59.74	-38.6	-39.5	22.8	0.00e+00	2	27	0	889192448	50	6086
2026-01-13 00:25:23.16	332.53	59.33	-38.7	-39.7	22.7	0.00e+00	92	27	0	891289600	50	6185
2026-01-13 00:25:24.17	332.63	58.93	-39.7	-40.8	21.6	0.00e+00	58	27	0	892338176	50	7062
2026-01-13 00:25:25.18	332.72	58.53	-40.2	-41.4	21.2	0.00e+00	91	27	0	894435328	52	6737
2026-01-13 00:25:26.19	332.82	58.13	-40.1	-41.2	21.4	0.00e+00	91	27	0	896532480	52	6602
2026-01-13 00:25:27.20	332.91	57.73	-40.3	-41.5	21.0	0.00e+00	0	27	0	898629632	52	6781
2026-01-13 00:25:28.21	333.00	57.34	-40.6	-41.9	20.7	0.00e+00	90	27	0	900726784	52	7125
2026-01-13 00:25:29.21	333.08	56.96	-39.8	-40.9	21.7	0.00e+00	0	27	0	901775360	52	6337
2026-01-13 00:25:30.22	333.17	56.57	-39.0	-40.0	22.5	0.00e+00	91	27	0	903872512	52	5728
2026-01-13 00:25:31.23	333.25	56.18	-38.3	-39.3	23.2	0.00e+00	0	27	0	905969664	50	5899
2026-01-13 00:25:32.24	333.33	55.80	-37.8	-38.6	23.7	0.00e+00	92	27	0	908066816	50	5500
2026-01-13 00:25:33.25	333.41	55.42	-37.4	-38.3	23.9	0.00e+00	92	27	0	910163968	48	5904
2026-01-13 00:25:34.26	333.48	55.05	-37.2	-38.1	24.2	0.00e+00	0	27	0	911212544	48	5767
2026-01-13 00:25:35.26	333.56	54.68	-36.8	-37.7	24.5	0.00e+00	92	27	0	913309696	48	5503
2026-01-13 00:25:36.27	333.63	54.31	-36.8	-37.7	24.4	0.00e+00	0	27	0	915406848	48	5523
2026-01-13 00:25:37.28	333.70	53.94	-37.3	-38.2	24.1	0.00e+00	92	27	0	917504000	48	5847
2026-01-13 00:25:38.29	333.77	53.57	-37.0	-37.9	24.4	0.00e+00	0	27	0	919601152	48	5666
2026-01-13 00:25:39.30	333.84	53.21	-36.6	-37.4	24.8	0.00e+00	21	27	0	920649728	46	5987
2026-01-13 00:25:40.31	333.90	52.85	-36.3	-37.1	25.0	0.00e+00	28	27	0	922746880	46	5766
2026-01-13 00:25:41.32	333.97	52.49	-37.0	-37.8	24.4	0.00e+00	81	27	0	924844032	46	6273
2026-01-13 00:25:42.33	334.03	52.13	-38.4	-39.4	23.0	0.00e+00	92	27	0	926941184	48	6727
2026-01-13 00:25:43.34	334.09	51.78	-40.4	-41.6	20.7	0.00e+00	0	27	0	929038336	52	6912
2026-01-13 00:25:44.35	334.15	51.43	-41.7	-43.2	19.4	0.00e+00	92	27	0	930086912	54	7422
2026-01-13 00:25:45.35	334.21	51.08	-42.5	-44.2	18.6	0.00e+00	2	27	0	932184064	56	7374
2026-01-13 00:25:46.36	334.27	50.74	-42.7	-44.5	18.3	0.00e+00	92	27	0	934281216	56	7630
2026-01-13 00:25:47.37	334.32	50.40	-42.4	-44.2	18.5	0.00e+00	2	27	0	936378368	58	6593
2026-01-13 00:25:48.38	334.38	50.05	-41.4	-42.9	20.0	0.00e+00	1	27	0	938475520	56	6322
2026-01-13 00:25:49.39	334.43	49.72	-40.8	-42.0	20.7	0.00e+00	92	27	0	939524096	56	5748
2026-01-13 00:25:50.39	334.48	49.38	-40.3	-41.4	21.0	0.00e+00	2	27	0	941621248	54	6030
2026-01-13 00:25:51.41	334.54	49.05	-41.7	-43.2	19.2	0.00e+00	90	27	0	943718400	54	7392
2026-01-13 00:25:52.42	334.59	48.72	-44.7	-47.5	15.0	0.00e+00	0	27	0	945815552	60	8559
2026-01-13 00:25:53.42	334.64	48.39	-46.0	-50.2	12.6	1.67e-05	92	27	0	947912704	60	11763
2026-01-13 00:25:54.43	334.69	48.07	-43.8	-46.3	16.8	0.00e+00	0	27	0	948961280	60	7459
2026-01-13 00:25:55.44	334.73	47.74	-41.3	-42.8	20.1	0.00e+00	5	27	0	951058432	56	6284
2026-01-13 00:25:56.45	334.78	47.42	-40.6	-41.9	20.8	0.00e+00	92	27	0	953155584	56	5664
2026-01-13 00:25:57.46	334.83	47.10	-40.5	-41.7	21.3	0.00e+00	5	27	0	955252736	54	6203
2026-01-13 00:25:58.46	334.87	46.79	-39.5	-40.6	22.1	0.00e+00	92	27	0	957349888	54	5482
2026-01-13 00:25:59.47	334.92	46.48	-38.6	-39.6	22.9	0.00e+00	6	27	0	958398464	50	6161
2026-01-13 00:26:00.48	334.96	46.17	-39.2	-40.4	22.3	0.00e+00	89	27	0	960495616	50	6696
2026-01-13 00:26:01.49	335.00	45.86	-39.9	-41.1	21.5	0.00e+00	0	27	0	962592768	52	6512
2026-01-13 00:26:02.49	335.04	45.55	-40.5	-41.9	20.9	0.00e+00	19	27	0	964689920	52	7090
2026-01-13 00:26:03.50	335.09	45.25	-40.5	-41.8	20.6	0.00e+00	80	27	0	966787072	54	6295
2026-01-13 00:26:04.51	335.13	44.95	-40.4	-41.7	20.9	0.00e+00	0	27	0	967835648	54	6213
2026-01-13 00:26:05.53	335.17	44.64	-39.2	-40.4	22.2	0.00e+00	92	27	0	969932800	52	5978
2026-01-13 00:26:06.54	335.21	44.35	-38.3	-39.4	23.1	0.00e+00	80	27	0	972029952	50	5995
2026-01-13 00:26:07.55	335.24	44.05	-37.7	-38.7	23.8	0.00e+00	92	27	0	974127104	50	5504
2026-01-13 00:26:08.55	335.28	43.76	-37.0	-37.8	24.4	0.00e+00	5	27	0	976224256	48	5610
2026-01-13 00:26:09.56	335.32	43.47	-35.9	-36.6	25.4	0.00e+00	92	27	0	978321408	46	5500
2026-01-13 00:26:10.57	335.36	43.18	-35.5	-36.2	25.7	0.00e+00	0	27	0	979369984	44	5867
2026-01-13 00:26:11.58	335.39	42.90	-36.0	-36.8	25.2	0.00e+00	72	27	0	981467136	44	6304
2026-01-13 00:26:12.59	335.43	42.61	-37.1	-38.0	24.3	0.00e+00	92	27	0	983564288	46	6416
2026-01-13 00:26:13.60	335.46	42.33	-38.3	-39.4	22.9	0.00e+00	6	27	0	985661440	48	6720
2026-01-13 00:26:14.61	335.50	42.05	-39.6	-40.8	21.6	0.00e+00	90	27	0	987758592	50	7057
2026-01-13 00:26:15.62	335.53	41.77	-40.2	-41.5	21.1	0.00e+00	6	27	0	988807168	52	6831
2026-01-13 00:26:16.63	335.57	41.49	-39.4	-40.6	22.1	0.00e+00	92	27	0	990904320	52	6126
2026-01-13 00:26:17.64	335.60	41.22	-38.8	-39.8	22.7	0.00e+00	6	27	0	993001472	52	5601
2026-01-13 00:26:18.65	335.63	40.95	-38.6	-39.6	22.8	0.00e+00	6	27	0	995098624	50	6124
2026-01-13 00:26:19.65	335.66	40.68	-37.4	-38.2	23.9	0.00e+00	92	27	0	997195776	48	5892
2026-01-13 00:26:20.66	335.70	40.41	-36.7	-37.5	24.7	0.00e+00	0	27	0	998244352	46	6090
2026-01-13 00:26:21.67	335.73	40.15	-36.7	-37.5	24.6	0.00e+00	91	27	0	1000341504	46	6088
2026-01-13 00:26:22.68	335.76	39.88	-37.0	-37.8	24.4	0.00e+00	6	27	0	1002438656	46	6260
2026-01-13 00:26:23.69	335.79	39.62	-37.5	-38.3	23.9	0.00e+00	91	27	0	1004535808	46	6655
2026-01-13 00:26:24.70	335.82	39.36	-38.7	-39.7	22.8	0.00e+00	72	27	0	1006632960	48	6934
2026-01-13 00:26:25.71	335.85	39.11	-39.8	-40.9	21.5	0.00e+00	41	27	0	1007681536	50	7125
2026-01-13 00:26:26.72	335.88	38.85	-41.0	-42.4	20.3	0.00e+00	80	27	0	1009778688	54	6700
2026-01-13 00:26:27.73	335.91	38.60	-42.0	-43.7	19.1	0.00e+00	79	27	0	1011875840	56	6940
2026-01-13 00:26:28.74	335.93	38.34	-42.7	-44.5	18.3	0.00e+00	92	27	0	1013972992	56	7622
2026-01-13 00:26:29.75	335.96	38.09	-42.3	-44.0	18.8	0.00e+00	80	27	0	1016070144	56	7253
2026-01-13 00:26:30.75	335.99	37.85	-41.8	-43.4	19.5	0.00e+00	92	27	0	1017118720	56	6707
2026-01-13 00:26:31.77	336.02	37.60	-40.9	-42.3	20.5	0.00e+00	1	27	0	1019215872	56	5925
2026-01-13 00:26:32.78	336.04	37.35	-40.5	-41.7	20.9	0.00e+00	92	27	0	1021313024	54	6218
2026-01-13 00:26:33.78	336.07	37.11	-40.3	-41.5	21.0	0.00e+00	67	27	0	1023410176	54	6090
2026-01-13 00:26:34.79	336.10	36.87	-39.5	-40.6	22.0	0.00e+00	80	27	0	1025507328	52	6148
2026-01-13 00:26:35.80	336.12	36.63	-39.2	-40.2	22.3	0.00e+00	92	27	0	1026555904	52	5849
2026-01-13 00:26:36.81	336.15	36.39	-39.2	-40.2	22.4	0.00e+00	2	27	0	1028653056	52	5862
2026-01-13 00:26:37.82	336.17	36.16	-39.3	-40.3	22.1	0.00e+00	92	27	0	1030750208	52	5950
2026-01-13 00:26:38.83	336.20	35.92	-39.1	-40.2	22.3	0.00e+00	2	27	0	1032847360	52	5833
2026-01-13 00:26:39.83	336.22	35.69	-39.3	-40.4	22.2	0.00e+00	92	27	0	1034944512	52	5977
2026-01-13 00:26:40.85	336.25	35.46	-39.7	-40.8	21.7	0.00e+00	0	27	0	1035993088	52	6312
2026-01-13 00:26:41.85	336.27	35.23	-40.4	-41.7	20.9	0.00e+00	0	27	0	1038090240	52	6938
2026-01-13 00:26:42.86	336.29	35.00	-41.2	-42.6	20.1	0.00e+00	92	27	0	1040187392	54	6885
2026-01-13 00:26:43.88	336.32	34.78	-42.1	-43.8	18.9	0.00e+00	0	27	0	1042284544	56	7022
2026-01-13 00:26:44.88	336.34	34.55	-43.0	-45.0	17.7	0.00e+00	90	27	0	1044381696	58	7219
2026-01-13 00:26:45.89	336.36	34.33	-43.7	-46.0	16.7	0.00e+00	0	27	0	1045430272	58	8130
2026-01-13 00:26:46.90	336.39	34.11	-44.1	-46.6	16.2	0.00e+00	90	27	0	1047527424	60	7723
2026-01-13 00:26:47.91	336.41	33.89	-44.1	-46.6	16.2	0.00e+00	78	27	0	1049624576	60	7705
2026-01-13 00:26:48.92	336.43	33.67	-43.8	-46.1	16.8	0.00e+00	89	27	0	1051721728	60	7276
2026-01-13 00:26:49.93	336.45	33.46	-43.2	-45.2	17.7	0.00e+00	0	27	0	1053818880	60	6576
2026-01-13 00:26:50.94	336.48	33.24	-43.0	-44.9	17.9	0.00e+00	0	27	0	1054867456	60	6343
2026-01-13 00:26:51.95	336.50	33.03	-42.5	-44.2	18.6	0.00e+00	92	27	0	1056964608	58	6604
2026-01-13 00:26:52.96	336.52	32.82	-41.8	-43.4	19.4	0.00e+00	79	27	0	1059061760	58	5966
2026-01-13 00:26:53.97	336.54	32.61	-41.4	-42.8	19.9	0.00e+00	92	27	0	1061158912	56	6309
2026-01-13 00:26:54.97	336.56	32.40	-41.0	-42.4	20.4	0.00e+00	78	27	0	1063256064	56	5972
2026-01-13 00:26:55.99	336.58	32.19	-40.7	-41.9	20.6	0.00e+00	91	27	0	1064304640	54	6383
2026-01-13 00:26:57.00	336.60	31.98	-40.6	-41.8	20.7	0.00e+00	76	27	0	1066401792	54	6316
2026-01-13 00:26:58.00	336.62	31.78	-40.8	-42.1	20.5	0.00e+00	0	27	0	1068498944	54	6484
2026-01-13 00:26:59.01	336.64	31.58	-40.9	-42.2	20.4	0.00e+00	92	27	0	1070596096	54	6588
2026-01-13 00:27:00.02	336.66	31.37	-41.0	-42.3	20.4	0.00e+00	3	27	0	1072693248	54	6664
2026-01-13 00:27:01.03	336.68	31.17	-41.1	-42.4	20.2	0.00e+00	90	27	0	1074790400	54	6758
2026-01-13 00:27:02.03	336.70	30.98	-41.1	-42.5	20.1	0.00e+00	4	27	0	1075838976	54	6789
2026-01-13 00:27:03.04	336.72	30.78	-41.0	-42.4	20.2	0.00e+00	91	27	0	1077936128	54	6732
2026-01-13 00:27:04.05	336.74	30.58	-41.1	-42.4	20.1	0.00e+00	0	27	0	1080033280	54	6767
2026-01-13 00:27:05.06	336.76	30.39	-41.0	-42.3	20.3	0.00e+00	0	27	0	1082130432	54	6666
2026-01-13 00:27:06.07	336.78	30.19	-41.0	-42.4	20.3	0.00e+00	92	27	0	1084227584	54	6705
2026-01-13 00:27:07.08	336.80	30.00	-40.7	-42.0	20.6	0.00e+00	0	27	0	1085276160	54	6404
2026-01-13 00:27:08.09	336.81	29.81	-40.7	-42.0	20.6	0.00e+00	92	27	0	1087373312	54	6458
2026-01-13 00:27:09.10	336.83	29.62	-40.6	-41.9	20.7	0.00e+00	0	27	0	1089470464	54	6339
2026-01-13 00:27:10.11	336.85	29.43	-40.4	-41.7	20.9	0.00e+00	92	27	0	1091567616	54	6208
2026-01-13 00:27:11.12	336.87	29.24	-40.3	-41.6	21.0	0.00e+00	79	27	0	1093664768	54	6122
2026-01-13 00:27:12.13	336.89	29.06	-40.3	-41.5	21.0	0.00e+00	0	27	0	1094713344	54	6068
2026-01-13 00:27:13.14	336.90	28.87	-40.0	-41.2	21.3	0.00e+00	0	27	0	1096810496	54	5849
2026-01-13 00:27:14.15	336.92	28.69	-39.9	-41.0	21.4	0.00e+00	0	27	0	1098907648	54	5753
2026-01-13 00:27:15.16	336.94	28.51	-39.8	-41.0	21.6	0.00e+00	92	27	0	1101004800	54	5700
2026-01-13 00:27:16.16	336.96	28.33	-39.4	-40.5	22.0	0.00e+00	78	27	0	1103101952	52	6089
2026-01-13 00:27:17.17	336.97	28.15	-39.5	-40.6	21.9	0.00e+00	92	27	0	1104150528	52	6119
2026-01-13 00:27:18.18	336.99	27.97	-39.1	-40.1	22.4	0.00e+00	2	27	0	1106247680	52	5799
2026-01-13 00:27:19.19	337.01	27.79	-39.0	-40.0	22.4	0.00e+00	79	27	0	1108344832	52	5751
2026-01-13 00:27:20.20	337.02	27.61	-38.6	-39.6	22.8	0.00e+00	0	27	0	1110441984	50	6127
2026-01-13 00:27:21.21	337.04	27.44	-38.3	-39.2	23.1	0.00e+00	0	27	0	1112539136	50	5876
2026-01-13 00:27:22.22	337.06	27.26	-38.1	-39.0	23.3	0.00e+00	92	27	0	1113587712	50	5721
2026-01-13 00:27:23.23	337.07	27.09	-37.9	-38.8	23.5	0.00e+00	0	27	0	1115684864	50	5611
2026-01-13 00:27:24.24	337.09	26.92	-37.8	-38.7	23.5	0.00e+00	90	27	0	1117782016	50	5566
2026-01-13 00:27:25.25	337.10	26.75	-37.9	-38.8	23.5	0.00e+00	0	27	0	1119879168	50	5599
2026-01-13 00:27:26.25	337.12	26.58	-37.8	-38.7	23.6	0.00e+00	0	27	0	1121976320	50	5512
2026-01-13 00:27:27.26	337.14	26.41	-37.8	-38.7	23.5	0.00e+00	0	27	0	1123024896	48	6204
2026-01-13 00:27:28.27	337.15	26.24	-37.8	-38.7	23.5	0.00e+00	0	27	0	1125122048	48	6240
2026-01-13 00:27:29.28	337.17	26.07	-37.8	-38.8	23.4	0.00e+00	90	27	0	1127219200	48	6259
2026-01-13 00:27:30.29	337.18	25.91	-37.9	-38.8	23.5	0.00e+00	0	27	0	1129316352	48	6283
2026-01-13 00:27:31.30	337.20	25.74	-37.9	-38.9	23.4	0.00e+00	92	27	0	1131413504	48	6325
2026-01-13 00:27:32.31	337.21	25.58	-37.8	-38.8	23.5	0.00e+00	74	27	0	1132462080	48	6262
2026-01-13 00:27:33.31	337.23	25.42	-37.9	-38.9	23.4	0.00e+00	4	27	0	1134559232	48	6333
2026-01-13 00:27:34.32	337.24	25.26	-37.9	-38.9	23.3	0.00e+00	74	27	0	1136656384	48	6335
2026-01-13 00:27:35.33	337.26	25.10	-37.9	-38.8	23.3	0.00e+00	77	27	0	1138753536	48	6269
2026-01-13 00:27:36.34	337.27	24.94	-38.0	-39.0	23.3	0.00e+00	0	27	0	1140850688	48	6395
2026-01-13 00:27:37.35	337.29	24.78	-37.6	-38.5	23.7	0.00e+00	12	27	0	1142947840	48	6055
2026-01-13 00:27:38.36	337.30	24.62	-37.5	-38.4	23.8	0.00e+00	92	27	0	1143996416	48	5978
2026-01-13 00:27:39.37	337.31	24.46	-37.3	-38.2	24.0	0.00e+00	0	27	0	1146093568	48	5873
2026-01-13 00:27:40.38	337.33	24.31	-37.2	-38.0	24.1	0.00e+00	92	27	0	1148190720	48	5751
2026-01-13 00:27:41.39	337.34	24.15	-37.1	-38.0	24.1	0.00e+00	76	27	0	1150287872	48	5696
2026-01-13 00:27:42.40	337.36	24.00	-36.9	-37.8	24.2	0.00e+00	6	27	0	1152385024	48	5577
2026-01-13 00:27:43.41	337.37	23.84	-36.7	-37.6	24.2	0.00e+00	0	27	0	1153433600	46	6117
2026-01-13 00:27:44.42	337.39	23.69	-36.9	-37.7	24.1	0.00e+00	6	27	0	1155530752	46	6220
2026-01-13 00:27:45.43	337.40	23.54	-36.7	-37.6	24.5	0.00e+00	90	27	0	1157627904	46	6112
2026-01-13 00:27:46.44	337.41	23.39	-36.8	-37.6	24.4	0.00e+00	0	27	0	1159725056	46	6129
2026-01-13 00:27:47.45	337.43	23.24	-36.5	-37.3	24.6	0.00e+00	92	27	0	1161822208	46	5941
2026-01-13 00:27:48.46	337.44	23.09	-36.5	-37.3	24.8	0.00e+00	0	27	0	1162870784	46	5914
2026-01-13 00:27:49.47	337.45	22.94	-36.6	-37.4	24.7	0.00e+00	6	27	0	1164967936	46	5999
