passes_logs/2026/01/13/R4.6S_Anadyr/R4.6S_Anadyr__20260113_120122_SUOMI_NPP_rec.log

#Pass ID: 20260113_120122_SUOMI NPP
#Satellite: SUOMI NPP
#Configuration: NPP
#almurnet v.1.7.20251203
#Start time: 2026-01-13 12:01:23

#Version: 2.2.20231116
#Station: R4.6S_Anadyr
#Location: 177.4865 lon 64.73178 lat
#TLE: 1 37849U 11061A   26012.28456845  .00000093  00000+0  65163-4 0  9999
#TLE: 2 37849  98.7807 314.3566 0002508  68.3553 291.7890 14.19524725736322

#Time	Az	El	Level	Level2	SNR	BER	BlckErr	Temp	State	Recorded	gain1	gain2
2026-01-13 12:01:23.12	19.81	0.04	-48.6	-61.1	3.4	1.52e+00	0	25	0	0	60	40050
2026-01-13 12:01:24.12	19.89	0.09	-48.8	-64.0	3.6	1.51e+00	0	26	104	0	60	57366
2026-01-13 12:01:25.13	19.98	0.13	-48.7	-64.0	3.6	1.51e+00	0	27	104	0	60	56989
2026-01-13 12:01:26.14	20.06	0.18	-48.8	-64.0	3.6	1.51e+00	0	27	104	0	60	57077
2026-01-13 12:01:27.15	20.15	0.22	-48.8	-64.1	3.6	1.51e+00	0	27	104	0	60	57652
2026-01-13 12:01:28.16	20.24	0.27	-48.8	-64.0	3.6	1.51e+00	0	27	104	0	60	57151
2026-01-13 12:01:29.17	20.33	0.31	-48.7	-64.0	3.6	1.51e+00	0	27	104	0	60	57207
2026-01-13 12:01:30.18	20.42	0.36	-48.8	-64.0	3.6	1.51e+00	0	27	104	0	60	57209
2026-01-13 12:01:31.19	20.50	0.40	-48.8	-64.0	3.6	1.51e+00	0	27	104	0	60	57070
2026-01-13 12:01:32.20	20.59	0.45	-48.8	-64.0	3.6	1.51e+00	0	27	104	0	60	57188
2026-01-13 12:01:33.21	20.68	0.49	-48.8	-64.0	3.6	1.51e+00	0	27	104	0	60	57108
2026-01-13 12:01:34.22	20.77	0.54	-48.7	-63.9	3.6	1.51e+00	0	27	104	0	60	56769
2026-01-13 12:01:35.23	20.86	0.58	-48.7	-63.9	3.6	1.51e+00	0	27	104	0	60	56389
2026-01-13 12:01:36.24	20.95	0.63	-48.6	-63.8	3.6	1.51e+00	0	27	104	0	60	55944
2026-01-13 12:01:37.26	21.04	0.67	-48.5	-63.7	3.6	1.51e+00	0	27	104	0	60	55275
2026-01-13 12:01:38.26	21.13	0.72	-48.4	-63.6	3.6	1.51e+00	0	27	104	0	60	54591
2026-01-13 12:01:39.27	21.22	0.76	-48.3	-63.5	3.6	1.51e+00	0	27	104	0	60	54116
2026-01-13 12:01:40.28	21.31	0.81	-48.1	-63.3	3.6	1.51e+00	0	27	104	0	60	53118
2026-01-13 12:01:41.29	21.40	0.85	-47.9	-63.1	3.5	1.51e+00	0	27	104	0	60	51591
2026-01-13 12:01:42.30	21.49	0.90	-47.6	-62.7	3.6	1.51e+00	0	27	104	0	60	49458
2026-01-13 12:01:43.31	21.58	0.94	-47.1	-62.2	3.6	1.51e+00	0	27	104	0	60	46631
2026-01-13 12:01:44.32	21.67	0.99	-47.0	-62.3	3.6	1.51e+00	0	27	104	0	60	46883
2026-01-13 12:01:45.33	21.77	1.03	-47.1	-62.2	3.6	1.51e+00	0	27	104	0	60	46513
2026-01-13 12:01:46.34	21.86	1.08	-47.0	-62.2	3.6	1.51e+00	0	27	104	0	60	46657
2026-01-13 12:01:47.35	21.95	1.12	-47.0	-62.2	3.6	1.51e+00	0	27	104	0	60	46722
2026-01-13 12:01:48.36	22.04	1.17	-47.0	-62.2	3.6	1.51e+00	0	27	104	0	60	46680
2026-01-13 12:01:49.37	22.14	1.21	-47.0	-62.2	3.6	1.51e+00	0	27	104	0	60	46549
2026-01-13 12:01:50.38	22.23	1.26	-47.0	-62.2	3.6	1.51e+00	0	27	104	0	60	46437
2026-01-13 12:01:51.39	22.32	1.30	-47.0	-62.2	3.6	1.51e+00	0	27	104	0	60	46544
2026-01-13 12:01:52.40	22.42	1.35	-47.0	-62.2	3.6	1.51e+00	0	27	104	0	60	46582
2026-01-13 12:01:53.41	22.51	1.39	-47.0	-62.2	3.6	1.51e+00	0	27	104	0	60	46523
2026-01-13 12:01:54.42	22.60	1.44	-47.0	-62.2	3.6	1.51e+00	0	27	104	0	60	46609
2026-01-13 12:01:55.43	22.70	1.48	-47.0	-62.2	3.6	1.51e+00	0	27	104	0	60	46400
2026-01-13 12:01:56.45	22.79	1.53	-47.0	-62.2	3.6	1.51e+00	0	27	104	0	60	46330
2026-01-13 12:01:57.46	22.89	1.57	-47.0	-62.1	3.6	1.51e+00	0	27	104	0	60	46291
2026-01-13 12:01:58.47	22.98	1.62	-47.0	-62.2	3.6	1.51e+00	0	27	104	0	60	46470
2026-01-13 12:01:59.48	23.08	1.66	-47.0	-62.1	3.6	1.51e+00	0	27	104	0	60	46285
2026-01-13 12:02:00.49	23.18	1.71	-47.0	-62.2	3.6	1.51e+00	0	27	104	0	60	46637
2026-01-13 12:02:01.50	23.27	1.75	-47.0	-62.2	3.6	1.51e+00	0	27	104	0	60	46455
2026-01-13 12:02:02.51	23.37	1.80	-47.0	-62.2	3.6	1.51e+00	0	27	104	0	60	46526
2026-01-13 12:02:03.52	23.47	1.84	-47.0	-62.2	3.6	1.51e+00	0	27	104	0	60	46548
2026-01-13 12:02:04.53	23.56	1.89	-47.0	-62.2	3.6	1.51e+00	0	27	104	0	60	46301
2026-01-13 12:02:05.54	23.66	1.94	-47.0	-62.2	3.6	1.51e+00	0	27	104	0	60	46615
2026-01-13 12:02:06.55	23.76	1.98	-47.0	-62.1	3.6	1.51e+00	0	27	104	0	60	46177
2026-01-13 12:02:07.56	23.86	2.03	-47.0	-62.1	3.6	1.51e+00	0	27	104	0	60	46135
2026-01-13 12:02:08.57	23.95	2.07	-47.0	-62.0	3.6	1.51e+00	0	27	104	0	60	45580
2026-01-13 12:02:09.58	24.05	2.12	-47.0	-62.1	3.6	1.51e+00	0	27	104	0	60	45969
2026-01-13 12:02:10.59	24.15	2.16	-47.0	-62.1	3.6	1.51e+00	0	27	104	0	60	45985
2026-01-13 12:02:11.60	24.25	2.21	-47.0	-62.2	3.6	1.51e+00	0	27	104	0	60	46316
2026-01-13 12:02:12.61	24.35	2.25	-47.0	-62.1	3.6	1.51e+00	0	27	104	0	60	46151
2026-01-13 12:02:13.62	24.45	2.30	-47.0	-62.1	3.6	1.51e+00	0	27	104	0	60	45875
2026-01-13 12:02:14.63	24.55	2.34	-47.0	-62.2	3.6	1.51e+00	0	27	104	0	60	46387
2026-01-13 12:02:15.64	24.65	2.39	-47.0	-62.1	3.6	1.51e+00	0	27	104	0	60	46271
2026-01-13 12:02:16.65	24.75	2.43	-47.0	-61.6	3.6	1.51e+00	0	27	104	0	60	43478
2026-01-13 12:02:17.66	24.85	2.48	-46.9	-60.8	3.6	1.51e+00	0	27	104	0	60	39820
2026-01-13 12:02:18.67	24.95	2.52	-46.9	-60.6	3.6	1.51e+00	0	27	104	0	60	38816
2026-01-13 12:02:19.68	25.05	2.57	-47.0	-61.0	3.6	1.51e+00	0	27	104	0	60	40478
2026-01-13 12:02:20.69	25.15	2.61	-46.8	-58.2	4.2	1.50e+00	47	27	104	0	60	29529
2026-01-13 12:02:21.69	25.25	2.66	-46.1	-52.7	7.9	3.99e-01	25	28	0	0	60	15545
2026-01-13 12:02:22.70	25.36	2.71	-44.7	-48.6	12.5	1.08e-02	0	27	0	2097152	60	9713
2026-01-13 12:02:23.71	25.46	2.75	-43.2	-45.9	15.3	0.00e+00	78	27	0	4194304	60	7148
2026-01-13 12:02:24.72	25.56	2.80	-41.7	-43.7	17.4	0.00e+00	0	27	0	6291456	58	6174
2026-01-13 12:02:25.73	25.66	2.84	-40.7	-42.3	18.7	0.00e+00	23	27	0	8388608	56	5939
2026-01-13 12:02:26.74	25.77	2.89	-40.5	-42.1	18.8	0.00e+00	0	27	0	9437184	54	6475
2026-01-13 12:02:27.75	25.87	2.93	-41.2	-43.0	17.9	0.00e+00	0	27	0	11534336	54	7195
2026-01-13 12:02:28.76	25.98	2.98	-42.2	-44.3	16.7	0.00e+00	0	27	0	13631488	56	7465
2026-01-13 12:02:29.77	26.08	3.02	-43.6	-46.6	14.0	0.00e+00	0	27	0	15728640	58	8650
2026-01-13 12:02:30.78	26.18	3.07	-41.1	-42.8	18.2	0.00e+00	91	27	0	17825792	56	6290
2026-01-13 12:02:31.79	26.29	3.11	-40.5	-42.0	18.9	0.00e+00	0	28	0	18874368	54	6445
2026-01-13 12:02:32.80	26.39	3.16	-47.0	-61.3	3.6	5.81e-01	0	28	104	20971520	60	42097
2026-01-13 12:02:33.81	26.50	3.20	-46.7	-58.3	3.8	1.50e+00	0	28	104	20971520	60	29705
2026-01-13 12:02:34.82	26.61	3.25	-41.8	-43.8	14.7	9.52e-02	0	27	0	20971520	54	7922
2026-01-13 12:02:35.83	26.71	3.30	-42.0	-43.9	17.9	8.69e-05	0	27	0	23068672	56	7131
2026-01-13 12:02:36.84	26.82	3.34	-41.3	-43.1	18.1	0.00e+00	0	27	0	24117248	56	6484
2026-01-13 12:02:37.85	26.93	3.39	-41.4	-43.2	18.4	0.00e+00	92	27	0	26214400	56	6572
2026-01-13 12:02:38.85	27.03	3.43	-41.2	-42.9	18.0	0.00e+00	0	27	0	28311552	56	6341
2026-01-13 12:02:39.86	27.14	3.48	-41.7	-43.5	18.0	0.00e+00	91	27	0	30408704	56	6809
2026-01-13 12:02:40.87	27.25	3.52	-41.1	-42.8	18.4	0.00e+00	0	27	0	32505856	56	6265
2026-01-13 12:02:41.88	27.35	3.57	-41.5	-43.3	18.2	0.00e+00	0	27	0	34603008	56	6628
2026-01-13 12:02:42.89	27.46	3.61	-41.2	-42.9	17.8	0.00e+00	0	27	0	35651584	56	6383
2026-01-13 12:02:43.90	27.57	3.66	-41.6	-43.4	17.8	0.00e+00	0	27	0	37748736	56	6699
2026-01-13 12:02:44.91	27.68	3.70	-41.4	-43.2	18.0	0.00e+00	32	28	0	39845888	56	6567
2026-01-13 12:02:45.92	27.79	3.75	-41.6	-43.4	18.2	0.00e+00	0	28	0	41943040	56	6732
2026-01-13 12:02:46.93	27.90	3.79	-41.5	-43.3	17.9	0.00e+00	42	28	0	44040192	56	6650
2026-01-13 12:02:47.94	28.01	3.84	-41.7	-43.5	17.9	0.00e+00	0	27	0	45088768	56	6804
2026-01-13 12:02:48.95	28.12	3.88	-41.6	-43.4	18.0	0.00e+00	0	28	0	47185920	56	6740
2026-01-13 12:02:49.96	28.23	3.93	-41.6	-43.4	17.6	0.00e+00	0	28	0	49283072	56	6745
2026-01-13 12:02:50.97	28.34	3.97	-42.0	-44.0	18.1	0.00e+00	0	27	0	51380224	56	7176
2026-01-13 12:02:51.98	28.45	4.02	-42.0	-43.9	17.6	0.00e+00	0	28	0	53477376	56	7134
2026-01-13 12:02:52.99	28.56	4.07	-41.6	-43.4	18.2	0.00e+00	0	28	0	54525952	56	6716
2026-01-13 12:02:54.00	28.68	4.11	-42.2	-44.2	16.9	0.00e+00	92	28	0	56623104	56	7394
2026-01-13 12:02:55.01	28.79	4.16	-42.2	-44.2	17.6	0.00e+00	0	28	0	58720256	56	7379
2026-01-13 12:02:56.02	28.90	4.20	-42.1	-44.1	17.1	0.00e+00	7	28	0	60817408	56	7264
2026-01-13 12:02:57.03	29.01	4.25	-42.8	-45.0	16.7	0.00e+00	0	28	0	62914560	56	8077
2026-01-13 12:02:58.04	29.13	4.29	-42.1	-44.0	17.0	0.00e+00	0	28	0	63963136	58	6453
2026-01-13 12:02:59.05	29.24	4.34	-42.5	-44.5	17.1	0.00e+00	2	28	0	66060288	56	7680
2026-01-13 12:03:00.06	29.36	4.38	-42.9	-45.2	17.1	0.00e+00	0	27	0	68157440	56	8243
2026-01-13 12:03:01.07	29.47	4.43	-42.4	-44.4	16.6	0.00e+00	92	27	0	70254592	58	6758
2026-01-13 12:03:02.08	29.58	4.47	-42.5	-44.6	16.8	0.00e+00	0	27	0	72351744	58	6897
2026-01-13 12:03:03.08	29.70	4.52	-42.0	-43.9	17.8	0.00e+00	0	28	0	73400320	58	6322
2026-01-13 12:03:04.09	29.81	4.56	-42.3	-44.4	17.4	0.00e+00	0	27	0	75497472	56	7518
2026-01-13 12:03:05.10	29.93	4.61	-41.6	-43.4	17.9	0.00e+00	0	28	0	77594624	56	6696
2026-01-13 12:03:06.11	30.04	4.65	-41.7	-43.6	18.0	0.00e+00	0	27	0	79691776	56	6853
2026-01-13 12:03:07.12	30.16	4.70	-41.4	-43.1	18.3	0.00e+00	0	28	0	81788928	56	6495
2026-01-13 12:03:08.13	30.28	4.74	-40.5	-42.0	19.3	0.00e+00	31	28	0	82837504	54	6450
2026-01-13 12:03:09.14	30.39	4.79	-40.3	-41.8	19.6	0.00e+00	31	28	0	84934656	54	6250
2026-01-13 12:03:10.15	30.51	4.83	-40.4	-41.9	19.4	0.00e+00	91	28	0	87031808	54	6323
2026-01-13 12:03:11.16	30.63	4.88	-40.2	-41.6	19.8	0.00e+00	0	28	0	89128960	54	6158
2026-01-13 12:03:12.17	30.75	4.92	-40.0	-41.4	19.8	0.00e+00	3	28	0	91226112	54	5998
2026-01-13 12:03:13.18	30.87	4.97	-40.4	-41.8	19.6	0.00e+00	0	28	0	92274688	54	6317
2026-01-13 12:03:14.19	30.98	5.01	-40.1	-41.5	19.7	0.00e+00	0	28	0	94371840	54	6039
2026-01-13 12:03:15.20	31.10	5.06	-40.2	-41.6	20.0	0.00e+00	36	28	0	96468992	54	6161
2026-01-13 12:03:16.21	31.22	5.10	-39.7	-41.0	20.2	0.00e+00	0	28	0	98566144	54	5711
2026-01-13 12:03:17.21	31.34	5.15	-39.7	-41.0	20.4	0.00e+00	73	28	0	100663296	52	6391
2026-01-13 12:03:18.22	31.46	5.19	-39.6	-40.9	20.4	0.00e+00	0	28	0	101711872	52	6334
2026-01-13 12:03:19.23	31.58	5.24	-39.2	-40.4	20.9	0.00e+00	0	28	0	103809024	52	6013
2026-01-13 12:03:20.24	31.70	5.28	-39.2	-40.4	20.7	0.00e+00	0	28	0	105906176	52	6031
2026-01-13 12:03:21.25	31.82	5.33	-39.5	-40.8	20.5	0.00e+00	0	27	0	108003328	52	6274
2026-01-13 12:03:22.26	31.95	5.37	-39.5	-40.7	20.5	0.00e+00	34	28	0	110100480	52	6244
2026-01-13 12:03:23.27	32.07	5.41	-39.7	-41.0	20.3	0.00e+00	0	27	0	111149056	52	6437
2026-01-13 12:03:24.28	32.19	5.46	-39.7	-41.0	20.2	0.00e+00	92	28	0	113246208	52	6422
2026-01-13 12:03:25.29	32.31	5.50	-39.5	-40.8	20.5	0.00e+00	0	28	0	115343360	52	6286
2026-01-13 12:03:26.30	32.44	5.55	-39.4	-40.7	20.6	0.00e+00	0	28	0	117440512	52	6190
2026-01-13 12:03:27.31	32.56	5.59	-39.5	-40.7	20.6	0.00e+00	0	28	0	119537664	52	6229
2026-01-13 12:03:28.31	32.68	5.64	-39.5	-40.7	20.7	0.00e+00	0	28	0	120586240	52	6214
2026-01-13 12:03:29.32	32.81	5.68	-39.0	-40.2	21.1	0.00e+00	0	28	0	122683392	52	5852
2026-01-13 12:03:30.33	32.93	5.73	-39.0	-40.2	20.9	0.00e+00	0	28	0	124780544	52	5878
2026-01-13 12:03:31.34	33.05	5.77	-39.2	-40.4	21.0	0.00e+00	56	28	0	126877696	52	6029
2026-01-13 12:03:32.34	33.18	5.81	-38.9	-40.1	21.2	0.00e+00	0	28	0	128974848	52	5765
2026-01-13 12:03:33.35	33.30	5.86	-39.1	-40.2	21.0	0.00e+00	60	28	0	131072000	52	5896
2026-01-13 12:03:34.36	33.43	5.90	-39.2	-40.4	20.9	0.00e+00	0	28	0	132120576	52	5995
2026-01-13 12:03:35.37	33.56	5.95	-39.1	-40.3	21.1	0.00e+00	0	28	0	134217728	52	5901
2026-01-13 12:03:36.38	33.68	5.99	-39.3	-40.5	20.9	0.00e+00	17	28	0	136314880	52	6045
2026-01-13 12:03:37.39	33.81	6.04	-39.4	-40.7	20.7	0.00e+00	0	28	0	138412032	52	6196
2026-01-13 12:03:38.40	33.94	6.08	-39.3	-40.5	20.8	0.00e+00	67	28	0	140509184	52	6092
2026-01-13 12:03:39.41	34.07	6.12	-39.6	-40.9	20.5	0.00e+00	0	28	0	141557760	52	6372
2026-01-13 12:03:40.42	34.19	6.17	-39.5	-40.7	20.7	0.00e+00	92	28	0	143654912	52	6223
2026-01-13 12:03:41.42	34.32	6.21	-39.6	-40.9	20.4	0.00e+00	0	28	0	145752064	52	6362
2026-01-13 12:03:42.43	34.45	6.26	-39.6	-40.9	20.5	0.00e+00	0	28	0	147849216	52	6364
2026-01-13 12:03:43.44	34.58	6.30	-39.7	-41.0	20.4	0.00e+00	0	28	0	149946368	52	6403
2026-01-13 12:03:44.45	34.71	6.34	-39.3	-40.4	20.8	0.00e+00	0	28	0	150994944	52	6031
2026-01-13 12:03:45.46	34.84	6.39	-39.5	-40.7	20.7	0.00e+00	92	28	0	153092096	52	6209
2026-01-13 12:03:46.47	34.97	6.43	-39.5	-40.8	20.7	0.00e+00	0	28	0	155189248	52	6263
2026-01-13 12:03:47.48	35.10	6.48	-39.6	-40.8	20.7	0.00e+00	92	28	0	157286400	52	6275
2026-01-13 12:03:48.49	35.23	6.52	-39.5	-40.7	20.6	0.00e+00	0	28	0	159383552	52	6238
2026-01-13 12:03:49.50	35.36	6.56	-39.6	-40.8	20.7	0.00e+00	0	28	0	160432128	52	6295
2026-01-13 12:03:50.51	35.49	6.61	-39.6	-40.8	20.6	0.00e+00	0	28	0	162529280	52	6280
2026-01-13 12:03:51.52	35.63	6.65	-39.5	-40.8	20.6	0.00e+00	0	28	0	164626432	52	6265
2026-01-13 12:03:52.53	35.76	6.69	-39.4	-40.6	20.8	0.00e+00	27	28	0	166723584	52	6118
2026-01-13 12:03:53.54	35.89	6.74	-39.5	-40.8	20.7	0.00e+00	0	28	0	168820736	52	6281
2026-01-13 12:03:54.54	36.02	6.78	-39.6	-40.8	20.6	0.00e+00	92	28	0	169869312	52	6291
2026-01-13 12:03:55.55	36.16	6.82	-39.6	-40.8	20.7	0.00e+00	0	28	0	171966464	52	6314
2026-01-13 12:03:56.56	36.29	6.87	-39.6	-40.9	20.5	0.00e+00	0	28	0	174063616	52	6361
2026-01-13 12:03:57.57	36.43	6.91	-39.7	-40.9	20.6	0.00e+00	0	28	0	176160768	52	6373
2026-01-13 12:03:58.58	36.56	6.95	-39.5	-40.7	20.7	0.00e+00	0	28	0	178257920	52	6206
2026-01-13 12:03:59.59	36.70	7.00	-39.4	-40.6	20.7	0.00e+00	32	28	0	179306496	52	6110
2026-01-13 12:04:00.60	36.83	7.04	-39.5	-40.7	20.8	0.00e+00	0	28	0	181403648	52	6197
2026-01-13 12:04:01.61	36.97	7.08	-39.4	-40.7	20.8	0.00e+00	92	28	0	183500800	52	6178
2026-01-13 12:04:02.62	37.10	7.12	-39.5	-40.7	20.9	0.00e+00	0	28	0	185597952	52	6180
2026-01-13 12:04:03.63	37.24	7.17	-39.4	-40.6	20.9	0.00e+00	0	28	0	187695104	52	6114
2026-01-13 12:04:04.64	37.38	7.21	-39.4	-40.6	20.9	0.00e+00	0	28	0	188743680	52	6140
2026-01-13 12:04:05.65	37.52	7.25	-39.2	-40.4	21.0	0.00e+00	0	28	0	190840832	52	6008
2026-01-13 12:04:06.66	37.65	7.30	-39.3	-40.5	20.9	0.00e+00	27	28	0	192937984	52	6098
2026-01-13 12:04:07.67	37.79	7.34	-39.4	-40.7	20.8	0.00e+00	0	28	0	195035136	52	6178
2026-01-13 12:04:08.68	37.93	7.38	-39.4	-40.7	20.9	0.00e+00	92	28	0	197132288	52	6178
2026-01-13 12:04:09.68	38.07	7.42	-39.5	-40.8	20.6	0.00e+00	0	28	0	199229440	52	6253
2026-01-13 12:04:10.70	38.21	7.47	-39.5	-40.8	20.7	0.00e+00	81	28	0	200278016	52	6247
2026-01-13 12:04:11.70	38.35	7.51	-39.6	-40.8	20.6	0.00e+00	0	28	0	202375168	52	6288
2026-01-13 12:04:12.71	38.49	7.55	-39.6	-40.9	20.6	0.00e+00	0	28	0	204472320	52	6362
2026-01-13 12:04:13.72	38.63	7.59	-39.4	-40.6	20.9	0.00e+00	32	28	0	206569472	52	6171
2026-01-13 12:04:14.73	38.77	7.63	-39.5	-40.7	21.0	0.00e+00	0	28	0	208666624	52	6189
2026-01-13 12:04:15.74	38.91	7.68	-39.4	-40.7	20.8	0.00e+00	91	28	0	209715200	52	6183
2026-01-13 12:04:16.75	39.05	7.72	-39.4	-40.7	21.0	0.00e+00	0	28	0	211812352	52	6175
2026-01-13 12:04:17.76	39.20	7.76	-39.2	-40.4	21.0	0.00e+00	81	28	0	213909504	52	6002
2026-01-13 12:04:18.77	39.34	7.80	-39.4	-40.6	20.9	0.00e+00	0	28	0	216006656	52	6161
2026-01-13 12:04:19.78	39.48	7.84	-39.6	-40.9	20.8	0.00e+00	0	28	0	217055232	52	6340
2026-01-13 12:04:20.79	39.63	7.89	-39.7	-41.0	20.6	0.00e+00	0	28	0	219152384	52	6392
2026-01-13 12:04:21.80	39.77	7.93	-39.6	-40.9	20.7	0.00e+00	0	28	0	221249536	52	6318
2026-01-13 12:04:22.81	39.91	7.97	-39.8	-41.1	20.6	0.00e+00	32	28	0	223346688	52	6510
2026-01-13 12:04:23.82	40.06	8.01	-39.7	-41.0	20.6	0.00e+00	0	28	0	225443840	52	6431
2026-01-13 12:04:24.83	40.20	8.05	-39.9	-41.2	20.5	0.00e+00	92	28	0	227540992	52	6575
2026-01-13 12:04:25.84	40.35	8.09	-39.6	-40.9	20.7	0.00e+00	0	28	0	228589568	52	6352
2026-01-13 12:04:26.85	40.50	8.13	-39.6	-40.8	20.8	0.00e+00	0	28	0	230686720	52	6306
2026-01-13 12:04:27.86	40.64	8.17	-39.5	-40.7	20.8	0.00e+00	0	28	0	232783872	52	6227
2026-01-13 12:04:28.87	40.79	8.22	-39.4	-40.6	20.9	0.00e+00	0	28	0	234881024	52	6169
2026-01-13 12:04:29.88	40.94	8.26	-39.5	-40.7	20.9	0.00e+00	33	28	0	236978176	52	6188
2026-01-13 12:04:30.89	41.08	8.30	-39.6	-40.8	20.7	0.00e+00	0	28	0	238026752	52	6286
2026-01-13 12:04:31.90	41.23	8.34	-39.7	-41.0	20.6	0.00e+00	45	28	0	240123904	52	6396
2026-01-13 12:04:32.91	41.38	8.38	-39.7	-41.0	20.6	0.00e+00	0	28	0	242221056	52	6395
2026-01-13 12:04:33.92	41.53	8.42	-39.8	-41.1	20.5	0.00e+00	0	28	0	244318208	52	6520
2026-01-13 12:04:34.93	41.68	8.46	-40.1	-41.5	20.1	0.00e+00	0	28	0	246415360	52	6771
2026-01-13 12:04:35.94	41.83	8.50	-40.2	-41.6	20.1	0.00e+00	0	28	0	247463936	52	6866
2026-01-13 12:04:36.95	41.98	8.54	-40.1	-41.5	20.3	0.00e+00	39	28	0	249561088	52	6787
2026-01-13 12:04:37.96	42.13	8.58	-40.1	-41.4	20.2	0.00e+00	0	28	0	251658240	52	6736
2026-01-13 12:04:38.96	42.28	8.62	-40.1	-41.5	20.2	0.00e+00	71	28	0	253755392	52	6789
2026-01-13 12:04:39.97	42.43	8.66	-40.1	-41.4	20.4	0.00e+00	0	28	0	255852544	52	6723
2026-01-13 12:04:40.98	42.58	8.70	-39.8	-41.0	20.7	0.00e+00	0	28	0	256901120	52	6442
2026-01-13 12:04:41.99	42.73	8.74	-39.8	-41.0	20.6	0.00e+00	0	28	0	258998272	52	6432
2026-01-13 12:04:43.00	42.88	8.78	-39.7	-41.0	20.7	0.00e+00	0	28	0	261095424	52	6394
2026-01-13 12:04:44.01	43.04	8.82	-39.7	-40.9	20.7	0.00e+00	0	28	0	263192576	52	6381
2026-01-13 12:04:45.01	43.19	8.86	-39.8	-41.0	20.7	0.00e+00	0	28	0	265289728	52	6430
2026-01-13 12:04:46.02	43.34	8.90	-39.7	-40.9	20.7	0.00e+00	4	28	0	266338304	52	6369
2026-01-13 12:04:47.03	43.49	8.93	-39.7	-40.9	20.8	0.00e+00	0	28	0	268435456	52	6340
2026-01-13 12:04:48.04	43.65	8.97	-39.8	-41.1	20.8	0.00e+00	57	28	0	270532608	52	6508
2026-01-13 12:04:49.05	43.80	9.01	-39.9	-41.2	20.4	0.00e+00	0	28	0	272629760	52	6576
2026-01-13 12:04:50.06	43.96	9.05	-39.9	-41.2	20.4	0.00e+00	0	28	0	274726912	52	6575
2026-01-13 12:04:51.07	44.11	9.09	-40.2	-41.5	20.3	0.00e+00	0	28	0	275775488	52	6800
2026-01-13 12:04:52.08	44.27	9.13	-40.2	-41.5	20.1	0.00e+00	0	28	0	277872640	52	6828
2026-01-13 12:04:53.09	44.43	9.17	-40.3	-41.6	20.2	0.00e+00	46	28	0	279969792	52	6923
2026-01-13 12:04:54.10	44.58	9.20	-40.3	-41.7	20.1	0.00e+00	0	28	0	282066944	52	6932
2026-01-13 12:04:55.11	44.74	9.24	-40.1	-41.4	20.2	0.00e+00	92	28	0	284164096	52	6766
2026-01-13 12:04:56.11	44.90	9.28	-40.2	-41.5	20.2	0.00e+00	0	28	0	285212672	52	6822
2026-01-13 12:04:57.12	45.05	9.32	-40.4	-41.7	20.1	0.00e+00	0	28	0	287309824	52	6975
2026-01-13 12:04:58.13	45.21	9.36	-40.3	-41.7	20.0	0.00e+00	0	28	0	289406976	52	6944
2026-01-13 12:04:59.14	45.37	9.39	-40.3	-41.6	20.2	0.00e+00	33	28	0	291504128	52	6922
2026-01-13 12:05:00.15	45.53	9.43	-40.3	-41.7	20.1	0.00e+00	36	28	0	293601280	52	6945
2026-01-13 12:05:01.16	45.69	9.47	-40.3	-41.7	20.1	0.00e+00	0	28	0	295698432	52	6955
2026-01-13 12:05:02.17	45.85	9.51	-40.4	-41.8	20.0	0.00e+00	89	28	0	296747008	52	7064
2026-01-13 12:05:03.18	46.01	9.54	-40.6	-42.0	19.9	0.00e+00	0	28	0	298844160	52	7180
2026-01-13 12:05:04.19	46.17	9.58	-40.2	-41.5	20.2	0.00e+00	0	28	0	300941312	52	6811
2026-01-13 12:05:05.20	46.33	9.62	-40.8	-42.2	19.7	0.00e+00	0	28	0	303038464	52	7390
2026-01-13 12:05:06.21	46.49	9.65	-40.5	-41.9	19.8	0.00e+00	0	28	0	305135616	54	6384
2026-01-13 12:05:07.21	46.65	9.69	-40.3	-41.7	20.1	0.00e+00	27	28	0	306184192	54	6209
2026-01-13 12:05:08.23	46.82	9.73	-40.3	-41.6	20.2	0.00e+00	0	28	0	308281344	54	6150
2026-01-13 12:05:09.24	46.98	9.76	-40.2	-41.5	20.2	0.00e+00	92	28	0	310378496	54	6067
2026-01-13 12:05:10.25	47.14	9.80	-40.1	-41.4	20.3	0.00e+00	0	28	0	312475648	54	5968
2026-01-13 12:05:11.25	47.30	9.83	-40.0	-41.2	20.2	0.00e+00	0	28	0	314572800	54	5886
2026-01-13 12:05:12.26	47.47	9.87	-39.7	-41.0	20.8	0.00e+00	0	28	0	315621376	52	6403
2026-01-13 12:05:13.27	47.63	9.90	-39.7	-40.9	20.8	0.00e+00	0	28	0	317718528	52	6369
2026-01-13 12:05:14.28	47.80	9.94	-39.7	-41.0	20.7	0.00e+00	6	28	0	319815680	52	6400
2026-01-13 12:05:15.29	47.96	9.98	-39.6	-40.8	20.9	0.00e+00	0	28	0	321912832	52	6309
2026-01-13 12:05:16.30	48.13	10.01	-39.7	-40.9	20.8	0.00e+00	90	28	0	324009984	52	6386
2026-01-13 12:05:17.31	48.29	10.05	-39.9	-41.2	20.5	0.00e+00	0	28	0	325058560	52	6591
2026-01-13 12:05:18.32	48.46	10.08	-39.9	-41.1	20.7	0.00e+00	0	28	0	327155712	52	6516
2026-01-13 12:05:19.32	48.62	10.11	-39.9	-41.2	20.5	0.00e+00	0	28	0	329252864	52	6554
2026-01-13 12:05:20.33	48.79	10.15	-39.9	-41.2	20.6	0.00e+00	0	28	0	331350016	52	6572
2026-01-13 12:05:21.34	48.96	10.18	-40.0	-41.2	20.6	0.00e+00	0	28	0	333447168	52	6604
2026-01-13 12:05:22.35	49.12	10.22	-39.9	-41.1	20.6	0.00e+00	0	28	0	334495744	52	6528
2026-01-13 12:05:23.36	49.29	10.25	-39.7	-40.9	20.9	0.00e+00	32	28	0	336592896	52	6363
2026-01-13 12:05:24.37	49.46	10.29	-39.5	-40.7	21.0	0.00e+00	0	28	0	338690048	52	6179
2026-01-13 12:05:25.38	49.63	10.32	-39.2	-40.4	21.3	0.00e+00	92	28	0	340787200	52	5996
2026-01-13 12:05:26.39	49.80	10.35	-39.3	-40.5	21.2	0.00e+00	0	28	0	342884352	52	6076
2026-01-13 12:05:27.40	49.97	10.39	-39.2	-40.4	21.3	0.00e+00	0	28	0	343932928	52	6000
2026-01-13 12:05:28.41	50.14	10.42	-39.2	-40.4	21.2	0.00e+00	0	28	0	346030080	52	5991
2026-01-13 12:05:29.42	50.31	10.45	-39.1	-40.3	21.3	0.00e+00	0	28	0	348127232	52	5909
2026-01-13 12:05:30.43	50.48	10.49	-39.2	-40.4	21.3	0.00e+00	47	28	0	350224384	52	6000
2026-01-13 12:05:31.43	50.65	10.52	-39.4	-40.5	21.1	0.00e+00	0	28	0	352321536	52	6094
2026-01-13 12:05:32.44	50.82	10.55	-39.6	-40.8	21.0	0.00e+00	90	28	0	353370112	52	6263
2026-01-13 12:05:33.45	50.99	10.58	-39.6	-40.9	20.9	0.00e+00	0	28	0	355467264	52	6335
2026-01-13 12:05:34.46	51.16	10.61	-39.7	-40.9	20.9	0.00e+00	0	28	0	357564416	52	6334
2026-01-13 12:05:35.47	51.34	10.65	-39.8	-41.0	20.8	0.00e+00	0	28	0	359661568	52	6451
2026-01-13 12:05:36.48	51.51	10.68	-39.8	-41.0	20.7	0.00e+00	0	28	0	361758720	52	6419
2026-01-13 12:05:37.49	51.68	10.71	-39.6	-40.9	20.9	0.00e+00	43	28	0	363855872	52	6326
2026-01-13 12:05:38.49	51.85	10.74	-39.9	-41.1	20.7	0.00e+00	0	28	0	364904448	52	6498
2026-01-13 12:05:39.51	52.03	10.77	-39.7	-40.9	20.8	0.00e+00	92	28	0	367001600	52	6385
2026-01-13 12:05:40.51	52.20	10.80	-39.8	-41.1	20.8	0.00e+00	0	28	0	369098752	52	6474
2026-01-13 12:05:41.52	52.38	10.83	-39.9	-41.1	20.7	0.00e+00	0	28	0	371195904	52	6537
2026-01-13 12:05:42.53	52.55	10.86	-39.6	-40.8	20.9	0.00e+00	0	28	0	373293056	52	6256
2026-01-13 12:05:43.54	52.73	10.89	-39.7	-40.9	20.9	0.00e+00	0	28	0	374341632	52	6343
2026-01-13 12:05:44.55	52.90	10.92	-39.6	-40.8	20.9	0.00e+00	33	28	0	376438784	52	6269
2026-01-13 12:05:45.56	53.08	10.95	-39.6	-40.8	20.8	0.00e+00	0	28	0	378535936	52	6265
2026-01-13 12:05:46.57	53.25	10.98	-39.3	-40.5	21.3	0.00e+00	58	28	0	380633088	52	6035
2026-01-13 12:05:47.58	53.43	11.01	-39.2	-40.4	21.2	0.00e+00	0	28	0	382730240	52	5982
2026-01-13 12:05:48.59	53.61	11.04	-39.2	-40.4	21.3	0.00e+00	7	28	0	383778816	52	5976
2026-01-13 12:05:49.60	53.79	11.07	-38.9	-40.0	21.6	0.00e+00	0	28	0	385875968	52	5732
2026-01-13 12:05:50.61	53.96	11.10	-39.0	-40.1	21.5	0.00e+00	0	28	0	387973120	52	5820
2026-01-13 12:05:51.62	54.14	11.13	-38.9	-40.0	21.6	0.00e+00	0	28	0	390070272	52	5700
2026-01-13 12:05:52.63	54.32	11.16	-39.2	-40.3	21.4	0.00e+00	0	28	0	392167424	52	5960
2026-01-13 12:05:53.64	54.50	11.19	-39.3	-40.4	21.3	0.00e+00	40	28	0	393216000	52	6015
2026-01-13 12:05:54.65	54.68	11.21	-39.6	-40.8	21.0	0.00e+00	0	28	0	395313152	52	6288
2026-01-13 12:05:55.65	54.86	11.24	-39.7	-40.9	20.9	0.00e+00	36	28	0	397410304	52	6374
2026-01-13 12:05:56.66	55.04	11.27	-39.8	-41.0	20.9	0.00e+00	0	28	0	399507456	52	6429
2026-01-13 12:05:57.67	55.22	11.30	-40.0	-41.3	20.5	0.00e+00	0	28	0	401604608	52	6640
2026-01-13 12:05:58.68	55.40	11.32	-39.9	-41.1	20.7	0.00e+00	33	28	0	402653184	52	6526
2026-01-13 12:05:59.69	55.58	11.35	-39.6	-40.8	21.0	0.00e+00	0	28	0	404750336	52	6290
2026-01-13 12:06:00.70	55.76	11.38	-39.3	-40.4	21.3	0.00e+00	31	28	0	406847488	52	6002
2026-01-13 12:06:01.71	55.94	11.40	-39.1	-40.2	21.0	0.00e+00	0	28	0	408944640	52	5859
2026-01-13 12:06:02.72	56.12	11.43	-39.1	-40.3	21.4	0.00e+00	91	28	0	411041792	52	5903
2026-01-13 12:06:03.73	56.30	11.46	-38.8	-39.9	21.8	0.00e+00	0	28	0	412090368	52	5660
2026-01-13 12:06:04.74	56.49	11.48	-38.9	-40.0	21.6	0.00e+00	0	28	0	414187520	50	6463
2026-01-13 12:06:05.75	56.67	11.51	-39.0	-40.1	21.5	0.00e+00	0	28	0	416284672	50	6475
2026-01-13 12:06:06.76	56.85	11.53	-39.3	-40.4	21.3	0.00e+00	0	28	0	418381824	50	6761
2026-01-13 12:06:07.77	57.03	11.56	-39.5	-40.7	21.1	0.00e+00	34	28	0	420478976	50	6938
2026-01-13 12:06:08.78	57.22	11.58	-39.2	-40.4	21.3	0.00e+00	0	28	0	421527552	50	6712
2026-01-13 12:06:09.79	57.40	11.61	-39.0	-40.1	21.6	0.00e+00	84	28	0	423624704	50	6525
2026-01-13 12:06:10.80	57.59	11.63	-38.9	-40.0	21.7	0.00e+00	0	28	0	425721856	50	6411
2026-01-13 12:06:11.81	57.77	11.66	-38.6	-39.6	22.0	0.00e+00	0	28	0	427819008	50	6140
2026-01-13 12:06:12.82	57.96	11.68	-38.2	-39.2	22.3	0.00e+00	0	28	0	429916160	50	5866
2026-01-13 12:06:13.83	58.14	11.71	-38.2	-39.2	22.2	0.00e+00	0	28	0	430964736	50	5883
2026-01-13 12:06:14.84	58.33	11.73	-38.4	-39.4	22.1	0.00e+00	36	28	0	433061888	50	6013
2026-01-13 12:06:15.85	58.51	11.75	-38.5	-39.6	22.0	0.00e+00	0	28	0	435159040	50	6127
2026-01-13 12:06:16.86	58.70	11.78	-39.0	-40.1	21.5	0.00e+00	82	28	0	437256192	50	6524
2026-01-13 12:06:17.86	58.88	11.80	-39.2	-40.4	21.3	0.00e+00	0	28	0	439353344	50	6703
2026-01-13 12:06:18.87	59.07	11.82	-39.3	-40.5	21.3	0.00e+00	0	28	0	440401920	50	6779
2026-01-13 12:06:19.89	59.26	11.84	-39.3	-40.4	21.3	0.00e+00	0	28	0	442499072	50	6746
2026-01-13 12:06:20.90	59.45	11.86	-39.3	-40.4	21.4	0.00e+00	0	28	0	444596224	50	6762
2026-01-13 12:06:21.91	59.63	11.89	-38.9	-40.0	21.6	0.00e+00	5	28	0	446693376	50	6428
2026-01-13 12:06:22.92	59.82	11.91	-39.0	-40.1	21.5	0.00e+00	0	28	0	448790528	50	6537
2026-01-13 12:06:23.93	60.01	11.93	-39.4	-40.5	21.2	0.00e+00	73	28	0	449839104	50	6837
2026-01-13 12:06:24.93	60.19	11.95	-39.8	-41.0	20.8	0.00e+00	0	28	0	451936256	52	6446
2026-01-13 12:06:25.94	60.38	11.97	-40.3	-41.7	20.3	0.00e+00	0	28	0	454033408	52	6957
2026-01-13 12:06:26.95	60.57	11.99	-40.8	-42.2	19.7	0.00e+00	0	28	0	456130560	52	7369
2026-01-13 12:06:27.96	60.76	12.01	-40.9	-42.3	19.6	0.00e+00	0	28	0	458227712	54	6671
2026-01-13 12:06:28.97	60.95	12.03	-40.7	-42.1	19.9	0.00e+00	9	28	0	460324864	54	6493
2026-01-13 12:06:29.98	61.14	12.05	-40.3	-41.6	20.2	0.00e+00	0	28	0	461373440	54	6169
2026-01-13 12:06:30.99	61.33	12.07	-40.0	-41.3	20.7	0.00e+00	40	28	0	463470592	54	5905
2026-01-13 12:06:32.00	61.52	12.09	-39.5	-40.7	20.8	0.00e+00	0	28	0	465567744	52	6226
2026-01-13 12:06:33.01	61.71	12.11	-39.5	-40.6	21.1	0.00e+00	56	28	0	467664896	52	6146
2026-01-13 12:06:34.02	61.90	12.13	-39.4	-40.5	21.2	0.00e+00	0	28	0	469762048	52	6099
2026-01-13 12:06:35.03	62.09	12.15	-39.7	-40.9	20.9	0.00e+00	0	28	0	470810624	52	6337
2026-01-13 12:06:36.04	62.28	12.16	-39.9	-41.1	20.7	0.00e+00	0	28	0	472907776	52	6505
2026-01-13 12:06:37.05	62.47	12.18	-40.2	-41.5	20.4	0.00e+00	0	28	0	475004928	52	6845
2026-01-13 12:06:38.05	62.66	12.20	-40.4	-41.7	20.2	0.00e+00	92	28	0	477102080	52	6983
2026-01-13 12:06:39.06	62.85	12.22	-40.4	-41.7	20.1	0.00e+00	0	28	0	479199232	52	6987
2026-01-13 12:06:40.07	63.05	12.23	-40.3	-41.6	20.5	0.00e+00	36	28	0	480247808	52	6855
2026-01-13 12:06:41.08	63.24	12.25	-40.1	-41.3	20.5	0.00e+00	0	28	0	482344960	52	6672
2026-01-13 12:06:42.09	63.43	12.27	-40.0	-41.2	20.6	0.00e+00	0	28	0	484442112	52	6586
2026-01-13 12:06:43.10	63.62	12.28	-40.1	-41.4	20.6	0.00e+00	29	28	0	486539264	52	6722
2026-01-13 12:06:44.11	63.81	12.30	-40.3	-41.6	20.2	0.00e+00	0	28	0	488636416	52	6926
2026-01-13 12:06:45.12	64.01	12.31	-40.5	-41.9	20.0	0.00e+00	35	28	0	489684992	52	7096
2026-01-13 12:06:46.12	64.20	12.33	-41.0	-42.5	19.5	0.00e+00	30	28	0	491782144	54	6828
2026-01-13 12:06:47.13	64.39	12.34	-40.9	-42.4	19.5	0.00e+00	90	28	0	493879296	54	6762
2026-01-13 12:06:48.14	64.59	12.36	-41.0	-42.5	19.5	0.00e+00	0	28	0	495976448	54	6817
2026-01-13 12:06:49.15	64.78	12.37	-40.7	-42.1	19.8	0.00e+00	0	28	0	498073600	54	6502
2026-01-13 12:06:50.16	64.97	12.39	-40.4	-41.8	20.2	0.00e+00	30	28	0	499122176	54	6260
2026-01-13 12:06:51.17	65.17	12.40	-40.0	-41.3	20.5	0.00e+00	0	28	0	501219328	54	5928
2026-01-13 12:06:52.18	65.36	12.41	-39.8	-41.1	20.8	0.00e+00	29	28	0	503316480	54	5767
2026-01-13 12:06:53.18	65.55	12.43	-39.9	-41.2	20.5	0.00e+00	0	28	0	505413632	52	6558
2026-01-13 12:06:54.19	65.75	12.44	-40.1	-41.3	20.6	0.00e+00	92	28	0	507510784	52	6683
2026-01-13 12:06:55.20	65.94	12.45	-39.6	-40.8	21.0	0.00e+00	0	28	0	508559360	52	6295
2026-01-13 12:06:56.21	66.14	12.47	-40.0	-41.3	20.5	0.00e+00	90	28	0	510656512	52	6619
2026-01-13 12:06:57.22	66.33	12.48	-39.8	-41.1	20.7	0.00e+00	0	28	0	512753664	52	6490
2026-01-13 12:06:58.23	66.53	12.49	-39.7	-40.9	20.9	0.00e+00	0	28	0	514850816	52	6347
2026-01-13 12:06:59.24	66.72	12.50	-39.4	-40.6	21.2	0.00e+00	23	28	0	516947968	52	6106
2026-01-13 12:07:00.25	66.92	12.51	-39.2	-40.4	21.3	0.00e+00	0	28	0	517996544	52	5965
2026-01-13 12:07:01.26	67.11	12.52	-38.8	-39.9	21.7	0.00e+00	27	28	0	520093696	52	5666
2026-01-13 12:07:02.27	67.31	12.53	-38.6	-39.7	22.0	0.00e+00	0	28	0	522190848	50	6189
2026-01-13 12:07:03.28	67.51	12.54	-38.5	-39.5	22.1	0.00e+00	9	28	0	524288000	50	6096
2026-01-13 12:07:04.29	67.70	12.55	-38.4	-39.5	22.1	0.00e+00	0	28	0	526385152	50	6064
2026-01-13 12:07:05.30	67.90	12.56	-38.4	-39.4	22.2	0.00e+00	0	28	0	528482304	50	6021
2026-01-13 12:07:06.31	68.09	12.57	-38.4	-39.4	22.2	0.00e+00	36	28	0	529530880	50	6022
2026-01-13 12:07:07.32	68.29	12.58	-38.5	-39.5	22.2	0.00e+00	0	28	0	531628032	50	6091
2026-01-13 12:07:08.33	68.49	12.59	-38.5	-39.5	22.0	0.00e+00	92	28	0	533725184	50	6097
2026-01-13 12:07:09.34	68.68	12.60	-38.4	-39.4	22.1	0.00e+00	0	28	0	535822336	50	6024
2026-01-13 12:07:10.35	68.88	12.61	-38.1	-39.1	22.4	0.00e+00	92	28	0	537919488	50	5803
2026-01-13 12:07:11.36	69.08	12.62	-38.5	-39.5	22.0	0.00e+00	0	28	0	538968064	50	6078
2026-01-13 12:07:12.36	69.27	12.62	-38.5	-39.5	22.1	0.00e+00	0	28	0	541065216	50	6088
2026-01-13 12:07:13.37	69.47	12.63	-38.5	-39.5	22.1	0.00e+00	0	28	0	543162368	50	6077
2026-01-13 12:07:14.38	69.67	12.64	-38.6	-39.7	21.9	0.00e+00	0	28	0	545259520	50	6213
2026-01-13 12:07:15.39	69.86	12.65	-38.7	-39.8	21.8	0.00e+00	23	28	0	547356672	50	6298
2026-01-13 12:07:16.40	70.06	12.65	-38.7	-39.8	21.8	0.00e+00	0	28	0	548405248	50	6295
2026-01-13 12:07:17.41	70.26	12.66	-38.8	-39.9	21.7	0.00e+00	92	28	0	550502400	50	6376
2026-01-13 12:07:18.42	70.46	12.66	-38.6	-39.7	22.0	0.00e+00	0	28	0	552599552	50	6211
2026-01-13 12:07:19.43	70.65	12.67	-38.4	-39.4	22.2	0.00e+00	0	28	0	554696704	50	6018
2026-01-13 12:07:20.44	70.85	12.67	-38.3	-39.3	22.3	0.00e+00	0	28	0	556793856	50	5940
2026-01-13 12:07:21.45	71.05	12.68	-38.3	-39.4	22.1	0.00e+00	0	28	0	557842432	50	5966
2026-01-13 12:07:22.46	71.25	12.68	-38.3	-39.4	22.1	0.00e+00	27	28	0	559939584	50	5990
2026-01-13 12:07:23.47	71.45	12.69	-38.5	-39.5	22.0	0.00e+00	0	28	0	562036736	50	6084
2026-01-13 12:07:24.48	71.64	12.69	-38.5	-39.6	21.9	0.00e+00	92	28	0	564133888	50	6152
2026-01-13 12:07:25.49	71.84	12.70	-38.6	-39.7	22.0	0.00e+00	0	28	0	566231040	50	6199
2026-01-13 12:07:26.49	72.04	12.70	-38.6	-39.7	21.9	0.00e+00	0	28	0	567279616	50	6236
2026-01-13 12:07:27.50	72.24	12.70	-38.4	-39.5	22.1	0.00e+00	0	28	0	569376768	50	6070
2026-01-13 12:07:28.51	72.43	12.70	-38.6	-39.7	21.9	0.00e+00	0	28	0	571473920	50	6197
2026-01-13 12:07:29.52	72.63	12.71	-38.3	-39.3	22.2	0.00e+00	0	28	0	573571072	50	5951
2026-01-13 12:07:30.53	72.83	12.71	-38.2	-39.3	22.2	0.00e+00	0	28	0	575668224	50	5956
2026-01-13 12:07:31.54	73.03	12.71	-38.4	-39.6	22.1	0.00e+00	82	28	0	576716800	50	6112
2026-01-13 12:07:32.55	73.23	12.71	-38.5	-39.6	22.0	0.00e+00	0	28	0	578813952	50	6147
2026-01-13 12:07:33.56	73.42	12.71	-38.6	-39.7	21.9	0.00e+00	5	28	0	580911104	50	6204
2026-01-13 12:07:34.57	73.62	12.71	-38.5	-39.6	22.0	0.00e+00	0	28	0	583008256	50	6155
2026-01-13 12:07:35.58	73.82	12.72	-38.5	-39.6	22.1	0.00e+00	0	28	0	585105408	50	6107
2026-01-13 12:07:36.59	74.02	12.72	-38.2	-39.2	22.2	0.00e+00	31	28	0	586153984	50	5889
2026-01-13 12:07:37.60	74.22	12.72	-38.2	-39.3	22.3	0.00e+00	0	28	0	588251136	50	5933
2026-01-13 12:07:38.61	74.42	12.72	-38.2	-39.3	22.3	0.00e+00	92	28	0	590348288	50	5901
2026-01-13 12:07:39.62	74.61	12.71	-38.3	-39.4	22.2	0.00e+00	0	28	0	592445440	50	5999
2026-01-13 12:07:40.62	74.81	12.71	-38.5	-39.6	22.0	0.00e+00	92	28	0	594542592	50	6105
2026-01-13 12:07:41.63	75.01	12.71	-38.5	-39.6	22.0	0.00e+00	2	28	0	596639744	50	6155
2026-01-13 12:07:42.64	75.21	12.71	-38.6	-39.7	21.9	0.00e+00	0	28	0	597688320	50	6220
2026-01-13 12:07:43.65	75.41	12.71	-38.4	-39.5	22.1	0.00e+00	0	28	0	599785472	50	6076
2026-01-13 12:07:44.66	75.60	12.71	-38.3	-39.4	22.2	0.00e+00	0	28	0	601882624	50	5993
2026-01-13 12:07:45.67	75.80	12.70	-37.9	-39.0	22.5	0.00e+00	29	28	0	603979776	50	5697
2026-01-13 12:07:46.68	76.00	12.70	-37.6	-38.6	22.8	0.00e+00	0	28	0	606076928	48	6155
2026-01-13 12:07:47.69	76.20	12.70	-37.5	-38.5	22.8	0.00e+00	92	28	0	607125504	48	6040
2026-01-13 12:07:48.70	76.40	12.69	-37.3	-38.3	23.0	0.00e+00	0	28	0	609222656	48	5905
2026-01-13 12:07:49.71	76.59	12.69	-37.3	-38.2	23.1	0.00e+00	0	28	0	611319808	48	5872
2026-01-13 12:07:50.72	76.79	12.69	-37.2	-38.2	23.1	0.00e+00	0	28	0	613416960	48	5830
2026-01-13 12:07:51.73	76.99	12.68	-37.3	-38.2	23.1	0.00e+00	0	28	0	615514112	48	5883
2026-01-13 12:07:52.74	77.19	12.68	-37.5	-38.5	22.9	0.00e+00	87	28	0	616562688	48	6037
2026-01-13 12:07:53.75	77.39	12.67	-37.5	-38.4	22.8	0.00e+00	0	28	0	618659840	48	6016
2026-01-13 12:07:54.76	77.58	12.67	-37.3	-38.3	23.0	0.00e+00	92	28	0	620756992	48	5929
2026-01-13 12:07:55.77	77.78	12.66	-37.3	-38.3	22.8	0.00e+00	0	28	0	622854144	48	5910
2026-01-13 12:07:56.78	77.98	12.66	-37.3	-38.3	22.3	0.00e+00	0	28	0	624951296	48	5900
2026-01-13 12:07:57.78	78.18	12.65	-37.2	-38.2	23.1	0.00e+00	0	28	0	625999872	48	5830
2026-01-13 12:07:58.80	78.37	12.64	-37.2	-38.2	23.0	0.00e+00	0	28	0	628097024	48	5840
2026-01-13 12:07:59.80	78.57	12.64	-37.5	-38.4	22.9	0.00e+00	25	28	0	630194176	48	6028
2026-01-13 12:08:00.81	78.77	12.63	-37.7	-38.7	22.7	0.00e+00	0	28	0	632291328	48	6176
2026-01-13 12:08:01.82	78.96	12.62	-37.7	-38.7	22.6	0.00e+00	92	28	0	634388480	48	6245
2026-01-13 12:08:02.82	79.16	12.61	-37.9	-38.9	22.5	0.00e+00	0	28	0	635437056	48	6362
2026-01-13 12:08:03.83	79.36	12.61	-37.9	-38.9	22.5	0.00e+00	0	28	0	637534208	48	6390
2026-01-13 12:08:04.84	79.55	12.60	-37.9	-38.9	22.6	0.00e+00	0	28	0	639631360	48	6352
2026-01-13 12:08:05.85	79.75	12.59	-37.7	-38.7	22.7	0.00e+00	0	28	0	641728512	48	6190
2026-01-13 12:08:06.86	79.95	12.58	-37.7	-38.7	22.8	0.00e+00	32	28	0	643825664	48	6188
2026-01-13 12:08:07.86	80.14	12.57	-37.5	-38.5	22.9	0.00e+00	0	28	0	644874240	48	6059
2026-01-13 12:08:08.87	80.34	12.56	-37.5	-38.5	22.9	0.00e+00	31	28	0	646971392	48	6039
2026-01-13 12:08:09.88	80.53	12.55	-37.5	-38.4	22.9	0.00e+00	0	28	0	649068544	48	6033
2026-01-13 12:08:10.89	80.73	12.54	-37.7	-38.7	22.6	0.00e+00	20	28	0	651165696	48	6212
2026-01-13 12:08:11.90	80.93	12.53	-37.8	-38.8	22.6	0.00e+00	0	28	0	653262848	48	6308
2026-01-13 12:08:12.91	81.12	12.52	-37.8	-38.7	22.6	0.00e+00	0	28	0	654311424	48	6243
2026-01-13 12:08:13.92	81.32	12.51	-37.9	-39.0	22.5	0.00e+00	25	28	0	656408576	48	6392
2026-01-13 12:08:14.93	81.51	12.50	-37.8	-38.7	22.6	0.00e+00	0	28	0	658505728	48	6245
2026-01-13 12:08:15.94	81.71	12.49	-37.8	-38.8	22.6	0.00e+00	92	28	0	660602880	48	6300
2026-01-13 12:08:16.95	81.91	12.47	-37.8	-38.8	22.7	0.00e+00	0	28	0	662700032	48	6315
2026-01-13 12:08:17.96	82.10	12.46	-37.7	-38.7	22.6	0.00e+00	92	28	0	663748608	48	6215
2026-01-13 12:08:18.97	82.30	12.45	-37.8	-38.8	22.6	0.00e+00	0	28	0	665845760	48	6278
2026-01-13 12:08:19.98	82.49	12.44	-37.4	-38.4	22.8	0.00e+00	0	28	0	667942912	48	5982
2026-01-13 12:08:20.98	82.68	12.42	-37.6	-38.5	22.8	0.00e+00	0	28	0	670040064	48	6084
2026-01-13 12:08:21.99	82.88	12.41	-37.9	-38.9	22.6	0.00e+00	0	28	0	672137216	48	6353
2026-01-13 12:08:23.00	83.07	12.40	-37.8	-38.9	22.5	0.00e+00	56	28	0	673185792	48	6318
2026-01-13 12:08:24.01	83.27	12.38	-37.9	-38.8	22.6	0.00e+00	0	28	0	675282944	48	6316
2026-01-13 12:08:25.02	83.46	12.37	-37.6	-38.6	22.8	0.00e+00	92	28	0	677380096	48	6147
2026-01-13 12:08:26.03	83.66	12.35	-37.7	-38.7	22.6	0.00e+00	0	28	0	679477248	48	6229
2026-01-13 12:08:27.04	83.85	12.34	-37.4	-38.4	23.0	0.00e+00	0	28	0	681574400	48	5995
2026-01-13 12:08:28.05	84.04	12.32	-37.6	-38.6	22.7	0.00e+00	0	28	0	682622976	48	6104
2026-01-13 12:08:29.06	84.24	12.31	-37.4	-38.4	22.6	0.00e+00	0	28	0	684720128	48	5986
2026-01-13 12:08:30.07	84.43	12.29	-37.5	-38.4	23.0	0.00e+00	89	28	0	686817280	48	5992
2026-01-13 12:08:31.08	84.62	12.28	-37.5	-38.4	22.9	0.00e+00	0	28	0	688914432	48	6008
2026-01-13 12:08:32.09	84.81	12.26	-37.5	-38.5	22.9	0.00e+00	83	28	0	691011584	48	6057
2026-01-13 12:08:33.10	85.01	12.24	-37.5	-38.4	23.0	0.00e+00	27	28	0	693108736	48	6009
2026-01-13 12:08:34.11	85.20	12.23	-37.3	-38.2	23.1	0.00e+00	0	28	0	694157312	48	5889
2026-01-13 12:08:35.12	85.39	12.21	-37.4	-38.3	22.8	0.00e+00	0	28	0	696254464	48	5955
2026-01-13 12:08:36.13	85.58	12.19	-37.3	-38.3	23.0	0.00e+00	0	28	0	698351616	48	5905
2026-01-13 12:08:37.14	85.78	12.18	-37.2	-38.1	23.1	0.00e+00	25	28	0	700448768	48	5823
2026-01-13 12:08:38.14	85.96	12.16	-37.3	-38.3	22.9	0.00e+00	0	28	0	702545920	48	5901
2026-01-13 12:08:39.15	86.16	12.14	-37.0	-38.0	23.1	0.00e+00	92	28	0	703594496	48	5701
2026-01-13 12:08:40.16	86.35	12.12	-36.9	-37.8	23.3	0.00e+00	28	28	0	705691648	48	5608
2026-01-13 12:08:41.17	86.54	12.10	-37.0	-37.9	23.2	0.00e+00	90	28	0	707788800	48	5675
2026-01-13 12:08:42.18	86.73	12.08	-36.9	-37.9	23.3	0.00e+00	0	28	0	709885952	48	5646
2026-01-13 12:08:43.19	86.92	12.06	-36.9	-37.9	23.3	0.00e+00	2	28	0	711983104	48	5631
2026-01-13 12:08:44.20	87.11	12.04	-37.1	-38.0	23.2	0.00e+00	33	28	0	713031680	48	5736
2026-01-13 12:08:45.21	87.30	12.02	-37.2	-38.1	23.1	0.00e+00	0	28	0	715128832	48	5823
2026-01-13 12:08:46.22	87.49	12.00	-37.2	-38.1	23.1	0.00e+00	91	28	0	717225984	48	5809
2026-01-13 12:08:47.23	87.68	11.98	-37.1	-38.0	23.2	0.00e+00	0	28	0	719323136	48	5756
2026-01-13 12:08:48.24	87.87	11.96	-37.2	-38.2	23.2	0.00e+00	58	28	0	721420288	48	5835
2026-01-13 12:08:49.24	88.05	11.94	-36.9	-37.8	23.4	0.00e+00	0	28	0	722468864	48	5595
2026-01-13 12:08:50.26	88.24	11.92	-36.9	-37.8	23.4	0.00e+00	0	28	0	724566016	48	5614
2026-01-13 12:08:51.26	88.43	11.90	-36.8	-37.7	23.4	0.00e+00	0	28	0	726663168	46	6210
2026-01-13 12:08:52.28	88.62	11.88	-36.8	-37.7	23.4	0.00e+00	0	28	0	728760320	46	6215
2026-01-13 12:08:53.28	88.81	11.86	-37.0	-37.9	23.3	0.00e+00	81	28	0	730857472	46	6351
2026-01-13 12:08:54.29	88.99	11.84	-36.9	-37.9	23.3	0.00e+00	0	28	0	731906048	46	6341
2026-01-13 12:08:55.30	89.18	11.81	-36.8	-37.8	23.3	0.00e+00	90	28	0	734003200	46	6265
2026-01-13 12:08:56.31	89.37	11.79	-36.9	-37.9	23.2	0.00e+00	0	28	0	736100352	46	6377
2026-01-13 12:08:57.32	89.55	11.77	-37.1	-38.1	23.1	0.00e+00	0	28	0	738197504	46	6498
2026-01-13 12:08:58.33	89.74	11.74	-36.9	-37.9	23.4	0.00e+00	0	28	0	740294656	46	6326
2026-01-13 12:08:59.34	89.93	11.72	-36.9	-37.8	23.5	0.00e+00	0	28	0	741343232	46	6309
2026-01-13 12:09:00.35	90.11	11.70	-36.7	-37.6	23.6	0.00e+00	89	28	0	743440384	46	6119
2026-01-13 12:09:01.36	90.30	11.67	-36.7	-37.6	23.6	0.00e+00	0	28	0	745537536	46	6135
2026-01-13 12:09:02.37	90.48	11.65	-36.7	-37.6	23.5	0.00e+00	92	28	0	747634688	46	6151
2026-01-13 12:09:03.38	90.67	11.62	-36.9	-37.8	23.5	0.00e+00	0	28	0	749731840	46	6253
2026-01-13 12:09:04.39	90.85	11.60	-36.6	-37.5	23.7	0.00e+00	0	28	0	750780416	46	6055
2026-01-13 12:09:05.40	91.04	11.58	-36.7	-37.6	23.6	0.00e+00	0	28	0	752877568	46	6125
2026-01-13 12:09:06.41	91.22	11.55	-36.8	-37.7	23.5	0.00e+00	0	28	0	754974720	46	6202
2026-01-13 12:09:07.42	91.41	11.52	-36.9	-37.8	23.4	0.00e+00	26	28	0	757071872	46	6251
2026-01-13 12:09:08.43	91.59	11.50	-36.8	-37.7	23.3	0.00e+00	0	28	0	759169024	46	6187
2026-01-13 12:09:09.44	91.77	11.47	-36.8	-37.7	23.4	0.00e+00	92	28	0	761266176	46	6196
2026-01-13 12:09:10.45	91.95	11.45	-36.6	-37.5	23.6	0.00e+00	0	28	0	762314752	46	6092
2026-01-13 12:09:11.46	92.14	11.42	-36.8	-37.7	23.4	0.00e+00	0	28	0	764411904	46	6203
2026-01-13 12:09:12.47	92.32	11.39	-36.8	-37.7	23.5	0.00e+00	0	28	0	766509056	46	6222
2026-01-13 12:09:13.48	92.50	11.37	-36.9	-37.8	23.3	0.00e+00	0	28	0	768606208	46	6264
2026-01-13 12:09:14.49	92.68	11.34	-37.0	-37.9	23.3	0.00e+00	23	28	0	770703360	46	6368
2026-01-13 12:09:15.50	92.86	11.31	-36.8	-37.7	23.4	0.00e+00	0	28	0	771751936	46	6222
2026-01-13 12:09:16.51	93.04	11.29	-36.8	-37.7	23.5	0.00e+00	75	28	0	773849088	46	6193
2026-01-13 12:09:17.52	93.23	11.26	-36.8	-37.7	23.4	0.00e+00	0	28	0	775946240	46	6179
2026-01-13 12:09:18.53	93.41	11.23	-36.8	-37.7	23.4	0.00e+00	90	28	0	778043392	46	6216
2026-01-13 12:09:19.54	93.59	11.20	-36.9	-37.8	23.3	0.00e+00	0	28	0	780140544	46	6256
2026-01-13 12:09:20.54	93.76	11.17	-37.0	-37.9	23.2	0.00e+00	0	28	0	781189120	46	6346
2026-01-13 12:09:21.55	93.94	11.15	-37.1	-38.0	23.2	0.00e+00	0	28	0	783286272	46	6423
2026-01-13 12:09:22.56	94.12	11.12	-37.1	-38.0	23.2	0.00e+00	0	28	0	785383424	46	6423
2026-01-13 12:09:23.57	94.30	11.09	-37.4	-38.3	22.9	0.00e+00	24	28	0	787480576	46	6664
2026-01-13 12:09:24.58	94.48	11.06	-37.5	-38.5	22.8	0.00e+00	0	28	0	789577728	46	6789
2026-01-13 12:09:25.59	94.66	11.03	-37.4	-38.4	22.9	0.00e+00	80	28	0	790626304	46	6726
2026-01-13 12:09:26.60	94.83	11.00	-37.6	-38.6	22.8	0.00e+00	0	28	0	792723456	46	6924
2026-01-13 12:09:27.61	95.01	10.97	-37.5	-38.4	22.9	0.00e+00	0	28	0	794820608	46	6752
2026-01-13 12:09:28.62	95.19	10.94	-37.6	-38.6	22.8	0.00e+00	0	28	0	796917760	46	6856
2026-01-13 12:09:29.62	95.36	10.91	-37.7	-38.7	22.5	0.00e+00	0	28	0	799014912	48	6228
2026-01-13 12:09:30.63	95.54	10.88	-38.0	-39.0	22.3	0.00e+00	21	28	0	800063488	48	6428
2026-01-13 12:09:31.64	95.71	10.85	-38.1	-39.2	22.3	0.00e+00	0	28	0	802160640	48	6564
2026-01-13 12:09:32.65	95.89	10.82	-38.3	-39.4	22.1	0.00e+00	92	28	0	804257792	48	6724
2026-01-13 12:09:33.66	96.07	10.79	-38.4	-39.4	22.1	0.00e+00	0	28	0	806354944	48	6745
2026-01-13 12:09:34.67	96.24	10.76	-38.5	-39.5	22.0	0.00e+00	0	28	0	808452096	48	6848
2026-01-13 12:09:35.68	96.41	10.73	-38.4	-39.5	22.0	0.00e+00	0	28	0	809500672	48	6800
2026-01-13 12:09:36.69	96.59	10.69	-38.3	-39.4	22.0	0.00e+00	0	28	0	811597824	48	6718
2026-01-13 12:09:37.70	96.76	10.66	-38.4	-39.5	22.0	0.00e+00	31	28	0	813694976	48	6800
2026-01-13 12:09:38.71	96.94	10.63	-38.5	-39.6	21.9	0.00e+00	0	28	0	815792128	48	6874
2026-01-13 12:09:39.72	97.11	10.60	-38.1	-39.2	22.2	0.00e+00	73	28	0	817889280	48	6547
2026-01-13 12:09:40.74	97.28	10.57	-38.0	-39.1	22.0	0.00e+00	0	28	0	818937856	48	6474
2026-01-13 12:09:41.74	97.45	10.53	-38.1	-39.1	22.1	0.00e+00	0	28	0	821035008	48	6495
2026-01-13 12:09:42.75	97.62	10.50	-38.3	-39.4	21.9	0.00e+00	0	28	0	823132160	48	6737
2026-01-13 12:09:43.76	97.80	10.47	-38.5	-39.6	21.8	0.00e+00	0	28	0	825229312	48	6880
2026-01-13 12:09:44.77	97.97	10.43	-38.9	-40.1	21.3	0.00e+00	36	28	0	827326464	50	6471
2026-01-13 12:09:45.78	98.14	10.40	-38.9	-40.0	21.3	0.00e+00	0	28	0	829423616	50	6439
2026-01-13 12:09:46.79	98.31	10.37	-39.4	-40.6	20.9	0.00e+00	90	28	0	830472192	50	6912
2026-01-13 12:09:47.80	98.48	10.33	-39.4	-40.6	20.9	0.00e+00	0	28	0	832569344	50	6891
2026-01-13 12:09:48.81	98.65	10.30	-39.3	-40.5	21.0	0.00e+00	0	28	0	834666496	50	6848
2026-01-13 12:09:49.82	98.82	10.27	-39.4	-40.7	20.9	0.00e+00	0	28	0	836763648	50	6946
2026-01-13 12:09:50.83	98.99	10.23	-39.2	-40.5	21.1	0.00e+00	0	28	0	837812224	50	6776
2026-01-13 12:09:51.84	99.15	10.20	-39.0	-40.2	21.2	0.00e+00	26	28	0	839909376	50	6570
2026-01-13 12:09:52.85	99.32	10.16	-38.8	-40.0	21.4	0.00e+00	0	28	0	842006528	50	6430
2026-01-13 12:09:53.86	99.49	10.13	-39.0	-40.2	21.3	0.00e+00	91	28	0	844103680	50	6581
2026-01-13 12:09:54.87	99.66	10.09	-39.0	-40.1	21.3	0.00e+00	0	28	0	846200832	50	6509
2026-01-13 12:09:55.88	99.82	10.06	-39.4	-40.6	21.0	0.00e+00	84	28	0	847249408	50	6863
2026-01-13 12:09:56.88	99.99	10.02	-39.5	-40.8	20.8	0.00e+00	0	28	0	849346560	50	7015
2026-01-13 12:09:57.89	100.16	9.99	-39.7	-41.0	20.5	0.00e+00	0	28	0	851443712	50	7210
2026-01-13 12:09:58.90	100.32	9.95	-39.9	-41.2	20.3	0.00e+00	0	28	0	853540864	52	6604
2026-01-13 12:09:59.91	100.49	9.92	-39.8	-41.1	20.5	0.00e+00	0	28	0	855638016	52	6537
2026-01-13 12:10:00.92	100.65	9.88	-39.6	-40.9	20.7	0.00e+00	28	28	0	857735168	52	6347
2026-01-13 12:10:01.94	100.82	9.85	-39.7	-40.9	20.6	0.00e+00	0	28	0	858783744	52	6388
2026-01-13 12:10:02.94	100.98	9.81	-39.2	-40.3	21.0	0.00e+00	91	28	0	860880896	52	5960
2026-01-13 12:10:03.95	101.14	9.77	-39.1	-40.2	21.2	0.00e+00	0	28	0	862978048	52	5888
2026-01-13 12:10:04.96	101.31	9.74	-39.2	-40.3	21.0	0.00e+00	0	28	0	865075200	52	5961
2026-01-13 12:10:05.97	101.47	9.70	-39.5	-40.7	20.9	0.00e+00	0	28	0	867172352	52	6236
2026-01-13 12:10:06.98	101.63	9.66	-39.5	-40.8	20.7	0.00e+00	0	28	0	868220928	52	6255
2026-01-13 12:10:07.99	101.80	9.63	-39.7	-41.1	20.5	0.00e+00	58	28	0	870318080	52	6511
2026-01-13 12:10:09.00	101.96	9.59	-39.7	-41.1	20.6	0.00e+00	0	28	0	872415232	52	6482
2026-01-13 12:10:10.01	102.12	9.55	-39.9	-41.3	20.3	0.00e+00	92	28	0	874512384	52	6654
2026-01-13 12:10:11.02	102.28	9.52	-39.7	-41.2	20.4	0.00e+00	0	28	0	876609536	52	6581
2026-01-13 12:10:12.03	102.44	9.48	-39.5	-41.0	20.6	0.00e+00	0	28	0	877658112	52	6442
2026-01-13 12:10:13.04	102.60	9.44	-39.6	-41.1	20.6	0.00e+00	0	28	0	879755264	52	6474
2026-01-13 12:10:14.05	102.76	9.40	-39.5	-40.9	20.7	0.00e+00	0	28	0	881852416	52	6346
2026-01-13 12:10:15.06	102.92	9.37	-39.5	-40.9	20.6	0.00e+00	0	28	0	883949568	52	6388
2026-01-13 12:10:16.06	103.08	9.33	-39.6	-41.1	20.5	0.00e+00	0	28	0	886046720	52	6478
2026-01-13 12:10:17.07	103.24	9.29	-39.6	-41.1	20.5	0.00e+00	90	28	0	887095296	52	6505
2026-01-13 12:10:18.08	103.39	9.25	-39.7	-41.3	20.4	0.00e+00	0	28	0	889192448	52	6631
2026-01-13 12:10:19.09	103.55	9.21	-39.4	-41.0	20.5	0.00e+00	0	28	0	891289600	52	6430
2026-01-13 12:10:20.10	103.71	9.18	-39.4	-41.0	20.5	0.00e+00	0	28	0	893386752	52	6444
2026-01-13 12:10:21.11	103.87	9.14	-39.5	-41.1	20.5	0.00e+00	0	28	0	895483904	52	6532
2026-01-13 12:10:22.12	104.02	9.10	-39.5	-41.0	20.5	0.00e+00	25	28	0	896532480	52	6420
2026-01-13 12:10:23.13	104.18	9.06	-39.8	-41.3	20.3	0.00e+00	0	28	0	898629632	52	6675
2026-01-13 12:10:24.14	104.34	9.02	-39.9	-41.4	20.3	0.00e+00	92	28	0	900726784	52	6700
2026-01-13 12:10:25.15	104.49	8.98	-40.2	-41.7	20.0	0.00e+00	0	28	0	902823936	52	6970
2026-01-13 12:10:26.16	104.65	8.94	-40.1	-41.6	20.0	0.00e+00	92	28	0	904921088	52	6878
2026-01-13 12:10:27.17	104.80	8.90	-40.0	-41.4	20.2	0.00e+00	10	28	0	905969664	52	6764
2026-01-13 12:10:28.17	104.95	8.86	-39.6	-41.0	20.6	0.00e+00	0	28	0	908066816	52	6416
2026-01-13 12:10:29.18	105.11	8.82	-39.8	-41.1	20.4	0.00e+00	24	28	0	910163968	52	6528
2026-01-13 12:10:30.19	105.26	8.79	-39.4	-40.7	20.9	0.00e+00	0	28	0	912261120	52	6218
2026-01-13 12:10:31.20	105.41	8.75	-39.5	-40.8	20.8	0.00e+00	90	28	0	914358272	52	6278
2026-01-13 12:10:32.21	105.57	8.71	-39.3	-40.5	21.0	0.00e+00	0	28	0	915406848	52	6083
2026-01-13 12:10:33.22	105.72	8.67	-39.1	-40.3	21.2	0.00e+00	91	28	0	917504000	52	5935
2026-01-13 12:10:34.23	105.87	8.63	-38.8	-39.9	21.6	0.00e+00	0	28	0	919601152	52	5669
2026-01-13 12:10:35.24	106.02	8.59	-38.6	-39.7	21.6	0.00e+00	0	28	0	921698304	50	6196
2026-01-13 12:10:36.25	106.17	8.54	-38.6	-39.7	21.6	0.00e+00	0	28	0	923795456	50	6181
2026-01-13 12:10:37.26	106.32	8.50	-38.7	-39.9	21.5	0.00e+00	0	28	0	925892608	50	6340
2026-01-13 12:10:38.27	106.48	8.46	-39.1	-40.3	21.3	0.00e+00	92	28	0	926941184	50	6627
2026-01-13 12:10:39.28	106.62	8.42	-39.1	-40.3	21.1	0.00e+00	0	28	0	929038336	50	6656
2026-01-13 12:10:40.29	106.77	8.38	-39.5	-40.8	20.7	0.00e+00	91	28	0	931135488	50	7018
2026-01-13 12:10:41.30	106.92	8.34	-39.7	-41.0	20.5	0.00e+00	0	28	0	933232640	50	7236
2026-01-13 12:10:42.31	107.07	8.30	-39.7	-41.0	20.5	0.00e+00	0	28	0	935329792	52	6443
2026-01-13 12:10:43.32	107.22	8.26	-40.0	-41.4	20.2	0.00e+00	0	28	0	936378368	52	6762
2026-01-13 12:10:44.33	107.37	8.22	-39.8	-41.2	20.5	0.00e+00	0	28	0	938475520	52	6562
2026-01-13 12:10:45.34	107.52	8.18	-39.7	-41.0	20.5	0.00e+00	28	28	0	940572672	52	6422
2026-01-13 12:10:46.35	107.66	8.14	-39.7	-40.9	20.5	0.00e+00	0	28	0	942669824	52	6373
2026-01-13 12:10:47.36	107.81	8.09	-39.5	-40.7	20.8	0.00e+00	92	28	0	944766976	52	6231
2026-01-13 12:10:48.36	107.95	8.05	-39.3	-40.6	20.9	0.00e+00	0	28	0	945815552	52	6112
2026-01-13 12:10:49.37	108.10	8.01	-39.3	-40.6	20.9	0.00e+00	0	28	0	947912704	52	6170
2026-01-13 12:10:50.38	108.25	7.97	-39.3	-40.5	21.1	0.00e+00	0	28	0	950009856	52	6051
2026-01-13 12:10:51.39	108.39	7.93	-39.2	-40.4	21.0	0.00e+00	0	28	0	952107008	52	6017
2026-01-13 12:10:52.40	108.54	7.89	-39.2	-40.4	21.1	0.00e+00	24	28	0	954204160	52	5993
2026-01-13 12:10:53.41	108.68	7.84	-39.1	-40.3	21.0	0.00e+00	0	28	0	955252736	52	5964
2026-01-13 12:10:54.42	108.82	7.80	-39.1	-40.5	21.0	0.00e+00	92	28	0	957349888	52	6036
2026-01-13 12:10:55.43	108.97	7.76	-39.1	-40.4	21.0	0.00e+00	0	28	0	959447040	52	5996
2026-01-13 12:10:56.44	109.11	7.72	-39.0	-40.2	21.3	0.00e+00	0	28	0	961544192	52	5832
2026-01-13 12:10:57.45	109.25	7.68	-39.1	-40.2	21.0	0.00e+00	0	28	0	963641344	52	5875
2026-01-13 12:10:58.46	109.39	7.63	-39.0	-40.2	21.1	0.00e+00	0	28	0	964689920	52	5850
2026-01-13 12:10:59.47	109.54	7.59	-38.9	-40.0	21.2	0.00e+00	42	28	0	966787072	52	5761
2026-01-13 12:11:00.48	109.68	7.55	-39.2	-40.4	20.9	0.00e+00	0	28	0	968884224	52	6002
2026-01-13 12:11:01.49	109.82	7.51	-39.1	-40.3	21.1	0.00e+00	91	28	0	970981376	52	5947
2026-01-13 12:11:02.50	109.96	7.46	-38.8	-40.0	21.3	0.00e+00	0	28	0	973078528	52	5711
2026-01-13 12:11:03.51	110.10	7.42	-38.9	-40.1	21.0	0.00e+00	6	28	0	974127104	52	5803
2026-01-13 12:11:04.52	110.24	7.38	-38.7	-39.8	21.5	0.00e+00	0	28	0	976224256	50	6279
2026-01-13 12:11:05.53	110.38	7.34	-39.1	-40.2	21.1	0.00e+00	0	28	0	978321408	50	6615
2026-01-13 12:11:06.54	110.52	7.29	-38.9	-40.1	21.3	0.00e+00	35	28	0	980418560	50	6475
2026-01-13 12:11:07.55	110.66	7.25	-38.9	-40.1	21.3	0.00e+00	0	28	0	982515712	50	6476
2026-01-13 12:11:08.56	110.80	7.21	-39.0	-40.2	21.1	0.00e+00	21	28	0	983564288	50	6593
2026-01-13 12:11:09.56	110.93	7.16	-38.6	-39.7	21.5	0.00e+00	0	28	0	985661440	50	6227
2026-01-13 12:11:10.57	111.07	7.12	-38.5	-39.7	21.6	0.00e+00	71	28	0	987758592	50	6197
2026-01-13 12:11:11.58	111.21	7.08	-38.7	-39.8	21.5	0.00e+00	0	28	0	989855744	50	6309
2026-01-13 12:11:12.59	111.34	7.03	-38.4	-39.5	21.6	0.00e+00	0	28	0	991952896	50	6099
2026-01-13 12:11:13.60	111.48	6.99	-38.7	-40.0	21.3	0.00e+00	25	28	0	994050048	50	6405
2026-01-13 12:11:14.61	111.62	6.95	-38.3	-39.5	21.8	0.00e+00	0	28	0	995098624	50	6064
2026-01-13 12:11:15.62	111.75	6.90	-38.1	-39.2	21.9	0.00e+00	67	28	0	997195776	50	5861
2026-01-13 12:11:16.63	111.89	6.86	-38.5	-39.6	21.5	0.00e+00	0	28	0	999292928	50	6173
2026-01-13 12:11:17.64	112.02	6.82	-38.6	-39.7	21.5	0.00e+00	85	28	0	1001390080	50	6241
2026-01-13 12:11:18.65	112.16	6.77	-38.7	-39.9	21.4	0.00e+00	0	28	0	1003487232	50	6323
2026-01-13 12:11:19.66	112.29	6.73	-38.8	-39.9	21.3	0.00e+00	0	28	0	1004535808	50	6366
2026-01-13 12:11:20.67	112.42	6.69	-39.0	-40.2	21.0	0.00e+00	0	28	0	1006632960	50	6573
2026-01-13 12:11:21.68	112.56	6.64	-39.0	-40.1	21.1	0.00e+00	0	28	0	1008730112	50	6525
2026-01-13 12:11:22.68	112.69	6.60	-39.0	-40.2	21.0	0.00e+00	47	28	0	1010827264	50	6611
2026-01-13 12:11:23.69	112.82	6.55	-39.2	-40.5	20.7	0.00e+00	0	28	0	1012924416	50	6803
2026-01-13 12:11:24.71	112.95	6.51	-39.3	-40.6	20.6	0.00e+00	90	28	0	1013972992	50	6889
2026-01-13 12:11:25.71	113.08	6.47	-39.3	-40.6	20.7	0.00e+00	0	28	0	1016070144	50	6869
2026-01-13 12:11:26.72	113.22	6.42	-39.6	-40.8	20.4	0.00e+00	0	28	0	1018167296	50	7082
2026-01-13 12:11:27.73	113.35	6.38	-39.1	-40.3	20.9	0.00e+00	0	28	0	1020264448	50	6679
2026-01-13 12:11:28.74	113.48	6.33	-39.1	-40.3	20.9	0.00e+00	0	28	0	1022361600	50	6654
2026-01-13 12:11:29.75	113.61	6.29	-39.3	-40.6	20.7	0.00e+00	56	28	0	1023410176	50	6850
2026-01-13 12:11:30.76	113.74	6.24	-39.3	-40.6	20.7	0.00e+00	0	28	0	1025507328	50	6867
2026-01-13 12:11:31.77	113.87	6.20	-39.1	-40.3	20.9	0.00e+00	90	28	0	1027604480	50	6673
2026-01-13 12:11:32.78	114.00	6.16	-39.4	-40.7	20.6	0.00e+00	0	28	0	1029701632	50	6933
2026-01-13 12:11:33.79	114.12	6.11	-39.6	-40.9	20.4	0.00e+00	0	28	0	1031798784	50	7128
2026-01-13 12:11:34.80	114.25	6.07	-39.4	-40.7	20.5	0.00e+00	0	28	0	1032847360	50	6980
2026-01-13 12:11:35.81	114.38	6.02	-39.5	-40.8	20.5	0.00e+00	0	28	0	1034944512	50	7067
2026-01-13 12:11:36.82	114.51	5.98	-39.4	-40.6	20.6	0.00e+00	28	28	0	1037041664	50	6914
2026-01-13 12:11:37.83	114.64	5.93	-39.0	-40.2	21.0	0.00e+00	0	28	0	1039138816	50	6615
2026-01-13 12:11:38.84	114.76	5.89	-39.0	-40.2	20.9	0.00e+00	63	28	0	1041235968	50	6573
2026-01-13 12:11:39.85	114.89	5.84	-38.8	-40.0	21.1	0.00e+00	0	28	0	1042284544	50	6438
2026-01-13 12:11:40.86	115.01	5.80	-38.8	-40.0	21.1	0.00e+00	81	28	0	1044381696	50	6437
2026-01-13 12:11:41.87	115.14	5.75	-38.9	-40.1	21.1	0.00e+00	0	28	0	1046478848	50	6482
2026-01-13 12:11:42.88	115.27	5.71	-38.9	-40.0	21.1	0.00e+00	0	28	0	1048576000	50	6452
2026-01-13 12:11:43.88	115.39	5.66	-39.0	-40.3	20.9	0.00e+00	28	28	0	1050673152	50	6616
2026-01-13 12:11:44.89	115.51	5.62	-39.1	-40.3	20.8	0.00e+00	0	28	0	1051721728	50	6692
2026-01-13 12:11:45.90	115.64	5.57	-39.3	-40.5	20.6	0.00e+00	92	28	0	1053818880	50	6828
2026-01-13 12:11:46.91	115.76	5.53	-39.2	-40.5	20.7	0.00e+00	0	28	0	1055916032	50	6795
2026-01-13 12:11:47.92	115.89	5.48	-39.5	-40.8	20.5	0.00e+00	92	28	0	1058013184	50	7013
2026-01-13 12:11:48.93	116.01	5.44	-39.4	-40.7	20.3	0.00e+00	0	28	0	1060110336	50	6991
2026-01-13 12:11:49.94	116.13	5.39	-39.6	-40.9	20.2	0.00e+00	0	28	0	1061158912	50	7170
2026-01-13 12:11:50.95	116.25	5.35	-39.7	-41.0	20.2	0.00e+00	0	28	0	1063256064	50	7251
2026-01-13 12:11:51.96	116.38	5.30	-39.9	-41.3	20.0	0.00e+00	0	28	0	1065353216	52	6667
2026-01-13 12:11:52.97	116.50	5.26	-40.0	-41.4	19.8	0.00e+00	91	28	0	1067450368	52	6723
2026-01-13 12:11:53.98	116.62	5.21	-39.7	-41.1	20.0	0.00e+00	0	28	0	1069547520	52	6517
2026-01-13 12:11:54.98	116.74	5.17	-39.7	-41.1	20.0	0.00e+00	38	28	0	1071644672	52	6515
2026-01-13 12:11:55.99	116.86	5.12	-39.7	-41.1	20.0	0.00e+00	0	28	0	1072693248	52	6534
2026-01-13 12:11:57.00	116.98	5.08	-39.7	-41.1	20.1	0.00e+00	0	28	0	1074790400	52	6526
2026-01-13 12:11:58.01	117.10	5.03	-39.6	-41.1	20.0	0.00e+00	0	28	0	1076887552	52	6491
2026-01-13 12:11:59.02	117.22	4.99	-39.5	-41.0	20.2	0.00e+00	0	28	0	1078984704	52	6403
2026-01-13 12:12:00.03	117.34	4.94	-39.6	-41.1	20.1	0.00e+00	0	28	0	1080033280	52	6490
2026-01-13 12:12:01.04	117.46	4.90	-39.4	-41.0	20.2	0.00e+00	0	28	0	1082130432	52	6413
2026-01-13 12:12:02.05	117.57	4.85	-39.3	-40.9	20.2	0.00e+00	88	28	0	1084227584	52	6358
2026-01-13 12:12:03.06	117.69	4.81	-39.4	-41.0	20.1	0.00e+00	0	28	0	1086324736	52	6452
2026-01-13 12:12:04.07	117.81	4.76	-39.5	-41.1	20.1	0.00e+00	17	28	0	1088421888	52	6479
2026-01-13 12:12:05.08	117.93	4.72	-39.6	-41.1	20.0	0.00e+00	0	28	0	1089470464	52	6473
2026-01-13 12:12:06.08	118.04	4.67	-39.8	-41.2	19.9	0.00e+00	0	28	0	1091567616	52	6594
2026-01-13 12:12:07.09	118.16	4.63	-39.8	-41.2	19.9	0.00e+00	24	28	0	1093664768	52	6578
2026-01-13 12:12:08.10	118.28	4.58	-39.4	-40.7	20.5	0.00e+00	0	28	0	1095761920	52	6208
2026-01-13 12:12:09.11	118.39	4.53	-39.8	-41.2	19.8	0.00e+00	92	28	0	1097859072	52	6586
2026-01-13 12:12:10.12	118.51	4.49	-39.8	-41.2	20.0	0.00e+00	0	28	0	1099956224	52	6563
2026-01-13 12:12:11.13	118.62	4.44	-39.2	-40.5	20.5	0.00e+00	14	28	0	1101004800	52	6079
2026-01-13 12:12:12.14	118.74	4.40	-39.7	-41.0	20.1	0.00e+00	0	28	0	1103101952	52	6447
2026-01-13 12:12:13.15	118.85	4.35	-39.9	-41.4	19.7	0.00e+00	0	28	0	1105199104	52	6706
2026-01-13 12:12:14.16	118.97	4.31	-40.1	-41.6	19.6	0.00e+00	23	28	0	1107296256	52	6867
2026-01-13 12:12:15.17	119.08	4.26	-40.4	-41.9	19.3	0.00e+00	0	28	0	1109393408	52	7113
2026-01-13 12:12:16.18	119.20	4.22	-40.1	-41.6	19.5	0.00e+00	90	28	0	1110441984	52	6852
2026-01-13 12:12:17.19	119.31	4.17	-40.3	-41.9	19.2	0.00e+00	0	28	0	1112539136	52	7099
2026-01-13 12:12:18.20	119.42	4.12	-40.1	-41.7	19.4	0.00e+00	92	28	0	1114636288	52	6973
2026-01-13 12:12:19.20	119.53	4.08	-40.0	-41.5	19.5	0.00e+00	0	28	0	1116733440	52	6829
2026-01-13 12:12:20.21	119.65	4.03	-40.0	-41.6	19.5	0.00e+00	0	28	0	1118830592	52	6904
2026-01-13 12:12:21.22	119.76	3.99	-40.0	-41.7	19.2	0.00e+00	9	28	0	1119879168	52	6990
2026-01-13 12:12:22.23	119.87	3.94	-40.5	-42.4	18.8	0.00e+00	0	28	0	1121976320	52	7575
2026-01-13 12:12:23.24	119.98	3.90	-40.5	-42.3	18.9	0.00e+00	91	28	0	1124073472	52	7478
2026-01-13 12:12:24.25	120.09	3.85	-40.3	-42.1	19.0	0.00e+00	0	28	0	1126170624	52	7286
2026-01-13 12:12:25.26	120.20	3.80	-40.4	-42.2	18.7	0.00e+00	92	28	0	1128267776	52	7352
2026-01-13 12:12:26.27	120.31	3.76	-40.6	-42.3	18.9	0.00e+00	0	28	0	1129316352	52	7449
2026-01-13 12:12:27.28	120.42	3.71	-40.5	-42.1	18.9	0.00e+00	0	28	0	1131413504	52	7275
2026-01-13 12:12:28.29	120.53	3.67	-40.6	-42.2	18.7	0.00e+00	0	28	0	1133510656	54	6613
2026-01-13 12:12:29.30	120.64	3.62	-40.4	-42.0	18.9	0.00e+00	0	28	0	1135607808	54	6437
2026-01-13 12:12:30.31	120.75	3.58	-40.7	-42.4	18.6	0.00e+00	63	28	0	1137704960	54	6700
2026-01-13 12:12:31.32	120.86	3.53	-40.7	-42.4	18.6	0.00e+00	0	28	0	1138753536	54	6737
2026-01-13 12:12:32.32	120.97	3.48	-40.9	-42.6	18.4	0.00e+00	92	28	0	1140850688	54	6864
2026-01-13 12:12:33.33	121.07	3.44	-41.0	-42.8	18.1	0.00e+00	0	28	0	1142947840	54	7059
2026-01-13 12:12:34.34	121.18	3.39	-40.7	-42.3	18.5	0.00e+00	0	28	0	1145044992	54	6692
2026-01-13 12:12:35.35	121.29	3.35	-41.1	-43.0	17.8	0.00e+00	0	28	0	1147142144	54	7192
2026-01-13 12:12:36.36	121.40	3.30	-41.1	-43.0	18.0	0.00e+00	0	28	0	1148190720	54	7215
2026-01-13 12:12:37.37	121.50	3.26	-41.0	-42.8	18.0	0.00e+00	39	28	0	1150287872	54	7046
2026-01-13 12:12:38.38	121.61	3.21	-40.9	-42.7	18.1	0.00e+00	0	28	0	1152385024	54	6965
2026-01-13 12:12:39.39	121.71	3.16	-40.8	-42.6	18.1	0.00e+00	92	28	0	1154482176	54	6917
2026-01-13 12:12:40.41	121.82	3.12	-41.0	-42.8	18.2	0.00e+00	0	28	0	1156579328	54	7052
2026-01-13 12:12:41.41	121.93	3.07	-41.0	-42.9	17.8	0.00e+00	0	28	0	1157627904	54	7097
2026-01-13 12:12:42.42	122.03	3.03	-41.1	-42.9	17.7	0.00e+00	0	28	0	1159725056	54	7136
2026-01-13 12:12:43.43	122.14	2.98	-46.6	-61.4	3.5	0.00e+00	0	28	0	1161822208	58	47742
2026-01-13 12:12:44.44	122.24	2.93	-47.0	-62.9	3.6	1.51e+00	0	28	104	1161822208	60	50604
2026-01-13 12:12:45.45	122.34	2.89	-47.8	-63.3	3.6	1.51e+00	0	28	104	1161822208	60	52986
2026-01-13 12:12:46.46	122.45	2.84	-48.3	-63.5	3.6	1.51e+00	0	28	104	1161822208	60	54142
2026-01-13 12:12:47.47	122.55	2.80	-48.4	-63.6	3.6	1.51e+00	0	28	104	1161822208	60	54731
2026-01-13 12:12:48.48	122.65	2.75	-48.4	-63.7	3.6	1.51e+00	0	28	104	1161822208	60	55265
2026-01-13 12:12:49.49	122.76	2.71	-48.5	-63.8	3.6	1.51e+00	0	28	104	1161822208	60	56164
2026-01-13 12:12:50.50	122.86	2.66	-48.7	-63.9	3.6	1.51e+00	0	28	104	1161822208	60	56446
2026-01-13 12:12:51.51	122.96	2.61	-48.7	-63.9	3.6	1.51e+00	0	28	104	1161822208	60	56605
2026-01-13 12:12:52.51	123.06	2.57	-48.6	-63.9	3.6	1.51e+00	0	28	104	1161822208	60	56518
2026-01-13 12:12:53.52	123.17	2.52	-48.7	-63.9	3.6	1.51e+00	0	28	104	1161822208	60	56402
2026-01-13 12:12:54.53	123.27	2.48	-48.7	-63.9	3.6	1.51e+00	0	28	104	1161822208	60	56422
2026-01-13 12:12:55.54	123.37	2.43	-48.7	-63.8	3.6	1.51e+00	0	28	104	1161822208	60	56238
2026-01-13 12:12:56.55	123.47	2.39	-48.7	-63.9	3.6	1.51e+00	0	28	104	1161822208	60	56508
2026-01-13 12:12:57.56	123.57	2.34	-48.7	-63.9	3.6	1.51e+00	0	28	104	1161822208	60	56448
2026-01-13 12:12:58.57	123.67	2.29	-48.5	-63.9	3.6	1.51e+00	0	28	104	1161822208	60	56349
2026-01-13 12:12:59.58	123.77	2.25	-48.6	-63.9	3.6	1.51e+00	0	28	104	1161822208	60	56715
2026-01-13 12:13:00.59	123.87	2.20	-48.6	-63.9	3.6	1.51e+00	0	28	104	1161822208	60	56413
2026-01-13 12:13:01.60	123.97	2.16	-48.7	-63.9	3.6	1.51e+00	0	28	104	1161822208	60	56438
2026-01-13 12:13:02.61	124.07	2.11	-48.6	-63.8	3.6	1.51e+00	0	28	104	1161822208	60	56171
2026-01-13 12:13:03.62	124.17	2.07	-48.6	-63.9	3.6	1.51e+00	0	28	104	1161822208	60	56497
2026-01-13 12:13:04.64	124.27	2.02	-48.6	-63.8	3.6	1.51e+00	0	28	104	1161822208	60	56168
