passes_logs/2026/01/13/R4.6S_Anadyr/R4.6S_Anadyr__20260113_235747_NOAA_20_JPSS-1_rec.log

#Pass ID: 20260113_235747_NOAA 20 (JPSS-1)
#Satellite: NOAA 20 (JPSS-1)
#Configuration: NOAA 20
#almurnet v.1.7.20251203
#Start time: 2026-01-13 23:57:50

#Version: 2.2.20231116
#Station: R4.6S_Anadyr
#Location: 177.4865 lon 64.73178 lat
#TLE: 1 43013U 17073A   26013.56788096  .00000060  00000+0  49292-4 0  9995
#TLE: 2 43013  98.7633 314.5224 0001558  41.3934 318.7360 14.19535692422532

#Time	Az	El	Level	Level2	SNR	BER	BlckErr	Temp	State	Recorded	gain1	gain2
2026-01-13 23:57:50.48	149.92	0.17	-48.4	-63.3	3.5	1.51e+00	0	24	0	0	60	53015
2026-01-13 23:57:51.48	149.92	0.23	-48.6	-63.7	3.6	1.51e+00	0	25	104	0	60	55624
2026-01-13 23:57:52.49	149.92	0.29	-48.5	-63.7	3.6	1.51e+00	0	26	104	0	60	55514
2026-01-13 23:57:53.50	149.91	0.35	-48.6	-63.8	3.5	1.51e+00	0	26	104	0	60	55669
2026-01-13 23:57:54.51	149.91	0.41	-48.6	-63.8	3.6	1.51e+00	0	26	104	0	60	56057
2026-01-13 23:57:55.52	149.91	0.47	-48.6	-63.8	3.5	1.51e+00	0	26	104	0	60	56131
2026-01-13 23:57:56.53	149.90	0.53	-48.6	-63.8	3.6	1.51e+00	0	26	104	0	60	55791
2026-01-13 23:57:57.54	149.90	0.59	-48.6	-63.8	3.6	1.51e+00	0	26	104	0	60	55876
2026-01-13 23:57:58.55	149.89	0.66	-48.6	-63.7	3.6	1.51e+00	0	26	104	0	60	55564
2026-01-13 23:57:59.56	149.89	0.72	-48.4	-63.7	3.6	1.51e+00	0	26	104	0	60	55295
2026-01-13 23:58:00.57	149.89	0.78	-48.3	-63.6	3.6	1.51e+00	0	26	104	0	60	54459
2026-01-13 23:58:01.58	149.88	0.84	-48.2	-63.4	3.6	1.51e+00	0	26	104	0	60	53408
2026-01-13 23:58:02.59	149.88	0.91	-48.1	-63.2	3.6	1.51e+00	0	26	104	0	60	52083
2026-01-13 23:58:03.60	149.87	0.97	-47.8	-62.9	3.6	1.51e+00	0	26	104	0	60	50698
2026-01-13 23:58:04.61	149.87	1.03	-47.6	-62.8	3.6	1.51e+00	0	26	104	0	60	49679
2026-01-13 23:58:05.62	149.86	1.09	-47.4	-62.5	3.6	1.51e+00	0	26	104	0	60	48398
2026-01-13 23:58:06.63	149.86	1.16	-46.9	-62.0	3.6	1.51e+00	0	26	104	0	60	45582
2026-01-13 23:58:07.64	149.86	1.22	-46.8	-61.9	3.6	1.51e+00	0	26	104	0	60	45132
2026-01-13 23:58:08.65	149.85	1.28	-46.8	-61.9	3.6	1.51e+00	0	26	104	0	60	45176
2026-01-13 23:58:09.66	149.85	1.35	-46.8	-62.0	3.5	1.51e+00	0	26	104	0	60	45552
2026-01-13 23:58:10.67	149.84	1.41	-46.8	-62.0	3.6	1.51e+00	0	26	104	0	60	45282
2026-01-13 23:58:11.68	149.84	1.47	-46.8	-62.0	3.6	1.51e+00	0	26	104	0	60	45314
2026-01-13 23:58:12.69	149.83	1.54	-46.8	-62.0	3.6	1.51e+00	0	26	104	0	60	45429
2026-01-13 23:58:13.69	149.83	1.60	-46.8	-61.9	3.5	1.51e+00	0	26	104	0	60	45151
2026-01-13 23:58:14.70	149.83	1.66	-46.8	-61.9	3.6	1.51e+00	0	26	104	0	60	45087
2026-01-13 23:58:15.71	149.82	1.73	-46.8	-62.0	3.6	1.51e+00	0	26	104	0	60	45265
2026-01-13 23:58:16.72	149.82	1.79	-46.8	-62.0	3.6	1.51e+00	0	26	104	0	60	45472
2026-01-13 23:58:17.73	149.81	1.86	-46.8	-61.9	3.6	1.51e+00	0	26	104	0	60	45229
2026-01-13 23:58:18.74	149.81	1.92	-46.8	-62.0	3.6	1.51e+00	0	26	104	0	60	45336
2026-01-13 23:58:19.75	149.80	1.99	-46.8	-61.9	3.6	1.51e+00	0	26	104	0	60	45221
2026-01-13 23:58:20.76	149.80	2.05	-46.8	-61.9	3.6	1.51e+00	0	26	104	0	60	44853
2026-01-13 23:58:21.77	149.79	2.12	-46.8	-61.9	3.6	1.51e+00	0	26	104	0	60	45086
2026-01-13 23:58:22.78	149.79	2.18	-46.8	-61.8	3.6	1.51e+00	0	26	104	0	60	44432
2026-01-13 23:58:23.80	149.78	2.25	-46.8	-61.8	3.6	1.51e+00	0	26	104	0	60	44442
2026-01-13 23:58:24.80	149.78	2.31	-46.8	-61.8	3.6	1.51e+00	0	26	104	0	60	44370
2026-01-13 23:58:25.81	149.77	2.38	-46.8	-61.8	3.6	1.51e+00	0	26	104	0	60	44522
2026-01-13 23:58:26.82	149.77	2.44	-46.8	-61.7	3.6	1.51e+00	0	26	104	0	60	44200
2026-01-13 23:58:27.83	149.76	2.51	-46.8	-61.8	3.6	1.51e+00	0	26	104	0	60	44347
2026-01-13 23:58:28.84	149.76	2.58	-46.8	-61.7	3.6	1.51e+00	0	26	104	0	60	44198
2026-01-13 23:58:29.85	149.75	2.64	-46.8	-61.7	3.6	1.51e+00	0	26	104	0	60	44195
2026-01-13 23:58:30.86	149.75	2.71	-46.8	-61.7	3.6	1.51e+00	0	26	104	0	60	43978
2026-01-13 23:58:31.87	149.74	2.78	-46.8	-61.7	3.6	1.51e+00	0	26	104	0	60	43934
2026-01-13 23:58:32.88	149.74	2.84	-46.8	-61.7	3.6	1.51e+00	0	26	104	0	60	43929
2026-01-13 23:58:33.89	149.73	2.91	-46.8	-61.8	3.6	1.51e+00	0	26	104	0	60	44257
2026-01-13 23:58:34.90	149.73	2.98	-46.8	-61.9	3.6	1.51e+00	0	26	104	0	60	44870
2026-01-13 23:58:35.91	149.72	3.04	-46.8	-61.8	3.6	1.51e+00	0	26	104	0	60	44548
2026-01-13 23:58:36.92	149.72	3.11	-46.8	-61.5	3.5	1.51e+00	0	26	104	0	60	42763
2026-01-13 23:58:37.93	149.71	3.18	-46.7	-60.2	3.6	1.51e+00	0	26	104	0	60	36895
2026-01-13 23:58:38.94	149.71	3.25	-46.6	-58.1	4.2	1.44e+00	0	26	104	0	60	29055
2026-01-13 23:58:39.95	149.70	3.32	-46.4	-54.9	5.2	8.35e-01	92	26	0	1048576	60	20032
2026-01-13 23:58:40.96	149.70	3.38	-46.1	-53.2	6.9	3.26e-01	0	26	0	3145728	60	16507
2026-01-13 23:58:41.97	149.69	3.45	-45.6	-51.3	9.1	4.18e-02	90	26	0	4194304	60	13300
2026-01-13 23:58:42.98	149.69	3.52	-45.3	-50.3	10.3	1.05e-02	92	26	0	6291456	60	11878
2026-01-13 23:58:43.99	149.68	3.59	-44.7	-48.8	11.9	2.33e-03	91	26	0	8388608	60	9993
2026-01-13 23:58:45.00	149.67	3.66	-44.1	-47.6	13.2	4.04e-05	92	26	0	10485760	60	8682
2026-01-13 23:58:46.01	149.67	3.73	-44.0	-47.4	13.4	1.52e-05	92	26	0	12582912	60	8502
2026-01-13 23:58:47.02	149.66	3.80	-43.8	-47.0	13.8	3.00e-06	92	26	0	13631488	60	8138
2026-01-13 23:58:48.03	149.66	3.86	-43.6	-46.7	14.2	2.20e-06	11	26	0	15728640	60	7789
2026-01-13 23:58:49.05	149.65	3.93	-46.8	-59.7	3.7	1.28e+00	0	26	104	16777216	60	35036
2026-01-13 23:58:50.05	149.65	4.00	-41.2	-42.9	18.2	6.08e-01	92	26	0	16777216	56	6382
2026-01-13 23:58:51.06	149.64	4.07	-46.8	-61.8	3.6	9.68e-01	0	26	104	18874368	60	44345
2026-01-13 23:58:52.07	149.63	4.14	-46.2	-53.2	5.0	1.30e+00	1	26	104	18874368	60	16604
2026-01-13 23:58:53.08	149.63	4.21	-46.5	-56.5	4.4	9.00e-05	92	27	0	18874368	60	24154
2026-01-13 23:58:54.09	149.62	4.28	-41.8	-43.8	17.2	0.00e+00	92	26	0	20971520	58	6299
2026-01-13 23:58:55.10	149.62	4.35	-41.4	-43.3	17.8	0.00e+00	0	26	0	23068672	56	6634
2026-01-13 23:58:56.11	149.61	4.43	-41.0	-42.6	18.5	0.00e+00	92	26	0	24117248	56	6163
2026-01-13 23:58:57.12	149.60	4.50	-40.8	-42.5	18.7	0.00e+00	6	26	0	26214400	56	6035
2026-01-13 23:58:58.13	149.60	4.57	-40.9	-42.5	18.6	0.00e+00	92	26	0	28311552	56	6088
2026-01-13 23:58:59.14	149.59	4.64	-40.8	-42.4	18.8	0.00e+00	92	26	0	30408704	56	5989
2026-01-13 23:59:00.15	149.59	4.71	-40.7	-42.3	18.9	0.00e+00	92	26	0	32505856	54	6662
2026-01-13 23:59:01.16	149.58	4.78	-40.7	-42.4	18.9	0.00e+00	92	26	0	33554432	54	6699
2026-01-13 23:59:02.17	149.57	4.85	-40.7	-42.3	18.8	0.00e+00	92	26	0	35651584	54	6689
2026-01-13 23:59:03.18	149.57	4.93	-40.8	-42.4	18.8	0.00e+00	92	26	0	37748736	54	6736
2026-01-13 23:59:04.19	149.56	5.00	-40.5	-42.1	19.1	0.00e+00	34	26	0	39845888	54	6485
2026-01-13 23:59:05.20	149.55	5.07	-40.5	-42.0	19.2	0.00e+00	90	27	0	41943040	54	6437
2026-01-13 23:59:06.21	149.55	5.14	-40.4	-41.9	19.3	0.00e+00	92	26	0	44040192	54	6365
2026-01-13 23:59:07.22	149.54	5.22	-40.5	-42.0	19.3	0.00e+00	90	27	0	45088768	54	6406
2026-01-13 23:59:08.23	149.53	5.29	-40.5	-42.0	19.3	0.00e+00	92	26	0	47185920	54	6415
2026-01-13 23:59:09.24	149.53	5.36	-40.5	-42.0	19.3	0.00e+00	90	26	0	49283072	54	6420
2026-01-13 23:59:10.25	149.52	5.44	-40.6	-42.1	19.3	0.00e+00	92	26	0	51380224	54	6522
2026-01-13 23:59:11.26	149.51	5.51	-40.3	-41.8	19.5	0.00e+00	9	26	0	53477376	54	6257
2026-01-13 23:59:12.27	149.51	5.58	-40.3	-41.7	19.6	0.00e+00	92	27	0	54525952	54	6227
2026-01-13 23:59:13.28	149.50	5.66	-40.1	-41.5	19.8	0.00e+00	49	26	0	56623104	54	6066
2026-01-13 23:59:14.29	149.49	5.73	-40.2	-41.6	19.7	0.00e+00	92	26	0	58720256	54	6157
2026-01-13 23:59:15.30	149.49	5.81	-40.3	-41.7	19.6	0.00e+00	92	26	0	60817408	54	6228
2026-01-13 23:59:16.31	149.48	5.88	-40.3	-41.7	19.7	0.00e+00	90	26	0	62914560	54	6211
2026-01-13 23:59:17.32	149.47	5.96	-40.3	-41.7	19.6	0.00e+00	92	26	0	63963136	54	6212
2026-01-13 23:59:18.33	149.47	6.03	-40.3	-41.7	19.7	0.00e+00	56	26	0	66060288	54	6183
2026-01-13 23:59:19.34	149.46	6.11	-40.2	-41.6	19.8	0.00e+00	92	26	0	68157440	54	6143
2026-01-13 23:59:20.35	149.45	6.18	-40.1	-41.4	19.9	0.00e+00	0	26	0	70254592	54	6025
2026-01-13 23:59:21.36	149.44	6.26	-40.1	-41.4	20.0	0.00e+00	92	26	0	72351744	54	6016
2026-01-13 23:59:22.37	149.44	6.33	-40.0	-41.4	20.0	0.00e+00	92	26	0	73400320	54	6002
2026-01-13 23:59:23.38	149.43	6.41	-40.1	-41.5	19.9	0.00e+00	92	26	0	75497472	54	6049
2026-01-13 23:59:24.39	149.42	6.49	-40.0	-41.4	20.0	0.00e+00	90	26	0	77594624	54	6011
2026-01-13 23:59:25.40	149.41	6.56	-40.0	-41.4	20.0	0.00e+00	92	26	0	79691776	54	5989
2026-01-13 23:59:26.41	149.41	6.64	-40.0	-41.4	20.1	0.00e+00	90	26	0	81788928	54	5968
2026-01-13 23:59:27.42	149.40	6.72	-39.9	-41.3	20.2	0.00e+00	64	26	0	82837504	54	5906
2026-01-13 23:59:28.43	149.39	6.80	-39.8	-41.2	20.3	0.00e+00	90	27	0	84934656	54	5829
2026-01-13 23:59:29.44	149.38	6.87	-39.8	-41.1	20.4	0.00e+00	92	27	0	87031808	54	5771
2026-01-13 23:59:30.46	149.38	6.95	-39.9	-41.2	20.3	0.00e+00	90	27	0	89128960	54	5861
2026-01-13 23:59:31.47	149.37	7.03	-39.9	-41.2	20.3	0.00e+00	92	27	0	91226112	54	5860
2026-01-13 23:59:32.48	149.36	7.11	-39.7	-41.0	20.5	0.00e+00	90	27	0	92274688	52	6441
2026-01-13 23:59:33.49	149.35	7.19	-39.9	-41.2	20.2	0.00e+00	92	27	0	94371840	52	6587
2026-01-13 23:59:34.50	149.34	7.27	-39.7	-41.0	20.5	0.00e+00	92	27	0	96468992	52	6412
2026-01-13 23:59:35.50	149.34	7.34	-39.7	-41.0	20.5	0.00e+00	92	27	0	98566144	52	6433
2026-01-13 23:59:36.52	149.33	7.42	-39.7	-41.0	20.5	0.00e+00	73	27	0	100663296	52	6419
2026-01-13 23:59:37.52	149.32	7.50	-39.7	-40.9	20.6	0.00e+00	90	27	0	101711872	52	6383
2026-01-13 23:59:38.53	149.31	7.58	-39.8	-41.1	20.5	0.00e+00	92	27	0	103809024	52	6503
2026-01-13 23:59:39.54	149.30	7.66	-39.7	-41.0	20.6	0.00e+00	90	27	0	105906176	52	6430
2026-01-13 23:59:40.55	149.30	7.74	-39.6	-40.9	20.6	0.00e+00	92	27	0	108003328	52	6336
2026-01-13 23:59:41.56	149.29	7.82	-39.7	-40.9	20.7	0.00e+00	92	27	0	110100480	52	6373
2026-01-13 23:59:42.57	149.28	7.90	-39.6	-40.9	20.7	0.00e+00	91	26	0	112197632	52	6320
2026-01-13 23:59:43.58	149.27	7.99	-39.6	-40.8	20.8	0.00e+00	0	27	0	113246208	52	6274
2026-01-13 23:59:44.59	149.26	8.07	-39.6	-40.8	20.8	0.00e+00	92	27	0	115343360	52	6285
2026-01-13 23:59:45.60	149.25	8.15	-39.6	-40.9	20.7	0.00e+00	91	27	0	117440512	52	6336
2026-01-13 23:59:46.61	149.24	8.23	-39.6	-40.8	20.8	0.00e+00	92	27	0	119537664	52	6309
2026-01-13 23:59:47.62	149.23	8.31	-39.5	-40.8	20.8	0.00e+00	91	27	0	121634816	52	6270
2026-01-13 23:59:48.63	149.23	8.39	-39.5	-40.7	20.9	0.00e+00	92	27	0	122683392	52	6240
2026-01-13 23:59:49.64	149.22	8.48	-39.5	-40.8	20.8	0.00e+00	92	27	0	124780544	52	6265
2026-01-13 23:59:50.65	149.21	8.56	-39.4	-40.7	21.0	0.00e+00	10	26	0	126877696	52	6174
2026-01-13 23:59:51.66	149.20	8.64	-39.5	-40.8	20.9	0.00e+00	92	27	0	128974848	52	6255
2026-01-13 23:59:52.67	149.19	8.73	-39.5	-40.7	20.9	0.00e+00	92	26	0	131072000	52	6236
2026-01-13 23:59:53.68	149.18	8.81	-39.4	-40.6	21.1	0.00e+00	92	26	0	132120576	52	6105
2026-01-13 23:59:54.69	149.17	8.89	-39.4	-40.6	21.1	0.00e+00	92	27	0	134217728	52	6112
2026-01-13 23:59:55.70	149.16	8.98	-39.3	-40.5	21.1	0.00e+00	0	27	0	136314880	52	6068
2026-01-13 23:59:56.71	149.15	9.06	-39.4	-40.6	21.0	0.00e+00	92	27	0	138412032	52	6160
2026-01-13 23:59:57.73	149.14	9.15	-39.4	-40.6	21.0	0.00e+00	10	27	0	140509184	52	6148
2026-01-13 23:59:58.74	149.13	9.23	-39.4	-40.6	21.1	0.00e+00	92	26	0	141557760	52	6115
2026-01-13 23:59:59.75	149.12	9.32	-39.3	-40.5	21.2	0.00e+00	92	27	0	143654912	52	6074
2026-01-14 00:00:00.76	149.11	9.41	-39.3	-40.5	21.1	0.00e+00	92	27	0	145752064	52	6085
2026-01-14 00:00:01.77	149.10	9.49	-39.4	-40.6	21.2	0.00e+00	92	27	0	147849216	52	6106
2026-01-14 00:00:02.78	149.09	9.58	-39.1	-40.2	21.4	0.00e+00	89	27	0	149946368	52	5882
2026-01-14 00:00:03.79	149.08	9.67	-39.1	-40.3	21.4	0.00e+00	92	27	0	150994944	52	5913
2026-01-14 00:00:04.80	149.07	9.75	-39.1	-40.3	21.4	0.00e+00	17	27	0	153092096	52	5899
2026-01-14 00:00:05.81	149.06	9.84	-39.3	-40.4	21.3	0.00e+00	92	27	0	155189248	52	6013
2026-01-14 00:00:06.82	149.05	9.93	-39.1	-40.3	21.4	0.00e+00	0	27	0	157286400	52	5921
2026-01-14 00:00:07.82	149.04	10.01	-39.1	-40.2	21.5	0.00e+00	92	27	0	159383552	52	5858
2026-01-14 00:00:08.84	149.03	10.10	-39.1	-40.2	21.5	0.00e+00	92	27	0	160432128	52	5847
2026-01-14 00:00:09.85	149.02	10.19	-39.0	-40.1	21.6	0.00e+00	92	27	0	162529280	52	5815
2026-01-14 00:00:10.86	149.01	10.28	-38.9	-40.0	21.7	0.00e+00	92	27	0	164626432	52	5719
2026-01-14 00:00:11.87	149.00	10.37	-38.8	-39.8	21.9	0.00e+00	15	27	0	166723584	52	5630
2026-01-14 00:00:12.88	148.99	10.46	-38.8	-39.9	21.8	0.00e+00	92	27	0	168820736	52	5664
2026-01-14 00:00:13.89	148.98	10.55	-38.9	-40.0	21.8	0.00e+00	3	27	0	169869312	52	5716
2026-01-14 00:00:14.90	148.97	10.64	-38.8	-39.9	21.8	0.00e+00	92	27	0	171966464	50	6340
2026-01-14 00:00:15.91	148.96	10.73	-38.8	-39.8	21.8	0.00e+00	91	27	0	174063616	50	6313
2026-01-14 00:00:16.92	148.95	10.82	-38.8	-39.9	21.7	0.00e+00	92	27	0	176160768	50	6335
2026-01-14 00:00:17.93	148.94	10.91	-38.9	-40.0	21.7	0.00e+00	91	27	0	178257920	50	6401
2026-01-14 00:00:18.94	148.92	11.00	-38.8	-39.9	21.9	0.00e+00	63	27	0	180355072	50	6327
2026-01-14 00:00:19.95	148.91	11.10	-38.8	-39.9	21.8	0.00e+00	91	27	0	181403648	50	6343
2026-01-14 00:00:20.96	148.90	11.19	-38.8	-39.9	21.9	0.00e+00	72	27	0	183500800	50	6319
2026-01-14 00:00:21.96	148.89	11.28	-38.8	-39.8	21.9	0.00e+00	92	27	0	185597952	50	6306
2026-01-14 00:00:22.97	148.88	11.37	-38.7	-39.8	21.9	0.00e+00	41	27	0	187695104	50	6267
2026-01-14 00:00:23.98	148.87	11.47	-38.7	-39.8	21.9	0.00e+00	92	27	0	189792256	50	6294
2026-01-14 00:00:24.99	148.86	11.56	-38.7	-39.8	21.9	0.00e+00	92	27	0	190840832	50	6294
2026-01-14 00:00:26.00	148.84	11.65	-38.7	-39.8	21.9	0.00e+00	92	27	0	192937984	50	6288
2026-01-14 00:00:27.01	148.83	11.75	-38.6	-39.7	22.0	0.00e+00	92	27	0	195035136	50	6197
2026-01-14 00:00:28.02	148.82	11.84	-38.7	-39.8	21.9	0.00e+00	77	27	0	197132288	50	6272
2026-01-14 00:00:29.04	148.81	11.94	-38.8	-39.9	21.9	0.00e+00	92	27	0	199229440	50	6322
2026-01-14 00:00:30.04	148.79	12.03	-38.5	-39.6	22.1	0.00e+00	55	27	0	200278016	50	6113
2026-01-14 00:00:31.05	148.78	12.13	-38.6	-39.7	22.1	0.00e+00	92	27	0	202375168	50	6188
2026-01-14 00:00:32.06	148.77	12.22	-38.7	-39.7	22.0	0.00e+00	90	27	0	204472320	50	6245
2026-01-14 00:00:33.07	148.76	12.32	-38.5	-39.6	22.2	0.00e+00	92	27	0	206569472	50	6123
2026-01-14 00:00:34.08	148.74	12.42	-38.5	-39.5	22.2	0.00e+00	92	27	0	208666624	50	6099
2026-01-14 00:00:35.09	148.73	12.51	-38.5	-39.5	22.3	0.00e+00	8	27	0	209715200	50	6072
2026-01-14 00:00:36.11	148.72	12.61	-38.4	-39.4	22.3	0.00e+00	90	27	0	211812352	50	6027
2026-01-14 00:00:37.11	148.71	12.71	-38.3	-39.3	22.5	0.00e+00	0	27	0	213909504	50	5924
2026-01-14 00:00:38.13	148.69	12.81	-38.4	-39.4	22.4	0.00e+00	90	27	0	216006656	50	6001
2026-01-14 00:00:39.14	148.68	12.91	-38.4	-39.4	22.4	0.00e+00	92	27	0	218103808	50	5977
2026-01-14 00:00:40.15	148.67	13.01	-38.3	-39.3	22.5	0.00e+00	92	27	0	220200960	50	5925
2026-01-14 00:00:41.16	148.65	13.11	-38.2	-39.2	22.5	0.00e+00	92	27	0	221249536	50	5890
2026-01-14 00:00:42.17	148.64	13.21	-38.3	-39.3	22.5	0.00e+00	91	27	0	223346688	50	5898
2026-01-14 00:00:43.18	148.63	13.31	-38.3	-39.4	22.3	0.00e+00	91	27	0	225443840	50	5966
2026-01-14 00:00:44.19	148.61	13.41	-38.4	-39.4	22.4	0.00e+00	0	27	0	227540992	50	6001
2026-01-14 00:00:45.20	148.60	13.51	-38.3	-39.3	22.4	0.00e+00	92	27	0	229638144	50	5938
2026-01-14 00:00:46.21	148.58	13.61	-38.2	-39.2	22.6	0.00e+00	91	27	0	230686720	50	5885
2026-01-14 00:00:47.22	148.57	13.71	-38.3	-39.3	22.5	0.00e+00	92	27	0	232783872	50	5954
2026-01-14 00:00:48.22	148.56	13.82	-38.3	-39.3	22.5	0.00e+00	92	27	0	234881024	50	5931
2026-01-14 00:00:49.23	148.54	13.92	-38.1	-39.1	22.7	0.00e+00	92	27	0	236978176	50	5794
2026-01-14 00:00:50.24	148.53	14.02	-38.1	-39.1	22.6	0.00e+00	92	27	0	239075328	50	5823
2026-01-14 00:00:51.25	148.51	14.13	-38.1	-39.0	22.7	0.00e+00	7	27	0	240123904	50	5756
2026-01-14 00:00:52.26	148.50	14.23	-38.1	-39.0	22.7	0.00e+00	92	27	0	242221056	50	5760
2026-01-14 00:00:53.27	148.48	14.34	-38.1	-39.0	22.8	0.00e+00	79	27	0	244318208	50	5754
2026-01-14 00:00:54.28	148.47	14.44	-38.0	-39.0	22.8	0.00e+00	92	27	0	246415360	50	5718
2026-01-14 00:00:55.29	148.45	14.55	-37.9	-38.9	22.9	0.00e+00	92	27	0	248512512	50	5648
2026-01-14 00:00:56.30	148.44	14.65	-38.0	-39.0	22.8	0.00e+00	92	27	0	249561088	50	5703
2026-01-14 00:00:57.31	148.42	14.76	-37.9	-38.9	22.9	0.00e+00	92	27	0	251658240	50	5649
2026-01-14 00:00:58.32	148.41	14.87	-38.0	-38.9	22.9	0.00e+00	0	27	0	253755392	50	5692
2026-01-14 00:00:59.33	148.39	14.97	-37.9	-38.9	22.9	0.00e+00	92	27	0	255852544	50	5669
2026-01-14 00:01:00.34	148.37	15.08	-37.9	-38.8	23.0	0.00e+00	0	27	0	257949696	50	5620
2026-01-14 00:01:01.36	148.36	15.19	-37.9	-38.8	22.9	0.00e+00	92	27	0	258998272	50	5608
2026-01-14 00:01:02.36	148.34	15.30	-37.9	-38.8	23.0	0.00e+00	92	27	0	261095424	50	5627
2026-01-14 00:01:03.37	148.33	15.41	-37.9	-38.8	22.9	0.00e+00	91	27	0	263192576	50	5625
2026-01-14 00:01:04.39	148.31	15.52	-37.9	-38.9	23.0	0.00e+00	91	27	0	265289728	50	5638
2026-01-14 00:01:05.39	148.29	15.63	-37.8	-38.7	22.2	0.00e+00	91	27	0	267386880	50	5560
2026-01-14 00:01:06.41	148.28	15.74	-37.6	-38.6	23.2	0.00e+00	91	27	0	268435456	48	6134
2026-01-14 00:01:07.42	148.26	15.85	-37.7	-38.6	23.2	0.00e+00	7	27	0	270532608	48	6154
2026-01-14 00:01:08.43	148.24	15.96	-37.5	-38.4	23.3	0.00e+00	92	27	0	272629760	48	6032
2026-01-14 00:01:09.44	148.23	16.08	-37.5	-38.4	23.3	0.00e+00	90	27	0	274726912	48	6000
2026-01-14 00:01:10.45	148.21	16.19	-37.4	-38.3	23.5	0.00e+00	92	27	0	276824064	48	5910
2026-01-14 00:01:11.46	148.19	16.30	-37.4	-38.3	23.5	0.00e+00	92	27	0	277872640	48	5949
2026-01-14 00:01:12.47	148.17	16.42	-37.5	-38.4	23.4	0.00e+00	92	27	0	279969792	48	6006
2026-01-14 00:01:13.48	148.16	16.53	-37.3	-38.2	23.6	0.00e+00	92	27	0	282066944	48	5866
2026-01-14 00:01:14.49	148.14	16.65	-37.4	-38.3	23.5	0.00e+00	11	27	0	284164096	48	5922
2026-01-14 00:01:15.50	148.12	16.76	-37.2	-38.1	23.7	0.00e+00	92	27	0	286261248	48	5797
2026-01-14 00:01:16.51	148.10	16.88	-37.3	-38.1	23.6	0.00e+00	0	27	0	288358400	48	5823
2026-01-14 00:01:17.52	148.08	17.00	-37.1	-38.0	23.8	0.00e+00	90	27	0	289406976	48	5697
2026-01-14 00:01:18.53	148.06	17.11	-37.0	-37.9	23.8	0.00e+00	90	27	0	291504128	48	5685
2026-01-14 00:01:19.54	148.05	17.23	-37.1	-38.0	23.8	0.00e+00	92	27	0	293601280	48	5742
2026-01-14 00:01:20.54	148.03	17.35	-37.1	-38.0	23.8	0.00e+00	92	27	0	295698432	48	5732
2026-01-14 00:01:21.55	148.01	17.47	-37.1	-37.9	23.9	0.00e+00	92	27	0	297795584	48	5692
2026-01-14 00:01:22.56	147.99	17.59	-37.0	-37.9	23.8	0.00e+00	92	27	0	298844160	48	5653
2026-01-14 00:01:23.57	147.97	17.71	-36.9	-37.8	24.0	0.00e+00	0	27	0	300941312	48	5577
2026-01-14 00:01:24.58	147.95	17.83	-36.9	-37.7	24.0	0.00e+00	92	27	0	303038464	48	5555
2026-01-14 00:01:25.59	147.93	17.95	-36.8	-37.6	24.1	0.00e+00	90	27	0	305135616	48	5491
2026-01-14 00:01:26.60	147.91	18.07	-36.8	-37.6	24.1	0.00e+00	92	27	0	307232768	46	6163
2026-01-14 00:01:27.61	147.89	18.19	-36.8	-37.7	24.1	0.00e+00	92	27	0	308281344	46	6186
2026-01-14 00:01:28.62	147.87	18.32	-36.8	-37.6	24.1	0.00e+00	92	27	0	310378496	46	6166
2026-01-14 00:01:29.63	147.85	18.44	-36.7	-37.5	24.2	0.00e+00	92	27	0	312475648	46	6082
2026-01-14 00:01:30.65	147.83	18.57	-36.7	-37.5	24.3	0.00e+00	6	27	0	314572800	46	6069
2026-01-14 00:01:31.66	147.81	18.69	-36.8	-37.6	24.2	0.00e+00	92	27	0	316669952	46	6145
2026-01-14 00:01:32.67	147.79	18.82	-36.8	-37.6	24.2	0.00e+00	92	27	0	317718528	46	6139
2026-01-14 00:01:33.68	147.76	18.94	-36.8	-37.6	24.2	0.00e+00	92	27	0	319815680	46	6159
2026-01-14 00:01:34.69	147.74	19.07	-36.7	-37.6	24.2	0.00e+00	92	27	0	321912832	46	6132
2026-01-14 00:01:35.70	147.72	19.20	-36.6	-37.4	24.3	0.00e+00	92	27	0	324009984	46	6020
2026-01-14 00:01:36.71	147.70	19.33	-36.6	-37.4	24.3	0.00e+00	92	27	0	326107136	46	5997
2026-01-14 00:01:37.72	147.68	19.46	-36.5	-37.3	24.4	0.00e+00	92	27	0	327155712	46	5951
2026-01-14 00:01:38.73	147.65	19.59	-36.6	-37.4	24.3	0.00e+00	92	27	0	329252864	46	6019
2026-01-14 00:01:39.74	147.63	19.72	-36.5	-37.3	24.5	0.00e+00	0	27	0	331350016	46	5926
2026-01-14 00:01:40.75	147.61	19.85	-36.5	-37.4	24.4	0.00e+00	90	27	0	333447168	46	5983
2026-01-14 00:01:41.76	147.59	19.98	-36.5	-37.3	24.4	0.00e+00	90	27	0	335544320	46	5925
2026-01-14 00:01:42.77	147.56	20.11	-36.6	-37.4	24.3	0.00e+00	89	27	0	336592896	46	6019
2026-01-14 00:01:43.78	147.54	20.24	-36.4	-37.3	24.4	0.00e+00	92	27	0	338690048	46	5905
2026-01-14 00:01:44.79	147.52	20.38	-36.4	-37.2	24.4	0.00e+00	92	27	0	340787200	46	5888
2026-01-14 00:01:45.80	147.49	20.51	-36.4	-37.3	24.4	0.00e+00	91	27	0	342884352	46	5914
2026-01-14 00:01:46.81	147.47	20.65	-36.4	-37.2	24.6	0.00e+00	76	27	0	344981504	46	5885
2026-01-14 00:01:47.82	147.44	20.78	-36.4	-37.2	24.6	0.00e+00	90	27	0	346030080	46	5886
2026-01-14 00:01:48.83	147.42	20.92	-36.5	-37.4	24.4	0.00e+00	92	27	0	348127232	46	5970
2026-01-14 00:01:49.84	147.39	21.06	-36.5	-37.3	24.5	0.00e+00	91	27	0	350224384	46	5933
2026-01-14 00:01:50.85	147.37	21.20	-36.4	-37.2	24.6	0.00e+00	91	27	0	352321536	46	5848
2026-01-14 00:01:51.86	147.34	21.33	-36.4	-37.2	24.5	0.00e+00	92	27	0	354418688	46	5876
2026-01-14 00:01:52.87	147.32	21.47	-36.3	-37.1	24.6	0.00e+00	92	27	0	356515840	46	5814
2026-01-14 00:01:53.88	147.29	21.61	-36.1	-36.9	24.8	0.00e+00	7	27	0	357564416	46	5675
2026-01-14 00:01:54.89	147.26	21.76	-36.2	-37.0	24.7	0.00e+00	92	27	0	359661568	46	5735
2026-01-14 00:01:55.90	147.24	21.90	-36.1	-36.9	24.7	0.00e+00	92	27	0	361758720	46	5693
2026-01-14 00:01:56.91	147.21	22.04	-36.2	-37.1	24.7	0.00e+00	92	27	0	363855872	46	5766
2026-01-14 00:01:57.92	147.18	22.18	-36.2	-37.0	24.7	0.00e+00	91	27	0	365953024	46	5744
2026-01-14 00:01:58.93	147.16	22.33	-36.1	-36.9	24.8	0.00e+00	91	27	0	367001600	46	5664
2026-01-14 00:01:59.94	147.13	22.47	-36.1	-36.9	24.8	0.00e+00	92	27	0	369098752	46	5685
2026-01-14 00:02:00.95	147.10	22.62	-36.1	-36.9	24.8	0.00e+00	92	27	0	371195904	46	5659
2026-01-14 00:02:01.96	147.07	22.77	-36.1	-36.9	24.7	0.00e+00	92	27	0	373293056	46	5678
2026-01-14 00:02:02.97	147.04	22.91	-36.2	-37.0	24.8	0.00e+00	0	27	0	375390208	46	5731
2026-01-14 00:02:03.98	147.01	23.06	-36.1	-36.9	24.9	0.00e+00	92	27	0	376438784	46	5651
2026-01-14 00:02:04.99	146.99	23.21	-36.2	-37.0	24.7	0.00e+00	92	27	0	378535936	46	5743
2026-01-14 00:02:06.00	146.96	23.36	-36.2	-37.0	24.6	0.00e+00	90	27	0	380633088	46	5756
2026-01-14 00:02:07.01	146.93	23.51	-36.2	-37.0	24.6	0.00e+00	92	27	0	382730240	46	5757
2026-01-14 00:02:08.02	146.90	23.66	-36.2	-37.0	24.7	0.00e+00	90	27	0	384827392	46	5758
2026-01-14 00:02:09.03	146.87	23.82	-36.3	-37.1	24.6	0.00e+00	92	27	0	385875968	46	5779
2026-01-14 00:02:10.04	146.84	23.97	-36.3	-37.2	24.6	0.00e+00	29	27	0	387973120	46	5831
2026-01-14 00:02:11.05	146.80	24.13	-36.3	-37.1	24.7	0.00e+00	92	27	0	390070272	46	5824
2026-01-14 00:02:12.06	146.77	24.28	-36.2	-37.1	24.7	0.00e+00	90	27	0	392167424	46	5782
2026-01-14 00:02:13.07	146.74	24.44	-36.2	-37.1	24.7	0.00e+00	92	27	0	394264576	46	5767
2026-01-14 00:02:14.08	146.71	24.60	-36.4	-37.2	24.6	0.00e+00	91	27	0	395313152	46	5870
2026-01-14 00:02:15.09	146.68	24.75	-36.3	-37.1	24.7	0.00e+00	91	27	0	397410304	46	5821
2026-01-14 00:02:16.10	146.64	24.91	-36.3	-37.1	24.6	0.00e+00	91	27	0	399507456	46	5807
2026-01-14 00:02:17.11	146.61	25.07	-36.3	-37.2	24.7	0.00e+00	7	27	0	401604608	46	5831
2026-01-14 00:02:18.12	146.58	25.23	-36.4	-37.2	24.6	0.00e+00	92	27	0	403701760	46	5878
2026-01-14 00:02:19.13	146.54	25.40	-36.3	-37.2	24.7	0.00e+00	92	27	0	404750336	46	5836
2026-01-14 00:02:20.14	146.51	25.56	-36.4	-37.2	24.6	0.00e+00	92	27	0	406847488	46	5879
2026-01-14 00:02:21.15	146.47	25.72	-36.4	-37.2	24.6	0.00e+00	92	27	0	408944640	46	5880
2026-01-14 00:02:22.16	146.44	25.89	-36.5	-37.3	24.5	0.00e+00	92	27	0	411041792	46	5935
2026-01-14 00:02:23.17	146.40	26.06	-36.6	-37.4	24.5	0.00e+00	92	27	0	413138944	46	6011
2026-01-14 00:02:24.18	146.37	26.22	-36.6	-37.5	24.5	0.00e+00	92	27	0	414187520	46	6035
2026-01-14 00:02:25.20	146.33	26.39	-36.7	-37.6	24.3	0.00e+00	92	27	0	416284672	46	6107
2026-01-14 00:02:26.20	146.29	26.56	-36.8	-37.6	24.3	0.00e+00	0	27	0	418381824	46	6155
2026-01-14 00:02:27.21	146.26	26.73	-36.9	-37.7	24.1	0.00e+00	90	27	0	420478976	46	6230
2026-01-14 00:02:28.22	146.22	26.90	-37.1	-37.9	24.0	0.00e+00	92	27	0	422576128	46	6377
2026-01-14 00:02:29.23	146.18	27.07	-37.1	-38.0	24.0	0.00e+00	92	27	0	424673280	46	6402
2026-01-14 00:02:30.24	146.14	27.25	-37.3	-38.1	23.9	0.00e+00	92	27	0	425721856	46	6534
2026-01-14 00:02:31.25	146.10	27.42	-37.2	-38.1	23.9	0.00e+00	92	27	0	427819008	46	6483
2026-01-14 00:02:32.26	146.06	27.60	-37.3	-38.1	23.8	0.00e+00	92	27	0	429916160	46	6531
2026-01-14 00:02:33.27	146.02	27.77	-37.4	-38.3	23.8	0.00e+00	3	27	0	432013312	46	6646
2026-01-14 00:02:34.29	145.98	27.95	-37.5	-38.4	23.6	0.00e+00	90	27	0	434110464	46	6693
2026-01-14 00:02:35.30	145.94	28.13	-37.5	-38.4	23.6	0.00e+00	92	27	0	435159040	46	6731
2026-01-14 00:02:36.30	145.90	28.31	-37.6	-38.5	23.5	0.00e+00	91	27	0	437256192	46	6822
2026-01-14 00:02:37.32	145.86	28.49	-37.7	-38.7	23.3	0.00e+00	91	27	0	439353344	48	6175
2026-01-14 00:02:38.33	145.82	28.68	-38.0	-38.9	23.2	0.00e+00	91	27	0	441450496	48	6375
2026-01-14 00:02:39.34	145.77	28.86	-38.1	-39.1	23.0	0.00e+00	91	27	0	443547648	48	6481
2026-01-14 00:02:40.35	145.73	29.05	-38.2	-39.1	23.0	0.00e+00	0	27	0	444596224	48	6503
2026-01-14 00:02:41.35	145.69	29.23	-38.3	-39.3	22.9	0.00e+00	91	27	0	446693376	48	6623
2026-01-14 00:02:42.37	145.64	29.42	-38.4	-39.4	22.8	0.00e+00	92	27	0	448790528	48	6708
2026-01-14 00:02:43.38	145.60	29.61	-38.6	-39.6	22.5	0.00e+00	92	27	0	450887680	48	6905
2026-01-14 00:02:44.39	145.55	29.80	-38.8	-39.8	22.4	0.00e+00	90	27	0	452984832	50	6288
2026-01-14 00:02:45.40	145.50	29.99	-39.0	-40.0	22.1	0.00e+00	92	27	0	454033408	50	6432
2026-01-14 00:02:46.41	145.46	30.18	-39.0	-40.0	22.2	0.00e+00	92	27	0	456130560	50	6443
2026-01-14 00:02:47.42	145.41	30.38	-39.2	-40.2	22.1	0.00e+00	12	27	0	458227712	50	6591
2026-01-14 00:02:48.43	145.36	30.57	-39.2	-40.3	22.0	0.00e+00	92	27	0	460324864	50	6630
2026-01-14 00:02:49.44	145.31	30.77	-39.3	-40.4	21.9	0.00e+00	0	27	0	462422016	50	6697
2026-01-14 00:02:50.45	145.26	30.96	-39.6	-40.7	21.7	0.00e+00	90	27	0	464519168	50	6932
2026-01-14 00:02:51.46	145.21	31.16	-39.6	-40.8	21.6	0.00e+00	92	27	0	465567744	52	6251
2026-01-14 00:02:52.47	145.16	31.36	-39.7	-40.9	21.4	0.00e+00	90	27	0	467664896	52	6340
2026-01-14 00:02:53.48	145.11	31.56	-39.9	-41.1	21.3	0.00e+00	92	27	0	469762048	52	6465
2026-01-14 00:02:54.49	145.06	31.77	-40.1	-41.3	21.2	0.00e+00	90	27	0	471859200	52	6650
2026-01-14 00:02:55.50	145.01	31.97	-40.0	-41.2	21.1	0.00e+00	92	27	0	473956352	52	6583
2026-01-14 00:02:56.51	144.95	32.18	-40.2	-41.4	20.9	0.00e+00	0	27	0	475004928	52	6700
2026-01-14 00:02:57.52	144.90	32.38	-40.2	-41.4	21.0	0.00e+00	92	27	0	477102080	52	6758
2026-01-14 00:02:58.52	144.84	32.59	-40.3	-41.5	20.9	0.00e+00	92	27	0	479199232	52	6815
2026-01-14 00:02:59.53	144.79	32.80	-40.0	-41.2	21.2	0.00e+00	92	27	0	481296384	52	6542
2026-01-14 00:03:00.54	144.73	33.01	-40.1	-41.3	21.0	0.00e+00	91	27	0	482344960	52	6648
2026-01-14 00:03:01.55	144.67	33.22	-40.2	-41.4	20.9	0.00e+00	92	27	0	484442112	52	6765
2026-01-14 00:03:02.56	144.62	33.44	-40.2	-41.4	21.0	0.00e+00	92	27	0	486539264	52	6738
2026-01-14 00:03:03.57	144.56	33.65	-40.3	-41.5	20.9	0.00e+00	0	27	0	488636416	52	6831
2026-01-14 00:03:04.58	144.50	33.87	-40.1	-41.3	21.1	0.00e+00	91	27	0	490733568	52	6620
2026-01-14 00:03:05.59	144.44	34.09	-40.0	-41.2	21.3	0.00e+00	91	27	0	492830720	52	6547
2026-01-14 00:03:06.60	144.38	34.31	-39.9	-41.0	21.4	0.00e+00	90	27	0	493879296	52	6464
2026-01-14 00:03:07.61	144.31	34.53	-39.6	-40.7	21.6	0.00e+00	92	27	0	495976448	52	6224
2026-01-14 00:03:08.62	144.25	34.75	-39.5	-40.5	21.8	0.00e+00	4	27	0	498073600	52	6099
2026-01-14 00:03:09.63	144.19	34.98	-39.4	-40.4	21.9	0.00e+00	92	27	0	500170752	52	6012
2026-01-14 00:03:10.64	144.12	35.21	-39.0	-40.0	22.2	0.00e+00	81	27	0	502267904	52	5738
2026-01-14 00:03:11.65	144.06	35.43	-38.9	-39.9	22.4	0.00e+00	92	27	0	503316480	52	5676
2026-01-14 00:03:12.65	143.99	35.66	-38.4	-39.4	22.9	0.00e+00	90	27	0	505413632	50	5987
2026-01-14 00:03:13.66	143.92	35.89	-38.3	-39.2	23.0	0.00e+00	92	27	0	507510784	50	5889
2026-01-14 00:03:14.67	143.85	36.12	-38.3	-39.2	22.9	0.00e+00	92	27	0	509607936	50	5890
2026-01-14 00:03:15.68	143.78	36.36	-37.9	-38.8	23.4	0.00e+00	40	27	0	511705088	50	5579
2026-01-14 00:03:16.69	143.71	36.59	-37.9	-38.8	23.4	0.00e+00	90	27	0	512753664	50	5581
2026-01-14 00:03:17.70	143.64	36.83	-37.9	-38.8	23.3	0.00e+00	7	27	0	514850816	50	5603
2026-01-14 00:03:18.71	143.57	37.07	-37.5	-38.4	23.7	0.00e+00	92	27	0	516947968	48	5981
2026-01-14 00:03:19.72	143.49	37.31	-37.7	-38.6	23.5	0.00e+00	0	27	0	519045120	48	6118
2026-01-14 00:03:20.73	143.42	37.56	-37.6	-38.5	23.6	0.00e+00	92	27	0	521142272	48	6051
2026-01-14 00:03:21.74	143.34	37.80	-37.8	-38.8	23.4	0.00e+00	92	27	0	522190848	48	6250
2026-01-14 00:03:22.75	143.26	38.05	-37.6	-38.4	23.7	0.00e+00	81	27	0	524288000	48	6025
2026-01-14 00:03:23.76	143.18	38.29	-37.8	-38.7	23.4	0.00e+00	92	27	0	526385152	48	6244
2026-01-14 00:03:24.77	143.10	38.54	-37.8	-38.8	23.5	0.00e+00	0	27	0	528482304	48	6248
2026-01-14 00:03:25.78	143.02	38.80	-37.9	-38.8	23.3	0.00e+00	92	27	0	530579456	48	6274
2026-01-14 00:03:26.79	142.94	39.05	-38.2	-39.2	23.1	0.00e+00	0	27	0	531628032	48	6557
2026-01-14 00:03:27.80	142.85	39.30	-38.4	-39.4	22.8	0.00e+00	92	27	0	533725184	48	6746
2026-01-14 00:03:28.81	142.77	39.56	-38.7	-39.7	22.6	0.00e+00	92	27	0	535822336	48	6969
2026-01-14 00:03:29.82	142.68	39.82	-38.8	-39.8	22.6	0.00e+00	92	27	0	537919488	50	6300
2026-01-14 00:03:30.83	142.59	40.08	-38.8	-39.8	22.6	0.00e+00	92	27	0	540016640	50	6268
2026-01-14 00:03:31.84	142.50	40.34	-38.9	-39.9	22.4	0.00e+00	10	27	0	542113792	50	6362
2026-01-14 00:03:32.85	142.41	40.61	-38.9	-39.9	22.4	0.00e+00	92	27	0	543162368	50	6358
2026-01-14 00:03:33.86	142.32	40.87	-38.8	-39.8	22.5	0.00e+00	7	27	0	545259520	50	6294
2026-01-14 00:03:34.87	142.22	41.14	-38.7	-39.7	22.6	0.00e+00	92	27	0	547356672	50	6223
2026-01-14 00:03:35.88	142.12	41.41	-38.9	-39.9	22.5	0.00e+00	80	27	0	549453824	50	6378
2026-01-14 00:03:36.89	142.03	41.68	-38.9	-39.9	22.4	0.00e+00	92	27	0	550502400	50	6363
2026-01-14 00:03:37.89	141.93	41.95	-39.0	-40.0	22.3	0.00e+00	92	27	0	552599552	50	6464
2026-01-14 00:03:38.91	141.82	42.23	-39.3	-40.3	22.1	0.00e+00	25	27	0	554696704	50	6682
2026-01-14 00:03:39.91	141.72	42.51	-39.3	-40.3	22.0	0.00e+00	92	27	0	556793856	50	6672
2026-01-14 00:03:40.92	141.62	42.79	-39.4	-40.5	21.9	0.00e+00	0	27	0	558891008	50	6799
2026-01-14 00:03:41.93	141.51	43.07	-39.5	-40.6	21.8	0.00e+00	92	27	0	560988160	50	6859
2026-01-14 00:03:42.94	141.40	43.35	-39.7	-40.8	21.6	0.00e+00	0	27	0	562036736	50	7081
2026-01-14 00:03:43.94	141.29	43.63	-39.6	-40.7	21.7	0.00e+00	92	27	0	564133888	50	6995
2026-01-14 00:03:44.96	141.18	43.92	-39.7	-40.9	21.5	0.00e+00	90	27	0	566231040	50	7092
2026-01-14 00:03:45.96	141.06	44.21	-39.8	-41.0	21.5	0.00e+00	91	27	0	568328192	52	6408
2026-01-14 00:03:46.97	140.94	44.50	-39.9	-41.1	21.5	0.00e+00	90	27	0	570425344	52	6525
2026-01-14 00:03:47.98	140.82	44.80	-39.5	-40.6	21.7	0.00e+00	80	27	0	571473920	52	6168
2026-01-14 00:03:49.00	140.70	45.10	-39.5	-40.6	21.8	0.00e+00	92	27	0	573571072	52	6167
2026-01-14 00:03:50.01	140.58	45.39	-39.7	-40.8	21.7	0.00e+00	0	27	0	575668224	52	6276
2026-01-14 00:03:51.02	140.45	45.69	-39.6	-40.7	21.7	0.00e+00	91	27	0	577765376	52	6191
2026-01-14 00:03:52.03	140.32	45.99	-39.2	-40.3	22.1	0.00e+00	90	27	0	579862528	52	5923
2026-01-14 00:03:53.04	140.19	46.30	-39.2	-40.3	22.1	0.00e+00	92	27	0	580911104	52	5900
2026-01-14 00:03:54.05	140.05	46.60	-39.6	-40.7	21.7	0.00e+00	90	27	0	583008256	52	6175
2026-01-14 00:03:55.06	139.92	46.91	-40.0	-41.2	21.3	0.00e+00	2	27	0	585105408	52	6592
2026-01-14 00:03:56.06	139.78	47.22	-40.6	-41.8	20.8	0.00e+00	90	27	0	587202560	52	7055
2026-01-14 00:03:57.07	139.63	47.53	-40.8	-42.1	20.4	0.00e+00	8	27	0	589299712	52	7299
2026-01-14 00:03:58.09	139.49	47.85	-41.0	-42.3	20.2	0.00e+00	92	27	0	590348288	54	6676
2026-01-14 00:03:59.10	139.34	48.17	-40.8	-42.1	20.4	0.00e+00	79	27	0	592445440	54	6524
2026-01-14 00:04:00.11	139.18	48.48	-41.0	-42.3	20.2	0.00e+00	90	27	0	594542592	54	6677
2026-01-14 00:04:01.12	139.03	48.80	-40.8	-42.1	20.4	0.00e+00	92	27	0	596639744	54	6516
2026-01-14 00:04:02.13	138.87	49.13	-40.1	-41.3	21.1	0.00e+00	50	27	0	598736896	54	5932
2026-01-14 00:04:03.14	138.71	49.45	-39.5	-40.6	21.9	0.00e+00	91	27	0	599785472	52	6114
2026-01-14 00:04:04.15	138.54	49.78	-39.2	-40.3	22.2	0.00e+00	76	27	0	601882624	52	5900
2026-01-14 00:04:05.16	138.37	50.11	-38.8	-39.8	22.6	0.00e+00	92	27	0	603979776	52	5599
2026-01-14 00:04:06.17	138.20	50.44	-38.3	-39.2	23.0	0.00e+00	0	27	0	606076928	50	5892
2026-01-14 00:04:07.18	138.02	50.77	-38.0	-38.9	23.3	0.00e+00	91	27	0	608174080	50	5679
2026-01-14 00:04:08.19	137.84	51.11	-37.7	-38.6	23.6	0.00e+00	92	27	0	610271232	48	6122
2026-01-14 00:04:09.20	137.65	51.45	-36.7	-37.5	24.5	0.00e+00	90	27	0	611319808	48	5426
2026-01-14 00:04:10.21	137.46	51.79	-36.5	-37.3	24.7	0.00e+00	91	27	0	613416960	46	5915
2026-01-14 00:04:11.22	137.27	52.13	-36.3	-37.1	24.9	0.00e+00	6	27	0	615514112	46	5820
2026-01-14 00:04:12.23	137.07	52.47	-36.1	-36.9	25.0	0.00e+00	91	27	0	617611264	46	5667
2026-01-14 00:04:13.24	136.87	52.82	-35.8	-36.6	25.2	0.00e+00	81	27	0	618659840	46	5467
2026-01-14 00:04:14.25	136.66	53.16	-35.9	-36.7	25.1	0.00e+00	92	27	0	620756992	44	6218
2026-01-14 00:04:15.26	136.44	53.51	-36.1	-36.9	24.9	0.00e+00	90	27	0	622854144	44	6389
2026-01-14 00:04:16.27	136.22	53.87	-36.4	-37.2	24.8	0.00e+00	91	27	0	624951296	44	6579
2026-01-14 00:04:17.28	136.00	54.22	-36.4	-37.2	24.8	0.00e+00	91	27	0	627048448	44	6567
2026-01-14 00:04:18.29	135.77	54.57	-36.4	-37.2	24.8	0.00e+00	0	27	0	629145600	44	6547
2026-01-14 00:04:19.30	135.53	54.93	-36.7	-37.5	24.4	0.00e+00	92	27	0	630194176	44	6812
2026-01-14 00:04:20.31	135.29	55.29	-37.3	-38.1	24.0	0.00e+00	0	27	0	632291328	46	6530
2026-01-14 00:04:21.32	135.04	55.65	-37.5	-38.4	23.7	0.00e+00	92	27	0	634388480	46	6760
2026-01-14 00:04:22.33	134.79	56.02	-37.5	-38.4	23.8	0.00e+00	0	27	0	636485632	46	6712
2026-01-14 00:04:23.34	134.52	56.38	-37.9	-38.8	23.5	0.00e+00	92	27	0	638582784	46	7036
2026-01-14 00:04:24.35	134.26	56.75	-38.0	-38.9	23.3	0.00e+00	90	27	0	639631360	48	6372
2026-01-14 00:04:25.36	133.98	57.12	-38.0	-38.9	23.3	0.00e+00	92	27	0	641728512	48	6357
2026-01-14 00:04:26.37	133.69	57.49	-38.2	-39.2	22.9	0.00e+00	91	27	0	643825664	48	6564
2026-01-14 00:04:27.38	133.40	57.86	-38.8	-39.8	22.5	0.00e+00	2	27	0	645922816	50	6300
2026-01-14 00:04:28.39	133.10	58.23	-39.3	-40.3	22.0	0.00e+00	92	27	0	648019968	50	6687
2026-01-14 00:04:29.40	132.79	58.61	-39.1	-40.1	22.2	0.00e+00	0	27	0	649068544	50	6518
2026-01-14 00:04:30.41	132.47	58.99	-38.6	-39.6	22.8	0.00e+00	92	27	0	651165696	50	6121
2026-01-14 00:04:31.42	132.15	59.36	-38.1	-39.0	23.3	0.00e+00	92	27	0	653262848	50	5723
2026-01-14 00:04:32.43	131.81	59.74	-37.8	-38.7	23.5	0.00e+00	92	27	0	655360000	50	5541
2026-01-14 00:04:33.44	131.46	60.12	-37.4	-38.3	23.8	0.00e+00	93	27	0	657457152	48	5917
2026-01-14 00:04:34.45	131.10	60.51	-37.1	-38.0	24.1	0.00e+00	11	27	0	658505728	48	5704
2026-01-14 00:04:35.46	130.73	60.89	-36.9	-37.8	24.3	0.00e+00	92	27	0	660602880	48	5567
2026-01-14 00:04:36.47	130.35	61.28	-36.5	-37.3	24.5	0.00e+00	10	27	0	662700032	46	5958
2026-01-14 00:04:37.48	129.96	61.66	-36.3	-37.1	24.6	0.00e+00	92	27	0	664797184	46	5817
2026-01-14 00:04:38.49	129.56	62.05	-36.3	-37.0	24.8	0.00e+00	93	27	0	666894336	46	5760
2026-01-14 00:04:39.49	129.14	62.43	-36.1	-36.9	25.0	0.00e+00	92	27	0	668991488	46	5673
2026-01-14 00:04:40.50	128.71	62.82	-35.9	-36.7	25.1	0.00e+00	92	27	0	670040064	46	5523
2026-01-14 00:04:41.51	128.26	63.21	-35.8	-36.5	25.0	0.00e+00	0	27	0	672137216	44	6090
2026-01-14 00:04:42.52	127.80	63.60	-35.7	-36.5	25.2	0.00e+00	92	27	0	674234368	44	6091
2026-01-14 00:04:43.53	127.32	63.99	-35.9	-36.7	25.1	0.00e+00	5	27	0	676331520	44	6200
2026-01-14 00:04:44.54	126.83	64.38	-36.0	-36.8	24.8	0.00e+00	92	27	0	678428672	44	6291
2026-01-14 00:04:45.55	126.32	64.77	-36.3	-37.1	24.8	0.00e+00	18	27	0	679477248	44	6535
2026-01-14 00:04:46.56	125.79	65.17	-36.5	-37.3	24.6	0.00e+00	92	27	0	681574400	44	6627
2026-01-14 00:04:47.57	125.24	65.56	-37.0	-37.9	24.1	0.00e+00	92	27	0	683671552	46	6323
2026-01-14 00:04:48.58	124.67	65.95	-38.0	-38.9	23.1	0.00e+00	77	27	0	685768704	48	6342
2026-01-14 00:04:49.59	124.09	66.34	-39.1	-40.2	22.0	0.00e+00	90	27	0	686817280	50	6575
2026-01-14 00:04:50.60	123.48	66.73	-39.6	-40.7	21.6	0.00e+00	83	27	0	688914432	50	6950
2026-01-14 00:04:51.61	122.84	67.12	-39.5	-40.7	21.5	0.00e+00	92	27	0	691011584	50	6938
2026-01-14 00:04:52.62	122.18	67.51	-39.8	-41.0	21.2	0.00e+00	81	27	0	693108736	52	6459
2026-01-14 00:04:53.63	121.50	67.90	-39.5	-40.6	21.7	0.00e+00	92	27	0	695205888	52	6141
2026-01-14 00:04:54.64	120.79	68.28	-38.8	-39.8	22.5	0.00e+00	92	27	0	697303040	50	6293
2026-01-14 00:04:55.64	120.06	68.66	-38.6	-39.6	22.6	0.00e+00	92	27	0	698351616	50	6128
2026-01-14 00:04:56.65	119.30	69.05	-38.2	-39.1	23.0	0.00e+00	90	27	0	700448768	50	5812
2026-01-14 00:04:57.66	118.50	69.43	-37.9	-38.8	23.4	0.00e+00	7	27	0	702545920	50	5618
2026-01-14 00:04:58.67	117.67	69.81	-37.6	-38.5	23.6	0.00e+00	91	27	0	704643072	48	6058
2026-01-14 00:04:59.68	116.80	70.18	-37.7	-38.6	23.4	0.00e+00	10	27	0	706740224	48	6141
2026-01-14 00:05:00.69	115.91	70.55	-37.2	-38.1	23.9	0.00e+00	92	27	0	707788800	48	5801
2026-01-14 00:05:01.70	114.97	70.92	-37.0	-37.8	24.3	0.00e+00	92	27	0	709885952	48	5595
2026-01-14 00:05:02.71	113.99	71.29	-36.9	-37.8	24.3	0.00e+00	91	27	0	711983104	46	6250
2026-01-14 00:05:03.72	112.97	71.65	-36.9	-37.8	24.2	0.00e+00	90	27	0	714080256	46	6250
2026-01-14 00:05:04.73	111.91	72.01	-36.9	-37.8	24.2	0.00e+00	41	27	0	716177408	46	6257
2026-01-14 00:05:05.74	110.81	72.36	-37.1	-38.0	23.9	0.00e+00	92	27	0	717225984	46	6421
2026-01-14 00:05:06.75	109.65	72.71	-38.0	-38.9	23.1	0.00e+00	77	27	0	719323136	48	6346
2026-01-14 00:05:07.76	108.45	73.05	-38.1	-39.0	23.3	0.00e+00	92	27	0	721420288	48	6439
2026-01-14 00:05:08.77	107.20	73.38	-37.7	-38.6	23.5	0.00e+00	11	27	0	723517440	48	6114
2026-01-14 00:05:09.78	105.89	73.71	-37.6	-38.5	23.6	0.00e+00	90	27	0	725614592	48	6057
2026-01-14 00:05:10.79	104.53	74.03	-37.9	-38.8	23.3	0.00e+00	92	27	0	726663168	48	6294
2026-01-14 00:05:11.80	103.10	74.34	-38.6	-39.6	22.5	0.00e+00	36	27	0	728760320	48	6918
2026-01-14 00:05:12.81	101.62	74.64	-39.4	-40.5	21.8	0.00e+00	92	27	0	730857472	50	6818
2026-01-14 00:05:13.82	100.08	74.94	-39.4	-40.5	21.8	0.00e+00	9	27	0	732954624	50	6788
2026-01-14 00:05:14.82	98.49	75.22	-39.4	-40.4	22.2	0.00e+00	92	27	0	735051776	50	6745
2026-01-14 00:05:15.83	96.83	75.49	-39.7	-40.8	21.5	0.00e+00	68	27	0	736100352	50	7084
2026-01-14 00:05:16.85	95.08	75.75	-39.6	-40.7	21.6	0.00e+00	92	27	0	738197504	52	6230
2026-01-14 00:05:17.86	93.28	76.00	-38.9	-39.9	22.5	0.00e+00	90	27	0	740294656	52	5649
2026-01-14 00:05:18.86	91.44	76.23	-39.6	-40.7	21.7	0.00e+00	92	27	0	742391808	52	6211
2026-01-14 00:05:19.87	89.51	76.45	-40.0	-41.2	21.2	0.00e+00	90	27	0	744488960	52	6569
2026-01-14 00:05:20.88	87.52	76.65	-39.8	-40.9	21.2	0.00e+00	6	27	0	745537536	52	6387
2026-01-14 00:05:21.89	85.47	76.84	-40.3	-41.5	21.2	0.00e+00	92	27	0	747634688	52	6771
2026-01-14 00:05:22.90	83.36	77.01	-39.9	-41.1	21.4	0.00e+00	2	27	0	749731840	52	6493
2026-01-14 00:05:23.91	81.20	77.17	-40.0	-41.1	21.1	0.00e+00	92	27	0	751828992	52	6519
2026-01-14 00:05:24.92	78.98	77.31	-41.0	-42.4	19.9	0.00e+00	92	27	0	753926144	54	6730
2026-01-14 00:05:25.93	76.72	77.42	-41.3	-42.7	19.7	0.00e+00	92	27	0	754974720	54	6984
2026-01-14 00:05:26.94	74.42	77.52	-40.5	-41.8	20.6	0.00e+00	90	27	0	757071872	54	6262
2026-01-14 00:05:27.95	72.08	77.60	-40.3	-41.5	20.9	0.00e+00	81	27	0	759169024	54	6059
2026-01-14 00:05:28.96	69.72	77.66	-40.1	-41.3	21.1	0.00e+00	92	27	0	761266176	54	5930
2026-01-14 00:05:29.97	67.34	77.69	-40.0	-41.1	21.3	0.00e+00	81	27	0	763363328	54	5818
2026-01-14 00:05:30.98	64.95	77.71	-39.8	-41.0	21.5	0.00e+00	92	27	0	765460480	52	6420
2026-01-14 00:05:31.99	62.55	77.70	-39.1	-40.1	22.1	0.00e+00	92	27	0	766509056	52	5812
2026-01-14 00:05:33.00	60.17	77.68	-39.5	-40.6	21.8	0.00e+00	92	27	0	768606208	52	6165
2026-01-14 00:05:34.01	57.79	77.63	-39.8	-41.0	21.3	0.00e+00	90	27	0	770703360	52	6448
2026-01-14 00:05:35.02	55.44	77.57	-39.8	-41.0	21.5	0.00e+00	0	27	0	772800512	52	6395
2026-01-14 00:05:36.03	53.12	77.48	-39.4	-40.5	21.7	0.00e+00	90	27	0	774897664	52	6077
2026-01-14 00:05:37.04	50.84	77.37	-39.7	-40.8	21.4	0.00e+00	2	27	0	775946240	52	6306
2026-01-14 00:05:38.05	48.60	77.25	-40.5	-41.8	20.5	0.00e+00	92	27	0	778043392	52	7071
2026-01-14 00:05:39.06	46.41	77.10	-40.6	-41.9	20.4	0.00e+00	0	27	0	780140544	54	6347
2026-01-14 00:05:40.07	44.27	76.94	-40.4	-41.7	20.6	0.00e+00	92	27	0	782237696	54	6207
2026-01-14 00:05:41.08	42.18	76.76	-40.9	-42.2	20.3	0.00e+00	90	27	0	784334848	54	6554
2026-01-14 00:05:42.09	40.16	76.56	-40.7	-41.9	20.6	0.00e+00	0	27	0	785383424	54	6367
2026-01-14 00:05:43.10	38.20	76.35	-40.4	-41.7	20.7	0.00e+00	92	27	0	787480576	54	6195
2026-01-14 00:05:44.11	36.31	76.13	-40.6	-41.9	20.7	0.00e+00	7	27	0	789577728	54	6324
2026-01-14 00:05:45.12	34.47	75.89	-41.1	-42.5	20.0	0.00e+00	90	27	0	791674880	54	6783
2026-01-14 00:05:46.13	32.71	75.63	-41.4	-42.9	19.3	0.00e+00	8	27	0	793772032	54	7139
2026-01-14 00:05:47.14	31.01	75.37	-42.4	-44.1	18.5	0.00e+00	92	27	0	794820608	56	7304
2026-01-14 00:05:48.15	29.37	75.09	-41.6	-43.1	19.4	0.00e+00	92	27	0	796917760	56	6532
2026-01-14 00:05:49.16	27.80	74.80	-41.1	-42.4	20.1	0.00e+00	77	27	0	799014912	56	6027
2026-01-14 00:05:50.17	26.28	74.51	-40.8	-42.1	20.3	0.00e+00	92	27	0	801112064	56	5812
2026-01-14 00:05:51.19	24.82	74.20	-40.5	-41.8	20.6	0.00e+00	78	27	0	803209216	54	6252
2026-01-14 00:05:52.19	23.44	73.89	-40.1	-41.3	21.3	0.00e+00	92	27	0	805306368	54	5931
2026-01-14 00:05:53.20	22.10	73.56	-39.2	-40.3	22.1	0.00e+00	80	27	0	806354944	52	5915
2026-01-14 00:05:54.21	20.82	73.23	-38.6	-39.6	22.5	0.00e+00	90	27	0	808452096	50	6151
2026-01-14 00:05:55.22	19.59	72.90	-38.3	-39.3	23.0	0.00e+00	55	27	0	810549248	50	5917
2026-01-14 00:05:56.23	18.41	72.55	-38.4	-39.3	23.0	0.00e+00	90	27	0	812646400	50	5944
2026-01-14 00:05:57.24	17.28	72.20	-37.8	-38.7	23.4	0.00e+00	92	27	0	814743552	50	5531
2026-01-14 00:05:58.25	16.20	71.85	-37.4	-38.3	23.8	0.00e+00	4	27	0	815792128	48	5897
2026-01-14 00:05:59.26	15.16	71.49	-36.9	-37.7	24.2	0.00e+00	92	27	0	817889280	48	5553
2026-01-14 00:06:00.27	14.16	71.13	-37.3	-38.2	23.9	0.00e+00	0	27	0	819986432	48	5875
2026-01-14 00:06:01.28	13.21	70.76	-37.7	-38.6	23.5	0.00e+00	92	27	0	822083584	48	6146
2026-01-14 00:06:02.29	12.29	70.39	-37.8	-38.7	23.5	0.00e+00	0	27	0	823132160	48	6195
2026-01-14 00:06:03.30	11.41	70.02	-37.9	-38.8	23.4	0.00e+00	55	27	0	825229312	48	6265
2026-01-14 00:06:04.31	10.56	69.64	-38.7	-39.8	22.4	0.00e+00	92	27	0	827326464	48	7011
2026-01-14 00:06:05.32	9.74	69.26	-39.5	-40.7	21.7	0.00e+00	33	27	0	829423616	50	6938
2026-01-14 00:06:06.33	8.96	68.88	-39.6	-40.7	21.6	0.00e+00	92	27	0	831520768	52	6225
2026-01-14 00:06:07.34	8.21	68.50	-39.1	-40.2	22.2	0.00e+00	0	27	0	833617920	52	5849
2026-01-14 00:06:08.35	7.49	68.11	-39.2	-40.2	22.1	0.00e+00	92	27	0	834666496	52	5885
2026-01-14 00:06:09.36	6.79	67.72	-39.7	-40.8	21.5	0.00e+00	0	27	0	836763648	52	6267
2026-01-14 00:06:10.37	6.12	67.34	-40.1	-41.3	20.9	0.00e+00	90	27	0	838860800	52	6662
2026-01-14 00:06:11.38	5.47	66.95	-40.2	-41.4	21.0	0.00e+00	92	27	0	840957952	52	6759
2026-01-14 00:06:12.39	4.85	66.56	-39.6	-40.8	21.5	0.00e+00	0	27	0	843055104	52	6285
2026-01-14 00:06:13.40	4.25	66.17	-39.2	-40.3	21.9	0.00e+00	92	27	0	844103680	52	5960
2026-01-14 00:06:14.41	3.68	65.78	-38.6	-39.6	22.8	0.00e+00	0	27	0	846200832	50	6112
2026-01-14 00:06:15.42	3.12	65.39	-37.9	-38.8	23.4	0.00e+00	91	27	0	848297984	50	5604
2026-01-14 00:06:16.43	2.58	65.00	-36.8	-37.7	24.2	0.00e+00	81	27	0	850395136	48	5516
2026-01-14 00:06:17.44	2.06	64.61	-36.5	-37.3	24.6	0.00e+00	92	27	0	852492288	46	5908
2026-01-14 00:06:18.45	1.56	64.22	-35.9	-36.6	25.2	0.00e+00	70	27	0	853540864	46	5479
2026-01-14 00:06:19.46	1.07	63.83	-35.2	-36.0	25.7	0.00e+00	0	27	0	855638016	44	5708
2026-01-14 00:06:20.47	0.60	63.44	-35.3	-36.0	25.5	0.00e+00	92	27	0	857735168	44	5761
2026-01-14 00:06:21.48	0.15	63.05	-35.2	-35.9	25.7	0.00e+00	6	27	0	859832320	44	5668
2026-01-14 00:06:22.49	359.71	62.66	-35.4	-36.2	25.4	0.00e+00	92	27	0	861929472	44	5851
2026-01-14 00:06:23.51	359.28	62.27	-35.4	-36.2	25.4	0.00e+00	6	27	0	862978048	44	5865
2026-01-14 00:06:24.52	358.87	61.88	-36.0	-36.8	25.0	0.00e+00	92	27	0	865075200	44	6277
2026-01-14 00:06:25.53	358.47	61.50	-36.6	-37.5	24.5	0.00e+00	0	27	0	867172352	44	6772
2026-01-14 00:06:26.54	358.08	61.11	-37.6	-38.5	23.5	0.00e+00	8	27	0	869269504	46	6775
2026-01-14 00:06:27.55	357.71	60.73	-38.3	-39.3	22.8	0.00e+00	90	27	0	871366656	48	6626
2026-01-14 00:06:28.56	357.35	60.35	-38.9	-39.9	22.4	0.00e+00	81	27	0	873463808	50	6336
2026-01-14 00:06:29.57	356.99	59.97	-39.6	-40.7	21.6	0.00e+00	92	27	0	874512384	50	6968
2026-01-14 00:06:30.58	356.65	59.59	-39.9	-41.1	21.3	0.00e+00	0	27	0	876609536	52	6516
2026-01-14 00:06:31.59	356.32	59.21	-40.2	-41.4	20.9	0.00e+00	92	27	0	878706688	52	6735
2026-01-14 00:06:32.60	356.00	58.83	-40.1	-41.3	20.9	0.00e+00	11	27	0	880803840	52	6645
2026-01-14 00:06:33.61	355.68	58.46	-40.7	-42.0	20.3	0.00e+00	92	27	0	882900992	52	7213
2026-01-14 00:06:34.62	355.38	58.08	-41.5	-42.9	19.5	0.00e+00	92	27	0	883949568	54	7167
2026-01-14 00:06:35.63	355.08	57.71	-41.6	-43.0	19.6	0.00e+00	79	27	0	886046720	56	6460
2026-01-14 00:06:36.64	354.79	57.34	-41.4	-42.9	19.6	0.00e+00	92	27	0	888143872	56	6340
2026-01-14 00:06:37.64	354.52	56.98	-40.9	-42.2	20.3	0.00e+00	5	27	0	890241024	56	5860
2026-01-14 00:06:38.66	354.24	56.61	-40.1	-41.3	21.2	0.00e+00	90	27	0	892338176	54	5915
2026-01-14 00:06:39.66	353.98	56.25	-39.0	-40.1	22.3	0.00e+00	4	27	0	893386752	52	5777
2026-01-14 00:06:40.67	353.72	55.88	-38.1	-39.0	23.2	0.00e+00	90	27	0	895483904	50	5743
2026-01-14 00:06:41.68	353.47	55.52	-37.5	-38.3	23.7	0.00e+00	68	27	0	897581056	48	5963
2026-01-14 00:06:42.70	353.22	55.16	-37.6	-38.5	23.6	0.00e+00	0	27	0	899678208	48	6085
2026-01-14 00:06:43.70	352.98	54.80	-37.4	-38.3	23.7	0.00e+00	91	27	0	901775360	48	5933
2026-01-14 00:06:44.71	352.75	54.45	-37.1	-38.0	24.0	0.00e+00	0	27	0	902823936	48	5723
2026-01-14 00:06:45.72	352.52	54.10	-36.9	-37.8	24.2	0.00e+00	92	27	0	904921088	48	5581
2026-01-14 00:06:46.73	352.30	53.74	-36.7	-37.5	24.4	0.00e+00	6	27	0	907018240	46	6097
2026-01-14 00:06:47.74	352.08	53.39	-36.0	-36.8	25.0	0.00e+00	92	27	0	909115392	46	5597
2026-01-14 00:06:48.75	351.87	53.05	-35.9	-36.6	25.1	0.00e+00	0	27	0	911212544	46	5502
2026-01-14 00:06:49.76	351.67	52.70	-36.1	-36.9	24.9	0.00e+00	80	27	0	912261120	46	5694
2026-01-14 00:06:50.77	351.47	52.36	-36.6	-37.4	24.7	0.00e+00	92	27	0	914358272	46	6015
2026-01-14 00:06:51.78	351.27	52.02	-36.8	-37.7	24.3	0.00e+00	81	27	0	916455424	46	6192
2026-01-14 00:06:52.79	351.08	51.68	-37.0	-37.9	24.2	0.00e+00	90	27	0	918552576	46	6332
2026-01-14 00:06:53.80	350.89	51.34	-37.6	-38.5	23.7	0.00e+00	81	27	0	920649728	46	6781
2026-01-14 00:06:54.81	350.71	51.00	-37.8	-38.7	23.4	0.00e+00	90	27	0	921698304	48	6219
2026-01-14 00:06:55.82	350.53	50.67	-38.1	-39.1	23.1	0.00e+00	0	27	0	923795456	48	6492
2026-01-14 00:06:56.83	350.35	50.34	-38.5	-39.5	22.8	0.00e+00	91	27	0	925892608	48	6782
2026-01-14 00:06:57.84	350.18	50.01	-39.3	-40.4	21.8	0.00e+00	92	27	0	927989760	50	6740
2026-01-14 00:06:58.85	350.01	49.68	-40.1	-41.3	21.0	0.00e+00	0	27	0	930086912	52	6641
2026-01-14 00:06:59.85	349.85	49.36	-40.3	-41.6	20.9	0.00e+00	91	27	0	931135488	52	6850
2026-01-14 00:07:00.86	349.69	49.04	-40.3	-41.5	20.9	0.00e+00	0	27	0	933232640	52	6799
2026-01-14 00:07:01.87	349.53	48.72	-40.3	-41.6	20.8	0.00e+00	92	27	0	935329792	52	6856
2026-01-14 00:07:02.88	349.38	48.40	-40.4	-41.6	20.8	0.00e+00	2	27	0	937426944	52	6920
2026-01-14 00:07:03.89	349.23	48.08	-40.5	-41.7	20.7	0.00e+00	90	27	0	939524096	52	6996
2026-01-14 00:07:04.90	349.08	47.77	-40.5	-41.7	20.8	0.00e+00	72	27	0	941621248	52	6990
2026-01-14 00:07:05.91	348.94	47.45	-41.0	-42.3	20.0	0.00e+00	2	27	0	942669824	54	6685
2026-01-14 00:07:06.92	348.80	47.14	-41.5	-43.0	19.9	0.00e+00	92	27	0	944766976	54	7179
2026-01-14 00:07:07.93	348.66	46.84	-41.3	-42.8	19.6	0.00e+00	0	27	0	946864128	54	7059
2026-01-14 00:07:08.94	348.52	46.53	-41.1	-42.5	20.2	0.00e+00	92	27	0	948961280	54	6792
2026-01-14 00:07:09.95	348.39	46.23	-40.4	-41.7	20.7	0.00e+00	81	27	0	951058432	54	6230
2026-01-14 00:07:10.96	348.26	45.92	-40.0	-41.2	21.2	0.00e+00	92	27	0	952107008	54	5859
2026-01-14 00:07:11.97	348.13	45.62	-40.0	-41.2	21.2	0.00e+00	0	27	0	954204160	54	5843
2026-01-14 00:07:12.98	348.00	45.33	-39.3	-40.4	22.0	0.00e+00	90	27	0	956301312	52	5990
2026-01-14 00:07:13.99	347.88	45.03	-39.2	-40.2	22.2	0.00e+00	92	27	0	958398464	52	5869
2026-01-14 00:07:15.00	347.76	44.74	-39.0	-40.1	22.2	0.00e+00	4	27	0	960495616	52	5764
2026-01-14 00:07:16.01	347.64	44.44	-39.6	-40.7	21.6	0.00e+00	92	27	0	961544192	52	6238
2026-01-14 00:07:17.02	347.52	44.16	-40.0	-41.2	21.3	0.00e+00	2	27	0	963641344	52	6560
2026-01-14 00:07:18.03	347.41	43.87	-40.5	-41.8	20.7	0.00e+00	92	27	0	965738496	52	7049
2026-01-14 00:07:19.03	347.30	43.58	-40.7	-42.0	20.5	0.00e+00	1	27	0	967835648	54	6443
2026-01-14 00:07:20.05	347.19	43.30	-40.8	-42.1	20.3	0.00e+00	35	27	0	969932800	54	6519
2026-01-14 00:07:21.06	347.08	43.02	-40.8	-42.1	20.4	0.00e+00	90	27	0	970981376	54	6538
2026-01-14 00:07:22.07	346.97	42.74	-40.6	-41.8	20.6	0.00e+00	0	27	0	973078528	54	6305
2026-01-14 00:07:23.08	346.87	42.46	-40.3	-41.6	21.0	0.00e+00	92	27	0	975175680	54	6106
2026-01-14 00:07:24.09	346.77	42.18	-40.3	-41.6	20.9	0.00e+00	7	27	0	977272832	54	6109
2026-01-14 00:07:25.10	346.67	41.91	-40.3	-41.5	21.0	0.00e+00	92	27	0	979369984	54	6044
2026-01-14 00:07:26.11	346.57	41.64	-40.2	-41.4	21.0	0.00e+00	0	27	0	980418560	54	5995
2026-01-14 00:07:27.12	346.47	41.37	-40.6	-41.8	20.6	0.00e+00	92	27	0	982515712	54	6316
2026-01-14 00:07:28.12	346.38	41.10	-40.5	-41.8	20.6	0.00e+00	27	27	0	984612864	54	6285
2026-01-14 00:07:29.13	346.28	40.84	-40.9	-42.2	20.3	0.00e+00	0	27	0	986710016	54	6585
2026-01-14 00:07:30.14	346.19	40.57	-40.9	-42.3	20.2	0.00e+00	92	27	0	988807168	54	6628
2026-01-14 00:07:31.15	346.10	40.31	-41.0	-42.4	20.1	0.00e+00	0	27	0	989855744	54	6728
2026-01-14 00:07:32.16	346.01	40.05	-41.0	-42.4	19.9	0.00e+00	92	27	0	991952896	54	6736
2026-01-14 00:07:33.18	345.92	39.79	-41.1	-42.5	19.9	0.00e+00	0	27	0	994050048	54	6835
2026-01-14 00:07:34.19	345.84	39.53	-40.9	-42.2	20.3	0.00e+00	92	27	0	996147200	54	6580
2026-01-14 00:07:35.20	345.75	39.27	-40.8	-42.2	20.3	0.00e+00	53	27	0	998244352	54	6563
2026-01-14 00:07:36.21	345.67	39.02	-40.6	-41.9	20.8	0.00e+00	1	27	0	999292928	54	6369
2026-01-14 00:07:37.22	345.59	38.77	-40.1	-41.3	21.0	0.00e+00	92	27	0	1001390080	54	5941
2026-01-14 00:07:38.23	345.50	38.52	-40.0	-41.1	21.3	0.00e+00	0	27	0	1003487232	54	5826
2026-01-14 00:07:39.24	345.43	38.27	-39.9	-41.0	21.3	0.00e+00	92	27	0	1005584384	54	5757
2026-01-14 00:07:40.25	345.35	38.02	-39.5	-40.6	21.8	0.00e+00	2	27	0	1007681536	52	6130
2026-01-14 00:07:41.26	345.27	37.78	-39.3	-40.4	22.0	0.00e+00	92	27	0	1009778688	52	5987
2026-01-14 00:07:42.27	345.19	37.54	-39.3	-40.4	22.0	0.00e+00	2	27	0	1010827264	52	6009
2026-01-14 00:07:43.28	345.12	37.30	-39.5	-40.6	21.8	0.00e+00	92	27	0	1012924416	52	6128
2026-01-14 00:07:44.29	345.05	37.06	-39.7	-40.8	21.7	0.00e+00	43	27	0	1015021568	52	6287
2026-01-14 00:07:45.30	344.97	36.82	-39.6	-40.7	21.6	0.00e+00	0	27	0	1017118720	52	6199
2026-01-14 00:07:46.31	344.90	36.58	-39.7	-40.9	21.5	0.00e+00	92	27	0	1019215872	52	6340
2026-01-14 00:07:47.32	344.83	36.35	-39.7	-40.8	21.5	0.00e+00	0	27	0	1020264448	52	6316
2026-01-14 00:07:48.33	344.76	36.11	-39.8	-40.9	21.4	0.00e+00	92	27	0	1022361600	52	6377
2026-01-14 00:07:49.34	344.69	35.88	-39.8	-40.9	21.4	0.00e+00	0	27	0	1024458752	52	6390
2026-01-14 00:07:50.34	344.63	35.66	-39.8	-41.0	21.4	0.00e+00	92	27	0	1026555904	52	6441
2026-01-14 00:07:51.35	344.56	35.43	-39.8	-41.0	21.3	0.00e+00	78	27	0	1028653056	52	6423
2026-01-14 00:07:52.37	344.50	35.20	-39.9	-41.1	21.4	0.00e+00	0	27	0	1029701632	52	6491
2026-01-14 00:07:53.37	344.43	34.98	-39.6	-40.7	21.6	0.00e+00	90	27	0	1031798784	52	6241
2026-01-14 00:07:54.38	344.37	34.75	-39.4	-40.5	21.8	0.00e+00	0	27	0	1033895936	52	6099
2026-01-14 00:07:55.39	344.31	34.53	-39.5	-40.6	21.7	0.00e+00	91	27	0	1035993088	52	6121
2026-01-14 00:07:56.40	344.25	34.31	-39.4	-40.5	21.9	0.00e+00	4	27	0	1038090240	52	6049
2026-01-14 00:07:57.41	344.19	34.09	-39.3	-40.4	21.9	0.00e+00	92	27	0	1039138816	52	5993
2026-01-14 00:07:58.42	344.13	33.88	-39.1	-40.1	22.2	0.00e+00	75	27	0	1041235968	52	5821
2026-01-14 00:07:59.43	344.07	33.66	-38.9	-39.9	22.4	0.00e+00	78	27	0	1043333120	52	5676
2026-01-14 00:08:00.44	344.01	33.45	-38.8	-39.8	22.4	0.00e+00	92	27	0	1045430272	52	5630
2026-01-14 00:08:01.45	343.95	33.23	-38.9	-39.9	22.4	0.00e+00	4	27	0	1047527424	52	5668
2026-01-14 00:08:02.46	343.89	33.02	-39.1	-40.1	22.2	0.00e+00	92	27	0	1048576000	52	5795
2026-01-14 00:08:03.47	343.84	32.81	-39.4	-40.4	21.8	0.00e+00	5	27	0	1050673152	52	6019
2026-01-14 00:08:04.48	343.78	32.60	-39.7	-40.8	21.6	0.00e+00	92	27	0	1052770304	52	6258
2026-01-14 00:08:05.49	343.73	32.40	-39.9	-41.0	21.3	0.00e+00	6	27	0	1054867456	52	6464
2026-01-14 00:08:06.51	343.68	32.19	-40.2	-41.5	20.9	0.00e+00	61	27	0	1056964608	52	6773
2026-01-14 00:08:07.51	343.62	31.99	-40.3	-41.6	20.8	0.00e+00	92	27	0	1058013184	52	6862
2026-01-14 00:08:08.52	343.57	31.78	-40.3	-41.5	20.8	0.00e+00	0	27	0	1060110336	52	6845
2026-01-14 00:08:09.54	343.52	31.58	-40.2	-41.4	20.9	0.00e+00	92	27	0	1062207488	52	6759
2026-01-14 00:08:10.54	343.47	31.38	-40.2	-41.4	21.0	0.00e+00	0	27	0	1064304640	52	6753
2026-01-14 00:08:11.55	343.42	31.18	-40.1	-41.3	21.0	0.00e+00	75	27	0	1066401792	52	6663
2026-01-14 00:08:12.56	343.37	30.98	-40.0	-41.2	21.2	0.00e+00	78	27	0	1067450368	52	6563
2026-01-14 00:08:13.57	343.32	30.79	-39.8	-40.9	21.6	0.00e+00	77	27	0	1069547520	52	6353
2026-01-14 00:08:14.58	343.27	30.59	-39.6	-40.7	21.6	0.00e+00	7	27	0	1071644672	52	6219
2026-01-14 00:08:15.59	343.23	30.40	-39.6	-40.7	21.6	0.00e+00	0	27	0	1073741824	52	6223
2026-01-14 00:08:16.60	343.18	30.21	-39.6	-40.7	21.6	0.00e+00	92	27	0	1075838976	52	6222
2026-01-14 00:08:17.61	343.13	30.02	-39.4	-40.5	21.8	0.00e+00	5	27	0	1077936128	52	6053
2026-01-14 00:08:18.62	343.09	29.83	-39.5	-40.6	21.7	0.00e+00	78	27	0	1078984704	52	6142
2026-01-14 00:08:19.63	343.04	29.64	-39.1	-40.2	22.1	0.00e+00	10	27	0	1081081856	52	5856
2026-01-14 00:08:20.64	343.00	29.45	-39.1	-40.1	22.1	0.00e+00	7	27	0	1083179008	52	5802
2026-01-14 00:08:21.65	342.95	29.26	-39.2	-40.3	22.0	0.00e+00	37	27	0	1085276160	52	5910
2026-01-14 00:08:22.66	342.91	29.08	-39.4	-40.5	21.8	0.00e+00	7	27	0	1087373312	52	6062
2026-01-14 00:08:23.67	342.87	28.90	-39.4	-40.5	21.7	0.00e+00	91	27	0	1088421888	52	6100
2026-01-14 00:08:24.68	342.83	28.71	-39.6	-40.7	21.6	0.00e+00	8	27	0	1090519040	52	6238
2026-01-14 00:08:25.69	342.78	28.53	-39.5	-40.7	21.6	0.00e+00	37	27	0	1092616192	52	6187
2026-01-14 00:08:26.70	342.74	28.35	-39.6	-40.8	21.5	0.00e+00	6	27	0	1094713344	52	6276
2026-01-14 00:08:27.71	342.70	28.17	-39.6	-40.7	21.6	0.00e+00	7	27	0	1096810496	52	6211
2026-01-14 00:08:28.72	342.66	27.99	-39.6	-40.7	21.6	0.00e+00	0	27	0	1097859072	52	6225
2026-01-14 00:08:29.73	342.62	27.82	-39.5	-40.6	21.6	0.00e+00	6	27	0	1099956224	52	6151
2026-01-14 00:08:30.74	342.58	27.64	-39.5	-40.6	21.6	0.00e+00	90	27	0	1102053376	52	6137
2026-01-14 00:08:31.75	342.54	27.47	-39.4	-40.6	21.7	0.00e+00	78	27	0	1104150528	52	6115
2026-01-14 00:08:32.77	342.50	27.29	-39.3	-40.4	21.9	0.00e+00	92	27	0	1106247680	52	5987
2026-01-14 00:08:33.78	342.47	27.12	-39.2	-40.3	22.0	0.00e+00	0	27	0	1107296256	52	5902
2026-01-14 00:08:34.79	342.43	26.95	-39.0	-40.1	22.2	0.00e+00	0	27	0	1109393408	52	5804
2026-01-14 00:08:35.80	342.39	26.78	-39.0	-40.0	22.2	0.00e+00	6	27	0	1111490560	52	5751
2026-01-14 00:08:36.81	342.36	26.61	-39.0	-40.0	22.2	0.00e+00	7	27	0	1113587712	52	5741
2026-01-14 00:08:37.82	342.32	26.44	-38.8	-39.9	22.3	0.00e+00	75	27	0	1115684864	52	5638
2026-01-14 00:08:38.83	342.28	26.27	-38.8	-39.9	22.4	0.00e+00	5	27	0	1116733440	52	5634
2026-01-14 00:08:39.84	342.25	26.11	-38.6	-39.6	22.4	0.00e+00	92	27	0	1118830592	50	6158
2026-01-14 00:08:40.85	342.21	25.94	-38.5	-39.5	22.6	0.00e+00	3	27	0	1120927744	50	6091
2026-01-14 00:08:41.85	342.18	25.78	-38.2	-39.2	23.0	0.00e+00	0	27	0	1123024896	50	5832
2026-01-14 00:08:42.86	342.15	25.61	-38.3	-39.2	23.0	0.00e+00	5	27	0	1125122048	50	5887
2026-01-14 00:08:43.88	342.11	25.45	-38.3	-39.2	22.8	0.00e+00	5	27	0	1126170624	50	5884
2026-01-14 00:08:44.89	342.08	25.29	-38.0	-39.0	23.1	0.00e+00	0	27	0	1128267776	50	5726
2026-01-14 00:08:45.90	342.04	25.13	-38.1	-39.1	23.0	0.00e+00	0	27	0	1130364928	50	5776
2026-01-14 00:08:46.91	342.01	24.97	-38.1	-39.1	23.0	0.00e+00	91	27	0	1132462080	50	5774
2026-01-14 00:08:47.92	341.98	24.81	-38.1	-39.1	23.0	0.00e+00	3	27	0	1134559232	50	5788
2026-01-14 00:08:48.93	341.95	24.65	-38.2	-39.2	22.9	0.00e+00	90	27	0	1135607808	50	5840
2026-01-14 00:08:49.94	341.92	24.50	-38.1	-39.1	22.9	0.00e+00	0	27	0	1137704960	50	5797
2026-01-14 00:08:50.95	341.89	24.34	-37.9	-38.8	23.1	0.00e+00	3	27	0	1139802112	50	5617
2026-01-14 00:08:51.96	341.85	24.19	-38.0	-38.9	23.0	0.00e+00	0	27	0	1141899264	50	5687
2026-01-14 00:08:52.97	341.82	24.03	-38.0	-39.0	23.1	0.00e+00	75	27	0	1143996416	50	5708
2026-01-14 00:08:53.98	341.79	23.88	-38.0	-38.9	23.1	0.00e+00	92	27	0	1146093568	50	5674
2026-01-14 00:08:54.99	341.76	23.73	-38.1	-39.0	23.1	0.00e+00	0	27	0	1147142144	50	5739
2026-01-14 00:08:56.00	341.73	23.58	-38.1	-39.1	22.9	0.00e+00	91	27	0	1149239296	50	5767
2026-01-14 00:08:57.01	341.71	23.43	-38.0	-39.0	23.0	0.00e+00	6	27	0	1151336448	50	5735
2026-01-14 00:08:58.02	341.68	23.28	-38.1	-39.1	22.9	0.00e+00	73	27	0	1153433600	50	5780
2026-01-14 00:08:59.03	341.65	23.13	-37.9	-38.9	22.9	0.00e+00	3	27	0	1155530752	50	5675
2026-01-14 00:09:00.04	341.62	22.98	-37.9	-38.9	22.8	0.00e+00	77	27	0	1156579328	50	5669
2026-01-14 00:09:01.05	341.59	22.83	-38.1	-39.1	22.9	0.00e+00	92	27	0	1158676480	50	5772
2026-01-14 00:09:02.06	341.56	22.69	-38.0	-39.0	23.0	0.00e+00	0	27	0	1160773632	50	5711
2026-01-14 00:09:03.07	341.54	22.54	-38.1	-39.1	23.0	0.00e+00	92	27	0	1162870784	50	5779
2026-01-14 00:09:04.08	341.51	22.40	-38.1	-39.1	22.9	0.00e+00	5	27	0	1164967936	50	5771
2026-01-14 00:09:05.09	341.48	22.26	-38.1	-39.1	22.9	0.00e+00	0	27	0	1166016512	50	5771
2026-01-14 00:09:06.10	341.46	22.11	-38.0	-39.0	23.0	0.00e+00	0	27	0	1168113664	50	5728
2026-01-14 00:09:07.11	341.43	21.97	-38.1	-39.1	23.0	0.00e+00	0	27	0	1170210816	50	5809
2026-01-14 00:09:08.12	341.40	21.83	-38.2	-39.2	22.8	0.00e+00	11	27	0	1172307968	50	5854
2026-01-14 00:09:09.13	341.38	21.69	-38.1	-39.0	23.0	0.00e+00	0	27	0	1174405120	50	5750
2026-01-14 00:09:10.14	341.35	21.55	-38.1	-39.1	22.9	0.00e+00	91	27	0	1175453696	50	5776
2026-01-14 00:09:11.15	341.33	21.41	-38.3	-39.3	22.8	0.00e+00	0	27	0	1177550848	50	5923
2026-01-14 00:09:12.16	341.30	21.27	-38.2	-39.2	22.8	0.00e+00	90	27	0	1179648000	50	5859
2026-01-14 00:09:13.17	341.28	21.13	-38.3	-39.3	22.8	0.00e+00	0	27	0	1181745152	50	5913
2026-01-14 00:09:14.18	341.25	21.00	-38.3	-39.3	22.8	0.00e+00	2	27	0	1183842304	50	5939
2026-01-14 00:09:15.19	341.23	20.86	-38.4	-39.4	22.6	0.00e+00	0	27	0	1184890880	50	6001
2026-01-14 00:09:16.20	341.21	20.73	-38.4	-39.4	22.7	0.00e+00	70	27	0	1186988032	50	5970
2026-01-14 00:09:17.21	341.18	20.59	-38.5	-39.5	22.5	0.00e+00	92	27	0	1189085184	50	6043
2026-01-14 00:09:18.22	341.16	20.46	-38.4	-39.4	22.6	0.00e+00	75	27	0	1191182336	50	6015
2026-01-14 00:09:19.23	341.14	20.33	-38.5	-39.6	22.4	0.00e+00	92	27	0	1193279488	50	6116
2026-01-14 00:09:20.24	341.11	20.19	-38.6	-39.7	22.4	0.00e+00	5	27	0	1194328064	50	6183
