passes_logs/2026/01/13/R4.6S_Anadyr/R4.6S_Anadyr__20260113_140226_NOAA_20_JPSS-1_rec.log

#Pass ID: 20260113_140226_NOAA 20 (JPSS-1)
#Satellite: NOAA 20 (JPSS-1)
#Configuration: NOAA 20
#almurnet v.1.7.20251203
#Start time: 2026-01-13 14:02:29

#Version: 2.2.20231116
#Station: R4.6S_Anadyr
#Location: 177.4865 lon 64.73178 lat
#TLE: 1 43013U 17073A   26012.29914746  .00000087  00000+0  62270-4 0  9997
#TLE: 2 43013  98.7632 313.2670 0001616  43.2193 316.9110 14.19535514422351

#Time	Az	El	Level	Level2	SNR	BER	BlckErr	Temp	State	Recorded	gain1	gain2
2026-01-13 14:02:29.67	19.44	0.17	-48.6	-62.4	3.3	1.54e+00	0	26	0	0	60	47507
2026-01-13 14:02:30.67	19.46	0.23	-48.5	-63.8	3.6	1.51e+00	0	26	104	0	60	56105
2026-01-13 14:02:31.68	19.49	0.29	-48.6	-63.8	3.6	1.51e+00	0	26	104	0	60	55742
2026-01-13 14:02:32.69	19.51	0.35	-48.6	-63.8	3.6	1.51e+00	0	26	104	0	60	55833
2026-01-13 14:02:33.70	19.54	0.41	-48.5	-63.8	3.6	1.51e+00	0	26	104	0	60	55688
2026-01-13 14:02:34.71	19.56	0.47	-48.5	-63.7	3.6	1.51e+00	0	26	104	0	60	55245
2026-01-13 14:02:35.72	19.59	0.53	-48.4	-63.7	3.6	1.51e+00	0	27	104	0	60	55288
2026-01-13 14:02:36.73	19.61	0.59	-48.4	-63.6	3.6	1.51e+00	0	27	104	0	60	54436
2026-01-13 14:02:37.74	19.64	0.65	-48.2	-63.4	3.6	1.51e+00	0	26	104	0	60	53208
2026-01-13 14:02:38.75	19.67	0.71	-48.1	-63.2	3.6	1.51e+00	0	26	104	0	60	52209
2026-01-13 14:02:39.76	19.69	0.77	-47.9	-63.0	3.6	1.51e+00	0	27	104	0	60	51288
2026-01-13 14:02:40.77	19.72	0.83	-47.7	-62.8	3.6	1.51e+00	0	27	104	0	60	50121
2026-01-13 14:02:41.78	19.74	0.89	-47.4	-62.6	3.6	1.51e+00	0	27	104	0	60	48771
2026-01-13 14:02:42.79	19.77	0.95	-47.0	-62.1	3.6	1.51e+00	0	27	104	0	60	46248
2026-01-13 14:02:43.80	19.80	1.01	-47.0	-62.2	3.5	1.51e+00	0	27	104	0	60	46442
2026-01-13 14:02:44.81	19.82	1.07	-47.0	-62.1	3.6	1.51e+00	0	27	104	0	60	46270
2026-01-13 14:02:45.82	19.85	1.13	-47.0	-62.1	3.6	1.51e+00	0	27	104	0	60	46204
2026-01-13 14:02:46.83	19.87	1.20	-47.0	-62.1	3.6	1.51e+00	0	27	104	0	60	46256
2026-01-13 14:02:47.84	19.90	1.26	-47.0	-62.1	3.6	1.51e+00	0	27	104	0	60	46001
2026-01-13 14:02:48.85	19.93	1.32	-47.0	-62.1	3.6	1.51e+00	0	27	104	0	60	45989
2026-01-13 14:02:49.86	19.95	1.38	-47.0	-62.1	3.6	1.51e+00	0	27	104	0	60	46223
2026-01-13 14:02:50.87	19.98	1.44	-47.0	-62.1	3.6	1.51e+00	0	27	104	0	60	46246
2026-01-13 14:02:51.88	20.01	1.50	-47.0	-62.1	3.6	1.51e+00	0	27	104	0	60	46144
2026-01-13 14:02:52.90	20.03	1.57	-47.0	-62.2	3.6	1.51e+00	0	27	104	0	60	46381
2026-01-13 14:02:53.90	20.06	1.63	-47.0	-62.1	3.6	1.51e+00	0	27	104	0	60	46288
2026-01-13 14:02:54.91	20.09	1.69	-47.0	-62.1	3.6	1.51e+00	0	27	104	0	60	46004
2026-01-13 14:02:55.92	20.11	1.75	-47.0	-62.1	3.6	1.51e+00	0	27	104	0	60	46123
2026-01-13 14:02:56.93	20.14	1.82	-47.0	-62.1	3.6	1.51e+00	0	27	104	0	60	46063
2026-01-13 14:02:57.94	20.17	1.88	-47.0	-62.2	3.6	1.51e+00	0	27	104	0	60	46300
2026-01-13 14:02:58.95	20.20	1.94	-47.0	-62.2	3.6	1.51e+00	0	27	104	0	60	46431
2026-01-13 14:02:59.96	20.22	2.01	-47.0	-62.1	3.6	1.51e+00	0	27	104	0	60	46005
2026-01-13 14:03:00.97	20.25	2.07	-47.0	-61.8	3.6	1.51e+00	0	27	104	0	60	44428
2026-01-13 14:03:01.98	20.28	2.13	-47.0	-61.4	3.6	1.51e+00	0	27	104	0	60	42262
2026-01-13 14:03:02.99	20.31	2.20	-46.9	-60.9	3.6	1.51e+00	0	27	104	0	60	39962
2026-01-13 14:03:04.00	20.33	2.26	-46.9	-60.1	3.6	1.51e+00	0	27	104	0	60	36375
2026-01-13 14:03:05.01	20.36	2.32	-46.9	-59.8	3.7	1.51e+00	0	27	104	0	60	35432
2026-01-13 14:03:06.02	20.39	2.39	-46.9	-59.9	3.6	1.49e+00	0	27	104	0	60	35680
2026-01-13 14:03:07.03	20.42	2.45	-46.9	-60.4	3.6	1.51e+00	0	27	104	0	60	37875
2026-01-13 14:03:08.04	20.45	2.51	-46.9	-59.9	3.7	1.51e+00	0	27	104	0	60	35872
2026-01-13 14:03:09.05	20.48	2.58	-46.8	-56.9	3.9	1.47e+00	46	27	0	0	60	25381
2026-01-13 14:03:10.05	20.50	2.64	-46.4	-54.2	5.7	5.47e-01	0	27	0	1048576	60	18524
2026-01-13 14:03:11.06	20.53	2.71	-45.9	-51.8	8.6	1.36e-01	81	27	0	3145728	60	14011
2026-01-13 14:03:12.07	20.56	2.77	-45.1	-49.6	11.3	1.61e-02	0	27	0	5242880	60	10864
2026-01-13 14:03:13.08	20.59	2.84	-44.5	-48.2	12.7	8.96e-04	92	27	0	7340032	60	9324
2026-01-13 14:03:14.09	20.62	2.90	-43.4	-46.2	15.1	6.10e-06	0	27	0	9437184	60	7364
2026-01-13 14:03:15.10	20.65	2.97	-43.1	-45.7	15.7	0.00e+00	0	27	0	10485760	60	6938
2026-01-13 14:03:16.11	20.68	3.03	-42.0	-44.1	17.1	0.00e+00	0	27	0	12582912	58	6493
2026-01-13 14:03:17.12	20.71	3.10	-41.8	-43.8	17.4	0.00e+00	51	27	0	14680064	58	6270
2026-01-13 14:03:18.13	20.74	3.16	-41.6	-43.5	17.7	0.00e+00	0	27	0	16777216	56	6797
2026-01-13 14:03:19.14	20.77	3.23	-41.7	-43.6	17.8	0.00e+00	28	27	0	18874368	56	6855
2026-01-13 14:03:20.15	20.79	3.30	-42.0	-44.0	17.0	0.00e+00	92	27	0	19922944	56	7229
2026-01-13 14:03:21.15	20.82	3.36	-42.7	-45.0	16.1	0.00e+00	35	27	0	22020096	58	7223
2026-01-13 14:03:22.16	20.85	3.43	-43.4	-46.2	14.7	0.00e+00	92	27	0	24117248	58	8307
2026-01-13 14:03:23.17	20.88	3.49	-44.0	-47.3	13.5	3.80e-06	0	27	0	26214400	60	8401
2026-01-13 14:03:24.18	20.91	3.56	-44.4	-48.0	13.0	1.73e-04	0	27	0	28311552	60	9118
2026-01-13 14:03:25.19	20.94	3.63	-41.1	-42.8	18.4	0.00e+00	0	27	0	29360128	56	6290
2026-01-13 14:03:26.20	20.97	3.69	-42.1	-44.1	17.6	0.00e+00	0	27	0	31457280	56	7286
2026-01-13 14:03:27.21	21.00	3.76	-46.9	-61.2	3.6	1.42e+00	0	27	104	32505856	60	41625
2026-01-13 14:03:28.22	21.04	3.83	-43.9	-47.2	15.0	1.32e+00	34	27	104	32505856	60	8322
2026-01-13 14:03:29.23	21.07	3.89	-46.8	-55.7	5.4	8.65e-01	90	27	0	33554432	60	21930
2026-01-13 14:03:30.24	21.10	3.96	-43.3	-45.8	15.6	6.80e-06	0	27	0	34603008	60	7071
2026-01-13 14:03:31.25	21.13	4.03	-43.8	-46.7	14.5	0.00e+00	0	27	0	36700160	60	7847
2026-01-13 14:03:32.26	21.16	4.10	-43.4	-46.1	15.2	0.00e+00	0	27	0	38797312	60	7324
2026-01-13 14:03:33.27	21.19	4.17	-43.1	-45.6	15.8	0.00e+00	0	27	0	40894464	60	6924
2026-01-13 14:03:34.27	21.22	4.23	-43.1	-45.6	15.9	0.00e+00	40	27	0	41943040	60	6902
2026-01-13 14:03:35.29	21.25	4.30	-42.1	-44.0	17.3	0.00e+00	51	27	0	44040192	58	6464
2026-01-13 14:03:36.29	21.28	4.37	-41.9	-43.8	17.5	0.00e+00	92	27	0	46137344	58	6258
2026-01-13 14:03:37.30	21.31	4.44	-41.9	-43.8	17.6	0.00e+00	0	27	0	48234496	56	7074
2026-01-13 14:03:38.31	21.35	4.51	-41.8	-43.6	17.8	0.00e+00	0	27	0	50331648	56	6910
2026-01-13 14:03:39.32	21.38	4.58	-41.6	-43.4	18.0	0.00e+00	0	27	0	51380224	56	6721
2026-01-13 14:03:40.33	21.41	4.65	-41.3	-43.0	18.3	0.00e+00	0	27	0	53477376	56	6453
2026-01-13 14:03:41.33	21.44	4.71	-41.0	-42.7	18.9	0.00e+00	35	27	0	55574528	56	6175
2026-01-13 14:03:42.34	21.47	4.78	-40.6	-42.2	19.3	0.00e+00	34	27	0	57671680	54	6548
2026-01-13 14:03:43.35	21.51	4.85	-40.5	-42.0	19.3	0.00e+00	92	27	0	59768832	54	6411
2026-01-13 14:03:44.36	21.54	4.92	-40.5	-42.0	19.4	0.00e+00	31	27	0	61865984	54	6423
2026-01-13 14:03:45.37	21.57	4.99	-40.5	-42.0	19.5	0.00e+00	92	27	0	62914560	54	6414
2026-01-13 14:03:46.38	21.60	5.06	-40.3	-41.7	19.6	0.00e+00	0	27	0	65011712	54	6242
2026-01-13 14:03:47.39	21.64	5.13	-40.3	-41.8	19.7	0.00e+00	0	27	0	67108864	54	6247
2026-01-13 14:03:48.40	21.67	5.20	-40.6	-42.1	19.4	0.00e+00	6	27	0	69206016	54	6465
2026-01-13 14:03:49.40	21.70	5.27	-40.4	-41.9	19.6	0.00e+00	29	27	0	71303168	54	6342
2026-01-13 14:03:50.42	21.74	5.35	-40.2	-41.6	19.8	0.00e+00	92	27	0	72351744	54	6133
2026-01-13 14:03:51.42	21.77	5.42	-40.2	-41.6	19.9	0.00e+00	5	27	0	74448896	54	6113
2026-01-13 14:03:52.44	21.80	5.49	-40.2	-41.6	19.7	0.00e+00	91	27	0	76546048	54	6171
2026-01-13 14:03:53.44	21.84	5.56	-40.2	-41.6	19.9	0.00e+00	5	27	0	78643200	54	6142
2026-01-13 14:03:54.45	21.87	5.63	-40.5	-42.0	19.5	0.00e+00	0	27	0	80740352	54	6400
2026-01-13 14:03:55.46	21.91	5.70	-40.5	-42.0	19.6	0.00e+00	0	27	0	81788928	54	6432
2026-01-13 14:03:56.47	21.94	5.78	-40.6	-42.0	19.6	0.00e+00	0	27	0	83886080	54	6447
2026-01-13 14:03:57.48	21.97	5.85	-40.1	-41.5	20.1	0.00e+00	0	27	0	85983232	54	6042
2026-01-13 14:03:58.49	22.01	5.92	-40.2	-41.6	19.9	0.00e+00	45	27	0	88080384	54	6160
2026-01-13 14:03:59.50	22.04	5.99	-40.1	-41.4	20.0	0.00e+00	91	27	0	90177536	54	6031
2026-01-13 14:04:00.51	22.08	6.07	-39.9	-41.2	20.4	0.00e+00	46	27	0	91226112	54	5867
2026-01-13 14:04:01.52	22.11	6.14	-40.0	-41.4	20.2	0.00e+00	92	27	0	93323264	54	5972
2026-01-13 14:04:02.53	22.15	6.21	-40.0	-41.3	20.2	0.00e+00	0	27	0	95420416	54	5948
2026-01-13 14:04:03.54	22.18	6.29	-39.9	-41.3	20.3	0.00e+00	49	27	0	97517568	54	5900
2026-01-13 14:04:04.54	22.22	6.36	-39.9	-41.2	20.4	0.00e+00	0	27	0	99614720	54	5848
2026-01-13 14:04:05.55	22.25	6.43	-39.8	-41.1	20.4	0.00e+00	35	27	0	100663296	54	5802
2026-01-13 14:04:06.56	22.29	6.51	-39.8	-41.1	20.4	0.00e+00	92	27	0	102760448	54	5815
2026-01-13 14:04:07.57	22.32	6.58	-39.9	-41.2	20.4	0.00e+00	44	27	0	104857600	54	5844
2026-01-13 14:04:08.58	22.36	6.65	-39.7	-41.0	20.6	0.00e+00	92	27	0	106954752	54	5740
2026-01-13 14:04:09.59	22.40	6.73	-39.9	-41.2	20.5	0.00e+00	0	27	0	109051904	52	6592
2026-01-13 14:04:10.60	22.43	6.80	-39.7	-41.0	20.7	0.00e+00	6	27	0	110100480	52	6417
2026-01-13 14:04:11.61	22.47	6.88	-39.9	-41.2	20.5	0.00e+00	4	27	0	112197632	52	6540
2026-01-13 14:04:12.62	22.51	6.95	-39.8	-41.0	20.7	0.00e+00	34	27	0	114294784	52	6451
2026-01-13 14:04:13.63	22.54	7.03	-39.9	-41.1	20.5	0.00e+00	36	27	0	116391936	52	6537
2026-01-13 14:04:14.63	22.58	7.11	-39.8	-41.1	20.5	0.00e+00	0	27	0	118489088	52	6504
2026-01-13 14:04:15.65	22.62	7.18	-39.6	-40.9	20.9	0.00e+00	90	27	0	119537664	52	6336
2026-01-13 14:04:16.66	22.65	7.26	-39.7	-41.0	20.7	0.00e+00	0	27	0	121634816	52	6391
2026-01-13 14:04:17.67	22.69	7.33	-39.9	-41.1	20.5	0.00e+00	0	27	0	123731968	52	6534
2026-01-13 14:04:18.67	22.73	7.41	-39.9	-41.1	20.6	0.00e+00	6	27	0	125829120	52	6539
2026-01-13 14:04:19.68	22.77	7.49	-39.6	-40.8	20.9	0.00e+00	52	27	0	127926272	52	6267
2026-01-13 14:04:20.69	22.80	7.56	-39.6	-40.9	20.9	0.00e+00	50	27	0	130023424	52	6337
2026-01-13 14:04:21.71	22.84	7.64	-39.9	-41.1	20.7	0.00e+00	53	27	0	131072000	52	6535
2026-01-13 14:04:22.71	22.88	7.72	-39.6	-40.8	20.9	0.00e+00	92	27	0	133169152	52	6261
2026-01-13 14:04:23.72	22.92	7.80	-39.7	-40.9	20.9	0.00e+00	0	27	0	135266304	52	6385
2026-01-13 14:04:24.73	22.96	7.87	-39.5	-40.8	21.0	0.00e+00	92	27	0	137363456	52	6251
2026-01-13 14:04:25.74	23.00	7.95	-39.5	-40.7	21.0	0.00e+00	53	27	0	139460608	52	6245
2026-01-13 14:04:26.75	23.04	8.03	-39.3	-40.5	21.2	0.00e+00	52	27	0	140509184	52	6073
2026-01-13 14:04:27.76	23.08	8.11	-39.4	-40.6	21.2	0.00e+00	35	27	0	142606336	52	6119
2026-01-13 14:04:28.76	23.11	8.19	-39.3	-40.4	21.3	0.00e+00	30	27	0	144703488	52	6001
2026-01-13 14:04:29.77	23.15	8.27	-39.4	-40.5	21.2	0.00e+00	92	27	0	146800640	52	6083
2026-01-13 14:04:30.78	23.19	8.35	-39.3	-40.5	21.3	0.00e+00	0	27	0	148897792	52	6052
2026-01-13 14:04:31.79	23.23	8.43	-39.3	-40.5	21.3	0.00e+00	91	27	0	149946368	52	6074
2026-01-13 14:04:32.80	23.27	8.51	-39.4	-40.5	21.2	0.00e+00	28	27	0	152043520	52	6100
2026-01-13 14:04:33.81	23.31	8.59	-39.3	-40.5	21.3	0.00e+00	0	27	0	154140672	52	6046
2026-01-13 14:04:34.82	23.36	8.67	-39.5	-40.7	21.2	0.00e+00	2	27	0	156237824	52	6212
2026-01-13 14:04:35.83	23.40	8.75	-39.2	-40.4	21.4	0.00e+00	2	27	0	158334976	52	5970
2026-01-13 14:04:36.84	23.44	8.83	-39.3	-40.5	21.4	0.00e+00	91	27	0	159383552	52	6060
2026-01-13 14:04:37.85	23.48	8.91	-39.2	-40.4	21.4	0.00e+00	0	27	0	161480704	52	5989
2026-01-13 14:04:38.86	23.52	8.99	-39.3	-40.4	21.3	0.00e+00	90	27	0	163577856	52	6008
2026-01-13 14:04:39.87	23.56	9.07	-39.3	-40.5	21.4	0.00e+00	0	27	0	165675008	52	6070
2026-01-13 14:04:40.88	23.60	9.15	-39.0	-40.1	21.8	0.00e+00	89	27	0	167772160	52	5772
2026-01-13 14:04:41.88	23.64	9.24	-39.0	-40.1	21.7	0.00e+00	0	27	0	168820736	52	5784
2026-01-13 14:04:42.90	23.69	9.32	-39.1	-40.2	21.7	0.00e+00	4	27	0	170917888	52	5850
2026-01-13 14:04:43.90	23.73	9.40	-39.0	-40.1	21.7	0.00e+00	51	27	0	173015040	52	5804
2026-01-13 14:04:44.91	23.77	9.48	-39.1	-40.2	21.6	0.00e+00	52	27	0	175112192	52	5851
2026-01-13 14:04:45.92	23.81	9.57	-38.8	-39.9	21.9	0.00e+00	92	27	0	177209344	52	5683
2026-01-13 14:04:46.93	23.86	9.65	-38.9	-40.0	21.8	0.00e+00	34	27	0	178257920	52	5723
2026-01-13 14:04:47.94	23.90	9.73	-38.9	-40.0	21.8	0.00e+00	91	27	0	180355072	52	5759
2026-01-13 14:04:48.95	23.94	9.82	-38.9	-40.0	21.9	0.00e+00	30	27	0	182452224	52	5699
2026-01-13 14:04:49.96	23.99	9.90	-39.0	-40.1	21.8	0.00e+00	29	27	0	184549376	52	5819
2026-01-13 14:04:50.97	24.03	9.99	-38.9	-40.0	21.9	0.00e+00	0	27	0	186646528	50	6415
2026-01-13 14:04:51.98	24.08	10.07	-38.9	-40.0	21.8	0.00e+00	51	27	0	187695104	50	6404
2026-01-13 14:04:52.99	24.12	10.16	-38.8	-39.8	22.0	0.00e+00	92	27	0	189792256	50	6311
2026-01-13 14:04:53.99	24.17	10.24	-38.6	-39.7	22.1	0.00e+00	0	27	0	191889408	50	6208
2026-01-13 14:04:55.00	24.21	10.33	-38.8	-39.8	21.9	0.00e+00	92	27	0	193986560	50	6310
2026-01-13 14:04:56.01	24.26	10.41	-38.7	-39.8	22.1	0.00e+00	31	27	0	196083712	50	6256
2026-01-13 14:04:57.02	24.30	10.50	-38.7	-39.8	22.0	0.00e+00	31	27	0	197132288	50	6291
2026-01-13 14:04:58.03	24.35	10.59	-38.7	-39.8	22.1	0.00e+00	0	27	0	199229440	50	6283
2026-01-13 14:04:59.04	24.39	10.67	-38.7	-39.8	22.1	0.00e+00	0	27	0	201326592	50	6277
2026-01-13 14:05:00.05	24.44	10.76	-38.8	-39.9	21.9	0.00e+00	92	27	0	203423744	50	6370
2026-01-13 14:05:01.06	24.49	10.85	-38.7	-39.8	22.1	0.00e+00	2	27	0	205520896	50	6251
2026-01-13 14:05:02.07	24.53	10.93	-38.4	-39.5	22.3	0.00e+00	92	27	0	206569472	50	6051
2026-01-13 14:05:03.08	24.58	11.02	-38.5	-39.5	22.4	0.00e+00	0	27	0	208666624	50	6085
2026-01-13 14:05:04.09	24.63	11.11	-38.6	-39.6	22.2	0.00e+00	48	27	0	210763776	50	6131
2026-01-13 14:05:05.10	24.67	11.20	-38.5	-39.5	22.3	0.00e+00	0	27	0	212860928	50	6095
2026-01-13 14:05:06.10	24.72	11.29	-38.4	-39.4	22.5	0.00e+00	2	27	0	214958080	50	5996
2026-01-13 14:05:07.11	24.77	11.38	-38.4	-39.5	22.4	0.00e+00	0	27	0	216006656	50	6045
2026-01-13 14:05:08.13	24.82	11.47	-38.4	-39.4	22.4	0.00e+00	0	27	0	218103808	50	6023
2026-01-13 14:05:09.13	24.86	11.56	-38.5	-39.5	22.3	0.00e+00	92	27	0	220200960	50	6084
2026-01-13 14:05:10.14	24.91	11.65	-38.4	-39.4	22.5	0.00e+00	54	28	0	222298112	50	5999
2026-01-13 14:05:11.15	24.96	11.74	-38.4	-39.4	22.5	0.00e+00	83	27	0	224395264	50	6002
2026-01-13 14:05:12.16	25.01	11.83	-38.5	-39.5	22.4	0.00e+00	49	27	0	226492416	50	6079
2026-01-13 14:05:13.17	25.06	11.92	-38.7	-39.7	22.2	0.00e+00	55	27	0	227540992	50	6243
2026-01-13 14:05:14.18	25.11	12.01	-38.3	-39.4	22.5	0.00e+00	0	27	0	229638144	50	5966
2026-01-13 14:05:15.19	25.16	12.10	-38.5	-39.5	22.4	0.00e+00	0	27	0	231735296	50	6069
2026-01-13 14:05:16.20	25.21	12.19	-38.6	-39.6	22.2	0.00e+00	92	27	0	233832448	50	6171
2026-01-13 14:05:17.21	25.26	12.29	-38.3	-39.3	22.6	0.00e+00	2	27	0	235929600	50	5932
2026-01-13 14:05:18.21	25.31	12.38	-38.4	-39.4	22.4	0.00e+00	92	27	0	236978176	50	6027
2026-01-13 14:05:19.22	25.36	12.47	-38.2	-39.2	22.7	0.00e+00	34	28	0	239075328	50	5829
2026-01-13 14:05:20.23	25.42	12.56	-38.5	-39.5	22.4	0.00e+00	0	27	0	241172480	50	6043
2026-01-13 14:05:21.24	25.47	12.66	-38.1	-39.0	22.9	0.00e+00	2	27	0	243269632	50	5758
2026-01-13 14:05:22.25	25.52	12.75	-38.1	-39.1	22.8	0.00e+00	2	27	0	245366784	50	5795
2026-01-13 14:05:23.26	25.57	12.85	-38.3	-39.3	22.6	0.00e+00	56	27	0	246415360	50	5906
2026-01-13 14:05:24.27	25.62	12.94	-38.5	-39.5	22.4	0.00e+00	2	28	0	248512512	50	6087
2026-01-13 14:05:25.28	25.68	13.04	-38.1	-39.1	22.8	0.00e+00	92	27	0	250609664	50	5803
2026-01-13 14:05:26.29	25.73	13.13	-38.1	-39.1	22.8	0.00e+00	0	27	0	252706816	50	5812
2026-01-13 14:05:27.30	25.78	13.23	-38.0	-38.9	23.0	0.00e+00	47	28	0	254803968	50	5694
2026-01-13 14:05:28.31	25.84	13.32	-37.8	-38.8	23.1	0.00e+00	0	27	0	255852544	50	5600
2026-01-13 14:05:29.31	25.89	13.42	-37.9	-38.8	23.0	0.00e+00	53	27	0	257949696	50	5619
2026-01-13 14:05:30.32	25.95	13.52	-37.9	-38.9	23.0	0.00e+00	0	27	0	260046848	50	5659
2026-01-13 14:05:31.33	26.00	13.61	-38.0	-39.0	23.0	0.00e+00	0	28	0	262144000	50	5732
2026-01-13 14:05:32.34	26.06	13.71	-37.7	-38.7	23.2	0.00e+00	92	27	0	264241152	50	5521
2026-01-13 14:05:33.35	26.11	13.81	-37.8	-38.8	23.1	0.00e+00	54	28	0	265289728	48	6255
2026-01-13 14:05:34.36	26.17	13.91	-37.9	-38.9	23.0	0.00e+00	92	27	0	267386880	48	6348
2026-01-13 14:05:35.37	26.23	14.01	-37.9	-38.8	23.1	0.00e+00	48	27	0	269484032	48	6291
2026-01-13 14:05:36.38	26.28	14.11	-37.7	-38.6	23.3	0.00e+00	5	27	0	271581184	48	6161
2026-01-13 14:05:37.39	26.34	14.21	-37.7	-38.6	23.3	0.00e+00	29	27	0	273678336	48	6168
2026-01-13 14:05:38.40	26.40	14.31	-37.6	-38.5	23.3	0.00e+00	7	28	0	274726912	48	6096
2026-01-13 14:05:39.40	26.45	14.41	-37.6	-38.6	23.3	0.00e+00	92	27	0	276824064	48	6112
2026-01-13 14:05:40.41	26.51	14.51	-37.6	-38.5	23.4	0.00e+00	28	27	0	278921216	48	6051
2026-01-13 14:05:41.42	26.57	14.61	-37.7	-38.6	23.4	0.00e+00	92	27	0	281018368	48	6138
2026-01-13 14:05:42.43	26.63	14.71	-37.7	-38.6	23.3	0.00e+00	6	27	0	283115520	48	6165
2026-01-13 14:05:43.44	26.69	14.81	-37.8	-38.8	23.1	0.00e+00	5	27	0	284164096	48	6276
2026-01-13 14:05:44.45	26.75	14.91	-37.6	-38.5	23.4	0.00e+00	6	28	0	286261248	48	6103
2026-01-13 14:05:45.46	26.81	15.02	-37.5	-38.5	23.4	0.00e+00	7	27	0	288358400	48	6051
2026-01-13 14:05:46.47	26.87	15.12	-37.5	-38.4	23.4	0.00e+00	30	27	0	290455552	48	6026
2026-01-13 14:05:47.48	26.93	15.22	-37.5	-38.4	23.6	0.00e+00	0	28	0	292552704	48	5982
2026-01-13 14:05:48.48	26.99	15.33	-37.4	-38.3	23.5	0.00e+00	91	28	0	294649856	48	5957
2026-01-13 14:05:49.50	27.05	15.43	-37.5	-38.4	23.4	0.00e+00	0	28	0	295698432	48	6013
2026-01-13 14:05:50.50	27.11	15.54	-37.5	-38.4	23.5	0.00e+00	49	28	0	297795584	48	6008
2026-01-13 14:05:51.51	27.18	15.64	-37.5	-38.4	23.5	0.00e+00	0	27	0	299892736	48	6025
2026-01-13 14:05:52.52	27.24	15.75	-37.5	-38.4	23.5	0.00e+00	50	27	0	301989888	48	6011
2026-01-13 14:05:53.53	27.30	15.85	-37.6	-38.5	23.4	0.00e+00	0	28	0	304087040	48	6072
2026-01-13 14:05:54.54	27.36	15.96	-37.4	-38.3	23.6	0.00e+00	31	28	0	305135616	48	5928
2026-01-13 14:05:55.55	27.43	16.07	-37.2	-38.1	23.7	0.00e+00	92	27	0	307232768	48	5804
2026-01-13 14:05:56.56	27.49	16.17	-37.3	-38.2	23.7	0.00e+00	32	27	0	309329920	48	5847
2026-01-13 14:05:57.57	27.56	16.28	-37.2	-38.1	23.7	0.00e+00	92	27	0	311427072	48	5790
2026-01-13 14:05:58.58	27.62	16.39	-37.1	-38.0	23.9	0.00e+00	39	27	0	313524224	48	5741
2026-01-13 14:05:59.59	27.69	16.50	-37.2	-38.1	23.8	0.00e+00	40	28	0	314572800	48	5788
2026-01-13 14:06:00.60	27.76	16.61	-37.2	-38.1	23.8	0.00e+00	4	28	0	316669952	48	5767
2026-01-13 14:06:01.60	27.82	16.72	-37.1	-38.0	23.9	0.00e+00	8	28	0	318767104	48	5715
2026-01-13 14:06:02.62	27.89	16.83	-37.0	-37.9	23.9	0.00e+00	91	27	0	320864256	48	5667
2026-01-13 14:06:03.62	27.96	16.94	-37.0	-37.9	23.9	0.00e+00	32	27	0	322961408	48	5673
2026-01-13 14:06:04.63	28.02	17.05	-37.0	-37.8	24.0	0.00e+00	92	28	0	324009984	48	5612
2026-01-13 14:06:05.64	28.09	17.16	-37.0	-37.9	23.9	0.00e+00	0	28	0	326107136	48	5675
2026-01-13 14:06:06.65	28.16	17.27	-37.1	-37.9	23.9	0.00e+00	0	28	0	328204288	48	5687
2026-01-13 14:06:07.66	28.23	17.39	-37.0	-37.9	23.9	0.00e+00	6	28	0	330301440	48	5683
2026-01-13 14:06:08.67	28.30	17.50	-36.8	-37.7	24.2	0.00e+00	6	28	0	332398592	48	5531
2026-01-13 14:06:09.68	28.37	17.61	-36.8	-37.6	23.3	0.00e+00	62	28	0	333447168	48	5494
2026-01-13 14:06:10.69	28.44	17.73	-36.8	-37.6	24.2	0.00e+00	54	28	0	335544320	46	6161
2026-01-13 14:06:11.70	28.51	17.84	-36.9	-37.8	24.1	0.00e+00	92	28	0	337641472	46	6266
2026-01-13 14:06:12.71	28.59	17.96	-37.1	-37.9	24.0	0.00e+00	0	28	0	339738624	46	6380
2026-01-13 14:06:13.72	28.66	18.07	-37.1	-38.0	24.0	0.00e+00	78	28	0	341835776	46	6397
2026-01-13 14:06:14.73	28.73	18.19	-36.9	-37.8	24.1	0.00e+00	0	28	0	342884352	46	6267
2026-01-13 14:06:15.74	28.80	18.30	-36.5	-37.3	24.6	0.00e+00	32	28	0	344981504	46	5947
2026-01-13 14:06:16.75	28.88	18.42	-36.5	-37.4	24.5	0.00e+00	0	27	0	347078656	46	5974
2026-01-13 14:06:17.75	28.95	18.54	-36.7	-37.6	24.3	0.00e+00	27	28	0	349175808	46	6132
2026-01-13 14:06:18.76	29.03	18.66	-36.7	-37.5	24.3	0.00e+00	92	28	0	351272960	46	6078
2026-01-13 14:06:19.77	29.10	18.77	-36.7	-37.5	24.4	0.00e+00	25	28	0	352321536	46	6074
2026-01-13 14:06:20.78	29.18	18.89	-36.6	-37.5	24.4	0.00e+00	92	28	0	354418688	46	6050
2026-01-13 14:06:21.79	29.26	19.01	-36.7	-37.5	24.4	0.00e+00	0	27	0	356515840	46	6071
2026-01-13 14:06:22.80	29.33	19.13	-36.4	-37.2	24.7	0.00e+00	32	27	0	358612992	46	5885
2026-01-13 14:06:23.81	29.41	19.25	-36.3	-37.1	24.7	0.00e+00	31	28	0	360710144	46	5795
2026-01-13 14:06:24.82	29.49	19.37	-36.5	-37.3	24.6	0.00e+00	0	28	0	361758720	46	5961
2026-01-13 14:06:25.83	29.57	19.50	-36.5	-37.4	24.5	0.00e+00	46	28	0	363855872	46	5979
2026-01-13 14:06:26.84	29.65	19.62	-36.3	-37.1	24.8	0.00e+00	0	28	0	365953024	46	5782
2026-01-13 14:06:27.85	29.73	19.74	-36.3	-37.1	24.7	0.00e+00	92	28	0	368050176	46	5828
2026-01-13 14:06:28.85	29.81	19.86	-36.2	-37.0	24.8	0.00e+00	0	28	0	370147328	46	5738
2026-01-13 14:06:29.86	29.89	19.99	-36.3	-37.1	24.7	0.00e+00	85	28	0	371195904	46	5803
2026-01-13 14:06:30.87	29.97	20.11	-36.3	-37.1	24.7	0.00e+00	0	28	0	373293056	46	5825
2026-01-13 14:06:31.88	30.05	20.24	-36.2	-37.1	24.7	0.00e+00	50	28	0	375390208	46	5766
2026-01-13 14:06:32.89	30.14	20.36	-36.2	-37.0	24.8	0.00e+00	56	27	0	377487360	46	5721
2026-01-13 14:06:33.90	30.22	20.49	-36.3	-37.1	24.8	0.00e+00	0	28	0	379584512	46	5768
2026-01-13 14:06:34.91	30.31	20.62	-36.2	-37.0	24.7	0.00e+00	92	28	0	381681664	46	5726
2026-01-13 14:06:35.92	30.39	20.74	-36.3	-37.1	24.7	0.00e+00	0	27	0	382730240	46	5782
2026-01-13 14:06:36.93	30.48	20.87	-36.3	-37.1	24.7	0.00e+00	92	28	0	384827392	46	5784
2026-01-13 14:06:37.94	30.56	21.00	-36.4	-37.2	24.6	0.00e+00	23	28	0	386924544	46	5880
2026-01-13 14:06:38.95	30.65	21.13	-36.3	-37.2	24.7	0.00e+00	55	28	0	389021696	46	5833
2026-01-13 14:06:39.96	30.74	21.26	-36.3	-37.1	24.8	0.00e+00	40	28	0	391118848	46	5780
2026-01-13 14:06:40.96	30.83	21.39	-36.1	-36.9	25.0	0.00e+00	27	28	0	392167424	46	5653
2026-01-13 14:06:41.97	30.92	21.52	-36.3	-37.1	24.8	0.00e+00	92	28	0	394264576	46	5787
2026-01-13 14:06:42.98	31.01	21.65	-36.0	-36.8	24.9	0.00e+00	0	28	0	396361728	46	5623
2026-01-13 14:06:43.99	31.10	21.79	-36.1	-36.9	24.9	0.00e+00	91	27	0	398458880	46	5654
2026-01-13 14:06:45.00	31.19	21.92	-36.1	-36.9	24.7	0.00e+00	0	27	0	400556032	46	5691
2026-01-13 14:06:46.01	31.28	22.05	-36.3	-37.1	24.4	0.00e+00	0	28	0	401604608	46	5780
2026-01-13 14:06:47.02	31.38	22.19	-36.2	-37.0	24.6	0.00e+00	0	27	0	403701760	46	5741
2026-01-13 14:06:48.03	31.47	22.32	-36.1	-36.9	24.8	0.00e+00	0	28	0	405798912	46	5684
2026-01-13 14:06:49.04	31.57	22.46	-36.1	-36.9	24.9	0.00e+00	92	28	0	407896064	46	5668
2026-01-13 14:06:50.05	31.66	22.59	-36.1	-36.9	25.0	0.00e+00	2	28	0	409993216	46	5652
2026-01-13 14:06:51.06	31.76	22.73	-36.1	-36.9	24.9	0.00e+00	90	27	0	411041792	46	5633
2026-01-13 14:06:52.07	31.85	22.87	-36.1	-36.9	25.0	0.00e+00	0	27	0	413138944	46	5684
2026-01-13 14:06:53.08	31.95	23.01	-36.1	-36.9	24.9	0.00e+00	18	28	0	415236096	46	5658
2026-01-13 14:06:54.09	32.05	23.14	-36.1	-36.9	25.0	0.00e+00	58	27	0	417333248	46	5654
2026-01-13 14:06:55.10	32.15	23.28	-36.1	-36.9	24.9	0.00e+00	0	28	0	419430400	46	5684
2026-01-13 14:06:56.11	32.25	23.42	-36.1	-36.9	24.9	0.00e+00	0	27	0	420478976	46	5651
2026-01-13 14:06:57.12	32.35	23.57	-36.2	-37.0	24.8	0.00e+00	56	28	0	422576128	46	5716
2026-01-13 14:06:58.13	32.45	23.71	-36.2	-37.0	24.8	0.00e+00	92	28	0	424673280	46	5732
2026-01-13 14:06:59.14	32.56	23.85	-36.2	-37.0	24.8	0.00e+00	0	28	0	426770432	46	5747
2026-01-13 14:07:00.14	32.66	23.99	-36.1	-36.9	25.0	0.00e+00	92	27	0	428867584	46	5692
2026-01-13 14:07:01.15	32.77	24.13	-36.2	-37.0	24.8	0.00e+00	25	27	0	429916160	46	5720
2026-01-13 14:07:02.16	32.87	24.28	-36.1	-36.8	25.0	0.00e+00	22	27	0	432013312	46	5628
2026-01-13 14:07:03.17	32.98	24.42	-36.1	-36.9	25.0	0.00e+00	54	27	0	434110464	46	5672
2026-01-13 14:07:04.18	33.09	24.57	-36.2	-37.0	24.9	0.00e+00	0	28	0	436207616	46	5735
2026-01-13 14:07:05.19	33.20	24.72	-36.2	-37.0	24.8	0.00e+00	91	27	0	438304768	46	5749
2026-01-13 14:07:06.20	33.31	24.86	-36.4	-37.3	24.8	0.00e+00	0	28	0	439353344	46	5902
2026-01-13 14:07:07.21	33.42	25.01	-36.5	-37.3	24.7	0.00e+00	92	28	0	441450496	46	5939
2026-01-13 14:07:08.22	33.53	25.16	-36.4	-37.2	24.7	0.00e+00	24	28	0	443547648	46	5862
2026-01-13 14:07:09.23	33.64	25.31	-36.4	-37.2	24.7	0.00e+00	0	28	0	445644800	46	5842
2026-01-13 14:07:10.23	33.75	25.46	-36.5	-37.3	24.6	0.00e+00	0	28	0	447741952	46	5955
2026-01-13 14:07:11.25	33.87	25.61	-36.6	-37.5	24.5	0.00e+00	0	28	0	449839104	46	6036
2026-01-13 14:07:12.25	33.98	25.76	-36.5	-37.4	24.6	0.00e+00	92	28	0	450887680	46	5980
2026-01-13 14:07:13.26	34.10	25.91	-36.9	-37.7	24.2	0.00e+00	2	27	0	452984832	46	6238
2026-01-13 14:07:14.27	34.22	26.07	-36.8	-37.6	24.4	0.00e+00	92	27	0	455081984	46	6138
2026-01-13 14:07:15.28	34.34	26.22	-36.9	-37.7	24.0	0.00e+00	0	28	0	457179136	46	6242
2026-01-13 14:07:16.28	34.46	26.37	-37.0	-37.8	24.1	0.00e+00	20	28	0	459276288	46	6299
2026-01-13 14:07:17.29	34.58	26.53	-37.0	-37.9	24.1	0.00e+00	57	28	0	460324864	46	6341
2026-01-13 14:07:18.30	34.70	26.68	-37.2	-38.0	24.1	0.00e+00	55	28	0	462422016	46	6441
2026-01-13 14:07:19.31	34.82	26.84	-37.3	-38.2	24.0	0.00e+00	0	28	0	464519168	46	6557
2026-01-13 14:07:20.32	34.95	27.00	-37.3	-38.2	23.9	0.00e+00	56	28	0	466616320	46	6545
2026-01-13 14:07:21.33	35.07	27.16	-37.4	-38.3	23.7	0.00e+00	92	28	0	468713472	46	6655
2026-01-13 14:07:22.34	35.20	27.32	-37.5	-38.4	23.7	0.00e+00	3	28	0	469762048	46	6732
2026-01-13 14:07:23.35	35.33	27.48	-37.7	-38.6	23.6	0.00e+00	2	28	0	471859200	48	6121
2026-01-13 14:07:24.36	35.46	27.64	-37.6	-38.5	23.6	0.00e+00	29	28	0	473956352	48	6085
2026-01-13 14:07:25.37	35.59	27.80	-37.7	-38.6	23.5	0.00e+00	31	27	0	476053504	48	6115
2026-01-13 14:07:26.38	35.72	27.96	-37.9	-38.8	23.3	0.00e+00	31	28	0	478150656	48	6281
2026-01-13 14:07:27.39	35.86	28.13	-37.9	-38.8	23.4	0.00e+00	33	28	0	479199232	48	6291
2026-01-13 14:07:28.40	35.99	28.29	-38.0	-39.0	23.2	0.00e+00	92	28	0	481296384	48	6418
2026-01-13 14:07:29.41	36.13	28.45	-38.1	-39.0	23.2	0.00e+00	5	28	0	483393536	48	6461
2026-01-13 14:07:30.41	36.26	28.62	-38.1	-39.0	23.2	0.00e+00	91	28	0	485490688	48	6420
2026-01-13 14:07:31.42	36.40	28.78	-38.3	-39.3	23.0	0.00e+00	0	27	0	487587840	48	6619
2026-01-13 14:07:32.43	36.54	28.95	-38.3	-39.2	23.0	0.00e+00	0	28	0	488636416	48	6596
2026-01-13 14:07:33.44	36.69	29.12	-38.4	-39.4	22.9	0.00e+00	5	28	0	490733568	48	6735
2026-01-13 14:07:34.45	36.83	29.29	-38.7	-39.7	22.6	0.00e+00	0	28	0	492830720	48	6935
2026-01-13 14:07:35.46	36.97	29.46	-38.8	-39.9	22.4	0.00e+00	0	28	0	494927872	50	6319
2026-01-13 14:07:36.47	37.12	29.63	-39.1	-40.2	21.9	0.00e+00	0	28	0	497025024	50	6556
2026-01-13 14:07:37.48	37.27	29.80	-39.2	-40.3	22.1	0.00e+00	92	28	0	498073600	50	6666
2026-01-13 14:07:38.49	37.42	29.97	-39.6	-40.7	21.6	0.00e+00	57	28	0	500170752	50	6939
2026-01-13 14:07:39.50	37.57	30.15	-39.9	-41.1	21.4	0.00e+00	55	28	0	502267904	52	6480
2026-01-13 14:07:40.51	37.72	30.32	-40.0	-41.1	21.2	0.00e+00	0	28	0	504365056	52	6514
2026-01-13 14:07:41.52	37.87	30.50	-40.1	-41.3	21.3	0.00e+00	58	28	0	506462208	52	6633
2026-01-13 14:07:42.53	38.03	30.67	-40.2	-41.4	21.1	0.00e+00	0	28	0	507510784	52	6737
2026-01-13 14:07:43.54	38.19	30.85	-40.2	-41.4	21.1	0.00e+00	57	28	0	509607936	52	6753
2026-01-13 14:07:44.55	38.35	31.03	-40.1	-41.3	21.2	0.00e+00	91	28	0	511705088	52	6666
2026-01-13 14:07:45.56	38.51	31.20	-39.9	-41.1	21.3	0.00e+00	0	28	0	513802240	52	6496
2026-01-13 14:07:46.57	38.67	31.38	-39.9	-41.0	21.4	0.00e+00	60	28	0	515899392	52	6452
2026-01-13 14:07:47.58	38.83	31.56	-39.7	-40.9	21.7	0.00e+00	29	28	0	516947968	52	6324
2026-01-13 14:07:48.58	39.00	31.74	-39.5	-40.6	21.8	0.00e+00	29	28	0	519045120	52	6140
2026-01-13 14:07:49.59	39.17	31.92	-39.3	-40.4	22.0	0.00e+00	27	28	0	521142272	52	5995
2026-01-13 14:07:50.60	39.34	32.11	-39.3	-40.3	22.1	0.00e+00	7	28	0	523239424	52	5945
2026-01-13 14:07:51.61	39.51	32.29	-39.4	-40.5	21.9	0.00e+00	92	28	0	525336576	52	6038
2026-01-13 14:07:52.62	39.68	32.47	-39.4	-40.5	21.8	0.00e+00	6	28	0	526385152	52	6084
2026-01-13 14:07:53.63	39.86	32.66	-39.3	-40.4	22.0	0.00e+00	92	28	0	528482304	52	5976
2026-01-13 14:07:54.64	40.03	32.85	-39.3	-40.3	22.1	0.00e+00	0	28	0	530579456	52	5944
2026-01-13 14:07:55.65	40.21	33.03	-39.2	-40.3	22.1	0.00e+00	6	28	0	532676608	52	5906
2026-01-13 14:07:56.66	40.39	33.22	-39.1	-40.1	22.3	0.00e+00	0	28	0	534773760	52	5803
2026-01-13 14:07:57.67	40.58	33.41	-39.1	-40.1	22.4	0.00e+00	0	28	0	535822336	52	5823
2026-01-13 14:07:58.68	40.76	33.60	-38.8	-39.8	22.6	0.00e+00	0	28	0	537919488	50	6248
2026-01-13 14:07:59.69	40.95	33.79	-38.8	-39.9	22.6	0.00e+00	57	28	0	540016640	50	6321
2026-01-13 14:08:00.70	41.14	33.98	-38.7	-39.6	22.6	0.00e+00	92	28	0	542113792	50	6166
2026-01-13 14:08:01.71	41.33	34.17	-38.6	-39.5	22.8	0.00e+00	0	28	0	544210944	50	6088
2026-01-13 14:08:02.71	41.53	34.36	-38.6	-39.6	22.7	0.00e+00	57	28	0	546308096	50	6129
2026-01-13 14:08:03.72	41.72	34.56	-38.5	-39.5	22.7	0.00e+00	0	28	0	547356672	50	6083
2026-01-13 14:08:04.73	41.92	34.75	-38.6	-39.6	22.7	0.00e+00	25	28	0	549453824	50	6117
2026-01-13 14:08:05.74	42.12	34.95	-38.6	-39.6	22.7	0.00e+00	50	28	0	551550976	50	6119
2026-01-13 14:08:06.75	42.32	35.14	-38.6	-39.6	22.7	0.00e+00	56	28	0	553648128	50	6107
2026-01-13 14:08:07.76	42.53	35.34	-38.5	-39.5	22.9	0.00e+00	92	27	0	555745280	50	6041
2026-01-13 14:08:08.77	42.74	35.54	-38.4	-39.4	22.4	0.00e+00	21	27	0	556793856	50	5984
2026-01-13 14:08:09.78	42.95	35.74	-38.4	-39.4	22.9	0.00e+00	90	28	0	558891008	50	5967
2026-01-13 14:08:10.79	43.16	35.94	-38.0	-38.9	23.3	0.00e+00	23	28	0	560988160	50	5694
2026-01-13 14:08:11.80	43.38	36.14	-37.9	-38.8	23.4	0.00e+00	25	28	0	563085312	50	5629
2026-01-13 14:08:12.81	43.60	36.34	-37.8	-38.7	23.6	0.00e+00	0	28	0	565182464	50	5542
2026-01-13 14:08:13.82	43.82	36.54	-37.5	-38.4	23.8	0.00e+00	0	28	0	566231040	48	6013
2026-01-13 14:08:14.83	44.04	36.74	-37.5	-38.4	23.8	0.00e+00	89	28	0	568328192	48	6003
2026-01-13 14:08:15.84	44.27	36.95	-37.5	-38.4	23.9	0.00e+00	0	28	0	570425344	48	5992
2026-01-13 14:08:16.85	44.50	37.15	-37.3	-38.2	24.0	0.00e+00	90	28	0	572522496	48	5862
2026-01-13 14:08:17.85	44.73	37.36	-37.5	-38.3	23.8	0.00e+00	0	28	0	574619648	48	5960
2026-01-13 14:08:18.87	44.97	37.56	-37.4	-38.2	23.9	0.00e+00	0	28	0	575668224	48	5894
2026-01-13 14:08:19.87	45.20	37.77	-37.4	-38.2	24.0	0.00e+00	0	28	0	577765376	48	5871
2026-01-13 14:08:20.88	45.44	37.98	-37.3	-38.2	24.0	0.00e+00	52	28	0	579862528	48	5861
2026-01-13 14:08:21.89	45.69	38.18	-37.0	-37.8	24.2	0.00e+00	62	28	0	581959680	48	5621
2026-01-13 14:08:22.90	45.93	38.39	-36.9	-37.7	24.3	0.00e+00	0	28	0	584056832	48	5561
2026-01-13 14:08:23.91	46.19	38.60	-36.8	-37.6	24.4	0.00e+00	92	28	0	585105408	48	5476
2026-01-13 14:08:24.92	46.44	38.81	-36.9	-37.7	24.4	0.00e+00	0	28	0	587202560	48	5554
2026-01-13 14:08:25.93	46.70	39.02	-36.9	-37.8	24.3	0.00e+00	78	28	0	589299712	48	5569
2026-01-13 14:08:26.94	46.96	39.24	-37.0	-37.8	24.3	0.00e+00	3	28	0	591396864	48	5602
2026-01-13 14:08:27.94	47.22	39.45	-37.1	-38.0	24.1	0.00e+00	53	28	0	593494016	48	5712
2026-01-13 14:08:28.96	47.49	39.66	-36.9	-37.7	24.4	0.00e+00	0	28	0	594542592	48	5541
2026-01-13 14:08:29.96	47.75	39.87	-36.8	-37.6	24.5	0.00e+00	59	28	0	596639744	46	6133
2026-01-13 14:08:30.98	48.03	40.09	-36.7	-37.5	24.4	0.00e+00	92	28	0	598736896	46	6088
2026-01-13 14:08:31.98	48.30	40.30	-36.9	-37.7	24.5	0.00e+00	0	27	0	600834048	46	6216
2026-01-13 14:08:32.99	48.59	40.52	-36.9	-37.7	24.4	0.00e+00	90	27	0	602931200	46	6203
2026-01-13 14:08:34.00	48.87	40.73	-37.0	-37.8	24.3	0.00e+00	2	27	0	603979776	46	6306
2026-01-13 14:08:35.01	49.16	40.95	-37.0	-37.9	24.1	0.00e+00	0	28	0	606076928	46	6329
2026-01-13 14:08:36.02	49.45	41.17	-37.2	-38.1	24.1	0.00e+00	23	28	0	608174080	46	6500
2026-01-13 14:08:37.03	49.75	41.38	-37.3	-38.2	24.0	0.00e+00	0	28	0	610271232	46	6546
2026-01-13 14:08:38.04	50.05	41.60	-37.1	-38.0	24.2	0.00e+00	92	27	0	612368384	46	6396
2026-01-13 14:08:39.05	50.35	41.82	-37.2	-38.0	24.1	0.00e+00	0	28	0	614465536	46	6449
2026-01-13 14:08:40.06	50.66	42.04	-37.4	-38.2	24.0	0.00e+00	92	27	0	615514112	46	6603
2026-01-13 14:08:41.07	50.97	42.26	-37.7	-38.6	23.0	0.00e+00	2	28	0	617611264	46	6900
2026-01-13 14:08:42.08	51.29	42.48	-38.0	-38.9	23.0	0.00e+00	52	28	0	619708416	48	6365
2026-01-13 14:08:43.09	51.61	42.70	-38.1	-39.0	23.2	0.00e+00	0	28	0	621805568	48	6426
2026-01-13 14:08:44.10	51.94	42.92	-38.0	-39.0	23.3	0.00e+00	0	27	0	623902720	48	6395
2026-01-13 14:08:45.11	52.27	43.14	-38.0	-38.9	23.4	0.00e+00	0	28	0	624951296	48	6354
2026-01-13 14:08:46.11	52.60	43.36	-37.7	-38.6	23.7	0.00e+00	59	27	0	627048448	48	6118
2026-01-13 14:08:47.12	52.94	43.58	-37.5	-38.4	23.8	0.00e+00	92	28	0	629145600	48	5976
2026-01-13 14:08:48.13	53.28	43.80	-37.6	-38.4	23.7	0.00e+00	22	27	0	631242752	48	6027
2026-01-13 14:08:49.14	53.63	44.02	-38.0	-38.9	23.4	0.00e+00	92	28	0	633339904	48	6355
2026-01-13 14:08:50.15	53.98	44.24	-38.6	-39.6	22.7	0.00e+00	0	28	0	634388480	48	6910
2026-01-13 14:08:51.16	54.34	44.46	-39.0	-40.0	22.2	0.00e+00	0	28	0	636485632	50	6427
2026-01-13 14:08:52.17	54.70	44.68	-39.4	-40.5	22.0	0.00e+00	38	28	0	638582784	50	6779
2026-01-13 14:08:53.18	55.07	44.91	-39.2	-40.2	22.3	0.00e+00	54	28	0	640679936	50	6571
2026-01-13 14:08:54.18	55.44	45.13	-39.0	-40.1	22.4	0.00e+00	92	28	0	642777088	50	6472
2026-01-13 14:08:55.19	55.82	45.35	-38.9	-39.9	22.6	0.00e+00	2	27	0	643825664	50	6327
2026-01-13 14:08:56.20	56.20	45.57	-39.0	-40.1	22.3	0.00e+00	90	27	0	645922816	50	6470
2026-01-13 14:08:57.21	56.59	45.79	-39.1	-40.2	22.3	0.00e+00	28	28	0	648019968	50	6572
2026-01-13 14:08:58.22	56.98	46.01	-39.5	-40.5	21.8	0.00e+00	0	28	0	650117120	50	6843
2026-01-13 14:08:59.22	57.38	46.23	-40.0	-41.1	21.3	0.00e+00	0	28	0	652214272	52	6502
2026-01-13 14:09:00.23	57.78	46.45	-40.6	-41.9	20.8	0.00e+00	0	28	0	653262848	52	7099
2026-01-13 14:09:01.24	58.20	46.67	-40.8	-42.0	20.4	0.00e+00	92	28	0	655360000	54	6464
2026-01-13 14:09:02.25	58.61	46.89	-40.9	-42.2	20.4	0.00e+00	0	28	0	657457152	54	6552
2026-01-13 14:09:03.26	59.03	47.11	-40.7	-42.0	20.5	0.00e+00	92	28	0	659554304	54	6445
2026-01-13 14:09:04.27	59.46	47.33	-40.9	-42.2	20.3	0.00e+00	0	28	0	661651456	54	6600
2026-01-13 14:09:05.28	59.90	47.54	-40.8	-42.1	20.4	0.00e+00	92	28	0	662700032	54	6509
2026-01-13 14:09:06.29	60.34	47.76	-41.0	-42.4	20.2	0.00e+00	0	28	0	664797184	54	6699
2026-01-13 14:09:07.30	60.78	47.98	-41.1	-42.5	19.6	0.00e+00	0	28	0	666894336	54	6844
2026-01-13 14:09:08.30	61.23	48.19	-41.0	-42.3	20.1	0.00e+00	0	28	0	668991488	54	6668
2026-01-13 14:09:09.32	61.70	48.41	-41.1	-42.4	20.2	0.00e+00	59	27	0	671088640	54	6744
2026-01-13 14:09:10.33	62.16	48.62	-40.7	-42.0	20.5	0.00e+00	92	28	0	672137216	54	6414
2026-01-13 14:09:11.33	62.63	48.83	-40.7	-42.0	20.6	0.00e+00	24	28	0	674234368	54	6411
2026-01-13 14:09:12.34	63.11	49.04	-40.7	-42.0	20.5	0.00e+00	92	28	0	676331520	54	6448
2026-01-13 14:09:13.35	63.59	49.26	-40.5	-41.7	20.9	0.00e+00	56	28	0	678428672	54	6227
2026-01-13 14:09:14.36	64.08	49.47	-40.2	-41.4	21.0	0.00e+00	0	28	0	680525824	54	5971
2026-01-13 14:09:15.37	64.58	49.67	-40.0	-41.2	21.4	0.00e+00	0	28	0	681574400	54	5834
2026-01-13 14:09:16.38	65.08	49.88	-39.9	-41.0	21.5	0.00e+00	24	28	0	683671552	54	5760
2026-01-13 14:09:17.39	65.60	50.09	-39.7	-40.8	21.5	0.00e+00	92	28	0	685768704	52	6304
2026-01-13 14:09:18.40	66.12	50.29	-39.7	-40.8	21.8	0.00e+00	6	28	0	687865856	52	6256
2026-01-13 14:09:19.41	66.64	50.49	-38.9	-39.9	22.5	0.00e+00	92	28	0	689963008	52	5662
2026-01-13 14:09:20.42	67.17	50.69	-38.4	-39.3	23.0	0.00e+00	28	28	0	691011584	50	5951
2026-01-13 14:09:21.43	67.71	50.89	-38.5	-39.5	22.6	0.00e+00	40	28	0	693108736	50	6048
2026-01-13 14:09:22.44	68.26	51.09	-38.4	-39.4	23.0	0.00e+00	0	28	0	695205888	50	5971
2026-01-13 14:09:23.45	68.81	51.29	-38.3	-39.3	23.1	0.00e+00	6	28	0	697303040	50	5907
2026-01-13 14:09:24.45	69.37	51.48	-38.3	-39.3	23.1	0.00e+00	67	28	0	699400192	50	5915
2026-01-13 14:09:25.46	69.94	51.67	-37.5	-38.4	23.9	0.00e+00	0	28	0	700448768	48	6004
2026-01-13 14:09:26.47	70.51	51.86	-37.3	-38.1	24.1	0.00e+00	92	27	0	702545920	48	5796
2026-01-13 14:09:27.48	71.10	52.05	-37.3	-38.1	23.9	0.00e+00	52	28	0	704643072	48	5824
2026-01-13 14:09:28.49	71.69	52.23	-37.0	-37.8	24.3	0.00e+00	53	28	0	706740224	48	5619
2026-01-13 14:09:29.50	72.28	52.41	-37.3	-38.2	24.1	0.00e+00	0	28	0	708837376	48	5844
2026-01-13 14:09:30.50	72.88	52.59	-37.1	-38.0	24.2	0.00e+00	59	28	0	710934528	48	5708
2026-01-13 14:09:31.51	73.50	52.77	-37.3	-38.2	23.9	0.00e+00	0	28	0	711983104	48	5840
2026-01-13 14:09:32.52	74.12	52.95	-37.4	-38.3	24.1	0.00e+00	0	28	0	714080256	48	5920
2026-01-13 14:09:33.53	74.74	53.12	-37.3	-38.2	24.0	0.00e+00	90	28	0	716177408	48	5831
2026-01-13 14:09:34.54	75.38	53.29	-37.6	-38.5	23.7	0.00e+00	27	28	0	718274560	48	6075
2026-01-13 14:09:35.55	76.02	53.45	-37.7	-38.6	23.7	0.00e+00	90	28	0	720371712	48	6137
2026-01-13 14:09:36.56	76.67	53.62	-36.9	-37.7	24.5	0.00e+00	27	28	0	721420288	48	5538
2026-01-13 14:09:37.57	77.32	53.77	-36.5	-37.3	24.8	0.00e+00	0	28	0	723517440	46	5947
2026-01-13 14:09:38.58	77.99	53.93	-36.6	-37.4	24.7	0.00e+00	28	28	0	725614592	46	6003
2026-01-13 14:09:39.59	78.66	54.08	-36.8	-37.7	24.4	0.00e+00	30	28	0	727711744	46	6186
2026-01-13 14:09:40.60	79.33	54.23	-36.8	-37.6	24.4	0.00e+00	92	28	0	729808896	46	6126
2026-01-13 14:09:41.61	80.02	54.38	-36.6	-37.4	24.7	0.00e+00	26	28	0	730857472	46	6009
2026-01-13 14:09:42.62	80.71	54.52	-36.4	-37.2	24.9	0.00e+00	92	28	0	732954624	46	5846
2026-01-13 14:09:43.63	81.41	54.66	-36.4	-37.2	24.9	0.00e+00	6	28	0	735051776	46	5877
2026-01-13 14:09:44.64	82.11	54.80	-36.5	-37.3	24.8	0.00e+00	0	28	0	737148928	46	5912
2026-01-13 14:09:45.65	82.82	54.93	-36.8	-37.6	24.5	0.00e+00	4	28	0	739246080	46	6122
2026-01-13 14:09:46.66	83.54	55.05	-36.9	-37.7	24.3	0.00e+00	7	28	0	740294656	46	6242
2026-01-13 14:09:47.67	84.26	55.18	-37.0	-37.8	24.3	0.00e+00	0	28	0	742391808	46	6292
2026-01-13 14:09:48.68	85.00	55.30	-36.9	-37.7	24.4	0.00e+00	0	28	0	744488960	46	6237
2026-01-13 14:09:49.69	85.73	55.41	-37.4	-38.3	23.8	0.00e+00	92	28	0	746586112	46	6637
2026-01-13 14:09:50.70	86.47	55.52	-37.8	-38.7	23.5	0.00e+00	53	28	0	748683264	48	6199
2026-01-13 14:09:51.71	87.22	55.63	-38.1	-39.0	23.4	0.00e+00	68	28	0	749731840	48	6421
2026-01-13 14:09:52.71	87.97	55.73	-37.9	-38.8	23.4	0.00e+00	0	28	0	751828992	48	6257
2026-01-13 14:09:53.72	88.73	55.82	-38.3	-39.2	23.0	0.00e+00	54	28	0	753926144	48	6598
2026-01-13 14:09:54.73	89.49	55.91	-39.0	-40.0	22.3	0.00e+00	47	27	0	756023296	50	6447
2026-01-13 14:09:55.74	90.26	56.00	-39.1	-40.2	22.3	0.00e+00	53	27	0	758120448	50	6554
2026-01-13 14:09:56.76	91.04	56.08	-39.6	-40.7	21.7	0.00e+00	92	27	0	759169024	50	6976
2026-01-13 14:09:57.76	91.81	56.16	-39.9	-41.0	21.3	0.00e+00	54	28	0	761266176	52	6448
2026-01-13 14:09:58.77	92.59	56.23	-39.5	-40.6	21.8	0.00e+00	90	28	0	763363328	52	6122
2026-01-13 14:09:59.78	93.38	56.30	-39.3	-40.4	22.1	0.00e+00	23	28	0	765460480	52	6002
2026-01-13 14:10:00.79	94.17	56.36	-40.1	-41.3	21.1	0.00e+00	21	27	0	767557632	52	6666
2026-01-13 14:10:01.80	94.96	56.42	-41.3	-42.8	19.9	0.00e+00	23	28	0	768606208	54	7038
2026-01-13 14:10:02.81	95.75	56.47	-41.2	-42.7	19.8	0.00e+00	22	28	0	770703360	54	6970
2026-01-13 14:10:03.82	96.55	56.51	-40.8	-42.1	20.3	0.00e+00	91	28	0	772800512	54	6530
2026-01-13 14:10:04.83	97.35	56.56	-39.2	-40.8	18.5	0.00e+00	0	28	0	774897664	52	6292
2026-01-13 14:10:05.84	98.16	56.59	-39.1	-40.3	21.6	0.00e+00	92	28	0	776994816	52	5925
2026-01-13 14:10:06.85	98.96	56.62	-38.8	-39.8	22.6	0.00e+00	0	28	0	779091968	52	5600
2026-01-13 14:10:07.86	99.77	56.65	-38.9	-39.9	22.5	0.00e+00	50	28	0	780140544	50	6377
2026-01-13 14:10:08.86	100.57	56.67	-38.8	-39.8	22.7	0.00e+00	0	28	0	782237696	50	6277
2026-01-13 14:10:09.87	101.38	56.68	-38.1	-39.1	23.3	0.00e+00	0	28	0	784334848	50	5763
2026-01-13 14:10:10.88	102.19	56.69	-38.2	-39.2	23.1	0.00e+00	21	28	0	786432000	50	5844
2026-01-13 14:10:11.89	103.00	56.69	-39.0	-40.0	22.4	0.00e+00	57	28	0	788529152	50	6429
2026-01-13 14:10:12.90	103.81	56.69	-38.4	-39.4	22.9	0.00e+00	92	28	0	789577728	50	5983
2026-01-13 14:10:13.91	104.62	56.68	-37.9	-38.8	23.5	0.00e+00	0	28	0	791674880	50	5591
2026-01-13 14:10:14.92	105.43	56.67	-38.3	-39.2	23.0	0.00e+00	91	28	0	793772032	50	5887
2026-01-13 14:10:15.93	106.24	56.65	-39.0	-40.0	22.1	0.00e+00	58	28	0	795869184	50	6450
2026-01-13 14:10:16.94	107.05	56.63	-38.9	-39.9	22.5	0.00e+00	22	28	0	797966336	50	6349
2026-01-13 14:10:17.94	107.84	56.60	-38.7	-39.7	22.6	0.00e+00	48	28	0	799014912	50	6217
2026-01-13 14:10:18.96	108.66	56.57	-38.8	-39.8	22.5	0.00e+00	4	28	0	801112064	50	6288
2026-01-13 14:10:19.97	109.46	56.53	-39.0	-40.0	22.4	0.00e+00	90	28	0	803209216	50	6436
2026-01-13 14:10:20.98	110.26	56.48	-39.5	-40.6	21.8	0.00e+00	30	28	0	805306368	50	6926
2026-01-13 14:10:21.99	111.06	56.43	-39.1	-40.1	22.3	0.00e+00	92	28	0	807403520	50	6528
2026-01-13 14:10:22.99	111.84	56.38	-38.7	-39.7	22.6	0.00e+00	0	28	0	808452096	50	6221
2026-01-13 14:10:24.00	112.63	56.31	-39.6	-40.7	21.7	0.00e+00	0	28	0	810549248	50	6949
2026-01-13 14:10:25.01	113.42	56.25	-40.9	-42.3	20.1	0.00e+00	29	28	0	812646400	54	6642
2026-01-13 14:10:26.02	114.20	56.18	-41.2	-42.6	19.9	0.00e+00	0	28	0	814743552	54	6925
2026-01-13 14:10:27.03	114.98	56.10	-39.5	-40.6	21.9	0.00e+00	92	28	0	816840704	52	6125
2026-01-13 14:10:28.04	115.76	56.02	-39.2	-40.2	22.2	0.00e+00	0	27	0	817889280	52	5856
2026-01-13 14:10:29.05	116.53	55.94	-40.2	-41.3	21.2	0.00e+00	92	27	0	819986432	52	6681
2026-01-13 14:10:30.06	117.29	55.85	-40.5	-41.7	20.7	0.00e+00	0	28	0	822083584	52	6951
2026-01-13 14:10:31.07	118.05	55.75	-39.5	-40.6	21.7	0.00e+00	46	28	0	824180736	52	6163
2026-01-13 14:10:32.08	118.81	55.65	-39.2	-40.2	22.3	0.00e+00	0	28	0	826277888	52	5889
2026-01-13 14:10:33.09	119.56	55.55	-38.8	-39.8	22.4	0.00e+00	0	28	0	827326464	52	5630
2026-01-13 14:10:34.10	120.30	55.44	-38.9	-39.9	22.4	0.00e+00	0	27	0	829423616	52	5648
2026-01-13 14:10:35.11	121.04	55.32	-38.9	-39.9	22.6	0.00e+00	0	27	0	831520768	52	5658
2026-01-13 14:10:36.12	121.77	55.21	-38.7	-39.7	22.6	0.00e+00	92	28	0	833617920	50	6243
2026-01-13 14:10:37.13	122.50	55.08	-38.0	-39.0	23.3	0.00e+00	58	28	0	835715072	50	5711
2026-01-13 14:10:38.14	123.22	54.96	-37.8	-38.7	23.7	0.00e+00	92	28	0	836763648	50	5522
2026-01-13 14:10:39.14	123.93	54.83	-36.8	-37.7	24.5	0.00e+00	58	28	0	838860800	48	5514
2026-01-13 14:10:40.15	124.63	54.70	-36.5	-37.3	24.8	0.00e+00	22	28	0	840957952	46	5930
2026-01-13 14:10:41.16	125.34	54.56	-35.6	-36.3	25.7	0.00e+00	43	28	0	843055104	46	5290
2026-01-13 14:10:42.17	126.03	54.42	-34.3	-35.0	26.6	0.00e+00	0	28	0	845152256	42	5756
2026-01-13 14:10:43.18	126.72	54.27	-34.2	-34.9	26.5	0.00e+00	92	28	0	847249408	42	5689
2026-01-13 14:10:44.19	127.40	54.12	-34.4	-35.1	26.5	0.00e+00	24	28	0	848297984	42	5772
2026-01-13 14:10:45.20	128.07	53.97	-34.7	-35.4	26.2	0.00e+00	90	28	0	850395136	42	5999
2026-01-13 14:10:46.21	128.73	53.81	-34.4	-35.1	26.4	0.00e+00	22	28	0	852492288	42	5820
2026-01-13 14:10:47.22	129.39	53.65	-34.3	-35.0	26.6	0.00e+00	22	28	0	854589440	42	5714
2026-01-13 14:10:48.23	130.05	53.49	-34.3	-34.9	26.7	0.00e+00	0	28	0	856686592	42	5695
2026-01-13 14:10:49.24	130.69	53.32	-34.6	-35.3	26.3	0.00e+00	0	28	0	857735168	42	5927
2026-01-13 14:10:50.25	131.33	53.16	-34.8	-35.5	26.2	0.00e+00	92	28	0	859832320	42	6054
2026-01-13 14:10:51.26	131.96	52.98	-34.4	-35.1	26.6	0.00e+00	2	28	0	861929472	42	5810
2026-01-13 14:10:52.27	132.58	52.81	-34.3	-35.0	26.5	0.00e+00	92	28	0	864026624	42	5752
2026-01-13 14:10:53.28	133.19	52.63	-34.2	-34.9	26.7	0.00e+00	0	28	0	866123776	42	5683
2026-01-13 14:10:54.29	133.80	52.45	-34.6	-35.4	26.2	0.00e+00	50	28	0	867172352	42	5972
2026-01-13 14:10:55.30	134.40	52.27	-35.7	-36.5	25.3	0.00e+00	52	28	0	869269504	42	6799
2026-01-13 14:10:56.31	134.99	52.09	-36.7	-37.6	24.4	0.00e+00	0	28	0	871366656	44	6872
2026-01-13 14:10:57.32	135.58	51.90	-36.7	-37.5	24.6	0.00e+00	0	28	0	873463808	46	6088
2026-01-13 14:10:58.33	136.16	51.71	-36.4	-37.2	24.9	0.00e+00	0	28	0	875560960	46	5864
2026-01-13 14:10:59.34	136.73	51.52	-37.0	-37.8	24.1	0.00e+00	92	28	0	876609536	46	6274
2026-01-13 14:11:00.35	137.29	51.32	-38.8	-39.8	22.3	0.00e+00	56	28	0	878706688	48	7086
2026-01-13 14:11:01.36	137.85	51.13	-40.5	-41.8	20.7	0.00e+00	92	28	0	880803840	52	7081
2026-01-13 14:11:02.37	138.40	50.93	-40.3	-41.6	21.1	0.00e+00	55	28	0	882900992	52	6878
2026-01-13 14:11:03.38	138.94	50.73	-39.5	-40.5	21.9	0.00e+00	5	28	0	884998144	52	6098
2026-01-13 14:11:04.39	139.48	50.53	-39.2	-40.3	22.2	0.00e+00	33	28	0	886046720	52	5904
2026-01-13 14:11:05.40	140.01	50.33	-40.7	-42.1	20.5	0.00e+00	25	28	0	888143872	52	7258
2026-01-13 14:11:06.41	140.53	50.12	-42.9	-44.8	17.7	0.00e+00	92	28	0	890241024	56	7928
2026-01-13 14:11:07.42	141.04	49.92	-43.0	-45.0	17.7	0.00e+00	7	28	0	892338176	58	7204
2026-01-13 14:11:08.43	141.55	49.71	-41.4	-42.8	19.9	0.00e+00	92	28	0	894435328	56	6314
2026-01-13 14:11:09.44	142.05	49.50	-40.6	-41.9	20.7	0.00e+00	0	28	0	895483904	54	6354
2026-01-13 14:11:10.45	142.54	49.29	-40.9	-42.2	20.3	0.00e+00	0	28	0	897581056	54	6608
2026-01-13 14:11:11.46	143.03	49.08	-41.5	-42.9	19.8	0.00e+00	7	28	0	899678208	54	7138
2026-01-13 14:11:12.47	143.51	48.87	-42.0	-43.6	19.2	0.00e+00	0	28	0	901775360	56	6872
2026-01-13 14:11:13.48	143.98	48.65	-41.7	-43.2	19.6	0.00e+00	92	28	0	903872512	56	6603
2026-01-13 14:11:14.49	144.45	48.44	-40.2	-41.4	21.2	0.00e+00	57	28	0	904921088	54	6008
2026-01-13 14:11:15.50	144.91	48.22	-39.5	-40.6	22.0	0.00e+00	90	28	0	907018240	52	6131
2026-01-13 14:11:16.50	145.36	48.01	-39.1	-40.1	22.2	0.00e+00	57	28	0	909115392	52	5828
2026-01-13 14:11:17.51	145.81	47.79	-40.2	-41.3	20.9	0.00e+00	90	28	0	911212544	52	6671
2026-01-13 14:11:18.52	146.25	47.57	-42.0	-43.6	18.9	0.00e+00	0	28	0	913309696	56	6914
2026-01-13 14:11:19.53	146.69	47.35	-41.7	-43.2	19.6	0.00e+00	56	28	0	914358272	56	6591
2026-01-13 14:11:20.54	147.12	47.14	-40.4	-41.7	20.9	0.00e+00	0	28	0	916455424	54	6175
2026-01-13 14:11:21.55	147.54	46.92	-40.0	-41.1	21.4	0.00e+00	0	28	0	918552576	54	5821
2026-01-13 14:11:22.56	147.96	46.70	-39.6	-40.7	21.7	0.00e+00	92	28	0	920649728	52	6215
2026-01-13 14:11:23.57	148.38	46.48	-40.4	-41.6	20.9	0.00e+00	36	28	0	922746880	52	6902
2026-01-13 14:11:24.58	148.78	46.25	-41.0	-42.4	20.2	0.00e+00	92	28	0	923795456	54	6710
2026-01-13 14:11:25.59	149.18	46.03	-41.0	-42.4	20.2	0.00e+00	33	28	0	925892608	54	6728
2026-01-13 14:11:26.60	149.58	45.81	-40.5	-41.7	20.9	0.00e+00	6	28	0	927989760	54	6232
2026-01-13 14:11:27.61	149.97	45.59	-39.9	-41.0	21.6	0.00e+00	0	28	0	930086912	54	5742
2026-01-13 14:11:28.62	150.36	45.37	-39.3	-40.3	22.2	0.00e+00	32	28	0	932184064	52	5963
2026-01-13 14:11:29.63	150.74	45.15	-39.6	-40.7	21.8	0.00e+00	92	28	0	933232640	52	6198
2026-01-13 14:11:30.63	151.11	44.93	-40.8	-42.0	20.7	0.00e+00	7	28	0	935329792	52	7212
2026-01-13 14:11:31.64	151.48	44.70	-40.9	-42.2	20.3	0.00e+00	91	28	0	937426944	54	6560
2026-01-13 14:11:32.65	151.84	44.48	-40.3	-41.4	21.2	0.00e+00	0	28	0	939524096	54	6026
2026-01-13 14:11:33.66	152.20	44.26	-39.3	-40.3	22.1	0.00e+00	0	28	0	941621248	52	5932
2026-01-13 14:11:34.67	152.56	44.04	-39.5	-40.5	21.8	0.00e+00	0	28	0	943718400	52	6079
2026-01-13 14:11:35.68	152.91	43.81	-40.0	-41.2	21.3	0.00e+00	56	28	0	944766976	52	6573
2026-01-13 14:11:36.69	153.25	43.59	-39.7	-40.8	21.7	0.00e+00	92	28	0	946864128	52	6252
2026-01-13 14:11:37.70	153.59	43.37	-39.4	-40.4	22.0	0.00e+00	56	27	0	948961280	52	5988
2026-01-13 14:11:38.71	153.93	43.15	-39.2	-40.2	22.2	0.00e+00	92	28	0	951058432	52	5895
2026-01-13 14:11:39.72	154.26	42.93	-40.1	-41.3	21.0	0.00e+00	57	28	0	953155584	52	6665
2026-01-13 14:11:40.73	154.58	42.71	-42.1	-43.7	19.0	0.00e+00	30	28	0	954204160	56	6936
2026-01-13 14:11:41.74	154.91	42.48	-42.4	-44.1	18.5	0.00e+00	25	28	0	956301312	56	7294
2026-01-13 14:11:42.75	155.23	42.26	-40.2	-41.4	21.3	0.00e+00	57	28	0	958398464	54	5984
2026-01-13 14:11:43.76	155.54	42.04	-38.3	-39.2	23.2	0.00e+00	34	28	0	960495616	50	5858
2026-01-13 14:11:44.77	155.85	41.82	-37.8	-38.7	23.6	0.00e+00	57	28	0	962592768	50	5522
2026-01-13 14:11:45.78	156.15	41.61	-38.5	-39.4	22.8	0.00e+00	92	28	0	963641344	50	6008
2026-01-13 14:11:46.79	156.46	41.39	-39.5	-40.6	21.8	0.00e+00	0	28	0	965738496	50	6897
2026-01-13 14:11:47.80	156.75	41.17	-40.6	-41.9	20.8	0.00e+00	92	28	0	967835648	52	7097
2026-01-13 14:11:48.81	157.05	40.95	-40.8	-42.1	20.4	0.00e+00	0	28	0	969932800	54	6523
2026-01-13 14:11:49.82	157.34	40.73	-40.6	-41.8	20.8	0.00e+00	0	28	0	972029952	54	6310
2026-01-13 14:11:50.82	157.62	40.52	-39.8	-40.9	21.7	0.00e+00	32	28	0	973078528	54	5669
2026-01-13 14:11:51.83	157.90	40.30	-39.5	-40.5	21.9	0.00e+00	0	28	0	975175680	52	6093
2026-01-13 14:11:52.84	158.18	40.09	-38.5	-39.5	22.8	0.00e+00	92	28	0	977272832	50	6064
2026-01-13 14:11:53.85	158.45	39.87	-38.6	-39.6	22.7	0.00e+00	0	28	0	979369984	50	6131
2026-01-13 14:11:54.85	158.72	39.66	-39.9	-41.1	21.3	0.00e+00	92	28	0	981467136	52	6477
2026-01-13 14:11:55.86	158.99	39.44	-41.3	-42.8	19.6	0.00e+00	0	28	0	982515712	54	7024
2026-01-13 14:11:56.87	159.26	39.23	-41.2	-42.7	20.0	0.00e+00	13	28	0	984612864	54	6963
2026-01-13 14:11:57.88	159.52	39.02	-39.9	-41.1	21.5	0.00e+00	0	28	0	986710016	54	5794
2026-01-13 14:11:58.89	159.77	38.81	-39.0	-40.0	22.4	0.00e+00	54	28	0	988807168	52	5734
2026-01-13 14:11:59.90	160.03	38.59	-38.3	-39.2	23.1	0.00e+00	5	28	0	990904320	50	5870
2026-01-13 14:12:00.91	160.28	38.38	-38.1	-39.0	23.2	0.00e+00	55	28	0	991952896	50	5748
2026-01-13 14:12:01.92	160.53	38.17	-39.7	-40.8	21.6	0.00e+00	92	28	0	994050048	50	7040
2026-01-13 14:12:02.93	160.77	37.96	-41.3	-42.8	19.7	0.00e+00	0	28	0	996147200	54	7037
2026-01-13 14:12:03.94	161.02	37.76	-41.3	-42.8	20.0	0.00e+00	92	28	0	998244352	54	7044
2026-01-13 14:12:04.95	161.25	37.55	-39.6	-40.7	21.6	0.00e+00	56	28	0	1000341504	54	5557
2026-01-13 14:12:05.96	161.49	37.34	-38.1	-39.1	23.3	0.00e+00	57	28	0	1001390080	50	5773
2026-01-13 14:12:06.97	161.72	37.13	-37.6	-38.5	23.7	0.00e+00	0	28	0	1003487232	48	6050
2026-01-13 14:12:07.98	161.95	36.93	-37.1	-38.0	24.2	0.00e+00	57	28	0	1005584384	48	5708
2026-01-13 14:12:08.99	162.18	36.72	-37.1	-37.9	24.3	0.00e+00	92	28	0	1007681536	48	5672
2026-01-13 14:12:09.99	162.40	36.52	-37.0	-37.8	24.3	0.00e+00	0	28	0	1009778688	48	5598
2026-01-13 14:12:11.00	162.63	36.32	-37.4	-38.2	23.9	0.00e+00	92	28	0	1011875840	48	5883
2026-01-13 14:12:12.01	162.84	36.12	-37.8	-38.7	23.6	0.00e+00	0	28	0	1012924416	48	6178
2026-01-13 14:12:13.02	163.06	35.92	-38.0	-38.9	23.3	0.00e+00	0	28	0	1015021568	48	6369
2026-01-13 14:12:14.03	163.28	35.71	-38.3	-39.3	22.9	0.00e+00	0	28	0	1017118720	48	6625
2026-01-13 14:12:15.04	163.49	35.51	-38.6	-39.5	22.7	0.00e+00	0	28	0	1019215872	48	6848
2026-01-13 14:12:16.05	163.70	35.32	-38.3	-39.2	23.0	0.00e+00	92	27	0	1021313024	48	6606
2026-01-13 14:12:17.06	163.90	35.12	-38.1	-39.0	23.2	0.00e+00	0	28	0	1022361600	48	6462
2026-01-13 14:12:18.07	164.11	34.92	-37.8	-38.7	23.6	0.00e+00	90	28	0	1024458752	48	6214
2026-01-13 14:12:19.08	164.31	34.72	-37.3	-38.2	24.0	0.00e+00	0	28	0	1026555904	48	5844
2026-01-13 14:12:20.08	164.50	34.53	-37.3	-38.2	23.9	0.00e+00	2	28	0	1028653056	48	5843
2026-01-13 14:12:21.09	164.70	34.34	-37.7	-38.5	23.7	0.00e+00	50	28	0	1030750208	48	6101
2026-01-13 14:12:22.11	164.90	34.14	-37.9	-38.8	23.4	0.00e+00	49	28	0	1031798784	48	6316
2026-01-13 14:12:23.12	165.09	33.95	-38.7	-39.7	22.6	0.00e+00	62	28	0	1033895936	48	6972
2026-01-13 14:12:24.12	165.28	33.76	-39.3	-40.4	22.0	0.00e+00	0	28	0	1035993088	50	6744
2026-01-13 14:12:25.13	165.47	33.56	-39.8	-40.9	21.4	0.00e+00	92	28	0	1038090240	50	7134
2026-01-13 14:12:26.14	165.65	33.37	-40.0	-41.2	21.3	0.00e+00	0	28	0	1040187392	52	6580
2026-01-13 14:12:27.15	165.84	33.18	-39.9	-41.1	21.4	0.00e+00	90	28	0	1041235968	52	6467
2026-01-13 14:12:28.16	166.02	33.00	-39.8	-41.0	21.4	0.00e+00	32	28	0	1043333120	52	6427
2026-01-13 14:12:29.17	166.20	32.81	-39.8	-41.0	21.6	0.00e+00	55	28	0	1045430272	52	6417
2026-01-13 14:12:30.18	166.38	32.62	-39.3	-40.3	22.1	0.00e+00	49	28	0	1047527424	52	5962
2026-01-13 14:12:31.19	166.55	32.43	-38.7	-39.7	22.7	0.00e+00	26	28	0	1049624576	52	5505
2026-01-13 14:12:32.20	166.73	32.25	-38.7	-39.7	22.6	0.00e+00	92	28	0	1050673152	50	6191
2026-01-13 14:12:33.20	166.90	32.07	-38.8	-39.8	22.6	0.00e+00	0	28	0	1052770304	50	6263
2026-01-13 14:12:34.21	167.07	31.88	-38.8	-39.8	22.4	0.00e+00	92	28	0	1054867456	50	6267
2026-01-13 14:12:35.22	167.23	31.70	-39.3	-40.4	22.0	0.00e+00	0	28	0	1056964608	50	6715
2026-01-13 14:12:36.23	167.40	31.52	-39.6	-40.7	21.7	0.00e+00	0	28	0	1059061760	50	6984
2026-01-13 14:12:37.24	167.57	31.34	-40.0	-41.2	21.3	0.00e+00	0	28	0	1060110336	52	6565
2026-01-13 14:12:38.25	167.73	31.16	-40.2	-41.4	21.2	0.00e+00	0	28	0	1062207488	52	6721
2026-01-13 14:12:39.26	167.89	30.98	-40.1	-41.3	21.1	0.00e+00	89	28	0	1064304640	52	6683
2026-01-13 14:12:40.27	168.05	30.80	-39.8	-40.9	21.5	0.00e+00	0	28	0	1066401792	52	6361
2026-01-13 14:12:41.28	168.21	30.62	-39.7	-40.8	21.6	0.00e+00	92	28	0	1068498944	52	6301
2026-01-13 14:12:42.29	168.36	30.45	-39.8	-40.9	21.5	0.00e+00	0	28	0	1069547520	52	6383
2026-01-13 14:12:43.30	168.52	30.27	-39.6	-40.7	21.7	0.00e+00	0	28	0	1071644672	52	6238
2026-01-13 14:12:44.31	168.67	30.09	-39.8	-41.0	21.3	0.00e+00	53	28	0	1073741824	52	6415
2026-01-13 14:12:45.32	168.82	29.92	-39.8	-40.9	21.5	0.00e+00	54	28	0	1075838976	52	6368
2026-01-13 14:12:46.32	168.97	29.75	-39.8	-40.9	21.5	0.00e+00	0	28	0	1077936128	52	6382
2026-01-13 14:12:47.33	169.12	29.58	-39.8	-41.0	21.4	0.00e+00	29	28	0	1080033280	52	6394
2026-01-13 14:12:48.34	169.26	29.41	-39.7	-40.9	21.5	0.00e+00	90	28	0	1081081856	52	6322
2026-01-13 14:12:49.35	169.41	29.23	-39.5	-40.6	21.8	0.00e+00	30	28	0	1083179008	52	6131
2026-01-13 14:12:50.36	169.55	29.06	-39.2	-40.3	22.0	0.00e+00	89	28	0	1085276160	52	5927
2026-01-13 14:12:51.37	169.69	28.90	-39.1	-40.2	22.2	0.00e+00	0	28	0	1087373312	52	5857
2026-01-13 14:12:52.38	169.83	28.73	-38.9	-40.0	22.4	0.00e+00	34	27	0	1088421888	52	5714
2026-01-13 14:12:53.39	169.97	28.56	-38.9	-39.9	22.4	0.00e+00	0	28	0	1090519040	52	5680
2026-01-13 14:12:54.40	170.11	28.39	-39.0	-40.1	22.2	0.00e+00	35	28	0	1092616192	52	5770
2026-01-13 14:12:55.40	170.25	28.23	-38.9	-39.9	22.4	0.00e+00	92	27	0	1094713344	52	5638
2026-01-13 14:12:56.41	170.38	28.06	-39.3	-40.3	22.1	0.00e+00	5	27	0	1096810496	52	5947
2026-01-13 14:12:57.42	170.51	27.90	-39.6	-40.7	21.7	0.00e+00	92	28	0	1097859072	52	6201
2026-01-13 14:12:58.44	170.65	27.74	-39.7	-40.8	21.6	0.00e+00	0	28	0	1099956224	52	6315
2026-01-13 14:12:59.44	170.78	27.57	-39.9	-41.1	21.4	0.00e+00	6	28	0	1102053376	52	6508
2026-01-13 14:13:00.46	170.91	27.41	-39.8	-41.0	21.5	0.00e+00	5	28	0	1104150528	52	6396
2026-01-13 14:13:01.46	171.04	27.25	-39.8	-40.9	21.6	0.00e+00	0	28	0	1106247680	52	6377
2026-01-13 14:13:02.47	171.16	27.09	-39.6	-40.7	21.6	0.00e+00	91	28	0	1108344832	52	6240
2026-01-13 14:13:03.48	171.29	26.93	-39.2	-40.3	22.0	0.00e+00	54	28	0	1109393408	52	5945
2026-01-13 14:13:04.49	171.41	26.77	-39.2	-40.2	22.1	0.00e+00	92	28	0	1111490560	52	5882
2026-01-13 14:13:05.50	171.54	26.62	-38.7	-39.7	22.4	0.00e+00	5	28	0	1113587712	50	6196
2026-01-13 14:13:06.51	171.66	26.46	-38.8	-39.9	22.4	0.00e+00	54	28	0	1115684864	50	6330
2026-01-13 14:13:07.52	171.78	26.30	-38.6	-39.6	22.6	0.00e+00	0	28	0	1117782016	50	6168
2026-01-13 14:13:08.53	171.90	26.15	-38.5	-39.5	22.7	0.00e+00	53	28	0	1118830592	50	6039
2026-01-13 14:13:09.54	172.02	25.99	-38.6	-39.6	22.7	0.00e+00	35	28	0	1120927744	50	6130
2026-01-13 14:13:10.54	172.14	25.84	-38.8	-39.8	22.5	0.00e+00	35	28	0	1123024896	50	6272
2026-01-13 14:13:11.55	172.25	25.69	-39.0	-40.0	22.3	0.00e+00	92	28	0	1125122048	50	6435
2026-01-13 14:13:12.57	172.37	25.53	-39.0	-40.1	22.2	0.00e+00	32	28	0	1127219200	50	6469
2026-01-13 14:13:13.57	172.49	25.38	-39.0	-40.1	22.2	0.00e+00	92	28	0	1128267776	50	6508
2026-01-13 14:13:14.59	172.60	25.23	-38.9	-40.0	22.3	0.00e+00	33	28	0	1130364928	50	6431
2026-01-13 14:13:15.59	172.71	25.08	-38.9	-39.9	22.4	0.00e+00	6	28	0	1132462080	50	6375
2026-01-13 14:13:16.60	172.82	24.93	-38.7	-39.8	22.5	0.00e+00	0	28	0	1134559232	50	6248
2026-01-13 14:13:17.61	172.93	24.78	-38.5	-39.6	22.7	0.00e+00	33	28	0	1136656384	50	6106
2026-01-13 14:13:18.62	173.04	24.64	-38.4	-39.4	22.8	0.00e+00	92	28	0	1137704960	50	5967
2026-01-13 14:13:19.63	173.15	24.49	-38.3	-39.3	23.0	0.00e+00	7	28	0	1139802112	50	5933
2026-01-13 14:13:20.64	173.26	24.34	-37.8	-38.8	23.3	0.00e+00	92	28	0	1141899264	50	5577
2026-01-13 14:13:21.65	173.37	24.20	-37.8	-38.7	23.5	0.00e+00	6	28	0	1143996416	48	6216
2026-01-13 14:13:22.66	173.47	24.05	-37.8	-38.8	23.5	0.00e+00	6	28	0	1146093568	48	6247
2026-01-13 14:13:23.67	173.58	23.91	-37.5	-38.4	23.7	0.00e+00	0	28	0	1147142144	48	6007
2026-01-13 14:13:24.68	173.68	23.76	-37.4	-38.3	23.8	0.00e+00	0	28	0	1149239296	48	5933
2026-01-13 14:13:25.69	173.78	23.62	-37.3	-38.2	23.9	0.00e+00	90	28	0	1151336448	48	5857
2026-01-13 14:13:26.69	173.88	23.48	-37.3	-38.2	23.8	0.00e+00	47	28	0	1153433600	48	5877
2026-01-13 14:13:27.70	173.99	23.34	-37.3	-38.1	23.9	0.00e+00	92	28	0	1155530752	48	5816
2026-01-13 14:13:28.71	174.09	23.20	-37.1	-38.0	24.0	0.00e+00	48	28	0	1156579328	48	5723
2026-01-13 14:13:29.72	174.19	23.06	-37.2	-38.1	24.0	0.00e+00	41	28	0	1158676480	48	5766
2026-01-13 14:13:30.73	174.28	22.92	-37.2	-38.1	23.9	0.00e+00	53	28	0	1160773632	48	5806
2026-01-13 14:13:31.74	174.38	22.78	-37.2	-38.1	23.9	0.00e+00	29	28	0	1162870784	48	5785
2026-01-13 14:13:32.75	174.48	22.64	-37.3	-38.2	23.8	0.00e+00	0	28	0	1164967936	48	5851
2026-01-13 14:13:33.76	174.58	22.50	-37.4	-38.3	23.8	0.00e+00	28	28	0	1166016512	48	5919
2026-01-13 14:13:34.77	174.67	22.37	-37.6	-38.6	23.5	0.00e+00	92	28	0	1168113664	48	6104
2026-01-13 14:13:35.78	174.77	22.23	-37.8	-38.7	23.4	0.00e+00	0	28	0	1170210816	48	6215
2026-01-13 14:13:36.79	174.86	22.09	-37.7	-38.6	23.4	0.00e+00	83	28	0	1172307968	48	6145
2026-01-13 14:13:37.80	174.95	21.96	-37.7	-38.6	23.5	0.00e+00	0	28	0	1174405120	48	6147
2026-01-13 14:13:38.81	175.04	21.83	-37.7	-38.7	23.4	0.00e+00	29	28	0	1175453696	48	6182
2026-01-13 14:13:39.81	175.14	21.69	-37.7	-38.7	23.3	0.00e+00	0	28	0	1177550848	48	6176
2026-01-13 14:13:40.82	175.23	21.56	-37.6	-38.5	23.5	0.00e+00	0	28	0	1179648000	48	6083
2026-01-13 14:13:41.83	175.32	21.43	-37.4	-38.2	23.7	0.00e+00	92	28	0	1181745152	48	5891
2026-01-13 14:13:42.84	175.41	21.30	-37.1	-38.0	24.0	0.00e+00	0	28	0	1183842304	48	5740
2026-01-13 14:13:43.85	175.49	21.16	-37.2	-38.1	24.0	0.00e+00	90	28	0	1185939456	48	5781
2026-01-13 14:13:44.86	175.58	21.03	-37.1	-38.0	24.0	0.00e+00	0	28	0	1186988032	48	5744
2026-01-13 14:13:45.87	175.67	20.90	-37.0	-37.8	24.2	0.00e+00	2	28	0	1189085184	48	5609
2026-01-13 14:13:46.87	175.75	20.78	-36.7	-37.6	24.4	0.00e+00	0	28	0	1191182336	46	6104
2026-01-13 14:13:47.88	175.84	20.65	-36.4	-37.2	24.6	0.00e+00	50	28	0	1193279488	46	5856
2026-01-13 14:13:48.90	175.93	20.52	-36.1	-36.9	24.9	0.00e+00	92	28	0	1195376640	46	5646
2026-01-13 14:13:49.91	176.01	20.39	-36.1	-36.9	24.8	0.00e+00	0	28	0	1196425216	46	5688
2026-01-13 14:13:50.92	176.09	20.26	-36.1	-36.9	24.9	0.00e+00	90	28	0	1198522368	46	5649
2026-01-13 14:13:51.92	176.18	20.14	-36.0	-36.8	25.0	0.00e+00	46	28	0	1200619520	46	5609
2026-01-13 14:13:52.93	176.26	20.01	-36.1	-36.9	25.0	0.00e+00	83	28	0	1202716672	46	5650
2026-01-13 14:13:53.94	176.34	19.89	-36.1	-36.9	25.0	0.00e+00	44	28	0	1204813824	46	5650
2026-01-13 14:13:54.95	176.42	19.76	-36.1	-36.9	24.9	0.00e+00	4	28	0	1205862400	46	5679
2026-01-13 14:13:55.96	176.50	19.64	-36.2	-37.0	24.8	0.00e+00	26	28	0	1207959552	46	5720
2026-01-13 14:13:56.97	176.58	19.52	-36.2	-37.0	24.8	0.00e+00	45	28	0	1210056704	46	5744
2026-01-13 14:13:57.98	176.66	19.39	-36.3	-37.1	24.6	0.00e+00	92	28	0	1212153856	46	5799
2026-01-13 14:13:58.99	176.74	19.27	-36.4	-37.2	24.6	0.00e+00	32	28	0	1214251008	46	5847
2026-01-13 14:14:00.00	176.82	19.15	-36.4	-37.2	24.5	0.00e+00	92	28	0	1215299584	46	5888
2026-01-13 14:14:01.01	176.90	19.03	-36.4	-37.2	24.6	0.00e+00	31	28	0	1217396736	46	5895
2026-01-13 14:14:02.02	176.97	18.91	-36.4	-37.2	24.6	0.00e+00	32	28	0	1219493888	46	5871
2026-01-13 14:14:03.02	177.05	18.79	-36.5	-37.4	24.5	0.00e+00	0	28	0	1221591040	46	5989
