passes_logs/2026/01/13/R4.6S_Anadyr/R4.6S_Anadyr__20260113_122201_NOAA_20_JPSS-1_rec.log

#Pass ID: 20260113_122201_NOAA 20 (JPSS-1)
#Satellite: NOAA 20 (JPSS-1)
#Configuration: NOAA 20
#almurnet v.1.7.20251203
#Start time: 2026-01-13 12:22:02

#Version: 2.2.20231116
#Station: R4.6S_Anadyr
#Location: 177.4865 lon 64.73178 lat
#TLE: 1 43013U 17073A   26012.29914746  .00000087  00000+0  62270-4 0  9997
#TLE: 2 43013  98.7632 313.2670 0001616  43.2193 316.9110 14.19535514422351

#Time	Az	El	Level	Level2	SNR	BER	BlckErr	Temp	State	Recorded	gain1	gain2
2026-01-13 12:22:02.18	19.08	0.04	-48.7	-63.6	3.5	1.51e+00	0	25	0	0	60	54709
2026-01-13 12:22:03.19	19.15	0.09	-48.9	-64.1	3.6	1.51e+00	0	26	104	0	60	58052
2026-01-13 12:22:04.20	19.23	0.14	-48.7	-64.0	3.5	1.51e+00	0	27	104	0	60	57214
2026-01-13 12:22:05.21	19.30	0.19	-48.6	-63.9	3.6	1.51e+00	0	26	104	0	60	56918
2026-01-13 12:22:06.22	19.38	0.24	-48.7	-63.9	3.6	1.51e+00	0	27	104	0	60	56765
2026-01-13 12:22:07.23	19.45	0.29	-48.7	-63.9	3.6	1.51e+00	0	27	104	0	60	56829
2026-01-13 12:22:08.24	19.53	0.34	-48.8	-64.0	3.6	1.51e+00	0	27	104	0	60	57246
2026-01-13 12:22:09.25	19.60	0.39	-48.8	-63.9	3.6	1.51e+00	0	27	104	0	60	56950
2026-01-13 12:22:10.26	19.68	0.43	-48.7	-63.9	3.6	1.51e+00	0	27	104	0	60	56772
2026-01-13 12:22:11.26	19.76	0.48	-48.6	-63.9	3.6	1.51e+00	0	27	104	0	60	56466
2026-01-13 12:22:12.28	19.83	0.53	-48.6	-63.8	3.6	1.51e+00	0	27	104	0	60	55705
2026-01-13 12:22:13.28	19.91	0.58	-48.5	-63.6	3.6	1.51e+00	0	27	104	0	60	54851
2026-01-13 12:22:14.29	19.99	0.63	-48.4	-63.6	3.6	1.51e+00	0	27	104	0	60	54511
2026-01-13 12:22:15.30	20.06	0.68	-48.2	-63.4	3.6	1.51e+00	0	27	104	0	60	53186
2026-01-13 12:22:16.31	20.14	0.73	-48.0	-63.3	3.6	1.51e+00	0	27	104	0	60	52575
2026-01-13 12:22:17.32	20.22	0.78	-47.8	-62.9	3.6	1.51e+00	0	27	104	0	60	50758
2026-01-13 12:22:18.33	20.30	0.83	-47.4	-62.6	3.6	1.51e+00	0	27	104	0	60	48975
2026-01-13 12:22:19.34	20.38	0.88	-47.0	-62.1	3.6	1.51e+00	0	27	104	0	60	46267
2026-01-13 12:22:20.35	20.46	0.93	-47.0	-62.2	3.6	1.51e+00	0	27	104	0	60	46405
2026-01-13 12:22:21.36	20.53	0.98	-47.0	-62.2	3.6	1.51e+00	0	27	104	0	60	46405
2026-01-13 12:22:22.37	20.61	1.03	-47.0	-62.2	3.6	1.51e+00	0	27	104	0	60	46673
2026-01-13 12:22:23.38	20.69	1.08	-47.0	-62.2	3.6	1.51e+00	0	27	104	0	60	46424
2026-01-13 12:22:24.39	20.77	1.13	-47.0	-62.1	3.6	1.51e+00	0	27	104	0	60	46245
2026-01-13 12:22:25.40	20.85	1.18	-47.0	-62.2	3.6	1.51e+00	0	27	104	0	60	46489
2026-01-13 12:22:26.41	20.93	1.23	-47.0	-62.2	3.6	1.51e+00	0	27	104	0	60	46368
2026-01-13 12:22:27.42	21.01	1.28	-47.0	-62.1	3.6	1.51e+00	0	27	104	0	60	45995
2026-01-13 12:22:28.42	21.09	1.33	-47.0	-62.1	3.6	1.51e+00	0	27	104	0	60	46280
2026-01-13 12:22:29.43	21.17	1.38	-47.0	-62.1	3.6	1.51e+00	0	27	104	0	60	46281
2026-01-13 12:22:30.44	21.26	1.43	-47.0	-62.1	3.6	1.51e+00	0	27	104	0	60	46096
2026-01-13 12:22:31.45	21.34	1.48	-46.9	-62.2	3.6	1.51e+00	0	27	104	0	60	46380
2026-01-13 12:22:32.46	21.42	1.53	-47.0	-62.1	3.6	1.51e+00	0	27	104	0	60	46270
2026-01-13 12:22:33.47	21.50	1.58	-47.0	-62.2	3.6	1.51e+00	0	27	104	0	60	46384
2026-01-13 12:22:34.48	21.58	1.63	-47.0	-62.2	3.6	1.51e+00	0	27	104	0	60	46579
2026-01-13 12:22:35.49	21.66	1.68	-47.0	-62.1	3.6	1.51e+00	0	27	104	0	60	46263
2026-01-13 12:22:36.50	21.75	1.74	-46.9	-62.1	3.6	1.51e+00	0	27	104	0	60	46075
2026-01-13 12:22:37.51	21.83	1.79	-46.9	-62.1	3.6	1.51e+00	0	27	104	0	60	45803
2026-01-13 12:22:38.52	21.91	1.84	-46.9	-62.1	3.6	1.51e+00	0	27	104	0	60	45908
2026-01-13 12:22:39.53	22.00	1.89	-46.9	-62.1	3.6	1.51e+00	0	27	104	0	60	45935
2026-01-13 12:22:40.54	22.08	1.94	-46.9	-62.1	3.6	1.51e+00	0	27	104	0	60	46090
2026-01-13 12:22:41.55	22.17	1.99	-46.9	-62.1	3.6	1.51e+00	0	27	104	0	60	45940
2026-01-13 12:22:42.56	22.25	2.04	-46.9	-62.0	3.5	1.51e+00	0	27	104	0	60	45721
2026-01-13 12:22:43.57	22.33	2.09	-46.9	-62.1	3.6	1.51e+00	0	27	104	0	60	45989
2026-01-13 12:22:44.58	22.42	2.14	-47.0	-62.1	3.6	1.51e+00	0	27	104	0	60	46272
2026-01-13 12:22:45.59	22.50	2.19	-46.9	-62.1	3.6	1.51e+00	0	27	104	0	60	45952
2026-01-13 12:22:46.60	22.59	2.24	-46.9	-61.9	3.6	1.51e+00	0	27	104	0	60	44987
2026-01-13 12:22:47.61	22.68	2.30	-46.9	-61.3	3.6	1.51e+00	0	27	104	0	60	41953
2026-01-13 12:22:48.62	22.76	2.35	-46.9	-60.9	3.6	1.51e+00	0	27	104	0	60	40220
2026-01-13 12:22:49.63	22.85	2.40	-46.9	-61.1	3.6	1.51e+00	0	27	104	0	60	40864
2026-01-13 12:22:50.64	22.93	2.45	-46.9	-60.7	3.6	1.51e+00	0	27	104	0	60	39392
2026-01-13 12:22:51.65	23.02	2.50	-46.7	-57.9	4.3	1.49e+00	55	27	104	0	60	28374
2026-01-13 12:22:52.66	23.11	2.55	-46.1	-52.9	7.5	1.89e-01	0	27	0	1048576	60	15951
2026-01-13 12:22:53.67	23.20	2.60	-45.2	-49.9	11.1	8.49e-03	0	27	0	3145728	60	11287
2026-01-13 12:22:54.67	23.28	2.65	-44.3	-47.9	13.3	2.17e-04	0	27	0	4194304	60	8951
2026-01-13 12:22:55.68	23.37	2.71	-43.3	-46.0	15.3	2.20e-06	89	27	0	6291456	60	7184
2026-01-13 12:22:56.69	23.46	2.76	-42.1	-44.2	16.9	0.00e+00	0	27	0	8388608	58	6577
2026-01-13 12:22:57.70	23.55	2.81	-41.8	-43.8	17.4	0.00e+00	92	27	0	10485760	56	7023
2026-01-13 12:22:58.71	23.64	2.86	-42.1	-44.2	16.9	0.00e+00	68	27	0	12582912	56	7372
2026-01-13 12:22:59.72	23.73	2.91	-42.8	-45.2	15.9	0.00e+00	68	27	0	13631488	56	8245
2026-01-13 12:23:00.73	23.81	2.96	-43.5	-46.4	14.5	7.00e-07	0	27	0	15728640	58	8457
2026-01-13 12:23:01.74	23.90	3.01	-44.8	-49.0	11.6	3.12e-05	0	27	0	17825792	60	10219
2026-01-13 12:23:02.75	23.99	3.07	-43.4	-46.1	15.1	5.49e-05	91	27	0	19922944	60	7336
2026-01-13 12:23:03.76	24.08	3.12	-41.7	-43.6	17.6	0.00e+00	14	27	0	22020096	58	6157
2026-01-13 12:23:04.77	24.18	3.17	-46.9	-61.8	3.6	3.96e-05	0	27	104	23068672	60	44506
2026-01-13 12:23:05.78	24.27	3.22	-46.6	-56.8	4.0	1.51e+00	0	27	104	23068672	60	25030
2026-01-13 12:23:06.78	24.36	3.27	-44.2	-47.6	13.0	2.48e-03	67	28	0	23068672	58	9748
2026-01-13 12:23:07.79	24.45	3.33	-43.3	-45.9	15.7	2.39e-03	66	28	0	25165824	60	7089
2026-01-13 12:23:08.80	24.54	3.38	-42.7	-45.0	16.3	0.00e+00	2	27	0	26214400	60	6404
2026-01-13 12:23:09.81	24.63	3.43	-42.7	-45.0	16.1	0.00e+00	0	27	0	28311552	58	7203
2026-01-13 12:23:10.82	24.72	3.48	-42.7	-45.0	16.7	0.00e+00	2	27	0	30408704	58	7178
2026-01-13 12:23:11.83	24.82	3.53	-42.7	-45.0	16.0	0.00e+00	91	27	0	32505856	58	7195
2026-01-13 12:23:12.84	24.91	3.59	-43.2	-45.7	16.2	0.00e+00	11	27	0	34603008	58	7859
2026-01-13 12:23:13.85	25.00	3.64	-42.4	-44.5	16.2	0.00e+00	7	28	0	36700160	58	6831
2026-01-13 12:23:14.86	25.10	3.69	-43.1	-45.6	16.2	0.00e+00	0	28	0	37748736	58	7709
2026-01-13 12:23:15.87	25.19	3.74	-43.2	-45.7	16.3	0.00e+00	0	28	0	39845888	58	7792
2026-01-13 12:23:16.88	25.29	3.79	-42.7	-44.9	16.1	0.00e+00	0	28	0	41943040	58	7166
2026-01-13 12:23:17.88	25.38	3.85	-43.2	-45.7	16.5	0.00e+00	0	27	0	44040192	58	7776
2026-01-13 12:23:18.89	25.47	3.90	-43.1	-45.5	15.9	0.00e+00	92	27	0	45088768	58	7603
2026-01-13 12:23:19.90	25.57	3.95	-43.5	-46.2	15.6	0.00e+00	0	27	0	47185920	58	8284
2026-01-13 12:23:20.91	25.67	4.00	-42.8	-45.1	16.3	0.00e+00	92	28	0	49283072	58	7299
2026-01-13 12:23:21.92	25.76	4.06	-43.2	-45.6	15.7	0.00e+00	0	28	0	51380224	58	7731
2026-01-13 12:23:22.93	25.86	4.11	-43.7	-46.4	15.4	0.00e+00	0	28	0	53477376	60	7576
2026-01-13 12:23:23.94	25.95	4.16	-43.6	-46.3	15.2	0.00e+00	61	28	0	54525952	60	7431
2026-01-13 12:23:24.95	26.05	4.21	-43.8	-46.6	15.2	0.00e+00	21	28	0	56623104	60	7704
2026-01-13 12:23:25.96	26.15	4.27	-43.9	-46.7	14.9	0.00e+00	59	27	0	58720256	60	7855
2026-01-13 12:23:26.97	26.25	4.32	-44.1	-47.2	15.0	7.00e-07	67	28	0	60817408	60	8271
2026-01-13 12:23:27.98	26.34	4.37	-43.7	-46.4	15.1	0.00e+00	92	27	0	62914560	60	7589
2026-01-13 12:23:28.98	26.44	4.42	-43.9	-46.8	14.8	0.00e+00	67	28	0	65011712	60	7880
2026-01-13 12:23:29.99	26.54	4.48	-43.8	-46.4	15.4	0.00e+00	13	28	0	66060288	60	7590
2026-01-13 12:23:31.00	26.64	4.53	-43.8	-46.6	14.7	7.00e-07	0	28	0	68157440	60	7715
2026-01-13 12:23:32.01	26.74	4.58	-43.7	-46.4	15.8	0.00e+00	2	28	0	70254592	60	7524
2026-01-13 12:23:33.02	26.84	4.64	-43.8	-46.5	15.0	0.00e+00	0	28	0	72351744	60	7683
2026-01-13 12:23:34.03	26.94	4.69	-43.8	-46.6	15.5	0.00e+00	17	28	0	74448896	60	7742
2026-01-13 12:23:35.04	27.04	4.74	-43.3	-45.7	16.0	0.00e+00	90	28	0	75497472	60	6972
2026-01-13 12:23:36.05	27.14	4.80	-43.6	-46.3	15.6	0.00e+00	0	27	0	77594624	60	7434
2026-01-13 12:23:37.06	27.24	4.85	-43.7	-46.3	15.5	0.00e+00	92	28	0	79691776	60	7447
2026-01-13 12:23:38.06	27.34	4.90	-43.3	-45.8	16.0	0.00e+00	0	28	0	81788928	60	7013
2026-01-13 12:23:39.07	27.44	4.95	-43.5	-46.1	15.9	0.00e+00	0	28	0	83886080	60	7258
2026-01-13 12:23:40.08	27.54	5.01	-42.6	-44.7	17.0	0.00e+00	0	28	0	84934656	60	6229
2026-01-13 12:23:41.10	27.65	5.06	-42.2	-44.1	17.6	0.00e+00	63	28	0	87031808	58	6472
2026-01-13 12:23:42.10	27.75	5.11	-42.0	-43.8	17.7	0.00e+00	92	27	0	89128960	58	6298
2026-01-13 12:23:43.11	27.85	5.17	-42.1	-43.9	17.9	0.00e+00	70	28	0	91226112	58	6378
2026-01-13 12:23:44.12	27.96	5.22	-42.0	-43.8	17.8	0.00e+00	92	28	0	93323264	58	6296
2026-01-13 12:23:45.13	28.06	5.27	-42.2	-44.1	17.5	0.00e+00	69	28	0	94371840	58	6516
2026-01-13 12:23:46.14	28.16	5.33	-42.4	-44.4	17.5	0.00e+00	0	28	0	96468992	58	6717
2026-01-13 12:23:47.15	28.27	5.38	-41.8	-43.6	18.1	0.00e+00	0	28	0	98566144	58	6152
2026-01-13 12:23:48.16	28.37	5.43	-42.2	-44.1	17.2	0.00e+00	19	28	0	100663296	58	6516
2026-01-13 12:23:49.16	28.48	5.49	-42.2	-44.1	18.1	0.00e+00	49	28	0	102760448	58	6472
2026-01-13 12:23:50.17	28.58	5.54	-42.2	-44.1	17.6	0.00e+00	24	28	0	103809024	58	6526
2026-01-13 12:23:51.18	28.69	5.59	-42.0	-43.8	17.7	0.00e+00	92	28	0	105906176	58	6285
2026-01-13 12:23:52.20	28.80	5.65	-42.3	-44.3	17.6	0.00e+00	70	28	0	108003328	58	6644
2026-01-13 12:23:53.20	28.90	5.70	-42.2	-44.1	17.4	0.00e+00	54	28	0	110100480	58	6537
2026-01-13 12:23:54.21	29.01	5.75	-42.4	-44.4	17.4	0.00e+00	0	28	0	112197632	58	6736
2026-01-13 12:23:55.22	29.12	5.81	-41.7	-43.5	18.3	0.00e+00	0	27	0	113246208	58	6043
2026-01-13 12:23:56.23	29.22	5.86	-41.3	-42.8	19.0	0.00e+00	13	28	0	115343360	56	6311
2026-01-13 12:23:57.24	29.33	5.92	-40.5	-41.9	20.0	0.00e+00	16	28	0	117440512	54	6332
2026-01-13 12:23:58.25	29.44	5.97	-40.0	-41.3	20.3	0.00e+00	91	28	0	119537664	54	5918
2026-01-13 12:23:59.26	29.55	6.02	-40.1	-41.4	20.3	0.00e+00	0	27	0	121634816	54	5994
2026-01-13 12:24:00.27	29.66	6.08	-40.0	-41.3	20.3	0.00e+00	92	28	0	122683392	54	5950
2026-01-13 12:24:01.28	29.77	6.13	-40.2	-41.6	20.1	0.00e+00	0	27	0	124780544	54	6139
2026-01-13 12:24:02.29	29.88	6.18	-40.1	-41.4	20.3	0.00e+00	0	28	0	126877696	54	6009
2026-01-13 12:24:03.30	29.99	6.24	-40.0	-41.3	20.4	0.00e+00	0	28	0	128974848	54	5919
2026-01-13 12:24:04.30	30.10	6.29	-39.8	-41.0	20.7	0.00e+00	0	28	0	131072000	52	6455
2026-01-13 12:24:05.31	30.21	6.35	-39.6	-40.9	20.9	0.00e+00	53	28	0	133169152	52	6327
2026-01-13 12:24:06.32	30.32	6.40	-39.7	-40.9	20.8	0.00e+00	0	28	0	134217728	52	6370
2026-01-13 12:24:07.33	30.44	6.45	-39.6	-40.8	20.9	0.00e+00	92	28	0	136314880	52	6303
2026-01-13 12:24:08.34	30.55	6.51	-39.6	-40.8	20.9	0.00e+00	69	28	0	138412032	52	6262
2026-01-13 12:24:09.35	30.66	6.56	-39.6	-40.8	20.9	0.00e+00	66	28	0	140509184	52	6263
2026-01-13 12:24:10.36	30.77	6.62	-39.6	-40.8	20.6	0.00e+00	0	28	0	142606336	52	6280
2026-01-13 12:24:11.37	30.89	6.67	-39.5	-40.7	20.3	0.00e+00	0	28	0	143654912	52	6231
2026-01-13 12:24:12.38	31.00	6.72	-39.7	-40.9	20.8	0.00e+00	0	28	0	145752064	52	6352
2026-01-13 12:24:13.39	31.12	6.78	-39.5	-40.7	20.9	0.00e+00	63	28	0	147849216	52	6185
2026-01-13 12:24:14.40	31.23	6.83	-39.5	-40.8	21.0	0.00e+00	92	28	0	149946368	52	6248
2026-01-13 12:24:15.40	31.35	6.89	-39.5	-40.7	21.0	0.00e+00	12	28	0	152043520	52	6219
2026-01-13 12:24:16.41	31.46	6.94	-39.5	-40.7	21.1	0.00e+00	91	28	0	153092096	52	6182
2026-01-13 12:24:17.42	31.58	6.99	-39.4	-40.6	21.2	0.00e+00	6	28	0	155189248	52	6153
2026-01-13 12:24:18.43	31.69	7.05	-39.4	-40.6	21.2	0.00e+00	6	28	0	157286400	52	6143
2026-01-13 12:24:19.44	31.81	7.10	-39.5	-40.7	21.1	0.00e+00	0	28	0	159383552	52	6210
2026-01-13 12:24:20.45	31.93	7.16	-39.6	-40.8	21.0	0.00e+00	7	28	0	161480704	52	6270
2026-01-13 12:24:21.46	32.05	7.21	-39.7	-40.9	20.8	0.00e+00	92	28	0	162529280	52	6370
2026-01-13 12:24:22.47	32.17	7.27	-39.6	-40.9	20.9	0.00e+00	0	28	0	164626432	52	6322
2026-01-13 12:24:23.47	32.28	7.32	-39.7	-41.0	20.8	0.00e+00	92	28	0	166723584	52	6410
2026-01-13 12:24:24.48	32.40	7.37	-39.5	-40.7	21.1	0.00e+00	0	28	0	168820736	52	6217
2026-01-13 12:24:25.49	32.52	7.43	-39.3	-40.5	21.3	0.00e+00	6	28	0	170917888	52	6061
2026-01-13 12:24:26.50	32.64	7.48	-39.4	-40.6	21.2	0.00e+00	69	28	0	171966464	52	6157
2026-01-13 12:24:27.50	32.76	7.54	-39.5	-40.7	21.1	0.00e+00	0	28	0	174063616	52	6177
2026-01-13 12:24:28.51	32.88	7.59	-39.4	-40.6	21.2	0.00e+00	18	28	0	176160768	52	6153
2026-01-13 12:24:29.52	33.00	7.64	-39.3	-40.4	21.4	0.00e+00	65	28	0	178257920	52	6006
2026-01-13 12:24:30.52	33.12	7.70	-39.4	-40.6	21.3	0.00e+00	92	28	0	180355072	52	6148
2026-01-13 12:24:31.54	33.25	7.75	-39.3	-40.4	21.4	0.00e+00	69	28	0	181403648	52	6025
2026-01-13 12:24:32.55	33.37	7.81	-39.0	-40.2	21.6	0.00e+00	17	28	0	183500800	52	5836
2026-01-13 12:24:33.56	33.49	7.86	-39.2	-40.3	21.6	0.00e+00	5	28	0	185597952	52	5933
2026-01-13 12:24:34.56	33.61	7.92	-39.0	-40.1	21.6	0.00e+00	69	28	0	187695104	52	5813
2026-01-13 12:24:35.57	33.74	7.97	-39.1	-40.2	21.5	0.00e+00	0	28	0	189792256	52	5836
2026-01-13 12:24:36.58	33.86	8.02	-39.1	-40.2	21.6	0.00e+00	26	28	0	190840832	52	5876
2026-01-13 12:24:37.59	33.99	8.08	-39.0	-40.1	21.7	0.00e+00	92	28	0	192937984	52	5800
2026-01-13 12:24:38.60	34.11	8.13	-39.1	-40.2	21.6	0.00e+00	6	28	0	195035136	52	5879
2026-01-13 12:24:39.61	34.24	8.19	-39.1	-40.2	21.7	0.00e+00	91	28	0	197132288	52	5839
2026-01-13 12:24:40.62	34.36	8.24	-39.0	-40.1	21.7	0.00e+00	6	28	0	199229440	52	5810
2026-01-13 12:24:41.63	34.49	8.30	-39.1	-40.2	21.6	0.00e+00	0	28	0	200278016	52	5890
2026-01-13 12:24:42.64	34.62	8.35	-39.2	-40.3	21.6	0.00e+00	5	28	0	202375168	52	5912
2026-01-13 12:24:43.65	34.75	8.41	-39.2	-40.3	21.6	0.00e+00	0	28	0	204472320	52	5914
2026-01-13 12:24:44.66	34.87	8.46	-39.1	-40.2	21.7	0.00e+00	92	28	0	206569472	52	5839
2026-01-13 12:24:45.67	35.00	8.51	-39.1	-40.2	21.7	0.00e+00	0	28	0	208666624	52	5867
2026-01-13 12:24:46.68	35.13	8.57	-39.2	-40.3	21.6	0.00e+00	92	28	0	209715200	52	5931
2026-01-13 12:24:47.69	35.26	8.62	-39.1	-40.2	21.6	0.00e+00	0	28	0	211812352	52	5880
2026-01-13 12:24:48.69	35.39	8.68	-39.2	-40.3	21.5	0.00e+00	77	28	0	213909504	52	5955
2026-01-13 12:24:49.70	35.52	8.73	-39.3	-40.4	21.5	0.00e+00	0	28	0	216006656	52	6011
2026-01-13 12:24:50.71	35.65	8.79	-39.3	-40.4	21.5	0.00e+00	0	28	0	218103808	52	5995
2026-01-13 12:24:51.72	35.78	8.84	-39.3	-40.4	21.3	0.00e+00	69	28	0	219152384	52	5992
2026-01-13 12:24:52.73	35.91	8.89	-39.5	-40.7	21.3	0.00e+00	0	28	0	221249536	52	6194
2026-01-13 12:24:53.74	36.04	8.95	-39.4	-40.5	21.3	0.00e+00	92	28	0	223346688	52	6082
2026-01-13 12:24:54.75	36.18	9.00	-39.5	-40.7	21.2	0.00e+00	19	28	0	225443840	52	6197
2026-01-13 12:24:55.76	36.31	9.06	-39.2	-40.3	21.6	0.00e+00	59	28	0	227540992	52	5913
2026-01-13 12:24:56.77	36.44	9.11	-39.2	-40.3	21.6	0.00e+00	12	28	0	229638144	52	5959
2026-01-13 12:24:57.78	36.58	9.17	-39.1	-40.2	21.7	0.00e+00	13	28	0	230686720	52	5841
2026-01-13 12:24:58.78	36.71	9.22	-39.0	-40.1	21.8	0.00e+00	28	28	0	232783872	52	5772
2026-01-13 12:24:59.80	36.85	9.27	-38.9	-40.0	22.0	0.00e+00	68	28	0	234881024	52	5700
2026-01-13 12:25:00.80	36.98	9.33	-39.0	-40.1	21.9	0.00e+00	92	28	0	236978176	52	5768
2026-01-13 12:25:01.81	37.12	9.38	-39.0	-40.1	21.8	0.00e+00	17	28	0	239075328	52	5792
2026-01-13 12:25:02.82	37.25	9.44	-38.9	-40.0	21.9	0.00e+00	92	28	0	240123904	52	5739
2026-01-13 12:25:03.83	37.39	9.49	-38.9	-40.0	22.0	0.00e+00	11	28	0	242221056	52	5719
2026-01-13 12:25:04.84	37.53	9.55	-38.9	-39.9	22.0	0.00e+00	10	28	0	244318208	52	5682
2026-01-13 12:25:05.85	37.67	9.60	-38.7	-39.7	22.2	0.00e+00	0	28	0	246415360	50	6240
2026-01-13 12:25:06.86	37.81	9.65	-38.7	-39.8	22.0	0.00e+00	0	28	0	248512512	50	6283
2026-01-13 12:25:07.87	37.94	9.71	-38.7	-39.7	22.1	0.00e+00	91	28	0	249561088	50	6231
2026-01-13 12:25:08.88	38.08	9.76	-38.6	-39.6	22.2	0.00e+00	0	28	0	251658240	50	6131
2026-01-13 12:25:09.89	38.22	9.82	-38.5	-39.5	22.3	0.00e+00	91	28	0	253755392	50	6068
2026-01-13 12:25:10.90	38.36	9.87	-38.5	-39.5	22.5	0.00e+00	0	28	0	255852544	50	6054
2026-01-13 12:25:11.90	38.50	9.92	-38.5	-39.5	22.4	0.00e+00	0	28	0	257949696	50	6098
2026-01-13 12:25:12.91	38.64	9.98	-38.3	-39.3	22.6	0.00e+00	69	28	0	258998272	50	5929
2026-01-13 12:25:13.92	38.79	10.03	-38.3	-39.3	22.6	0.00e+00	70	28	0	261095424	50	5926
2026-01-13 12:25:14.93	38.93	10.09	-38.4	-39.4	22.4	0.00e+00	0	28	0	263192576	50	5988
2026-01-13 12:25:15.94	39.07	10.14	-38.1	-39.1	22.8	0.00e+00	66	28	0	265289728	50	5800
2026-01-13 12:25:16.95	39.22	10.19	-38.0	-38.9	22.9	0.00e+00	92	28	0	267386880	50	5684
2026-01-13 12:25:17.96	39.36	10.25	-38.1	-39.1	22.8	0.00e+00	71	28	0	268435456	50	5771
2026-01-13 12:25:18.97	39.50	10.30	-37.9	-38.9	23.0	0.00e+00	92	28	0	270532608	50	5632
2026-01-13 12:25:19.98	39.65	10.35	-37.9	-38.9	22.9	0.00e+00	10	28	0	272629760	50	5651
2026-01-13 12:25:20.99	39.79	10.41	-37.9	-38.9	23.0	0.00e+00	12	28	0	274726912	50	5643
2026-01-13 12:25:21.99	39.94	10.46	-38.1	-39.0	22.9	0.00e+00	68	28	0	276824064	50	5752
2026-01-13 12:25:23.00	40.09	10.51	-37.8	-38.8	23.2	0.00e+00	0	28	0	277872640	50	5567
2026-01-13 12:25:24.01	40.23	10.57	-37.9	-38.9	23.0	0.00e+00	91	28	0	279969792	50	5637
2026-01-13 12:25:25.02	40.38	10.62	-37.9	-38.8	23.0	0.00e+00	11	28	0	282066944	50	5624
2026-01-13 12:25:26.03	40.53	10.68	-37.9	-38.9	22.9	0.00e+00	92	28	0	284164096	50	5663
2026-01-13 12:25:27.04	40.68	10.73	-37.7	-38.6	23.2	0.00e+00	11	28	0	286261248	48	6160
2026-01-13 12:25:28.05	40.83	10.78	-37.7	-38.6	23.2	0.00e+00	0	28	0	287309824	48	6159
2026-01-13 12:25:29.06	40.98	10.84	-37.8	-38.8	23.2	0.00e+00	3	28	0	289406976	48	6263
2026-01-13 12:25:30.07	41.13	10.89	-37.7	-38.7	23.0	0.00e+00	0	28	0	291504128	48	6200
2026-01-13 12:25:31.08	41.28	10.94	-37.6	-38.6	23.2	0.00e+00	69	28	0	293601280	48	6118
2026-01-13 12:25:32.09	41.43	10.99	-37.8	-38.7	22.9	0.00e+00	0	28	0	295698432	48	6237
2026-01-13 12:25:33.10	41.58	11.05	-37.8	-38.7	23.1	0.00e+00	92	28	0	297795584	48	6241
2026-01-13 12:25:34.11	41.73	11.10	-37.8	-38.7	23.1	0.00e+00	71	28	0	298844160	48	6231
2026-01-13 12:25:35.12	41.88	11.15	-37.9	-38.8	23.1	0.00e+00	70	28	0	300941312	48	6284
2026-01-13 12:25:36.13	42.04	11.21	-38.0	-38.9	23.0	0.00e+00	0	28	0	303038464	48	6357
2026-01-13 12:25:37.14	42.19	11.26	-37.9	-38.8	23.0	0.00e+00	69	28	0	305135616	48	6298
2026-01-13 12:25:38.15	42.35	11.31	-37.9	-38.8	23.1	0.00e+00	0	28	0	306184192	48	6306
2026-01-13 12:25:39.15	42.50	11.36	-37.9	-38.8	23.0	0.00e+00	0	28	0	308281344	48	6316
2026-01-13 12:25:40.16	42.66	11.42	-37.7	-38.7	23.2	0.00e+00	92	28	0	310378496	48	6203
2026-01-13 12:25:41.17	42.81	11.47	-37.8	-38.7	23.2	0.00e+00	71	28	0	312475648	48	6239
2026-01-13 12:25:42.18	42.97	11.52	-37.6	-38.5	23.3	0.00e+00	90	28	0	314572800	48	6096
2026-01-13 12:25:43.19	43.13	11.57	-37.6	-38.5	23.3	0.00e+00	11	28	0	315621376	48	6075
2026-01-13 12:25:44.20	43.28	11.63	-37.8	-38.7	23.1	0.00e+00	10	28	0	317718528	48	6235
2026-01-13 12:25:45.21	43.44	11.68	-37.8	-38.7	23.2	0.00e+00	13	28	0	319815680	48	6226
2026-01-13 12:25:46.22	43.60	11.73	-37.9	-38.9	23.0	0.00e+00	2	28	0	321912832	48	6334
2026-01-13 12:25:47.23	43.76	11.78	-37.8	-38.8	23.2	0.00e+00	92	28	0	324009984	48	6247
2026-01-13 12:25:48.24	43.92	11.83	-37.9	-38.9	23.1	0.00e+00	10	28	0	326107136	48	6343
2026-01-13 12:25:49.25	44.08	11.89	-37.9	-38.8	23.1	0.00e+00	92	28	0	327155712	48	6298
2026-01-13 12:25:50.25	44.24	11.94	-37.9	-38.8	23.1	0.00e+00	0	28	0	329252864	48	6291
2026-01-13 12:25:51.26	44.40	11.99	-37.9	-38.9	23.0	0.00e+00	2	28	0	331350016	48	6332
2026-01-13 12:25:52.27	44.56	12.04	-37.7	-38.7	23.1	0.00e+00	0	28	0	333447168	48	6177
2026-01-13 12:25:53.28	44.73	12.09	-37.8	-38.7	23.2	0.00e+00	2	28	0	335544320	48	6204
2026-01-13 12:25:54.29	44.89	12.14	-37.7	-38.6	23.3	0.00e+00	0	28	0	336592896	48	6157
2026-01-13 12:25:55.30	45.05	12.20	-37.7	-38.7	23.3	0.00e+00	0	28	0	338690048	48	6188
2026-01-13 12:25:56.31	45.22	12.25	-37.6	-38.6	23.3	0.00e+00	92	28	0	340787200	48	6112
2026-01-13 12:25:57.32	45.38	12.30	-37.7	-38.6	23.3	0.00e+00	65	28	0	342884352	48	6135
2026-01-13 12:25:58.33	45.55	12.35	-37.7	-38.7	23.3	0.00e+00	0	28	0	344981504	48	6194
2026-01-13 12:25:59.34	45.71	12.40	-37.8	-38.8	23.2	0.00e+00	70	28	0	346030080	48	6255
2026-01-13 12:26:00.35	45.88	12.45	-37.9	-38.8	23.1	0.00e+00	11	28	0	348127232	48	6284
2026-01-13 12:26:01.36	46.05	12.50	-37.9	-38.9	23.1	0.00e+00	0	28	0	350224384	48	6323
2026-01-13 12:26:02.37	46.21	12.55	-37.9	-38.8	23.1	0.00e+00	0	28	0	352321536	48	6314
2026-01-13 12:26:03.38	46.38	12.60	-38.0	-39.0	23.0	0.00e+00	92	28	0	354418688	48	6397
2026-01-13 12:26:04.39	46.55	12.65	-38.1	-39.0	23.0	0.00e+00	69	28	0	355467264	48	6438
2026-01-13 12:26:05.40	46.72	12.70	-38.0	-38.9	23.0	0.00e+00	92	28	0	357564416	48	6386
2026-01-13 12:26:06.40	46.89	12.75	-38.1	-39.0	23.0	0.00e+00	12	28	0	359661568	48	6440
2026-01-13 12:26:07.41	47.06	12.80	-38.1	-39.1	22.9	0.00e+00	6	28	0	361758720	48	6508
2026-01-13 12:26:08.42	47.23	12.85	-38.1	-39.0	22.9	0.00e+00	0	28	0	363855872	48	6451
2026-01-13 12:26:09.43	47.40	12.90	-38.1	-39.1	22.9	0.00e+00	6	28	0	364904448	48	6467
2026-01-13 12:26:10.44	47.57	12.95	-38.1	-39.0	22.9	0.00e+00	91	28	0	367001600	48	6457
2026-01-13 12:26:11.45	47.75	13.00	-38.2	-39.2	22.8	0.00e+00	0	28	0	369098752	48	6585
2026-01-13 12:26:12.46	47.92	13.05	-38.4	-39.4	22.6	0.00e+00	90	28	0	371195904	48	6700
2026-01-13 12:26:13.47	48.09	13.10	-38.4	-39.5	22.6	0.00e+00	5	28	0	373293056	48	6771
2026-01-13 12:26:14.48	48.27	13.15	-38.5	-39.5	22.5	0.00e+00	0	28	0	374341632	48	6844
2026-01-13 12:26:15.49	48.44	13.20	-38.5	-39.6	22.5	0.00e+00	0	28	0	376438784	48	6860
2026-01-13 12:26:16.50	48.62	13.25	-38.6	-39.6	22.4	0.00e+00	0	28	0	378535936	48	6921
2026-01-13 12:26:17.51	48.79	13.29	-38.6	-39.7	22.4	0.00e+00	61	28	0	380633088	48	6930
2026-01-13 12:26:18.52	48.97	13.34	-38.7	-39.8	22.3	0.00e+00	0	28	0	382730240	48	7019
2026-01-13 12:26:19.52	49.15	13.39	-38.8	-39.8	22.3	0.00e+00	92	28	0	383778816	50	6287
2026-01-13 12:26:20.53	49.32	13.44	-38.9	-40.0	22.1	0.00e+00	0	28	0	385875968	50	6426
2026-01-13 12:26:21.54	49.50	13.49	-39.1	-40.2	22.0	0.00e+00	85	28	0	387973120	50	6556
2026-01-13 12:26:22.55	49.68	13.53	-39.1	-40.2	21.8	0.00e+00	21	28	0	390070272	50	6586
2026-01-13 12:26:23.56	49.86	13.58	-39.2	-40.3	21.8	0.00e+00	21	28	0	392167424	50	6631
2026-01-13 12:26:24.57	50.04	13.63	-39.2	-40.3	21.8	0.00e+00	58	28	0	394264576	50	6680
2026-01-13 12:26:25.58	50.22	13.68	-39.4	-40.6	21.6	0.00e+00	5	28	0	395313152	50	6863
2026-01-13 12:26:26.59	50.40	13.72	-39.4	-40.5	21.6	0.00e+00	92	28	0	397410304	50	6818
2026-01-13 12:26:27.60	50.58	13.77	-39.4	-40.6	21.2	0.00e+00	21	28	0	399507456	50	6860
2026-01-13 12:26:28.60	50.76	13.82	-39.5	-40.6	21.4	0.00e+00	92	28	0	401604608	50	6920
2026-01-13 12:26:29.61	50.95	13.86	-39.6	-40.7	21.4	0.00e+00	16	28	0	403701760	50	7004
2026-01-13 12:26:30.62	51.13	13.91	-39.7	-40.8	21.4	0.00e+00	6	28	0	404750336	50	7068
2026-01-13 12:26:31.63	51.31	13.96	-39.5	-40.6	21.6	0.00e+00	15	28	0	406847488	50	6900
2026-01-13 12:26:32.64	51.50	14.00	-39.6	-40.8	21.5	0.00e+00	6	28	0	408944640	50	7010
2026-01-13 12:26:33.65	51.68	14.05	-39.5	-40.7	21.4	0.00e+00	92	28	0	411041792	50	6940
2026-01-13 12:26:34.66	51.87	14.10	-39.6	-40.8	21.4	0.00e+00	4	28	0	413138944	50	7024
2026-01-13 12:26:35.67	52.05	14.14	-39.7	-40.8	21.4	0.00e+00	92	28	0	414187520	50	7076
2026-01-13 12:26:36.68	52.24	14.19	-39.7	-40.8	21.4	0.00e+00	0	28	0	416284672	50	7062
2026-01-13 12:26:37.69	52.43	14.23	-40.0	-41.2	21.0	0.00e+00	6	28	0	418381824	52	6579
2026-01-13 12:26:38.70	52.62	14.28	-40.0	-41.2	21.0	0.00e+00	0	28	0	420478976	52	6589
2026-01-13 12:26:39.71	52.81	14.32	-40.1	-41.4	20.9	0.00e+00	71	28	0	422576128	52	6695
2026-01-13 12:26:40.72	52.99	14.37	-40.2	-41.4	20.8	0.00e+00	72	28	0	423624704	52	6727
2026-01-13 12:26:41.73	53.18	14.41	-40.2	-41.4	20.9	0.00e+00	64	28	0	425721856	52	6719
2026-01-13 12:26:42.73	53.37	14.45	-40.1	-41.3	20.9	0.00e+00	92	28	0	427819008	52	6660
2026-01-13 12:26:43.74	53.56	14.50	-40.1	-41.3	20.8	0.00e+00	0	28	0	429916160	52	6681
2026-01-13 12:26:44.75	53.75	14.54	-40.3	-41.5	20.8	0.00e+00	91	28	0	432013312	52	6807
2026-01-13 12:26:45.76	53.94	14.59	-40.3	-41.5	20.8	0.00e+00	71	28	0	433061888	52	6810
2026-01-13 12:26:46.77	54.14	14.63	-40.3	-41.5	20.8	0.00e+00	12	28	0	435159040	52	6817
2026-01-13 12:26:47.78	54.33	14.67	-40.1	-41.3	21.0	0.00e+00	0	28	0	437256192	52	6639
2026-01-13 12:26:48.79	54.52	14.71	-40.1	-41.3	21.0	0.00e+00	10	28	0	439353344	52	6651
2026-01-13 12:26:49.80	54.72	14.76	-40.2	-41.5	20.8	0.00e+00	92	28	0	441450496	52	6787
2026-01-13 12:26:50.81	54.91	14.80	-40.3	-41.6	20.7	0.00e+00	17	28	0	442499072	52	6882
2026-01-13 12:26:51.82	55.11	14.84	-40.3	-41.6	20.7	0.00e+00	92	28	0	444596224	52	6891
2026-01-13 12:26:52.83	55.30	14.88	-40.3	-41.6	20.8	0.00e+00	0	28	0	446693376	52	6852
2026-01-13 12:26:53.84	55.50	14.93	-40.3	-41.6	20.8	0.00e+00	14	28	0	448790528	52	6856
2026-01-13 12:26:54.85	55.69	14.97	-40.5	-41.8	20.6	0.00e+00	0	28	0	450887680	52	7057
2026-01-13 12:26:55.85	55.89	15.01	-40.2	-41.4	20.9	0.00e+00	0	28	0	451936256	52	6758
2026-01-13 12:26:56.86	56.09	15.05	-40.3	-41.5	20.8	0.00e+00	90	28	0	454033408	52	6812
2026-01-13 12:26:57.87	56.29	15.09	-40.1	-41.2	20.9	0.00e+00	0	28	0	456130560	52	6611
2026-01-13 12:26:58.88	56.48	15.13	-39.8	-41.0	21.3	0.00e+00	91	28	0	458227712	52	6442
2026-01-13 12:26:59.89	56.68	15.17	-39.8	-41.0	21.3	0.00e+00	0	28	0	460324864	52	6420
2026-01-13 12:27:00.90	56.88	15.21	-39.8	-41.0	21.2	0.00e+00	72	28	0	462422016	52	6394
2026-01-13 12:27:01.91	57.08	15.25	-39.5	-40.6	21.7	0.00e+00	0	28	0	463470592	52	6125
2026-01-13 12:27:02.92	57.28	15.29	-39.3	-40.4	21.8	0.00e+00	0	28	0	465567744	52	5994
2026-01-13 12:27:03.93	57.49	15.33	-39.2	-40.3	21.9	0.00e+00	2	28	0	467664896	52	5908
2026-01-13 12:27:04.94	57.69	15.37	-39.1	-40.2	22.0	0.00e+00	0	28	0	469762048	52	5864
2026-01-13 12:27:05.95	57.89	15.41	-39.2	-40.3	21.9	0.00e+00	92	28	0	471859200	52	5897
2026-01-13 12:27:06.96	58.09	15.45	-39.1	-40.2	22.0	0.00e+00	5	28	0	472907776	52	5865
2026-01-13 12:27:07.97	58.30	15.48	-39.1	-40.2	22.1	0.00e+00	89	28	0	475004928	52	5848
2026-01-13 12:27:08.98	58.50	15.52	-39.0	-40.0	22.2	0.00e+00	71	28	0	477102080	52	5731
2026-01-13 12:27:09.99	58.70	15.56	-38.9	-39.9	22.3	0.00e+00	8	28	0	479199232	52	5663
2026-01-13 12:27:11.00	58.91	15.60	-38.8	-39.9	22.3	0.00e+00	60	28	0	480247808	52	5649
2026-01-13 12:27:12.01	59.11	15.63	-38.6	-39.6	22.4	0.00e+00	0	28	0	482344960	50	6130
2026-01-13 12:27:13.02	59.32	15.67	-38.5	-39.5	22.6	0.00e+00	92	28	0	484442112	50	6068
2026-01-13 12:27:14.02	59.52	15.71	-38.3	-39.2	22.7	0.00e+00	12	28	0	486539264	50	5886
2026-01-13 12:27:15.03	59.73	15.74	-38.3	-39.3	22.7	0.00e+00	92	28	0	488636416	50	5936
2026-01-13 12:27:16.04	59.94	15.78	-38.0	-39.0	23.2	0.00e+00	12	28	0	490733568	50	5697
2026-01-13 12:27:17.05	60.15	15.81	-37.9	-38.8	23.2	0.00e+00	0	28	0	491782144	50	5617
2026-01-13 12:27:18.06	60.35	15.85	-37.9	-38.9	23.3	0.00e+00	0	28	0	493879296	50	5644
2026-01-13 12:27:19.07	60.56	15.88	-38.0	-38.9	23.2	0.00e+00	0	28	0	495976448	50	5657
2026-01-13 12:27:20.08	60.77	15.92	-37.9	-38.8	23.3	0.00e+00	90	28	0	498073600	50	5616
2026-01-13 12:27:21.09	60.98	15.95	-37.9	-38.9	23.1	0.00e+00	0	28	0	500170752	50	5633
2026-01-13 12:27:22.10	61.19	15.99	-38.0	-38.9	23.0	0.00e+00	92	28	0	501219328	50	5694
2026-01-13 12:27:23.11	61.40	16.02	-38.2	-39.2	23.0	0.00e+00	0	28	0	503316480	50	5845
2026-01-13 12:27:24.11	61.61	16.05	-38.1	-39.0	23.1	0.00e+00	67	28	0	505413632	50	5730
2026-01-13 12:27:25.12	61.82	16.09	-38.2	-39.1	23.0	0.00e+00	0	28	0	507510784	50	5811
2026-01-13 12:27:26.13	62.04	16.12	-38.2	-39.2	22.9	0.00e+00	67	28	0	509607936	50	5846
2026-01-13 12:27:27.14	62.25	16.15	-38.2	-39.2	22.9	0.00e+00	0	28	0	510656512	50	5843
2026-01-13 12:27:28.15	62.46	16.18	-38.1	-39.1	23.0	0.00e+00	67	28	0	512753664	50	5768
2026-01-13 12:27:29.16	62.67	16.22	-38.3	-39.3	22.8	0.00e+00	92	28	0	514850816	50	5939
2026-01-13 12:27:30.17	62.89	16.25	-38.4	-39.4	22.6	0.00e+00	0	28	0	516947968	50	6013
2026-01-13 12:27:31.18	63.10	16.28	-38.5	-39.5	22.7	0.00e+00	0	28	0	519045120	50	6047
2026-01-13 12:27:32.19	63.32	16.31	-38.5	-39.5	22.7	0.00e+00	10	28	0	520093696	50	6056
2026-01-13 12:27:33.20	63.53	16.34	-38.4	-39.4	22.7	0.00e+00	11	28	0	522190848	50	5981
2026-01-13 12:27:34.21	63.75	16.37	-38.4	-39.4	22.7	0.00e+00	10	28	0	524288000	50	6011
2026-01-13 12:27:35.22	63.96	16.40	-38.5	-39.5	22.7	0.00e+00	0	28	0	526385152	50	6067
2026-01-13 12:27:36.23	64.18	16.43	-38.3	-39.3	22.8	0.00e+00	92	28	0	528482304	50	5931
2026-01-13 12:27:37.24	64.40	16.46	-38.5	-39.5	22.7	0.00e+00	11	28	0	529530880	50	6041
2026-01-13 12:27:38.25	64.61	16.49	-38.6	-39.7	22.5	0.00e+00	71	28	0	531628032	50	6181
2026-01-13 12:27:39.26	64.83	16.51	-38.6	-39.6	22.4	0.00e+00	0	28	0	533725184	50	6129
2026-01-13 12:27:40.27	65.05	16.54	-38.6	-39.6	22.4	0.00e+00	0	28	0	535822336	50	6146
2026-01-13 12:27:41.28	65.27	16.57	-38.7	-39.8	22.4	0.00e+00	0	28	0	537919488	50	6248
2026-01-13 12:27:42.29	65.49	16.60	-38.6	-39.6	22.5	0.00e+00	0	28	0	538968064	50	6144
2026-01-13 12:27:43.30	65.71	16.62	-38.6	-39.6	22.6	0.00e+00	90	28	0	541065216	50	6136
2026-01-13 12:27:44.31	65.93	16.65	-38.6	-39.7	22.5	0.00e+00	71	28	0	543162368	50	6188
2026-01-13 12:27:45.32	66.15	16.68	-38.7	-39.7	22.4	0.00e+00	92	28	0	545259520	50	6238
2026-01-13 12:27:46.33	66.37	16.70	-38.6	-39.6	22.5	0.00e+00	0	28	0	547356672	50	6171
2026-01-13 12:27:47.34	66.59	16.73	-38.7	-39.8	22.4	0.00e+00	2	28	0	548405248	50	6294
2026-01-13 12:27:48.35	66.81	16.75	-38.6	-39.7	22.4	0.00e+00	69	28	0	550502400	50	6201
2026-01-13 12:27:49.36	67.03	16.78	-38.7	-39.8	22.4	0.00e+00	11	28	0	552599552	50	6248
2026-01-13 12:27:50.37	67.25	16.80	-38.6	-39.6	22.5	0.00e+00	58	28	0	554696704	50	6148
2026-01-13 12:27:51.38	67.47	16.83	-38.7	-39.7	22.4	0.00e+00	65	28	0	556793856	50	6207
2026-01-13 12:27:52.39	67.69	16.85	-38.8	-39.8	22.3	0.00e+00	92	28	0	558891008	50	6307
2026-01-13 12:27:53.40	67.92	16.87	-38.6	-39.6	22.4	0.00e+00	5	28	0	559939584	50	6161
2026-01-13 12:27:54.41	68.14	16.89	-38.7	-39.7	22.5	0.00e+00	6	28	0	562036736	50	6221
2026-01-13 12:27:55.42	68.36	16.92	-38.6	-39.6	22.6	0.00e+00	0	28	0	564133888	50	6141
2026-01-13 12:27:56.43	68.59	16.94	-38.7	-39.7	22.5	0.00e+00	5	28	0	566231040	50	6199
2026-01-13 12:27:57.44	68.81	16.96	-38.6	-39.7	22.5	0.00e+00	20	28	0	568328192	50	6188
2026-01-13 12:27:58.45	69.04	16.98	-38.7	-39.7	22.5	0.00e+00	5	28	0	569376768	50	6221
2026-01-13 12:27:59.46	69.26	17.00	-38.7	-39.7	22.4	0.00e+00	92	28	0	571473920	50	6225
2026-01-13 12:28:00.47	69.49	17.02	-38.9	-39.9	22.3	0.00e+00	5	28	0	573571072	50	6360
2026-01-13 12:28:01.48	69.71	17.04	-38.8	-39.8	22.3	0.00e+00	92	28	0	575668224	50	6304
2026-01-13 12:28:02.49	69.94	17.06	-38.9	-39.9	22.3	0.00e+00	6	28	0	577765376	50	6360
2026-01-13 12:28:03.50	70.16	17.08	-38.7	-39.8	22.4	0.00e+00	5	28	0	578813952	50	6246
2026-01-13 12:28:04.50	70.39	17.10	-38.4	-39.4	22.6	0.00e+00	0	28	0	580911104	50	6012
2026-01-13 12:28:05.51	70.61	17.12	-38.4	-39.4	22.7	0.00e+00	0	28	0	583008256	50	5967
2026-01-13 12:28:06.52	70.84	17.14	-38.2	-39.2	22.9	0.00e+00	92	28	0	585105408	50	5874
2026-01-13 12:28:07.53	71.07	17.15	-38.2	-39.1	23.0	0.00e+00	62	28	0	587202560	50	5817
2026-01-13 12:28:08.54	71.29	17.17	-38.2	-39.2	22.8	0.00e+00	91	28	0	588251136	50	5851
2026-01-13 12:28:09.55	71.52	17.19	-38.2	-39.1	23.0	0.00e+00	0	28	0	590348288	50	5821
2026-01-13 12:28:10.56	71.75	17.20	-38.3	-39.3	22.9	0.00e+00	14	28	0	592445440	50	5904
2026-01-13 12:28:11.57	71.98	17.22	-38.4	-39.4	22.8	0.00e+00	18	28	0	594542592	50	5984
2026-01-13 12:28:12.58	72.21	17.23	-38.5	-39.5	22.6	0.00e+00	15	28	0	596639744	50	6103
2026-01-13 12:28:13.58	72.43	17.25	-38.6	-39.7	22.5	0.00e+00	0	28	0	597688320	50	6179
2026-01-13 12:28:14.59	72.66	17.26	-38.8	-39.8	22.3	0.00e+00	16	28	0	599785472	50	6288
2026-01-13 12:28:15.61	72.89	17.28	-38.9	-39.9	22.2	0.00e+00	92	28	0	601882624	50	6370
2026-01-13 12:28:16.61	73.12	17.29	-39.1	-40.2	21.9	0.00e+00	7	28	0	603979776	50	6552
2026-01-13 12:28:17.62	73.35	17.30	-39.3	-40.4	21.8	0.00e+00	90	28	0	606076928	50	6724
2026-01-13 12:28:18.63	73.58	17.32	-39.3	-40.4	21.8	0.00e+00	7	28	0	607125504	50	6718
2026-01-13 12:28:19.64	73.81	17.33	-39.3	-40.4	21.8	0.00e+00	7	28	0	609222656	50	6750
2026-01-13 12:28:20.65	74.04	17.34	-39.0	-40.1	22.2	0.00e+00	5	28	0	611319808	50	6488
2026-01-13 12:28:21.66	74.27	17.35	-38.9	-40.0	22.2	0.00e+00	6	28	0	613416960	50	6397
2026-01-13 12:28:22.67	74.50	17.36	-38.7	-39.8	22.4	0.00e+00	92	28	0	615514112	50	6266
2026-01-13 12:28:23.68	74.73	17.37	-38.4	-39.4	22.8	0.00e+00	0	28	0	616562688	50	6001
2026-01-13 12:28:24.69	74.96	17.38	-38.5	-39.5	22.6	0.00e+00	91	28	0	618659840	50	6077
2026-01-13 12:28:25.70	75.19	17.39	-38.4	-39.4	22.7	0.00e+00	65	28	0	620756992	50	5969
2026-01-13 12:28:26.71	75.42	17.40	-38.5	-39.4	22.6	0.00e+00	66	28	0	622854144	50	6027
2026-01-13 12:28:27.72	75.65	17.41	-38.5	-39.5	22.7	0.00e+00	0	28	0	624951296	50	6039
2026-01-13 12:28:28.73	75.88	17.42	-38.5	-39.6	22.6	0.00e+00	71	28	0	627048448	50	6114
2026-01-13 12:28:29.73	76.11	17.43	-38.6	-39.6	22.5	0.00e+00	82	28	0	628097024	50	6129
2026-01-13 12:28:30.74	76.34	17.44	-38.7	-39.8	22.3	0.00e+00	0	28	0	630194176	50	6287
2026-01-13 12:28:31.75	76.57	17.44	-38.9	-40.0	22.2	0.00e+00	92	28	0	632291328	50	6414
2026-01-13 12:28:32.76	76.81	17.45	-38.8	-39.9	22.3	0.00e+00	9	28	0	634388480	50	6340
2026-01-13 12:28:33.77	77.04	17.46	-38.8	-39.8	22.4	0.00e+00	9	28	0	636485632	50	6307
2026-01-13 12:28:34.78	77.27	17.46	-38.8	-39.8	22.4	0.00e+00	9	28	0	637534208	50	6288
2026-01-13 12:28:35.79	77.50	17.47	-38.7	-39.8	22.4	0.00e+00	11	28	0	639631360	50	6278
2026-01-13 12:28:36.80	77.73	17.47	-38.6	-39.7	22.5	0.00e+00	69	28	0	641728512	50	6184
2026-01-13 12:28:37.81	77.96	17.48	-38.6	-39.6	22.5	0.00e+00	0	28	0	643825664	50	6170
2026-01-13 12:28:38.82	78.20	17.48	-38.5	-39.5	22.6	0.00e+00	92	28	0	645922816	50	6050
2026-01-13 12:28:39.83	78.43	17.48	-38.5	-39.5	22.6	0.00e+00	12	28	0	646971392	50	6098
2026-01-13 12:28:40.84	78.66	17.49	-38.5	-39.5	22.6	0.00e+00	90	28	0	649068544	50	6056
2026-01-13 12:28:41.85	78.89	17.49	-38.4	-39.4	22.7	0.00e+00	0	28	0	651165696	50	6016
2026-01-13 12:28:42.86	79.13	17.49	-38.4	-39.4	22.8	0.00e+00	0	28	0	653262848	50	5988
2026-01-13 12:28:43.87	79.36	17.49	-38.4	-39.4	22.6	0.00e+00	0	28	0	655360000	50	6020
2026-01-13 12:28:44.88	79.59	17.49	-38.6	-39.6	22.6	0.00e+00	0	28	0	656408576	50	6114
2026-01-13 12:28:45.88	79.82	17.49	-38.6	-39.6	22.5	0.00e+00	92	28	0	658505728	50	6161
2026-01-13 12:28:46.89	80.05	17.49	-38.7	-39.7	22.5	0.00e+00	0	28	0	660602880	50	6209
2026-01-13 12:28:47.91	80.29	17.49	-38.8	-39.8	22.4	0.00e+00	92	28	0	662700032	50	6286
2026-01-13 12:28:48.91	80.52	17.49	-38.5	-39.5	22.6	0.00e+00	0	28	0	664797184	50	6088
2026-01-13 12:28:49.92	80.75	17.49	-38.6	-39.6	22.6	0.00e+00	71	28	0	665845760	50	6118
2026-01-13 12:28:50.93	80.98	17.49	-38.4	-39.4	22.8	0.00e+00	0	28	0	667942912	50	5968
2026-01-13 12:28:51.94	81.21	17.49	-38.5	-39.5	22.6	0.00e+00	65	28	0	670040064	50	6067
2026-01-13 12:28:52.95	81.45	17.49	-38.5	-39.5	22.6	0.00e+00	91	28	0	672137216	50	6054
2026-01-13 12:28:53.96	81.68	17.48	-38.6	-39.6	22.5	0.00e+00	15	28	0	674234368	50	6161
2026-01-13 12:28:54.97	81.91	17.48	-38.5	-39.5	22.6	0.00e+00	92	28	0	675282944	50	6071
2026-01-13 12:28:55.98	82.14	17.48	-38.6	-39.6	22.5	0.00e+00	65	28	0	677380096	50	6116
2026-01-13 12:28:56.99	82.38	17.47	-38.6	-39.6	22.6	0.00e+00	92	28	0	679477248	50	6108
2026-01-13 12:28:58.00	82.61	17.47	-38.6	-39.6	22.5	0.00e+00	0	28	0	681574400	50	6168
2026-01-13 12:28:59.01	82.84	17.46	-38.4	-39.4	22.7	0.00e+00	0	28	0	683671552	50	5979
2026-01-13 12:29:00.02	83.07	17.46	-38.5	-39.5	22.8	0.00e+00	36	28	0	684720128	50	6053
2026-01-13 12:29:01.03	83.30	17.45	-38.5	-39.5	22.7	0.00e+00	11	28	0	686817280	50	6084
2026-01-13 12:29:02.04	83.53	17.45	-38.4	-39.5	22.7	0.00e+00	90	28	0	688914432	50	6041
2026-01-13 12:29:03.05	83.77	17.44	-38.5	-39.6	22.6	0.00e+00	0	28	0	691011584	50	6151
2026-01-13 12:29:04.06	84.00	17.43	-38.6	-39.7	22.5	0.00e+00	56	28	0	693108736	50	6206
2026-01-13 12:29:05.07	84.23	17.42	-39.0	-40.1	22.1	0.00e+00	0	28	0	695205888	50	6500
2026-01-13 12:29:06.08	84.46	17.42	-38.6	-39.6	22.5	0.00e+00	2	28	0	696254464	50	6155
2026-01-13 12:29:07.09	84.69	17.41	-38.5	-39.5	22.6	0.00e+00	0	28	0	698351616	50	6074
2026-01-13 12:29:08.10	84.92	17.40	-38.3	-39.3	22.9	0.00e+00	0	28	0	700448768	50	5906
2026-01-13 12:29:09.11	85.15	17.39	-38.1	-39.1	23.0	0.00e+00	92	28	0	702545920	50	5782
2026-01-13 12:29:10.11	85.38	17.38	-38.1	-39.0	23.1	0.00e+00	72	28	0	704643072	50	5759
2026-01-13 12:29:11.12	85.61	17.37	-37.8	-38.8	23.3	0.00e+00	92	28	0	705691648	50	5582
2026-01-13 12:29:12.13	85.84	17.36	-37.8	-38.7	23.3	0.00e+00	0	28	0	707788800	48	6228
2026-01-13 12:29:13.14	86.07	17.35	-38.0	-38.9	23.2	0.00e+00	43	28	0	709885952	48	6351
2026-01-13 12:29:14.15	86.30	17.33	-38.0	-38.9	23.2	0.00e+00	0	28	0	711983104	48	6386
2026-01-13 12:29:15.16	86.53	17.32	-38.1	-39.0	23.1	0.00e+00	0	28	0	714080256	48	6440
2026-01-13 12:29:16.17	86.76	17.31	-38.1	-39.1	23.0	0.00e+00	70	28	0	715128832	48	6471
2026-01-13 12:29:17.18	86.99	17.30	-38.1	-39.1	22.9	0.00e+00	11	28	0	717225984	48	6492
2026-01-13 12:29:18.19	87.22	17.28	-38.1	-39.1	23.0	0.00e+00	92	28	0	719323136	48	6473
2026-01-13 12:29:19.20	87.45	17.27	-38.1	-39.0	23.1	0.00e+00	11	28	0	721420288	48	6446
2026-01-13 12:29:20.20	87.68	17.25	-38.0	-38.9	23.1	0.00e+00	92	28	0	723517440	48	6363
2026-01-13 12:29:21.21	87.91	17.24	-37.9	-38.8	23.2	0.00e+00	16	28	0	724566016	48	6300
2026-01-13 12:29:22.22	88.14	17.22	-37.9	-38.9	23.2	0.00e+00	2	28	0	726663168	48	6321
2026-01-13 12:29:23.23	88.36	17.21	-37.9	-38.8	23.2	0.00e+00	0	28	0	728760320	48	6293
2026-01-13 12:29:24.24	88.59	17.19	-37.9	-38.8	23.3	0.00e+00	15	28	0	730857472	48	6278
2026-01-13 12:29:25.24	88.82	17.18	-37.8	-38.7	23.3	0.00e+00	93	28	0	732954624	48	6194
2026-01-13 12:29:26.25	89.05	17.16	-37.6	-38.6	23.5	0.00e+00	0	28	0	734003200	48	6108
2026-01-13 12:29:27.26	89.27	17.14	-37.6	-38.6	23.4	0.00e+00	91	28	0	736100352	48	6111
2026-01-13 12:29:28.27	89.50	17.12	-37.6	-38.5	23.4	0.00e+00	0	28	0	738197504	48	6062
2026-01-13 12:29:29.28	89.73	17.11	-37.7	-38.6	23.4	0.00e+00	0	28	0	740294656	48	6161
2026-01-13 12:29:30.29	89.95	17.09	-37.7	-38.7	23.4	0.00e+00	0	28	0	742391808	48	6176
2026-01-13 12:29:31.30	90.18	17.07	-37.9	-38.8	23.3	0.00e+00	0	28	0	743440384	48	6307
2026-01-13 12:29:32.30	90.40	17.05	-37.7	-38.7	23.2	0.00e+00	92	28	0	745537536	48	6199
2026-01-13 12:29:33.32	90.63	17.03	-37.9	-38.8	23.3	0.00e+00	63	28	0	747634688	48	6294
2026-01-13 12:29:34.33	90.86	17.01	-37.8	-38.7	23.2	0.00e+00	92	28	0	749731840	48	6220
2026-01-13 12:29:35.33	91.08	16.99	-37.8	-38.8	23.3	0.00e+00	69	28	0	751828992	48	6263
2026-01-13 12:29:36.34	91.31	16.97	-37.7	-38.6	23.4	0.00e+00	70	28	0	752877568	48	6136
2026-01-13 12:29:37.35	91.53	16.95	-37.9	-38.9	23.1	0.00e+00	15	28	0	754974720	48	6340
2026-01-13 12:29:38.36	91.76	16.92	-37.5	-38.5	23.6	0.00e+00	0	28	0	757071872	48	6040
2026-01-13 12:29:39.37	91.98	16.90	-37.6	-38.5	23.4	0.00e+00	52	28	0	759169024	48	6092
2026-01-13 12:29:40.38	92.20	16.88	-37.7	-38.7	23.2	0.00e+00	12	28	0	761266176	48	6187
2026-01-13 12:29:41.39	92.43	16.86	-37.7	-38.6	23.4	0.00e+00	90	28	0	762314752	48	6143
2026-01-13 12:29:42.40	92.65	16.83	-37.8	-38.7	23.3	0.00e+00	6	28	0	764411904	48	6218
2026-01-13 12:29:43.41	92.87	16.81	-37.8	-38.7	23.3	0.00e+00	21	28	0	766509056	48	6228
2026-01-13 12:29:44.42	93.09	16.79	-37.7	-38.7	23.4	0.00e+00	5	28	0	768606208	48	6183
2026-01-13 12:29:45.43	93.32	16.76	-37.4	-38.3	23.6	0.00e+00	13	28	0	770703360	48	5935
2026-01-13 12:29:46.44	93.54	16.74	-37.2	-38.1	23.8	0.00e+00	0	28	0	771751936	48	5794
2026-01-13 12:29:47.45	93.76	16.71	-37.2	-38.1	23.8	0.00e+00	0	28	0	773849088	48	5820
2026-01-13 12:29:48.46	93.98	16.69	-37.1	-38.0	23.9	0.00e+00	91	28	0	775946240	48	5733
2026-01-13 12:29:49.47	94.20	16.66	-37.0	-37.9	24.0	0.00e+00	6	28	0	778043392	48	5669
2026-01-13 12:29:50.48	94.42	16.63	-36.9	-37.8	24.1	0.00e+00	91	28	0	780140544	48	5596
2026-01-13 12:29:51.49	94.64	16.61	-36.8	-37.6	24.3	0.00e+00	6	28	0	781189120	48	5476
2026-01-13 12:29:52.50	94.86	16.58	-36.8	-37.7	24.2	0.00e+00	0	28	0	783286272	46	6179
2026-01-13 12:29:53.50	95.08	16.55	-36.6	-37.5	24.3	0.00e+00	6	28	0	785383424	46	6052
2026-01-13 12:29:54.51	95.30	16.52	-36.6	-37.5	24.3	0.00e+00	63	28	0	787480576	46	6051
2026-01-13 12:29:55.52	95.51	16.50	-36.7	-37.5	24.3	0.00e+00	90	28	0	789577728	46	6082
2026-01-13 12:29:56.53	95.73	16.47	-36.8	-37.7	24.1	0.00e+00	0	28	0	791674880	46	6183
2026-01-13 12:29:57.54	95.95	16.44	-36.7	-37.6	24.2	0.00e+00	90	28	0	792723456	46	6121
2026-01-13 12:29:58.55	96.17	16.41	-36.9	-37.8	24.1	0.00e+00	18	28	0	794820608	46	6273
2026-01-13 12:29:59.56	96.38	16.38	-36.9	-37.8	24.1	0.00e+00	68	28	0	796917760	46	6262
2026-01-13 12:30:00.57	96.60	16.35	-37.0	-37.9	24.0	0.00e+00	69	28	0	799014912	46	6367
2026-01-13 12:30:01.58	96.82	16.32	-36.9	-37.8	24.1	0.00e+00	0	28	0	801112064	46	6290
2026-01-13 12:30:02.59	97.03	16.29	-36.9	-37.8	24.0	0.00e+00	0	28	0	802160640	46	6295
2026-01-13 12:30:03.60	97.25	16.26	-36.7	-37.6	24.3	0.00e+00	7	28	0	804257792	46	6125
2026-01-13 12:30:04.61	97.46	16.22	-36.7	-37.6	24.3	0.00e+00	90	28	0	806354944	46	6132
2026-01-13 12:30:05.61	97.67	16.19	-36.8	-37.7	24.2	0.00e+00	6	28	0	808452096	46	6178
2026-01-13 12:30:06.63	97.89	16.16	-36.5	-37.3	24.5	0.00e+00	90	28	0	810549248	46	5942
2026-01-13 12:30:07.63	98.10	16.13	-36.5	-37.3	24.6	0.00e+00	8	28	0	811597824	46	5928
2026-01-13 12:30:08.65	98.31	16.10	-36.3	-37.2	24.7	0.00e+00	7	28	0	813694976	46	5833
2026-01-13 12:30:09.65	98.52	16.06	-36.4	-37.2	24.5	0.00e+00	0	28	0	815792128	46	5881
2026-01-13 12:30:10.67	98.74	16.03	-36.4	-37.2	24.6	0.00e+00	7	28	0	817889280	46	5851
2026-01-13 12:30:11.67	98.95	16.00	-36.5	-37.3	24.4	0.00e+00	92	28	0	819986432	46	5945
2026-01-13 12:30:12.68	99.16	15.96	-36.7	-37.5	24.3	0.00e+00	0	28	0	821035008	46	6082
2026-01-13 12:30:13.69	99.37	15.93	-36.8	-37.7	24.1	0.00e+00	92	28	0	823132160	46	6216
2026-01-13 12:30:14.70	99.58	15.89	-37.1	-37.9	23.9	0.00e+00	68	28	0	825229312	46	6388
2026-01-13 12:30:15.71	99.79	15.86	-37.1	-37.9	24.0	0.00e+00	0	28	0	827326464	46	6389
2026-01-13 12:30:16.72	100.00	15.82	-37.2	-38.1	23.8	0.00e+00	0	28	0	829423616	46	6516
2026-01-13 12:30:17.73	100.21	15.79	-37.1	-38.0	23.9	0.00e+00	0	28	0	830472192	46	6436
2026-01-13 12:30:18.74	100.41	15.75	-37.3	-38.2	23.7	0.00e+00	33	28	0	832569344	46	6587
2026-01-13 12:30:19.74	100.62	15.72	-37.1	-38.0	23.8	0.00e+00	0	28	0	834666496	46	6440
2026-01-13 12:30:20.75	100.83	15.68	-37.0	-37.9	23.9	0.00e+00	90	28	0	836763648	46	6318
2026-01-13 12:30:21.76	101.03	15.64	-37.1	-37.9	23.9	0.00e+00	64	28	0	838860800	46	6388
2026-01-13 12:30:22.77	101.24	15.60	-37.0	-37.8	23.8	0.00e+00	63	28	0	839909376	46	6316
2026-01-13 12:30:23.78	101.45	15.57	-37.1	-38.0	23.6	0.00e+00	19	28	0	842006528	46	6417
2026-01-13 12:30:24.79	101.65	15.53	-37.1	-38.0	23.8	0.00e+00	63	28	0	844103680	46	6430
2026-01-13 12:30:25.80	101.86	15.49	-37.1	-38.0	23.9	0.00e+00	62	28	0	846200832	46	6409
2026-01-13 12:30:26.81	102.06	15.45	-37.0	-37.9	23.9	0.00e+00	16	28	0	848297984	46	6338
2026-01-13 12:30:27.82	102.26	15.42	-37.2	-38.0	23.8	0.00e+00	92	28	0	849346560	46	6461
2026-01-13 12:30:28.83	102.47	15.38	-37.1	-37.9	23.9	0.00e+00	17	28	0	851443712	46	6388
2026-01-13 12:30:29.84	102.67	15.34	-37.3	-38.2	23.7	0.00e+00	91	28	0	853540864	46	6591
2026-01-13 12:30:30.85	102.87	15.30	-37.6	-38.5	23.3	0.00e+00	0	28	0	855638016	46	6827
2026-01-13 12:30:31.86	103.07	15.26	-37.8	-38.8	23.1	0.00e+00	2	28	0	857735168	48	6287
2026-01-13 12:30:32.87	103.27	15.22	-38.0	-39.1	22.8	0.00e+00	0	28	0	859832320	48	6482
2026-01-13 12:30:33.88	103.48	15.18	-38.3	-39.4	22.3	0.00e+00	0	28	0	860880896	48	6695
2026-01-13 12:30:34.89	103.68	15.14	-38.5	-39.6	22.4	0.00e+00	92	28	0	862978048	48	6876
2026-01-13 12:30:35.90	103.87	15.10	-38.6	-39.7	22.3	0.00e+00	0	28	0	865075200	48	6966
2026-01-13 12:30:36.91	104.07	15.06	-38.8	-39.9	22.1	0.00e+00	92	28	0	867172352	50	6337
2026-01-13 12:30:37.91	104.27	15.02	-38.8	-39.9	22.1	0.00e+00	70	28	0	869269504	50	6318
2026-01-13 12:30:38.92	104.47	14.97	-39.0	-40.1	22.0	0.00e+00	0	28	0	870318080	50	6491
2026-01-13 12:30:39.93	104.67	14.93	-39.0	-40.1	22.0	0.00e+00	68	28	0	872415232	50	6475
2026-01-13 12:30:40.94	104.86	14.89	-38.9	-40.0	22.1	0.00e+00	69	28	0	874512384	50	6398
2026-01-13 12:30:41.95	105.06	14.85	-39.0	-40.1	21.9	0.00e+00	92	28	0	876609536	50	6503
2026-01-13 12:30:42.96	105.25	14.81	-39.1	-40.2	21.9	0.00e+00	0	28	0	878706688	50	6590
2026-01-13 12:30:43.97	105.45	14.76	-38.8	-39.8	22.3	0.00e+00	92	28	0	879755264	50	6307
2026-01-13 12:30:44.98	105.64	14.72	-38.7	-39.8	22.3	0.00e+00	69	28	0	881852416	50	6264
2026-01-13 12:30:45.99	105.84	14.68	-38.6	-39.6	22.4	0.00e+00	92	28	0	883949568	50	6171
2026-01-13 12:30:47.00	106.03	14.63	-38.4	-39.5	22.6	0.00e+00	2	28	0	886046720	50	6052
2026-01-13 12:30:48.01	106.23	14.59	-38.5	-39.6	22.6	0.00e+00	0	28	0	888143872	50	6107
2026-01-13 12:30:49.02	106.42	14.55	-38.5	-39.6	22.4	0.00e+00	78	28	0	889192448	50	6129
2026-01-13 12:30:50.03	106.61	14.50	-38.6	-39.8	22.3	0.00e+00	2	28	0	891289600	50	6266
2026-01-13 12:30:51.04	106.80	14.46	-38.6	-39.7	22.3	0.00e+00	92	28	0	893386752	50	6224
2026-01-13 12:30:52.05	106.99	14.41	-38.7	-39.9	22.3	0.00e+00	0	28	0	895483904	50	6322
2026-01-13 12:30:53.06	107.18	14.37	-38.9	-40.0	22.0	0.00e+00	90	28	0	897581056	50	6459
2026-01-13 12:30:54.07	107.37	14.32	-39.0	-40.1	22.0	0.00e+00	0	28	0	898629632	50	6509
2026-01-13 12:30:55.08	107.56	14.28	-39.0	-40.1	22.0	0.00e+00	0	28	0	900726784	50	6503
2026-01-13 12:30:56.09	107.75	14.23	-39.1	-40.2	21.9	0.00e+00	0	28	0	902823936	50	6612
2026-01-13 12:30:57.10	107.94	14.19	-39.1	-40.2	21.9	0.00e+00	0	28	0	904921088	50	6562
2026-01-13 12:30:58.11	108.13	14.14	-39.3	-40.5	21.6	0.00e+00	92	28	0	907018240	50	6784
2026-01-13 12:30:59.12	108.31	14.10	-39.4	-40.5	21.6	0.00e+00	0	28	0	908066816	50	6825
2026-01-13 12:31:00.13	108.50	14.05	-39.5	-40.6	21.4	0.00e+00	92	28	0	910163968	50	6896
2026-01-13 12:31:01.14	108.69	14.01	-39.4	-40.5	21.6	0.00e+00	0	28	0	912261120	50	6805
2026-01-13 12:31:02.14	108.87	13.96	-39.4	-40.6	21.5	0.00e+00	87	28	0	914358272	50	6872
2026-01-13 12:31:03.15	109.05	13.91	-39.2	-40.3	21.8	0.00e+00	68	28	0	916455424	50	6656
2026-01-13 12:31:04.16	109.24	13.87	-39.0	-40.1	21.9	0.00e+00	68	28	0	917504000	50	6523
2026-01-13 12:31:05.17	109.42	13.82	-39.0	-40.1	22.0	0.00e+00	92	28	0	919601152	50	6486
2026-01-13 12:31:06.18	109.60	13.77	-39.0	-40.1	22.0	0.00e+00	0	28	0	921698304	50	6492
2026-01-13 12:31:07.19	109.79	13.72	-38.8	-39.8	22.2	0.00e+00	92	28	0	923795456	50	6315
2026-01-13 12:31:08.20	109.97	13.68	-38.9	-40.0	22.0	0.00e+00	0	28	0	925892608	50	6408
2026-01-13 12:31:09.21	110.15	13.63	-39.0	-40.0	22.0	0.00e+00	91	28	0	927989760	50	6446
2026-01-13 12:31:10.22	110.33	13.58	-38.9	-39.9	22.2	0.00e+00	0	28	0	929038336	50	6363
2026-01-13 12:31:11.23	110.51	13.53	-39.1	-40.2	22.0	0.00e+00	2	28	0	931135488	50	6557
2026-01-13 12:31:12.24	110.69	13.49	-39.0	-40.1	21.8	0.00e+00	25	28	0	933232640	50	6488
2026-01-13 12:31:13.24	110.87	13.44	-39.1	-40.2	22.1	0.00e+00	2	28	0	935329792	50	6546
2026-01-13 12:31:14.25	111.05	13.39	-38.3	-39.3	22.7	0.00e+00	92	28	0	937426944	50	5897
2026-01-13 12:31:15.26	111.23	13.34	-38.2	-39.2	22.8	0.00e+00	0	28	0	938475520	50	5837
2026-01-13 12:31:16.27	111.40	13.29	-38.1	-39.1	22.8	0.00e+00	90	28	0	940572672	50	5777
2026-01-13 12:31:17.28	111.58	13.24	-38.2	-39.2	22.6	0.00e+00	2	28	0	942669824	50	5884
2026-01-13 12:31:18.29	111.76	13.19	-38.3	-39.3	22.6	0.00e+00	0	28	0	944766976	50	5963
2026-01-13 12:31:19.30	111.93	13.15	-38.2	-39.2	22.7	0.00e+00	0	28	0	946864128	50	5841
2026-01-13 12:31:20.31	112.11	13.10	-38.1	-39.1	22.8	0.00e+00	61	28	0	947912704	50	5803
2026-01-13 12:31:21.32	112.28	13.05	-38.0	-39.1	22.8	0.00e+00	92	28	0	950009856	50	5772
2026-01-13 12:31:22.32	112.45	13.00	-38.3	-39.3	22.6	0.00e+00	4	28	0	952107008	50	5942
2026-01-13 12:31:23.33	112.63	12.95	-38.3	-39.4	22.5	0.00e+00	92	28	0	954204160	50	5992
2026-01-13 12:31:24.34	112.80	12.90	-38.5	-39.6	22.3	0.00e+00	0	28	0	956301312	50	6162
2026-01-13 12:31:25.35	112.97	12.85	-38.6	-39.7	22.1	0.00e+00	21	28	0	957349888	50	6225
2026-01-13 12:31:26.36	113.14	12.80	-38.9	-40.0	22.0	0.00e+00	22	28	0	959447040	50	6454
2026-01-13 12:31:27.37	113.32	12.75	-39.1	-40.2	21.8	0.00e+00	25	28	0	961544192	50	6558
2026-01-13 12:31:28.38	113.49	12.70	-39.2	-40.3	21.7	0.00e+00	0	28	0	963641344	50	6623
2026-01-13 12:31:29.39	113.66	12.65	-39.1	-40.2	21.8	0.00e+00	16	28	0	965738496	50	6591
2026-01-13 12:31:30.39	113.82	12.60	-39.0	-40.2	21.9	0.00e+00	92	28	0	966787072	50	6549
2026-01-13 12:31:31.40	113.99	12.54	-38.5	-39.6	22.3	0.00e+00	0	28	0	968884224	50	6172
2026-01-13 12:31:32.41	114.16	12.49	-38.3	-39.4	22.5	0.00e+00	92	28	0	970981376	50	6022
2026-01-13 12:31:33.42	114.33	12.44	-38.2	-39.3	22.7	0.00e+00	16	28	0	973078528	50	5918
2026-01-13 12:31:34.43	114.50	12.39	-37.9	-38.9	23.0	0.00e+00	16	28	0	975175680	50	5660
2026-01-13 12:31:35.44	114.66	12.34	-37.9	-38.9	23.0	0.00e+00	0	28	0	976224256	50	5638
2026-01-13 12:31:36.45	114.83	12.29	-37.4	-38.4	23.4	0.00e+00	5	28	0	978321408	48	6003
2026-01-13 12:31:37.46	115.00	12.24	-37.6	-38.6	23.2	0.00e+00	92	28	0	980418560	48	6104
2026-01-13 12:31:38.47	115.16	12.19	-37.6	-38.5	23.3	0.00e+00	0	28	0	982515712	48	6090
2026-01-13 12:31:39.48	115.33	12.13	-37.9	-38.9	22.9	0.00e+00	31	28	0	984612864	48	6389
2026-01-13 12:31:40.49	115.49	12.08	-37.9	-38.9	23.0	0.00e+00	6	28	0	985661440	48	6357
2026-01-13 12:31:41.50	115.65	12.03	-37.9	-38.9	22.9	0.00e+00	0	28	0	987758592	48	6372
2026-01-13 12:31:42.51	115.82	11.98	-38.1	-39.1	22.8	0.00e+00	0	28	0	989855744	48	6502
2026-01-13 12:31:43.51	115.98	11.93	-37.9	-38.9	22.9	0.00e+00	65	28	0	991952896	48	6390
2026-01-13 12:31:44.52	116.14	11.88	-38.1	-39.1	22.8	0.00e+00	92	28	0	994050048	48	6512
2026-01-13 12:31:45.53	116.30	11.82	-37.9	-39.0	22.9	0.00e+00	6	28	0	995098624	48	6404
2026-01-13 12:31:46.54	116.46	11.77	-38.0	-39.0	22.8	0.00e+00	92	28	0	997195776	48	6464
2026-01-13 12:31:47.55	116.62	11.72	-38.0	-39.0	22.9	0.00e+00	66	28	0	999292928	48	6449
2026-01-13 12:31:48.56	116.78	11.67	-38.2	-39.2	22.7	0.00e+00	22	28	0	1001390080	48	6567
2026-01-13 12:31:49.57	116.94	11.61	-38.3	-39.3	22.4	0.00e+00	18	28	0	1003487232	48	6686
2026-01-13 12:31:50.58	117.10	11.56	-38.2	-39.2	22.7	0.00e+00	25	28	0	1004535808	48	6613
2026-01-13 12:31:51.58	117.25	11.51	-38.3	-39.3	22.6	0.00e+00	39	28	0	1006632960	48	6657
2026-01-13 12:31:52.59	117.41	11.46	-38.3	-39.3	22.6	0.00e+00	61	28	0	1008730112	48	6649
2026-01-13 12:31:53.60	117.57	11.40	-38.4	-39.4	22.5	0.00e+00	90	28	0	1010827264	48	6722
2026-01-13 12:31:54.61	117.72	11.35	-37.9	-38.9	22.9	0.00e+00	6	28	0	1012924416	48	6347
2026-01-13 12:31:55.61	117.88	11.30	-37.9	-38.9	22.9	0.00e+00	7	28	0	1013972992	48	6373
2026-01-13 12:31:56.62	118.03	11.24	-37.7	-38.6	23.2	0.00e+00	7	28	0	1016070144	48	6168
2026-01-13 12:31:57.63	118.19	11.19	-37.7	-38.7	23.1	0.00e+00	26	28	0	1018167296	48	6188
2026-01-13 12:31:58.64	118.34	11.14	-37.8	-38.7	23.0	0.00e+00	33	28	0	1020264448	48	6242
2026-01-13 12:31:59.65	118.49	11.08	-37.7	-38.6	23.1	0.00e+00	8	28	0	1022361600	48	6169
2026-01-13 12:32:00.66	118.65	11.03	-37.7	-38.7	23.1	0.00e+00	90	28	0	1024458752	48	6186
2026-01-13 12:32:01.67	118.80	10.98	-38.0	-39.0	22.9	0.00e+00	7	28	0	1025507328	48	6411
2026-01-13 12:32:02.67	118.95	10.92	-38.3	-39.3	22.5	0.00e+00	92	28	0	1027604480	48	6680
2026-01-13 12:32:03.68	119.10	10.87	-38.3	-39.4	22.5	0.00e+00	0	28	0	1029701632	48	6695
2026-01-13 12:32:04.69	119.25	10.82	-38.4	-39.5	22.3	0.00e+00	0	28	0	1031798784	48	6782
2026-01-13 12:32:05.70	119.40	10.76	-38.3	-39.4	22.4	0.00e+00	0	28	0	1033895936	48	6715
2026-01-13 12:32:06.71	119.55	10.71	-38.3	-39.4	22.5	0.00e+00	65	28	0	1034944512	48	6694
2026-01-13 12:32:07.72	119.70	10.66	-38.1	-39.1	22.7	0.00e+00	91	28	0	1037041664	48	6469
2026-01-13 12:32:08.73	119.85	10.60	-37.9	-38.9	22.8	0.00e+00	0	28	0	1039138816	48	6338
2026-01-13 12:32:09.74	120.00	10.55	-37.8	-38.8	23.0	0.00e+00	92	28	0	1041235968	48	6283
2026-01-13 12:32:10.75	120.15	10.49	-37.9	-38.9	22.8	0.00e+00	66	28	0	1042284544	48	6342
2026-01-13 12:32:11.75	120.29	10.44	-37.9	-38.9	22.9	0.00e+00	22	28	0	1044381696	48	6368
2026-01-13 12:32:12.76	120.44	10.39	-38.1	-39.1	22.7	0.00e+00	16	28	0	1046478848	48	6495
2026-01-13 12:32:13.77	120.59	10.33	-38.4	-39.4	22.4	0.00e+00	65	28	0	1048576000	48	6735
2026-01-13 12:32:14.78	120.73	10.28	-38.6	-39.6	22.2	0.00e+00	0	28	0	1050673152	48	6905
2026-01-13 12:32:15.78	120.87	10.22	-38.6	-39.6	22.2	0.00e+00	65	28	0	1052770304	48	6927
2026-01-13 12:32:16.79	121.02	10.17	-38.6	-39.7	22.1	0.00e+00	91	28	0	1053818880	48	6961
2026-01-13 12:32:17.80	121.16	10.12	-38.6	-39.7	22.2	0.00e+00	17	28	0	1055916032	50	6184
2026-01-13 12:32:18.81	121.31	10.06	-38.7	-39.8	22.0	0.00e+00	92	28	0	1058013184	50	6266
2026-01-13 12:32:19.82	121.45	10.01	-38.7	-39.8	22.1	0.00e+00	18	28	0	1060110336	50	6282
2026-01-13 12:32:20.83	121.59	9.95	-38.6	-39.7	22.1	0.00e+00	22	28	0	1062207488	50	6208
2026-01-13 12:32:21.84	121.73	9.90	-38.2	-39.2	22.6	0.00e+00	20	28	0	1063256064	50	5837
2026-01-13 12:32:22.85	121.88	9.84	-37.8	-38.8	22.9	0.00e+00	0	28	0	1065353216	50	5599
2026-01-13 12:32:23.86	122.02	9.79	-37.9	-38.8	22.9	0.00e+00	92	28	0	1067450368	50	5624
2026-01-13 12:32:24.87	122.16	9.73	-38.0	-39.0	22.7	0.00e+00	2	28	0	1069547520	50	5726
2026-01-13 12:32:25.88	122.30	9.68	-38.3	-39.3	22.5	0.00e+00	91	28	0	1071644672	50	5905
2026-01-13 12:32:26.89	122.44	9.63	-38.4	-39.4	22.4	0.00e+00	0	28	0	1072693248	50	5996
2026-01-13 12:32:27.90	122.58	9.57	-38.5	-39.5	22.2	0.00e+00	0	28	0	1074790400	50	6103
2026-01-13 12:32:28.91	122.71	9.52	-38.6	-39.6	22.3	0.00e+00	0	28	0	1076887552	50	6172
2026-01-13 12:32:29.91	122.85	9.46	-38.8	-39.9	22.0	0.00e+00	66	28	0	1078984704	50	6331
2026-01-13 12:32:30.92	122.99	9.41	-38.8	-39.8	21.9	0.00e+00	14	28	0	1081081856	50	6310
2026-01-13 12:32:31.93	123.12	9.35	-38.7	-39.8	22.1	0.00e+00	64	28	0	1082130432	50	6249
2026-01-13 12:32:32.94	123.26	9.30	-38.6	-39.7	22.0	0.00e+00	90	28	0	1084227584	50	6221
2026-01-13 12:32:33.95	123.40	9.24	-38.6	-39.7	22.1	0.00e+00	18	28	0	1086324736	50	6195
2026-01-13 12:32:34.96	123.53	9.19	-38.7	-39.8	22.0	0.00e+00	69	28	0	1088421888	50	6299
2026-01-13 12:32:35.97	123.67	9.13	-38.8	-39.9	22.0	0.00e+00	64	28	0	1090519040	50	6369
2026-01-13 12:32:36.98	123.80	9.08	-38.8	-39.9	21.9	0.00e+00	18	28	0	1091567616	50	6364
2026-01-13 12:32:37.99	123.94	9.02	-39.1	-40.2	21.5	0.00e+00	50	28	0	1093664768	50	6604
2026-01-13 12:32:39.00	124.07	8.97	-38.8	-39.9	21.9	0.00e+00	0	28	0	1095761920	50	6375
2026-01-13 12:32:40.01	124.20	8.91	-39.1	-40.3	21.5	0.00e+00	90	28	0	1097859072	50	6624
2026-01-13 12:32:41.02	124.34	8.86	-39.2	-40.4	21.4	0.00e+00	18	28	0	1099956224	50	6719
2026-01-13 12:32:42.03	124.47	8.80	-39.3	-40.4	21.3	0.00e+00	92	28	0	1101004800	50	6761
2026-01-13 12:32:43.04	124.60	8.75	-39.3	-40.4	21.4	0.00e+00	2	28	0	1103101952	50	6736
2026-01-13 12:32:44.05	124.73	8.70	-39.3	-40.5	21.2	0.00e+00	0	28	0	1105199104	50	6816
2026-01-13 12:32:45.05	124.86	8.64	-39.4	-40.5	21.3	0.00e+00	0	28	0	1107296256	50	6823
2026-01-13 12:32:46.06	124.99	8.59	-39.4	-40.6	21.0	0.00e+00	0	28	0	1109393408	50	6855
2026-01-13 12:32:47.07	125.12	8.53	-39.1	-40.3	21.4	0.00e+00	90	28	0	1110441984	50	6656
2026-01-13 12:32:48.08	125.25	8.48	-39.1	-40.2	21.5	0.00e+00	0	28	0	1112539136	50	6575
2026-01-13 12:32:49.09	125.38	8.42	-39.0	-40.2	21.5	0.00e+00	90	28	0	1114636288	50	6540
2026-01-13 12:32:50.10	125.51	8.37	-39.4	-40.5	21.1	0.00e+00	0	28	0	1116733440	50	6834
2026-01-13 12:32:51.11	125.63	8.31	-39.1	-40.3	21.4	0.00e+00	0	28	0	1118830592	50	6640
2026-01-13 12:32:52.12	125.76	8.26	-39.4	-40.5	21.2	0.00e+00	59	28	0	1120927744	50	6846
2026-01-13 12:32:53.13	125.89	8.20	-39.3	-40.5	21.3	0.00e+00	59	28	0	1121976320	50	6795
2026-01-13 12:32:54.14	126.02	8.15	-39.5	-40.6	21.1	0.00e+00	10	28	0	1124073472	50	6926
2026-01-13 12:32:55.15	126.14	8.09	-39.4	-40.6	21.2	0.00e+00	59	28	0	1126170624	50	6904
2026-01-13 12:32:56.16	126.27	8.04	-39.6	-40.8	21.0	0.00e+00	92	28	0	1128267776	50	7016
2026-01-13 12:32:57.17	126.39	7.98	-39.6	-40.8	21.0	0.00e+00	59	28	0	1130364928	50	7035
2026-01-13 12:32:58.18	126.52	7.93	-39.6	-40.9	20.9	0.00e+00	77	28	0	1131413504	50	7095
2026-01-13 12:32:59.19	126.64	7.87	-39.6	-40.8	20.9	0.00e+00	0	28	0	1133510656	50	7042
2026-01-13 12:33:00.20	126.76	7.82	-39.5	-40.7	21.0	0.00e+00	0	28	0	1135607808	50	6944
2026-01-13 12:33:01.21	126.89	7.76	-39.3	-40.4	21.3	0.00e+00	0	28	0	1137704960	50	6769
2026-01-13 12:33:02.22	127.01	7.71	-39.5	-40.7	21.1	0.00e+00	0	28	0	1139802112	50	6949
2026-01-13 12:33:03.23	127.13	7.65	-39.6	-40.8	20.9	0.00e+00	91	28	0	1140850688	50	7053
2026-01-13 12:33:04.24	127.26	7.60	-39.4	-40.5	21.2	0.00e+00	15	28	0	1142947840	50	6836
2026-01-13 12:33:05.25	127.38	7.54	-39.4	-40.6	21.0	0.00e+00	91	28	0	1145044992	50	6912
2026-01-13 12:33:06.25	127.50	7.49	-39.5	-40.7	21.0	0.00e+00	2	28	0	1147142144	50	6966
2026-01-13 12:33:07.26	127.62	7.43	-39.4	-40.6	21.1	0.00e+00	0	28	0	1149239296	50	6918
2026-01-13 12:33:08.27	127.74	7.38	-39.7	-40.9	20.8	0.00e+00	0	28	0	1150287872	50	7170
2026-01-13 12:33:09.28	127.86	7.32	-39.9	-41.1	20.7	0.00e+00	2	28	0	1152385024	52	6519
2026-01-13 12:33:10.29	127.98	7.27	-40.0	-41.3	20.5	0.00e+00	92	28	0	1154482176	52	6679
2026-01-13 12:33:11.30	128.10	7.21	-40.1	-41.4	20.3	0.00e+00	60	28	0	1156579328	52	6754
2026-01-13 12:33:12.31	128.21	7.16	-40.1	-41.5	20.2	0.00e+00	92	28	0	1158676480	52	6774
2026-01-13 12:33:13.31	128.33	7.11	-40.2	-41.6	20.1	0.00e+00	0	28	0	1159725056	52	6899
2026-01-13 12:33:14.32	128.45	7.05	-40.1	-41.5	20.2	0.00e+00	14	28	0	1161822208	52	6807
2026-01-13 12:33:15.33	128.57	7.00	-40.1	-41.5	20.2	0.00e+00	0	28	0	1163919360	52	6783
2026-01-13 12:33:16.34	128.68	6.94	-40.2	-41.6	20.1	0.00e+00	0	28	0	1166016512	52	6865
2026-01-13 12:33:17.35	128.80	6.89	-40.2	-41.6	20.1	0.00e+00	95	28	0	1168113664	52	6901
2026-01-13 12:33:18.36	128.92	6.83	-40.0	-41.4	20.4	0.00e+00	61	28	0	1169162240	52	6712
2026-01-13 12:33:19.37	129.03	6.78	-39.9	-41.3	20.4	0.00e+00	92	28	0	1171259392	52	6624
2026-01-13 12:33:20.38	129.15	6.72	-40.0	-41.3	20.3	0.00e+00	24	28	0	1173356544	52	6669
2026-01-13 12:33:21.39	129.26	6.67	-40.0	-41.4	20.3	0.00e+00	91	28	0	1175453696	52	6693
2026-01-13 12:33:22.40	129.38	6.61	-39.8	-41.1	20.5	0.00e+00	0	28	0	1177550848	52	6529
2026-01-13 12:33:23.41	129.49	6.56	-39.9	-41.2	20.4	0.00e+00	0	28	0	1178599424	52	6576
2026-01-13 12:33:24.42	129.60	6.50	-39.9	-41.1	20.5	0.00e+00	0	28	0	1180696576	52	6529
2026-01-13 12:33:25.43	129.72	6.45	-40.1	-41.4	20.3	0.00e+00	6	28	0	1182793728	52	6737
2026-01-13 12:33:26.44	129.83	6.40	-40.1	-41.4	20.1	0.00e+00	91	28	0	1184890880	52	6768
2026-01-13 12:33:27.45	129.94	6.34	-40.3	-41.7	20.0	0.00e+00	0	28	0	1186988032	52	6960
2026-01-13 12:33:28.45	130.05	6.29	-40.3	-41.7	19.9	0.00e+00	92	28	0	1189085184	52	6967
2026-01-13 12:33:29.46	130.16	6.23	-39.9	-41.3	20.4	0.00e+00	5	28	0	1190133760	52	6633
2026-01-13 12:33:30.47	130.27	6.18	-40.0	-41.3	20.3	0.00e+00	6	28	0	1192230912	52	6672
2026-01-13 12:33:31.48	130.39	6.12	-40.0	-41.3	20.3	0.00e+00	6	28	0	1194328064	52	6649
2026-01-13 12:33:32.49	130.50	6.07	-40.1	-41.5	20.2	0.00e+00	5	28	0	1196425216	52	6785
2026-01-13 12:33:33.50	130.61	6.02	-40.0	-41.3	20.3	0.00e+00	91	28	0	1198522368	52	6650
2026-01-13 12:33:34.51	130.71	5.96	-39.9	-41.2	20.4	0.00e+00	61	28	0	1199570944	52	6566
2026-01-13 12:33:35.52	130.82	5.91	-40.0	-41.3	20.3	0.00e+00	91	28	0	1201668096	52	6679
2026-01-13 12:33:36.53	130.93	5.85	-40.1	-41.4	20.1	0.00e+00	61	28	0	1203765248	52	6722
2026-01-13 12:33:37.54	131.04	5.80	-40.4	-41.9	19.9	0.00e+00	43	28	0	1205862400	52	7090
2026-01-13 12:33:38.56	131.15	5.74	-40.5	-41.9	19.6	0.00e+00	61	28	0	1207959552	52	7158
