passes_logs/2026/01/13/R4.6S_Anadyr/R4.6S_Anadyr__20260113_162125_FENGYUN_3D_rec.log

#Pass ID: 20260113_162125_FENGYUN 3D
#Satellite: FENGYUN 3D
#Configuration: FENGYUN 3D
#almurnet v.1.7.20251203
#Start time: 2026-01-13 16:21:26

#Version: 2.2.20231116
#Station: R4.6S_Anadyr
#Location: 177.4865 lon 64.73178 lat
#TLE: 1 43010U 17072A   26012.32543542  .00000598  00000+0  30457-3 0  9997
#TLE: 2 43010  98.9935 344.1005 0002233 112.6136 247.5276 14.19696644422876

#Time	Az	El	Level	Level2	SNR	BER	BlckErr	Temp	State	Recorded	gain1	gain2
2026-01-13 16:21:26.68	20.25	0.06	-48.6	-66.3	3.5	3.01e+01	0	25	0	0	60	79898
2026-01-13 16:21:27.68	20.27	0.12	-48.8	-60.9	3.6	8.45e-01	0	27	104	0	60	39989
2026-01-13 16:21:28.69	20.29	0.18	-48.4	-60.6	3.6	8.45e-01	0	27	104	0	60	38814
2026-01-13 16:21:29.70	20.31	0.24	-48.4	-60.6	3.6	8.44e-01	0	27	104	0	60	38787
2026-01-13 16:21:30.71	20.33	0.30	-48.5	-60.6	3.6	8.45e-01	0	27	104	0	60	38823
2026-01-13 16:21:31.72	20.35	0.36	-48.5	-60.7	3.6	8.46e-01	0	27	104	0	60	39015
2026-01-13 16:21:32.73	20.36	0.42	-48.5	-60.6	3.6	8.45e-01	0	27	104	0	60	38932
2026-01-13 16:21:33.74	20.38	0.48	-48.4	-60.6	3.6	8.46e-01	0	27	104	0	60	38559
2026-01-13 16:21:34.75	20.40	0.54	-48.5	-60.6	3.6	8.45e-01	0	27	104	0	60	38573
2026-01-13 16:21:35.76	20.42	0.60	-48.4	-60.5	3.6	8.46e-01	0	27	104	0	60	38214
2026-01-13 16:21:36.77	20.44	0.66	-48.2	-60.4	3.6	8.46e-01	0	27	104	0	60	37919
2026-01-13 16:21:37.78	20.46	0.72	-48.1	-60.3	3.6	8.45e-01	0	27	104	0	60	37252
2026-01-13 16:21:38.79	20.47	0.79	-48.0	-60.0	3.6	8.46e-01	0	27	104	0	60	36158
2026-01-13 16:21:39.80	20.49	0.85	-47.7	-59.9	3.6	8.47e-01	0	27	104	0	60	35802
2026-01-13 16:21:40.81	20.51	0.91	-47.6	-59.7	3.6	8.45e-01	0	27	104	0	60	34818
2026-01-13 16:21:41.82	20.53	0.97	-47.3	-59.3	3.6	8.46e-01	0	27	104	0	60	33345
2026-01-13 16:21:42.83	20.55	1.03	-46.9	-58.9	3.6	8.45e-01	0	27	104	0	60	31750
2026-01-13 16:21:43.83	20.57	1.09	-46.9	-58.7	3.6	8.45e-01	0	27	104	0	60	31240
2026-01-13 16:21:44.84	20.59	1.15	-46.9	-58.8	3.6	8.48e-01	0	27	104	0	60	31472
2026-01-13 16:21:45.85	20.61	1.22	-46.9	-58.9	3.5	8.45e-01	0	27	104	0	60	31750
2026-01-13 16:21:46.86	20.63	1.28	-46.9	-58.8	3.6	8.45e-01	0	27	104	0	60	31584
2026-01-13 16:21:47.87	20.65	1.34	-46.8	-58.7	3.6	8.45e-01	0	27	104	0	60	31138
2026-01-13 16:21:48.88	20.66	1.40	-46.8	-58.7	3.6	8.45e-01	0	27	104	0	60	31080
2026-01-13 16:21:49.89	20.68	1.47	-46.8	-58.8	3.6	8.46e-01	0	27	104	0	60	31381
2026-01-13 16:21:50.90	20.70	1.53	-46.9	-58.9	3.6	8.45e-01	0	27	104	0	60	31686
2026-01-13 16:21:51.91	20.72	1.59	-46.9	-58.9	3.6	8.45e-01	0	27	104	0	60	31724
2026-01-13 16:21:52.92	20.74	1.65	-46.9	-58.8	3.6	8.46e-01	0	27	104	0	60	31617
2026-01-13 16:21:53.93	20.76	1.72	-46.8	-58.9	3.6	8.44e-01	0	27	104	0	60	31819
2026-01-13 16:21:54.94	20.78	1.78	-46.8	-58.9	3.6	8.45e-01	0	27	104	0	60	31761
2026-01-13 16:21:55.95	20.80	1.84	-46.9	-58.9	3.6	8.45e-01	0	27	104	0	60	32018
2026-01-13 16:21:56.96	20.82	1.91	-46.9	-58.9	3.6	8.46e-01	0	27	104	0	60	31754
2026-01-13 16:21:57.96	20.84	1.97	-46.9	-59.0	3.6	8.45e-01	0	27	104	0	60	32128
2026-01-13 16:21:58.97	20.86	2.03	-46.9	-59.0	3.6	8.44e-01	0	27	104	0	60	32184
2026-01-13 16:21:59.98	20.88	2.10	-46.8	-58.8	3.6	8.45e-01	0	27	104	0	60	31460
2026-01-13 16:22:00.99	20.90	2.16	-46.8	-58.2	3.6	8.47e-01	0	28	104	0	60	29289
2026-01-13 16:22:02.00	20.92	2.23	-46.7	-57.3	3.6	8.44e-01	0	28	104	0	60	26434
2026-01-13 16:22:03.00	20.94	2.29	-46.6	-56.5	3.8	8.45e-01	0	28	104	0	60	24097
2026-01-13 16:22:04.01	20.96	2.35	-46.5	-55.7	3.7	8.36e-01	0	28	104	0	60	21931
2026-01-13 16:22:05.02	20.98	2.42	-46.4	-54.9	4.0	8.33e-01	0	28	0	0	60	20031
2026-01-13 16:22:06.03	21.00	2.48	-46.5	-53.9	3.9	8.31e-01	0	28	0	0	60	17833
2026-01-13 16:22:07.04	21.02	2.55	-46.4	-53.7	3.9	8.28e-01	0	28	0	0	60	17463
2026-01-13 16:22:08.05	21.04	2.61	-46.4	-53.2	4.2	7.52e-01	0	28	0	0	60	16438
2026-01-13 16:22:09.06	21.06	2.68	-46.0	-51.7	5.2	7.50e-01	0	28	0	0	60	13863
2026-01-13 16:22:10.07	21.08	2.74	-45.3	-49.6	7.7	2.49e-01	0	28	0	4194304	60	10865
2026-01-13 16:22:11.08	21.10	2.81	-44.2	-47.4	10.4	1.72e-02	0	28	0	10485760	60	8435
2026-01-13 16:22:12.09	21.12	2.88	-42.7	-44.9	12.9	2.61e-04	0	28	0	15728640	58	7155
2026-01-13 16:22:13.11	21.15	2.94	-41.2	-42.9	15.2	1.10e-06	0	28	0	22020096	56	6342
2026-01-13 16:22:14.11	21.17	3.01	-39.6	-40.9	17.1	0.00e+00	0	28	0	27262976	52	6388
2026-01-13 16:22:15.12	21.19	3.07	-38.8	-39.9	18.1	0.00e+00	0	28	0	33554432	52	5673
2026-01-13 16:22:16.13	21.21	3.14	-37.8	-38.8	19.2	0.00e+00	0	28	0	38797312	50	5583
2026-01-13 16:22:17.14	21.23	3.21	-37.3	-38.3	19.6	0.00e+00	0	28	0	45088768	48	5932
2026-01-13 16:22:18.15	21.25	3.27	-37.1	-38.1	19.8	0.00e+00	0	28	0	50331648	48	5807
2026-01-13 16:22:19.16	21.27	3.34	-37.1	-38.1	19.8	0.00e+00	0	28	0	55574528	48	5772
2026-01-13 16:22:20.17	21.29	3.41	-37.4	-38.4	19.6	0.00e+00	0	28	0	61865984	48	5970
2026-01-13 16:22:21.18	21.32	3.47	-37.9	-38.9	19.0	0.00e+00	0	28	0	67108864	48	6372
2026-01-13 16:22:22.19	21.34	3.54	-39.0	-40.1	17.8	0.00e+00	0	28	0	73400320	50	6533
2026-01-13 16:22:23.20	21.36	3.61	-40.2	-41.6	16.3	0.00e+00	0	28	0	78643200	52	6909
2026-01-13 16:22:24.21	21.38	3.68	-41.5	-43.3	15.8	1.10e-06	0	28	0	83886080	54	7442
2026-01-13 16:22:25.22	21.40	3.74	-41.1	-42.8	16.5	0.00e+00	0	28	0	90177536	54	7008
2026-01-13 16:22:26.24	21.42	3.81	-37.9	-38.9	20.0	0.00e+00	0	28	0	95420416	48	6343
2026-01-13 16:22:27.24	21.45	3.88	-46.7	-57.7	3.6	8.45e-01	0	28	104	98566144	60	27836
2026-01-13 16:22:28.25	21.47	3.95	-38.2	-39.3	18.2	2.47e-01	0	28	104	98566144	50	5940
2026-01-13 16:22:29.26	21.49	4.02	-45.9	-50.7	6.9	1.91e-01	0	28	0	100663296	60	12363
2026-01-13 16:22:30.27	21.51	4.08	-37.2	-38.1	20.0	0.00e+00	0	28	0	105906176	48	5816
2026-01-13 16:22:31.28	21.53	4.15	-37.0	-38.0	20.2	0.00e+00	0	28	0	112197632	48	5711
2026-01-13 16:22:32.29	21.56	4.22	-37.2	-38.1	19.8	0.00e+00	0	28	0	117440512	46	6532
2026-01-13 16:22:33.30	21.58	4.29	-36.6	-37.5	20.5	0.00e+00	0	28	0	123731968	46	6102
2026-01-13 16:22:34.31	21.60	4.36	-36.3	-37.2	20.9	0.00e+00	0	28	0	128974848	46	5841
2026-01-13 16:22:35.32	21.62	4.43	-36.4	-37.3	20.8	0.00e+00	0	28	0	134217728	46	5912
2026-01-13 16:22:36.33	21.65	4.50	-36.3	-37.2	20.8	0.00e+00	0	28	0	140509184	46	5851
2026-01-13 16:22:37.34	21.67	4.57	-35.8	-36.6	21.5	0.00e+00	0	28	0	145752064	44	6173
2026-01-13 16:22:38.35	21.69	4.64	-35.1	-35.9	22.2	0.00e+00	0	28	0	152043520	44	5684
2026-01-13 16:22:39.36	21.71	4.71	-34.9	-35.7	22.4	0.00e+00	0	28	0	157286400	42	6218
2026-01-13 16:22:40.36	21.74	4.78	-35.0	-35.8	22.4	0.00e+00	0	28	0	162529280	42	6305
2026-01-13 16:22:41.37	21.76	4.85	-35.0	-35.7	22.3	0.00e+00	0	28	0	168820736	42	6237
2026-01-13 16:22:42.38	21.78	4.92	-34.9	-35.6	22.4	0.00e+00	0	28	0	174063616	42	6173
2026-01-13 16:22:43.39	21.81	4.99	-34.7	-35.5	22.6	0.00e+00	0	28	0	180355072	42	6089
2026-01-13 16:22:44.41	21.83	5.06	-34.8	-35.6	22.6	0.00e+00	0	28	0	185597952	42	6152
2026-01-13 16:22:45.41	21.85	5.13	-34.8	-35.6	22.6	0.00e+00	0	28	0	190840832	42	6125
2026-01-13 16:22:46.42	21.88	5.21	-34.5	-35.3	22.9	0.00e+00	0	28	0	197132288	42	5922
2026-01-13 16:22:47.43	21.90	5.28	-34.6	-35.4	22.7	0.00e+00	0	28	0	202375168	42	6005
2026-01-13 16:22:48.44	21.92	5.35	-34.6	-35.4	22.8	0.00e+00	0	28	0	208666624	42	5995
2026-01-13 16:22:49.45	21.95	5.42	-34.5	-35.3	22.9	0.00e+00	0	28	0	213909504	42	5912
2026-01-13 16:22:50.46	21.97	5.49	-34.4	-35.2	23.0	0.00e+00	0	28	0	220200960	42	5861
2026-01-13 16:22:51.47	22.00	5.57	-34.5	-35.3	22.9	0.00e+00	0	28	0	225443840	42	5899
2026-01-13 16:22:52.48	22.02	5.64	-34.6	-35.3	22.9	0.00e+00	0	28	0	230686720	42	5937
2026-01-13 16:22:53.49	22.04	5.71	-34.4	-35.1	23.1	0.00e+00	0	28	0	236978176	42	5799
2026-01-13 16:22:54.50	22.07	5.78	-34.5	-35.3	23.0	0.00e+00	0	28	0	242221056	42	5900
2026-01-13 16:22:55.51	22.09	5.86	-34.5	-35.2	23.2	0.00e+00	0	28	0	248512512	42	5865
2026-01-13 16:22:56.52	22.12	5.93	-34.2	-34.9	23.3	0.00e+00	0	28	0	253755392	42	5661
2026-01-13 16:22:57.53	22.14	6.00	-34.3	-35.1	23.2	0.00e+00	0	28	0	258998272	42	5788
2026-01-13 16:22:58.53	22.17	6.08	-34.2	-35.0	23.3	0.00e+00	0	28	0	265289728	42	5715
2026-01-13 16:22:59.54	22.19	6.15	-34.1	-34.8	23.4	0.00e+00	0	28	0	270532608	42	5595
2026-01-13 16:23:00.55	22.22	6.23	-34.2	-34.9	23.4	0.00e+00	0	28	0	276824064	42	5662
2026-01-13 16:23:01.56	22.24	6.30	-34.2	-34.9	23.4	0.00e+00	0	28	0	282066944	42	5660
2026-01-13 16:23:02.57	22.27	6.37	-34.1	-34.8	23.4	0.00e+00	0	28	0	287309824	42	5598
2026-01-13 16:23:03.58	22.29	6.45	-34.0	-34.7	23.5	0.00e+00	0	28	0	293601280	42	5558
2026-01-13 16:23:04.59	22.32	6.52	-34.0	-34.7	23.6	0.00e+00	0	28	0	298844160	42	5525
2026-01-13 16:23:05.60	22.34	6.60	-34.0	-34.8	23.5	0.00e+00	0	28	0	305135616	42	5572
2026-01-13 16:23:06.61	22.37	6.68	-33.9	-34.6	23.7	0.00e+00	0	28	0	310378496	42	5486
2026-01-13 16:23:07.62	22.39	6.75	-33.8	-34.5	23.8	0.00e+00	0	28	0	316669952	42	5408
2026-01-13 16:23:08.63	22.42	6.83	-34.0	-34.8	23.5	0.00e+00	0	28	0	321912832	42	5574
2026-01-13 16:23:09.64	22.45	6.90	-33.9	-34.6	23.7	0.00e+00	0	28	0	328204288	42	5482
2026-01-13 16:23:10.65	22.47	6.98	-33.7	-34.4	23.8	0.00e+00	0	28	0	333447168	40	6021
2026-01-13 16:23:11.66	22.50	7.06	-33.8	-34.5	23.8	0.00e+00	0	28	0	338690048	40	6094
2026-01-13 16:23:12.67	22.52	7.13	-33.7	-34.4	23.9	0.00e+00	0	28	0	344981504	40	5998
2026-01-13 16:23:13.68	22.55	7.21	-33.7	-34.4	23.9	0.00e+00	0	28	0	350224384	40	5991
2026-01-13 16:23:14.69	22.58	7.29	-33.8	-34.5	23.8	0.00e+00	0	28	0	356515840	40	6061
2026-01-13 16:23:15.70	22.60	7.37	-33.6	-34.3	23.9	0.00e+00	0	28	0	361758720	40	5957
2026-01-13 16:23:16.71	22.63	7.44	-33.7	-34.5	23.8	0.00e+00	0	28	0	367001600	40	6048
2026-01-13 16:23:17.72	22.66	7.52	-33.8	-34.5	23.8	0.00e+00	0	28	0	373293056	40	6094
2026-01-13 16:23:18.73	22.68	7.60	-33.7	-34.4	23.9	0.00e+00	0	28	0	378535936	40	6010
2026-01-13 16:23:19.74	22.71	7.68	-33.6	-34.3	24.0	0.00e+00	0	28	0	384827392	40	5918
2026-01-13 16:23:20.75	22.74	7.76	-33.6	-34.3	24.0	0.00e+00	0	28	0	390070272	40	5957
2026-01-13 16:23:21.76	22.77	7.84	-33.5	-34.2	24.1	0.00e+00	0	28	0	395313152	40	5891
2026-01-13 16:23:22.76	22.79	7.91	-33.6	-34.3	24.1	0.00e+00	0	29	0	401604608	40	5931
2026-01-13 16:23:23.77	22.82	7.99	-33.5	-34.2	24.1	0.00e+00	0	29	0	406847488	40	5895
2026-01-13 16:23:24.78	22.85	8.07	-33.4	-34.1	24.1	0.00e+00	0	28	0	413138944	40	5822
2026-01-13 16:23:25.79	22.88	8.15	-33.5	-34.2	24.2	0.00e+00	0	29	0	418381824	40	5840
2026-01-13 16:23:26.80	22.90	8.23	-33.6	-34.3	24.1	0.00e+00	0	28	0	424673280	40	5922
2026-01-13 16:23:27.81	22.93	8.31	-33.4	-34.1	24.2	0.00e+00	0	29	0	429916160	40	5807
2026-01-13 16:23:28.82	22.96	8.39	-33.4	-34.1	24.2	0.00e+00	0	29	0	435159040	40	5804
2026-01-13 16:23:29.83	22.99	8.48	-33.4	-34.1	24.2	0.00e+00	0	29	0	441450496	40	5790
2026-01-13 16:23:30.83	23.02	8.56	-33.4	-34.2	24.2	0.00e+00	0	29	0	446693376	40	5838
2026-01-13 16:23:31.84	23.04	8.64	-33.4	-34.2	24.2	0.00e+00	0	29	0	452984832	40	5838
2026-01-13 16:23:32.85	23.07	8.72	-33.4	-34.1	24.3	0.00e+00	0	29	0	458227712	40	5817
2026-01-13 16:23:33.86	23.10	8.80	-33.3	-34.0	24.3	0.00e+00	0	29	0	463470592	40	5747
2026-01-13 16:23:34.87	23.13	8.88	-33.3	-34.0	24.4	0.00e+00	0	28	0	469762048	40	5739
2026-01-13 16:23:35.88	23.16	8.97	-33.5	-34.2	24.2	0.00e+00	0	29	0	475004928	40	5877
2026-01-13 16:23:36.89	23.19	9.05	-33.3	-34.0	24.4	0.00e+00	0	28	0	481296384	40	5704
2026-01-13 16:23:37.91	23.22	9.13	-33.2	-33.9	24.4	0.00e+00	0	29	0	486539264	40	5663
2026-01-13 16:23:38.92	23.25	9.22	-33.2	-33.9	24.4	0.00e+00	0	28	0	491782144	40	5690
2026-01-13 16:23:39.92	23.28	9.30	-33.3	-34.0	24.4	0.00e+00	0	29	0	498073600	40	5737
2026-01-13 16:23:40.93	23.31	9.38	-33.3	-33.9	24.5	0.00e+00	0	29	0	503316480	40	5686
2026-01-13 16:23:41.94	23.34	9.47	-33.2	-33.9	24.5	0.00e+00	0	29	0	509607936	40	5655
2026-01-13 16:23:42.95	23.37	9.55	-33.1	-33.8	24.6	0.00e+00	0	29	0	514850816	40	5612
2026-01-13 16:23:43.96	23.40	9.64	-33.3	-34.0	24.4	0.00e+00	0	29	0	521142272	40	5747
2026-01-13 16:23:44.97	23.43	9.72	-33.1	-33.8	24.5	0.00e+00	0	29	0	526385152	40	5610
2026-01-13 16:23:45.97	23.46	9.81	-33.1	-33.8	24.6	0.00e+00	0	29	0	531628032	40	5616
2026-01-13 16:23:46.98	23.49	9.89	-33.3	-34.0	24.4	0.00e+00	0	29	0	537919488	40	5722
2026-01-13 16:23:47.99	23.52	9.98	-33.4	-34.1	24.4	0.00e+00	0	29	0	543162368	40	5780
2026-01-13 16:23:49.00	23.55	10.06	-33.1	-33.8	24.6	0.00e+00	0	29	0	549453824	40	5613
2026-01-13 16:23:50.01	23.58	10.15	-33.3	-34.0	24.5	0.00e+00	0	29	0	554696704	40	5711
2026-01-13 16:23:51.01	23.61	10.24	-32.9	-33.6	24.9	0.00e+00	0	29	0	559939584	40	5488
2026-01-13 16:23:52.02	23.65	10.32	-33.1	-33.8	24.6	0.00e+00	0	29	0	566231040	40	5573
2026-01-13 16:23:53.03	23.68	10.41	-33.0	-33.7	24.8	0.00e+00	0	29	0	571473920	40	5515
2026-01-13 16:23:54.04	23.71	10.50	-32.9	-33.6	24.8	0.00e+00	0	29	0	576716800	40	5475
2026-01-13 16:23:55.05	23.74	10.59	-32.9	-33.6	24.8	0.00e+00	0	29	0	583008256	40	5468
2026-01-13 16:23:56.06	23.77	10.68	-33.0	-33.7	24.8	0.00e+00	0	29	0	588251136	40	5519
2026-01-13 16:23:57.07	23.81	10.76	-32.8	-33.5	24.8	0.00e+00	0	29	0	594542592	40	5397
2026-01-13 16:23:58.08	23.84	10.85	-32.8	-33.5	24.8	0.00e+00	0	29	0	599785472	40	5396
2026-01-13 16:23:59.09	23.87	10.94	-32.8	-33.5	24.8	0.00e+00	0	29	0	606076928	40	5437
2026-01-13 16:24:00.10	23.90	11.03	-32.8	-33.5	24.9	0.00e+00	0	29	0	611319808	40	5388
2026-01-13 16:24:01.11	23.94	11.12	-32.8	-33.5	24.7	0.00e+00	0	29	0	617611264	40	5425
2026-01-13 16:24:02.12	23.97	11.21	-32.8	-33.4	24.9	0.00e+00	0	29	0	622854144	40	5368
2026-01-13 16:24:03.13	24.00	11.30	-32.8	-33.5	24.9	0.00e+00	0	29	0	628097024	40	5382
2026-01-13 16:24:04.14	24.04	11.39	-32.9	-33.6	24.8	0.00e+00	0	29	0	634388480	40	5443
2026-01-13 16:24:05.14	24.07	11.48	-32.8	-33.5	24.9	0.00e+00	0	29	0	639631360	38	6039
2026-01-13 16:24:06.15	24.10	11.58	-32.8	-33.4	25.0	0.00e+00	0	29	0	645922816	38	6026
2026-01-13 16:24:07.16	24.14	11.67	-32.9	-33.5	24.9	0.00e+00	0	29	0	651165696	38	6102
2026-01-13 16:24:08.17	24.17	11.76	-32.9	-33.6	25.0	0.00e+00	0	29	0	656408576	38	6109
2026-01-13 16:24:09.18	24.21	11.85	-32.8	-33.5	25.0	0.00e+00	0	29	0	662700032	38	6056
2026-01-13 16:24:10.19	24.24	11.95	-32.9	-33.6	25.0	0.00e+00	0	29	0	667942912	38	6147
2026-01-13 16:24:11.20	24.28	12.04	-32.8	-33.5	25.0	0.00e+00	0	29	0	674234368	38	6047
2026-01-13 16:24:12.21	24.31	12.13	-32.7	-33.4	25.1	0.00e+00	0	29	0	679477248	38	5993
2026-01-13 16:24:13.22	24.35	12.23	-32.8	-33.5	25.1	0.00e+00	0	29	0	684720128	38	6036
2026-01-13 16:24:14.23	24.38	12.32	-32.8	-33.4	25.1	0.00e+00	0	29	0	691011584	38	6022
2026-01-13 16:24:15.24	24.42	12.42	-32.8	-33.5	25.1	0.00e+00	0	29	0	696254464	38	6058
2026-01-13 16:24:16.25	24.45	12.51	-32.8	-33.4	25.1	0.00e+00	0	29	0	702545920	38	6022
2026-01-13 16:24:17.26	24.49	12.61	-32.9	-33.6	24.9	0.00e+00	0	29	0	707788800	38	6151
2026-01-13 16:24:18.27	24.53	12.70	-32.8	-33.5	25.0	0.00e+00	0	29	0	714080256	38	6088
2026-01-13 16:24:19.28	24.56	12.80	-32.9	-33.5	24.9	0.00e+00	0	29	0	719323136	38	6093
2026-01-13 16:24:20.29	24.60	12.89	-32.9	-33.6	24.9	0.00e+00	0	29	0	724566016	38	6167
2026-01-13 16:24:21.30	24.64	12.99	-32.9	-33.6	25.0	0.00e+00	0	29	0	730857472	38	6143
2026-01-13 16:24:22.30	24.67	13.09	-32.8	-33.4	25.0	0.00e+00	0	29	0	736100352	38	6021
2026-01-13 16:24:23.31	24.71	13.19	-32.8	-33.5	25.0	0.00e+00	0	29	0	742391808	38	6054
2026-01-13 16:24:24.32	24.75	13.28	-32.9	-33.6	24.8	0.00e+00	0	29	0	747634688	38	6148
2026-01-13 16:24:25.33	24.78	13.38	-33.0	-33.7	24.9	0.00e+00	0	29	0	752877568	38	6236
2026-01-13 16:24:26.34	24.82	13.48	-33.1	-33.7	24.9	0.00e+00	0	29	0	759169024	38	6239
2026-01-13 16:24:27.35	24.86	13.58	-33.1	-33.7	25.0	0.00e+00	0	29	0	764411904	38	6244
2026-01-13 16:24:28.36	24.90	13.68	-32.8	-33.5	25.0	0.00e+00	0	29	0	770703360	38	6091
2026-01-13 16:24:29.38	24.94	13.78	-32.8	-33.5	25.1	0.00e+00	0	29	0	775946240	38	6062
2026-01-13 16:24:30.38	24.98	13.88	-32.8	-33.5	25.2	0.00e+00	0	29	0	781189120	38	6041
2026-01-13 16:24:31.39	25.02	13.98	-32.7	-33.4	25.2	0.00e+00	0	29	0	787480576	38	5996
2026-01-13 16:24:32.40	25.05	14.08	-32.9	-33.6	25.0	0.00e+00	0	29	0	792723456	38	6119
2026-01-13 16:24:33.41	25.09	14.18	-32.9	-33.5	25.1	0.00e+00	0	29	0	799014912	38	6100
2026-01-13 16:24:34.42	25.13	14.29	-32.5	-33.2	25.4	0.00e+00	0	29	0	804257792	38	5831
2026-01-13 16:24:35.43	25.17	14.39	-32.5	-33.1	25.4	0.00e+00	0	29	0	810549248	38	5826
2026-01-13 16:24:36.44	25.21	14.49	-32.3	-33.0	25.5	0.00e+00	0	29	0	815792128	38	5739
2026-01-13 16:24:37.45	25.26	14.60	-32.4	-33.1	25.5	0.00e+00	0	29	0	822083584	38	5793
2026-01-13 16:24:38.46	25.30	14.70	-32.4	-33.1	25.5	0.00e+00	0	29	0	827326464	38	5769
2026-01-13 16:24:39.47	25.34	14.80	-32.4	-33.0	25.5	0.00e+00	0	29	0	832569344	38	5752
2026-01-13 16:24:40.48	25.38	14.91	-32.3	-33.0	25.6	0.00e+00	0	29	0	838860800	38	5742
2026-01-13 16:24:41.49	25.42	15.01	-32.1	-32.8	25.7	0.00e+00	0	29	0	844103680	38	5610
2026-01-13 16:24:42.50	25.46	15.12	-32.1	-32.8	25.8	0.00e+00	0	29	0	850395136	38	5586
2026-01-13 16:24:43.51	25.50	15.23	-32.0	-32.7	25.8	0.00e+00	0	29	0	855638016	38	5534
2026-01-13 16:24:44.52	25.55	15.33	-31.9	-32.6	25.9	0.00e+00	0	29	0	860880896	38	5459
2026-01-13 16:24:45.53	25.59	15.44	-32.0	-32.7	25.9	0.00e+00	0	29	0	867172352	38	5516
2026-01-13 16:24:46.54	25.63	15.55	-31.8	-32.4	26.0	0.00e+00	0	29	0	872415232	36	6012
2026-01-13 16:24:47.55	25.68	15.65	-31.8	-32.5	26.0	0.00e+00	0	29	0	878706688	36	6076
2026-01-13 16:24:48.56	25.72	15.76	-31.8	-32.5	26.0	0.00e+00	0	29	0	883949568	36	6049
2026-01-13 16:24:49.57	25.76	15.87	-31.7	-32.3	26.2	0.00e+00	0	29	0	889192448	36	5953
2026-01-13 16:24:50.58	25.81	15.98	-31.7	-32.4	26.1	0.00e+00	0	29	0	895483904	36	5991
2026-01-13 16:24:51.58	25.85	16.09	-31.6	-32.2	26.2	0.00e+00	0	29	0	900726784	36	5876
2026-01-13 16:24:52.59	25.90	16.20	-31.6	-32.2	26.2	0.00e+00	0	29	0	907018240	36	5888
2026-01-13 16:24:53.60	25.94	16.31	-31.6	-32.2	26.2	0.00e+00	0	29	0	912261120	36	5863
2026-01-13 16:24:54.61	25.99	16.42	-31.6	-32.2	26.3	0.00e+00	0	29	0	918552576	36	5880
2026-01-13 16:24:55.62	26.03	16.53	-31.6	-32.2	26.3	0.00e+00	0	29	0	923795456	36	5891
2026-01-13 16:24:56.63	26.08	16.65	-31.6	-32.3	26.3	0.00e+00	0	29	0	929038336	36	5919
2026-01-13 16:24:57.64	26.12	16.76	-31.5	-32.2	26.3	0.00e+00	0	29	0	935329792	36	5839
2026-01-13 16:24:58.65	26.17	16.87	-31.6	-32.2	26.3	0.00e+00	0	29	0	940572672	36	5871
2026-01-13 16:24:59.66	26.22	16.99	-31.5	-32.1	26.4	0.00e+00	0	29	0	946864128	36	5814
2026-01-13 16:25:00.67	26.26	17.10	-31.5	-32.1	26.4	0.00e+00	0	29	0	952107008	36	5818
2026-01-13 16:25:01.68	26.31	17.21	-31.3	-32.0	26.5	0.00e+00	0	29	0	957349888	36	5707
2026-01-13 16:25:02.68	26.36	17.33	-31.2	-31.9	26.6	0.00e+00	0	29	0	963641344	36	5655
2026-01-13 16:25:03.70	26.41	17.45	-31.2	-31.9	26.6	0.00e+00	0	29	0	968884224	36	5651
2026-01-13 16:25:04.71	26.45	17.56	-31.2	-31.8	26.6	0.00e+00	0	29	0	975175680	36	5619
2026-01-13 16:25:05.71	26.50	17.68	-31.2	-31.8	26.7	0.00e+00	0	29	0	980418560	36	5625
2026-01-13 16:25:06.73	26.55	17.80	-31.3	-31.9	26.6	0.00e+00	0	29	0	985661440	36	5675
2026-01-13 16:25:07.73	26.60	17.91	-31.0	-31.6	26.7	0.00e+00	0	29	0	991952896	36	5492
2026-01-13 16:25:08.74	26.65	18.03	-31.1	-31.7	26.8	0.00e+00	0	29	0	997195776	36	5548
2026-01-13 16:25:09.75	26.70	18.15	-31.1	-31.8	26.7	0.00e+00	0	29	0	1003487232	36	5580
2026-01-13 16:25:10.76	26.75	18.27	-31.2	-31.8	26.7	0.00e+00	0	29	0	1008730112	36	5601
2026-01-13 16:25:11.77	26.80	18.39	-31.1	-31.7	26.8	0.00e+00	0	29	0	1015021568	36	5544
2026-01-13 16:25:12.78	26.85	18.51	-31.2	-31.8	26.7	0.00e+00	0	29	0	1020264448	36	5621
2026-01-13 16:25:13.79	26.91	18.63	-31.0	-31.6	26.9	0.00e+00	0	29	0	1025507328	36	5501
2026-01-13 16:25:14.80	26.96	18.76	-31.1	-31.7	26.8	0.00e+00	0	29	0	1031798784	36	5526
2026-01-13 16:25:15.81	27.01	18.88	-30.8	-31.4	27.0	0.00e+00	0	29	0	1037041664	36	5367
2026-01-13 16:25:16.82	27.06	19.00	-30.8	-31.4	27.0	0.00e+00	0	29	0	1043333120	36	5375
2026-01-13 16:25:17.83	27.12	19.12	-30.7	-31.3	27.1	0.00e+00	0	29	0	1048576000	34	5963
2026-01-13 16:25:18.84	27.17	19.25	-30.7	-31.3	27.1	0.00e+00	0	29	0	1053818880	34	5940
2026-01-13 16:25:19.85	27.22	19.37	-30.7	-31.3	27.1	0.00e+00	0	29	0	1060110336	34	5952
2026-01-13 16:25:20.86	27.28	19.50	-30.7	-31.3	27.2	0.00e+00	0	29	0	1065353216	34	5921
2026-01-13 16:25:21.87	27.33	19.63	-30.7	-31.3	27.1	0.00e+00	0	29	0	1071644672	34	5955
2026-01-13 16:25:22.88	27.39	19.75	-30.9	-31.5	27.0	0.00e+00	0	29	0	1076887552	34	6061
2026-01-13 16:25:23.88	27.44	19.88	-30.5	-31.1	27.2	0.00e+00	0	29	0	1082130432	34	5813
2026-01-13 16:25:24.89	27.50	20.01	-30.6	-31.3	27.2	0.00e+00	0	29	0	1088421888	34	5901
2026-01-13 16:25:25.90	27.56	20.14	-30.8	-31.4	27.0	0.00e+00	0	29	0	1093664768	34	5989
2026-01-13 16:25:26.91	27.61	20.27	-30.5	-31.2	27.2	0.00e+00	0	29	0	1099956224	34	5833
2026-01-13 16:25:27.92	27.67	20.40	-30.6	-31.2	27.2	0.00e+00	0	29	0	1105199104	34	5848
2026-01-13 16:25:28.93	27.73	20.53	-30.4	-31.0	27.3	0.00e+00	0	29	0	1111490560	34	5744
2026-01-13 16:25:29.94	27.79	20.66	-30.4	-31.0	27.3	0.00e+00	0	29	0	1116733440	34	5741
2026-01-13 16:25:30.95	27.85	20.79	-30.4	-31.1	27.3	0.00e+00	0	29	0	1123024896	34	5768
2026-01-13 16:25:31.96	27.90	20.92	-30.4	-31.0	27.3	0.00e+00	0	29	0	1128267776	34	5759
2026-01-13 16:25:32.97	27.96	21.06	-30.5	-31.1	27.3	0.00e+00	0	29	0	1133510656	34	5799
2026-01-13 16:25:33.98	28.02	21.19	-30.4	-31.0	27.4	0.00e+00	0	29	0	1139802112	34	5752
2026-01-13 16:25:34.99	28.09	21.32	-30.4	-31.0	27.3	0.00e+00	0	29	0	1145044992	34	5722
2026-01-13 16:25:36.00	28.15	21.46	-30.4	-31.0	27.3	0.00e+00	0	29	0	1151336448	34	5710
2026-01-13 16:25:37.01	28.21	21.60	-30.4	-31.1	27.4	0.00e+00	0	29	0	1156579328	34	5785
2026-01-13 16:25:38.02	28.27	21.73	-30.6	-31.2	27.2	0.00e+00	0	29	0	1161822208	34	5871
2026-01-13 16:25:39.03	28.33	21.87	-30.5	-31.2	27.3	0.00e+00	0	29	0	1168113664	34	5864
2026-01-13 16:25:40.04	28.40	22.01	-30.3	-30.9	27.4	0.00e+00	0	29	0	1173356544	34	5649
2026-01-13 16:25:41.05	28.46	22.15	-30.4	-31.1	27.4	0.00e+00	0	29	0	1179648000	34	5763
2026-01-13 16:25:42.06	28.52	22.29	-30.2	-30.8	27.6	0.00e+00	0	29	0	1184890880	34	5592
2026-01-13 16:25:43.07	28.59	22.43	-30.3	-30.9	27.5	0.00e+00	0	29	0	1190133760	34	5679
2026-01-13 16:25:44.08	28.65	22.57	-30.2	-30.8	27.5	0.00e+00	0	29	0	1196425216	34	5614
2026-01-13 16:25:45.09	28.72	22.71	-30.0	-30.7	27.6	0.00e+00	0	29	0	1201668096	34	5508
2026-01-13 16:25:46.10	28.79	22.85	-30.0	-30.6	27.7	0.00e+00	0	29	0	1207959552	34	5500
2026-01-13 16:25:47.11	28.85	23.00	-30.0	-30.6	27.7	0.00e+00	0	29	0	1213202432	34	5461
2026-01-13 16:25:48.12	28.92	23.14	-29.7	-30.4	27.8	0.00e+00	0	29	0	1219493888	34	5329
2026-01-13 16:25:49.12	28.99	23.29	-29.9	-30.5	27.8	0.00e+00	0	29	0	1224736768	32	6082
2026-01-13 16:25:50.14	29.06	23.43	-29.8	-30.4	27.9	0.00e+00	0	29	0	1229979648	32	6016
2026-01-13 16:25:51.14	29.13	23.58	-29.8	-30.4	27.9	0.00e+00	0	29	0	1236271104	32	6013
2026-01-13 16:25:52.15	29.20	23.73	-29.8	-30.4	27.9	0.00e+00	0	30	0	1241513984	32	6008
2026-01-13 16:25:53.16	29.27	23.87	-29.9	-30.5	27.8	0.00e+00	0	29	0	1247805440	32	6046
2026-01-13 16:25:54.17	29.34	24.02	-29.9	-30.5	27.8	0.00e+00	0	29	0	1253048320	32	6096
2026-01-13 16:25:55.18	29.41	24.17	-30.0	-30.6	27.7	0.00e+00	0	29	0	1258291200	32	6169
2026-01-13 16:25:56.19	29.48	24.32	-29.9	-30.5	27.7	0.00e+00	0	30	0	1264582656	32	6101
2026-01-13 16:25:57.20	29.56	24.48	-30.0	-30.6	27.7	0.00e+00	0	29	0	1269825536	32	6160
2026-01-13 16:25:58.21	29.63	24.63	-30.1	-30.8	27.6	0.00e+00	0	29	0	1276116992	32	6254
2026-01-13 16:25:59.22	29.71	24.78	-30.3	-30.9	27.5	0.00e+00	0	30	0	1281359872	32	6353
2026-01-13 16:26:00.23	29.78	24.93	-30.1	-30.7	27.6	0.00e+00	0	29	0	1286602752	32	6212
2026-01-13 16:26:01.24	29.86	25.09	-29.9	-30.6	27.8	0.00e+00	0	30	0	1292894208	32	6109
2026-01-13 16:26:02.25	29.93	25.25	-30.0	-30.7	27.7	0.00e+00	0	30	0	1298137088	32	6181
2026-01-13 16:26:03.26	30.01	25.40	-30.1	-30.7	27.6	0.00e+00	0	29	0	1304428544	32	6242
2026-01-13 16:26:04.27	30.09	25.56	-30.1	-30.8	27.6	0.00e+00	0	30	0	1309671424	32	6258
2026-01-13 16:26:05.28	30.17	25.72	-29.8	-30.5	27.9	0.00e+00	0	30	0	1315962880	32	6037
2026-01-13 16:26:06.29	30.25	25.88	-29.8	-30.4	27.8	0.00e+00	0	30	0	1321205760	32	6022
2026-01-13 16:26:07.30	30.33	26.04	-29.9	-30.6	27.8	0.00e+00	0	30	0	1327497216	32	6106
2026-01-13 16:26:08.30	30.41	26.20	-29.8	-30.5	27.8	0.00e+00	0	30	0	1332740096	32	6039
2026-01-13 16:26:09.32	30.49	26.36	-29.6	-30.3	28.0	0.00e+00	0	30	0	1337982976	32	5908
2026-01-13 16:26:10.32	30.57	26.52	-29.7	-30.3	28.0	0.00e+00	0	30	0	1344274432	32	5914
2026-01-13 16:26:11.33	30.66	26.69	-29.6	-30.2	28.0	0.00e+00	0	30	0	1349517312	32	5886
2026-01-13 16:26:12.34	30.74	26.85	-29.6	-30.2	28.0	0.00e+00	0	30	0	1355808768	32	5881
2026-01-13 16:26:13.35	30.83	27.02	-29.7	-30.3	27.9	0.00e+00	0	30	0	1361051648	32	5925
2026-01-13 16:26:14.36	30.91	27.18	-29.7	-30.3	27.9	0.00e+00	0	30	0	1366294528	32	5944
2026-01-13 16:26:15.37	31.00	27.35	-29.5	-30.1	28.1	0.00e+00	0	30	0	1372585984	32	5802
2026-01-13 16:26:16.38	31.09	27.52	-29.6	-30.2	28.1	0.00e+00	0	30	0	1377828864	32	5839
2026-01-13 16:26:17.39	31.18	27.69	-29.4	-30.0	28.2	0.00e+00	0	30	0	1383071744	32	5733
2026-01-13 16:26:18.40	31.27	27.86	-29.4	-30.0	28.2	0.00e+00	0	30	0	1389363200	32	5730
2026-01-13 16:26:19.41	31.36	28.03	-29.3	-29.9	28.2	0.00e+00	0	30	0	1394606080	32	5663
2026-01-13 16:26:20.42	31.45	28.21	-29.3	-29.9	28.3	0.00e+00	0	29	0	1400897536	32	5672
2026-01-13 16:26:21.43	31.54	28.38	-29.4	-30.1	28.1	0.00e+00	0	30	0	1406140416	32	5776
2026-01-13 16:26:22.44	31.63	28.55	-29.4	-30.0	28.2	0.00e+00	0	30	0	1412431872	32	5722
2026-01-13 16:26:23.44	31.73	28.73	-29.5	-30.1	28.1	0.00e+00	0	30	0	1417674752	32	5821
2026-01-13 16:26:24.45	31.82	28.91	-29.7	-30.4	28.0	0.00e+00	0	30	0	1423966208	32	5978
2026-01-13 16:26:25.47	31.92	29.08	-29.7	-30.4	27.9	0.00e+00	0	30	0	1429209088	32	5966
2026-01-13 16:26:26.48	32.02	29.26	-29.9	-30.5	27.9	0.00e+00	0	30	0	1434451968	32	6072
2026-01-13 16:26:27.49	32.11	29.44	-29.8	-30.4	27.7	0.00e+00	0	30	0	1440743424	32	6033
2026-01-13 16:26:28.50	32.21	29.63	-29.8	-30.4	27.8	0.00e+00	0	30	0	1445986304	32	6030
2026-01-13 16:26:29.51	32.31	29.81	-29.8	-30.4	27.9	0.00e+00	0	30	0	1452277760	32	6005
2026-01-13 16:26:30.52	32.42	29.99	-29.7	-30.3	28.0	0.00e+00	0	30	0	1457520640	32	5944
2026-01-13 16:26:31.53	32.52	30.17	-29.6	-30.2	28.0	0.00e+00	0	30	0	1462763520	32	5844
2026-01-13 16:26:32.53	32.62	30.36	-29.6	-30.2	28.2	0.00e+00	0	30	0	1469054976	32	5853
2026-01-13 16:26:33.54	32.73	30.54	-29.5	-30.1	28.2	0.00e+00	0	30	0	1474297856	32	5789
2026-01-13 16:26:34.55	32.83	30.73	-29.7	-30.3	28.0	0.00e+00	0	30	0	1480589312	32	5910
2026-01-13 16:26:35.56	32.94	30.92	-29.5	-30.1	28.1	0.00e+00	0	30	0	1485832192	32	5782
2026-01-13 16:26:36.57	33.05	31.11	-29.6	-30.2	28.1	0.00e+00	0	30	0	1491075072	32	5870
2026-01-13 16:26:37.58	33.16	31.30	-29.7	-30.3	28.0	0.00e+00	0	30	0	1497366528	32	5912
2026-01-13 16:26:38.59	33.27	31.49	-29.5	-30.2	28.1	0.00e+00	0	30	0	1502609408	32	5852
2026-01-13 16:26:39.60	33.38	31.69	-29.6	-30.2	28.2	0.00e+00	0	30	0	1508900864	32	5870
2026-01-13 16:26:40.61	33.50	31.88	-29.4	-30.0	28.2	0.00e+00	0	30	0	1514143744	32	5745
2026-01-13 16:26:41.62	33.61	32.08	-29.5	-30.1	28.2	0.00e+00	0	30	0	1520435200	32	5813
2026-01-13 16:26:42.63	33.73	32.28	-29.4	-30.1	28.2	0.00e+00	0	30	0	1525678080	32	5762
2026-01-13 16:26:43.64	33.85	32.47	-29.4	-30.0	28.2	0.00e+00	0	30	0	1530920960	32	5755
2026-01-13 16:26:44.65	33.96	32.67	-29.4	-30.1	28.1	0.00e+00	0	30	0	1537212416	32	5768
2026-01-13 16:26:45.66	34.08	32.87	-29.5	-30.1	28.2	0.00e+00	0	30	0	1542455296	32	5796
2026-01-13 16:26:46.67	34.21	33.07	-29.2	-29.9	28.4	0.00e+00	0	30	0	1548746752	32	5637
2026-01-13 16:26:47.68	34.33	33.28	-29.4	-30.1	28.3	0.00e+00	0	30	0	1553989632	32	5775
2026-01-13 16:26:48.68	34.45	33.48	-29.2	-29.8	28.4	0.00e+00	0	30	0	1559232512	32	5589
2026-01-13 16:26:49.69	34.58	33.69	-29.1	-29.7	28.5	0.00e+00	0	30	0	1565523968	32	5521
2026-01-13 16:26:50.70	34.71	33.89	-29.1	-29.7	28.5	0.00e+00	0	30	0	1570766848	32	5526
2026-01-13 16:26:51.71	34.84	34.10	-29.0	-29.7	28.5	0.00e+00	0	30	0	1577058304	32	5508
2026-01-13 16:26:52.72	34.97	34.31	-29.1	-29.8	28.4	0.00e+00	0	30	0	1582301184	32	5568
2026-01-13 16:26:53.73	35.10	34.52	-29.2	-29.9	28.4	0.00e+00	0	30	0	1587544064	32	5643
2026-01-13 16:26:54.74	35.24	34.73	-29.4	-30.0	28.2	0.00e+00	0	30	0	1593835520	32	5761
2026-01-13 16:26:55.75	35.37	34.94	-29.3	-29.9	28.3	0.00e+00	0	30	0	1599078400	32	5692
2026-01-13 16:26:56.76	35.51	35.16	-29.3	-29.9	28.4	0.00e+00	0	30	0	1605369856	32	5667
2026-01-13 16:26:57.77	35.65	35.37	-29.2	-29.8	28.4	0.00e+00	0	30	0	1610612736	32	5612
2026-01-13 16:26:58.77	35.79	35.59	-29.0	-29.6	28.5	0.00e+00	0	30	0	1616904192	32	5486
2026-01-13 16:26:59.78	35.93	35.81	-29.1	-29.7	28.5	0.00e+00	0	30	0	1622147072	32	5508
2026-01-13 16:27:00.79	36.08	36.03	-29.0	-29.6	28.6	0.00e+00	0	30	0	1628438528	32	5448
2026-01-13 16:27:01.80	36.23	36.25	-29.0	-29.6	28.5	0.00e+00	0	30	0	1633681408	32	5487
2026-01-13 16:27:02.81	36.38	36.47	-28.9	-29.5	28.6	0.00e+00	0	30	0	1638924288	32	5429
2026-01-13 16:27:03.82	36.53	36.69	-28.9	-29.5	28.6	0.00e+00	0	30	0	1645215744	32	5430
2026-01-13 16:27:04.82	36.68	36.91	-28.8	-29.4	28.7	0.00e+00	0	30	0	1650458624	32	5330
2026-01-13 16:27:05.83	36.83	37.14	-28.9	-29.6	28.6	0.00e+00	0	30	0	1655701504	32	5441
2026-01-13 16:27:06.84	36.99	37.37	-28.7	-29.4	28.7	0.00e+00	0	30	0	1661992960	30	5976
2026-01-13 16:27:07.85	37.15	37.60	-28.9	-29.5	28.6	0.00e+00	0	30	0	1667235840	30	6038
2026-01-13 16:27:08.86	37.31	37.83	-28.9	-29.5	28.6	0.00e+00	0	30	0	1673527296	30	6091
2026-01-13 16:27:09.87	37.48	38.06	-29.0	-29.6	28.6	0.00e+00	0	30	0	1678770176	30	6156
2026-01-13 16:27:10.88	37.64	38.29	-29.1	-29.8	28.5	0.00e+00	0	30	0	1684013056	30	6268
2026-01-13 16:27:11.89	37.81	38.52	-29.2	-29.9	28.3	0.00e+00	0	30	0	1690304512	30	6342
2026-01-13 16:27:12.90	37.98	38.76	-29.3	-29.9	28.4	0.00e+00	0	30	0	1695547392	30	6362
2026-01-13 16:27:13.91	38.15	39.00	-29.3	-29.9	28.5	0.00e+00	0	30	0	1701838848	30	6358
2026-01-13 16:27:14.92	38.33	39.23	-29.1	-29.7	28.5	0.00e+00	0	30	0	1707081728	30	6200
2026-01-13 16:27:15.93	38.51	39.47	-29.0	-29.6	28.6	0.00e+00	0	30	0	1713373184	30	6162
2026-01-13 16:27:16.94	38.69	39.72	-28.8	-29.4	28.7	0.00e+00	0	30	0	1718616064	30	6015
2026-01-13 16:27:17.95	38.87	39.96	-28.8	-29.4	28.7	0.00e+00	0	30	0	1724907520	30	6001
2026-01-13 16:27:18.96	39.06	40.20	-28.9	-29.5	28.6	0.00e+00	0	30	0	1730150400	30	6052
2026-01-13 16:27:19.97	39.25	40.45	-28.8	-29.4	28.7	0.00e+00	0	30	0	1735393280	30	6023
2026-01-13 16:27:20.98	39.44	40.69	-28.9	-29.5	28.6	0.00e+00	0	30	0	1741684736	30	6102
2026-01-13 16:27:21.98	39.63	40.94	-29.0	-29.6	28.6	0.00e+00	0	30	0	1746927616	30	6126
2026-01-13 16:27:23.00	39.83	41.19	-29.3	-29.9	28.4	0.00e+00	0	30	0	1753219072	30	6373
2026-01-13 16:27:24.00	40.03	41.44	-29.3	-29.9	28.4	0.00e+00	0	30	0	1758461952	30	6362
2026-01-13 16:27:25.01	40.23	41.69	-29.3	-29.9	28.4	0.00e+00	0	30	0	1763704832	30	6358
2026-01-13 16:27:26.02	40.44	41.94	-29.2	-29.9	28.4	0.00e+00	0	30	0	1769996288	30	6336
2026-01-13 16:27:27.03	40.65	42.20	-29.4	-30.1	28.2	0.00e+00	0	30	0	1775239168	30	6479
2026-01-13 16:27:28.04	40.87	42.45	-29.6	-30.2	28.2	0.00e+00	0	30	0	1781530624	30	6570
2026-01-13 16:27:29.05	41.08	42.71	-29.3	-29.9	28.4	0.00e+00	0	30	0	1786773504	30	6358
2026-01-13 16:27:30.06	41.30	42.97	-29.2	-29.8	28.4	0.00e+00	0	30	0	1792016384	30	6287
2026-01-13 16:27:31.07	41.53	43.23	-29.3	-29.8	28.4	0.00e+00	0	30	0	1798307840	30	6314
2026-01-13 16:27:32.08	41.75	43.49	-29.3	-29.9	28.3	0.00e+00	0	30	0	1803550720	30	6362
2026-01-13 16:27:33.09	41.98	43.75	-29.3	-30.0	28.3	0.00e+00	0	30	0	1809842176	30	6401
2026-01-13 16:27:34.10	42.22	44.02	-29.5	-30.1	28.2	0.00e+00	0	30	0	1815085056	30	6537
2026-01-13 16:27:35.11	42.46	44.28	-29.4	-30.1	28.2	0.00e+00	0	30	0	1821376512	30	6506
2026-01-13 16:27:36.12	42.70	44.55	-29.7	-30.3	28.2	0.00e+00	0	30	0	1826619392	30	6632
2026-01-13 16:27:37.13	42.95	44.82	-29.4	-30.0	28.2	0.00e+00	0	30	0	1831862272	30	6450
2026-01-13 16:27:38.14	43.20	45.08	-29.4	-30.0	28.3	0.00e+00	0	30	0	1838153728	30	6438
2026-01-13 16:27:39.15	43.45	45.35	-29.4	-30.0	28.3	0.00e+00	0	30	0	1843396608	30	6422
2026-01-13 16:27:40.16	43.71	45.63	-29.4	-30.0	28.4	0.00e+00	0	30	0	1849688064	30	6420
2026-01-13 16:27:41.17	43.98	45.90	-29.2	-29.8	28.5	0.00e+00	0	30	0	1854930944	30	6306
2026-01-13 16:27:42.18	44.24	46.17	-29.2	-29.9	28.4	0.00e+00	0	30	0	1860173824	30	6332
2026-01-13 16:27:43.19	44.52	46.45	-29.5	-30.1	28.2	0.00e+00	0	30	0	1866465280	30	6533
2026-01-13 16:27:44.20	44.79	46.72	-29.8	-30.4	28.0	0.00e+00	0	30	0	1871708160	32	6017
2026-01-13 16:27:45.21	45.08	47.00	-29.7	-30.3	28.0	0.00e+00	0	30	0	1877999616	32	5963
2026-01-13 16:27:46.21	45.36	47.28	-29.5	-30.1	28.2	0.00e+00	0	30	0	1883242496	32	5813
2026-01-13 16:27:47.22	45.65	47.55	-29.5	-30.1	28.2	0.00e+00	0	30	0	1888485376	32	5768
2026-01-13 16:27:48.23	45.95	47.84	-29.6	-30.2	28.1	0.00e+00	0	30	0	1894776832	32	5883
2026-01-13 16:27:49.23	46.25	48.11	-29.4	-30.0	28.3	0.00e+00	0	30	0	1900019712	32	5733
2026-01-13 16:27:50.24	46.56	48.40	-29.5	-30.1	28.1	0.00e+00	0	30	0	1906311168	32	5809
2026-01-13 16:27:51.25	46.87	48.68	-29.7	-30.3	28.1	0.00e+00	0	30	0	1911554048	32	5905
2026-01-13 16:27:52.26	47.19	48.96	-29.5	-30.2	28.1	0.00e+00	0	30	0	1917845504	32	5852
2026-01-13 16:27:53.27	47.52	49.25	-29.8	-30.4	27.9	0.00e+00	0	30	0	1923088384	32	6005
2026-01-13 16:27:54.28	47.85	49.54	-29.8	-30.5	27.9	0.00e+00	0	30	0	1928331264	32	6042
2026-01-13 16:27:55.29	48.19	49.82	-29.7	-30.3	28.1	0.00e+00	0	30	0	1934622720	32	5944
2026-01-13 16:27:56.30	48.53	50.11	-29.7	-30.3	28.0	0.00e+00	0	30	0	1939865600	32	5922
2026-01-13 16:27:57.31	48.89	50.40	-29.8	-30.4	28.0	0.00e+00	0	30	0	1946157056	32	6024
2026-01-13 16:27:58.32	49.24	50.69	-29.9	-30.5	28.0	0.00e+00	0	30	0	1951399936	32	6072
2026-01-13 16:27:59.33	49.61	50.98	-29.9	-30.5	27.8	0.00e+00	0	30	0	1956642816	32	6096
2026-01-13 16:28:00.34	49.98	51.27	-30.0	-30.6	27.9	0.00e+00	0	30	0	1962934272	32	6143
2026-01-13 16:28:01.35	50.36	51.56	-30.0	-30.6	27.8	0.00e+00	0	30	0	1968177152	32	6119
2026-01-13 16:28:02.35	50.74	51.85	-30.0	-30.6	27.9	0.00e+00	0	30	0	1974468608	32	6132
2026-01-13 16:28:03.36	51.13	52.14	-29.9	-30.6	27.9	0.00e+00	0	30	0	1979711488	32	6128
2026-01-13 16:28:04.37	51.54	52.43	-29.6	-30.2	28.1	0.00e+00	0	30	0	1984954368	32	5887
2026-01-13 16:28:05.38	51.95	52.72	-29.8	-30.4	28.1	0.00e+00	0	30	0	1991245824	32	5972
2026-01-13 16:28:06.39	52.36	53.02	-30.0	-30.6	27.8	0.00e+00	0	30	0	1996488704	32	6113
2026-01-13 16:28:07.40	52.79	53.31	-30.1	-30.8	27.7	0.00e+00	0	30	0	2002780160	32	6271
2026-01-13 16:28:08.41	53.22	53.60	-30.3	-30.9	27.5	0.00e+00	0	30	0	2008023040	32	6363
2026-01-13 16:28:09.42	53.67	53.89	-30.6	-31.2	27.4	0.00e+00	0	30	0	2014314496	32	6590
2026-01-13 16:28:10.43	54.12	54.19	-30.6	-31.3	27.2	0.00e+00	0	30	0	2019557376	32	6642
2026-01-13 16:28:11.44	54.58	54.48	-30.8	-31.4	27.1	0.00e+00	0	30	0	2024800256	34	6030
2026-01-13 16:28:12.45	55.05	54.77	-30.7	-31.3	27.1	0.00e+00	0	30	0	2031091712	34	5964
2026-01-13 16:28:13.46	55.53	55.07	-30.4	-31.0	27.3	0.00e+00	0	30	0	2036334592	34	5739
2026-01-13 16:28:14.47	56.02	55.36	-30.4	-31.1	27.6	0.00e+00	0	30	0	2042626048	34	5764
2026-01-13 16:28:15.48	56.52	55.65	-30.3	-30.9	27.5	0.00e+00	0	30	0	2047868928	34	5676
2026-01-13 16:28:16.49	57.04	55.94	-30.4	-31.0	27.5	0.00e+00	0	30	0	2053111808	34	5727
2026-01-13 16:28:17.50	57.56	56.23	-30.4	-31.0	27.6	0.00e+00	0	30	0	2059403264	34	5739
2026-01-13 16:28:18.51	58.09	56.52	-30.3	-30.9	27.5	0.00e+00	0	30	0	2064646144	34	5683
2026-01-13 16:28:19.52	58.63	56.81	-30.1	-30.7	27.7	0.00e+00	0	30	0	2070937600	34	5555
2026-01-13 16:28:20.53	59.19	57.10	-30.2	-30.8	27.7	0.00e+00	0	30	0	2076180480	34	5624
2026-01-13 16:28:21.54	59.76	57.38	-30.1	-30.8	27.8	0.00e+00	0	30	0	2082471936	34	5584
2026-01-13 16:28:22.55	60.34	57.67	-29.8	-30.4	28.0	0.00e+00	0	30	0	2087714816	34	5368
2026-01-13 16:28:23.56	60.93	57.95	-29.8	-30.4	28.0	0.00e+00	0	30	0	2092957696	34	5341
2026-01-13 16:28:24.57	61.53	58.24	-30.0	-30.6	27.8	0.00e+00	0	30	0	2099249152	34	5493
2026-01-13 16:28:25.58	62.15	58.52	-30.1	-30.7	27.8	0.00e+00	0	30	0	2104492032	34	5562
2026-01-13 16:28:26.59	62.78	58.80	-30.1	-30.7	27.7	0.00e+00	0	30	0	2110783488	34	5538
2026-01-13 16:28:27.60	63.42	59.07	-30.0	-30.7	27.8	0.00e+00	0	30	0	2116026368	34	5512
2026-01-13 16:28:28.61	64.08	59.35	-29.9	-30.5	27.9	0.00e+00	0	30	0	2122317824	34	5398
2026-01-13 16:28:29.62	64.75	59.62	-29.5	-30.1	28.3	0.00e+00	0	30	0	2127560704	32	5795
2026-01-13 16:28:30.63	65.43	59.89	-29.5	-30.2	28.2	0.00e+00	0	30	0	2132803584	32	5829
2026-01-13 16:28:31.64	66.13	60.16	-29.7	-30.3	28.1	0.00e+00	0	30	0	2139095040	32	5923
2026-01-13 16:28:32.65	66.85	60.42	-29.5	-30.1	28.2	0.00e+00	0	30	0	2144337920	32	5784
2026-01-13 16:28:33.66	67.57	60.69	-29.4	-30.0	28.3	0.00e+00	0	30	0	2150629376	32	5756
2026-01-13 16:28:34.67	68.32	60.95	-29.1	-29.7	28.6	0.00e+00	0	30	0	2155872256	32	5503
2026-01-13 16:28:35.67	69.07	61.20	-29.2	-29.8	28.4	0.00e+00	0	30	0	2161115136	32	5582
2026-01-13 16:28:36.68	69.84	61.45	-29.3	-30.0	28.4	0.00e+00	0	30	0	2167406592	32	5703
2026-01-13 16:28:37.69	70.63	61.70	-29.0	-29.6	28.6	0.00e+00	0	30	0	2172649472	32	5501
2026-01-13 16:28:38.69	71.43	61.94	-28.9	-29.5	28.6	0.00e+00	0	30	0	2178940928	32	5424
2026-01-13 16:28:39.71	72.26	62.19	-28.9	-29.5	28.6	0.00e+00	0	30	0	2184183808	32	5426
2026-01-13 16:28:40.72	73.10	62.43	-28.7	-29.3	28.8	0.00e+00	0	30	0	2189426688	30	5905
2026-01-13 16:28:41.73	73.95	62.66	-28.8	-29.4	28.8	0.00e+00	0	30	0	2195718144	30	6033
2026-01-13 16:28:42.73	74.82	62.88	-29.2	-29.8	28.5	0.00e+00	0	30	0	2200961024	30	6271
2026-01-13 16:28:43.74	75.70	63.11	-28.9	-29.6	28.6	0.00e+00	0	30	0	2207252480	30	6128
2026-01-13 16:28:44.75	76.61	63.33	-28.9	-29.5	28.7	0.00e+00	0	30	0	2212495360	30	6064
2026-01-13 16:28:45.76	77.53	63.54	-28.8	-29.3	28.8	0.00e+00	0	30	0	2218786816	30	5964
2026-01-13 16:28:46.77	78.46	63.75	-28.8	-29.4	28.7	0.00e+00	0	30	0	2224029696	30	6001
2026-01-13 16:28:47.78	79.42	63.95	-29.0	-29.6	28.6	0.00e+00	0	30	0	2229272576	30	6114
2026-01-13 16:28:48.79	80.39	64.14	-28.9	-29.5	28.6	0.00e+00	0	30	0	2235564032	30	6102
2026-01-13 16:28:49.80	81.37	64.33	-28.7	-29.3	28.7	0.00e+00	0	30	0	2240806912	30	5923
2026-01-13 16:28:50.81	82.38	64.52	-29.0	-29.6	28.6	0.00e+00	0	30	0	2247098368	30	6139
2026-01-13 16:28:51.82	83.40	64.69	-29.0	-29.7	28.5	0.00e+00	0	30	0	2252341248	30	6186
2026-01-13 16:28:52.83	84.43	64.86	-28.9	-29.5	28.6	0.00e+00	0	30	0	2257584128	30	6100
2026-01-13 16:28:53.84	85.48	65.03	-28.7	-29.3	28.9	0.00e+00	0	30	0	2263875584	30	5953
2026-01-13 16:28:54.85	86.54	65.18	-29.3	-30.0	28.5	0.00e+00	0	30	0	2269118464	30	6432
2026-01-13 16:28:55.86	87.62	65.33	-28.8	-29.4	28.7	0.00e+00	0	30	0	2275409920	30	5995
2026-01-13 16:28:56.86	88.70	65.47	-28.9	-29.5	28.7	0.00e+00	0	30	0	2280652800	30	6086
2026-01-13 16:28:57.87	89.81	65.60	-29.1	-29.8	28.5	0.00e+00	0	30	0	2285895680	30	6251
2026-01-13 16:28:58.88	90.93	65.73	-29.0	-29.7	28.6	0.00e+00	0	30	0	2292187136	30	6196
2026-01-13 16:28:59.89	92.06	65.84	-29.2	-29.7	28.6	0.00e+00	0	30	0	2297430016	30	6237
2026-01-13 16:29:00.90	93.20	65.95	-29.1	-29.7	28.5	0.00e+00	0	30	0	2303721472	30	6235
2026-01-13 16:29:01.91	94.36	66.05	-29.2	-29.9	28.5	0.00e+00	0	30	0	2308964352	30	6319
2026-01-13 16:29:02.92	95.52	66.14	-29.2	-29.8	28.5	0.00e+00	0	30	0	2315255808	30	6300
2026-01-13 16:29:03.93	96.70	66.22	-29.1	-29.7	28.5	0.00e+00	0	30	0	2320498688	30	6222
2026-01-13 16:29:04.94	97.88	66.30	-28.8	-29.5	28.7	0.00e+00	0	30	0	2325741568	30	6054
2026-01-13 16:29:05.94	99.06	66.36	-28.8	-29.4	28.6	0.00e+00	0	30	0	2332033024	30	5993
2026-01-13 16:29:06.95	100.25	66.42	-28.6	-29.2	28.9	0.00e+00	0	30	0	2337275904	30	5848
2026-01-13 16:29:07.96	101.45	66.46	-28.4	-29.0	29.0	0.00e+00	0	30	0	2343567360	30	5740
2026-01-13 16:29:08.97	102.66	66.50	-28.6	-29.3	28.8	0.00e+00	0	30	0	2348810240	30	5910
2026-01-13 16:29:09.98	103.87	66.52	-28.8	-29.4	28.8	0.00e+00	0	30	0	2354053120	30	5965
2026-01-13 16:29:10.99	105.08	66.54	-28.9	-29.6	28.7	0.00e+00	0	30	0	2360344576	30	6118
2026-01-13 16:29:11.99	106.29	66.55	-28.9	-29.5	28.7	0.00e+00	0	30	0	2365587456	30	6091
2026-01-13 16:29:13.00	107.50	66.55	-28.5	-29.1	28.9	0.00e+00	0	30	0	2371878912	30	5799
2026-01-13 16:29:14.01	108.71	66.54	-28.5	-29.1	28.9	0.00e+00	0	30	0	2377121792	30	5804
2026-01-13 16:29:15.02	109.93	66.52	-28.8	-29.4	28.7	0.00e+00	0	30	0	2382364672	30	5996
2026-01-13 16:29:16.03	111.13	66.49	-28.9	-29.5	28.6	0.00e+00	0	30	0	2388656128	30	6091
2026-01-13 16:29:17.04	112.34	66.45	-28.8	-29.5	28.6	0.00e+00	0	30	0	2393899008	30	6072
2026-01-13 16:29:18.05	113.54	66.40	-28.9	-29.5	28.6	0.00e+00	0	30	0	2400190464	30	6075
2026-01-13 16:29:19.06	114.74	66.34	-28.7	-29.3	28.6	0.00e+00	0	30	0	2405433344	30	5936
2026-01-13 16:29:20.07	115.92	66.27	-28.7	-29.3	28.7	0.00e+00	0	30	0	2411724800	30	5900
2026-01-13 16:29:21.08	117.10	66.20	-28.6	-29.3	28.6	0.00e+00	0	30	0	2416967680	30	5898
2026-01-13 16:29:22.09	118.27	66.11	-28.7	-29.2	28.7	0.00e+00	0	30	0	2423259136	30	5895
2026-01-13 16:29:23.10	119.44	66.02	-28.9	-29.5	28.5	0.00e+00	0	30	0	2428502016	30	6091
2026-01-13 16:29:24.11	120.59	65.91	-29.1	-29.7	28.4	0.00e+00	0	30	0	2433744896	30	6245
2026-01-13 16:29:25.12	121.73	65.80	-28.7	-29.4	28.8	0.00e+00	0	30	0	2440036352	30	5979
2026-01-13 16:29:26.13	122.85	65.68	-28.6	-29.2	28.9	0.00e+00	0	30	0	2445279232	30	5852
2026-01-13 16:29:27.13	123.96	65.56	-29.0	-29.7	28.5	0.00e+00	0	30	0	2450522112	30	6184
2026-01-13 16:29:28.14	125.06	65.42	-29.1	-29.7	28.6	0.00e+00	0	30	0	2456813568	30	6194
2026-01-13 16:29:29.15	126.15	65.28	-28.8	-29.3	28.8	0.00e+00	0	30	0	2462056448	30	5943
2026-01-13 16:29:30.16	127.23	65.13	-28.9	-29.4	28.6	0.00e+00	0	30	0	2468347904	30	6032
2026-01-13 16:29:31.17	128.29	64.97	-29.3	-29.9	28.3	0.00e+00	0	30	0	2473590784	30	6376
2026-01-13 16:29:32.18	129.33	64.80	-29.0	-29.6	28.4	0.00e+00	0	30	0	2478833664	30	6138
2026-01-13 16:29:33.19	130.36	64.63	-29.2	-29.8	28.5	0.00e+00	0	30	0	2485125120	30	6266
2026-01-13 16:29:34.20	131.37	64.45	-29.1	-29.6	28.5	0.00e+00	0	30	0	2490368000	30	6169
2026-01-13 16:29:35.21	132.37	64.27	-29.0	-29.6	28.6	0.00e+00	0	30	0	2496659456	30	6131
2026-01-13 16:29:36.22	133.35	64.07	-29.0	-29.6	28.5	0.00e+00	0	30	0	2501902336	30	6119
2026-01-13 16:29:37.23	134.32	63.88	-29.1	-29.7	28.5	0.00e+00	0	30	0	2508193792	30	6238
2026-01-13 16:29:38.24	135.27	63.67	-29.0	-29.5	28.5	0.00e+00	0	30	0	2513436672	30	6103
2026-01-13 16:29:39.24	136.19	63.46	-28.9	-29.6	28.5	0.00e+00	0	30	0	2519728128	30	6121
2026-01-13 16:29:40.25	137.11	63.25	-28.9	-29.5	28.6	0.00e+00	0	30	0	2524971008	30	6075
2026-01-13 16:29:41.26	138.01	63.03	-28.7	-29.4	28.6	0.00e+00	0	30	0	2530213888	30	6000
2026-01-13 16:29:42.27	138.89	62.80	-28.8	-29.4	28.6	0.00e+00	0	30	0	2536505344	30	5967
2026-01-13 16:29:43.28	139.75	62.57	-28.8	-29.5	28.5	0.00e+00	0	30	0	2541748224	30	6073
2026-01-13 16:29:44.29	140.60	62.34	-29.0	-29.5	28.5	0.00e+00	0	30	0	2548039680	30	6102
2026-01-13 16:29:45.30	141.44	62.10	-29.1	-29.8	28.4	0.00e+00	0	30	0	2553282560	30	6264
2026-01-13 16:29:46.31	142.25	61.86	-29.0	-29.6	28.5	0.00e+00	0	30	0	2558525440	30	6159
2026-01-13 16:29:47.32	143.06	61.61	-28.7	-29.3	28.7	0.00e+00	0	30	0	2564816896	30	5936
2026-01-13 16:29:48.33	143.84	61.36	-28.9	-29.4	28.6	0.00e+00	0	30	0	2570059776	30	5998
2026-01-13 16:29:49.34	144.61	61.10	-29.2	-29.8	28.4	0.00e+00	0	30	0	2576351232	30	6276
2026-01-13 16:29:50.35	145.37	60.84	-29.2	-29.8	28.4	0.00e+00	0	30	0	2581594112	30	6266
2026-01-13 16:29:51.36	146.10	60.58	-29.3	-30.0	28.4	0.00e+00	0	30	0	2586836992	30	6392
2026-01-13 16:29:52.36	146.82	60.32	-29.2	-29.9	28.4	0.00e+00	0	30	0	2593128448	30	6346
2026-01-13 16:29:53.37	147.53	60.05	-29.1	-29.7	28.6	0.00e+00	0	30	0	2598371328	30	6205
2026-01-13 16:29:54.39	148.23	59.78	-29.2	-29.7	28.3	0.00e+00	0	30	0	2604662784	30	6222
2026-01-13 16:29:55.40	148.91	59.51	-29.7	-30.4	28.0	0.00e+00	0	30	0	2609905664	30	6693
2026-01-13 16:29:56.41	149.58	59.24	-29.9	-30.6	27.8	0.00e+00	0	30	0	2616197120	32	6134
2026-01-13 16:29:57.42	150.23	58.96	-30.0	-30.6	27.9	0.00e+00	0	30	0	2621440000	32	6131
2026-01-13 16:29:58.42	150.86	58.68	-29.9	-30.6	27.9	0.00e+00	0	30	0	2626682880	32	6165
2026-01-13 16:29:59.43	151.49	58.40	-29.7	-30.3	28.0	0.00e+00	0	30	0	2632974336	32	5911
2026-01-13 16:30:00.44	152.10	58.12	-29.6	-30.2	28.1	0.00e+00	0	30	0	2638217216	32	5838
2026-01-13 16:30:01.45	152.70	57.84	-29.7	-30.3	28.0	0.00e+00	0	30	0	2644508672	32	5950
2026-01-13 16:30:02.46	153.29	57.55	-29.8	-30.5	28.0	0.00e+00	0	30	0	2649751552	32	6047
2026-01-13 16:30:03.47	153.87	57.26	-29.9	-30.6	27.9	0.00e+00	0	30	0	2654994432	32	6152
2026-01-13 16:30:04.48	154.43	56.98	-29.9	-30.5	27.9	0.00e+00	0	30	0	2661285888	32	6080
2026-01-13 16:30:05.49	154.98	56.69	-29.9	-30.6	27.9	0.00e+00	0	30	0	2666528768	32	6134
2026-01-13 16:30:06.50	155.52	56.40	-30.1	-30.6	27.7	0.00e+00	0	30	0	2672820224	32	6144
2026-01-13 16:30:07.51	156.05	56.11	-30.3	-31.1	27.5	0.00e+00	0	30	0	2678063104	32	6472
2026-01-13 16:30:08.52	156.57	55.82	-30.3	-31.1	27.6	0.00e+00	0	30	0	2683305984	32	6472
2026-01-13 16:30:09.53	157.08	55.52	-30.2	-30.9	27.7	0.00e+00	0	30	0	2689597440	32	6327
2026-01-13 16:30:10.54	157.58	55.23	-30.1	-30.7	27.7	0.00e+00	0	30	0	2694840320	32	6243
2026-01-13 16:30:11.55	158.07	54.94	-30.1	-30.6	27.7	0.00e+00	0	30	0	2701131776	32	6166
2026-01-13 16:30:12.55	158.54	54.65	-30.2	-30.8	27.7	0.00e+00	0	30	0	2706374656	32	6269
2026-01-13 16:30:13.56	159.01	54.35	-30.6	-31.3	27.4	0.00e+00	0	30	0	2712666112	32	6641
2026-01-13 16:30:14.57	159.47	54.06	-30.5	-31.0	27.4	0.00e+00	0	30	0	2717908992	32	6457
2026-01-13 16:30:15.58	159.92	53.77	-30.3	-30.9	27.6	0.00e+00	0	30	0	2723151872	32	6331
2026-01-13 16:30:16.59	160.36	53.47	-29.9	-30.6	27.8	0.00e+00	0	30	0	2729443328	32	6158
2026-01-13 16:30:17.60	160.79	53.18	-29.8	-30.4	27.9	0.00e+00	0	30	0	2734686208	32	5969
2026-01-13 16:30:18.61	161.21	52.88	-30.1	-30.8	27.7	0.00e+00	0	30	0	2740977664	32	6270
2026-01-13 16:30:19.62	161.63	52.59	-30.1	-30.7	27.7	0.00e+00	0	30	0	2746220544	32	6188
2026-01-13 16:30:20.63	162.03	52.30	-29.9	-30.5	27.9	0.00e+00	0	30	0	2751463424	32	6067
2026-01-13 16:30:21.64	162.43	52.00	-29.8	-30.5	27.9	0.00e+00	0	30	0	2757754880	32	6091
2026-01-13 16:30:22.65	162.82	51.71	-29.7	-30.3	28.0	0.00e+00	0	30	0	2762997760	32	5905
2026-01-13 16:30:23.66	163.21	51.42	-29.9	-30.4	27.8	0.00e+00	0	30	0	2769289216	32	6024
2026-01-13 16:30:24.67	163.58	51.13	-30.0	-30.7	27.8	0.00e+00	0	30	0	2774532096	32	6190
2026-01-13 16:30:25.68	163.95	50.84	-30.1	-30.8	27.7	0.00e+00	0	30	0	2779774976	32	6269
2026-01-13 16:30:26.69	164.32	50.55	-30.1	-30.7	27.7	0.00e+00	0	30	0	2786066432	32	6223
2026-01-13 16:30:27.70	164.67	50.26	-29.7	-30.3	27.9	0.00e+00	0	30	0	2791309312	32	5903
2026-01-13 16:30:28.71	165.02	49.97	-29.7	-30.3	28.0	0.00e+00	0	30	0	2797600768	32	5957
2026-01-13 16:30:29.72	165.36	49.68	-29.7	-30.2	27.8	0.00e+00	0	30	0	2802843648	32	5871
2026-01-13 16:30:30.73	165.70	49.39	-29.6	-30.3	27.7	0.00e+00	0	30	0	2809135104	32	5926
2026-01-13 16:30:31.74	166.03	49.10	-29.5	-30.0	28.0	0.00e+00	0	30	0	2814377984	32	5759
2026-01-13 16:30:32.75	166.35	48.82	-29.2	-29.9	27.6	0.00e+00	0	30	0	2820669440	32	5671
2026-01-13 16:30:33.76	166.67	48.53	-29.2	-29.9	27.9	0.00e+00	0	30	0	2825912320	32	5679
2026-01-13 16:30:34.77	166.98	48.25	-29.1	-29.6	28.0	0.00e+00	0	30	0	2831155200	32	5477
2026-01-13 16:30:35.78	167.29	47.97	-29.3	-29.9	28.2	0.00e+00	0	30	0	2837446656	32	5632
2026-01-13 16:30:36.79	167.59	47.68	-29.4	-30.1	28.1	0.00e+00	0	30	0	2842689536	32	5826
2026-01-13 16:30:37.80	167.89	47.40	-29.6	-30.3	27.9	0.00e+00	0	30	0	2848980992	32	5950
2026-01-13 16:30:38.81	168.18	47.12	-29.5	-30.2	28.1	0.00e+00	0	30	0	2854223872	32	5876
2026-01-13 16:30:39.82	168.47	46.84	-29.5	-30.1	28.1	0.00e+00	0	30	0	2859466752	32	5784
2026-01-13 16:30:40.82	168.74	46.57	-29.4	-30.1	28.1	0.00e+00	0	30	0	2865758208	32	5800
2026-01-13 16:30:41.83	169.02	46.29	-29.4	-30.1	28.3	0.00e+00	0	30	0	2871001088	32	5801
2026-01-13 16:30:42.84	169.29	46.02	-29.4	-30.1	28.3	0.00e+00	0	30	0	2876243968	32	5794
2026-01-13 16:30:43.85	169.56	45.74	-29.3	-29.9	28.3	0.00e+00	0	30	0	2882535424	32	5674
2026-01-13 16:30:44.86	169.82	45.47	-29.2	-29.9	28.4	0.00e+00	0	30	0	2887778304	32	5667
2026-01-13 16:30:45.87	170.08	45.20	-29.0	-29.6	28.5	0.00e+00	0	30	0	2894069760	32	5452
2026-01-13 16:30:46.88	170.33	44.93	-29.0	-29.5	28.5	0.00e+00	0	29	0	2899312640	32	5436
2026-01-13 16:30:47.89	170.58	44.66	-29.1	-29.8	28.4	0.00e+00	0	30	0	2905604096	32	5609
2026-01-13 16:30:48.90	170.82	44.39	-29.3	-29.8	28.3	0.00e+00	0	30	0	2910846976	32	5603
2026-01-13 16:30:49.91	171.07	44.12	-29.3	-29.9	28.3	0.00e+00	0	29	0	2917138432	32	5638
2026-01-13 16:30:50.92	171.30	43.86	-29.2	-29.8	28.3	0.00e+00	0	30	0	2922381312	32	5603
2026-01-13 16:30:51.93	171.54	43.59	-29.3	-29.9	28.3	0.00e+00	0	30	0	2927624192	32	5647
2026-01-13 16:30:52.94	171.77	43.33	-29.1	-29.8	28.4	0.00e+00	0	30	0	2933915648	32	5583
2026-01-13 16:30:53.95	171.99	43.07	-29.0	-29.5	28.5	0.00e+00	0	30	0	2939158528	32	5420
2026-01-13 16:30:54.96	172.21	42.81	-29.2	-29.8	28.5	0.00e+00	0	30	0	2945449984	32	5615
2026-01-13 16:30:55.97	172.43	42.55	-29.1	-29.8	28.4	0.00e+00	0	30	0	2950692864	32	5620
2026-01-13 16:30:56.98	172.65	42.29	-29.1	-29.8	28.4	0.00e+00	0	29	0	2955935744	32	5598
2026-01-13 16:30:57.99	172.86	42.03	-29.1	-29.8	28.5	0.00e+00	0	30	0	2962227200	32	5602
2026-01-13 16:30:59.00	173.07	41.78	-29.1	-29.6	28.4	0.00e+00	0	30	0	2967470080	32	5491
2026-01-13 16:31:00.01	173.28	41.52	-29.0	-29.6	28.4	0.00e+00	0	30	0	2973761536	32	5453
2026-01-13 16:31:01.01	173.48	41.27	-29.1	-29.6	28.4	0.00e+00	0	29	0	2979004416	32	5460
2026-01-13 16:31:02.02	173.68	41.02	-28.7	-29.4	28.8	0.00e+00	0	30	0	2984247296	30	5971
2026-01-13 16:31:03.04	173.87	40.77	-28.7	-29.3	28.6	0.00e+00	0	30	0	2990538752	30	5903
2026-01-13 16:31:04.04	174.07	40.53	-28.8	-29.5	28.7	0.00e+00	0	30	0	2995781632	30	6045
2026-01-13 16:31:05.05	174.26	40.28	-28.9	-29.4	28.6	0.00e+00	0	30	0	3002073088	30	6003
2026-01-13 16:31:06.06	174.45	40.03	-28.9	-29.6	28.6	0.00e+00	0	30	0	3007315968	30	6126
2026-01-13 16:31:07.07	174.63	39.79	-29.1	-29.6	28.4	0.00e+00	0	29	0	3013607424	30	6170
2026-01-13 16:31:08.08	174.81	39.55	-29.1	-29.8	28.4	0.00e+00	0	30	0	3018850304	30	6276
2026-01-13 16:31:09.09	174.99	39.31	-28.9	-29.5	28.6	0.00e+00	0	30	0	3025141760	30	6072
2026-01-13 16:31:10.10	175.17	39.07	-28.9	-29.5	28.5	0.00e+00	0	29	0	3030384640	30	6053
2026-01-13 16:31:11.11	175.34	38.83	-28.9	-29.6	28.6	0.00e+00	0	30	0	3035627520	30	6115
2026-01-13 16:31:12.12	175.52	38.59	-29.0	-29.5	28.5	0.00e+00	0	29	0	3041918976	30	6086
2026-01-13 16:31:13.13	175.69	38.35	-29.1	-29.6	28.5	0.00e+00	0	30	0	3047161856	30	6172
2026-01-13 16:31:14.14	175.85	38.12	-29.1	-29.7	28.4	0.00e+00	0	29	0	3053453312	30	6184
2026-01-13 16:31:15.15	176.02	37.89	-29.1	-29.8	28.4	0.00e+00	0	29	0	3058696192	30	6277
2026-01-13 16:31:16.16	176.18	37.65	-28.8	-29.4	28.6	0.00e+00	0	29	0	3063939072	30	6025
2026-01-13 16:31:17.17	176.34	37.42	-28.8	-29.5	28.7	0.00e+00	0	30	0	3070230528	30	6053
2026-01-13 16:31:18.18	176.50	37.20	-28.8	-29.4	28.7	0.00e+00	0	29	0	3075473408	30	5967
2026-01-13 16:31:19.19	176.66	36.97	-28.7	-29.2	28.8	0.00e+00	0	29	0	3080716288	30	5891
2026-01-13 16:31:20.20	176.81	36.74	-28.4	-28.9	28.9	0.00e+00	0	29	0	3087007744	30	5689
2026-01-13 16:31:21.21	176.96	36.52	-28.3	-28.9	28.9	0.00e+00	0	29	0	3092250624	30	5644
2026-01-13 16:31:22.22	177.11	36.29	-28.6	-29.1	28.8	0.00e+00	0	29	0	3098542080	30	5785
2026-01-13 16:31:23.23	177.26	36.07	-28.4	-28.9	28.8	0.00e+00	0	29	0	3103784960	30	5669
2026-01-13 16:31:24.24	177.41	35.85	-28.5	-29.0	28.8	0.00e+00	0	29	0	3110076416	30	5723
2026-01-13 16:31:25.25	177.55	35.63	-28.5	-29.1	28.9	0.00e+00	0	29	0	3115319296	30	5762
2026-01-13 16:31:26.26	177.70	35.41	-28.6	-29.3	28.8	0.00e+00	0	29	0	3121610752	30	5926
2026-01-13 16:31:27.27	177.84	35.19	-28.6	-29.3	28.8	0.00e+00	0	29	0	3126853632	30	5917
2026-01-13 16:31:28.28	177.98	34.98	-28.6	-29.1	28.7	0.00e+00	0	29	0	3132096512	30	5791
2026-01-13 16:31:29.29	178.11	34.76	-28.8	-29.3	28.8	0.00e+00	0	29	0	3138387968	30	5926
2026-01-13 16:31:30.30	178.25	34.55	-28.6	-29.1	28.7	0.00e+00	0	29	0	3143630848	30	5792
2026-01-13 16:31:31.31	178.38	34.34	-28.5	-29.0	28.9	0.00e+00	0	29	0	3149922304	30	5757
2026-01-13 16:31:32.31	178.51	34.13	-28.7	-29.2	28.8	0.00e+00	0	29	0	3155165184	30	5854
2026-01-13 16:31:33.32	178.64	33.92	-28.6	-29.3	28.7	0.00e+00	0	29	0	3160408064	30	5923
2026-01-13 16:31:34.33	178.77	33.71	-28.7	-29.2	28.7	0.00e+00	0	29	0	3166699520	30	5868
2026-01-13 16:31:35.34	178.90	33.51	-28.8	-29.4	28.7	0.00e+00	0	29	0	3171942400	30	5985
2026-01-13 16:31:36.35	179.02	33.30	-29.0	-29.5	28.5	0.00e+00	0	29	0	3178233856	30	6076
2026-01-13 16:31:37.36	179.15	33.09	-29.1	-29.7	28.4	0.00e+00	0	29	0	3183476736	30	6182
2026-01-13 16:31:38.37	179.27	32.89	-29.2	-29.8	28.3	0.00e+00	0	29	0	3188719616	30	6263
2026-01-13 16:31:39.38	179.39	32.69	-29.3	-29.9	28.2	0.00e+00	0	29	0	3195011072	30	6367
2026-01-13 16:31:40.39	179.51	32.49	-29.2	-29.9	28.4	0.00e+00	0	29	0	3200253952	30	6360
2026-01-13 16:31:41.40	179.63	32.29	-29.2	-29.9	28.4	0.00e+00	0	29	0	3206545408	30	6370
2026-01-13 16:31:42.41	179.75	32.09	-29.2	-29.7	28.3	0.00e+00	0	29	0	3211788288	30	6224
2026-01-13 16:31:43.42	179.86	31.89	-29.0	-29.6	28.5	0.00e+00	0	29	0	3218079744	30	6116
2026-01-13 16:31:44.43	179.98	31.70	-29.1	-29.7	28.4	0.00e+00	0	29	0	3223322624	30	6177
2026-01-13 16:31:45.44	180.09	31.50	-29.2	-29.9	28.3	0.00e+00	0	29	0	3228565504	30	6327
2026-01-13 16:31:46.45	180.20	31.31	-28.9	-29.5	28.5	0.00e+00	0	29	0	3234856960	30	6040
2026-01-13 16:31:47.46	180.31	31.12	-28.9	-29.4	28.5	0.00e+00	0	29	0	3240099840	30	6033
2026-01-13 16:31:48.47	180.42	30.93	-28.7	-29.2	28.8	0.00e+00	0	29	0	3246391296	30	5840
2026-01-13 16:31:49.48	180.53	30.74	-28.8	-29.3	28.6	0.00e+00	0	29	0	3251634176	30	5957
2026-01-13 16:31:50.49	180.64	30.55	-28.9	-29.4	28.6	0.00e+00	0	29	0	3256877056	30	5986
2026-01-13 16:31:51.50	180.74	30.36	-28.9	-29.4	28.5	0.00e+00	0	29	0	3263168512	30	6027
2026-01-13 16:31:52.51	180.84	30.17	-28.9	-29.5	28.5	0.00e+00	0	29	0	3268411392	30	6036
2026-01-13 16:31:53.52	180.95	29.99	-29.1	-29.6	28.5	0.00e+00	0	29	0	3274702848	30	6163
2026-01-13 16:31:54.52	181.05	29.80	-29.2	-29.9	28.3	0.00e+00	0	29	0	3279945728	30	6322
2026-01-13 16:31:55.53	181.15	29.62	-29.2	-29.9	28.3	0.00e+00	0	29	0	3285188608	30	6350
2026-01-13 16:31:56.54	181.25	29.44	-29.1	-29.7	28.4	0.00e+00	0	29	0	3291480064	30	6187
2026-01-13 16:31:57.56	181.35	29.25	-29.2	-29.7	28.3	0.00e+00	0	30	0	3296722944	30	6234
2026-01-13 16:31:58.56	181.45	29.08	-29.2	-29.8	28.3	0.00e+00	0	29	0	3303014400	30	6265
2026-01-13 16:31:59.57	181.54	28.90	-29.2	-29.8	28.3	0.00e+00	0	29	0	3308257280	30	6261
2026-01-13 16:32:00.58	181.64	28.72	-29.1	-29.7	28.4	0.00e+00	0	29	0	3314548736	30	6175
2026-01-13 16:32:01.59	181.73	28.54	-28.9	-29.5	28.5	0.00e+00	0	29	0	3319791616	30	6040
2026-01-13 16:32:02.60	181.83	28.37	-28.9	-29.5	28.6	0.00e+00	0	29	0	3326083072	30	6039
2026-01-13 16:32:03.61	181.92	28.19	-29.0	-29.5	28.5	0.00e+00	0	29	0	3331325952	30	6088
2026-01-13 16:32:04.62	182.01	28.02	-29.0	-29.6	28.4	0.00e+00	0	29	0	3336568832	30	6118
2026-01-13 16:32:05.63	182.10	27.84	-29.0	-29.6	28.5	0.00e+00	0	29	0	3342860288	30	6113
2026-01-13 16:32:06.63	182.19	27.67	-29.2	-29.7	28.3	0.00e+00	0	29	0	3348103168	30	6208
2026-01-13 16:32:07.64	182.28	27.50	-29.2	-29.7	28.3	0.00e+00	0	29	0	3354394624	30	6229
2026-01-13 16:32:08.65	182.37	27.33	-29.2	-29.8	28.2	0.00e+00	0	29	0	3359637504	30	6273
2026-01-13 16:32:09.66	182.45	27.16	-29.3	-29.8	28.3	0.00e+00	0	29	0	3364880384	30	6289
2026-01-13 16:32:10.67	182.54	27.00	-29.3	-29.8	28.3	0.00e+00	0	29	0	3371171840	30	6293
2026-01-13 16:32:11.69	182.63	26.83	-29.3	-30.0	28.2	0.00e+00	0	29	0	3376414720	30	6424
2026-01-13 16:32:12.69	182.71	26.66	-29.3	-30.0	28.2	0.00e+00	0	29	0	3382706176	30	6403
2026-01-13 16:32:13.70	182.79	26.50	-29.4	-29.9	28.2	0.00e+00	0	29	0	3387949056	30	6367
2026-01-13 16:32:14.72	182.88	26.33	-29.3	-29.8	28.2	0.00e+00	0	29	0	3393191936	30	6296
2026-01-13 16:32:15.73	182.96	26.17	-29.4	-29.9	28.1	0.00e+00	0	29	0	3399483392	30	6370
2026-01-13 16:32:16.74	183.04	26.01	-29.3	-30.0	28.1	0.00e+00	0	29	0	3404726272	30	6399
2026-01-13 16:32:17.74	183.12	25.85	-29.0	-29.7	28.4	0.00e+00	0	29	0	3411017728	30	6207
2026-01-13 16:32:18.75	183.20	25.69	-29.1	-29.7	28.3	0.00e+00	0	29	0	3416260608	30	6175
2026-01-13 16:32:19.76	183.28	25.53	-29.1	-29.7	28.3	0.00e+00	0	29	0	3422552064	30	6182
2026-01-13 16:32:20.77	183.36	25.37	-29.1	-29.6	28.2	0.00e+00	0	29	0	3427794944	30	6169
2026-01-13 16:32:21.78	183.44	25.21	-29.1	-29.6	28.4	0.00e+00	0	29	0	3433037824	30	6133
2026-01-13 16:32:22.79	183.51	25.05	-29.2	-29.8	28.2	0.00e+00	0	29	0	3439329280	30	6257
2026-01-13 16:32:23.80	183.59	24.90	-29.3	-29.8	28.2	0.00e+00	0	29	0	3444572160	30	6303
2026-01-13 16:32:24.81	183.66	24.74	-29.5	-30.0	28.1	0.00e+00	0	29	0	3450863616	30	6425
2026-01-13 16:32:25.82	183.74	24.59	-29.3	-29.9	28.2	0.00e+00	0	29	0	3456106496	30	6336
2026-01-13 16:32:26.82	183.81	24.44	-29.4	-30.0	28.0	0.00e+00	0	29	0	3461349376	30	6409
2026-01-13 16:32:27.84	183.88	24.28	-29.5	-30.1	28.0	0.00e+00	0	29	0	3467640832	30	6505
2026-01-13 16:32:28.85	183.96	24.13	-29.6	-30.1	28.0	0.00e+00	0	29	0	3472883712	30	6518
2026-01-13 16:32:29.86	184.03	23.98	-29.6	-30.1	28.0	0.00e+00	0	29	0	3479175168	30	6532
2026-01-13 16:32:30.86	184.10	23.83	-29.7	-30.3	27.9	0.00e+00	0	29	0	3484418048	30	6623
2026-01-13 16:32:31.87	184.17	23.68	-29.8	-30.3	27.8	0.00e+00	0	29	0	3489660928	32	5946
2026-01-13 16:32:32.88	184.24	23.53	-29.8	-30.3	27.8	0.00e+00	0	29	0	3495952384	32	5948
2026-01-13 16:32:33.89	184.31	23.38	-29.9	-30.4	27.7	0.00e+00	0	29	0	3501195264	32	6026
2026-01-13 16:32:34.90	184.38	23.24	-29.9	-30.4	27.8	0.00e+00	0	29	0	3507486720	32	6021
2026-01-13 16:32:35.91	184.45	23.09	-30.0	-30.6	27.7	0.00e+00	0	29	0	3512729600	32	6104
2026-01-13 16:32:36.92	184.51	22.95	-30.1	-30.8	27.7	0.00e+00	0	29	0	3519021056	32	6262
2026-01-13 16:32:37.93	184.58	22.80	-29.8	-30.5	27.8	0.00e+00	0	29	0	3524263936	32	6049
2026-01-13 16:32:38.94	184.65	22.66	-29.9	-30.6	27.8	0.00e+00	0	29	0	3529506816	32	6125
2026-01-13 16:32:39.95	184.71	22.52	-29.9	-30.5	27.6	0.00e+00	0	29	0	3535798272	32	6051
2026-01-13 16:32:40.96	184.78	22.37	-29.8	-30.4	27.8	0.00e+00	0	29	0	3541041152	32	5979
2026-01-13 16:32:41.97	184.84	22.23	-29.8	-30.5	27.8	0.00e+00	0	29	0	3547332608	32	6091
2026-01-13 16:32:42.97	184.91	22.09	-30.0	-30.7	27.6	0.00e+00	0	29	0	3552575488	32	6174
2026-01-13 16:32:43.98	184.97	21.95	-30.1	-30.8	27.6	0.00e+00	0	29	0	3557818368	32	6272
2026-01-13 16:32:44.99	185.03	21.81	-30.0	-30.7	27.7	0.00e+00	0	29	0	3564109824	32	6190
2026-01-13 16:32:46.00	185.10	21.68	-30.1	-30.8	27.6	0.00e+00	0	29	0	3569352704	32	6252
2026-01-13 16:32:47.01	185.16	21.54	-30.1	-30.8	27.6	0.00e+00	0	29	0	3575644160	32	6271
2026-01-13 16:32:48.02	185.22	21.40	-30.1	-30.8	27.5	0.00e+00	0	29	0	3580887040	32	6292
2026-01-13 16:32:49.03	185.28	21.26	-30.3	-30.8	27.4	0.00e+00	0	29	0	3586129920	32	6306
2026-01-13 16:32:50.04	185.34	21.13	-30.2	-30.8	27.4	0.00e+00	0	29	0	3592421376	32	6259
2026-01-13 16:32:51.05	185.40	20.99	-30.3	-30.8	27.3	0.00e+00	0	29	0	3597664256	32	6299
2026-01-13 16:32:52.06	185.46	20.86	-30.2	-30.8	27.4	0.00e+00	0	29	0	3603955712	32	6252
2026-01-13 16:32:53.07	185.52	20.73	-30.4	-30.9	27.3	0.00e+00	0	29	0	3609198592	32	6375
2026-01-13 16:32:54.08	185.58	20.59	-30.3	-30.9	27.3	0.00e+00	0	29	0	3615490048	32	6366
2026-01-13 16:32:55.09	185.64	20.46	-30.4	-31.0	27.2	0.00e+00	0	29	0	3620732928	32	6440
2026-01-13 16:32:56.10	185.69	20.33	-30.4	-30.9	27.3	0.00e+00	0	29	0	3627024384	32	6380
2026-01-13 16:32:57.11	185.75	20.20	-30.4	-30.9	27.3	0.00e+00	0	29	0	3632267264	32	6375
2026-01-13 16:32:58.12	185.81	20.07	-30.5	-31.1	27.2	0.00e+00	0	29	0	3637510144	32	6491
2026-01-13 16:32:59.13	185.86	19.94	-30.5	-31.0	27.1	0.00e+00	0	29	0	3643801600	32	6456
2026-01-13 16:33:00.13	185.92	19.81	-30.6	-31.2	27.0	0.00e+00	0	29	0	3649044480	32	6578
2026-01-13 16:33:01.14	185.98	19.68	-30.5	-31.1	27.2	0.00e+00	0	29	0	3655335936	32	6467
