passes_logs/2026/01/13/R4.6S_Anadyr/R4.6S_Anadyr__20260113_010650_NOAA_21_JPSS-2_rec.log

#Pass ID: 20260113_010650_NOAA 21 (JPSS-2)
#Satellite: NOAA 21 (JPSS-2)
#Configuration: NOAA-21
#almurnet v.1.7.20251203
#Start time: 2026-01-13 01:06:51

#Version: 2.2.20231116
#Station: R4.6S_Anadyr
#Location: 177.4865 lon 64.73178 lat
#TLE: 1 54234U 22150A   26012.26378519  .00000063  00000+0  50547-4 0  9993
#TLE: 2 54234  98.7495 313.1967 0000726 309.1075  51.0036 14.19534275164425

#Time	Az	El	Level	Level2	SNR	BER	BlckErr	Temp	State	Recorded	gain1	gain2
2026-01-13 01:06:51.55	178.95	0.09	-48.7	-63.6	3.5	1.51e+00	0	25	0	0	60	54661
2026-01-13 01:06:52.55	178.98	0.14	-48.9	-61.7	3.5	1.52e+00	0	26	104	0	60	42822
2026-01-13 01:06:53.56	179.02	0.20	-48.6	-61.6	3.5	1.51e+00	0	26	104	0	60	42325
2026-01-13 01:06:54.57	179.05	0.26	-48.8	-61.6	3.5	1.52e+00	0	26	104	0	60	42141
2026-01-13 01:06:55.59	179.08	0.32	-48.8	-61.6	3.5	1.52e+00	0	26	104	0	60	42223
2026-01-13 01:06:56.60	179.11	0.38	-48.8	-61.7	3.5	1.52e+00	0	26	104	0	60	42445
2026-01-13 01:06:57.60	179.14	0.44	-48.8	-61.6	3.5	1.52e+00	0	26	104	0	60	42276
2026-01-13 01:06:58.61	179.17	0.50	-48.8	-61.7	3.5	1.52e+00	0	26	104	0	60	42531
2026-01-13 01:06:59.62	179.20	0.56	-48.8	-61.6	3.5	1.52e+00	0	27	104	0	60	42293
2026-01-13 01:07:00.63	179.23	0.62	-48.8	-61.6	3.5	1.52e+00	0	27	104	0	60	42288
2026-01-13 01:07:01.64	179.26	0.68	-48.6	-61.6	3.5	1.52e+00	0	26	104	0	60	41979
2026-01-13 01:07:02.65	179.30	0.74	-48.7	-61.6	3.5	1.52e+00	0	27	104	0	60	41998
2026-01-13 01:07:03.67	179.33	0.80	-48.6	-61.4	3.5	1.52e+00	0	27	104	0	60	41248
2026-01-13 01:07:04.68	179.36	0.86	-48.4	-61.3	3.5	1.52e+00	0	27	104	0	60	40637
2026-01-13 01:07:05.69	179.39	0.93	-48.3	-61.1	3.5	1.52e+00	0	27	104	0	60	39961
2026-01-13 01:07:06.70	179.42	0.99	-48.0	-60.9	3.5	1.52e+00	0	27	104	0	60	39045
2026-01-13 01:07:07.71	179.46	1.05	-47.7	-60.5	3.5	1.52e+00	0	27	104	0	60	37134
2026-01-13 01:07:08.72	179.49	1.11	-47.5	-60.2	3.5	1.52e+00	0	27	104	0	60	35909
2026-01-13 01:07:09.72	179.52	1.17	-47.5	-60.3	3.5	1.52e+00	0	27	104	0	60	36259
2026-01-13 01:07:10.73	179.55	1.23	-47.5	-60.3	3.5	1.51e+00	0	27	104	0	60	36298
2026-01-13 01:07:11.74	179.59	1.29	-47.5	-60.2	3.5	1.52e+00	0	27	104	0	60	36107
2026-01-13 01:07:12.75	179.62	1.35	-47.5	-60.3	3.5	1.52e+00	0	27	104	0	60	36139
2026-01-13 01:07:13.76	179.65	1.42	-47.5	-60.3	3.5	1.52e+00	0	27	104	0	60	36229
2026-01-13 01:07:14.77	179.68	1.48	-47.5	-60.3	3.5	1.51e+00	0	27	104	0	60	36164
2026-01-13 01:07:15.78	179.72	1.54	-47.5	-60.3	3.5	1.52e+00	0	27	104	0	60	36292
2026-01-13 01:07:16.79	179.75	1.60	-47.4	-60.2	3.5	1.52e+00	0	27	104	0	60	35976
2026-01-13 01:07:17.80	179.78	1.66	-47.5	-60.2	3.5	1.52e+00	0	27	104	0	60	35773
2026-01-13 01:07:18.81	179.82	1.73	-47.4	-60.1	3.5	1.52e+00	0	27	104	0	60	35627
2026-01-13 01:07:19.82	179.85	1.79	-47.5	-60.2	3.5	1.52e+00	0	27	104	0	60	35743
2026-01-13 01:07:20.83	179.88	1.85	-47.5	-60.2	3.5	1.51e+00	0	27	104	0	60	35890
2026-01-13 01:07:21.84	179.92	1.91	-47.4	-60.2	3.5	1.52e+00	0	27	104	0	60	35799
2026-01-13 01:07:22.85	179.95	1.98	-47.4	-60.2	3.5	1.51e+00	0	27	104	0	60	35897
2026-01-13 01:07:23.86	179.99	2.04	-47.5	-60.2	3.5	1.52e+00	0	27	104	0	60	35900
2026-01-13 01:07:24.87	180.02	2.10	-47.4	-60.2	3.5	1.52e+00	0	27	104	0	60	35747
2026-01-13 01:07:25.88	180.06	2.17	-47.4	-60.2	3.5	1.52e+00	0	27	104	0	60	35892
2026-01-13 01:07:26.89	180.09	2.23	-47.4	-60.2	3.5	1.52e+00	0	27	104	0	60	36017
2026-01-13 01:07:27.90	180.12	2.29	-47.4	-60.2	3.5	1.52e+00	0	27	104	0	60	36006
2026-01-13 01:07:28.91	180.16	2.36	-47.4	-60.2	3.5	1.52e+00	0	27	104	0	60	35998
2026-01-13 01:07:29.92	180.19	2.42	-47.4	-60.1	3.5	1.51e+00	0	27	104	0	60	35361
2026-01-13 01:07:30.93	180.23	2.48	-47.4	-59.7	3.5	1.52e+00	0	27	104	0	60	33729
2026-01-13 01:07:31.94	180.26	2.55	-47.3	-59.0	3.5	1.52e+00	0	27	104	0	60	31141
2026-01-13 01:07:32.95	180.30	2.61	-47.3	-58.4	3.5	1.51e+00	0	27	104	0	60	29228
2026-01-13 01:07:33.96	180.34	2.68	-47.3	-58.2	3.5	1.51e+00	0	27	104	0	60	28475
2026-01-13 01:07:34.97	180.37	2.74	-47.3	-58.4	3.7	1.50e+00	0	27	104	0	60	29347
2026-01-13 01:07:35.98	180.41	2.80	-47.4	-59.3	3.5	1.51e+00	0	27	104	0	60	32217
2026-01-13 01:07:36.99	180.44	2.87	-47.4	-59.7	3.5	1.52e+00	0	27	104	0	60	34041
2026-01-13 01:07:37.99	180.48	2.93	-47.2	-58.0	3.8	1.51e+00	0	27	104	0	60	27795
2026-01-13 01:07:39.01	180.52	3.00	-46.5	-52.5	6.2	4.85e-01	123	27	0	1048576	60	14854
2026-01-13 01:07:40.01	180.55	3.06	-45.4	-49.5	9.8	3.51e-02	120	27	0	4194304	60	10428
2026-01-13 01:07:41.02	180.59	3.13	-43.9	-46.8	12.9	2.58e-04	123	27	0	7340032	60	7639
2026-01-13 01:07:42.03	180.62	3.19	-42.4	-44.5	15.1	0.00e+00	123	27	0	10485760	58	6631
2026-01-13 01:07:43.04	180.66	3.26	-41.1	-42.8	16.8	0.00e+00	120	27	0	13631488	56	6106
2026-01-13 01:07:44.05	180.70	3.33	-39.9	-41.4	18.1	0.00e+00	123	27	0	16777216	54	5822
2026-01-13 01:07:45.06	180.74	3.39	-38.9	-40.2	19.2	0.00e+00	123	27	0	19922944	52	5691
2026-01-13 01:07:46.07	180.77	3.46	-38.6	-39.9	19.4	0.00e+00	123	27	0	23068672	50	6172
2026-01-13 01:07:47.08	180.81	3.52	-38.4	-39.7	19.6	0.00e+00	120	27	0	26214400	50	6014
2026-01-13 01:07:48.09	180.85	3.59	-38.6	-39.8	19.5	0.00e+00	122	27	0	29360128	50	6128
2026-01-13 01:07:49.10	180.89	3.66	-39.1	-40.5	18.7	0.00e+00	122	27	0	32505856	50	6581
2026-01-13 01:07:50.11	180.92	3.72	-38.7	-40.0	19.0	0.00e+00	122	27	0	35651584	50	6258
2026-01-13 01:07:51.12	180.96	3.79	-42.3	-44.3	15.1	0.00e+00	123	27	0	38797312	56	7274
2026-01-13 01:07:52.13	181.00	3.86	-46.7	-54.0	4.2	0.00e+00	123	27	0	41943040	60	17496
2026-01-13 01:07:53.13	181.04	3.92	-47.2	-57.5	3.6	1.51e+00	0	27	104	41943040	60	26348
2026-01-13 01:07:54.14	181.08	3.99	-41.4	-43.2	16.2	0.00e+00	123	27	0	41943040	52	8000
2026-01-13 01:07:55.15	181.12	4.06	-41.0	-42.7	16.8	0.00e+00	122	27	0	45088768	56	6049
2026-01-13 01:07:56.16	181.15	4.13	-40.8	-42.4	17.3	0.00e+00	122	27	0	48234496	56	5799
2026-01-13 01:07:57.17	181.19	4.19	-40.7	-42.3	17.2	0.00e+00	122	27	0	51380224	56	5778
2026-01-13 01:07:58.18	181.23	4.26	-40.2	-41.7	17.5	0.00e+00	123	27	0	54525952	54	5998
2026-01-13 01:07:59.19	181.27	4.33	-40.5	-42.0	17.6	0.00e+00	123	27	0	57671680	54	6265
2026-01-13 01:08:00.20	181.31	4.40	-40.7	-42.3	17.6	0.00e+00	123	27	0	60817408	54	6440
2026-01-13 01:08:01.21	181.35	4.47	-40.7	-42.3	17.8	0.00e+00	123	27	0	63963136	54	6456
2026-01-13 01:08:02.22	181.39	4.54	-40.2	-41.7	18.3	0.00e+00	122	27	0	67108864	54	6018
2026-01-13 01:08:03.23	181.43	4.60	-40.1	-41.6	18.5	0.00e+00	123	27	0	70254592	54	5951
2026-01-13 01:08:04.24	181.47	4.67	-39.7	-41.1	18.7	0.00e+00	123	27	0	73400320	52	6328
2026-01-13 01:08:05.25	181.51	4.74	-39.0	-40.3	19.3	0.00e+00	122	27	0	76546048	52	5765
2026-01-13 01:08:06.26	181.55	4.81	-38.6	-39.9	19.5	0.00e+00	122	27	0	79691776	50	6139
2026-01-13 01:08:07.27	181.59	4.88	-37.9	-39.1	20.3	0.00e+00	123	27	0	82837504	50	5611
2026-01-13 01:08:08.28	181.63	4.95	-37.9	-39.1	20.4	0.00e+00	120	27	0	85983232	50	5637
2026-01-13 01:08:09.29	181.68	5.02	-37.8	-39.0	20.3	0.00e+00	122	27	0	89128960	48	6241
2026-01-13 01:08:10.29	181.72	5.09	-37.8	-39.0	20.4	0.00e+00	123	27	0	92274688	48	6252
2026-01-13 01:08:11.30	181.76	5.16	-37.7	-38.9	20.5	0.00e+00	123	27	0	95420416	48	6143
2026-01-13 01:08:12.31	181.80	5.23	-37.5	-38.6	20.7	0.00e+00	120	27	0	98566144	48	5990
2026-01-13 01:08:13.32	181.84	5.30	-37.4	-38.6	20.9	0.00e+00	123	27	0	101711872	48	5933
2026-01-13 01:08:14.33	181.88	5.37	-37.3	-38.4	20.9	0.00e+00	123	27	0	104857600	48	5828
2026-01-13 01:08:15.34	181.93	5.44	-37.2	-38.3	21.1	0.00e+00	123	27	0	108003328	48	5786
2026-01-13 01:08:16.36	181.97	5.51	-37.3	-38.4	21.1	0.00e+00	120	27	0	111149056	48	5802
2026-01-13 01:08:17.36	182.01	5.58	-37.2	-38.4	21.0	0.00e+00	122	27	0	114294784	48	5797
2026-01-13 01:08:18.37	182.05	5.66	-37.1	-38.2	21.1	0.00e+00	122	27	0	117440512	48	5688
2026-01-13 01:08:19.38	182.10	5.73	-37.4	-38.5	20.9	0.00e+00	123	27	0	120586240	48	5902
2026-01-13 01:08:20.39	182.14	5.80	-37.1	-38.2	21.2	0.00e+00	123	27	0	123731968	48	5686
2026-01-13 01:08:21.40	182.18	5.87	-37.1	-38.2	21.2	0.00e+00	122	27	0	126877696	48	5691
2026-01-13 01:08:22.41	182.23	5.94	-37.1	-38.2	21.3	0.00e+00	123	27	0	130023424	48	5719
2026-01-13 01:08:23.42	182.27	6.02	-37.3	-38.4	21.1	0.00e+00	120	27	0	133169152	48	5802
2026-01-13 01:08:24.43	182.31	6.09	-37.5	-38.6	20.9	0.00e+00	120	27	0	136314880	48	5983
2026-01-13 01:08:25.44	182.36	6.16	-37.3	-38.4	21.1	0.00e+00	123	27	0	139460608	48	5823
2026-01-13 01:08:26.45	182.40	6.23	-37.4	-38.5	21.1	0.00e+00	123	27	0	142606336	48	5863
2026-01-13 01:08:27.46	182.45	6.31	-37.4	-38.5	21.1	0.00e+00	122	27	0	145752064	48	5893
2026-01-13 01:08:28.47	182.49	6.38	-37.2	-38.3	21.2	0.00e+00	122	27	0	148897792	48	5789
2026-01-13 01:08:29.48	182.54	6.45	-37.3	-38.4	21.2	0.00e+00	123	27	0	152043520	48	5804
2026-01-13 01:08:30.49	182.58	6.53	-37.1	-38.2	21.2	0.00e+00	122	27	0	155189248	48	5719
2026-01-13 01:08:31.50	182.63	6.60	-36.9	-38.0	21.6	0.00e+00	122	27	0	158334976	48	5574
2026-01-13 01:08:32.51	182.67	6.67	-36.8	-37.9	21.6	0.00e+00	123	27	0	161480704	46	6145
2026-01-13 01:08:33.52	182.72	6.75	-36.9	-38.0	21.6	0.00e+00	123	27	0	164626432	46	6215
2026-01-13 01:08:34.53	182.76	6.82	-36.6	-37.7	21.7	0.00e+00	123	27	0	167772160	46	6015
2026-01-13 01:08:35.54	182.81	6.90	-36.7	-37.8	21.8	0.00e+00	122	27	0	170917888	46	6090
2026-01-13 01:08:36.55	182.86	6.97	-36.7	-37.7	21.8	0.00e+00	122	27	0	174063616	46	6031
2026-01-13 01:08:37.56	182.90	7.05	-36.6	-37.6	21.9	0.00e+00	123	27	0	177209344	46	5976
2026-01-13 01:08:38.57	182.95	7.12	-36.6	-37.6	21.9	0.00e+00	122	27	0	180355072	46	5952
2026-01-13 01:08:39.58	183.00	7.20	-36.5	-37.6	21.9	0.00e+00	122	27	0	183500800	46	5928
2026-01-13 01:08:40.59	183.05	7.27	-36.6	-37.7	21.8	0.00e+00	123	27	0	186646528	46	6009
2026-01-13 01:08:41.60	183.09	7.35	-36.4	-37.4	22.0	0.00e+00	122	27	0	189792256	46	5832
2026-01-13 01:08:42.61	183.14	7.43	-36.4	-37.4	22.1	0.00e+00	122	28	0	192937984	46	5827
2026-01-13 01:08:43.62	183.19	7.50	-36.4	-37.4	22.1	0.00e+00	123	27	0	196083712	46	5828
2026-01-13 01:08:44.63	183.24	7.58	-36.5	-37.5	22.0	0.00e+00	122	27	0	199229440	46	5922
2026-01-13 01:08:45.64	183.29	7.66	-36.3	-37.3	22.2	0.00e+00	123	27	0	202375168	46	5780
2026-01-13 01:08:46.65	183.34	7.73	-36.3	-37.3	22.1	0.00e+00	123	27	0	205520896	46	5764
2026-01-13 01:08:47.65	183.38	7.81	-36.3	-37.3	22.1	0.00e+00	123	27	0	208666624	46	5750
2026-01-13 01:08:48.67	183.43	7.89	-36.3	-37.3	22.2	0.00e+00	123	27	0	211812352	46	5777
2026-01-13 01:08:49.68	183.48	7.96	-36.3	-37.4	22.2	0.00e+00	122	27	0	214958080	46	5792
2026-01-13 01:08:50.69	183.53	8.04	-36.3	-37.4	22.0	0.00e+00	123	28	0	218103808	46	5799
2026-01-13 01:08:51.70	183.58	8.12	-36.2	-37.3	22.2	0.00e+00	123	27	0	221249536	46	5728
2026-01-13 01:08:52.71	183.63	8.20	-36.1	-37.1	22.4	0.00e+00	120	28	0	224395264	46	5620
2026-01-13 01:08:53.71	183.68	8.28	-36.0	-37.0	22.5	0.00e+00	123	27	0	227540992	46	5567
2026-01-13 01:08:54.72	183.73	8.35	-36.0	-37.0	22.4	0.00e+00	123	28	0	230686720	46	5567
2026-01-13 01:08:55.73	183.78	8.43	-36.1	-37.1	22.4	0.00e+00	123	28	0	233832448	46	5623
2026-01-13 01:08:56.74	183.84	8.51	-35.9	-36.9	22.5	0.00e+00	122	27	0	236978176	46	5522
2026-01-13 01:08:57.75	183.89	8.59	-35.9	-36.9	22.5	0.00e+00	120	27	0	240123904	46	5507
2026-01-13 01:08:58.76	183.94	8.67	-35.9	-36.9	22.6	0.00e+00	122	27	0	243269632	46	5472
2026-01-13 01:08:59.77	183.99	8.75	-36.0	-37.0	22.5	0.00e+00	122	27	0	246415360	46	5557
2026-01-13 01:09:00.78	184.04	8.83	-36.0	-37.0	22.5	0.00e+00	123	28	0	249561088	46	5547
2026-01-13 01:09:01.78	184.10	8.91	-35.8	-36.8	22.6	0.00e+00	123	27	0	252706816	46	5447
2026-01-13 01:09:02.79	184.15	8.99	-35.8	-36.8	22.7	0.00e+00	123	27	0	255852544	46	5410
2026-01-13 01:09:03.80	184.20	9.07	-35.8	-36.7	22.7	0.00e+00	123	27	0	258998272	46	5404
2026-01-13 01:09:04.81	184.26	9.15	-35.6	-36.7	22.7	0.00e+00	123	27	0	262144000	44	5996
2026-01-13 01:09:05.82	184.31	9.24	-35.6	-36.6	22.8	0.00e+00	123	27	0	265289728	44	5981
2026-01-13 01:09:06.83	184.36	9.32	-35.6	-36.6	22.8	0.00e+00	122	27	0	268435456	44	5969
2026-01-13 01:09:07.84	184.42	9.40	-35.7	-36.7	22.8	0.00e+00	122	28	0	271581184	44	6011
2026-01-13 01:09:08.85	184.47	9.48	-35.6	-36.6	22.9	0.00e+00	122	28	0	274726912	44	5965
2026-01-13 01:09:09.86	184.53	9.56	-35.6	-36.6	22.8	0.00e+00	123	27	0	277872640	44	5947
2026-01-13 01:09:10.87	184.58	9.65	-35.6	-36.5	22.9	0.00e+00	122	28	0	281018368	44	5915
2026-01-13 01:09:11.88	184.64	9.73	-35.7	-36.6	22.8	0.00e+00	122	27	0	284164096	44	5992
2026-01-13 01:09:12.89	184.69	9.81	-35.6	-36.6	22.8	0.00e+00	122	28	0	287309824	44	5952
2026-01-13 01:09:13.90	184.75	9.89	-35.5	-36.5	23.0	0.00e+00	122	27	0	290455552	44	5887
2026-01-13 01:09:14.91	184.80	9.98	-35.6	-36.6	22.9	0.00e+00	122	27	0	294649856	44	5936
2026-01-13 01:09:15.92	184.86	10.06	-35.4	-36.3	23.1	0.00e+00	123	28	0	297795584	44	5780
2026-01-13 01:09:16.93	184.92	10.15	-35.4	-36.4	23.0	0.00e+00	123	27	0	300941312	44	5814
2026-01-13 01:09:17.94	184.98	10.23	-35.6	-36.6	22.9	0.00e+00	123	27	0	303038464	44	5931
2026-01-13 01:09:18.95	185.03	10.32	-35.4	-36.3	23.0	0.00e+00	123	27	0	306184192	44	5788
2026-01-13 01:09:19.96	185.09	10.40	-35.4	-36.4	23.0	0.00e+00	123	28	0	310378496	44	5801
2026-01-13 01:09:20.97	185.15	10.49	-35.3	-36.3	23.1	0.00e+00	120	27	0	313524224	44	5730
2026-01-13 01:09:21.99	185.21	10.57	-35.3	-36.2	23.1	0.00e+00	122	27	0	316669952	44	5721
2026-01-13 01:09:22.99	185.27	10.66	-35.3	-36.2	23.2	0.00e+00	120	27	0	319815680	44	5713
2026-01-13 01:09:24.00	185.33	10.74	-35.2	-36.2	23.2	0.00e+00	123	27	0	322961408	44	5670
2026-01-13 01:09:25.01	185.38	10.83	-35.3	-36.2	23.1	0.00e+00	120	28	0	326107136	44	5723
2026-01-13 01:09:26.02	185.44	10.92	-35.2	-36.1	23.3	0.00e+00	122	28	0	329252864	44	5656
2026-01-13 01:09:27.03	185.50	11.00	-35.2	-36.2	23.2	0.00e+00	123	27	0	332398592	44	5685
2026-01-13 01:09:28.04	185.57	11.09	-35.2	-36.1	23.3	0.00e+00	122	28	0	335544320	44	5636
2026-01-13 01:09:29.05	185.63	11.18	-35.1	-36.0	23.3	0.00e+00	122	28	0	338690048	44	5591
2026-01-13 01:09:30.06	185.69	11.26	-35.2	-36.2	23.2	0.00e+00	123	28	0	341835776	44	5702
2026-01-13 01:09:31.08	185.75	11.35	-35.2	-36.1	23.3	0.00e+00	121	28	0	344981504	44	5639
2026-01-13 01:09:32.08	185.81	11.44	-35.1	-36.1	23.4	0.00e+00	123	28	0	348127232	44	5603
2026-01-13 01:09:33.09	185.87	11.53	-35.0	-36.0	23.3	0.00e+00	120	28	0	351272960	44	5556
2026-01-13 01:09:34.10	185.94	11.62	-35.1	-36.1	23.3	0.00e+00	120	28	0	354418688	44	5609
2026-01-13 01:09:35.11	186.00	11.71	-35.0	-35.9	23.4	0.00e+00	123	28	0	357564416	44	5522
2026-01-13 01:09:36.13	186.06	11.80	-35.0	-36.0	23.4	0.00e+00	122	28	0	360710144	44	5540
2026-01-13 01:09:37.14	186.13	11.89	-34.9	-35.9	23.5	0.00e+00	122	28	0	363855872	44	5499
2026-01-13 01:09:38.15	186.19	11.98	-35.0	-36.0	23.3	0.00e+00	123	28	0	367001600	44	5570
2026-01-13 01:09:39.15	186.25	12.07	-34.9	-35.8	23.6	0.00e+00	121	28	0	370147328	44	5431
2026-01-13 01:09:40.16	186.32	12.16	-34.9	-35.8	23.5	0.00e+00	123	28	0	373293056	44	5446
2026-01-13 01:09:41.17	186.38	12.25	-34.8	-35.7	23.7	0.00e+00	120	28	0	376438784	44	5401
2026-01-13 01:09:42.18	186.45	12.34	-34.8	-35.8	23.6	0.00e+00	122	28	0	379584512	44	5422
2026-01-13 01:09:43.19	186.51	12.43	-34.9	-35.8	23.6	0.00e+00	120	28	0	382730240	44	5443
2026-01-13 01:09:44.20	186.58	12.52	-35.0	-35.9	23.5	0.00e+00	122	28	0	385875968	44	5518
2026-01-13 01:09:45.21	186.65	12.62	-35.1	-36.0	23.5	0.00e+00	120	28	0	389021696	44	5575
2026-01-13 01:09:46.22	186.71	12.71	-34.8	-35.7	23.7	0.00e+00	123	28	0	392167424	44	5368
2026-01-13 01:09:47.23	186.78	12.80	-34.8	-35.8	23.6	0.00e+00	123	28	0	395313152	44	5429
2026-01-13 01:09:48.24	186.85	12.89	-34.8	-35.7	23.7	0.00e+00	123	28	0	398458880	42	6047
2026-01-13 01:09:49.25	186.92	12.99	-34.8	-35.8	23.7	0.00e+00	122	28	0	401604608	42	6068
2026-01-13 01:09:50.26	186.99	13.08	-34.9	-35.9	23.6	0.00e+00	123	27	0	404750336	42	6166
2026-01-13 01:09:51.27	187.06	13.18	-34.8	-35.7	23.8	0.00e+00	122	28	0	407896064	42	6038
2026-01-13 01:09:52.28	187.12	13.27	-34.8	-35.7	23.7	0.00e+00	123	28	0	411041792	42	6044
2026-01-13 01:09:53.29	187.19	13.36	-34.7	-35.7	23.8	0.00e+00	123	28	0	414187520	42	6010
2026-01-13 01:09:54.30	187.26	13.46	-34.8	-35.8	23.7	0.00e+00	122	27	0	417333248	42	6086
2026-01-13 01:09:55.31	187.34	13.55	-34.7	-35.7	23.8	0.00e+00	121	28	0	420478976	42	6013
2026-01-13 01:09:56.31	187.41	13.65	-34.8	-35.7	23.8	0.00e+00	122	28	0	423624704	42	6030
2026-01-13 01:09:57.32	187.48	13.75	-34.8	-35.7	23.8	0.00e+00	123	28	0	426770432	42	6023
2026-01-13 01:09:58.33	187.55	13.84	-34.9	-35.8	23.7	0.00e+00	123	28	0	429916160	42	6093
2026-01-13 01:09:59.34	187.62	13.94	-34.8	-35.7	23.7	0.00e+00	120	28	0	433061888	42	6031
2026-01-13 01:10:00.35	187.69	14.04	-34.8	-35.7	23.8	0.00e+00	123	28	0	436207616	42	6028
2026-01-13 01:10:01.36	187.77	14.13	-34.8	-35.8	23.7	0.00e+00	123	28	0	439353344	42	6078
2026-01-13 01:10:02.37	187.84	14.23	-34.8	-35.7	23.7	0.00e+00	123	28	0	442499072	42	6062
2026-01-13 01:10:03.38	187.92	14.33	-34.7	-35.7	23.8	0.00e+00	123	28	0	445644800	42	6010
2026-01-13 01:10:04.39	187.99	14.43	-34.8	-35.7	23.7	0.00e+00	123	28	0	448790528	42	6020
2026-01-13 01:10:05.40	188.07	14.53	-34.8	-35.8	23.7	0.00e+00	123	28	0	451936256	42	6085
2026-01-13 01:10:06.41	188.14	14.63	-34.8	-35.7	23.8	0.00e+00	122	28	0	455081984	42	6061
2026-01-13 01:10:07.42	188.22	14.73	-35.0	-36.0	23.6	0.00e+00	122	28	0	458227712	42	6206
2026-01-13 01:10:08.43	188.30	14.83	-34.8	-35.7	23.8	0.00e+00	123	28	0	461373440	42	6020
2026-01-13 01:10:09.44	188.37	14.93	-34.9	-35.9	23.7	0.00e+00	123	28	0	464519168	42	6159
2026-01-13 01:10:10.45	188.45	15.03	-35.0	-36.0	23.6	0.00e+00	120	28	0	467664896	42	6211
2026-01-13 01:10:11.46	188.53	15.13	-35.0	-35.9	23.6	0.00e+00	123	28	0	470810624	42	6165
2026-01-13 01:10:12.47	188.61	15.23	-35.1	-36.0	23.6	0.00e+00	123	28	0	473956352	42	6258
2026-01-13 01:10:13.48	188.69	15.33	-35.2	-36.1	23.5	0.00e+00	123	28	0	477102080	42	6332
2026-01-13 01:10:14.49	188.77	15.43	-35.0	-36.0	23.6	0.00e+00	122	28	0	480247808	42	6210
2026-01-13 01:10:15.49	188.85	15.54	-35.1	-36.0	23.6	0.00e+00	122	28	0	483393536	42	6261
2026-01-13 01:10:16.50	188.93	15.64	-35.1	-36.0	23.6	0.00e+00	122	28	0	486539264	42	6259
2026-01-13 01:10:17.51	189.01	15.74	-35.1	-36.1	23.6	0.00e+00	123	28	0	489684992	42	6292
2026-01-13 01:10:18.52	189.09	15.85	-35.2	-36.1	23.5	0.00e+00	120	28	0	492830720	42	6338
2026-01-13 01:10:19.53	189.17	15.95	-35.1	-36.0	23.5	0.00e+00	123	28	0	495976448	42	6266
2026-01-13 01:10:20.54	189.25	16.06	-35.2	-36.1	23.5	0.00e+00	123	28	0	499122176	42	6315
2026-01-13 01:10:21.55	189.34	16.16	-35.3	-36.2	23.3	0.00e+00	123	28	0	502267904	42	6404
2026-01-13 01:10:22.56	189.42	16.27	-35.1	-36.0	23.5	0.00e+00	120	28	0	505413632	42	6258
2026-01-13 01:10:23.57	189.51	16.37	-35.0	-36.0	23.6	0.00e+00	123	28	0	508559360	42	6233
2026-01-13 01:10:24.58	189.59	16.48	-35.1	-36.0	23.6	0.00e+00	122	28	0	511705088	42	6257
2026-01-13 01:10:25.60	189.68	16.59	-35.0	-35.9	23.6	0.00e+00	122	28	0	514850816	42	6191
2026-01-13 01:10:26.61	189.76	16.69	-35.1	-36.1	23.5	0.00e+00	123	28	0	517996544	42	6287
2026-01-13 01:10:27.61	189.85	16.80	-35.0	-35.9	23.6	0.00e+00	122	28	0	521142272	42	6189
2026-01-13 01:10:28.63	189.94	16.91	-35.0	-35.9	23.7	0.00e+00	122	28	0	524288000	42	6152
2026-01-13 01:10:29.64	190.03	17.02	-34.9	-35.8	23.7	0.00e+00	123	28	0	527433728	42	6113
2026-01-13 01:10:30.65	190.12	17.12	-35.1	-36.0	23.6	0.00e+00	123	28	0	530579456	42	6248
2026-01-13 01:10:31.66	190.21	17.23	-34.9	-35.8	23.8	0.00e+00	122	28	0	533725184	42	6108
2026-01-13 01:10:32.67	190.29	17.34	-34.9	-35.9	23.8	0.00e+00	123	28	0	536870912	42	6141
2026-01-13 01:10:33.68	190.39	17.45	-34.9	-35.8	23.9	0.00e+00	123	28	0	540016640	42	6087
2026-01-13 01:10:34.69	190.48	17.56	-35.0	-35.9	23.7	0.00e+00	120	28	0	543162368	42	6171
2026-01-13 01:10:35.70	190.57	17.67	-34.8	-35.7	23.9	0.00e+00	123	28	0	546308096	42	6027
2026-01-13 01:10:36.71	190.66	17.79	-34.9	-35.9	23.7	0.00e+00	120	28	0	549453824	42	6138
2026-01-13 01:10:37.72	190.75	17.90	-34.8	-35.7	23.9	0.00e+00	122	28	0	552599552	42	6034
2026-01-13 01:10:38.73	190.85	18.01	-34.9	-35.9	23.7	0.00e+00	122	28	0	555745280	42	6137
2026-01-13 01:10:39.73	190.94	18.12	-34.8	-35.7	23.9	0.00e+00	123	28	0	558891008	42	6027
2026-01-13 01:10:40.74	191.04	18.23	-34.9	-35.8	23.8	0.00e+00	122	28	0	562036736	42	6122
2026-01-13 01:10:41.75	191.13	18.35	-35.0	-36.0	23.7	0.00e+00	122	28	0	565182464	42	6213
2026-01-13 01:10:42.77	191.23	18.46	-34.7	-35.6	24.0	0.00e+00	122	28	0	568328192	42	5971
2026-01-13 01:10:43.78	191.33	18.58	-34.6	-35.5	24.0	0.00e+00	120	28	0	571473920	42	5886
2026-01-13 01:10:44.79	191.42	18.69	-34.6	-35.5	24.0	0.00e+00	122	28	0	574619648	42	5912
2026-01-13 01:10:45.79	191.52	18.81	-34.4	-35.3	24.2	0.00e+00	120	28	0	577765376	42	5780
2026-01-13 01:10:46.80	191.62	18.92	-34.5	-35.4	24.1	0.00e+00	122	28	0	580911104	42	5809
2026-01-13 01:10:47.81	191.72	19.04	-34.5	-35.3	24.1	0.00e+00	120	28	0	584056832	42	5791
2026-01-13 01:10:48.82	191.82	19.15	-34.4	-35.3	24.2	0.00e+00	122	28	0	587202560	42	5739
2026-01-13 01:10:49.83	191.92	19.27	-34.4	-35.3	24.2	0.00e+00	122	28	0	590348288	42	5774
2026-01-13 01:10:50.84	192.03	19.39	-34.5	-35.4	24.2	0.00e+00	122	28	0	593494016	42	5841
2026-01-13 01:10:51.85	192.13	19.51	-34.5	-35.4	24.1	0.00e+00	123	28	0	596639744	42	5807
2026-01-13 01:10:52.86	192.23	19.62	-34.4	-35.3	24.2	0.00e+00	123	28	0	599785472	42	5783
2026-01-13 01:10:53.87	192.34	19.74	-34.4	-35.3	24.3	0.00e+00	122	28	0	602931200	42	5743
2026-01-13 01:10:54.88	192.44	19.86	-34.4	-35.3	24.2	0.00e+00	123	28	0	606076928	42	5768
2026-01-13 01:10:55.90	192.55	19.98	-34.4	-35.3	24.3	0.00e+00	123	28	0	609222656	42	5761
2026-01-13 01:10:56.91	192.66	20.10	-34.4	-35.3	24.3	0.00e+00	123	28	0	612368384	42	5739
2026-01-13 01:10:57.91	192.76	20.22	-34.1	-35.0	24.4	0.00e+00	120	28	0	616562688	42	5589
2026-01-13 01:10:58.92	192.87	20.35	-34.1	-35.0	24.5	0.00e+00	122	28	0	618659840	42	5537
2026-01-13 01:10:59.93	192.98	20.47	-34.1	-35.0	24.4	0.00e+00	123	28	0	621805568	42	5583
2026-01-13 01:11:00.94	193.09	20.59	-34.0	-34.9	24.5	0.00e+00	120	28	0	624951296	42	5511
2026-01-13 01:11:01.95	193.20	20.71	-33.8	-34.7	24.6	0.00e+00	122	28	0	628097024	42	5365
2026-01-13 01:11:02.96	193.32	20.84	-33.8	-34.7	24.7	0.00e+00	123	28	0	631242752	42	5385
2026-01-13 01:11:03.97	193.43	20.96	-33.9	-34.8	24.7	0.00e+00	123	28	0	635437056	42	5407
2026-01-13 01:11:04.98	193.54	21.09	-33.7	-34.5	24.7	0.00e+00	122	28	0	638582784	40	5922
2026-01-13 01:11:05.99	193.66	21.21	-33.7	-34.6	24.8	0.00e+00	122	28	0	641728512	40	5931
2026-01-13 01:11:07.00	193.77	21.34	-33.8	-34.7	24.8	0.00e+00	122	28	0	643825664	40	6009
2026-01-13 01:11:08.01	193.89	21.46	-33.7	-34.6	24.7	0.00e+00	120	28	0	646971392	40	5955
2026-01-13 01:11:09.02	194.01	21.59	-33.6	-34.5	24.8	0.00e+00	122	28	0	651165696	40	5886
2026-01-13 01:11:10.03	194.12	21.71	-33.8	-34.6	24.8	0.00e+00	120	28	0	654311424	40	5983
2026-01-13 01:11:11.04	194.24	21.84	-33.5	-34.4	24.9	0.00e+00	122	28	0	657457152	40	5803
2026-01-13 01:11:12.05	194.36	21.97	-33.4	-34.3	24.9	0.00e+00	122	28	0	660602880	40	5755
2026-01-13 01:11:13.06	194.48	22.10	-33.4	-34.3	25.0	0.00e+00	122	28	0	663748608	40	5740
2026-01-13 01:11:14.07	194.61	22.23	-33.3	-34.2	25.0	0.00e+00	122	28	0	666894336	40	5709
2026-01-13 01:11:15.08	194.73	22.36	-33.2	-34.1	25.1	0.00e+00	122	28	0	670040064	40	5620
2026-01-13 01:11:16.09	194.85	22.49	-33.3	-34.2	24.9	0.00e+00	122	28	0	673185792	40	5686
2026-01-13 01:11:17.10	194.98	22.62	-33.4	-34.3	25.0	0.00e+00	123	28	0	676331520	40	5751
2026-01-13 01:11:18.11	195.10	22.75	-33.2	-34.1	25.2	0.00e+00	123	28	0	679477248	40	5596
2026-01-13 01:11:19.12	195.23	22.88	-33.2	-34.0	25.1	0.00e+00	122	28	0	682622976	40	5579
2026-01-13 01:11:20.13	195.36	23.01	-33.2	-34.0	25.1	0.00e+00	123	28	0	685768704	40	5592
2026-01-13 01:11:21.14	195.49	23.15	-33.1	-34.0	25.1	0.00e+00	122	28	0	688914432	40	5577
2026-01-13 01:11:22.15	195.62	23.28	-33.2	-34.1	25.1	0.00e+00	123	28	0	692060160	40	5646
2026-01-13 01:11:23.16	195.75	23.41	-33.2	-34.1	25.1	0.00e+00	120	28	0	695205888	40	5628
2026-01-13 01:11:24.17	195.88	23.55	-33.4	-34.2	25.0	0.00e+00	122	28	0	698351616	40	5709
2026-01-13 01:11:25.18	196.02	23.68	-33.4	-34.3	25.0	0.00e+00	122	28	0	701497344	40	5742
2026-01-13 01:11:26.19	196.15	23.82	-33.3	-34.2	25.1	0.00e+00	123	28	0	704643072	40	5661
2026-01-13 01:11:27.19	196.29	23.95	-33.3	-34.2	25.0	0.00e+00	122	28	0	707788800	40	5682
2026-01-13 01:11:28.21	196.42	24.09	-33.3	-34.2	25.0	0.00e+00	123	28	0	710934528	40	5712
2026-01-13 01:11:29.22	196.56	24.23	-33.4	-34.2	25.0	0.00e+00	122	28	0	714080256	40	5724
2026-01-13 01:11:30.23	196.70	24.37	-33.4	-34.3	25.0	0.00e+00	122	28	0	717225984	40	5750
2026-01-13 01:11:31.23	196.84	24.50	-33.4	-34.3	24.9	0.00e+00	123	28	0	720371712	40	5745
2026-01-13 01:11:32.24	196.98	24.64	-33.5	-34.4	24.9	0.00e+00	123	28	0	723517440	40	5821
2026-01-13 01:11:33.25	197.12	24.78	-33.5	-34.4	24.9	0.00e+00	123	28	0	726663168	40	5844
2026-01-13 01:11:34.26	197.27	24.92	-33.6	-34.5	24.8	0.00e+00	122	28	0	729808896	40	5903
2026-01-13 01:11:35.27	197.41	25.06	-33.8	-34.6	24.7	0.00e+00	123	28	0	732954624	40	5979
2026-01-13 01:11:36.28	197.56	25.20	-33.9	-34.8	24.6	0.00e+00	123	28	0	736100352	40	6106
2026-01-13 01:11:37.29	197.71	25.34	-34.0	-34.9	24.5	0.00e+00	123	28	0	739246080	40	6176
2026-01-13 01:11:38.30	197.86	25.49	-34.2	-35.1	24.5	0.00e+00	122	28	0	742391808	40	6294
2026-01-13 01:11:39.31	198.01	25.63	-34.0	-34.8	24.6	0.00e+00	123	28	0	745537536	40	6133
2026-01-13 01:11:40.32	198.16	25.77	-34.1	-34.9	24.5	0.00e+00	124	28	0	748683264	40	6205
2026-01-13 01:11:41.33	198.31	25.92	-34.1	-35.0	24.4	0.00e+00	122	28	0	751828992	40	6240
2026-01-13 01:11:42.34	198.47	26.06	-34.0	-34.9	24.6	0.00e+00	122	28	0	754974720	40	6190
2026-01-13 01:11:43.35	198.62	26.20	-34.0	-34.9	24.5	0.00e+00	123	28	0	758120448	40	6202
2026-01-13 01:11:44.35	198.78	26.35	-34.0	-34.9	24.6	0.00e+00	122	28	0	761266176	40	6140
2026-01-13 01:11:45.37	198.94	26.50	-34.2	-35.1	24.5	0.00e+00	123	28	0	764411904	40	6288
2026-01-13 01:11:46.38	199.10	26.64	-34.1	-35.0	24.5	0.00e+00	120	28	0	767557632	40	6209
2026-01-13 01:11:47.39	199.26	26.79	-34.1	-35.0	24.4	0.00e+00	120	28	0	770703360	40	6265
2026-01-13 01:11:48.39	199.42	26.94	-34.3	-35.2	24.3	0.00e+00	123	28	0	773849088	40	6412
2026-01-13 01:11:49.40	199.59	27.09	-34.4	-35.3	24.3	0.00e+00	123	28	0	776994816	40	6476
2026-01-13 01:11:50.41	199.75	27.23	-34.5	-35.4	24.2	0.00e+00	120	28	0	780140544	40	6568
2026-01-13 01:11:51.42	199.92	27.38	-34.4	-35.3	24.3	0.00e+00	122	28	0	783286272	40	6472
2026-01-13 01:11:52.43	200.09	27.53	-34.5	-35.4	24.2	0.00e+00	122	28	0	786432000	40	6515
2026-01-13 01:11:53.44	200.26	27.68	-34.5	-35.4	24.3	0.00e+00	120	28	0	789577728	40	6504
2026-01-13 01:11:54.45	200.43	27.84	-34.5	-35.4	24.2	0.00e+00	122	28	0	792723456	40	6548
2026-01-13 01:11:55.46	200.60	27.99	-34.3	-35.2	24.4	0.00e+00	120	28	0	795869184	40	6386
2026-01-13 01:11:56.47	200.78	28.14	-34.3	-35.2	24.4	0.00e+00	123	28	0	799014912	40	6383
2026-01-13 01:11:57.48	200.96	28.29	-34.3	-35.2	24.4	0.00e+00	123	28	0	802160640	40	6366
2026-01-13 01:11:58.49	201.13	28.45	-34.3	-35.2	24.3	0.00e+00	123	28	0	805306368	40	6395
2026-01-13 01:11:59.50	201.32	28.60	-34.5	-35.4	24.2	0.00e+00	120	28	0	808452096	40	6500
2026-01-13 01:12:00.51	201.50	28.75	-34.5	-35.4	24.3	0.00e+00	120	28	0	811597824	40	6518
2026-01-13 01:12:01.52	201.68	28.91	-34.4	-35.3	24.3	0.00e+00	122	28	0	814743552	40	6451
2026-01-13 01:12:02.53	201.87	29.06	-34.5	-35.4	24.2	0.00e+00	123	28	0	817889280	40	6534
2026-01-13 01:12:03.54	202.05	29.22	-34.6	-35.5	24.1	0.00e+00	123	28	0	821035008	40	6591
2026-01-13 01:12:04.55	202.24	29.38	-34.3	-35.2	24.3	0.00e+00	123	28	0	824180736	40	6412
2026-01-13 01:12:05.56	202.43	29.53	-34.4	-35.3	24.3	0.00e+00	123	28	0	827326464	40	6461
2026-01-13 01:12:06.57	202.63	29.69	-34.5	-35.4	24.2	0.00e+00	123	28	0	830472192	40	6515
2026-01-13 01:12:07.57	202.82	29.85	-34.3	-35.2	24.4	0.00e+00	123	28	0	833617920	40	6364
2026-01-13 01:12:08.58	203.01	30.01	-34.4	-35.3	24.4	0.00e+00	122	28	0	836763648	40	6424
2026-01-13 01:12:09.59	203.21	30.17	-34.4	-35.3	24.3	0.00e+00	122	28	0	839909376	40	6437
2026-01-13 01:12:10.60	203.41	30.33	-34.4	-35.3	24.3	0.00e+00	122	28	0	843055104	40	6477
2026-01-13 01:12:11.61	203.61	30.49	-34.6	-35.5	24.3	0.00e+00	123	28	0	846200832	40	6590
2026-01-13 01:12:12.63	203.82	30.65	-34.5	-35.4	24.2	0.00e+00	122	28	0	849346560	40	6555
2026-01-13 01:12:13.63	204.02	30.81	-34.6	-35.5	24.2	0.00e+00	123	28	0	852492288	40	6608
2026-01-13 01:12:14.64	204.23	30.97	-34.7	-35.6	24.1	0.00e+00	123	28	0	855638016	40	6702
2026-01-13 01:12:15.65	204.44	31.13	-34.5	-35.4	24.3	0.00e+00	123	28	0	858783744	40	6533
2026-01-13 01:12:16.66	204.65	31.30	-34.3	-35.2	24.3	0.00e+00	122	28	0	861929472	40	6395
2026-01-13 01:12:17.67	204.87	31.46	-34.3	-35.2	24.2	0.00e+00	123	28	0	865075200	40	6368
2026-01-13 01:12:18.67	205.08	31.62	-34.2	-35.1	24.4	0.00e+00	122	28	0	868220928	40	6323
2026-01-13 01:12:19.68	205.30	31.79	-34.0	-34.9	24.6	0.00e+00	123	28	0	871366656	40	6166
2026-01-13 01:12:20.69	205.52	31.95	-34.2	-35.1	24.4	0.00e+00	122	28	0	874512384	40	6309
2026-01-13 01:12:21.70	205.74	32.12	-34.3	-35.2	24.2	0.00e+00	123	28	0	877658112	40	6402
2026-01-13 01:12:22.71	205.97	32.28	-34.3	-35.2	24.3	0.00e+00	122	28	0	880803840	40	6389
2026-01-13 01:12:23.72	206.20	32.45	-34.4	-35.3	24.3	0.00e+00	120	28	0	883949568	40	6475
2026-01-13 01:12:24.73	206.43	32.62	-34.6	-35.5	24.1	0.00e+00	123	28	0	887095296	40	6598
2026-01-13 01:12:25.74	206.66	32.78	-34.4	-35.3	24.3	0.00e+00	122	28	0	890241024	40	6493
2026-01-13 01:12:26.75	206.89	32.95	-34.5	-35.4	24.2	0.00e+00	122	28	0	893386752	40	6530
2026-01-13 01:12:27.76	207.13	33.12	-34.3	-35.2	24.4	0.00e+00	123	28	0	896532480	40	6365
2026-01-13 01:12:28.77	207.37	33.29	-34.2	-35.1	24.5	0.00e+00	122	28	0	899678208	40	6327
2026-01-13 01:12:29.78	207.61	33.45	-34.2	-35.0	24.5	0.00e+00	120	28	0	902823936	40	6269
2026-01-13 01:12:30.79	207.85	33.62	-34.3	-35.2	24.4	0.00e+00	123	28	0	905969664	40	6387
2026-01-13 01:12:31.80	208.10	33.79	-34.3	-35.2	24.4	0.00e+00	123	28	0	909115392	40	6401
2026-01-13 01:12:32.81	208.35	33.96	-34.6	-35.5	24.2	0.00e+00	123	28	0	912261120	40	6598
2026-01-13 01:12:33.81	208.60	34.13	-34.7	-35.6	24.1	0.00e+00	122	28	0	915406848	42	5979
2026-01-13 01:12:34.82	208.85	34.30	-34.9	-35.9	23.9	0.00e+00	122	28	0	918552576	42	6157
2026-01-13 01:12:35.83	209.11	34.47	-34.9	-35.8	23.9	0.00e+00	123	28	0	921698304	42	6098
2026-01-13 01:12:36.84	209.37	34.64	-34.9	-35.9	23.8	0.00e+00	122	28	0	924844032	42	6158
2026-01-13 01:12:37.85	209.63	34.81	-35.0	-36.0	23.8	0.00e+00	122	28	0	927989760	42	6212
2026-01-13 01:12:38.86	209.89	34.99	-35.0	-35.9	23.9	0.00e+00	123	28	0	931135488	42	6195
2026-01-13 01:12:39.87	210.16	35.16	-35.1	-36.0	23.8	0.00e+00	122	28	0	934281216	42	6227
2026-01-13 01:12:40.87	210.43	35.33	-35.2	-36.1	23.7	0.00e+00	123	28	0	937426944	42	6323
2026-01-13 01:12:41.88	210.70	35.50	-35.3	-36.3	23.6	0.00e+00	123	28	0	940572672	42	6434
2026-01-13 01:12:42.89	210.98	35.67	-35.3	-36.3	23.5	0.00e+00	123	28	0	943718400	42	6431
2026-01-13 01:12:43.90	211.26	35.84	-35.3	-36.2	23.6	0.00e+00	122	28	0	946864128	42	6401
2026-01-13 01:12:44.92	211.54	36.02	-35.4	-36.3	23.6	0.00e+00	123	28	0	950009856	42	6453
2026-01-13 01:12:45.92	211.82	36.19	-35.5	-36.4	23.5	0.00e+00	122	28	0	953155584	42	6542
2026-01-13 01:12:46.93	212.11	36.36	-35.6	-36.6	23.3	0.00e+00	120	28	0	956301312	42	6674
2026-01-13 01:12:47.94	212.40	36.54	-35.8	-36.8	23.1	0.00e+00	122	28	0	959447040	44	6118
2026-01-13 01:12:48.95	212.69	36.71	-36.0	-37.0	23.0	0.00e+00	120	28	0	962592768	44	6244
2026-01-13 01:12:49.96	212.99	36.88	-36.2	-37.2	22.8	0.00e+00	123	28	0	965738496	44	6385
2026-01-13 01:12:50.97	213.29	37.06	-36.2	-37.2	22.8	0.00e+00	123	28	0	968884224	44	6358
2026-01-13 01:12:51.98	213.59	37.23	-36.3	-37.3	22.8	0.00e+00	123	28	0	972029952	44	6461
2026-01-13 01:12:52.99	213.90	37.40	-36.4	-37.4	22.7	0.00e+00	123	28	0	975175680	44	6560
2026-01-13 01:12:54.00	214.21	37.58	-36.4	-37.4	22.6	0.00e+00	120	28	0	978321408	44	6550
2026-01-13 01:12:55.01	214.52	37.75	-36.5	-37.5	22.6	0.00e+00	123	28	0	981467136	44	6576
2026-01-13 01:12:56.02	214.84	37.93	-36.4	-37.4	22.6	0.00e+00	122	28	0	984612864	44	6547
2026-01-13 01:12:57.03	215.16	38.10	-36.3	-37.3	22.8	0.00e+00	123	28	0	987758592	44	6466
2026-01-13 01:12:58.04	215.48	38.27	-36.5	-37.5	22.7	0.00e+00	123	28	0	990904320	44	6603
2026-01-13 01:12:59.05	215.81	38.45	-36.5	-37.5	22.7	0.00e+00	122	28	0	994050048	44	6583
2026-01-13 01:13:00.06	216.14	38.62	-36.6	-37.6	22.5	0.00e+00	123	28	0	997195776	44	6665
2026-01-13 01:13:01.07	216.47	38.79	-36.7	-37.7	22.5	0.00e+00	123	28	0	1001390080	44	6733
2026-01-13 01:13:02.08	216.80	38.96	-36.5	-37.5	22.6	0.00e+00	123	28	0	1004535808	44	6622
2026-01-13 01:13:03.09	217.14	39.14	-36.6	-37.6	22.6	0.00e+00	123	28	0	1006632960	44	6686
2026-01-13 01:13:04.10	217.49	39.31	-36.6	-37.6	22.5	0.00e+00	123	28	0	1009778688	44	6695
2026-01-13 01:13:05.11	217.84	39.48	-36.7	-37.7	22.4	0.00e+00	123	28	0	1012924416	44	6788
2026-01-13 01:13:06.12	218.19	39.65	-36.6	-37.6	22.5	0.00e+00	123	28	0	1017118720	46	5967
2026-01-13 01:13:07.13	218.54	39.82	-36.5	-37.6	22.6	0.00e+00	122	28	0	1020264448	46	5943
2026-01-13 01:13:08.14	218.90	40.00	-36.6	-37.6	22.5	0.00e+00	124	28	0	1023410176	46	5980
2026-01-13 01:13:09.14	219.26	40.16	-36.7	-37.7	22.5	0.00e+00	123	28	0	1026555904	46	6034
2026-01-13 01:13:10.16	219.63	40.34	-36.5	-37.5	22.6	0.00e+00	123	28	0	1029701632	46	5913
2026-01-13 01:13:11.16	219.99	40.50	-36.6	-37.6	22.5	0.00e+00	122	28	0	1032847360	46	5994
2026-01-13 01:13:12.17	220.36	40.67	-36.9	-37.9	22.3	0.00e+00	120	28	0	1035993088	46	6176
2026-01-13 01:13:13.18	220.74	40.84	-36.9	-38.0	22.2	0.00e+00	122	28	0	1039138816	46	6211
2026-01-13 01:13:14.19	221.12	41.01	-37.1	-38.2	21.8	0.00e+00	120	28	0	1042284544	46	6399
2026-01-13 01:13:15.20	221.51	41.18	-37.3	-38.4	21.6	0.00e+00	122	28	0	1045430272	46	6502
2026-01-13 01:13:16.21	221.90	41.34	-37.2	-38.3	21.6	0.00e+00	123	28	0	1048576000	46	6463
2026-01-13 01:13:17.22	222.29	41.51	-37.1	-38.2	21.7	0.00e+00	122	28	0	1051721728	46	6369
2026-01-13 01:13:18.23	222.68	41.67	-37.3	-38.4	21.7	0.00e+00	123	28	0	1054867456	46	6548
2026-01-13 01:13:19.24	223.09	41.84	-37.2	-38.2	21.9	0.00e+00	123	28	0	1058013184	46	6415
2026-01-13 01:13:20.25	223.49	42.00	-37.2	-38.3	21.9	0.00e+00	122	28	0	1061158912	46	6440
2026-01-13 01:13:21.26	223.90	42.17	-37.2	-38.3	21.9	0.00e+00	123	28	0	1064304640	46	6428
2026-01-13 01:13:22.27	224.31	42.33	-37.2	-38.3	22.0	0.00e+00	122	28	0	1067450368	46	6462
2026-01-13 01:13:23.28	224.73	42.49	-37.2	-38.2	22.0	0.00e+00	120	28	0	1070596096	46	6421
2026-01-13 01:13:24.29	225.15	42.65	-36.9	-37.9	22.3	0.00e+00	123	28	0	1073741824	46	6169
2026-01-13 01:13:25.30	225.57	42.81	-36.7	-37.7	22.3	0.00e+00	120	28	0	1076887552	46	6063
2026-01-13 01:13:26.31	226.00	42.96	-36.5	-37.6	22.6	0.00e+00	123	28	0	1080033280	46	5932
2026-01-13 01:13:27.32	226.44	43.12	-36.6	-37.6	22.4	0.00e+00	122	28	0	1083179008	46	5964
2026-01-13 01:13:28.33	226.87	43.28	-36.7	-37.7	22.4	0.00e+00	122	28	0	1086324736	46	6000
2026-01-13 01:13:29.34	227.32	43.43	-36.8	-37.8	22.3	0.00e+00	122	28	0	1089470464	46	6110
2026-01-13 01:13:30.35	227.76	43.58	-37.2	-38.2	22.0	0.00e+00	123	28	0	1092616192	46	6381
2026-01-13 01:13:31.36	228.21	43.74	-37.4	-38.5	21.9	0.00e+00	122	28	0	1095761920	46	6609
2026-01-13 01:13:32.37	228.67	43.89	-37.6	-38.7	21.5	0.00e+00	122	28	0	1098907648	46	6786
2026-01-13 01:13:33.38	229.13	44.04	-37.6	-38.7	21.5	0.00e+00	123	28	0	1102053376	46	6734
2026-01-13 01:13:34.39	229.59	44.18	-37.3	-38.4	21.7	0.00e+00	122	28	0	1105199104	46	6528
2026-01-13 01:13:35.40	230.06	44.33	-37.0	-38.1	22.0	0.00e+00	122	28	0	1108344832	46	6290
2026-01-13 01:13:36.41	230.53	44.47	-36.7	-37.7	22.3	0.00e+00	122	28	0	1111490560	46	6055
2026-01-13 01:13:37.42	231.00	44.62	-37.0	-38.0	22.1	0.00e+00	122	28	0	1114636288	46	6271
2026-01-13 01:13:38.43	231.48	44.76	-37.1	-38.2	22.1	0.00e+00	122	28	0	1117782016	46	6368
2026-01-13 01:13:39.44	231.97	44.90	-37.2	-38.3	21.9	0.00e+00	123	28	0	1120927744	46	6470
2026-01-13 01:13:40.45	232.45	45.04	-37.1	-38.2	22.1	0.00e+00	122	28	0	1124073472	46	6357
2026-01-13 01:13:41.46	232.95	45.17	-36.9	-38.0	22.1	0.00e+00	123	28	0	1127219200	46	6234
2026-01-13 01:13:42.47	233.44	45.31	-36.6	-37.7	22.2	0.00e+00	120	28	0	1130364928	46	6021
2026-01-13 01:13:43.48	233.94	45.44	-36.3	-37.4	22.3	0.00e+00	123	28	0	1133510656	46	5797
2026-01-13 01:13:44.49	234.45	45.57	-36.0	-37.0	22.6	0.00e+00	122	28	0	1136656384	46	5590
2026-01-13 01:13:45.50	234.96	45.70	-36.0	-36.9	23.0	0.00e+00	123	28	0	1139802112	46	5527
2026-01-13 01:13:46.51	235.47	45.82	-35.9	-36.8	23.1	0.00e+00	122	28	0	1142947840	46	5459
2026-01-13 01:13:47.52	235.99	45.95	-36.0	-36.9	23.0	0.00e+00	120	28	0	1146093568	46	5530
2026-01-13 01:13:48.53	236.51	46.07	-36.4	-37.4	22.8	0.00e+00	123	28	0	1149239296	46	5821
2026-01-13 01:13:49.54	237.03	46.19	-36.5	-37.4	22.5	0.00e+00	120	28	0	1152385024	46	5858
2026-01-13 01:13:50.54	237.56	46.31	-36.7	-37.8	22.2	0.00e+00	123	28	0	1155530752	46	6073
2026-01-13 01:13:51.55	238.09	46.42	-36.7	-37.8	22.3	0.00e+00	122	28	0	1158676480	46	6067
2026-01-13 01:13:52.56	238.63	46.53	-36.7	-37.7	22.3	0.00e+00	122	28	0	1161822208	46	6063
2026-01-13 01:13:53.57	239.17	46.64	-36.4	-37.4	22.5	0.00e+00	123	28	0	1164967936	46	5851
2026-01-13 01:13:54.58	239.71	46.75	-36.6	-37.6	22.6	0.00e+00	120	28	0	1168113664	46	5952
2026-01-13 01:13:55.59	240.26	46.86	-36.8	-37.9	22.3	0.00e+00	123	28	0	1171259392	46	6136
2026-01-13 01:13:56.60	240.81	46.96	-37.0	-38.0	22.1	0.00e+00	123	28	0	1174405120	46	6241
2026-01-13 01:13:57.61	241.36	47.06	-37.1	-38.2	22.1	0.00e+00	123	28	0	1177550848	46	6354
2026-01-13 01:13:58.62	241.92	47.16	-37.2	-38.3	22.0	0.00e+00	120	28	0	1180696576	46	6448
2026-01-13 01:13:59.63	242.48	47.25	-37.3	-38.4	22.0	0.00e+00	122	28	0	1183842304	46	6538
2026-01-13 01:14:00.64	243.05	47.35	-37.2	-38.3	22.1	0.00e+00	122	28	0	1186988032	46	6430
2026-01-13 01:14:01.65	243.62	47.44	-36.7	-37.7	22.5	0.00e+00	123	28	0	1190133760	46	6055
2026-01-13 01:14:02.66	244.19	47.52	-36.6	-37.6	22.5	0.00e+00	122	28	0	1193279488	46	5971
2026-01-13 01:14:03.67	244.76	47.61	-36.1	-37.0	23.0	0.00e+00	123	28	0	1196425216	46	5594
2026-01-13 01:14:04.68	245.34	47.69	-36.6	-37.6	22.6	0.00e+00	123	28	0	1199570944	46	5949
2026-01-13 01:14:05.69	245.92	47.76	-36.9	-38.0	22.3	0.00e+00	122	28	0	1202716672	46	6246
2026-01-13 01:14:06.70	246.50	47.84	-36.7	-37.7	22.3	0.00e+00	122	28	0	1205862400	46	6042
2026-01-13 01:14:07.70	247.08	47.91	-36.1	-37.0	23.0	0.00e+00	123	28	0	1209008128	46	5575
2026-01-13 01:14:08.71	247.67	47.98	-36.1	-37.1	23.1	0.00e+00	123	28	0	1212153856	46	5599
2026-01-13 01:14:09.72	248.26	48.05	-35.9	-36.8	23.1	0.00e+00	122	28	0	1215299584	46	5447
2026-01-13 01:14:10.73	248.86	48.11	-36.3	-37.3	22.7	0.00e+00	123	28	0	1218445312	46	5783
2026-01-13 01:14:11.74	249.45	48.17	-36.4	-37.4	22.7	0.00e+00	122	28	0	1221591040	46	5816
2026-01-13 01:14:12.75	250.05	48.22	-36.2	-37.2	22.9	0.00e+00	123	28	0	1224736768	46	5682
2026-01-13 01:14:13.76	250.65	48.28	-36.2	-37.2	22.9	0.00e+00	123	28	0	1227882496	46	5668
2026-01-13 01:14:14.76	251.25	48.33	-36.4	-37.4	22.4	0.00e+00	123	28	0	1231028224	46	5800
2026-01-13 01:14:15.77	251.85	48.37	-36.3	-37.3	22.5	0.00e+00	123	28	0	1234173952	46	5777
2026-01-13 01:14:16.78	252.46	48.41	-36.2	-37.2	22.8	0.00e+00	123	28	0	1237319680	46	5701
2026-01-13 01:14:17.79	253.06	48.45	-36.1	-37.1	22.9	0.00e+00	122	28	0	1240465408	46	5629
2026-01-13 01:14:18.80	253.67	48.49	-36.3	-37.2	23.0	0.00e+00	122	28	0	1243611136	46	5705
2026-01-13 01:14:19.81	254.28	48.52	-36.6	-37.6	22.6	0.00e+00	122	28	0	1246756864	46	5933
2026-01-13 01:14:20.82	254.89	48.55	-36.7	-37.7	22.3	0.00e+00	123	28	0	1249902592	46	6050
2026-01-13 01:14:21.83	255.51	48.58	-36.7	-37.8	22.4	0.00e+00	123	28	0	1253048320	46	6069
2026-01-13 01:14:22.84	256.12	48.60	-36.4	-37.3	22.7	0.00e+00	122	28	0	1256194048	46	5786
2026-01-13 01:14:23.85	256.73	48.62	-36.4	-37.4	22.8	0.00e+00	122	28	0	1259339776	46	5827
2026-01-13 01:14:24.86	257.35	48.64	-36.2	-37.2	23.0	0.00e+00	123	28	0	1262485504	46	5689
2026-01-13 01:14:25.87	257.96	48.65	-36.2	-37.2	22.9	0.00e+00	123	28	0	1265631232	46	5662
2026-01-13 01:14:26.88	258.58	48.66	-36.3	-37.3	22.9	0.00e+00	122	28	0	1268776960	46	5728
2026-01-13 01:14:27.89	259.20	48.66	-36.2	-37.1	22.9	0.00e+00	122	28	0	1271922688	46	5627
2026-01-13 01:14:28.90	259.81	48.66	-36.6	-37.6	22.5	0.00e+00	123	28	0	1275068416	46	5928
2026-01-13 01:14:29.91	260.43	48.66	-36.8	-37.8	22.4	0.00e+00	123	28	0	1278214144	46	6133
2026-01-13 01:14:30.92	261.04	48.66	-36.7	-37.6	22.5	0.00e+00	120	28	0	1281359872	46	5989
2026-01-13 01:14:31.93	261.66	48.65	-36.4	-37.4	22.6	0.00e+00	123	28	0	1284505600	46	5832
2026-01-13 01:14:32.94	262.27	48.64	-36.5	-37.5	22.7	0.00e+00	122	28	0	1287651328	46	5873
2026-01-13 01:14:33.95	262.89	48.62	-36.4	-37.3	22.9	0.00e+00	123	28	0	1290797056	46	5776
2026-01-13 01:14:34.96	263.50	48.60	-36.4	-37.4	22.8	0.00e+00	123	28	0	1293942784	46	5799
2026-01-13 01:14:35.97	264.11	48.58	-36.1	-37.0	23.1	0.00e+00	121	28	0	1297088512	46	5584
2026-01-13 01:14:36.98	264.73	48.55	-36.3	-37.3	22.8	0.00e+00	122	28	0	1300234240	46	5747
2026-01-13 01:14:37.99	265.34	48.52	-36.5	-37.5	22.7	0.00e+00	120	28	0	1303379968	46	5881
2026-01-13 01:14:39.00	265.95	48.49	-36.6	-37.6	22.5	0.00e+00	120	28	0	1306525696	46	5939
2026-01-13 01:14:40.01	266.56	48.45	-36.6	-37.7	22.4	0.00e+00	123	28	0	1309671424	46	6009
2026-01-13 01:14:41.02	267.16	48.41	-36.6	-37.6	22.6	0.00e+00	123	28	0	1312817152	46	5985
2026-01-13 01:14:42.02	267.76	48.37	-36.6	-37.6	22.6	0.00e+00	123	28	0	1315962880	46	5951
2026-01-13 01:14:43.03	268.37	48.32	-36.7	-37.7	22.6	0.00e+00	123	28	0	1319108608	46	6040
2026-01-13 01:14:44.04	268.97	48.28	-37.0	-38.1	22.2	0.00e+00	123	28	0	1322254336	46	6312
2026-01-13 01:14:45.05	269.57	48.22	-37.1	-38.2	22.1	0.00e+00	123	28	0	1325400064	46	6389
2026-01-13 01:14:46.06	270.16	48.17	-37.2	-38.3	22.0	0.00e+00	123	28	0	1328545792	46	6475
2026-01-13 01:14:47.07	270.76	48.11	-37.2	-38.3	22.0	0.00e+00	123	28	0	1331691520	46	6463
2026-01-13 01:14:48.08	271.35	48.04	-37.1	-38.1	22.3	0.00e+00	120	28	0	1334837248	46	6330
2026-01-13 01:14:49.09	271.94	47.98	-37.0	-38.0	22.2	0.00e+00	122	28	0	1337982976	46	6267
2026-01-13 01:14:50.10	272.53	47.91	-37.2	-38.3	22.0	0.00e+00	123	28	0	1341128704	46	6434
2026-01-13 01:14:51.11	273.12	47.84	-37.5	-38.6	21.8	0.00e+00	123	28	0	1344274432	46	6664
2026-01-13 01:14:52.12	273.70	47.76	-37.8	-38.9	21.3	0.00e+00	123	28	0	1347420160	46	6950
2026-01-13 01:14:53.13	274.28	47.69	-37.8	-38.9	21.4	0.00e+00	123	28	0	1350565888	48	6190
2026-01-13 01:14:54.14	274.85	47.60	-37.5	-38.6	21.8	0.00e+00	122	28	0	1353711616	48	5938
2026-01-13 01:14:55.15	275.43	47.52	-37.1	-38.1	22.1	0.00e+00	123	28	0	1356857344	48	5635
2026-01-13 01:14:56.16	276.00	47.43	-36.8	-37.7	22.2	0.00e+00	123	28	0	1360003072	48	5404
2026-01-13 01:14:57.17	276.57	47.35	-36.8	-37.8	22.5	0.00e+00	123	28	0	1364197376	46	6074
2026-01-13 01:14:58.18	277.13	47.25	-36.8	-37.8	22.5	0.00e+00	123	28	0	1367343104	46	6084
2026-01-13 01:14:59.19	277.69	47.16	-36.9	-37.9	22.3	0.00e+00	123	28	0	1370488832	46	6203
2026-01-13 01:15:00.20	278.25	47.06	-36.9	-37.9	22.3	0.00e+00	123	28	0	1372585984	46	6148
2026-01-13 01:15:01.21	278.80	46.96	-37.1	-38.2	22.0	0.00e+00	122	28	0	1375731712	46	6366
2026-01-13 01:15:02.22	279.35	46.86	-36.9	-37.9	22.2	0.00e+00	123	28	0	1379926016	46	6200
2026-01-13 01:15:03.23	279.90	46.75	-36.7	-37.7	22.4	0.00e+00	123	28	0	1383071744	46	6062
2026-01-13 01:15:04.24	280.44	46.64	-36.5	-37.5	22.5	0.00e+00	123	28	0	1386217472	46	5913
2026-01-13 01:15:05.24	280.98	46.54	-36.6	-37.5	22.7	0.00e+00	123	28	0	1389363200	46	5925
2026-01-13 01:15:06.25	281.51	46.42	-36.6	-37.6	22.6	0.00e+00	123	28	0	1392508928	46	5968
2026-01-13 01:15:07.26	282.04	46.31	-37.1	-38.1	22.2	0.00e+00	123	28	0	1395654656	46	6332
2026-01-13 01:15:08.27	282.57	46.19	-37.4	-38.5	21.7	0.00e+00	123	28	0	1398800384	46	6601
2026-01-13 01:15:09.28	283.09	46.07	-37.7	-38.7	21.5	0.00e+00	123	28	0	1401946112	46	6796
2026-01-13 01:15:10.29	283.61	45.95	-37.1	-38.1	22.2	0.00e+00	120	28	0	1405091840	46	6336
2026-01-13 01:15:11.30	284.13	45.83	-36.7	-37.7	22.5	0.00e+00	122	28	0	1408237568	46	6019
2026-01-13 01:15:12.31	284.64	45.70	-36.3	-37.3	22.8	0.00e+00	120	28	0	1411383296	46	5750
2026-01-13 01:15:13.32	285.15	45.57	-35.8	-36.7	23.3	0.00e+00	123	28	0	1414529024	46	5391
2026-01-13 01:15:14.33	285.65	45.44	-35.9	-36.8	23.2	0.00e+00	120	28	0	1417674752	46	5462
2026-01-13 01:15:15.34	286.15	45.31	-36.2	-37.2	23.0	0.00e+00	122	28	0	1420820480	46	5670
2026-01-13 01:15:16.35	286.65	45.18	-36.1	-37.1	22.9	0.00e+00	123	28	0	1423966208	46	5608
2026-01-13 01:15:17.36	287.14	45.04	-36.2	-37.2	22.6	0.00e+00	122	28	0	1427111936	46	5698
2026-01-13 01:15:18.37	287.63	44.90	-36.2	-37.2	22.7	0.00e+00	120	28	0	1430257664	46	5724
2026-01-13 01:15:19.38	288.11	44.76	-35.9	-36.9	23.0	0.00e+00	122	28	0	1433403392	46	5481
2026-01-13 01:15:20.39	288.59	44.62	-35.9	-36.9	22.9	0.00e+00	122	28	0	1436549120	46	5495
2026-01-13 01:15:21.40	289.06	44.48	-36.3	-37.3	22.7	0.00e+00	123	28	0	1439694848	46	5763
2026-01-13 01:15:22.41	289.53	44.34	-36.5	-37.5	22.6	0.00e+00	123	28	0	1442840576	46	5899
2026-01-13 01:15:23.41	289.99	44.19	-36.6	-37.6	22.5	0.00e+00	123	28	0	1445986304	46	5930
2026-01-13 01:15:24.42	290.46	44.04	-36.5	-37.4	22.5	0.00e+00	122	28	0	1449132032	46	5857
2026-01-13 01:15:25.43	290.91	43.90	-36.5	-37.5	22.3	0.00e+00	120	28	0	1452277760	46	5867
2026-01-13 01:15:26.44	291.37	43.75	-36.7	-37.7	22.3	0.00e+00	122	28	0	1455423488	46	6048
2026-01-13 01:15:27.45	291.82	43.60	-36.8	-37.8	22.4	0.00e+00	120	28	0	1458569216	46	6082
2026-01-13 01:15:28.46	292.26	43.44	-36.8	-37.8	22.2	0.00e+00	122	28	0	1461714944	46	6103
2026-01-13 01:15:29.47	292.70	43.29	-37.1	-38.1	22.0	0.00e+00	123	28	0	1464860672	46	6339
2026-01-13 01:15:30.48	293.14	43.13	-37.3	-38.3	21.7	0.00e+00	123	28	0	1468006400	46	6484
2026-01-13 01:15:31.49	293.57	42.98	-37.8	-38.9	21.4	0.00e+00	122	28	0	1471152128	48	6145
2026-01-13 01:15:32.50	294.00	42.82	-37.8	-38.9	21.3	0.00e+00	123	28	0	1474297856	48	6192
2026-01-13 01:15:33.51	294.42	42.66	-37.8	-39.0	21.2	0.00e+00	120	28	0	1477443584	48	6220
2026-01-13 01:15:34.52	294.84	42.50	-37.6	-38.7	21.4	0.00e+00	123	28	0	1480589312	48	6038
2026-01-13 01:15:35.53	295.26	42.34	-37.4	-38.5	21.5	0.00e+00	120	28	0	1483735040	48	5922
2026-01-13 01:15:36.54	295.67	42.18	-37.2	-38.3	21.8	0.00e+00	122	28	0	1486880768	48	5728
2026-01-13 01:15:37.55	296.08	42.02	-37.0	-38.0	22.2	0.00e+00	122	28	0	1490026496	48	5576
2026-01-13 01:15:38.56	296.48	41.86	-36.8	-37.8	22.3	0.00e+00	123	28	0	1493172224	46	6089
2026-01-13 01:15:39.57	296.88	41.69	-36.6	-37.6	22.4	0.00e+00	123	28	0	1496317952	46	5987
2026-01-13 01:15:40.58	297.28	41.53	-36.8	-37.8	22.4	0.00e+00	123	28	0	1499463680	46	6133
2026-01-13 01:15:41.59	297.67	41.36	-36.9	-37.9	22.4	0.00e+00	122	28	0	1502609408	46	6166
2026-01-13 01:15:42.59	298.05	41.20	-36.7	-37.7	22.5	0.00e+00	120	28	0	1505755136	46	6045
2026-01-13 01:15:43.60	298.44	41.03	-36.5	-37.5	22.7	0.00e+00	122	28	0	1508900864	46	5888
2026-01-13 01:15:44.61	298.82	40.87	-36.4	-37.4	22.7	0.00e+00	123	28	0	1512046592	46	5848
2026-01-13 01:15:45.62	299.19	40.70	-36.1	-37.1	23.0	0.00e+00	123	28	0	1515192320	46	5608
2026-01-13 01:15:46.63	299.56	40.53	-35.9	-36.8	23.2	0.00e+00	120	28	0	1518338048	46	5464
2026-01-13 01:15:47.64	299.93	40.36	-36.0	-37.0	23.1	0.00e+00	123	28	0	1521483776	46	5543
2026-01-13 01:15:48.65	300.30	40.19	-36.2	-37.2	22.9	0.00e+00	122	28	0	1524629504	46	5687
2026-01-13 01:15:49.66	300.66	40.02	-36.4	-37.4	22.6	0.00e+00	123	28	0	1527775232	46	5818
2026-01-13 01:15:50.67	301.01	39.85	-36.7	-37.7	22.3	0.00e+00	122	28	0	1530920960	46	6061
2026-01-13 01:15:51.68	301.37	39.68	-36.9	-37.9	22.1	0.00e+00	122	28	0	1534066688	46	6154
2026-01-13 01:15:52.69	301.72	39.51	-36.8	-37.8	22.3	0.00e+00	123	28	0	1537212416	46	6081
2026-01-13 01:15:53.69	302.06	39.34	-36.7	-37.7	22.3	0.00e+00	123	28	0	1540358144	46	6029
2026-01-13 01:15:54.70	302.40	39.17	-36.6	-37.6	22.5	0.00e+00	123	28	0	1543503872	46	5948
2026-01-13 01:15:55.71	302.74	39.00	-36.6	-37.7	22.6	0.00e+00	122	28	0	1546649600	46	5995
2026-01-13 01:15:56.72	303.08	38.83	-36.6	-37.6	22.6	0.00e+00	123	28	0	1549795328	46	5977
2026-01-13 01:15:57.73	303.41	38.65	-36.9	-37.9	22.3	0.00e+00	120	28	0	1552941056	46	6155
2026-01-13 01:15:58.74	303.74	38.48	-37.0	-38.0	22.3	0.00e+00	123	28	0	1556086784	46	6245
2026-01-13 01:15:59.75	304.06	38.31	-36.9	-38.0	22.3	0.00e+00	123	28	0	1559232512	46	6229
2026-01-13 01:16:00.76	304.39	38.14	-36.9	-37.9	22.3	0.00e+00	123	28	0	1562378240	46	6182
2026-01-13 01:16:01.77	304.70	37.96	-36.5	-37.5	22.7	0.00e+00	123	28	0	1565523968	46	5862
2026-01-13 01:16:02.78	305.02	37.79	-36.3	-37.3	23.0	0.00e+00	123	28	0	1568669696	46	5746
2026-01-13 01:16:03.79	305.33	37.62	-35.5	-36.4	23.6	0.00e+00	123	28	0	1571815424	44	5825
2026-01-13 01:16:04.80	305.64	37.45	-35.5	-36.4	23.5	0.00e+00	123	28	0	1574961152	44	5827
2026-01-13 01:16:05.81	305.95	37.27	-35.2	-36.1	23.7	0.00e+00	120	28	0	1578106880	44	5654
2026-01-13 01:16:06.82	306.25	37.10	-35.1	-36.0	23.8	0.00e+00	122	28	0	1581252608	44	5590
2026-01-13 01:16:07.83	306.55	36.93	-35.1	-36.0	23.9	0.00e+00	122	28	0	1584398336	44	5542
2026-01-13 01:16:08.84	306.84	36.76	-35.2	-36.1	23.7	0.00e+00	123	28	0	1587544064	44	5629
2026-01-13 01:16:09.85	307.14	36.58	-35.2	-36.1	23.7	0.00e+00	122	28	0	1590689792	44	5634
2026-01-13 01:16:10.86	307.43	36.41	-35.1	-36.0	23.9	0.00e+00	123	28	0	1593835520	44	5547
2026-01-13 01:16:11.87	307.71	36.24	-35.0	-35.9	23.9	0.00e+00	123	28	0	1596981248	44	5509
2026-01-13 01:16:12.88	308.00	36.07	-35.2	-36.1	23.8	0.00e+00	123	28	0	1600126976	44	5629
2026-01-13 01:16:13.89	308.28	35.89	-35.3	-36.2	23.6	0.00e+00	123	28	0	1603272704	44	5703
2026-01-13 01:16:14.91	308.56	35.72	-35.3	-36.3	23.7	0.00e+00	123	28	0	1606418432	44	5728
2026-01-13 01:16:15.91	308.83	35.55	-35.5	-36.4	23.5	0.00e+00	120	28	0	1609564160	44	5851
2026-01-13 01:16:16.92	309.10	35.38	-35.4	-36.3	23.6	0.00e+00	120	28	0	1612709888	44	5765
2026-01-13 01:16:17.93	309.37	35.21	-35.1	-36.1	23.8	0.00e+00	123	28	0	1615855616	44	5597
2026-01-13 01:16:18.94	309.64	35.04	-35.2	-36.1	23.7	0.00e+00	120	28	0	1619001344	44	5653
2026-01-13 01:16:19.95	309.91	34.87	-35.1	-36.0	23.9	0.00e+00	122	28	0	1622147072	44	5564
2026-01-13 01:16:20.96	310.17	34.70	-35.0	-35.9	23.9	0.00e+00	120	28	0	1625292800	44	5527
2026-01-13 01:16:21.97	310.43	34.53	-35.3	-36.2	23.6	0.00e+00	122	28	0	1628438528	44	5720
2026-01-13 01:16:22.98	310.68	34.36	-35.5	-36.5	23.4	0.00e+00	123	28	0	1631584256	44	5892
2026-01-13 01:16:23.99	310.94	34.19	-35.8	-36.8	23.2	0.00e+00	123	28	0	1634729984	44	6066
2026-01-13 01:16:25.00	311.19	34.02	-35.8	-36.7	23.2	0.00e+00	120	28	0	1637875712	44	6055
2026-01-13 01:16:26.01	311.43	33.85	-35.6	-36.5	23.5	0.00e+00	122	28	0	1641021440	44	5896
2026-01-13 01:16:27.02	311.68	33.68	-35.5	-36.5	23.5	0.00e+00	120	28	0	1644167168	44	5875
2026-01-13 01:16:28.03	311.92	33.51	-35.6	-36.5	23.4	0.00e+00	122	28	0	1647312896	44	5923
2026-01-13 01:16:29.05	312.17	33.34	-35.6	-36.6	23.3	0.00e+00	122	28	0	1650458624	44	5952
2026-01-13 01:16:30.06	312.41	33.18	-35.6	-36.6	23.4	0.00e+00	122	28	0	1653604352	44	5929
2026-01-13 01:16:31.06	312.64	33.01	-35.8	-36.8	23.1	0.00e+00	123	28	0	1656750080	44	6075
2026-01-13 01:16:32.07	312.87	32.85	-35.9	-36.9	23.2	0.00e+00	123	28	0	1659895808	44	6147
2026-01-13 01:16:33.08	313.11	32.68	-35.9	-36.8	23.2	0.00e+00	123	28	0	1663041536	44	6134
2026-01-13 01:16:34.09	313.33	32.51	-35.6	-36.6	23.4	0.00e+00	123	28	0	1666187264	44	5980
2026-01-13 01:16:35.11	313.56	32.35	-35.4	-36.3	23.6	0.00e+00	120	28	0	1669332992	44	5778
2026-01-13 01:16:36.12	313.79	32.18	-35.1	-36.0	23.9	0.00e+00	123	28	0	1672478720	44	5560
2026-01-13 01:16:37.13	314.01	32.02	-35.0	-35.9	23.9	0.00e+00	122	28	0	1675624448	44	5489
2026-01-13 01:16:38.14	314.23	31.85	-34.8	-35.7	23.9	0.00e+00	123	28	0	1678770176	44	5404
2026-01-13 01:16:39.15	314.45	31.69	-34.7	-35.6	24.1	0.00e+00	123	28	0	1681915904	42	5946
2026-01-13 01:16:40.16	314.67	31.53	-34.5	-35.4	24.2	0.00e+00	123	28	0	1685061632	42	5831
2026-01-13 01:16:41.17	314.88	31.37	-34.6	-35.5	24.1	0.00e+00	123	28	0	1688207360	42	5886
2026-01-13 01:16:42.17	315.09	31.20	-34.6	-35.5	24.2	0.00e+00	122	28	0	1691353088	42	5896
2026-01-13 01:16:43.18	315.30	31.04	-34.8	-35.7	24.1	0.00e+00	123	28	0	1694498816	42	6011
2026-01-13 01:16:44.19	315.51	30.88	-34.4	-35.3	24.4	0.00e+00	123	28	0	1697644544	42	5754
2026-01-13 01:16:45.21	315.71	30.72	-34.3	-35.1	24.5	0.00e+00	122	28	0	1700790272	42	5652
2026-01-13 01:16:46.21	315.92	30.56	-34.3	-35.2	24.4	0.00e+00	120	28	0	1704984576	42	5699
2026-01-13 01:16:47.22	316.12	30.40	-34.3	-35.2	24.3	0.00e+00	120	28	0	1708130304	42	5714
2026-01-13 01:16:48.23	316.32	30.24	-34.5	-35.4	24.2	0.00e+00	123	28	0	1710227456	42	5823
2026-01-13 01:16:49.24	316.51	30.09	-34.6	-35.5	24.3	0.00e+00	123	28	0	1713373184	42	5880
2026-01-13 01:16:50.25	316.71	29.93	-34.6	-35.5	24.2	0.00e+00	123	28	0	1716518912	42	5866
2026-01-13 01:16:51.26	316.90	29.77	-34.7	-35.6	24.1	0.00e+00	122	28	0	1719664640	42	5944
2026-01-13 01:16:52.27	317.10	29.61	-34.6	-35.5	24.2	0.00e+00	120	28	0	1723858944	42	5894
2026-01-13 01:16:53.28	317.29	29.46	-34.7	-35.6	24.0	0.00e+00	120	28	0	1727004672	42	5983
2026-01-13 01:16:54.29	317.48	29.30	-34.6	-35.5	24.1	0.00e+00	123	28	0	1730150400	42	5921
2026-01-13 01:16:55.30	317.66	29.15	-34.4	-35.3	24.3	0.00e+00	122	28	0	1733296128	42	5746
2026-01-13 01:16:56.31	317.85	28.99	-34.3	-35.2	24.2	0.00e+00	120	28	0	1735393280	42	5691
2026-01-13 01:16:57.32	318.03	28.84	-34.3	-35.2	24.1	0.00e+00	122	28	0	1739587584	42	5691
2026-01-13 01:16:58.32	318.21	28.68	-34.4	-35.3	24.0	0.00e+00	123	28	0	1742733312	42	5780
2026-01-13 01:16:59.33	318.39	28.53	-34.5	-35.4	24.0	0.00e+00	123	28	0	1745879040	42	5815
2026-01-13 01:17:00.34	318.57	28.38	-34.3	-35.2	24.1	0.00e+00	120	28	0	1749024768	42	5705
2026-01-13 01:17:01.35	318.75	28.23	-34.4	-35.3	24.2	0.00e+00	122	28	0	1752170496	42	5746
2026-01-13 01:17:02.35	318.92	28.08	-34.5	-35.4	24.1	0.00e+00	123	28	0	1755316224	42	5843
2026-01-13 01:17:03.36	319.09	27.93	-34.6	-35.5	24.1	0.00e+00	120	28	0	1758461952	42	5889
2026-01-13 01:17:04.37	319.27	27.78	-34.5	-35.4	24.3	0.00e+00	123	28	0	1761607680	42	5810
2026-01-13 01:17:05.39	319.44	27.62	-34.4	-35.3	24.4	0.00e+00	120	28	0	1764753408	42	5779
2026-01-13 01:17:06.40	319.61	27.47	-34.2	-35.1	24.4	0.00e+00	123	28	0	1767899136	42	5652
2026-01-13 01:17:07.40	319.77	27.33	-34.1	-35.0	24.5	0.00e+00	123	28	0	1771044864	42	5587
2026-01-13 01:17:08.41	319.94	27.18	-34.2	-35.0	24.5	0.00e+00	123	28	0	1774190592	42	5587
2026-01-13 01:17:09.42	320.10	27.03	-34.0	-34.9	24.7	0.00e+00	123	28	0	1777336320	42	5469
2026-01-13 01:17:10.43	320.27	26.88	-34.0	-34.9	24.6	0.00e+00	123	28	0	1780482048	42	5520
2026-01-13 01:17:11.44	320.43	26.74	-34.1	-34.9	24.6	0.00e+00	122	28	0	1783627776	42	5516
2026-01-13 01:17:12.45	320.59	26.59	-34.1	-35.0	24.5	0.00e+00	123	28	0	1786773504	42	5579
2026-01-13 01:17:13.47	320.75	26.45	-34.1	-35.0	24.5	0.00e+00	123	28	0	1789919232	42	5584
2026-01-13 01:17:14.47	320.90	26.30	-34.2	-35.1	24.5	0.00e+00	123	28	0	1793064960	42	5619
2026-01-13 01:17:15.48	321.06	26.16	-34.2	-35.1	24.5	0.00e+00	120	28	0	1796210688	42	5626
2026-01-13 01:17:16.49	321.21	26.01	-34.1	-35.1	24.5	0.00e+00	122	28	0	1799356416	42	5602
2026-01-13 01:17:17.49	321.36	25.87	-34.3	-35.2	24.4	0.00e+00	123	28	0	1802502144	42	5689
2026-01-13 01:17:18.51	321.52	25.73	-33.9	-34.8	24.7	0.00e+00	123	28	0	1805647872	42	5459
2026-01-13 01:17:19.52	321.67	25.59	-33.9	-34.8	24.7	0.00e+00	120	28	0	1808793600	42	5408
2026-01-13 01:17:20.53	321.82	25.45	-33.8	-34.7	24.7	0.00e+00	122	28	0	1811939328	42	5386
2026-01-13 01:17:21.54	321.97	25.31	-33.7	-34.6	24.7	0.00e+00	120	28	0	1815085056	42	5319
2026-01-13 01:17:22.55	322.11	25.16	-33.5	-34.3	24.9	0.00e+00	122	28	0	1818230784	40	5776
2026-01-13 01:17:23.56	322.26	25.02	-33.4	-34.3	24.9	0.00e+00	120	28	0	1821376512	40	5763
2026-01-13 01:17:24.57	322.40	24.89	-33.4	-34.3	24.8	0.00e+00	122	28	0	1824522240	40	5758
2026-01-13 01:17:25.58	322.54	24.75	-33.6	-34.5	24.8	0.00e+00	120	28	0	1827667968	40	5866
2026-01-13 01:17:26.59	322.69	24.61	-33.4	-34.3	24.8	0.00e+00	123	28	0	1830813696	40	5768
2026-01-13 01:17:27.60	322.83	24.47	-33.6	-34.5	24.7	0.00e+00	123	28	0	1833959424	40	5885
2026-01-13 01:17:28.61	322.97	24.33	-33.5	-34.4	24.7	0.00e+00	122	28	0	1837105152	40	5839
2026-01-13 01:17:29.62	323.10	24.20	-33.7	-34.5	24.7	0.00e+00	123	28	0	1840250880	40	5916
2026-01-13 01:17:30.63	323.24	24.06	-33.7	-34.6	24.7	0.00e+00	122	28	0	1843396608	40	5976
2026-01-13 01:17:31.64	323.38	23.93	-33.8	-34.7	24.6	0.00e+00	123	28	0	1846542336	40	6058
2026-01-13 01:17:32.65	323.51	23.79	-33.7	-34.6	24.8	0.00e+00	123	28	0	1849688064	40	5936
2026-01-13 01:17:33.66	323.65	23.66	-33.7	-34.6	24.7	0.00e+00	123	28	0	1852833792	40	5984
2026-01-13 01:17:34.67	323.78	23.52	-33.7	-34.6	24.7	0.00e+00	122	28	0	1855979520	40	5944
2026-01-13 01:17:35.68	323.91	23.39	-33.7	-34.6	24.7	0.00e+00	120	28	0	1859125248	40	5942
2026-01-13 01:17:36.69	324.04	23.26	-33.7	-34.6	24.7	0.00e+00	120	28	0	1862270976	40	5930
2026-01-13 01:17:37.70	324.17	23.13	-33.7	-34.5	24.6	0.00e+00	123	28	0	1865416704	40	5910
2026-01-13 01:17:38.71	324.30	23.00	-33.8	-34.7	24.5	0.00e+00	123	28	0	1868562432	40	5995
2026-01-13 01:17:39.72	324.42	22.86	-33.9	-34.8	24.4	0.00e+00	121	28	0	1871708160	40	6074
2026-01-13 01:17:40.73	324.55	22.73	-33.9	-34.8	24.2	0.00e+00	122	28	0	1874853888	40	6080
2026-01-13 01:17:41.74	324.68	22.60	-34.0	-34.9	24.2	0.00e+00	122	28	0	1877999616	40	6154
2026-01-13 01:17:42.75	324.80	22.47	-34.0	-34.9	24.2	0.00e+00	123	28	0	1881145344	40	6177
2026-01-13 01:17:43.76	324.92	22.35	-34.1	-35.0	24.2	0.00e+00	123	28	0	1884291072	40	6254
2026-01-13 01:17:44.77	325.05	22.22	-33.9	-34.8	24.4	0.00e+00	122	28	0	1887436800	40	6107
2026-01-13 01:17:45.78	325.17	22.09	-34.0	-34.9	24.3	0.00e+00	123	28	0	1890582528	40	6184
2026-01-13 01:17:46.79	325.29	21.96	-34.1	-35.0	24.3	0.00e+00	120	28	0	1893728256	40	6214
2026-01-13 01:17:47.79	325.40	21.84	-34.2	-35.0	24.3	0.00e+00	123	28	0	1896873984	40	6277
2026-01-13 01:17:48.80	325.52	21.71	-34.3	-35.2	24.3	0.00e+00	123	28	0	1900019712	40	6365
2026-01-13 01:17:49.81	325.64	21.58	-34.2	-35.1	24.3	0.00e+00	122	28	0	1903165440	40	6331
2026-01-13 01:17:50.82	325.76	21.46	-34.2	-35.1	24.2	0.00e+00	120	28	0	1906311168	40	6330
2026-01-13 01:17:51.83	325.87	21.33	-34.4	-35.3	24.2	0.00e+00	123	28	0	1909456896	40	6459
2026-01-13 01:17:52.84	325.99	21.21	-34.5	-35.4	24.1	0.00e+00	123	28	0	1912602624	40	6573
2026-01-13 01:17:53.85	326.10	21.09	-34.6	-35.6	24.0	0.00e+00	123	28	0	1915748352	40	6654
2026-01-13 01:17:54.86	326.21	20.96	-34.7	-35.6	24.0	0.00e+00	123	28	0	1918894080	40	6666
2026-01-13 01:17:55.87	326.33	20.84	-34.9	-35.8	24.0	0.00e+00	123	28	0	1922039808	42	6094
2026-01-13 01:17:56.88	326.44	20.72	-34.9	-35.8	23.9	0.00e+00	120	28	0	1925185536	42	6099
2026-01-13 01:17:57.89	326.55	20.60	-34.9	-35.8	23.8	0.00e+00	122	28	0	1928331264	42	6118
2026-01-13 01:17:58.90	326.66	20.47	-34.9	-35.9	23.9	0.00e+00	122	28	0	1931476992	42	6135
2026-01-13 01:17:59.91	326.77	20.35	-34.8	-35.8	23.9	0.00e+00	123	28	0	1934622720	42	6078
2026-01-13 01:18:00.92	326.88	20.23	-34.6	-35.5	24.1	0.00e+00	123	28	0	1937768448	42	5909
2026-01-13 01:18:01.93	326.98	20.11	-34.7	-35.6	24.1	0.00e+00	123	28	0	1940914176	42	5963
2026-01-13 01:18:02.94	327.09	19.99	-34.5	-35.4	24.2	0.00e+00	122	28	0	1944059904	42	5826
2026-01-13 01:18:03.95	327.19	19.88	-34.6	-35.5	24.1	0.00e+00	122	28	0	1947205632	42	5887
2026-01-13 01:18:04.96	327.30	19.76	-34.6	-35.5	24.0	0.00e+00	121	28	0	1950351360	42	5908
2026-01-13 01:18:05.97	327.40	19.64	-34.4	-35.4	24.1	0.00e+00	123	28	0	1953497088	42	5793
2026-01-13 01:18:06.98	327.51	19.52	-34.2	-35.1	24.3	0.00e+00	123	28	0	1956642816	42	5606
2026-01-13 01:18:07.99	327.61	19.40	-34.3	-35.2	24.1	0.00e+00	122	28	0	1959788544	42	5703
