passes_logs/2026/01/13/R4.6S_Anadyr/R4.6S_Anadyr__20260113_152210_SUOMI_NPP_rec.log

#Pass ID: 20260113_152210_SUOMI NPP
#Satellite: SUOMI NPP
#Configuration: NPP
#almurnet v.1.7.20251203
#Start time: 2026-01-13 15:22:12

#Version: 2.2.20231116
#Station: R4.6S_Anadyr
#Location: 177.4865 lon 64.73178 lat
#TLE: 1 37849U 11061A   26012.28456845  .00000093  00000+0  65163-4 0  9999
#TLE: 2 37849  98.7807 314.3566 0002508  68.3553 291.7890 14.19524725736322

#Time	Az	El	Level	Level2	SNR	BER	BlckErr	Temp	State	Recorded	gain1	gain2
2026-01-13 15:22:12.25	21.91	0.13	-48.4	-61.0	3.4	1.52e+00	0	24	0	0	60	39165
2026-01-13 15:22:13.25	21.90	0.19	-48.5	-63.7	3.6	1.51e+00	0	25	104	0	60	55437
2026-01-13 15:22:14.27	21.89	0.25	-48.6	-63.8	3.6	1.51e+00	0	25	104	0	60	55679
2026-01-13 15:22:15.27	21.88	0.31	-48.6	-63.8	3.6	1.51e+00	0	26	104	0	60	55768
2026-01-13 15:22:16.28	21.86	0.37	-48.6	-63.8	3.6	1.51e+00	0	25	104	0	60	55878
2026-01-13 15:22:17.29	21.85	0.43	-48.6	-63.7	3.6	1.51e+00	0	26	104	0	60	55648
2026-01-13 15:22:18.30	21.84	0.49	-48.5	-63.8	3.6	1.51e+00	0	26	104	0	60	55672
2026-01-13 15:22:19.32	21.83	0.56	-48.5	-63.8	3.6	1.51e+00	0	26	104	0	60	55719
2026-01-13 15:22:20.32	21.82	0.62	-48.6	-63.9	3.6	1.51e+00	0	26	104	0	60	56327
2026-01-13 15:22:21.34	21.80	0.68	-48.6	-63.7	3.6	1.51e+00	0	26	104	0	60	55615
2026-01-13 15:22:22.34	21.79	0.74	-48.5	-63.8	3.6	1.51e+00	0	26	104	0	60	56018
2026-01-13 15:22:23.35	21.78	0.80	-48.5	-63.7	3.6	1.51e+00	0	26	104	0	60	55243
2026-01-13 15:22:24.36	21.77	0.86	-48.4	-63.6	3.6	1.51e+00	0	26	104	0	60	54667
2026-01-13 15:22:25.38	21.76	0.92	-48.3	-63.5	3.6	1.51e+00	0	26	104	0	60	54163
2026-01-13 15:22:26.38	21.74	0.99	-48.2	-63.3	3.6	1.51e+00	0	26	104	0	60	52879
2026-01-13 15:22:27.39	21.73	1.05	-47.9	-63.2	3.6	1.51e+00	0	26	104	0	60	52223
2026-01-13 15:22:28.40	21.72	1.11	-47.9	-63.0	3.6	1.51e+00	0	26	104	0	60	51258
2026-01-13 15:22:29.41	21.71	1.17	-47.6	-62.8	3.6	1.51e+00	0	26	104	0	60	50000
2026-01-13 15:22:30.42	21.69	1.23	-47.3	-62.5	3.6	1.51e+00	0	26	104	0	60	48025
2026-01-13 15:22:31.43	21.68	1.30	-47.0	-62.2	3.6	1.51e+00	0	26	104	0	60	46686
2026-01-13 15:22:32.44	21.67	1.36	-47.0	-62.2	3.5	1.51e+00	0	26	104	0	60	46467
2026-01-13 15:22:33.45	21.66	1.42	-47.0	-62.1	3.6	1.51e+00	0	26	104	0	60	46037
2026-01-13 15:22:34.46	21.64	1.49	-47.0	-62.1	3.6	1.51e+00	0	26	104	0	60	45886
2026-01-13 15:22:35.47	21.63	1.55	-47.0	-62.0	3.6	1.51e+00	0	26	104	0	60	45280
2026-01-13 15:22:36.48	21.62	1.61	-47.0	-61.8	3.6	1.51e+00	0	26	104	0	60	44549
2026-01-13 15:22:37.49	21.60	1.67	-47.0	-61.7	3.6	1.51e+00	0	26	104	0	60	44101
2026-01-13 15:22:38.50	21.59	1.74	-47.0	-61.6	3.6	1.51e+00	0	26	104	0	60	43698
2026-01-13 15:22:39.51	21.58	1.80	-47.0	-61.7	3.6	1.51e+00	0	26	104	0	60	43863
2026-01-13 15:22:40.52	21.56	1.87	-47.0	-61.8	3.6	1.51e+00	0	26	104	0	60	44485
2026-01-13 15:22:41.52	21.55	1.93	-47.0	-61.9	3.6	1.51e+00	0	26	104	0	60	44773
2026-01-13 15:22:42.53	21.54	1.99	-47.0	-62.1	3.6	1.51e+00	0	26	104	0	60	45976
2026-01-13 15:22:43.55	21.52	2.06	-47.0	-62.1	3.6	1.51e+00	0	26	104	0	60	46294
2026-01-13 15:22:44.56	21.51	2.12	-47.0	-62.2	3.6	1.51e+00	0	26	104	0	60	46500
2026-01-13 15:22:45.56	21.50	2.19	-47.0	-62.1	3.6	1.51e+00	0	26	104	0	60	46289
2026-01-13 15:22:46.57	21.48	2.25	-47.0	-62.1	3.6	1.51e+00	0	26	104	0	60	45882
2026-01-13 15:22:47.58	21.47	2.32	-47.0	-62.0	3.6	1.51e+00	0	26	104	0	60	45540
2026-01-13 15:22:48.59	21.45	2.38	-47.0	-61.9	3.6	1.51e+00	0	26	104	0	60	44874
2026-01-13 15:22:49.60	21.44	2.45	-47.0	-61.7	3.6	1.51e+00	0	26	104	0	60	44118
2026-01-13 15:22:50.61	21.43	2.51	-46.9	-61.2	3.6	1.51e+00	0	26	104	0	60	41692
2026-01-13 15:22:51.62	21.41	2.58	-46.9	-61.1	3.6	1.51e+00	0	26	104	0	60	40852
2026-01-13 15:22:52.63	21.40	2.64	-46.9	-60.8	3.6	1.51e+00	0	26	104	0	60	39840
2026-01-13 15:22:53.64	21.38	2.71	-46.9	-60.3	3.6	1.51e+00	0	26	104	0	60	37617
2026-01-13 15:22:54.65	21.37	2.77	-46.9	-60.5	3.6	1.51e+00	0	26	104	0	60	38341
2026-01-13 15:22:55.66	21.35	2.84	-46.9	-60.7	3.6	1.51e+00	0	26	104	0	60	38987
2026-01-13 15:22:56.67	21.34	2.90	-46.9	-61.0	3.6	1.51e+00	0	26	104	0	60	40651
2026-01-13 15:22:57.68	21.32	2.97	-46.9	-60.8	3.6	1.51e+00	0	26	104	0	60	39646
2026-01-13 15:22:58.69	21.31	3.04	-46.9	-59.8	3.8	1.51e+00	0	26	104	0	60	35448
2026-01-13 15:22:59.70	21.29	3.10	-46.7	-56.9	4.1	1.34e+00	49	26	0	0	60	25190
2026-01-13 15:23:00.71	21.28	3.17	-46.4	-54.1	6.0	5.75e-01	56	26	0	2097152	60	18401
2026-01-13 15:23:01.72	21.26	3.24	-46.1	-52.7	7.7	1.81e-01	0	26	0	3145728	60	15515
2026-01-13 15:23:02.73	21.25	3.30	-45.6	-51.1	9.7	2.06e-02	11	27	0	5242880	60	12909
2026-01-13 15:23:03.74	21.23	3.37	-45.0	-49.5	11.5	3.68e-03	0	26	0	7340032	60	10743
2026-01-13 15:23:04.75	21.22	3.44	-44.8	-48.8	12.1	3.31e-04	0	26	0	9437184	60	9968
2026-01-13 15:23:05.76	21.20	3.51	-44.3	-47.9	13.2	8.85e-05	0	26	0	11534336	60	8992
2026-01-13 15:23:06.76	21.19	3.57	-44.2	-47.6	13.4	7.60e-06	0	26	0	13631488	60	8663
2026-01-13 15:23:07.77	21.17	3.64	-44.2	-47.6	13.4	3.80e-06	44	26	0	14680064	60	8666
2026-01-13 15:23:08.78	21.16	3.71	-44.3	-47.8	13.2	2.51e-05	0	26	0	16777216	60	8889
2026-01-13 15:23:09.79	21.14	3.78	-44.6	-48.4	12.6	7.62e-05	92	26	0	18874368	60	9483
2026-01-13 15:23:10.80	21.12	3.85	-46.9	-59.3	3.6	1.30e-02	0	26	104	19922944	60	33483
2026-01-13 15:23:11.81	21.11	3.91	-47.0	-60.5	3.8	1.50e+00	0	26	104	19922944	60	38453
2026-01-13 15:23:12.82	21.09	3.98	-45.4	-50.5	7.8	4.79e-03	0	26	0	19922944	60	12139
2026-01-13 15:23:13.83	21.08	4.05	-43.3	-46.0	6.0	1.51e+00	0	26	104	19922944	60	7246
2026-01-13 15:23:14.84	21.06	4.12	-45.8	-52.0	6.4	4.18e-01	54	26	104	19922944	60	14390
2026-01-13 15:23:15.85	21.04	4.19	-43.9	-47.0	5.9	1.33e+00	34	26	104	19922944	60	8128
2026-01-13 15:23:16.86	21.03	4.26	-39.8	-41.1	19.4	0.00e+00	92	27	104	19922944	52	6509
2026-01-13 15:23:17.87	21.01	4.33	-40.1	-41.5	19.5	0.00e+00	0	26	0	20971520	52	6802
2026-01-13 15:23:18.88	20.99	4.40	-39.9	-41.3	19.8	0.00e+00	0	26	0	23068672	52	6636
2026-01-13 15:23:19.89	20.98	4.47	-39.9	-41.3	19.7	0.00e+00	0	27	0	25165824	52	6623
2026-01-13 15:23:20.90	20.96	4.54	-39.9	-41.3	19.7	0.00e+00	0	27	0	27262976	52	6617
2026-01-13 15:23:21.90	20.94	4.61	-39.9	-41.3	19.7	0.00e+00	59	26	0	28311552	52	6690
2026-01-13 15:23:22.91	20.93	4.68	-39.6	-40.9	20.2	0.00e+00	0	27	0	30408704	52	6349
2026-01-13 15:23:23.92	20.91	4.75	-40.0	-41.4	19.7	0.00e+00	89	26	0	32505856	52	6753
2026-01-13 15:23:24.93	20.89	4.82	-39.9	-41.2	19.9	0.00e+00	0	26	0	34603008	52	6590
2026-01-13 15:23:25.94	20.87	4.89	-39.7	-41.0	20.0	0.00e+00	0	26	0	36700160	52	6439
2026-01-13 15:23:26.95	20.86	4.96	-39.9	-41.3	19.8	0.00e+00	0	26	0	38797312	52	6678
2026-01-13 15:23:27.95	20.84	5.03	-39.8	-41.2	19.8	0.00e+00	0	26	0	39845888	52	6589
2026-01-13 15:23:28.96	20.82	5.11	-39.7	-41.1	20.0	0.00e+00	57	26	0	41943040	52	6498
2026-01-13 15:23:29.97	20.80	5.18	-39.6	-40.9	20.1	0.00e+00	0	26	0	44040192	52	6355
2026-01-13 15:23:30.98	20.78	5.25	-39.4	-40.7	20.4	0.00e+00	92	27	0	46137344	52	6208
2026-01-13 15:23:31.99	20.77	5.32	-39.6	-40.9	20.2	0.00e+00	0	27	0	48234496	52	6332
2026-01-13 15:23:33.00	20.75	5.39	-39.5	-40.8	20.3	0.00e+00	92	26	0	49283072	52	6259
2026-01-13 15:23:34.01	20.73	5.47	-39.5	-40.8	20.4	0.00e+00	0	27	0	51380224	52	6264
2026-01-13 15:23:35.02	20.71	5.54	-39.5	-40.8	20.3	0.00e+00	0	27	0	53477376	52	6277
2026-01-13 15:23:36.03	20.69	5.61	-39.6	-40.9	20.3	0.00e+00	0	27	0	55574528	52	6347
2026-01-13 15:23:37.03	20.67	5.68	-39.4	-40.7	20.4	0.00e+00	0	27	0	57671680	52	6216
2026-01-13 15:23:38.04	20.66	5.76	-39.6	-40.9	20.3	0.00e+00	59	27	0	58720256	52	6356
2026-01-13 15:23:39.05	20.64	5.83	-39.5	-40.8	20.4	0.00e+00	0	27	0	60817408	52	6308
2026-01-13 15:23:40.06	20.62	5.90	-39.7	-41.0	20.2	0.00e+00	42	26	0	62914560	52	6456
2026-01-13 15:23:41.07	20.60	5.98	-39.8	-41.2	19.9	0.00e+00	0	27	0	65011712	52	6550
2026-01-13 15:23:42.08	20.58	6.05	-39.7	-41.0	20.3	0.00e+00	0	27	0	67108864	52	6432
2026-01-13 15:23:43.09	20.56	6.13	-39.5	-40.8	20.5	0.00e+00	0	27	0	68157440	52	6247
2026-01-13 15:23:44.10	20.54	6.20	-39.3	-40.5	20.7	0.00e+00	0	27	0	70254592	52	6067
2026-01-13 15:23:45.11	20.52	6.28	-39.3	-40.5	20.7	0.00e+00	60	27	0	72351744	52	6100
2026-01-13 15:23:46.12	20.50	6.35	-39.4	-40.7	20.5	0.00e+00	0	27	0	74448896	52	6226
2026-01-13 15:23:47.13	20.48	6.43	-39.4	-40.6	20.5	0.00e+00	61	27	0	76546048	52	6160
2026-01-13 15:23:48.14	20.46	6.50	-39.4	-40.7	20.5	0.00e+00	0	27	0	77594624	52	6185
2026-01-13 15:23:49.15	20.44	6.58	-39.3	-40.6	20.7	0.00e+00	0	27	0	79691776	52	6108
2026-01-13 15:23:50.16	20.42	6.65	-39.0	-40.2	21.0	0.00e+00	0	27	0	81788928	52	5859
2026-01-13 15:23:51.16	20.40	6.73	-39.1	-40.3	20.9	0.00e+00	0	27	0	83886080	52	5921
2026-01-13 15:23:52.17	20.38	6.81	-39.1	-40.3	20.9	0.00e+00	61	27	0	85983232	52	5922
2026-01-13 15:23:53.18	20.36	6.88	-38.9	-40.1	21.0	0.00e+00	0	27	0	87031808	52	5818
2026-01-13 15:23:54.19	20.34	6.96	-39.0	-40.2	21.0	0.00e+00	79	27	0	89128960	52	5857
2026-01-13 15:23:55.20	20.32	7.04	-38.9	-40.1	21.1	0.00e+00	0	27	0	91226112	52	5804
2026-01-13 15:23:56.21	20.30	7.11	-38.9	-40.0	21.2	0.00e+00	0	27	0	93323264	52	5757
2026-01-13 15:23:57.22	20.28	7.19	-38.9	-40.0	21.2	0.00e+00	0	27	0	95420416	52	5758
2026-01-13 15:23:58.23	20.26	7.27	-39.1	-40.3	21.0	0.00e+00	0	26	0	96468992	52	5958
2026-01-13 15:23:59.24	20.23	7.35	-38.8	-40.0	21.2	0.00e+00	4	27	0	98566144	52	5736
2026-01-13 15:24:00.25	20.21	7.42	-38.7	-39.8	21.3	0.00e+00	0	27	0	100663296	50	6288
2026-01-13 15:24:01.26	20.19	7.50	-38.7	-39.9	21.3	0.00e+00	91	27	0	102760448	50	6335
2026-01-13 15:24:02.27	20.17	7.58	-38.9	-40.0	21.2	0.00e+00	0	27	0	104857600	50	6444
2026-01-13 15:24:03.28	20.15	7.66	-38.7	-39.9	21.3	0.00e+00	0	27	0	106954752	50	6340
2026-01-13 15:24:04.28	20.12	7.74	-38.7	-39.8	21.4	0.00e+00	0	27	0	108003328	50	6284
2026-01-13 15:24:05.29	20.10	7.82	-38.7	-39.8	21.5	0.00e+00	0	27	0	110100480	50	6288
2026-01-13 15:24:06.30	20.08	7.90	-38.6	-39.7	21.4	0.00e+00	0	27	0	112197632	50	6226
2026-01-13 15:24:07.31	20.06	7.98	-38.6	-39.7	21.4	0.00e+00	0	26	0	114294784	50	6204
2026-01-13 15:24:08.32	20.03	8.06	-38.5	-39.6	21.6	0.00e+00	92	27	0	116391936	50	6134
2026-01-13 15:24:09.33	20.01	8.14	-38.5	-39.6	21.5	0.00e+00	0	27	0	117440512	50	6142
2026-01-13 15:24:10.34	19.99	8.22	-38.5	-39.6	21.5	0.00e+00	60	26	0	119537664	50	6141
2026-01-13 15:24:11.35	19.97	8.30	-38.6	-39.7	21.5	0.00e+00	0	27	0	121634816	50	6218
2026-01-13 15:24:12.36	19.94	8.38	-38.4	-39.5	21.7	0.00e+00	0	27	0	123731968	50	6074
2026-01-13 15:24:13.37	19.92	8.46	-38.3	-39.4	21.8	0.00e+00	49	27	0	125829120	50	6011
2026-01-13 15:24:14.38	19.90	8.54	-38.4	-39.5	21.7	0.00e+00	33	27	0	126877696	50	6096
2026-01-13 15:24:15.39	19.87	8.62	-38.5	-39.6	21.7	0.00e+00	61	27	0	128974848	50	6123
2026-01-13 15:24:16.40	19.85	8.71	-38.2	-39.3	21.8	0.00e+00	0	27	0	131072000	50	5903
2026-01-13 15:24:17.40	19.82	8.79	-38.4	-39.5	21.7	0.00e+00	92	27	0	133169152	50	6078
2026-01-13 15:24:18.41	19.80	8.87	-38.3	-39.4	21.7	0.00e+00	0	27	0	135266304	50	6017
2026-01-13 15:24:19.43	19.78	8.95	-38.2	-39.3	21.9	0.00e+00	0	27	0	136314880	50	5907
2026-01-13 15:24:20.43	19.75	9.04	-38.2	-39.3	21.9	0.00e+00	0	27	0	138412032	50	5924
2026-01-13 15:24:21.44	19.73	9.12	-38.1	-39.2	22.1	0.00e+00	0	27	0	140509184	50	5838
2026-01-13 15:24:22.45	19.70	9.20	-38.0	-39.1	22.1	0.00e+00	22	27	0	142606336	50	5773
2026-01-13 15:24:23.46	19.68	9.29	-38.2	-39.3	22.0	0.00e+00	0	27	0	144703488	50	5919
2026-01-13 15:24:24.47	19.65	9.37	-38.1	-39.2	22.0	0.00e+00	90	27	0	145752064	50	5863
2026-01-13 15:24:25.48	19.63	9.46	-38.1	-39.1	22.1	0.00e+00	0	27	0	147849216	50	5819
2026-01-13 15:24:26.49	19.60	9.54	-38.1	-39.1	22.1	0.00e+00	0	27	0	149946368	50	5804
2026-01-13 15:24:27.50	19.57	9.63	-38.0	-39.0	22.2	0.00e+00	0	27	0	152043520	50	5753
2026-01-13 15:24:28.51	19.55	9.71	-37.8	-38.9	22.3	0.00e+00	0	27	0	154140672	50	5642
2026-01-13 15:24:29.52	19.52	9.80	-37.7	-38.7	22.5	0.00e+00	61	27	0	155189248	48	6191
2026-01-13 15:24:30.52	19.50	9.88	-37.7	-38.7	22.4	0.00e+00	0	27	0	157286400	48	6245
2026-01-13 15:24:31.53	19.47	9.97	-37.7	-38.7	22.4	0.00e+00	91	27	0	159383552	48	6189
2026-01-13 15:24:32.54	19.44	10.05	-37.7	-38.7	22.5	0.00e+00	0	27	0	161480704	48	6222
2026-01-13 15:24:33.55	19.42	10.14	-37.6	-38.6	22.5	0.00e+00	0	27	0	163577856	48	6134
2026-01-13 15:24:34.56	19.39	10.23	-37.9	-38.9	22.4	0.00e+00	0	27	0	164626432	48	6356
2026-01-13 15:24:35.56	19.36	10.31	-37.5	-38.5	22.7	0.00e+00	0	27	0	166723584	48	6052
2026-01-13 15:24:36.58	19.33	10.40	-37.5	-38.5	22.6	0.00e+00	0	27	0	168820736	48	6041
2026-01-13 15:24:37.58	19.31	10.49	-37.2	-38.2	22.8	0.00e+00	0	27	0	170917888	48	5855
2026-01-13 15:24:38.60	19.28	10.58	-37.4	-38.3	22.8	0.00e+00	63	27	0	173015040	48	5931
2026-01-13 15:24:39.60	19.25	10.67	-37.3	-38.2	22.9	0.00e+00	0	27	0	174063616	48	5883
2026-01-13 15:24:40.61	19.22	10.76	-37.3	-38.2	22.8	0.00e+00	49	27	0	176160768	48	5890
2026-01-13 15:24:41.62	19.20	10.85	-37.3	-38.2	22.9	0.00e+00	0	27	0	178257920	48	5876
2026-01-13 15:24:42.63	19.17	10.94	-37.1	-38.0	23.0	0.00e+00	0	27	0	180355072	48	5743
2026-01-13 15:24:43.64	19.14	11.03	-37.1	-38.0	23.0	0.00e+00	0	27	0	182452224	48	5761
2026-01-13 15:24:44.65	19.11	11.12	-37.1	-38.0	23.0	0.00e+00	0	27	0	183500800	48	5728
2026-01-13 15:24:45.66	19.08	11.21	-37.1	-38.1	23.0	0.00e+00	61	26	0	185597952	48	5780
2026-01-13 15:24:46.67	19.05	11.30	-37.2	-38.1	23.0	0.00e+00	0	27	0	187695104	48	5792
2026-01-13 15:24:47.68	19.02	11.39	-37.0	-38.0	23.0	0.00e+00	74	27	0	189792256	48	5717
2026-01-13 15:24:48.69	18.99	11.48	-36.9	-37.8	23.2	0.00e+00	0	27	0	191889408	48	5586
2026-01-13 15:24:49.70	18.96	11.57	-36.8	-37.7	23.2	0.00e+00	0	27	0	192937984	48	5531
2026-01-13 15:24:50.71	18.93	11.66	-36.7	-37.6	23.3	0.00e+00	0	27	0	195035136	48	5492
2026-01-13 15:24:51.72	18.90	11.76	-36.7	-37.6	23.4	0.00e+00	0	27	0	197132288	46	6146
2026-01-13 15:24:52.72	18.87	11.85	-36.7	-37.6	23.4	0.00e+00	70	27	0	199229440	46	6148
2026-01-13 15:24:53.73	18.84	11.94	-36.8	-37.7	23.4	0.00e+00	0	27	0	201326592	46	6196
2026-01-13 15:24:54.74	18.81	12.04	-36.6	-37.5	23.4	0.00e+00	92	27	0	203423744	46	6098
2026-01-13 15:24:55.75	18.78	12.13	-36.6	-37.5	23.5	0.00e+00	0	27	0	204472320	46	6048
2026-01-13 15:24:56.76	18.75	12.22	-36.6	-37.4	23.5	0.00e+00	0	27	0	206569472	46	6033
2026-01-13 15:24:57.77	18.71	12.32	-36.5	-37.4	23.6	0.00e+00	0	27	0	208666624	46	5984
2026-01-13 15:24:58.78	18.68	12.41	-36.5	-37.4	23.6	0.00e+00	0	27	0	210763776	46	6014
2026-01-13 15:24:59.79	18.65	12.51	-36.6	-37.5	23.5	0.00e+00	16	27	0	212860928	46	6055
2026-01-13 15:25:00.80	18.62	12.60	-36.4	-37.2	23.6	0.00e+00	0	27	0	213909504	46	5884
2026-01-13 15:25:01.81	18.58	12.70	-36.5	-37.4	23.6	0.00e+00	89	27	0	216006656	46	5989
2026-01-13 15:25:02.82	18.55	12.80	-36.4	-37.3	23.6	0.00e+00	0	27	0	218103808	46	5902
2026-01-13 15:25:03.83	18.52	12.89	-36.3	-37.2	23.7	0.00e+00	0	27	0	220200960	46	5848
2026-01-13 15:25:04.84	18.48	12.99	-36.3	-37.1	23.7	0.00e+00	0	27	0	222298112	46	5816
2026-01-13 15:25:05.85	18.45	13.09	-36.4	-37.2	23.6	0.00e+00	0	27	0	223346688	46	5871
2026-01-13 15:25:06.86	18.42	13.19	-36.4	-37.3	23.6	0.00e+00	56	27	0	225443840	46	5898
2026-01-13 15:25:07.87	18.38	13.28	-36.4	-37.2	23.3	0.00e+00	0	27	0	227540992	46	5879
2026-01-13 15:25:08.88	18.35	13.38	-36.4	-37.3	23.8	0.00e+00	91	27	0	229638144	46	5908
2026-01-13 15:25:09.88	18.31	13.48	-36.4	-37.2	23.2	0.00e+00	0	27	0	231735296	46	5864
2026-01-13 15:25:10.89	18.28	13.58	-36.4	-37.2	23.2	0.00e+00	0	27	0	232783872	46	5896
2026-01-13 15:25:11.90	18.24	13.68	-36.5	-37.3	23.2	0.00e+00	0	27	0	234881024	46	5941
2026-01-13 15:25:12.91	18.21	13.78	-36.5	-37.4	23.4	0.00e+00	0	27	0	236978176	46	5979
2026-01-13 15:25:13.92	18.17	13.88	-36.3	-37.1	23.6	0.00e+00	0	27	0	239075328	46	5803
2026-01-13 15:25:14.93	18.14	13.98	-36.3	-37.2	23.7	0.00e+00	0	27	0	241172480	46	5852
2026-01-13 15:25:15.94	18.10	14.09	-36.4	-37.3	23.6	0.00e+00	90	27	0	242221056	46	5907
2026-01-13 15:25:16.95	18.06	14.19	-36.5	-37.4	23.6	0.00e+00	0	27	0	244318208	46	5991
2026-01-13 15:25:17.96	18.03	14.29	-36.4	-37.2	23.8	0.00e+00	92	27	0	246415360	46	5869
2026-01-13 15:25:18.96	17.99	14.39	-36.4	-37.3	23.7	0.00e+00	0	27	0	248512512	46	5937
2026-01-13 15:25:19.97	17.95	14.49	-36.5	-37.4	23.6	0.00e+00	0	27	0	250609664	46	5968
2026-01-13 15:25:20.98	17.91	14.60	-36.4	-37.3	23.7	0.00e+00	0	27	0	251658240	46	5900
2026-01-13 15:25:21.98	17.88	14.70	-36.4	-37.3	23.7	0.00e+00	0	27	0	253755392	46	5919
2026-01-13 15:25:22.99	17.84	14.81	-36.5	-37.3	23.7	0.00e+00	13	27	0	255852544	46	5962
2026-01-13 15:25:24.00	17.80	14.91	-36.5	-37.4	23.7	0.00e+00	0	27	0	257949696	46	5982
2026-01-13 15:25:25.01	17.76	15.02	-36.6	-37.5	23.6	0.00e+00	85	27	0	260046848	46	6047
2026-01-13 15:25:26.02	17.72	15.12	-36.5	-37.4	23.6	0.00e+00	0	27	0	261095424	46	6014
2026-01-13 15:25:27.03	17.68	15.23	-36.5	-37.4	23.7	0.00e+00	0	27	0	263192576	46	5991
2026-01-13 15:25:28.04	17.64	15.33	-36.5	-37.4	23.7	0.00e+00	0	27	0	265289728	46	6014
2026-01-13 15:25:29.05	17.60	15.44	-36.5	-37.4	23.7	0.00e+00	0	27	0	267386880	46	6005
2026-01-13 15:25:30.06	17.56	15.55	-36.5	-37.4	23.6	0.00e+00	63	27	0	269484032	46	5995
2026-01-13 15:25:31.07	17.52	15.66	-36.5	-37.4	23.8	0.00e+00	0	27	0	271581184	46	6010
2026-01-13 15:25:32.08	17.48	15.77	-36.6	-37.5	23.6	0.00e+00	84	27	0	272629760	46	6070
2026-01-13 15:25:33.09	17.44	15.88	-36.7	-37.6	23.6	0.00e+00	0	27	0	274726912	46	6144
2026-01-13 15:25:34.10	17.40	15.98	-36.6	-37.5	23.6	0.00e+00	0	27	0	276824064	46	6080
2026-01-13 15:25:35.11	17.35	16.09	-36.7	-37.6	23.5	0.00e+00	0	27	0	278921216	46	6158
2026-01-13 15:25:36.11	17.31	16.20	-36.8	-37.7	23.6	0.00e+00	0	27	0	281018368	46	6215
2026-01-13 15:25:37.12	17.27	16.32	-36.6	-37.5	23.6	0.00e+00	25	27	0	282066944	46	6096
2026-01-13 15:25:38.13	17.23	16.43	-36.5	-37.4	23.7	0.00e+00	0	27	0	284164096	46	6013
2026-01-13 15:25:39.14	17.18	16.54	-36.6	-37.4	23.6	0.00e+00	92	27	0	286261248	46	6031
2026-01-13 15:25:40.15	17.14	16.65	-36.6	-37.5	23.6	0.00e+00	0	27	0	288358400	46	6100
2026-01-13 15:25:41.16	17.09	16.76	-36.6	-37.5	23.6	0.00e+00	0	27	0	290455552	46	6098
2026-01-13 15:25:42.17	17.05	16.88	-36.6	-37.5	23.6	0.00e+00	0	27	0	291504128	46	6077
2026-01-13 15:25:43.18	17.01	16.99	-36.6	-37.5	23.6	0.00e+00	0	27	0	293601280	46	6052
2026-01-13 15:25:44.19	16.96	17.11	-36.7	-37.6	23.6	0.00e+00	0	27	0	295698432	46	6153
2026-01-13 15:25:45.20	16.91	17.22	-36.9	-37.8	23.5	0.00e+00	0	27	0	297795584	46	6281
2026-01-13 15:25:46.21	16.87	17.34	-36.7	-37.6	23.5	0.00e+00	88	27	0	299892736	46	6142
2026-01-13 15:25:47.22	16.82	17.45	-36.8	-37.7	23.6	0.00e+00	0	27	0	300941312	46	6184
2026-01-13 15:25:48.23	16.77	17.57	-36.7	-37.6	23.7	0.00e+00	0	27	0	303038464	46	6142
2026-01-13 15:25:49.24	16.73	17.69	-36.8	-37.7	23.5	0.00e+00	0	27	0	305135616	46	6204
2026-01-13 15:25:50.25	16.68	17.80	-36.5	-37.4	23.8	0.00e+00	0	27	0	307232768	46	6017
2026-01-13 15:25:51.26	16.63	17.92	-36.6	-37.5	23.7	0.00e+00	0	27	0	309329920	46	6035
2026-01-13 15:25:52.27	16.58	18.04	-36.7	-37.6	23.7	0.00e+00	0	27	0	310378496	46	6107
2026-01-13 15:25:53.28	16.53	18.16	-36.5	-37.4	23.7	0.00e+00	57	27	0	312475648	46	6026
2026-01-13 15:25:54.29	16.49	18.28	-36.7	-37.6	23.6	0.00e+00	0	27	0	314572800	46	6137
2026-01-13 15:25:55.29	16.44	18.40	-36.5	-37.4	23.7	0.00e+00	46	27	0	316669952	46	6023
2026-01-13 15:25:56.30	16.39	18.52	-36.4	-37.3	23.9	0.00e+00	0	27	0	318767104	46	5901
2026-01-13 15:25:57.31	16.34	18.64	-36.6	-37.5	23.8	0.00e+00	0	27	0	319815680	46	6050
2026-01-13 15:25:58.32	16.28	18.76	-36.5	-37.4	23.8	0.00e+00	0	27	0	321912832	46	5965
2026-01-13 15:25:59.33	16.23	18.89	-36.5	-37.4	23.8	0.00e+00	0	27	0	324009984	46	6014
2026-01-13 15:26:00.34	16.18	19.01	-36.5	-37.4	23.8	0.00e+00	92	27	0	326107136	46	5989
2026-01-13 15:26:01.35	16.13	19.13	-36.3	-37.1	24.0	0.00e+00	0	27	0	328204288	46	5816
2026-01-13 15:26:02.36	16.08	19.26	-36.2	-37.0	24.1	0.00e+00	92	27	0	329252864	46	5755
2026-01-13 15:26:03.37	16.02	19.38	-36.3	-37.1	24.0	0.00e+00	0	27	0	331350016	46	5815
2026-01-13 15:26:04.38	15.97	19.51	-36.3	-37.2	24.0	0.00e+00	0	27	0	333447168	46	5863
2026-01-13 15:26:05.39	15.91	19.63	-36.4	-37.3	23.9	0.00e+00	0	27	0	335544320	46	5946
2026-01-13 15:26:06.40	15.86	19.76	-36.2	-37.0	24.1	0.00e+00	0	27	0	337641472	46	5759
2026-01-13 15:26:07.41	15.80	19.89	-36.1	-37.0	24.0	0.00e+00	66	27	0	338690048	46	5716
2026-01-13 15:26:08.42	15.75	20.02	-36.1	-37.0	24.1	0.00e+00	33	27	0	340787200	46	5696
2026-01-13 15:26:09.43	15.69	20.15	-36.3	-37.1	23.9	0.00e+00	92	27	0	342884352	46	5802
2026-01-13 15:26:10.44	15.64	20.28	-36.4	-37.2	24.0	0.00e+00	0	27	0	344981504	46	5887
2026-01-13 15:26:11.44	15.58	20.40	-36.3	-37.2	23.9	0.00e+00	33	27	0	347078656	46	5851
2026-01-13 15:26:12.45	15.52	20.54	-36.1	-36.9	24.1	0.00e+00	0	27	0	348127232	46	5689
2026-01-13 15:26:13.46	15.46	20.67	-36.2	-37.0	24.1	0.00e+00	0	27	0	350224384	46	5736
2026-01-13 15:26:14.47	15.40	20.80	-36.2	-37.0	24.1	0.00e+00	65	27	0	352321536	46	5735
2026-01-13 15:26:15.48	15.34	20.93	-36.2	-37.0	24.1	0.00e+00	0	27	0	354418688	46	5727
2026-01-13 15:26:16.49	15.28	21.06	-36.4	-37.2	23.8	0.00e+00	76	27	0	356515840	46	5883
2026-01-13 15:26:17.49	15.22	21.20	-36.3	-37.1	24.1	0.00e+00	0	27	0	357564416	46	5802
2026-01-13 15:26:18.50	15.16	21.33	-36.3	-37.2	24.0	0.00e+00	68	27	0	359661568	46	5841
2026-01-13 15:26:19.51	15.10	21.47	-36.6	-37.4	23.7	0.00e+00	0	27	0	361758720	46	6032
2026-01-13 15:26:20.52	15.04	21.60	-36.6	-37.4	23.8	0.00e+00	0	27	0	363855872	46	6032
2026-01-13 15:26:21.53	14.98	21.74	-36.5	-37.4	23.8	0.00e+00	49	27	0	365953024	46	6005
2026-01-13 15:26:22.54	14.91	21.88	-36.6	-37.5	23.8	0.00e+00	0	27	0	368050176	46	6064
2026-01-13 15:26:23.55	14.85	22.02	-36.7	-37.6	23.7	0.00e+00	62	27	0	369098752	46	6158
2026-01-13 15:26:24.56	14.79	22.15	-36.6	-37.5	23.8	0.00e+00	0	27	0	371195904	46	6059
2026-01-13 15:26:25.56	14.72	22.29	-36.7	-37.6	23.7	0.00e+00	63	27	0	373293056	46	6128
2026-01-13 15:26:26.57	14.66	22.43	-36.8	-37.7	23.5	0.00e+00	0	27	0	375390208	46	6229
2026-01-13 15:26:27.58	14.59	22.57	-36.9	-37.8	23.5	0.00e+00	0	27	0	377487360	46	6273
2026-01-13 15:26:28.60	14.52	22.72	-36.7	-37.6	23.7	0.00e+00	17	27	0	378535936	46	6133
2026-01-13 15:26:29.60	14.45	22.86	-36.8	-37.6	23.6	0.00e+00	0	27	0	380633088	46	6172
2026-01-13 15:26:30.61	14.39	23.00	-36.7	-37.6	23.7	0.00e+00	64	27	0	382730240	46	6127
2026-01-13 15:26:31.62	14.32	23.15	-36.6	-37.5	23.8	0.00e+00	0	27	0	384827392	46	6072
2026-01-13 15:26:32.63	14.25	23.29	-36.7	-37.6	23.7	0.00e+00	92	27	0	386924544	46	6128
2026-01-13 15:26:33.64	14.18	23.44	-36.4	-37.3	23.9	0.00e+00	0	27	0	387973120	46	5938
2026-01-13 15:26:34.65	14.11	23.58	-36.4	-37.3	23.9	0.00e+00	0	27	0	390070272	46	5939
2026-01-13 15:26:35.66	14.03	23.73	-36.5	-37.4	23.9	0.00e+00	0	27	0	392167424	46	6011
2026-01-13 15:26:36.67	13.96	23.88	-36.7	-37.5	23.7	0.00e+00	0	27	0	394264576	46	6089
2026-01-13 15:26:37.68	13.89	24.03	-36.8	-37.7	23.7	0.00e+00	25	27	0	396361728	46	6176
2026-01-13 15:26:38.69	13.81	24.18	-36.9	-37.8	23.5	0.00e+00	0	27	0	397410304	46	6295
2026-01-13 15:26:39.70	13.74	24.33	-36.9	-37.8	23.3	0.00e+00	73	27	0	399507456	46	6291
2026-01-13 15:26:40.71	13.66	24.48	-37.3	-38.2	23.2	0.00e+00	0	27	0	401604608	46	6584
2026-01-13 15:26:41.71	13.59	24.63	-37.5	-38.5	23.0	0.00e+00	0	27	0	403701760	46	6784
2026-01-13 15:26:42.72	13.51	24.78	-37.8	-38.8	22.9	0.00e+00	0	27	0	405798912	46	7058
2026-01-13 15:26:43.73	13.43	24.93	-37.8	-38.8	22.8	0.00e+00	0	27	0	406847488	48	6312
2026-01-13 15:26:44.74	13.36	25.09	-37.8	-38.8	22.7	0.00e+00	60	27	0	408944640	48	6307
2026-01-13 15:26:45.75	13.28	25.24	-37.8	-38.8	22.7	0.00e+00	0	27	0	411041792	48	6309
2026-01-13 15:26:46.76	13.20	25.40	-37.8	-38.8	22.7	0.00e+00	59	27	0	413138944	48	6264
2026-01-13 15:26:47.77	13.11	25.56	-38.0	-39.0	22.6	0.00e+00	0	27	0	415236096	48	6440
2026-01-13 15:26:48.78	13.03	25.71	-37.9	-38.9	22.9	0.00e+00	0	27	0	416284672	48	6354
2026-01-13 15:26:49.78	12.95	25.87	-37.7	-38.7	22.9	0.00e+00	0	27	0	418381824	48	6212
2026-01-13 15:26:50.79	12.87	26.03	-37.8	-38.8	22.8	0.00e+00	0	27	0	420478976	48	6300
2026-01-13 15:26:51.80	12.78	26.19	-37.7	-38.6	23.1	0.00e+00	60	27	0	422576128	48	6168
2026-01-13 15:26:52.81	12.70	26.35	-37.6	-38.5	23.1	0.00e+00	0	27	0	424673280	48	6075
2026-01-13 15:26:53.82	12.61	26.52	-37.4	-38.3	23.1	0.00e+00	92	27	0	425721856	48	5932
2026-01-13 15:26:54.83	12.52	26.68	-37.8	-38.7	22.9	0.00e+00	0	27	0	427819008	48	6226
2026-01-13 15:26:55.84	12.44	26.84	-37.9	-38.9	22.8	0.00e+00	70	27	0	429916160	48	6329
2026-01-13 15:26:56.85	12.35	27.01	-37.9	-38.8	22.9	0.00e+00	0	27	0	432013312	48	6282
2026-01-13 15:26:57.86	12.26	27.17	-38.5	-39.5	22.4	0.00e+00	0	27	0	434110464	48	6791
2026-01-13 15:26:58.87	12.16	27.34	-38.5	-39.5	22.3	0.00e+00	0	27	0	436207616	48	6834
2026-01-13 15:26:59.87	12.07	27.51	-38.4	-39.4	22.3	0.00e+00	0	27	0	437256192	48	6768
2026-01-13 15:27:00.88	11.98	27.68	-38.3	-39.3	22.4	0.00e+00	68	27	0	439353344	48	6677
2026-01-13 15:27:01.89	11.89	27.85	-38.6	-39.6	22.4	0.00e+00	0	27	0	441450496	48	6892
2026-01-13 15:27:02.90	11.79	28.02	-38.1	-39.0	22.7	0.00e+00	90	27	0	443547648	48	6454
2026-01-13 15:27:03.91	11.69	28.19	-38.3	-39.3	22.7	0.00e+00	0	27	0	445644800	48	6661
2026-01-13 15:27:04.92	11.60	28.36	-38.1	-39.1	22.6	0.00e+00	0	27	0	446693376	48	6467
2026-01-13 15:27:05.93	11.50	28.53	-38.0	-39.0	22.6	0.00e+00	0	27	0	448790528	48	6400
2026-01-13 15:27:06.94	11.40	28.71	-38.2	-39.2	22.6	0.00e+00	0	27	0	450887680	48	6559
2026-01-13 15:27:07.95	11.30	28.88	-38.1	-39.1	22.6	0.00e+00	43	27	0	452984832	48	6479
2026-01-13 15:27:08.96	11.20	29.06	-38.3	-39.3	22.4	0.00e+00	0	27	0	455081984	48	6671
2026-01-13 15:27:09.97	11.09	29.24	-38.2	-39.2	22.5	0.00e+00	92	27	0	456130560	48	6592
2026-01-13 15:27:10.97	10.99	29.42	-38.4	-39.4	22.3	0.00e+00	0	27	0	458227712	48	6720
2026-01-13 15:27:11.98	10.89	29.60	-38.5	-39.5	22.3	0.00e+00	0	27	0	460324864	48	6789
2026-01-13 15:27:12.99	10.78	29.78	-38.7	-39.7	22.2	0.00e+00	0	27	0	462422016	50	6228
2026-01-13 15:27:14.00	10.67	29.96	-38.5	-39.6	22.3	0.00e+00	0	27	0	464519168	50	6118
2026-01-13 15:27:15.01	10.56	30.14	-38.4	-39.4	22.4	0.00e+00	63	27	0	465567744	50	6010
2026-01-13 15:27:16.02	10.45	30.32	-38.7	-39.8	22.1	0.00e+00	0	27	0	467664896	50	6277
2026-01-13 15:27:17.02	10.34	30.51	-38.6	-39.7	22.3	0.00e+00	67	27	0	469762048	50	6174
2026-01-13 15:27:18.03	10.23	30.69	-38.4	-39.4	22.3	0.00e+00	0	27	0	471859200	50	6006
2026-01-13 15:27:19.04	10.11	30.88	-38.7	-39.7	22.2	0.00e+00	0	27	0	473956352	50	6238
2026-01-13 15:27:20.05	10.00	31.07	-38.5	-39.5	22.2	0.00e+00	0	27	0	475004928	50	6075
2026-01-13 15:27:21.06	9.88	31.26	-39.3	-40.4	21.7	0.00e+00	0	27	0	477102080	50	6744
2026-01-13 15:27:22.07	9.76	31.45	-39.6	-40.8	21.0	0.00e+00	66	27	0	479199232	50	7042
2026-01-13 15:27:23.08	9.64	31.64	-39.6	-40.8	21.1	0.00e+00	0	27	0	481296384	50	7053
2026-01-13 15:27:24.09	9.52	31.83	-40.2	-41.5	20.7	0.00e+00	80	27	0	483393536	52	6773
2026-01-13 15:27:25.10	9.40	32.02	-40.4	-41.7	20.7	0.00e+00	0	27	0	484442112	52	6980
2026-01-13 15:27:26.11	9.27	32.22	-41.0	-42.4	19.8	0.00e+00	0	27	0	486539264	54	6747
2026-01-13 15:27:27.12	9.15	32.42	-41.4	-42.9	19.4	0.00e+00	0	27	0	488636416	54	7152
2026-01-13 15:27:28.13	9.02	32.61	-40.8	-42.2	19.9	0.00e+00	0	27	0	490733568	54	6608
2026-01-13 15:27:29.14	8.89	32.81	-41.6	-43.2	19.1	0.00e+00	0	27	0	492830720	54	7354
2026-01-13 15:27:30.15	8.76	33.01	-41.5	-43.0	19.2	0.00e+00	0	27	0	493879296	56	6439
2026-01-13 15:27:31.16	8.63	33.21	-41.6	-43.3	18.9	0.00e+00	88	27	0	495976448	56	6633
2026-01-13 15:27:32.17	8.49	33.41	-42.1	-43.9	18.3	0.00e+00	0	27	0	498073600	56	7138
2026-01-13 15:27:33.18	8.36	33.61	-42.2	-44.0	18.6	0.00e+00	92	27	0	500170752	56	7204
2026-01-13 15:27:34.19	8.22	33.82	-43.3	-45.6	16.8	0.00e+00	0	27	0	502267904	58	7755
2026-01-13 15:27:35.20	8.08	34.02	-43.5	-45.9	16.5	0.00e+00	0	27	0	503316480	58	7954
2026-01-13 15:27:36.21	7.94	34.23	-42.4	-44.3	17.8	0.00e+00	0	27	0	505413632	58	6631
2026-01-13 15:27:37.21	7.80	34.43	-43.2	-45.5	17.0	0.00e+00	0	27	0	507510784	58	7644
2026-01-13 15:27:38.22	7.65	34.64	-42.7	-44.8	17.4	0.00e+00	66	27	0	509607936	58	7065
2026-01-13 15:27:39.23	7.50	34.85	-42.1	-44.0	18.2	0.00e+00	0	27	0	511705088	56	7190
2026-01-13 15:27:40.23	7.36	35.06	-42.0	-43.9	18.2	0.00e+00	92	27	0	512753664	56	7136
2026-01-13 15:27:41.24	7.20	35.27	-41.8	-43.5	18.9	0.00e+00	0	27	0	514850816	56	6826
2026-01-13 15:27:42.25	7.05	35.49	-41.9	-43.7	18.7	0.00e+00	0	27	0	516947968	56	6949
2026-01-13 15:27:43.26	6.90	35.70	-41.9	-43.7	18.6	0.00e+00	0	27	0	519045120	56	6966
2026-01-13 15:27:44.27	6.74	35.92	-42.2	-44.1	18.5	0.00e+00	0	27	0	521142272	56	7263
2026-01-13 15:27:45.28	6.58	36.13	-41.9	-43.6	18.8	0.00e+00	34	27	0	522190848	56	6871
2026-01-13 15:27:46.29	6.42	36.35	-41.6	-43.2	19.0	0.00e+00	0	27	0	524288000	56	6612
2026-01-13 15:27:47.30	6.26	36.57	-41.4	-43.0	19.3	0.00e+00	36	27	0	526385152	56	6445
2026-01-13 15:27:48.31	6.09	36.79	-41.0	-42.5	19.8	0.00e+00	0	27	0	528482304	56	6094
2026-01-13 15:27:49.32	5.92	37.01	-40.6	-42.1	19.9	0.00e+00	0	27	0	530579456	54	6513
2026-01-13 15:27:50.33	5.75	37.24	-39.9	-41.2	20.9	0.00e+00	0	27	0	532676608	54	5879
2026-01-13 15:27:51.34	5.58	37.46	-39.9	-41.2	20.9	0.00e+00	0	27	0	533725184	52	6560
2026-01-13 15:27:52.35	5.40	37.68	-40.2	-41.5	20.7	0.00e+00	28	27	0	535822336	52	6818
2026-01-13 15:27:53.36	5.22	37.91	-39.8	-41.1	21.0	0.00e+00	0	27	0	537919488	52	6465
2026-01-13 15:27:54.37	5.04	38.14	-40.0	-41.2	20.8	0.00e+00	92	27	0	540016640	52	6599
2026-01-13 15:27:55.38	4.86	38.37	-40.0	-41.3	20.9	0.00e+00	33	27	0	542113792	52	6670
2026-01-13 15:27:56.39	4.67	38.60	-39.8	-41.1	21.0	0.00e+00	22	27	0	543162368	52	6488
2026-01-13 15:27:57.40	4.49	38.83	-39.7	-40.9	21.0	0.00e+00	0	27	0	545259520	52	6347
2026-01-13 15:27:58.41	4.29	39.06	-39.4	-40.6	21.3	0.00e+00	0	27	0	547356672	52	6165
2026-01-13 15:27:59.41	4.10	39.29	-39.2	-40.4	21.4	0.00e+00	0	27	0	549453824	52	5973
2026-01-13 15:28:00.42	3.91	39.53	-39.4	-40.6	21.4	0.00e+00	0	27	0	551550976	52	6114
2026-01-13 15:28:01.43	3.71	39.76	-39.3	-40.4	21.7	0.00e+00	92	27	0	552599552	52	6029
2026-01-13 15:28:02.44	3.50	40.00	-38.8	-39.9	22.2	0.00e+00	0	27	0	554696704	52	5668
2026-01-13 15:28:03.45	3.30	40.24	-38.5	-39.6	22.3	0.00e+00	92	27	0	556793856	50	6125
2026-01-13 15:28:04.46	3.09	40.48	-38.1	-39.1	22.6	0.00e+00	0	27	0	558891008	50	5823
2026-01-13 15:28:05.47	2.88	40.72	-38.4	-39.5	22.4	0.00e+00	0	27	0	560988160	50	6069
2026-01-13 15:28:06.48	2.66	40.96	-38.4	-39.4	22.4	0.00e+00	0	27	0	562036736	50	6015
2026-01-13 15:28:07.49	2.44	41.21	-38.3	-39.3	22.5	0.00e+00	0	27	0	564133888	50	5936
2026-01-13 15:28:08.50	2.22	41.45	-38.3	-39.3	22.5	0.00e+00	66	27	0	566231040	50	5948
2026-01-13 15:28:09.50	2.00	41.69	-38.5	-39.5	22.2	0.00e+00	0	27	0	568328192	50	6102
2026-01-13 15:28:10.51	1.77	41.94	-38.5	-39.5	21.8	0.00e+00	56	27	0	570425344	50	6073
2026-01-13 15:28:11.52	1.53	42.19	-38.0	-38.9	22.7	0.00e+00	0	27	0	571473920	50	5680
2026-01-13 15:28:12.53	1.30	42.44	-37.8	-38.7	22.9	0.00e+00	0	27	0	573571072	48	6235
2026-01-13 15:28:13.54	1.06	42.69	-37.4	-38.3	23.2	0.00e+00	0	27	0	575668224	48	5946
2026-01-13 15:28:14.55	0.81	42.94	-38.0	-39.0	22.8	0.00e+00	0	27	0	577765376	48	6404
2026-01-13 15:28:15.56	0.57	43.19	-38.1	-39.0	22.8	0.00e+00	13	27	0	579862528	48	6463
2026-01-13 15:28:16.57	0.32	43.44	-38.1	-39.1	22.6	0.00e+00	0	27	0	580911104	48	6469
2026-01-13 15:28:17.58	0.06	43.70	-38.2	-39.2	22.6	0.00e+00	92	27	0	583008256	48	6551
2026-01-13 15:28:18.59	359.80	43.95	-38.2	-39.1	23.0	0.00e+00	0	27	0	585105408	48	6524
2026-01-13 15:28:19.60	359.54	44.21	-38.4	-39.4	22.4	0.00e+00	0	27	0	587202560	48	6719
2026-01-13 15:28:20.60	359.27	44.47	-38.2	-39.2	22.4	0.00e+00	0	27	0	589299712	48	6593
2026-01-13 15:28:21.61	359.00	44.72	-38.6	-39.7	22.2	0.00e+00	0	27	0	590348288	48	6951
2026-01-13 15:28:22.62	358.72	44.98	-38.6	-39.7	22.3	0.00e+00	65	27	0	592445440	50	6186
2026-01-13 15:28:23.63	358.44	45.24	-38.2	-39.2	22.6	0.00e+00	0	27	0	594542592	50	5844
2026-01-13 15:28:24.64	358.15	45.50	-38.0	-39.0	22.8	0.00e+00	92	27	0	596639744	50	5728
2026-01-13 15:28:25.65	357.86	45.77	-37.4	-38.2	23.4	0.00e+00	0	27	0	598736896	48	5895
2026-01-13 15:28:26.66	357.56	46.03	-37.1	-38.0	23.6	0.00e+00	0	27	0	599785472	48	5721
2026-01-13 15:28:27.66	357.26	46.29	-36.9	-37.8	23.7	0.00e+00	0	27	0	601882624	48	5568
2026-01-13 15:28:28.67	356.96	46.56	-37.4	-38.3	23.2	0.00e+00	0	27	0	603979776	48	5940
2026-01-13 15:28:29.68	356.64	46.82	-37.9	-38.9	22.8	0.00e+00	52	27	0	606076928	48	6318
2026-01-13 15:28:30.69	356.33	47.09	-38.2	-39.2	22.5	0.00e+00	33	27	0	608174080	48	6605
2026-01-13 15:28:31.70	356.00	47.35	-38.2	-39.3	22.5	0.00e+00	92	27	0	609222656	48	6657
2026-01-13 15:28:32.71	355.67	47.62	-37.5	-38.5	23.1	0.00e+00	0	27	0	611319808	48	6068
2026-01-13 15:28:33.72	355.34	47.89	-37.7	-38.7	23.1	0.00e+00	26	27	0	613416960	48	6187
2026-01-13 15:28:34.73	355.00	48.16	-37.7	-38.7	23.0	0.00e+00	0	27	0	615514112	48	6223
2026-01-13 15:28:35.74	354.65	48.43	-37.8	-38.8	22.8	0.00e+00	0	27	0	617611264	48	6280
2026-01-13 15:28:36.75	354.30	48.70	-37.8	-38.8	22.9	0.00e+00	0	27	0	618659840	48	6300
2026-01-13 15:28:37.76	353.94	48.97	-37.7	-38.7	22.8	0.00e+00	0	27	0	620756992	48	6243
2026-01-13 15:28:38.77	353.57	49.24	-37.0	-38.0	23.6	0.00e+00	69	27	0	622854144	48	5720
2026-01-13 15:28:39.78	353.20	49.51	-36.4	-37.2	23.9	0.00e+00	0	27	0	624951296	46	5889
2026-01-13 15:28:40.79	352.82	49.78	-36.5	-37.4	24.0	0.00e+00	90	27	0	627048448	46	5981
2026-01-13 15:28:41.80	352.44	50.05	-36.6	-37.5	24.0	0.00e+00	0	27	0	629145600	46	6071
2026-01-13 15:28:42.81	352.05	50.32	-36.6	-37.5	24.0	0.00e+00	0	27	0	630194176	46	6052
2026-01-13 15:28:43.81	351.65	50.59	-36.7	-37.6	23.7	0.00e+00	0	27	0	632291328	46	6159
2026-01-13 15:28:44.83	351.24	50.87	-36.6	-37.5	23.8	0.00e+00	0	27	0	634388480	46	6095
2026-01-13 15:28:45.83	350.83	51.13	-36.3	-37.2	23.9	0.00e+00	64	27	0	636485632	46	5845
2026-01-13 15:28:46.84	350.41	51.41	-36.1	-37.0	24.2	0.00e+00	0	27	0	638582784	46	5718
2026-01-13 15:28:47.85	349.98	51.68	-36.3	-37.1	24.1	0.00e+00	66	27	0	639631360	46	5821
2026-01-13 15:28:48.86	349.54	51.95	-36.1	-36.9	24.2	0.00e+00	0	27	0	641728512	46	5679
2026-01-13 15:28:49.87	349.09	52.22	-36.7	-37.5	23.8	0.00e+00	0	27	0	643825664	46	6100
2026-01-13 15:28:50.88	348.64	52.49	-37.3	-38.2	23.3	0.00e+00	0	27	0	645922816	46	6615
2026-01-13 15:28:51.88	348.18	52.76	-36.7	-37.6	23.8	0.00e+00	0	27	0	648019968	46	6170
2026-01-13 15:28:52.89	347.71	53.03	-36.7	-37.6	23.9	0.00e+00	69	27	0	649068544	46	6155
2026-01-13 15:28:53.90	347.23	53.30	-36.5	-37.3	24.1	0.00e+00	0	27	0	651165696	46	5960
2026-01-13 15:28:54.91	346.74	53.57	-36.9	-37.7	23.8	0.00e+00	92	27	0	653262848	46	6239
2026-01-13 15:28:55.92	346.24	53.84	-37.7	-38.7	23.0	0.00e+00	0	27	0	655360000	46	6946
2026-01-13 15:28:56.93	345.73	54.10	-37.6	-38.7	22.9	0.00e+00	0	27	0	657457152	46	6933
2026-01-13 15:28:57.94	345.21	54.37	-37.8	-38.9	22.8	0.00e+00	0	27	0	658505728	48	6342
2026-01-13 15:28:58.95	344.69	54.64	-37.7	-38.8	22.7	0.00e+00	0	27	0	660602880	48	6246
2026-01-13 15:28:59.96	344.15	54.90	-37.6	-38.6	22.9	0.00e+00	57	27	0	662700032	48	6123
2026-01-13 15:29:00.97	343.60	55.16	-37.3	-38.3	23.5	0.00e+00	0	27	0	664797184	48	5923
2026-01-13 15:29:01.97	343.05	55.42	-37.0	-37.9	23.6	0.00e+00	92	27	0	666894336	48	5683
2026-01-13 15:29:02.98	342.48	55.68	-37.3	-38.3	23.3	0.00e+00	0	27	0	667942912	48	5917
2026-01-13 15:29:03.98	341.91	55.94	-37.4	-38.4	23.2	0.00e+00	0	27	0	670040064	48	6021
2026-01-13 15:29:04.99	341.32	56.19	-37.4	-38.3	23.3	0.00e+00	0	27	0	672137216	48	5963
2026-01-13 15:29:06.00	340.72	56.45	-36.7	-37.7	23.4	0.00e+00	0	27	0	674234368	48	5506
2026-01-13 15:29:07.01	340.11	56.70	-37.0	-37.9	23.5	0.00e+00	0	27	0	676331520	46	6378
2026-01-13 15:29:08.02	339.48	56.95	-36.6	-37.5	23.9	0.00e+00	0	27	0	677380096	46	6059
2026-01-13 15:29:09.03	338.85	57.20	-36.3	-37.2	24.1	0.00e+00	64	27	0	679477248	46	5853
2026-01-13 15:29:10.04	338.20	57.45	-37.1	-38.0	23.5	0.00e+00	0	27	0	681574400	46	6412
2026-01-13 15:29:11.04	337.55	57.69	-37.5	-38.5	22.9	0.00e+00	21	27	0	683671552	46	6815
2026-01-13 15:29:12.05	336.88	57.93	-38.1	-39.1	22.3	0.00e+00	0	27	0	685768704	48	6534
2026-01-13 15:29:13.06	336.20	58.17	-37.9	-38.9	22.8	0.00e+00	0	27	0	686817280	48	6367
2026-01-13 15:29:14.07	335.50	58.41	-37.5	-38.4	23.1	0.00e+00	41	27	0	688914432	48	6010
2026-01-13 15:29:15.08	334.80	58.64	-37.1	-38.1	23.3	0.00e+00	0	27	0	691011584	48	5776
2026-01-13 15:29:16.10	334.07	58.87	-37.8	-38.8	22.7	0.00e+00	30	27	0	693108736	48	6299
2026-01-13 15:29:17.10	333.35	59.09	-38.1	-39.2	22.5	0.00e+00	0	27	0	695205888	48	6574
2026-01-13 15:29:18.11	332.60	59.32	-37.8	-38.8	22.6	0.00e+00	70	27	0	697303040	48	6299
2026-01-13 15:29:19.12	331.84	59.53	-37.3	-38.2	23.3	0.00e+00	0	27	0	698351616	48	5877
2026-01-13 15:29:20.13	331.07	59.75	-36.8	-37.7	23.7	0.00e+00	0	27	0	700448768	48	5513
2026-01-13 15:29:21.14	330.29	59.96	-37.1	-38.0	23.6	0.00e+00	0	27	0	702545920	46	6422
2026-01-13 15:29:22.15	329.50	60.17	-36.8	-37.7	23.6	0.00e+00	0	27	0	704643072	46	6182
2026-01-13 15:29:23.16	328.69	60.37	-36.5	-37.4	23.9	0.00e+00	6	27	0	705691648	46	5998
2026-01-13 15:29:24.16	327.87	60.56	-36.8	-37.7	23.6	0.00e+00	33	27	0	707788800	46	6240
2026-01-13 15:29:25.17	327.04	60.76	-36.5	-37.4	23.9	0.00e+00	70	27	0	709885952	46	6025
2026-01-13 15:29:26.18	326.19	60.94	-36.0	-36.9	24.3	0.00e+00	0	27	0	711983104	46	5677
2026-01-13 15:29:27.19	325.33	61.13	-35.7	-36.5	24.6	0.00e+00	0	27	0	714080256	44	6093
2026-01-13 15:29:28.20	324.46	61.30	-35.3	-36.1	24.7	0.00e+00	0	27	0	715128832	44	5792
2026-01-13 15:29:29.21	323.58	61.48	-35.7	-36.6	24.4	0.00e+00	0	27	0	717225984	44	6137
2026-01-13 15:29:30.22	322.68	61.64	-35.6	-36.5	24.5	0.00e+00	70	27	0	719323136	44	6094
2026-01-13 15:29:31.23	321.77	61.80	-35.7	-36.6	24.6	0.00e+00	0	27	0	721420288	44	6158
2026-01-13 15:29:32.24	320.85	61.96	-35.1	-36.0	24.9	0.00e+00	79	27	0	723517440	44	5724
2026-01-13 15:29:33.24	319.93	62.10	-34.6	-35.4	25.3	0.00e+00	0	27	0	725614592	42	6028
2026-01-13 15:29:34.25	318.99	62.25	-34.7	-35.5	25.1	0.00e+00	0	27	0	726663168	42	6063
2026-01-13 15:29:35.27	318.02	62.38	-35.1	-35.9	24.9	0.00e+00	0	27	0	728760320	42	6327
2026-01-13 15:29:36.28	317.06	62.51	-35.4	-36.3	24.6	0.00e+00	0	27	0	730857472	42	6619
2026-01-13 15:29:37.28	316.09	62.64	-35.5	-36.3	24.8	0.00e+00	39	27	0	732954624	42	6683
2026-01-13 15:29:38.29	315.11	62.75	-34.7	-35.5	25.4	0.00e+00	0	27	0	735051776	42	6048
2026-01-13 15:29:39.30	314.11	62.86	-34.3	-35.1	25.5	0.00e+00	70	27	0	736100352	42	5775
2026-01-13 15:29:40.31	313.11	62.96	-34.2	-35.0	25.5	0.00e+00	0	27	0	738197504	42	5719
2026-01-13 15:29:41.32	312.10	63.06	-35.2	-36.0	25.0	0.00e+00	0	27	0	740294656	42	6454
2026-01-13 15:29:42.33	311.08	63.14	-35.7	-36.5	24.5	0.00e+00	0	27	0	742391808	42	6847
2026-01-13 15:29:43.34	310.06	63.22	-36.5	-37.4	23.9	0.00e+00	0	27	0	744488960	44	6766
2026-01-13 15:29:44.35	309.02	63.29	-36.8	-37.7	23.6	0.00e+00	0	27	0	745537536	46	6241
2026-01-13 15:29:45.35	308.00	63.36	-36.2	-37.1	24.1	0.00e+00	0	27	0	747634688	46	5769
2026-01-13 15:29:46.36	306.95	63.42	-35.4	-36.2	24.6	0.00e+00	92	27	0	749731840	44	5872
2026-01-13 15:29:47.37	305.90	63.46	-34.5	-35.3	25.4	0.00e+00	0	27	0	751828992	42	5898
2026-01-13 15:29:48.38	304.85	63.50	-34.2	-34.9	25.6	0.00e+00	91	27	0	753926144	42	5692
2026-01-13 15:29:49.39	303.80	63.54	-34.1	-34.8	25.7	0.00e+00	0	27	0	754974720	42	5623
2026-01-13 15:29:50.39	302.75	63.56	-34.2	-34.9	25.6	0.00e+00	0	27	0	757071872	42	5668
2026-01-13 15:29:51.40	301.69	63.58	-33.7	-34.5	25.9	0.00e+00	0	27	0	759169024	42	5391
2026-01-13 15:29:52.41	300.63	63.59	-33.5	-34.3	26.0	0.00e+00	33	27	0	761266176	40	5905
2026-01-13 15:29:53.42	299.56	63.59	-33.7	-34.4	25.9	0.00e+00	59	27	0	763363328	40	6002
2026-01-13 15:29:54.43	298.50	63.58	-33.9	-34.7	25.6	0.00e+00	0	27	0	764411904	40	6211
2026-01-13 15:29:55.44	297.44	63.57	-34.1	-34.9	25.5	0.00e+00	92	27	0	766509056	40	6335
2026-01-13 15:29:56.45	296.38	63.54	-34.9	-35.7	24.9	0.00e+00	0	27	0	768606208	42	6219
2026-01-13 15:29:57.46	295.33	63.51	-35.4	-36.3	24.9	0.00e+00	0	27	0	770703360	42	6664
2026-01-13 15:29:58.47	294.27	63.47	-34.8	-35.6	25.2	0.00e+00	0	27	0	772800512	42	6173
2026-01-13 15:29:59.47	293.24	63.42	-35.3	-36.2	24.9	0.00e+00	0	27	0	773849088	42	6540
2026-01-13 15:30:00.48	292.19	63.37	-35.3	-36.2	24.9	0.00e+00	0	27	0	775946240	42	6545
2026-01-13 15:30:01.49	291.15	63.30	-34.8	-35.6	24.9	0.00e+00	0	27	0	778043392	42	6172
2026-01-13 15:30:02.50	290.12	63.23	-34.7	-35.4	25.3	0.00e+00	73	27	0	780140544	42	6028
2026-01-13 15:30:03.51	289.09	63.16	-34.3	-35.0	25.5	0.00e+00	0	27	0	782237696	42	5726
2026-01-13 15:30:04.52	288.07	63.07	-34.8	-35.6	25.2	0.00e+00	0	27	0	783286272	42	6106
2026-01-13 15:30:05.53	287.06	62.98	-35.5	-36.3	24.6	0.00e+00	0	27	0	785383424	42	6682
2026-01-13 15:30:06.54	286.05	62.88	-35.5	-36.3	24.7	0.00e+00	0	27	0	787480576	42	6691
2026-01-13 15:30:07.55	285.06	62.77	-35.6	-36.4	24.6	0.00e+00	57	27	0	789577728	42	6740
2026-01-13 15:30:08.56	284.07	62.65	-36.4	-37.3	24.0	0.00e+00	0	27	0	791674880	44	6675
2026-01-13 15:30:09.56	283.10	62.53	-35.9	-36.8	24.5	0.00e+00	90	27	0	793772032	44	6255
2026-01-13 15:30:10.58	282.13	62.40	-35.1	-36.0	24.8	0.00e+00	0	27	0	794820608	44	5702
2026-01-13 15:30:11.58	281.18	62.27	-35.1	-35.9	25.0	0.00e+00	73	27	0	796917760	44	5670
2026-01-13 15:30:12.59	280.24	62.13	-34.6	-35.3	25.3	0.00e+00	0	27	0	799014912	42	5936
2026-01-13 15:30:13.60	279.30	61.98	-34.3	-35.1	25.4	0.00e+00	0	27	0	801112064	42	5767
2026-01-13 15:30:14.61	278.38	61.82	-34.1	-34.8	25.6	0.00e+00	49	27	0	803209216	42	5616
2026-01-13 15:30:15.62	277.47	61.66	-33.8	-34.5	25.9	0.00e+00	0	27	0	804257792	42	5439
2026-01-13 15:30:16.63	276.57	61.50	-34.8	-35.6	25.0	0.00e+00	63	27	0	806354944	42	6165
2026-01-13 15:30:17.64	275.68	61.33	-35.3	-36.1	24.7	0.00e+00	0	27	0	808452096	42	6532
2026-01-13 15:30:18.65	274.81	61.15	-34.6	-35.4	25.2	0.00e+00	90	27	0	810549248	42	5980
2026-01-13 15:30:19.66	273.94	60.97	-35.3	-36.1	24.9	0.00e+00	0	27	0	812646400	42	6533
2026-01-13 15:30:20.67	273.10	60.78	-35.6	-36.5	24.7	0.00e+00	0	27	0	813694976	42	6777
2026-01-13 15:30:21.68	272.26	60.59	-35.6	-36.4	24.4	0.00e+00	25	27	0	815792128	44	6001
2026-01-13 15:30:22.69	271.43	60.39	-35.7	-36.5	24.6	0.00e+00	0	27	0	817889280	44	6099
2026-01-13 15:30:23.70	270.62	60.19	-35.5	-36.3	24.6	0.00e+00	58	27	0	819986432	44	5940
2026-01-13 15:30:24.71	269.83	59.98	-36.0	-36.8	24.4	0.00e+00	0	27	0	822083584	44	6296
2026-01-13 15:30:25.72	269.04	59.77	-38.1	-39.2	22.4	0.00e+00	92	27	0	823132160	48	6612
2026-01-13 15:30:26.72	268.27	59.56	-39.3	-40.6	21.1	0.00e+00	0	27	0	825229312	50	6909
2026-01-13 15:30:27.74	267.51	59.34	-39.2	-40.6	21.3	0.00e+00	0	27	0	827326464	50	6874
2026-01-13 15:30:28.74	266.77	59.12	-38.8	-40.0	21.8	0.00e+00	0	27	0	829423616	50	6420
2026-01-13 15:30:29.76	266.03	58.89	-39.1	-40.4	21.4	0.00e+00	0	27	0	831520768	50	6708
2026-01-13 15:30:30.77	265.30	58.66	-40.4	-42.0	20.5	0.00e+00	60	27	0	832569344	52	7171
2026-01-13 15:30:31.77	264.60	58.43	-40.6	-42.1	20.3	0.00e+00	0	27	0	834666496	52	7291
2026-01-13 15:30:32.78	263.90	58.20	-39.6	-40.9	21.1	0.00e+00	85	27	0	836763648	52	6376
2026-01-13 15:30:33.79	263.22	57.96	-38.9	-40.2	22.0	0.00e+00	0	27	0	838860800	52	5842
2026-01-13 15:30:34.80	262.55	57.72	-39.1	-40.4	21.6	0.00e+00	0	27	0	840957952	50	6734
2026-01-13 15:30:35.80	261.89	57.48	-39.8	-41.2	20.8	0.00e+00	0	27	0	842006528	52	6601
2026-01-13 15:30:36.81	261.24	57.23	-39.7	-41.2	21.0	0.00e+00	0	27	0	844103680	52	6551
2026-01-13 15:30:37.82	260.61	56.98	-38.1	-39.2	22.6	0.00e+00	21	27	0	846200832	50	5866
2026-01-13 15:30:38.83	259.98	56.73	-37.1	-38.1	23.1	0.00e+00	0	27	0	848297984	48	5812
2026-01-13 15:30:39.84	259.37	56.48	-37.3	-38.3	23.3	0.00e+00	90	27	0	850395136	48	5964
2026-01-13 15:30:40.85	258.76	56.22	-36.8	-37.7	23.7	0.00e+00	0	27	0	851443712	46	6240
2026-01-13 15:30:41.86	258.17	55.96	-36.6	-37.5	23.8	0.00e+00	0	27	0	853540864	46	6085
2026-01-13 15:30:42.87	257.59	55.71	-36.1	-37.0	24.2	0.00e+00	0	27	0	855638016	46	5705
2026-01-13 15:30:43.88	257.02	55.45	-35.8	-36.6	24.6	0.00e+00	0	27	0	857735168	44	6126
2026-01-13 15:30:44.89	256.46	55.18	-36.4	-37.3	23.8	0.00e+00	62	27	0	859832320	44	6653
2026-01-13 15:30:45.90	255.91	54.92	-37.3	-38.3	23.2	0.00e+00	0	27	0	860880896	46	6650
2026-01-13 15:30:46.91	255.37	54.66	-37.9	-39.0	22.7	0.00e+00	92	27	0	862978048	48	6445
2026-01-13 15:30:47.92	254.84	54.39	-38.1	-39.2	22.5	0.00e+00	0	27	0	865075200	48	6599
2026-01-13 15:30:48.93	254.32	54.12	-38.5	-39.7	22.2	0.00e+00	29	27	0	867172352	50	6221
2026-01-13 15:30:49.94	253.81	53.86	-37.6	-38.6	23.2	0.00e+00	0	27	0	869269504	50	5472
2026-01-13 15:30:50.95	253.31	53.59	-36.8	-37.7	23.9	0.00e+00	0	27	0	870318080	48	5558
2026-01-13 15:30:51.96	252.82	53.32	-37.0	-38.0	23.5	0.00e+00	0	27	0	872415232	46	6448
2026-01-13 15:30:52.96	252.34	53.05	-37.6	-38.7	23.0	0.00e+00	0	27	0	874512384	48	6195
2026-01-13 15:30:53.97	251.87	52.78	-38.0	-39.0	22.7	0.00e+00	70	27	0	876609536	48	6452
2026-01-13 15:30:54.98	251.41	52.51	-38.3	-39.4	22.6	0.00e+00	0	27	0	878706688	48	6737
2026-01-13 15:30:55.99	250.95	52.24	-38.5	-39.6	22.2	0.00e+00	92	27	0	879755264	48	6922
2026-01-13 15:30:57.00	250.50	51.96	-37.9	-38.9	22.4	0.00e+00	0	27	0	881852416	50	5657
2026-01-13 15:30:58.01	250.06	51.69	-37.0	-37.9	23.7	0.00e+00	0	27	0	883949568	48	5654
2026-01-13 15:30:59.02	249.63	51.42	-36.8	-37.7	23.7	0.00e+00	0	27	0	886046720	46	6228
2026-01-13 15:31:00.03	249.21	51.15	-37.0	-37.9	23.6	0.00e+00	0	27	0	888143872	46	6344
2026-01-13 15:31:01.04	248.79	50.87	-36.8	-37.7	23.9	0.00e+00	63	27	0	890241024	46	6179
2026-01-13 15:31:02.05	248.38	50.60	-37.0	-37.9	23.5	0.00e+00	0	27	0	891289600	46	6339
2026-01-13 15:31:03.06	247.98	50.33	-37.8	-38.8	22.9	0.00e+00	92	27	0	893386752	46	7020
2026-01-13 15:31:04.07	247.59	50.06	-39.0	-40.2	21.9	0.00e+00	0	27	0	895483904	50	6561
2026-01-13 15:31:05.08	247.20	49.78	-37.6	-38.6	23.2	0.00e+00	0	27	0	897581056	48	6104
2026-01-13 15:31:06.08	246.82	49.52	-37.0	-37.9	23.6	0.00e+00	0	27	0	899678208	48	5632
2026-01-13 15:31:07.09	246.45	49.24	-36.8	-37.6	23.7	0.00e+00	0	27	0	900726784	46	6163
2026-01-13 15:31:08.10	246.08	48.97	-37.8	-38.8	22.8	0.00e+00	65	27	0	902823936	48	6288
2026-01-13 15:31:09.11	245.72	48.70	-38.4	-39.4	22.4	0.00e+00	0	27	0	904921088	48	6743
2026-01-13 15:31:10.12	245.37	48.43	-38.6	-39.6	22.3	0.00e+00	90	27	0	907018240	48	6902
2026-01-13 15:31:11.13	245.02	48.16	-39.5	-40.7	21.2	0.00e+00	0	27	0	909115392	50	6929
2026-01-13 15:31:12.14	244.68	47.89	-40.5	-41.9	20.6	0.00e+00	0	27	0	910163968	52	7108
2026-01-13 15:31:13.15	244.34	47.62	-39.2	-40.3	22.0	0.00e+00	0	27	0	912261120	52	5911
2026-01-13 15:31:14.15	244.02	47.36	-38.9	-40.0	21.9	0.00e+00	0	27	0	914358272	52	5719
2026-01-13 15:31:15.17	243.69	47.09	-39.5	-40.8	21.0	0.00e+00	66	27	0	916455424	52	6250
2026-01-13 15:31:16.18	243.37	46.82	-40.3	-41.6	20.6	0.00e+00	0	27	0	918552576	52	6898
2026-01-13 15:31:17.19	243.06	46.55	-39.4	-40.5	21.5	0.00e+00	92	27	0	919601152	52	6073
2026-01-13 15:31:18.20	242.75	46.29	-39.3	-40.5	21.7	0.00e+00	0	27	0	921698304	52	6039
2026-01-13 15:31:19.20	242.45	46.03	-39.7	-41.0	21.2	0.00e+00	92	27	0	923795456	52	6391
2026-01-13 15:31:20.21	242.15	45.76	-39.2	-40.3	21.7	0.00e+00	0	27	0	925892608	52	5955
2026-01-13 15:31:21.22	241.86	45.50	-38.3	-39.3	22.6	0.00e+00	0	27	0	927989760	50	5907
2026-01-13 15:31:22.23	241.57	45.24	-38.1	-39.1	22.6	0.00e+00	0	27	0	929038336	50	5779
2026-01-13 15:31:23.24	241.29	44.98	-38.4	-39.4	22.3	0.00e+00	0	27	0	931135488	50	6007
2026-01-13 15:31:24.25	241.01	44.72	-39.1	-40.2	21.7	0.00e+00	64	27	0	933232640	50	6578
2026-01-13 15:31:25.26	240.73	44.46	-39.3	-40.4	21.4	0.00e+00	0	27	0	935329792	50	6737
2026-01-13 15:31:26.27	240.46	44.20	-40.3	-41.6	20.5	0.00e+00	28	27	0	937426944	52	6896
2026-01-13 15:31:27.28	240.20	43.94	-40.2	-41.6	20.7	0.00e+00	0	27	0	938475520	52	6873
2026-01-13 15:31:28.29	239.94	43.69	-39.8	-41.1	21.1	0.00e+00	0	27	0	940572672	52	6519
2026-01-13 15:31:29.30	239.68	43.43	-39.0	-40.2	21.8	0.00e+00	0	27	0	942669824	52	5846
2026-01-13 15:31:30.30	239.43	43.18	-39.0	-40.1	22.2	0.00e+00	0	27	0	944766976	52	5773
2026-01-13 15:31:31.31	239.18	42.93	-38.9	-40.0	22.0	0.00e+00	28	27	0	946864128	50	6425
2026-01-13 15:31:32.32	238.94	42.67	-39.3	-40.4	21.6	0.00e+00	0	27	0	947912704	50	6767
2026-01-13 15:31:33.33	238.70	42.42	-39.1	-40.3	21.8	0.00e+00	92	27	0	950009856	50	6632
2026-01-13 15:31:34.34	238.46	42.17	-39.5	-40.7	21.4	0.00e+00	0	27	0	952107008	50	6964
2026-01-13 15:31:35.35	238.23	41.93	-40.2	-41.4	20.7	0.00e+00	0	27	0	954204160	52	6746
2026-01-13 15:31:36.36	238.00	41.68	-40.4	-41.7	20.3	0.00e+00	0	27	0	956301312	52	6961
2026-01-13 15:31:37.37	237.77	41.43	-41.3	-42.8	19.6	0.00e+00	0	27	0	958398464	54	7048
2026-01-13 15:31:38.38	237.55	41.19	-40.9	-42.3	19.3	0.00e+00	46	27	0	959447040	54	6686
2026-01-13 15:31:39.39	237.33	40.94	-41.3	-42.7	19.8	0.00e+00	33	27	0	961544192	56	6233
2026-01-13 15:31:40.40	237.11	40.70	-40.7	-42.0	20.3	0.00e+00	66	27	0	963641344	54	6437
2026-01-13 15:31:41.41	236.90	40.46	-41.6	-43.2	19.4	0.00e+00	0	27	0	965738496	54	7375
2026-01-13 15:31:42.41	236.69	40.22	-42.5	-44.5	17.9	0.00e+00	33	27	0	967835648	56	7632
2026-01-13 15:31:43.42	236.48	39.98	-43.3	-45.7	17.0	0.00e+00	0	27	0	968884224	58	7810
2026-01-13 15:31:44.43	236.28	39.74	-43.6	-46.2	15.9	0.00e+00	0	27	0	970981376	58	8252
2026-01-13 15:31:45.44	236.08	39.50	-44.8	-48.1	14.3	0.00e+00	61	27	0	973078528	60	9206
2026-01-13 15:31:46.45	235.88	39.27	-44.2	-47.0	15.7	0.00e+00	0	27	0	975175680	60	8104
2026-01-13 15:31:47.46	235.69	39.03	-42.9	-45.0	17.5	0.00e+00	90	27	0	976224256	60	6449
2026-01-13 15:31:48.47	235.49	38.80	-42.3	-44.1	18.3	0.00e+00	0	27	0	978321408	58	6501
2026-01-13 15:31:49.48	235.31	38.57	-42.1	-43.9	18.5	0.00e+00	0	27	0	980418560	58	6344
2026-01-13 15:31:50.48	235.12	38.34	-42.0	-43.7	19.0	0.00e+00	0	27	0	982515712	56	6967
2026-01-13 15:31:51.50	234.94	38.11	-42.2	-44.0	18.4	0.00e+00	0	27	0	984612864	56	7190
2026-01-13 15:31:52.50	234.76	37.88	-42.6	-44.5	17.7	0.00e+00	57	27	0	986710016	58	6786
2026-01-13 15:31:53.51	234.58	37.65	-43.6	-45.8	17.0	0.00e+00	0	27	0	987758592	60	7075
2026-01-13 15:31:54.52	234.40	37.43	-42.0	-43.7	18.7	0.00e+00	62	27	0	989855744	56	7005
2026-01-13 15:31:55.53	234.23	37.20	-41.9	-43.5	19.0	0.00e+00	0	27	0	991952896	56	6807
2026-01-13 15:31:56.54	234.06	36.98	-41.3	-42.8	19.6	0.00e+00	90	27	0	994050048	56	6314
2026-01-13 15:31:57.55	233.89	36.76	-41.3	-42.8	19.6	0.00e+00	0	27	0	996147200	56	6254
2026-01-13 15:31:58.56	233.72	36.54	-41.3	-42.8	19.5	0.00e+00	0	27	0	997195776	56	6294
2026-01-13 15:31:59.57	233.56	36.32	-41.7	-43.4	19.0	0.00e+00	57	27	0	999292928	56	6726
2026-01-13 15:32:00.58	233.39	36.10	-42.1	-44.0	18.6	0.00e+00	0	27	0	1001390080	58	6403
2026-01-13 15:32:01.58	233.24	35.88	-41.5	-43.2	19.2	0.00e+00	59	27	0	1003487232	56	6545
2026-01-13 15:32:02.59	233.08	35.67	-41.4	-43.0	19.6	0.00e+00	0	27	0	1005584384	56	6407
2026-01-13 15:32:03.60	232.92	35.45	-41.8	-43.5	18.8	0.00e+00	92	27	0	1006632960	56	6807
2026-01-13 15:32:04.61	232.77	35.24	-42.5	-44.5	17.8	0.00e+00	0	27	0	1008730112	56	7653
2026-01-13 15:32:05.62	232.62	35.02	-42.0	-43.9	18.4	0.00e+00	0	27	0	1010827264	56	7143
2026-01-13 15:32:06.63	232.47	34.81	-42.5	-44.5	18.0	0.00e+00	0	27	0	1012924416	56	7666
2026-01-13 15:32:07.64	232.32	34.60	-41.6	-43.3	19.3	0.00e+00	0	27	0	1015021568	56	6682
2026-01-13 15:32:08.65	232.17	34.39	-41.2	-42.9	19.6	0.00e+00	51	27	0	1016070144	56	6335
2026-01-13 15:32:09.66	232.03	34.18	-41.0	-42.5	19.6	0.00e+00	0	27	0	1018167296	56	6070
2026-01-13 15:32:10.67	231.89	33.98	-41.8	-43.7	18.8	0.00e+00	90	27	0	1020264448	56	6971
2026-01-13 15:32:11.68	231.75	33.77	-41.8	-43.6	18.9	0.00e+00	0	27	0	1022361600	56	6915
2026-01-13 15:32:12.68	231.61	33.57	-41.6	-43.4	19.0	0.00e+00	0	27	0	1024458752	56	6731
2026-01-13 15:32:13.70	231.47	33.36	-40.8	-42.4	20.0	0.00e+00	0	27	0	1025507328	56	5989
2026-01-13 15:32:14.70	231.34	33.16	-39.7	-41.0	21.2	0.00e+00	0	27	0	1027604480	54	5700
2026-01-13 15:32:15.71	231.21	32.96	-39.4	-40.6	21.5	0.00e+00	24	27	0	1029701632	52	6169
2026-01-13 15:32:16.72	231.07	32.76	-39.1	-40.2	21.7	0.00e+00	0	27	0	1031798784	52	5886
2026-01-13 15:32:17.73	230.94	32.56	-39.9	-41.2	21.0	0.00e+00	92	27	0	1033895936	52	6578
2026-01-13 15:32:18.74	230.82	32.37	-40.0	-41.3	20.9	0.00e+00	0	27	0	1034944512	52	6682
2026-01-13 15:32:19.75	230.69	32.17	-40.3	-41.6	20.5	0.00e+00	0	27	0	1037041664	52	6927
2026-01-13 15:32:20.76	230.56	31.97	-40.0	-41.3	20.9	0.00e+00	0	27	0	1039138816	52	6632
2026-01-13 15:32:21.77	230.44	31.78	-39.7	-40.9	21.2	0.00e+00	0	27	0	1041235968	52	6346
2026-01-13 15:32:22.78	230.32	31.59	-39.6	-40.8	21.1	0.00e+00	0	27	0	1043333120	52	6286
2026-01-13 15:32:23.79	230.20	31.40	-40.0	-41.2	20.7	0.00e+00	0	27	0	1044381696	52	6601
2026-01-13 15:32:24.80	230.08	31.20	-40.1	-41.4	20.7	0.00e+00	76	27	0	1046478848	52	6712
2026-01-13 15:32:25.80	229.96	31.02	-41.0	-42.5	19.9	0.00e+00	0	27	0	1048576000	54	6782
2026-01-13 15:32:26.81	229.85	30.83	-40.9	-42.4	19.9	0.00e+00	0	27	0	1050673152	54	6739
2026-01-13 15:32:27.82	229.73	30.64	-40.4	-41.7	20.5	0.00e+00	0	27	0	1052770304	54	6212
2026-01-13 15:32:28.83	229.62	30.45	-39.3	-40.4	21.7	0.00e+00	0	27	0	1054867456	52	6003
2026-01-13 15:32:29.84	229.50	30.27	-38.6	-39.7	22.2	0.00e+00	17	27	0	1055916032	50	6195
2026-01-13 15:32:30.85	229.39	30.08	-38.2	-39.1	22.7	0.00e+00	0	27	0	1058013184	50	5823
2026-01-13 15:32:31.86	229.28	29.90	-37.5	-38.4	23.1	0.00e+00	91	27	0	1060110336	48	5997
2026-01-13 15:32:32.87	229.18	29.72	-37.7	-38.6	23.1	0.00e+00	0	27	0	1062207488	48	6150
2026-01-13 15:32:33.88	229.07	29.54	-38.0	-38.9	22.8	0.00e+00	91	27	0	1064304640	48	6385
2026-01-13 15:32:34.89	228.96	29.36	-38.0	-38.9	22.7	0.00e+00	0	27	0	1065353216	48	6390
2026-01-13 15:32:35.90	228.86	29.18	-38.5	-39.5	22.3	0.00e+00	0	27	0	1067450368	48	6800
2026-01-13 15:32:36.90	228.75	29.00	-38.3	-39.3	22.5	0.00e+00	0	27	0	1069547520	48	6654
2026-01-13 15:32:37.91	228.65	28.82	-38.3	-39.4	22.5	0.00e+00	0	27	0	1071644672	48	6696
2026-01-13 15:32:38.92	228.55	28.65	-38.1	-39.0	22.6	0.00e+00	57	27	0	1073741824	48	6460
2026-01-13 15:32:39.93	228.45	28.47	-38.5	-39.5	22.5	0.00e+00	0	27	0	1074790400	48	6816
2026-01-13 15:32:40.94	228.35	28.30	-38.7	-39.7	22.1	0.00e+00	92	27	0	1076887552	48	6989
2026-01-13 15:32:41.95	228.25	28.13	-39.3	-40.4	21.6	0.00e+00	0	27	0	1078984704	50	6721
2026-01-13 15:32:42.96	228.16	27.95	-40.1	-41.4	20.7	0.00e+00	0	27	0	1081081856	52	6712
2026-01-13 15:32:43.96	228.06	27.78	-40.7	-42.1	20.2	0.00e+00	0	27	0	1083179008	52	7255
2026-01-13 15:32:44.97	227.97	27.61	-41.0	-42.4	19.8	0.00e+00	0	27	0	1084227584	54	6769
2026-01-13 15:32:45.98	227.87	27.44	-41.3	-42.8	19.2	0.00e+00	61	27	0	1086324736	54	7018
2026-01-13 15:32:46.99	227.78	27.28	-40.8	-42.2	19.9	0.00e+00	0	27	0	1088421888	54	6578
2026-01-13 15:32:48.00	227.69	27.11	-40.5	-41.8	20.2	0.00e+00	61	27	0	1090519040	54	6295
2026-01-13 15:32:49.01	227.60	26.94	-40.2	-41.5	20.7	0.00e+00	0	27	0	1092616192	54	6067
2026-01-13 15:32:50.02	227.51	26.78	-39.9	-41.2	20.8	0.00e+00	0	27	0	1093664768	54	5834
2026-01-13 15:32:51.03	227.42	26.61	-39.5	-40.7	21.4	0.00e+00	0	27	0	1095761920	52	6197
2026-01-13 15:32:52.04	227.33	26.45	-39.6	-40.8	21.3	0.00e+00	0	27	0	1097859072	52	6266
2026-01-13 15:32:53.05	227.25	26.28	-39.1	-40.2	21.5	0.00e+00	59	27	0	1099956224	52	5859
2026-01-13 15:32:54.06	227.16	26.12	-38.7	-39.7	22.1	0.00e+00	0	27	0	1102053376	50	6223
2026-01-13 15:32:55.06	227.08	25.96	-38.5	-39.5	22.3	0.00e+00	87	27	0	1103101952	50	6082
2026-01-13 15:32:56.07	226.99	25.80	-38.4	-39.5	22.5	0.00e+00	0	27	0	1105199104	50	6036
2026-01-13 15:32:57.08	226.91	25.64	-38.1	-39.1	22.7	0.00e+00	0	27	0	1107296256	50	5820
2026-01-13 15:32:58.09	226.83	25.49	-38.2	-39.1	22.7	0.00e+00	0	27	0	1109393408	50	5815
2026-01-13 15:32:59.10	226.74	25.33	-38.0	-39.0	22.7	0.00e+00	0	27	0	1111490560	50	5701
2026-01-13 15:33:00.11	226.66	25.17	-38.0	-38.9	22.7	0.00e+00	4	27	0	1112539136	50	5684
2026-01-13 15:33:01.12	226.58	25.02	-38.3	-39.3	22.4	0.00e+00	0	27	0	1114636288	50	5951
2026-01-13 15:33:02.13	226.50	24.86	-38.7	-39.8	22.1	0.00e+00	59	27	0	1116733440	50	6275
2026-01-13 15:33:03.14	226.43	24.71	-38.9	-40.0	21.9	0.00e+00	0	27	0	1118830592	50	6415
2026-01-13 15:33:04.15	226.35	24.55	-39.3	-40.4	21.5	0.00e+00	88	27	0	1120927744	50	6764
2026-01-13 15:33:05.16	226.27	24.40	-39.3	-40.5	21.5	0.00e+00	0	27	0	1121976320	50	6811
2026-01-13 15:33:06.17	226.20	24.25	-39.1	-40.2	21.7	0.00e+00	0	27	0	1124073472	50	6594
2026-01-13 15:33:07.18	226.12	24.10	-39.1	-40.2	21.8	7.00e-07	57	27	0	1126170624	50	6600
2026-01-13 15:33:08.19	226.05	23.95	-38.5	-39.5	22.3	0.00e+00	0	27	0	1128267776	50	6096
2026-01-13 15:33:09.20	225.97	23.80	-37.8	-38.8	22.9	0.00e+00	52	27	0	1130364928	50	5596
2026-01-13 15:33:10.20	225.90	23.65	-37.7	-38.7	23.0	0.00e+00	0	27	0	1131413504	48	6236
2026-01-13 15:33:11.21	225.83	23.51	-37.9	-39.0	22.8	0.00e+00	51	27	0	1133510656	48	6414
2026-01-13 15:33:12.22	225.76	23.36	-37.7	-38.7	23.0	0.00e+00	0	27	0	1135607808	48	6196
2026-01-13 15:33:13.23	225.68	23.21	-38.1	-39.2	22.4	0.00e+00	0	27	0	1137704960	48	6581
2026-01-13 15:33:14.24	225.61	23.07	-38.7	-39.8	22.1	0.00e+00	0	27	0	1139802112	48	7067
2026-01-13 15:33:15.25	225.54	22.92	-38.9	-40.2	21.8	0.00e+00	0	27	0	1140850688	50	6541
2026-01-13 15:33:16.26	225.48	22.78	-39.7	-41.0	20.9	0.00e+00	28	27	0	1142947840	50	7239
2026-01-13 15:33:17.27	225.41	22.64	-40.6	-42.1	20.0	0.00e+00	0	27	0	1145044992	52	7332
2026-01-13 15:33:18.28	225.34	22.49	-41.0	-42.7	19.4	0.00e+00	36	27	0	1147142144	54	6935
2026-01-13 15:33:19.29	225.27	22.35	-41.4	-43.2	18.9	0.00e+00	0	27	0	1149239296	54	7385
2026-01-13 15:33:20.30	225.21	22.21	-41.6	-43.5	18.8	0.00e+00	0	27	0	1151336448	54	7632
2026-01-13 15:33:21.31	225.14	22.07	-40.9	-42.4	19.8	0.00e+00	0	27	0	1152385024	54	6758
2026-01-13 15:33:22.32	225.08	21.93	-40.5	-42.0	20.3	0.00e+00	0	27	0	1154482176	54	6408
2026-01-13 15:33:23.33	225.01	21.79	-39.9	-41.2	20.9	0.00e+00	35	27	0	1156579328	54	5890
2026-01-13 15:33:24.34	224.95	21.66	-38.8	-39.9	22.0	0.00e+00	0	27	0	1158676480	52	5655
2026-01-13 15:33:25.35	224.88	21.52	-38.4	-39.6	22.2	0.00e+00	91	27	0	1160773632	50	6104
2026-01-13 15:33:26.36	224.82	21.38	-38.2	-39.3	22.5	0.00e+00	0	27	0	1161822208	50	5914
2026-01-13 15:33:27.37	224.76	21.25	-38.0	-39.0	22.8	0.00e+00	0	27	0	1163919360	50	5743
2026-01-13 15:33:28.38	224.70	21.11	-37.7	-38.7	22.9	0.00e+00	0	27	0	1166016512	48	6245
2026-01-13 15:33:29.39	224.64	20.98	-37.8	-38.8	22.9	0.00e+00	0	27	0	1168113664	48	6287
2026-01-13 15:33:30.39	224.58	20.84	-37.7	-38.7	23.2	0.00e+00	57	27	0	1170210816	48	6197
2026-01-13 15:33:31.40	224.52	20.71	-37.7	-38.7	22.9	0.00e+00	0	27	0	1171259392	48	6219
2026-01-13 15:33:32.41	224.46	20.58	-37.9	-38.9	22.7	0.00e+00	92	27	0	1173356544	48	6380
2026-01-13 15:33:33.42	224.40	20.45	-37.6	-38.6	22.9	0.00e+00	0	27	0	1175453696	48	6158
2026-01-13 15:33:34.43	224.34	20.32	-37.6	-38.6	22.8	0.00e+00	73	27	0	1177550848	48	6164
2026-01-13 15:33:35.44	224.28	20.19	-37.6	-38.6	22.9	0.00e+00	0	27	0	1179648000	48	6112
2026-01-13 15:33:36.45	224.22	20.06	-37.6	-38.6	22.9	0.00e+00	0	27	0	1180696576	48	6170
2026-01-13 15:33:37.46	224.17	19.93	-37.7	-38.7	23.0	0.00e+00	0	27	0	1182793728	48	6197
2026-01-13 15:33:38.47	224.11	19.80	-37.2	-38.1	23.3	0.00e+00	0	27	0	1184890880	48	5800
2026-01-13 15:33:39.48	224.06	19.67	-37.3	-38.3	23.2	0.00e+00	92	27	0	1186988032	48	5934
2026-01-13 15:33:40.49	224.00	19.54	-37.0	-38.0	23.5	0.00e+00	0	27	0	1189085184	48	5702
2026-01-13 15:33:41.50	223.95	19.42	-37.0	-37.9	23.5	0.00e+00	91	27	0	1190133760	48	5648
2026-01-13 15:33:42.51	223.89	19.29	-37.0	-37.9	23.5	0.00e+00	0	27	0	1192230912	48	5647
2026-01-13 15:33:43.52	223.84	19.17	-37.0	-37.9	23.5	0.00e+00	0	27	0	1194328064	48	5670
2026-01-13 15:33:44.53	223.78	19.04	-37.2	-38.1	23.3	0.00e+00	0	27	0	1196425216	48	5826
2026-01-13 15:33:45.54	223.73	18.92	-36.9	-37.8	23.6	0.00e+00	0	27	0	1198522368	48	5597
2026-01-13 15:33:46.55	223.68	18.79	-37.1	-38.1	23.4	0.00e+00	60	27	0	1199570944	48	5771
2026-01-13 15:33:47.56	223.63	18.67	-37.2	-38.2	23.3	0.00e+00	0	27	0	1201668096	48	5834
2026-01-13 15:33:48.57	223.58	18.55	-37.3	-38.3	23.3	0.00e+00	92	27	0	1203765248	48	5908
