passes_logs/2025/01/04/XPeterburg/XPeterburg__20250104_115323_FENGYUN_3D_rec.log

#Pass ID: 20250104_115323_FENGYUN 3D
#Satellite: FENGYUN 3D
#Configuration: FENGYUN 3D
#Start time: 2025-01-04 11:53:17

#Version: 1.5.20200625
#Station: XPeterburg
#Location: 30.318091 lon 59.932769 lat
#TLE: 1 43010U 17072A   24362.16670685  .00000332  00000+0  17913-3 0  9992
#TLE: 2 43010  98.9391 318.2242 0002184 121.2776 238.8614 14.19528556368793

#Time	Az	El	Level	Level2	SNR	BER	Gain	Gain2
2025-01-04 11:53:17.73	185.13	67.78	-38.4	-42.3	3.3	8388759	93	3867
2025-01-04 11:53:17.93	185.23	67.87	-36.9	-64.2	3.6	97995	46	57114
2025-01-04 11:53:18.13	185.33	67.95	-37.9	-52.3	3.5	7588291	73	12879
2025-01-04 11:53:18.33	185.44	68.03	-38.4	-42.5	3.3	8424179	93	3963
2025-01-04 11:53:18.53	185.54	68.12	-38.4	-42.4	3.3	8385990	93	3894
2025-01-04 11:53:18.73	185.65	68.20	-38.4	-43.7	3.6	8385990	93	4569
2025-01-04 11:53:18.93	185.75	68.29	-38.4	-43.6	3.6	8432407	93	4473
2025-01-04 11:53:19.13	185.86	68.37	-38.4	-42.7	3.4	8430187	93	4043
2025-01-04 11:53:19.33	185.97	68.45	-38.4	-42.3	3.3	8430187	93	3877
2025-01-04 11:53:19.53	186.08	68.54	-38.4	-43.8	3.6	8393852	93	4587
2025-01-04 11:53:19.73	186.19	68.62	-38.4	-43.8	3.6	8426937	93	4568
2025-01-04 11:53:19.94	186.30	68.71	-38.4	-42.8	3.4	8426937	93	4089
2025-01-04 11:53:20.14	186.42	68.79	-38.4	-42.3	3.3	8421363	93	3851
2025-01-04 11:53:20.34	186.53	68.87	-38.4	-42.4	3.3	8401576	93	3892
2025-01-04 11:53:20.54	186.64	68.96	-38.4	-43.8	3.6	8401576	93	4569
2025-01-04 11:53:20.74	186.76	69.04	-38.4	-43.0	3.4	8411933	93	4202
2025-01-04 11:53:20.94	186.87	69.13	-38.4	-42.4	3.3	8434032	93	3906
2025-01-04 11:53:21.14	186.99	69.21	-38.4	-42.4	3.3	8434032	93	3888
2025-01-04 11:53:21.34	187.11	69.29	-38.4	-43.8	3.6	8399345	93	4566
2025-01-04 11:53:21.55	187.23	69.38	-38.4	-43.3	3.5	8435714	93	4328
2025-01-04 11:53:21.75	187.35	69.46	-38.4	-42.5	3.4	8421867	93	3949
2025-01-04 11:53:21.95	187.47	69.55	-38.4	-42.3	3.3	8421867	93	3889
2025-01-04 11:53:22.15	187.59	69.63	-38.4	-43.7	3.6	8401851	93	4544
2025-01-04 11:53:22.35	187.72	69.71	-38.4	-43.5	3.6	8439868	93	4455
2025-01-04 11:53:22.55	187.84	69.80	-38.4	-42.6	3.4	8439868	93	4003
2025-01-04 11:53:22.75	187.97	69.88	-38.4	-42.3	3.3	8418399	93	3861
2025-01-04 11:53:22.95	188.09	69.97	-38.4	-43.7	3.6	8398200	93	4529
2025-01-04 11:53:23.15	188.22	70.05	-38.4	-43.7	3.6	8398200	93	4547
2025-01-04 11:53:23.35	188.35	70.13	-38.4	-42.8	3.4	8434261	93	4077
2025-01-04 11:53:23.56	188.48	70.22	-38.4	-42.3	3.3	8413181	93	3851
2025-01-04 11:53:23.76	188.61	70.30	-38.4	-42.3	3.3	8413181	93	3879
2025-01-04 11:53:23.96	188.75	70.39	-38.4	-43.7	3.6	8392272	93	4533
2025-01-04 11:53:24.16	188.88	70.47	-38.4	-43.0	3.4	8444984	93	4180
2025-01-04 11:53:24.36	189.01	70.55	-38.4	-42.3	3.3	8444984	93	3858
2025-01-04 11:53:24.56	189.15	70.64	-38.4	-42.2	3.3	8416820	93	3825
2025-01-04 11:53:24.76	189.29	70.72	-38.3	-43.7	3.6	8385349	93	4552
2025-01-04 11:53:24.96	189.43	70.80	-38.2	-42.5	3.5	8387626	94	4016
2025-01-04 11:53:25.16	189.56	70.89	-38.3	-41.6	3.4	8387626	94	3622
2025-01-04 11:53:25.36	189.71	70.97	-38.2	-41.4	3.3	8418949	94	3540
2025-01-04 11:53:25.57	189.85	71.06	-38.3	-43.0	3.6	8361293	94	4250
2025-01-04 11:53:25.77	190.00	71.14	-38.3	-43.0	3.6	8361293	94	4232
2025-01-04 11:53:25.97	190.14	71.22	-38.3	-42.0	3.4	8435897	94	3780
2025-01-04 11:53:26.17	190.29	71.31	-38.3	-41.6	3.3	8418067	94	3607
2025-01-04 11:53:26.37	190.44	71.39	-38.3	-43.0	3.6	8418067	94	4234
2025-01-04 11:53:26.57	190.59	71.47	-38.3	-42.8	3.6	8410766	94	4123
2025-01-04 11:53:26.77	190.74	71.55	-38.3	-41.9	3.4	8444595	94	3732
2025-01-04 11:53:26.97	190.89	71.64	-38.3	-41.6	3.3	8405685	94	3593
2025-01-04 11:53:27.17	191.04	71.72	-38.3	-43.0	3.6	8405685	94	4243
2025-01-04 11:53:27.37	191.20	71.80	-38.3	-43.0	3.6	8410285	94	4247
2025-01-04 11:53:27.58	191.36	71.89	-38.3	-42.2	3.4	8434146	94	3844
2025-01-04 11:53:27.78	191.52	71.97	-38.3	-41.7	3.3	8434146	94	3645
2025-01-04 11:53:27.98	191.68	72.05	-38.3	-41.7	3.3	8401679	94	3657
2025-01-04 11:53:28.18	191.84	72.14	-38.3	-43.1	3.6	8411441	94	4253
2025-01-04 11:53:28.38	192.00	72.22	-38.3	-42.4	3.5	8411441	94	3951
2025-01-04 11:53:28.58	192.16	72.30	-38.3	-41.8	3.3	8434066	94	3660
2025-01-04 11:53:28.78	192.33	72.38	-38.3	-41.6	3.3	8387763	94	3604
2025-01-04 11:53:28.98	192.50	72.47	-38.3	-43.1	3.6	8387763	94	4278
2025-01-04 11:53:29.18	192.67	72.55	-38.5	-42.5	3.5	8412380	95	3906
2025-01-04 11:53:29.38	192.84	72.63	-38.5	-41.7	3.4	8390739	95	3554
2025-01-04 11:53:29.59	193.02	72.72	-38.5	-41.5	3.3	8390739	95	3471
2025-01-04 11:53:29.79	193.19	72.80	-38.5	-43.0	3.6	8394527	95	4141
2025-01-04 11:53:29.99	193.37	72.88	-38.5	-43.1	3.6	8396678	95	4148
2025-01-04 11:53:30.19	193.54	72.96	-38.5	-42.1	3.4	8429580	95	3695
2025-01-04 11:53:30.39	193.72	73.04	-38.5	-41.7	3.3	8429580	95	3541
2025-01-04 11:53:30.59	193.90	73.12	-38.5	-43.2	3.6	8392250	95	4184
2025-01-04 11:53:30.79	194.09	73.21	-38.5	-43.1	3.6	8429065	95	4149
2025-01-04 11:53:30.99	194.27	73.29	-38.5	-42.1	3.4	8429065	95	3704
2025-01-04 11:53:31.19	194.46	73.37	-38.5	-41.6	3.3	8424236	95	3521
2025-01-04 11:53:31.39	194.65	73.45	-38.5	-41.6	3.3	8393337	95	3492
2025-01-04 11:53:31.60	194.85	73.53	-38.5	-43.1	3.6	8393337	95	4148
2025-01-04 11:53:31.80	195.04	73.61	-38.5	-42.3	3.5	8445671	95	3792
2025-01-04 11:53:32.00	195.23	73.69	-38.5	-41.6	3.4	8413352	95	3514
2025-01-04 11:53:32.20	195.43	73.78	-38.5	-41.6	3.3	8413352	95	3489
2025-01-04 11:53:32.40	195.63	73.86	-38.5	-43.0	3.6	8395568	95	4137
2025-01-04 11:53:32.60	195.83	73.94	-38.5	-42.6	3.5	8443279	95	3939
2025-01-04 11:53:32.80	196.03	74.02	-38.5	-41.8	3.4	8443279	95	3605
2025-01-04 11:53:33.00	196.24	74.10	-38.5	-41.6	3.3	8423183	95	3494
2025-01-04 11:53:33.21	196.46	74.18	-38.5	-43.0	3.6	8386699	95	4130
2025-01-04 11:53:33.41	196.66	74.26	-38.5	-42.8	3.6	8428413	95	4023
2025-01-04 11:53:33.61	196.88	74.34	-38.5	-41.8	3.4	8428413	95	3606
2025-01-04 11:53:33.81	197.09	74.42	-38.5	-41.5	3.3	8412471	95	3471
2025-01-04 11:53:34.01	197.31	74.50	-38.5	-43.0	3.6	8391014	95	4125
2025-01-04 11:53:34.21	197.52	74.58	-38.5	-42.9	3.6	8391014	95	4106
2025-01-04 11:53:34.41	197.75	74.65	-38.5	-41.9	3.4	8441093	95	3653
2025-01-04 11:53:34.61	197.97	74.73	-38.5	-41.5	3.3	8412963	95	3472
2025-01-04 11:53:34.81	198.19	74.81	-38.5	-41.5	3.3	8412963	95	3472
2025-01-04 11:53:35.01	198.42	74.89	-38.5	-42.9	3.6	8395305	95	4087
2025-01-04 11:53:35.22	198.66	74.97	-38.5	-42.2	3.4	8444000	95	3754
2025-01-04 11:53:35.42	198.90	75.05	-38.5	-41.5	3.3	8444000	95	3487
2025-01-04 11:53:35.62	199.13	75.13	-38.5	-41.4	3.3	8403579	95	3442
2025-01-04 11:53:35.82	199.37	75.21	-38.5	-43.0	3.6	8398303	95	4124
2025-01-04 11:53:36.02	199.61	75.28	-38.5	-42.5	3.5	8398303	95	3917
2025-01-04 11:53:36.22	199.85	75.36	-38.5	-41.7	3.3	8437076	95	3540
2025-01-04 11:53:36.42	200.10	75.44	-38.5	-41.7	3.3	8405639	95	3535
2025-01-04 11:53:36.62	200.35	75.51	-38.5	-43.0	3.6	8403556	95	4129
2025-01-04 11:53:36.82	200.60	75.59	-38.5	-42.6	3.5	8403556	95	3932
2025-01-04 11:53:37.03	200.87	75.67	-38.5	-41.7	3.4	8441356	95	3562
2025-01-04 11:53:37.23	201.12	75.75	-38.5	-41.6	3.3	8398681	95	3504
2025-01-04 11:53:37.43	201.38	75.82	-38.5	-43.1	3.6	8398681	95	4141
2025-01-04 11:53:37.63	201.65	75.90	-38.6	-42.9	3.6	8410114	95	4074
2025-01-04 11:53:37.83	201.91	75.97	-38.5	-42.0	3.4	8441184	95	3683
2025-01-04 11:53:38.03	202.18	76.05	-38.5	-41.7	3.3	8441184	95	3555
2025-01-04 11:53:38.23	202.45	76.12	-38.5	-43.1	3.6	8399196	95	4162
2025-01-04 11:53:38.43	202.73	76.20	-38.5	-43.1	3.6	8404060	95	4167
2025-01-04 11:53:38.63	203.00	76.27	-38.5	-42.0	3.4	8438472	95	3667
2025-01-04 11:53:38.83	203.28	76.35	-38.5	-41.6	3.3	8438472	95	3498
2025-01-04 11:53:39.03	203.57	76.42	-38.5	-41.6	3.3	8392364	95	3493
2025-01-04 11:53:39.23	203.86	76.49	-38.5	-43.0	3.6	8427600	95	4131
2025-01-04 11:53:39.44	204.16	76.57	-38.5	-42.3	3.4	8427600	95	3803
2025-01-04 11:53:39.64	204.45	76.64	-38.5	-41.7	3.4	8437053	95	3533
2025-01-04 11:53:39.84	204.75	76.71	-38.5	-41.6	3.3	8392421	95	3489
2025-01-04 11:53:40.04	205.05	76.79	-38.5	-42.9	3.6	8392421	95	4100
2025-01-04 11:53:40.24	205.35	76.86	-38.5	-42.4	3.5	8429031	95	3854
2025-01-04 11:53:40.44	205.66	76.93	-38.5	-41.6	3.3	8441951	95	3531
2025-01-04 11:53:40.64	205.97	77.00	-38.5	-41.4	3.3	8441951	95	3457
2025-01-04 11:53:40.84	206.29	77.07	-38.5	-42.9	3.6	8392341	95	4075
2025-01-04 11:53:41.04	206.60	77.14	-38.5	-42.8	3.6	8441585	95	4041
2025-01-04 11:53:41.24	206.93	77.21	-38.5	-41.9	3.4	8441585	95	3642
2025-01-04 11:53:41.44	207.25	77.28	-38.5	-41.5	3.3	8432109	95	3490
2025-01-04 11:53:41.64	207.58	77.35	-38.5	-43.0	3.6	8397926	95	4114
2025-01-04 11:53:41.85	207.93	77.42	-38.5	-43.0	3.6	8439285	95	4124
2025-01-04 11:53:42.05	208.26	77.49	-38.5	-42.1	3.4	8439285	95	3703
2025-01-04 11:53:42.25	208.60	77.56	-38.5	-41.6	3.3	8420276	95	3511
2025-01-04 11:53:42.45	208.95	77.63	-38.6	-41.6	3.3	8389583	95	3500
2025-01-04 11:53:42.65	209.30	77.70	-38.5	-43.1	3.6	8389583	95	4153
2025-01-04 11:53:42.85	209.65	77.76	-38.5	-42.3	3.5	8443336	95	3803
2025-01-04 11:53:43.05	210.00	77.83	-38.5	-41.7	3.3	8409473	95	3537
2025-01-04 11:53:43.25	210.36	77.90	-38.5	-41.6	3.3	8409473	95	3514
2025-01-04 11:53:43.45	210.73	77.96	-38.5	-43.1	3.6	8395729	95	4156
2025-01-04 11:53:43.66	211.11	78.03	-38.5	-42.5	3.5	8427589	95	3894
2025-01-04 11:53:43.86	211.48	78.09	-38.5	-41.8	3.4	8427589	95	3573
2025-01-04 11:53:44.06	211.86	78.16	-38.5	-41.6	3.3	8415584	95	3499
2025-01-04 11:53:44.26	212.24	78.22	-38.5	-43.0	3.6	8393245	95	4126
2025-01-04 11:53:44.46	212.62	78.29	-38.5	-42.8	3.6	8393245	95	4026
2025-01-04 11:53:44.66	213.01	78.35	-38.5	-41.9	3.4	8434741	95	3622
2025-01-04 11:53:44.86	213.41	78.41	-38.5	-41.5	3.3	8417301	95	3466
2025-01-04 11:53:45.06	213.80	78.47	-38.5	-43.0	3.6	8406166	95	4119
2025-01-04 11:53:45.26	214.20	78.53	-38.5	-42.9	3.6	8406166	95	4083
2025-01-04 11:53:45.46	214.61	78.60	-38.5	-41.9	3.4	8443244	95	3662
2025-01-04 11:53:45.67	215.04	78.66	-38.5	-41.4	3.3	8402252	95	3458
2025-01-04 11:53:45.87	215.46	78.72	-38.5	-41.5	3.3	8402252	95	3492
2025-01-04 11:53:46.07	215.88	78.78	-38.5	-43.0	3.6	8401782	95	4143
2025-01-04 11:53:46.27	216.30	78.84	-38.5	-42.1	3.5	8390224	95	3759
2025-01-04 11:53:46.47	216.73	78.89	-38.4	-41.4	3.3	8390224	95	3458
2025-01-04 11:53:46.67	217.16	78.95	-38.5	-41.3	3.3	8401542	95	3418
2025-01-04 11:53:46.87	217.60	79.01	-38.5	-43.0	3.6	8348384	95	4114
2025-01-04 11:53:47.07	218.04	79.06	-38.5	-42.3	3.5	8452056	95	3815
2025-01-04 11:53:47.27	218.49	79.12	-38.5	-41.7	3.3	8452056	95	3564
2025-01-04 11:53:47.47	218.94	79.17	-38.5	-41.6	3.3	8419601	95	3506
2025-01-04 11:53:47.68	219.42	79.23	-38.5	-43.0	3.6	8397468	95	4100
2025-01-04 11:53:47.88	219.88	79.28	-38.5	-42.8	3.6	8397468	95	4012
2025-01-04 11:53:48.08	220.35	79.34	-38.5	-41.9	3.4	8437786	95	3633
2025-01-04 11:53:48.28	220.82	79.39	-38.5	-41.6	3.3	8413307	95	3489
2025-01-04 11:53:48.48	221.29	79.44	-38.5	-42.9	3.6	8413307	95	4093
2025-01-04 11:53:48.68	221.77	79.49	-38.5	-43.0	3.6	8411361	95	4113
2025-01-04 11:53:48.88	222.26	79.54	-38.5	-42.1	3.4	8443004	95	3710
2025-01-04 11:53:49.08	222.75	79.59	-38.5	-41.6	3.3	8443004	95	3486
2025-01-04 11:53:49.28	223.24	79.64	-38.5	-41.6	3.3	8413902	95	3506
2025-01-04 11:53:49.48	223.74	79.69	-38.5	-43.0	3.6	8404666	95	4127
2025-01-04 11:53:49.69	224.27	79.74	-38.4	-42.1	3.5	8404666	95	3744
2025-01-04 11:53:49.89	224.78	79.78	-38.4	-41.5	3.3	8396324	95	3485
2025-01-04 11:53:50.09	225.29	79.83	-38.4	-41.4	3.3	8414989	95	3455
2025-01-04 11:53:50.29	225.81	79.87	-38.6	-43.1	3.6	8367828	95	4139
2025-01-04 11:53:50.49	226.33	79.92	-38.5	-42.7	3.5	8367828	95	3978
2025-01-04 11:53:50.69	226.85	79.96	-38.5	-41.9	3.4	8436286	95	3609
2025-01-04 11:53:50.89	227.39	80.00	-38.5	-41.6	3.3	8391563	95	3489
2025-01-04 11:53:51.09	227.92	80.04	-38.5	-43.1	3.6	8391563	95	4159
2025-01-04 11:53:51.29	228.46	80.08	-38.5	-42.9	3.6	8421489	95	4095
2025-01-04 11:53:51.50	229.03	80.13	-38.5	-42.0	3.4	8441162	95	3678
2025-01-04 11:53:51.70	229.58	80.16	-38.5	-41.6	3.3	8441162	95	3520
2025-01-04 11:53:51.90	230.14	80.20	-38.6	-43.1	3.6	8389617	95	4132
2025-01-04 11:53:52.10	230.70	80.24	-38.5	-43.1	3.6	8418891	95	4175
2025-01-04 11:53:52.30	231.26	80.28	-38.5	-42.0	3.4	8418891	95	3689
2025-01-04 11:53:52.50	231.83	80.31	-38.5	-41.6	3.3	8443325	95	3516
2025-01-04 11:53:52.70	232.40	80.35	-38.5	-41.6	3.3	8407424	95	3519
2025-01-04 11:53:52.90	232.97	80.38	-38.5	-43.0	3.6	8407424	95	4124
2025-01-04 11:53:53.11	233.58	80.41	-38.5	-42.3	3.4	8431251	95	3806
2025-01-04 11:53:53.31	234.16	80.44	-38.5	-41.7	3.3	8430908	95	3548
2025-01-04 11:53:53.51	234.75	80.47	-38.5	-41.6	3.3	8389881	95	3505
2025-01-04 11:53:53.71	235.34	80.50	-38.5	-43.1	3.6	8389881	95	4145
2025-01-04 11:53:53.91	235.93	80.53	-38.5	-42.5	3.5	8426330	95	3882
2025-01-04 11:53:54.11	236.53	80.56	-38.5	-41.8	3.4	8423492	95	3578
2025-01-04 11:53:54.31	237.13	80.59	-38.5	-41.6	3.3	8423492	95	3516
2025-01-04 11:53:54.51	237.74	80.61	-38.5	-43.1	3.6	8392925	95	4143
2025-01-04 11:53:54.71	238.34	80.63	-38.5	-42.8	3.6	8442123	95	4038
2025-01-04 11:53:54.92	238.98	80.66	-38.5	-41.9	3.4	8442123	95	3639
2025-01-04 11:53:55.12	239.60	80.68	-38.5	-41.6	3.3	8422222	95	3513
2025-01-04 11:53:55.32	240.22	80.70	-38.5	-43.0	3.6	8387306	95	4110
2025-01-04 11:53:55.52	240.83	80.72	-38.5	-43.0	3.6	8387306	95	4122
2025-01-04 11:53:55.72	241.46	80.74	-38.5	-42.1	3.4	8454025	95	3701
2025-01-04 11:53:55.92	242.08	80.76	-38.5	-41.6	3.3	8422851	95	3496
2025-01-04 11:53:56.12	242.71	80.78	-38.5	-43.0	3.6	8393325	95	4114
2025-01-04 11:53:56.32	243.34	80.79	-38.5	-43.0	3.6	8393325	95	4135
2025-01-04 11:53:56.52	243.97	80.81	-38.5	-42.1	3.4	8438083	95	3723
2025-01-04 11:53:56.72	244.60	80.82	-38.5	-41.6	3.3	8406337	95	3491
2025-01-04 11:53:56.93	245.27	80.83	-38.5	-41.6	3.3	8406337	95	3500
2025-01-04 11:53:57.13	245.91	80.84	-38.5	-43.0	3.6	8385005	95	4127
2025-01-04 11:53:57.33	246.55	80.85	-38.5	-42.2	3.5	8444389	95	3763
2025-01-04 11:53:57.53	247.19	80.86	-38.5	-41.6	3.3	8444389	95	3520
2025-01-04 11:53:57.73	247.83	80.87	-38.5	-41.6	3.3	8417186	95	3487
2025-01-04 11:53:57.93	248.47	80.88	-38.5	-43.0	3.6	8412975	95	4134
2025-01-04 11:53:58.13	249.11	80.88	-38.5	-42.5	3.5	8412975	95	3904
2025-01-04 11:53:58.33	249.76	80.89	-38.5	-41.7	3.4	8446723	95	3568
2025-01-04 11:53:58.54	250.43	80.89	-38.5	-41.5	3.3	8407596	95	3485
2025-01-04 11:53:58.74	251.08	80.89	-38.5	-43.0	3.6	8404254	95	4149
2025-01-04 11:53:58.94	251.72	80.90	-38.5	-42.8	3.6	8404254	95	4030
2025-01-04 11:53:59.14	252.37	80.90	-38.5	-41.9	3.4	8437213	95	3615
2025-01-04 11:53:59.34	253.01	80.89	-38.5	-41.5	3.3	8400810	95	3468
2025-01-04 11:53:59.54	253.66	80.89	-38.5	-42.9	3.6	8400810	95	4089
2025-01-04 11:53:59.74	254.30	80.89	-38.5	-42.9	3.6	8413513	95	4094
2025-01-04 11:53:59.94	254.94	80.88	-38.5	-42.1	3.4	8437065	95	3698
2025-01-04 11:54:00.14	255.59	80.88	-38.5	-41.6	3.3	8437065	95	3499
2025-01-04 11:54:00.34	256.23	80.87	-38.5	-41.6	3.3	8417140	95	3488
2025-01-04 11:54:00.55	256.90	80.86	-38.5	-43.0	3.6	8408409	95	4121
2025-01-04 11:54:00.75	257.54	80.85	-38.5	-42.3	3.5	8408409	95	3791
2025-01-04 11:54:00.95	258.18	80.84	-38.5	-41.6	3.3	8440303	95	3514
2025-01-04 11:54:01.15	258.82	80.83	-38.5	-41.6	3.3	8406818	95	3516
2025-01-04 11:54:01.35	259.45	80.82	-38.5	-43.1	3.6	8406818	95	4164
2025-01-04 11:54:01.55	260.08	80.81	-38.5	-42.5	3.5	8426078	95	3905
2025-01-04 11:54:01.75	260.72	80.79	-38.5	-41.8	3.4	8429695	95	3590
2025-01-04 11:54:01.95	261.34	80.77	-38.5	-41.6	3.3	8394149	95	3510
2025-01-04 11:54:02.15	261.97	80.76	-38.5	-43.0	3.6	8394149	95	4138
2025-01-04 11:54:02.36	262.63	80.74	-38.5	-42.9	3.6	8416385	95	4050
2025-01-04 11:54:02.56	263.25	80.72	-38.5	-41.9	3.4	8436435	95	3621
2025-01-04 11:54:02.76	263.87	80.70	-38.5	-41.5	3.3	8436435	95	3472
2025-01-04 11:54:02.96	264.48	80.68	-38.5	-42.9	3.6	8401062	95	4091
2025-01-04 11:54:03.16	265.10	80.66	-38.5	-43.0	3.6	8431652	95	4112
2025-01-04 11:54:03.36	265.71	80.63	-38.5	-42.0	3.4	8431652	95	3690
2025-01-04 11:54:03.56	266.31	80.61	-38.5	-41.5	3.3	8421443	95	3484
2025-01-04 11:54:03.76	266.92	80.58	-38.5	-41.5	3.3	8388153	95	3468
2025-01-04 11:54:03.96	267.52	80.56	-38.5	-43.1	3.6	8388153	95	4154
2025-01-04 11:54:04.17	268.15	80.53	-38.5	-42.3	3.4	8433151	95	3786
2025-01-04 11:54:04.37	268.74	80.50	-38.5	-41.7	3.3	8423698	95	3525
2025-01-04 11:54:04.57	269.33	80.47	-38.5	-41.6	3.3	8423698	95	3490
2025-01-04 11:54:04.77	269.92	80.44	-38.5	-43.0	3.6	8393314	95	4120
2025-01-04 11:54:04.97	270.50	80.41	-38.5	-42.5	3.5	8431835	95	3884
2025-01-04 11:54:05.17	271.08	80.38	-38.5	-41.5	3.3	8433082	95	3486
2025-01-04 11:54:05.37	271.65	80.34	-38.5	-41.5	3.3	8433082	95	3483
2025-01-04 11:54:05.57	272.22	80.31	-38.5	-43.0	3.6	8395156	95	4125
2025-01-04 11:54:05.77	272.79	80.27	-38.5	-42.5	3.5	8436389	95	3908
2025-01-04 11:54:05.98	273.38	80.23	-38.5	-41.7	3.4	8436389	95	3547
2025-01-04 11:54:06.18	273.93	80.20	-38.5	-41.4	3.3	8415996	95	3450
2025-01-04 11:54:06.38	274.49	80.16	-38.5	-43.0	3.6	8395385	95	4120
2025-01-04 11:54:06.58	275.03	80.12	-38.5	-42.7	3.6	8395385	95	4008
2025-01-04 11:54:06.78	275.58	80.08	-38.5	-41.7	3.4	8449550	95	3565
2025-01-04 11:54:06.98	276.12	80.04	-38.5	-41.5	3.3	8423881	95	3454
2025-01-04 11:54:07.18	276.65	80.00	-38.5	-42.9	3.6	8403991	95	4077
2025-01-04 11:54:07.38	277.18	79.96	-38.5	-42.9	3.6	8403991	95	4082
2025-01-04 11:54:07.58	277.71	79.91	-38.5	-41.9	3.4	8448818	95	3636
2025-01-04 11:54:07.78	278.23	79.87	-38.5	-41.3	3.3	8418308	95	3421
2025-01-04 11:54:07.99	278.77	79.82	-38.5	-41.3	3.3	8418308	95	3414
2025-01-04 11:54:08.19	279.29	79.78	-38.5	-42.8	3.6	8404792	95	4052
2025-01-04 11:54:08.39	279.79	79.73	-38.5	-42.1	3.4	8440315	95	3731
2025-01-04 11:54:08.59	280.30	79.68	-38.5	-41.4	3.3	8440315	95	3471
2025-01-04 11:54:08.79	280.80	79.64	-38.5	-41.4	3.3	8405582	95	3451
2025-01-04 11:54:08.99	281.29	79.59	-38.5	-42.9	3.6	8398143	95	4069
2025-01-04 11:54:09.19	281.78	79.54	-38.5	-42.3	3.5	8398143	95	3821
2025-01-04 11:54:09.39	282.26	79.49	-38.5	-41.7	3.4	8444847	95	3537
2025-01-04 11:54:09.59	282.74	79.44	-38.5	-41.4	3.3	8401233	95	3453
2025-01-04 11:54:09.79	283.22	79.39	-38.5	-42.9	3.6	8401233	95	4082
2025-01-04 11:54:10.00	283.71	79.33	-38.5	-42.7	3.6	8399700	95	3998
2025-01-04 11:54:10.20	284.17	79.28	-38.5	-41.8	3.4	8433746	95	3605
2025-01-04 11:54:10.40	284.63	79.22	-38.5	-41.5	3.3	8394081	95	3484
2025-01-04 11:54:10.60	285.09	79.17	-38.5	-42.9	3.6	8394081	95	4099
2025-01-04 11:54:10.80	285.54	79.12	-38.5	-43.0	3.6	8413993	95	4131
2025-01-04 11:54:11.00	285.99	79.06	-38.5	-42.0	3.4	8433208	95	3673
2025-01-04 11:54:11.20	286.43	79.00	-38.5	-41.5	3.3	8433208	95	3481
2025-01-04 11:54:11.40	286.87	78.95	-38.5	-41.5	3.3	8393898	95	3468
2025-01-04 11:54:11.60	287.30	78.89	-38.5	-43.0	3.6	8416477	95	4127
2025-01-04 11:54:11.81	287.75	78.83	-38.5	-42.4	3.4	8416477	95	3825
2025-01-04 11:54:12.01	288.17	78.77	-38.5	-41.7	3.3	8446437	95	3553
2025-01-04 11:54:12.21	288.59	78.71	-38.5	-41.6	3.3	8386436	95	3492
2025-01-04 11:54:12.41	289.00	78.65	-38.6	-43.2	3.6	8386436	95	4173
2025-01-04 11:54:12.61	289.41	78.59	-38.5	-42.6	3.5	8418754	95	3918
2025-01-04 11:54:12.81	289.82	78.53	-38.5	-41.9	3.4	8433013	95	3618
2025-01-04 11:54:13.01	290.22	78.47	-38.5	-41.6	3.3	8433013	95	3500
2025-01-04 11:54:13.21	290.62	78.41	-38.5	-43.2	3.6	8401245	95	4187
2025-01-04 11:54:13.41	291.01	78.34	-38.5	-42.8	3.6	8425563	95	4014
2025-01-04 11:54:13.62	291.42	78.28	-38.6	-42.0	3.4	8433677	95	3655
2025-01-04 11:54:13.82	291.80	78.22	-38.5	-41.6	3.3	8433677	95	3511
2025-01-04 11:54:14.02	292.18	78.15	-38.5	-43.1	3.6	8394916	95	4163
2025-01-04 11:54:14.22	292.55	78.09	-38.5	-43.0	3.6	8438747	95	4116
2025-01-04 11:54:14.42	292.92	78.02	-38.5	-42.0	3.4	8438747	95	3655
2025-01-04 11:54:14.62	293.29	77.96	-38.5	-41.6	3.3	8416122	95	3504
2025-01-04 11:54:14.82	293.65	77.89	-38.5	-43.1	3.6	8394481	95	4146
2025-01-04 11:54:15.02	294.01	77.83	-38.5	-43.1	3.6	8394481	95	4152
2025-01-04 11:54:15.22	294.37	77.76	-38.5	-42.2	3.4	8434089	95	3747
2025-01-04 11:54:15.42	294.72	77.69	-38.6	-41.7	3.3	8422153	95	3538
2025-01-04 11:54:15.62	295.07	77.62	-38.5	-41.6	3.3	8376823	95	3509
2025-01-04 11:54:15.83	295.43	77.55	-38.5	-43.1	3.6	8376823	95	4143
2025-01-04 11:54:16.03	295.77	77.49	-38.5	-42.3	3.5	8450168	95	3789
2025-01-04 11:54:16.23	296.10	77.42	-38.5	-41.7	3.3	8417266	95	3529
2025-01-04 11:54:16.43	296.43	77.35	-38.5	-41.5	3.3	8417266	95	3466
2025-01-04 11:54:16.63	296.76	77.28	-38.5	-42.8	3.6	8380027	95	4060
2025-01-04 11:54:16.83	297.09	77.21	-38.5	-42.3	3.5	8427909	95	3821
2025-01-04 11:54:17.03	297.41	77.14	-38.5	-41.5	3.4	8427909	95	3486
2025-01-04 11:54:17.23	297.72	77.07	-38.5	-41.3	3.3	8414497	95	3428
2025-01-04 11:54:17.43	298.04	77.00	-38.5	-42.8	3.6	8399734	95	4064
2025-01-04 11:54:17.64	298.36	76.92	-38.4	-42.6	3.7	8399734	95	3964
2025-01-04 11:54:17.84	298.67	76.85	-38.4	-41.6	3.4	8389274	95	3551
2025-01-04 11:54:18.04	298.97	76.78	-38.4	-41.2	3.3	8420001	95	3400
2025-01-04 11:54:18.24	299.27	76.71	-38.5	-42.9	3.6	8420001	95	4102
2025-01-04 11:54:18.44	299.57	76.63	-38.5	-43.0	3.6	8359519	95	4134
2025-01-04 11:54:18.64	299.86	76.56	-38.5	-42.0	3.4	8439949	95	3696
2025-01-04 11:54:18.84	300.15	76.49	-38.5	-41.5	3.3	8406612	95	3464
2025-01-04 11:54:19.04	300.44	76.42	-38.5	-41.5	3.3	8406612	95	3473
2025-01-04 11:54:19.24	300.72	76.34	-38.5	-42.9	3.6	8404644	95	4102
2025-01-04 11:54:19.45	301.02	76.26	-38.5	-42.2	3.5	8443393	95	3757
2025-01-04 11:54:19.65	301.29	76.19	-38.5	-41.6	3.3	8443393	95	3505
2025-01-04 11:54:19.85	301.57	76.12	-38.5	-41.5	3.3	8398933	95	3473
2025-01-04 11:54:20.05	301.84	76.04	-38.5	-42.9	3.6	8415618	95	4076
2025-01-04 11:54:20.25	302.11	75.97	-38.5	-42.4	3.5	8415618	95	3874
2025-01-04 11:54:20.45	302.37	75.89	-38.5	-41.7	3.4	8441596	95	3547
2025-01-04 11:54:20.65	302.63	75.82	-38.5	-41.4	3.3	8396816	95	3446
2025-01-04 11:54:20.85	302.89	75.74	-38.5	-42.9	3.6	8396816	95	4092
2025-01-04 11:54:21.05	303.15	75.66	-38.5	-42.7	3.6	8419532	95	3995
2025-01-04 11:54:21.25	303.40	75.59	-38.5	-41.9	3.4	8432201	95	3636
2025-01-04 11:54:21.46	303.67	75.51	-38.5	-41.6	3.3	8432201	95	3503
2025-01-04 11:54:21.66	303.91	75.43	-38.5	-43.0	3.6	8402835	95	4121
2025-01-04 11:54:21.86	304.16	75.35	-38.5	-43.0	3.6	8423549	95	4130
2025-01-04 11:54:22.06	304.40	75.28	-38.5	-42.0	3.4	8436527	95	3676
2025-01-04 11:54:22.26	304.64	75.20	-38.5	-41.5	3.3	8436527	95	3481
2025-01-04 11:54:22.46	304.88	75.12	-38.5	-41.5	3.3	8394390	95	3471
2025-01-04 11:54:22.66	305.11	75.04	-38.5	-42.9	3.6	8417129	95	4099
2025-01-04 11:54:22.86	305.35	74.97	-38.5	-42.1	3.5	8417129	95	3737
2025-01-04 11:54:23.06	305.58	74.89	-38.5	-41.5	3.3	8428871	95	3477
2025-01-04 11:54:23.26	305.80	74.81	-38.5	-41.4	3.3	8401096	95	3450
2025-01-04 11:54:23.46	306.03	74.73	-38.5	-42.9	3.6	8401096	95	4087
2025-01-04 11:54:23.67	306.26	74.65	-38.5	-42.3	3.5	8419956	95	3838
2025-01-04 11:54:23.87	306.48	74.57	-38.5	-41.6	3.4	8430942	95	3528
2025-01-04 11:54:24.07	306.70	74.49	-38.5	-41.4	3.3	8430942	95	3444
2025-01-04 11:54:24.27	306.92	74.41	-38.5	-43.0	3.6	8390556	95	4106
2025-01-04 11:54:24.47	307.13	74.33	-38.5	-42.8	3.6	8430175	95	4019
2025-01-04 11:54:24.67	307.34	74.25	-38.5	-41.7	3.3	8431137	95	3547
2025-01-04 11:54:24.87	307.55	74.18	-38.5	-41.5	3.3	8431137	95	3490
2025-01-04 11:54:25.07	307.76	74.10	-38.5	-43.1	3.6	8394584	95	4146
2025-01-04 11:54:25.27	307.96	74.02	-38.5	-42.9	3.6	8418514	95	4070
2025-01-04 11:54:25.47	308.16	73.94	-38.5	-42.0	3.4	8418514	95	3656
2025-01-04 11:54:25.67	308.36	73.86	-38.5	-41.7	3.3	8424213	95	3526
2025-01-04 11:54:25.88	308.57	73.77	-38.6	-43.1	3.6	8383266	95	4144
2025-01-04 11:54:26.08	308.77	73.69	-38.5	-43.0	3.6	8383266	95	4133
2025-01-04 11:54:26.28	308.96	73.61	-38.5	-42.2	3.4	8436344	95	3741
2025-01-04 11:54:26.48	309.16	73.53	-38.5	-41.6	3.3	8422142	95	3517
2025-01-04 11:54:26.68	309.35	73.45	-38.5	-41.7	3.3	8422142	95	3541
2025-01-04 11:54:26.88	309.53	73.37	-38.5	-43.1	3.6	8389686	95	4152
2025-01-04 11:54:27.08	309.72	73.29	-38.5	-42.4	3.5	8441837	95	3820
2025-01-04 11:54:27.28	309.90	73.21	-38.5	-41.7	3.3	8424671	95	3548
2025-01-04 11:54:27.48	310.09	73.13	-38.5	-41.6	3.3	8424671	95	3517
2025-01-04 11:54:27.68	310.27	73.04	-38.5	-43.0	3.6	8390945	95	4130
2025-01-04 11:54:27.88	310.45	72.96	-38.5	-42.5	3.5	8447067	95	3876
2025-01-04 11:54:28.09	310.63	72.88	-38.5	-41.7	3.3	8447067	95	3548
2025-01-04 11:54:28.29	310.81	72.80	-38.5	-41.6	3.3	8403385	95	3486
2025-01-04 11:54:28.49	310.98	72.71	-38.5	-43.0	3.6	8415115	95	4130
2025-01-04 11:54:28.69	311.15	72.63	-38.5	-42.9	3.6	8415115	95	4051
2025-01-04 11:54:28.89	311.33	72.55	-38.5	-41.9	3.4	8446231	95	3635
2025-01-04 11:54:29.09	311.49	72.47	-38.5	-41.7	3.3	8405948	95	3533
2025-01-04 11:54:29.29	311.66	72.39	-38.5	-43.0	3.6	8405948	95	4125
2025-01-04 11:54:29.49	311.83	72.30	-38.5	-43.1	3.6	8396610	95	4152
2025-01-04 11:54:29.69	311.99	72.22	-38.5	-42.1	3.4	8437088	95	3701
2025-01-04 11:54:29.89	312.15	72.14	-38.5	-41.6	3.3	8437088	95	3512
2025-01-04 11:54:30.10	312.32	72.05	-38.6	-41.6	3.3	8414142	95	3510
2025-01-04 11:54:30.30	312.48	71.97	-38.6	-43.1	3.6	8391220	95	4146
2025-01-04 11:54:30.50	312.64	71.89	-38.6	-42.4	3.5	8441677	95	3833
2025-01-04 11:54:30.70	312.79	71.81	-38.5	-41.8	3.3	8441677	95	3561
2025-01-04 11:54:30.90	312.95	71.72	-38.5	-41.6	3.3	8401748	95	3524
2025-01-04 11:54:31.10	313.10	71.64	-38.5	-43.1	3.6	8412712	95	4161
2025-01-04 11:54:31.30	313.25	71.56	-38.5	-42.6	3.5	8412712	95	3910
2025-01-04 11:54:31.50	313.40	71.48	-38.5	-41.8	3.4	8430049	95	3572
2025-01-04 11:54:31.71	313.56	71.39	-38.5	-41.6	3.3	8400787	95	3511
2025-01-04 11:54:31.91	313.71	71.31	-38.5	-43.1	3.6	8400787	95	4147
2025-01-04 11:54:32.11	313.85	71.22	-38.4	-42.7	3.6	8427349	95	4025
2025-01-04 11:54:32.31	314.00	71.14	-38.4	-41.7	3.4	8382522	95	3596
2025-01-04 11:54:32.51	314.14	71.06	-38.4	-41.4	3.3	8382522	95	3451
2025-01-04 11:54:32.71	314.28	70.97	-38.6	-43.1	3.6	8392467	95	4156
2025-01-04 11:54:32.91	314.42	70.89	-38.5	-43.1	3.6	8375255	95	4163
2025-01-04 11:54:33.11	314.56	70.81	-38.6	-42.3	3.4	8375255	95	3771
2025-01-04 11:54:33.31	314.70	70.73	-38.5	-41.6	3.3	8446701	95	3519
2025-01-04 11:54:33.52	314.84	70.64	-38.5	-41.7	3.3	8387855	95	3534
2025-01-04 11:54:33.72	314.98	70.56	-38.5	-43.1	3.6	8425014	95	4142
2025-01-04 11:54:33.92	315.11	70.47	-38.5	-42.3	3.5	8425014	95	3810

#Closed at: 2025-01-04 11:54:34