passes_logs/2025/01/04/XPeterburg/XPeterburg__20250104_002508_SUOMI_NPP_rec.log

#Pass ID: 20250104_002508_SUOMI NPP
#Satellite: SUOMI NPP
#Configuration: NPP
#Start time: 2025-01-04 00:25:03

#Version: 1.5.20200625
#Station: XPeterburg
#Location: 30.318091 lon 59.932769 lat
#TLE: 1 37849U 11061A   24362.17075939  .00000286  00000+0  15639-3 0  9990
#TLE: 2 37849  98.7425 297.4002 0002189  69.4164 290.7247 14.19524990682249

#Time	Az	El	Level	Level2	SNR	BER	Gain	Gain2
2025-01-04 00:25:03.07	17.69	67.58	-38.8	-44.5	3.3	15356002	96	2364
2025-01-04 00:25:03.27	17.69	67.67	-37.1	-66.7	3.6	0	46	37129
2025-01-04 00:25:03.47	17.68	67.76	-38.0	-54.5	3.7	15203742	73	8219
2025-01-04 00:25:03.67	17.67	67.85	-38.4	-44.4	3.6	15203742	93	2478
2025-01-04 00:25:03.87	17.66	67.94	-38.3	-43.6	3.7	14914978	93	2265
2025-01-04 00:25:04.07	17.66	68.03	-38.2	-44.4	3.7	14914978	93	2520
2025-01-04 00:25:04.27	17.65	68.12	-38.1	-43.9	3.8	14914978	93	2406
2025-01-04 00:25:04.47	17.64	68.21	-38.0	-43.1	4.0	14579429	93	2197
2025-01-04 00:25:04.67	17.63	68.30	-37.9	-42.3	4.1	14579429	93	2039
2025-01-04 00:25:04.88	17.62	68.40	-37.9	-42.0	4.1	13145545	93	1956
2025-01-04 00:25:05.08	17.62	68.49	-37.8	-41.4	4.3	13145545	93	1864
2025-01-04 00:25:05.28	17.61	68.58	-37.8	-41.5	4.2	10546882	93	1873
2025-01-04 00:25:05.48	17.60	68.67	-37.7	-41.0	4.4	10546882	93	1793
2025-01-04 00:25:05.68	17.59	68.77	-37.6	-40.8	4.5	8857711	93	1778
2025-01-04 00:25:05.88	17.58	68.86	-37.6	-40.6	4.6	8857711	93	1745
2025-01-04 00:25:06.08	17.58	68.95	-37.6	-40.6	4.6	7657028	93	1739
2025-01-04 00:25:06.28	17.57	69.04	-37.6	-40.5	4.6	7657028	93	1722
2025-01-04 00:25:06.48	17.56	69.13	-37.6	-40.8	4.5	7657028	93	1772
2025-01-04 00:25:06.69	17.55	69.23	-37.6	-40.8	4.5	7348846	93	1770
2025-01-04 00:25:06.89	17.54	69.32	-37.7	-40.9	4.5	7348846	93	1793
2025-01-04 00:25:07.09	17.53	69.41	-37.7	-41.0	4.4	7859390	93	1805
2025-01-04 00:25:07.29	17.52	69.51	-37.7	-41.1	4.4	7859390	93	1814
2025-01-04 00:25:07.49	17.51	69.60	-37.8	-41.3	4.3	8445739	93	1852
2025-01-04 00:25:07.69	17.51	69.69	-37.7	-41.2	4.4	8445739	93	1836
2025-01-04 00:25:07.89	17.50	69.78	-37.9	-41.7	4.1	9090042	93	1914
2025-01-04 00:25:08.09	17.49	69.88	-37.8	-41.4	4.2	9090042	93	1859
2025-01-04 00:25:08.29	17.48	69.97	-37.8	-41.3	4.4	9588401	93	1851
2025-01-04 00:25:08.49	17.47	70.06	-37.7	-41.1	4.4	9588401	93	1815
2025-01-04 00:25:08.70	17.46	70.16	-37.7	-40.9	4.4	8687095	93	1782
2025-01-04 00:25:08.90	17.45	70.25	-37.7	-40.9	4.5	8687095	93	1791
2025-01-04 00:25:09.10	17.44	70.35	-37.6	-40.7	4.5	8687095	93	1756
2025-01-04 00:25:09.30	17.43	70.44	-37.6	-40.5	4.6	8021614	93	1724
2025-01-04 00:25:09.50	17.42	70.53	-37.6	-40.5	4.7	8021614	93	1721
2025-01-04 00:25:09.70	17.41	70.63	-37.6	-40.6	4.6	7313774	93	1740
2025-01-04 00:25:09.90	17.40	70.72	-37.6	-40.8	4.5	7313774	93	1781
2025-01-04 00:25:10.10	17.39	70.81	-37.7	-41.0	4.5	7635566	93	1810
2025-01-04 00:25:10.30	17.38	70.91	-37.8	-41.5	4.3	7635566	93	1873
2025-01-04 00:25:10.50	17.37	71.00	-38.0	-42.1	4.0	8866203	93	1980
2025-01-04 00:25:10.70	17.36	71.09	-38.0	-42.4	3.9	8866203	93	2030
2025-01-04 00:25:10.91	17.35	71.19	-38.2	-44.8	3.7	13448463	93	2631
2025-01-04 00:25:11.11	17.34	71.29	-38.3	-45.0	3.8	13448463	93	2660
2025-01-04 00:25:11.31	17.32	71.38	-38.4	-45.0	3.6	13448463	93	2620
2025-01-04 00:25:11.51	17.31	71.48	-38.5	-44.7	3.5	14908164	93	2523
2025-01-04 00:25:11.71	17.30	71.57	-38.5	-45.9	3.6	14908164	94	2892
2025-01-04 00:25:11.91	17.29	71.66	-38.8	-47.0	2.8	15159469	94	3141
2025-01-04 00:25:12.11	17.28	71.76	-38.9	-46.6	3.5	15159469	94	3011
2025-01-04 00:25:12.31	17.27	71.85	-38.9	-46.5	3.4	15080451	94	2933
2025-01-04 00:25:12.51	17.26	71.95	-38.9	-46.3	3.3	15080451	94	2887
2025-01-04 00:25:12.72	17.24	72.05	-38.9	-47.3	3.6	15240516	95	3226
2025-01-04 00:25:12.92	17.23	72.14	-39.0	-47.0	3.5	15240516	95	3107
2025-01-04 00:25:13.12	17.22	72.24	-39.0	-46.6	3.4	15105377	95	2964
2025-01-04 00:25:13.32	17.21	72.33	-39.0	-46.4	3.3	15105377	95	2885
2025-01-04 00:25:13.52	17.19	72.43	-39.0	-47.7	3.6	15274131	95	3331
2025-01-04 00:25:13.72	17.18	72.52	-39.0	-47.6	3.6	15274131	95	3324
2025-01-04 00:25:13.92	17.17	72.62	-39.0	-46.9	3.5	15108825	95	3047
2025-01-04 00:25:14.12	17.16	72.71	-39.0	-46.5	3.4	15108825	95	2917
2025-01-04 00:25:14.32	17.14	72.81	-39.0	-47.5	3.3	15108825	95	3267
2025-01-04 00:25:14.52	17.13	72.90	-39.0	-47.4	3.6	15259887	95	3245
2025-01-04 00:25:14.73	17.11	73.00	-39.0	-46.7	3.5	15259887	95	2992
2025-01-04 00:25:14.93	17.10	73.10	-38.9	-46.0	3.4	15125740	95	2781
2025-01-04 00:25:15.13	17.09	73.20	-38.9	-45.7	3.3	15125740	95	2684
2025-01-04 00:25:15.33	17.07	73.29	-38.9	-47.1	3.6	15247673	95	3180
2025-01-04 00:25:15.53	17.06	73.39	-39.1	-46.6	3.5	15247673	96	2931
2025-01-04 00:25:15.73	17.04	73.48	-39.1	-46.2	3.4	15095977	96	2797
2025-01-04 00:25:15.93	17.03	73.58	-39.1	-45.9	3.4	15095977	96	2700
2025-01-04 00:25:16.13	17.02	73.67	-38.9	-46.9	3.6	15234481	96	3089
2025-01-04 00:25:16.33	17.00	73.77	-39.7	-47.7	3.3	15234481	97	3109
2025-01-04 00:25:16.53	16.99	73.87	-39.1	-46.8	3.5	15234481	96	2982
2025-01-04 00:25:16.73	16.97	73.96	-39.1	-46.3	3.4	15068687	96	2812
2025-01-04 00:25:16.94	16.95	74.06	-39.1	-45.9	3.3	15068687	96	2704
2025-01-04 00:25:17.14	16.94	74.16	-38.9	-46.8	3.6	15246429	96	3047
2025-01-04 00:25:17.34	16.92	74.26	-38.9	-46.2	3.5	15246429	96	2857
2025-01-04 00:25:17.54	16.91	74.35	-38.8	-45.4	3.4	15092788	96	2612
2025-01-04 00:25:17.74	16.89	74.45	-38.8	-44.8	3.4	15092788	96	2452
2025-01-04 00:25:17.94	16.87	74.55	-38.8	-46.0	3.6	15278259	96	2833
2025-01-04 00:25:18.14	16.86	74.64	-39.0	-46.4	3.1	15278259	96	2886
2025-01-04 00:25:18.34	16.84	74.74	-39.0	-45.8	3.5	15043365	96	2709
2025-01-04 00:25:18.54	16.82	74.84	-39.0	-45.5	3.4	15043365	96	2596
2025-01-04 00:25:18.74	16.80	74.94	-39.0	-45.5	3.3	15288726	96	2584
2025-01-04 00:25:18.94	16.79	75.03	-38.9	-46.7	3.6	15288726	96	3028
2025-01-04 00:25:19.14	16.77	75.13	-38.9	-46.6	3.6	15288726	96	2969
2025-01-04 00:25:19.35	16.75	75.23	-39.0	-46.2	3.4	15070617	96	2831
2025-01-04 00:25:19.55	16.73	75.33	-39.0	-45.8	3.3	15070617	96	2697
2025-01-04 00:25:19.75	16.71	75.43	-39.0	-47.1	3.6	15277915	96	3146
2025-01-04 00:25:19.95	16.69	75.52	-38.9	-47.0	3.6	15277915	96	3106
2025-01-04 00:25:20.15	16.67	75.62	-38.9	-46.1	3.5	15110923	96	2815
2025-01-04 00:25:20.35	16.65	75.72	-38.9	-45.6	3.4	15110923	96	2660
2025-01-04 00:25:20.55	16.63	75.82	-38.9	-46.6	3.5	15270217	96	2998
2025-01-04 00:25:20.75	16.61	75.91	-38.9	-46.5	3.6	15270217	96	2973
2025-01-04 00:25:20.95	16.59	76.01	-38.9	-45.8	3.5	15108253	96	2740
2025-01-04 00:25:21.15	16.57	76.11	-38.8	-45.4	3.4	15108253	96	2605
2025-01-04 00:25:21.36	16.55	76.21	-38.9	-45.2	3.3	15108253	96	2546
2025-01-04 00:25:21.56	16.53	76.31	-38.9	-46.6	3.6	15277694	96	2987
2025-01-04 00:25:21.76	16.51	76.41	-38.9	-46.2	3.5	15277694	96	2860
2025-01-04 00:25:21.96	16.48	76.51	-38.9	-45.8	3.4	15102600	96	2725
2025-01-04 00:25:22.16	16.46	76.61	-38.9	-45.5	3.3	15102600	96	2625
2025-01-04 00:25:22.36	16.44	76.70	-38.9	-47.0	3.6	15269653	96	3108
2025-01-04 00:25:22.56	16.41	76.80	-39.1	-47.0	3.6	15269653	96	3051
2025-01-04 00:25:22.76	16.39	76.90	-39.1	-46.5	3.4	15065635	96	2876
2025-01-04 00:25:22.96	16.37	77.00	-39.1	-46.1	3.4	15065635	96	2746
2025-01-04 00:25:23.16	16.34	77.10	-38.9	-46.9	3.6	15294151	96	3088
2025-01-04 00:25:23.36	16.32	77.20	-38.9	-46.9	3.6	15294151	96	3076
2025-01-04 00:25:23.57	16.29	77.30	-39.0	-46.2	3.5	15054069	96	2847
2025-01-04 00:25:23.77	16.27	77.40	-38.9	-45.7	3.4	15054069	96	2688
2025-01-04 00:25:23.97	16.24	77.50	-38.9	-45.5	3.3	15272743	96	2610
2025-01-04 00:25:24.17	16.21	77.60	-39.0	-46.9	3.6	15272743	96	3069
2025-01-04 00:25:24.37	16.19	77.70	-38.9	-46.5	3.5	15272743	96	2939
2025-01-04 00:25:24.57	16.16	77.79	-39.0	-46.0	3.4	15119651	96	2778
2025-01-04 00:25:24.77	16.13	77.89	-39.0	-45.7	3.3	15119651	96	2683
2025-01-04 00:25:24.97	16.10	77.99	-39.0	-47.1	3.6	15280769	96	3158
2025-01-04 00:25:25.17	16.07	78.09	-39.0	-46.9	3.6	15280769	96	3048
2025-01-04 00:25:25.37	16.04	78.19	-39.0	-46.3	3.4	15089225	96	2855
2025-01-04 00:25:25.58	16.01	78.30	-38.9	-45.9	3.4	15089225	96	2726
2025-01-04 00:25:25.78	15.98	78.39	-39.0	-47.1	3.6	15274520	96	3156
2025-01-04 00:25:25.98	15.95	78.49	-39.1	-47.4	2.9	15274520	96	3211
2025-01-04 00:25:26.18	15.92	78.59	-39.1	-46.8	3.5	15070861	96	2972
2025-01-04 00:25:26.38	15.89	78.69	-39.1	-46.4	3.4	15070861	96	2845
2025-01-04 00:25:26.58	15.85	78.79	-39.1	-46.0	3.3	15070861	96	2732
2025-01-04 00:25:26.78	15.82	78.89	-38.9	-47.0	3.6	15288589	96	3123
2025-01-04 00:25:26.98	15.79	78.99	-38.9	-46.7	3.5	15288589	96	3006
2025-01-04 00:25:27.18	15.75	79.09	-38.9	-46.1	3.4	15068237	96	2802
2025-01-04 00:25:27.38	15.72	79.19	-38.9	-45.8	3.3	15068237	96	2702
2025-01-04 00:25:27.58	15.68	79.29	-38.9	-47.1	3.6	15279525	96	3135
2025-01-04 00:25:27.78	15.64	79.39	-38.9	-47.0	3.6	15279525	96	3127
2025-01-04 00:25:27.98	15.61	79.49	-38.9	-46.3	3.5	15100814	96	2864
2025-01-04 00:25:28.19	15.57	79.60	-38.9	-45.9	3.4	15100814	96	2753
2025-01-04 00:25:28.39	15.53	79.70	-39.0	-47.1	3.4	15269226	96	3128
2025-01-04 00:25:28.59	15.49	79.80	-38.9	-47.0	3.6	15269226	96	3119
2025-01-04 00:25:28.79	15.45	79.90	-39.1	-46.9	3.5	15070533	96	3027
2025-01-04 00:25:28.99	15.40	80.00	-39.1	-46.4	3.4	15070533	96	2839
2025-01-04 00:25:29.19	15.36	80.10	-39.1	-46.1	3.3	15070533	96	2746
2025-01-04 00:25:29.39	15.32	80.20	-38.9	-47.1	3.6	15278587	96	3142
2025-01-04 00:25:29.59	15.27	80.30	-39.2	-47.5	3.6	15278587	96	3204
2025-01-04 00:25:29.79	15.23	80.40	-39.2	-46.8	3.5	15031433	96	2969
2025-01-04 00:25:29.99	15.18	80.50	-39.1	-46.3	3.4	15031433	96	2808
2025-01-04 00:25:30.19	15.14	80.60	-38.9	-47.1	2.9	15257812	96	3158
2025-01-04 00:25:30.39	15.09	80.70	-38.9	-47.1	3.6	15257812	96	3154
2025-01-04 00:25:30.59	15.04	80.80	-39.2	-47.0	3.5	15043426	96	3033
2025-01-04 00:25:30.80	14.99	80.90	-39.1	-46.6	3.4	15043426	96	2901
2025-01-04 00:25:31.00	14.93	81.00	-39.1	-46.2	3.3	15254402	96	2775
2025-01-04 00:25:31.20	14.88	81.11	-38.9	-47.1	3.6	15254402	96	3153
2025-01-04 00:25:31.40	14.83	81.21	-38.9	-46.8	3.6	15254402	96	3060
2025-01-04 00:25:31.60	14.77	81.31	-38.9	-46.3	3.4	15094497	96	2861
2025-01-04 00:25:31.80	14.72	81.41	-38.9	-45.9	3.4	15094497	96	2740
2025-01-04 00:25:32.00	14.66	81.51	-38.9	-47.0	3.3	15255416	96	3129
2025-01-04 00:25:32.20	14.60	81.61	-38.9	-47.1	3.6	15255416	96	3136
2025-01-04 00:25:32.40	14.54	81.71	-38.9	-46.5	3.5	15151382	96	2925
2025-01-04 00:25:32.61	14.47	81.82	-38.9	-45.9	3.4	15151382	96	2752
2025-01-04 00:25:32.81	14.41	81.92	-38.9	-45.6	3.3	15250038	96	2665
2025-01-04 00:25:33.01	14.34	82.02	-38.9	-47.1	3.6	15250038	96	3141
2025-01-04 00:25:33.21	14.27	82.12	-38.9	-46.5	3.5	15131530	96	2959
2025-01-04 00:25:33.41	14.20	82.22	-38.9	-46.0	3.4	15131530	96	2770
2025-01-04 00:25:33.61	14.13	82.32	-38.9	-45.6	3.3	15260620	96	2655
2025-01-04 00:25:33.81	14.06	82.42	-38.9	-47.0	3.6	15260620	96	3111
2025-01-04 00:25:34.01	13.98	82.52	-38.9	-46.6	3.5	15118690	96	2970
2025-01-04 00:25:34.21	13.91	82.62	-38.9	-46.1	3.4	15118690	96	2809
2025-01-04 00:25:34.41	13.83	82.72	-38.9	-45.7	3.4	15118690	96	2681
2025-01-04 00:25:34.61	13.75	82.83	-38.9	-47.0	3.6	15267486	96	3117
2025-01-04 00:25:34.81	13.66	82.93	-38.9	-46.7	3.6	15267486	96	3015
2025-01-04 00:25:35.01	13.57	83.03	-38.9	-46.1	3.4	15101417	96	2825
2025-01-04 00:25:35.22	13.48	83.13	-38.9	-45.8	3.3	15101417	96	2712
2025-01-04 00:25:35.42	13.39	83.24	-38.9	-47.0	3.6	15277481	96	3136
2025-01-04 00:25:35.62	13.29	83.34	-38.9	-47.0	3.6	15277481	96	3101
2025-01-04 00:25:35.82	13.20	83.44	-38.9	-46.3	3.4	15110183	96	2888
2025-01-04 00:25:36.02	13.10	83.54	-38.9	-45.9	3.4	15110183	96	2750
2025-01-04 00:25:36.22	12.99	83.64	-38.9	-47.0	3.3	15276664	96	3129
2025-01-04 00:25:36.42	12.88	83.74	-38.9	-47.0	3.6	15276664	96	3116
2025-01-04 00:25:36.62	12.77	83.84	-38.9	-46.4	3.5	15276664	96	2920
2025-01-04 00:25:36.82	12.66	83.94	-38.9	-46.0	3.4	15102920	96	2768
2025-01-04 00:25:37.03	12.53	84.05	-38.9	-45.6	3.3	15102920	96	2658
2025-01-04 00:25:37.23	12.41	84.15	-38.9	-47.1	3.6	15272811	96	3151
2025-01-04 00:25:37.43	12.28	84.25	-39.1	-47.1	3.5	15272811	96	3088
2025-01-04 00:25:37.63	12.15	84.36	-39.1	-46.5	3.4	15073364	96	2885
2025-01-04 00:25:37.83	12.01	84.46	-39.1	-46.2	3.3	15073364	96	2779
2025-01-04 00:25:38.03	11.87	84.56	-38.9	-47.0	3.6	15289146	96	3121
2025-01-04 00:25:38.23	11.72	84.66	-74.5	-89.2	3.6	15289146	96	6693
2025-01-04 00:25:38.43	11.57	84.76	-39.1	-46.9	3.5	15029174	96	3000
2025-01-04 00:25:38.63	11.41	84.86	-39.1	-46.4	3.4	15029174	96	2836
2025-01-04 00:25:38.83	11.24	84.96	-39.1	-46.0	3.3	15279129	96	2722
2025-01-04 00:25:39.03	11.07	85.06	-38.9	-47.0	3.6	15279129	96	3128
2025-01-04 00:25:39.23	10.89	85.17	-39.1	-47.1	3.6	15279129	96	3088
2025-01-04 00:25:39.43	10.70	85.27	-39.1	-46.5	3.4	15031944	96	2882
2025-01-04 00:25:39.64	10.49	85.37	-39.1	-46.3	3.4	15031944	96	2799
2025-01-04 00:25:39.84	10.28	85.47	-38.9	-47.0	3.6	15260963	96	3140
2025-01-04 00:25:40.04	10.07	85.58	-38.9	-47.1	3.6	15260963	96	3139
2025-01-04 00:25:40.24	9.84	85.68	-38.9	-46.3	3.5	15073532	96	2889
2025-01-04 00:25:40.44	9.61	85.78	-38.9	-45.9	3.4	15073532	96	2741
2025-01-04 00:25:40.64	9.36	85.88	-38.9	-45.6	3.3	15255233	96	2658
2025-01-04 00:25:40.84	9.10	85.98	-38.9	-47.0	3.6	15255233	96	3142
2025-01-04 00:25:41.04	8.82	86.08	-39.1	-47.1	3.5	15097412	96	3092
2025-01-04 00:25:41.24	8.53	86.18	-39.1	-46.5	3.4	15097412	96	2882
2025-01-04 00:25:41.44	8.23	86.28	-39.1	-46.1	3.3	15097412	96	2768
2025-01-04 00:25:41.64	7.91	86.38	-38.9	-46.9	3.6	15246025	96	3095
2025-01-04 00:25:41.85	7.55	86.49	-39.2	-48.5	3.4	15246025	97	3602
2025-01-04 00:25:42.05	7.19	86.59	-39.1	-46.7	3.5	15065483	96	2978
2025-01-04 00:25:42.25	6.81	86.69	-39.0	-46.3	3.4	15065483	96	2821
2025-01-04 00:25:42.45	6.40	86.79	-39.1	-46.0	3.3	15223533	96	2718
2025-01-04 00:25:42.65	5.97	86.89	-38.9	-47.0	3.6	15223533	96	3118
2025-01-04 00:25:42.85	5.50	86.99	-38.9	-46.7	3.6	15100601	96	3021
2025-01-04 00:25:43.05	5.01	87.09	-38.9	-46.1	3.4	15100601	96	2828
2025-01-04 00:25:43.25	4.48	87.19	-38.9	-45.7	3.4	15222511	96	2694
2025-01-04 00:25:43.45	3.91	87.29	-38.9	-47.0	3.6	15222511	96	3133
2025-01-04 00:25:43.65	3.30	87.39	-39.1	-47.4	2.9	15127174	96	3215
2025-01-04 00:25:43.85	2.64	87.48	-39.1	-46.7	3.5	15127174	96	2951
2025-01-04 00:25:44.05	1.93	87.58	-39.0	-46.2	3.4	15127174	96	2796
2025-01-04 00:25:44.26	1.11	87.69	-39.0	-45.9	3.3	15214286	96	2715
2025-01-04 00:25:44.46	0.27	87.78	-38.9	-47.0	3.6	15214286	96	3133
2025-01-04 00:25:44.66	359.35	87.88	-38.9	-46.6	3.6	15150848	96	2993
2025-01-04 00:25:44.86	358.33	87.98	-38.9	-46.0	3.4	15150848	96	2803
2025-01-04 00:25:45.06	357.22	88.07	-38.9	-45.7	3.3	15195205	96	2682
2025-01-04 00:25:45.26	356.00	88.17	-38.9	-47.1	3.6	15195205	96	3153
2025-01-04 00:25:45.46	354.64	88.26	-38.9	-46.8	3.6	15199531	96	3031
2025-01-04 00:25:45.66	353.12	88.35	-38.9	-46.2	3.4	15199531	96	2849
2025-01-04 00:25:45.86	351.43	88.44	-38.9	-45.8	3.3	15196647	96	2719
2025-01-04 00:25:46.07	349.42	88.54	-38.9	-47.0	3.6	15196647	96	3135
2025-01-04 00:25:46.27	347.26	88.63	-38.9	-46.9	3.6	15171859	96	3084
2025-01-04 00:25:46.47	344.80	88.71	-38.9	-46.3	3.5	15171859	96	2882
2025-01-04 00:25:46.67	342.00	88.80	-38.9	-45.8	3.3	15171859	96	2732
2025-01-04 00:25:46.87	338.79	88.88	-38.9	-47.0	3.2	15206886	96	3126
2025-01-04 00:25:47.07	335.10	88.95	-38.9	-47.1	3.6	15206886	96	3142
2025-01-04 00:25:47.27	330.87	89.02	-38.9	-46.3	3.5	15160652	96	2892
2025-01-04 00:25:47.47	326.00	89.09	-38.9	-46.0	3.4	15160652	96	2770
2025-01-04 00:25:47.67	320.44	89.14	-38.9	-45.6	3.3	15218742	96	2663
2025-01-04 00:25:47.87	314.15	89.19	-38.9	-47.0	3.6	15218742	96	3106
2025-01-04 00:25:48.07	307.17	89.23	-38.9	-46.5	3.5	15154060	96	2947
2025-01-04 00:25:48.27	299.61	89.25	-38.9	-46.1	3.4	15154060	96	2810
2025-01-04 00:25:48.48	291.28	89.26	-38.9	-45.7	3.3	15225646	96	2690
2025-01-04 00:25:48.68	283.28	89.26	-38.9	-47.0	3.6	15225646	96	3134
2025-01-04 00:25:48.88	275.52	89.24	-38.9	-46.7	3.6	15129478	96	3031
2025-01-04 00:25:49.08	268.26	89.21	-38.9	-46.1	3.4	15129478	96	2828
2025-01-04 00:25:49.28	261.65	89.17	-38.9	-45.8	3.4	15129478	96	2708
2025-01-04 00:25:49.48	255.76	89.11	-38.9	-47.0	3.6	15253845	96	3112
2025-01-04 00:25:49.68	250.58	89.05	-39.1	-47.5	2.9	15253845	96	3244
2025-01-04 00:25:49.88	246.06	88.98	-39.1	-46.8	3.4	15092803	96	2996
2025-01-04 00:25:50.08	242.14	88.91	-39.1	-46.4	3.4	15092803	96	2844
2025-01-04 00:25:50.28	238.72	88.83	-39.1	-46.1	3.3	15247253	96	2749
2025-01-04 00:25:50.48	235.74	88.75	-38.9	-47.0	3.6	15247253	96	3136
2025-01-04 00:25:50.69	233.01	88.66	-38.9	-46.6	3.5	15108352	96	2984
2025-01-04 00:25:50.89	230.74	88.57	-38.9	-46.1	3.4	15108352	96	2806
2025-01-04 00:25:51.09	228.72	88.49	-38.9	-45.7	3.3	15232536	96	2691
2025-01-04 00:25:51.29	226.94	88.39	-38.9	-46.9	3.6	15232536	96	3104
2025-01-04 00:25:51.49	225.34	88.30	-38.9	-46.7	3.6	15232536	96	3014
2025-01-04 00:25:51.69	223.92	88.21	-38.9	-46.1	3.4	15137840	96	2820
2025-01-04 00:25:51.89	222.63	88.11	-38.9	-45.7	3.3	15137840	96	2697
2025-01-04 00:25:52.09	221.47	88.02	-38.9	-47.0	3.6	15254096	96	3118
2025-01-04 00:25:52.29	220.41	87.92	-38.9	-46.8	3.6	15254096	96	3077
2025-01-04 00:25:52.49	219.45	87.83	-38.9	-46.3	3.5	15127166	96	2868
2025-01-04 00:25:52.69	218.57	87.73	-38.9	-45.8	3.4	15127166	96	2724
2025-01-04 00:25:52.90	217.73	87.63	-38.9	-47.0	3.4	15266670	96	3129
2025-01-04 00:25:53.10	216.99	87.53	-38.9	-47.0	3.6	15266670	96	3135
2025-01-04 00:25:53.30	216.30	87.43	-38.9	-46.4	3.5	15118049	96	2908
2025-01-04 00:25:53.50	215.67	87.33	-38.9	-46.0	3.4	15118049	96	2786
2025-01-04 00:25:53.70	215.09	87.23	-38.9	-45.6	3.3	15267898	96	2664
2025-01-04 00:25:53.90	214.54	87.13	-38.9	-47.0	3.6	15267898	96	3123
2025-01-04 00:25:54.10	214.03	87.03	-39.1	-47.0	3.5	15267898	96	3063
2025-01-04 00:25:54.30	213.55	86.93	-39.1	-46.5	3.4	15069778	96	2894
2025-01-04 00:25:54.50	213.11	86.83	-39.1	-46.2	3.4	15069778	96	2775
2025-01-04 00:25:54.70	212.69	86.73	-38.9	-47.0	3.6	15276916	96	3133
2025-01-04 00:25:54.90	212.29	86.63	-39.6	-48.1	3.4	15276916	97	3243
2025-01-04 00:25:55.10	211.92	86.53	-39.1	-46.8	3.5	15041091	96	2990
2025-01-04 00:25:55.30	211.57	86.43	-39.1	-46.4	3.4	15041091	96	2848
2025-01-04 00:25:55.51	211.23	86.33	-39.1	-46.1	3.3	15242530	96	2744
2025-01-04 00:25:55.71	210.91	86.23	-38.9	-47.0	3.6	15242530	96	3125
2025-01-04 00:25:55.91	210.62	86.13	-38.9	-46.6	3.6	15080978	96	2999
2025-01-04 00:25:56.11	210.34	86.02	-38.9	-45.9	3.4	15080978	96	2769
2025-01-04 00:25:56.31	210.07	85.92	-38.9	-45.6	3.3	15264015	96	2664
2025-01-04 00:25:56.51	209.82	85.82	-38.9	-47.0	3.6	15264015	96	3122
2025-01-04 00:25:56.71	209.57	85.72	-38.9	-46.6	3.6	15264015	96	3013
2025-01-04 00:25:56.91	209.34	85.62	-38.9	-46.1	3.4	15135650	96	2809
2025-01-04 00:25:57.11	209.12	85.52	-38.9	-45.7	3.4	15135650	96	2691
2025-01-04 00:25:57.32	208.90	85.41	-38.9	-46.9	3.6	15242782	96	3115
2025-01-04 00:25:57.52	208.70	85.31	-38.9	-46.8	3.6	15242782	96	3070
2025-01-04 00:25:57.72	208.51	85.21	-38.9	-46.1	3.4	15126289	96	2833
2025-01-04 00:25:57.92	208.33	85.11	-38.9	-45.7	3.4	15126289	96	2692
2025-01-04 00:25:58.12	208.15	85.01	-38.9	-46.9	3.3	15261070	96	3109
2025-01-04 00:25:58.32	207.98	84.91	-38.9	-46.9	3.6	15261070	96	3099
2025-01-04 00:25:58.52	207.82	84.81	-38.9	-46.4	3.5	15117958	96	2907
2025-01-04 00:25:58.72	207.66	84.70	-38.9	-45.9	3.4	15117958	96	2745
2025-01-04 00:25:58.92	207.51	84.60	-38.9	-45.6	3.3	15263679	96	2663
2025-01-04 00:25:59.12	207.36	84.50	-38.9	-46.9	3.6	15263679	96	3110
2025-01-04 00:25:59.32	207.23	84.40	-39.1	-47.0	3.5	15263679	96	3071
2025-01-04 00:25:59.53	207.08	84.29	-39.1	-46.4	3.4	15054298	96	2876
2025-01-04 00:25:59.73	206.95	84.19	-39.1	-46.0	3.4	15054298	96	2725
2025-01-04 00:25:59.93	206.83	84.09	-38.9	-46.9	3.6	15267272	96	3104
2025-01-04 00:26:00.13	206.71	83.99	-38.9	-46.9	3.6	15267272	96	3115
2025-01-04 00:26:00.33	206.59	83.89	-38.9	-46.3	3.5	15078712	96	2879
2025-01-04 00:26:00.53	206.48	83.79	-38.9	-45.8	3.4	15078712	96	2729
2025-01-04 00:26:00.73	206.37	83.69	-38.9	-45.6	3.3	15253532	96	2653
2025-01-04 00:26:00.93	206.26	83.58	-38.9	-47.0	3.6	15253532	96	3116
2025-01-04 00:26:01.13	206.16	83.48	-39.0	-47.0	3.5	15084602	96	3060
2025-01-04 00:26:01.33	206.06	83.38	-39.1	-46.3	3.4	15084602	96	2840
2025-01-04 00:26:01.53	205.96	83.28	-39.0	-46.0	3.3	15084602	96	2748
2025-01-04 00:26:01.74	205.87	83.17	-38.9	-47.0	3.6	15242942	96	3112
2025-01-04 00:26:01.94	205.78	83.07	-38.9	-47.0	3.6	15242942	96	3120
2025-01-04 00:26:02.14	205.69	82.97	-38.9	-46.3	3.4	15112243	96	2886
2025-01-04 00:26:02.34	205.60	82.87	-38.9	-45.8	3.4	15112243	96	2722
2025-01-04 00:26:02.54	205.52	82.77	-38.9	-45.5	3.3	15243469	96	2641
2025-01-04 00:26:02.74	205.44	82.67	-38.9	-46.9	3.6	15243469	96	3109
2025-01-04 00:26:02.94	205.36	82.57	-39.1	-47.0	3.5	15120269	96	3062
2025-01-04 00:26:03.14	205.29	82.46	-39.1	-46.5	3.4	15120269	96	2879
2025-01-04 00:26:03.34	205.21	82.36	-39.1	-46.1	3.3	15210594	96	2761
2025-01-04 00:26:03.54	205.14	82.26	-38.9	-47.0	3.6	15210594	96	3123
2025-01-04 00:26:03.74	205.07	82.16	-39.2	-47.0	3.2	15107452	97	3031
2025-01-04 00:26:03.95	205.00	82.06	-39.1	-46.7	3.5	15107452	96	2964
2025-01-04 00:26:04.15	204.93	81.95	-39.1	-46.3	3.4	15107452	96	2830
2025-01-04 00:26:04.35	204.87	81.85	-39.1	-46.0	3.3	15202644	96	2711
2025-01-04 00:26:04.55	204.80	81.75	-38.9	-46.9	3.6	15202644	96	3095
2025-01-04 00:26:04.75	204.74	81.65	-38.9	-46.6	3.5	15140640	96	2993
2025-01-04 00:26:04.95	204.68	81.55	-38.9	-46.0	3.4	15140640	96	2793
2025-01-04 00:26:05.15	204.62	81.45	-38.9	-45.6	3.4	15196006	96	2675
2025-01-04 00:26:05.35	204.56	81.35	-38.9	-46.9	3.6	15196006	96	3108
2025-01-04 00:26:05.55	204.51	81.25	-38.9	-46.8	3.6	15194679	96	3059
2025-01-04 00:26:05.75	204.45	81.15	-38.9	-46.2	3.5	15194679	96	2848
2025-01-04 00:26:05.95	204.40	81.05	-38.9	-45.7	3.4	15188659	96	2704
2025-01-04 00:26:06.16	204.35	80.94	-38.9	-46.9	3.3	15188659	96	3103
2025-01-04 00:26:06.36	204.30	80.84	-38.9	-46.9	3.6	15188659	96	3113
2025-01-04 00:26:06.56	204.25	80.74	-38.9	-46.3	3.5	15182884	96	2893
2025-01-04 00:26:06.76	204.20	80.64	-38.9	-45.8	3.4	15182884	96	2719
2025-01-04 00:26:06.96	204.15	80.54	-38.9	-46.9	3.2	15213905	96	3102
2025-01-04 00:26:07.16	204.10	80.44	-38.9	-47.0	3.6	15213905	96	3115
2025-01-04 00:26:07.36	204.06	80.34	-38.9	-46.4	3.5	15158264	96	2911
2025-01-04 00:26:07.56	204.01	80.24	-38.9	-45.9	3.4	15158264	96	2755
2025-01-04 00:26:07.76	203.97	80.14	-38.9	-45.6	3.3	15221168	96	2654
2025-01-04 00:26:07.96	203.93	80.04	-38.9	-47.0	3.6	15221168	96	3110
2025-01-04 00:26:08.16	203.88	79.94	-38.9	-46.5	3.5	15151382	96	2950
2025-01-04 00:26:08.36	203.84	79.84	-38.9	-46.0	3.4	15151382	96	2788
2025-01-04 00:26:08.57	203.80	79.73	-38.9	-45.6	3.3	15218719	96	2667
2025-01-04 00:26:08.77	203.76	79.63	-38.9	-47.0	3.6	15218719	96	3127
2025-01-04 00:26:08.97	203.72	79.53	-38.9	-46.7	3.6	15138458	96	3032
2025-01-04 00:26:09.17	203.68	79.43	-38.9	-46.1	3.4	15138458	96	2825
2025-01-04 00:26:09.37	203.65	79.33	-38.9	-45.7	3.4	15138458	96	2690
2025-01-04 00:26:09.57	203.61	79.23	-38.9	-46.9	3.6	15246459	96	3114
2025-01-04 00:26:09.77	203.58	79.13	-38.9	-46.9	3.6	15246459	96	3081
2025-01-04 00:26:09.97	203.54	79.03	-38.9	-46.2	3.4	15129745	96	2864
2025-01-04 00:26:10.18	203.50	78.93	-38.9	-45.7	3.4	15129745	96	2709
2025-01-04 00:26:10.38	203.47	78.83	-38.9	-47.0	3.3	15253448	96	3130
2025-01-04 00:26:10.58	203.44	78.73	-38.9	-46.9	3.6	15253448	96	3092
2025-01-04 00:26:10.78	203.40	78.63	-38.9	-46.3	3.5	15120361	96	2894
2025-01-04 00:26:10.98	203.37	78.53	-38.9	-45.9	3.4	15120361	96	2758
2025-01-04 00:26:11.18	203.34	78.43	-38.9	-45.5	3.3	15259017	96	2646
2025-01-04 00:26:11.38	203.31	78.33	-38.9	-47.0	3.6	15259017	96	3122
2025-01-04 00:26:11.58	203.28	78.23	-38.9	-46.6	3.5	15259017	96	2966
2025-01-04 00:26:11.78	203.25	78.13	-38.9	-46.1	3.4	15120864	96	2809
2025-01-04 00:26:11.98	203.22	78.03	-38.9	-45.7	3.4	15120864	96	2703
2025-01-04 00:26:12.18	203.19	77.93	-38.9	-47.0	3.6	15273422	96	3126
2025-01-04 00:26:12.39	203.16	77.83	-38.9	-46.6	3.6	15273422	96	3011
2025-01-04 00:26:12.59	203.14	77.73	-38.9	-46.1	3.4	15096351	96	2825
2025-01-04 00:26:12.79	203.11	77.63	-38.9	-45.7	3.3	15096351	96	2699
2025-01-04 00:26:12.99	203.08	77.53	-38.9	-47.0	3.6	15284225	96	3137
2025-01-04 00:26:13.19	203.06	77.43	-39.0	-47.3	3.1	15284225	96	3201
2025-01-04 00:26:13.39	203.03	77.33	-39.0	-46.6	3.5	15066047	96	2937
2025-01-04 00:26:13.59	203.00	77.23	-39.0	-46.1	3.4	15066047	96	2788
2025-01-04 00:26:13.79	202.98	77.13	-39.0	-45.9	3.3	15276519	96	2701
2025-01-04 00:26:13.99	202.95	77.04	-38.9	-46.9	3.6	15276519	96	3109
2025-01-04 00:26:14.19	202.93	76.94	-38.9	-46.5	3.5	15276519	96	2974
2025-01-04 00:26:14.39	202.91	76.84	-38.9	-46.0	3.4	15064254	96	2795
2025-01-04 00:26:14.60	202.88	76.74	-38.9	-45.6	3.3	15064254	96	2675
2025-01-04 00:26:14.80	202.86	76.64	-38.9	-47.0	3.6	15270286	96	3115
2025-01-04 00:26:15.00	202.84	76.54	-38.9	-46.8	3.6	15270286	96	3076
2025-01-04 00:26:15.20	202.81	76.44	-38.9	-46.2	3.5	15116134	96	2872
2025-01-04 00:26:15.40	202.79	76.34	-38.9	-45.8	3.4	15116134	96	2738
2025-01-04 00:26:15.60	202.77	76.24	-38.9	-47.0	3.5	15276115	96	3123
2025-01-04 00:26:15.80	202.75	76.15	-38.9	-47.0	3.6	15276115	96	3130
2025-01-04 00:26:16.00	202.73	76.05	-38.9	-46.4	3.5	15101654	96	2929
2025-01-04 00:26:16.20	202.71	75.95	-38.9	-45.9	3.4	15101654	96	2759
2025-01-04 00:26:16.40	202.69	75.85	-38.9	-45.6	3.3	15101654	96	2663
2025-01-04 00:26:16.60	202.67	75.75	-38.9	-47.0	3.6	15269203	96	3130
2025-01-04 00:26:16.80	202.65	75.66	-38.9	-46.5	3.5	15269203	96	2973
2025-01-04 00:26:17.01	202.63	75.55	-38.9	-46.0	3.4	15097633	96	2792
2025-01-04 00:26:17.21	202.61	75.46	-38.9	-45.7	3.3	15097633	96	2691
2025-01-04 00:26:17.41	202.59	75.36	-38.9	-47.0	3.6	15285064	96	3123
2025-01-04 00:26:17.61	202.57	75.26	-38.9	-46.7	3.6	15285064	96	3019
2025-01-04 00:26:17.81	202.55	75.16	-38.9	-45.9	3.4	15108680	96	2766
2025-01-04 00:26:18.01	202.53	75.07	-38.9	-45.7	3.3	15108680	96	2687
2025-01-04 00:26:18.21	202.51	74.97	-38.9	-47.0	3.6	15261962	96	3132
2025-01-04 00:26:18.41	202.50	74.87	-38.9	-46.7	3.6	15261962	96	3042
2025-01-04 00:26:18.61	202.48	74.77	-38.9	-46.1	3.4	15104957	96	2816
2025-01-04 00:26:18.81	202.46	74.68	-38.9	-45.7	3.4	15104957	96	2694
2025-01-04 00:26:19.02	202.44	74.58	-38.9	-47.0	3.6	15257225	96	3128
2025-01-04 00:26:19.22	202.43	74.48	-38.9	-46.8	3.6	15257225	96	3079
2025-01-04 00:26:19.42	202.41	74.38	-38.9	-46.2	3.5	15257225	96	2869
2025-01-04 00:26:19.62	202.39	74.29	-38.9	-45.8	3.4	15120376	96	2724
2025-01-04 00:26:19.82	202.38	74.19	-38.9	-47.0	3.4	15120376	96	3126
2025-01-04 00:26:20.02	202.36	74.09	-38.9	-47.0	3.6	15248466	96	3144
2025-01-04 00:26:20.22	202.35	74.00	-38.9	-46.3	3.5	15248466	96	2884
2025-01-04 00:26:20.42	202.33	73.90	-38.9	-45.9	3.4	15132461	96	2751
2025-01-04 00:26:20.62	202.32	73.80	-38.9	-45.6	3.3	15132461	96	2656
2025-01-04 00:26:20.82	202.30	73.71	-38.9	-47.0	3.6	15236946	96	3133
2025-01-04 00:26:21.02	202.29	73.61	-38.9	-46.5	3.5	15236946	96	2967
2025-01-04 00:26:21.23	202.27	73.51	-38.9	-45.9	3.4	15150917	96	2771
2025-01-04 00:26:21.43	202.26	73.41	-38.9	-45.6	3.3	15150917	96	2682
2025-01-04 00:26:21.63	202.24	73.32	-38.9	-46.9	3.6	15150917	96	3098
2025-01-04 00:26:21.83	202.23	73.22	-39.1	-47.3	3.6	15227355	96	3156
2025-01-04 00:26:22.03	202.21	73.12	-39.1	-46.6	3.4	15227355	96	2939
2025-01-04 00:26:22.23	202.20	73.03	-39.1	-46.2	3.4	15105735	96	2811
2025-01-04 00:26:22.43	202.19	72.93	-38.9	-47.0	2.9	15105735	96	3137
2025-01-04 00:26:22.63	202.17	72.84	-38.9	-47.0	3.6	15210281	96	3122
2025-01-04 00:26:22.83	202.16	72.74	-39.1	-47.0	3.5	15210281	96	3044
2025-01-04 00:26:23.03	202.15	72.65	-39.1	-46.5	3.4	15087730	96	2884
2025-01-04 00:26:23.23	202.13	72.55	-39.1	-46.1	3.3	15087730	96	2747
2025-01-04 00:26:23.43	202.12	72.46	-38.9	-47.0	3.6	15211608	96	3118
2025-01-04 00:26:23.63	202.11	72.36	-39.1	-47.3	3.6	15211608	96	3162
2025-01-04 00:26:23.84	202.10	72.26	-39.1	-46.6	3.5	15086585	96	2931
2025-01-04 00:26:24.04	202.08	72.17	-39.1	-46.3	3.4	15086585	96	2810
2025-01-04 00:26:24.24	202.07	72.07	-38.9	-47.1	2.7	15086585	96	3145
2025-01-04 00:26:24.44	202.06	71.98	-38.9	-47.0	3.6	15233131	96	3124
2025-01-04 00:26:24.64	202.05	71.88	-39.1	-47.0	3.5	15233131	96	3064
2025-01-04 00:26:24.84	202.04	71.79	-39.1	-46.4	3.4	15067680	96	2859
2025-01-04 00:26:25.04	202.02	71.69	-39.1	-46.1	3.3	15067680	96	2749
2025-01-04 00:26:25.24	202.01	71.60	-38.9	-47.0	3.6	15233764	96	3148
2025-01-04 00:26:25.44	202.00	71.50	-38.9	-46.8	3.6	15233764	96	3061
2025-01-04 00:26:25.64	201.99	71.41	-38.9	-46.1	3.4	15098838	96	2830
2025-01-04 00:26:25.85	201.98	71.31	-38.9	-45.7	3.4	15098838	96	2699
2025-01-04 00:26:26.05	201.97	71.21	-38.9	-46.9	3.4	15292831	96	3116
2025-01-04 00:26:26.25	201.96	71.12	-38.9	-47.0	3.6	15292831	96	3146
2025-01-04 00:26:26.45	201.95	71.03	-38.9	-46.4	3.5	15292831	96	2924
2025-01-04 00:26:26.65	201.94	70.93	-38.9	-45.9	3.4	15095352	96	2759
2025-01-04 00:26:26.85	201.92	70.84	-38.9	-45.6	3.3	15095352	96	2660
2025-01-04 00:26:27.05	201.91	70.74	-38.9	-47.0	3.6	15264915	96	3134
2025-01-04 00:26:27.25	201.90	70.65	-38.9	-46.5	3.5	15264915	96	2969
2025-01-04 00:26:27.45	201.89	70.56	-38.9	-46.0	3.4	15100044	96	2803
2025-01-04 00:26:27.65	201.88	70.46	-38.9	-45.7	3.3	15100044	96	2692

#Closed at: 2025-01-04 00:26:27