passes_logs/2025/01/28/XPeterburg/XPeterburg__20250128_192309_FENGYUN_3F_rec.log

#Pass ID: 20250128_192309_FENGYUN 3F
#Satellite: FENGYUN 3F
#Configuration: FENGYUN 3F
#Start time: 2025-01-28 19:23:03

#Version: 1.5.20200625
#Station: XPeterburg
#Location: 30.318091 lon 59.932769 lat
#TLE: 1 57490U 23111A   25027.17562379  .00000210  00000+0  11964-3 0  9995
#TLE: 2 57490  98.7443  99.9713 0001569 127.1836 232.9484 14.19983016 77052

#Time	Az	El	Level	Level2	SNR	BER	Gain	Gain2
2025-01-28 19:23:03.27	199.56	67.91	-39.7	-42.4	3.3	8373779	96	6720
2025-01-28 19:23:03.47	199.72	67.98	-38.2	-60.7	2.4	6190361	47	65534
2025-01-28 19:23:03.67	199.87	68.06	-39.2	-53.2	3.5	8245330	74	24866
2025-01-28 19:23:03.88	200.03	68.13	-39.7	-42.5	3.3	8409633	96	6839
2025-01-28 19:23:04.08	200.19	68.21	-39.7	-42.4	3.3	8409633	96	6729
2025-01-28 19:23:04.28	200.35	68.28	-39.7	-43.8	3.6	8406669	96	7935
2025-01-28 19:23:04.48	200.51	68.35	-39.7	-43.7	3.6	8426490	96	7813
2025-01-28 19:23:04.68	200.67	68.42	-39.7	-42.6	3.4	8442020	96	6892
2025-01-28 19:23:04.88	200.83	68.50	-39.7	-42.4	3.3	8406555	96	6723
2025-01-28 19:23:05.08	200.99	68.57	-39.7	-43.8	3.6	8398750	96	7959
2025-01-28 19:23:05.28	201.16	68.64	-39.7	-43.8	3.6	8432693	96	7938
2025-01-28 19:23:05.48	201.32	68.71	-39.7	-42.8	3.4	8430736	96	7067
2025-01-28 19:23:05.68	201.49	68.79	-39.7	-42.4	3.3	8430736	96	6735
2025-01-28 19:23:05.88	201.66	68.86	-39.7	-42.4	3.3	8396804	96	6737
2025-01-28 19:23:06.09	201.83	68.93	-39.7	-43.8	3.6	8394515	96	7925
2025-01-28 19:23:06.29	202.00	69.01	-39.7	-43.0	3.4	8453853	96	7223
2025-01-28 19:23:06.49	202.18	69.08	-39.7	-42.3	3.3	8427440	96	6682
2025-01-28 19:23:06.69	202.35	69.15	-39.7	-42.3	3.3	8397674	96	6682
2025-01-28 19:23:06.89	202.52	69.22	-39.7	-43.8	3.6	8412574	96	7916
2025-01-28 19:23:07.09	202.70	69.29	-39.7	-43.2	3.5	8431961	96	7440
2025-01-28 19:23:07.29	202.87	69.36	-39.7	-42.4	3.3	8418571	96	6760
2025-01-28 19:23:07.49	203.05	69.43	-39.6	-42.2	3.3	8418571	96	6642
2025-01-28 19:23:07.69	203.23	69.51	-39.6	-43.7	3.6	8382499	96	7889
2025-01-28 19:23:07.89	203.41	69.58	-39.6	-43.5	3.6	8421592	96	7675
2025-01-28 19:23:08.10	203.60	69.65	-39.6	-42.5	3.4	8421134	96	6834
2025-01-28 19:23:08.30	203.79	69.72	-39.6	-42.3	3.3	8399803	96	6654
2025-01-28 19:23:08.50	203.97	69.79	-39.6	-43.7	3.6	8397159	96	7840
2025-01-28 19:23:08.70	204.16	69.86	-39.6	-43.7	3.6	8436687	96	7896
2025-01-28 19:23:08.90	204.34	69.93	-39.6	-42.7	3.4	8434375	96	6981
2025-01-28 19:23:09.10	204.53	70.00	-39.6	-42.2	3.3	8434375	96	6593
2025-01-28 19:23:09.30	204.72	70.07	-39.6	-42.1	3.3	8382820	96	6595
2025-01-28 19:23:09.50	204.91	70.14	-39.6	-43.6	3.6	8400066	96	7794
2025-01-28 19:23:09.70	205.11	70.21	-39.6	-42.8	3.4	8443954	96	7066
2025-01-28 19:23:09.90	205.30	70.28	-39.6	-42.1	3.3	8424728	96	6559
2025-01-28 19:23:10.10	205.50	70.35	-39.6	-42.1	3.3	8391197	96	6562
2025-01-28 19:23:10.31	205.71	70.42	-39.6	-43.6	3.6	8413318	96	7776
2025-01-28 19:23:10.51	205.90	70.49	-39.6	-43.0	3.5	8443233	96	7308
2025-01-28 19:23:10.71	206.10	70.56	-39.6	-42.1	3.3	8400054	96	6590
2025-01-28 19:23:10.91	206.31	70.63	-39.5	-41.9	3.3	8400054	96	6473
2025-01-28 19:23:11.11	206.51	70.70	-39.4	-43.0	3.6	8380943	96	7441
2025-01-28 19:23:11.31	206.71	70.76	-39.5	-42.5	3.6	8430828	97	6947
2025-01-28 19:23:11.51	206.92	70.83	-39.5	-41.3	3.4	8384983	97	6086
2025-01-28 19:23:11.71	207.13	70.90	-39.5	-41.0	3.3	8402744	97	5872
2025-01-28 19:23:11.91	207.34	70.97	-39.4	-42.4	3.6	8385211	97	6935
2025-01-28 19:23:12.11	207.55	71.04	-39.5	-42.7	3.6	8387432	97	7058
2025-01-28 19:23:12.32	207.77	71.11	-39.7	-42.2	3.4	8380840	97	6616
2025-01-28 19:23:12.52	207.99	71.17	-39.7	-41.7	3.3	8380840	97	6197
2025-01-28 19:23:12.72	208.20	71.24	-39.8	-41.9	3.3	8404506	97	6279
2025-01-28 19:23:12.92	208.42	71.31	-39.7	-43.1	3.6	8384777	97	7335
2025-01-28 19:23:13.12	208.64	71.37	-39.6	-42.6	3.5	8386207	97	6933
2025-01-28 19:23:13.32	208.86	71.44	-39.7	-41.8	3.4	8435966	97	6300
2025-01-28 19:23:13.52	209.09	71.50	-39.6	-41.4	3.3	8388347	97	6080
2025-01-28 19:23:13.72	209.31	71.57	-39.6	-42.9	3.6	8404220	97	7210
2025-01-28 19:23:13.92	209.54	71.64	-39.6	-42.3	3.5	8460044	97	6732
2025-01-28 19:23:14.12	209.76	71.70	-39.6	-41.4	3.3	8416282	97	6079
2025-01-28 19:23:14.32	209.99	71.77	-39.5	-41.3	3.3	8392192	97	6009
2025-01-28 19:23:14.53	210.24	71.83	-39.5	-42.6	3.6	8392192	97	7035
2025-01-28 19:23:14.73	210.47	71.90	-39.5	-42.3	3.6	8401416	97	6788
2025-01-28 19:23:14.93	210.70	71.96	-39.4	-41.1	3.4	8435016	97	5971
2025-01-28 19:23:15.13	210.94	72.03	-39.5	-41.1	3.3	8410388	97	5917
2025-01-28 19:23:15.33	211.18	72.09	-39.4	-42.5	3.6	8396072	97	6972
2025-01-28 19:23:15.53	211.42	72.15	-39.4	-42.3	3.6	8435703	97	6875
2025-01-28 19:23:15.73	211.66	72.22	-39.4	-41.2	3.4	8436012	97	6091
2025-01-28 19:23:15.93	211.91	72.28	-39.3	-40.7	3.3	8408363	97	5744
2025-01-28 19:23:16.13	212.15	72.34	-39.2	-40.8	3.3	8385326	96	5912
2025-01-28 19:23:16.33	212.40	72.41	-39.1	-42.1	3.6	8385326	96	6892
2025-01-28 19:23:16.53	212.65	72.47	-39.1	-41.1	3.4	8440567	96	6197
2025-01-28 19:23:16.74	212.91	72.53	-39.1	-40.6	3.3	8416408	96	5870
2025-01-28 19:23:16.94	213.17	72.59	-39.2	-40.9	3.3	8385200	96	6007
2025-01-28 19:23:17.14	213.42	72.66	-39.2	-42.3	3.6	8404346	96	7047
2025-01-28 19:23:17.34	213.68	72.72	-39.2	-41.9	3.5	8380851	96	6718
2025-01-28 19:23:17.54	213.94	72.78	-39.2	-41.0	3.4	8424041	96	6067
2025-01-28 19:23:17.74	214.20	72.84	-39.1	-40.7	3.3	8397994	96	5926
2025-01-28 19:23:17.94	214.46	72.90	-39.0	-41.8	3.6	8397994	96	6791
2025-01-28 19:23:18.14	214.72	72.96	-39.0	-41.7	3.6	8358375	96	6689
2025-01-28 19:23:18.34	214.99	73.02	-39.1	-40.7	3.4	8430713	96	5958
2025-01-28 19:23:18.54	215.26	73.08	-39.2	-40.7	3.3	8405971	96	5878
2025-01-28 19:23:18.75	215.54	73.14	-39.2	-42.3	3.6	8396015	96	7028
2025-01-28 19:23:18.95	215.82	73.20	-39.2	-42.4	3.6	8424430	96	7074
2025-01-28 19:23:19.15	216.09	73.25	-39.2	-41.2	3.4	8435508	96	6209
2025-01-28 19:23:19.35	216.37	73.31	-39.2	-40.7	3.3	8390018	96	5831
2025-01-28 19:23:19.55	216.65	73.37	-39.1	-40.5	3.3	8390018	96	5757
2025-01-28 19:23:19.75	216.93	73.43	-39.0	-41.6	3.6	8389034	96	6626
2025-01-28 19:23:19.95	217.21	73.48	-39.1	-41.0	3.5	8436584	96	6093
2025-01-28 19:23:20.15	217.49	73.54	-39.1	-40.4	3.4	8423355	96	5703
2025-01-28 19:23:20.35	217.78	73.60	-39.2	-40.5	3.3	8395271	96	5743
2025-01-28 19:23:20.56	218.08	73.65	-39.2	-41.9	3.6	8401828	96	6743
2025-01-28 19:23:20.76	218.37	73.71	-39.1	-41.2	3.5	8444114	96	6263
2025-01-28 19:23:20.96	218.67	73.76	-39.2	-40.7	3.4	8414520	96	5865
2025-01-28 19:23:21.16	218.96	73.82	-39.2	-40.6	3.3	8401485	96	5786
2025-01-28 19:23:21.36	219.26	73.87	-39.2	-41.8	3.6	8401485	96	6705
2025-01-28 19:23:21.56	219.56	73.93	-39.2	-41.8	3.6	8405273	96	6678
2025-01-28 19:23:21.76	219.86	73.98	-39.2	-40.7	3.4	8428150	96	5855
2025-01-28 19:23:21.96	220.16	74.03	-39.1	-40.3	3.3	8390956	96	5645
2025-01-28 19:23:22.16	220.47	74.09	-39.1	-41.7	3.6	8399494	96	6650
2025-01-28 19:23:22.37	220.79	74.14	-39.1	-41.6	3.6	8429054	96	6587
2025-01-28 19:23:22.57	221.10	74.19	-39.0	-40.4	3.4	8425437	96	5777
2025-01-28 19:23:22.77	221.41	74.24	-39.1	-40.2	3.3	8387855	96	5606
2025-01-28 19:23:22.97	221.72	74.29	-39.1	-40.3	3.3	8387855	96	5667
2025-01-28 19:23:23.17	222.04	74.34	-39.2	-41.9	3.6	8391483	96	6724
2025-01-28 19:23:23.37	222.36	74.39	-39.2	-40.8	3.4	8440864	96	5942
2025-01-28 19:23:23.57	222.68	74.44	-39.1	-40.1	3.3	8420928	96	5549
2025-01-28 19:23:23.77	223.00	74.49	-39.0	-39.9	3.4	8393405	96	5477
2025-01-28 19:23:23.97	223.33	74.54	-39.0	-41.3	3.6	8390716	96	6414
2025-01-28 19:23:24.18	223.67	74.59	-39.0	-40.5	3.5	8447696	96	5848
2025-01-28 19:23:24.38	224.00	74.64	-39.1	-40.2	3.4	8406188	96	5572
2025-01-28 19:23:24.58	224.33	74.69	-39.2	-40.5	3.3	8397285	96	5699
2025-01-28 19:23:24.78	224.66	74.73	-39.3	-42.2	3.6	8418846	96	6890
2025-01-28 19:23:24.98	225.00	74.78	-39.2	-41.5	3.5	8435611	96	6381
2025-01-28 19:23:25.18	225.33	74.83	-39.3	-40.9	3.3	8435611	96	5891
2025-01-28 19:23:25.38	225.67	74.87	-39.3	-40.7	3.3	8413879	96	5816
2025-01-28 19:23:25.58	226.01	74.92	-39.2	-42.0	3.6	8386447	96	6735
2025-01-28 19:23:25.78	226.36	74.96	-39.2	-41.6	3.6	8429569	96	6518
2025-01-28 19:23:25.98	226.70	75.00	-39.2	-40.7	3.4	8438713	96	5848
2025-01-28 19:23:26.19	227.07	75.05	-39.2	-40.4	3.4	8405639	96	5662
2025-01-28 19:23:26.39	227.42	75.09	-39.1	-41.7	3.6	8387832	96	6594
2025-01-28 19:23:26.59	227.77	75.13	-39.2	-41.8	3.6	8444538	96	6641
2025-01-28 19:23:26.79	228.12	75.18	-39.1	-40.5	3.4	8444538	96	5806
2025-01-28 19:23:26.99	228.48	75.22	-39.1	-40.1	3.3	8422908	96	5541
2025-01-28 19:23:27.19	228.84	75.26	-39.0	-39.8	3.4	8392490	96	5420
2025-01-28 19:23:27.39	229.20	75.30	-39.0	-41.1	3.6	8409656	96	6312
2025-01-28 19:23:27.59	229.56	75.34	-39.0	-40.5	3.5	8449985	96	5829
2025-01-28 19:23:27.79	229.92	75.38	-38.9	-39.6	3.4	8410972	96	5337
2025-01-28 19:23:28.00	230.31	75.42	-38.9	-39.5	3.4	8382797	96	5262
2025-01-28 19:23:28.20	230.68	75.45	-38.8	-40.6	3.6	8404346	96	6069
2025-01-28 19:23:28.40	231.05	75.49	-38.8	-40.5	3.7	8404346	95	6005
2025-01-28 19:23:28.60	231.42	75.53	-38.8	-39.7	3.5	8429569	95	5480
2025-01-28 19:23:28.80	231.79	75.56	-38.7	-39.5	3.5	8394950	95	5364
2025-01-28 19:23:29.00	232.17	75.60	-38.9	-41.5	3.6	8375907	95	6601
2025-01-28 19:23:29.20	232.55	75.64	-38.8	-40.9	3.7	8421340	95	6265
2025-01-28 19:23:29.40	232.93	75.67	-38.9	-40.3	3.5	8422485	95	5731
2025-01-28 19:23:29.60	233.31	75.70	-39.0	-40.2	3.4	8394653	95	5642
2025-01-28 19:23:29.80	233.69	75.74	-39.0	-41.7	3.6	8396999	95	6719
2025-01-28 19:23:30.01	234.10	75.77	-39.1	-41.9	3.6	8426971	95	6846
2025-01-28 19:23:30.21	234.48	75.80	-39.1	-40.9	3.5	8426971	95	6059
2025-01-28 19:23:30.41	234.87	75.83	-39.1	-40.6	3.4	8422473	95	5861
2025-01-28 19:23:30.61	235.26	75.86	-39.1	-40.6	3.4	8393840	95	5842
2025-01-28 19:23:30.81	235.66	75.89	-39.0	-41.9	3.6	8415023	95	6825
2025-01-28 19:23:31.01	236.05	75.92	-39.1	-41.2	3.5	8432041	95	6257
2025-01-28 19:23:31.21	236.45	75.95	-39.1	-40.6	3.4	8405399	95	5862
2025-01-28 19:23:31.41	236.84	75.98	-39.1	-40.6	3.4	8390430	95	5854
2025-01-28 19:23:31.61	237.24	76.01	-39.1	-42.0	3.6	8416648	95	6883
2025-01-28 19:23:31.82	237.66	76.04	-39.1	-41.6	3.6	8416648	95	6530
2025-01-28 19:23:32.02	238.07	76.06	-39.2	-40.9	3.4	8427177	95	5982
2025-01-28 19:23:32.22	238.47	76.09	-39.2	-40.8	3.3	8396450	95	5963
2025-01-28 19:23:32.42	238.88	76.11	-39.2	-42.3	3.6	8393062	95	7031
2025-01-28 19:23:32.62	239.28	76.14	-39.2	-42.1	3.6	8438667	95	6900
2025-01-28 19:23:32.82	239.69	76.16	-39.2	-41.1	3.4	8426525	95	6124
2025-01-28 19:23:33.02	240.10	76.18	-39.1	-40.6	3.4	8388015	95	5836
2025-01-28 19:23:33.22	240.51	76.20	-39.2	-42.2	3.6	8403224	95	7002
2025-01-28 19:23:33.42	240.92	76.23	-39.1	-41.5	3.6	8441070	96	6498
2025-01-28 19:23:33.62	241.34	76.25	-39.1	-40.4	3.4	8374305	96	5734
2025-01-28 19:23:33.83	241.77	76.27	-39.1	-40.2	3.3	8374305	96	5579
2025-01-28 19:23:34.03	242.19	76.29	-39.2	-41.8	3.6	8404438	96	6633
2025-01-28 19:23:34.23	242.61	76.31	-39.2	-41.8	3.6	8353523	96	6630
2025-01-28 19:23:34.43	243.03	76.32	-39.2	-40.9	3.4	8445430	96	5989
2025-01-28 19:23:34.63	243.44	76.34	-39.2	-40.5	3.3	8402858	96	5708
2025-01-28 19:23:34.83	243.87	76.36	-39.2	-40.6	3.3	8392662	96	5745
2025-01-28 19:23:35.03	244.29	76.37	-39.2	-41.8	3.6	8418422	96	6680
2025-01-28 19:23:35.23	244.71	76.39	-39.2	-41.0	3.4	8431125	96	6052
2025-01-28 19:23:35.43	245.13	76.40	-39.2	-40.4	3.3	8404106	96	5662
2025-01-28 19:23:35.63	245.56	76.42	-39.2	-40.3	3.3	8404106	96	5607
2025-01-28 19:23:35.84	246.01	76.43	-39.2	-41.9	3.6	8393508	96	6730
2025-01-28 19:23:36.04	246.43	76.44	-39.2	-41.4	3.5	8433723	96	6317
2025-01-28 19:23:36.24	246.86	76.45	-39.3	-40.9	3.3	8424339	96	5922
2025-01-28 19:23:36.44	247.29	76.46	-39.3	-40.8	3.3	8389595	96	5863
2025-01-28 19:23:36.64	247.71	76.47	-39.3	-42.2	3.6	8384113	96	6871
2025-01-28 19:23:36.84	248.14	76.48	-39.2	-41.8	3.6	8444686	96	6638
2025-01-28 19:23:37.04	248.57	76.49	-39.2	-40.8	3.4	8411865	96	5878
2025-01-28 19:23:37.24	249.00	76.50	-39.1	-40.1	3.3	8411865	96	5552
2025-01-28 19:23:37.44	249.43	76.51	-39.1	-41.6	3.6	8386516	96	6565
2025-01-28 19:23:37.64	249.87	76.51	-39.1	-41.6	3.6	8407665	96	6581
2025-01-28 19:23:37.85	250.32	76.52	-39.1	-40.6	3.4	8438873	96	5830
2025-01-28 19:23:38.05	250.75	76.52	-39.1	-40.3	3.4	8408660	96	5646
2025-01-28 19:23:38.25	251.18	76.53	-39.2	-40.6	3.4	8393280	96	5781
2025-01-28 19:23:38.45	251.61	76.53	-39.1	-41.7	3.6	8403785	96	6606
2025-01-28 19:23:38.65	252.05	76.53	-39.1	-40.8	3.4	8438587	96	6018
2025-01-28 19:23:38.85	252.48	76.53	-39.1	-40.3	3.3	8393142	96	5626
2025-01-28 19:23:39.05	252.91	76.54	-39.2	-40.4	3.3	8393142	96	5665
2025-01-28 19:23:39.25	253.35	76.54	-39.2	-42.0	3.6	8381263	96	6759
2025-01-28 19:23:39.45	253.78	76.54	-39.2	-41.4	3.5	8440853	96	6344
2025-01-28 19:23:39.65	254.21	76.53	-39.2	-40.4	3.4	8435131	96	5687
2025-01-28 19:23:39.85	254.64	76.53	-39.2	-40.4	3.3	8384044	96	5640
2025-01-28 19:23:40.06	255.10	76.53	-39.1	-41.5	3.6	8394207	96	6496
2025-01-28 19:23:40.26	255.53	76.53	-39.1	-41.4	3.6	8449871	96	6379
2025-01-28 19:23:40.46	255.96	76.52	-39.1	-40.5	3.4	8423561	96	5767
2025-01-28 19:23:40.66	256.39	76.52	-39.1	-40.1	3.3	8423561	96	5541
2025-01-28 19:23:40.86	256.83	76.51	-39.1	-41.7	3.6	8389389	96	6604
2025-01-28 19:23:41.06	257.26	76.50	-39.0	-41.3	3.6	8412117	96	6372
2025-01-28 19:23:41.26	257.69	76.50	-39.1	-40.5	3.4	8425941	96	5771
2025-01-28 19:23:41.46	258.12	76.49	-39.0	-39.9	3.4	8396953	96	5452
2025-01-28 19:23:41.66	258.55	76.48	-39.0	-39.9	3.4	8390922	96	5426
2025-01-28 19:23:41.87	259.00	76.47	-39.0	-41.2	3.6	8415344	96	6363
2025-01-28 19:23:42.07	259.43	76.46	-39.0	-40.3	3.5	8436996	96	5717
2025-01-28 19:23:42.27	259.85	76.45	-39.0	-39.8	3.4	8436996	96	5393
2025-01-28 19:23:42.47	260.28	76.44	-39.1	-39.9	3.4	8389343	96	5426
2025-01-28 19:23:42.67	260.71	76.43	-39.1	-41.4	3.6	8393737	96	6446
2025-01-28 19:23:42.87	261.13	76.41	-39.0	-40.7	3.6	8428161	96	5973
2025-01-28 19:23:43.07	261.56	76.40	-39.0	-39.7	3.5	8423915	96	5356
2025-01-28 19:23:43.27	261.98	76.39	-39.0	-39.5	3.4	8393852	96	5245
2025-01-28 19:23:43.47	262.40	76.37	-38.9	-40.9	3.6	8374740	96	6195
2025-01-28 19:23:43.67	262.82	76.35	-39.0	-40.6	3.6	8450397	96	5912
2025-01-28 19:23:43.88	263.26	76.34	-39.2	-40.2	3.4	8421203	96	5554
2025-01-28 19:23:44.08	263.68	76.32	-39.2	-40.4	3.4	8389480	96	5638
2025-01-28 19:23:44.28	264.10	76.30	-39.3	-42.1	3.6	8412723	96	6749
2025-01-28 19:23:44.48	264.52	76.28	-39.3	-41.8	3.6	8412723	96	6561
2025-01-28 19:23:44.68	264.93	76.26	-39.3	-40.9	3.4	8435977	96	5921
2025-01-28 19:23:44.88	265.35	76.24	-39.4	-40.8	3.3	8418056	96	5829
2025-01-28 19:23:45.08	265.76	76.22	-39.4	-42.3	3.6	8403350	96	6883
2025-01-28 19:23:45.28	266.18	76.20	-39.4	-42.4	3.6	8422428	96	6927
2025-01-28 19:23:45.48	266.59	76.18	-39.5	-41.1	3.4	8378425	97	5924
2025-01-28 19:23:45.68	267.00	76.16	-39.5	-40.6	3.3	8411384	97	5584
2025-01-28 19:23:45.88	267.40	76.13	-39.5	-40.7	3.3	8381732	97	5667
2025-01-28 19:23:46.08	267.81	76.11	-39.5	-42.0	3.6	8381732	97	6589
2025-01-28 19:23:46.29	268.23	76.08	-39.5	-41.4	3.5	8383060	97	6118
2025-01-28 19:23:46.49	268.64	76.06	-39.5	-40.6	3.3	8434936	97	5624
2025-01-28 19:23:46.69	269.04	76.03	-39.5	-40.7	3.3	8407791	97	5653
2025-01-28 19:23:46.89	269.44	76.00	-39.5	-42.0	3.6	8394264	97	6613
2025-01-28 19:23:47.09	269.84	75.98	-39.5	-41.6	3.5	8441974	97	6273
2025-01-28 19:23:47.29	270.24	75.95	-39.5	-40.7	3.3	8410652	97	5650
2025-01-28 19:23:47.49	270.63	75.92	-39.4	-40.5	3.3	8395511	97	5583
2025-01-28 19:23:47.69	271.03	75.89	-39.4	-41.8	3.6	8395511	97	6497
2025-01-28 19:23:47.89	271.42	75.86	-39.4	-41.7	3.6	8399940	97	6410
2025-01-28 19:23:48.10	271.83	75.83	-39.4	-40.7	3.4	8439239	97	5700
2025-01-28 19:23:48.30	272.22	75.80	-39.4	-40.6	3.3	8405673	97	5603
2025-01-28 19:23:48.50	272.60	75.76	-39.5	-42.1	3.6	8397891	97	6650
2025-01-28 19:23:48.70	272.99	75.73	-39.4	-42.1	3.6	8433609	97	6690
2025-01-28 19:23:48.90	273.37	75.70	-39.5	-41.1	3.4	8441322	97	5920
2025-01-28 19:23:49.10	273.75	75.66	-39.3	-40.2	3.3	8400913	97	5466
2025-01-28 19:23:49.30	274.13	75.63	-39.3	-40.3	3.3	8387809	97	5468
2025-01-28 19:23:49.50	274.51	75.60	-39.4	-41.9	3.6	8387809	97	6578
2025-01-28 19:23:49.70	274.88	75.56	-39.4	-41.1	3.4	8441219	97	5980
2025-01-28 19:23:49.91	275.28	75.52	-39.4	-40.4	3.3	8424591	97	5530
2025-01-28 19:23:50.11	275.65	75.49	-39.4	-40.4	3.3	8391746	97	5552
2025-01-28 19:23:50.31	276.02	75.45	-39.4	-41.9	3.6	8401268	97	6537
2025-01-28 19:23:50.51	276.38	75.41	-39.3	-41.1	3.5	8438598	97	6052
2025-01-28 19:23:50.71	276.75	75.37	-39.4	-40.5	3.4	8427360	97	5585
2025-01-28 19:23:50.91	277.11	75.33	-39.4	-40.5	3.3	8394344	97	5600
2025-01-28 19:23:51.11	277.48	75.29	-39.4	-41.9	3.6	8394344	97	6582
2025-01-28 19:23:51.31	277.84	75.25	-39.4	-42.0	3.6	8408226	97	6584
2025-01-28 19:23:51.51	278.19	75.21	-39.4	-40.9	3.4	8378849	97	5808
2025-01-28 19:23:51.71	278.55	75.17	-39.4	-40.6	3.3	8422496	97	5651
2025-01-28 19:23:51.91	278.90	75.13	-39.4	-42.5	3.6	8389251	96	7015
2025-01-28 19:23:52.12	279.27	75.08	-39.4	-42.4	3.6	8356819	96	6959
2025-01-28 19:23:52.32	279.62	75.04	-39.4	-41.7	3.4	8435771	96	6393
2025-01-28 19:23:52.52	279.97	75.00	-39.4	-41.1	3.3	8402915	96	6015
2025-01-28 19:23:52.72	280.31	74.95	-39.4	-41.2	3.3	8387203	96	6012
2025-01-28 19:23:52.92	280.66	74.91	-39.4	-42.6	3.6	8387203	96	7142
2025-01-28 19:23:53.12	281.00	74.87	-39.5	-42.1	3.4	8435337	96	6638
2025-01-28 19:23:53.32	281.33	74.82	-39.5	-41.3	3.3	8418331	96	6099
2025-01-28 19:23:53.52	281.67	74.77	-39.4	-41.2	3.3	8394973	96	6085
2025-01-28 19:23:53.72	282.01	74.73	-39.5	-42.9	3.6	8396450	96	7313
2025-01-28 19:23:53.92	282.34	74.68	-39.5	-42.2	3.4	8431629	96	6703
2025-01-28 19:23:54.12	282.67	74.63	-39.5	-41.6	3.3	8425712	96	6259
2025-01-28 19:23:54.32	283.00	74.59	-39.5	-41.7	3.3	8382602	96	6353
2025-01-28 19:23:54.53	283.34	74.54	-39.5	-43.2	3.6	8403442	96	7518
2025-01-28 19:23:54.73	283.66	74.49	-39.5	-42.5	3.5	8447010	96	6936
2025-01-28 19:23:54.93	283.98	74.44	-39.5	-41.5	3.3	8447010	96	6253
2025-01-28 19:23:55.13	284.30	74.39	-39.4	-41.4	3.3	8399745	96	6153
2025-01-28 19:23:55.33	284.62	74.34	-39.5	-42.9	3.6	8383460	96	7288
2025-01-28 19:23:55.53	284.94	74.29	-39.5	-42.7	3.6	8411727	96	7118
2025-01-28 19:23:55.73	285.25	74.24	-39.5	-41.7	3.4	8435039	96	6381
2025-01-28 19:23:55.93	285.56	74.19	-39.5	-41.6	3.3	8404529	96	6304
2025-01-28 19:23:56.13	285.87	74.13	-39.5	-43.3	3.6	8386024	96	7568
2025-01-28 19:23:56.33	286.18	74.08	-39.5	-43.2	3.6	8451290	96	7520
2025-01-28 19:23:56.54	286.50	74.03	-39.5	-42.3	3.4	8451290	96	6745
2025-01-28 19:23:56.74	286.80	73.97	-39.5	-41.8	3.3	8419292	96	6379
2025-01-28 19:23:56.94	287.10	73.92	-39.5	-41.9	3.3	8392684	96	6438
2025-01-28 19:23:57.14	287.40	73.87	-39.5	-43.3	3.6	8403568	96	7575
2025-01-28 19:23:57.34	287.70	73.81	-39.6	-42.7	3.4	8451702	96	7042
2025-01-28 19:23:57.54	287.99	73.76	-39.6	-41.9	3.3	8421352	96	6461
2025-01-28 19:23:57.74	288.28	73.70	-39.6	-42.0	3.3	8389537	96	6490
2025-01-28 19:23:57.94	288.57	73.65	-39.5	-43.2	3.6	8413616	96	7554
2025-01-28 19:23:58.14	288.86	73.59	-39.5	-42.4	3.5	8450763	96	6919
2025-01-28 19:23:58.35	289.16	73.53	-39.4	-41.4	3.3	8450763	96	6222
2025-01-28 19:23:58.55	289.45	73.48	-39.3	-41.1	3.3	8409152	96	6031
2025-01-28 19:23:58.75	289.73	73.42	-39.3	-42.5	3.6	8393497	96	7134
2025-01-28 19:23:58.95	290.01	73.36	-39.3	-42.3	3.6	8426284	96	6918
2025-01-28 19:23:59.15	290.29	73.31	-39.2	-41.2	3.4	8434192	96	6134
2025-01-28 19:23:59.35	290.56	73.25	-39.3	-40.9	3.3	8404666	96	5927
2025-01-28 19:23:59.55	290.84	73.19	-39.2	-42.2	3.6	8392101	96	6939
2025-01-28 19:23:59.75	291.11	73.13	-39.2	-42.2	3.6	8426536	96	6932
2025-01-28 19:23:59.95	291.38	73.07	-39.2	-41.1	3.4	8426536	96	6154
2025-01-28 19:24:00.15	291.65	73.01	-39.2	-40.6	3.3	8421043	96	5790
2025-01-28 19:24:00.35	291.91	72.95	-39.2	-40.7	3.3	8402378	96	5836
2025-01-28 19:24:00.55	292.18	72.90	-39.1	-41.8	3.6	8407802	96	6714
2025-01-28 19:24:00.76	292.45	72.83	-39.2	-41.1	3.5	8443611	96	6177
2025-01-28 19:24:00.96	292.71	72.77	-39.0	-39.9	3.4	8418102	96	5491
2025-01-28 19:24:01.16	292.97	72.71	-39.1	-40.3	3.3	8398624	96	5668
2025-01-28 19:24:01.36	293.23	72.65	-39.0	-41.3	3.6	8417610	96	6416
2025-01-28 19:24:01.56	293.48	72.59	-38.9	-40.6	3.6	8434741	96	5984
2025-01-28 19:24:01.76	293.73	72.53	-38.9	-39.9	3.4	8434741	96	5495
2025-01-28 19:24:01.96	293.99	72.47	-39.0	-40.0	3.4	8393669	96	5548
2025-01-28 19:24:02.16	294.23	72.40	-39.0	-41.7	3.6	8386516	96	6650
2025-01-28 19:24:02.36	294.48	72.34	-39.1	-41.6	3.6	8412792	96	6550
2025-01-28 19:24:02.57	294.74	72.28	-39.1	-40.6	3.4	8434341	96	5844
2025-01-28 19:24:02.77	294.98	72.21	-39.1	-40.4	3.3	8389743	96	5754
2025-01-28 19:24:02.97	295.22	72.15	-39.0	-41.7	3.6	8383506	96	6691
2025-01-28 19:24:03.17	295.46	72.09	-39.0	-41.7	3.6	8434032	96	6701
2025-01-28 19:24:03.37	295.70	72.02	-39.0	-40.5	3.4	8434032	96	5839
2025-01-28 19:24:03.57	295.94	71.96	-39.0	-40.2	3.3	8427211	96	5629
2025-01-28 19:24:03.77	296.17	71.89	-38.9	-39.9	3.3	8397285	96	5491
2025-01-28 19:24:03.97	296.40	71.83	-38.9	-41.2	3.6	8402320	96	6448
2025-01-28 19:24:04.17	296.64	71.76	-38.9	-40.2	3.4	8440727	96	5705
2025-01-28 19:24:04.37	296.87	71.70	-38.9	-39.9	3.3	8417907	96	5537
2025-01-28 19:24:04.58	297.10	71.63	-38.8	-39.8	3.3	8394229	96	5476
2025-01-28 19:24:04.78	297.33	71.57	-38.8	-41.5	3.6	8407917	95	6709
2025-01-28 19:24:04.98	297.55	71.50	-38.8	-40.6	3.6	8433643	95	6066
2025-01-28 19:24:05.18	297.78	71.43	-38.6	-39.6	3.5	8392204	95	5484
2025-01-28 19:24:05.38	298.00	71.37	-38.6	-39.4	3.6	8392204	95	5396
2025-01-28 19:24:05.58	298.22	71.30	-38.4	-40.3	3.7	8371147	95	6130
2025-01-28 19:24:05.78	298.43	71.24	-38.5	-39.9	3.8	8416374	95	5810
2025-01-28 19:24:05.98	298.65	71.17	-38.5	-39.1	3.6	8408443	95	5324
2025-01-28 19:24:06.18	298.86	71.10	-38.5	-39.3	3.6	8367897	95	5373
2025-01-28 19:24:06.38	299.08	71.04	-38.5	-40.5	3.7	8370952	95	6219
2025-01-28 19:24:06.58	299.29	70.97	-38.5	-40.3	3.8	8417095	95	6056
2025-01-28 19:24:06.79	299.51	70.90	-38.5	-39.4	3.6	8408523	95	5440
2025-01-28 19:24:06.99	299.71	70.83	-38.5	-39.0	3.6	8365276	95	5242
2025-01-28 19:24:07.19	299.92	70.76	-38.5	-40.6	3.7	8365276	95	6218
2025-01-28 19:24:07.39	300.13	70.69	-38.6	-40.9	3.6	8382568	95	6393
2025-01-28 19:24:07.59	300.33	70.63	-38.7	-40.0	3.6	8424785	95	5720
2025-01-28 19:24:07.79	300.53	70.56	-38.7	-39.6	3.5	8388473	95	5477
2025-01-28 19:24:07.99	300.73	70.49	-38.9	-40.1	3.5	8379673	95	5644
2025-01-28 19:24:08.19	300.93	70.42	-38.6	-40.9	3.6	8412597	95	6352
2025-01-28 19:24:08.39	301.13	70.35	-38.7	-40.3	3.6	8414405	95	5932
2025-01-28 19:24:08.59	301.32	70.28	-38.8	-40.0	3.5	8401645	95	5667
2025-01-28 19:24:08.80	301.53	70.21	-39.3	-41.9	3.3	8401645	95	6609
2025-01-28 19:24:09.00	301.72	70.14	-39.5	-43.4	3.6	8376708	96	7704
2025-01-28 19:24:09.20	301.91	70.07	-39.7	-43.4	3.5	8441619	96	7543

#Closed at: 2025-01-28 19:24:09