passes_logs/2025/01/05/XPeterburg/XPeterburg__20250105_144534_FENGYUN_3E_rec.log

#Pass ID: 20250105_144534_FENGYUN 3E
#Satellite: FENGYUN 3E
#Configuration: FENGYUN 3E
#Start time: 2025-01-05 14:45:28

#Version: 1.5.20200625
#Station: XPeterburg
#Location: 30.318091 lon 59.932769 lat
#TLE: 1 49008U 21062A   24362.16046100  .00000127  00000+0  80596-4 0  9998
#TLE: 2 49008  98.7386   0.9208 0001625 158.3591 201.7655 14.19826678180376

#Time	Az	El	Level	Level2	SNR	BER	Gain	Gain2
2025-01-05 14:45:28.61	187.46	67.76	-38.2	-40.8	3.3	8381744	94	6593
2025-01-05 14:45:28.81	187.57	67.84	-37.4	-59.9	2.7	6394088	47	65535
2025-01-05 14:45:29.01	187.68	67.93	-37.8	-51.3	3.5	8268550	73	23222
2025-01-05 14:45:29.21	187.79	68.01	-38.3	-41.4	3.3	8404163	93	7031
2025-01-05 14:45:29.41	187.91	68.09	-38.3	-41.3	3.3	8404163	93	6960
2025-01-05 14:45:29.61	188.02	68.17	-38.2	-42.2	3.6	8399494	94	7759
2025-01-05 14:45:29.81	188.13	68.26	-38.2	-42.1	3.6	8376949	94	7655
2025-01-05 14:45:30.02	188.25	68.34	-38.2	-40.9	3.4	8441379	94	6744
2025-01-05 14:45:30.22	188.37	68.42	-38.2	-40.7	3.3	8404060	94	6559
2025-01-05 14:45:30.42	188.48	68.51	-38.2	-40.7	3.3	8390590	94	6539
2025-01-05 14:45:30.62	188.60	68.59	-38.2	-42.2	3.6	8426410	94	7798
2025-01-05 14:45:30.82	188.72	68.67	-38.2	-41.4	3.4	8434627	94	7067
2025-01-05 14:45:31.02	188.84	68.75	-38.2	-40.7	3.3	8434627	94	6552
2025-01-05 14:45:31.22	188.96	68.84	-38.2	-40.7	3.3	8393051	94	6553
2025-01-05 14:45:31.42	189.08	68.92	-38.2	-42.1	3.6	8385898	94	7689
2025-01-05 14:45:31.63	189.21	69.00	-38.2	-41.6	3.5	8444927	94	7280
2025-01-05 14:45:31.83	189.33	69.09	-38.2	-40.9	3.3	8417827	94	6685
2025-01-05 14:45:32.03	189.46	69.17	-38.2	-40.6	3.3	8407791	94	6532
2025-01-05 14:45:32.23	189.58	69.25	-38.2	-42.1	3.6	8396713	94	7702
2025-01-05 14:45:32.43	189.71	69.33	-38.2	-41.9	3.6	8461692	94	7555
2025-01-05 14:45:32.63	189.84	69.42	-38.2	-40.9	3.4	8414314	94	6740
2025-01-05 14:45:32.83	189.97	69.50	-38.2	-40.7	3.3	8414314	94	6555
2025-01-05 14:45:33.03	190.10	69.58	-38.2	-42.1	3.6	8395637	94	7726
2025-01-05 14:45:33.23	190.23	69.66	-38.2	-42.1	3.6	8403991	94	7730
2025-01-05 14:45:33.44	190.37	69.75	-38.2	-41.0	3.4	8439033	94	6829
2025-01-05 14:45:33.64	190.50	69.83	-38.2	-40.6	3.3	8413513	94	6504
2025-01-05 14:45:33.84	190.64	69.91	-38.2	-40.6	3.3	8380393	94	6529
2025-01-05 14:45:34.04	190.77	69.99	-38.2	-42.0	3.6	8431011	94	7670
2025-01-05 14:45:34.24	190.91	70.08	-38.2	-41.3	3.4	8387523	94	7062
2025-01-05 14:45:34.44	191.05	70.16	-38.2	-40.5	3.3	8387523	94	6447
2025-01-05 14:45:34.64	191.19	70.24	-38.2	-40.6	3.3	8403453	94	6474
2025-01-05 14:45:34.84	191.33	70.32	-38.2	-42.0	3.6	8390911	94	7694
2025-01-05 14:45:35.05	191.48	70.41	-38.2	-42.0	3.6	8371089	94	7669
2025-01-05 14:45:35.25	191.62	70.49	-38.2	-40.9	3.4	8431354	94	6739
2025-01-05 14:45:35.45	191.76	70.57	-38.2	-40.6	3.3	8397846	94	6527
2025-01-05 14:45:35.65	191.91	70.65	-38.2	-42.1	3.6	8395305	94	7696
2025-01-05 14:45:35.85	192.06	70.73	-38.2	-42.1	3.6	8452354	94	7707
2025-01-05 14:45:36.05	192.21	70.81	-38.2	-41.0	3.4	8452354	94	6823
2025-01-05 14:45:36.25	192.36	70.90	-38.2	-40.6	3.3	8394161	94	6550
2025-01-05 14:45:36.45	192.51	70.98	-38.1	-42.0	3.6	8394161	94	7681
2025-01-05 14:45:36.65	192.66	71.06	-38.1	-42.0	3.6	8407722	94	7642
2025-01-05 14:45:36.85	192.81	71.14	-38.2	-41.0	3.4	8442672	94	6832
2025-01-05 14:45:37.06	192.98	71.23	-38.1	-40.6	3.3	8420356	94	6509
2025-01-05 14:45:37.26	193.13	71.31	-38.2	-40.5	3.3	8391963	94	6475
2025-01-05 14:45:37.46	193.29	71.39	-38.1	-42.0	3.6	8415092	94	7703
2025-01-05 14:45:37.66	193.45	71.47	-38.2	-41.2	3.4	8443954	94	6981
2025-01-05 14:45:37.86	193.61	71.55	-38.2	-40.5	3.3	8403751	94	6474
2025-01-05 14:45:38.06	193.77	71.63	-38.2	-40.6	3.3	8393508	94	6520
2025-01-05 14:45:38.26	193.94	71.71	-38.2	-42.1	3.6	8393508	94	7718
2025-01-05 14:45:38.46	194.10	71.79	-38.2	-41.5	3.5	8425918	94	7229
2025-01-05 14:45:38.66	194.27	71.87	-38.1	-40.7	3.3	8432407	94	6577
2025-01-05 14:45:38.86	194.44	71.95	-38.2	-40.6	3.3	8400489	94	6467
2025-01-05 14:45:39.06	194.61	72.03	-38.2	-42.1	3.6	8396896	94	7723
2025-01-05 14:45:39.27	194.79	72.12	-38.1	-41.8	3.6	8437099	94	7530
2025-01-05 14:45:39.47	194.97	72.20	-38.2	-40.8	3.4	8425838	94	6668
2025-01-05 14:45:39.67	195.14	72.28	-38.2	-40.6	3.3	8402709	94	6523
2025-01-05 14:45:39.87	195.32	72.36	-38.1	-42.0	3.6	8402709	94	7684
2025-01-05 14:45:40.07	195.50	72.44	-38.2	-42.1	3.6	8411075	94	7729
2025-01-05 14:45:40.27	195.68	72.52	-38.2	-41.0	3.4	8442970	94	6790
2025-01-05 14:45:40.47	195.86	72.60	-38.2	-40.6	3.3	8417198	94	6492
2025-01-05 14:45:40.67	196.04	72.68	-38.2	-40.6	3.3	8398155	94	6484
2025-01-05 14:45:40.87	196.23	72.76	-38.2	-42.1	3.6	8417976	94	7744
2025-01-05 14:45:41.08	196.43	72.84	-38.3	-41.4	3.4	8443153	94	7036
2025-01-05 14:45:41.28	196.62	72.92	-38.2	-40.8	3.3	8409862	94	6591
2025-01-05 14:45:41.48	196.81	73.00	-38.2	-40.7	3.3	8409862	94	6548
2025-01-05 14:45:41.68	197.00	73.08	-38.3	-42.2	3.6	8393005	94	7702
2025-01-05 14:45:41.88	197.19	73.16	-38.3	-41.6	3.5	8428127	94	7232
2025-01-05 14:45:42.08	197.39	73.23	-38.3	-40.8	3.3	8431331	94	6607
2025-01-05 14:45:42.28	197.59	73.31	-38.3	-40.7	3.3	8411304	94	6513
2025-01-05 14:45:42.48	197.79	73.39	-38.3	-42.2	3.6	8391185	94	7727
2025-01-05 14:45:42.68	197.99	73.47	-38.3	-42.0	3.6	8445316	94	7561
2025-01-05 14:45:42.89	198.21	73.55	-38.3	-40.9	3.3	8423561	94	6700
2025-01-05 14:45:43.09	198.42	73.63	-38.3	-40.7	3.3	8391323	94	6553
2025-01-05 14:45:43.29	198.63	73.71	-38.2	-42.1	3.6	8391323	94	7683
2025-01-05 14:45:43.49	198.84	73.79	-38.2	-42.1	3.6	8399677	94	7725
2025-01-05 14:45:43.69	199.05	73.86	-38.3	-41.2	3.4	8388496	94	6895
2025-01-05 14:45:43.89	199.27	73.94	-38.3	-40.7	3.3	8416145	94	6513
2025-01-05 14:45:44.09	199.48	74.02	-38.3	-40.7	3.3	8409942	94	6518
2025-01-05 14:45:44.29	199.70	74.09	-38.2	-42.1	3.6	8363079	94	7702
2025-01-05 14:45:44.49	199.93	74.17	-38.2	-41.4	3.5	8442878	94	7122
2025-01-05 14:45:44.69	200.15	74.25	-38.2	-40.7	3.3	8412517	94	6543
2025-01-05 14:45:44.90	200.39	74.33	-38.2	-40.7	3.3	8412517	94	6570
2025-01-05 14:45:45.10	200.62	74.40	-38.2	-42.1	3.6	8393692	94	7730
2025-01-05 14:45:45.30	200.85	74.48	-38.2	-42.0	3.6	8408042	94	7598
2025-01-05 14:45:45.50	201.08	74.56	-38.2	-41.0	3.3	8442546	94	6779
2025-01-05 14:45:45.70	201.32	74.63	-38.2	-40.6	3.3	8409622	94	6505
2025-01-05 14:45:45.90	201.56	74.71	-38.2	-42.1	3.6	8383415	94	7741
2025-01-05 14:45:46.10	201.80	74.78	-38.2	-41.9	3.6	8433254	94	7515
2025-01-05 14:45:46.30	202.04	74.86	-38.2	-40.8	3.4	8431755	94	6638
2025-01-05 14:45:46.50	202.29	74.93	-38.2	-40.6	3.3	8401977	94	6507
2025-01-05 14:45:46.70	202.53	75.01	-38.2	-42.1	3.6	8398601	94	7705
2025-01-05 14:45:46.90	202.79	75.08	-38.2	-41.9	3.6	8449985	94	7580
2025-01-05 14:45:47.11	203.05	75.16	-38.2	-41.0	3.4	8449985	94	6795
2025-01-05 14:45:47.31	203.31	75.23	-38.2	-40.6	3.3	8421169	94	6488
2025-01-05 14:45:47.51	203.57	75.31	-38.1	-40.5	3.3	8397926	94	6454
2025-01-05 14:45:47.71	203.83	75.38	-38.2	-42.0	3.6	8412048	94	7630
2025-01-05 14:45:47.91	204.09	75.45	-38.2	-41.2	3.4	8439731	94	6950
2025-01-05 14:45:48.11	204.36	75.53	-38.2	-40.6	3.3	8413730	94	6479
2025-01-05 14:45:48.31	204.63	75.60	-38.2	-40.5	3.3	8398326	94	6434
2025-01-05 14:45:48.51	204.90	75.67	-38.2	-42.0	3.6	8417987	94	7677
2025-01-05 14:45:48.71	205.18	75.74	-38.4	-41.5	3.5	8417987	95	6994
2025-01-05 14:45:48.91	205.46	75.82	-38.4	-40.6	3.3	8375049	95	6337
2025-01-05 14:45:49.11	205.74	75.89	-38.4	-40.5	3.3	8405628	95	6286
2025-01-05 14:45:49.31	206.02	75.96	-38.2	-42.0	3.6	8393989	94	7697
2025-01-05 14:45:49.51	206.31	76.03	-38.2	-42.0	3.6	8382911	94	7634
2025-01-05 14:45:49.72	206.62	76.10	-38.2	-40.9	3.4	8435668	94	6750
2025-01-05 14:45:49.92	206.91	76.17	-38.2	-40.6	3.3	8402263	94	6485
2025-01-05 14:45:50.12	207.21	76.24	-38.2	-40.6	3.3	8379226	94	6520
2025-01-05 14:45:50.32	207.51	76.31	-38.2	-42.1	3.6	8379226	94	7723
2025-01-05 14:45:50.52	207.81	76.38	-38.2	-41.2	3.4	8434890	94	6936
2025-01-05 14:45:50.72	208.12	76.45	-38.2	-40.6	3.3	8427486	94	6489
2025-01-05 14:45:50.92	208.43	76.52	-38.2	-40.6	3.3	8393165	94	6499
2025-01-05 14:45:51.12	208.74	76.59	-38.2	-42.1	3.6	8400844	94	7744
2025-01-05 14:45:51.32	209.05	76.66	-38.4	-41.6	3.5	8453521	95	7063
2025-01-05 14:45:51.52	209.37	76.72	-38.4	-40.7	3.4	8361511	95	6382
2025-01-05 14:45:51.72	209.70	76.79	-38.5	-40.7	3.3	8392410	95	6355
2025-01-05 14:45:51.93	210.04	76.86	-38.2	-42.0	3.6	8350261	94	7684
2025-01-05 14:45:52.13	210.37	76.93	-38.2	-41.9	3.6	8350261	94	7612
2025-01-05 14:45:52.33	210.70	76.99	-38.1	-40.8	3.4	8437614	94	6694
2025-01-05 14:45:52.53	211.04	77.06	-38.2	-40.5	3.3	8413055	94	6444
2025-01-05 14:45:52.73	211.38	77.12	-38.2	-42.0	3.6	8387008	94	7648
2025-01-05 14:45:52.93	211.72	77.19	-38.1	-41.9	3.6	8418720	94	7624
2025-01-05 14:45:53.13	212.07	77.25	-38.1	-40.9	3.4	8429889	94	6766
2025-01-05 14:45:53.33	212.42	77.32	-38.1	-40.5	3.3	8408569	94	6448
2025-01-05 14:45:53.54	212.79	77.38	-38.2	-40.6	3.3	8388324	94	6490
2025-01-05 14:45:53.74	213.15	77.45	-38.2	-42.0	3.6	8388324	94	7655
2025-01-05 14:45:53.94	213.51	77.51	-38.1	-41.2	3.4	8440841	94	6987
2025-01-05 14:45:54.14	213.88	77.57	-38.1	-40.6	3.3	8435508	94	6516
2025-01-05 14:45:54.34	214.25	77.63	-38.1	-40.5	3.3	8390979	94	6490
2025-01-05 14:45:54.54	214.62	77.69	-38.1	-41.9	3.6	8396244	94	7607
2025-01-05 14:45:54.74	215.00	77.76	-38.2	-41.4	3.5	8444023	94	7181
2025-01-05 14:45:54.94	215.38	77.82	-38.1	-40.5	3.3	8419429	94	6482
2025-01-05 14:45:55.14	215.76	77.87	-38.1	-40.5	3.3	8396186	94	6478
2025-01-05 14:45:55.34	216.15	77.93	-38.1	-42.0	3.6	8417495	94	7664
2025-01-05 14:45:55.54	216.54	77.99	-38.3	-41.7	3.6	8417495	95	7256
2025-01-05 14:45:55.74	216.94	78.05	-38.3	-40.6	3.4	8374740	95	6404
2025-01-05 14:45:55.95	217.36	78.11	-38.3	-40.3	3.3	8416763	95	6188
2025-01-05 14:45:56.15	217.76	78.17	-38.3	-40.4	3.3	8384685	95	6243
2025-01-05 14:45:56.35	218.17	78.22	-38.1	-41.9	3.6	8352424	94	7586
2025-01-05 14:45:56.55	218.58	78.28	-38.1	-41.2	3.5	8449848	94	7005
2025-01-05 14:45:56.75	219.00	78.34	-38.1	-40.5	3.3	8421867	94	6460
2025-01-05 14:45:56.95	219.42	78.39	-38.1	-40.4	3.3	8384044	94	6445
2025-01-05 14:45:57.15	219.84	78.44	-38.1	-41.8	3.6	8384044	94	7534
2025-01-05 14:45:57.35	220.27	78.50	-38.1	-40.9	3.4	8431755	94	6839
2025-01-05 14:45:57.55	220.70	78.55	-38.1	-40.3	3.3	8431755	94	6367
2025-01-05 14:45:57.75	221.14	78.60	-38.1	-40.3	3.3	8401920	94	6362
2025-01-05 14:45:57.96	221.60	78.66	-38.1	-41.8	3.6	8379295	94	7548
2025-01-05 14:45:58.16	222.05	78.71	-38.1	-41.3	3.5	8436904	94	7102
2025-01-05 14:45:58.36	222.50	78.76	-38.1	-40.5	3.3	8425895	94	6488
2025-01-05 14:45:58.56	222.95	78.81	-38.1	-40.2	3.3	8398670	94	6313
2025-01-05 14:45:58.76	223.41	78.86	-38.1	-41.8	3.6	8400478	94	7527
2025-01-05 14:45:58.96	223.87	78.90	-38.1	-41.6	3.6	8440143	94	7339
2025-01-05 14:45:59.16	224.33	78.95	-38.1	-40.6	3.4	8440143	94	6559
2025-01-05 14:45:59.36	224.80	79.00	-38.1	-40.3	3.3	8428504	94	6380
2025-01-05 14:45:59.56	225.28	79.05	-38.1	-41.8	3.6	8396873	94	7547
2025-01-05 14:45:59.76	225.75	79.09	-38.1	-41.7	3.6	8411212	94	7506
2025-01-05 14:45:59.97	226.26	79.14	-38.1	-40.7	3.4	8428653	94	6684
2025-01-05 14:46:00.17	226.74	79.18	-38.1	-40.4	3.3	8412071	94	6417
2025-01-05 14:46:00.37	227.23	79.22	-38.1	-40.4	3.3	8394287	94	6420
2025-01-05 14:46:00.57	227.73	79.27	-38.1	-41.8	3.6	8419990	94	7545
2025-01-05 14:46:00.77	228.23	79.31	-38.4	-41.1	3.5	8373836	95	6759
2025-01-05 14:46:00.97	228.73	79.35	-38.3	-40.4	3.3	8373836	95	6214
2025-01-05 14:46:01.17	229.23	79.39	-38.3	-40.4	3.3	8409416	95	6228
2025-01-05 14:46:01.37	229.74	79.43	-38.1	-41.8	3.6	8393669	94	7597
2025-01-05 14:46:01.57	230.25	79.47	-38.6	-42.3	1.5	8376777	95	7546
2025-01-05 14:46:01.77	230.77	79.50	-38.0	-40.7	3.4	8375049	94	6659
2025-01-05 14:46:01.98	231.32	79.54	-38.0	-40.2	3.3	8402400	94	6327
2025-01-05 14:46:02.18	231.84	79.58	-38.0	-40.3	3.3	8387866	94	6365
2025-01-05 14:46:02.38	232.37	79.61	-38.3	-41.8	3.6	8374694	95	7377
2025-01-05 14:46:02.58	232.90	79.65	-38.3	-41.2	3.4	8374694	95	6844
2025-01-05 14:46:02.78	233.44	79.68	-38.3	-40.4	3.3	8449253	95	6267
2025-01-05 14:46:02.98	233.98	79.71	-38.3	-40.4	3.3	8404380	95	6261
2025-01-05 14:46:03.18	234.52	79.74	-38.3	-41.9	3.6	8392776	95	7406
2025-01-05 14:46:03.38	235.06	79.78	-38.3	-41.4	3.5	8444400	95	6992
2025-01-05 14:46:03.59	235.64	79.81	-38.3	-40.6	3.3	8424957	95	6371
2025-01-05 14:46:03.79	236.19	79.83	-38.3	-40.5	3.3	8396152	95	6293
2025-01-05 14:46:03.99	236.75	79.86	-38.3	-41.9	3.6	8414794	95	7435
2025-01-05 14:46:04.19	237.30	79.89	-38.3	-41.7	3.6	8414794	95	7269
2025-01-05 14:46:04.39	237.86	79.92	-38.4	-40.8	3.4	8446517	95	6501
2025-01-05 14:46:04.59	238.43	79.94	-38.3	-40.5	3.3	8408706	95	6287
2025-01-05 14:46:04.79	239.00	79.96	-38.3	-41.9	3.6	8400260	95	7407
2025-01-05 14:46:04.99	239.56	79.99	-38.3	-41.9	3.6	8418159	95	7433
2025-01-05 14:46:05.19	240.14	80.01	-38.4	-40.9	3.4	8437774	95	6603
2025-01-05 14:46:05.39	240.71	80.03	-38.3	-40.5	3.3	8413719	95	6284
2025-01-05 14:46:05.59	241.29	80.05	-38.4	-40.5	3.3	8396747	95	6267
2025-01-05 14:46:05.80	241.90	80.07	-38.4	-41.9	3.6	8436012	95	7440
2025-01-05 14:46:06.00	242.48	80.09	-38.4	-41.1	3.4	8436012	95	6785
2025-01-05 14:46:06.20	243.06	80.11	-38.3	-40.5	3.3	8442031	95	6280
2025-01-05 14:46:06.40	243.65	80.12	-38.4	-40.5	3.3	8400638	95	6287
2025-01-05 14:46:06.60	244.24	80.14	-38.4	-42.1	3.6	8391197	95	7491
2025-01-05 14:46:06.80	244.82	80.15	-38.4	-41.4	3.5	8447261	95	7001
2025-01-05 14:46:07.00	245.42	80.16	-38.4	-40.7	3.3	8420597	95	6403
2025-01-05 14:46:07.20	246.01	80.18	-38.4	-40.6	3.3	8398647	95	6327
2025-01-05 14:46:07.40	246.60	80.19	-38.4	-41.9	3.6	8420677	95	7428
2025-01-05 14:46:07.60	247.20	80.20	-38.3	-41.4	3.5	8444355	95	6982
2025-01-05 14:46:07.81	247.82	80.21	-38.5	-40.7	3.3	8400272	95	6351
2025-01-05 14:46:08.01	248.42	80.21	-38.5	-40.6	3.3	8400272	95	6261
2025-01-05 14:46:08.21	249.02	80.22	-38.4	-42.0	3.6	8393840	95	7434
2025-01-05 14:46:08.41	249.62	80.23	-38.4	-41.7	3.6	8430244	95	7184
2025-01-05 14:46:08.61	250.22	80.23	-38.4	-40.7	3.3	8432670	95	6401
2025-01-05 14:46:08.81	250.82	80.23	-38.4	-40.5	3.3	8415401	95	6251
2025-01-05 14:46:09.01	251.42	80.24	-38.4	-42.0	3.6	8390522	95	7412
2025-01-05 14:46:09.21	252.02	80.24	-38.4	-41.9	3.6	8420425	95	7368
2025-01-05 14:46:09.41	252.62	80.24	-38.4	-40.8	3.4	8435131	95	6505
2025-01-05 14:46:09.61	253.22	80.24	-38.4	-40.4	3.3	8435131	95	6237
2025-01-05 14:46:09.81	253.82	80.24	-38.4	-40.4	3.3	8400146	95	6233
2025-01-05 14:46:10.02	254.45	80.23	-38.3	-41.7	3.6	8386917	95	7285
2025-01-05 14:46:10.22	255.05	80.23	-38.4	-41.2	3.5	8464656	95	6789
2025-01-05 14:46:10.42	255.65	80.22	-38.4	-40.4	3.3	8373058	95	6222
2025-01-05 14:46:10.62	256.25	80.22	-38.4	-40.3	3.3	8395042	95	6166
2025-01-05 14:46:10.82	256.85	80.21	-38.3	-41.6	3.6	8365150	95	7230
2025-01-05 14:46:11.02	257.44	80.20	-38.3	-41.3	3.5	8454036	95	6957
2025-01-05 14:46:11.22	258.04	80.19	-38.3	-40.4	3.3	8418823	95	6275
2025-01-05 14:46:11.42	258.63	80.18	-38.3	-40.3	3.3	8418823	95	6212
2025-01-05 14:46:11.62	259.23	80.17	-38.3	-41.6	3.6	8388439	95	7181
2025-01-05 14:46:11.83	259.85	80.16	-38.3	-41.4	3.6	8420070	95	7078
2025-01-05 14:46:12.03	260.44	80.15	-38.3	-40.5	3.4	8442249	95	6320
2025-01-05 14:46:12.23	261.03	80.13	-38.3	-40.3	3.3	8404701	95	6185
2025-01-05 14:46:12.43	261.61	80.12	-38.3	-41.8	3.6	8384410	95	7334
2025-01-05 14:46:12.63	262.20	80.10	-38.3	-41.8	3.6	8440647	95	7362
2025-01-05 14:46:12.83	262.78	80.08	-38.3	-40.8	3.4	8435428	95	6542
2025-01-05 14:46:13.03	263.36	80.06	-38.3	-40.4	3.3	8435428	95	6258
2025-01-05 14:46:13.23	263.94	80.05	-38.3	-40.5	3.3	8390625	95	6285
2025-01-05 14:46:13.43	264.52	80.03	-38.3	-41.9	3.6	8387237	95	7428
2025-01-05 14:46:13.64	265.12	80.00	-38.4	-41.2	3.4	8444126	95	6801
2025-01-05 14:46:13.84	265.69	79.98	-38.4	-40.5	3.3	8413913	95	6320
2025-01-05 14:46:14.04	266.26	79.96	-38.4	-40.5	3.3	8408157	95	6276
2025-01-05 14:46:14.24	266.83	79.93	-38.4	-42.0	3.6	8402629	95	7460
2025-01-05 14:46:14.44	267.39	79.91	-38.4	-41.4	3.5	8438838	95	6994
2025-01-05 14:46:14.64	267.95	79.88	-38.4	-40.6	3.3	8422622	95	6368
2025-01-05 14:46:14.84	268.51	79.85	-38.4	-40.6	3.3	8422622	95	6358
2025-01-05 14:46:15.04	269.06	79.83	-38.4	-42.0	3.6	8390956	95	7469
2025-01-05 14:46:15.24	269.61	79.80	-38.4	-41.7	3.6	8432762	95	7251
2025-01-05 14:46:15.44	270.16	79.77	-38.4	-40.8	3.4	8438049	95	6482
2025-01-05 14:46:15.65	270.73	79.74	-38.4	-40.5	3.3	8402000	95	6287
2025-01-05 14:46:15.85	271.27	79.70	-38.4	-41.9	3.6	8394985	95	7432
2025-01-05 14:46:16.05	271.81	79.67	-38.4	-42.0	3.6	8440406	95	7448
2025-01-05 14:46:16.25	272.34	79.64	-38.4	-40.9	3.4	8436916	95	6598
2025-01-05 14:46:16.45	272.87	79.60	-38.3	-40.5	3.3	8436916	95	6304
2025-01-05 14:46:16.65	273.40	79.57	-38.4	-40.5	3.3	8395385	95	6291
2025-01-05 14:46:16.85	273.92	79.53	-38.3	-41.9	3.6	8418273	95	7416
2025-01-05 14:46:17.05	274.44	79.49	-38.4	-41.1	3.4	8442844	95	6707
2025-01-05 14:46:17.25	274.96	79.46	-38.4	-40.6	3.3	8363136	95	6335
2025-01-05 14:46:17.45	275.47	79.42	-38.4	-40.6	3.3	8401153	95	6338
2025-01-05 14:46:17.65	275.98	79.38	-38.4	-42.0	3.6	8336860	95	7438
2025-01-05 14:46:17.86	276.50	79.34	-38.4	-41.6	3.5	8434650	95	7142
2025-01-05 14:46:18.06	277.00	79.30	-38.4	-40.7	3.3	8439319	95	6434
2025-01-05 14:46:18.26	277.50	79.25	-38.4	-40.6	3.3	8388828	95	6339
2025-01-05 14:46:18.46	277.99	79.21	-38.3	-42.0	3.6	8388828	95	7516
2025-01-05 14:46:18.66	278.48	79.17	-38.4	-42.0	3.6	8392307	95	7523
2025-01-05 14:46:18.86	278.97	79.12	-38.3	-40.8	3.4	8394149	95	6560
2025-01-05 14:46:19.06	279.45	79.08	-38.3	-40.3	3.3	8426410	95	6216
2025-01-05 14:46:19.26	279.92	79.03	-38.3	-40.3	3.3	8398315	95	6231
2025-01-05 14:46:19.46	280.39	78.99	-38.3	-41.8	3.6	8359451	95	7377
2025-01-05 14:46:19.66	280.86	78.94	-38.4	-41.4	3.5	8376514	95	6962
2025-01-05 14:46:19.86	281.33	78.89	-38.4	-40.5	3.3	8424797	95	6294
2025-01-05 14:46:20.07	281.81	78.84	-38.4	-40.4	3.3	8386058	95	6227
2025-01-05 14:46:20.27	282.26	78.79	-38.0	-41.7	3.6	8386058	94	7504
2025-01-05 14:46:20.47	282.72	78.74	-38.0	-41.6	3.6	8358329	94	7423
2025-01-05 14:46:20.67	283.16	78.69	-38.0	-40.4	3.4	8446037	94	6503
2025-01-05 14:46:20.87	283.61	78.64	-38.0	-40.2	3.3	8414611	94	6303
2025-01-05 14:46:21.07	284.05	78.59	-38.0	-40.1	3.3	8389411	94	6255
2025-01-05 14:46:21.27	284.48	78.54	-38.0	-41.6	3.6	8423229	94	7416
2025-01-05 14:46:21.47	284.91	78.48	-38.1	-41.0	3.5	8386116	94	6890
2025-01-05 14:46:21.67	285.34	78.43	-38.1	-40.2	3.3	8409553	94	6304
2025-01-05 14:46:21.87	285.76	78.38	-38.1	-40.2	3.3	8409553	94	6320
2025-01-05 14:46:22.08	286.20	78.32	-38.0	-41.6	3.6	8397697	94	7418
2025-01-05 14:46:22.28	286.62	78.26	-38.0	-41.1	3.5	8378757	94	7007
2025-01-05 14:46:22.48	287.03	78.21	-38.0	-40.2	3.3	8433746	94	6334
2025-01-05 14:46:22.68	287.44	78.15	-38.0	-40.1	3.3	8391609	94	6256
2025-01-05 14:46:22.88	287.84	78.09	-38.0	-41.6	3.6	8383037	94	7390
2025-01-05 14:46:23.08	288.24	78.04	-38.3	-41.6	3.6	8436744	95	7207
2025-01-05 14:46:23.28	288.63	77.98	-38.3	-40.5	3.4	8369338	95	6352
2025-01-05 14:46:23.48	289.02	77.92	-38.3	-40.3	3.3	8403774	95	6197
2025-01-05 14:46:23.68	289.41	77.86	-38.3	-40.3	3.3	8403774	95	6167
2025-01-05 14:46:23.88	289.79	77.80	-38.1	-41.8	3.6	8324043	94	7531
2025-01-05 14:46:24.08	290.17	77.74	-38.1	-41.1	3.4	8454334	94	6982
2025-01-05 14:46:24.29	290.57	77.68	-38.1	-40.3	3.3	8427841	94	6353
2025-01-05 14:46:24.49	290.94	77.62	-38.0	-40.3	3.3	8397628	94	6347
2025-01-05 14:46:24.69	291.31	77.55	-38.1	-41.7	3.6	8404380	94	7463
2025-01-05 14:46:24.89	291.67	77.49	-38.0	-41.1	3.5	8441654	94	6978
2025-01-05 14:46:25.09	292.03	77.43	-38.0	-40.3	3.3	8411235	94	6398
2025-01-05 14:46:25.29	292.39	77.37	-38.1	-40.3	3.3	8411235	94	6342
2025-01-05 14:46:25.49	292.74	77.30	-38.1	-41.7	3.6	8393028	94	7516
2025-01-05 14:46:25.69	293.09	77.24	-38.0	-41.5	3.6	8422016	94	7309
2025-01-05 14:46:25.89	293.44	77.17	-38.0	-40.4	3.3	8441173	94	6486
2025-01-05 14:46:26.10	293.80	77.11	-38.1	-40.2	3.3	8409290	94	6307
2025-01-05 14:46:26.30	294.14	77.04	-38.1	-41.7	3.6	8384582	94	7468
2025-01-05 14:46:26.50	294.47	76.98	-38.0	-41.6	3.6	8423126	94	7460
2025-01-05 14:46:26.70	294.80	76.91	-38.0	-40.5	3.4	8428276	94	6551
2025-01-05 14:46:26.90	295.13	76.84	-38.0	-40.2	3.3	8428276	94	6312
2025-01-05 14:46:27.10	295.46	76.78	-38.1	-40.2	3.3	8397834	94	6270
2025-01-05 14:46:27.30	295.78	76.71	-38.1	-41.6	3.6	8394859	94	7420
2025-01-05 14:46:27.50	296.09	76.64	-38.1	-40.6	3.4	8444263	94	6604
2025-01-05 14:46:27.70	296.41	76.57	-38.0	-40.2	3.3	8416980	94	6288
2025-01-05 14:46:27.91	296.74	76.50	-38.1	-40.3	3.3	8403373	94	6345
2025-01-05 14:46:28.11	297.05	76.43	-38.1	-41.7	3.6	8406967	94	7490
2025-01-05 14:46:28.31	297.35	76.36	-38.1	-40.9	3.4	8431251	94	6850
2025-01-05 14:46:28.51	297.65	76.30	-38.1	-40.2	3.3	8401771	94	6320
2025-01-05 14:46:28.71	297.95	76.23	-38.1	-40.3	3.3	8385223	94	6357
2025-01-05 14:46:28.91	298.25	76.16	-38.1	-41.7	3.6	8424842	94	7473
2025-01-05 14:46:29.11	298.54	76.09	-38.1	-41.1	3.5	8424842	94	7008
2025-01-05 14:46:29.31	298.83	76.01	-38.1	-40.3	3.3	8433963	94	6371
2025-01-05 14:46:29.51	299.12	75.94	-38.1	-40.2	3.3	8399013	94	6278
2025-01-05 14:46:29.71	299.40	75.87	-38.0	-41.6	3.6	8388061	94	7388
2025-01-05 14:46:29.91	299.68	75.80	-38.0	-41.4	3.6	8433860	94	7238
2025-01-05 14:46:30.12	299.97	75.73	-38.1	-40.5	3.4	8427738	94	6489
2025-01-05 14:46:30.32	300.25	75.65	-38.0	-40.1	3.3	8388931	94	6257
2025-01-05 14:46:30.52	300.52	75.58	-38.0	-41.5	3.6	8395076	94	7358
2025-01-05 14:46:30.72	300.79	75.51	-38.0	-41.5	3.6	8395076	94	7368
2025-01-05 14:46:30.92	301.05	75.44	-38.0	-40.5	3.4	8436733	94	6537
2025-01-05 14:46:31.12	301.32	75.36	-38.0	-40.1	3.3	8420883	94	6271
2025-01-05 14:46:31.32	301.58	75.29	-38.0	-40.0	3.3	8391437	94	6167
2025-01-05 14:46:31.52	301.83	75.22	-38.0	-41.6	3.6	8416156	94	7448
2025-01-05 14:46:31.72	302.09	75.14	-38.3	-41.1	3.5	8378906	95	6725
2025-01-05 14:46:31.93	302.36	75.06	-38.3	-40.3	3.3	8417999	95	6141
2025-01-05 14:46:32.13	302.61	74.99	-38.4	-40.3	3.3	8399311	95	6177
2025-01-05 14:46:32.33	302.85	74.92	-38.0	-41.7	3.6	8399311	94	7480
2025-01-05 14:46:32.53	303.10	74.84	-38.1	-41.3	3.5	8370529	94	7116
2025-01-05 14:46:32.73	303.34	74.77	-38.1	-40.4	3.3	8442569	94	6471
2025-01-05 14:46:32.93	303.58	74.69	-38.1	-40.3	3.3	8396118	94	6392
2025-01-05 14:46:33.13	303.82	74.61	-38.1	-41.9	3.6	8398612	94	7607
2025-01-05 14:46:33.33	304.05	74.54	-38.1	-41.9	3.6	8410320	94	7618
2025-01-05 14:46:33.53	304.29	74.46	-38.1	-40.9	3.4	8433963	94	6744
2025-01-05 14:46:33.73	304.52	74.39	-38.1	-40.4	3.3	8405044	94	6433
2025-01-05 14:46:33.94	304.76	74.31	-38.1	-40.5	3.3	8397605	94	6484
2025-01-05 14:46:34.14	304.98	74.23	-38.1	-41.9	3.6	8397605	94	7647
2025-01-05 14:46:34.34	305.21	74.15	-38.1	-41.0	3.4	8444080	94	6864
2025-01-05 14:46:34.54	305.43	74.08	-38.1	-40.4	3.3	8443531	94	6428
2025-01-05 14:46:34.74	305.65	74.00	-38.1	-40.4	3.3	8400741	94	6421
2025-01-05 14:46:34.94	305.86	73.92	-38.1	-41.8	3.6	8398200	94	7541
2025-01-05 14:46:35.14	306.08	73.85	-38.1	-41.2	3.5	8442363	94	7068
2025-01-05 14:46:35.34	306.29	73.77	-38.1	-40.4	3.3	8421627	94	6428
2025-01-05 14:46:35.54	306.50	73.69	-38.0	-40.3	3.3	8388359	94	6387
2025-01-05 14:46:35.74	306.71	73.61	-38.1	-41.7	3.6	8388359	94	7450
2025-01-05 14:46:35.95	306.93	73.53	-38.3	-41.6	3.6	8411830	95	7180
2025-01-05 14:46:36.15	307.13	73.45	-38.3	-40.5	3.4	8388027	95	6334
2025-01-05 14:46:36.35	307.33	73.37	-38.3	-40.2	3.3	8409931	95	6122
2025-01-05 14:46:36.55	307.53	73.30	-38.3	-40.3	3.3	8397548	95	6217
2025-01-05 14:46:36.75	307.73	73.22	-38.3	-41.8	3.6	8352241	95	7328
2025-01-05 14:46:36.95	307.93	73.14	-38.3	-41.1	3.5	8437431	95	6746
2025-01-05 14:46:37.15	308.12	73.06	-38.3	-40.5	3.3	8403430	95	6299
2025-01-05 14:46:37.35	308.31	72.98	-38.4	-40.4	3.3	8390567	95	6233
2025-01-05 14:46:37.55	308.50	72.90	-38.4	-42.0	3.6	8422691	95	7451
2025-01-05 14:46:37.75	308.69	72.82	-38.4	-41.2	3.5	8372840	95	6799
2025-01-05 14:46:37.95	308.88	72.74	-38.5	-40.6	3.3	8372840	95	6303
2025-01-05 14:46:38.16	309.07	72.66	-38.4	-40.6	3.3	8412174	95	6313
2025-01-05 14:46:38.36	309.26	72.58	-38.2	-42.0	3.6	8386024	94	7663
2025-01-05 14:46:38.56	309.44	72.50	-38.2	-41.6	3.5	8383460	94	7285
2025-01-05 14:46:38.76	309.62	72.42	-38.2	-40.8	3.4	8429912	94	6651
2025-01-05 14:46:38.96	309.80	72.34	-38.2	-40.6	3.3	8393600	94	6506
2025-01-05 14:46:39.16	309.97	72.26	-38.2	-42.0	3.6	8390064	94	7612
2025-01-05 14:46:39.36	310.15	72.18	-38.2	-42.0	3.6	8444950	94	7686
2025-01-05 14:46:39.56	310.32	72.10	-38.4	-41.1	3.4	8444950	95	6695
2025-01-05 14:46:39.76	310.49	72.02	-38.4	-40.6	3.3	8365665	95	6350
2025-01-05 14:46:39.97	310.67	71.94	-38.4	-40.7	3.3	8394893	95	6353
2025-01-05 14:46:40.17	310.84	71.86	-38.2	-42.0	3.6	8395099	94	7683
2025-01-05 14:46:40.37	311.01	71.78	-38.4	-41.8	3.6	8395442	95	7243
2025-01-05 14:46:40.57	311.17	71.70	-38.4	-40.8	3.3	8377796	95	6460
2025-01-05 14:46:40.77	311.34	71.62	-38.4	-40.7	3.3	8400695	95	6355
2025-01-05 14:46:40.97	311.50	71.53	-38.2	-42.0	3.6	8344734	94	7643
2025-01-05 14:46:41.17	311.66	71.45	-38.2	-42.0	3.6	8344734	94	7678
2025-01-05 14:46:41.37	311.82	71.37	-38.4	-41.2	3.4	8442295	95	6750
2025-01-05 14:46:41.57	311.98	71.29	-38.4	-40.5	3.3	8374774	95	6279
2025-01-05 14:46:41.78	312.14	71.21	-38.4	-40.6	3.3	8391574	95	6315
2025-01-05 14:46:41.98	312.29	71.13	-38.1	-41.9	3.6	8338668	94	7620
2025-01-05 14:46:42.18	312.45	71.05	-38.1	-41.5	3.5	8442844	94	7248
2025-01-05 14:46:42.38	312.60	70.96	-38.2	-40.7	3.4	8419887	94	6614
2025-01-05 14:46:42.58	312.75	70.88	-38.1	-40.5	3.3	8378311	94	6470
2025-01-05 14:46:42.78	312.90	70.80	-38.2	-42.0	3.6	8408626	94	7619
2025-01-05 14:46:42.98	313.05	70.72	-38.1	-42.0	3.6	8408626	94	7667
2025-01-05 14:46:43.18	313.19	70.64	-38.4	-41.1	3.4	8425048	95	6690
2025-01-05 14:46:43.38	313.34	70.56	-38.4	-40.5	3.3	8387454	95	6277
2025-01-05 14:46:43.58	313.48	70.48	-38.4	-40.5	3.3	8397159	95	6258
2025-01-05 14:46:43.79	313.63	70.39	-38.1	-42.0	3.6	8356636	94	7693
2025-01-05 14:46:43.99	313.78	70.31	-38.3	-41.2	3.5	8370288	95	6881
2025-01-05 14:46:44.19	313.92	70.23	-38.3	-40.4	3.3	8428001	95	6265
2025-01-05 14:46:44.39	314.05	70.15	-38.3	-40.4	3.3	8383277	95	6241
2025-01-05 14:46:44.59	314.19	70.06	-38.1	-42.1	3.6	8383277	94	7723

#Closed at: 2025-01-05 14:46:44