passes_logs/2026/01/29/planumMaritime01/planumMaritime01__20260129_013517_METEOR-M2_4_rec.log

#Pass ID: 20260129_013517_METEOR-M2 4
#Satellite: METEOR-M2 4
#Configuration: METEOR-M2 4
#Start time: 2026-01-29 01:35:22.780940

#LorettStation: 1.0.0 05.05.2024
#Station: planumMaritime01
#Location: 37.49445 lon 55.92918 lat
#TLE: 1 59051U 24039A   26027.99098058  .00000074  00000+0  53046-4 0  9995
#TLE: 2 59051  98.6834 349.1906 0006417 208.3204 151.7626 14.22410257 99339

#Time	Az	El	Level	SNR
2026-01-29 01:35:24.952628	11.1	10.2	-78.4	0.0
2026-01-29 01:35:26.076271	11.0	10.3	-77.7	0.0
2026-01-29 01:35:27.199348	11.0	10.4	-77.5	0.0
2026-01-29 01:35:28.320666	10.9	10.5	-74.3	0.0
2026-01-29 01:35:29.447411	10.9	10.6	-78.5	0.0
2026-01-29 01:35:30.573329	10.9	10.7	-76.5	0.0
2026-01-29 01:35:31.699094	10.8	10.8	-76.3	0.0
2026-01-29 01:35:32.821208	10.8	10.9	-75.7	0.0
2026-01-29 01:35:33.944322	10.7	11.0	-76.0	0.0
2026-01-29 01:35:35.067917	10.7	11.1	-75.8	0.3
2026-01-29 01:35:36.192109	10.6	11.2	-75.8	1.8
2026-01-29 01:35:37.316197	10.6	11.3	-75.7	0.0
2026-01-29 01:35:38.441258	10.6	11.4	-74.8	0.0
2026-01-29 01:35:39.566286	10.5	11.5	-75.4	0.7
2026-01-29 01:35:40.689809	10.5	11.6	-75.9	2.1
2026-01-29 01:35:41.815028	10.4	11.7	-75.5	0.9
2026-01-29 01:35:42.941086	10.4	11.8	-74.7	0.0
2026-01-29 01:35:44.063496	10.3	11.9	-75.9	1.5
2026-01-29 01:35:45.188331	10.3	12.0	-76.2	1.7
2026-01-29 01:35:46.311726	10.2	12.1	-75.1	0.0
2026-01-29 01:35:47.436393	10.2	12.2	-76.2	1.5
2026-01-29 01:35:48.563638	10.1	12.3	-74.9	0.0
2026-01-29 01:35:49.687429	10.1	12.4	-76.0	0.0
2026-01-29 01:35:50.811923	10.1	12.5	-75.9	0.3
2026-01-29 01:35:51.936395	10.0	12.6	-75.8	0.0
2026-01-29 01:35:53.059598	10.0	12.7	-72.7	0.0
2026-01-29 01:35:54.185113	9.9	12.8	-76.2	0.0
2026-01-29 01:35:55.307485	9.9	12.9	-75.2	2.0
2026-01-29 01:35:56.431841	9.8	13.0	-75.3	1.6
2026-01-29 01:35:57.556924	9.8	13.1	-75.9	0.0
2026-01-29 01:35:58.682200	9.7	13.3	-74.9	0.0
2026-01-29 01:35:59.809571	9.7	13.4	-76.4	4.5
2026-01-29 01:36:00.935992	9.6	13.5	-75.9	3.5
2026-01-29 01:36:02.059101	9.6	13.6	-75.6	0.0
2026-01-29 01:36:03.185385	9.5	13.7	-74.0	2.7
2026-01-29 01:36:04.310081	9.5	13.8	-77.0	4.1
2026-01-29 01:36:05.432507	9.4	13.9	-76.2	3.5
2026-01-29 01:36:06.556117	9.3	14.0	-75.1	0.0
2026-01-29 01:36:07.680729	9.3	14.1	-75.1	1.4
2026-01-29 01:36:08.804795	9.2	14.3	-75.0	2.9
2026-01-29 01:36:09.930863	9.2	14.4	-76.5	2.3
2026-01-29 01:36:11.054042	9.1	14.5	-73.9	2.6
2026-01-29 01:36:12.178448	9.1	14.6	-74.5	3.0
2026-01-29 01:36:13.300560	9.0	14.7	-75.5	0.0
2026-01-29 01:36:14.424786	9.0	14.8	-75.5	2.8
2026-01-29 01:36:15.548883	8.9	14.9	-76.0	5.1
2026-01-29 01:36:16.672845	8.8	15.1	-75.6	3.4
2026-01-29 01:36:17.797721	8.8	15.2	-75.5	1.3
2026-01-29 01:36:18.920902	8.7	15.3	-75.1	1.0
2026-01-29 01:36:20.042400	8.7	15.4	-75.2	2.4
2026-01-29 01:36:21.165952	8.6	15.5	-74.8	0.8
2026-01-29 01:36:22.290664	8.6	15.6	-74.1	3.4
2026-01-29 01:36:23.416375	8.5	15.8	-74.3	1.9
2026-01-29 01:36:24.540423	8.4	15.9	-75.6	0.9
2026-01-29 01:36:25.664707	8.4	16.0	-75.3	2.7
2026-01-29 01:36:26.788974	8.3	16.1	-76.8	2.4
2026-01-29 01:36:27.913865	8.2	16.2	-75.8	3.6
2026-01-29 01:36:29.036956	8.2	16.4	-76.4	5.6
2026-01-29 01:36:30.160773	8.1	16.5	-75.7	2.1
2026-01-29 01:36:31.283863	8.1	16.6	-76.3	3.5
2026-01-29 01:36:32.408867	8.0	16.7	-75.1	3.1
2026-01-29 01:36:33.531334	7.9	16.9	-75.9	0.2
2026-01-29 01:36:34.654173	7.9	17.0	-74.8	0.1
2026-01-29 01:36:35.780328	7.8	17.1	-74.0	0.0
2026-01-29 01:36:36.904537	7.7	17.2	-75.5	3.9
2026-01-29 01:36:38.028976	7.7	17.4	-74.3	0.0
2026-01-29 01:36:39.152714	7.6	17.5	-74.5	0.0
2026-01-29 01:36:40.276789	7.5	17.6	-74.7	0.0
2026-01-29 01:36:41.399803	7.5	17.8	-74.8	0.1
2026-01-29 01:36:42.523106	7.4	17.9	-75.3	3.9
2026-01-29 01:36:43.647005	7.3	18.0	-75.0	2.8
2026-01-29 01:36:44.769733	7.2	18.1	-75.0	0.0
2026-01-29 01:36:45.893985	7.2	18.3	-75.2	0.0
2026-01-29 01:36:47.018900	7.1	18.4	-75.6	0.5
2026-01-29 01:36:48.141993	7.0	18.5	-73.7	0.0
2026-01-29 01:36:49.265713	6.9	18.7	-74.8	2.5
2026-01-29 01:36:50.389890	6.9	18.8	-75.3	2.9
2026-01-29 01:36:51.512487	6.8	19.0	-75.7	5.4
2026-01-29 01:36:52.634596	6.7	19.1	-75.0	2.1
2026-01-29 01:36:53.758570	6.6	19.2	-74.7	5.0
2026-01-29 01:36:54.884662	6.6	19.4	-74.7	1.0
2026-01-29 01:36:56.007657	6.5	19.5	-75.2	1.2
2026-01-29 01:36:57.133013	6.4	19.6	-74.4	1.1
2026-01-29 01:36:58.256955	6.3	19.8	-75.5	4.7
2026-01-29 01:36:59.380041	6.2	19.9	-75.7	4.1
2026-01-29 01:37:00.504273	6.2	20.1	-75.8	4.9
2026-01-29 01:37:01.626506	6.1	20.2	-75.2	2.9
2026-01-29 01:37:02.752013	6.0	20.3	-75.5	3.8
2026-01-29 01:37:03.878679	5.9	20.5	-75.1	1.7
2026-01-29 01:37:05.003714	5.8	20.6	-76.2	4.6
2026-01-29 01:37:06.127176	5.7	20.8	-75.8	3.7
2026-01-29 01:37:07.251259	5.7	20.9	-75.1	5.5
2026-01-29 01:37:08.375447	5.6	21.1	-74.7	2.5
2026-01-29 01:37:09.500281	5.5	21.2	-75.7	5.3
2026-01-29 01:37:10.623565	5.4	21.4	-75.1	2.7
2026-01-29 01:37:11.747662	5.3	21.5	-75.2	3.6
2026-01-29 01:37:12.869779	5.2	21.7	-74.7	4.2
2026-01-29 01:37:13.994102	5.1	21.8	-75.3	4.2
2026-01-29 01:37:15.118747	5.0	22.0	-76.1	5.4
2026-01-29 01:37:16.241823	4.9	22.1	-76.4	6.1
2026-01-29 01:37:17.366496	4.8	22.3	-76.1	0.5
2026-01-29 01:37:18.489851	4.7	22.4	-75.8	5.8
2026-01-29 01:37:19.611920	4.6	22.6	-75.7	5.0
2026-01-29 01:37:20.735408	4.6	22.7	-75.1	1.8
2026-01-29 01:37:21.859802	4.5	22.9	-76.2	2.5
2026-01-29 01:37:22.984157	4.4	23.0	-74.1	0.0
2026-01-29 01:37:24.107402	4.3	23.2	-76.0	2.2
2026-01-29 01:37:25.233045	4.2	23.4	-75.9	6.0
2026-01-29 01:37:26.357077	4.0	23.5	-76.1	1.6
2026-01-29 01:37:27.478223	3.9	23.7	-76.3	5.9
2026-01-29 01:37:28.601952	3.8	23.8	-76.5	5.8
2026-01-29 01:37:29.725899	3.7	24.0	-76.2	6.6
2026-01-29 01:37:30.849882	3.6	24.2	-76.0	3.5
2026-01-29 01:37:31.973395	3.5	24.3	-76.5	4.6
2026-01-29 01:37:33.098131	3.4	24.5	-74.1	2.3
2026-01-29 01:37:34.223290	3.3	24.7	-76.0	3.8
2026-01-29 01:37:35.346219	3.2	24.8	-75.9	6.5
2026-01-29 01:37:36.470957	3.1	25.0	-77.3	6.2
2026-01-29 01:37:37.593766	3.0	25.2	-77.1	6.1
2026-01-29 01:37:38.718306	2.8	25.3	-76.6	7.2
2026-01-29 01:37:39.842238	2.7	25.5	-75.0	3.6
2026-01-29 01:37:40.964243	2.6	25.7	-76.9	7.4
2026-01-29 01:37:42.087042	2.5	25.8	-76.8	7.4
2026-01-29 01:37:43.215049	2.4	26.0	-74.1	4.2
2026-01-29 01:37:44.339326	2.2	26.2	-77.0	7.7
2026-01-29 01:37:45.464913	2.1	26.4	-76.9	7.0
2026-01-29 01:37:46.590389	2.0	26.5	-74.8	3.4
2026-01-29 01:37:47.713941	1.9	26.7	-77.0	6.9
2026-01-29 01:37:48.837051	1.7	26.9	-76.7	8.9
2026-01-29 01:37:49.960322	1.6	27.1	-76.9	7.7
2026-01-29 01:37:51.085946	1.5	27.3	-76.9	8.7
2026-01-29 01:37:52.211486	1.3	27.4	-76.7	8.5
2026-01-29 01:37:53.334740	1.2	27.6	-74.6	4.5
2026-01-29 01:37:54.459388	1.1	27.8	-76.5	8.8
2026-01-29 01:37:55.583964	0.9	28.0	-75.9	6.9
2026-01-29 01:37:56.707078	0.8	28.2	-76.9	6.1
2026-01-29 01:37:57.830140	0.6	28.4	-76.8	8.0
2026-01-29 01:37:58.953331	0.5	28.6	-76.7	6.7
2026-01-29 01:38:00.076592	0.4	28.8	-76.8	8.7
2026-01-29 01:38:01.199851	0.2	28.9	-77.0	8.3
2026-01-29 01:38:02.324281	0.1	29.1	-77.4	6.2
2026-01-29 01:38:03.448321	359.9	29.3	-74.0	2.8
2026-01-29 01:38:04.574925	359.8	29.5	-76.2	6.4
2026-01-29 01:38:05.696973	359.6	29.7	-75.5	2.0
2026-01-29 01:38:06.820478	359.5	29.9	-76.6	5.7
2026-01-29 01:38:07.945413	359.3	30.1	-76.3	4.8
2026-01-29 01:38:09.069354	359.1	30.3	-75.2	3.6
2026-01-29 01:38:10.194022	359.0	30.5	-75.5	6.0
2026-01-29 01:38:11.316878	358.8	30.7	-75.6	6.2
2026-01-29 01:38:12.441291	358.6	30.9	-75.6	4.7
2026-01-29 01:38:13.567964	358.5	31.1	-75.3	6.7
2026-01-29 01:38:14.694494	358.3	31.3	-75.1	3.9
2026-01-29 01:38:15.817027	358.1	31.5	-74.8	5.5
2026-01-29 01:38:16.942987	358.0	31.7	-74.8	4.7
2026-01-29 01:38:18.066095	357.8	31.9	-73.4	1.7
2026-01-29 01:38:19.189697	357.6	32.1	-75.4	6.9
2026-01-29 01:38:20.313899	357.4	32.4	-76.2	6.9
2026-01-29 01:38:21.438460	357.2	32.6	-75.6	5.0
2026-01-29 01:38:22.560379	357.0	32.8	-75.8	6.3
2026-01-29 01:38:23.685975	356.9	33.0	-75.5	6.7
2026-01-29 01:38:24.808166	356.7	33.2	-74.6	5.7
2026-01-29 01:38:25.932407	356.5	33.4	-76.0	8.6
2026-01-29 01:38:27.053775	356.3	33.6	-75.5	3.9
2026-01-29 01:38:28.178106	356.1	33.9	-75.1	6.8
2026-01-29 01:38:29.302107	355.9	34.1	-75.9	7.1
2026-01-29 01:38:30.425054	355.7	34.3	-75.7	7.2
2026-01-29 01:38:31.549148	355.5	34.5	-76.6	7.6
2026-01-29 01:38:32.672116	355.2	34.7	-76.2	4.3
2026-01-29 01:38:33.796614	355.0	35.0	-76.7	7.4
2026-01-29 01:38:34.923832	354.8	35.2	-76.0	7.1
2026-01-29 01:38:36.045009	354.6	35.4	-76.9	7.9
2026-01-29 01:38:37.169815	354.4	35.6	-76.6	7.7
2026-01-29 01:38:38.292355	354.1	35.9	-77.0	6.7
2026-01-29 01:38:39.417944	353.9	36.1	-77.2	9.2
2026-01-29 01:38:40.543858	353.7	36.3	-77.4	7.4
2026-01-29 01:38:41.668814	353.4	36.6	-77.6	6.4
2026-01-29 01:38:42.794436	353.2	36.8	-77.2	8.2
2026-01-29 01:38:43.917394	353.0	37.0	-78.0	7.9
2026-01-29 01:38:45.041021	352.7	37.3	-77.0	6.7
2026-01-29 01:38:46.166235	352.5	37.5	-77.6	7.9
2026-01-29 01:38:47.290221	352.2	37.7	-77.8	7.8
2026-01-29 01:38:48.413547	351.9	38.0	-76.4	6.6
2026-01-29 01:38:49.538866	351.7	38.2	-78.0	7.2
2026-01-29 01:38:50.661162	351.4	38.4	-77.8	5.7
2026-01-29 01:38:51.785466	351.1	38.7	-77.4	8.9
2026-01-29 01:38:52.908215	350.9	38.9	-76.9	7.7
2026-01-29 01:38:54.033078	350.6	39.2	-77.8	9.3
2026-01-29 01:38:55.156122	350.3	39.4	-77.9	10.4
2026-01-29 01:38:56.279803	350.0	39.7	-78.0	11.5
2026-01-29 01:38:57.404131	349.7	39.9	-77.9	10.8
2026-01-29 01:38:58.528173	349.4	40.1	-77.1	10.7
2026-01-29 01:38:59.652738	349.1	40.4	-78.1	11.2
2026-01-29 01:39:00.775248	348.8	40.6	-77.7	10.5
2026-01-29 01:39:01.898991	348.5	40.9	-77.7	10.9
2026-01-29 01:39:03.022499	348.2	41.1	-77.1	9.0
2026-01-29 01:39:04.146858	347.9	41.4	-78.5	11.8
2026-01-29 01:39:05.273026	347.6	41.6	-78.3	11.6
2026-01-29 01:39:06.397634	347.2	41.9	-77.8	11.3
2026-01-29 01:39:07.520768	346.9	42.1	-77.7	11.3
2026-01-29 01:39:08.644616	346.6	42.4	-78.6	11.4
2026-01-29 01:39:09.769455	346.2	42.7	-77.2	8.7
2026-01-29 01:39:10.894036	345.9	42.9	-77.8	10.2
2026-01-29 01:39:12.017626	345.5	43.2	-77.7	10.8
2026-01-29 01:39:13.140046	345.1	43.4	-77.5	9.0
2026-01-29 01:39:14.265990	344.8	43.7	-78.5	11.2
2026-01-29 01:39:15.390901	344.4	43.9	-78.5	11.9
2026-01-29 01:39:16.516241	344.0	44.2	-78.0	12.1
2026-01-29 01:39:17.641408	343.6	44.4	-78.7	11.5
2026-01-29 01:39:18.763032	343.2	44.7	-79.1	12.0
2026-01-29 01:39:19.888158	342.8	45.0	-79.0	12.5
2026-01-29 01:39:21.012429	342.4	45.2	-79.1	10.8
2026-01-29 01:39:22.136808	342.0	45.5	-79.4	12.0
2026-01-29 01:39:23.262733	341.6	45.7	-79.0	11.6
2026-01-29 01:39:24.387159	341.2	46.0	-79.4	11.9
2026-01-29 01:39:25.509321	340.7	46.2	-79.5	12.4
2026-01-29 01:39:26.634020	340.3	46.5	-79.3	12.3
2026-01-29 01:39:27.760551	339.8	46.7	-79.5	12.0
2026-01-29 01:39:28.884586	339.4	47.0	-78.9	9.6
2026-01-29 01:39:30.007264	338.9	47.3	-79.6	12.0
2026-01-29 01:39:31.131923	338.4	47.5	-79.9	10.6
2026-01-29 01:39:32.258272	338.0	47.8	-79.6	10.8
2026-01-29 01:39:33.383919	337.5	48.0	-79.2	11.4
2026-01-29 01:39:34.508768	337.0	48.3	-79.0	8.8
2026-01-29 01:39:35.631974	336.5	48.5	-79.7	11.7
2026-01-29 01:39:36.754305	335.9	48.8	-79.5	11.9
2026-01-29 01:39:37.878916	335.4	49.0	-79.6	11.6
2026-01-29 01:39:39.004648	334.9	49.3	-79.7	12.1
2026-01-29 01:39:40.127851	334.4	49.5	-79.2	11.7
2026-01-29 01:39:41.251184	333.8	49.8	-79.9	11.7
2026-01-29 01:39:42.376477	333.3	50.0	-79.5	11.6
2026-01-29 01:39:43.499808	332.7	50.3	-79.8	11.6
2026-01-29 01:39:44.622018	332.1	50.5	-79.7	11.8
2026-01-29 01:39:45.743494	331.5	50.7	-79.6	11.7
2026-01-29 01:39:46.867543	330.9	51.0	-79.4	10.0
2026-01-29 01:39:47.993957	330.3	51.2	-79.9	10.0
2026-01-29 01:39:49.117512	329.7	51.4	-78.9	11.1
2026-01-29 01:39:50.241605	329.1	51.7	-79.7	10.3
2026-01-29 01:39:51.364300	328.5	51.9	-79.9	10.5
2026-01-29 01:39:52.489334	327.8	52.1	-79.7	9.5
2026-01-29 01:39:53.612213	327.2	52.3	-80.4	10.3
2026-01-29 01:39:54.734949	326.5	52.6	-80.5	11.6
2026-01-29 01:39:55.858821	325.8	52.8	-80.4	10.3
2026-01-29 01:39:56.982147	325.2	53.0	-80.3	10.7
2026-01-29 01:39:58.107591	324.5	53.2	-79.1	7.8
2026-01-29 01:39:59.230215	323.8	53.4	-80.1	10.3
2026-01-29 01:40:00.353526	323.1	53.6	-80.4	9.9
2026-01-29 01:40:01.477535	322.3	53.8	-80.5	9.7
2026-01-29 01:40:02.601443	321.6	54.0	-80.4	9.5
2026-01-29 01:40:03.725710	320.9	54.2	-80.8	10.3
2026-01-29 01:40:04.851269	320.1	54.4	-80.6	10.5
2026-01-29 01:40:05.974797	319.4	54.6	-80.6	9.4
2026-01-29 01:40:07.099442	318.6	54.7	-80.5	8.7
2026-01-29 01:40:08.221787	317.8	54.9	-79.9	8.2
2026-01-29 01:40:09.346513	317.0	55.1	-80.7	10.1
2026-01-29 01:40:10.471705	316.2	55.2	-80.9	8.7
2026-01-29 01:40:11.595704	315.4	55.4	-81.1	8.5
2026-01-29 01:40:12.719328	314.6	55.6	-81.0	6.6
2026-01-29 01:40:13.845340	313.8	55.7	-81.3	8.0
2026-01-29 01:40:14.968199	312.9	55.8	-81.6	8.6
2026-01-29 01:40:16.092413	312.1	56.0	-81.3	5.7
2026-01-29 01:40:17.215812	311.2	56.1	-81.2	6.2
2026-01-29 01:40:18.339365	310.4	56.2	-80.7	5.3
2026-01-29 01:40:19.461395	309.5	56.4	-81.2	8.4
2026-01-29 01:40:20.585838	308.6	56.5	-80.8	6.4
2026-01-29 01:40:21.710477	307.8	56.6	-81.1	5.0
2026-01-29 01:40:22.834665	306.9	56.7	-81.2	9.3
2026-01-29 01:40:23.955029	306.0	56.8	-81.1	5.9
2026-01-29 01:40:25.079153	305.1	56.9	-81.0	10.1
2026-01-29 01:40:26.203110	304.2	56.9	-80.7	7.5
2026-01-29 01:40:27.328161	303.3	57.0	-81.5	8.9
2026-01-29 01:40:28.452205	302.3	57.1	-80.8	5.9
2026-01-29 01:40:29.574582	301.4	57.1	-81.6	6.5
2026-01-29 01:40:30.700057	300.5	57.2	-81.7	7.3
2026-01-29 01:40:31.823124	299.6	57.2	-81.8	7.7
2026-01-29 01:40:32.946304	298.6	57.3	-82.1	7.5
2026-01-29 01:40:34.069947	297.7	57.3	-81.9	7.3
2026-01-29 01:40:35.192630	296.8	57.3	-81.7	5.1
2026-01-29 01:40:36.315607	295.8	57.3	-82.0	7.6
2026-01-29 01:40:37.439982	294.9	57.4	-82.0	8.5
2026-01-29 01:40:38.566603	294.0	57.4	-81.6	7.5
2026-01-29 01:40:39.694131	293.0	57.4	-81.8	7.5
2026-01-29 01:40:40.819167	292.1	57.3	-81.8	7.7
2026-01-29 01:40:41.942211	291.2	57.3	-81.2	7.0
2026-01-29 01:40:43.067228	290.2	57.3	-81.3	8.0
2026-01-29 01:40:44.191862	289.3	57.3	-81.0	8.8
2026-01-29 01:40:45.316620	288.4	57.2	-81.1	8.9
2026-01-29 01:40:46.439636	287.4	57.2	-80.9	9.1
2026-01-29 01:40:47.563068	286.5	57.1	-81.2	9.6
2026-01-29 01:40:48.689094	285.6	57.0	-81.1	8.3
2026-01-29 01:40:49.812530	284.7	57.0	-80.8	8.5
2026-01-29 01:40:50.933286	283.8	56.9	-81.2	8.7
2026-01-29 01:40:52.057078	282.9	56.8	-81.4	9.7
2026-01-29 01:40:53.180727	282.0	56.7	-81.0	7.7
2026-01-29 01:40:54.306082	281.1	56.6	-81.6	8.9
2026-01-29 01:40:55.430003	280.2	56.5	-81.6	9.2
2026-01-29 01:40:56.554861	279.3	56.4	-81.8	8.7
2026-01-29 01:40:57.679218	278.4	56.3	-82.0	8.8
2026-01-29 01:40:58.804447	277.6	56.2	-82.3	9.4
2026-01-29 01:40:59.927894	276.7	56.0	-82.0	7.1
2026-01-29 01:41:01.050126	275.9	55.9	-82.3	8.1
2026-01-29 01:41:02.173823	275.0	55.8	-81.6	8.9
2026-01-29 01:41:03.298942	274.2	55.6	-80.9	7.8
2026-01-29 01:41:04.422883	273.4	55.5	-80.9	8.9
2026-01-29 01:41:05.549651	272.6	55.3	-81.0	8.7
2026-01-29 01:41:06.676215	271.7	55.2	-81.2	11.2
2026-01-29 01:41:07.802989	270.9	55.0	-80.9	11.4
2026-01-29 01:41:08.926234	270.2	54.8	-81.1	11.0
2026-01-29 01:41:10.052309	269.4	54.6	-81.0	11.2
2026-01-29 01:41:11.177063	268.6	54.5	-80.9	11.9
2026-01-29 01:41:12.300458	267.9	54.3	-80.7	11.1
2026-01-29 01:41:13.425147	267.1	54.1	-81.0	11.3
2026-01-29 01:41:14.547624	266.4	53.9	-81.3	11.1
2026-01-29 01:41:15.669880	265.6	53.7	-81.3	10.2
2026-01-29 01:41:16.794724	264.9	53.5	-81.6	10.1
2026-01-29 01:41:17.922319	264.2	53.3	-81.7	9.8
2026-01-29 01:41:19.047047	263.5	53.1	-82.1	10.8
2026-01-29 01:41:20.171662	262.8	52.9	-81.5	10.0
2026-01-29 01:41:21.296432	262.2	52.7	-81.7	9.9
2026-01-29 01:41:22.421206	261.5	52.4	-82.3	10.4
2026-01-29 01:41:23.546063	260.8	52.2	-81.8	9.8
2026-01-29 01:41:24.669797	260.2	52.0	-81.6	10.2
2026-01-29 01:41:25.793970	259.5	51.8	-82.0	9.8
2026-01-29 01:41:26.915756	258.9	51.5	-81.4	9.8
2026-01-29 01:41:28.039604	258.3	51.3	-81.5	11.1
2026-01-29 01:41:29.163033	257.7	51.1	-81.1	11.0
2026-01-29 01:41:30.286382	257.1	50.8	-81.0	11.5
2026-01-29 01:41:31.410784	256.5	50.6	-81.1	11.5
2026-01-29 01:41:32.534983	255.9	50.3	-80.9	11.7
2026-01-29 01:41:33.660370	255.3	50.1	-80.8	11.1
2026-01-29 01:41:34.784591	254.8	49.9	-80.9	12.0
2026-01-29 01:41:35.910082	254.2	49.6	-80.7	12.5
2026-01-29 01:41:37.033435	253.7	49.4	-80.6	10.7
2026-01-29 01:41:38.156782	253.1	49.1	-80.5	10.4
2026-01-29 01:41:39.281867	252.6	48.9	-80.5	11.5
2026-01-29 01:41:40.403544	252.1	48.6	-80.5	12.1
2026-01-29 01:41:41.526682	251.6	48.4	-80.8	11.2
2026-01-29 01:41:42.652285	251.1	48.1	-80.7	11.0
2026-01-29 01:41:43.775930	250.6	47.9	-80.8	12.2
2026-01-29 01:41:44.899019	250.1	47.6	-80.7	11.3
2026-01-29 01:41:46.022194	249.6	47.3	-80.7	11.4
2026-01-29 01:41:47.146795	249.2	47.1	-80.8	11.1
2026-01-29 01:41:48.270095	248.7	46.8	-80.4	12.1
2026-01-29 01:41:49.394948	248.2	46.6	-80.7	12.2
2026-01-29 01:41:50.521499	247.8	46.3	-80.4	12.2
2026-01-29 01:41:51.645187	247.4	46.1	-80.7	12.1
2026-01-29 01:41:52.768276	246.9	45.8	-80.4	12.4
2026-01-29 01:41:53.890700	246.5	45.5	-80.6	11.7
2026-01-29 01:41:55.014034	246.1	45.3	-80.7	11.4
2026-01-29 01:41:56.137609	245.7	45.0	-80.5	12.5
2026-01-29 01:41:57.262345	245.3	44.8	-80.7	12.2
2026-01-29 01:41:58.388394	244.9	44.5	-80.7	11.5
2026-01-29 01:41:59.513072	244.5	44.3	-80.8	12.9
2026-01-29 01:42:00.635912	244.1	44.0	-81.0	12.5
2026-01-29 01:42:01.760203	243.7	43.7	-80.5	10.9
2026-01-29 01:42:02.883245	243.3	43.5	-80.9	12.1
2026-01-29 01:42:04.008273	243.0	43.2	-80.9	11.9
2026-01-29 01:42:05.130910	242.6	43.0	-80.6	12.5
2026-01-29 01:42:06.253812	242.2	42.7	-80.6	12.2
2026-01-29 01:42:07.377667	241.9	42.5	-80.6	12.9
2026-01-29 01:42:08.501144	241.5	42.2	-80.5	12.7
2026-01-29 01:42:09.624684	241.2	42.0	-80.7	12.5
2026-01-29 01:42:10.748105	240.9	41.7	-80.8	12.8
2026-01-29 01:42:11.872271	240.5	41.4	-81.0	13.2
2026-01-29 01:42:12.996294	240.2	41.2	-80.5	11.9
2026-01-29 01:42:14.121488	239.9	40.9	-80.4	12.5
2026-01-29 01:42:15.244112	239.6	40.7	-80.2	13.1
2026-01-29 01:42:16.368554	239.3	40.4	-80.0	13.1
2026-01-29 01:42:17.492096	239.0	40.2	-80.4	13.3
2026-01-29 01:42:18.615838	238.7	39.9	-80.2	12.4
2026-01-29 01:42:19.738884	238.4	39.7	-80.3	12.5
2026-01-29 01:42:20.862852	238.1	39.5	-80.9	13.2
2026-01-29 01:42:21.986251	237.8	39.2	-80.6	12.7
2026-01-29 01:42:23.110707	237.5	39.0	-80.4	12.5
2026-01-29 01:42:24.234727	237.2	38.7	-80.4	13.6
2026-01-29 01:42:25.359488	237.0	38.5	-79.7	13.6
2026-01-29 01:42:26.486182	236.7	38.2	-79.7	13.9
2026-01-29 01:42:27.610848	236.4	38.0	-79.5	13.4
2026-01-29 01:42:28.736095	236.2	37.8	-79.7	13.7
2026-01-29 01:42:29.861054	235.9	37.5	-79.4	14.6
2026-01-29 01:42:30.985418	235.7	37.3	-79.7	13.7
2026-01-29 01:42:32.110486	235.4	37.0	-79.7	13.7
2026-01-29 01:42:33.234452	235.2	36.8	-79.8	13.3
2026-01-29 01:42:34.360047	234.9	36.6	-79.7	13.6
2026-01-29 01:42:35.482777	234.7	36.3	-79.8	13.3
2026-01-29 01:42:36.606882	234.5	36.1	-79.8	14.6
2026-01-29 01:42:37.731462	234.2	35.9	-79.8	13.9
2026-01-29 01:42:38.855799	234.0	35.6	-79.7	14.1
2026-01-29 01:42:39.979013	233.8	35.4	-79.7	13.6
2026-01-29 01:42:41.102532	233.5	35.2	-79.6	14.4
2026-01-29 01:42:42.228613	233.3	35.0	-79.5	14.0
2026-01-29 01:42:43.353229	233.1	34.7	-79.6	13.9
2026-01-29 01:42:44.476389	232.9	34.5	-79.3	13.7
2026-01-29 01:42:45.603411	232.7	34.3	-79.2	14.3
2026-01-29 01:42:46.727632	232.5	34.1	-79.6	14.3
2026-01-29 01:42:47.851683	232.3	33.8	-79.2	14.2
2026-01-29 01:42:48.979734	232.1	33.6	-79.0	14.1
2026-01-29 01:42:50.102696	231.9	33.4	-79.6	14.4
2026-01-29 01:42:51.225665	231.7	33.2	-79.4	14.4
2026-01-29 01:42:52.347770	231.5	33.0	-79.5	13.8
2026-01-29 01:42:53.472094	231.3	32.8	-79.7	13.6
2026-01-29 01:42:54.594334	231.1	32.5	-79.7	14.0
2026-01-29 01:42:55.716628	230.9	32.3	-80.0	13.6
2026-01-29 01:42:56.839994	230.7	32.1	-79.9	13.6
2026-01-29 01:42:57.961660	230.5	31.9	-79.8	14.1
2026-01-29 01:42:59.086590	230.4	31.7	-79.8	13.8
2026-01-29 01:43:00.212503	230.2	31.5	-79.5	13.7
2026-01-29 01:43:01.336265	230.0	31.3	-79.7	14.3
2026-01-29 01:43:02.461915	229.8	31.1	-79.5	14.4
2026-01-29 01:43:03.583641	229.7	30.9	-79.7	13.9
2026-01-29 01:43:04.708349	229.5	30.7	-79.6	13.7
2026-01-29 01:43:05.829419	229.3	30.5	-79.4	14.1
2026-01-29 01:43:06.953551	229.2	30.3	-79.2	14.7
2026-01-29 01:43:08.077539	229.0	30.1	-79.3	14.5
2026-01-29 01:43:09.201725	228.8	29.9	-79.5	13.9
2026-01-29 01:43:10.326086	228.7	29.7	-79.5	14.4
2026-01-29 01:43:11.451863	228.5	29.5	-79.5	14.5
2026-01-29 01:43:12.576166	228.4	29.3	-79.7	12.9
2026-01-29 01:43:13.700061	228.2	29.1	-79.2	14.1
2026-01-29 01:43:14.823909	228.1	28.9	-79.4	13.9
2026-01-29 01:43:15.948710	227.9	28.7	-79.1	13.5
2026-01-29 01:43:17.074358	227.8	28.5	-79.3	13.5
2026-01-29 01:43:18.198734	227.6	28.3	-79.5	13.4
2026-01-29 01:43:19.322408	227.5	28.1	-79.0	14.1
2026-01-29 01:43:20.446331	227.4	27.9	-79.1	13.1
2026-01-29 01:43:21.572011	227.2	27.8	-79.4	14.3
2026-01-29 01:43:22.696654	227.1	27.6	-79.2	13.1
2026-01-29 01:43:23.820140	226.9	27.4	-79.6	12.4
2026-01-29 01:43:24.945569	226.8	27.2	-79.4	12.3
2026-01-29 01:43:26.070133	226.7	27.0	-79.5	13.4
2026-01-29 01:43:27.196807	226.5	26.8	-79.7	12.9
2026-01-29 01:43:28.319928	226.4	26.7	-79.5	13.5
2026-01-29 01:43:29.444769	226.3	26.5	-79.5	12.9
2026-01-29 01:43:30.568380	226.2	26.3	-79.5	10.7
2026-01-29 01:43:31.693689	226.0	26.1	-79.4	11.9
2026-01-29 01:43:32.817212	225.9	25.9	-79.4	11.4
2026-01-29 01:43:33.941278	225.8	25.8	-79.3	11.6
2026-01-29 01:43:35.066947	225.7	25.6	-79.2	14.1
2026-01-29 01:43:36.192400	225.5	25.4	-79.1	13.3
2026-01-29 01:43:37.314795	225.4	25.3	-79.5	14.4
2026-01-29 01:43:38.438874	225.3	25.1	-79.0	12.1
2026-01-29 01:43:39.562784	225.2	24.9	-78.9	11.9
2026-01-29 01:43:40.688209	225.1	24.7	-79.1	12.7
2026-01-29 01:43:41.816061	225.0	24.6	-78.8	12.9
2026-01-29 01:43:42.938554	224.8	24.4	-79.1	10.0
2026-01-29 01:43:44.063053	224.7	24.2	-79.3	13.8
2026-01-29 01:43:45.185546	224.6	24.1	-79.0	11.7
2026-01-29 01:43:46.311170	224.5	23.9	-79.1	10.1
2026-01-29 01:43:47.437116	224.4	23.7	-78.9	10.2
2026-01-29 01:43:48.561418	224.3	23.6	-78.7	12.6
2026-01-29 01:43:49.687045	224.2	23.4	-78.7	12.1
2026-01-29 01:43:50.811936	224.1	23.3	-79.1	11.8
2026-01-29 01:43:51.935620	224.0	23.1	-79.3	9.9
2026-01-29 01:43:53.059449	223.9	22.9	-78.9	11.5
2026-01-29 01:43:54.184022	223.8	22.8	-78.9	8.3
2026-01-29 01:43:55.307370	223.7	22.6	-79.0	8.9
2026-01-29 01:43:56.434202	223.6	22.5	-79.0	8.7
2026-01-29 01:43:57.558857	223.5	22.3	-79.2	11.6
2026-01-29 01:43:58.684086	223.4	22.2	-78.4	9.7
2026-01-29 01:43:59.808025	223.3	22.0	-79.0	13.3
2026-01-29 01:44:00.935248	223.2	21.8	-78.8	10.9
2026-01-29 01:44:02.060930	223.1	21.7	-79.1	12.9
2026-01-29 01:44:03.185439	223.0	21.5	-78.9	10.9
2026-01-29 01:44:04.310103	222.9	21.4	-79.2	9.7
2026-01-29 01:44:05.433210	222.8	21.2	-79.2	9.4
2026-01-29 01:44:06.556986	222.7	21.1	-78.5	9.0
2026-01-29 01:44:07.682321	222.6	20.9	-77.9	8.0
2026-01-29 01:44:08.804813	222.6	20.8	-79.0	8.5
2026-01-29 01:44:09.927897	222.5	20.7	-78.5	9.9
2026-01-29 01:44:11.050798	222.4	20.5	-78.4	10.0
2026-01-29 01:44:12.175647	222.3	20.4	-78.4	6.5
2026-01-29 01:44:13.301798	222.2	20.2	-79.0	8.3
2026-01-29 01:44:14.426832	222.1	20.1	-78.8	8.1
2026-01-29 01:44:15.552269	222.0	19.9	-79.0	11.7
2026-01-29 01:44:16.674856	222.0	19.8	-79.3	9.0
2026-01-29 01:44:17.800006	221.9	19.6	-79.2	6.7
2026-01-29 01:44:18.923467	221.8	19.5	-79.0	10.3
2026-01-29 01:44:20.045706	221.7	19.4	-79.3	6.9
2026-01-29 01:44:21.170386	221.6	19.2	-79.4	8.6
2026-01-29 01:44:22.293713	221.6	19.1	-79.4	7.5
2026-01-29 01:44:23.416546	221.5	19.0	-79.0	7.3
2026-01-29 01:44:24.540207	221.4	18.8	-78.7	4.9
2026-01-29 01:44:25.666126	221.3	18.7	-78.4	7.5
2026-01-29 01:44:26.792502	221.2	18.5	-79.3	10.0
2026-01-29 01:44:27.915917	221.2	18.4	-78.9	7.5
2026-01-29 01:44:29.040370	221.1	18.3	-78.0	5.4
2026-01-29 01:44:30.165677	221.0	18.1	-78.4	8.8
2026-01-29 01:44:31.288493	221.0	18.0	-78.5	6.7
2026-01-29 01:44:32.412656	220.9	17.9	-78.6	8.3
2026-01-29 01:44:33.538462	220.8	17.7	-78.6	8.1
2026-01-29 01:44:34.660848	220.7	17.6	-78.7	5.2
2026-01-29 01:44:35.785165	220.7	17.5	-78.6	4.8
2026-01-29 01:44:36.910089	220.6	17.4	-78.2	4.3
2026-01-29 01:44:38.036202	220.5	17.2	-78.4	7.1
2026-01-29 01:44:39.161099	220.5	17.1	-79.0	4.8
2026-01-29 01:44:40.288699	220.4	17.0	-78.7	7.0
2026-01-29 01:44:41.411764	220.3	16.8	-79.0	7.5
2026-01-29 01:44:42.535996	220.3	16.7	-78.9	3.8
2026-01-29 01:44:43.657568	220.2	16.6	-78.5	6.6
2026-01-29 01:44:44.782023	220.1	16.5	-79.3	10.3
2026-01-29 01:44:45.905722	220.1	16.3	-79.2	2.8
2026-01-29 01:44:47.029683	220.0	16.2	-79.1	4.9
2026-01-29 01:44:48.153178	219.9	16.1	-78.9	6.4
2026-01-29 01:44:49.276063	219.9	16.0	-79.1	7.4
2026-01-29 01:44:50.401712	219.8	15.9	-79.3	3.6
2026-01-29 01:44:51.526702	219.7	15.7	-79.3	4.0
2026-01-29 01:44:52.650242	219.7	15.6	-79.8	10.0
2026-01-29 01:44:53.775920	219.6	15.5	-79.1	6.8
2026-01-29 01:44:54.899441	219.6	15.4	-79.5	2.1
2026-01-29 01:44:56.023584	219.5	15.2	-78.5	2.3
2026-01-29 01:44:57.147645	219.4	15.1	-78.8	2.9
2026-01-29 01:44:58.270748	219.4	15.0	-78.7	2.8
2026-01-29 01:44:59.396283	219.3	14.9	-78.9	3.6
2026-01-29 01:45:00.522756	219.3	14.8	-79.0	8.6
2026-01-29 01:45:01.646617	219.2	14.7	-79.1	7.2
2026-01-29 01:45:02.768796	219.1	14.5	-79.0	3.9
2026-01-29 01:45:03.891852	219.1	14.4	-78.8	3.5
2026-01-29 01:45:05.019461	219.0	14.3	-78.8	2.8
2026-01-29 01:45:06.143260	219.0	14.2	-79.0	1.5
2026-01-29 01:45:07.267753	218.9	14.1	-78.2	0.0
2026-01-29 01:45:08.392388	218.9	14.0	-77.6	9.8
2026-01-29 01:45:09.516488	218.8	13.9	-79.0	2.7
2026-01-29 01:45:10.637430	218.8	13.7	-78.2	2.5
2026-01-29 01:45:11.762290	218.7	13.6	-78.8	8.6
2026-01-29 01:45:12.884932	218.6	13.5	-79.3	6.1
2026-01-29 01:45:14.009973	218.6	13.4	-78.1	1.3
2026-01-29 01:45:15.137326	218.5	13.3	-78.8	0.9
2026-01-29 01:45:16.259493	218.5	13.2	-77.5	2.7
2026-01-29 01:45:17.382981	218.4	13.1	-78.1	1.5
2026-01-29 01:45:18.509459	218.4	13.0	-78.8	4.2
2026-01-29 01:45:19.632981	218.3	12.9	-78.3	5.8
2026-01-29 01:45:20.755373	218.3	12.8	-79.1	9.2
2026-01-29 01:45:21.879540	218.2	12.6	-78.5	6.2
2026-01-29 01:45:23.004548	218.2	12.5	-78.9	6.3
2026-01-29 01:45:24.129423	218.1	12.4	-78.8	2.7
2026-01-29 01:45:25.253140	218.1	12.3	-78.5	1.6
2026-01-29 01:45:26.378336	218.0	12.2	-79.0	4.3
2026-01-29 01:45:27.504173	218.0	12.1	-78.4	4.4
2026-01-29 01:45:28.625904	217.9	12.0	-79.3	3.9
2026-01-29 01:45:29.749413	217.9	11.9	-79.2	5.2
2026-01-29 01:45:30.872098	217.8	11.8	-79.3	6.4
2026-01-29 01:45:31.996457	217.8	11.7	-79.5	0.0
2026-01-29 01:45:33.119468	217.7	11.6	-78.4	0.0
2026-01-29 01:45:34.243901	217.7	11.5	-78.8	6.9
2026-01-29 01:45:35.368074	217.7	11.4	-79.9	0.0
2026-01-29 01:45:36.494669	217.6	11.3	-78.9	0.0
2026-01-29 01:45:37.618592	217.6	11.2	-77.6	1.7
2026-01-29 01:45:38.741722	217.5	11.1	-78.6	1.5
2026-01-29 01:45:39.866127	217.5	11.0	-79.4	5.9
2026-01-29 01:45:40.990333	217.4	10.9	-80.6	8.5
2026-01-29 01:45:42.111130	217.4	10.8	-82.3	6.8
2026-01-29 01:45:43.233199	217.3	10.7	-84.8	0.0
2026-01-29 01:45:44.355460	217.3	10.6	-85.4	0.0
2026-01-29 01:45:45.480905	217.3	10.5	-85.3	0.0
2026-01-29 01:45:46.604801	217.2	10.4	-85.4	0.0
2026-01-29 01:45:47.728664	217.2	10.3	-84.8	0.0
2026-01-29 01:45:48.852578	217.1	10.2	-85.3	1.5
2026-01-29 01:45:49.977060	217.1	10.1	-84.9	0.5
2026-01-29 01:45:51.101538	217.0	10.0	-85.0	0.0
#Closed at: 2026-01-29 01:35:17.786494