passes_logs/2026/01/23/R4.6S_Anadyr/R4.6S_Anadyr__20260123_035841_AQUA_rec.log

#Pass ID: 20260123_035841_AQUA
#Satellite: AQUA
#Configuration: AQUA
#almurnet v.1.7.20251203
#Start time: 2026-01-23 03:58:42

#Version: 2.2.20231116
#Station: R4.6S_Anadyr
#Location: 177.4865 lon 64.73178 lat
#TLE: 1 27424U 02022A   26022.49486490  .00002153  00000+0  44069-3 0  9997
#TLE: 2 27424  98.4099 349.0485 0001970  69.5876  43.4746 14.61847233261984

#Time	Az	El	Level	Level2	SNR	BER	BlckErr	Temp	State	Recorded	gain1	gain2
2026-01-23 03:58:42.79	211.45	0.08	-50.9	-65.9	3.5	1.51e+00	0	39	0	0	60	71163
2026-01-23 03:58:43.80	211.53	0.14	-51.3	-69.3	3.5	3.02e+01	0	40	104	0	60	112747
2026-01-23 03:58:44.81	211.60	0.19	-51.5	-69.3	3.5	3.02e+01	0	40	104	0	60	112749
2026-01-23 03:58:45.82	211.68	0.24	-51.3	-69.4	3.5	3.02e+01	0	40	104	0	60	112948
2026-01-23 03:58:46.83	211.75	0.30	-51.3	-69.4	3.5	3.02e+01	0	40	104	0	60	113160
2026-01-23 03:58:47.84	211.83	0.35	-51.5	-69.4	3.5	3.02e+01	0	40	104	0	60	113204
2026-01-23 03:58:48.85	211.91	0.40	-51.4	-69.4	3.5	3.02e+01	0	40	104	0	60	113286
2026-01-23 03:58:49.85	211.98	0.46	-51.5	-69.4	3.5	3.02e+01	0	40	104	0	60	113450
2026-01-23 03:58:50.86	212.06	0.51	-51.4	-69.4	3.5	3.02e+01	0	40	104	0	60	114217
2026-01-23 03:58:51.87	212.14	0.57	-51.6	-69.4	3.5	3.02e+01	0	40	104	0	60	114100
2026-01-23 03:58:52.88	212.22	0.62	-51.6	-69.4	3.5	3.02e+01	0	40	104	0	60	113346
2026-01-23 03:58:53.89	212.29	0.67	-51.6	-69.4	3.5	3.02e+01	0	40	104	0	60	114210
2026-01-23 03:58:54.90	212.37	0.73	-51.6	-69.4	3.5	3.02e+01	0	40	104	0	60	113935
2026-01-23 03:58:55.92	212.45	0.78	-51.6	-69.4	3.5	3.02e+01	0	40	104	0	60	113459
2026-01-23 03:58:56.93	212.53	0.84	-51.6	-69.4	3.5	3.02e+01	0	40	104	0	60	113834
2026-01-23 03:58:57.94	212.61	0.89	-51.5	-69.3	3.5	3.02e+01	0	40	104	0	60	112831
2026-01-23 03:58:58.95	212.69	0.95	-51.4	-69.4	3.5	3.02e+01	0	41	104	0	60	113216
2026-01-23 03:58:59.96	212.77	1.00	-51.4	-69.3	3.5	3.02e+01	0	40	104	0	60	112436
2026-01-23 03:59:00.96	212.85	1.06	-51.4	-69.3	3.5	3.02e+01	0	40	104	0	60	112110
2026-01-23 03:59:01.97	212.93	1.11	-51.4	-69.3	3.6	3.02e+01	0	40	104	0	60	112076
2026-01-23 03:59:02.98	213.01	1.17	-51.3	-69.2	3.5	3.02e+01	0	40	104	0	60	110558
2026-01-23 03:59:03.99	213.09	1.22	-50.9	-69.1	3.5	3.02e+01	0	40	104	0	60	109575
2026-01-23 03:59:05.00	213.17	1.28	-50.8	-68.9	3.5	3.02e+01	0	40	104	0	60	106819
2026-01-23 03:59:06.01	213.26	1.33	-50.7	-68.7	3.5	3.02e+01	0	41	104	0	60	104192
2026-01-23 03:59:07.02	213.34	1.39	-50.5	-68.4	3.5	3.02e+01	0	41	104	0	60	100999
2026-01-23 03:59:08.03	213.42	1.44	-50.1	-68.0	3.5	3.02e+01	0	41	104	0	60	97163
2026-01-23 03:59:09.04	213.50	1.50	-50.1	-68.0	3.5	3.02e+01	0	41	104	0	60	96565
2026-01-23 03:59:10.05	213.59	1.55	-50.1	-67.9	3.5	3.02e+01	0	41	104	0	60	96088
2026-01-23 03:59:11.06	213.67	1.61	-50.1	-68.0	3.5	3.02e+01	0	41	104	0	60	96312
2026-01-23 03:59:12.08	213.75	1.66	-50.1	-68.0	3.5	3.02e+01	0	41	104	0	60	96133
2026-01-23 03:59:13.09	213.84	1.72	-50.1	-67.9	3.5	3.02e+01	0	41	104	0	60	95366
2026-01-23 03:59:14.10	213.92	1.78	-50.1	-67.9	3.5	3.02e+01	0	41	104	0	60	96006
2026-01-23 03:59:15.11	214.01	1.83	-50.1	-68.0	3.5	3.02e+01	0	41	104	0	60	96437
2026-01-23 03:59:16.12	214.09	1.89	-50.1	-68.0	3.5	3.02e+01	0	41	104	0	60	96789
2026-01-23 03:59:17.13	214.18	1.94	-50.1	-68.0	3.5	3.02e+01	0	41	104	0	60	96737
2026-01-23 03:59:18.14	214.26	2.00	-50.1	-68.0	3.5	3.02e+01	0	41	104	0	60	96349
2026-01-23 03:59:19.15	214.35	2.06	-50.1	-67.9	3.5	3.02e+01	0	41	104	0	60	95650
2026-01-23 03:59:20.16	214.44	2.11	-50.1	-67.9	3.5	3.02e+01	0	41	104	0	60	95598
2026-01-23 03:59:21.17	214.52	2.17	-50.1	-68.0	3.5	3.02e+01	0	41	104	0	60	96912
2026-01-23 03:59:22.18	214.61	2.22	-50.1	-68.0	3.5	3.02e+01	0	41	104	0	60	97206
2026-01-23 03:59:23.19	214.70	2.28	-50.1	-68.0	3.5	3.02e+01	0	41	104	0	60	96367
2026-01-23 03:59:24.20	214.79	2.34	-50.1	-67.9	3.5	3.02e+01	0	41	104	0	60	96083
2026-01-23 03:59:25.21	214.87	2.39	-50.1	-68.0	3.5	3.02e+01	0	41	104	0	60	96585
2026-01-23 03:59:26.22	214.96	2.45	-50.1	-68.0	3.5	3.02e+01	0	41	104	0	60	96241
2026-01-23 03:59:27.23	215.05	2.51	-50.1	-67.6	3.5	3.02e+01	0	41	104	0	60	92806
2026-01-23 03:59:28.24	215.14	2.56	-50.1	-67.5	3.5	3.02e+01	0	41	104	0	60	90910
2026-01-23 03:59:29.25	215.23	2.62	-50.1	-67.5	3.5	3.02e+01	0	41	104	0	60	91400
2026-01-23 03:59:30.26	215.32	2.68	-50.1	-67.2	3.5	3.02e+01	0	41	104	0	60	88400
2026-01-23 03:59:31.27	215.41	2.73	-50.1	-67.1	3.5	3.02e+01	0	41	104	0	60	87479
2026-01-23 03:59:32.28	215.50	2.79	-50.0	-65.2	3.6	3.02e+01	0	41	104	0	60	70246
2026-01-23 03:59:33.29	215.59	2.85	-50.0	-65.1	3.6	3.02e+01	0	41	104	0	60	69318
2026-01-23 03:59:34.30	215.68	2.91	-49.9	-64.1	4.3	3.02e+01	0	41	104	0	60	61533
2026-01-23 03:59:35.31	215.78	2.96	-50.0	-66.3	3.6	3.02e+01	0	41	104	0	60	79327
2026-01-23 03:59:36.32	215.87	3.02	-49.9	-64.0	4.4	3.02e+01	0	41	104	0	60	60778
2026-01-23 03:59:37.33	215.96	3.08	-49.5	-58.6	8.3	3.02e+01	90	41	0	1048576	60	32880
2026-01-23 03:59:38.34	216.05	3.14	-48.6	-54.4	12.8	3.02e+01	92	41	0	2621440	60	20247
2026-01-23 03:59:39.35	216.15	3.19	-47.7	-52.3	15.1	3.02e+01	90	41	0	4718592	60	15782
2026-01-23 03:59:40.36	216.24	3.25	-47.3	-51.3	16.2	3.02e+01	89	41	0	6291456	60	14208
2026-01-23 03:59:41.37	216.34	3.31	-46.9	-50.6	16.6	3.02e+01	92	41	0	8388608	60	13099
2026-01-23 03:59:42.38	216.43	3.37	-48.0	-52.7	14.3	3.02e+01	92	41	0	10485760	60	16663
2026-01-23 03:59:43.39	216.53	3.42	-47.6	-51.7	16.3	3.02e+01	86	41	0	12058624	60	14721
2026-01-23 03:59:44.40	216.62	3.48	-49.8	-61.3	3.9	3.02e+01	12	41	104	14155776	60	44703
2026-01-23 03:59:45.41	216.72	3.54	-49.9	-62.2	12.0	3.02e+01	92	41	104	14155776	60	49481
2026-01-23 03:59:46.42	216.81	3.60	-40.7	-42.2	25.4	3.02e+01	90	41	0	15728640	56	6272
2026-01-23 03:59:47.43	216.91	3.66	-41.2	-42.7	24.4	3.02e+01	92	41	0	17825792	56	6644
2026-01-23 03:59:48.44	217.01	3.72	-41.6	-43.2	24.8	3.02e+01	92	41	0	19398656	58	6239
2026-01-23 03:59:49.45	217.10	3.77	-41.3	-42.9	24.7	3.02e+01	92	41	0	21495808	58	6053
2026-01-23 03:59:50.46	217.20	3.83	-41.0	-42.6	25.1	3.02e+01	92	41	0	23068672	56	6520
2026-01-23 03:59:51.47	217.30	3.89	-41.8	-43.4	24.3	3.02e+01	92	41	0	25165824	58	6421
2026-01-23 03:59:52.48	217.40	3.95	-41.3	-42.9	24.8	3.02e+01	90	41	0	27262976	56	6742
2026-01-23 03:59:53.49	217.50	4.01	-40.9	-42.4	25.2	3.02e+01	92	41	0	28835840	56	6382
2026-01-23 03:59:54.50	217.60	4.07	-40.8	-42.4	25.5	3.02e+01	92	41	0	30932992	56	6361
2026-01-23 03:59:55.51	217.70	4.13	-40.9	-42.4	25.4	3.02e+01	92	41	0	33030144	56	6404
2026-01-23 03:59:56.53	217.80	4.19	-40.9	-42.4	25.3	3.02e+01	91	41	0	34603008	56	6387
2026-01-23 03:59:57.54	217.90	4.24	-40.6	-42.1	25.2	3.02e+01	91	41	0	36700160	56	6174
2026-01-23 03:59:58.54	218.00	4.30	-41.4	-42.9	24.8	3.02e+01	91	41	0	38273024	58	6057
2026-01-23 03:59:59.56	218.10	4.36	-41.3	-42.9	24.7	3.02e+01	91	41	0	40370176	56	6766
2026-01-23 04:00:00.57	218.20	4.42	-41.4	-42.9	24.9	3.02e+01	91	41	0	42467328	56	6801
2026-01-23 04:00:01.57	218.30	4.48	-41.6	-43.2	24.6	3.02e+01	88	41	0	44040192	56	7003
2026-01-23 04:00:02.58	218.41	4.54	-41.0	-42.5	25.4	3.02e+01	92	41	0	46137344	56	6482
2026-01-23 04:00:03.59	218.51	4.60	-40.6	-42.1	25.8	3.02e+01	91	41	0	47710208	56	6137
2026-01-23 04:00:04.60	218.61	4.66	-40.8	-42.4	25.3	3.02e+01	92	41	0	49807360	56	6357
2026-01-23 04:00:05.61	218.72	4.72	-40.6	-42.1	25.6	3.02e+01	92	41	0	51904512	56	6140
2026-01-23 04:00:06.62	218.82	4.78	-41.0	-42.5	25.2	3.02e+01	92	41	0	53477376	56	6457
2026-01-23 04:00:07.62	218.93	4.84	-41.1	-42.6	25.2	3.02e+01	92	41	0	55574528	56	6513
2026-01-23 04:00:08.64	219.03	4.90	-41.0	-42.5	25.3	3.02e+01	92	41	0	57147392	56	6439
2026-01-23 04:00:09.65	219.14	4.96	-41.2	-42.8	25.2	3.02e+01	90	41	0	59244544	56	6699
2026-01-23 04:00:10.65	219.24	5.02	-41.3	-42.9	24.9	3.02e+01	90	41	0	61341696	56	6773
2026-01-23 04:00:11.66	219.35	5.08	-40.9	-42.4	25.2	3.02e+01	92	41	0	62914560	56	6402
2026-01-23 04:00:12.67	219.46	5.14	-41.3	-42.9	25.1	3.02e+01	90	40	0	65011712	56	6743
2026-01-23 04:00:13.68	219.57	5.20	-40.9	-42.4	25.4	3.02e+01	92	41	0	66584576	56	6411
2026-01-23 04:00:14.69	219.67	5.26	-40.7	-42.3	25.5	3.02e+01	92	41	0	68681728	56	6278
2026-01-23 04:00:15.70	219.78	5.32	-40.6	-42.1	25.8	3.02e+01	92	41	0	70778880	56	6194
2026-01-23 04:00:16.71	219.89	5.38	-40.8	-42.3	25.5	3.02e+01	92	41	0	72351744	56	6340
2026-01-23 04:00:17.72	220.00	5.44	-40.8	-42.4	25.4	3.02e+01	92	41	0	74448896	56	6363
2026-01-23 04:00:18.73	220.11	5.50	-41.0	-42.5	25.4	3.02e+01	92	41	0	76546048	56	6456
2026-01-23 04:00:19.74	220.22	5.56	-40.6	-42.1	25.6	3.02e+01	92	41	0	78118912	56	6176
2026-01-23 04:00:20.75	220.33	5.62	-40.7	-42.2	25.5	3.02e+01	92	41	0	80216064	56	6252
2026-01-23 04:00:21.76	220.45	5.68	-41.1	-42.6	25.3	3.02e+01	90	41	0	81788928	56	6531
2026-01-23 04:00:22.77	220.56	5.74	-40.9	-42.4	25.5	3.02e+01	92	41	0	83886080	56	6405
2026-01-23 04:00:23.78	220.67	5.80	-41.0	-42.6	25.3	3.02e+01	90	41	0	85983232	56	6512
2026-01-23 04:00:24.79	220.78	5.86	-40.5	-42.0	26.0	3.02e+01	92	41	0	87556096	56	6076
2026-01-23 04:00:25.80	220.90	5.93	-40.1	-41.6	26.0	3.02e+01	92	41	0	89653248	56	5819
2026-01-23 04:00:26.81	221.01	5.99	-40.6	-42.2	25.7	3.02e+01	91	41	0	91226112	56	6246
2026-01-23 04:00:27.81	221.12	6.05	-40.7	-42.2	25.7	3.02e+01	91	41	0	93323264	56	6263
2026-01-23 04:00:28.82	221.24	6.11	-40.9	-42.5	25.4	3.02e+01	91	41	0	95420416	56	6460
2026-01-23 04:00:29.83	221.36	6.17	-40.7	-42.3	25.6	3.02e+01	92	41	0	96993280	56	6290
2026-01-23 04:00:30.84	221.47	6.23	-41.0	-42.6	25.4	3.02e+01	91	41	0	99090432	56	6527
2026-01-23 04:00:31.85	221.59	6.29	-40.9	-42.5	25.3	3.02e+01	92	41	0	101187584	56	6449
2026-01-23 04:00:32.86	221.71	6.35	-40.8	-42.4	25.5	3.02e+01	90	41	0	102760448	56	6369
2026-01-23 04:00:33.87	221.82	6.42	-41.0	-42.6	25.2	3.02e+01	89	41	0	104857600	56	6526
2026-01-23 04:00:34.88	221.94	6.48	-40.9	-42.5	25.6	3.02e+01	90	41	0	106430464	56	6454
2026-01-23 04:00:35.89	222.06	6.54	-40.6	-42.2	25.7	3.02e+01	91	41	0	108527616	56	6232
2026-01-23 04:00:36.90	222.18	6.60	-40.5	-42.1	25.6	3.02e+01	92	41	0	110624768	56	6178
2026-01-23 04:00:37.91	222.30	6.66	-40.7	-42.3	25.3	3.02e+01	92	41	0	112197632	56	6332
2026-01-23 04:00:38.92	222.42	6.73	-40.6	-42.2	25.7	3.02e+01	92	41	0	114294784	56	6266
2026-01-23 04:00:39.93	222.54	6.79	-40.9	-42.5	25.3	3.02e+01	92	41	0	115867648	56	6494
2026-01-23 04:00:40.94	222.66	6.85	-41.0	-42.7	25.1	3.02e+01	92	41	0	117964800	56	6610
2026-01-23 04:00:41.95	222.78	6.91	-41.0	-42.8	25.0	3.02e+01	91	41	0	119537664	56	6691
2026-01-23 04:00:42.96	222.91	6.97	-40.7	-42.5	25.4	3.02e+01	92	41	0	121634816	56	6462
2026-01-23 04:00:43.97	223.03	7.04	-40.6	-42.5	25.5	3.02e+01	90	41	0	123731968	56	6431
2026-01-23 04:00:44.98	223.15	7.10	-40.5	-42.4	25.6	3.02e+01	92	41	0	125304832	56	6359
2026-01-23 04:00:45.99	223.28	7.16	-40.4	-42.2	25.7	3.02e+01	92	41	0	127401984	56	6251
2026-01-23 04:00:47.00	223.40	7.22	-40.4	-42.2	25.8	3.02e+01	92	41	0	129499136	56	6213
2026-01-23 04:00:48.01	223.53	7.29	-40.5	-42.3	25.6	3.02e+01	90	41	0	131072000	56	6319
2026-01-23 04:00:49.01	223.65	7.35	-40.7	-42.4	25.6	3.02e+01	92	41	0	133169152	56	6386
2026-01-23 04:00:50.02	223.78	7.41	-40.8	-42.5	25.4	3.02e+01	91	41	0	134742016	56	6464
2026-01-23 04:00:51.03	223.90	7.47	-40.9	-42.6	25.4	3.02e+01	92	41	0	136839168	56	6512
2026-01-23 04:00:52.04	224.03	7.54	-41.0	-42.7	25.4	3.02e+01	90	41	0	138936320	56	6578
2026-01-23 04:00:53.05	224.16	7.60	-40.7	-42.4	25.5	3.02e+01	92	41	0	140509184	56	6351
2026-01-23 04:00:54.06	224.29	7.66	-40.7	-42.4	25.5	3.02e+01	92	41	0	142606336	56	6370
2026-01-23 04:00:55.07	224.42	7.73	-40.6	-42.3	25.7	3.02e+01	92	41	0	144703488	56	6284
2026-01-23 04:00:56.08	224.55	7.79	-40.7	-42.5	25.5	3.02e+01	90	41	0	146276352	56	6450
2026-01-23 04:00:57.09	224.68	7.85	-40.8	-42.6	25.3	3.02e+01	92	41	0	148373504	56	6529
2026-01-23 04:00:58.10	224.81	7.91	-41.1	-43.0	24.9	3.02e+01	92	41	0	149946368	56	6843
2026-01-23 04:00:59.11	224.94	7.98	-40.8	-42.7	25.2	3.02e+01	92	41	0	152043520	56	6641
2026-01-23 04:01:00.12	225.07	8.04	-41.2	-43.2	24.8	3.02e+01	92	41	0	154140672	56	7004
2026-01-23 04:01:01.13	225.21	8.10	-41.2	-43.2	24.7	3.02e+01	90	41	0	155713536	56	7034
2026-01-23 04:01:02.14	225.34	8.17	-41.4	-43.4	24.6	3.02e+01	92	41	0	157810688	56	7189
2026-01-23 04:01:03.15	225.47	8.23	-41.3	-43.0	25.0	3.02e+01	92	41	0	159383552	56	6827
2026-01-23 04:01:04.16	225.61	8.29	-41.3	-43.0	25.0	3.02e+01	92	41	0	161480704	56	6838
2026-01-23 04:01:05.17	225.74	8.36	-41.2	-42.9	25.2	3.02e+01	92	41	0	163577856	56	6733
2026-01-23 04:01:06.18	225.88	8.42	-41.2	-42.9	25.2	3.02e+01	92	41	0	165150720	56	6751
2026-01-23 04:01:07.19	226.02	8.49	-41.1	-42.8	25.2	3.02e+01	92	41	0	167247872	56	6663
2026-01-23 04:01:08.20	226.15	8.55	-41.1	-42.8	25.2	3.02e+01	90	41	0	168820736	56	6653
2026-01-23 04:01:09.21	226.29	8.61	-40.9	-42.6	25.4	3.02e+01	92	41	0	170917888	56	6510
2026-01-23 04:01:10.22	226.43	8.68	-41.2	-42.8	25.1	3.02e+01	92	41	0	173015040	56	6721
2026-01-23 04:01:11.23	226.57	8.74	-41.4	-42.9	25.2	3.02e+01	92	41	0	174587904	56	6788
2026-01-23 04:01:12.24	226.71	8.80	-41.1	-42.6	25.5	3.02e+01	90	41	0	176685056	56	6514
2026-01-23 04:01:13.25	226.85	8.87	-41.1	-42.6	25.4	3.02e+01	92	41	0	178257920	56	6569
2026-01-23 04:01:14.26	226.99	8.93	-41.3	-42.9	25.1	3.02e+01	92	41	0	180355072	56	6755
2026-01-23 04:01:15.27	227.13	9.00	-41.2	-42.8	25.2	3.02e+01	92	41	0	182452224	56	6710
2026-01-23 04:01:16.28	227.27	9.06	-41.0	-42.7	25.4	3.02e+01	92	41	0	184025088	56	6584
2026-01-23 04:01:17.29	227.42	9.12	-41.1	-42.7	25.2	3.02e+01	92	41	0	186122240	56	6645
2026-01-23 04:01:18.30	227.56	9.19	-41.1	-42.7	25.3	3.02e+01	92	41	0	187695104	56	6598
2026-01-23 04:01:19.31	227.70	9.25	-41.4	-43.0	25.0	3.02e+01	92	41	0	189792256	56	6835
2026-01-23 04:01:20.32	227.85	9.32	-41.5	-43.1	24.9	3.02e+01	92	41	0	191889408	56	6924
2026-01-23 04:01:21.33	228.00	9.38	-41.4	-43.0	25.0	3.02e+01	90	41	0	193462272	56	6856
2026-01-23 04:01:22.34	228.14	9.45	-41.4	-42.9	25.1	3.02e+01	92	41	0	195559424	56	6784
2026-01-23 04:01:23.35	228.29	9.51	-41.3	-42.8	25.2	3.02e+01	92	41	0	197656576	56	6725
2026-01-23 04:01:24.36	228.44	9.57	-41.3	-42.8	25.3	3.02e+01	92	41	0	199229440	56	6675
2026-01-23 04:01:25.36	228.58	9.64	-41.4	-42.9	25.1	3.02e+01	91	41	0	201326592	56	6802
2026-01-23 04:01:26.37	228.73	9.70	-41.6	-43.1	25.0	3.02e+01	91	41	0	202899456	56	6930
2026-01-23 04:01:27.38	228.88	9.77	-41.4	-43.0	25.1	3.02e+01	92	41	0	204996608	56	6836
2026-01-23 04:01:28.39	229.03	9.83	-41.4	-42.9	25.2	3.02e+01	92	41	0	207093760	56	6771
2026-01-23 04:01:29.40	229.18	9.90	-41.4	-42.9	25.1	3.02e+01	92	41	0	208666624	56	6783
2026-01-23 04:01:30.41	229.33	9.96	-41.4	-42.9	25.1	3.02e+01	90	41	0	210763776	56	6767
2026-01-23 04:01:31.42	229.49	10.02	-41.4	-43.0	25.0	3.02e+01	91	41	0	212860928	56	6878
2026-01-23 04:01:32.43	229.64	10.09	-41.6	-43.2	25.0	3.02e+01	91	41	0	214433792	56	6988
2026-01-23 04:01:33.44	229.79	10.15	-41.3	-42.9	25.2	3.02e+01	91	41	0	216530944	56	6735
2026-01-23 04:01:34.45	229.95	10.22	-41.4	-43.0	25.1	3.02e+01	90	41	0	218103808	56	6842
2026-01-23 04:01:35.46	230.10	10.28	-41.4	-42.9	25.1	3.02e+01	90	41	0	220200960	56	6769
2026-01-23 04:01:36.47	230.26	10.35	-41.3	-42.9	25.2	3.02e+01	92	41	0	222298112	56	6744
2026-01-23 04:01:37.48	230.42	10.41	-41.2	-42.8	25.3	3.02e+01	92	41	0	223870976	56	6657
2026-01-23 04:01:38.49	230.57	10.48	-41.1	-42.6	25.4	3.02e+01	92	41	0	225968128	56	6567
2026-01-23 04:01:39.50	230.73	10.54	-41.1	-42.6	25.5	3.02e+01	92	41	0	227540992	56	6518
2026-01-23 04:01:40.51	230.89	10.61	-41.3	-42.8	25.2	3.02e+01	91	41	0	229638144	56	6721
2026-01-23 04:01:41.52	231.05	10.67	-41.3	-42.9	25.2	3.02e+01	92	41	0	231735296	56	6771
2026-01-23 04:01:42.53	231.21	10.73	-41.4	-43.0	25.1	3.02e+01	92	41	0	233308160	56	6818
2026-01-23 04:01:43.54	231.37	10.80	-41.3	-42.9	25.2	3.02e+01	92	41	0	235405312	56	6748
2026-01-23 04:01:44.55	231.53	10.86	-41.4	-43.0	25.1	3.02e+01	88	41	0	236978176	56	6806
2026-01-23 04:01:45.56	231.70	10.93	-41.2	-42.7	25.4	3.02e+01	90	41	0	239075328	56	6593
2026-01-23 04:01:46.57	231.86	10.99	-41.2	-42.7	25.3	3.02e+01	92	41	0	241172480	56	6642
2026-01-23 04:01:47.58	232.02	11.06	-41.1	-42.7	25.2	3.02e+01	92	40	0	242745344	56	6611
2026-01-23 04:01:48.59	232.19	11.12	-41.3	-42.8	25.3	3.02e+01	91	41	0	244842496	56	6712
2026-01-23 04:01:49.60	232.36	11.19	-41.5	-43.1	24.9	3.02e+01	91	41	0	246415360	56	6930
2026-01-23 04:01:50.61	232.52	11.25	-41.4	-43.0	25.1	3.02e+01	92	41	0	248512512	56	6842
2026-01-23 04:01:51.62	232.69	11.32	-41.2	-42.7	25.3	3.02e+01	92	41	0	250609664	56	6633
2026-01-23 04:01:52.63	232.86	11.38	-41.3	-42.9	25.2	3.02e+01	92	41	0	252182528	56	6741
2026-01-23 04:01:53.64	233.03	11.44	-41.5	-43.0	25.1	3.02e+01	92	41	0	254279680	56	6871
2026-01-23 04:01:54.65	233.19	11.51	-41.7	-43.3	24.9	3.02e+01	91	41	0	255852544	56	7076
2026-01-23 04:01:55.66	233.37	11.57	-41.2	-42.7	25.3	3.02e+01	92	41	0	257949696	56	6613
2026-01-23 04:01:56.67	233.54	11.64	-41.0	-42.5	25.6	3.02e+01	92	41	0	260046848	56	6439
2026-01-23 04:01:57.67	233.71	11.70	-40.9	-42.3	25.7	3.02e+01	90	41	0	261619712	56	6348
2026-01-23 04:01:58.68	233.88	11.77	-40.8	-42.3	25.8	3.02e+01	92	41	0	263716864	56	6298
2026-01-23 04:01:59.69	234.05	11.83	-40.7	-42.2	25.9	3.02e+01	91	41	0	265814016	56	6217
2026-01-23 04:02:00.70	234.23	11.89	-40.6	-42.1	25.9	3.02e+01	90	41	0	267386880	56	6149
2026-01-23 04:02:01.71	234.40	11.96	-40.7	-42.1	25.9	3.02e+01	91	41	0	269484032	56	6174
2026-01-23 04:02:02.72	234.58	12.02	-40.7	-42.2	25.9	3.02e+01	91	41	0	271056896	56	6246
2026-01-23 04:02:03.73	234.75	12.09	-40.8	-42.2	25.8	3.02e+01	91	41	0	273154048	56	6274
2026-01-23 04:02:04.74	234.93	12.15	-40.4	-41.8	26.2	3.02e+01	92	41	0	275251200	56	5980
2026-01-23 04:02:05.75	235.11	12.22	-40.2	-41.6	26.4	3.02e+01	91	41	0	276824064	56	5834
2026-01-23 04:02:06.76	235.29	12.28	-40.4	-41.8	26.2	3.02e+01	90	41	0	278921216	56	5957
2026-01-23 04:02:07.77	235.47	12.34	-40.4	-41.9	26.1	3.02e+01	92	41	0	281018368	56	5997
2026-01-23 04:02:08.78	235.65	12.41	-40.3	-41.7	26.3	3.02e+01	92	41	0	282591232	56	5904
2026-01-23 04:02:09.79	235.83	12.47	-40.3	-41.7	26.3	3.02e+01	92	41	0	284688384	56	5863
2026-01-23 04:02:10.80	236.01	12.53	-40.0	-41.4	26.7	3.02e+01	91	41	0	286261248	56	5673
2026-01-23 04:02:11.81	236.20	12.60	-39.8	-41.2	26.7	3.02e+01	91	41	0	288358400	54	6210
2026-01-23 04:02:12.82	236.38	12.66	-39.7	-41.1	26.8	3.02e+01	92	41	0	290455552	54	6156
2026-01-23 04:02:13.83	236.56	12.73	-39.7	-41.1	26.8	3.02e+01	91	41	0	292028416	54	6178
2026-01-23 04:02:14.84	236.75	12.79	-39.8	-41.2	26.7	3.02e+01	92	40	0	294125568	54	6219
2026-01-23 04:02:15.85	236.94	12.85	-39.6	-41.0	26.9	3.02e+01	92	41	0	295698432	54	6089
2026-01-23 04:02:16.86	237.12	12.92	-39.7	-41.1	26.9	3.02e+01	91	41	0	297795584	54	6140
2026-01-23 04:02:17.87	237.31	12.98	-39.5	-40.8	27.1	3.02e+01	90	41	0	299892736	54	5951
2026-01-23 04:02:18.88	237.50	13.04	-39.6	-41.0	26.9	3.02e+01	91	41	0	301465600	54	6068
2026-01-23 04:02:19.89	237.69	13.11	-39.4	-40.7	27.2	3.02e+01	91	41	0	303562752	54	5900
2026-01-23 04:02:20.90	237.88	13.17	-39.3	-40.6	27.2	3.02e+01	92	41	0	305135616	54	5840
2026-01-23 04:02:21.91	238.07	13.23	-39.1	-40.4	27.5	3.02e+01	90	40	0	307232768	54	5682
2026-01-23 04:02:22.91	238.26	13.29	-39.1	-40.4	27.5	3.02e+01	88	41	0	309329920	54	5682
2026-01-23 04:02:23.92	238.46	13.36	-39.1	-40.4	27.5	3.02e+01	92	41	0	310902784	54	5674
2026-01-23 04:02:24.93	238.65	13.42	-38.9	-40.2	27.7	3.02e+01	92	41	0	312999936	52	6265
2026-01-23 04:02:25.94	238.85	13.48	-38.9	-40.2	27.7	3.02e+01	92	41	0	314572800	52	6259
2026-01-23 04:02:26.95	239.04	13.54	-39.0	-40.2	27.6	3.02e+01	92	41	0	316669952	52	6275
2026-01-23 04:02:27.97	239.24	13.61	-38.8	-40.1	27.8	3.02e+01	92	41	0	318767104	52	6160
2026-01-23 04:02:28.97	239.44	13.67	-38.9	-40.1	27.7	3.02e+01	90	41	0	320339968	52	6197
2026-01-23 04:02:29.98	239.63	13.73	-38.7	-40.0	27.9	3.02e+01	92	41	0	322437120	52	6106
2026-01-23 04:02:30.99	239.83	13.79	-38.8	-40.0	27.9	3.02e+01	92	41	0	324009984	52	6128
2026-01-23 04:02:32.00	240.03	13.85	-38.6	-39.9	28.0	3.02e+01	91	41	0	326107136	52	6013
2026-01-23 04:02:33.01	240.23	13.92	-38.6	-39.8	28.1	3.02e+01	92	41	0	328204288	52	5992
2026-01-23 04:02:34.02	240.44	13.98	-38.5	-39.8	28.1	3.02e+01	92	41	0	329777152	52	5964
2026-01-23 04:02:35.03	240.64	14.04	-38.4	-39.6	28.3	3.02e+01	90	41	0	331874304	52	5833
2026-01-23 04:02:36.04	240.84	14.10	-38.5	-39.8	28.2	3.02e+01	91	41	0	333971456	52	5954
2026-01-23 04:02:37.05	241.05	14.16	-38.5	-39.7	28.2	3.02e+01	90	41	0	335544320	52	5911
2026-01-23 04:02:38.06	241.25	14.22	-38.3	-39.6	28.4	3.02e+01	92	41	0	337641472	52	5794
2026-01-23 04:02:39.06	241.46	14.28	-38.5	-39.8	28.2	3.02e+01	89	41	0	339214336	52	5952
2026-01-23 04:02:40.07	241.66	14.34	-38.2	-39.5	28.4	3.02e+01	92	41	0	341311488	52	5730
2026-01-23 04:02:41.08	241.87	14.40	-38.2	-39.4	28.5	3.02e+01	92	41	0	343408640	52	5710
2026-01-23 04:02:42.09	242.08	14.46	-38.1	-39.4	28.5	3.02e+01	88	41	0	344981504	52	5661
2026-01-23 04:02:43.10	242.29	14.52	-38.0	-39.2	28.7	3.02e+01	92	41	0	347078656	52	5558
2026-01-23 04:02:44.11	242.50	14.58	-37.9	-39.2	28.7	3.02e+01	92	41	0	349175808	50	6233
2026-01-23 04:02:45.12	242.71	14.64	-37.9	-39.2	28.8	3.02e+01	92	41	0	350748672	50	6214
2026-01-23 04:02:46.13	242.92	14.70	-37.9	-39.1	28.8	3.02e+01	92	41	0	352845824	50	6203
2026-01-23 04:02:47.14	243.14	14.76	-38.0	-39.2	28.8	3.02e+01	92	41	0	354418688	50	6240
2026-01-23 04:02:48.15	243.35	14.82	-37.9	-39.1	28.9	3.02e+01	90	41	0	356515840	50	6175
2026-01-23 04:02:49.16	243.57	14.88	-37.7	-38.9	28.9	3.02e+01	92	41	0	358612992	50	6061
2026-01-23 04:02:50.17	243.78	14.94	-37.8	-39.0	28.9	3.02e+01	92	41	0	360185856	50	6121
2026-01-23 04:02:51.18	244.00	15.00	-37.8	-39.0	28.9	3.02e+01	92	41	0	362283008	50	6107
2026-01-23 04:02:52.19	244.22	15.06	-37.6	-38.9	29.0	3.02e+01	92	41	0	363855872	50	6010
2026-01-23 04:02:53.20	244.43	15.11	-37.7	-38.9	29.0	3.02e+01	92	41	0	365953024	50	6046
2026-01-23 04:02:54.21	244.65	15.17	-37.7	-39.0	29.0	3.02e+01	90	41	0	368050176	50	6067
2026-01-23 04:02:55.22	244.87	15.23	-37.8	-39.0	28.9	3.02e+01	92	41	0	369623040	50	6110
2026-01-23 04:02:56.23	245.09	15.29	-37.8	-39.0	28.9	3.02e+01	90	41	0	371720192	50	6120
2026-01-23 04:02:57.24	245.32	15.34	-37.8	-39.0	28.8	3.02e+01	92	41	0	373293056	50	6103
2026-01-23 04:02:58.25	245.54	15.40	-37.7	-38.9	29.1	3.02e+01	92	41	0	375390208	50	6044
2026-01-23 04:02:59.26	245.76	15.46	-37.6	-38.9	29.0	3.02e+01	90	41	0	377487360	50	5998
2026-01-23 04:03:00.27	245.99	15.51	-37.8	-39.0	29.0	3.02e+01	92	41	0	379060224	50	6111
2026-01-23 04:03:01.28	246.21	15.57	-37.8	-39.0	28.9	3.02e+01	89	41	0	381157376	50	6117
2026-01-23 04:03:02.29	246.44	15.63	-37.6	-38.9	29.0	3.02e+01	92	41	0	382730240	50	5996
2026-01-23 04:03:03.30	246.67	15.68	-37.7	-39.0	28.9	3.02e+01	92	41	0	384827392	50	6070
2026-01-23 04:03:04.31	246.90	15.74	-37.8	-39.0	29.0	3.02e+01	91	41	0	386924544	50	6073
2026-01-23 04:03:05.31	247.12	15.79	-37.9	-39.1	28.8	3.02e+01	92	41	0	388497408	50	6170
2026-01-23 04:03:06.32	247.35	15.85	-37.8	-39.0	28.9	3.02e+01	92	41	0	390594560	50	6095
2026-01-23 04:03:07.33	247.58	15.90	-37.9	-39.1	28.8	3.02e+01	92	41	0	392167424	50	6177
2026-01-23 04:03:08.34	247.81	15.96	-37.8	-39.0	28.9	3.02e+01	91	41	0	394264576	50	6120
2026-01-23 04:03:09.35	248.05	16.01	-37.9	-39.1	28.8	3.02e+01	90	41	0	396361728	50	6170
2026-01-23 04:03:10.36	248.28	16.06	-37.7	-39.0	29.0	3.02e+01	92	41	0	397934592	50	6065
2026-01-23 04:03:11.37	248.51	16.12	-37.8	-39.1	29.0	3.02e+01	92	41	0	400031744	50	6144
2026-01-23 04:03:12.38	248.75	16.17	-37.7	-38.9	29.0	3.02e+01	92	41	0	402128896	50	6028
2026-01-23 04:03:13.39	248.99	16.22	-38.0	-39.2	28.7	3.02e+01	92	41	0	403701760	50	6233
2026-01-23 04:03:14.40	249.22	16.28	-37.9	-39.1	28.8	3.02e+01	92	41	0	405798912	50	6192
2026-01-23 04:03:15.41	249.46	16.33	-37.8	-39.0	28.9	3.02e+01	92	41	0	407371776	50	6123
2026-01-23 04:03:16.42	249.70	16.38	-37.8	-39.0	29.0	3.02e+01	92	41	0	409468928	50	6073
2026-01-23 04:03:17.43	249.94	16.43	-37.8	-39.0	29.0	3.02e+01	91	41	0	411566080	50	6124
2026-01-23 04:03:18.44	250.18	16.48	-37.7	-38.9	29.0	3.02e+01	92	41	0	413138944	50	6062
2026-01-23 04:03:19.45	250.42	16.53	-37.6	-38.8	29.1	3.02e+01	92	41	0	415236096	50	5965
2026-01-23 04:03:20.46	250.66	16.58	-37.6	-38.8	29.2	3.02e+01	88	41	0	417333248	50	5939
2026-01-23 04:03:21.47	250.90	16.63	-37.7	-38.9	29.1	3.02e+01	92	41	0	418906112	50	6007
2026-01-23 04:03:22.48	251.15	16.68	-37.6	-38.8	29.1	3.02e+01	92	41	0	421003264	50	5986
2026-01-23 04:03:23.48	251.39	16.73	-37.7	-38.9	29.0	3.02e+01	83	41	0	422576128	50	6039
2026-01-23 04:03:24.50	251.64	16.78	-37.9	-39.2	28.8	3.02e+01	92	41	0	424673280	50	6210
2026-01-23 04:03:25.51	251.88	16.83	-37.9	-39.2	28.9	3.02e+01	92	41	0	426770432	50	6207
2026-01-23 04:03:26.52	252.13	16.88	-37.5	-38.7	29.2	3.02e+01	92	41	0	428343296	50	5912
2026-01-23 04:03:27.53	252.38	16.93	-37.5	-38.7	29.2	3.02e+01	92	41	0	430440448	50	5915
2026-01-23 04:03:28.54	252.63	16.98	-37.6	-38.8	29.1	3.02e+01	92	41	0	432013312	50	5994
2026-01-23 04:03:29.54	252.87	17.02	-37.8	-39.0	28.9	3.02e+01	92	41	0	434110464	50	6126
2026-01-23 04:03:30.55	253.12	17.07	-37.8	-39.1	28.9	3.02e+01	91	41	0	436207616	50	6135
2026-01-23 04:03:31.56	253.37	17.12	-37.7	-38.9	29.1	3.02e+01	92	41	0	437780480	50	6013
2026-01-23 04:03:32.57	253.63	17.16	-37.7	-38.9	29.1	3.02e+01	91	41	0	439877632	50	6008
2026-01-23 04:03:33.58	253.88	17.21	-37.8	-39.0	29.0	3.02e+01	92	41	0	441450496	50	6099
2026-01-23 04:03:34.59	254.13	17.25	-37.8	-39.0	29.0	3.02e+01	92	41	0	443547648	50	6090
2026-01-23 04:03:35.60	254.39	17.30	-37.7	-38.9	29.0	3.02e+01	91	41	0	445644800	50	6047
2026-01-23 04:03:36.61	254.64	17.34	-37.6	-38.8	29.1	3.02e+01	92	41	0	447217664	50	5968
2026-01-23 04:03:37.62	254.90	17.38	-37.6	-38.8	29.1	3.02e+01	92	41	0	449314816	50	5985
2026-01-23 04:03:38.63	255.15	17.43	-37.6	-38.8	29.2	3.02e+01	92	41	0	450887680	50	5938
2026-01-23 04:03:39.64	255.41	17.47	-37.7	-38.9	29.1	3.02e+01	92	41	0	452984832	50	6024
2026-01-23 04:03:40.65	255.67	17.51	-37.8	-39.0	28.9	3.02e+01	92	41	0	455081984	50	6108
2026-01-23 04:03:41.66	255.93	17.56	-37.7	-38.9	29.1	3.02e+01	92	41	0	456654848	50	6030
2026-01-23 04:03:42.66	256.18	17.60	-37.7	-38.9	29.0	3.02e+01	92	41	0	458752000	50	6062
2026-01-23 04:03:43.67	256.44	17.64	-37.6	-38.8	29.1	3.02e+01	92	41	0	460324864	50	5988
2026-01-23 04:03:44.68	256.70	17.68	-37.7	-39.0	29.0	3.02e+01	92	41	0	462422016	50	6077
2026-01-23 04:03:45.69	256.96	17.72	-37.8	-39.1	28.9	3.02e+01	92	41	0	464519168	50	6148
2026-01-23 04:03:46.71	257.23	17.76	-37.8	-39.0	29.0	3.02e+01	92	41	0	466092032	50	6082
2026-01-23 04:03:47.71	257.49	17.80	-37.7	-38.9	29.1	3.02e+01	92	41	0	468189184	50	6028
2026-01-23 04:03:48.72	257.75	17.84	-37.8	-39.0	29.0	3.02e+01	92	41	0	470286336	50	6102
2026-01-23 04:03:49.73	258.02	17.87	-37.9	-39.1	28.9	3.02e+01	92	41	0	471859200	50	6162
2026-01-23 04:03:50.74	258.28	17.91	-38.0	-39.2	28.8	3.02e+01	92	41	0	473956352	50	6252
2026-01-23 04:03:51.75	258.55	17.95	-38.0	-39.2	28.8	3.02e+01	92	41	0	475529216	50	6225
2026-01-23 04:03:52.76	258.81	17.99	-37.8	-39.0	29.0	3.02e+01	92	41	0	477626368	50	6117
2026-01-23 04:03:53.77	259.08	18.02	-37.8	-39.0	29.0	3.02e+01	92	41	0	479723520	50	6114
2026-01-23 04:03:54.78	259.35	18.06	-37.8	-39.0	29.0	3.02e+01	92	41	0	481296384	50	6092
2026-01-23 04:03:55.79	259.62	18.09	-37.6	-38.8	29.2	3.02e+01	92	41	0	483393536	50	5979
2026-01-23 04:03:56.80	259.89	18.13	-37.8	-39.0	29.0	3.02e+01	92	41	0	485490688	50	6090
2026-01-23 04:03:57.81	260.16	18.16	-37.7	-39.0	29.0	3.02e+01	90	41	0	487063552	50	6076
2026-01-23 04:03:58.82	260.43	18.19	-37.8	-39.1	28.9	3.02e+01	90	41	0	489160704	50	6142
2026-01-23 04:03:59.83	260.70	18.23	-37.8	-39.0	29.0	3.02e+01	91	41	0	490733568	50	6126
2026-01-23 04:04:00.84	260.97	18.26	-37.7	-38.9	29.1	3.02e+01	91	41	0	492830720	50	6058
2026-01-23 04:04:01.85	261.24	18.29	-37.7	-39.0	29.0	3.02e+01	92	41	0	494403584	50	6068
2026-01-23 04:04:02.86	261.51	18.32	-37.7	-38.9	29.0	3.02e+01	90	41	0	496500736	50	6052
2026-01-23 04:04:03.87	261.79	18.35	-37.8	-39.0	28.9	3.02e+01	92	41	0	498597888	50	6080
2026-01-23 04:04:04.88	262.06	18.38	-37.6	-38.8	29.2	3.02e+01	90	41	0	500170752	50	5956
2026-01-23 04:04:05.89	262.33	18.41	-37.6	-38.8	29.1	3.02e+01	92	41	0	502267904	50	5993
2026-01-23 04:04:06.90	262.61	18.44	-37.6	-38.8	29.0	3.02e+01	91	41	0	503840768	50	5980
2026-01-23 04:04:07.91	262.88	18.47	-37.8	-39.0	29.1	3.02e+01	91	41	0	505937920	50	6074
2026-01-23 04:04:08.92	263.16	18.50	-37.8	-39.0	29.0	3.02e+01	91	41	0	508035072	50	6086
2026-01-23 04:04:09.92	263.43	18.53	-37.8	-39.0	28.9	3.02e+01	92	41	0	509607936	50	6116
2026-01-23 04:04:10.93	263.71	18.55	-37.6	-38.8	29.1	3.02e+01	92	41	0	511705088	50	5973
2026-01-23 04:04:11.94	263.99	18.58	-37.8	-39.0	29.0	3.02e+01	92	41	0	513802240	50	6114
2026-01-23 04:04:12.95	264.27	18.60	-37.9	-39.1	28.9	3.02e+01	92	41	0	515375104	50	6194
2026-01-23 04:04:13.96	264.54	18.63	-37.8	-39.0	29.0	3.02e+01	92	41	0	517472256	50	6066
2026-01-23 04:04:14.97	264.82	18.65	-38.4	-39.6	27.7	3.02e+01	92	41	0	519045120	52	5795
2026-01-23 04:04:15.98	265.10	18.68	-38.7	-40.0	28.7	3.02e+01	91	41	0	521142272	50	6835
2026-01-23 04:04:16.99	265.38	18.70	-37.9	-39.1	29.1	3.02e+01	91	41	0	523239424	50	6138
2026-01-23 04:04:18.00	265.66	18.72	-37.7	-38.9	28.8	3.02e+01	90	41	0	524812288	50	6056
2026-01-23 04:04:19.01	265.94	18.74	-37.8	-39.0	29.1	3.02e+01	91	41	0	526909440	50	6132
2026-01-23 04:04:20.02	266.22	18.77	-37.8	-39.0	29.0	3.02e+01	89	41	0	528482304	50	6104
2026-01-23 04:04:21.03	266.50	18.79	-37.9	-39.1	28.9	3.02e+01	90	41	0	530579456	50	6194
2026-01-23 04:04:22.04	266.79	18.81	-37.8	-39.1	29.0	3.02e+01	90	41	0	532676608	50	6137
2026-01-23 04:04:23.05	267.07	18.83	-37.7	-38.9	29.0	3.02e+01	91	41	0	534249472	50	6057
2026-01-23 04:04:24.06	267.35	18.84	-37.8	-39.0	29.1	3.02e+01	91	41	0	536346624	50	6096
2026-01-23 04:04:25.07	267.63	18.86	-37.8	-39.0	29.1	3.02e+01	92	41	0	538443776	50	6080
2026-01-23 04:04:26.08	267.92	18.88	-37.8	-39.0	29.0	3.02e+01	92	41	0	540016640	50	6134
2026-01-23 04:04:27.09	268.20	18.90	-37.9	-39.1	29.0	3.02e+01	90	41	0	542113792	50	6168
2026-01-23 04:04:28.10	268.48	18.91	-37.8	-39.0	29.1	3.02e+01	92	41	0	543686656	50	6126
2026-01-23 04:04:29.11	268.77	18.93	-37.9	-39.1	29.0	3.02e+01	92	41	0	545783808	50	6168
2026-01-23 04:04:30.12	269.05	18.94	-37.7	-38.9	29.1	3.02e+01	92	41	0	547880960	50	6034
2026-01-23 04:04:31.13	269.33	18.96	-37.9	-39.1	29.0	3.02e+01	92	41	0	549453824	50	6144
2026-01-23 04:04:32.14	269.62	18.97	-37.8	-39.0	29.0	3.02e+01	91	41	0	551550976	50	6091
2026-01-23 04:04:33.15	269.90	18.98	-37.9	-39.1	29.0	3.02e+01	90	41	0	553123840	50	6201
2026-01-23 04:04:34.16	270.19	19.00	-37.8	-39.0	29.0	3.02e+01	91	41	0	555220992	50	6133
2026-01-23 04:04:35.17	270.48	19.01	-37.9	-39.1	28.9	3.02e+01	91	41	0	557318144	50	6178
2026-01-23 04:04:36.18	270.76	19.02	-37.8	-39.0	29.0	3.02e+01	91	41	0	558891008	50	6083
2026-01-23 04:04:37.19	271.05	19.03	-37.8	-39.0	29.1	3.02e+01	91	41	0	560988160	50	6111
2026-01-23 04:04:38.20	271.33	19.04	-37.9	-39.1	28.9	3.02e+01	91	41	0	562561024	50	6191
2026-01-23 04:04:39.21	271.62	19.05	-37.7	-38.9	29.2	3.02e+01	92	41	0	564658176	50	6014
2026-01-23 04:04:40.22	271.91	19.05	-37.7	-38.9	29.2	3.02e+01	87	41	0	566755328	50	6013
2026-01-23 04:04:41.22	272.19	19.06	-37.7	-38.9	29.2	3.02e+01	90	41	0	568328192	50	6021
2026-01-23 04:04:42.24	272.48	19.07	-37.8	-39.0	29.0	3.02e+01	92	41	0	570425344	50	6077
2026-01-23 04:04:43.25	272.77	19.07	-37.8	-39.1	29.0	3.02e+01	90	41	0	571998208	50	6143
2026-01-23 04:04:44.26	273.05	19.08	-37.8	-39.0	29.0	3.02e+01	92	41	0	574095360	50	6090
2026-01-23 04:04:45.27	273.34	19.08	-37.8	-39.0	29.0	3.02e+01	92	41	0	576192512	50	6082
2026-01-23 04:04:46.28	273.63	19.09	-37.7	-38.9	29.2	3.02e+01	92	41	0	577765376	50	6003
2026-01-23 04:04:47.28	273.91	19.09	-37.8	-39.1	29.0	3.02e+01	90	41	0	579862528	50	6138
2026-01-23 04:04:48.29	274.20	19.10	-37.9	-39.1	29.0	3.02e+01	92	41	0	581959680	50	6171
2026-01-23 04:04:49.30	274.48	19.10	-38.1	-39.3	28.8	3.02e+01	92	41	0	583532544	50	6330
2026-01-23 04:04:50.31	274.77	19.10	-37.9	-39.1	28.9	3.02e+01	92	41	0	585629696	50	6185
2026-01-23 04:04:51.32	275.06	19.10	-37.8	-39.1	29.0	3.02e+01	92	41	0	587202560	50	6143
2026-01-23 04:04:52.33	275.35	19.10	-37.8	-39.0	29.2	3.02e+01	92	41	0	589299712	50	6070
2026-01-23 04:04:53.34	275.63	19.10	-37.7	-38.9	29.2	3.02e+01	91	41	0	591396864	50	6028
2026-01-23 04:04:54.35	275.92	19.10	-37.9	-39.1	29.0	3.02e+01	91	41	0	592969728	50	6154
2026-01-23 04:04:55.36	276.21	19.10	-37.6	-38.8	29.2	3.02e+01	92	41	0	595066880	50	5961
2026-01-23 04:04:56.37	276.50	19.09	-37.8	-39.0	29.1	3.02e+01	92	41	0	596639744	50	6098
2026-01-23 04:04:57.38	276.78	19.09	-37.9	-39.1	28.9	3.02e+01	92	41	0	598736896	50	6170
2026-01-23 04:04:58.39	277.07	19.09	-37.8	-39.0	29.0	3.02e+01	92	41	0	600834048	50	6127
2026-01-23 04:04:59.40	277.36	19.08	-37.7	-38.9	29.1	3.02e+01	92	41	0	602406912	50	6053
2026-01-23 04:05:00.41	277.64	19.08	-37.8	-39.0	29.0	3.02e+01	92	41	0	604504064	50	6131
2026-01-23 04:05:01.42	277.93	19.07	-37.9	-39.1	29.0	3.02e+01	92	41	0	606601216	50	6149
2026-01-23 04:05:02.43	278.22	19.06	-37.9	-39.1	29.0	3.02e+01	88	41	0	608174080	50	6152
2026-01-23 04:05:03.43	278.50	19.06	-37.7	-38.9	29.2	3.02e+01	92	41	0	610271232	50	6043
2026-01-23 04:05:04.44	278.79	19.05	-37.8	-39.0	29.1	3.02e+01	92	41	0	611844096	50	6090
2026-01-23 04:05:05.45	279.07	19.04	-37.6	-38.9	29.2	3.02e+01	92	41	0	613941248	50	6002
2026-01-23 04:05:06.46	279.36	19.03	-37.8	-39.0	29.1	3.02e+01	92	41	0	616038400	50	6073
2026-01-23 04:05:07.47	279.64	19.02	-37.9	-39.2	28.9	3.02e+01	90	41	0	617611264	50	6209
2026-01-23 04:05:08.48	279.93	19.01	-37.9	-39.2	28.9	3.02e+01	92	41	0	619708416	50	6208
2026-01-23 04:05:09.49	280.21	19.00	-37.9	-39.1	29.0	3.02e+01	90	41	0	621281280	50	6188
2026-01-23 04:05:10.50	280.50	18.99	-37.8	-39.0	29.2	3.02e+01	92	41	0	623378432	50	6080
2026-01-23 04:05:11.51	280.78	18.97	-37.6	-38.8	29.3	3.02e+01	92	41	0	625475584	50	5936
2026-01-23 04:05:12.52	281.07	18.96	-37.6	-38.8	29.2	3.02e+01	92	41	0	627048448	50	5990
2026-01-23 04:05:13.53	281.35	18.95	-37.8	-39.0	29.2	3.02e+01	90	41	0	629145600	50	6077
2026-01-23 04:05:14.54	281.64	18.93	-37.7	-38.9	29.2	3.02e+01	92	41	0	630718464	50	6056
2026-01-23 04:05:15.55	281.92	18.92	-37.7	-38.9	29.2	3.02e+01	89	41	0	632815616	50	6054
2026-01-23 04:05:16.56	282.20	18.90	-37.7	-39.0	29.1	3.02e+01	92	41	0	634912768	50	6069
2026-01-23 04:05:17.57	282.49	18.88	-37.9	-39.1	29.0	3.02e+01	88	41	0	636485632	50	6146
2026-01-23 04:05:18.58	282.77	18.87	-37.5	-38.7	29.3	3.02e+01	92	41	0	638582784	50	5899
2026-01-23 04:05:19.59	283.05	18.85	-37.5	-38.8	29.3	3.02e+01	91	41	0	640155648	50	5927
2026-01-23 04:05:20.59	283.33	18.83	-37.5	-38.7	29.3	3.02e+01	90	41	0	642252800	50	5925
2026-01-23 04:05:21.60	283.61	18.81	-37.6	-38.8	29.3	3.02e+01	92	41	0	644349952	50	5983
2026-01-23 04:05:22.61	283.89	18.79	-37.8	-39.0	29.2	3.02e+01	92	41	0	645922816	50	6101
2026-01-23 04:05:23.62	284.17	18.77	-37.8	-39.0	29.1	3.02e+01	92	41	0	648019968	50	6099
2026-01-23 04:05:24.63	284.45	18.75	-37.8	-39.0	29.1	3.02e+01	90	41	0	650117120	50	6091
2026-01-23 04:05:25.64	284.74	18.73	-37.6	-38.8	29.3	3.02e+01	92	41	0	651689984	50	5962
2026-01-23 04:05:26.65	285.01	18.71	-37.9	-39.1	29.1	3.02e+01	92	41	0	653787136	50	6157
2026-01-23 04:05:27.66	285.29	18.68	-37.7	-38.9	29.2	3.02e+01	92	41	0	655360000	50	6020
2026-01-23 04:05:28.67	285.57	18.66	-37.6	-38.8	29.3	3.02e+01	92	41	0	657457152	50	5929
2026-01-23 04:05:29.68	285.85	18.64	-37.5	-38.7	29.4	3.02e+01	92	41	0	659554304	50	5891
2026-01-23 04:05:30.69	286.13	18.61	-37.6	-38.8	29.3	3.02e+01	90	41	0	661127168	50	5979
2026-01-23 04:05:31.70	286.41	18.59	-37.7	-38.9	29.1	3.02e+01	92	41	0	663224320	50	6040
2026-01-23 04:05:32.71	286.68	18.56	-37.8	-39.0	29.1	3.02e+01	92	41	0	664797184	50	6092
2026-01-23 04:05:33.72	286.96	18.53	-37.8	-39.0	29.1	3.02e+01	92	41	0	666894336	50	6104
2026-01-23 04:05:34.73	287.23	18.51	-37.8	-39.0	29.0	3.02e+01	91	41	0	668991488	50	6123
2026-01-23 04:05:35.73	287.51	18.48	-37.7	-38.9	29.1	3.02e+01	92	41	0	670564352	50	6054
2026-01-23 04:05:36.74	287.78	18.45	-37.9	-39.1	29.0	3.02e+01	91	41	0	672661504	50	6183
2026-01-23 04:05:37.75	288.06	18.42	-37.8	-39.0	29.2	3.02e+01	91	41	0	674758656	50	6107
2026-01-23 04:05:38.76	288.33	18.39	-37.5	-38.7	29.4	3.02e+01	92	41	0	676331520	50	5893
2026-01-23 04:05:39.77	288.60	18.36	-37.6	-38.8	29.3	3.02e+01	91	41	0	678428672	50	5935
2026-01-23 04:05:40.78	288.88	18.33	-37.6	-38.8	29.3	3.02e+01	92	41	0	680001536	50	5959
2026-01-23 04:05:41.79	289.15	18.30	-37.6	-38.9	29.3	3.02e+01	92	41	0	682098688	50	6004
2026-01-23 04:05:42.80	289.42	18.27	-37.6	-38.8	29.2	3.02e+01	92	41	0	684195840	50	5977
2026-01-23 04:05:43.81	289.69	18.24	-37.6	-38.8	29.2	3.02e+01	90	41	0	685768704	50	5992
2026-01-23 04:05:44.82	289.96	18.20	-37.4	-38.6	29.4	3.02e+01	91	41	0	687865856	50	5818
2026-01-23 04:05:45.83	290.23	18.17	-37.7	-38.9	29.3	3.02e+01	92	41	0	689438720	50	6022
2026-01-23 04:05:46.84	290.50	18.14	-37.6	-38.9	29.2	3.02e+01	90	41	0	691535872	50	5995
2026-01-23 04:05:47.85	290.77	18.10	-37.6	-38.8	29.2	3.02e+01	90	41	0	693633024	50	5994
2026-01-23 04:05:48.86	291.03	18.07	-37.6	-38.8	29.3	3.02e+01	91	41	0	695205888	50	5987
2026-01-23 04:05:49.87	291.30	18.03	-37.7	-38.9	29.2	3.02e+01	92	41	0	697303040	50	6026
2026-01-23 04:05:50.88	291.57	18.00	-37.6	-38.8	29.3	3.02e+01	90	41	0	698875904	50	5979
2026-01-23 04:05:51.88	291.83	17.96	-37.7	-38.9	29.2	3.02e+01	88	41	0	700973056	50	6006
2026-01-23 04:05:52.89	292.10	17.92	-37.9	-39.1	29.2	3.02e+01	91	41	0	703070208	50	6188
2026-01-23 04:05:53.90	292.36	17.89	-37.6	-38.9	29.2	3.02e+01	91	41	0	704643072	50	5996
2026-01-23 04:05:54.91	292.62	17.85	-37.5	-38.7	29.4	3.02e+01	92	41	0	706740224	50	5885
2026-01-23 04:05:55.92	292.89	17.81	-37.7	-38.9	29.3	3.02e+01	92	41	0	708313088	50	6011
2026-01-23 04:05:56.93	293.15	17.77	-37.6	-38.8	29.3	3.02e+01	92	41	0	710410240	50	5953
2026-01-23 04:05:57.94	293.41	17.73	-37.6	-38.8	29.3	3.02e+01	92	41	0	712507392	50	5965
2026-01-23 04:05:58.95	293.67	17.69	-37.6	-38.8	29.3	3.02e+01	92	41	0	714080256	50	5970
2026-01-23 04:05:59.96	293.93	17.65	-37.6	-38.8	29.3	3.02e+01	88	41	0	716177408	50	5934
2026-01-23 04:06:00.97	294.19	17.61	-37.6	-38.8	29.3	3.02e+01	92	41	0	718274560	50	5977
2026-01-23 04:06:01.98	294.45	17.57	-37.4	-38.6	29.5	3.02e+01	92	41	0	719847424	50	5833
2026-01-23 04:06:02.99	294.71	17.53	-37.4	-38.6	29.5	3.02e+01	87	41	0	721944576	50	5808
2026-01-23 04:06:04.00	294.96	17.49	-37.4	-38.6	29.5	3.02e+01	90	41	0	723517440	50	5824
2026-01-23 04:06:05.01	295.22	17.44	-37.5	-38.7	29.4	3.02e+01	91	41	0	725614592	50	5881
2026-01-23 04:06:06.02	295.48	17.40	-37.5	-38.7	29.4	3.02e+01	91	41	0	727711744	50	5894
2026-01-23 04:06:07.03	295.73	17.36	-37.6	-38.8	29.4	3.02e+01	91	41	0	729284608	50	5970
2026-01-23 04:06:08.04	295.99	17.31	-37.5	-38.7	29.3	3.02e+01	92	41	0	731381760	50	5925
2026-01-23 04:06:09.05	296.24	17.27	-37.6	-38.8	29.3	3.02e+01	89	41	0	732954624	50	5958
2026-01-23 04:06:10.06	296.49	17.22	-37.5	-38.7	29.4	3.02e+01	92	41	0	735051776	50	5884
2026-01-23 04:06:11.06	296.74	17.18	-37.4	-38.6	29.5	3.02e+01	92	41	0	737148928	50	5807
2026-01-23 04:06:12.07	296.99	17.13	-37.4	-38.6	29.5	3.02e+01	92	41	0	738721792	50	5844
2026-01-23 04:06:13.08	297.24	17.09	-37.3	-38.5	29.5	3.02e+01	90	41	0	740818944	50	5772
2026-01-23 04:06:14.09	297.49	17.04	-37.5	-38.6	29.5	3.02e+01	90	41	0	742391808	50	5858
2026-01-23 04:06:15.10	297.74	17.00	-37.5	-38.7	29.4	3.02e+01	92	41	0	744488960	50	5892
2026-01-23 04:06:16.11	297.99	16.95	-37.6	-38.8	29.3	3.02e+01	92	41	0	746586112	50	5944
2026-01-23 04:06:17.12	298.23	16.90	-37.5	-38.6	29.4	3.02e+01	92	41	0	748158976	50	5855
2026-01-23 04:06:18.13	298.48	16.85	-37.3	-38.5	29.6	3.02e+01	92	41	0	750256128	50	5728
2026-01-23 04:06:19.14	298.73	16.80	-37.4	-38.6	29.5	3.02e+01	92	41	0	751828992	50	5795
2026-01-23 04:06:20.15	298.97	16.76	-37.4	-38.5	29.5	3.02e+01	90	41	0	753926144	50	5788
2026-01-23 04:06:21.16	299.21	16.71	-37.4	-38.6	29.5	3.02e+01	91	41	0	756023296	50	5815
2026-01-23 04:06:22.17	299.46	16.66	-37.6	-38.8	29.4	3.02e+01	86	41	0	757596160	50	5952
2026-01-23 04:06:23.18	299.70	16.61	-37.3	-38.5	29.6	3.02e+01	92	41	0	759693312	50	5742
2026-01-23 04:06:24.19	299.94	16.56	-37.5	-38.7	29.4	3.02e+01	91	41	0	761266176	50	5862
2026-01-23 04:06:25.20	300.18	16.51	-37.5	-38.7	29.4	3.02e+01	86	41	0	763363328	50	5889
2026-01-23 04:06:26.20	300.42	16.46	-37.6	-38.8	29.3	3.02e+01	92	41	0	765460480	50	5971
2026-01-23 04:06:27.21	300.66	16.41	-37.6	-38.8	29.3	3.02e+01	92	41	0	767033344	50	5965
2026-01-23 04:06:28.22	300.89	16.35	-37.5	-38.8	29.3	3.02e+01	92	41	0	769130496	50	5930
2026-01-23 04:06:29.23	301.13	16.30	-37.4	-38.7	29.4	3.02e+01	92	41	0	771227648	50	5859
2026-01-23 04:06:30.24	301.37	16.25	-37.3	-38.5	29.5	3.02e+01	92	41	0	772800512	50	5779
2026-01-23 04:06:31.25	301.60	16.20	-37.4	-38.6	29.5	3.02e+01	92	41	0	774897664	50	5820
2026-01-23 04:06:32.26	301.84	16.14	-37.7	-38.9	29.2	3.02e+01	92	41	0	776470528	50	6033
2026-01-23 04:06:33.27	302.07	16.09	-37.5	-38.7	29.4	3.02e+01	95	41	0	778567680	50	5911
2026-01-23 04:06:34.28	302.30	16.04	-37.5	-38.7	29.4	3.02e+01	92	41	0	780664832	50	5894
2026-01-23 04:06:35.29	302.53	15.99	-37.4	-38.7	29.5	3.02e+01	92	41	0	782237696	50	5865
2026-01-23 04:06:36.30	302.77	15.93	-37.4	-38.7	29.5	3.02e+01	92	41	0	784334848	50	5861
2026-01-23 04:06:37.31	303.00	15.88	-37.6	-38.8	29.2	3.02e+01	92	41	0	786432000	50	5979
2026-01-23 04:06:38.32	303.22	15.82	-37.7	-39.0	29.2	3.02e+01	92	41	0	788004864	50	6072
2026-01-23 04:06:39.33	303.45	15.77	-37.3	-38.5	29.5	3.02e+01	92	41	0	790102016	50	5759
2026-01-23 04:06:40.34	303.68	15.71	-37.3	-38.5	29.6	3.02e+01	90	41	0	791674880	50	5746
2026-01-23 04:06:41.35	303.91	15.66	-37.2	-38.4	29.6	3.02e+01	91	41	0	793772032	50	5694
2026-01-23 04:06:42.36	304.13	15.60	-37.3	-38.5	29.5	3.02e+01	92	41	0	795869184	50	5788
2026-01-23 04:06:43.37	304.36	15.55	-37.4	-38.6	29.5	3.02e+01	92	41	0	797442048	50	5824
2026-01-23 04:06:44.38	304.58	15.49	-37.5	-38.8	29.4	3.02e+01	92	41	0	799539200	50	5934
2026-01-23 04:06:45.39	304.80	15.43	-37.5	-38.7	29.4	3.02e+01	91	41	0	801112064	50	5890
2026-01-23 04:06:46.40	305.03	15.38	-37.5	-38.7	29.3	3.02e+01	91	41	0	803209216	50	5919
2026-01-23 04:06:47.41	305.25	15.32	-37.3	-38.5	29.5	3.02e+01	61	41	0	805306368	50	5759
2026-01-23 04:06:48.42	305.47	15.26	-37.4	-38.6	29.4	3.02e+01	59	41	0	806879232	50	5821
2026-01-23 04:06:49.42	305.69	15.21	-37.5	-38.8	29.4	3.02e+01	60	41	0	808976384	50	5935
2026-01-23 04:06:50.43	305.90	15.15	-37.6	-38.8	29.3	3.02e+01	60	41	0	810549248	50	5979
2026-01-23 04:06:51.44	306.12	15.09	-37.8	-39.0	29.2	3.02e+01	59	41	0	812646400	50	6100
2026-01-23 04:06:52.45	306.34	15.03	-37.4	-38.7	29.4	3.02e+01	60	41	0	814743552	50	5862
2026-01-23 04:06:53.46	306.55	14.98	-37.6	-38.8	29.4	3.02e+01	59	41	0	816316416	50	5940
2026-01-23 04:06:54.47	306.77	14.92	-37.3	-38.5	29.5	3.02e+01	53	41	0	818413568	50	5788
2026-01-23 04:06:55.48	306.98	14.86	-37.5	-38.7	29.5	3.02e+01	56	41	0	819986432	50	5897
2026-01-23 04:06:56.49	307.20	14.80	-37.5	-38.7	29.4	3.02e+01	60	41	0	822083584	50	5883
2026-01-23 04:06:57.49	307.41	14.74	-37.7	-38.9	29.3	3.02e+01	55	41	0	824180736	50	6011
2026-01-23 04:06:58.50	307.62	14.68	-37.7	-38.9	29.2	3.02e+01	58	41	0	825753600	50	6007
2026-01-23 04:06:59.51	307.83	14.62	-37.6	-38.8	29.4	3.02e+01	53	41	0	827850752	50	5980
2026-01-23 04:07:00.52	308.04	14.56	-37.4	-38.6	29.3	3.02e+01	58	41	0	829423616	50	5855
2026-01-23 04:07:01.53	308.25	14.51	-37.4	-38.6	29.4	3.02e+01	58	41	0	831520768	50	5834
2026-01-23 04:07:02.54	308.46	14.45	-37.5	-38.7	29.2	3.02e+01	47	41	0	833617920	50	5879
2026-01-23 04:07:03.55	308.66	14.39	-37.6	-38.8	29.3	3.02e+01	55	41	0	835190784	50	5937
2026-01-23 04:07:04.56	308.87	14.33	-37.5	-38.7	29.4	3.02e+01	60	41	0	837287936	50	5910
2026-01-23 04:07:05.57	309.08	14.27	-37.4	-38.6	29.4	3.02e+01	57	41	0	839385088	50	5849
2026-01-23 04:07:06.58	309.28	14.20	-37.4	-38.6	29.4	3.02e+01	58	41	0	840957952	50	5851
2026-01-23 04:07:07.59	309.48	14.14	-37.6	-38.9	29.2	3.02e+01	49	41	0	843055104	50	5995
2026-01-23 04:07:08.60	309.69	14.08	-37.5	-38.8	29.3	3.02e+01	57	41	0	844627968	50	5927
2026-01-23 04:07:09.61	309.89	14.02	-37.5	-38.7	29.3	3.02e+01	58	41	0	846725120	50	5923
2026-01-23 04:07:10.62	310.09	13.96	-37.7	-38.9	29.2	3.02e+01	47	41	0	848822272	50	6026
2026-01-23 04:07:11.63	310.29	13.90	-37.6	-38.8	29.3	3.02e+01	60	41	0	850395136	50	5966
2026-01-23 04:07:12.64	310.49	13.84	-37.7	-38.9	29.1	3.02e+01	57	41	0	852492288	50	6064
2026-01-23 04:07:13.64	310.69	13.78	-37.8	-39.1	29.0	3.02e+01	60	41	0	854065152	50	6138
2026-01-23 04:07:14.66	310.89	13.72	-37.8	-39.0	29.1	3.02e+01	59	41	0	856162304	50	6106
2026-01-23 04:07:15.67	311.08	13.66	-37.5	-38.7	29.4	3.02e+01	47	41	0	858259456	50	5877
2026-01-23 04:07:16.67	311.28	13.59	-37.7	-38.9	29.3	3.02e+01	59	41	0	859832320	50	6047
2026-01-23 04:07:17.68	311.47	13.53	-37.5	-38.7	29.3	3.02e+01	61	41	0	861929472	50	5897
2026-01-23 04:07:18.69	311.67	13.47	-37.5	-38.8	29.3	3.02e+01	46	41	0	863502336	50	5934
2026-01-23 04:07:19.70	311.86	13.41	-37.5	-38.7	29.3	3.02e+01	58	41	0	865599488	50	5912
2026-01-23 04:07:20.71	312.05	13.35	-37.8	-39.0	29.1	3.02e+01	59	41	0	867696640	50	6092
2026-01-23 04:07:21.72	312.24	13.28	-37.7	-38.9	29.1	3.02e+01	59	41	0	869269504	50	6061
2026-01-23 04:07:22.73	312.44	13.22	-37.8	-39.0	29.1	3.02e+01	62	41	0	871366656	50	6094
2026-01-23 04:07:23.74	312.63	13.16	-37.6	-38.8	29.3	3.02e+01	46	41	0	872939520	50	5966
2026-01-23 04:07:24.75	312.81	13.10	-37.8	-39.0	29.2	3.02e+01	58	41	0	875036672	50	6098
2026-01-23 04:07:25.76	313.00	13.03	-37.7	-38.9	29.1	3.02e+01	62	41	0	877133824	50	6056
2026-01-23 04:07:26.77	313.19	12.97	-38.0	-39.3	28.9	3.02e+01	46	41	0	878706688	50	6278
2026-01-23 04:07:27.78	313.38	12.91	-38.1	-39.3	28.9	3.02e+01	60	41	0	880803840	50	6341
2026-01-23 04:07:28.79	313.56	12.85	-37.7	-38.9	29.1	3.02e+01	51	41	0	882900992	50	6048
2026-01-23 04:07:29.80	313.75	12.78	-37.6	-38.8	29.2	3.02e+01	59	41	0	884473856	50	5947
2026-01-23 04:07:30.81	313.93	12.72	-37.6	-38.8	29.2	3.02e+01	61	41	0	886571008	50	5986
2026-01-23 04:07:31.82	314.12	12.66	-37.6	-38.8	29.2	3.02e+01	51	41	0	888143872	50	5980
2026-01-23 04:07:32.83	314.30	12.59	-37.8	-39.0	29.1	3.02e+01	60	41	0	890241024	50	6093
2026-01-23 04:07:33.84	314.48	12.53	-37.8	-39.0	29.1	3.02e+01	57	41	0	892338176	50	6084
2026-01-23 04:07:34.85	314.66	12.47	-37.6	-38.8	29.2	3.02e+01	62	41	0	893911040	50	5962
2026-01-23 04:07:35.86	314.84	12.40	-37.7	-38.9	29.2	3.02e+01	60	41	0	896008192	50	6027
2026-01-23 04:07:36.87	315.02	12.34	-37.7	-38.9	29.1	3.02e+01	52	41	0	897581056	50	6024
2026-01-23 04:07:37.88	315.20	12.28	-37.7	-39.0	29.0	3.02e+01	57	41	0	899678208	50	6065
2026-01-23 04:07:38.89	315.38	12.21	-37.8	-39.0	29.0	3.02e+01	58	41	0	901775360	50	6096
2026-01-23 04:07:39.89	315.55	12.15	-37.8	-39.0	29.0	3.02e+01	46	41	0	903348224	50	6079
2026-01-23 04:07:40.90	315.73	12.09	-37.8	-39.0	28.9	3.02e+01	61	41	0	905445376	50	6122
2026-01-23 04:07:41.91	315.90	12.02	-37.9	-39.1	28.9	3.02e+01	60	41	0	907542528	50	6173
2026-01-23 04:07:42.92	316.08	11.96	-38.0	-39.2	29.0	3.02e+01	60	41	0	909115392	50	6273
2026-01-23 04:07:43.93	316.25	11.90	-37.9	-39.1	28.8	3.02e+01	63	41	0	911212544	50	6166
2026-01-23 04:07:44.94	316.42	11.83	-37.9	-39.2	29.0	3.02e+01	58	41	0	912785408	50	6208
2026-01-23 04:07:45.95	316.60	11.77	-38.1	-39.3	28.8	3.02e+01	59	41	0	914882560	50	6302
2026-01-23 04:07:46.96	316.77	11.70	-38.1	-39.3	29.0	3.02e+01	56	41	0	916979712	50	6335
2026-01-23 04:07:47.97	316.94	11.64	-38.0	-39.2	28.9	3.02e+01	45	41	0	918552576	50	6275
2026-01-23 04:07:48.98	317.11	11.58	-37.9	-39.1	29.0	3.02e+01	58	41	0	920649728	50	6158
2026-01-23 04:07:49.99	317.28	11.51	-37.9	-39.2	28.9	3.02e+01	61	41	0	922222592	50	6225
2026-01-23 04:07:51.00	317.45	11.45	-37.9	-39.1	28.8	3.02e+01	59	41	0	924319744	50	6183
2026-01-23 04:07:52.01	317.61	11.38	-37.9	-39.1	28.9	3.02e+01	59	41	0	926416896	50	6199
2026-01-23 04:07:53.02	317.78	11.32	-37.8	-39.1	28.9	3.02e+01	51	41	0	927989760	50	6147
2026-01-23 04:07:54.03	317.95	11.26	-38.0	-39.3	28.8	3.02e+01	60	41	0	930086912	50	6291
2026-01-23 04:07:55.04	318.11	11.19	-38.0	-39.2	28.8	3.02e+01	54	41	0	931659776	50	6269
2026-01-23 04:07:56.05	318.28	11.13	-38.0	-39.3	28.9	3.02e+01	46	41	0	933756928	50	6279
2026-01-23 04:07:57.06	318.44	11.06	-38.3	-39.5	28.6	3.02e+01	60	41	0	935854080	50	6491
2026-01-23 04:07:58.06	318.60	11.00	-38.1	-39.4	28.8	3.02e+01	57	41	0	937426944	50	6368
2026-01-23 04:07:59.07	318.76	10.94	-38.0	-39.3	28.7	3.02e+01	61	41	0	939524096	50	6291
2026-01-23 04:08:00.08	318.92	10.87	-38.1	-39.3	28.7	3.02e+01	60	41	0	941096960	50	6345
2026-01-23 04:08:01.09	319.09	10.81	-38.3	-39.6	28.5	3.02e+01	50	41	0	943194112	50	6531
2026-01-23 04:08:02.10	319.25	10.74	-38.1	-39.3	28.7	3.02e+01	59	41	0	945291264	50	6324
2026-01-23 04:08:03.11	319.40	10.68	-38.1	-39.4	28.7	3.02e+01	57	41	0	946864128	50	6352
2026-01-23 04:08:04.12	319.56	10.62	-38.3	-39.5	28.5	3.02e+01	46	41	0	948961280	50	6463
2026-01-23 04:08:05.13	319.72	10.55	-38.1	-39.3	28.7	3.02e+01	58	41	0	950534144	50	6300
2026-01-23 04:08:06.14	319.88	10.49	-38.1	-39.3	28.6	3.02e+01	45	41	0	952631296	50	6348
2026-01-23 04:08:07.15	320.03	10.42	-38.3	-39.5	28.4	3.02e+01	59	41	0	954728448	50	6465
2026-01-23 04:08:08.16	320.19	10.36	-38.2	-39.4	28.5	3.02e+01	56	41	0	956301312	50	6382
2026-01-23 04:08:09.17	320.34	10.30	-38.1	-39.3	28.7	3.02e+01	44	41	0	958398464	50	6343
2026-01-23 04:08:10.18	320.50	10.23	-38.1	-39.3	28.6	3.02e+01	59	41	0	960495616	50	6317
2026-01-23 04:08:11.19	320.65	10.17	-38.4	-39.6	28.2	3.02e+01	58	41	0	962068480	50	6567
2026-01-23 04:08:12.20	320.81	10.11	-38.3	-39.6	28.5	3.02e+01	59	41	0	964165632	50	6507
2026-01-23 04:08:13.21	320.96	10.04	-38.4	-39.7	28.4	3.02e+01	59	41	0	965738496	50	6579
2026-01-23 04:08:14.22	321.11	9.98	-38.3	-39.6	28.4	3.02e+01	44	41	0	967835648	50	6517
2026-01-23 04:08:15.22	321.26	9.91	-38.3	-39.6	28.3	3.02e+01	58	41	0	969932800	50	6535
2026-01-23 04:08:16.23	321.41	9.85	-38.5	-39.8	28.2	3.02e+01	58	41	0	971505664	50	6674
2026-01-23 04:08:17.24	321.56	9.79	-38.5	-39.7	28.3	3.02e+01	45	41	0	973602816	50	6643
2026-01-23 04:08:18.25	321.71	9.72	-38.7	-40.0	28.2	3.02e+01	60	41	0	975699968	50	6806
2026-01-23 04:08:19.26	321.85	9.66	-38.6	-39.9	28.1	3.02e+01	62	41	0	977272832	50	6732
2026-01-23 04:08:20.27	322.00	9.60	-38.4	-39.7	28.3	3.02e+01	58	41	0	979369984	50	6581
2026-01-23 04:08:21.28	322.15	9.53	-38.5	-39.7	28.2	3.02e+01	62	41	0	980942848	50	6622
2026-01-23 04:08:22.29	322.30	9.47	-38.4	-39.7	28.3	3.02e+01	58	41	0	983040000	50	6577
2026-01-23 04:08:23.30	322.44	9.40	-38.4	-39.7	28.4	3.02e+01	57	41	0	985137152	50	6604
2026-01-23 04:08:24.31	322.59	9.34	-38.3	-39.6	28.5	3.02e+01	59	41	0	986710016	50	6500
2026-01-23 04:08:25.32	322.73	9.28	-38.4	-39.6	28.2	3.02e+01	44	41	0	988807168	50	6549
2026-01-23 04:08:26.33	322.87	9.21	-38.4	-39.6	28.4	3.02e+01	61	41	0	990380032	50	6542
2026-01-23 04:08:27.34	323.02	9.15	-38.2	-39.4	28.4	3.02e+01	62	41	0	992477184	50	6402
2026-01-23 04:08:28.35	323.16	9.09	-38.4	-39.7	28.3	3.02e+01	59	41	0	994050048	50	6580
2026-01-23 04:08:29.36	323.30	9.02	-38.5	-39.8	28.2	3.02e+01	59	41	0	996147200	50	6694
2026-01-23 04:08:30.37	323.44	8.96	-38.4	-39.6	28.3	3.02e+01	45	41	0	998244352	50	6556
2026-01-23 04:08:31.38	323.58	8.90	-38.6	-39.9	28.1	3.02e+01	59	41	0	999817216	50	6728
2026-01-23 04:08:32.39	323.72	8.83	-38.7	-39.9	28.0	3.02e+01	59	41	0	1001914368	50	6797
2026-01-23 04:08:33.40	323.86	8.77	-38.9	-40.2	27.8	3.02e+01	45	41	0	1004011520	50	6976
2026-01-23 04:08:34.41	324.00	8.71	-38.9	-40.2	27.8	3.02e+01	59	41	0	1005584384	52	6237
2026-01-23 04:08:35.42	324.13	8.64	-38.8	-40.1	27.9	3.02e+01	58	41	0	1007681536	52	6177
2026-01-23 04:08:36.43	324.27	8.58	-38.8	-40.1	27.9	3.02e+01	60	41	0	1009254400	52	6187
2026-01-23 04:08:37.44	324.41	8.52	-38.8	-40.1	27.8	3.02e+01	58	41	0	1011351552	52	6159
2026-01-23 04:08:38.45	324.54	8.45	-38.8	-40.1	28.0	3.02e+01	62	41	0	1013448704	52	6157
2026-01-23 04:08:39.46	324.68	8.39	-38.7	-40.0	28.0	3.02e+01	59	41	0	1015021568	52	6112
2026-01-23 04:08:40.47	324.81	8.33	-38.7	-40.0	27.9	3.02e+01	59	41	0	1017118720	52	6111
2026-01-23 04:08:41.48	324.95	8.26	-38.8	-40.1	28.0	3.02e+01	58	41	0	1018691584	52	6139
2026-01-23 04:08:42.48	325.08	8.20	-38.9	-40.2	27.8	3.02e+01	58	41	0	1020788736	52	6259
2026-01-23 04:08:43.49	325.21	8.14	-38.8	-40.1	27.9	3.02e+01	44	41	0	1022885888	52	6180
2026-01-23 04:08:44.50	325.34	8.08	-39.1	-40.4	27.6	3.02e+01	61	41	0	1024458752	52	6369
2026-01-23 04:08:45.51	325.48	8.01	-39.0	-40.3	27.7	3.02e+01	58	41	0	1026555904	52	6298
2026-01-23 04:08:46.52	325.61	7.95	-39.0	-40.4	27.6	3.02e+01	45	41	0	1028653056	52	6351
2026-01-23 04:08:47.53	325.74	7.89	-39.0	-40.3	27.7	3.02e+01	59	41	0	1030225920	52	6285
2026-01-23 04:08:48.54	325.87	7.83	-38.7	-40.0	27.9	3.02e+01	59	41	0	1032323072	52	6075
2026-01-23 04:08:49.55	326.00	7.76	-39.0	-40.3	27.6	3.02e+01	59	41	0	1033895936	52	6347
2026-01-23 04:08:50.56	326.12	7.70	-39.2	-40.5	27.5	3.02e+01	60	41	0	1035993088	52	6452
2026-01-23 04:08:51.57	326.25	7.64	-38.9	-40.2	27.8	3.02e+01	51	41	0	1038090240	52	6221
2026-01-23 04:08:52.58	326.38	7.58	-39.1	-40.4	27.5	3.02e+01	59	41	0	1039663104	52	6367
2026-01-23 04:08:53.59	326.51	7.52	-39.6	-40.9	27.1	3.02e+01	58	41	0	1041760256	52	6778
2026-01-23 04:08:54.60	326.63	7.45	-39.5	-40.8	27.1	3.02e+01	49	41	0	1043333120	52	6722
2026-01-23 04:08:55.61	326.76	7.39	-39.4	-40.7	27.3	3.02e+01	60	41	0	1045430272	52	6623
2026-01-23 04:08:56.62	326.88	7.33	-39.4	-40.8	27.1	3.02e+01	58	41	0	1047527424	52	6654
2026-01-23 04:08:57.63	327.01	7.27	-39.1	-40.4	27.5	3.02e+01	58	41	0	1049100288	52	6411
2026-01-23 04:08:58.64	327.13	7.20	-39.0	-40.4	27.5	3.02e+01	57	41	0	1051197440	52	6359
2026-01-23 04:08:59.65	327.26	7.14	-39.3	-40.7	27.2	3.02e+01	51	41	0	1052770304	52	6577
2026-01-23 04:09:00.66	327.38	7.08	-39.3	-40.6	27.2	3.02e+01	60	41	0	1054867456	52	6562
2026-01-23 04:09:01.67	327.50	7.02	-39.5	-40.8	27.0	3.02e+01	58	41	0	1056964608	52	6724
2026-01-23 04:09:02.68	327.62	6.96	-40.0	-41.5	26.4	3.02e+01	45	41	0	1058537472	52	7222
2026-01-23 04:09:03.69	327.75	6.90	-40.0	-41.4	26.8	3.02e+01	57	41	0	1060634624	54	6367
2026-01-23 04:09:04.70	327.87	6.83	-39.9	-41.3	26.9	3.02e+01	52	41	0	1062207488	54	6282
2026-01-23 04:09:05.71	327.99	6.77	-39.4	-40.8	27.1	3.02e+01	58	41	0	1064304640	54	5955
2026-01-23 04:09:06.72	328.11	6.71	-39.3	-40.6	27.2	3.02e+01	59	41	0	1066401792	52	6550
2026-01-23 04:09:07.73	328.23	6.65	-39.0	-40.4	27.5	3.02e+01	46	41	0	1067974656	52	6359
2026-01-23 04:09:08.74	328.35	6.59	-39.2	-40.5	27.3	3.02e+01	59	41	0	1070071808	52	6452
2026-01-23 04:09:09.75	328.46	6.53	-39.2	-40.6	27.2	3.02e+01	59	41	0	1072168960	52	6517
2026-01-23 04:09:10.76	328.58	6.47	-39.7	-41.0	26.6	3.02e+01	47	41	0	1073741824	52	6878
2026-01-23 04:09:11.77	328.70	6.41	-39.6	-41.0	26.9	3.02e+01	58	41	0	1075838976	52	6817
2026-01-23 04:09:12.78	328.82	6.34	-39.5	-40.9	27.1	3.02e+01	61	41	0	1077411840	52	6727
2026-01-23 04:09:13.79	328.93	6.28	-40.0	-41.4	26.4	3.02e+01	62	41	0	1079508992	54	6411
2026-01-23 04:09:14.80	329.05	6.22	-39.8	-41.2	26.8	3.02e+01	60	41	0	1081606144	54	6208
2026-01-23 04:09:15.80	329.16	6.16	-39.9	-41.3	26.5	3.02e+01	50	41	0	1083179008	54	6343
2026-01-23 04:09:16.81	329.28	6.10	-39.0	-40.3	27.3	3.02e+01	60	41	0	1085276160	54	5654
2026-01-23 04:09:17.82	329.39	6.04	-39.6	-40.9	26.8	3.02e+01	57	41	0	1086849024	54	6037
2026-01-23 04:09:18.83	329.50	5.98	-39.6	-40.9	27.0	3.02e+01	60	41	0	1088946176	54	6036
2026-01-23 04:09:19.84	329.62	5.92	-39.3	-40.7	27.2	3.02e+01	61	41	0	1091043328	54	5865
2026-01-23 04:09:20.85	329.73	5.86	-39.5	-40.8	26.9	3.02e+01	44	41	0	1092616192	54	5982
2026-01-23 04:09:21.86	329.84	5.80	-40.0	-41.4	26.4	3.02e+01	60	41	0	1094713344	54	6397
2026-01-23 04:09:22.87	329.95	5.74	-39.4	-40.7	27.1	3.02e+01	58	41	0	1096810496	54	5916
2026-01-23 04:09:23.88	330.06	5.68	-39.5	-40.9	26.9	3.02e+01	42	41	0	1098383360	54	6011
2026-01-23 04:09:24.89	330.18	5.62	-40.1	-41.5	26.3	3.02e+01	61	41	0	1100480512	54	6474
2026-01-23 04:09:25.89	330.28	5.56	-39.5	-40.9	26.8	3.02e+01	57	41	0	1102053376	54	6008
2026-01-23 04:09:26.90	330.39	5.50	-39.9	-41.3	26.4	3.02e+01	57	41	0	1104150528	54	6316
2026-01-23 04:09:27.92	330.51	5.44	-40.1	-41.6	26.2	3.02e+01	61	41	0	1106247680	54	6504
2026-01-23 04:09:28.93	330.61	5.38	-40.0	-41.4	26.3	3.02e+01	60	41	0	1107820544	54	6372
2026-01-23 04:09:29.94	330.72	5.32	-40.7	-42.1	25.6	3.02e+01	58	41	0	1109917696	54	6955
2026-01-23 04:09:30.94	330.83	5.26	-40.1	-41.6	26.2	3.02e+01	61	41	0	1111490560	54	6500
2026-01-23 04:09:31.95	330.94	5.20	-40.7	-42.1	25.5	3.02e+01	45	41	0	1113587712	54	6959
2026-01-23 04:09:32.96	331.04	5.14	-40.3	-41.7	25.9	3.02e+01	58	41	0	1115684864	54	6635
2026-01-23 04:09:33.97	331.15	5.08	-40.0	-41.4	26.3	3.02e+01	60	41	0	1117257728	54	6366
2026-01-23 04:09:34.98	331.26	5.02	-40.2	-41.6	25.9	3.02e+01	56	41	0	1119354880	54	6527
2026-01-23 04:09:35.99	331.36	4.96	-40.0	-41.4	26.2	3.02e+01	60	41	0	1120927744	54	6380
2026-01-23 04:09:36.99	331.47	4.90	-40.4	-41.9	25.8	3.02e+01	51	41	0	1123024896	54	6730
2026-01-23 04:09:38.00	331.57	4.84	-40.6	-42.1	25.4	3.02e+01	60	41	0	1125122048	54	6905
2026-01-23 04:09:39.01	331.68	4.79	-40.8	-42.3	25.2	3.02e+01	60	41	0	1126694912	54	7083
2026-01-23 04:09:40.02	331.78	4.73	-41.4	-43.0	24.5	3.02e+01	45	41	0	1128792064	56	6868
2026-01-23 04:09:41.03	331.88	4.67	-41.6	-43.2	24.3	3.02e+01	59	41	0	1130364928	56	7010
2026-01-23 04:09:42.04	331.99	4.61	-42.0	-43.7	23.8	3.02e+01	61	41	0	1132462080	56	7419
2026-01-23 04:09:43.05	332.09	4.55	-41.6	-43.4	23.7	3.02e+01	60	41	0	1134559232	58	6364
2026-01-23 04:09:44.06	332.19	4.49	-42.2	-44.1	22.6	3.02e+01	58	41	0	1136132096	58	6918
2026-01-23 04:09:45.07	332.29	4.43	-43.0	-45.1	21.6	3.02e+01	51	41	0	1138229248	60	6927
2026-01-23 04:09:46.08	332.39	4.37	-43.6	-46.1	20.2	3.02e+01	54	41	0	1140326400	60	7724
2026-01-23 04:09:47.09	332.50	4.32	-43.8	-46.6	19.0	3.02e+01	59	41	0	1141899264	60	8241
2026-01-23 04:09:48.10	332.60	4.26	-44.9	-48.7	16.7	3.02e+01	52	41	0	1143996416	60	10500
2026-01-23 04:09:49.11	332.70	4.20	-45.3	-49.8	15.0	3.02e+01	61	41	0	1145569280	60	11831
2026-01-23 04:09:50.12	332.80	4.14	-46.0	-51.9	12.4	3.02e+01	58	41	0	1147666432	60	15214
2026-01-23 04:09:51.13	332.90	4.08	-46.2	-53.2	10.6	3.02e+01	60	41	0	1149763584	60	17542
2026-01-23 04:09:52.14	332.99	4.02	-46.4	-55.1	8.4	3.02e+01	59	41	0	1151336448	60	21873
2026-01-23 04:09:53.14	333.09	3.97	-46.5	-56.1	7.2	3.02e+01	92	41	0	1153433600	60	24562
2026-01-23 04:09:54.15	333.19	3.91	-46.6	-59.0	3.9	3.02e+01	0	41	104	1155006464	60	34401
2026-01-23 04:09:55.16	333.29	3.85	-46.6	-60.0	3.7	3.02e+01	0	41	104	1155006464	60	38510
2026-01-23 04:09:56.17	333.38	3.79	-46.6	-61.3	4.0	3.02e+01	0	41	104	1155006464	60	44824
2026-01-23 04:09:57.18	333.48	3.74	-46.7	-62.4	3.7	3.02e+01	0	41	104	1155006464	60	50816
2026-01-23 04:09:58.19	333.58	3.68	-46.7	-62.8	3.6	3.02e+01	0	41	104	1155006464	60	53381
2026-01-23 04:09:59.20	333.67	3.62	-46.7	-63.5	3.5	3.02e+01	0	41	104	1155006464	60	57879
2026-01-23 04:10:00.21	333.77	3.56	-46.7	-64.2	3.6	3.02e+01	0	41	104	1155006464	60	62186
2026-01-23 04:10:01.22	333.87	3.50	-46.7	-64.5	3.5	3.02e+01	0	41	104	1155006464	60	64971
2026-01-23 04:10:02.23	333.96	3.45	-46.7	-64.5	3.5	3.02e+01	0	41	104	1155006464	60	64645
2026-01-23 04:10:03.24	334.05	3.39	-46.7	-64.6	3.5	3.02e+01	0	41	104	1155006464	60	65052
2026-01-23 04:10:04.24	334.15	3.33	-46.7	-64.6	3.5	3.02e+01	0	41	104	1155006464	60	65062
2026-01-23 04:10:05.25	334.24	3.28	-46.7	-64.5	3.5	3.02e+01	0	41	104	1155006464	60	64654
2026-01-23 04:10:06.26	334.33	3.22	-46.7	-64.5	3.5	3.02e+01	0	41	104	1155006464	60	64820
2026-01-23 04:10:07.27	334.43	3.16	-46.8	-64.7	3.5	3.02e+01	0	41	104	1155006464	60	65908
2026-01-23 04:10:08.28	334.52	3.11	-46.7	-64.5	3.5	3.02e+01	0	41	104	1155006464	60	64873
2026-01-23 04:10:09.29	334.61	3.05	-46.7	-64.6	3.5	3.02e+01	0	41	104	1155006464	60	65280
2026-01-23 04:10:10.30	334.70	2.99	-46.6	-64.5	3.5	3.02e+01	0	41	104	1155006464	60	64515
2026-01-23 04:10:11.32	334.80	2.93	-49.0	-66.7	3.5	3.02e+01	0	41	104	1155006464	60	83636
