passes_logs/2026/01/23/R4.6S_Anadyr/R4.6S_Anadyr__20260123_173528_NOAA_20_JPSS-1_rec.log

#Pass ID: 20260123_173528_NOAA 20 (JPSS-1)
#Satellite: NOAA 20 (JPSS-1)
#Configuration: NOAA 20
#almurnet v.1.7.20251203
#Start time: 2026-01-23 17:35:31

#Version: 2.2.20231116
#Station: R4.6S_Anadyr
#Location: 177.4865 lon 64.73178 lat
#TLE: 1 43013U 17073A   26022.44900781  .00000193  00000+0  11233-3 0  9999
#TLE: 2 43013  98.7645 323.3100 0001197  28.8413 331.2829 14.19538802423792

#Time	Az	El	Level	Level2	SNR	BER	BlckErr	Temp	State	Recorded	gain1	gain2
2026-01-23 17:35:31.24	32.90	0.17	-50.8	-64.6	3.3	1.54e+00	0	39	0	0	60	61428
2026-01-23 17:35:32.24	32.84	0.22	-50.9	-66.1	3.6	1.51e+00	0	40	104	0	60	72749
2026-01-23 17:35:33.25	32.77	0.28	-50.9	-66.1	3.6	1.51e+00	0	40	104	0	60	72949
2026-01-23 17:35:34.26	32.71	0.33	-50.8	-66.1	3.6	1.51e+00	0	40	104	0	60	73278
2026-01-23 17:35:35.27	32.65	0.38	-50.8	-66.1	3.6	1.51e+00	0	40	104	0	60	73102
2026-01-23 17:35:36.28	32.59	0.44	-50.9	-66.1	3.6	1.51e+00	0	40	104	0	60	73117
2026-01-23 17:35:37.29	32.52	0.49	-50.9	-66.1	3.6	1.51e+00	0	40	104	0	60	73182
2026-01-23 17:35:38.30	32.46	0.55	-50.9	-66.1	3.6	1.51e+00	0	40	104	0	60	72614
2026-01-23 17:35:39.31	32.40	0.60	-50.9	-66.1	3.6	1.51e+00	0	40	104	0	60	72719
2026-01-23 17:35:40.32	32.33	0.65	-50.9	-66.0	3.6	1.51e+00	0	40	104	0	60	72479
2026-01-23 17:35:41.33	32.27	0.71	-50.6	-66.0	3.6	1.51e+00	0	40	104	0	60	72192
2026-01-23 17:35:42.35	32.20	0.76	-50.8	-66.0	3.6	1.51e+00	0	40	104	0	60	71816
2026-01-23 17:35:43.36	32.14	0.81	-50.7	-65.9	3.6	1.51e+00	0	40	104	0	60	71350
2026-01-23 17:35:44.37	32.07	0.87	-50.6	-65.8	3.6	1.51e+00	0	40	104	0	60	70485
2026-01-23 17:35:45.38	32.01	0.92	-50.6	-65.8	3.6	1.51e+00	0	40	104	0	60	70369
2026-01-23 17:35:46.39	31.94	0.98	-50.5	-65.7	3.6	1.51e+00	0	40	104	0	60	69922
2026-01-23 17:35:47.40	31.88	1.03	-50.4	-65.6	3.6	1.51e+00	0	40	104	0	60	68923
2026-01-23 17:35:48.41	31.81	1.09	-50.4	-65.6	3.6	1.51e+00	0	40	104	0	60	68706
2026-01-23 17:35:49.42	31.75	1.14	-50.3	-65.4	3.6	1.51e+00	0	40	104	0	60	67581
2026-01-23 17:35:50.43	31.68	1.19	-50.2	-65.4	3.6	1.51e+00	0	40	104	0	60	67341
2026-01-23 17:35:51.44	31.61	1.25	-50.0	-65.2	3.6	1.51e+00	0	40	104	0	60	66136
2026-01-23 17:35:52.45	31.55	1.30	-49.8	-65.0	3.6	1.51e+00	0	40	104	0	60	63932
2026-01-23 17:35:53.46	31.48	1.36	-49.4	-64.5	3.6	1.51e+00	0	40	104	0	60	60594
2026-01-23 17:35:54.47	31.41	1.41	-49.3	-64.4	3.6	1.51e+00	0	40	104	0	60	60334
2026-01-23 17:35:55.47	31.34	1.47	-49.3	-64.4	3.6	1.51e+00	0	40	104	0	60	60055
2026-01-23 17:35:56.48	31.28	1.52	-49.3	-64.4	3.6	1.51e+00	0	40	104	0	60	60310
2026-01-23 17:35:57.49	31.21	1.58	-49.3	-64.4	3.6	1.51e+00	0	40	104	0	60	60084
2026-01-23 17:35:58.50	31.14	1.63	-49.3	-64.5	3.6	1.51e+00	0	40	104	0	60	60399
2026-01-23 17:35:59.51	31.07	1.69	-49.3	-64.4	3.6	1.51e+00	0	40	104	0	60	60212
2026-01-23 17:36:00.52	31.00	1.74	-49.3	-64.5	3.6	1.51e+00	0	40	104	0	60	60433
2026-01-23 17:36:01.53	30.93	1.80	-49.3	-64.5	3.6	1.51e+00	0	40	104	0	60	60460
2026-01-23 17:36:02.54	30.86	1.85	-49.3	-64.5	3.6	1.51e+00	0	40	104	0	60	60590
2026-01-23 17:36:03.55	30.79	1.91	-49.3	-64.5	3.6	1.51e+00	0	40	104	0	60	60560
2026-01-23 17:36:04.56	30.72	1.96	-49.3	-64.5	3.6	1.51e+00	0	40	104	0	60	60412
2026-01-23 17:36:05.57	30.65	2.02	-49.3	-64.4	3.6	1.51e+00	0	40	104	0	60	60172
2026-01-23 17:36:06.58	30.58	2.07	-49.3	-64.3	3.6	1.51e+00	0	40	104	0	60	59371
2026-01-23 17:36:07.59	30.51	2.13	-49.3	-64.3	3.6	1.51e+00	0	40	104	0	60	59102
2026-01-23 17:36:08.60	30.44	2.18	-49.3	-64.1	3.6	1.51e+00	0	40	104	0	60	58225
2026-01-23 17:36:09.61	30.37	2.24	-49.3	-64.2	3.6	1.51e+00	0	40	104	0	60	58595
2026-01-23 17:36:10.62	30.30	2.30	-49.3	-64.3	3.6	1.51e+00	0	40	104	0	60	59503
2026-01-23 17:36:11.63	30.23	2.35	-49.3	-64.4	3.6	1.51e+00	0	40	104	0	60	59680
2026-01-23 17:36:12.64	30.15	2.41	-49.3	-64.5	3.6	1.51e+00	0	40	104	0	60	60653
2026-01-23 17:36:13.65	30.08	2.46	-49.3	-64.5	3.6	1.51e+00	0	40	104	0	60	60380
2026-01-23 17:36:14.66	30.01	2.52	-49.3	-64.4	3.6	1.51e+00	0	40	104	0	60	60071
2026-01-23 17:36:15.67	29.94	2.58	-49.3	-64.4	3.6	1.51e+00	0	40	104	0	60	60317
2026-01-23 17:36:16.67	29.86	2.63	-49.3	-64.4	3.6	1.51e+00	0	40	104	0	60	60255
2026-01-23 17:36:17.68	29.79	2.69	-49.3	-64.4	3.6	1.51e+00	0	40	104	0	60	59651
2026-01-23 17:36:18.69	29.71	2.74	-49.3	-64.1	3.6	1.51e+00	0	40	104	0	60	58097
2026-01-23 17:36:19.70	29.64	2.80	-49.3	-63.8	3.6	1.51e+00	0	40	104	0	60	55977
2026-01-23 17:36:20.72	29.57	2.86	-49.2	-63.5	3.6	1.51e+00	0	40	104	0	60	53807
2026-01-23 17:36:21.73	29.49	2.91	-49.3	-64.0	3.6	1.51e+00	0	40	104	0	60	56997
2026-01-23 17:36:22.74	29.41	2.97	-49.3	-64.2	3.6	1.51e+00	0	40	104	0	60	58622
2026-01-23 17:36:23.74	29.34	3.03	-49.2	-63.0	3.6	1.51e+00	0	40	104	0	60	51261
2026-01-23 17:36:24.75	29.26	3.08	-49.0	-60.1	4.4	1.50e+00	19	40	104	0	60	36742
2026-01-23 17:36:25.76	29.19	3.14	-48.7	-56.6	6.0	6.33e-01	9	40	0	0	60	24566
2026-01-23 17:36:26.77	29.11	3.20	-49.3	-64.5	3.6	1.51e+00	0	40	104	1048576	60	60752
2026-01-23 17:36:27.79	29.03	3.25	-49.4	-64.5	3.5	1.51e+00	0	41	104	1048576	60	60830
2026-01-23 17:36:28.79	28.96	3.31	-49.3	-64.4	3.6	1.51e+00	0	40	104	1048576	60	60102
2026-01-23 17:36:29.80	28.88	3.37	-49.3	-64.4	3.6	1.51e+00	0	40	104	1048576	60	60087
2026-01-23 17:36:30.81	28.80	3.42	-49.3	-64.4	3.6	1.51e+00	0	40	104	1048576	60	60330
2026-01-23 17:36:31.82	28.72	3.48	-49.3	-64.4	3.6	1.51e+00	0	40	104	1048576	60	60046
2026-01-23 17:36:32.82	28.65	3.54	-49.3	-64.4	3.6	1.51e+00	0	40	104	1048576	60	60039
2026-01-23 17:36:33.83	28.57	3.60	-49.3	-64.4	3.6	1.51e+00	0	40	104	1048576	60	59650
2026-01-23 17:36:34.84	28.49	3.65	-49.2	-64.3	3.6	1.51e+00	0	40	104	1048576	60	59508
2026-01-23 17:36:35.84	28.41	3.71	-49.2	-64.4	3.6	1.51e+00	0	40	104	1048576	60	59703
2026-01-23 17:36:36.85	28.33	3.77	-49.2	-64.3	3.6	1.51e+00	0	40	104	1048576	60	59199
2026-01-23 17:36:37.86	28.25	3.82	-49.2	-64.3	3.6	1.51e+00	0	40	104	1048576	60	59408
2026-01-23 17:36:38.87	28.17	3.88	-49.2	-64.3	3.6	1.51e+00	0	41	104	1048576	60	59523
2026-01-23 17:36:39.88	28.09	3.94	-49.2	-64.4	3.6	1.51e+00	0	40	104	1048576	60	59648
2026-01-23 17:36:40.89	28.01	4.00	-49.2	-64.4	3.6	1.51e+00	0	41	104	1048576	60	59852
2026-01-23 17:36:41.90	27.93	4.06	-49.2	-64.3	3.6	1.51e+00	0	40	104	1048576	60	59379
2026-01-23 17:36:42.91	27.85	4.11	-49.2	-64.3	3.6	1.51e+00	0	40	104	1048576	60	59355
2026-01-23 17:36:43.92	27.76	4.17	-49.3	-64.3	3.5	1.51e+00	0	41	104	1048576	60	59280
2026-01-23 17:36:44.93	27.68	4.23	-49.2	-64.3	3.6	1.51e+00	0	40	104	1048576	60	59207
2026-01-23 17:36:45.94	27.60	4.29	-49.2	-64.3	3.6	1.51e+00	0	40	104	1048576	60	59378
2026-01-23 17:36:46.95	27.52	4.35	-49.3	-64.3	3.6	1.51e+00	0	41	104	1048576	60	59586
2026-01-23 17:36:47.96	27.43	4.40	-49.3	-64.3	3.6	1.51e+00	0	41	104	1048576	60	59516
2026-01-23 17:36:48.97	27.35	4.46	-49.2	-64.4	3.6	1.51e+00	0	41	104	1048576	60	59952
2026-01-23 17:36:49.98	27.27	4.52	-49.3	-64.4	3.6	1.51e+00	0	41	104	1048576	60	59743
2026-01-23 17:36:50.99	27.18	4.58	-49.3	-64.3	3.6	1.51e+00	0	41	104	1048576	60	59492
2026-01-23 17:36:52.00	27.10	4.64	-49.3	-64.4	3.6	1.51e+00	0	41	104	1048576	60	59652
2026-01-23 17:36:53.01	27.01	4.70	-49.2	-64.2	3.6	1.51e+00	0	41	104	1048576	60	58908
2026-01-23 17:36:54.02	26.93	4.75	-49.2	-64.2	3.6	1.51e+00	0	41	104	1048576	60	58580
2026-01-23 17:36:55.03	26.84	4.81	-49.2	-64.3	3.6	1.51e+00	0	41	104	1048576	60	59391
2026-01-23 17:36:56.04	26.75	4.87	-49.2	-64.2	3.6	1.51e+00	0	41	104	1048576	60	58720
2026-01-23 17:36:57.05	26.67	4.93	-49.2	-64.3	3.6	1.51e+00	0	41	104	1048576	60	59164
2026-01-23 17:36:58.06	26.58	4.99	-49.2	-64.4	3.6	1.51e+00	0	41	104	1048576	60	59655
2026-01-23 17:36:59.07	26.49	5.05	-49.2	-64.4	3.6	1.51e+00	0	41	104	1048576	60	60152
2026-01-23 17:37:00.08	26.41	5.11	-49.3	-64.4	3.5	1.51e+00	0	41	104	1048576	60	59896
2026-01-23 17:37:01.09	26.32	5.17	-49.3	-64.5	3.6	1.51e+00	0	41	104	1048576	60	60409
2026-01-23 17:37:02.10	26.23	5.23	-49.3	-64.5	3.6	1.51e+00	0	40	104	1048576	60	60338
2026-01-23 17:37:03.11	26.14	5.29	-49.2	-64.4	3.6	1.51e+00	0	41	104	1048576	60	60063
2026-01-23 17:37:04.12	26.05	5.34	-49.3	-64.3	3.6	1.51e+00	0	41	104	1048576	60	59597
2026-01-23 17:37:05.13	25.96	5.40	-49.2	-64.3	3.6	1.51e+00	0	41	104	1048576	60	59196
2026-01-23 17:37:06.14	25.87	5.46	-49.2	-64.3	3.6	1.51e+00	0	41	104	1048576	60	59135
2026-01-23 17:37:07.15	25.78	5.52	-49.3	-64.3	3.6	1.51e+00	0	41	104	1048576	60	59449
2026-01-23 17:37:08.16	25.69	5.58	-49.3	-64.3	3.6	1.51e+00	0	41	104	1048576	60	59560
2026-01-23 17:37:09.17	25.60	5.64	-49.2	-64.4	3.6	1.51e+00	0	40	104	1048576	60	60119
2026-01-23 17:37:10.18	25.51	5.70	-49.3	-64.4	3.6	1.51e+00	0	41	104	1048576	60	60230
2026-01-23 17:37:11.19	25.42	5.76	-49.2	-64.3	3.6	1.51e+00	0	41	104	1048576	60	59133
2026-01-23 17:37:12.20	25.32	5.82	-49.2	-64.2	3.6	1.51e+00	0	41	104	1048576	60	58752
2026-01-23 17:37:13.21	25.23	5.88	-49.3	-64.3	3.6	1.51e+00	0	41	104	1048576	60	59088
2026-01-23 17:37:14.22	25.14	5.94	-49.2	-64.4	3.6	1.51e+00	0	41	104	1048576	60	59756
2026-01-23 17:37:15.23	25.05	6.00	-49.3	-64.5	3.6	1.51e+00	0	41	104	1048576	60	60383
2026-01-23 17:37:16.24	24.95	6.06	-49.3	-64.4	3.6	1.51e+00	0	41	104	1048576	60	59996
2026-01-23 17:37:17.25	24.86	6.12	-49.3	-64.4	3.6	1.51e+00	0	41	104	1048576	60	59999
2026-01-23 17:37:18.26	24.76	6.18	-49.2	-64.3	3.6	1.51e+00	0	41	104	1048576	60	59602
2026-01-23 17:37:19.27	24.67	6.24	-49.3	-64.3	3.6	1.51e+00	0	41	104	1048576	60	59605
2026-01-23 17:37:20.28	24.57	6.30	-49.3	-64.4	3.6	1.51e+00	0	41	104	1048576	60	60214
2026-01-23 17:37:21.29	24.48	6.36	-49.3	-64.5	3.6	1.51e+00	0	41	104	1048576	60	60517
2026-01-23 17:37:22.30	24.38	6.42	-49.3	-64.4	3.6	1.51e+00	0	41	104	1048576	60	60236
2026-01-23 17:37:23.31	24.28	6.48	-49.2	-64.4	3.6	1.51e+00	0	41	104	1048576	60	59844
2026-01-23 17:37:24.32	24.19	6.54	-49.3	-64.4	3.6	1.51e+00	0	41	104	1048576	60	60040
2026-01-23 17:37:25.33	24.09	6.61	-49.3	-64.4	3.6	1.51e+00	0	41	104	1048576	60	59749
2026-01-23 17:37:26.34	23.99	6.67	-49.3	-64.5	3.6	1.51e+00	0	41	104	1048576	60	60390
2026-01-23 17:37:27.35	23.89	6.73	-49.3	-64.5	3.6	1.51e+00	0	41	104	1048576	60	60398
2026-01-23 17:37:28.36	23.79	6.79	-49.3	-64.4	3.6	1.51e+00	0	41	104	1048576	60	60123
2026-01-23 17:37:29.37	23.70	6.85	-49.3	-64.4	3.6	1.51e+00	0	41	104	1048576	60	60174
2026-01-23 17:37:30.38	23.60	6.91	-49.3	-64.4	3.6	1.51e+00	0	41	104	1048576	60	60159
2026-01-23 17:37:31.38	23.50	6.97	-49.2	-64.4	3.6	1.51e+00	0	41	104	1048576	60	59731
2026-01-23 17:37:32.40	23.40	7.03	-49.3	-64.4	3.6	1.51e+00	0	41	104	1048576	60	60241
2026-01-23 17:37:33.41	23.29	7.09	-49.3	-64.4	3.6	1.51e+00	0	41	104	1048576	60	60157
2026-01-23 17:37:34.41	23.19	7.15	-49.3	-64.5	3.6	1.51e+00	0	41	104	1048576	60	60430
2026-01-23 17:37:35.43	23.09	7.22	-49.3	-64.4	3.6	1.51e+00	0	41	104	1048576	60	60130
2026-01-23 17:37:36.44	22.99	7.28	-49.3	-64.4	3.6	1.51e+00	0	41	104	1048576	60	60081
2026-01-23 17:37:37.45	22.89	7.34	-49.3	-64.4	3.6	1.51e+00	0	41	104	1048576	60	60226
2026-01-23 17:37:38.46	22.78	7.40	-49.3	-64.4	3.6	1.51e+00	0	41	104	1048576	60	60193
2026-01-23 17:37:39.47	22.68	7.46	-49.3	-64.5	3.6	1.51e+00	0	41	104	1048576	60	60465
2026-01-23 17:37:40.48	22.58	7.52	-49.2	-64.4	3.6	1.51e+00	0	41	104	1048576	60	60234
2026-01-23 17:37:41.49	22.47	7.58	-49.3	-64.4	3.6	1.51e+00	0	41	104	1048576	60	60163
2026-01-23 17:37:42.50	22.37	7.65	-49.2	-64.5	3.6	1.51e+00	0	41	104	1048576	60	60359
2026-01-23 17:37:43.51	22.26	7.71	-49.3	-64.5	3.6	1.51e+00	0	41	104	1048576	60	60400
2026-01-23 17:37:44.52	22.15	7.77	-49.2	-64.5	3.6	1.51e+00	0	41	104	1048576	60	60360
2026-01-23 17:37:45.53	22.05	7.83	-49.3	-64.4	3.6	1.51e+00	0	41	104	1048576	60	60018
2026-01-23 17:37:46.53	21.94	7.89	-49.3	-64.4	3.6	1.51e+00	0	41	104	1048576	60	60255
2026-01-23 17:37:47.54	21.84	7.95	-49.3	-64.5	3.6	1.51e+00	0	41	104	1048576	60	60346
2026-01-23 17:37:48.55	21.73	8.02	-49.3	-64.5	3.6	1.51e+00	0	41	104	1048576	60	60421
2026-01-23 17:37:49.56	21.62	8.08	-49.3	-64.5	3.6	1.51e+00	0	41	104	1048576	60	60454
2026-01-23 17:37:50.57	21.51	8.14	-49.3	-64.4	3.6	1.51e+00	0	41	104	1048576	60	60266
2026-01-23 17:37:51.58	21.40	8.20	-49.3	-64.5	3.6	1.51e+00	0	41	104	1048576	60	60528
2026-01-23 17:37:52.59	21.29	8.27	-49.3	-64.5	3.6	1.51e+00	0	41	104	1048576	60	60344
2026-01-23 17:37:53.60	21.18	8.33	-49.3	-64.4	3.6	1.51e+00	0	41	104	1048576	60	60191
2026-01-23 17:37:54.61	21.07	8.39	-49.3	-64.4	3.6	1.51e+00	0	41	104	1048576	60	60218
2026-01-23 17:37:55.62	20.96	8.45	-49.3	-64.5	3.6	1.51e+00	0	41	104	1048576	60	60365
2026-01-23 17:37:56.63	20.85	8.51	-49.3	-64.4	3.6	1.51e+00	0	41	104	1048576	60	60293
2026-01-23 17:37:57.64	20.74	8.58	-49.3	-64.4	3.6	1.51e+00	0	41	104	1048576	60	60205
2026-01-23 17:37:58.65	20.62	8.64	-49.3	-64.5	3.6	1.51e+00	0	41	104	1048576	60	60456
2026-01-23 17:37:59.67	20.51	8.70	-49.3	-64.4	3.6	1.51e+00	0	41	104	1048576	60	60201
2026-01-23 17:38:00.67	20.40	8.76	-49.3	-64.5	3.6	1.51e+00	0	41	104	1048576	60	60375
2026-01-23 17:38:01.68	20.28	8.83	-49.3	-64.4	3.6	1.51e+00	0	41	104	1048576	60	60286
2026-01-23 17:38:02.69	20.17	8.89	-49.3	-64.4	3.6	1.51e+00	0	41	104	1048576	60	60094
2026-01-23 17:38:03.70	20.05	8.95	-49.3	-64.5	3.6	1.51e+00	0	41	104	1048576	60	60482
2026-01-23 17:38:04.71	19.94	9.02	-49.3	-64.4	3.6	1.51e+00	0	41	104	1048576	60	60180
2026-01-23 17:38:05.72	19.82	9.08	-49.2	-64.4	3.6	1.51e+00	0	41	104	1048576	60	60297
2026-01-23 17:38:06.73	19.70	9.14	-49.2	-64.4	3.6	1.51e+00	0	41	104	1048576	60	60284
2026-01-23 17:38:07.74	19.59	9.20	-49.3	-64.4	3.6	1.51e+00	0	41	104	1048576	60	60172
2026-01-23 17:38:08.75	19.47	9.27	-49.3	-64.5	3.6	1.51e+00	0	41	104	1048576	60	60435
2026-01-23 17:38:09.76	19.35	9.33	-49.3	-64.5	3.6	1.51e+00	0	41	104	1048576	60	60387
2026-01-23 17:38:10.77	19.23	9.39	-49.2	-64.4	3.5	1.51e+00	0	41	104	1048576	60	60326
2026-01-23 17:38:11.78	19.11	9.46	-49.3	-64.5	3.6	1.51e+00	0	41	104	1048576	60	60345
2026-01-23 17:38:12.79	18.99	9.52	-49.3	-64.4	3.6	1.51e+00	0	41	104	1048576	60	59986
2026-01-23 17:38:13.79	18.87	9.58	-49.3	-64.4	3.6	1.51e+00	0	41	104	1048576	60	60254
2026-01-23 17:38:14.80	18.75	9.65	-49.2	-64.4	3.6	1.51e+00	0	41	104	1048576	60	60140
2026-01-23 17:38:15.82	18.63	9.71	-49.3	-64.4	3.6	1.51e+00	0	41	104	1048576	60	60197
2026-01-23 17:38:16.83	18.51	9.77	-49.3	-64.4	3.6	1.51e+00	0	41	104	1048576	60	60254
2026-01-23 17:38:17.84	18.39	9.84	-49.3	-64.4	3.6	1.51e+00	0	41	104	1048576	60	60194
2026-01-23 17:38:18.85	18.26	9.90	-49.2	-64.4	3.6	1.51e+00	0	41	104	1048576	60	60236
2026-01-23 17:38:19.86	18.14	9.96	-49.2	-64.4	3.6	1.51e+00	0	41	104	1048576	60	60031
2026-01-23 17:38:20.87	18.02	10.03	-49.2	-64.4	3.6	1.51e+00	0	41	104	1048576	60	60185
2026-01-23 17:38:21.88	17.89	10.09	-49.3	-64.4	3.6	1.51e+00	0	41	104	1048576	60	60210
2026-01-23 17:38:22.89	17.77	10.15	-49.3	-64.5	3.6	1.51e+00	0	41	104	1048576	60	60690
2026-01-23 17:38:23.90	17.64	10.22	-49.2	-64.4	3.6	1.51e+00	0	41	104	1048576	60	60255
2026-01-23 17:38:24.91	17.51	10.28	-49.2	-64.5	3.6	1.51e+00	0	41	104	1048576	60	60429
2026-01-23 17:38:25.92	17.39	10.34	-49.3	-64.4	3.6	1.51e+00	0	41	104	1048576	60	59991
2026-01-23 17:38:26.93	17.26	10.41	-49.3	-64.4	3.6	1.51e+00	0	41	104	1048576	60	60234
2026-01-23 17:38:27.94	17.13	10.47	-49.3	-64.5	3.6	1.51e+00	0	41	104	1048576	60	60583
2026-01-23 17:38:28.95	17.00	10.53	-49.3	-64.4	3.6	1.51e+00	0	41	104	1048576	60	60141
2026-01-23 17:38:29.96	16.87	10.60	-49.2	-64.4	3.6	1.51e+00	0	41	104	1048576	60	59833
2026-01-23 17:38:30.97	16.74	10.66	-49.2	-64.4	3.6	1.51e+00	0	41	104	1048576	60	59966
2026-01-23 17:38:31.98	16.61	10.72	-49.2	-64.4	3.6	1.51e+00	0	41	104	1048576	60	59934
2026-01-23 17:38:32.99	16.48	10.79	-49.3	-64.5	3.6	1.51e+00	0	41	104	1048576	60	60439
2026-01-23 17:38:34.00	16.35	10.85	-49.2	-64.5	3.6	1.51e+00	0	41	104	1048576	60	60350
2026-01-23 17:38:35.01	16.22	10.92	-49.3	-64.4	3.6	1.51e+00	0	41	104	1048576	60	60293
2026-01-23 17:38:36.02	16.09	10.98	-49.3	-64.4	3.6	1.51e+00	0	41	104	1048576	60	60242
2026-01-23 17:38:37.03	15.95	11.04	-49.2	-64.4	3.6	1.51e+00	0	41	104	1048576	60	60004
2026-01-23 17:38:38.04	15.82	11.11	-49.3	-64.5	3.6	1.51e+00	0	41	104	1048576	60	60337
2026-01-23 17:38:39.05	15.68	11.17	-49.2	-64.4	3.6	1.51e+00	0	41	104	1048576	60	60119
2026-01-23 17:38:40.06	15.55	11.23	-49.2	-64.5	3.6	1.51e+00	0	41	104	1048576	60	60487
2026-01-23 17:38:41.07	15.41	11.30	-49.3	-64.4	3.5	1.51e+00	0	41	104	1048576	60	60243
2026-01-23 17:38:42.07	15.28	11.36	-49.2	-64.4	3.6	1.51e+00	0	41	104	1048576	60	60303
2026-01-23 17:38:43.08	15.14	11.43	-49.3	-64.5	3.6	1.51e+00	0	41	104	1048576	60	60445
2026-01-23 17:38:44.09	15.00	11.49	-49.2	-64.4	3.6	1.51e+00	0	41	104	1048576	60	60303
2026-01-23 17:38:45.10	14.87	11.55	-49.2	-64.4	3.6	1.51e+00	0	41	104	1048576	60	60251
2026-01-23 17:38:46.11	14.73	11.62	-49.2	-64.4	3.6	1.51e+00	0	41	104	1048576	60	60146
2026-01-23 17:38:47.12	14.59	11.68	-49.2	-64.5	3.6	1.51e+00	0	41	104	1048576	60	60346
2026-01-23 17:38:48.13	14.45	11.74	-49.2	-64.4	3.6	1.51e+00	0	41	104	1048576	60	60097
2026-01-23 17:38:49.14	14.31	11.81	-49.3	-64.4	3.6	1.51e+00	0	41	104	1048576	60	60125
2026-01-23 17:38:50.15	14.16	11.87	-49.3	-64.5	3.6	1.51e+00	0	41	104	1048576	60	60380
2026-01-23 17:38:51.16	14.02	11.94	-49.2	-64.5	3.6	1.51e+00	0	41	104	1048576	60	60350
2026-01-23 17:38:52.17	13.88	12.00	-49.2	-64.5	3.6	1.51e+00	0	41	104	1048576	60	60437
2026-01-23 17:38:53.18	13.74	12.06	-49.3	-64.4	3.6	1.51e+00	0	41	104	1048576	60	60130
2026-01-23 17:38:54.19	13.59	12.13	-49.2	-64.5	3.6	1.51e+00	0	41	104	1048576	60	60423
2026-01-23 17:38:55.20	13.45	12.19	-49.2	-64.4	3.6	1.51e+00	0	41	104	1048576	60	60237
2026-01-23 17:38:56.21	13.30	12.25	-49.3	-64.4	3.6	1.51e+00	0	41	104	1048576	60	60328
2026-01-23 17:38:57.22	13.16	12.32	-49.2	-64.4	3.6	1.51e+00	0	41	104	1048576	60	60110
2026-01-23 17:38:58.23	13.01	12.38	-49.2	-64.4	3.6	1.51e+00	0	41	104	1048576	60	60164
2026-01-23 17:38:59.24	12.86	12.45	-49.3	-64.5	3.6	1.51e+00	0	41	104	1048576	60	60450
2026-01-23 17:39:00.25	12.72	12.51	-49.3	-64.4	3.6	1.51e+00	0	41	104	1048576	60	60209
2026-01-23 17:39:01.26	12.57	12.57	-49.2	-64.4	3.6	1.51e+00	0	41	104	1048576	60	60182
2026-01-23 17:39:02.27	12.42	12.64	-49.2	-64.4	3.6	1.51e+00	0	41	104	1048576	60	60187
2026-01-23 17:39:03.28	12.27	12.70	-49.3	-64.4	3.6	1.51e+00	0	41	104	1048576	60	60036
2026-01-23 17:39:04.29	12.12	12.76	-49.3	-64.5	3.6	1.51e+00	0	41	104	1048576	60	60487
2026-01-23 17:39:05.30	11.97	12.83	-49.3	-64.4	3.6	1.51e+00	0	41	104	1048576	60	60272
2026-01-23 17:39:06.31	11.82	12.89	-49.2	-64.4	3.6	1.51e+00	0	41	104	1048576	60	60232
2026-01-23 17:39:07.32	11.67	12.95	-49.3	-64.4	3.6	1.51e+00	0	41	104	1048576	60	60169
2026-01-23 17:39:08.33	11.51	13.02	-49.3	-64.4	3.6	1.51e+00	0	41	104	1048576	60	60296
2026-01-23 17:39:09.34	11.36	13.08	-49.3	-64.4	3.6	1.51e+00	0	41	104	1048576	60	59992
2026-01-23 17:39:10.35	11.20	13.14	-49.3	-64.4	3.6	1.51e+00	0	41	104	1048576	60	60283
2026-01-23 17:39:11.36	11.05	13.21	-49.3	-64.5	3.6	1.51e+00	0	41	104	1048576	60	60482
2026-01-23 17:39:12.37	10.89	13.27	-49.2	-64.4	3.6	1.51e+00	0	41	104	1048576	60	60313
2026-01-23 17:39:13.38	10.74	13.33	-49.3	-64.5	3.6	1.51e+00	0	41	104	1048576	60	60541
2026-01-23 17:39:14.39	10.58	13.40	-49.3	-64.5	3.6	1.51e+00	0	41	104	1048576	60	60380
2026-01-23 17:39:15.40	10.42	13.46	-49.3	-64.5	3.6	1.51e+00	0	41	104	1048576	60	60408
2026-01-23 17:39:16.41	10.26	13.52	-49.3	-64.4	3.6	1.51e+00	0	41	104	1048576	60	60296
2026-01-23 17:39:17.42	10.11	13.59	-49.3	-64.4	3.6	1.51e+00	0	41	104	1048576	60	60161
2026-01-23 17:39:18.43	9.95	13.65	-49.2	-64.4	3.6	1.51e+00	0	41	104	1048576	60	60249
2026-01-23 17:39:19.44	9.79	13.71	-49.2	-64.4	3.6	1.51e+00	0	41	104	1048576	60	60103
2026-01-23 17:39:20.45	9.62	13.77	-49.2	-64.5	3.6	1.51e+00	0	41	104	1048576	60	60430
2026-01-23 17:39:21.46	9.46	13.84	-49.2	-64.5	3.6	1.51e+00	0	41	104	1048576	60	60336
2026-01-23 17:39:22.47	9.30	13.90	-49.3	-64.5	3.6	1.51e+00	0	41	104	1048576	60	60393
2026-01-23 17:39:23.48	9.14	13.96	-49.2	-64.5	3.6	1.51e+00	0	41	104	1048576	60	60367
2026-01-23 17:39:24.49	8.97	14.02	-49.2	-64.4	3.6	1.51e+00	0	41	104	1048576	60	60235
2026-01-23 17:39:25.50	8.81	14.09	-49.2	-64.4	3.6	1.51e+00	0	41	104	1048576	60	60243
2026-01-23 17:39:26.51	8.64	14.15	-49.2	-64.4	3.6	1.51e+00	0	41	104	1048576	60	60259
2026-01-23 17:39:27.52	8.48	14.21	-49.3	-64.5	3.6	1.51e+00	0	41	104	1048576	60	60435
2026-01-23 17:39:28.53	8.31	14.27	-49.2	-64.4	3.6	1.51e+00	0	41	104	1048576	60	60296
2026-01-23 17:39:29.54	8.14	14.34	-49.2	-64.4	3.6	1.51e+00	0	41	104	1048576	60	60198
2026-01-23 17:39:30.55	7.97	14.40	-49.2	-64.4	3.6	1.51e+00	0	41	104	1048576	60	60259
2026-01-23 17:39:31.56	7.80	14.46	-49.3	-64.5	3.6	1.51e+00	0	41	104	1048576	60	60481
2026-01-23 17:39:32.57	7.64	14.52	-49.3	-64.5	3.6	1.51e+00	0	41	104	1048576	60	60418
2026-01-23 17:39:33.58	7.46	14.58	-49.2	-64.5	3.6	1.51e+00	0	41	104	1048576	60	60415
2026-01-23 17:39:34.59	7.29	14.64	-49.2	-64.5	3.6	1.51e+00	0	41	104	1048576	60	60346
2026-01-23 17:39:35.60	7.12	14.71	-49.2	-64.5	3.6	1.51e+00	0	41	104	1048576	60	60525
2026-01-23 17:39:36.61	6.95	14.77	-49.3	-64.4	3.6	1.51e+00	0	41	104	1048576	60	60020
2026-01-23 17:39:37.62	6.78	14.83	-49.3	-64.5	3.6	1.51e+00	0	41	104	1048576	60	60341
2026-01-23 17:39:38.63	6.60	14.89	-49.3	-64.4	3.6	1.51e+00	0	41	104	1048576	60	60197
2026-01-23 17:39:39.64	6.43	14.95	-49.3	-64.4	3.6	1.51e+00	0	41	104	1048576	60	60244
2026-01-23 17:39:40.65	6.25	15.01	-49.2	-64.4	3.6	1.51e+00	0	41	104	1048576	60	60227
2026-01-23 17:39:41.66	6.08	15.07	-49.2	-64.4	3.6	1.51e+00	0	41	104	1048576	60	60180
2026-01-23 17:39:42.67	5.90	15.13	-49.3	-64.4	3.6	1.51e+00	0	41	104	1048576	60	60259
2026-01-23 17:39:43.68	5.72	15.19	-49.3	-64.5	3.6	1.51e+00	0	41	104	1048576	60	60624
2026-01-23 17:39:44.69	5.54	15.25	-49.2	-64.5	3.6	1.51e+00	0	41	104	1048576	60	60349
2026-01-23 17:39:45.70	5.36	15.32	-49.2	-64.5	3.6	1.51e+00	0	41	104	1048576	60	60394
2026-01-23 17:39:46.71	5.18	15.38	-49.2	-64.5	3.6	1.51e+00	0	41	104	1048576	60	60376
2026-01-23 17:39:47.72	5.00	15.44	-49.3	-64.5	3.6	1.51e+00	0	41	104	1048576	60	60396
2026-01-23 17:39:48.73	4.82	15.50	-49.3	-64.4	3.6	1.51e+00	0	41	104	1048576	60	60299
2026-01-23 17:39:49.74	4.64	15.55	-49.2	-64.5	3.6	1.51e+00	0	41	104	1048576	60	60408
2026-01-23 17:39:50.75	4.46	15.61	-49.2	-64.4	3.6	1.51e+00	0	41	104	1048576	60	60219
2026-01-23 17:39:51.76	4.27	15.67	-49.2	-64.4	3.6	1.51e+00	0	41	104	1048576	60	60215
2026-01-23 17:39:52.77	4.09	15.73	-49.2	-64.4	3.6	1.51e+00	0	41	104	1048576	60	59949
2026-01-23 17:39:53.78	3.90	15.79	-49.2	-64.4	3.6	1.51e+00	0	41	104	1048576	60	60179
2026-01-23 17:39:54.79	3.72	15.85	-49.2	-64.5	3.6	1.51e+00	0	41	104	1048576	60	60388
2026-01-23 17:39:55.80	3.53	15.91	-49.2	-64.5	3.6	1.51e+00	0	41	104	1048576	60	60349
2026-01-23 17:39:56.81	3.34	15.97	-49.2	-64.4	3.6	1.51e+00	0	41	104	1048576	60	59871
2026-01-23 17:39:57.82	3.16	16.03	-49.2	-64.4	3.6	1.51e+00	0	41	104	1048576	60	60186
2026-01-23 17:39:58.83	2.97	16.09	-49.2	-64.4	3.6	1.51e+00	0	41	104	1048576	60	59939
2026-01-23 17:39:59.84	2.78	16.14	-49.2	-64.4	3.6	1.51e+00	0	41	104	1048576	60	60212
2026-01-23 17:40:00.85	2.59	16.20	-49.3	-64.4	3.6	1.51e+00	0	41	104	1048576	60	59879
2026-01-23 17:40:01.86	2.40	16.26	-49.2	-64.4	3.6	1.51e+00	0	41	104	1048576	60	60286
2026-01-23 17:40:02.87	2.21	16.32	-49.2	-64.4	3.6	1.51e+00	0	41	104	1048576	60	60291
2026-01-23 17:40:03.88	2.01	16.37	-49.2	-64.4	3.6	1.51e+00	0	41	104	1048576	60	60272
2026-01-23 17:40:04.88	1.82	16.43	-49.2	-64.5	3.6	1.51e+00	0	41	104	1048576	60	60771
2026-01-23 17:40:05.90	1.63	16.49	-49.2	-64.4	3.6	1.51e+00	0	41	104	1048576	60	60228
2026-01-23 17:40:06.91	1.43	16.54	-49.2	-64.5	3.6	1.51e+00	0	41	104	1048576	60	60687
2026-01-23 17:40:07.91	1.24	16.60	-49.2	-64.5	3.6	1.51e+00	0	41	104	1048576	60	60406
2026-01-23 17:40:08.93	1.04	16.66	-49.2	-64.4	3.6	1.51e+00	0	41	104	1048576	60	60312
2026-01-23 17:40:09.94	0.84	16.71	-49.2	-64.4	3.6	1.51e+00	0	41	104	1048576	60	59976
2026-01-23 17:40:10.95	0.64	16.77	-49.2	-64.4	3.6	1.51e+00	0	41	104	1048576	60	59946
2026-01-23 17:40:11.95	0.45	16.82	-49.2	-64.4	3.6	1.51e+00	0	41	104	1048576	60	60302
2026-01-23 17:40:12.95	0.25	16.88	-49.3	-64.4	3.6	1.51e+00	0	41	104	1048576	60	60232
2026-01-23 17:40:13.96	0.05	16.93	-49.3	-64.5	3.6	1.51e+00	0	41	104	1048576	60	60403
2026-01-23 17:40:14.97	359.85	16.99	-49.2	-64.5	3.6	1.51e+00	0	41	104	1048576	60	60382
2026-01-23 17:40:15.98	359.65	17.04	-49.2	-64.5	3.6	1.51e+00	0	41	104	1048576	60	60405
2026-01-23 17:40:16.99	359.45	17.10	-49.2	-64.5	3.6	1.51e+00	0	41	104	1048576	60	60390
2026-01-23 17:40:18.00	359.24	17.15	-49.2	-64.5	3.6	1.51e+00	0	41	104	1048576	60	60388
2026-01-23 17:40:19.01	359.04	17.21	-49.2	-64.4	3.6	1.51e+00	0	41	104	1048576	60	60118
2026-01-23 17:40:20.02	358.84	17.26	-49.2	-64.4	3.6	1.51e+00	0	41	104	1048576	60	60281
2026-01-23 17:40:21.03	358.63	17.31	-49.2	-64.5	3.6	1.51e+00	0	41	104	1048576	60	60565
2026-01-23 17:40:22.04	358.43	17.37	-49.2	-64.4	3.6	1.51e+00	0	41	104	1048576	60	60242
2026-01-23 17:40:23.05	358.22	17.42	-49.2	-64.4	3.6	1.51e+00	0	41	104	1048576	60	60025
2026-01-23 17:40:24.06	358.01	17.47	-49.2	-64.5	3.6	1.51e+00	0	41	104	1048576	60	60339
2026-01-23 17:40:25.07	357.80	17.53	-49.2	-64.4	3.6	1.51e+00	0	41	104	1048576	60	60091
2026-01-23 17:40:26.08	357.59	17.58	-49.2	-64.4	3.6	1.51e+00	0	41	104	1048576	60	60262
2026-01-23 17:40:27.09	357.39	17.63	-49.2	-64.4	3.6	1.51e+00	0	42	104	1048576	60	60130
2026-01-23 17:40:28.10	357.17	17.68	-49.2	-64.4	3.6	1.51e+00	0	41	104	1048576	60	60272
2026-01-23 17:40:29.11	356.96	17.73	-49.2	-64.5	3.6	1.51e+00	0	41	104	1048576	60	60415
2026-01-23 17:40:30.12	356.75	17.78	-49.2	-64.5	3.6	1.51e+00	0	41	104	1048576	60	60364
2026-01-23 17:40:31.13	356.54	17.83	-49.2	-64.5	3.6	1.51e+00	0	41	104	1048576	60	60455
2026-01-23 17:40:32.14	356.33	17.88	-49.2	-64.4	3.6	1.51e+00	0	41	104	1048576	60	60226
2026-01-23 17:40:33.15	356.11	17.93	-49.2	-64.5	3.6	1.51e+00	0	41	104	1048576	60	60342
2026-01-23 17:40:34.16	355.90	17.98	-49.2	-64.4	3.6	1.51e+00	0	41	104	1048576	60	60192
2026-01-23 17:40:35.17	355.68	18.03	-49.2	-64.4	3.6	1.51e+00	0	41	104	1048576	60	60108
2026-01-23 17:40:36.18	355.47	18.08	-49.2	-64.5	3.6	1.51e+00	0	41	104	1048576	60	60340
2026-01-23 17:40:37.19	355.25	18.13	-49.2	-64.4	3.6	1.51e+00	0	41	104	1048576	60	59953
2026-01-23 17:40:38.20	355.03	18.18	-49.2	-64.4	3.6	1.51e+00	0	41	104	1048576	60	60242
2026-01-23 17:40:39.21	354.81	18.23	-49.2	-64.5	3.6	1.51e+00	0	41	104	1048576	60	60407
2026-01-23 17:40:40.22	354.60	18.28	-49.2	-64.4	3.6	1.51e+00	0	41	104	1048576	60	60253
2026-01-23 17:40:41.23	354.38	18.32	-49.3	-64.5	3.6	1.51e+00	0	41	104	1048576	60	60408
2026-01-23 17:40:42.24	354.16	18.37	-49.3	-64.4	3.6	1.51e+00	0	41	104	1048576	60	60195
2026-01-23 17:40:43.25	353.94	18.42	-49.2	-64.5	3.6	1.51e+00	0	41	104	1048576	60	60633
2026-01-23 17:40:44.25	353.72	18.46	-49.2	-64.4	3.6	1.51e+00	0	41	104	1048576	60	60208
2026-01-23 17:40:45.26	353.49	18.51	-49.2	-64.4	3.6	1.51e+00	0	41	104	1048576	60	60304
2026-01-23 17:40:46.27	353.27	18.55	-49.2	-64.4	3.6	1.51e+00	0	41	104	1048576	60	60174
2026-01-23 17:40:47.28	353.05	18.60	-49.2	-64.5	3.6	1.51e+00	0	41	104	1048576	60	60592
2026-01-23 17:40:48.29	352.82	18.64	-49.2	-64.4	3.6	1.51e+00	0	41	104	1048576	60	60246
2026-01-23 17:40:49.30	352.60	18.69	-49.2	-64.5	3.6	1.51e+00	0	41	104	1048576	60	60583
2026-01-23 17:40:50.31	352.37	18.73	-49.3	-64.4	3.6	1.51e+00	0	41	104	1048576	60	60282
2026-01-23 17:40:51.32	352.15	18.78	-49.2	-64.4	3.6	1.51e+00	0	41	104	1048576	60	60195
2026-01-23 17:40:52.33	351.92	18.82	-49.2	-64.4	3.6	1.51e+00	0	41	104	1048576	60	60274
2026-01-23 17:40:53.34	351.69	18.86	-49.2	-64.4	3.6	1.51e+00	0	41	104	1048576	60	60328
2026-01-23 17:40:54.35	351.46	18.91	-49.2	-64.4	3.6	1.51e+00	0	41	104	1048576	60	60093
2026-01-23 17:40:55.36	351.23	18.95	-49.2	-64.4	3.6	1.51e+00	0	41	104	1048576	60	60285
2026-01-23 17:40:56.37	351.01	18.99	-49.2	-64.5	3.6	1.51e+00	0	41	104	1048576	60	60377
2026-01-23 17:40:57.38	350.78	19.03	-49.2	-64.4	3.6	1.51e+00	0	41	104	1048576	60	60279
2026-01-23 17:40:58.39	350.54	19.07	-49.2	-64.5	3.6	1.51e+00	0	41	104	1048576	60	60352
2026-01-23 17:40:59.40	350.31	19.11	-49.2	-64.4	3.6	1.51e+00	0	41	104	1048576	60	60220
2026-01-23 17:41:00.41	350.08	19.15	-49.2	-64.5	3.6	1.51e+00	0	41	104	1048576	60	60345
2026-01-23 17:41:01.42	349.85	19.19	-49.2	-64.5	3.6	1.51e+00	0	41	104	1048576	60	60467
2026-01-23 17:41:02.42	349.62	19.23	-49.2	-64.4	3.6	1.51e+00	0	41	104	1048576	60	60124
2026-01-23 17:41:03.43	349.38	19.27	-49.2	-64.4	3.6	1.51e+00	0	41	104	1048576	60	60287
2026-01-23 17:41:04.44	349.15	19.31	-49.2	-64.5	3.6	1.51e+00	0	41	104	1048576	60	60435
2026-01-23 17:41:05.45	348.91	19.35	-49.2	-64.4	3.6	1.51e+00	0	41	104	1048576	60	60065
2026-01-23 17:41:06.46	348.68	19.38	-49.2	-64.4	3.5	1.51e+00	0	42	104	1048576	60	60207
2026-01-23 17:41:07.47	348.44	19.42	-49.2	-64.4	3.6	1.51e+00	0	41	104	1048576	60	60240
2026-01-23 17:41:08.48	348.21	19.46	-49.2	-64.4	3.6	1.51e+00	0	41	104	1048576	60	59988
2026-01-23 17:41:09.50	347.97	19.49	-49.2	-64.4	3.6	1.51e+00	0	41	104	1048576	60	60303
2026-01-23 17:41:10.51	347.73	19.53	-49.2	-64.5	3.6	1.51e+00	0	41	104	1048576	60	60426
2026-01-23 17:41:11.52	347.49	19.56	-49.2	-64.4	3.6	1.51e+00	0	41	104	1048576	60	60300
2026-01-23 17:41:12.53	347.25	19.60	-49.2	-64.4	3.6	1.51e+00	0	41	104	1048576	60	60120
2026-01-23 17:41:13.54	347.01	19.63	-49.2	-64.4	3.6	1.51e+00	0	41	104	1048576	60	60292
2026-01-23 17:41:14.54	346.77	19.67	-49.2	-64.4	3.6	1.51e+00	0	41	104	1048576	60	60268
2026-01-23 17:41:15.55	346.53	19.70	-49.2	-64.4	3.6	1.51e+00	0	41	104	1048576	60	59952
2026-01-23 17:41:16.56	346.29	19.73	-49.2	-64.4	3.6	1.51e+00	0	41	104	1048576	60	60136
2026-01-23 17:41:17.58	346.05	19.76	-49.2	-64.4	3.6	1.51e+00	0	41	104	1048576	60	60044
2026-01-23 17:41:18.59	345.81	19.80	-49.2	-64.4	3.6	1.51e+00	0	41	104	1048576	60	59883
2026-01-23 17:41:19.60	345.56	19.83	-49.2	-64.4	3.6	1.51e+00	0	41	104	1048576	60	60114
2026-01-23 17:41:20.61	345.32	19.86	-49.2	-64.4	3.6	1.51e+00	0	41	104	1048576	60	60184
2026-01-23 17:41:21.62	345.08	19.89	-49.2	-64.4	3.6	1.51e+00	0	41	104	1048576	60	60046
2026-01-23 17:41:22.63	344.83	19.92	-49.2	-64.5	3.6	1.51e+00	0	41	104	1048576	60	60373
2026-01-23 17:41:23.64	344.59	19.95	-49.2	-64.4	3.6	1.51e+00	0	41	104	1048576	60	60292
2026-01-23 17:41:24.65	344.34	19.98	-49.2	-64.5	3.6	1.51e+00	0	41	104	1048576	60	60391
2026-01-23 17:41:25.66	344.10	20.00	-49.2	-64.4	3.6	1.51e+00	0	41	104	1048576	60	60187
2026-01-23 17:41:26.66	343.85	20.03	-49.2	-64.4	3.6	1.51e+00	0	41	104	1048576	60	60217
2026-01-23 17:41:27.67	343.61	20.06	-49.2	-64.4	3.6	1.51e+00	0	41	104	1048576	60	60049
2026-01-23 17:41:28.68	343.36	20.09	-49.2	-64.4	3.6	1.51e+00	0	41	104	1048576	60	60090
2026-01-23 17:41:29.69	343.11	20.11	-49.2	-64.4	3.5	1.51e+00	0	41	104	1048576	60	60057
2026-01-23 17:41:30.70	342.86	20.14	-49.2	-64.5	3.6	1.51e+00	0	41	104	1048576	60	60525
2026-01-23 17:41:31.71	342.62	20.16	-49.2	-64.4	3.6	1.51e+00	0	41	104	1048576	60	60088
2026-01-23 17:41:32.72	342.37	20.19	-49.2	-64.4	3.6	1.51e+00	0	41	104	1048576	60	60072
2026-01-23 17:41:33.73	342.12	20.21	-49.2	-64.4	3.6	1.51e+00	0	41	104	1048576	60	60300
2026-01-23 17:41:34.74	341.87	20.23	-49.2	-64.4	3.6	1.51e+00	0	41	104	1048576	60	59993
2026-01-23 17:41:35.75	341.62	20.26	-49.2	-64.4	3.5	1.51e+00	0	42	104	1048576	60	60098
2026-01-23 17:41:36.76	341.37	20.28	-49.2	-64.4	3.6	1.51e+00	0	41	104	1048576	60	60045
2026-01-23 17:41:37.77	341.12	20.30	-49.2	-64.5	3.6	1.51e+00	0	41	104	1048576	60	60387
2026-01-23 17:41:38.78	340.87	20.32	-49.2	-64.4	3.6	1.51e+00	0	41	104	1048576	60	60317
2026-01-23 17:41:39.79	340.62	20.34	-49.2	-64.5	3.5	1.51e+00	0	41	104	1048576	60	60358
2026-01-23 17:41:40.80	340.37	20.36	-49.2	-64.4	3.6	1.51e+00	0	41	104	1048576	60	60041
2026-01-23 17:41:41.82	340.11	20.38	-49.2	-64.4	3.6	1.51e+00	0	42	104	1048576	60	60166
2026-01-23 17:41:42.83	339.86	20.40	-49.2	-64.5	3.6	1.51e+00	0	41	104	1048576	60	60642
2026-01-23 17:41:43.84	339.61	20.42	-49.2	-64.4	3.6	1.51e+00	0	41	104	1048576	60	60241
2026-01-23 17:41:44.85	339.35	20.44	-49.2	-64.4	3.6	1.51e+00	0	41	104	1048576	60	60323
2026-01-23 17:41:45.86	339.10	20.45	-49.2	-64.5	3.6	1.51e+00	0	42	104	1048576	60	60482
2026-01-23 17:41:46.87	338.85	20.47	-49.2	-64.4	3.6	1.51e+00	0	42	104	1048576	60	60061
2026-01-23 17:41:47.88	338.59	20.49	-49.2	-64.4	3.6	1.51e+00	0	42	104	1048576	60	60316
2026-01-23 17:41:48.89	338.34	20.50	-49.2	-64.4	3.6	1.51e+00	0	42	104	1048576	60	60156
2026-01-23 17:41:49.90	338.09	20.52	-49.2	-64.5	3.6	1.51e+00	0	41	104	1048576	60	60497
2026-01-23 17:41:50.91	337.83	20.53	-49.2	-64.4	3.6	1.51e+00	0	41	104	1048576	60	60168
2026-01-23 17:41:51.92	337.58	20.54	-49.2	-64.4	3.6	1.51e+00	0	41	104	1048576	60	60122
2026-01-23 17:41:52.93	337.32	20.56	-49.2	-64.4	3.6	1.51e+00	0	41	104	1048576	60	60224
2026-01-23 17:41:53.94	337.07	20.57	-49.2	-64.4	3.6	1.51e+00	0	42	104	1048576	60	60220
2026-01-23 17:41:54.95	336.81	20.58	-49.2	-64.5	3.6	1.51e+00	0	42	104	1048576	60	60361
2026-01-23 17:41:55.96	336.56	20.59	-49.2	-64.4	3.6	1.51e+00	0	41	104	1048576	60	60251
2026-01-23 17:41:56.97	336.30	20.60	-49.2	-64.4	3.6	1.51e+00	0	41	104	1048576	60	59976
2026-01-23 17:41:57.98	336.04	20.61	-49.2	-64.4	3.6	1.51e+00	0	42	104	1048576	60	60080
2026-01-23 17:41:58.99	335.79	20.62	-49.2	-64.5	3.6	1.51e+00	0	42	104	1048576	60	60478
2026-01-23 17:42:00.00	335.53	20.63	-49.2	-64.5	3.6	1.51e+00	0	42	104	1048576	60	60610
2026-01-23 17:42:01.01	335.28	20.64	-49.2	-64.5	3.6	1.51e+00	0	41	104	1048576	60	60386
2026-01-23 17:42:02.02	335.02	20.65	-49.2	-64.4	3.6	1.51e+00	0	42	104	1048576	60	60305
2026-01-23 17:42:03.03	334.76	20.66	-49.2	-64.5	3.6	1.51e+00	0	41	104	1048576	60	60369
2026-01-23 17:42:04.04	334.51	20.66	-49.2	-64.4	3.6	1.51e+00	0	41	104	1048576	60	60209
2026-01-23 17:42:05.05	334.25	20.67	-49.2	-64.4	3.6	1.51e+00	0	42	104	1048576	60	60333
2026-01-23 17:42:06.06	333.99	20.67	-49.2	-64.4	3.6	1.51e+00	0	41	104	1048576	60	60067
2026-01-23 17:42:07.07	333.74	20.68	-49.2	-64.5	3.6	1.51e+00	0	41	104	1048576	60	60425
2026-01-23 17:42:08.08	333.48	20.68	-49.2	-64.4	3.6	1.51e+00	0	42	104	1048576	60	59980
2026-01-23 17:42:09.08	333.22	20.68	-49.2	-64.4	3.6	1.51e+00	0	42	104	1048576	60	60172
2026-01-23 17:42:10.09	332.97	20.69	-49.2	-64.4	3.6	1.51e+00	0	41	104	1048576	60	60244
2026-01-23 17:42:11.10	332.71	20.69	-49.2	-64.4	3.6	1.51e+00	0	42	104	1048576	60	59913
2026-01-23 17:42:12.11	332.45	20.69	-49.2	-64.4	3.6	1.51e+00	0	42	104	1048576	60	60185
2026-01-23 17:42:13.12	332.19	20.69	-49.2	-64.5	3.6	1.51e+00	0	41	104	1048576	60	60494
2026-01-23 17:42:14.13	331.94	20.69	-49.2	-64.4	3.6	1.51e+00	0	42	104	1048576	60	60119
2026-01-23 17:42:15.14	331.68	20.69	-49.2	-64.4	3.6	1.51e+00	0	42	104	1048576	60	60272
2026-01-23 17:42:16.15	331.42	20.69	-49.2	-64.4	3.6	1.51e+00	0	42	104	1048576	60	60050
2026-01-23 17:42:17.16	331.17	20.69	-49.2	-64.4	3.6	1.51e+00	0	42	104	1048576	60	60248
2026-01-23 17:42:18.17	330.91	20.69	-49.2	-64.4	3.6	1.51e+00	0	41	104	1048576	60	60158
2026-01-23 17:42:19.18	330.65	20.69	-49.2	-64.5	3.6	1.51e+00	0	41	104	1048576	60	60418
2026-01-23 17:42:20.19	330.39	20.68	-49.2	-64.4	3.6	1.51e+00	0	42	104	1048576	60	60314
2026-01-23 17:42:21.20	330.14	20.68	-49.2	-64.5	3.6	1.51e+00	0	42	104	1048576	60	60370
2026-01-23 17:42:22.21	329.88	20.67	-49.2	-64.4	3.6	1.51e+00	0	42	104	1048576	60	60320
2026-01-23 17:42:23.22	329.62	20.67	-49.2	-64.4	3.6	1.51e+00	0	42	104	1048576	60	59999
2026-01-23 17:42:24.23	329.37	20.66	-49.2	-64.5	3.6	1.51e+00	0	42	104	1048576	60	60737
2026-01-23 17:42:25.24	329.11	20.66	-49.2	-64.4	3.6	1.51e+00	0	41	104	1048576	60	59781
2026-01-23 17:42:26.25	328.85	20.65	-49.2	-64.5	3.6	1.51e+00	0	42	104	1048576	60	60379
2026-01-23 17:42:27.26	328.60	20.64	-49.2	-64.4	3.6	1.51e+00	0	42	104	1048576	60	60093
2026-01-23 17:42:28.27	328.34	20.63	-49.2	-64.4	3.6	1.51e+00	0	42	104	1048576	60	60035
2026-01-23 17:42:29.28	328.08	20.62	-49.2	-64.4	3.6	1.51e+00	0	42	104	1048576	60	60119
2026-01-23 17:42:30.29	327.83	20.62	-49.2	-64.4	3.6	1.51e+00	0	42	104	1048576	60	60196
2026-01-23 17:42:31.30	327.57	20.61	-49.2	-64.5	3.6	1.51e+00	0	42	104	1048576	60	60415
2026-01-23 17:42:32.31	327.32	20.59	-49.2	-64.4	3.6	1.51e+00	0	42	104	1048576	60	60058
2026-01-23 17:42:33.32	327.06	20.58	-49.2	-64.4	3.6	1.51e+00	0	42	104	1048576	60	60122
2026-01-23 17:42:34.33	326.80	20.57	-49.2	-64.5	3.6	1.51e+00	0	42	104	1048576	60	60812
2026-01-23 17:42:35.34	326.55	20.56	-49.2	-64.4	3.6	1.51e+00	0	42	104	1048576	60	60131
2026-01-23 17:42:36.35	326.29	20.55	-49.2	-64.4	3.6	1.51e+00	0	42	104	1048576	60	60043
2026-01-23 17:42:37.36	326.04	20.53	-49.2	-64.4	3.6	1.51e+00	0	42	104	1048576	60	60313
2026-01-23 17:42:38.37	325.79	20.52	-49.2	-64.4	3.6	1.51e+00	0	42	104	1048576	60	60190
2026-01-23 17:42:39.38	325.53	20.50	-49.2	-64.5	3.6	1.51e+00	0	42	104	1048576	60	60342
2026-01-23 17:42:40.39	325.28	20.49	-49.2	-64.4	3.6	1.51e+00	0	42	104	1048576	60	60239
2026-01-23 17:42:41.40	325.02	20.47	-49.2	-64.4	3.6	1.51e+00	0	42	104	1048576	60	60222
2026-01-23 17:42:42.41	324.77	20.46	-49.2	-64.4	3.6	1.51e+00	0	42	104	1048576	60	60132
2026-01-23 17:42:43.42	324.52	20.44	-49.2	-64.4	3.6	1.51e+00	0	42	104	1048576	60	60083
2026-01-23 17:42:44.43	324.26	20.42	-49.2	-64.4	3.6	1.51e+00	0	42	104	1048576	60	60317
2026-01-23 17:42:45.44	324.01	20.40	-49.2	-64.4	3.5	1.51e+00	0	41	104	1048576	60	59994
2026-01-23 17:42:46.44	323.76	20.39	-49.2	-64.5	3.6	1.51e+00	0	42	104	1048576	60	60387
2026-01-23 17:42:47.46	323.51	20.37	-49.2	-64.4	3.6	1.51e+00	0	42	104	1048576	60	60261
2026-01-23 17:42:48.46	323.26	20.35	-49.2	-64.4	3.6	1.51e+00	0	42	104	1048576	60	60282
2026-01-23 17:42:49.47	323.01	20.33	-49.2	-64.4	3.6	1.51e+00	0	42	104	1048576	60	60148
2026-01-23 17:42:50.48	322.75	20.30	-49.2	-64.5	3.6	1.51e+00	0	42	104	1048576	60	60362
2026-01-23 17:42:51.50	322.50	20.28	-49.2	-64.4	3.6	1.51e+00	0	42	104	1048576	60	60114
2026-01-23 17:42:52.51	322.25	20.26	-49.2	-64.4	3.6	1.51e+00	0	42	104	1048576	60	60043
2026-01-23 17:42:53.52	322.00	20.24	-49.2	-64.5	3.6	1.51e+00	0	42	104	1048576	60	60419
2026-01-23 17:42:54.53	321.75	20.21	-49.2	-64.4	3.6	1.51e+00	0	42	104	1048576	60	60085
2026-01-23 17:42:55.54	321.50	20.19	-49.2	-64.4	3.6	1.51e+00	0	42	104	1048576	60	60254
2026-01-23 17:42:56.54	321.26	20.17	-49.2	-64.4	3.6	1.51e+00	0	42	104	1048576	60	60161
2026-01-23 17:42:57.55	321.01	20.14	-49.2	-64.4	3.6	1.51e+00	0	42	104	1048576	60	60194
2026-01-23 17:42:58.56	320.76	20.12	-49.2	-64.4	3.6	1.51e+00	0	42	104	1048576	60	60180
2026-01-23 17:42:59.57	320.51	20.09	-49.2	-64.5	3.6	1.51e+00	0	42	104	1048576	60	60396
2026-01-23 17:43:00.58	320.26	20.06	-49.2	-64.4	3.6	1.51e+00	0	42	104	1048576	60	60175
2026-01-23 17:43:01.59	320.02	20.04	-49.2	-64.4	3.6	1.51e+00	0	42	104	1048576	60	60305
2026-01-23 17:43:02.60	319.77	20.01	-49.2	-64.4	3.6	1.51e+00	0	42	104	1048576	60	60224
2026-01-23 17:43:03.61	319.53	19.98	-49.2	-64.4	3.6	1.51e+00	0	42	104	1048576	60	60276
2026-01-23 17:43:04.62	319.28	19.95	-49.3	-64.4	3.6	1.51e+00	0	42	104	1048576	60	60264
2026-01-23 17:43:05.63	319.03	19.92	-49.2	-64.4	3.6	1.51e+00	0	42	104	1048576	60	60247
2026-01-23 17:43:06.64	318.79	19.89	-49.3	-64.5	3.6	1.51e+00	0	42	104	1048576	60	60475
2026-01-23 17:43:07.65	318.55	19.86	-49.2	-64.5	3.6	1.51e+00	0	42	104	1048576	60	60399
2026-01-23 17:43:08.65	318.31	19.83	-49.2	-64.5	3.6	1.51e+00	0	42	104	1048576	60	60450
2026-01-23 17:43:09.67	318.06	19.80	-49.2	-64.4	3.6	1.51e+00	0	42	104	1048576	60	60037
2026-01-23 17:43:10.68	317.82	19.77	-49.2	-64.4	3.6	1.51e+00	0	42	104	1048576	60	60186
2026-01-23 17:43:11.68	317.58	19.74	-49.2	-64.4	3.6	1.51e+00	0	42	104	1048576	60	60205
2026-01-23 17:43:12.69	317.34	19.70	-49.2	-64.4	3.6	1.51e+00	0	42	104	1048576	60	60313
2026-01-23 17:43:13.70	317.10	19.67	-49.2	-64.4	3.6	1.51e+00	0	42	104	1048576	60	60269
2026-01-23 17:43:14.71	316.85	19.64	-49.2	-64.4	3.6	1.51e+00	0	42	104	1048576	60	60312
2026-01-23 17:43:15.72	316.61	19.60	-49.2	-64.4	3.6	1.51e+00	0	42	104	1048576	60	60326
2026-01-23 17:43:16.73	316.38	19.57	-49.2	-64.4	3.6	1.51e+00	0	42	104	1048576	60	60263
2026-01-23 17:43:17.74	316.14	19.53	-49.2	-64.5	3.6	1.51e+00	0	42	104	1048576	60	60455
2026-01-23 17:43:18.75	315.90	19.50	-49.2	-64.5	3.6	1.51e+00	0	42	104	1048576	60	60338
2026-01-23 17:43:19.76	315.66	19.46	-49.2	-64.4	3.6	1.51e+00	0	42	104	1048576	60	60075
2026-01-23 17:43:20.77	315.42	19.43	-49.2	-64.4	3.6	1.51e+00	0	42	104	1048576	60	60257
2026-01-23 17:43:21.78	315.19	19.39	-49.2	-64.4	3.6	1.51e+00	0	42	104	1048576	60	60086
2026-01-23 17:43:22.79	314.95	19.35	-49.2	-64.4	3.6	1.51e+00	0	42	104	1048576	60	60169
2026-01-23 17:43:23.80	314.72	19.31	-49.2	-64.4	3.6	1.51e+00	0	42	104	1048576	60	60251
2026-01-23 17:43:24.81	314.48	19.28	-49.2	-64.5	3.5	1.51e+00	0	42	104	1048576	60	60463
2026-01-23 17:43:25.82	314.25	19.24	-49.2	-64.5	3.6	1.51e+00	0	42	104	1048576	60	60351
2026-01-23 17:43:26.83	314.01	19.20	-49.2	-64.5	3.6	1.51e+00	0	42	104	1048576	60	60386
2026-01-23 17:43:27.84	313.78	19.16	-49.2	-64.4	3.6	1.51e+00	0	42	104	1048576	60	60283
2026-01-23 17:43:28.85	313.55	19.12	-49.2	-64.4	3.6	1.51e+00	0	42	104	1048576	60	60230
2026-01-23 17:43:29.86	313.32	19.08	-49.2	-64.4	3.6	1.51e+00	0	42	104	1048576	60	60195
2026-01-23 17:43:30.87	313.08	19.04	-49.3	-64.4	3.6	1.51e+00	0	42	104	1048576	60	60077
2026-01-23 17:43:31.88	312.85	19.00	-49.2	-64.5	3.6	1.51e+00	0	42	104	1048576	60	60519
2026-01-23 17:43:32.89	312.62	18.95	-49.2	-64.4	3.6	1.51e+00	0	42	104	1048576	60	59999
2026-01-23 17:43:33.90	312.39	18.91	-49.2	-64.4	3.6	1.51e+00	0	42	104	1048576	60	59995
2026-01-23 17:43:34.91	312.17	18.87	-49.2	-64.4	3.6	1.51e+00	0	42	104	1048576	60	59826
2026-01-23 17:43:35.92	311.94	18.83	-49.2	-64.4	3.6	1.51e+00	0	42	104	1048576	60	59959
2026-01-23 17:43:36.94	311.71	18.78	-49.3	-64.4	3.6	1.51e+00	0	42	104	1048576	60	60319
2026-01-23 17:43:37.94	311.48	18.74	-49.2	-64.4	3.6	1.51e+00	0	42	104	1048576	60	60193
2026-01-23 17:43:38.95	311.26	18.70	-49.2	-64.4	3.6	1.51e+00	0	42	104	1048576	60	60166
2026-01-23 17:43:39.96	311.03	18.65	-49.2	-64.4	3.6	1.51e+00	0	42	104	1048576	60	60282
2026-01-23 17:43:40.97	310.81	18.61	-49.2	-64.4	3.6	1.51e+00	0	42	104	1048576	60	60127
2026-01-23 17:43:41.98	310.58	18.56	-49.2	-64.4	3.6	1.51e+00	0	42	104	1048576	60	60216
2026-01-23 17:43:42.99	310.36	18.51	-49.2	-64.4	3.6	1.51e+00	0	42	104	1048576	60	60169
2026-01-23 17:43:44.00	310.14	18.47	-49.2	-64.5	3.6	1.51e+00	0	42	104	1048576	60	60469
2026-01-23 17:43:45.01	309.92	18.42	-49.2	-64.4	3.6	1.51e+00	0	42	104	1048576	60	60260
2026-01-23 17:43:46.02	309.69	18.38	-49.2	-64.4	3.6	1.51e+00	0	42	104	1048576	60	60076
2026-01-23 17:43:47.03	309.47	18.33	-49.3	-64.5	3.6	1.51e+00	0	42	104	1048576	60	60385
2026-01-23 17:43:48.04	309.25	18.28	-49.2	-64.4	3.6	1.51e+00	0	42	104	1048576	60	60166
2026-01-23 17:43:49.05	309.03	18.23	-49.2	-64.4	3.6	1.51e+00	0	42	104	1048576	60	59931
2026-01-23 17:43:50.06	308.82	18.19	-49.2	-64.5	3.6	1.51e+00	0	42	104	1048576	60	60358
2026-01-23 17:43:51.07	308.60	18.14	-49.2	-64.5	3.6	1.51e+00	0	42	104	1048576	60	60617
2026-01-23 17:43:52.08	308.38	18.09	-49.2	-64.5	3.6	1.51e+00	0	42	104	1048576	60	60458
2026-01-23 17:43:53.09	308.16	18.04	-49.2	-64.4	3.6	1.51e+00	0	42	104	1048576	60	60269
2026-01-23 17:43:54.10	307.95	17.99	-49.2	-64.4	3.6	1.51e+00	0	42	104	1048576	60	60202
2026-01-23 17:43:55.11	307.73	17.94	-49.2	-64.5	3.6	1.51e+00	0	42	104	1048576	60	60369
2026-01-23 17:43:56.11	307.52	17.89	-49.2	-64.4	3.6	1.51e+00	0	42	104	1048576	60	60180
2026-01-23 17:43:57.13	307.31	17.84	-49.2	-64.4	3.6	1.51e+00	0	42	104	1048576	60	60195
2026-01-23 17:43:58.13	307.09	17.79	-49.2	-64.4	3.6	1.51e+00	0	42	104	1048576	60	60250
2026-01-23 17:43:59.14	306.88	17.74	-49.2	-64.4	3.6	1.51e+00	0	42	104	1048576	60	59864
2026-01-23 17:44:00.15	306.67	17.69	-49.2	-64.4	3.6	1.51e+00	0	42	104	1048576	60	60174
2026-01-23 17:44:01.16	306.46	17.64	-49.2	-64.5	3.6	1.51e+00	0	42	104	1048576	60	60336
2026-01-23 17:44:02.17	306.25	17.58	-49.2	-64.4	3.6	1.51e+00	0	42	104	1048576	60	60216
2026-01-23 17:44:03.18	306.04	17.53	-49.3	-64.4	3.6	1.51e+00	0	42	104	1048576	60	60256
2026-01-23 17:44:04.19	305.83	17.48	-49.2	-64.4	3.6	1.51e+00	0	42	104	1048576	60	60265
2026-01-23 17:44:05.20	305.62	17.43	-49.2	-64.4	3.6	1.51e+00	0	42	104	1048576	60	60227
2026-01-23 17:44:06.21	305.42	17.37	-49.3	-64.4	3.6	1.51e+00	0	42	104	1048576	60	60268
2026-01-23 17:44:07.22	305.21	17.32	-49.2	-64.4	3.6	1.51e+00	0	42	104	1048576	60	60092
2026-01-23 17:44:08.23	305.01	17.27	-49.2	-64.5	3.6	1.51e+00	0	42	104	1048576	60	60370
2026-01-23 17:44:09.24	304.80	17.21	-49.3	-64.5	3.6	1.51e+00	0	42	104	1048576	60	60480
2026-01-23 17:44:10.25	304.60	17.16	-49.2	-64.4	3.6	1.51e+00	0	42	104	1048576	60	60255
2026-01-23 17:44:11.26	304.39	17.11	-49.2	-64.4	3.6	1.51e+00	0	42	104	1048576	60	59934
2026-01-23 17:44:12.28	304.19	17.05	-49.2	-64.5	3.6	1.51e+00	0	42	104	1048576	60	60339
2026-01-23 17:44:13.29	303.99	17.00	-49.2	-64.4	3.6	1.51e+00	0	42	104	1048576	60	59966
2026-01-23 17:44:14.29	303.79	16.94	-49.2	-64.5	3.6	1.51e+00	0	42	104	1048576	60	60420
2026-01-23 17:44:15.30	303.59	16.89	-49.2	-64.4	3.6	1.51e+00	0	42	104	1048576	60	60180
2026-01-23 17:44:16.31	303.39	16.83	-49.2	-64.4	3.6	1.51e+00	0	42	104	1048576	60	60190
2026-01-23 17:44:17.33	303.19	16.77	-49.3	-64.5	3.6	1.51e+00	0	42	104	1048576	60	60346
2026-01-23 17:44:18.34	302.99	16.72	-49.2	-64.5	3.5	1.51e+00	0	42	104	1048576	60	60461
2026-01-23 17:44:19.34	302.79	16.66	-49.3	-64.4	3.6	1.51e+00	0	42	104	1048576	60	60178
2026-01-23 17:44:20.36	302.59	16.61	-49.2	-64.4	3.6	1.51e+00	0	42	104	1048576	60	60132
2026-01-23 17:44:21.37	302.40	16.55	-49.2	-64.4	3.6	1.51e+00	0	42	104	1048576	60	60282
2026-01-23 17:44:22.38	302.20	16.49	-49.2	-64.4	3.6	1.51e+00	0	42	104	1048576	60	60240
2026-01-23 17:44:23.39	302.01	16.44	-49.2	-64.5	3.6	1.51e+00	0	42	104	1048576	60	60434
2026-01-23 17:44:24.40	301.81	16.38	-49.3	-64.4	3.6	1.51e+00	0	42	104	1048576	60	60237
2026-01-23 17:44:25.41	301.62	16.32	-49.2	-64.5	3.6	1.51e+00	0	42	104	1048576	60	60408
2026-01-23 17:44:26.42	301.43	16.26	-49.3	-64.4	3.6	1.51e+00	0	42	104	1048576	60	60213
2026-01-23 17:44:27.43	301.24	16.21	-49.2	-64.5	3.6	1.51e+00	0	42	104	1048576	60	60470
2026-01-23 17:44:28.44	301.05	16.15	-49.3	-64.4	3.6	1.51e+00	0	42	104	1048576	60	60300
2026-01-23 17:44:29.45	300.86	16.09	-49.2	-64.4	3.6	1.51e+00	0	42	104	1048576	60	60229
2026-01-23 17:44:30.46	300.67	16.03	-49.2	-64.4	3.6	1.51e+00	0	42	104	1048576	60	60076
2026-01-23 17:44:31.47	300.48	15.97	-49.2	-64.4	3.6	1.51e+00	0	42	104	1048576	60	60085
2026-01-23 17:44:32.48	300.29	15.91	-49.2	-64.4	3.6	1.51e+00	0	42	104	1048576	60	59944
2026-01-23 17:44:33.49	300.10	15.85	-49.2	-64.4	3.6	1.51e+00	0	42	104	1048576	60	60316
2026-01-23 17:44:34.50	299.92	15.80	-49.2	-64.4	3.6	1.51e+00	0	42	104	1048576	60	60146
2026-01-23 17:44:35.51	299.73	15.74	-49.2	-64.5	3.6	1.51e+00	0	42	104	1048576	60	60365
2026-01-23 17:44:36.52	299.55	15.68	-49.2	-64.4	3.6	1.51e+00	0	42	104	1048576	60	60109
2026-01-23 17:44:37.53	299.36	15.62	-49.2	-64.4	3.6	1.51e+00	0	42	104	1048576	60	60280
2026-01-23 17:44:38.53	299.18	15.56	-49.2	-64.5	3.6	1.51e+00	0	42	104	1048576	60	60386
2026-01-23 17:44:39.54	299.00	15.50	-49.2	-64.4	3.6	1.51e+00	0	42	104	1048576	60	60251
2026-01-23 17:44:40.55	298.82	15.44	-49.2	-64.5	3.6	1.51e+00	0	42	104	1048576	60	60415
2026-01-23 17:44:41.56	298.64	15.38	-49.2	-64.4	3.6	1.51e+00	0	42	104	1048576	60	60190
2026-01-23 17:44:42.57	298.46	15.32	-49.2	-64.4	3.6	1.51e+00	0	42	104	1048576	60	59963
2026-01-23 17:44:43.58	298.28	15.26	-49.2	-64.5	3.6	1.51e+00	0	42	104	1048576	60	60386
2026-01-23 17:44:44.59	298.10	15.20	-49.2	-64.5	3.6	1.51e+00	0	42	104	1048576	60	60705
2026-01-23 17:44:45.60	297.92	15.14	-49.2	-64.4	3.6	1.51e+00	0	42	104	1048576	60	60075
2026-01-23 17:44:46.61	297.74	15.08	-49.2	-64.4	3.6	1.51e+00	0	42	104	1048576	60	60289
2026-01-23 17:44:47.62	297.56	15.02	-49.2	-64.4	3.6	1.51e+00	0	42	104	1048576	60	60008
2026-01-23 17:44:48.63	297.39	14.95	-49.2	-64.5	3.6	1.51e+00	0	42	104	1048576	60	60336
2026-01-23 17:44:49.64	297.21	14.89	-49.2	-64.4	3.6	1.51e+00	0	42	104	1048576	60	60076
2026-01-23 17:44:50.65	297.04	14.83	-49.3	-64.5	3.6	1.51e+00	0	42	104	1048576	60	60626
2026-01-23 17:44:51.66	296.87	14.77	-49.2	-64.4	3.6	1.51e+00	0	42	104	1048576	60	60166
2026-01-23 17:44:52.67	296.69	14.71	-49.2	-64.4	3.6	1.51e+00	0	42	104	1048576	60	60051
2026-01-23 17:44:53.68	296.52	14.65	-49.2	-64.4	3.5	1.51e+00	0	42	104	1048576	60	60227
2026-01-23 17:44:54.69	296.35	14.59	-49.2	-64.4	3.6	1.51e+00	0	42	104	1048576	60	60165
2026-01-23 17:44:55.70	296.18	14.52	-49.2	-64.4	3.5	1.51e+00	0	42	104	1048576	60	60053
2026-01-23 17:44:56.71	296.01	14.46	-49.2	-64.4	3.6	1.51e+00	0	42	104	1048576	60	60289
2026-01-23 17:44:57.72	295.84	14.40	-49.3	-64.5	3.6	1.51e+00	0	42	104	1048576	60	60370
2026-01-23 17:44:58.73	295.67	14.34	-49.2	-64.5	3.6	1.51e+00	0	41	104	1048576	60	60457
2026-01-23 17:44:59.74	295.50	14.28	-49.3	-64.5	3.6	1.51e+00	0	42	104	1048576	60	60494
2026-01-23 17:45:00.75	295.33	14.21	-49.2	-64.4	3.6	1.51e+00	0	42	104	1048576	60	60232
2026-01-23 17:45:01.76	295.17	14.15	-49.3	-64.5	3.6	1.51e+00	0	42	104	1048576	60	60399
2026-01-23 17:45:02.77	295.00	14.09	-49.3	-64.4	3.6	1.51e+00	0	42	104	1048576	60	60210
2026-01-23 17:45:03.78	294.84	14.03	-49.2	-64.5	3.6	1.51e+00	0	42	104	1048576	60	60414
2026-01-23 17:45:04.79	294.67	13.96	-49.2	-64.4	3.6	1.51e+00	0	42	104	1048576	60	60032
2026-01-23 17:45:05.80	294.51	13.90	-49.2	-64.5	3.6	1.51e+00	0	42	104	1048576	60	60386
2026-01-23 17:45:06.81	294.34	13.84	-49.2	-64.4	3.6	1.51e+00	0	42	104	1048576	60	60319
2026-01-23 17:45:07.82	294.18	13.78	-49.3	-64.4	3.6	1.51e+00	0	42	104	1048576	60	60237
2026-01-23 17:45:08.83	294.02	13.71	-49.3	-64.4	3.6	1.51e+00	0	42	104	1048576	60	60232
2026-01-23 17:45:09.84	293.86	13.65	-49.2	-64.4	3.6	1.51e+00	0	42	104	1048576	60	60197
2026-01-23 17:45:10.85	293.70	13.59	-49.3	-64.4	3.6	1.51e+00	0	42	104	1048576	60	60185
2026-01-23 17:45:11.86	293.54	13.52	-49.2	-64.5	3.6	1.51e+00	0	42	104	1048576	60	60370
2026-01-23 17:45:12.87	293.38	13.46	-49.2	-64.4	3.6	1.51e+00	0	42	104	1048576	60	60234
2026-01-23 17:45:13.88	293.22	13.40	-49.2	-64.4	3.6	1.51e+00	0	42	104	1048576	60	60129
2026-01-23 17:45:14.89	293.06	13.33	-49.2	-64.4	3.6	1.51e+00	0	42	104	1048576	60	60296
2026-01-23 17:45:15.90	292.91	13.27	-49.2	-64.4	3.6	1.51e+00	0	42	104	1048576	60	60044
2026-01-23 17:45:16.91	292.75	13.21	-49.2	-64.5	3.6	1.51e+00	0	42	104	1048576	60	60509
2026-01-23 17:45:17.92	292.60	13.14	-49.2	-64.4	3.6	1.51e+00	0	42	104	1048576	60	60318
2026-01-23 17:45:18.93	292.44	13.08	-49.2	-64.5	3.6	1.51e+00	0	42	104	1048576	60	60405
2026-01-23 17:45:19.94	292.29	13.02	-49.2	-64.5	3.6	1.51e+00	0	42	104	1048576	60	60476
2026-01-23 17:45:20.95	292.13	12.95	-49.2	-64.4	3.6	1.51e+00	0	42	104	1048576	60	59999
2026-01-23 17:45:21.96	291.98	12.89	-49.3	-64.4	3.6	1.51e+00	0	42	104	1048576	60	60037
2026-01-23 17:45:22.97	291.83	12.83	-49.2	-64.5	3.6	1.51e+00	0	42	104	1048576	60	60368
2026-01-23 17:45:23.98	291.68	12.76	-49.2	-64.4	3.6	1.51e+00	0	42	104	1048576	60	60240
2026-01-23 17:45:24.99	291.53	12.70	-49.2	-64.4	3.6	1.51e+00	0	42	104	1048576	60	60110
2026-01-23 17:45:26.00	291.38	12.64	-49.3	-64.4	3.6	1.51e+00	0	42	104	1048576	60	60313
2026-01-23 17:45:27.01	291.23	12.57	-49.2	-64.5	3.6	1.51e+00	0	42	104	1048576	60	60565
2026-01-23 17:45:28.02	291.08	12.51	-49.2	-64.4	3.6	1.51e+00	0	42	104	1048576	60	60294
2026-01-23 17:45:29.03	290.93	12.44	-49.2	-64.4	3.6	1.51e+00	0	42	104	1048576	60	60205
2026-01-23 17:45:30.04	290.78	12.38	-49.2	-64.4	3.6	1.51e+00	0	42	104	1048576	60	60274
2026-01-23 17:45:31.05	290.63	12.32	-49.2	-64.4	3.6	1.51e+00	0	42	104	1048576	60	60264
2026-01-23 17:45:32.06	290.49	12.25	-49.2	-64.4	3.6	1.51e+00	0	42	104	1048576	60	60294
2026-01-23 17:45:33.07	290.34	12.19	-49.2	-64.4	3.6	1.51e+00	0	42	104	1048576	60	60332
2026-01-23 17:45:34.07	290.20	12.13	-49.2	-64.4	3.6	1.51e+00	0	42	104	1048576	60	60218
2026-01-23 17:45:35.08	290.05	12.06	-49.2	-64.4	3.6	1.51e+00	0	42	104	1048576	60	60235
2026-01-23 17:45:36.09	289.91	12.00	-49.2	-64.4	3.6	1.51e+00	0	42	104	1048576	60	60143
2026-01-23 17:45:37.10	289.77	11.93	-49.3	-64.4	3.6	1.51e+00	0	42	104	1048576	60	60052
2026-01-23 17:45:38.11	289.62	11.87	-49.2	-64.4	3.6	1.51e+00	0	42	104	1048576	60	60007
2026-01-23 17:45:39.12	289.48	11.81	-49.2	-64.4	3.6	1.51e+00	0	42	104	1048576	60	59872
2026-01-23 17:45:40.14	289.34	11.74	-49.2	-64.4	3.6	1.51e+00	0	42	104	1048576	60	60085
2026-01-23 17:45:41.14	289.20	11.68	-49.2	-64.5	3.6	1.51e+00	0	42	104	1048576	60	60423
2026-01-23 17:45:42.15	289.06	11.61	-49.2	-64.5	3.6	1.51e+00	0	42	104	1048576	60	60338
2026-01-23 17:45:43.16	288.92	11.55	-49.2	-64.4	3.6	1.51e+00	0	42	104	1048576	60	60077
2026-01-23 17:45:44.17	288.78	11.49	-49.2	-64.4	3.6	1.51e+00	0	42	104	1048576	60	59972
2026-01-23 17:45:45.18	288.65	11.42	-49.2	-64.4	3.6	1.51e+00	0	42	104	1048576	60	60103
2026-01-23 17:45:46.20	288.51	11.36	-49.2	-64.4	3.6	1.51e+00	0	42	104	1048576	60	60306
2026-01-23 17:45:47.20	288.37	11.30	-49.2	-64.4	3.6	1.51e+00	0	42	104	1048576	60	60311
2026-01-23 17:45:48.21	288.23	11.23	-49.2	-64.4	3.6	1.51e+00	0	42	104	1048576	60	60304
2026-01-23 17:45:49.23	288.10	11.17	-49.2	-64.5	3.6	1.51e+00	0	42	104	1048576	60	60397
2026-01-23 17:45:50.23	287.96	11.10	-49.3	-64.4	3.6	1.51e+00	0	42	104	1048576	60	60221
2026-01-23 17:45:51.25	287.83	11.04	-49.2	-64.4	3.6	1.51e+00	0	42	104	1048576	60	60207
2026-01-23 17:45:52.26	287.69	10.98	-49.2	-64.4	3.6	1.51e+00	0	42	104	1048576	60	60222
2026-01-23 17:45:53.27	287.56	10.91	-49.2	-64.4	3.6	1.51e+00	0	42	104	1048576	60	60274
2026-01-23 17:45:54.28	287.43	10.85	-49.2	-64.4	3.6	1.51e+00	0	42	104	1048576	60	60282
2026-01-23 17:45:55.29	287.30	10.78	-49.2	-64.4	3.6	1.51e+00	0	42	104	1048576	60	60244
2026-01-23 17:45:56.30	287.16	10.72	-49.2	-64.4	3.6	1.51e+00	0	42	104	1048576	60	60095
2026-01-23 17:45:57.31	287.03	10.66	-49.2	-64.4	3.6	1.51e+00	0	42	104	1048576	60	59997
2026-01-23 17:45:58.32	286.90	10.59	-49.2	-64.4	3.6	1.51e+00	0	42	104	1048576	60	60175
2026-01-23 17:45:59.33	286.77	10.53	-49.2	-64.5	3.6	1.51e+00	0	42	104	1048576	60	60371
2026-01-23 17:46:00.34	286.64	10.47	-49.2	-64.5	3.6	1.51e+00	0	41	104	1048576	60	60449
2026-01-23 17:46:01.35	286.52	10.40	-49.2	-64.5	3.6	1.51e+00	0	42	104	1048576	60	60542
2026-01-23 17:46:02.36	286.39	10.34	-49.2	-64.4	3.6	1.51e+00	0	41	104	1048576	60	60191
2026-01-23 17:46:03.37	286.26	10.27	-49.2	-64.4	3.6	1.51e+00	0	41	104	1048576	60	60234
2026-01-23 17:46:04.37	286.13	10.21	-49.2	-64.4	3.6	1.51e+00	0	42	104	1048576	60	60313
2026-01-23 17:46:05.38	286.01	10.15	-49.2	-64.4	3.6	1.51e+00	0	42	104	1048576	60	60171
2026-01-23 17:46:06.39	285.88	10.08	-49.2	-64.4	3.6	1.51e+00	0	42	104	1048576	60	59958
2026-01-23 17:46:07.40	285.76	10.02	-49.2	-64.4	3.6	1.51e+00	0	42	104	1048576	60	59942
2026-01-23 17:46:08.41	285.63	9.96	-49.2	-64.4	3.6	1.51e+00	0	42	104	1048576	60	60218
2026-01-23 17:46:09.42	285.51	9.89	-49.2	-64.5	3.6	1.51e+00	0	42	104	1048576	60	60528
2026-01-23 17:46:10.43	285.38	9.83	-49.2	-64.5	3.6	1.51e+00	0	42	104	1048576	60	60410
2026-01-23 17:46:11.44	285.26	9.77	-49.2	-64.5	3.6	1.51e+00	0	42	104	1048576	60	60378
2026-01-23 17:46:12.45	285.14	9.70	-49.2	-64.4	3.6	1.51e+00	0	42	104	1048576	60	60190
2026-01-23 17:46:13.46	285.02	9.64	-49.2	-64.4	3.6	1.51e+00	0	42	104	1048576	60	60098
2026-01-23 17:46:14.47	284.89	9.58	-49.2	-64.4	3.6	1.51e+00	0	42	104	1048576	60	59817
2026-01-23 17:46:15.48	284.77	9.51	-49.2	-64.5	3.6	1.51e+00	0	42	104	1048576	60	60414
2026-01-23 17:46:16.49	284.65	9.45	-49.2	-64.4	3.6	1.51e+00	0	42	104	1048576	60	60102
2026-01-23 17:46:17.50	284.53	9.39	-49.2	-64.4	3.6	1.51e+00	0	42	104	1048576	60	60160
2026-01-23 17:46:18.51	284.41	9.32	-49.2	-64.4	3.6	1.51e+00	0	42	104	1048576	60	60077
2026-01-23 17:46:19.52	284.30	9.26	-49.2	-64.4	3.6	1.51e+00	0	42	104	1048576	60	60325
2026-01-23 17:46:20.53	284.18	9.20	-49.2	-64.5	3.6	1.51e+00	0	42	104	1048576	60	60531
2026-01-23 17:46:21.54	284.06	9.13	-49.2	-64.4	3.5	1.51e+00	0	41	104	1048576	60	60142
2026-01-23 17:46:22.55	283.94	9.07	-49.2	-64.4	3.6	1.51e+00	0	41	104	1048576	60	60212
2026-01-23 17:46:23.56	283.83	9.01	-49.2	-64.4	3.6	1.51e+00	0	42	104	1048576	60	60234
2026-01-23 17:46:24.57	283.71	8.95	-49.2	-64.4	3.6	1.51e+00	0	42	104	1048576	60	60015
2026-01-23 17:46:25.58	283.59	8.88	-49.2	-64.4	3.6	1.51e+00	0	42	104	1048576	60	60134
2026-01-23 17:46:26.59	283.48	8.82	-49.2	-64.4	3.6	1.51e+00	0	42	104	1048576	60	60237
2026-01-23 17:46:27.60	283.36	8.76	-49.2	-64.4	3.6	1.51e+00	0	42	104	1048576	60	60058
2026-01-23 17:46:28.61	283.25	8.69	-49.2	-64.4	3.6	1.51e+00	0	41	104	1048576	60	59949
2026-01-23 17:46:29.62	283.14	8.63	-49.2	-64.4	3.6	1.51e+00	0	41	104	1048576	60	60252
2026-01-23 17:46:30.63	283.02	8.57	-49.2	-64.5	3.6	1.51e+00	0	42	104	1048576	60	60378
2026-01-23 17:46:31.64	282.91	8.51	-49.2	-64.4	3.6	1.51e+00	0	42	104	1048576	60	60313
2026-01-23 17:46:32.65	282.80	8.44	-49.2	-64.5	3.6	1.51e+00	0	42	104	1048576	60	60363
2026-01-23 17:46:33.66	282.69	8.38	-49.2	-64.4	3.6	1.51e+00	0	42	104	1048576	60	60258
2026-01-23 17:46:34.67	282.58	8.32	-49.2	-64.4	3.6	1.51e+00	0	41	104	1048576	60	60144
2026-01-23 17:46:35.67	282.47	8.26	-49.2	-64.4	3.6	1.51e+00	0	42	104	1048576	60	59958
2026-01-23 17:46:36.68	282.36	8.20	-49.2	-64.4	3.6	1.51e+00	0	42	104	1048576	60	59867
2026-01-23 17:46:37.69	282.25	8.13	-49.2	-64.4	3.6	1.51e+00	0	42	104	1048576	60	60244
2026-01-23 17:46:38.70	282.14	8.07	-49.2	-64.5	3.6	1.51e+00	0	41	104	1048576	60	60396
2026-01-23 17:46:39.71	282.03	8.01	-49.2	-64.4	3.6	1.51e+00	0	41	104	1048576	60	60227
2026-01-23 17:46:40.72	281.92	7.95	-49.2	-64.4	3.6	1.51e+00	0	41	104	1048576	60	59998
2026-01-23 17:46:41.73	281.81	7.88	-49.2	-64.4	3.6	1.51e+00	0	42	104	1048576	60	60260
2026-01-23 17:46:42.74	281.70	7.82	-49.2	-64.4	3.6	1.51e+00	0	42	104	1048576	60	59974
2026-01-23 17:46:43.75	281.60	7.76	-49.2	-64.4	3.6	1.51e+00	0	42	104	1048576	60	60123
2026-01-23 17:46:44.76	281.49	7.70	-49.2	-64.4	3.6	1.51e+00	0	42	104	1048576	60	60241
2026-01-23 17:46:45.77	281.38	7.64	-49.2	-64.5	3.6	1.51e+00	0	41	104	1048576	60	60347
2026-01-23 17:46:46.78	281.28	7.58	-49.2	-64.4	3.6	1.51e+00	0	41	104	1048576	60	59966
2026-01-23 17:46:47.79	281.17	7.51	-49.2	-64.4	3.6	1.51e+00	0	41	104	1048576	60	59874
2026-01-23 17:46:48.80	281.07	7.45	-49.2	-64.4	3.6	1.51e+00	0	41	104	1048576	60	60187
2026-01-23 17:46:49.81	280.97	7.39	-49.2	-64.5	3.6	1.51e+00	0	41	104	1048576	60	60356
2026-01-23 17:46:50.82	280.86	7.33	-49.2	-64.4	3.6	1.51e+00	0	41	104	1048576	60	60276
2026-01-23 17:46:51.83	280.76	7.27	-49.2	-64.4	3.6	1.51e+00	0	41	104	1048576	60	60269
2026-01-23 17:46:52.84	280.66	7.21	-49.2	-64.4	3.6	1.51e+00	0	41	104	1048576	60	60096
2026-01-23 17:46:53.85	280.55	7.14	-49.2	-64.4	3.6	1.51e+00	0	41	104	1048576	60	60096
2026-01-23 17:46:54.86	280.45	7.08	-49.2	-64.4	3.6	1.51e+00	0	41	104	1048576	60	60224
2026-01-23 17:46:55.87	280.35	7.02	-49.2	-64.4	3.6	1.51e+00	0	41	104	1048576	60	60019
2026-01-23 17:46:56.88	280.25	6.96	-49.2	-64.4	3.6	1.51e+00	0	41	104	1048576	60	60063
2026-01-23 17:46:57.89	280.15	6.90	-49.2	-64.4	3.6	1.51e+00	0	41	104	1048576	60	60151
2026-01-23 17:46:58.90	280.05	6.84	-49.2	-64.4	3.6	1.51e+00	0	41	104	1048576	60	60100
2026-01-23 17:46:59.91	279.95	6.78	-49.2	-64.4	3.6	1.51e+00	0	41	104	1048576	60	59967
2026-01-23 17:47:00.92	279.85	6.72	-49.2	-64.4	3.6	1.51e+00	0	41	104	1048576	60	60239
2026-01-23 17:47:01.93	279.75	6.66	-49.2	-64.4	3.6	1.51e+00	0	41	104	1048576	60	60074
2026-01-23 17:47:02.94	279.65	6.59	-49.2	-64.4	3.6	1.51e+00	0	41	104	1048576	60	60054
2026-01-23 17:47:03.95	279.55	6.53	-49.2	-64.4	3.6	1.51e+00	0	41	104	1048576	60	60121
2026-01-23 17:47:04.96	279.46	6.47	-49.2	-64.5	3.6	1.51e+00	0	41	104	1048576	60	60339
2026-01-23 17:47:05.97	279.36	6.41	-49.2	-64.4	3.6	1.51e+00	0	41	104	1048576	60	60269
2026-01-23 17:47:06.98	279.26	6.35	-49.2	-64.4	3.6	1.51e+00	0	41	104	1048576	60	60241
2026-01-23 17:47:07.99	279.17	6.29	-49.2	-64.4	3.6	1.51e+00	0	41	104	1048576	60	60153
2026-01-23 17:47:09.00	279.07	6.23	-49.2	-64.4	3.6	1.51e+00	0	41	104	1048576	60	60166
2026-01-23 17:47:10.01	278.97	6.17	-49.2	-64.4	3.6	1.51e+00	0	41	104	1048576	60	60277
2026-01-23 17:47:11.02	278.88	6.11	-49.2	-64.5	3.6	1.51e+00	0	41	104	1048576	60	60500
