passes_logs/2026/01/23/R4.6S_Anadyr/R4.6S_Anadyr__20260123_191436_NOAA_20_JPSS-1_rec.log

#Pass ID: 20260123_191436_NOAA 20 (JPSS-1)
#Satellite: NOAA 20 (JPSS-1)
#Configuration: NOAA 20
#almurnet v.1.7.20251203
#Start time: 2026-01-23 19:14:36

#Version: 2.2.20231116
#Station: R4.6S_Anadyr
#Location: 177.4865 lon 64.73178 lat
#TLE: 1 43013U 17073A   26022.44900781  .00000193  00000+0  11233-3 0  9999
#TLE: 2 43013  98.7645 323.3100 0001197  28.8413 331.2829 14.19538802423792

#Time	Az	El	Level	Level2	SNR	BER	BlckErr	Temp	State	Recorded	gain1	gain2
2026-01-23 19:14:36.95	50.46	0.04	-51.0	-68.7	3.5	3.03e+01	0	38	0	0	60	105288
2026-01-23 19:14:37.96	50.39	0.09	-50.5	-65.8	3.6	1.51e+00	0	39	104	0	60	70552
2026-01-23 19:14:38.96	50.31	0.13	-50.5	-65.8	3.6	1.51e+00	0	39	104	0	60	70743
2026-01-23 19:14:39.97	50.24	0.18	-50.5	-65.8	3.6	1.51e+00	0	39	104	0	60	70607
2026-01-23 19:14:40.98	50.16	0.23	-50.5	-65.8	3.6	1.51e+00	0	39	104	0	60	70550
2026-01-23 19:14:41.99	50.08	0.28	-50.5	-65.8	3.6	1.51e+00	0	39	104	0	60	70830
2026-01-23 19:14:43.00	50.01	0.33	-50.5	-65.9	3.6	1.51e+00	0	39	104	0	60	70912
2026-01-23 19:14:44.01	49.93	0.38	-50.5	-65.8	3.6	1.51e+00	0	39	104	0	60	70595
2026-01-23 19:14:45.02	49.85	0.43	-50.5	-65.8	3.6	1.51e+00	0	39	104	0	60	70499
2026-01-23 19:14:46.03	49.77	0.48	-50.5	-65.8	3.6	1.51e+00	0	39	104	0	60	70679
2026-01-23 19:14:47.04	49.69	0.53	-50.5	-65.8	3.6	1.51e+00	0	39	104	0	60	70515
2026-01-23 19:14:48.05	49.62	0.58	-50.5	-65.8	3.6	1.51e+00	0	39	104	0	60	70769
2026-01-23 19:14:49.06	49.54	0.63	-50.5	-65.8	3.6	1.51e+00	0	40	104	0	60	70640
2026-01-23 19:14:50.07	49.46	0.67	-50.5	-65.8	3.6	1.51e+00	0	40	104	0	60	70626
2026-01-23 19:14:51.08	49.38	0.72	-50.5	-65.8	3.6	1.51e+00	0	39	104	0	60	70223
2026-01-23 19:14:52.09	49.30	0.77	-50.5	-65.8	3.6	1.51e+00	0	39	104	0	60	70412
2026-01-23 19:14:53.10	49.22	0.82	-50.5	-65.8	3.6	1.51e+00	0	40	104	0	60	70511
2026-01-23 19:14:54.11	49.14	0.87	-50.5	-65.8	3.6	1.51e+00	0	40	104	0	60	70843
2026-01-23 19:14:55.12	49.06	0.92	-50.5	-65.8	3.6	1.51e+00	0	40	104	0	60	70836
2026-01-23 19:14:56.13	48.98	0.97	-50.5	-65.8	3.6	1.51e+00	0	39	104	0	60	70753
2026-01-23 19:14:57.15	48.90	1.02	-50.5	-65.8	3.6	1.51e+00	0	39	104	0	60	70581
2026-01-23 19:14:58.16	48.82	1.07	-50.5	-65.8	3.6	1.51e+00	0	40	104	0	60	70658
2026-01-23 19:14:59.17	48.73	1.12	-50.5	-65.8	3.6	1.51e+00	0	40	104	0	60	70517
2026-01-23 19:15:00.18	48.65	1.17	-50.5	-65.8	3.6	1.51e+00	0	40	104	0	60	70455
2026-01-23 19:15:01.18	48.57	1.22	-50.5	-65.8	3.6	1.51e+00	0	40	104	0	60	70468
2026-01-23 19:15:02.19	48.49	1.27	-50.5	-65.8	3.6	1.51e+00	0	40	104	0	60	70761
2026-01-23 19:15:03.21	48.40	1.32	-50.5	-65.8	3.6	1.51e+00	0	40	104	0	60	70795
2026-01-23 19:15:04.21	48.32	1.37	-50.5	-65.8	3.6	1.51e+00	0	40	104	0	60	70652
2026-01-23 19:15:05.22	48.24	1.42	-50.5	-65.9	3.6	1.51e+00	0	40	104	0	60	71008
2026-01-23 19:15:06.23	48.16	1.47	-50.5	-65.9	3.6	1.51e+00	0	40	104	0	60	70925
2026-01-23 19:15:07.25	48.07	1.52	-50.5	-65.9	3.6	1.51e+00	0	40	104	0	60	70953
2026-01-23 19:15:08.26	47.99	1.57	-50.5	-65.8	3.6	1.51e+00	0	40	104	0	60	70482
2026-01-23 19:15:09.27	47.90	1.62	-50.5	-65.9	3.6	1.51e+00	0	40	104	0	60	70950
2026-01-23 19:15:10.28	47.82	1.67	-50.5	-65.8	3.6	1.51e+00	0	40	104	0	60	70856
2026-01-23 19:15:11.29	47.73	1.72	-50.5	-65.8	3.6	1.51e+00	0	40	104	0	60	70741
2026-01-23 19:15:12.30	47.65	1.77	-50.5	-65.9	3.6	1.51e+00	0	40	104	0	60	70908
2026-01-23 19:15:13.31	47.56	1.82	-50.5	-65.9	3.6	1.51e+00	0	40	104	0	60	71258
2026-01-23 19:15:14.32	47.48	1.87	-50.5	-65.8	3.6	1.51e+00	0	40	104	0	60	70808
2026-01-23 19:15:15.33	47.39	1.92	-50.5	-65.8	3.6	1.51e+00	0	40	104	0	60	70612
2026-01-23 19:15:16.34	47.30	1.97	-50.5	-65.8	3.6	1.51e+00	0	40	104	0	60	70770
2026-01-23 19:15:17.35	47.22	2.02	-50.5	-65.8	3.6	1.51e+00	0	40	104	0	60	70797
2026-01-23 19:15:18.36	47.13	2.07	-50.5	-65.9	3.6	1.51e+00	0	40	104	0	60	70905
2026-01-23 19:15:19.37	47.04	2.12	-50.5	-65.9	3.6	1.51e+00	0	40	104	0	60	70975
2026-01-23 19:15:20.38	46.95	2.17	-50.5	-65.8	3.6	1.51e+00	0	40	104	0	60	70639
2026-01-23 19:15:21.39	46.87	2.22	-50.5	-65.8	3.6	1.51e+00	0	40	104	0	60	70761
2026-01-23 19:15:22.40	46.78	2.27	-50.5	-65.9	3.6	1.51e+00	0	40	104	0	60	70957
2026-01-23 19:15:23.41	46.69	2.32	-50.5	-65.9	3.6	1.51e+00	0	40	104	0	60	71077
2026-01-23 19:15:24.42	46.60	2.37	-50.5	-65.9	3.6	1.51e+00	0	40	104	0	60	71049
2026-01-23 19:15:25.43	46.51	2.42	-50.5	-65.9	3.6	1.51e+00	0	40	104	0	60	71300
2026-01-23 19:15:26.44	46.42	2.47	-50.5	-65.8	3.6	1.51e+00	0	40	104	0	60	70799
2026-01-23 19:15:27.45	46.33	2.52	-50.5	-65.8	3.6	1.51e+00	0	40	104	0	60	70785
2026-01-23 19:15:28.46	46.24	2.57	-50.5	-65.9	3.6	1.51e+00	0	40	104	0	60	71165
2026-01-23 19:15:29.47	46.15	2.62	-50.5	-65.9	3.6	1.51e+00	0	40	104	0	60	71159
2026-01-23 19:15:30.48	46.06	2.67	-50.5	-65.9	3.6	1.51e+00	0	40	104	0	60	71310
2026-01-23 19:15:31.49	45.97	2.72	-50.5	-65.9	3.6	1.51e+00	0	40	104	0	60	71004
2026-01-23 19:15:32.50	45.88	2.77	-50.5	-65.9	3.6	1.51e+00	0	40	104	0	60	71018
2026-01-23 19:15:33.51	45.79	2.82	-50.5	-65.9	3.6	1.51e+00	0	40	104	0	60	71118
2026-01-23 19:15:34.52	45.69	2.87	-50.5	-65.9	3.6	1.51e+00	0	40	104	0	60	71301
2026-01-23 19:15:35.53	45.60	2.93	-50.5	-65.9	3.6	1.51e+00	0	40	104	0	60	71123
2026-01-23 19:15:36.54	45.51	2.98	-50.6	-65.9	3.5	1.51e+00	0	40	104	0	60	70898
2026-01-23 19:15:37.55	45.42	3.03	-50.6	-65.9	3.6	1.51e+00	0	40	104	0	60	71174
2026-01-23 19:15:38.56	45.32	3.08	-50.6	-65.9	3.6	1.51e+00	0	40	104	0	60	71413
2026-01-23 19:15:39.57	45.23	3.13	-50.6	-65.9	3.6	1.51e+00	0	40	104	0	60	71004
2026-01-23 19:15:40.58	45.13	3.18	-50.6	-65.9	3.6	1.51e+00	0	40	104	0	60	71477
2026-01-23 19:15:41.59	45.04	3.23	-50.6	-65.9	3.6	1.51e+00	0	40	104	0	60	71168
2026-01-23 19:15:42.60	44.94	3.28	-50.6	-65.9	3.6	1.51e+00	0	40	104	0	60	71448
2026-01-23 19:15:43.61	44.85	3.33	-50.6	-65.9	3.6	1.51e+00	0	40	104	0	60	70952
2026-01-23 19:15:44.62	44.75	3.38	-50.6	-65.9	3.6	1.51e+00	0	40	104	0	60	71322
2026-01-23 19:15:45.63	44.66	3.43	-50.6	-65.9	3.6	1.51e+00	0	40	104	0	60	71580
2026-01-23 19:15:46.64	44.56	3.48	-50.6	-65.9	3.6	1.51e+00	0	40	104	0	60	71463
2026-01-23 19:15:47.65	44.47	3.53	-50.6	-65.9	3.6	1.51e+00	0	40	104	0	60	71118
2026-01-23 19:15:48.66	44.37	3.58	-50.6	-65.9	3.6	1.51e+00	0	40	104	0	60	71615
2026-01-23 19:15:49.66	44.27	3.63	-50.6	-65.8	3.6	1.51e+00	0	40	104	0	60	70884
2026-01-23 19:15:50.67	44.17	3.69	-50.6	-65.9	3.6	1.51e+00	0	40	104	0	60	71033
2026-01-23 19:15:51.69	44.08	3.74	-50.6	-65.9	3.6	1.51e+00	0	40	104	0	60	71289
2026-01-23 19:15:52.69	43.98	3.79	-50.6	-65.9	3.6	1.51e+00	0	40	104	0	60	71198
2026-01-23 19:15:53.70	43.88	3.84	-50.6	-65.9	3.6	1.51e+00	0	40	104	0	60	71208
2026-01-23 19:15:54.71	43.78	3.89	-50.6	-65.9	3.6	1.51e+00	0	40	104	0	60	71408
2026-01-23 19:15:55.72	43.68	3.94	-50.6	-65.9	3.6	1.51e+00	0	40	104	0	60	71202
2026-01-23 19:15:56.73	43.58	3.99	-50.6	-65.9	3.6	1.51e+00	0	40	104	0	60	71263
2026-01-23 19:15:57.74	43.48	4.04	-50.6	-65.9	3.6	1.51e+00	0	40	104	0	60	71327
2026-01-23 19:15:58.75	43.38	4.09	-50.6	-65.9	3.6	1.51e+00	0	40	104	0	60	71066
2026-01-23 19:15:59.76	43.28	4.14	-50.6	-65.9	3.6	1.51e+00	0	40	104	0	60	71637
2026-01-23 19:16:00.77	43.18	4.19	-50.6	-65.9	3.6	1.51e+00	0	40	104	0	60	70985
2026-01-23 19:16:01.78	43.08	4.25	-50.6	-65.9	3.6	1.51e+00	0	40	104	0	60	71122
2026-01-23 19:16:02.79	42.98	4.30	-50.6	-65.9	3.6	1.51e+00	0	40	104	0	60	71219
2026-01-23 19:16:03.80	42.87	4.35	-50.6	-65.9	3.6	1.51e+00	0	40	104	0	60	71171
2026-01-23 19:16:04.81	42.77	4.40	-50.6	-65.9	3.6	1.51e+00	0	40	104	0	60	71341
2026-01-23 19:16:05.82	42.67	4.45	-50.6	-65.9	3.6	1.51e+00	0	40	104	0	60	71361
2026-01-23 19:16:06.84	42.56	4.50	-50.6	-65.9	3.6	1.51e+00	0	40	104	0	60	71352
2026-01-23 19:16:07.85	42.46	4.55	-50.6	-65.9	3.6	1.51e+00	0	40	104	0	60	71471
2026-01-23 19:16:08.85	42.36	4.60	-50.6	-65.9	3.6	1.51e+00	0	40	104	0	60	71256
2026-01-23 19:16:09.87	42.25	4.65	-50.6	-65.9	3.6	1.51e+00	0	40	104	0	60	71043
2026-01-23 19:16:10.88	42.15	4.71	-50.6	-65.9	3.6	1.51e+00	0	40	104	0	60	71256
2026-01-23 19:16:11.89	42.04	4.76	-50.6	-65.9	3.6	1.51e+00	0	40	104	0	60	71114
2026-01-23 19:16:12.90	41.94	4.81	-50.6	-65.9	3.6	1.51e+00	0	40	104	0	60	71450
2026-01-23 19:16:13.90	41.83	4.86	-50.6	-65.9	3.6	1.51e+00	0	40	104	0	60	71613
2026-01-23 19:16:14.91	41.72	4.91	-50.6	-65.9	3.6	1.51e+00	0	40	104	0	60	71536
2026-01-23 19:16:15.92	41.62	4.96	-50.6	-66.0	3.6	1.51e+00	0	40	104	0	60	71834
2026-01-23 19:16:16.93	41.51	5.01	-50.6	-65.9	3.6	1.51e+00	0	40	104	0	60	71336
2026-01-23 19:16:17.94	41.40	5.06	-50.6	-65.9	3.6	1.51e+00	0	40	104	0	60	71459
2026-01-23 19:16:18.95	41.29	5.11	-50.6	-66.0	3.6	1.51e+00	0	40	104	0	60	71819
2026-01-23 19:16:19.96	41.19	5.17	-50.6	-65.9	3.6	1.51e+00	0	40	104	0	60	71503
2026-01-23 19:16:20.97	41.08	5.22	-50.6	-65.9	3.6	1.51e+00	0	40	104	0	60	71482
2026-01-23 19:16:21.98	40.97	5.27	-50.6	-65.9	3.6	1.51e+00	0	40	104	0	60	71370
2026-01-23 19:16:22.99	40.86	5.32	-50.6	-65.9	3.6	1.51e+00	0	40	104	0	60	71556
2026-01-23 19:16:24.00	40.75	5.37	-50.6	-65.9	3.6	1.51e+00	0	40	104	0	60	71218
2026-01-23 19:16:25.01	40.64	5.42	-50.6	-65.9	3.6	1.51e+00	0	40	104	0	60	71239
2026-01-23 19:16:26.02	40.53	5.47	-50.6	-65.9	3.6	1.51e+00	0	40	104	0	60	71251
2026-01-23 19:16:27.03	40.42	5.52	-50.6	-66.0	3.6	1.51e+00	0	40	104	0	60	71831
2026-01-23 19:16:28.04	40.31	5.57	-50.6	-65.9	3.6	1.51e+00	0	40	104	0	60	71393
2026-01-23 19:16:29.05	40.19	5.63	-50.6	-65.9	3.5	1.51e+00	0	41	104	0	60	71508
2026-01-23 19:16:30.06	40.08	5.68	-50.6	-65.9	3.6	1.51e+00	0	40	104	0	60	71476
2026-01-23 19:16:31.07	39.97	5.73	-50.6	-65.9	3.6	1.51e+00	0	41	104	0	60	71453
2026-01-23 19:16:32.08	39.86	5.78	-50.6	-66.0	3.6	1.51e+00	0	40	104	0	60	71736
2026-01-23 19:16:33.09	39.74	5.83	-50.6	-65.9	3.6	1.51e+00	0	40	104	0	60	71478
2026-01-23 19:16:34.10	39.63	5.88	-50.6	-66.0	3.6	1.51e+00	0	41	104	0	60	71797
2026-01-23 19:16:35.11	39.51	5.93	-50.6	-65.9	3.6	1.51e+00	0	41	104	0	60	71314
2026-01-23 19:16:36.12	39.40	5.98	-50.7	-66.0	3.6	1.51e+00	0	41	104	0	60	71863
2026-01-23 19:16:37.13	39.28	6.03	-50.6	-65.9	3.6	1.51e+00	0	41	104	0	60	71415
2026-01-23 19:16:38.14	39.17	6.09	-50.7	-65.9	3.6	1.51e+00	0	40	104	0	60	71356
2026-01-23 19:16:39.15	39.05	6.14	-50.7	-65.9	3.6	1.51e+00	0	40	104	0	60	71538
2026-01-23 19:16:40.16	38.94	6.19	-50.7	-66.0	3.6	1.51e+00	0	41	104	0	60	72078
2026-01-23 19:16:41.17	38.82	6.24	-50.7	-65.9	3.6	1.51e+00	0	41	104	0	60	71558
2026-01-23 19:16:42.18	38.70	6.29	-50.7	-66.0	3.6	1.51e+00	0	41	104	0	60	71767
2026-01-23 19:16:43.19	38.58	6.34	-50.7	-66.0	3.6	1.51e+00	0	40	104	0	60	71765
2026-01-23 19:16:44.20	38.47	6.39	-50.7	-65.9	3.6	1.51e+00	0	41	104	0	60	71689
2026-01-23 19:16:45.21	38.35	6.44	-50.7	-66.0	3.6	1.51e+00	0	41	104	0	60	71950
2026-01-23 19:16:46.22	38.23	6.49	-50.7	-66.0	3.6	1.51e+00	0	41	104	0	60	72007
2026-01-23 19:16:47.23	38.11	6.54	-50.7	-66.0	3.6	1.51e+00	0	41	104	0	60	72030
2026-01-23 19:16:48.24	37.99	6.60	-50.7	-66.0	3.6	1.51e+00	0	41	104	0	60	72499
2026-01-23 19:16:49.25	37.87	6.65	-50.7	-66.0	3.6	1.51e+00	0	41	104	0	60	72020
2026-01-23 19:16:50.26	37.75	6.70	-50.7	-66.0	3.6	1.51e+00	0	41	104	0	60	72057
2026-01-23 19:16:51.27	37.63	6.75	-50.7	-66.0	3.6	1.51e+00	0	41	104	0	60	72204
2026-01-23 19:16:52.28	37.51	6.80	-50.7	-66.0	3.6	1.51e+00	0	41	104	0	60	72417
2026-01-23 19:16:53.29	37.38	6.85	-50.7	-66.1	3.6	1.51e+00	0	41	104	0	60	72634
2026-01-23 19:16:54.30	37.26	6.90	-50.7	-66.0	3.6	1.51e+00	0	41	104	0	60	71971
2026-01-23 19:16:55.31	37.14	6.95	-50.7	-66.1	3.6	1.51e+00	0	40	104	0	60	72729
2026-01-23 19:16:56.32	37.02	7.00	-50.7	-66.0	3.6	1.51e+00	0	40	104	0	60	72319
2026-01-23 19:16:57.34	36.89	7.05	-50.7	-66.0	3.6	1.51e+00	0	40	104	0	60	72445
2026-01-23 19:16:58.35	36.77	7.10	-50.7	-66.0	3.6	1.51e+00	0	41	104	0	60	72402
2026-01-23 19:16:59.36	36.64	7.15	-50.7	-66.0	3.6	1.51e+00	0	41	104	0	60	72270
2026-01-23 19:17:00.37	36.52	7.21	-50.7	-66.0	3.6	1.51e+00	0	41	104	0	60	72321
2026-01-23 19:17:01.38	36.39	7.26	-50.7	-66.0	3.6	1.51e+00	0	41	104	0	60	72230
2026-01-23 19:17:02.39	36.27	7.31	-50.7	-66.0	3.6	1.51e+00	0	41	104	0	60	71931
2026-01-23 19:17:03.40	36.14	7.36	-50.7	-66.0	3.6	1.51e+00	0	41	104	0	60	72346
2026-01-23 19:17:04.41	36.01	7.41	-50.7	-66.0	3.6	1.51e+00	0	40	104	0	60	72404
2026-01-23 19:17:05.42	35.88	7.46	-50.7	-66.0	3.6	1.51e+00	0	41	104	0	60	72362
2026-01-23 19:17:06.43	35.76	7.51	-50.7	-66.1	3.6	1.51e+00	0	41	104	0	60	72669
2026-01-23 19:17:07.44	35.63	7.56	-50.7	-66.0	3.6	1.51e+00	0	41	104	0	60	72468
2026-01-23 19:17:08.45	35.50	7.61	-50.7	-66.0	3.6	1.51e+00	0	41	104	0	60	72277
2026-01-23 19:17:09.46	35.37	7.66	-50.7	-66.0	3.6	1.51e+00	0	41	104	0	60	72211
2026-01-23 19:17:10.47	35.24	7.71	-50.7	-66.0	3.5	1.51e+00	0	41	104	0	60	71910
2026-01-23 19:17:11.48	35.11	7.76	-50.7	-66.0	3.6	1.51e+00	0	41	104	0	60	72076
2026-01-23 19:17:12.49	34.98	7.81	-50.7	-66.0	3.6	1.51e+00	0	41	104	0	60	72378
2026-01-23 19:17:13.50	34.85	7.86	-50.7	-66.0	3.6	1.51e+00	0	41	104	0	60	72064
2026-01-23 19:17:14.50	34.72	7.91	-50.7	-66.0	3.6	1.51e+00	0	41	104	0	60	72219
2026-01-23 19:17:15.51	34.59	7.96	-50.7	-66.0	3.6	1.51e+00	0	41	104	0	60	71766
2026-01-23 19:17:16.53	34.45	8.01	-50.7	-66.0	3.6	1.51e+00	0	41	104	0	60	72254
2026-01-23 19:17:17.54	34.32	8.06	-50.7	-66.0	3.6	1.51e+00	0	41	104	0	60	72150
2026-01-23 19:17:18.55	34.19	8.11	-50.7	-66.0	3.6	1.51e+00	0	41	104	0	60	72044
2026-01-23 19:17:19.56	34.05	8.16	-50.7	-66.0	3.6	1.51e+00	0	41	104	0	60	71858
2026-01-23 19:17:20.57	33.92	8.21	-50.7	-66.0	3.6	1.51e+00	0	41	104	0	60	72004
2026-01-23 19:17:21.58	33.79	8.26	-50.7	-66.0	3.6	1.51e+00	0	41	104	0	60	72426
2026-01-23 19:17:22.59	33.65	8.31	-50.7	-66.0	3.6	1.51e+00	0	41	104	0	60	72079
2026-01-23 19:17:23.60	33.52	8.36	-50.7	-66.0	3.6	1.51e+00	0	41	104	0	60	72086
2026-01-23 19:17:24.61	33.38	8.41	-50.7	-66.0	3.6	1.51e+00	0	41	104	0	60	72148
2026-01-23 19:17:25.62	33.24	8.46	-50.7	-66.0	3.6	1.51e+00	0	41	104	0	60	72183
2026-01-23 19:17:26.63	33.11	8.51	-50.7	-66.0	3.6	1.51e+00	0	41	104	0	60	72173
2026-01-23 19:17:27.64	32.97	8.56	-50.7	-66.0	3.6	1.51e+00	0	41	104	0	60	72135
2026-01-23 19:17:28.65	32.83	8.61	-50.7	-66.0	3.6	1.51e+00	0	41	104	0	60	72144
2026-01-23 19:17:29.66	32.69	8.66	-50.7	-66.0	3.6	1.51e+00	0	41	104	0	60	72131
2026-01-23 19:17:30.67	32.55	8.71	-50.7	-66.0	3.5	1.51e+00	0	41	104	0	60	72294
2026-01-23 19:17:31.68	32.41	8.75	-50.7	-66.0	3.6	1.51e+00	0	41	104	0	60	72130
2026-01-23 19:17:32.69	32.27	8.80	-50.7	-66.0	3.6	1.51e+00	0	41	104	0	60	72198
2026-01-23 19:17:33.70	32.13	8.85	-50.7	-66.0	3.6	1.51e+00	0	41	104	0	60	72341
2026-01-23 19:17:34.71	31.99	8.90	-50.7	-66.0	3.6	1.51e+00	0	41	104	0	60	71991
2026-01-23 19:17:35.72	31.85	8.95	-50.7	-66.0	3.6	1.51e+00	0	41	104	0	60	72160
2026-01-23 19:17:36.73	31.71	9.00	-50.7	-66.0	3.6	1.51e+00	0	41	104	0	60	72129
2026-01-23 19:17:37.74	31.57	9.05	-50.7	-66.0	3.6	1.51e+00	0	41	104	0	60	72183
2026-01-23 19:17:38.75	31.42	9.10	-50.7	-66.0	3.6	1.51e+00	0	41	104	0	60	72340
2026-01-23 19:17:39.76	31.28	9.15	-50.7	-66.0	3.6	1.51e+00	0	41	104	0	60	72153
2026-01-23 19:17:40.77	31.14	9.19	-50.7	-66.0	3.6	1.51e+00	0	41	104	0	60	72132
2026-01-23 19:17:41.78	30.99	9.24	-50.7	-66.0	3.6	1.51e+00	0	41	104	0	60	72275
2026-01-23 19:17:42.79	30.85	9.29	-50.7	-66.0	3.6	1.51e+00	0	41	104	0	60	72222
2026-01-23 19:17:43.80	30.70	9.34	-50.7	-66.0	3.5	1.51e+00	0	41	104	0	60	72298
2026-01-23 19:17:44.81	30.56	9.39	-50.7	-66.0	3.6	1.51e+00	0	41	104	0	60	72059
2026-01-23 19:17:45.82	30.41	9.44	-50.7	-66.0	3.6	1.51e+00	0	41	104	0	60	71976
2026-01-23 19:17:46.83	30.26	9.48	-50.7	-66.0	3.6	1.51e+00	0	41	104	0	60	72167
2026-01-23 19:17:47.84	30.12	9.53	-50.7	-66.0	3.6	1.51e+00	0	41	104	0	60	72323
2026-01-23 19:17:48.85	29.97	9.58	-50.7	-66.0	3.6	1.51e+00	0	41	104	0	60	72112
2026-01-23 19:17:49.86	29.82	9.63	-50.7	-66.0	3.6	1.51e+00	0	41	104	0	60	72232
2026-01-23 19:17:50.87	29.67	9.67	-50.7	-66.0	3.6	1.51e+00	0	41	104	0	60	72135
2026-01-23 19:17:51.88	29.52	9.72	-50.7	-66.0	3.6	1.51e+00	0	41	104	0	60	72141
2026-01-23 19:17:52.89	29.37	9.77	-50.7	-66.0	3.6	1.51e+00	0	41	104	0	60	72278
2026-01-23 19:17:53.90	29.22	9.82	-50.7	-66.0	3.6	1.51e+00	0	41	104	0	60	71929
2026-01-23 19:17:54.91	29.07	9.86	-50.7	-66.0	3.6	1.51e+00	0	41	104	0	60	72226
2026-01-23 19:17:55.92	28.92	9.91	-50.7	-66.0	3.6	1.51e+00	0	41	104	0	60	72069
2026-01-23 19:17:56.92	28.77	9.96	-50.7	-66.0	3.6	1.51e+00	0	41	104	0	60	72269
2026-01-23 19:17:57.94	28.62	10.00	-50.7	-66.0	3.6	1.51e+00	0	41	104	0	60	72108
2026-01-23 19:17:58.94	28.47	10.05	-50.7	-66.0	3.6	1.51e+00	0	41	104	0	60	72025
2026-01-23 19:17:59.95	28.31	10.10	-50.7	-66.0	3.6	1.51e+00	0	41	104	0	60	72187
2026-01-23 19:18:00.97	28.16	10.15	-50.7	-66.0	3.6	1.51e+00	0	41	104	0	60	72274
2026-01-23 19:18:01.98	28.00	10.19	-50.7	-66.0	3.6	1.51e+00	0	41	104	0	60	71890
2026-01-23 19:18:02.99	27.85	10.24	-50.7	-66.0	3.6	1.51e+00	0	41	104	0	60	72073
2026-01-23 19:18:04.00	27.69	10.28	-50.7	-66.0	3.6	1.51e+00	0	41	104	0	60	72099
2026-01-23 19:18:05.01	27.54	10.33	-50.7	-66.0	3.6	1.51e+00	0	41	104	0	60	71745
2026-01-23 19:18:06.02	27.38	10.38	-50.7	-66.0	3.6	1.51e+00	0	41	104	0	60	72296
2026-01-23 19:18:07.03	27.23	10.42	-50.7	-66.0	3.6	1.51e+00	0	41	104	0	60	71986
2026-01-23 19:18:08.04	27.07	10.47	-50.7	-66.0	3.5	1.51e+00	0	41	104	0	60	72488
2026-01-23 19:18:09.05	26.91	10.51	-50.7	-66.0	3.6	1.51e+00	0	41	104	0	60	72177
2026-01-23 19:18:10.06	26.75	10.56	-50.7	-66.0	3.6	1.51e+00	0	41	104	0	60	72346
2026-01-23 19:18:11.07	26.59	10.60	-50.7	-66.0	3.6	1.51e+00	0	41	104	0	60	72315
2026-01-23 19:18:12.08	26.43	10.65	-50.7	-66.0	3.6	1.51e+00	0	41	104	0	60	72391
2026-01-23 19:18:13.09	26.27	10.70	-50.7	-66.0	3.6	1.51e+00	0	41	104	0	60	72238
2026-01-23 19:18:14.10	26.11	10.74	-50.7	-66.0	3.6	1.51e+00	0	41	104	0	60	72364
2026-01-23 19:18:15.11	25.95	10.79	-50.7	-66.0	3.6	1.51e+00	0	41	104	0	60	72256
2026-01-23 19:18:16.12	25.79	10.83	-50.7	-66.0	3.6	1.51e+00	0	41	104	0	60	72352
2026-01-23 19:18:17.13	25.63	10.87	-50.7	-66.0	3.6	1.51e+00	0	41	104	0	60	72344
2026-01-23 19:18:18.14	25.47	10.92	-50.7	-66.0	3.6	1.51e+00	0	41	104	0	60	72443
2026-01-23 19:18:19.15	25.31	10.96	-50.7	-66.0	3.6	1.51e+00	0	41	104	0	60	72321
2026-01-23 19:18:20.16	25.14	11.01	-50.7	-66.0	3.5	1.51e+00	0	41	104	0	60	71721
2026-01-23 19:18:21.17	24.98	11.05	-50.7	-66.0	3.6	1.51e+00	0	41	104	0	60	72400
2026-01-23 19:18:22.18	24.82	11.10	-50.7	-66.0	3.6	1.51e+00	0	41	104	0	60	71912
2026-01-23 19:18:23.19	24.65	11.14	-50.7	-66.0	3.6	1.51e+00	0	41	104	0	60	72231
2026-01-23 19:18:24.20	24.49	11.18	-50.7	-66.0	3.6	1.51e+00	0	41	104	0	60	72363
2026-01-23 19:18:25.21	24.32	11.23	-50.7	-66.0	3.6	1.51e+00	0	41	104	0	60	72037
2026-01-23 19:18:26.22	24.15	11.27	-50.7	-66.0	3.6	1.51e+00	0	41	104	0	60	72015
2026-01-23 19:18:27.23	23.99	11.31	-50.7	-66.0	3.6	1.51e+00	0	41	104	0	60	72419
2026-01-23 19:18:28.24	23.82	11.36	-50.7	-66.1	3.6	1.51e+00	0	41	104	0	60	72635
2026-01-23 19:18:29.25	23.65	11.40	-50.7	-66.0	3.6	1.51e+00	0	41	104	0	60	72408
2026-01-23 19:18:30.26	23.48	11.44	-50.7	-66.0	3.6	1.51e+00	0	41	104	0	60	72204
2026-01-23 19:18:31.27	23.32	11.48	-50.7	-66.0	3.6	1.51e+00	0	41	104	0	60	72460
2026-01-23 19:18:32.28	23.15	11.53	-50.7	-66.0	3.6	1.51e+00	0	41	104	0	60	72344
2026-01-23 19:18:33.29	22.98	11.57	-50.7	-66.0	3.6	1.51e+00	0	41	104	0	60	72210
2026-01-23 19:18:34.30	22.81	11.61	-50.7	-66.0	3.6	1.51e+00	0	41	104	0	60	72175
2026-01-23 19:18:35.31	22.64	11.65	-50.7	-66.0	3.5	1.51e+00	0	41	104	0	60	72450
2026-01-23 19:18:36.32	22.46	11.69	-50.7	-66.0	3.6	1.51e+00	0	41	104	0	60	72147
2026-01-23 19:18:37.33	22.29	11.73	-50.7	-66.0	3.6	1.51e+00	0	41	104	0	60	72162
2026-01-23 19:18:38.34	22.12	11.77	-50.8	-66.0	3.6	1.51e+00	0	41	104	0	60	72320
2026-01-23 19:18:39.35	21.95	11.82	-50.8	-66.0	3.6	1.51e+00	0	41	104	0	60	72427
2026-01-23 19:18:40.36	21.78	11.86	-50.8	-66.1	3.6	1.51e+00	0	41	104	0	60	72540
2026-01-23 19:18:41.37	21.60	11.90	-50.7	-66.0	3.6	1.51e+00	0	41	104	0	60	72454
2026-01-23 19:18:42.38	21.43	11.94	-50.8	-66.0	3.6	1.51e+00	0	41	104	0	60	72216
2026-01-23 19:18:43.39	21.25	11.98	-50.7	-66.0	3.6	1.51e+00	0	41	104	0	60	72130
2026-01-23 19:18:44.40	21.08	12.02	-50.7	-66.0	3.6	1.51e+00	0	41	104	0	60	72334
2026-01-23 19:18:45.41	20.90	12.06	-50.7	-66.0	3.6	1.51e+00	0	41	104	0	60	72384
2026-01-23 19:18:46.42	20.73	12.10	-50.8	-66.1	3.6	1.51e+00	0	41	104	0	60	72758
2026-01-23 19:18:47.43	20.55	12.14	-50.7	-66.0	3.6	1.51e+00	0	41	104	0	60	72106
2026-01-23 19:18:48.44	20.37	12.18	-50.8	-66.0	3.6	1.51e+00	0	41	104	0	60	72467
2026-01-23 19:18:49.45	20.20	12.22	-50.8	-66.1	3.6	1.51e+00	0	41	104	0	60	72712
2026-01-23 19:18:50.46	20.02	12.25	-50.8	-66.0	3.6	1.51e+00	0	41	104	0	60	72236
2026-01-23 19:18:51.47	19.84	12.29	-50.8	-66.0	3.6	1.51e+00	0	41	104	0	60	72408
2026-01-23 19:18:52.48	19.66	12.33	-50.8	-66.1	3.6	1.51e+00	0	41	104	0	60	72732
2026-01-23 19:18:53.49	19.48	12.37	-50.8	-66.1	3.6	1.51e+00	0	41	104	0	60	72579
2026-01-23 19:18:54.49	19.30	12.41	-50.8	-66.0	3.6	1.51e+00	0	41	104	0	60	72382
2026-01-23 19:18:55.51	19.12	12.45	-50.8	-66.0	3.6	1.51e+00	0	41	104	0	60	72326
2026-01-23 19:18:56.52	18.94	12.48	-50.8	-66.1	3.6	1.51e+00	0	41	104	0	60	72991
2026-01-23 19:18:57.53	18.76	12.52	-50.8	-66.0	3.6	1.51e+00	0	41	104	0	60	72452
2026-01-23 19:18:58.54	18.58	12.56	-50.8	-66.0	3.6	1.51e+00	0	41	104	0	60	72152
2026-01-23 19:18:59.55	18.40	12.59	-50.8	-66.1	3.6	1.51e+00	0	41	104	0	60	72889
2026-01-23 19:19:00.56	18.21	12.63	-50.8	-66.1	3.6	1.51e+00	0	41	104	0	60	72549
2026-01-23 19:19:01.57	18.03	12.67	-50.8	-66.0	3.6	1.51e+00	0	41	104	0	60	72371
2026-01-23 19:19:02.58	17.85	12.70	-50.8	-66.1	3.6	1.51e+00	0	41	104	0	60	73025
2026-01-23 19:19:03.59	17.66	12.74	-50.8	-66.0	3.6	1.51e+00	0	41	104	0	60	72462
2026-01-23 19:19:04.60	17.48	12.77	-50.8	-66.1	3.6	1.51e+00	0	41	104	0	60	73109
2026-01-23 19:19:05.61	17.29	12.81	-50.8	-66.1	3.6	1.51e+00	0	41	104	0	60	73030
2026-01-23 19:19:06.62	17.11	12.85	-50.8	-66.0	3.6	1.51e+00	0	41	104	0	60	72256
2026-01-23 19:19:07.63	16.92	12.88	-50.8	-66.1	3.6	1.51e+00	0	41	104	0	60	72821
2026-01-23 19:19:08.64	16.74	12.91	-50.8	-66.1	3.6	1.51e+00	0	41	104	0	60	73008
2026-01-23 19:19:09.65	16.55	12.95	-50.8	-66.0	3.6	1.51e+00	0	41	104	0	60	72516
2026-01-23 19:19:10.66	16.36	12.98	-50.8	-66.1	3.6	1.51e+00	0	41	104	0	60	72596
2026-01-23 19:19:11.67	16.18	13.02	-50.8	-66.0	3.6	1.51e+00	0	41	104	0	60	72465
2026-01-23 19:19:12.68	15.99	13.05	-50.8	-66.0	3.6	1.51e+00	0	41	104	0	60	72531
2026-01-23 19:19:13.69	15.80	13.08	-50.8	-66.1	3.6	1.51e+00	0	41	104	0	60	72674
2026-01-23 19:19:14.70	15.61	13.12	-50.8	-66.2	3.6	1.51e+00	0	41	104	0	60	73484
2026-01-23 19:19:15.71	15.42	13.15	-50.8	-66.1	3.6	1.51e+00	0	41	104	0	60	73034
2026-01-23 19:19:16.72	15.23	13.18	-50.8	-66.1	3.6	1.51e+00	0	41	104	0	60	73006
2026-01-23 19:19:17.73	15.04	13.22	-50.8	-66.1	3.6	1.51e+00	0	41	104	0	60	73212
2026-01-23 19:19:18.74	14.85	13.25	-50.8	-66.1	3.6	1.51e+00	0	41	104	0	60	72564
2026-01-23 19:19:19.75	14.66	13.28	-50.8	-66.0	3.6	1.51e+00	0	41	104	0	60	72520
2026-01-23 19:19:20.76	14.47	13.31	-50.8	-66.1	3.6	1.51e+00	0	41	104	0	60	73160
2026-01-23 19:19:21.77	14.28	13.34	-50.8	-66.1	3.6	1.51e+00	0	41	104	0	60	72964
2026-01-23 19:19:22.78	14.08	13.37	-50.8	-66.1	3.5	1.51e+00	0	41	104	0	60	72874
2026-01-23 19:19:23.79	13.89	13.40	-50.8	-66.1	3.6	1.51e+00	0	41	104	0	60	72767
2026-01-23 19:19:24.80	13.70	13.43	-50.8	-66.1	3.6	1.51e+00	0	41	104	0	60	72984
2026-01-23 19:19:25.81	13.51	13.46	-50.8	-66.1	3.6	1.51e+00	0	41	104	0	60	73079
2026-01-23 19:19:26.82	13.31	13.49	-50.8	-66.1	3.6	1.51e+00	0	41	104	0	60	73301
2026-01-23 19:19:27.83	13.12	13.52	-50.8	-66.0	3.6	1.51e+00	0	41	104	0	60	72332
2026-01-23 19:19:28.84	12.92	13.55	-50.8	-66.0	3.6	1.51e+00	0	41	104	0	60	72484
2026-01-23 19:19:29.85	12.73	13.58	-50.8	-66.1	3.6	1.51e+00	0	41	104	0	60	72744
2026-01-23 19:19:30.86	12.53	13.61	-50.8	-66.1	3.6	1.51e+00	0	41	104	0	60	72979
2026-01-23 19:19:31.87	12.34	13.64	-50.8	-66.1	3.6	1.51e+00	0	41	104	0	60	72628
2026-01-23 19:19:32.88	12.14	13.67	-50.8	-66.1	3.6	1.51e+00	0	41	104	0	60	72975
2026-01-23 19:19:33.89	11.94	13.69	-50.8	-66.1	3.6	1.51e+00	0	41	104	0	60	72841
2026-01-23 19:19:34.90	11.75	13.72	-50.8	-66.1	3.6	1.51e+00	0	41	104	0	60	72638
2026-01-23 19:19:35.91	11.55	13.75	-50.8	-66.1	3.6	1.51e+00	0	41	104	0	60	73083
2026-01-23 19:19:36.92	11.35	13.78	-50.8	-66.1	3.6	1.51e+00	0	41	104	0	60	73030
2026-01-23 19:19:37.93	11.16	13.80	-50.8	-66.1	3.6	1.51e+00	0	41	104	0	60	72925
2026-01-23 19:19:38.94	10.96	13.83	-50.8	-66.1	3.6	1.51e+00	0	41	104	0	60	73069
2026-01-23 19:19:39.95	10.76	13.85	-50.8	-66.1	3.6	1.51e+00	0	41	104	0	60	73289
2026-01-23 19:19:40.96	10.56	13.88	-50.8	-66.1	3.6	1.51e+00	0	41	104	0	60	72735
2026-01-23 19:19:41.97	10.36	13.91	-50.8	-66.1	3.6	1.51e+00	0	41	104	0	60	72844
2026-01-23 19:19:42.98	10.16	13.93	-50.8	-66.1	3.6	1.51e+00	0	41	104	0	60	72940
2026-01-23 19:19:43.99	9.96	13.96	-50.8	-66.1	3.6	1.51e+00	0	41	104	0	60	73349
2026-01-23 19:19:45.00	9.76	13.98	-50.8	-66.0	3.6	1.51e+00	0	41	104	0	60	72309
2026-01-23 19:19:46.01	9.56	14.00	-50.8	-66.1	3.6	1.51e+00	0	41	104	0	60	72919
2026-01-23 19:19:47.02	9.36	14.03	-50.8	-66.1	3.6	1.51e+00	0	41	104	0	60	73053
2026-01-23 19:19:48.03	9.16	14.05	-50.8	-66.1	3.6	1.51e+00	0	41	104	0	60	72975
2026-01-23 19:19:49.04	8.96	14.07	-50.8	-66.1	3.6	1.51e+00	0	41	104	0	60	73018
2026-01-23 19:19:50.05	8.75	14.10	-50.8	-66.1	3.6	1.51e+00	0	41	104	0	60	72887
2026-01-23 19:19:51.06	8.55	14.12	-50.8	-66.1	3.6	1.51e+00	0	41	104	0	60	72968
2026-01-23 19:19:52.07	8.35	14.14	-50.8	-66.1	3.6	1.51e+00	0	41	104	0	60	72641
2026-01-23 19:19:53.08	8.15	14.16	-50.8	-66.1	3.6	1.51e+00	0	41	104	0	60	73153
2026-01-23 19:19:54.09	7.94	14.18	-50.8	-66.1	3.6	1.51e+00	0	41	104	0	60	73123
2026-01-23 19:19:55.10	7.74	14.20	-50.8	-66.1	3.6	1.51e+00	0	41	104	0	60	72923
2026-01-23 19:19:56.11	7.54	14.22	-50.8	-66.1	3.6	1.51e+00	0	41	104	0	60	72968
2026-01-23 19:19:57.12	7.33	14.24	-50.8	-66.1	3.6	1.51e+00	0	41	104	0	60	72783
2026-01-23 19:19:58.13	7.13	14.26	-50.8	-66.1	3.6	1.51e+00	0	41	104	0	60	73051
2026-01-23 19:19:59.14	6.92	14.28	-50.8	-66.1	3.6	1.51e+00	0	41	104	0	60	72742
2026-01-23 19:20:00.15	6.72	14.30	-50.8	-66.1	3.6	1.51e+00	0	41	104	0	60	73022
2026-01-23 19:20:01.16	6.51	14.32	-50.8	-66.2	3.6	1.51e+00	0	41	104	0	60	73426
2026-01-23 19:20:02.17	6.31	14.34	-50.8	-66.1	3.6	1.51e+00	0	41	104	0	60	73370
2026-01-23 19:20:03.18	6.10	14.36	-50.8	-66.1	3.6	1.51e+00	0	41	104	0	60	72968
2026-01-23 19:20:04.19	5.90	14.38	-50.8	-66.2	3.6	1.51e+00	0	41	104	0	60	73470
2026-01-23 19:20:05.20	5.69	14.39	-50.8	-66.1	3.6	1.51e+00	0	41	104	0	60	72802
2026-01-23 19:20:06.21	5.48	14.41	-50.8	-66.1	3.6	1.51e+00	0	41	104	0	60	73005
2026-01-23 19:20:07.23	5.27	14.43	-50.9	-66.2	3.6	1.51e+00	0	41	104	0	60	73631
2026-01-23 19:20:08.24	5.07	14.44	-50.8	-66.1	3.6	1.51e+00	0	41	104	0	60	73257
2026-01-23 19:20:09.25	4.86	14.46	-50.8	-66.1	3.6	1.51e+00	0	41	104	0	60	72978
2026-01-23 19:20:10.26	4.65	14.48	-50.8	-66.2	3.6	1.51e+00	0	41	104	0	60	73462
2026-01-23 19:20:11.27	4.45	14.49	-50.8	-66.1	3.6	1.51e+00	0	41	104	0	60	73156
2026-01-23 19:20:12.28	4.24	14.51	-50.8	-66.1	3.6	1.51e+00	0	41	104	0	60	72953
2026-01-23 19:20:13.29	4.03	14.52	-50.8	-66.1	3.6	1.51e+00	0	41	104	0	60	72915
2026-01-23 19:20:14.30	3.82	14.54	-50.8	-66.1	3.6	1.51e+00	0	41	104	0	60	72950
2026-01-23 19:20:15.31	3.61	14.55	-50.8	-66.1	3.6	1.51e+00	0	41	104	0	60	73360
2026-01-23 19:20:16.32	3.40	14.56	-50.8	-66.1	3.6	1.51e+00	0	41	104	0	60	73148
2026-01-23 19:20:17.33	3.20	14.58	-50.8	-66.1	3.6	1.51e+00	0	41	104	0	60	73353
2026-01-23 19:20:18.34	2.99	14.59	-50.8	-66.1	3.6	1.51e+00	0	41	104	0	60	73165
2026-01-23 19:20:19.35	2.78	14.60	-50.8	-66.1	3.6	1.51e+00	0	41	104	0	60	73128
2026-01-23 19:20:20.35	2.57	14.61	-50.8	-66.2	3.6	1.51e+00	0	41	104	0	60	73628
2026-01-23 19:20:21.36	2.36	14.62	-50.8	-66.1	3.6	1.51e+00	0	41	104	0	60	73272
2026-01-23 19:20:22.38	2.15	14.64	-50.8	-66.1	3.6	1.51e+00	0	41	104	0	60	73299
2026-01-23 19:20:23.38	1.94	14.65	-50.8	-66.1	3.6	1.51e+00	0	41	104	0	60	73129
2026-01-23 19:20:24.39	1.73	14.66	-50.9	-66.2	3.6	1.51e+00	0	41	104	0	60	73381
2026-01-23 19:20:25.40	1.52	14.67	-50.8	-66.1	3.6	1.51e+00	0	41	104	0	60	72887
2026-01-23 19:20:26.41	1.31	14.68	-50.9	-66.2	3.6	1.51e+00	0	41	104	0	60	73396
2026-01-23 19:20:27.42	1.10	14.69	-50.9	-66.1	3.6	1.51e+00	0	41	104	0	60	73350
2026-01-23 19:20:28.43	0.89	14.69	-50.8	-66.1	3.6	1.51e+00	0	41	104	0	60	72760
2026-01-23 19:20:29.44	0.68	14.70	-50.9	-66.1	3.6	1.51e+00	0	41	104	0	60	73246
2026-01-23 19:20:30.45	0.47	14.71	-50.9	-66.1	3.6	1.51e+00	0	41	104	0	60	73154
2026-01-23 19:20:31.46	0.26	14.72	-50.9	-66.1	3.6	1.51e+00	0	41	104	0	60	72971
2026-01-23 19:20:32.47	0.05	14.73	-50.9	-66.1	3.6	1.51e+00	0	41	104	0	60	72946
2026-01-23 19:20:33.48	359.84	14.73	-50.9	-66.1	3.6	1.51e+00	0	41	104	0	60	72696
2026-01-23 19:20:34.49	359.63	14.74	-50.9	-66.1	3.6	1.51e+00	0	41	104	0	60	73072
2026-01-23 19:20:35.50	359.41	14.75	-50.9	-66.1	3.6	1.51e+00	0	41	104	0	60	73012
2026-01-23 19:20:36.51	359.20	14.75	-50.9	-66.1	3.6	1.51e+00	0	41	104	0	60	73319
2026-01-23 19:20:37.52	358.99	14.76	-50.9	-66.2	3.6	1.51e+00	0	41	104	0	60	73386
2026-01-23 19:20:38.53	358.78	14.76	-50.9	-66.2	3.6	1.51e+00	0	41	104	0	60	73422
2026-01-23 19:20:39.54	358.57	14.77	-50.9	-66.1	3.6	1.51e+00	0	41	104	0	60	73010
2026-01-23 19:20:40.55	358.36	14.77	-50.9	-66.1	3.6	1.51e+00	0	41	104	0	60	73134
2026-01-23 19:20:41.56	358.15	14.77	-50.9	-66.1	3.6	1.51e+00	0	41	104	0	60	73016
2026-01-23 19:20:42.57	357.93	14.78	-50.9	-66.1	3.6	1.51e+00	0	41	104	0	60	73156
2026-01-23 19:20:43.58	357.72	14.78	-50.9	-66.1	3.6	1.51e+00	0	41	104	0	60	73102
2026-01-23 19:20:44.59	357.51	14.78	-50.9	-66.1	3.6	1.51e+00	0	41	104	0	60	73073
2026-01-23 19:20:45.60	357.30	14.79	-50.9	-66.1	3.6	1.51e+00	0	41	104	0	60	73113
2026-01-23 19:20:46.61	357.09	14.79	-50.9	-66.1	3.6	1.51e+00	0	41	104	0	60	73060
2026-01-23 19:20:47.62	356.88	14.79	-50.9	-66.1	3.6	1.51e+00	0	41	104	0	60	73213
2026-01-23 19:20:48.63	356.66	14.79	-50.9	-66.1	3.6	1.51e+00	0	41	104	0	60	73111
2026-01-23 19:20:49.64	356.45	14.79	-50.9	-66.1	3.6	1.51e+00	0	41	104	0	60	72772
2026-01-23 19:20:50.65	356.24	14.79	-50.9	-66.2	3.6	1.51e+00	0	41	104	0	60	73425
2026-01-23 19:20:51.66	356.03	14.79	-50.9	-66.1	3.6	1.51e+00	0	41	104	0	60	72848
2026-01-23 19:20:52.67	355.82	14.79	-50.9	-66.1	3.6	1.51e+00	0	41	104	0	60	73326
2026-01-23 19:20:53.68	355.60	14.79	-50.9	-66.1	3.6	1.51e+00	0	41	104	0	60	72880
2026-01-23 19:20:54.69	355.39	14.79	-50.9	-66.1	3.6	1.51e+00	0	41	104	0	60	73330
2026-01-23 19:20:55.70	355.18	14.79	-50.9	-66.1	3.6	1.51e+00	0	41	104	0	60	73133
2026-01-23 19:20:56.71	354.97	14.78	-50.9	-66.1	3.6	1.51e+00	0	41	104	0	60	73086
2026-01-23 19:20:57.72	354.76	14.78	-50.9	-66.1	3.6	1.51e+00	0	41	104	0	60	72808
2026-01-23 19:20:58.73	354.55	14.78	-50.9	-66.1	3.6	1.51e+00	0	41	104	0	60	73276
2026-01-23 19:20:59.74	354.33	14.78	-50.9	-66.2	3.6	1.51e+00	0	41	104	0	60	73435
2026-01-23 19:21:00.75	354.12	14.77	-50.9	-66.1	3.6	1.51e+00	0	41	104	0	60	73190
2026-01-23 19:21:01.77	353.91	14.77	-50.9	-66.1	3.6	1.51e+00	0	41	104	0	60	72994
2026-01-23 19:21:02.78	353.70	14.76	-50.9	-66.1	3.6	1.51e+00	0	41	104	0	60	72911
2026-01-23 19:21:03.78	353.49	14.76	-50.9	-66.1	3.6	1.51e+00	0	41	104	0	60	72973
2026-01-23 19:21:04.80	353.27	14.75	-50.9	-66.1	3.6	1.51e+00	0	41	104	0	60	73169
2026-01-23 19:21:05.81	353.06	14.75	-50.9	-66.1	3.6	1.51e+00	0	41	104	0	60	73357
2026-01-23 19:21:06.82	352.85	14.74	-50.9	-66.1	3.6	1.51e+00	0	41	104	0	60	73180
2026-01-23 19:21:07.83	352.64	14.74	-50.9	-66.1	3.6	1.51e+00	0	41	104	0	60	73239
2026-01-23 19:21:08.84	352.43	14.73	-50.9	-66.2	3.6	1.51e+00	0	41	104	0	60	73516
2026-01-23 19:21:09.85	352.22	14.72	-50.9	-66.1	3.6	1.51e+00	0	41	104	0	60	73183
2026-01-23 19:21:10.86	352.01	14.71	-50.9	-66.1	3.6	1.51e+00	0	41	104	0	60	72844
2026-01-23 19:21:11.87	351.80	14.71	-50.9	-66.1	3.6	1.51e+00	0	41	104	0	60	72808
2026-01-23 19:21:12.88	351.59	14.70	-50.9	-66.1	3.6	1.51e+00	0	41	104	0	60	73108
2026-01-23 19:21:13.89	351.38	14.69	-50.9	-66.1	3.6	1.51e+00	0	41	104	0	60	73159
2026-01-23 19:21:14.90	351.16	14.68	-50.9	-66.1	3.6	1.51e+00	0	41	104	0	60	72669
2026-01-23 19:21:15.91	350.95	14.67	-50.9	-66.1	3.6	1.51e+00	0	41	104	0	60	72969
2026-01-23 19:21:16.92	350.74	14.66	-50.9	-66.1	3.6	1.51e+00	0	41	104	0	60	72883
2026-01-23 19:21:17.93	350.53	14.65	-50.9	-66.1	3.6	1.51e+00	0	41	104	0	60	72975
2026-01-23 19:21:18.94	350.32	14.64	-50.8	-66.1	3.6	1.51e+00	0	41	104	0	60	73229
2026-01-23 19:21:19.95	350.12	14.63	-50.9	-66.1	3.6	1.51e+00	0	41	104	0	60	73204
2026-01-23 19:21:20.96	349.91	14.62	-50.9	-66.1	3.6	1.51e+00	0	41	104	0	60	73137
2026-01-23 19:21:21.97	349.70	14.61	-50.8	-66.1	3.6	1.51e+00	0	41	104	0	60	73121
2026-01-23 19:21:22.98	349.49	14.59	-50.9	-66.1	3.6	1.51e+00	0	41	104	0	60	73079
2026-01-23 19:21:23.99	349.28	14.58	-50.9	-66.1	3.6	1.51e+00	0	41	104	0	60	73123
2026-01-23 19:21:25.00	349.07	14.57	-50.9	-66.1	3.6	1.51e+00	0	41	104	0	60	72992
2026-01-23 19:21:26.01	348.86	14.56	-50.8	-66.1	3.6	1.51e+00	0	41	104	0	60	72881
2026-01-23 19:21:27.02	348.65	14.54	-50.8	-66.1	3.6	1.51e+00	0	41	104	0	60	73165
2026-01-23 19:21:28.03	348.44	14.53	-50.8	-66.1	3.6	1.51e+00	0	41	104	0	60	72559
2026-01-23 19:21:29.04	348.24	14.51	-50.8	-66.1	3.6	1.51e+00	0	41	104	0	60	72976
2026-01-23 19:21:30.05	348.03	14.50	-50.8	-66.1	3.6	1.51e+00	0	41	104	0	60	72712
2026-01-23 19:21:31.06	347.82	14.48	-50.8	-66.1	3.6	1.51e+00	0	41	104	0	60	72694
2026-01-23 19:21:32.07	347.61	14.47	-50.8	-66.1	3.6	1.51e+00	0	41	104	0	60	72860
2026-01-23 19:21:33.08	347.41	14.45	-50.8	-66.1	3.6	1.51e+00	0	41	104	0	60	72728
2026-01-23 19:21:34.09	347.20	14.44	-50.9	-66.1	3.6	1.51e+00	0	41	104	0	60	73148
2026-01-23 19:21:35.10	346.99	14.42	-50.8	-66.1	3.6	1.51e+00	0	41	104	0	60	72847
2026-01-23 19:21:36.11	346.79	14.40	-50.8	-66.1	3.6	1.51e+00	0	41	104	0	60	73148
2026-01-23 19:21:37.12	346.58	14.39	-50.8	-66.1	3.6	1.51e+00	0	41	104	0	60	72691
2026-01-23 19:21:38.13	346.37	14.37	-50.8	-66.1	3.6	1.51e+00	0	41	104	0	60	72939
2026-01-23 19:21:39.14	346.17	14.35	-50.8	-66.1	3.6	1.51e+00	0	41	104	0	60	73173
2026-01-23 19:21:40.15	345.96	14.33	-50.8	-66.1	3.6	1.51e+00	0	41	104	0	60	72993
2026-01-23 19:21:41.16	345.76	14.31	-50.8	-66.1	3.6	1.51e+00	0	41	104	0	60	72893
2026-01-23 19:21:42.17	345.55	14.29	-50.8	-66.1	3.6	1.51e+00	0	41	104	0	60	73323
2026-01-23 19:21:43.18	345.35	14.27	-50.8	-66.1	3.6	1.51e+00	0	41	104	0	60	72937
2026-01-23 19:21:44.19	345.14	14.25	-50.8	-66.1	3.6	1.51e+00	0	41	104	0	60	73154
2026-01-23 19:21:45.20	344.94	14.23	-50.8	-66.1	3.5	1.51e+00	0	41	104	0	60	73328
2026-01-23 19:21:46.21	344.73	14.21	-50.8	-66.1	3.6	1.51e+00	0	41	104	0	60	72873
2026-01-23 19:21:47.22	344.53	14.19	-50.8	-66.1	3.6	1.51e+00	0	41	104	0	60	73331
2026-01-23 19:21:48.23	344.33	14.17	-50.8	-66.1	3.6	1.51e+00	0	41	104	0	60	72809
2026-01-23 19:21:49.24	344.12	14.15	-50.8	-66.1	3.6	1.51e+00	0	41	104	0	60	73360
2026-01-23 19:21:50.25	343.92	14.13	-50.8	-66.1	3.6	1.51e+00	0	41	104	0	60	73087
2026-01-23 19:21:51.26	343.72	14.11	-50.8	-66.1	3.6	1.51e+00	0	41	104	0	60	72819
2026-01-23 19:21:52.27	343.52	14.08	-50.8	-66.1	3.6	1.51e+00	0	41	104	0	60	73167
2026-01-23 19:21:53.28	343.32	14.06	-50.8	-66.1	3.6	1.51e+00	0	41	104	0	60	73023
2026-01-23 19:21:54.29	343.11	14.04	-50.8	-66.1	3.6	1.51e+00	0	41	104	0	60	72802
2026-01-23 19:21:55.30	342.91	14.01	-50.8	-66.1	3.6	1.51e+00	0	41	104	0	60	73135
2026-01-23 19:21:56.31	342.71	13.99	-50.8	-66.1	3.6	1.51e+00	0	41	104	0	60	72895
2026-01-23 19:21:57.32	342.51	13.97	-50.8	-66.1	3.6	1.51e+00	0	41	104	0	60	72950
2026-01-23 19:21:58.33	342.31	13.94	-50.8	-66.1	3.6	1.51e+00	0	41	104	0	60	73120
2026-01-23 19:21:59.34	342.11	13.92	-50.8	-66.1	3.6	1.51e+00	0	41	104	0	60	73126
2026-01-23 19:22:00.35	341.91	13.89	-50.8	-66.1	3.5	1.51e+00	0	41	104	0	60	72883
2026-01-23 19:22:01.36	341.71	13.87	-50.8	-66.1	3.6	1.51e+00	0	41	104	0	60	73095
2026-01-23 19:22:02.37	341.51	13.84	-50.8	-66.1	3.6	1.51e+00	0	41	104	0	60	73217
2026-01-23 19:22:03.38	341.32	13.82	-50.8	-66.1	3.6	1.51e+00	0	41	104	0	60	72668
2026-01-23 19:22:04.39	341.12	13.79	-50.8	-66.1	3.6	1.51e+00	0	41	104	0	60	73080
2026-01-23 19:22:05.40	340.92	13.76	-50.8	-66.1	3.6	1.51e+00	0	41	104	0	60	73240
2026-01-23 19:22:06.41	340.72	13.74	-50.8	-66.1	3.6	1.51e+00	0	41	104	0	60	72992
2026-01-23 19:22:07.42	340.53	13.71	-50.8	-66.1	3.6	1.51e+00	0	41	104	0	60	73318
2026-01-23 19:22:08.43	340.33	13.68	-50.8	-66.1	3.6	1.51e+00	0	41	104	0	60	72653
2026-01-23 19:22:09.44	340.13	13.65	-50.8	-66.2	3.5	1.51e+00	0	41	104	0	60	73521
2026-01-23 19:22:10.45	339.94	13.62	-50.8	-66.1	3.6	1.51e+00	0	41	104	0	60	72538
2026-01-23 19:22:11.46	339.74	13.60	-50.8	-66.1	3.6	1.51e+00	0	41	104	0	60	73365
2026-01-23 19:22:12.47	339.55	13.57	-50.8	-66.1	3.6	1.51e+00	0	41	104	0	60	73008
2026-01-23 19:22:13.48	339.35	13.54	-50.8	-66.1	3.6	1.51e+00	0	41	104	0	60	72763
2026-01-23 19:22:14.49	339.16	13.51	-50.8	-66.1	3.6	1.51e+00	0	41	104	0	60	73043
2026-01-23 19:22:15.50	338.96	13.48	-50.8	-66.1	3.6	1.51e+00	0	41	104	0	60	73264
2026-01-23 19:22:16.51	338.77	13.45	-50.8	-66.1	3.6	1.51e+00	0	41	104	0	60	73063
2026-01-23 19:22:17.52	338.58	13.42	-50.8	-66.1	3.6	1.51e+00	0	41	104	0	60	73294
2026-01-23 19:22:18.53	338.38	13.39	-50.8	-66.1	3.5	1.51e+00	0	41	104	0	60	72978
2026-01-23 19:22:19.54	338.19	13.36	-50.8	-66.1	3.6	1.51e+00	0	41	104	0	60	73221
2026-01-23 19:22:20.55	338.00	13.33	-50.8	-66.1	3.6	1.51e+00	0	41	104	0	60	72977
2026-01-23 19:22:21.56	337.81	13.29	-50.8	-66.1	3.6	1.51e+00	0	41	104	0	60	72856
2026-01-23 19:22:22.57	337.62	13.26	-50.8	-66.1	3.6	1.51e+00	0	41	104	0	60	72740
2026-01-23 19:22:23.57	337.43	13.23	-50.8	-66.1	3.6	1.51e+00	0	41	104	0	60	73198
2026-01-23 19:22:24.58	337.24	13.20	-50.8	-66.1	3.6	1.51e+00	0	41	104	0	60	73129
2026-01-23 19:22:25.59	337.05	13.17	-50.8	-66.1	3.6	1.51e+00	0	41	104	0	60	72682
2026-01-23 19:22:26.60	336.86	13.13	-50.8	-66.1	3.6	1.51e+00	0	41	104	0	60	72907
2026-01-23 19:22:27.61	336.67	13.10	-50.8	-66.1	3.6	1.51e+00	0	41	104	0	60	72552
2026-01-23 19:22:28.62	336.48	13.07	-50.8	-66.1	3.5	1.51e+00	0	41	104	0	60	72858
2026-01-23 19:22:29.63	336.29	13.03	-50.8	-66.1	3.6	1.51e+00	0	41	104	0	60	72791
2026-01-23 19:22:30.64	336.11	13.00	-50.8	-66.0	3.6	1.51e+00	0	41	104	0	60	72439
2026-01-23 19:22:31.65	335.92	12.97	-50.8	-66.1	3.6	1.51e+00	0	41	104	0	60	73111
2026-01-23 19:22:32.66	335.73	12.93	-50.8	-66.1	3.6	1.51e+00	0	41	104	0	60	72783
2026-01-23 19:22:33.67	335.54	12.90	-50.8	-66.1	3.6	1.51e+00	0	41	104	0	60	72774
2026-01-23 19:22:34.68	335.36	12.86	-50.8	-66.1	3.6	1.51e+00	0	41	104	0	60	72612
2026-01-23 19:22:35.69	335.17	12.83	-50.8	-66.1	3.6	1.51e+00	0	41	104	0	60	72770
2026-01-23 19:22:36.70	334.99	12.79	-50.8	-66.1	3.6	1.51e+00	0	41	104	0	60	73090
2026-01-23 19:22:37.71	334.80	12.76	-50.8	-66.1	3.5	1.51e+00	0	41	104	0	60	72842
2026-01-23 19:22:38.72	334.62	12.72	-50.8	-66.1	3.6	1.51e+00	0	41	104	0	60	72992
2026-01-23 19:22:39.73	334.44	12.68	-50.8	-66.1	3.6	1.51e+00	0	41	104	0	60	72818
2026-01-23 19:22:40.74	334.25	12.65	-50.8	-66.1	3.6	1.51e+00	0	41	104	0	60	72755
2026-01-23 19:22:41.75	334.07	12.61	-50.8	-66.1	3.6	1.51e+00	0	41	104	0	60	72966
2026-01-23 19:22:42.76	333.89	12.58	-50.8	-66.1	3.6	1.51e+00	0	41	104	0	60	72809
2026-01-23 19:22:43.77	333.71	12.54	-50.8	-66.1	3.6	1.51e+00	0	41	104	0	60	73112
2026-01-23 19:22:44.78	333.52	12.50	-50.8	-66.1	3.6	1.51e+00	0	41	104	0	60	72621
2026-01-23 19:22:45.79	333.34	12.46	-50.8	-66.1	3.6	1.51e+00	0	41	104	0	60	73078
2026-01-23 19:22:46.80	333.16	12.43	-50.8	-66.1	3.6	1.51e+00	0	41	104	0	60	73084
2026-01-23 19:22:47.81	332.98	12.39	-50.8	-66.1	3.6	1.51e+00	0	41	104	0	60	72883
2026-01-23 19:22:48.82	332.80	12.35	-50.8	-66.1	3.6	1.51e+00	0	41	104	0	60	73041
2026-01-23 19:22:49.82	332.63	12.31	-50.8	-66.1	3.6	1.51e+00	0	41	104	0	60	73125
2026-01-23 19:22:50.83	332.45	12.27	-50.8	-66.1	3.6	1.51e+00	0	41	104	0	60	72884
2026-01-23 19:22:51.84	332.27	12.23	-50.8	-66.1	3.6	1.51e+00	0	41	104	0	60	72864
2026-01-23 19:22:52.85	332.09	12.20	-50.8	-66.1	3.6	1.51e+00	0	41	104	0	60	73200
2026-01-23 19:22:53.86	331.91	12.16	-50.8	-66.1	3.6	1.51e+00	0	41	104	0	60	72851
2026-01-23 19:22:54.87	331.74	12.12	-50.8	-66.1	3.6	1.51e+00	0	41	104	0	60	72688
2026-01-23 19:22:55.88	331.56	12.08	-50.8	-66.1	3.6	1.51e+00	0	41	104	0	60	73322
2026-01-23 19:22:56.90	331.38	12.04	-50.8	-66.1	3.6	1.51e+00	0	41	104	0	60	72834
2026-01-23 19:22:57.91	331.21	12.00	-50.8	-66.1	3.6	1.51e+00	0	41	104	0	60	72733
2026-01-23 19:22:58.92	331.03	11.96	-50.8	-66.1	3.6	1.51e+00	0	41	104	0	60	73098
2026-01-23 19:22:59.93	330.86	11.92	-50.8	-66.1	3.6	1.51e+00	0	41	104	0	60	72840
2026-01-23 19:23:00.94	330.69	11.88	-50.8	-66.1	3.6	1.51e+00	0	41	104	0	60	72800
2026-01-23 19:23:01.95	330.51	11.84	-50.8	-66.1	3.6	1.51e+00	0	41	104	0	60	72980
2026-01-23 19:23:02.96	330.34	11.80	-50.8	-66.1	3.6	1.51e+00	0	41	104	0	60	72870
2026-01-23 19:23:03.97	330.17	11.75	-50.8	-66.1	3.6	1.51e+00	0	41	104	0	60	72660
2026-01-23 19:23:04.98	330.00	11.71	-50.8	-66.1	3.6	1.51e+00	0	41	104	0	60	72539
2026-01-23 19:23:05.99	329.82	11.67	-50.8	-66.1	3.6	1.51e+00	0	41	104	0	60	73148
2026-01-23 19:23:07.00	329.65	11.63	-50.8	-66.1	3.6	1.51e+00	0	41	104	0	60	73250
2026-01-23 19:23:08.01	329.48	11.59	-50.8	-66.1	3.6	1.51e+00	0	41	104	0	60	73020
2026-01-23 19:23:09.02	329.31	11.55	-50.8	-66.1	3.6	1.51e+00	0	41	104	0	60	72545
2026-01-23 19:23:10.03	329.14	11.50	-50.8	-66.1	3.6	1.51e+00	0	41	104	0	60	73071
2026-01-23 19:23:11.04	328.97	11.46	-50.8	-66.1	3.6	1.51e+00	0	41	104	0	60	73039
2026-01-23 19:23:12.04	328.81	11.42	-50.8	-66.1	3.6	1.51e+00	0	41	104	0	60	72895
2026-01-23 19:23:13.05	328.64	11.38	-50.8	-66.1	3.6	1.51e+00	0	42	104	0	60	72863
2026-01-23 19:23:14.06	328.47	11.33	-50.8	-66.1	3.6	1.51e+00	0	41	104	0	60	73063
2026-01-23 19:23:15.07	328.31	11.29	-50.8	-66.1	3.5	1.51e+00	0	41	104	0	60	72913
2026-01-23 19:23:16.08	328.14	11.25	-50.8	-66.1	3.6	1.51e+00	0	41	104	0	60	72871
2026-01-23 19:23:17.09	327.97	11.20	-50.8	-66.1	3.6	1.51e+00	0	41	104	0	60	72933
2026-01-23 19:23:18.10	327.81	11.16	-50.8	-66.1	3.6	1.51e+00	0	41	104	0	60	72829
2026-01-23 19:23:19.11	327.64	11.12	-50.8	-66.1	3.6	1.51e+00	0	41	104	0	60	72592
2026-01-23 19:23:20.12	327.48	11.07	-50.8	-66.1	3.6	1.51e+00	0	41	104	0	60	72973
2026-01-23 19:23:21.13	327.31	11.03	-50.8	-66.1	3.6	1.51e+00	0	41	104	0	60	72955
2026-01-23 19:23:22.14	327.15	10.99	-50.8	-66.1	3.6	1.51e+00	0	41	104	0	60	73139
2026-01-23 19:23:23.15	326.99	10.94	-50.8	-66.1	3.6	1.51e+00	0	41	104	0	60	72968
2026-01-23 19:23:24.16	326.83	10.90	-50.8	-66.1	3.6	1.51e+00	0	42	104	0	60	73155
2026-01-23 19:23:25.17	326.66	10.85	-50.8	-66.1	3.6	1.51e+00	0	41	104	0	60	72732
2026-01-23 19:23:26.18	326.50	10.81	-50.8	-66.1	3.6	1.51e+00	0	42	104	0	60	72915
2026-01-23 19:23:27.19	326.34	10.76	-50.8	-66.1	3.6	1.51e+00	0	41	104	0	60	72981
2026-01-23 19:23:28.20	326.18	10.72	-50.8	-66.1	3.6	1.51e+00	0	41	104	0	60	73073
2026-01-23 19:23:29.21	326.02	10.67	-50.8	-66.1	3.6	1.51e+00	0	41	104	0	60	72814
2026-01-23 19:23:30.22	325.86	10.63	-50.8	-66.1	3.6	1.51e+00	0	41	104	0	60	73190
2026-01-23 19:23:31.23	325.70	10.58	-50.8	-66.1	3.6	1.51e+00	0	42	104	0	60	73319
2026-01-23 19:23:32.24	325.54	10.54	-50.8	-66.1	3.6	1.51e+00	0	42	104	0	60	72682
2026-01-23 19:23:33.25	325.39	10.49	-50.8	-66.1	3.6	1.51e+00	0	42	104	0	60	72917
2026-01-23 19:23:34.26	325.23	10.45	-50.8	-66.1	3.5	1.51e+00	0	41	104	0	60	72854
2026-01-23 19:23:35.27	325.07	10.40	-50.8	-66.1	3.6	1.51e+00	0	42	104	0	60	72765
2026-01-23 19:23:36.28	324.92	10.35	-50.8	-66.1	3.6	1.51e+00	0	41	104	0	60	73001
2026-01-23 19:23:37.29	324.76	10.31	-50.8	-66.1	3.6	1.51e+00	0	41	104	0	60	73006
2026-01-23 19:23:38.30	324.60	10.26	-50.8	-66.1	3.6	1.51e+00	0	41	104	0	60	72755
2026-01-23 19:23:39.31	324.45	10.22	-50.8	-66.1	3.5	1.51e+00	0	41	104	0	60	73018
2026-01-23 19:23:40.32	324.29	10.17	-50.8	-66.1	3.6	1.51e+00	0	41	104	0	60	72816
2026-01-23 19:23:41.33	324.14	10.12	-50.8	-66.1	3.6	1.51e+00	0	41	104	0	60	72569
2026-01-23 19:23:42.34	323.99	10.08	-50.8	-66.1	3.6	1.51e+00	0	41	104	0	60	72732
2026-01-23 19:23:43.35	323.83	10.03	-50.8	-66.1	3.6	1.51e+00	0	41	104	0	60	73036
2026-01-23 19:23:44.36	323.68	9.98	-50.8	-66.1	3.6	1.51e+00	0	41	104	0	60	73114
2026-01-23 19:23:45.37	323.53	9.94	-50.8	-66.1	3.6	1.51e+00	0	41	104	0	60	73121
2026-01-23 19:23:46.38	323.38	9.89	-50.8	-66.1	3.6	1.51e+00	0	41	104	0	60	72940
2026-01-23 19:23:47.39	323.23	9.84	-50.8	-66.1	3.6	1.51e+00	0	41	104	0	60	72862
2026-01-23 19:23:48.40	323.08	9.79	-50.8	-66.1	3.6	1.51e+00	0	41	104	0	60	72673
2026-01-23 19:23:49.41	322.93	9.75	-50.8	-66.1	3.6	1.51e+00	0	41	104	0	60	72829
2026-01-23 19:23:50.42	322.78	9.70	-50.8	-66.1	3.6	1.51e+00	0	41	104	0	60	72606
2026-01-23 19:23:51.43	322.63	9.65	-50.8	-66.1	3.6	1.51e+00	0	41	104	0	60	72559
2026-01-23 19:23:52.43	322.48	9.60	-50.8	-66.0	3.6	1.51e+00	0	42	104	0	60	72358
2026-01-23 19:23:53.44	322.33	9.56	-50.8	-66.1	3.6	1.51e+00	0	41	104	0	60	72571
2026-01-23 19:23:54.46	322.19	9.51	-50.8	-66.1	3.6	1.51e+00	0	41	104	0	60	73016
2026-01-23 19:23:55.47	322.04	9.46	-50.8	-66.1	3.6	1.51e+00	0	41	104	0	60	72802
2026-01-23 19:23:56.47	321.89	9.41	-50.8	-66.1	3.5	1.51e+00	0	41	104	0	60	73016
2026-01-23 19:23:57.48	321.75	9.36	-50.8	-66.1	3.6	1.51e+00	0	41	104	0	60	72705
2026-01-23 19:23:58.49	321.60	9.32	-50.8	-66.1	3.6	1.51e+00	0	41	104	0	60	72988
2026-01-23 19:23:59.50	321.46	9.27	-50.8	-66.1	3.6	1.51e+00	0	41	104	0	60	72925
2026-01-23 19:24:00.51	321.31	9.22	-50.8	-66.1	3.6	1.51e+00	0	41	104	0	60	73265
2026-01-23 19:24:01.52	321.17	9.17	-50.8	-66.1	3.6	1.51e+00	0	41	104	0	60	72844
2026-01-23 19:24:02.53	321.02	9.12	-50.8	-66.1	3.6	1.51e+00	0	42	104	0	60	72866
2026-01-23 19:24:03.54	320.88	9.07	-50.8	-66.1	3.6	1.51e+00	0	41	104	0	60	73102
2026-01-23 19:24:04.55	320.74	9.02	-50.8	-66.1	3.6	1.51e+00	0	41	104	0	60	73320
2026-01-23 19:24:05.56	320.60	8.98	-50.8	-66.1	3.6	1.51e+00	0	42	104	0	60	72855
2026-01-23 19:24:06.57	320.46	8.93	-50.8	-66.1	3.6	1.51e+00	0	42	104	0	60	72778
2026-01-23 19:24:07.58	320.31	8.88	-50.8	-66.1	3.6	1.51e+00	0	42	104	0	60	72630
2026-01-23 19:24:08.59	320.17	8.83	-50.8	-66.1	3.6	1.51e+00	0	42	104	0	60	72784
2026-01-23 19:24:09.60	320.03	8.78	-50.8	-66.1	3.6	1.51e+00	0	41	104	0	60	72981
2026-01-23 19:24:10.61	319.89	8.73	-50.8	-66.1	3.6	1.51e+00	0	42	104	0	60	72935
2026-01-23 19:24:11.62	319.75	8.68	-50.8	-66.1	3.6	1.51e+00	0	42	104	0	60	73318
2026-01-23 19:24:12.63	319.62	8.63	-50.8	-66.1	3.6	1.51e+00	0	41	104	0	60	73011
2026-01-23 19:24:13.64	319.48	8.58	-50.8	-66.1	3.6	1.51e+00	0	42	104	0	60	72915
2026-01-23 19:24:14.65	319.34	8.53	-50.8	-66.1	3.6	1.51e+00	0	42	104	0	60	72879
2026-01-23 19:24:15.66	319.20	8.48	-50.8	-66.1	3.6	1.51e+00	0	42	104	0	60	72794
2026-01-23 19:24:16.67	319.07	8.43	-50.8	-66.1	3.6	1.51e+00	0	42	104	0	60	72716
2026-01-23 19:24:17.68	318.93	8.39	-50.8	-66.1	3.6	1.51e+00	0	42	104	0	60	72884
2026-01-23 19:24:18.69	318.79	8.34	-50.8	-66.1	3.6	1.51e+00	0	42	104	0	60	72644
2026-01-23 19:24:19.70	318.66	8.29	-50.8	-66.1	3.6	1.51e+00	0	42	104	0	60	73059
2026-01-23 19:24:20.71	318.52	8.24	-50.8	-66.2	3.6	1.51e+00	0	41	104	0	60	73637
2026-01-23 19:24:21.72	318.39	8.19	-50.8	-66.1	3.6	1.51e+00	0	41	104	0	60	73186
2026-01-23 19:24:22.73	318.25	8.14	-50.8	-66.1	3.6	1.51e+00	0	42	104	0	60	73131
2026-01-23 19:24:23.74	318.12	8.09	-50.8	-66.1	3.6	1.51e+00	0	42	104	0	60	72830
2026-01-23 19:24:24.75	317.99	8.04	-50.8	-66.1	3.6	1.51e+00	0	42	104	0	60	73027
2026-01-23 19:24:25.76	317.86	7.99	-50.8	-66.1	3.6	1.51e+00	0	42	104	0	60	72654
2026-01-23 19:24:26.77	317.72	7.94	-50.8	-66.1	3.6	1.51e+00	0	41	104	0	60	72642
2026-01-23 19:24:27.78	317.59	7.89	-50.8	-66.1	3.6	1.51e+00	0	42	104	0	60	72879
2026-01-23 19:24:28.78	317.46	7.84	-50.8	-66.1	3.6	1.51e+00	0	42	104	0	60	72795
2026-01-23 19:24:29.79	317.33	7.79	-50.8	-66.1	3.6	1.51e+00	0	42	104	0	60	72827
2026-01-23 19:24:30.81	317.20	7.74	-50.8	-66.1	3.6	1.51e+00	0	42	104	0	60	73010
2026-01-23 19:24:31.82	317.07	7.69	-50.8	-66.1	3.6	1.51e+00	0	42	104	0	60	73019
2026-01-23 19:24:32.83	316.94	7.64	-50.8	-66.1	3.6	1.51e+00	0	42	104	0	60	72841
2026-01-23 19:24:33.84	316.81	7.59	-50.8	-66.1	3.6	1.51e+00	0	42	104	0	60	72868
2026-01-23 19:24:34.85	316.68	7.53	-50.8	-66.1	3.6	1.51e+00	0	42	104	0	60	72633
2026-01-23 19:24:35.86	316.55	7.48	-50.8	-66.2	3.6	1.51e+00	0	42	104	0	60	73487
2026-01-23 19:24:36.87	316.43	7.43	-50.8	-66.1	3.6	1.51e+00	0	42	104	0	60	73024
2026-01-23 19:24:37.88	316.30	7.38	-50.8	-66.1	3.6	1.51e+00	0	42	104	0	60	73077
2026-01-23 19:24:38.89	316.17	7.33	-50.8	-66.1	3.6	1.51e+00	0	42	104	0	60	73324
2026-01-23 19:24:39.90	316.05	7.28	-50.8	-66.1	3.6	1.51e+00	0	41	104	0	60	72798
2026-01-23 19:24:40.91	315.92	7.23	-50.8	-66.1	3.6	1.51e+00	0	42	104	0	60	72817
2026-01-23 19:24:41.92	315.80	7.18	-50.8	-66.1	3.6	1.51e+00	0	42	104	0	60	72780
2026-01-23 19:24:42.93	315.67	7.13	-50.8	-66.1	3.6	1.51e+00	0	42	104	0	60	73089
2026-01-23 19:24:43.94	315.55	7.08	-50.8	-66.1	3.6	1.51e+00	0	42	104	0	60	73045
2026-01-23 19:24:44.95	315.42	7.03	-50.8	-66.1	3.6	1.51e+00	0	42	104	0	60	73211
2026-01-23 19:24:45.96	315.30	6.98	-50.8	-66.0	3.6	1.51e+00	0	42	104	0	60	72503
2026-01-23 19:24:46.97	315.18	6.93	-50.8	-66.1	3.6	1.51e+00	0	42	104	0	60	73045
2026-01-23 19:24:47.98	315.05	6.88	-50.8	-66.1	3.6	1.51e+00	0	42	104	0	60	73317
2026-01-23 19:24:48.99	314.93	6.83	-50.8	-66.1	3.6	1.51e+00	0	41	104	0	60	72930
2026-01-23 19:24:50.00	314.81	6.78	-50.8	-66.1	3.6	1.51e+00	0	42	104	0	60	73069
2026-01-23 19:24:51.01	314.69	6.72	-50.8	-66.1	3.6	1.51e+00	0	42	104	0	60	72627
2026-01-23 19:24:52.02	314.57	6.67	-50.8	-66.1	3.6	1.51e+00	0	42	104	0	60	73142
2026-01-23 19:24:53.03	314.45	6.62	-50.8	-66.1	3.6	1.51e+00	0	42	104	0	60	72960
2026-01-23 19:24:54.04	314.33	6.57	-50.8	-66.1	3.6	1.51e+00	0	42	104	0	60	73056
2026-01-23 19:24:55.05	314.21	6.52	-50.8	-66.1	3.6	1.51e+00	0	42	104	0	60	72971
2026-01-23 19:24:56.06	314.09	6.47	-50.8	-66.1	3.6	1.51e+00	0	42	104	0	60	73046
2026-01-23 19:24:57.07	313.97	6.42	-50.8	-66.1	3.6	1.51e+00	0	42	104	0	60	72956
2026-01-23 19:24:58.08	313.85	6.37	-50.8	-66.1	3.6	1.51e+00	0	42	104	0	60	73027
2026-01-23 19:24:59.09	313.73	6.32	-50.8	-66.1	3.6	1.51e+00	0	42	104	0	60	72868
2026-01-23 19:25:00.10	313.62	6.27	-50.8	-66.1	3.6	1.51e+00	0	42	104	0	60	73011
2026-01-23 19:25:01.11	313.50	6.22	-50.8	-66.1	3.6	1.51e+00	0	42	104	0	60	72969
2026-01-23 19:25:02.12	313.38	6.16	-50.8	-66.1	3.6	1.51e+00	0	42	104	0	60	73164
2026-01-23 19:25:03.13	313.27	6.11	-50.8	-66.1	3.6	1.51e+00	0	42	104	0	60	72790
2026-01-23 19:25:04.14	313.15	6.06	-50.8	-66.1	3.6	1.51e+00	0	42	104	0	60	72997
2026-01-23 19:25:05.15	313.03	6.01	-50.8	-66.1	3.6	1.51e+00	0	42	104	0	60	73225
2026-01-23 19:25:06.16	312.92	5.96	-50.8	-66.1	3.6	1.51e+00	0	42	104	0	60	73152
2026-01-23 19:25:07.17	312.81	5.91	-50.8	-66.1	3.6	1.51e+00	0	42	104	0	60	72834
2026-01-23 19:25:08.18	312.69	5.86	-50.8	-66.1	3.6	1.51e+00	0	42	104	0	60	72708
2026-01-23 19:25:09.19	312.58	5.81	-50.8	-66.1	3.6	1.51e+00	0	42	104	0	60	72936
2026-01-23 19:25:10.20	312.46	5.76	-50.8	-66.1	3.6	1.51e+00	0	42	104	0	60	73095
2026-01-23 19:25:11.21	312.35	5.70	-50.8	-66.1	3.6	1.51e+00	0	42	104	0	60	72876
2026-01-23 19:25:12.22	312.24	5.65	-50.8	-66.1	3.6	1.51e+00	0	42	104	0	60	73168
2026-01-23 19:25:13.23	312.13	5.60	-50.8	-66.1	3.6	1.51e+00	0	42	104	0	60	72988
2026-01-23 19:25:14.24	312.01	5.55	-50.8	-66.1	3.6	1.51e+00	0	42	104	0	60	73062
2026-01-23 19:25:15.25	311.90	5.50	-50.8	-66.1	3.6	1.51e+00	0	42	104	0	60	72900
2026-01-23 19:25:16.26	311.79	5.45	-50.8	-66.1	3.6	1.51e+00	0	42	104	0	60	72996
2026-01-23 19:25:17.27	311.68	5.40	-50.8	-66.1	3.6	1.51e+00	0	42	104	0	60	72946
2026-01-23 19:25:18.28	311.57	5.35	-50.8	-66.1	3.6	1.51e+00	0	42	104	0	60	72748
2026-01-23 19:25:19.29	311.46	5.30	-50.8	-66.1	3.6	1.51e+00	0	42	104	0	60	72905
2026-01-23 19:25:20.30	311.35	5.24	-50.8	-66.1	3.6	1.51e+00	0	42	104	0	60	73028
2026-01-23 19:25:21.31	311.24	5.19	-50.8	-66.1	3.6	1.51e+00	0	42	104	0	60	73056
2026-01-23 19:25:22.32	311.14	5.14	-50.8	-66.1	3.6	1.51e+00	0	42	104	0	60	73085
2026-01-23 19:25:23.33	311.03	5.09	-50.8	-66.1	3.6	1.51e+00	0	42	104	0	60	73217
2026-01-23 19:25:24.34	310.92	5.04	-50.8	-66.1	3.6	1.51e+00	0	42	104	0	60	73053
2026-01-23 19:25:25.35	310.81	4.99	-50.8	-66.1	3.6	1.51e+00	0	42	104	0	60	73167
2026-01-23 19:25:26.36	310.70	4.94	-50.8	-66.1	3.6	1.51e+00	0	42	104	0	60	72827
2026-01-23 19:25:27.37	310.60	4.89	-50.8	-66.0	3.6	1.51e+00	0	42	104	0	60	72515
2026-01-23 19:25:28.38	310.49	4.84	-50.8	-66.1	3.6	1.51e+00	0	42	104	0	60	73027
2026-01-23 19:25:29.39	310.39	4.78	-50.8	-66.1	3.6	1.51e+00	0	42	104	0	60	72929
2026-01-23 19:25:30.40	310.28	4.73	-50.8	-66.2	3.6	1.51e+00	0	42	104	0	60	73801
2026-01-23 19:25:31.41	310.18	4.68	-50.8	-66.1	3.6	1.51e+00	0	42	104	0	60	73034
2026-01-23 19:25:32.41	310.07	4.63	-50.8	-66.1	3.6	1.51e+00	0	42	104	0	60	73374
2026-01-23 19:25:33.42	309.97	4.58	-50.8	-66.1	3.6	1.51e+00	0	42	104	0	60	72766
2026-01-23 19:25:34.43	309.86	4.53	-50.8	-66.2	3.6	1.51e+00	0	42	104	0	60	73467
2026-01-23 19:25:35.44	309.76	4.48	-50.8	-66.1	3.6	1.51e+00	0	42	104	0	60	72994
2026-01-23 19:25:36.45	309.66	4.43	-50.8	-66.1	3.6	1.51e+00	0	42	104	0	60	73011
2026-01-23 19:25:37.46	309.55	4.38	-50.8	-66.1	3.6	1.51e+00	0	42	104	0	60	72851
2026-01-23 19:25:38.47	309.45	4.33	-50.8	-66.1	3.6	1.51e+00	0	42	104	0	60	73132
2026-01-23 19:25:39.48	309.35	4.27	-50.8	-66.2	3.6	1.51e+00	0	42	104	0	60	73401
2026-01-23 19:25:40.49	309.25	4.22	-50.8	-66.1	3.6	1.51e+00	0	42	104	0	60	72926
2026-01-23 19:25:41.50	309.15	4.17	-50.8	-66.1	3.6	1.51e+00	0	42	104	0	60	72809
2026-01-23 19:25:42.51	309.05	4.12	-50.8	-66.1	3.6	1.51e+00	0	42	104	0	60	72955
2026-01-23 19:25:43.52	308.94	4.07	-50.8	-66.1	3.6	1.51e+00	0	42	104	0	60	72981
2026-01-23 19:25:44.53	308.84	4.02	-50.8	-66.1	3.6	1.51e+00	0	42	104	0	60	72811
2026-01-23 19:25:45.54	308.74	3.97	-50.8	-66.1	3.6	1.51e+00	0	42	104	0	60	73022
2026-01-23 19:25:46.55	308.64	3.92	-50.8	-66.1	3.6	1.51e+00	0	42	104	0	60	72992
2026-01-23 19:25:47.56	308.55	3.87	-50.8	-66.1	3.6	1.51e+00	0	42	104	0	60	73025
2026-01-23 19:25:48.57	308.45	3.82	-50.8	-66.1	3.6	1.51e+00	0	42	104	0	60	73357
2026-01-23 19:25:49.57	308.35	3.77	-50.8	-66.1	3.6	1.51e+00	0	42	104	0	60	73036
2026-01-23 19:25:50.58	308.25	3.71	-50.8	-66.1	3.6	1.51e+00	0	42	104	0	60	73236
2026-01-23 19:25:51.59	308.15	3.66	-50.8	-66.2	3.6	1.51e+00	0	42	104	0	60	73408
2026-01-23 19:25:52.60	308.06	3.61	-50.8	-66.1	3.6	1.51e+00	0	42	104	0	60	73002
2026-01-23 19:25:53.61	307.96	3.56	-50.8	-66.1	3.6	1.51e+00	0	42	104	0	60	73214
2026-01-23 19:25:54.62	307.86	3.51	-50.8	-66.1	3.6	1.51e+00	0	42	104	0	60	72902
2026-01-23 19:25:55.63	307.77	3.46	-50.8	-66.1	3.6	1.51e+00	0	42	104	0	60	73174
2026-01-23 19:25:56.64	307.67	3.41	-50.8	-66.1	3.6	1.51e+00	0	42	104	0	60	73056
2026-01-23 19:25:57.65	307.57	3.36	-50.8	-66.1	3.6	1.51e+00	0	42	104	0	60	73204
2026-01-23 19:25:58.66	307.48	3.31	-50.8	-66.1	3.6	1.51e+00	0	41	104	0	60	72969
2026-01-23 19:25:59.67	307.38	3.26	-50.8	-66.1	3.6	1.51e+00	0	42	104	0	60	72983
2026-01-23 19:26:00.66	307.29	3.21	-50.8	-66.1	3.6	1.51e+00	0	42	104	0	60	72935
2026-01-23 19:26:01.66	307.20	3.16	-50.8	-66.1	3.6	1.51e+00	0	42	104	0	60	72992
2026-01-23 19:26:02.67	307.10	3.11	-50.8	-66.1	3.6	1.51e+00	0	41	104	0	60	73035
2026-01-23 19:26:03.68	307.01	3.06	-50.8	-66.1	3.6	1.51e+00	0	42	104	0	60	72852
2026-01-23 19:26:04.69	306.92	3.01	-50.8	-66.1	3.6	1.51e+00	0	42	104	0	60	73223
2026-01-23 19:26:05.70	306.82	2.96	-50.8	-66.1	3.6	1.51e+00	0	42	104	0	60	73273
2026-01-23 19:26:06.71	306.73	2.90	-50.8	-66.1	3.6	1.51e+00	0	42	104	0	60	73001
2026-01-23 19:26:07.72	306.64	2.85	-50.8	-66.1	3.6	1.51e+00	0	42	104	0	60	72916
2026-01-23 19:26:08.73	306.55	2.80	-50.8	-66.1	3.6	1.51e+00	0	42	104	0	60	73036
2026-01-23 19:26:09.74	306.45	2.75	-50.8	-66.1	3.6	1.51e+00	0	42	104	0	60	73207
2026-01-23 19:26:10.75	306.36	2.70	-50.8	-66.1	3.6	1.51e+00	0	42	104	0	60	72879
2026-01-23 19:26:11.76	306.27	2.65	-50.8	-66.1	3.6	1.51e+00	0	42	104	0	60	73048
2026-01-23 19:26:12.77	306.18	2.60	-50.8	-66.1	3.6	1.51e+00	0	42	104	0	60	73215
2026-01-23 19:26:13.78	306.09	2.55	-50.8	-66.1	3.6	1.51e+00	0	42	104	0	60	72966
2026-01-23 19:26:14.79	306.00	2.50	-50.8	-66.1	3.6	1.51e+00	0	42	104	0	60	73140
2026-01-23 19:26:15.80	305.91	2.45	-50.8	-66.2	3.6	1.51e+00	0	42	104	0	60	73470
2026-01-23 19:26:16.81	305.82	2.40	-50.8	-66.1	3.6	1.51e+00	0	42	104	0	60	72745
2026-01-23 19:26:17.82	305.73	2.35	-50.8	-66.1	3.6	1.51e+00	0	42	104	0	60	73063
2026-01-23 19:26:18.83	305.64	2.30	-50.8	-66.1	3.6	1.51e+00	0	42	104	0	60	72756
2026-01-23 19:26:19.84	305.55	2.25	-50.8	-66.1	3.6	1.51e+00	0	42	104	0	60	72706
2026-01-23 19:26:20.85	305.47	2.20	-50.8	-66.1	3.6	1.51e+00	0	42	104	0	60	73100
2026-01-23 19:26:21.86	305.38	2.15	-50.8	-66.1	3.6	1.51e+00	0	42	104	0	60	72850
2026-01-23 19:26:22.87	305.29	2.10	-50.8	-66.1	3.6	1.51e+00	0	42	104	0	60	72779
2026-01-23 19:26:23.88	305.20	2.05	-50.8	-66.1	3.6	1.51e+00	0	42	104	0	60	73263
2026-01-23 19:26:24.89	305.12	2.00	-50.8	-66.1	3.6	1.51e+00	0	42	104	0	60	73095
2026-01-23 19:26:25.90	305.03	1.95	-50.8	-66.1	3.6	1.51e+00	0	42	104	0	60	73163
2026-01-23 19:26:26.91	304.94	1.90	-50.8	-66.1	3.6	1.51e+00	0	42	104	0	60	72852
2026-01-23 19:26:27.92	304.86	1.85	-50.8	-66.1	3.6	1.51e+00	0	42	104	0	60	72934
2026-01-23 19:26:28.93	304.77	1.80	-50.8	-66.1	3.6	1.51e+00	0	42	104	0	60	73313
2026-01-23 19:26:29.94	304.69	1.75	-50.8	-66.1	3.6	1.51e+00	0	42	104	0	60	73118
2026-01-23 19:26:30.95	304.60	1.70	-50.8	-66.1	3.6	1.51e+00	0	42	104	0	60	72955
2026-01-23 19:26:31.95	304.52	1.65	-50.8	-66.1	3.6	1.51e+00	0	42	104	0	60	72806
2026-01-23 19:26:32.96	304.43	1.60	-50.8	-66.1	3.6	1.51e+00	0	41	104	0	60	73075
2026-01-23 19:26:33.98	304.35	1.55	-50.8	-66.1	3.6	1.51e+00	0	42	104	0	60	73137
2026-01-23 19:26:34.99	304.26	1.50	-50.8	-66.1	3.6	1.51e+00	0	42	104	0	60	73067
2026-01-23 19:26:36.00	304.18	1.45	-50.8	-66.1	3.6	1.51e+00	0	42	104	0	60	72950
2026-01-23 19:26:37.01	304.10	1.40	-50.8	-66.1	3.6	1.51e+00	0	42	104	0	60	72588
2026-01-23 19:26:38.02	304.01	1.35	-50.8	-66.1	3.5	1.51e+00	0	42	104	0	60	73140
2026-01-23 19:26:39.02	303.93	1.30	-50.8	-66.1	3.6	1.51e+00	0	42	104	0	60	72954
2026-01-23 19:26:40.03	303.85	1.25	-50.8	-66.1	3.6	1.51e+00	0	42	104	0	60	72908
2026-01-23 19:26:41.05	303.76	1.20	-50.8	-66.1	3.5	1.51e+00	0	42	104	0	60	73188
2026-01-23 19:26:42.06	303.68	1.15	-50.8	-66.2	3.6	1.51e+00	0	42	104	0	60	73491
2026-01-23 19:26:43.07	303.60	1.10	-50.8	-66.1	3.6	1.51e+00	0	42	104	0	60	72787
2026-01-23 19:26:44.07	303.52	1.05	-50.8	-66.1	3.6	1.51e+00	0	42	104	0	60	72788
2026-01-23 19:26:45.09	303.44	1.00	-50.8	-66.1	3.6	1.51e+00	0	42	104	0	60	73158
2026-01-23 19:26:46.10	303.36	0.95	-50.8	-66.1	3.6	1.51e+00	0	42	104	0	60	73171
2026-01-23 19:26:47.11	303.28	0.90	-50.8	-66.1	3.6	1.51e+00	0	42	104	0	60	73054
2026-01-23 19:26:48.12	303.20	0.85	-50.8	-66.1	3.6	1.51e+00	0	42	104	0	60	72767
2026-01-23 19:26:49.13	303.12	0.80	-50.8	-66.1	3.6	1.51e+00	0	42	104	0	60	72971
2026-01-23 19:26:50.14	303.04	0.75	-50.8	-66.1	3.6	1.51e+00	0	42	104	0	60	72811
2026-01-23 19:26:51.15	302.96	0.71	-50.8	-66.1	3.6	1.51e+00	0	42	104	0	60	72995
2026-01-23 19:26:52.16	302.88	0.66	-50.8	-66.1	3.6	1.51e+00	0	42	104	0	60	73032
2026-01-23 19:26:53.17	302.80	0.61	-50.8	-66.1	3.6	1.51e+00	0	42	104	0	60	73164
2026-01-23 19:26:54.18	302.72	0.56	-50.8	-66.1	3.6	1.51e+00	0	42	104	0	60	73154
2026-01-23 19:26:55.19	302.64	0.51	-50.8	-66.1	3.6	1.51e+00	0	42	104	0	60	73131
2026-01-23 19:26:56.20	302.56	0.46	-50.8	-66.1	3.6	1.51e+00	0	42	104	0	60	72805
2026-01-23 19:26:57.20	302.49	0.41	-50.8	-66.1	3.6	1.51e+00	0	42	104	0	60	73029
2026-01-23 19:26:58.21	302.41	0.36	-50.8	-66.2	3.6	1.51e+00	0	42	104	0	60	73509
2026-01-23 19:26:59.22	302.33	0.31	-50.8	-66.1	3.6	1.51e+00	0	42	104	0	60	73316
2026-01-23 19:27:00.23	302.25	0.26	-50.8	-66.1	3.6	1.51e+00	0	42	104	0	60	73104
2026-01-23 19:27:01.24	302.18	0.21	-50.8	-66.1	3.6	1.51e+00	0	42	104	0	60	72871
2026-01-23 19:27:02.25	302.10	0.16	-50.8	-66.1	3.6	1.51e+00	0	42	104	0	60	73237
2026-01-23 19:27:03.26	302.03	0.12	-50.8	-66.2	3.6	1.51e+00	0	42	104	0	60	73413
2026-01-23 19:27:04.27	301.95	0.07	-50.8	-66.1	3.6	1.51e+00	0	42	104	0	60	73343
2026-01-23 19:27:05.28	301.87	0.02	-50.8	-66.1	3.6	1.51e+00	0	42	104	0	60	73255
2026-01-23 19:27:06.29	301.80	-0.03	-50.8	-66.2	3.5	1.51e+00	0	42	104	0	60	73451
2026-01-23 19:27:07.31	301.72	-0.08	-50.8	-66.1	3.6	1.51e+00	0	42	104	0	60	73128

#Closed at: 2026-01-23 19:27:07
