passes_logs/2026/01/23/R4.6S_Anadyr/R4.6S_Anadyr__20260123_121406_SUOMI_NPP_rec.log

#Pass ID: 20260123_121406_SUOMI NPP
#Satellite: SUOMI NPP
#Configuration: NPP
#almurnet v.1.7.20251203
#Start time: 2026-01-23 12:14:09

#Version: 2.2.20231116
#Station: R4.6S_Anadyr
#Location: 177.4865 lon 64.73178 lat
#TLE: 1 37849U 11061A   26022.50498765  .00000208  00000+0  11976-3 0  9992
#TLE: 2 37849  98.7820 324.4892 0002275  50.8149 309.3229 14.19528284737775

#Time	Az	El	Level	Level2	SNR	BER	BlckErr	Temp	State	Recorded	gain1	gain2
2026-01-23 12:14:09.31	19.60	0.15	-50.6	-64.4	3.3	1.54e+00	0	39	0	0	60	59829
2026-01-23 12:14:10.32	19.68	0.19	-50.6	-65.8	3.6	1.51e+00	0	39	104	0	60	70883
2026-01-23 12:14:11.33	19.76	0.24	-50.6	-65.9	3.6	1.51e+00	0	39	104	0	60	71213
2026-01-23 12:14:12.34	19.84	0.29	-50.6	-65.9	3.6	1.51e+00	0	39	104	0	60	71364
2026-01-23 12:14:13.35	19.92	0.34	-50.5	-65.9	3.6	1.51e+00	0	39	104	0	60	71008
2026-01-23 12:14:14.36	20.00	0.38	-50.6	-65.9	3.6	1.51e+00	0	39	104	0	60	71242
2026-01-23 12:14:15.37	20.09	0.43	-50.7	-65.9	3.6	1.51e+00	0	39	104	0	60	71606
2026-01-23 12:14:16.38	20.17	0.48	-50.7	-65.9	3.6	1.51e+00	0	39	104	0	60	71252
2026-01-23 12:14:17.39	20.25	0.52	-50.7	-65.9	3.6	1.51e+00	0	39	104	0	60	71268
2026-01-23 12:14:18.40	20.34	0.57	-50.6	-65.8	3.6	1.51e+00	0	39	104	0	60	70617
2026-01-23 12:14:19.41	20.42	0.62	-50.5	-65.8	3.6	1.51e+00	0	39	104	0	60	70659
2026-01-23 12:14:20.42	20.50	0.67	-50.5	-65.8	3.6	1.51e+00	0	39	104	0	60	70167
2026-01-23 12:14:21.43	20.59	0.71	-50.5	-65.7	3.6	1.51e+00	0	39	104	0	60	69734
2026-01-23 12:14:22.44	20.67	0.76	-50.5	-65.6	3.6	1.51e+00	0	39	104	0	60	69042
2026-01-23 12:14:23.45	20.76	0.81	-50.4	-65.5	3.6	1.51e+00	0	39	104	0	60	68175
2026-01-23 12:14:24.46	20.84	0.86	-50.3	-65.5	3.6	1.51e+00	0	39	104	0	60	67904
2026-01-23 12:14:25.47	20.92	0.90	-50.2	-65.4	3.6	1.51e+00	0	39	104	0	60	67340
2026-01-23 12:14:26.48	21.01	0.95	-50.1	-65.3	3.6	1.51e+00	0	39	104	0	60	66317
2026-01-23 12:14:27.49	21.10	1.00	-50.0	-65.2	3.6	1.51e+00	0	39	104	0	60	66031
2026-01-23 12:14:28.50	21.18	1.05	-49.9	-65.2	3.6	1.51e+00	0	39	104	0	60	65469
2026-01-23 12:14:29.51	21.27	1.09	-49.7	-65.0	3.6	1.51e+00	0	39	104	0	60	64303
2026-01-23 12:14:30.52	21.35	1.14	-49.4	-64.6	3.6	1.51e+00	0	39	104	0	60	61418
2026-01-23 12:14:31.53	21.44	1.19	-49.1	-64.3	3.6	1.51e+00	0	40	104	0	60	59214
2026-01-23 12:14:32.54	21.53	1.24	-49.1	-64.2	3.6	1.51e+00	0	40	104	0	60	58877
2026-01-23 12:14:33.55	21.61	1.29	-49.1	-64.3	3.6	1.51e+00	0	40	104	0	60	59057
2026-01-23 12:14:34.56	21.70	1.33	-49.1	-64.3	3.6	1.51e+00	0	40	104	0	60	59114
2026-01-23 12:14:35.57	21.79	1.38	-49.1	-64.3	3.6	1.51e+00	0	40	104	0	60	59112
2026-01-23 12:14:36.58	21.88	1.43	-49.1	-64.3	3.6	1.51e+00	0	40	104	0	60	59089
2026-01-23 12:14:37.59	21.96	1.48	-49.1	-64.3	3.6	1.51e+00	0	40	104	0	60	59039
2026-01-23 12:14:38.59	22.05	1.52	-49.1	-64.3	3.6	1.51e+00	0	40	104	0	60	59194
2026-01-23 12:14:39.61	22.14	1.57	-49.1	-64.2	3.6	1.51e+00	0	40	104	0	60	58959
2026-01-23 12:14:40.61	22.23	1.62	-49.1	-64.3	3.6	1.51e+00	0	39	104	0	60	59032
2026-01-23 12:14:41.62	22.32	1.67	-49.1	-64.3	3.6	1.51e+00	0	40	104	0	60	59426
2026-01-23 12:14:42.63	22.41	1.72	-49.1	-64.2	3.5	1.51e+00	0	40	104	0	60	58913
2026-01-23 12:14:43.64	22.50	1.76	-49.1	-64.3	3.6	1.51e+00	0	40	104	0	60	59109
2026-01-23 12:14:44.65	22.59	1.81	-49.1	-64.2	3.6	1.51e+00	0	40	104	0	60	58786
2026-01-23 12:14:45.66	22.68	1.86	-49.1	-64.2	3.5	1.51e+00	0	40	104	0	60	58399
2026-01-23 12:14:46.67	22.77	1.91	-49.1	-64.1	3.6	1.51e+00	0	40	104	0	60	58212
2026-01-23 12:14:47.68	22.86	1.96	-49.1	-64.2	3.6	1.51e+00	0	40	104	0	60	58533
2026-01-23 12:14:48.69	22.95	2.00	-49.1	-64.2	3.6	1.51e+00	0	40	104	0	60	58644
2026-01-23 12:14:49.70	23.04	2.05	-49.1	-64.2	3.6	1.51e+00	0	40	104	0	60	58867
2026-01-23 12:14:50.71	23.13	2.10	-49.1	-64.2	3.6	1.51e+00	0	40	104	0	60	58680
2026-01-23 12:14:51.72	23.22	2.15	-49.1	-64.2	3.6	1.51e+00	0	40	104	0	60	58402
2026-01-23 12:14:52.73	23.32	2.20	-49.1	-64.2	3.6	1.51e+00	0	40	104	0	60	58878
2026-01-23 12:14:53.74	23.41	2.25	-49.1	-64.0	3.6	1.51e+00	0	40	104	0	60	57277
2026-01-23 12:14:54.75	23.50	2.29	-49.0	-63.6	3.6	1.51e+00	0	40	104	0	60	54969
2026-01-23 12:14:55.76	23.60	2.34	-49.0	-63.1	3.6	1.51e+00	0	40	104	0	60	51547
2026-01-23 12:14:56.77	23.69	2.39	-49.0	-63.1	3.6	1.51e+00	0	40	104	0	60	51564
2026-01-23 12:14:57.78	23.78	2.44	-49.0	-63.4	3.6	1.51e+00	0	40	104	0	60	53433
2026-01-23 12:14:58.79	23.88	2.49	-48.9	-60.6	4.2	1.47e+00	17	40	104	0	60	38894
2026-01-23 12:14:59.80	23.97	2.54	-48.2	-54.6	8.0	3.07e-01	0	40	0	1048576	60	19515
2026-01-23 12:15:00.81	24.06	2.59	-46.8	-50.8	12.3	1.01e-02	22	40	0	3145728	60	12574
2026-01-23 12:15:01.82	24.16	2.63	-45.1	-47.7	15.6	0.00e+00	0	40	0	5242880	60	8763
2026-01-23 12:15:02.83	24.25	2.68	-43.9	-45.9	17.4	0.00e+00	92	40	0	7340032	60	7143
2026-01-23 12:15:03.84	24.35	2.73	-43.0	-44.7	18.5	0.00e+00	0	40	0	8388608	60	6222
2026-01-23 12:15:04.85	24.45	2.78	-42.1	-43.5	19.4	0.00e+00	0	40	0	10485760	58	6103
2026-01-23 12:15:05.86	24.54	2.83	-42.7	-44.4	18.6	0.00e+00	0	40	0	12582912	58	6730
2026-01-23 12:15:06.87	24.64	2.88	-43.1	-44.9	18.2	0.00e+00	0	40	0	14680064	58	7090
2026-01-23 12:15:07.88	24.73	2.93	-44.6	-47.0	16.0	0.00e+00	18	40	0	16777216	60	8066
2026-01-23 12:15:08.89	24.83	2.97	-46.7	-50.6	12.3	8.30e-06	0	40	0	17825792	60	12288
2026-01-23 12:15:09.90	24.93	3.02	-48.1	-54.5	7.9	8.75e-03	92	40	0	19922944	60	19221
2026-01-23 12:15:10.91	25.03	3.07	-42.5	-44.1	18.9	1.77e-02	0	40	0	22020096	58	6518
2026-01-23 12:15:11.92	25.12	3.12	-48.9	-63.8	3.6	6.94e-01	0	40	104	23068672	60	56253
2026-01-23 12:15:12.93	25.22	3.17	-49.1	-61.2	3.7	1.49e+00	0	40	104	23068672	60	41329
2026-01-23 12:15:13.94	25.32	3.22	-45.0	-47.4	16.5	5.69e-01	0	40	0	23068672	60	8462
2026-01-23 12:15:14.95	25.42	3.27	-49.1	-62.4	3.6	1.22e+00	0	40	104	24117248	60	47654
2026-01-23 12:15:15.96	25.52	3.32	-45.7	-48.6	14.5	1.39e+00	0	40	104	24117248	60	9736
2026-01-23 12:15:16.97	25.62	3.36	-44.7	-47.0	16.7	0.00e+00	20	40	0	24117248	60	8133
2026-01-23 12:15:17.98	25.72	3.41	-44.8	-47.1	16.5	0.00e+00	0	40	0	26214400	60	8214
2026-01-23 12:15:18.99	25.82	3.46	-43.8	-45.7	17.6	0.00e+00	47	40	0	28311552	60	6994
2026-01-23 12:15:20.00	25.92	3.51	-44.4	-46.5	17.0	0.00e+00	0	40	0	30408704	60	7609
2026-01-23 12:15:21.01	26.02	3.56	-43.0	-44.7	18.6	0.00e+00	0	40	0	32505856	60	6213
2026-01-23 12:15:22.02	26.12	3.61	-43.6	-45.4	18.1	0.00e+00	0	40	0	33554432	60	6709
2026-01-23 12:15:23.03	26.22	3.66	-43.4	-45.2	18.2	0.00e+00	0	40	0	35651584	60	6555
2026-01-23 12:15:24.03	26.32	3.71	-43.2	-44.9	18.4	0.00e+00	90	40	0	37748736	60	6351
2026-01-23 12:15:25.04	26.42	3.76	-42.9	-44.5	18.9	0.00e+00	0	40	0	39845888	60	6073
2026-01-23 12:15:26.05	26.52	3.80	-43.0	-44.6	18.8	0.00e+00	90	40	0	41943040	60	6151
2026-01-23 12:15:27.06	26.63	3.85	-42.8	-44.4	18.9	0.00e+00	0	40	0	42991616	58	6704
2026-01-23 12:15:28.07	26.73	3.90	-42.9	-44.5	18.8	0.00e+00	0	40	0	45088768	58	6781
2026-01-23 12:15:29.08	26.83	3.95	-42.8	-44.3	18.8	0.00e+00	0	40	0	47185920	58	6691
2026-01-23 12:15:30.09	26.94	4.00	-42.7	-44.3	18.9	0.00e+00	0	40	0	49283072	58	6643
2026-01-23 12:15:31.10	27.04	4.05	-42.5	-44.0	19.2	0.00e+00	65	40	0	51380224	58	6431
2026-01-23 12:15:32.11	27.15	4.10	-43.0	-44.7	18.8	0.00e+00	19	40	0	52428800	58	6932
2026-01-23 12:15:33.12	27.25	4.15	-42.5	-44.0	19.3	0.00e+00	80	40	0	54525952	58	6455
2026-01-23 12:15:34.13	27.35	4.20	-42.6	-44.1	19.2	0.00e+00	0	40	0	56623104	58	6476
2026-01-23 12:15:35.13	27.46	4.25	-42.4	-43.8	19.5	0.00e+00	14	40	0	58720256	58	6308
2026-01-23 12:15:36.14	27.56	4.29	-42.3	-43.7	19.5	0.00e+00	0	40	0	60817408	58	6241
2026-01-23 12:15:37.15	27.67	4.34	-42.5	-44.0	19.4	0.00e+00	0	40	0	61865984	58	6446
2026-01-23 12:15:38.16	27.78	4.39	-42.4	-43.8	19.5	0.00e+00	51	40	0	63963136	58	6295
2026-01-23 12:15:39.17	27.88	4.44	-42.2	-43.6	19.8	0.00e+00	0	40	0	66060288	58	6138
2026-01-23 12:15:40.18	27.99	4.49	-42.1	-43.5	19.8	0.00e+00	50	40	0	68157440	58	6048
2026-01-23 12:15:41.19	28.10	4.54	-42.0	-43.4	19.9	0.00e+00	0	40	0	70254592	58	5983
2026-01-23 12:15:42.20	28.20	4.59	-42.1	-43.5	19.8	0.00e+00	5	40	0	72351744	58	6043
2026-01-23 12:15:43.21	28.31	4.64	-42.1	-43.5	19.9	0.00e+00	0	40	0	73400320	58	6085
2026-01-23 12:15:44.22	28.42	4.69	-41.8	-43.1	20.2	0.00e+00	0	40	0	75497472	56	6535
2026-01-23 12:15:45.22	28.53	4.74	-42.0	-43.4	20.0	0.00e+00	22	40	0	77594624	56	6711
2026-01-23 12:15:46.24	28.64	4.79	-42.0	-43.3	20.2	0.00e+00	0	40	0	79691776	56	6662
2026-01-23 12:15:47.24	28.75	4.84	-41.6	-42.9	20.4	0.00e+00	22	40	0	81788928	56	6320
2026-01-23 12:15:48.25	28.86	4.89	-41.9	-43.3	20.2	0.00e+00	0	40	0	82837504	56	6620
2026-01-23 12:15:49.27	28.97	4.94	-41.7	-43.0	20.4	0.00e+00	67	40	0	84934656	56	6416
2026-01-23 12:15:50.27	29.08	4.98	-41.5	-42.7	20.5	0.00e+00	0	40	0	87031808	56	6245
2026-01-23 12:15:51.28	29.19	5.03	-41.4	-42.6	20.6	0.00e+00	0	40	0	89128960	56	6169
2026-01-23 12:15:52.29	29.30	5.08	-41.2	-42.4	20.8	0.00e+00	23	40	0	91226112	56	5974
2026-01-23 12:15:53.30	29.41	5.13	-41.5	-42.7	20.7	0.00e+00	0	40	0	92274688	56	6206
2026-01-23 12:15:54.31	29.52	5.18	-41.4	-42.6	20.8	0.00e+00	81	40	0	94371840	56	6126
2026-01-23 12:15:55.32	29.63	5.23	-41.4	-42.7	20.7	0.00e+00	0	40	0	96468992	56	6178
2026-01-23 12:15:56.33	29.75	5.28	-41.7	-43.0	20.4	0.00e+00	81	40	0	98566144	56	6395
2026-01-23 12:15:57.34	29.86	5.33	-41.9	-43.2	20.3	0.00e+00	0	40	0	100663296	56	6547
2026-01-23 12:15:58.35	29.97	5.38	-41.7	-43.0	20.4	0.00e+00	0	40	0	101711872	56	6411
2026-01-23 12:15:59.36	30.09	5.43	-41.9	-43.2	20.3	0.00e+00	0	40	0	103809024	56	6586
2026-01-23 12:16:00.37	30.20	5.48	-42.0	-43.3	20.1	0.00e+00	7	40	0	105906176	56	6651
2026-01-23 12:16:01.38	30.31	5.53	-42.0	-43.3	20.1	0.00e+00	57	40	0	108003328	56	6673
2026-01-23 12:16:02.39	30.43	5.58	-42.4	-43.9	19.5	0.00e+00	0	40	0	110100480	56	7093
2026-01-23 12:16:03.40	30.54	5.63	-42.2	-43.6	19.8	0.00e+00	90	40	0	111149056	56	6908
2026-01-23 12:16:04.41	30.66	5.67	-42.1	-43.5	19.7	0.00e+00	0	40	0	113246208	56	6802
2026-01-23 12:16:05.42	30.78	5.72	-42.2	-43.5	19.8	0.00e+00	0	40	0	115343360	56	6835
2026-01-23 12:16:06.42	30.89	5.77	-42.1	-43.4	20.1	0.00e+00	0	40	0	117440512	56	6768
2026-01-23 12:16:07.43	31.01	5.82	-41.7	-43.0	20.5	0.00e+00	0	40	0	119537664	56	6428
2026-01-23 12:16:08.44	31.12	5.87	-42.0	-43.3	20.2	0.00e+00	57	40	0	120586240	56	6640
2026-01-23 12:16:09.45	31.24	5.92	-41.9	-43.2	20.3	0.00e+00	0	40	0	122683392	56	6579
2026-01-23 12:16:10.46	31.36	5.97	-41.9	-43.2	20.4	0.00e+00	91	40	0	124780544	56	6612
2026-01-23 12:16:11.47	31.48	6.02	-41.8	-43.1	20.4	0.00e+00	0	40	0	126877696	56	6472
2026-01-23 12:16:12.48	31.60	6.07	-41.8	-43.1	20.3	0.00e+00	0	40	0	128974848	56	6533
2026-01-23 12:16:13.49	31.71	6.12	-41.9	-43.2	20.3	0.00e+00	0	40	0	130023424	56	6545
2026-01-23 12:16:14.50	31.83	6.17	-41.7	-42.9	20.6	0.00e+00	0	40	0	132120576	56	6387
2026-01-23 12:16:15.51	31.95	6.22	-42.0	-43.3	20.2	0.00e+00	19	40	0	134217728	56	6673
2026-01-23 12:16:16.52	32.07	6.27	-42.0	-43.4	20.2	0.00e+00	0	40	0	136314880	56	6710
2026-01-23 12:16:17.53	32.19	6.32	-41.8	-43.0	20.5	0.00e+00	91	40	0	138412032	56	6461
2026-01-23 12:16:18.54	32.31	6.36	-41.7	-43.0	20.5	0.00e+00	0	40	0	140509184	56	6408
2026-01-23 12:16:19.54	32.43	6.41	-41.9	-43.2	20.4	0.00e+00	0	41	0	141557760	56	6550
2026-01-23 12:16:20.55	32.56	6.46	-41.8	-43.1	20.4	0.00e+00	0	40	0	143654912	56	6466
2026-01-23 12:16:21.56	32.68	6.51	-41.8	-43.1	20.5	0.00e+00	0	41	0	145752064	56	6478
2026-01-23 12:16:22.57	32.80	6.56	-41.6	-42.9	20.6	0.00e+00	0	40	0	147849216	56	6339
2026-01-23 12:16:23.58	32.92	6.61	-41.4	-42.6	20.9	0.00e+00	0	40	0	149946368	56	6131
2026-01-23 12:16:24.59	33.05	6.66	-41.6	-42.8	20.6	0.00e+00	92	40	0	150994944	56	6281
2026-01-23 12:16:25.60	33.17	6.71	-41.4	-42.7	20.8	0.00e+00	0	40	0	153092096	56	6175
2026-01-23 12:16:26.61	33.29	6.76	-41.7	-42.9	20.6	0.00e+00	56	40	0	155189248	56	6376
2026-01-23 12:16:27.62	33.42	6.81	-41.5	-42.7	20.8	0.00e+00	0	40	0	157286400	56	6200
2026-01-23 12:16:28.62	33.54	6.86	-41.5	-42.8	20.8	0.00e+00	0	40	0	159383552	56	6251
2026-01-23 12:16:29.63	33.67	6.90	-41.3	-42.5	21.1	0.00e+00	0	40	0	160432128	56	6044
2026-01-23 12:16:30.64	33.79	6.95	-41.3	-42.5	20.9	0.00e+00	0	40	0	162529280	56	6068
2026-01-23 12:16:31.65	33.92	7.00	-41.3	-42.5	21.0	0.00e+00	20	40	0	164626432	56	6079
2026-01-23 12:16:32.66	34.04	7.05	-41.3	-42.5	21.0	0.00e+00	0	40	0	166723584	56	6060
2026-01-23 12:16:33.67	34.17	7.10	-41.3	-42.5	21.1	0.00e+00	90	40	0	168820736	56	6057
2026-01-23 12:16:34.68	34.30	7.15	-41.1	-42.3	21.2	0.00e+00	0	41	0	169869312	56	5933
2026-01-23 12:16:35.69	34.43	7.20	-41.0	-42.1	21.4	0.00e+00	0	41	0	171966464	56	5805
2026-01-23 12:16:36.70	34.55	7.25	-41.0	-42.1	21.4	0.00e+00	0	40	0	174063616	56	5820
2026-01-23 12:16:37.71	34.68	7.30	-40.8	-42.0	21.6	0.00e+00	0	41	0	176160768	56	5704
2026-01-23 12:16:38.72	34.81	7.35	-40.7	-41.8	21.5	0.00e+00	48	41	0	178257920	54	6295
2026-01-23 12:16:39.73	34.94	7.39	-40.7	-41.8	21.5	0.00e+00	0	40	0	179306496	54	6257
2026-01-23 12:16:40.73	35.07	7.44	-40.9	-42.0	21.5	0.00e+00	92	40	0	181403648	54	6439
2026-01-23 12:16:41.74	35.20	7.49	-40.8	-41.9	21.5	0.00e+00	0	41	0	183500800	54	6365
2026-01-23 12:16:42.75	35.33	7.54	-40.6	-41.7	21.7	0.00e+00	0	41	0	185597952	54	6215
2026-01-23 12:16:43.76	35.46	7.59	-40.8	-41.9	21.5	0.00e+00	0	41	0	187695104	54	6336
2026-01-23 12:16:44.77	35.59	7.64	-40.7	-41.8	21.6	0.00e+00	0	41	0	188743680	54	6277
2026-01-23 12:16:45.78	35.72	7.69	-40.7	-41.9	21.7	0.00e+00	24	40	0	190840832	54	6331
2026-01-23 12:16:46.79	35.86	7.74	-40.5	-41.6	21.7	0.00e+00	0	40	0	192937984	54	6155
2026-01-23 12:16:47.80	35.99	7.78	-40.8	-41.9	21.6	0.00e+00	90	41	0	195035136	54	6338
2026-01-23 12:16:48.81	36.12	7.83	-40.6	-41.7	21.7	0.00e+00	0	40	0	197132288	54	6204
2026-01-23 12:16:49.82	36.26	7.88	-40.1	-41.1	22.1	0.00e+00	54	41	0	198180864	54	5814
2026-01-23 12:16:50.83	36.39	7.93	-40.2	-41.3	22.1	0.00e+00	0	41	0	200278016	54	5915
2026-01-23 12:16:51.84	36.52	7.98	-40.3	-41.3	22.0	0.00e+00	0	41	0	202375168	54	5939
2026-01-23 12:16:52.85	36.66	8.03	-39.9	-40.9	22.4	0.00e+00	41	41	0	204472320	54	5677
2026-01-23 12:16:53.86	36.79	8.07	-40.0	-41.0	22.3	0.00e+00	0	41	0	206569472	54	5724
2026-01-23 12:16:54.87	36.93	8.12	-40.3	-41.3	22.1	0.00e+00	92	40	0	207618048	54	5932
2026-01-23 12:16:55.88	37.07	8.17	-40.3	-41.3	22.0	0.00e+00	0	40	0	209715200	54	5958
2026-01-23 12:16:56.89	37.20	8.22	-40.7	-41.8	21.8	0.00e+00	70	40	0	211812352	54	6316
2026-01-23 12:16:57.90	37.34	8.27	-40.7	-41.8	21.6	0.00e+00	0	41	0	213909504	54	6275
2026-01-23 12:16:58.90	37.48	8.32	-40.6	-41.7	21.6	0.00e+00	0	40	0	216006656	54	6206
2026-01-23 12:16:59.91	37.61	8.36	-40.6	-41.7	21.7	0.00e+00	0	41	0	217055232	54	6198
2026-01-23 12:17:00.92	37.75	8.41	-40.6	-41.7	21.7	0.00e+00	0	40	0	219152384	54	6244
2026-01-23 12:17:01.93	37.89	8.46	-40.6	-41.7	21.8	0.00e+00	22	40	0	221249536	54	6174
2026-01-23 12:17:02.94	38.03	8.51	-40.6	-41.7	21.8	0.00e+00	0	41	0	223346688	54	6189
2026-01-23 12:17:03.95	38.17	8.56	-40.4	-41.5	22.0	0.00e+00	92	41	0	225443840	54	6071
2026-01-23 12:17:04.96	38.31	8.60	-40.4	-41.4	22.0	0.00e+00	0	40	0	226492416	54	6023
2026-01-23 12:17:05.97	38.45	8.65	-40.3	-41.4	22.0	0.00e+00	0	41	0	228589568	54	5967
2026-01-23 12:17:06.98	38.59	8.70	-40.3	-41.3	22.0	0.00e+00	0	41	0	230686720	54	5955
2026-01-23 12:17:07.99	38.73	8.75	-40.4	-41.4	22.0	0.00e+00	0	41	0	232783872	54	6018
2026-01-23 12:17:09.00	38.87	8.79	-40.5	-41.6	21.9	0.00e+00	0	41	0	234881024	54	6112
2026-01-23 12:17:10.01	39.02	8.84	-40.3	-41.3	22.1	0.00e+00	0	41	0	236978176	54	5927
2026-01-23 12:17:11.02	39.16	8.89	-40.4	-41.5	22.0	0.00e+00	36	41	0	238026752	54	6046
2026-01-23 12:17:12.03	39.30	8.94	-40.7	-41.8	21.7	0.00e+00	0	41	0	240123904	54	6273
2026-01-23 12:17:13.03	39.44	8.98	-40.9	-42.0	21.5	0.00e+00	0	40	0	242221056	54	6443
2026-01-23 12:17:14.04	39.59	9.03	-40.6	-41.7	21.8	0.00e+00	0	41	0	244318208	54	6206
2026-01-23 12:17:15.05	39.73	9.08	-40.8	-42.0	21.6	0.00e+00	0	41	0	246415360	54	6396
2026-01-23 12:17:16.06	39.88	9.13	-40.4	-41.4	22.1	0.00e+00	0	40	0	247463936	54	6012
2026-01-23 12:17:17.07	40.02	9.17	-40.6	-41.7	21.7	0.00e+00	0	41	0	249561088	54	6196
2026-01-23 12:17:18.08	40.17	9.22	-40.8	-41.9	21.5	0.00e+00	66	41	0	251658240	54	6358
2026-01-23 12:17:19.09	40.31	9.27	-40.7	-41.8	21.7	0.00e+00	0	41	0	253755392	54	6295
2026-01-23 12:17:20.10	40.46	9.31	-40.5	-41.6	21.8	0.00e+00	0	41	0	255852544	54	6140
2026-01-23 12:17:21.11	40.61	9.36	-40.4	-41.5	21.9	0.00e+00	0	41	0	256901120	54	6036
2026-01-23 12:17:22.12	40.76	9.41	-40.5	-41.5	21.7	0.00e+00	21	41	0	258998272	54	6100
2026-01-23 12:17:23.13	40.90	9.46	-40.5	-41.6	21.7	0.00e+00	69	40	0	261095424	54	6110
2026-01-23 12:17:24.14	41.05	9.50	-40.5	-41.5	21.9	0.00e+00	0	41	0	263192576	54	6091
2026-01-23 12:17:25.15	41.20	9.55	-40.5	-41.6	21.8	0.00e+00	92	41	0	265289728	54	6116
2026-01-23 12:17:26.16	41.35	9.59	-40.5	-41.6	21.9	0.00e+00	0	41	0	266338304	54	6123
2026-01-23 12:17:27.17	41.50	9.64	-40.5	-41.5	21.9	0.00e+00	92	41	0	268435456	54	6096
2026-01-23 12:17:28.17	41.65	9.69	-40.5	-41.6	21.9	0.00e+00	0	41	0	270532608	54	6112
2026-01-23 12:17:29.18	41.80	9.73	-40.5	-41.6	21.9	0.00e+00	0	40	0	272629760	54	6152
2026-01-23 12:17:30.19	41.95	9.78	-40.5	-41.6	21.9	0.00e+00	25	41	0	274726912	54	6144
2026-01-23 12:17:31.20	42.11	9.83	-40.3	-41.4	22.2	0.00e+00	0	40	0	275775488	54	5967
2026-01-23 12:17:32.21	42.26	9.87	-40.3	-41.4	22.2	0.00e+00	91	40	0	277872640	54	5974
2026-01-23 12:17:33.22	42.41	9.92	-40.3	-41.4	22.2	0.00e+00	0	40	0	279969792	54	5967
2026-01-23 12:17:34.23	42.56	9.96	-40.4	-41.5	22.1	0.00e+00	71	41	0	282066944	54	6047
2026-01-23 12:17:35.24	42.72	10.01	-40.4	-41.4	22.2	0.00e+00	0	41	0	284164096	54	6022
2026-01-23 12:17:36.25	42.87	10.05	-40.6	-41.7	21.9	0.00e+00	0	40	0	285212672	54	6178
2026-01-23 12:17:37.25	43.02	10.10	-40.8	-41.9	21.6	0.00e+00	0	41	0	287309824	54	6378
2026-01-23 12:17:38.27	43.18	10.15	-40.8	-42.0	21.7	0.00e+00	0	41	0	289406976	54	6399
2026-01-23 12:17:39.27	43.33	10.19	-40.9	-42.1	21.6	0.00e+00	92	41	0	291504128	54	6474
2026-01-23 12:17:40.28	43.49	10.24	-40.8	-42.0	21.7	0.00e+00	0	41	0	293601280	54	6400
2026-01-23 12:17:41.29	43.65	10.28	-40.9	-42.0	21.6	0.00e+00	90	41	0	294649856	54	6425
2026-01-23 12:17:42.30	43.80	10.33	-41.0	-42.1	21.7	0.00e+00	0	41	0	296747008	54	6527
2026-01-23 12:17:43.32	43.96	10.37	-40.8	-41.9	21.6	0.00e+00	0	41	0	298844160	54	6342
2026-01-23 12:17:44.32	44.12	10.42	-40.6	-41.7	21.8	0.00e+00	0	41	0	300941312	54	6175
2026-01-23 12:17:45.33	44.28	10.46	-40.7	-41.8	21.8	0.00e+00	0	41	0	303038464	54	6264
2026-01-23 12:17:46.34	44.44	10.50	-40.9	-42.0	21.6	0.00e+00	92	41	0	305135616	54	6448
2026-01-23 12:17:47.36	44.60	10.55	-40.8	-41.9	21.8	0.00e+00	0	41	0	306184192	54	6347
2026-01-23 12:17:48.37	44.76	10.59	-40.9	-42.0	21.5	0.00e+00	92	41	0	308281344	54	6455
2026-01-23 12:17:49.38	44.92	10.64	-41.1	-42.2	21.4	0.00e+00	0	41	0	310378496	54	6613
2026-01-23 12:17:50.39	45.08	10.68	-41.1	-42.3	21.4	0.00e+00	0	41	0	312475648	54	6619
2026-01-23 12:17:51.40	45.24	10.73	-41.0	-42.2	21.4	0.00e+00	0	41	0	314572800	54	6577
2026-01-23 12:17:52.41	45.40	10.77	-41.3	-42.5	21.3	0.00e+00	0	41	0	315621376	54	6805
2026-01-23 12:17:53.42	45.56	10.81	-41.4	-42.6	21.2	0.00e+00	20	41	0	317718528	54	6851
2026-01-23 12:17:54.43	45.73	10.86	-41.1	-42.3	21.4	0.00e+00	0	41	0	319815680	54	6647
2026-01-23 12:17:55.43	45.89	10.90	-41.4	-42.5	21.2	0.00e+00	92	41	0	321912832	54	6842
2026-01-23 12:17:56.44	46.05	10.94	-41.0	-42.1	21.5	0.00e+00	0	41	0	324009984	54	6514
2026-01-23 12:17:57.45	46.22	10.99	-41.1	-42.3	21.3	0.00e+00	0	41	0	325058560	54	6650
2026-01-23 12:17:58.46	46.38	11.03	-40.9	-42.0	21.7	0.00e+00	0	41	0	327155712	54	6399
2026-01-23 12:17:59.47	46.54	11.07	-41.2	-42.3	21.3	0.00e+00	0	41	0	329252864	54	6688
2026-01-23 12:18:00.48	46.71	11.12	-41.1	-42.3	21.4	0.00e+00	19	41	0	331350016	54	6643
2026-01-23 12:18:01.49	46.88	11.16	-41.1	-42.2	21.4	0.00e+00	0	41	0	333447168	54	6608
2026-01-23 12:18:02.49	47.04	11.20	-41.1	-42.3	21.4	0.00e+00	91	41	0	334495744	54	6619
2026-01-23 12:18:03.50	47.21	11.24	-41.2	-42.3	21.4	0.00e+00	0	41	0	336592896	54	6660
2026-01-23 12:18:04.51	47.37	11.29	-41.3	-42.4	21.3	0.00e+00	26	41	0	338690048	54	6764
2026-01-23 12:18:05.52	47.54	11.33	-41.4	-42.6	21.2	0.00e+00	0	41	0	340787200	54	6859
2026-01-23 12:18:06.53	47.71	11.37	-41.6	-42.8	21.0	0.00e+00	0	41	0	342884352	54	7067
2026-01-23 12:18:07.54	47.88	11.41	-41.8	-43.0	20.7	0.00e+00	20	41	0	343932928	56	6457
2026-01-23 12:18:08.54	48.05	11.45	-42.1	-43.3	20.6	0.00e+00	0	41	0	346030080	56	6682
2026-01-23 12:18:09.56	48.22	11.50	-42.2	-43.5	20.4	0.00e+00	18	41	0	348127232	56	6801
2026-01-23 12:18:10.57	48.39	11.54	-42.3	-43.7	20.3	0.00e+00	0	41	0	350224384	56	6946
2026-01-23 12:18:11.57	48.56	11.58	-42.1	-43.4	20.4	0.00e+00	90	41	0	352321536	56	6755
2026-01-23 12:18:12.58	48.73	11.62	-42.1	-43.4	20.6	0.00e+00	0	41	0	353370112	56	6710
2026-01-23 12:18:13.60	48.90	11.66	-42.1	-43.4	20.6	0.00e+00	0	41	0	355467264	56	6763
2026-01-23 12:18:14.60	49.07	11.70	-41.9	-43.1	20.7	0.00e+00	0	41	0	357564416	56	6514
2026-01-23 12:18:15.61	49.24	11.74	-42.0	-43.3	20.6	0.00e+00	0	41	0	359661568	56	6648
2026-01-23 12:18:16.62	49.42	11.78	-42.0	-43.3	20.7	0.00e+00	20	41	0	361758720	56	6646
2026-01-23 12:18:17.63	49.59	11.82	-42.2	-43.5	20.4	0.00e+00	0	41	0	362807296	56	6784
2026-01-23 12:18:18.64	49.76	11.86	-42.2	-43.5	20.4	0.00e+00	42	41	0	364904448	56	6805
2026-01-23 12:18:19.65	49.94	11.90	-42.1	-43.4	20.3	0.00e+00	0	41	0	367001600	56	6719
2026-01-23 12:18:20.66	50.11	11.94	-42.3	-43.6	20.3	0.00e+00	0	41	0	369098752	56	6886
2026-01-23 12:18:21.67	50.29	11.98	-42.2	-43.6	20.3	0.00e+00	0	41	0	371195904	56	6862
2026-01-23 12:18:22.68	50.46	12.02	-42.3	-43.6	20.4	0.00e+00	0	41	0	373293056	56	6911
2026-01-23 12:18:23.69	50.64	12.06	-42.3	-43.6	20.4	0.00e+00	54	41	0	374341632	56	6901
2026-01-23 12:18:24.70	50.82	12.10	-42.5	-43.9	20.1	0.00e+00	0	41	0	376438784	56	7121
2026-01-23 12:18:25.71	50.99	12.14	-42.4	-43.7	20.3	0.00e+00	92	41	0	378535936	56	6957
2026-01-23 12:18:26.72	51.17	12.18	-42.1	-43.4	20.4	0.00e+00	0	41	0	380633088	56	6738
2026-01-23 12:18:27.73	51.35	12.22	-42.4	-43.7	20.5	0.00e+00	0	41	0	382730240	56	6977
2026-01-23 12:18:28.74	51.53	12.25	-42.0	-43.2	20.7	0.00e+00	0	41	0	383778816	56	6587
2026-01-23 12:18:29.75	51.71	12.29	-42.0	-43.3	20.7	0.00e+00	0	41	0	385875968	56	6659
2026-01-23 12:18:30.76	51.89	12.33	-42.1	-43.4	20.5	0.00e+00	25	41	0	387973120	56	6733
2026-01-23 12:18:31.77	52.07	12.37	-42.1	-43.4	20.7	0.00e+00	0	41	0	390070272	56	6694
2026-01-23 12:18:32.78	52.25	12.41	-41.9	-43.1	20.8	0.00e+00	58	41	0	392167424	56	6489
2026-01-23 12:18:33.79	52.43	12.44	-41.9	-43.1	20.7	0.00e+00	0	41	0	393216000	56	6527
2026-01-23 12:18:34.79	52.61	12.48	-41.8	-43.0	21.0	0.00e+00	0	41	0	395313152	56	6426
2026-01-23 12:18:35.80	52.79	12.52	-42.0	-43.2	20.6	0.00e+00	0	41	0	397410304	56	6608
2026-01-23 12:18:36.81	52.97	12.55	-41.9	-43.1	20.7	0.00e+00	0	41	0	399507456	56	6512
2026-01-23 12:18:37.82	53.15	12.59	-41.9	-43.2	20.7	0.00e+00	25	41	0	401604608	56	6572
2026-01-23 12:18:38.83	53.33	12.63	-41.8	-43.1	20.8	0.00e+00	0	41	0	402653184	56	6472
2026-01-23 12:18:39.84	53.52	12.66	-42.0	-43.3	20.7	0.00e+00	35	41	0	404750336	56	6646
2026-01-23 12:18:40.85	53.70	12.70	-42.1	-43.3	20.6	0.00e+00	0	41	0	406847488	56	6687
2026-01-23 12:18:41.86	53.89	12.74	-42.3	-43.6	20.4	0.00e+00	27	41	0	408944640	56	6883
2026-01-23 12:18:42.87	54.07	12.77	-42.3	-43.6	20.4	0.00e+00	0	41	0	411041792	56	6889
2026-01-23 12:18:43.88	54.26	12.81	-42.1	-43.4	20.5	0.00e+00	0	41	0	412090368	56	6752
2026-01-23 12:18:44.89	54.44	12.84	-42.0	-43.2	20.6	0.00e+00	27	41	0	414187520	56	6611
2026-01-23 12:18:45.90	54.63	12.88	-41.8	-43.0	20.8	0.00e+00	0	41	0	416284672	56	6437
2026-01-23 12:18:46.91	54.81	12.91	-42.0	-43.3	20.6	0.00e+00	87	41	0	418381824	56	6668
2026-01-23 12:18:47.91	55.00	12.95	-41.8	-43.1	20.9	0.00e+00	0	41	0	420478976	56	6479
2026-01-23 12:18:48.92	55.19	12.98	-41.7	-43.0	21.0	0.00e+00	92	41	0	421527552	56	6398
2026-01-23 12:18:49.93	55.37	13.01	-41.7	-42.9	21.1	0.00e+00	0	41	0	423624704	56	6329
2026-01-23 12:18:50.94	55.56	13.05	-41.7	-43.0	20.9	0.00e+00	0	41	0	425721856	56	6406
2026-01-23 12:18:51.95	55.75	13.08	-41.6	-42.9	20.9	0.00e+00	0	41	0	427819008	56	6324
2026-01-23 12:18:52.96	55.94	13.11	-41.3	-42.4	21.3	0.00e+00	0	41	0	429916160	56	6015
2026-01-23 12:18:53.97	56.13	13.15	-41.4	-42.6	21.3	0.00e+00	64	41	0	430964736	56	6151
2026-01-23 12:18:54.98	56.32	13.18	-41.4	-42.6	21.2	0.00e+00	0	41	0	433061888	56	6150
2026-01-23 12:18:55.99	56.51	13.21	-40.9	-41.9	21.7	0.00e+00	92	41	0	435159040	56	5692
2026-01-23 12:18:57.00	56.70	13.25	-40.6	-41.7	22.0	0.00e+00	0	41	0	437256192	54	6210
2026-01-23 12:18:58.01	56.89	13.28	-40.3	-41.4	22.2	0.00e+00	0	41	0	439353344	54	5984
2026-01-23 12:18:59.02	57.08	13.31	-40.2	-41.2	22.3	0.00e+00	0	41	0	440401920	54	5875
2026-01-23 12:19:00.02	57.27	13.34	-40.2	-41.2	22.3	0.00e+00	0	41	0	442499072	54	5860
2026-01-23 12:19:01.03	57.46	13.37	-40.2	-41.3	22.3	0.00e+00	67	41	0	444596224	54	5907
2026-01-23 12:19:02.04	57.65	13.40	-40.4	-41.4	22.3	0.00e+00	0	41	0	446693376	54	6023
2026-01-23 12:19:03.05	57.85	13.43	-40.5	-41.5	22.1	0.00e+00	63	41	0	448790528	54	6060
2026-01-23 12:19:04.06	58.04	13.46	-40.3	-41.3	22.4	0.00e+00	0	41	0	449839104	54	5920
2026-01-23 12:19:05.07	58.23	13.49	-40.3	-41.4	22.2	0.00e+00	0	41	0	451936256	54	5979
2026-01-23 12:19:06.07	58.43	13.52	-40.5	-41.6	22.0	0.00e+00	0	41	0	454033408	54	6117
2026-01-23 12:19:07.09	58.62	13.55	-40.9	-42.0	21.2	0.00e+00	0	41	0	456130560	54	6448
2026-01-23 12:19:08.10	58.82	13.58	-40.6	-41.7	22.0	0.00e+00	16	41	0	458227712	54	6222
2026-01-23 12:19:09.11	59.01	13.61	-40.5	-41.6	22.0	0.00e+00	0	41	0	459276288	54	6119
2026-01-23 12:19:10.11	59.21	13.64	-40.2	-41.2	22.4	0.00e+00	89	41	0	461373440	54	5837
2026-01-23 12:19:11.12	59.40	13.67	-39.9	-40.8	22.7	0.00e+00	0	41	0	463470592	54	5628
2026-01-23 12:19:12.13	59.60	13.70	-39.7	-40.7	22.8	0.00e+00	0	41	0	465567744	54	5533
2026-01-23 12:19:13.14	59.80	13.73	-39.7	-40.6	22.9	0.00e+00	6	41	0	467664896	52	6154
2026-01-23 12:19:14.15	59.99	13.76	-39.9	-40.9	22.5	0.00e+00	0	41	0	469762048	52	6385
2026-01-23 12:19:15.16	60.19	13.78	-40.0	-41.0	22.5	0.00e+00	0	41	0	470810624	52	6461
2026-01-23 12:19:16.17	60.39	13.81	-40.3	-41.4	22.3	0.00e+00	28	41	0	472907776	52	6707
2026-01-23 12:19:17.18	60.59	13.84	-40.5	-41.5	22.1	0.00e+00	92	41	0	475004928	52	6826
2026-01-23 12:19:18.18	60.78	13.86	-40.5	-41.5	22.2	0.00e+00	0	41	0	477102080	52	6843
2026-01-23 12:19:19.19	60.98	13.89	-40.5	-41.6	22.2	0.00e+00	92	41	0	479199232	52	6859
2026-01-23 12:19:20.20	61.18	13.92	-40.3	-41.3	22.4	0.00e+00	0	41	0	480247808	52	6640
2026-01-23 12:19:21.21	61.38	13.94	-40.1	-41.1	22.3	0.00e+00	0	41	0	482344960	52	6467
2026-01-23 12:19:22.22	61.58	13.97	-39.9	-40.9	22.6	0.00e+00	5	41	0	484442112	52	6319
2026-01-23 12:19:23.23	61.78	13.99	-40.2	-41.3	22.3	0.00e+00	0	41	0	486539264	52	6625
2026-01-23 12:19:24.24	61.98	14.02	-40.5	-41.5	22.1	0.00e+00	92	41	0	488636416	52	6838
2026-01-23 12:19:25.25	62.18	14.04	-40.7	-41.8	21.9	0.00e+00	0	41	0	489684992	52	7022
2026-01-23 12:19:26.26	62.38	14.07	-41.2	-42.3	21.4	0.00e+00	48	41	0	491782144	54	6683
2026-01-23 12:19:27.27	62.59	14.09	-41.2	-42.3	21.5	0.00e+00	0	41	0	493879296	54	6661
2026-01-23 12:19:28.28	62.79	14.12	-40.9	-42.0	21.7	0.00e+00	0	41	0	495976448	54	6391
2026-01-23 12:19:29.29	62.99	14.14	-40.5	-41.6	22.0	0.00e+00	0	41	0	498073600	54	6135
2026-01-23 12:19:30.29	63.19	14.16	-40.5	-41.5	22.1	0.00e+00	0	41	0	499122176	54	6058
2026-01-23 12:19:31.31	63.39	14.19	-40.5	-41.6	22.0	0.00e+00	45	41	0	501219328	54	6131
2026-01-23 12:19:32.31	63.60	14.21	-40.8	-41.9	21.8	0.00e+00	0	41	0	503316480	54	6342
2026-01-23 12:19:33.33	63.80	14.23	-41.4	-42.6	21.2	0.00e+00	92	41	0	505413632	54	6876
2026-01-23 12:19:34.33	64.00	14.25	-42.0	-43.3	20.6	0.00e+00	0	41	0	507510784	56	6632
2026-01-23 12:19:35.34	64.21	14.27	-42.6	-44.0	19.9	0.00e+00	0	41	0	508559360	56	7187
2026-01-23 12:19:36.35	64.41	14.30	-42.6	-43.9	20.1	0.00e+00	0	41	0	510656512	56	7139
2026-01-23 12:19:37.36	64.62	14.32	-42.2	-43.5	20.5	0.00e+00	0	41	0	512753664	56	6816
2026-01-23 12:19:38.37	64.82	14.34	-41.6	-42.7	21.2	0.00e+00	29	41	0	514850816	56	6226
2026-01-23 12:19:39.38	65.03	14.36	-41.1	-42.2	21.7	0.00e+00	0	41	0	516947968	56	5867
2026-01-23 12:19:40.39	65.23	14.38	-40.8	-41.8	21.9	0.00e+00	90	41	0	517996544	56	5617
2026-01-23 12:19:41.40	65.44	14.40	-40.6	-41.6	22.0	0.00e+00	0	41	0	520093696	54	6152
2026-01-23 12:19:42.41	65.64	14.42	-40.5	-41.6	22.0	0.00e+00	83	41	0	522190848	54	6142
2026-01-23 12:19:43.42	65.85	14.44	-40.9	-42.0	21.8	0.00e+00	0	41	0	524288000	54	6403
2026-01-23 12:19:44.43	66.06	14.46	-41.1	-42.2	21.5	0.00e+00	0	41	0	526385152	54	6605
2026-01-23 12:19:45.43	66.26	14.47	-41.3	-42.5	21.4	0.00e+00	36	41	0	527433728	54	6793
2026-01-23 12:19:46.44	66.47	14.49	-41.2	-42.4	21.5	0.00e+00	0	41	0	529530880	54	6711
2026-01-23 12:19:47.45	66.68	14.51	-41.0	-42.2	21.5	0.00e+00	29	41	0	531628032	54	6540
2026-01-23 12:19:48.47	66.88	14.53	-40.6	-41.7	22.0	0.00e+00	0	41	0	533725184	54	6189
2026-01-23 12:19:49.47	67.09	14.54	-40.2	-41.3	22.4	0.00e+00	90	41	0	535822336	54	5905
2026-01-23 12:19:50.48	67.30	14.56	-40.0	-41.0	22.6	0.00e+00	0	41	0	537919488	54	5728
2026-01-23 12:19:51.49	67.51	14.58	-40.1	-41.2	22.4	0.00e+00	0	41	0	538968064	54	5840
2026-01-23 12:19:52.50	67.71	14.59	-40.2	-41.3	22.3	0.00e+00	0	41	0	541065216	54	5933
2026-01-23 12:19:53.51	67.92	14.61	-40.3	-41.4	22.2	0.00e+00	0	41	0	543162368	54	5996
2026-01-23 12:19:54.52	68.13	14.63	-40.4	-41.6	22.1	0.00e+00	92	41	0	545259520	54	6113
2026-01-23 12:19:55.53	68.34	14.64	-40.4	-41.5	22.2	0.00e+00	0	41	0	547356672	54	6075
2026-01-23 12:19:56.54	68.55	14.66	-40.2	-41.3	22.4	0.00e+00	92	41	0	548405248	54	5901
2026-01-23 12:19:57.55	68.76	14.67	-40.1	-41.1	22.5	0.00e+00	0	41	0	550502400	54	5799
2026-01-23 12:19:58.56	68.97	14.68	-39.7	-40.6	22.9	0.00e+00	0	41	0	552599552	52	6145
2026-01-23 12:19:59.57	69.18	14.70	-39.7	-40.7	22.9	0.00e+00	0	41	0	554696704	52	6218
2026-01-23 12:20:00.58	69.39	14.71	-39.9	-40.9	22.5	0.00e+00	0	41	0	556793856	52	6370
2026-01-23 12:20:01.59	69.60	14.72	-40.3	-41.3	22.4	0.00e+00	24	41	0	557842432	52	6650
2026-01-23 12:20:02.60	69.81	14.74	-40.5	-41.6	22.0	0.00e+00	0	41	0	559939584	52	6899
2026-01-23 12:20:03.61	70.02	14.75	-40.6	-41.7	22.1	0.00e+00	88	41	0	562036736	52	6931
2026-01-23 12:20:04.62	70.23	14.76	-40.6	-41.6	22.0	0.00e+00	0	41	0	564133888	52	6914
2026-01-23 12:20:05.63	70.44	14.77	-40.2	-41.2	22.4	0.00e+00	0	41	0	566231040	52	6595
2026-01-23 12:20:06.64	70.65	14.78	-39.9	-40.9	22.7	0.00e+00	0	41	0	567279616	52	6370
2026-01-23 12:20:07.65	70.87	14.79	-39.7	-40.7	22.8	0.00e+00	0	41	0	569376768	52	6192
2026-01-23 12:20:08.66	71.08	14.81	-39.7	-40.7	22.8	0.00e+00	53	41	0	571473920	52	6215
2026-01-23 12:20:09.67	71.29	14.82	-39.8	-40.8	22.7	0.00e+00	0	41	0	573571072	52	6290
2026-01-23 12:20:10.68	71.50	14.83	-40.2	-41.2	22.3	0.00e+00	92	41	0	575668224	52	6611
2026-01-23 12:20:11.69	71.71	14.84	-40.5	-41.6	22.1	0.00e+00	0	41	0	576716800	52	6881
2026-01-23 12:20:12.69	71.92	14.84	-40.6	-41.6	22.0	0.00e+00	0	41	0	578813952	52	6921
2026-01-23 12:20:13.70	72.13	14.85	-40.6	-41.7	22.0	0.00e+00	0	41	0	580911104	52	6985
2026-01-23 12:20:14.71	72.35	14.86	-40.6	-41.7	21.9	0.00e+00	0	41	0	583008256	54	6217
2026-01-23 12:20:15.72	72.56	14.87	-40.6	-41.7	21.9	0.00e+00	26	41	0	585105408	54	6194
2026-01-23 12:20:16.73	72.77	14.88	-40.6	-41.6	22.0	0.00e+00	0	41	0	586153984	54	6169
2026-01-23 12:20:17.74	72.98	14.88	-40.5	-41.5	21.9	0.00e+00	86	41	0	588251136	54	6099
2026-01-23 12:20:18.75	73.20	14.89	-40.5	-41.6	21.9	0.00e+00	0	41	0	590348288	54	6145
2026-01-23 12:20:19.76	73.41	14.90	-40.6	-41.7	21.9	0.00e+00	30	41	0	592445440	54	6194
2026-01-23 12:20:20.77	73.62	14.90	-40.5	-41.5	22.0	0.00e+00	0	41	0	594542592	54	6086
2026-01-23 12:20:21.78	73.84	14.91	-40.5	-41.5	22.2	0.00e+00	0	41	0	595591168	54	6099
2026-01-23 12:20:22.79	74.05	14.92	-40.3	-41.3	22.2	0.00e+00	0	41	0	597688320	54	5952
2026-01-23 12:20:23.80	74.26	14.92	-40.4	-41.4	22.2	0.00e+00	0	41	0	599785472	54	5993
2026-01-23 12:20:24.81	74.47	14.93	-40.4	-41.5	22.2	0.00e+00	77	41	0	601882624	54	6036
2026-01-23 12:20:25.82	74.69	14.93	-40.7	-41.8	22.0	0.00e+00	0	41	0	603979776	54	6267
2026-01-23 12:20:26.83	74.90	14.93	-41.0	-42.1	21.6	0.00e+00	92	41	0	606076928	54	6514
2026-01-23 12:20:27.83	75.11	14.94	-40.9	-42.0	21.7	0.00e+00	0	41	0	607125504	54	6438
2026-01-23 12:20:28.84	75.33	14.94	-40.7	-41.8	22.0	0.00e+00	0	41	0	609222656	54	6303
2026-01-23 12:20:29.85	75.54	14.94	-40.5	-41.6	22.1	0.00e+00	0	41	0	611319808	54	6136
2026-01-23 12:20:30.86	75.75	14.95	-40.2	-41.2	22.4	0.00e+00	0	41	0	613416960	54	5889
2026-01-23 12:20:31.87	75.97	14.95	-40.2	-41.2	22.4	0.00e+00	92	41	0	614465536	54	5872
2026-01-23 12:20:32.88	76.18	14.95	-40.1	-41.2	22.5	0.00e+00	0	41	0	616562688	54	5830
2026-01-23 12:20:33.89	76.39	14.95	-39.9	-40.9	22.7	0.00e+00	89	41	0	618659840	54	5664
2026-01-23 12:20:34.90	76.61	14.95	-40.1	-41.2	22.4	0.00e+00	0	41	0	620756992	54	5833
2026-01-23 12:20:35.91	76.82	14.95	-40.4	-41.4	22.2	0.00e+00	0	41	0	622854144	54	6015
2026-01-23 12:20:36.92	77.03	14.95	-40.4	-41.5	22.2	0.00e+00	0	41	0	624951296	54	6048
2026-01-23 12:20:37.93	77.25	14.95	-40.5	-41.5	22.2	0.00e+00	0	41	0	625999872	54	6077
2026-01-23 12:20:38.94	77.46	14.95	-40.2	-41.3	22.4	0.00e+00	27	41	0	628097024	54	5916
2026-01-23 12:20:39.95	77.68	14.95	-39.9	-40.9	22.7	0.00e+00	0	41	0	630194176	54	5673
2026-01-23 12:20:40.96	77.89	14.95	-39.6	-40.6	22.9	0.00e+00	91	41	0	632291328	52	6132
2026-01-23 12:20:41.97	78.10	14.95	-39.7	-40.7	22.8	0.00e+00	0	41	0	634388480	52	6214
2026-01-23 12:20:42.98	78.32	14.95	-39.7	-40.7	22.9	0.00e+00	0	41	0	635437056	52	6227
2026-01-23 12:20:43.99	78.53	14.95	-40.0	-41.0	22.6	0.00e+00	0	41	0	637534208	52	6440
2026-01-23 12:20:44.99	78.74	14.94	-40.2	-41.3	22.4	0.00e+00	0	41	0	639631360	52	6622
2026-01-23 12:20:46.00	78.96	14.94	-40.2	-41.3	22.3	0.00e+00	40	41	0	641728512	52	6622
2026-01-23 12:20:47.01	79.17	14.94	-40.0	-41.0	22.6	0.00e+00	0	41	0	643825664	52	6412
2026-01-23 12:20:48.02	79.38	14.93	-39.5	-40.5	22.9	0.00e+00	55	41	0	644874240	52	6082
2026-01-23 12:20:49.03	79.60	14.93	-39.4	-40.4	23.1	0.00e+00	0	41	0	646971392	52	5981
2026-01-23 12:20:50.04	79.81	14.92	-39.2	-40.1	23.3	0.00e+00	5	41	0	649068544	52	5823
2026-01-23 12:20:51.05	80.02	14.92	-39.1	-40.0	23.3	0.00e+00	0	41	0	651165696	52	5744
2026-01-23 12:20:52.06	80.24	14.91	-39.1	-40.0	23.3	0.00e+00	0	41	0	653262848	52	5736
2026-01-23 12:20:53.06	80.45	14.91	-39.2	-40.2	22.9	0.00e+00	57	41	0	654311424	52	5838
2026-01-23 12:20:54.07	80.66	14.90	-39.4	-40.3	22.6	0.00e+00	0	41	0	656408576	52	5928
2026-01-23 12:20:55.08	80.87	14.90	-39.6	-40.6	22.9	0.00e+00	92	41	0	658505728	52	6137
2026-01-23 12:20:56.09	81.09	14.89	-39.8	-40.8	22.7	0.00e+00	0	41	0	660602880	52	6251
2026-01-23 12:20:57.10	81.30	14.88	-39.9	-40.9	22.5	0.00e+00	92	41	0	662700032	52	6325
2026-01-23 12:20:58.11	81.51	14.88	-39.9	-40.9	22.7	0.00e+00	0	41	0	663748608	52	6356
2026-01-23 12:20:59.12	81.72	14.87	-40.0	-41.0	22.6	0.00e+00	0	41	0	665845760	52	6396
2026-01-23 12:21:00.13	81.94	14.86	-39.9	-40.9	22.6	0.00e+00	28	41	0	667942912	52	6349
2026-01-23 12:21:01.14	82.15	14.85	-39.9	-40.9	22.7	0.00e+00	0	41	0	670040064	52	6374
2026-01-23 12:21:02.14	82.36	14.84	-39.9	-40.8	22.7	0.00e+00	19	41	0	672137216	52	6315
2026-01-23 12:21:03.15	82.57	14.83	-39.6	-40.6	22.9	0.00e+00	10	41	0	673185792	52	6141
2026-01-23 12:21:04.17	82.78	14.82	-39.8	-40.7	22.8	0.00e+00	91	41	0	675282944	52	6236
2026-01-23 12:21:05.18	83.00	14.81	-39.9	-40.9	22.6	0.00e+00	0	41	0	677380096	52	6340
2026-01-23 12:21:06.19	83.21	14.80	-40.0	-41.0	22.6	0.00e+00	6	41	0	679477248	52	6415
2026-01-23 12:21:07.20	83.42	14.79	-39.9	-40.9	22.6	0.00e+00	0	41	0	681574400	52	6356
2026-01-23 12:21:08.21	83.63	14.78	-40.0	-41.0	22.6	0.00e+00	0	41	0	682622976	52	6402
2026-01-23 12:21:09.22	83.84	14.77	-40.1	-41.2	22.5	0.00e+00	79	41	0	684720128	52	6553
2026-01-23 12:21:10.22	84.05	14.76	-40.1	-41.2	22.5	0.00e+00	0	41	0	686817280	52	6580
2026-01-23 12:21:11.23	84.26	14.75	-40.2	-41.3	22.3	0.00e+00	92	41	0	688914432	52	6648
2026-01-23 12:21:12.25	84.48	14.73	-40.4	-41.5	22.2	0.00e+00	0	41	0	691011584	52	6799
2026-01-23 12:21:13.25	84.68	14.72	-40.2	-41.2	22.5	0.00e+00	0	41	0	692060160	52	6614
2026-01-23 12:21:14.27	84.90	14.71	-40.2	-41.2	22.4	0.00e+00	0	41	0	694157312	52	6612
2026-01-23 12:21:15.27	85.11	14.69	-40.1	-41.1	22.5	0.00e+00	0	41	0	696254464	52	6516
2026-01-23 12:21:16.28	85.32	14.68	-39.8	-40.9	22.7	0.00e+00	25	41	0	698351616	52	6327
2026-01-23 12:21:17.29	85.53	14.67	-39.8	-40.8	22.6	0.00e+00	0	41	0	700448768	52	6287
2026-01-23 12:21:18.30	85.74	14.65	-39.9	-41.0	22.6	0.00e+00	62	41	0	702545920	52	6403
2026-01-23 12:21:19.31	85.94	14.64	-39.6	-40.6	22.8	0.00e+00	0	41	0	703594496	52	6122
2026-01-23 12:21:20.32	86.15	14.62	-39.8	-40.8	22.8	0.00e+00	53	41	0	705691648	52	6286
2026-01-23 12:21:21.33	86.36	14.61	-39.5	-40.4	23.0	0.00e+00	0	41	0	707788800	52	6010
2026-01-23 12:21:22.34	86.57	14.59	-38.9	-39.8	23.5	0.00e+00	0	41	0	709885952	52	5600
2026-01-23 12:21:23.35	86.78	14.57	-38.9	-39.8	23.3	0.00e+00	25	41	0	711983104	50	6311
2026-01-23 12:21:24.36	86.99	14.56	-38.9	-39.8	23.4	0.00e+00	0	41	0	713031680	50	6290
2026-01-23 12:21:25.37	87.20	14.54	-38.8	-39.7	23.5	0.00e+00	76	41	0	715128832	50	6202
2026-01-23 12:21:26.37	87.40	14.52	-38.9	-39.8	23.3	0.00e+00	0	41	0	717225984	50	6304
2026-01-23 12:21:27.38	87.61	14.51	-39.0	-39.9	23.3	0.00e+00	0	41	0	719323136	50	6376
2026-01-23 12:21:28.38	87.82	14.49	-38.9	-39.8	23.5	0.00e+00	0	41	0	721420288	50	6308
2026-01-23 12:21:29.40	88.03	14.47	-38.9	-39.8	23.4	0.00e+00	0	41	0	722468864	50	6303
2026-01-23 12:21:30.40	88.23	14.45	-38.8	-39.6	23.6	0.00e+00	19	41	0	724566016	50	6169
2026-01-23 12:21:31.41	88.44	14.43	-38.5	-39.4	23.7	0.00e+00	0	41	0	726663168	50	6011
2026-01-23 12:21:32.42	88.64	14.41	-38.6	-39.5	23.6	0.00e+00	92	41	0	728760320	50	6071
2026-01-23 12:21:33.43	88.85	14.39	-38.8	-39.8	23.3	0.00e+00	0	41	0	730857472	50	6246
2026-01-23 12:21:34.44	89.06	14.37	-38.9	-39.8	23.5	0.00e+00	69	41	0	731906048	50	6293
2026-01-23 12:21:35.45	89.26	14.35	-39.2	-40.1	23.2	0.00e+00	0	41	0	734003200	50	6531
2026-01-23 12:21:36.46	89.47	14.33	-39.3	-40.3	23.0	0.00e+00	0	41	0	736100352	50	6649
2026-01-23 12:21:37.47	89.67	14.31	-39.4	-40.4	23.0	0.00e+00	0	41	0	738197504	50	6718
2026-01-23 12:21:38.48	89.88	14.29	-39.5	-40.4	23.0	0.00e+00	0	41	0	740294656	50	6768
2026-01-23 12:21:39.49	90.08	14.27	-39.7	-40.7	22.9	0.00e+00	92	41	0	741343232	50	6937
2026-01-23 12:21:40.50	90.29	14.25	-39.7	-40.6	22.9	0.00e+00	0	41	0	743440384	52	6170
2026-01-23 12:21:41.51	90.49	14.22	-39.8	-40.8	22.7	0.00e+00	87	41	0	745537536	52	6287
2026-01-23 12:21:42.51	90.69	14.20	-39.5	-40.5	22.9	0.00e+00	0	41	0	747634688	52	6089
2026-01-23 12:21:43.52	90.90	14.18	-39.7	-40.7	22.9	0.00e+00	0	41	0	749731840	52	6200
2026-01-23 12:21:44.53	91.10	14.16	-39.5	-40.5	23.0	0.00e+00	0	41	0	750780416	52	6057
2026-01-23 12:21:45.54	91.30	14.13	-39.6	-40.6	22.9	0.00e+00	0	41	0	752877568	52	6122
2026-01-23 12:21:46.55	91.51	14.11	-39.5	-40.5	23.0	0.00e+00	19	41	0	754974720	52	6042
2026-01-23 12:21:47.56	91.71	14.09	-39.3	-40.2	23.0	0.00e+00	0	41	0	757071872	52	5894
2026-01-23 12:21:48.57	91.91	14.06	-39.1	-40.1	23.3	0.00e+00	91	41	0	759169024	52	5791
2026-01-23 12:21:49.58	92.11	14.04	-38.9	-39.9	23.4	0.00e+00	0	41	0	760217600	52	5635
2026-01-23 12:21:50.59	92.31	14.01	-38.7	-39.6	23.6	0.00e+00	0	41	0	762314752	50	6140
2026-01-23 12:21:51.60	92.51	13.99	-38.6	-39.5	23.7	0.00e+00	0	41	0	764411904	50	6047
2026-01-23 12:21:52.61	92.71	13.96	-38.4	-39.3	23.9	0.00e+00	0	41	0	766509056	50	5923
2026-01-23 12:21:53.62	92.91	13.93	-38.2	-39.0	24.1	0.00e+00	79	41	0	768606208	50	5726
2026-01-23 12:21:54.63	93.11	13.91	-38.0	-38.9	24.2	0.00e+00	0	41	0	769654784	50	5631
2026-01-23 12:21:55.64	93.31	13.88	-38.1	-38.9	24.1	0.00e+00	92	41	0	771751936	50	5669
2026-01-23 12:21:56.65	93.51	13.86	-38.3	-39.1	24.0	0.00e+00	0	41	0	773849088	50	5815
2026-01-23 12:21:57.66	93.71	13.83	-38.5	-39.4	23.7	0.00e+00	9	41	0	775946240	50	5979
2026-01-23 12:21:58.67	93.91	13.80	-38.6	-39.5	23.7	0.00e+00	0	41	0	778043392	50	6051
2026-01-23 12:21:59.67	94.11	13.77	-38.7	-39.6	23.6	0.00e+00	0	41	0	780140544	50	6117
2026-01-23 12:22:00.67	94.30	13.75	-38.4	-39.3	23.8	0.00e+00	59	41	0	781189120	50	5925
2026-01-23 12:22:01.68	94.50	13.72	-38.4	-39.3	23.8	0.00e+00	0	41	0	783286272	50	5908
2026-01-23 12:22:02.69	94.70	13.69	-38.5	-39.4	23.6	0.00e+00	90	41	0	785383424	50	6002
2026-01-23 12:22:03.70	94.90	13.66	-38.9	-39.8	23.5	0.00e+00	0	41	0	787480576	50	6260
2026-01-23 12:22:04.71	95.09	13.63	-38.8	-39.7	23.5	0.00e+00	92	41	0	788529152	50	6210
2026-01-23 12:22:05.72	95.29	13.60	-39.1	-40.1	23.3	0.00e+00	0	41	0	790626304	50	6475
2026-01-23 12:22:06.73	95.48	13.57	-39.2	-40.1	23.3	0.00e+00	0	41	0	792723456	50	6503
2026-01-23 12:22:07.74	95.68	13.54	-39.1	-40.0	23.4	0.00e+00	0	41	0	794820608	50	6442
2026-01-23 12:22:08.75	95.87	13.51	-39.1	-40.0	23.3	0.00e+00	0	41	0	796917760	50	6422
2026-01-23 12:22:09.76	96.07	13.48	-38.9	-39.8	23.4	0.00e+00	90	41	0	799014912	50	6277
2026-01-23 12:22:10.76	96.26	13.45	-39.2	-40.1	23.4	0.00e+00	0	41	0	800063488	50	6503
2026-01-23 12:22:11.77	96.45	13.42	-38.9	-39.8	23.5	0.00e+00	89	41	0	802160640	50	6267
2026-01-23 12:22:12.78	96.65	13.39	-38.9	-39.8	23.5	0.00e+00	0	41	0	804257792	50	6247
2026-01-23 12:22:13.78	96.84	13.36	-38.9	-39.8	23.4	0.00e+00	0	41	0	806354944	50	6247
2026-01-23 12:22:14.79	97.03	13.33	-39.3	-40.2	23.1	0.00e+00	0	41	0	808452096	50	6569
2026-01-23 12:22:15.80	97.22	13.30	-39.6	-40.5	23.0	0.00e+00	0	41	0	809500672	50	6827
2026-01-23 12:22:16.81	97.42	13.26	-39.1	-40.0	23.3	0.00e+00	25	41	0	811597824	50	6438
2026-01-23 12:22:17.82	97.61	13.23	-39.0	-39.9	23.3	0.00e+00	0	41	0	813694976	50	6369
2026-01-23 12:22:18.83	97.80	13.20	-39.1	-40.0	23.2	0.00e+00	42	41	0	815792128	50	6413
2026-01-23 12:22:19.84	97.99	13.17	-38.9	-39.8	23.4	0.00e+00	0	41	0	817889280	50	6307
2026-01-23 12:22:20.85	98.18	13.13	-39.1	-40.1	23.2	0.00e+00	0	41	0	818937856	50	6476
2026-01-23 12:22:21.85	98.37	13.10	-39.2	-40.1	23.1	0.00e+00	0	41	0	821035008	50	6524
2026-01-23 12:22:22.86	98.56	13.07	-39.4	-40.4	23.0	0.00e+00	8	41	0	823132160	50	6700
2026-01-23 12:22:23.87	98.74	13.03	-39.4	-40.3	23.0	0.00e+00	25	41	0	825229312	50	6685
2026-01-23 12:22:24.88	98.93	13.00	-39.6	-40.5	22.8	0.00e+00	0	41	0	827326464	50	6841
2026-01-23 12:22:25.89	99.12	12.97	-39.7	-40.7	22.8	0.00e+00	92	41	0	828375040	50	6987
2026-01-23 12:22:26.90	99.31	12.93	-39.8	-40.8	22.7	0.00e+00	0	41	0	830472192	52	6280
2026-01-23 12:22:27.91	99.50	12.90	-39.9	-40.9	22.6	0.00e+00	0	41	0	832569344	52	6363
2026-01-23 12:22:28.92	99.68	12.86	-40.0	-41.0	22.4	0.00e+00	0	41	0	834666496	52	6437
2026-01-23 12:22:29.93	99.87	12.83	-40.4	-41.5	21.8	0.00e+00	0	41	0	836763648	52	6798
2026-01-23 12:22:30.94	100.06	12.79	-40.0	-41.0	22.3	0.00e+00	24	41	0	837812224	52	6450
2026-01-23 12:22:31.95	100.24	12.76	-40.2	-41.2	22.3	0.00e+00	0	41	0	839909376	52	6574
2026-01-23 12:22:32.95	100.42	12.72	-40.1	-41.2	22.3	0.00e+00	92	41	0	842006528	52	6548
2026-01-23 12:22:33.96	100.61	12.68	-40.2	-41.3	21.9	0.00e+00	0	41	0	844103680	52	6622
2026-01-23 12:22:34.98	100.79	12.65	-40.4	-41.4	22.0	0.00e+00	0	41	0	846200832	52	6753
2026-01-23 12:22:35.98	100.98	12.61	-40.4	-41.4	22.0	0.00e+00	0	41	0	847249408	52	6759
2026-01-23 12:22:36.99	101.16	12.57	-40.8	-41.9	21.7	0.00e+00	0	41	0	849346560	52	7129
2026-01-23 12:22:38.00	101.34	12.54	-41.0	-42.1	21.6	0.00e+00	0	41	0	851443712	54	6486
2026-01-23 12:22:39.01	101.53	12.50	-41.1	-42.3	21.5	0.00e+00	0	41	0	853540864	54	6650
2026-01-23 12:22:40.02	101.71	12.46	-41.0	-42.1	21.6	0.00e+00	92	41	0	855638016	54	6524
2026-01-23 12:22:41.03	101.89	12.43	-41.1	-42.2	21.5	0.00e+00	0	41	0	856686592	54	6593
2026-01-23 12:22:42.04	102.07	12.39	-40.9	-42.0	21.6	0.00e+00	92	41	0	858783744	54	6433
2026-01-23 12:22:43.05	102.25	12.35	-40.9	-42.0	21.6	0.00e+00	0	41	0	860880896	54	6462
2026-01-23 12:22:44.06	102.43	12.31	-41.1	-42.3	21.4	0.00e+00	0	41	0	862978048	54	6680
2026-01-23 12:22:45.07	102.61	12.27	-41.3	-42.6	21.1	0.00e+00	23	41	0	865075200	54	6864
2026-01-23 12:22:46.08	102.79	12.23	-41.4	-42.8	20.7	0.00e+00	0	41	0	866123776	54	7076
2026-01-23 12:22:47.09	102.97	12.20	-41.4	-42.8	20.9	0.00e+00	92	41	0	868220928	54	7059
2026-01-23 12:22:48.10	103.15	12.16	-41.3	-42.7	21.2	0.00e+00	0	41	0	870318080	54	6935
2026-01-23 12:22:49.11	103.33	12.12	-41.0	-42.4	21.3	0.00e+00	84	41	0	872415232	54	6697
2026-01-23 12:22:50.12	103.50	12.08	-40.9	-42.1	21.4	0.00e+00	21	41	0	874512384	54	6531
2026-01-23 12:22:51.13	103.68	12.04	-40.4	-41.5	22.0	0.00e+00	0	41	0	876609536	54	6057
2026-01-23 12:22:52.14	103.86	12.00	-40.2	-41.3	22.3	0.00e+00	0	41	0	877658112	54	5904
2026-01-23 12:22:53.15	104.03	11.96	-40.4	-41.5	22.1	0.00e+00	18	41	0	879755264	54	6052
2026-01-23 12:22:54.16	104.21	11.92	-40.3	-41.3	22.2	0.00e+00	20	41	0	881852416	54	5953
2026-01-23 12:22:55.17	104.38	11.88	-40.5	-41.5	21.9	0.00e+00	0	41	0	883949568	54	6074
2026-01-23 12:22:56.17	104.56	11.84	-40.7	-41.8	21.7	0.00e+00	77	41	0	886046720	54	6308
2026-01-23 12:22:57.19	104.73	11.80	-41.0	-42.2	21.4	0.00e+00	0	41	0	887095296	54	6554
2026-01-23 12:22:58.19	104.91	11.76	-41.3	-42.5	21.2	0.00e+00	0	41	0	889192448	54	6821
2026-01-23 12:22:59.20	105.08	11.72	-41.5	-42.8	20.9	0.00e+00	0	41	0	891289600	54	7009
2026-01-23 12:23:00.21	105.25	11.68	-41.8	-43.1	20.7	0.00e+00	11	41	0	893386752	56	6473
2026-01-23 12:23:01.22	105.42	11.64	-42.2	-43.5	20.3	0.00e+00	24	41	0	895483904	56	6804
2026-01-23 12:23:02.23	105.60	11.59	-42.1	-43.4	20.4	0.00e+00	0	41	0	896532480	56	6704
2026-01-23 12:23:03.24	105.77	11.55	-41.9	-43.2	20.5	0.00e+00	92	41	0	898629632	56	6605
2026-01-23 12:23:04.25	105.94	11.51	-42.2	-43.5	20.3	0.00e+00	0	41	0	900726784	56	6837
2026-01-23 12:23:05.26	106.11	11.47	-42.1	-43.5	20.3	0.00e+00	0	41	0	902823936	56	6803
2026-01-23 12:23:06.27	106.28	11.43	-41.8	-43.1	20.5	0.00e+00	0	41	0	904921088	56	6516
2026-01-23 12:23:07.28	106.45	11.39	-41.9	-43.3	20.5	0.00e+00	0	41	0	905969664	56	6617
2026-01-23 12:23:08.29	106.62	11.34	-41.6	-42.8	20.9	0.00e+00	24	41	0	908066816	56	6283
2026-01-23 12:23:09.30	106.79	11.30	-41.3	-42.5	21.2	0.00e+00	0	41	0	910163968	56	6073
2026-01-23 12:23:10.31	106.95	11.26	-41.1	-42.3	21.3	0.00e+00	91	41	0	912261120	56	5958
2026-01-23 12:23:11.32	107.12	11.22	-41.0	-42.2	21.5	0.00e+00	0	41	0	914358272	56	5875
2026-01-23 12:23:12.33	107.29	11.17	-41.1	-42.3	21.4	0.00e+00	0	41	0	915406848	56	5938
2026-01-23 12:23:13.33	107.46	11.13	-41.0	-42.2	21.4	0.00e+00	0	41	0	917504000	56	5861
2026-01-23 12:23:14.34	107.62	11.09	-41.2	-42.4	21.2	0.00e+00	0	41	0	919601152	56	6028
2026-01-23 12:23:15.35	107.79	11.04	-41.2	-42.4	21.2	0.00e+00	0	41	0	921698304	56	5995
2026-01-23 12:23:16.36	107.95	11.00	-41.5	-42.7	21.0	0.00e+00	0	41	0	923795456	56	6201
2026-01-23 12:23:17.37	108.12	10.96	-41.4	-42.5	21.1	0.00e+00	56	41	0	924844032	56	6092
2026-01-23 12:23:18.38	108.28	10.91	-41.3	-42.4	21.2	0.00e+00	0	41	0	926941184	56	6026
2026-01-23 12:23:19.39	108.45	10.87	-41.3	-42.5	21.1	0.00e+00	92	41	0	929038336	56	6043
2026-01-23 12:23:20.40	108.61	10.83	-40.8	-41.9	21.5	0.00e+00	0	41	0	931135488	54	6358
2026-01-23 12:23:21.41	108.77	10.78	-40.7	-41.8	21.7	0.00e+00	0	41	0	933232640	54	6297
2026-01-23 12:23:22.42	108.94	10.74	-40.9	-42.0	21.5	0.00e+00	0	41	0	934281216	54	6453
2026-01-23 12:23:23.43	109.10	10.69	-41.0	-42.2	21.3	0.00e+00	0	41	0	936378368	54	6570
2026-01-23 12:23:24.44	109.26	10.65	-41.1	-42.3	21.3	0.00e+00	92	41	0	938475520	54	6633
2026-01-23 12:23:25.45	109.42	10.60	-41.3	-42.5	21.0	0.00e+00	0	41	0	940572672	54	6822
2026-01-23 12:23:26.46	109.58	10.56	-41.6	-42.9	20.8	0.00e+00	50	41	0	942669824	54	7098
2026-01-23 12:23:27.47	109.74	10.52	-41.7	-43.1	20.7	0.00e+00	0	41	0	943718400	54	7255
2026-01-23 12:23:28.47	109.90	10.47	-41.8	-43.1	20.6	0.00e+00	0	41	0	945815552	56	6517
2026-01-23 12:23:29.48	110.06	10.43	-41.7	-43.0	20.7	0.00e+00	0	41	0	947912704	56	6402
2026-01-23 12:23:30.49	110.22	10.38	-41.8	-43.1	20.7	0.00e+00	0	41	0	950009856	56	6468
2026-01-23 12:23:31.50	110.38	10.34	-41.9	-43.1	20.6	0.00e+00	18	41	0	952107008	56	6530
2026-01-23 12:23:32.51	110.53	10.29	-41.6	-42.8	20.9	0.00e+00	0	41	0	953155584	56	6309
2026-01-23 12:23:33.52	110.69	10.24	-41.4	-42.6	21.0	0.00e+00	91	41	0	955252736	56	6172
2026-01-23 12:23:34.53	110.85	10.20	-41.2	-42.4	21.2	0.00e+00	0	41	0	957349888	56	6033
2026-01-23 12:23:35.54	111.00	10.15	-40.9	-42.2	21.5	0.00e+00	0	41	0	959447040	56	5840
2026-01-23 12:23:36.55	111.16	10.11	-41.0	-42.2	21.4	0.00e+00	0	41	0	961544192	56	5875
2026-01-23 12:23:37.56	111.32	10.06	-40.8	-42.0	21.6	0.00e+00	0	41	0	962592768	56	5748
2026-01-23 12:23:38.57	111.47	10.02	-41.0	-42.2	21.4	0.00e+00	17	41	0	964689920	56	5830
2026-01-23 12:23:39.58	111.62	9.97	-40.7	-41.9	21.7	0.00e+00	0	41	0	966787072	56	5657
2026-01-23 12:23:40.59	111.78	9.92	-40.6	-41.7	21.8	0.00e+00	92	41	0	968884224	54	6207
2026-01-23 12:23:41.60	111.93	9.88	-40.6	-41.8	21.7	0.00e+00	0	41	0	970981376	54	6267
2026-01-23 12:23:42.61	112.09	9.83	-40.5	-41.7	21.8	0.00e+00	87	41	0	973078528	54	6183
2026-01-23 12:23:43.62	112.24	9.79	-40.6	-41.7	21.8	0.00e+00	0	41	0	974127104	54	6197
2026-01-23 12:23:44.63	112.39	9.74	-40.6	-41.7	21.8	0.00e+00	0	41	0	976224256	54	6206
2026-01-23 12:23:45.64	112.54	9.69	-40.6	-41.7	21.6	0.00e+00	45	41	0	978321408	54	6193
2026-01-23 12:23:46.64	112.69	9.65	-40.6	-41.7	21.7	0.00e+00	0	41	0	980418560	54	6237
2026-01-23 12:23:47.65	112.84	9.60	-40.7	-41.8	21.6	0.00e+00	29	41	0	982515712	54	6278
2026-01-23 12:23:48.66	112.99	9.55	-40.7	-41.8	21.6	0.00e+00	0	41	0	983564288	54	6308
2026-01-23 12:23:49.67	113.14	9.51	-40.6	-41.7	21.8	0.00e+00	6	41	0	985661440	54	6232
2026-01-23 12:23:50.68	113.29	9.46	-40.5	-41.6	21.8	0.00e+00	0	41	0	987758592	54	6169
2026-01-23 12:23:51.69	113.44	9.41	-40.6	-41.8	21.7	0.00e+00	0	41	0	989855744	54	6258
2026-01-23 12:23:52.71	113.59	9.36	-40.5	-41.6	21.8	0.00e+00	21	41	0	991952896	54	6139
2026-01-23 12:23:53.71	113.74	9.32	-40.4	-41.6	21.9	0.00e+00	0	41	0	993001472	54	6130
2026-01-23 12:23:54.72	113.89	9.27	-40.4	-41.5	21.9	0.00e+00	90	41	0	995098624	54	6093
2026-01-23 12:23:55.73	114.03	9.22	-40.4	-41.5	21.9	0.00e+00	0	41	0	997195776	54	6084
2026-01-23 12:23:56.74	114.18	9.18	-40.5	-41.6	21.7	0.00e+00	92	41	0	999292928	54	6151
2026-01-23 12:23:57.75	114.33	9.13	-40.5	-41.6	21.9	0.00e+00	0	41	0	1001390080	54	6117
2026-01-23 12:23:58.76	114.47	9.08	-40.5	-41.6	21.8	0.00e+00	0	41	0	1002438656	54	6134
2026-01-23 12:23:59.77	114.62	9.03	-40.4	-41.5	21.8	0.00e+00	0	41	0	1004535808	54	6092
2026-01-23 12:24:00.78	114.76	8.98	-40.5	-41.6	21.8	0.00e+00	0	41	0	1006632960	54	6147
2026-01-23 12:24:01.79	114.91	8.94	-40.8	-41.9	21.5	0.00e+00	59	41	0	1008730112	54	6385
2026-01-23 12:24:02.79	115.05	8.89	-40.6	-41.7	21.7	0.00e+00	0	41	0	1010827264	54	6195
2026-01-23 12:24:03.80	115.19	8.84	-40.9	-42.1	21.5	0.00e+00	92	41	0	1011875840	54	6478
2026-01-23 12:24:04.81	115.33	8.79	-40.9	-42.0	21.4	0.00e+00	0	41	0	1013972992	54	6462
2026-01-23 12:24:05.82	115.48	8.75	-40.1	-41.2	22.1	0.00e+00	0	41	0	1016070144	54	5855
2026-01-23 12:24:06.83	115.62	8.70	-40.3	-41.4	22.0	0.00e+00	0	41	0	1018167296	54	5975
2026-01-23 12:24:07.84	115.76	8.65	-40.1	-41.1	22.2	0.00e+00	0	41	0	1020264448	54	5797
2026-01-23 12:24:08.85	115.90	8.60	-40.1	-41.1	22.1	0.00e+00	22	41	0	1021313024	54	5827
2026-01-23 12:24:09.86	116.04	8.55	-40.1	-41.2	22.2	0.00e+00	0	41	0	1023410176	54	5839
2026-01-23 12:24:10.87	116.18	8.50	-40.0	-41.0	22.2	0.00e+00	39	41	0	1025507328	54	5760
2026-01-23 12:24:11.88	116.32	8.46	-40.2	-41.3	22.1	0.00e+00	0	41	0	1027604480	54	5906
2026-01-23 12:24:12.89	116.46	8.41	-40.2	-41.3	22.1	0.00e+00	0	41	0	1029701632	54	5932
2026-01-23 12:24:13.89	116.60	8.36	-40.3	-41.4	22.0	0.00e+00	0	41	0	1030750208	54	5966
2026-01-23 12:24:14.90	116.74	8.31	-40.5	-41.6	21.9	0.00e+00	0	41	0	1032847360	54	6113
2026-01-23 12:24:15.91	116.88	8.26	-40.4	-41.5	21.9	0.00e+00	0	41	0	1034944512	54	6040
2026-01-23 12:24:16.92	117.01	8.21	-40.5	-41.6	21.8	0.00e+00	0	41	0	1037041664	54	6163
2026-01-23 12:24:17.93	117.15	8.17	-40.6	-41.8	21.6	0.00e+00	80	41	0	1039138816	54	6270
2026-01-23 12:24:18.94	117.29	8.12	-40.5	-41.6	21.7	0.00e+00	0	41	0	1041235968	54	6149
2026-01-23 12:24:19.95	117.42	8.07	-40.8	-41.9	21.5	0.00e+00	21	41	0	1042284544	54	6389
2026-01-23 12:24:20.96	117.56	8.02	-40.7	-41.8	21.5	0.00e+00	0	41	0	1044381696	54	6295
2026-01-23 12:24:21.97	117.70	7.97	-40.6	-41.7	21.6	0.00e+00	0	41	0	1046478848	54	6242
2026-01-23 12:24:22.98	117.83	7.92	-40.7	-41.9	21.5	0.00e+00	0	41	0	1048576000	54	6330
2026-01-23 12:24:23.99	117.97	7.87	-41.0	-42.1	21.2	0.00e+00	0	41	0	1050673152	54	6539
2026-01-23 12:24:25.00	118.10	7.82	-40.8	-42.0	21.4	0.00e+00	31	41	0	1051721728	54	6405
2026-01-23 12:24:26.01	118.23	7.77	-40.7	-41.9	21.3	0.00e+00	0	41	0	1053818880	54	6366
2026-01-23 12:24:27.02	118.37	7.73	-41.0	-42.2	21.2	0.00e+00	65	41	0	1055916032	54	6599
2026-01-23 12:24:28.03	118.50	7.68	-40.8	-42.0	21.4	0.00e+00	0	41	0	1058013184	54	6413
2026-01-23 12:24:29.04	118.63	7.63	-40.9	-42.1	21.2	0.00e+00	0	41	0	1060110336	54	6500
2026-01-23 12:24:30.05	118.76	7.58	-40.7	-41.9	21.5	0.00e+00	0	41	0	1061158912	54	6324
2026-01-23 12:24:31.06	118.90	7.53	-40.6	-41.7	21.5	0.00e+00	0	41	0	1063256064	54	6236
2026-01-23 12:24:32.07	119.03	7.48	-40.7	-41.9	21.5	0.00e+00	90	41	0	1065353216	54	6347
2026-01-23 12:24:33.08	119.16	7.43	-40.6	-41.7	21.7	0.00e+00	0	41	0	1067450368	54	6238
2026-01-23 12:24:34.09	119.29	7.38	-40.4	-41.5	21.7	0.00e+00	89	41	0	1069547520	54	6040
2026-01-23 12:24:35.10	119.42	7.33	-40.7	-41.8	21.6	0.00e+00	0	41	0	1070596096	54	6276
2026-01-23 12:24:36.11	119.55	7.28	-40.6	-41.7	21.6	0.00e+00	0	41	0	1072693248	54	6235
2026-01-23 12:24:37.11	119.67	7.23	-40.6	-41.7	21.4	0.00e+00	0	41	0	1074790400	54	6226
2026-01-23 12:24:38.13	119.80	7.18	-40.8	-42.0	21.4	0.00e+00	17	41	0	1076887552	54	6391
2026-01-23 12:24:39.14	119.93	7.13	-40.9	-42.0	21.3	0.00e+00	16	41	0	1078984704	54	6436
2026-01-23 12:24:40.15	120.06	7.08	-41.0	-42.2	21.2	0.00e+00	19	41	0	1080033280	54	6543
2026-01-23 12:24:41.16	120.19	7.04	-41.0	-42.1	21.2	0.00e+00	90	41	0	1082130432	54	6529
2026-01-23 12:24:42.17	120.31	6.99	-41.1	-42.3	21.1	0.00e+00	0	41	0	1084227584	54	6669
2026-01-23 12:24:43.18	120.44	6.94	-41.1	-42.3	21.0	0.00e+00	0	41	0	1086324736	54	6682
2026-01-23 12:24:44.19	120.57	6.89	-41.2	-42.4	20.9	0.00e+00	0	41	0	1088421888	54	6697
2026-01-23 12:24:45.19	120.69	6.84	-41.3	-42.5	20.8	0.00e+00	0	41	0	1089470464	54	6844
2026-01-23 12:24:46.21	120.82	6.79	-41.2	-42.4	20.9	0.00e+00	40	41	0	1091567616	54	6724
2026-01-23 12:24:47.21	120.94	6.74	-41.1	-42.3	21.0	0.00e+00	0	41	0	1093664768	54	6665
2026-01-23 12:24:48.22	121.07	6.69	-41.0	-42.2	21.2	0.00e+00	92	41	0	1095761920	54	6577
2026-01-23 12:24:49.24	121.19	6.64	-41.0	-42.1	21.2	0.00e+00	0	41	0	1097859072	54	6514
2026-01-23 12:24:50.25	121.32	6.59	-40.9	-42.1	21.1	0.00e+00	0	41	0	1098907648	54	6515
2026-01-23 12:24:51.26	121.44	6.54	-41.2	-42.4	20.8	0.00e+00	0	41	0	1101004800	54	6726
2026-01-23 12:24:52.27	121.56	6.49	-41.4	-42.7	20.6	0.00e+00	0	41	0	1103101952	54	6978
2026-01-23 12:24:53.27	121.68	6.44	-41.8	-43.1	20.2	0.00e+00	36	41	0	1105199104	54	7277
2026-01-23 12:24:54.28	121.80	6.39	-41.8	-43.1	20.2	0.00e+00	0	41	0	1107296256	56	6498
2026-01-23 12:24:55.29	121.93	6.34	-41.9	-43.2	20.2	0.00e+00	91	41	0	1109393408	56	6575
2026-01-23 12:24:56.30	122.05	6.29	-42.5	-44.0	19.7	0.00e+00	0	41	0	1110441984	56	7209
2026-01-23 12:24:57.31	122.17	6.24	-42.4	-43.8	19.7	0.00e+00	92	41	0	1112539136	56	7066
2026-01-23 12:24:58.32	122.29	6.19	-42.7	-44.2	19.2	0.00e+00	0	41	0	1114636288	58	6591
2026-01-23 12:24:59.33	122.41	6.14	-42.8	-44.3	19.1	0.00e+00	0	41	0	1116733440	58	6667
2026-01-23 12:25:00.34	122.53	6.09	-42.5	-44.1	19.4	0.00e+00	21	41	0	1118830592	58	6474
2026-01-23 12:25:01.35	122.65	6.04	-42.1	-43.5	19.9	0.00e+00	0	41	0	1119879168	58	6077
2026-01-23 12:25:02.36	122.77	5.99	-42.3	-43.8	19.6	0.00e+00	92	41	0	1121976320	58	6305
2026-01-23 12:25:03.37	122.89	5.94	-41.8	-43.2	20.1	0.00e+00	0	41	0	1124073472	58	5865
2026-01-23 12:25:04.38	123.00	5.89	-42.1	-43.5	19.9	0.00e+00	88	41	0	1126170624	58	6058
2026-01-23 12:25:05.39	123.12	5.84	-42.1	-43.5	19.9	0.00e+00	0	41	0	1128267776	58	6065
2026-01-23 12:25:06.40	123.24	5.79	-42.1	-43.5	19.9	0.00e+00	0	41	0	1129316352	58	6089
2026-01-23 12:25:07.41	123.36	5.74	-42.4	-44.0	19.4	0.00e+00	0	41	0	1131413504	58	6409
2026-01-23 12:25:08.41	123.47	5.70	-42.6	-44.2	19.3	0.00e+00	0	41	0	1133510656	58	6548
2026-01-23 12:25:09.42	123.59	5.65	-42.5	-44.0	19.4	0.00e+00	23	41	0	1135607808	58	6410
2026-01-23 12:25:10.43	123.70	5.60	-42.5	-44.0	19.4	0.00e+00	0	41	0	1137704960	58	6458
2026-01-23 12:25:11.44	123.82	5.55	-42.5	-44.0	19.5	0.00e+00	39	41	0	1138753536	58	6439
2026-01-23 12:25:12.45	123.93	5.50	-42.5	-44.0	19.5	0.00e+00	0	41	0	1140850688	58	6407
2026-01-23 12:25:13.47	124.05	5.45	-42.5	-44.0	19.4	0.00e+00	0	41	0	1142947840	58	6414
2026-01-23 12:25:14.47	124.16	5.40	-42.5	-44.0	19.4	0.00e+00	0	41	0	1145044992	58	6428
2026-01-23 12:25:15.48	124.28	5.35	-42.2	-43.7	19.7	0.00e+00	0	41	0	1147142144	58	6204
2026-01-23 12:25:16.49	124.39	5.30	-41.9	-43.3	20.0	0.00e+00	16	41	0	1148190720	58	5931
2026-01-23 12:25:17.50	124.50	5.25	-41.7	-43.1	20.2	0.00e+00	0	41	0	1150287872	58	5794
2026-01-23 12:25:18.51	124.62	5.20	-41.9	-43.3	20.1	0.00e+00	90	41	0	1152385024	56	6657
2026-01-23 12:25:19.52	124.73	5.15	-42.0	-43.4	20.0	0.00e+00	0	41	0	1154482176	56	6716
2026-01-23 12:25:20.53	124.84	5.10	-41.9	-43.3	20.0	0.00e+00	0	41	0	1156579328	56	6629
2026-01-23 12:25:21.54	124.95	5.05	-42.0	-43.4	19.9	0.00e+00	0	41	0	1157627904	56	6743
2026-01-23 12:25:22.55	125.06	5.00	-42.4	-43.8	19.5	0.00e+00	0	41	0	1159725056	56	7058
2026-01-23 12:25:23.55	125.17	4.95	-42.6	-44.1	19.1	0.00e+00	15	41	0	1161822208	56	7314
2026-01-23 12:25:24.56	125.28	4.90	-42.6	-44.1	19.1	0.00e+00	0	41	0	1163919360	58	6486
2026-01-23 12:25:25.58	125.40	4.85	-42.9	-44.6	18.8	0.00e+00	72	41	0	1166016512	58	6881
2026-01-23 12:25:26.59	125.50	4.80	-43.4	-45.2	18.3	0.00e+00	0	41	0	1167065088	58	7383
2026-01-23 12:25:27.59	125.61	4.75	-43.2	-44.9	18.2	0.00e+00	49	41	0	1169162240	58	7164
2026-01-23 12:25:28.60	125.72	4.70	-43.7	-45.6	17.7	0.00e+00	0	41	0	1171259392	58	7729
2026-01-23 12:25:29.61	125.83	4.65	-43.6	-45.5	17.8	0.00e+00	0	41	0	1173356544	60	6797
2026-01-23 12:25:30.62	125.94	4.60	-44.1	-46.2	17.4	0.00e+00	0	41	0	1175453696	60	7383
2026-01-23 12:25:31.63	126.05	4.55	-43.9	-45.8	17.4	0.00e+00	0	41	0	1177550848	60	7045
2026-01-23 12:25:32.64	126.16	4.50	-43.4	-45.1	18.2	0.00e+00	36	41	0	1178599424	60	6529
2026-01-23 12:25:33.65	126.26	4.45	-43.4	-45.2	18.1	0.00e+00	0	41	0	1180696576	60	6554
2026-01-23 12:25:34.66	126.37	4.40	-43.3	-45.1	18.3	0.00e+00	90	41	0	1182793728	60	6476
2026-01-23 12:25:35.67	126.48	4.35	-43.0	-44.7	18.6	0.00e+00	0	41	0	1184890880	60	6207
2026-01-23 12:25:36.68	126.58	4.30	-43.0	-44.6	18.7	0.00e+00	0	41	0	1186988032	60	6147
2026-01-23 12:25:37.69	126.69	4.25	-43.3	-45.0	18.3	0.00e+00	13	41	0	1188036608	60	6432
2026-01-23 12:25:38.70	126.80	4.20	-43.3	-45.0	18.5	0.00e+00	0	41	0	1190133760	60	6456
2026-01-23 12:25:39.70	126.90	4.15	-43.7	-45.6	17.8	0.00e+00	37	41	0	1192230912	60	6849
2026-01-23 12:25:40.72	127.01	4.10	-43.2	-44.9	18.3	0.00e+00	0	41	0	1194328064	60	6355
2026-01-23 12:25:41.73	127.11	4.05	-43.1	-44.8	18.5	0.00e+00	91	41	0	1196425216	60	6279
2026-01-23 12:25:42.74	127.21	4.00	-43.3	-45.1	18.2	0.00e+00	0	41	0	1197473792	60	6487
2026-01-23 12:25:43.74	127.32	3.96	-43.2	-45.0	18.4	0.00e+00	0	41	0	1199570944	60	6408
2026-01-23 12:25:44.75	127.42	3.91	-43.4	-45.3	18.1	0.00e+00	0	41	0	1201668096	60	6633
2026-01-23 12:25:45.76	127.52	3.86	-43.3	-45.1	18.3	0.00e+00	0	41	0	1203765248	60	6486
2026-01-23 12:25:46.77	127.63	3.81	-42.9	-44.6	18.7	0.00e+00	88	41	0	1205862400	60	6120
2026-01-23 12:25:47.78	127.73	3.76	-42.9	-44.5	18.6	0.00e+00	0	41	0	1206910976	58	6846
2026-01-23 12:25:48.79	127.83	3.71	-42.6	-44.2	18.9	0.00e+00	92	41	0	1209008128	58	6589
