passes_logs/2026/01/23/R4.6S_Anadyr/R4.6S_Anadyr__20260123_123440_NOAA_20_JPSS-1_rec.log

#Pass ID: 20260123_123440_NOAA 20 (JPSS-1)
#Satellite: NOAA 20 (JPSS-1)
#Configuration: NOAA 20
#almurnet v.1.7.20251203
#Start time: 2026-01-23 12:34:43

#Version: 2.2.20231116
#Station: R4.6S_Anadyr
#Location: 177.4865 lon 64.73178 lat
#TLE: 1 43013U 17073A   26022.44900781  .00000193  00000+0  11233-3 0  9999
#TLE: 2 43013  98.7645 323.3100 0001197  28.8413 331.2829 14.19538802423792

#Time	Az	El	Level	Level2	SNR	BER	BlckErr	Temp	State	Recorded	gain1	gain2
2026-01-23 12:34:43.86	19.07	0.17	-50.6	-64.4	3.3	1.54e+00	0	39	0	0	60	60129
2026-01-23 12:34:44.86	19.14	0.22	-50.7	-65.9	3.6	1.51e+00	0	39	104	0	60	71606
2026-01-23 12:34:45.87	19.20	0.28	-50.7	-65.9	3.6	1.51e+00	0	39	104	0	60	71527
2026-01-23 12:34:46.88	19.27	0.33	-50.7	-65.9	3.6	1.51e+00	0	39	104	0	60	71129
2026-01-23 12:34:47.89	19.34	0.38	-50.7	-65.9	3.6	1.51e+00	0	39	104	0	60	71437
2026-01-23 12:34:48.90	19.41	0.43	-50.7	-65.9	3.6	1.51e+00	0	40	104	0	60	71579
2026-01-23 12:34:49.91	19.48	0.48	-50.7	-65.9	3.6	1.51e+00	0	39	104	0	60	71629
2026-01-23 12:34:50.92	19.55	0.53	-50.7	-66.0	3.5	1.51e+00	0	40	104	0	60	71900
2026-01-23 12:34:51.93	19.63	0.58	-50.7	-65.9	3.6	1.51e+00	0	39	104	0	60	71510
2026-01-23 12:34:52.94	19.70	0.64	-50.6	-65.9	3.6	1.51e+00	0	40	104	0	60	71237
2026-01-23 12:34:53.95	19.77	0.69	-50.6	-65.8	3.6	1.51e+00	0	40	104	0	60	70512
2026-01-23 12:34:54.96	19.84	0.74	-50.6	-65.8	3.6	1.51e+00	0	39	104	0	60	70549
2026-01-23 12:34:55.97	19.91	0.79	-50.5	-65.7	3.6	1.51e+00	0	40	104	0	60	70038
2026-01-23 12:34:56.98	19.98	0.84	-50.4	-65.6	3.6	1.51e+00	0	40	104	0	60	68812
2026-01-23 12:34:57.99	20.05	0.89	-50.3	-65.5	3.6	1.51e+00	0	40	104	0	60	68158
2026-01-23 12:34:59.00	20.13	0.95	-50.2	-65.5	3.6	1.51e+00	0	40	104	0	60	67716
2026-01-23 12:35:00.01	20.20	1.00	-50.1	-65.4	3.6	1.51e+00	0	40	104	0	60	67052
2026-01-23 12:35:01.02	20.27	1.05	-50.0	-65.3	3.6	1.51e+00	0	40	104	0	60	66507
2026-01-23 12:35:02.03	20.35	1.10	-49.9	-65.2	3.6	1.51e+00	0	40	104	0	60	65592
2026-01-23 12:35:03.04	20.42	1.16	-49.8	-65.0	3.6	1.51e+00	0	40	104	0	60	64309
2026-01-23 12:35:04.05	20.49	1.21	-49.5	-64.8	3.6	1.51e+00	0	40	104	0	60	62605
2026-01-23 12:35:05.06	20.57	1.26	-49.3	-64.4	3.6	1.51e+00	0	40	104	0	60	60307
2026-01-23 12:35:06.07	20.64	1.31	-49.1	-64.3	3.6	1.51e+00	0	40	104	0	60	59336
2026-01-23 12:35:07.08	20.71	1.36	-49.1	-64.3	3.6	1.51e+00	0	40	104	0	60	59512
2026-01-23 12:35:08.09	20.79	1.42	-49.1	-64.3	3.6	1.51e+00	0	40	104	0	60	59510
2026-01-23 12:35:09.10	20.86	1.47	-49.1	-64.3	3.6	1.51e+00	0	40	104	0	60	59371
2026-01-23 12:35:10.11	20.94	1.52	-49.1	-64.3	3.5	1.51e+00	0	40	104	0	60	59205
2026-01-23 12:35:11.12	21.01	1.57	-49.1	-64.3	3.6	1.51e+00	0	40	104	0	60	59038
2026-01-23 12:35:12.13	21.09	1.63	-49.1	-64.2	3.6	1.51e+00	0	40	104	0	60	58950
2026-01-23 12:35:13.14	21.16	1.68	-49.1	-64.1	3.6	1.51e+00	0	40	104	0	60	58274
2026-01-23 12:35:14.15	21.24	1.73	-49.1	-64.2	3.6	1.51e+00	0	40	104	0	60	58684
2026-01-23 12:35:15.16	21.32	1.79	-49.1	-64.2	3.6	1.51e+00	0	40	104	0	60	58763
2026-01-23 12:35:16.17	21.39	1.84	-49.1	-64.3	3.6	1.51e+00	0	40	104	0	60	59049
2026-01-23 12:35:17.18	21.47	1.89	-49.1	-64.3	3.6	1.51e+00	0	40	104	0	60	59455
2026-01-23 12:35:18.19	21.55	1.95	-49.1	-64.3	3.6	1.51e+00	0	40	104	0	60	59244
2026-01-23 12:35:19.20	21.62	2.00	-49.1	-64.3	3.6	1.51e+00	0	40	104	0	60	58979
2026-01-23 12:35:20.21	21.70	2.05	-49.1	-64.3	3.6	1.51e+00	0	40	104	0	60	58972
2026-01-23 12:35:21.22	21.78	2.11	-49.1	-63.9	3.6	1.51e+00	0	40	104	0	60	56761
2026-01-23 12:35:22.23	21.86	2.16	-49.1	-63.3	3.6	1.51e+00	0	40	104	0	60	52554
2026-01-23 12:35:23.24	21.94	2.21	-49.1	-62.9	3.6	1.51e+00	0	40	104	0	60	50457
2026-01-23 12:35:24.25	22.01	2.27	-49.1	-63.2	3.6	1.51e+00	0	40	104	0	60	52253
2026-01-23 12:35:25.26	22.09	2.32	-49.1	-63.7	3.6	1.51e+00	0	40	104	0	60	55350
2026-01-23 12:35:26.27	22.17	2.37	-49.0	-62.1	3.6	1.51e+00	0	40	104	0	60	46071
2026-01-23 12:35:27.28	22.25	2.43	-48.6	-57.5	6.2	7.61e-01	90	40	104	0	60	27051
2026-01-23 12:35:28.29	22.33	2.48	-47.8	-53.1	9.7	7.12e-02	0	40	0	1048576	60	16376
2026-01-23 12:35:29.30	22.41	2.53	-46.4	-49.9	13.4	1.11e-03	36	40	0	3145728	60	11280
2026-01-23 12:35:30.31	22.49	2.59	-45.1	-47.6	15.7	3.80e-06	0	40	0	4194304	60	8697
2026-01-23 12:35:31.32	22.57	2.64	-44.6	-46.8	16.6	0.00e+00	0	40	0	6291456	60	7948
2026-01-23 12:35:32.33	22.65	2.70	-43.7	-45.5	18.0	0.00e+00	16	40	0	8388608	60	6828
2026-01-23 12:35:33.34	22.73	2.75	-43.8	-45.7	17.7	0.00e+00	28	40	0	10485760	60	6935
2026-01-23 12:35:34.35	22.81	2.80	-43.8	-45.7	17.7	0.00e+00	92	40	0	12582912	60	7004
2026-01-23 12:35:35.36	22.90	2.86	-44.4	-46.5	16.5	0.00e+00	28	40	0	14680064	60	7672
2026-01-23 12:35:36.37	22.98	2.91	-45.6	-48.4	14.9	0.00e+00	90	40	0	15728640	60	9520
2026-01-23 12:35:37.38	23.06	2.97	-46.9	-51.1	12.0	2.97e-05	53	40	0	17825792	60	12926
2026-01-23 12:35:38.39	23.14	3.02	-48.0	-54.1	8.5	6.36e-03	6	40	0	19922944	60	18358
2026-01-23 12:35:39.40	23.23	3.07	-45.9	-48.6	14.8	1.48e-01	0	40	0	22020096	60	9710
2026-01-23 12:35:40.41	23.31	3.13	-43.3	-45.0	18.5	0.00e+00	52	40	0	24117248	60	6419
2026-01-23 12:35:41.42	23.39	3.18	-47.5	-52.4	7.3	0.00e+00	92	40	0	25165824	60	15042
2026-01-23 12:35:42.43	23.48	3.24	-49.1	-64.1	3.6	1.51e+00	0	40	104	26214400	60	58041
2026-01-23 12:35:43.44	23.56	3.29	-44.4	-46.6	17.1	9.08e-02	91	40	104	26214400	60	7709
2026-01-23 12:35:44.45	23.64	3.35	-48.2	-53.8	9.4	4.16e-01	6	40	0	27262976	60	17785
2026-01-23 12:35:45.46	23.73	3.40	-46.5	-49.8	13.9	3.96e-05	22	40	0	29360128	60	11181
2026-01-23 12:35:46.47	23.81	3.46	-46.4	-49.7	13.5	4.50e-06	21	40	0	31457280	60	11005
2026-01-23 12:35:47.48	23.90	3.51	-46.7	-50.3	13.7	2.20e-06	22	40	0	33554432	60	11807
2026-01-23 12:35:48.48	23.98	3.57	-46.5	-49.8	13.6	2.36e-05	9	40	0	34603008	60	11165
2026-01-23 12:35:49.49	24.07	3.62	-46.7	-50.2	13.2	6.80e-06	0	40	0	36700160	60	11717
2026-01-23 12:35:50.50	24.15	3.68	-46.4	-49.7	14.4	1.06e-05	92	40	0	38797312	60	10989
2026-01-23 12:35:51.51	24.24	3.73	-46.6	-50.0	12.7	3.43e-05	29	40	0	40894464	60	11403
2026-01-23 12:35:52.52	24.33	3.79	-46.4	-49.6	13.8	3.20e-05	61	40	0	42991616	60	10949
2026-01-23 12:35:53.53	24.41	3.84	-46.6	-50.0	13.5	4.50e-06	0	40	0	45088768	60	11407
2026-01-23 12:35:54.54	24.50	3.90	-46.4	-49.6	14.0	1.67e-05	61	40	0	46137344	60	10943
2026-01-23 12:35:55.55	24.59	3.95	-46.7	-50.2	13.3	3.12e-05	8	40	0	48234496	60	11651
2026-01-23 12:35:56.56	24.68	4.01	-46.6	-50.0	13.6	3.00e-06	24	40	0	50331648	60	11449
2026-01-23 12:35:57.57	24.76	4.06	-46.9	-50.7	12.6	3.05e-05	92	40	0	52428800	60	12336
2026-01-23 12:35:58.57	24.85	4.12	-46.7	-50.2	13.0	3.96e-05	58	40	0	54525952	60	11706
2026-01-23 12:35:59.59	24.94	4.17	-47.1	-51.0	12.7	4.04e-05	92	40	0	55574528	60	12827
2026-01-23 12:36:00.59	25.03	4.23	-45.7	-48.4	15.3	1.50e-06	6	40	0	57671680	60	9464
2026-01-23 12:36:01.60	25.12	4.29	-44.5	-46.5	17.3	0.00e+00	0	40	0	59768832	60	7644
2026-01-23 12:36:02.61	25.21	4.34	-44.0	-45.9	17.8	0.00e+00	62	40	0	61865984	60	7097
2026-01-23 12:36:03.62	25.30	4.40	-43.4	-45.1	18.7	0.00e+00	8	40	0	63963136	60	6536
2026-01-23 12:36:04.63	25.39	4.45	-43.3	-45.0	18.7	0.00e+00	92	40	0	65011712	60	6419
2026-01-23 12:36:05.64	25.48	4.51	-43.4	-45.1	18.4	0.00e+00	0	40	0	67108864	60	6512
2026-01-23 12:36:06.65	25.57	4.57	-43.3	-45.0	18.6	0.00e+00	92	40	0	69206016	60	6426
2026-01-23 12:36:07.66	25.66	4.62	-43.7	-45.5	18.3	0.00e+00	7	40	0	71303168	60	6790
2026-01-23 12:36:08.67	25.75	4.68	-43.5	-45.2	18.7	0.00e+00	31	40	0	73400320	60	6543
2026-01-23 12:36:09.68	25.84	4.73	-43.1	-44.7	19.0	0.00e+00	29	40	0	74448896	60	6207
2026-01-23 12:36:10.69	25.94	4.79	-43.2	-44.8	19.2	0.00e+00	25	40	0	76546048	60	6258
2026-01-23 12:36:11.70	26.03	4.85	-43.2	-44.8	19.0	0.00e+00	4	40	0	78643200	60	6313
2026-01-23 12:36:12.71	26.12	4.90	-43.4	-45.0	19.0	0.00e+00	0	40	0	80740352	60	6437
2026-01-23 12:36:13.72	26.22	4.96	-43.4	-45.1	18.7	0.00e+00	91	40	0	82837504	60	6502
2026-01-23 12:36:14.73	26.31	5.02	-43.4	-45.1	18.8	0.00e+00	51	40	0	83886080	60	6495
2026-01-23 12:36:15.74	26.40	5.07	-43.3	-44.9	18.9	0.00e+00	61	40	0	85983232	60	6330
2026-01-23 12:36:16.75	26.50	5.13	-43.5	-45.2	18.7	0.00e+00	50	40	0	88080384	60	6547
2026-01-23 12:36:17.76	26.59	5.19	-43.3	-44.9	19.0	0.00e+00	32	40	0	90177536	60	6319
2026-01-23 12:36:18.76	26.69	5.24	-43.1	-44.7	19.2	0.00e+00	0	40	0	92274688	60	6178
2026-01-23 12:36:19.77	26.78	5.30	-43.7	-45.4	18.5	0.00e+00	0	40	0	93323264	60	6724
2026-01-23 12:36:20.78	26.88	5.36	-42.8	-44.3	19.5	0.00e+00	92	40	0	95420416	60	5947
2026-01-23 12:36:21.79	26.97	5.41	-42.8	-44.2	19.5	0.00e+00	0	40	0	97517568	58	6604
2026-01-23 12:36:22.80	27.07	5.47	-43.2	-44.8	19.1	0.00e+00	91	40	0	99614720	58	7032
2026-01-23 12:36:23.81	27.17	5.53	-43.2	-44.7	19.1	0.00e+00	51	40	0	101711872	58	6979
2026-01-23 12:36:24.82	27.26	5.58	-43.1	-44.6	19.2	0.00e+00	0	40	0	102760448	58	6908
2026-01-23 12:36:25.83	27.36	5.64	-42.9	-44.4	19.6	0.00e+00	0	40	0	104857600	58	6746
2026-01-23 12:36:26.84	27.46	5.70	-42.9	-44.4	19.5	0.00e+00	0	40	0	106954752	58	6729
2026-01-23 12:36:27.85	27.56	5.76	-42.7	-44.1	19.6	0.00e+00	78	40	0	109051904	58	6521
2026-01-23 12:36:28.86	27.66	5.81	-42.8	-44.2	19.8	0.00e+00	2	40	0	111149056	58	6579
2026-01-23 12:36:29.87	27.76	5.87	-42.8	-44.2	19.6	0.00e+00	92	40	0	112197632	58	6596
2026-01-23 12:36:30.88	27.86	5.93	-43.0	-44.5	19.4	0.00e+00	0	40	0	114294784	58	6795
2026-01-23 12:36:32.19	27.98	6.00	-43.1	-44.6	19.2	0.00e+00	30	40	0	116391936	58	6878
2026-01-23 12:36:32.92	28.06	6.04	-43.0	-44.5	19.4	0.00e+00	55	40	0	117440512	58	6814
2026-01-23 12:36:34.22	28.19	6.12	-42.8	-44.2	19.6	0.00e+00	0	40	0	120586240	58	6585
2026-01-23 12:36:34.94	28.26	6.16	-42.8	-44.3	19.7	0.00e+00	6	40	0	121634816	58	6626
2026-01-23 12:36:36.23	28.39	6.23	-42.7	-44.1	19.7	0.00e+00	56	40	0	123731968	58	6523
2026-01-23 12:36:36.95	28.46	6.27	-42.7	-44.1	19.7	0.00e+00	0	40	0	125829120	58	6536
2026-01-23 12:36:38.25	28.59	6.35	-42.8	-44.2	19.7	0.00e+00	49	40	0	127926272	58	6590
2026-01-23 12:36:38.97	28.66	6.39	-42.8	-44.3	19.6	0.00e+00	92	40	0	128974848	58	6637
2026-01-23 12:36:40.27	28.80	6.46	-42.4	-43.8	20.1	0.00e+00	30	41	0	131072000	58	6263
2026-01-23 12:36:40.99	28.87	6.51	-42.3	-43.7	20.2	0.00e+00	89	40	0	133169152	58	6200
2026-01-23 12:36:42.29	29.00	6.58	-42.5	-43.9	20.0	0.00e+00	61	40	0	135266304	58	6387
2026-01-23 12:36:43.01	29.08	6.62	-42.6	-44.0	19.9	0.00e+00	0	40	0	136314880	58	6449
2026-01-23 12:36:44.30	29.21	6.70	-42.7	-44.1	19.8	0.00e+00	90	40	0	139460608	58	6491
2026-01-23 12:36:45.02	29.29	6.74	-42.4	-43.8	20.1	0.00e+00	0	40	0	140509184	58	6263
2026-01-23 12:36:46.32	29.42	6.81	-42.4	-43.8	20.1	0.00e+00	92	40	0	142606336	58	6284
2026-01-23 12:36:47.04	29.50	6.85	-42.4	-43.8	20.2	0.00e+00	51	40	0	144703488	58	6251
2026-01-23 12:36:48.34	29.63	6.93	-42.3	-43.6	20.3	0.00e+00	0	40	0	146800640	58	6154
2026-01-23 12:36:49.06	29.71	6.97	-42.3	-43.6	20.3	0.00e+00	31	40	0	147849216	58	6159
2026-01-23 12:36:50.36	29.85	7.05	-42.3	-43.7	20.1	0.00e+00	0	41	0	150994944	58	6180
2026-01-23 12:36:51.08	29.92	7.09	-42.2	-43.5	20.3	0.00e+00	56	41	0	152043520	58	6078
2026-01-23 12:36:52.38	30.06	7.16	-42.3	-43.6	20.3	0.00e+00	0	40	0	154140672	58	6148
2026-01-23 12:36:53.10	30.14	7.21	-42.2	-43.6	20.4	0.00e+00	15	40	0	155189248	58	6119
2026-01-23 12:36:54.40	30.28	7.28	-42.3	-43.6	20.4	0.00e+00	31	40	0	158334976	58	6140
2026-01-23 12:36:55.12	30.36	7.32	-42.3	-43.7	20.3	0.00e+00	92	40	0	159383552	58	6180
2026-01-23 12:36:56.42	30.50	7.40	-42.2	-43.5	20.4	0.00e+00	30	40	0	161480704	58	6099
2026-01-23 12:36:57.14	30.58	7.44	-42.3	-43.6	20.4	0.00e+00	28	41	0	163577856	58	6112
2026-01-23 12:36:58.44	30.72	7.52	-42.3	-43.6	20.5	0.00e+00	16	40	0	165675008	58	6109
2026-01-23 12:36:59.16	30.80	7.56	-42.2	-43.5	20.5	0.00e+00	2	40	0	166723584	58	6073
2026-01-23 12:37:00.46	30.94	7.63	-42.1	-43.3	20.7	0.00e+00	91	40	0	169869312	58	5954
2026-01-23 12:37:01.18	31.02	7.68	-42.1	-43.4	20.6	0.00e+00	0	40	0	170917888	58	6013
2026-01-23 12:37:02.47	31.16	7.75	-42.1	-43.4	20.6	0.00e+00	92	41	0	173015040	58	6000
2026-01-23 12:37:03.20	31.24	7.79	-42.2	-43.4	20.5	0.00e+00	32	41	0	175112192	58	6026
2026-01-23 12:37:04.49	31.39	7.87	-42.1	-43.4	20.6	0.00e+00	0	40	0	177209344	58	6021
2026-01-23 12:37:05.21	31.47	7.91	-42.2	-43.5	20.7	0.00e+00	0	40	0	178257920	58	6070
2026-01-23 12:37:06.51	31.61	7.99	-42.2	-43.5	20.6	0.00e+00	0	40	0	180355072	58	6035
2026-01-23 12:37:07.23	31.69	8.03	-42.2	-43.5	20.6	0.00e+00	3	41	0	182452224	58	6036
2026-01-23 12:37:08.53	31.84	8.11	-42.2	-43.5	20.6	0.00e+00	55	41	0	184549376	58	6054
2026-01-23 12:37:09.25	31.92	8.15	-42.2	-43.5	20.6	0.00e+00	81	40	0	185597952	58	6100
2026-01-23 12:37:10.55	32.07	8.23	-42.1	-43.4	20.7	0.00e+00	0	40	0	188743680	58	5967
2026-01-23 12:37:11.27	32.16	8.27	-42.3	-43.5	20.6	0.00e+00	91	40	0	189792256	58	6103
2026-01-23 12:37:12.57	32.30	8.35	-42.0	-43.2	20.8	0.00e+00	0	40	0	191889408	58	5894
2026-01-23 12:37:13.29	32.39	8.39	-41.7	-42.9	21.2	0.00e+00	2	40	0	193986560	56	6318
2026-01-23 12:37:14.59	32.54	8.47	-41.7	-42.9	21.2	0.00e+00	92	40	0	196083712	56	6325
2026-01-23 12:37:15.31	32.62	8.51	-41.6	-42.7	21.4	0.00e+00	2	40	0	197132288	56	6221
2026-01-23 12:37:16.60	32.77	8.58	-41.4	-42.5	21.4	0.00e+00	90	40	0	199229440	56	6101
2026-01-23 12:37:17.32	32.86	8.63	-41.4	-42.5	21.6	0.00e+00	49	41	0	201326592	56	6056
2026-01-23 12:37:18.62	33.01	8.70	-41.4	-42.5	21.6	0.00e+00	23	41	0	203423744	56	6068
2026-01-23 12:37:19.34	33.10	8.75	-41.4	-42.6	21.4	0.00e+00	2	40	0	204472320	56	6110
2026-01-23 12:37:20.64	33.25	8.82	-41.5	-42.6	21.4	0.00e+00	49	41	0	207618048	56	6159
2026-01-23 12:37:21.36	33.34	8.87	-41.5	-42.6	21.4	0.00e+00	0	40	0	208666624	56	6141
2026-01-23 12:37:22.66	33.49	8.94	-41.5	-42.6	21.3	0.00e+00	0	40	0	210763776	56	6136
2026-01-23 12:37:23.38	33.58	8.99	-41.5	-42.6	21.1	0.00e+00	0	41	0	212860928	56	6140
2026-01-23 12:37:24.68	33.74	9.06	-41.3	-42.4	20.9	0.00e+00	5	41	0	214958080	56	6003
2026-01-23 12:37:25.40	33.82	9.11	-41.2	-42.3	21.7	0.00e+00	92	40	0	216006656	56	5922
2026-01-23 12:37:26.70	33.98	9.18	-41.2	-42.3	21.7	0.00e+00	8	41	0	219152384	56	5919
2026-01-23 12:37:27.42	34.07	9.23	-41.3	-42.4	21.7	0.00e+00	90	40	0	220200960	56	6015
2026-01-23 12:37:28.72	34.23	9.30	-41.3	-42.5	21.7	0.00e+00	0	41	0	222298112	56	6035
2026-01-23 12:37:29.44	34.32	9.35	-41.2	-42.3	21.7	0.00e+00	49	40	0	223346688	56	5930
2026-01-23 12:37:30.73	34.48	9.42	-41.2	-42.3	21.8	0.00e+00	92	41	0	226492416	56	5924
2026-01-23 12:37:31.45	34.57	9.47	-41.2	-42.3	21.8	0.00e+00	0	40	0	227540992	56	5941
2026-01-23 12:37:32.75	34.73	9.54	-41.2	-42.3	21.8	0.00e+00	91	41	0	229638144	56	5919
2026-01-23 12:37:33.47	34.82	9.59	-41.4	-42.5	21.6	0.00e+00	47	40	0	231735296	56	6082
2026-01-23 12:37:34.77	34.98	9.67	-41.5	-42.6	21.6	0.00e+00	6	41	0	233832448	56	6132
2026-01-23 12:37:35.50	35.07	9.71	-41.5	-42.7	21.4	0.00e+00	0	40	0	234881024	56	6198
2026-01-23 12:37:36.79	35.24	9.79	-41.3	-42.4	21.6	0.00e+00	0	41	0	238026752	56	6020
2026-01-23 12:37:37.51	35.33	9.83	-41.6	-42.7	21.4	0.00e+00	48	40	0	239075328	56	6234
2026-01-23 12:37:38.81	35.49	9.91	-41.6	-42.8	21.3	0.00e+00	0	41	0	241172480	56	6267
2026-01-23 12:37:39.53	35.59	9.95	-41.8	-43.0	21.2	0.00e+00	27	41	0	243269632	56	6398
2026-01-23 12:37:40.83	35.75	10.03	-41.7	-42.9	21.2	0.00e+00	26	41	0	245366784	56	6352
2026-01-23 12:37:41.55	35.85	10.07	-41.8	-43.0	21.1	0.00e+00	90	41	0	246415360	56	6445
2026-01-23 12:37:42.85	36.02	10.15	-41.9	-43.1	21.1	0.00e+00	55	41	0	248512512	56	6468
2026-01-23 12:37:43.57	36.11	10.19	-41.9	-43.0	21.1	0.00e+00	90	41	0	250609664	56	6463
2026-01-23 12:37:44.87	36.28	10.27	-41.5	-42.6	21.6	0.00e+00	7	41	0	252706816	56	6168
2026-01-23 12:37:45.59	36.37	10.31	-41.6	-42.7	21.4	0.00e+00	31	41	0	253755392	56	6231
2026-01-23 12:37:46.88	36.54	10.39	-41.4	-42.6	21.5	0.00e+00	92	41	0	256901120	56	6113
2026-01-23 12:37:47.61	36.64	10.43	-41.6	-42.8	21.4	0.00e+00	0	41	0	257949696	56	6254
2026-01-23 12:37:48.90	36.81	10.51	-41.4	-42.5	21.6	0.00e+00	92	41	0	260046848	56	6103
2026-01-23 12:37:49.63	36.91	10.56	-41.5	-42.6	21.6	0.00e+00	0	41	0	262144000	56	6162
2026-01-23 12:37:50.92	37.08	10.63	-41.5	-42.6	21.6	0.00e+00	6	41	0	264241152	56	6169
2026-01-23 12:37:51.65	37.18	10.68	-41.5	-42.7	21.5	0.00e+00	25	41	0	265289728	56	6182
2026-01-23 12:37:52.94	37.35	10.76	-41.5	-42.6	21.5	0.00e+00	6	41	0	267386880	56	6140
2026-01-23 12:37:53.67	37.45	10.80	-41.5	-42.7	21.6	0.00e+00	49	41	0	269484032	56	6175
2026-01-23 12:37:54.96	37.63	10.88	-41.5	-42.6	21.7	0.00e+00	6	41	0	271581184	56	6149
2026-01-23 12:37:55.69	37.73	10.92	-41.7	-42.8	21.3	0.00e+00	92	41	0	272629760	56	6306
2026-01-23 12:37:56.98	37.90	11.00	-41.4	-42.5	21.7	0.00e+00	0	41	0	275775488	56	6073
2026-01-23 12:37:57.70	38.00	11.04	-41.5	-42.7	21.6	0.00e+00	90	41	0	276824064	56	6191
2026-01-23 12:37:59.00	38.18	11.12	-41.3	-42.4	21.8	0.00e+00	32	41	0	278921216	56	6023
2026-01-23 12:37:59.72	38.28	11.16	-41.1	-42.2	21.9	0.00e+00	5	41	0	281018368	56	5862
2026-01-23 12:38:01.02	38.46	11.24	-41.3	-42.4	21.9	0.00e+00	2	41	0	283115520	56	5965
2026-01-23 12:38:01.74	38.57	11.28	-41.0	-42.1	22.1	0.00e+00	0	41	0	284164096	56	5782
2026-01-23 12:38:03.04	38.75	11.36	-41.0	-42.1	22.1	0.00e+00	92	41	0	287309824	56	5795
2026-01-23 12:38:03.76	38.85	11.41	-40.8	-41.8	22.3	0.00e+00	0	41	0	288358400	56	5619
2026-01-23 12:38:05.06	39.03	11.48	-40.9	-41.9	22.1	0.00e+00	50	41	0	290455552	54	6359
2026-01-23 12:38:05.78	39.14	11.53	-40.8	-41.8	22.3	0.00e+00	0	41	0	291504128	54	6274
2026-01-23 12:38:07.08	39.32	11.61	-40.9	-42.0	22.2	0.00e+00	32	41	0	294649856	54	6391
2026-01-23 12:38:07.79	39.42	11.65	-41.0	-42.1	21.9	0.00e+00	33	41	0	295698432	54	6484
2026-01-23 12:38:09.09	39.61	11.73	-41.0	-42.1	22.1	0.00e+00	48	41	0	297795584	54	6478
2026-01-23 12:38:09.81	39.71	11.77	-41.1	-42.2	22.0	0.00e+00	0	41	0	299892736	54	6572
2026-01-23 12:38:11.11	39.90	11.85	-41.1	-42.2	21.9	0.00e+00	0	41	0	301989888	54	6555
2026-01-23 12:38:11.83	40.01	11.89	-41.1	-42.1	22.0	0.00e+00	92	41	0	303038464	54	6528
2026-01-23 12:38:13.12	40.20	11.97	-40.9	-41.9	22.2	0.00e+00	51	41	0	306184192	54	6385
2026-01-23 12:38:13.84	40.30	12.01	-40.8	-41.9	22.2	0.00e+00	92	41	0	307232768	54	6342
2026-01-23 12:38:15.14	40.49	12.09	-40.8	-41.9	22.3	0.00e+00	0	41	0	309329920	54	6320
2026-01-23 12:38:15.86	40.60	12.13	-40.7	-41.7	22.4	0.00e+00	55	41	0	310378496	54	6209
2026-01-23 12:38:17.16	40.79	12.21	-40.7	-41.7	22.4	0.00e+00	90	41	0	313524224	54	6212
2026-01-23 12:38:17.88	40.90	12.25	-40.7	-41.8	22.4	0.00e+00	7	41	0	314572800	54	6251
2026-01-23 12:38:19.18	41.09	12.33	-40.9	-41.9	22.2	0.00e+00	91	41	0	316669952	54	6367
2026-01-23 12:38:19.90	41.20	12.38	-40.8	-41.8	22.4	0.00e+00	6	41	0	318767104	54	6300
2026-01-23 12:38:21.20	41.40	12.45	-40.9	-41.9	22.2	0.00e+00	32	41	0	320864256	54	6377
2026-01-23 12:38:21.92	41.51	12.50	-40.8	-41.8	22.3	0.00e+00	53	41	0	321912832	54	6298
2026-01-23 12:38:23.22	41.71	12.57	-40.6	-41.7	22.4	0.00e+00	0	41	0	325058560	54	6174
2026-01-23 12:38:23.94	41.82	12.62	-40.8	-41.8	22.4	0.00e+00	0	41	0	326107136	54	6276
2026-01-23 12:38:25.24	42.01	12.69	-40.6	-41.7	22.4	0.00e+00	32	41	0	328204288	54	6195
2026-01-23 12:38:25.96	42.13	12.74	-40.6	-41.7	22.5	0.00e+00	0	41	0	330301440	54	6175
2026-01-23 12:38:27.26	42.33	12.82	-40.6	-41.7	22.5	0.00e+00	5	41	0	332398592	54	6174
2026-01-23 12:38:27.98	42.44	12.86	-40.6	-41.6	22.4	0.00e+00	91	41	0	333447168	54	6150
2026-01-23 12:38:29.27	42.64	12.93	-40.5	-41.5	22.6	0.00e+00	50	41	0	335544320	54	6081
2026-01-23 12:38:30.00	42.75	12.98	-40.5	-41.5	22.6	0.00e+00	91	41	0	337641472	54	6049
2026-01-23 12:38:31.30	42.96	13.06	-40.7	-41.7	22.5	0.00e+00	80	41	0	339738624	54	6231
2026-01-23 12:38:32.02	43.07	13.10	-40.6	-41.6	22.5	0.00e+00	0	41	0	340787200	54	6146
2026-01-23 12:38:33.32	43.28	13.18	-40.6	-41.6	22.5	0.00e+00	92	41	0	343932928	54	6127
2026-01-23 12:38:34.04	43.39	13.22	-40.4	-41.4	22.8	0.00e+00	32	41	0	344981504	54	5974
2026-01-23 12:38:35.33	43.60	13.29	-40.5	-41.5	22.7	0.00e+00	0	41	0	347078656	54	6062
2026-01-23 12:38:36.05	43.71	13.34	-40.3	-41.3	22.8	0.00e+00	32	41	0	349175808	54	5919
2026-01-23 12:38:37.35	43.92	13.41	-40.2	-41.2	22.7	0.00e+00	0	41	0	351272960	54	5843
2026-01-23 12:38:38.07	44.04	13.46	-39.9	-40.9	23.0	0.00e+00	46	41	0	352321536	54	5655
2026-01-23 12:38:39.38	44.25	13.53	-40.0	-41.0	23.1	0.00e+00	0	41	0	354418688	54	5708
2026-01-23 12:38:40.09	44.36	13.58	-40.0	-41.0	23.2	0.00e+00	48	41	0	356515840	54	5721
2026-01-23 12:38:41.39	44.58	13.65	-40.0	-41.0	23.1	0.00e+00	33	41	0	358612992	54	5713
2026-01-23 12:38:42.11	44.69	13.70	-40.0	-41.0	23.1	0.00e+00	92	41	0	359661568	54	5727
2026-01-23 12:38:43.41	44.91	13.77	-39.9	-40.9	23.3	0.00e+00	2	41	0	362807296	54	5636
2026-01-23 12:38:44.13	45.03	13.81	-40.1	-41.0	23.1	0.00e+00	92	41	0	363855872	54	5746
2026-01-23 12:38:45.43	45.24	13.89	-40.0	-40.9	23.2	0.00e+00	0	41	0	365953024	54	5680
2026-01-23 12:38:46.15	45.36	13.93	-39.9	-40.9	23.2	0.00e+00	22	41	0	368050176	54	5634
2026-01-23 12:38:47.45	45.58	14.01	-39.8	-40.7	23.4	0.00e+00	34	41	0	370147328	54	5549
2026-01-23 12:38:48.17	45.70	14.05	-39.7	-40.6	23.4	0.00e+00	0	41	0	371195904	52	6149
2026-01-23 12:38:49.47	45.92	14.13	-39.8	-40.7	23.4	0.00e+00	92	41	0	374341632	52	6217
2026-01-23 12:38:50.19	46.04	14.17	-39.8	-40.7	23.4	0.00e+00	0	41	0	375390208	52	6189
2026-01-23 12:38:51.49	46.26	14.24	-39.7	-40.7	23.4	0.00e+00	0	41	0	377487360	52	6176
2026-01-23 12:38:52.21	46.38	14.29	-39.6	-40.5	23.6	0.00e+00	32	41	0	378535936	52	6081
2026-01-23 12:38:53.51	46.61	14.36	-39.6	-40.6	23.5	0.00e+00	0	41	0	381681664	52	6105
2026-01-23 12:38:54.23	46.73	14.40	-39.8	-40.7	23.4	0.00e+00	0	41	0	382730240	52	6239
2026-01-23 12:38:55.53	46.95	14.48	-39.8	-40.7	23.5	0.00e+00	47	41	0	384827392	52	6215
2026-01-23 12:38:56.25	47.08	14.52	-39.6	-40.5	23.4	0.00e+00	58	41	0	386924544	52	6057
2026-01-23 12:38:57.54	47.30	14.59	-39.7	-40.6	23.5	0.00e+00	0	41	0	389021696	52	6160
2026-01-23 12:38:58.27	47.43	14.64	-39.9	-40.8	23.4	0.00e+00	92	41	0	390070272	52	6291
2026-01-23 12:38:59.56	47.66	14.71	-40.0	-40.9	23.2	0.00e+00	0	41	0	393216000	52	6352
2026-01-23 12:39:00.28	47.78	14.75	-40.0	-41.0	23.3	0.00e+00	92	41	0	394264576	52	6394
2026-01-23 12:39:01.58	48.01	14.82	-39.9	-40.9	23.3	0.00e+00	0	41	0	396361728	52	6346
2026-01-23 12:39:02.30	48.14	14.87	-39.8	-40.7	23.5	0.00e+00	48	41	0	398458880	52	6196
2026-01-23 12:39:03.60	48.37	14.94	-39.8	-40.8	23.4	0.00e+00	92	41	0	400556032	52	6262
2026-01-23 12:39:04.32	48.50	14.98	-39.7	-40.6	23.5	0.00e+00	54	41	0	401604608	52	6147
2026-01-23 12:39:05.62	48.73	15.05	-39.7	-40.7	23.4	0.00e+00	91	41	0	403701760	52	6182
2026-01-23 12:39:06.34	48.86	15.10	-39.8	-40.7	23.4	0.00e+00	0	41	0	405798912	52	6208
2026-01-23 12:39:07.64	49.09	15.17	-39.7	-40.6	23.5	0.00e+00	0	41	0	407896064	52	6164
2026-01-23 12:39:08.36	49.22	15.21	-39.8	-40.7	23.5	0.00e+00	0	41	0	408944640	52	6192
2026-01-23 12:39:09.66	49.46	15.28	-39.9	-40.8	23.4	0.00e+00	34	41	0	412090368	52	6308
2026-01-23 12:39:10.38	49.59	15.32	-39.9	-40.9	23.3	0.00e+00	34	41	0	413138944	52	6319
2026-01-23 12:39:11.68	49.83	15.39	-40.1	-41.0	23.3	0.00e+00	51	41	0	415236096	52	6439
2026-01-23 12:39:12.40	49.96	15.43	-40.0	-41.0	23.2	0.00e+00	0	41	0	417333248	52	6416
2026-01-23 12:39:13.70	50.20	15.51	-40.0	-41.0	23.2	0.00e+00	5	41	0	419430400	52	6414
2026-01-23 12:39:14.42	50.33	15.55	-40.1	-41.0	23.2	0.00e+00	92	41	0	420478976	52	6424
2026-01-23 12:39:15.72	50.58	15.62	-40.1	-41.1	23.2	0.00e+00	4	41	0	422576128	52	6495
2026-01-23 12:39:16.44	50.71	15.66	-40.3	-41.3	22.9	0.00e+00	92	41	0	424673280	52	6662
2026-01-23 12:39:17.74	50.95	15.73	-40.3	-41.2	23.0	0.00e+00	0	41	0	426770432	52	6606
2026-01-23 12:39:18.46	51.09	15.77	-40.3	-41.3	23.0	0.00e+00	52	41	0	427819008	52	6622
2026-01-23 12:39:19.75	51.33	15.84	-40.4	-41.4	22.8	0.00e+00	90	41	0	430964736	52	6737
2026-01-23 12:39:20.47	51.47	15.88	-40.4	-41.4	22.9	0.00e+00	52	41	0	432013312	52	6717
2026-01-23 12:39:21.77	51.71	15.95	-40.4	-41.4	22.8	0.00e+00	92	41	0	434110464	52	6750
2026-01-23 12:39:22.49	51.85	15.99	-40.4	-41.4	22.8	0.00e+00	0	41	0	436207616	52	6729
2026-01-23 12:39:23.79	52.10	16.06	-40.5	-41.5	22.7	0.00e+00	27	41	0	438304768	52	6823
2026-01-23 12:39:24.51	52.24	16.10	-40.5	-41.5	22.8	0.00e+00	2	41	0	439353344	52	6832
2026-01-23 12:39:25.80	52.48	16.17	-40.7	-41.7	22.5	0.00e+00	33	41	0	442499072	52	6981
2026-01-23 12:39:26.52	52.62	16.20	-40.7	-41.7	22.6	0.00e+00	47	41	0	443547648	52	6967
2026-01-23 12:39:27.82	52.88	16.27	-40.6	-41.6	22.6	0.00e+00	34	41	0	445644800	54	6125
2026-01-23 12:39:28.54	53.02	16.31	-40.7	-41.7	22.6	0.00e+00	80	41	0	446693376	54	6220
2026-01-23 12:39:29.84	53.27	16.38	-40.7	-41.7	22.2	0.00e+00	4	41	0	449839104	54	6218
2026-01-23 12:39:30.56	53.41	16.42	-40.8	-41.8	22.4	0.00e+00	91	41	0	450887680	54	6317
2026-01-23 12:39:31.86	53.67	16.49	-40.9	-41.9	22.3	0.00e+00	32	41	0	452984832	54	6376
2026-01-23 12:39:32.58	53.81	16.52	-40.8	-41.8	22.5	0.00e+00	92	41	0	455081984	54	6271
2026-01-23 12:39:33.88	54.06	16.59	-40.8	-41.9	22.4	0.00e+00	3	41	0	457179136	54	6341
2026-01-23 12:39:34.60	54.21	16.63	-40.9	-41.9	22.3	0.00e+00	0	41	0	458227712	54	6383
2026-01-23 12:39:35.90	54.47	16.70	-40.9	-41.9	22.3	0.00e+00	92	41	0	461373440	54	6374
2026-01-23 12:39:36.62	54.61	16.73	-40.9	-42.0	22.3	0.00e+00	33	41	0	462422016	54	6415
2026-01-23 12:39:37.91	54.87	16.80	-41.0	-42.0	22.3	0.00e+00	92	41	0	464519168	54	6439
2026-01-23 12:39:38.64	55.02	16.84	-41.1	-42.2	22.2	0.00e+00	0	41	0	466616320	54	6551
2026-01-23 12:39:39.93	55.28	16.90	-41.2	-42.2	22.1	0.00e+00	56	41	0	468713472	54	6605
2026-01-23 12:39:40.65	55.42	16.94	-41.2	-42.3	22.0	0.00e+00	33	41	0	469762048	54	6658
2026-01-23 12:39:41.95	55.69	17.00	-41.3	-42.4	22.0	0.00e+00	0	41	0	471859200	54	6704
2026-01-23 12:39:42.67	55.83	17.04	-41.3	-42.4	21.9	0.00e+00	47	41	0	473956352	54	6704
2026-01-23 12:39:43.97	56.10	17.10	-41.4	-42.6	21.6	0.00e+00	6	41	0	476053504	54	6854
2026-01-23 12:39:44.69	56.25	17.14	-41.5	-42.7	21.6	0.00e+00	92	41	0	477102080	54	6930
2026-01-23 12:39:45.99	56.51	17.20	-41.7	-42.8	21.5	0.00e+00	34	41	0	480247808	54	7039
2026-01-23 12:39:46.71	56.66	17.24	-41.8	-43.0	21.5	0.00e+00	90	41	0	481296384	56	6406
2026-01-23 12:39:48.01	56.93	17.30	-41.9	-43.1	21.3	0.00e+00	24	41	0	483393536	56	6489
2026-01-23 12:39:48.73	57.08	17.33	-42.0	-43.1	21.3	0.00e+00	6	41	0	484442112	56	6530
2026-01-23 12:39:50.03	57.35	17.40	-41.9	-43.0	21.5	0.00e+00	14	41	0	487587840	56	6427
2026-01-23 12:39:50.75	57.50	17.43	-41.7	-42.8	21.7	0.00e+00	0	41	0	488636416	56	6287
2026-01-23 12:39:52.05	57.78	17.49	-41.6	-42.7	21.8	0.00e+00	92	41	0	490733568	56	6183
2026-01-23 12:39:52.77	57.93	17.53	-41.5	-42.6	21.8	0.00e+00	0	41	0	492830720	56	6149
2026-01-23 12:39:54.07	58.20	17.59	-41.4	-42.5	22.0	0.00e+00	53	41	0	494927872	56	6048
2026-01-23 12:39:54.79	58.35	17.62	-41.2	-42.2	22.1	0.00e+00	0	41	0	495976448	56	5865
2026-01-23 12:39:56.08	58.63	17.68	-41.3	-42.4	22.0	0.00e+00	2	41	0	499122176	56	5987
2026-01-23 12:39:56.81	58.78	17.72	-41.2	-42.2	22.2	0.00e+00	34	41	0	500170752	56	5869
2026-01-23 12:39:58.10	59.06	17.78	-41.2	-42.3	21.8	0.00e+00	0	41	0	502267904	56	5912
2026-01-23 12:39:58.83	59.22	17.81	-41.3	-42.4	22.0	0.00e+00	0	41	0	504365056	56	5983
2026-01-23 12:40:00.12	59.49	17.87	-41.4	-42.5	21.9	0.00e+00	47	41	0	506462208	56	6062
2026-01-23 12:40:00.84	59.65	17.90	-41.5	-42.6	21.8	0.00e+00	92	41	0	507510784	56	6139
2026-01-23 12:40:02.14	59.93	17.96	-41.5	-42.6	21.8	0.00e+00	0	41	0	510656512	56	6111
2026-01-23 12:40:02.86	60.09	17.99	-41.6	-42.7	21.8	0.00e+00	92	41	0	511705088	56	6185
2026-01-23 12:40:04.16	60.37	18.05	-41.3	-42.4	22.1	0.00e+00	0	41	0	513802240	56	5987
2026-01-23 12:40:04.88	60.53	18.08	-41.2	-42.3	22.1	0.00e+00	52	41	0	514850816	56	5903
2026-01-23 12:40:06.18	60.81	18.13	-41.1	-42.1	22.3	0.00e+00	92	41	0	517996544	56	5796
2026-01-23 12:40:06.90	60.97	18.16	-41.0	-42.0	22.4	0.00e+00	52	41	0	519045120	56	5731
2026-01-23 12:40:08.20	61.25	18.22	-40.8	-41.8	22.6	0.00e+00	90	41	0	521142272	56	5592
2026-01-23 12:40:08.92	61.41	18.25	-40.7	-41.7	22.6	0.00e+00	51	41	0	523239424	54	6185
2026-01-23 12:40:10.22	61.70	18.31	-40.5	-41.5	22.7	0.00e+00	28	41	0	525336576	54	6096
2026-01-23 12:40:10.94	61.86	18.34	-40.6	-41.6	21.9	0.00e+00	0	41	0	526385152	54	6169
2026-01-23 12:40:12.24	62.15	18.39	-40.5	-41.5	22.6	0.00e+00	34	41	0	529530880	54	6071
2026-01-23 12:40:12.96	62.31	18.42	-40.6	-41.7	22.5	0.00e+00	0	41	0	530579456	54	6183
2026-01-23 12:40:14.26	62.60	18.47	-40.6	-41.6	22.6	0.00e+00	46	41	0	532676608	54	6156
2026-01-23 12:40:14.98	62.76	18.50	-40.6	-41.7	22.6	0.00e+00	79	41	0	534773760	54	6181
2026-01-23 12:40:16.28	63.05	18.55	-40.8	-41.9	22.4	0.00e+00	0	41	0	536870912	54	6337
2026-01-23 12:40:17.00	63.21	18.58	-40.8	-41.8	22.4	0.00e+00	92	41	0	537919488	54	6311
2026-01-23 12:40:18.30	63.51	18.63	-41.0	-42.0	22.3	0.00e+00	2	41	0	540016640	54	6417
2026-01-23 12:40:19.02	63.67	18.66	-40.8	-41.9	22.4	0.00e+00	92	41	0	542113792	54	6334
2026-01-23 12:40:20.32	63.97	18.71	-41.0	-42.0	22.2	0.00e+00	23	41	0	544210944	54	6416
2026-01-23 12:40:21.04	64.13	18.74	-41.1	-42.1	22.3	0.00e+00	29	41	0	545259520	54	6508
2026-01-23 12:40:22.34	64.43	18.79	-41.0	-42.1	22.2	0.00e+00	91	41	0	548405248	54	6500
2026-01-23 12:40:23.06	64.59	18.81	-41.1	-42.2	22.1	0.00e+00	53	41	0	549453824	54	6559
2026-01-23 12:40:24.36	64.89	18.86	-40.9	-41.9	22.4	0.00e+00	90	41	0	551550976	54	6355
2026-01-23 12:40:25.08	65.06	18.89	-40.8	-41.8	22.5	0.00e+00	0	41	0	553648128	54	6314
2026-01-23 12:40:26.38	65.35	18.93	-40.7	-41.8	22.6	0.00e+00	0	41	0	555745280	54	6251
2026-01-23 12:40:27.10	65.52	18.96	-40.7	-41.7	22.6	0.00e+00	46	41	0	556793856	54	6193
2026-01-23 12:40:28.40	65.82	19.00	-40.6	-41.6	22.7	0.00e+00	35	41	0	558891008	54	6136
2026-01-23 12:40:29.12	65.99	19.03	-40.7	-41.7	22.6	0.00e+00	46	41	0	560988160	54	6178
2026-01-23 12:40:30.42	66.29	19.07	-40.6	-41.6	22.7	0.00e+00	0	41	0	563085312	54	6141
2026-01-23 12:40:31.14	66.46	19.10	-40.7	-41.7	22.6	0.00e+00	92	41	0	564133888	54	6195
2026-01-23 12:40:32.44	66.76	19.14	-40.7	-41.8	22.5	0.00e+00	37	41	0	567279616	54	6257
2026-01-23 12:40:33.16	66.93	19.17	-40.9	-42.0	22.4	0.00e+00	92	41	0	568328192	54	6407
2026-01-23 12:40:34.46	67.24	19.21	-40.8	-41.8	22.6	0.00e+00	0	41	0	570425344	54	6310
2026-01-23 12:40:35.17	67.40	19.23	-40.8	-41.9	22.4	0.00e+00	7	41	0	572522496	54	6332
2026-01-23 12:40:36.47	67.71	19.27	-40.8	-41.8	22.6	0.00e+00	34	41	0	574619648	54	6266
2026-01-23 12:40:37.19	67.88	19.30	-40.7	-41.8	22.5	0.00e+00	0	41	0	575668224	54	6252
2026-01-23 12:40:38.49	68.19	19.34	-40.7	-41.7	22.7	0.00e+00	92	41	0	578813952	54	6200
2026-01-23 12:40:39.21	68.36	19.36	-40.6	-41.6	22.7	0.00e+00	34	41	0	579862528	54	6109
2026-01-23 12:40:40.51	68.67	19.40	-40.7	-41.7	22.6	0.00e+00	92	41	0	581959680	54	6216
2026-01-23 12:40:41.23	68.84	19.42	-40.6	-41.6	22.7	0.00e+00	34	41	0	583008256	54	6162
2026-01-23 12:40:42.52	69.14	19.46	-40.4	-41.4	22.9	0.00e+00	0	41	0	586153984	54	5985
2026-01-23 12:40:43.25	69.32	19.48	-40.3	-41.2	23.1	0.00e+00	3	41	0	587202560	54	5890
2026-01-23 12:40:44.55	69.63	19.51	-40.3	-41.3	23.1	0.00e+00	2	41	0	589299712	54	5899
2026-01-23 12:40:45.27	69.80	19.53	-40.2	-41.2	23.1	0.00e+00	69	41	0	591396864	54	5836
2026-01-23 12:40:46.56	70.11	19.57	-40.5	-41.5	22.8	0.00e+00	0	41	0	593494016	54	6057
2026-01-23 12:40:47.28	70.28	19.59	-40.6	-41.6	22.8	0.00e+00	92	41	0	594542592	54	6114
2026-01-23 12:40:48.58	70.60	19.62	-40.6	-41.6	22.6	0.00e+00	29	41	0	597688320	54	6161
2026-01-23 12:40:49.30	70.77	19.64	-40.6	-41.6	22.7	0.00e+00	92	41	0	598736896	54	6138
2026-01-23 12:40:50.60	71.09	19.67	-40.5	-41.5	22.8	0.00e+00	0	41	0	600834048	54	6084
2026-01-23 12:40:51.32	71.26	19.69	-40.3	-41.3	23.0	0.00e+00	0	41	0	601882624	54	5908
2026-01-23 12:40:52.62	71.58	19.72	-40.2	-41.1	23.1	0.00e+00	92	41	0	605028352	54	5810
2026-01-23 12:40:53.34	71.75	19.74	-40.1	-41.1	23.2	0.00e+00	0	41	0	606076928	54	5785
2026-01-23 12:40:54.63	72.06	19.77	-40.2	-41.2	23.1	0.00e+00	92	41	0	608174080	54	5859
2026-01-23 12:40:55.36	72.24	19.79	-40.3	-41.3	23.0	0.00e+00	0	41	0	610271232	54	5932
2026-01-23 12:40:56.65	72.56	19.82	-40.5	-41.5	22.8	0.00e+00	47	41	0	612368384	54	6046
2026-01-23 12:40:57.38	72.74	19.83	-40.5	-41.5	22.7	0.00e+00	2	41	0	613416960	54	6075
2026-01-23 12:40:58.67	73.05	19.86	-40.8	-41.8	22.4	0.00e+00	0	41	0	616562688	54	6278
2026-01-23 12:40:59.40	73.23	19.88	-41.0	-42.0	22.3	0.00e+00	0	41	0	617611264	54	6433
2026-01-23 12:41:00.69	73.55	19.90	-41.2	-42.3	22.1	0.00e+00	48	41	0	619708416	54	6631
2026-01-23 12:41:01.41	73.72	19.92	-41.3	-42.4	22.0	0.00e+00	0	41	0	620756992	54	6722
2026-01-23 12:41:02.71	74.04	19.94	-41.3	-42.4	22.1	0.00e+00	6	41	0	623902720	54	6713
2026-01-23 12:41:03.43	74.22	19.96	-41.2	-42.2	22.1	0.00e+00	92	41	0	624951296	54	6607
2026-01-23 12:41:04.73	74.54	19.98	-40.9	-42.0	22.4	0.00e+00	0	41	0	627048448	54	6401
2026-01-23 12:41:05.45	74.72	19.99	-40.9	-41.9	22.4	0.00e+00	92	41	0	629145600	54	6342
2026-01-23 12:41:06.75	75.04	20.02	-40.8	-41.8	22.6	0.00e+00	0	41	0	631242752	54	6276
2026-01-23 12:41:07.47	75.22	20.03	-40.8	-41.8	22.5	0.00e+00	0	41	0	632291328	54	6288
2026-01-23 12:41:08.77	75.54	20.05	-40.7	-41.7	22.7	0.00e+00	92	41	0	635437056	54	6188
2026-01-23 12:41:09.49	75.72	20.06	-40.7	-41.7	22.6	0.00e+00	46	41	0	636485632	54	6193
2026-01-23 12:41:10.79	76.04	20.08	-41.0	-42.0	22.4	0.00e+00	92	41	0	638582784	54	6431
2026-01-23 12:41:11.51	76.22	20.09	-40.8	-41.8	22.6	0.00e+00	3	41	0	640679936	54	6258
2026-01-23 12:41:12.80	76.54	20.11	-40.9	-42.0	22.3	0.00e+00	0	41	0	642777088	54	6393
2026-01-23 12:41:13.53	76.72	20.12	-41.0	-42.1	22.3	0.00e+00	47	41	0	643825664	54	6483
2026-01-23 12:41:14.82	77.05	20.14	-41.1	-42.2	22.2	0.00e+00	0	41	0	645922816	54	6553
2026-01-23 12:41:15.55	77.23	20.15	-41.3	-42.4	22.1	0.00e+00	0	41	0	648019968	54	6695
2026-01-23 12:41:16.84	77.55	20.16	-41.0	-42.0	22.4	0.00e+00	27	41	0	650117120	54	6455
2026-01-23 12:41:17.56	77.73	20.17	-41.1	-42.1	22.2	0.00e+00	80	41	0	651165696	54	6535
2026-01-23 12:41:18.86	78.06	20.19	-41.0	-42.0	22.4	0.00e+00	28	41	0	654311424	54	6434
2026-01-23 12:41:19.58	78.24	20.19	-41.0	-42.1	22.3	0.00e+00	92	41	0	655360000	54	6489
2026-01-23 12:41:20.88	78.56	20.21	-41.2	-42.3	22.0	0.00e+00	5	41	0	657457152	54	6621
2026-01-23 12:41:21.60	78.74	20.21	-41.3	-42.4	22.0	0.00e+00	92	41	0	659554304	54	6699
2026-01-23 12:41:22.90	79.07	20.23	-41.4	-42.5	21.9	0.00e+00	14	41	0	661651456	54	6826
2026-01-23 12:41:23.62	79.25	20.23	-41.5	-42.6	21.8	0.00e+00	0	41	0	662700032	54	6898
2026-01-23 12:41:24.91	79.57	20.24	-41.5	-42.6	21.8	0.00e+00	90	41	0	664797184	54	6873
2026-01-23 12:41:25.64	79.76	20.25	-41.5	-42.7	21.7	0.00e+00	34	41	0	666894336	54	6938
2026-01-23 12:41:26.94	80.08	20.26	-41.4	-42.5	21.9	0.00e+00	17	41	0	668991488	54	6833
2026-01-23 12:41:27.66	80.26	20.26	-41.4	-42.5	21.9	0.00e+00	49	41	0	670040064	54	6807
2026-01-23 12:41:28.95	80.59	20.27	-41.4	-42.5	21.9	0.00e+00	0	41	0	673185792	54	6833
2026-01-23 12:41:29.67	80.77	20.27	-41.5	-42.6	21.9	0.00e+00	51	41	0	674234368	54	6885
2026-01-23 12:41:30.97	81.10	20.28	-41.4	-42.5	21.9	0.00e+00	0	41	0	676331520	54	6801
2026-01-23 12:41:31.69	81.28	20.28	-41.4	-42.5	21.9	0.00e+00	0	41	0	678428672	54	6777
2026-01-23 12:41:32.99	81.60	20.28	-41.2	-42.3	22.1	0.00e+00	35	41	0	680525824	54	6643
2026-01-23 12:41:33.71	81.79	20.29	-41.0	-42.1	22.2	0.00e+00	92	41	0	681574400	54	6509
2026-01-23 12:41:35.01	82.11	20.29	-40.9	-41.9	22.5	0.00e+00	0	41	0	684720128	54	6356
2026-01-23 12:41:35.73	82.29	20.29	-40.8	-41.8	22.6	0.00e+00	92	41	0	685768704	54	6276
2026-01-23 12:41:37.03	82.62	20.29	-40.6	-41.6	22.7	0.00e+00	0	41	0	687865856	54	6123
2026-01-23 12:41:37.75	82.80	20.29	-40.6	-41.6	22.7	0.00e+00	51	41	0	688914432	54	6112
2026-01-23 12:41:39.05	83.13	20.29	-40.5	-41.5	22.9	0.00e+00	91	41	0	692060160	54	6079
2026-01-23 12:41:39.77	83.31	20.29	-40.5	-41.5	22.8	0.00e+00	0	41	0	693108736	54	6091
2026-01-23 12:41:41.07	83.64	20.29	-40.8	-41.8	22.5	0.00e+00	91	41	0	695205888	54	6264
2026-01-23 12:41:41.79	83.82	20.29	-40.8	-41.8	22.5	0.00e+00	0	41	0	697303040	54	6268
2026-01-23 12:41:43.08	84.15	20.29	-41.0	-42.1	21.7	0.00e+00	48	41	0	699400192	54	6484
2026-01-23 12:41:43.80	84.33	20.29	-41.1	-42.1	22.3	0.00e+00	34	41	0	700448768	54	6521
2026-01-23 12:41:45.10	84.65	20.28	-41.1	-42.1	22.1	0.00e+00	0	41	0	703594496	54	6531
2026-01-23 12:41:45.82	84.84	20.28	-41.1	-42.1	22.1	0.00e+00	7	41	0	704643072	54	6526
2026-01-23 12:41:47.12	85.16	20.27	-40.9	-42.0	22.4	0.00e+00	50	41	0	706740224	54	6400
2026-01-23 12:41:47.84	85.34	20.27	-41.0	-42.1	22.3	0.00e+00	14	41	0	708837376	54	6492
2026-01-23 12:41:49.14	85.67	20.26	-41.0	-42.0	22.4	0.00e+00	0	41	0	710934528	54	6426
2026-01-23 12:41:49.86	85.85	20.26	-40.9	-42.0	22.4	0.00e+00	92	41	0	711983104	54	6413
2026-01-23 12:41:51.16	86.18	20.25	-41.1	-42.2	22.2	0.00e+00	0	41	0	714080256	54	6543
2026-01-23 12:41:51.88	86.36	20.25	-41.2	-42.2	22.2	0.00e+00	92	41	0	716177408	54	6594
2026-01-23 12:41:53.18	86.69	20.24	-41.2	-42.2	22.1	0.00e+00	0	41	0	718274560	54	6612
2026-01-23 12:41:53.90	86.87	20.23	-41.1	-42.1	22.2	0.00e+00	7	41	0	719323136	54	6517
2026-01-23 12:41:55.20	87.19	20.22	-41.1	-42.2	22.2	0.00e+00	91	41	0	722468864	54	6579
2026-01-23 12:41:55.91	87.37	20.21	-41.2	-42.2	22.1	0.00e+00	8	41	0	723517440	54	6609
2026-01-23 12:41:57.21	87.70	20.20	-41.2	-42.2	22.1	0.00e+00	91	41	0	725614592	54	6613
2026-01-23 12:41:57.93	87.88	20.19	-41.2	-42.3	22.0	0.00e+00	0	41	0	727711744	54	6653
2026-01-23 12:41:59.23	88.20	20.18	-41.1	-42.1	22.2	0.00e+00	4	41	0	729808896	54	6536
2026-01-23 12:41:59.95	88.38	20.17	-41.0	-42.0	22.4	0.00e+00	0	41	0	730857472	54	6451
2026-01-23 12:42:01.25	88.71	20.15	-40.6	-41.6	22.7	0.00e+00	34	41	0	732954624	54	6157
2026-01-23 12:42:01.97	88.89	20.15	-40.5	-41.5	22.8	0.00e+00	0	41	0	735051776	54	6084
2026-01-23 12:42:03.27	89.21	20.13	-40.3	-41.3	23.0	0.00e+00	0	41	0	737148928	54	5901
2026-01-23 12:42:03.99	89.39	20.12	-40.5	-41.4	22.8	0.00e+00	2	41	0	738197504	54	6023
2026-01-23 12:42:05.29	89.72	20.10	-40.5	-41.5	22.5	0.00e+00	0	41	0	741343232	54	6083
2026-01-23 12:42:06.01	89.90	20.09	-40.9	-41.9	22.5	0.00e+00	92	41	0	742391808	54	6356
2026-01-23 12:42:07.31	90.22	20.07	-40.8	-41.8	22.5	0.00e+00	0	41	0	744488960	54	6274
2026-01-23 12:42:08.03	90.40	20.06	-40.9	-42.0	22.3	0.00e+00	92	41	0	746586112	54	6414
2026-01-23 12:42:09.32	90.72	20.04	-40.9	-42.0	22.4	0.00e+00	89	41	0	748683264	54	6399
2026-01-23 12:42:10.04	90.90	20.03	-41.0	-42.0	22.4	0.00e+00	46	41	0	749731840	54	6430
2026-01-23 12:42:11.34	91.22	20.00	-40.8	-41.8	22.6	0.00e+00	90	41	0	752877568	54	6262
2026-01-23 12:42:12.06	91.40	19.99	-40.5	-41.5	22.9	0.00e+00	34	41	0	753926144	54	6072
2026-01-23 12:42:13.36	91.72	19.97	-40.3	-41.2	23.1	0.00e+00	92	41	0	756023296	54	5895
2026-01-23 12:42:14.08	91.90	19.95	-40.2	-41.1	23.1	0.00e+00	0	41	0	757071872	54	5813
2026-01-23 12:42:15.38	92.22	19.93	-40.3	-41.2	23.0	0.00e+00	2	41	0	760217600	54	5871
2026-01-23 12:42:16.10	92.40	19.92	-40.4	-41.4	22.8	0.00e+00	0	41	0	761266176	54	5973
2026-01-23 12:42:17.40	92.72	19.89	-39.9	-40.8	23.3	0.00e+00	0	41	0	763363328	54	5625
2026-01-23 12:42:18.12	92.89	19.87	-39.8	-40.8	23.5	0.00e+00	54	41	0	765460480	52	6252
2026-01-23 12:42:19.42	93.21	19.85	-39.7	-40.6	23.6	0.00e+00	0	41	0	767557632	52	6123
2026-01-23 12:42:20.14	93.39	19.83	-39.8	-40.7	23.4	0.00e+00	92	41	0	768606208	52	6186
2026-01-23 12:42:21.44	93.71	19.80	-39.6	-40.5	23.7	0.00e+00	30	41	0	771751936	52	6063
2026-01-23 12:42:22.16	93.88	19.79	-39.6	-40.5	23.6	0.00e+00	92	41	0	772800512	52	6093
2026-01-23 12:42:23.45	94.20	19.75	-39.8	-40.8	23.5	0.00e+00	52	41	0	774897664	52	6247
2026-01-23 12:42:24.17	94.37	19.74	-40.0	-40.9	23.3	0.00e+00	0	41	0	775946240	52	6389
2026-01-23 12:42:25.47	94.69	19.71	-40.2	-41.1	23.1	0.00e+00	92	41	0	779091968	52	6523
2026-01-23 12:42:26.19	94.86	19.69	-40.2	-41.2	23.1	0.00e+00	35	41	0	780140544	52	6540
2026-01-23 12:42:27.49	95.18	19.66	-40.2	-41.2	23.1	0.00e+00	90	41	0	782237696	52	6556
2026-01-23 12:42:28.21	95.35	19.64	-40.3	-41.3	23.0	0.00e+00	34	41	0	784334848	52	6625
2026-01-23 12:42:29.51	95.67	19.60	-40.0	-41.0	23.3	0.00e+00	14	41	0	786432000	52	6404
2026-01-23 12:42:30.23	95.84	19.58	-40.0	-40.9	23.3	0.00e+00	47	41	0	787480576	52	6385
2026-01-23 12:42:31.53	96.15	19.55	-39.9	-40.8	23.5	0.00e+00	3	41	0	790626304	52	6281
2026-01-23 12:42:32.25	96.33	19.53	-39.9	-40.8	23.5	0.00e+00	47	41	0	791674880	52	6284
2026-01-23 12:42:33.55	96.64	19.49	-39.6	-40.5	23.8	0.00e+00	2	41	0	793772032	52	6051
2026-01-23 12:42:34.27	96.81	19.47	-39.4	-40.2	23.9	0.00e+00	0	41	0	795869184	52	5887
2026-01-23 12:42:35.57	97.12	19.43	-39.1	-40.0	24.2	0.00e+00	0	41	0	797966336	52	5704
2026-01-23 12:42:36.29	97.29	19.41	-39.1	-39.9	24.3	0.00e+00	92	41	0	799014912	52	5695
2026-01-23 12:42:37.59	97.60	19.37	-38.8	-39.7	24.4	0.00e+00	33	41	0	801112064	52	5518
2026-01-23 12:42:38.31	97.77	19.35	-38.9	-39.7	24.3	0.00e+00	92	41	0	803209216	52	5539
2026-01-23 12:42:39.61	98.08	19.31	-39.0	-39.9	24.2	0.00e+00	0	41	0	805306368	52	5650
2026-01-23 12:42:40.33	98.25	19.29	-39.1	-40.0	24.1	0.00e+00	0	41	0	806354944	52	5736
2026-01-23 12:42:41.63	98.56	19.25	-39.5	-40.4	23.7	0.00e+00	92	41	0	809500672	52	5995
2026-01-23 12:42:42.35	98.73	19.22	-39.5	-40.4	23.8	0.00e+00	2	41	0	810549248	52	5989
2026-01-23 12:42:43.64	99.03	19.18	-39.8	-40.7	23.5	0.00e+00	23	41	0	812646400	52	6192
2026-01-23 12:42:44.36	99.20	19.16	-39.8	-40.7	23.4	0.00e+00	0	41	0	814743552	52	6200
2026-01-23 12:42:45.66	99.51	19.12	-40.0	-41.0	23.3	0.00e+00	34	41	0	816840704	52	6406
2026-01-23 12:42:46.38	99.68	19.09	-39.6	-40.5	23.6	0.00e+00	34	41	0	817889280	52	6080
2026-01-23 12:42:47.68	99.98	19.05	-39.4	-40.3	23.8	0.00e+00	53	41	0	821035008	52	5957
2026-01-23 12:42:48.40	100.15	19.02	-39.6	-40.5	23.8	0.00e+00	0	41	0	822083584	52	6040
2026-01-23 12:42:49.70	100.45	18.98	-39.4	-40.3	23.9	0.00e+00	54	41	0	824180736	52	5912
2026-01-23 12:42:50.42	100.62	18.95	-39.1	-40.0	24.1	0.00e+00	2	41	0	825229312	52	5719
2026-01-23 12:42:51.71	100.91	18.90	-38.9	-39.8	24.3	0.00e+00	0	41	0	828375040	52	5588
2026-01-23 12:42:52.44	101.08	18.88	-38.7	-39.5	24.5	0.00e+00	92	41	0	829423616	50	6103
2026-01-23 12:42:53.74	101.38	18.83	-38.6	-39.4	24.6	0.00e+00	6	41	0	831520768	50	6030
2026-01-23 12:42:54.46	101.55	18.80	-38.5	-39.3	24.6	0.00e+00	92	41	0	833617920	50	5951
2026-01-23 12:42:55.76	101.85	18.75	-38.5	-39.3	24.6	0.00e+00	2	41	0	835715072	50	5936
2026-01-23 12:42:56.48	102.01	18.73	-38.5	-39.3	24.7	0.00e+00	47	41	0	836763648	50	5934
2026-01-23 12:42:57.78	102.31	18.68	-38.5	-39.3	24.7	0.00e+00	90	41	0	839909376	50	5935
2026-01-23 12:42:58.50	102.47	18.65	-38.6	-39.4	24.7	0.00e+00	0	41	0	840957952	50	5975
2026-01-23 12:42:59.79	102.76	18.60	-38.5	-39.4	24.6	0.00e+00	0	41	0	843055104	50	5975
2026-01-23 12:43:00.51	102.93	18.57	-38.7	-39.5	24.5	0.00e+00	48	41	0	844103680	50	6070
2026-01-23 12:43:01.81	103.22	18.52	-38.8	-39.6	24.3	0.00e+00	0	41	0	847249408	50	6135
2026-01-23 12:43:02.53	103.38	18.49	-38.9	-39.7	24.1	0.00e+00	0	41	0	848297984	50	6221
2026-01-23 12:43:03.83	103.67	18.44	-39.1	-39.9	24.1	0.00e+00	54	41	0	850395136	50	6370
2026-01-23 12:43:04.55	103.83	18.41	-39.2	-40.1	24.0	0.00e+00	0	41	0	852492288	50	6481
2026-01-23 12:43:05.85	104.12	18.35	-39.3	-40.1	23.6	0.00e+00	7	41	0	854589440	50	6529
2026-01-23 12:43:06.57	104.28	18.32	-39.2	-40.1	24.0	0.00e+00	42	41	0	855638016	50	6473
2026-01-23 12:43:07.87	104.57	18.27	-39.2	-40.1	23.9	0.00e+00	57	41	0	858783744	50	6490
2026-01-23 12:43:08.59	104.73	18.24	-39.2	-40.1	23.8	0.00e+00	92	41	0	859832320	50	6519
2026-01-23 12:43:09.89	105.02	18.18	-39.3	-40.2	23.9	0.00e+00	53	41	0	861929472	50	6549
2026-01-23 12:43:10.61	105.18	18.15	-39.3	-40.1	23.9	0.00e+00	32	41	0	864026624	50	6535
2026-01-23 12:43:11.91	105.46	18.10	-39.6	-40.5	23.5	0.00e+00	92	41	0	866123776	50	6813
2026-01-23 12:43:12.63	105.62	18.06	-39.7	-40.6	23.5	0.00e+00	34	41	0	867172352	50	6885
2026-01-23 12:43:13.92	105.90	18.01	-39.7	-40.6	23.5	0.00e+00	92	41	0	869269504	52	6151
2026-01-23 12:43:14.65	106.06	17.97	-39.7	-40.6	23.5	0.00e+00	0	41	0	871366656	52	6156
2026-01-23 12:43:15.94	106.34	17.92	-40.0	-40.9	23.1	0.00e+00	6	41	0	873463808	52	6347
2026-01-23 12:43:16.66	106.50	17.88	-39.6	-40.5	23.6	0.00e+00	27	41	0	874512384	52	6064
2026-01-23 12:43:17.96	106.78	17.83	-39.9	-40.8	23.4	0.00e+00	0	41	0	877658112	52	6290
2026-01-23 12:43:18.68	106.94	17.79	-39.8	-40.7	23.3	0.00e+00	56	41	0	878706688	52	6207
2026-01-23 12:43:19.97	107.21	17.73	-40.0	-40.9	23.2	0.00e+00	6	41	0	880803840	52	6366
2026-01-23 12:43:20.69	107.37	17.70	-40.1	-41.1	23.2	0.00e+00	59	41	0	882900992	52	6487
2026-01-23 12:43:21.99	107.64	17.64	-40.3	-41.3	23.0	0.00e+00	29	41	0	884998144	52	6623
2026-01-23 12:43:22.71	107.80	17.61	-40.3	-41.3	22.9	0.00e+00	92	41	0	886046720	52	6632
2026-01-23 12:43:24.01	108.07	17.54	-40.2	-41.2	23.0	0.00e+00	0	41	0	888143872	52	6576
2026-01-23 12:43:24.73	108.23	17.51	-40.3	-41.3	23.0	0.00e+00	92	41	0	890241024	52	6623
2026-01-23 12:43:26.03	108.50	17.45	-40.3	-41.3	22.9	0.00e+00	29	41	0	892338176	52	6642
2026-01-23 12:43:26.75	108.65	17.41	-40.3	-41.3	22.9	0.00e+00	6	41	0	893386752	52	6688
2026-01-23 12:43:28.05	108.92	17.35	-40.2	-41.2	23.0	0.00e+00	92	41	0	896532480	52	6578
2026-01-23 12:43:28.77	109.07	17.32	-40.4	-41.4	22.9	0.00e+00	6	41	0	897581056	52	6753
2026-01-23 12:43:30.07	109.34	17.25	-40.5	-41.5	22.7	0.00e+00	92	41	0	899678208	52	6829
2026-01-23 12:43:30.79	109.49	17.22	-40.5	-41.6	22.6	0.00e+00	33	41	0	901775360	52	6856
2026-01-23 12:43:32.09	109.76	17.15	-40.6	-41.6	22.6	0.00e+00	48	41	0	903872512	52	6915
2026-01-23 12:43:32.81	109.91	17.12	-40.7	-41.8	22.4	0.00e+00	0	41	0	904921088	52	7048
2026-01-23 12:43:34.11	110.18	17.05	-41.0	-42.1	22.3	0.00e+00	0	41	0	908066816	54	6474
2026-01-23 12:43:34.83	110.33	17.02	-41.1	-42.1	22.2	0.00e+00	25	41	0	909115392	54	6537
2026-01-23 12:43:36.13	110.59	16.95	-40.5	-41.5	22.7	0.00e+00	0	41	0	911212544	54	6091
2026-01-23 12:43:36.85	110.74	16.92	-40.5	-41.5	22.7	0.00e+00	4	41	0	912261120	54	6072
2026-01-23 12:43:38.15	111.00	16.85	-40.5	-41.5	22.7	0.00e+00	0	41	0	915406848	54	6100
2026-01-23 12:43:38.87	111.15	16.81	-40.4	-41.4	22.8	0.00e+00	92	41	0	916455424	54	5993
2026-01-23 12:43:40.17	111.41	16.75	-40.2	-41.2	22.9	0.00e+00	0	41	0	918552576	54	5856
2026-01-23 12:43:40.89	111.55	16.71	-40.3	-41.3	22.8	0.00e+00	64	41	0	920649728	54	5939
2026-01-23 12:43:42.19	111.81	16.64	-40.4	-41.4	22.7	0.00e+00	34	41	0	922746880	54	5993
2026-01-23 12:43:42.91	111.96	16.60	-40.4	-41.4	22.8	0.00e+00	53	41	0	923795456	54	5996
2026-01-23 12:43:44.20	112.21	16.54	-40.5	-41.5	22.7	0.00e+00	90	41	0	926941184	54	6065
2026-01-23 12:43:44.92	112.36	16.50	-40.6	-41.6	22.6	0.00e+00	54	41	0	927989760	54	6130
2026-01-23 12:43:46.22	112.61	16.43	-40.8	-41.9	22.4	0.00e+00	92	41	0	930086912	54	6342
2026-01-23 12:43:46.94	112.76	16.39	-40.9	-41.9	22.3	0.00e+00	0	41	0	932184064	54	6364
2026-01-23 12:43:48.24	113.01	16.32	-40.7	-41.7	22.5	0.00e+00	29	41	0	934281216	54	6193
2026-01-23 12:43:48.96	113.15	16.29	-40.7	-41.8	22.5	0.00e+00	0	41	0	935329792	54	6256
2026-01-23 12:43:50.26	113.41	16.22	-40.6	-41.7	22.5	0.00e+00	53	41	0	937426944	54	6178
2026-01-23 12:43:50.98	113.55	16.18	-40.3	-41.3	22.8	0.00e+00	7	41	0	939524096	54	5928
2026-01-23 12:43:52.28	113.80	16.11	-40.1	-41.0	23.1	0.00e+00	28	41	0	941621248	54	5748
2026-01-23 12:43:53.00	113.94	16.07	-40.0	-40.9	23.2	0.00e+00	13	41	0	942669824	54	5676
2026-01-23 12:43:54.30	114.19	16.00	-39.7	-40.6	23.5	0.00e+00	0	41	0	945815552	52	6138
2026-01-23 12:43:55.02	114.32	15.96	-39.7	-40.7	23.4	0.00e+00	90	41	0	946864128	52	6180
2026-01-23 12:43:56.32	114.57	15.89	-39.8	-40.7	23.4	0.00e+00	0	41	0	948961280	52	6208
2026-01-23 12:43:57.04	114.71	15.85	-39.7	-40.6	23.5	0.00e+00	60	41	0	951058432	52	6168
2026-01-23 12:43:58.34	114.95	15.78	-39.8	-40.7	23.4	0.00e+00	92	41	0	953155584	52	6218
2026-01-23 12:43:59.06	115.09	15.74	-39.9	-40.8	23.2	0.00e+00	49	41	0	954204160	52	6317
2026-01-23 12:44:00.36	115.33	15.67	-39.9	-40.8	23.3	0.00e+00	92	41	0	956301312	52	6295
2026-01-23 12:44:01.08	115.47	15.63	-40.1	-41.1	23.1	0.00e+00	49	41	0	958398464	52	6480
2026-01-23 12:44:02.38	115.71	15.55	-40.2	-41.2	22.6	0.00e+00	92	41	0	960495616	52	6600
2026-01-23 12:44:03.10	115.85	15.51	-40.5	-41.5	22.5	0.00e+00	48	41	0	961544192	52	6819
2026-01-23 12:44:04.40	116.09	15.44	-40.8	-41.9	22.2	0.00e+00	34	41	0	964689920	54	6364
2026-01-23 12:44:05.12	116.22	15.40	-41.1	-42.2	21.9	0.00e+00	49	41	0	965738496	54	6589
2026-01-23 12:44:06.41	116.46	15.33	-41.2	-42.4	21.7	0.00e+00	33	41	0	967835648	54	6694
2026-01-23 12:44:07.14	116.59	15.29	-41.2	-42.3	21.8	0.00e+00	0	41	0	969932800	54	6690
2026-01-23 12:44:08.43	116.83	15.21	-40.8	-41.9	22.2	0.00e+00	47	41	0	972029952	54	6353
2026-01-23 12:44:09.15	116.96	15.17	-40.6	-41.7	22.5	0.00e+00	92	41	0	973078528	54	6182
2026-01-23 12:44:10.45	117.19	15.10	-40.2	-41.1	22.9	0.00e+00	0	41	0	976224256	54	5823
2026-01-23 12:44:11.17	117.32	15.06	-40.0	-40.9	23.2	0.00e+00	90	41	0	977272832	54	5667
2026-01-23 12:44:12.47	117.56	14.99	-40.0	-40.9	23.1	0.00e+00	31	41	0	979369984	54	5688
2026-01-23 12:44:13.19	117.69	14.94	-40.0	-40.9	23.1	0.00e+00	7	41	0	980418560	54	5675
2026-01-23 12:44:14.49	117.92	14.87	-40.0	-41.0	23.0	0.00e+00	92	41	0	983564288	54	5717
2026-01-23 12:44:15.21	118.05	14.83	-40.2	-41.2	22.9	0.00e+00	32	41	0	984612864	54	5835
2026-01-23 12:44:16.50	118.27	14.75	-40.3	-41.3	22.8	0.00e+00	92	41	0	986710016	54	5943
2026-01-23 12:44:17.23	118.40	14.71	-40.2	-41.2	22.8	0.00e+00	0	41	0	988807168	54	5889
2026-01-23 12:44:18.52	118.63	14.64	-40.1	-41.1	23.0	0.00e+00	0	41	0	990904320	54	5784
2026-01-23 12:44:19.24	118.76	14.60	-40.0	-40.9	23.0	0.00e+00	4	41	0	991952896	54	5684
2026-01-23 12:44:20.54	118.98	14.52	-40.0	-41.0	23.0	0.00e+00	0	41	0	995098624	54	5749
2026-01-23 12:44:21.26	119.11	14.48	-39.9	-40.9	23.2	0.00e+00	54	41	0	996147200	54	5667
2026-01-23 12:44:22.56	119.33	14.40	-39.8	-40.8	23.3	0.00e+00	0	41	0	998244352	52	6276
2026-01-23 12:44:23.28	119.46	14.36	-39.9	-40.9	23.2	0.00e+00	0	41	0	999292928	52	6368
2026-01-23 12:44:24.57	119.68	14.29	-40.1	-41.1	23.0	0.00e+00	0	41	0	1002438656	52	6504
2026-01-23 12:44:25.30	119.81	14.24	-40.2	-41.2	22.9	0.00e+00	92	41	0	1003487232	52	6582
2026-01-23 12:44:26.59	120.03	14.17	-40.3	-41.3	22.8	0.00e+00	0	41	0	1005584384	52	6686
2026-01-23 12:44:27.32	120.15	14.13	-40.3	-41.3	22.8	0.00e+00	92	41	0	1007681536	52	6649
2026-01-23 12:44:28.61	120.37	14.05	-40.1	-41.1	23.0	0.00e+00	0	41	0	1009778688	52	6494
2026-01-23 12:44:29.33	120.49	14.01	-40.0	-41.0	23.1	0.00e+00	0	41	0	1010827264	52	6411
2026-01-23 12:44:30.63	120.71	13.93	-39.8	-40.8	23.2	0.00e+00	92	41	0	1013972992	52	6272
2026-01-23 12:44:31.35	120.83	13.89	-39.7	-40.6	23.4	0.00e+00	0	41	0	1015021568	52	6162
2026-01-23 12:44:32.65	121.04	13.81	-39.7	-40.6	23.4	0.00e+00	92	41	0	1017118720	52	6156
2026-01-23 12:44:33.37	121.16	13.77	-39.8	-40.8	23.1	0.00e+00	2	41	0	1018167296	52	6266
2026-01-23 12:44:34.67	121.38	13.69	-40.0	-41.0	23.0	0.00e+00	0	41	0	1021313024	52	6427
2026-01-23 12:44:35.39	121.50	13.65	-40.3	-41.2	22.9	0.00e+00	0	41	0	1022361600	52	6606
2026-01-23 12:44:36.69	121.71	13.57	-40.4	-41.4	22.7	0.00e+00	50	41	0	1024458752	52	6741
2026-01-23 12:44:37.41	121.83	13.53	-40.4	-41.4	22.7	0.00e+00	0	41	0	1026555904	52	6717
2026-01-23 12:44:38.71	122.04	13.45	-40.3	-41.3	22.8	0.00e+00	6	41	0	1028653056	52	6662
2026-01-23 12:44:39.43	122.16	13.41	-40.3	-41.3	22.8	0.00e+00	1	41	0	1029701632	52	6645
2026-01-23 12:44:40.72	122.37	13.33	-39.9	-40.8	23.3	0.00e+00	49	41	0	1032847360	52	6276
2026-01-23 12:44:41.44	122.48	13.29	-39.9	-40.9	23.1	0.00e+00	92	41	0	1033895936	52	6346
2026-01-23 12:44:42.74	122.69	13.21	-39.8	-40.7	23.3	0.00e+00	0	41	0	1035993088	52	6235
2026-01-23 12:44:43.46	122.81	13.17	-39.8	-40.7	23.3	0.00e+00	0	41	0	1038090240	52	6220
2026-01-23 12:44:44.76	123.01	13.09	-39.9	-40.8	23.3	0.00e+00	15	41	0	1040187392	52	6275
2026-01-23 12:44:45.48	123.13	13.05	-39.9	-40.8	23.3	0.00e+00	50	41	0	1041235968	52	6294
2026-01-23 12:44:46.78	123.33	12.97	-40.2	-41.2	22.9	0.00e+00	92	41	0	1043333120	52	6572
2026-01-23 12:44:47.50	123.44	12.93	-40.3	-41.3	22.7	0.00e+00	61	41	0	1045430272	52	6687
2026-01-23 12:44:48.80	123.65	12.85	-40.6	-41.6	22.5	0.00e+00	82	41	0	1047527424	52	6887
2026-01-23 12:44:49.52	123.76	12.80	-40.6	-41.6	22.5	0.00e+00	56	41	0	1048576000	52	6898
2026-01-23 12:44:50.82	123.96	12.73	-40.7	-41.7	22.4	0.00e+00	24	41	0	1051721728	52	6957
2026-01-23 12:44:51.54	124.07	12.68	-40.5	-41.5	22.6	0.00e+00	0	41	0	1052770304	52	6805
2026-01-23 12:44:52.84	124.27	12.60	-40.3	-41.2	22.9	0.00e+00	24	41	0	1054867456	52	6609
2026-01-23 12:44:53.56	124.38	12.56	-40.2	-41.2	22.9	0.00e+00	0	41	0	1056964608	52	6595
2026-01-23 12:44:54.86	124.58	12.48	-40.2	-41.2	22.9	0.00e+00	28	41	0	1059061760	52	6543
2026-01-23 12:44:55.58	124.69	12.44	-40.3	-41.3	22.6	0.00e+00	89	41	0	1060110336	52	6673
2026-01-23 12:44:56.87	124.89	12.36	-40.4	-41.4	22.7	0.00e+00	31	41	0	1062207488	52	6735
2026-01-23 12:44:57.59	125.00	12.32	-40.4	-41.4	22.5	0.00e+00	92	41	0	1064304640	52	6769
2026-01-23 12:44:58.89	125.19	12.24	-40.7	-41.7	22.4	0.00e+00	56	41	0	1066401792	52	6983
2026-01-23 12:44:59.62	125.30	12.20	-40.8	-41.9	22.3	0.00e+00	0	41	0	1067450368	54	6331
2026-01-23 12:45:00.91	125.49	12.12	-40.6	-41.7	22.4	0.00e+00	91	41	0	1070596096	54	6191
2026-01-23 12:45:01.64	125.60	12.07	-40.8	-41.8	22.3	0.00e+00	49	41	0	1071644672	54	6287
2026-01-23 12:45:02.93	125.79	12.00	-40.7	-41.7	22.4	0.00e+00	92	41	0	1073741824	54	6233
2026-01-23 12:45:03.65	125.90	11.95	-40.7	-41.7	22.4	0.00e+00	50	41	0	1075838976	54	6206
2026-01-23 12:45:04.95	126.09	11.87	-40.2	-41.2	22.8	0.00e+00	62	40	0	1077936128	54	5854
2026-01-23 12:45:05.67	126.20	11.83	-40.2	-41.2	22.8	0.00e+00	52	41	0	1078984704	54	5871
2026-01-23 12:45:06.97	126.39	11.75	-40.2	-41.2	22.8	0.00e+00	6	41	0	1082130432	54	5843
2026-01-23 12:45:07.69	126.49	11.71	-40.3	-41.3	22.7	0.00e+00	0	41	0	1083179008	54	5953
2026-01-23 12:45:08.99	126.68	11.63	-40.6	-41.6	22.4	0.00e+00	31	41	0	1085276160	54	6166
2026-01-23 12:45:09.71	126.78	11.58	-40.7	-41.7	22.3	0.00e+00	60	41	0	1086324736	54	6237
2026-01-23 12:45:11.00	126.97	11.51	-41.0	-42.0	22.0	0.00e+00	0	41	0	1089470464	54	6461
2026-01-23 12:45:11.73	127.07	11.46	-41.1	-42.2	21.8	0.00e+00	90	40	0	1090519040	54	6591
2026-01-23 12:45:13.02	127.25	11.38	-41.2	-42.3	21.8	0.00e+00	31	41	0	1092616192	54	6642
2026-01-23 12:45:13.75	127.36	11.34	-41.2	-42.3	21.6	0.00e+00	92	41	0	1094713344	54	6689
2026-01-23 12:45:15.04	127.54	11.26	-41.1	-42.2	21.8	0.00e+00	26	41	0	1096810496	54	6597
2026-01-23 12:45:15.76	127.64	11.22	-41.1	-42.2	21.7	0.00e+00	0	41	0	1097859072	54	6585
2026-01-23 12:45:17.06	127.82	11.14	-41.0	-42.0	22.0	0.00e+00	92	40	0	1101004800	54	6452
2026-01-23 12:45:17.79	127.92	11.09	-40.9	-42.0	22.1	0.00e+00	25	41	0	1102053376	54	6439
2026-01-23 12:45:19.08	128.10	11.02	-40.9	-41.9	22.1	0.00e+00	91	41	0	1104150528	54	6366
2026-01-23 12:45:19.81	128.20	10.97	-40.8	-41.9	22.1	0.00e+00	23	40	0	1106247680	54	6332
2026-01-23 12:45:21.10	128.38	10.89	-40.9	-42.0	21.5	0.00e+00	0	40	0	1108344832	54	6436
2026-01-23 12:45:21.83	128.48	10.85	-40.9	-42.0	21.7	0.00e+00	6	40	0	1109393408	54	6416
2026-01-23 12:45:23.12	128.66	10.77	-41.1	-42.2	21.8	0.00e+00	0	41	0	1111490560	54	6543
2026-01-23 12:45:23.84	128.76	10.73	-41.0	-42.1	21.9	0.00e+00	62	41	0	1113587712	54	6528
2026-01-23 12:45:25.14	128.93	10.65	-41.1	-42.2	21.8	0.00e+00	0	40	0	1115684864	54	6579
2026-01-23 12:45:25.86	129.03	10.61	-41.0	-42.1	21.9	0.00e+00	16	41	0	1116733440	54	6512
2026-01-23 12:45:27.16	129.20	10.53	-41.1	-42.2	21.8	0.00e+00	0	40	0	1119879168	54	6579
2026-01-23 12:45:27.88	129.30	10.48	-41.1	-42.2	21.7	0.00e+00	92	40	0	1120927744	54	6615
2026-01-23 12:45:29.18	129.47	10.40	-41.1	-42.3	21.7	0.00e+00	30	40	0	1123024896	54	6628
2026-01-23 12:45:29.90	129.57	10.36	-41.1	-42.2	21.8	0.00e+00	7	41	0	1125122048	54	6579
2026-01-23 12:45:31.20	129.74	10.28	-41.1	-42.2	21.9	0.00e+00	0	40	0	1127219200	54	6547
2026-01-23 12:45:31.92	129.84	10.24	-41.1	-42.2	21.9	0.00e+00	57	41	0	1128267776	54	6568
2026-01-23 12:45:33.21	130.01	10.16	-41.2	-42.4	21.6	0.00e+00	92	41	0	1130364928	54	6708
2026-01-23 12:45:33.94	130.10	10.12	-41.4	-42.5	21.4	0.00e+00	0	40	0	1132462080	54	6820
2026-01-23 12:45:35.23	130.27	10.04	-41.8	-43.0	21.2	0.00e+00	90	40	0	1134559232	56	6423
2026-01-23 12:45:35.96	130.36	9.99	-41.9	-43.1	21.1	0.00e+00	0	40	0	1135607808	56	6476
2026-01-23 12:45:37.25	130.53	9.92	-41.9	-43.1	21.1	0.00e+00	52	40	0	1138753536	56	6510
2026-01-23 12:45:37.97	130.62	9.87	-42.0	-43.2	21.0	0.00e+00	7	40	0	1139802112	56	6585
2026-01-23 12:45:39.27	130.79	9.79	-42.1	-43.3	20.8	0.00e+00	0	41	0	1141899264	56	6679
2026-01-23 12:45:40.00	130.88	9.75	-42.2	-43.5	20.6	0.00e+00	0	40	0	1143996416	56	6783
2026-01-23 12:45:41.30	131.05	9.67	-42.2	-43.5	20.6	0.00e+00	2	40	0	1146093568	56	6807
2026-01-23 12:45:42.02	131.14	9.63	-42.0	-43.2	20.9	0.00e+00	92	41	0	1147142144	56	6610
2026-01-23 12:45:43.31	131.30	9.55	-41.5	-42.6	21.4	0.00e+00	53	40	0	1150287872	56	6162
2026-01-23 12:45:44.04	131.39	9.51	-41.5	-42.7	21.5	0.00e+00	90	40	0	1151336448	56	6177
2026-01-23 12:45:45.33	131.55	9.43	-41.5	-42.7	21.4	0.00e+00	0	41	0	1153433600	56	6222
2026-01-23 12:45:46.05	131.64	9.38	-41.5	-42.6	21.4	0.00e+00	52	41	0	1154482176	56	6168
2026-01-23 12:45:47.35	131.80	9.31	-41.0	-42.1	21.9	0.00e+00	26	40	0	1157627904	56	5798
2026-01-23 12:45:48.07	131.89	9.26	-41.1	-42.2	21.8	0.00e+00	59	40	0	1158676480	56	5834
2026-01-23 12:45:49.37	132.05	9.19	-41.2	-42.3	21.7	0.00e+00	91	40	0	1160773632	56	5932
2026-01-23 12:45:50.09	132.14	9.14	-41.3	-42.4	21.7	0.00e+00	0	40	0	1162870784	56	6017
2026-01-23 12:45:51.39	132.30	9.06	-41.5	-42.7	21.4	0.00e+00	89	40	0	1164967936	56	6182
2026-01-23 12:45:52.11	132.39	9.02	-41.4	-42.5	21.5	0.00e+00	58	40	0	1166016512	56	6103
2026-01-23 12:45:53.41	132.55	8.94	-41.5	-42.7	21.3	0.00e+00	18	40	0	1169162240	56	6175
2026-01-23 12:45:54.13	132.63	8.90	-41.6	-42.8	21.3	0.00e+00	2	40	0	1170210816	56	6258
2026-01-23 12:45:55.43	132.79	8.82	-41.6	-42.8	21.2	0.00e+00	0	40	0	1172307968	56	6288
2026-01-23 12:45:56.15	132.87	8.78	-41.7	-42.9	21.2	0.00e+00	2	40	0	1174405120	56	6345
2026-01-23 12:45:57.45	133.03	8.70	-41.8	-43.0	21.0	0.00e+00	53	41	0	1176502272	56	6458
2026-01-23 12:45:58.17	133.11	8.66	-41.6	-42.8	21.2	0.00e+00	90	40	0	1177550848	56	6274
2026-01-23 12:45:59.47	133.27	8.58	-41.6	-42.8	21.2	0.00e+00	54	40	0	1179648000	56	6265
2026-01-23 12:46:00.19	133.35	8.54	-41.7	-43.0	21.0	0.00e+00	90	40	0	1181745152	56	6398
2026-01-23 12:46:01.49	133.51	8.46	-42.0	-43.3	20.8	0.00e+00	62	40	0	1183842304	56	6645
2026-01-23 12:46:02.21	133.59	8.42	-42.0	-43.3	20.7	0.00e+00	0	40	0	1184890880	56	6665
2026-01-23 12:46:03.50	133.74	8.34	-42.4	-43.7	20.3	0.00e+00	92	40	0	1188036608	56	7003
2026-01-23 12:46:04.22	133.82	8.30	-42.5	-43.8	20.2	0.00e+00	0	41	0	1189085184	56	7049
2026-01-23 12:46:05.52	133.97	8.22	-42.4	-43.8	20.3	0.00e+00	92	41	0	1191182336	56	7035
2026-01-23 12:46:06.24	134.06	8.18	-42.5	-43.9	20.1	0.00e+00	52	41	0	1193279488	56	7121
2026-01-23 12:46:07.53	134.20	8.10	-42.3	-43.7	20.4	0.00e+00	2	41	0	1195376640	56	6939
2026-01-23 12:46:08.25	134.29	8.06	-42.2	-43.5	20.5	0.00e+00	52	41	0	1196425216	56	6840
2026-01-23 12:46:09.55	134.43	7.98	-42.3	-43.7	20.3	0.00e+00	2	40	0	1198522368	56	6940
2026-01-23 12:46:10.27	134.52	7.94	-42.1	-43.5	20.6	0.00e+00	53	41	0	1200619520	56	6788
2026-01-23 12:46:11.57	134.66	7.86	-42.0	-43.2	20.7	0.00e+00	3	41	0	1202716672	56	6615
2026-01-23 12:46:12.29	134.74	7.82	-42.0	-43.3	20.7	0.00e+00	84	41	0	1203765248	56	6633
2026-01-23 12:46:13.59	134.89	7.74	-42.0	-43.3	20.7	0.00e+00	0	40	0	1206910976	56	6617
2026-01-23 12:46:14.31	134.97	7.70	-42.2	-43.5	20.4	0.00e+00	92	40	0	1207959552	56	6821
2026-01-23 12:46:15.61	135.11	7.62	-42.2	-43.5	20.4	0.00e+00	27	41	0	1210056704	56	6788
2026-01-23 12:46:16.33	135.19	7.58	-42.0	-43.3	20.6	0.00e+00	92	40	0	1212153856	56	6657
2026-01-23 12:46:17.63	135.34	7.50	-42.1	-43.4	20.6	0.00e+00	0	40	0	1214251008	56	6743
2026-01-23 12:46:18.35	135.41	7.46	-42.0	-43.3	20.6	0.00e+00	0	41	0	1215299584	56	6655
2026-01-23 12:46:19.64	135.56	7.38	-42.4	-43.8	20.2	0.00e+00	90	41	0	1218445312	56	7038
