passes_logs/2026/01/23/R4.6S_Anadyr/R4.6S_Anadyr__20260123_141507_NOAA_20_JPSS-1_rec.log

#Pass ID: 20260123_141507_NOAA 20 (JPSS-1)
#Satellite: NOAA 20 (JPSS-1)
#Configuration: NOAA 20
#almurnet v.1.7.20251203
#Start time: 2026-01-23 14:15:10

#Version: 2.2.20231116
#Station: R4.6S_Anadyr
#Location: 177.4865 lon 64.73178 lat
#TLE: 1 43013U 17073A   26022.44900781  .00000193  00000+0  11233-3 0  9999
#TLE: 2 43013  98.7645 323.3100 0001197  28.8413 331.2829 14.19538802423792

#Time	Az	El	Level	Level2	SNR	BER	BlckErr	Temp	State	Recorded	gain1	gain2
2026-01-23 14:15:10.47	19.72	0.21	-50.9	-64.6	3.3	1.54e+00	0	40	0	0	60	61335
2026-01-23 14:15:11.48	19.74	0.27	-50.9	-66.1	3.6	1.51e+00	0	40	104	0	60	72819
2026-01-23 14:15:12.49	19.76	0.33	-50.9	-66.1	3.6	1.51e+00	0	40	104	0	60	72915
2026-01-23 14:15:13.50	19.78	0.39	-50.9	-66.1	3.6	1.51e+00	0	40	104	0	60	72933
2026-01-23 14:15:14.51	19.80	0.45	-50.9	-66.1	3.6	1.51e+00	0	40	104	0	60	73124
2026-01-23 14:15:15.51	19.82	0.51	-50.9	-66.1	3.6	1.51e+00	0	40	104	0	60	73242
2026-01-23 14:15:16.52	19.84	0.57	-50.9	-66.1	3.6	1.51e+00	0	40	104	0	60	72958
2026-01-23 14:15:17.53	19.85	0.63	-50.9	-66.1	3.6	1.51e+00	0	40	104	0	60	73201
2026-01-23 14:15:18.54	19.87	0.69	-50.9	-66.1	3.6	1.51e+00	0	40	104	0	60	72661
2026-01-23 14:15:19.55	19.89	0.75	-50.9	-66.1	3.6	1.51e+00	0	40	104	0	60	72730
2026-01-23 14:15:20.56	19.91	0.81	-50.8	-66.0	3.6	1.51e+00	0	40	104	0	60	72369
2026-01-23 14:15:21.57	19.93	0.87	-50.8	-66.0	3.6	1.51e+00	0	40	104	0	60	72157
2026-01-23 14:15:22.58	19.95	0.93	-50.8	-66.0	3.6	1.51e+00	0	40	104	0	60	71726
2026-01-23 14:15:23.60	19.97	1.00	-50.7	-65.8	3.6	1.51e+00	0	40	104	0	60	70600
2026-01-23 14:15:24.61	19.99	1.06	-50.6	-65.7	3.6	1.51e+00	0	40	104	0	60	69833
2026-01-23 14:15:25.62	20.01	1.12	-50.5	-65.6	3.6	1.51e+00	0	40	104	0	60	69258
2026-01-23 14:15:26.63	20.03	1.18	-50.3	-65.5	3.6	1.51e+00	0	40	104	0	60	68054
2026-01-23 14:15:27.64	20.05	1.24	-50.2	-65.4	3.6	1.51e+00	0	40	104	0	60	67579
2026-01-23 14:15:28.65	20.07	1.30	-50.1	-65.4	3.6	1.51e+00	0	40	104	0	60	67026
2026-01-23 14:15:29.66	20.09	1.37	-50.0	-65.2	3.6	1.51e+00	0	40	104	0	60	65722
2026-01-23 14:15:30.67	20.11	1.43	-49.8	-65.0	3.6	1.51e+00	0	40	104	0	60	64397
2026-01-23 14:15:31.68	20.13	1.49	-49.5	-64.7	3.6	1.51e+00	0	40	104	0	60	61777
2026-01-23 14:15:32.69	20.15	1.55	-49.4	-64.5	3.6	1.51e+00	0	40	104	0	60	61019
2026-01-23 14:15:33.70	20.17	1.62	-49.4	-64.6	3.6	1.51e+00	0	40	104	0	60	61168
2026-01-23 14:15:34.71	20.19	1.68	-49.4	-64.6	3.6	1.51e+00	0	40	104	0	60	61504
2026-01-23 14:15:35.72	20.21	1.74	-49.4	-64.6	3.6	1.51e+00	0	40	104	0	60	61434
2026-01-23 14:15:36.73	20.23	1.81	-49.4	-64.6	3.6	1.51e+00	0	40	104	0	60	61203
2026-01-23 14:15:37.74	20.25	1.87	-49.4	-64.6	3.6	1.51e+00	0	40	104	0	60	61264
2026-01-23 14:15:38.74	20.27	1.93	-49.4	-64.6	3.6	1.51e+00	0	40	104	0	60	61658
2026-01-23 14:15:39.76	20.29	2.00	-49.4	-64.6	3.6	1.51e+00	0	40	104	0	60	61707
2026-01-23 14:15:40.77	20.31	2.06	-49.4	-64.6	3.6	1.51e+00	0	40	104	0	60	61588
2026-01-23 14:15:41.77	20.33	2.12	-49.4	-64.4	3.6	1.51e+00	0	40	104	0	60	59882
2026-01-23 14:15:42.78	20.35	2.19	-49.4	-64.0	3.6	1.51e+00	0	40	104	0	60	57445
2026-01-23 14:15:43.80	20.37	2.25	-49.4	-63.6	3.6	1.51e+00	0	40	104	0	60	54685
2026-01-23 14:15:44.81	20.39	2.32	-49.3	-62.6	3.6	1.51e+00	0	40	104	0	60	48777
2026-01-23 14:15:45.82	20.41	2.38	-49.3	-62.2	3.7	1.50e+00	0	40	104	0	60	46812
2026-01-23 14:15:46.83	20.43	2.45	-49.3	-62.5	3.6	1.49e+00	0	40	104	0	60	48450
2026-01-23 14:15:47.84	20.45	2.51	-49.3	-62.2	3.8	1.50e+00	0	40	104	0	60	46512
2026-01-23 14:15:48.85	20.48	2.58	-49.3	-62.6	3.7	1.50e+00	0	40	104	0	60	48731
2026-01-23 14:15:49.86	20.50	2.64	-49.3	-61.9	3.8	1.49e+00	0	40	104	0	60	45202
2026-01-23 14:15:50.86	20.52	2.71	-49.2	-60.5	4.2	1.41e+00	52	40	104	0	60	38342
2026-01-23 14:15:51.87	20.54	2.77	-48.9	-56.9	5.6	1.02e+00	92	40	0	1048576	60	25379
2026-01-23 14:15:52.88	20.56	2.84	-48.5	-54.9	8.0	1.66e-01	7	40	0	3145728	60	20203
2026-01-23 14:15:53.89	20.58	2.90	-48.2	-54.0	9.0	4.42e-02	6	40	0	5242880	60	18081
2026-01-23 14:15:54.90	20.60	2.97	-47.7	-52.4	10.9	6.72e-03	0	40	0	6291456	60	15056
2026-01-23 14:15:55.91	20.62	3.03	-47.0	-50.8	12.7	1.32e-03	0	40	0	8388608	60	12597
2026-01-23 14:15:56.92	20.65	3.10	-46.8	-50.4	13.4	5.26e-05	92	40	0	10485760	60	11916
2026-01-23 14:15:57.93	20.67	3.17	-46.3	-49.5	14.1	6.80e-06	11	40	0	12582912	60	10787
2026-01-23 14:15:58.94	20.69	3.23	-46.2	-49.3	14.1	7.00e-07	92	40	0	14680064	60	10546
2026-01-23 14:15:59.96	20.71	3.30	-46.4	-49.6	13.8	3.00e-06	71	40	0	15728640	60	10924
2026-01-23 14:16:00.96	20.73	3.37	-46.7	-50.1	13.7	6.10e-06	11	40	0	17825792	60	11591
2026-01-23 14:16:01.97	20.76	3.43	-47.1	-51.1	12.4	2.67e-05	11	40	0	19922944	60	12977
2026-01-23 14:16:02.99	20.78	3.50	-47.7	-52.4	10.9	5.59e-04	2	40	0	22020096	60	15020
2026-01-23 14:16:04.00	20.80	3.57	-48.2	-53.9	9.2	8.51e-03	91	40	0	24117248	60	17933
2026-01-23 14:16:05.00	20.82	3.63	-48.6	-55.6	7.2	4.24e-02	68	40	0	25165824	60	21803
2026-01-23 14:16:06.01	20.84	3.70	-44.8	-47.0	16.9	0.00e+00	91	40	0	27262976	60	8071
2026-01-23 14:16:07.02	20.87	3.77	-48.1	-53.9	9.3	1.50e-06	69	40	0	29360128	60	17815
2026-01-23 14:16:08.03	20.89	3.84	-49.5	-63.6	3.6	3.92e-01	0	40	104	30408704	60	54576
2026-01-23 14:16:09.04	20.91	3.91	-46.3	-49.4	14.1	9.47e-01	1	40	104	30408704	60	10661
2026-01-23 14:16:10.05	20.93	3.97	-49.3	-63.8	3.6	1.10e+00	0	40	104	30408704	60	56021
2026-01-23 14:16:11.06	20.96	4.04	-46.7	-50.1	13.5	1.44e+00	0	40	104	30408704	60	11621
2026-01-23 14:16:12.07	20.98	4.11	-46.8	-50.1	13.2	2.59e-05	0	40	0	30408704	60	11612
2026-01-23 14:16:13.08	21.00	4.18	-46.2	-49.0	14.6	1.50e-06	92	40	0	32505856	60	10228
2026-01-23 14:16:14.09	21.03	4.25	-46.4	-49.4	14.2	6.80e-06	13	40	0	34603008	60	10671
2026-01-23 14:16:15.10	21.05	4.32	-46.1	-49.0	15.0	3.00e-06	51	40	0	36700160	60	10184
2026-01-23 14:16:16.11	21.07	4.39	-46.4	-49.5	14.4	1.50e-06	8	40	0	38797312	60	10808
2026-01-23 14:16:17.12	21.10	4.46	-45.4	-47.8	16.1	0.00e+00	2	40	0	39845888	60	8862
2026-01-23 14:16:18.13	21.12	4.53	-45.3	-47.6	16.3	0.00e+00	0	40	0	41943040	60	8719
2026-01-23 14:16:19.14	21.14	4.60	-45.2	-47.5	16.3	0.00e+00	2	40	0	44040192	60	8580
2026-01-23 14:16:20.15	21.17	4.67	-44.9	-47.0	16.9	0.00e+00	92	41	0	46137344	60	8132
2026-01-23 14:16:21.15	21.19	4.73	-44.7	-46.8	17.2	0.00e+00	9	41	0	48234496	60	7906
2026-01-23 14:16:22.16	21.21	4.81	-44.2	-46.0	17.9	0.00e+00	92	41	0	50331648	60	7237
2026-01-23 14:16:23.17	21.24	4.88	-43.5	-45.2	19.0	0.00e+00	73	40	0	51380224	60	6563
2026-01-23 14:16:24.18	21.26	4.95	-42.7	-44.1	19.8	0.00e+00	72	40	0	53477376	60	5823
2026-01-23 14:16:25.19	21.28	5.02	-42.8	-44.3	19.6	0.00e+00	0	41	0	55574528	58	6640
2026-01-23 14:16:26.20	21.31	5.09	-42.9	-44.4	19.5	0.00e+00	0	41	0	57671680	58	6741
2026-01-23 14:16:27.21	21.33	5.16	-42.8	-44.2	19.5	0.00e+00	91	41	0	59768832	58	6600
2026-01-23 14:16:28.22	21.36	5.23	-42.9	-44.3	19.7	0.00e+00	0	41	0	60817408	58	6687
2026-01-23 14:16:29.23	21.38	5.30	-42.4	-43.8	20.1	0.00e+00	92	41	0	62914560	58	6248
2026-01-23 14:16:30.24	21.41	5.37	-42.1	-43.4	20.5	0.00e+00	0	40	0	65011712	58	5968
2026-01-23 14:16:31.25	21.43	5.45	-41.9	-43.2	20.7	0.00e+00	0	41	0	67108864	58	5844
2026-01-23 14:16:32.26	21.46	5.52	-42.2	-43.5	20.5	0.00e+00	0	40	0	69206016	58	6060
2026-01-23 14:16:33.27	21.48	5.59	-42.0	-43.3	20.6	0.00e+00	0	40	0	70254592	58	5918
2026-01-23 14:16:34.28	21.51	5.66	-42.2	-43.5	20.4	0.00e+00	6	41	0	72351744	58	6091
2026-01-23 14:16:35.29	21.53	5.74	-41.7	-42.9	21.0	0.00e+00	0	41	0	74448896	56	6362
2026-01-23 14:16:36.30	21.56	5.81	-42.1	-43.3	20.7	0.00e+00	92	41	0	76546048	56	6676
2026-01-23 14:16:37.31	21.58	5.88	-42.0	-43.2	20.7	0.00e+00	0	41	0	78643200	56	6597
2026-01-23 14:16:38.32	21.61	5.96	-41.9	-43.1	20.9	0.00e+00	92	41	0	79691776	56	6522
2026-01-23 14:16:39.33	21.63	6.03	-42.2	-43.5	20.6	0.00e+00	0	41	0	81788928	56	6842
2026-01-23 14:16:40.34	21.66	6.10	-41.9	-43.1	21.0	0.00e+00	13	41	0	83886080	56	6532
2026-01-23 14:16:41.35	21.68	6.18	-41.9	-43.2	20.8	0.00e+00	9	40	0	85983232	56	6564
2026-01-23 14:16:42.35	21.71	6.25	-41.6	-42.8	21.2	0.00e+00	0	40	0	88080384	56	6292
2026-01-23 14:16:43.36	21.73	6.33	-41.8	-43.0	21.0	0.00e+00	91	41	0	89128960	56	6460
2026-01-23 14:16:44.37	21.76	6.40	-41.9	-43.1	20.9	0.00e+00	68	41	0	91226112	56	6519
2026-01-23 14:16:45.38	21.79	6.47	-42.0	-43.2	20.8	0.00e+00	92	40	0	93323264	56	6587
2026-01-23 14:16:46.39	21.81	6.55	-41.9	-43.2	20.9	0.00e+00	0	41	0	95420416	56	6557
2026-01-23 14:16:47.40	21.84	6.62	-41.6	-42.8	21.1	0.00e+00	73	40	0	97517568	56	6291
2026-01-23 14:16:48.41	21.86	6.70	-41.7	-42.9	21.1	0.00e+00	0	40	0	98566144	56	6360
2026-01-23 14:16:49.42	21.89	6.78	-41.7	-42.8	21.2	0.00e+00	6	40	0	100663296	56	6316
2026-01-23 14:16:50.43	21.92	6.85	-41.5	-42.7	21.4	0.00e+00	7	41	0	102760448	56	6193
2026-01-23 14:16:51.44	21.94	6.93	-41.5	-42.7	21.4	0.00e+00	6	41	0	104857600	56	6175
2026-01-23 14:16:52.45	21.97	7.00	-41.6	-42.8	21.3	0.00e+00	90	40	0	106954752	56	6253
2026-01-23 14:16:53.46	22.00	7.08	-41.5	-42.7	21.5	0.00e+00	0	41	0	108003328	56	6179
2026-01-23 14:16:54.47	22.02	7.16	-41.6	-42.8	21.4	0.00e+00	39	41	0	110100480	56	6280
2026-01-23 14:16:55.47	22.05	7.23	-41.6	-42.8	21.3	0.00e+00	0	41	0	112197632	56	6298
2026-01-23 14:16:56.48	22.08	7.31	-41.3	-42.5	21.6	0.00e+00	5	41	0	114294784	56	6051
2026-01-23 14:16:57.49	22.11	7.39	-41.5	-42.6	21.5	0.00e+00	12	41	0	116391936	56	6149
2026-01-23 14:16:58.50	22.13	7.47	-41.4	-42.6	21.5	0.00e+00	5	41	0	118489088	56	6122
2026-01-23 14:16:59.50	22.16	7.54	-41.3	-42.4	21.6	0.00e+00	92	41	0	119537664	56	6011
2026-01-23 14:17:00.51	22.19	7.62	-41.5	-42.7	21.5	0.00e+00	14	41	0	121634816	56	6194
2026-01-23 14:17:01.52	22.22	7.70	-41.4	-42.6	21.6	0.00e+00	92	41	0	123731968	56	6106
2026-01-23 14:17:02.53	22.24	7.78	-41.5	-42.7	21.6	0.00e+00	14	41	0	125829120	56	6187
2026-01-23 14:17:03.54	22.27	7.86	-41.4	-42.5	21.7	0.00e+00	73	41	0	127926272	56	6063
2026-01-23 14:17:04.55	22.30	7.94	-41.3	-42.4	21.8	0.00e+00	82	41	0	128974848	56	5968
2026-01-23 14:17:05.56	22.33	8.02	-41.4	-42.5	21.6	0.00e+00	0	41	0	131072000	56	6084
2026-01-23 14:17:06.57	22.36	8.10	-41.2	-42.4	21.7	0.00e+00	92	41	0	133169152	56	5971
2026-01-23 14:17:07.58	22.39	8.18	-41.4	-42.5	21.6	0.00e+00	75	41	0	135266304	56	6070
2026-01-23 14:17:08.59	22.42	8.26	-41.5	-42.7	21.6	0.00e+00	92	41	0	137363456	56	6190
2026-01-23 14:17:09.60	22.44	8.34	-41.3	-42.4	21.7	0.00e+00	0	41	0	138412032	56	6021
2026-01-23 14:17:10.61	22.47	8.42	-41.3	-42.4	21.6	0.00e+00	0	41	0	140509184	56	5991
2026-01-23 14:17:11.62	22.50	8.50	-41.3	-42.5	21.8	0.00e+00	0	41	0	142606336	56	6043
2026-01-23 14:17:12.63	22.53	8.58	-41.2	-42.3	21.8	0.00e+00	72	41	0	144703488	56	5947
2026-01-23 14:17:13.64	22.56	8.66	-41.2	-42.3	21.8	0.00e+00	90	41	0	146800640	56	5953
2026-01-23 14:17:14.65	22.59	8.74	-41.3	-42.4	21.8	0.00e+00	5	41	0	147849216	56	5993
2026-01-23 14:17:15.66	22.62	8.83	-41.3	-42.4	21.7	0.00e+00	93	41	0	149946368	56	6000
2026-01-23 14:17:16.66	22.65	8.91	-41.3	-42.4	21.8	0.00e+00	0	41	0	152043520	56	6028
2026-01-23 14:17:17.67	22.68	8.99	-41.6	-42.8	21.6	0.00e+00	92	41	0	154140672	56	6262
2026-01-23 14:17:18.68	22.71	9.07	-41.5	-42.7	21.6	0.00e+00	7	41	0	156237824	56	6187
2026-01-23 14:17:19.70	22.74	9.16	-41.0	-42.1	22.1	0.00e+00	15	41	0	157286400	56	5782
2026-01-23 14:17:20.70	22.77	9.24	-41.2	-42.2	22.0	0.00e+00	0	41	0	159383552	56	5883
2026-01-23 14:17:21.71	22.80	9.32	-41.0	-42.1	22.1	0.00e+00	15	41	0	161480704	56	5783
2026-01-23 14:17:22.72	22.83	9.41	-41.1	-42.2	22.0	0.00e+00	92	41	0	163577856	56	5868
2026-01-23 14:17:23.73	22.86	9.49	-41.1	-42.2	22.0	0.00e+00	7	41	0	165675008	56	5854
2026-01-23 14:17:24.74	22.89	9.57	-41.1	-42.2	22.0	0.00e+00	92	41	0	166723584	56	5851
2026-01-23 14:17:25.75	22.93	9.66	-40.8	-41.9	22.3	0.00e+00	10	41	0	168820736	56	5656
2026-01-23 14:17:26.76	22.96	9.74	-40.9	-41.9	22.2	0.00e+00	67	41	0	170917888	56	5680
2026-01-23 14:17:27.77	22.99	9.83	-40.8	-41.8	22.4	0.00e+00	68	41	0	173015040	56	5584
2026-01-23 14:17:28.78	23.02	9.91	-40.8	-41.9	22.3	0.00e+00	67	41	0	175112192	56	5642
2026-01-23 14:17:29.79	23.05	10.00	-40.8	-41.8	22.3	0.00e+00	92	41	0	176160768	56	5581
2026-01-23 14:17:30.80	23.08	10.09	-40.9	-42.0	22.3	0.00e+00	66	41	0	178257920	56	5706
2026-01-23 14:17:31.81	23.12	10.17	-40.7	-41.7	22.3	0.00e+00	92	41	0	180355072	54	6197
2026-01-23 14:17:32.82	23.15	10.26	-40.9	-42.0	22.3	0.00e+00	71	41	0	182452224	54	6404
2026-01-23 14:17:33.83	23.18	10.35	-40.7	-41.7	22.3	0.00e+00	70	41	0	184549376	54	6242
2026-01-23 14:17:34.84	23.21	10.43	-40.8	-41.9	22.3	0.00e+00	0	41	0	186646528	54	6318
2026-01-23 14:17:35.85	23.25	10.52	-40.6	-41.6	22.5	0.00e+00	0	41	0	187695104	54	6163
2026-01-23 14:17:36.86	23.28	10.61	-40.6	-41.6	22.6	0.00e+00	73	41	0	189792256	54	6127
2026-01-23 14:17:37.86	23.31	10.70	-40.5	-41.5	22.7	0.00e+00	0	41	0	191889408	54	6063
2026-01-23 14:17:38.87	23.35	10.79	-40.6	-41.6	22.6	0.00e+00	92	41	0	193986560	54	6153
2026-01-23 14:17:39.88	23.38	10.87	-40.7	-41.7	22.5	0.00e+00	0	41	0	195035136	54	6218
2026-01-23 14:17:40.89	23.41	10.96	-40.5	-41.5	22.6	0.00e+00	73	41	0	197132288	54	6081
2026-01-23 14:17:41.90	23.45	11.05	-40.4	-41.4	22.7	0.00e+00	11	41	0	199229440	54	6030
2026-01-23 14:17:42.91	23.48	11.14	-40.5	-41.5	22.6	0.00e+00	11	41	0	201326592	54	6066
2026-01-23 14:17:43.92	23.52	11.23	-40.5	-41.4	22.7	0.00e+00	0	41	0	203423744	54	6027
2026-01-23 14:17:44.93	23.55	11.32	-40.5	-41.5	22.7	0.00e+00	14	41	0	204472320	54	6070
2026-01-23 14:17:45.94	23.58	11.41	-40.4	-41.4	22.7	0.00e+00	92	41	0	206569472	54	5996
2026-01-23 14:17:46.95	23.62	11.51	-40.5	-41.5	22.7	0.00e+00	0	41	0	208666624	54	6072
2026-01-23 14:17:47.96	23.65	11.60	-40.4	-41.4	22.8	0.00e+00	92	41	0	210763776	54	6019
2026-01-23 14:17:48.97	23.69	11.69	-40.5	-41.5	22.7	0.00e+00	71	41	0	212860928	54	6082
2026-01-23 14:17:49.98	23.73	11.78	-40.5	-41.5	22.6	0.00e+00	11	41	0	214958080	54	6087
2026-01-23 14:17:50.99	23.76	11.87	-40.5	-41.4	22.7	0.00e+00	64	41	0	216006656	54	6029
2026-01-23 14:17:52.00	23.80	11.97	-40.7	-41.7	22.6	0.00e+00	0	41	0	218103808	54	6201
2026-01-23 14:17:53.01	23.83	12.06	-40.4	-41.4	22.7	0.00e+00	91	41	0	220200960	54	5994
2026-01-23 14:17:54.01	23.87	12.15	-40.5	-41.5	22.7	0.00e+00	0	41	0	222298112	54	6062
2026-01-23 14:17:55.02	23.90	12.25	-40.5	-41.5	22.7	0.00e+00	91	41	0	224395264	54	6076
2026-01-23 14:17:56.03	23.94	12.34	-40.5	-41.5	22.6	0.00e+00	2	41	0	225443840	54	6063
2026-01-23 14:17:57.04	23.98	12.43	-40.5	-41.5	22.8	0.00e+00	2	41	0	227540992	54	6035
2026-01-23 14:17:58.05	24.02	12.53	-40.5	-41.5	22.8	0.00e+00	0	41	0	229638144	54	6040
2026-01-23 14:17:59.07	24.05	12.63	-40.6	-41.5	22.6	0.00e+00	0	41	0	231735296	54	6096
2026-01-23 14:18:00.08	24.09	12.72	-40.4	-41.4	22.8	0.00e+00	92	41	0	233832448	54	5978
2026-01-23 14:18:01.09	24.13	12.82	-40.4	-41.4	22.7	0.00e+00	16	41	0	234881024	54	5970
2026-01-23 14:18:02.09	24.17	12.91	-40.4	-41.4	22.8	0.00e+00	92	41	0	236978176	54	6006
2026-01-23 14:18:03.10	24.20	13.01	-40.6	-41.6	22.7	0.00e+00	0	41	0	239075328	54	6131
2026-01-23 14:18:04.11	24.24	13.11	-40.4	-41.4	22.8	0.00e+00	57	41	0	241172480	54	6010
2026-01-23 14:18:05.12	24.28	13.20	-40.7	-41.7	22.7	0.00e+00	2	41	0	243269632	54	6189
2026-01-23 14:18:06.13	24.32	13.30	-40.7	-41.7	22.6	0.00e+00	70	41	0	244318208	54	6200
2026-01-23 14:18:07.14	24.36	13.40	-40.3	-41.3	22.9	0.00e+00	0	41	0	246415360	54	5937
2026-01-23 14:18:08.15	24.40	13.50	-40.3	-41.3	23.0	0.00e+00	19	41	0	248512512	54	5951
2026-01-23 14:18:09.16	24.44	13.60	-40.4	-41.4	22.9	0.00e+00	92	41	0	250609664	54	6001
2026-01-23 14:18:10.17	24.48	13.70	-40.3	-41.3	23.0	0.00e+00	0	41	0	252706816	54	5920
2026-01-23 14:18:11.18	24.52	13.80	-40.5	-41.5	22.9	0.00e+00	60	41	0	253755392	54	6044
2026-01-23 14:18:12.19	24.56	13.90	-40.3	-41.3	23.0	0.00e+00	71	41	0	255852544	54	5908
2026-01-23 14:18:13.20	24.60	14.00	-40.4	-41.4	22.9	0.00e+00	0	41	0	257949696	54	6005
2026-01-23 14:18:14.21	24.64	14.10	-40.3	-41.3	23.0	0.00e+00	71	41	0	260046848	54	5937
2026-01-23 14:18:15.22	24.68	14.20	-40.3	-41.3	23.1	0.00e+00	64	41	0	262144000	54	5901
2026-01-23 14:18:16.22	24.72	14.30	-40.3	-41.3	23.0	0.00e+00	90	41	0	263192576	54	5939
2026-01-23 14:18:17.23	24.76	14.40	-40.4	-41.4	22.9	0.00e+00	2	41	0	265289728	54	5988
2026-01-23 14:18:18.24	24.80	14.51	-40.4	-41.3	22.9	0.00e+00	92	41	0	267386880	54	5956
2026-01-23 14:18:19.25	24.84	14.61	-40.4	-41.3	23.1	0.00e+00	0	41	0	269484032	54	5948
2026-01-23 14:18:20.26	24.89	14.71	-40.3	-41.2	23.1	0.00e+00	2	41	0	271581184	54	5868
2026-01-23 14:18:21.27	24.93	14.82	-40.4	-41.3	23.0	0.00e+00	2	41	0	272629760	54	5959
2026-01-23 14:18:22.28	24.97	14.92	-40.5	-41.5	22.8	0.00e+00	0	41	0	274726912	54	6049
2026-01-23 14:18:23.29	25.01	15.03	-40.3	-41.3	23.0	0.00e+00	69	41	0	276824064	54	5916
2026-01-23 14:18:24.30	25.06	15.13	-40.4	-41.4	22.9	0.00e+00	16	41	0	278921216	54	6012
2026-01-23 14:18:25.31	25.10	15.24	-40.5	-41.5	22.8	0.00e+00	91	41	0	281018368	54	6058
2026-01-23 14:18:26.32	25.14	15.35	-40.6	-41.6	22.7	0.00e+00	3	41	0	283115520	54	6164
2026-01-23 14:18:27.33	25.19	15.45	-40.6	-41.6	22.8	0.00e+00	0	41	0	284164096	54	6160
2026-01-23 14:18:28.34	25.23	15.56	-40.6	-41.6	22.8	0.00e+00	71	41	0	286261248	54	6124
2026-01-23 14:18:29.34	25.28	15.67	-40.5	-41.5	22.8	0.00e+00	69	41	0	288358400	54	6057
2026-01-23 14:18:30.35	25.32	15.77	-40.6	-41.6	22.8	0.00e+00	10	41	0	290455552	54	6108
2026-01-23 14:18:31.36	25.37	15.88	-40.5	-41.5	22.8	0.00e+00	17	41	0	292552704	54	6095
2026-01-23 14:18:32.37	25.41	15.99	-40.5	-41.4	22.9	0.00e+00	90	41	0	293601280	54	6016
2026-01-23 14:18:33.38	25.46	16.10	-40.5	-41.4	22.9	0.00e+00	15	41	0	295698432	54	6024
2026-01-23 14:18:34.39	25.50	16.21	-40.5	-41.5	22.9	0.00e+00	0	41	0	297795584	54	6060
2026-01-23 14:18:35.40	25.55	16.32	-40.5	-41.5	22.9	0.00e+00	0	41	0	299892736	54	6071
2026-01-23 14:18:36.41	25.60	16.43	-40.6	-41.6	22.7	0.00e+00	0	41	0	301989888	54	6156
2026-01-23 14:18:37.42	25.64	16.54	-40.8	-41.8	22.6	0.00e+00	69	41	0	303038464	54	6272
2026-01-23 14:18:38.43	25.69	16.66	-40.5	-41.4	22.9	0.00e+00	0	41	0	305135616	54	6033
2026-01-23 14:18:39.44	25.74	16.77	-40.5	-41.5	22.9	0.00e+00	92	41	0	307232768	54	6066
2026-01-23 14:18:40.45	25.79	16.88	-40.6	-41.5	22.9	0.00e+00	6	41	0	309329920	54	6103
2026-01-23 14:18:41.46	25.84	17.00	-40.4	-41.4	23.0	0.00e+00	92	41	0	311427072	54	5973
2026-01-23 14:18:42.47	25.88	17.11	-40.6	-41.6	22.8	0.00e+00	6	41	0	312475648	54	6135
2026-01-23 14:18:43.47	25.93	17.22	-40.4	-41.4	23.1	0.00e+00	1	41	0	314572800	54	6007
2026-01-23 14:18:44.48	25.98	17.34	-40.5	-41.4	23.0	0.00e+00	7	41	0	316669952	54	6028
2026-01-23 14:18:45.49	26.03	17.45	-40.6	-41.6	22.8	0.00e+00	5	41	0	318767104	54	6137
2026-01-23 14:18:46.49	26.08	17.57	-40.5	-41.4	22.9	0.00e+00	29	41	0	320864256	54	6021
2026-01-23 14:18:47.50	26.13	17.68	-40.5	-41.5	23.0	0.00e+00	5	41	0	321912832	54	6037
2026-01-23 14:18:48.51	26.18	17.80	-40.5	-41.5	22.9	0.00e+00	92	41	0	324009984	54	6077
2026-01-23 14:18:49.53	26.23	17.92	-40.4	-41.4	23.0	0.00e+00	0	41	0	326107136	54	5996
2026-01-23 14:18:50.54	26.29	18.04	-40.4	-41.4	23.1	0.00e+00	16	41	0	328204288	54	5972
2026-01-23 14:18:51.55	26.34	18.16	-40.5	-41.5	22.9	0.00e+00	15	41	0	330301440	54	6037
2026-01-23 14:18:52.56	26.39	18.28	-40.4	-41.3	23.1	0.00e+00	11	41	0	331350016	54	5963
2026-01-23 14:18:53.56	26.44	18.40	-40.4	-41.4	23.1	0.00e+00	0	41	0	333447168	54	5970
2026-01-23 14:18:54.58	26.49	18.52	-40.4	-41.3	23.1	0.00e+00	73	41	0	335544320	54	5954
2026-01-23 14:18:55.58	26.55	18.64	-40.4	-41.3	23.1	0.00e+00	92	41	0	337641472	54	5962
2026-01-23 14:18:56.59	26.60	18.76	-40.5	-41.4	23.0	0.00e+00	67	41	0	339738624	54	6011
2026-01-23 14:18:57.60	26.66	18.88	-40.4	-41.4	23.1	0.00e+00	72	41	0	340787200	54	5974
2026-01-23 14:18:58.61	26.71	19.00	-40.6	-41.5	23.0	0.00e+00	67	41	0	342884352	54	6081
2026-01-23 14:18:59.62	26.76	19.13	-40.5	-41.5	23.0	0.00e+00	3	41	0	344981504	54	6071
2026-01-23 14:19:00.63	26.82	19.25	-40.6	-41.5	22.9	0.00e+00	0	41	0	347078656	54	6101
2026-01-23 14:19:01.64	26.88	19.38	-40.6	-41.6	22.9	0.00e+00	0	41	0	349175808	54	6112
2026-01-23 14:19:02.65	26.93	19.50	-40.5	-41.5	23.0	0.00e+00	90	41	0	351272960	54	6084
2026-01-23 14:19:03.66	26.99	19.63	-40.6	-41.5	22.8	0.00e+00	4	41	0	352321536	54	6087
2026-01-23 14:19:04.67	27.05	19.75	-40.7	-41.7	22.8	0.00e+00	92	41	0	354418688	54	6197
2026-01-23 14:19:05.68	27.10	19.88	-40.7	-41.7	22.8	0.00e+00	4	41	0	356515840	54	6199
2026-01-23 14:19:06.68	27.16	20.01	-40.8	-41.9	22.6	0.00e+00	18	41	0	358612992	54	6321
2026-01-23 14:19:07.69	27.22	20.14	-40.7	-41.7	22.9	0.00e+00	3	41	0	360710144	54	6180
2026-01-23 14:19:08.70	27.28	20.26	-40.7	-41.7	22.8	0.00e+00	13	41	0	361758720	54	6175
2026-01-23 14:19:09.71	27.34	20.39	-40.7	-41.7	22.8	0.00e+00	0	41	0	363855872	54	6192
2026-01-23 14:19:10.72	27.40	20.52	-40.6	-41.5	22.9	0.00e+00	6	41	0	365953024	54	6101
2026-01-23 14:19:11.73	27.46	20.65	-40.5	-41.5	23.1	0.00e+00	89	41	0	368050176	54	6039
2026-01-23 14:19:12.74	27.52	20.79	-40.6	-41.6	22.9	0.00e+00	61	41	0	370147328	54	6148
2026-01-23 14:19:13.75	27.58	20.92	-40.6	-41.6	22.9	0.00e+00	64	41	0	371195904	54	6155
2026-01-23 14:19:14.76	27.64	21.05	-40.5	-41.4	23.0	0.00e+00	63	41	0	373293056	54	6002
2026-01-23 14:19:15.77	27.70	21.19	-40.5	-41.5	23.1	0.00e+00	63	41	0	375390208	54	6073
2026-01-23 14:19:16.78	27.76	21.32	-40.5	-41.5	23.1	0.00e+00	3	41	0	377487360	54	6044
2026-01-23 14:19:17.79	27.83	21.45	-40.4	-41.3	23.2	0.00e+00	66	41	0	379584512	54	5943
2026-01-23 14:19:18.80	27.89	21.59	-40.3	-41.3	23.3	0.00e+00	92	41	0	380633088	54	5911
2026-01-23 14:19:19.81	27.96	21.73	-40.3	-41.2	23.3	0.00e+00	1	41	0	382730240	54	5878
2026-01-23 14:19:20.82	28.02	21.86	-40.4	-41.3	23.2	0.00e+00	92	41	0	384827392	54	5933
2026-01-23 14:19:21.83	28.09	22.00	-40.3	-41.2	23.3	0.00e+00	62	41	0	386924544	54	5845
2026-01-23 14:19:22.84	28.15	22.14	-40.3	-41.3	23.3	0.00e+00	2	41	0	389021696	54	5907
2026-01-23 14:19:23.84	28.22	22.28	-40.4	-41.3	23.2	0.00e+00	2	41	0	390070272	54	5937
2026-01-23 14:19:24.85	28.28	22.42	-40.0	-40.9	23.5	0.00e+00	0	41	0	392167424	54	5689
2026-01-23 14:19:25.86	28.35	22.56	-40.0	-40.9	23.6	0.00e+00	89	41	0	394264576	54	5663
2026-01-23 14:19:26.87	28.42	22.70	-40.1	-41.0	23.5	0.00e+00	0	41	0	396361728	54	5717
2026-01-23 14:19:27.88	28.49	22.84	-40.1	-41.0	23.4	0.00e+00	90	41	0	398458880	54	5727
2026-01-23 14:19:28.89	28.56	22.98	-40.0	-40.9	23.5	0.00e+00	0	41	0	399507456	54	5664
2026-01-23 14:19:29.90	28.63	23.13	-39.9	-40.8	23.6	0.00e+00	18	41	0	401604608	54	5628
2026-01-23 14:19:30.91	28.70	23.27	-39.9	-40.8	23.9	0.00e+00	0	41	0	403701760	54	5567
2026-01-23 14:19:31.92	28.77	23.42	-39.9	-40.8	23.7	0.00e+00	0	41	0	405798912	52	6250
2026-01-23 14:19:32.93	28.84	23.56	-39.7	-40.6	23.9	0.00e+00	2	41	0	407896064	52	6147
2026-01-23 14:19:33.94	28.91	23.71	-39.7	-40.6	23.9	0.00e+00	14	41	0	408944640	52	6136
2026-01-23 14:19:34.95	28.99	23.86	-39.7	-40.6	23.8	0.00e+00	92	41	0	411041792	52	6128
2026-01-23 14:19:35.96	29.06	24.01	-39.6	-40.5	24.0	0.00e+00	20	41	0	413138944	52	6066
2026-01-23 14:19:36.96	29.13	24.15	-39.7	-40.6	24.0	0.00e+00	92	41	0	415236096	52	6139
2026-01-23 14:19:37.98	29.21	24.31	-39.5	-40.4	24.1	0.00e+00	20	41	0	417333248	52	5980
2026-01-23 14:19:38.98	29.28	24.45	-39.6	-40.4	24.0	0.00e+00	0	41	0	419430400	52	6019
2026-01-23 14:19:39.99	29.36	24.61	-39.7	-40.6	23.9	0.00e+00	65	41	0	420478976	52	6112
2026-01-23 14:19:41.00	29.44	24.76	-39.3	-40.2	24.1	0.00e+00	68	41	0	422576128	52	5855
2026-01-23 14:19:42.01	29.51	24.91	-39.4	-40.3	24.2	0.00e+00	90	41	0	424673280	52	5932
2026-01-23 14:19:43.02	29.59	25.07	-39.4	-40.2	24.0	0.00e+00	74	41	0	426770432	52	5879
2026-01-23 14:19:44.03	29.67	25.22	-39.3	-40.2	24.2	0.00e+00	92	41	0	427819008	52	5864
2026-01-23 14:19:45.04	29.75	25.38	-39.4	-40.2	24.2	0.00e+00	0	41	0	429916160	52	5891
2026-01-23 14:19:46.05	29.83	25.53	-39.2	-40.1	24.4	0.00e+00	2	41	0	432013312	52	5780
2026-01-23 14:19:47.06	29.91	25.69	-39.3	-40.2	24.3	0.00e+00	0	41	0	434110464	52	5849
2026-01-23 14:19:48.06	29.99	25.85	-39.7	-40.5	23.9	0.00e+00	0	41	0	436207616	52	6094
2026-01-23 14:19:49.07	30.08	26.01	-39.7	-40.6	24.0	0.00e+00	80	41	0	437256192	52	6104
2026-01-23 14:19:50.08	30.16	26.17	-39.5	-40.3	24.1	0.00e+00	14	41	0	439353344	52	5948
2026-01-23 14:19:51.09	30.25	26.33	-39.7	-40.5	24.1	0.00e+00	91	41	0	441450496	52	6103
2026-01-23 14:19:52.10	30.33	26.49	-39.3	-40.2	24.3	0.00e+00	0	41	0	443547648	52	5837
2026-01-23 14:19:53.11	30.42	26.65	-39.3	-40.1	24.3	0.00e+00	82	41	0	445644800	52	5826
2026-01-23 14:19:54.12	30.50	26.82	-39.1	-39.9	24.5	0.00e+00	0	41	0	447741952	52	5663
2026-01-23 14:19:55.13	30.59	26.98	-39.1	-40.0	24.5	0.00e+00	0	41	0	448790528	52	5713
2026-01-23 14:19:56.14	30.68	27.15	-39.1	-40.0	24.4	0.00e+00	0	41	0	450887680	52	5717
2026-01-23 14:19:57.15	30.77	27.32	-39.3	-40.2	24.3	0.00e+00	65	41	0	452984832	52	5835
2026-01-23 14:19:58.16	30.86	27.48	-39.3	-40.2	24.3	0.00e+00	92	41	0	455081984	52	5855
2026-01-23 14:19:59.17	30.95	27.65	-39.6	-40.5	24.1	0.00e+00	61	41	0	457179136	52	6077
2026-01-23 14:20:00.17	31.04	27.82	-39.8	-40.7	23.8	0.00e+00	92	41	0	458227712	52	6180
2026-01-23 14:20:01.18	31.14	27.99	-39.9	-40.8	23.8	0.00e+00	0	41	0	460324864	52	6283
2026-01-23 14:20:02.19	31.23	28.16	-40.0	-40.9	23.6	0.00e+00	0	41	0	462422016	52	6375
2026-01-23 14:20:03.20	31.33	28.33	-40.1	-41.0	23.6	0.00e+00	0	41	0	464519168	52	6412
2026-01-23 14:20:04.21	31.42	28.51	-40.3	-41.2	23.5	0.00e+00	0	41	0	466616320	52	6572
2026-01-23 14:20:05.22	31.52	28.68	-40.4	-41.3	23.4	0.00e+00	90	41	0	467664896	52	6655
2026-01-23 14:20:06.23	31.62	28.86	-40.5	-41.4	23.2	0.00e+00	0	41	0	469762048	52	6744
2026-01-23 14:20:07.24	31.72	29.04	-40.5	-41.5	23.2	0.00e+00	90	41	0	471859200	52	6776
2026-01-23 14:20:08.25	31.82	29.21	-40.8	-41.7	22.8	0.00e+00	0	41	0	473956352	52	6981
2026-01-23 14:20:09.26	31.92	29.39	-40.8	-41.7	22.8	0.00e+00	0	41	0	476053504	54	6244
2026-01-23 14:20:10.27	32.02	29.57	-40.8	-41.8	22.8	0.00e+00	2	41	0	477102080	54	6272
2026-01-23 14:20:11.28	32.12	29.75	-41.0	-41.9	22.8	0.00e+00	0	41	0	479199232	54	6381
2026-01-23 14:20:12.29	32.23	29.93	-40.9	-41.9	22.8	0.00e+00	14	41	0	481296384	54	6351
2026-01-23 14:20:13.30	32.33	30.12	-41.0	-42.0	22.7	0.00e+00	0	41	0	483393536	54	6459
2026-01-23 14:20:14.31	32.44	30.30	-41.2	-42.2	22.5	0.00e+00	92	41	0	485490688	54	6594
2026-01-23 14:20:15.32	32.55	30.49	-41.4	-42.4	22.3	0.00e+00	0	41	0	486539264	54	6733
2026-01-23 14:20:16.33	32.66	30.67	-41.6	-42.7	22.2	0.00e+00	71	41	0	488636416	54	6959
2026-01-23 14:20:17.34	32.77	30.86	-41.9	-43.0	22.0	0.00e+00	63	41	0	490733568	56	6436
2026-01-23 14:20:18.35	32.88	31.05	-42.0	-43.1	21.8	0.00e+00	2	41	0	492830720	56	6487
2026-01-23 14:20:19.36	32.99	31.24	-41.9	-42.9	21.9	0.00e+00	0	41	0	494927872	56	6384
2026-01-23 14:20:20.36	33.11	31.43	-42.0	-43.1	21.8	0.00e+00	61	41	0	495976448	56	6489
2026-01-23 14:20:21.37	33.22	31.62	-42.1	-43.2	21.7	0.00e+00	92	41	0	498073600	56	6543
2026-01-23 14:20:22.38	33.34	31.81	-42.1	-43.2	21.7	0.00e+00	62	41	0	500170752	56	6548
2026-01-23 14:20:23.39	33.46	32.01	-42.1	-43.2	21.7	0.00e+00	90	41	0	502267904	56	6611
2026-01-23 14:20:24.40	33.58	32.20	-42.3	-43.4	21.5	0.00e+00	4	41	0	504365056	56	6754
2026-01-23 14:20:25.41	33.70	32.40	-42.3	-43.5	21.5	0.00e+00	63	41	0	505413632	56	6794
2026-01-23 14:20:26.42	33.82	32.60	-42.5	-43.7	21.2	0.00e+00	0	41	0	507510784	56	6974
2026-01-23 14:20:27.43	33.94	32.79	-42.4	-43.6	21.3	0.00e+00	3	41	0	509607936	56	6895
2026-01-23 14:20:28.44	34.07	32.99	-42.6	-43.8	21.2	0.00e+00	92	41	0	511705088	56	7075
2026-01-23 14:20:29.45	34.20	33.19	-42.8	-44.0	21.0	0.00e+00	5	41	0	513802240	58	6415
2026-01-23 14:20:30.46	34.33	33.40	-42.7	-43.9	21.0	0.00e+00	92	41	0	515899392	58	6372
2026-01-23 14:20:31.47	34.46	33.60	-42.6	-43.8	21.1	0.00e+00	2	41	0	516947968	58	6304
2026-01-23 14:20:32.48	34.59	33.81	-42.8	-44.0	21.0	0.00e+00	2	41	0	519045120	58	6424
2026-01-23 14:20:33.49	34.72	34.01	-42.8	-44.1	21.0	0.00e+00	0	41	0	521142272	58	6470
2026-01-23 14:20:34.50	34.85	34.22	-42.8	-44.1	20.9	0.00e+00	20	41	0	523239424	58	6470
2026-01-23 14:20:35.51	34.99	34.43	-42.9	-44.2	20.8	0.00e+00	34	41	0	525336576	58	6578
2026-01-23 14:20:36.52	35.13	34.64	-43.0	-44.3	20.8	0.00e+00	20	41	0	526385152	58	6617
2026-01-23 14:20:37.53	35.27	34.85	-42.9	-44.1	20.9	0.00e+00	92	41	0	528482304	58	6491
2026-01-23 14:20:38.54	35.41	35.06	-42.9	-44.2	20.8	0.00e+00	67	41	0	530579456	58	6557
2026-01-23 14:20:39.55	35.55	35.27	-42.9	-44.1	20.9	0.00e+00	90	41	0	532676608	58	6492
2026-01-23 14:20:40.55	35.70	35.49	-43.0	-44.2	20.8	0.00e+00	66	41	0	534773760	58	6592
2026-01-23 14:20:41.56	35.85	35.70	-43.0	-44.3	20.7	0.00e+00	0	41	0	535822336	58	6629
2026-01-23 14:20:42.57	35.99	35.92	-43.1	-44.3	20.7	0.00e+00	8	41	0	537919488	58	6675
2026-01-23 14:20:43.58	36.15	36.14	-42.7	-43.9	21.0	0.00e+00	67	41	0	540016640	58	6360
2026-01-23 14:20:44.59	36.30	36.36	-42.8	-44.0	21.0	0.00e+00	92	41	0	542113792	58	6412
2026-01-23 14:20:45.60	36.45	36.58	-42.8	-44.0	21.0	0.00e+00	65	41	0	544210944	58	6431
2026-01-23 14:20:46.61	36.61	36.80	-42.6	-43.8	21.1	0.00e+00	91	41	0	545259520	58	6287
2026-01-23 14:20:47.62	36.77	37.02	-42.7	-43.9	21.1	0.00e+00	1	41	0	547356672	58	6355
2026-01-23 14:20:48.63	36.93	37.25	-42.8	-44.1	21.0	0.00e+00	2	41	0	549453824	58	6467
2026-01-23 14:20:49.64	37.10	37.47	-42.9	-44.2	20.9	0.00e+00	7	41	0	551550976	58	6540
2026-01-23 14:20:50.65	37.26	37.70	-42.9	-44.1	20.8	0.00e+00	2	41	0	553648128	58	6535
2026-01-23 14:20:51.66	37.43	37.93	-43.1	-44.4	20.7	0.00e+00	92	41	0	554696704	58	6720
2026-01-23 14:20:52.67	37.60	38.16	-43.2	-44.5	20.5	0.00e+00	1	41	0	556793856	58	6810
2026-01-23 14:20:53.68	37.77	38.39	-43.3	-44.7	20.4	0.00e+00	92	41	0	558891008	58	6943
2026-01-23 14:20:54.69	37.95	38.62	-43.3	-44.6	20.5	0.00e+00	17	41	0	560988160	58	6854
2026-01-23 14:20:55.70	38.12	38.86	-43.4	-44.8	20.3	0.00e+00	1	41	0	563085312	58	7023
2026-01-23 14:20:56.70	38.30	39.09	-43.1	-44.4	20.5	0.00e+00	22	41	0	564133888	58	6757
2026-01-23 14:20:57.71	38.49	39.33	-43.0	-44.2	20.8	0.00e+00	3	41	0	566231040	58	6592
2026-01-23 14:20:58.72	38.67	39.57	-42.8	-44.0	20.9	0.00e+00	0	41	0	568328192	58	6431
2026-01-23 14:20:59.73	38.86	39.81	-42.8	-44.0	20.9	0.00e+00	60	41	0	570425344	58	6424
2026-01-23 14:21:00.74	39.05	40.05	-42.6	-43.8	21.0	0.00e+00	90	41	0	572522496	58	6263
2026-01-23 14:21:01.75	39.24	40.29	-42.5	-43.7	21.3	0.00e+00	59	41	0	573571072	58	6214
2026-01-23 14:21:02.76	39.44	40.53	-42.5	-43.7	21.4	0.00e+00	90	41	0	575668224	58	6194
2026-01-23 14:21:03.77	39.64	40.78	-42.1	-43.2	21.8	0.00e+00	22	41	0	577765376	58	5871
2026-01-23 14:21:04.78	39.84	41.02	-42.1	-43.3	21.8	0.00e+00	58	41	0	579862528	58	5899
2026-01-23 14:21:05.79	40.05	41.27	-41.8	-42.9	22.0	0.00e+00	0	41	0	581959680	58	5684
2026-01-23 14:21:06.80	40.25	41.52	-41.8	-42.8	22.1	0.00e+00	59	41	0	584056832	58	5628
2026-01-23 14:21:07.81	40.47	41.77	-41.5	-42.6	22.4	0.00e+00	91	41	0	585105408	56	6116
2026-01-23 14:21:08.82	40.68	42.02	-41.3	-42.3	22.7	0.00e+00	0	41	0	587202560	56	5953
2026-01-23 14:21:09.83	40.90	42.27	-41.1	-42.0	22.8	0.00e+00	92	41	0	589299712	56	5756
2026-01-23 14:21:10.84	41.12	42.52	-41.0	-42.0	22.9	0.00e+00	0	41	0	591396864	56	5732
2026-01-23 14:21:11.85	41.35	42.78	-40.9	-41.9	23.0	0.00e+00	0	41	0	593494016	56	5634
2026-01-23 14:21:12.86	41.57	43.03	-41.0	-42.0	22.9	0.00e+00	0	41	0	594542592	56	5711
2026-01-23 14:21:13.87	41.81	43.29	-41.3	-42.3	22.6	0.00e+00	2	41	0	596639744	56	5917
2026-01-23 14:21:14.88	42.04	43.55	-41.6	-42.7	22.2	0.00e+00	90	41	0	598736896	56	6174
2026-01-23 14:21:15.88	42.28	43.81	-41.9	-43.0	21.8	0.00e+00	0	41	0	600834048	56	6427
2026-01-23 14:21:16.89	42.52	44.07	-42.2	-43.3	21.7	0.00e+00	92	41	0	602931200	56	6668
2026-01-23 14:21:17.90	42.77	44.33	-42.1	-43.2	21.9	0.00e+00	0	41	0	603979776	56	6553
2026-01-23 14:21:18.91	43.02	44.59	-41.8	-42.8	22.1	0.00e+00	92	41	0	606076928	56	6307
2026-01-23 14:21:19.92	43.28	44.86	-41.5	-42.5	22.4	0.00e+00	18	41	0	608174080	56	6088
2026-01-23 14:21:20.93	43.54	45.12	-41.7	-42.7	22.3	0.00e+00	0	41	0	610271232	56	6222
2026-01-23 14:21:21.94	43.80	45.39	-41.5	-42.5	22.4	0.00e+00	92	41	0	612368384	56	6100
2026-01-23 14:21:22.95	44.07	45.66	-41.6	-42.6	22.3	0.00e+00	3	41	0	613416960	56	6124
2026-01-23 14:21:23.96	44.34	45.93	-42.1	-43.3	21.6	0.00e+00	92	41	0	615514112	56	6626
2026-01-23 14:21:24.97	44.62	46.20	-42.7	-43.9	21.1	0.00e+00	62	41	0	617611264	56	7160
2026-01-23 14:21:25.98	44.90	46.47	-43.0	-44.2	20.8	0.00e+00	90	41	0	619708416	58	6587
2026-01-23 14:21:26.98	45.19	46.74	-43.3	-44.6	20.4	0.00e+00	60	41	0	621805568	58	6920
2026-01-23 14:21:27.99	45.48	47.01	-43.0	-44.3	20.7	0.00e+00	60	41	0	622854144	58	6669
2026-01-23 14:21:29.00	45.78	47.29	-43.3	-44.6	20.5	0.00e+00	71	41	0	624951296	58	6880
2026-01-23 14:21:30.02	46.08	47.57	-42.8	-44.0	20.9	0.00e+00	0	41	0	627048448	58	6424
2026-01-23 14:21:31.02	46.39	47.84	-42.2	-43.3	21.6	0.00e+00	92	41	0	629145600	58	5902
2026-01-23 14:21:32.03	46.70	48.12	-42.1	-43.2	21.8	0.00e+00	0	41	0	631242752	58	5837
2026-01-23 14:21:33.04	47.02	48.39	-41.5	-42.6	22.4	0.00e+00	90	41	0	632291328	56	6114
2026-01-23 14:21:34.05	47.34	48.67	-41.5	-42.5	22.3	0.00e+00	0	41	0	634388480	56	6063
2026-01-23 14:21:35.06	47.67	48.95	-41.7	-42.8	22.2	0.00e+00	0	41	0	636485632	56	6294
2026-01-23 14:21:36.07	48.01	49.23	-41.8	-42.9	21.9	0.00e+00	0	41	0	638582784	56	6388
2026-01-23 14:21:37.08	48.35	49.51	-41.8	-42.9	22.0	0.00e+00	2	41	0	640679936	56	6353
2026-01-23 14:21:38.09	48.70	49.80	-40.9	-41.9	22.9	0.00e+00	92	41	0	641728512	56	5683
2026-01-23 14:21:39.10	49.06	50.08	-39.8	-40.7	23.9	0.00e+00	0	41	0	643825664	54	5513
2026-01-23 14:21:40.10	49.41	50.36	-39.5	-40.4	24.3	0.00e+00	92	41	0	645922816	52	5967
2026-01-23 14:21:41.11	49.78	50.64	-39.5	-40.3	24.3	0.00e+00	0	41	0	648019968	52	5931
2026-01-23 14:21:42.12	50.16	50.93	-39.5	-40.3	24.2	0.00e+00	58	41	0	650117120	52	5934
2026-01-23 14:21:43.13	50.54	51.21	-38.8	-39.6	25.0	0.00e+00	23	41	0	651165696	52	5496
2026-01-23 14:21:44.14	50.93	51.50	-38.6	-39.4	25.1	0.00e+00	56	41	0	653262848	50	5985
2026-01-23 14:21:45.15	51.33	51.78	-38.0	-38.8	25.5	0.00e+00	0	41	0	655360000	50	5604
2026-01-23 14:21:46.16	51.73	52.07	-37.5	-38.2	25.9	0.00e+00	0	41	0	657457152	48	5884
2026-01-23 14:21:47.17	52.15	52.35	-37.4	-38.2	26.0	0.00e+00	92	41	0	659554304	48	5831
2026-01-23 14:21:48.18	52.57	52.64	-37.5	-38.2	25.9	0.00e+00	16	41	0	660602880	48	5856
2026-01-23 14:21:49.19	53.00	52.93	-37.3	-38.1	26.1	0.00e+00	80	41	0	662700032	48	5763
2026-01-23 14:21:50.20	53.43	53.21	-37.3	-38.0	26.2	0.00e+00	65	41	0	664797184	48	5749
2026-01-23 14:21:51.21	53.88	53.50	-37.6	-38.4	25.9	0.00e+00	64	41	0	666894336	48	5974
2026-01-23 14:21:52.22	54.33	53.78	-37.9	-38.7	25.6	0.00e+00	62	41	0	668991488	48	6217
2026-01-23 14:21:53.23	54.80	54.07	-37.6	-38.3	25.6	0.00e+00	0	41	0	670040064	48	5948
2026-01-23 14:21:54.24	55.27	54.36	-37.6	-38.3	25.8	0.00e+00	92	41	0	672137216	48	5960
2026-01-23 14:21:55.25	55.75	54.64	-37.8	-38.6	25.7	0.00e+00	0	41	0	674234368	48	6107
2026-01-23 14:21:56.26	56.25	54.92	-38.2	-39.0	25.2	0.00e+00	92	41	0	676331520	48	6414
2026-01-23 14:21:57.26	56.74	55.21	-38.9	-39.8	24.7	0.00e+00	0	41	0	678428672	50	6255
2026-01-23 14:21:58.27	57.25	55.49	-39.5	-40.4	24.2	0.00e+00	27	41	0	680525824	50	6731
2026-01-23 14:21:59.28	57.78	55.77	-40.1	-41.0	23.7	0.00e+00	0	41	0	681574400	52	6420
2026-01-23 14:22:00.29	58.31	56.05	-40.1	-41.0	23.7	0.00e+00	22	41	0	683671552	52	6447
2026-01-23 14:22:01.30	58.85	56.33	-40.1	-41.0	23.7	0.00e+00	92	41	0	685768704	52	6438
2026-01-23 14:22:02.31	59.41	56.61	-40.1	-41.1	23.6	0.00e+00	0	41	0	687865856	52	6468
2026-01-23 14:22:03.32	59.97	56.89	-40.3	-41.2	23.4	0.00e+00	92	41	0	689963008	52	6569
2026-01-23 14:22:04.33	60.55	57.17	-40.9	-41.8	22.9	0.00e+00	22	41	0	691011584	52	7088
2026-01-23 14:22:05.34	61.14	57.45	-41.2	-42.2	22.6	0.00e+00	34	41	0	693108736	54	6583
2026-01-23 14:22:06.35	61.74	57.72	-41.2	-42.2	22.6	0.00e+00	20	41	0	695205888	54	6543
2026-01-23 14:22:07.36	62.35	57.99	-41.1	-42.1	22.7	0.00e+00	21	41	0	697303040	54	6518
2026-01-23 14:22:08.37	62.98	58.26	-41.2	-42.2	22.6	0.00e+00	14	41	0	699400192	54	6547
2026-01-23 14:22:09.38	63.62	58.53	-41.6	-42.7	22.2	0.00e+00	60	41	0	700448768	54	6964
2026-01-23 14:22:10.39	64.27	58.80	-41.9	-43.0	22.0	0.00e+00	90	41	0	702545920	56	6448
2026-01-23 14:22:11.39	64.93	59.06	-41.6	-42.7	22.3	0.00e+00	5	41	0	704643072	56	6179
2026-01-23 14:22:12.40	65.60	59.32	-40.8	-41.8	23.1	0.00e+00	92	41	0	706740224	56	5569
2026-01-23 14:22:13.41	66.30	59.58	-40.5	-41.5	23.3	0.00e+00	5	41	0	708837376	54	6054
2026-01-23 14:22:14.42	67.00	59.84	-40.1	-41.0	23.6	0.00e+00	59	41	0	709885952	54	5737
2026-01-23 14:22:15.43	67.72	60.09	-40.3	-41.2	23.4	0.00e+00	0	41	0	711983104	54	5890
2026-01-23 14:22:16.44	68.45	60.35	-40.1	-41.0	23.7	0.00e+00	1	41	0	714080256	54	5750
2026-01-23 14:22:17.45	69.20	60.59	-39.7	-40.6	24.1	0.00e+00	92	41	0	716177408	54	5475
2026-01-23 14:22:18.46	69.96	60.84	-38.9	-39.7	24.8	0.00e+00	4	41	0	718274560	52	5523
2026-01-23 14:22:19.47	70.74	61.08	-38.6	-39.4	25.1	0.00e+00	92	41	0	719323136	50	5979
2026-01-23 14:22:20.48	71.53	61.32	-38.4	-39.2	25.1	0.00e+00	1	41	0	721420288	50	5859
2026-01-23 14:22:21.49	72.34	61.55	-38.8	-39.6	24.8	0.00e+00	6	41	0	723517440	50	6140
2026-01-23 14:22:22.50	73.16	61.78	-38.8	-39.6	24.8	0.00e+00	5	41	0	725614592	50	6147
2026-01-23 14:22:23.50	73.99	62.00	-39.1	-39.9	24.6	0.00e+00	17	41	0	727711744	50	6357
2026-01-23 14:22:24.51	74.84	62.22	-39.2	-40.1	24.4	0.00e+00	0	41	0	728760320	50	6465
2026-01-23 14:22:25.52	75.71	62.44	-39.5	-40.3	24.2	0.00e+00	0	41	0	730857472	50	6658
2026-01-23 14:22:26.53	76.59	62.65	-39.4	-40.3	24.3	0.00e+00	92	41	0	732954624	50	6639
2026-01-23 14:22:27.54	77.49	62.85	-39.1	-39.9	24.7	0.00e+00	19	41	0	735051776	50	6333
2026-01-23 14:22:28.55	78.41	63.05	-38.9	-39.7	24.8	0.00e+00	23	41	0	737148928	50	6217
2026-01-23 14:22:29.56	79.33	63.25	-38.7	-39.5	24.9	0.00e+00	61	41	0	738197504	50	6094
2026-01-23 14:22:30.57	80.28	63.43	-38.9	-39.7	24.9	0.00e+00	64	41	0	740294656	50	6176
2026-01-23 14:22:31.58	81.24	63.62	-39.6	-40.4	24.2	0.00e+00	0	41	0	742391808	50	6749
2026-01-23 14:22:32.59	82.21	63.79	-40.0	-40.9	23.9	0.00e+00	6	41	0	744488960	52	6357
2026-01-23 14:22:33.60	83.20	63.96	-39.7	-40.6	24.0	0.00e+00	92	41	0	746586112	52	6131
2026-01-23 14:22:34.61	84.20	64.13	-39.7	-40.6	24.2	0.00e+00	6	41	0	748683264	52	6121
2026-01-23 14:22:35.62	85.22	64.28	-39.7	-40.6	23.9	0.00e+00	84	41	0	749731840	52	6131
2026-01-23 14:22:36.63	86.25	64.43	-39.4	-40.3	24.2	0.00e+00	63	41	0	751828992	52	5935
2026-01-23 14:22:37.64	87.29	64.58	-40.0	-40.9	23.8	0.00e+00	6	41	0	753926144	52	6329
2026-01-23 14:22:38.65	88.35	64.71	-40.8	-41.8	23.1	0.00e+00	0	41	0	756023296	54	6262
2026-01-23 14:22:39.66	89.42	64.84	-41.1	-42.1	22.8	0.00e+00	7	41	0	758120448	54	6513
2026-01-23 14:22:40.66	90.49	64.96	-41.1	-42.1	22.8	0.00e+00	90	41	0	759169024	54	6485
2026-01-23 14:22:41.67	91.58	65.07	-40.6	-41.5	23.3	0.00e+00	7	41	0	761266176	54	6103
2026-01-23 14:22:42.68	92.68	65.18	-40.5	-41.5	23.2	0.00e+00	92	41	0	763363328	54	6069
2026-01-23 14:22:43.69	93.79	65.27	-40.7	-41.7	22.9	0.00e+00	0	41	0	765460480	54	6199
2026-01-23 14:22:44.70	94.91	65.36	-41.3	-42.3	22.5	0.00e+00	0	41	0	767557632	54	6660
2026-01-23 14:22:45.71	96.04	65.44	-42.0	-43.1	21.8	0.00e+00	0	41	0	768606208	56	6527
2026-01-23 14:22:46.71	97.17	65.51	-42.0	-43.1	21.7	0.00e+00	4	41	0	770703360	56	6538
2026-01-23 14:22:47.72	98.31	65.58	-41.8	-42.9	22.1	0.00e+00	0	41	0	772800512	56	6321
2026-01-23 14:22:48.73	99.46	65.63	-41.2	-42.2	22.7	0.00e+00	62	41	0	774897664	56	5890
2026-01-23 14:22:49.74	100.62	65.68	-40.9	-41.8	22.9	0.00e+00	90	41	0	776994816	54	6311
2026-01-23 14:22:50.76	101.79	65.71	-40.5	-41.5	23.3	0.00e+00	18	41	0	778043392	54	6072
2026-01-23 14:22:51.76	102.94	65.74	-40.1	-41.0	23.7	0.00e+00	56	41	0	780140544	54	5753
2026-01-23 14:22:52.77	104.11	65.76	-40.3	-41.2	23.6	0.00e+00	17	41	0	782237696	54	5894
2026-01-23 14:22:53.78	105.28	65.77	-40.1	-41.0	23.5	0.00e+00	19	41	0	784334848	54	5751
2026-01-23 14:22:54.79	106.44	65.77	-40.3	-41.2	23.6	0.00e+00	72	41	0	786432000	54	5867
2026-01-23 14:22:55.80	107.61	65.76	-40.4	-41.3	23.1	0.00e+00	58	41	0	787480576	54	5917
2026-01-23 14:22:56.81	108.78	65.74	-40.7	-41.7	23.1	0.00e+00	92	41	0	789577728	54	6180
2026-01-23 14:22:57.82	109.94	65.72	-40.7	-41.7	23.2	0.00e+00	60	41	0	791674880	54	6222
2026-01-23 14:22:58.83	111.10	65.68	-40.5	-41.5	23.3	0.00e+00	92	41	0	793772032	54	6041
2026-01-23 14:22:59.84	112.26	65.64	-41.3	-42.4	22.5	0.00e+00	2	41	0	795869184	54	6719
2026-01-23 14:23:00.83	113.39	65.58	-41.5	-42.6	22.2	0.00e+00	2	41	0	796917760	54	6896
2026-01-23 14:23:01.83	114.52	65.52	-40.5	-41.4	23.5	0.00e+00	0	41	0	799014912	54	6019
2026-01-23 14:23:02.84	115.66	65.45	-39.7	-40.6	24.1	0.00e+00	0	41	0	801112064	54	5475
2026-01-23 14:23:03.85	116.79	65.37	-39.4	-40.2	24.5	0.00e+00	83	41	0	803209216	52	5859
2026-01-23 14:23:04.86	117.91	65.28	-39.9	-40.8	24.0	0.00e+00	0	41	0	805306368	52	6283
2026-01-23 14:23:05.87	119.03	65.19	-40.5	-41.4	23.3	0.00e+00	92	41	0	806354944	52	6757
2026-01-23 14:23:06.88	120.13	65.09	-40.7	-41.6	23.3	0.00e+00	5	41	0	808452096	52	6891
2026-01-23 14:23:07.89	121.22	64.97	-40.4	-41.3	23.5	0.00e+00	22	41	0	810549248	52	6679
2026-01-23 14:23:08.90	122.31	64.85	-40.0	-40.9	23.8	0.00e+00	22	41	0	812646400	52	6363
2026-01-23 14:23:09.91	123.38	64.73	-40.2	-41.1	23.6	0.00e+00	24	41	0	814743552	52	6535
2026-01-23 14:23:10.92	124.43	64.59	-39.8	-40.7	23.9	0.00e+00	22	41	0	815792128	52	6196
2026-01-23 14:23:11.93	125.48	64.45	-39.6	-40.4	24.2	0.00e+00	59	41	0	817889280	52	5992
2026-01-23 14:23:12.94	126.51	64.30	-39.1	-40.0	24.6	0.00e+00	92	41	0	819986432	52	5706
2026-01-23 14:23:13.95	127.53	64.14	-39.4	-40.3	24.4	0.00e+00	58	41	0	822083584	52	5918
2026-01-23 14:23:14.96	128.54	63.98	-39.2	-40.0	24.6	0.00e+00	51	41	0	824180736	52	5733
2026-01-23 14:23:15.97	129.53	63.81	-38.6	-39.4	25.2	0.00e+00	60	41	0	825229312	52	5362
2026-01-23 14:23:16.98	130.50	63.63	-38.0	-38.8	25.2	0.00e+00	65	41	0	827326464	50	5597
2026-01-23 14:23:17.99	131.46	63.45	-37.6	-38.4	25.9	0.00e+00	78	41	0	829423616	48	5999
2026-01-23 14:23:19.00	132.41	63.26	-38.1	-38.9	25.5	0.00e+00	0	41	0	831520768	48	6330
2026-01-23 14:23:20.01	133.34	63.07	-37.4	-38.1	26.1	0.00e+00	92	41	0	833617920	48	5807
2026-01-23 14:23:21.02	134.26	62.87	-36.5	-37.2	26.9	0.00e+00	0	41	0	834666496	46	5843
2026-01-23 14:23:22.03	135.16	62.66	-36.1	-36.8	27.1	0.00e+00	92	41	0	836763648	46	5598
2026-01-23 14:23:23.04	136.04	62.45	-36.8	-37.5	26.6	0.00e+00	0	41	0	838860800	46	6064
2026-01-23 14:23:24.05	136.91	62.24	-36.5	-37.2	26.8	0.00e+00	2	41	0	840957952	46	5833
2026-01-23 14:23:25.06	137.77	62.02	-36.1	-36.8	27.2	0.00e+00	2	41	0	843055104	46	5607
2026-01-23 14:23:26.07	138.61	61.79	-36.1	-36.8	27.1	0.00e+00	0	41	0	845152256	46	5580
2026-01-23 14:23:27.07	139.43	61.57	-36.5	-37.3	26.7	0.00e+00	82	41	0	846200832	46	5897
2026-01-23 14:23:28.08	140.23	61.33	-37.3	-38.1	26.1	0.00e+00	0	41	0	848297984	46	6468
2026-01-23 14:23:29.09	141.03	61.10	-38.2	-38.9	25.4	0.00e+00	92	41	0	850395136	48	6385
2026-01-23 14:23:30.10	141.81	60.86	-38.3	-39.1	25.4	0.00e+00	2	41	0	852492288	48	6511
2026-01-23 14:23:31.11	142.57	60.61	-38.6	-39.4	25.1	0.00e+00	0	41	0	854589440	48	6768
2026-01-23 14:23:32.12	143.32	60.36	-39.1	-39.9	24.5	0.00e+00	0	41	0	855638016	50	6384
2026-01-23 14:23:33.13	144.06	60.11	-40.2	-41.1	23.6	0.00e+00	23	41	0	857735168	52	6481
2026-01-23 14:23:34.14	144.78	59.86	-40.2	-41.1	23.7	0.00e+00	16	41	0	859832320	52	6532
2026-01-23 14:23:35.15	145.49	59.60	-39.6	-40.4	24.0	0.00e+00	59	41	0	861929472	52	6023
2026-01-23 14:23:36.16	146.18	59.34	-39.4	-40.2	24.3	0.00e+00	90	41	0	864026624	52	5882
2026-01-23 14:23:37.17	146.86	59.08	-39.4	-40.2	24.3	0.00e+00	58	41	0	865075200	52	5870
2026-01-23 14:23:38.18	147.53	58.81	-39.7	-40.5	24.2	0.00e+00	92	41	0	867172352	52	6101
2026-01-23 14:23:39.19	148.18	58.55	-39.2	-40.1	24.6	0.00e+00	2	41	0	869269504	52	5781
2026-01-23 14:23:40.20	148.82	58.28	-38.6	-39.4	25.1	0.00e+00	2	41	0	871366656	50	5965
2026-01-23 14:23:41.21	149.45	58.00	-38.2	-39.0	25.1	0.00e+00	60	41	0	873463808	50	5732
2026-01-23 14:23:42.22	150.06	57.73	-38.1	-38.9	25.4	0.00e+00	0	41	0	874512384	50	5671
2026-01-23 14:23:43.23	150.67	57.46	-38.2	-38.9	25.4	0.00e+00	91	41	0	876609536	50	5685
2026-01-23 14:23:44.24	151.26	57.18	-38.3	-39.0	25.5	0.00e+00	0	41	0	878706688	50	5751
2026-01-23 14:23:45.25	151.84	56.90	-37.7	-38.5	25.8	0.00e+00	92	41	0	880803840	48	6048
2026-01-23 14:23:46.26	152.40	56.62	-37.8	-38.5	25.7	0.00e+00	0	41	0	882900992	48	6103
2026-01-23 14:23:47.27	152.96	56.34	-37.8	-38.6	25.9	0.00e+00	0	41	0	883949568	48	6129
2026-01-23 14:23:48.28	153.51	56.06	-37.2	-37.9	26.2	0.00e+00	0	41	0	886046720	48	5688
2026-01-23 14:23:49.29	154.04	55.78	-37.5	-38.2	25.9	0.00e+00	0	41	0	888143872	48	5863
2026-01-23 14:23:50.30	154.56	55.49	-37.9	-38.7	25.7	0.00e+00	91	41	0	890241024	48	6175
2026-01-23 14:23:51.30	155.07	55.21	-37.8	-38.5	25.8	0.00e+00	14	41	0	892338176	48	6075
2026-01-23 14:23:52.31	155.58	54.93	-37.4	-38.1	25.9	0.00e+00	92	41	0	893386752	48	5816
2026-01-23 14:23:53.32	156.07	54.64	-37.7	-38.4	25.9	0.00e+00	14	41	0	895483904	48	5996
2026-01-23 14:23:54.33	156.55	54.36	-37.6	-38.4	25.7	0.00e+00	0	41	0	897581056	48	5988
2026-01-23 14:23:55.34	157.03	54.07	-36.9	-37.6	26.5	0.00e+00	0	41	0	899678208	48	5490
2026-01-23 14:23:56.35	157.49	53.78	-37.1	-37.8	26.3	0.00e+00	19	41	0	901775360	48	5611
2026-01-23 14:23:57.36	157.95	53.50	-37.9	-38.7	25.6	0.00e+00	0	41	0	902823936	48	6187
2026-01-23 14:23:58.37	158.40	53.21	-38.7	-39.6	25.0	0.00e+00	61	41	0	904921088	48	6852
2026-01-23 14:23:59.38	158.83	52.92	-38.8	-39.6	24.8	0.00e+00	92	41	0	907018240	50	6148
2026-01-23 14:24:00.39	159.26	52.64	-38.3	-39.0	25.4	0.00e+00	5	41	0	909115392	50	5760
2026-01-23 14:24:01.40	159.69	52.35	-37.7	-38.5	25.8	0.00e+00	90	41	0	911212544	50	5405
2026-01-23 14:24:02.40	160.10	52.06	-37.6	-38.4	25.9	0.00e+00	0	41	0	913309696	48	5991
2026-01-23 14:24:03.41	160.50	51.78	-38.1	-38.8	25.2	0.00e+00	5	41	0	914358272	48	6315
2026-01-23 14:24:04.42	160.90	51.49	-38.8	-39.6	24.8	0.00e+00	61	41	0	916455424	48	6900
2026-01-23 14:24:05.43	161.29	51.21	-39.7	-40.6	24.1	0.00e+00	5	41	0	918552576	50	6876
2026-01-23 14:24:06.44	161.68	50.92	-40.5	-41.4	23.3	0.00e+00	92	41	0	920649728	52	6755
2026-01-23 14:24:07.45	162.05	50.64	-40.3	-41.2	23.5	0.00e+00	0	41	0	922746880	52	6580
2026-01-23 14:24:08.46	162.42	50.35	-39.8	-40.7	23.9	0.00e+00	90	41	0	923795456	52	6210
2026-01-23 14:24:09.47	162.78	50.07	-39.5	-40.3	24.2	0.00e+00	0	41	0	925892608	52	5950
2026-01-23 14:24:10.48	163.14	49.78	-40.1	-41.0	23.6	0.00e+00	3	41	0	927989760	52	6417
2026-01-23 14:24:11.49	163.49	49.50	-41.9	-43.0	22.0	0.00e+00	0	41	0	930086912	56	6409
2026-01-23 14:24:12.49	163.83	49.22	-43.0	-44.2	20.8	0.00e+00	2	41	0	932184064	58	6615
2026-01-23 14:24:13.51	164.17	48.94	-43.7	-45.1	20.0	0.00e+00	92	41	0	933232640	58	7277
2026-01-23 14:24:14.51	164.50	48.66	-44.3	-45.9	19.2	0.00e+00	20	41	0	935329792	60	7138
2026-01-23 14:24:15.52	164.82	48.38	-44.4	-46.0	19.3	0.00e+00	91	42	0	937426944	60	7195
2026-01-23 14:24:16.53	165.14	48.10	-43.8	-45.2	20.0	0.00e+00	71	42	0	939524096	60	6565
2026-01-23 14:24:17.54	165.46	47.82	-43.2	-44.5	20.7	0.00e+00	6	41	0	941621248	60	6037
2026-01-23 14:24:18.55	165.77	47.54	-42.6	-43.8	21.2	0.00e+00	69	41	0	942669824	58	6265
2026-01-23 14:24:19.56	166.07	47.27	-44.3	-46.0	19.0	0.00e+00	72	41	0	944766976	60	7176
2026-01-23 14:24:20.57	166.37	46.99	-46.3	-48.9	16.2	0.00e+00	0	41	0	946864128	60	10075
2026-01-23 14:24:21.58	166.66	46.72	-45.4	-47.5	17.6	0.00e+00	15	41	0	948961280	60	8603
2026-01-23 14:24:22.59	166.95	46.44	-43.7	-45.2	20.0	0.00e+00	92	41	0	951058432	60	6560
2026-01-23 14:24:23.60	167.23	46.17	-43.3	-44.6	20.6	0.00e+00	1	41	0	952107008	60	6151
2026-01-23 14:24:24.61	167.51	45.90	-41.4	-42.4	22.6	0.00e+00	90	41	0	954204160	56	5996
2026-01-23 14:24:25.62	167.78	45.63	-40.3	-41.2	23.6	0.00e+00	7	41	0	956301312	54	5836
2026-01-23 14:24:26.63	168.05	45.36	-40.5	-41.5	23.2	0.00e+00	6	41	0	958398464	54	6056
2026-01-23 14:24:27.64	168.32	45.09	-41.3	-42.4	22.4	0.00e+00	2	41	0	960495616	54	6718
2026-01-23 14:24:28.65	168.58	44.83	-42.0	-43.1	21.9	0.00e+00	0	41	0	961544192	56	6490
2026-01-23 14:24:29.66	168.83	44.56	-42.5	-43.7	21.2	0.00e+00	92	41	0	963641344	56	6998
2026-01-23 14:24:30.66	169.08	44.30	-41.8	-43.0	22.2	0.00e+00	6	41	0	965738496	56	6399
2026-01-23 14:24:31.67	169.33	44.04	-40.0	-40.9	23.9	0.00e+00	92	41	0	967835648	54	5679
2026-01-23 14:24:32.68	169.57	43.77	-39.0	-39.8	24.6	0.00e+00	0	41	0	969932800	52	5627
2026-01-23 14:24:33.69	169.81	43.51	-38.6	-39.4	25.1	0.00e+00	0	41	0	970981376	50	5968
2026-01-23 14:24:34.70	170.05	43.25	-37.9	-38.6	25.7	0.00e+00	0	41	0	973078528	50	5493
2026-01-23 14:24:35.71	170.28	42.99	-38.5	-39.2	25.1	0.00e+00	21	41	0	975175680	50	5892
2026-01-23 14:24:36.72	170.51	42.74	-39.8	-40.6	23.9	0.00e+00	71	41	0	977272832	50	6920
2026-01-23 14:24:37.73	170.74	42.48	-40.7	-41.7	23.0	0.00e+00	21	41	0	979369984	52	6972
2026-01-23 14:24:38.74	170.96	42.23	-40.4	-41.3	23.4	0.00e+00	92	41	0	981467136	54	5952
2026-01-23 14:24:39.75	171.18	41.97	-39.9	-40.8	23.9	0.00e+00	60	41	0	982515712	54	5568
2026-01-23 14:24:40.76	171.39	41.72	-39.1	-39.9	24.7	0.00e+00	59	41	0	984612864	52	5678
2026-01-23 14:24:41.77	171.60	41.47	-38.4	-39.1	25.2	0.00e+00	20	41	0	986710016	50	5823
2026-01-23 14:24:42.78	171.81	41.22	-38.2	-38.9	25.5	0.00e+00	60	41	0	988807168	50	5695
2026-01-23 14:24:43.79	172.02	40.97	-38.5	-39.3	25.1	0.00e+00	14	41	0	990904320	50	5927
2026-01-23 14:24:44.80	172.22	40.73	-38.9	-39.7	24.6	0.00e+00	62	41	0	991952896	50	6240
2026-01-23 14:24:45.81	172.42	40.48	-39.9	-40.8	23.8	0.00e+00	92	41	0	994050048	50	7021
2026-01-23 14:24:46.81	172.61	40.24	-40.6	-41.6	23.1	0.00e+00	68	41	0	996147200	52	6911
2026-01-23 14:24:47.82	172.81	40.00	-41.0	-42.0	22.7	0.00e+00	92	41	0	998244352	54	6446
2026-01-23 14:24:48.84	173.00	39.75	-41.1	-42.1	22.7	0.00e+00	0	41	0	1000341504	54	6508
2026-01-23 14:24:49.85	173.19	39.51	-40.4	-41.4	23.3	0.00e+00	0	41	0	1001390080	54	6010
2026-01-23 14:24:50.85	173.37	39.28	-40.4	-41.3	23.3	0.00e+00	0	41	0	1003487232	54	5958
2026-01-23 14:24:51.86	173.55	39.04	-39.7	-40.6	24.0	0.00e+00	0	41	0	1005584384	52	6120
2026-01-23 14:24:52.87	173.73	38.80	-38.4	-39.2	25.1	0.00e+00	92	41	0	1007681536	50	5849
2026-01-23 14:24:53.88	173.91	38.57	-38.0	-38.8	25.5	0.00e+00	16	41	0	1009778688	50	5567
2026-01-23 14:24:54.89	174.09	38.33	-37.9	-38.6	25.6	0.00e+00	90	41	0	1010827264	50	5478
2026-01-23 14:24:55.90	174.26	38.10	-38.6	-39.4	24.9	0.00e+00	0	41	0	1012924416	50	6022
2026-01-23 14:24:56.91	174.43	37.87	-39.4	-40.3	24.2	0.00e+00	0	41	0	1015021568	50	6628
2026-01-23 14:24:57.92	174.60	37.64	-40.5	-41.4	23.3	0.00e+00	0	41	0	1017118720	52	6755
2026-01-23 14:24:58.93	174.76	37.41	-40.8	-41.8	22.9	0.00e+00	5	41	0	1019215872	54	6278
2026-01-23 14:24:59.93	174.93	37.19	-40.3	-41.3	23.3	0.00e+00	91	41	0	1020264448	54	5919
2026-01-23 14:25:00.94	175.09	36.96	-40.4	-41.4	23.4	0.00e+00	63	41	0	1022361600	54	5976
2026-01-23 14:25:01.95	175.25	36.74	-39.7	-40.6	24.0	0.00e+00	91	41	0	1024458752	52	6158
2026-01-23 14:25:02.96	175.40	36.51	-39.2	-40.0	24.5	0.00e+00	61	41	0	1026555904	52	5761
2026-01-23 14:25:03.97	175.56	36.29	-38.7	-39.4	25.0	0.00e+00	91	41	0	1028653056	52	5373
2026-01-23 14:25:04.98	175.71	36.07	-38.4	-39.2	25.2	0.00e+00	20	42	0	1029701632	50	5835
2026-01-23 14:25:05.99	175.86	35.85	-38.4	-39.2	25.2	0.00e+00	63	42	0	1031798784	50	5840
2026-01-23 14:25:07.00	176.01	35.63	-38.7	-39.5	24.9	0.00e+00	4	41	0	1033895936	50	6057
2026-01-23 14:25:08.01	176.16	35.42	-39.1	-39.9	24.6	0.00e+00	0	41	0	1035993088	50	6343
2026-01-23 14:25:09.02	176.31	35.20	-39.3	-40.2	24.4	0.00e+00	90	41	0	1038090240	50	6549
2026-01-23 14:25:10.03	176.45	34.99	-39.9	-40.8	23.8	0.00e+00	62	41	0	1039138816	52	6307
2026-01-23 14:25:11.04	176.59	34.77	-40.3	-41.3	23.4	0.00e+00	68	41	0	1041235968	52	6627
2026-01-23 14:25:12.05	176.73	34.56	-40.5	-41.4	23.2	0.00e+00	0	41	0	1043333120	52	6739
2026-01-23 14:25:13.06	176.87	34.35	-40.5	-41.4	23.2	0.00e+00	0	41	0	1045430272	52	6765
2026-01-23 14:25:14.07	177.00	34.14	-40.5	-41.5	23.2	0.00e+00	0	41	0	1047527424	52	6804
2026-01-23 14:25:15.08	177.14	33.94	-40.4	-41.3	23.3	0.00e+00	0	41	0	1048576000	52	6690
2026-01-23 14:25:16.09	177.27	33.73	-40.3	-41.2	23.4	0.00e+00	90	41	0	1050673152	52	6609
2026-01-23 14:25:17.10	177.40	33.52	-40.5	-41.4	23.2	0.00e+00	0	41	0	1052770304	52	6763
2026-01-23 14:25:18.11	177.53	33.32	-40.6	-41.5	23.2	0.00e+00	93	41	0	1054867456	52	6816
2026-01-23 14:25:19.12	177.66	33.12	-40.8	-41.7	23.0	0.00e+00	0	41	0	1056964608	54	6227
2026-01-23 14:25:20.13	177.79	32.91	-40.8	-41.8	22.9	0.00e+00	55	41	0	1058013184	54	6266
2026-01-23 14:25:21.14	177.91	32.71	-40.5	-41.4	23.2	0.00e+00	70	41	0	1060110336	54	6019
2026-01-23 14:25:22.15	178.04	32.51	-40.6	-41.6	23.1	0.00e+00	0	41	0	1062207488	54	6120
2026-01-23 14:25:23.16	178.16	32.31	-40.5	-41.4	23.2	0.00e+00	92	41	0	1064304640	54	6010
2026-01-23 14:25:24.17	178.28	32.12	-40.5	-41.4	23.3	0.00e+00	14	41	0	1066401792	54	5982
2026-01-23 14:25:25.18	178.40	31.92	-40.4	-41.3	23.2	0.00e+00	92	41	0	1067450368	54	5942
2026-01-23 14:25:26.19	178.52	31.73	-40.5	-41.5	23.1	0.00e+00	66	41	0	1069547520	54	6042
2026-01-23 14:25:27.20	178.64	31.53	-40.6	-41.5	23.1	0.00e+00	18	41	0	1071644672	54	6093
2026-01-23 14:25:28.21	178.75	31.34	-40.9	-41.8	22.8	0.00e+00	0	41	0	1073741824	54	6300
2026-01-23 14:25:29.22	178.87	31.15	-41.2	-42.2	22.5	0.00e+00	0	41	0	1075838976	54	6555
2026-01-23 14:25:30.23	178.98	30.96	-41.3	-42.3	22.4	0.00e+00	0	41	0	1077936128	54	6643
2026-01-23 14:25:31.24	179.09	30.77	-41.5	-42.5	22.1	0.00e+00	0	41	0	1078984704	54	6820
2026-01-23 14:25:32.25	179.20	30.58	-41.5	-42.5	22.2	0.00e+00	90	41	0	1081081856	54	6825
2026-01-23 14:25:33.26	179.31	30.39	-41.6	-42.6	22.1	0.00e+00	0	41	0	1083179008	54	6922
2026-01-23 14:25:34.27	179.42	30.21	-41.3	-42.3	22.4	0.00e+00	61	41	0	1085276160	54	6690
2026-01-23 14:25:35.28	179.52	30.02	-41.0	-42.0	22.6	0.00e+00	0	41	0	1087373312	54	6410
2026-01-23 14:25:36.28	179.63	29.84	-40.9	-41.9	22.7	0.00e+00	0	41	0	1088421888	54	6360
2026-01-23 14:25:37.29	179.73	29.66	-40.7	-41.7	23.1	0.00e+00	0	41	0	1090519040	54	6182
2026-01-23 14:25:38.30	179.84	29.48	-40.2	-41.1	23.5	0.00e+00	0	41	0	1092616192	54	5823
2026-01-23 14:25:39.31	179.94	29.30	-40.1	-41.0	23.6	0.00e+00	92	41	0	1094713344	54	5697
2026-01-23 14:25:40.32	180.04	29.12	-39.8	-40.7	23.8	0.00e+00	17	41	0	1096810496	54	5520
2026-01-23 14:25:41.33	180.14	28.94	-39.9	-40.8	23.7	0.00e+00	92	41	0	1097859072	54	5583
2026-01-23 14:25:42.34	180.24	28.76	-40.0	-40.9	23.7	0.00e+00	16	41	0	1099956224	54	5643
2026-01-23 14:25:43.35	180.34	28.59	-39.8	-40.7	23.8	0.00e+00	17	41	0	1102053376	54	5531
2026-01-23 14:25:44.36	180.43	28.41	-39.7	-40.6	24.0	0.00e+00	18	41	0	1104150528	52	6137
2026-01-23 14:25:45.37	180.53	28.24	-40.0	-40.9	23.7	0.00e+00	66	41	0	1106247680	52	6318
2026-01-23 14:25:46.37	180.62	28.06	-40.1	-41.0	23.6	0.00e+00	0	41	0	1107296256	52	6403
2026-01-23 14:25:47.38	180.72	27.89	-40.2	-41.1	23.4	0.00e+00	0	41	0	1109393408	52	6509
2026-01-23 14:25:48.39	180.81	27.72	-40.4	-41.3	23.3	0.00e+00	90	41	0	1111490560	52	6651
2026-01-23 14:25:49.40	180.90	27.55	-40.5	-41.4	23.1	0.00e+00	0	41	0	1113587712	52	6762
2026-01-23 14:25:50.41	180.99	27.38	-40.5	-41.5	23.2	0.00e+00	92	41	0	1115684864	52	6773
2026-01-23 14:25:51.42	181.08	27.21	-40.5	-41.5	23.2	0.00e+00	0	41	0	1116733440	52	6785
2026-01-23 14:25:52.43	181.17	27.05	-40.5	-41.5	23.2	0.00e+00	68	41	0	1118830592	52	6807
2026-01-23 14:25:53.44	181.26	26.88	-40.4	-41.4	23.3	0.00e+00	0	41	0	1120927744	52	6703
2026-01-23 14:25:54.45	181.35	26.71	-40.1	-41.0	23.5	0.00e+00	0	41	0	1123024896	52	6461
2026-01-23 14:25:55.46	181.43	26.55	-39.8	-40.7	23.8	0.00e+00	92	41	0	1125122048	52	6235
2026-01-23 14:25:56.47	181.52	26.39	-39.7	-40.6	23.9	0.00e+00	4	41	0	1126170624	52	6105
2026-01-23 14:25:57.48	181.61	26.22	-39.9	-40.8	23.7	0.00e+00	90	41	0	1128267776	52	6291
2026-01-23 14:25:58.49	181.69	26.06	-39.2	-40.1	24.3	0.00e+00	5	41	0	1130364928	52	5774
2026-01-23 14:25:59.50	181.77	25.90	-38.9	-39.7	24.6	0.00e+00	6	41	0	1132462080	52	5512
2026-01-23 14:26:00.51	181.86	25.74	-38.7	-39.5	24.8	0.00e+00	0	41	0	1134559232	50	6060
2026-01-23 14:26:01.51	181.94	25.58	-38.6	-39.4	24.8	0.00e+00	0	41	0	1135607808	50	5969
2026-01-23 14:26:02.53	182.02	25.42	-38.7	-39.5	24.8	0.00e+00	90	41	0	1137704960	50	6077
2026-01-23 14:26:03.54	182.10	25.27	-38.4	-39.2	25.0	0.00e+00	17	41	0	1139802112	50	5856
2026-01-23 14:26:04.55	182.18	25.11	-38.6	-39.4	24.9	0.00e+00	92	41	0	1141899264	50	5974
2026-01-23 14:26:05.56	182.26	24.95	-38.6	-39.4	25.0	0.00e+00	67	41	0	1143996416	50	5970
2026-01-23 14:26:06.57	182.33	24.80	-38.6	-39.5	24.8	0.00e+00	17	41	0	1146093568	50	6034
2026-01-23 14:26:07.57	182.41	24.65	-38.7	-39.5	24.8	0.00e+00	15	41	0	1147142144	50	6086
2026-01-23 14:26:08.58	182.49	24.49	-38.9	-39.7	24.6	0.00e+00	69	41	0	1149239296	50	6201
2026-01-23 14:26:09.59	182.56	24.34	-38.9	-39.7	24.6	0.00e+00	2	41	0	1151336448	50	6202
2026-01-23 14:26:10.60	182.64	24.19	-39.0	-39.9	24.4	0.00e+00	70	41	0	1153433600	50	6348
2026-01-23 14:26:11.61	182.71	24.04	-38.9	-39.8	24.5	0.00e+00	92	41	0	1155530752	50	6255
2026-01-23 14:26:12.62	182.79	23.89	-39.0	-39.9	24.5	0.00e+00	2	41	0	1156579328	50	6345
2026-01-23 14:26:13.63	182.86	23.74	-39.1	-39.9	24.5	0.00e+00	92	41	0	1158676480	50	6379
2026-01-23 14:26:14.64	182.93	23.59	-38.9	-39.8	24.6	0.00e+00	3	41	0	1160773632	50	6253
2026-01-23 14:26:15.65	183.00	23.45	-38.8	-39.6	24.8	0.00e+00	5	41	0	1162870784	50	6132
2026-01-23 14:26:16.66	183.08	23.30	-38.9	-39.7	24.7	0.00e+00	5	41	0	1164967936	50	6199
2026-01-23 14:26:17.67	183.15	23.15	-38.7	-39.5	24.9	0.00e+00	0	41	0	1166016512	50	6045
2026-01-23 14:26:18.68	183.22	23.01	-38.7	-39.6	24.8	0.00e+00	92	41	0	1168113664	50	6107
2026-01-23 14:26:19.69	183.29	22.86	-38.7	-39.5	24.8	0.00e+00	10	41	0	1170210816	50	6065
2026-01-23 14:26:20.70	183.36	22.72	-38.6	-39.4	24.8	0.00e+00	91	41	0	1172307968	50	5995
2026-01-23 14:26:21.71	183.42	22.58	-38.5	-39.3	24.9	0.00e+00	7	41	0	1174405120	50	5935
2026-01-23 14:26:22.72	183.49	22.44	-38.5	-39.3	24.9	0.00e+00	7	41	0	1175453696	50	5938
2026-01-23 14:26:23.73	183.56	22.30	-38.5	-39.3	24.9	0.00e+00	6	41	0	1177550848	50	5936
2026-01-23 14:26:24.74	183.62	22.15	-38.6	-39.4	24.9	0.00e+00	13	41	0	1179648000	50	5978
2026-01-23 14:26:25.75	183.69	22.02	-38.5	-39.3	25.0	0.00e+00	78	41	0	1181745152	50	5927
2026-01-23 14:26:26.76	183.76	21.88	-38.6	-39.4	24.7	0.00e+00	65	41	0	1183842304	50	5987
2026-01-23 14:26:27.77	183.82	21.74	-38.5	-39.3	24.9	0.00e+00	92	41	0	1184890880	50	5944
2026-01-23 14:26:28.77	183.88	21.60	-38.6	-39.4	24.7	0.00e+00	67	41	0	1186988032	50	6018
2026-01-23 14:26:29.78	183.95	21.47	-38.6	-39.4	24.9	0.00e+00	1	41	0	1189085184	50	5975
2026-01-23 14:26:30.79	184.01	21.33	-38.6	-39.4	24.9	0.00e+00	65	41	0	1191182336	50	5989
2026-01-23 14:26:31.80	184.07	21.19	-38.6	-39.4	24.7	0.00e+00	0	41	0	1193279488	50	6033
2026-01-23 14:26:32.81	184.14	21.06	-38.8	-39.6	24.7	0.00e+00	9	41	0	1194328064	50	6168
2026-01-23 14:26:33.82	184.20	20.92	-38.7	-39.5	24.7	0.00e+00	0	41	0	1196425216	50	6044
2026-01-23 14:26:34.83	184.26	20.79	-38.8	-39.6	24.6	0.00e+00	90	41	0	1198522368	50	6132
2026-01-23 14:26:35.84	184.32	20.66	-38.7	-39.5	24.6	0.00e+00	0	41	0	1200619520	50	6102
2026-01-23 14:26:36.85	184.38	20.53	-38.8	-39.6	24.4	0.00e+00	92	41	0	1202716672	50	6169
2026-01-23 14:26:37.85	184.44	20.40	-38.8	-39.7	24.1	0.00e+00	0	41	0	1203765248	50	6207
2026-01-23 14:26:38.86	184.50	20.27	-38.7	-39.6	24.4	0.00e+00	0	41	0	1205862400	50	6126
2026-01-23 14:26:39.87	184.56	20.14	-38.9	-39.7	24.4	0.00e+00	0	41	0	1207959552	50	6221
2026-01-23 14:26:40.88	184.62	20.01	-38.8	-39.6	24.6	0.00e+00	0	41	0	1210056704	50	6151
2026-01-23 14:26:41.89	184.67	19.88	-38.8	-39.6	24.6	0.00e+00	92	41	0	1212153856	50	6139
2026-01-23 14:26:42.90	184.73	19.75	-38.8	-39.6	24.6	0.00e+00	3	41	0	1214251008	50	6156
2026-01-23 14:26:43.91	184.79	19.62	-38.8	-39.7	24.5	0.00e+00	92	41	0	1215299584	50	6179
