passes_logs/2026/01/23/R4.6S_Anadyr/R4.6S_Anadyr__20260123_021940_AQUA_rec.log

#Pass ID: 20260123_021940_AQUA
#Satellite: AQUA
#Configuration: AQUA
#almurnet v.1.7.20251203
#Start time: 2026-01-23 02:19:41

#Version: 2.2.20231116
#Station: R4.6S_Anadyr
#Location: 177.4865 lon 64.73178 lat
#TLE: 1 27424U 02022A   26022.49486490  .00002153  00000+0  44069-3 0  9997
#TLE: 2 27424  98.4099 349.0485 0001970  69.5876  43.4746 14.61847233261984

#Time	Az	El	Level	Level2	SNR	BER	BlckErr	Temp	State	Recorded	gain1	gain2
2026-01-23 02:19:41.38	165.90	0.04	-51.5	-66.5	3.5	1.51e+00	0	39	0	0	60	75986
2026-01-23 02:19:42.38	165.92	0.10	-52.3	-70.1	3.5	3.02e+01	0	39	104	0	60	122582
2026-01-23 02:19:43.39	165.93	0.16	-52.2	-70.0	3.5	3.02e+01	0	39	104	0	60	121961
2026-01-23 02:19:44.41	165.95	0.23	-52.2	-70.0	3.5	3.02e+01	0	40	104	0	60	121977
2026-01-23 02:19:45.41	165.96	0.29	-52.0	-70.0	3.5	3.02e+01	0	40	104	0	60	121362
2026-01-23 02:19:46.43	165.98	0.35	-52.2	-70.0	3.5	3.02e+01	0	40	104	0	60	121755
2026-01-23 02:19:47.44	165.99	0.42	-52.1	-70.0	3.5	3.02e+01	0	40	104	0	60	121388
2026-01-23 02:19:48.44	166.01	0.48	-52.2	-70.0	3.5	3.02e+01	0	40	104	0	60	121863
2026-01-23 02:19:49.46	166.02	0.54	-52.1	-70.0	3.5	3.02e+01	0	40	104	0	60	121713
2026-01-23 02:19:50.47	166.04	0.60	-52.1	-69.9	3.5	3.02e+01	0	40	104	0	60	120597
2026-01-23 02:19:51.48	166.06	0.67	-52.1	-70.0	3.5	3.02e+01	0	40	104	0	60	121360
2026-01-23 02:19:52.49	166.07	0.73	-52.1	-70.0	3.5	3.02e+01	0	40	104	0	60	121098
2026-01-23 02:19:53.49	166.09	0.80	-52.0	-69.9	3.5	3.02e+01	0	40	104	0	60	120548
2026-01-23 02:19:54.50	166.10	0.86	-52.0	-69.7	3.5	3.02e+01	0	40	104	0	60	118051
2026-01-23 02:19:55.51	166.12	0.92	-52.0	-69.8	3.5	3.02e+01	0	40	104	0	60	118531
2026-01-23 02:19:56.52	166.14	0.99	-51.9	-69.7	3.5	3.02e+01	0	40	104	0	60	117790
2026-01-23 02:19:57.53	166.15	1.05	-51.7	-69.7	3.5	3.02e+01	0	40	104	0	60	116900
2026-01-23 02:19:58.54	166.17	1.12	-51.7	-69.6	3.5	3.02e+01	0	40	104	0	60	115941
2026-01-23 02:19:59.55	166.19	1.18	-51.6	-69.5	3.5	3.02e+01	0	40	104	0	60	114636
2026-01-23 02:20:00.56	166.20	1.25	-51.5	-69.3	3.5	3.02e+01	0	40	104	0	60	112798
2026-01-23 02:20:01.57	166.22	1.31	-50.3	-68.3	3.5	3.02e+01	0	40	104	0	60	99893
2026-01-23 02:20:02.58	166.23	1.38	-51.3	-69.1	3.5	3.02e+01	0	40	104	0	60	109185
2026-01-23 02:20:03.59	166.25	1.44	-51.2	-68.9	3.5	3.02e+01	0	40	104	0	60	106717
2026-01-23 02:20:04.60	166.27	1.51	-51.0	-68.8	3.5	3.02e+01	0	40	104	0	60	106398
2026-01-23 02:20:05.61	166.28	1.57	-50.7	-68.6	3.5	3.02e+01	0	40	104	0	60	103200
2026-01-23 02:20:06.62	166.30	1.64	-50.7	-68.0	3.5	3.02e+01	0	40	104	0	60	96400
2026-01-23 02:20:07.63	166.32	1.71	-50.7	-67.8	3.5	3.02e+01	0	40	104	0	60	94100
2026-01-23 02:20:08.64	166.34	1.77	-50.7	-67.7	3.5	3.02e+01	0	40	104	0	60	93851
2026-01-23 02:20:09.65	166.35	1.84	-50.7	-67.8	3.5	3.02e+01	0	40	104	0	60	94015
2026-01-23 02:20:10.66	166.37	1.90	-50.7	-67.4	3.5	3.02e+01	0	40	104	0	60	90187
2026-01-23 02:20:11.67	166.39	1.97	-50.7	-67.9	3.5	3.02e+01	0	40	104	0	60	95147
2026-01-23 02:20:12.68	166.40	2.04	-50.7	-67.8	3.5	3.02e+01	0	40	104	0	60	94618
2026-01-23 02:20:13.69	166.42	2.11	-50.7	-68.0	3.5	3.02e+01	0	40	104	0	60	96275
2026-01-23 02:20:14.70	166.44	2.17	-50.7	-68.3	3.5	3.02e+01	0	40	104	0	60	100006
2026-01-23 02:20:15.72	166.46	2.24	-50.7	-68.5	3.5	3.02e+01	0	40	104	0	60	101829
2026-01-23 02:20:16.73	166.47	2.31	-50.7	-68.5	3.5	3.02e+01	0	40	104	0	60	101915
2026-01-23 02:20:17.74	166.49	2.38	-50.7	-68.4	3.5	3.02e+01	0	40	104	0	60	100927
2026-01-23 02:20:18.74	166.51	2.44	-50.7	-68.1	3.5	3.02e+01	0	40	104	0	60	97564
2026-01-23 02:20:19.76	166.53	2.51	-50.7	-67.7	3.5	3.02e+01	0	40	104	0	60	92969
2026-01-23 02:20:20.77	166.54	2.58	-50.6	-67.2	3.5	3.02e+01	0	40	104	0	60	87936
2026-01-23 02:20:21.78	166.56	2.65	-50.6	-66.3	3.6	3.02e+01	0	40	104	0	60	79944
2026-01-23 02:20:22.79	166.58	2.72	-50.6	-65.8	3.9	3.02e+01	0	40	104	0	60	75290
2026-01-23 02:20:23.80	166.60	2.79	-50.6	-65.3	3.6	3.02e+01	0	40	104	0	60	71148
2026-01-23 02:20:24.81	166.62	2.86	-50.6	-64.9	4.2	3.02e+01	0	40	104	0	60	67928
2026-01-23 02:20:25.81	166.63	2.92	-50.6	-65.2	4.0	3.02e+01	0	40	104	0	60	69852
2026-01-23 02:20:26.83	166.65	2.99	-50.6	-66.4	3.5	3.02e+01	0	40	104	0	60	80205
2026-01-23 02:20:27.83	166.67	3.06	-50.7	-68.2	3.5	3.02e+01	0	40	104	0	60	98512
2026-01-23 02:20:28.84	166.69	3.13	-50.6	-67.4	3.5	3.02e+01	0	40	104	0	60	90194
2026-01-23 02:20:29.85	166.71	3.20	-50.4	-62.4	6.1	3.02e+01	92	40	104	0	60	50877
2026-01-23 02:20:30.86	166.73	3.27	-49.8	-57.4	10.4	3.02e+01	92	40	0	1048576	60	28501
2026-01-23 02:20:31.87	166.75	3.34	-49.0	-54.5	13.5	3.02e+01	90	40	0	3145728	60	20402
2026-01-23 02:20:32.88	166.76	3.42	-47.8	-51.7	16.4	3.02e+01	92	40	0	4718592	60	14770
2026-01-23 02:20:33.89	166.78	3.49	-47.0	-50.3	17.8	3.02e+01	92	40	0	6815744	60	12585
2026-01-23 02:20:34.91	166.80	3.56	-46.4	-49.3	18.8	3.02e+01	92	40	0	8912896	60	11250
2026-01-23 02:20:35.91	166.82	3.63	-45.1	-47.4	20.6	3.02e+01	92	40	0	10485760	60	9047
2026-01-23 02:20:36.93	166.84	3.70	-44.6	-46.8	21.2	3.02e+01	92	40	0	12582912	60	8429
2026-01-23 02:20:37.93	166.86	3.77	-45.9	-48.6	19.5	3.02e+01	88	40	0	14155776	60	10306
2026-01-23 02:20:38.95	166.88	3.84	-46.4	-49.4	18.7	3.02e+01	92	40	0	16252928	60	11293
2026-01-23 02:20:39.96	166.90	3.92	-50.7	-64.1	3.7	3.02e+01	0	40	104	17825792	60	61797
2026-01-23 02:20:40.97	166.92	3.99	-42.6	-44.6	22.6	3.02e+01	87	40	104	17825792	58	7362
2026-01-23 02:20:41.98	166.94	4.06	-50.6	-63.8	3.8	3.02e+01	0	40	104	18874368	60	59929
2026-01-23 02:20:42.98	166.96	4.13	-47.3	-50.8	17.7	3.02e+01	92	40	0	18874368	60	13306
2026-01-23 02:20:43.99	166.98	4.21	-50.6	-64.4	3.7	3.02e+01	0	40	104	20447232	60	64202
2026-01-23 02:20:45.00	167.00	4.28	-45.6	-48.2	20.0	3.02e+01	91	40	0	20447232	60	9926
2026-01-23 02:20:46.01	167.02	4.35	-44.8	-47.0	21.3	3.02e+01	90	40	0	22020096	60	8590
2026-01-23 02:20:47.02	167.04	4.43	-43.1	-44.9	23.5	3.02e+01	92	40	0	24117248	60	6788
2026-01-23 02:20:48.03	167.06	4.50	-42.9	-44.6	23.6	3.02e+01	90	40	0	26214400	60	6556
2026-01-23 02:20:49.04	167.08	4.57	-42.8	-44.5	24.2	3.02e+01	91	40	0	27787264	60	6498
2026-01-23 02:20:50.05	167.10	4.65	-42.3	-44.0	24.2	3.02e+01	90	40	0	29884416	60	6065
2026-01-23 02:20:51.05	167.12	4.72	-42.5	-44.2	24.0	3.02e+01	92	40	0	31457280	58	6985
2026-01-23 02:20:52.06	167.14	4.80	-41.9	-43.5	24.7	3.02e+01	92	40	0	33554432	58	6461
2026-01-23 02:20:53.07	167.16	4.87	-41.4	-42.9	25.0	3.02e+01	92	40	0	35651584	58	6051
2026-01-23 02:20:54.08	167.18	4.95	-41.6	-43.1	25.3	3.02e+01	92	40	0	37224448	58	6168
2026-01-23 02:20:55.09	167.20	5.02	-41.4	-42.9	25.2	3.02e+01	90	40	0	39321600	58	6031
2026-01-23 02:20:56.10	167.22	5.10	-41.5	-43.0	25.4	3.02e+01	92	40	0	40894464	58	6104
2026-01-23 02:20:57.11	167.24	5.17	-41.1	-42.6	25.4	3.02e+01	92	40	0	42991616	58	5848
2026-01-23 02:20:58.12	167.26	5.25	-40.7	-42.1	25.9	3.02e+01	90	40	0	45088768	56	6146
2026-01-23 02:20:59.13	167.28	5.33	-41.2	-42.6	25.7	3.02e+01	90	40	0	46661632	56	6557
2026-01-23 02:21:00.13	167.30	5.40	-40.8	-42.2	25.8	3.02e+01	92	40	0	48758784	56	6270
2026-01-23 02:21:01.15	167.32	5.48	-40.7	-42.1	25.9	3.02e+01	92	40	0	50855936	56	6200
2026-01-23 02:21:02.16	167.35	5.56	-40.2	-41.6	26.6	3.02e+01	90	40	0	52428800	56	5830
2026-01-23 02:21:03.17	167.37	5.63	-40.4	-41.8	26.6	3.02e+01	92	40	0	54525952	56	5949
2026-01-23 02:21:04.18	167.39	5.71	-40.1	-41.4	26.7	3.02e+01	92	40	0	56098816	56	5725
2026-01-23 02:21:05.19	167.41	5.79	-39.9	-41.3	26.9	3.02e+01	92	40	0	58195968	54	6310
2026-01-23 02:21:06.19	167.43	5.87	-39.9	-41.3	26.7	3.02e+01	92	40	0	60293120	54	6297
2026-01-23 02:21:07.20	167.45	5.95	-39.9	-41.2	26.9	3.02e+01	92	40	0	61865984	54	6252
2026-01-23 02:21:08.21	167.48	6.02	-40.4	-41.8	26.3	3.02e+01	92	41	0	63963136	54	6713
2026-01-23 02:21:09.22	167.50	6.10	-40.0	-41.3	26.7	3.02e+01	92	41	0	65536000	54	6348
2026-01-23 02:21:10.23	167.52	6.18	-40.2	-41.5	26.6	3.02e+01	90	41	0	67633152	54	6491
2026-01-23 02:21:11.24	167.54	6.26	-40.4	-41.8	26.4	3.02e+01	92	40	0	69730304	54	6714
2026-01-23 02:21:12.25	167.57	6.34	-40.0	-41.3	26.9	3.02e+01	92	40	0	71303168	54	6332
2026-01-23 02:21:13.26	167.59	6.42	-40.3	-41.7	26.6	3.02e+01	92	41	0	73400320	54	6581
2026-01-23 02:21:14.27	167.61	6.50	-39.7	-41.1	27.0	3.02e+01	92	41	0	74973184	54	6141
2026-01-23 02:21:15.28	167.63	6.58	-39.6	-40.9	27.3	3.02e+01	91	40	0	77070336	54	6027
2026-01-23 02:21:16.29	167.66	6.66	-39.5	-40.9	27.3	3.02e+01	92	40	0	79167488	54	6000
2026-01-23 02:21:17.30	167.68	6.74	-39.7	-41.1	27.0	3.02e+01	92	40	0	80740352	54	6137
2026-01-23 02:21:18.31	167.70	6.83	-39.8	-41.1	27.1	3.02e+01	91	40	0	82837504	54	6180
2026-01-23 02:21:19.32	167.73	6.91	-40.0	-41.4	26.8	3.02e+01	86	40	0	84410368	54	6351
2026-01-23 02:21:20.33	167.75	6.99	-40.0	-41.3	26.9	3.02e+01	90	40	0	86507520	54	6318
2026-01-23 02:21:21.34	167.77	7.07	-39.5	-40.8	27.4	3.02e+01	91	41	0	88604672	54	5989
2026-01-23 02:21:22.35	167.80	7.15	-39.2	-40.5	27.6	3.02e+01	92	40	0	90177536	54	5745
2026-01-23 02:21:23.36	167.82	7.24	-39.1	-40.4	27.8	3.02e+01	92	41	0	92274688	54	5677
2026-01-23 02:21:24.37	167.85	7.32	-39.0	-40.3	27.8	3.02e+01	90	41	0	94371840	54	5618
2026-01-23 02:21:25.38	167.87	7.40	-39.1	-40.4	27.6	3.02e+01	91	41	0	95944704	52	6386
2026-01-23 02:21:26.39	167.89	7.49	-39.1	-40.4	27.6	3.02e+01	91	41	0	98041856	52	6372
2026-01-23 02:21:27.40	167.92	7.57	-39.3	-40.6	27.7	3.02e+01	90	41	0	99614720	52	6504
2026-01-23 02:21:28.41	167.94	7.66	-39.2	-40.5	27.7	3.02e+01	91	41	0	101711872	52	6487
2026-01-23 02:21:29.42	167.97	7.74	-39.2	-40.5	27.8	3.02e+01	92	41	0	103809024	52	6433
2026-01-23 02:21:30.43	167.99	7.83	-39.0	-40.3	27.9	3.02e+01	89	41	0	105381888	52	6291
2026-01-23 02:21:31.43	168.02	7.91	-39.0	-40.3	28.0	3.02e+01	92	41	0	107479040	52	6279
2026-01-23 02:21:32.44	168.04	8.00	-38.9	-40.2	28.0	3.02e+01	91	41	0	109051904	52	6241
2026-01-23 02:21:33.45	168.07	8.08	-39.1	-40.4	27.8	3.02e+01	92	41	0	111149056	52	6370
2026-01-23 02:21:34.46	168.09	8.17	-39.0	-40.2	28.0	3.02e+01	92	41	0	113246208	52	6266
2026-01-23 02:21:35.47	168.12	8.25	-39.1	-40.4	27.9	3.02e+01	92	41	0	114819072	52	6359
2026-01-23 02:21:36.48	168.14	8.34	-39.1	-40.4	27.8	3.02e+01	92	41	0	116916224	52	6365
2026-01-23 02:21:37.49	168.17	8.43	-38.8	-40.1	28.1	3.02e+01	91	41	0	119013376	52	6182
2026-01-23 02:21:38.50	168.20	8.52	-39.0	-40.3	27.9	3.02e+01	92	41	0	120586240	52	6306
2026-01-23 02:21:39.51	168.22	8.60	-39.5	-40.8	27.4	3.02e+01	92	41	0	122683392	52	6676
2026-01-23 02:21:40.52	168.25	8.69	-39.0	-40.3	28.1	3.02e+01	92	41	0	124256256	52	6287
2026-01-23 02:21:41.53	168.27	8.78	-39.1	-40.4	27.9	3.02e+01	91	41	0	126353408	52	6364
2026-01-23 02:21:42.54	168.30	8.87	-39.1	-40.4	27.9	3.02e+01	92	41	0	128450560	52	6362
2026-01-23 02:21:43.55	168.33	8.96	-38.8	-40.1	28.2	3.02e+01	90	41	0	130023424	52	6144
2026-01-23 02:21:44.56	168.35	9.05	-38.9	-40.2	28.0	3.02e+01	92	41	0	132120576	52	6236
2026-01-23 02:21:45.57	168.38	9.14	-39.0	-40.3	27.9	3.02e+01	90	41	0	133693440	52	6342
2026-01-23 02:21:46.58	168.41	9.23	-39.1	-40.4	27.9	3.02e+01	91	41	0	135790592	52	6361
2026-01-23 02:21:47.59	168.44	9.32	-38.9	-40.2	28.1	3.02e+01	92	41	0	137887744	52	6235
2026-01-23 02:21:48.60	168.46	9.41	-38.9	-40.2	28.1	3.02e+01	92	41	0	139460608	52	6240
2026-01-23 02:21:49.61	168.49	9.50	-39.1	-40.4	28.0	3.02e+01	92	41	0	141557760	52	6369
2026-01-23 02:21:50.62	168.52	9.60	-38.8	-40.1	28.2	3.02e+01	90	41	0	143130624	52	6185
2026-01-23 02:21:51.63	168.55	9.69	-38.8	-40.0	28.2	3.02e+01	92	41	0	145227776	52	6123
2026-01-23 02:21:52.64	168.57	9.78	-38.7	-40.0	28.3	3.02e+01	92	41	0	147324928	52	6087
2026-01-23 02:21:53.65	168.60	9.87	-38.8	-40.0	28.3	3.02e+01	92	41	0	148897792	52	6111
2026-01-23 02:21:54.66	168.63	9.97	-38.7	-40.0	28.3	3.02e+01	92	41	0	150994944	52	6073
2026-01-23 02:21:55.67	168.66	10.06	-38.6	-39.9	28.4	3.02e+01	92	41	0	152567808	52	6020
2026-01-23 02:21:56.68	168.69	10.15	-38.6	-39.8	28.5	3.02e+01	92	41	0	154664960	52	5978
2026-01-23 02:21:57.69	168.72	10.25	-38.6	-39.9	28.5	3.02e+01	92	41	0	156762112	52	6056
2026-01-23 02:21:58.70	168.75	10.34	-38.6	-39.9	28.3	3.02e+01	92	41	0	158334976	52	6013
2026-01-23 02:21:59.71	168.78	10.44	-38.5	-39.7	28.5	3.02e+01	92	41	0	160432128	52	5897
2026-01-23 02:22:00.72	168.81	10.54	-38.6	-39.8	28.5	3.02e+01	91	41	0	162529280	52	5993
2026-01-23 02:22:01.73	168.84	10.63	-38.5	-39.8	28.5	3.02e+01	92	41	0	164102144	52	5942
2026-01-23 02:22:02.74	168.87	10.73	-38.5	-39.7	28.6	3.02e+01	92	41	0	166199296	52	5913
2026-01-23 02:22:03.75	168.90	10.83	-38.3	-39.6	28.6	3.02e+01	92	41	0	167772160	52	5816
2026-01-23 02:22:04.76	168.93	10.92	-38.3	-39.6	28.6	3.02e+01	92	41	0	169869312	52	5792
2026-01-23 02:22:05.77	168.96	11.02	-38.3	-39.5	28.7	3.02e+01	90	41	0	171966464	52	5783
2026-01-23 02:22:06.78	168.99	11.12	-38.3	-39.5	28.7	3.02e+01	92	41	0	173539328	52	5778
2026-01-23 02:22:07.79	169.02	11.22	-38.4	-39.6	28.6	3.02e+01	90	41	0	175636480	52	5848
2026-01-23 02:22:08.80	169.05	11.32	-38.3	-39.5	28.8	3.02e+01	92	41	0	177209344	52	5789
2026-01-23 02:22:09.81	169.08	11.42	-38.1	-39.4	28.9	3.02e+01	92	41	0	179306496	52	5671
2026-01-23 02:22:10.82	169.11	11.52	-38.3	-39.5	28.8	3.02e+01	90	41	0	181403648	52	5776
2026-01-23 02:22:11.83	169.14	11.62	-38.1	-39.3	28.9	3.02e+01	92	41	0	182976512	52	5647
2026-01-23 02:22:12.84	169.18	11.72	-38.1	-39.4	28.9	3.02e+01	90	41	0	185073664	52	5663
2026-01-23 02:22:13.85	169.21	11.82	-38.1	-39.3	28.9	3.02e+01	89	41	0	187170816	52	5629
2026-01-23 02:22:14.85	169.24	11.92	-38.3	-39.5	28.8	3.02e+01	88	41	0	188743680	52	5761
2026-01-23 02:22:15.87	169.27	12.02	-38.2	-39.5	28.7	3.02e+01	91	41	0	190840832	52	5729
2026-01-23 02:22:16.88	169.30	12.13	-38.3	-39.5	28.8	3.02e+01	91	41	0	192413696	52	5759
2026-01-23 02:22:17.88	169.34	12.23	-38.3	-39.6	28.7	3.02e+01	91	41	0	194510848	52	5809
2026-01-23 02:22:18.89	169.37	12.33	-38.2	-39.4	28.9	3.02e+01	91	41	0	196083712	52	5682
2026-01-23 02:22:19.90	169.40	12.44	-38.4	-39.6	28.7	3.02e+01	89	41	0	198180864	52	5853
2026-01-23 02:22:20.91	169.44	12.54	-38.4	-39.7	28.6	3.02e+01	89	41	0	200278016	52	5871
2026-01-23 02:22:21.92	169.47	12.65	-38.2	-39.4	28.8	3.02e+01	91	41	0	201850880	52	5706
2026-01-23 02:22:22.93	169.51	12.75	-38.2	-39.4	28.9	3.02e+01	90	41	0	203948032	52	5692
2026-01-23 02:22:23.94	169.54	12.86	-38.3	-39.5	28.8	3.02e+01	92	41	0	205520896	52	5748
2026-01-23 02:22:24.95	169.57	12.97	-38.2	-39.4	28.9	3.02e+01	92	41	0	207618048	52	5691
2026-01-23 02:22:25.96	169.61	13.07	-38.2	-39.4	28.8	3.02e+01	92	41	0	209715200	52	5718
2026-01-23 02:22:26.97	169.64	13.18	-38.1	-39.3	29.0	3.02e+01	92	41	0	211288064	52	5623
2026-01-23 02:22:27.98	169.68	13.29	-38.0	-39.3	29.0	3.02e+01	92	41	0	213385216	52	5610
2026-01-23 02:22:28.99	169.72	13.40	-38.1	-39.3	28.9	3.02e+01	90	41	0	215482368	52	5649
2026-01-23 02:22:30.00	169.75	13.51	-38.1	-39.3	29.0	3.02e+01	90	41	0	217055232	52	5611
2026-01-23 02:22:31.00	169.79	13.62	-38.0	-39.3	29.0	3.02e+01	90	41	0	219152384	52	5599
2026-01-23 02:22:32.01	169.82	13.73	-38.0	-39.2	29.0	3.02e+01	90	41	0	220725248	52	5542
2026-01-23 02:22:33.02	169.86	13.84	-38.0	-39.2	29.0	3.02e+01	92	41	0	222822400	52	5566
2026-01-23 02:22:34.03	169.90	13.95	-38.0	-39.2	29.1	3.02e+01	88	41	0	224919552	50	6261
2026-01-23 02:22:35.04	169.93	14.06	-37.9	-39.1	29.1	3.02e+01	92	41	0	226492416	50	6196
2026-01-23 02:22:36.05	169.97	14.18	-38.0	-39.2	29.1	3.02e+01	89	41	0	228589568	50	6268
2026-01-23 02:22:37.06	170.01	14.29	-38.1	-39.3	29.0	3.02e+01	92	41	0	230686720	50	6303
2026-01-23 02:22:38.07	170.05	14.40	-38.2	-39.4	28.9	3.02e+01	92	41	0	232259584	50	6408
2026-01-23 02:22:39.08	170.08	14.52	-37.9	-39.2	29.1	3.02e+01	92	41	0	234356736	50	6207
2026-01-23 02:22:40.09	170.12	14.63	-38.1	-39.3	29.0	3.02e+01	92	41	0	235929600	50	6320
2026-01-23 02:22:41.10	170.16	14.75	-38.2	-39.4	29.0	3.02e+01	90	41	0	238026752	50	6360
2026-01-23 02:22:42.11	170.20	14.87	-38.2	-39.4	29.0	3.02e+01	87	41	0	240123904	50	6411
2026-01-23 02:22:43.12	170.24	14.98	-38.0	-39.2	29.1	3.02e+01	92	41	0	241696768	50	6247
2026-01-23 02:22:44.13	170.28	15.10	-38.0	-39.3	29.0	3.02e+01	92	41	0	243793920	50	6293
2026-01-23 02:22:45.14	170.32	15.22	-38.5	-48.6	3.6	3.02e+01	0	41	104	243793920	50	18512
2026-01-23 02:22:46.15	170.36	15.34	-38.4	-48.6	3.4	3.02e+01	0	41	104	243793920	50	18411
2026-01-23 02:22:47.15	170.40	15.45	-38.3	-48.5	3.6	3.02e+01	0	41	104	243793920	50	18224
2026-01-23 02:22:48.16	170.44	15.57	-39.7	-49.8	3.6	3.02e+01	0	41	104	243793920	54	16799
2026-01-23 02:22:49.17	170.48	15.70	-40.3	-50.5	3.6	3.02e+01	0	41	104	243793920	54	18141
2026-01-23 02:22:50.18	170.52	15.82	-51.6	-69.3	3.5	3.02e+01	0	41	104	243793920	60	111705
2026-01-23 02:22:51.20	170.57	15.94	-48.9	-61.6	3.6	3.02e+01	0	41	104	243793920	60	46083
2026-01-23 02:22:52.20	170.61	16.06	-44.9	-55.7	3.4	3.02e+01	0	41	104	243793920	60	23503
2026-01-23 02:22:53.21	170.65	16.18	-38.1	-48.2	3.6	3.02e+01	0	41	104	243793920	52	15622
2026-01-23 02:22:54.22	170.69	16.31	-38.1	-48.2	4.1	3.02e+01	0	41	104	243793920	52	15715
2026-01-23 02:22:55.23	170.74	16.43	-38.2	-48.3	4.1	3.02e+01	0	41	104	243793920	52	15900
2026-01-23 02:22:56.24	170.78	16.56	-38.1	-48.2	4.1	3.02e+01	0	41	104	243793920	52	15612
2026-01-23 02:22:57.25	170.83	16.69	-40.1	-50.3	3.4	3.02e+01	0	41	104	243793920	54	17731
2026-01-23 02:22:58.26	170.87	16.81	-39.2	-49.3	4.2	3.02e+01	0	41	104	243793920	56	14079
2026-01-23 02:22:59.27	170.91	16.94	-51.6	-69.0	3.5	3.02e+01	0	41	104	243793920	60	108329
2026-01-23 02:23:00.28	170.96	17.07	-49.3	-62.3	3.5	3.02e+01	0	41	104	243793920	60	50243
2026-01-23 02:23:01.29	171.01	17.20	-44.4	-55.2	3.5	3.02e+01	0	41	104	243793920	60	22094
2026-01-23 02:23:02.30	171.05	17.33	-40.0	-50.2	3.5	3.02e+01	0	41	104	243793920	54	17640
2026-01-23 02:23:03.31	171.10	17.46	-39.2	-49.4	3.5	3.02e+01	0	41	104	243793920	54	16011
2026-01-23 02:23:04.32	171.14	17.59	-38.8	-49.0	3.5	3.02e+01	0	41	104	243793920	52	17126
2026-01-23 02:23:05.33	171.19	17.72	-38.4	-48.5	3.5	3.02e+01	0	41	104	243793920	52	16289
2026-01-23 02:23:06.34	171.24	17.85	-38.6	-48.8	3.5	3.02e+01	0	41	104	243793920	54	14953
2026-01-23 02:23:07.35	171.29	17.99	-39.4	-49.7	3.3	3.02e+01	0	41	104	243793920	56	14821
2026-01-23 02:23:08.36	171.33	18.12	-47.4	-59.2	3.5	3.02e+01	0	41	104	243793920	60	35025
2026-01-23 02:23:09.37	171.38	18.26	-38.4	-48.6	3.5	3.02e+01	0	41	104	243793920	52	16375
2026-01-23 02:23:10.38	171.43	18.39	-50.3	-64.6	3.5	3.02e+01	0	41	104	243793920	60	65358
2026-01-23 02:23:11.39	171.48	18.53	-39.1	-49.4	3.5	3.02e+01	0	41	104	243793920	54	15956
2026-01-23 02:23:12.40	171.53	18.67	-38.9	-49.1	3.5	3.02e+01	0	41	104	243793920	54	15524
2026-01-23 02:23:13.41	171.58	18.80	-39.2	-49.4	3.5	3.02e+01	0	41	104	243793920	52	18057
2026-01-23 02:23:14.42	171.63	18.94	-40.1	-50.4	3.5	3.02e+01	0	41	104	243793920	52	20302
2026-01-23 02:23:15.43	171.68	19.08	-43.2	-53.7	3.5	3.02e+01	0	41	104	243793920	60	18690
2026-01-23 02:23:16.44	171.74	19.22	-38.9	-49.1	3.5	3.02e+01	0	41	104	243793920	52	17473
2026-01-23 02:23:17.45	171.79	19.37	-51.0	-66.6	3.5	3.02e+01	0	41	104	243793920	60	82260
2026-01-23 02:23:18.46	171.84	19.51	-42.8	-53.3	3.6	3.02e+01	0	41	104	243793920	60	17723
2026-01-23 02:23:19.47	171.89	19.65	-42.6	-53.0	3.5	3.02e+01	0	41	104	243793920	60	17249
2026-01-23 02:23:20.48	171.95	19.80	-39.2	-49.4	3.5	3.02e+01	0	41	104	243793920	54	16010
2026-01-23 02:23:21.49	172.00	19.94	-38.8	-49.0	3.5	3.02e+01	0	41	104	243793920	52	17223
2026-01-23 02:23:22.50	172.06	20.09	-38.8	-49.1	3.6	3.02e+01	0	41	104	243793920	52	17297
2026-01-23 02:23:23.51	172.11	20.24	-38.6	-48.8	3.5	3.02e+01	0	41	104	243793920	52	16832
2026-01-23 02:23:24.52	172.17	20.38	-38.4	-48.7	3.5	3.02e+01	0	41	104	243793920	52	16568
2026-01-23 02:23:25.53	172.22	20.53	-39.3	-49.5	3.5	3.02e+01	0	41	104	243793920	54	16276
2026-01-23 02:23:26.54	172.28	20.68	-48.9	-61.6	3.5	3.02e+01	0	41	104	243793920	60	46055
2026-01-23 02:23:27.55	172.34	20.83	-45.2	-56.2	3.5	3.02e+01	0	41	104	243793920	58	27775
2026-01-23 02:23:28.55	172.40	20.98	-47.9	-59.8	3.5	3.02e+01	0	41	104	243793920	60	37567
2026-01-23 02:23:29.56	172.46	21.14	-43.3	-53.9	3.5	3.02e+01	0	41	104	243793920	60	19000
2026-01-23 02:23:30.57	172.51	21.29	-42.8	-53.3	3.5	3.02e+01	0	41	104	243793920	60	17789
2026-01-23 02:23:31.58	172.57	21.45	-40.5	-50.8	3.5	3.02e+01	0	41	104	243793920	56	16766
2026-01-23 02:23:32.59	172.63	21.60	-41.4	-51.8	3.5	3.02e+01	0	41	104	243793920	54	21067
2026-01-23 02:23:33.60	172.70	21.76	-42.6	-53.0	3.5	3.02e+01	0	41	104	243793920	60	17204
2026-01-23 02:23:34.61	172.76	21.92	-42.9	-53.5	3.5	3.02e+01	0	41	104	243793920	54	25621
2026-01-23 02:23:35.62	172.82	22.08	-51.5	-68.6	3.5	3.02e+01	0	41	104	243793920	60	103934
2026-01-23 02:23:36.63	172.88	22.24	-38.9	-49.2	3.5	3.02e+01	0	41	104	243793920	54	15694
2026-01-23 02:23:37.64	172.94	22.40	-40.4	-50.8	3.6	3.02e+01	0	41	104	243793920	56	16831
2026-01-23 02:23:38.65	173.01	22.56	-39.5	-49.7	3.5	3.02e+01	0	41	104	243793920	54	16645
2026-01-23 02:23:39.66	173.07	22.72	-39.0	-49.2	3.5	3.02e+01	0	41	104	243793920	52	17558
2026-01-23 02:23:40.67	173.14	22.89	-38.7	-48.9	3.5	3.02e+01	0	41	104	243793920	52	17007
2026-01-23 02:23:41.68	173.20	23.05	-41.4	-51.8	3.5	3.02e+01	0	41	104	243793920	54	21078
2026-01-23 02:23:42.69	173.27	23.22	-41.5	-51.9	3.5	3.02e+01	0	41	104	243793920	58	17006
2026-01-23 02:23:43.69	173.34	23.39	-50.5	-65.0	3.4	3.02e+01	0	41	104	243793920	60	68595
2026-01-23 02:23:44.70	173.41	23.55	-43.2	-53.8	3.5	3.02e+01	0	41	104	243793920	60	18771
2026-01-23 02:23:45.71	173.48	23.72	-47.3	-58.9	3.5	3.02e+01	0	41	104	243793920	60	33953
2026-01-23 02:23:46.72	173.55	23.90	-41.2	-51.5	3.5	3.02e+01	0	41	104	243793920	60	14499
2026-01-23 02:23:47.73	173.62	24.07	-39.5	-49.7	3.5	3.02e+01	0	41	104	243793920	54	16587
2026-01-23 02:23:48.74	173.69	24.24	-38.9	-49.1	3.5	3.02e+01	0	41	104	243793920	52	17392
2026-01-23 02:23:49.75	173.76	24.42	-39.0	-49.3	3.5	3.02e+01	0	41	104	243793920	52	17734
2026-01-23 02:23:50.76	173.83	24.59	-43.7	-54.3	3.5	3.02e+01	0	41	104	243793920	60	19871
2026-01-23 02:23:51.77	173.91	24.77	-44.9	-55.7	3.5	3.02e+01	0	41	104	243793920	60	23550
2026-01-23 02:23:52.78	173.98	24.95	-48.5	-60.8	3.4	3.02e+01	0	41	104	243793920	60	42398
2026-01-23 02:23:53.79	174.05	25.13	-51.5	-67.8	3.5	3.02e+01	0	41	104	243793920	60	94112
2026-01-23 02:23:54.80	174.13	25.31	-41.4	-51.8	3.5	3.02e+01	0	41	104	243793920	56	18928
2026-01-23 02:23:55.80	174.21	25.49	-42.3	-52.7	3.6	3.02e+01	0	41	104	243793920	60	16563
2026-01-23 02:23:56.82	174.29	25.68	-42.0	-52.4	3.5	3.02e+01	0	41	104	243793920	60	15986
2026-01-23 02:23:57.82	174.36	25.86	-42.4	-52.8	3.5	3.02e+01	0	41	104	243793920	58	18821
2026-01-23 02:23:58.83	174.44	26.05	-41.9	-52.4	3.5	3.02e+01	0	41	104	243793920	58	17975
2026-01-23 02:23:59.84	174.52	26.23	-41.7	-52.1	3.5	3.02e+01	0	41	104	243793920	56	19549
2026-01-23 02:24:00.85	174.61	26.42	-42.8	-53.3	3.7	3.02e+01	0	41	104	243793920	56	22428
2026-01-23 02:24:01.86	174.69	26.61	-51.7	-69.1	3.5	3.02e+01	0	41	104	243793920	60	110216
2026-01-23 02:24:02.87	174.77	26.81	-44.6	-55.3	3.5	3.02e+01	0	41	104	243793920	60	22339
2026-01-23 02:24:03.88	174.86	27.00	-50.8	-65.7	3.5	3.02e+01	0	41	104	243793920	60	74555
2026-01-23 02:24:04.89	174.94	27.19	-40.0	-50.3	3.6	3.02e+01	0	41	104	243793920	56	15847
2026-01-23 02:24:05.90	175.03	27.39	-39.0	-49.2	3.5	3.02e+01	0	41	104	243793920	54	15690
2026-01-23 02:24:06.91	175.12	27.59	-38.5	-48.7	3.5	3.02e+01	0	41	104	243793920	52	16528
2026-01-23 02:24:07.92	175.20	27.79	-38.5	-48.8	3.6	3.02e+01	0	41	104	243793920	52	16727
2026-01-23 02:24:08.93	175.29	27.99	-44.2	-54.9	3.5	3.02e+01	0	41	104	243793920	60	21299
2026-01-23 02:24:09.94	175.38	28.19	-42.6	-53.0	3.5	3.02e+01	0	41	104	243793920	56	21736
2026-01-23 02:24:10.95	175.48	28.39	-51.7	-68.8	3.5	3.02e+01	0	41	104	243793920	60	105994
2026-01-23 02:24:11.96	175.57	28.60	-45.0	-55.7	3.5	3.02e+01	0	41	104	243793920	60	23363
2026-01-23 02:24:12.97	175.66	28.81	-50.7	-65.8	3.5	3.02e+01	0	41	104	243793920	60	74698
2026-01-23 02:24:13.98	175.76	29.02	-39.4	-49.6	3.5	3.02e+01	0	41	104	243793920	54	16437
2026-01-23 02:24:14.99	175.86	29.23	-38.8	-49.0	3.5	3.02e+01	0	41	104	243793920	52	17207
2026-01-23 02:24:16.00	175.96	29.44	-38.2	-48.4	3.5	3.02e+01	0	41	104	243793920	52	16079
2026-01-23 02:24:17.01	176.05	29.65	-38.0	-48.1	3.5	3.02e+01	0	41	104	243793920	52	15527
2026-01-23 02:24:18.02	176.16	29.87	-45.9	-56.8	3.5	3.02e+01	0	41	104	243793920	60	26565
2026-01-23 02:24:19.03	176.26	30.08	-41.8	-52.3	3.5	3.02e+01	0	41	104	243793920	54	22328
2026-01-23 02:24:20.04	176.36	30.30	-51.1	-68.5	3.5	3.02e+01	0	41	104	243793920	60	102731
2026-01-23 02:24:21.04	176.46	30.52	-48.2	-60.4	3.5	3.02e+01	0	41	104	243793920	60	40239
2026-01-23 02:24:22.06	176.57	30.74	-49.8	-69.2	3.6	3.02e+01	0	41	104	243793920	60	110587
2026-01-23 02:24:23.06	176.68	30.96	-45.2	-56.1	3.5	3.02e+01	0	41	104	243793920	60	24561
2026-01-23 02:24:24.07	176.79	31.19	-45.6	-56.6	3.5	3.02e+01	0	41	104	243793920	60	25928
2026-01-23 02:24:25.08	176.90	31.42	-44.4	-55.2	3.5	3.02e+01	0	41	104	243793920	60	22150
2026-01-23 02:24:26.09	177.01	31.64	-43.9	-54.6	3.5	3.02e+01	0	41	104	243793920	60	20663
2026-01-23 02:24:27.10	177.13	31.87	-50.3	-64.1	3.5	3.02e+01	0	41	104	243793920	60	61885
2026-01-23 02:24:28.11	177.24	32.11	-51.8	-68.8	3.5	3.02e+01	0	41	104	243793920	60	106087
2026-01-23 02:24:29.12	177.36	32.34	-43.3	-53.9	3.5	3.02e+01	0	41	104	243793920	60	19075
2026-01-23 02:24:30.13	177.48	32.58	-49.5	-62.4	3.5	3.02e+01	0	41	104	243793920	60	50560
2026-01-23 02:24:31.14	177.60	32.81	-50.1	-63.5	3.5	3.02e+01	0	41	104	243793920	60	57908
2026-01-23 02:24:32.15	177.72	33.05	-41.3	-51.6	3.5	3.02e+01	0	41	104	243793920	58	16485
2026-01-23 02:24:33.16	177.84	33.30	-40.3	-50.6	3.5	3.02e+01	0	41	104	243793920	56	16337
2026-01-23 02:24:34.17	177.97	33.54	-39.3	-49.5	3.5	3.02e+01	0	41	104	243793920	54	16306
2026-01-23 02:24:35.17	178.10	33.78	-39.1	-49.3	3.5	3.02e+01	0	41	104	243793920	54	15809
2026-01-23 02:24:36.18	178.23	34.03	-40.6	-50.9	3.5	3.02e+01	0	41	104	243793920	54	19143
2026-01-23 02:24:37.19	178.36	34.28	-41.8	-52.3	3.5	3.02e+01	0	41	104	243793920	60	15830
2026-01-23 02:24:38.20	178.49	34.53	-51.8	-69.3	3.5	3.02e+01	0	41	104	243793920	60	112814
2026-01-23 02:24:39.21	178.63	34.78	-44.9	-55.6	3.5	3.02e+01	0	41	104	243793920	60	23177
2026-01-23 02:24:40.22	178.77	35.04	-49.3	-61.9	3.5	3.02e+01	0	41	104	243793920	60	47851
2026-01-23 02:24:41.23	178.91	35.30	-40.5	-50.8	3.6	3.02e+01	0	41	104	243793920	56	16829
2026-01-23 02:24:42.24	179.05	35.56	-40.7	-51.0	3.5	3.02e+01	0	41	104	243793920	56	17118
2026-01-23 02:24:43.25	179.19	35.82	-40.0	-50.3	3.5	3.02e+01	0	41	104	243793920	56	15773
2026-01-23 02:24:44.26	179.34	36.08	-39.9	-50.2	3.5	3.02e+01	0	41	104	243793920	54	17597
2026-01-23 02:24:45.27	179.49	36.35	-45.2	-56.1	3.6	3.02e+01	0	41	104	243793920	60	24578
2026-01-23 02:24:46.28	179.64	36.61	-41.5	-51.8	3.5	3.02e+01	0	41	104	243793920	60	15007
2026-01-23 02:24:47.28	179.80	36.88	-51.9	-69.6	3.5	3.02e+01	0	42	104	243793920	60	116257
2026-01-23 02:24:48.29	179.95	37.15	-47.7	-59.4	3.6	3.02e+01	0	41	104	243793920	60	35727
2026-01-23 02:24:49.30	180.11	37.43	-51.8	-68.8	3.5	3.02e+01	0	42	104	243793920	60	106288
2026-01-23 02:24:50.31	180.28	37.70	-46.9	-58.5	3.6	3.02e+01	0	42	104	243793920	60	32251
2026-01-23 02:24:51.32	180.44	37.98	-44.3	-54.9	3.6	3.02e+01	0	41	104	243793920	60	21493
2026-01-23 02:24:52.33	180.61	38.26	-42.3	-52.6	3.6	3.02e+01	0	41	104	243793920	60	16427
2026-01-23 02:24:53.34	180.78	38.55	-41.0	-51.4	3.5	3.02e+01	0	41	104	243793920	58	16097
2026-01-23 02:24:54.35	180.95	38.83	-42.0	-52.5	3.5	3.02e+01	0	41	104	243793920	58	18277
2026-01-23 02:24:55.36	181.13	39.12	-43.9	-54.5	3.5	3.02e+01	0	41	104	243793920	60	20527
2026-01-23 02:24:56.37	181.31	39.41	-49.6	-62.5	3.5	3.02e+01	0	41	104	243793920	60	51041
2026-01-23 02:24:57.38	181.49	39.70	-46.4	-57.6	3.5	3.02e+01	0	41	104	243793920	60	29196
2026-01-23 02:24:58.39	181.68	40.00	-44.0	-54.7	3.6	3.02e+01	0	41	104	243793920	60	20984
2026-01-23 02:24:59.40	181.87	40.29	-41.1	-51.5	3.5	3.02e+01	0	41	104	243793920	58	16167
2026-01-23 02:25:00.41	182.06	40.59	-40.8	-51.1	3.6	3.02e+01	0	42	104	243793920	56	17294
2026-01-23 02:25:01.42	182.26	40.89	-39.8	-50.0	3.6	3.02e+01	0	41	104	243793920	54	17279
2026-01-23 02:25:02.43	182.46	41.20	-39.7	-50.0	3.6	3.02e+01	0	41	104	243793920	54	17101
2026-01-23 02:25:03.44	182.67	41.50	-40.3	-50.6	3.6	3.02e+01	0	42	104	243793920	58	14561
2026-01-23 02:25:04.45	182.88	41.81	-39.0	-49.2	3.5	3.02e+01	0	42	104	243793920	54	15619
2026-01-23 02:25:05.46	183.09	42.12	-50.6	-65.0	3.5	3.02e+01	0	42	104	243793920	60	68114
2026-01-23 02:25:06.47	183.31	42.43	-40.5	-50.8	3.6	3.02e+01	0	42	104	243793920	60	13333
2026-01-23 02:25:07.48	183.53	42.75	-45.8	-56.9	3.6	3.02e+01	0	41	104	243793920	60	26914
2026-01-23 02:25:08.49	183.75	43.07	-40.5	-50.8	3.5	3.02e+01	0	41	104	243793920	56	16836
2026-01-23 02:25:09.50	183.98	43.39	-39.7	-49.9	3.5	3.02e+01	0	41	104	243793920	54	16909
2026-01-23 02:25:10.51	184.22	43.71	-38.9	-49.2	3.5	3.02e+01	0	42	104	243793920	54	15623
2026-01-23 02:25:11.52	184.46	44.03	-39.8	-50.0	3.5	3.02e+01	0	42	104	243793920	52	19230
2026-01-23 02:25:12.53	184.70	44.36	-39.0	-49.2	3.6	3.02e+01	0	41	104	243793920	54	15643
2026-01-23 02:25:13.54	184.95	44.69	-38.5	-48.7	3.5	3.02e+01	0	41	104	243793920	50	18560
2026-01-23 02:25:14.55	185.20	45.02	-49.9	-63.1	3.5	3.02e+01	0	42	104	243793920	60	55056
2026-01-23 02:25:15.56	185.46	45.35	-39.9	-50.1	3.5	3.02e+01	0	42	104	243793920	54	17369
2026-01-23 02:25:16.57	185.73	45.69	-45.8	-56.8	3.5	3.02e+01	0	42	104	243793920	60	26649
2026-01-23 02:25:17.58	186.00	46.03	-42.5	-52.9	3.5	3.02e+01	0	41	104	243793920	60	17032
2026-01-23 02:25:18.59	186.28	46.37	-42.3	-52.8	3.5	3.02e+01	0	41	104	243793920	60	16731
2026-01-23 02:25:19.60	186.56	46.71	-42.8	-53.2	3.5	3.02e+01	0	42	104	243793920	60	17495
2026-01-23 02:25:20.61	186.85	47.05	-43.9	-54.5	3.5	3.02e+01	0	42	104	243793920	60	20545
2026-01-23 02:25:21.62	187.14	47.40	-46.9	-58.3	3.5	3.02e+01	0	41	104	243793920	60	31802
2026-01-23 02:25:22.63	187.45	47.75	-42.1	-52.4	3.5	3.02e+01	0	42	104	243793920	56	20227
2026-01-23 02:25:23.64	187.76	48.10	-52.0	-69.8	3.5	3.02e+01	0	41	104	243793920	60	118875
2026-01-23 02:25:24.65	188.07	48.46	-40.0	-50.3	3.5	3.02e+01	0	41	104	243793920	54	17776
2026-01-23 02:25:25.66	188.40	48.81	-41.9	-52.3	3.5	3.02e+01	0	42	104	243793920	60	15810
2026-01-23 02:25:26.67	188.73	49.17	-40.9	-51.2	3.5	3.02e+01	0	41	104	243793920	56	17516
2026-01-23 02:25:27.68	189.07	49.53	-40.5	-50.7	3.6	3.02e+01	0	42	104	243793920	56	16627
2026-01-23 02:25:28.69	189.41	49.89	-39.1	-49.3	3.6	3.02e+01	0	41	104	243793920	54	15786
2026-01-23 02:25:29.70	189.77	50.25	-39.4	-49.7	3.5	3.02e+01	0	41	104	243793920	50	20968
2026-01-23 02:25:30.71	190.13	50.62	-38.9	-48.9	3.5	3.02e+01	0	42	104	243793920	50	19177
2026-01-23 02:25:31.72	190.51	50.99	-51.6	-68.1	3.5	3.02e+01	0	42	104	243793920	60	98339
2026-01-23 02:25:32.72	190.89	51.35	-51.1	-66.0	3.5	3.02e+01	0	41	104	243793920	60	76717
2026-01-23 02:25:33.73	191.28	51.72	-43.2	-53.6	3.6	3.02e+01	0	42	104	243793920	54	25998
2026-01-23 02:25:34.74	191.68	52.09	-41.1	-51.5	3.5	3.02e+01	0	42	104	243793920	56	18140
2026-01-23 02:25:35.75	192.09	52.47	-39.6	-49.8	3.5	3.02e+01	0	42	104	243793920	54	16822
2026-01-23 02:25:36.76	192.51	52.84	-38.8	-49.0	3.5	3.02e+01	0	41	104	243793920	52	17216
2026-01-23 02:25:37.77	192.95	53.22	-37.9	-48.0	3.5	3.02e+01	0	42	104	243793920	52	15363
2026-01-23 02:25:38.78	193.39	53.60	-41.2	-51.5	3.5	3.02e+01	0	41	104	243793920	54	20504
2026-01-23 02:25:39.78	193.84	53.97	-39.7	-49.9	3.5	3.02e+01	0	42	104	243793920	52	19120
2026-01-23 02:25:40.79	194.31	54.35	-51.9	-69.5	3.5	3.02e+01	0	42	104	243793920	60	114279
2026-01-23 02:25:41.80	194.79	54.73	-51.4	-67.2	3.5	3.02e+01	0	42	104	243793920	60	87765
2026-01-23 02:25:42.81	195.29	55.12	-44.7	-55.4	3.5	3.02e+01	0	42	104	243793920	58	25324
2026-01-23 02:25:43.82	195.80	55.50	-43.5	-54.2	3.5	3.02e+01	0	42	104	243793920	60	19646
2026-01-23 02:25:44.83	196.32	55.88	-41.7	-52.3	3.5	3.02e+01	0	42	104	243793920	58	17693
2026-01-23 02:25:45.84	196.85	56.27	-40.6	-50.8	3.5	3.02e+01	0	42	104	243793920	56	16723
2026-01-23 02:25:46.85	197.40	56.65	-40.7	-51.1	3.5	3.02e+01	0	42	104	243793920	56	17409
2026-01-23 02:25:47.86	197.97	57.03	-47.7	-59.3	3.5	3.02e+01	0	41	104	243793920	60	35539
2026-01-23 02:25:48.87	198.55	57.42	-49.8	-62.9	3.5	3.02e+01	0	42	104	243793920	60	53980
2026-01-23 02:25:49.88	199.15	57.80	-51.6	-68.1	3.5	3.02e+01	0	42	104	243793920	60	97687
2026-01-23 02:25:50.89	199.77	58.19	-51.8	-68.7	3.5	3.02e+01	0	42	104	243793920	60	104190
2026-01-23 02:25:51.90	200.40	58.57	-45.4	-56.3	3.5	3.02e+01	0	42	104	243793920	60	25212
2026-01-23 02:25:52.91	201.06	58.95	-44.4	-54.9	3.5	3.02e+01	0	42	104	243793920	60	21463
2026-01-23 02:25:53.91	201.72	59.33	-45.1	-56.0	3.5	3.02e+01	0	42	104	243793920	60	24354
2026-01-23 02:25:54.93	202.42	59.71	-43.2	-53.6	3.5	3.02e+01	0	42	104	243793920	60	18361
2026-01-23 02:25:55.94	203.13	60.09	-42.3	-52.8	3.6	3.02e+01	0	41	104	243793920	60	16709
2026-01-23 02:25:56.95	203.87	60.47	-44.3	-54.9	3.5	3.02e+01	0	42	104	243793920	60	21482
2026-01-23 02:25:57.95	204.62	60.84	-44.8	-55.7	3.5	3.02e+01	0	42	104	243793920	60	23439
2026-01-23 02:25:58.96	205.40	61.22	-51.9	-69.1	3.5	3.02e+01	0	42	104	243793920	60	109789
2026-01-23 02:25:59.97	206.20	61.59	-51.8	-68.5	3.5	3.02e+01	0	42	104	243793920	60	102984
2026-01-23 02:26:00.98	207.02	61.95	-49.5	-62.4	3.5	3.02e+01	0	42	104	243793920	60	50581
2026-01-23 02:26:01.99	207.88	62.32	-43.2	-53.7	3.5	3.02e+01	0	42	104	243793920	60	18538
2026-01-23 02:26:03.00	208.75	62.68	-42.5	-52.9	3.5	3.02e+01	0	42	104	243793920	60	16912
2026-01-23 02:26:04.00	209.65	63.03	-42.1	-52.5	3.5	3.02e+01	0	42	104	243793920	60	16256
2026-01-23 02:26:05.01	210.58	63.39	-42.2	-52.5	3.5	3.02e+01	0	42	104	243793920	60	16257
2026-01-23 02:26:06.02	211.54	63.74	-48.3	-60.0	3.5	3.02e+01	0	42	104	243793920	60	38610
2026-01-23 02:26:07.03	212.52	64.08	-45.7	-56.8	3.5	3.02e+01	0	42	104	243793920	60	26528
2026-01-23 02:26:08.04	213.54	64.42	-52.0	-69.4	3.5	3.02e+01	0	42	104	243793920	60	113148
2026-01-23 02:26:09.05	214.59	64.75	-51.8	-68.7	3.5	3.02e+01	0	42	104	243793920	60	105080
2026-01-23 02:26:10.06	215.67	65.08	-49.9	-63.0	3.5	3.02e+01	0	42	104	243793920	60	54673
2026-01-23 02:26:11.07	216.78	65.40	-46.1	-57.1	3.5	3.02e+01	0	42	104	243793920	60	27683
2026-01-23 02:26:12.08	217.92	65.71	-45.3	-56.1	3.5	3.02e+01	0	42	104	243793920	60	24599
2026-01-23 02:26:13.09	219.09	66.01	-45.3	-56.2	3.6	3.02e+01	0	42	104	243793920	60	24848
2026-01-23 02:26:14.10	220.30	66.31	-44.6	-55.2	3.5	3.02e+01	0	41	104	243793920	60	22223
2026-01-23 02:26:15.11	221.54	66.60	-48.9	-61.3	3.5	3.02e+01	0	42	104	243793920	60	44678
2026-01-23 02:26:16.12	222.81	66.88	-50.0	-63.2	3.5	3.02e+01	0	42	104	243793920	60	55352
2026-01-23 02:26:17.13	224.12	67.15	-51.9	-69.0	3.5	3.02e+01	0	42	104	243793920	60	108333
2026-01-23 02:26:18.14	225.46	67.41	-52.1	-69.9	3.5	3.02e+01	0	42	104	243793920	60	120345
2026-01-23 02:26:19.15	226.83	67.65	-47.5	-59.0	3.5	3.02e+01	0	42	104	243793920	60	34306
2026-01-23 02:26:20.16	228.24	67.89	-45.2	-56.0	3.5	3.02e+01	0	42	104	243793920	60	24327
2026-01-23 02:26:21.17	229.68	68.12	-45.0	-55.7	3.5	3.02e+01	0	42	104	243793920	60	23369
2026-01-23 02:26:22.18	231.15	68.33	-44.8	-55.4	3.5	3.02e+01	0	42	104	243793920	60	22719
2026-01-23 02:26:23.19	232.65	68.53	-44.7	-55.8	3.5	3.02e+01	0	42	104	243793920	60	23708
2026-01-23 02:26:24.20	234.18	68.72	-43.4	-53.8	3.6	3.02e+01	0	42	104	243793920	60	18829
2026-01-23 02:26:25.21	235.74	68.89	-46.9	-58.5	3.5	3.02e+01	0	42	104	243793920	60	32345
2026-01-23 02:26:26.22	237.32	69.05	-52.0	-69.9	3.5	3.02e+01	0	42	104	243793920	60	120329
2026-01-23 02:26:27.23	238.93	69.19	-51.8	-68.6	3.5	3.02e+01	0	42	104	243793920	60	103925
2026-01-23 02:26:28.24	240.56	69.32	-48.2	-60.1	3.5	3.02e+01	0	42	104	243793920	60	39052
2026-01-23 02:26:29.25	242.22	69.43	-45.6	-56.9	3.5	3.02e+01	0	42	104	243793920	60	26917
2026-01-23 02:26:30.26	243.89	69.53	-44.5	-54.8	3.6	3.02e+01	0	42	104	243793920	60	21153
2026-01-23 02:26:31.27	245.58	69.61	-44.0	-54.8	3.5	3.02e+01	0	42	104	243793920	60	21254
2026-01-23 02:26:32.28	247.28	69.68	-44.2	-54.9	3.6	3.02e+01	0	42	104	243793920	60	21438
2026-01-23 02:26:33.29	248.99	69.73	-50.9	-65.1	3.5	3.02e+01	0	42	104	243793920	60	69434
2026-01-23 02:26:34.30	250.70	69.76	-45.5	-56.5	3.5	3.02e+01	0	42	104	243793920	60	25753
2026-01-23 02:26:35.31	252.42	69.77	-51.9	-68.8	3.5	3.02e+01	0	42	104	243793920	60	106070
2026-01-23 02:26:36.32	254.15	69.77	-52.1	-69.6	3.6	3.02e+01	0	42	104	243793920	60	116680
2026-01-23 02:26:37.33	255.87	69.75	-47.3	-58.7	3.5	3.02e+01	0	42	104	243793920	60	33201
2026-01-23 02:26:38.34	257.58	69.71	-45.6	-56.6	3.5	3.02e+01	0	42	104	243793920	60	26162
2026-01-23 02:26:39.35	259.29	69.66	-45.1	-56.0	3.5	3.02e+01	0	42	104	243793920	60	24220
2026-01-23 02:26:40.36	260.99	69.59	-44.6	-55.2	3.5	3.02e+01	0	42	104	243793920	60	22117
2026-01-23 02:26:41.37	262.67	69.51	-43.4	-54.2	3.5	3.02e+01	0	42	104	243793920	60	19744
2026-01-23 02:26:42.38	264.34	69.40	-43.6	-54.2	3.6	3.02e+01	0	42	104	243793920	60	19680
2026-01-23 02:26:43.39	265.98	69.29	-43.5	-53.9	3.5	3.02e+01	0	42	104	243793920	60	19047
2026-01-23 02:26:44.40	267.61	69.15	-52.1	-69.8	3.5	3.02e+01	0	42	104	243793920	60	119599
2026-01-23 02:26:45.41	269.21	69.01	-49.5	-62.3	3.5	3.02e+01	0	42	104	243793920	60	50159
2026-01-23 02:26:46.41	270.77	68.85	-46.4	-57.5	3.6	3.02e+01	0	42	104	243793920	60	28808
2026-01-23 02:26:47.42	272.32	68.67	-44.6	-55.3	3.5	3.02e+01	0	42	104	243793920	60	22520
2026-01-23 02:26:48.43	273.84	68.48	-44.7	-55.5	3.6	3.02e+01	0	42	104	243793920	60	23004
2026-01-23 02:26:49.44	275.33	68.27	-43.5	-54.0	3.6	3.02e+01	0	42	104	243793920	60	19262
2026-01-23 02:26:50.45	276.79	68.06	-47.5	-58.9	3.5	3.02e+01	0	42	104	243793920	60	33904
2026-01-23 02:26:51.46	278.22	67.83	-51.3	-66.4	3.5	3.02e+01	0	42	104	243793920	60	80240
2026-01-23 02:26:52.47	279.62	67.59	-45.0	-56.1	3.5	3.02e+01	0	42	104	243793920	60	24593
2026-01-23 02:26:53.48	280.98	67.34	-52.0	-69.5	3.5	3.02e+01	0	42	104	243793920	60	115008
2026-01-23 02:26:54.49	282.31	67.08	-44.8	-55.7	3.6	3.02e+01	0	42	104	243793920	60	23338
2026-01-23 02:26:55.50	283.61	66.81	-43.1	-53.6	3.6	3.02e+01	0	42	104	243793920	60	18423
2026-01-23 02:26:56.51	284.87	66.53	-41.7	-52.3	3.5	3.02e+01	0	42	104	243793920	58	17813
2026-01-23 02:26:57.52	286.10	66.24	-41.4	-51.7	3.5	3.02e+01	0	42	104	243793920	58	16581
2026-01-23 02:26:58.53	287.30	65.94	-41.3	-51.6	3.5	3.02e+01	0	42	104	243793920	58	16361
2026-01-23 02:26:59.54	288.46	65.63	-42.0	-52.4	3.5	3.02e+01	0	42	104	243793920	58	17914
2026-01-23 02:27:00.55	289.59	65.32	-41.1	-51.6	3.5	3.02e+01	0	42	104	243793920	58	16454
2026-01-23 02:27:01.56	290.69	65.00	-48.6	-60.4	3.5	3.02e+01	0	42	104	243793920	60	40152
2026-01-23 02:27:02.57	291.76	64.67	-51.9	-69.0	3.5	3.02e+01	0	42	104	243793920	60	108179
2026-01-23 02:27:03.58	292.80	64.33	-44.5	-55.4	3.5	3.02e+01	0	42	104	243793920	60	22543
2026-01-23 02:27:04.59	293.81	64.00	-46.5	-57.8	3.5	3.02e+01	0	42	104	243793920	60	29948
2026-01-23 02:27:05.60	294.79	63.65	-44.5	-55.1	3.5	3.02e+01	0	42	104	243793920	60	21829
2026-01-23 02:27:06.61	295.74	63.30	-43.3	-53.5	3.5	3.02e+01	0	42	104	243793920	60	18199
2026-01-23 02:27:07.62	296.66	62.95	-42.6	-53.2	3.5	3.02e+01	0	42	104	243793920	60	17598
2026-01-23 02:27:08.63	297.55	62.59	-49.3	-61.7	3.5	3.02e+01	0	42	104	243793920	60	46972
2026-01-23 02:27:09.64	298.42	62.23	-50.1	-63.4	3.5	3.02e+01	0	42	104	243793920	60	56686
2026-01-23 02:27:10.65	299.27	61.86	-51.5	-67.9	3.5	3.02e+01	0	42	104	243793920	60	95312
2026-01-23 02:27:11.66	300.08	61.50	-51.9	-69.0	3.5	3.02e+01	0	42	104	243793920	60	108375
2026-01-23 02:27:12.67	300.88	61.13	-41.4	-51.9	3.3	3.02e+01	0	42	104	243793920	60	15178
2026-01-23 02:27:13.68	301.65	60.75	-42.0	-52.2	3.5	3.02e+01	0	42	104	243793920	60	15759
2026-01-23 02:27:14.69	302.40	60.38	-42.0	-52.5	3.5	3.02e+01	0	42	104	243793920	58	18116
2026-01-23 02:27:15.69	303.12	60.01	-40.9	-51.0	3.5	3.02e+01	0	42	104	243793920	58	15256
2026-01-23 02:27:16.70	303.83	59.63	-40.8	-51.3	3.5	3.02e+01	0	42	104	243793920	56	17732
2026-01-23 02:27:17.71	304.51	59.25	-43.6	-54.3	3.5	3.02e+01	0	42	104	243793920	58	22458
2026-01-23 02:27:18.72	305.18	58.87	-41.0	-51.1	3.5	3.02e+01	0	42	104	243793920	56	17348
2026-01-23 02:27:19.73	305.83	58.49	-52.0	-69.6	3.5	3.02e+01	0	42	104	243793920	60	116636
2026-01-23 02:27:20.74	306.45	58.10	-51.7	-67.9	3.5	3.02e+01	0	42	104	243793920	60	95321
2026-01-23 02:27:21.75	307.07	57.72	-40.5	-50.7	3.5	3.02e+01	0	42	104	243793920	54	18617
2026-01-23 02:27:22.77	307.67	57.33	-40.6	-51.2	3.5	3.02e+01	0	42	104	243793920	56	17491
2026-01-23 02:27:23.77	308.24	56.96	-39.5	-49.6	3.5	3.02e+01	0	42	104	243793920	54	16451
2026-01-23 02:27:24.79	308.80	56.57	-38.9	-49.1	3.5	3.02e+01	0	42	104	243793920	52	17436
2026-01-23 02:27:25.79	309.35	56.19	-38.4	-48.4	3.5	3.02e+01	0	42	104	243793920	52	16018
2026-01-23 02:27:26.80	309.88	55.81	-47.9	-59.6	3.5	3.02e+01	0	42	104	243793920	60	36724
2026-01-23 02:27:27.82	310.40	55.42	-40.2	-50.6	3.5	3.02e+01	0	42	104	243793920	52	20712
2026-01-23 02:27:28.82	310.90	55.04	-51.8	-69.1	3.5	3.02e+01	0	42	104	243793920	60	109916
2026-01-23 02:27:29.84	311.39	54.66	-51.7	-67.5	3.5	3.02e+01	0	42	104	243793920	60	91379
2026-01-23 02:27:30.84	311.86	54.28	-45.0	-55.8	3.5	3.02e+01	0	42	104	243793920	60	23621
2026-01-23 02:27:31.86	312.33	53.90	-44.1	-54.8	3.5	3.02e+01	0	42	104	243793920	60	21082
2026-01-23 02:27:32.87	312.79	53.52	-42.6	-53.3	3.5	3.02e+01	0	42	104	243793920	60	17876
2026-01-23 02:27:33.87	313.22	53.15	-42.4	-53.0	3.5	3.02e+01	0	42	104	243793920	60	17280
2026-01-23 02:27:34.88	313.65	52.78	-40.9	-51.3	3.5	3.02e+01	0	42	104	243793920	56	17802
2026-01-23 02:27:35.89	314.07	52.40	-45.1	-56.1	3.5	3.02e+01	0	42	104	243793920	60	24444
2026-01-23 02:27:36.90	314.48	52.03	-47.4	-59.1	3.6	3.02e+01	0	42	104	243793920	60	34555
2026-01-23 02:27:37.91	314.88	51.66	-51.6	-67.6	3.5	3.02e+01	0	42	104	243793920	60	92318
2026-01-23 02:27:38.92	315.27	51.29	-51.6	-69.2	3.5	3.02e+01	0	42	104	243793920	60	111380
2026-01-23 02:27:39.93	315.65	50.92	-40.4	-50.7	3.5	3.02e+01	0	42	104	243793920	54	18597
2026-01-23 02:27:40.94	316.02	50.56	-41.2	-51.7	3.5	3.02e+01	0	42	104	243793920	56	18543
2026-01-23 02:27:41.95	316.38	50.20	-41.5	-52.1	3.5	3.02e+01	0	42	104	243793920	56	19410
2026-01-23 02:27:42.96	316.73	49.83	-41.4	-51.8	3.5	3.02e+01	0	42	104	243793920	56	18836
2026-01-23 02:27:43.97	317.08	49.47	-41.3	-51.8	3.5	3.02e+01	0	42	104	243793920	56	18766
2026-01-23 02:27:44.98	317.41	49.12	-39.4	-49.7	3.5	3.02e+01	0	42	104	243793920	54	16566
2026-01-23 02:27:45.99	317.74	48.76	-42.5	-52.8	3.5	3.02e+01	0	42	104	243793920	56	21160
2026-01-23 02:27:47.00	318.06	48.41	-51.7	-69.3	3.5	3.02e+01	0	42	104	243793920	60	112866
2026-01-23 02:27:48.01	318.38	48.05	-51.2	-67.5	3.5	3.02e+01	0	42	104	243793920	60	90908
2026-01-23 02:27:49.02	318.69	47.70	-43.6	-54.2	3.5	3.02e+01	0	42	104	243793920	60	19793
2026-01-23 02:27:50.03	318.99	47.36	-40.0	-50.2	3.5	3.02e+01	0	42	104	243793920	56	15632
2026-01-23 02:27:51.04	319.28	47.01	-39.7	-49.9	3.5	3.02e+01	0	42	104	243793920	54	17028
2026-01-23 02:27:52.05	319.57	46.67	-39.5	-49.7	3.5	3.02e+01	0	42	104	243793920	54	16585
2026-01-23 02:27:53.06	319.85	46.33	-39.5	-49.7	3.5	3.02e+01	0	42	104	243793920	54	16650
2026-01-23 02:27:54.07	320.12	45.99	-42.5	-52.8	3.5	3.02e+01	0	42	104	243793920	58	18797
2026-01-23 02:27:55.08	320.39	45.65	-47.1	-58.4	3.5	3.02e+01	0	42	104	243793920	60	32001
2026-01-23 02:27:56.08	320.65	45.32	-51.6	-67.6	3.5	3.02e+01	0	42	104	243793920	60	92790
2026-01-23 02:27:57.09	320.91	44.99	-51.9	-68.8	3.5	3.02e+01	0	42	104	243793920	60	106240
2026-01-23 02:27:58.10	321.16	44.66	-40.9	-51.2	3.6	3.02e+01	0	42	104	243793920	54	19791
2026-01-23 02:27:59.11	321.41	44.33	-39.9	-50.2	3.6	3.02e+01	0	42	104	243793920	54	17669
2026-01-23 02:28:00.12	321.66	44.01	-40.1	-50.3	3.5	3.02e+01	0	42	104	243793920	54	17871
2026-01-23 02:28:01.13	321.89	43.69	-39.2	-49.6	3.5	3.02e+01	0	42	104	243793920	54	16363
2026-01-23 02:28:02.14	322.13	43.37	-39.0	-49.2	3.5	3.02e+01	0	42	104	243793920	52	17617
2026-01-23 02:28:03.15	322.36	43.05	-42.4	-52.8	3.6	3.02e+01	0	42	104	243793920	60	16710
2026-01-23 02:28:04.16	322.58	42.73	-41.2	-51.6	3.5	3.02e+01	0	41	104	243793920	58	16402
2026-01-23 02:28:05.17	322.80	42.42	-51.9	-69.1	3.5	3.02e+01	0	42	104	243793920	60	109360
2026-01-23 02:28:06.18	323.01	42.11	-51.1	-66.9	3.5	3.02e+01	0	42	104	243793920	60	85283
2026-01-23 02:28:07.19	323.23	41.80	-43.3	-53.8	3.6	3.02e+01	0	42	104	243793920	60	18942
2026-01-23 02:28:08.20	323.43	41.49	-40.5	-50.7	3.5	3.02e+01	0	42	104	243793920	56	16656
2026-01-23 02:28:09.21	323.64	41.19	-40.5	-50.9	3.6	3.02e+01	0	42	104	243793920	56	16912
2026-01-23 02:28:10.22	323.84	40.89	-40.2	-50.6	3.5	3.02e+01	0	42	104	243793920	56	16338
2026-01-23 02:28:11.23	324.03	40.59	-39.8	-50.3	3.5	3.02e+01	0	42	104	243793920	54	17827
2026-01-23 02:28:12.24	324.23	40.29	-40.3	-50.7	3.5	3.02e+01	0	42	104	243793920	56	16573
2026-01-23 02:28:13.24	324.41	40.00	-41.2	-51.5	3.6	3.02e+01	0	42	104	243793920	58	16293
2026-01-23 02:28:14.25	324.60	39.71	-51.9	-68.9	3.5	3.02e+01	0	42	104	243793920	60	107283
2026-01-23 02:28:15.26	324.78	39.42	-51.1	-65.7	3.6	3.02e+01	0	42	104	243793920	60	74017
2026-01-23 02:28:16.27	324.96	39.13	-43.5	-54.2	3.6	3.02e+01	0	42	104	243793920	60	19638
2026-01-23 02:28:17.28	325.14	38.84	-40.7	-51.1	3.5	3.02e+01	0	42	104	243793920	56	17383
2026-01-23 02:28:18.29	325.31	38.56	-40.7	-50.9	3.5	3.02e+01	0	42	104	243793920	56	16942
2026-01-23 02:28:19.29	325.48	38.28	-40.6	-50.7	3.5	3.02e+01	0	42	104	243793920	56	16543
2026-01-23 02:28:20.31	325.65	38.00	-40.0	-50.1	3.5	3.02e+01	0	42	104	243793920	56	15586
2026-01-23 02:28:21.31	325.81	37.72	-40.8	-51.1	3.5	3.02e+01	0	42	104	243793920	54	19545
2026-01-23 02:28:22.32	325.97	37.45	-43.5	-54.0	3.6	3.02e+01	0	42	104	243793920	60	19353
2026-01-23 02:28:23.33	326.13	37.18	-51.8	-68.5	3.5	3.02e+01	0	42	104	243793920	60	102564
2026-01-23 02:28:24.34	326.29	36.91	-51.5	-67.5	3.6	3.02e+01	0	42	104	243793920	60	91382
2026-01-23 02:28:25.35	326.44	36.64	-40.6	-51.0	3.5	3.02e+01	0	42	104	243793920	54	19262
2026-01-23 02:28:26.36	326.59	36.37	-39.6	-49.8	3.5	3.02e+01	0	42	104	243793920	54	16740
2026-01-23 02:28:27.37	326.74	36.11	-39.7	-49.8	3.5	3.02e+01	0	42	104	243793920	54	16769
2026-01-23 02:28:28.38	326.89	35.85	-39.0	-49.2	3.5	3.02e+01	0	42	104	243793920	52	17503
2026-01-23 02:28:29.39	327.03	35.59	-38.5	-48.8	3.5	3.02e+01	0	42	104	243793920	52	16745
2026-01-23 02:28:30.40	327.18	35.33	-38.5	-48.6	3.5	3.02e+01	0	42	104	243793920	52	16505
2026-01-23 02:28:31.41	327.32	35.07	-39.5	-49.7	3.5	3.02e+01	0	42	104	243793920	54	16536
2026-01-23 02:28:32.42	327.45	34.82	-51.9	-69.1	3.5	3.02e+01	0	42	104	243793920	60	109103
2026-01-23 02:28:33.43	327.59	34.57	-44.3	-54.8	3.5	3.02e+01	0	42	104	243793920	60	21183
2026-01-23 02:28:34.44	327.72	34.32	-41.5	-51.9	3.5	3.02e+01	0	42	104	243793920	60	15089
2026-01-23 02:28:35.45	327.85	34.07	-39.1	-49.4	3.5	3.02e+01	0	42	104	243793920	54	16078
2026-01-23 02:28:36.46	327.98	33.82	-38.5	-48.8	3.5	3.02e+01	0	42	104	243793920	52	16883
2026-01-23 02:28:37.47	328.11	33.58	-37.9	-48.1	3.6	3.02e+01	0	42	104	243793920	50	17341
2026-01-23 02:28:38.47	328.24	33.34	-38.4	-48.5	3.5	3.02e+01	0	42	104	243793920	50	18255
2026-01-23 02:28:39.49	328.36	33.10	-39.0	-49.2	3.6	3.02e+01	0	42	104	243793920	54	15737
2026-01-23 02:28:40.49	328.48	32.86	-44.3	-54.9	3.5	3.02e+01	0	42	104	243793920	52	33942
2026-01-23 02:28:41.50	328.60	32.62	-51.8	-68.5	3.5	3.02e+01	0	42	104	243793920	60	102569
2026-01-23 02:28:42.51	328.72	32.39	-39.1	-49.2	3.5	3.02e+01	0	42	104	243793920	58	12452
2026-01-23 02:28:43.52	328.84	32.16	-40.3	-50.5	3.5	3.02e+01	0	42	104	243793920	56	16165
2026-01-23 02:28:44.53	328.95	31.92	-38.4	-48.5	3.5	3.02e+01	0	42	104	243793920	52	16273
2026-01-23 02:28:45.54	329.07	31.70	-38.4	-48.5	3.5	3.02e+01	0	42	104	243793920	52	16305
2026-01-23 02:28:46.55	329.18	31.47	-37.7	-47.8	3.5	3.02e+01	0	42	104	243793920	50	16883
2026-01-23 02:28:47.56	329.29	31.24	-38.2	-48.3	3.5	3.02e+01	0	42	104	243793920	50	17872
2026-01-23 02:28:48.57	329.40	31.02	-38.0	-48.1	3.5	3.02e+01	0	42	104	243793920	52	15468
2026-01-23 02:28:49.58	329.51	30.80	-46.0	-57.0	3.4	3.02e+01	0	42	104	243793920	54	38440
2026-01-23 02:28:50.59	329.61	30.58	-51.5	-67.8	3.5	3.02e+01	0	42	104	243793920	60	94719
2026-01-23 02:28:51.60	329.72	30.36	-38.7	-48.9	3.5	3.02e+01	0	42	104	243793920	56	13449
2026-01-23 02:28:52.61	329.82	30.14	-41.6	-51.9	3.5	3.02e+01	0	42	104	243793920	58	17008
2026-01-23 02:28:53.62	329.92	29.92	-39.8	-50.0	3.6	3.02e+01	0	42	104	243793920	56	15340
2026-01-23 02:28:54.63	330.02	29.71	-39.5	-49.7	3.6	3.02e+01	0	42	104	243793920	54	16672
2026-01-23 02:28:55.63	330.12	29.50	-38.8	-40.3	24.4	3.02e+01	60	42	104	243793920	54	5617
2026-01-23 02:28:56.65	330.22	29.29	-38.9	-40.2	28.6	3.02e+01	60	42	0	244842496	52	6235
2026-01-23 02:28:57.66	330.32	29.08	-38.4	-39.7	28.9	3.02e+01	63	42	0	246939648	52	5869
2026-01-23 02:28:58.67	330.41	28.87	-38.7	-40.0	28.7	3.02e+01	59	42	0	248512512	52	6069
2026-01-23 02:28:59.68	330.51	28.67	-37.7	-38.9	29.6	3.02e+01	44	42	0	250609664	50	6030
2026-01-23 02:29:00.69	330.60	28.46	-37.4	-38.6	29.9	3.02e+01	56	42	0	252706816	50	5801
2026-01-23 02:29:01.70	330.69	28.26	-37.2	-38.4	30.0	3.02e+01	57	42	0	254279680	50	5698
2026-01-23 02:29:02.71	330.78	28.06	-37.2	-38.3	30.1	3.02e+01	47	41	0	256376832	50	5647
2026-01-23 02:29:03.72	330.87	27.86	-37.2	-38.3	30.1	3.02e+01	58	41	0	257949696	50	5639
2026-01-23 02:29:04.73	330.96	27.66	-37.2	-38.4	30.0	3.02e+01	60	42	0	260046848	50	5695
2026-01-23 02:29:05.74	331.05	27.46	-37.3	-38.5	29.9	3.02e+01	59	42	0	262144000	50	5744
2026-01-23 02:29:06.75	331.14	27.27	-37.4	-38.6	29.9	3.02e+01	59	42	0	263716864	50	5835
2026-01-23 02:29:07.75	331.22	27.08	-37.6	-38.7	29.8	3.02e+01	51	42	0	265814016	50	5922
2026-01-23 02:29:08.77	331.31	26.88	-37.6	-38.8	29.7	3.02e+01	58	42	0	267911168	50	5965
2026-01-23 02:29:09.77	331.39	26.69	-37.8	-39.0	29.6	3.02e+01	58	42	0	269484032	50	6091
2026-01-23 02:29:10.78	331.47	26.50	-37.7	-38.9	29.5	3.02e+01	47	42	0	271581184	50	6034
2026-01-23 02:29:11.79	331.55	26.32	-37.7	-38.9	29.5	3.02e+01	58	42	0	273154048	50	6061
2026-01-23 02:29:12.80	331.64	26.13	-37.8	-39.0	29.6	3.02e+01	55	42	0	275251200	50	6079
2026-01-23 02:29:13.81	331.71	25.94	-37.9	-39.1	29.5	3.02e+01	62	41	0	277348352	50	6168
2026-01-23 02:29:14.82	331.79	25.76	-37.9	-39.1	29.4	3.02e+01	58	41	0	278921216	50	6167
2026-01-23 02:29:15.83	331.87	25.58	-37.9	-39.2	29.4	3.02e+01	54	41	0	281018368	50	6212
2026-01-23 02:29:16.84	331.95	25.39	-38.0	-39.2	29.3	3.02e+01	63	41	0	282591232	50	6260
2026-01-23 02:29:17.85	332.02	25.21	-38.0	-39.2	29.3	3.02e+01	59	41	0	284688384	50	6253
2026-01-23 02:29:18.86	332.10	25.03	-38.0	-39.2	29.3	3.02e+01	58	41	0	286785536	50	6244
2026-01-23 02:29:19.87	332.17	24.86	-38.0	-39.2	29.2	3.02e+01	57	41	0	288358400	50	6272
2026-01-23 02:29:20.88	332.25	24.68	-38.0	-39.2	29.3	3.02e+01	44	41	0	290455552	50	6237
2026-01-23 02:29:21.89	332.32	24.51	-38.0	-39.2	29.3	3.02e+01	57	41	0	292028416	50	6271
2026-01-23 02:29:22.90	332.39	24.33	-38.0	-39.2	29.3	3.02e+01	57	41	0	294125568	50	6267
2026-01-23 02:29:23.91	332.46	24.16	-38.1	-39.3	29.2	3.02e+01	46	41	0	296222720	50	6298
2026-01-23 02:29:24.92	332.54	23.99	-38.0	-39.3	29.2	3.02e+01	59	41	0	297795584	50	6288
2026-01-23 02:29:25.93	332.61	23.82	-38.1	-39.3	29.2	3.02e+01	59	41	0	299892736	50	6321
2026-01-23 02:29:26.94	332.67	23.65	-38.4	-39.6	29.0	3.02e+01	61	41	0	301465600	50	6518
2026-01-23 02:29:27.95	332.74	23.48	-38.0	-39.2	29.2	3.02e+01	60	41	0	303562752	50	6269
2026-01-23 02:29:28.96	332.81	23.31	-38.1	-39.3	29.1	3.02e+01	60	41	0	305659904	50	6349
2026-01-23 02:29:29.96	332.88	23.15	-37.9	-39.1	29.4	3.02e+01	60	41	0	307232768	50	6189
2026-01-23 02:29:30.97	332.94	22.98	-38.1	-39.4	29.2	3.02e+01	62	41	0	309329920	50	6353
2026-01-23 02:29:31.98	333.01	22.82	-38.2	-39.4	29.1	3.02e+01	50	41	0	311427072	50	6387
2026-01-23 02:29:32.99	333.07	22.66	-38.2	-39.4	29.0	3.02e+01	61	41	0	312999936	50	6411
2026-01-23 02:29:34.00	333.14	22.50	-38.5	-39.7	29.0	3.02e+01	60	41	0	315097088	50	6645
2026-01-23 02:29:35.01	333.20	22.33	-38.2	-39.4	29.0	3.02e+01	60	41	0	316669952	50	6423
2026-01-23 02:29:36.02	333.26	22.18	-38.5	-39.8	28.9	3.02e+01	61	41	0	318767104	50	6660
2026-01-23 02:29:37.03	333.33	22.02	-38.3	-39.5	29.1	3.02e+01	46	41	0	320864256	50	6494
2026-01-23 02:29:38.04	333.39	21.86	-38.3	-39.6	29.0	3.02e+01	60	41	0	322437120	50	6500
2026-01-23 02:29:39.05	333.45	21.70	-38.2	-39.4	29.2	3.02e+01	57	41	0	324534272	50	6415
2026-01-23 02:29:40.06	333.51	21.55	-37.9	-39.1	29.4	3.02e+01	40	41	0	326107136	50	6158
2026-01-23 02:29:41.07	333.57	21.39	-38.0	-39.2	29.2	3.02e+01	59	41	0	328204288	50	6257
2026-01-23 02:29:42.08	333.63	21.24	-37.8	-39.0	29.5	3.02e+01	60	41	0	330301440	50	6100
2026-01-23 02:29:43.09	333.69	21.09	-37.8	-39.0	29.4	3.02e+01	58	41	0	331874304	50	6106
2026-01-23 02:29:44.10	333.75	20.94	-37.9	-39.1	29.4	3.02e+01	58	41	0	333971456	50	6155
2026-01-23 02:29:45.11	333.80	20.79	-37.8	-39.0	29.4	3.02e+01	58	41	0	336068608	50	6100
2026-01-23 02:29:46.12	333.86	20.64	-37.8	-39.0	29.5	3.02e+01	60	41	0	337641472	50	6091
2026-01-23 02:29:47.13	333.92	20.49	-37.9	-39.1	29.3	3.02e+01	60	41	0	339738624	50	6170
2026-01-23 02:29:48.13	333.97	20.34	-38.0	-39.2	29.3	3.02e+01	59	41	0	341311488	50	6233
2026-01-23 02:29:49.14	334.03	20.20	-38.0	-39.2	29.3	3.02e+01	59	41	0	343408640	50	6213
2026-01-23 02:29:50.15	334.08	20.05	-37.9	-39.2	29.3	3.02e+01	48	41	0	345505792	50	6215
2026-01-23 02:29:51.16	334.14	19.91	-37.7	-38.9	29.5	3.02e+01	59	41	0	347078656	50	6052
2026-01-23 02:29:52.17	334.19	19.76	-37.8	-39.0	29.5	3.02e+01	60	41	0	349175808	50	6100
2026-01-23 02:29:53.18	334.25	19.62	-37.8	-39.0	29.5	3.02e+01	45	41	0	350748672	50	6077
2026-01-23 02:29:54.19	334.30	19.48	-37.9	-39.1	29.4	3.02e+01	58	41	0	352845824	50	6170
2026-01-23 02:29:55.20	334.35	19.34	-37.7	-38.9	29.6	3.02e+01	60	41	0	354942976	50	6043
2026-01-23 02:29:56.21	334.40	19.20	-37.8	-39.0	29.4	3.02e+01	59	41	0	356515840	50	6119
2026-01-23 02:29:57.22	334.46	19.06	-37.7	-38.9	29.5	3.02e+01	61	41	0	358612992	50	6028
2026-01-23 02:29:58.23	334.51	18.92	-37.8	-39.0	29.4	3.02e+01	55	41	0	360185856	50	6093
2026-01-23 02:29:59.24	334.56	18.78	-37.6	-38.8	29.5	3.02e+01	52	41	0	362283008	50	5945
2026-01-23 02:30:00.25	334.61	18.64	-37.7	-38.9	29.5	3.02e+01	60	41	0	364380160	50	6047
2026-01-23 02:30:01.26	334.66	18.51	-37.5	-38.7	29.7	3.02e+01	45	41	0	365953024	50	5883
2026-01-23 02:30:02.27	334.71	18.37	-37.7	-38.8	29.5	3.02e+01	58	41	0	368050176	50	5991
2026-01-23 02:30:03.28	334.76	18.24	-37.7	-38.9	29.5	3.02e+01	61	41	0	369623040	50	6027
2026-01-23 02:30:04.29	334.80	18.10	-37.6	-38.8	29.6	3.02e+01	60	41	0	371720192	50	5986
2026-01-23 02:30:05.30	334.85	17.97	-37.5	-38.7	29.6	3.02e+01	60	41	0	373817344	50	5911
2026-01-23 02:30:06.31	334.90	17.84	-37.6	-38.7	29.6	3.02e+01	47	41	0	375390208	50	5922
2026-01-23 02:30:07.32	334.95	17.71	-37.6	-38.8	29.6	3.02e+01	60	41	0	377487360	50	5946
2026-01-23 02:30:08.33	335.00	17.58	-37.5	-38.7	29.7	3.02e+01	60	41	0	379584512	50	5890
2026-01-23 02:30:09.34	335.04	17.45	-37.6	-38.8	29.6	3.02e+01	52	41	0	381157376	50	5958
2026-01-23 02:30:10.35	335.09	17.32	-37.6	-38.8	29.6	3.02e+01	60	41	0	383254528	50	5936
2026-01-23 02:30:11.36	335.13	17.19	-37.8	-39.0	29.4	3.02e+01	57	41	0	384827392	50	6128
2026-01-23 02:30:12.37	335.18	17.06	-37.7	-38.9	29.5	3.02e+01	59	41	0	386924544	50	6032
2026-01-23 02:30:13.38	335.22	16.94	-37.7	-38.9	29.5	3.02e+01	58	41	0	389021696	50	6050
2026-01-23 02:30:14.39	335.27	16.81	-37.6	-38.8	29.5	3.02e+01	50	41	0	390594560	50	5973
2026-01-23 02:30:15.40	335.31	16.68	-37.8	-39.0	29.3	3.02e+01	60	41	0	392691712	50	6119
2026-01-23 02:30:16.41	335.36	16.56	-37.7	-39.0	29.4	3.02e+01	58	41	0	394264576	50	6065
2026-01-23 02:30:17.42	335.40	16.43	-37.9	-39.1	29.2	3.02e+01	46	41	0	396361728	50	6169
2026-01-23 02:30:18.43	335.45	16.31	-37.7	-38.9	29.5	3.02e+01	58	41	0	398458880	50	6034
2026-01-23 02:30:19.44	335.49	16.19	-37.7	-38.9	29.4	3.02e+01	57	41	0	400031744	50	6043
2026-01-23 02:30:20.45	335.53	16.07	-37.6	-38.8	29.6	3.02e+01	57	41	0	402128896	50	5931
2026-01-23 02:30:21.45	335.57	15.95	-37.6	-38.9	29.5	3.02e+01	60	41	0	404226048	50	6000
2026-01-23 02:30:22.46	335.62	15.82	-37.7	-38.9	29.5	3.02e+01	52	41	0	405798912	50	6019
2026-01-23 02:30:23.47	335.66	15.70	-37.7	-38.9	29.5	3.02e+01	58	41	0	407896064	50	6056
2026-01-23 02:30:24.48	335.70	15.58	-37.7	-38.9	29.4	3.02e+01	59	41	0	409468928	50	6030
2026-01-23 02:30:25.49	335.74	15.47	-37.7	-39.0	29.3	3.02e+01	50	41	0	411566080	50	6066
2026-01-23 02:30:26.49	335.78	15.35	-37.7	-38.9	29.4	3.02e+01	59	41	0	413663232	50	6036
2026-01-23 02:30:27.50	335.82	15.23	-37.8	-39.0	29.4	3.02e+01	44	41	0	415236096	50	6076
2026-01-23 02:30:28.51	335.86	15.11	-38.0	-39.2	29.1	3.02e+01	60	41	0	417333248	50	6273
2026-01-23 02:30:29.53	335.90	15.00	-38.1	-39.3	28.9	3.02e+01	60	41	0	418906112	50	6336
2026-01-23 02:30:30.53	335.94	14.88	-38.0	-39.3	29.1	3.02e+01	53	41	0	421003264	50	6298
2026-01-23 02:30:31.54	335.98	14.77	-37.9	-39.1	29.2	3.02e+01	59	41	0	423100416	50	6155
2026-01-23 02:30:32.55	336.02	14.65	-37.9	-39.2	29.2	3.02e+01	57	41	0	424673280	50	6210
2026-01-23 02:30:33.56	336.06	14.54	-37.8	-39.0	29.3	3.02e+01	58	41	0	426770432	50	6083
2026-01-23 02:30:34.58	336.10	14.42	-37.7	-38.9	29.3	3.02e+01	61	41	0	428343296	50	6048
2026-01-23 02:30:35.59	336.13	14.31	-37.8	-39.0	29.3	3.02e+01	56	41	0	430440448	50	6087
2026-01-23 02:30:36.60	336.17	14.20	-37.8	-39.0	29.3	3.02e+01	59	41	0	432537600	50	6102
2026-01-23 02:30:37.60	336.21	14.09	-37.7	-38.9	29.3	3.02e+01	57	41	0	434110464	50	6060
2026-01-23 02:30:38.61	336.25	13.98	-37.8	-39.0	29.1	3.02e+01	44	41	0	436207616	50	6114
2026-01-23 02:30:39.62	336.28	13.87	-37.7	-38.9	29.3	3.02e+01	59	41	0	437780480	50	6039
2026-01-23 02:30:40.63	336.32	13.76	-37.8	-39.0	29.2	3.02e+01	53	41	0	439877632	50	6115
2026-01-23 02:30:41.64	336.36	13.65	-38.1	-39.3	28.9	3.02e+01	57	41	0	441974784	50	6314
2026-01-23 02:30:42.66	336.39	13.54	-37.7	-38.9	29.3	3.02e+01	58	41	0	443547648	50	6026
2026-01-23 02:30:43.67	336.43	13.43	-37.8	-39.0	29.2	3.02e+01	55	41	0	445644800	50	6133
2026-01-23 02:30:44.67	336.47	13.32	-37.6	-38.8	29.3	3.02e+01	58	41	0	447741952	50	5985
2026-01-23 02:30:45.68	336.50	13.21	-37.7	-38.9	29.3	3.02e+01	60	41	0	449314816	50	6058
2026-01-23 02:30:46.69	336.54	13.11	-37.8	-39.0	29.2	3.02e+01	46	41	0	451411968	50	6109
2026-01-23 02:30:47.70	336.57	13.00	-37.7	-39.0	29.2	3.02e+01	59	41	0	452984832	50	6069
2026-01-23 02:30:48.71	336.61	12.89	-37.9	-39.1	29.1	3.02e+01	58	41	0	455081984	50	6170
2026-01-23 02:30:49.72	336.64	12.79	-37.8	-39.0	29.1	3.02e+01	56	41	0	457179136	50	6126
2026-01-23 02:30:50.73	336.68	12.68	-37.8	-39.0	29.2	3.02e+01	58	41	0	458752000	50	6092
2026-01-23 02:30:51.74	336.71	12.58	-37.8	-39.0	29.2	3.02e+01	52	41	0	460849152	50	6090
2026-01-23 02:30:52.76	336.74	12.47	-38.0	-39.2	29.0	3.02e+01	60	41	0	462422016	50	6242
2026-01-23 02:30:53.76	336.78	12.37	-37.9	-39.1	29.1	3.02e+01	61	41	0	464519168	50	6140
2026-01-23 02:30:54.78	336.81	12.27	-38.0	-39.2	28.9	3.02e+01	47	41	0	466616320	50	6274
2026-01-23 02:30:55.79	336.84	12.16	-38.0	-39.3	29.0	3.02e+01	61	41	0	468189184	50	6280
2026-01-23 02:30:56.80	336.88	12.06	-38.1	-39.3	28.8	3.02e+01	53	41	0	470286336	50	6329
2026-01-23 02:30:57.81	336.91	11.96	-38.0	-39.2	29.1	3.02e+01	59	41	0	472383488	50	6237
2026-01-23 02:30:58.82	336.94	11.86	-38.0	-39.3	28.9	3.02e+01	61	41	0	473956352	50	6291
2026-01-23 02:30:59.83	336.98	11.76	-38.1	-39.3	28.9	3.02e+01	38	41	0	476053504	50	6329
2026-01-23 02:31:00.84	337.01	11.66	-38.0	-39.3	28.9	3.02e+01	60	41	0	477626368	50	6297
2026-01-23 02:31:01.85	337.04	11.56	-38.2	-39.4	28.8	3.02e+01	60	41	0	479723520	50	6388
2026-01-23 02:31:02.85	337.07	11.46	-38.1	-39.4	28.8	3.02e+01	56	41	0	481820672	50	6374
2026-01-23 02:31:03.86	337.10	11.36	-38.2	-39.4	28.8	3.02e+01	56	41	0	483393536	50	6414
