passes_logs/2026/01/23/R4.6S_Anadyr/R4.6S_Anadyr__20260123_153455_SUOMI_NPP_rec.log

#Pass ID: 20260123_153455_SUOMI NPP
#Satellite: SUOMI NPP
#Configuration: NPP
#almurnet v.1.7.20251203
#Start time: 2026-01-23 15:34:57

#Version: 2.2.20231116
#Station: R4.6S_Anadyr
#Location: 177.4865 lon 64.73178 lat
#TLE: 1 37849U 11061A   26022.50498765  .00000208  00000+0  11976-3 0  9992
#TLE: 2 37849  98.7820 324.4892 0002275  50.8149 309.3229 14.19528284737775

#Time	Az	El	Level	Level2	SNR	BER	BlckErr	Temp	State	Recorded	gain1	gain2
2026-01-23 15:34:57.33	22.52	0.11	-50.9	-63.4	3.4	1.52e+00	0	38	0	0	60	51740
2026-01-23 15:34:58.34	22.51	0.17	-51.0	-66.2	3.6	1.51e+00	0	39	104	0	60	73930
2026-01-23 15:34:59.35	22.49	0.23	-51.0	-66.2	3.6	1.51e+00	0	39	104	0	60	74052
2026-01-23 15:35:00.36	22.47	0.29	-51.0	-66.2	3.6	1.51e+00	0	39	104	0	60	73548
2026-01-23 15:35:01.37	22.46	0.36	-51.0	-66.2	3.6	1.51e+00	0	39	104	0	60	74126
2026-01-23 15:35:02.38	22.44	0.42	-51.0	-66.2	3.6	1.51e+00	0	39	104	0	60	73623
2026-01-23 15:35:03.39	22.42	0.48	-51.0	-66.2	3.6	1.51e+00	0	39	104	0	60	74020
2026-01-23 15:35:04.40	22.40	0.54	-51.0	-66.3	3.6	1.51e+00	0	39	104	0	60	74276
2026-01-23 15:35:05.41	22.39	0.60	-51.1	-66.3	3.6	1.51e+00	0	39	104	0	60	74496
2026-01-23 15:35:06.42	22.37	0.66	-51.0	-66.2	3.6	1.51e+00	0	39	104	0	60	73943
2026-01-23 15:35:07.43	22.35	0.72	-51.1	-66.3	3.6	1.51e+00	0	39	104	0	60	74568
2026-01-23 15:35:08.44	22.33	0.78	-51.0	-66.3	3.6	1.51e+00	0	40	104	0	60	74297
2026-01-23 15:35:09.45	22.31	0.84	-51.0	-66.2	3.6	1.51e+00	0	39	104	0	60	73938
2026-01-23 15:35:10.46	22.30	0.90	-50.9	-66.2	3.6	1.51e+00	0	39	104	0	60	73491
2026-01-23 15:35:11.47	22.28	0.96	-51.0	-66.1	3.6	1.51e+00	0	39	104	0	60	73137
2026-01-23 15:35:12.48	22.26	1.03	-50.9	-66.1	3.6	1.51e+00	0	40	104	0	60	73000
2026-01-23 15:35:13.49	22.24	1.09	-50.8	-66.0	3.6	1.51e+00	0	40	104	0	60	72215
2026-01-23 15:35:14.50	22.22	1.15	-50.7	-65.9	3.6	1.51e+00	0	40	104	0	60	71475
2026-01-23 15:35:15.51	22.20	1.21	-50.6	-65.8	3.6	1.51e+00	0	40	104	0	60	70644
2026-01-23 15:35:16.52	22.18	1.27	-50.5	-65.7	3.6	1.51e+00	0	40	104	0	60	69361
2026-01-23 15:35:17.53	22.17	1.34	-50.4	-65.5	3.6	1.51e+00	0	40	104	0	60	68362
2026-01-23 15:35:18.54	22.15	1.40	-50.3	-65.5	3.6	1.51e+00	0	40	104	0	60	68219
2026-01-23 15:35:19.55	22.13	1.46	-50.1	-65.4	3.6	1.51e+00	0	40	104	0	60	66928
2026-01-23 15:35:20.56	22.11	1.52	-49.9	-65.1	3.6	1.51e+00	0	40	104	0	60	65229
2026-01-23 15:35:21.57	22.09	1.59	-49.7	-64.9	3.6	1.51e+00	0	40	104	0	60	63224
2026-01-23 15:35:22.58	22.07	1.65	-49.6	-64.8	3.6	1.51e+00	0	40	104	0	60	62634
2026-01-23 15:35:23.59	22.05	1.71	-49.6	-64.7	3.6	1.51e+00	0	40	104	0	60	62286
2026-01-23 15:35:24.60	22.03	1.78	-49.6	-64.5	3.6	1.51e+00	0	40	104	0	60	60995
2026-01-23 15:35:25.61	22.01	1.84	-49.6	-64.3	3.6	1.51e+00	0	40	104	0	60	59519
2026-01-23 15:35:26.62	21.99	1.90	-49.6	-64.2	3.6	1.51e+00	0	40	104	0	60	58802
2026-01-23 15:35:27.63	21.97	1.97	-49.6	-64.2	3.6	1.51e+00	0	40	104	0	60	58892
2026-01-23 15:35:28.64	21.95	2.03	-49.6	-64.3	3.6	1.51e+00	0	40	104	0	60	59475
2026-01-23 15:35:29.65	21.93	2.09	-49.6	-64.4	3.6	1.51e+00	0	40	104	0	60	59769
2026-01-23 15:35:30.66	21.91	2.16	-49.6	-64.6	3.6	1.51e+00	0	40	104	0	60	61431
2026-01-23 15:35:31.67	21.89	2.22	-49.6	-64.7	3.6	1.51e+00	0	40	104	0	60	62342
2026-01-23 15:35:32.68	21.87	2.29	-49.6	-64.8	3.6	1.51e+00	0	40	104	0	60	62661
2026-01-23 15:35:33.69	21.85	2.35	-49.6	-64.9	3.6	1.51e+00	0	40	104	0	60	63182
2026-01-23 15:35:34.70	21.83	2.42	-49.6	-64.7	3.6	1.51e+00	0	40	104	0	60	62345
2026-01-23 15:35:35.71	21.81	2.48	-49.6	-64.6	3.6	1.51e+00	0	40	104	0	60	61598
2026-01-23 15:35:36.72	21.79	2.55	-49.6	-64.4	3.6	1.51e+00	0	40	104	0	60	59857
2026-01-23 15:35:37.73	21.77	2.61	-49.6	-64.1	3.6	1.51e+00	0	40	104	0	60	57743
2026-01-23 15:35:38.74	21.75	2.68	-49.6	-63.9	3.6	1.51e+00	0	40	104	0	60	56596
2026-01-23 15:35:39.75	21.73	2.74	-49.5	-63.6	3.6	1.51e+00	0	40	104	0	60	54665
2026-01-23 15:35:40.76	21.70	2.81	-49.5	-63.4	3.6	1.51e+00	0	40	104	0	60	53547
2026-01-23 15:35:41.77	21.68	2.87	-49.5	-63.3	3.6	1.51e+00	0	40	104	0	60	52713
2026-01-23 15:35:42.78	21.66	2.94	-49.5	-63.3	3.6	1.51e+00	0	40	104	0	60	52667
2026-01-23 15:35:43.79	21.64	3.00	-49.5	-63.5	3.6	1.51e+00	0	40	104	0	60	54357
2026-01-23 15:35:44.80	21.62	3.07	-49.6	-64.2	3.6	1.51e+00	0	40	104	0	60	58727
2026-01-23 15:35:45.81	21.60	3.14	-49.6	-64.7	3.6	1.51e+00	0	40	104	0	60	62198
2026-01-23 15:35:46.82	21.57	3.20	-49.6	-64.6	3.6	1.51e+00	0	40	104	0	60	61687
2026-01-23 15:35:47.83	21.55	3.27	-49.6	-63.7	3.6	1.51e+00	0	40	104	0	60	55257
2026-01-23 15:35:48.84	21.53	3.34	-49.4	-61.8	3.9	1.50e+00	0	40	104	0	60	44607
2026-01-23 15:35:49.85	21.51	3.40	-49.3	-58.7	4.6	1.12e+00	0	40	0	0	60	31207
2026-01-23 15:35:50.86	21.49	3.47	-49.0	-56.5	6.1	5.57e-01	0	40	0	2097152	60	24244
2026-01-23 15:35:51.87	21.46	3.54	-48.9	-56.0	6.7	1.93e-01	0	40	0	4194304	60	22914
2026-01-23 15:35:52.88	21.44	3.60	-48.7	-55.1	7.8	9.92e-02	0	40	0	6291456	60	20594
2026-01-23 15:35:53.89	21.42	3.67	-48.5	-54.5	8.6	4.75e-02	0	40	0	7340032	60	19156
2026-01-23 15:35:54.90	21.39	3.74	-48.6	-54.9	8.1	9.91e-02	0	40	0	9437184	60	20130
2026-01-23 15:35:55.91	21.37	3.81	-49.4	-59.7	3.8	3.35e-01	4	40	0	11534336	60	35062
2026-01-23 15:35:56.92	21.35	3.88	-49.7	-64.7	3.6	1.50e+00	0	40	104	11534336	60	62231
2026-01-23 15:35:57.93	21.32	3.94	-49.5	-64.5	3.6	1.49e+00	0	40	104	11534336	60	60602
2026-01-23 15:35:58.94	21.30	4.01	-42.8	-44.3	6.1	1.41e+00	0	40	104	11534336	60	5941
2026-01-23 15:35:59.95	21.28	4.08	-49.5	-62.8	3.6	5.02e-01	0	40	104	11534336	60	49848
2026-01-23 15:36:00.96	21.25	4.15	-43.7	-45.4	18.9	1.35e+00	0	40	0	11534336	60	6727
2026-01-23 15:36:01.97	21.23	4.22	-42.5	-44.0	19.6	0.00e+00	0	40	0	13631488	58	6426
2026-01-23 15:36:02.98	21.21	4.29	-42.6	-44.1	19.6	0.00e+00	0	40	0	15728640	58	6470
2026-01-23 15:36:03.98	21.18	4.36	-42.6	-44.1	19.5	0.00e+00	0	40	0	16777216	58	6471
2026-01-23 15:36:04.99	21.16	4.42	-42.1	-43.4	20.2	0.00e+00	0	40	0	18874368	58	6010
2026-01-23 15:36:06.00	21.13	4.49	-41.8	-43.1	20.4	0.00e+00	0	40	0	20971520	58	5828
2026-01-23 15:36:07.01	21.11	4.56	-41.6	-42.8	20.8	0.00e+00	0	40	0	23068672	56	6302
2026-01-23 15:36:08.02	21.08	4.63	-41.9	-43.1	20.7	0.00e+00	0	40	0	25165824	56	6530
2026-01-23 15:36:09.03	21.06	4.70	-41.9	-43.2	20.5	0.00e+00	0	40	0	26214400	56	6542
2026-01-23 15:36:10.04	21.04	4.77	-41.7	-42.9	20.7	0.00e+00	0	40	0	28311552	56	6347
2026-01-23 15:36:11.04	21.01	4.84	-41.6	-42.9	20.7	0.00e+00	0	40	0	30408704	56	6327
2026-01-23 15:36:12.05	20.99	4.91	-41.8	-43.0	20.7	0.00e+00	0	40	0	32505856	56	6440
2026-01-23 15:36:13.06	20.96	4.98	-41.4	-42.6	21.0	0.00e+00	0	40	0	34603008	56	6161
2026-01-23 15:36:14.07	20.93	5.06	-41.5	-42.7	20.9	0.00e+00	0	40	0	35651584	56	6233
2026-01-23 15:36:15.08	20.91	5.13	-41.7	-42.9	20.8	0.00e+00	0	40	0	37748736	56	6350
2026-01-23 15:36:16.09	20.88	5.20	-41.7	-42.9	20.7	0.00e+00	0	40	0	39845888	56	6357
2026-01-23 15:36:17.10	20.86	5.27	-41.6	-42.9	20.8	0.00e+00	0	40	0	41943040	56	6344
2026-01-23 15:36:18.11	20.83	5.34	-41.7	-42.9	20.9	0.00e+00	0	40	0	44040192	56	6355
2026-01-23 15:36:19.12	20.80	5.41	-41.3	-42.5	21.1	0.00e+00	0	40	0	45088768	56	6087
2026-01-23 15:36:20.13	20.78	5.49	-41.4	-42.6	21.1	0.00e+00	0	40	0	47185920	56	6135
2026-01-23 15:36:21.14	20.75	5.56	-41.4	-42.6	21.2	0.00e+00	0	40	0	49283072	56	6128
2026-01-23 15:36:22.15	20.73	5.63	-41.6	-42.8	20.9	0.00e+00	0	40	0	51380224	56	6285
2026-01-23 15:36:23.15	20.70	5.70	-41.4	-42.6	21.0	0.00e+00	0	40	0	53477376	56	6137
2026-01-23 15:36:24.16	20.67	5.77	-41.5	-42.7	20.8	0.00e+00	0	40	0	54525952	56	6207
2026-01-23 15:36:25.17	20.64	5.85	-41.5	-42.7	21.2	0.00e+00	0	40	0	56623104	56	6180
2026-01-23 15:36:26.18	20.62	5.92	-41.3	-42.5	21.3	0.00e+00	0	40	0	58720256	56	6073
2026-01-23 15:36:27.19	20.59	5.99	-41.2	-42.4	21.4	0.00e+00	0	40	0	60817408	56	5985
2026-01-23 15:36:28.20	20.56	6.07	-41.4	-42.5	21.1	0.00e+00	0	40	0	62914560	56	6090
2026-01-23 15:36:29.21	20.53	6.14	-41.5	-42.7	21.1	0.00e+00	0	40	0	65011712	56	6177
2026-01-23 15:36:30.22	20.51	6.22	-41.2	-42.4	21.3	0.00e+00	0	40	0	66060288	56	5993
2026-01-23 15:36:31.23	20.48	6.29	-41.5	-42.7	21.0	0.00e+00	0	40	0	68157440	56	6233
2026-01-23 15:36:32.16	20.45	6.36	-41.4	-42.6	21.2	0.00e+00	0	40	0	70254592	56	6157
2026-01-23 15:36:33.17	20.42	6.43	-41.0	-42.1	21.6	0.00e+00	0	40	0	72351744	56	5794
2026-01-23 15:36:34.18	20.40	6.51	-41.2	-42.3	21.6	0.00e+00	0	40	0	74448896	56	5941
2026-01-23 15:36:35.19	20.37	6.58	-41.0	-42.1	21.6	0.00e+00	0	40	0	75497472	56	5818
2026-01-23 15:36:36.20	20.34	6.66	-41.3	-42.4	21.3	0.00e+00	0	40	0	77594624	56	6004
2026-01-23 15:36:37.21	20.31	6.73	-41.2	-42.3	21.6	0.00e+00	0	40	0	79691776	56	5936
2026-01-23 15:36:38.22	20.28	6.81	-41.0	-42.2	21.6	0.00e+00	0	40	0	81788928	56	5835
2026-01-23 15:36:39.23	20.25	6.88	-41.1	-42.2	21.6	0.00e+00	0	40	0	83886080	56	5858
2026-01-23 15:36:40.23	20.22	6.96	-40.9	-42.0	21.8	0.00e+00	0	40	0	84934656	56	5732
2026-01-23 15:36:41.25	20.19	7.04	-40.9	-42.0	21.7	0.00e+00	0	40	0	87031808	56	5738
2026-01-23 15:36:42.26	20.16	7.11	-41.0	-42.1	21.6	0.00e+00	0	40	0	89128960	56	5809
2026-01-23 15:36:43.26	20.13	7.19	-41.4	-42.6	21.2	0.00e+00	0	40	0	91226112	56	6109
2026-01-23 15:36:44.27	20.10	7.27	-41.4	-42.6	21.4	0.00e+00	0	40	0	93323264	56	6107
2026-01-23 15:36:45.28	20.07	7.34	-41.1	-42.3	21.5	0.00e+00	0	40	0	94371840	56	5912
2026-01-23 15:36:46.29	20.04	7.42	-41.1	-42.2	21.6	0.00e+00	0	40	0	96468992	56	5888
2026-01-23 15:36:47.30	20.01	7.50	-41.0	-42.1	21.8	0.00e+00	0	40	0	98566144	56	5772
2026-01-23 15:36:48.31	19.98	7.58	-41.1	-42.2	21.6	0.00e+00	0	40	0	100663296	56	5847
2026-01-23 15:36:49.32	19.95	7.65	-41.1	-42.2	21.5	0.00e+00	0	40	0	102760448	56	5887
2026-01-23 15:36:50.33	19.91	7.73	-41.0	-42.1	21.7	0.00e+00	0	40	0	103809024	56	5803
2026-01-23 15:36:51.34	19.88	7.81	-41.0	-42.2	21.6	0.00e+00	0	40	0	105906176	56	5832
2026-01-23 15:36:52.35	19.85	7.89	-40.8	-41.9	21.9	0.00e+00	0	40	0	108003328	54	6336
2026-01-23 15:36:53.36	19.82	7.97	-40.6	-41.7	22.0	0.00e+00	0	40	0	110100480	54	6176
2026-01-23 15:36:54.37	19.79	8.05	-40.4	-41.4	22.2	0.00e+00	0	40	0	112197632	54	6028
2026-01-23 15:36:55.38	19.75	8.13	-40.6	-41.7	21.9	0.00e+00	0	40	0	113246208	54	6213
2026-01-23 15:36:56.39	19.72	8.21	-40.6	-41.7	22.1	0.00e+00	0	40	0	115343360	54	6207
2026-01-23 15:36:57.40	19.69	8.29	-40.5	-41.6	22.2	0.00e+00	0	40	0	117440512	54	6117
2026-01-23 15:36:58.41	19.66	8.37	-40.4	-41.5	22.3	0.00e+00	0	40	0	119537664	54	6054
2026-01-23 15:36:59.42	19.62	8.45	-40.4	-41.5	22.2	0.00e+00	0	40	0	121634816	54	6059
2026-01-23 15:37:00.43	19.59	8.53	-40.3	-41.3	22.4	0.00e+00	0	40	0	122683392	54	5922
2026-01-23 15:37:01.44	19.56	8.61	-40.3	-41.3	22.3	0.00e+00	0	40	0	124780544	54	5936
2026-01-23 15:37:02.45	19.52	8.69	-40.3	-41.3	22.3	0.00e+00	0	40	0	126877696	54	5948
2026-01-23 15:37:03.46	19.49	8.77	-40.4	-41.4	22.3	0.00e+00	0	40	0	128974848	54	6007
2026-01-23 15:37:04.46	19.45	8.85	-40.2	-41.2	22.4	0.00e+00	0	40	0	131072000	54	5892
2026-01-23 15:37:05.47	19.42	8.94	-40.2	-41.2	22.4	0.00e+00	0	40	0	133169152	54	5895
2026-01-23 15:37:06.48	19.38	9.02	-40.1	-41.1	22.5	0.00e+00	0	40	0	134217728	54	5809
2026-01-23 15:37:07.49	19.35	9.10	-40.1	-41.1	22.6	0.00e+00	0	40	0	136314880	54	5799
2026-01-23 15:37:08.50	19.31	9.18	-40.2	-41.2	22.5	0.00e+00	0	40	0	138412032	54	5883
2026-01-23 15:37:09.51	19.28	9.27	-39.9	-40.9	22.7	0.00e+00	0	40	0	140509184	54	5658
2026-01-23 15:37:10.52	19.24	9.35	-40.0	-41.0	22.7	0.00e+00	0	40	0	142606336	54	5704
2026-01-23 15:37:11.53	19.21	9.43	-40.0	-40.9	22.5	0.00e+00	0	40	0	143654912	54	5691
2026-01-23 15:37:12.54	19.17	9.52	-40.0	-41.0	22.5	0.00e+00	0	40	0	145752064	54	5748
2026-01-23 15:37:13.55	19.13	9.60	-40.0	-41.0	22.6	0.00e+00	0	40	0	147849216	54	5715
2026-01-23 15:37:14.56	19.10	9.69	-40.0	-40.9	22.5	0.00e+00	0	40	0	149946368	54	5689
2026-01-23 15:37:15.56	19.06	9.77	-39.9	-40.8	22.9	0.00e+00	0	40	0	150994944	54	5616
2026-01-23 15:37:16.57	19.02	9.85	-39.9	-40.9	22.4	0.00e+00	0	40	0	153092096	54	5666
2026-01-23 15:37:17.58	18.99	9.94	-39.9	-40.9	22.8	0.00e+00	0	40	0	155189248	54	5673
2026-01-23 15:37:18.59	18.95	10.02	-39.8	-40.7	22.4	0.00e+00	0	40	0	157286400	52	6205
2026-01-23 15:37:19.60	18.91	10.11	-39.9	-40.9	22.4	0.00e+00	0	40	0	159383552	52	6349
2026-01-23 15:37:20.61	18.87	10.20	-39.7	-40.7	22.7	0.00e+00	0	40	0	161480704	52	6185
2026-01-23 15:37:21.62	18.84	10.28	-39.8	-40.7	22.6	0.00e+00	0	40	0	162529280	52	6219
2026-01-23 15:37:22.63	18.80	10.37	-39.7	-40.7	22.9	0.00e+00	0	40	0	164626432	52	6203
2026-01-23 15:37:23.64	18.76	10.46	-39.8	-40.8	22.8	0.00e+00	0	40	0	166723584	52	6272
2026-01-23 15:37:24.65	18.72	10.54	-39.7	-40.6	23.0	0.00e+00	0	40	0	168820736	52	6152
2026-01-23 15:37:25.66	18.68	10.63	-39.6	-40.5	23.0	0.00e+00	0	40	0	170917888	52	6095
2026-01-23 15:37:26.67	18.64	10.72	-39.7	-40.7	23.0	0.00e+00	0	40	0	171966464	52	6191
2026-01-23 15:37:27.68	18.60	10.81	-39.6	-40.5	23.2	0.00e+00	0	40	0	174063616	52	6094
2026-01-23 15:37:28.69	18.56	10.89	-39.5	-40.5	23.1	0.00e+00	0	40	0	176160768	52	6044
2026-01-23 15:37:29.70	18.52	10.98	-39.6	-40.6	23.1	0.00e+00	0	40	0	178257920	52	6125
2026-01-23 15:37:30.71	18.48	11.07	-39.7	-40.7	22.9	0.00e+00	0	40	0	180355072	52	6196
2026-01-23 15:37:31.72	18.44	11.16	-39.6	-40.6	23.2	0.00e+00	0	40	0	181403648	52	6116
2026-01-23 15:37:32.73	18.40	11.25	-39.5	-40.4	23.2	0.00e+00	0	40	0	183500800	52	5976
2026-01-23 15:37:33.74	18.36	11.34	-39.6	-40.5	23.2	0.00e+00	0	40	0	185597952	52	6064
2026-01-23 15:37:34.75	18.32	11.43	-39.4	-40.3	23.3	0.00e+00	0	40	0	187695104	52	5938
2026-01-23 15:37:35.76	18.27	11.52	-39.4	-40.3	23.3	0.00e+00	0	40	0	189792256	52	5931
2026-01-23 15:37:36.77	18.23	11.61	-39.4	-40.4	23.2	0.00e+00	0	40	0	190840832	52	5968
2026-01-23 15:37:37.78	18.19	11.70	-39.2	-40.1	23.4	0.00e+00	0	40	0	192937984	52	5821
2026-01-23 15:37:38.78	18.15	11.79	-39.5	-40.5	23.1	0.00e+00	0	40	0	195035136	52	6034
2026-01-23 15:37:39.80	18.10	11.89	-39.4	-40.4	23.3	0.00e+00	0	40	0	197132288	52	5966
2026-01-23 15:37:40.81	18.06	11.98	-39.2	-40.1	23.5	0.00e+00	0	40	0	199229440	52	5822
2026-01-23 15:37:41.82	18.02	12.07	-39.3	-40.2	23.5	0.00e+00	0	40	0	200278016	52	5839
2026-01-23 15:37:42.83	17.97	12.17	-39.2	-40.1	23.6	0.00e+00	0	40	0	202375168	52	5789
2026-01-23 15:37:43.84	17.93	12.26	-39.4	-40.3	23.3	0.00e+00	0	40	0	204472320	52	5947
2026-01-23 15:37:44.85	17.88	12.35	-39.3	-40.2	23.5	0.00e+00	0	40	0	206569472	52	5848
2026-01-23 15:37:45.86	17.84	12.45	-39.1	-40.0	23.6	0.00e+00	0	40	0	208666624	52	5731
2026-01-23 15:37:46.87	17.79	12.54	-39.5	-40.4	23.3	0.00e+00	0	40	0	209715200	52	6009
2026-01-23 15:37:47.87	17.75	12.63	-39.2	-40.1	23.5	0.00e+00	0	40	0	211812352	52	5811
2026-01-23 15:37:48.89	17.70	12.73	-39.3	-40.2	23.5	0.00e+00	0	40	0	213909504	52	5886
2026-01-23 15:37:49.90	17.65	12.82	-39.4	-40.3	23.4	0.00e+00	0	41	0	216006656	52	5916
2026-01-23 15:37:50.90	17.61	12.92	-39.4	-40.3	23.4	0.00e+00	0	41	0	218103808	52	5904
2026-01-23 15:37:51.91	17.56	13.02	-39.4	-40.3	23.4	0.00e+00	0	40	0	219152384	52	5916
2026-01-23 15:37:52.92	17.51	13.11	-39.6	-40.6	23.2	0.00e+00	0	40	0	221249536	52	6119
2026-01-23 15:37:53.93	17.47	13.21	-39.5	-40.4	23.4	0.00e+00	0	40	0	223346688	52	5995
2026-01-23 15:37:54.94	17.42	13.31	-39.4	-40.3	23.5	0.00e+00	0	41	0	225443840	52	5908
2026-01-23 15:37:55.95	17.37	13.40	-39.7	-40.6	23.2	0.00e+00	0	41	0	227540992	52	6166
2026-01-23 15:37:56.96	17.32	13.50	-39.5	-40.5	23.3	0.00e+00	0	40	0	229638144	52	6054
2026-01-23 15:37:57.97	17.27	13.60	-39.6	-40.5	23.4	0.00e+00	0	40	0	230686720	52	6056
2026-01-23 15:37:58.98	17.22	13.70	-39.5	-40.4	23.3	0.00e+00	0	40	0	232783872	52	6015
2026-01-23 15:37:59.99	17.17	13.80	-39.6	-40.6	23.3	0.00e+00	0	40	0	234881024	52	6125
2026-01-23 15:38:01.00	17.12	13.89	-39.5	-40.5	23.3	0.00e+00	0	40	0	236978176	52	6034
2026-01-23 15:38:02.01	17.07	13.99	-39.3	-40.2	23.5	0.00e+00	0	40	0	239075328	52	5889
2026-01-23 15:38:03.02	17.02	14.09	-39.3	-40.2	23.5	0.00e+00	0	41	0	240123904	52	5858
2026-01-23 15:38:04.03	16.97	14.20	-39.4	-40.4	23.5	0.00e+00	0	41	0	242221056	52	5967
2026-01-23 15:38:05.04	16.92	14.30	-39.5	-40.4	23.4	0.00e+00	0	40	0	244318208	52	6003
2026-01-23 15:38:06.05	16.87	14.40	-39.6	-40.5	23.4	0.00e+00	0	41	0	246415360	52	6051
2026-01-23 15:38:07.06	16.82	14.50	-39.3	-40.2	23.6	0.00e+00	0	41	0	248512512	52	5854
2026-01-23 15:38:08.07	16.76	14.60	-39.5	-40.4	23.4	0.00e+00	0	41	0	249561088	52	6022
2026-01-23 15:38:09.08	16.71	14.70	-39.5	-40.5	23.4	0.00e+00	0	41	0	251658240	52	6034
2026-01-23 15:38:10.09	16.66	14.81	-39.5	-40.4	23.5	0.00e+00	0	40	0	253755392	52	5994
2026-01-23 15:38:11.10	16.60	14.91	-39.4	-40.3	23.5	0.00e+00	0	40	0	255852544	52	5899
2026-01-23 15:38:12.11	16.55	15.01	-39.2	-40.1	23.7	0.00e+00	0	41	0	257949696	52	5804
2026-01-23 15:38:13.11	16.50	15.12	-39.5	-40.4	23.5	0.00e+00	0	41	0	258998272	52	6018
2026-01-23 15:38:14.12	16.44	15.22	-39.2	-40.1	23.6	0.00e+00	0	41	0	261095424	52	5814
2026-01-23 15:38:15.13	16.39	15.33	-39.3	-40.2	23.6	0.00e+00	0	41	0	263192576	52	5842
2026-01-23 15:38:16.14	16.33	15.43	-39.3	-40.2	23.6	0.00e+00	0	41	0	265289728	52	5857
2026-01-23 15:38:17.15	16.27	15.54	-39.5	-40.5	23.4	0.00e+00	0	41	0	267386880	52	6052
2026-01-23 15:38:18.16	16.22	15.64	-39.5	-40.4	23.5	0.00e+00	0	41	0	268435456	52	5988
2026-01-23 15:38:19.17	16.16	15.75	-39.5	-40.4	23.5	0.00e+00	0	41	0	270532608	52	6016
2026-01-23 15:38:20.18	16.10	15.86	-39.4	-40.3	23.5	0.00e+00	0	41	0	272629760	52	5921
2026-01-23 15:38:21.19	16.04	15.96	-39.5	-40.4	23.3	0.00e+00	0	41	0	274726912	52	6016
2026-01-23 15:38:22.20	15.99	16.07	-39.4	-40.3	23.5	0.00e+00	0	41	0	276824064	52	5960
2026-01-23 15:38:23.20	15.93	16.18	-39.2	-40.1	23.7	0.00e+00	0	41	0	277872640	52	5808
2026-01-23 15:38:24.22	15.87	16.29	-39.2	-40.1	23.7	0.00e+00	0	41	0	279969792	52	5795
2026-01-23 15:38:25.23	15.81	16.40	-39.4	-40.3	23.6	0.00e+00	0	41	0	282066944	52	5944
2026-01-23 15:38:26.24	15.75	16.51	-39.3	-40.1	23.5	0.00e+00	0	41	0	284164096	52	5815
2026-01-23 15:38:27.25	15.69	16.62	-39.1	-40.0	23.7	0.00e+00	0	41	0	286261248	52	5741
2026-01-23 15:38:28.26	15.62	16.73	-39.3	-40.2	23.7	0.00e+00	0	41	0	287309824	52	5834
2026-01-23 15:38:29.27	15.56	16.84	-39.2	-40.1	23.7	0.00e+00	0	41	0	289406976	52	5776
2026-01-23 15:38:30.28	15.50	16.95	-39.2	-40.1	23.7	0.00e+00	0	41	0	291504128	52	5779
2026-01-23 15:38:31.29	15.44	17.06	-39.0	-39.9	23.9	0.00e+00	0	41	0	293601280	52	5670
2026-01-23 15:38:32.30	15.37	17.18	-39.0	-39.8	23.9	0.00e+00	0	41	0	295698432	52	5619
2026-01-23 15:38:33.31	15.31	17.29	-39.0	-39.9	23.9	0.00e+00	0	41	0	297795584	52	5654
2026-01-23 15:38:34.32	15.25	17.40	-39.2	-40.1	23.8	0.00e+00	0	41	0	298844160	52	5811
2026-01-23 15:38:35.33	15.18	17.52	-39.3	-40.1	23.7	0.00e+00	0	41	0	300941312	52	5826
2026-01-23 15:38:36.34	15.12	17.63	-39.1	-39.9	23.9	0.00e+00	0	41	0	303038464	52	5688
2026-01-23 15:38:37.35	15.05	17.75	-39.1	-39.9	23.9	0.00e+00	0	41	0	305135616	52	5679
2026-01-23 15:38:38.35	14.99	17.86	-39.0	-39.9	24.0	0.00e+00	0	41	0	307232768	52	5658
2026-01-23 15:38:39.36	14.92	17.98	-39.1	-39.9	23.7	0.00e+00	0	41	0	308281344	52	5684
2026-01-23 15:38:40.37	14.85	18.09	-39.1	-39.9	23.9	0.00e+00	0	41	0	310378496	52	5684
2026-01-23 15:38:41.38	14.78	18.21	-39.2	-40.1	23.6	0.00e+00	0	41	0	312475648	52	5815
2026-01-23 15:38:42.39	14.72	18.33	-39.1	-40.0	23.8	0.00e+00	0	41	0	314572800	52	5738
2026-01-23 15:38:43.40	14.65	18.45	-39.2	-40.1	23.8	0.00e+00	0	41	0	316669952	52	5763
2026-01-23 15:38:44.41	14.58	18.56	-39.3	-40.2	23.6	0.00e+00	0	41	0	317718528	52	5859
2026-01-23 15:38:45.42	14.51	18.68	-39.1	-40.0	23.9	0.00e+00	0	41	0	319815680	52	5712
2026-01-23 15:38:46.43	14.44	18.80	-39.0	-39.8	23.9	0.00e+00	0	41	0	321912832	52	5623
2026-01-23 15:38:47.44	14.36	18.92	-39.1	-40.0	23.9	0.00e+00	0	41	0	324009984	52	5705
2026-01-23 15:38:48.45	14.29	19.04	-39.3	-40.2	23.8	0.00e+00	0	41	0	326107136	52	5830
2026-01-23 15:38:49.46	14.22	19.16	-39.0	-39.8	24.0	0.00e+00	0	41	0	327155712	52	5605
2026-01-23 15:38:50.47	14.15	19.29	-39.2	-40.1	23.8	0.00e+00	0	41	0	329252864	52	5763
2026-01-23 15:38:51.48	14.07	19.41	-39.1	-39.9	23.9	0.00e+00	0	41	0	331350016	52	5683
2026-01-23 15:38:52.49	14.00	19.53	-39.0	-39.9	23.8	0.00e+00	0	41	0	333447168	52	5664
2026-01-23 15:38:53.49	13.92	19.65	-39.1	-40.0	23.8	0.00e+00	0	41	0	335544320	52	5728
2026-01-23 15:38:54.50	13.85	19.78	-39.3	-40.2	23.7	0.00e+00	0	41	0	336592896	52	5879
2026-01-23 15:38:55.51	13.77	19.90	-39.4	-40.3	23.7	0.00e+00	0	41	0	338690048	52	5908
2026-01-23 15:38:56.52	13.69	20.03	-39.2	-40.1	23.7	0.00e+00	0	41	0	340787200	52	5807
2026-01-23 15:38:57.53	13.62	20.15	-39.4	-40.3	23.6	0.00e+00	0	41	0	342884352	52	5905
2026-01-23 15:38:58.54	13.54	20.28	-39.3	-40.2	23.6	0.00e+00	0	41	0	344981504	52	5867
2026-01-23 15:38:59.55	13.46	20.41	-39.4	-40.3	23.7	0.00e+00	0	41	0	346030080	52	5949
2026-01-23 15:39:00.56	13.38	20.53	-39.5	-40.5	23.5	0.00e+00	0	41	0	348127232	52	6034
2026-01-23 15:39:01.57	13.30	20.66	-39.6	-40.5	23.5	0.00e+00	0	41	0	350224384	52	6036
2026-01-23 15:39:02.57	13.22	20.79	-39.6	-40.5	23.5	0.00e+00	0	41	0	352321536	52	6075
2026-01-23 15:39:03.58	13.14	20.92	-39.8	-40.7	23.4	0.00e+00	0	41	0	354418688	52	6239
2026-01-23 15:39:04.59	13.06	21.05	-39.8	-40.8	23.3	0.00e+00	0	41	0	355467264	52	6261
2026-01-23 15:39:05.60	12.97	21.18	-39.8	-40.7	23.4	0.00e+00	0	41	0	357564416	52	6189
2026-01-23 15:39:06.61	12.89	21.31	-39.7	-40.7	23.3	0.00e+00	0	41	0	359661568	52	6188
2026-01-23 15:39:07.62	12.80	21.44	-39.8	-40.7	23.3	0.00e+00	0	41	0	361758720	52	6229
2026-01-23 15:39:08.63	12.72	21.57	-39.9	-40.8	23.3	0.00e+00	0	41	0	363855872	52	6283
2026-01-23 15:39:09.64	12.63	21.71	-39.8	-40.7	23.3	0.00e+00	0	41	0	365953024	52	6224
2026-01-23 15:39:10.65	12.54	21.84	-39.7	-40.5	23.4	0.00e+00	0	41	0	367001600	52	6100
2026-01-23 15:39:11.66	12.46	21.97	-39.6	-40.4	23.6	0.00e+00	0	41	0	369098752	52	6032
2026-01-23 15:39:12.67	12.37	22.11	-39.6	-40.5	23.5	0.00e+00	0	41	0	371195904	52	6094
2026-01-23 15:39:13.68	12.28	22.24	-39.4	-40.3	23.7	0.00e+00	0	41	0	373293056	52	5904
2026-01-23 15:39:14.69	12.19	22.38	-39.3	-40.1	23.8	0.00e+00	0	41	0	375390208	52	5822
2026-01-23 15:39:15.70	12.10	22.52	-39.5	-40.4	23.7	0.00e+00	0	41	0	376438784	52	5979
2026-01-23 15:39:16.71	12.01	22.65	-39.4	-40.3	23.5	0.00e+00	0	41	0	378535936	52	5904
2026-01-23 15:39:17.72	11.91	22.79	-39.5	-40.3	23.7	0.00e+00	0	41	0	380633088	52	5962
2026-01-23 15:39:18.73	11.82	22.93	-39.8	-40.7	23.4	0.00e+00	0	41	0	382730240	52	6198
2026-01-23 15:39:19.74	11.72	23.07	-39.6	-40.5	23.7	0.00e+00	0	41	0	384827392	52	6073
2026-01-23 15:39:20.75	11.63	23.21	-39.6	-40.5	23.6	0.00e+00	0	41	0	385875968	52	6082
2026-01-23 15:39:21.76	11.53	23.35	-39.9	-40.8	23.4	0.00e+00	0	41	0	387973120	52	6300
2026-01-23 15:39:22.77	11.44	23.49	-39.9	-40.8	23.3	0.00e+00	0	41	0	390070272	52	6276
2026-01-23 15:39:23.78	11.34	23.63	-40.2	-41.2	23.1	0.00e+00	0	41	0	392167424	52	6552
2026-01-23 15:39:24.79	11.24	23.78	-40.1	-41.0	23.3	0.00e+00	0	41	0	394264576	52	6460
2026-01-23 15:39:25.80	11.14	23.92	-40.5	-41.4	22.8	0.00e+00	0	41	0	395313152	52	6761
2026-01-23 15:39:26.81	11.04	24.06	-40.3	-41.2	23.0	0.00e+00	0	41	0	397410304	52	6594
2026-01-23 15:39:27.82	10.94	24.21	-40.0	-40.9	23.3	0.00e+00	0	41	0	399507456	52	6366
2026-01-23 15:39:28.82	10.83	24.35	-40.3	-41.2	22.9	0.00e+00	0	41	0	401604608	52	6607
2026-01-23 15:39:29.83	10.73	24.50	-40.6	-41.6	22.8	0.00e+00	0	41	0	403701760	52	6904
2026-01-23 15:39:30.84	10.63	24.65	-40.8	-41.8	22.4	0.00e+00	0	41	0	404750336	52	7083
2026-01-23 15:39:31.85	10.52	24.79	-41.2	-42.3	22.2	0.00e+00	0	41	0	406847488	54	6616
2026-01-23 15:39:32.86	10.41	24.94	-40.7	-41.7	22.6	0.00e+00	0	41	0	408944640	54	6174
2026-01-23 15:39:33.87	10.30	25.09	-41.0	-42.1	22.3	0.00e+00	0	41	0	411041792	54	6484
2026-01-23 15:39:34.88	10.20	25.24	-41.1	-42.2	22.3	0.00e+00	0	41	0	413138944	54	6563
2026-01-23 15:39:35.89	10.09	25.39	-40.6	-41.6	22.6	0.00e+00	0	41	0	414187520	54	6119
2026-01-23 15:39:36.89	9.98	25.54	-40.9	-41.9	22.2	0.00e+00	0	41	0	416284672	54	6362
2026-01-23 15:39:37.91	9.86	25.70	-41.2	-42.2	22.2	0.00e+00	0	41	0	418381824	54	6610
2026-01-23 15:39:38.91	9.75	25.85	-40.9	-41.9	22.3	0.00e+00	0	41	0	420478976	54	6368
2026-01-23 15:39:39.92	9.64	26.00	-41.0	-42.0	22.4	0.00e+00	0	41	0	422576128	54	6459
2026-01-23 15:39:40.93	9.52	26.16	-40.7	-41.7	22.7	0.00e+00	0	41	0	423624704	54	6200
2026-01-23 15:39:41.94	9.40	26.31	-41.2	-42.2	22.2	0.00e+00	0	41	0	425721856	54	6599
2026-01-23 15:39:42.95	9.28	26.47	-41.1	-42.2	22.3	0.00e+00	0	41	0	427819008	54	6562
2026-01-23 15:39:43.96	9.17	26.62	-41.2	-42.2	22.3	0.00e+00	0	41	0	429916160	54	6590
2026-01-23 15:39:44.97	9.05	26.78	-41.1	-42.1	22.3	0.00e+00	0	41	0	432013312	54	6525
2026-01-23 15:39:45.98	8.92	26.94	-41.2	-42.3	22.2	0.00e+00	0	41	0	434110464	54	6641
2026-01-23 15:39:46.99	8.80	27.10	-41.5	-42.6	21.9	0.00e+00	0	41	0	435159040	54	6879
2026-01-23 15:39:48.00	8.68	27.26	-41.6	-42.6	22.0	0.00e+00	0	41	0	437256192	56	6173
2026-01-23 15:39:49.01	8.55	27.42	-41.0	-42.0	22.5	0.00e+00	0	41	0	439353344	56	5738
2026-01-23 15:39:50.02	8.42	27.58	-41.5	-42.5	22.2	0.00e+00	0	41	0	441450496	56	6078
2026-01-23 15:39:51.02	8.30	27.74	-41.2	-42.3	22.1	0.00e+00	0	41	0	443547648	56	5914
2026-01-23 15:39:52.03	8.17	27.90	-41.2	-42.2	22.2	0.00e+00	0	41	0	444596224	56	5863
2026-01-23 15:39:53.04	8.04	28.07	-41.4	-42.5	22.0	0.00e+00	0	41	0	446693376	56	6043
2026-01-23 15:39:54.05	7.90	28.23	-41.5	-42.5	22.1	0.00e+00	0	41	0	448790528	56	6100
2026-01-23 15:39:55.06	7.77	28.40	-41.7	-42.8	21.9	0.00e+00	0	41	0	450887680	56	6255
2026-01-23 15:39:56.07	7.64	28.56	-42.0	-43.1	21.7	0.00e+00	0	41	0	452984832	56	6506
2026-01-23 15:39:57.08	7.50	28.73	-41.6	-42.7	21.9	0.00e+00	0	41	0	454033408	56	6181
2026-01-23 15:39:58.09	7.36	28.90	-42.5	-43.7	21.1	0.00e+00	0	41	0	456130560	56	7000
2026-01-23 15:39:59.10	7.22	29.06	-42.6	-43.9	20.9	0.00e+00	0	41	0	458227712	56	7117
2026-01-23 15:40:00.11	7.08	29.23	-42.3	-43.5	21.0	0.00e+00	0	41	0	460324864	56	6801
2026-01-23 15:40:01.11	6.94	29.40	-42.2	-43.3	21.3	0.00e+00	0	41	0	462422016	56	6685
2026-01-23 15:40:02.12	6.80	29.57	-42.2	-43.4	21.2	0.00e+00	0	41	0	463470592	56	6725
2026-01-23 15:40:03.13	6.65	29.74	-42.0	-43.1	21.5	0.00e+00	0	41	0	465567744	56	6510
2026-01-23 15:40:04.14	6.50	29.92	-41.9	-43.0	21.7	0.00e+00	0	41	0	467664896	56	6437
2026-01-23 15:40:05.15	6.35	30.09	-41.3	-42.3	22.4	0.00e+00	0	41	0	469762048	56	5905
2026-01-23 15:40:06.16	6.20	30.26	-41.6	-42.7	22.0	0.00e+00	0	41	0	471859200	56	6189
2026-01-23 15:40:07.17	6.05	30.44	-41.7	-42.8	21.9	0.00e+00	0	41	0	472907776	56	6283
2026-01-23 15:40:08.18	5.90	30.62	-41.8	-42.9	21.8	0.00e+00	0	41	0	475004928	56	6346
2026-01-23 15:40:09.19	5.74	30.79	-41.7	-42.9	21.8	0.00e+00	0	41	0	477102080	56	6329
2026-01-23 15:40:10.20	5.59	30.97	-41.5	-42.6	22.3	0.00e+00	0	41	0	479199232	56	6136
2026-01-23 15:40:11.21	5.43	31.15	-41.4	-42.5	21.9	0.00e+00	0	41	0	481296384	56	6081
2026-01-23 15:40:12.22	5.27	31.33	-41.7	-42.8	21.8	0.00e+00	0	41	0	482344960	56	6275
2026-01-23 15:40:13.23	5.10	31.51	-40.7	-41.6	22.8	0.00e+00	0	41	0	484442112	54	6152
2026-01-23 15:40:14.24	4.94	31.69	-40.9	-41.9	22.3	0.00e+00	0	41	0	486539264	54	6360
2026-01-23 15:40:15.25	4.77	31.87	-41.1	-42.1	22.4	0.00e+00	0	41	0	488636416	54	6495
2026-01-23 15:40:16.26	4.60	32.05	-41.5	-42.5	21.8	0.00e+00	0	41	0	490733568	54	6842
2026-01-23 15:40:17.26	4.43	32.24	-41.3	-42.3	22.2	0.00e+00	0	41	0	491782144	54	6646
2026-01-23 15:40:18.27	4.26	32.42	-41.0	-42.0	22.4	0.00e+00	0	41	0	493879296	54	6442
2026-01-23 15:40:19.28	4.09	32.60	-41.6	-42.7	21.8	0.00e+00	0	41	0	495976448	54	6982
2026-01-23 15:40:20.29	3.91	32.79	-42.0	-43.1	21.5	0.00e+00	0	41	0	498073600	56	6483
2026-01-23 15:40:21.30	3.73	32.98	-41.8	-42.9	21.7	0.00e+00	0	41	0	500170752	56	6372
2026-01-23 15:40:22.31	3.55	33.17	-42.4	-43.6	21.1	0.00e+00	0	41	0	501219328	56	6866
2026-01-23 15:40:23.31	3.37	33.35	-42.5	-43.6	21.2	0.00e+00	0	41	0	503316480	56	6923
2026-01-23 15:40:24.32	3.19	33.54	-42.2	-43.4	21.3	0.00e+00	0	41	0	505413632	58	5976
2026-01-23 15:40:25.33	3.00	33.73	-42.1	-43.2	21.5	0.00e+00	0	41	0	507510784	58	5866
2026-01-23 15:40:26.35	2.81	33.92	-42.0	-43.1	21.7	0.00e+00	0	41	0	509607936	58	5776
2026-01-23 15:40:27.35	2.62	34.11	-42.7	-43.9	21.1	0.00e+00	0	41	0	510656512	56	7152
2026-01-23 15:40:28.36	2.42	34.31	-42.2	-43.3	21.4	0.00e+00	0	41	0	512753664	56	6672
2026-01-23 15:40:29.37	2.23	34.50	-42.7	-43.9	20.4	0.00e+00	0	41	0	514850816	58	6366
2026-01-23 15:40:30.38	2.03	34.69	-43.5	-44.9	20.0	0.00e+00	0	41	0	516947968	58	7102
2026-01-23 15:40:31.39	1.83	34.89	-43.5	-44.9	19.8	0.00e+00	0	41	0	519045120	58	7146
2026-01-23 15:40:32.40	1.62	35.09	-43.7	-45.2	20.0	0.00e+00	0	41	0	520093696	60	6582
2026-01-23 15:40:33.41	1.42	35.28	-43.4	-44.8	20.2	0.00e+00	0	41	0	522190848	60	6315
2026-01-23 15:40:34.42	1.21	35.48	-43.3	-44.6	20.4	0.00e+00	0	41	0	524288000	60	6173
2026-01-23 15:40:35.43	1.00	35.68	-43.8	-45.4	19.6	0.00e+00	0	41	0	526385152	60	6711
2026-01-23 15:40:36.44	0.79	35.88	-44.2	-45.8	19.2	0.00e+00	0	41	0	528482304	60	7047
2026-01-23 15:40:37.45	0.57	36.08	-44.8	-46.7	18.4	0.00e+00	0	41	0	530579456	60	7781
2026-01-23 15:40:38.46	0.35	36.28	-45.2	-47.2	17.9	0.00e+00	0	41	0	531628032	60	8322
2026-01-23 15:40:39.47	0.13	36.48	-45.5	-47.7	17.6	0.00e+00	0	41	0	533725184	60	8755
2026-01-23 15:40:40.48	359.90	36.68	-45.4	-47.4	17.4	0.00e+00	0	41	0	535822336	60	8495
2026-01-23 15:40:41.49	359.68	36.88	-45.4	-47.4	17.5	0.00e+00	0	41	0	537919488	60	8465
2026-01-23 15:40:42.50	359.44	37.09	-44.1	-45.7	19.2	0.00e+00	0	41	0	540016640	60	6999
2026-01-23 15:40:43.50	359.21	37.29	-43.6	-45.1	20.1	0.00e+00	0	41	0	541065216	60	6485
2026-01-23 15:40:44.51	358.98	37.49	-43.0	-44.3	20.5	0.00e+00	0	41	0	543162368	60	5942
2026-01-23 15:40:45.52	358.74	37.70	-42.4	-43.6	21.4	0.00e+00	0	41	0	545259520	58	6137
2026-01-23 15:40:46.53	358.50	37.91	-42.1	-43.2	21.4	0.00e+00	0	41	0	547356672	58	5873
2026-01-23 15:40:47.54	358.25	38.11	-41.9	-43.0	21.6	0.00e+00	0	41	0	549453824	58	5741
2026-01-23 15:40:48.55	358.00	38.32	-42.0	-43.1	21.7	0.00e+00	0	41	0	550502400	56	6493
2026-01-23 15:40:49.56	357.75	38.53	-41.8	-42.9	21.7	0.00e+00	0	41	0	552599552	56	6370
2026-01-23 15:40:50.57	357.49	38.74	-42.1	-43.3	21.5	0.00e+00	0	41	0	554696704	56	6661
2026-01-23 15:40:51.58	357.23	38.95	-42.0	-43.2	21.5	0.00e+00	0	41	0	556793856	56	6552
2026-01-23 15:40:52.59	356.97	39.16	-42.4	-43.6	21.1	0.00e+00	0	41	0	558891008	56	6873
2026-01-23 15:40:53.60	356.71	39.37	-43.0	-44.4	20.4	0.00e+00	0	41	0	559939584	58	6706
2026-01-23 15:40:54.61	356.44	39.58	-43.3	-44.7	20.1	0.00e+00	0	41	0	562036736	58	6970
2026-01-23 15:40:55.62	356.16	39.79	-44.1	-45.8	19.0	0.00e+00	0	41	0	564133888	60	7049
2026-01-23 15:40:56.63	355.89	40.00	-44.2	-45.8	19.2	0.00e+00	0	41	0	566231040	60	7075
2026-01-23 15:40:57.64	355.61	40.22	-44.4	-46.1	19.0	0.00e+00	0	41	0	568328192	60	7255
2026-01-23 15:40:58.65	355.32	40.43	-44.3	-46.0	19.2	0.00e+00	0	41	0	569376768	60	7176
2026-01-23 15:40:59.65	355.04	40.64	-44.2	-45.8	19.2	0.00e+00	0	41	0	571473920	60	7084
2026-01-23 15:41:00.66	354.75	40.86	-45.1	-46.9	18.1	0.00e+00	0	41	0	573571072	60	8045
2026-01-23 15:41:01.67	354.45	41.07	-45.5	-47.6	17.3	0.00e+00	0	41	0	575668224	60	8629
2026-01-23 15:41:02.68	354.15	41.29	-46.2	-48.6	16.1	0.00e+00	0	41	0	577765376	60	9740
2026-01-23 15:41:03.69	353.85	41.50	-45.7	-47.9	17.6	0.00e+00	0	41	0	578813952	60	8999
2026-01-23 15:41:04.70	353.54	41.72	-45.0	-46.9	18.2	0.00e+00	0	41	0	580911104	60	7980
2026-01-23 15:41:05.71	353.23	41.94	-45.0	-46.9	18.1	0.00e+00	0	41	0	583008256	60	7966
2026-01-23 15:41:06.72	352.91	42.15	-44.7	-46.5	18.6	0.00e+00	0	41	0	585105408	60	7653
2026-01-23 15:41:07.73	352.59	42.37	-44.1	-45.7	19.4	0.00e+00	0	41	0	587202560	60	6993
2026-01-23 15:41:08.74	352.27	42.59	-43.7	-45.2	19.9	0.00e+00	0	41	0	588251136	60	6562
2026-01-23 15:41:09.74	351.94	42.80	-43.1	-44.5	20.5	0.00e+00	0	41	0	590348288	60	6081
2026-01-23 15:41:10.75	351.61	43.02	-42.4	-43.6	21.2	0.00e+00	0	41	0	592445440	58	6114
2026-01-23 15:41:11.76	351.27	43.24	-42.1	-43.3	21.4	0.00e+00	0	41	0	594542592	58	5901
2026-01-23 15:41:12.77	350.93	43.45	-41.9	-43.0	21.6	0.00e+00	0	41	0	596639744	58	5741
2026-01-23 15:41:13.78	350.58	43.67	-42.1	-43.2	21.3	0.00e+00	0	41	0	598736896	58	5860
2026-01-23 15:41:14.79	350.23	43.89	-42.3	-43.5	21.4	0.00e+00	0	41	0	599785472	58	6058
2026-01-23 15:41:15.80	349.87	44.11	-41.8	-42.9	21.7	0.00e+00	0	41	0	601882624	58	5688
2026-01-23 15:41:16.81	349.51	44.32	-41.8	-42.9	21.6	0.00e+00	0	41	0	603979776	56	6342
2026-01-23 15:41:17.82	349.14	44.54	-41.8	-42.9	21.7	0.00e+00	0	41	0	606076928	56	6371
2026-01-23 15:41:18.83	348.77	44.76	-41.9	-43.0	21.5	0.00e+00	0	41	0	608174080	56	6415
2026-01-23 15:41:19.84	348.39	44.98	-42.9	-44.1	20.7	0.00e+00	0	41	0	609222656	56	7336
2026-01-23 15:41:20.85	348.01	45.19	-43.0	-44.3	20.6	0.00e+00	0	41	0	611319808	58	6683
2026-01-23 15:41:21.86	347.62	45.41	-42.7	-43.9	20.7	0.00e+00	0	41	0	613416960	58	6359
2026-01-23 15:41:22.87	347.22	45.63	-42.7	-43.9	20.8	0.00e+00	0	41	0	615514112	58	6361
2026-01-23 15:41:23.88	346.83	45.84	-42.4	-43.6	21.2	0.00e+00	0	41	0	617611264	58	6107
2026-01-23 15:41:24.89	346.42	46.06	-42.2	-43.3	21.5	0.00e+00	0	41	0	618659840	58	5958
2026-01-23 15:41:25.90	346.01	46.27	-42.0	-43.2	21.6	0.00e+00	0	41	0	620756992	58	5843
2026-01-23 15:41:26.91	345.59	46.49	-41.4	-42.4	22.2	0.00e+00	0	41	0	622854144	56	6008
2026-01-23 15:41:27.92	345.17	46.70	-41.4	-42.4	22.2	0.00e+00	0	41	0	624951296	56	6015
2026-01-23 15:41:28.93	344.75	46.92	-41.8	-42.9	21.8	0.00e+00	0	41	0	627048448	56	6376
2026-01-23 15:41:29.94	344.31	47.13	-42.2	-43.4	21.3	0.00e+00	0	41	0	628097024	56	6694
2026-01-23 15:41:30.95	343.87	47.34	-41.9	-43.0	21.6	0.00e+00	0	41	0	630194176	56	6435
2026-01-23 15:41:31.96	343.43	47.55	-41.5	-42.5	22.1	0.00e+00	0	41	0	632291328	56	6092
2026-01-23 15:41:32.97	342.97	47.76	-41.4	-42.4	22.1	0.00e+00	0	41	0	634388480	56	6016
2026-01-23 15:41:33.98	342.52	47.97	-40.7	-41.6	22.7	0.00e+00	0	41	0	636485632	54	6169
2026-01-23 15:41:34.99	342.05	48.18	-41.1	-42.1	22.3	0.00e+00	0	41	0	637534208	54	6537
2026-01-23 15:41:35.99	341.59	48.39	-41.8	-43.0	21.6	0.00e+00	0	41	0	639631360	54	7196
2026-01-23 15:41:37.00	341.11	48.59	-41.9	-43.1	21.5	0.00e+00	0	41	0	641728512	56	6495
2026-01-23 15:41:38.01	340.63	48.80	-42.3	-43.5	21.3	0.00e+00	0	41	0	643825664	56	6817
2026-01-23 15:41:39.02	340.14	49.00	-42.5	-43.8	21.3	0.00e+00	0	41	0	645922816	56	7026
2026-01-23 15:41:40.03	339.64	49.20	-42.5	-43.7	21.2	0.00e+00	0	41	0	646971392	56	6974
2026-01-23 15:41:41.04	339.14	49.40	-42.6	-43.8	20.7	0.00e+00	0	41	0	649068544	56	7087
2026-01-23 15:41:42.05	338.63	49.60	-42.9	-44.2	20.6	0.00e+00	0	41	0	651165696	58	6567
2026-01-23 15:41:43.06	338.11	49.80	-42.4	-43.7	21.1	0.00e+00	0	41	0	653262848	58	6190
2026-01-23 15:41:44.07	337.59	50.00	-41.4	-42.5	22.2	0.00e+00	0	41	0	655360000	56	6053
2026-01-23 15:41:45.07	337.06	50.19	-39.6	-40.4	23.8	0.00e+00	0	41	0	656408576	52	6008
2026-01-23 15:41:46.08	336.53	50.38	-38.9	-39.7	24.2	0.00e+00	0	41	0	658505728	52	5559
2026-01-23 15:41:47.09	335.98	50.57	-38.8	-39.6	24.2	0.00e+00	0	41	0	660602880	50	6155
2026-01-23 15:41:48.10	335.43	50.76	-39.5	-40.4	23.7	0.00e+00	0	41	0	662700032	50	6717
2026-01-23 15:41:49.11	334.88	50.95	-39.8	-40.7	23.4	0.00e+00	0	41	0	664797184	52	6214
2026-01-23 15:41:50.12	334.31	51.13	-39.3	-40.2	23.7	0.00e+00	0	41	0	666894336	52	5867
2026-01-23 15:41:51.13	333.74	51.31	-38.7	-39.5	24.3	0.00e+00	0	41	0	667942912	50	6046
2026-01-23 15:41:52.14	333.16	51.49	-38.9	-39.7	24.2	0.00e+00	0	41	0	670040064	50	6195
2026-01-23 15:41:53.15	332.58	51.67	-39.3	-40.2	23.9	0.00e+00	0	41	0	672137216	50	6558
2026-01-23 15:41:54.16	331.98	51.85	-40.1	-41.1	23.2	0.00e+00	0	41	0	674234368	52	6491
2026-01-23 15:41:55.17	331.38	52.02	-40.8	-41.8	22.8	0.00e+00	0	41	0	676331520	52	7078
2026-01-23 15:41:56.18	330.78	52.19	-40.8	-41.9	22.5	0.00e+00	0	41	0	677380096	54	6345
2026-01-23 15:41:57.19	330.16	52.35	-40.6	-41.6	22.7	0.00e+00	0	41	0	679477248	54	6148
2026-01-23 15:41:58.20	329.54	52.52	-40.5	-41.6	22.7	0.00e+00	0	41	0	681574400	54	6129
2026-01-23 15:41:59.21	328.92	52.68	-40.4	-41.4	22.9	0.00e+00	0	41	0	683671552	54	6020
2026-01-23 15:42:00.22	328.28	52.84	-40.3	-41.3	23.0	0.00e+00	0	41	0	684720128	54	5960
2026-01-23 15:42:01.23	327.64	52.99	-40.7	-41.8	22.5	0.00e+00	0	41	0	686817280	54	6305
2026-01-23 15:42:02.24	326.99	53.14	-41.3	-42.5	21.9	0.00e+00	0	41	0	688914432	54	6788
2026-01-23 15:42:03.25	326.34	53.29	-40.8	-41.8	22.5	0.00e+00	0	41	0	691011584	54	6292
2026-01-23 15:42:04.26	325.68	53.44	-40.3	-41.3	22.9	0.00e+00	0	41	0	693108736	54	5912
2026-01-23 15:42:05.27	325.01	53.58	-40.2	-41.1	22.4	0.00e+00	0	41	0	695205888	54	5799
2026-01-23 15:42:06.28	324.34	53.71	-38.8	-39.6	24.3	0.00e+00	0	41	0	696254464	52	5467
2026-01-23 15:42:07.29	323.65	53.85	-38.6	-39.4	24.3	0.00e+00	0	41	0	698351616	50	6014
2026-01-23 15:42:08.30	322.97	53.98	-39.3	-40.1	23.7	0.00e+00	0	41	0	700448768	50	6539
2026-01-23 15:42:09.31	322.27	54.10	-40.4	-41.5	22.8	0.00e+00	0	41	0	702545920	52	6774
2026-01-23 15:42:10.31	321.58	54.23	-40.9	-41.9	22.5	0.00e+00	0	41	0	704643072	54	6382
2026-01-23 15:42:11.32	320.88	54.34	-40.1	-41.1	23.2	0.00e+00	0	41	0	705691648	54	5767
2026-01-23 15:42:12.33	320.17	54.46	-40.2	-41.2	23.0	0.00e+00	0	41	0	707788800	54	5869
2026-01-23 15:42:13.34	319.45	54.57	-39.6	-40.5	23.6	0.00e+00	0	41	0	709885952	52	6069
2026-01-23 15:42:14.35	318.73	54.67	-39.0	-39.9	24.0	0.00e+00	0	41	0	711983104	52	5664
2026-01-23 15:42:15.36	318.00	54.77	-38.8	-39.6	24.3	0.00e+00	0	41	0	714080256	52	5483
2026-01-23 15:42:16.37	317.27	54.87	-39.3	-40.2	23.7	0.00e+00	0	41	0	715128832	50	6544
2026-01-23 15:42:17.38	316.53	54.96	-39.6	-40.5	23.6	0.00e+00	0	41	0	717225984	50	6804
2026-01-23 15:42:18.39	315.79	55.05	-39.2	-40.1	23.8	0.00e+00	0	41	0	719323136	50	6498
2026-01-23 15:42:19.40	315.04	55.13	-39.3	-40.2	23.8	0.00e+00	0	41	0	721420288	50	6582
2026-01-23 15:42:20.41	314.29	55.21	-39.2	-40.1	23.9	0.00e+00	0	41	0	723517440	50	6523
2026-01-23 15:42:21.42	313.54	55.28	-38.3	-39.1	24.5	0.00e+00	0	41	0	724566016	50	5823
2026-01-23 15:42:22.43	312.78	55.35	-38.0	-38.8	24.8	0.00e+00	0	41	0	726663168	50	5625
2026-01-23 15:42:23.43	312.03	55.42	-37.6	-38.4	24.8	0.00e+00	0	41	0	728760320	48	6008
2026-01-23 15:42:24.44	311.26	55.47	-37.5	-38.3	25.1	0.00e+00	0	41	0	730857472	48	5938
2026-01-23 15:42:25.46	310.48	55.53	-37.7	-38.5	24.9	0.00e+00	0	41	0	732954624	48	6082
2026-01-23 15:42:26.47	309.71	55.58	-37.8	-38.7	24.8	0.00e+00	0	41	0	734003200	48	6185
2026-01-23 15:42:27.47	308.95	55.62	-38.1	-39.0	24.6	0.00e+00	0	41	0	736100352	48	6413
2026-01-23 15:42:28.48	308.17	55.66	-37.9	-38.8	24.8	0.00e+00	0	41	0	738197504	48	6280
2026-01-23 15:42:29.49	307.39	55.69	-38.0	-38.8	24.7	0.00e+00	0	41	0	740294656	48	6302
2026-01-23 15:42:30.51	306.60	55.72	-37.5	-38.3	25.1	0.00e+00	0	41	0	742391808	48	5936
2026-01-23 15:42:31.52	305.82	55.74	-37.4	-38.1	25.3	0.00e+00	0	41	0	743440384	48	5822
2026-01-23 15:42:32.52	305.05	55.76	-37.0	-37.8	25.4	0.00e+00	0	41	0	745537536	48	5579
2026-01-23 15:42:33.54	304.26	55.77	-37.3	-38.1	25.3	0.00e+00	0	41	0	747634688	48	5768
2026-01-23 15:42:34.54	303.48	55.78	-37.5	-38.3	25.2	0.00e+00	0	41	0	749731840	48	5952
2026-01-23 15:42:35.55	302.70	55.78	-37.6	-38.4	25.0	0.00e+00	0	41	0	751828992	48	6013
2026-01-23 15:42:36.56	301.91	55.78	-37.6	-38.4	24.9	0.00e+00	0	41	0	752877568	48	6030
2026-01-23 15:42:37.57	301.13	55.77	-37.0	-37.7	25.4	0.00e+00	0	41	0	754974720	48	5551
2026-01-23 15:42:38.58	300.35	55.75	-37.1	-37.8	25.5	0.00e+00	0	41	0	757071872	48	5587
2026-01-23 15:42:39.59	299.57	55.73	-37.4	-38.2	25.1	0.00e+00	0	41	0	759169024	48	5838
2026-01-23 15:42:40.60	298.78	55.71	-37.8	-38.6	24.9	0.00e+00	0	41	0	761266176	48	6162
2026-01-23 15:42:41.61	298.00	55.68	-37.5	-38.3	25.0	0.00e+00	0	41	0	763363328	48	5927
2026-01-23 15:42:42.62	297.23	55.64	-37.3	-38.1	25.0	0.00e+00	0	41	0	764411904	48	5802
2026-01-23 15:42:43.63	296.45	55.60	-37.9	-38.7	24.5	0.00e+00	0	41	0	766509056	48	6206
2026-01-23 15:42:44.64	295.68	55.56	-37.6	-38.4	25.0	0.00e+00	0	41	0	768606208	48	6026
2026-01-23 15:42:45.65	294.91	55.51	-37.9	-38.8	24.8	0.00e+00	0	41	0	770703360	48	6249
2026-01-23 15:42:46.66	294.14	55.45	-38.1	-38.9	24.7	0.00e+00	0	41	0	772800512	48	6378
2026-01-23 15:42:47.67	293.38	55.39	-37.9	-38.7	24.8	0.00e+00	0	41	0	773849088	48	6222
2026-01-23 15:42:48.68	292.61	55.33	-38.0	-38.8	24.7	0.00e+00	0	41	0	775946240	48	6271
2026-01-23 15:42:49.69	291.86	55.26	-38.3	-39.1	24.6	0.00e+00	0	41	0	778043392	48	6511
2026-01-23 15:42:50.70	291.10	55.18	-38.0	-38.8	25.0	0.00e+00	0	41	0	780140544	48	6261
2026-01-23 15:42:51.71	290.35	55.10	-36.7	-37.5	25.6	0.00e+00	0	41	0	782237696	46	6037
2026-01-23 15:42:52.72	289.61	55.02	-36.9	-37.7	25.3	0.00e+00	0	41	0	783286272	46	6206
2026-01-23 15:42:53.72	288.88	54.93	-37.2	-38.0	25.3	0.00e+00	0	41	0	785383424	46	6393
2026-01-23 15:42:54.73	288.14	54.84	-37.0	-37.7	25.3	0.00e+00	0	41	0	787480576	46	6212
2026-01-23 15:42:55.74	287.41	54.74	-37.1	-37.9	25.4	0.00e+00	0	41	0	789577728	46	6357
2026-01-23 15:42:56.75	286.68	54.63	-36.5	-37.3	25.8	0.00e+00	0	41	0	791674880	46	5912
2026-01-23 15:42:57.76	285.96	54.53	-36.6	-37.3	25.5	0.00e+00	0	41	0	792723456	46	5963
2026-01-23 15:42:58.77	285.25	54.42	-36.6	-37.3	25.7	0.00e+00	0	41	0	794820608	46	5952
2026-01-23 15:42:59.78	284.54	54.30	-36.8	-37.5	25.7	0.00e+00	0	41	0	796917760	46	6063
2026-01-23 15:43:00.79	283.83	54.18	-36.7	-37.4	25.7	0.00e+00	0	41	0	799014912	46	5989
2026-01-23 15:43:01.80	283.14	54.06	-37.3	-38.1	25.3	0.00e+00	0	41	0	801112064	46	6469
2026-01-23 15:43:02.81	282.45	53.93	-38.1	-38.9	24.7	0.00e+00	0	41	0	802160640	48	6390
2026-01-23 15:43:03.82	281.76	53.80	-38.4	-39.2	24.4	0.00e+00	0	41	0	804257792	48	6596
2026-01-23 15:43:04.83	281.08	53.66	-38.2	-39.0	24.4	0.00e+00	0	41	0	806354944	48	6442
2026-01-23 15:43:05.84	280.41	53.52	-37.9	-38.7	24.8	0.00e+00	0	41	0	808452096	48	6207
2026-01-23 15:43:06.84	279.75	53.38	-38.0	-38.8	24.7	0.00e+00	0	41	0	810549248	48	6288
2026-01-23 15:43:07.85	279.09	53.24	-38.7	-39.6	24.4	0.00e+00	0	41	0	811597824	50	6104
2026-01-23 15:43:08.86	278.44	53.09	-38.7	-39.5	24.1	0.00e+00	0	41	0	813694976	50	6097
2026-01-23 15:43:09.87	277.79	52.93	-39.4	-40.3	23.8	0.00e+00	0	41	0	815792128	50	6633
2026-01-23 15:43:10.88	277.15	52.78	-40.1	-41.1	23.0	0.00e+00	0	41	0	817889280	52	6496
2026-01-23 15:43:11.89	276.52	52.62	-40.1	-41.0	23.6	0.00e+00	0	41	0	819986432	52	6428
2026-01-23 15:43:12.90	275.89	52.46	-39.5	-40.3	24.0	0.00e+00	0	41	0	821035008	52	5958
2026-01-23 15:43:13.91	275.28	52.29	-39.6	-40.5	23.5	0.00e+00	0	41	0	823132160	52	6077
2026-01-23 15:43:14.92	274.66	52.12	-40.2	-41.1	23.1	0.00e+00	0	41	0	825229312	52	6508
2026-01-23 15:43:15.93	274.06	51.95	-40.3	-41.2	22.9	0.00e+00	0	41	0	827326464	52	6600
2026-01-23 15:43:16.94	273.46	51.78	-40.9	-42.0	22.5	0.00e+00	0	41	0	829423616	54	6393
2026-01-23 15:43:17.95	272.87	51.60	-41.0	-42.0	22.6	0.00e+00	0	41	0	831520768	54	6426
2026-01-23 15:43:18.95	272.29	51.42	-40.0	-40.9	23.4	0.00e+00	0	41	0	832569344	54	5638
2026-01-23 15:43:19.96	271.72	51.24	-39.4	-40.3	23.9	0.00e+00	0	41	0	834666496	52	5928
2026-01-23 15:43:20.97	271.15	51.06	-40.4	-41.3	22.9	0.00e+00	0	41	0	836763648	52	6683
2026-01-23 15:43:21.98	270.58	50.87	-40.8	-41.8	22.7	0.00e+00	0	41	0	838860800	52	7014
2026-01-23 15:43:22.99	270.03	50.69	-40.5	-41.5	22.7	0.00e+00	0	41	0	840957952	54	6074
2026-01-23 15:43:24.00	269.48	50.50	-40.7	-41.7	22.6	0.00e+00	0	41	0	842006528	54	6192
2026-01-23 15:43:25.01	268.94	50.31	-39.9	-40.8	23.1	0.00e+00	0	41	0	844103680	54	5598
2026-01-23 15:43:26.02	268.40	50.11	-39.6	-40.4	23.5	0.00e+00	0	41	0	846200832	52	6033
2026-01-23 15:43:27.03	267.87	49.92	-39.8	-40.7	23.4	0.00e+00	0	41	0	848297984	52	6199
2026-01-23 15:43:28.04	267.35	49.72	-40.8	-41.8	22.9	0.00e+00	0	41	0	850395136	52	7072
2026-01-23 15:43:29.04	266.84	49.52	-40.0	-41.0	23.1	0.00e+00	0	41	0	851443712	54	5706
2026-01-23 15:43:30.06	266.33	49.32	-40.3	-41.2	22.8	0.00e+00	0	41	0	853540864	54	5887
2026-01-23 15:43:31.07	265.83	49.12	-40.2	-41.1	23.1	0.00e+00	0	41	0	855638016	52	6485
2026-01-23 15:43:32.08	265.33	48.91	-40.9	-41.9	22.5	0.00e+00	0	41	0	857735168	52	7139
2026-01-23 15:43:33.08	264.85	48.71	-41.5	-42.6	22.0	0.00e+00	0	41	0	859832320	54	6856
2026-01-23 15:43:34.09	264.37	48.51	-41.3	-42.3	22.3	0.00e+00	0	41	0	860880896	54	6674
2026-01-23 15:43:35.10	263.89	48.30	-40.8	-41.8	22.6	0.00e+00	0	41	0	862978048	54	6254
2026-01-23 15:43:36.11	263.42	48.09	-40.8	-41.8	22.5	0.00e+00	0	41	0	865075200	54	6292
2026-01-23 15:43:37.12	262.96	47.88	-41.8	-43.0	21.7	0.00e+00	0	41	0	867172352	56	6393
2026-01-23 15:43:38.13	262.51	47.67	-42.5	-43.7	21.2	0.00e+00	0	41	0	869269504	56	6936
2026-01-23 15:43:39.14	262.06	47.46	-43.4	-44.8	20.1	0.00e+00	0	41	0	870318080	58	7042
2026-01-23 15:43:40.15	261.61	47.25	-45.0	-46.9	18.1	0.00e+00	0	41	0	872415232	60	7988
2026-01-23 15:43:41.16	261.17	47.04	-46.9	-49.8	15.3	0.00e+00	0	41	0	874512384	60	11132
2026-01-23 15:43:42.17	260.74	46.82	-46.1	-48.4	16.8	0.00e+00	0	41	0	876609536	60	9524
2026-01-23 15:43:43.18	260.31	46.61	-45.4	-47.4	17.7	0.00e+00	0	41	0	878706688	60	8454
2026-01-23 15:43:44.19	259.89	46.39	-45.4	-47.4	17.8	0.00e+00	0	41	0	879755264	60	8498
2026-01-23 15:43:45.20	259.48	46.18	-44.6	-46.4	18.9	0.00e+00	0	41	0	881852416	60	7526
2026-01-23 15:43:46.21	259.07	45.96	-43.5	-45.0	20.2	0.00e+00	0	41	0	883949568	60	6410
2026-01-23 15:43:47.22	258.67	45.75	-42.3	-43.5	21.1	0.00e+00	0	41	0	886046720	58	6083
2026-01-23 15:43:48.23	258.27	45.53	-42.5	-43.7	20.9	0.00e+00	0	41	0	888143872	58	6223
2026-01-23 15:43:49.24	257.88	45.31	-42.0	-43.1	21.5	0.00e+00	0	41	0	889192448	58	5816
2026-01-23 15:43:50.25	257.49	45.09	-41.5	-42.5	22.0	0.00e+00	0	41	0	891289600	56	6085
2026-01-23 15:43:51.26	257.11	44.88	-40.9	-41.8	22.6	0.00e+00	0	41	0	893386752	56	5620
2026-01-23 15:43:52.27	256.73	44.66	-40.1	-41.0	23.1	0.00e+00	0	41	0	895483904	54	5745
2026-01-23 15:43:53.28	256.36	44.44	-40.1	-41.0	23.1	0.00e+00	0	41	0	897581056	54	5741
2026-01-23 15:43:54.28	256.00	44.22	-40.7	-41.6	22.8	0.00e+00	0	41	0	899678208	54	6142
2026-01-23 15:43:55.29	255.64	44.01	-42.1	-43.3	21.2	0.00e+00	0	41	0	900726784	56	6617
2026-01-23 15:43:56.30	255.28	43.79	-42.9	-44.2	20.5	0.00e+00	0	41	0	902823936	58	6614
2026-01-23 15:43:57.31	254.93	43.57	-42.6	-43.9	20.9	0.00e+00	0	41	0	904921088	58	6324
2026-01-23 15:43:58.32	254.58	43.35	-42.8	-44.0	20.9	0.00e+00	0	41	0	907018240	58	6424
2026-01-23 15:43:59.33	254.24	43.13	-42.4	-43.6	21.1	0.00e+00	0	41	0	909115392	58	6128
2026-01-23 15:44:00.34	253.90	42.91	-42.9	-44.2	20.4	0.00e+00	0	41	0	910163968	58	6567
2026-01-23 15:44:01.36	253.57	42.69	-43.9	-45.4	19.4	0.00e+00	0	41	0	912261120	58	7558
2026-01-23 15:44:02.36	253.24	42.48	-44.2	-45.8	19.3	0.00e+00	0	41	0	914358272	60	7053
2026-01-23 15:44:03.37	252.92	42.26	-43.4	-44.8	20.1	0.00e+00	0	41	0	916455424	60	6287
2026-01-23 15:44:04.38	252.60	42.04	-43.2	-44.6	20.3	0.00e+00	0	41	0	918552576	60	6130
2026-01-23 15:44:05.39	252.28	41.83	-43.2	-44.5	20.4	0.00e+00	0	41	0	919601152	60	6100
2026-01-23 15:44:06.40	251.97	41.61	-42.6	-43.8	20.7	0.00e+00	0	41	0	921698304	60	5628
2026-01-23 15:44:07.41	251.67	41.39	-42.0	-43.1	21.2	0.00e+00	0	41	0	923795456	58	5798
2026-01-23 15:44:08.42	251.36	41.18	-41.9	-43.0	21.6	0.00e+00	0	41	0	925892608	56	6414
2026-01-23 15:44:09.43	251.07	40.96	-42.5	-43.8	20.8	0.00e+00	0	41	0	927989760	56	7036
2026-01-23 15:44:10.44	250.77	40.75	-43.1	-44.4	20.5	0.00e+00	0	41	0	929038336	58	6741
2026-01-23 15:44:11.45	250.48	40.53	-43.6	-45.1	19.8	0.00e+00	0	41	0	931135488	58	7284
2026-01-23 15:44:12.46	250.19	40.32	-43.3	-44.7	20.1	0.00e+00	0	41	0	933232640	58	6966
2026-01-23 15:44:13.47	249.91	40.10	-43.4	-44.9	19.8	0.00e+00	0	41	0	935329792	58	7093
2026-01-23 15:44:14.48	249.63	39.89	-43.7	-45.2	19.4	0.00e+00	0	41	0	937426944	60	6614
2026-01-23 15:44:15.49	249.36	39.68	-43.3	-44.8	19.8	0.00e+00	0	41	0	938475520	60	6272
2026-01-23 15:44:16.50	249.08	39.46	-43.3	-44.7	20.1	0.00e+00	0	41	0	940572672	60	6216
2026-01-23 15:44:17.51	248.81	39.25	-42.7	-44.0	20.9	0.00e+00	0	41	0	942669824	60	5742
2026-01-23 15:44:18.52	248.55	39.04	-42.3	-43.6	21.0	0.00e+00	0	41	0	944766976	58	6128
2026-01-23 15:44:19.53	248.29	38.83	-42.8	-44.1	20.7	0.00e+00	0	41	0	946864128	58	6504
2026-01-23 15:44:20.54	248.03	38.62	-42.8	-44.1	20.5	0.00e+00	0	41	0	947912704	58	6527
2026-01-23 15:44:21.55	247.78	38.41	-42.0	-43.2	21.3	0.00e+00	0	41	0	950009856	58	5867
2026-01-23 15:44:22.56	247.52	38.20	-41.9	-43.0	21.7	0.00e+00	0	41	0	952107008	56	6449
2026-01-23 15:44:23.57	247.28	38.00	-41.4	-42.5	21.7	0.00e+00	0	41	0	954204160	56	6084
2026-01-23 15:44:24.58	247.03	37.79	-42.2	-43.4	21.3	0.00e+00	0	41	0	956301312	56	6736
2026-01-23 15:44:25.59	246.79	37.58	-42.3	-43.5	21.2	0.00e+00	0	41	0	957349888	56	6784
2026-01-23 15:44:26.60	246.55	37.37	-42.8	-44.1	20.7	0.00e+00	0	41	0	959447040	58	6472
2026-01-23 15:44:27.60	246.32	37.17	-43.3	-44.7	20.1	0.00e+00	0	41	0	961544192	58	6951
2026-01-23 15:44:28.61	246.08	36.97	-43.6	-45.0	19.8	0.00e+00	0	41	0	963641344	58	7245
2026-01-23 15:44:29.62	245.85	36.76	-43.8	-45.2	19.7	0.00e+00	0	41	0	965738496	60	6612
2026-01-23 15:44:30.63	245.63	36.56	-43.7	-45.1	19.9	0.00e+00	0	41	0	967835648	60	6525
2026-01-23 15:44:31.64	245.40	36.36	-43.3	-44.6	20.5	0.00e+00	0	41	0	968884224	60	6143
2026-01-23 15:44:32.65	245.18	36.16	-42.5	-43.7	20.8	0.00e+00	0	41	0	970981376	58	6212
2026-01-23 15:44:33.66	244.96	35.96	-41.8	-42.9	21.5	0.00e+00	0	41	0	973078528	58	5684
2026-01-23 15:44:34.67	244.75	35.76	-42.3	-43.4	21.2	0.00e+00	0	41	0	975175680	58	6026
2026-01-23 15:44:35.68	244.53	35.56	-42.2	-43.4	20.8	0.00e+00	0	41	0	977272832	58	5971
2026-01-23 15:44:36.69	244.32	35.36	-42.9	-44.1	20.7	0.00e+00	0	41	0	978321408	58	6524
2026-01-23 15:44:37.70	244.11	35.16	-43.1	-44.4	20.4	0.00e+00	0	41	0	980418560	58	6718
2026-01-23 15:44:38.71	243.91	34.96	-43.9	-45.3	19.5	0.00e+00	0	41	0	982515712	60	6671
2026-01-23 15:44:39.72	243.71	34.77	-43.8	-45.3	19.6	0.00e+00	0	41	0	984612864	60	6676
2026-01-23 15:44:40.73	243.50	34.57	-43.5	-44.9	20.0	0.00e+00	0	41	0	986710016	60	6383
2026-01-23 15:44:41.74	243.31	34.38	-43.0	-44.3	20.6	0.00e+00	0	41	0	987758592	60	5943
2026-01-23 15:44:42.75	243.11	34.18	-42.2	-43.3	21.3	0.00e+00	0	41	0	989855744	58	5956
2026-01-23 15:44:43.76	242.92	33.99	-40.5	-41.5	22.8	0.00e+00	0	41	0	991952896	54	6064
2026-01-23 15:44:44.77	242.73	33.80	-40.6	-41.5	22.7	0.00e+00	0	41	0	994050048	54	6091
2026-01-23 15:44:45.77	242.54	33.61	-40.5	-41.5	22.7	0.00e+00	0	41	0	996147200	54	6035
2026-01-23 15:44:46.78	242.35	33.42	-41.4	-42.4	22.0	0.00e+00	0	41	0	997195776	54	6754
2026-01-23 15:44:47.79	242.17	33.23	-41.7	-42.8	21.7	0.00e+00	0	41	0	999292928	54	7045
2026-01-23 15:44:48.80	241.98	33.04	-42.0	-43.1	21.5	0.00e+00	0	41	0	1001390080	56	6484
2026-01-23 15:44:49.81	241.80	32.85	-41.8	-42.8	21.7	0.00e+00	0	41	0	1003487232	56	6302
2026-01-23 15:44:50.82	241.63	32.67	-41.8	-42.8	21.7	0.00e+00	0	41	0	1005584384	56	6311
2026-01-23 15:44:51.83	241.45	32.48	-41.9	-43.0	21.5	0.00e+00	0	41	0	1006632960	56	6452
2026-01-23 15:44:52.84	241.28	32.29	-42.0	-43.1	20.9	0.00e+00	0	41	0	1008730112	56	6535
2026-01-23 15:44:53.85	241.10	32.11	-42.5	-43.7	21.0	0.00e+00	0	41	0	1010827264	56	6987
2026-01-23 15:44:54.86	240.93	31.93	-42.5	-43.8	21.1	0.00e+00	0	41	0	1012924416	56	7041
2026-01-23 15:44:55.87	240.77	31.74	-42.9	-44.3	20.5	0.00e+00	0	41	0	1015021568	58	6623
2026-01-23 15:44:56.88	240.60	31.56	-42.9	-44.2	20.5	0.00e+00	0	41	0	1016070144	58	6590
2026-01-23 15:44:57.89	240.44	31.38	-43.4	-44.9	19.9	0.00e+00	0	41	0	1018167296	58	7145
2026-01-23 15:44:58.90	240.27	31.20	-43.6	-45.1	19.8	0.00e+00	0	41	0	1020264448	58	7281
2026-01-23 15:44:59.91	240.11	31.02	-44.0	-45.6	19.3	0.00e+00	0	41	0	1022361600	60	6910
2026-01-23 15:45:00.92	239.95	30.84	-43.4	-44.8	20.0	0.00e+00	0	41	0	1024458752	60	6312
2026-01-23 15:45:01.92	239.80	30.66	-42.9	-44.3	20.6	0.00e+00	0	41	0	1025507328	60	5916
2026-01-23 15:45:02.93	239.64	30.49	-42.2	-43.4	21.3	0.00e+00	0	41	0	1027604480	58	6001
2026-01-23 15:45:03.94	239.49	30.31	-41.7	-42.7	21.9	0.00e+00	0	41	0	1029701632	56	6242
2026-01-23 15:45:04.95	239.34	30.14	-41.2	-42.2	22.3	0.00e+00	0	41	0	1031798784	56	5882
2026-01-23 15:45:05.96	239.19	29.96	-40.9	-41.9	22.5	0.00e+00	0	41	0	1033895936	56	5648
2026-01-23 15:45:06.97	239.04	29.79	-41.0	-42.0	22.6	0.00e+00	0	41	0	1035993088	56	5710
2026-01-23 15:45:07.98	238.89	29.62	-40.8	-41.8	22.5	0.00e+00	0	41	0	1037041664	54	6265
2026-01-23 15:45:08.99	238.75	29.44	-40.9	-41.9	22.3	0.00e+00	0	41	0	1039138816	54	6387
2026-01-23 15:45:10.00	238.60	29.27	-41.1	-42.1	22.2	0.00e+00	0	41	0	1041235968	54	6508
2026-01-23 15:45:11.01	238.46	29.10	-41.4	-42.5	22.1	0.00e+00	0	41	0	1043333120	54	6830
2026-01-23 15:45:12.02	238.32	28.93	-41.1	-42.2	22.2	0.00e+00	0	41	0	1045430272	54	6556
2026-01-23 15:45:13.03	238.18	28.76	-42.0	-43.1	21.5	0.00e+00	0	41	0	1046478848	56	6539
2026-01-23 15:45:14.04	238.04	28.60	-42.3	-43.4	21.2	0.00e+00	0	41	0	1048576000	56	6767
2026-01-23 15:45:15.05	237.90	28.43	-42.4	-43.6	21.0	0.00e+00	0	41	0	1050673152	56	6903
2026-01-23 15:45:16.06	237.77	28.26	-42.1	-43.3	21.4	0.00e+00	0	41	0	1052770304	56	6630
2026-01-23 15:45:17.06	237.64	28.10	-41.6	-42.6	21.9	0.00e+00	0	41	0	1053818880	56	6164
2026-01-23 15:45:18.07	237.51	27.94	-41.0	-42.0	22.4	0.00e+00	0	41	0	1055916032	56	5708
2026-01-23 15:45:19.08	237.37	27.77	-40.4	-41.4	23.0	0.00e+00	0	41	0	1058013184	56	5320
2026-01-23 15:45:20.09	237.24	27.61	-40.1	-41.0	23.1	0.00e+00	0	41	0	1060110336	54	5707
2026-01-23 15:45:21.10	237.12	27.45	-39.9	-40.8	23.3	0.00e+00	0	41	0	1062207488	52	6277
2026-01-23 15:45:22.11	236.99	27.28	-40.0	-40.8	23.3	0.00e+00	0	41	0	1064304640	52	6317
2026-01-23 15:45:23.12	236.86	27.12	-39.9	-40.8	23.3	0.00e+00	0	41	0	1065353216	52	6311
2026-01-23 15:45:24.12	236.74	26.97	-40.2	-41.1	23.0	0.00e+00	0	41	0	1067450368	52	6539
2026-01-23 15:45:25.13	236.62	26.81	-40.3	-41.3	22.9	0.00e+00	0	41	0	1069547520	52	6622
2026-01-23 15:45:26.14	236.50	26.65	-40.5	-41.5	22.7	0.00e+00	0	41	0	1071644672	52	6787
2026-01-23 15:45:27.15	236.38	26.49	-40.2	-41.1	22.9	0.00e+00	0	41	0	1073741824	52	6504
2026-01-23 15:45:28.16	236.26	26.33	-40.3	-41.2	23.0	0.00e+00	0	41	0	1074790400	52	6607
2026-01-23 15:45:29.17	236.14	26.18	-40.6	-41.5	22.7	0.00e+00	0	41	0	1076887552	52	6834
2026-01-23 15:45:30.18	236.02	26.02	-40.9	-41.9	22.6	0.00e+00	0	41	0	1078984704	52	7123
2026-01-23 15:45:31.19	235.91	25.87	-41.1	-42.1	22.4	0.00e+00	0	41	0	1081081856	54	6525
2026-01-23 15:45:32.20	235.79	25.72	-41.1	-42.2	22.2	0.00e+00	0	41	0	1083179008	54	6561
2026-01-23 15:45:33.21	235.68	25.56	-41.3	-42.4	22.0	0.00e+00	0	41	0	1084227584	54	6705
2026-01-23 15:45:34.22	235.57	25.41	-41.0	-42.0	22.5	0.00e+00	0	41	0	1086324736	54	6419
2026-01-23 15:45:35.23	235.45	25.26	-40.7	-41.7	22.6	0.00e+00	0	41	0	1088421888	54	6212
2026-01-23 15:45:36.24	235.34	25.11	-40.2	-41.1	23.1	0.00e+00	0	41	0	1090519040	54	5823
2026-01-23 15:45:37.25	235.24	24.96	-40.1	-41.0	23.1	0.00e+00	0	41	0	1092616192	54	5743
2026-01-23 15:45:38.26	235.13	24.81	-40.0	-40.9	23.1	0.00e+00	0	41	0	1093664768	54	5651
2026-01-23 15:45:39.27	235.02	24.66	-40.0	-40.9	23.2	0.00e+00	0	41	0	1095761920	52	6337
2026-01-23 15:45:40.28	234.91	24.51	-40.1	-41.0	23.2	0.00e+00	0	41	0	1097859072	52	6420
2026-01-23 15:45:41.29	234.81	24.37	-40.1	-41.0	23.1	0.00e+00	0	41	0	1099956224	52	6395
2026-01-23 15:45:42.30	234.71	24.22	-40.3	-41.2	23.0	0.00e+00	0	41	0	1102053376	52	6608
2026-01-23 15:45:43.30	234.60	24.08	-40.5	-41.5	22.7	0.00e+00	0	41	0	1103101952	52	6779
2026-01-23 15:45:44.31	234.50	23.93	-40.5	-41.4	22.8	0.00e+00	0	41	0	1105199104	52	6762
2026-01-23 15:45:45.32	234.40	23.79	-40.4	-41.4	22.8	0.00e+00	0	41	0	1107296256	52	6705
2026-01-23 15:45:46.33	234.30	23.64	-40.3	-41.2	22.8	0.00e+00	0	41	0	1109393408	52	6590
2026-01-23 15:45:47.34	234.20	23.50	-40.3	-41.2	23.0	0.00e+00	0	41	0	1111490560	52	6596
2026-01-23 15:45:48.35	234.10	23.36	-40.5	-41.4	22.8	0.00e+00	0	41	0	1112539136	52	6752
2026-01-23 15:45:49.36	234.01	23.22	-40.4	-41.4	22.7	0.00e+00	0	41	0	1114636288	52	6698
2026-01-23 15:45:50.37	233.91	23.08	-40.8	-41.7	22.5	0.00e+00	0	41	0	1116733440	52	7003
2026-01-23 15:45:51.38	233.81	22.94	-41.1	-42.2	22.1	0.00e+00	0	41	0	1118830592	54	6542
2026-01-23 15:45:52.39	233.72	22.80	-41.5	-42.5	21.8	0.00e+00	0	41	0	1120927744	54	6835
2026-01-23 15:45:53.40	233.63	22.66	-42.0	-43.1	21.4	0.00e+00	0	41	0	1121976320	56	6537
2026-01-23 15:45:54.41	233.53	22.52	-42.4	-43.6	21.1	0.00e+00	0	41	0	1124073472	56	6879
2026-01-23 15:45:55.42	233.44	22.38	-42.4	-43.6	21.0	0.00e+00	0	41	0	1126170624	56	6880
2026-01-23 15:45:56.43	233.35	22.24	-42.4	-43.6	21.2	0.00e+00	0	41	0	1128267776	56	6883
2026-01-23 15:45:57.44	233.26	22.11	-41.9	-43.0	21.4	0.00e+00	0	41	0	1130364928	56	6439
2026-01-23 15:45:58.45	233.17	21.97	-41.7	-42.7	21.8	0.00e+00	0	41	0	1132462080	56	6239
2026-01-23 15:45:59.46	233.08	21.84	-41.5	-42.6	22.0	0.00e+00	0	41	0	1133510656	56	6106
2026-01-23 15:46:00.47	232.99	21.70	-41.4	-42.4	21.9	0.00e+00	0	41	0	1135607808	56	6023
2026-01-23 15:46:01.48	232.91	21.57	-41.2	-42.2	22.1	0.00e+00	0	41	0	1137704960	56	5878
2026-01-23 15:46:02.49	232.82	21.44	-41.3	-42.3	22.1	0.00e+00	0	41	0	1139802112	56	5925
2026-01-23 15:46:03.50	232.73	21.31	-41.4	-42.5	22.0	0.00e+00	0	41	0	1141899264	56	6040
2026-01-23 15:46:04.51	232.65	21.17	-41.8	-42.9	21.6	0.00e+00	0	41	0	1142947840	56	6343
2026-01-23 15:46:05.52	232.56	21.04	-42.0	-43.2	21.4	0.00e+00	0	41	0	1145044992	56	6544
2026-01-23 15:46:06.53	232.48	20.91	-42.2	-43.3	21.3	0.00e+00	0	41	0	1147142144	56	6651
2026-01-23 15:46:07.54	232.40	20.78	-42.0	-43.1	21.4	0.00e+00	0	41	0	1149239296	56	6510
2026-01-23 15:46:08.55	232.32	20.65	-42.2	-43.3	21.2	0.00e+00	0	41	0	1151336448	56	6654
2026-01-23 15:46:09.56	232.23	20.52	-42.4	-43.5	21.1	0.00e+00	0	41	0	1152385024	56	6831
2026-01-23 15:46:10.57	232.15	20.40	-41.5	-42.5	21.8	0.00e+00	0	41	0	1154482176	56	6095
2026-01-23 15:46:11.58	232.07	20.27	-41.3	-42.3	22.1	0.00e+00	0	41	0	1156579328	56	5945
2026-01-23 15:46:12.58	232.00	20.14	-41.0	-42.0	22.4	0.00e+00	0	41	0	1158676480	56	5705
2026-01-23 15:46:13.59	231.92	20.02	-40.5	-41.4	22.8	0.00e+00	0	41	0	1160773632	54	6012
2026-01-23 15:46:14.60	231.84	19.89	-40.1	-41.1	23.0	0.00e+00	0	41	0	1161822208	54	5771
2026-01-23 15:46:15.61	231.76	19.77	-40.5	-41.4	22.7	0.00e+00	0	41	0	1163919360	54	6020
2026-01-23 15:46:16.62	231.69	19.64	-40.3	-41.3	22.9	0.00e+00	0	41	0	1166016512	54	5901
2026-01-23 15:46:17.63	231.61	19.52	-40.2	-41.1	22.8	0.00e+00	0	41	0	1168113664	54	5794
2026-01-23 15:46:18.64	231.53	19.39	-40.2	-41.1	23.0	0.00e+00	0	41	0	1170210816	54	5802
2026-01-23 15:46:19.65	231.46	19.27	-40.3	-41.3	22.8	0.00e+00	0	41	0	1171259392	54	5909
2026-01-23 15:46:20.66	231.39	19.15	-40.4	-41.3	22.8	0.00e+00	0	41	0	1173356544	54	5963
2026-01-23 15:46:21.67	231.31	19.03	-40.1	-41.0	23.0	0.00e+00	0	41	0	1175453696	54	5734
2026-01-23 15:46:22.68	231.24	18.90	-40.0	-40.9	23.2	0.00e+00	0	41	0	1177550848	54	5681
2026-01-23 15:46:23.69	231.17	18.78	-40.2	-41.1	22.8	0.00e+00	0	41	0	1179648000	54	5814
2026-01-23 15:46:24.70	231.09	18.66	-40.6	-41.5	22.7	0.00e+00	0	41	0	1180696576	54	6089
2026-01-23 15:46:25.71	231.02	18.54	-40.6	-41.6	22.6	0.00e+00	0	41	0	1182793728	54	6140
2026-01-23 15:46:26.72	230.95	18.43	-41.0	-42.0	22.2	0.00e+00	0	41	0	1184890880	54	6411
2026-01-23 15:46:27.73	230.88	18.31	-41.1	-42.1	22.0	0.00e+00	0	41	0	1186988032	54	6537
2026-01-23 15:46:28.74	230.81	18.19	-41.3	-42.3	21.9	0.00e+00	0	42	0	1189085184	54	6647
2026-01-23 15:46:29.75	230.75	18.07	-41.5	-42.6	21.8	0.00e+00	0	41	0	1190133760	54	6881
2026-01-23 15:46:30.76	230.68	17.95	-41.6	-42.7	21.6	0.00e+00	0	41	0	1192230912	54	6942
2026-01-23 15:46:31.77	230.61	17.84	-41.5	-42.5	21.8	0.00e+00	0	41	0	1194328064	56	6077
2026-01-23 15:46:32.77	230.54	17.72	-41.7	-42.7	21.7	0.00e+00	0	41	0	1196425216	56	6234
2026-01-23 15:46:33.78	230.48	17.61	-41.9	-43.1	21.4	0.00e+00	0	41	0	1198522368	56	6475
2026-01-23 15:46:34.79	230.41	17.49	-41.9	-43.0	21.5	0.00e+00	0	41	0	1199570944	56	6415
2026-01-23 15:46:35.80	230.34	17.38	-41.8	-42.9	21.5	0.00e+00	0	41	0	1201668096	56	6390
