passes_logs/2026/01/23/R4.6S_Anadyr/R4.6S_Anadyr__20260123_014949_SUOMI_NPP_rec.log

#Pass ID: 20260123_014949_SUOMI NPP
#Satellite: SUOMI NPP
#Configuration: NPP
#almurnet v.1.7.20251203
#Start time: 2026-01-23 01:49:52

#Version: 2.2.20231116
#Station: R4.6S_Anadyr
#Location: 177.4865 lon 64.73178 lat
#TLE: 1 37849U 11061A   26022.50498765  .00000208  00000+0  11976-3 0  9992
#TLE: 2 37849  98.7820 324.4892 0002275  50.8149 309.3229 14.19528284737775

#Time	Az	El	Level	Level2	SNR	BER	BlckErr	Temp	State	Recorded	gain1	gain2
2026-01-23 01:49:52.67	195.75	0.17	-51.3	-65.1	3.3	1.54e+00	0	40	0	0	60	65201
2026-01-23 01:49:53.68	195.80	0.23	-51.2	-66.5	3.6	1.51e+00	0	40	104	0	60	76153
2026-01-23 01:49:54.69	195.85	0.28	-51.3	-66.5	3.6	1.51e+00	0	40	104	0	60	76543
2026-01-23 01:49:55.70	195.90	0.34	-51.3	-66.6	3.6	1.51e+00	0	40	104	0	60	76955
2026-01-23 01:49:56.71	195.95	0.40	-51.3	-66.5	3.5	1.51e+00	0	40	104	0	60	76828
2026-01-23 01:49:57.72	196.00	0.45	-51.3	-66.6	3.6	1.51e+00	0	40	104	0	60	77185
2026-01-23 01:49:58.73	196.05	0.51	-51.2	-66.6	3.6	1.51e+00	0	40	104	0	60	77225
2026-01-23 01:49:59.74	196.10	0.57	-51.2	-66.6	3.6	1.51e+00	0	40	104	0	60	77081
2026-01-23 01:50:00.75	196.15	0.62	-51.3	-66.5	3.5	1.51e+00	0	40	104	0	60	76834
2026-01-23 01:50:01.75	196.20	0.68	-51.3	-66.6	3.6	1.51e+00	0	40	104	0	60	77150
2026-01-23 01:50:02.76	196.26	0.74	-51.3	-66.5	3.6	1.51e+00	0	40	104	0	60	76425
2026-01-23 01:50:03.77	196.31	0.80	-51.3	-66.5	3.6	1.51e+00	0	40	104	0	60	76431
2026-01-23 01:50:04.78	196.36	0.85	-51.2	-66.4	3.6	1.51e+00	0	40	104	0	60	75876
2026-01-23 01:50:05.79	196.41	0.91	-51.2	-66.4	3.6	1.51e+00	0	40	104	0	60	75773
2026-01-23 01:50:06.80	196.47	0.97	-51.1	-66.3	3.6	1.51e+00	0	40	104	0	60	74849
2026-01-23 01:50:07.81	196.52	1.03	-51.0	-66.2	3.6	1.51e+00	0	40	104	0	60	73916
2026-01-23 01:50:08.82	196.57	1.08	-50.9	-66.1	3.6	1.51e+00	0	40	104	0	60	72708
2026-01-23 01:50:09.83	196.63	1.14	-50.8	-65.9	3.6	1.51e+00	0	40	104	0	60	71660
2026-01-23 01:50:10.84	196.68	1.20	-50.6	-65.8	3.6	1.51e+00	0	40	104	0	60	70693
2026-01-23 01:50:11.85	196.73	1.26	-50.4	-65.7	3.6	1.51e+00	0	40	104	0	60	69352
2026-01-23 01:50:12.86	196.79	1.32	-50.0	-65.3	3.6	1.51e+00	0	40	104	0	60	66282
2026-01-23 01:50:13.87	196.84	1.37	-49.9	-65.1	3.6	1.51e+00	0	40	104	0	60	65397
2026-01-23 01:50:14.88	196.89	1.43	-49.9	-65.2	3.6	1.51e+00	0	40	104	0	60	65548
2026-01-23 01:50:15.89	196.95	1.49	-49.9	-65.2	3.6	1.51e+00	0	40	104	0	60	65466
2026-01-23 01:50:16.90	197.00	1.55	-49.9	-65.1	3.6	1.51e+00	0	40	104	0	60	64915
2026-01-23 01:50:17.91	197.06	1.61	-49.9	-65.1	3.6	1.51e+00	0	40	104	0	60	65394
2026-01-23 01:50:18.92	197.11	1.67	-49.9	-65.1	3.6	1.51e+00	0	40	104	0	60	65353
2026-01-23 01:50:19.93	197.17	1.73	-49.9	-65.2	3.5	1.51e+00	0	40	104	0	60	65563
2026-01-23 01:50:20.94	197.22	1.78	-49.9	-65.1	3.6	1.51e+00	0	40	104	0	60	65153
2026-01-23 01:50:21.95	197.28	1.84	-49.9	-65.0	3.6	1.51e+00	0	40	104	0	60	64646
2026-01-23 01:50:22.96	197.34	1.90	-49.9	-65.1	3.6	1.51e+00	0	40	104	0	60	65167
2026-01-23 01:50:23.97	197.39	1.96	-49.9	-65.0	3.6	1.51e+00	0	40	104	0	60	64370
2026-01-23 01:50:24.98	197.45	2.02	-49.9	-65.1	3.6	1.51e+00	0	40	104	0	60	64931
2026-01-23 01:50:25.99	197.50	2.08	-49.9	-65.1	3.6	1.51e+00	0	40	104	0	60	64912
2026-01-23 01:50:27.00	197.56	2.14	-49.9	-65.1	3.6	1.51e+00	0	40	104	0	60	65226
2026-01-23 01:50:28.01	197.62	2.20	-49.9	-65.1	3.6	1.51e+00	0	40	104	0	60	64888
2026-01-23 01:50:29.03	197.68	2.26	-49.9	-65.1	3.6	1.51e+00	0	40	104	0	60	64881
2026-01-23 01:50:30.04	197.73	2.32	-49.9	-65.1	3.6	1.51e+00	0	40	104	0	60	64960
2026-01-23 01:50:31.05	197.79	2.38	-49.9	-65.1	3.6	1.51e+00	0	40	104	0	60	65273
2026-01-23 01:50:32.05	197.85	2.44	-49.9	-65.1	3.6	1.51e+00	0	40	104	0	60	65234
2026-01-23 01:50:33.06	197.91	2.50	-49.9	-64.9	3.6	1.51e+00	0	40	104	0	60	63873
2026-01-23 01:50:34.07	197.96	2.56	-49.9	-64.5	3.6	1.51e+00	0	40	104	0	60	60946
2026-01-23 01:50:35.09	198.02	2.62	-49.9	-64.1	3.6	1.51e+00	0	40	104	0	60	58018
2026-01-23 01:50:36.09	198.08	2.68	-49.9	-63.8	3.6	1.51e+00	0	40	104	0	60	55828
2026-01-23 01:50:37.11	198.14	2.74	-49.9	-64.0	3.6	1.51e+00	0	40	104	0	60	57488
2026-01-23 01:50:38.12	198.20	2.80	-49.9	-64.6	3.6	1.51e+00	0	40	104	0	60	61563
2026-01-23 01:50:39.12	198.26	2.86	-49.9	-64.6	3.6	1.51e+00	0	40	104	0	60	61242
2026-01-23 01:50:40.13	198.32	2.92	-49.8	-63.1	3.6	1.51e+00	0	40	104	0	60	51653
2026-01-23 01:50:41.14	198.38	2.99	-49.6	-59.8	4.9	1.07e+00	64	40	104	0	60	35247
2026-01-23 01:50:42.15	198.44	3.05	-49.1	-55.9	7.4	2.92e-01	92	41	0	1048576	60	22626
2026-01-23 01:50:43.17	198.50	3.11	-48.6	-54.0	9.9	4.92e-02	0	40	0	3145728	60	18109
2026-01-23 01:50:44.18	198.56	3.17	-48.1	-52.8	11.0	2.71e-03	92	40	0	4194304	60	15747
2026-01-23 01:50:45.19	198.62	3.23	-47.7	-51.7	12.3	1.29e-03	0	41	0	6291456	60	13981
2026-01-23 01:50:46.20	198.68	3.29	-47.2	-50.7	13.3	1.08e-04	90	41	0	8388608	60	12413
2026-01-23 01:50:47.21	198.74	3.36	-47.3	-50.9	13.0	6.71e-05	46	41	0	10485760	60	12706
2026-01-23 01:50:48.22	198.80	3.42	-49.6	-59.3	4.2	9.22e-01	92	41	0	11534336	60	33169
2026-01-23 01:50:49.22	198.87	3.48	-48.8	-54.4	8.7	6.29e-01	92	41	0	13631488	60	19068
2026-01-23 01:50:50.23	198.93	3.54	-49.8	-62.3	3.7	4.90e-02	0	41	104	14680064	60	46917
2026-01-23 01:50:51.24	198.99	3.60	-49.8	-64.3	3.6	1.51e+00	0	41	104	14680064	60	59378
2026-01-23 01:50:52.25	199.05	3.67	-45.3	-47.6	15.9	1.48e+00	0	41	104	14680064	60	8665
2026-01-23 01:50:53.26	199.12	3.73	-45.7	-48.3	16.0	0.00e+00	92	41	0	14680064	60	9349
2026-01-23 01:50:54.27	199.18	3.79	-45.3	-47.5	16.6	0.00e+00	0	41	0	16777216	60	8582
2026-01-23 01:50:55.28	199.24	3.85	-45.0	-47.1	16.8	0.00e+00	92	41	0	18874368	60	8201
2026-01-23 01:50:56.29	199.31	3.92	-45.4	-47.7	16.4	0.00e+00	92	41	0	20971520	60	8778
2026-01-23 01:50:57.30	199.37	3.98	-44.7	-46.7	17.3	0.00e+00	0	41	0	23068672	60	7847
2026-01-23 01:50:58.31	199.43	4.04	-44.9	-46.9	17.3	0.00e+00	92	41	0	24117248	60	8011
2026-01-23 01:50:59.32	199.50	4.10	-44.6	-46.5	17.6	0.00e+00	0	41	0	26214400	60	7678
2026-01-23 01:51:00.33	199.56	4.17	-44.5	-46.4	17.7	0.00e+00	92	41	0	28311552	60	7520
2026-01-23 01:51:01.33	199.63	4.23	-44.5	-46.3	17.7	0.00e+00	0	41	0	30408704	60	7502
2026-01-23 01:51:02.34	199.69	4.29	-43.9	-45.6	18.3	0.00e+00	92	41	0	32505856	60	6899
2026-01-23 01:51:03.35	199.76	4.36	-44.4	-46.2	17.8	0.00e+00	76	41	0	33554432	60	7399
2026-01-23 01:51:04.36	199.82	4.42	-44.4	-46.3	17.8	0.00e+00	57	41	0	35651584	60	7497
2026-01-23 01:51:05.37	199.89	4.49	-44.2	-46.1	17.7	0.00e+00	92	41	0	37748736	60	7270
2026-01-23 01:51:06.38	199.95	4.55	-43.8	-45.5	18.3	0.00e+00	0	41	0	39845888	60	6816
2026-01-23 01:51:07.39	200.02	4.61	-44.0	-45.8	18.0	0.00e+00	92	41	0	41943040	60	7067
2026-01-23 01:51:08.40	200.09	4.68	-44.0	-45.8	18.2	0.00e+00	0	41	0	42991616	60	7015
2026-01-23 01:51:09.41	200.15	4.74	-44.2	-46.0	18.0	0.00e+00	92	41	0	45088768	60	7219
2026-01-23 01:51:10.42	200.22	4.81	-44.2	-46.0	17.9	0.00e+00	34	40	0	47185920	60	7240
2026-01-23 01:51:11.43	200.29	4.87	-43.9	-45.6	18.2	0.00e+00	92	41	0	49283072	60	6907
2026-01-23 01:51:12.44	200.36	4.94	-44.0	-45.8	18.0	0.00e+00	92	41	0	51380224	60	7039
2026-01-23 01:51:13.45	200.43	5.00	-43.9	-45.7	18.0	0.00e+00	0	41	0	52428800	60	6985
2026-01-23 01:51:14.46	200.49	5.07	-43.8	-45.5	18.3	0.00e+00	92	41	0	54525952	60	6805
2026-01-23 01:51:15.47	200.56	5.13	-43.6	-45.3	18.7	0.00e+00	0	41	0	56623104	60	6626
2026-01-23 01:51:16.48	200.63	5.20	-43.8	-45.5	18.6	0.00e+00	92	41	0	58720256	60	6775
2026-01-23 01:51:17.49	200.70	5.26	-44.1	-45.8	18.2	0.00e+00	49	41	0	60817408	60	7044
2026-01-23 01:51:18.49	200.77	5.33	-44.1	-45.8	18.7	0.00e+00	92	41	0	61865984	60	7030
2026-01-23 01:51:19.50	200.84	5.39	-43.7	-45.2	19.0	0.00e+00	92	41	0	63963136	60	6610
2026-01-23 01:51:20.51	200.91	5.46	-44.0	-45.6	18.8	0.00e+00	0	41	0	66060288	60	6853
2026-01-23 01:51:21.52	200.98	5.52	-43.8	-45.3	19.0	0.00e+00	92	41	0	68157440	60	6686
2026-01-23 01:51:22.53	201.05	5.59	-43.8	-45.3	18.9	0.00e+00	0	41	0	70254592	60	6679
2026-01-23 01:51:23.54	201.12	5.66	-43.7	-45.2	19.0	0.00e+00	92	41	0	71303168	60	6582
2026-01-23 01:51:24.55	201.19	5.72	-43.7	-45.2	19.0	0.00e+00	17	41	0	73400320	60	6597
2026-01-23 01:51:25.56	201.27	5.79	-43.6	-45.1	19.0	0.00e+00	92	41	0	75497472	60	6535
2026-01-23 01:51:26.57	201.34	5.86	-43.6	-45.2	19.1	0.00e+00	92	41	0	77594624	60	6547
2026-01-23 01:51:27.58	201.41	5.92	-43.8	-45.5	18.8	0.00e+00	0	41	0	79691776	60	6790
2026-01-23 01:51:28.59	201.48	5.99	-43.9	-45.6	18.8	0.00e+00	92	41	0	80740352	60	6864
2026-01-23 01:51:29.60	201.55	6.06	-43.7	-45.3	19.1	0.00e+00	0	41	0	82837504	60	6625
2026-01-23 01:51:30.61	201.63	6.12	-44.0	-45.6	18.8	0.00e+00	92	41	0	84934656	60	6861
2026-01-23 01:51:31.62	201.70	6.19	-43.8	-45.3	19.2	0.00e+00	0	41	0	87031808	60	6664
2026-01-23 01:51:32.63	201.78	6.26	-43.4	-44.9	19.6	0.00e+00	92	41	0	89128960	60	6323
2026-01-23 01:51:33.64	201.85	6.33	-43.5	-45.0	19.6	0.00e+00	92	41	0	91226112	60	6400
2026-01-23 01:51:34.65	201.92	6.39	-43.7	-45.2	19.3	0.00e+00	0	41	0	92274688	60	6568
2026-01-23 01:51:35.65	202.00	6.46	-43.4	-44.9	19.8	0.00e+00	65	41	0	94371840	60	6342
2026-01-23 01:51:36.66	202.07	6.53	-43.2	-44.5	19.7	0.00e+00	0	41	0	96468992	60	6097
2026-01-23 01:51:37.67	202.15	6.60	-43.4	-44.9	19.8	0.00e+00	92	41	0	98566144	60	6321
2026-01-23 01:51:38.68	202.23	6.66	-43.6	-45.1	19.5	0.00e+00	0	41	0	99614720	60	6467
2026-01-23 01:51:39.69	202.30	6.73	-43.5	-45.0	19.6	0.00e+00	92	41	0	101711872	60	6391
2026-01-23 01:51:40.70	202.38	6.80	-43.5	-44.9	19.6	0.00e+00	92	41	0	103809024	60	6367
2026-01-23 01:51:41.71	202.46	6.87	-43.2	-44.6	19.8	0.00e+00	0	41	0	105906176	60	6123
2026-01-23 01:51:42.72	202.53	6.94	-43.2	-44.5	20.0	0.00e+00	90	41	0	108003328	60	6080
2026-01-23 01:51:43.73	202.61	7.01	-43.0	-44.4	20.0	0.00e+00	0	41	0	110100480	60	5996
2026-01-23 01:51:44.74	202.69	7.08	-43.2	-44.6	19.8	0.00e+00	92	41	0	111149056	58	6865
2026-01-23 01:51:45.75	202.77	7.15	-42.6	-43.9	20.4	0.00e+00	0	41	0	113246208	58	6362
2026-01-23 01:51:46.76	202.85	7.21	-43.4	-44.8	19.6	0.00e+00	92	41	0	115343360	58	7079
2026-01-23 01:51:47.77	202.92	7.28	-43.4	-44.8	19.6	0.00e+00	45	41	0	117440512	58	7048
2026-01-23 01:51:48.77	203.00	7.35	-43.6	-45.1	19.6	0.00e+00	92	41	0	119537664	58	7256
2026-01-23 01:51:49.78	203.08	7.42	-42.9	-44.3	20.2	0.00e+00	92	41	0	120586240	58	6634
2026-01-23 01:51:50.79	203.16	7.49	-43.1	-44.5	20.0	0.00e+00	0	41	0	122683392	58	6776
2026-01-23 01:51:51.80	203.24	7.56	-43.1	-44.5	20.1	0.00e+00	91	41	0	124780544	58	6785
2026-01-23 01:51:52.81	203.32	7.63	-42.9	-44.2	20.1	0.00e+00	0	41	0	126877696	58	6597
2026-01-23 01:51:53.82	203.41	7.70	-42.9	-44.2	20.2	0.00e+00	92	41	0	128974848	58	6566
2026-01-23 01:51:54.83	203.49	7.77	-43.3	-44.7	20.0	0.00e+00	0	41	0	130023424	58	6931
2026-01-23 01:51:55.84	203.57	7.84	-42.9	-44.2	20.3	0.00e+00	92	41	0	132120576	58	6574
2026-01-23 01:51:56.85	203.65	7.92	-42.7	-44.0	20.5	0.00e+00	92	41	0	134217728	58	6408
2026-01-23 01:51:57.86	203.73	7.99	-42.8	-44.1	20.5	0.00e+00	0	41	0	136314880	58	6471
2026-01-23 01:51:58.87	203.82	8.06	-43.0	-44.3	20.1	0.00e+00	90	41	0	138412032	58	6643
2026-01-23 01:51:59.88	203.90	8.13	-42.8	-44.1	20.4	0.00e+00	0	41	0	139460608	58	6526
2026-01-23 01:52:00.89	203.98	8.20	-42.8	-44.1	20.3	0.00e+00	91	41	0	141557760	58	6539
2026-01-23 01:52:01.89	204.07	8.27	-42.8	-44.1	20.4	0.00e+00	0	41	0	143654912	58	6516
2026-01-23 01:52:02.90	204.15	8.34	-42.7	-43.9	20.6	0.00e+00	79	41	0	145752064	58	6386
2026-01-23 01:52:03.91	204.24	8.41	-42.5	-43.8	20.6	0.00e+00	90	41	0	147849216	58	6271
2026-01-23 01:52:04.92	204.32	8.49	-42.4	-43.6	20.8	0.00e+00	0	41	0	148897792	58	6127
2026-01-23 01:52:05.93	204.41	8.56	-42.5	-43.8	20.7	0.00e+00	92	41	0	150994944	58	6265
2026-01-23 01:52:06.94	204.50	8.63	-42.5	-43.7	20.7	0.00e+00	0	41	0	153092096	58	6239
2026-01-23 01:52:07.95	204.58	8.70	-42.5	-43.7	20.8	0.00e+00	92	41	0	155189248	58	6241
2026-01-23 01:52:08.96	204.67	8.78	-42.4	-43.6	21.0	0.00e+00	0	41	0	157286400	58	6165
2026-01-23 01:52:09.97	204.76	8.85	-42.3	-43.5	21.0	0.00e+00	92	41	0	158334976	58	6063
2026-01-23 01:52:10.98	204.84	8.92	-42.1	-43.2	21.2	0.00e+00	92	41	0	160432128	58	5893
2026-01-23 01:52:11.99	204.93	9.00	-42.1	-43.3	21.1	0.00e+00	0	41	0	162529280	58	5932
2026-01-23 01:52:13.00	205.02	9.07	-42.0	-43.2	21.4	0.00e+00	90	41	0	164626432	58	5861
2026-01-23 01:52:14.01	205.11	9.14	-42.0	-43.1	21.3	0.00e+00	0	41	0	166723584	58	5818
2026-01-23 01:52:15.02	205.20	9.22	-41.9	-43.0	21.5	0.00e+00	90	41	0	167772160	58	5722
2026-01-23 01:52:16.03	205.29	9.29	-41.8	-43.0	21.4	0.00e+00	0	41	0	169869312	56	6401
2026-01-23 01:52:17.04	205.38	9.36	-41.7	-42.8	21.6	0.00e+00	91	41	0	171966464	56	6271
2026-01-23 01:52:18.05	205.47	9.44	-41.6	-42.7	21.7	0.00e+00	91	41	0	174063616	56	6227
2026-01-23 01:52:19.06	205.56	9.51	-41.7	-42.8	21.7	0.00e+00	0	41	0	176160768	56	6303
2026-01-23 01:52:20.07	205.66	9.59	-41.5	-42.6	21.9	0.00e+00	92	41	0	177209344	56	6140
2026-01-23 01:52:21.08	205.75	9.66	-41.7	-42.8	21.6	0.00e+00	0	41	0	179306496	56	6281
2026-01-23 01:52:22.08	205.84	9.73	-41.6	-42.7	21.8	0.00e+00	92	41	0	181403648	56	6230
2026-01-23 01:52:23.09	205.93	9.81	-41.3	-42.4	22.0	0.00e+00	0	41	0	183500800	56	5977
2026-01-23 01:52:24.10	206.03	9.88	-41.4	-42.5	21.9	0.00e+00	92	41	0	185597952	56	6077
2026-01-23 01:52:25.11	206.12	9.96	-41.2	-42.3	22.0	0.00e+00	67	41	0	187695104	56	5908
2026-01-23 01:52:26.12	206.22	10.04	-41.4	-42.4	22.0	0.00e+00	77	41	0	188743680	56	6012
2026-01-23 01:52:27.13	206.31	10.11	-41.3	-42.4	22.1	0.00e+00	92	41	0	190840832	56	5990
2026-01-23 01:52:28.14	206.41	10.19	-41.2	-42.2	22.3	0.00e+00	0	41	0	192937984	56	5859
2026-01-23 01:52:29.15	206.50	10.26	-41.0	-42.0	22.3	0.00e+00	69	41	0	195035136	56	5752
2026-01-23 01:52:30.16	206.60	10.34	-41.1	-42.1	22.1	0.00e+00	0	41	0	197132288	56	5821
2026-01-23 01:52:31.17	206.70	10.41	-41.0	-42.0	22.3	0.00e+00	92	41	0	198180864	56	5712
2026-01-23 01:52:32.18	206.79	10.49	-40.6	-41.6	22.3	0.00e+00	46	41	0	200278016	54	6135
2026-01-23 01:52:33.19	206.89	10.57	-40.8	-41.8	22.4	0.00e+00	79	41	0	202375168	54	6264
2026-01-23 01:52:34.20	206.99	10.64	-40.7	-41.7	22.5	0.00e+00	92	41	0	204472320	54	6203
2026-01-23 01:52:35.20	207.09	10.72	-40.7	-41.7	22.5	0.00e+00	0	41	0	206569472	54	6188
2026-01-23 01:52:36.21	207.19	10.80	-40.8	-41.8	22.4	0.00e+00	92	41	0	207618048	54	6303
2026-01-23 01:52:37.22	207.29	10.87	-40.8	-41.8	22.5	0.00e+00	0	41	0	209715200	54	6298
2026-01-23 01:52:38.22	207.39	10.95	-41.1	-42.2	22.2	0.00e+00	92	41	0	211812352	54	6543
2026-01-23 01:52:39.23	207.49	11.03	-40.7	-41.7	22.6	0.00e+00	9	41	0	213909504	54	6231
2026-01-23 01:52:40.24	207.59	11.11	-40.9	-41.9	22.3	0.00e+00	91	41	0	216006656	54	6380
2026-01-23 01:52:41.25	207.69	11.18	-41.0	-42.0	22.3	0.00e+00	92	41	0	217055232	54	6433
2026-01-23 01:52:42.26	207.79	11.26	-40.9	-42.0	22.4	0.00e+00	0	41	0	219152384	54	6396
2026-01-23 01:52:43.27	207.90	11.34	-41.0	-42.0	22.3	0.00e+00	92	41	0	221249536	54	6434
2026-01-23 01:52:44.28	208.00	11.42	-41.3	-42.4	22.0	0.00e+00	0	41	0	223346688	54	6721
2026-01-23 01:52:45.29	208.10	11.50	-41.0	-42.1	22.2	0.00e+00	92	41	0	225443840	54	6476
2026-01-23 01:52:46.30	208.21	11.58	-41.3	-42.4	22.0	0.00e+00	17	41	0	226492416	54	6699
2026-01-23 01:52:47.31	208.31	11.65	-41.2	-42.3	22.1	0.00e+00	90	41	0	228589568	54	6639
2026-01-23 01:52:48.32	208.42	11.73	-41.3	-42.3	22.1	0.00e+00	91	41	0	230686720	54	6665
2026-01-23 01:52:49.33	208.52	11.81	-41.2	-42.3	22.1	0.00e+00	0	41	0	232783872	54	6633
2026-01-23 01:52:50.34	208.63	11.89	-41.1	-42.2	22.2	0.00e+00	91	41	0	234881024	54	6549
2026-01-23 01:52:51.35	208.74	11.97	-41.1	-42.2	22.3	0.00e+00	0	41	0	235929600	54	6545
2026-01-23 01:52:52.36	208.85	12.05	-40.9	-42.0	22.4	0.00e+00	92	41	0	238026752	54	6399
2026-01-23 01:52:53.37	208.96	12.13	-40.8	-41.8	22.6	0.00e+00	0	41	0	240123904	54	6304
2026-01-23 01:52:54.38	209.06	12.21	-40.6	-41.5	22.7	0.00e+00	92	41	0	242221056	54	6085
2026-01-23 01:52:55.39	209.17	12.29	-40.6	-41.6	22.7	0.00e+00	92	41	0	244318208	54	6104
2026-01-23 01:52:56.40	209.28	12.37	-40.4	-41.4	22.9	0.00e+00	0	41	0	245366784	54	5975
2026-01-23 01:52:57.41	209.39	12.45	-40.4	-41.4	22.8	0.00e+00	92	41	0	247463936	54	5991
2026-01-23 01:52:58.42	209.51	12.53	-40.3	-41.2	23.0	0.00e+00	0	41	0	249561088	54	5866
2026-01-23 01:52:59.43	209.62	12.61	-40.4	-41.3	22.9	0.00e+00	90	41	0	251658240	54	5937
2026-01-23 01:53:00.44	209.73	12.70	-40.4	-41.4	22.9	0.00e+00	0	41	0	253755392	54	5977
2026-01-23 01:53:01.45	209.84	12.78	-40.2	-41.1	23.0	0.00e+00	92	41	0	255852544	54	5821
2026-01-23 01:53:02.46	209.96	12.86	-40.5	-41.5	22.8	0.00e+00	91	41	0	256901120	54	6061
2026-01-23 01:53:03.47	210.07	12.94	-40.5	-41.4	22.7	0.00e+00	92	41	0	258998272	54	6027
2026-01-23 01:53:04.48	210.19	13.02	-40.6	-41.5	22.7	0.00e+00	92	41	0	261095424	54	6084
2026-01-23 01:53:05.49	210.30	13.10	-40.4	-41.4	22.9	0.00e+00	0	41	0	263192576	54	5981
2026-01-23 01:53:06.49	210.42	13.18	-40.4	-41.3	22.9	0.00e+00	92	41	0	265289728	54	5946
2026-01-23 01:53:07.50	210.53	13.27	-40.3	-41.3	22.9	0.00e+00	0	41	0	266338304	54	5911
2026-01-23 01:53:08.51	210.65	13.35	-40.4	-41.4	22.7	0.00e+00	91	41	0	268435456	54	5975
2026-01-23 01:53:09.52	210.77	13.43	-40.8	-41.8	22.6	0.00e+00	44	41	0	270532608	54	6271
2026-01-23 01:53:10.53	210.89	13.51	-40.7	-41.7	22.6	0.00e+00	90	41	0	272629760	54	6224
2026-01-23 01:53:11.54	211.01	13.60	-40.7	-41.7	22.6	0.00e+00	92	41	0	274726912	54	6214
2026-01-23 01:53:12.55	211.13	13.68	-40.9	-42.0	22.5	0.00e+00	0	41	0	275775488	54	6398
2026-01-23 01:53:13.56	211.25	13.76	-41.1	-42.1	22.3	0.00e+00	91	41	0	277872640	54	6518
2026-01-23 01:53:14.57	211.37	13.85	-41.1	-42.1	22.3	0.00e+00	0	41	0	279969792	54	6529
2026-01-23 01:53:15.58	211.49	13.93	-41.2	-42.3	22.1	0.00e+00	91	41	0	282066944	54	6637
2026-01-23 01:53:16.59	211.61	14.02	-41.2	-42.3	22.1	0.00e+00	0	41	0	284164096	54	6649
2026-01-23 01:53:17.60	211.74	14.10	-41.2	-42.3	22.3	0.00e+00	92	41	0	285212672	54	6620
2026-01-23 01:53:18.61	211.86	14.18	-41.2	-42.2	22.2	0.00e+00	92	41	0	287309824	54	6611
2026-01-23 01:53:19.62	211.99	14.27	-41.0	-42.0	22.5	0.00e+00	0	41	0	289406976	54	6431
2026-01-23 01:53:20.63	212.11	14.35	-40.9	-41.9	22.4	0.00e+00	85	41	0	291504128	54	6374
2026-01-23 01:53:21.64	212.24	14.44	-40.8	-41.8	22.6	0.00e+00	0	41	0	293601280	54	6276
2026-01-23 01:53:22.65	212.36	14.52	-40.6	-41.5	22.8	0.00e+00	91	41	0	294649856	54	6081
2026-01-23 01:53:23.66	212.49	14.61	-40.5	-41.5	22.7	0.00e+00	0	41	0	296747008	54	6049
2026-01-23 01:53:24.67	212.62	14.69	-40.8	-41.8	22.6	0.00e+00	92	41	0	298844160	54	6248
2026-01-23 01:53:25.68	212.75	14.78	-40.7	-41.6	22.7	0.00e+00	92	41	0	300941312	54	6145
2026-01-23 01:53:26.69	212.88	14.86	-40.9	-41.9	22.5	0.00e+00	0	41	0	303038464	54	6369
2026-01-23 01:53:27.70	213.01	14.95	-41.0	-42.0	22.5	0.00e+00	88	41	0	304087040	54	6453
2026-01-23 01:53:28.71	213.14	15.03	-41.2	-42.2	22.3	0.00e+00	0	41	0	306184192	54	6554
2026-01-23 01:53:29.72	213.27	15.12	-41.3	-42.3	22.3	0.00e+00	92	41	0	308281344	54	6654
2026-01-23 01:53:30.73	213.40	15.21	-41.3	-42.3	22.2	0.00e+00	0	41	0	310378496	54	6679
2026-01-23 01:53:31.74	213.54	15.29	-41.2	-42.2	22.3	0.00e+00	90	41	0	312475648	54	6604
2026-01-23 01:53:32.75	213.67	15.38	-41.3	-42.3	22.3	0.00e+00	92	41	0	313524224	54	6660
2026-01-23 01:53:33.75	213.80	15.47	-41.3	-42.4	22.1	0.00e+00	37	41	0	315621376	54	6718
2026-01-23 01:53:34.76	213.94	15.55	-41.2	-42.3	22.3	0.00e+00	91	41	0	317718528	54	6625
2026-01-23 01:53:35.77	214.08	15.64	-41.1	-42.1	22.4	0.00e+00	0	41	0	319815680	54	6480
2026-01-23 01:53:36.78	214.21	15.73	-41.1	-42.1	22.3	0.00e+00	92	41	0	321912832	54	6491
2026-01-23 01:53:37.79	214.35	15.81	-41.2	-42.3	21.9	0.00e+00	0	41	0	324009984	54	6624
2026-01-23 01:53:38.80	214.49	15.90	-41.1	-42.1	22.5	0.00e+00	92	41	0	325058560	54	6469
2026-01-23 01:53:39.81	214.63	15.99	-41.1	-42.1	22.4	0.00e+00	0	41	0	327155712	54	6509
2026-01-23 01:53:40.82	214.77	16.08	-41.1	-42.1	22.4	0.00e+00	82	41	0	329252864	54	6491
2026-01-23 01:53:41.83	214.91	16.17	-41.2	-42.2	22.3	0.00e+00	92	41	0	331350016	54	6596
2026-01-23 01:53:42.84	215.05	16.25	-41.2	-42.3	22.2	0.00e+00	0	41	0	333447168	54	6623
2026-01-23 01:53:43.85	215.19	16.34	-41.4	-42.4	22.2	0.00e+00	92	41	0	334495744	54	6743
2026-01-23 01:53:44.86	215.34	16.43	-41.6	-42.6	22.1	0.00e+00	0	41	0	336592896	54	6916
2026-01-23 01:53:45.87	215.48	16.52	-41.3	-42.3	22.2	0.00e+00	89	41	0	338690048	54	6683
2026-01-23 01:53:46.88	215.63	16.61	-41.5	-42.6	22.0	0.00e+00	49	41	0	340787200	54	6881
2026-01-23 01:53:47.89	215.77	16.70	-41.5	-42.6	22.1	0.00e+00	84	41	0	342884352	54	6851
2026-01-23 01:53:48.90	215.92	16.79	-41.6	-42.7	21.8	0.00e+00	92	41	0	343932928	54	6962
2026-01-23 01:53:49.91	216.07	16.87	-41.8	-42.9	21.8	0.00e+00	0	41	0	346030080	56	6378
2026-01-23 01:53:50.92	216.21	16.96	-41.7	-42.7	21.9	0.00e+00	91	41	0	348127232	56	6219
2026-01-23 01:53:51.93	216.36	17.05	-41.8	-42.9	21.8	0.00e+00	0	41	0	350224384	56	6325
2026-01-23 01:53:52.93	216.51	17.14	-41.9	-43.0	21.8	0.00e+00	84	41	0	352321536	56	6421
2026-01-23 01:53:53.94	216.66	17.23	-41.8	-42.9	22.0	0.00e+00	0	41	0	353370112	56	6340
2026-01-23 01:53:54.95	216.81	17.32	-41.6	-42.6	22.1	0.00e+00	92	41	0	355467264	56	6170
2026-01-23 01:53:55.96	216.97	17.41	-41.7	-42.7	22.0	0.00e+00	91	41	0	357564416	56	6245
2026-01-23 01:53:56.97	217.12	17.50	-41.6	-42.7	22.1	0.00e+00	0	41	0	359661568	56	6176
2026-01-23 01:53:57.98	217.27	17.59	-41.4	-42.5	22.2	0.00e+00	92	41	0	361758720	56	6047
2026-01-23 01:53:58.99	217.43	17.68	-41.5	-42.6	22.1	0.00e+00	0	41	0	362807296	56	6133
2026-01-23 01:54:00.00	217.59	17.77	-41.4	-42.4	22.2	0.00e+00	92	41	0	364904448	56	5997
2026-01-23 01:54:01.00	217.74	17.86	-41.1	-42.1	22.4	0.00e+00	0	41	0	367001600	56	5768
2026-01-23 01:54:02.01	217.90	17.95	-41.3	-42.3	22.3	0.00e+00	90	41	0	369098752	56	5928
2026-01-23 01:54:03.02	218.06	18.05	-41.3	-42.3	22.3	0.00e+00	38	41	0	371195904	56	5944
2026-01-23 01:54:04.03	218.22	18.14	-41.1	-42.1	22.4	0.00e+00	0	41	0	372244480	56	5768
2026-01-23 01:54:05.04	218.38	18.23	-41.1	-42.1	22.6	0.00e+00	92	41	0	374341632	56	5784
2026-01-23 01:54:06.05	218.54	18.32	-41.0	-41.9	22.7	0.00e+00	0	41	0	376438784	56	5683
2026-01-23 01:54:07.06	218.70	18.41	-40.9	-41.9	22.6	0.00e+00	48	41	0	378535936	56	5677
2026-01-23 01:54:08.07	218.87	18.50	-40.9	-41.9	22.7	0.00e+00	0	41	0	380633088	54	6323
2026-01-23 01:54:09.08	219.03	18.59	-40.6	-41.6	22.9	0.00e+00	92	41	0	381681664	54	6111
2026-01-23 01:54:10.09	219.20	18.69	-40.5	-41.4	22.9	0.00e+00	92	41	0	383778816	54	5999
2026-01-23 01:54:11.10	219.36	18.78	-40.6	-41.6	22.8	0.00e+00	47	41	0	385875968	54	6110
2026-01-23 01:54:12.11	219.53	18.87	-40.7	-41.6	22.9	0.00e+00	92	41	0	387973120	54	6153
2026-01-23 01:54:13.12	219.70	18.96	-40.8	-41.8	22.7	0.00e+00	0	41	0	390070272	54	6264
2026-01-23 01:54:14.12	219.87	19.05	-40.8	-41.8	22.7	0.00e+00	92	41	0	391118848	54	6254
2026-01-23 01:54:15.14	220.04	19.15	-40.6	-41.5	22.9	0.00e+00	0	41	0	393216000	54	6101
2026-01-23 01:54:16.15	220.21	19.24	-40.5	-41.4	23.0	0.00e+00	91	41	0	395313152	54	6001
2026-01-23 01:54:17.16	220.38	19.33	-40.3	-41.3	23.1	0.00e+00	52	41	0	397410304	54	5909
2026-01-23 01:54:18.17	220.56	19.42	-40.3	-41.3	23.1	0.00e+00	91	41	0	399507456	54	5916
2026-01-23 01:54:19.18	220.73	19.52	-40.3	-41.2	23.2	0.00e+00	92	41	0	400556032	54	5883
2026-01-23 01:54:20.19	220.91	19.61	-40.2	-41.1	23.0	0.00e+00	0	41	0	402653184	54	5771
2026-01-23 01:54:21.20	221.08	19.70	-40.4	-41.3	23.1	0.00e+00	90	41	0	404750336	54	5918
2026-01-23 01:54:22.21	221.26	19.80	-40.3	-41.3	22.9	0.00e+00	0	41	0	406847488	54	5917
2026-01-23 01:54:23.22	221.44	19.89	-40.5	-41.4	22.9	0.00e+00	90	41	0	408944640	54	6022
2026-01-23 01:54:24.23	221.62	19.98	-40.5	-41.4	23.0	0.00e+00	0	41	0	409993216	54	6024
2026-01-23 01:54:25.24	221.80	20.07	-40.3	-41.2	23.1	0.00e+00	92	41	0	412090368	54	5877
2026-01-23 01:54:26.25	221.98	20.17	-40.4	-41.3	23.0	0.00e+00	92	41	0	414187520	54	5929
2026-01-23 01:54:27.26	222.17	20.26	-40.1	-41.0	23.3	0.00e+00	0	41	0	416284672	54	5700
2026-01-23 01:54:28.27	222.35	20.35	-40.0	-40.9	23.3	0.00e+00	80	41	0	418381824	54	5684
2026-01-23 01:54:29.28	222.54	20.45	-40.1	-41.0	23.3	0.00e+00	0	41	0	420478976	54	5713
2026-01-23 01:54:30.28	222.72	20.54	-39.9	-40.8	23.5	0.00e+00	92	41	0	421527552	54	5589
2026-01-23 01:54:31.29	222.91	20.63	-40.1	-41.0	23.4	0.00e+00	17	41	0	423624704	54	5707
2026-01-23 01:54:32.30	223.10	20.73	-39.9	-40.8	23.3	0.00e+00	92	41	0	425721856	54	5615
2026-01-23 01:54:33.31	223.29	20.82	-39.8	-40.7	23.5	0.00e+00	91	41	0	427819008	54	5550
2026-01-23 01:54:34.32	223.48	20.91	-39.7	-40.6	23.5	0.00e+00	0	41	0	429916160	54	5458
2026-01-23 01:54:35.33	223.67	21.01	-39.9	-40.8	23.6	0.00e+00	92	41	0	430964736	52	6267
2026-01-23 01:54:36.34	223.86	21.10	-40.0	-40.8	23.5	0.00e+00	0	41	0	433061888	52	6313
2026-01-23 01:54:37.35	224.06	21.20	-39.7	-40.6	23.7	0.00e+00	83	41	0	435159040	52	6107
2026-01-23 01:54:38.35	224.25	21.29	-39.5	-40.3	23.8	0.00e+00	0	41	0	437256192	52	5955
2026-01-23 01:54:39.36	224.45	21.38	-39.4	-40.3	23.8	0.00e+00	92	41	0	439353344	52	5926
2026-01-23 01:54:40.37	224.64	21.48	-39.4	-40.2	24.0	0.00e+00	49	41	0	440401920	52	5879
2026-01-23 01:54:41.38	224.84	21.57	-39.4	-40.3	23.9	0.00e+00	1	41	0	442499072	52	5935
2026-01-23 01:54:42.39	225.04	21.66	-39.3	-40.1	24.0	0.00e+00	92	41	0	444596224	52	5798
2026-01-23 01:54:43.41	225.24	21.76	-39.3	-40.1	24.1	0.00e+00	0	41	0	446693376	52	5812
2026-01-23 01:54:44.41	225.44	21.85	-39.0	-39.9	24.1	0.00e+00	88	41	0	448790528	52	5653
2026-01-23 01:54:45.42	225.65	21.95	-38.9	-39.7	24.4	0.00e+00	0	41	0	449839104	52	5519
2026-01-23 01:54:46.43	225.85	22.04	-38.9	-39.7	24.4	0.00e+00	92	41	0	451936256	52	5521
2026-01-23 01:54:47.44	226.06	22.13	-38.8	-39.6	24.3	0.00e+00	45	41	0	454033408	50	6162
2026-01-23 01:54:48.45	226.27	22.23	-39.0	-39.8	24.2	0.00e+00	92	41	0	456130560	50	6269
2026-01-23 01:54:49.46	226.47	22.32	-38.9	-39.8	24.3	0.00e+00	92	41	0	458227712	50	6250
2026-01-23 01:54:50.47	226.68	22.41	-39.1	-39.9	24.2	0.00e+00	0	41	0	459276288	50	6360
2026-01-23 01:54:51.48	226.89	22.51	-39.0	-39.8	24.2	0.00e+00	92	41	0	461373440	50	6299
2026-01-23 01:54:52.49	227.11	22.60	-39.4	-40.2	24.0	0.00e+00	0	41	0	463470592	50	6595
2026-01-23 01:54:53.50	227.32	22.69	-39.4	-40.3	23.8	0.00e+00	92	41	0	465567744	50	6635
2026-01-23 01:54:54.51	227.53	22.79	-39.8	-40.7	23.6	0.00e+00	46	41	0	467664896	50	6937
2026-01-23 01:54:55.52	227.75	22.88	-40.1	-41.0	23.4	0.00e+00	92	41	0	468713472	52	6454
2026-01-23 01:54:56.53	227.97	22.97	-40.3	-41.2	23.3	0.00e+00	90	41	0	470810624	52	6579
2026-01-23 01:54:57.54	228.19	23.07	-40.4	-41.3	23.2	0.00e+00	0	41	0	472907776	52	6689
2026-01-23 01:54:58.55	228.41	23.16	-40.4	-41.3	23.1	0.00e+00	90	41	0	475004928	52	6659
2026-01-23 01:54:59.56	228.63	23.25	-40.1	-41.0	23.4	0.00e+00	0	41	0	477102080	52	6459
2026-01-23 01:55:00.57	228.85	23.35	-40.1	-40.9	23.5	0.00e+00	88	41	0	478150656	52	6387
2026-01-23 01:55:01.58	229.07	23.44	-40.1	-41.0	23.4	0.00e+00	0	41	0	480247808	52	6448
2026-01-23 01:55:02.59	229.30	23.53	-39.8	-40.6	23.7	0.00e+00	91	41	0	482344960	52	6157
2026-01-23 01:55:03.60	229.52	23.63	-39.9	-40.7	23.5	0.00e+00	92	41	0	484442112	52	6233
2026-01-23 01:55:04.61	229.75	23.72	-39.9	-40.8	23.5	0.00e+00	0	41	0	486539264	52	6277
2026-01-23 01:55:05.62	229.98	23.81	-39.9	-40.8	23.6	0.00e+00	92	41	0	488636416	52	6284
2026-01-23 01:55:06.63	230.21	23.90	-39.9	-40.8	23.5	0.00e+00	0	41	0	489684992	52	6296
2026-01-23 01:55:07.64	230.44	23.99	-39.9	-40.8	23.7	0.00e+00	90	41	0	491782144	52	6253
2026-01-23 01:55:08.65	230.67	24.09	-39.7	-40.6	23.7	0.00e+00	0	41	0	493879296	52	6126
2026-01-23 01:55:09.66	230.91	24.18	-39.8	-40.7	23.7	0.00e+00	92	41	0	495976448	52	6226
2026-01-23 01:55:10.67	231.14	24.27	-39.7	-40.6	23.7	0.00e+00	46	41	0	498073600	52	6144
2026-01-23 01:55:11.68	231.38	24.36	-40.0	-40.8	23.6	0.00e+00	0	41	0	499122176	52	6312
2026-01-23 01:55:12.69	231.62	24.45	-39.8	-40.7	23.7	0.00e+00	90	41	0	501219328	52	6185
2026-01-23 01:55:13.69	231.85	24.54	-39.6	-40.4	24.0	0.00e+00	0	41	0	503316480	52	6006
2026-01-23 01:55:14.70	232.09	24.63	-39.5	-40.3	24.0	0.00e+00	92	41	0	505413632	52	5929
2026-01-23 01:55:15.71	232.34	24.72	-39.2	-40.1	24.2	0.00e+00	0	41	0	507510784	52	5775
2026-01-23 01:55:16.72	232.58	24.81	-39.3	-40.1	24.1	0.00e+00	92	41	0	508559360	52	5791
2026-01-23 01:55:17.73	232.82	24.90	-39.2	-40.1	24.1	0.00e+00	47	41	0	510656512	52	5765
2026-01-23 01:55:18.74	233.07	24.99	-39.2	-40.1	24.3	0.00e+00	0	41	0	512753664	52	5785
2026-01-23 01:55:19.75	233.32	25.08	-39.3	-40.2	24.0	0.00e+00	91	41	0	514850816	52	5830
2026-01-23 01:55:20.76	233.57	25.17	-39.2	-40.1	23.9	0.00e+00	0	41	0	516947968	52	5773
2026-01-23 01:55:21.77	233.82	25.26	-39.5	-40.4	24.0	0.00e+00	71	41	0	517996544	52	5973
2026-01-23 01:55:22.78	234.07	25.35	-39.7	-40.6	23.8	0.00e+00	0	41	0	520093696	52	6112
2026-01-23 01:55:23.79	234.32	25.44	-40.3	-41.3	23.3	0.00e+00	92	41	0	522190848	52	6627
2026-01-23 01:55:24.80	234.57	25.53	-40.6	-41.6	23.0	0.00e+00	53	41	0	524288000	52	6859
2026-01-23 01:55:25.81	234.83	25.62	-40.7	-41.6	22.9	0.00e+00	59	41	0	526385152	54	6170
2026-01-23 01:55:26.82	235.09	25.70	-40.2	-41.1	23.4	0.00e+00	92	41	0	527433728	54	5825
2026-01-23 01:55:27.83	235.35	25.79	-40.2	-41.1	23.5	0.00e+00	0	41	0	529530880	54	5764
2026-01-23 01:55:28.84	235.61	25.88	-40.1	-41.0	23.4	0.00e+00	86	41	0	531628032	54	5702
2026-01-23 01:55:29.85	235.87	25.96	-39.9	-40.8	23.6	0.00e+00	0	41	0	533725184	52	6292
2026-01-23 01:55:30.86	236.13	26.05	-39.7	-40.6	23.8	0.00e+00	92	41	0	535822336	52	6137
2026-01-23 01:55:31.87	236.39	26.14	-39.9	-40.7	23.5	0.00e+00	0	41	0	536870912	52	6244
2026-01-23 01:55:32.88	236.66	26.22	-39.9	-40.8	23.6	0.00e+00	90	41	0	538968064	52	6251
2026-01-23 01:55:33.89	236.93	26.31	-40.0	-40.8	23.5	0.00e+00	92	41	0	541065216	52	6311
2026-01-23 01:55:34.90	237.19	26.39	-39.8	-40.7	23.7	0.00e+00	0	41	0	543162368	52	6213
2026-01-23 01:55:35.90	237.46	26.48	-39.9	-40.8	23.8	0.00e+00	66	41	0	545259520	52	6293
2026-01-23 01:55:36.91	237.73	26.56	-40.2	-41.1	23.5	0.00e+00	0	42	0	546308096	52	6505
2026-01-23 01:55:37.92	238.00	26.64	-40.1	-41.0	23.5	0.00e+00	89	41	0	548405248	52	6451
2026-01-23 01:55:38.93	238.28	26.73	-40.0	-40.9	23.6	0.00e+00	0	41	0	550502400	52	6369
2026-01-23 01:55:39.94	238.55	26.81	-40.0	-40.8	23.7	0.00e+00	92	41	0	552599552	52	6305
2026-01-23 01:55:40.95	238.83	26.89	-39.9	-40.7	23.7	0.00e+00	90	41	0	554696704	52	6237
2026-01-23 01:55:41.96	239.11	26.98	-39.8	-40.6	23.8	0.00e+00	0	41	0	556793856	52	6156
2026-01-23 01:55:42.97	239.39	27.06	-39.7	-40.5	23.3	0.00e+00	92	41	0	557842432	52	6103
2026-01-23 01:55:43.98	239.67	27.14	-39.8	-40.7	23.7	0.00e+00	0	41	0	559939584	52	6211
2026-01-23 01:55:44.99	239.95	27.22	-40.2	-41.1	23.4	0.00e+00	60	41	0	562036736	52	6491
2026-01-23 01:55:46.00	240.23	27.30	-40.4	-41.3	23.4	0.00e+00	0	41	0	564133888	52	6638
2026-01-23 01:55:47.01	240.52	27.38	-40.4	-41.3	23.3	0.00e+00	90	41	0	566231040	52	6636
2026-01-23 01:55:48.02	240.81	27.46	-40.5	-41.4	23.2	0.00e+00	89	41	0	567279616	52	6731
2026-01-23 01:55:49.03	241.09	27.54	-40.6	-41.5	23.2	0.00e+00	0	41	0	569376768	52	6844
2026-01-23 01:55:50.04	241.38	27.61	-40.6	-41.6	23.1	0.00e+00	92	41	0	571473920	52	6854
2026-01-23 01:55:51.05	241.67	27.69	-40.6	-41.6	23.2	0.00e+00	0	41	0	573571072	52	6851
2026-01-23 01:55:52.05	241.96	27.77	-40.3	-41.2	23.3	0.00e+00	51	41	0	575668224	52	6588
2026-01-23 01:55:53.06	242.26	27.84	-40.3	-41.2	23.3	0.00e+00	0	41	0	576716800	52	6567
2026-01-23 01:55:54.07	242.55	27.92	-39.9	-40.8	23.7	0.00e+00	88	41	0	578813952	52	6253
2026-01-23 01:55:55.08	242.85	27.99	-40.0	-40.9	23.5	0.00e+00	28	41	0	580911104	52	6381
2026-01-23 01:55:56.09	243.14	28.07	-40.1	-41.0	23.5	0.00e+00	23	41	0	583008256	52	6441
2026-01-23 01:55:57.10	243.44	28.14	-40.0	-40.9	23.7	0.00e+00	92	41	0	585105408	52	6363
2026-01-23 01:55:58.11	243.74	28.21	-40.2	-41.1	23.5	0.00e+00	0	41	0	586153984	52	6505
2026-01-23 01:55:59.12	244.04	28.29	-40.3	-41.2	23.4	0.00e+00	92	42	0	588251136	52	6545
2026-01-23 01:56:00.13	244.35	28.36	-40.4	-41.3	23.5	0.00e+00	0	41	0	590348288	52	6633
2026-01-23 01:56:01.14	244.65	28.43	-40.7	-41.7	23.0	0.00e+00	92	42	0	592445440	52	6952
2026-01-23 01:56:02.15	244.96	28.50	-41.3	-42.3	22.5	0.00e+00	71	41	0	594542592	54	6630
2026-01-23 01:56:03.16	245.26	28.57	-41.6	-42.6	22.2	0.00e+00	89	41	0	595591168	54	6887
2026-01-23 01:56:04.17	245.57	28.64	-41.5	-42.5	22.4	0.00e+00	92	41	0	597688320	54	6798
2026-01-23 01:56:05.17	245.88	28.71	-40.9	-41.8	22.9	0.00e+00	33	41	0	599785472	54	6283
2026-01-23 01:56:06.18	246.19	28.78	-40.5	-41.4	23.2	0.00e+00	92	41	0	601882624	54	6028
2026-01-23 01:56:07.19	246.50	28.84	-40.4	-41.3	23.4	0.00e+00	0	42	0	603979776	54	5911
2026-01-23 01:56:08.20	246.81	28.91	-40.4	-41.3	23.1	0.00e+00	92	41	0	605028352	54	5960
2026-01-23 01:56:09.21	247.13	28.97	-41.0	-42.0	22.7	0.00e+00	0	41	0	607125504	54	6395
2026-01-23 01:56:10.22	247.44	29.04	-41.3	-42.3	22.6	0.00e+00	92	41	0	609222656	54	6652
2026-01-23 01:56:11.23	247.76	29.10	-41.5	-42.5	22.3	0.00e+00	92	41	0	611319808	54	6798
2026-01-23 01:56:12.24	248.08	29.17	-41.3	-42.3	22.5	0.00e+00	0	41	0	613416960	54	6655
2026-01-23 01:56:13.25	248.40	29.23	-41.0	-42.0	22.7	0.00e+00	91	41	0	614465536	54	6423
2026-01-23 01:56:14.26	248.72	29.29	-40.9	-41.8	22.7	0.00e+00	0	41	0	616562688	54	6302
2026-01-23 01:56:15.27	249.04	29.35	-41.2	-42.2	22.5	0.00e+00	90	41	0	618659840	54	6597
2026-01-23 01:56:16.27	249.36	29.41	-41.5	-42.5	22.4	0.00e+00	0	41	0	620756992	54	6813
2026-01-23 01:56:17.28	249.68	29.47	-41.6	-42.6	22.2	0.00e+00	92	41	0	622854144	54	6913
2026-01-23 01:56:18.29	250.01	29.53	-41.8	-42.8	22.2	0.00e+00	91	41	0	624951296	56	6273
2026-01-23 01:56:19.30	250.33	29.58	-42.2	-43.2	21.9	0.00e+00	0	41	0	625999872	56	6595
2026-01-23 01:56:20.31	250.66	29.64	-42.6	-43.7	21.5	0.00e+00	91	41	0	628097024	56	7001
2026-01-23 01:56:21.32	250.99	29.69	-43.1	-44.3	20.9	0.00e+00	0	41	0	630194176	58	6623
2026-01-23 01:56:22.33	251.32	29.75	-43.4	-44.7	20.6	0.00e+00	92	41	0	632291328	58	6986
2026-01-23 01:56:23.34	251.65	29.80	-43.1	-44.4	20.9	0.00e+00	0	41	0	634388480	58	6697
2026-01-23 01:56:24.35	251.98	29.86	-43.3	-44.6	20.8	0.00e+00	92	41	0	635437056	58	6857
2026-01-23 01:56:25.36	252.31	29.91	-42.4	-43.5	21.5	0.00e+00	92	42	0	637534208	58	6078
2026-01-23 01:56:26.37	252.65	29.96	-42.3	-43.4	21.7	0.00e+00	0	41	0	639631360	58	5977
2026-01-23 01:56:27.37	252.98	30.01	-42.6	-43.7	21.5	0.00e+00	92	41	0	641728512	58	6186
2026-01-23 01:56:28.38	253.32	30.06	-42.9	-44.0	21.2	0.00e+00	0	41	0	643825664	58	6464
2026-01-23 01:56:29.40	253.66	30.10	-43.2	-44.4	20.9	0.00e+00	91	42	0	644874240	58	6767
2026-01-23 01:56:30.40	253.99	30.15	-43.4	-44.6	20.6	0.00e+00	0	41	0	646971392	58	6909
2026-01-23 01:56:31.41	254.33	30.20	-43.2	-44.5	20.8	0.00e+00	92	41	0	649068544	58	6786
2026-01-23 01:56:32.42	254.67	30.24	-43.1	-44.4	21.0	0.00e+00	46	41	0	651165696	58	6698
2026-01-23 01:56:33.43	255.01	30.29	-42.3	-43.4	21.7	0.00e+00	92	41	0	653262848	58	5990
2026-01-23 01:56:34.44	255.35	30.33	-42.1	-43.1	22.0	0.00e+00	92	41	0	654311424	58	5805
2026-01-23 01:56:35.45	255.69	30.37	-41.8	-42.8	22.2	0.00e+00	0	42	0	656408576	56	6288
2026-01-23 01:56:36.46	256.04	30.41	-42.1	-43.1	21.9	0.00e+00	92	41	0	658505728	56	6512
2026-01-23 01:56:37.47	256.38	30.45	-42.7	-43.9	21.1	0.00e+00	0	42	0	660602880	58	6347
2026-01-23 01:56:38.48	256.72	30.49	-43.0	-44.2	20.9	0.00e+00	92	42	0	662700032	58	6605
2026-01-23 01:56:39.49	257.07	30.53	-42.8	-44.0	21.3	0.00e+00	47	42	0	663748608	58	6420
2026-01-23 01:56:40.50	257.42	30.56	-42.6	-43.8	21.3	0.00e+00	92	42	0	665845760	58	6246
2026-01-23 01:56:41.51	257.76	30.60	-42.0	-43.0	22.0	0.00e+00	92	42	0	667942912	58	5748
2026-01-23 01:56:42.51	258.11	30.63	-42.0	-43.1	22.1	0.00e+00	0	42	0	670040064	58	5784
2026-01-23 01:56:43.52	258.46	30.67	-42.0	-43.0	22.0	0.00e+00	66	42	0	672137216	58	5735
2026-01-23 01:56:44.53	258.81	30.70	-41.6	-42.6	22.4	0.00e+00	0	42	0	673185792	56	6107
2026-01-23 01:56:45.54	259.16	30.73	-41.4	-42.3	22.7	0.00e+00	75	42	0	675282944	56	5956
2026-01-23 01:56:46.55	259.51	30.76	-40.6	-41.5	23.1	0.00e+00	0	42	0	677380096	54	6045
2026-01-23 01:56:47.56	259.86	30.79	-40.7	-41.7	23.0	0.00e+00	92	42	0	679477248	54	6180
2026-01-23 01:56:48.57	260.21	30.82	-41.2	-42.1	22.6	0.00e+00	92	42	0	681574400	54	6534
2026-01-23 01:56:49.58	260.56	30.84	-41.8	-42.9	22.1	0.00e+00	0	42	0	682622976	56	6345
2026-01-23 01:56:50.59	260.91	30.87	-41.7	-42.7	22.3	0.00e+00	49	42	0	684720128	56	6237
2026-01-23 01:56:51.60	261.27	30.89	-41.7	-42.7	22.4	0.00e+00	0	41	0	686817280	56	6184
2026-01-23 01:56:52.61	261.62	30.91	-41.6	-42.6	22.5	0.00e+00	95	41	0	688914432	56	6133
2026-01-23 01:56:53.62	261.98	30.94	-41.3	-42.3	22.7	0.00e+00	0	41	0	691011584	56	5927
2026-01-23 01:56:54.62	262.33	30.96	-41.2	-42.1	22.9	0.00e+00	92	42	0	692060160	56	5810
2026-01-23 01:56:55.63	262.68	30.98	-40.8	-41.8	23.1	0.00e+00	92	42	0	694157312	56	5586
2026-01-23 01:56:56.64	263.04	30.99	-40.1	-41.0	23.5	0.00e+00	0	42	0	696254464	54	5742
2026-01-23 01:56:57.65	263.39	31.01	-39.8	-40.7	23.8	0.00e+00	92	42	0	698351616	54	5525
2026-01-23 01:56:58.66	263.75	31.03	-39.9	-40.7	23.8	0.00e+00	0	42	0	700448768	52	6207
2026-01-23 01:56:59.67	264.11	31.04	-39.8	-40.7	23.8	0.00e+00	77	42	0	701497344	52	6193
2026-01-23 01:57:00.67	264.46	31.06	-40.3	-41.1	23.5	0.00e+00	33	42	0	703594496	52	6537
2026-01-23 01:57:01.68	264.82	31.07	-40.9	-41.8	22.8	0.00e+00	90	42	0	705691648	52	7046
2026-01-23 01:57:02.69	265.18	31.08	-41.3	-42.3	22.6	0.00e+00	90	42	0	707788800	54	6621
2026-01-23 01:57:03.70	265.53	31.09	-41.4	-42.4	22.4	0.00e+00	0	42	0	709885952	54	6727
2026-01-23 01:57:04.71	265.89	31.10	-41.9	-42.9	22.2	0.00e+00	92	42	0	710934528	56	6355
2026-01-23 01:57:05.72	266.25	31.11	-42.0	-43.1	22.1	0.00e+00	0	41	0	713031680	56	6488
2026-01-23 01:57:06.73	266.61	31.11	-41.9	-43.0	22.1	0.00e+00	74	41	0	715128832	56	6394
2026-01-23 01:57:07.74	266.97	31.12	-41.8	-42.8	22.1	0.00e+00	0	42	0	717225984	56	6303
2026-01-23 01:57:08.75	267.32	31.12	-42.0	-43.1	21.8	0.00e+00	91	42	0	719323136	56	6487
2026-01-23 01:57:09.76	267.68	31.12	-42.1	-43.2	21.8	0.00e+00	91	42	0	721420288	56	6584
2026-01-23 01:57:10.77	268.04	31.13	-42.1	-43.1	22.0	0.00e+00	28	41	0	722468864	56	6510
2026-01-23 01:57:11.78	268.40	31.13	-41.6	-42.6	22.3	0.00e+00	91	42	0	724566016	56	6138
2026-01-23 01:57:12.78	268.75	31.13	-41.0	-41.9	22.9	0.00e+00	0	42	0	726663168	56	5691
2026-01-23 01:57:13.79	269.11	31.12	-41.0	-41.9	23.0	0.00e+00	63	42	0	728760320	56	5681
2026-01-23 01:57:14.80	269.47	31.12	-41.2	-42.1	22.7	0.00e+00	0	41	0	730857472	56	5817
2026-01-23 01:57:15.81	269.83	31.12	-41.0	-41.9	22.9	0.00e+00	92	42	0	731906048	56	5666
2026-01-23 01:57:16.82	270.19	31.11	-40.9	-41.9	23.0	0.00e+00	53	41	0	734003200	56	5638
2026-01-23 01:57:17.83	270.55	31.10	-40.7	-41.6	23.1	0.00e+00	0	42	0	736100352	54	6146
2026-01-23 01:57:18.85	270.91	31.10	-40.6	-41.5	23.1	0.00e+00	92	42	0	738197504	54	6043
2026-01-23 01:57:19.85	271.26	31.09	-40.7	-41.6	23.1	0.00e+00	0	42	0	740294656	54	6139
2026-01-23 01:57:20.86	271.62	31.08	-40.7	-41.6	22.8	0.00e+00	55	42	0	741343232	54	6151
2026-01-23 01:57:21.87	271.98	31.06	-41.2	-42.2	22.5	0.00e+00	0	42	0	743440384	54	6570
2026-01-23 01:57:22.88	272.33	31.05	-41.7	-42.7	22.2	0.00e+00	92	42	0	745537536	54	6976
2026-01-23 01:57:23.89	272.69	31.04	-41.7	-42.7	22.3	0.00e+00	0	42	0	747634688	56	6243
2026-01-23 01:57:24.90	273.05	31.02	-41.5	-42.5	22.4	0.00e+00	54	42	0	749731840	56	6057
2026-01-23 01:57:25.91	273.40	31.00	-41.8	-42.8	22.2	0.00e+00	90	42	0	750780416	56	6270
2026-01-23 01:57:26.92	273.76	30.99	-42.4	-43.5	21.8	0.00e+00	0	42	0	752877568	56	6775
2026-01-23 01:57:27.93	274.11	30.97	-42.4	-43.5	21.5	0.00e+00	73	42	0	754974720	56	6828
2026-01-23 01:57:28.94	274.47	30.95	-42.5	-43.6	21.6	0.00e+00	0	42	0	757071872	56	6908
2026-01-23 01:57:29.95	274.82	30.93	-41.9	-43.0	22.3	0.00e+00	92	42	0	759169024	56	6417
2026-01-23 01:57:30.96	275.18	30.90	-41.3	-42.2	22.8	0.00e+00	0	42	0	760217600	56	5892
2026-01-23 01:57:31.97	275.53	30.88	-41.2	-42.2	22.6	0.00e+00	90	42	0	762314752	56	5867
2026-01-23 01:57:32.97	275.88	30.86	-41.5	-42.5	22.4	0.00e+00	92	42	0	764411904	56	6077
2026-01-23 01:57:33.99	276.23	30.83	-41.9	-42.9	22.3	0.00e+00	0	42	0	766509056	56	6382
2026-01-23 01:57:35.00	276.59	30.80	-41.8	-42.8	22.2	0.00e+00	64	42	0	768606208	56	6290
2026-01-23 01:57:36.01	276.94	30.78	-41.6	-42.6	22.4	0.00e+00	0	42	0	769654784	56	6169
2026-01-23 01:57:37.02	277.29	30.75	-41.1	-42.1	22.8	0.00e+00	56	42	0	771751936	56	5792
2026-01-23 01:57:38.03	277.64	30.72	-41.1	-42.1	22.6	0.00e+00	0	42	0	773849088	56	5801
2026-01-23 01:57:39.04	277.99	30.69	-41.0	-41.9	22.9	0.00e+00	92	42	0	775946240	56	5687
2026-01-23 01:57:40.04	278.33	30.65	-41.5	-42.5	22.5	0.00e+00	92	42	0	778043392	56	6044
2026-01-23 01:57:41.05	278.68	30.62	-41.9	-42.9	22.2	0.00e+00	0	42	0	779091968	56	6364
2026-01-23 01:57:42.06	279.03	30.58	-42.2	-43.3	21.7	0.00e+00	79	42	0	781189120	56	6648
2026-01-23 01:57:43.07	279.37	30.55	-42.5	-43.7	21.6	0.00e+00	0	41	0	783286272	56	6928
2026-01-23 01:57:44.08	279.72	30.51	-42.6	-43.7	21.5	0.00e+00	92	42	0	785383424	56	6988
2026-01-23 01:57:45.09	280.06	30.47	-42.8	-44.0	21.1	0.00e+00	0	42	0	787480576	58	6414
2026-01-23 01:57:46.10	280.41	30.43	-42.8	-43.9	21.1	0.00e+00	92	42	0	789577728	58	6386
2026-01-23 01:57:47.11	280.75	30.39	-43.0	-44.2	21.2	0.00e+00	0	42	0	790626304	58	6581
2026-01-23 01:57:48.12	281.09	30.35	-42.4	-43.5	21.6	0.00e+00	0	42	0	792723456	58	6075
2026-01-23 01:57:49.13	281.43	30.31	-42.1	-43.1	22.0	0.00e+00	90	42	0	794820608	58	5815
2026-01-23 01:57:50.14	281.77	30.27	-42.1	-43.2	21.9	0.00e+00	33	42	0	796917760	58	5839
2026-01-23 01:57:51.14	282.11	30.22	-42.5	-43.6	21.5	0.00e+00	85	42	0	799014912	58	6137
2026-01-23 01:57:52.15	282.45	30.18	-43.0	-44.2	21.0	0.00e+00	0	42	0	800063488	58	6609
2026-01-23 01:57:53.16	282.79	30.13	-43.6	-44.9	20.4	0.00e+00	92	42	0	802160640	58	7143
2026-01-23 01:57:54.17	283.12	30.09	-44.0	-45.3	20.1	0.00e+00	33	42	0	804257792	60	6661
2026-01-23 01:57:55.18	283.46	30.04	-44.2	-45.6	19.7	0.00e+00	6	42	0	806354944	60	6918
2026-01-23 01:57:56.19	283.79	29.99	-44.6	-46.1	19.5	0.00e+00	91	42	0	808452096	60	7259
2026-01-23 01:57:57.20	284.13	29.94	-44.6	-46.1	19.4	0.00e+00	0	42	0	809500672	60	7312
2026-01-23 01:57:58.21	284.46	29.89	-45.0	-46.7	18.5	0.00e+00	90	42	0	811597824	60	7830
2026-01-23 01:57:59.22	284.79	29.84	-45.1	-46.8	19.0	0.00e+00	0	41	0	813694976	60	7921
2026-01-23 01:58:00.23	285.12	29.78	-44.1	-45.6	20.0	0.00e+00	90	42	0	815792128	60	6852
2026-01-23 01:58:01.24	285.45	29.73	-43.4	-44.6	20.7	0.00e+00	0	42	0	817889280	60	6169
2026-01-23 01:58:02.25	285.78	29.67	-42.9	-44.1	21.1	0.00e+00	19	42	0	818937856	60	5814
2026-01-23 01:58:03.26	286.11	29.62	-43.5	-44.9	20.5	0.00e+00	91	42	0	821035008	60	6321
2026-01-23 01:58:04.27	286.43	29.56	-43.7	-45.0	20.2	0.00e+00	33	42	0	823132160	60	6464
2026-01-23 01:58:05.28	286.76	29.51	-43.5	-44.8	20.5	0.00e+00	92	42	0	825229312	60	6292
2026-01-23 01:58:06.28	287.08	29.45	-43.0	-44.3	21.1	0.00e+00	0	42	0	827326464	60	5897
2026-01-23 01:58:07.29	287.40	29.39	-42.7	-43.9	21.4	0.00e+00	92	42	0	828375040	60	5680
2026-01-23 01:58:08.30	287.72	29.33	-42.2	-43.3	21.8	0.00e+00	0	42	0	830472192	58	5906
2026-01-23 01:58:09.31	288.04	29.27	-42.5	-43.6	21.5	0.00e+00	92	42	0	832569344	58	6121
2026-01-23 01:58:10.32	288.36	29.21	-42.1	-43.1	21.9	0.00e+00	92	42	0	834666496	58	5799
2026-01-23 01:58:11.33	288.68	29.14	-42.5	-43.6	21.6	0.00e+00	0	42	0	836763648	58	6172
2026-01-23 01:58:12.34	289.00	29.08	-42.5	-43.6	21.6	0.00e+00	77	42	0	837812224	58	6160
2026-01-23 01:58:13.35	289.31	29.02	-42.4	-43.4	21.7	0.00e+00	0	42	0	839909376	58	6030
2026-01-23 01:58:14.36	289.63	28.95	-42.0	-43.0	22.1	0.00e+00	92	42	0	842006528	58	5739
2026-01-23 01:58:15.37	289.94	28.89	-41.5	-42.5	22.5	0.00e+00	0	42	0	844103680	56	6076
2026-01-23 01:58:16.38	290.25	28.82	-41.5	-42.5	22.4	0.00e+00	92	42	0	846200832	56	6080
2026-01-23 01:58:17.39	290.56	28.75	-41.6	-42.6	22.4	0.00e+00	46	42	0	847249408	56	6162
2026-01-23 01:58:18.40	290.87	28.69	-41.8	-42.9	22.2	0.00e+00	0	42	0	849346560	56	6323
2026-01-23 01:58:19.41	291.18	28.62	-42.0	-43.0	22.1	0.00e+00	92	42	0	851443712	56	6451
2026-01-23 01:58:20.42	291.48	28.55	-42.1	-43.1	22.0	0.00e+00	0	42	0	853540864	56	6501
2026-01-23 01:58:21.43	291.79	28.48	-42.1	-43.2	21.9	0.00e+00	92	42	0	855638016	56	6545
2026-01-23 01:58:22.44	292.09	28.41	-42.9	-44.0	21.1	0.00e+00	0	42	0	857735168	56	7240
2026-01-23 01:58:23.45	292.40	28.34	-43.1	-44.3	20.9	0.00e+00	92	42	0	858783744	58	6683
2026-01-23 01:58:24.46	292.70	28.27	-43.4	-44.7	20.4	0.00e+00	46	42	0	860880896	58	6929
2026-01-23 01:58:25.47	293.00	28.19	-43.8	-45.1	20.3	0.00e+00	0	42	0	862978048	60	6537
2026-01-23 01:58:26.48	293.30	28.12	-43.7	-45.0	20.4	0.00e+00	91	42	0	865075200	60	6441
2026-01-23 01:58:27.49	293.59	28.05	-43.4	-44.6	20.7	0.00e+00	0	42	0	867172352	60	6151
2026-01-23 01:58:28.50	293.89	27.97	-42.7	-43.8	21.3	0.00e+00	92	42	0	868220928	58	6271
2026-01-23 01:58:29.51	294.18	27.90	-42.7	-43.8	21.4	0.00e+00	0	42	0	870318080	58	6308
2026-01-23 01:58:30.52	294.48	27.82	-42.9	-44.1	21.1	0.00e+00	92	42	0	872415232	58	6488
2026-01-23 01:58:31.53	294.77	27.75	-43.5	-44.8	20.4	0.00e+00	0	42	0	874512384	58	7051
2026-01-23 01:58:32.53	295.06	27.67	-44.3	-45.8	19.7	0.00e+00	20	42	0	876609536	60	7013
2026-01-23 01:58:33.54	295.34	27.59	-44.4	-45.9	19.6	0.00e+00	92	42	0	877658112	60	7128
2026-01-23 01:58:34.55	295.63	27.51	-44.0	-45.4	20.0	0.00e+00	0	42	0	879755264	60	6709
2026-01-23 01:58:35.56	295.92	27.44	-44.1	-45.5	19.9	0.00e+00	92	42	0	881852416	60	6785
2026-01-23 01:58:36.57	296.20	27.36	-44.3	-45.7	19.7	0.00e+00	0	42	0	883949568	60	6973
2026-01-23 01:58:37.58	296.49	27.28	-44.3	-45.7	19.8	0.00e+00	92	42	0	886046720	60	6978
2026-01-23 01:58:38.59	296.77	27.20	-44.2	-45.6	19.7	0.00e+00	0	42	0	887095296	60	6892
2026-01-23 01:58:39.59	297.05	27.12	-44.4	-45.9	19.5	0.00e+00	12	42	0	889192448	60	7125
2026-01-23 01:58:40.60	297.33	27.04	-44.3	-45.8	19.8	0.00e+00	92	42	0	891289600	60	7027
2026-01-23 01:58:41.61	297.60	26.96	-43.8	-45.1	20.2	0.00e+00	0	42	0	893386752	60	6505
2026-01-23 01:58:42.62	297.88	26.88	-43.7	-45.0	20.4	0.00e+00	43	42	0	895483904	60	6416
2026-01-23 01:58:43.63	298.16	26.79	-43.6	-44.8	20.5	0.00e+00	0	41	0	896532480	60	6302
2026-01-23 01:58:44.64	298.43	26.71	-42.9	-44.1	21.2	0.00e+00	67	42	0	898629632	60	5768
2026-01-23 01:58:45.65	298.70	26.63	-43.0	-44.2	21.1	0.00e+00	0	42	0	900726784	60	5845
2026-01-23 01:58:46.66	298.97	26.54	-43.0	-44.2	21.0	0.00e+00	92	42	0	902823936	60	5886
2026-01-23 01:58:47.67	299.24	26.46	-43.0	-44.2	21.1	0.00e+00	92	42	0	904921088	60	5849
2026-01-23 01:58:48.68	299.51	26.38	-43.4	-44.6	20.7	0.00e+00	0	42	0	905969664	60	6146
2026-01-23 01:58:49.69	299.78	26.29	-43.5	-44.7	20.6	0.00e+00	27	42	0	908066816	60	6224
2026-01-23 01:58:50.70	300.04	26.21	-43.5	-44.7	20.7	0.00e+00	0	42	0	910163968	60	6245
2026-01-23 01:58:51.72	300.31	26.12	-43.4	-44.6	20.7	0.00e+00	91	42	0	912261120	60	6157
2026-01-23 01:58:52.73	300.57	26.04	-43.5	-44.8	20.6	0.00e+00	0	42	0	914358272	60	6282
2026-01-23 01:58:53.73	300.83	25.95	-43.5	-44.8	20.7	0.00e+00	84	42	0	915406848	60	6285
2026-01-23 01:58:54.74	301.09	25.86	-43.3	-44.6	20.8	0.00e+00	49	42	0	917504000	60	6109
2026-01-23 01:58:55.75	301.35	25.78	-43.4	-44.7	20.8	0.00e+00	0	42	0	919601152	60	6186
2026-01-23 01:58:56.76	301.61	25.69	-43.5	-44.8	20.8	0.00e+00	21	42	0	921698304	60	6247
2026-01-23 01:58:57.77	301.86	25.60	-43.0	-44.1	21.1	0.00e+00	0	42	0	923795456	60	5815
2026-01-23 01:58:58.78	302.12	25.52	-43.0	-44.2	21.0	0.00e+00	91	42	0	924844032	60	5868
2026-01-23 01:58:59.79	302.37	25.43	-42.7	-43.9	21.3	0.00e+00	0	42	0	926941184	60	5640
2026-01-23 01:59:00.80	302.62	25.34	-42.5	-43.6	21.6	0.00e+00	84	41	0	929038336	58	6128
2026-01-23 01:59:01.81	302.87	25.25	-42.4	-43.5	21.6	0.00e+00	0	42	0	931135488	58	6071
2026-01-23 01:59:02.82	303.12	25.16	-41.7	-42.7	22.3	0.00e+00	0	42	0	933232640	56	6212
2026-01-23 01:59:03.83	303.37	25.07	-41.7	-42.7	22.3	0.00e+00	92	42	0	934281216	56	6220
2026-01-23 01:59:04.84	303.61	24.98	-41.8	-42.8	22.2	0.00e+00	0	42	0	936378368	56	6287
2026-01-23 01:59:05.84	303.85	24.90	-42.1	-43.2	21.9	0.00e+00	92	42	0	938475520	56	6571
2026-01-23 01:59:06.85	304.10	24.81	-42.2	-43.3	21.9	0.00e+00	0	41	0	940572672	56	6620
2026-01-23 01:59:07.86	304.34	24.72	-42.0	-43.0	22.0	0.00e+00	92	42	0	942669824	56	6457
2026-01-23 01:59:08.87	304.58	24.63	-41.6	-42.6	22.5	0.00e+00	0	42	0	943718400	56	6170
2026-01-23 01:59:09.88	304.82	24.54	-41.1	-42.1	22.9	0.00e+00	0	42	0	945815552	56	5767
2026-01-23 01:59:10.89	305.06	24.45	-41.4	-42.3	22.6	0.00e+00	92	41	0	947912704	56	5957
2026-01-23 01:59:11.90	305.29	24.35	-41.4	-42.4	22.6	0.00e+00	0	42	0	950009856	56	5990
2026-01-23 01:59:12.91	305.53	24.26	-41.9	-42.9	22.1	0.00e+00	51	41	0	952107008	56	6351
2026-01-23 01:59:13.92	305.76	24.17	-42.3	-43.3	21.8	0.00e+00	0	42	0	954204160	56	6691
2026-01-23 01:59:14.93	306.00	24.08	-42.1	-43.2	21.9	0.00e+00	92	41	0	955252736	56	6579
2026-01-23 01:59:15.94	306.23	23.99	-41.8	-42.8	22.3	0.00e+00	0	41	0	957349888	56	6260
2026-01-23 01:59:16.95	306.46	23.90	-41.1	-42.1	22.8	0.00e+00	0	42	0	959447040	56	5776
2026-01-23 01:59:17.96	306.69	23.81	-40.6	-41.5	23.1	0.00e+00	91	42	0	961544192	54	6081
2026-01-23 01:59:18.96	306.91	23.72	-40.4	-41.2	23.4	0.00e+00	0	41	0	963641344	54	5895
2026-01-23 01:59:19.97	307.14	23.62	-40.7	-41.6	23.0	0.00e+00	55	42	0	964689920	54	6140
2026-01-23 01:59:20.98	307.36	23.53	-41.5	-42.5	22.4	0.00e+00	0	42	0	966787072	54	6782
2026-01-23 01:59:22.00	307.59	23.44	-42.1	-43.1	21.9	0.00e+00	60	42	0	968884224	56	6537
2026-01-23 01:59:23.00	307.81	23.35	-42.8	-44.0	21.2	0.00e+00	0	42	0	970981376	58	6397
2026-01-23 01:59:24.02	308.03	23.26	-42.3	-43.4	21.7	0.00e+00	74	42	0	973078528	58	6002
2026-01-23 01:59:25.03	308.25	23.16	-42.0	-43.1	22.0	0.00e+00	71	42	0	974127104	58	5819
2026-01-23 01:59:26.04	308.47	23.07	-41.2	-42.1	22.8	0.00e+00	0	42	0	976224256	56	5817
2026-01-23 01:59:27.05	308.68	22.98	-40.5	-41.4	23.2	0.00e+00	92	42	0	978321408	54	5995
2026-01-23 01:59:28.06	308.90	22.88	-40.3	-41.2	23.4	0.00e+00	0	41	0	980418560	54	5879
2026-01-23 01:59:29.07	309.11	22.79	-40.5	-41.4	23.2	0.00e+00	21	41	0	982515712	54	5985
2026-01-23 01:59:30.08	309.33	22.70	-40.5	-41.4	23.3	0.00e+00	0	42	0	983564288	54	5976
2026-01-23 01:59:31.09	309.54	22.61	-40.2	-41.0	23.5	0.00e+00	28	42	0	985661440	54	5755
2026-01-23 01:59:32.09	309.75	22.51	-39.7	-40.5	23.9	0.00e+00	52	41	0	987758592	52	6095
2026-01-23 01:59:33.10	309.96	22.42	-39.6	-40.4	24.1	0.00e+00	0	42	0	989855744	52	5995
2026-01-23 01:59:34.11	310.17	22.33	-39.3	-40.1	24.3	0.00e+00	47	41	0	991952896	52	5802
2026-01-23 01:59:35.12	310.37	22.24	-39.4	-40.2	23.8	0.00e+00	0	42	0	993001472	52	5894
2026-01-23 01:59:36.13	310.58	22.14	-40.1	-41.0	23.6	0.00e+00	91	41	0	995098624	52	6417
2026-01-23 01:59:37.14	310.78	22.05	-41.2	-42.2	22.6	0.00e+00	33	41	0	997195776	54	6542
2026-01-23 01:59:38.15	310.99	21.96	-42.7	-43.8	21.3	0.00e+00	92	41	0	999292928	56	7076
2026-01-23 01:59:39.16	311.19	21.86	-43.3	-44.5	20.5	0.00e+00	47	41	0	1001390080	58	6842
2026-01-23 01:59:40.17	311.39	21.77	-44.0	-45.5	19.8	0.00e+00	0	41	0	1002438656	60	6773
2026-01-23 01:59:41.18	311.59	21.68	-43.7	-45.0	20.3	0.00e+00	92	41	0	1004535808	60	6435
2026-01-23 01:59:42.19	311.79	21.58	-42.9	-44.0	21.2	0.00e+00	0	41	0	1006632960	60	5752
2026-01-23 01:59:43.20	311.99	21.49	-42.0	-43.0	21.9	0.00e+00	92	41	0	1008730112	58	5758
2026-01-23 01:59:44.20	312.18	21.40	-42.0	-43.0	22.0	0.00e+00	0	41	0	1010827264	58	5740
2026-01-23 01:59:45.21	312.38	21.31	-41.6	-42.6	22.3	0.00e+00	92	41	0	1011875840	56	6147
2026-01-23 01:59:46.22	312.57	21.21	-41.1	-42.0	22.7	0.00e+00	0	41	0	1013972992	56	5741
2026-01-23 01:59:47.23	312.77	21.12	-41.4	-42.4	22.5	0.00e+00	0	41	0	1016070144	56	5965
2026-01-23 01:59:48.24	312.96	21.03	-41.3	-42.3	22.6	0.00e+00	90	41	0	1018167296	56	5923
2026-01-23 01:59:49.25	313.15	20.93	-41.1	-42.1	22.8	0.00e+00	0	41	0	1020264448	56	5779
2026-01-23 01:59:50.26	313.34	20.84	-40.7	-41.7	23.1	0.00e+00	48	42	0	1021313024	56	5514
2026-01-23 01:59:51.27	313.53	20.75	-40.3	-41.2	23.3	0.00e+00	0	41	0	1023410176	54	5849
2026-01-23 01:59:52.28	313.71	20.65	-39.7	-40.6	23.6	0.00e+00	91	41	0	1025507328	54	5455
2026-01-23 01:59:53.29	313.90	20.56	-39.7	-40.5	23.9	0.00e+00	17	41	0	1027604480	52	6080
2026-01-23 01:59:54.30	314.09	20.47	-39.4	-40.2	23.9	0.00e+00	0	41	0	1029701632	52	5888
2026-01-23 01:59:55.31	314.27	20.38	-39.8	-40.6	23.7	0.00e+00	92	41	0	1031798784	52	6139
2026-01-23 01:59:56.32	314.45	20.28	-40.2	-41.1	23.4	0.00e+00	0	41	0	1032847360	52	6510
2026-01-23 01:59:57.32	314.63	20.19	-40.5	-41.4	23.2	0.00e+00	27	41	0	1034944512	52	6713
2026-01-23 01:59:58.33	314.81	20.10	-40.7	-41.6	23.1	0.00e+00	0	41	0	1037041664	54	6157
2026-01-23 01:59:59.34	314.99	20.01	-40.6	-41.6	23.0	0.00e+00	76	41	0	1039138816	54	6119
2026-01-23 02:00:00.35	315.17	19.91	-40.6	-41.5	23.1	0.00e+00	0	41	0	1041235968	54	6092
2026-01-23 02:00:01.36	315.35	19.82	-40.5	-41.4	23.1	0.00e+00	0	41	0	1042284544	54	6026
2026-01-23 02:00:02.37	315.53	19.73	-40.4	-41.3	23.2	0.00e+00	47	41	0	1044381696	54	5939
2026-01-23 02:00:03.38	315.70	19.64	-40.4	-41.4	23.2	0.00e+00	0	41	0	1046478848	54	5976
2026-01-23 02:00:04.39	315.88	19.55	-40.8	-41.7	22.9	0.00e+00	43	41	0	1048576000	54	6216
2026-01-23 02:00:05.40	316.05	19.45	-41.1	-42.0	22.7	0.00e+00	0	41	0	1050673152	54	6462
2026-01-23 02:00:06.41	316.22	19.36	-41.4	-42.4	22.4	0.00e+00	92	41	0	1051721728	54	6728
2026-01-23 02:00:07.42	316.40	19.27	-41.4	-42.4	22.3	0.00e+00	0	41	0	1053818880	54	6766
2026-01-23 02:00:08.43	316.57	19.18	-41.3	-42.4	22.4	0.00e+00	66	41	0	1055916032	54	6699
2026-01-23 02:00:09.44	316.74	19.09	-41.1	-42.1	22.6	0.00e+00	92	41	0	1058013184	54	6476
2026-01-23 02:00:10.45	316.91	19.00	-40.8	-41.8	22.4	0.00e+00	0	41	0	1060110336	54	6282
2026-01-23 02:00:11.45	317.07	18.90	-40.5	-41.4	22.9	0.00e+00	0	41	0	1061158912	54	6022
2026-01-23 02:00:12.46	317.24	18.81	-40.2	-41.1	23.4	0.00e+00	0	41	0	1063256064	54	5774
2026-01-23 02:00:13.47	317.40	18.72	-40.2	-41.1	23.3	0.00e+00	82	41	0	1065353216	54	5783
2026-01-23 02:00:14.48	317.57	18.63	-39.9	-40.8	23.4	0.00e+00	0	41	0	1067450368	54	5602
2026-01-23 02:00:15.49	317.73	18.54	-39.6	-40.5	23.9	0.00e+00	56	41	0	1069547520	52	6041
2026-01-23 02:00:16.50	317.90	18.45	-39.6	-40.5	23.8	0.00e+00	44	41	0	1070596096	52	6072
2026-01-23 02:00:17.51	318.06	18.36	-39.7	-40.5	23.7	0.00e+00	0	41	0	1072693248	52	6074
2026-01-23 02:00:18.52	318.22	18.27	-39.7	-40.6	23.8	0.00e+00	65	41	0	1074790400	52	6139
2026-01-23 02:00:19.53	318.38	18.18	-39.6	-40.4	23.9	0.00e+00	0	41	0	1076887552	52	6032
2026-01-23 02:00:20.54	318.54	18.09	-39.7	-40.6	23.8	0.00e+00	52	41	0	1078984704	52	6132
2026-01-23 02:00:21.55	318.70	18.00	-39.6	-40.5	23.8	0.00e+00	0	41	0	1080033280	52	6059
2026-01-23 02:00:22.56	318.85	17.91	-39.6	-40.5	23.8	0.00e+00	92	41	0	1082130432	52	6048
2026-01-23 02:00:23.57	319.01	17.82	-39.6	-40.4	23.9	0.00e+00	0	41	0	1084227584	52	5990
2026-01-23 02:00:24.57	319.16	17.73	-39.5	-40.3	23.9	0.00e+00	0	41	0	1086324736	52	5943
2026-01-23 02:00:25.58	319.32	17.64	-39.7	-40.6	23.7	0.00e+00	91	41	0	1088421888	52	6113
2026-01-23 02:00:26.59	319.47	17.55	-39.7	-40.6	23.7	0.00e+00	0	41	0	1089470464	52	6144
2026-01-23 02:00:27.60	319.63	17.46	-39.7	-40.5	23.8	0.00e+00	82	41	0	1091567616	52	6083
2026-01-23 02:00:28.61	319.78	17.37	-39.8	-40.7	23.6	0.00e+00	0	41	0	1093664768	52	6224
2026-01-23 02:00:29.62	319.93	17.28	-39.8	-40.7	23.6	0.00e+00	90	41	0	1095761920	52	6198
2026-01-23 02:00:30.63	320.08	17.19	-39.8	-40.7	23.7	0.00e+00	0	41	0	1097859072	52	6175
2026-01-23 02:00:31.64	320.23	17.10	-40.1	-41.0	23.4	0.00e+00	0	41	0	1099956224	52	6447
2026-01-23 02:00:32.65	320.38	17.01	-39.9	-40.8	23.5	0.00e+00	45	41	0	1101004800	52	6295
2026-01-23 02:00:33.66	320.53	16.93	-40.0	-40.9	23.5	0.00e+00	0	41	0	1103101952	52	6352
2026-01-23 02:00:34.67	320.67	16.84	-40.1	-41.0	23.4	0.00e+00	40	41	0	1105199104	52	6420
2026-01-23 02:00:35.68	320.82	16.75	-40.1	-41.0	23.4	0.00e+00	0	41	0	1107296256	52	6409
2026-01-23 02:00:36.68	320.96	16.66	-40.0	-40.9	23.5	0.00e+00	92	41	0	1109393408	52	6343
2026-01-23 02:00:37.70	321.11	16.57	-39.9	-40.8	23.5	0.00e+00	0	41	0	1110441984	52	6315
2026-01-23 02:00:38.70	321.25	16.49	-39.8	-40.7	23.5	0.00e+00	0	41	0	1112539136	52	6218
2026-01-23 02:00:39.71	321.39	16.40	-39.8	-40.7	23.7	0.00e+00	48	41	0	1114636288	52	6227
2026-01-23 02:00:40.72	321.54	16.31	-39.8	-40.6	23.6	0.00e+00	0	41	0	1116733440	52	6169
2026-01-23 02:00:41.73	321.68	16.22	-39.9	-40.8	23.6	0.00e+00	54	41	0	1117782016	52	6264
2026-01-23 02:00:42.74	321.82	16.14	-39.8	-40.7	23.6	0.00e+00	0	41	0	1119879168	52	6223
2026-01-23 02:00:43.75	321.96	16.05	-39.9	-40.8	23.5	0.00e+00	92	41	0	1121976320	52	6252
2026-01-23 02:00:44.76	322.10	15.96	-40.0	-40.9	23.4	0.00e+00	0	41	0	1124073472	52	6354
2026-01-23 02:00:45.77	322.23	15.87	-40.2	-41.2	23.2	0.00e+00	55	41	0	1126170624	52	6558
2026-01-23 02:00:46.78	322.37	15.79	-40.2	-41.2	23.3	0.00e+00	8	41	0	1128267776	52	6556
2026-01-23 02:00:47.79	322.51	15.70	-40.2	-41.1	23.3	0.00e+00	0	41	0	1129316352	52	6538
2026-01-23 02:00:48.80	322.64	15.61	-40.3	-41.2	23.1	0.00e+00	53	41	0	1131413504	52	6608
2026-01-23 02:00:49.81	322.78	15.53	-40.1	-41.1	23.3	0.00e+00	0	41	0	1133510656	52	6479
2026-01-23 02:00:50.82	322.91	15.44	-40.1	-41.0	23.3	0.00e+00	70	41	0	1135607808	52	6426
2026-01-23 02:00:51.83	323.05	15.36	-40.1	-41.0	23.4	0.00e+00	0	41	0	1137704960	52	6407
2026-01-23 02:00:52.84	323.18	15.27	-39.7	-40.5	23.6	0.00e+00	90	41	0	1138753536	52	6097
2026-01-23 02:00:53.85	323.31	15.19	-39.9	-40.7	23.6	0.00e+00	0	41	0	1140850688	52	6227
2026-01-23 02:00:54.85	323.44	15.10	-39.6	-40.5	23.8	0.00e+00	0	41	0	1142947840	52	6076
2026-01-23 02:00:55.86	323.57	15.02	-39.6	-40.5	23.7	0.00e+00	74	41	0	1145044992	52	6054
2026-01-23 02:00:56.87	323.70	14.93	-39.9	-40.7	23.6	0.00e+00	0	41	0	1147142144	52	6231
2026-01-23 02:00:57.88	323.83	14.85	-40.0	-40.9	23.5	0.00e+00	92	41	0	1148190720	52	6332
2026-01-23 02:00:58.89	323.96	14.76	-40.3	-41.3	23.0	0.00e+00	0	41	0	1150287872	52	6632
2026-01-23 02:00:59.90	324.09	14.68	-40.5	-41.5	22.9	0.00e+00	92	41	0	1152385024	52	6797
2026-01-23 02:01:00.90	324.21	14.59	-40.7	-41.7	22.7	0.00e+00	17	41	0	1154482176	54	6221
2026-01-23 02:01:01.91	324.34	14.51	-41.2	-42.2	22.3	0.00e+00	0	41	0	1156579328	54	6590
2026-01-23 02:01:02.92	324.47	14.43	-40.9	-41.9	22.5	0.00e+00	75	41	0	1157627904	54	6358
2026-01-23 02:01:03.93	324.59	14.34	-41.1	-42.1	22.5	0.00e+00	0	41	0	1159725056	54	6483
2026-01-23 02:01:04.94	324.71	14.26	-41.0	-42.0	22.5	0.00e+00	91	41	0	1161822208	54	6423
2026-01-23 02:01:05.95	324.84	14.17	-41.2	-42.3	22.3	0.00e+00	0	41	0	1163919360	54	6628
2026-01-23 02:01:06.96	324.96	14.09	-41.2	-42.2	22.3	0.00e+00	92	41	0	1166016512	54	6606
2026-01-23 02:01:07.97	325.08	14.01	-41.0	-42.0	22.6	0.00e+00	0	41	0	1167065088	54	6462
2026-01-23 02:01:08.98	325.21	13.92	-40.9	-41.8	22.6	0.00e+00	40	41	0	1169162240	54	6310
2026-01-23 02:01:09.99	325.33	13.84	-40.7	-41.7	22.7	0.00e+00	48	41	0	1171259392	54	6200
2026-01-23 02:01:11.00	325.45	13.76	-40.8	-41.8	22.7	0.00e+00	0	41	0	1173356544	54	6260
2026-01-23 02:01:12.01	325.57	13.68	-40.7	-41.7	22.7	0.00e+00	17	41	0	1175453696	54	6211
2026-01-23 02:01:13.02	325.69	13.59	-41.0	-42.0	22.6	0.00e+00	0	41	0	1176502272	54	6433
2026-01-23 02:01:14.03	325.80	13.51	-41.2	-42.2	22.4	0.00e+00	0	41	0	1178599424	54	6579
2026-01-23 02:01:15.04	325.92	13.43	-41.3	-42.3	22.3	0.00e+00	0	41	0	1180696576	54	6637
2026-01-23 02:01:16.05	326.04	13.35	-41.5	-42.5	22.0	0.00e+00	0	41	0	1182793728	54	6847
2026-01-23 02:01:17.06	326.16	13.27	-41.9	-43.0	21.7	0.00e+00	75	41	0	1184890880	56	6428
2026-01-23 02:01:18.07	326.27	13.19	-42.2	-43.3	21.5	0.00e+00	0	41	0	1185939456	56	6658
2026-01-23 02:01:19.08	326.39	13.10	-42.4	-43.5	21.2	0.00e+00	39	41	0	1188036608	56	6839
2026-01-23 02:01:20.09	326.50	13.02	-42.4	-43.6	21.3	0.00e+00	0	41	0	1190133760	56	6851
2026-01-23 02:01:21.10	326.62	12.94	-42.5	-43.7	21.1	0.00e+00	0	41	0	1192230912	56	6938
2026-01-23 02:01:22.11	326.73	12.86	-42.4	-43.6	21.3	0.00e+00	0	41	0	1194328064	56	6923
