passes_logs/2026/01/23/R4.6S_Anadyr/R4.6S_Anadyr__20260123_094432_TY-42_rec.log

#Pass ID: 20260123_094432_TY-42
#Satellite: TY-42
#Configuration: TY-42_900M
#almurnet v.1.7.20251203
#Start time: 2026-01-23 09:45:04

#Version: 2.2.20231116
#Station: R4.6S_Anadyr
#Location: 177.4865 lon 64.73178 lat
#TLE: 1 64048U 25103A   26022.94299769  .00008011  00000-0  38191-3 0 09995
#TLE: 2 64048 097.4121 098.2110 0001873 095.7304 297.1754 15.19173584 38028

#Time	Az	El	Level	Level2	SNR	BER	BlckErr	Temp	State	Recorded	gain1	gain2
2026-01-23 09:45:04.15	170.05	2.17	-51.1	-62.7	3.5	8.44e-01	0	39	0	0	60	49583
2026-01-23 09:45:05.16	170.07	2.24	-49.8	-52.2	6.1	0.00e+00	0	40	104	0	60	49851
2026-01-23 09:45:06.16	170.09	2.31	-49.8	-52.2	6.1	0.00e+00	0	40	104	0	60	49931
2026-01-23 09:45:07.17	170.12	2.38	-49.8	-52.3	6.1	0.00e+00	0	40	104	0	60	50195
2026-01-23 09:45:08.19	170.14	2.45	-49.8	-52.2	6.1	0.00e+00	0	40	104	0	60	49809
2026-01-23 09:45:09.20	170.17	2.52	-49.8	-52.2	6.0	0.00e+00	0	40	104	0	60	50148
2026-01-23 09:45:10.21	170.19	2.60	-49.8	-52.3	6.1	0.00e+00	0	40	104	0	60	50368
2026-01-23 09:45:11.22	170.21	2.67	-49.8	-52.2	6.1	0.00e+00	0	40	104	0	60	50142
2026-01-23 09:45:12.23	170.24	2.74	-49.8	-52.2	6.1	0.00e+00	0	41	104	0	60	50164
2026-01-23 09:45:13.24	170.26	2.81	-49.8	-52.3	6.1	0.00e+00	0	41	104	0	60	50379
2026-01-23 09:45:14.24	170.28	2.89	-49.8	-52.3	6.1	0.00e+00	0	41	104	0	60	50390
2026-01-23 09:45:15.25	170.31	2.96	-49.8	-52.2	6.1	0.00e+00	0	41	104	0	60	50000
2026-01-23 09:45:16.26	170.33	3.03	-49.8	-52.3	6.1	0.00e+00	0	41	104	0	60	50356
2026-01-23 09:45:17.27	170.36	3.11	-49.8	-52.3	6.1	0.00e+00	0	41	104	0	60	50494
2026-01-23 09:45:18.28	170.38	3.18	-49.8	-52.2	6.1	0.00e+00	0	41	104	0	60	49965
2026-01-23 09:45:19.29	170.41	3.26	-49.8	-52.2	6.1	0.00e+00	0	41	104	0	60	50172
2026-01-23 09:45:20.30	170.43	3.33	-49.8	-52.3	6.1	0.00e+00	0	41	104	0	60	50299
2026-01-23 09:45:21.31	170.46	3.41	-49.8	-52.2	6.1	0.00e+00	0	41	104	0	60	50156
2026-01-23 09:45:22.32	170.48	3.48	-49.8	-52.2	6.1	0.00e+00	0	41	104	0	60	50161
2026-01-23 09:45:23.33	170.51	3.56	-49.8	-52.2	6.1	0.00e+00	0	41	104	0	60	49980
2026-01-23 09:45:24.34	170.53	3.63	-49.8	-52.2	6.1	0.00e+00	0	41	104	0	60	50162
2026-01-23 09:45:25.35	170.56	3.71	-49.8	-52.3	6.1	0.00e+00	0	41	104	0	60	50260
2026-01-23 09:45:26.36	170.59	3.78	-49.8	-52.3	6.1	0.00e+00	0	41	104	0	60	50185
2026-01-23 09:45:27.37	170.61	3.86	-49.8	-52.2	6.1	0.00e+00	0	41	104	0	60	50118
2026-01-23 09:45:28.38	170.64	3.94	-49.8	-52.2	6.1	0.00e+00	0	41	104	0	60	50007
2026-01-23 09:45:29.39	170.67	4.01	-49.8	-52.2	6.1	0.00e+00	0	41	104	0	60	50080
2026-01-23 09:45:30.40	170.69	4.09	-49.8	-52.2	6.1	0.00e+00	0	41	104	0	60	50180
2026-01-23 09:45:31.41	170.72	4.17	-49.8	-52.2	6.1	0.00e+00	0	41	104	0	60	50140
2026-01-23 09:45:32.42	170.75	4.25	-49.8	-52.3	6.1	0.00e+00	0	41	104	0	60	50278
2026-01-23 09:45:33.42	170.77	4.32	-49.8	-52.3	6.1	0.00e+00	0	41	104	0	60	50328
2026-01-23 09:45:34.43	170.80	4.40	-49.8	-52.3	6.1	0.00e+00	0	41	104	0	60	50206
2026-01-23 09:45:35.44	170.83	4.48	-49.9	-52.3	6.1	0.00e+00	0	41	104	0	60	50667
2026-01-23 09:45:36.45	170.85	4.56	-49.9	-52.4	6.1	0.00e+00	0	41	104	0	60	50835
2026-01-23 09:45:37.46	170.88	4.64	-49.9	-52.4	6.1	0.00e+00	0	41	104	0	60	50834
2026-01-23 09:45:38.47	170.91	4.72	-49.9	-52.4	6.1	0.00e+00	0	41	104	0	60	50798
2026-01-23 09:45:39.48	170.94	4.80	-50.0	-52.5	6.1	0.00e+00	0	41	104	0	60	51539
2026-01-23 09:45:40.49	170.97	4.88	-49.9	-52.4	6.1	0.00e+00	0	41	104	0	60	51004
2026-01-23 09:45:41.50	170.99	4.96	-50.0	-52.4	6.1	0.00e+00	0	41	104	0	60	50970
2026-01-23 09:45:42.51	171.02	5.04	-49.9	-52.4	6.0	0.00e+00	0	41	104	0	60	50885
2026-01-23 09:45:43.52	171.05	5.12	-49.9	-52.4	6.1	0.00e+00	0	41	104	0	60	51333
2026-01-23 09:45:44.53	171.08	5.21	-50.0	-52.5	6.1	0.00e+00	0	41	104	0	60	51594
2026-01-23 09:45:45.54	171.11	5.29	-49.8	-52.4	6.0	0.00e+00	0	41	104	0	60	50842
2026-01-23 09:45:46.55	171.14	5.37	-49.9	-52.4	6.1	0.00e+00	0	41	104	0	60	51259
2026-01-23 09:45:47.56	171.17	5.45	-50.1	-52.6	6.1	0.00e+00	0	41	104	0	60	52097
2026-01-23 09:45:48.57	171.20	5.54	-35.0	-35.4	12.0	0.00e+00	3732	42	104	0	44	18031
2026-01-23 09:45:49.58	171.23	5.62	-36.3	-36.7	10.8	0.00e+00	630	42	104	16777216	52	13209
2026-01-23 09:45:50.59	171.26	5.70	-33.5	-33.8	13.9	0.00e+00	2176	41	104	16777216	42	16877
2026-01-23 09:45:51.59	171.29	5.79	-32.6	-33.0	14.7	0.00e+00	0	42	0	125829120	40	17395
2026-01-23 09:45:52.60	171.32	5.87	-31.5	-31.9	15.1	3.54e-02	0	42	0	234881024	38	17156
2026-01-23 09:45:53.61	171.35	5.95	-31.5	-31.9	15.1	3.54e-02	0	42	0	352321536	38	17174
2026-01-23 09:45:54.62	171.38	6.04	-30.6	-31.0	15.4	5.13e-03	0	42	0	469762048	36	17357
2026-01-23 09:45:55.63	171.41	6.13	-30.3	-30.7	15.5	1.92e-03	0	42	0	578813952	36	16738
2026-01-23 09:45:56.64	171.44	6.21	-30.5	-30.9	15.4	1.92e-03	0	42	0	687865856	36	17079
2026-01-23 09:45:57.65	171.47	6.30	-30.4	-30.9	15.4	1.73e-03	0	42	0	805306368	36	17065
2026-01-23 09:45:58.66	171.50	6.38	-30.0	-30.5	15.6	1.73e-03	0	42	0	914358272	36	16265
2026-01-23 09:45:59.67	171.54	6.47	-30.1	-30.6	15.6	1.18e-03	0	42	0	1031798784	36	16479
2026-01-23 09:46:00.68	171.57	6.56	-29.9	-30.3	15.6	1.18e-03	0	42	0	1140850688	36	15943
2026-01-23 09:46:01.69	171.60	6.65	-29.8	-30.2	15.6	1.18e-03	0	42	0	1258291200	36	15827
2026-01-23 09:46:02.70	171.63	6.73	-29.8	-30.3	15.6	9.64e-04	0	42	0	1367343104	36	15918
2026-01-23 09:46:03.71	171.66	6.82	-29.9	-30.3	15.6	9.64e-04	0	42	0	1484783616	34	17928
2026-01-23 09:46:04.72	171.70	6.91	-29.8	-30.2	15.6	8.77e-04	0	42	0	1602224128	34	17732
2026-01-23 09:46:05.73	171.73	7.00	-29.6	-30.0	15.7	8.77e-04	0	42	0	1711276032	34	17370
2026-01-23 09:46:06.74	171.76	7.09	-29.4	-29.9	15.7	8.83e-04	0	42	0	1828716544	34	17024
2026-01-23 09:46:07.75	171.80	7.18	-29.5	-30.0	15.7	8.83e-04	0	42	0	1937768448	34	17242
2026-01-23 09:46:08.76	171.83	7.27	-29.5	-29.9	15.7	7.03e-04	0	42	0	2055208960	34	17183
2026-01-23 09:46:09.77	171.86	7.36	-29.6	-30.0	15.7	7.03e-04	0	42	0	2172649472	34	17368
2026-01-23 09:46:10.78	171.90	7.45	-29.5	-30.0	15.8	6.21e-04	0	42	0	2281701376	34	17221
2026-01-23 09:46:11.78	171.93	7.55	-29.4	-29.8	15.8	6.27e-04	0	42	0	2399141888	34	16964
2026-01-23 09:46:12.80	171.97	7.64	-29.3	-29.8	15.7	6.27e-04	0	42	0	2508193792	34	16829
2026-01-23 09:46:13.81	172.00	7.73	-29.4	-29.8	15.7	5.34e-04	0	42	0	2617245696	34	16998
2026-01-23 09:46:14.82	172.04	7.83	-29.2	-29.6	15.8	5.34e-04	0	42	0	2734686208	34	16549
2026-01-23 09:46:15.83	172.07	7.92	-29.1	-29.5	15.9	5.50e-04	0	42	0	2852126720	34	16413
2026-01-23 09:46:16.84	172.11	8.01	-29.1	-29.5	15.9	5.50e-04	0	42	0	2961178624	34	16333
2026-01-23 09:46:17.85	172.15	8.11	-28.8	-29.3	15.9	4.20e-04	0	42	0	3078619136	34	15894
2026-01-23 09:46:18.86	172.18	8.20	-28.8	-29.3	15.9	4.20e-04	0	42	0	3187671040	34	15896
2026-01-23 09:46:19.86	172.22	8.30	-28.9	-29.3	15.9	3.16e-04	0	43	0	3305111552	34	16041
2026-01-23 09:46:20.87	172.25	8.39	-28.8	-29.3	15.9	3.16e-04	0	43	0	3422552064	34	15905
2026-01-23 09:46:21.88	172.29	8.49	-28.8	-29.3	15.9	2.78e-04	0	43	0	3531603968	34	15872
2026-01-23 09:46:22.89	172.33	8.59	-28.7	-29.2	15.9	2.18e-04	0	43	0	3640655872	32	17628
2026-01-23 09:46:23.90	172.37	8.68	-28.9	-29.3	15.9	2.18e-04	0	43	0	3758096384	32	17931
2026-01-23 09:46:24.91	172.40	8.78	-28.9	-29.3	15.9	3.00e-04	0	43	0	3875536896	32	17928
2026-01-23 09:46:25.92	172.44	8.88	-28.8	-29.2	15.9	3.00e-04	0	43	0	3984588800	32	17669
2026-01-23 09:46:26.94	172.48	8.98	-28.7	-29.1	16.0	3.16e-04	0	43	0	4102029312	32	17479
2026-01-23 09:46:27.95	172.52	9.08	-28.6	-29.0	16.0	3.16e-04	0	43	0	4211081216	32	17353
2026-01-23 09:46:28.95	172.56	9.18	-28.7	-29.1	16.0	1.85e-04	0	43	0	4328521728	32	17583
2026-01-23 09:46:29.96	172.60	9.28	-28.5	-29.0	16.0	1.85e-04	0	43	0	4445962240	32	17256
2026-01-23 09:46:30.97	172.64	9.38	-28.5	-29.0	16.0	1.31e-04	0	43	0	4555014144	32	17207
2026-01-23 09:46:31.98	172.68	9.48	-28.5	-28.9	16.1	1.31e-04	0	43	0	4664066048	32	17128
2026-01-23 09:46:32.99	172.72	9.58	-28.5	-28.9	16.1	1.96e-04	0	43	0	4781506560	32	17138
2026-01-23 09:46:34.00	172.76	9.69	-28.3	-28.7	16.1	1.96e-04	0	43	0	4890558464	32	16733
2026-01-23 09:46:35.01	172.80	9.79	-28.2	-28.7	16.1	5.44e-05	0	43	0	5007998976	32	16638
2026-01-23 09:46:36.02	172.84	9.89	-28.3	-28.7	16.1	8.71e-05	0	43	0	5125439488	32	16743
2026-01-23 09:46:37.03	172.88	10.00	-28.7	-29.1	16.0	8.71e-05	0	43	0	5234491392	32	17473
2026-01-23 09:46:38.04	172.92	10.10	-28.2	-28.6	16.1	1.80e-04	0	43	0	5351931904	32	16508
2026-01-23 09:46:39.05	172.97	10.21	-28.2	-28.7	16.1	1.80e-04	0	43	0	5460983808	32	16662
2026-01-23 09:46:40.06	173.01	10.32	-28.1	-28.5	16.1	1.14e-04	0	43	0	5570035712	32	16303
2026-01-23 09:46:41.07	173.05	10.42	-27.9	-28.3	16.1	1.14e-04	0	43	0	5687476224	32	16053
2026-01-23 09:46:42.08	173.10	10.53	-28.1	-28.5	16.1	7.62e-05	0	43	0	5804916736	32	16353
2026-01-23 09:46:43.09	173.14	10.64	-27.8	-28.2	16.2	7.62e-05	0	43	0	5913968640	32	15769
2026-01-23 09:46:44.10	173.18	10.75	-27.8	-28.2	16.2	7.62e-05	0	43	0	6031409152	30	17720
2026-01-23 09:46:45.10	173.23	10.85	-27.7	-28.2	16.2	7.62e-05	0	43	0	6140461056	30	17634
2026-01-23 09:46:46.11	173.27	10.96	-27.6	-28.0	16.2	2.72e-05	0	43	0	6257901568	30	17282
2026-01-23 09:46:47.12	173.32	11.07	-27.8	-28.2	16.3	2.72e-05	0	43	0	6375342080	30	17670
2026-01-23 09:46:48.13	173.36	11.19	-27.5	-27.9	16.3	3.81e-05	0	43	0	6484393984	30	17119
2026-01-23 09:46:49.15	173.41	11.30	-27.4	-27.8	16.3	3.81e-05	0	43	0	6593445888	30	16935
2026-01-23 09:46:50.16	173.46	11.41	-27.4	-27.8	16.3	3.81e-05	0	43	0	6710886400	30	16920
2026-01-23 09:46:51.16	173.50	11.52	-27.6	-28.0	16.2	5.40e-06	0	43	0	6828326912	30	17323
2026-01-23 09:46:52.17	173.55	11.64	-27.3	-27.7	16.3	5.40e-06	0	43	0	6937378816	30	16796
2026-01-23 09:46:53.18	173.60	11.75	-27.4	-27.8	16.3	3.26e-05	0	43	0	7054819328	30	16906
2026-01-23 09:46:54.19	173.64	11.87	-27.4	-27.8	16.3	3.26e-05	0	43	0	7163871232	30	16935
2026-01-23 09:46:55.20	173.69	11.98	-27.2	-27.6	16.3	1.63e-05	0	43	0	7281311744	30	16572
2026-01-23 09:46:56.21	173.74	12.10	-27.2	-27.6	16.3	3.26e-05	0	43	0	7398752256	30	16613
2026-01-23 09:46:57.22	173.79	12.22	-27.3	-27.7	16.4	3.26e-05	0	43	0	7507804160	30	16720
2026-01-23 09:46:58.23	173.84	12.33	-27.2	-27.7	16.3	5.40e-06	0	43	0	7616856064	30	16635
2026-01-23 09:46:59.24	173.89	12.45	-27.2	-27.7	16.3	5.40e-06	0	43	0	7734296576	30	16671
2026-01-23 09:47:00.25	173.94	12.57	-27.0	-27.4	16.4	1.08e-05	0	43	0	7843348480	30	16129
2026-01-23 09:47:01.26	173.99	12.69	-27.0	-27.4	16.4	1.08e-05	0	43	0	7960788992	30	16228
2026-01-23 09:47:02.27	174.04	12.81	-26.9	-27.3	16.4	1.63e-05	0	43	0	8078229504	30	15966
2026-01-23 09:47:03.28	174.10	12.94	-26.8	-27.3	16.4	1.63e-05	0	43	0	8187281408	30	15930
2026-01-23 09:47:04.28	174.15	13.06	-26.8	-27.3	16.4	5.40e-06	0	43	0	8304721920	30	15911
2026-01-23 09:47:05.29	174.20	13.18	-26.8	-27.3	16.4	5.40e-06	0	43	0	8413773824	28	17826
2026-01-23 09:47:06.30	174.25	13.30	-26.6	-27.1	16.4	1.08e-05	0	43	0	8522825728	28	17468
2026-01-23 09:47:07.31	174.31	13.43	-26.7	-27.1	16.4	1.08e-05	0	43	0	8648654848	28	17535
2026-01-23 09:47:08.32	174.36	13.56	-26.6	-27.1	16.4	1.08e-05	0	43	0	8757706752	28	17432
2026-01-23 09:47:09.33	174.42	13.68	-26.5	-27.0	16.4	1.08e-05	0	43	0	8866758656	28	17215
2026-01-23 09:47:10.35	174.47	13.81	-26.5	-27.0	16.4	1.08e-05	0	43	0	8984199168	28	17227
2026-01-23 09:47:11.36	174.53	13.94	-26.6	-27.0	16.4	1.08e-05	0	43	0	9093251072	28	17358
2026-01-23 09:47:12.37	174.59	14.07	-26.3	-26.8	16.5	1.08e-05	0	43	0	9210691584	28	16869
2026-01-23 09:47:13.38	174.64	14.20	-26.4	-26.9	16.5	1.08e-05	0	43	0	9328132096	28	17107
2026-01-23 09:47:14.39	174.70	14.33	-26.4	-26.8	16.5	0.00e+00	0	44	0	9437184000	28	16965
2026-01-23 09:47:15.40	174.76	14.46	-26.1	-26.6	16.5	0.00e+00	0	43	0	9546235904	28	16537
2026-01-23 09:47:16.41	174.82	14.59	-26.2	-26.6	16.5	5.40e-06	0	44	0	9663676416	28	16586
2026-01-23 09:47:17.42	174.88	14.73	-26.2	-26.7	16.5	5.40e-06	0	43	0	9781116928	28	16619
2026-01-23 09:47:18.43	174.94	14.86	-26.2	-26.6	16.5	0.00e+00	0	43	0	9890168832	28	16606
2026-01-23 09:47:19.44	175.00	15.00	-25.9	-26.3	16.5	0.00e+00	0	43	0	10007609344	28	15996
2026-01-23 09:47:20.45	175.06	15.13	-25.9	-26.4	16.5	0.00e+00	0	43	0	10116661248	28	16086
2026-01-23 09:47:21.46	175.12	15.27	-25.9	-26.4	16.5	5.40e-06	0	43	0	10234101760	28	16112
2026-01-23 09:47:22.47	175.18	15.41	-25.8	-26.3	16.6	5.40e-06	0	44	0	10351542272	28	15888
2026-01-23 09:47:23.48	175.25	15.55	-25.8	-26.2	16.5	0.00e+00	0	44	0	10460594176	28	15851
2026-01-23 09:47:24.49	175.31	15.69	-25.8	-26.2	16.5	0.00e+00	0	44	0	10578034688	26	17760
2026-01-23 09:47:25.50	175.37	15.83	-25.9	-26.3	16.6	1.08e-05	0	44	0	10687086592	26	17954
2026-01-23 09:47:26.51	175.44	15.98	-25.7	-26.2	16.6	1.08e-05	0	44	0	10796138496	26	17686
2026-01-23 09:47:27.52	175.50	16.12	-25.7	-26.2	16.6	0.00e+00	0	44	0	10913579008	26	17697
2026-01-23 09:47:28.53	175.57	16.26	-25.7	-26.1	16.6	0.00e+00	0	44	0	11031019520	26	17550
2026-01-23 09:47:29.54	175.64	16.41	-25.6	-26.1	16.6	0.00e+00	0	44	0	11140071424	26	17454
2026-01-23 09:47:30.55	175.71	16.56	-25.8	-26.3	16.6	0.00e+00	0	44	0	11257511936	26	17816
2026-01-23 09:47:31.56	175.77	16.70	-25.4	-25.9	16.7	0.00e+00	0	44	0	11366563840	26	17049
2026-01-23 09:47:32.57	175.84	16.85	-25.4	-25.8	16.7	0.00e+00	0	44	0	11484004352	26	16979
2026-01-23 09:47:33.57	175.91	17.00	-25.3	-25.7	16.7	0.00e+00	0	44	0	11601444864	26	16796
2026-01-23 09:47:34.59	175.98	17.15	-25.2	-25.6	16.7	0.00e+00	0	44	0	11710496768	26	16584
2026-01-23 09:47:35.59	176.06	17.31	-25.2	-25.7	16.7	0.00e+00	0	44	0	11819548672	26	16627
2026-01-23 09:47:36.60	176.13	17.46	-25.1	-25.6	16.7	0.00e+00	0	44	0	11936989184	26	16481
2026-01-23 09:47:37.61	176.20	17.61	-25.0	-25.5	16.7	0.00e+00	0	44	0	12054429696	26	16281
2026-01-23 09:47:38.62	176.28	17.77	-24.9	-25.3	16.7	0.00e+00	0	44	0	12163481600	26	16032
2026-01-23 09:47:39.63	176.35	17.93	-25.0	-25.4	16.7	0.00e+00	0	44	0	12280922112	26	16163
2026-01-23 09:47:40.64	176.43	18.09	-24.9	-25.3	16.7	0.00e+00	0	44	0	12389974016	26	15948
2026-01-23 09:47:41.65	176.50	18.25	-24.8	-25.3	16.7	0.00e+00	0	44	0	12507414528	26	15883
2026-01-23 09:47:42.66	176.58	18.41	-24.7	-25.1	16.8	0.00e+00	0	44	0	12616466432	24	17575
2026-01-23 09:47:43.67	176.66	18.57	-24.7	-25.1	16.7	0.00e+00	0	44	0	12733906944	24	17558
2026-01-23 09:47:44.68	176.74	18.73	-24.6	-25.1	16.8	0.00e+00	0	44	0	12842958848	24	17415
2026-01-23 09:47:45.68	176.82	18.90	-24.5	-24.9	16.9	0.00e+00	0	44	0	12960399360	24	17067
2026-01-23 09:47:46.69	176.90	19.06	-24.3	-24.8	16.8	0.00e+00	0	44	0	13069451264	24	16846
2026-01-23 09:47:47.70	176.98	19.23	-24.3	-24.7	16.8	0.00e+00	0	44	0	13186891776	24	16797
2026-01-23 09:47:48.72	177.07	19.40	-24.2	-24.7	16.8	0.00e+00	0	44	0	13304332288	24	16670
2026-01-23 09:47:49.72	177.15	19.57	-24.2	-24.6	16.8	0.00e+00	0	44	0	13413384192	24	16560
2026-01-23 09:47:50.73	177.24	19.74	-24.2	-24.6	16.8	0.00e+00	0	44	0	13530824704	24	16569
2026-01-23 09:47:51.74	177.32	19.92	-24.1	-24.5	16.9	0.00e+00	0	44	0	13639876608	24	16333
2026-01-23 09:47:52.75	177.41	20.09	-24.1	-24.6	16.8	0.00e+00	0	44	0	13748928512	24	16515
2026-01-23 09:47:53.76	177.50	20.27	-24.1	-24.6	16.9	0.00e+00	0	44	0	13866369024	24	16450
2026-01-23 09:47:54.77	177.59	20.45	-24.1	-24.6	16.9	0.00e+00	0	44	0	13983809536	24	16514
2026-01-23 09:47:55.78	177.68	20.63	-24.1	-24.6	16.8	0.00e+00	0	44	0	14092861440	24	16507
2026-01-23 09:47:56.79	177.77	20.81	-23.9	-24.3	16.9	0.00e+00	0	44	0	14210301952	24	16040
2026-01-23 09:47:57.80	177.86	20.99	-23.9	-24.4	16.8	0.00e+00	0	44	0	14319353856	24	16123
2026-01-23 09:47:58.81	177.96	21.17	-23.6	-24.1	16.9	0.00e+00	0	44	0	14436794368	22	17402
2026-01-23 09:47:59.82	178.05	21.36	-23.6	-24.1	17.0	0.00e+00	0	44	0	14554234880	22	17435
2026-01-23 09:48:00.83	178.15	21.55	-23.7	-24.1	16.9	0.00e+00	0	44	0	14663286784	22	17568
2026-01-23 09:48:01.84	178.25	21.74	-23.7	-24.1	16.9	0.00e+00	0	44	0	14772338688	22	17527
2026-01-23 09:48:02.85	178.35	21.93	-23.6	-24.0	17.0	0.00e+00	0	44	0	14889779200	22	17309
2026-01-23 09:48:03.86	178.45	22.12	-23.5	-24.0	16.9	0.00e+00	0	44	0	14998831104	22	17237
2026-01-23 09:48:04.87	178.55	22.31	-23.6	-24.0	17.0	0.00e+00	0	44	0	15116271616	22	17260
2026-01-23 09:48:05.87	178.65	22.51	-23.3	-23.8	17.0	0.00e+00	0	44	0	15233712128	22	16816
2026-01-23 09:48:06.88	178.76	22.71	-23.3	-23.8	17.0	0.00e+00	0	44	0	15342764032	22	16866
2026-01-23 09:48:07.89	178.87	22.91	-23.3	-23.7	17.0	0.00e+00	0	44	0	15460204544	22	16802
2026-01-23 09:48:08.90	178.97	23.11	-23.0	-23.4	17.0	0.00e+00	0	44	0	15569256448	22	16231
2026-01-23 09:48:09.91	179.08	23.31	-23.0	-23.4	17.0	0.00e+00	0	44	0	15686696960	22	16139
2026-01-23 09:48:10.92	179.19	23.52	-22.9	-23.3	17.1	0.00e+00	0	44	0	15795748864	22	16020
2026-01-23 09:48:11.93	179.31	23.72	-22.9	-23.3	17.0	0.00e+00	0	44	0	15913189376	22	15963
2026-01-23 09:48:12.94	179.42	23.93	-22.9	-23.3	17.1	0.00e+00	0	44	0	16022241280	22	15940
2026-01-23 09:48:13.95	179.54	24.14	-22.4	-22.8	17.1	0.00e+00	0	44	0	16139681792	20	16919
2026-01-23 09:48:14.96	179.65	24.36	-22.4	-22.8	17.1	0.00e+00	0	44	0	16257122304	20	16977
2026-01-23 09:48:15.97	179.77	24.57	-22.1	-22.6	17.1	0.00e+00	0	44	0	16366174208	20	16452
2026-01-23 09:48:16.98	179.89	24.79	-22.2	-22.6	17.1	0.00e+00	0	44	0	16483614720	20	16613
2026-01-23 09:48:17.99	180.02	25.01	-22.0	-22.4	17.1	0.00e+00	0	44	0	16592666624	20	16226
2026-01-23 09:48:19.00	180.14	25.23	-22.0	-22.5	17.1	0.00e+00	0	44	0	16701718528	20	16259
2026-01-23 09:48:20.01	180.27	25.45	-22.1	-22.6	17.1	0.00e+00	0	44	0	16819159040	20	16473
2026-01-23 09:48:21.02	180.40	25.68	-21.7	-22.1	17.2	0.00e+00	0	44	0	16936599552	18	17592
2026-01-23 09:48:22.03	180.53	25.90	-21.8	-22.2	17.2	0.00e+00	0	44	0	17045651456	18	17803
2026-01-23 09:48:23.03	180.66	26.13	-21.6	-22.0	17.2	0.00e+00	0	44	0	17163091968	18	17382
2026-01-23 09:48:24.05	180.79	26.37	-21.6	-22.1	17.2	0.00e+00	0	44	0	17272143872	18	17423
2026-01-23 09:48:25.06	180.93	26.60	-21.5	-21.9	17.2	0.00e+00	0	44	0	17389584384	18	17168
2026-01-23 09:48:26.07	181.07	26.84	-21.3	-21.8	17.2	0.00e+00	0	44	0	17507024896	18	16834
2026-01-23 09:48:27.08	181.21	27.08	-21.4	-21.9	17.2	0.00e+00	0	44	0	17616076800	18	17042
2026-01-23 09:48:28.09	181.35	27.32	-21.3	-21.7	17.2	0.00e+00	0	44	0	17725128704	18	16728
2026-01-23 09:48:29.10	181.50	27.56	-21.2	-21.7	17.3	0.00e+00	0	44	0	17842569216	18	16638
2026-01-23 09:48:30.11	181.65	27.81	-21.0	-21.4	17.2	0.00e+00	0	44	0	17951621120	18	16216
2026-01-23 09:48:31.12	181.80	28.06	-21.0	-21.3	17.2	0.00e+00	0	44	0	18069061632	18	16053
2026-01-23 09:48:32.13	181.95	28.31	-21.0	-21.3	17.2	0.00e+00	0	44	0	18186502144	18	16053
2026-01-23 09:48:33.14	182.11	28.56	-20.9	-21.3	17.2	0.00e+00	0	44	0	18295554048	18	16043
2026-01-23 09:48:34.15	182.27	28.82	-20.7	-21.1	17.2	0.00e+00	0	44	0	18412994560	16	17569
2026-01-23 09:48:35.16	182.43	29.08	-20.8	-21.2	17.2	0.00e+00	0	44	0	18522046464	16	17733
2026-01-23 09:48:36.17	182.59	29.34	-20.5	-20.9	17.2	0.00e+00	0	44	0	18639486976	16	17140
2026-01-23 09:48:37.18	182.76	29.60	-20.5	-20.9	17.2	0.00e+00	0	44	0	18756927488	16	17067
2026-01-23 09:48:38.19	182.93	29.87	-20.6	-21.0	17.2	0.00e+00	0	44	0	18865979392	16	17304
2026-01-23 09:48:39.20	183.10	30.14	-50.7	-53.2	6.1	0.00e+00	0	44	104	18882756608	60	55839
2026-01-23 09:48:40.21	183.28	30.41	-50.7	-53.2	6.1	0.00e+00	0	44	104	18882756608	60	55867
2026-01-23 09:48:41.22	183.45	30.69	-50.7	-53.2	6.1	0.00e+00	0	44	104	18882756608	60	56028
2026-01-23 09:48:42.23	183.64	30.97	-50.7	-53.2	6.1	0.00e+00	0	44	104	18882756608	60	56000
2026-01-23 09:48:43.24	183.82	31.25	-50.7	-53.2	6.1	0.00e+00	0	44	104	18882756608	60	55768
2026-01-23 09:48:44.25	184.01	31.53	-50.7	-53.2	6.1	0.00e+00	0	43	104	18882756608	60	55791
2026-01-23 09:48:45.26	184.20	31.82	-50.6	-53.2	6.1	0.00e+00	0	43	104	18882756608	60	55703
2026-01-23 09:48:46.27	184.40	32.11	-50.7	-53.2	6.1	0.00e+00	0	44	104	18882756608	60	56106
2026-01-23 09:48:47.28	184.60	32.40	-50.7	-53.2	6.0	0.00e+00	0	43	104	18882756608	60	55676
2026-01-23 09:48:48.28	184.80	32.69	-50.6	-53.2	6.1	0.00e+00	0	43	104	18882756608	60	55761
2026-01-23 09:48:49.30	185.01	33.00	-50.5	-53.0	6.1	0.00e+00	0	43	104	18882756608	60	54723
2026-01-23 09:48:50.31	185.22	33.30	-50.7	-53.2	6.1	0.00e+00	0	44	104	18882756608	60	56116
2026-01-23 09:48:51.32	185.44	33.60	-50.6	-53.2	6.1	0.00e+00	0	43	104	18882756608	60	55782
2026-01-23 09:48:52.33	185.66	33.91	-50.6	-53.1	6.1	0.00e+00	0	43	104	18882756608	60	55570
2026-01-23 09:48:53.34	185.88	34.22	-50.5	-53.0	6.1	0.00e+00	0	43	104	18882756608	60	54960
2026-01-23 09:48:54.35	186.11	34.54	-50.6	-53.1	6.1	0.00e+00	0	43	104	18882756608	60	55393
2026-01-23 09:48:55.36	186.34	34.85	-50.6	-53.1	6.1	0.00e+00	0	43	104	18882756608	60	55544
2026-01-23 09:48:56.36	186.58	35.17	-50.6	-53.2	6.1	0.00e+00	0	43	104	18882756608	60	55708
2026-01-23 09:48:57.37	186.82	35.50	-50.6	-53.2	6.1	0.00e+00	0	44	104	18882756608	60	55945
2026-01-23 09:48:58.38	187.07	35.82	-50.6	-53.1	6.0	0.00e+00	0	43	104	18882756608	60	55333
2026-01-23 09:48:59.40	187.33	36.16	-50.7	-53.3	6.1	0.00e+00	0	43	104	18882756608	60	56338
2026-01-23 09:49:00.40	187.58	36.49	-50.6	-53.1	6.1	0.00e+00	0	44	104	18882756608	60	55533
2026-01-23 09:49:01.41	187.85	36.83	-50.7	-53.2	6.1	0.00e+00	0	43	104	18882756608	60	55933
2026-01-23 09:49:02.43	188.12	37.17	-50.7	-53.2	6.1	0.00e+00	0	43	104	18882756608	60	56163
2026-01-23 09:49:03.43	188.39	37.51	-50.7	-53.2	6.1	0.00e+00	0	43	104	18882756608	60	55953
2026-01-23 09:49:04.44	188.68	37.86	-50.7	-53.3	6.1	0.00e+00	0	43	104	18882756608	60	56689
2026-01-23 09:49:05.45	188.97	38.21	-50.7	-53.2	6.1	0.00e+00	0	43	104	18882756608	60	56241
2026-01-23 09:49:06.46	189.26	38.57	-50.8	-53.4	6.1	0.00e+00	0	43	104	18882756608	60	57032
2026-01-23 09:49:07.47	189.56	38.92	-50.8	-53.3	6.1	0.00e+00	0	44	104	18882756608	60	56357
2026-01-23 09:49:08.48	189.87	39.28	-50.9	-53.3	6.1	0.00e+00	0	43	104	18882756608	60	56719
2026-01-23 09:49:09.49	190.19	39.65	-50.8	-53.4	6.1	0.00e+00	0	43	104	18882756608	60	57328
2026-01-23 09:49:10.50	190.51	40.02	-50.8	-53.3	6.1	0.00e+00	0	43	104	18882756608	60	56666
2026-01-23 09:49:11.51	190.84	40.39	-50.9	-53.4	6.1	0.00e+00	0	43	104	18882756608	60	57135
2026-01-23 09:49:12.52	191.18	40.76	-50.8	-53.3	6.1	0.00e+00	0	43	104	18882756608	60	56890
2026-01-23 09:49:13.53	191.53	41.14	-50.9	-53.4	6.1	0.00e+00	0	43	104	18882756608	60	57413
2026-01-23 09:49:14.54	191.89	41.52	-50.9	-53.4	6.1	0.00e+00	0	44	104	18882756608	60	57536
2026-01-23 09:49:15.55	192.25	41.91	-50.9	-53.4	6.1	0.00e+00	0	44	104	18882756608	60	57318
2026-01-23 09:49:16.56	192.63	42.30	-50.9	-53.4	6.1	0.00e+00	0	43	104	18882756608	60	57331
2026-01-23 09:49:17.57	193.01	42.69	-50.9	-53.4	6.1	0.00e+00	0	43	104	18882756608	60	57368
2026-01-23 09:49:18.58	193.40	43.08	-51.0	-53.4	6.1	0.00e+00	0	43	104	18882756608	60	57614
2026-01-23 09:49:19.59	193.81	43.48	-51.0	-53.4	6.1	0.00e+00	0	43	104	18882756608	60	57477
2026-01-23 09:49:20.60	194.22	43.88	-51.0	-53.5	6.1	0.00e+00	0	43	104	18882756608	60	57681
2026-01-23 09:49:21.61	194.64	44.29	-51.0	-53.5	6.1	0.00e+00	0	43	104	18882756608	60	57695
2026-01-23 09:49:22.62	195.08	44.70	-51.0	-53.5	6.1	0.00e+00	0	43	104	18882756608	60	57827
2026-01-23 09:49:23.63	195.53	45.11	-51.0	-53.4	6.1	0.00e+00	0	43	104	18882756608	60	57552
2026-01-23 09:49:24.64	195.99	45.52	-51.0	-53.5	6.1	0.00e+00	0	43	104	18882756608	60	57920
2026-01-23 09:49:25.65	196.46	45.94	-51.0	-53.5	6.1	0.00e+00	0	43	104	18882756608	60	57893
2026-01-23 09:49:26.66	196.94	46.35	-51.0	-53.5	6.1	0.00e+00	0	43	104	18882756608	60	57767
2026-01-23 09:49:27.67	197.44	46.78	-51.1	-53.5	6.1	0.00e+00	0	43	104	18882756608	60	58217
2026-01-23 09:49:28.69	197.96	47.20	-51.0	-53.5	6.1	0.00e+00	0	43	104	18882756608	60	57911
2026-01-23 09:49:29.70	198.49	47.63	-51.0	-53.5	6.1	0.00e+00	0	43	104	18882756608	60	57747
2026-01-23 09:49:30.70	199.02	48.05	-51.0	-53.5	6.1	0.00e+00	0	43	104	18882756608	60	57974
2026-01-23 09:49:31.71	199.58	48.48	-51.0	-53.5	6.1	0.00e+00	0	44	104	18882756608	60	57837
2026-01-23 09:49:32.72	200.15	48.91	-51.0	-53.5	6.1	0.00e+00	0	43	104	18882756608	60	57623
2026-01-23 09:49:33.73	200.74	49.35	-51.0	-53.4	6.1	0.00e+00	0	43	104	18882756608	60	57469
2026-01-23 09:49:34.74	201.35	49.78	-51.0	-53.5	6.1	0.00e+00	0	43	104	18882756608	60	57930
2026-01-23 09:49:35.75	201.98	50.22	-51.0	-53.5	6.0	0.00e+00	0	43	104	18882756608	60	57718
2026-01-23 09:49:36.76	202.62	50.66	-51.0	-53.4	6.1	0.00e+00	0	43	104	18882756608	60	57544
2026-01-23 09:49:37.77	203.28	51.09	-51.0	-53.5	6.1	0.00e+00	0	43	104	18882756608	60	57870
2026-01-23 09:49:38.78	203.96	51.53	-51.0	-53.5	6.1	0.00e+00	0	43	104	18882756608	60	57784
2026-01-23 09:49:39.78	204.66	51.97	-51.0	-53.4	6.1	0.00e+00	0	43	104	18882756608	60	57495
2026-01-23 09:49:40.79	205.39	52.41	-51.0	-53.4	6.1	0.00e+00	0	43	104	18882756608	60	57075
2026-01-23 09:49:41.80	206.13	52.84	-51.0	-53.5	6.1	0.00e+00	0	43	104	18882756608	60	57670
2026-01-23 09:49:42.81	206.90	53.28	-51.0	-53.5	6.1	0.00e+00	0	43	104	18882756608	60	57913
2026-01-23 09:49:43.82	207.70	53.72	-51.0	-53.5	6.1	0.00e+00	0	43	104	18882756608	60	57922
2026-01-23 09:49:44.84	208.52	54.16	-51.0	-53.5	6.1	0.00e+00	0	43	104	18882756608	60	57650
2026-01-23 09:49:45.85	209.37	54.59	-51.0	-53.4	6.1	0.00e+00	0	43	104	18882756608	60	57518
2026-01-23 09:49:46.85	210.23	55.02	-51.0	-53.4	6.1	0.00e+00	0	43	104	18882756608	60	57485
2026-01-23 09:49:47.86	211.12	55.44	-51.0	-53.5	6.1	0.00e+00	0	43	104	18882756608	60	57694
2026-01-23 09:49:48.87	212.05	55.87	-50.9	-53.4	6.1	0.00e+00	0	43	104	18882756608	60	57528
2026-01-23 09:49:49.88	213.00	56.29	-50.9	-53.4	6.0	0.00e+00	0	43	104	18882756608	60	57034
2026-01-23 09:49:50.89	213.98	56.71	-50.9	-53.4	6.1	0.00e+00	0	43	104	18882756608	60	56978
2026-01-23 09:49:51.90	215.00	57.12	-50.8	-53.3	6.1	0.00e+00	0	43	104	18882756608	60	56812
2026-01-23 09:49:52.91	216.04	57.53	-50.8	-53.4	6.1	0.00e+00	0	43	104	18882756608	60	56975
2026-01-23 09:49:53.92	217.12	57.93	-50.9	-53.4	6.1	0.00e+00	0	43	104	18882756608	60	57138
2026-01-23 09:49:54.93	218.23	58.32	-50.9	-53.4	6.1	0.00e+00	0	43	104	18882756608	60	57275
2026-01-23 09:49:55.93	219.36	58.70	-50.9	-53.4	6.1	0.00e+00	0	43	104	18882756608	60	57471
2026-01-23 09:49:56.94	220.53	59.08	-50.9	-53.4	6.1	0.00e+00	0	43	104	18882756608	60	57322
2026-01-23 09:49:57.95	221.74	59.45	-50.9	-53.4	6.1	0.00e+00	0	43	104	18882756608	60	57183
2026-01-23 09:49:58.96	222.99	59.81	-50.9	-53.4	6.1	0.00e+00	0	43	104	18882756608	60	57578
2026-01-23 09:49:59.97	224.27	60.16	-50.9	-53.4	6.1	0.00e+00	0	43	104	18882756608	60	57116
2026-01-23 09:50:00.98	225.58	60.50	-50.9	-53.4	6.1	0.00e+00	0	43	104	18882756608	60	57343
2026-01-23 09:50:01.99	226.93	60.83	-50.9	-53.4	6.1	0.00e+00	0	43	104	18882756608	60	57228
2026-01-23 09:50:03.00	228.32	61.15	-50.9	-53.3	6.1	0.00e+00	0	43	104	18882756608	60	56912
2026-01-23 09:50:04.01	229.74	61.45	-50.9	-53.4	6.1	0.00e+00	0	43	104	18882756608	60	56981
2026-01-23 09:50:05.02	231.19	61.74	-50.9	-53.4	6.1	0.00e+00	0	43	104	18882756608	60	57544
2026-01-23 09:50:06.03	232.68	62.01	-50.9	-53.4	6.1	0.00e+00	0	43	104	18882756608	60	57190
2026-01-23 09:50:07.04	234.20	62.27	-51.0	-53.4	6.1	0.00e+00	0	43	104	18882756608	60	57385
2026-01-23 09:50:08.05	235.75	62.51	-51.0	-53.5	6.1	0.00e+00	0	43	104	18882756608	60	57798
2026-01-23 09:50:09.06	237.33	62.74	-50.8	-53.4	6.1	0.00e+00	0	43	104	18882756608	60	57073
2026-01-23 09:50:10.07	238.95	62.95	-50.9	-53.5	6.1	0.00e+00	0	43	104	18882756608	60	57634
2026-01-23 09:50:11.08	240.59	63.14	-50.9	-53.4	6.1	0.00e+00	0	43	104	18882756608	60	57220
2026-01-23 09:50:12.09	242.25	63.31	-50.9	-53.4	6.1	0.00e+00	0	43	104	18882756608	60	57095
2026-01-23 09:50:13.09	243.92	63.46	-50.9	-53.4	6.1	0.00e+00	0	43	104	18882756608	60	57129
2026-01-23 09:50:14.10	245.63	63.59	-50.9	-53.4	6.1	0.00e+00	0	43	104	18882756608	60	57118
2026-01-23 09:50:15.11	247.35	63.70	-50.8	-53.3	6.1	0.00e+00	0	43	104	18882756608	60	56845
2026-01-23 09:50:16.12	249.09	63.79	-50.8	-53.3	6.1	0.00e+00	0	43	104	18882756608	60	56953
2026-01-23 09:50:17.13	250.85	63.86	-50.9	-53.3	6.1	0.00e+00	0	43	104	18882756608	60	56791
2026-01-23 09:50:18.14	252.61	63.90	-51.0	-53.5	6.1	0.00e+00	0	43	104	18882756608	60	57881
2026-01-23 09:50:19.15	254.37	63.93	-51.0	-53.5	6.1	0.00e+00	0	43	104	18882756608	60	57812
2026-01-23 09:50:20.16	256.14	63.93	-51.0	-53.4	6.1	0.00e+00	0	43	104	18882756608	60	57477
2026-01-23 09:50:21.17	257.91	63.91	-51.0	-53.5	6.1	0.00e+00	0	43	104	18882756608	60	57793
2026-01-23 09:50:22.18	259.67	63.87	-51.0	-53.6	6.1	0.00e+00	0	43	104	18882756608	60	58354
2026-01-23 09:50:23.19	261.42	63.81	-51.1	-53.5	6.1	0.00e+00	0	43	104	18882756608	60	58153
2026-01-23 09:50:24.20	263.17	63.73	-51.1	-53.6	6.1	0.00e+00	0	43	104	18882756608	60	58319
2026-01-23 09:50:25.21	264.90	63.62	-51.1	-53.5	6.1	0.00e+00	0	43	104	18882756608	60	58259
2026-01-23 09:50:26.22	266.61	63.50	-51.0	-53.4	6.1	0.00e+00	0	43	104	18882756608	60	57231
2026-01-23 09:50:27.23	268.30	63.35	-51.0	-53.5	6.1	0.00e+00	0	43	104	18882756608	60	57761
2026-01-23 09:50:28.24	269.97	63.19	-51.0	-53.5	6.1	0.00e+00	0	43	104	18882756608	60	57999
2026-01-23 09:50:29.25	271.62	63.00	-51.0	-53.5	6.1	0.00e+00	0	43	104	18882756608	60	57730
2026-01-23 09:50:30.25	273.22	62.80	-51.0	-53.4	6.1	0.00e+00	0	43	104	18882756608	60	57558
2026-01-23 09:50:31.27	274.83	62.58	-50.9	-53.3	6.1	0.00e+00	0	43	104	18882756608	60	56882
2026-01-23 09:50:32.28	276.39	62.35	-50.9	-53.4	6.1	0.00e+00	0	43	104	18882756608	60	57268
2026-01-23 09:50:33.28	277.90	62.09	-50.9	-53.4	6.1	0.00e+00	0	43	104	18882756608	60	57394
2026-01-23 09:50:34.29	279.40	61.83	-50.9	-53.5	6.1	0.00e+00	0	43	104	18882756608	60	57643
2026-01-23 09:50:35.30	280.86	61.54	-50.9	-53.4	6.1	0.00e+00	0	43	104	18882756608	60	57395
2026-01-23 09:50:36.31	282.29	61.24	-50.9	-53.4	6.1	0.00e+00	0	43	104	18882756608	60	57481
2026-01-23 09:50:37.32	283.68	60.93	-50.8	-53.3	6.1	0.00e+00	0	43	104	18882756608	60	56815
2026-01-23 09:50:38.33	285.04	60.61	-51.0	-53.5	6.0	0.00e+00	0	43	104	18882756608	60	58053
2026-01-23 09:50:39.34	286.37	60.27	-51.0	-53.5	6.1	0.00e+00	0	43	104	18882756608	60	57873
2026-01-23 09:50:40.35	287.65	59.93	-51.0	-53.4	6.1	0.00e+00	0	43	104	18882756608	60	57612
2026-01-23 09:50:41.36	288.91	59.57	-51.0	-53.5	6.1	0.00e+00	0	43	104	18882756608	60	57944
2026-01-23 09:50:42.37	290.13	59.20	-51.0	-53.5	6.1	0.00e+00	0	43	104	18882756608	60	57682
2026-01-23 09:50:43.38	291.31	58.83	-51.0	-53.5	6.1	0.00e+00	0	43	104	18882756608	60	57818
2026-01-23 09:50:44.39	292.46	58.44	-51.0	-53.6	6.1	0.00e+00	0	43	104	18882756608	60	58292
2026-01-23 09:50:45.39	293.57	58.06	-51.0	-53.5	6.1	0.00e+00	0	43	104	18882756608	60	58069
2026-01-23 09:50:46.40	294.65	57.66	-51.0	-53.5	6.1	0.00e+00	0	43	104	18882756608	60	57894
2026-01-23 09:50:47.41	295.70	57.26	-51.0	-53.5	6.1	0.00e+00	0	43	104	18882756608	60	57824
2026-01-23 09:50:48.42	296.72	56.85	-51.0	-53.5	6.1	0.00e+00	0	43	104	18882756608	60	57689
2026-01-23 09:50:49.43	297.72	56.43	-51.0	-53.5	6.1	0.00e+00	0	43	104	18882756608	60	57767
2026-01-23 09:50:50.44	298.68	56.01	-51.0	-53.5	6.1	0.00e+00	0	43	104	18882756608	60	57664
2026-01-23 09:50:51.45	299.61	55.59	-50.9	-53.4	6.1	0.00e+00	0	43	104	18882756608	60	57264
2026-01-23 09:50:52.46	300.51	55.17	-50.9	-53.4	6.1	0.00e+00	0	43	104	18882756608	60	57286
2026-01-23 09:50:53.47	301.39	54.74	-51.0	-53.5	6.1	0.00e+00	0	43	104	18882756608	60	57690
2026-01-23 09:50:54.48	302.24	54.31	-51.0	-53.5	6.1	0.00e+00	0	43	104	18882756608	60	58160
2026-01-23 09:50:55.49	303.06	53.87	-51.0	-53.5	6.1	0.00e+00	0	43	104	18882756608	60	58018
2026-01-23 09:50:56.50	303.86	53.44	-51.0	-53.5	6.1	0.00e+00	0	43	104	18882756608	60	58156
2026-01-23 09:50:57.51	304.64	53.00	-51.0	-53.5	6.1	0.00e+00	0	43	104	18882756608	60	57744
2026-01-23 09:50:58.52	305.39	52.57	-50.9	-53.3	6.0	0.00e+00	0	43	104	18882756608	60	56924
2026-01-23 09:50:59.52	306.12	52.13	-50.9	-53.4	6.1	0.00e+00	0	43	104	18882756608	60	57079
2026-01-23 09:51:00.53	306.82	51.70	-50.9	-53.4	6.1	0.00e+00	0	43	104	18882756608	60	57607
2026-01-23 09:51:01.54	307.51	51.26	-50.9	-53.4	6.1	0.00e+00	0	43	104	18882756608	60	57385
2026-01-23 09:51:02.55	308.18	50.82	-51.1	-53.6	6.1	0.00e+00	0	43	104	18882756608	60	58301
2026-01-23 09:51:03.55	308.82	50.39	-51.1	-53.6	6.1	0.00e+00	0	43	104	18882756608	60	58367
2026-01-23 09:51:04.56	309.45	49.96	-51.1	-53.5	6.1	0.00e+00	0	43	104	18882756608	60	57896
2026-01-23 09:51:05.57	310.06	49.52	-51.1	-53.6	6.1	0.00e+00	0	43	104	18882756608	60	58753
2026-01-23 09:51:06.59	310.66	49.08	-51.0	-53.5	6.1	0.00e+00	0	43	104	18882756608	60	58153
2026-01-23 09:51:07.60	311.24	48.65	-51.1	-53.6	6.1	0.00e+00	0	43	104	18882756608	60	58625
2026-01-23 09:51:08.61	311.80	48.22	-51.1	-53.6	6.1	0.00e+00	0	43	104	18882756608	60	58547
2026-01-23 09:51:09.62	312.35	47.80	-51.0	-53.5	6.1	0.00e+00	0	43	104	18882756608	60	57637
2026-01-23 09:51:10.63	312.88	47.37	-51.0	-53.6	6.1	0.00e+00	0	43	104	18882756608	60	58306
2026-01-23 09:51:11.63	313.39	46.95	-50.9	-53.4	6.1	0.00e+00	0	43	104	18882756608	60	57535
2026-01-23 09:51:12.64	313.89	46.53	-51.0	-53.5	6.1	0.00e+00	0	43	104	18882756608	60	57760
2026-01-23 09:51:13.65	314.38	46.12	-51.1	-53.6	6.1	0.00e+00	0	43	104	18882756608	60	58511
2026-01-23 09:51:14.66	314.86	45.70	-51.1	-53.6	6.1	0.00e+00	0	43	104	18882756608	60	58445
2026-01-23 09:51:15.67	315.32	45.29	-51.1	-53.5	6.1	0.00e+00	0	43	104	18882756608	60	58064
2026-01-23 09:51:16.68	315.77	44.88	-51.0	-53.5	6.1	0.00e+00	0	43	104	18882756608	60	57888
2026-01-23 09:51:17.69	316.21	44.47	-51.1	-53.5	6.1	0.00e+00	0	43	104	18882756608	60	58059
2026-01-23 09:51:18.69	316.63	44.07	-51.1	-53.6	6.1	0.00e+00	0	43	104	18882756608	60	58501
2026-01-23 09:51:19.71	317.05	43.67	-51.1	-53.6	6.1	0.00e+00	0	43	104	18882756608	60	58695
2026-01-23 09:51:20.71	317.46	43.27	-51.1	-53.6	6.1	0.00e+00	0	43	104	18882756608	60	58552
2026-01-23 09:51:21.72	317.85	42.88	-50.9	-53.5	6.1	0.00e+00	0	43	104	18882756608	60	57684
2026-01-23 09:51:22.73	318.24	42.49	-51.0	-53.5	6.0	0.00e+00	0	43	104	18882756608	60	57808
2026-01-23 09:51:23.74	318.61	42.10	-51.0	-53.5	6.1	0.00e+00	0	43	104	18882756608	60	57835
2026-01-23 09:51:24.75	318.98	41.71	-50.9	-53.4	6.1	0.00e+00	0	43	104	18882756608	60	57568
2026-01-23 09:51:25.76	319.34	41.33	-51.1	-53.6	6.1	0.00e+00	0	43	104	18882756608	60	58371
2026-01-23 09:51:26.77	319.69	40.96	-51.1	-53.6	6.1	0.00e+00	0	43	104	18882756608	60	58323
2026-01-23 09:51:27.78	320.03	40.58	-51.1	-53.6	6.1	0.00e+00	0	43	104	18882756608	60	58619
2026-01-23 09:51:28.79	320.37	40.21	-51.0	-53.5	6.1	0.00e+00	0	43	104	18882756608	60	58034
2026-01-23 09:51:29.80	320.69	39.84	-51.1	-53.6	6.1	0.00e+00	0	43	104	18882756608	60	58370
2026-01-23 09:51:30.80	321.01	39.48	-51.1	-53.6	6.1	0.00e+00	0	43	104	18882756608	60	58414
2026-01-23 09:51:31.81	321.32	39.12	-51.2	-53.6	6.1	0.00e+00	0	43	104	18882756608	60	58507
2026-01-23 09:51:32.82	321.62	38.76	-51.1	-53.6	6.1	0.00e+00	0	43	104	18882756608	60	58576
2026-01-23 09:51:33.83	321.92	38.41	-50.7	-53.3	6.1	0.00e+00	0	43	104	18882756608	60	56660
2026-01-23 09:51:34.84	322.21	38.06	-50.9	-53.4	6.1	0.00e+00	0	43	104	18882756608	60	57534
2026-01-23 09:51:35.85	322.50	37.71	-51.1	-53.5	6.1	0.00e+00	0	43	104	18882756608	60	58247
2026-01-23 09:51:36.86	322.78	37.36	-51.1	-53.6	6.1	0.00e+00	0	43	104	18882756608	60	58419
2026-01-23 09:51:37.88	323.05	37.02	-50.7	-53.2	6.1	0.00e+00	0	43	104	18882756608	60	55942
2026-01-23 09:51:38.88	323.31	36.69	-50.8	-53.4	6.1	0.00e+00	0	43	104	18882756608	60	57234
2026-01-23 09:51:39.90	323.58	36.35	-50.8	-53.4	6.1	0.00e+00	0	43	104	18882756608	60	56979
2026-01-23 09:51:40.91	323.83	36.02	-51.1	-53.6	6.1	0.00e+00	0	43	104	18882756608	60	58630
2026-01-23 09:51:41.92	324.08	35.69	-50.7	-53.2	6.1	0.00e+00	0	43	104	18882756608	60	56152
2026-01-23 09:51:42.93	324.33	35.37	-50.6	-53.2	6.1	0.00e+00	0	43	104	18882756608	60	55731
2026-01-23 09:51:43.94	324.57	35.05	-50.7	-53.2	6.1	0.00e+00	0	43	104	18882756608	60	56235
2026-01-23 09:51:44.94	324.80	34.73	-51.1	-53.5	6.1	0.00e+00	0	43	104	18882756608	60	58271
2026-01-23 09:51:45.95	325.03	34.42	-50.7	-53.2	6.1	0.00e+00	0	43	104	18882756608	60	56188
2026-01-23 09:51:46.96	325.26	34.11	-50.7	-53.2	6.1	0.00e+00	0	43	104	18882756608	60	55975
2026-01-23 09:51:47.97	325.48	33.80	-50.8	-53.3	6.1	0.00e+00	0	43	104	18882756608	60	56513
2026-01-23 09:51:48.98	325.69	33.49	-51.0	-53.5	6.1	0.00e+00	0	43	104	18882756608	60	58053
2026-01-23 09:51:49.99	325.91	33.19	-50.8	-53.3	6.1	0.00e+00	0	43	104	18882756608	60	56937
2026-01-23 09:51:51.00	326.12	32.89	-50.7	-53.2	6.1	0.00e+00	0	43	104	18882756608	60	56157
2026-01-23 09:51:52.01	326.32	32.60	-50.7	-53.2	6.1	0.00e+00	0	43	104	18882756608	60	56187
2026-01-23 09:51:53.02	326.52	32.30	-50.8	-53.3	6.1	0.00e+00	0	43	104	18882756608	60	56859
2026-01-23 09:51:54.03	326.72	32.01	-51.0	-53.5	6.1	0.00e+00	0	43	104	18882756608	60	57761
2026-01-23 09:51:55.04	326.91	31.73	-50.6	-53.2	6.1	0.00e+00	0	43	104	18882756608	60	56074
2026-01-23 09:51:56.05	327.10	31.44	-50.6	-53.2	6.1	0.00e+00	0	43	104	18882756608	60	55860
2026-01-23 09:51:57.06	327.29	31.16	-50.5	-53.1	6.1	0.00e+00	0	43	104	18882756608	60	55184
2026-01-23 09:51:58.07	327.47	30.89	-51.0	-53.4	6.1	0.00e+00	0	43	104	18882756608	60	57595
2026-01-23 09:51:59.08	327.65	30.61	-50.6	-53.2	6.1	0.00e+00	0	43	104	18882756608	60	55917
2026-01-23 09:52:00.09	327.83	30.34	-50.7	-53.2	6.1	0.00e+00	0	43	104	18882756608	60	56286
2026-01-23 09:52:01.10	328.00	30.07	-50.3	-52.9	6.1	0.00e+00	0	43	104	18882756608	60	54024
2026-01-23 09:52:02.10	328.17	29.80	-51.1	-53.5	6.1	0.00e+00	0	43	104	18882756608	60	58279
2026-01-23 09:52:03.11	328.34	29.54	-50.6	-53.2	6.1	0.00e+00	0	43	104	18882756608	60	55682
2026-01-23 09:52:04.12	328.50	29.28	-50.5	-53.1	6.1	0.00e+00	0	43	104	18882756608	60	55519
2026-01-23 09:52:05.13	328.67	29.02	-50.7	-53.3	6.1	0.00e+00	0	43	104	18882756608	60	56460
2026-01-23 09:52:06.14	328.83	28.76	-50.8	-53.3	6.1	0.00e+00	0	43	104	18882756608	60	56794
2026-01-23 09:52:07.14	328.98	28.51	-51.0	-53.5	6.1	0.00e+00	0	43	104	18882756608	60	57925
2026-01-23 09:52:08.16	329.14	28.26	-50.9	-53.4	6.0	0.00e+00	0	43	104	18882756608	60	57199
2026-01-23 09:52:09.17	329.29	28.01	-51.0	-53.5	6.1	0.00e+00	0	43	104	18882756608	60	57852
2026-01-23 09:52:10.18	329.44	27.76	-50.9	-53.4	6.1	0.00e+00	0	43	104	18882756608	60	57362
2026-01-23 09:52:11.18	329.58	27.52	-51.0	-53.5	6.1	0.00e+00	0	43	104	18882756608	60	57994
2026-01-23 09:52:12.19	329.73	27.28	-50.9	-53.4	6.1	0.00e+00	0	43	104	18882756608	60	57321
2026-01-23 09:52:13.20	329.87	27.04	-50.9	-53.4	6.1	0.00e+00	0	43	104	18882756608	60	57371
2026-01-23 09:52:14.21	330.01	26.80	-50.9	-53.4	6.1	0.00e+00	0	43	104	18882756608	60	57236
2026-01-23 09:52:15.22	330.15	26.57	-50.8	-53.3	6.1	0.00e+00	0	43	104	18882756608	60	56685
2026-01-23 09:52:16.23	330.28	26.34	-50.7	-53.3	6.0	0.00e+00	0	43	104	18882756608	60	56632
2026-01-23 09:52:17.24	330.42	26.11	-51.0	-53.5	6.1	0.00e+00	0	43	104	18882756608	60	57684
2026-01-23 09:52:18.25	330.55	25.88	-50.9	-53.4	6.1	0.00e+00	0	43	104	18882756608	60	56978
2026-01-23 09:52:19.25	330.67	25.65	-50.9	-53.4	6.1	0.00e+00	0	43	104	18882756608	60	57015
2026-01-23 09:52:20.26	330.80	25.43	-50.9	-53.4	6.1	0.00e+00	0	43	104	18882756608	60	57323
2026-01-23 09:52:21.27	330.93	25.21	-50.9	-53.5	6.1	0.00e+00	0	43	104	18882756608	60	57771
2026-01-23 09:52:22.28	331.05	24.99	-51.0	-53.4	6.1	0.00e+00	0	43	104	18882756608	60	57445
2026-01-23 09:52:23.29	331.17	24.77	-51.0	-53.4	6.1	0.00e+00	0	43	104	18882756608	60	57618
2026-01-23 09:52:24.30	331.29	24.56	-50.8	-53.3	6.1	0.00e+00	0	43	104	18882756608	60	56776
2026-01-23 09:52:25.31	331.41	24.35	-50.9	-53.4	6.1	0.00e+00	0	43	104	18882756608	60	57512
2026-01-23 09:52:26.32	331.53	24.13	-50.9	-53.4	6.1	0.00e+00	0	43	104	18882756608	60	57347
2026-01-23 09:52:27.33	331.64	23.93	-50.9	-53.4	6.1	0.00e+00	0	43	104	18882756608	60	57195
2026-01-23 09:52:28.34	331.76	23.72	-50.9	-53.4	6.1	0.00e+00	0	43	104	18882756608	60	57162
2026-01-23 09:52:29.35	331.87	23.51	-50.9	-53.4	6.1	0.00e+00	0	43	104	18882756608	60	56981
2026-01-23 09:52:30.36	331.98	23.31	-50.9	-53.4	6.1	0.00e+00	0	43	104	18882756608	60	57475
2026-01-23 09:52:31.37	332.09	23.11	-50.8	-53.3	6.1	0.00e+00	0	43	104	18882756608	60	56793
2026-01-23 09:52:32.38	332.20	22.91	-50.9	-53.4	6.1	0.00e+00	0	43	104	18882756608	60	57142
2026-01-23 09:52:33.38	332.30	22.71	-50.9	-53.3	6.1	0.00e+00	0	43	104	18882756608	60	56908
2026-01-23 09:52:34.39	332.40	22.52	-50.9	-53.4	6.1	0.00e+00	0	43	104	18882756608	60	57132
2026-01-23 09:52:35.40	332.51	22.32	-50.8	-53.3	6.1	0.00e+00	0	43	104	18882756608	60	56813
2026-01-23 09:52:36.41	332.61	22.13	-50.9	-53.4	6.1	0.00e+00	0	43	104	18882756608	60	57004
2026-01-23 09:52:37.42	332.71	21.94	-50.9	-53.4	6.1	0.00e+00	0	43	104	18882756608	60	57162
2026-01-23 09:52:38.43	332.81	21.75	-50.8	-53.3	6.1	0.00e+00	0	43	104	18882756608	60	56554
2026-01-23 09:52:39.44	332.91	21.56	-50.8	-53.3	6.1	0.00e+00	0	43	104	18882756608	60	56324
2026-01-23 09:52:40.45	333.00	21.38	-50.8	-53.2	6.1	0.00e+00	0	43	104	18882756608	60	56129
2026-01-23 09:52:41.46	333.10	21.19	-50.9	-53.4	6.1	0.00e+00	0	43	104	18882756608	60	57115
2026-01-23 09:52:42.47	333.19	21.01	-50.8	-53.2	6.1	0.00e+00	0	43	104	18882756608	60	56299
2026-01-23 09:52:43.48	333.28	20.83	-50.8	-53.3	6.1	0.00e+00	0	43	104	18882756608	60	56540
2026-01-23 09:52:44.49	333.38	20.65	-50.8	-53.3	6.1	0.00e+00	0	43	104	18882756608	60	56865
2026-01-23 09:52:45.50	333.47	20.47	-50.8	-53.3	6.1	0.00e+00	0	43	104	18882756608	60	56904
2026-01-23 09:52:46.51	333.56	20.29	-50.8	-53.3	6.1	0.00e+00	0	43	104	18882756608	60	56630
2026-01-23 09:52:47.51	333.64	20.12	-50.8	-53.3	6.1	0.00e+00	0	43	104	18882756608	60	56419
2026-01-23 09:52:48.53	333.73	19.95	-50.9	-53.4	6.1	0.00e+00	0	43	104	18882756608	60	57122
2026-01-23 09:52:49.53	333.82	19.78	-50.9	-53.4	6.1	0.00e+00	0	43	104	18882756608	60	57225
2026-01-23 09:52:50.54	333.90	19.60	-50.9	-53.3	6.1	0.00e+00	0	43	104	18882756608	60	56710
2026-01-23 09:52:51.55	333.98	19.44	-50.9	-53.4	6.1	0.00e+00	0	43	104	18882756608	60	57142
2026-01-23 09:52:52.56	334.07	19.27	-50.8	-53.3	6.1	0.00e+00	0	43	104	18882756608	60	56596
2026-01-23 09:52:53.57	334.15	19.10	-50.8	-53.3	6.1	0.00e+00	0	43	104	18882756608	60	56765
2026-01-23 09:52:54.58	334.23	18.94	-50.9	-53.4	6.1	0.00e+00	0	43	104	18882756608	60	57140
2026-01-23 09:52:55.59	334.31	18.77	-50.9	-53.4	6.1	0.00e+00	0	43	104	18882756608	60	56964
2026-01-23 09:52:56.60	334.39	18.61	-50.8	-53.3	6.1	0.00e+00	0	43	104	18882756608	60	56625
2026-01-23 09:52:57.61	334.47	18.45	-50.8	-53.3	6.1	0.00e+00	0	43	104	18882756608	60	56706
2026-01-23 09:52:58.62	334.55	18.29	-50.8	-53.3	6.1	0.00e+00	0	43	104	18882756608	60	56593
2026-01-23 09:52:59.63	334.62	18.13	-50.8	-53.3	6.1	0.00e+00	0	43	104	18882756608	60	56710
2026-01-23 09:53:00.63	334.70	17.97	-50.8	-53.3	6.1	0.00e+00	0	43	104	18882756608	60	56511
2026-01-23 09:53:01.64	334.77	17.82	-50.8	-53.3	6.1	0.00e+00	0	43	104	18882756608	60	56641
2026-01-23 09:53:02.65	334.85	17.66	-50.8	-53.3	6.1	0.00e+00	0	43	104	18882756608	60	56730
2026-01-23 09:53:03.66	334.92	17.51	-50.7	-53.2	6.1	0.00e+00	0	43	104	18882756608	60	56042
2026-01-23 09:53:04.67	334.99	17.36	-50.8	-53.3	6.1	0.00e+00	0	43	104	18882756608	60	56826
2026-01-23 09:53:05.68	335.06	17.21	-50.8	-53.3	6.1	0.00e+00	0	43	104	18882756608	60	56384
2026-01-23 09:53:06.69	335.13	17.05	-50.8	-53.3	6.1	0.00e+00	0	43	104	18882756608	60	56637
2026-01-23 09:53:07.70	335.20	16.91	-50.8	-53.3	6.1	0.00e+00	0	43	104	18882756608	60	56378
2026-01-23 09:53:08.71	335.27	16.76	-50.8	-53.3	6.1	0.00e+00	0	43	104	18882756608	60	56442
2026-01-23 09:53:09.72	335.34	16.61	-50.8	-53.3	6.1	0.00e+00	0	43	104	18882756608	60	56432
2026-01-23 09:53:10.73	335.41	16.47	-50.7	-53.2	6.1	0.00e+00	0	43	104	18882756608	60	55972
2026-01-23 09:53:11.74	335.48	16.32	-50.7	-53.2	6.1	0.00e+00	0	43	104	18882756608	60	56152
2026-01-23 09:53:12.75	335.54	16.18	-50.8	-53.3	6.1	0.00e+00	0	43	104	18882756608	60	56599
2026-01-23 09:53:13.75	335.61	16.04	-50.7	-53.2	6.1	0.00e+00	0	43	104	18882756608	60	56188
2026-01-23 09:53:14.76	335.67	15.89	-50.8	-53.3	6.1	0.00e+00	0	43	104	18882756608	60	56557
2026-01-23 09:53:15.77	335.74	15.75	-50.5	-53.1	6.1	0.00e+00	0	43	104	18882756608	60	55193
2026-01-23 09:53:16.78	335.80	15.61	-50.8	-53.3	6.1	0.00e+00	0	43	104	18882756608	60	56372
2026-01-23 09:53:17.79	335.87	15.48	-50.7	-53.2	6.1	0.00e+00	0	43	104	18882756608	60	56145
2026-01-23 09:53:18.80	335.93	15.34	-50.7	-53.2	6.1	0.00e+00	0	43	104	18882756608	60	56248
2026-01-23 09:53:19.81	335.99	15.20	-50.7	-53.2	6.1	0.00e+00	0	43	104	18882756608	60	55828
2026-01-23 09:53:20.82	336.05	15.07	-50.7	-53.2	6.1	0.00e+00	0	43	104	18882756608	60	56221
2026-01-23 09:53:21.83	336.11	14.93	-50.7	-53.2	6.1	0.00e+00	0	43	104	18882756608	60	55826
2026-01-23 09:53:22.84	336.17	14.80	-50.7	-53.2	6.1	0.00e+00	0	43	104	18882756608	60	55695
2026-01-23 09:53:23.85	336.23	14.66	-50.5	-53.0	6.1	0.00e+00	0	43	104	18882756608	60	54836
2026-01-23 09:53:24.86	336.29	14.53	-50.6	-53.2	6.1	0.00e+00	0	43	104	18882756608	60	55768
2026-01-23 09:53:25.87	336.35	14.40	-50.3	-52.9	6.1	0.00e+00	0	43	104	18882756608	60	53800
2026-01-23 09:53:26.88	336.41	14.27	-50.7	-53.2	6.1	0.00e+00	0	43	104	18882756608	60	55922
2026-01-23 09:53:27.89	336.46	14.14	-50.6	-53.1	6.1	0.00e+00	0	43	104	18882756608	60	55372
2026-01-23 09:53:28.90	336.52	14.01	-50.7	-53.2	6.1	0.00e+00	0	43	104	18882756608	60	55833
2026-01-23 09:53:29.91	336.58	13.89	-50.4	-53.0	6.1	0.00e+00	0	43	104	18882756608	60	54451
2026-01-23 09:53:30.92	336.63	13.76	-50.6	-53.1	6.1	0.00e+00	0	43	104	18882756608	60	55226
2026-01-23 09:53:31.93	336.69	13.63	-50.6	-53.1	6.1	0.00e+00	0	43	104	18882756608	60	55477
2026-01-23 09:53:32.93	336.74	13.51	-50.4	-53.0	6.1	0.00e+00	0	43	104	18882756608	60	54718
2026-01-23 09:53:33.95	336.79	13.38	-50.5	-53.0	6.1	0.00e+00	0	43	104	18882756608	60	54881
2026-01-23 09:53:34.95	336.85	13.26	-50.1	-52.7	6.1	0.00e+00	0	43	104	18882756608	60	52999
2026-01-23 09:53:35.96	336.90	13.14	-50.6	-53.1	6.1	0.00e+00	0	43	104	18882756608	60	55242
2026-01-23 09:53:36.97	336.95	13.02	-50.5	-53.0	6.1	0.00e+00	0	43	104	18882756608	60	54977
2026-01-23 09:53:37.98	337.01	12.90	-50.6	-53.2	6.1	0.00e+00	0	43	104	18882756608	60	55884
2026-01-23 09:53:38.99	337.06	12.78	-50.4	-53.0	6.1	0.00e+00	0	43	104	18882756608	60	54498
2026-01-23 09:53:40.00	337.11	12.66	-50.4	-53.0	6.1	0.00e+00	0	43	104	18882756608	60	54688
2026-01-23 09:53:41.01	337.16	12.54	-50.5	-53.1	6.1	0.00e+00	0	43	104	18882756608	60	55206
2026-01-23 09:53:42.02	337.21	12.42	-50.5	-53.0	6.1	0.00e+00	0	43	104	18882756608	60	54733
2026-01-23 09:53:43.03	337.26	12.30	-50.5	-53.0	6.1	0.00e+00	0	43	104	18882756608	60	54804
2026-01-23 09:53:44.04	337.31	12.19	-50.5	-53.1	6.1	0.00e+00	0	43	104	18882756608	60	55129
2026-01-23 09:53:45.05	337.36	12.07	-50.5	-53.0	6.1	0.00e+00	0	43	104	18882756608	60	54687
2026-01-23 09:53:46.05	337.41	11.96	-50.3	-52.9	6.1	0.00e+00	0	43	104	18882756608	60	54137
2026-01-23 09:53:47.06	337.45	11.84	-50.6	-53.1	6.1	0.00e+00	0	43	104	18882756608	60	55541
2026-01-23 09:53:48.07	337.50	11.73	-50.4	-52.9	6.1	0.00e+00	0	43	104	18882756608	60	54264
2026-01-23 09:53:49.08	337.55	11.62	-50.5	-53.0	6.1	0.00e+00	0	43	104	18882756608	60	54707
2026-01-23 09:53:50.09	337.60	11.50	-50.5	-53.0	6.1	0.00e+00	0	43	104	18882756608	60	54805
2026-01-23 09:53:51.10	337.64	11.39	-50.5	-53.1	6.1	0.00e+00	0	43	104	18882756608	60	55127
2026-01-23 09:53:52.11	337.69	11.28	-50.4	-52.9	6.1	0.00e+00	0	43	104	18882756608	60	54110
2026-01-23 09:53:53.12	337.73	11.17	-50.6	-53.1	6.1	0.00e+00	0	43	104	18882756608	60	55115
2026-01-23 09:53:54.13	337.78	11.06	-50.6	-53.1	6.1	0.00e+00	0	43	104	18882756608	60	55109
2026-01-23 09:53:55.14	337.83	10.95	-50.3	-52.9	6.1	0.00e+00	0	43	104	18882756608	60	54103
2026-01-23 09:53:56.15	337.87	10.84	-50.5	-53.0	6.1	0.00e+00	0	43	104	18882756608	60	54671
2026-01-23 09:53:57.15	337.91	10.73	-50.5	-53.0	6.1	0.00e+00	0	43	104	18882756608	60	54684
2026-01-23 09:53:58.16	337.96	10.63	-50.1	-52.7	6.1	0.00e+00	0	43	104	18882756608	60	52746
2026-01-23 09:53:59.17	338.00	10.52	-50.5	-53.0	6.1	0.00e+00	0	43	104	18882756608	60	54680
2026-01-23 09:54:00.18	338.04	10.41	-50.2	-52.7	6.1	0.00e+00	0	43	104	18882756608	60	52840
2026-01-23 09:54:01.19	338.09	10.31	-50.4	-52.9	6.1	0.00e+00	0	43	104	18882756608	60	54235
2026-01-23 09:54:02.20	338.13	10.20	-50.2	-52.8	6.1	0.00e+00	0	43	104	18882756608	60	53356
2026-01-23 09:54:03.21	338.17	10.10	-50.6	-53.1	6.1	0.00e+00	0	43	104	18882756608	60	55307
2026-01-23 09:54:04.22	338.21	10.00	-50.4	-52.8	6.1	0.00e+00	0	43	104	18882756608	60	53701
2026-01-23 09:54:05.23	338.26	9.89	-50.3	-52.8	6.1	0.00e+00	0	43	104	18882756608	60	53580
2026-01-23 09:54:06.24	338.30	9.79	-50.4	-52.9	6.1	0.00e+00	0	43	104	18882756608	60	54012
2026-01-23 09:54:07.25	338.34	9.69	-50.1	-52.7	6.1	0.00e+00	0	43	104	18882756608	60	52777
2026-01-23 09:54:08.25	338.38	9.59	-50.5	-53.0	6.1	0.00e+00	0	43	104	18882756608	60	55010
2026-01-23 09:54:09.26	338.42	9.49	-50.3	-52.8	6.1	0.00e+00	0	43	104	18882756608	60	53771
2026-01-23 09:54:10.27	338.46	9.39	-50.5	-53.0	6.1	0.00e+00	0	43	104	18882756608	60	54531
2026-01-23 09:54:11.28	338.50	9.29	-50.4	-52.9	6.1	0.00e+00	0	43	104	18882756608	60	53834
2026-01-23 09:54:12.29	338.54	9.19	-50.4	-52.9	6.1	0.00e+00	0	43	104	18882756608	60	54107
2026-01-23 09:54:13.30	338.58	9.09	-50.4	-52.9	6.1	0.00e+00	0	43	104	18882756608	60	54128
2026-01-23 09:54:14.31	338.62	8.99	-50.4	-52.9	6.1	0.00e+00	0	43	104	18882756608	60	54129
2026-01-23 09:54:15.32	338.65	8.89	-50.5	-53.0	6.1	0.00e+00	0	43	104	18882756608	60	54702
2026-01-23 09:54:16.33	338.69	8.79	-50.5	-53.0	6.1	0.00e+00	0	43	104	18882756608	60	54442
2026-01-23 09:54:17.34	338.73	8.70	-50.5	-52.9	6.1	0.00e+00	0	43	104	18882756608	60	54183
2026-01-23 09:54:18.35	338.77	8.60	-50.4	-52.9	6.1	0.00e+00	0	43	104	18882756608	60	54057
2026-01-23 09:54:19.36	338.81	8.50	-50.5	-53.0	6.1	0.00e+00	0	43	104	18882756608	60	54536
2026-01-23 09:54:20.37	338.84	8.41	-50.4	-52.9	6.1	0.00e+00	0	43	104	18882756608	60	54078
2026-01-23 09:54:21.38	338.88	8.31	-50.4	-52.9	6.1	0.00e+00	0	43	104	18882756608	60	53776
2026-01-23 09:54:22.39	338.92	8.22	-50.4	-52.9	6.1	0.00e+00	0	43	104	18882756608	60	54039
2026-01-23 09:54:23.40	338.95	8.12	-50.4	-52.9	6.1	0.00e+00	0	43	104	18882756608	60	54343
2026-01-23 09:54:24.41	338.99	8.03	-50.4	-52.9	6.1	0.00e+00	0	43	104	18882756608	60	53980
2026-01-23 09:54:25.41	339.03	7.94	-50.4	-52.8	6.1	0.00e+00	0	43	104	18882756608	60	53659
2026-01-23 09:54:26.42	339.06	7.85	-50.4	-52.8	6.1	0.00e+00	0	43	104	18882756608	60	53573
2026-01-23 09:54:27.43	339.10	7.75	-50.4	-52.9	6.1	0.00e+00	0	43	104	18882756608	60	54004
2026-01-23 09:54:28.44	339.13	7.66	-50.3	-52.8	6.1	0.00e+00	0	43	104	18882756608	60	53754
2026-01-23 09:54:29.45	339.17	7.57	-50.4	-52.9	6.1	0.00e+00	0	43	104	18882756608	60	53781
2026-01-23 09:54:30.46	339.20	7.48	-50.3	-52.8	6.1	0.00e+00	0	43	104	18882756608	60	53672
2026-01-23 09:54:31.47	339.24	7.39	-50.3	-52.8	6.1	0.00e+00	0	43	104	18882756608	60	53559
2026-01-23 09:54:32.48	339.27	7.30	-50.3	-52.8	6.1	0.00e+00	0	43	104	18882756608	60	53395
2026-01-23 09:54:33.48	339.30	7.21	-50.3	-52.8	6.1	0.00e+00	0	43	104	18882756608	60	53241
2026-01-23 09:54:34.49	339.34	7.12	-50.3	-52.8	6.1	0.00e+00	0	43	104	18882756608	60	53338
2026-01-23 09:54:35.50	339.37	7.03	-50.3	-52.7	6.1	0.00e+00	0	43	104	18882756608	60	53111
2026-01-23 09:54:36.51	339.41	6.94	-50.2	-52.7	6.1	0.00e+00	0	43	104	18882756608	60	52886
2026-01-23 09:54:37.52	339.44	6.85	-50.2	-52.7	6.1	0.00e+00	0	43	104	18882756608	60	52993
2026-01-23 09:54:38.53	339.47	6.77	-50.2	-52.6	6.1	0.00e+00	0	43	104	18882756608	60	52409
2026-01-23 09:54:39.54	339.50	6.68	-50.2	-52.8	6.1	0.00e+00	0	43	104	18882756608	60	53226
2026-01-23 09:54:40.55	339.54	6.59	-50.2	-52.7	6.1	0.00e+00	0	43	104	18882756608	60	52741
2026-01-23 09:54:41.55	339.57	6.51	-50.1	-52.6	6.1	0.00e+00	0	43	104	18882756608	60	52118
2026-01-23 09:54:42.56	339.60	6.42	-50.1	-52.6	6.1	0.00e+00	0	43	104	18882756608	60	52101
2026-01-23 09:54:43.57	339.63	6.33	-50.1	-52.6	6.1	0.00e+00	0	43	104	18882756608	60	52097
2026-01-23 09:54:44.58	339.66	6.25	-50.0	-52.5	6.1	0.00e+00	0	43	104	18882756608	60	51784
2026-01-23 09:54:45.59	339.70	6.16	-49.7	-52.2	6.1	0.00e+00	0	43	104	18882756608	60	50022
2026-01-23 09:54:46.60	339.73	6.08	-50.0	-52.5	6.1	0.00e+00	0	43	104	18882756608	60	51531
2026-01-23 09:54:47.61	339.76	5.99	-49.8	-52.3	6.1	0.00e+00	0	43	104	18882756608	60	50455
2026-01-23 09:54:48.62	339.79	5.91	-48.5	-51.0	6.1	0.00e+00	0	43	104	18882756608	60	43244
2026-01-23 09:54:49.63	339.82	5.83	-47.7	-50.1	6.1	0.00e+00	0	43	104	18882756608	60	39235
2026-01-23 09:54:50.64	339.85	5.74	-47.1	-49.6	6.1	0.00e+00	0	43	104	18882756608	60	37089
2026-01-23 09:54:51.65	339.88	5.66	-46.7	-49.2	6.1	0.00e+00	0	43	104	18882756608	60	35245
2026-01-23 09:54:52.66	339.91	5.58	-46.8	-49.3	6.1	0.00e+00	0	43	104	18882756608	60	35867
2026-01-23 09:54:53.67	339.94	5.49	-49.4	-51.9	6.1	0.00e+00	0	43	104	18882756608	60	48013
2026-01-23 09:54:54.68	339.97	5.41	-47.4	-49.9	6.1	0.00e+00	0	43	104	18882756608	60	38345
2026-01-23 09:54:55.69	340.00	5.33	-47.3	-49.8	6.1	0.00e+00	0	43	104	18882756608	60	37934
2026-01-23 09:54:56.69	340.03	5.25	-47.0	-49.4	6.1	0.00e+00	0	43	104	18882756608	60	36226
2026-01-23 09:54:57.70	340.06	5.17	-46.7	-49.2	6.1	0.00e+00	0	43	104	18882756608	60	35355
2026-01-23 09:54:58.71	340.09	5.09	-46.7	-49.1	6.1	0.00e+00	0	43	104	18882756608	60	35095
2026-01-23 09:54:59.72	340.12	5.01	-46.7	-49.2	6.1	0.00e+00	0	43	104	18882756608	60	35140
2026-01-23 09:55:00.73	340.15	4.93	-46.6	-49.1	6.1	0.00e+00	0	43	104	18882756608	60	34983
2026-01-23 09:55:01.74	340.17	4.85	-46.7	-49.2	6.1	0.00e+00	0	43	104	18882756608	60	35231
2026-01-23 09:55:02.75	340.20	4.77	-47.6	-50.0	6.1	0.00e+00	0	43	104	18882756608	60	38916
2026-01-23 09:55:03.76	340.23	4.69	-46.7	-49.2	6.1	0.00e+00	0	43	104	18882756608	60	35175
2026-01-23 09:55:04.77	340.26	4.61	-46.8	-49.3	6.1	0.00e+00	0	43	104	18882756608	60	35545
2026-01-23 09:55:05.77	340.29	4.53	-46.7	-49.2	6.1	0.00e+00	0	43	104	18882756608	60	35233
2026-01-23 09:55:06.78	340.31	4.46	-46.7	-49.2	6.1	0.00e+00	0	43	104	18882756608	60	35139
2026-01-23 09:55:07.79	340.34	4.38	-46.7	-49.1	6.1	0.00e+00	0	43	104	18882756608	60	35064
2026-01-23 09:55:08.81	340.37	4.30	-46.7	-49.1	6.1	0.00e+00	0	43	104	18882756608	60	35111
2026-01-23 09:55:09.82	340.40	4.22	-46.6	-49.0	6.1	0.00e+00	0	43	104	18882756608	60	34671
2026-01-23 09:55:10.83	340.42	4.14	-46.6	-49.1	6.1	0.00e+00	0	43	104	18882756608	60	34729
2026-01-23 09:55:11.84	340.45	4.07	-46.8	-49.3	6.1	0.00e+00	0	43	104	18882756608	60	35761
2026-01-23 09:55:12.84	340.48	3.99	-46.7	-49.1	6.1	0.00e+00	0	43	104	18882756608	60	35066
2026-01-23 09:55:13.85	340.50	3.92	-46.7	-49.2	6.1	0.00e+00	0	43	104	18882756608	60	35389
2026-01-23 09:55:14.86	340.53	3.84	-46.5	-49.0	6.1	0.00e+00	0	43	104	18882756608	60	34540
2026-01-23 09:55:15.87	340.56	3.76	-46.7	-49.2	6.1	0.00e+00	0	43	104	18882756608	60	35214
2026-01-23 09:55:16.88	340.58	3.69	-46.6	-49.1	6.1	0.00e+00	0	43	104	18882756608	60	34787
2026-01-23 09:55:17.89	340.61	3.61	-46.7	-49.2	6.1	0.00e+00	0	43	104	18882756608	60	35258
2026-01-23 09:55:18.90	340.64	3.54	-46.5	-48.9	6.1	0.00e+00	0	43	104	18882756608	60	34228
2026-01-23 09:55:19.91	340.66	3.46	-46.7	-49.2	6.1	0.00e+00	0	43	104	18882756608	60	35452
2026-01-23 09:55:20.92	340.69	3.39	-46.6	-49.1	6.1	0.00e+00	0	43	104	18882756608	60	34786
2026-01-23 09:55:21.93	340.71	3.32	-46.6	-49.1	6.1	0.00e+00	0	43	104	18882756608	60	34924
2026-01-23 09:55:22.94	340.74	3.24	-46.4	-48.9	6.1	0.00e+00	0	43	104	18882756608	60	34022
2026-01-23 09:55:23.95	340.76	3.17	-46.7	-49.1	6.1	0.00e+00	0	43	104	18882756608	60	35066
2026-01-23 09:55:24.96	340.79	3.10	-46.6	-49.0	6.1	0.00e+00	0	43	104	18882756608	60	34656
2026-01-23 09:55:25.97	340.81	3.02	-46.5	-49.0	6.1	0.00e+00	0	43	104	18882756608	60	34341
2026-01-23 09:55:26.97	340.84	2.95	-46.8	-49.4	6.1	0.00e+00	0	43	104	18882756608	60	35966
2026-01-23 09:55:27.99	340.86	2.88	-50.0	-52.5	6.1	0.00e+00	0	43	104	18882756608	60	51404
2026-01-23 09:55:29.00	340.89	2.81	-50.4	-52.9	6.1	0.00e+00	0	43	104	18882756608	60	53817
2026-01-23 09:55:30.01	340.91	2.73	-50.6	-53.1	6.1	0.00e+00	0	43	104	18882756608	60	55364
2026-01-23 09:55:31.02	340.94	2.66	-50.8	-53.3	6.1	0.00e+00	0	43	104	18882756608	60	56704
2026-01-23 09:55:32.03	340.96	2.59	-51.0	-53.4	6.1	0.00e+00	0	43	104	18882756608	60	57213
2026-01-23 09:55:33.04	340.99	2.52	-51.0	-53.4	6.1	0.00e+00	0	43	104	18882756608	60	57609
2026-01-23 09:55:34.05	341.01	2.45	-51.0	-53.4	6.1	0.00e+00	0	43	104	18882756608	60	57403
2026-01-23 09:55:35.06	341.03	2.38	-51.1	-53.6	6.1	0.00e+00	0	43	104	18882756608	60	58589
2026-01-23 09:55:36.07	341.06	2.31	-51.1	-53.6	6.1	0.00e+00	0	43	104	18882756608	60	58662
2026-01-23 09:55:37.08	341.08	2.24	-51.2	-53.6	6.1	0.00e+00	0	43	104	18882756608	60	58560
2026-01-23 09:55:38.09	341.11	2.17	-51.1	-53.5	6.1	0.00e+00	0	43	104	18882756608	60	58034
2026-01-23 09:55:39.09	341.13	2.10	-51.0	-53.5	6.1	0.00e+00	0	43	104	18882756608	60	58261
2026-01-23 09:55:40.11	341.15	2.03	-51.0	-53.5	6.1	0.00e+00	0	43	104	18882756608	60	57873
2026-01-23 09:55:41.12	341.18	1.96	-50.9	-53.5	6.1	0.00e+00	0	43	104	18882756608	60	57660
2026-01-23 09:55:42.13	341.20	1.89	-51.0	-53.5	6.1	0.00e+00	0	43	104	18882756608	60	57716
2026-01-23 09:55:43.14	341.22	1.82	-51.0	-53.5	6.1	0.00e+00	0	43	104	18882756608	60	58072
2026-01-23 09:55:44.14	341.25	1.75	-51.0	-53.4	6.0	0.00e+00	0	43	104	18882756608	60	57558
2026-01-23 09:55:45.15	341.27	1.68	-51.0	-53.5	6.1	0.00e+00	0	43	104	18882756608	60	58175
2026-01-23 09:55:46.16	341.29	1.61	-51.0	-53.5	6.1	0.00e+00	0	43	104	18882756608	60	57889
2026-01-23 09:55:47.17	341.31	1.54	-50.8	-53.3	6.1	0.00e+00	0	43	104	18882756608	60	56394
2026-01-23 09:55:48.18	341.34	1.48	-50.9	-53.4	6.1	0.00e+00	0	43	104	18882756608	60	57526
2026-01-23 09:55:49.19	341.36	1.41	-51.0	-53.5	6.1	0.00e+00	0	43	104	18882756608	60	58208
2026-01-23 09:55:50.20	341.38	1.34	-51.0	-53.5	6.1	0.00e+00	0	43	104	18882756608	60	58167
2026-01-23 09:55:51.21	341.40	1.27	-51.0	-53.4	6.1	0.00e+00	0	43	104	18882756608	60	57473
2026-01-23 09:55:52.22	341.42	1.21	-51.0	-53.5	6.1	0.00e+00	0	43	104	18882756608	60	57683
2026-01-23 09:55:53.23	341.45	1.14	-51.0	-53.5	6.1	0.00e+00	0	43	104	18882756608	60	57753
2026-01-23 09:55:54.24	341.47	1.07	-51.0	-53.5	6.1	0.00e+00	0	43	104	18882756608	60	57741
2026-01-23 09:55:55.25	341.49	1.01	-51.0	-53.5	6.1	0.00e+00	0	43	104	18882756608	60	57874
2026-01-23 09:55:56.26	341.51	0.94	-51.0	-53.5	6.1	0.00e+00	0	43	104	18882756608	60	57814
2026-01-23 09:55:57.27	341.53	0.87	-51.0	-53.5	6.1	0.00e+00	0	43	104	18882756608	60	57710
2026-01-23 09:55:58.28	341.56	0.81	-51.0	-53.5	6.1	0.00e+00	0	43	104	18882756608	60	57697
2026-01-23 09:55:59.29	341.58	0.74	-51.0	-53.5	6.0	0.00e+00	0	43	104	18882756608	60	57777
2026-01-23 09:56:00.30	341.60	0.68	-51.0	-53.5	6.1	0.00e+00	0	43	104	18882756608	60	57655
2026-01-23 09:56:01.31	341.62	0.61	-51.0	-53.5	6.1	0.00e+00	0	43	104	18882756608	60	57685
2026-01-23 09:56:02.32	341.64	0.54	-51.0	-53.5	6.1	0.00e+00	0	43	104	18882756608	60	57745
2026-01-23 09:56:03.33	341.66	0.48	-51.0	-53.5	6.1	0.00e+00	0	43	104	18882756608	60	57702
2026-01-23 09:56:04.34	341.68	0.41	-51.0	-53.5	6.1	0.00e+00	0	43	104	18882756608	60	57664
2026-01-23 09:56:05.35	341.70	0.35	-51.0	-53.5	6.1	0.00e+00	0	43	104	18882756608	60	57733
2026-01-23 09:56:06.36	341.72	0.29	-51.0	-53.5	6.1	0.00e+00	0	43	104	18882756608	60	57690
2026-01-23 09:56:07.37	341.74	0.22	-51.0	-53.4	6.1	0.00e+00	0	43	104	18882756608	60	57570
2026-01-23 09:56:08.38	341.77	0.16	-51.0	-53.5	6.1	0.00e+00	0	43	104	18882756608	60	57684
2026-01-23 09:56:09.39	341.79	0.09	-51.0	-53.4	6.1	0.00e+00	0	43	104	18882756608	60	57525
2026-01-23 09:56:10.40	341.81	0.03	-51.0	-53.4	6.1	0.00e+00	0	43	104	18882756608	60	57561
2026-01-23 09:56:11.41	341.83	-0.04	-51.0	-53.5	6.1	0.00e+00	0	43	104	18882756608	60	57684
2026-01-23 09:56:12.43	341.85	-0.10	-51.0	-53.5	6.1	0.00e+00	0	43	104	18882756608	60	57627

#Closed at: 2026-01-23 09:56:12
#Recorded file [18882 MB]: D:/lorett/data/35029_260123_214504.dat