passes_logs/2026/01/23/R4.6S_Anadyr/R4.6S_Anadyr__20260123_114425_NOAA_21_JPSS-2_rec.log

#Pass ID: 20260123_114425_NOAA 21 (JPSS-2)
#Satellite: NOAA 21 (JPSS-2)
#Configuration: NOAA-21
#almurnet v.1.7.20251203
#Start time: 2026-01-23 11:44:28

#Version: 2.2.20231116
#Station: R4.6S_Anadyr
#Location: 177.4865 lon 64.73178 lat
#TLE: 1 54234U 22150A   26022.41365820  .00000211  00000+0  12084-3 0  9990
#TLE: 2 54234  98.7507 323.2240 0000658 234.5287 125.5828 14.19537645165864

#Time	Az	El	Level	Level2	SNR	BER	BlckErr	Temp	State	Recorded	gain1	gain2
2026-01-23 11:44:28.43	20.35	0.14	-51.0	-52.6	5.7	0.00e+00	0	38	0	0	60	52130
2026-01-23 11:44:29.43	20.44	0.18	-50.4	-63.2	3.5	1.52e+00	0	40	104	0	60	50716
2026-01-23 11:44:30.44	20.54	0.22	-50.4	-63.2	3.5	1.52e+00	0	40	104	0	60	50850
2026-01-23 11:44:31.45	20.63	0.27	-50.4	-63.2	3.5	1.52e+00	0	40	104	0	60	50982
2026-01-23 11:44:32.46	20.72	0.31	-50.4	-63.2	3.5	1.52e+00	0	40	104	0	60	50973
2026-01-23 11:44:33.47	20.82	0.35	-50.4	-63.3	3.5	1.52e+00	0	40	104	0	60	51136
2026-01-23 11:44:34.48	20.91	0.39	-50.4	-63.2	3.5	1.51e+00	0	40	104	0	60	50793
2026-01-23 11:44:35.49	21.00	0.43	-50.3	-63.2	3.5	1.52e+00	0	40	104	0	60	50734
2026-01-23 11:44:36.50	21.10	0.48	-50.3	-63.2	3.5	1.52e+00	0	40	104	0	60	50935
2026-01-23 11:44:37.51	21.19	0.52	-50.3	-63.1	3.5	1.52e+00	0	40	104	0	60	50388
2026-01-23 11:44:38.52	21.29	0.56	-50.3	-63.1	3.5	1.52e+00	0	40	104	0	60	50321
2026-01-23 11:44:39.53	21.38	0.60	-50.2	-63.1	3.5	1.52e+00	0	40	104	0	60	50332
2026-01-23 11:44:40.54	21.48	0.65	-50.2	-63.0	3.5	1.52e+00	0	40	104	0	60	49802
2026-01-23 11:44:41.55	21.57	0.69	-50.1	-62.9	3.5	1.52e+00	0	40	104	0	60	49257
2026-01-23 11:44:42.56	21.67	0.73	-50.0	-62.9	3.5	1.52e+00	0	40	104	0	60	49153
2026-01-23 11:44:43.57	21.76	0.77	-49.9	-62.9	3.6	1.52e+00	0	40	104	0	60	48799
2026-01-23 11:44:44.58	21.86	0.81	-49.9	-62.7	3.5	1.52e+00	0	40	104	0	60	48147
2026-01-23 11:44:45.59	21.96	0.86	-49.8	-62.6	3.5	1.52e+00	0	40	104	0	60	47593
2026-01-23 11:44:46.60	22.05	0.90	-49.7	-62.6	3.5	1.52e+00	0	40	104	0	60	47102
2026-01-23 11:44:47.61	22.15	0.94	-49.5	-62.4	3.5	1.52e+00	0	40	104	0	60	46021
2026-01-23 11:44:48.62	22.25	0.98	-49.2	-62.1	3.5	1.52e+00	0	40	104	0	60	44629
2026-01-23 11:44:49.63	22.35	1.03	-48.9	-61.7	3.5	1.52e+00	0	40	104	0	60	42653
2026-01-23 11:44:50.64	22.44	1.07	-48.9	-61.7	3.5	1.52e+00	0	40	104	0	60	42594
2026-01-23 11:44:51.65	22.54	1.11	-48.9	-61.6	3.5	1.52e+00	0	40	104	0	60	42392
2026-01-23 11:44:52.66	22.64	1.15	-48.9	-61.7	3.5	1.52e+00	0	40	104	0	60	42451
2026-01-23 11:44:53.67	22.74	1.19	-48.9	-61.7	3.5	1.52e+00	0	40	104	0	60	42475
2026-01-23 11:44:54.68	22.84	1.24	-48.9	-61.7	3.5	1.52e+00	0	40	104	0	60	42610
2026-01-23 11:44:55.69	22.94	1.28	-48.9	-61.7	3.5	1.52e+00	0	40	104	0	60	42726
2026-01-23 11:44:56.70	23.03	1.32	-48.9	-61.7	3.5	1.52e+00	0	40	104	0	60	42508
2026-01-23 11:44:57.71	23.13	1.36	-48.9	-61.7	3.5	1.52e+00	0	40	104	0	60	42568
2026-01-23 11:44:58.71	23.23	1.41	-48.9	-61.6	3.5	1.52e+00	0	40	104	0	60	42392
2026-01-23 11:44:59.72	23.33	1.45	-48.9	-61.7	3.5	1.52e+00	0	40	104	0	60	42664
2026-01-23 11:45:00.73	23.43	1.49	-48.9	-61.6	3.5	1.52e+00	0	40	104	0	60	42417
2026-01-23 11:45:01.75	23.54	1.53	-48.9	-61.7	3.5	1.52e+00	0	40	104	0	60	42637
2026-01-23 11:45:02.76	23.64	1.57	-48.9	-61.7	3.5	1.51e+00	0	40	104	0	60	42621
2026-01-23 11:45:03.77	23.74	1.62	-48.9	-61.7	3.5	1.52e+00	0	41	104	0	60	42590
2026-01-23 11:45:04.78	23.84	1.66	-48.9	-61.6	3.5	1.52e+00	0	41	104	0	60	42414
2026-01-23 11:45:05.79	23.94	1.70	-48.9	-61.7	3.5	1.52e+00	0	41	104	0	60	42556
2026-01-23 11:45:06.80	24.04	1.74	-48.9	-61.7	3.5	1.51e+00	0	41	104	0	60	42459
2026-01-23 11:45:07.81	24.14	1.79	-48.9	-61.7	3.5	1.52e+00	0	40	104	0	60	42513
2026-01-23 11:45:08.82	24.25	1.83	-48.9	-61.7	3.5	1.52e+00	0	40	104	0	60	42618
2026-01-23 11:45:09.83	24.35	1.87	-48.9	-61.7	3.5	1.52e+00	0	40	104	0	60	42677
2026-01-23 11:45:10.84	24.45	1.91	-48.9	-61.8	3.5	1.52e+00	0	41	104	0	60	42937
2026-01-23 11:45:11.85	24.56	1.95	-48.9	-61.7	3.5	1.52e+00	0	41	104	0	60	42638
2026-01-23 11:45:12.86	24.66	2.00	-48.9	-61.7	3.5	1.52e+00	0	41	104	0	60	42692
2026-01-23 11:45:13.87	24.76	2.04	-48.9	-61.7	3.5	1.52e+00	0	40	104	0	60	42615
2026-01-23 11:45:14.88	24.87	2.08	-48.9	-61.6	3.5	1.52e+00	0	41	104	0	60	42430
2026-01-23 11:45:15.89	24.97	2.12	-48.9	-61.6	3.5	1.52e+00	0	41	104	0	60	42174
2026-01-23 11:45:16.90	25.08	2.16	-48.9	-61.5	3.5	1.51e+00	0	41	104	0	60	41631
2026-01-23 11:45:17.91	25.18	2.21	-48.9	-61.5	3.5	1.52e+00	0	41	104	0	60	41849
2026-01-23 11:45:18.92	25.29	2.25	-48.9	-61.6	3.5	1.52e+00	0	41	104	0	60	42252
2026-01-23 11:45:19.93	25.39	2.29	-48.9	-61.6	3.5	1.52e+00	0	41	104	0	60	42207
2026-01-23 11:45:20.94	25.50	2.33	-48.9	-61.7	3.5	1.52e+00	0	41	104	0	60	42519
2026-01-23 11:45:21.95	25.61	2.37	-48.9	-61.7	3.5	1.52e+00	0	41	104	0	60	42473
2026-01-23 11:45:22.96	25.71	2.42	-48.9	-61.6	3.5	1.51e+00	0	41	104	0	60	42305
2026-01-23 11:45:23.97	25.82	2.46	-48.8	-61.1	3.5	1.52e+00	0	41	104	0	60	39662
2026-01-23 11:45:24.98	25.93	2.50	-48.8	-60.5	3.5	1.51e+00	0	41	104	0	60	37343
2026-01-23 11:45:25.99	26.03	2.54	-48.8	-60.5	3.5	1.51e+00	0	40	104	0	60	37187
2026-01-23 11:45:27.00	26.14	2.58	-48.8	-60.5	3.5	1.52e+00	0	41	104	0	60	37221
2026-01-23 11:45:28.01	26.25	2.63	-48.4	-57.3	4.8	1.30e+00	0	41	104	0	60	25658
2026-01-23 11:45:29.02	26.36	2.67	-47.1	-51.4	9.0	3.83e-02	0	41	0	2097152	60	13068
2026-01-23 11:45:30.03	26.47	2.71	-44.7	-47.2	13.9	1.94e-04	0	41	0	5242880	60	8014
2026-01-23 11:45:31.03	26.57	2.75	-42.7	-44.6	16.5	0.00e+00	0	41	0	8388608	60	5932
2026-01-23 11:45:32.04	26.68	2.79	-40.6	-42.0	19.1	0.00e+00	0	41	0	11534336	56	5534
2026-01-23 11:45:33.05	26.79	2.84	-40.4	-41.7	19.0	0.00e+00	0	41	0	14680064	54	6023
2026-01-23 11:45:34.06	26.90	2.88	-40.1	-41.3	19.4	0.00e+00	0	41	0	17825792	54	5784
2026-01-23 11:45:35.07	27.01	2.92	-41.6	-43.1	17.8	0.00e+00	0	41	0	20971520	54	7081
2026-01-23 11:45:36.08	27.12	2.96	-43.4	-45.4	15.4	0.00e+00	0	41	0	24117248	58	7343
2026-01-23 11:45:37.09	27.23	3.00	-45.9	-49.1	11.7	2.97e-05	0	41	0	27262976	60	10019
2026-01-23 11:45:38.10	27.34	3.04	-47.3	-52.0	8.5	4.44e-02	0	41	0	30408704	60	13926
2026-01-23 11:45:39.11	27.46	3.09	-48.9	-59.6	4.1	1.51e+00	0	41	104	32505856	60	33651
2026-01-23 11:45:40.12	27.57	3.13	-48.7	-61.2	3.5	1.52e+00	0	41	104	32505856	60	40147
2026-01-23 11:45:41.13	27.68	3.17	-48.9	-60.4	4.0	1.50e+00	0	41	104	32505856	60	36911
2026-01-23 11:45:42.14	27.79	3.21	-42.9	-44.7	16.4	7.00e-07	0	41	0	33554432	58	6775
2026-01-23 11:45:43.15	27.90	3.25	-48.8	-60.1	3.5	1.51e+00	0	41	104	34603008	60	35342
2026-01-23 11:45:44.16	28.02	3.29	-43.0	-45.2	16.1	2.37e-01	0	41	104	34603008	60	6398
2026-01-23 11:45:45.17	28.13	3.34	-42.2	-43.8	17.4	0.00e+00	0	41	0	36700160	58	6122
2026-01-23 11:45:46.18	28.24	3.38	-41.7	-43.2	17.8	0.00e+00	0	41	0	39845888	56	6418
2026-01-23 11:45:47.19	28.36	3.42	-41.2	-42.7	18.5	0.00e+00	0	41	0	42991616	56	6010
2026-01-23 11:45:48.20	28.47	3.46	-41.2	-42.6	18.3	0.00e+00	0	41	0	46137344	56	5960
2026-01-23 11:45:49.21	28.58	3.50	-41.3	-42.8	18.6	0.00e+00	0	41	0	49283072	56	6085
2026-01-23 11:45:50.22	28.70	3.54	-40.6	-42.0	19.0	0.00e+00	0	41	0	52428800	56	5537
2026-01-23 11:45:51.23	28.81	3.58	-40.7	-42.1	19.1	0.00e+00	0	41	0	55574528	54	6297
2026-01-23 11:45:52.24	28.93	3.63	-40.2	-41.5	19.4	0.00e+00	0	41	0	58720256	54	5906
2026-01-23 11:45:53.25	29.04	3.67	-40.7	-42.0	19.1	0.00e+00	0	41	0	61865984	54	6276
2026-01-23 11:45:54.26	29.16	3.71	-40.4	-41.7	19.1	0.00e+00	0	41	0	65011712	54	6015
2026-01-23 11:45:55.27	29.28	3.75	-40.3	-41.6	19.6	0.00e+00	0	41	0	68157440	54	5975
2026-01-23 11:45:56.28	29.39	3.79	-39.7	-40.9	20.1	0.00e+00	0	41	0	71303168	52	6175
2026-01-23 11:45:57.29	29.51	3.83	-39.9	-41.2	19.9	0.00e+00	0	41	0	74448896	52	6370
2026-01-23 11:45:58.30	29.63	3.87	-39.7	-40.9	20.1	0.00e+00	0	41	0	77594624	52	6205
2026-01-23 11:45:59.31	29.74	3.91	-39.8	-41.0	20.0	0.00e+00	0	41	0	80740352	52	6245
2026-01-23 11:46:00.32	29.86	3.96	-40.1	-41.3	19.6	0.00e+00	0	41	0	83886080	52	6473
2026-01-23 11:46:01.33	29.98	4.00	-40.3	-41.5	19.5	0.00e+00	0	41	0	87031808	52	6629
2026-01-23 11:46:02.34	30.10	4.04	-40.1	-41.4	19.7	0.00e+00	0	41	0	90177536	52	6530
2026-01-23 11:46:03.35	30.22	4.08	-39.8	-41.1	19.9	0.00e+00	0	41	0	93323264	52	6279
2026-01-23 11:46:04.35	30.33	4.12	-40.2	-41.5	19.5	0.00e+00	0	41	0	96468992	52	6593
2026-01-23 11:46:05.36	30.45	4.16	-39.4	-40.6	20.4	0.00e+00	0	41	0	99614720	52	5936
2026-01-23 11:46:06.37	30.57	4.20	-40.0	-41.3	19.7	0.00e+00	0	41	0	102760448	52	6431
2026-01-23 11:46:07.38	30.69	4.24	-39.8	-41.0	19.9	0.00e+00	0	41	0	105906176	52	6275
2026-01-23 11:46:08.38	30.81	4.28	-39.6	-40.8	20.2	0.00e+00	0	41	0	109051904	52	6090
2026-01-23 11:46:09.39	30.93	4.32	-39.6	-40.8	20.3	0.00e+00	0	41	0	112197632	52	6109
2026-01-23 11:46:10.40	31.05	4.36	-39.7	-40.9	19.9	0.00e+00	0	41	0	115343360	52	6166
2026-01-23 11:46:11.41	31.17	4.40	-39.9	-41.2	19.9	0.00e+00	0	41	0	118489088	52	6368
2026-01-23 11:46:12.42	31.30	4.45	-39.7	-40.9	20.2	0.00e+00	0	41	0	121634816	52	6186
2026-01-23 11:46:13.43	31.42	4.49	-40.3	-41.6	19.6	0.00e+00	0	41	0	124780544	52	6665
2026-01-23 11:46:14.44	31.54	4.53	-39.9	-41.2	19.9	0.00e+00	0	41	0	127926272	52	6364
2026-01-23 11:46:15.45	31.66	4.57	-40.1	-41.4	19.8	0.00e+00	0	41	0	131072000	52	6531
2026-01-23 11:46:16.46	31.79	4.61	-39.6	-40.8	20.3	0.00e+00	0	41	0	134217728	52	6127
2026-01-23 11:46:17.47	31.91	4.65	-39.7	-40.9	20.2	0.00e+00	0	41	0	137363456	52	6197
2026-01-23 11:46:18.48	32.03	4.69	-39.6	-40.8	20.3	0.00e+00	0	41	0	140509184	52	6120
2026-01-23 11:46:19.49	32.16	4.73	-39.8	-41.0	20.1	0.00e+00	0	41	0	143654912	52	6252
2026-01-23 11:46:20.50	32.28	4.77	-39.4	-40.6	20.5	0.00e+00	0	41	0	146800640	52	5929
2026-01-23 11:46:21.51	32.40	4.81	-39.9	-41.1	20.0	0.00e+00	0	41	0	149946368	52	6348
2026-01-23 11:46:22.52	32.53	4.85	-39.4	-40.6	20.6	0.00e+00	0	41	0	153092096	52	5950
2026-01-23 11:46:23.53	32.65	4.89	-39.7	-40.9	20.2	0.00e+00	0	41	0	156237824	52	6179
2026-01-23 11:46:24.54	32.78	4.93	-39.6	-40.8	20.3	0.00e+00	0	41	0	159383552	52	6070
2026-01-23 11:46:25.55	32.91	4.97	-39.5	-40.7	20.5	0.00e+00	0	41	0	162529280	52	6005
2026-01-23 11:46:26.56	33.03	5.01	-39.3	-40.5	20.6	0.00e+00	0	41	0	165675008	52	5875
2026-01-23 11:46:27.57	33.16	5.05	-39.3	-40.4	20.6	0.00e+00	0	41	0	168820736	52	5855
2026-01-23 11:46:28.59	33.29	5.09	-39.4	-40.6	20.4	0.00e+00	0	41	0	171966464	52	5966
2026-01-23 11:46:29.60	33.41	5.13	-39.7	-40.9	20.3	0.00e+00	0	41	0	175112192	52	6136
2026-01-23 11:46:30.60	33.54	5.17	-39.1	-40.2	20.9	0.00e+00	0	41	0	178257920	52	5691
2026-01-23 11:46:31.61	33.67	5.21	-39.2	-40.4	20.8	0.00e+00	0	41	0	181403648	52	5802
2026-01-23 11:46:32.62	33.80	5.25	-39.2	-40.3	20.9	0.00e+00	0	41	0	184549376	52	5753
2026-01-23 11:46:33.63	33.92	5.29	-39.4	-40.6	20.6	0.00e+00	0	41	0	187695104	52	5934
2026-01-23 11:46:34.64	34.05	5.33	-39.1	-40.2	20.9	0.00e+00	0	41	0	190840832	52	5688
2026-01-23 11:46:35.65	34.18	5.37	-39.6	-40.8	20.5	0.00e+00	0	41	0	193986560	52	6089
2026-01-23 11:46:36.66	34.31	5.41	-39.6	-40.8	20.4	0.00e+00	0	41	0	197132288	52	6095
2026-01-23 11:46:37.67	34.44	5.45	-39.1	-40.3	20.9	0.00e+00	0	41	0	200278016	52	5740
2026-01-23 11:46:38.68	34.57	5.49	-39.3	-40.4	20.8	0.00e+00	0	41	0	203423744	52	5844
2026-01-23 11:46:39.69	34.70	5.53	-39.2	-40.3	20.9	0.00e+00	0	41	0	206569472	52	5785
2026-01-23 11:46:40.70	34.83	5.56	-39.4	-40.5	20.7	0.00e+00	0	41	0	209715200	52	5899
2026-01-23 11:46:41.70	34.96	5.60	-39.4	-40.5	20.6	0.00e+00	0	41	0	212860928	52	5924
2026-01-23 11:46:42.72	35.09	5.64	-39.4	-40.5	20.7	0.00e+00	0	41	0	216006656	52	5907
2026-01-23 11:46:43.72	35.23	5.68	-39.4	-40.5	20.8	0.00e+00	0	41	0	219152384	52	5907
2026-01-23 11:46:44.73	35.36	5.72	-39.1	-40.2	20.8	0.00e+00	0	41	0	222298112	52	5714
2026-01-23 11:46:45.74	35.49	5.76	-39.4	-40.5	20.7	0.00e+00	0	41	0	225443840	52	5900
2026-01-23 11:46:46.75	35.62	5.80	-39.3	-40.4	20.8	0.00e+00	0	41	0	228589568	52	5842
2026-01-23 11:46:47.76	35.76	5.84	-39.0	-40.1	21.1	0.00e+00	0	41	0	231735296	52	5651
2026-01-23 11:46:48.77	35.89	5.88	-39.3	-40.4	20.9	0.00e+00	0	41	0	234881024	52	5837
2026-01-23 11:46:49.78	36.02	5.91	-39.0	-40.2	21.1	0.00e+00	0	41	0	238026752	52	5671
2026-01-23 11:46:50.79	36.16	5.95	-39.3	-40.5	20.8	0.00e+00	0	41	0	241172480	52	5865
2026-01-23 11:46:51.80	36.29	5.99	-39.1	-40.2	21.1	0.00e+00	0	41	0	244318208	52	5700
2026-01-23 11:46:52.81	36.43	6.03	-39.0	-40.1	21.3	0.00e+00	0	41	0	247463936	52	5619
2026-01-23 11:46:53.82	36.56	6.07	-39.3	-40.4	20.9	0.00e+00	0	41	0	250609664	52	5844
2026-01-23 11:46:54.83	36.70	6.11	-39.2	-40.3	21.0	0.00e+00	0	41	0	253755392	52	5769
2026-01-23 11:46:55.84	36.83	6.14	-39.3	-40.4	20.8	0.00e+00	0	41	0	256901120	52	5844
2026-01-23 11:46:56.85	36.97	6.18	-39.1	-40.3	21.0	0.00e+00	0	41	0	260046848	52	5729
2026-01-23 11:46:57.86	37.11	6.22	-39.2	-40.3	21.0	0.00e+00	0	41	0	263192576	52	5752
2026-01-23 11:46:58.87	37.24	6.26	-39.4	-40.5	20.9	0.00e+00	0	41	0	266338304	52	5887
2026-01-23 11:46:59.87	37.38	6.30	-39.2	-40.4	21.1	0.00e+00	0	41	0	269484032	52	5799
2026-01-23 11:47:00.88	37.52	6.33	-39.3	-40.4	20.9	0.00e+00	0	41	0	272629760	52	5845
2026-01-23 11:47:01.89	37.65	6.37	-39.2	-40.4	21.1	0.00e+00	0	41	0	275775488	52	5810
2026-01-23 11:47:02.90	37.79	6.41	-38.9	-40.0	21.3	0.00e+00	0	41	0	278921216	52	5541
2026-01-23 11:47:03.91	37.93	6.45	-38.7	-39.8	21.6	0.00e+00	0	41	0	282066944	50	6068
2026-01-23 11:47:04.92	38.07	6.48	-38.7	-39.8	21.5	0.00e+00	0	41	0	285212672	50	6096
2026-01-23 11:47:05.93	38.21	6.52	-38.9	-40.0	21.2	0.00e+00	0	41	0	288358400	50	6269
2026-01-23 11:47:06.94	38.35	6.56	-38.8	-39.9	21.4	0.00e+00	0	41	0	291504128	50	6176
2026-01-23 11:47:07.95	38.49	6.60	-38.6	-39.7	21.6	0.00e+00	0	41	0	294649856	50	6027
2026-01-23 11:47:08.96	38.63	6.63	-38.7	-39.8	21.5	0.00e+00	0	41	0	297795584	50	6084
2026-01-23 11:47:09.97	38.77	6.67	-38.8	-39.9	21.4	0.00e+00	0	41	0	300941312	50	6180
2026-01-23 11:47:10.98	38.91	6.71	-38.7	-39.8	21.6	0.00e+00	0	41	0	304087040	50	6074
2026-01-23 11:47:11.99	39.05	6.74	-38.7	-39.8	21.5	0.00e+00	0	41	0	308281344	50	6113
2026-01-23 11:47:13.00	39.19	6.78	-38.8	-39.9	21.4	0.00e+00	0	41	0	310378496	50	6151
2026-01-23 11:47:14.01	39.34	6.82	-39.0	-40.1	21.4	0.00e+00	0	41	0	313524224	50	6312
2026-01-23 11:47:15.02	39.48	6.85	-38.8	-39.9	21.4	0.00e+00	0	41	0	316669952	50	6161
2026-01-23 11:47:16.03	39.62	6.89	-38.9	-40.0	21.4	0.00e+00	0	41	0	319815680	50	6261
2026-01-23 11:47:17.04	39.77	6.93	-39.0	-40.1	21.3	0.00e+00	0	41	0	322961408	50	6342
2026-01-23 11:47:18.05	39.91	6.96	-38.8	-39.9	21.4	0.00e+00	0	41	0	327155712	50	6178
2026-01-23 11:47:19.06	40.05	7.00	-38.9	-40.0	21.4	0.00e+00	0	41	0	330301440	50	6237
2026-01-23 11:47:20.07	40.20	7.03	-38.6	-39.7	21.7	0.00e+00	0	41	0	333447168	50	6008
2026-01-23 11:47:21.08	40.34	7.07	-38.6	-39.6	21.8	0.00e+00	0	41	0	335544320	50	5972
2026-01-23 11:47:22.09	40.49	7.11	-38.5	-39.6	21.8	0.00e+00	0	41	0	338690048	50	5931
2026-01-23 11:47:23.10	40.63	7.14	-38.5	-39.5	21.8	0.00e+00	0	41	0	342884352	50	5897
2026-01-23 11:47:24.11	40.78	7.18	-38.5	-39.5	21.8	0.00e+00	0	41	0	346030080	50	5909
2026-01-23 11:47:25.12	40.92	7.21	-38.5	-39.6	21.7	0.00e+00	0	41	0	349175808	50	5969
2026-01-23 11:47:26.13	41.07	7.25	-38.5	-39.6	21.8	0.00e+00	0	41	0	352321536	50	5936
2026-01-23 11:47:27.14	41.22	7.28	-38.5	-39.5	21.8	0.00e+00	0	41	0	355467264	50	5901
2026-01-23 11:47:28.15	41.36	7.32	-38.5	-39.6	21.8	0.00e+00	0	41	0	358612992	50	5932
2026-01-23 11:47:29.16	41.51	7.35	-38.4	-39.5	21.8	0.00e+00	0	41	0	361758720	50	5884
2026-01-23 11:47:30.16	41.66	7.39	-38.5	-39.6	21.8	0.00e+00	0	41	0	364904448	50	5952
2026-01-23 11:47:31.17	41.80	7.42	-38.6	-39.7	21.7	0.00e+00	0	41	0	368050176	50	6021
2026-01-23 11:47:32.18	41.95	7.46	-38.5	-39.6	21.7	0.00e+00	0	41	0	371195904	50	5968
2026-01-23 11:47:33.19	42.10	7.49	-38.7	-39.7	21.7	0.00e+00	0	41	0	374341632	50	6046
2026-01-23 11:47:34.20	42.25	7.53	-38.6	-39.7	21.6	0.00e+00	0	41	0	377487360	50	6023
2026-01-23 11:47:35.21	42.40	7.56	-38.6	-39.6	21.7	0.00e+00	0	41	0	380633088	50	5983
2026-01-23 11:47:36.22	42.55	7.60	-38.6	-39.7	21.7	0.00e+00	0	41	0	383778816	50	6042
2026-01-23 11:47:37.23	42.70	7.63	-38.6	-39.7	21.7	0.00e+00	0	41	0	386924544	50	6031
2026-01-23 11:47:38.24	42.85	7.66	-38.6	-39.7	21.8	0.00e+00	0	41	0	390070272	50	6025
2026-01-23 11:47:39.25	43.00	7.70	-38.7	-39.8	21.7	0.00e+00	0	41	0	393216000	50	6070
2026-01-23 11:47:40.26	43.15	7.73	-38.7	-39.7	21.7	0.00e+00	0	41	0	396361728	50	6062
2026-01-23 11:47:41.27	43.30	7.77	-38.9	-40.0	21.5	0.00e+00	0	41	0	399507456	50	6262
2026-01-23 11:47:42.28	43.45	7.80	-38.9	-40.0	21.6	0.00e+00	0	41	0	402653184	50	6218
2026-01-23 11:47:43.29	43.61	7.83	-38.7	-39.8	21.6	0.00e+00	0	41	0	405798912	50	6099
2026-01-23 11:47:44.30	43.76	7.87	-38.4	-39.4	22.0	0.00e+00	0	41	0	408944640	50	5828
2026-01-23 11:47:45.31	43.91	7.90	-38.5	-39.6	21.9	0.00e+00	0	41	0	412090368	50	5945
2026-01-23 11:47:46.32	44.06	7.93	-38.5	-39.6	21.9	0.00e+00	0	41	0	415236096	50	5959
2026-01-23 11:47:47.33	44.22	7.97	-38.5	-39.6	21.9	0.00e+00	0	41	0	418381824	50	5941
2026-01-23 11:47:48.34	44.37	8.00	-38.4	-39.4	22.0	0.00e+00	0	41	0	421527552	50	5842
2026-01-23 11:47:49.35	44.52	8.03	-38.4	-39.4	21.9	0.00e+00	0	41	0	424673280	50	5856
2026-01-23 11:47:50.36	44.68	8.06	-38.4	-39.4	21.9	0.00e+00	0	41	0	427819008	50	5846
2026-01-23 11:47:51.37	44.83	8.10	-38.6	-39.6	21.8	0.00e+00	0	41	0	430964736	50	5991
2026-01-23 11:47:52.38	44.99	8.13	-38.5	-39.6	21.9	0.00e+00	0	41	0	434110464	50	5948
2026-01-23 11:47:53.39	45.14	8.16	-38.6	-39.6	21.7	0.00e+00	0	41	0	437256192	50	5971
2026-01-23 11:47:54.39	45.30	8.19	-38.6	-39.7	21.7	0.00e+00	0	41	0	440401920	50	6034
2026-01-23 11:47:55.40	45.45	8.22	-38.6	-39.7	21.9	0.00e+00	0	41	0	443547648	50	6005
2026-01-23 11:47:56.41	45.61	8.26	-38.4	-39.5	22.1	0.00e+00	0	41	0	446693376	50	5859
2026-01-23 11:47:57.42	45.77	8.29	-38.4	-39.5	22.0	0.00e+00	0	41	0	449839104	50	5865
2026-01-23 11:47:58.43	45.92	8.32	-38.5	-39.5	22.0	0.00e+00	0	41	0	452984832	50	5903
2026-01-23 11:47:59.44	46.08	8.35	-38.6	-39.7	21.8	0.00e+00	0	41	0	456130560	50	6030
2026-01-23 11:48:00.45	46.24	8.38	-38.7	-39.8	21.8	0.00e+00	0	41	0	459276288	50	6077
2026-01-23 11:48:01.46	46.40	8.41	-38.5	-39.6	21.9	0.00e+00	0	41	0	462422016	50	5962
2026-01-23 11:48:02.47	46.56	8.44	-38.6	-39.7	21.8	0.00e+00	0	41	0	465567744	50	6007
2026-01-23 11:48:03.48	46.71	8.47	-38.5	-39.5	21.9	0.00e+00	0	41	0	468713472	50	5893
2026-01-23 11:48:04.49	46.87	8.50	-38.7	-39.7	21.7	0.00e+00	0	41	0	471859200	50	6062
2026-01-23 11:48:05.50	47.03	8.53	-38.7	-39.8	21.7	0.00e+00	0	41	0	475004928	50	6104
2026-01-23 11:48:06.51	47.19	8.56	-38.8	-39.9	21.6	0.00e+00	0	41	0	478150656	50	6140
2026-01-23 11:48:07.52	47.35	8.59	-38.7	-39.8	21.6	0.00e+00	0	41	0	481296384	50	6073
2026-01-23 11:48:08.53	47.51	8.62	-38.7	-39.8	21.7	0.00e+00	0	41	0	484442112	50	6070
2026-01-23 11:48:09.54	47.67	8.65	-38.8	-39.9	21.6	0.00e+00	0	41	0	487587840	50	6147
2026-01-23 11:48:10.55	47.83	8.68	-38.3	-39.4	22.0	0.00e+00	0	41	0	490733568	50	5809
2026-01-23 11:48:11.56	48.00	8.71	-38.4	-39.4	22.0	0.00e+00	0	41	0	493879296	50	5830
2026-01-23 11:48:12.57	48.16	8.74	-38.5	-39.5	22.0	0.00e+00	0	41	0	497025024	50	5880
2026-01-23 11:48:13.58	48.32	8.77	-38.4	-39.4	22.0	0.00e+00	0	41	0	500170752	50	5836
2026-01-23 11:48:14.59	48.48	8.80	-38.3	-39.3	22.1	0.00e+00	0	41	0	503316480	50	5774
2026-01-23 11:48:15.60	48.64	8.83	-38.4	-39.5	22.0	0.00e+00	0	41	0	506462208	50	5869
2026-01-23 11:48:16.61	48.81	8.86	-38.6	-39.6	21.9	0.00e+00	0	41	0	509607936	50	5967
2026-01-23 11:48:17.62	48.97	8.89	-38.5	-39.5	22.0	0.00e+00	0	41	0	512753664	50	5904
2026-01-23 11:48:18.64	49.13	8.92	-38.1	-39.1	22.3	0.00e+00	0	41	0	515899392	50	5657
2026-01-23 11:48:19.65	49.30	8.94	-38.1	-39.1	22.3	0.00e+00	0	41	0	519045120	50	5637
2026-01-23 11:48:20.65	49.46	8.97	-38.1	-39.2	22.3	0.00e+00	0	41	0	522190848	50	5668
2026-01-23 11:48:21.67	49.63	9.00	-38.3	-39.4	22.1	0.00e+00	0	41	0	525336576	50	5795
2026-01-23 11:48:22.68	49.79	9.03	-38.5	-39.5	22.0	0.00e+00	0	41	0	528482304	50	5921
2026-01-23 11:48:23.69	49.96	9.05	-38.2	-39.2	22.3	0.00e+00	0	41	0	531628032	50	5709
2026-01-23 11:48:24.70	50.12	9.08	-38.3	-39.3	22.1	0.00e+00	0	41	0	534773760	50	5789
2026-01-23 11:48:25.71	50.29	9.11	-38.3	-39.3	22.1	0.00e+00	0	41	0	537919488	50	5782
2026-01-23 11:48:26.72	50.45	9.14	-38.2	-39.2	22.3	0.00e+00	0	41	0	541065216	50	5674
2026-01-23 11:48:27.73	50.62	9.16	-38.1	-39.1	22.3	0.00e+00	0	41	0	544210944	50	5618
2026-01-23 11:48:28.74	50.79	9.19	-38.1	-39.2	22.2	0.00e+00	0	41	0	547356672	50	5663
2026-01-23 11:48:29.75	50.95	9.22	-38.1	-39.1	22.3	0.00e+00	0	41	0	550502400	50	5645
2026-01-23 11:48:30.76	51.12	9.24	-38.2	-39.2	22.2	0.00e+00	0	41	0	553648128	50	5689
2026-01-23 11:48:31.77	51.29	9.27	-38.1	-39.1	22.4	0.00e+00	0	41	0	556793856	50	5615
2026-01-23 11:48:32.78	51.45	9.29	-38.2	-39.2	22.2	0.00e+00	0	41	0	559939584	50	5682
2026-01-23 11:48:33.79	51.62	9.32	-38.2	-39.2	22.2	0.00e+00	0	41	0	563085312	50	5700
2026-01-23 11:48:34.79	51.79	9.34	-38.2	-39.2	22.3	0.00e+00	0	41	0	566231040	50	5685
2026-01-23 11:48:35.80	51.96	9.37	-38.3	-39.3	22.1	0.00e+00	0	41	0	569376768	50	5741
2026-01-23 11:48:36.81	52.13	9.39	-38.3	-39.3	22.1	0.00e+00	0	41	0	572522496	50	5783
2026-01-23 11:48:37.82	52.29	9.42	-38.2	-39.2	22.3	0.00e+00	0	42	0	575668224	50	5701
2026-01-23 11:48:38.83	52.46	9.44	-38.3	-39.4	22.1	0.00e+00	0	42	0	578813952	50	5808
2026-01-23 11:48:39.84	52.63	9.47	-38.4	-39.4	22.0	0.00e+00	0	42	0	581959680	50	5844
2026-01-23 11:48:40.85	52.80	9.49	-38.3	-39.4	22.0	0.00e+00	0	42	0	585105408	50	5798
2026-01-23 11:48:41.86	52.97	9.52	-38.3	-39.3	22.3	0.00e+00	0	42	0	588251136	50	5740
2026-01-23 11:48:42.87	53.14	9.54	-38.1	-39.2	22.3	0.00e+00	0	42	0	591396864	50	5661
2026-01-23 11:48:43.88	53.31	9.57	-38.2	-39.2	22.2	0.00e+00	0	41	0	594542592	50	5697
2026-01-23 11:48:44.89	53.49	9.59	-38.3	-39.4	22.1	0.00e+00	0	41	0	597688320	50	5810
2026-01-23 11:48:45.90	53.66	9.61	-38.3	-39.4	22.1	0.00e+00	0	41	0	600834048	50	5815
2026-01-23 11:48:46.91	53.83	9.64	-38.3	-39.3	22.2	0.00e+00	0	41	0	603979776	50	5748
2026-01-23 11:48:47.92	54.00	9.66	-38.5	-39.5	21.9	0.00e+00	0	42	0	607125504	50	5923
2026-01-23 11:48:48.93	54.17	9.68	-38.5	-39.5	21.9	0.00e+00	0	41	0	610271232	50	5911
2026-01-23 11:48:49.94	54.34	9.70	-38.3	-39.4	22.2	0.00e+00	0	41	0	613416960	50	5817
2026-01-23 11:48:50.96	54.52	9.73	-38.4	-39.4	22.1	0.00e+00	0	41	0	616562688	50	5851
2026-01-23 11:48:51.97	54.69	9.75	-38.3	-39.3	22.2	0.00e+00	0	41	0	619708416	50	5761
2026-01-23 11:48:52.98	54.86	9.77	-38.1	-39.1	22.3	0.00e+00	0	41	0	622854144	50	5634
2026-01-23 11:48:53.99	55.04	9.79	-38.2	-39.2	22.4	0.00e+00	0	41	0	625999872	50	5661
2026-01-23 11:48:55.00	55.21	9.81	-37.9	-39.0	22.4	0.00e+00	0	42	0	629145600	50	5535
2026-01-23 11:48:56.01	55.39	9.83	-38.1	-39.1	22.4	0.00e+00	0	41	0	632291328	50	5617
2026-01-23 11:48:57.02	55.56	9.86	-38.1	-39.1	22.4	0.00e+00	0	41	0	635437056	50	5631
2026-01-23 11:48:58.03	55.73	9.88	-38.2	-39.2	22.2	0.00e+00	0	41	0	638582784	50	5688
2026-01-23 11:48:59.04	55.91	9.90	-38.0	-39.1	22.4	0.00e+00	0	42	0	641728512	50	5597
2026-01-23 11:49:00.05	56.08	9.92	-38.3	-39.3	22.2	0.00e+00	0	42	0	645922816	50	5764
2026-01-23 11:49:01.06	56.26	9.94	-38.3	-39.3	22.2	0.00e+00	0	42	0	649068544	50	5768
2026-01-23 11:49:02.07	56.43	9.96	-38.3	-39.3	22.2	0.00e+00	0	42	0	651165696	50	5777
2026-01-23 11:49:03.08	56.61	9.98	-38.3	-39.3	22.2	0.00e+00	0	42	0	654311424	50	5778
2026-01-23 11:49:04.09	56.78	10.00	-38.3	-39.4	22.2	0.00e+00	0	42	0	658505728	50	5806
2026-01-23 11:49:05.10	56.96	10.02	-38.2	-39.3	22.2	0.00e+00	0	41	0	661651456	50	5730
2026-01-23 11:49:06.11	57.14	10.04	-38.3	-39.4	22.1	0.00e+00	0	41	0	664797184	50	5803
2026-01-23 11:49:07.12	57.31	10.05	-38.4	-39.4	22.1	0.00e+00	0	42	0	667942912	50	5833
2026-01-23 11:49:08.13	57.49	10.07	-38.3	-39.3	22.2	0.00e+00	0	42	0	671088640	50	5750
2026-01-23 11:49:09.14	57.67	10.09	-38.2	-39.3	22.2	0.00e+00	0	42	0	674234368	50	5735
2026-01-23 11:49:10.15	57.84	10.11	-38.1	-39.2	22.1	0.00e+00	0	42	0	677380096	50	5661
2026-01-23 11:49:11.16	58.02	10.13	-38.2	-39.2	22.2	0.00e+00	0	42	0	680525824	50	5696
2026-01-23 11:49:12.17	58.20	10.15	-38.4	-39.4	22.0	0.00e+00	0	41	0	683671552	50	5839
2026-01-23 11:49:13.18	58.38	10.16	-38.1	-39.2	22.3	0.00e+00	0	42	0	686817280	50	5673
2026-01-23 11:49:14.19	58.55	10.18	-38.2	-39.2	22.3	0.00e+00	0	42	0	689963008	50	5690
2026-01-23 11:49:15.20	58.73	10.20	-38.2	-39.2	22.2	0.00e+00	0	42	0	693108736	50	5698
2026-01-23 11:49:16.21	58.91	10.21	-38.2	-39.2	22.3	0.00e+00	0	42	0	696254464	50	5716
2026-01-23 11:49:17.22	59.09	10.23	-37.9	-38.9	22.4	0.00e+00	0	41	0	699400192	50	5528
2026-01-23 11:49:18.23	59.27	10.25	-37.9	-38.9	22.4	0.00e+00	0	42	0	702545920	50	5512
2026-01-23 11:49:19.24	59.45	10.26	-37.8	-38.8	22.6	0.00e+00	0	41	0	705691648	50	5450
2026-01-23 11:49:20.25	59.63	10.28	-37.8	-38.8	22.5	0.00e+00	0	42	0	708837376	50	5448
2026-01-23 11:49:21.25	59.80	10.30	-37.9	-38.9	22.5	0.00e+00	0	42	0	711983104	50	5496
2026-01-23 11:49:22.26	59.98	10.31	-37.8	-38.8	22.6	0.00e+00	0	42	0	715128832	50	5417
2026-01-23 11:49:23.27	60.16	10.33	-37.9	-38.9	22.4	0.00e+00	0	42	0	718274560	50	5530
2026-01-23 11:49:24.28	60.34	10.34	-38.0	-39.1	22.3	0.00e+00	0	42	0	721420288	50	5609
2026-01-23 11:49:25.29	60.52	10.36	-38.2	-39.2	22.2	0.00e+00	0	41	0	724566016	50	5699
2026-01-23 11:49:26.30	60.70	10.37	-38.1	-39.1	22.4	0.00e+00	0	42	0	727711744	50	5619
2026-01-23 11:49:27.31	60.88	10.38	-37.9	-39.0	22.4	0.00e+00	0	42	0	730857472	50	5546
2026-01-23 11:49:28.32	61.06	10.40	-38.2	-39.2	22.3	0.00e+00	0	42	0	734003200	50	5709
2026-01-23 11:49:29.33	61.24	10.41	-38.2	-39.2	22.3	0.00e+00	0	42	0	737148928	50	5689
2026-01-23 11:49:30.34	61.43	10.43	-38.3	-39.4	22.1	0.00e+00	0	42	0	740294656	50	5792
2026-01-23 11:49:31.35	61.61	10.44	-37.9	-38.9	22.5	0.00e+00	0	42	0	743440384	50	5500
2026-01-23 11:49:32.36	61.79	10.45	-38.0	-39.0	22.4	0.00e+00	0	41	0	746586112	50	5592
2026-01-23 11:49:33.37	61.97	10.47	-38.0	-39.1	22.4	0.00e+00	0	41	0	749731840	50	5596
2026-01-23 11:49:34.38	62.15	10.48	-37.9	-38.9	22.5	0.00e+00	0	42	0	752877568	50	5491
2026-01-23 11:49:35.39	62.33	10.49	-38.0	-39.0	22.4	0.00e+00	0	41	0	756023296	50	5554
2026-01-23 11:49:36.40	62.51	10.50	-38.1	-39.1	22.4	0.00e+00	0	41	0	759169024	50	5629
2026-01-23 11:49:37.41	62.70	10.51	-38.2	-39.2	22.3	0.00e+00	0	42	0	762314752	50	5717
2026-01-23 11:49:38.42	62.88	10.53	-38.3	-39.3	22.2	0.00e+00	0	42	0	765460480	50	5781
2026-01-23 11:49:39.42	63.06	10.54	-38.1	-39.1	22.4	0.00e+00	0	41	0	768606208	50	5627
2026-01-23 11:49:40.43	63.24	10.55	-38.1	-39.1	22.4	0.00e+00	0	41	0	771751936	50	5647
2026-01-23 11:49:41.44	63.42	10.56	-38.0	-39.0	22.5	0.00e+00	0	42	0	774897664	50	5545
2026-01-23 11:49:42.45	63.61	10.57	-38.0	-39.0	22.4	0.00e+00	0	41	0	778043392	50	5564
2026-01-23 11:49:43.46	63.79	10.58	-37.7	-38.7	22.7	0.00e+00	0	42	0	781189120	48	6046
2026-01-23 11:49:44.47	63.97	10.59	-37.7	-38.7	22.7	0.00e+00	0	42	0	784334848	48	6002
2026-01-23 11:49:45.48	64.16	10.60	-37.6	-38.6	22.7	0.00e+00	0	41	0	787480576	48	5929
2026-01-23 11:49:46.49	64.34	10.61	-37.7	-38.7	22.6	0.00e+00	0	41	0	790626304	48	6053
2026-01-23 11:49:47.50	64.52	10.62	-37.8	-38.8	22.6	0.00e+00	0	41	0	793772032	48	6111
2026-01-23 11:49:48.51	64.71	10.63	-37.9	-39.0	22.4	0.00e+00	0	41	0	796917760	48	6217
2026-01-23 11:49:49.52	64.89	10.64	-38.0	-39.0	22.5	0.00e+00	0	41	0	800063488	48	6229
2026-01-23 11:49:50.53	65.07	10.64	-38.1	-39.2	22.3	0.00e+00	0	41	0	803209216	48	6357
2026-01-23 11:49:51.54	65.26	10.65	-38.0	-39.0	22.4	0.00e+00	0	41	0	806354944	48	6224
2026-01-23 11:49:52.55	65.44	10.66	-37.9	-38.9	22.4	0.00e+00	0	41	0	809500672	48	6196
2026-01-23 11:49:53.56	65.62	10.67	-37.8	-38.8	22.6	0.00e+00	0	41	0	812646400	48	6102
2026-01-23 11:49:54.57	65.81	10.68	-38.0	-39.0	22.3	0.00e+00	0	41	0	815792128	48	6265
2026-01-23 11:49:55.58	65.99	10.68	-37.9	-38.9	22.4	0.00e+00	0	42	0	818937856	48	6137
2026-01-23 11:49:56.59	66.18	10.69	-37.9	-38.9	22.4	0.00e+00	0	41	0	822083584	48	6141
2026-01-23 11:49:57.60	66.36	10.70	-37.7	-38.7	22.6	0.00e+00	0	41	0	825229312	48	6033
2026-01-23 11:49:58.61	66.55	10.70	-37.7	-38.7	22.6	0.00e+00	0	41	0	828375040	48	5995
2026-01-23 11:49:59.62	66.73	10.71	-37.7	-38.7	22.5	0.00e+00	0	41	0	831520768	48	6044
2026-01-23 11:50:00.63	66.92	10.72	-38.0	-39.1	22.2	0.00e+00	0	41	0	834666496	48	6280
2026-01-23 11:50:01.64	67.10	10.72	-38.0	-39.0	22.2	0.00e+00	0	41	0	837812224	48	6272
2026-01-23 11:50:02.65	67.28	10.73	-37.8	-38.8	22.5	0.00e+00	0	41	0	840957952	48	6097
2026-01-23 11:50:03.66	67.47	10.73	-37.8	-38.8	22.5	0.00e+00	0	41	0	844103680	48	6092
2026-01-23 11:50:04.67	67.65	10.74	-37.7	-38.7	22.6	0.00e+00	0	41	0	847249408	48	6049
2026-01-23 11:50:05.68	67.84	10.74	-37.7	-38.7	22.5	0.00e+00	0	41	0	850395136	48	6056
2026-01-23 11:50:06.69	68.02	10.75	-37.7	-38.7	22.6	0.00e+00	0	41	0	853540864	48	5996
2026-01-23 11:50:07.70	68.21	10.75	-37.7	-38.6	22.6	0.00e+00	0	41	0	856686592	48	5992
2026-01-23 11:50:08.71	68.39	10.75	-37.7	-38.7	22.5	0.00e+00	0	41	0	859832320	48	6047
2026-01-23 11:50:09.73	68.58	10.76	-37.7	-38.7	22.5	0.00e+00	0	41	0	862978048	48	6031
2026-01-23 11:50:10.74	68.77	10.76	-37.8	-38.9	22.4	0.00e+00	0	41	0	866123776	48	6136
2026-01-23 11:50:11.74	68.95	10.76	-37.8	-38.9	22.4	0.00e+00	0	41	0	869269504	48	6139
2026-01-23 11:50:12.76	69.14	10.77	-37.7	-38.7	22.6	0.00e+00	0	41	0	872415232	48	6042
2026-01-23 11:50:13.76	69.32	10.77	-37.8	-38.8	22.4	0.00e+00	0	41	0	875560960	48	6115
2026-01-23 11:50:14.77	69.51	10.77	-37.9	-38.9	22.4	0.00e+00	0	41	0	878706688	48	6136
2026-01-23 11:50:15.78	69.69	10.77	-38.0	-39.0	22.3	0.00e+00	0	41	0	881852416	48	6236
2026-01-23 11:50:16.79	69.88	10.78	-38.2	-39.2	22.1	0.00e+00	0	41	0	884998144	48	6419
2026-01-23 11:50:17.80	70.06	10.78	-37.9	-38.9	22.4	0.00e+00	0	41	0	888143872	48	6166
2026-01-23 11:50:18.81	70.25	10.78	-38.1	-39.2	22.2	0.00e+00	0	41	0	891289600	48	6358
2026-01-23 11:50:19.82	70.43	10.78	-38.1	-39.1	22.5	0.00e+00	0	41	0	894435328	48	6307
2026-01-23 11:50:20.83	70.62	10.78	-37.9	-38.9	22.4	0.00e+00	0	41	0	897581056	48	6145
2026-01-23 11:50:21.84	70.80	10.78	-37.7	-38.7	22.6	0.00e+00	0	41	0	900726784	48	6027
2026-01-23 11:50:22.85	70.99	10.78	-37.8	-38.8	22.5	0.00e+00	0	41	0	903872512	48	6095
2026-01-23 11:50:23.86	71.17	10.78	-37.9	-38.9	22.4	0.00e+00	0	41	0	907018240	48	6153
2026-01-23 11:50:24.87	71.36	10.78	-37.8	-38.8	22.6	0.00e+00	0	41	0	910163968	48	6092
2026-01-23 11:50:25.88	71.55	10.78	-37.7	-38.7	22.6	0.00e+00	0	41	0	913309696	48	6047
2026-01-23 11:50:26.89	71.73	10.78	-37.6	-38.6	22.7	0.00e+00	0	41	0	916455424	48	5980
2026-01-23 11:50:27.90	71.92	10.78	-37.7	-38.7	22.6	0.00e+00	0	41	0	919601152	48	6026
2026-01-23 11:50:28.91	72.10	10.78	-37.6	-38.6	22.7	0.00e+00	0	41	0	922746880	48	5988
2026-01-23 11:50:29.92	72.29	10.77	-37.6	-38.6	22.8	0.00e+00	0	41	0	925892608	48	5933
2026-01-23 11:50:30.93	72.47	10.77	-37.6	-38.6	22.8	0.00e+00	0	41	0	929038336	48	5983
2026-01-23 11:50:31.94	72.66	10.77	-37.6	-38.6	22.7	0.00e+00	0	41	0	932184064	48	5981
2026-01-23 11:50:32.95	72.84	10.77	-37.6	-38.6	22.8	0.00e+00	0	41	0	935329792	48	5946
2026-01-23 11:50:33.96	73.03	10.76	-37.6	-38.6	22.7	0.00e+00	0	41	0	938475520	48	5956
2026-01-23 11:50:34.97	73.21	10.76	-37.7	-38.8	22.6	0.00e+00	0	41	0	941621248	48	6066
2026-01-23 11:50:35.98	73.40	10.76	-37.6	-38.6	22.7	0.00e+00	0	41	0	944766976	48	5986
2026-01-23 11:50:36.99	73.58	10.75	-37.6	-38.6	22.7	0.00e+00	0	41	0	947912704	48	5963
2026-01-23 11:50:38.00	73.77	10.75	-37.7	-38.7	22.6	0.00e+00	0	41	0	951058432	48	6043
2026-01-23 11:50:39.01	73.96	10.75	-37.7	-38.7	22.7	0.00e+00	0	41	0	954204160	48	6048
2026-01-23 11:50:40.02	74.14	10.74	-37.7	-38.8	22.6	0.00e+00	0	41	0	957349888	48	6073
2026-01-23 11:50:41.04	74.33	10.74	-37.7	-38.8	22.6	0.00e+00	0	41	0	960495616	48	6069
2026-01-23 11:50:42.05	74.51	10.73	-37.6	-38.6	22.8	0.00e+00	0	41	0	964689920	48	5961
2026-01-23 11:50:43.06	74.70	10.73	-37.6	-38.6	22.8	0.00e+00	0	41	0	966787072	48	5956
2026-01-23 11:50:44.07	74.88	10.72	-37.6	-38.6	22.8	0.00e+00	0	41	0	969932800	48	5981
2026-01-23 11:50:45.07	75.07	10.72	-37.7	-38.7	22.7	0.00e+00	0	41	0	973078528	48	6015
2026-01-23 11:50:46.08	75.25	10.71	-37.7	-38.7	22.8	0.00e+00	0	41	0	976224256	48	6000
2026-01-23 11:50:47.09	75.43	10.70	-37.7	-38.7	22.7	0.00e+00	0	41	0	980418560	48	6003
2026-01-23 11:50:48.11	75.62	10.70	-37.6	-38.6	22.8	0.00e+00	0	41	0	983564288	48	5976
2026-01-23 11:50:49.12	75.81	10.69	-37.5	-38.5	22.9	0.00e+00	0	41	0	986710016	48	5880
2026-01-23 11:50:50.12	75.99	10.68	-37.8	-38.8	22.7	0.00e+00	0	41	0	989855744	48	6110
2026-01-23 11:50:51.13	76.17	10.68	-37.7	-38.7	22.8	0.00e+00	0	41	0	991952896	48	6040
2026-01-23 11:50:52.14	76.36	10.67	-37.5	-38.5	22.8	0.00e+00	0	41	0	996147200	48	5895
2026-01-23 11:50:53.15	76.54	10.66	-37.6	-38.6	22.8	0.00e+00	0	41	0	999292928	48	5983
2026-01-23 11:50:54.16	76.73	10.65	-37.6	-38.6	22.7	0.00e+00	0	41	0	1002438656	48	5985
2026-01-23 11:50:55.17	76.91	10.65	-37.6	-38.6	22.8	0.00e+00	0	41	0	1005584384	48	5952
2026-01-23 11:50:56.18	77.09	10.64	-37.8	-38.8	22.6	0.00e+00	0	41	0	1008730112	48	6115
2026-01-23 11:50:57.19	77.28	10.63	-37.8	-38.8	22.7	0.00e+00	0	41	0	1011875840	48	6111
2026-01-23 11:50:58.20	77.46	10.62	-37.6	-38.6	22.8	0.00e+00	0	41	0	1015021568	48	5958
2026-01-23 11:50:59.21	77.64	10.61	-37.6	-38.6	22.8	0.00e+00	0	41	0	1018167296	48	5946
2026-01-23 11:51:00.22	77.83	10.60	-37.6	-38.6	22.7	0.00e+00	0	41	0	1021313024	48	5974
2026-01-23 11:51:01.23	78.01	10.59	-37.6	-38.6	22.8	0.00e+00	0	41	0	1024458752	48	5971
2026-01-23 11:51:02.24	78.19	10.58	-37.7	-38.7	22.7	0.00e+00	0	41	0	1027604480	48	6018
2026-01-23 11:51:03.25	78.38	10.57	-37.5	-38.5	22.8	0.00e+00	0	41	0	1030750208	48	5916
2026-01-23 11:51:04.26	78.56	10.56	-37.5	-38.5	22.8	0.00e+00	0	41	0	1033895936	48	5919
2026-01-23 11:51:05.27	78.74	10.55	-37.6	-38.6	22.8	0.00e+00	0	41	0	1037041664	48	5978
2026-01-23 11:51:06.28	78.93	10.54	-37.8	-38.8	22.6	0.00e+00	0	41	0	1040187392	48	6126
2026-01-23 11:51:07.29	79.11	10.53	-38.0	-39.1	22.4	0.00e+00	0	41	0	1043333120	48	6290
2026-01-23 11:51:08.30	79.29	10.52	-37.9	-38.9	22.5	0.00e+00	0	41	0	1046478848	48	6183
2026-01-23 11:51:09.31	79.47	10.50	-37.8	-38.8	22.6	0.00e+00	0	41	0	1049624576	48	6100
2026-01-23 11:51:10.32	79.66	10.49	-38.0	-39.0	22.5	0.00e+00	0	41	0	1052770304	48	6235
2026-01-23 11:51:11.34	79.84	10.48	-37.8	-38.8	22.6	0.00e+00	0	41	0	1055916032	48	6133
2026-01-23 11:51:12.35	80.02	10.47	-37.7	-38.7	22.7	0.00e+00	0	41	0	1059061760	48	6027
2026-01-23 11:51:13.36	80.20	10.45	-37.8	-38.8	22.6	0.00e+00	0	41	0	1062207488	48	6066
2026-01-23 11:51:14.37	80.38	10.44	-37.9	-38.9	22.4	0.00e+00	0	41	0	1065353216	48	6186
2026-01-23 11:51:15.38	80.57	10.43	-38.0	-39.1	22.2	0.00e+00	0	41	0	1068498944	48	6282
2026-01-23 11:51:16.39	80.75	10.41	-38.3	-39.3	22.1	0.00e+00	0	41	0	1071644672	48	6464
2026-01-23 11:51:17.40	80.93	10.40	-38.4	-39.5	21.9	0.00e+00	0	41	0	1074790400	48	6578
2026-01-23 11:51:18.41	81.11	10.39	-38.5	-39.5	21.8	0.00e+00	0	41	0	1077936128	48	6646
2026-01-23 11:51:19.42	81.29	10.37	-38.0	-39.1	22.3	0.00e+00	0	41	0	1081081856	48	6300
2026-01-23 11:51:20.43	81.47	10.36	-38.2	-39.3	22.0	0.00e+00	0	41	0	1084227584	48	6427
2026-01-23 11:51:21.44	81.65	10.34	-38.3	-39.3	22.0	0.00e+00	0	41	0	1087373312	48	6457
2026-01-23 11:51:22.45	81.83	10.33	-38.2	-39.2	22.2	0.00e+00	0	41	0	1090519040	48	6389
2026-01-23 11:51:23.46	82.01	10.31	-38.0	-39.0	22.3	0.00e+00	0	41	0	1093664768	48	6261
2026-01-23 11:51:24.47	82.19	10.30	-38.1	-39.2	22.2	0.00e+00	0	41	0	1096810496	48	6353
2026-01-23 11:51:25.48	82.37	10.28	-38.0	-39.0	22.3	0.00e+00	0	41	0	1099956224	48	6241
2026-01-23 11:51:26.49	82.55	10.27	-37.8	-38.8	22.5	0.00e+00	0	41	0	1103101952	48	6106
2026-01-23 11:51:27.50	82.73	10.25	-37.8	-38.9	22.5	0.00e+00	0	41	0	1106247680	48	6140
2026-01-23 11:51:28.51	82.91	10.23	-37.9	-39.0	22.4	0.00e+00	0	41	0	1109393408	48	6213
2026-01-23 11:51:29.52	83.09	10.22	-38.0	-39.0	22.3	0.00e+00	0	41	0	1112539136	48	6259
2026-01-23 11:51:30.53	83.27	10.20	-38.0	-39.0	22.3	0.00e+00	0	41	0	1115684864	48	6231
2026-01-23 11:51:31.54	83.45	10.18	-38.1	-39.1	22.3	0.00e+00	0	41	0	1118830592	48	6329
2026-01-23 11:51:32.55	83.62	10.16	-38.0	-39.0	22.3	0.00e+00	0	41	0	1121976320	48	6254
2026-01-23 11:51:33.56	83.80	10.15	-38.0	-39.0	22.3	0.00e+00	0	41	0	1125122048	48	6219
2026-01-23 11:51:34.57	83.98	10.13	-37.8	-38.8	22.3	0.00e+00	0	41	0	1128267776	48	6115
2026-01-23 11:51:35.58	84.16	10.11	-37.8	-38.8	22.4	0.00e+00	0	41	0	1131413504	48	6126
2026-01-23 11:51:36.58	84.33	10.09	-37.7	-38.7	22.5	0.00e+00	0	41	0	1134559232	48	6054
2026-01-23 11:51:37.59	84.51	10.07	-37.9	-38.9	22.4	0.00e+00	0	41	0	1137704960	48	6150
2026-01-23 11:51:38.60	84.69	10.06	-37.8	-38.8	22.4	0.00e+00	0	41	0	1140850688	48	6076
2026-01-23 11:51:39.61	84.87	10.04	-38.1	-39.1	22.2	0.00e+00	0	41	0	1143996416	48	6321
2026-01-23 11:51:40.62	85.04	10.02	-37.8	-38.7	22.5	0.00e+00	0	41	0	1147142144	48	6060
2026-01-23 11:51:41.63	85.22	10.00	-37.9	-38.9	22.5	0.00e+00	0	41	0	1150287872	48	6160
2026-01-23 11:51:42.64	85.40	9.98	-37.8	-38.8	22.6	0.00e+00	0	41	0	1153433600	48	6110
2026-01-23 11:51:43.66	85.57	9.96	-37.7	-38.7	22.7	0.00e+00	0	41	0	1156579328	48	6019
2026-01-23 11:51:44.67	85.75	9.94	-37.8	-38.9	22.5	0.00e+00	0	41	0	1159725056	48	6135
2026-01-23 11:51:45.68	85.92	9.92	-38.0	-39.0	22.4	0.00e+00	0	41	0	1162870784	48	6276
2026-01-23 11:51:46.68	86.10	9.90	-37.8	-38.8	22.6	0.00e+00	0	41	0	1166016512	48	6103
2026-01-23 11:51:47.69	86.27	9.88	-37.9	-39.0	22.4	0.00e+00	0	41	0	1169162240	48	6211
2026-01-23 11:51:48.70	86.45	9.86	-38.0	-39.0	22.5	0.00e+00	0	41	0	1172307968	48	6236
2026-01-23 11:51:49.71	86.62	9.84	-37.9	-38.9	22.5	0.00e+00	0	41	0	1175453696	48	6160
2026-01-23 11:51:50.72	86.80	9.81	-37.9	-38.9	22.5	0.00e+00	0	41	0	1178599424	48	6155
2026-01-23 11:51:51.73	86.97	9.79	-37.8	-38.7	22.7	0.00e+00	0	41	0	1181745152	48	6057
2026-01-23 11:51:52.74	87.15	9.77	-37.9	-38.9	22.6	0.00e+00	0	41	0	1184890880	48	6185
2026-01-23 11:51:53.75	87.32	9.75	-37.7	-38.7	22.7	0.00e+00	0	41	0	1188036608	48	6012
2026-01-23 11:51:54.76	87.49	9.73	-37.9	-38.9	22.5	0.00e+00	0	41	0	1191182336	48	6163
2026-01-23 11:51:55.77	87.67	9.70	-37.8	-38.9	22.5	0.00e+00	0	41	0	1194328064	48	6144
2026-01-23 11:51:56.78	87.84	9.68	-37.7	-38.7	22.7	0.00e+00	0	41	0	1197473792	48	6029
2026-01-23 11:51:57.79	88.01	9.66	-37.7	-38.7	22.7	0.00e+00	0	41	0	1200619520	48	6034
2026-01-23 11:51:58.80	88.18	9.64	-37.8	-38.8	22.6	0.00e+00	0	41	0	1203765248	48	6096
2026-01-23 11:51:59.81	88.36	9.61	-38.0	-39.0	22.5	0.00e+00	0	41	0	1206910976	48	6215
2026-01-23 11:52:00.82	88.53	9.59	-37.9	-38.9	22.5	0.00e+00	0	41	0	1210056704	48	6162
2026-01-23 11:52:01.83	88.70	9.56	-37.7	-38.7	22.7	0.00e+00	0	41	0	1213202432	48	6004
2026-01-23 11:52:02.84	88.87	9.54	-37.6	-38.6	22.7	0.00e+00	0	41	0	1216348160	48	5951
2026-01-23 11:52:03.84	89.04	9.52	-37.5	-38.6	22.8	0.00e+00	0	41	0	1219493888	48	5938
2026-01-23 11:52:04.85	89.21	9.49	-37.7	-38.8	22.6	0.00e+00	0	41	0	1222639616	48	6070
2026-01-23 11:52:05.86	89.38	9.47	-37.8	-38.9	22.5	0.00e+00	0	41	0	1225785344	48	6152
2026-01-23 11:52:06.87	89.55	9.44	-37.9	-38.9	22.5	0.00e+00	0	41	0	1228931072	48	6189
2026-01-23 11:52:07.88	89.72	9.42	-37.7	-38.8	22.6	0.00e+00	0	41	0	1232076800	48	6086
2026-01-23 11:52:08.89	89.89	9.39	-37.9	-39.0	22.4	0.00e+00	0	41	0	1235222528	48	6207
2026-01-23 11:52:09.90	90.06	9.37	-37.9	-38.9	22.4	0.00e+00	0	41	0	1238368256	48	6194
2026-01-23 11:52:10.91	90.23	9.34	-37.9	-38.9	22.5	0.00e+00	0	41	0	1241513984	48	6154
2026-01-23 11:52:11.92	90.40	9.32	-37.9	-38.9	22.4	0.00e+00	0	41	0	1244659712	48	6200
2026-01-23 11:52:12.93	90.57	9.29	-37.9	-38.9	22.4	0.00e+00	0	41	0	1247805440	48	6169
2026-01-23 11:52:13.94	90.74	9.27	-37.8	-38.8	22.5	0.00e+00	0	41	0	1250951168	48	6102
2026-01-23 11:52:14.95	90.90	9.24	-37.9	-38.9	22.4	0.00e+00	0	41	0	1254096896	48	6163
2026-01-23 11:52:15.97	91.07	9.21	-37.9	-38.9	22.4	0.00e+00	0	41	0	1257242624	48	6199
2026-01-23 11:52:16.98	91.24	9.19	-38.2	-39.2	22.2	0.00e+00	0	41	0	1260388352	48	6401
2026-01-23 11:52:17.99	91.41	9.16	-38.0	-39.0	22.2	0.00e+00	0	41	0	1263534080	48	6256
2026-01-23 11:52:19.00	91.57	9.13	-38.0	-39.0	22.4	0.00e+00	0	41	0	1266679808	48	6224
2026-01-23 11:52:20.00	91.74	9.11	-38.0	-39.0	22.4	0.00e+00	0	41	0	1269825536	48	6221
2026-01-23 11:52:21.01	91.90	9.08	-37.9	-38.9	22.4	0.00e+00	0	41	0	1272971264	48	6169
2026-01-23 11:52:22.02	92.07	9.05	-38.0	-39.0	22.4	0.00e+00	0	41	0	1276116992	48	6254
2026-01-23 11:52:23.03	92.24	9.02	-38.0	-39.1	22.3	0.00e+00	0	41	0	1279262720	48	6290
2026-01-23 11:52:24.04	92.40	9.00	-37.9	-39.0	22.4	0.00e+00	0	41	0	1282408448	48	6229
2026-01-23 11:52:25.06	92.57	8.97	-38.0	-39.0	22.3	0.00e+00	0	41	0	1285554176	48	6259
2026-01-23 11:52:26.07	92.73	8.94	-38.1	-39.1	22.2	0.00e+00	0	41	0	1288699904	48	6302
2026-01-23 11:52:27.08	92.90	8.91	-38.1	-39.2	22.1	0.00e+00	0	41	0	1291845632	48	6364
2026-01-23 11:52:28.09	93.06	8.88	-38.1	-39.1	22.1	0.00e+00	0	41	0	1296039936	48	6344
2026-01-23 11:52:29.10	93.23	8.85	-38.0	-39.1	22.2	0.00e+00	0	41	0	1299185664	48	6302
2026-01-23 11:52:30.11	93.39	8.83	-37.9	-38.9	22.3	0.00e+00	0	41	0	1302331392	48	6202
2026-01-23 11:52:31.12	93.55	8.80	-38.0	-39.0	22.2	0.00e+00	0	41	0	1305477120	48	6262
2026-01-23 11:52:32.13	93.71	8.77	-38.1	-39.1	22.2	0.00e+00	0	41	0	1307574272	48	6334
2026-01-23 11:52:33.14	93.88	8.74	-38.3	-39.4	22.0	0.00e+00	0	41	0	1310720000	48	6521
2026-01-23 11:52:34.15	94.04	8.71	-38.1	-39.1	22.1	0.00e+00	0	41	0	1314914304	48	6341
2026-01-23 11:52:35.16	94.20	8.68	-37.7	-38.7	22.4	0.00e+00	0	41	0	1318060032	48	6033
2026-01-23 11:52:36.17	94.36	8.65	-37.8	-38.8	22.3	0.00e+00	0	41	0	1321205760	48	6111
2026-01-23 11:52:37.18	94.52	8.62	-37.8	-38.8	22.4	0.00e+00	0	41	0	1324351488	48	6120
2026-01-23 11:52:38.19	94.69	8.59	-37.9	-38.9	22.3	0.00e+00	0	41	0	1327497216	48	6191
2026-01-23 11:52:39.20	94.85	8.56	-38.0	-39.0	22.3	0.00e+00	0	41	0	1330642944	48	6259
2026-01-23 11:52:40.21	95.01	8.53	-38.1	-39.1	22.3	0.00e+00	0	41	0	1333788672	48	6312
2026-01-23 11:52:41.22	95.17	8.50	-38.1	-39.1	22.3	0.00e+00	0	41	0	1336934400	48	6337
2026-01-23 11:52:42.23	95.33	8.47	-38.2	-39.3	22.0	0.00e+00	0	41	0	1340080128	48	6439
2026-01-23 11:52:43.24	95.49	8.44	-38.1	-39.1	22.2	0.00e+00	0	41	0	1343225856	48	6311
2026-01-23 11:52:44.25	95.64	8.40	-38.1	-39.1	22.2	0.00e+00	0	41	0	1346371584	48	6331
2026-01-23 11:52:45.26	95.80	8.37	-38.2	-39.2	22.2	0.00e+00	0	41	0	1349517312	48	6380
2026-01-23 11:52:46.27	95.96	8.34	-38.2	-39.3	22.1	0.00e+00	0	41	0	1352663040	48	6448
2026-01-23 11:52:47.28	96.12	8.31	-38.4	-39.4	21.9	0.00e+00	0	41	0	1355808768	48	6538
2026-01-23 11:52:48.29	96.28	8.28	-38.4	-39.4	21.9	0.00e+00	0	41	0	1358954496	48	6558
2026-01-23 11:52:49.30	96.43	8.25	-38.2	-39.3	22.0	0.00e+00	0	41	0	1362100224	48	6425
2026-01-23 11:52:50.31	96.59	8.22	-38.3	-39.4	21.9	0.00e+00	0	41	0	1365245952	48	6526
2026-01-23 11:52:51.32	96.75	8.18	-38.2	-39.3	22.0	0.00e+00	0	41	0	1368391680	48	6429
2026-01-23 11:52:52.33	96.90	8.15	-38.2	-39.2	22.1	0.00e+00	0	41	0	1371537408	48	6414
2026-01-23 11:52:53.34	97.06	8.12	-38.3	-39.3	22.0	0.00e+00	0	41	0	1374683136	48	6494
2026-01-23 11:52:54.35	97.22	8.09	-38.3	-39.3	22.1	0.00e+00	0	41	0	1377828864	48	6469
2026-01-23 11:52:55.36	97.37	8.05	-38.1	-39.2	22.1	0.00e+00	0	41	0	1380974592	48	6370
2026-01-23 11:52:56.37	97.53	8.02	-38.3	-39.4	22.0	0.00e+00	0	41	0	1384120320	48	6514
2026-01-23 11:52:57.38	97.68	7.99	-38.6	-39.7	21.7	0.00e+00	0	41	0	1387266048	48	6776
2026-01-23 11:52:58.39	97.84	7.95	-38.8	-39.9	21.5	0.00e+00	0	41	0	1390411776	50	6177
2026-01-23 11:52:59.40	97.99	7.92	-38.6	-39.8	21.5	0.00e+00	0	41	0	1393557504	50	6066
2026-01-23 11:53:00.41	98.14	7.89	-38.5	-39.6	21.6	0.00e+00	0	41	0	1396703232	50	5974
2026-01-23 11:53:01.42	98.30	7.85	-38.7	-39.8	21.4	0.00e+00	0	41	0	1399848960	50	6080
2026-01-23 11:53:02.43	98.45	7.82	-38.7	-39.8	21.5	0.00e+00	0	41	0	1402994688	50	6083
2026-01-23 11:53:03.44	98.60	7.79	-38.7	-39.8	21.5	0.00e+00	0	41	0	1406140416	50	6093
2026-01-23 11:53:04.45	98.76	7.75	-38.8	-39.8	21.5	0.00e+00	0	41	0	1409286144	50	6130
2026-01-23 11:53:05.46	98.91	7.72	-38.7	-39.8	21.5	0.00e+00	0	41	0	1412431872	50	6087
2026-01-23 11:53:06.47	99.06	7.69	-38.6	-39.7	21.6	0.00e+00	0	41	0	1415577600	50	6042
2026-01-23 11:53:07.47	99.21	7.65	-38.7	-39.8	21.6	0.00e+00	0	41	0	1418723328	50	6084
2026-01-23 11:53:08.48	99.36	7.62	-38.6	-39.7	21.6	0.00e+00	0	41	0	1421869056	50	6042
2026-01-23 11:53:09.49	99.51	7.58	-38.4	-39.5	21.8	0.00e+00	0	41	0	1425014784	50	5880
2026-01-23 11:53:10.50	99.66	7.55	-38.5	-39.6	21.7	0.00e+00	0	41	0	1428160512	50	5957
2026-01-23 11:53:11.51	99.81	7.51	-38.5	-39.6	21.7	0.00e+00	0	41	0	1431306240	50	5963
2026-01-23 11:53:12.52	99.96	7.48	-38.4	-39.5	21.8	0.00e+00	0	41	0	1434451968	50	5895
2026-01-23 11:53:13.53	100.11	7.44	-38.5	-39.6	21.7	0.00e+00	0	41	0	1437597696	50	5967
2026-01-23 11:53:14.54	100.26	7.41	-38.5	-39.5	21.8	0.00e+00	0	41	0	1440743424	50	5916
2026-01-23 11:53:15.55	100.41	7.37	-38.6	-39.6	21.7	0.00e+00	0	41	0	1443889152	50	5974
2026-01-23 11:53:16.56	100.56	7.34	-38.6	-39.7	21.6	0.00e+00	0	41	0	1447034880	50	6035
2026-01-23 11:53:17.57	100.70	7.30	-38.7	-39.8	21.6	0.00e+00	0	41	0	1450180608	50	6067
2026-01-23 11:53:18.58	100.85	7.27	-38.8	-39.9	21.5	0.00e+00	0	41	0	1453326336	50	6139
2026-01-23 11:53:19.59	101.00	7.23	-38.6	-39.7	21.7	0.00e+00	0	41	0	1456472064	50	6014
2026-01-23 11:53:20.60	101.15	7.20	-38.8	-40.0	21.4	0.00e+00	0	41	0	1459617792	50	6207
2026-01-23 11:53:21.61	101.29	7.16	-38.9	-40.0	21.4	0.00e+00	0	41	0	1462763520	50	6253
2026-01-23 11:53:22.62	101.44	7.12	-39.1	-40.2	21.1	0.00e+00	0	41	0	1465909248	50	6414
2026-01-23 11:53:23.63	101.58	7.09	-38.8	-39.9	21.3	0.00e+00	0	41	0	1469054976	50	6176
2026-01-23 11:53:24.64	101.73	7.05	-38.9	-40.0	21.3	0.00e+00	0	41	0	1472200704	50	6238
2026-01-23 11:53:25.66	101.88	7.02	-38.9	-40.0	21.3	0.00e+00	0	41	0	1475346432	50	6255
2026-01-23 11:53:26.66	102.02	6.98	-39.0	-40.1	21.1	0.00e+00	0	41	0	1478492160	50	6314
2026-01-23 11:53:27.68	102.17	6.94	-38.8	-40.0	21.2	0.00e+00	0	41	0	1481637888	50	6209
2026-01-23 11:53:28.68	102.31	6.91	-38.9	-40.0	21.2	0.00e+00	0	41	0	1484783616	50	6262
2026-01-23 11:53:29.70	102.45	6.87	-38.8	-40.0	21.1	0.00e+00	0	41	0	1487929344	50	6215
2026-01-23 11:53:30.71	102.60	6.83	-38.8	-40.0	21.3	0.00e+00	0	41	0	1491075072	50	6207
2026-01-23 11:53:31.71	102.74	6.80	-38.8	-39.9	21.3	0.00e+00	0	41	0	1494220800	50	6192
2026-01-23 11:53:32.72	102.88	6.76	-38.8	-39.9	21.3	0.00e+00	0	41	0	1497366528	50	6148
2026-01-23 11:53:33.74	103.02	6.72	-39.0	-40.1	21.3	0.00e+00	0	41	0	1500512256	50	6289
2026-01-23 11:53:34.74	103.17	6.69	-38.6	-39.7	21.5	0.00e+00	0	41	0	1503657984	50	6055
2026-01-23 11:53:35.75	103.31	6.65	-39.0	-40.1	21.1	0.00e+00	0	41	0	1506803712	50	6328
2026-01-23 11:53:36.76	103.45	6.61	-38.8	-39.9	21.2	0.00e+00	0	41	0	1509949440	50	6171
2026-01-23 11:53:37.77	103.59	6.57	-38.9	-40.0	21.2	0.00e+00	0	41	0	1513095168	50	6244
2026-01-23 11:53:38.78	103.73	6.54	-38.9	-40.0	21.1	0.00e+00	0	41	0	1516240896	50	6277
2026-01-23 11:53:39.79	103.87	6.50	-39.0	-40.2	21.0	0.00e+00	0	41	0	1519386624	50	6356
2026-01-23 11:53:40.80	104.01	6.46	-39.1	-40.2	21.0	0.00e+00	0	41	0	1522532352	50	6418
2026-01-23 11:53:41.82	104.15	6.42	-38.8	-39.9	21.3	0.00e+00	0	41	0	1525678080	50	6185
2026-01-23 11:53:42.83	104.29	6.38	-38.9	-40.0	21.2	0.00e+00	0	41	0	1528823808	50	6208
2026-01-23 11:53:43.84	104.43	6.35	-39.0	-40.1	21.1	0.00e+00	0	41	0	1531969536	50	6297
2026-01-23 11:53:44.85	104.57	6.31	-38.9	-40.0	21.2	0.00e+00	0	41	0	1535115264	50	6220
2026-01-23 11:53:45.86	104.71	6.27	-38.9	-40.0	21.2	0.00e+00	0	41	0	1538260992	50	6238
2026-01-23 11:53:46.87	104.84	6.23	-39.0	-40.1	21.1	0.00e+00	0	41	0	1541406720	50	6346
2026-01-23 11:53:47.88	104.98	6.19	-38.9	-40.0	21.3	0.00e+00	0	41	0	1544552448	50	6240
2026-01-23 11:53:48.88	105.12	6.16	-38.8	-40.0	21.4	0.00e+00	0	41	0	1547698176	50	6231
2026-01-23 11:53:49.90	105.26	6.12	-38.9	-40.0	21.2	0.00e+00	0	41	0	1550843904	50	6276
2026-01-23 11:53:50.91	105.39	6.08	-38.6	-39.8	21.4	0.00e+00	0	41	0	1553989632	50	6095
2026-01-23 11:53:51.91	105.53	6.04	-38.9	-40.0	21.1	0.00e+00	0	41	0	1557135360	50	6259
2026-01-23 11:53:52.92	105.66	6.00	-39.1	-40.3	20.9	0.00e+00	0	41	0	1560281088	50	6442
2026-01-23 11:53:53.93	105.80	5.96	-39.1	-40.2	20.8	0.00e+00	0	41	0	1563426816	50	6401
2026-01-23 11:53:54.94	105.93	5.92	-38.9	-40.0	21.1	0.00e+00	0	41	0	1566572544	50	6251
2026-01-23 11:53:55.95	106.07	5.88	-38.9	-40.1	21.2	0.00e+00	0	41	0	1569718272	50	6286
2026-01-23 11:53:56.96	106.20	5.85	-39.0	-40.2	20.9	0.00e+00	0	41	0	1572864000	50	6399
2026-01-23 11:53:57.97	106.34	5.81	-38.9	-40.1	20.9	0.00e+00	0	41	0	1576009728	50	6330
2026-01-23 11:53:58.98	106.47	5.77	-39.1	-40.4	20.7	0.00e+00	0	41	0	1579155456	50	6518
2026-01-23 11:53:59.99	106.60	5.73	-39.1	-40.3	20.8	0.00e+00	0	41	0	1582301184	50	6454
2026-01-23 11:54:01.00	106.74	5.69	-39.2	-40.4	20.8	0.00e+00	0	41	0	1585446912	50	6526
2026-01-23 11:54:02.01	106.87	5.65	-39.2	-40.3	20.9	0.00e+00	0	41	0	1588592640	50	6464
2026-01-23 11:54:03.02	107.00	5.61	-39.1	-40.2	20.9	0.00e+00	0	41	0	1591738368	50	6423
2026-01-23 11:54:04.03	107.13	5.57	-38.9	-40.0	21.1	0.00e+00	0	41	0	1594884096	50	6251
2026-01-23 11:54:05.05	107.27	5.53	-39.2	-40.4	20.8	0.00e+00	0	41	0	1598029824	50	6544
2026-01-23 11:54:06.06	107.40	5.49	-39.2	-40.4	21.0	0.00e+00	0	41	0	1601175552	50	6524
2026-01-23 11:54:07.07	107.53	5.45	-39.2	-40.4	20.8	0.00e+00	0	41	0	1604321280	50	6511
2026-01-23 11:54:08.08	107.66	5.41	-39.1	-40.2	21.0	0.00e+00	0	41	0	1607467008	50	6422
2026-01-23 11:54:09.08	107.79	5.37	-39.1	-40.2	20.9	0.00e+00	0	41	0	1610612736	50	6413
2026-01-23 11:54:10.10	107.92	5.33	-39.3	-40.4	20.7	0.00e+00	0	41	0	1614807040	50	6551
2026-01-23 11:54:11.10	108.05	5.29	-39.2	-40.3	20.8	0.00e+00	0	41	0	1617952768	50	6491
2026-01-23 11:54:12.11	108.18	5.25	-39.3	-40.4	20.6	0.00e+00	0	41	0	1621098496	50	6569
2026-01-23 11:54:13.12	108.31	5.21	-39.4	-40.6	20.5	0.00e+00	0	41	0	1623195648	50	6650
2026-01-23 11:54:14.13	108.43	5.17	-39.4	-40.6	20.5	0.00e+00	0	41	0	1626341376	50	6690
2026-01-23 11:54:15.14	108.56	5.13	-39.5	-40.7	20.5	0.00e+00	0	41	0	1630535680	50	6743
2026-01-23 11:54:16.15	108.69	5.09	-39.2	-40.3	20.8	0.00e+00	0	41	0	1633681408	50	6489
2026-01-23 11:54:17.16	108.82	5.05	-39.5	-40.6	20.4	0.00e+00	0	41	0	1636827136	50	6726
2026-01-23 11:54:18.17	108.95	5.01	-39.5	-40.7	20.4	0.00e+00	0	41	0	1639972864	50	6759
2026-01-23 11:54:19.18	109.07	4.97	-39.5	-40.7	20.4	0.00e+00	0	41	0	1643118592	50	6788
2026-01-23 11:54:20.19	109.20	4.93	-39.3	-40.5	20.7	0.00e+00	0	41	0	1646264320	50	6579
2026-01-23 11:54:21.20	109.33	4.89	-39.5	-40.8	20.4	0.00e+00	0	41	0	1649410048	50	6819
2026-01-23 11:54:22.21	109.45	4.85	-39.4	-40.6	20.5	0.00e+00	0	41	0	1652555776	50	6705
2026-01-23 11:54:23.22	109.58	4.81	-39.6	-40.8	20.3	0.00e+00	0	41	0	1655701504	50	6838
2026-01-23 11:54:24.22	109.70	4.77	-39.7	-41.0	20.3	0.00e+00	0	41	0	1658847232	52	6206
2026-01-23 11:54:25.24	109.83	4.73	-39.8	-41.1	20.0	0.00e+00	0	41	0	1661992960	52	6303
2026-01-23 11:54:26.25	109.95	4.69	-39.8	-41.1	20.0	0.00e+00	0	41	0	1665138688	52	6297
2026-01-23 11:54:27.26	110.08	4.65	-39.8	-41.1	20.0	0.00e+00	0	41	0	1668284416	52	6322
2026-01-23 11:54:28.27	110.20	4.61	-39.9	-41.1	19.9	0.00e+00	0	41	0	1671430144	52	6348
2026-01-23 11:54:29.28	110.32	4.57	-39.9	-41.2	19.9	0.00e+00	0	41	0	1674575872	52	6379
2026-01-23 11:54:30.28	110.45	4.52	-39.8	-41.0	20.1	0.00e+00	0	41	0	1677721600	52	6231
2026-01-23 11:54:31.29	110.57	4.48	-39.7	-41.0	20.1	0.00e+00	0	41	0	1680867328	52	6216
2026-01-23 11:54:32.30	110.69	4.44	-39.7	-41.0	20.1	0.00e+00	0	41	0	1684013056	52	6210
2026-01-23 11:54:33.31	110.81	4.40	-39.9	-41.2	19.9	0.00e+00	0	41	0	1687158784	52	6367
2026-01-23 11:54:34.32	110.93	4.36	-40.1	-41.3	19.7	0.00e+00	0	41	0	1690304512	52	6498
2026-01-23 11:54:35.33	111.06	4.32	-39.7	-40.9	20.2	0.00e+00	0	41	0	1693450240	52	6148
2026-01-23 11:54:36.34	111.18	4.28	-39.6	-40.8	20.2	0.00e+00	0	41	0	1696595968	52	6098
2026-01-23 11:54:37.35	111.30	4.24	-39.3	-40.5	20.3	0.00e+00	0	41	0	1699741696	52	5904
2026-01-23 11:54:38.36	111.42	4.20	-39.6	-40.9	20.0	0.00e+00	0	41	0	1702887424	52	6151
2026-01-23 11:54:39.37	111.54	4.15	-39.4	-40.6	20.3	0.00e+00	0	41	0	1706033152	52	5951
2026-01-23 11:54:40.38	111.66	4.11	-38.9	-40.1	20.7	0.00e+00	0	41	0	1709178880	52	5619
2026-01-23 11:54:41.39	111.78	4.07	-39.8	-41.1	19.8	0.00e+00	0	41	0	1712324608	52	6298
2026-01-23 11:54:42.40	111.90	4.03	-39.8	-41.1	19.7	0.00e+00	0	41	0	1715470336	52	6313
2026-01-23 11:54:43.41	112.02	3.99	-39.6	-40.9	19.8	0.00e+00	0	41	0	1718616064	52	6155
2026-01-23 11:54:44.41	112.14	3.95	-39.9	-41.3	19.4	0.00e+00	0	41	0	1721761792	52	6425
2026-01-23 11:54:45.42	112.25	3.91	-40.2	-41.5	19.3	0.00e+00	0	41	0	1724907520	52	6609
2026-01-23 11:54:46.43	112.37	3.86	-40.2	-41.5	19.3	0.00e+00	0	41	0	1728053248	52	6635
2026-01-23 11:54:47.44	112.49	3.82	-39.8	-41.1	19.7	0.00e+00	0	41	0	1731198976	52	6314
2026-01-23 11:54:48.45	112.61	3.78	-39.9	-41.1	19.7	0.00e+00	0	41	0	1734344704	52	6337
2026-01-23 11:54:49.46	112.72	3.74	-39.9	-41.2	19.5	0.00e+00	0	41	0	1737490432	52	6385
2026-01-23 11:54:50.47	112.84	3.70	-39.8	-41.1	19.8	0.00e+00	0	41	0	1740636160	52	6307
2026-01-23 11:54:51.48	112.96	3.66	-40.0	-41.3	19.4	0.00e+00	0	41	0	1743781888	52	6494
2026-01-23 11:54:52.49	113.07	3.61	-40.3	-41.7	19.1	0.00e+00	0	41	0	1746927616	52	6758
2026-01-23 11:54:53.50	113.19	3.57	-39.3	-40.6	20.1	0.00e+00	0	41	0	1750073344	52	5955
2026-01-23 11:54:54.51	113.30	3.53	-39.5	-40.8	19.8	0.00e+00	0	41	0	1753219072	52	6091
2026-01-23 11:54:55.52	113.42	3.49	-40.0	-41.3	19.4	0.00e+00	0	41	0	1756364800	52	6478
2026-01-23 11:54:56.53	113.53	3.45	-40.0	-41.3	19.4	0.00e+00	0	41	0	1759510528	52	6497
2026-01-23 11:54:57.54	113.65	3.41	-40.4	-41.8	19.0	0.00e+00	0	41	0	1762656256	52	6835
2026-01-23 11:54:58.55	113.76	3.36	-40.4	-41.8	19.1	0.00e+00	0	41	0	1765801984	52	6826
2026-01-23 11:54:59.56	113.88	3.32	-40.6	-42.1	18.8	0.00e+00	0	41	0	1768947712	54	6322
2026-01-23 11:55:00.57	113.99	3.28	-40.2	-41.5	19.1	0.00e+00	0	41	0	1772093440	54	5917
2026-01-23 11:55:01.58	114.10	3.24	-40.6	-42.1	18.8	0.00e+00	0	41	0	1775239168	54	6299
2026-01-23 11:55:02.59	114.22	3.20	-40.1	-41.5	19.2	0.00e+00	0	41	0	1778384896	54	5871
2026-01-23 11:55:03.60	114.33	3.15	-40.1	-41.4	19.1	0.00e+00	0	41	0	1781530624	54	5858
2026-01-23 11:55:04.61	114.44	3.11	-40.6	-42.1	18.3	0.00e+00	0	41	0	1784676352	54	6298
2026-01-23 11:55:05.62	114.55	3.07	-40.8	-42.3	18.2	0.00e+00	0	41	0	1787822080	54	6481
2026-01-23 11:55:06.63	114.67	3.03	-40.3	-41.7	18.8	0.00e+00	0	41	0	1790967808	54	6015
2026-01-23 11:55:07.64	114.78	2.98	-48.6	-61.9	3.5	1.00e+00	0	41	104	1793064960	60	43669
2026-01-23 11:55:08.65	114.89	2.94	-49.6	-62.5	3.5	1.52e+00	0	41	104	1793064960	60	46629
2026-01-23 11:55:09.66	115.00	2.90	-49.7	-62.6	3.5	1.52e+00	0	41	104	1793064960	60	47170
2026-01-23 11:55:10.67	115.11	2.86	-50.0	-62.9	3.5	1.52e+00	0	41	104	1793064960	60	49008
2026-01-23 11:55:11.68	115.22	2.82	-50.1	-63.1	3.5	1.52e+00	0	41	104	1793064960	60	49877
2026-01-23 11:55:12.69	115.33	2.77	-50.2	-63.1	3.5	1.52e+00	0	41	104	1793064960	60	50131
2026-01-23 11:55:13.70	115.44	2.73	-50.2	-63.2	3.5	1.52e+00	0	41	104	1793064960	60	50730
2026-01-23 11:55:14.71	115.55	2.69	-50.3	-63.2	3.5	1.51e+00	0	41	104	1793064960	60	50990
2026-01-23 11:55:15.72	115.66	2.65	-50.4	-63.3	3.5	1.52e+00	0	41	104	1793064960	60	51125
2026-01-23 11:55:16.73	115.77	2.60	-50.4	-63.3	3.5	1.52e+00	0	41	104	1793064960	60	51359
2026-01-23 11:55:17.74	115.88	2.56	-50.4	-63.3	3.5	1.52e+00	0	41	104	1793064960	60	51213
2026-01-23 11:55:18.75	115.98	2.52	-50.5	-63.3	3.5	1.52e+00	0	41	104	1793064960	60	51547
2026-01-23 11:55:19.76	116.09	2.48	-50.5	-63.3	3.5	1.52e+00	0	41	104	1793064960	60	51554
2026-01-23 11:55:20.77	116.20	2.43	-50.4	-63.3	3.5	1.51e+00	0	41	104	1793064960	60	51476
2026-01-23 11:55:21.78	116.31	2.39	-50.5	-63.4	3.5	1.52e+00	0	41	104	1793064960	60	51796
2026-01-23 11:55:22.79	116.41	2.35	-50.5	-63.3	3.5	1.52e+00	0	41	104	1793064960	60	51505
2026-01-23 11:55:23.79	116.52	2.31	-50.5	-63.4	3.5	1.52e+00	0	41	104	1793064960	60	51762
2026-01-23 11:55:24.80	116.63	2.27	-50.5	-63.4	3.4	1.52e+00	0	41	104	1793064960	60	51666
2026-01-23 11:55:25.81	116.73	2.22	-50.4	-63.4	3.5	1.52e+00	0	41	104	1793064960	60	51688
2026-01-23 11:55:26.82	116.84	2.18	-50.5	-63.4	3.5	1.52e+00	0	41	104	1793064960	60	51808
2026-01-23 11:55:27.83	116.94	2.14	-50.5	-63.3	3.5	1.52e+00	0	41	104	1793064960	60	51484
2026-01-23 11:55:28.84	117.05	2.10	-50.6	-63.4	3.5	1.52e+00	0	41	104	1793064960	60	52092
2026-01-23 11:55:29.85	117.15	2.05	-50.5	-63.4	3.5	1.52e+00	0	41	104	1793064960	60	51768
2026-01-23 11:55:30.86	117.26	2.01	-50.5	-63.4	3.5	1.52e+00	0	41	104	1793064960	60	52150
2026-01-23 11:55:31.87	117.36	1.97	-50.5	-63.3	3.5	1.52e+00	0	41	104	1793064960	60	51604
2026-01-23 11:55:32.88	117.47	1.93	-50.5	-63.4	3.5	1.52e+00	0	41	104	1793064960	60	51668
2026-01-23 11:55:33.89	117.57	1.88	-50.5	-63.3	3.5	1.52e+00	0	41	104	1793064960	60	51249
2026-01-23 11:55:34.90	117.67	1.84	-50.5	-63.4	3.5	1.52e+00	0	41	104	1793064960	60	51722
2026-01-23 11:55:35.91	117.78	1.80	-50.5	-63.4	3.5	1.52e+00	0	41	104	1793064960	60	51624
2026-01-23 11:55:36.92	117.88	1.75	-50.4	-63.4	3.5	1.51e+00	0	41	104	1793064960	60	51782
2026-01-23 11:55:37.93	117.98	1.71	-50.5	-63.3	3.5	1.52e+00	0	41	104	1793064960	60	51465
2026-01-23 11:55:38.93	118.08	1.67	-50.5	-63.4	3.5	1.52e+00	0	41	104	1793064960	60	51740
2026-01-23 11:55:39.94	118.19	1.63	-50.4	-63.4	3.5	1.52e+00	0	41	104	1793064960	60	51667
2026-01-23 11:55:40.95	118.29	1.58	-50.4	-63.4	3.5	1.52e+00	0	41	104	1793064960	60	51723
2026-01-23 11:55:41.96	118.39	1.54	-50.5	-63.4	3.5	1.51e+00	0	41	104	1793064960	60	51633
2026-01-23 11:55:42.97	118.49	1.50	-50.4	-63.3	3.5	1.52e+00	0	41	104	1793064960	60	51479
2026-01-23 11:55:43.98	118.59	1.46	-50.4	-63.3	3.5	1.52e+00	0	41	104	1793064960	60	51400
2026-01-23 11:55:44.99	118.69	1.41	-50.4	-63.3	3.5	1.52e+00	0	41	104	1793064960	60	51591
2026-01-23 11:55:46.00	118.79	1.37	-50.4	-63.3	3.5	1.52e+00	0	41	104	1793064960	60	51452
2026-01-23 11:55:47.01	118.89	1.33	-50.4	-63.4	3.5	1.51e+00	0	41	104	1793064960	60	51663
2026-01-23 11:55:48.02	118.99	1.29	-50.4	-63.4	3.5	1.52e+00	0	41	104	1793064960	60	51678
2026-01-23 11:55:49.03	119.09	1.24	-50.4	-63.3	3.5	1.51e+00	0	41	104	1793064960	60	51567
2026-01-23 11:55:50.04	119.19	1.20	-50.4	-63.4	3.5	1.52e+00	0	41	104	1793064960	60	51695
2026-01-23 11:55:51.06	119.29	1.16	-50.4	-63.4	3.5	1.52e+00	0	41	104	1793064960	60	51811
2026-01-23 11:55:52.07	119.39	1.11	-50.4	-63.4	3.5	1.52e+00	0	41	104	1793064960	60	51634
2026-01-23 11:55:53.08	119.49	1.07	-50.4	-63.4	3.5	1.52e+00	0	41	104	1793064960	60	51736
2026-01-23 11:55:54.09	119.59	1.03	-50.4	-63.3	3.5	1.52e+00	0	41	104	1793064960	60	51490
2026-01-23 11:55:55.10	119.69	0.99	-50.4	-63.4	3.5	1.52e+00	0	41	104	1793064960	60	51732
2026-01-23 11:55:56.11	119.78	0.94	-50.4	-63.3	3.5	1.52e+00	0	41	104	1793064960	60	51525
2026-01-23 11:55:57.12	119.88	0.90	-50.4	-63.4	3.5	1.52e+00	0	41	104	1793064960	60	51710
2026-01-23 11:55:58.13	119.98	0.86	-50.4	-63.3	3.5	1.52e+00	0	41	104	1793064960	60	51497
2026-01-23 11:55:59.14	120.08	0.82	-50.4	-63.3	3.5	1.52e+00	0	41	104	1793064960	60	51540
2026-01-23 11:56:00.15	120.17	0.77	-50.4	-63.4	3.5	1.52e+00	0	41	104	1793064960	60	51715
2026-01-23 11:56:01.15	120.27	0.73	-50.4	-63.3	3.5	1.52e+00	0	41	104	1793064960	60	51539
2026-01-23 11:56:02.17	120.36	0.69	-50.4	-63.3	3.5	1.52e+00	0	41	104	1793064960	60	51530
2026-01-23 11:56:03.17	120.46	0.64	-50.4	-63.4	3.5	1.52e+00	0	41	104	1793064960	60	51775
2026-01-23 11:56:04.18	120.55	0.60	-50.4	-63.4	3.5	1.52e+00	0	41	104	1793064960	60	51739
2026-01-23 11:56:05.20	120.65	0.56	-50.4	-63.4	3.5	1.52e+00	0	41	104	1793064960	60	51737
2026-01-23 11:56:06.20	120.75	0.52	-50.4	-63.3	3.5	1.52e+00	0	41	104	1793064960	60	51510
2026-01-23 11:56:07.22	120.84	0.47	-50.4	-63.4	3.5	1.52e+00	0	41	104	1793064960	60	51721
2026-01-23 11:56:08.23	120.94	0.43	-50.4	-63.4	3.5	1.52e+00	0	41	104	1793064960	60	51670
2026-01-23 11:56:09.24	121.03	0.39	-50.4	-63.3	3.5	1.52e+00	0	41	104	1793064960	60	51526
