passes_logs/2026/01/23/R4.6S_Anadyr/R4.6S_Anadyr__20260123_223644_TY-42_rec.log

#Pass ID: 20260123_223644_TY-42
#Satellite: TY-42
#Configuration: TY-42_900M
#almurnet v.1.7.20251203
#Start time: 2026-01-23 22:37:16

#Version: 2.2.20231116
#Station: R4.6S_Anadyr
#Location: 177.4865 lon 64.73178 lat
#TLE: 1 64048U 25103A   26023.66790509  .00008008  00000-0  38191-3 0 09999
#TLE: 2 64048 097.4117 098.9223 0001893 091.9782 302.8981 15.19160197 38139

#Time	Az	El	Level	Level2	SNR	BER	BlckErr	Temp	State	Recorded	gain1	gain2
2026-01-23 22:37:16.16	21.14	1.99	-51.7	-53.0	3.4	0.00e+00	0	40	0	0	60	54670
2026-01-23 22:37:17.13	21.19	2.05	-50.2	-52.7	6.1	0.00e+00	0	41	104	0	60	52683
2026-01-23 22:37:18.11	21.25	2.12	-50.2	-52.7	6.1	0.00e+00	0	41	104	0	60	52814
2026-01-23 22:37:19.10	21.30	2.18	-50.2	-52.6	6.1	0.00e+00	0	41	104	0	60	52421
2026-01-23 22:37:20.07	21.36	2.25	-50.2	-52.7	6.1	0.00e+00	0	41	104	0	60	52695
2026-01-23 22:37:21.05	21.41	2.31	-50.2	-52.6	6.1	0.00e+00	0	41	104	0	60	52389
2026-01-23 22:37:22.03	21.47	2.38	-50.2	-52.6	6.1	0.00e+00	0	41	104	0	60	52434
2026-01-23 22:37:23.01	21.53	2.44	-50.2	-52.7	6.1	0.00e+00	0	41	104	0	60	52721
2026-01-23 22:37:23.99	21.58	2.51	-50.2	-52.7	6.1	0.00e+00	0	41	104	0	60	52842
2026-01-23 22:37:24.97	21.64	2.58	-50.2	-52.7	6.1	0.00e+00	0	42	104	0	60	52557
2026-01-23 22:37:25.95	21.70	2.64	-50.2	-52.7	6.1	0.00e+00	0	42	104	0	60	52674
2026-01-23 22:37:26.92	21.76	2.71	-50.2	-52.7	6.1	0.00e+00	0	42	104	0	60	52755
2026-01-23 22:37:27.91	21.81	2.78	-50.2	-52.6	6.1	0.00e+00	0	42	104	0	60	52530
2026-01-23 22:37:28.89	21.87	2.84	-50.2	-52.7	6.1	0.00e+00	0	42	104	0	60	52723
2026-01-23 22:37:29.87	21.93	2.91	-50.2	-52.6	6.1	0.00e+00	0	42	104	0	60	52542
2026-01-23 22:37:30.85	21.99	2.98	-50.2	-52.6	6.1	0.00e+00	0	42	104	0	60	52333
2026-01-23 22:37:31.83	22.05	3.05	-50.2	-52.6	6.1	0.00e+00	0	42	104	0	60	52359
2026-01-23 22:37:32.81	22.11	3.11	-50.2	-52.7	6.1	0.00e+00	0	42	104	0	60	52704
2026-01-23 22:37:33.80	22.17	3.18	-50.2	-52.7	6.1	0.00e+00	0	42	104	0	60	52731
2026-01-23 22:37:34.78	22.23	3.25	-50.2	-52.7	6.1	0.00e+00	0	42	104	0	60	52750
2026-01-23 22:37:35.75	22.29	3.32	-50.2	-52.7	6.1	0.00e+00	0	42	104	0	60	52788
2026-01-23 22:37:36.74	22.35	3.39	-50.2	-52.6	6.0	0.00e+00	0	42	104	0	60	52548
2026-01-23 22:37:37.72	22.41	3.46	-50.2	-52.7	6.1	0.00e+00	0	42	104	0	60	52884
2026-01-23 22:37:38.70	22.48	3.52	-50.2	-52.7	6.1	0.00e+00	0	42	104	0	60	52560
2026-01-23 22:37:39.68	22.54	3.59	-50.2	-52.6	6.1	0.00e+00	0	42	104	0	60	52534
2026-01-23 22:37:40.65	22.60	3.66	-50.2	-52.6	6.1	0.00e+00	0	42	104	0	60	52405
2026-01-23 22:37:41.63	22.66	3.73	-50.2	-52.6	6.1	0.00e+00	0	42	104	0	60	52476
2026-01-23 22:37:42.61	22.72	3.80	-50.2	-52.6	6.1	0.00e+00	0	42	104	0	60	52372
2026-01-23 22:37:43.59	22.79	3.87	-50.2	-52.7	6.1	0.00e+00	0	42	104	0	60	52655
2026-01-23 22:37:44.58	22.85	3.94	-50.5	-53.0	6.1	0.00e+00	0	42	104	0	60	54508
2026-01-23 22:37:45.56	22.92	4.01	-50.5	-53.0	6.1	0.00e+00	0	42	104	0	60	54413
2026-01-23 22:37:46.55	22.98	4.09	-50.3	-52.7	6.1	0.00e+00	0	42	104	0	60	53135
2026-01-23 22:37:47.53	23.05	4.16	-50.2	-52.7	6.1	0.00e+00	0	42	104	0	60	52754
2026-01-23 22:37:48.51	23.11	4.23	-50.3	-52.8	6.1	0.00e+00	0	42	104	0	60	53660
2026-01-23 22:37:49.49	23.18	4.30	-50.3	-52.8	6.1	0.00e+00	0	42	104	0	60	53402
2026-01-23 22:37:50.47	23.24	4.37	-50.4	-52.8	6.1	0.00e+00	0	42	104	0	60	53575
2026-01-23 22:37:51.45	23.31	4.44	-50.3	-52.7	6.1	0.00e+00	0	42	104	0	60	52883
2026-01-23 22:37:52.43	23.38	4.51	-50.3	-52.8	6.1	0.00e+00	0	42	104	0	60	53323
2026-01-23 22:37:53.41	23.44	4.59	-50.4	-52.8	6.1	0.00e+00	0	42	104	0	60	53709
2026-01-23 22:37:54.38	23.51	4.66	-50.4	-52.8	6.1	0.00e+00	0	42	104	0	60	53326
2026-01-23 22:37:55.37	23.58	4.73	-50.4	-52.8	6.1	0.00e+00	0	42	104	0	60	53548
2026-01-23 22:37:56.34	23.65	4.80	-50.4	-52.8	6.1	0.00e+00	0	42	104	0	60	53558
2026-01-23 22:37:57.33	23.72	4.88	-50.4	-52.9	6.1	0.00e+00	0	42	104	0	60	53886
2026-01-23 22:37:58.31	23.79	4.95	-50.4	-52.9	6.1	0.00e+00	0	42	104	0	60	54256
2026-01-23 22:37:59.29	23.85	5.02	-50.4	-52.9	6.1	0.00e+00	0	42	104	0	60	53826
2026-01-23 22:38:00.27	23.92	5.10	-50.4	-52.8	6.1	0.00e+00	0	42	104	0	60	53644
2026-01-23 22:38:01.24	23.99	5.17	-50.4	-52.9	6.1	0.00e+00	0	42	104	0	60	54162
2026-01-23 22:38:02.23	24.07	5.25	-50.5	-53.0	6.1	0.00e+00	0	42	104	0	60	54418
2026-01-23 22:38:03.20	24.14	5.32	-50.4	-52.9	6.1	0.00e+00	0	42	104	0	60	53870
2026-01-23 22:38:04.18	24.21	5.40	-50.5	-52.9	6.1	0.00e+00	0	42	104	0	60	53942
2026-01-23 22:38:05.16	24.28	5.47	-50.6	-53.0	6.1	0.00e+00	0	42	104	0	60	54980
2026-01-23 22:38:06.14	24.35	5.55	-50.5	-53.0	6.1	0.00e+00	0	42	104	0	60	54906
2026-01-23 22:38:07.13	24.43	5.62	-50.5	-52.9	6.1	0.00e+00	0	42	104	0	60	54263
2026-01-23 22:38:08.11	24.50	5.70	-50.5	-52.9	6.1	0.00e+00	0	42	104	0	60	54372
2026-01-23 22:38:09.09	24.57	5.78	-50.7	-53.1	6.1	0.00e+00	0	42	104	0	60	55551
2026-01-23 22:38:10.06	24.65	5.85	-50.6	-53.1	6.1	0.00e+00	0	42	104	0	60	55291
2026-01-23 22:38:11.04	24.72	5.93	-50.5	-53.0	6.1	0.00e+00	0	42	104	0	60	54749
2026-01-23 22:38:12.01	24.80	6.00	-50.5	-53.0	6.1	0.00e+00	0	43	104	0	60	54900
2026-01-23 22:38:12.99	24.87	6.08	-50.7	-53.1	6.1	0.00e+00	0	42	104	0	60	55453
2026-01-23 22:38:13.98	24.95	6.16	-50.6	-53.1	6.1	0.00e+00	0	42	104	0	60	55188
2026-01-23 22:38:14.96	25.03	6.24	-50.5	-53.0	6.1	0.00e+00	0	42	104	0	60	54793
2026-01-23 22:38:15.94	25.10	6.32	-50.6	-53.1	6.1	0.00e+00	0	42	104	0	60	55171
2026-01-23 22:38:16.91	25.18	6.39	-50.7	-53.2	6.1	0.00e+00	0	43	104	0	60	55716
2026-01-23 22:38:17.89	25.26	6.47	-50.7	-53.1	6.1	0.00e+00	0	42	104	0	60	55478
2026-01-23 22:38:18.88	25.34	6.55	-50.7	-53.1	6.1	0.00e+00	0	43	104	0	60	55606
2026-01-23 22:38:19.86	25.42	6.63	-50.4	-52.9	6.1	0.00e+00	0	42	104	0	60	54148
2026-01-23 22:38:20.84	25.50	6.71	-50.8	-53.2	6.0	0.00e+00	0	43	104	0	60	55818
2026-01-23 22:38:21.82	25.58	6.79	-50.7	-53.1	6.1	0.00e+00	0	43	104	0	60	55657
2026-01-23 22:38:22.79	25.66	6.87	-50.6	-53.1	6.1	0.00e+00	0	43	104	0	60	55161
2026-01-23 22:38:23.77	25.74	6.95	-50.6	-53.1	6.1	0.00e+00	0	43	104	0	60	55296
2026-01-23 22:38:24.75	25.82	7.03	-50.6	-53.1	6.1	0.00e+00	0	43	104	0	60	55357
2026-01-23 22:38:25.74	25.90	7.11	-50.8	-53.3	6.1	0.00e+00	0	43	104	0	60	56361
2026-01-23 22:38:26.72	25.99	7.19	-50.6	-53.1	6.1	0.00e+00	0	43	104	0	60	55396
2026-01-23 22:38:27.70	26.07	7.28	-50.7	-53.1	6.1	0.00e+00	0	43	104	0	60	55346
2026-01-23 22:38:28.67	26.15	7.36	-50.7	-53.2	6.1	0.00e+00	0	43	104	0	60	56209
2026-01-23 22:38:29.65	26.24	7.44	-50.8	-53.3	6.1	0.00e+00	0	43	104	0	60	56361
2026-01-23 22:38:30.63	26.32	7.52	-50.8	-53.2	6.1	0.00e+00	0	43	104	0	60	56303
2026-01-23 22:38:31.61	26.41	7.60	-50.6	-53.1	6.1	0.00e+00	0	43	104	0	60	55418
2026-01-23 22:38:32.59	26.49	7.69	-50.8	-53.3	6.1	0.00e+00	0	43	104	0	60	56455
2026-01-23 22:38:33.56	26.58	7.77	-50.9	-53.3	6.1	0.00e+00	0	43	104	0	60	56753
2026-01-23 22:38:34.54	26.67	7.85	-50.7	-53.2	6.1	0.00e+00	0	43	104	0	60	55964
2026-01-23 22:38:35.52	26.75	7.94	-50.7	-53.2	6.1	0.00e+00	0	43	104	0	60	55930
2026-01-23 22:38:36.49	26.84	8.02	-50.6	-53.1	6.1	0.00e+00	0	43	104	0	60	55662
2026-01-23 22:38:37.47	26.93	8.11	-50.8	-53.2	6.1	0.00e+00	0	43	104	0	60	56290
2026-01-23 22:38:38.45	27.02	8.19	-50.8	-53.2	6.1	0.00e+00	0	43	104	0	60	56222
2026-01-23 22:38:39.42	27.11	8.28	-50.7	-53.2	6.1	0.00e+00	0	43	104	0	60	56157
2026-01-23 22:38:40.40	27.20	8.36	-50.7	-53.2	6.1	0.00e+00	0	43	104	0	60	56075
2026-01-23 22:38:41.38	27.29	8.45	-50.9	-53.3	6.1	0.00e+00	0	43	104	0	60	56830
2026-01-23 22:38:42.36	27.39	8.53	-50.7	-53.2	6.1	0.00e+00	0	43	104	0	60	56163
2026-01-23 22:38:43.33	27.48	8.62	-50.8	-53.2	6.0	0.00e+00	0	43	104	0	60	56270
2026-01-23 22:38:44.31	27.57	8.71	-50.8	-53.3	6.1	0.00e+00	0	43	104	0	60	56664
2026-01-23 22:38:45.29	27.67	8.80	-50.8	-53.4	6.1	0.00e+00	0	43	104	0	60	57255
2026-01-23 22:38:46.26	27.76	8.88	-51.0	-53.5	6.1	0.00e+00	0	43	104	0	60	57718
2026-01-23 22:38:47.25	27.86	8.97	-50.8	-53.3	6.1	0.00e+00	0	43	104	0	60	56325
2026-01-23 22:38:48.23	27.95	9.06	-50.9	-53.3	6.1	0.00e+00	0	43	104	0	60	56841
2026-01-23 22:38:49.21	28.05	9.15	-51.0	-53.5	6.1	0.00e+00	0	43	104	0	60	57879
2026-01-23 22:38:50.19	28.15	9.24	-50.8	-53.3	6.1	0.00e+00	0	43	104	0	60	56459
2026-01-23 22:38:51.17	28.25	9.33	-50.9	-53.4	6.1	0.00e+00	0	43	104	0	60	57309
2026-01-23 22:38:52.15	28.34	9.42	-50.9	-53.4	6.1	0.00e+00	0	43	104	0	60	57013
2026-01-23 22:38:53.13	28.44	9.51	-51.0	-53.4	6.1	0.00e+00	0	43	104	0	60	57253
2026-01-23 22:38:54.10	28.54	9.60	-51.0	-53.4	6.1	0.00e+00	0	43	104	0	60	57520
2026-01-23 22:38:55.08	28.64	9.69	-50.8	-53.3	6.1	0.00e+00	0	43	104	0	60	56506
2026-01-23 22:38:56.06	28.75	9.78	-50.8	-53.3	6.1	0.00e+00	0	43	104	0	60	56596
2026-01-23 22:38:57.04	28.85	9.87	-50.1	-52.7	6.1	0.00e+00	0	43	104	0	60	53083
2026-01-23 22:38:58.01	28.95	9.96	-49.9	-52.6	6.1	0.00e+00	0	43	104	0	60	52257
2026-01-23 22:38:58.99	29.06	10.06	-49.9	-52.5	6.1	0.00e+00	0	43	104	0	60	51827
2026-01-23 22:38:59.97	29.16	10.15	-50.0	-52.7	6.1	0.00e+00	0	43	104	0	60	52676
2026-01-23 22:39:00.95	29.27	10.24	-50.1	-52.8	6.1	0.00e+00	0	43	104	0	60	53220
2026-01-23 22:39:01.93	29.37	10.34	-50.4	-53.0	6.1	0.00e+00	0	43	104	0	60	54742
2026-01-23 22:39:02.91	29.48	10.43	-50.8	-53.3	6.1	0.00e+00	0	43	104	0	60	56477
2026-01-23 22:39:03.89	29.59	10.53	-50.5	-53.0	6.1	0.00e+00	0	43	104	0	60	54674
2026-01-23 22:39:04.87	29.70	10.62	-50.9	-53.4	6.1	0.00e+00	0	43	104	0	60	57007
2026-01-23 22:39:05.85	29.81	10.72	-50.5	-53.1	6.1	0.00e+00	0	43	104	0	60	55117
2026-01-23 22:39:06.83	29.92	10.81	-49.7	-52.4	6.1	0.00e+00	0	43	104	0	60	50792
2026-01-23 22:39:07.80	30.03	10.91	-51.0	-53.4	6.1	0.00e+00	0	43	104	0	60	57570
2026-01-23 22:39:08.78	30.14	11.00	-50.8	-53.3	6.1	0.00e+00	0	43	104	0	60	56923
2026-01-23 22:39:09.77	30.26	11.10	-50.1	-52.7	6.1	0.00e+00	0	43	104	0	60	52694
2026-01-23 22:39:10.75	30.37	11.20	-49.9	-52.5	6.1	0.00e+00	0	43	104	0	60	51868
2026-01-23 22:39:11.73	30.49	11.30	-50.0	-52.6	6.1	0.00e+00	0	43	104	0	60	52292
2026-01-23 22:39:12.72	30.60	11.40	-50.1	-52.7	6.1	0.00e+00	0	43	104	0	60	52827
2026-01-23 22:39:13.71	30.72	11.50	-50.4	-53.0	6.1	0.00e+00	0	43	104	0	60	54485
2026-01-23 22:39:14.69	30.84	11.60	-50.7	-53.2	6.1	0.00e+00	0	43	104	0	60	56292
2026-01-23 22:39:15.67	30.96	11.70	-50.8	-53.3	6.1	0.00e+00	0	43	104	0	60	56723
2026-01-23 22:39:16.65	31.08	11.80	-51.0	-53.5	6.1	0.00e+00	0	43	104	0	60	58196
2026-01-23 22:39:17.62	31.20	11.90	-51.1	-53.6	6.1	0.00e+00	0	43	104	0	60	58677
2026-01-23 22:39:18.60	31.32	12.00	-50.9	-53.4	6.1	0.00e+00	0	43	104	0	60	57341
2026-01-23 22:39:19.58	31.44	12.10	-50.8	-53.3	6.1	0.00e+00	0	43	104	0	60	56668
2026-01-23 22:39:20.56	31.56	12.20	-51.0	-53.5	6.1	0.00e+00	0	43	104	0	60	57958
2026-01-23 22:39:21.55	31.69	12.30	-51.0	-53.5	6.1	0.00e+00	0	43	104	0	60	58079
2026-01-23 22:39:22.53	31.82	12.41	-51.0	-53.5	6.1	0.00e+00	0	43	104	0	60	57877
2026-01-23 22:39:23.51	31.94	12.51	-51.2	-53.7	6.1	0.00e+00	0	43	104	0	60	59154
2026-01-23 22:39:24.50	32.07	12.62	-51.0	-53.4	6.1	0.00e+00	0	43	104	0	60	57538
2026-01-23 22:39:25.48	32.20	12.72	-51.1	-53.5	6.1	0.00e+00	0	43	104	0	60	58196
2026-01-23 22:39:26.46	32.33	12.82	-50.9	-53.5	6.1	0.00e+00	0	43	104	0	60	57727
2026-01-23 22:39:27.43	32.46	12.93	-51.1	-53.5	6.1	0.00e+00	0	43	104	0	60	58110
2026-01-23 22:39:28.41	32.59	13.03	-51.0	-53.4	6.1	0.00e+00	0	43	104	0	60	57524
2026-01-23 22:39:29.39	32.72	13.14	-51.1	-53.6	6.1	0.00e+00	0	43	104	0	60	58580
2026-01-23 22:39:30.37	32.86	13.25	-51.2	-53.6	6.1	0.00e+00	0	43	104	0	60	58890
2026-01-23 22:39:31.36	33.00	13.36	-51.2	-53.7	6.1	0.00e+00	0	43	104	0	60	59054
2026-01-23 22:39:32.33	33.13	13.46	-50.7	-53.3	6.1	0.00e+00	0	43	104	0	60	56359
2026-01-23 22:39:33.31	33.27	13.57	-51.2	-53.6	6.1	0.00e+00	0	43	104	0	60	58944
2026-01-23 22:39:34.30	33.41	13.68	-51.2	-53.7	6.1	0.00e+00	0	43	104	0	60	59218
2026-01-23 22:39:35.28	33.55	13.79	-51.2	-53.6	6.1	0.00e+00	0	43	104	0	60	58912
2026-01-23 22:39:36.26	33.69	13.90	-47.6	-48.7	7.5	0.00e+00	0	43	104	0	60	33440
2026-01-23 22:39:37.24	33.83	14.01	-33.3	-33.7	15.0	3.55e-02	0	43	0	58720256	42	16725
2026-01-23 22:39:38.22	33.98	14.12	-46.7	-47.7	9.0	0.00e+00	0	43	104	117440512	60	29623
2026-01-23 22:39:39.20	34.12	14.23	-49.5	-51.2	6.1	0.00e+00	0	43	104	117440512	60	44627
2026-01-23 22:39:40.19	34.27	14.34	-31.8	-32.1	13.3	2.47e-02	619	43	104	117440512	40	15556
2026-01-23 22:39:41.17	34.42	14.46	-47.0	-48.4	6.7	2.47e-02	0	43	104	125829120	60	32303
2026-01-23 22:39:42.15	34.56	14.57	-33.4	-33.7	13.0	0.00e+00	658	43	104	125829120	42	16655
2026-01-23 22:39:43.13	34.71	14.68	-32.2	-32.6	15.6	0.00e+00	0	43	0	218103808	40	16565
2026-01-23 22:39:44.11	34.86	14.80	-31.7	-32.1	15.9	0.00e+00	0	43	0	327155712	38	17587
2026-01-23 22:39:45.09	35.02	14.91	-29.5	-29.9	16.5	9.96e-03	0	43	0	436207616	36	15321
2026-01-23 22:39:46.07	35.17	15.03	-28.0	-28.4	16.8	9.96e-03	0	43	0	545259520	32	16072
2026-01-23 22:39:47.05	35.33	15.14	-27.1	-27.5	16.9	3.26e-05	0	43	0	662700032	30	16334
2026-01-23 22:39:48.03	35.48	15.26	-26.8	-27.2	16.9	3.26e-05	0	43	0	771751936	30	15835
2026-01-23 22:39:49.00	35.64	15.37	-26.8	-27.2	16.9	3.26e-05	0	43	0	880803840	30	15813
2026-01-23 22:39:49.98	35.80	15.49	-26.7	-27.1	16.9	0.00e+00	0	43	0	989855744	28	17531
2026-01-23 22:39:50.96	35.96	15.61	-26.1	-26.6	17.0	0.00e+00	0	44	0	1098907648	28	16505
2026-01-23 22:39:51.94	36.12	15.73	-25.9	-26.3	17.1	0.00e+00	0	43	0	1207959552	28	16045
2026-01-23 22:39:52.92	36.29	15.84	-25.9	-26.4	17.1	0.00e+00	0	43	0	1317011456	28	16091
2026-01-23 22:39:53.91	36.45	15.97	-25.8	-26.2	17.0	0.00e+00	0	43	0	1426063360	26	17803
2026-01-23 22:39:54.89	36.62	16.09	-25.8	-26.3	17.0	0.00e+00	0	44	0	1543503872	26	17856
2026-01-23 22:39:55.86	36.79	16.20	-25.8	-26.3	17.0	0.00e+00	0	44	0	1652555776	26	17811
2026-01-23 22:39:56.85	36.96	16.33	-25.5	-26.0	17.1	0.00e+00	0	43	0	1761607680	26	17258
2026-01-23 22:39:57.83	37.13	16.45	-25.7	-26.2	17.0	0.00e+00	0	44	0	1870659584	26	17650
2026-01-23 22:39:58.81	37.30	16.57	-25.5	-26.0	17.0	0.00e+00	0	44	0	1979711488	26	17274
2026-01-23 22:39:59.79	37.48	16.69	-25.5	-25.9	16.9	0.00e+00	0	44	0	2097152000	26	17144
2026-01-23 22:40:00.77	37.66	16.82	-25.5	-25.9	16.8	0.00e+00	0	44	0	2197815296	26	17187
2026-01-23 22:40:01.75	37.83	16.94	-25.5	-25.9	16.9	0.00e+00	0	44	0	2315255808	26	17092
2026-01-23 22:40:02.73	38.01	17.06	-25.4	-25.9	17.0	0.00e+00	0	44	0	2424307712	26	17020
2026-01-23 22:40:03.71	38.19	17.19	-25.3	-25.7	17.0	0.00e+00	0	44	0	2533359616	26	16799
2026-01-23 22:40:04.70	38.38	17.32	-25.3	-25.7	17.0	0.00e+00	0	44	0	2642411520	26	16797
2026-01-23 22:40:05.68	38.56	17.44	-25.3	-25.7	17.1	0.00e+00	0	43	0	2759852032	26	16802
2026-01-23 22:40:06.65	38.75	17.57	-25.2	-25.7	17.1	0.00e+00	0	44	0	2860515328	26	16688
2026-01-23 22:40:07.63	38.94	17.70	-25.1	-25.6	17.2	0.00e+00	0	44	0	2977955840	26	16505
2026-01-23 22:40:08.61	39.13	17.82	-25.1	-25.6	17.1	0.00e+00	0	44	0	3087007744	26	16460
2026-01-23 22:40:09.59	39.32	17.95	-25.0	-25.5	17.1	0.00e+00	0	44	0	3196059648	26	16335
2026-01-23 22:40:10.57	39.51	18.08	-25.0	-25.4	17.1	0.00e+00	0	44	0	3305111552	26	16170
2026-01-23 22:40:11.55	39.71	18.21	-24.9	-25.3	17.1	0.00e+00	0	44	0	3414163456	26	16045
2026-01-23 22:40:12.53	39.91	18.34	-25.0	-25.4	17.1	0.00e+00	0	44	0	3531603968	26	16225
2026-01-23 22:40:13.52	40.11	18.47	-24.8	-25.3	17.2	0.00e+00	0	44	0	3632267264	26	15919
2026-01-23 22:40:14.50	40.31	18.60	-25.0	-25.5	17.1	0.00e+00	0	44	0	3749707776	26	16314
2026-01-23 22:40:15.48	40.51	18.74	-25.0	-25.4	17.1	0.00e+00	0	44	0	3858759680	26	16231
2026-01-23 22:40:16.46	40.72	18.87	-25.0	-25.5	17.2	0.00e+00	0	44	0	3967811584	26	16241
2026-01-23 22:40:17.45	40.93	19.00	-25.1	-25.6	17.1	0.00e+00	0	44	0	4076863488	26	16443
2026-01-23 22:40:18.43	41.14	19.14	-24.7	-25.1	17.3	0.00e+00	0	44	0	4194304000	26	15616
2026-01-23 22:40:19.41	41.35	19.27	-24.7	-25.1	17.2	0.00e+00	0	44	0	4294967296	24	17508
2026-01-23 22:40:20.39	41.57	19.41	-24.6	-25.1	17.2	0.00e+00	0	44	0	4412407808	24	17403
2026-01-23 22:40:21.37	41.78	19.54	-24.8	-25.2	17.2	0.00e+00	0	44	0	4521459712	24	17751
2026-01-23 22:40:22.35	42.00	19.68	-24.4	-24.9	17.2	0.00e+00	0	44	0	4630511616	24	17116
2026-01-23 22:40:23.33	42.22	19.81	-24.6	-25.1	17.2	0.00e+00	0	44	0	4739563520	24	17432
2026-01-23 22:40:24.31	42.44	19.95	-24.2	-24.7	17.2	0.00e+00	0	44	0	4848615424	24	16682
2026-01-23 22:40:25.29	42.67	20.09	-24.2	-24.6	17.2	0.00e+00	0	44	0	4966055936	24	16585
2026-01-23 22:40:26.26	42.89	20.23	-24.4	-24.9	17.2	0.00e+00	0	44	0	5066719232	24	17078
2026-01-23 22:40:27.24	43.12	20.36	-24.2	-24.7	17.2	0.00e+00	0	44	0	5184159744	24	16644
2026-01-23 22:40:28.22	43.35	20.50	-24.2	-24.7	17.2	0.00e+00	0	44	0	5284823040	24	16660
2026-01-23 22:40:29.20	43.59	20.64	-24.2	-24.6	17.2	0.00e+00	0	44	0	5402263552	24	16570
2026-01-23 22:40:30.18	43.82	20.78	-24.3	-24.7	17.2	0.00e+00	0	44	0	5511315456	24	16804
2026-01-23 22:40:31.16	44.06	20.93	-23.9	-24.3	17.2	0.00e+00	0	44	0	5620367360	24	16041
2026-01-23 22:40:32.14	44.30	21.07	-23.9	-24.4	17.2	0.00e+00	0	44	0	5729419264	24	16136
2026-01-23 22:40:33.12	44.55	21.21	-24.0	-24.4	17.2	0.00e+00	0	44	0	5838471168	24	16175
2026-01-23 22:40:34.10	44.79	21.35	-23.9	-24.4	17.3	0.00e+00	0	44	0	5955911680	24	16135
2026-01-23 22:40:35.07	45.04	21.49	-23.8	-24.3	17.3	0.00e+00	0	44	0	6056574976	22	17847
2026-01-23 22:40:36.05	45.29	21.64	-23.7	-24.2	17.3	0.00e+00	0	44	0	6174015488	22	17631
2026-01-23 22:40:37.03	45.54	21.78	-23.7	-24.2	17.3	0.00e+00	0	44	0	6283067392	22	17733
2026-01-23 22:40:38.01	45.80	21.93	-23.5	-24.0	17.3	0.00e+00	0	44	0	6392119296	22	17288
2026-01-23 22:40:38.99	46.06	22.07	-23.6	-24.0	17.4	0.00e+00	0	44	0	6501171200	22	17383
2026-01-23 22:40:39.97	46.32	22.22	-23.6	-24.1	17.3	0.00e+00	0	44	0	6610223104	22	17483
2026-01-23 22:40:40.94	46.58	22.36	-23.4	-23.9	17.3	0.00e+00	0	44	0	6719275008	22	17018
2026-01-23 22:40:41.92	46.85	22.51	-23.2	-23.6	17.4	0.00e+00	0	44	0	6828326912	22	16617
2026-01-23 22:40:42.90	47.12	22.66	-23.2	-23.6	17.3	0.00e+00	0	44	0	6945767424	22	16600
2026-01-23 22:40:43.88	47.40	22.80	-23.2	-23.7	17.3	0.00e+00	0	44	0	7054819328	22	16640
2026-01-23 22:40:44.86	47.67	22.95	-23.1	-23.5	17.4	0.00e+00	0	44	0	7163871232	22	16409
2026-01-23 22:40:45.84	47.95	23.10	-23.0	-23.4	17.4	0.00e+00	0	44	0	7272923136	22	16187
2026-01-23 22:40:46.83	48.24	23.25	-23.0	-23.4	17.3	0.00e+00	0	44	0	7390363648	22	16225
2026-01-23 22:40:47.80	48.52	23.40	-22.9	-23.4	17.3	0.00e+00	0	44	0	7491026944	22	16139
2026-01-23 22:40:48.78	48.81	23.55	-22.8	-23.3	17.4	0.00e+00	0	44	0	7608467456	22	15983
2026-01-23 22:40:49.76	49.10	23.70	-22.9	-23.4	17.4	0.00e+00	0	44	0	7709130752	22	16055
2026-01-23 22:40:50.74	49.39	23.85	-22.7	-23.2	17.4	0.00e+00	0	44	0	7826571264	20	17688
2026-01-23 22:40:51.72	49.69	24.00	-22.8	-23.3	17.4	0.00e+00	0	44	0	7935623168	20	17884
2026-01-23 22:40:52.70	49.99	24.15	-22.7	-23.2	17.4	0.00e+00	0	44	0	8044675072	20	17627
2026-01-23 22:40:53.68	50.29	24.30	-22.5	-22.9	17.4	0.00e+00	0	44	0	8153726976	20	17191
2026-01-23 22:40:54.66	50.60	24.45	-22.5	-23.0	17.4	0.00e+00	0	44	0	8262778880	20	17226
2026-01-23 22:40:55.63	50.90	24.60	-22.5	-23.0	17.4	0.00e+00	0	44	0	8380219392	20	17264
2026-01-23 22:40:56.62	51.22	24.76	-22.5	-23.0	17.5	0.00e+00	0	44	0	8480882688	20	17250
2026-01-23 22:40:57.60	51.54	24.91	-22.3	-22.8	17.5	0.00e+00	0	44	0	8598323200	20	16890
2026-01-23 22:40:58.58	51.86	25.06	-22.4	-22.8	17.5	0.00e+00	0	44	0	8707375104	20	16951
2026-01-23 22:40:59.56	52.18	25.21	-22.3	-22.8	17.5	0.00e+00	0	44	0	8816427008	20	16819
2026-01-23 22:41:00.54	52.51	25.37	-22.1	-22.6	17.5	0.00e+00	0	44	0	8925478912	20	16473
2026-01-23 22:41:01.52	52.84	25.52	-22.2	-22.7	17.5	0.00e+00	0	44	0	9034530816	20	16720
2026-01-23 22:41:02.50	53.17	25.67	-22.0	-22.5	17.5	0.00e+00	0	44	0	9143582720	20	16256
2026-01-23 22:41:03.48	53.51	25.83	-51.3	-53.8	6.1	0.00e+00	0	44	104	9244246016	20	600610
2026-01-23 22:41:04.47	53.85	25.98	-51.2	-53.8	6.1	0.00e+00	0	44	104	9244246016	60	59736
2026-01-23 22:41:05.45	54.20	26.14	-51.4	-53.9	6.1	0.00e+00	0	44	104	9244246016	60	60538
2026-01-23 22:41:06.42	54.54	26.29	-51.3	-53.8	6.1	0.00e+00	0	44	104	9244246016	60	60020
2026-01-23 22:41:07.41	54.90	26.45	-50.7	-53.3	6.1	0.00e+00	0	44	104	9244246016	60	56907
2026-01-23 22:41:08.39	55.25	26.60	-50.1	-52.8	6.1	0.00e+00	0	44	104	9244246016	60	53405
2026-01-23 22:41:09.37	55.61	26.75	-50.3	-53.0	6.1	0.00e+00	0	44	104	9244246016	60	54615
2026-01-23 22:41:10.35	55.98	26.91	-50.4	-53.0	6.1	0.00e+00	0	44	104	9244246016	60	54903
2026-01-23 22:41:11.33	56.34	27.06	-51.5	-54.0	6.1	0.00e+00	0	44	104	9244246016	60	61254
2026-01-23 22:41:12.31	56.71	27.21	-50.4	-53.0	6.1	0.00e+00	0	44	104	9244246016	60	54758
2026-01-23 22:41:13.30	57.09	27.37	-50.7	-53.3	6.1	0.00e+00	0	44	104	9244246016	60	56594
2026-01-23 22:41:14.28	57.47	27.52	-51.3	-53.8	6.1	0.00e+00	0	44	104	9244246016	60	60172
2026-01-23 22:41:15.25	57.85	27.67	-51.3	-53.8	6.1	0.00e+00	0	44	104	9244246016	60	60236
2026-01-23 22:41:16.23	58.24	27.83	-51.5	-54.0	6.1	0.00e+00	0	44	104	9244246016	60	61067
2026-01-23 22:41:17.21	58.63	27.98	-51.5	-54.0	6.1	0.00e+00	0	44	104	9244246016	60	61110
2026-01-23 22:41:18.20	59.03	28.13	-51.5	-54.0	6.1	0.00e+00	0	44	104	9244246016	60	61364
2026-01-23 22:41:19.17	59.42	28.28	-51.5	-54.0	6.1	0.00e+00	0	44	104	9244246016	60	61072
2026-01-23 22:41:20.15	59.82	28.43	-51.4	-53.9	6.1	0.00e+00	0	44	104	9244246016	60	60418
2026-01-23 22:41:21.13	60.23	28.59	-51.4	-53.9	6.1	0.00e+00	0	44	104	9244246016	60	60784
2026-01-23 22:41:22.11	60.64	28.74	-50.0	-52.7	6.1	0.00e+00	0	44	104	9244246016	60	52619
2026-01-23 22:41:23.09	61.06	28.89	-49.5	-52.2	6.1	0.00e+00	0	44	104	9244246016	60	50104
2026-01-23 22:41:24.07	61.48	29.04	-49.9	-52.6	6.1	0.00e+00	0	44	104	9244246016	60	52324
2026-01-23 22:41:25.05	61.90	29.18	-51.1	-53.7	6.1	0.00e+00	0	44	104	9244246016	60	59118
2026-01-23 22:41:26.03	62.33	29.33	-51.1	-53.7	6.1	0.00e+00	0	44	104	9244246016	60	59211
2026-01-23 22:41:27.01	62.76	29.48	-51.0	-53.6	6.1	0.00e+00	0	44	104	9244246016	60	58343
2026-01-23 22:41:27.99	63.20	29.63	-51.4	-53.9	6.1	0.00e+00	0	44	104	9244246016	60	60605
2026-01-23 22:41:28.97	63.64	29.77	-51.6	-54.0	6.1	0.00e+00	0	44	104	9244246016	60	61370
2026-01-23 22:41:29.94	64.08	29.92	-51.5	-54.0	6.1	0.00e+00	0	44	104	9244246016	60	61119
2026-01-23 22:41:30.93	64.53	30.06	-51.5	-54.0	6.1	0.00e+00	0	44	104	9244246016	60	61529
2026-01-23 22:41:31.91	64.98	30.20	-51.5	-54.0	6.1	0.00e+00	0	44	104	9244246016	60	61272
2026-01-23 22:41:32.89	65.44	30.35	-51.6	-54.0	6.1	0.00e+00	0	44	104	9244246016	60	61623
2026-01-23 22:41:33.87	65.90	30.49	-51.5	-54.0	6.1	0.00e+00	0	44	104	9244246016	60	61141
2026-01-23 22:41:34.86	66.37	30.63	-51.4	-53.9	6.1	0.00e+00	0	44	104	9244246016	60	60402
2026-01-23 22:41:35.83	66.84	30.77	-51.5	-54.0	6.1	0.00e+00	0	44	104	9244246016	60	61572
2026-01-23 22:41:36.81	67.32	30.90	-51.6	-54.1	6.1	0.00e+00	0	44	104	9244246016	60	61759
2026-01-23 22:41:37.79	67.80	31.04	-51.3	-53.8	6.1	0.00e+00	0	44	104	9244246016	60	60251
2026-01-23 22:41:38.77	68.28	31.18	-51.5	-54.0	6.1	0.00e+00	0	44	104	9244246016	60	61100
2026-01-23 22:41:39.75	68.77	31.31	-51.4	-53.9	6.1	0.00e+00	0	44	104	9244246016	60	60638
2026-01-23 22:41:40.74	69.26	31.44	-51.5	-53.9	6.1	0.00e+00	0	44	104	9244246016	60	60775
2026-01-23 22:41:41.71	69.76	31.57	-51.4	-53.9	6.1	0.00e+00	0	44	104	9244246016	60	60949
2026-01-23 22:41:42.70	70.26	31.70	-51.6	-54.1	6.1	0.00e+00	0	44	104	9244246016	60	61759
2026-01-23 22:41:43.68	70.77	31.83	-51.6	-54.1	6.1	0.00e+00	0	44	104	9244246016	60	61783
2026-01-23 22:41:44.66	71.28	31.96	-51.3	-53.8	6.1	0.00e+00	0	44	104	9244246016	60	59759
2026-01-23 22:41:45.63	71.79	32.08	-51.4	-53.9	6.1	0.00e+00	0	44	104	9244246016	60	60820
2026-01-23 22:41:46.61	72.30	32.20	-51.5	-54.0	6.1	0.00e+00	0	44	104	9244246016	60	61571
2026-01-23 22:41:47.59	72.83	32.32	-51.5	-54.0	6.1	0.00e+00	0	44	104	9244246016	60	61051
2026-01-23 22:41:48.57	73.35	32.44	-51.5	-54.0	6.0	0.00e+00	0	44	104	9244246016	60	61216
2026-01-23 22:41:49.55	73.88	32.56	-51.5	-54.0	6.1	0.00e+00	0	44	104	9244246016	60	61409
2026-01-23 22:41:50.53	74.42	32.67	-51.6	-54.1	6.1	0.00e+00	0	44	104	9244246016	60	61844
2026-01-23 22:41:51.51	74.96	32.79	-51.6	-54.0	6.1	0.00e+00	0	44	104	9244246016	60	61519
2026-01-23 22:41:52.49	75.50	32.90	-51.6	-54.0	6.1	0.00e+00	0	44	104	9244246016	60	61559
2026-01-23 22:41:53.47	76.04	33.00	-51.6	-54.0	6.1	0.00e+00	0	44	104	9244246016	60	61735
2026-01-23 22:41:54.45	76.59	33.11	-51.5	-54.0	6.1	0.00e+00	0	44	104	9244246016	60	61464
2026-01-23 22:41:55.43	77.15	33.21	-51.4	-53.9	6.1	0.00e+00	0	44	104	9244246016	60	60950
2026-01-23 22:41:56.41	77.70	33.31	-51.5	-54.0	6.1	0.00e+00	0	44	104	9244246016	60	61410
2026-01-23 22:41:57.39	78.27	33.41	-51.5	-54.0	6.1	0.00e+00	0	44	104	9244246016	60	61232
2026-01-23 22:41:58.37	78.83	33.51	-51.6	-54.1	6.1	0.00e+00	0	44	104	9244246016	60	62098
2026-01-23 22:41:59.35	79.40	33.60	-51.2	-53.7	6.1	0.00e+00	0	44	104	9244246016	60	59285
2026-01-23 22:42:00.33	79.97	33.69	-51.3	-53.9	6.1	0.00e+00	0	44	104	9244246016	60	60413
2026-01-23 22:42:01.31	80.55	33.78	-51.5	-54.0	6.1	0.00e+00	0	44	104	9244246016	60	61044
2026-01-23 22:42:02.29	81.12	33.87	-51.3	-53.9	6.1	0.00e+00	0	44	104	9244246016	60	60386
2026-01-23 22:42:03.27	81.71	33.95	-50.4	-53.0	6.1	0.00e+00	0	44	104	9244246016	60	54904
2026-01-23 22:42:04.25	82.29	34.03	-50.9	-53.5	6.1	0.00e+00	0	44	104	9244246016	60	57738
2026-01-23 22:42:05.24	82.88	34.11	-50.0	-52.7	6.1	0.00e+00	0	44	104	9244246016	60	52957
2026-01-23 22:42:06.22	83.47	34.18	-50.2	-52.9	6.1	0.00e+00	0	44	104	9244246016	60	54037
2026-01-23 22:42:07.20	84.07	34.25	-50.5	-53.2	6.1	0.00e+00	0	44	104	9244246016	60	55679
2026-01-23 22:42:08.18	84.66	34.32	-51.0	-53.6	6.1	0.00e+00	0	44	104	9244246016	60	58565
2026-01-23 22:42:09.15	85.26	34.39	-50.9	-53.5	6.1	0.00e+00	0	44	104	9244246016	60	58056
2026-01-23 22:42:10.13	85.86	34.45	-51.4	-53.9	6.1	0.00e+00	0	44	104	9244246016	60	60533
2026-01-23 22:42:11.11	86.46	34.51	-51.6	-54.0	6.1	0.00e+00	0	44	104	9244246016	60	61645
2026-01-23 22:42:12.10	87.07	34.56	-51.5	-53.9	6.1	0.00e+00	0	44	104	9244246016	60	61020
2026-01-23 22:42:13.08	87.68	34.61	-50.8	-53.4	6.1	0.00e+00	0	44	104	9244246016	60	57584
2026-01-23 22:42:14.06	88.29	34.66	-50.5	-53.2	6.1	0.00e+00	0	44	104	9244246016	60	55937
2026-01-23 22:42:15.04	88.90	34.71	-51.0	-53.5	6.1	0.00e+00	0	44	104	9244246016	60	58194
2026-01-23 22:42:16.02	89.52	34.75	-51.4	-54.0	6.1	0.00e+00	0	44	104	9244246016	60	61159
2026-01-23 22:42:17.01	90.14	34.79	-51.5	-53.9	6.1	0.00e+00	0	44	104	9244246016	60	60759
2026-01-23 22:42:17.99	90.75	34.83	-51.5	-54.0	6.1	0.00e+00	0	44	104	9244246016	60	61617
2026-01-23 22:42:18.98	91.38	34.86	-51.5	-54.0	6.1	0.00e+00	0	44	104	9244246016	60	61332
2026-01-23 22:42:19.96	92.00	34.89	-51.3	-53.8	6.1	0.00e+00	0	44	104	9244246016	60	60070
2026-01-23 22:42:20.94	92.62	34.91	-51.5	-54.0	6.1	0.00e+00	0	44	104	9244246016	60	61165
2026-01-23 22:42:21.92	93.24	34.93	-51.6	-54.0	6.1	0.00e+00	0	44	104	9244246016	60	61624
2026-01-23 22:42:22.90	93.86	34.95	-51.5	-54.0	6.1	0.00e+00	0	44	104	9244246016	60	61447
2026-01-23 22:42:23.88	94.48	34.96	-51.4	-53.9	6.1	0.00e+00	0	44	104	9244246016	60	60577
2026-01-23 22:42:24.86	95.11	34.97	-51.4	-53.9	6.1	0.00e+00	0	44	104	9244246016	60	60570
2026-01-23 22:42:25.83	95.73	34.98	-51.5	-54.0	6.1	0.00e+00	0	44	104	9244246016	60	61502
2026-01-23 22:42:26.82	96.36	34.99	-51.5	-54.0	6.1	0.00e+00	0	44	104	9244246016	60	61105
2026-01-23 22:42:27.80	96.98	34.99	-51.5	-54.0	6.1	0.00e+00	0	44	104	9244246016	60	61071
2026-01-23 22:42:28.78	97.60	34.98	-51.2	-53.7	6.1	0.00e+00	0	44	104	9244246016	60	59530
2026-01-23 22:42:29.76	98.23	34.97	-51.4	-53.9	6.1	0.00e+00	0	44	104	9244246016	60	60879
2026-01-23 22:42:30.74	98.85	34.96	-51.5	-54.0	6.1	0.00e+00	0	44	104	9244246016	60	61223
2026-01-23 22:42:31.73	99.48	34.95	-51.5	-54.0	6.1	0.00e+00	0	44	104	9244246016	60	61106
2026-01-23 22:42:32.71	100.10	34.93	-51.5	-54.0	6.1	0.00e+00	0	44	104	9244246016	60	61229
2026-01-23 22:42:33.69	100.72	34.91	-51.4	-53.9	6.1	0.00e+00	0	44	104	9244246016	60	60953
2026-01-23 22:42:34.67	101.35	34.89	-51.4	-53.9	6.1	0.00e+00	0	44	104	9244246016	60	61023
2026-01-23 22:42:35.65	101.96	34.86	-51.5	-54.0	6.1	0.00e+00	0	44	104	9244246016	60	61275
2026-01-23 22:42:36.63	102.58	34.82	-51.4	-53.9	6.1	0.00e+00	0	44	104	9244246016	60	60666
2026-01-23 22:42:37.60	103.19	34.79	-51.5	-53.9	6.1	0.00e+00	0	44	104	9244246016	60	60870
2026-01-23 22:42:38.58	103.81	34.75	-51.5	-53.9	6.1	0.00e+00	0	44	104	9244246016	60	60804
2026-01-23 22:42:39.55	104.42	34.71	-51.3	-53.8	6.1	0.00e+00	0	44	104	9244246016	60	60326
2026-01-23 22:42:40.53	105.03	34.66	-51.2	-53.7	6.1	0.00e+00	0	44	104	9244246016	60	59518
2026-01-23 22:42:41.51	105.64	34.61	-51.5	-54.0	6.0	0.00e+00	0	44	104	9244246016	60	61240
2026-01-23 22:42:42.49	106.25	34.56	-51.5	-53.9	6.1	0.00e+00	0	44	104	9244246016	60	60852
2026-01-23 22:42:43.47	106.86	34.51	-51.5	-54.0	6.1	0.00e+00	0	44	104	9244246016	60	61053
2026-01-23 22:42:44.45	107.46	34.45	-51.5	-54.0	6.0	0.00e+00	0	44	104	9244246016	60	61145
2026-01-23 22:42:45.43	108.06	34.39	-51.4	-53.9	6.1	0.00e+00	0	44	104	9244246016	60	60838
2026-01-23 22:42:46.41	108.66	34.32	-51.5	-54.0	6.1	0.00e+00	0	44	104	9244246016	60	61046
2026-01-23 22:42:47.39	109.26	34.25	-51.4	-53.9	6.1	0.00e+00	0	44	104	9244246016	60	60492
2026-01-23 22:42:48.37	109.85	34.18	-51.5	-54.0	6.1	0.00e+00	0	44	104	9244246016	60	61129
2026-01-23 22:42:49.35	110.44	34.11	-51.5	-53.9	6.1	0.00e+00	0	44	104	9244246016	60	60812
2026-01-23 22:42:50.33	111.03	34.03	-51.5	-53.9	6.1	0.00e+00	0	44	104	9244246016	60	60972
2026-01-23 22:42:51.30	111.61	33.95	-51.4	-53.9	6.1	0.00e+00	0	44	104	9244246016	60	60636
2026-01-23 22:42:52.28	112.20	33.87	-51.3	-53.8	6.1	0.00e+00	0	44	104	9244246016	60	59798
2026-01-23 22:42:53.26	112.78	33.78	-51.5	-54.0	6.1	0.00e+00	0	44	104	9244246016	60	61113
2026-01-23 22:42:54.24	113.35	33.69	-51.4	-53.8	6.1	0.00e+00	0	44	104	9244246016	60	60052
2026-01-23 22:42:55.22	113.92	33.60	-51.3	-53.8	6.1	0.00e+00	0	44	104	9244246016	60	59800
2026-01-23 22:42:56.20	114.49	33.51	-51.2	-53.7	6.0	0.00e+00	0	44	104	9244246016	60	59355
2026-01-23 22:42:57.19	115.07	33.41	-51.5	-53.9	6.1	0.00e+00	0	44	104	9244246016	60	61014
2026-01-23 22:42:58.17	115.63	33.31	-51.3	-53.8	6.1	0.00e+00	0	44	104	9244246016	60	60095
2026-01-23 22:42:59.15	116.19	33.21	-51.5	-53.9	6.1	0.00e+00	0	44	104	9244246016	60	61019
2026-01-23 22:43:00.13	116.74	33.11	-51.5	-53.9	6.1	0.00e+00	0	44	104	9244246016	60	60855
2026-01-23 22:43:01.11	117.29	33.00	-51.4	-53.9	6.1	0.00e+00	0	44	104	9244246016	60	60746
2026-01-23 22:43:02.09	117.84	32.89	-51.5	-54.0	6.1	0.00e+00	0	44	104	9244246016	60	61111
2026-01-23 22:43:03.07	118.39	32.78	-51.4	-53.9	6.1	0.00e+00	0	44	104	9244246016	60	60516
2026-01-23 22:43:04.05	118.92	32.67	-51.4	-53.9	6.1	0.00e+00	0	44	104	9244246016	60	60874
2026-01-23 22:43:05.03	119.46	32.55	-51.5	-54.0	6.1	0.00e+00	0	44	104	9244246016	60	61043
2026-01-23 22:43:06.01	119.99	32.44	-51.5	-53.9	6.1	0.00e+00	0	44	104	9244246016	60	60978
2026-01-23 22:43:06.99	120.52	32.32	-51.5	-54.0	6.1	0.00e+00	0	44	104	9244246016	60	61341
2026-01-23 22:43:07.97	121.04	32.20	-51.4	-53.9	6.1	0.00e+00	0	44	104	9244246016	60	60951
2026-01-23 22:43:08.95	121.56	32.07	-51.5	-53.9	6.1	0.00e+00	0	44	104	9244246016	60	61029
2026-01-23 22:43:09.92	122.07	31.95	-51.5	-53.9	6.1	0.00e+00	0	44	104	9244246016	60	60994
2026-01-23 22:43:10.91	122.59	31.82	-51.5	-54.0	6.1	0.00e+00	0	44	104	9244246016	60	61609
2026-01-23 22:43:11.89	123.10	31.69	-51.5	-54.0	6.1	0.00e+00	0	44	104	9244246016	60	61485
2026-01-23 22:43:12.86	123.59	31.56	-51.5	-54.0	6.1	0.00e+00	0	44	104	9244246016	60	61161
2026-01-23 22:43:13.84	124.09	31.43	-51.5	-53.9	6.1	0.00e+00	0	44	104	9244246016	60	60887
2026-01-23 22:43:14.83	124.59	31.30	-51.5	-54.0	6.1	0.00e+00	0	44	104	9244246016	60	61261
2026-01-23 22:43:15.80	125.08	31.17	-51.5	-54.0	6.1	0.00e+00	0	44	104	9244246016	60	61326
2026-01-23 22:43:16.78	125.56	31.03	-51.4	-53.8	6.1	0.00e+00	0	44	104	9244246016	60	60075
2026-01-23 22:43:17.76	126.04	30.89	-51.5	-53.9	6.1	0.00e+00	0	44	104	9244246016	60	61030
2026-01-23 22:43:18.74	126.52	30.75	-51.4	-53.8	6.1	0.00e+00	0	44	104	9244246016	60	60234
2026-01-23 22:43:19.72	126.99	30.62	-51.4	-53.8	6.1	0.00e+00	0	44	104	9244246016	60	60055
2026-01-23 22:43:20.70	127.46	30.47	-51.4	-53.9	6.1	0.00e+00	0	44	104	9244246016	60	60558
2026-01-23 22:43:21.68	127.92	30.33	-51.5	-54.0	6.1	0.00e+00	0	44	104	9244246016	60	61036
2026-01-23 22:43:22.67	128.39	30.19	-51.5	-54.0	6.1	0.00e+00	0	44	104	9244246016	60	61229
2026-01-23 22:43:23.65	128.84	30.04	-51.5	-54.0	6.1	0.00e+00	0	44	104	9244246016	60	61208
2026-01-23 22:43:24.63	129.29	29.90	-51.5	-53.9	6.1	0.00e+00	0	44	104	9244246016	60	60793
2026-01-23 22:43:25.60	129.73	29.75	-51.5	-54.0	6.1	0.00e+00	0	44	104	9244246016	60	61103
2026-01-23 22:43:26.58	130.18	29.61	-51.5	-53.9	6.1	0.00e+00	0	44	104	9244246016	60	61032
2026-01-23 22:43:27.57	130.62	29.46	-51.5	-54.0	6.1	0.00e+00	0	44	104	9244246016	60	61166
2026-01-23 22:43:28.55	131.05	29.31	-51.5	-53.9	6.1	0.00e+00	0	44	104	9244246016	60	60570
2026-01-23 22:43:29.53	131.48	29.16	-51.5	-54.0	6.1	0.00e+00	0	44	104	9244246016	60	61099
2026-01-23 22:43:30.51	131.91	29.01	-51.4	-53.9	6.1	0.00e+00	0	44	104	9244246016	60	60788
2026-01-23 22:43:31.49	132.33	28.86	-51.4	-53.8	6.1	0.00e+00	0	44	104	9244246016	60	60182
2026-01-23 22:43:32.47	132.74	28.71	-51.5	-53.9	6.1	0.00e+00	0	44	104	9244246016	60	60990
2026-01-23 22:43:33.45	133.16	28.56	-51.4	-53.8	6.1	0.00e+00	0	44	104	9244246016	60	60263
2026-01-23 22:43:34.43	133.57	28.41	-51.4	-53.8	6.1	0.00e+00	0	44	104	9244246016	60	60000
2026-01-23 22:43:35.41	133.97	28.26	-51.4	-54.0	6.1	0.00e+00	0	44	104	9244246016	60	61162
2026-01-23 22:43:36.40	134.37	28.10	-51.4	-53.9	6.1	0.00e+00	0	44	104	9244246016	60	60591
2026-01-23 22:43:37.38	134.77	27.95	-51.4	-53.9	6.1	0.00e+00	0	44	104	9244246016	60	60713
2026-01-23 22:43:38.36	135.16	27.80	-51.4	-53.9	6.1	0.00e+00	0	44	104	9244246016	60	60727
2026-01-23 22:43:39.33	135.55	27.64	-51.4	-53.9	6.1	0.00e+00	0	44	104	9244246016	60	60584
2026-01-23 22:43:40.31	135.93	27.49	-51.4	-53.9	6.1	0.00e+00	0	44	104	9244246016	60	60648
2026-01-23 22:43:41.29	136.31	27.33	-51.3	-53.8	6.1	0.00e+00	0	44	104	9244246016	60	60252
2026-01-23 22:43:42.27	136.69	27.18	-51.4	-53.8	6.1	0.00e+00	0	44	104	9244246016	60	60005
2026-01-23 22:43:43.25	137.06	27.03	-51.3	-53.9	6.1	0.00e+00	0	44	104	9244246016	60	60419
2026-01-23 22:43:44.24	137.43	26.87	-51.4	-53.8	6.1	0.00e+00	0	44	104	9244246016	60	60262
2026-01-23 22:43:45.21	137.79	26.72	-51.3	-53.8	6.1	0.00e+00	0	44	104	9244246016	60	60023
2026-01-23 22:43:46.19	138.15	26.56	-51.4	-53.8	6.1	0.00e+00	0	44	104	9244246016	60	60180
2026-01-23 22:43:47.17	138.51	26.41	-51.4	-53.9	6.1	0.00e+00	0	44	104	9244246016	60	60427
2026-01-23 22:43:48.14	138.86	26.25	-51.4	-53.8	6.1	0.00e+00	0	44	104	9244246016	60	60133
2026-01-23 22:43:49.12	139.21	26.10	-51.3	-53.8	6.1	0.00e+00	0	44	104	9244246016	60	60066
2026-01-23 22:43:50.10	139.55	25.94	-51.1	-53.6	6.1	0.00e+00	0	44	104	9244246016	60	58855
2026-01-23 22:43:51.08	139.90	25.79	-51.3	-53.7	6.1	0.00e+00	0	44	104	9244246016	60	59411
2026-01-23 22:43:52.07	140.24	25.63	-51.2	-53.7	6.1	0.00e+00	0	44	104	9244246016	60	59390
2026-01-23 22:43:53.05	140.57	25.48	-51.2	-53.8	6.1	0.00e+00	0	44	104	9244246016	60	59652
2026-01-23 22:43:54.03	140.90	25.32	-51.3	-53.8	6.1	0.00e+00	0	44	104	9244246016	60	59917
2026-01-23 22:43:55.01	141.23	25.17	-51.1	-53.6	6.1	0.00e+00	0	44	104	9244246016	60	58882
2026-01-23 22:43:55.99	141.56	25.02	-51.2	-53.7	6.1	0.00e+00	0	44	104	9244246016	60	59104
2026-01-23 22:43:56.97	141.88	24.86	-51.2	-53.7	6.1	0.00e+00	0	44	104	9244246016	60	59407
2026-01-23 22:43:57.95	142.19	24.71	-51.4	-53.8	6.1	0.00e+00	0	44	104	9244246016	60	60181
2026-01-23 22:43:58.92	142.51	24.56	-51.2	-53.7	6.1	0.00e+00	0	44	104	9244246016	60	59549
2026-01-23 22:43:59.90	142.82	24.40	-51.1	-53.6	6.1	0.00e+00	0	44	104	9244246016	60	58810
2026-01-23 22:44:00.88	143.12	24.25	-51.1	-53.6	6.1	0.00e+00	0	44	104	9244246016	60	58556
2026-01-23 22:44:01.86	143.43	24.10	-51.3	-53.8	6.1	0.00e+00	0	44	104	9244246016	60	59828
2026-01-23 22:44:02.84	143.73	23.95	-51.3	-53.7	6.0	0.00e+00	0	44	104	9244246016	60	59420
2026-01-23 22:44:03.82	144.03	23.80	-51.3	-53.8	6.1	0.00e+00	0	44	104	9244246016	60	59778
2026-01-23 22:44:04.80	144.32	23.64	-51.2	-53.7	6.1	0.00e+00	0	44	104	9244246016	60	59425
2026-01-23 22:44:05.78	144.62	23.49	-51.3	-53.7	6.1	0.00e+00	0	44	104	9244246016	60	59623
2026-01-23 22:44:06.75	144.90	23.34	-51.3	-53.8	6.1	0.00e+00	0	44	104	9244246016	60	59908
2026-01-23 22:44:07.73	145.19	23.19	-51.3	-53.8	6.1	0.00e+00	0	44	104	9244246016	60	59687
2026-01-23 22:44:08.71	145.47	23.04	-51.3	-53.7	6.1	0.00e+00	0	44	104	9244246016	60	59486
2026-01-23 22:44:09.69	145.75	22.90	-51.3	-53.8	6.1	0.00e+00	0	44	104	9244246016	60	59882
2026-01-23 22:44:10.66	146.02	22.75	-51.3	-53.8	6.1	0.00e+00	0	44	104	9244246016	60	59686
2026-01-23 22:44:11.64	146.30	22.60	-51.2	-53.7	6.1	0.00e+00	0	44	104	9244246016	60	59616
2026-01-23 22:44:12.63	146.57	22.45	-51.3	-53.8	6.1	0.00e+00	0	44	104	9244246016	60	59878
2026-01-23 22:44:13.61	146.84	22.30	-51.3	-53.8	6.1	0.00e+00	0	44	104	9244246016	60	60128
2026-01-23 22:44:14.59	147.11	22.15	-51.3	-53.8	6.1	0.00e+00	0	44	104	9244246016	60	59953
2026-01-23 22:44:15.58	147.37	22.01	-51.3	-53.8	6.1	0.00e+00	0	44	104	9244246016	60	59709
2026-01-23 22:44:16.55	147.63	21.86	-51.3	-53.8	6.1	0.00e+00	0	44	104	9244246016	60	59695
2026-01-23 22:44:17.53	147.89	21.72	-51.3	-53.8	6.1	0.00e+00	0	44	104	9244246016	60	59976
2026-01-23 22:44:18.51	148.14	21.57	-51.3	-53.8	6.1	0.00e+00	0	44	104	9244246016	60	59700
2026-01-23 22:44:19.49	148.39	21.43	-51.3	-53.7	6.1	0.00e+00	0	44	104	9244246016	60	59629
2026-01-23 22:44:20.47	148.64	21.28	-51.3	-53.8	6.1	0.00e+00	0	44	104	9244246016	60	59769
2026-01-23 22:44:21.44	148.89	21.14	-51.3	-53.8	6.1	0.00e+00	0	44	104	9244246016	60	60077
2026-01-23 22:44:22.42	149.13	21.00	-51.4	-53.8	6.1	0.00e+00	0	44	104	9244246016	60	60236
2026-01-23 22:44:23.40	149.37	20.86	-51.3	-53.8	6.1	0.00e+00	0	44	104	9244246016	60	59930
2026-01-23 22:44:24.38	149.61	20.71	-51.3	-53.8	6.1	0.00e+00	0	44	104	9244246016	60	59658
2026-01-23 22:44:25.36	149.85	20.57	-51.2	-53.8	6.1	0.00e+00	0	44	104	9244246016	60	59775
2026-01-23 22:44:26.34	150.08	20.43	-51.3	-53.8	6.1	0.00e+00	0	44	104	9244246016	60	60053
2026-01-23 22:44:27.32	150.32	20.29	-51.3	-53.8	6.1	0.00e+00	0	44	104	9244246016	60	59685
2026-01-23 22:44:28.30	150.55	20.15	-51.3	-53.7	6.1	0.00e+00	0	44	104	9244246016	60	59468
2026-01-23 22:44:29.28	150.77	20.01	-51.2	-53.7	6.1	0.00e+00	0	44	104	9244246016	60	59153
2026-01-23 22:44:30.26	151.00	19.87	-51.4	-53.8	6.1	0.00e+00	0	44	104	9244246016	60	60231
2026-01-23 22:44:31.24	151.22	19.74	-51.3	-53.8	6.1	0.00e+00	0	44	104	9244246016	60	59765
2026-01-23 22:44:32.22	151.44	19.60	-51.3	-53.8	6.1	0.00e+00	0	44	104	9244246016	60	59702
2026-01-23 22:44:33.21	151.67	19.46	-51.3	-53.8	6.1	0.00e+00	0	44	104	9244246016	60	59695
2026-01-23 22:44:34.19	151.88	19.32	-51.3	-53.8	6.1	0.00e+00	0	44	104	9244246016	60	59904
2026-01-23 22:44:35.17	152.10	19.19	-51.2	-53.7	6.1	0.00e+00	0	44	104	9244246016	60	59559
2026-01-23 22:44:36.15	152.31	19.05	-51.3	-53.7	6.1	0.00e+00	0	44	104	9244246016	60	59611
2026-01-23 22:44:37.13	152.52	18.92	-51.2	-53.7	6.1	0.00e+00	0	44	104	9244246016	60	59320
2026-01-23 22:44:38.11	152.73	18.78	-51.3	-53.8	6.1	0.00e+00	0	44	104	9244246016	60	59889
2026-01-23 22:44:39.08	152.93	18.65	-51.2	-53.7	6.1	0.00e+00	0	44	104	9244246016	60	59426
2026-01-23 22:44:40.07	153.14	18.52	-51.3	-53.8	6.1	0.00e+00	0	44	104	9244246016	60	59658
2026-01-23 22:44:41.05	153.34	18.39	-51.2	-53.6	6.1	0.00e+00	0	44	104	9244246016	60	58720
2026-01-23 22:44:42.02	153.54	18.26	-51.3	-53.7	6.1	0.00e+00	0	44	104	9244246016	60	59314
2026-01-23 22:44:43.00	153.73	18.12	-50.6	-53.1	6.1	0.00e+00	0	44	104	9244246016	60	55555
2026-01-23 22:44:43.98	153.93	17.99	-51.2	-53.6	6.1	0.00e+00	0	44	104	9244246016	60	58921
2026-01-23 22:44:44.96	154.13	17.86	-50.1	-52.6	6.1	0.00e+00	0	44	104	9244246016	60	52222
2026-01-23 22:44:45.94	154.32	17.73	-49.7	-52.2	6.1	0.00e+00	0	44	104	9244246016	60	49805
2026-01-23 22:44:46.92	154.51	17.61	-49.7	-52.2	6.1	0.00e+00	0	44	104	9244246016	60	49615
2026-01-23 22:44:47.90	154.70	17.48	-49.8	-52.2	6.1	0.00e+00	0	44	104	9244246016	60	49915
2026-01-23 22:44:48.88	154.88	17.35	-50.5	-53.0	6.1	0.00e+00	0	44	104	9244246016	60	54925
2026-01-23 22:44:49.85	155.07	17.22	-50.2	-52.6	6.1	0.00e+00	0	44	104	9244246016	60	52255
2026-01-23 22:44:50.83	155.25	17.10	-49.7	-52.1	6.1	0.00e+00	0	44	104	9244246016	60	49431
2026-01-23 22:44:51.81	155.43	16.97	-50.2	-52.7	6.1	0.00e+00	0	44	104	9244246016	60	52628
2026-01-23 22:44:52.79	155.61	16.85	-50.3	-52.7	6.1	0.00e+00	0	44	104	9244246016	60	52959
2026-01-23 22:44:53.78	155.79	16.72	-50.7	-53.2	6.1	0.00e+00	0	44	104	9244246016	60	56042
2026-01-23 22:44:54.76	155.97	16.60	-50.4	-52.9	6.1	0.00e+00	0	44	104	9244246016	60	53879
2026-01-23 22:44:55.74	156.15	16.47	-50.6	-53.0	6.1	0.00e+00	0	44	104	9244246016	60	54867
2026-01-23 22:44:56.72	156.32	16.35	-50.9	-53.4	6.1	0.00e+00	0	44	104	9244246016	60	57405
2026-01-23 22:44:57.71	156.49	16.23	-51.1	-53.5	6.1	0.00e+00	0	44	104	9244246016	60	58218
2026-01-23 22:44:58.68	156.66	16.11	-50.9	-53.4	6.1	0.00e+00	0	44	104	9244246016	60	56999
2026-01-23 22:44:59.66	156.83	15.99	-50.9	-53.4	6.1	0.00e+00	0	44	104	9244246016	60	57094
2026-01-23 22:45:00.64	157.00	15.87	-51.2	-53.6	6.1	0.00e+00	0	44	104	9244246016	60	58708
2026-01-23 22:45:01.62	157.16	15.75	-51.2	-53.7	6.1	0.00e+00	0	44	104	9244246016	60	59000
2026-01-23 22:45:02.60	157.33	15.63	-51.1	-53.6	6.1	0.00e+00	0	44	104	9244246016	60	58659
2026-01-23 22:45:03.58	157.49	15.51	-51.1	-53.6	6.1	0.00e+00	0	44	104	9244246016	60	58758
2026-01-23 22:45:04.56	157.65	15.39	-51.2	-53.7	6.1	0.00e+00	0	44	104	9244246016	60	59200
2026-01-23 22:45:05.53	157.81	15.27	-51.2	-53.7	6.1	0.00e+00	0	44	104	9244246016	60	59191
2026-01-23 22:45:06.51	157.97	15.15	-51.2	-53.7	6.1	0.00e+00	0	44	104	9244246016	60	59096
2026-01-23 22:45:07.49	158.12	15.04	-51.2	-53.6	6.1	0.00e+00	0	44	104	9244246016	60	58884
2026-01-23 22:45:08.47	158.28	14.92	-51.2	-53.7	6.1	0.00e+00	0	44	104	9244246016	60	59081
2026-01-23 22:45:09.45	158.43	14.81	-51.2	-53.7	6.1	0.00e+00	0	44	104	9244246016	60	59031
2026-01-23 22:45:10.43	158.59	14.69	-51.1	-53.6	6.1	0.00e+00	0	44	104	9244246016	60	58545
2026-01-23 22:45:11.42	158.74	14.58	-51.2	-53.6	6.1	0.00e+00	0	44	104	9244246016	60	58571
2026-01-23 22:45:12.40	158.89	14.46	-51.2	-53.6	6.1	0.00e+00	0	44	104	9244246016	60	58781
2026-01-23 22:45:13.38	159.04	14.35	-51.2	-53.7	6.1	0.00e+00	0	44	104	9244246016	60	59003
2026-01-23 22:45:14.36	159.19	14.23	-51.1	-53.6	6.1	0.00e+00	0	44	104	9244246016	60	58358
2026-01-23 22:45:15.34	159.33	14.12	-51.2	-53.6	6.1	0.00e+00	0	44	104	9244246016	60	58549
2026-01-23 22:45:16.33	159.48	14.01	-51.1	-53.6	6.1	0.00e+00	0	44	104	9244246016	60	58706
2026-01-23 22:45:17.30	159.62	13.90	-51.2	-53.7	6.1	0.00e+00	0	44	104	9244246016	60	59090
2026-01-23 22:45:18.29	159.76	13.79	-50.9	-53.4	6.1	0.00e+00	0	44	104	9244246016	60	57466
2026-01-23 22:45:19.27	159.91	13.68	-51.1	-53.5	6.1	0.00e+00	0	44	104	9244246016	60	58186
2026-01-23 22:45:20.26	160.05	13.57	-51.1	-53.6	6.1	0.00e+00	0	44	104	9244246016	60	58347
2026-01-23 22:45:21.24	160.19	13.46	-51.1	-53.6	6.1	0.00e+00	0	44	104	9244246016	60	58519
2026-01-23 22:45:22.22	160.32	13.35	-50.9	-53.4	6.1	0.00e+00	0	44	104	9244246016	60	57390
2026-01-23 22:45:23.21	160.46	13.24	-50.9	-53.4	6.1	0.00e+00	0	44	104	9244246016	60	57387
2026-01-23 22:45:24.19	160.60	13.13	-51.1	-53.5	6.1	0.00e+00	0	44	104	9244246016	60	58090
2026-01-23 22:45:25.16	160.73	13.02	-51.1	-53.5	6.1	0.00e+00	0	44	104	9244246016	60	58262
2026-01-23 22:45:26.14	160.86	12.92	-51.0	-53.5	6.1	0.00e+00	0	44	104	9244246016	60	57623
2026-01-23 22:45:27.12	160.99	12.81	-50.9	-53.4	6.1	0.00e+00	0	44	104	9244246016	60	57293
2026-01-23 22:45:28.10	161.12	12.71	-51.0	-53.5	6.1	0.00e+00	0	44	104	9244246016	60	57838
2026-01-23 22:45:29.07	161.25	12.60	-51.1	-53.5	6.1	0.00e+00	0	44	104	9244246016	60	57991
2026-01-23 22:45:30.05	161.38	12.50	-50.9	-53.4	6.1	0.00e+00	0	44	104	9244246016	60	57118
2026-01-23 22:45:31.03	161.51	12.39	-50.9	-53.5	6.1	0.00e+00	0	44	104	9244246016	60	57776
2026-01-23 22:45:32.01	161.64	12.29	-51.0	-53.4	6.0	0.00e+00	0	44	104	9244246016	60	57531
2026-01-23 22:45:32.99	161.76	12.18	-51.0	-53.5	6.1	0.00e+00	0	44	104	9244246016	60	57887
2026-01-23 22:45:33.97	161.89	12.08	-50.9	-53.4	6.1	0.00e+00	0	44	104	9244246016	60	57168
2026-01-23 22:45:34.95	162.01	11.98	-50.8	-53.4	6.1	0.00e+00	0	44	104	9244246016	60	57162
2026-01-23 22:45:35.93	162.13	11.88	-51.0	-53.5	6.1	0.00e+00	0	44	104	9244246016	60	57826
2026-01-23 22:45:36.91	162.25	11.78	-51.0	-53.5	6.1	0.00e+00	0	44	104	9244246016	60	58058
2026-01-23 22:45:37.88	162.37	11.68	-51.0	-53.5	6.1	0.00e+00	0	44	104	9244246016	60	57898
2026-01-23 22:45:38.86	162.49	11.57	-50.9	-53.4	6.1	0.00e+00	0	44	104	9244246016	60	57003
2026-01-23 22:45:39.84	162.61	11.47	-51.0	-53.4	6.1	0.00e+00	0	44	104	9244246016	60	57364
2026-01-23 22:45:40.82	162.73	11.37	-51.0	-53.5	6.1	0.00e+00	0	44	104	9244246016	60	57711
2026-01-23 22:45:41.80	162.85	11.27	-51.0	-53.5	6.1	0.00e+00	0	44	104	9244246016	60	57677
2026-01-23 22:45:42.79	162.96	11.17	-51.0	-53.4	6.1	0.00e+00	0	44	104	9244246016	60	57492
2026-01-23 22:45:43.77	163.08	11.08	-50.9	-53.5	6.1	0.00e+00	0	44	104	9244246016	60	57685
2026-01-23 22:45:44.76	163.19	10.98	-51.0	-53.5	6.1	0.00e+00	0	44	104	9244246016	60	57664
2026-01-23 22:45:45.74	163.31	10.88	-51.0	-53.4	6.1	0.00e+00	0	44	104	9244246016	60	57458
2026-01-23 22:45:46.72	163.42	10.78	-51.0	-53.4	6.1	0.00e+00	0	44	104	9244246016	60	57600
2026-01-23 22:45:47.71	163.53	10.68	-51.0	-53.4	6.1	0.00e+00	0	44	104	9244246016	60	57206
2026-01-23 22:45:48.68	163.64	10.59	-51.0	-53.4	6.1	0.00e+00	0	44	104	9244246016	60	57596
2026-01-23 22:45:49.67	163.75	10.49	-51.0	-53.5	6.1	0.00e+00	0	44	104	9244246016	60	57693
2026-01-23 22:45:50.65	163.86	10.40	-50.9	-53.4	6.1	0.00e+00	0	44	104	9244246016	60	57055
2026-01-23 22:45:51.62	163.97	10.30	-50.9	-53.4	6.1	0.00e+00	0	44	104	9244246016	60	57026
2026-01-23 22:45:52.61	164.08	10.21	-50.9	-53.3	6.1	0.00e+00	0	44	104	9244246016	60	56731
2026-01-23 22:45:53.59	164.18	10.11	-50.8	-53.3	6.1	0.00e+00	0	44	104	9244246016	60	56858
2026-01-23 22:45:54.57	164.29	10.02	-50.9	-53.3	6.1	0.00e+00	0	44	104	9244246016	60	56923
2026-01-23 22:45:55.55	164.39	9.93	-50.9	-53.3	6.1	0.00e+00	0	44	104	9244246016	60	56744
2026-01-23 22:45:56.53	164.50	9.83	-50.8	-53.2	6.1	0.00e+00	0	44	104	9244246016	60	56058
2026-01-23 22:45:57.52	164.60	9.74	-50.8	-53.3	6.1	0.00e+00	0	44	104	9244246016	60	56624
2026-01-23 22:45:58.49	164.70	9.65	-50.9	-53.4	6.1	0.00e+00	0	44	104	9244246016	60	57358
2026-01-23 22:45:59.47	164.80	9.55	-50.9	-53.3	6.1	0.00e+00	0	44	104	9244246016	60	56772
2026-01-23 22:46:00.44	164.90	9.46	-50.8	-53.2	6.1	0.00e+00	0	44	104	9244246016	60	56274
2026-01-23 22:46:01.43	165.01	9.37	-50.8	-53.3	6.1	0.00e+00	0	44	104	9244246016	60	56516
2026-01-23 22:46:02.40	165.10	9.28	-50.9	-53.4	6.1	0.00e+00	0	44	104	9244246016	60	57004
2026-01-23 22:46:03.38	165.20	9.19	-50.9	-53.3	6.1	0.00e+00	0	44	104	9244246016	60	56790
2026-01-23 22:46:04.36	165.30	9.10	-50.8	-53.3	6.1	0.00e+00	0	44	104	9244246016	60	56634
2026-01-23 22:46:05.35	165.40	9.01	-50.8	-53.3	6.1	0.00e+00	0	44	104	9244246016	60	56318
2026-01-23 22:46:06.32	165.50	8.92	-50.9	-53.3	6.1	0.00e+00	0	44	104	9244246016	60	56876
2026-01-23 22:46:07.30	165.59	8.83	-50.9	-53.3	6.1	0.00e+00	0	44	104	9244246016	60	56949
2026-01-23 22:46:08.28	165.69	8.75	-50.9	-53.3	6.1	0.00e+00	0	44	104	9244246016	60	56921
2026-01-23 22:46:09.26	165.78	8.66	-50.8	-53.3	6.1	0.00e+00	0	44	104	9244246016	60	56374
2026-01-23 22:46:10.23	165.87	8.57	-50.9	-53.3	6.1	0.00e+00	0	44	104	9244246016	60	56932
2026-01-23 22:46:11.22	165.97	8.48	-50.8	-53.2	6.1	0.00e+00	0	44	104	9244246016	60	56141
2026-01-23 22:46:12.19	166.06	8.40	-50.8	-53.3	6.1	0.00e+00	0	44	104	9244246016	60	56491
2026-01-23 22:46:13.17	166.15	8.31	-50.8	-53.2	6.1	0.00e+00	0	44	104	9244246016	60	56206
2026-01-23 22:46:14.15	166.24	8.22	-50.8	-53.3	6.1	0.00e+00	0	44	104	9244246016	60	56536
2026-01-23 22:46:15.13	166.33	8.14	-50.8	-53.3	6.1	0.00e+00	0	44	104	9244246016	60	56532
2026-01-23 22:46:16.10	166.42	8.05	-50.8	-53.3	6.1	0.00e+00	0	44	104	9244246016	60	56559
2026-01-23 22:46:17.08	166.51	7.97	-50.7	-53.2	6.1	0.00e+00	0	44	104	9244246016	60	55666
2026-01-23 22:46:18.06	166.60	7.88	-50.7	-53.2	6.1	0.00e+00	0	44	104	9244246016	60	56022
2026-01-23 22:46:19.04	166.69	7.80	-50.8	-53.2	6.1	0.00e+00	0	44	104	9244246016	60	55869
2026-01-23 22:46:20.02	166.78	7.71	-50.8	-53.2	6.1	0.00e+00	0	44	104	9244246016	60	56083
2026-01-23 22:46:21.00	166.86	7.63	-50.7	-53.2	6.1	0.00e+00	0	44	104	9244246016	60	55786
2026-01-23 22:46:21.98	166.95	7.54	-50.8	-53.3	6.1	0.00e+00	0	44	104	9244246016	60	56409
2026-01-23 22:46:22.96	167.04	7.46	-50.7	-53.1	6.1	0.00e+00	0	44	104	9244246016	60	55506
2026-01-23 22:46:23.94	167.12	7.38	-50.8	-53.3	6.1	0.00e+00	0	44	104	9244246016	60	56496
2026-01-23 22:46:24.93	167.21	7.29	-50.7	-53.1	6.1	0.00e+00	0	44	104	9244246016	60	55396
2026-01-23 22:46:25.91	167.29	7.21	-50.8	-53.3	6.1	0.00e+00	0	44	104	9244246016	60	56403
2026-01-23 22:46:26.88	167.37	7.13	-50.7	-53.2	6.1	0.00e+00	0	44	104	9244246016	60	56039
2026-01-23 22:46:27.86	167.46	7.05	-50.8	-53.2	6.1	0.00e+00	0	44	104	9244246016	60	56053
2026-01-23 22:46:28.84	167.54	6.96	-50.7	-53.1	6.1	0.00e+00	0	44	104	9244246016	60	55435
2026-01-23 22:46:29.82	167.62	6.88	-50.8	-53.3	6.1	0.00e+00	0	44	104	9244246016	60	56651
2026-01-23 22:46:30.80	167.70	6.80	-50.7	-53.2	6.1	0.00e+00	0	44	104	9244246016	60	55975
2026-01-23 22:46:31.77	167.78	6.72	-50.7	-53.2	6.1	0.00e+00	0	44	104	9244246016	60	56061
2026-01-23 22:46:32.75	167.86	6.64	-50.7	-53.2	6.1	0.00e+00	0	44	104	9244246016	60	55744
2026-01-23 22:46:33.73	167.94	6.56	-50.8	-53.2	6.1	0.00e+00	0	44	104	9244246016	60	56205
2026-01-23 22:46:34.71	168.02	6.48	-50.8	-53.3	6.1	0.00e+00	0	44	104	9244246016	60	56373
2026-01-23 22:46:35.69	168.10	6.40	-50.7	-53.2	6.1	0.00e+00	0	44	104	9244246016	60	55915
2026-01-23 22:46:36.66	168.18	6.32	-50.7	-53.2	6.1	0.00e+00	0	44	104	9244246016	60	55822
2026-01-23 22:46:37.64	168.26	6.24	-50.7	-53.2	6.1	0.00e+00	0	44	104	9244246016	60	55930
2026-01-23 22:46:38.63	168.33	6.16	-50.6	-53.1	6.1	0.00e+00	0	44	104	9244246016	60	55336
2026-01-23 22:46:39.60	168.41	6.09	-50.7	-53.2	6.1	0.00e+00	0	44	104	9244246016	60	55838
2026-01-23 22:46:40.59	168.49	6.01	-50.7	-53.1	6.1	0.00e+00	0	44	104	9244246016	60	55441
2026-01-23 22:46:41.57	168.56	5.93	-50.7	-53.2	6.1	0.00e+00	0	44	104	9244246016	60	56052
2026-01-23 22:46:42.55	168.64	5.85	-50.7	-53.2	6.1	0.00e+00	0	44	104	9244246016	60	55984
2026-01-23 22:46:43.52	168.71	5.78	-50.7	-53.1	6.1	0.00e+00	0	44	104	9244246016	60	55364
2026-01-23 22:46:44.50	168.79	5.70	-50.7	-53.1	6.1	0.00e+00	0	44	104	9244246016	60	55408
2026-01-23 22:46:45.48	168.86	5.62	-50.6	-53.1	6.1	0.00e+00	0	44	104	9244246016	60	55120
2026-01-23 22:46:46.45	168.93	5.55	-50.7	-53.2	6.1	0.00e+00	0	44	104	9244246016	60	55806
2026-01-23 22:46:47.44	169.01	5.47	-50.7	-53.1	6.1	0.00e+00	0	44	104	9244246016	60	55450
2026-01-23 22:46:48.42	169.08	5.39	-50.6	-53.1	6.1	0.00e+00	0	44	104	9244246016	60	55155
2026-01-23 22:46:49.40	169.15	5.32	-50.5	-53.0	6.1	0.00e+00	0	44	104	9244246016	60	54615
2026-01-23 22:46:50.39	169.22	5.24	-50.6	-53.0	6.1	0.00e+00	0	44	104	9244246016	60	55014
2026-01-23 22:46:51.36	169.29	5.17	-50.6	-53.1	6.1	0.00e+00	0	44	104	9244246016	60	55325
2026-01-23 22:46:52.35	169.37	5.09	-50.6	-53.1	6.1	0.00e+00	0	44	104	9244246016	60	55197
2026-01-23 22:46:53.33	169.44	5.02	-50.6	-53.0	6.1	0.00e+00	0	44	104	9244246016	60	54695
2026-01-23 22:46:54.32	169.51	4.94	-50.7	-53.1	6.1	0.00e+00	0	44	104	9244246016	60	55480
2026-01-23 22:46:55.30	169.58	4.87	-50.5	-52.9	6.1	0.00e+00	0	44	104	9244246016	60	54325
2026-01-23 22:46:56.28	169.64	4.79	-50.6	-53.1	6.1	0.00e+00	0	44	104	9244246016	60	55363
2026-01-23 22:46:57.25	169.71	4.72	-50.4	-52.9	6.1	0.00e+00	0	44	104	9244246016	60	53987
2026-01-23 22:46:58.23	169.78	4.65	-50.6	-53.1	6.1	0.00e+00	0	44	104	9244246016	60	55113
2026-01-23 22:46:59.21	169.85	4.57	-50.6	-53.1	6.1	0.00e+00	0	44	104	9244246016	60	55195
2026-01-23 22:47:00.19	169.92	4.50	-50.5	-53.0	6.1	0.00e+00	0	44	104	9244246016	60	54570
2026-01-23 22:47:01.18	169.98	4.43	-50.4	-52.9	6.1	0.00e+00	0	44	104	9244246016	60	53796
2026-01-23 22:47:02.15	170.05	4.35	-50.5	-53.0	6.1	0.00e+00	0	44	104	9244246016	60	54614
2026-01-23 22:47:03.13	170.12	4.28	-50.5	-52.9	6.1	0.00e+00	0	44	104	9244246016	60	54211
2026-01-23 22:47:04.11	170.18	4.21	-50.5	-53.0	6.1	0.00e+00	0	44	104	9244246016	60	54651
2026-01-23 22:47:05.10	170.25	4.14	-50.3	-52.8	6.1	0.00e+00	0	44	104	9244246016	60	53173
2026-01-23 22:47:06.08	170.31	4.07	-50.5	-53.0	6.1	0.00e+00	0	44	104	9244246016	60	54511
2026-01-23 22:47:07.07	170.38	3.99	-50.3	-52.8	6.1	0.00e+00	0	44	104	9244246016	60	53530
2026-01-23 22:47:08.04	170.44	3.92	-50.5	-53.0	6.1	0.00e+00	0	45	104	9244246016	60	54528
2026-01-23 22:47:09.03	170.51	3.85	-50.3	-52.8	6.1	0.00e+00	0	44	104	9244246016	60	53195
2026-01-23 22:47:10.01	170.57	3.78	-50.6	-53.1	6.1	0.00e+00	0	44	104	9244246016	60	55094
2026-01-23 22:47:10.98	170.63	3.71	-50.4	-52.9	6.1	0.00e+00	0	44	104	9244246016	60	53922
2026-01-23 22:47:11.96	170.69	3.64	-50.4	-52.9	6.1	0.00e+00	0	44	104	9244246016	60	54103
2026-01-23 22:47:12.94	170.76	3.57	-50.3	-52.7	6.1	0.00e+00	0	44	104	9244246016	60	53157
2026-01-23 22:47:13.92	170.82	3.50	-50.4	-52.9	6.1	0.00e+00	0	45	104	9244246016	60	53886
2026-01-23 22:47:14.90	170.88	3.43	-50.2	-52.7	6.1	0.00e+00	0	45	104	9244246016	60	53097
2026-01-23 22:47:15.88	170.94	3.36	-50.4	-52.8	6.1	0.00e+00	0	44	104	9244246016	60	53645
2026-01-23 22:47:16.85	171.00	3.29	-50.2	-52.6	6.0	0.00e+00	0	45	104	9244246016	60	52455
2026-01-23 22:47:17.83	171.06	3.22	-50.4	-52.9	6.0	0.00e+00	0	44	104	9244246016	60	54143
2026-01-23 22:47:18.81	171.12	3.15	-50.1	-52.6	6.1	0.00e+00	0	45	104	9244246016	60	52431
2026-01-23 22:47:19.79	171.18	3.09	-50.3	-52.8	6.1	0.00e+00	0	45	104	9244246016	60	53471
2026-01-23 22:47:20.77	171.24	3.02	-50.2	-52.7	6.1	0.00e+00	0	45	104	9244246016	60	52908
2026-01-23 22:47:21.75	171.30	2.95	-50.4	-52.8	6.1	0.00e+00	0	44	104	9244246016	60	53325
2026-01-23 22:47:22.74	171.36	2.88	-50.7	-53.2	6.1	0.00e+00	0	44	104	9244246016	60	56105
2026-01-23 22:47:23.73	171.42	2.81	-50.9	-53.4	6.1	0.00e+00	0	45	104	9244246016	60	57553
2026-01-23 22:47:24.71	171.48	2.74	-51.1	-53.5	6.1	0.00e+00	0	44	104	9244246016	60	57841
2026-01-23 22:47:25.69	171.54	2.68	-51.1	-53.6	6.1	0.00e+00	0	44	104	9244246016	60	58735
2026-01-23 22:47:26.67	171.60	2.61	-51.3	-53.7	6.1	0.00e+00	0	44	104	9244246016	60	59216
2026-01-23 22:47:27.64	171.65	2.54	-51.4	-53.9	6.1	0.00e+00	0	44	104	9244246016	60	60489
2026-01-23 22:47:28.62	171.71	2.48	-51.5	-53.9	6.1	0.00e+00	0	44	104	9244246016	60	60783
2026-01-23 22:47:29.60	171.77	2.41	-51.5	-53.9	6.1	0.00e+00	0	44	104	9244246016	60	60954
2026-01-23 22:47:30.58	171.82	2.34	-51.6	-54.0	6.1	0.00e+00	0	44	104	9244246016	60	61710
2026-01-23 22:47:31.57	171.88	2.28	-51.6	-54.1	6.1	0.00e+00	0	44	104	9244246016	60	61904
2026-01-23 22:47:32.55	171.94	2.21	-51.6	-54.1	6.0	0.00e+00	0	44	104	9244246016	60	61892
2026-01-23 22:47:33.53	171.99	2.14	-51.6	-54.1	6.1	0.00e+00	0	44	104	9244246016	60	61795
2026-01-23 22:47:34.51	172.05	2.08	-51.6	-54.1	6.1	0.00e+00	0	44	104	9244246016	60	61940
2026-01-23 22:47:35.49	172.10	2.01	-51.4	-53.9	6.1	0.00e+00	0	44	104	9244246016	60	60969
2026-01-23 22:47:36.47	172.16	1.95	-51.6	-54.1	6.1	0.00e+00	0	44	104	9244246016	60	61940
2026-01-23 22:47:37.44	172.21	1.88	-51.6	-54.1	6.1	0.00e+00	0	44	104	9244246016	60	61858
2026-01-23 22:47:38.42	172.26	1.82	-51.6	-54.1	6.1	0.00e+00	0	44	104	9244246016	60	61880
2026-01-23 22:47:39.41	172.32	1.75	-51.6	-54.0	6.1	0.00e+00	0	44	104	9244246016	60	61503
2026-01-23 22:47:40.39	172.37	1.69	-51.6	-54.1	6.1	0.00e+00	0	44	104	9244246016	60	61825
2026-01-23 22:47:41.37	172.43	1.62	-51.6	-54.0	6.1	0.00e+00	0	45	104	9244246016	60	61305
2026-01-23 22:47:42.35	172.48	1.56	-51.5	-54.0	6.1	0.00e+00	0	44	104	9244246016	60	61203
2026-01-23 22:47:43.33	172.53	1.49	-51.6	-54.1	6.1	0.00e+00	0	44	104	9244246016	60	62004
2026-01-23 22:47:44.31	172.58	1.43	-51.5	-54.0	6.1	0.00e+00	0	45	104	9244246016	60	61205
2026-01-23 22:47:45.29	172.64	1.37	-51.6	-54.1	6.1	0.00e+00	0	44	104	9244246016	60	61782
2026-01-23 22:47:46.27	172.69	1.30	-51.7	-54.2	6.1	0.00e+00	0	44	104	9244246016	60	62509
2026-01-23 22:47:47.25	172.74	1.24	-51.7	-54.2	6.1	0.00e+00	0	44	104	9244246016	60	62542
2026-01-23 22:47:48.23	172.79	1.18	-51.7	-54.2	6.1	0.00e+00	0	45	104	9244246016	60	62656
2026-01-23 22:47:49.20	172.84	1.11	-51.7	-54.2	6.1	0.00e+00	0	45	104	9244246016	60	62535
2026-01-23 22:47:50.17	172.89	1.05	-51.7	-54.2	6.1	0.00e+00	0	44	104	9244246016	60	62592
2026-01-23 22:47:51.15	172.94	0.99	-51.7	-54.2	6.1	0.00e+00	0	44	104	9244246016	60	62655
2026-01-23 22:47:52.12	172.99	0.93	-51.7	-54.2	6.1	0.00e+00	0	45	104	9244246016	60	62517
2026-01-23 22:47:53.10	173.04	0.86	-51.7	-54.2	6.1	0.00e+00	0	45	104	9244246016	60	62459
2026-01-23 22:47:54.08	173.09	0.80	-51.7	-54.2	6.1	0.00e+00	0	45	104	9244246016	60	62573
2026-01-23 22:47:55.06	173.14	0.74	-51.7	-54.2	6.1	0.00e+00	0	45	104	9244246016	60	62629
2026-01-23 22:47:56.04	173.19	0.68	-51.7	-54.2	6.1	0.00e+00	0	44	104	9244246016	60	62906
2026-01-23 22:47:57.02	173.24	0.62	-51.7	-54.1	6.1	0.00e+00	0	45	104	9244246016	60	62396
2026-01-23 22:47:58.00	173.29	0.55	-51.7	-54.1	6.1	0.00e+00	0	45	104	9244246016	60	62350
2026-01-23 22:47:58.98	173.34	0.49	-51.7	-54.1	6.1	0.00e+00	0	45	104	9244246016	60	62243
2026-01-23 22:47:59.96	173.39	0.43	-51.7	-54.1	6.1	0.00e+00	0	45	104	9244246016	60	62225
2026-01-23 22:48:00.94	173.43	0.37	-51.7	-54.1	6.1	0.00e+00	0	45	104	9244246016	60	62337
2026-01-23 22:48:01.91	173.48	0.31	-51.7	-54.1	6.1	0.00e+00	0	44	104	9244246016	60	62452
2026-01-23 22:48:02.89	173.53	0.25	-51.7	-54.2	6.1	0.00e+00	0	45	104	9244246016	60	62732
2026-01-23 22:48:03.87	173.58	0.19	-51.7	-54.1	6.1	0.00e+00	0	45	104	9244246016	60	62262
2026-01-23 22:48:04.85	173.62	0.13	-51.7	-54.2	6.1	0.00e+00	0	45	104	9244246016	60	62702
2026-01-23 22:48:05.83	173.67	0.07	-51.7	-54.2	6.1	0.00e+00	0	44	104	9244246016	60	62687
2026-01-23 22:48:06.80	173.72	0.01	-51.7	-54.2	6.1	0.00e+00	0	44	104	9244246016	60	62728

#Closed at: 2026-01-23 22:48:07
#Recorded file [9244 MB]: D:/lorett/data/35029_260124_103716.dat