passes_logs/2026/01/23/R4.6S_Anadyr/R4.6S_Anadyr__20260123_195237_FENGYUN_3D_rec.log

#Pass ID: 20260123_195237_FENGYUN 3D
#Satellite: FENGYUN 3D
#Configuration: FENGYUN 3D
#almurnet v.1.7.20251203
#Start time: 2026-01-23 19:52:39

#Version: 2.2.20231116
#Station: R4.6S_Anadyr
#Location: 177.4865 lon 64.73178 lat
#TLE: 1 43010U 17072A   26022.96745493  .00000490  00000+0  25355-3 0  9999
#TLE: 2 43010  98.9955 354.9072 0002484  95.6139 264.5320 14.19700039424383

#Time	Az	El	Level	Level2	SNR	BER	BlckErr	Temp	State	Recorded	gain1	gain2
2026-01-23 19:52:39.14	35.16	0.11	-50.8	-65.9	3.5	1.51e+00	0	38	0	0	60	71125
2026-01-23 19:52:40.14	35.10	0.16	-50.8	-63.1	3.6	8.46e-01	0	39	104	0	60	51603
2026-01-23 19:52:41.16	35.04	0.21	-50.9	-63.1	3.6	8.44e-01	0	39	104	0	60	51771
2026-01-23 19:52:42.17	34.97	0.27	-50.8	-63.1	3.6	8.45e-01	0	39	104	0	60	51624
2026-01-23 19:52:43.18	34.91	0.32	-50.9	-63.1	3.6	8.45e-01	0	39	104	0	60	51672
2026-01-23 19:52:44.19	34.84	0.37	-50.9	-63.1	3.6	8.46e-01	0	40	104	0	60	51738
2026-01-23 19:52:45.20	34.78	0.43	-50.9	-63.1	3.6	8.45e-01	0	39	104	0	60	51641
2026-01-23 19:52:46.21	34.71	0.48	-50.9	-63.1	3.6	8.45e-01	0	40	104	0	60	51854
2026-01-23 19:52:47.22	34.65	0.53	-50.8	-63.1	3.6	8.46e-01	0	40	104	0	60	51853
2026-01-23 19:52:48.23	34.58	0.59	-50.9	-63.1	3.6	8.45e-01	0	40	104	0	60	51700
2026-01-23 19:52:49.24	34.52	0.64	-50.8	-63.2	3.6	8.46e-01	0	40	104	0	60	51950
2026-01-23 19:52:50.25	34.45	0.69	-50.9	-63.1	3.6	8.45e-01	0	40	104	0	60	51594
2026-01-23 19:52:51.26	34.38	0.75	-50.9	-63.1	3.6	8.45e-01	0	40	104	0	60	51814
2026-01-23 19:52:52.27	34.32	0.80	-50.9	-63.1	3.6	8.45e-01	0	40	104	0	60	51670
2026-01-23 19:52:53.28	34.25	0.85	-50.9	-63.1	3.6	8.44e-01	0	40	104	0	60	51846
2026-01-23 19:52:54.29	34.18	0.91	-50.9	-63.1	3.6	8.45e-01	0	40	104	0	60	51760
2026-01-23 19:52:55.30	34.12	0.96	-50.9	-63.1	3.6	8.46e-01	0	40	104	0	60	51506
2026-01-23 19:52:56.31	34.05	1.01	-50.9	-63.1	3.6	8.46e-01	0	40	104	0	60	51854
2026-01-23 19:52:57.32	33.98	1.07	-50.9	-63.1	3.6	8.45e-01	0	40	104	0	60	51877
2026-01-23 19:52:58.33	33.91	1.12	-50.9	-63.1	3.6	8.46e-01	0	40	104	0	60	51904
2026-01-23 19:52:59.34	33.84	1.17	-50.9	-63.1	3.6	8.46e-01	0	40	104	0	60	51733
2026-01-23 19:53:00.35	33.77	1.23	-50.9	-63.1	3.6	8.45e-01	0	40	104	0	60	51609
2026-01-23 19:53:01.36	33.71	1.28	-50.9	-63.1	3.6	8.45e-01	0	40	104	0	60	51811
2026-01-23 19:53:02.37	33.64	1.34	-50.9	-63.1	3.6	8.45e-01	0	40	104	0	60	51678
2026-01-23 19:53:03.38	33.57	1.39	-50.9	-63.1	3.6	8.44e-01	0	40	104	0	60	51941
2026-01-23 19:53:04.39	33.50	1.44	-50.9	-63.1	3.6	8.45e-01	0	40	104	0	60	51815
2026-01-23 19:53:05.40	33.43	1.50	-50.9	-63.1	3.6	8.45e-01	0	40	104	0	60	51600
2026-01-23 19:53:06.41	33.36	1.55	-50.9	-63.1	3.6	8.44e-01	0	40	104	0	60	51839
2026-01-23 19:53:07.42	33.29	1.61	-50.9	-63.1	3.6	8.45e-01	0	40	104	0	60	51858
2026-01-23 19:53:08.43	33.22	1.66	-50.9	-63.2	3.6	8.45e-01	0	40	104	0	60	51953
2026-01-23 19:53:09.44	33.14	1.72	-50.9	-63.1	3.6	8.46e-01	0	40	104	0	60	51434
2026-01-23 19:53:10.44	33.07	1.77	-50.9	-63.1	3.6	8.45e-01	0	40	104	0	60	51845
2026-01-23 19:53:11.45	33.00	1.82	-50.9	-63.1	3.6	8.45e-01	0	40	104	0	60	51938
2026-01-23 19:53:12.46	32.93	1.88	-50.9	-63.1	3.6	8.45e-01	0	40	104	0	60	51445
2026-01-23 19:53:13.47	32.86	1.93	-50.9	-63.1	3.6	8.45e-01	0	40	104	0	60	51818
2026-01-23 19:53:14.48	32.78	1.99	-50.9	-63.1	3.6	8.45e-01	0	40	104	0	60	51540
2026-01-23 19:53:15.49	32.71	2.04	-50.9	-63.2	3.6	8.46e-01	0	40	104	0	60	51972
2026-01-23 19:53:16.50	32.64	2.10	-50.9	-63.1	3.6	8.46e-01	0	40	104	0	60	51912
2026-01-23 19:53:17.51	32.57	2.15	-50.9	-63.1	3.6	8.46e-01	0	40	104	0	60	51795
2026-01-23 19:53:18.52	32.49	2.21	-50.9	-63.2	3.6	8.46e-01	0	40	104	0	60	51989
2026-01-23 19:53:19.53	32.42	2.26	-50.9	-63.1	3.6	8.45e-01	0	40	104	0	60	51856
2026-01-23 19:53:20.54	32.34	2.32	-50.9	-63.1	3.6	8.47e-01	0	40	104	0	60	51847
2026-01-23 19:53:21.55	32.27	2.37	-50.9	-63.1	3.6	8.45e-01	0	40	104	0	60	51634
2026-01-23 19:53:22.56	32.19	2.43	-50.9	-63.1	3.6	8.46e-01	0	40	104	0	60	51771
2026-01-23 19:53:23.57	32.12	2.48	-50.9	-63.2	3.6	8.45e-01	0	40	104	0	60	51963
2026-01-23 19:53:24.58	32.04	2.54	-50.9	-63.1	3.6	8.46e-01	0	40	104	0	60	51781
2026-01-23 19:53:25.59	31.97	2.60	-50.9	-63.2	3.6	8.44e-01	0	40	104	0	60	51975
2026-01-23 19:53:26.59	31.89	2.65	-50.9	-63.1	3.6	8.45e-01	0	40	104	0	60	51833
2026-01-23 19:53:27.60	31.82	2.71	-50.9	-63.1	3.6	8.45e-01	0	40	104	0	60	51778
2026-01-23 19:53:28.62	31.74	2.76	-50.9	-63.1	3.6	8.45e-01	0	40	104	0	60	51650
2026-01-23 19:53:29.63	31.66	2.82	-50.8	-63.1	3.6	8.45e-01	0	40	104	0	60	51574
2026-01-23 19:53:30.64	31.58	2.87	-50.9	-63.1	3.6	8.45e-01	0	40	104	0	60	51829
2026-01-23 19:53:31.64	31.51	2.93	-50.9	-63.1	3.6	8.45e-01	0	40	104	0	60	51908
2026-01-23 19:53:32.65	31.43	2.98	-50.9	-63.1	3.6	8.45e-01	0	40	104	0	60	51783
2026-01-23 19:53:33.66	31.35	3.04	-50.9	-63.1	3.6	8.46e-01	0	40	104	0	60	51934
2026-01-23 19:53:34.67	31.27	3.10	-50.9	-63.1	3.6	8.46e-01	0	40	104	0	60	51845
2026-01-23 19:53:35.68	31.19	3.15	-50.9	-63.2	3.6	8.45e-01	0	40	104	0	60	52007
2026-01-23 19:53:36.69	31.12	3.21	-50.9	-63.2	3.6	8.46e-01	0	40	104	0	60	52112
2026-01-23 19:53:37.70	31.04	3.26	-50.9	-63.1	3.6	8.45e-01	0	40	104	0	60	51708
2026-01-23 19:53:38.71	30.96	3.32	-50.9	-63.1	3.6	8.47e-01	0	40	104	0	60	51821
2026-01-23 19:53:39.72	30.88	3.38	-50.9	-63.1	3.6	8.46e-01	0	40	104	0	60	51830
2026-01-23 19:53:40.73	30.80	3.43	-50.9	-63.1	3.6	8.46e-01	0	40	104	0	60	51945
2026-01-23 19:53:41.74	30.71	3.49	-50.9	-63.1	3.6	8.47e-01	0	40	104	0	60	51947
2026-01-23 19:53:42.75	30.63	3.55	-50.9	-63.2	3.6	8.45e-01	0	40	104	0	60	51990
2026-01-23 19:53:43.76	30.55	3.60	-50.9	-63.1	3.6	8.45e-01	0	40	104	0	60	51724
2026-01-23 19:53:44.77	30.47	3.66	-50.9	-63.2	3.6	8.46e-01	0	40	104	0	60	52092
2026-01-23 19:53:45.78	30.39	3.72	-50.9	-63.1	3.6	8.47e-01	0	40	104	0	60	51840
2026-01-23 19:53:46.79	30.31	3.77	-50.9	-63.1	3.6	8.45e-01	0	40	104	0	60	51762
2026-01-23 19:53:47.80	30.22	3.83	-50.9	-63.2	3.6	8.45e-01	0	40	104	0	60	52137
2026-01-23 19:53:48.81	30.14	3.89	-50.9	-63.1	3.6	8.46e-01	0	40	104	0	60	51778
2026-01-23 19:53:49.82	30.06	3.94	-50.9	-63.2	3.6	8.45e-01	0	40	104	0	60	52029
2026-01-23 19:53:50.83	29.97	4.00	-50.9	-63.2	3.6	8.44e-01	0	40	104	0	60	52337
2026-01-23 19:53:51.84	29.89	4.06	-50.9	-63.1	3.6	8.45e-01	0	40	104	0	60	51765
2026-01-23 19:53:52.85	29.80	4.11	-50.9	-63.1	3.6	8.46e-01	0	40	104	0	60	51888
2026-01-23 19:53:53.86	29.72	4.17	-50.9	-63.1	3.6	8.46e-01	0	40	104	0	60	51792
2026-01-23 19:53:54.87	29.64	4.23	-50.9	-63.1	3.6	8.45e-01	0	40	104	0	60	51763
2026-01-23 19:53:55.88	29.55	4.29	-50.9	-63.2	3.6	8.46e-01	0	40	104	0	60	52133
2026-01-23 19:53:56.88	29.46	4.34	-50.9	-63.2	3.6	8.46e-01	0	40	104	0	60	52140
2026-01-23 19:53:57.89	29.38	4.40	-50.9	-63.2	3.6	8.45e-01	0	40	104	0	60	52055
2026-01-23 19:53:58.90	29.29	4.46	-50.9	-63.2	3.6	8.46e-01	0	40	104	0	60	52315
2026-01-23 19:53:59.91	29.21	4.52	-50.9	-63.2	3.6	8.45e-01	0	40	104	0	60	51956
2026-01-23 19:54:00.92	29.12	4.57	-50.9	-63.2	3.6	8.46e-01	0	40	104	0	60	52079
2026-01-23 19:54:01.93	29.03	4.63	-50.9	-63.2	3.5	8.45e-01	0	41	104	0	60	51998
2026-01-23 19:54:02.94	28.94	4.69	-50.9	-63.1	3.6	8.46e-01	0	41	104	0	60	51753
2026-01-23 19:54:03.95	28.85	4.75	-50.9	-63.1	3.6	8.45e-01	0	41	104	0	60	51936
2026-01-23 19:54:04.96	28.77	4.80	-50.9	-63.1	3.6	8.45e-01	0	40	104	0	60	51844
2026-01-23 19:54:05.97	28.68	4.86	-50.9	-63.2	3.6	8.44e-01	0	40	104	0	60	52212
2026-01-23 19:54:06.98	28.59	4.92	-50.9	-63.2	3.6	8.45e-01	0	41	104	0	60	51995
2026-01-23 19:54:07.99	28.50	4.98	-50.9	-63.2	3.6	8.45e-01	0	40	104	0	60	52128
2026-01-23 19:54:09.00	28.41	5.04	-50.9	-63.2	3.6	8.45e-01	0	40	104	0	60	52145
2026-01-23 19:54:10.01	28.32	5.09	-50.9	-63.2	3.6	8.45e-01	0	41	104	0	60	52124
2026-01-23 19:54:11.02	28.23	5.15	-50.9	-63.2	3.6	8.46e-01	0	40	104	0	60	51997
2026-01-23 19:54:12.03	28.13	5.21	-50.9	-63.2	3.6	8.46e-01	0	40	104	0	60	52109
2026-01-23 19:54:13.04	28.04	5.27	-50.9	-63.2	3.6	8.45e-01	0	41	104	0	60	52222
2026-01-23 19:54:14.05	27.95	5.33	-50.9	-63.2	3.6	8.45e-01	0	41	104	0	60	52068
2026-01-23 19:54:15.06	27.86	5.39	-50.9	-63.2	3.6	8.45e-01	0	41	104	0	60	52161
2026-01-23 19:54:16.07	27.77	5.44	-50.9	-63.2	3.6	8.45e-01	0	41	104	0	60	52023
2026-01-23 19:54:17.08	27.67	5.50	-50.9	-63.2	3.6	8.45e-01	0	41	104	0	60	52033
2026-01-23 19:54:18.09	27.58	5.56	-50.9	-63.1	3.6	8.46e-01	0	41	104	0	60	51887
2026-01-23 19:54:19.10	27.48	5.62	-50.9	-63.2	3.6	8.45e-01	0	41	104	0	60	52168
2026-01-23 19:54:20.12	27.39	5.68	-50.9	-63.2	3.6	8.45e-01	0	41	104	0	60	52121
2026-01-23 19:54:21.13	27.29	5.74	-50.9	-63.2	3.6	8.46e-01	0	41	104	0	60	52030
2026-01-23 19:54:22.14	27.20	5.80	-50.9	-63.2	3.6	8.46e-01	0	41	104	0	60	52190
2026-01-23 19:54:23.15	27.10	5.86	-50.9	-63.2	3.6	8.45e-01	0	41	104	0	60	52060
2026-01-23 19:54:24.16	27.01	5.91	-50.9	-63.2	3.6	8.46e-01	0	41	104	0	60	52045
2026-01-23 19:54:25.17	26.91	5.97	-50.9	-63.2	3.6	8.46e-01	0	41	104	0	60	52410
2026-01-23 19:54:26.18	26.82	6.03	-50.9	-63.2	3.6	8.46e-01	0	41	104	0	60	52024
2026-01-23 19:54:27.19	26.72	6.09	-50.9	-63.2	3.6	8.45e-01	0	41	104	0	60	51996
2026-01-23 19:54:28.20	26.62	6.15	-50.9	-63.1	3.6	8.44e-01	0	41	104	0	60	51931
2026-01-23 19:54:29.21	26.52	6.21	-50.9	-63.2	3.6	8.45e-01	0	41	104	0	60	52276
2026-01-23 19:54:30.22	26.42	6.27	-50.9	-63.2	3.6	8.46e-01	0	41	104	0	60	52164
2026-01-23 19:54:31.23	26.33	6.33	-50.9	-63.2	3.6	8.46e-01	0	41	104	0	60	52236
2026-01-23 19:54:32.24	26.23	6.39	-50.9	-63.2	3.6	8.45e-01	0	41	104	0	60	52010
2026-01-23 19:54:33.25	26.13	6.45	-50.9	-63.2	3.6	8.45e-01	0	41	104	0	60	52068
2026-01-23 19:54:34.26	26.03	6.51	-50.9	-63.2	3.6	8.45e-01	0	41	104	0	60	52397
2026-01-23 19:54:35.27	25.93	6.57	-50.9	-63.2	3.6	8.45e-01	0	41	104	0	60	52144
2026-01-23 19:54:36.27	25.83	6.63	-50.9	-63.2	3.6	8.46e-01	0	41	104	0	60	52092
2026-01-23 19:54:37.28	25.72	6.68	-50.9	-63.1	3.6	8.45e-01	0	41	104	0	60	51814
2026-01-23 19:54:38.30	25.62	6.75	-50.9	-63.2	3.6	8.45e-01	0	41	104	0	60	52163
2026-01-23 19:54:39.30	25.52	6.80	-50.9	-63.2	3.6	8.44e-01	0	41	104	0	60	52211
2026-01-23 19:54:40.31	25.42	6.86	-50.9	-63.2	3.6	8.45e-01	0	41	104	0	60	52003
2026-01-23 19:54:41.32	25.31	6.92	-50.9	-63.2	3.6	8.46e-01	0	41	104	0	60	52124
2026-01-23 19:54:42.33	25.21	6.98	-50.9	-63.2	3.6	8.46e-01	0	41	104	0	60	52270
2026-01-23 19:54:43.34	25.11	7.04	-50.9	-63.2	3.6	8.45e-01	0	41	104	0	60	52031
2026-01-23 19:54:44.35	25.00	7.10	-50.9	-63.2	3.6	8.44e-01	0	41	104	0	60	52017
2026-01-23 19:54:45.36	24.90	7.16	-50.9	-63.2	3.6	8.45e-01	0	41	104	0	60	52109
2026-01-23 19:54:46.37	24.79	7.22	-50.9	-63.2	3.6	8.45e-01	0	41	104	0	60	52027
2026-01-23 19:54:47.38	24.69	7.28	-50.9	-63.2	3.6	8.45e-01	0	41	104	0	60	52007
2026-01-23 19:54:48.39	24.58	7.34	-50.9	-63.2	3.6	8.46e-01	0	41	104	0	60	52054
2026-01-23 19:54:49.40	24.47	7.40	-50.9	-63.2	3.6	8.46e-01	0	41	104	0	60	52115
2026-01-23 19:54:50.41	24.37	7.46	-50.9	-63.1	3.6	8.45e-01	0	41	104	0	60	51899
2026-01-23 19:54:51.42	24.26	7.52	-50.9	-63.2	3.6	8.45e-01	0	41	104	0	60	52065
2026-01-23 19:54:52.43	24.15	7.59	-50.9	-63.2	3.6	8.44e-01	0	41	104	0	60	52103
2026-01-23 19:54:53.44	24.04	7.65	-50.9	-63.2	3.6	8.45e-01	0	41	104	0	60	52422
2026-01-23 19:54:54.45	23.93	7.71	-50.9	-63.2	3.6	8.44e-01	0	41	104	0	60	52120
2026-01-23 19:54:55.46	23.82	7.77	-50.9	-63.2	3.5	8.45e-01	0	41	104	0	60	52295
2026-01-23 19:54:56.47	23.71	7.83	-50.9	-63.2	3.6	8.44e-01	0	41	104	0	60	51963
2026-01-23 19:54:57.48	23.60	7.89	-50.9	-63.2	3.6	8.44e-01	0	41	104	0	60	52452
2026-01-23 19:54:58.49	23.49	7.95	-50.9	-63.2	3.6	8.45e-01	0	41	104	0	60	52214
2026-01-23 19:54:59.50	23.38	8.01	-50.9	-63.2	3.6	8.45e-01	0	41	104	0	60	52083
2026-01-23 19:55:00.51	23.27	8.07	-50.9	-63.2	3.6	8.45e-01	0	41	104	0	60	51961
2026-01-23 19:55:01.52	23.16	8.13	-50.9	-63.2	3.6	8.46e-01	0	41	104	0	60	52247
2026-01-23 19:55:02.53	23.04	8.19	-50.9	-63.2	3.6	8.46e-01	0	41	104	0	60	52292
2026-01-23 19:55:03.54	22.93	8.25	-50.9	-63.2	3.6	8.44e-01	0	41	104	0	60	52152
2026-01-23 19:55:04.55	22.82	8.31	-50.9	-63.2	3.6	8.46e-01	0	41	104	0	60	52363
2026-01-23 19:55:05.57	22.70	8.37	-50.9	-63.2	3.6	8.45e-01	0	41	104	0	60	51980
2026-01-23 19:55:06.57	22.59	8.43	-50.9	-63.2	3.6	8.45e-01	0	41	104	0	60	52114
2026-01-23 19:55:07.59	22.47	8.50	-50.9	-63.2	3.6	8.45e-01	0	41	104	0	60	52263
2026-01-23 19:55:08.59	22.36	8.56	-50.9	-63.2	3.6	8.46e-01	0	41	104	0	60	51984
2026-01-23 19:55:09.61	22.24	8.62	-50.9	-63.2	3.6	8.47e-01	0	41	104	0	60	52227
2026-01-23 19:55:10.62	22.12	8.68	-50.9	-63.2	3.6	8.45e-01	0	41	104	0	60	52066
2026-01-23 19:55:11.63	22.01	8.74	-50.9	-63.2	3.6	8.45e-01	0	41	104	0	60	52192
2026-01-23 19:55:12.64	21.89	8.80	-50.9	-63.2	3.6	8.45e-01	0	41	104	0	60	51991
2026-01-23 19:55:13.65	21.77	8.86	-50.9	-63.2	3.6	8.44e-01	0	41	104	0	60	52024
2026-01-23 19:55:14.66	21.65	8.92	-50.9	-63.1	3.6	8.44e-01	0	41	104	0	60	51818
2026-01-23 19:55:15.67	21.53	8.99	-50.9	-63.2	3.6	8.45e-01	0	41	104	0	60	52021
2026-01-23 19:55:16.67	21.41	9.05	-50.9	-63.2	3.6	8.45e-01	0	41	104	0	60	52078
2026-01-23 19:55:17.68	21.29	9.11	-50.9	-63.2	3.6	8.44e-01	0	41	104	0	60	52030
2026-01-23 19:55:18.70	21.17	9.17	-50.9	-63.1	3.6	8.46e-01	0	41	104	0	60	51822
2026-01-23 19:55:19.70	21.05	9.23	-50.9	-63.2	3.6	8.46e-01	0	41	104	0	60	52144
2026-01-23 19:55:20.71	20.93	9.29	-50.9	-63.1	3.6	8.45e-01	0	41	104	0	60	51933
2026-01-23 19:55:21.73	20.81	9.35	-50.9	-63.2	3.6	8.45e-01	0	41	104	0	60	52151
2026-01-23 19:55:22.73	20.68	9.41	-50.9	-63.2	3.6	8.46e-01	0	41	104	0	60	52340
2026-01-23 19:55:23.74	20.56	9.48	-50.9	-63.2	3.6	8.46e-01	0	41	104	0	60	52017
2026-01-23 19:55:24.76	20.43	9.54	-50.9	-63.2	3.6	8.46e-01	0	41	104	0	60	52291
2026-01-23 19:55:25.76	20.31	9.60	-50.9	-63.2	3.6	8.46e-01	0	41	104	0	60	52176
2026-01-23 19:55:26.77	20.19	9.66	-50.9	-63.2	3.6	8.45e-01	0	41	104	0	60	51965
2026-01-23 19:55:27.78	20.06	9.72	-50.9	-63.2	3.6	8.46e-01	0	41	104	0	60	52104
2026-01-23 19:55:28.79	19.93	9.78	-50.9	-63.2	3.5	8.46e-01	0	41	104	0	60	52351
2026-01-23 19:55:29.80	19.81	9.84	-50.9	-63.1	3.6	8.45e-01	0	41	104	0	60	51865
2026-01-23 19:55:30.81	19.68	9.91	-50.9	-63.2	3.6	8.45e-01	0	41	104	0	60	52526
2026-01-23 19:55:31.82	19.55	9.97	-50.9	-63.2	3.6	8.45e-01	0	41	104	0	60	52005
2026-01-23 19:55:32.83	19.42	10.03	-50.9	-63.2	3.6	8.44e-01	0	41	104	0	60	52066
2026-01-23 19:55:33.84	19.30	10.09	-50.9	-63.2	3.5	8.45e-01	0	41	104	0	60	52086
2026-01-23 19:55:34.85	19.17	10.15	-50.9	-63.2	3.6	8.45e-01	0	41	104	0	60	51964
2026-01-23 19:55:35.86	19.04	10.21	-50.9	-63.2	3.6	8.45e-01	0	41	104	0	60	52340
2026-01-23 19:55:36.87	18.90	10.28	-50.9	-63.2	3.5	8.45e-01	0	41	104	0	60	52045
2026-01-23 19:55:37.88	18.77	10.34	-50.9	-63.1	3.6	8.45e-01	0	41	104	0	60	51789
2026-01-23 19:55:38.89	18.64	10.40	-50.9	-63.2	3.6	8.46e-01	0	41	104	0	60	51963
2026-01-23 19:55:39.90	18.51	10.46	-50.9	-63.2	3.6	8.46e-01	0	41	104	0	60	52121
2026-01-23 19:55:40.91	18.38	10.52	-50.9	-63.2	3.6	8.45e-01	0	41	104	0	60	52203
2026-01-23 19:55:41.92	18.24	10.58	-50.9	-63.2	3.6	8.46e-01	0	41	104	0	60	52095
2026-01-23 19:55:42.93	18.11	10.65	-50.9	-63.2	3.6	8.45e-01	0	41	104	0	60	52167
2026-01-23 19:55:43.94	17.97	10.71	-50.9	-63.2	3.6	8.45e-01	0	41	104	0	60	52174
2026-01-23 19:55:44.95	17.84	10.77	-50.8	-63.1	3.6	8.45e-01	0	41	104	0	60	51854
2026-01-23 19:55:45.96	17.70	10.83	-50.9	-63.2	3.6	8.46e-01	0	41	104	0	60	52005
2026-01-23 19:55:46.97	17.57	10.89	-50.9	-63.2	3.6	8.46e-01	0	41	104	0	60	51952
2026-01-23 19:55:47.98	17.43	10.95	-50.8	-63.2	3.6	8.46e-01	0	41	104	0	60	52114
2026-01-23 19:55:48.99	17.29	11.02	-50.9	-63.2	3.6	8.45e-01	0	41	104	0	60	52204
2026-01-23 19:55:50.00	17.15	11.08	-50.9	-63.2	3.6	8.44e-01	0	41	104	0	60	51988
2026-01-23 19:55:51.01	17.02	11.14	-50.8	-63.1	3.6	8.45e-01	0	41	104	0	60	51893
2026-01-23 19:55:52.02	16.88	11.20	-50.9	-63.2	3.6	8.46e-01	0	41	104	0	60	52306
2026-01-23 19:55:53.03	16.74	11.26	-50.8	-63.2	3.6	8.45e-01	0	41	104	0	60	52205
2026-01-23 19:55:54.04	16.60	11.32	-50.9	-63.2	3.6	8.44e-01	0	41	104	0	60	52197
2026-01-23 19:55:55.05	16.45	11.39	-50.8	-63.1	3.6	8.45e-01	0	41	104	0	60	51846
2026-01-23 19:55:56.06	16.31	11.45	-50.9	-63.2	3.6	8.45e-01	0	41	104	0	60	52245
2026-01-23 19:55:57.07	16.17	11.51	-50.9	-63.2	3.5	8.47e-01	0	41	104	0	60	52098
2026-01-23 19:55:58.08	16.03	11.57	-50.8	-63.2	3.6	8.45e-01	0	41	104	0	60	51970
2026-01-23 19:55:59.08	15.88	11.63	-50.9	-63.1	3.5	8.46e-01	0	41	104	0	60	51845
2026-01-23 19:56:00.09	15.74	11.69	-50.9	-63.2	3.6	8.46e-01	0	41	104	0	60	52013
2026-01-23 19:56:01.10	15.60	11.75	-50.8	-63.2	3.6	8.46e-01	0	41	104	0	60	52108
2026-01-23 19:56:02.11	15.45	11.82	-50.8	-63.2	3.6	8.45e-01	0	41	104	0	60	52288
2026-01-23 19:56:03.12	15.30	11.88	-50.9	-63.2	3.6	8.45e-01	0	41	104	0	60	52294
2026-01-23 19:56:04.13	15.16	11.94	-50.8	-63.2	3.6	8.45e-01	0	41	104	0	60	51971
2026-01-23 19:56:05.14	15.01	12.00	-50.8	-63.1	3.6	8.45e-01	0	41	104	0	60	51848
2026-01-23 19:56:06.15	14.86	12.06	-50.8	-63.2	3.6	8.45e-01	0	41	104	0	60	52039
2026-01-23 19:56:07.16	14.71	12.12	-50.8	-63.2	3.6	8.45e-01	0	41	104	0	60	52022
2026-01-23 19:56:08.17	14.56	12.18	-50.8	-63.1	3.6	8.45e-01	0	41	104	0	60	51748
2026-01-23 19:56:09.18	14.41	12.24	-50.8	-63.1	3.6	8.44e-01	0	41	104	0	60	51859
2026-01-23 19:56:10.19	14.26	12.31	-50.8	-63.1	3.6	8.45e-01	0	41	104	0	60	51760
2026-01-23 19:56:11.20	14.11	12.37	-50.8	-63.2	3.6	8.45e-01	0	41	104	0	60	52016
2026-01-23 19:56:12.21	13.96	12.43	-50.8	-63.1	3.6	8.46e-01	0	41	104	0	60	51854
2026-01-23 19:56:13.22	13.81	12.49	-50.8	-63.1	3.6	8.45e-01	0	41	104	0	60	51855
2026-01-23 19:56:14.23	13.66	12.55	-50.8	-63.2	3.6	8.45e-01	0	41	104	0	60	51963
2026-01-23 19:56:15.24	13.50	12.61	-50.8	-63.2	3.6	8.46e-01	0	41	104	0	60	52044
2026-01-23 19:56:16.25	13.35	12.67	-50.9	-63.2	3.6	8.46e-01	0	41	104	0	60	52100
2026-01-23 19:56:17.26	13.19	12.73	-50.8	-63.2	3.6	8.46e-01	0	41	104	0	60	52134
2026-01-23 19:56:18.27	13.04	12.79	-50.8	-63.2	3.6	8.45e-01	0	41	104	0	60	52211
2026-01-23 19:56:19.28	12.88	12.85	-50.9	-63.2	3.6	8.45e-01	0	41	104	0	60	51994
2026-01-23 19:56:20.29	12.72	12.91	-50.8	-63.1	3.6	8.45e-01	0	41	104	0	60	51884
2026-01-23 19:56:21.30	12.56	12.97	-50.8	-63.2	3.6	8.46e-01	0	41	104	0	60	52220
2026-01-23 19:56:22.31	12.41	13.04	-50.9	-63.2	3.6	8.46e-01	0	41	104	0	60	52319
2026-01-23 19:56:23.32	12.25	13.10	-50.9	-63.2	3.6	8.45e-01	0	41	104	0	60	52151
2026-01-23 19:56:24.33	12.09	13.16	-50.9	-63.2	3.6	8.45e-01	0	41	104	0	60	52392
2026-01-23 19:56:25.34	11.93	13.22	-50.9	-63.2	3.6	8.46e-01	0	41	104	0	60	52055
2026-01-23 19:56:26.35	11.77	13.28	-50.9	-63.1	3.6	8.44e-01	0	41	104	0	60	51812
2026-01-23 19:56:27.36	11.60	13.34	-50.9	-63.2	3.6	8.46e-01	0	41	104	0	60	52231
2026-01-23 19:56:28.37	11.44	13.40	-50.9	-63.2	3.6	8.44e-01	0	41	104	0	60	52064
2026-01-23 19:56:29.38	11.28	13.46	-50.9	-63.2	3.6	8.45e-01	0	41	104	0	60	52050
2026-01-23 19:56:30.39	11.12	13.52	-50.9	-63.2	3.6	8.46e-01	0	41	104	0	60	52163
2026-01-23 19:56:31.40	10.95	13.58	-50.9	-63.2	3.6	8.45e-01	0	41	104	0	60	52079
2026-01-23 19:56:32.41	10.79	13.64	-50.9	-63.2	3.6	8.46e-01	0	41	104	0	60	52207
2026-01-23 19:56:33.42	10.62	13.70	-50.9	-63.2	3.6	8.45e-01	0	41	104	0	60	52103
2026-01-23 19:56:34.43	10.45	13.75	-50.9	-63.2	3.6	8.46e-01	0	41	104	0	60	51976
2026-01-23 19:56:35.44	10.29	13.81	-50.9	-63.2	3.6	8.47e-01	0	41	104	0	60	52093
2026-01-23 19:56:36.45	10.12	13.87	-50.9	-63.2	3.6	8.45e-01	0	41	104	0	60	52024
2026-01-23 19:56:37.46	9.95	13.93	-50.9	-63.2	3.6	8.45e-01	0	41	104	0	60	52453
2026-01-23 19:56:38.47	9.78	13.99	-50.9	-63.2	3.6	8.45e-01	0	41	104	0	60	51957
2026-01-23 19:56:39.48	9.61	14.05	-50.9	-63.2	3.6	8.46e-01	0	41	104	0	60	51973
2026-01-23 19:56:40.49	9.44	14.11	-50.9	-63.2	3.6	8.46e-01	0	41	104	0	60	51986
2026-01-23 19:56:41.50	9.27	14.17	-50.9	-63.2	3.6	8.46e-01	0	41	104	0	60	52146
2026-01-23 19:56:42.51	9.10	14.23	-50.9	-63.1	3.6	8.45e-01	0	41	104	0	60	51866
2026-01-23 19:56:43.52	8.93	14.29	-50.9	-63.2	3.6	8.45e-01	0	41	104	0	60	51953
2026-01-23 19:56:44.53	8.75	14.34	-50.9	-63.2	3.6	8.46e-01	0	41	104	0	60	52186
2026-01-23 19:56:45.54	8.58	14.40	-50.9	-63.1	3.6	8.46e-01	0	41	104	0	60	51894
2026-01-23 19:56:46.55	8.40	14.46	-50.9	-63.1	3.6	8.45e-01	0	41	104	0	60	51790
2026-01-23 19:56:47.56	8.23	14.52	-50.9	-63.2	3.6	8.46e-01	0	41	104	0	60	51991
2026-01-23 19:56:48.57	8.05	14.58	-50.9	-63.2	3.6	8.45e-01	0	41	104	0	60	52199
2026-01-23 19:56:49.58	7.88	14.63	-50.9	-63.2	3.6	8.44e-01	0	41	104	0	60	52147
2026-01-23 19:56:50.60	7.70	14.69	-50.9	-63.2	3.6	8.45e-01	0	41	104	0	60	51998
2026-01-23 19:56:51.61	7.52	14.75	-50.9	-63.2	3.6	8.47e-01	0	41	104	0	60	52389
2026-01-23 19:56:52.61	7.34	14.81	-50.9	-63.2	3.6	8.45e-01	0	41	104	0	60	52043
2026-01-23 19:56:53.63	7.16	14.86	-50.9	-63.2	3.6	8.46e-01	0	41	104	0	60	52066
2026-01-23 19:56:54.64	6.98	14.92	-50.9	-63.1	3.6	8.46e-01	0	41	104	0	60	51863
2026-01-23 19:56:55.64	6.80	14.98	-50.9	-63.2	3.6	8.43e-01	0	41	104	0	60	52151
2026-01-23 19:56:56.65	6.62	15.03	-50.9	-63.2	3.6	8.45e-01	0	41	104	0	60	52114
2026-01-23 19:56:57.66	6.44	15.09	-50.9	-63.1	3.6	8.44e-01	0	41	104	0	60	51913
2026-01-23 19:56:58.67	6.25	15.15	-50.9	-63.2	3.6	8.45e-01	0	41	104	0	60	52230
2026-01-23 19:56:59.68	6.07	15.20	-50.9	-63.2	3.6	8.47e-01	0	41	104	0	60	52314
2026-01-23 19:57:00.69	5.88	15.26	-50.9	-63.2	3.6	8.47e-01	0	41	104	0	60	52126
2026-01-23 19:57:01.70	5.70	15.32	-50.9	-63.2	3.6	8.45e-01	0	41	104	0	60	51951
2026-01-23 19:57:02.71	5.51	15.37	-50.9	-63.1	3.6	8.46e-01	0	41	104	0	60	51802
2026-01-23 19:57:03.72	5.33	15.43	-50.9	-63.2	3.6	8.45e-01	0	41	104	0	60	52152
2026-01-23 19:57:04.73	5.14	15.48	-50.9	-63.2	3.6	8.46e-01	0	41	104	0	60	52290
2026-01-23 19:57:05.74	4.95	15.54	-50.9	-63.2	3.6	8.45e-01	0	41	104	0	60	52035
2026-01-23 19:57:06.75	4.76	15.59	-50.9	-63.2	3.6	8.45e-01	0	41	104	0	60	52246
2026-01-23 19:57:07.76	4.57	15.65	-50.9	-63.2	3.6	8.45e-01	0	41	104	0	60	52325
2026-01-23 19:57:08.78	4.38	15.70	-50.9	-63.2	3.6	8.45e-01	0	41	104	0	60	52169
2026-01-23 19:57:09.78	4.19	15.76	-50.9	-63.2	3.6	8.45e-01	0	41	104	0	60	52026
2026-01-23 19:57:10.80	4.00	15.81	-50.9	-63.2	3.6	8.45e-01	0	41	104	0	60	52067
2026-01-23 19:57:11.80	3.81	15.86	-50.9	-63.2	3.6	8.45e-01	0	41	104	0	60	52093
2026-01-23 19:57:12.81	3.62	15.92	-50.9	-63.2	3.6	8.45e-01	0	41	104	0	60	51990
2026-01-23 19:57:13.82	3.42	15.97	-50.9	-63.1	3.6	8.46e-01	0	41	104	0	60	51900
2026-01-23 19:57:14.83	3.23	16.02	-50.9	-63.2	3.6	8.45e-01	0	41	104	0	60	52185
2026-01-23 19:57:15.84	3.03	16.08	-50.9	-63.2	3.6	8.45e-01	0	41	104	0	60	51966
2026-01-23 19:57:16.86	2.83	16.13	-50.9	-63.2	3.6	8.45e-01	0	41	104	0	60	52159
2026-01-23 19:57:17.87	2.64	16.18	-50.9	-63.2	3.6	8.47e-01	0	41	104	0	60	52032
2026-01-23 19:57:18.88	2.44	16.24	-50.9	-63.2	3.6	8.45e-01	0	41	104	0	60	52319
2026-01-23 19:57:19.89	2.24	16.29	-50.9	-63.1	3.6	8.46e-01	0	41	104	0	60	51913
2026-01-23 19:57:20.90	2.04	16.34	-50.9	-63.2	3.6	8.46e-01	0	41	104	0	60	52122
2026-01-23 19:57:21.91	1.84	16.39	-50.9	-63.2	3.6	8.45e-01	0	41	104	0	60	52195
2026-01-23 19:57:22.92	1.64	16.44	-50.9	-63.1	3.6	8.45e-01	0	41	104	0	60	51777
2026-01-23 19:57:23.93	1.44	16.49	-50.9	-63.2	3.6	8.45e-01	0	41	104	0	60	52094
2026-01-23 19:57:24.94	1.24	16.55	-50.9	-63.2	3.6	8.45e-01	0	41	104	0	60	52069
2026-01-23 19:57:25.95	1.04	16.60	-50.9	-63.2	3.6	8.45e-01	0	41	104	0	60	52206
2026-01-23 19:57:26.96	0.84	16.65	-50.9	-63.2	3.6	8.46e-01	0	41	104	0	60	51966
2026-01-23 19:57:27.97	0.63	16.70	-50.9	-63.2	3.6	8.45e-01	0	41	104	0	60	52152
2026-01-23 19:57:28.98	0.43	16.75	-50.9	-63.2	3.6	8.46e-01	0	41	104	0	60	52226
2026-01-23 19:57:29.99	0.23	16.80	-50.9	-63.1	3.6	8.45e-01	0	41	104	0	60	51714
2026-01-23 19:57:30.99	0.02	16.85	-50.9	-63.3	3.6	8.45e-01	0	41	104	0	60	52601
2026-01-23 19:57:32.00	359.82	16.89	-50.9	-63.2	3.6	8.45e-01	0	41	104	0	60	52067
2026-01-23 19:57:33.01	359.61	16.94	-50.9	-63.1	3.6	8.45e-01	0	41	104	0	60	51639
2026-01-23 19:57:34.02	359.40	16.99	-50.9	-63.0	3.6	8.46e-01	0	41	104	0	60	51346
2026-01-23 19:57:35.03	359.19	17.04	-50.9	-63.1	3.6	8.46e-01	0	41	104	0	60	51819
2026-01-23 19:57:36.04	358.98	17.09	-50.9	-63.1	3.6	8.45e-01	0	41	104	0	60	51688
2026-01-23 19:57:37.05	358.77	17.14	-50.9	-63.1	3.6	8.45e-01	0	41	104	0	60	51827
2026-01-23 19:57:38.06	358.56	17.18	-50.9	-63.1	3.6	8.46e-01	0	41	104	0	60	51804
2026-01-23 19:57:39.07	358.35	17.23	-50.9	-63.1	3.6	8.44e-01	0	41	104	0	60	51922
2026-01-23 19:57:40.08	358.14	17.28	-50.9	-63.2	3.6	8.44e-01	0	41	104	0	60	52061
2026-01-23 19:57:41.09	357.93	17.32	-50.9	-63.1	3.6	8.46e-01	0	41	104	0	60	51909
2026-01-23 19:57:42.10	357.72	17.37	-50.9	-63.1	3.6	8.46e-01	0	41	104	0	60	51733
2026-01-23 19:57:43.11	357.50	17.41	-50.9	-63.1	3.6	8.45e-01	0	41	104	0	60	51692
2026-01-23 19:57:44.12	357.29	17.46	-50.9	-63.1	3.6	8.46e-01	0	41	104	0	60	51835
2026-01-23 19:57:45.13	357.07	17.51	-50.9	-63.2	3.6	8.45e-01	0	41	104	0	60	52029
2026-01-23 19:57:46.14	356.86	17.55	-50.9	-63.2	3.6	8.45e-01	0	41	104	0	60	51950
2026-01-23 19:57:47.15	356.64	17.59	-50.9	-63.1	3.6	8.45e-01	0	41	104	0	60	51867
2026-01-23 19:57:48.16	356.43	17.64	-50.9	-63.2	3.6	8.45e-01	0	41	104	0	60	51987
2026-01-23 19:57:49.17	356.21	17.68	-50.9	-63.1	3.6	8.46e-01	0	41	104	0	60	51778
2026-01-23 19:57:50.18	355.99	17.73	-50.9	-63.2	3.6	8.44e-01	0	41	104	0	60	51958
2026-01-23 19:57:51.19	355.77	17.77	-50.9	-63.2	3.6	8.45e-01	0	41	104	0	60	52050
2026-01-23 19:57:52.20	355.55	17.81	-50.9	-63.2	3.6	8.45e-01	0	41	104	0	60	52305
2026-01-23 19:57:53.21	355.33	17.85	-50.9	-63.1	3.6	8.46e-01	0	41	104	0	60	51922
2026-01-23 19:57:54.22	355.11	17.90	-50.9	-63.1	3.6	8.45e-01	0	41	104	0	60	51740
2026-01-23 19:57:55.23	354.89	17.94	-50.9	-63.2	3.6	8.45e-01	0	41	104	0	60	51949
2026-01-23 19:57:56.24	354.67	17.98	-50.9	-63.2	3.6	8.46e-01	0	41	104	0	60	52103
2026-01-23 19:57:57.25	354.45	18.02	-50.9	-63.2	3.6	8.45e-01	0	41	104	0	60	52112
2026-01-23 19:57:58.26	354.22	18.06	-50.9	-63.2	3.6	8.44e-01	0	41	104	0	60	52199
2026-01-23 19:57:59.27	354.00	18.10	-50.9	-63.2	3.6	8.45e-01	0	41	104	0	60	52105
2026-01-23 19:58:00.28	353.77	18.14	-50.9	-63.2	3.6	8.45e-01	0	41	104	0	60	52157
2026-01-23 19:58:01.29	353.55	18.18	-50.9	-63.2	3.6	8.45e-01	0	41	104	0	60	52200
2026-01-23 19:58:02.30	353.32	18.22	-50.9	-63.2	3.6	8.45e-01	0	41	104	0	60	52188
2026-01-23 19:58:03.31	353.10	18.26	-50.9	-63.2	3.6	8.45e-01	0	42	104	0	60	52001
2026-01-23 19:58:04.32	352.87	18.29	-50.9	-63.1	3.6	8.45e-01	0	41	104	0	60	51813
2026-01-23 19:58:05.33	352.64	18.33	-50.9	-63.1	3.5	8.45e-01	0	42	104	0	60	51784
2026-01-23 19:58:06.34	352.42	18.37	-50.9	-63.1	3.6	8.45e-01	0	41	104	0	60	51448
2026-01-23 19:58:07.35	352.19	18.41	-50.9	-63.1	3.6	8.45e-01	0	41	104	0	60	51427
2026-01-23 19:58:08.36	351.96	18.44	-50.9	-63.1	3.6	8.45e-01	0	41	104	0	60	51659
2026-01-23 19:58:09.37	351.73	18.48	-50.9	-63.1	3.6	8.46e-01	0	41	104	0	60	51764
2026-01-23 19:58:10.38	351.50	18.51	-50.9	-63.1	3.6	8.45e-01	0	41	104	0	60	51869
2026-01-23 19:58:11.39	351.27	18.55	-50.9	-63.2	3.6	8.45e-01	0	41	104	0	60	52032
2026-01-23 19:58:12.40	351.04	18.58	-50.9	-63.1	3.6	8.45e-01	0	41	104	0	60	51907
2026-01-23 19:58:13.42	350.80	18.62	-50.9	-63.1	3.6	8.45e-01	0	41	104	0	60	51783
2026-01-23 19:58:14.42	350.58	18.65	-50.9	-63.1	3.6	8.45e-01	0	41	104	0	60	51703
2026-01-23 19:58:15.43	350.34	18.69	-50.9	-63.1	3.6	8.45e-01	0	41	104	0	60	51748
2026-01-23 19:58:16.44	350.11	18.72	-50.9	-63.2	3.5	8.46e-01	0	42	104	0	60	52098
2026-01-23 19:58:17.45	349.88	18.75	-50.9	-63.1	3.5	8.44e-01	0	41	104	0	60	51934
2026-01-23 19:58:18.46	349.64	18.78	-50.9	-63.1	3.6	8.45e-01	0	42	104	0	60	51731
2026-01-23 19:58:19.47	349.41	18.81	-50.9	-63.1	3.6	8.45e-01	0	41	104	0	60	51490
2026-01-23 19:58:20.48	349.17	18.85	-50.9	-63.1	3.6	8.44e-01	0	41	104	0	60	51832
2026-01-23 19:58:21.49	348.94	18.88	-50.9	-63.1	3.6	8.46e-01	0	41	104	0	60	51709
2026-01-23 19:58:22.50	348.70	18.91	-50.9	-63.1	3.6	8.45e-01	0	41	104	0	60	51875
2026-01-23 19:58:23.51	348.46	18.94	-50.9	-63.1	3.6	8.46e-01	0	42	104	0	60	51879
2026-01-23 19:58:24.52	348.23	18.97	-50.9	-63.2	3.6	8.45e-01	0	41	104	0	60	52000
2026-01-23 19:58:25.53	347.99	18.99	-50.9	-63.2	3.6	8.46e-01	0	41	104	0	60	51993
2026-01-23 19:58:26.54	347.75	19.02	-50.9	-63.2	3.6	8.46e-01	0	42	104	0	60	52313
2026-01-23 19:58:27.55	347.51	19.05	-50.9	-63.2	3.6	8.45e-01	0	41	104	0	60	52126
2026-01-23 19:58:28.56	347.27	19.08	-50.9	-63.1	3.5	8.45e-01	0	41	104	0	60	51892
2026-01-23 19:58:29.57	347.03	19.10	-50.9	-63.2	3.6	8.46e-01	0	41	104	0	60	52137
2026-01-23 19:58:30.58	346.79	19.13	-50.9	-63.2	3.6	8.45e-01	0	42	104	0	60	52063
2026-01-23 19:58:31.58	346.56	19.16	-50.9	-63.2	3.6	8.45e-01	0	41	104	0	60	52143
2026-01-23 19:58:32.60	346.31	19.18	-50.9	-63.2	3.6	8.44e-01	0	41	104	0	60	52316
2026-01-23 19:58:33.61	346.07	19.21	-50.9	-63.2	3.6	8.46e-01	0	41	104	0	60	52040
2026-01-23 19:58:34.62	345.83	19.23	-50.9	-63.2	3.6	8.46e-01	0	41	104	0	60	52116
2026-01-23 19:58:35.63	345.59	19.25	-50.9	-63.2	3.6	8.45e-01	0	41	104	0	60	52337
2026-01-23 19:58:36.64	345.35	19.28	-50.9	-63.2	3.6	8.45e-01	0	41	104	0	60	52022
2026-01-23 19:58:37.65	345.11	19.30	-50.9	-63.2	3.6	8.45e-01	0	41	104	0	60	51982
2026-01-23 19:58:38.65	344.87	19.32	-50.9	-63.1	3.6	8.45e-01	0	41	104	0	60	51817
2026-01-23 19:58:39.66	344.62	19.34	-50.9	-63.2	3.6	8.46e-01	0	41	104	0	60	51948
2026-01-23 19:58:40.67	344.38	19.37	-50.9	-63.2	3.6	8.46e-01	0	42	104	0	60	52006
2026-01-23 19:58:41.68	344.13	19.39	-50.9	-63.1	3.6	8.45e-01	0	41	104	0	60	51824
2026-01-23 19:58:42.69	343.89	19.41	-50.9	-63.1	3.6	8.46e-01	0	41	104	0	60	51917
2026-01-23 19:58:43.70	343.65	19.43	-50.9	-63.2	3.6	8.46e-01	0	41	104	0	60	51950
2026-01-23 19:58:44.71	343.40	19.45	-50.9	-63.2	3.6	8.45e-01	0	41	104	0	60	51987
2026-01-23 19:58:45.72	343.16	19.46	-50.9	-63.1	3.6	8.47e-01	0	42	104	0	60	51749
2026-01-23 19:58:46.73	342.91	19.48	-50.9	-63.2	3.6	8.45e-01	0	41	104	0	60	51953
2026-01-23 19:58:47.74	342.66	19.50	-50.9	-63.2	3.6	8.46e-01	0	41	104	0	60	52117
2026-01-23 19:58:48.75	342.42	19.52	-50.9	-63.2	3.6	8.45e-01	0	41	104	0	60	52087
2026-01-23 19:58:49.76	342.17	19.53	-50.9	-63.1	3.6	8.44e-01	0	41	104	0	60	51482
2026-01-23 19:58:50.77	341.93	19.55	-50.9	-63.0	3.6	8.45e-01	0	41	104	0	60	50906
2026-01-23 19:58:51.78	341.68	19.56	-50.9	-63.0	3.6	8.46e-01	0	41	104	0	60	51269
2026-01-23 19:58:52.79	341.43	19.58	-50.9	-63.0	3.6	8.44e-01	0	41	104	0	60	51345
2026-01-23 19:58:53.80	341.18	19.59	-50.9	-63.1	3.6	8.45e-01	0	41	104	0	60	51512
2026-01-23 19:58:54.81	340.94	19.61	-50.9	-63.2	3.6	8.44e-01	0	41	104	0	60	51955
2026-01-23 19:58:55.81	340.69	19.62	-50.9	-63.1	3.6	8.45e-01	0	41	104	0	60	51862
2026-01-23 19:58:56.82	340.44	19.63	-50.8	-63.2	3.6	8.45e-01	0	41	104	0	60	52010
2026-01-23 19:58:57.83	340.20	19.64	-50.9	-63.2	3.6	8.46e-01	0	41	104	0	60	52108
2026-01-23 19:58:58.84	339.95	19.66	-50.9	-63.1	3.6	8.44e-01	0	41	104	0	60	51939
2026-01-23 19:58:59.85	339.70	19.67	-50.9	-63.2	3.6	8.46e-01	0	41	104	0	60	52123
2026-01-23 19:59:00.86	339.45	19.68	-50.9	-63.2	3.6	8.44e-01	0	41	104	0	60	51963
2026-01-23 19:59:01.87	339.20	19.69	-50.9	-63.1	3.5	8.44e-01	0	41	104	0	60	51881
2026-01-23 19:59:02.88	338.95	19.70	-50.9	-63.1	3.6	8.45e-01	0	42	104	0	60	51887
2026-01-23 19:59:03.89	338.70	19.70	-50.9	-63.2	3.6	8.46e-01	0	41	104	0	60	52253
2026-01-23 19:59:04.90	338.45	19.71	-50.9	-63.1	3.6	8.45e-01	0	41	104	0	60	51827
2026-01-23 19:59:05.91	338.20	19.72	-50.9	-63.1	3.6	8.46e-01	0	41	104	0	60	51770
2026-01-23 19:59:06.92	337.95	19.73	-50.9	-63.1	3.6	8.46e-01	0	42	104	0	60	51699
2026-01-23 19:59:07.93	337.70	19.73	-50.9	-63.2	3.6	8.46e-01	0	42	104	0	60	52107
2026-01-23 19:59:08.93	337.46	19.74	-50.9	-63.2	3.6	8.45e-01	0	42	104	0	60	52201
2026-01-23 19:59:09.95	337.21	19.75	-50.9	-63.2	3.6	8.46e-01	0	41	104	0	60	51983
2026-01-23 19:59:10.95	336.96	19.75	-50.9	-63.2	3.6	8.44e-01	0	41	104	0	60	52400
2026-01-23 19:59:11.96	336.71	19.75	-50.9	-63.1	3.6	8.46e-01	0	42	104	0	60	51929
2026-01-23 19:59:12.97	336.46	19.76	-50.9	-63.2	3.6	8.46e-01	0	42	104	0	60	52014
2026-01-23 19:59:13.98	336.21	19.76	-50.9	-63.1	3.6	8.46e-01	0	41	104	0	60	51878
2026-01-23 19:59:14.99	335.96	19.76	-50.9	-63.1	3.6	8.45e-01	0	41	104	0	60	51803
2026-01-23 19:59:16.00	335.71	19.76	-50.9	-63.2	3.6	8.46e-01	0	41	104	0	60	51991
2026-01-23 19:59:17.01	335.46	19.77	-50.9	-63.1	3.6	8.45e-01	0	42	104	0	60	51830
2026-01-23 19:59:18.02	335.21	19.77	-50.9	-63.2	3.6	8.45e-01	0	41	104	0	60	51979
2026-01-23 19:59:19.03	334.96	19.77	-50.9	-63.2	3.6	8.46e-01	0	41	104	0	60	52283
2026-01-23 19:59:20.04	334.71	19.77	-50.9	-63.1	3.6	8.46e-01	0	42	104	0	60	51920
2026-01-23 19:59:21.05	334.46	19.77	-50.9	-63.2	3.6	8.46e-01	0	41	104	0	60	52229
2026-01-23 19:59:22.06	334.21	19.76	-50.9	-63.2	3.6	8.45e-01	0	41	104	0	60	52102
2026-01-23 19:59:23.07	333.95	19.76	-50.9	-63.2	3.6	8.46e-01	0	41	104	0	60	52177
2026-01-23 19:59:24.08	333.70	19.76	-50.9	-63.2	3.6	8.45e-01	0	42	104	0	60	52015
2026-01-23 19:59:25.09	333.45	19.76	-50.9	-63.1	3.6	8.45e-01	0	42	104	0	60	51793
2026-01-23 19:59:26.10	333.20	19.75	-50.9	-63.2	3.6	8.46e-01	0	41	104	0	60	52254
2026-01-23 19:59:27.11	332.95	19.75	-50.9	-63.2	3.6	8.46e-01	0	41	104	0	60	52333
2026-01-23 19:59:28.12	332.70	19.74	-50.9	-63.2	3.6	8.45e-01	0	41	104	0	60	52196
2026-01-23 19:59:29.13	332.45	19.74	-50.9	-63.2	3.6	8.46e-01	0	42	104	0	60	52128
2026-01-23 19:59:30.14	332.20	19.73	-50.9	-63.2	3.6	8.45e-01	0	41	104	0	60	51995
2026-01-23 19:59:31.15	331.96	19.72	-50.9	-63.1	3.6	8.46e-01	0	41	104	0	60	51925
2026-01-23 19:59:32.16	331.71	19.72	-50.9	-63.2	3.6	8.45e-01	0	42	104	0	60	52380
2026-01-23 19:59:33.17	331.46	19.71	-50.9	-63.1	3.6	8.45e-01	0	42	104	0	60	51947
2026-01-23 19:59:34.18	331.21	19.70	-50.9	-63.2	3.6	8.45e-01	0	42	104	0	60	52091
2026-01-23 19:59:35.19	330.96	19.69	-50.9	-63.1	3.6	8.45e-01	0	42	104	0	60	51925
2026-01-23 19:59:36.20	330.71	19.68	-50.9	-63.2	3.6	8.46e-01	0	41	104	0	60	52104
2026-01-23 19:59:37.21	330.46	19.67	-50.9	-63.1	3.6	8.45e-01	0	41	104	0	60	51826
2026-01-23 19:59:38.22	330.21	19.66	-50.9	-63.2	3.6	8.45e-01	0	42	104	0	60	52017
2026-01-23 19:59:39.23	329.96	19.65	-50.9	-63.1	3.6	8.44e-01	0	41	104	0	60	51839
2026-01-23 19:59:40.24	329.71	19.64	-50.9	-63.1	3.6	8.46e-01	0	41	104	0	60	51931
2026-01-23 19:59:41.25	329.47	19.63	-50.9	-63.2	3.6	8.45e-01	0	41	104	0	60	52143
2026-01-23 19:59:42.26	329.22	19.61	-50.9	-63.1	3.6	8.45e-01	0	41	104	0	60	51935
2026-01-23 19:59:43.27	328.97	19.60	-50.9	-63.1	3.6	8.44e-01	0	42	104	0	60	51898
2026-01-23 19:59:44.28	328.72	19.58	-50.9	-63.2	3.6	8.46e-01	0	42	104	0	60	52033
2026-01-23 19:59:45.29	328.48	19.57	-50.9	-63.2	3.6	8.45e-01	0	41	104	0	60	52163
2026-01-23 19:59:46.30	328.23	19.55	-50.9	-63.1	3.6	8.46e-01	0	41	104	0	60	51719
2026-01-23 19:59:47.31	327.98	19.54	-50.9	-63.2	3.6	8.46e-01	0	41	104	0	60	52019
2026-01-23 19:59:48.32	327.74	19.52	-50.9	-63.1	3.6	8.45e-01	0	42	104	0	60	51834
2026-01-23 19:59:49.33	327.49	19.51	-50.9	-63.1	3.6	8.45e-01	0	42	104	0	60	51861
2026-01-23 19:59:50.34	327.24	19.49	-50.9	-63.2	3.6	8.46e-01	0	42	104	0	60	51962
2026-01-23 19:59:51.35	327.00	19.47	-50.9	-63.1	3.6	8.44e-01	0	41	104	0	60	51903
2026-01-23 19:59:52.36	326.75	19.45	-50.9	-63.2	3.6	8.47e-01	0	42	104	0	60	52092
2026-01-23 19:59:53.37	326.51	19.43	-50.9	-63.1	3.6	8.45e-01	0	42	104	0	60	51826
2026-01-23 19:59:54.38	326.26	19.41	-50.9	-63.1	3.6	8.46e-01	0	42	104	0	60	51756
2026-01-23 19:59:55.39	326.02	19.39	-50.9	-63.1	3.6	8.45e-01	0	42	104	0	60	51916
2026-01-23 19:59:56.40	325.77	19.37	-50.9	-63.2	3.6	8.44e-01	0	42	104	0	60	51991
2026-01-23 19:59:57.41	325.53	19.35	-50.9	-63.1	3.6	8.46e-01	0	42	104	0	60	51767
2026-01-23 19:59:58.41	325.29	19.33	-50.9	-63.2	3.6	8.44e-01	0	42	104	0	60	51974
2026-01-23 19:59:59.43	325.04	19.31	-50.9	-63.2	3.6	8.47e-01	0	42	104	0	60	52229
2026-01-23 20:00:00.44	324.80	19.29	-50.9	-63.2	3.6	8.45e-01	0	42	104	0	60	52042
2026-01-23 20:00:01.45	324.56	19.26	-50.9	-63.2	3.6	8.45e-01	0	41	104	0	60	52110
2026-01-23 20:00:02.45	324.32	19.24	-50.9	-63.2	3.6	8.46e-01	0	42	104	0	60	52085
2026-01-23 20:00:03.46	324.08	19.22	-50.9	-63.1	3.6	8.45e-01	0	42	104	0	60	51653
2026-01-23 20:00:04.48	323.83	19.19	-50.9	-63.1	3.6	8.44e-01	0	42	104	0	60	51779
2026-01-23 20:00:05.48	323.59	19.17	-50.9	-63.2	3.6	8.44e-01	0	42	104	0	60	51970
2026-01-23 20:00:06.49	323.35	19.14	-50.8	-63.1	3.6	8.46e-01	0	42	104	0	60	51718
2026-01-23 20:00:07.50	323.11	19.11	-50.9	-63.1	3.6	8.45e-01	0	42	104	0	60	51617
2026-01-23 20:00:08.51	322.87	19.09	-50.9	-63.2	3.6	8.46e-01	0	41	104	0	60	51949
2026-01-23 20:00:09.53	322.63	19.06	-50.9	-63.1	3.6	8.46e-01	0	41	104	0	60	51887
2026-01-23 20:00:10.53	322.40	19.03	-50.8	-63.1	3.6	8.44e-01	0	42	104	0	60	51713
2026-01-23 20:00:11.54	322.16	19.00	-50.9	-63.2	3.6	8.45e-01	0	41	104	0	60	51969
2026-01-23 20:00:12.55	321.92	18.98	-50.8	-63.2	3.6	8.45e-01	0	42	104	0	60	51967
2026-01-23 20:00:13.57	321.68	18.95	-50.9	-63.2	3.6	8.45e-01	0	42	104	0	60	52087
2026-01-23 20:00:14.57	321.45	18.92	-50.9	-63.1	3.6	8.45e-01	0	42	104	0	60	51727
2026-01-23 20:00:15.58	321.21	18.89	-50.9	-63.2	3.6	8.45e-01	0	42	104	0	60	52045
2026-01-23 20:00:16.59	320.97	18.86	-50.9	-63.1	3.6	8.45e-01	0	42	104	0	60	51803
2026-01-23 20:00:17.61	320.73	18.83	-50.9	-63.1	3.6	8.44e-01	0	41	104	0	60	51714
2026-01-23 20:00:18.61	320.50	18.79	-50.9	-63.1	3.6	8.46e-01	0	41	104	0	60	51815
2026-01-23 20:00:19.63	320.26	18.76	-50.9	-63.2	3.6	8.45e-01	0	42	104	0	60	52023
2026-01-23 20:00:20.64	320.03	18.73	-50.9	-63.2	3.6	8.46e-01	0	42	104	0	60	52079
2026-01-23 20:00:21.65	319.80	18.70	-50.9	-63.2	3.6	8.45e-01	0	42	104	0	60	52131
2026-01-23 20:00:22.66	319.56	18.66	-50.9	-63.1	3.6	8.46e-01	0	42	104	0	60	51820
2026-01-23 20:00:23.67	319.33	18.63	-50.9	-63.2	3.6	8.45e-01	0	41	104	0	60	51949
2026-01-23 20:00:24.68	319.10	18.60	-50.9	-63.2	3.6	8.46e-01	0	42	104	0	60	52273
2026-01-23 20:00:25.69	318.87	18.56	-50.9	-63.2	3.6	8.45e-01	0	42	104	0	60	51964
2026-01-23 20:00:26.70	318.64	18.53	-50.9	-63.2	3.6	8.46e-01	0	42	104	0	60	52070
2026-01-23 20:00:27.71	318.41	18.49	-50.9	-63.2	3.6	8.46e-01	0	42	104	0	60	52122
2026-01-23 20:00:28.71	318.18	18.46	-50.9	-63.2	3.6	8.45e-01	0	42	104	0	60	52203
2026-01-23 20:00:29.72	317.95	18.42	-50.9	-63.2	3.6	8.44e-01	0	41	104	0	60	52204
2026-01-23 20:00:30.73	317.72	18.38	-50.9	-63.1	3.6	8.45e-01	0	42	104	0	60	51909
2026-01-23 20:00:31.74	317.49	18.35	-50.9	-63.1	3.6	8.46e-01	0	42	104	0	60	51944
2026-01-23 20:00:32.75	317.26	18.31	-50.9	-63.2	3.6	8.45e-01	0	42	104	0	60	52070
2026-01-23 20:00:33.76	317.04	18.27	-50.9	-63.2	3.6	8.45e-01	0	42	104	0	60	52056
2026-01-23 20:00:34.77	316.81	18.23	-50.9	-63.1	3.6	8.46e-01	0	42	104	0	60	51589
2026-01-23 20:00:35.78	316.59	18.19	-50.9	-63.1	3.6	8.46e-01	0	42	104	0	60	51679
2026-01-23 20:00:36.79	316.36	18.15	-50.9	-63.2	3.6	8.44e-01	0	42	104	0	60	52032
2026-01-23 20:00:37.80	316.13	18.11	-50.9	-63.2	3.6	8.45e-01	0	42	104	0	60	51974
2026-01-23 20:00:38.81	315.91	18.07	-50.9	-63.2	3.6	8.46e-01	0	42	104	0	60	52033
2026-01-23 20:00:39.82	315.69	18.03	-50.9	-63.2	3.6	8.45e-01	0	42	104	0	60	52006
2026-01-23 20:00:40.83	315.46	17.99	-50.9	-63.1	3.6	8.44e-01	0	42	104	0	60	51941
2026-01-23 20:00:41.84	315.24	17.95	-50.9	-63.2	3.6	8.45e-01	0	42	104	0	60	52170
2026-01-23 20:00:42.85	315.02	17.91	-50.9	-63.2	3.6	8.45e-01	0	42	104	0	60	52014
2026-01-23 20:00:43.86	314.80	17.87	-50.9	-63.2	3.6	8.46e-01	0	42	104	0	60	52037
2026-01-23 20:00:44.87	314.58	17.83	-50.9	-63.2	3.6	8.45e-01	0	42	104	0	60	52334
2026-01-23 20:00:45.88	314.36	17.78	-50.9	-63.1	3.6	8.45e-01	0	42	104	0	60	51831
2026-01-23 20:00:46.89	314.14	17.74	-50.9	-63.2	3.6	8.46e-01	0	42	104	0	60	52048
2026-01-23 20:00:47.90	313.92	17.70	-50.9	-63.2	3.6	8.45e-01	0	42	104	0	60	52119
2026-01-23 20:00:48.91	313.70	17.65	-50.9	-63.1	3.6	8.45e-01	0	42	104	0	60	51827
2026-01-23 20:00:49.92	313.48	17.61	-50.9	-63.2	3.6	8.44e-01	0	42	104	0	60	52148
2026-01-23 20:00:50.93	313.27	17.57	-50.9	-63.1	3.6	8.46e-01	0	42	104	0	60	51929
2026-01-23 20:00:51.94	313.05	17.52	-50.9	-63.2	3.6	8.47e-01	0	42	104	0	60	52164
2026-01-23 20:00:52.95	312.84	17.48	-50.9	-63.2	3.6	8.45e-01	0	42	104	0	60	52144
2026-01-23 20:00:53.96	312.62	17.43	-50.9	-63.1	3.6	8.47e-01	0	42	104	0	60	51936
2026-01-23 20:00:54.97	312.41	17.38	-50.9	-63.2	3.6	8.45e-01	0	42	104	0	60	51951
2026-01-23 20:00:55.98	312.19	17.34	-50.9	-63.2	3.6	8.46e-01	0	42	104	0	60	51949
2026-01-23 20:00:56.99	311.98	17.29	-50.9	-63.2	3.6	8.45e-01	0	42	104	0	60	51971
2026-01-23 20:00:58.00	311.77	17.25	-50.9	-63.2	3.6	8.45e-01	0	42	104	0	60	52054
2026-01-23 20:00:59.01	311.56	17.20	-50.9	-63.1	3.6	8.46e-01	0	42	104	0	60	51919
2026-01-23 20:01:00.02	311.35	17.15	-50.9	-63.1	3.6	8.46e-01	0	42	104	0	60	51907
2026-01-23 20:01:01.03	311.14	17.10	-50.9	-63.2	3.6	8.45e-01	0	42	104	0	60	51971
2026-01-23 20:01:02.04	310.93	17.06	-50.9	-63.1	3.6	8.46e-01	0	42	104	0	60	51907
2026-01-23 20:01:03.05	310.72	17.01	-50.9	-63.1	3.6	8.45e-01	0	42	104	0	60	51892
2026-01-23 20:01:04.06	310.51	16.96	-50.9	-63.2	3.6	8.46e-01	0	42	104	0	60	52161
2026-01-23 20:01:05.07	310.30	16.91	-50.9	-63.2	3.6	8.44e-01	0	42	104	0	60	52043
2026-01-23 20:01:06.08	310.10	16.86	-50.9	-63.2	3.6	8.45e-01	0	42	104	0	60	51948
2026-01-23 20:01:07.09	309.89	16.81	-50.9	-63.1	3.6	8.45e-01	0	42	104	0	60	51890
2026-01-23 20:01:08.10	309.68	16.76	-50.9	-63.2	3.6	8.45e-01	0	42	104	0	60	52326
2026-01-23 20:01:09.11	309.48	16.71	-50.9	-63.2	3.6	8.45e-01	0	42	104	0	60	52040
2026-01-23 20:01:10.12	309.27	16.66	-50.9	-63.2	3.6	8.45e-01	0	42	104	0	60	51985
2026-01-23 20:01:11.13	309.07	16.61	-50.9	-63.2	3.6	8.46e-01	0	42	104	0	60	52114
2026-01-23 20:01:12.14	308.87	16.56	-50.9	-63.1	3.6	8.45e-01	0	42	104	0	60	51939
2026-01-23 20:01:13.15	308.67	16.51	-50.9	-63.2	3.6	8.44e-01	0	42	104	0	60	52027
2026-01-23 20:01:14.16	308.47	16.46	-50.9	-63.2	3.6	8.46e-01	0	42	104	0	60	51972
2026-01-23 20:01:15.17	308.26	16.41	-50.9	-63.1	3.6	8.45e-01	0	42	104	0	60	51830
2026-01-23 20:01:16.18	308.06	16.36	-50.9	-63.1	3.6	8.45e-01	0	42	104	0	60	51779
2026-01-23 20:01:17.19	307.87	16.30	-50.9	-63.2	3.6	8.46e-01	0	42	104	0	60	51998
2026-01-23 20:01:18.20	307.67	16.25	-50.9	-63.2	3.6	8.44e-01	0	42	104	0	60	52026
2026-01-23 20:01:19.21	307.47	16.20	-50.9	-63.2	3.6	8.44e-01	0	42	104	0	60	52051
2026-01-23 20:01:20.22	307.27	16.15	-50.9	-63.2	3.6	8.45e-01	0	42	104	0	60	52214
2026-01-23 20:01:21.23	307.08	16.09	-50.9	-63.2	3.5	8.46e-01	0	42	104	0	60	52010
2026-01-23 20:01:22.24	306.88	16.04	-50.9	-63.2	3.6	8.45e-01	0	42	104	0	60	52267
2026-01-23 20:01:23.25	306.68	15.99	-50.9	-63.2	3.6	8.45e-01	0	42	104	0	60	52038
2026-01-23 20:01:24.26	306.49	15.93	-50.9	-63.1	3.6	8.47e-01	0	42	104	0	60	51876
2026-01-23 20:01:25.27	306.30	15.88	-50.9	-63.1	3.6	8.46e-01	0	42	104	0	60	51865
2026-01-23 20:01:26.27	306.11	15.83	-50.8	-63.2	3.6	8.45e-01	0	42	104	0	60	51970
2026-01-23 20:01:27.28	305.91	15.77	-50.8	-63.1	3.6	8.44e-01	0	42	104	0	60	51857
2026-01-23 20:01:28.30	305.72	15.72	-50.8	-63.1	3.6	8.45e-01	0	42	104	0	60	51865
2026-01-23 20:01:29.31	305.53	15.66	-50.8	-63.2	3.6	8.46e-01	0	42	104	0	60	52046
2026-01-23 20:01:30.31	305.34	15.61	-50.8	-63.1	3.6	8.45e-01	0	42	104	0	60	51799
2026-01-23 20:01:31.32	305.15	15.55	-50.8	-63.1	3.6	8.45e-01	0	42	104	0	60	51556
2026-01-23 20:01:32.33	304.96	15.50	-50.9	-63.1	3.6	8.45e-01	0	42	104	0	60	51828
2026-01-23 20:01:33.34	304.77	15.44	-50.9	-63.1	3.6	8.46e-01	0	42	104	0	60	51899
2026-01-23 20:01:34.35	304.59	15.39	-50.9	-63.2	3.6	8.45e-01	0	42	104	0	60	51968
2026-01-23 20:01:35.36	304.40	15.33	-50.8	-63.1	3.6	8.46e-01	0	42	104	0	60	51907
2026-01-23 20:01:36.37	304.21	15.28	-50.9	-63.2	3.6	8.44e-01	0	42	104	0	60	52117
2026-01-23 20:01:37.38	304.03	15.22	-50.9	-63.1	3.6	8.45e-01	0	42	104	0	60	51895
2026-01-23 20:01:38.39	303.84	15.16	-50.9	-63.2	3.6	8.45e-01	0	42	104	0	60	51956
2026-01-23 20:01:39.40	303.66	15.11	-50.8	-63.1	3.6	8.46e-01	0	42	104	0	60	51904
2026-01-23 20:01:40.41	303.48	15.05	-50.8	-63.1	3.6	8.45e-01	0	42	104	0	60	51834
2026-01-23 20:01:41.42	303.30	14.99	-50.8	-63.2	3.6	8.45e-01	0	42	104	0	60	52137
2026-01-23 20:01:42.42	303.12	14.94	-50.9	-63.1	3.6	8.45e-01	0	42	104	0	60	51863
2026-01-23 20:01:43.44	302.93	14.88	-50.9	-63.1	3.6	8.45e-01	0	42	104	0	60	51914
2026-01-23 20:01:44.44	302.75	14.82	-50.8	-63.1	3.6	8.46e-01	0	42	104	0	60	51935
2026-01-23 20:01:45.45	302.57	14.77	-50.8	-63.1	3.6	8.45e-01	0	42	104	0	60	51685
2026-01-23 20:01:46.46	302.40	14.71	-50.7	-63.1	3.6	8.45e-01	0	42	104	0	60	51472
2026-01-23 20:01:47.48	302.22	14.65	-50.7	-63.0	3.6	8.45e-01	0	42	104	0	60	51166
2026-01-23 20:01:48.49	302.04	14.59	-50.8	-63.1	3.6	8.45e-01	0	42	104	0	60	51758
2026-01-23 20:01:49.50	301.86	14.54	-50.8	-63.1	3.6	8.45e-01	0	42	104	0	60	51858
2026-01-23 20:01:50.51	301.69	14.48	-50.8	-63.1	3.6	8.44e-01	0	42	104	0	60	51689
2026-01-23 20:01:51.52	301.51	14.42	-50.7	-63.1	3.6	8.45e-01	0	42	104	0	60	51441
2026-01-23 20:01:52.53	301.34	14.36	-50.8	-63.1	3.6	8.45e-01	0	42	104	0	60	51546
2026-01-23 20:01:53.54	301.16	14.30	-50.8	-63.1	3.6	8.46e-01	0	42	104	0	60	51648
2026-01-23 20:01:54.55	300.99	14.24	-50.8	-63.1	3.6	8.44e-01	0	42	104	0	60	51758
2026-01-23 20:01:55.56	300.82	14.18	-50.8	-63.1	3.6	8.46e-01	0	42	104	0	60	51777
2026-01-23 20:01:56.56	300.64	14.13	-50.8	-63.2	3.6	8.46e-01	0	42	104	0	60	51996
2026-01-23 20:01:57.58	300.47	14.07	-50.8	-63.1	3.6	8.45e-01	0	42	104	0	60	51808
2026-01-23 20:01:58.59	300.30	14.01	-50.8	-63.1	3.6	8.45e-01	0	42	104	0	60	51893
2026-01-23 20:01:59.60	300.13	13.95	-50.9	-63.1	3.6	8.46e-01	0	42	104	0	60	51866
2026-01-23 20:02:00.61	299.96	13.89	-50.9	-63.2	3.6	8.45e-01	0	41	104	0	60	52115
2026-01-23 20:02:01.62	299.79	13.83	-50.9	-63.1	3.6	8.46e-01	0	42	104	0	60	51899
2026-01-23 20:02:02.63	299.63	13.77	-50.8	-63.1	3.6	8.45e-01	0	42	104	0	60	51848
2026-01-23 20:02:03.64	299.46	13.71	-50.8	-63.1	3.6	8.46e-01	0	42	104	0	60	51933
2026-01-23 20:02:04.65	299.29	13.65	-50.8	-63.1	3.5	8.46e-01	0	42	104	0	60	51654
2026-01-23 20:02:05.66	299.13	13.59	-50.8	-63.1	3.6	8.46e-01	0	42	104	0	60	51414
2026-01-23 20:02:06.67	298.96	13.53	-50.8	-63.1	3.6	8.46e-01	0	41	104	0	60	51841
2026-01-23 20:02:07.67	298.80	13.47	-50.8	-63.1	3.6	8.46e-01	0	42	104	0	60	51883
2026-01-23 20:02:08.69	298.63	13.41	-50.8	-63.1	3.6	8.46e-01	0	42	104	0	60	51765
2026-01-23 20:02:09.70	298.47	13.35	-50.8	-63.1	3.6	8.45e-01	0	41	104	0	60	51896
2026-01-23 20:02:10.70	298.31	13.29	-50.9	-63.1	3.6	8.45e-01	0	41	104	0	60	51624
2026-01-23 20:02:11.71	298.15	13.23	-50.9	-63.1	3.6	8.46e-01	0	41	104	0	60	51777
2026-01-23 20:02:12.72	297.99	13.17	-50.9	-63.2	3.6	8.45e-01	0	42	104	0	60	52091
2026-01-23 20:02:13.73	297.83	13.11	-50.9	-63.1	3.6	8.45e-01	0	42	104	0	60	51825
2026-01-23 20:02:14.74	297.67	13.05	-50.8	-63.1	3.6	8.46e-01	0	42	104	0	60	51778
2026-01-23 20:02:15.75	297.51	12.99	-50.8	-63.1	3.6	8.45e-01	0	42	104	0	60	51789
2026-01-23 20:02:16.76	297.35	12.93	-50.8	-63.1	3.6	8.45e-01	0	42	104	0	60	51790
2026-01-23 20:02:17.77	297.19	12.87	-50.9	-63.2	3.6	8.45e-01	0	42	104	0	60	52142
2026-01-23 20:02:18.79	297.03	12.81	-50.9	-63.1	3.6	8.44e-01	0	41	104	0	60	51723
2026-01-23 20:02:19.79	296.88	12.75	-50.8	-63.1	3.6	8.46e-01	0	41	104	0	60	51777
2026-01-23 20:02:20.80	296.72	12.69	-50.8	-63.1	3.6	8.46e-01	0	41	104	0	60	51921
2026-01-23 20:02:21.81	296.57	12.63	-50.8	-63.1	3.6	8.47e-01	0	41	104	0	60	51872
2026-01-23 20:02:22.82	296.41	12.56	-50.9	-63.2	3.6	8.44e-01	0	41	104	0	60	52102
2026-01-23 20:02:23.83	296.26	12.50	-50.9	-63.2	3.6	8.45e-01	0	41	104	0	60	51949
2026-01-23 20:02:24.84	296.11	12.44	-50.9	-63.2	3.6	8.44e-01	0	41	104	0	60	52143
2026-01-23 20:02:25.85	295.95	12.38	-50.9	-63.1	3.6	8.46e-01	0	41	104	0	60	51841
2026-01-23 20:02:26.86	295.80	12.32	-50.9	-63.1	3.6	8.45e-01	0	41	104	0	60	51575
2026-01-23 20:02:27.87	295.65	12.26	-50.9	-63.2	3.6	8.43e-01	0	41	104	0	60	52152
2026-01-23 20:02:28.88	295.50	12.20	-50.9	-63.1	3.6	8.46e-01	0	42	104	0	60	51946
2026-01-23 20:02:29.89	295.35	12.14	-50.9	-63.2	3.6	8.45e-01	0	41	104	0	60	52168
2026-01-23 20:02:30.90	295.20	12.08	-50.9	-63.1	3.6	8.45e-01	0	41	104	0	60	51786
2026-01-23 20:02:31.91	295.05	12.01	-50.9	-63.2	3.6	8.45e-01	0	41	104	0	60	52118
2026-01-23 20:02:32.92	294.90	11.95	-50.9	-63.2	3.6	8.44e-01	0	41	104	0	60	51953
2026-01-23 20:02:33.93	294.76	11.89	-50.9	-63.2	3.6	8.44e-01	0	41	104	0	60	52151
2026-01-23 20:02:34.94	294.61	11.83	-50.9	-63.1	3.6	8.45e-01	0	41	104	0	60	51941
2026-01-23 20:02:35.95	294.46	11.77	-50.9	-63.2	3.6	8.46e-01	0	41	104	0	60	52129
2026-01-23 20:02:36.96	294.32	11.71	-50.9	-63.2	3.6	8.45e-01	0	41	104	0	60	52132
2026-01-23 20:02:37.97	294.17	11.64	-50.9	-63.1	3.6	8.45e-01	0	41	104	0	60	51894
2026-01-23 20:02:38.98	294.03	11.58	-50.9	-63.1	3.6	8.46e-01	0	41	104	0	60	51780
2026-01-23 20:02:39.99	293.88	11.52	-50.9	-63.1	3.6	8.45e-01	0	41	104	0	60	51786
2026-01-23 20:02:41.00	293.74	11.46	-50.9	-63.1	3.6	8.45e-01	0	41	104	0	60	51797
2026-01-23 20:02:42.01	293.60	11.40	-50.9	-63.1	3.6	8.45e-01	0	41	104	0	60	51789
2026-01-23 20:02:43.02	293.46	11.34	-50.9	-63.2	3.6	8.45e-01	0	41	104	0	60	51967
2026-01-23 20:02:44.03	293.32	11.27	-50.9	-63.1	3.6	8.45e-01	0	41	104	0	60	51892
2026-01-23 20:02:45.04	293.17	11.21	-50.9	-63.1	3.6	8.44e-01	0	41	104	0	60	51816
2026-01-23 20:02:46.05	293.03	11.15	-50.9	-63.1	3.6	8.45e-01	0	41	104	0	60	51739
2026-01-23 20:02:47.06	292.90	11.09	-50.9	-63.1	3.6	8.45e-01	0	41	104	0	60	51870
2026-01-23 20:02:48.07	292.76	11.03	-50.9	-63.1	3.6	8.46e-01	0	41	104	0	60	51924
2026-01-23 20:02:49.08	292.62	10.97	-50.9	-63.2	3.6	8.44e-01	0	41	104	0	60	52035
2026-01-23 20:02:50.10	292.48	10.90	-50.9	-63.2	3.6	8.44e-01	0	41	104	0	60	51969
2026-01-23 20:02:51.11	292.34	10.84	-50.8	-63.1	3.6	8.45e-01	0	41	104	0	60	51820
2026-01-23 20:02:52.12	292.21	10.78	-50.9	-63.1	3.6	8.44e-01	0	41	104	0	60	51867
2026-01-23 20:02:53.13	292.07	10.72	-50.8	-63.2	3.6	8.45e-01	0	41	104	0	60	52002
2026-01-23 20:02:54.14	291.93	10.66	-50.9	-63.1	3.6	8.45e-01	0	41	104	0	60	51642
2026-01-23 20:02:55.15	291.80	10.59	-50.9	-63.1	3.6	8.45e-01	0	41	104	0	60	51672
2026-01-23 20:02:56.16	291.67	10.53	-50.9	-63.1	3.6	8.45e-01	0	41	104	0	60	51883
2026-01-23 20:02:57.17	291.53	10.47	-50.9	-63.1	3.6	8.46e-01	0	41	104	0	60	51930
2026-01-23 20:02:58.18	291.40	10.41	-50.9	-63.2	3.6	8.45e-01	0	41	104	0	60	51956
2026-01-23 20:02:59.19	291.27	10.35	-50.8	-63.1	3.6	8.46e-01	0	41	104	0	60	51665
2026-01-23 20:03:00.20	291.13	10.29	-50.9	-63.1	3.6	8.45e-01	0	41	104	0	60	51734
2026-01-23 20:03:01.21	291.00	10.22	-50.8	-63.1	3.6	8.46e-01	0	41	104	0	60	51813
2026-01-23 20:03:02.22	290.87	10.16	-50.9	-63.1	3.6	8.45e-01	0	41	104	0	60	51708
2026-01-23 20:03:03.23	290.74	10.10	-50.9	-63.1	3.6	8.45e-01	0	41	104	0	60	51693
2026-01-23 20:03:04.24	290.61	10.04	-50.9	-63.1	3.6	8.45e-01	0	41	104	0	60	51828
2026-01-23 20:03:05.25	290.48	9.98	-50.9	-63.1	3.6	8.46e-01	0	41	104	0	60	51851
2026-01-23 20:03:06.26	290.35	9.92	-50.9	-63.1	3.6	8.45e-01	0	41	104	0	60	51722
2026-01-23 20:03:07.27	290.23	9.85	-50.8	-63.2	3.6	8.46e-01	0	41	104	0	60	52017
2026-01-23 20:03:08.28	290.10	9.79	-50.9	-63.2	3.6	8.45e-01	0	41	104	0	60	51992
2026-01-23 20:03:09.29	289.97	9.73	-50.8	-63.1	3.6	8.45e-01	0	41	104	0	60	51855
2026-01-23 20:03:10.30	289.85	9.67	-50.9	-63.1	3.6	8.45e-01	0	41	104	0	60	51754
2026-01-23 20:03:11.31	289.72	9.61	-50.9	-63.1	3.6	8.45e-01	0	41	104	0	60	51461
2026-01-23 20:03:12.32	289.60	9.55	-50.8	-63.1	3.6	8.46e-01	0	41	104	0	60	51756
2026-01-23 20:03:13.32	289.47	9.48	-50.9	-63.1	3.6	8.47e-01	0	41	104	0	60	51783
2026-01-23 20:03:14.33	289.35	9.42	-50.9	-63.1	3.6	8.46e-01	0	41	104	0	60	51731
2026-01-23 20:03:15.34	289.22	9.36	-50.9	-63.1	3.6	8.45e-01	0	41	104	0	60	51934
2026-01-23 20:03:16.35	289.10	9.30	-50.9	-63.1	3.6	8.46e-01	0	41	104	0	60	51776
2026-01-23 20:03:17.36	288.98	9.24	-50.8	-63.1	3.6	8.45e-01	0	41	104	0	60	51684
2026-01-23 20:03:18.37	288.86	9.18	-50.9	-63.1	3.6	8.46e-01	0	41	104	0	60	51822
2026-01-23 20:03:19.38	288.73	9.12	-50.9	-63.1	3.6	8.45e-01	0	41	104	0	60	51576
2026-01-23 20:03:20.39	288.61	9.05	-50.9	-63.1	3.6	8.46e-01	0	41	104	0	60	51921
2026-01-23 20:03:21.40	288.49	8.99	-50.9	-63.1	3.6	8.45e-01	0	41	104	0	60	51695
2026-01-23 20:03:22.41	288.37	8.93	-50.9	-63.1	3.6	8.46e-01	0	41	104	0	60	51695
2026-01-23 20:03:23.42	288.25	8.87	-50.8	-63.1	3.6	8.46e-01	0	41	104	0	60	51749
2026-01-23 20:03:24.43	288.13	8.81	-50.8	-63.1	3.6	8.46e-01	0	41	104	0	60	51843
2026-01-23 20:03:25.44	288.02	8.75	-50.8	-63.1	3.6	8.45e-01	0	41	104	0	60	51756
2026-01-23 20:03:26.45	287.90	8.69	-50.9	-63.1	3.6	8.45e-01	0	41	104	0	60	51815
2026-01-23 20:03:27.46	287.78	8.63	-50.9	-63.1	3.6	8.45e-01	0	41	104	0	60	51597
2026-01-23 20:03:28.47	287.66	8.56	-50.8	-63.1	3.6	8.46e-01	0	41	104	0	60	51635
2026-01-23 20:03:29.48	287.55	8.50	-50.8	-63.1	3.6	8.45e-01	0	41	104	0	60	51696
2026-01-23 20:03:30.48	287.43	8.44	-50.8	-63.1	3.6	8.45e-01	0	41	104	0	60	51926
2026-01-23 20:03:31.49	287.32	8.38	-50.9	-63.1	3.6	8.46e-01	0	41	104	0	60	51632
2026-01-23 20:03:32.50	287.20	8.32	-50.9	-63.1	3.6	8.45e-01	0	41	104	0	60	51665
2026-01-23 20:03:33.52	287.09	8.26	-50.9	-63.1	3.6	8.46e-01	0	41	104	0	60	51767
2026-01-23 20:03:34.53	286.97	8.20	-50.9	-63.1	3.6	8.45e-01	0	41	104	0	60	51547
2026-01-23 20:03:35.54	286.86	8.14	-50.8	-63.1	3.6	8.46e-01	0	41	104	0	60	51736
2026-01-23 20:03:36.55	286.75	8.08	-50.8	-63.1	3.6	8.45e-01	0	41	104	0	60	51874
2026-01-23 20:03:37.56	286.63	8.02	-50.8	-63.1	3.6	8.45e-01	0	41	104	0	60	51876
2026-01-23 20:03:38.57	286.52	7.95	-50.8	-63.1	3.6	8.45e-01	0	41	104	0	60	51756
2026-01-23 20:03:39.58	286.41	7.89	-50.8	-63.1	3.6	8.45e-01	0	41	104	0	60	51776
2026-01-23 20:03:40.58	286.30	7.83	-50.8	-63.1	3.6	8.45e-01	0	41	104	0	60	51461
2026-01-23 20:03:41.59	286.19	7.77	-50.8	-63.1	3.6	8.45e-01	0	41	104	0	60	51584
2026-01-23 20:03:42.60	286.08	7.71	-50.8	-63.1	3.6	8.47e-01	0	41	104	0	60	51558
2026-01-23 20:03:43.61	285.97	7.65	-50.8	-63.1	3.6	8.45e-01	0	41	104	0	60	51592
2026-01-23 20:03:44.62	285.86	7.59	-50.8	-63.1	3.6	8.45e-01	0	41	104	0	60	51827
2026-01-23 20:03:45.63	285.75	7.53	-50.8	-63.1	3.6	8.44e-01	0	41	104	0	60	51756
2026-01-23 20:03:46.64	285.64	7.47	-50.8	-63.1	3.6	8.46e-01	0	41	104	0	60	51647
2026-01-23 20:03:47.65	285.54	7.41	-50.8	-63.1	3.6	8.45e-01	0	41	104	0	60	51609
2026-01-23 20:03:48.66	285.43	7.35	-50.8	-63.1	3.6	8.45e-01	0	41	104	0	60	51681
2026-01-23 20:03:49.67	285.32	7.29	-50.8	-63.1	3.6	8.44e-01	0	41	104	0	60	51800
2026-01-23 20:03:50.68	285.22	7.23	-50.8	-63.1	3.6	8.45e-01	0	41	104	0	60	51549
2026-01-23 20:03:51.69	285.11	7.17	-50.8	-63.1	3.6	8.45e-01	0	41	104	0	60	51707
2026-01-23 20:03:52.70	285.00	7.11	-50.8	-63.1	3.6	8.46e-01	0	41	104	0	60	51696
2026-01-23 20:03:53.71	284.90	7.05	-50.8	-63.1	3.6	8.45e-01	0	41	104	0	60	51681
2026-01-23 20:03:54.72	284.79	6.99	-50.8	-63.1	3.6	8.46e-01	0	41	104	0	60	51512
2026-01-23 20:03:55.73	284.69	6.93	-50.8	-63.1	3.6	8.45e-01	0	41	104	0	60	51503
2026-01-23 20:03:56.74	284.59	6.87	-50.8	-63.1	3.6	8.45e-01	0	41	104	0	60	51649
2026-01-23 20:03:57.75	284.48	6.81	-50.8	-63.1	3.6	8.45e-01	0	41	104	0	60	51670
2026-01-23 20:03:58.76	284.38	6.75	-50.8	-63.1	3.6	8.44e-01	0	41	104	0	60	51847
2026-01-23 20:03:59.77	284.28	6.69	-50.8	-63.1	3.6	8.45e-01	0	41	104	0	60	51852
2026-01-23 20:04:00.78	284.18	6.63	-50.8	-63.1	3.6	8.45e-01	0	41	104	0	60	51612
2026-01-23 20:04:01.79	284.07	6.57	-50.8	-63.1	3.6	8.45e-01	0	41	104	0	60	51363
2026-01-23 20:04:02.80	283.97	6.51	-50.8	-63.1	3.6	8.46e-01	0	41	104	0	60	51574
2026-01-23 20:04:03.81	283.87	6.45	-50.8	-63.1	3.6	8.44e-01	0	41	104	0	60	51659
2026-01-23 20:04:04.81	283.77	6.39	-50.8	-63.1	3.6	8.45e-01	0	41	104	0	60	51618
2026-01-23 20:04:05.82	283.67	6.33	-50.8	-63.1	3.6	8.44e-01	0	41	104	0	60	51580
2026-01-23 20:04:06.83	283.57	6.27	-50.8	-63.1	3.6	8.46e-01	0	41	104	0	60	51390
2026-01-23 20:04:07.84	283.47	6.21	-50.9	-63.1	3.6	8.45e-01	0	41	104	0	60	51531
2026-01-23 20:04:08.85	283.38	6.15	-50.8	-63.1	3.6	8.45e-01	0	41	104	0	60	51614
2026-01-23 20:04:09.86	283.28	6.10	-50.9	-63.1	3.6	8.46e-01	0	41	104	0	60	51698
2026-01-23 20:04:10.87	283.18	6.04	-50.8	-63.1	3.6	8.44e-01	0	41	104	0	60	51649
2026-01-23 20:04:11.88	283.08	5.98	-50.8	-63.1	3.6	8.45e-01	0	41	104	0	60	51530
2026-01-23 20:04:12.89	282.99	5.92	-50.8	-63.1	3.6	8.45e-01	0	41	104	0	60	51875
2026-01-23 20:04:13.90	282.89	5.86	-50.9	-63.1	3.6	8.45e-01	0	41	104	0	60	51727
2026-01-23 20:04:14.91	282.79	5.80	-50.8	-63.1	3.6	8.45e-01	0	41	104	0	60	51441
2026-01-23 20:04:15.92	282.70	5.74	-50.8	-63.1	3.6	8.45e-01	0	41	104	0	60	51543
2026-01-23 20:04:16.93	282.60	5.68	-50.9	-63.1	3.6	8.44e-01	0	41	104	0	60	51675
2026-01-23 20:04:17.94	282.51	5.62	-50.8	-63.1	3.6	8.46e-01	0	41	104	0	60	51670
2026-01-23 20:04:18.95	282.41	5.56	-50.8	-63.1	3.6	8.46e-01	0	41	104	0	60	51518
2026-01-23 20:04:19.96	282.32	5.51	-50.9	-63.1	3.6	8.45e-01	0	41	104	0	60	51510
2026-01-23 20:04:20.96	282.23	5.45	-50.8	-63.1	3.6	8.46e-01	0	41	104	0	60	51784
2026-01-23 20:04:21.97	282.13	5.39	-50.9	-63.1	3.6	8.44e-01	0	41	104	0	60	51671
2026-01-23 20:04:22.98	282.04	5.33	-50.8	-63.1	3.6	8.44e-01	0	41	104	0	60	51464
2026-01-23 20:04:23.99	281.95	5.27	-50.9	-63.1	3.6	8.45e-01	0	41	104	0	60	51474
2026-01-23 20:04:25.00	281.85	5.21	-50.8	-63.1	3.6	8.45e-01	0	41	104	0	60	51748
2026-01-23 20:04:26.01	281.76	5.16	-50.8	-63.1	3.6	8.45e-01	0	41	104	0	60	51635
2026-01-23 20:04:27.02	281.67	5.10	-50.9	-63.1	3.6	8.46e-01	0	41	104	0	60	51502
2026-01-23 20:04:28.03	281.58	5.04	-50.8	-63.1	3.6	8.45e-01	0	41	104	0	60	51648
2026-01-23 20:04:29.04	281.49	4.98	-50.8	-63.1	3.6	8.45e-01	0	41	104	0	60	51729
2026-01-23 20:04:30.05	281.40	4.92	-50.8	-63.1	3.6	8.46e-01	0	41	104	0	60	51837
2026-01-23 20:04:31.06	281.31	4.86	-50.9	-63.1	3.6	8.46e-01	0	41	104	0	60	51498
2026-01-23 20:04:32.07	281.22	4.81	-50.8	-63.1	3.6	8.46e-01	0	41	104	0	60	51354
2026-01-23 20:04:33.08	281.13	4.75	-50.9	-63.0	3.6	8.44e-01	0	41	104	0	60	51302
2026-01-23 20:04:34.09	281.04	4.69	-50.9	-63.1	3.6	8.46e-01	0	41	104	0	60	51424
2026-01-23 20:04:35.10	280.95	4.63	-50.9	-63.1	3.6	8.45e-01	0	41	104	0	60	51562
2026-01-23 20:04:36.11	280.86	4.58	-50.9	-63.1	3.6	8.46e-01	0	41	104	0	60	51504
2026-01-23 20:04:37.12	280.78	4.52	-50.9	-63.1	3.6	8.45e-01	0	41	104	0	60	51416
2026-01-23 20:04:38.13	280.69	4.46	-50.9	-63.1	3.6	8.46e-01	0	41	104	0	60	51838
2026-01-23 20:04:39.14	280.60	4.40	-50.9	-63.1	3.6	8.45e-01	0	41	104	0	60	51627
2026-01-23 20:04:40.14	280.51	4.35	-50.9	-63.1	3.6	8.44e-01	0	41	104	0	60	51795
2026-01-23 20:04:41.16	280.43	4.29	-50.9	-63.1	3.5	8.44e-01	0	41	104	0	60	51615
2026-01-23 20:04:42.17	280.34	4.23	-50.9	-63.1	3.6	8.46e-01	0	41	104	0	60	51719
2026-01-23 20:04:43.18	280.26	4.17	-50.8	-63.1	3.6	8.45e-01	0	41	104	0	60	51466
2026-01-23 20:04:44.19	280.17	4.12	-50.9	-63.1	3.6	8.45e-01	0	41	104	0	60	51507
2026-01-23 20:04:45.20	280.09	4.06	-50.9	-63.1	3.6	8.46e-01	0	41	104	0	60	51596
2026-01-23 20:04:46.21	280.00	4.00	-50.9	-63.1	3.6	8.46e-01	0	41	104	0	60	51528
2026-01-23 20:04:47.22	279.92	3.94	-50.9	-63.1	3.6	8.46e-01	0	41	104	0	60	51718
2026-01-23 20:04:48.23	279.83	3.89	-50.9	-63.1	3.6	8.45e-01	0	41	104	0	60	51793
2026-01-23 20:04:49.23	279.75	3.83	-50.9	-63.1	3.6	8.46e-01	0	41	104	0	60	51604
2026-01-23 20:04:50.24	279.67	3.77	-50.9	-63.1	3.6	8.45e-01	0	41	104	0	60	51404
2026-01-23 20:04:51.25	279.58	3.72	-50.9	-63.1	3.6	8.45e-01	0	41	104	0	60	51709
2026-01-23 20:04:52.26	279.50	3.66	-50.8	-63.1	3.6	8.46e-01	0	41	104	0	60	51691
2026-01-23 20:04:53.27	279.42	3.60	-50.9	-63.1	3.6	8.45e-01	0	41	104	0	60	51619
2026-01-23 20:04:54.28	279.34	3.55	-50.8	-63.1	3.6	8.45e-01	0	41	104	0	60	51521
2026-01-23 20:04:55.29	279.25	3.49	-50.9	-63.1	3.6	8.46e-01	0	41	104	0	60	51530
2026-01-23 20:04:56.30	279.17	3.43	-50.9	-63.1	3.6	8.45e-01	0	41	104	0	60	51901
2026-01-23 20:04:57.31	279.09	3.38	-50.9	-63.1	3.6	8.45e-01	0	41	104	0	60	51865
2026-01-23 20:04:58.32	279.01	3.32	-50.9	-63.1	3.6	8.45e-01	0	41	104	0	60	51696
2026-01-23 20:04:59.33	278.93	3.26	-50.9	-63.1	3.6	8.46e-01	0	41	104	0	60	51559
2026-01-23 20:05:00.34	278.85	3.21	-50.9	-63.1	3.6	8.45e-01	0	41	104	0	60	51860
2026-01-23 20:05:01.35	278.77	3.15	-50.9	-63.1	3.6	8.45e-01	0	41	104	0	60	51790
2026-01-23 20:05:02.35	278.69	3.10	-50.9	-63.1	3.6	8.45e-01	0	41	104	0	60	51434
2026-01-23 20:05:03.36	278.61	3.04	-50.9	-63.1	3.6	8.45e-01	0	41	104	0	60	51584
2026-01-23 20:05:04.37	278.53	2.98	-50.9	-63.1	3.6	8.44e-01	0	41	104	0	60	51535
2026-01-23 20:05:05.39	278.46	2.93	-50.9	-63.1	3.6	8.46e-01	0	41	104	0	60	51645
2026-01-23 20:05:06.40	278.38	2.87	-50.9	-63.1	3.6	8.45e-01	0	41	104	0	60	51389
2026-01-23 20:05:07.40	278.30	2.82	-50.9	-63.1	3.6	8.45e-01	0	41	104	0	60	51816
2026-01-23 20:05:08.41	278.22	2.76	-50.9	-63.1	3.6	8.45e-01	0	41	104	0	60	51512
