passes_logs/2026/01/23/R4.6S_Anadyr/R4.6S_Anadyr__20260123_132443_NOAA_21_JPSS-2_rec.log

#Pass ID: 20260123_132443_NOAA 21 (JPSS-2)
#Satellite: NOAA 21 (JPSS-2)
#Configuration: NOAA-21
#almurnet v.1.7.20251203
#Start time: 2026-01-23 13:24:44

#Version: 2.2.20231116
#Station: R4.6S_Anadyr
#Location: 177.4865 lon 64.73178 lat
#TLE: 1 54234U 22150A   26022.41365820  .00000211  00000+0  12084-3 0  9990
#TLE: 2 54234  98.7507 323.2240 0000658 234.5287 125.5828 14.19537645165864

#Time	Az	El	Level	Level2	SNR	BER	BlckErr	Temp	State	Recorded	gain1	gain2
2026-01-23 13:24:44.86	18.80	0.06	-50.6	-65.6	3.6	1.51e+00	0	38	0	0	60	68729
2026-01-23 13:24:45.87	18.85	0.11	-50.8	-63.7	3.5	1.51e+00	0	39	104	0	60	53541
2026-01-23 13:24:46.87	18.89	0.17	-50.9	-63.7	3.5	1.52e+00	0	39	104	0	60	53895
2026-01-23 13:24:47.88	18.93	0.23	-50.9	-63.7	3.5	1.52e+00	0	40	104	0	60	53953
2026-01-23 13:24:48.89	18.98	0.28	-50.9	-63.7	3.5	1.52e+00	0	39	104	0	60	53879
2026-01-23 13:24:49.91	19.02	0.34	-50.9	-63.8	3.6	1.52e+00	0	39	104	0	60	54291
2026-01-23 13:24:50.92	19.07	0.40	-50.9	-63.8	3.5	1.52e+00	0	40	104	0	60	54118
2026-01-23 13:24:51.93	19.11	0.46	-50.9	-63.8	3.5	1.52e+00	0	40	104	0	60	54126
2026-01-23 13:24:52.93	19.16	0.51	-50.9	-63.8	3.5	1.51e+00	0	40	104	0	60	54427
2026-01-23 13:24:53.94	19.20	0.57	-51.0	-63.8	3.5	1.52e+00	0	40	104	0	60	54536
2026-01-23 13:24:54.95	19.25	0.63	-50.9	-63.8	3.5	1.52e+00	0	40	104	0	60	54569
2026-01-23 13:24:55.96	19.29	0.69	-50.9	-63.8	3.5	1.52e+00	0	40	104	0	60	54249
2026-01-23 13:24:56.97	19.34	0.74	-50.9	-63.7	3.5	1.52e+00	0	40	104	0	60	54009
2026-01-23 13:24:57.98	19.38	0.80	-50.8	-63.7	3.5	1.52e+00	0	40	104	0	60	53773
2026-01-23 13:24:58.99	19.43	0.86	-50.8	-63.6	3.5	1.52e+00	0	40	104	0	60	53372
2026-01-23 13:25:00.00	19.47	0.92	-50.7	-63.6	3.5	1.52e+00	0	40	104	0	60	52823
2026-01-23 13:25:01.01	19.52	0.98	-50.7	-63.5	3.5	1.52e+00	0	40	104	0	60	52490
2026-01-23 13:25:02.02	19.57	1.03	-50.6	-63.4	3.5	1.52e+00	0	40	104	0	60	52136
2026-01-23 13:25:03.03	19.61	1.09	-50.5	-63.3	3.5	1.51e+00	0	40	104	0	60	51334
2026-01-23 13:25:04.04	19.66	1.15	-50.3	-63.2	3.5	1.52e+00	0	40	104	0	60	50569
2026-01-23 13:25:05.05	19.70	1.21	-50.3	-63.1	3.5	1.51e+00	0	40	104	0	60	49930
2026-01-23 13:25:06.06	19.75	1.27	-50.1	-63.0	3.5	1.51e+00	0	40	104	0	60	49500
2026-01-23 13:25:07.07	19.80	1.33	-50.0	-62.9	3.5	1.52e+00	0	40	104	0	60	48810
2026-01-23 13:25:08.07	19.85	1.39	-49.8	-62.6	3.5	1.52e+00	0	40	104	0	60	47306
2026-01-23 13:25:09.08	19.89	1.44	-49.5	-62.3	3.5	1.51e+00	0	40	104	0	60	45873
2026-01-23 13:25:10.09	19.94	1.50	-49.4	-62.2	3.5	1.52e+00	0	40	104	0	60	45013
2026-01-23 13:25:11.11	19.99	1.56	-49.4	-62.2	3.5	1.52e+00	0	40	104	0	60	45057
2026-01-23 13:25:12.11	20.03	1.62	-49.4	-62.1	3.5	1.52e+00	0	40	104	0	60	44749
2026-01-23 13:25:13.12	20.08	1.68	-49.4	-62.1	3.5	1.52e+00	0	40	104	0	60	44444
2026-01-23 13:25:14.13	20.13	1.74	-49.4	-62.1	3.5	1.52e+00	0	40	104	0	60	44725
2026-01-23 13:25:15.14	20.18	1.80	-49.4	-62.2	3.5	1.52e+00	0	40	104	0	60	45165
2026-01-23 13:25:16.15	20.23	1.86	-49.4	-62.2	3.5	1.52e+00	0	40	104	0	60	45076
2026-01-23 13:25:17.16	20.28	1.92	-49.4	-62.2	3.5	1.52e+00	0	40	104	0	60	45251
2026-01-23 13:25:18.17	20.32	1.98	-49.4	-62.2	3.5	1.52e+00	0	40	104	0	60	45400
2026-01-23 13:25:19.18	20.37	2.04	-49.4	-62.2	3.5	1.52e+00	0	40	104	0	60	45417
2026-01-23 13:25:20.19	20.42	2.10	-49.4	-62.3	3.5	1.52e+00	0	40	104	0	60	45636
2026-01-23 13:25:21.20	20.47	2.16	-49.4	-62.2	3.5	1.52e+00	0	40	104	0	60	45181
2026-01-23 13:25:22.21	20.52	2.22	-49.4	-61.8	3.5	1.52e+00	0	40	104	0	60	43110
2026-01-23 13:25:23.22	20.57	2.28	-49.3	-61.2	3.5	1.52e+00	0	40	104	0	60	40219
2026-01-23 13:25:24.23	20.62	2.34	-49.3	-60.8	3.5	1.51e+00	0	40	104	0	60	38408
2026-01-23 13:25:25.25	20.67	2.40	-49.2	-60.4	3.5	1.51e+00	0	40	104	0	60	36938
2026-01-23 13:25:26.25	20.72	2.46	-49.3	-61.0	3.5	1.51e+00	0	40	104	0	60	39258
2026-01-23 13:25:27.26	20.77	2.53	-49.4	-61.7	3.5	1.52e+00	0	40	104	0	60	42874
2026-01-23 13:25:28.27	20.82	2.59	-49.4	-61.4	3.5	1.52e+00	0	40	104	0	60	41191
2026-01-23 13:25:29.28	20.87	2.65	-49.0	-58.3	3.7	1.51e+00	0	40	104	0	60	28911
2026-01-23 13:25:30.30	20.92	2.71	-48.1	-53.8	7.5	2.29e-01	123	40	0	0	60	17199
2026-01-23 13:25:31.31	20.98	2.77	-46.6	-50.1	11.3	4.98e-03	122	40	0	3145728	60	11183
2026-01-23 13:25:32.31	21.03	2.83	-45.3	-47.8	13.9	6.71e-05	122	40	0	6291456	60	8653
2026-01-23 13:25:33.32	21.08	2.89	-44.2	-46.3	15.4	0.00e+00	122	40	0	9437184	60	7232
2026-01-23 13:25:34.33	21.13	2.96	-42.8	-44.5	17.2	0.00e+00	123	40	0	12582912	60	5886
2026-01-23 13:25:35.34	21.18	3.02	-42.4	-44.0	17.7	0.00e+00	123	40	0	15728640	58	6221
2026-01-23 13:25:36.35	21.23	3.08	-41.7	-43.1	18.2	0.00e+00	123	40	0	18874368	56	6317
2026-01-23 13:25:37.36	21.29	3.14	-42.1	-43.6	18.0	0.00e+00	121	40	0	22020096	56	6706
2026-01-23 13:25:38.37	21.34	3.21	-42.0	-43.6	17.8	0.00e+00	123	40	0	25165824	56	6650
2026-01-23 13:25:39.38	21.39	3.27	-43.0	-44.7	16.7	0.00e+00	123	40	0	28311552	58	6783
2026-01-23 13:25:40.39	21.45	3.33	-43.4	-45.3	16.2	0.00e+00	122	40	0	31457280	58	7233
2026-01-23 13:25:41.40	21.50	3.39	-45.6	-48.3	12.9	1.83e-05	123	40	0	34603008	60	9097
2026-01-23 13:25:42.41	21.55	3.46	-47.0	-50.7	10.4	1.22e-03	120	40	0	37748736	60	12036
2026-01-23 13:25:43.42	21.61	3.52	-48.0	-53.2	8.0	2.90e-02	122	40	0	40894464	60	16002
2026-01-23 13:25:44.43	21.66	3.58	-44.8	-47.1	14.8	3.80e-06	121	40	0	44040192	60	7908
2026-01-23 13:25:45.44	21.71	3.65	-41.8	-43.3	18.1	0.00e+00	123	40	0	47185920	56	6431
2026-01-23 13:25:46.45	21.77	3.71	-49.2	-60.7	3.5	1.52e+00	0	41	104	48234496	60	38153
2026-01-23 13:25:47.46	21.82	3.77	-44.1	-46.6	15.7	3.80e-06	123	41	104	48234496	60	7466
2026-01-23 13:25:48.47	21.88	3.84	-49.5	-60.6	3.6	1.54e+00	0	40	104	49283072	60	37495
2026-01-23 13:25:49.48	21.93	3.90	-44.1	-46.1	15.9	5.30e-06	122	41	0	49283072	60	7085
2026-01-23 13:25:50.49	21.99	3.96	-43.9	-45.8	16.0	0.00e+00	120	40	0	52428800	60	6835
2026-01-23 13:25:51.50	22.04	4.03	-43.6	-45.4	16.6	0.00e+00	123	40	0	55574528	60	6522
2026-01-23 13:25:52.51	22.10	4.09	-42.3	-43.9	17.8	0.00e+00	122	40	0	58720256	58	6142
2026-01-23 13:25:53.52	22.15	4.16	-41.7	-43.1	18.5	0.00e+00	122	41	0	61865984	56	6288
2026-01-23 13:25:54.53	22.21	4.22	-42.3	-43.8	17.9	0.00e+00	122	40	0	65011712	56	6846
2026-01-23 13:25:55.54	22.27	4.29	-42.4	-43.9	17.8	0.00e+00	122	40	0	68157440	56	6958
2026-01-23 13:25:56.55	22.32	4.35	-42.7	-44.2	17.4	0.00e+00	123	40	0	71303168	56	7187
2026-01-23 13:25:57.56	22.38	4.42	-43.3	-45.1	17.5	0.00e+00	123	41	0	74448896	58	7067
2026-01-23 13:25:58.57	22.43	4.48	-42.7	-44.3	17.4	0.00e+00	123	40	0	77594624	58	6436
2026-01-23 13:25:59.58	22.49	4.55	-42.1	-43.6	18.2	0.00e+00	123	40	0	80740352	58	5947
2026-01-23 13:26:00.59	22.55	4.61	-41.2	-42.5	19.2	0.00e+00	120	40	0	83886080	56	5871
2026-01-23 13:26:01.60	22.61	4.68	-41.6	-43.0	18.9	0.00e+00	123	40	0	87031808	56	6221
2026-01-23 13:26:02.61	22.66	4.74	-41.8	-43.2	18.8	0.00e+00	121	40	0	90177536	56	6380
2026-01-23 13:26:03.62	22.72	4.81	-41.6	-43.0	18.9	0.00e+00	123	40	0	93323264	56	6242
2026-01-23 13:26:04.63	22.78	4.87	-41.7	-43.1	19.0	0.00e+00	123	41	0	96468992	56	6324
2026-01-23 13:26:05.64	22.84	4.94	-40.1	-41.3	20.2	0.00e+00	122	41	0	99614720	54	5784
2026-01-23 13:26:06.65	22.90	5.01	-40.7	-42.0	19.8	0.00e+00	120	41	0	102760448	54	6215
2026-01-23 13:26:07.66	22.96	5.07	-39.9	-41.1	20.4	0.00e+00	122	41	0	105906176	54	5633
2026-01-23 13:26:08.67	23.02	5.14	-39.9	-41.1	20.5	0.00e+00	123	40	0	110100480	54	5602
2026-01-23 13:26:09.68	23.08	5.20	-39.9	-41.1	20.4	0.00e+00	122	41	0	113246208	54	5638
2026-01-23 13:26:10.70	23.14	5.27	-39.6	-40.8	20.8	0.00e+00	123	40	0	116391936	54	5412
2026-01-23 13:26:11.71	23.20	5.34	-40.1	-41.3	20.5	0.00e+00	120	40	0	118489088	52	6432
2026-01-23 13:26:12.72	23.26	5.41	-39.8	-41.0	20.6	0.00e+00	122	41	0	121634816	52	6216
2026-01-23 13:26:13.73	23.32	5.47	-40.5	-41.7	20.0	0.00e+00	123	41	0	125829120	52	6801
2026-01-23 13:26:14.74	23.38	5.54	-40.7	-42.0	19.8	0.00e+00	123	41	0	128974848	54	6222
2026-01-23 13:26:15.75	23.44	5.61	-39.7	-40.8	20.8	0.00e+00	123	41	0	132120576	54	5443
2026-01-23 13:26:16.75	23.50	5.67	-40.1	-41.3	20.4	0.00e+00	123	41	0	135266304	52	6445
2026-01-23 13:26:17.77	23.56	5.74	-39.4	-40.5	21.1	0.00e+00	123	41	0	138412032	52	5877
2026-01-23 13:26:18.77	23.62	5.81	-39.5	-40.7	21.0	0.00e+00	120	41	0	141557760	52	6001
2026-01-23 13:26:19.78	23.69	5.88	-38.9	-39.9	21.5	0.00e+00	122	41	0	144703488	52	5522
2026-01-23 13:26:20.79	23.75	5.95	-39.8	-41.0	20.8	0.00e+00	123	41	0	147849216	52	6213
2026-01-23 13:26:21.80	23.81	6.01	-39.5	-40.6	21.1	0.00e+00	120	41	0	150994944	52	5993
2026-01-23 13:26:22.81	23.87	6.08	-39.1	-40.2	21.5	0.00e+00	123	41	0	154140672	52	5668
2026-01-23 13:26:23.82	23.94	6.15	-39.5	-40.6	21.1	0.00e+00	123	41	0	157286400	52	5940
2026-01-23 13:26:24.83	24.00	6.22	-39.4	-40.5	21.3	0.00e+00	123	41	0	160432128	52	5878
2026-01-23 13:26:25.84	24.06	6.29	-39.3	-40.4	21.2	0.00e+00	122	41	0	163577856	52	5809
2026-01-23 13:26:26.85	24.13	6.36	-39.2	-40.3	21.5	0.00e+00	123	41	0	166723584	52	5730
2026-01-23 13:26:27.86	24.19	6.43	-39.4	-40.5	21.2	0.00e+00	122	41	0	169869312	52	5874
2026-01-23 13:26:28.87	24.26	6.50	-39.3	-40.4	21.2	0.00e+00	120	41	0	173015040	52	5799
2026-01-23 13:26:29.88	24.32	6.57	-39.3	-40.4	21.2	0.00e+00	123	41	0	176160768	52	5853
2026-01-23 13:26:30.89	24.39	6.64	-39.4	-40.5	21.2	0.00e+00	120	41	0	179306496	52	5877
2026-01-23 13:26:31.90	24.45	6.71	-39.3	-40.4	21.2	0.00e+00	122	41	0	182452224	52	5829
2026-01-23 13:26:32.91	24.52	6.78	-39.6	-40.7	21.1	0.00e+00	122	41	0	185597952	52	6010
2026-01-23 13:26:33.92	24.58	6.85	-39.7	-40.8	20.9	0.00e+00	122	41	0	188743680	52	6076
2026-01-23 13:26:34.93	24.65	6.92	-39.2	-40.3	21.4	0.00e+00	122	41	0	191889408	52	5744
2026-01-23 13:26:35.94	24.72	6.99	-39.0	-40.1	21.6	0.00e+00	123	41	0	195035136	52	5639
2026-01-23 13:26:36.95	24.78	7.06	-39.0	-40.1	21.6	0.00e+00	123	41	0	198180864	52	5599
2026-01-23 13:26:37.95	24.85	7.13	-39.1	-40.1	21.5	0.00e+00	123	41	0	201326592	52	5659
2026-01-23 13:26:38.96	24.92	7.20	-38.9	-40.0	21.7	0.00e+00	123	41	0	204472320	52	5550
2026-01-23 13:26:39.97	24.99	7.27	-39.3	-40.4	21.3	0.00e+00	122	41	0	207618048	52	5815
2026-01-23 13:26:40.98	25.05	7.34	-38.9	-39.9	21.8	0.00e+00	122	41	0	210763776	52	5529
2026-01-23 13:26:41.99	25.12	7.41	-38.9	-40.0	21.7	0.00e+00	123	41	0	213909504	52	5540
2026-01-23 13:26:43.00	25.19	7.48	-38.8	-39.8	21.9	0.00e+00	123	41	0	217055232	52	5460
2026-01-23 13:26:44.01	25.26	7.56	-39.0	-40.1	21.6	0.00e+00	123	41	0	220200960	50	6335
2026-01-23 13:26:45.02	25.33	7.63	-38.9	-39.9	21.8	0.00e+00	123	41	0	223346688	50	6171
2026-01-23 13:26:46.03	25.40	7.70	-39.0	-40.0	21.6	0.00e+00	123	41	0	226492416	50	6272
2026-01-23 13:26:47.04	25.47	7.77	-39.0	-40.1	21.7	0.00e+00	123	41	0	229638144	50	6283
2026-01-23 13:26:48.05	25.54	7.85	-39.1	-40.2	21.6	0.00e+00	120	41	0	232783872	50	6379
2026-01-23 13:26:49.06	25.61	7.92	-38.8	-39.8	21.9	0.00e+00	122	41	0	235929600	50	6120
2026-01-23 13:26:50.07	25.68	7.99	-38.8	-39.9	21.8	0.00e+00	122	41	0	239075328	50	6138
2026-01-23 13:26:51.08	25.75	8.06	-38.9	-39.9	21.9	0.00e+00	123	41	0	242221056	50	6163
2026-01-23 13:26:52.09	25.82	8.14	-38.7	-39.8	21.9	0.00e+00	123	41	0	245366784	50	6098
2026-01-23 13:26:53.10	25.90	8.21	-38.6	-39.7	22.1	0.00e+00	122	41	0	248512512	50	6013
2026-01-23 13:26:54.11	25.97	8.28	-38.7	-39.7	22.0	0.00e+00	120	41	0	251658240	50	6024
2026-01-23 13:26:55.12	26.04	8.36	-38.9	-40.0	21.8	0.00e+00	123	41	0	254803968	50	6239
2026-01-23 13:26:56.13	26.11	8.43	-38.7	-39.8	21.9	0.00e+00	120	41	0	257949696	50	6080
2026-01-23 13:26:57.14	26.19	8.51	-38.7	-39.7	22.0	0.00e+00	122	41	0	261095424	50	6018
2026-01-23 13:26:58.15	26.26	8.58	-38.8	-39.9	21.9	0.00e+00	123	41	0	264241152	50	6137
2026-01-23 13:26:59.16	26.34	8.66	-38.7	-39.7	22.1	0.00e+00	123	41	0	267386880	50	6056
2026-01-23 13:27:00.17	26.41	8.73	-38.6	-39.6	22.1	0.00e+00	120	41	0	270532608	50	5972
2026-01-23 13:27:01.18	26.48	8.81	-38.6	-39.6	22.2	0.00e+00	123	41	0	273678336	50	5955
2026-01-23 13:27:02.19	26.56	8.88	-38.8	-39.8	21.9	0.00e+00	123	41	0	276824064	50	6127
2026-01-23 13:27:03.20	26.63	8.96	-38.7	-39.7	22.1	0.00e+00	122	41	0	279969792	50	6031
2026-01-23 13:27:04.21	26.71	9.03	-38.8	-39.9	21.9	0.00e+00	122	41	0	283115520	50	6145
2026-01-23 13:27:05.22	26.79	9.11	-38.6	-39.6	22.1	0.00e+00	123	41	0	286261248	50	5947
2026-01-23 13:27:06.23	26.86	9.18	-38.7	-39.7	22.1	0.00e+00	120	41	0	289406976	50	6047
2026-01-23 13:27:07.25	26.94	9.26	-38.7	-39.8	22.0	0.00e+00	122	41	0	292552704	50	6070
2026-01-23 13:27:08.26	27.02	9.34	-38.6	-39.7	22.2	0.00e+00	121	41	0	295698432	50	6008
2026-01-23 13:27:09.27	27.10	9.41	-38.3	-39.4	22.4	0.00e+00	123	41	0	298844160	50	5804
2026-01-23 13:27:10.28	27.17	9.49	-38.5	-39.5	22.2	0.00e+00	123	41	0	301989888	50	5885
2026-01-23 13:27:11.29	27.25	9.57	-38.6	-39.7	22.1	0.00e+00	123	41	0	305135616	50	6009
2026-01-23 13:27:12.30	27.33	9.64	-38.4	-39.4	22.3	0.00e+00	123	41	0	308281344	50	5852
2026-01-23 13:27:13.31	27.41	9.72	-38.4	-39.4	22.3	0.00e+00	122	41	0	311427072	50	5843
2026-01-23 13:27:14.32	27.49	9.80	-38.2	-39.2	22.5	0.00e+00	122	41	0	314572800	50	5724
2026-01-23 13:27:15.33	27.57	9.87	-38.3	-39.4	22.4	0.00e+00	123	41	0	317718528	50	5794
2026-01-23 13:27:16.34	27.65	9.95	-38.2	-39.2	22.6	0.00e+00	123	41	0	320864256	50	5680
2026-01-23 13:27:17.35	27.73	10.03	-38.1	-39.1	22.7	0.00e+00	122	41	0	324009984	50	5615
2026-01-23 13:27:18.36	27.81	10.11	-38.1	-39.1	22.7	0.00e+00	122	41	0	327155712	50	5649
2026-01-23 13:27:19.37	27.90	10.19	-38.2	-39.1	22.6	0.00e+00	123	41	0	330301440	50	5657
2026-01-23 13:27:20.38	27.98	10.27	-38.3	-39.3	22.4	0.00e+00	122	41	0	333447168	50	5773
2026-01-23 13:27:21.39	28.06	10.34	-38.2	-39.2	22.6	0.00e+00	120	41	0	336592896	50	5667
2026-01-23 13:27:22.40	28.14	10.42	-38.3	-39.3	22.5	0.00e+00	122	41	0	339738624	50	5752
2026-01-23 13:27:23.41	28.23	10.50	-38.4	-39.4	22.4	0.00e+00	122	41	0	342884352	50	5797
2026-01-23 13:27:24.42	28.31	10.58	-38.4	-39.4	22.5	0.00e+00	123	41	0	346030080	50	5829
2026-01-23 13:27:25.43	28.39	10.66	-38.2	-39.2	22.6	0.00e+00	123	41	0	349175808	50	5707
2026-01-23 13:27:26.45	28.48	10.74	-38.2	-39.2	22.6	0.00e+00	123	41	0	352321536	50	5667
2026-01-23 13:27:27.45	28.56	10.82	-38.0	-39.0	22.8	0.00e+00	123	41	0	355467264	50	5561
2026-01-23 13:27:28.47	28.65	10.90	-38.0	-39.0	22.8	0.00e+00	123	41	0	358612992	50	5574
2026-01-23 13:27:29.47	28.74	10.98	-37.9	-38.9	22.9	0.00e+00	122	41	0	361758720	50	5491
2026-01-23 13:27:30.48	28.82	11.06	-38.0	-39.0	22.8	0.00e+00	120	41	0	364904448	50	5554
2026-01-23 13:27:31.49	28.91	11.14	-38.1	-39.1	22.8	0.00e+00	122	41	0	368050176	50	5596
2026-01-23 13:27:32.50	29.00	11.22	-38.0	-39.0	22.7	0.00e+00	123	41	0	371195904	50	5548
2026-01-23 13:27:33.51	29.08	11.31	-37.9	-38.9	22.9	0.00e+00	123	41	0	374341632	50	5485
2026-01-23 13:27:34.53	29.17	11.39	-37.8	-38.8	22.9	0.00e+00	122	41	0	377487360	48	6084
2026-01-23 13:27:35.54	29.26	11.47	-37.8	-38.8	23.0	0.00e+00	123	41	0	380633088	48	6070
2026-01-23 13:27:36.55	29.35	11.55	-37.8	-38.8	23.0	0.00e+00	120	41	0	383778816	48	6084
2026-01-23 13:27:37.55	29.44	11.63	-37.9	-38.8	22.9	0.00e+00	122	41	0	386924544	48	6131
2026-01-23 13:27:38.57	29.53	11.72	-38.1	-39.1	22.7	0.00e+00	121	41	0	390070272	48	6328
2026-01-23 13:27:39.58	29.62	11.80	-37.7	-38.7	23.1	0.00e+00	122	41	0	393216000	48	6021
2026-01-23 13:27:40.59	29.71	11.88	-37.7	-38.7	23.1	0.00e+00	122	41	0	396361728	48	6006
2026-01-23 13:27:41.60	29.81	11.96	-37.6	-38.6	23.1	0.00e+00	122	41	0	399507456	48	5973
2026-01-23 13:27:42.61	29.90	12.05	-37.7	-38.7	23.1	0.00e+00	124	41	0	402653184	48	5996
2026-01-23 13:27:43.62	29.99	12.13	-37.7	-38.7	23.1	0.00e+00	123	41	0	405798912	48	6006
2026-01-23 13:27:44.63	30.08	12.21	-37.6	-38.5	23.2	0.00e+00	123	41	0	409993216	48	5899
2026-01-23 13:27:45.64	30.18	12.30	-37.7	-38.6	23.2	0.00e+00	120	41	0	412090368	48	5974
2026-01-23 13:27:46.65	30.27	12.38	-37.6	-38.6	23.1	0.00e+00	123	41	0	415236096	48	5943
2026-01-23 13:27:47.66	30.37	12.47	-37.7	-38.7	23.1	0.00e+00	122	41	0	418381824	48	6002
2026-01-23 13:27:48.67	30.46	12.55	-37.9	-38.8	23.1	0.00e+00	120	41	0	421527552	48	6115
2026-01-23 13:27:49.68	30.56	12.64	-37.7	-38.6	23.1	0.00e+00	122	41	0	425721856	48	5978
2026-01-23 13:27:50.69	30.65	12.72	-37.7	-38.6	23.1	0.00e+00	122	41	0	428867584	48	5979
2026-01-23 13:27:51.70	30.75	12.81	-37.6	-38.5	23.2	0.00e+00	123	41	0	432013312	48	5900
2026-01-23 13:27:52.71	30.85	12.89	-37.4	-38.4	23.3	0.00e+00	122	41	0	435159040	48	5794
2026-01-23 13:27:53.72	30.94	12.98	-37.4	-38.4	23.3	0.00e+00	123	41	0	437256192	48	5803
2026-01-23 13:27:54.73	31.04	13.06	-37.4	-38.3	23.3	0.00e+00	123	41	0	441450496	48	5774
2026-01-23 13:27:55.74	31.14	13.15	-37.4	-38.3	23.3	0.00e+00	123	41	0	444596224	48	5776
2026-01-23 13:27:56.75	31.24	13.24	-37.5	-38.4	23.3	0.00e+00	122	41	0	447741952	48	5840
2026-01-23 13:27:57.76	31.34	13.32	-37.4	-38.3	23.4	0.00e+00	120	41	0	450887680	48	5789
2026-01-23 13:27:58.77	31.44	13.41	-37.3	-38.3	23.4	0.00e+00	123	41	0	454033408	48	5741
2026-01-23 13:27:59.78	31.54	13.50	-37.4	-38.4	23.3	0.00e+00	122	41	0	457179136	48	5805
2026-01-23 13:28:00.79	31.64	13.58	-37.3	-38.3	23.4	0.00e+00	123	41	0	460324864	48	5750
2026-01-23 13:28:01.80	31.75	13.67	-37.3	-38.3	23.4	0.00e+00	123	41	0	463470592	48	5756
2026-01-23 13:28:02.81	31.85	13.76	-37.6	-38.5	23.2	0.00e+00	123	41	0	466616320	48	5923
2026-01-23 13:28:03.82	31.95	13.85	-37.2	-38.1	23.5	0.00e+00	123	41	0	469762048	48	5653
2026-01-23 13:28:04.82	32.06	13.93	-37.3	-38.2	23.5	0.00e+00	122	41	0	472907776	48	5719
2026-01-23 13:28:05.83	32.16	14.02	-37.2	-38.2	23.5	0.00e+00	123	41	0	476053504	48	5686
2026-01-23 13:28:06.84	32.27	14.11	-37.3	-38.3	23.5	0.00e+00	123	41	0	479199232	48	5729
2026-01-23 13:28:07.85	32.37	14.20	-37.4	-38.4	23.4	0.00e+00	122	41	0	482344960	48	5813
2026-01-23 13:28:08.86	32.48	14.29	-37.5	-38.4	23.4	0.00e+00	122	41	0	485490688	48	5838
2026-01-23 13:28:09.87	32.58	14.38	-37.3	-38.3	23.5	0.00e+00	123	41	0	488636416	48	5741
2026-01-23 13:28:10.88	32.69	14.47	-37.4	-38.3	23.4	0.00e+00	123	41	0	491782144	48	5762
2026-01-23 13:28:11.89	32.80	14.56	-37.3	-38.2	23.5	0.00e+00	122	41	0	494927872	48	5703
2026-01-23 13:28:12.90	32.91	14.65	-37.4	-38.3	23.5	0.00e+00	120	41	0	498073600	48	5761
2026-01-23 13:28:13.91	33.02	14.74	-37.3	-38.2	23.5	0.00e+00	123	41	0	501219328	48	5722
2026-01-23 13:28:14.92	33.13	14.83	-37.4	-38.3	23.5	0.00e+00	123	41	0	504365056	48	5786
2026-01-23 13:28:15.94	33.24	14.92	-37.5	-38.4	23.3	0.00e+00	123	41	0	507510784	48	5834
2026-01-23 13:28:16.95	33.35	15.01	-37.4	-38.4	23.4	0.00e+00	122	41	0	510656512	48	5808
2026-01-23 13:28:17.95	33.46	15.10	-37.3	-38.2	23.5	0.00e+00	122	41	0	513802240	48	5709
2026-01-23 13:28:18.96	33.58	15.20	-37.4	-38.3	23.4	0.00e+00	122	41	0	516947968	48	5776
2026-01-23 13:28:19.98	33.69	15.29	-37.5	-38.5	23.3	0.00e+00	123	41	0	520093696	48	5859
2026-01-23 13:28:20.99	33.80	15.38	-37.6	-38.6	23.3	0.00e+00	123	41	0	523239424	48	5945
2026-01-23 13:28:21.99	33.92	15.47	-37.4	-38.4	23.4	0.00e+00	122	41	0	526385152	48	5815
2026-01-23 13:28:23.01	34.03	15.57	-37.5	-38.4	23.4	0.00e+00	123	41	0	529530880	48	5836
2026-01-23 13:28:24.02	34.15	15.66	-37.6	-38.5	23.3	0.00e+00	123	41	0	532676608	48	5922
2026-01-23 13:28:25.03	34.27	15.75	-37.5	-38.5	23.4	0.00e+00	123	41	0	535822336	48	5876
2026-01-23 13:28:26.04	34.39	15.85	-37.7	-38.6	23.2	0.00e+00	123	41	0	538968064	48	5972
2026-01-23 13:28:27.05	34.50	15.94	-37.5	-38.5	23.5	0.00e+00	122	41	0	542113792	48	5862
2026-01-23 13:28:28.06	34.62	16.03	-37.7	-38.7	23.2	0.00e+00	123	41	0	545259520	48	6013
2026-01-23 13:28:29.07	34.74	16.13	-37.5	-38.4	23.4	0.00e+00	123	41	0	548405248	48	5837
2026-01-23 13:28:30.08	34.86	16.22	-37.4	-38.3	23.4	0.00e+00	122	41	0	551550976	48	5791
2026-01-23 13:28:31.09	34.98	16.32	-37.5	-38.4	23.4	0.00e+00	123	41	0	554696704	48	5841
2026-01-23 13:28:32.10	35.11	16.41	-37.5	-38.5	23.4	0.00e+00	123	41	0	557842432	48	5870
2026-01-23 13:28:33.11	35.23	16.51	-37.4	-38.4	23.5	0.00e+00	123	41	0	560988160	48	5807
2026-01-23 13:28:34.12	35.35	16.60	-37.5	-38.4	23.4	0.00e+00	123	41	0	564133888	48	5819
2026-01-23 13:28:35.13	35.48	16.70	-37.5	-38.5	23.4	0.00e+00	122	41	0	567279616	48	5874
2026-01-23 13:28:36.14	35.60	16.79	-37.3	-38.2	23.6	0.00e+00	122	41	0	570425344	48	5724
2026-01-23 13:28:37.15	35.73	16.89	-37.3	-38.3	23.5	0.00e+00	122	41	0	573571072	48	5750
2026-01-23 13:28:38.16	35.85	16.99	-37.6	-38.5	23.3	0.00e+00	123	41	0	576716800	48	5901
2026-01-23 13:28:39.17	35.98	17.08	-37.5	-38.5	23.4	0.00e+00	122	41	0	579862528	48	5867
2026-01-23 13:28:40.18	36.11	17.18	-37.5	-38.5	23.4	0.00e+00	123	41	0	583008256	48	5868
2026-01-23 13:28:41.19	36.24	17.28	-37.5	-38.5	23.4	0.00e+00	121	41	0	586153984	48	5877
2026-01-23 13:28:42.20	36.37	17.38	-37.4	-38.4	23.5	0.00e+00	123	41	0	589299712	48	5795
2026-01-23 13:28:43.21	36.50	17.47	-37.4	-38.4	23.5	0.00e+00	123	41	0	592445440	48	5819
2026-01-23 13:28:44.22	36.63	17.57	-37.2	-38.1	23.7	0.00e+00	122	41	0	595591168	48	5630
2026-01-23 13:28:45.23	36.76	17.67	-37.3	-38.2	23.6	0.00e+00	123	41	0	598736896	48	5690
2026-01-23 13:28:46.24	36.89	17.77	-37.2	-38.2	23.7	0.00e+00	122	41	0	601882624	48	5681
2026-01-23 13:28:47.25	37.03	17.87	-37.3	-38.2	23.6	0.00e+00	120	41	0	605028352	48	5695
2026-01-23 13:28:48.26	37.16	17.97	-37.2	-38.1	23.6	0.00e+00	123	41	0	608174080	48	5647
2026-01-23 13:28:49.27	37.30	18.06	-37.1	-38.0	23.8	0.00e+00	120	41	0	611319808	48	5552
2026-01-23 13:28:50.28	37.43	18.16	-37.1	-38.1	23.8	0.00e+00	120	41	0	614465536	48	5608
2026-01-23 13:28:51.29	37.57	18.26	-37.3	-38.2	23.7	0.00e+00	123	41	0	617611264	48	5687
2026-01-23 13:28:52.30	37.71	18.36	-37.1	-38.0	23.7	0.00e+00	121	41	0	620756992	48	5563
2026-01-23 13:28:53.31	37.85	18.46	-37.2	-38.1	23.7	0.00e+00	122	41	0	623902720	48	5637
2026-01-23 13:28:54.32	37.99	18.56	-37.1	-38.0	23.8	0.00e+00	120	41	0	627048448	48	5557
2026-01-23 13:28:55.33	38.13	18.67	-37.0	-38.0	23.8	0.00e+00	120	41	0	630194176	48	5535
2026-01-23 13:28:56.34	38.27	18.77	-37.0	-38.0	23.8	0.00e+00	123	41	0	633339904	48	5546
2026-01-23 13:28:57.35	38.41	18.87	-37.2	-38.2	23.7	0.00e+00	122	41	0	636485632	48	5667
2026-01-23 13:28:58.36	38.56	18.97	-37.0	-38.0	23.9	0.00e+00	123	41	0	639631360	48	5534
2026-01-23 13:28:59.37	38.70	19.07	-37.0	-38.0	23.8	0.00e+00	122	41	0	642777088	48	5541
2026-01-23 13:29:00.38	38.84	19.17	-37.1	-38.0	23.8	0.00e+00	122	41	0	645922816	48	5588
2026-01-23 13:29:01.39	38.99	19.27	-37.0	-37.9	23.9	0.00e+00	123	41	0	649068544	48	5505
2026-01-23 13:29:02.40	39.14	19.38	-36.9	-37.8	24.0	0.00e+00	123	41	0	652214272	48	5451
2026-01-23 13:29:03.41	39.29	19.48	-37.0	-37.9	23.9	0.00e+00	120	41	0	655360000	48	5480
2026-01-23 13:29:04.42	39.44	19.58	-37.0	-37.9	23.9	0.00e+00	122	41	0	658505728	48	5486
2026-01-23 13:29:05.43	39.59	19.69	-37.1	-38.1	23.8	0.00e+00	123	41	0	661651456	48	5616
2026-01-23 13:29:06.43	39.73	19.79	-37.1	-38.0	23.8	0.00e+00	123	41	0	664797184	48	5568
2026-01-23 13:29:07.44	39.89	19.89	-37.0	-38.0	23.9	0.00e+00	122	41	0	667942912	48	5541
2026-01-23 13:29:08.45	40.04	20.00	-36.9	-37.8	23.9	0.00e+00	123	41	0	671088640	48	5449
2026-01-23 13:29:09.46	40.19	20.10	-36.9	-37.9	23.9	0.00e+00	118	41	0	674234368	48	5470
2026-01-23 13:29:10.47	40.35	20.20	-36.7	-37.7	24.0	0.00e+00	122	41	0	677380096	46	6006
2026-01-23 13:29:11.48	40.51	20.31	-36.8	-37.7	24.0	0.00e+00	123	41	0	680525824	46	6055
2026-01-23 13:29:12.49	40.66	20.41	-36.6	-37.6	24.1	0.00e+00	122	41	0	683671552	46	5927
2026-01-23 13:29:13.50	40.82	20.52	-36.6	-37.5	24.1	0.00e+00	122	41	0	686817280	46	5890
2026-01-23 13:29:14.51	40.98	20.62	-36.4	-37.3	24.3	0.00e+00	122	41	0	689963008	46	5766
2026-01-23 13:29:15.52	41.14	20.73	-36.5	-37.4	24.3	0.00e+00	123	41	0	693108736	46	5793
2026-01-23 13:29:16.53	41.30	20.84	-36.4	-37.3	24.3	0.00e+00	123	41	0	696254464	46	5763
2026-01-23 13:29:17.54	41.46	20.94	-36.5	-37.4	24.2	0.00e+00	120	41	0	699400192	46	5825
2026-01-23 13:29:18.55	41.63	21.05	-36.5	-37.4	24.2	0.00e+00	123	41	0	702545920	46	5796
2026-01-23 13:29:19.56	41.79	21.15	-36.3	-37.2	24.3	0.00e+00	121	41	0	705691648	46	5698
2026-01-23 13:29:20.57	41.96	21.26	-36.3	-37.2	24.3	0.00e+00	122	41	0	708837376	46	5708
2026-01-23 13:29:21.58	42.12	21.37	-36.3	-37.2	24.4	0.00e+00	120	41	0	711983104	46	5664
2026-01-23 13:29:22.59	42.29	21.48	-36.3	-37.2	24.4	0.00e+00	122	41	0	715128832	46	5669
2026-01-23 13:29:23.59	42.46	21.58	-36.5	-37.4	24.3	0.00e+00	123	41	0	718274560	46	5818
2026-01-23 13:29:24.60	42.63	21.69	-36.5	-37.4	24.3	0.00e+00	120	41	0	721420288	46	5830
2026-01-23 13:29:25.62	42.80	21.80	-36.3	-37.2	24.4	0.00e+00	123	41	0	724566016	46	5691
2026-01-23 13:29:26.63	42.98	21.91	-36.4	-37.3	24.4	0.00e+00	121	41	0	728760320	46	5778
2026-01-23 13:29:27.64	43.15	22.01	-36.5	-37.4	24.3	0.00e+00	123	41	0	730857472	46	5815
2026-01-23 13:29:28.65	43.32	22.12	-36.1	-37.0	24.6	0.00e+00	123	41	0	734003200	46	5558
2026-01-23 13:29:29.66	43.50	22.23	-36.1	-37.0	24.6	0.00e+00	123	41	0	737148928	46	5531
2026-01-23 13:29:30.67	43.68	22.34	-36.1	-36.9	24.7	0.00e+00	122	41	0	740294656	46	5517
2026-01-23 13:29:31.68	43.86	22.45	-36.0	-36.9	24.7	0.00e+00	120	41	0	744488960	46	5505
2026-01-23 13:29:32.69	44.04	22.56	-36.0	-36.9	24.6	0.00e+00	123	41	0	747634688	46	5480
2026-01-23 13:29:33.70	44.22	22.67	-36.1	-37.0	24.7	0.00e+00	123	41	0	750780416	46	5589
2026-01-23 13:29:34.71	44.40	22.78	-35.8	-36.7	24.8	0.00e+00	120	41	0	752877568	46	5351
2026-01-23 13:29:35.72	44.58	22.89	-35.7	-36.5	24.9	0.00e+00	123	41	0	756023296	44	5922
2026-01-23 13:29:36.73	44.77	23.00	-35.7	-36.6	25.0	0.00e+00	122	41	0	760217600	44	5934
2026-01-23 13:29:37.74	44.95	23.11	-35.8	-36.7	24.9	0.00e+00	123	42	0	763363328	44	6024
2026-01-23 13:29:38.75	45.14	23.22	-35.9	-36.8	24.8	0.00e+00	123	41	0	766509056	44	6106
2026-01-23 13:29:39.76	45.33	23.33	-35.7	-36.5	24.9	0.00e+00	122	42	0	769654784	44	5906
2026-01-23 13:29:40.77	45.52	23.44	-35.8	-36.7	24.9	0.00e+00	120	41	0	772800512	44	6006
2026-01-23 13:29:41.78	45.71	23.55	-35.6	-36.4	25.0	0.00e+00	122	42	0	775946240	44	5842
2026-01-23 13:29:42.79	45.90	23.66	-35.7	-36.6	24.9	0.00e+00	123	41	0	779091968	44	5932
2026-01-23 13:29:43.80	46.10	23.77	-35.6	-36.4	25.0	0.00e+00	123	41	0	782237696	44	5837
2026-01-23 13:29:44.81	46.29	23.88	-35.7	-36.6	24.9	0.00e+00	120	42	0	785383424	44	5963
2026-01-23 13:29:45.82	46.49	23.99	-35.7	-36.6	24.9	0.00e+00	122	41	0	788529152	44	5939
2026-01-23 13:29:46.83	46.69	24.10	-35.8	-36.7	24.9	0.00e+00	122	42	0	791674880	44	6007
2026-01-23 13:29:47.84	46.89	24.21	-35.7	-36.6	25.0	0.00e+00	123	41	0	794820608	44	5934
2026-01-23 13:29:48.85	47.09	24.33	-35.6	-36.5	24.9	0.00e+00	122	41	0	797966336	44	5863
2026-01-23 13:29:49.86	47.29	24.44	-35.6	-36.5	25.0	0.00e+00	123	41	0	801112064	44	5867
2026-01-23 13:29:50.87	47.49	24.55	-35.6	-36.5	24.9	0.00e+00	120	41	0	804257792	44	5895
2026-01-23 13:29:51.88	47.70	24.66	-35.7	-36.6	24.9	0.00e+00	123	41	0	807403520	44	5956
2026-01-23 13:29:52.89	47.90	24.77	-35.9	-36.7	24.7	0.00e+00	123	41	0	810549248	44	6057
2026-01-23 13:29:53.90	48.11	24.89	-35.8	-36.7	24.8	0.00e+00	123	41	0	813694976	44	6047
2026-01-23 13:29:54.92	48.32	25.00	-36.0	-36.9	24.7	0.00e+00	122	42	0	816840704	44	6138
2026-01-23 13:29:55.93	48.53	25.11	-36.0	-36.9	24.7	0.00e+00	120	41	0	819986432	44	6147
2026-01-23 13:29:56.94	48.74	25.22	-36.1	-37.0	24.6	0.00e+00	122	41	0	823132160	44	6243
2026-01-23 13:29:57.95	48.96	25.34	-36.3	-37.2	24.4	0.00e+00	120	41	0	826277888	44	6395
2026-01-23 13:29:58.96	49.17	25.45	-36.4	-37.3	24.4	0.00e+00	122	42	0	829423616	44	6474
2026-01-23 13:29:59.97	49.39	25.56	-36.5	-37.5	24.3	0.00e+00	122	41	0	832569344	44	6574
2026-01-23 13:30:00.97	49.61	25.67	-36.7	-37.6	24.2	0.00e+00	123	41	0	835715072	44	6679
2026-01-23 13:30:01.98	49.83	25.79	-36.6	-37.5	24.3	0.00e+00	123	41	0	838860800	44	6580
2026-01-23 13:30:02.99	50.05	25.90	-36.5	-37.4	24.4	0.00e+00	121	42	0	842006528	44	6507
2026-01-23 13:30:04.00	50.27	26.01	-36.4	-37.3	24.4	0.00e+00	122	41	0	845152256	44	6473
2026-01-23 13:30:05.01	50.49	26.12	-36.6	-37.5	24.2	0.00e+00	120	41	0	848297984	44	6588
2026-01-23 13:30:06.02	50.72	26.24	-36.5	-37.5	24.2	0.00e+00	123	42	0	851443712	44	6580
2026-01-23 13:30:07.03	50.95	26.35	-36.5	-37.4	24.2	0.00e+00	122	41	0	854589440	44	6568
2026-01-23 13:30:08.04	51.18	26.46	-36.5	-37.4	24.2	0.00e+00	122	41	0	857735168	44	6565
2026-01-23 13:30:09.05	51.41	26.58	-36.6	-37.5	24.2	0.00e+00	123	41	0	860880896	44	6596
2026-01-23 13:30:10.06	51.64	26.69	-36.7	-37.6	24.1	0.00e+00	120	41	0	864026624	44	6657
2026-01-23 13:30:11.07	51.87	26.80	-36.6	-37.5	24.2	0.00e+00	123	41	0	867172352	44	6602
2026-01-23 13:30:12.08	52.11	26.92	-36.7	-37.6	24.1	0.00e+00	122	41	0	870318080	44	6692
2026-01-23 13:30:13.09	52.35	27.03	-36.8	-37.7	24.1	0.00e+00	123	41	0	873463808	46	6054
2026-01-23 13:30:14.10	52.58	27.14	-36.9	-37.8	24.0	0.00e+00	121	41	0	876609536	46	6132
2026-01-23 13:30:15.11	52.83	27.25	-36.8	-37.7	24.1	0.00e+00	123	41	0	879755264	46	6008
2026-01-23 13:30:16.12	53.07	27.37	-36.7	-37.6	24.1	0.00e+00	123	41	0	882900992	46	5953
2026-01-23 13:30:17.13	53.31	27.48	-36.8	-37.6	24.2	0.00e+00	120	41	0	886046720	46	5993
2026-01-23 13:30:18.14	53.56	27.59	-36.8	-37.7	24.2	0.00e+00	122	41	0	889192448	46	6026
2026-01-23 13:30:19.15	53.80	27.70	-36.8	-37.7	24.1	0.00e+00	120	41	0	892338176	46	6036
2026-01-23 13:30:20.16	54.05	27.82	-37.1	-38.0	23.9	0.00e+00	120	41	0	895483904	46	6224
2026-01-23 13:30:21.17	54.30	27.93	-37.0	-37.9	24.0	0.00e+00	123	41	0	898629632	46	6203
2026-01-23 13:30:22.18	54.56	28.04	-37.1	-38.1	23.9	0.00e+00	123	41	0	901775360	46	6299
2026-01-23 13:30:23.19	54.81	28.15	-37.2	-38.2	23.7	0.00e+00	121	41	0	904921088	46	6368
2026-01-23 13:30:24.20	55.07	28.26	-37.1	-38.0	23.8	0.00e+00	123	41	0	908066816	46	6266
2026-01-23 13:30:25.21	55.32	28.38	-37.1	-38.0	23.9	0.00e+00	120	41	0	911212544	46	6236
2026-01-23 13:30:26.22	55.58	28.49	-37.1	-38.0	23.9	0.00e+00	123	42	0	914358272	46	6246
2026-01-23 13:30:27.23	55.84	28.60	-37.1	-38.0	24.0	0.00e+00	123	41	0	917504000	46	6240
2026-01-23 13:30:28.24	56.11	28.71	-37.0	-37.9	24.0	0.00e+00	122	41	0	920649728	46	6201
2026-01-23 13:30:29.25	56.37	28.82	-36.9	-37.9	24.1	0.00e+00	123	41	0	923795456	46	6140
2026-01-23 13:30:30.26	56.64	28.93	-37.1	-38.0	24.1	0.00e+00	123	41	0	926941184	46	6240
2026-01-23 13:30:31.27	56.91	29.04	-36.9	-37.9	24.0	0.00e+00	123	41	0	930086912	46	6138
2026-01-23 13:30:32.28	57.18	29.15	-36.9	-37.8	24.1	0.00e+00	122	41	0	933232640	46	6078
2026-01-23 13:30:33.29	57.45	29.26	-36.9	-37.8	24.1	0.00e+00	122	42	0	936378368	46	6097
2026-01-23 13:30:34.30	57.72	29.37	-36.9	-37.8	24.1	0.00e+00	123	41	0	939524096	46	6096
2026-01-23 13:30:35.31	58.00	29.48	-36.9	-37.8	24.0	0.00e+00	122	41	0	942669824	46	6109
2026-01-23 13:30:36.32	58.27	29.59	-37.0	-37.9	24.0	0.00e+00	123	42	0	945815552	46	6167
2026-01-23 13:30:37.33	58.55	29.70	-37.0	-37.9	23.9	0.00e+00	122	41	0	948961280	46	6190
2026-01-23 13:30:38.34	58.84	29.81	-37.0	-37.9	24.0	0.00e+00	123	41	0	952107008	46	6193
2026-01-23 13:30:39.35	59.12	29.92	-36.9	-37.8	24.1	0.00e+00	122	42	0	955252736	46	6112
2026-01-23 13:30:40.36	59.40	30.02	-36.7	-37.6	24.3	0.00e+00	123	42	0	958398464	46	5943
2026-01-23 13:30:41.37	59.69	30.13	-36.7	-37.6	24.3	0.00e+00	123	42	0	961544192	46	5935
2026-01-23 13:30:42.38	59.98	30.24	-36.5	-37.4	24.4	0.00e+00	123	41	0	964689920	46	5814
2026-01-23 13:30:43.39	60.27	30.34	-36.4	-37.3	24.5	0.00e+00	123	41	0	967835648	46	5748
2026-01-23 13:30:44.40	60.56	30.45	-36.2	-37.1	24.6	0.00e+00	120	41	0	970981376	46	5605
2026-01-23 13:30:45.41	60.86	30.56	-36.5	-37.4	24.4	0.00e+00	123	41	0	974127104	46	5827
2026-01-23 13:30:46.42	61.15	30.66	-36.3	-37.1	24.5	0.00e+00	120	42	0	977272832	46	5646
2026-01-23 13:30:47.43	61.45	30.77	-36.5	-37.4	24.3	0.00e+00	122	41	0	980418560	46	5794
2026-01-23 13:30:48.44	61.75	30.87	-36.7	-37.6	24.3	0.00e+00	120	42	0	983564288	46	5981
2026-01-23 13:30:49.45	62.05	30.98	-36.9	-37.8	24.1	0.00e+00	122	41	0	986710016	46	6131
2026-01-23 13:30:50.46	62.36	31.08	-36.8	-37.7	24.2	0.00e+00	122	42	0	989855744	46	6019
2026-01-23 13:30:51.47	62.66	31.18	-36.9	-37.8	24.1	0.00e+00	123	41	0	993001472	46	6116
2026-01-23 13:30:52.48	62.97	31.29	-36.7	-37.6	24.2	0.00e+00	120	41	0	996147200	46	5968
2026-01-23 13:30:53.49	63.28	31.39	-36.6	-37.6	24.3	0.00e+00	122	42	0	999292928	46	5939
2026-01-23 13:30:54.50	63.59	31.49	-36.6	-37.5	24.4	0.00e+00	121	41	0	1002438656	46	5871
2026-01-23 13:30:55.51	63.91	31.59	-36.5	-37.4	24.5	0.00e+00	123	41	0	1005584384	46	5798
2026-01-23 13:30:56.52	64.22	31.69	-36.6	-37.5	24.4	0.00e+00	123	41	0	1008730112	46	5868
2026-01-23 13:30:57.53	64.54	31.79	-36.6	-37.6	24.3	0.00e+00	120	41	0	1011875840	46	5927
2026-01-23 13:30:58.54	64.86	31.89	-36.9	-37.8	24.1	0.00e+00	123	41	0	1015021568	46	6112
2026-01-23 13:30:59.55	65.18	31.99	-37.0	-37.9	24.0	0.00e+00	122	42	0	1018167296	46	6152
2026-01-23 13:31:00.56	65.50	32.09	-36.9	-37.8	24.1	0.00e+00	123	42	0	1021313024	46	6128
2026-01-23 13:31:01.57	65.83	32.18	-37.0	-37.8	24.0	0.00e+00	123	42	0	1024458752	46	6127
2026-01-23 13:31:02.58	66.15	32.28	-37.0	-37.9	24.0	0.00e+00	123	42	0	1027604480	46	6200
2026-01-23 13:31:03.59	66.48	32.38	-37.3	-38.2	23.8	0.00e+00	123	42	0	1030750208	46	6389
2026-01-23 13:31:04.60	66.81	32.47	-37.4	-38.3	23.8	0.00e+00	123	42	0	1033895936	46	6454
2026-01-23 13:31:05.61	67.15	32.57	-37.2	-38.2	23.9	0.00e+00	123	42	0	1037041664	46	6354
2026-01-23 13:31:06.62	67.48	32.66	-37.2	-38.2	23.8	0.00e+00	122	41	0	1040187392	46	6355
2026-01-23 13:31:07.63	67.82	32.75	-37.3	-38.2	23.8	0.00e+00	122	42	0	1044381696	46	6379
2026-01-23 13:31:08.64	68.16	32.84	-37.3	-38.2	23.8	0.00e+00	122	41	0	1046478848	46	6408
2026-01-23 13:31:09.65	68.50	32.94	-37.3	-38.2	23.8	0.00e+00	123	41	0	1049624576	46	6377
2026-01-23 13:31:10.66	68.84	33.03	-37.5	-38.4	23.6	0.00e+00	122	41	0	1052770304	46	6550
2026-01-23 13:31:11.67	69.18	33.12	-37.6	-38.5	23.6	0.00e+00	122	42	0	1056964608	46	6598
2026-01-23 13:31:12.68	69.53	33.20	-37.8	-38.8	23.3	0.00e+00	123	42	0	1060110336	48	6100
2026-01-23 13:31:13.69	69.88	33.29	-37.9	-38.8	23.3	0.00e+00	123	42	0	1063256064	48	6099
2026-01-23 13:31:14.70	70.23	33.38	-37.7	-38.7	23.4	0.00e+00	123	42	0	1066401792	48	5998
2026-01-23 13:31:15.71	70.58	33.46	-37.5	-38.5	23.6	0.00e+00	121	42	0	1068498944	48	5874
2026-01-23 13:31:16.72	70.93	33.55	-37.4	-38.4	23.6	0.00e+00	123	42	0	1071644672	48	5798
2026-01-23 13:31:17.73	71.29	33.63	-37.4	-38.3	23.6	0.00e+00	120	42	0	1075838976	48	5776
2026-01-23 13:31:18.74	71.64	33.72	-37.4	-38.4	23.6	0.00e+00	123	42	0	1078984704	48	5804
2026-01-23 13:31:19.75	72.00	33.80	-37.6	-38.5	23.5	0.00e+00	123	42	0	1082130432	48	5921
2026-01-23 13:31:20.76	72.36	33.88	-37.8	-38.7	23.3	0.00e+00	123	42	0	1085276160	48	6052
2026-01-23 13:31:21.77	72.73	33.96	-37.6	-38.6	23.5	0.00e+00	123	42	0	1088421888	48	5939
2026-01-23 13:31:22.78	73.09	34.04	-37.5	-38.5	23.5	0.00e+00	122	42	0	1091567616	48	5887
2026-01-23 13:31:23.79	73.46	34.12	-37.5	-38.4	23.6	0.00e+00	122	42	0	1094713344	48	5856
2026-01-23 13:31:24.80	73.82	34.19	-37.2	-38.1	23.8	0.00e+00	122	42	0	1097859072	48	5611
2026-01-23 13:31:25.81	74.19	34.27	-37.2	-38.2	23.6	0.00e+00	122	42	0	1101004800	48	5667
2026-01-23 13:31:26.82	74.56	34.35	-37.3	-38.2	23.5	0.00e+00	123	42	0	1104150528	48	5699
2026-01-23 13:31:27.83	74.94	34.42	-37.4	-38.4	23.5	0.00e+00	123	42	0	1107296256	48	5796
2026-01-23 13:31:28.84	75.31	34.49	-37.5	-38.4	23.6	0.00e+00	123	42	0	1110441984	48	5819
2026-01-23 13:31:29.85	75.69	34.56	-37.4	-38.4	23.6	0.00e+00	123	42	0	1113587712	48	5797
2026-01-23 13:31:30.86	76.06	34.63	-37.4	-38.3	23.6	0.00e+00	123	42	0	1116733440	48	5791
2026-01-23 13:31:31.87	76.44	34.70	-37.3	-38.3	23.6	0.00e+00	123	42	0	1119879168	48	5727
2026-01-23 13:31:32.88	76.83	34.77	-37.6	-38.5	23.3	0.00e+00	123	42	0	1123024896	48	5897
2026-01-23 13:31:33.89	77.21	34.83	-37.6	-38.6	23.2	0.00e+00	122	41	0	1126170624	48	5933
2026-01-23 13:31:34.90	77.59	34.90	-37.7	-38.7	23.2	0.00e+00	123	42	0	1129316352	48	6005
2026-01-23 13:31:35.91	77.98	34.96	-37.6	-38.5	23.4	0.00e+00	122	42	0	1132462080	48	5914
2026-01-23 13:31:36.92	78.36	35.03	-37.5	-38.5	23.5	0.00e+00	122	42	0	1135607808	48	5873
2026-01-23 13:31:37.93	78.75	35.09	-37.7	-38.7	23.4	0.00e+00	120	42	0	1138753536	48	6012
2026-01-23 13:31:38.94	79.14	35.15	-37.7	-38.7	23.3	0.00e+00	123	42	0	1141899264	48	6005
2026-01-23 13:31:39.95	79.53	35.21	-37.8	-38.7	23.3	0.00e+00	122	42	0	1145044992	48	6044
2026-01-23 13:31:40.96	79.93	35.26	-37.7	-38.7	23.5	0.00e+00	122	42	0	1148190720	48	6006
2026-01-23 13:31:41.97	80.32	35.32	-37.5	-38.5	23.6	0.00e+00	123	42	0	1151336448	48	5859
2026-01-23 13:31:42.97	80.71	35.37	-37.4	-38.4	23.6	0.00e+00	120	42	0	1154482176	48	5803
2026-01-23 13:31:43.99	81.11	35.43	-37.4	-38.3	23.7	0.00e+00	122	42	0	1157627904	48	5789
2026-01-23 13:31:45.00	81.51	35.48	-37.6	-38.5	23.6	0.00e+00	120	42	0	1160773632	48	5908
2026-01-23 13:31:46.00	81.90	35.53	-37.8	-38.8	23.3	0.00e+00	123	41	0	1163919360	48	6099
2026-01-23 13:31:47.02	82.31	35.58	-37.7	-38.6	23.4	0.00e+00	122	42	0	1167065088	48	5987
2026-01-23 13:31:48.02	82.71	35.62	-37.6	-38.5	23.5	0.00e+00	123	42	0	1170210816	48	5909
2026-01-23 13:31:49.04	83.11	35.67	-37.7	-38.7	23.4	0.00e+00	123	42	0	1173356544	48	5999
2026-01-23 13:31:50.05	83.52	35.71	-37.8	-38.7	23.3	0.00e+00	123	42	0	1176502272	48	6041
2026-01-23 13:31:51.06	83.92	35.76	-38.0	-38.9	23.1	0.00e+00	121	41	0	1179648000	48	6200
2026-01-23 13:31:52.07	84.33	35.80	-38.2	-39.1	22.9	0.00e+00	123	42	0	1182793728	48	6336
2026-01-23 13:31:53.08	84.73	35.84	-38.3	-39.3	22.9	0.00e+00	123	42	0	1185939456	48	6435
2026-01-23 13:31:54.09	85.14	35.87	-38.3	-39.3	22.9	0.00e+00	123	41	0	1189085184	48	6489
2026-01-23 13:31:55.10	85.55	35.91	-38.4	-39.4	22.8	0.00e+00	120	41	0	1192230912	48	6552
2026-01-23 13:31:56.10	85.95	35.95	-38.5	-39.6	22.7	0.00e+00	123	42	0	1195376640	48	6657
2026-01-23 13:31:57.11	86.37	35.98	-38.3	-39.3	22.9	0.00e+00	123	42	0	1198522368	48	6460
2026-01-23 13:31:58.12	86.78	36.01	-38.1	-39.1	23.0	0.00e+00	120	42	0	1201668096	48	6323
2026-01-23 13:31:59.13	87.19	36.04	-38.0	-38.9	23.2	0.00e+00	123	42	0	1204813824	48	6199
2026-01-23 13:32:00.14	87.60	36.07	-37.8	-38.8	23.4	0.00e+00	122	42	0	1207959552	48	6076
2026-01-23 13:32:01.15	88.01	36.10	-37.8	-38.7	23.5	0.00e+00	123	42	0	1211105280	48	6060
2026-01-23 13:32:02.16	88.43	36.12	-37.9	-38.9	23.3	0.00e+00	123	42	0	1214251008	48	6154
2026-01-23 13:32:03.17	88.84	36.15	-38.0	-38.9	23.3	0.00e+00	123	42	0	1217396736	48	6175
2026-01-23 13:32:04.18	89.26	36.17	-38.1	-39.1	23.2	0.00e+00	123	41	0	1220542464	48	6292
2026-01-23 13:32:05.19	89.67	36.19	-38.0	-38.9	23.3	0.00e+00	123	41	0	1223688192	48	6196
2026-01-23 13:32:06.20	90.09	36.21	-37.9	-38.8	23.2	0.00e+00	122	42	0	1226833920	48	6126
2026-01-23 13:32:07.21	90.51	36.23	-37.9	-38.9	23.1	0.00e+00	120	42	0	1229979648	48	6196
2026-01-23 13:32:08.22	90.93	36.24	-38.1	-39.0	23.1	0.00e+00	123	42	0	1233125376	48	6273
2026-01-23 13:32:09.23	91.34	36.25	-37.8	-38.8	23.4	0.00e+00	123	41	0	1236271104	48	6070
2026-01-23 13:32:10.24	91.76	36.27	-37.8	-38.8	23.3	0.00e+00	123	42	0	1239416832	48	6074
2026-01-23 13:32:11.25	92.18	36.28	-37.9	-38.8	23.2	0.00e+00	123	42	0	1242562560	48	6110
2026-01-23 13:32:12.26	92.60	36.29	-37.9	-38.8	23.3	0.00e+00	123	41	0	1245708288	48	6124
2026-01-23 13:32:13.27	93.02	36.29	-37.6	-38.5	23.6	0.00e+00	120	42	0	1248854016	48	5914
2026-01-23 13:32:14.28	93.44	36.30	-37.5	-38.5	23.6	0.00e+00	123	42	0	1251999744	48	5859
2026-01-23 13:32:15.29	93.86	36.30	-37.3	-38.2	23.8	0.00e+00	120	42	0	1255145472	48	5703
2026-01-23 13:32:16.30	94.27	36.31	-37.3	-38.3	23.8	0.00e+00	120	42	0	1258291200	48	5731
2026-01-23 13:32:17.31	94.69	36.31	-37.6	-38.6	23.6	0.00e+00	123	42	0	1261436928	48	5933
2026-01-23 13:32:18.32	95.11	36.30	-37.6	-38.6	23.5	0.00e+00	123	41	0	1264582656	48	5935
2026-01-23 13:32:19.33	95.53	36.30	-37.6	-38.5	23.6	0.00e+00	120	42	0	1267728384	48	5892
2026-01-23 13:32:20.34	95.95	36.30	-37.8	-38.7	23.5	0.00e+00	123	42	0	1270874112	48	6023
2026-01-23 13:32:21.35	96.37	36.29	-37.9	-38.9	23.3	0.00e+00	122	41	0	1274019840	48	6160
2026-01-23 13:32:22.36	96.79	36.28	-38.1	-39.1	23.1	0.00e+00	122	42	0	1277165568	48	6287
2026-01-23 13:32:23.37	97.21	36.27	-38.2	-39.2	22.9	0.00e+00	122	42	0	1280311296	48	6404
2026-01-23 13:32:24.38	97.63	36.26	-38.2	-39.2	23.0	0.00e+00	123	42	0	1283457024	48	6379
2026-01-23 13:32:25.39	98.04	36.25	-38.0	-39.0	23.2	0.00e+00	120	42	0	1286602752	48	6220
2026-01-23 13:32:26.40	98.46	36.23	-38.2	-39.2	22.9	0.00e+00	122	42	0	1289748480	48	6394
2026-01-23 13:32:27.41	98.88	36.22	-38.3	-39.3	22.9	0.00e+00	120	42	0	1292894208	48	6469
2026-01-23 13:32:28.42	99.30	36.20	-38.3	-39.3	23.0	0.00e+00	123	42	0	1296039936	48	6463
2026-01-23 13:32:29.43	99.71	36.18	-38.2	-39.2	23.1	0.00e+00	122	42	0	1299185664	48	6364
2026-01-23 13:32:30.44	100.13	36.16	-38.1	-39.1	23.2	0.00e+00	123	42	0	1302331392	48	6294
2026-01-23 13:32:31.45	100.54	36.14	-38.0	-39.0	23.2	0.00e+00	123	42	0	1305477120	48	6226
2026-01-23 13:32:32.46	100.96	36.11	-38.1	-39.1	23.1	0.00e+00	123	42	0	1308622848	48	6287
2026-01-23 13:32:33.47	101.37	36.09	-38.1	-39.1	23.1	0.00e+00	120	42	0	1311768576	48	6285
2026-01-23 13:32:34.48	101.79	36.06	-37.9	-38.9	23.2	0.00e+00	123	42	0	1314914304	48	6166
2026-01-23 13:32:35.49	102.20	36.03	-38.0	-39.0	23.2	0.00e+00	122	42	0	1318060032	48	6235
2026-01-23 13:32:36.49	102.61	36.00	-38.2	-39.1	23.1	0.00e+00	123	42	0	1321205760	48	6346
2026-01-23 13:32:37.50	103.02	35.96	-38.3	-39.2	23.0	0.00e+00	123	42	0	1324351488	48	6420
2026-01-23 13:32:38.51	103.43	35.93	-38.5	-39.5	22.8	0.00e+00	120	42	0	1327497216	48	6636
2026-01-23 13:32:39.52	103.84	35.89	-38.5	-39.5	22.8	0.00e+00	123	42	0	1330642944	48	6637
2026-01-23 13:32:40.53	104.25	35.86	-38.4	-39.4	22.9	0.00e+00	123	42	0	1333788672	48	6530
2026-01-23 13:32:41.54	104.65	35.82	-38.4	-39.4	22.9	0.00e+00	120	42	0	1336934400	48	6520
2026-01-23 13:32:42.55	105.06	35.78	-38.2	-39.2	23.0	0.00e+00	122	42	0	1340080128	48	6381
2026-01-23 13:32:43.55	105.46	35.74	-38.2	-39.1	23.1	0.00e+00	122	42	0	1343225856	48	6349
2026-01-23 13:32:44.56	105.87	35.69	-38.0	-38.9	23.2	0.00e+00	123	42	0	1346371584	48	6201
2026-01-23 13:32:45.57	106.27	35.65	-38.1	-39.0	23.2	0.00e+00	123	42	0	1349517312	48	6268
2026-01-23 13:32:46.58	106.67	35.60	-38.2	-39.2	23.1	0.00e+00	123	42	0	1352663040	48	6373
2026-01-23 13:32:47.59	107.08	35.55	-38.2	-39.1	23.1	0.00e+00	123	42	0	1355808768	48	6343
2026-01-23 13:32:48.60	107.48	35.50	-38.3	-39.3	23.0	0.00e+00	123	42	0	1358954496	48	6457
2026-01-23 13:32:49.61	107.88	35.45	-38.4	-39.4	22.8	0.00e+00	122	42	0	1362100224	48	6563
2026-01-23 13:32:50.62	108.27	35.40	-38.3	-39.3	22.9	0.00e+00	122	42	0	1365245952	48	6471
2026-01-23 13:32:51.64	108.67	35.35	-38.4	-39.4	22.8	0.00e+00	122	42	0	1368391680	48	6571
2026-01-23 13:32:52.64	109.07	35.29	-38.4	-39.4	22.8	0.00e+00	122	42	0	1371537408	48	6554
2026-01-23 13:32:53.65	109.46	35.24	-38.3	-39.3	23.0	0.00e+00	123	42	0	1374683136	48	6460
2026-01-23 13:32:54.66	109.85	35.18	-38.0	-38.9	23.2	0.00e+00	122	42	0	1377828864	48	6205
2026-01-23 13:32:55.67	110.24	35.12	-38.0	-38.9	23.3	0.00e+00	122	42	0	1382023168	48	6193
2026-01-23 13:32:56.68	110.63	35.06	-38.2	-39.2	23.0	0.00e+00	122	42	0	1385168896	48	6352
2026-01-23 13:32:57.69	111.02	35.00	-38.2	-39.2	23.0	0.00e+00	120	42	0	1387266048	48	6401
2026-01-23 13:32:58.70	111.41	34.93	-38.2	-39.2	23.0	0.00e+00	123	42	0	1390411776	48	6366
2026-01-23 13:32:59.71	111.79	34.87	-38.1	-39.1	23.0	0.00e+00	122	42	0	1393557504	48	6308
2026-01-23 13:33:00.72	112.18	34.80	-38.1	-39.0	23.2	0.00e+00	123	42	0	1396703232	48	6277
2026-01-23 13:33:01.72	112.56	34.74	-37.6	-38.6	23.5	0.00e+00	123	42	0	1400897536	48	5929
2026-01-23 13:33:02.73	112.94	34.67	-37.6	-38.5	23.7	0.00e+00	123	42	0	1404043264	48	5887
2026-01-23 13:33:03.74	113.32	34.60	-37.5	-38.4	23.7	0.00e+00	123	42	0	1407188992	48	5829
2026-01-23 13:33:04.75	113.69	34.53	-37.3	-38.2	23.9	0.00e+00	123	42	0	1409286144	48	5724
2026-01-23 13:33:05.77	114.07	34.45	-37.4	-38.3	23.8	0.00e+00	122	42	0	1412431872	48	5729
2026-01-23 13:33:06.78	114.45	34.38	-37.4	-38.3	23.6	0.00e+00	122	42	0	1416626176	48	5764
2026-01-23 13:33:07.79	114.82	34.31	-37.8	-38.7	23.3	0.00e+00	122	42	0	1419771904	48	6062
2026-01-23 13:33:08.80	115.19	34.23	-37.7	-38.7	23.3	0.00e+00	120	42	0	1422917632	48	6012
2026-01-23 13:33:09.80	115.56	34.16	-37.6	-38.6	23.5	0.00e+00	122	42	0	1426063360	48	5959
2026-01-23 13:33:10.81	115.93	34.08	-37.7	-38.7	23.3	0.00e+00	122	42	0	1429209088	48	6008
2026-01-23 13:33:11.82	116.29	34.00	-38.2	-39.1	23.0	0.00e+00	123	42	0	1432354816	48	6324
2026-01-23 13:33:12.83	116.66	33.92	-38.0	-39.0	23.0	0.00e+00	121	42	0	1435500544	48	6245
2026-01-23 13:33:13.84	117.02	33.84	-38.3	-39.3	22.9	0.00e+00	123	42	0	1438646272	48	6434
2026-01-23 13:33:14.85	117.38	33.76	-38.4	-39.3	22.9	0.00e+00	122	42	0	1441792000	48	6472
2026-01-23 13:33:15.86	117.74	33.67	-38.2	-39.2	23.1	0.00e+00	125	42	0	1444937728	48	6366
2026-01-23 13:33:16.87	118.10	33.59	-38.6	-39.5	23.0	0.00e+00	123	42	0	1448083456	48	6644
2026-01-23 13:33:17.88	118.45	33.50	-38.4	-39.4	22.8	0.00e+00	122	42	0	1451229184	48	6529
2026-01-23 13:33:18.89	118.81	33.42	-38.3	-39.3	22.9	0.00e+00	123	42	0	1454374912	48	6459
2026-01-23 13:33:19.90	119.16	33.33	-38.1	-39.0	23.2	0.00e+00	122	42	0	1457520640	48	6274
2026-01-23 13:33:20.91	119.51	33.24	-38.0	-39.0	23.2	0.00e+00	122	42	0	1460666368	48	6236
2026-01-23 13:33:21.92	119.85	33.16	-38.0	-39.0	23.2	0.00e+00	122	42	0	1463812096	48	6224
2026-01-23 13:33:22.93	120.20	33.07	-37.6	-38.5	23.6	0.00e+00	120	42	0	1466957824	48	5913
2026-01-23 13:33:23.94	120.55	32.98	-37.2	-38.1	23.9	0.00e+00	122	42	0	1470103552	48	5633
2026-01-23 13:33:24.95	120.89	32.88	-37.3	-38.3	23.7	0.00e+00	123	42	0	1473249280	48	5728
2026-01-23 13:33:25.96	121.23	32.79	-37.2	-38.2	23.7	0.00e+00	122	42	0	1476395008	48	5662
2026-01-23 13:33:26.97	121.57	32.70	-37.4	-38.3	23.5	0.00e+00	123	42	0	1479540736	48	5776
2026-01-23 13:33:27.98	121.90	32.61	-37.2	-38.1	23.7	0.00e+00	123	42	0	1482686464	48	5626
2026-01-23 13:33:28.99	122.24	32.51	-37.0	-37.9	23.8	0.00e+00	122	42	0	1485832192	48	5483
2026-01-23 13:33:30.00	122.57	32.42	-36.8	-37.7	24.0	0.00e+00	122	42	0	1488977920	48	5389
2026-01-23 13:33:31.01	122.90	32.32	-36.8	-37.7	24.0	0.00e+00	123	42	0	1492123648	48	5386
2026-01-23 13:33:32.02	123.23	32.22	-36.8	-37.7	24.0	0.00e+00	122	42	0	1495269376	46	6056
2026-01-23 13:33:33.03	123.56	32.13	-37.0	-38.0	23.9	0.00e+00	123	42	0	1498415104	46	6208
2026-01-23 13:33:34.04	123.88	32.03	-37.1	-38.0	23.8	0.00e+00	122	42	0	1501560832	46	6265
2026-01-23 13:33:35.04	124.20	31.93	-36.9	-37.9	23.9	0.00e+00	122	42	0	1504706560	46	6152
2026-01-23 13:33:36.05	124.52	31.83	-37.0	-37.9	23.7	0.00e+00	123	42	0	1507852288	46	6197
2026-01-23 13:33:37.06	124.84	31.73	-36.9	-37.9	23.9	0.00e+00	123	42	0	1510998016	46	6138
2026-01-23 13:33:38.07	125.16	31.63	-36.9	-37.9	23.8	0.00e+00	122	42	0	1514143744	46	6136
2026-01-23 13:33:39.08	125.48	31.53	-37.1	-38.1	23.9	0.00e+00	123	42	0	1517289472	46	6293
2026-01-23 13:33:40.09	125.79	31.43	-36.9	-37.9	24.1	0.00e+00	123	42	0	1520435200	46	6146
2026-01-23 13:33:41.10	126.10	31.32	-36.9	-37.8	24.2	0.00e+00	123	42	0	1523580928	46	6103
2026-01-23 13:33:42.11	126.41	31.22	-36.7	-37.6	24.3	0.00e+00	120	42	0	1526726656	46	5943
2026-01-23 13:33:43.12	126.72	31.12	-36.7	-37.6	24.2	0.00e+00	122	42	0	1529872384	46	5986
2026-01-23 13:33:44.13	127.03	31.01	-36.9	-37.8	24.2	0.00e+00	122	42	0	1533018112	46	6070
2026-01-23 13:33:45.14	127.33	30.91	-36.9	-37.8	24.2	0.00e+00	122	42	0	1536163840	46	6087
2026-01-23 13:33:46.15	127.63	30.80	-37.0	-37.9	24.1	0.00e+00	120	42	0	1539309568	46	6158
2026-01-23 13:33:47.16	127.93	30.70	-37.0	-37.9	24.1	0.00e+00	122	42	0	1542455296	46	6172
2026-01-23 13:33:48.17	128.23	30.59	-36.9	-37.8	24.1	0.00e+00	122	42	0	1545601024	46	6112
2026-01-23 13:33:49.18	128.53	30.49	-37.0	-37.9	24.1	0.00e+00	122	42	0	1548746752	46	6172
2026-01-23 13:33:50.19	128.82	30.38	-36.7	-37.6	24.3	0.00e+00	120	42	0	1551892480	46	5987
2026-01-23 13:33:51.20	129.11	30.27	-36.6	-37.5	24.4	0.00e+00	123	42	0	1555038208	46	5882
2026-01-23 13:33:52.21	129.41	30.17	-36.4	-37.3	24.4	0.00e+00	122	42	0	1558183936	46	5775
2026-01-23 13:33:53.22	129.69	30.06	-36.3	-37.2	24.3	0.00e+00	123	42	0	1561329664	46	5660
2026-01-23 13:33:54.23	129.98	29.95	-36.2	-37.1	24.4	0.00e+00	123	42	0	1564475392	46	5628
2026-01-23 13:33:55.24	130.27	29.84	-36.3	-37.2	24.4	0.00e+00	120	42	0	1567621120	46	5694
2026-01-23 13:33:56.25	130.55	29.73	-36.2	-37.1	24.5	0.00e+00	122	42	0	1570766848	46	5623
2026-01-23 13:33:57.26	130.83	29.62	-36.3	-37.1	24.4	0.00e+00	122	42	0	1573912576	46	5659
2026-01-23 13:33:58.27	131.11	29.51	-36.3	-37.1	24.5	0.00e+00	123	42	0	1577058304	46	5657
2026-01-23 13:33:59.28	131.39	29.40	-36.4	-37.3	24.4	0.00e+00	120	42	0	1580204032	46	5772
2026-01-23 13:34:00.29	131.66	29.29	-36.3	-37.2	24.6	0.00e+00	123	42	0	1583349760	46	5684
2026-01-23 13:34:01.30	131.94	29.18	-36.4	-37.3	24.5	0.00e+00	120	42	0	1586495488	46	5745
2026-01-23 13:34:02.31	132.21	29.07	-36.3	-37.2	24.5	0.00e+00	123	42	0	1589641216	46	5691
2026-01-23 13:34:03.31	132.48	28.96	-36.5	-37.4	24.4	0.00e+00	120	42	0	1592786944	46	5802
2026-01-23 13:34:04.33	132.75	28.85	-36.7	-37.6	24.1	0.00e+00	122	42	0	1595932672	46	5993
2026-01-23 13:34:05.34	133.01	28.74	-36.9	-37.9	23.9	0.00e+00	121	42	0	1599078400	46	6146
2026-01-23 13:34:06.35	133.28	28.63	-36.9	-37.8	24.0	0.00e+00	123	42	0	1602224128	46	6121
2026-01-23 13:34:07.36	133.54	28.51	-36.7	-37.6	24.3	0.00e+00	121	42	0	1605369856	46	5979
2026-01-23 13:34:08.37	133.80	28.40	-36.8	-37.6	24.2	0.00e+00	122	42	0	1608515584	46	5993
2026-01-23 13:34:09.37	134.06	28.29	-36.7	-37.6	24.2	0.00e+00	120	42	0	1611661312	46	5962
2026-01-23 13:34:10.38	134.32	28.18	-36.6	-37.5	24.3	0.00e+00	123	42	0	1614807040	46	5895
2026-01-23 13:34:11.39	134.57	28.07	-36.4	-37.3	24.5	0.00e+00	122	42	0	1617952768	46	5726
2026-01-23 13:34:12.40	134.83	27.95	-36.4	-37.3	24.6	0.00e+00	120	42	0	1621098496	46	5750
2026-01-23 13:34:13.41	135.08	27.84	-36.2	-37.1	24.7	0.00e+00	122	42	0	1624244224	46	5599
2026-01-23 13:34:14.42	135.33	27.73	-36.2	-37.1	24.7	0.00e+00	120	42	0	1627389952	46	5595
2026-01-23 13:34:15.43	135.58	27.61	-36.2	-37.1	24.7	0.00e+00	120	42	0	1630535680	46	5605
2026-01-23 13:34:16.44	135.83	27.50	-36.2	-37.0	24.7	0.00e+00	122	42	0	1633681408	46	5579
2026-01-23 13:34:17.45	136.07	27.39	-36.1	-37.0	24.7	0.00e+00	123	42	0	1636827136	46	5552
2026-01-23 13:34:18.46	136.31	27.27	-36.1	-37.0	24.7	0.00e+00	123	42	0	1639972864	46	5531
2026-01-23 13:34:19.47	136.56	27.16	-36.2	-37.0	24.7	0.00e+00	123	42	0	1643118592	46	5586
2026-01-23 13:34:20.47	136.79	27.05	-36.3	-37.1	24.6	0.00e+00	120	42	0	1646264320	46	5654
2026-01-23 13:34:21.48	137.03	26.93	-36.3	-37.2	24.7	0.00e+00	122	42	0	1649410048	46	5684
2026-01-23 13:34:22.49	137.27	26.82	-36.2	-37.1	24.5	0.00e+00	123	42	0	1652555776	46	5625
2026-01-23 13:34:23.50	137.51	26.71	-36.1	-37.0	24.7	0.00e+00	123	42	0	1655701504	46	5551
2026-01-23 13:34:24.51	137.74	26.59	-36.3	-37.2	24.5	0.00e+00	122	42	0	1658847232	46	5661
2026-01-23 13:34:25.52	137.97	26.48	-36.4	-37.3	24.5	0.00e+00	123	42	0	1661992960	46	5731
2026-01-23 13:34:26.53	138.20	26.37	-36.4	-37.3	24.4	0.00e+00	122	42	0	1665138688	46	5779
2026-01-23 13:34:27.54	138.43	26.25	-36.2	-37.1	24.6	0.00e+00	120	42	0	1668284416	46	5626
2026-01-23 13:34:28.55	138.66	26.14	-36.3	-37.2	24.5	0.00e+00	123	42	0	1671430144	46	5671
2026-01-23 13:34:29.56	138.89	26.03	-36.3	-37.1	24.6	0.00e+00	120	42	0	1674575872	46	5650
2026-01-23 13:34:30.57	139.11	25.91	-36.0	-36.9	24.7	0.00e+00	123	42	0	1677721600	46	5514
2026-01-23 13:34:31.58	139.33	25.80	-36.1	-37.0	24.7	0.00e+00	120	42	0	1680867328	46	5548
2026-01-23 13:34:32.59	139.55	25.69	-36.1	-37.0	24.7	0.00e+00	123	42	0	1684013056	46	5543
2026-01-23 13:34:33.60	139.77	25.57	-36.0	-36.8	24.8	0.00e+00	120	42	0	1687158784	46	5455
2026-01-23 13:34:34.61	139.99	25.46	-35.8	-36.6	25.0	0.00e+00	123	42	0	1690304512	46	5321
2026-01-23 13:34:35.62	140.21	25.35	-35.7	-36.6	24.9	0.00e+00	123	42	0	1693450240	44	5940
2026-01-23 13:34:36.63	140.42	25.23	-35.8	-36.7	24.9	0.00e+00	123	42	0	1696595968	44	6001
2026-01-23 13:34:37.64	140.64	25.12	-35.7	-36.6	24.9	0.00e+00	120	42	0	1699741696	44	5957
2026-01-23 13:34:38.65	140.85	25.01	-35.8	-36.7	24.9	0.00e+00	122	42	0	1702887424	44	6022
2026-01-23 13:34:39.66	141.06	24.89	-36.0	-36.9	24.7	0.00e+00	121	42	0	1706033152	44	6160
2026-01-23 13:34:40.67	141.27	24.78	-36.0	-36.9	24.7	0.00e+00	123	42	0	1709178880	44	6175
2026-01-23 13:34:41.68	141.48	24.67	-35.9	-36.7	24.7	0.00e+00	123	42	0	1712324608	44	6058
2026-01-23 13:34:42.69	141.68	24.55	-35.8	-36.7	24.8	0.00e+00	123	42	0	1715470336	44	6007
2026-01-23 13:34:43.69	141.88	24.44	-36.0	-36.9	24.6	0.00e+00	120	42	0	1718616064	44	6171
2026-01-23 13:34:44.70	142.09	24.33	-35.9	-36.7	24.7	0.00e+00	122	42	0	1721761792	44	6064
2026-01-23 13:34:45.71	142.29	24.22	-35.9	-36.8	24.7	0.00e+00	123	42	0	1724907520	44	6104
2026-01-23 13:34:46.72	142.49	24.10	-35.8	-36.7	24.7	0.00e+00	123	42	0	1728053248	44	6054
2026-01-23 13:34:47.73	142.69	23.99	-35.9	-36.8	24.7	0.00e+00	122	42	0	1731198976	44	6098
2026-01-23 13:34:48.74	142.89	23.88	-35.9	-36.8	24.8	0.00e+00	122	42	0	1734344704	44	6105
2026-01-23 13:34:49.75	143.08	23.77	-35.9	-36.8	24.7	0.00e+00	122	42	0	1737490432	44	6118
2026-01-23 13:34:50.76	143.28	23.66	-35.9	-36.7	24.8	0.00e+00	123	42	0	1740636160	44	6050
2026-01-23 13:34:51.77	143.47	23.54	-35.9	-36.7	24.9	0.00e+00	123	42	0	1744830464	44	6059
2026-01-23 13:34:52.78	143.66	23.43	-36.1	-36.9	24.7	0.00e+00	123	42	0	1747976192	44	6191
2026-01-23 13:34:53.79	143.86	23.32	-36.0	-36.9	24.7	0.00e+00	123	42	0	1750073344	44	6175
2026-01-23 13:34:54.80	144.05	23.21	-36.2	-37.1	24.5	0.00e+00	123	42	0	1753219072	44	6296
2026-01-23 13:34:55.82	144.24	23.10	-36.2	-37.1	24.5	0.00e+00	122	42	0	1756364800	44	6345
2026-01-23 13:34:56.83	144.42	22.99	-36.3	-37.2	24.4	0.00e+00	123	42	0	1760559104	44	6406
2026-01-23 13:34:57.83	144.61	22.88	-36.3	-37.2	24.4	0.00e+00	122	42	0	1763704832	44	6405
2026-01-23 13:34:58.84	144.79	22.77	-36.4	-37.3	24.4	0.00e+00	122	42	0	1766850560	44	6477
2026-01-23 13:34:59.85	144.97	22.66	-36.3	-37.2	24.4	0.00e+00	123	42	0	1769996288	44	6383
2026-01-23 13:35:00.86	145.16	22.55	-36.4	-37.3	24.3	0.00e+00	122	42	0	1772093440	44	6452
2026-01-23 13:35:01.87	145.34	22.44	-36.5	-37.4	24.3	0.00e+00	122	42	0	1776287744	44	6549
2026-01-23 13:35:02.88	145.52	22.33	-36.5	-37.4	24.2	0.00e+00	123	42	0	1779433472	44	6557
2026-01-23 13:35:03.89	145.70	22.22	-36.3	-37.2	24.4	0.00e+00	122	42	0	1782579200	44	6366
2026-01-23 13:35:04.90	145.87	22.11	-36.4	-37.3	24.3	0.00e+00	123	42	0	1785724928	44	6484
2026-01-23 13:35:05.91	146.05	22.00	-36.4	-37.3	24.3	0.00e+00	122	42	0	1788870656	44	6464
2026-01-23 13:35:06.92	146.22	21.89	-36.4	-37.3	24.2	0.00e+00	122	42	0	1792016384	44	6481
2026-01-23 13:35:07.93	146.40	21.78	-36.5	-37.4	24.3	0.00e+00	122	42	0	1795162112	44	6527
2026-01-23 13:35:08.94	146.57	21.67	-36.6	-37.5	24.1	0.00e+00	120	42	0	1798307840	44	6588
2026-01-23 13:35:09.95	146.74	21.56	-36.7	-37.6	24.1	0.00e+00	123	42	0	1801453568	44	6666
2026-01-23 13:35:10.96	146.91	21.46	-36.8	-37.7	24.1	0.00e+00	123	42	0	1804599296	46	6018
2026-01-23 13:35:11.97	147.08	21.35	-36.8	-37.8	24.0	0.00e+00	121	42	0	1807745024	46	6075
2026-01-23 13:35:12.98	147.25	21.24	-36.9	-37.8	24.1	0.00e+00	123	42	0	1810890752	46	6106
2026-01-23 13:35:13.99	147.41	21.13	-36.8	-37.7	24.1	0.00e+00	123	42	0	1814036480	46	6001
2026-01-23 13:35:15.00	147.58	21.03	-36.8	-37.7	24.1	0.00e+00	123	42	0	1817182208	46	6006
2026-01-23 13:35:16.01	147.74	20.92	-36.9	-37.8	24.0	0.00e+00	123	42	0	1820327936	46	6125
2026-01-23 13:35:17.01	147.91	20.81	-36.7	-37.6	24.1	0.00e+00	123	42	0	1823473664	46	5968
2026-01-23 13:35:18.02	148.07	20.71	-36.7	-37.6	24.1	0.00e+00	121	42	0	1826619392	46	5978
2026-01-23 13:35:19.04	148.23	20.60	-36.6	-37.5	24.2	0.00e+00	123	42	0	1829765120	46	5917
2026-01-23 13:35:20.04	148.39	20.49	-36.8	-37.7	24.0	0.00e+00	121	42	0	1832910848	46	6053
2026-01-23 13:35:21.05	148.55	20.39	-36.8	-37.7	24.0	0.00e+00	120	42	0	1836056576	46	6044
2026-01-23 13:35:22.06	148.71	20.28	-36.8	-37.7	24.0	0.00e+00	123	42	0	1839202304	46	6033
2026-01-23 13:35:23.07	148.86	20.18	-36.8	-37.7	24.1	0.00e+00	123	42	0	1842348032	46	6043
2026-01-23 13:35:24.08	149.02	20.07	-36.7	-37.7	24.2	0.00e+00	122	42	0	1845493760	46	6005
2026-01-23 13:35:25.09	149.17	19.97	-36.5	-37.4	24.4	0.00e+00	121	42	0	1848639488	46	5807
2026-01-23 13:35:26.10	149.33	19.86	-36.4	-37.3	24.4	0.00e+00	123	42	0	1851785216	46	5750
2026-01-23 13:35:27.11	149.48	19.76	-36.2	-37.1	24.5	0.00e+00	122	42	0	1854930944	46	5649
2026-01-23 13:35:28.12	149.63	19.65	-36.2	-37.1	24.5	0.00e+00	123	42	0	1858076672	46	5620
2026-01-23 13:35:29.13	149.78	19.55	-36.2	-37.1	24.5	0.00e+00	120	42	0	1861222400	46	5647
2026-01-23 13:35:30.14	149.93	19.44	-36.3	-37.2	24.4	0.00e+00	122	42	0	1864368128	46	5709
2026-01-23 13:35:31.15	150.08	19.34	-36.2	-37.1	24.5	0.00e+00	123	42	0	1867513856	46	5626
2026-01-23 13:35:32.16	150.23	19.24	-36.2	-37.1	24.5	0.00e+00	122	42	0	1870659584	46	5614
2026-01-23 13:35:33.17	150.38	19.13	-36.1	-37.0	24.6	0.00e+00	120	42	0	1873805312	46	5554
2026-01-23 13:35:34.18	150.52	19.03	-36.1	-37.0	24.6	0.00e+00	123	42	0	1876951040	46	5534
2026-01-23 13:35:35.19	150.67	18.93	-36.2	-37.1	24.5	0.00e+00	120	42	0	1880096768	46	5627
2026-01-23 13:35:36.20	150.81	18.83	-36.2	-37.1	24.5	0.00e+00	123	42	0	1883242496	46	5612
2026-01-23 13:35:37.21	150.95	18.73	-36.3	-37.1	24.4	0.00e+00	123	42	0	1886388224	46	5653
2026-01-23 13:35:38.22	151.10	18.62	-36.3	-37.1	24.5	0.00e+00	123	42	0	1889533952	46	5651
2026-01-23 13:35:39.23	151.24	18.52	-36.3	-37.2	24.4	0.00e+00	122	42	0	1892679680	46	5698
2026-01-23 13:35:40.24	151.38	18.42	-36.4	-37.3	24.4	0.00e+00	122	42	0	1895825408	46	5747
2026-01-23 13:35:41.24	151.51	18.32	-36.6	-37.5	24.3	0.00e+00	122	42	0	1898971136	46	5862
2026-01-23 13:35:42.25	151.65	18.22	-36.4	-37.3	24.3	0.00e+00	123	42	0	1902116864	46	5733
2026-01-23 13:35:43.26	151.79	18.12	-36.6	-37.5	24.2	0.00e+00	120	42	0	1905262592	46	5866
2026-01-23 13:35:44.27	151.93	18.02	-36.5	-37.4	24.3	0.00e+00	123	42	0	1908408320	46	5805
2026-01-23 13:35:45.28	152.06	17.92	-36.7	-37.6	24.2	0.00e+00	123	42	0	1911554048	46	5958
2026-01-23 13:35:46.29	152.20	17.82	-36.5	-37.4	24.2	0.00e+00	123	42	0	1914699776	46	5825
2026-01-23 13:35:47.30	152.33	17.72	-36.5	-37.4	24.2	0.00e+00	123	42	0	1917845504	46	5822
2026-01-23 13:35:48.31	152.47	17.62	-36.5	-37.4	24.2	0.00e+00	121	42	0	1920991232	46	5819
2026-01-23 13:35:49.32	152.60	17.52	-36.5	-37.4	24.1	0.00e+00	123	42	0	1924136960	46	5856
2026-01-23 13:35:50.33	152.73	17.42	-36.5	-37.4	24.1	0.00e+00	121	42	0	1927282688	46	5844
2026-01-23 13:35:51.34	152.86	17.32	-36.7	-37.7	24.0	0.00e+00	123	42	0	1930428416	46	5999
2026-01-23 13:35:52.35	152.99	17.23	-36.8	-37.7	23.9	0.00e+00	123	42	0	1933574144	46	6036
2026-01-23 13:35:53.36	153.12	17.13	-37.0	-38.0	23.7	0.00e+00	123	42	0	1936719872	46	6227
2026-01-23 13:35:54.37	153.25	17.03	-37.3	-38.2	23.5	0.00e+00	120	42	0	1939865600	46	6401
2026-01-23 13:35:55.38	153.38	16.93	-37.5	-38.5	23.2	0.00e+00	122	42	0	1943011328	46	6640
2026-01-23 13:35:56.39	153.50	16.83	-37.8	-38.8	22.9	0.00e+00	120	42	0	1946157056	48	6093
2026-01-23 13:35:57.40	153.63	16.74	-38.2	-39.3	22.4	0.00e+00	122	41	0	1949302784	48	6431
2026-01-23 13:35:58.41	153.75	16.64	-38.5	-39.7	22.0	0.00e+00	120	42	0	1952448512	48	6735
2026-01-23 13:35:59.42	153.88	16.54	-38.9	-40.1	21.5	0.00e+00	123	42	0	1955594240	50	6313
2026-01-23 13:36:00.43	154.00	16.45	-39.4	-40.6	21.0	0.00e+00	123	42	0	1958739968	50	6670
2026-01-23 13:36:01.44	154.13	16.35	-39.7	-41.0	20.6	0.00e+00	123	42	0	1961885696	50	6994
2026-01-23 13:36:02.45	154.25	16.26	-40.2	-41.4	20.2	0.00e+00	123	42	0	1965031424	52	6568
2026-01-23 13:36:03.46	154.37	16.16	-40.5	-41.8	19.8	0.00e+00	122	42	0	1968177152	52	6841
2026-01-23 13:36:04.47	154.49	16.07	-40.8	-42.1	19.5	0.00e+00	123	42	0	1971322880	54	6343
2026-01-23 13:36:05.47	154.61	15.97	-41.3	-42.7	18.9	0.00e+00	122	42	0	1974468608	54	6742
2026-01-23 13:36:06.48	154.73	15.88	-41.4	-42.8	18.7	0.00e+00	120	42	0	1977614336	54	6828
