passes_logs/2026/01/23/R4.6S_Anadyr/R4.6S_Anadyr__20260123_185647_AQUA_rec.log

#Pass ID: 20260123_185647_AQUA
#Satellite: AQUA
#Configuration: AQUA
#almurnet v.1.7.20251203
#Start time: 2026-01-23 18:56:49

#Version: 2.2.20231116
#Station: R4.6S_Anadyr
#Location: 177.4865 lon 64.73178 lat
#TLE: 1 27424U 02022A   26022.49486490  .00002153  00000+0  44069-3 0  9997
#TLE: 2 27424  98.4099 349.0485 0001970  69.5876  43.4746 14.61847233261984

#Time	Az	El	Level	Level2	SNR	BER	BlckErr	Temp	State	Recorded	gain1	gain2
2026-01-23 18:56:49.39	26.98	0.08	-50.3	-62.1	3.5	8.47e-01	0	38	0	0	60	46173
2026-01-23 18:56:50.40	26.91	0.13	-50.7	-68.5	3.5	3.03e+01	0	39	104	0	60	102535
2026-01-23 18:56:51.41	26.84	0.19	-50.7	-68.4	3.5	3.03e+01	0	39	104	0	60	101471
2026-01-23 18:56:52.42	26.77	0.24	-50.7	-68.5	3.5	3.03e+01	0	39	104	0	60	102479
2026-01-23 18:56:53.43	26.70	0.30	-50.7	-68.4	3.5	3.03e+01	0	39	104	0	60	101301
2026-01-23 18:56:54.44	26.63	0.35	-50.7	-68.5	3.5	3.03e+01	0	39	104	0	60	101940
2026-01-23 18:56:55.45	26.56	0.41	-50.7	-68.5	3.5	3.03e+01	0	39	104	0	60	102361
2026-01-23 18:56:56.46	26.49	0.46	-50.7	-68.5	3.5	3.03e+01	0	39	104	0	60	102127
2026-01-23 18:56:57.47	26.42	0.52	-50.7	-68.5	3.5	3.03e+01	0	39	104	0	60	102248
2026-01-23 18:56:58.48	26.35	0.57	-50.7	-68.5	3.5	3.03e+01	0	39	104	0	60	102430
2026-01-23 18:56:59.49	26.27	0.63	-50.7	-68.5	3.5	3.03e+01	0	39	104	0	60	101945
2026-01-23 18:57:00.50	26.20	0.68	-50.7	-68.5	3.5	3.03e+01	0	39	104	0	60	102158
2026-01-23 18:57:01.51	26.13	0.74	-50.7	-68.5	3.5	3.03e+01	0	39	104	0	60	102519
2026-01-23 18:57:02.52	26.06	0.79	-50.6	-68.5	3.5	3.03e+01	0	39	104	0	60	102476
2026-01-23 18:57:03.53	25.98	0.85	-50.7	-68.5	3.5	3.03e+01	0	39	104	0	60	102356
2026-01-23 18:57:04.54	25.91	0.90	-50.7	-68.5	3.5	3.03e+01	0	40	104	0	60	102210
2026-01-23 18:57:05.55	25.84	0.96	-50.7	-68.5	3.5	3.03e+01	0	39	104	0	60	102178
2026-01-23 18:57:06.56	25.76	1.02	-50.7	-68.5	3.5	3.03e+01	0	39	104	0	60	101970
2026-01-23 18:57:07.57	25.69	1.07	-50.6	-68.5	3.5	3.03e+01	0	40	104	0	60	101985
2026-01-23 18:57:08.58	25.61	1.13	-50.7	-68.5	3.5	3.03e+01	0	39	104	0	60	102257
2026-01-23 18:57:09.59	25.54	1.18	-50.6	-68.4	3.5	3.03e+01	0	40	104	0	60	101551
2026-01-23 18:57:10.60	25.46	1.24	-50.6	-68.5	3.5	3.03e+01	0	40	104	0	60	102383
2026-01-23 18:57:11.61	25.38	1.29	-50.6	-68.5	3.5	3.03e+01	0	40	104	0	60	102219
2026-01-23 18:57:12.62	25.31	1.35	-50.7	-68.5	3.5	3.03e+01	0	40	104	0	60	102309
2026-01-23 18:57:13.63	25.23	1.41	-50.6	-68.5	3.5	3.03e+01	0	40	104	0	60	102005
2026-01-23 18:57:14.65	25.15	1.46	-50.6	-68.5	3.5	3.03e+01	0	40	104	0	60	101900
2026-01-23 18:57:15.66	25.08	1.52	-50.7	-68.5	3.5	3.03e+01	0	40	104	0	60	102035
2026-01-23 18:57:16.67	25.00	1.58	-50.6	-68.5	3.5	3.03e+01	0	40	104	0	60	102547
2026-01-23 18:57:17.68	24.92	1.63	-50.7	-68.5	3.5	3.03e+01	0	40	104	0	60	102639
2026-01-23 18:57:18.69	24.84	1.69	-50.6	-68.5	3.5	3.03e+01	0	40	104	0	60	101879
2026-01-23 18:57:19.70	24.76	1.75	-50.6	-68.5	3.5	3.03e+01	0	40	104	0	60	102399
2026-01-23 18:57:20.71	24.68	1.80	-50.6	-68.5	3.5	3.03e+01	0	40	104	0	60	102657
2026-01-23 18:57:21.72	24.61	1.86	-50.6	-68.5	3.5	3.03e+01	0	40	104	0	60	101981
2026-01-23 18:57:22.73	24.53	1.92	-50.6	-68.4	3.5	3.03e+01	0	40	104	0	60	101708
2026-01-23 18:57:23.74	24.45	1.97	-50.6	-68.5	3.5	3.03e+01	0	40	104	0	60	101915
2026-01-23 18:57:24.75	24.37	2.03	-50.6	-68.5	3.5	3.03e+01	0	40	104	0	60	101846
2026-01-23 18:57:25.76	24.28	2.09	-50.6	-68.5	3.5	3.03e+01	0	40	104	0	60	102542
2026-01-23 18:57:26.77	24.20	2.14	-50.6	-68.5	3.5	3.03e+01	0	40	104	0	60	102130
2026-01-23 18:57:27.78	24.12	2.20	-50.6	-68.5	3.5	3.03e+01	0	40	104	0	60	101832
2026-01-23 18:57:28.79	24.04	2.26	-50.6	-68.5	3.5	3.03e+01	0	40	104	0	60	102377
2026-01-23 18:57:29.80	23.96	2.32	-50.6	-68.5	3.5	3.03e+01	0	40	104	0	60	102573
2026-01-23 18:57:30.81	23.87	2.37	-50.6	-68.5	3.5	3.03e+01	0	40	104	0	60	102201
2026-01-23 18:57:31.82	23.79	2.43	-50.6	-68.5	3.5	3.03e+01	0	40	104	0	60	102261
2026-01-23 18:57:32.83	23.71	2.49	-50.6	-68.5	3.5	3.03e+01	0	40	104	0	60	102430
2026-01-23 18:57:33.84	23.62	2.55	-50.6	-68.5	3.5	3.03e+01	0	40	104	0	60	102057
2026-01-23 18:57:34.85	23.54	2.60	-50.6	-68.5	3.5	3.03e+01	0	40	104	0	60	102388
2026-01-23 18:57:35.86	23.46	2.66	-50.6	-68.5	3.5	3.03e+01	0	40	104	0	60	102152
2026-01-23 18:57:36.87	23.37	2.72	-50.6	-68.5	3.5	3.03e+01	0	40	104	0	60	102211
2026-01-23 18:57:37.88	23.29	2.78	-50.6	-68.5	3.5	3.03e+01	0	40	104	0	60	101999
2026-01-23 18:57:38.89	23.20	2.83	-50.6	-68.5	3.5	3.03e+01	0	40	104	0	60	102106
2026-01-23 18:57:39.90	23.11	2.89	-50.6	-68.5	3.5	3.03e+01	0	40	104	0	60	102389
2026-01-23 18:57:40.91	23.03	2.95	-50.6	-68.5	3.5	3.03e+01	0	40	104	0	60	102177
2026-01-23 18:57:41.92	22.94	3.01	-50.6	-68.5	3.5	3.03e+01	0	40	104	0	60	101878
2026-01-23 18:57:42.93	22.85	3.07	-50.6	-68.4	3.5	3.03e+01	0	40	104	0	60	101697
2026-01-23 18:57:43.95	22.77	3.13	-50.6	-68.4	3.5	3.03e+01	0	40	104	0	60	101783
2026-01-23 18:57:44.95	22.68	3.18	-50.6	-68.5	3.5	3.03e+01	0	40	104	0	60	102237
2026-01-23 18:57:45.97	22.59	3.24	-50.6	-68.4	3.5	3.03e+01	0	40	104	0	60	101291
2026-01-23 18:57:46.98	22.50	3.30	-50.6	-68.4	3.5	3.03e+01	0	40	104	0	60	101607
2026-01-23 18:57:47.99	22.41	3.36	-50.6	-68.5	3.5	3.03e+01	0	40	104	0	60	101822
2026-01-23 18:57:49.00	22.32	3.42	-50.6	-68.4	3.5	3.03e+01	0	40	104	0	60	101686
2026-01-23 18:57:50.01	22.23	3.48	-50.6	-68.5	3.5	3.03e+01	0	40	104	0	60	102171
2026-01-23 18:57:51.02	22.14	3.54	-50.6	-68.5	3.5	3.03e+01	0	40	104	0	60	102116
2026-01-23 18:57:52.03	22.05	3.60	-50.6	-68.5	3.5	3.03e+01	0	40	104	0	60	101976
2026-01-23 18:57:53.04	21.96	3.66	-50.6	-68.5	3.5	3.03e+01	0	40	104	0	60	102241
2026-01-23 18:57:54.05	21.87	3.72	-50.6	-68.4	3.5	3.03e+01	0	40	104	0	60	101599
2026-01-23 18:57:55.06	21.78	3.77	-50.6	-68.4	3.5	3.03e+01	0	40	104	0	60	101483
2026-01-23 18:57:56.07	21.68	3.83	-50.6	-68.5	3.5	3.03e+01	0	40	104	0	60	101972
2026-01-23 18:57:57.08	21.59	3.89	-50.6	-68.5	3.5	3.03e+01	0	40	104	0	60	101998
2026-01-23 18:57:58.09	21.50	3.95	-50.6	-68.5	3.5	3.03e+01	0	40	104	0	60	101873
2026-01-23 18:57:59.10	21.40	4.01	-50.6	-68.4	3.5	3.03e+01	0	40	104	0	60	101796
2026-01-23 18:58:00.11	21.31	4.07	-50.6	-68.4	3.5	3.03e+01	0	40	104	0	60	101114
2026-01-23 18:58:01.12	21.21	4.13	-50.6	-68.4	3.5	3.03e+01	0	40	104	0	60	101445
2026-01-23 18:58:02.13	21.12	4.19	-50.6	-68.4	3.5	3.03e+01	0	40	104	0	60	101322
2026-01-23 18:58:03.14	21.02	4.25	-50.6	-68.4	3.5	3.03e+01	0	40	104	0	60	101279
2026-01-23 18:58:04.15	20.93	4.31	-50.6	-68.4	3.5	3.03e+01	0	40	104	0	60	101148
2026-01-23 18:58:05.16	20.83	4.37	-50.6	-68.4	3.5	3.03e+01	0	40	104	0	60	101582
2026-01-23 18:58:06.17	20.73	4.43	-50.6	-68.5	3.5	3.03e+01	0	40	104	0	60	102233
2026-01-23 18:58:07.18	20.64	4.49	-50.6	-68.5	3.5	3.03e+01	0	40	104	0	60	101852
2026-01-23 18:58:08.19	20.54	4.55	-50.6	-68.4	3.5	3.03e+01	0	40	104	0	60	101681
2026-01-23 18:58:09.20	20.44	4.61	-50.6	-68.5	3.5	3.03e+01	0	40	104	0	60	102042
2026-01-23 18:58:10.21	20.34	4.67	-50.6	-68.5	3.5	3.03e+01	0	40	104	0	60	102067
2026-01-23 18:58:11.22	20.24	4.73	-50.6	-68.4	3.5	3.03e+01	0	40	104	0	60	101618
2026-01-23 18:58:12.23	20.14	4.79	-50.6	-68.4	3.5	3.03e+01	0	40	104	0	60	101809
2026-01-23 18:58:13.24	20.04	4.85	-50.6	-68.4	3.5	3.03e+01	0	40	104	0	60	101808
2026-01-23 18:58:14.25	19.94	4.91	-50.6	-68.5	3.5	3.03e+01	0	40	104	0	60	101810
2026-01-23 18:58:15.26	19.84	4.98	-50.6	-68.3	3.5	3.03e+01	0	40	104	0	60	100550
2026-01-23 18:58:16.27	19.74	5.04	-50.6	-68.3	3.5	3.03e+01	0	40	104	0	60	99727
2026-01-23 18:58:17.29	19.64	5.10	-50.6	-68.4	3.5	3.03e+01	0	40	104	0	60	100801
2026-01-23 18:58:18.30	19.53	5.16	-50.6	-68.4	3.5	3.03e+01	0	40	104	0	60	101024
2026-01-23 18:58:19.31	19.43	5.22	-50.6	-68.3	3.5	3.03e+01	0	40	104	0	60	100620
2026-01-23 18:58:20.32	19.33	5.28	-50.6	-68.4	3.5	3.03e+01	0	40	104	0	60	101409
2026-01-23 18:58:21.33	19.22	5.34	-50.6	-68.5	3.5	3.03e+01	0	40	104	0	60	102036
2026-01-23 18:58:22.34	19.12	5.40	-50.6	-68.4	3.5	3.03e+01	0	40	104	0	60	101653
2026-01-23 18:58:23.35	19.01	5.47	-50.6	-68.5	3.5	3.03e+01	0	40	104	0	60	102340
2026-01-23 18:58:24.36	18.91	5.53	-50.6	-68.5	3.5	3.03e+01	0	40	104	0	60	102306
2026-01-23 18:58:25.37	18.80	5.59	-50.6	-68.4	3.5	3.03e+01	0	40	104	0	60	101542
2026-01-23 18:58:26.38	18.70	5.65	-50.6	-68.5	3.5	3.03e+01	0	40	104	0	60	101852
2026-01-23 18:58:27.39	18.59	5.71	-50.6	-68.4	3.5	3.03e+01	0	40	104	0	60	101571
2026-01-23 18:58:28.40	18.48	5.77	-50.6	-68.4	3.5	3.03e+01	0	40	104	0	60	101711
2026-01-23 18:58:29.41	18.37	5.84	-50.6	-68.5	3.5	3.03e+01	0	40	104	0	60	102026
2026-01-23 18:58:30.41	18.27	5.90	-50.6	-68.5	3.5	3.03e+01	0	40	104	0	60	102037
2026-01-23 18:58:31.43	18.16	5.96	-50.6	-68.4	3.5	3.03e+01	0	40	104	0	60	101654
2026-01-23 18:58:32.44	18.05	6.02	-50.6	-68.4	3.5	3.03e+01	0	40	104	0	60	101672
2026-01-23 18:58:33.45	17.94	6.08	-50.6	-68.5	3.5	3.03e+01	0	40	104	0	60	102418
2026-01-23 18:58:34.46	17.82	6.15	-50.6	-68.4	3.5	3.03e+01	0	40	104	0	60	101367
2026-01-23 18:58:35.47	17.71	6.21	-50.6	-68.4	3.5	3.03e+01	0	40	104	0	60	101257
2026-01-23 18:58:36.48	17.60	6.27	-50.6	-68.4	3.5	3.03e+01	0	40	104	0	60	101316
2026-01-23 18:58:37.49	17.49	6.33	-50.6	-68.4	3.5	3.03e+01	0	40	104	0	60	101689
2026-01-23 18:58:38.50	17.38	6.39	-50.6	-68.4	3.5	3.03e+01	0	40	104	0	60	101465
2026-01-23 18:58:39.51	17.26	6.46	-50.6	-68.4	3.5	3.03e+01	0	40	104	0	60	101495
2026-01-23 18:58:40.52	17.15	6.52	-50.6	-68.4	3.5	3.03e+01	0	40	104	0	60	101257
2026-01-23 18:58:41.53	17.03	6.58	-50.6	-68.4	3.5	3.03e+01	0	40	104	0	60	101003
2026-01-23 18:58:42.53	16.92	6.64	-50.6	-68.4	3.5	3.03e+01	0	40	104	0	60	100701
2026-01-23 18:58:43.54	16.81	6.71	-50.6	-68.3	3.5	3.03e+01	0	40	104	0	60	99973
2026-01-23 18:58:44.55	16.69	6.77	-50.6	-68.4	3.5	3.03e+01	0	41	104	0	60	100689
2026-01-23 18:58:45.56	16.57	6.83	-50.6	-68.4	3.5	3.03e+01	0	40	104	0	60	101464
2026-01-23 18:58:46.57	16.46	6.90	-50.6	-68.4	3.5	3.03e+01	0	40	104	0	60	101357
2026-01-23 18:58:47.58	16.34	6.96	-50.6	-68.4	3.5	3.03e+01	0	41	104	0	60	101444
2026-01-23 18:58:48.59	16.22	7.02	-50.6	-68.4	3.5	3.03e+01	0	40	104	0	60	101376
2026-01-23 18:58:49.60	16.10	7.09	-50.6	-68.5	3.5	3.03e+01	0	40	104	0	60	101985
2026-01-23 18:58:50.61	15.98	7.15	-50.6	-68.4	3.5	3.03e+01	0	40	104	0	60	101219
2026-01-23 18:58:51.62	15.86	7.21	-50.6	-68.3	3.5	3.03e+01	0	40	104	0	60	100384
2026-01-23 18:58:52.63	15.74	7.28	-50.6	-68.4	3.5	3.03e+01	0	40	104	0	60	101307
2026-01-23 18:58:53.64	15.62	7.34	-50.6	-68.4	3.5	3.03e+01	0	40	104	0	60	101642
2026-01-23 18:58:54.65	15.50	7.40	-50.6	-68.4	3.5	3.03e+01	0	40	104	0	60	101438
2026-01-23 18:58:55.66	15.37	7.47	-50.6	-68.4	3.5	3.03e+01	0	40	104	0	60	101394
2026-01-23 18:58:56.67	15.25	7.53	-50.6	-68.4	3.5	3.03e+01	0	40	104	0	60	101500
2026-01-23 18:58:57.68	15.13	7.59	-50.6	-68.5	3.5	3.03e+01	0	40	104	0	60	101935
2026-01-23 18:58:58.69	15.00	7.66	-50.6	-68.4	3.5	3.03e+01	0	40	104	0	60	101078
2026-01-23 18:58:59.70	14.88	7.72	-50.6	-68.4	3.5	3.03e+01	0	40	104	0	60	100958
2026-01-23 18:59:00.71	14.75	7.78	-50.6	-68.4	3.5	3.03e+01	0	40	104	0	60	101462
2026-01-23 18:59:01.72	14.63	7.85	-50.6	-68.4	3.5	3.03e+01	0	40	104	0	60	101630
2026-01-23 18:59:02.73	14.50	7.91	-50.6	-68.5	3.5	3.03e+01	0	40	104	0	60	101908
2026-01-23 18:59:03.74	14.37	7.98	-50.6	-68.4	3.5	3.03e+01	0	40	104	0	60	101547
2026-01-23 18:59:04.75	14.24	8.04	-50.6	-68.3	3.5	3.03e+01	0	40	104	0	60	100630
2026-01-23 18:59:05.76	14.12	8.10	-50.6	-68.3	3.5	3.03e+01	0	41	104	0	60	99860
2026-01-23 18:59:06.77	13.99	8.17	-50.6	-68.4	3.5	3.03e+01	0	40	104	0	60	100679
2026-01-23 18:59:07.78	13.86	8.23	-50.6	-68.4	3.5	3.03e+01	0	40	104	0	60	101142
2026-01-23 18:59:08.79	13.73	8.30	-50.6	-68.4	3.5	3.03e+01	0	40	104	0	60	100662
2026-01-23 18:59:09.80	13.59	8.36	-50.6	-68.4	3.5	3.03e+01	0	41	104	0	60	100974
2026-01-23 18:59:10.81	13.46	8.43	-50.6	-68.4	3.5	3.03e+01	0	41	104	0	60	101028
2026-01-23 18:59:11.82	13.33	8.49	-50.6	-68.5	3.5	3.03e+01	0	41	104	0	60	101843
2026-01-23 18:59:12.83	13.20	8.55	-50.6	-68.4	3.5	3.03e+01	0	40	104	0	60	101180
2026-01-23 18:59:13.84	13.06	8.62	-50.6	-68.4	3.5	3.03e+01	0	41	104	0	60	101446
2026-01-23 18:59:14.85	12.93	8.68	-50.6	-68.5	3.5	3.03e+01	0	41	104	0	60	101952
2026-01-23 18:59:15.86	12.79	8.75	-50.6	-68.4	3.5	3.03e+01	0	41	104	0	60	101659
2026-01-23 18:59:16.87	12.66	8.81	-50.6	-68.5	3.5	3.03e+01	0	41	104	0	60	101976
2026-01-23 18:59:17.88	12.52	8.88	-50.6	-68.4	3.5	3.03e+01	0	41	104	0	60	101466
2026-01-23 18:59:18.89	12.38	8.94	-50.6	-68.5	3.5	3.03e+01	0	41	104	0	60	102148
2026-01-23 18:59:19.90	12.25	9.01	-50.6	-68.5	3.5	3.03e+01	0	41	104	0	60	102072
2026-01-23 18:59:20.91	12.11	9.07	-50.6	-68.5	3.5	3.03e+01	0	41	104	0	60	101885
2026-01-23 18:59:21.92	11.97	9.14	-50.6	-68.4	3.5	3.03e+01	0	40	104	0	60	101664
2026-01-23 18:59:22.93	11.83	9.20	-50.6	-68.4	3.5	3.03e+01	0	40	104	0	60	101203
2026-01-23 18:59:23.94	11.69	9.26	-50.6	-68.4	3.5	3.03e+01	0	41	104	0	60	101701
2026-01-23 18:59:24.95	11.55	9.33	-50.6	-68.4	3.5	3.03e+01	0	40	104	0	60	101658
2026-01-23 18:59:25.97	11.40	9.40	-50.6	-68.5	3.5	3.03e+01	0	40	104	0	60	101887
2026-01-23 18:59:26.98	11.26	9.46	-50.6	-68.4	3.5	3.03e+01	0	40	104	0	60	101426
2026-01-23 18:59:27.99	11.12	9.52	-50.6	-68.5	3.5	3.03e+01	0	41	104	0	60	101848
2026-01-23 18:59:29.00	10.97	9.59	-50.6	-68.4	3.5	3.03e+01	0	40	104	0	60	101540
2026-01-23 18:59:30.01	10.83	9.65	-50.6	-68.4	3.5	3.03e+01	0	40	104	0	60	101610
2026-01-23 18:59:31.02	10.68	9.72	-50.6	-68.4	3.5	3.03e+01	0	40	104	0	60	101802
2026-01-23 18:59:32.03	10.54	9.78	-50.6	-68.4	3.5	3.03e+01	0	41	104	0	60	101792
2026-01-23 18:59:33.04	10.39	9.85	-50.6	-68.4	3.5	3.03e+01	0	41	104	0	60	101689
2026-01-23 18:59:34.05	10.24	9.91	-50.6	-68.4	3.5	3.03e+01	0	40	104	0	60	101257
2026-01-23 18:59:35.06	10.09	9.98	-50.6	-68.3	3.5	3.03e+01	0	40	104	0	60	100627
2026-01-23 18:59:36.07	9.94	10.05	-50.6	-68.4	3.5	3.03e+01	0	41	104	0	60	101498
2026-01-23 18:59:37.08	9.79	10.11	-50.6	-68.4	3.5	3.03e+01	0	41	104	0	60	101467
2026-01-23 18:59:38.09	9.64	10.18	-50.6	-68.4	3.5	3.03e+01	0	40	104	0	60	101677
2026-01-23 18:59:39.10	9.49	10.24	-50.6	-68.4	3.5	3.03e+01	0	41	104	0	60	101379
2026-01-23 18:59:40.11	9.34	10.31	-50.6	-68.5	3.5	3.03e+01	0	41	104	0	60	102216
2026-01-23 18:59:41.12	9.19	10.37	-50.6	-68.5	3.5	3.03e+01	0	41	104	0	60	101874
2026-01-23 18:59:42.13	9.03	10.44	-50.6	-68.5	3.5	3.03e+01	0	41	104	0	60	101838
2026-01-23 18:59:43.14	8.88	10.50	-50.6	-68.5	3.5	3.03e+01	0	41	104	0	60	102030
2026-01-23 18:59:44.15	8.72	10.57	-50.6	-68.4	3.5	3.03e+01	0	40	104	0	60	101671
2026-01-23 18:59:45.16	8.57	10.63	-50.6	-68.5	3.5	3.03e+01	0	41	104	0	60	102181
2026-01-23 18:59:46.17	8.41	10.70	-50.6	-68.4	3.5	3.03e+01	0	41	104	0	60	101316
2026-01-23 18:59:47.18	8.25	10.76	-50.6	-68.4	3.5	3.03e+01	0	41	104	0	60	100960
2026-01-23 18:59:48.19	8.10	10.83	-50.6	-68.3	3.5	3.03e+01	0	41	104	0	60	100436
2026-01-23 18:59:49.20	7.94	10.89	-50.6	-68.3	3.5	3.03e+01	0	41	104	0	60	100161
2026-01-23 18:59:50.21	7.78	10.96	-50.6	-68.4	3.5	3.03e+01	0	41	104	0	60	101457
2026-01-23 18:59:51.22	7.62	11.02	-50.6	-68.5	3.5	3.03e+01	0	41	104	0	60	102160
2026-01-23 18:59:52.23	7.46	11.09	-50.6	-68.5	3.5	3.03e+01	0	41	104	0	60	101924
2026-01-23 18:59:53.24	7.29	11.15	-50.6	-68.5	3.5	3.03e+01	0	41	104	0	60	102611
2026-01-23 18:59:54.25	7.13	11.22	-50.6	-68.5	3.5	3.03e+01	0	41	104	0	60	102417
2026-01-23 18:59:55.26	6.97	11.28	-50.6	-68.5	3.5	3.03e+01	0	41	104	0	60	102056
2026-01-23 18:59:56.27	6.80	11.35	-50.6	-68.5	3.5	3.03e+01	0	40	104	0	60	102684
2026-01-23 18:59:57.28	6.64	11.41	-50.6	-68.6	3.5	3.03e+01	0	41	104	0	60	103224
2026-01-23 18:59:58.29	6.47	11.48	-50.7	-68.5	3.5	3.03e+01	0	41	104	0	60	102696
2026-01-23 18:59:59.30	6.30	11.54	-50.7	-68.5	3.5	3.03e+01	0	41	104	0	60	102780
2026-01-23 19:00:00.31	6.14	11.61	-50.7	-68.5	3.5	3.03e+01	0	41	104	0	60	102573
2026-01-23 19:00:01.32	5.97	11.67	-50.7	-68.5	3.5	3.03e+01	0	41	104	0	60	102389
2026-01-23 19:00:02.33	5.80	11.74	-50.6	-68.5	3.5	3.03e+01	0	41	104	0	60	102463
2026-01-23 19:00:03.34	5.63	11.80	-50.7	-68.5	3.5	3.03e+01	0	41	104	0	60	102111
2026-01-23 19:00:04.35	5.46	11.87	-50.7	-68.5	3.5	3.03e+01	0	41	104	0	60	102927
2026-01-23 19:00:05.36	5.29	11.93	-50.7	-68.5	3.5	3.03e+01	0	41	104	0	60	102686
2026-01-23 19:00:06.37	5.11	11.99	-50.7	-68.5	3.5	3.03e+01	0	41	104	0	60	102529
2026-01-23 19:00:07.38	4.94	12.06	-50.7	-68.5	3.5	3.03e+01	0	41	104	0	60	102965
2026-01-23 19:00:08.39	4.77	12.12	-50.7	-68.4	3.5	3.03e+01	0	41	104	0	60	101796
2026-01-23 19:00:09.40	4.59	12.19	-50.7	-68.5	3.5	3.03e+01	0	41	104	0	60	102634
2026-01-23 19:00:10.41	4.41	12.25	-50.7	-68.5	3.5	3.03e+01	0	41	104	0	60	102857
2026-01-23 19:00:11.42	4.24	12.32	-50.7	-68.5	3.5	3.03e+01	0	41	104	0	60	102691
2026-01-23 19:00:12.43	4.06	12.38	-50.7	-68.5	3.5	3.03e+01	0	41	104	0	60	102452
2026-01-23 19:00:13.44	3.88	12.44	-50.7	-68.5	3.5	3.03e+01	0	41	104	0	60	102755
2026-01-23 19:00:14.45	3.70	12.51	-50.7	-68.5	3.5	3.03e+01	0	41	104	0	60	102591
2026-01-23 19:00:15.46	3.52	12.57	-50.7	-68.5	3.5	3.03e+01	0	41	104	0	60	102907
2026-01-23 19:00:16.47	3.34	12.64	-50.7	-68.5	3.5	3.03e+01	0	41	104	0	60	102787
2026-01-23 19:00:17.48	3.16	12.70	-50.7	-68.6	3.5	3.03e+01	0	41	104	0	60	103683
2026-01-23 19:00:18.49	2.98	12.76	-50.7	-68.6	3.5	3.03e+01	0	41	104	0	60	103167
2026-01-23 19:00:19.50	2.79	12.83	-50.7	-68.6	3.5	3.03e+01	0	41	104	0	60	103012
2026-01-23 19:00:20.51	2.61	12.89	-50.7	-68.6	3.5	3.03e+01	0	41	104	0	60	102997
2026-01-23 19:00:21.52	2.42	12.95	-50.7	-68.6	3.5	3.03e+01	0	41	104	0	60	103028
2026-01-23 19:00:22.53	2.24	13.02	-50.7	-68.6	3.5	3.03e+01	0	41	104	0	60	103012
2026-01-23 19:00:23.54	2.05	13.08	-50.7	-68.6	3.5	3.03e+01	0	41	104	0	60	103018
2026-01-23 19:00:24.55	1.86	13.14	-50.7	-68.6	3.5	3.03e+01	0	41	104	0	60	103379
2026-01-23 19:00:25.56	1.67	13.21	-50.7	-68.6	3.5	3.03e+01	0	41	104	0	60	103351
2026-01-23 19:00:26.57	1.48	13.27	-50.7	-68.6	3.5	3.03e+01	0	41	104	0	60	103266
2026-01-23 19:00:27.58	1.29	13.33	-50.7	-68.6	3.5	3.03e+01	0	41	104	0	60	103675
2026-01-23 19:00:28.59	1.10	13.40	-50.7	-68.6	3.5	3.03e+01	0	41	104	0	60	103459
2026-01-23 19:00:29.60	0.91	13.46	-50.7	-68.6	3.5	3.03e+01	0	41	104	0	60	103052
2026-01-23 19:00:30.61	0.71	13.52	-50.8	-68.6	3.5	3.03e+01	0	41	104	0	60	103122
2026-01-23 19:00:31.62	0.52	13.58	-50.8	-68.6	3.5	3.03e+01	0	41	104	0	60	103403
2026-01-23 19:00:32.63	0.32	13.64	-50.8	-68.6	3.5	3.03e+01	0	41	104	0	60	103572
2026-01-23 19:00:33.64	0.13	13.71	-50.8	-68.6	3.5	3.03e+01	0	41	104	0	60	103456
2026-01-23 19:00:34.65	359.93	13.77	-50.8	-68.6	3.5	3.03e+01	0	41	104	0	60	103607
2026-01-23 19:00:35.66	359.73	13.83	-50.8	-68.6	3.5	3.03e+01	0	41	104	0	60	103603
2026-01-23 19:00:36.67	359.54	13.89	-50.8	-68.6	3.5	3.03e+01	0	41	104	0	60	103764
2026-01-23 19:00:37.68	359.34	13.95	-50.8	-68.6	3.5	3.03e+01	0	41	104	0	60	103868
2026-01-23 19:00:38.68	359.14	14.01	-50.8	-68.6	3.5	3.03e+01	0	41	104	0	60	103496
2026-01-23 19:00:39.70	358.93	14.08	-50.8	-68.6	3.5	3.03e+01	0	41	104	0	60	103686
2026-01-23 19:00:40.70	358.73	14.14	-50.8	-68.6	3.5	3.03e+01	0	41	104	0	60	103661
2026-01-23 19:00:41.72	358.53	14.20	-50.8	-68.6	3.5	3.03e+01	0	41	104	0	60	103700
2026-01-23 19:00:42.73	358.32	14.26	-50.8	-68.6	3.5	3.03e+01	0	41	104	0	60	103946
2026-01-23 19:00:43.73	358.12	14.32	-50.8	-68.6	3.5	3.03e+01	0	41	104	0	60	103441
2026-01-23 19:00:44.74	357.92	14.38	-50.8	-68.6	3.5	3.03e+01	0	41	104	0	60	103941
2026-01-23 19:00:45.75	357.71	14.44	-50.8	-68.6	3.5	3.03e+01	0	41	104	0	60	103638
2026-01-23 19:00:46.76	357.50	14.50	-50.8	-68.6	3.5	3.03e+01	0	41	104	0	60	103684
2026-01-23 19:00:47.77	357.29	14.56	-50.8	-68.7	3.5	3.03e+01	0	41	104	0	60	104558
2026-01-23 19:00:48.78	357.08	14.62	-50.8	-68.6	3.5	3.03e+01	0	41	104	0	60	103889
2026-01-23 19:00:49.79	356.87	14.68	-50.8	-68.6	3.5	3.03e+01	0	41	104	0	60	103723
2026-01-23 19:00:50.80	356.66	14.74	-50.8	-68.7	3.5	3.03e+01	0	41	104	0	60	104529
2026-01-23 19:00:51.81	356.45	14.79	-50.8	-68.6	3.5	3.03e+01	0	41	104	0	60	104100
2026-01-23 19:00:52.82	356.24	14.85	-50.8	-68.6	3.5	3.03e+01	0	41	104	0	60	103366
2026-01-23 19:00:53.83	356.02	14.91	-50.8	-68.6	3.5	3.03e+01	0	41	104	0	60	104009
2026-01-23 19:00:54.84	355.81	14.97	-50.8	-68.6	3.5	3.03e+01	0	41	104	0	60	103852
2026-01-23 19:00:55.85	355.59	15.03	-50.8	-68.7	3.5	3.03e+01	0	41	104	0	60	104246
2026-01-23 19:00:56.86	355.37	15.08	-50.8	-68.6	3.5	3.03e+01	0	41	104	0	60	104138
2026-01-23 19:00:57.87	355.16	15.14	-50.8	-68.7	3.6	3.03e+01	0	41	104	0	60	104334
2026-01-23 19:00:58.88	354.94	15.20	-50.8	-68.6	3.5	3.03e+01	0	41	104	0	60	104166
2026-01-23 19:00:59.89	354.72	15.26	-50.8	-68.7	3.5	3.03e+01	0	41	104	0	60	104488
2026-01-23 19:01:00.91	354.50	15.31	-50.8	-68.6	3.5	3.03e+01	0	41	104	0	60	103880
2026-01-23 19:01:01.92	354.27	15.37	-50.8	-68.7	3.5	3.03e+01	0	41	104	0	60	104533
2026-01-23 19:01:02.92	354.05	15.43	-50.8	-68.7	3.5	3.03e+01	0	41	104	0	60	104225
2026-01-23 19:01:03.93	353.83	15.48	-50.8	-68.7	3.5	3.03e+01	0	41	104	0	60	104913
2026-01-23 19:01:04.94	353.61	15.54	-50.8	-68.6	3.5	3.03e+01	0	41	104	0	60	104107
2026-01-23 19:01:05.96	353.38	15.59	-50.8	-68.7	3.5	3.03e+01	0	41	104	0	60	104693
2026-01-23 19:01:06.97	353.15	15.65	-50.8	-68.7	3.5	3.03e+01	0	41	104	0	60	104938
2026-01-23 19:01:07.98	352.93	15.70	-50.8	-68.7	3.5	3.03e+01	0	41	104	0	60	105237
2026-01-23 19:01:08.99	352.70	15.76	-50.8	-68.7	3.5	3.03e+01	0	41	104	0	60	104773
2026-01-23 19:01:10.00	352.47	15.81	-50.8	-68.7	3.5	3.03e+01	0	41	104	0	60	104369
2026-01-23 19:01:11.01	352.24	15.86	-50.8	-68.7	3.5	3.03e+01	0	41	104	0	60	104543
2026-01-23 19:01:12.02	352.01	15.92	-50.8	-68.7	3.5	3.03e+01	0	41	104	0	60	104878
2026-01-23 19:01:13.03	351.78	15.97	-50.8	-68.7	3.5	3.03e+01	0	41	104	0	60	104722
2026-01-23 19:01:14.04	351.55	16.02	-50.8	-68.7	3.4	3.03e+01	0	41	104	0	60	104456
2026-01-23 19:01:15.05	351.31	16.08	-50.8	-68.7	3.5	3.03e+01	0	41	104	0	60	104399
2026-01-23 19:01:16.06	351.08	16.13	-50.9	-68.7	3.5	3.03e+01	0	41	104	0	60	104297
2026-01-23 19:01:17.07	350.85	16.18	-50.9	-68.7	3.5	3.03e+01	0	41	104	0	60	104926
2026-01-23 19:01:18.08	350.61	16.23	-50.8	-68.7	3.5	3.03e+01	0	41	104	0	60	104829
2026-01-23 19:01:19.09	350.37	16.28	-50.9	-68.7	3.5	3.03e+01	0	41	104	0	60	105374
2026-01-23 19:01:20.10	350.14	16.33	-50.9	-68.7	3.5	3.03e+01	0	41	104	0	60	105050
2026-01-23 19:01:21.11	349.90	16.38	-50.9	-68.7	3.5	3.03e+01	0	41	104	0	60	104508
2026-01-23 19:01:22.12	349.66	16.43	-50.9	-68.6	3.5	3.03e+01	0	41	104	0	60	103822
2026-01-23 19:01:23.13	349.42	16.48	-50.9	-68.7	3.5	3.03e+01	0	41	104	0	60	104780
2026-01-23 19:01:24.14	349.18	16.53	-50.9	-68.7	3.5	3.03e+01	0	41	104	0	60	105161
2026-01-23 19:01:25.16	348.94	16.58	-50.9	-68.7	3.5	3.03e+01	0	41	104	0	60	104809
2026-01-23 19:01:26.17	348.69	16.63	-50.9	-68.7	3.5	3.03e+01	0	41	104	0	60	104243
2026-01-23 19:01:27.17	348.45	16.68	-50.9	-68.7	3.5	3.03e+01	0	41	104	0	60	104262
2026-01-23 19:01:28.18	348.21	16.73	-50.9	-68.6	3.5	3.03e+01	0	41	104	0	60	104153
2026-01-23 19:01:29.19	347.96	16.77	-50.9	-68.7	3.5	3.03e+01	0	41	104	0	60	105071
2026-01-23 19:01:30.21	347.71	16.82	-50.9	-68.7	3.5	3.03e+01	0	41	104	0	60	105128
2026-01-23 19:01:31.21	347.47	16.87	-50.9	-68.7	3.5	3.03e+01	0	41	104	0	60	104885
2026-01-23 19:01:32.22	347.22	16.91	-50.9	-68.7	3.5	3.03e+01	0	41	104	0	60	104805
2026-01-23 19:01:33.23	346.97	16.96	-50.9	-68.7	3.5	3.03e+01	0	41	104	0	60	104231
2026-01-23 19:01:34.24	346.73	17.00	-50.9	-68.7	3.5	3.03e+01	0	41	104	0	60	104491
2026-01-23 19:01:35.25	346.48	17.05	-50.9	-68.7	3.5	3.03e+01	0	41	104	0	60	104930
2026-01-23 19:01:36.27	346.22	17.09	-50.9	-68.8	3.5	3.03e+01	0	41	104	0	60	105905
2026-01-23 19:01:37.28	345.97	17.14	-50.9	-68.7	3.5	3.03e+01	0	41	104	0	60	104785
2026-01-23 19:01:38.29	345.72	17.18	-50.9	-68.7	3.5	3.03e+01	0	41	104	0	60	105071
2026-01-23 19:01:39.30	345.47	17.22	-50.9	-68.7	3.5	3.03e+01	0	41	104	0	60	105357
2026-01-23 19:01:40.31	345.21	17.27	-50.9	-68.7	3.5	3.03e+01	0	41	104	0	60	105014
2026-01-23 19:01:41.32	344.96	17.31	-50.9	-68.8	3.5	3.03e+01	0	41	104	0	60	105577
2026-01-23 19:01:42.33	344.70	17.35	-50.9	-68.8	3.5	3.03e+01	0	41	104	0	60	105469
2026-01-23 19:01:43.34	344.45	17.39	-50.9	-68.8	3.5	3.03e+01	0	41	104	0	60	105525
2026-01-23 19:01:44.35	344.19	17.43	-50.9	-68.8	3.5	3.03e+01	0	41	104	0	60	105512
2026-01-23 19:01:45.36	343.93	17.47	-50.9	-68.7	3.5	3.03e+01	0	41	104	0	60	105150
2026-01-23 19:01:46.37	343.67	17.51	-50.9	-68.8	3.5	3.03e+01	0	41	104	0	60	105490
2026-01-23 19:01:47.38	343.41	17.55	-50.9	-68.8	3.5	3.03e+01	0	41	104	0	60	106180
2026-01-23 19:01:48.39	343.16	17.59	-50.9	-68.7	3.5	3.03e+01	0	41	104	0	60	105298
2026-01-23 19:01:49.40	342.89	17.63	-50.9	-68.7	3.5	3.03e+01	0	41	104	0	60	104733
2026-01-23 19:01:50.41	342.63	17.66	-50.9	-68.8	3.5	3.03e+01	0	41	104	0	60	105525
2026-01-23 19:01:51.42	342.37	17.70	-50.9	-68.8	3.5	3.03e+01	0	41	104	0	60	105395
2026-01-23 19:01:52.43	342.11	17.74	-50.9	-68.7	3.5	3.03e+01	0	41	104	0	60	105332
2026-01-23 19:01:53.44	341.85	17.77	-50.9	-68.8	3.5	3.03e+01	0	41	104	0	60	106292
2026-01-23 19:01:54.45	341.58	17.81	-50.9	-68.8	3.5	3.03e+01	0	41	104	0	60	106213
2026-01-23 19:01:55.46	341.32	17.84	-50.9	-68.7	3.5	3.03e+01	0	41	104	0	60	104592
2026-01-23 19:01:56.47	341.05	17.88	-50.9	-68.7	3.5	3.03e+01	0	41	104	0	60	104700
2026-01-23 19:01:57.48	340.79	17.91	-50.9	-68.7	3.5	3.03e+01	0	41	104	0	60	104199
2026-01-23 19:01:58.49	340.52	17.94	-50.9	-68.6	3.5	3.03e+01	0	41	104	0	60	103492
2026-01-23 19:01:59.49	340.26	17.98	-50.9	-68.6	3.5	3.03e+01	0	41	104	0	60	103425
2026-01-23 19:02:00.50	339.99	18.01	-50.9	-68.7	3.5	3.03e+01	0	41	104	0	60	104545
2026-01-23 19:02:01.51	339.72	18.04	-50.9	-68.7	3.5	3.03e+01	0	41	104	0	60	105360
2026-01-23 19:02:02.52	339.45	18.07	-50.9	-68.8	3.5	3.03e+01	0	41	104	0	60	106060
2026-01-23 19:02:03.53	339.18	18.10	-50.9	-68.8	3.5	3.03e+01	0	41	104	0	60	105719
2026-01-23 19:02:04.54	338.91	18.13	-50.9	-68.7	3.5	3.03e+01	0	41	104	0	60	104972
2026-01-23 19:02:05.55	338.64	18.16	-50.9	-68.8	3.5	3.03e+01	0	41	104	0	60	105451
2026-01-23 19:02:06.56	338.37	18.19	-51.0	-68.7	3.5	3.03e+01	0	41	104	0	60	105051
2026-01-23 19:02:07.57	338.10	18.22	-50.9	-68.8	3.5	3.03e+01	0	41	104	0	60	105500
2026-01-23 19:02:08.58	337.83	18.24	-50.9	-68.8	3.5	3.03e+01	0	41	104	0	60	106028
2026-01-23 19:02:09.59	337.55	18.27	-50.9	-68.8	3.5	3.03e+01	0	41	104	0	60	105816
2026-01-23 19:02:10.60	337.28	18.30	-51.0	-68.8	3.5	3.03e+01	0	41	104	0	60	105987
2026-01-23 19:02:11.61	337.01	18.32	-51.0	-68.8	3.5	3.03e+01	0	41	104	0	60	105991
2026-01-23 19:02:12.62	336.73	18.35	-51.0	-68.8	3.5	3.03e+01	0	41	104	0	60	105839
2026-01-23 19:02:13.63	336.46	18.37	-51.0	-68.8	3.5	3.03e+01	0	41	104	0	60	105848
2026-01-23 19:02:14.64	336.18	18.40	-51.0	-68.8	3.5	3.03e+01	0	41	104	0	60	106035
2026-01-23 19:02:15.65	335.91	18.42	-51.0	-68.8	3.5	3.03e+01	0	41	104	0	60	106599
2026-01-23 19:02:16.65	335.63	18.44	-51.0	-68.8	3.5	3.03e+01	0	41	104	0	60	105850
2026-01-23 19:02:17.67	335.35	18.46	-51.0	-68.8	3.5	3.03e+01	0	41	104	0	60	105780
2026-01-23 19:02:18.68	335.08	18.48	-51.0	-68.8	3.5	3.03e+01	0	41	104	0	60	106227
2026-01-23 19:02:19.68	334.80	18.50	-51.0	-68.8	3.5	3.03e+01	0	41	104	0	60	105864
2026-01-23 19:02:20.70	334.52	18.52	-51.0	-68.8	3.5	3.03e+01	0	41	104	0	60	105867
2026-01-23 19:02:21.71	334.24	18.54	-51.0	-68.8	3.5	3.03e+01	0	41	104	0	60	106115
2026-01-23 19:02:22.72	333.97	18.56	-51.0	-68.8	3.5	3.03e+01	0	41	104	0	60	105617
2026-01-23 19:02:23.73	333.69	18.58	-51.0	-68.8	3.5	3.03e+01	0	41	104	0	60	106038
2026-01-23 19:02:24.74	333.41	18.60	-51.0	-68.8	3.5	3.03e+01	0	41	104	0	60	106383
2026-01-23 19:02:25.75	333.13	18.61	-51.0	-68.8	3.5	3.03e+01	0	41	104	0	60	105908
2026-01-23 19:02:26.76	332.85	18.63	-51.0	-68.8	3.5	3.03e+01	0	41	104	0	60	105751
2026-01-23 19:02:27.77	332.57	18.64	-51.0	-68.8	3.5	3.03e+01	0	41	104	0	60	106445
2026-01-23 19:02:28.78	332.29	18.66	-51.0	-68.8	3.5	3.03e+01	0	41	104	0	60	106135
2026-01-23 19:02:29.79	332.01	18.67	-51.0	-68.8	3.5	3.03e+01	0	41	104	0	60	105486
2026-01-23 19:02:30.80	331.73	18.69	-51.0	-68.8	3.5	3.03e+01	0	41	104	0	60	106085
2026-01-23 19:02:31.81	331.45	18.70	-51.0	-68.8	3.5	3.03e+01	0	41	104	0	60	105991
2026-01-23 19:02:32.82	331.16	18.71	-51.0	-68.8	3.5	3.03e+01	0	41	104	0	60	105697
2026-01-23 19:02:33.83	330.88	18.72	-51.0	-68.8	3.5	3.03e+01	0	41	104	0	60	106272
2026-01-23 19:02:34.84	330.60	18.73	-51.0	-68.8	3.5	3.03e+01	0	41	104	0	60	106314
2026-01-23 19:02:35.85	330.32	18.74	-51.0	-68.8	3.5	3.03e+01	0	41	104	0	60	106105
2026-01-23 19:02:36.86	330.04	18.75	-51.0	-68.8	3.5	3.03e+01	0	41	104	0	60	105695
2026-01-23 19:02:37.87	329.75	18.76	-51.0	-68.8	3.5	3.03e+01	0	41	104	0	60	105872
2026-01-23 19:02:38.88	329.47	18.77	-51.0	-68.9	3.5	3.03e+01	0	41	104	0	60	106748
2026-01-23 19:02:39.89	329.19	18.77	-51.0	-68.8	3.5	3.03e+01	0	41	104	0	60	106189
2026-01-23 19:02:40.90	328.91	18.78	-51.0	-68.8	3.5	3.03e+01	0	41	104	0	60	106575
2026-01-23 19:02:41.91	328.62	18.79	-51.0	-68.8	3.5	3.03e+01	0	41	104	0	60	105666
2026-01-23 19:02:42.93	328.34	18.79	-51.0	-68.8	3.5	3.03e+01	0	41	104	0	60	105925
2026-01-23 19:02:43.93	328.06	18.80	-51.0	-68.8	3.5	3.03e+01	0	41	104	0	60	106040
2026-01-23 19:02:44.94	327.77	18.80	-51.0	-68.8	3.5	3.03e+01	0	41	104	0	60	106062
2026-01-23 19:02:45.95	327.49	18.80	-51.0	-68.8	3.5	3.03e+01	0	41	104	0	60	105842
2026-01-23 19:02:46.96	327.21	18.80	-51.0	-68.8	3.5	3.03e+01	0	41	104	0	60	105810
2026-01-23 19:02:47.97	326.92	18.81	-51.0	-68.9	3.5	3.03e+01	0	41	104	0	60	106635
2026-01-23 19:02:48.98	326.64	18.81	-51.0	-68.8	3.5	3.03e+01	0	41	104	0	60	106265
2026-01-23 19:02:49.99	326.35	18.81	-51.0	-68.8	3.5	3.03e+01	0	41	104	0	60	105721
2026-01-23 19:02:51.00	326.07	18.81	-51.0	-68.8	3.5	3.03e+01	0	41	104	0	60	106398
2026-01-23 19:02:52.01	325.79	18.81	-51.0	-68.8	3.5	3.03e+01	0	41	104	0	60	106375
2026-01-23 19:02:53.02	325.50	18.80	-51.0	-68.8	3.5	3.03e+01	0	41	104	0	60	106421
2026-01-23 19:02:54.03	325.22	18.80	-51.0	-68.9	3.5	3.03e+01	0	41	104	0	60	106745
2026-01-23 19:02:55.04	324.94	18.80	-51.0	-68.8	3.5	3.03e+01	0	41	104	0	60	105888
2026-01-23 19:02:56.05	324.65	18.79	-51.0	-68.9	3.5	3.03e+01	0	41	104	0	60	106893
2026-01-23 19:02:57.06	324.37	18.79	-51.0	-68.8	3.5	3.03e+01	0	41	104	0	60	106085
2026-01-23 19:02:58.06	324.09	18.78	-51.0	-68.8	3.5	3.03e+01	0	41	104	0	60	106159
2026-01-23 19:02:59.07	323.81	18.78	-51.0	-68.8	3.5	3.03e+01	0	41	104	0	60	106409
2026-01-23 19:03:00.08	323.52	18.77	-51.0	-68.7	3.5	3.03e+01	0	41	104	0	60	105333
2026-01-23 19:03:01.09	323.24	18.76	-51.0	-68.8	3.5	3.03e+01	0	41	104	0	60	106042
2026-01-23 19:03:02.10	322.96	18.75	-51.0	-68.8	3.5	3.03e+01	0	41	104	0	60	105726
2026-01-23 19:03:03.11	322.68	18.75	-51.0	-68.8	3.5	3.03e+01	0	41	104	0	60	105510
2026-01-23 19:03:04.12	322.39	18.74	-51.0	-68.8	3.5	3.03e+01	0	41	104	0	60	106100
2026-01-23 19:03:05.13	322.11	18.73	-51.0	-68.8	3.5	3.03e+01	0	41	104	0	60	106097
2026-01-23 19:03:06.15	321.83	18.71	-51.0	-68.8	3.5	3.03e+01	0	41	104	0	60	105930
2026-01-23 19:03:07.16	321.55	18.70	-51.0	-68.9	3.5	3.03e+01	0	41	104	0	60	106887
2026-01-23 19:03:08.17	321.26	18.69	-51.0	-68.8	3.5	3.03e+01	0	41	104	0	60	105864
2026-01-23 19:03:09.18	320.98	18.68	-51.0	-68.8	3.5	3.03e+01	0	41	104	0	60	106508
2026-01-23 19:03:10.19	320.70	18.66	-51.0	-68.8	3.5	3.03e+01	0	41	104	0	60	105899
2026-01-23 19:03:11.20	320.42	18.65	-51.0	-68.8	3.5	3.03e+01	0	41	104	0	60	106285
2026-01-23 19:03:12.21	320.14	18.63	-51.0	-68.8	3.5	3.03e+01	0	41	104	0	60	106017
2026-01-23 19:03:13.21	319.86	18.62	-51.0	-68.8	3.5	3.03e+01	0	41	104	0	60	106277
2026-01-23 19:03:14.22	319.58	18.60	-51.0	-68.8	3.5	3.03e+01	0	41	104	0	60	106559
2026-01-23 19:03:15.24	319.30	18.59	-51.0	-68.9	3.5	3.03e+01	0	41	104	0	60	106717
2026-01-23 19:03:16.24	319.02	18.57	-51.0	-68.9	3.5	3.03e+01	0	41	104	0	60	107346
2026-01-23 19:03:17.26	318.74	18.55	-51.0	-68.8	3.5	3.03e+01	0	41	104	0	60	106190
2026-01-23 19:03:18.27	318.46	18.53	-51.0	-68.9	3.5	3.03e+01	0	41	104	0	60	107260
2026-01-23 19:03:19.28	318.19	18.51	-51.0	-68.8	3.5	3.03e+01	0	41	104	0	60	106570
2026-01-23 19:03:20.29	317.91	18.49	-51.0	-68.8	3.5	3.03e+01	0	41	104	0	60	106412
2026-01-23 19:03:21.30	317.63	18.47	-51.0	-68.9	3.5	3.03e+01	0	41	104	0	60	106644
2026-01-23 19:03:22.31	317.36	18.45	-51.0	-68.9	3.5	3.03e+01	0	41	104	0	60	107326
2026-01-23 19:03:23.32	317.08	18.43	-51.0	-68.9	3.5	3.03e+01	0	41	104	0	60	106733
2026-01-23 19:03:24.33	316.80	18.40	-51.0	-68.9	3.5	3.03e+01	0	41	104	0	60	107105
2026-01-23 19:03:25.34	316.53	18.38	-51.0	-68.9	3.5	3.03e+01	0	41	104	0	60	106744
2026-01-23 19:03:26.35	316.25	18.36	-51.0	-68.9	3.5	3.03e+01	0	41	104	0	60	106898
2026-01-23 19:03:27.36	315.98	18.33	-51.0	-68.9	3.5	3.03e+01	0	41	104	0	60	107090
2026-01-23 19:03:28.37	315.70	18.31	-51.0	-68.9	3.5	3.03e+01	0	41	104	0	60	106905
2026-01-23 19:03:29.38	315.43	18.28	-51.0	-68.9	3.5	3.03e+01	0	41	104	0	60	106890
2026-01-23 19:03:30.39	315.16	18.25	-51.0	-68.9	3.5	3.03e+01	0	41	104	0	60	107113
2026-01-23 19:03:31.40	314.88	18.23	-51.0	-68.8	3.5	3.03e+01	0	41	104	0	60	106505
2026-01-23 19:03:32.41	314.61	18.20	-51.0	-68.9	3.5	3.03e+01	0	41	104	0	60	106806
2026-01-23 19:03:33.42	314.34	18.17	-51.0	-68.9	3.5	3.03e+01	0	41	104	0	60	106634
2026-01-23 19:03:34.43	314.07	18.14	-51.0	-68.9	3.5	3.03e+01	0	41	104	0	60	106929
2026-01-23 19:03:35.44	313.80	18.11	-51.0	-68.9	3.5	3.03e+01	0	41	104	0	60	106757
2026-01-23 19:03:36.45	313.53	18.08	-51.0	-68.9	3.5	3.03e+01	0	41	104	0	60	106788
2026-01-23 19:03:37.46	313.26	18.05	-51.0	-68.9	3.5	3.03e+01	0	41	104	0	60	107093
2026-01-23 19:03:38.47	312.99	18.02	-51.0	-68.8	3.5	3.03e+01	0	41	104	0	60	106407
2026-01-23 19:03:39.48	312.72	17.99	-51.0	-68.9	3.5	3.03e+01	0	41	104	0	60	107162
2026-01-23 19:03:40.49	312.45	17.95	-51.0	-68.9	3.5	3.03e+01	0	41	104	0	60	107490
2026-01-23 19:03:41.49	312.19	17.92	-51.0	-68.9	3.5	3.03e+01	0	41	104	0	60	106713
2026-01-23 19:03:42.51	311.92	17.89	-51.0	-68.9	3.5	3.03e+01	0	41	104	0	60	106740
2026-01-23 19:03:43.52	311.66	17.85	-51.0	-68.9	3.5	3.03e+01	0	41	104	0	60	107330
2026-01-23 19:03:44.53	311.39	17.82	-51.0	-68.9	3.5	3.03e+01	0	41	104	0	60	107304
2026-01-23 19:03:45.54	311.13	17.78	-51.0	-68.8	3.5	3.03e+01	0	41	104	0	60	106400
2026-01-23 19:03:46.55	310.86	17.75	-51.0	-68.9	3.5	3.03e+01	0	41	104	0	60	107002
2026-01-23 19:03:47.56	310.60	17.71	-51.1	-68.9	3.5	3.03e+01	0	41	104	0	60	106752
2026-01-23 19:03:48.57	310.34	17.67	-51.1	-68.9	3.5	3.03e+01	0	41	104	0	60	107005
2026-01-23 19:03:49.58	310.08	17.64	-51.1	-68.9	3.5	3.03e+01	0	41	104	0	60	107575
2026-01-23 19:03:50.59	309.81	17.60	-51.1	-68.9	3.5	3.03e+01	0	41	104	0	60	107047
2026-01-23 19:03:51.60	309.55	17.56	-51.1	-68.9	3.5	3.03e+01	0	41	104	0	60	107416
2026-01-23 19:03:52.60	309.30	17.52	-51.1	-68.9	3.5	3.03e+01	0	41	104	0	60	107159
2026-01-23 19:03:53.62	309.04	17.48	-51.1	-68.9	3.5	3.03e+01	0	41	104	0	60	107210
2026-01-23 19:03:54.63	308.78	17.44	-51.1	-68.9	3.5	3.03e+01	0	41	104	0	60	106908
2026-01-23 19:03:55.64	308.52	17.40	-51.1	-68.9	3.5	3.03e+01	0	41	104	0	60	107289
2026-01-23 19:03:56.65	308.26	17.36	-51.1	-68.9	3.5	3.03e+01	0	41	104	0	60	106786
2026-01-23 19:03:57.66	308.01	17.32	-51.1	-69.0	3.5	3.03e+01	0	41	104	0	60	107897
2026-01-23 19:03:58.67	307.75	17.28	-51.1	-68.9	3.5	3.03e+01	0	41	104	0	60	107309
2026-01-23 19:03:59.68	307.50	17.24	-51.1	-68.9	3.5	3.03e+01	0	41	104	0	60	107815
2026-01-23 19:04:00.69	307.24	17.19	-51.1	-68.9	3.5	3.03e+01	0	41	104	0	60	107225
2026-01-23 19:04:01.70	306.99	17.15	-51.1	-68.9	3.5	3.03e+01	0	41	104	0	60	107334
2026-01-23 19:04:02.71	306.74	17.11	-51.1	-68.9	3.5	3.03e+01	0	41	104	0	60	107760
2026-01-23 19:04:03.72	306.49	17.06	-51.1	-68.9	3.5	3.03e+01	0	41	104	0	60	107381
2026-01-23 19:04:04.73	306.24	17.02	-51.1	-68.9	3.5	3.03e+01	0	41	104	0	60	107548
2026-01-23 19:04:05.74	305.99	16.97	-51.1	-68.9	3.5	3.03e+01	0	41	104	0	60	107461
2026-01-23 19:04:06.75	305.74	16.93	-51.1	-68.9	3.5	3.03e+01	0	41	104	0	60	107732
2026-01-23 19:04:07.77	305.49	16.88	-51.1	-68.9	3.5	3.03e+01	0	41	104	0	60	107027
2026-01-23 19:04:08.77	305.24	16.83	-51.1	-68.9	3.5	3.03e+01	0	41	104	0	60	107596
2026-01-23 19:04:09.79	304.99	16.79	-51.1	-68.9	3.5	3.03e+01	0	41	104	0	60	107438
2026-01-23 19:04:10.80	304.75	16.74	-51.1	-68.9	3.5	3.03e+01	0	41	104	0	60	107303
2026-01-23 19:04:11.81	304.50	16.69	-51.1	-69.0	3.5	3.03e+01	0	41	104	0	60	107854
2026-01-23 19:04:12.82	304.26	16.64	-51.1	-68.9	3.5	3.03e+01	0	41	104	0	60	107837
2026-01-23 19:04:13.83	304.02	16.59	-51.1	-68.9	3.5	3.03e+01	0	41	104	0	60	107573
2026-01-23 19:04:14.84	303.77	16.55	-51.1	-69.0	3.5	3.03e+01	0	41	104	0	60	107992
2026-01-23 19:04:15.85	303.53	16.50	-51.1	-68.9	3.5	3.03e+01	0	41	104	0	60	107367
2026-01-23 19:04:16.86	303.29	16.45	-51.1	-68.9	3.5	3.03e+01	0	41	104	0	60	107599
2026-01-23 19:04:17.87	303.05	16.40	-51.1	-68.9	3.5	3.03e+01	0	41	104	0	60	107267
2026-01-23 19:04:18.88	302.81	16.35	-51.1	-68.9	3.5	3.03e+01	0	41	104	0	60	107242
2026-01-23 19:04:19.89	302.57	16.30	-51.1	-69.0	3.5	3.03e+01	0	41	104	0	60	107876
2026-01-23 19:04:20.90	302.34	16.24	-51.1	-68.9	3.5	3.03e+01	0	41	104	0	60	107380
2026-01-23 19:04:21.91	302.10	16.19	-51.1	-69.0	3.5	3.03e+01	0	41	104	0	60	107882
2026-01-23 19:04:22.93	301.86	16.14	-51.1	-69.0	3.5	3.03e+01	0	41	104	0	60	107994
2026-01-23 19:04:23.93	301.63	16.09	-51.1	-68.9	3.5	3.03e+01	0	41	104	0	60	107688
2026-01-23 19:04:24.94	301.40	16.04	-51.1	-69.0	3.5	3.03e+01	0	41	104	0	60	108158
2026-01-23 19:04:25.95	301.16	15.98	-51.1	-69.0	3.5	3.03e+01	0	41	104	0	60	107880
2026-01-23 19:04:26.96	300.93	15.93	-51.1	-69.0	3.5	3.03e+01	0	41	104	0	60	107940
2026-01-23 19:04:27.98	300.70	15.88	-51.1	-69.0	3.5	3.03e+01	0	41	104	0	60	108365
2026-01-23 19:04:28.99	300.47	15.82	-51.1	-69.0	3.5	3.03e+01	0	41	104	0	60	107966
2026-01-23 19:04:30.00	300.24	15.77	-51.1	-69.0	3.5	3.03e+01	0	41	104	0	60	107975
2026-01-23 19:04:31.01	300.01	15.71	-51.1	-68.9	3.5	3.03e+01	0	41	104	0	60	107547
2026-01-23 19:04:32.02	299.78	15.66	-51.1	-69.0	3.5	3.03e+01	0	41	104	0	60	107888
2026-01-23 19:04:33.03	299.56	15.61	-51.1	-69.0	3.5	3.03e+01	0	41	104	0	60	108285
2026-01-23 19:04:34.04	299.33	15.55	-51.1	-68.9	3.5	3.03e+01	0	41	104	0	60	107485
2026-01-23 19:04:35.05	299.10	15.49	-51.1	-69.0	3.5	3.03e+01	0	41	104	0	60	108385
2026-01-23 19:04:36.06	298.88	15.44	-51.1	-69.0	3.5	3.03e+01	0	41	104	0	60	108447
2026-01-23 19:04:37.06	298.66	15.38	-51.1	-69.0	3.5	3.03e+01	0	41	104	0	60	108265
2026-01-23 19:04:38.07	298.44	15.33	-51.1	-69.0	3.5	3.03e+01	0	41	104	0	60	108429
2026-01-23 19:04:39.08	298.22	15.27	-51.1	-68.9	3.5	3.03e+01	0	41	104	0	60	107666
2026-01-23 19:04:40.09	298.00	15.21	-51.1	-69.0	3.5	3.03e+01	0	41	104	0	60	108195
2026-01-23 19:04:41.10	297.78	15.16	-51.1	-69.0	3.5	3.03e+01	0	41	104	0	60	107980
2026-01-23 19:04:42.11	297.56	15.10	-51.1	-69.0	3.5	3.03e+01	0	41	104	0	60	108560
2026-01-23 19:04:43.12	297.34	15.04	-51.1	-69.0	3.5	3.03e+01	0	41	104	0	60	108103
2026-01-23 19:04:44.13	297.12	14.98	-51.1	-69.0	3.5	3.03e+01	0	41	104	0	60	108308
2026-01-23 19:04:45.14	296.91	14.92	-51.1	-69.0	3.5	3.03e+01	0	41	104	0	60	108171
2026-01-23 19:04:46.15	296.69	14.87	-51.1	-68.9	3.5	3.03e+01	0	41	104	0	60	107534
2026-01-23 19:04:47.16	296.48	14.81	-51.1	-69.0	3.5	3.03e+01	0	41	104	0	60	107888
2026-01-23 19:04:48.17	296.27	14.75	-51.1	-69.0	3.5	3.03e+01	0	41	104	0	60	107966
2026-01-23 19:04:49.18	296.05	14.69	-51.1	-69.0	3.5	3.03e+01	0	41	104	0	60	108145
2026-01-23 19:04:50.19	295.84	14.63	-51.1	-68.9	3.5	3.03e+01	0	41	104	0	60	107746
2026-01-23 19:04:51.20	295.63	14.57	-51.1	-68.9	3.5	3.03e+01	0	41	104	0	60	107805
2026-01-23 19:04:52.21	295.42	14.51	-51.1	-69.0	3.5	3.03e+01	0	41	104	0	60	108046
2026-01-23 19:04:53.22	295.21	14.45	-51.1	-69.0	3.5	3.03e+01	0	41	104	0	60	108572
2026-01-23 19:04:54.23	295.01	14.39	-51.1	-69.0	3.5	3.03e+01	0	41	104	0	60	108339
2026-01-23 19:04:55.24	294.80	14.33	-51.1	-69.0	3.5	3.03e+01	0	41	104	0	60	107936
2026-01-23 19:04:56.25	294.59	14.27	-51.1	-69.0	3.5	3.03e+01	0	41	104	0	60	108110
2026-01-23 19:04:57.26	294.39	14.21	-51.1	-68.9	3.5	3.03e+01	0	41	104	0	60	107391
2026-01-23 19:04:58.27	294.18	14.15	-51.1	-68.9	3.5	3.03e+01	0	41	104	0	60	107736
2026-01-23 19:04:59.28	293.98	14.09	-51.1	-69.0	3.5	3.03e+01	0	41	104	0	60	108060
2026-01-23 19:05:00.29	293.78	14.03	-51.1	-69.0	3.5	3.03e+01	0	41	104	0	60	108337
2026-01-23 19:05:01.30	293.58	13.97	-51.1	-69.0	3.5	3.03e+01	0	41	104	0	60	108008
2026-01-23 19:05:02.31	293.38	13.90	-51.1	-68.9	3.5	3.03e+01	0	41	104	0	60	107809
2026-01-23 19:05:03.32	293.18	13.84	-51.1	-69.0	3.5	3.03e+01	0	41	104	0	60	108434
2026-01-23 19:05:04.33	292.98	13.78	-51.1	-68.9	3.5	3.03e+01	0	41	104	0	60	107660
2026-01-23 19:05:05.34	292.78	13.72	-51.1	-68.9	3.5	3.03e+01	0	41	104	0	60	107749
2026-01-23 19:05:06.35	292.58	13.66	-51.1	-69.0	3.5	3.03e+01	0	41	104	0	60	108066
2026-01-23 19:05:07.36	292.39	13.59	-51.1	-68.9	3.5	3.03e+01	0	41	104	0	60	107627
2026-01-23 19:05:08.37	292.19	13.53	-51.1	-69.0	3.5	3.03e+01	0	41	104	0	60	108114
2026-01-23 19:05:09.39	292.00	13.47	-51.1	-69.0	3.5	3.03e+01	0	41	104	0	60	108392
2026-01-23 19:05:10.40	291.80	13.41	-51.1	-69.0	3.5	3.03e+01	0	41	104	0	60	108076
2026-01-23 19:05:11.41	291.61	13.34	-51.1	-69.0	3.5	3.03e+01	0	41	104	0	60	108541
2026-01-23 19:05:12.42	291.42	13.28	-51.1	-69.0	3.5	3.03e+01	0	41	104	0	60	108017
2026-01-23 19:05:13.43	291.23	13.22	-51.1	-69.0	3.5	3.03e+01	0	41	104	0	60	107992
2026-01-23 19:05:14.44	291.04	13.15	-51.1	-69.0	3.5	3.03e+01	0	41	104	0	60	108432
2026-01-23 19:05:15.44	290.85	13.09	-51.1	-69.0	3.5	3.03e+01	0	41	104	0	60	108249
2026-01-23 19:05:16.45	290.66	13.03	-51.1	-69.0	3.5	3.03e+01	0	41	104	0	60	108052
2026-01-23 19:05:17.46	290.48	12.96	-51.1	-68.9	3.5	3.03e+01	0	41	104	0	60	107835
2026-01-23 19:05:18.47	290.29	12.90	-51.1	-69.0	3.5	3.03e+01	0	41	104	0	60	108694
2026-01-23 19:05:19.48	290.10	12.84	-51.1	-69.0	3.5	3.03e+01	0	41	104	0	60	107923
2026-01-23 19:05:20.49	289.92	12.77	-51.1	-69.0	3.5	3.03e+01	0	41	104	0	60	108453
2026-01-23 19:05:21.50	289.74	12.71	-51.1	-69.0	3.5	3.03e+01	0	41	104	0	60	108490
2026-01-23 19:05:22.51	289.55	12.65	-51.1	-69.0	3.5	3.03e+01	0	41	104	0	60	108539
2026-01-23 19:05:23.52	289.37	12.58	-51.1	-69.0	3.5	3.03e+01	0	41	104	0	60	108132
2026-01-23 19:05:24.53	289.19	12.52	-51.1	-69.0	3.5	3.03e+01	0	41	104	0	60	108329
2026-01-23 19:05:25.54	289.01	12.45	-51.1	-69.0	3.6	3.03e+01	0	41	104	0	60	108190
2026-01-23 19:05:26.55	288.83	12.39	-51.1	-69.0	3.5	3.03e+01	0	41	104	0	60	108351
2026-01-23 19:05:27.56	288.65	12.33	-51.1	-68.9	3.5	3.03e+01	0	41	104	0	60	107814
2026-01-23 19:05:28.57	288.47	12.26	-51.1	-68.9	3.5	3.03e+01	0	41	104	0	60	107753
2026-01-23 19:05:29.58	288.30	12.20	-51.1	-69.0	3.5	3.03e+01	0	41	104	0	60	108204
2026-01-23 19:05:30.59	288.12	12.13	-51.1	-69.0	3.5	3.03e+01	0	41	104	0	60	107956
2026-01-23 19:05:31.60	287.95	12.07	-51.1	-69.0	3.5	3.03e+01	0	41	104	0	60	108422
2026-01-23 19:05:32.61	287.77	12.00	-51.1	-69.0	3.5	3.03e+01	0	41	104	0	60	107889
2026-01-23 19:05:33.62	287.60	11.94	-51.1	-69.0	3.5	3.03e+01	0	41	104	0	60	108393
2026-01-23 19:05:34.63	287.43	11.87	-51.1	-68.9	3.5	3.03e+01	0	41	104	0	60	107669
2026-01-23 19:05:35.64	287.25	11.81	-51.1	-69.0	3.5	3.03e+01	0	41	104	0	60	108293
2026-01-23 19:05:36.65	287.08	11.74	-51.1	-69.0	3.5	3.03e+01	0	41	104	0	60	108313
2026-01-23 19:05:37.66	286.91	11.68	-51.1	-69.0	3.4	3.03e+01	0	41	104	0	60	108415
2026-01-23 19:05:38.67	286.74	11.61	-51.1	-69.0	3.5	3.03e+01	0	41	104	0	60	107858
2026-01-23 19:05:39.68	286.57	11.55	-51.1	-68.9	3.5	3.03e+01	0	41	104	0	60	107841
2026-01-23 19:05:40.69	286.41	11.48	-51.1	-69.0	3.5	3.03e+01	0	41	104	0	60	108332
2026-01-23 19:05:41.70	286.24	11.42	-51.1	-69.0	3.5	3.03e+01	0	41	104	0	60	107843
2026-01-23 19:05:42.70	286.08	11.35	-51.1	-69.0	3.5	3.03e+01	0	41	104	0	60	108411
2026-01-23 19:05:43.71	285.91	11.29	-51.1	-69.0	3.5	3.03e+01	0	41	104	0	60	108200
2026-01-23 19:05:44.72	285.75	11.22	-51.1	-69.0	3.5	3.03e+01	0	41	104	0	60	108560
2026-01-23 19:05:45.74	285.58	11.16	-51.1	-68.9	3.5	3.03e+01	0	41	104	0	60	107801
2026-01-23 19:05:46.74	285.42	11.09	-51.1	-69.0	3.5	3.03e+01	0	41	104	0	60	108102
2026-01-23 19:05:47.75	285.26	11.03	-51.1	-69.0	3.5	3.03e+01	0	41	104	0	60	107984
2026-01-23 19:05:48.76	285.09	10.96	-51.1	-69.0	3.5	3.03e+01	0	41	104	0	60	108266
2026-01-23 19:05:49.77	284.93	10.90	-51.1	-69.0	3.5	3.03e+01	0	41	104	0	60	108777
2026-01-23 19:05:50.78	284.77	10.83	-51.1	-68.9	3.5	3.03e+01	0	41	104	0	60	107703
2026-01-23 19:05:51.79	284.62	10.77	-51.1	-69.0	3.5	3.03e+01	0	41	104	0	60	108071
2026-01-23 19:05:52.80	284.46	10.70	-51.1	-69.0	3.5	3.03e+01	0	41	104	0	60	108131
2026-01-23 19:05:53.81	284.30	10.64	-51.1	-69.0	3.5	3.03e+01	0	41	104	0	60	108111
2026-01-23 19:05:54.82	284.14	10.57	-51.1	-69.0	3.5	3.03e+01	0	41	104	0	60	108470
2026-01-23 19:05:55.83	283.99	10.51	-51.1	-69.0	3.5	3.03e+01	0	41	104	0	60	108260
2026-01-23 19:05:56.84	283.83	10.44	-51.1	-69.0	3.5	3.03e+01	0	41	104	0	60	108604
2026-01-23 19:05:57.85	283.68	10.38	-51.1	-68.9	3.5	3.03e+01	0	41	104	0	60	107416
2026-01-23 19:05:58.85	283.52	10.31	-51.1	-69.0	3.5	3.03e+01	0	41	104	0	60	107925
2026-01-23 19:05:59.86	283.37	10.25	-51.1	-69.0	3.5	3.03e+01	0	41	104	0	60	108098
2026-01-23 19:06:00.87	283.22	10.18	-51.1	-69.0	3.5	3.03e+01	0	41	104	0	60	108171
2026-01-23 19:06:01.88	283.07	10.12	-51.1	-69.0	3.5	3.03e+01	0	41	104	0	60	108557
2026-01-23 19:06:02.89	282.92	10.05	-51.1	-69.0	3.5	3.03e+01	0	41	104	0	60	108074
2026-01-23 19:06:03.90	282.77	9.99	-51.1	-69.0	3.5	3.03e+01	0	41	104	0	60	108442
2026-01-23 19:06:04.91	282.62	9.92	-51.1	-69.0	3.5	3.03e+01	0	41	104	0	60	108391
2026-01-23 19:06:05.92	282.47	9.85	-51.1	-69.0	3.5	3.03e+01	0	41	104	0	60	108147
2026-01-23 19:06:06.93	282.32	9.79	-51.1	-69.0	3.5	3.03e+01	0	41	104	0	60	108650
2026-01-23 19:06:07.94	282.17	9.72	-51.1	-69.0	3.5	3.03e+01	0	41	104	0	60	108215
2026-01-23 19:06:08.95	282.03	9.66	-51.1	-69.0	3.5	3.03e+01	0	41	104	0	60	108246
2026-01-23 19:06:09.96	281.88	9.59	-51.1	-69.0	3.5	3.03e+01	0	41	104	0	60	108262
2026-01-23 19:06:10.97	281.74	9.53	-51.1	-68.9	3.5	3.03e+01	0	41	104	0	60	107503
2026-01-23 19:06:11.98	281.59	9.46	-51.1	-69.0	3.5	3.03e+01	0	41	104	0	60	108320
2026-01-23 19:06:12.99	281.45	9.40	-51.1	-69.0	3.5	3.03e+01	0	41	104	0	60	107884
2026-01-23 19:06:14.00	281.31	9.33	-51.1	-69.0	3.5	3.03e+01	0	41	104	0	60	108085
2026-01-23 19:06:15.01	281.17	9.27	-51.1	-69.0	3.5	3.03e+01	0	41	104	0	60	108211
2026-01-23 19:06:16.02	281.02	9.20	-51.1	-69.0	3.5	3.03e+01	0	41	104	0	60	108541
2026-01-23 19:06:17.03	280.88	9.14	-51.1	-69.1	3.5	3.03e+01	0	41	104	0	60	109128
2026-01-23 19:06:18.04	280.74	9.07	-51.1	-69.0	3.5	3.03e+01	0	41	104	0	60	108998
2026-01-23 19:06:19.05	280.60	9.01	-51.1	-68.9	3.5	3.03e+01	0	41	104	0	60	107838
2026-01-23 19:06:20.06	280.46	8.94	-51.1	-69.0	3.5	3.03e+01	0	41	104	0	60	108497
2026-01-23 19:06:21.07	280.33	8.88	-51.1	-69.0	3.5	3.03e+01	0	41	104	0	60	108408
2026-01-23 19:06:22.08	280.19	8.81	-51.1	-69.0	3.5	3.03e+01	0	41	104	0	60	108279
2026-01-23 19:06:23.09	280.05	8.75	-51.1	-69.0	3.5	3.03e+01	0	41	104	0	60	108132
2026-01-23 19:06:24.10	279.92	8.69	-51.1	-69.0	3.5	3.03e+01	0	41	104	0	60	108086
2026-01-23 19:06:25.11	279.78	8.62	-51.1	-69.0	3.5	3.03e+01	0	41	104	0	60	108250
2026-01-23 19:06:26.12	279.65	8.56	-51.1	-69.0	3.5	3.03e+01	0	41	104	0	60	108747
2026-01-23 19:06:27.13	279.51	8.49	-51.1	-69.0	3.5	3.03e+01	0	41	104	0	60	108691
2026-01-23 19:06:28.14	279.38	8.43	-51.1	-69.0	3.5	3.03e+01	0	41	104	0	60	108223
2026-01-23 19:06:29.15	279.25	8.36	-51.1	-69.0	3.5	3.03e+01	0	41	104	0	60	107954
2026-01-23 19:06:30.16	279.11	8.30	-51.1	-69.0	3.5	3.03e+01	0	41	104	0	60	108412
2026-01-23 19:06:31.17	278.98	8.23	-51.1	-69.0	3.5	3.03e+01	0	41	104	0	60	108242
2026-01-23 19:06:32.18	278.85	8.17	-51.1	-69.0	3.5	3.03e+01	0	41	104	0	60	108001
2026-01-23 19:06:33.19	278.72	8.11	-51.1	-69.0	3.5	3.03e+01	0	41	104	0	60	108079
2026-01-23 19:06:34.21	278.59	8.04	-51.1	-69.0	3.5	3.03e+01	0	41	104	0	60	108587
2026-01-23 19:06:35.22	278.46	7.98	-51.1	-69.0	3.5	3.03e+01	0	41	104	0	60	108191
2026-01-23 19:06:36.23	278.33	7.91	-51.2	-69.0	3.5	3.03e+01	0	41	104	0	60	108227
2026-01-23 19:06:37.24	278.21	7.85	-51.1	-69.0	3.5	3.03e+01	0	41	104	0	60	108497
2026-01-23 19:06:38.24	278.08	7.78	-51.1	-69.0	3.5	3.03e+01	0	41	104	0	60	108311
2026-01-23 19:06:39.25	277.96	7.72	-51.1	-69.0	3.5	3.03e+01	0	41	104	0	60	108419
2026-01-23 19:06:40.27	277.83	7.66	-51.1	-69.0	3.5	3.03e+01	0	41	104	0	60	108377
2026-01-23 19:06:41.28	277.70	7.59	-51.1	-69.0	3.5	3.03e+01	0	41	104	0	60	108490
2026-01-23 19:06:42.29	277.58	7.53	-51.1	-69.0	3.5	3.03e+01	0	41	104	0	60	108307
2026-01-23 19:06:43.30	277.45	7.46	-51.1	-69.0	3.5	3.03e+01	0	41	104	0	60	108874
2026-01-23 19:06:44.31	277.33	7.40	-51.1	-68.9	3.5	3.03e+01	0	41	104	0	60	107827
2026-01-23 19:06:45.32	277.21	7.34	-51.1	-69.0	3.5	3.03e+01	0	41	104	0	60	108609
2026-01-23 19:06:46.33	277.09	7.27	-51.1	-69.0	3.5	3.03e+01	0	41	104	0	60	108901
2026-01-23 19:06:47.34	276.96	7.21	-51.1	-68.9	3.5	3.03e+01	0	41	104	0	60	107552
2026-01-23 19:06:48.35	276.84	7.15	-51.1	-69.0	3.5	3.03e+01	0	41	104	0	60	108772
2026-01-23 19:06:49.36	276.72	7.08	-51.2	-69.0	3.5	3.03e+01	0	41	104	0	60	108662
2026-01-23 19:06:50.37	276.60	7.02	-51.1	-69.0	3.5	3.03e+01	0	41	104	0	60	108394
2026-01-23 19:06:51.37	276.49	6.96	-51.1	-69.0	3.5	3.03e+01	0	41	104	0	60	108375
2026-01-23 19:06:52.38	276.37	6.89	-51.1	-69.1	3.5	3.03e+01	0	41	104	0	60	109163
2026-01-23 19:06:53.39	276.25	6.83	-51.1	-69.0	3.5	3.03e+01	0	41	104	0	60	108762
2026-01-23 19:06:54.40	276.13	6.77	-51.1	-69.0	3.5	3.03e+01	0	41	104	0	60	108585
2026-01-23 19:06:55.41	276.01	6.70	-51.2	-69.1	3.5	3.03e+01	0	41	104	0	60	109266
2026-01-23 19:06:56.42	275.90	6.64	-51.1	-69.0	3.5	3.03e+01	0	41	104	0	60	108642
2026-01-23 19:06:57.43	275.78	6.58	-51.1	-69.0	3.5	3.03e+01	0	41	104	0	60	108299
2026-01-23 19:06:58.44	275.67	6.52	-51.1	-69.0	3.5	3.03e+01	0	41	104	0	60	108496
2026-01-23 19:06:59.46	275.55	6.45	-51.1	-69.0	3.5	3.03e+01	0	41	104	0	60	108565
2026-01-23 19:07:00.47	275.44	6.39	-51.2	-69.0	3.5	3.03e+01	0	41	104	0	60	108735
2026-01-23 19:07:01.48	275.32	6.33	-51.1	-69.0	3.5	3.03e+01	0	41	104	0	60	109011
2026-01-23 19:07:02.49	275.21	6.27	-51.1	-69.0	3.5	3.03e+01	0	41	104	0	60	108636
2026-01-23 19:07:03.50	275.10	6.20	-51.1	-69.0	3.5	3.03e+01	0	41	104	0	60	108708
2026-01-23 19:07:04.51	274.99	6.14	-51.2	-69.0	3.5	3.03e+01	0	41	104	0	60	108301
2026-01-23 19:07:05.52	274.87	6.08	-51.1	-69.0	3.5	3.03e+01	0	41	104	0	60	108797
2026-01-23 19:07:06.53	274.76	6.02	-51.2	-69.0	3.5	3.03e+01	0	41	104	0	60	108341
2026-01-23 19:07:07.54	274.65	5.95	-51.2	-68.9	3.5	3.03e+01	0	41	104	0	60	107833
2026-01-23 19:07:08.55	274.54	5.89	-51.1	-69.0	3.5	3.03e+01	0	41	104	0	60	108355
2026-01-23 19:07:09.56	274.43	5.83	-51.2	-69.0	3.5	3.03e+01	0	41	104	0	60	108305
2026-01-23 19:07:10.57	274.32	5.77	-51.2	-69.0	3.5	3.03e+01	0	41	104	0	60	108266
2026-01-23 19:07:11.58	274.22	5.71	-51.2	-69.0	3.5	3.03e+01	0	41	104	0	60	108965
2026-01-23 19:07:12.59	274.11	5.64	-51.2	-69.0	3.5	3.03e+01	0	41	104	0	60	108398
2026-01-23 19:07:13.60	274.00	5.58	-51.2	-69.1	3.5	3.03e+01	0	41	104	0	60	109353
2026-01-23 19:07:14.61	273.89	5.52	-51.2	-69.0	3.5	3.03e+01	0	41	104	0	60	108719
2026-01-23 19:07:15.62	273.79	5.46	-51.2	-69.0	3.5	3.03e+01	0	41	104	0	60	108698
2026-01-23 19:07:16.63	273.68	5.40	-51.1	-69.0	3.5	3.03e+01	0	41	104	0	60	108307
2026-01-23 19:07:17.64	273.58	5.34	-51.2	-69.0	3.5	3.03e+01	0	41	104	0	60	108214
2026-01-23 19:07:18.65	273.47	5.27	-51.2	-69.0	3.5	3.03e+01	0	42	104	0	60	108407
2026-01-23 19:07:19.66	273.37	5.21	-51.2	-69.0	3.5	3.03e+01	0	41	104	0	60	108426
2026-01-23 19:07:20.67	273.26	5.15	-51.2	-69.0	3.5	3.03e+01	0	41	104	0	60	108280
2026-01-23 19:07:21.68	273.16	5.09	-51.2	-69.0	3.5	3.03e+01	0	41	104	0	60	108531
2026-01-23 19:07:22.69	273.06	5.03	-51.2	-69.0	3.5	3.03e+01	0	41	104	0	60	108792
2026-01-23 19:07:23.70	272.96	4.97	-51.2	-69.1	3.5	3.03e+01	0	41	104	0	60	109211
2026-01-23 19:07:24.71	272.85	4.91	-51.2	-69.0	3.5	3.03e+01	0	41	104	0	60	108707
2026-01-23 19:07:25.72	272.75	4.85	-51.2	-69.1	3.5	3.03e+01	0	41	104	0	60	109245
2026-01-23 19:07:26.73	272.65	4.79	-51.2	-69.0	3.5	3.03e+01	0	41	104	0	60	108586
2026-01-23 19:07:27.74	272.55	4.73	-51.2	-69.0	3.5	3.03e+01	0	41	104	0	60	108637
2026-01-23 19:07:28.75	272.45	4.66	-51.2	-69.0	3.5	3.03e+01	0	41	104	0	60	108680
2026-01-23 19:07:29.76	272.35	4.60	-51.2	-69.0	3.5	3.03e+01	0	41	104	0	60	108833
2026-01-23 19:07:30.77	272.25	4.54	-51.2	-69.0	3.5	3.03e+01	0	42	104	0	60	108349
2026-01-23 19:07:31.78	272.15	4.48	-51.2	-69.0	3.5	3.03e+01	0	42	104	0	60	108750
2026-01-23 19:07:32.79	272.06	4.42	-51.2	-69.0	3.5	3.03e+01	0	41	104	0	60	108228
2026-01-23 19:07:33.80	271.96	4.36	-51.2	-69.0	3.5	3.03e+01	0	41	104	0	60	108274
2026-01-23 19:07:34.81	271.86	4.30	-51.2	-69.0	3.5	3.03e+01	0	42	104	0	60	108620
2026-01-23 19:07:35.82	271.76	4.24	-51.2	-69.0	3.5	3.03e+01	0	41	104	0	60	108153
2026-01-23 19:07:36.83	271.67	4.18	-51.2	-69.0	3.5	3.03e+01	0	41	104	0	60	108871
2026-01-23 19:07:37.84	271.57	4.12	-51.2	-69.0	3.5	3.03e+01	0	41	104	0	60	109066
2026-01-23 19:07:38.85	271.48	4.06	-51.2	-69.0	3.5	3.03e+01	0	42	104	0	60	108704
2026-01-23 19:07:39.86	271.38	4.00	-51.2	-69.0	3.5	3.03e+01	0	41	104	0	60	108617
2026-01-23 19:07:40.87	271.29	3.94	-51.2	-69.0	3.5	3.03e+01	0	41	104	0	60	108503
2026-01-23 19:07:41.88	271.19	3.88	-51.2	-69.0	3.5	3.03e+01	0	42	104	0	60	108840
2026-01-23 19:07:42.89	271.10	3.82	-51.2	-69.0	3.5	3.03e+01	0	41	104	0	60	108926
2026-01-23 19:07:43.90	271.01	3.76	-51.2	-69.0	3.5	3.03e+01	0	41	104	0	60	108878
2026-01-23 19:07:44.91	270.91	3.71	-51.2	-69.0	3.5	3.03e+01	0	41	104	0	60	108876
2026-01-23 19:07:45.92	270.82	3.65	-51.2	-69.0	3.5	3.03e+01	0	41	104	0	60	108494
2026-01-23 19:07:46.93	270.73	3.59	-51.2	-69.0	3.5	3.03e+01	0	42	104	0	60	108952
2026-01-23 19:07:47.94	270.64	3.53	-51.2	-69.0	3.5	3.03e+01	0	42	104	0	60	108694
2026-01-23 19:07:48.95	270.55	3.47	-51.2	-69.0	3.5	3.03e+01	0	42	104	0	60	108591
2026-01-23 19:07:49.96	270.45	3.41	-51.2	-69.0	3.5	3.03e+01	0	41	104	0	60	108917
2026-01-23 19:07:50.97	270.36	3.35	-51.2	-69.0	3.5	3.03e+01	0	41	104	0	60	108563
2026-01-23 19:07:51.98	270.27	3.29	-51.2	-69.0	3.5	3.03e+01	0	41	104	0	60	108455
2026-01-23 19:07:52.99	270.18	3.23	-51.2	-69.0	3.5	3.03e+01	0	41	104	0	60	108350
2026-01-23 19:07:54.00	270.10	3.17	-51.2	-69.0	3.5	3.03e+01	0	42	104	0	60	108260
2026-01-23 19:07:55.01	270.01	3.12	-51.1	-69.0	3.5	3.03e+01	0	41	104	0	60	108407
2026-01-23 19:07:56.02	269.92	3.06	-51.2	-69.0	3.5	3.03e+01	0	41	104	0	60	108710
2026-01-23 19:07:57.03	269.83	3.00	-51.2	-69.0	3.5	3.03e+01	0	41	104	0	60	108778
2026-01-23 19:07:58.04	269.74	2.94	-51.2	-69.1	3.5	3.03e+01	0	41	104	0	60	109231
2026-01-23 19:07:59.05	269.66	2.88	-51.1	-69.0	3.5	3.03e+01	0	41	104	0	60	108354
2026-01-23 19:08:00.06	269.57	2.82	-51.2	-69.0	3.5	3.03e+01	0	41	104	0	60	108521
2026-01-23 19:08:01.07	269.48	2.77	-51.1	-69.0	3.5	3.03e+01	0	41	104	0	60	108299
2026-01-23 19:08:02.08	269.40	2.71	-51.2	-69.0	3.5	3.03e+01	0	41	104	0	60	108403
2026-01-23 19:08:03.09	269.31	2.65	-51.2	-69.0	3.5	3.03e+01	0	41	104	0	60	108505
2026-01-23 19:08:04.10	269.23	2.59	-51.1	-69.0	3.5	3.03e+01	0	41	104	0	60	108883
2026-01-23 19:08:05.11	269.14	2.53	-51.1	-69.0	3.5	3.03e+01	0	41	104	0	60	108232
2026-01-23 19:08:06.12	269.06	2.48	-51.1	-69.0	3.5	3.03e+01	0	41	104	0	60	108900
2026-01-23 19:08:07.13	268.97	2.42	-51.1	-69.0	3.5	3.03e+01	0	41	104	0	60	108674
2026-01-23 19:08:08.14	268.89	2.36	-51.1	-69.0	3.5	3.03e+01	0	42	104	0	60	108177
2026-01-23 19:08:09.15	268.81	2.30	-51.1	-68.9	3.5	3.03e+01	0	42	104	0	60	107651
2026-01-23 19:08:10.16	268.72	2.25	-51.1	-69.0	3.5	3.03e+01	0	42	104	0	60	108620
2026-01-23 19:08:11.17	268.64	2.19	-51.1	-69.0	3.5	3.03e+01	0	41	104	0	60	107876
2026-01-23 19:08:12.18	268.56	2.13	-51.1	-69.0	3.5	3.03e+01	0	41	104	0	60	108099
2026-01-23 19:08:13.19	268.48	2.07	-51.1	-69.0	3.5	3.03e+01	0	41	104	0	60	108520
2026-01-23 19:08:14.20	268.39	2.02	-51.1	-69.0	3.5	3.03e+01	0	42	104	0	60	108682
2026-01-23 19:08:15.21	268.31	1.96	-51.1	-69.0	3.5	3.03e+01	0	42	104	0	60	108475
2026-01-23 19:08:16.22	268.23	1.90	-51.1	-69.0	3.5	3.03e+01	0	41	104	0	60	108232
2026-01-23 19:08:17.23	268.15	1.85	-51.1	-69.0	3.5	3.03e+01	0	41	104	0	60	107969
2026-01-23 19:08:18.25	268.07	1.79	-51.1	-69.0	3.5	3.03e+01	0	42	104	0	60	107915
2026-01-23 19:08:19.26	267.99	1.73	-51.1	-69.0	3.5	3.03e+01	0	41	104	0	60	108157
2026-01-23 19:08:20.27	267.91	1.67	-51.1	-69.0	3.5	3.03e+01	0	41	104	0	60	108332
2026-01-23 19:08:21.28	267.83	1.62	-51.1	-68.9	3.5	3.03e+01	0	41	104	0	60	107629
2026-01-23 19:08:22.29	267.75	1.56	-51.1	-69.0	3.5	3.03e+01	0	42	104	0	60	108007
2026-01-23 19:08:23.30	267.68	1.51	-51.1	-69.0	3.5	3.03e+01	0	42	104	0	60	107963
2026-01-23 19:08:24.30	267.60	1.45	-51.1	-68.9	3.5	3.03e+01	0	41	104	0	60	107830
2026-01-23 19:08:25.31	267.52	1.39	-51.1	-68.9	3.5	3.03e+01	0	42	104	0	60	107838
2026-01-23 19:08:26.32	267.44	1.34	-51.1	-69.0	3.5	3.03e+01	0	41	104	0	60	108226
2026-01-23 19:08:27.33	267.37	1.28	-51.1	-69.0	3.5	3.03e+01	0	41	104	0	60	108208
2026-01-23 19:08:28.34	267.29	1.22	-51.1	-69.0	3.5	3.03e+01	0	41	104	0	60	108320
2026-01-23 19:08:29.35	267.21	1.17	-51.1	-68.9	3.5	3.03e+01	0	41	104	0	60	107824
2026-01-23 19:08:30.36	267.14	1.11	-51.1	-69.0	3.5	3.03e+01	0	41	104	0	60	108151
2026-01-23 19:08:31.37	267.06	1.06	-51.1	-68.9	3.5	3.03e+01	0	41	104	0	60	107435
2026-01-23 19:08:32.38	266.99	1.00	-51.1	-68.9	3.5	3.03e+01	0	41	104	0	60	107809
2026-01-23 19:08:33.39	266.91	0.95	-51.1	-68.9	3.5	3.03e+01	0	41	104	0	60	107145
2026-01-23 19:08:34.40	266.84	0.89	-51.1	-69.0	3.5	3.03e+01	0	41	104	0	60	108227
2026-01-23 19:08:35.41	266.76	0.83	-51.1	-68.9	3.5	3.03e+01	0	41	104	0	60	107223
2026-01-23 19:08:36.42	266.69	0.78	-51.1	-68.9	3.5	3.03e+01	0	42	104	0	60	107534
2026-01-23 19:08:37.43	266.61	0.72	-51.1	-68.9	3.5	3.03e+01	0	41	104	0	60	107695
2026-01-23 19:08:38.44	266.54	0.67	-51.1	-68.9	3.5	3.03e+01	0	42	104	0	60	107077
2026-01-23 19:08:39.45	266.47	0.61	-51.1	-68.9	3.5	3.03e+01	0	41	104	0	60	106988
2026-01-23 19:08:40.46	266.39	0.56	-51.1	-68.9	3.5	3.03e+01	0	42	104	0	60	107411
2026-01-23 19:08:41.47	266.32	0.50	-51.1	-68.9	3.5	3.03e+01	0	42	104	0	60	107234
2026-01-23 19:08:42.48	266.25	0.45	-51.1	-68.9	3.5	3.03e+01	0	42	104	0	60	107453
2026-01-23 19:08:43.49	266.18	0.39	-51.1	-68.9	3.5	3.03e+01	0	41	104	0	60	107282
2026-01-23 19:08:44.50	266.10	0.34	-51.1	-68.9	3.5	3.03e+01	0	41	104	0	60	107571
2026-01-23 19:08:45.51	266.03	0.28	-51.1	-68.9	3.5	3.03e+01	0	41	104	0	60	107637
2026-01-23 19:08:46.52	265.96	0.23	-51.0	-68.9	3.5	3.03e+01	0	41	104	0	60	107239
2026-01-23 19:08:47.53	265.89	0.17	-51.0	-68.9	3.5	3.03e+01	0	41	104	0	60	107159
2026-01-23 19:08:48.54	265.82	0.12	-51.0	-68.9	3.5	3.03e+01	0	41	104	0	60	107153
2026-01-23 19:08:49.55	265.75	0.06	-51.0	-68.9	3.5	3.03e+01	0	41	104	0	60	106941
2026-01-23 19:08:50.56	265.68	0.01	-51.0	-68.9	3.5	3.03e+01	0	41	104	0	60	107447
2026-01-23 19:08:51.57	265.61	-0.05	-51.0	-68.9	3.5	3.03e+01	0	41	104	0	60	107153

#Closed at: 2026-01-23 19:08:52
#Recorded file [0 MB]: D:/lorett/data/35029_260124_065649.dat