passes_logs/2026/01/23/R4.6S_Anadyr/R4.6S_Anadyr__20260123_002914_NOAA_20_JPSS-1_rec.log

#Pass ID: 20260123_002914_NOAA 20 (JPSS-1)
#Satellite: NOAA 20 (JPSS-1)
#Configuration: NOAA 20
#almurnet v.1.7.20251203
#Start time: 2026-01-23 00:29:16

#Version: 2.2.20231116
#Station: R4.6S_Anadyr
#Location: 177.4865 lon 64.73178 lat
#TLE: 1 43013U 17073A   26022.44900781  .00000193  00000+0  11233-3 0  9999
#TLE: 2 43013  98.7645 323.3100 0001197  28.8413 331.2829 14.19538802423792

#Time	Az	El	Level	Level2	SNR	BER	BlckErr	Temp	State	Recorded	gain1	gain2
2026-01-23 00:29:16.83	162.94	0.15	-51.3	-66.2	3.5	1.51e+00	0	38	0	0	60	73760
2026-01-23 00:29:17.84	162.95	0.21	-51.1	-66.3	3.6	1.51e+00	0	39	104	0	60	74939
2026-01-23 00:29:18.85	162.96	0.27	-51.1	-66.3	3.6	1.51e+00	0	39	104	0	60	74863
2026-01-23 00:29:19.86	162.97	0.34	-51.1	-66.3	3.6	1.51e+00	0	40	104	0	60	74653
2026-01-23 00:29:20.87	162.99	0.40	-51.1	-66.4	3.6	1.51e+00	0	40	104	0	60	75126
2026-01-23 00:29:21.88	163.00	0.46	-51.2	-66.3	3.6	1.51e+00	0	39	104	0	60	74752
2026-01-23 00:29:22.89	163.01	0.52	-51.1	-66.4	3.6	1.51e+00	0	40	104	0	60	75099
2026-01-23 00:29:23.90	163.02	0.58	-51.1	-66.4	3.6	1.51e+00	0	40	104	0	60	75301
2026-01-23 00:29:24.91	163.03	0.64	-51.2	-66.4	3.6	1.51e+00	0	40	104	0	60	75088
2026-01-23 00:29:25.92	163.04	0.70	-51.2	-66.4	3.6	1.51e+00	0	40	104	0	60	75167
2026-01-23 00:29:26.92	163.06	0.77	-51.1	-66.4	3.6	1.51e+00	0	40	104	0	60	75800
2026-01-23 00:29:27.93	163.07	0.83	-51.1	-66.3	3.6	1.51e+00	0	40	104	0	60	74844
2026-01-23 00:29:28.94	163.08	0.89	-51.1	-66.3	3.6	1.51e+00	0	40	104	0	60	74899
2026-01-23 00:29:29.95	163.09	0.95	-51.0	-66.2	3.6	1.51e+00	0	40	104	0	60	73878
2026-01-23 00:29:30.96	163.10	1.01	-50.9	-66.2	3.6	1.51e+00	0	40	104	0	60	73752
2026-01-23 00:29:31.97	163.12	1.08	-50.9	-66.2	3.6	1.51e+00	0	40	104	0	60	73488
2026-01-23 00:29:32.98	163.13	1.14	-50.8	-66.0	3.6	1.51e+00	0	40	104	0	60	72186
2026-01-23 00:29:33.99	163.14	1.20	-50.7	-66.0	3.6	1.51e+00	0	40	104	0	60	71998
2026-01-23 00:29:35.00	163.15	1.27	-50.6	-65.8	3.6	1.51e+00	0	40	104	0	60	70723
2026-01-23 00:29:36.01	163.16	1.33	-50.4	-65.6	3.6	1.51e+00	0	40	104	0	60	69138
2026-01-23 00:29:37.02	163.18	1.39	-49.1	-64.3	3.6	1.51e+00	0	40	104	0	60	59346
2026-01-23 00:29:38.03	163.19	1.46	-50.1	-65.3	3.6	1.51e+00	0	40	104	0	60	66163
2026-01-23 00:29:39.04	163.20	1.52	-49.9	-65.1	3.6	1.51e+00	0	40	104	0	60	65312
2026-01-23 00:29:40.04	163.21	1.58	-49.8	-65.0	3.6	1.51e+00	0	40	104	0	60	64134
2026-01-23 00:29:41.06	163.23	1.65	-49.8	-64.9	3.6	1.51e+00	0	40	104	0	60	63226
2026-01-23 00:29:42.07	163.24	1.71	-49.8	-64.9	3.6	1.51e+00	0	40	104	0	60	63390
2026-01-23 00:29:43.08	163.25	1.77	-49.8	-64.8	3.6	1.51e+00	0	40	104	0	60	62871
2026-01-23 00:29:44.09	163.26	1.84	-49.8	-64.7	3.6	1.51e+00	0	40	104	0	60	62177
2026-01-23 00:29:45.10	163.28	1.90	-49.8	-64.8	3.6	1.51e+00	0	40	104	0	60	62782
2026-01-23 00:29:46.11	163.29	1.97	-49.8	-64.7	3.6	1.51e+00	0	40	104	0	60	62137
2026-01-23 00:29:47.12	163.30	2.03	-49.8	-64.8	3.6	1.51e+00	0	40	104	0	60	62820
2026-01-23 00:29:48.13	163.31	2.10	-49.8	-64.9	3.6	1.51e+00	0	40	104	0	60	63597
2026-01-23 00:29:49.14	163.33	2.16	-49.8	-65.0	3.6	1.51e+00	0	40	104	0	60	63944
2026-01-23 00:29:50.15	163.34	2.23	-49.8	-64.9	3.6	1.51e+00	0	40	104	0	60	63800
2026-01-23 00:29:51.16	163.35	2.29	-49.8	-64.9	3.6	1.51e+00	0	40	104	0	60	63595
2026-01-23 00:29:52.17	163.37	2.36	-49.8	-64.9	3.6	1.51e+00	0	40	104	0	60	63587
2026-01-23 00:29:53.18	163.38	2.42	-49.8	-64.8	3.6	1.51e+00	0	40	104	0	60	63030
2026-01-23 00:29:54.19	163.39	2.49	-49.8	-64.7	3.6	1.51e+00	0	40	104	0	60	62356
2026-01-23 00:29:55.20	163.40	2.56	-49.8	-64.7	3.6	1.51e+00	0	40	104	0	60	62374
2026-01-23 00:29:56.21	163.42	2.62	-49.8	-64.5	3.6	1.51e+00	0	40	104	0	60	60936
2026-01-23 00:29:57.22	163.43	2.69	-49.7	-64.4	3.6	1.51e+00	0	40	104	0	60	60205
2026-01-23 00:29:58.23	163.44	2.75	-49.7	-64.2	3.6	1.51e+00	0	40	104	0	60	58795
2026-01-23 00:29:59.24	163.46	2.82	-49.7	-64.1	3.6	1.51e+00	0	40	104	0	60	57863
2026-01-23 00:30:00.25	163.47	2.89	-49.7	-64.1	3.6	1.51e+00	0	40	104	0	60	58245
2026-01-23 00:30:01.26	163.48	2.95	-49.7	-64.5	3.6	1.51e+00	0	40	104	0	60	60356
2026-01-23 00:30:02.27	163.50	3.02	-49.8	-64.8	3.6	1.51e+00	0	40	104	0	60	62675
2026-01-23 00:30:03.28	163.51	3.09	-49.8	-64.9	3.6	1.51e+00	0	40	104	0	60	63416
2026-01-23 00:30:04.29	163.52	3.16	-49.7	-64.3	3.6	1.51e+00	0	40	104	0	60	59074
2026-01-23 00:30:05.30	163.54	3.22	-49.6	-62.4	3.8	1.50e+00	0	40	104	0	60	47584
2026-01-23 00:30:06.31	163.55	3.29	-49.5	-58.7	4.6	1.33e+00	92	40	0	0	60	31153
2026-01-23 00:30:07.32	163.56	3.36	-49.3	-57.2	6.0	4.32e-01	70	40	0	2097152	60	26089
2026-01-23 00:30:08.33	163.58	3.43	-48.8	-54.9	8.3	9.30e-02	92	40	0	4194304	60	20141
2026-01-23 00:30:09.34	163.59	3.49	-48.5	-54.1	9.2	4.59e-02	0	40	0	6291456	60	18416
2026-01-23 00:30:10.35	163.60	3.56	-48.0	-52.7	10.9	1.12e-02	92	40	0	8388608	60	15609
2026-01-23 00:30:11.36	163.62	3.63	-47.8	-52.2	11.6	2.37e-03	92	40	0	9437184	60	14668
2026-01-23 00:30:12.37	163.63	3.70	-47.8	-52.2	11.5	4.60e-04	90	40	0	11534336	60	14773
2026-01-23 00:30:13.38	163.65	3.77	-47.6	-51.7	12.1	3.39e-04	91	40	0	13631488	60	13853
2026-01-23 00:30:14.39	163.66	3.84	-47.8	-52.2	11.5	5.83e-04	91	40	0	15728640	60	14740
2026-01-23 00:30:15.40	163.67	3.91	-48.7	-54.8	7.6	1.13e-03	90	40	0	17825792	60	19787
2026-01-23 00:30:16.41	163.69	3.98	-49.8	-64.1	3.6	1.51e+00	0	40	104	17825792	60	58139
2026-01-23 00:30:17.42	163.70	4.05	-48.0	-52.8	12.3	4.88e-01	92	40	104	17825792	60	15765
2026-01-23 00:30:18.43	163.72	4.12	-49.7	-63.3	3.6	1.51e+00	0	40	104	17825792	60	52571
2026-01-23 00:30:19.44	163.73	4.19	-46.9	-50.4	13.1	1.08e+00	90	40	104	17825792	60	12007
2026-01-23 00:30:20.45	163.74	4.26	-49.8	-64.5	3.6	1.15e+00	0	40	104	17825792	60	60932
2026-01-23 00:30:21.46	163.76	4.33	-47.3	-51.2	12.5	3.09e-01	90	40	104	17825792	60	13183
2026-01-23 00:30:22.47	163.77	4.40	-46.9	-50.3	13.1	8.39e-05	91	40	0	18874368	60	11829
2026-01-23 00:30:23.48	163.79	4.47	-47.0	-50.5	13.4	1.37e-05	11	40	0	20971520	60	12091
2026-01-23 00:30:24.49	163.80	4.54	-47.0	-50.4	13.7	3.00e-06	92	40	0	22020096	60	11961
2026-01-23 00:30:25.50	163.82	4.61	-46.6	-49.6	14.5	7.60e-06	92	40	0	24117248	60	10877
2026-01-23 00:30:26.51	163.83	4.68	-46.1	-48.7	15.4	7.00e-07	91	40	0	26214400	60	9866
2026-01-23 00:30:27.52	163.85	4.75	-45.9	-48.5	15.6	0.00e+00	90	40	0	28311552	60	9587
2026-01-23 00:30:28.53	163.86	4.82	-45.6	-48.0	16.0	0.00e+00	92	40	0	30408704	60	9042
2026-01-23 00:30:29.54	163.87	4.89	-45.5	-47.8	16.4	0.00e+00	92	40	0	31457280	60	8884
2026-01-23 00:30:30.54	163.89	4.97	-45.6	-47.9	16.1	0.00e+00	35	40	0	33554432	60	9006
2026-01-23 00:30:31.55	163.90	5.04	-45.0	-47.0	17.1	0.00e+00	92	40	0	35651584	60	8091
2026-01-23 00:30:32.56	163.92	5.11	-44.6	-46.5	17.8	0.00e+00	0	40	0	37748736	60	7601
2026-01-23 00:30:33.57	163.93	5.18	-44.1	-45.8	18.5	0.00e+00	92	40	0	39845888	60	7068
2026-01-23 00:30:34.58	163.95	5.26	-44.3	-46.1	17.9	0.00e+00	92	40	0	41943040	60	7325
2026-01-23 00:30:35.59	163.96	5.33	-44.2	-46.0	18.3	0.00e+00	90	40	0	42991616	60	7214
2026-01-23 00:30:36.60	163.98	5.40	-44.3	-46.0	18.2	0.00e+00	91	40	0	45088768	60	7243
2026-01-23 00:30:37.60	163.99	5.47	-44.2	-45.9	18.1	0.00e+00	92	40	0	47185920	60	7134
2026-01-23 00:30:38.61	164.01	5.55	-44.2	-45.9	18.0	0.00e+00	90	40	0	49283072	60	7133
2026-01-23 00:30:39.62	164.02	5.62	-44.3	-46.1	18.1	0.00e+00	30	40	0	51380224	60	7307
2026-01-23 00:30:40.63	164.04	5.70	-44.2	-45.9	18.3	0.00e+00	92	40	0	52428800	60	7169
2026-01-23 00:30:41.64	164.05	5.77	-44.2	-45.9	18.7	0.00e+00	35	40	0	54525952	60	7157
2026-01-23 00:30:42.65	164.07	5.84	-44.0	-45.7	18.7	0.00e+00	91	40	0	56623104	60	6969
2026-01-23 00:30:43.66	164.09	5.92	-44.0	-45.6	18.6	0.00e+00	92	40	0	58720256	60	6902
2026-01-23 00:30:44.67	164.10	5.99	-43.9	-45.6	19.0	0.00e+00	92	40	0	60817408	60	6866
2026-01-23 00:30:45.68	164.12	6.07	-44.0	-45.6	19.0	0.00e+00	92	40	0	61865984	60	6905
2026-01-23 00:30:46.69	164.13	6.14	-43.9	-45.5	18.8	0.00e+00	6	40	0	63963136	60	6784
2026-01-23 00:30:47.70	164.15	6.22	-43.9	-45.5	18.7	0.00e+00	92	40	0	66060288	60	6789
2026-01-23 00:30:48.71	164.16	6.29	-43.6	-45.2	19.2	0.00e+00	0	40	0	68157440	60	6566
2026-01-23 00:30:49.72	164.18	6.37	-43.6	-45.2	19.2	0.00e+00	92	40	0	70254592	60	6565
2026-01-23 00:30:50.73	164.20	6.45	-43.6	-45.1	19.1	0.00e+00	90	40	0	71303168	60	6539
2026-01-23 00:30:51.74	164.21	6.52	-43.4	-44.8	19.6	0.00e+00	92	40	0	73400320	60	6291
2026-01-23 00:30:52.75	164.23	6.60	-43.1	-44.5	19.8	0.00e+00	92	40	0	75497472	60	6037
2026-01-23 00:30:53.76	164.24	6.68	-43.3	-44.7	19.9	0.00e+00	0	40	0	77594624	60	6240
2026-01-23 00:30:54.77	164.26	6.75	-43.2	-44.7	19.7	0.00e+00	92	40	0	79691776	60	6204
2026-01-23 00:30:55.78	164.28	6.83	-43.3	-44.7	19.9	0.00e+00	0	40	0	80740352	60	6210
2026-01-23 00:30:56.79	164.29	6.91	-43.1	-44.6	19.8	0.00e+00	92	40	0	82837504	60	6104
2026-01-23 00:30:57.80	164.31	6.99	-42.9	-44.3	20.2	0.00e+00	92	40	0	84934656	60	5923
2026-01-23 00:30:58.81	164.33	7.06	-42.8	-44.2	20.2	0.00e+00	92	40	0	87031808	60	5853
2026-01-23 00:30:59.82	164.34	7.14	-43.0	-44.4	20.0	0.00e+00	92	41	0	89128960	60	6006
2026-01-23 00:31:00.83	164.36	7.22	-42.6	-44.0	20.3	0.00e+00	92	40	0	90177536	58	6399
2026-01-23 00:31:01.84	164.38	7.30	-42.7	-44.0	20.3	0.00e+00	93	40	0	92274688	58	6411
2026-01-23 00:31:02.85	164.39	7.38	-42.8	-44.2	20.1	0.00e+00	2	41	0	94371840	58	6572
2026-01-23 00:31:03.86	164.41	7.46	-42.7	-44.0	20.3	0.00e+00	92	40	0	96468992	58	6450
2026-01-23 00:31:04.87	164.43	7.54	-42.8	-44.2	20.1	0.00e+00	92	41	0	98566144	58	6571
2026-01-23 00:31:05.88	164.44	7.62	-42.7	-44.1	20.3	0.00e+00	92	41	0	100663296	58	6473
2026-01-23 00:31:06.89	164.46	7.70	-42.7	-44.0	20.4	0.00e+00	92	40	0	101711872	58	6420
2026-01-23 00:31:07.90	164.48	7.78	-42.7	-44.1	20.4	0.00e+00	0	40	0	103809024	58	6475
2026-01-23 00:31:08.91	164.50	7.86	-43.0	-44.4	20.0	0.00e+00	92	41	0	105906176	58	6720
2026-01-23 00:31:09.92	164.51	7.94	-42.7	-44.0	20.4	0.00e+00	0	41	0	108003328	58	6420
2026-01-23 00:31:10.94	164.53	8.02	-42.7	-44.0	20.5	0.00e+00	92	40	0	110100480	58	6399
2026-01-23 00:31:11.94	164.55	8.10	-42.7	-44.0	20.4	0.00e+00	0	40	0	111149056	58	6425
2026-01-23 00:31:12.96	164.57	8.18	-42.5	-43.8	20.6	0.00e+00	92	40	0	113246208	58	6254
2026-01-23 00:31:13.97	164.58	8.26	-42.5	-43.8	20.6	0.00e+00	91	40	0	115343360	58	6246
2026-01-23 00:31:14.98	164.60	8.34	-42.5	-43.8	20.7	0.00e+00	43	40	0	117440512	58	6255
2026-01-23 00:31:15.99	164.62	8.43	-42.4	-43.7	20.6	0.00e+00	91	40	0	119537664	58	6224
2026-01-23 00:31:17.00	164.64	8.51	-42.4	-43.7	20.7	0.00e+00	37	41	0	120586240	58	6204
2026-01-23 00:31:18.01	164.65	8.59	-42.7	-44.0	20.4	0.00e+00	91	40	0	122683392	58	6459
2026-01-23 00:31:19.01	164.67	8.67	-42.6	-43.9	20.5	0.00e+00	32	41	0	124780544	58	6334
2026-01-23 00:31:20.02	164.69	8.76	-43.0	-44.4	20.1	0.00e+00	92	40	0	126877696	58	6714
2026-01-23 00:31:21.04	164.71	8.84	-42.8	-44.1	20.3	0.00e+00	92	40	0	128974848	58	6482
2026-01-23 00:31:22.04	164.73	8.92	-42.7	-44.0	20.9	0.00e+00	90	41	0	130023424	58	6441
2026-01-23 00:31:23.05	164.75	9.01	-42.7	-44.0	20.6	0.00e+00	92	41	0	132120576	58	6394
2026-01-23 00:31:24.06	164.76	9.09	-42.5	-43.7	20.5	0.00e+00	43	41	0	134217728	58	6231
2026-01-23 00:31:25.07	164.78	9.18	-42.7	-44.0	20.4	0.00e+00	92	41	0	136314880	58	6429
2026-01-23 00:31:26.08	164.80	9.26	-42.4	-43.7	20.8	0.00e+00	2	41	0	138412032	58	6189
2026-01-23 00:31:27.09	164.82	9.35	-42.4	-43.6	21.0	0.00e+00	92	41	0	139460608	58	6151
2026-01-23 00:31:28.10	164.84	9.43	-42.0	-43.2	21.2	0.00e+00	92	40	0	141557760	58	5831
2026-01-23 00:31:29.11	164.86	9.52	-42.0	-43.2	21.2	0.00e+00	92	41	0	143654912	58	5865
2026-01-23 00:31:30.12	164.88	9.61	-41.9	-43.1	21.3	0.00e+00	92	40	0	145752064	58	5795
2026-01-23 00:31:31.12	164.90	9.69	-41.9	-43.0	21.4	0.00e+00	49	40	0	147849216	58	5753
2026-01-23 00:31:32.14	164.92	9.78	-41.9	-43.1	21.4	0.00e+00	90	41	0	148897792	58	5771
2026-01-23 00:31:33.15	164.93	9.87	-41.8	-42.9	21.6	0.00e+00	0	41	0	150994944	56	6383
2026-01-23 00:31:34.16	164.95	9.95	-41.9	-43.1	21.4	0.00e+00	92	41	0	153092096	56	6485
2026-01-23 00:31:35.17	164.97	10.04	-41.6	-42.7	21.7	0.00e+00	34	41	0	155189248	56	6235
2026-01-23 00:31:36.18	164.99	10.13	-41.7	-42.8	21.6	0.00e+00	90	41	0	157286400	56	6313
2026-01-23 00:31:37.19	165.01	10.22	-41.6	-42.7	21.8	0.00e+00	92	41	0	158334976	56	6179
2026-01-23 00:31:38.20	165.03	10.31	-41.6	-42.7	21.8	0.00e+00	92	41	0	160432128	56	6183
2026-01-23 00:31:39.21	165.05	10.39	-41.6	-42.7	21.9	0.00e+00	92	41	0	162529280	56	6214
2026-01-23 00:31:40.22	165.07	10.48	-41.6	-42.7	21.9	0.00e+00	32	41	0	164626432	56	6179
2026-01-23 00:31:41.23	165.09	10.57	-41.4	-42.5	22.0	0.00e+00	92	40	0	166723584	56	6063
2026-01-23 00:31:42.24	165.11	10.66	-41.5	-42.6	22.0	0.00e+00	68	41	0	168820736	56	6137
2026-01-23 00:31:43.25	165.13	10.75	-41.6	-42.7	21.8	0.00e+00	92	40	0	169869312	56	6187
2026-01-23 00:31:44.26	165.15	10.84	-41.4	-42.4	22.1	0.00e+00	92	41	0	171966464	56	6013
2026-01-23 00:31:45.27	165.17	10.93	-41.4	-42.5	22.0	0.00e+00	92	40	0	174063616	56	6055
2026-01-23 00:31:46.28	165.20	11.03	-41.2	-42.3	22.3	0.00e+00	92	41	0	176160768	56	5932
2026-01-23 00:31:47.29	165.22	11.12	-41.3	-42.4	22.2	0.00e+00	7	40	0	178257920	56	5987
2026-01-23 00:31:48.30	165.24	11.21	-41.3	-42.4	22.2	0.00e+00	92	41	0	179306496	56	5994
2026-01-23 00:31:49.31	165.26	11.30	-41.2	-42.3	22.3	0.00e+00	0	41	0	181403648	56	5911
2026-01-23 00:31:50.32	165.28	11.39	-41.3	-42.4	22.2	0.00e+00	91	41	0	183500800	56	5966
2026-01-23 00:31:51.33	165.30	11.49	-41.2	-42.2	22.2	0.00e+00	91	41	0	185597952	56	5893
2026-01-23 00:31:52.34	165.32	11.58	-41.2	-42.3	22.3	0.00e+00	90	41	0	187695104	56	5921
2026-01-23 00:31:53.35	165.34	11.67	-41.2	-42.3	22.2	0.00e+00	92	41	0	188743680	56	5899
2026-01-23 00:31:54.36	165.36	11.77	-41.1	-42.1	22.5	0.00e+00	0	41	0	190840832	56	5798
2026-01-23 00:31:55.37	165.39	11.86	-41.2	-42.2	22.4	0.00e+00	92	41	0	192937984	56	5854
2026-01-23 00:31:56.38	165.41	11.96	-41.0	-42.0	22.5	0.00e+00	40	41	0	195035136	56	5749
2026-01-23 00:31:57.39	165.43	12.05	-41.0	-42.1	22.5	0.00e+00	92	41	0	197132288	56	5774
2026-01-23 00:31:58.40	165.45	12.15	-40.9	-41.9	22.7	0.00e+00	39	41	0	198180864	56	5641
2026-01-23 00:31:59.41	165.47	12.24	-40.8	-41.8	22.7	0.00e+00	92	41	0	200278016	56	5626
2026-01-23 00:32:00.42	165.50	12.34	-40.8	-41.8	22.7	0.00e+00	92	41	0	202375168	54	6247
2026-01-23 00:32:01.43	165.52	12.44	-40.6	-41.6	22.9	0.00e+00	92	41	0	204472320	54	6124
2026-01-23 00:32:02.44	165.54	12.53	-40.7	-41.7	22.7	0.00e+00	92	41	0	206569472	54	6174
2026-01-23 00:32:03.44	165.56	12.63	-40.7	-41.7	22.7	0.00e+00	7	41	0	207618048	54	6232
2026-01-23 00:32:04.45	165.59	12.73	-40.7	-41.7	22.7	0.00e+00	92	41	0	209715200	54	6187
2026-01-23 00:32:05.47	165.61	12.83	-40.7	-41.6	22.8	0.00e+00	57	41	0	211812352	54	6172
2026-01-23 00:32:06.48	165.63	12.92	-40.6	-41.6	22.9	0.00e+00	92	41	0	213909504	54	6127
2026-01-23 00:32:07.48	165.65	13.02	-40.7	-41.7	22.6	0.00e+00	92	41	0	216006656	54	6199
2026-01-23 00:32:08.49	165.68	13.12	-40.9	-41.9	22.5	0.00e+00	92	41	0	217055232	54	6384
2026-01-23 00:32:09.50	165.70	13.22	-41.0	-42.0	22.4	0.00e+00	92	41	0	219152384	54	6458
2026-01-23 00:32:10.51	165.73	13.32	-40.8	-41.8	22.8	0.00e+00	12	41	0	221249536	54	6259
2026-01-23 00:32:11.52	165.75	13.42	-40.8	-41.8	22.7	0.00e+00	92	41	0	223346688	54	6308
2026-01-23 00:32:12.52	165.77	13.52	-40.8	-41.8	22.7	0.00e+00	0	41	0	225443840	54	6248
2026-01-23 00:32:13.53	165.80	13.62	-41.1	-42.1	22.4	0.00e+00	92	41	0	226492416	54	6532
2026-01-23 00:32:14.54	165.82	13.73	-40.9	-42.0	22.5	0.00e+00	78	41	0	228589568	54	6391
2026-01-23 00:32:15.55	165.84	13.83	-40.8	-41.8	22.7	0.00e+00	90	41	0	230686720	54	6295
2026-01-23 00:32:16.56	165.87	13.93	-40.8	-41.8	22.8	0.00e+00	92	41	0	232783872	54	6296
2026-01-23 00:32:17.57	165.89	14.03	-40.5	-41.5	22.9	0.00e+00	90	41	0	234881024	54	6079
2026-01-23 00:32:18.58	165.92	14.14	-40.6	-41.6	22.9	0.00e+00	92	41	0	236978176	54	6105
2026-01-23 00:32:19.59	165.94	14.24	-40.6	-41.6	22.8	0.00e+00	33	41	0	238026752	54	6139
2026-01-23 00:32:20.60	165.97	14.34	-40.6	-41.6	23.1	0.00e+00	92	41	0	240123904	54	6111
2026-01-23 00:32:21.62	165.99	14.45	-40.6	-41.6	22.9	0.00e+00	9	41	0	242221056	54	6110
2026-01-23 00:32:22.63	166.02	14.56	-40.6	-41.5	23.1	0.00e+00	92	41	0	244318208	54	6076
2026-01-23 00:32:23.63	166.04	14.66	-40.6	-41.6	23.0	0.00e+00	92	41	0	246415360	54	6106
2026-01-23 00:32:24.64	166.07	14.77	-40.7	-41.7	22.9	0.00e+00	92	41	0	247463936	54	6181
2026-01-23 00:32:25.65	166.10	14.87	-40.4	-41.4	23.1	0.00e+00	92	41	0	249561088	54	5991
2026-01-23 00:32:26.66	166.12	14.98	-40.5	-41.5	23.0	0.00e+00	45	41	0	251658240	54	6060
2026-01-23 00:32:27.67	166.15	15.09	-40.5	-41.4	23.1	0.00e+00	92	41	0	253755392	54	6027
2026-01-23 00:32:28.68	166.17	15.20	-40.4	-41.4	23.1	0.00e+00	47	41	0	255852544	54	5976
2026-01-23 00:32:29.69	166.20	15.30	-40.5	-41.4	23.1	0.00e+00	90	41	0	256901120	54	6030
2026-01-23 00:32:30.71	166.23	15.42	-40.5	-41.4	23.0	0.00e+00	92	41	0	258998272	54	6019
2026-01-23 00:32:31.72	166.25	15.52	-40.5	-41.4	23.2	0.00e+00	92	41	0	261095424	54	6008
2026-01-23 00:32:32.72	166.28	15.63	-40.5	-41.4	23.1	0.00e+00	92	41	0	263192576	54	6012
2026-01-23 00:32:33.73	166.31	15.74	-40.4	-41.4	23.2	0.00e+00	90	41	0	265289728	54	5987
2026-01-23 00:32:34.74	166.33	15.85	-40.5	-41.5	23.0	0.00e+00	92	41	0	266338304	54	6048
2026-01-23 00:32:35.75	166.36	15.97	-40.5	-41.4	23.1	0.00e+00	17	41	0	268435456	54	6013
2026-01-23 00:32:36.76	166.39	16.08	-40.3	-41.3	23.3	0.00e+00	92	41	0	270532608	54	5902
2026-01-23 00:32:37.77	166.42	16.19	-40.3	-41.2	23.3	0.00e+00	16	41	0	272629760	54	5895
2026-01-23 00:32:38.78	166.45	16.30	-40.4	-41.3	23.3	0.00e+00	92	41	0	274726912	54	5931
2026-01-23 00:32:39.78	166.47	16.42	-40.5	-41.4	23.2	0.00e+00	92	41	0	275775488	54	6011
2026-01-23 00:32:40.80	166.50	16.53	-40.4	-41.4	23.2	0.00e+00	91	41	0	277872640	54	5974
2026-01-23 00:32:41.80	166.53	16.65	-40.3	-41.2	23.4	0.00e+00	91	41	0	279969792	54	5858
2026-01-23 00:32:42.81	166.56	16.76	-40.3	-41.2	23.3	0.00e+00	35	41	0	282066944	54	5892
2026-01-23 00:32:43.82	166.59	16.88	-40.3	-41.2	23.3	0.00e+00	92	41	0	284164096	54	5880
2026-01-23 00:32:44.83	166.62	16.99	-40.5	-41.4	23.2	0.00e+00	33	41	0	285212672	54	6015
2026-01-23 00:32:45.84	166.65	17.11	-40.2	-41.2	23.3	0.00e+00	92	41	0	287309824	54	5848
2026-01-23 00:32:46.85	166.68	17.23	-40.4	-41.3	23.2	0.00e+00	92	41	0	289406976	54	5923
2026-01-23 00:32:47.85	166.70	17.34	-40.3	-41.3	23.3	0.00e+00	90	41	0	291504128	54	5900
2026-01-23 00:32:48.86	166.73	17.46	-40.4	-41.3	23.2	0.00e+00	90	41	0	293601280	54	5956
2026-01-23 00:32:49.87	166.76	17.58	-40.4	-41.3	23.3	0.00e+00	52	41	0	294649856	54	5925
2026-01-23 00:32:50.88	166.80	17.70	-40.3	-41.2	23.3	0.00e+00	92	41	0	296747008	54	5892
2026-01-23 00:32:51.89	166.83	17.82	-40.4	-41.3	23.3	0.00e+00	45	41	0	298844160	54	5941
2026-01-23 00:32:52.90	166.86	17.94	-40.4	-41.3	23.2	0.00e+00	92	41	0	300941312	54	5948
2026-01-23 00:32:53.91	166.89	18.06	-40.4	-41.3	23.1	0.00e+00	92	41	0	303038464	54	5964
2026-01-23 00:32:54.92	166.92	18.18	-40.4	-41.3	23.3	0.00e+00	90	41	0	305135616	54	5924
2026-01-23 00:32:55.93	166.95	18.31	-40.3	-41.3	23.3	0.00e+00	92	41	0	306184192	54	5912
2026-01-23 00:32:56.94	166.98	18.43	-40.5	-41.4	23.3	0.00e+00	92	41	0	308281344	54	5992
2026-01-23 00:32:57.94	167.01	18.55	-40.4	-41.4	23.2	0.00e+00	92	41	0	310378496	54	5975
2026-01-23 00:32:58.96	167.05	18.68	-40.4	-41.4	23.3	0.00e+00	0	41	0	312475648	54	5971
2026-01-23 00:32:59.96	167.08	18.80	-40.4	-41.4	23.2	0.00e+00	92	41	0	314572800	54	5970
2026-01-23 00:33:00.97	167.11	18.93	-40.4	-41.4	23.2	0.00e+00	92	41	0	315621376	54	5980
2026-01-23 00:33:01.98	167.14	19.05	-40.4	-41.3	23.2	0.00e+00	92	41	0	317718528	54	5959
2026-01-23 00:33:02.99	167.18	19.18	-40.5	-41.4	23.2	0.00e+00	90	41	0	319815680	54	6023
2026-01-23 00:33:04.00	167.21	19.31	-40.6	-41.6	23.0	0.00e+00	92	41	0	321912832	54	6104
2026-01-23 00:33:05.01	167.24	19.44	-40.6	-41.6	23.0	0.00e+00	92	41	0	324009984	54	6127
2026-01-23 00:33:06.02	167.28	19.57	-40.6	-41.6	23.0	0.00e+00	42	41	0	325058560	54	6116
2026-01-23 00:33:07.03	167.31	19.69	-40.7	-41.7	23.0	0.00e+00	92	41	0	327155712	54	6206
2026-01-23 00:33:08.04	167.35	19.82	-40.7	-41.7	22.9	0.00e+00	0	41	0	329252864	54	6195
2026-01-23 00:33:09.05	167.38	19.96	-40.8	-41.8	22.8	0.00e+00	92	41	0	331350016	54	6250
2026-01-23 00:33:10.06	167.41	20.09	-40.7	-41.7	22.9	0.00e+00	92	41	0	333447168	54	6193
2026-01-23 00:33:11.07	167.45	20.22	-40.8	-41.8	22.9	0.00e+00	92	41	0	334495744	54	6246
2026-01-23 00:33:12.08	167.49	20.35	-40.8	-41.8	22.8	0.00e+00	92	41	0	336592896	54	6305
2026-01-23 00:33:13.08	167.52	20.48	-40.9	-41.9	22.8	0.00e+00	8	41	0	338690048	54	6349
2026-01-23 00:33:14.09	167.56	20.62	-41.0	-42.0	22.7	0.00e+00	93	41	0	340787200	54	6416
2026-01-23 00:33:15.10	167.59	20.75	-41.1	-42.1	22.6	0.00e+00	7	41	0	342884352	54	6509
2026-01-23 00:33:16.11	167.63	20.89	-41.0	-42.0	22.6	0.00e+00	90	41	0	343932928	54	6456
2026-01-23 00:33:17.12	167.67	21.03	-41.1	-42.1	22.6	0.00e+00	92	41	0	346030080	54	6496
2026-01-23 00:33:18.13	167.70	21.16	-41.1	-42.1	22.6	0.00e+00	92	41	0	348127232	54	6497
2026-01-23 00:33:19.14	167.74	21.30	-41.1	-42.1	22.5	0.00e+00	93	41	0	350224384	54	6503
2026-01-23 00:33:20.15	167.78	21.44	-41.1	-42.1	22.5	0.00e+00	38	41	0	352321536	54	6539
2026-01-23 00:33:21.16	167.82	21.58	-41.1	-42.1	22.6	0.00e+00	90	41	0	353370112	54	6527
2026-01-23 00:33:22.17	167.85	21.72	-41.1	-42.1	22.5	0.00e+00	7	41	0	355467264	54	6482
2026-01-23 00:33:23.18	167.89	21.86	-41.2	-42.2	22.6	0.00e+00	90	41	0	357564416	54	6581
2026-01-23 00:33:24.19	167.93	22.00	-41.2	-42.2	22.4	0.00e+00	6	41	0	359661568	54	6582
2026-01-23 00:33:25.20	167.97	22.15	-41.4	-42.4	22.4	0.00e+00	90	41	0	361758720	54	6756
2026-01-23 00:33:26.21	168.01	22.29	-41.2	-42.2	22.6	0.00e+00	92	41	0	362807296	54	6549
2026-01-23 00:33:27.22	168.05	22.43	-41.2	-42.2	22.5	0.00e+00	92	41	0	364904448	54	6587
2026-01-23 00:33:28.23	168.09	22.58	-41.3	-42.3	22.4	0.00e+00	92	41	0	367001600	54	6664
2026-01-23 00:33:29.24	168.13	22.72	-41.3	-42.3	22.5	0.00e+00	49	41	0	369098752	54	6636
2026-01-23 00:33:30.25	168.17	22.87	-41.2	-42.2	22.5	0.00e+00	90	41	0	371195904	54	6605
2026-01-23 00:33:31.26	168.21	23.02	-41.2	-42.2	22.5	0.00e+00	0	41	0	373293056	54	6602
2026-01-23 00:33:32.27	168.26	23.17	-41.3	-42.4	22.4	0.00e+00	92	41	0	374341632	54	6694
2026-01-23 00:33:33.27	168.30	23.31	-41.2	-42.2	22.5	0.00e+00	92	41	0	376438784	54	6581
2026-01-23 00:33:34.28	168.34	23.46	-41.3	-42.3	22.4	0.00e+00	91	41	0	378535936	54	6664
2026-01-23 00:33:35.29	168.38	23.61	-41.3	-42.4	22.3	0.00e+00	92	41	0	380633088	54	6703
2026-01-23 00:33:36.30	168.43	23.77	-41.4	-42.5	22.3	0.00e+00	2	41	0	382730240	54	6771
2026-01-23 00:33:37.31	168.47	23.92	-41.3	-42.3	22.5	0.00e+00	92	41	0	383778816	54	6683
2026-01-23 00:33:38.32	168.51	24.07	-41.4	-42.4	22.4	0.00e+00	2	41	0	385875968	54	6739
2026-01-23 00:33:39.33	168.56	24.23	-41.2	-42.2	22.5	0.00e+00	92	41	0	387973120	54	6605
2026-01-23 00:33:40.34	168.60	24.38	-41.3	-42.3	22.4	0.00e+00	92	41	0	390070272	54	6674
2026-01-23 00:33:41.35	168.65	24.54	-41.3	-42.3	22.5	0.00e+00	92	41	0	392167424	54	6655
2026-01-23 00:33:42.36	168.69	24.69	-41.1	-42.1	22.6	0.00e+00	92	41	0	393216000	54	6511
2026-01-23 00:33:43.37	168.74	24.85	-41.0	-42.0	22.7	0.00e+00	57	41	0	395313152	54	6451
2026-01-23 00:33:44.38	168.79	25.01	-41.0	-42.0	22.8	0.00e+00	92	41	0	397410304	54	6418
2026-01-23 00:33:45.39	168.83	25.17	-40.9	-41.9	22.8	0.00e+00	39	41	0	399507456	54	6368
2026-01-23 00:33:46.40	168.88	25.33	-40.9	-41.8	22.8	0.00e+00	92	41	0	401604608	54	6313
2026-01-23 00:33:47.41	168.93	25.49	-40.7	-41.7	23.0	0.00e+00	92	41	0	402653184	54	6196
2026-01-23 00:33:48.42	168.98	25.66	-40.8	-41.8	22.9	0.00e+00	92	41	0	404750336	54	6285
2026-01-23 00:33:49.43	169.02	25.82	-40.8	-41.8	23.0	0.00e+00	92	41	0	406847488	54	6257
2026-01-23 00:33:50.44	169.07	25.98	-40.8	-41.7	23.0	0.00e+00	92	41	0	408944640	54	6227
2026-01-23 00:33:51.45	169.12	26.15	-40.8	-41.7	23.1	0.00e+00	92	41	0	411041792	54	6232
2026-01-23 00:33:52.46	169.17	26.32	-40.9	-41.8	22.9	0.00e+00	51	41	0	412090368	54	6302
2026-01-23 00:33:53.47	169.22	26.48	-40.8	-41.8	23.0	0.00e+00	92	41	0	414187520	54	6255
2026-01-23 00:33:54.47	169.27	26.65	-40.8	-41.7	23.0	0.00e+00	0	41	0	416284672	54	6232
2026-01-23 00:33:55.49	169.33	26.82	-40.8	-41.8	22.9	0.00e+00	92	41	0	418381824	54	6270
2026-01-23 00:33:56.49	169.38	26.99	-40.8	-41.7	23.0	0.00e+00	92	41	0	420478976	54	6217
2026-01-23 00:33:57.50	169.43	27.16	-40.8	-41.8	22.9	0.00e+00	92	41	0	421527552	54	6272
2026-01-23 00:33:58.52	169.48	27.34	-40.9	-41.8	22.9	0.00e+00	92	41	0	423624704	54	6304
2026-01-23 00:33:59.52	169.54	27.51	-41.0	-42.0	22.7	0.00e+00	0	41	0	425721856	54	6403
2026-01-23 00:34:00.53	169.59	27.69	-41.0	-42.0	22.8	0.00e+00	92	41	0	427819008	54	6421
2026-01-23 00:34:01.54	169.65	27.86	-41.1	-42.1	22.7	0.00e+00	6	41	0	429916160	54	6488
2026-01-23 00:34:02.55	169.70	28.04	-41.1	-42.1	22.7	0.00e+00	91	41	0	430964736	54	6516
2026-01-23 00:34:03.55	169.76	28.22	-41.3	-42.3	22.5	0.00e+00	92	41	0	433061888	54	6629
2026-01-23 00:34:04.56	169.81	28.40	-41.3	-42.3	22.5	0.00e+00	92	41	0	435159040	54	6640
2026-01-23 00:34:05.57	169.87	28.58	-41.5	-42.5	22.3	0.00e+00	92	41	0	437256192	54	6839
2026-01-23 00:34:06.58	169.93	28.76	-41.6	-42.7	22.2	0.00e+00	90	41	0	439353344	54	6937
2026-01-23 00:34:07.59	169.99	28.94	-41.9	-43.0	22.0	0.00e+00	92	41	0	440401920	56	6425
2026-01-23 00:34:08.60	170.05	29.13	-42.1	-43.2	21.8	0.00e+00	42	41	0	442499072	56	6592
2026-01-23 00:34:09.61	170.11	29.31	-42.4	-43.6	21.4	0.00e+00	90	41	0	444596224	56	6874
2026-01-23 00:34:10.62	170.17	29.50	-42.4	-43.6	21.4	0.00e+00	42	41	0	446693376	56	6868
2026-01-23 00:34:11.63	170.23	29.69	-42.2	-43.3	21.6	0.00e+00	90	41	0	448790528	56	6675
2026-01-23 00:34:12.64	170.29	29.87	-42.3	-43.5	21.5	0.00e+00	92	41	0	449839104	56	6777
2026-01-23 00:34:13.65	170.35	30.06	-42.4	-43.5	21.5	0.00e+00	91	41	0	451936256	56	6827
2026-01-23 00:34:14.66	170.41	30.26	-42.5	-43.6	21.4	0.00e+00	92	41	0	454033408	56	6882
2026-01-23 00:34:15.67	170.48	30.45	-42.6	-43.7	21.3	0.00e+00	6	41	0	456130560	56	6979
2026-01-23 00:34:16.68	170.54	30.64	-42.5	-43.7	21.3	0.00e+00	92	41	0	458227712	56	6950
2026-01-23 00:34:17.68	170.61	30.84	-42.6	-43.8	21.2	0.00e+00	0	41	0	459276288	56	7040
2026-01-23 00:34:18.69	170.67	31.03	-42.7	-43.9	21.0	0.00e+00	92	41	0	461373440	56	7096
2026-01-23 00:34:19.70	170.74	31.23	-42.9	-44.1	20.9	0.00e+00	92	41	0	463470592	58	6511
2026-01-23 00:34:20.71	170.81	31.43	-43.1	-44.4	20.7	0.00e+00	90	41	0	465567744	58	6696
2026-01-23 00:34:21.72	170.87	31.63	-43.3	-44.7	20.4	0.00e+00	92	41	0	467664896	58	6928
2026-01-23 00:34:22.73	170.94	31.83	-43.3	-44.6	20.4	0.00e+00	0	41	0	469762048	58	6851
2026-01-23 00:34:23.74	171.01	32.03	-43.4	-44.7	20.3	0.00e+00	91	41	0	470810624	58	6990
2026-01-23 00:34:24.75	171.08	32.24	-43.5	-44.9	20.2	0.00e+00	0	41	0	472907776	58	7136
2026-01-23 00:34:25.76	171.15	32.45	-43.1	-44.4	20.6	0.00e+00	91	41	0	475004928	58	6744
2026-01-23 00:34:26.77	171.23	32.65	-43.0	-44.3	20.7	0.00e+00	92	41	0	477102080	58	6634
2026-01-23 00:34:27.77	171.30	32.86	-42.6	-43.8	21.2	0.00e+00	90	41	0	479199232	58	6317
2026-01-23 00:34:28.78	171.37	33.07	-42.7	-43.9	21.1	0.00e+00	92	41	0	480247808	58	6344
2026-01-23 00:34:29.79	171.45	33.28	-42.5	-43.7	21.3	0.00e+00	39	41	0	482344960	58	6220
2026-01-23 00:34:30.80	171.52	33.49	-42.0	-43.1	21.9	0.00e+00	90	41	0	484442112	58	5809
2026-01-23 00:34:31.81	171.60	33.71	-41.8	-42.8	21.9	0.00e+00	39	41	0	486539264	58	5614
2026-01-23 00:34:32.82	171.68	33.92	-41.5	-42.6	22.4	0.00e+00	90	41	0	488636416	56	6121
2026-01-23 00:34:33.83	171.76	34.14	-41.4	-42.4	22.5	0.00e+00	29	41	0	489684992	56	5984
2026-01-23 00:34:34.84	171.84	34.36	-41.4	-42.4	22.6	0.00e+00	90	41	0	491782144	56	6014
2026-01-23 00:34:35.85	171.92	34.58	-41.2	-42.2	22.7	0.00e+00	92	41	0	493879296	56	5888
2026-01-23 00:34:36.86	172.00	34.80	-41.2	-42.2	22.7	0.00e+00	90	41	0	495976448	56	5868
2026-01-23 00:34:37.87	172.08	35.02	-41.1	-42.1	22.9	0.00e+00	92	41	0	498073600	56	5767
2026-01-23 00:34:38.88	172.17	35.25	-40.6	-41.6	23.2	0.00e+00	37	41	0	499122176	54	6111
2026-01-23 00:34:39.89	172.25	35.47	-40.5	-41.5	23.2	0.00e+00	92	41	0	501219328	54	6052
2026-01-23 00:34:40.90	172.34	35.70	-40.4	-41.3	23.3	0.00e+00	0	41	0	503316480	54	5951
2026-01-23 00:34:41.91	172.43	35.93	-40.2	-41.0	23.7	0.00e+00	92	41	0	505413632	54	5760
2026-01-23 00:34:42.92	172.51	36.16	-40.0	-40.9	23.9	0.00e+00	90	41	0	507510784	54	5674
2026-01-23 00:34:43.93	172.60	36.39	-40.1	-41.0	23.8	0.00e+00	0	41	0	508559360	54	5734
2026-01-23 00:34:44.93	172.69	36.63	-40.2	-41.1	23.6	0.00e+00	92	41	0	510656512	54	5797
2026-01-23 00:34:45.94	172.79	36.86	-40.4	-41.3	23.5	0.00e+00	0	41	0	512753664	54	5912
2026-01-23 00:34:46.96	172.88	37.10	-40.5	-41.4	23.3	0.00e+00	92	41	0	514850816	54	5989
2026-01-23 00:34:47.96	172.98	37.34	-40.5	-41.4	23.2	0.00e+00	23	41	0	516947968	54	6017
2026-01-23 00:34:48.97	173.07	37.58	-40.6	-41.5	23.2	0.00e+00	92	41	0	517996544	54	6074
2026-01-23 00:34:49.98	173.17	37.82	-40.7	-41.7	23.2	0.00e+00	16	41	0	520093696	54	6192
2026-01-23 00:34:50.99	173.27	38.07	-40.7	-41.7	23.2	0.00e+00	91	41	0	522190848	54	6184
2026-01-23 00:34:52.00	173.37	38.31	-40.7	-41.7	23.1	0.00e+00	91	41	0	524288000	54	6193
2026-01-23 00:34:53.01	173.47	38.56	-40.7	-41.7	23.2	0.00e+00	43	41	0	526385152	54	6198
2026-01-23 00:34:54.02	173.57	38.81	-41.0	-41.9	23.0	0.00e+00	91	41	0	527433728	54	6388
2026-01-23 00:34:55.03	173.68	39.06	-40.8	-41.8	23.0	0.00e+00	38	41	0	529530880	54	6252
2026-01-23 00:34:56.04	173.79	39.31	-41.0	-42.0	22.8	0.00e+00	92	41	0	531628032	54	6412
2026-01-23 00:34:57.05	173.89	39.56	-41.2	-42.2	22.6	0.00e+00	90	41	0	533725184	54	6600
2026-01-23 00:34:58.06	174.00	39.82	-41.3	-42.3	22.6	0.00e+00	92	41	0	535822336	54	6665
2026-01-23 00:34:59.07	174.12	40.08	-41.5	-42.5	22.4	0.00e+00	92	41	0	537919488	54	6820
2026-01-23 00:35:00.08	174.23	40.34	-41.4	-42.5	22.4	0.00e+00	9	41	0	538968064	54	6776
2026-01-23 00:35:01.09	174.34	40.60	-41.6	-42.6	22.2	0.00e+00	92	41	0	541065216	54	6920
2026-01-23 00:35:02.10	174.46	40.86	-41.5	-42.5	22.4	0.00e+00	7	41	0	543162368	54	6829
2026-01-23 00:35:03.11	174.58	41.13	-41.6	-42.6	22.3	0.00e+00	92	41	0	545259520	54	6888
2026-01-23 00:35:04.12	174.70	41.39	-41.5	-42.5	22.3	0.00e+00	8	41	0	547356672	54	6816
2026-01-23 00:35:05.13	174.82	41.66	-41.6	-42.6	22.4	0.00e+00	92	41	0	548405248	54	6886
2026-01-23 00:35:06.14	174.95	41.93	-41.6	-42.7	22.3	0.00e+00	92	41	0	550502400	54	6955
2026-01-23 00:35:07.15	175.07	42.21	-41.5	-42.5	22.4	0.00e+00	0	41	0	552599552	54	6826
2026-01-23 00:35:08.16	175.20	42.48	-41.6	-42.6	22.3	0.00e+00	92	41	0	554696704	54	6886
2026-01-23 00:35:09.17	175.33	42.76	-41.5	-42.5	22.3	0.00e+00	34	41	0	556793856	54	6820
2026-01-23 00:35:10.18	175.47	43.03	-41.5	-42.5	22.4	0.00e+00	92	41	0	557842432	54	6802
2026-01-23 00:35:11.19	175.60	43.31	-41.5	-42.6	22.3	0.00e+00	0	41	0	559939584	54	6864
2026-01-23 00:35:12.20	175.74	43.59	-41.4	-42.4	22.5	0.00e+00	92	41	0	562036736	54	6763
2026-01-23 00:35:13.21	175.88	43.88	-41.5	-42.6	22.3	0.00e+00	92	41	0	564133888	54	6852
2026-01-23 00:35:14.22	176.02	44.16	-41.9	-43.0	22.0	0.00e+00	92	41	0	566231040	56	6434
2026-01-23 00:35:15.23	176.17	44.45	-42.1	-43.2	21.7	0.00e+00	92	41	0	567279616	56	6599
2026-01-23 00:35:16.24	176.31	44.74	-42.2	-43.3	21.6	0.00e+00	34	41	0	569376768	56	6689
2026-01-23 00:35:17.25	176.46	45.03	-42.5	-43.6	21.5	0.00e+00	92	41	0	571473920	56	6902
2026-01-23 00:35:18.26	176.62	45.32	-42.3	-43.4	21.7	0.00e+00	35	41	0	573571072	56	6746
2026-01-23 00:35:19.27	176.77	45.62	-42.2	-43.3	21.9	0.00e+00	92	41	0	575668224	56	6644
2026-01-23 00:35:20.28	176.93	45.92	-42.1	-43.1	21.8	0.00e+00	92	41	0	576716800	56	6518
2026-01-23 00:35:21.29	177.09	46.22	-42.2	-43.4	21.6	0.00e+00	92	41	0	578813952	56	6705
2026-01-23 00:35:22.30	177.26	46.52	-42.0	-43.1	22.0	0.00e+00	92	41	0	580911104	56	6478
2026-01-23 00:35:23.31	177.43	46.82	-41.8	-42.8	22.2	0.00e+00	0	41	0	583008256	56	6277
2026-01-23 00:35:24.32	177.60	47.12	-41.7	-42.7	22.3	0.00e+00	92	41	0	585105408	56	6245
2026-01-23 00:35:25.33	177.77	47.43	-42.1	-43.2	21.9	0.00e+00	0	41	0	586153984	56	6588
2026-01-23 00:35:26.34	177.95	47.74	-42.3	-43.4	21.7	0.00e+00	90	41	0	588251136	56	6739
2026-01-23 00:35:27.35	178.13	48.05	-42.2	-43.3	21.7	0.00e+00	0	41	0	590348288	56	6648
2026-01-23 00:35:28.36	178.31	48.36	-42.2	-43.3	21.7	0.00e+00	92	41	0	592445440	56	6672
2026-01-23 00:35:29.37	178.50	48.68	-42.1	-43.2	21.8	0.00e+00	90	41	0	594542592	56	6594
2026-01-23 00:35:30.38	178.69	48.99	-42.0	-43.2	21.8	0.00e+00	92	41	0	595591168	56	6549
2026-01-23 00:35:31.39	178.89	49.31	-41.5	-42.6	22.4	0.00e+00	90	41	0	597688320	56	6122
2026-01-23 00:35:32.40	179.09	49.63	-41.0	-41.9	23.1	0.00e+00	50	41	0	599785472	56	5685
2026-01-23 00:35:33.41	179.29	49.96	-40.6	-41.6	23.3	0.00e+00	92	41	0	601882624	54	6111
2026-01-23 00:35:34.42	179.50	50.28	-39.8	-40.7	24.0	0.00e+00	38	41	0	603979776	54	5540
2026-01-23 00:35:35.43	179.72	50.61	-39.6	-40.4	24.3	0.00e+00	92	41	0	606076928	52	6017
2026-01-23 00:35:36.44	179.93	50.93	-39.0	-39.8	24.8	0.00e+00	45	41	0	607125504	52	5582
2026-01-23 00:35:37.45	180.16	51.26	-38.6	-39.4	25.2	0.00e+00	92	41	0	609222656	50	5988
2026-01-23 00:35:38.46	180.38	51.60	-38.5	-39.3	25.1	0.00e+00	92	41	0	611319808	50	5916
2026-01-23 00:35:39.47	180.61	51.93	-38.5	-39.3	25.0	0.00e+00	12	41	0	613416960	50	5918
2026-01-23 00:35:40.47	180.85	52.26	-38.4	-39.2	25.3	0.00e+00	90	41	0	615514112	50	5880
2026-01-23 00:35:41.48	181.09	52.60	-38.5	-39.2	25.3	0.00e+00	5	41	0	616562688	50	5888
2026-01-23 00:35:42.49	181.34	52.94	-38.2	-38.9	25.4	0.00e+00	92	41	0	618659840	50	5684
2026-01-23 00:35:43.50	181.59	53.28	-38.3	-39.0	25.4	0.00e+00	92	41	0	620756992	50	5742
2026-01-23 00:35:44.51	181.85	53.62	-37.6	-38.4	25.9	0.00e+00	92	41	0	622854144	48	5977
2026-01-23 00:35:45.52	182.12	53.96	-37.5	-38.2	26.0	0.00e+00	92	41	0	624951296	48	5859
2026-01-23 00:35:46.53	182.39	54.31	-37.3	-38.0	26.2	0.00e+00	0	41	0	625999872	48	5711
2026-01-23 00:35:47.54	182.67	54.66	-37.3	-38.0	26.2	0.00e+00	92	41	0	628097024	48	5758
2026-01-23 00:35:48.55	182.96	55.01	-37.5	-38.2	26.0	0.00e+00	0	41	0	630194176	48	5884
2026-01-23 00:35:49.56	183.25	55.36	-37.5	-38.2	26.0	0.00e+00	92	41	0	632291328	48	5861
2026-01-23 00:35:50.57	183.55	55.71	-37.7	-38.4	25.9	0.00e+00	0	41	0	634388480	48	6003
2026-01-23 00:35:51.58	183.86	56.06	-37.9	-38.6	25.7	0.00e+00	92	41	0	635437056	48	6172
2026-01-23 00:35:52.59	184.17	56.42	-38.1	-38.9	25.5	0.00e+00	92	41	0	637534208	48	6352
2026-01-23 00:35:53.60	184.50	56.78	-38.5	-39.3	25.1	0.00e+00	92	41	0	639631360	48	6685
2026-01-23 00:35:54.60	184.82	57.13	-39.0	-39.8	24.7	0.00e+00	91	41	0	641728512	50	6265
2026-01-23 00:35:55.61	185.16	57.49	-39.2	-40.0	24.6	0.00e+00	43	41	0	643825664	50	6430
2026-01-23 00:35:56.62	185.51	57.85	-39.2	-40.0	24.6	0.00e+00	92	41	0	644874240	50	6423
2026-01-23 00:35:57.63	185.87	58.21	-38.5	-39.3	25.2	0.00e+00	40	41	0	646971392	50	5924
2026-01-23 00:35:58.64	186.24	58.58	-38.1	-38.9	25.4	0.00e+00	91	41	0	649068544	50	5662
2026-01-23 00:35:59.65	186.62	58.94	-37.8	-38.5	25.8	0.00e+00	92	41	0	651165696	50	5433
2026-01-23 00:36:00.66	187.01	59.31	-37.9	-38.7	25.7	0.00e+00	91	41	0	653262848	50	5515
2026-01-23 00:36:01.67	187.41	59.67	-37.9	-38.7	25.7	0.00e+00	91	41	0	654311424	50	5518
2026-01-23 00:36:02.68	187.82	60.04	-38.0	-38.7	25.7	0.00e+00	52	41	0	656408576	50	5539
2026-01-23 00:36:03.69	188.24	60.41	-37.7	-38.4	25.9	0.00e+00	92	41	0	658505728	48	6025
2026-01-23 00:36:04.70	188.68	60.78	-37.4	-38.1	26.2	0.00e+00	0	41	0	660602880	48	5782
2026-01-23 00:36:05.71	189.13	61.15	-37.2	-37.9	26.2	0.00e+00	91	41	0	662700032	48	5665
2026-01-23 00:36:06.72	189.59	61.52	-36.8	-37.5	26.4	0.00e+00	0	41	0	663748608	48	5439
2026-01-23 00:36:07.73	190.07	61.89	-36.7	-37.4	26.7	0.00e+00	92	41	0	665845760	46	6019
2026-01-23 00:36:08.74	190.56	62.26	-36.7	-37.4	26.7	0.00e+00	92	41	0	667942912	46	5988
2026-01-23 00:36:09.74	191.06	62.63	-36.7	-37.5	26.7	0.00e+00	92	41	0	670040064	46	6034
2026-01-23 00:36:10.75	191.58	63.00	-36.7	-37.4	26.5	0.00e+00	91	41	0	672137216	46	6032
2026-01-23 00:36:11.76	192.11	63.37	-36.8	-37.5	26.6	0.00e+00	40	41	0	674234368	46	6094
2026-01-23 00:36:12.77	192.67	63.74	-37.2	-37.9	26.2	0.00e+00	92	41	0	675282944	46	6357
2026-01-23 00:36:13.78	193.24	64.11	-37.5	-38.2	25.5	0.00e+00	0	41	0	677380096	46	6590
2026-01-23 00:36:14.79	193.83	64.48	-37.6	-38.4	25.9	0.00e+00	92	41	0	679477248	46	6714
2026-01-23 00:36:15.80	194.44	64.85	-37.8	-38.5	25.8	0.00e+00	91	41	0	681574400	48	6082
2026-01-23 00:36:16.81	195.07	65.22	-38.2	-38.9	25.4	0.00e+00	92	41	0	683671552	48	6364
2026-01-23 00:36:17.82	195.72	65.59	-38.6	-39.4	25.0	0.00e+00	92	41	0	684720128	48	6737
2026-01-23 00:36:18.83	196.39	65.95	-39.4	-40.2	24.4	0.00e+00	45	41	0	686817280	50	6552
2026-01-23 00:36:19.84	197.08	66.32	-40.3	-41.2	23.6	0.00e+00	90	41	0	688914432	52	6555
2026-01-23 00:36:20.85	197.80	66.68	-41.2	-42.2	22.7	0.00e+00	36	41	0	691011584	54	6559
2026-01-23 00:36:21.86	198.55	67.04	-41.5	-42.5	22.4	0.00e+00	90	41	0	693108736	54	6812
2026-01-23 00:36:22.87	199.32	67.40	-41.4	-42.4	22.5	0.00e+00	92	41	0	694157312	54	6766
2026-01-23 00:36:23.88	200.11	67.76	-41.4	-42.4	22.4	0.00e+00	90	41	0	696254464	54	6750
2026-01-23 00:36:24.89	200.94	68.11	-41.5	-42.5	22.5	0.00e+00	92	41	0	698351616	54	6789
2026-01-23 00:36:25.89	201.78	68.46	-41.6	-42.6	22.3	0.00e+00	64	41	0	700448768	54	6903
2026-01-23 00:36:26.90	202.66	68.81	-41.8	-42.9	22.2	0.00e+00	92	41	0	702545920	56	6348
2026-01-23 00:36:27.91	203.58	69.15	-41.7	-42.7	22.4	0.00e+00	0	41	0	703594496	56	6217
2026-01-23 00:36:28.92	204.53	69.50	-41.1	-42.1	22.9	0.00e+00	92	41	0	705691648	56	5772
2026-01-23 00:36:29.91	205.49	69.83	-41.0	-41.9	23.1	0.00e+00	2	41	0	707788800	56	5682
2026-01-23 00:36:30.92	206.51	70.16	-41.1	-42.0	22.9	0.00e+00	91	41	0	709885952	56	5759
2026-01-23 00:36:31.93	207.56	70.49	-41.0	-42.0	22.9	0.00e+00	90	41	0	711983104	56	5729
2026-01-23 00:36:32.94	208.65	70.81	-41.0	-42.0	23.0	0.00e+00	92	41	0	713031680	56	5710
2026-01-23 00:36:33.95	209.78	71.13	-41.2	-42.2	22.7	0.00e+00	92	41	0	715128832	56	5840
2026-01-23 00:36:34.96	210.95	71.44	-41.8	-42.9	22.1	0.00e+00	0	41	0	717225984	56	6330
2026-01-23 00:36:35.97	212.16	71.74	-42.4	-43.6	21.5	0.00e+00	91	41	0	719323136	56	6851
2026-01-23 00:36:36.98	213.42	72.04	-42.8	-44.1	21.1	0.00e+00	8	41	0	721420288	56	7263
2026-01-23 00:36:37.99	214.72	72.33	-42.6	-43.8	21.2	0.00e+00	92	41	0	722468864	58	6314
2026-01-23 00:36:39.00	216.06	72.61	-42.6	-43.8	21.2	0.00e+00	92	41	0	724566016	58	6279
2026-01-23 00:36:40.01	217.45	72.88	-42.5	-43.7	21.3	0.00e+00	92	41	0	726663168	58	6227
2026-01-23 00:36:41.02	218.89	73.14	-42.4	-43.6	21.5	0.00e+00	92	41	0	728760320	58	6108
2026-01-23 00:36:42.02	220.36	73.39	-41.6	-42.7	22.3	0.00e+00	40	41	0	730857472	56	6176
2026-01-23 00:36:43.03	221.89	73.64	-41.8	-42.8	22.4	0.00e+00	90	41	0	731906048	56	6280
2026-01-23 00:36:44.05	223.48	73.87	-41.6	-42.7	22.4	0.00e+00	8	41	0	734003200	56	6174
2026-01-23 00:36:45.06	225.10	74.09	-41.6	-42.7	22.3	0.00e+00	92	41	0	736100352	56	6213
2026-01-23 00:36:46.07	226.77	74.30	-41.9	-43.0	22.1	0.00e+00	26	41	0	738197504	56	6426
2026-01-23 00:36:47.08	228.49	74.50	-41.8	-42.8	22.1	0.00e+00	92	41	0	740294656	56	6308
2026-01-23 00:36:48.09	230.24	74.68	-41.6	-42.7	22.4	0.00e+00	92	41	0	742391808	56	6206
2026-01-23 00:36:49.09	232.03	74.85	-41.8	-42.9	22.2	0.00e+00	92	41	0	743440384	56	6328
2026-01-23 00:36:50.10	233.87	75.00	-41.7	-42.8	22.3	0.00e+00	92	41	0	745537536	56	6280
2026-01-23 00:36:51.11	235.75	75.14	-41.8	-42.9	22.1	0.00e+00	0	41	0	747634688	56	6360
2026-01-23 00:36:52.12	237.66	75.26	-41.9	-43.0	22.1	0.00e+00	90	41	0	749731840	56	6424
2026-01-23 00:36:53.13	239.61	75.37	-41.7	-42.7	22.3	0.00e+00	0	41	0	751828992	56	6213
2026-01-23 00:36:54.14	241.58	75.46	-41.7	-42.7	22.3	0.00e+00	92	41	0	752877568	56	6215
2026-01-23 00:36:55.15	243.57	75.54	-41.9	-42.9	22.1	0.00e+00	92	41	0	754974720	56	6390
2026-01-23 00:36:56.16	245.59	75.60	-41.7	-42.8	22.4	0.00e+00	92	41	0	757071872	56	6250
2026-01-23 00:36:57.17	247.62	75.64	-41.4	-42.4	22.7	0.00e+00	90	41	0	759169024	56	5999
2026-01-23 00:36:58.18	249.65	75.66	-41.4	-42.4	22.6	0.00e+00	0	41	0	760217600	56	5976
2026-01-23 00:36:59.19	251.70	75.66	-41.4	-42.4	22.6	0.00e+00	90	41	0	762314752	56	6012
2026-01-23 00:37:00.20	253.74	75.65	-41.6	-42.6	21.6	0.00e+00	50	41	0	764411904	56	6134
2026-01-23 00:37:01.21	255.77	75.62	-41.7	-42.7	22.3	0.00e+00	90	41	0	766509056	56	6222
2026-01-23 00:37:02.22	257.80	75.58	-42.1	-43.2	22.0	0.00e+00	91	41	0	768606208	56	6541
2026-01-23 00:37:03.23	259.80	75.51	-43.4	-44.7	20.4	0.00e+00	92	41	0	770703360	58	6974
2026-01-23 00:37:04.24	261.79	75.43	-43.9	-45.3	20.1	0.00e+00	92	41	0	771751936	60	6637
2026-01-23 00:37:05.25	263.75	75.33	-43.4	-44.7	20.6	0.00e+00	75	41	0	773849088	60	6213
2026-01-23 00:37:06.26	265.69	75.22	-43.1	-44.4	20.8	0.00e+00	92	41	0	775946240	60	5990
2026-01-23 00:37:07.27	267.59	75.09	-44.3	-45.8	19.2	0.00e+00	0	41	0	778043392	60	7016
2026-01-23 00:37:08.27	269.43	74.95	-45.8	-47.8	17.4	0.00e+00	92	41	0	780140544	60	8860
2026-01-23 00:37:09.28	271.26	74.79	-45.8	-47.9	17.4	0.00e+00	92	41	0	781189120	60	8928
2026-01-23 00:37:10.29	273.05	74.62	-45.5	-47.4	17.9	0.00e+00	91	41	0	783286272	60	8503
2026-01-23 00:37:11.30	274.79	74.43	-43.7	-45.1	20.3	0.00e+00	92	41	0	785383424	60	6508
2026-01-23 00:37:12.31	276.49	74.23	-43.7	-45.1	20.1	0.00e+00	90	41	0	787480576	60	6495
2026-01-23 00:37:13.32	278.14	74.02	-44.4	-46.0	19.2	0.00e+00	92	41	0	789577728	60	7222
2026-01-23 00:37:14.33	279.74	73.79	-44.4	-45.9	19.6	0.00e+00	7	41	0	790626304	60	7163
2026-01-23 00:37:15.34	281.30	73.56	-43.2	-44.5	20.7	0.00e+00	91	41	0	792723456	60	6065
2026-01-23 00:37:16.35	282.82	73.31	-42.9	-44.1	20.9	0.00e+00	0	41	0	794820608	60	5800
2026-01-23 00:37:17.35	284.27	73.06	-43.8	-45.3	19.9	0.00e+00	92	41	0	796917760	60	6623
2026-01-23 00:37:18.36	285.68	72.79	-43.7	-45.1	20.1	0.00e+00	92	41	0	799014912	60	6525
2026-01-23 00:37:19.37	287.06	72.51	-42.9	-44.1	21.1	0.00e+00	90	41	0	800063488	60	5815
2026-01-23 00:37:20.38	288.38	72.23	-42.1	-43.2	21.8	0.00e+00	92	41	0	802160640	58	5888
2026-01-23 00:37:21.39	289.67	71.94	-42.5	-43.7	21.3	0.00e+00	44	41	0	804257792	58	6180
2026-01-23 00:37:22.40	290.91	71.64	-42.3	-43.4	21.8	0.00e+00	92	41	0	806354944	58	6032
2026-01-23 00:37:23.41	292.10	71.33	-41.6	-42.6	22.5	0.00e+00	0	41	0	808452096	56	6120
2026-01-23 00:37:24.42	293.26	71.02	-41.1	-42.0	23.0	0.00e+00	92	41	0	809500672	56	5760
2026-01-23 00:37:25.43	294.38	70.70	-41.6	-42.6	22.3	0.00e+00	92	41	0	811597824	56	6173
2026-01-23 00:37:26.44	295.45	70.38	-42.8	-44.1	21.1	0.00e+00	92	41	0	813694976	56	7274
2026-01-23 00:37:27.45	296.49	70.05	-42.5	-43.7	21.5	0.00e+00	92	41	0	815792128	58	6174
2026-01-23 00:37:28.46	297.50	69.72	-41.7	-42.8	22.3	0.00e+00	6	41	0	817889280	56	6257
2026-01-23 00:37:29.47	298.46	69.38	-41.3	-42.3	22.7	0.00e+00	92	41	0	818937856	56	5945
2026-01-23 00:37:30.48	299.40	69.04	-41.5	-42.6	22.5	0.00e+00	0	41	0	821035008	56	6110
2026-01-23 00:37:31.49	300.30	68.69	-41.3	-42.3	22.7	0.00e+00	92	41	0	823132160	56	5913
2026-01-23 00:37:32.50	301.17	68.34	-41.7	-42.8	22.2	0.00e+00	77	41	0	825229312	56	6249
2026-01-23 00:37:33.50	302.01	67.99	-41.8	-42.9	22.2	0.00e+00	92	41	0	827326464	56	6321
2026-01-23 00:37:34.51	302.82	67.64	-42.1	-43.2	21.9	0.00e+00	92	41	0	828375040	56	6558
2026-01-23 00:37:35.52	303.61	67.28	-42.9	-44.2	20.9	0.00e+00	24	41	0	830472192	58	6577
2026-01-23 00:37:36.53	304.37	66.92	-42.1	-43.2	22.2	0.00e+00	92	41	0	832569344	58	5870
2026-01-23 00:37:37.54	305.10	66.56	-40.3	-41.2	23.7	0.00e+00	0	41	0	834666496	54	5856
2026-01-23 00:37:38.55	305.81	66.20	-40.2	-41.1	23.6	0.00e+00	92	41	0	836763648	54	5823
2026-01-23 00:37:39.56	306.49	65.83	-40.6	-41.5	23.3	0.00e+00	0	41	0	838860800	54	6068
2026-01-23 00:37:40.57	307.16	65.47	-40.3	-41.2	23.7	0.00e+00	92	41	0	839909376	54	5843
2026-01-23 00:37:41.58	307.80	65.10	-39.0	-39.8	24.8	0.00e+00	92	41	0	842006528	52	5579
2026-01-23 00:37:42.59	308.42	64.73	-38.8	-39.6	25.0	0.00e+00	90	41	0	844103680	50	6120
2026-01-23 00:37:43.60	309.02	64.36	-38.2	-39.0	25.5	0.00e+00	92	41	0	846200832	50	5728
2026-01-23 00:37:44.61	309.61	64.00	-37.8	-38.5	24.8	0.00e+00	52	41	0	848297984	50	5416
2026-01-23 00:37:45.62	310.17	63.63	-37.3	-38.0	26.3	0.00e+00	92	41	0	849346560	48	5737
2026-01-23 00:37:46.63	310.72	63.26	-36.8	-37.5	26.6	0.00e+00	51	41	0	851443712	48	5403
2026-01-23 00:37:47.64	311.25	62.89	-36.3	-37.0	27.0	0.00e+00	92	41	0	853540864	46	5738
2026-01-23 00:37:48.65	311.76	62.52	-36.1	-36.7	27.2	0.00e+00	90	41	0	855638016	46	5553
2026-01-23 00:37:49.66	312.26	62.15	-36.8	-37.5	26.6	0.00e+00	92	41	0	857735168	46	6075
2026-01-23 00:37:50.67	312.75	61.78	-37.5	-38.3	26.0	0.00e+00	90	41	0	858783744	46	6638
2026-01-23 00:37:51.68	313.22	61.41	-37.3	-38.0	26.4	0.00e+00	13	41	0	860880896	46	6428
2026-01-23 00:37:52.69	313.67	61.04	-36.7	-37.3	26.7	0.00e+00	92	41	0	862978048	46	5963
2026-01-23 00:37:53.70	314.12	60.67	-36.8	-37.5	26.5	0.00e+00	7	41	0	865075200	46	6035
2026-01-23 00:37:54.71	314.55	60.30	-37.8	-38.6	25.7	0.00e+00	92	41	0	867172352	46	6886
2026-01-23 00:37:55.72	314.97	59.94	-39.6	-40.5	24.1	0.00e+00	0	41	0	868220928	50	6776
2026-01-23 00:37:56.73	315.37	59.57	-41.8	-42.9	22.1	0.00e+00	92	41	0	870318080	54	7125
2026-01-23 00:37:57.74	315.77	59.20	-42.6	-43.9	21.3	0.00e+00	96	41	0	872415232	56	7089
2026-01-23 00:37:58.75	316.15	58.84	-41.5	-42.5	22.6	0.00e+00	38	41	0	874512384	56	6082
2026-01-23 00:37:59.76	316.53	58.48	-40.4	-41.3	23.7	0.00e+00	92	41	0	876609536	54	5910
2026-01-23 00:38:00.77	316.89	58.12	-40.0	-40.9	23.8	0.00e+00	0	41	0	877658112	54	5661
2026-01-23 00:38:01.78	317.25	57.76	-41.2	-42.3	22.5	0.00e+00	92	41	0	879755264	54	6629
2026-01-23 00:38:02.79	317.60	57.40	-42.4	-43.6	21.5	0.00e+00	0	41	0	881852416	56	6859
2026-01-23 00:38:03.80	317.93	57.04	-41.5	-42.6	22.4	0.00e+00	61	41	0	883949568	56	6129
2026-01-23 00:38:04.81	318.26	56.68	-40.2	-41.2	23.7	0.00e+00	92	41	0	886046720	54	5836
2026-01-23 00:38:05.82	318.58	56.33	-39.7	-40.5	24.3	0.00e+00	37	41	0	887095296	52	6103
2026-01-23 00:38:06.83	318.89	55.97	-39.3	-40.2	24.6	0.00e+00	92	41	0	889192448	52	5833
2026-01-23 00:38:07.84	319.20	55.62	-39.0	-39.8	24.8	0.00e+00	0	41	0	891289600	52	5625
2026-01-23 00:38:08.85	319.50	55.27	-39.4	-40.3	24.5	0.00e+00	92	41	0	893386752	52	5905
2026-01-23 00:38:09.86	319.78	54.92	-38.4	-39.2	25.4	0.00e+00	0	41	0	895483904	50	5884
2026-01-23 00:38:10.87	320.07	54.57	-37.2	-38.0	26.3	0.00e+00	90	41	0	896532480	48	5721
2026-01-23 00:38:11.88	320.34	54.23	-36.7	-37.4	26.8	0.00e+00	92	41	0	898629632	46	5975
2026-01-23 00:38:12.89	320.61	53.88	-36.4	-37.1	27.0	0.00e+00	0	41	0	900726784	46	5781
2026-01-23 00:38:13.90	320.88	53.54	-36.6	-37.3	26.7	0.00e+00	92	41	0	902823936	46	5906
2026-01-23 00:38:14.90	321.13	53.20	-37.7	-38.4	25.6	0.00e+00	0	41	0	904921088	46	6752
2026-01-23 00:38:15.91	321.38	52.86	-38.4	-39.2	25.3	0.00e+00	92	41	0	907018240	48	6577
2026-01-23 00:38:16.93	321.63	52.52	-38.5	-39.3	25.1	0.00e+00	0	41	0	908066816	48	6649
2026-01-23 00:38:17.94	321.87	52.19	-38.3	-39.1	25.4	0.00e+00	90	41	0	910163968	48	6500
2026-01-23 00:38:18.94	322.11	51.86	-38.3	-39.0	25.5	0.00e+00	92	41	0	912261120	48	6444
2026-01-23 00:38:19.95	322.34	51.53	-38.3	-39.1	25.4	0.00e+00	45	41	0	914358272	48	6490
2026-01-23 00:38:20.96	322.56	51.20	-38.7	-39.4	25.2	0.00e+00	92	41	0	916455424	48	6768
2026-01-23 00:38:21.97	322.78	50.87	-39.6	-40.5	24.3	0.00e+00	39	41	0	917504000	50	6779
2026-01-23 00:38:22.98	323.00	50.54	-41.6	-42.7	22.2	0.00e+00	90	41	0	919601152	54	6936
2026-01-23 00:38:24.00	323.21	50.21	-43.7	-45.3	19.8	0.00e+00	39	41	0	921698304	58	7457
2026-01-23 00:38:25.01	323.42	49.89	-45.1	-47.1	18.3	0.00e+00	90	41	0	923795456	60	8153
2026-01-23 00:38:26.02	323.62	49.57	-44.6	-46.3	19.1	0.00e+00	0	42	0	925892608	60	7495
2026-01-23 00:38:27.03	323.82	49.25	-44.1	-45.7	19.8	0.00e+00	8	41	0	926941184	60	6941
2026-01-23 00:38:28.04	324.01	48.94	-43.3	-44.6	20.8	0.00e+00	92	41	0	929038336	60	6167
2026-01-23 00:38:29.05	324.21	48.62	-42.5	-43.7	21.4	0.00e+00	46	41	0	931135488	58	6222
2026-01-23 00:38:30.06	324.39	48.31	-42.5	-43.7	21.5	0.00e+00	92	41	0	933232640	58	6221
2026-01-23 00:38:31.07	324.58	48.00	-42.3	-43.4	21.8	0.00e+00	37	41	0	935329792	58	6004
2026-01-23 00:38:32.08	324.76	47.69	-42.6	-43.8	21.3	0.00e+00	92	41	0	936378368	58	6301
2026-01-23 00:38:33.09	324.93	47.38	-43.6	-45.0	20.1	0.00e+00	0	41	0	938475520	58	7206
2026-01-23 00:38:34.10	325.10	47.08	-44.0	-45.5	19.8	0.00e+00	92	41	0	940572672	60	6824
2026-01-23 00:38:35.11	325.27	46.77	-43.4	-44.8	20.5	0.00e+00	92	41	0	942669824	60	6317
2026-01-23 00:38:36.12	325.44	46.47	-42.3	-43.5	21.7	0.00e+00	0	41	0	944766976	58	6039
2026-01-23 00:38:37.13	325.60	46.17	-41.8	-42.9	22.3	0.00e+00	92	41	0	946864128	56	6322
2026-01-23 00:38:38.14	325.76	45.88	-40.8	-41.8	23.2	0.00e+00	46	41	0	947912704	56	5588
2026-01-23 00:38:39.15	325.92	45.58	-40.3	-41.2	23.6	0.00e+00	92	41	0	950009856	54	5847
2026-01-23 00:38:40.16	326.08	45.29	-40.6	-41.5	23.4	0.00e+00	46	41	0	952107008	54	6068
2026-01-23 00:38:41.17	326.23	45.00	-40.9	-41.9	23.1	0.00e+00	90	41	0	954204160	54	6332
2026-01-23 00:38:42.18	326.38	44.71	-41.2	-42.3	22.7	0.00e+00	46	41	0	955252736	54	6637
2026-01-23 00:38:43.19	326.52	44.42	-41.2	-42.2	22.8	0.00e+00	0	42	0	957349888	54	6587
2026-01-23 00:38:44.20	326.67	44.14	-41.0	-42.1	23.1	0.00e+00	91	41	0	959447040	54	6475
2026-01-23 00:38:45.21	326.81	43.85	-40.7	-41.6	23.4	0.00e+00	44	41	0	961544192	54	6153
2026-01-23 00:38:46.22	326.95	43.57	-40.5	-41.4	23.5	0.00e+00	91	41	0	963641344	54	6009
2026-01-23 00:38:47.23	327.09	43.29	-40.1	-41.1	23.8	0.00e+00	43	41	0	964689920	54	5766
2026-01-23 00:38:48.24	327.22	43.01	-40.1	-41.0	23.9	0.00e+00	92	41	0	966787072	54	5712
2026-01-23 00:38:49.25	327.35	42.74	-39.1	-39.9	24.8	0.00e+00	70	41	0	968884224	52	5672
2026-01-23 00:38:50.26	327.48	42.46	-39.0	-39.8	25.0	0.00e+00	0	41	0	970981376	52	5571
2026-01-23 00:38:51.27	327.61	42.19	-39.2	-40.0	24.6	0.00e+00	92	41	0	973078528	52	5734
2026-01-23 00:38:52.28	327.74	41.92	-40.4	-41.3	23.6	0.00e+00	0	41	0	975175680	52	6667
2026-01-23 00:38:53.29	327.86	41.65	-41.9	-43.1	22.0	0.00e+00	92	41	0	976224256	54	7265
2026-01-23 00:38:54.30	327.98	41.38	-43.2	-44.6	20.5	0.00e+00	0	42	0	978321408	58	6863
2026-01-23 00:38:55.31	328.10	41.12	-43.9	-45.5	19.7	0.00e+00	92	41	0	980418560	60	6820
2026-01-23 00:38:56.32	328.22	40.85	-43.5	-45.0	20.3	0.00e+00	0	41	0	982515712	60	6426
2026-01-23 00:38:57.33	328.34	40.59	-42.2	-43.4	21.8	0.00e+00	90	41	0	984612864	58	5978
2026-01-23 00:38:58.34	328.45	40.33	-40.7	-41.6	23.5	0.00e+00	92	41	0	985661440	56	5498
2026-01-23 00:38:59.35	328.57	40.07	-39.3	-40.1	24.7	0.00e+00	0	41	0	987758592	52	5819
2026-01-23 00:39:00.35	328.68	39.82	-39.0	-39.7	24.9	0.00e+00	92	41	0	989855744	52	5566
2026-01-23 00:39:01.37	328.79	39.56	-39.1	-39.9	24.8	0.00e+00	44	42	0	991952896	52	5640
2026-01-23 00:39:02.37	328.89	39.31	-39.7	-40.6	24.1	0.00e+00	92	42	0	994050048	52	6113
2026-01-23 00:39:03.38	329.00	39.06	-40.5	-41.4	23.5	0.00e+00	43	41	0	995098624	52	6748
2026-01-23 00:39:04.39	329.10	38.81	-41.5	-42.5	22.5	0.00e+00	92	42	0	997195776	54	6826
2026-01-23 00:39:05.40	329.21	38.57	-42.3	-43.5	21.7	0.00e+00	91	41	0	999292928	56	6777
2026-01-23 00:39:06.41	329.31	38.32	-42.7	-43.9	21.3	0.00e+00	0	42	0	1001390080	56	7119
2026-01-23 00:39:07.42	329.41	38.08	-42.7	-43.9	21.3	0.00e+00	92	41	0	1003487232	56	7144
2026-01-23 00:39:08.43	329.51	37.83	-42.2	-43.4	21.8	0.00e+00	39	41	0	1004535808	56	6744
2026-01-23 00:39:09.45	329.61	37.59	-42.1	-43.2	22.0	0.00e+00	91	42	0	1006632960	56	6581
2026-01-23 00:39:10.46	329.70	37.35	-41.4	-42.4	22.7	0.00e+00	39	42	0	1008730112	56	6016
2026-01-23 00:39:11.47	329.80	37.11	-40.7	-41.7	23.3	0.00e+00	92	41	0	1010827264	56	5519
2026-01-23 00:39:12.48	329.89	36.88	-40.0	-40.9	23.9	0.00e+00	52	41	0	1012924416	54	5651
2026-01-23 00:39:13.49	329.98	36.64	-39.9	-40.8	23.9	0.00e+00	23	41	0	1015021568	54	5601
2026-01-23 00:39:14.50	330.07	36.41	-39.7	-40.6	24.2	0.00e+00	92	41	0	1016070144	52	6131
2026-01-23 00:39:15.51	330.16	36.18	-39.8	-40.7	24.1	0.00e+00	0	41	0	1018167296	52	6203
2026-01-23 00:39:16.52	330.25	35.95	-40.1	-40.9	23.9	0.00e+00	92	41	0	1020264448	52	6382
2026-01-23 00:39:17.53	330.34	35.72	-40.3	-41.1	23.7	0.00e+00	0	41	0	1022361600	52	6536
2026-01-23 00:39:18.54	330.43	35.50	-40.8	-41.7	23.3	0.00e+00	92	41	0	1024458752	52	6949
2026-01-23 00:39:19.55	330.51	35.27	-40.7	-41.6	23.3	0.00e+00	0	41	0	1025507328	54	6145
2026-01-23 00:39:20.56	330.59	35.05	-41.0	-42.0	22.9	0.00e+00	71	42	0	1027604480	54	6422
2026-01-23 00:39:21.57	330.68	34.83	-41.2	-42.2	22.8	0.00e+00	92	42	0	1029701632	54	6586
2026-01-23 00:39:22.58	330.76	34.61	-41.5	-42.5	22.4	0.00e+00	43	41	0	1031798784	54	6844
2026-01-23 00:39:23.59	330.84	34.39	-41.8	-42.9	22.1	0.00e+00	92	41	0	1033895936	54	7149
2026-01-23 00:39:24.60	330.92	34.17	-42.0	-43.1	21.9	0.00e+00	43	41	0	1034944512	56	6528
2026-01-23 00:39:25.61	331.00	33.95	-42.1	-43.3	21.9	0.00e+00	92	41	0	1037041664	56	6624
2026-01-23 00:39:26.62	331.08	33.74	-42.1	-43.2	21.7	0.00e+00	50	41	0	1039138816	56	6614
2026-01-23 00:39:27.63	331.15	33.53	-42.2	-43.3	21.8	0.00e+00	93	41	0	1041235968	56	6632
2026-01-23 00:39:28.64	331.23	33.32	-41.8	-42.9	22.2	0.00e+00	91	41	0	1043333120	56	6324
2026-01-23 00:39:29.65	331.30	33.11	-41.8	-42.9	22.2	0.00e+00	7	41	0	1044381696	56	6337
2026-01-23 00:39:30.65	331.38	32.90	-41.8	-42.8	22.3	0.00e+00	92	42	0	1046478848	56	6281
2026-01-23 00:39:31.67	331.45	32.69	-41.6	-42.6	22.4	0.00e+00	7	42	0	1048576000	56	6167
2026-01-23 00:39:32.67	331.52	32.49	-41.8	-42.9	22.2	0.00e+00	92	42	0	1050673152	56	6320
2026-01-23 00:39:33.68	331.59	32.28	-41.8	-42.8	22.3	0.00e+00	6	42	0	1052770304	56	6301
2026-01-23 00:39:34.69	331.66	32.08	-41.7	-42.8	22.2	0.00e+00	92	41	0	1053818880	56	6246
2026-01-23 00:39:35.70	331.73	31.88	-42.0	-43.1	22.1	0.00e+00	0	41	0	1055916032	56	6486
2026-01-23 00:39:36.71	331.80	31.68	-42.1	-43.2	21.9	0.00e+00	0	41	0	1058013184	56	6572
2026-01-23 00:39:37.72	331.87	31.48	-42.3	-43.5	21.7	0.00e+00	92	41	0	1060110336	56	6770
2026-01-23 00:39:38.73	331.94	31.28	-42.2	-43.3	21.8	0.00e+00	0	41	0	1062207488	56	6680
2026-01-23 00:39:39.74	332.01	31.08	-42.5	-43.6	21.5	0.00e+00	92	41	0	1063256064	56	6895
2026-01-23 00:39:40.75	332.07	30.89	-42.3	-43.4	21.7	0.00e+00	0	41	0	1065353216	56	6748
2026-01-23 00:39:41.76	332.14	30.69	-42.5	-43.7	21.5	0.00e+00	91	42	0	1067450368	56	6943
2026-01-23 00:39:42.77	332.20	30.50	-42.5	-43.6	21.5	0.00e+00	0	42	0	1069547520	56	6914
2026-01-23 00:39:43.78	332.26	30.31	-42.4	-43.6	21.5	0.00e+00	28	41	0	1071644672	56	6882
2026-01-23 00:39:44.79	332.33	30.12	-42.4	-43.6	21.5	0.00e+00	90	42	0	1072693248	56	6879
2026-01-23 00:39:45.80	332.39	29.93	-42.3	-43.5	21.7	0.00e+00	41	41	0	1074790400	56	6785
2026-01-23 00:39:46.80	332.45	29.74	-42.0	-43.1	22.0	0.00e+00	92	41	0	1076887552	56	6487
2026-01-23 00:39:47.81	332.51	29.56	-41.8	-42.9	22.2	0.00e+00	41	41	0	1078984704	56	6320
2026-01-23 00:39:48.82	332.57	29.37	-41.4	-42.4	22.5	0.00e+00	91	42	0	1081081856	56	6023
2026-01-23 00:39:49.83	332.63	29.19	-41.4	-42.4	22.6	0.00e+00	0	41	0	1083179008	56	5970
2026-01-23 00:39:50.84	332.69	29.00	-41.5	-42.5	22.4	0.00e+00	92	41	0	1084227584	56	6075
2026-01-23 00:39:51.85	332.75	28.82	-40.8	-41.8	23.2	0.00e+00	89	42	0	1086324736	56	5568
2026-01-23 00:39:52.86	332.81	28.64	-40.4	-41.3	23.5	0.00e+00	38	41	0	1088421888	54	5926
2026-01-23 00:39:53.87	332.86	28.46	-40.3	-41.1	23.6	0.00e+00	90	41	0	1090519040	54	5824
2026-01-23 00:39:54.88	332.92	28.28	-40.0	-40.8	23.8	0.00e+00	39	41	0	1091567616	54	5622
2026-01-23 00:39:55.88	332.98	28.11	-39.8	-40.6	24.1	0.00e+00	91	42	0	1093664768	54	5495
2026-01-23 00:39:56.89	333.03	27.93	-39.7	-40.6	24.2	0.00e+00	0	41	0	1095761920	52	6105
2026-01-23 00:39:57.90	333.09	27.76	-39.7	-40.6	24.2	0.00e+00	92	41	0	1097859072	52	6111
2026-01-23 00:39:58.91	333.14	27.58	-39.6	-40.4	24.3	0.00e+00	0	41	0	1099956224	52	6001
2026-01-23 00:39:59.92	333.19	27.41	-39.6	-40.5	24.2	0.00e+00	0	42	0	1101004800	52	6051
2026-01-23 00:40:00.93	333.25	27.24	-39.7	-40.6	24.1	0.00e+00	92	41	0	1103101952	52	6120
2026-01-23 00:40:01.94	333.30	27.07	-39.8	-40.6	24.0	0.00e+00	0	41	0	1105199104	52	6163
2026-01-23 00:40:02.95	333.35	26.90	-39.8	-40.7	24.0	0.00e+00	91	41	0	1107296256	52	6231
2026-01-23 00:40:03.95	333.40	26.73	-39.9	-40.8	23.9	0.00e+00	42	42	0	1109393408	52	6298
2026-01-23 00:40:04.96	333.46	26.56	-39.9	-40.8	23.9	0.00e+00	92	41	0	1111490560	52	6290
2026-01-23 00:40:05.97	333.51	26.39	-40.1	-41.0	23.7	0.00e+00	24	42	0	1112539136	52	6417
2026-01-23 00:40:06.98	333.56	26.23	-40.0	-40.9	23.8	0.00e+00	92	42	0	1114636288	52	6371
2026-01-23 00:40:07.99	333.61	26.06	-40.1	-41.0	23.8	0.00e+00	90	42	0	1116733440	52	6412
2026-01-23 00:40:09.00	333.66	25.90	-40.0	-40.9	23.9	0.00e+00	40	41	0	1118830592	52	6372
2026-01-23 00:40:10.01	333.71	25.74	-40.1	-41.0	23.8	0.00e+00	92	42	0	1120927744	52	6401
2026-01-23 00:40:11.02	333.75	25.57	-39.9	-40.8	24.0	0.00e+00	0	42	0	1121976320	52	6268
2026-01-23 00:40:12.03	333.80	25.41	-39.9	-40.8	23.9	0.00e+00	90	41	0	1124073472	52	6296
2026-01-23 00:40:13.04	333.85	25.25	-39.7	-40.5	24.1	0.00e+00	40	41	0	1126170624	52	6100
2026-01-23 00:40:14.05	333.90	25.09	-39.6	-40.5	24.2	0.00e+00	65	42	0	1128267776	52	6069
2026-01-23 00:40:15.05	333.94	24.94	-39.7	-40.5	24.1	0.00e+00	2	41	0	1130364928	52	6080
2026-01-23 00:40:16.07	333.99	24.78	-39.4	-40.3	24.3	0.00e+00	40	42	0	1131413504	52	5912
2026-01-23 00:40:17.07	334.03	24.62	-39.3	-40.1	24.5	0.00e+00	92	41	0	1133510656	52	5826
2026-01-23 00:40:18.08	334.08	24.47	-39.5	-40.4	24.0	0.00e+00	0	42	0	1135607808	52	5978
2026-01-23 00:40:19.10	334.13	24.31	-39.1	-40.0	24.6	0.00e+00	92	42	0	1137704960	52	5700
2026-01-23 00:40:20.11	334.17	24.16	-39.3	-40.2	24.4	0.00e+00	2	42	0	1139802112	52	5849
2026-01-23 00:40:21.11	334.21	24.01	-39.0	-39.8	24.7	0.00e+00	91	42	0	1140850688	52	5627
2026-01-23 00:40:22.12	334.26	23.86	-39.0	-39.9	24.6	0.00e+00	0	42	0	1142947840	52	5631
2026-01-23 00:40:23.13	334.30	23.71	-39.0	-39.8	24.7	0.00e+00	0	42	0	1145044992	52	5620
2026-01-23 00:40:24.14	334.34	23.56	-39.1	-39.9	24.6	0.00e+00	92	42	0	1147142144	52	5668
2026-01-23 00:40:25.15	334.39	23.41	-39.1	-39.9	24.5	0.00e+00	41	42	0	1149239296	52	5683
2026-01-23 00:40:26.16	334.43	23.26	-39.1	-39.9	24.6	0.00e+00	92	42	0	1150287872	52	5661
2026-01-23 00:40:27.17	334.47	23.11	-39.1	-40.0	24.2	0.00e+00	0	42	0	1152385024	52	5706
2026-01-23 00:40:28.19	334.51	22.96	-39.1	-40.0	24.6	0.00e+00	90	41	0	1154482176	52	5703
2026-01-23 00:40:29.19	334.55	22.82	-39.2	-40.0	24.4	0.00e+00	47	42	0	1156579328	52	5741
2026-01-23 00:40:30.20	334.60	22.67	-39.1	-40.0	24.5	0.00e+00	39	41	0	1158676480	52	5718
2026-01-23 00:40:31.21	334.64	22.53	-39.0	-39.9	24.6	0.00e+00	91	42	0	1159725056	52	5637
2026-01-23 00:40:32.22	334.68	22.39	-39.0	-39.9	24.6	0.00e+00	40	41	0	1161822208	52	5655
2026-01-23 00:40:33.23	334.72	22.24	-39.1	-40.0	24.5	0.00e+00	92	41	0	1163919360	52	5730
2026-01-23 00:40:34.24	334.76	22.10	-39.2	-40.0	24.5	0.00e+00	2	42	0	1166016512	52	5735
2026-01-23 00:40:35.25	334.80	21.96	-39.2	-40.0	24.5	0.00e+00	0	42	0	1168113664	52	5730
2026-01-23 00:40:36.26	334.83	21.82	-39.3	-40.1	24.4	0.00e+00	41	42	0	1169162240	52	5824
2026-01-23 00:40:37.27	334.87	21.68	-39.3	-40.2	24.4	0.00e+00	40	42	0	1171259392	52	5829
2026-01-23 00:40:38.28	334.91	21.54	-39.3	-40.2	24.4	0.00e+00	92	41	0	1173356544	52	5842
2026-01-23 00:40:39.29	334.95	21.40	-39.2	-40.1	24.4	0.00e+00	0	42	0	1175453696	52	5792
2026-01-23 00:40:40.30	334.99	21.27	-39.3	-40.1	24.4	0.00e+00	92	42	0	1177550848	52	5823
2026-01-23 00:40:41.31	335.03	21.13	-39.3	-40.1	24.4	0.00e+00	0	42	0	1179648000	52	5827
2026-01-23 00:40:42.32	335.06	20.99	-39.3	-40.2	24.4	0.00e+00	0	41	0	1180696576	52	5833
2026-01-23 00:40:43.33	335.10	20.86	-39.3	-40.2	24.4	0.00e+00	0	42	0	1182793728	52	5842
2026-01-23 00:40:44.34	335.14	20.73	-39.4	-40.3	24.2	0.00e+00	0	41	0	1184890880	52	5919
