passes_logs/2026/01/23/R4.6S_Anadyr/R4.6S_Anadyr__20260123_222007_TY-39_rec.log

#Pass ID: 20260123_222007_TY-39
#Satellite: TY-39
#Configuration: TY-39
#almurnet v.1.7.20251203
#Start time: 2026-01-23 22:20:12

#Version: 2.2.20231116
#Station: R4.6S_Anadyr
#Location: 177.4865 lon 64.73178 lat
#TLE: 1 51832U 22019J   26022.99179368  .00002273  00000-0  10954-3 0  9993
#TLE: 2 51832  97.3628  89.4856 0009275  27.6116 332.5610 15.19698092215741

#Time	Az	El	Level	Level2	SNR	BER	BlckErr	Temp	State	Recorded	gain1	gain2
2026-01-23 22:20:12.72	18.82	0.36	-51.1	-63.6	3.4	1.52e+00	0	39	0	0	60	53272
2026-01-23 22:20:13.73	18.86	0.42	-51.6	-54.1	3.6	0.00e+00	0	41	104	0	60	62203
2026-01-23 22:20:14.74	18.89	0.48	-51.7	-54.1	3.6	0.00e+00	0	41	104	0	60	62247
2026-01-23 22:20:15.75	18.93	0.55	-51.7	-54.1	3.6	0.00e+00	0	41	104	0	60	62151
2026-01-23 22:20:16.76	18.96	0.61	-51.6	-54.1	3.6	0.00e+00	0	41	104	0	60	62194
2026-01-23 22:20:17.77	18.99	0.68	-51.7	-54.2	3.6	0.00e+00	0	41	104	0	60	62606
2026-01-23 22:20:18.77	19.03	0.74	-51.7	-54.2	3.6	0.00e+00	0	41	104	0	60	62540
2026-01-23 22:20:19.78	19.06	0.81	-51.6	-54.1	3.6	0.00e+00	0	41	104	0	60	62251
2026-01-23 22:20:20.79	19.10	0.87	-51.6	-54.1	3.6	0.00e+00	0	41	104	0	60	62108
2026-01-23 22:20:21.80	19.13	0.94	-51.6	-54.1	3.6	0.00e+00	0	41	104	0	60	61854
2026-01-23 22:20:22.81	19.17	1.00	-51.2	-53.8	3.6	0.00e+00	0	41	104	0	60	59937
2026-01-23 22:20:23.82	19.21	1.07	-51.4	-53.9	3.6	0.00e+00	0	41	104	0	60	60819
2026-01-23 22:20:24.83	19.24	1.14	-51.4	-53.9	3.6	0.00e+00	0	41	104	0	60	60888
2026-01-23 22:20:25.84	19.28	1.20	-51.4	-53.8	3.6	0.00e+00	0	41	104	0	60	60101
2026-01-23 22:20:26.85	19.31	1.27	-51.3	-53.8	3.6	0.00e+00	0	41	104	0	60	59701
2026-01-23 22:20:27.86	19.35	1.34	-51.1	-53.6	3.6	0.00e+00	0	41	104	0	60	58458
2026-01-23 22:20:28.87	19.39	1.40	-50.9	-53.4	3.6	0.00e+00	0	41	104	0	60	57280
2026-01-23 22:20:29.88	19.42	1.47	-50.9	-53.4	3.6	0.00e+00	0	41	104	0	60	57367
2026-01-23 22:20:30.89	19.46	1.54	-50.8	-53.3	3.6	0.00e+00	0	41	104	0	60	56725
2026-01-23 22:20:31.90	19.50	1.60	-50.7	-53.1	3.6	0.00e+00	0	41	104	0	60	55569
2026-01-23 22:20:32.91	19.54	1.67	-50.5	-52.9	3.6	0.00e+00	0	41	104	0	60	54188
2026-01-23 22:20:33.92	19.57	1.74	-50.3	-52.7	3.6	0.00e+00	0	41	104	0	60	53127
2026-01-23 22:20:34.93	19.61	1.81	-50.3	-52.7	3.6	0.00e+00	0	41	104	0	60	52879
2026-01-23 22:20:35.94	19.65	1.88	-50.2	-52.7	3.6	0.00e+00	0	41	104	0	60	52895
2026-01-23 22:20:36.95	19.69	1.95	-50.2	-52.7	3.6	0.00e+00	0	41	104	0	60	52784
2026-01-23 22:20:37.96	19.73	2.01	-50.2	-52.7	3.6	0.00e+00	0	41	104	0	60	52913
2026-01-23 22:20:38.97	19.76	2.08	-50.2	-52.7	3.6	0.00e+00	0	41	104	0	60	52895
2026-01-23 22:20:39.98	19.80	2.15	-50.2	-52.7	3.6	0.00e+00	0	41	104	0	60	52824
2026-01-23 22:20:40.99	19.84	2.22	-50.2	-52.7	3.6	0.00e+00	0	41	104	0	60	52998
2026-01-23 22:20:42.00	19.88	2.29	-50.2	-52.8	3.6	0.00e+00	0	41	104	0	60	53231
2026-01-23 22:20:43.01	19.92	2.36	-50.2	-52.7	3.6	0.00e+00	0	42	104	0	60	52786
2026-01-23 22:20:44.02	19.96	2.43	-50.2	-52.7	3.6	0.00e+00	0	42	104	0	60	52876
2026-01-23 22:20:45.03	20.00	2.50	-50.2	-52.7	3.6	0.00e+00	0	42	104	0	60	52951
2026-01-23 22:20:46.04	20.04	2.57	-50.2	-52.7	3.6	0.00e+00	0	42	104	0	60	52923
2026-01-23 22:20:47.05	20.08	2.64	-50.2	-52.7	3.6	0.00e+00	0	42	104	0	60	52846
2026-01-23 22:20:48.06	20.12	2.71	-50.3	-52.7	3.6	0.00e+00	0	42	104	0	60	52869
2026-01-23 22:20:49.07	20.16	2.78	-50.2	-52.7	3.5	0.00e+00	0	42	104	0	60	52876
2026-01-23 22:20:50.07	20.20	2.85	-50.2	-52.7	3.6	0.00e+00	0	42	104	0	60	52806
2026-01-23 22:20:51.08	20.24	2.93	-50.2	-52.7	3.6	0.00e+00	0	42	104	0	60	52700
2026-01-23 22:20:52.09	20.28	3.00	-50.2	-52.7	3.6	0.00e+00	0	42	104	0	60	52839
2026-01-23 22:20:53.10	20.33	3.07	-50.2	-52.7	3.6	0.00e+00	0	42	104	0	60	52958
2026-01-23 22:20:54.11	20.37	3.14	-50.2	-52.7	3.6	0.00e+00	0	42	104	0	60	52928
2026-01-23 22:20:55.12	20.41	3.21	-50.2	-52.7	3.6	0.00e+00	0	42	104	0	60	52871
2026-01-23 22:20:56.13	20.45	3.29	-50.2	-52.7	3.6	0.00e+00	0	42	104	0	60	52864
2026-01-23 22:20:57.13	20.49	3.36	-50.2	-52.7	3.6	0.00e+00	0	42	104	0	60	53059
2026-01-23 22:20:58.15	20.54	3.43	-50.2	-52.7	3.6	0.00e+00	0	42	104	0	60	52616
2026-01-23 22:20:59.16	20.58	3.51	-50.2	-52.7	3.6	0.00e+00	0	42	104	0	60	52948
2026-01-23 22:21:00.16	20.62	3.58	-50.2	-52.7	3.6	0.00e+00	0	42	104	0	60	53093
2026-01-23 22:21:01.17	20.67	3.65	-50.2	-52.7	3.6	0.00e+00	0	42	104	0	60	52803
2026-01-23 22:21:02.19	20.71	3.73	-50.2	-52.7	3.6	0.00e+00	0	42	104	0	60	53097
2026-01-23 22:21:03.19	20.75	3.80	-50.2	-52.7	3.6	0.00e+00	0	42	104	0	60	52739
2026-01-23 22:21:04.20	20.80	3.88	-50.2	-52.7	3.6	0.00e+00	0	42	104	0	60	53057
2026-01-23 22:21:05.21	20.84	3.95	-50.3	-52.7	3.6	0.00e+00	0	42	104	0	60	52971
2026-01-23 22:21:06.22	20.89	4.03	-50.2	-52.7	3.6	0.00e+00	0	42	104	0	60	52662
2026-01-23 22:21:07.23	20.93	4.10	-50.2	-52.7	3.6	0.00e+00	0	42	104	0	60	53009
2026-01-23 22:21:08.24	20.98	4.18	-50.3	-52.7	3.6	0.00e+00	0	42	104	0	60	53068
2026-01-23 22:21:09.25	21.02	4.26	-50.4	-52.9	3.6	0.00e+00	0	42	104	0	60	53821
2026-01-23 22:21:10.26	21.07	4.33	-50.2	-52.7	3.6	0.00e+00	0	42	104	0	60	52877
2026-01-23 22:21:11.27	21.12	4.41	-46.6	-47.7	6.6	0.00e+00	0	42	104	0	60	29686
2026-01-23 22:21:12.28	21.16	4.49	-38.7	-39.0	11.5	5.31e-03	0	42	0	16777216	52	17328
2026-01-23 22:21:13.29	21.21	4.56	-34.0	-34.4	14.3	0.00e+00	0	43	0	100663296	44	16216
2026-01-23 22:21:14.30	21.25	4.64	-33.7	-34.1	14.5	0.00e+00	0	42	0	176160768	42	17515
2026-01-23 22:21:15.31	21.30	4.72	-34.2	-34.6	14.2	0.00e+00	0	43	0	243269632	42	18573
2026-01-23 22:21:16.32	21.35	4.80	-34.3	-34.7	14.2	0.00e+00	0	43	0	318767104	42	18851
2026-01-23 22:21:17.33	21.40	4.87	-34.2	-34.6	14.4	0.00e+00	0	43	0	394264576	42	18595
2026-01-23 22:21:18.34	21.45	4.95	-33.5	-33.9	14.7	0.00e+00	0	43	0	469762048	42	17064
2026-01-23 22:21:19.35	21.49	5.03	-33.3	-33.7	14.7	0.00e+00	0	43	0	545259520	42	16644
2026-01-23 22:21:20.36	21.54	5.11	-33.6	-34.1	14.6	0.00e+00	0	43	0	620756992	42	17443
2026-01-23 22:21:21.37	21.59	5.19	-33.3	-33.7	14.8	0.00e+00	0	43	0	696254464	42	16760
2026-01-23 22:21:22.38	21.64	5.27	-33.5	-33.9	14.6	0.00e+00	0	43	0	771751936	42	17038
2026-01-23 22:21:23.39	21.69	5.35	-33.2	-33.6	14.9	0.00e+00	0	43	0	847249408	42	16595
2026-01-23 22:21:24.40	21.74	5.43	-32.6	-33.0	15.2	0.00e+00	0	43	0	922746880	40	17321
2026-01-23 22:21:25.41	21.79	5.51	-32.0	-32.5	15.3	0.00e+00	0	43	0	998244352	40	16303
2026-01-23 22:21:26.41	21.84	5.59	-32.2	-32.7	15.3	0.00e+00	0	43	0	1073741824	40	16692
2026-01-23 22:21:27.42	21.89	5.67	-32.1	-32.5	15.3	0.00e+00	0	43	0	1149239296	40	16382
2026-01-23 22:21:28.43	21.94	5.76	-32.1	-32.5	15.3	0.00e+00	0	43	0	1224736768	40	16344
2026-01-23 22:21:29.44	21.99	5.84	-32.1	-32.5	15.3	0.00e+00	0	43	0	1300234240	40	16345
2026-01-23 22:21:30.45	22.05	5.92	-32.2	-32.6	15.3	0.00e+00	0	43	0	1375731712	40	16598
2026-01-23 22:21:31.46	22.10	6.00	-32.2	-32.6	15.3	0.00e+00	0	43	0	1451229184	40	16579
2026-01-23 22:21:32.47	22.15	6.09	-32.3	-32.7	15.3	0.00e+00	0	43	0	1526726656	40	16765
2026-01-23 22:21:33.48	22.20	6.17	-32.3	-32.7	15.3	0.00e+00	0	43	0	1602224128	40	16729
2026-01-23 22:21:34.49	22.26	6.25	-32.4	-32.8	15.2	0.00e+00	0	43	0	1686110208	40	16863
2026-01-23 22:21:35.50	22.31	6.34	-32.4	-32.8	15.2	0.00e+00	0	43	0	1761607680	40	16925
2026-01-23 22:21:36.51	22.36	6.42	-32.2	-32.6	15.3	0.00e+00	0	43	0	1828716544	40	16483
2026-01-23 22:21:37.52	22.42	6.51	-32.2	-32.7	15.3	0.00e+00	0	43	0	1904214016	40	16619
2026-01-23 22:21:38.53	22.47	6.59	-32.1	-32.5	15.4	0.00e+00	0	43	0	1979711488	40	16421
2026-01-23 22:21:39.54	22.53	6.68	-31.8	-32.3	15.5	0.00e+00	0	43	0	2063597568	38	17813
2026-01-23 22:21:40.55	22.58	6.76	-31.7	-32.2	15.5	0.00e+00	0	43	0	2139095040	38	17641
2026-01-23 22:21:41.56	22.64	6.85	-31.7	-32.2	15.4	0.00e+00	0	43	0	2214592512	38	17610
2026-01-23 22:21:42.57	22.70	6.94	-31.6	-32.0	15.6	0.00e+00	0	43	0	2290089984	38	17323
2026-01-23 22:21:43.58	22.75	7.02	-31.5	-31.9	15.6	0.00e+00	0	43	0	2365587456	38	17184
2026-01-23 22:21:44.59	22.81	7.11	-31.6	-32.0	15.5	0.00e+00	0	43	0	2441084928	38	17301
2026-01-23 22:21:45.60	22.87	7.20	-31.6	-32.0	15.6	0.00e+00	0	43	0	2516582400	38	17277
2026-01-23 22:21:46.61	22.92	7.29	-31.4	-31.8	15.6	0.00e+00	0	43	0	2592079872	38	16880
2026-01-23 22:21:47.62	22.98	7.37	-31.4	-31.8	15.6	0.00e+00	0	43	0	2667577344	38	16863
2026-01-23 22:21:48.63	23.04	7.46	-31.4	-31.8	15.7	0.00e+00	0	43	0	2743074816	38	16902
2026-01-23 22:21:49.64	23.10	7.55	-31.5	-32.0	15.6	0.00e+00	0	43	0	2818572288	38	17225
2026-01-23 22:21:50.65	23.16	7.64	-31.4	-31.9	15.6	0.00e+00	0	43	0	2894069760	38	17014
2026-01-23 22:21:51.66	23.22	7.73	-31.3	-31.7	15.7	0.00e+00	0	43	0	2969567232	38	16741
2026-01-23 22:21:52.67	23.28	7.82	-31.3	-31.7	15.7	0.00e+00	0	43	0	3045064704	38	16795
2026-01-23 22:21:53.68	23.34	7.91	-31.3	-31.8	15.7	0.00e+00	0	43	0	3120562176	38	16827
2026-01-23 22:21:54.69	23.40	8.01	-31.3	-31.8	15.7	0.00e+00	0	43	0	3196059648	38	16862
2026-01-23 22:21:55.70	23.46	8.10	-31.3	-31.7	15.7	0.00e+00	0	43	0	3271557120	38	16748
2026-01-23 22:21:56.71	23.52	8.19	-31.2	-31.6	15.8	0.00e+00	0	43	0	3347054592	38	16583
2026-01-23 22:21:57.72	23.59	8.28	-31.1	-31.5	15.7	0.00e+00	0	43	0	3422552064	38	16374
2026-01-23 22:21:58.73	23.65	8.37	-31.3	-31.7	15.7	0.00e+00	0	43	0	3498049536	38	16719
2026-01-23 22:21:59.74	23.71	8.47	-31.0	-31.4	15.8	0.00e+00	0	43	0	3573547008	38	16157
2026-01-23 22:22:00.75	23.78	8.56	-31.1	-31.5	15.8	0.00e+00	0	43	0	3649044480	38	16320
2026-01-23 22:22:01.76	23.84	8.66	-30.9	-31.4	15.8	0.00e+00	0	43	0	3724541952	38	16131
2026-01-23 22:22:02.77	23.91	8.75	-31.0	-31.4	15.8	0.00e+00	0	43	0	3800039424	38	16230
2026-01-23 22:22:03.78	23.97	8.85	-30.9	-31.4	15.8	0.00e+00	0	43	0	3875536896	38	16061
2026-01-23 22:22:04.79	24.04	8.94	-30.9	-31.4	15.8	0.00e+00	0	43	0	3951034368	38	16102
2026-01-23 22:22:05.80	24.10	9.04	-30.9	-31.4	15.8	0.00e+00	0	43	0	4026531840	38	16122
2026-01-23 22:22:06.81	24.17	9.13	-30.8	-31.2	15.9	0.00e+00	0	43	0	4102029312	38	15847
2026-01-23 22:22:07.82	24.24	9.23	-30.7	-31.2	15.8	0.00e+00	0	43	0	4177526784	36	17645
2026-01-23 22:22:08.83	24.31	9.33	-30.8	-31.3	15.8	0.00e+00	0	43	0	4253024256	36	17810
2026-01-23 22:22:09.84	24.37	9.43	-30.8	-31.3	15.8	0.00e+00	0	43	0	4336910336	36	17817
2026-01-23 22:22:10.85	24.44	9.53	-31.0	-31.4	15.8	0.00e+00	0	43	0	4412407808	36	18103
2026-01-23 22:22:11.86	24.51	9.63	-30.9	-31.3	15.8	0.00e+00	0	43	0	4487905280	36	17947
2026-01-23 22:22:12.87	24.58	9.72	-30.6	-31.0	15.9	0.00e+00	0	43	0	4555014144	36	17343
2026-01-23 22:22:13.88	24.65	9.82	-30.5	-31.0	15.9	0.00e+00	0	43	0	4630511616	36	17288
2026-01-23 22:22:14.89	24.72	9.93	-30.6	-31.1	15.9	0.00e+00	0	43	0	4714397696	36	17459
2026-01-23 22:22:15.90	24.79	10.03	-30.5	-30.9	15.9	0.00e+00	0	43	0	4789895168	36	17197
2026-01-23 22:22:16.91	24.87	10.13	-30.5	-30.9	16.0	0.00e+00	0	43	0	4865392640	36	17140
2026-01-23 22:22:17.92	24.94	10.23	-30.5	-31.0	15.9	0.00e+00	0	43	0	4940890112	36	17208
2026-01-23 22:22:18.93	25.01	10.33	-30.4	-30.8	15.9	0.00e+00	0	43	0	5016387584	36	16969
2026-01-23 22:22:19.94	25.09	10.44	-30.6	-31.0	15.7	0.00e+00	0	43	0	5091885056	36	17217
2026-01-23 22:22:20.95	25.16	10.54	-30.5	-30.9	15.6	0.00e+00	0	43	0	5167382528	36	17103
2026-01-23 22:22:21.96	25.24	10.64	-30.3	-30.8	15.7	0.00e+00	0	43	0	5242880000	36	16828
2026-01-23 22:22:22.97	25.31	10.75	-30.4	-30.9	15.7	0.00e+00	0	44	0	5318377472	36	17015
2026-01-23 22:22:23.97	25.39	10.85	-30.5	-30.9	15.7	0.00e+00	0	44	0	5393874944	36	17102
2026-01-23 22:22:24.98	25.46	10.96	-30.2	-30.6	15.9	0.00e+00	0	43	0	5469372416	36	16546
2026-01-23 22:22:25.99	25.54	11.07	-30.3	-30.7	15.9	0.00e+00	0	44	0	5544869888	36	16726
2026-01-23 22:22:27.00	25.62	11.17	-30.2	-30.6	16.0	0.00e+00	0	43	0	5620367360	36	16586
2026-01-23 22:22:28.01	25.70	11.28	-30.2	-30.6	16.1	0.00e+00	0	44	0	5695864832	36	16566
2026-01-23 22:22:29.02	25.78	11.39	-30.2	-30.6	16.1	0.00e+00	0	44	0	5771362304	36	16572
2026-01-23 22:22:30.03	25.86	11.50	-30.0	-30.4	16.0	0.00e+00	0	44	0	5846859776	36	16222
2026-01-23 22:22:31.04	25.94	11.61	-30.0	-30.4	15.9	0.00e+00	0	44	0	5922357248	36	16185
2026-01-23 22:22:32.05	26.02	11.72	-30.0	-30.4	15.9	0.00e+00	0	44	0	5997854720	36	16205
2026-01-23 22:22:33.06	26.10	11.83	-30.0	-30.5	15.9	0.00e+00	0	44	0	6073352192	36	16288
2026-01-23 22:22:34.07	26.19	11.94	-29.8	-30.2	16.0	0.00e+00	0	44	0	6148849664	36	15782
2026-01-23 22:22:35.08	26.27	12.05	-29.9	-30.3	15.9	0.00e+00	0	44	0	6224347136	36	16000
2026-01-23 22:22:36.09	26.35	12.16	-29.8	-30.2	16.1	0.00e+00	0	44	0	6299844608	34	17770
2026-01-23 22:22:37.10	26.44	12.28	-29.7	-30.2	16.1	0.00e+00	0	44	0	6375342080	34	17693
2026-01-23 22:22:38.11	26.53	12.39	-29.8	-30.3	16.2	0.00e+00	0	44	0	6450839552	34	17915
2026-01-23 22:22:39.12	26.61	12.50	-29.7	-30.2	16.2	0.00e+00	0	44	0	6526337024	34	17619
2026-01-23 22:22:40.13	26.70	12.62	-29.6	-30.1	16.2	0.00e+00	0	44	0	6601834496	34	17428
2026-01-23 22:22:41.14	26.79	12.73	-29.7	-30.1	16.2	0.00e+00	0	44	0	6677331968	34	17588
2026-01-23 22:22:42.15	26.88	12.85	-29.7	-30.1	16.1	0.00e+00	0	44	0	6752829440	34	17588
2026-01-23 22:22:43.15	26.97	12.97	-29.5	-29.9	16.1	0.00e+00	0	43	0	6828326912	34	17131
2026-01-23 22:22:44.16	27.06	13.09	-29.5	-29.9	16.2	0.00e+00	0	44	0	6903824384	34	17198
2026-01-23 22:22:45.17	27.15	13.20	-29.6	-30.0	16.2	0.00e+00	0	44	0	6979321856	34	17362
2026-01-23 22:22:46.18	27.24	13.32	-29.5	-30.0	16.2	0.00e+00	0	44	0	7054819328	34	17295
2026-01-23 22:22:47.19	27.33	13.44	-29.5	-30.0	16.2	0.00e+00	0	44	0	7138705408	34	17223
2026-01-23 22:22:48.20	27.43	13.56	-29.5	-29.9	16.2	0.00e+00	0	44	0	7214202880	34	17187
2026-01-23 22:22:49.22	27.52	13.69	-29.3	-29.7	16.2	0.00e+00	0	44	0	7281311744	34	16737
2026-01-23 22:22:50.22	27.62	13.81	-29.3	-29.7	16.3	0.00e+00	0	44	0	7356809216	34	16796
2026-01-23 22:22:51.23	27.72	13.93	-29.2	-29.7	16.3	0.00e+00	0	44	0	7432306688	34	16694
2026-01-23 22:22:52.24	27.81	14.05	-29.2	-29.7	16.3	0.00e+00	0	44	0	7516192768	34	16712
2026-01-23 22:22:53.25	27.91	14.18	-29.2	-29.6	16.3	0.00e+00	0	44	0	7591690240	34	16576
2026-01-23 22:22:54.26	28.01	14.30	-29.2	-29.7	16.4	0.00e+00	0	44	0	7667187712	34	16680
2026-01-23 22:22:55.27	28.11	14.43	-29.2	-29.7	16.3	0.00e+00	0	44	0	7742685184	34	16645
2026-01-23 22:22:56.28	28.21	14.56	-29.2	-29.7	16.3	0.00e+00	0	44	0	7818182656	34	16654
2026-01-23 22:22:57.29	28.32	14.68	-28.9	-29.4	16.3	0.00e+00	0	44	0	7893680128	34	16124
2026-01-23 22:22:58.30	28.42	14.81	-29.0	-29.5	16.3	0.00e+00	0	44	0	7969177600	34	16304
2026-01-23 22:22:59.31	28.52	14.94	-28.9	-29.3	16.3	0.00e+00	0	44	0	8044675072	34	15971
2026-01-23 22:23:00.32	28.63	15.07	-28.9	-29.3	16.4	0.00e+00	0	44	0	8120172544	34	16023
2026-01-23 22:23:01.33	28.74	15.20	-29.0	-29.5	16.4	0.00e+00	0	44	0	8195670016	34	16274
2026-01-23 22:23:02.34	28.84	15.33	-28.8	-29.2	16.3	0.00e+00	0	44	0	8271167488	34	15781
2026-01-23 22:23:03.34	28.95	15.46	-28.9	-29.3	16.3	0.00e+00	0	44	0	8346664960	32	17922
2026-01-23 22:23:04.35	29.06	15.60	-28.9	-29.3	16.2	0.00e+00	0	44	0	8422162432	32	18003
2026-01-23 22:23:05.36	29.17	15.73	-28.9	-29.3	16.3	0.00e+00	0	44	0	8497659904	32	17998
2026-01-23 22:23:06.37	29.28	15.87	-28.8	-29.3	16.3	0.00e+00	0	44	0	8573157376	32	17877
2026-01-23 22:23:07.37	29.40	16.00	-28.9	-29.3	16.4	0.00e+00	0	44	0	8648654848	32	18010
2026-01-23 22:23:08.38	29.51	16.14	-28.8	-29.3	16.4	0.00e+00	0	44	0	8724152320	32	17897
2026-01-23 22:23:09.40	29.63	16.28	-28.5	-28.9	16.4	0.00e+00	0	44	0	8799649792	32	17127
2026-01-23 22:23:10.41	29.74	16.41	-28.6	-29.0	16.4	0.00e+00	0	44	0	8875147264	32	17377
2026-01-23 22:23:11.41	29.86	16.55	-28.4	-28.9	16.4	0.00e+00	0	44	0	8950644736	32	17069
2026-01-23 22:23:12.43	29.98	16.69	-28.4	-28.9	16.5	0.00e+00	0	44	0	9026142208	32	17060
2026-01-23 22:23:13.44	30.10	16.84	-28.4	-28.8	16.5	0.00e+00	0	44	0	9101639680	32	16900
2026-01-23 22:23:14.45	30.22	16.98	-28.4	-28.8	16.5	0.00e+00	0	44	0	9177137152	32	16916
2026-01-23 22:23:15.46	30.35	17.12	-28.3	-28.8	16.5	0.00e+00	0	44	0	9252634624	32	16879
2026-01-23 22:23:16.47	30.47	17.26	-28.3	-28.8	16.5	0.00e+00	0	44	0	9328132096	32	16826
2026-01-23 22:23:17.48	30.60	17.41	-28.1	-28.6	16.5	0.00e+00	0	44	0	9403629568	32	16531
2026-01-23 22:23:18.48	30.72	17.55	-28.2	-28.6	16.5	0.00e+00	0	44	0	9479127040	32	16547
2026-01-23 22:23:19.49	30.85	17.70	-28.3	-28.7	16.5	0.00e+00	0	44	0	9554624512	32	16781
2026-01-23 22:23:20.50	30.98	17.85	-28.1	-28.5	16.6	0.00e+00	0	44	0	9630121984	32	16391
2026-01-23 22:23:21.51	31.11	18.00	-28.0	-28.5	16.6	0.00e+00	0	44	0	9705619456	32	16256
2026-01-23 22:23:22.52	31.24	18.15	-28.0	-28.4	16.6	0.00e+00	0	44	0	9781116928	32	16220
2026-01-23 22:23:23.53	31.38	18.30	-28.0	-28.4	16.6	0.00e+00	0	44	0	9856614400	32	16154
2026-01-23 22:23:24.54	31.51	18.45	-28.0	-28.4	16.6	0.00e+00	0	44	0	9940500480	32	16196
2026-01-23 22:23:25.55	31.65	18.61	-27.9	-28.3	16.5	0.00e+00	0	44	0	10007609344	32	15992
2026-01-23 22:23:26.56	31.79	18.76	-27.8	-28.3	16.6	0.00e+00	0	44	0	10083106816	32	15915
2026-01-23 22:23:27.57	31.93	18.92	-27.9	-28.4	16.6	0.00e+00	0	44	0	10158604288	32	16078
2026-01-23 22:23:28.58	32.07	19.07	-27.8	-28.2	16.6	0.00e+00	0	44	0	10234101760	30	17735
2026-01-23 22:23:29.59	32.21	19.23	-27.8	-28.2	16.6	0.00e+00	0	44	0	10317987840	30	17803
2026-01-23 22:23:30.60	32.36	19.39	-28.0	-28.4	16.6	0.00e+00	0	44	0	10393485312	30	18184
2026-01-23 22:23:31.61	32.51	19.55	-27.7	-28.2	16.5	0.00e+00	0	44	0	10468982784	30	17683
2026-01-23 22:23:32.62	32.66	19.71	-27.8	-28.2	16.6	0.00e+00	0	44	0	10544480256	30	17803
2026-01-23 22:23:33.63	32.81	19.87	-27.5	-28.0	16.6	0.00e+00	0	44	0	10611589120	30	17271
2026-01-23 22:23:34.64	32.96	20.04	-27.5	-28.0	16.7	0.00e+00	0	44	0	10695475200	30	17254
2026-01-23 22:23:35.65	33.11	20.20	-27.4	-27.9	16.6	0.00e+00	0	44	0	10770972672	30	17086
2026-01-23 22:23:36.66	33.27	20.37	-27.6	-28.1	16.7	0.00e+00	0	44	0	10846470144	30	17485
2026-01-23 22:23:37.67	33.43	20.53	-27.3	-27.8	16.6	0.00e+00	0	44	0	10921967616	30	16838
2026-01-23 22:23:38.68	33.58	20.70	-27.4	-27.9	16.7	0.00e+00	0	44	0	10997465088	30	17035
2026-01-23 22:23:39.69	33.75	20.87	-27.2	-27.7	16.7	0.00e+00	0	44	0	11072962560	30	16724
2026-01-23 22:23:40.70	33.91	21.04	-27.3	-27.7	16.7	0.00e+00	0	44	0	11148460032	30	16795
2026-01-23 22:23:41.71	34.08	21.21	-27.3	-27.7	16.6	0.00e+00	0	44	0	11223957504	30	16746
2026-01-23 22:23:42.72	34.24	21.39	-27.1	-27.6	16.7	0.00e+00	0	44	0	11299454976	30	16494
2026-01-23 22:23:43.73	34.41	21.56	-27.1	-27.6	16.7	0.00e+00	0	44	0	11374952448	30	16440
2026-01-23 22:23:44.74	34.58	21.74	-27.1	-27.6	16.7	0.00e+00	0	44	0	11450449920	30	16539
2026-01-23 22:23:45.76	34.76	21.92	-27.1	-27.6	16.7	0.00e+00	0	44	0	11525947392	30	16432
2026-01-23 22:23:46.77	34.94	22.09	-26.9	-27.4	16.8	0.00e+00	0	44	0	11601444864	30	16145
2026-01-23 22:23:47.78	35.11	22.27	-26.9	-27.3	16.7	0.00e+00	0	44	0	11676942336	30	16043
2026-01-23 22:23:48.79	35.29	22.45	-26.9	-27.3	16.7	0.00e+00	0	44	0	11752439808	30	16015
2026-01-23 22:23:49.79	35.48	22.64	-26.9	-27.3	16.8	0.00e+00	0	44	0	11827937280	30	15996
2026-01-23 22:23:50.81	35.66	22.82	-26.8	-27.3	16.7	0.00e+00	0	44	0	11903434752	30	15945
2026-01-23 22:23:51.81	35.85	23.00	-26.7	-27.2	16.8	0.00e+00	0	44	0	11978932224	28	17630
2026-01-23 22:23:52.82	36.04	23.19	-26.6	-27.1	16.8	0.00e+00	0	44	0	12054429696	28	17481
2026-01-23 22:23:53.83	36.23	23.38	-26.6	-27.0	16.7	0.00e+00	0	44	0	12129927168	28	17373
2026-01-23 22:23:54.84	36.43	23.57	-26.7	-27.1	16.8	0.00e+00	0	44	0	12205424640	28	17539
2026-01-23 22:23:55.85	36.62	23.76	-26.7	-27.2	16.8	0.00e+00	0	44	0	12280922112	28	17607
2026-01-23 22:23:56.86	36.83	23.95	-26.5	-27.0	16.8	0.00e+00	0	44	0	12356419584	28	17267
2026-01-23 22:23:57.87	37.03	24.14	-26.8	-27.2	16.7	0.00e+00	0	44	0	12431917056	28	17771
2026-01-23 22:23:58.88	37.23	24.34	-26.5	-26.9	16.8	0.00e+00	0	44	0	12507414528	28	17151
2026-01-23 22:23:59.89	37.44	24.53	-26.3	-26.8	16.8	0.00e+00	0	44	0	12591300608	28	16841
2026-01-23 22:24:00.89	37.65	24.73	-26.3	-26.7	16.8	0.00e+00	0	44	0	12666798080	28	16737
2026-01-23 22:24:01.91	37.87	24.93	-26.4	-26.8	16.8	0.00e+00	0	44	0	12733906944	28	16926
2026-01-23 22:24:02.92	38.09	25.13	-26.2	-26.6	16.8	0.00e+00	0	44	0	12809404416	28	16564
2026-01-23 22:24:03.92	38.30	25.33	-26.2	-26.7	16.8	0.00e+00	0	44	0	12884901888	28	16624
2026-01-23 22:24:04.93	38.53	25.53	-26.2	-26.7	16.8	0.00e+00	0	44	0	12960399360	28	16700
2026-01-23 22:24:05.94	38.75	25.74	-26.1	-26.5	16.8	0.00e+00	0	44	0	13044285440	28	16389
2026-01-23 22:24:06.95	38.98	25.94	-26.1	-26.6	16.8	0.00e+00	0	44	0	13119782912	28	16446
2026-01-23 22:24:07.96	39.22	26.15	-25.9	-26.4	16.9	0.00e+00	0	44	0	13195280384	28	16101
2026-01-23 22:24:08.97	39.45	26.36	-26.0	-26.5	16.8	0.00e+00	0	44	0	13270777856	28	16320
2026-01-23 22:24:09.98	39.69	26.57	-25.9	-26.4	16.8	0.00e+00	0	44	0	13337886720	28	16066
2026-01-23 22:24:10.99	39.94	26.79	-26.0	-26.4	16.8	0.00e+00	0	44	0	13421772800	28	16168
2026-01-23 22:24:12.00	40.18	27.00	-25.8	-26.3	17.0	0.00e+00	0	44	0	13497270272	28	15890
2026-01-23 22:24:13.01	40.43	27.21	-25.8	-26.2	16.9	0.00e+00	0	44	0	13572767744	26	17804
2026-01-23 22:24:14.02	40.69	27.43	-25.8	-26.2	16.9	0.00e+00	0	44	0	13648265216	26	17782
2026-01-23 22:24:15.02	40.94	27.65	-25.7	-26.1	16.9	0.00e+00	0	44	0	13723762688	26	17558
2026-01-23 22:24:16.03	41.21	27.87	-25.6	-26.1	16.9	0.00e+00	0	44	0	13799260160	26	17497
2026-01-23 22:24:17.04	41.47	28.09	-25.7	-26.2	16.8	0.00e+00	0	44	0	13874757632	26	17651
2026-01-23 22:24:18.05	41.74	28.31	-25.5	-25.9	16.9	0.00e+00	0	44	0	13950255104	26	17169
2026-01-23 22:24:19.06	42.01	28.54	-25.5	-26.0	16.9	0.00e+00	0	44	0	14025752576	26	17283
2026-01-23 22:24:20.07	42.29	28.76	-25.5	-26.0	16.9	0.00e+00	0	44	0	14101250048	26	17215
2026-01-23 22:24:21.08	42.57	28.99	-25.4	-25.8	16.9	0.00e+00	0	44	0	14176747520	26	16952
2026-01-23 22:24:22.09	42.86	29.22	-25.4	-25.9	16.8	0.00e+00	0	44	0	14252244992	26	17114
2026-01-23 22:24:23.10	43.15	29.45	-25.2	-25.7	16.9	0.00e+00	0	44	0	14327742464	26	16714
2026-01-23 22:24:24.11	43.45	29.68	-25.4	-25.8	16.9	0.00e+00	0	44	0	14403239936	26	16970
2026-01-23 22:24:25.12	43.75	29.92	-25.3	-25.7	16.9	0.00e+00	0	44	0	14478737408	26	16751
2026-01-23 22:24:26.13	44.05	30.15	-25.1	-25.6	16.9	0.00e+00	0	44	0	14554234880	26	16505
2026-01-23 22:24:27.14	44.36	30.39	-25.3	-25.7	16.9	0.00e+00	0	44	0	14629732352	26	16805
2026-01-23 22:24:28.15	44.67	30.63	-25.0	-25.4	16.9	0.00e+00	0	44	0	14705229824	26	16232
2026-01-23 22:24:29.16	44.99	30.86	-25.1	-25.6	16.9	0.00e+00	0	44	0	14780727296	26	16434
2026-01-23 22:24:30.17	45.32	31.11	-24.9	-25.3	17.0	0.00e+00	0	44	0	14856224768	26	16035
2026-01-23 22:24:31.18	45.65	31.35	-24.9	-25.4	16.9	0.00e+00	0	44	0	14931722240	26	16129
2026-01-23 22:24:32.19	45.98	31.59	-24.9	-25.4	17.0	0.00e+00	0	44	0	15007219712	26	16134
2026-01-23 22:24:33.20	46.32	31.84	-24.9	-25.3	16.9	0.00e+00	0	44	0	15082717184	26	15987
2026-01-23 22:24:34.21	46.67	32.08	-24.8	-25.3	16.9	0.00e+00	0	44	0	15158214656	26	15926
2026-01-23 22:24:35.22	47.02	32.33	-24.7	-25.1	17.0	0.00e+00	0	44	0	15233712128	24	17573
2026-01-23 22:24:36.23	47.37	32.58	-24.7	-25.2	17.0	0.00e+00	0	44	0	15309209600	24	17676
2026-01-23 22:24:37.24	47.74	32.83	-24.6	-25.1	17.0	0.00e+00	0	44	0	15393095680	24	17401
2026-01-23 22:24:38.25	48.11	33.08	-24.6	-25.1	17.0	0.00e+00	0	44	0	15460204544	24	17427
2026-01-23 22:24:39.25	48.48	33.33	-24.8	-25.2	17.0	0.00e+00	0	44	0	15535702016	24	17738
2026-01-23 22:24:40.26	48.86	33.59	-24.4	-24.9	17.0	0.00e+00	0	44	0	15611199488	24	17074
2026-01-23 22:24:41.28	49.25	33.84	-24.4	-24.9	16.9	0.00e+00	0	44	0	15686696960	24	17024
2026-01-23 22:24:42.29	49.64	34.10	-24.3	-24.8	16.9	0.00e+00	0	44	0	15770583040	24	16880
2026-01-23 22:24:43.29	50.04	34.35	-24.4	-24.9	17.0	0.00e+00	0	44	0	15846080512	24	17057
2026-01-23 22:24:44.30	50.45	34.61	-24.3	-24.7	17.0	0.00e+00	0	44	0	15921577984	24	16748
2026-01-23 22:24:45.31	50.86	34.87	-24.3	-24.8	17.0	0.00e+00	0	44	0	15997075456	24	16837
2026-01-23 22:24:46.32	51.28	35.13	-24.2	-24.7	17.0	0.00e+00	0	44	0	16064184320	24	16730
2026-01-23 22:24:47.33	51.71	35.39	-24.2	-24.6	17.0	0.00e+00	0	44	0	16139681792	24	16559
2026-01-23 22:24:48.34	52.14	35.65	-24.1	-24.6	17.0	0.00e+00	0	44	0	16223567872	24	16522
2026-01-23 22:24:49.35	52.59	35.92	-24.2	-24.6	17.0	0.00e+00	0	44	0	16299065344	24	16584
2026-01-23 22:24:50.36	53.04	36.18	-24.0	-24.5	17.0	0.00e+00	0	44	0	16374562816	24	16291
2026-01-23 22:24:51.37	53.49	36.44	-24.0	-24.5	17.1	0.00e+00	0	44	0	16450060288	24	16353
2026-01-23 22:24:52.38	53.96	36.71	-24.0	-24.5	17.1	0.00e+00	0	44	0	16525557760	24	16294
2026-01-23 22:24:53.39	54.43	36.97	-23.9	-24.4	17.0	0.00e+00	0	44	0	16601055232	24	16081
2026-01-23 22:24:54.40	54.91	37.24	-23.9	-24.3	17.1	0.00e+00	0	44	0	16676552704	24	16017
2026-01-23 22:24:55.41	55.40	37.50	-23.8	-24.3	17.0	0.00e+00	0	44	0	16752050176	24	15955
2026-01-23 22:24:56.41	55.90	37.76	-23.7	-24.2	17.1	0.00e+00	0	44	0	16827547648	24	15821
2026-01-23 22:24:57.42	56.40	38.03	-23.6	-24.1	17.2	0.00e+00	0	44	0	16903045120	22	17494
2026-01-23 22:24:58.43	56.92	38.30	-23.7	-24.1	17.1	0.00e+00	0	44	0	16978542592	22	17594
2026-01-23 22:24:59.44	57.44	38.56	-23.6	-24.1	17.1	0.00e+00	0	44	0	17054040064	22	17411
2026-01-23 22:25:00.45	57.98	38.83	-23.9	-24.3	17.0	0.00e+00	0	44	0	17129537536	22	17973
2026-01-23 22:25:01.46	58.52	39.09	-23.6	-24.1	17.0	0.00e+00	0	44	0	17205035008	22	17539
2026-01-23 22:25:02.47	59.07	39.35	-23.6	-24.0	17.0	0.00e+00	0	44	0	17280532480	22	17370
2026-01-23 22:25:03.48	59.63	39.62	-23.6	-24.0	17.1	0.00e+00	0	44	0	17356029952	22	17362
2026-01-23 22:25:04.49	60.20	39.88	-23.5	-23.9	17.1	0.00e+00	0	44	0	17431527424	22	17196
2026-01-23 22:25:05.50	60.78	40.14	-23.5	-23.9	17.1	0.00e+00	0	44	0	17507024896	22	17196
2026-01-23 22:25:06.51	61.37	40.41	-23.2	-23.7	17.1	0.00e+00	0	44	0	17582522368	22	16722
2026-01-23 22:25:07.52	61.97	40.67	-23.5	-23.9	17.1	0.00e+00	0	44	0	17658019840	22	17106
2026-01-23 22:25:08.53	62.58	40.92	-23.2	-23.7	17.2	0.00e+00	0	44	0	17733517312	22	16631
2026-01-23 22:25:09.54	63.20	41.18	-23.2	-23.7	17.0	0.00e+00	0	44	0	17809014784	22	16646
2026-01-23 22:25:10.55	63.83	41.44	-23.2	-23.7	17.1	0.00e+00	0	44	0	17884512256	22	16644
2026-01-23 22:25:11.56	64.47	41.69	-23.1	-23.6	17.1	0.00e+00	0	44	0	17960009728	22	16444
2026-01-23 22:25:12.57	65.12	41.94	-23.1	-23.5	17.1	0.00e+00	0	44	0	18035507200	22	16377
2026-01-23 22:25:13.58	65.79	42.19	-23.2	-23.6	17.1	0.00e+00	0	44	0	18111004672	22	16553
2026-01-23 22:25:14.58	66.45	42.44	-23.0	-23.5	17.0	0.00e+00	0	44	0	18186502144	22	16255
2026-01-23 22:25:15.59	67.13	42.69	-23.0	-23.4	17.1	0.00e+00	0	44	0	18261999616	22	16238
2026-01-23 22:25:16.60	67.83	42.93	-22.9	-23.4	17.1	0.00e+00	0	44	0	18337497088	22	16178
2026-01-23 22:25:17.61	68.53	43.17	-23.0	-23.4	17.1	0.00e+00	0	44	0	18412994560	22	16174
2026-01-23 22:25:18.62	69.25	43.41	-23.0	-23.4	17.1	0.00e+00	0	44	0	18488492032	22	16199
2026-01-23 22:25:19.63	69.98	43.64	-23.1	-23.6	17.1	0.00e+00	0	44	0	18563989504	22	16509
2026-01-23 22:25:20.64	70.71	43.87	-23.2	-23.7	17.1	0.00e+00	0	44	0	18647875584	22	16656
2026-01-23 22:25:21.65	71.46	44.10	-22.9	-23.3	17.1	0.00e+00	0	44	0	18723373056	22	16000
2026-01-23 22:25:22.66	72.22	44.32	-22.8	-23.2	17.1	0.00e+00	0	44	0	18790481920	20	17735
2026-01-23 22:25:23.67	72.99	44.54	-22.7	-23.2	17.0	0.00e+00	0	44	0	18865979392	20	17662
2026-01-23 22:25:24.68	73.77	44.76	-22.9	-23.4	17.2	0.00e+00	0	44	0	18941476864	20	18037
2026-01-23 22:25:25.69	74.56	44.97	-22.7	-23.1	17.1	0.00e+00	0	44	0	19025362944	20	17520
2026-01-23 22:25:26.70	75.37	45.17	-22.7	-23.2	17.1	0.00e+00	0	44	0	19100860416	20	17665
2026-01-23 22:25:27.71	76.18	45.37	-22.7	-23.2	17.1	0.00e+00	0	44	0	19176357888	20	17606
2026-01-23 22:25:28.72	77.01	45.57	-22.6	-23.0	17.1	0.00e+00	0	44	0	19251855360	20	17351
2026-01-23 22:25:29.73	77.84	45.76	-22.5	-23.0	17.1	0.00e+00	0	44	0	19318964224	20	17311
2026-01-23 22:25:30.74	78.69	45.94	-22.6	-23.1	17.1	0.00e+00	0	44	0	19402850304	20	17497
2026-01-23 22:25:31.75	79.54	46.12	-22.5	-23.0	17.1	0.00e+00	0	44	0	19478347776	20	17202
2026-01-23 22:25:32.76	80.41	46.30	-22.5	-23.0	17.1	0.00e+00	0	44	0	19553845248	20	17285
2026-01-23 22:25:33.77	81.28	46.47	-22.5	-22.9	17.2	0.00e+00	0	44	0	19629342720	20	17167
2026-01-23 22:25:34.78	82.16	46.63	-22.5	-22.9	17.1	0.00e+00	0	44	0	19704840192	20	17156
2026-01-23 22:25:35.79	83.06	46.78	-22.5	-22.9	17.1	0.00e+00	0	44	0	19780337664	20	17190
2026-01-23 22:25:36.80	83.96	46.93	-22.5	-22.9	17.2	0.00e+00	0	44	0	19855835136	20	17139
2026-01-23 22:25:37.81	84.87	47.07	-22.4	-22.9	17.1	0.00e+00	0	44	0	19931332608	20	17075
2026-01-23 22:25:38.82	85.79	47.20	-22.4	-22.8	17.1	0.00e+00	0	44	0	20006830080	20	16949
2026-01-23 22:25:39.83	86.72	47.33	-22.5	-22.9	17.1	0.00e+00	0	44	0	20082327552	20	17119
2026-01-23 22:25:40.84	87.65	47.45	-22.4	-22.9	17.1	0.00e+00	0	44	0	20157825024	20	17088
2026-01-23 22:25:41.85	88.59	47.56	-22.5	-23.0	17.1	0.00e+00	0	44	0	20233322496	20	17211
2026-01-23 22:25:42.86	89.54	47.66	-22.4	-22.8	17.1	0.00e+00	0	44	0	20308819968	20	16986
2026-01-23 22:25:43.87	90.49	47.76	-22.5	-23.0	17.1	0.00e+00	0	44	0	20384317440	20	17270
2026-01-23 22:25:44.88	91.46	47.85	-22.4	-22.8	17.1	0.00e+00	0	44	0	20459814912	20	16937
2026-01-23 22:25:45.89	92.42	47.92	-22.4	-22.9	17.2	0.00e+00	0	44	0	20535312384	20	17045
2026-01-23 22:25:46.90	93.39	48.00	-22.8	-23.2	17.1	0.00e+00	0	44	0	20610809856	20	17772
2026-01-23 22:25:47.91	94.37	48.06	-22.9	-23.4	17.2	0.00e+00	0	44	0	20686307328	20	18046
2026-01-23 22:25:48.92	95.34	48.11	-22.7	-23.1	17.1	0.00e+00	0	44	0	20761804800	20	17565
2026-01-23 22:25:49.93	96.33	48.16	-22.2	-22.7	17.1	0.00e+00	0	44	0	20837302272	20	16641
2026-01-23 22:25:50.94	97.31	48.19	-22.3	-22.8	17.1	0.00e+00	0	44	0	20912799744	20	16822
2026-01-23 22:25:51.95	98.30	48.22	-22.2	-22.6	17.2	0.00e+00	0	44	0	20988297216	20	16602
2026-01-23 22:25:52.96	99.28	48.24	-22.2	-22.7	17.2	0.00e+00	0	44	0	21063794688	20	16684
2026-01-23 22:25:53.97	100.27	48.25	-22.3	-22.7	17.1	0.00e+00	0	44	0	21139292160	20	16732
2026-01-23 22:25:54.97	101.25	48.25	-22.3	-22.8	17.1	0.00e+00	0	44	0	21214789632	20	16855
2026-01-23 22:25:55.98	102.24	48.24	-22.2	-22.7	17.2	0.00e+00	0	44	0	21290287104	20	16704
2026-01-23 22:25:56.99	103.23	48.22	-22.3	-22.8	17.1	0.00e+00	0	44	0	21374173184	20	16843
2026-01-23 22:25:58.00	104.22	48.20	-22.4	-22.8	17.1	0.00e+00	0	44	0	21441282048	20	16940
2026-01-23 22:25:59.01	105.20	48.16	-22.2	-22.7	17.1	0.00e+00	0	44	0	21516779520	20	16660
2026-01-23 22:26:00.01	106.17	48.12	-22.3	-22.8	17.1	0.00e+00	0	44	0	21592276992	20	16912
2026-01-23 22:26:01.02	107.15	48.07	-22.2	-22.7	17.2	0.00e+00	0	44	0	21667774464	20	16709
2026-01-23 22:26:02.03	108.13	48.01	-22.3	-22.7	17.2	0.00e+00	0	44	0	21743271936	20	16752
2026-01-23 22:26:03.05	109.11	47.94	-22.3	-22.7	17.1	0.00e+00	0	44	0	21827158016	20	16735
2026-01-23 22:26:04.05	110.07	47.86	-22.3	-22.8	17.2	0.00e+00	0	44	0	21902655488	20	16898
2026-01-23 22:26:05.06	111.03	47.78	-22.3	-22.8	17.2	0.00e+00	0	44	0	21978152960	20	16812
2026-01-23 22:26:06.07	111.98	47.68	-22.3	-22.7	17.1	0.00e+00	0	44	0	22045261824	20	16757
2026-01-23 22:26:07.08	112.93	47.58	-22.4	-22.9	17.1	0.00e+00	0	44	0	22120759296	20	17060
2026-01-23 22:26:08.09	113.88	47.47	-22.3	-22.7	17.1	0.00e+00	0	44	0	22204645376	20	16788
2026-01-23 22:26:09.10	114.81	47.36	-22.4	-22.9	17.1	0.00e+00	0	44	0	22280142848	20	17028
2026-01-23 22:26:10.11	115.74	47.23	-22.5	-22.9	17.1	0.00e+00	0	44	0	22355640320	20	17134
2026-01-23 22:26:11.12	116.67	47.10	-22.4	-22.9	17.1	0.00e+00	0	44	0	22431137792	20	17104
2026-01-23 22:26:12.12	117.57	46.96	-22.4	-22.8	17.2	0.00e+00	0	44	0	22506635264	20	16949
2026-01-23 22:26:13.13	118.47	46.81	-22.5	-22.9	17.2	0.00e+00	0	44	0	22573744128	20	17140
2026-01-23 22:26:14.14	119.37	46.66	-22.5	-22.9	17.1	0.00e+00	0	44	0	22657630208	20	17192
2026-01-23 22:26:15.15	120.26	46.50	-22.5	-23.0	17.1	0.00e+00	0	44	0	22733127680	20	17268
2026-01-23 22:26:16.16	121.13	46.34	-22.5	-22.9	17.1	0.00e+00	0	44	0	22808625152	20	17194
2026-01-23 22:26:17.17	122.00	46.16	-22.5	-23.0	17.2	0.00e+00	0	44	0	22884122624	20	17261
2026-01-23 22:26:18.18	122.86	45.98	-22.5	-22.9	17.1	0.00e+00	0	44	0	22959620096	20	17188
2026-01-23 22:26:19.19	123.71	45.80	-22.5	-23.0	17.1	0.00e+00	0	44	0	23035117568	20	17226
2026-01-23 22:26:20.20	124.55	45.61	-22.5	-22.9	17.1	0.00e+00	0	44	0	23110615040	20	17159
2026-01-23 22:26:21.20	125.36	45.42	-22.6	-23.1	17.2	0.00e+00	0	44	0	23186112512	20	17511
2026-01-23 22:26:22.21	126.18	45.22	-22.7	-23.1	17.1	0.00e+00	0	44	0	23261609984	20	17572
2026-01-23 22:26:23.22	126.99	45.01	-22.6	-23.1	17.2	0.00e+00	0	44	0	23337107456	20	17483
2026-01-23 22:26:24.24	127.79	44.80	-22.8	-23.3	17.1	0.00e+00	0	44	0	23412604928	20	17826
2026-01-23 22:26:25.24	128.57	44.59	-22.8	-23.2	17.1	0.00e+00	0	44	0	23488102400	20	17797
2026-01-23 22:26:26.25	129.34	44.37	-22.6	-23.1	17.1	0.00e+00	0	44	0	23563599872	20	17482
2026-01-23 22:26:27.26	130.10	44.15	-22.8	-23.3	17.1	0.00e+00	0	44	0	23639097344	20	17895
2026-01-23 22:26:28.27	130.86	43.92	-22.7	-23.2	17.1	0.00e+00	0	44	0	23714594816	20	17665
2026-01-23 22:26:29.28	131.60	43.69	-22.8	-23.3	17.1	0.00e+00	0	44	0	23790092288	20	17900
2026-01-23 22:26:30.29	132.33	43.46	-22.8	-23.2	17.1	0.00e+00	0	44	0	23865589760	20	17751
2026-01-23 22:26:31.30	133.05	43.22	-22.9	-23.3	17.2	0.00e+00	0	44	0	23941087232	20	17984
2026-01-23 22:26:32.31	133.75	42.98	-22.9	-23.4	17.2	0.00e+00	0	44	0	24016584704	20	18075
2026-01-23 22:26:33.32	134.45	42.74	-22.9	-23.4	17.2	0.00e+00	0	44	0	24092082176	20	18018
2026-01-23 22:26:34.33	135.14	42.49	-22.9	-23.4	17.1	0.00e+00	0	44	0	24167579648	20	18085
2026-01-23 22:26:35.34	135.81	42.24	-22.9	-23.4	17.1	0.00e+00	0	44	0	24243077120	20	18039
2026-01-23 22:26:36.35	136.48	41.99	-23.0	-23.4	17.1	0.00e+00	0	44	0	24318574592	20	18176
2026-01-23 22:26:37.36	137.13	41.74	-23.0	-23.5	17.1	0.00e+00	0	44	0	24394072064	20	18296
2026-01-23 22:26:38.37	137.78	41.49	-23.1	-23.6	17.1	0.00e+00	0	44	0	24469569536	20	18502
2026-01-23 22:26:39.38	138.41	41.23	-23.2	-23.7	17.1	0.00e+00	0	44	0	24545067008	20	18685
2026-01-23 22:26:40.38	139.03	40.98	-23.2	-23.7	17.1	0.00e+00	0	44	0	24620564480	20	18689
2026-01-23 22:26:41.39	139.64	40.72	-23.1	-23.6	17.1	0.00e+00	0	44	0	24704450560	20	18577
2026-01-23 22:26:42.40	140.24	40.46	-23.2	-23.7	17.1	0.00e+00	0	44	0	24771559424	20	18647
2026-01-23 22:26:43.41	140.83	40.19	-23.3	-23.7	17.1	0.00e+00	0	44	0	24847056896	20	18825
2026-01-23 22:26:44.42	141.42	39.93	-23.2	-23.7	17.0	0.00e+00	0	44	0	24922554368	20	18785
2026-01-23 22:26:45.43	141.99	39.67	-23.4	-23.9	17.0	0.00e+00	0	44	0	24998051840	20	19223
2026-01-23 22:26:46.45	142.56	39.40	-23.3	-23.7	17.1	0.00e+00	0	44	0	25081937920	20	18857
2026-01-23 22:26:47.45	143.11	39.14	-23.4	-23.9	17.1	0.00e+00	0	44	0	25157435392	20	19205
2026-01-23 22:26:48.46	143.65	38.87	-23.4	-23.9	17.1	0.00e+00	0	44	0	25232932864	20	19123
2026-01-23 22:26:49.47	144.19	38.61	-23.5	-24.0	17.1	0.00e+00	0	44	0	25300041728	20	19387
2026-01-23 22:26:50.48	144.72	38.34	-23.6	-24.0	17.1	0.00e+00	0	44	0	25375539200	20	19470
2026-01-23 22:26:51.49	145.23	38.08	-23.6	-24.1	17.1	0.00e+00	0	44	0	25459425280	20	19538
2026-01-23 22:26:52.50	145.74	37.81	-23.6	-24.0	17.1	0.00e+00	0	44	0	25534922752	20	19472
2026-01-23 22:26:53.51	146.24	37.54	-23.6	-24.0	17.1	0.00e+00	0	44	0	25610420224	20	19473
2026-01-23 22:26:54.52	146.74	37.28	-23.7	-24.2	17.1	0.00e+00	0	44	0	25685917696	20	19756
2026-01-23 22:26:55.53	147.22	37.01	-23.7	-24.1	17.1	0.00e+00	0	44	0	25761415168	20	19685
2026-01-23 22:26:56.54	147.69	36.75	-23.9	-24.3	17.1	0.00e+00	0	44	0	25836912640	22	17980
2026-01-23 22:26:57.55	148.16	36.48	-23.8	-24.3	17.1	0.00e+00	0	44	0	25912410112	22	17894
2026-01-23 22:26:58.56	148.62	36.22	-23.9	-24.3	17.1	0.00e+00	0	44	0	25987907584	22	18002
2026-01-23 22:26:59.57	149.07	35.96	-23.8	-24.3	17.1	0.00e+00	0	44	0	26063405056	22	17954
2026-01-23 22:27:00.58	149.52	35.69	-23.9	-24.4	17.2	0.00e+00	0	44	0	26138902528	22	18052
2026-01-23 22:27:01.59	149.96	35.43	-24.0	-24.5	17.1	0.00e+00	0	44	0	26214400000	22	18324
2026-01-23 22:27:02.60	150.39	35.17	-24.0	-24.5	17.0	0.00e+00	0	44	0	26289897472	22	18309
2026-01-23 22:27:03.61	150.81	34.91	-24.2	-24.7	17.1	0.00e+00	0	44	0	26365394944	22	18682
2026-01-23 22:27:04.62	151.22	34.65	-24.1	-24.6	17.1	0.00e+00	0	44	0	26440892416	22	18557
2026-01-23 22:27:05.63	151.63	34.39	-24.4	-24.9	17.1	0.00e+00	0	44	0	26516389888	22	19117
2026-01-23 22:27:06.64	152.04	34.13	-24.2	-24.7	17.0	0.00e+00	0	44	0	26591887360	22	18723
2026-01-23 22:27:07.65	152.43	33.87	-24.4	-24.8	17.1	0.00e+00	0	44	0	26667384832	22	19078
2026-01-23 22:27:08.66	152.82	33.62	-24.3	-24.7	17.1	0.00e+00	0	44	0	26742882304	22	18812
2026-01-23 22:27:09.67	153.20	33.36	-24.4	-24.8	17.0	0.00e+00	0	44	0	26818379776	22	19072
2026-01-23 22:27:10.68	153.58	33.11	-24.5	-25.0	17.0	0.00e+00	0	44	0	26893877248	22	19379
2026-01-23 22:27:11.69	153.95	32.86	-24.5	-24.9	17.0	0.00e+00	0	44	0	26969374720	22	19255
2026-01-23 22:27:12.69	154.31	32.61	-24.5	-25.0	17.1	0.00e+00	0	44	0	27044872192	22	19373
2026-01-23 22:27:13.70	154.67	32.36	-24.7	-25.1	17.0	0.00e+00	0	44	0	27120369664	22	19713
2026-01-23 22:27:14.71	155.02	32.11	-24.6	-25.1	17.1	0.00e+00	0	44	0	27195867136	22	19549
2026-01-23 22:27:15.72	155.37	31.86	-24.7	-25.2	17.0	0.00e+00	0	44	0	27271364608	22	19768
2026-01-23 22:27:16.73	155.71	31.62	-24.7	-25.2	17.1	0.00e+00	0	44	0	27346862080	22	19785
2026-01-23 22:27:17.74	156.04	31.37	-24.8	-25.3	17.0	0.00e+00	0	44	0	27430748160	24	17830
2026-01-23 22:27:18.75	156.37	31.13	-24.9	-25.4	17.0	0.00e+00	0	44	0	27497857024	24	18137
2026-01-23 22:27:19.76	156.70	30.89	-24.8	-25.3	17.0	0.00e+00	0	44	0	27573354496	24	17816
2026-01-23 22:27:20.77	157.02	30.65	-25.0	-25.5	17.0	0.00e+00	0	44	0	27648851968	24	18267
2026-01-23 22:27:21.78	157.34	30.41	-25.0	-25.5	17.0	0.00e+00	0	44	0	27724349440	24	18306
2026-01-23 22:27:22.79	157.65	30.17	-25.0	-25.5	17.0	0.00e+00	0	44	0	27808235520	24	18311
2026-01-23 22:27:23.80	157.95	29.94	-25.0	-25.5	17.0	0.00e+00	0	44	0	27883732992	24	18307
2026-01-23 22:27:24.81	158.25	29.70	-25.0	-25.5	17.0	0.00e+00	0	44	0	27959230464	24	18353
2026-01-23 22:27:25.82	158.55	29.47	-25.1	-25.6	17.0	0.00e+00	0	44	0	28026339328	24	18491
2026-01-23 22:27:26.83	158.84	29.24	-25.1	-25.6	17.0	0.00e+00	0	44	0	28101836800	24	18463
2026-01-23 22:27:27.83	159.13	29.01	-25.2	-25.7	17.0	0.00e+00	0	44	0	28177334272	24	18695
2026-01-23 22:27:28.84	159.41	28.78	-25.2	-25.7	17.0	0.00e+00	0	44	0	28261220352	24	18705
2026-01-23 22:27:29.86	159.69	28.55	-25.2	-25.7	17.0	0.00e+00	0	44	0	28336717824	24	18772
2026-01-23 22:27:30.87	159.96	28.33	-25.3	-25.8	17.0	0.00e+00	0	44	0	28412215296	24	18979
2026-01-23 22:27:31.88	160.24	28.10	-25.4	-25.8	16.9	0.00e+00	0	44	0	28487712768	24	19030
2026-01-23 22:27:32.88	160.50	27.88	-25.4	-25.9	17.0	0.00e+00	0	44	0	28563210240	24	19217
2026-01-23 22:27:33.89	160.76	27.66	-25.5	-26.0	17.0	0.00e+00	0	44	0	28638707712	24	19443
2026-01-23 22:27:34.90	161.02	27.44	-25.6	-26.1	16.9	0.00e+00	0	44	0	28714205184	24	19598
2026-01-23 22:27:35.91	161.28	27.22	-25.6	-26.1	16.9	0.00e+00	0	44	0	28789702656	24	19566
2026-01-23 22:27:36.92	161.53	27.01	-25.6	-26.0	16.9	0.00e+00	0	44	0	28865200128	24	19499
2026-01-23 22:27:37.93	161.77	26.79	-25.8	-26.3	16.9	0.00e+00	0	44	0	28940697600	26	17882
2026-01-23 22:27:38.94	162.02	26.58	-25.7	-26.2	16.9	0.00e+00	0	44	0	29016195072	26	17666
2026-01-23 22:27:39.95	162.26	26.37	-25.8	-26.3	16.9	0.00e+00	0	44	0	29091692544	26	17813
2026-01-23 22:27:40.96	162.50	26.16	-25.8	-26.2	16.9	0.00e+00	0	44	0	29167190016	26	17753
2026-01-23 22:27:41.97	162.73	25.95	-25.8	-26.3	16.9	0.00e+00	0	44	0	29242687488	26	17891
2026-01-23 22:27:42.98	162.96	25.74	-25.9	-26.4	16.9	0.00e+00	0	44	0	29318184960	26	18156
2026-01-23 22:27:43.99	163.19	25.54	-26.1	-26.6	16.9	0.00e+00	0	44	0	29393682432	26	18452
2026-01-23 22:27:45.00	163.41	25.33	-26.0	-26.4	16.9	0.00e+00	0	44	0	29469179904	26	18197
2026-01-23 22:27:46.01	163.63	25.13	-26.0	-26.5	16.8	0.00e+00	0	44	0	29544677376	26	18350
2026-01-23 22:27:47.02	163.85	24.93	-26.1	-26.6	16.9	0.00e+00	0	44	0	29620174848	26	18484
2026-01-23 22:27:48.03	164.07	24.73	-26.1	-26.6	16.9	0.00e+00	0	44	0	29695672320	26	18486
2026-01-23 22:27:49.04	164.28	24.53	-26.1	-26.6	16.9	0.00e+00	0	44	0	29771169792	26	18484
2026-01-23 22:27:50.05	164.49	24.33	-26.1	-26.6	16.9	0.00e+00	0	44	0	29846667264	26	18540
2026-01-23 22:27:51.05	164.69	24.14	-26.2	-26.7	16.9	0.00e+00	0	44	0	29922164736	26	18715
2026-01-23 22:27:52.06	164.90	23.95	-26.3	-26.8	16.8	0.00e+00	0	44	0	29997662208	26	18961
2026-01-23 22:27:53.07	165.10	23.75	-26.3	-26.7	16.9	0.00e+00	0	44	0	30073159680	26	18849
2026-01-23 22:27:54.08	165.29	23.56	-26.3	-26.8	16.8	0.00e+00	0	44	0	30148657152	26	18896
2026-01-23 22:27:55.09	165.49	23.37	-26.5	-27.0	16.8	0.00e+00	0	44	0	30224154624	26	19424
2026-01-23 22:27:56.10	165.68	23.18	-26.4	-26.9	16.9	0.00e+00	0	44	0	30299652096	26	19177
2026-01-23 22:27:57.11	165.87	23.00	-26.5	-26.9	16.8	0.00e+00	0	44	0	30375149568	26	19280
2026-01-23 22:27:58.12	166.06	22.81	-26.6	-27.0	16.9	0.00e+00	0	44	0	30450647040	26	19484
2026-01-23 22:27:59.13	166.25	22.63	-26.6	-27.0	16.8	0.00e+00	0	44	0	30526144512	26	19453
2026-01-23 22:28:00.13	166.43	22.45	-26.7	-27.2	16.9	0.00e+00	0	44	0	30601641984	26	19810
2026-01-23 22:28:01.13	166.61	22.27	-26.7	-27.1	16.8	0.00e+00	0	44	0	30677139456	28	17550
2026-01-23 22:28:02.14	166.79	22.09	-26.6	-27.1	16.8	0.00e+00	0	44	0	30752636928	28	17517
2026-01-23 22:28:03.15	166.96	21.91	-26.8	-27.3	16.8	0.00e+00	0	44	0	30828134400	28	17821
2026-01-23 22:28:04.16	167.14	21.73	-26.9	-27.4	16.7	0.00e+00	0	44	0	30903631872	28	18063
2026-01-23 22:28:05.17	167.31	21.55	-26.9	-27.4	16.8	0.00e+00	0	44	0	30979129344	28	18112
2026-01-23 22:28:06.18	167.48	21.38	-26.8	-27.3	16.8	0.00e+00	0	44	0	31054626816	28	17829
2026-01-23 22:28:07.19	167.65	21.20	-26.9	-27.3	16.8	0.00e+00	0	44	0	31130124288	28	17970
2026-01-23 22:28:08.20	167.81	21.03	-26.9	-27.4	16.8	0.00e+00	0	44	0	31214010368	28	18047
2026-01-23 22:28:09.20	167.98	20.86	-26.9	-27.4	16.8	0.00e+00	0	44	0	31281119232	28	18128
2026-01-23 22:28:10.21	168.14	20.69	-27.0	-27.5	16.8	0.00e+00	0	44	0	31356616704	28	18246
2026-01-23 22:28:11.22	168.30	20.52	-27.0	-27.5	16.8	0.00e+00	0	44	0	31432114176	28	18359
2026-01-23 22:28:12.23	168.46	20.35	-27.1	-27.5	16.7	0.00e+00	0	44	0	31507611648	28	18375
2026-01-23 22:28:13.24	168.61	20.19	-27.1	-27.6	16.7	0.00e+00	0	44	0	31591497728	28	18561
2026-01-23 22:28:14.25	168.77	20.02	-27.2	-27.7	16.7	0.00e+00	0	44	0	31666995200	28	18706
2026-01-23 22:28:15.26	168.92	19.86	-27.2	-27.6	16.7	0.00e+00	0	44	0	31742492672	28	18612
2026-01-23 22:28:16.27	169.07	19.70	-27.3	-27.8	16.7	0.00e+00	0	44	0	31817990144	28	18893
2026-01-23 22:28:17.28	169.22	19.53	-27.3	-27.7	16.7	0.00e+00	0	44	0	31885099008	28	18801
2026-01-23 22:28:18.29	169.36	19.37	-27.3	-27.8	16.7	0.00e+00	0	44	0	31968985088	28	18868
2026-01-23 22:28:19.29	169.51	19.22	-27.5	-28.0	16.7	0.00e+00	0	44	0	32044482560	28	19436
2026-01-23 22:28:20.30	169.65	19.06	-27.4	-27.8	16.7	0.00e+00	0	44	0	32119980032	28	19027
2026-01-23 22:28:21.31	169.79	18.90	-27.4	-27.9	16.7	0.00e+00	0	44	0	32195477504	28	19191
2026-01-23 22:28:22.32	169.93	18.74	-27.6	-28.0	16.7	0.00e+00	0	44	0	32270974976	28	19522
2026-01-23 22:28:23.33	170.07	18.59	-27.5	-28.0	16.7	0.00e+00	0	44	0	32346472448	28	19429
2026-01-23 22:28:24.34	170.21	18.44	-27.6	-28.1	16.6	0.00e+00	0	44	0	32421969920	28	19577
2026-01-23 22:28:25.35	170.35	18.28	-27.6	-28.1	16.7	0.00e+00	0	44	0	32497467392	28	19688
2026-01-23 22:28:26.35	170.48	18.13	-27.7	-28.2	16.6	0.00e+00	0	44	0	32572964864	28	19812
2026-01-23 22:28:27.36	170.61	17.98	-27.8	-28.3	16.7	0.00e+00	0	44	0	32648462336	30	17845
2026-01-23 22:28:28.37	170.74	17.83	-27.9	-28.3	16.6	0.00e+00	0	44	0	32723959808	30	17978
2026-01-23 22:28:29.37	170.87	17.68	-28.1	-28.5	16.6	0.00e+00	0	44	0	32799457280	30	18377
2026-01-23 22:28:30.38	171.00	17.54	-28.1	-28.5	16.6	0.00e+00	0	44	0	32874954752	30	18396
2026-01-23 22:28:31.39	171.13	17.39	-28.1	-28.5	16.6	0.00e+00	0	44	0	32950452224	30	18354
2026-01-23 22:28:32.40	171.25	17.24	-28.0	-28.5	16.6	0.00e+00	0	44	0	33025949696	30	18222
2026-01-23 22:28:33.41	171.38	17.10	-28.0	-28.5	16.6	0.00e+00	0	44	0	33101447168	30	18303
2026-01-23 22:28:34.42	171.50	16.96	-28.0	-28.5	16.6	0.00e+00	0	44	0	33176944640	30	18350
2026-01-23 22:28:35.43	171.62	16.81	-28.1	-28.5	16.6	0.00e+00	0	44	0	33252442112	30	18386
2026-01-23 22:28:36.44	171.74	16.67	-28.2	-28.7	16.5	0.00e+00	0	44	0	33327939584	30	18654
2026-01-23 22:28:37.45	171.86	16.53	-28.1	-28.6	16.5	0.00e+00	0	44	0	33403437056	30	18496
2026-01-23 22:28:38.46	171.98	16.39	-28.3	-28.8	16.5	0.00e+00	0	44	0	33478934528	30	18952
2026-01-23 22:28:39.47	172.10	16.25	-28.4	-28.8	16.5	0.00e+00	0	44	0	33554432000	30	19006
2026-01-23 22:28:40.48	172.21	16.11	-28.4	-28.9	16.5	0.00e+00	0	44	0	33629929472	30	19178
2026-01-23 22:28:41.49	172.33	15.98	-28.4	-28.8	16.5	0.00e+00	0	44	0	33705426944	30	19036
2026-01-23 22:28:42.50	172.44	15.84	-28.3	-28.8	16.5	0.00e+00	0	44	0	33780924416	30	18968
2026-01-23 22:28:43.51	172.55	15.70	-28.4	-28.8	16.5	0.00e+00	0	44	0	33856421888	30	19065
2026-01-23 22:28:44.52	172.66	15.57	-28.5	-29.0	16.4	0.00e+00	0	44	0	33931919360	30	19385
2026-01-23 22:28:45.53	172.77	15.44	-28.5	-28.9	16.5	0.00e+00	0	44	0	34007416832	30	19283
2026-01-23 22:28:46.53	172.88	15.30	-28.5	-28.9	16.4	0.00e+00	0	44	0	34082914304	30	19242
2026-01-23 22:28:47.54	172.99	15.17	-28.6	-29.1	16.3	0.00e+00	0	44	0	34158411776	30	19618
2026-01-23 22:28:48.55	173.09	15.04	-28.6	-29.0	15.9	0.00e+00	0	44	0	34233909248	30	19508
2026-01-23 22:28:49.56	173.20	14.91	-28.6	-29.0	15.8	0.00e+00	0	44	0	34309406720	32	17363
2026-01-23 22:28:50.57	173.30	14.78	-28.7	-29.2	16.1	0.00e+00	0	44	0	34384904192	32	17679
2026-01-23 22:28:51.58	173.41	14.65	-28.8	-29.2	16.2	0.00e+00	0	44	0	34460401664	32	17783
2026-01-23 22:28:52.59	173.51	14.52	-28.7	-29.2	16.4	0.00e+00	0	44	0	34544287744	32	17687
2026-01-23 22:28:53.60	173.61	14.40	-50.9	-53.4	3.5	0.00e+00	0	44	104	34594619392	60	57541
2026-01-23 22:28:54.60	173.71	14.27	-51.0	-53.5	3.6	0.00e+00	0	44	104	34594619392	60	57667
2026-01-23 22:28:55.61	173.81	14.15	-51.0	-53.5	3.6	0.00e+00	0	44	104	34594619392	60	57755
2026-01-23 22:28:56.62	173.91	14.02	-51.0	-53.5	3.5	0.00e+00	0	44	104	34594619392	60	57737
2026-01-23 22:28:57.63	174.00	13.90	-51.0	-53.5	3.6	0.00e+00	0	44	104	34594619392	60	57970
2026-01-23 22:28:58.64	174.10	13.78	-51.0	-53.5	3.6	0.00e+00	0	44	104	34594619392	60	57661
2026-01-23 22:28:59.65	174.20	13.65	-51.0	-53.4	3.6	0.00e+00	0	44	104	34594619392	60	57339
2026-01-23 22:29:00.66	174.29	13.53	-50.9	-53.4	3.6	0.00e+00	0	44	104	34594619392	60	57058
2026-01-23 22:29:01.67	174.39	13.41	-51.0	-53.4	3.6	0.00e+00	0	44	104	34594619392	60	57388
2026-01-23 22:29:02.68	174.48	13.29	-50.9	-53.4	3.6	0.00e+00	0	44	104	34594619392	60	57259
2026-01-23 22:29:03.69	174.57	13.17	-50.9	-53.4	3.6	0.00e+00	0	44	104	34594619392	60	57105
2026-01-23 22:29:04.70	174.66	13.05	-50.9	-53.4	3.6	0.00e+00	0	44	104	34594619392	60	57476
2026-01-23 22:29:05.71	174.75	12.93	-50.9	-53.3	3.6	0.00e+00	0	44	104	34594619392	60	56796
2026-01-23 22:29:06.72	174.84	12.82	-50.9	-53.4	3.6	0.00e+00	0	44	104	34594619392	60	57283
2026-01-23 22:29:07.73	174.93	12.70	-50.8	-53.3	3.6	0.00e+00	0	44	104	34594619392	60	56440
2026-01-23 22:29:08.74	175.02	12.58	-50.9	-53.3	3.6	0.00e+00	0	44	104	34594619392	60	56756
2026-01-23 22:29:09.75	175.11	12.47	-50.8	-53.2	3.6	0.00e+00	0	44	104	34594619392	60	56271
2026-01-23 22:29:10.76	175.19	12.35	-50.9	-53.4	3.6	0.00e+00	0	44	104	34594619392	60	57222
2026-01-23 22:29:11.77	175.28	12.24	-50.8	-53.3	3.6	0.00e+00	0	44	104	34594619392	60	56712
2026-01-23 22:29:12.77	175.36	12.13	-50.8	-53.3	3.6	0.00e+00	0	44	104	34594619392	60	56678
2026-01-23 22:29:13.79	175.45	12.01	-50.9	-53.3	3.6	0.00e+00	0	44	104	34594619392	60	56682
2026-01-23 22:29:14.80	175.53	11.90	-50.8	-53.3	3.6	0.00e+00	0	44	104	34594619392	60	56856
2026-01-23 22:29:15.81	175.61	11.79	-50.8	-53.3	3.6	0.00e+00	0	44	104	34594619392	60	56619
2026-01-23 22:29:16.82	175.70	11.68	-50.9	-53.4	3.6	0.00e+00	0	44	104	34594619392	60	57040
2026-01-23 22:29:17.82	175.78	11.57	-50.8	-53.3	3.6	0.00e+00	0	44	104	34594619392	60	56491
2026-01-23 22:29:18.83	175.86	11.46	-50.8	-53.3	3.6	0.00e+00	0	44	104	34594619392	60	56480
2026-01-23 22:29:19.84	175.94	11.35	-50.6	-53.0	3.6	0.00e+00	0	44	104	34594619392	60	54952
2026-01-23 22:29:20.85	176.02	11.24	-50.8	-53.3	3.6	0.00e+00	0	44	104	34594619392	60	56575
2026-01-23 22:29:21.86	176.09	11.13	-50.8	-53.3	3.6	0.00e+00	0	44	104	34594619392	60	56544
2026-01-23 22:29:22.87	176.17	11.02	-50.6	-53.1	3.6	0.00e+00	0	44	104	34594619392	60	55484
2026-01-23 22:29:23.88	176.25	10.92	-50.5	-53.0	3.6	0.00e+00	0	44	104	34594619392	60	54568
2026-01-23 22:29:24.89	176.33	10.81	-50.7	-53.2	3.6	0.00e+00	0	44	104	34594619392	60	55834
2026-01-23 22:29:25.90	176.40	10.71	-50.6	-53.1	3.6	0.00e+00	0	44	104	34594619392	60	55355
2026-01-23 22:29:26.91	176.48	10.60	-50.5	-53.1	3.6	0.00e+00	0	44	104	34594619392	60	55390
2026-01-23 22:29:27.92	176.55	10.50	-50.6	-53.1	3.6	0.00e+00	0	44	104	34594619392	60	55379
2026-01-23 22:29:28.93	176.63	10.39	-50.6	-53.1	3.6	0.00e+00	0	44	104	34594619392	60	55609
2026-01-23 22:29:29.94	176.70	10.29	-50.6	-53.2	3.6	0.00e+00	0	44	104	34594619392	60	55808
2026-01-23 22:29:30.95	176.77	10.19	-50.6	-53.2	3.6	0.00e+00	0	44	104	34594619392	60	55826
2026-01-23 22:29:31.96	176.85	10.08	-50.6	-53.1	3.6	0.00e+00	0	44	104	34594619392	60	55488
2026-01-23 22:29:32.97	176.92	9.98	-50.7	-53.1	3.6	0.00e+00	0	44	104	34594619392	60	55641
2026-01-23 22:29:33.98	176.99	9.88	-50.6	-53.1	3.6	0.00e+00	0	44	104	34594619392	60	55058
2026-01-23 22:29:34.99	177.06	9.78	-50.7	-53.2	3.6	0.00e+00	0	44	104	34594619392	60	55723
2026-01-23 22:29:36.00	177.13	9.68	-50.7	-53.2	3.5	0.00e+00	0	44	104	34594619392	60	56124
2026-01-23 22:29:37.01	177.20	9.58	-50.5	-53.0	3.6	0.00e+00	0	44	104	34594619392	60	55009
2026-01-23 22:29:38.02	177.27	9.48	-50.7	-53.2	3.6	0.00e+00	0	44	104	34594619392	60	55888
2026-01-23 22:29:39.03	177.34	9.38	-50.8	-53.3	3.6	0.00e+00	0	44	104	34594619392	60	56427
2026-01-23 22:29:40.04	177.40	9.28	-50.7	-53.2	3.6	0.00e+00	0	44	104	34594619392	60	55964
2026-01-23 22:29:41.05	177.47	9.18	-50.6	-53.1	3.6	0.00e+00	0	44	104	34594619392	60	55638
2026-01-23 22:29:42.06	177.54	9.09	-50.7	-53.2	3.6	0.00e+00	0	44	104	34594619392	60	56042
2026-01-23 22:29:43.07	177.60	8.99	-50.7	-53.2	3.6	0.00e+00	0	44	104	34594619392	60	56200
2026-01-23 22:29:44.08	177.67	8.89	-50.6	-53.1	3.6	0.00e+00	0	44	104	34594619392	60	55496
2026-01-23 22:29:45.09	177.74	8.80	-50.7	-53.2	3.6	0.00e+00	0	44	104	34594619392	60	56175
2026-01-23 22:29:46.10	177.80	8.70	-50.6	-53.1	3.6	0.00e+00	0	44	104	34594619392	60	55362
2026-01-23 22:29:47.11	177.86	8.61	-50.7	-53.2	3.6	0.00e+00	0	44	104	34594619392	60	55950
2026-01-23 22:29:48.12	177.93	8.51	-50.5	-53.0	3.6	0.00e+00	0	44	104	34594619392	60	54679
2026-01-23 22:29:49.13	177.99	8.42	-50.7	-53.2	3.6	0.00e+00	0	44	104	34594619392	60	55896
2026-01-23 22:29:50.14	178.05	8.32	-50.6	-53.1	3.6	0.00e+00	0	44	104	34594619392	60	55239
2026-01-23 22:29:51.15	178.12	8.23	-50.7	-53.2	3.6	0.00e+00	0	44	104	34594619392	60	55810
2026-01-23 22:29:52.16	178.18	8.14	-50.5	-53.1	3.6	0.00e+00	0	44	104	34594619392	60	55119
2026-01-23 22:29:53.17	178.24	8.05	-50.7	-53.1	3.6	0.00e+00	0	44	104	34594619392	60	55521
2026-01-23 22:29:54.18	178.30	7.95	-50.6	-53.1	3.6	0.00e+00	0	44	104	34594619392	60	55215
2026-01-23 22:29:55.19	178.36	7.86	-50.5	-53.0	3.6	0.00e+00	0	44	104	34594619392	60	54904
2026-01-23 22:29:56.20	178.42	7.77	-50.5	-53.0	3.6	0.00e+00	0	44	104	34594619392	60	54737
2026-01-23 22:29:57.21	178.48	7.68	-50.5	-53.1	3.6	0.00e+00	0	44	104	34594619392	60	55176
2026-01-23 22:29:58.22	178.54	7.59	-50.6	-53.1	3.6	0.00e+00	0	44	104	34594619392	60	55219
2026-01-23 22:29:59.23	178.60	7.50	-50.7	-53.1	3.6	0.00e+00	0	44	104	34594619392	60	55618
2026-01-23 22:30:00.23	178.66	7.41	-50.6	-53.1	3.6	0.00e+00	0	44	104	34594619392	60	55091
2026-01-23 22:30:01.24	178.72	7.32	-50.6	-53.1	3.6	0.00e+00	0	44	104	34594619392	60	55319
2026-01-23 22:30:02.25	178.77	7.23	-50.6	-53.1	3.6	0.00e+00	0	44	104	34594619392	60	55169
2026-01-23 22:30:03.26	178.83	7.15	-50.6	-53.1	3.6	0.00e+00	0	44	104	34594619392	60	55268
2026-01-23 22:30:04.27	178.89	7.06	-50.5	-53.0	3.6	0.00e+00	0	44	104	34594619392	60	54945
2026-01-23 22:30:05.28	178.94	6.97	-50.5	-53.1	3.6	0.00e+00	0	44	104	34594619392	60	55148
2026-01-23 22:30:06.29	179.00	6.88	-50.6	-53.1	3.6	0.00e+00	0	44	104	34594619392	60	55155
2026-01-23 22:30:07.30	179.06	6.80	-50.7	-53.1	3.6	0.00e+00	0	44	104	34594619392	60	55633
2026-01-23 22:30:08.31	179.11	6.71	-50.6	-53.1	3.6	0.00e+00	0	44	104	34594619392	60	55117
2026-01-23 22:30:09.32	179.17	6.62	-50.6	-53.1	3.6	0.00e+00	0	44	104	34594619392	60	55218
2026-01-23 22:30:10.33	179.22	6.54	-50.6	-53.0	3.6	0.00e+00	0	44	104	34594619392	60	54988
2026-01-23 22:30:11.34	179.27	6.45	-50.6	-53.1	3.6	0.00e+00	0	44	104	34594619392	60	55431
2026-01-23 22:30:12.35	179.33	6.37	-50.4	-52.9	3.6	0.00e+00	0	44	104	34594619392	60	54218
2026-01-23 22:30:13.36	179.38	6.28	-50.6	-53.1	3.6	0.00e+00	0	44	104	34594619392	60	55351
2026-01-23 22:30:14.37	179.43	6.20	-50.3	-52.9	3.6	0.00e+00	0	44	104	34594619392	60	53866
2026-01-23 22:30:15.38	179.49	6.11	-50.4	-52.9	3.5	0.00e+00	0	44	104	34594619392	60	54301
2026-01-23 22:30:16.39	179.54	6.03	-50.1	-52.7	3.6	0.00e+00	0	44	104	34594619392	60	52718
2026-01-23 22:30:17.39	179.59	5.95	-50.4	-53.0	3.6	0.00e+00	0	44	104	34594619392	60	54430
2026-01-23 22:30:18.40	179.64	5.87	-50.2	-52.8	3.6	0.00e+00	0	44	104	34594619392	60	53273
2026-01-23 22:30:19.41	179.69	5.78	-50.3	-52.8	3.6	0.00e+00	0	44	104	34594619392	60	53660
2026-01-23 22:30:20.42	179.74	5.70	-50.4	-52.9	3.6	0.00e+00	0	44	104	34594619392	60	53911
2026-01-23 22:30:21.43	179.80	5.62	-50.3	-52.8	3.6	0.00e+00	0	44	104	34594619392	60	53597
2026-01-23 22:30:22.44	179.85	5.54	-50.3	-52.9	3.6	0.00e+00	0	44	104	34594619392	60	53797
2026-01-23 22:30:23.45	179.90	5.46	-50.4	-52.9	3.6	0.00e+00	0	44	104	34594619392	60	54378
2026-01-23 22:30:24.46	179.95	5.37	-50.5	-52.9	3.6	0.00e+00	0	44	104	34594619392	60	54348
2026-01-23 22:30:25.47	179.99	5.29	-50.3	-52.9	3.6	0.00e+00	0	44	104	34594619392	60	54152
2026-01-23 22:30:26.47	180.04	5.21	-50.5	-53.0	3.6	0.00e+00	0	44	104	34594619392	60	54754
2026-01-23 22:30:27.49	180.09	5.13	-50.5	-53.0	3.6	0.00e+00	0	44	104	34594619392	60	54455
2026-01-23 22:30:28.49	180.14	5.05	-50.4	-52.9	3.6	0.00e+00	0	44	104	34594619392	60	54132
2026-01-23 22:30:29.50	180.19	4.97	-50.4	-52.9	3.6	0.00e+00	0	44	104	34594619392	60	54196
2026-01-23 22:30:30.51	180.24	4.90	-50.4	-52.9	3.6	0.00e+00	0	44	104	34594619392	60	54392
2026-01-23 22:30:31.53	180.28	4.82	-50.6	-53.1	3.6	0.00e+00	0	44	104	34594619392	60	55229
2026-01-23 22:30:32.54	180.33	4.74	-50.5	-53.0	3.6	0.00e+00	0	44	104	34594619392	60	54876
2026-01-23 22:30:33.55	180.38	4.66	-50.5	-53.0	3.6	0.00e+00	0	44	104	34594619392	60	54683
2026-01-23 22:30:34.55	180.42	4.58	-50.5	-53.0	3.6	0.00e+00	0	44	104	34594619392	60	54500
2026-01-23 22:30:35.56	180.47	4.50	-50.3	-52.8	3.5	0.00e+00	0	44	104	34594619392	60	53351
2026-01-23 22:30:36.57	180.52	4.43	-50.3	-52.9	3.6	0.00e+00	0	44	104	34594619392	60	53784
2026-01-23 22:30:37.58	180.56	4.35	-50.4	-52.9	3.6	0.00e+00	0	44	104	34594619392	60	53957
2026-01-23 22:30:38.59	180.61	4.27	-50.1	-52.6	3.6	0.00e+00	0	44	104	34594619392	60	52430
2026-01-23 22:30:39.60	180.65	4.20	-50.1	-52.6	3.6	0.00e+00	0	44	104	34594619392	60	52530
2026-01-23 22:30:40.61	180.70	4.12	-50.1	-52.7	3.6	0.00e+00	0	44	104	34594619392	60	52692
2026-01-23 22:30:41.62	180.74	4.04	-50.3	-52.8	3.6	0.00e+00	0	44	104	34594619392	60	53476
2026-01-23 22:30:42.63	180.79	3.97	-49.8	-52.4	3.6	0.00e+00	0	44	104	34594619392	60	50786
2026-01-23 22:30:43.63	180.83	3.89	-49.8	-52.4	3.6	0.00e+00	0	44	104	34594619392	60	51248
2026-01-23 22:30:44.64	180.87	3.82	-49.9	-52.3	3.6	0.00e+00	0	44	104	34594619392	60	50732
2026-01-23 22:30:45.65	180.92	3.74	-50.0	-52.5	3.6	0.00e+00	0	44	104	34594619392	60	51521
2026-01-23 22:30:46.66	180.96	3.67	-50.0	-52.5	3.6	0.00e+00	0	44	104	34594619392	60	51757
2026-01-23 22:30:47.67	181.00	3.59	-49.8	-52.4	3.6	0.00e+00	0	44	104	34594619392	60	50805
2026-01-23 22:30:48.68	181.05	3.52	-49.9	-52.4	3.6	0.00e+00	0	44	104	34594619392	60	51173
2026-01-23 22:30:49.69	181.09	3.45	-49.8	-52.4	3.6	0.00e+00	0	44	104	34594619392	60	51094
2026-01-23 22:30:50.70	181.13	3.37	-50.1	-52.6	3.6	0.00e+00	0	44	104	34594619392	60	52195
2026-01-23 22:30:51.71	181.17	3.30	-49.8	-52.4	3.6	0.00e+00	0	44	104	34594619392	60	51218
2026-01-23 22:30:52.71	181.22	3.23	-50.1	-52.6	3.6	0.00e+00	0	44	104	34594619392	60	52505
2026-01-23 22:30:53.72	181.26	3.15	-50.2	-52.7	3.6	0.00e+00	0	44	104	34594619392	60	52600
2026-01-23 22:30:54.73	181.30	3.08	-50.1	-52.6	3.6	0.00e+00	0	44	104	34594619392	60	52298
2026-01-23 22:30:55.74	181.34	3.01	-50.3	-52.8	3.6	0.00e+00	0	44	104	34594619392	60	53182
2026-01-23 22:30:56.75	181.38	2.94	-50.3	-52.8	3.6	0.00e+00	0	44	104	34594619392	60	53466
2026-01-23 22:30:57.76	181.42	2.86	-50.1	-52.8	3.6	0.00e+00	0	44	104	34594619392	60	53298
2026-01-23 22:30:58.77	181.46	2.79	-51.0	-53.5	3.6	0.00e+00	0	44	104	34594619392	60	57995
2026-01-23 22:30:59.78	181.50	2.72	-51.0	-53.5	3.6	0.00e+00	0	44	104	34594619392	60	58147
2026-01-23 22:31:00.79	181.54	2.65	-51.2	-53.7	3.6	0.00e+00	0	44	104	34594619392	60	59375
2026-01-23 22:31:01.80	181.58	2.58	-51.4	-53.8	3.6	0.00e+00	0	44	104	34594619392	60	60105
2026-01-23 22:31:02.81	181.62	2.51	-51.4	-53.9	3.6	0.00e+00	0	44	104	34594619392	60	60410
2026-01-23 22:31:03.82	181.66	2.44	-51.4	-53.9	3.6	0.00e+00	0	44	104	34594619392	60	60759
2026-01-23 22:31:04.83	181.70	2.37	-51.5	-54.0	3.6	0.00e+00	0	44	104	34594619392	60	61257
2026-01-23 22:31:05.84	181.74	2.30	-51.6	-54.1	3.6	0.00e+00	0	44	104	34594619392	60	61967
2026-01-23 22:31:06.85	181.78	2.23	-51.5	-54.0	3.6	0.00e+00	0	44	104	34594619392	60	61632
2026-01-23 22:31:07.85	181.81	2.16	-51.3	-53.8	3.6	0.00e+00	0	44	104	34594619392	60	60222
2026-01-23 22:31:08.86	181.85	2.09	-51.1	-53.6	3.6	0.00e+00	0	44	104	34594619392	60	58732
2026-01-23 22:31:09.88	181.89	2.02	-51.6	-54.0	3.6	0.00e+00	0	44	104	34594619392	60	61347
2026-01-23 22:31:10.89	181.93	1.95	-51.7	-54.1	3.6	0.00e+00	0	44	104	34594619392	60	61934
2026-01-23 22:31:11.90	181.97	1.88	-51.5	-53.9	3.6	0.00e+00	0	44	104	34594619392	60	60813
2026-01-23 22:31:12.90	182.00	1.81	-51.6	-54.0	3.6	0.00e+00	0	44	104	34594619392	60	61717
2026-01-23 22:31:13.91	182.04	1.74	-51.4	-54.0	3.6	0.00e+00	0	44	104	34594619392	60	61158
2026-01-23 22:31:14.92	182.08	1.68	-51.5	-54.0	3.6	0.00e+00	0	44	104	34594619392	60	61553
2026-01-23 22:31:15.94	182.11	1.61	-51.6	-54.1	3.6	0.00e+00	0	44	104	34594619392	60	62234
2026-01-23 22:31:16.95	182.15	1.54	-51.7	-54.1	3.6	0.00e+00	0	44	104	34594619392	60	62234
2026-01-23 22:31:17.96	182.19	1.47	-51.6	-54.1	3.6	0.00e+00	0	44	104	34594619392	60	61977
2026-01-23 22:31:18.97	182.22	1.40	-51.8	-54.2	3.6	0.00e+00	0	44	104	34594619392	60	63109
2026-01-23 22:31:19.97	182.26	1.34	-51.8	-54.2	3.6	0.00e+00	0	44	104	34594619392	60	63014
2026-01-23 22:31:20.99	182.30	1.27	-51.8	-54.3	3.6	0.00e+00	0	44	104	34594619392	60	63310
2026-01-23 22:31:22.00	182.33	1.20	-51.8	-54.3	3.6	0.00e+00	0	44	104	34594619392	60	63425
2026-01-23 22:31:23.01	182.37	1.14	-51.8	-54.2	3.6	0.00e+00	0	44	104	34594619392	60	63160
2026-01-23 22:31:24.02	182.40	1.07	-51.8	-54.2	3.6	0.00e+00	0	44	104	34594619392	60	63103
2026-01-23 22:31:25.03	182.44	1.00	-51.8	-54.3	3.6	0.00e+00	0	44	104	34594619392	60	63272
2026-01-23 22:31:26.04	182.47	0.94	-51.8	-54.2	3.6	0.00e+00	0	44	104	34594619392	60	62938
2026-01-23 22:31:27.05	182.51	0.87	-51.8	-54.3	3.6	0.00e+00	0	44	104	34594619392	60	63235
2026-01-23 22:31:28.05	182.54	0.81	-51.8	-54.2	3.6	0.00e+00	0	44	104	34594619392	60	62935
2026-01-23 22:31:29.06	182.58	0.74	-51.7	-54.2	3.6	0.00e+00	0	44	104	34594619392	60	63097
2026-01-23 22:31:30.08	182.61	0.67	-51.8	-54.2	3.6	0.00e+00	0	44	104	34594619392	60	62756
2026-01-23 22:31:31.09	182.64	0.61	-51.8	-54.2	3.5	0.00e+00	0	44	104	34594619392	60	62960
2026-01-23 22:31:32.10	182.68	0.54	-51.8	-54.2	3.6	0.00e+00	0	44	104	34594619392	60	62869
