passes_logs/2026/01/23/R4.6S_Anadyr/R4.6S_Anadyr__20260123_024641_FENGYUN_3D_rec.log

#Pass ID: 20260123_024641_FENGYUN 3D
#Satellite: FENGYUN 3D
#Configuration: FENGYUN 3D
#almurnet v.1.7.20251203
#Start time: 2026-01-23 02:46:42

#Version: 2.2.20231116
#Station: R4.6S_Anadyr
#Location: 177.4865 lon 64.73178 lat
#TLE: 1 43010U 17072A   26022.47411728  .00000617  00000+0  31375-3 0  9996
#TLE: 2 43010  98.9952 354.4060 0002481  95.7964 264.3494 14.19699924424319

#Time	Az	El	Level	Level2	SNR	BER	BlckErr	Temp	State	Recorded	gain1	gain2
2026-01-23 02:46:42.74	168.73	0.06	-52.1	-69.8	3.5	3.02e+01	0	38	0	0	60	119020
2026-01-23 02:46:43.75	168.75	0.12	-51.2	-63.4	3.6	8.45e-01	0	39	104	0	60	53428
2026-01-23 02:46:44.76	168.77	0.18	-51.3	-63.4	3.6	8.45e-01	0	39	104	0	60	53362
2026-01-23 02:46:45.77	168.79	0.24	-51.2	-63.4	3.6	8.45e-01	0	39	104	0	60	53552
2026-01-23 02:46:46.78	168.81	0.30	-51.2	-63.4	3.6	8.44e-01	0	39	104	0	60	53499
2026-01-23 02:46:47.79	168.83	0.36	-51.3	-63.4	3.6	8.46e-01	0	39	104	0	60	53396
2026-01-23 02:46:48.80	168.85	0.42	-51.3	-63.4	3.6	8.45e-01	0	39	104	0	60	53419
2026-01-23 02:46:49.81	168.87	0.48	-51.3	-63.4	3.6	8.44e-01	0	39	104	0	60	53635
2026-01-23 02:46:50.82	168.89	0.54	-51.3	-63.4	3.6	8.45e-01	0	40	104	0	60	53524
2026-01-23 02:46:51.83	168.91	0.60	-51.3	-63.4	3.6	8.46e-01	0	40	104	0	60	53491
2026-01-23 02:46:52.84	168.92	0.67	-51.3	-63.4	3.6	8.45e-01	0	40	104	0	60	53523
2026-01-23 02:46:53.85	168.94	0.73	-51.2	-63.4	3.6	8.45e-01	0	40	104	0	60	53378
2026-01-23 02:46:54.86	168.96	0.79	-51.2	-63.3	3.6	8.44e-01	0	40	104	0	60	53148
2026-01-23 02:46:55.87	168.98	0.85	-51.1	-63.3	3.6	8.44e-01	0	40	104	0	60	52948
2026-01-23 02:46:56.88	169.00	0.91	-51.0	-63.2	3.6	8.45e-01	0	40	104	0	60	52269
2026-01-23 02:46:57.89	169.02	0.97	-51.0	-63.2	3.6	8.45e-01	0	40	104	0	60	52402
2026-01-23 02:46:58.90	169.04	1.04	-51.0	-63.2	3.6	8.46e-01	0	40	104	0	60	51983
2026-01-23 02:46:59.91	169.06	1.10	-51.0	-63.1	3.6	8.45e-01	0	40	104	0	60	51519
2026-01-23 02:47:00.92	169.08	1.16	-50.8	-63.0	3.6	8.46e-01	0	40	104	0	60	51186
2026-01-23 02:47:01.93	169.10	1.22	-49.8	-61.9	3.6	8.45e-01	0	40	104	0	60	45194
2026-01-23 02:47:02.94	169.13	1.29	-50.8	-62.9	3.6	8.46e-01	0	40	104	0	60	50335
2026-01-23 02:47:03.95	169.15	1.35	-50.6	-62.8	3.6	8.45e-01	0	40	104	0	60	49793
2026-01-23 02:47:04.96	169.17	1.41	-50.5	-62.6	3.6	8.46e-01	0	40	104	0	60	48807
2026-01-23 02:47:05.97	169.19	1.47	-50.3	-62.4	3.6	8.45e-01	0	40	104	0	60	47639
2026-01-23 02:47:06.98	169.21	1.54	-50.0	-61.9	3.6	8.46e-01	0	40	104	0	60	44822
2026-01-23 02:47:07.99	169.23	1.60	-49.9	-61.5	3.6	8.45e-01	0	40	104	0	60	43205
2026-01-23 02:47:08.99	169.25	1.66	-49.8	-61.4	3.6	8.44e-01	0	40	104	0	60	42365
2026-01-23 02:47:10.00	169.27	1.73	-49.8	-61.4	3.6	8.46e-01	0	40	104	0	60	42616
2026-01-23 02:47:11.01	169.29	1.79	-49.8	-61.1	3.6	8.45e-01	0	40	104	0	60	41211
2026-01-23 02:47:12.02	169.31	1.85	-49.8	-61.2	3.6	8.45e-01	0	40	104	0	60	41678
2026-01-23 02:47:13.03	169.33	1.92	-49.8	-61.6	3.6	8.46e-01	0	40	104	0	60	43301
2026-01-23 02:47:14.04	169.35	1.98	-49.9	-61.8	3.6	8.46e-01	0	40	104	0	60	44332
2026-01-23 02:47:15.05	169.37	2.05	-49.9	-62.0	3.6	8.45e-01	0	40	104	0	60	45325
2026-01-23 02:47:16.06	169.40	2.11	-49.9	-62.0	3.6	8.45e-01	0	40	104	0	60	45583
2026-01-23 02:47:17.07	169.42	2.18	-49.9	-62.0	3.6	8.45e-01	0	40	104	0	60	45710
2026-01-23 02:47:18.09	169.44	2.24	-49.9	-61.9	3.6	8.45e-01	0	40	104	0	60	44749
2026-01-23 02:47:19.10	169.46	2.31	-49.8	-61.5	3.5	8.47e-01	0	40	104	0	60	43097
2026-01-23 02:47:20.11	169.48	2.37	-49.8	-61.4	3.6	8.45e-01	0	40	104	0	60	42661
2026-01-23 02:47:21.12	169.50	2.44	-49.8	-60.9	3.6	8.45e-01	0	40	104	0	60	39940
2026-01-23 02:47:22.13	169.53	2.50	-49.8	-60.9	3.6	8.45e-01	0	40	104	0	60	39868
2026-01-23 02:47:23.14	169.55	2.57	-49.7	-60.2	3.6	8.45e-01	0	40	104	0	60	36978
2026-01-23 02:47:24.15	169.57	2.63	-49.7	-59.8	3.6	8.44e-01	0	40	104	0	60	35481
2026-01-23 02:47:25.16	169.59	2.70	-49.7	-59.6	3.6	8.44e-01	0	40	104	0	60	34664
2026-01-23 02:47:26.17	169.61	2.76	-49.8	-60.7	3.6	8.45e-01	0	40	104	0	60	39391
2026-01-23 02:47:27.18	169.64	2.83	-49.8	-61.6	3.6	8.46e-01	0	40	104	0	60	43684
2026-01-23 02:47:28.19	169.66	2.90	-49.9	-61.9	3.6	8.45e-01	0	40	104	0	60	45010
2026-01-23 02:47:29.20	169.68	2.96	-49.7	-59.7	3.6	8.45e-01	0	40	104	0	60	35119
2026-01-23 02:47:30.21	169.70	3.03	-49.0	-55.7	5.6	8.01e-01	0	40	104	0	60	22134
2026-01-23 02:47:31.22	169.73	3.10	-48.1	-52.2	8.0	1.68e-01	0	40	0	3145728	60	14757
2026-01-23 02:47:32.23	169.75	3.16	-46.7	-49.5	11.3	3.77e-03	0	40	0	8388608	60	10846
2026-01-23 02:47:33.24	169.77	3.23	-45.7	-47.9	13.1	1.67e-04	0	40	0	13631488	60	8966
2026-01-23 02:47:34.25	169.79	3.30	-44.1	-45.8	15.5	1.10e-06	0	40	0	19922944	60	7033
2026-01-23 02:47:35.26	169.82	3.36	-43.3	-44.7	16.2	0.00e+00	0	40	0	25165824	60	6234
2026-01-23 02:47:36.27	169.84	3.43	-42.5	-43.7	17.2	0.00e+00	0	40	0	31457280	58	6236
2026-01-23 02:47:37.28	169.86	3.50	-42.2	-43.4	17.7	0.00e+00	0	40	0	36700160	58	5980
2026-01-23 02:47:38.29	169.89	3.57	-41.9	-43.1	17.9	0.00e+00	0	40	0	41943040	58	5821
2026-01-23 02:47:39.30	169.91	3.63	-42.1	-43.3	17.7	0.00e+00	0	40	0	48234496	56	6665
2026-01-23 02:47:40.31	169.93	3.70	-43.6	-45.1	15.6	0.00e+00	0	40	0	53477376	58	7293
2026-01-23 02:47:41.32	169.96	3.77	-44.1	-45.6	16.7	5.40e-02	0	40	0	59768832	60	6885
2026-01-23 02:47:42.33	169.98	3.84	-39.7	-40.7	20.1	0.00e+00	0	40	0	65011712	52	6187
2026-01-23 02:47:43.34	170.00	3.91	-49.7	-59.1	3.8	8.45e-01	0	40	104	67108864	60	32764
2026-01-23 02:47:44.35	170.03	3.98	-42.6	-43.8	16.9	6.43e-01	0	40	104	67108864	60	5629
2026-01-23 02:47:45.36	170.05	4.05	-49.4	-57.1	5.6	8.43e-01	0	40	104	67108864	60	25790
2026-01-23 02:47:46.37	170.08	4.11	-43.9	-45.4	15.6	0.00e+00	0	40	0	69206016	60	6765
2026-01-23 02:47:47.38	170.10	4.18	-43.9	-45.5	16.6	0.00e+00	0	40	0	74448896	60	6790
2026-01-23 02:47:48.39	170.12	4.25	-43.0	-44.3	16.6	0.00e+00	0	40	0	79691776	60	5962
2026-01-23 02:47:49.40	170.15	4.32	-43.0	-44.4	17.0	0.00e+00	0	40	0	85983232	58	6732
2026-01-23 02:47:50.41	170.17	4.39	-43.3	-44.7	16.6	0.00e+00	0	40	0	91226112	58	6937
2026-01-23 02:47:51.42	170.20	4.46	-43.4	-44.8	16.6	0.00e+00	0	40	0	97517568	58	7070
2026-01-23 02:47:52.43	170.22	4.53	-42.9	-44.3	17.7	0.00e+00	0	40	0	102760448	58	6639
2026-01-23 02:47:53.43	170.25	4.60	-43.2	-44.5	17.4	0.00e+00	0	40	0	108003328	58	6833
2026-01-23 02:47:54.45	170.27	4.67	-42.4	-43.7	16.8	0.00e+00	0	40	0	114294784	58	6192
2026-01-23 02:47:55.46	170.30	4.74	-42.6	-43.8	17.6	0.00e+00	0	40	0	119537664	58	6298
2026-01-23 02:47:56.47	170.32	4.82	-42.4	-43.6	18.0	0.00e+00	0	40	0	125829120	56	6876
2026-01-23 02:47:57.48	170.35	4.89	-42.3	-43.5	17.5	0.00e+00	0	40	0	131072000	56	6844
2026-01-23 02:47:58.48	170.37	4.96	-42.3	-43.5	18.2	0.00e+00	0	40	0	136314880	56	6795
2026-01-23 02:47:59.50	170.40	5.03	-41.7	-42.8	18.3	0.00e+00	0	40	0	142606336	56	6307
2026-01-23 02:48:00.51	170.42	5.10	-41.2	-42.3	19.2	0.00e+00	0	40	0	147849216	56	5919
2026-01-23 02:48:01.52	170.45	5.17	-40.8	-41.9	19.2	0.00e+00	0	41	0	154140672	56	5631
2026-01-23 02:48:02.53	170.47	5.24	-40.2	-41.1	20.4	0.00e+00	0	40	0	159383552	54	5787
2026-01-23 02:48:03.54	170.50	5.32	-39.7	-40.6	20.4	0.00e+00	0	40	0	165675008	52	6162
2026-01-23 02:48:04.55	170.53	5.39	-39.7	-40.6	20.8	0.00e+00	0	41	0	170917888	52	6128
2026-01-23 02:48:05.56	170.55	5.46	-39.5	-40.4	20.9	0.00e+00	0	40	0	177209344	52	5985
2026-01-23 02:48:06.57	170.58	5.53	-39.7	-40.7	20.8	0.00e+00	0	40	0	182452224	52	6192
2026-01-23 02:48:07.58	170.60	5.61	-39.3	-40.2	20.6	0.00e+00	0	40	0	187695104	52	5860
2026-01-23 02:48:08.59	170.63	5.68	-39.4	-40.3	20.8	0.00e+00	0	40	0	193986560	52	5925
2026-01-23 02:48:09.60	170.66	5.75	-39.7	-40.6	21.0	0.00e+00	0	40	0	199229440	52	6131
2026-01-23 02:48:10.61	170.68	5.83	-39.0	-39.9	21.7	0.00e+00	0	40	0	205520896	52	5633
2026-01-23 02:48:11.62	170.71	5.90	-38.5	-39.2	22.1	0.00e+00	0	40	0	210763776	50	5895
2026-01-23 02:48:12.62	170.74	5.98	-38.5	-39.3	22.1	0.00e+00	0	40	0	216006656	50	5913
2026-01-23 02:48:13.63	170.76	6.05	-38.9	-39.8	21.4	0.00e+00	0	41	0	222298112	50	6247
2026-01-23 02:48:14.64	170.79	6.12	-38.3	-39.0	22.4	0.00e+00	0	41	0	227540992	50	5733
2026-01-23 02:48:15.65	170.82	6.20	-38.5	-39.3	21.9	0.00e+00	0	40	0	232783872	50	5961
2026-01-23 02:48:16.66	170.84	6.27	-38.8	-39.7	21.8	0.00e+00	0	40	0	239075328	50	6194
2026-01-23 02:48:17.67	170.87	6.35	-38.4	-39.2	22.0	0.00e+00	0	41	0	244318208	50	5852
2026-01-23 02:48:18.68	170.90	6.42	-38.8	-39.7	22.1	0.00e+00	0	40	0	250609664	50	6180
2026-01-23 02:48:19.69	170.93	6.50	-38.5	-39.3	22.2	0.00e+00	0	40	0	255852544	50	5945
2026-01-23 02:48:20.70	170.95	6.58	-37.8	-38.6	22.4	0.00e+00	0	40	0	262144000	50	5458
2026-01-23 02:48:21.71	170.98	6.65	-38.2	-39.0	22.8	0.00e+00	0	40	0	267386880	50	5722
2026-01-23 02:48:22.72	171.01	6.73	-38.2	-39.0	22.2	0.00e+00	0	40	0	273678336	50	5754
2026-01-23 02:48:23.73	171.04	6.80	-37.9	-38.7	22.7	0.00e+00	0	41	0	278921216	50	5507
2026-01-23 02:48:24.74	171.07	6.88	-37.7	-38.5	22.8	0.00e+00	0	40	0	284164096	50	5409
2026-01-23 02:48:25.75	171.10	6.96	-37.8	-38.6	23.0	0.00e+00	0	41	0	290455552	48	6133
2026-01-23 02:48:26.76	171.12	7.03	-37.5	-38.3	23.0	0.00e+00	0	41	0	295698432	48	5911
2026-01-23 02:48:27.76	171.15	7.11	-37.3	-38.0	23.2	0.00e+00	0	41	0	301989888	48	5761
2026-01-23 02:48:28.77	171.18	7.19	-37.5	-38.2	23.1	0.00e+00	0	41	0	307232768	48	5865
2026-01-23 02:48:29.78	171.21	7.27	-37.7	-38.5	22.8	0.00e+00	0	41	0	312475648	48	6034
2026-01-23 02:48:30.80	171.24	7.34	-37.3	-38.1	23.2	0.00e+00	0	40	0	318767104	48	5766
2026-01-23 02:48:31.80	171.27	7.42	-37.3	-38.0	23.3	0.00e+00	0	40	0	324009984	48	5725
2026-01-23 02:48:32.82	171.30	7.50	-37.2	-37.9	23.4	0.00e+00	0	40	0	330301440	48	5673
2026-01-23 02:48:33.83	171.33	7.58	-37.1	-37.8	23.5	0.00e+00	0	40	0	335544320	48	5607
2026-01-23 02:48:34.84	171.36	7.66	-37.5	-38.2	23.2	0.00e+00	0	41	0	340787200	48	5876
2026-01-23 02:48:35.85	171.39	7.74	-36.9	-37.6	23.7	0.00e+00	0	41	0	347078656	48	5462
2026-01-23 02:48:36.86	171.42	7.82	-37.1	-37.8	23.6	0.00e+00	0	41	0	352321536	46	6285
2026-01-23 02:48:37.87	171.45	7.90	-36.9	-37.6	23.7	0.00e+00	0	40	0	358612992	46	6137
2026-01-23 02:48:38.88	171.48	7.98	-36.7	-37.4	23.8	0.00e+00	0	41	0	363855872	46	5978
2026-01-23 02:48:39.89	171.51	8.06	-36.7	-37.4	23.8	0.00e+00	0	41	0	370147328	46	5987
2026-01-23 02:48:40.90	171.54	8.14	-36.6	-37.4	23.8	0.00e+00	0	41	0	375390208	46	5970
2026-01-23 02:48:41.91	171.57	8.22	-36.6	-37.3	24.0	0.00e+00	0	41	0	381681664	46	5944
2026-01-23 02:48:42.92	171.60	8.30	-36.8	-37.5	23.8	0.00e+00	0	41	0	386924544	46	6035
2026-01-23 02:48:43.93	171.63	8.38	-36.6	-37.3	24.0	0.00e+00	0	41	0	392167424	46	5950
2026-01-23 02:48:44.94	171.66	8.46	-36.6	-37.3	24.0	0.00e+00	0	41	0	398458880	46	5943
2026-01-23 02:48:45.95	171.69	8.54	-36.8	-37.5	23.8	0.00e+00	0	40	0	403701760	46	6059
2026-01-23 02:48:46.96	171.72	8.63	-36.8	-37.5	23.8	0.00e+00	0	40	0	409993216	46	6078
2026-01-23 02:48:47.97	171.76	8.71	-36.6	-37.3	23.9	0.00e+00	0	40	0	415236096	46	5942
2026-01-23 02:48:48.98	171.79	8.79	-36.4	-37.1	24.1	0.00e+00	0	41	0	420478976	46	5812
2026-01-23 02:48:49.99	171.82	8.87	-36.5	-37.3	24.0	0.00e+00	0	41	0	426770432	46	5906
2026-01-23 02:48:51.00	171.85	8.96	-36.4	-37.1	24.2	0.00e+00	0	41	0	432013312	46	5791
2026-01-23 02:48:52.01	171.88	9.04	-36.5	-37.2	24.1	0.00e+00	0	41	0	438304768	46	5852
2026-01-23 02:48:53.02	171.92	9.12	-36.6	-37.3	24.0	0.00e+00	0	40	0	443547648	46	5925
2026-01-23 02:48:54.03	171.95	9.21	-36.3	-37.0	24.3	0.00e+00	0	41	0	448790528	46	5737
2026-01-23 02:48:55.04	171.98	9.29	-36.3	-37.0	24.3	0.00e+00	0	40	0	455081984	46	5712
2026-01-23 02:48:56.05	172.02	9.38	-36.4	-37.1	24.1	0.00e+00	0	41	0	460324864	46	5815
2026-01-23 02:48:57.06	172.05	9.46	-36.5	-37.2	24.1	0.00e+00	0	41	0	466616320	46	5896
2026-01-23 02:48:58.07	172.08	9.54	-36.1	-36.8	24.4	0.00e+00	0	41	0	471859200	46	5616
2026-01-23 02:48:59.08	172.12	9.63	-36.0	-36.7	24.6	0.00e+00	0	41	0	478150656	46	5550
2026-01-23 02:49:00.09	172.15	9.72	-36.0	-36.7	24.5	0.00e+00	0	41	0	483393536	46	5534
2026-01-23 02:49:01.10	172.18	9.80	-36.3	-37.0	24.2	0.00e+00	0	41	0	488636416	46	5745
2026-01-23 02:49:02.11	172.22	9.89	-36.5	-37.2	24.1	0.00e+00	0	41	0	494927872	46	5854
2026-01-23 02:49:03.12	172.25	9.97	-36.4	-37.1	24.2	0.00e+00	0	41	0	500170752	46	5775
2026-01-23 02:49:04.13	172.29	10.06	-36.6	-37.3	24.1	0.00e+00	0	41	0	506462208	46	5953
2026-01-23 02:49:05.14	172.32	10.15	-36.1	-36.8	24.4	0.00e+00	0	41	0	511705088	46	5571
2026-01-23 02:49:06.15	172.35	10.23	-36.1	-36.8	24.6	0.00e+00	0	41	0	516947968	46	5594
2026-01-23 02:49:07.16	172.39	10.32	-36.1	-36.8	24.6	0.00e+00	0	41	0	523239424	46	5575
2026-01-23 02:49:08.17	172.42	10.41	-36.1	-36.8	24.5	0.00e+00	0	41	0	528482304	46	5615
2026-01-23 02:49:09.18	172.46	10.50	-36.1	-36.8	24.6	0.00e+00	0	40	0	534773760	46	5594
2026-01-23 02:49:10.19	172.50	10.59	-35.9	-36.6	24.7	0.00e+00	0	41	0	540016640	46	5443
2026-01-23 02:49:11.20	172.53	10.68	-36.1	-36.8	24.5	0.00e+00	0	41	0	545259520	46	5586
2026-01-23 02:49:12.21	172.57	10.77	-36.2	-36.8	24.6	0.00e+00	0	41	0	551550976	46	5623
2026-01-23 02:49:13.22	172.60	10.85	-36.2	-36.9	24.5	0.00e+00	0	41	0	556793856	46	5678
2026-01-23 02:49:14.22	172.64	10.94	-36.1	-36.9	24.5	0.00e+00	0	41	0	563085312	46	5633
2026-01-23 02:49:15.23	172.68	11.03	-36.0	-36.7	24.6	0.00e+00	0	41	0	568328192	46	5538
2026-01-23 02:49:16.24	172.71	11.12	-36.0	-36.7	24.6	0.00e+00	0	41	0	574619648	46	5527
2026-01-23 02:49:17.25	172.75	11.21	-36.0	-36.7	24.6	0.00e+00	0	41	0	579862528	46	5528
2026-01-23 02:49:18.26	172.79	11.31	-35.9	-36.6	24.7	0.00e+00	0	41	0	586153984	46	5472
2026-01-23 02:49:19.27	172.82	11.40	-36.0	-36.7	24.7	0.00e+00	0	41	0	591396864	46	5561
2026-01-23 02:49:20.28	172.86	11.49	-35.9	-36.6	24.8	0.00e+00	0	41	0	596639744	46	5455
2026-01-23 02:49:21.29	172.90	11.58	-36.1	-36.8	24.6	0.00e+00	0	41	0	602931200	46	5568
2026-01-23 02:49:22.30	172.94	11.67	-35.9	-36.6	24.7	0.00e+00	0	41	0	608174080	46	5467
2026-01-23 02:49:23.31	172.97	11.77	-35.8	-36.5	24.8	0.00e+00	0	41	0	614465536	46	5436
2026-01-23 02:49:24.32	173.01	11.86	-35.9	-36.6	24.7	0.00e+00	0	41	0	619708416	46	5473
2026-01-23 02:49:25.33	173.05	11.95	-35.9	-36.5	24.8	0.00e+00	0	41	0	624951296	46	5431
2026-01-23 02:49:26.34	173.09	12.05	-35.8	-36.5	24.8	0.00e+00	0	41	0	631242752	44	6076
2026-01-23 02:49:27.34	173.13	12.14	-35.7	-36.4	24.9	0.00e+00	0	41	0	636485632	44	6007
2026-01-23 02:49:28.35	173.17	12.23	-35.9	-36.6	24.8	0.00e+00	0	41	0	641728512	44	6128
2026-01-23 02:49:29.36	173.21	12.33	-35.8	-36.5	24.9	0.00e+00	0	41	0	648019968	44	6070
2026-01-23 02:49:30.37	173.25	12.42	-35.9	-36.5	24.8	0.00e+00	0	41	0	653262848	44	6088
2026-01-23 02:49:31.38	173.29	12.52	-35.9	-36.6	24.9	0.00e+00	0	41	0	659554304	44	6127
2026-01-23 02:49:32.39	173.33	12.62	-35.9	-36.5	24.8	0.00e+00	0	41	0	664797184	44	6102
2026-01-23 02:49:33.40	173.37	12.71	-35.9	-36.6	24.8	0.00e+00	0	41	0	671088640	44	6106
2026-01-23 02:49:34.41	173.41	12.81	-35.8	-36.4	24.9	0.00e+00	0	41	0	676331520	44	6018
2026-01-23 02:49:35.42	173.45	12.91	-35.8	-36.5	24.8	0.00e+00	0	41	0	682622976	44	6059
2026-01-23 02:49:36.43	173.49	13.00	-36.0	-36.7	24.6	0.00e+00	0	41	0	687865856	44	6176
2026-01-23 02:49:37.44	173.53	13.10	-36.1	-36.8	24.6	0.00e+00	0	41	0	693108736	44	6268
2026-01-23 02:49:38.45	173.57	13.20	-36.1	-36.8	24.6	0.00e+00	0	41	0	699400192	44	6310
2026-01-23 02:49:39.46	173.62	13.30	-35.8	-36.5	25.0	0.00e+00	0	41	0	704643072	44	6034
2026-01-23 02:49:40.46	173.66	13.40	-35.9	-36.5	24.8	0.00e+00	0	41	0	710934528	44	6103
2026-01-23 02:49:41.47	173.70	13.50	-36.0	-36.7	24.8	0.00e+00	0	41	0	716177408	44	6188
2026-01-23 02:49:42.48	173.74	13.60	-36.0	-36.7	24.8	0.00e+00	0	41	0	721420288	44	6207
2026-01-23 02:49:43.49	173.79	13.70	-35.6	-36.3	25.1	0.00e+00	0	41	0	727711744	44	5903
2026-01-23 02:49:44.50	173.83	13.80	-35.4	-36.1	25.3	0.00e+00	0	41	0	732954624	44	5784
2026-01-23 02:49:45.51	173.87	13.90	-35.4	-36.1	25.2	0.00e+00	0	41	0	739246080	44	5776
2026-01-23 02:49:46.52	173.92	14.00	-35.3	-36.0	25.4	0.00e+00	0	41	0	744488960	44	5740
2026-01-23 02:49:47.53	173.96	14.10	-35.3	-36.0	25.3	0.00e+00	0	41	0	749731840	44	5705
2026-01-23 02:49:48.54	174.00	14.20	-35.2	-35.8	25.4	0.00e+00	0	41	0	756023296	44	5624
2026-01-23 02:49:49.55	174.05	14.30	-35.3	-36.0	25.4	0.00e+00	0	41	0	761266176	44	5705
2026-01-23 02:49:50.56	174.09	14.41	-35.1	-35.8	25.5	0.00e+00	0	41	0	767557632	44	5583
2026-01-23 02:49:51.56	174.14	14.51	-35.1	-35.7	25.6	0.00e+00	0	41	0	772800512	44	5551
2026-01-23 02:49:52.57	174.18	14.61	-35.1	-35.8	25.5	0.00e+00	0	41	0	779091968	44	5592
2026-01-23 02:49:53.59	174.23	14.72	-34.9	-35.6	25.7	0.00e+00	0	41	0	784334848	44	5464
2026-01-23 02:49:54.60	174.28	14.82	-34.9	-35.6	25.7	0.00e+00	0	41	0	789577728	44	5486
2026-01-23 02:49:55.61	174.32	14.93	-34.9	-35.6	25.7	0.00e+00	0	41	0	795869184	44	5476
2026-01-23 02:49:56.62	174.37	15.04	-34.7	-35.4	25.9	0.00e+00	0	41	0	801112064	44	5336
2026-01-23 02:49:57.63	174.42	15.14	-34.7	-35.4	25.9	0.00e+00	0	41	0	807403520	42	5977
2026-01-23 02:49:58.64	174.46	15.25	-34.7	-35.4	25.9	0.00e+00	0	41	0	812646400	42	5999
2026-01-23 02:49:59.65	174.51	15.35	-34.6	-35.2	26.1	0.00e+00	0	41	0	817889280	42	5878
2026-01-23 02:50:00.66	174.56	15.46	-34.5	-35.2	26.1	0.00e+00	0	41	0	824180736	42	5871
2026-01-23 02:50:01.67	174.61	15.57	-34.6	-35.3	26.1	0.00e+00	0	41	0	829423616	42	5899
2026-01-23 02:50:02.68	174.66	15.68	-34.4	-35.1	26.2	0.00e+00	0	41	0	835715072	42	5789
2026-01-23 02:50:03.69	174.71	15.79	-34.4	-35.1	26.2	0.00e+00	0	41	0	840957952	42	5786
2026-01-23 02:50:04.69	174.75	15.90	-34.3	-35.0	26.3	0.00e+00	0	41	0	846200832	42	5697
2026-01-23 02:50:05.70	174.80	16.01	-34.2	-34.9	26.4	0.00e+00	0	41	0	852492288	42	5652
2026-01-23 02:50:06.71	174.85	16.12	-34.1	-34.8	26.5	0.00e+00	0	41	0	857735168	42	5589
2026-01-23 02:50:07.72	174.90	16.23	-34.1	-34.7	26.5	0.00e+00	0	41	0	864026624	42	5544
2026-01-23 02:50:08.73	174.95	16.34	-34.1	-34.8	26.5	0.00e+00	0	41	0	869269504	42	5576
2026-01-23 02:50:09.74	175.01	16.45	-34.0	-34.6	26.6	0.00e+00	0	41	0	875560960	42	5461
2026-01-23 02:50:10.75	175.06	16.56	-34.1	-34.8	26.5	0.00e+00	0	41	0	880803840	42	5580
2026-01-23 02:50:11.76	175.11	16.67	-34.0	-34.6	26.6	0.00e+00	0	41	0	887095296	42	5473
2026-01-23 02:50:12.77	175.16	16.79	-34.0	-34.6	26.6	0.00e+00	0	41	0	892338176	42	5479
2026-01-23 02:50:13.78	175.21	16.90	-34.0	-34.6	26.7	0.00e+00	0	41	0	897581056	42	5482
2026-01-23 02:50:14.79	175.27	17.02	-34.1	-34.7	26.6	0.00e+00	0	41	0	903872512	42	5552
2026-01-23 02:50:15.80	175.32	17.13	-34.0	-34.6	26.6	0.00e+00	0	41	0	909115392	42	5452
2026-01-23 02:50:16.81	175.37	17.25	-34.0	-34.6	26.6	0.00e+00	0	41	0	915406848	42	5453
2026-01-23 02:50:17.82	175.43	17.36	-33.9	-34.5	26.7	0.00e+00	0	41	0	920649728	42	5428
2026-01-23 02:50:18.83	175.48	17.48	-33.9	-34.6	26.7	0.00e+00	0	41	0	925892608	42	5444
2026-01-23 02:50:19.84	175.54	17.59	-33.8	-34.4	26.8	0.00e+00	0	41	0	932184064	42	5365
2026-01-23 02:50:20.84	175.59	17.71	-33.7	-34.3	26.9	0.00e+00	0	41	0	937426944	40	5952
2026-01-23 02:50:21.85	175.65	17.83	-33.8	-34.4	26.8	0.00e+00	0	41	0	942669824	40	6023
2026-01-23 02:50:22.86	175.70	17.95	-33.9	-34.6	26.7	0.00e+00	0	41	0	948961280	40	6115
2026-01-23 02:50:23.87	175.76	18.07	-33.7	-34.4	26.9	0.00e+00	0	41	0	954204160	40	5968
2026-01-23 02:50:24.88	175.81	18.19	-33.8	-34.4	26.8	0.00e+00	0	41	0	960495616	40	5989
2026-01-23 02:50:25.89	175.87	18.31	-33.9	-34.5	26.7	0.00e+00	0	41	0	965738496	40	6051
2026-01-23 02:50:26.90	175.93	18.43	-33.8	-34.5	26.8	0.00e+00	0	41	0	972029952	40	6044
2026-01-23 02:50:27.91	175.99	18.55	-33.7	-34.4	26.8	0.00e+00	0	41	0	977272832	40	5976
2026-01-23 02:50:28.92	176.05	18.67	-34.1	-34.7	26.6	0.00e+00	0	41	0	983564288	40	6196
2026-01-23 02:50:29.92	176.10	18.79	-34.2	-34.9	26.4	0.00e+00	0	41	0	988807168	40	6333
2026-01-23 02:50:30.94	176.16	18.92	-33.9	-34.5	26.8	0.00e+00	0	41	0	994050048	40	6076
2026-01-23 02:50:31.94	176.22	19.04	-33.8	-34.5	26.8	0.00e+00	0	41	0	1000341504	40	6069
2026-01-23 02:50:32.96	176.28	19.16	-33.9	-34.5	26.7	0.00e+00	0	41	0	1005584384	40	6077
2026-01-23 02:50:33.96	176.34	19.29	-33.9	-34.6	26.7	0.00e+00	0	41	0	1011875840	40	6128
2026-01-23 02:50:34.97	176.40	19.41	-34.0	-34.6	26.6	0.00e+00	0	41	0	1017118720	40	6161
2026-01-23 02:50:35.99	176.47	19.54	-33.7	-34.3	26.9	0.00e+00	0	41	0	1022361600	40	5914
2026-01-23 02:50:37.00	176.53	19.67	-33.6	-34.3	26.9	0.00e+00	0	41	0	1028653056	40	5935
2026-01-23 02:50:38.01	176.59	19.79	-33.6	-34.2	27.0	0.00e+00	0	41	0	1033895936	40	5852
2026-01-23 02:50:39.02	176.65	19.92	-33.7	-34.3	26.9	0.00e+00	0	41	0	1040187392	40	5928
2026-01-23 02:50:40.02	176.72	20.05	-33.6	-34.2	27.0	0.00e+00	0	41	0	1045430272	40	5878
2026-01-23 02:50:41.03	176.78	20.18	-33.5	-34.1	27.0	0.00e+00	0	41	0	1050673152	40	5797
2026-01-23 02:50:42.04	176.85	20.31	-33.5	-34.1	27.1	0.00e+00	0	41	0	1056964608	40	5810
2026-01-23 02:50:43.05	176.91	20.44	-33.4	-34.1	27.1	0.00e+00	0	41	0	1062207488	40	5763
2026-01-23 02:50:44.06	176.98	20.57	-33.4	-34.1	27.0	0.00e+00	0	41	0	1068498944	40	5798
2026-01-23 02:50:45.07	177.04	20.70	-33.4	-34.0	27.2	0.00e+00	0	41	0	1073741824	40	5736
2026-01-23 02:50:46.08	177.11	20.83	-33.6	-34.2	27.0	0.00e+00	0	41	0	1080033280	40	5871
2026-01-23 02:50:47.09	177.18	20.97	-33.3	-34.0	27.2	0.00e+00	0	41	0	1085276160	40	5715
2026-01-23 02:50:48.10	177.24	21.10	-33.4	-34.0	27.2	0.00e+00	0	41	0	1090519040	40	5723
2026-01-23 02:50:49.11	177.31	21.23	-33.4	-34.0	27.2	0.00e+00	0	41	0	1096810496	40	5736
2026-01-23 02:50:50.12	177.38	21.37	-33.4	-34.1	27.2	0.00e+00	0	41	0	1102053376	40	5766
2026-01-23 02:50:51.13	177.45	21.50	-33.2	-33.8	27.3	0.00e+00	0	41	0	1108344832	40	5596
2026-01-23 02:50:52.14	177.52	21.64	-33.2	-33.8	27.3	0.00e+00	0	41	0	1113587712	40	5615
2026-01-23 02:50:53.15	177.59	21.78	-33.3	-34.0	27.2	0.00e+00	0	41	0	1118830592	40	5704
2026-01-23 02:50:54.16	177.66	21.92	-33.2	-33.8	27.3	0.00e+00	0	41	0	1125122048	40	5620
2026-01-23 02:50:55.17	177.74	22.05	-33.1	-33.7	27.4	0.00e+00	0	41	0	1130364928	40	5557
2026-01-23 02:50:56.18	177.81	22.19	-33.2	-33.8	27.3	0.00e+00	0	41	0	1136656384	40	5576
2026-01-23 02:50:57.19	177.88	22.33	-33.2	-33.8	27.4	0.00e+00	0	41	0	1141899264	40	5577
2026-01-23 02:50:58.20	177.95	22.47	-33.3	-33.9	27.2	0.00e+00	0	41	0	1147142144	40	5662
2026-01-23 02:50:59.21	178.03	22.62	-33.1	-33.6	27.4	0.00e+00	0	41	0	1153433600	40	5495
2026-01-23 02:51:00.22	178.10	22.76	-33.0	-33.6	27.5	0.00e+00	0	41	0	1158676480	40	5476
2026-01-23 02:51:01.23	178.18	22.90	-33.0	-33.6	27.4	0.00e+00	0	41	0	1164967936	40	5465
2026-01-23 02:51:02.24	178.26	23.05	-32.9	-33.5	27.6	0.00e+00	0	41	0	1170210816	40	5429
2026-01-23 02:51:03.25	178.33	23.19	-32.8	-33.4	27.6	0.00e+00	0	41	0	1176502272	38	6002
2026-01-23 02:51:04.26	178.41	23.33	-32.8	-33.4	27.7	0.00e+00	0	41	0	1181745152	38	6023
2026-01-23 02:51:05.27	178.49	23.48	-32.9	-33.5	27.6	0.00e+00	0	41	0	1188036608	38	6060
2026-01-23 02:51:06.28	178.57	23.63	-32.9	-33.6	27.6	0.00e+00	0	41	0	1193279488	38	6105
2026-01-23 02:51:07.29	178.65	23.78	-32.9	-33.5	27.6	0.00e+00	0	41	0	1198522368	38	6086
2026-01-23 02:51:08.30	178.73	23.92	-32.8	-33.4	27.7	0.00e+00	0	41	0	1204813824	38	5992
2026-01-23 02:51:09.31	178.81	24.07	-32.7	-33.3	27.7	0.00e+00	0	41	0	1210056704	38	5955
2026-01-23 02:51:10.32	178.89	24.22	-32.9	-33.5	27.7	0.00e+00	0	41	0	1216348160	38	6066
2026-01-23 02:51:11.33	178.97	24.37	-32.8	-33.4	27.6	0.00e+00	0	41	0	1221591040	38	6012
2026-01-23 02:51:12.33	179.06	24.52	-32.7	-33.3	27.7	0.00e+00	0	41	0	1226833920	38	5915
2026-01-23 02:51:13.34	179.14	24.68	-32.7	-33.3	27.8	0.00e+00	0	41	0	1233125376	38	5907
2026-01-23 02:51:14.36	179.23	24.83	-32.6	-33.2	27.8	0.00e+00	0	41	0	1238368256	38	5885
2026-01-23 02:51:15.37	179.31	24.98	-32.5	-33.1	28.0	0.00e+00	0	41	0	1244659712	38	5775
2026-01-23 02:51:16.38	179.40	25.14	-32.5	-33.2	27.8	0.00e+00	0	41	0	1249902592	38	5832
2026-01-23 02:51:17.38	179.48	25.29	-32.4	-33.0	28.0	0.00e+00	0	41	0	1255145472	38	5742
2026-01-23 02:51:18.39	179.57	25.45	-32.5	-33.1	28.0	0.00e+00	0	41	0	1261436928	38	5793
2026-01-23 02:51:19.40	179.66	25.61	-32.4	-32.9	28.0	0.00e+00	0	41	0	1266679808	38	5695
2026-01-23 02:51:20.41	179.75	25.77	-32.3	-32.9	28.0	0.00e+00	0	41	0	1272971264	38	5654
2026-01-23 02:51:21.42	179.84	25.93	-32.4	-33.0	27.9	0.00e+00	0	41	0	1278214144	38	5721
2026-01-23 02:51:22.43	179.93	26.09	-32.4	-33.0	27.9	0.00e+00	0	41	0	1284505600	38	5757
2026-01-23 02:51:23.44	180.03	26.25	-32.3	-32.9	28.1	0.00e+00	0	41	0	1289748480	38	5670
2026-01-23 02:51:24.45	180.12	26.41	-32.4	-33.0	28.0	0.00e+00	0	41	0	1294991360	38	5747
2026-01-23 02:51:25.46	180.21	26.57	-32.4	-33.0	28.0	0.00e+00	0	41	0	1301282816	38	5752
2026-01-23 02:51:26.47	180.31	26.73	-32.4	-33.0	28.0	0.00e+00	0	41	0	1306525696	38	5755
2026-01-23 02:51:27.48	180.41	26.90	-32.5	-33.1	27.9	0.00e+00	0	41	0	1312817152	38	5807
2026-01-23 02:51:28.49	180.50	27.06	-32.4	-33.0	28.0	0.00e+00	0	41	0	1318060032	38	5751
2026-01-23 02:51:29.49	180.60	27.23	-32.4	-33.0	28.0	0.00e+00	0	41	0	1323302912	38	5738
2026-01-23 02:51:30.50	180.70	27.40	-32.5	-33.1	27.9	0.00e+00	0	41	0	1329594368	38	5811
2026-01-23 02:51:31.51	180.80	27.56	-32.3	-32.9	28.1	0.00e+00	0	41	0	1334837248	38	5672
2026-01-23 02:51:32.52	180.90	27.73	-32.4	-33.0	28.1	0.00e+00	0	41	0	1341128704	38	5698
2026-01-23 02:51:33.53	181.00	27.90	-32.1	-32.7	28.2	0.00e+00	0	41	0	1346371584	38	5526
2026-01-23 02:51:34.54	181.11	28.08	-32.3	-32.9	28.1	0.00e+00	0	41	0	1351614464	38	5671
2026-01-23 02:51:35.55	181.21	28.25	-32.1	-32.6	28.2	0.00e+00	0	41	0	1357905920	38	5495
2026-01-23 02:51:36.56	181.32	28.42	-32.2	-32.8	28.2	0.00e+00	0	41	0	1363148800	38	5603
2026-01-23 02:51:37.57	181.42	28.59	-32.2	-32.8	28.1	0.00e+00	0	41	0	1369440256	38	5603
2026-01-23 02:51:38.58	181.53	28.77	-32.4	-33.0	28.0	0.00e+00	0	41	0	1374683136	38	5707
2026-01-23 02:51:39.59	181.64	28.95	-32.2	-32.8	28.1	0.00e+00	0	41	0	1380974592	38	5595
2026-01-23 02:51:40.60	181.75	29.12	-32.4	-33.0	28.0	0.00e+00	0	41	0	1386217472	38	5720
2026-01-23 02:51:41.61	181.86	29.30	-32.3	-33.0	28.0	0.00e+00	0	41	0	1392508928	38	5699
2026-01-23 02:51:42.61	181.97	29.48	-32.4	-33.0	27.9	0.00e+00	0	41	0	1397751808	38	5740
2026-01-23 02:51:43.62	182.08	29.66	-32.4	-33.1	27.9	0.00e+00	0	41	0	1402994688	38	5763
2026-01-23 02:51:44.64	182.20	29.84	-32.6	-33.2	27.9	0.00e+00	0	41	0	1409286144	38	5881
2026-01-23 02:51:45.64	182.31	30.02	-32.5	-33.1	28.0	0.00e+00	0	41	0	1414529024	38	5775
2026-01-23 02:51:46.66	182.43	30.21	-32.5	-33.1	27.9	0.00e+00	0	41	0	1420820480	38	5794
2026-01-23 02:51:47.66	182.55	30.39	-32.3	-32.9	28.1	0.00e+00	0	41	0	1426063360	38	5649
2026-01-23 02:51:48.67	182.67	30.57	-32.2	-32.8	28.1	0.00e+00	0	41	0	1431306240	38	5622
2026-01-23 02:51:49.68	182.79	30.76	-32.1	-32.6	28.3	0.00e+00	0	41	0	1437597696	38	5489
2026-01-23 02:51:50.69	182.91	30.95	-32.0	-32.6	28.4	0.00e+00	0	41	0	1442840576	38	5447
2026-01-23 02:51:51.70	183.04	31.14	-32.0	-32.7	28.3	0.00e+00	0	41	0	1448083456	38	5516
2026-01-23 02:51:52.71	183.16	31.33	-32.1	-32.7	28.3	0.00e+00	0	41	0	1454374912	38	5540
2026-01-23 02:51:53.72	183.29	31.52	-32.2	-32.8	28.2	0.00e+00	0	41	0	1459617792	38	5620
2026-01-23 02:51:54.73	183.42	31.71	-32.3	-32.9	28.1	0.00e+00	0	41	0	1465909248	38	5648
2026-01-23 02:51:55.74	183.55	31.90	-32.4	-33.0	28.0	0.00e+00	0	41	0	1471152128	38	5759
2026-01-23 02:51:56.75	183.68	32.10	-32.4	-33.0	28.2	0.00e+00	0	41	0	1477443584	38	5746
2026-01-23 02:51:57.76	183.81	32.29	-32.3	-32.9	28.1	0.00e+00	0	41	0	1482686464	38	5649
2026-01-23 02:51:58.76	183.94	32.49	-32.4	-32.9	28.1	0.00e+00	0	41	0	1488977920	38	5670
2026-01-23 02:51:59.77	184.08	32.68	-32.0	-32.6	28.4	0.00e+00	0	41	0	1494220800	38	5474
2026-01-23 02:52:00.78	184.22	32.88	-32.1	-32.7	28.3	0.00e+00	0	41	0	1499463680	38	5521
2026-01-23 02:52:01.79	184.36	33.08	-31.9	-32.5	28.4	0.00e+00	0	41	0	1505755136	38	5404
2026-01-23 02:52:02.80	184.50	33.28	-32.0	-32.6	28.3	0.00e+00	0	41	0	1510998016	38	5443
2026-01-23 02:52:03.81	184.64	33.48	-31.9	-32.5	28.4	0.00e+00	0	41	0	1517289472	38	5414
2026-01-23 02:52:04.82	184.78	33.69	-32.0	-32.6	28.4	0.00e+00	0	41	0	1522532352	38	5483
2026-01-23 02:52:05.83	184.93	33.89	-31.8	-32.3	28.5	0.00e+00	0	41	0	1527775232	38	5307
2026-01-23 02:52:06.84	185.08	34.10	-31.9	-32.5	28.5	0.00e+00	0	41	0	1534066688	38	5390
2026-01-23 02:52:07.85	185.23	34.30	-32.0	-32.6	28.4	0.00e+00	0	41	0	1539309568	38	5470
2026-01-23 02:52:08.86	185.38	34.51	-32.2	-32.8	28.2	0.00e+00	0	41	0	1545601024	38	5569
2026-01-23 02:52:09.87	185.53	34.72	-32.3	-32.9	28.2	0.00e+00	0	41	0	1550843904	38	5640
2026-01-23 02:52:10.88	185.69	34.93	-32.3	-32.9	28.1	0.00e+00	0	41	0	1556086784	38	5673
2026-01-23 02:52:11.89	185.84	35.14	-32.2	-32.8	28.1	0.00e+00	0	41	0	1562378240	38	5628
2026-01-23 02:52:12.90	186.00	35.35	-32.1	-32.7	28.3	0.00e+00	0	41	0	1567621120	38	5523
2026-01-23 02:52:13.91	186.17	35.57	-32.2	-32.8	28.2	0.00e+00	0	41	0	1573912576	38	5573
2026-01-23 02:52:14.92	186.33	35.78	-31.8	-32.4	28.3	0.00e+00	0	41	0	1579155456	38	5367
2026-01-23 02:52:15.93	186.49	36.00	-31.6	-32.2	28.6	0.00e+00	0	41	0	1585446912	36	5856
2026-01-23 02:52:16.94	186.66	36.22	-31.8	-32.4	28.5	0.00e+00	0	41	0	1590689792	36	5978
2026-01-23 02:52:17.95	186.83	36.43	-31.7	-32.3	28.5	0.00e+00	0	41	0	1595932672	36	5940
2026-01-23 02:52:18.95	187.00	36.65	-31.6	-32.2	28.6	0.00e+00	0	41	0	1602224128	36	5885
2026-01-23 02:52:19.96	187.18	36.87	-31.6	-32.2	28.6	0.00e+00	0	41	0	1607467008	36	5885
2026-01-23 02:52:20.97	187.35	37.10	-31.5	-32.2	28.7	0.00e+00	0	41	0	1613758464	36	5832
2026-01-23 02:52:21.98	187.53	37.32	-31.5	-32.1	28.7	0.00e+00	0	41	0	1619001344	36	5812
2026-01-23 02:52:23.00	187.71	37.55	-31.7	-32.3	28.5	0.00e+00	0	41	0	1624244224	36	5932
2026-01-23 02:52:24.00	187.90	37.77	-31.8	-32.4	28.5	0.00e+00	0	41	0	1630535680	36	5992
2026-01-23 02:52:25.01	188.08	38.00	-32.0	-32.6	28.3	0.00e+00	0	41	0	1635778560	36	6119
2026-01-23 02:52:26.02	188.27	38.22	-32.2	-32.8	28.2	0.00e+00	0	41	0	1642070016	36	6269
2026-01-23 02:52:27.04	188.47	38.46	-32.2	-32.8	28.2	0.00e+00	0	41	0	1647312896	36	6286
2026-01-23 02:52:28.04	188.66	38.68	-32.1	-32.7	28.3	0.00e+00	0	41	0	1652555776	36	6216
2026-01-23 02:52:29.05	188.85	38.92	-31.9	-32.4	28.6	0.00e+00	0	41	0	1658847232	36	6031
2026-01-23 02:52:30.06	189.05	39.15	-31.8	-32.4	28.5	0.00e+00	0	41	0	1664090112	36	5990
2026-01-23 02:52:31.07	189.26	39.38	-31.7	-32.2	28.6	0.00e+00	0	41	0	1670381568	36	5892
2026-01-23 02:52:32.08	189.46	39.62	-31.6	-32.2	28.7	0.00e+00	0	41	0	1675624448	36	5877
2026-01-23 02:52:33.09	189.67	39.85	-31.6	-32.2	28.6	0.00e+00	0	41	0	1681915904	36	5884
2026-01-23 02:52:34.10	189.88	40.09	-31.7	-32.3	28.6	0.00e+00	0	41	0	1687158784	36	5941
2026-01-23 02:52:35.11	190.10	40.33	-31.8	-32.4	28.6	0.00e+00	0	41	0	1693450240	36	5981
2026-01-23 02:52:36.12	190.31	40.57	-32.0	-32.6	28.4	0.00e+00	0	41	0	1698693120	36	6159
2026-01-23 02:52:37.13	190.53	40.81	-32.1	-32.8	28.4	0.00e+00	0	41	0	1703936000	36	6248
2026-01-23 02:52:38.14	190.76	41.05	-32.4	-33.0	28.1	0.00e+00	0	41	0	1710227456	36	6403
2026-01-23 02:52:39.15	190.99	41.30	-32.2	-32.8	28.4	0.00e+00	0	41	0	1715470336	36	6249
2026-01-23 02:52:40.16	191.22	41.54	-32.2	-32.8	28.2	0.00e+00	0	41	0	1721761792	36	6274
2026-01-23 02:52:41.17	191.45	41.79	-32.3	-32.9	28.2	0.00e+00	0	41	0	1727004672	36	6378
2026-01-23 02:52:42.18	191.69	42.04	-32.2	-32.8	28.2	0.00e+00	0	41	0	1732247552	36	6270
2026-01-23 02:52:43.19	191.93	42.28	-32.2	-32.8	28.2	0.00e+00	0	41	0	1738539008	36	6310
2026-01-23 02:52:44.20	192.17	42.53	-32.2	-32.7	28.2	0.00e+00	0	41	0	1743781888	36	6243
2026-01-23 02:52:45.21	192.42	42.78	-32.2	-32.8	28.2	0.00e+00	0	41	0	1750073344	36	6295
2026-01-23 02:52:46.22	192.67	43.03	-32.3	-32.9	28.2	0.00e+00	0	41	0	1755316224	36	6343
2026-01-23 02:52:47.23	192.93	43.29	-32.3	-32.9	28.2	0.00e+00	0	41	0	1760559104	36	6376
2026-01-23 02:52:48.24	193.19	43.54	-32.4	-33.0	28.1	0.00e+00	0	41	0	1766850560	36	6397
2026-01-23 02:52:49.25	193.46	43.80	-32.3	-33.0	28.1	0.00e+00	0	41	0	1772093440	36	6396
2026-01-23 02:52:50.25	193.72	44.05	-32.3	-32.9	28.3	0.00e+00	0	41	0	1778384896	36	6339
2026-01-23 02:52:51.27	194.00	44.31	-32.4	-33.0	28.1	0.00e+00	0	41	0	1783627776	36	6404
2026-01-23 02:52:52.28	194.28	44.56	-32.3	-32.9	28.2	0.00e+00	0	41	0	1789919232	36	6373
2026-01-23 02:52:53.29	194.56	44.82	-32.4	-33.1	28.1	0.00e+00	0	41	0	1795162112	36	6477
2026-01-23 02:52:54.30	194.84	45.08	-32.2	-32.8	28.2	0.00e+00	0	41	0	1800404992	36	6282
2026-01-23 02:52:55.30	195.13	45.34	-32.1	-32.7	28.4	0.00e+00	0	41	0	1806696448	36	6242
2026-01-23 02:52:56.31	195.43	45.60	-32.4	-33.0	28.2	0.00e+00	0	41	0	1811939328	36	6429
2026-01-23 02:52:57.32	195.73	45.86	-32.4	-33.0	28.2	0.00e+00	0	41	0	1818230784	36	6400
2026-01-23 02:52:58.33	196.03	46.13	-32.5	-33.1	28.0	0.00e+00	0	41	0	1823473664	36	6501
2026-01-23 02:52:59.34	196.34	46.39	-32.6	-33.2	28.0	0.00e+00	0	41	0	1828716544	36	6583
2026-01-23 02:53:00.35	196.66	46.65	-32.5	-33.2	28.0	0.00e+00	0	41	0	1835008000	36	6548
2026-01-23 02:53:01.36	196.98	46.92	-32.5	-33.1	28.0	0.00e+00	0	41	0	1840250880	36	6495
2026-01-23 02:53:02.37	197.31	47.19	-32.6	-33.1	28.0	0.00e+00	0	41	0	1846542336	36	6533
2026-01-23 02:53:03.38	197.64	47.45	-32.5	-33.1	28.0	0.00e+00	0	41	0	1851785216	36	6516
2026-01-23 02:53:04.39	197.98	47.72	-32.5	-33.2	28.0	0.00e+00	0	41	0	1857028096	36	6554
2026-01-23 02:53:05.40	198.32	47.99	-32.5	-33.1	28.0	0.00e+00	0	41	0	1863319552	36	6516
2026-01-23 02:53:06.41	198.67	48.26	-32.5	-33.1	28.0	0.00e+00	0	41	0	1868562432	36	6519
2026-01-23 02:53:07.41	199.02	48.52	-32.5	-33.1	28.1	0.00e+00	0	41	0	1874853888	36	6514
2026-01-23 02:53:08.42	199.38	48.79	-32.6	-33.3	28.0	0.00e+00	0	41	0	1880096768	36	6616
2026-01-23 02:53:09.43	199.75	49.06	-32.7	-33.3	27.9	0.00e+00	0	41	0	1886388224	38	5931
2026-01-23 02:53:10.44	200.12	49.33	-32.8	-33.4	27.8	0.00e+00	0	41	0	1891631104	38	5996
2026-01-23 02:53:11.45	200.51	49.60	-32.7	-33.2	27.9	0.00e+00	0	41	0	1896873984	38	5894
2026-01-23 02:53:12.46	200.89	49.87	-32.5	-33.1	28.1	0.00e+00	0	41	0	1903165440	38	5772
2026-01-23 02:53:13.47	201.29	50.14	-32.6	-33.2	27.9	0.00e+00	0	41	0	1908408320	38	5884
2026-01-23 02:53:14.48	201.69	50.42	-32.8	-33.4	27.8	0.00e+00	0	41	0	1914699776	38	6023
2026-01-23 02:53:15.49	202.10	50.69	-32.8	-33.4	27.9	0.00e+00	0	41	0	1919942656	38	6015
2026-01-23 02:53:16.50	202.51	50.96	-32.7	-33.4	27.8	0.00e+00	0	41	0	1925185536	38	5971
2026-01-23 02:53:17.51	202.94	51.23	-32.6	-33.2	28.0	0.00e+00	0	41	0	1931476992	38	5845
2026-01-23 02:53:18.52	203.37	51.50	-32.9	-33.5	27.7	0.00e+00	0	41	0	1936719872	38	6037
2026-01-23 02:53:19.53	203.81	51.77	-33.4	-34.0	27.3	0.00e+00	0	41	0	1943011328	38	6443
2026-01-23 02:53:20.54	204.25	52.04	-33.4	-34.0	27.4	0.00e+00	0	41	0	1948254208	38	6433
2026-01-23 02:53:21.55	204.71	52.31	-33.3	-33.9	27.4	0.00e+00	0	41	0	1953497088	38	6368
2026-01-23 02:53:22.56	205.17	52.59	-33.3	-33.9	27.4	0.00e+00	0	41	0	1959788544	38	6324
2026-01-23 02:53:23.56	205.64	52.85	-33.3	-34.0	27.4	0.00e+00	0	41	0	1965031424	38	6413
2026-01-23 02:53:24.57	206.12	53.12	-33.4	-34.1	27.3	0.00e+00	0	41	0	1971322880	38	6480
2026-01-23 02:53:25.58	206.61	53.39	-33.3	-33.9	27.3	0.00e+00	0	41	0	1976565760	38	6340
2026-01-23 02:53:26.59	207.11	53.66	-33.2	-33.8	27.5	0.00e+00	0	41	0	1982857216	38	6308
2026-01-23 02:53:27.60	207.62	53.93	-33.0	-33.7	27.7	0.00e+00	0	41	0	1988100096	38	6183
2026-01-23 02:53:28.61	208.13	54.19	-33.0	-33.6	27.7	0.00e+00	0	41	0	1994391552	38	6131
2026-01-23 02:53:29.62	208.66	54.46	-33.1	-33.7	27.5	0.00e+00	0	41	0	1999634432	38	6214
2026-01-23 02:53:30.63	209.20	54.72	-33.5	-34.1	27.3	0.00e+00	0	41	0	2004877312	38	6528
2026-01-23 02:53:31.64	209.74	54.99	-33.7	-34.3	27.1	0.00e+00	0	41	0	2011168768	38	6688
2026-01-23 02:53:32.65	210.30	55.25	-33.4	-34.0	27.3	0.00e+00	0	41	0	2016411648	38	6455
2026-01-23 02:53:33.66	210.87	55.51	-33.3	-33.9	27.4	0.00e+00	0	41	0	2022703104	38	6379
2026-01-23 02:53:34.67	211.44	55.77	-33.6	-34.3	27.2	0.00e+00	0	41	0	2027945984	38	6658
2026-01-23 02:53:35.68	212.03	56.03	-33.4	-34.0	27.3	0.00e+00	0	41	0	2033188864	40	5717
2026-01-23 02:53:36.69	212.63	56.28	-33.0	-33.6	27.7	0.00e+00	0	41	0	2039480320	40	5454
2026-01-23 02:53:37.70	213.24	56.53	-32.9	-33.5	27.7	0.00e+00	0	41	0	2044723200	40	5437
2026-01-23 02:53:38.70	213.85	56.78	-32.9	-33.5	27.7	0.00e+00	0	41	0	2049966080	40	5409
2026-01-23 02:53:39.72	214.49	57.04	-33.2	-33.9	27.5	0.00e+00	0	41	0	2056257536	40	5665
2026-01-23 02:53:40.73	215.13	57.28	-33.4	-34.0	27.4	0.00e+00	0	41	0	2061500416	40	5759
2026-01-23 02:53:41.74	215.79	57.53	-33.1	-33.7	27.6	0.00e+00	0	41	0	2067791872	40	5506
2026-01-23 02:53:42.74	216.45	57.77	-33.0	-33.6	27.6	0.00e+00	0	41	0	2073034752	40	5455
2026-01-23 02:53:43.76	217.14	58.01	-33.0	-33.5	27.6	0.00e+00	0	41	0	2079326208	40	5438
2026-01-23 02:53:44.77	217.83	58.25	-32.8	-33.5	27.9	0.00e+00	0	41	0	2084569088	40	5387
2026-01-23 02:53:45.77	218.52	58.48	-32.8	-33.4	27.8	0.00e+00	0	41	0	2090860544	40	5372
2026-01-23 02:53:46.78	219.24	58.71	-32.9	-33.5	27.8	0.00e+00	0	41	0	2096103424	40	5395
2026-01-23 02:53:47.79	219.97	58.94	-32.6	-33.2	28.0	0.00e+00	0	41	0	2101346304	38	5893
2026-01-23 02:53:48.80	220.71	59.16	-32.7	-33.3	27.9	0.00e+00	0	41	0	2107637760	38	5940
2026-01-23 02:53:49.81	221.46	59.39	-32.6	-33.2	27.9	0.00e+00	0	41	0	2112880640	38	5893
2026-01-23 02:53:50.82	222.23	59.60	-32.4	-33.0	28.1	0.00e+00	0	41	0	2119172096	38	5722
2026-01-23 02:53:51.83	223.00	59.82	-32.1	-32.7	28.4	0.00e+00	0	41	0	2124414976	38	5506
2026-01-23 02:53:52.84	223.79	60.02	-31.9	-32.5	28.5	0.00e+00	0	41	0	2129657856	38	5402
2026-01-23 02:53:53.85	224.60	60.23	-32.2	-32.7	28.3	0.00e+00	0	41	0	2135949312	38	5566
2026-01-23 02:53:54.86	225.41	60.43	-32.6	-33.3	27.9	0.00e+00	0	41	0	2141192192	38	5912
2026-01-23 02:53:55.88	226.25	60.63	-32.4	-33.0	28.1	0.00e+00	0	41	0	2147483648	38	5717
2026-01-23 02:53:56.88	227.09	60.82	-32.0	-32.6	28.4	0.00e+00	0	41	0	2152726528	38	5452
2026-01-23 02:53:57.89	227.94	61.00	-32.1	-32.7	28.3	0.00e+00	0	41	0	2157969408	38	5551
2026-01-23 02:53:58.90	228.81	61.18	-32.4	-33.0	28.2	0.00e+00	0	41	0	2164260864	38	5703
2026-01-23 02:53:59.91	229.69	61.36	-32.5	-33.2	28.0	0.00e+00	0	41	0	2169503744	38	5836
2026-01-23 02:54:00.92	230.58	61.53	-32.5	-33.1	28.1	0.00e+00	0	41	0	2175795200	38	5823
2026-01-23 02:54:01.93	231.48	61.70	-32.4	-32.9	28.1	0.00e+00	0	41	0	2181038080	38	5693
2026-01-23 02:54:02.94	232.40	61.85	-32.1	-32.8	28.4	0.00e+00	0	41	0	2187329536	38	5571
2026-01-23 02:54:03.95	233.32	62.01	-32.1	-32.6	28.3	0.00e+00	0	41	0	2192572416	38	5502
2026-01-23 02:54:04.96	234.26	62.15	-31.8	-32.4	28.6	0.00e+00	0	41	0	2198863872	36	5976
2026-01-23 02:54:05.97	235.21	62.30	-31.9	-32.5	28.6	0.00e+00	0	41	0	2204106752	36	6037
2026-01-23 02:54:06.98	236.17	62.43	-32.2	-32.8	28.3	0.00e+00	0	41	0	2209349632	36	6291
2026-01-23 02:54:07.99	237.14	62.56	-32.1	-32.7	28.3	0.00e+00	0	41	0	2215641088	36	6235
2026-01-23 02:54:09.00	238.12	62.68	-31.9	-32.5	28.4	0.00e+00	0	41	0	2220883968	36	6074
2026-01-23 02:54:10.01	239.11	62.79	-32.3	-32.9	28.2	0.00e+00	0	41	0	2227175424	36	6346
2026-01-23 02:54:11.02	240.11	62.90	-32.2	-32.8	28.2	0.00e+00	0	41	0	2232418304	36	6287
2026-01-23 02:54:12.03	241.12	63.00	-32.1	-32.7	28.3	0.00e+00	0	42	0	2237661184	36	6223
2026-01-23 02:54:13.04	242.14	63.09	-32.2	-32.8	28.3	0.00e+00	0	41	0	2243952640	36	6283
2026-01-23 02:54:14.05	243.16	63.18	-31.8	-32.4	28.6	0.00e+00	0	41	0	2249195520	36	5978
2026-01-23 02:54:15.06	244.19	63.26	-31.9	-32.6	28.5	0.00e+00	0	41	0	2255486976	36	6112
2026-01-23 02:54:16.07	245.23	63.33	-31.9	-32.5	28.4	0.00e+00	0	41	0	2260729856	36	6064
2026-01-23 02:54:17.08	246.27	63.39	-31.8	-32.3	28.6	0.00e+00	0	41	0	2265972736	36	5948
2026-01-23 02:54:18.09	247.32	63.45	-31.9	-32.5	28.6	0.00e+00	0	41	0	2272264192	36	6094
2026-01-23 02:54:19.10	248.37	63.49	-31.9	-32.6	28.4	0.00e+00	0	41	0	2277507072	36	6107
2026-01-23 02:54:20.11	249.43	63.53	-31.9	-32.5	28.4	0.00e+00	0	41	0	2283798528	36	6055
2026-01-23 02:54:21.12	250.49	63.56	-32.0	-32.6	28.4	0.00e+00	0	41	0	2289041408	36	6142
2026-01-23 02:54:22.13	251.55	63.59	-31.9	-32.5	28.5	0.00e+00	0	41	0	2295332864	36	6049
2026-01-23 02:54:23.14	252.61	63.60	-31.9	-32.4	28.5	0.00e+00	0	41	0	2300575744	36	6013
2026-01-23 02:54:24.16	253.69	63.61	-31.9	-32.6	28.5	0.00e+00	0	41	0	2306867200	36	6114
2026-01-23 02:54:25.17	254.76	63.61	-31.8	-32.4	28.4	0.00e+00	0	41	0	2312110080	36	6033
2026-01-23 02:54:26.18	255.82	63.60	-31.8	-32.4	28.6	0.00e+00	0	41	0	2317352960	36	5982
2026-01-23 02:54:27.19	256.88	63.59	-31.8	-32.5	28.5	0.00e+00	0	41	0	2323644416	36	6051
2026-01-23 02:54:28.19	257.94	63.56	-32.0	-32.6	28.4	0.00e+00	0	41	0	2328887296	36	6132
2026-01-23 02:54:29.20	258.99	63.53	-32.0	-32.6	28.3	0.00e+00	0	42	0	2334130176	36	6137
2026-01-23 02:54:30.21	260.05	63.49	-32.0	-32.6	28.2	0.00e+00	0	41	0	2340421632	36	6128
2026-01-23 02:54:31.22	261.10	63.44	-31.9	-32.6	28.4	0.00e+00	0	41	0	2345664512	36	6116
2026-01-23 02:54:32.23	262.15	63.39	-32.1	-32.7	28.2	0.00e+00	0	41	0	2351955968	36	6229
2026-01-23 02:54:33.24	263.19	63.32	-32.2	-32.8	28.2	0.00e+00	0	41	0	2357198848	36	6300
2026-01-23 02:54:34.25	264.23	63.25	-31.8	-32.4	28.5	0.00e+00	0	41	0	2362441728	36	6032
2026-01-23 02:54:35.26	265.26	63.17	-32.1	-32.7	28.3	0.00e+00	0	41	0	2368733184	36	6204
2026-01-23 02:54:36.27	266.28	63.09	-32.4	-32.9	28.2	0.00e+00	0	41	0	2373976064	36	6374
2026-01-23 02:54:37.28	267.29	62.99	-32.1	-32.7	28.3	0.00e+00	0	41	0	2380267520	36	6245
2026-01-23 02:54:38.29	268.30	62.89	-32.0	-32.5	28.5	0.00e+00	0	41	0	2385510400	36	6092
2026-01-23 02:54:39.30	269.30	62.78	-31.8	-32.5	28.6	0.00e+00	0	41	0	2391801856	36	6040
2026-01-23 02:54:40.31	270.29	62.67	-32.2	-32.7	28.4	0.00e+00	0	41	0	2397044736	36	6229
2026-01-23 02:54:41.32	271.27	62.55	-32.1	-32.8	28.3	0.00e+00	0	41	0	2403336192	36	6292
2026-01-23 02:54:42.33	272.24	62.42	-31.9	-32.5	28.5	0.00e+00	0	41	0	2408579072	36	6094
2026-01-23 02:54:43.34	273.19	62.28	-31.9	-32.4	28.5	0.00e+00	0	41	0	2413821952	36	6017
2026-01-23 02:54:44.35	274.14	62.14	-32.3	-32.8	28.2	0.00e+00	0	41	0	2420113408	36	6312
2026-01-23 02:54:45.36	275.08	61.99	-32.4	-33.0	28.1	0.00e+00	0	41	0	2425356288	36	6408
2026-01-23 02:54:46.37	276.00	61.84	-32.3	-32.9	28.2	0.00e+00	0	41	0	2431647744	36	6366
2026-01-23 02:54:47.38	276.92	61.68	-32.3	-32.9	28.2	0.00e+00	0	41	0	2436890624	36	6328
2026-01-23 02:54:48.38	277.81	61.52	-32.3	-32.9	28.2	0.00e+00	0	41	0	2442133504	36	6318
2026-01-23 02:54:49.39	278.70	61.35	-32.2	-32.8	28.2	0.00e+00	0	41	0	2448424960	36	6274
2026-01-23 02:54:50.40	279.58	61.17	-32.2	-32.8	28.3	0.00e+00	0	41	0	2453667840	36	6253
2026-01-23 02:54:51.41	280.44	60.99	-32.1	-32.7	28.4	0.00e+00	0	42	0	2459959296	36	6207
2026-01-23 02:54:52.42	281.29	60.80	-32.3	-32.9	28.3	0.00e+00	0	42	0	2465202176	36	6377
2026-01-23 02:54:53.43	282.13	60.61	-32.6	-33.2	28.0	0.00e+00	0	41	0	2470445056	36	6556
2026-01-23 02:54:54.44	282.96	60.42	-32.3	-33.0	28.1	0.00e+00	0	42	0	2476736512	36	6440
2026-01-23 02:54:55.45	283.78	60.22	-32.5	-33.2	28.0	0.00e+00	0	42	0	2481979392	36	6556
2026-01-23 02:54:56.46	284.58	60.01	-32.8	-33.5	27.8	0.00e+00	0	41	0	2488270848	38	6068
2026-01-23 02:54:57.47	285.37	59.80	-32.8	-33.5	27.8	0.00e+00	0	41	0	2493513728	38	6062
2026-01-23 02:54:58.48	286.14	59.59	-32.9	-33.4	27.7	0.00e+00	0	42	0	2499805184	38	5991
2026-01-23 02:54:59.49	286.91	59.37	-32.9	-33.5	27.7	0.00e+00	0	42	0	2505048064	38	6061
2026-01-23 02:55:00.49	287.65	59.15	-33.0	-33.7	27.6	0.00e+00	0	41	0	2510290944	38	6183
2026-01-23 02:55:01.51	288.40	58.93	-33.0	-33.7	27.7	0.00e+00	0	41	0	2516582400	38	6175
2026-01-23 02:55:02.52	289.12	58.70	-33.0	-33.6	27.7	0.00e+00	0	42	0	2521825280	38	6137
2026-01-23 02:55:03.52	289.83	58.47	-33.2	-33.8	27.5	0.00e+00	0	41	0	2528116736	38	6302
2026-01-23 02:55:04.53	290.53	58.24	-33.2	-33.8	27.6	0.00e+00	0	41	0	2533359616	38	6278
2026-01-23 02:55:05.54	291.22	58.00	-32.9	-33.6	27.7	0.00e+00	0	41	0	2538602496	38	6126
2026-01-23 02:55:06.55	291.90	57.76	-32.8	-33.4	27.9	0.00e+00	0	41	0	2544893952	38	5976
2026-01-23 02:55:07.56	292.56	57.52	-32.7	-33.3	27.8	0.00e+00	0	41	0	2550136832	38	5942
2026-01-23 02:55:08.57	293.21	57.28	-32.8	-33.4	27.9	0.00e+00	0	42	0	2556428288	38	5989
2026-01-23 02:55:09.59	293.86	57.03	-33.2	-33.7	27.6	0.00e+00	0	42	0	2561671168	38	6214
2026-01-23 02:55:10.60	294.49	56.78	-33.4	-34.0	27.5	0.00e+00	0	42	0	2566914048	38	6412
2026-01-23 02:55:11.61	295.11	56.53	-33.4	-34.1	27.4	0.00e+00	0	42	0	2573205504	38	6479
2026-01-23 02:55:12.61	295.71	56.27	-33.4	-34.0	27.3	0.00e+00	0	42	0	2578448384	38	6401
2026-01-23 02:55:13.63	296.32	56.02	-33.6	-34.3	27.3	0.00e+00	0	41	0	2584739840	38	6626
2026-01-23 02:55:14.64	296.90	55.76	-33.8	-34.4	27.0	0.00e+00	0	41	0	2589982720	40	6006
2026-01-23 02:55:15.64	297.47	55.50	-33.7	-34.4	27.1	0.00e+00	0	42	0	2596274176	40	6009
2026-01-23 02:55:16.65	298.04	55.24	-33.6	-34.3	27.3	0.00e+00	0	41	0	2601517056	40	5898
2026-01-23 02:55:17.66	298.59	54.98	-33.8	-34.5	27.0	0.00e+00	0	41	0	2607808512	40	6084
2026-01-23 02:55:18.67	299.14	54.72	-33.9	-34.6	26.9	0.00e+00	0	41	0	2613051392	40	6139
2026-01-23 02:55:19.68	299.67	54.46	-33.8	-34.4	27.0	0.00e+00	0	41	0	2618294272	40	5994
2026-01-23 02:55:20.69	300.20	54.19	-33.8	-34.5	27.0	0.00e+00	0	42	0	2624585728	40	6096
2026-01-23 02:55:21.71	300.72	53.92	-33.8	-34.3	27.1	0.00e+00	0	42	0	2629828608	40	5962
2026-01-23 02:55:22.72	301.22	53.66	-33.7	-34.3	27.1	0.00e+00	0	42	0	2636120064	40	5919
2026-01-23 02:55:23.73	301.72	53.39	-33.7	-34.4	27.1	0.00e+00	0	41	0	2641362944	40	6000
2026-01-23 02:55:24.74	302.21	53.12	-33.4	-34.1	27.5	0.00e+00	0	42	0	2646605824	40	5828
2026-01-23 02:55:25.75	302.69	52.85	-33.2	-33.9	27.5	0.00e+00	0	42	0	2652897280	40	5643
2026-01-23 02:55:26.76	303.16	52.58	-33.3	-34.0	27.4	0.00e+00	0	41	0	2658140160	40	5720
2026-01-23 02:55:27.76	303.62	52.32	-33.5	-34.0	27.4	0.00e+00	0	41	0	2664431616	40	5741
2026-01-23 02:55:28.78	304.07	52.04	-33.5	-34.1	27.4	0.00e+00	0	41	0	2669674496	40	5771
2026-01-23 02:55:29.78	304.52	51.78	-33.2	-33.7	27.5	0.00e+00	0	41	0	2674917376	40	5552
2026-01-23 02:55:30.79	304.95	51.51	-33.1	-33.8	27.6	0.00e+00	0	42	0	2681208832	40	5582
2026-01-23 02:55:31.80	305.38	51.24	-32.7	-33.2	27.8	0.00e+00	0	41	0	2686451712	40	5254
2026-01-23 02:55:32.81	305.81	50.96	-32.7	-33.3	28.0	0.00e+00	0	42	0	2692743168	38	5927
2026-01-23 02:55:33.82	306.22	50.69	-32.8	-33.4	27.9	0.00e+00	0	42	0	2697986048	38	5973
2026-01-23 02:55:34.83	306.63	50.42	-33.1	-33.8	27.6	0.00e+00	0	41	0	2704277504	38	6306
2026-01-23 02:55:35.84	307.03	50.15	-33.3	-34.1	27.4	0.00e+00	0	41	0	2709520384	38	6476
2026-01-23 02:55:36.85	307.42	49.88	-33.2	-33.9	27.5	0.00e+00	0	42	0	2714763264	38	6375
2026-01-23 02:55:37.86	307.81	49.61	-32.9	-33.5	27.7	0.00e+00	0	42	0	2721054720	38	6103
2026-01-23 02:55:38.87	308.19	49.34	-32.6	-33.2	27.9	0.00e+00	0	41	0	2726297600	38	5841
2026-01-23 02:55:39.88	308.56	49.07	-32.7	-33.2	27.9	0.00e+00	0	42	0	2732589056	38	5881
2026-01-23 02:55:40.88	308.93	48.81	-32.6	-33.1	27.9	0.00e+00	0	42	0	2737831936	38	5813
2026-01-23 02:55:41.89	309.29	48.54	-32.5	-33.0	28.0	0.00e+00	0	41	0	2743074816	38	5754
2026-01-23 02:55:42.90	309.64	48.27	-32.4	-33.0	27.9	0.00e+00	0	41	0	2749366272	38	5752
2026-01-23 02:55:43.92	309.99	48.00	-32.4	-32.9	27.7	0.00e+00	0	41	0	2754609152	38	5682
2026-01-23 02:55:44.92	310.33	47.74	-32.4	-32.9	27.6	0.00e+00	0	41	0	2760900608	38	5691
2026-01-23 02:55:45.94	310.67	47.47	-32.5	-33.1	28.0	0.00e+00	0	41	0	2766143488	38	5819
2026-01-23 02:55:46.95	311.00	47.20	-32.5	-33.0	27.5	0.00e+00	0	41	0	2771386368	38	5735
2026-01-23 02:55:47.95	311.33	46.94	-32.6	-33.2	27.8	0.00e+00	0	42	0	2777677824	38	5841
2026-01-23 02:55:48.96	311.65	46.68	-32.6	-33.3	27.8	0.00e+00	0	42	0	2782920704	38	5915
2026-01-23 02:55:49.97	311.96	46.41	-32.6	-33.1	27.8	0.00e+00	0	42	0	2789212160	38	5811
2026-01-23 02:55:50.98	312.27	46.15	-32.5	-33.2	28.0	0.00e+00	0	41	0	2794455040	38	5829
2026-01-23 02:55:51.99	312.58	45.89	-32.5	-33.1	28.1	0.00e+00	0	42	0	2800746496	38	5822
2026-01-23 02:55:53.00	312.88	45.63	-32.5	-33.2	28.1	0.00e+00	0	41	0	2805989376	38	5839
2026-01-23 02:55:54.01	313.17	45.37	-32.5	-33.1	28.0	0.00e+00	0	42	0	2812280832	38	5820
2026-01-23 02:55:55.02	313.46	45.11	-32.4	-32.9	28.1	0.00e+00	0	42	0	2817523712	38	5656
2026-01-23 02:55:56.04	313.75	44.85	-32.2	-32.8	28.3	0.00e+00	0	42	0	2822766592	38	5621
2026-01-23 02:55:57.05	314.03	44.59	-32.3	-32.8	28.3	0.00e+00	0	42	0	2829058048	38	5585
2026-01-23 02:55:58.05	314.31	44.34	-32.3	-32.9	28.1	0.00e+00	0	42	0	2834300928	38	5647
2026-01-23 02:55:59.06	314.58	44.08	-32.4	-33.1	28.1	0.00e+00	0	41	0	2840592384	38	5785
2026-01-23 02:56:00.07	314.85	43.83	-32.4	-33.1	28.1	0.00e+00	0	41	0	2845835264	38	5790
2026-01-23 02:56:01.08	315.11	43.57	-32.4	-33.0	28.2	0.00e+00	0	42	0	2851078144	38	5746
2026-01-23 02:56:02.09	315.37	43.32	-32.4	-32.9	28.2	0.00e+00	0	42	0	2857369600	38	5669
2026-01-23 02:56:03.10	315.63	43.07	-32.5	-33.0	28.1	0.00e+00	0	42	0	2862612480	38	5717
2026-01-23 02:56:04.11	315.88	42.82	-32.6	-33.2	27.8	0.00e+00	0	42	0	2868903936	38	5848
2026-01-23 02:56:05.12	316.13	42.57	-32.7	-33.2	27.9	0.00e+00	0	42	0	2874146816	38	5887
2026-01-23 02:56:06.13	316.37	42.32	-32.7	-33.3	27.9	0.00e+00	0	42	0	2879389696	38	5897
2026-01-23 02:56:07.14	316.61	42.07	-32.6	-33.3	28.1	0.00e+00	0	42	0	2885681152	38	5923
2026-01-23 02:56:08.15	316.85	41.83	-32.5	-33.1	28.1	0.00e+00	0	42	0	2890924032	38	5821
2026-01-23 02:56:09.16	317.08	41.58	-32.3	-32.9	28.2	0.00e+00	0	42	0	2897215488	38	5634
2026-01-23 02:56:10.17	317.31	41.34	-32.3	-32.8	28.3	0.00e+00	0	42	0	2902458368	38	5593
2026-01-23 02:56:11.18	317.54	41.10	-32.3	-33.0	28.2	0.00e+00	0	42	0	2908749824	38	5717
2026-01-23 02:56:12.19	317.76	40.85	-32.1	-32.6	28.4	0.00e+00	0	42	0	2913992704	38	5489
2026-01-23 02:56:13.20	317.98	40.61	-32.2	-32.9	28.2	0.00e+00	0	42	0	2919235584	38	5663
2026-01-23 02:56:14.21	318.20	40.38	-32.4	-32.9	28.0	0.00e+00	0	42	0	2925527040	38	5661
2026-01-23 02:56:15.22	318.41	40.14	-32.1	-32.7	28.3	0.00e+00	0	42	0	2930769920	38	5512
2026-01-23 02:56:16.23	318.63	39.90	-32.1	-32.8	28.3	0.00e+00	0	42	0	2937061376	38	5618
2026-01-23 02:56:17.24	318.83	39.67	-32.0	-32.6	28.4	0.00e+00	0	42	0	2942304256	38	5478
2026-01-23 02:56:18.25	319.04	39.43	-31.9	-32.6	28.4	0.00e+00	0	42	0	2947547136	38	5470
2026-01-23 02:56:19.26	319.24	39.20	-32.0	-32.6	28.4	0.00e+00	0	42	0	2953838592	38	5494
2026-01-23 02:56:20.26	319.44	38.97	-32.0	-32.6	28.4	0.00e+00	0	42	0	2959081472	38	5449
2026-01-23 02:56:21.27	319.64	38.74	-32.1	-32.6	28.4	0.00e+00	0	42	0	2965372928	38	5488
2026-01-23 02:56:22.28	319.83	38.51	-32.0	-32.5	28.4	0.00e+00	0	42	0	2970615808	38	5437
2026-01-23 02:56:23.29	320.02	38.28	-32.0	-32.6	28.3	0.00e+00	0	42	0	2975858688	38	5459
2026-01-23 02:56:24.30	320.21	38.05	-32.1	-32.7	28.3	0.00e+00	0	42	0	2982150144	38	5557
2026-01-23 02:56:25.31	320.40	37.83	-32.1	-32.6	28.4	0.00e+00	0	42	0	2987393024	38	5478
2026-01-23 02:56:26.32	320.58	37.60	-32.0	-32.5	28.4	0.00e+00	0	42	0	2993684480	38	5431
2026-01-23 02:56:27.33	320.76	37.38	-32.0	-32.5	28.4	0.00e+00	0	42	0	2998927360	38	5400
2026-01-23 02:56:28.34	320.94	37.16	-32.0	-32.6	28.4	0.00e+00	0	42	0	3005218816	38	5486
2026-01-23 02:56:29.35	321.12	36.93	-31.9	-32.4	28.4	0.00e+00	0	42	0	3010461696	38	5368
2026-01-23 02:56:30.36	321.29	36.71	-31.9	-32.4	28.6	0.00e+00	0	42	0	3016753152	38	5338
2026-01-23 02:56:31.37	321.46	36.50	-32.0	-32.6	28.3	0.00e+00	0	42	0	3021996032	38	5487
2026-01-23 02:56:32.38	321.63	36.28	-31.9	-32.6	28.4	0.00e+00	0	42	0	3027238912	38	5467
2026-01-23 02:56:33.39	321.80	36.06	-32.0	-32.7	28.4	0.00e+00	0	42	0	3033530368	38	5503
2026-01-23 02:56:34.40	321.96	35.85	-32.1	-32.6	28.4	0.00e+00	0	42	0	3038773248	38	5465
2026-01-23 02:56:35.41	322.13	35.63	-32.1	-32.6	28.4	0.00e+00	0	42	0	3045064704	38	5481
2026-01-23 02:56:36.42	322.29	35.42	-32.2	-32.7	28.4	0.00e+00	0	42	0	3050307584	38	5539
2026-01-23 02:56:37.43	322.45	35.21	-32.2	-32.9	28.3	0.00e+00	0	42	0	3055550464	38	5655
2026-01-23 02:56:38.44	322.61	35.00	-32.1	-32.6	28.4	0.00e+00	0	42	0	3061841920	38	5490
2026-01-23 02:56:39.45	322.76	34.79	-32.0	-32.5	28.4	0.00e+00	0	41	0	3067084800	38	5401
2026-01-23 02:56:40.46	322.91	34.58	-31.9	-32.4	28.5	0.00e+00	0	42	0	3073376256	38	5355
2026-01-23 02:56:41.47	323.07	34.37	-31.9	-32.6	28.5	0.00e+00	0	42	0	3078619136	38	5448
2026-01-23 02:56:42.48	323.22	34.17	-32.0	-32.5	28.4	0.00e+00	0	42	0	3083862016	38	5418
2026-01-23 02:56:43.49	323.36	33.96	-32.1	-32.6	28.2	0.00e+00	0	42	0	3090153472	38	5467
2026-01-23 02:56:44.50	323.51	33.76	-32.1	-32.6	28.3	0.00e+00	0	42	0	3095396352	38	5496
2026-01-23 02:56:45.51	323.65	33.56	-32.2	-32.7	28.2	0.00e+00	0	42	0	3101687808	38	5552
2026-01-23 02:56:46.52	323.80	33.36	-32.3	-33.0	28.2	0.00e+00	0	42	0	3106930688	38	5702
2026-01-23 02:56:47.53	323.94	33.16	-32.5	-33.2	28.0	0.00e+00	0	42	0	3113222144	38	5835
2026-01-23 02:56:48.54	324.08	32.96	-32.3	-32.9	28.1	0.00e+00	0	42	0	3118465024	38	5663
2026-01-23 02:56:49.55	324.21	32.76	-32.3	-32.8	28.2	0.00e+00	0	42	0	3123707904	38	5616
2026-01-23 02:56:50.56	324.35	32.56	-32.4	-33.1	28.0	0.00e+00	0	42	0	3129999360	38	5771
2026-01-23 02:56:51.57	324.48	32.37	-32.4	-33.0	28.0	0.00e+00	0	42	0	3135242240	38	5714
2026-01-23 02:56:52.58	324.62	32.17	-32.4	-32.9	28.2	0.00e+00	0	42	0	3141533696	38	5670
2026-01-23 02:56:53.59	324.75	31.98	-32.3	-32.8	28.2	0.00e+00	0	42	0	3146776576	38	5602
2026-01-23 02:56:54.60	324.88	31.79	-32.3	-32.8	28.1	0.00e+00	0	42	0	3152019456	38	5605
2026-01-23 02:56:55.61	325.01	31.60	-32.3	-32.9	28.2	0.00e+00	0	42	0	3158310912	38	5655
2026-01-23 02:56:56.62	325.13	31.41	-32.3	-32.8	28.2	0.00e+00	0	42	0	3163553792	38	5605
2026-01-23 02:56:57.63	325.26	31.22	-32.4	-33.0	28.2	0.00e+00	0	42	0	3169845248	38	5750
2026-01-23 02:56:58.63	325.38	31.03	-32.4	-33.1	28.0	0.00e+00	0	42	0	3175088128	38	5768
2026-01-23 02:56:59.64	325.50	30.85	-32.3	-32.9	28.1	0.00e+00	0	42	0	3180331008	38	5676
2026-01-23 02:57:00.65	325.62	30.66	-32.4	-32.9	28.2	0.00e+00	0	42	0	3186622464	38	5680
2026-01-23 02:57:01.67	325.75	30.47	-32.3	-32.8	28.2	0.00e+00	0	42	0	3191865344	38	5592
2026-01-23 02:57:02.67	325.86	30.29	-32.4	-32.9	28.1	0.00e+00	0	42	0	3198156800	38	5687
2026-01-23 02:57:03.68	325.98	30.11	-32.4	-32.9	28.1	0.00e+00	0	42	0	3203399680	38	5659
2026-01-23 02:57:04.69	326.10	29.93	-32.4	-32.9	28.1	0.00e+00	0	42	0	3209691136	38	5663
2026-01-23 02:57:05.70	326.21	29.75	-32.4	-32.9	28.1	0.00e+00	0	42	0	3214934016	38	5654
2026-01-23 02:57:06.71	326.32	29.57	-32.3	-32.9	28.0	0.00e+00	0	42	0	3221225472	38	5648
2026-01-23 02:57:07.72	326.44	29.39	-32.4	-33.0	28.0	0.00e+00	0	42	0	3226468352	38	5709
2026-01-23 02:57:08.73	326.55	29.21	-32.4	-33.0	28.0	0.00e+00	0	42	0	3231711232	38	5697
2026-01-23 02:57:09.74	326.66	29.04	-32.5	-33.1	27.9	0.00e+00	0	42	0	3238002688	38	5773
2026-01-23 02:57:10.75	326.77	28.86	-32.6	-33.1	27.9	0.00e+00	0	42	0	3243245568	38	5802
2026-01-23 02:57:11.76	326.88	28.69	-32.7	-33.2	27.7	0.00e+00	0	42	0	3249537024	38	5879
2026-01-23 02:57:12.77	326.98	28.51	-32.7	-33.4	27.9	0.00e+00	0	42	0	3254779904	38	5968
2026-01-23 02:57:13.78	327.09	28.34	-32.4	-33.1	28.0	0.00e+00	0	42	0	3260022784	38	5822
2026-01-23 02:57:14.79	327.19	28.17	-32.4	-33.1	27.9	0.00e+00	0	42	0	3266314240	38	5823
2026-01-23 02:57:15.80	327.30	28.00	-32.4	-33.0	28.0	0.00e+00	0	42	0	3271557120	38	5717
2026-01-23 02:57:16.80	327.40	27.83	-32.2	-32.7	28.2	0.00e+00	0	42	0	3276800000	38	5521
2026-01-23 02:57:17.81	327.50	27.66	-32.3	-32.8	28.2	0.00e+00	0	42	0	3283091456	38	5592
2026-01-23 02:57:18.82	327.60	27.49	-32.1	-32.6	28.2	0.00e+00	0	42	0	3288334336	38	5492
2026-01-23 02:57:19.83	327.70	27.33	-32.1	-32.6	28.2	0.00e+00	0	42	0	3294625792	38	5452
2026-01-23 02:57:20.84	327.80	27.16	-32.1	-32.8	28.2	0.00e+00	0	42	0	3299868672	38	5568
2026-01-23 02:57:21.85	327.89	27.00	-32.1	-32.8	28.2	0.00e+00	0	42	0	3306160128	38	5603
2026-01-23 02:57:22.86	327.99	26.83	-32.2	-32.8	28.2	0.00e+00	0	42	0	3311403008	38	5613
2026-01-23 02:57:23.87	328.09	26.67	-32.3	-32.9	28.1	0.00e+00	0	42	0	3317694464	38	5680
2026-01-23 02:57:24.88	328.18	26.51	-32.3	-33.0	28.1	0.00e+00	0	42	0	3322937344	38	5716
2026-01-23 02:57:25.89	328.27	26.35	-32.5	-33.2	28.0	0.00e+00	0	42	0	3328180224	38	5840
2026-01-23 02:57:26.90	328.37	26.19	-32.3	-33.0	28.0	0.00e+00	0	42	0	3334471680	38	5739
2026-01-23 02:57:27.91	328.46	26.03	-32.6	-33.3	27.9	0.00e+00	0	42	0	3339714560	38	5903
2026-01-23 02:57:28.92	328.55	25.87	-32.5	-33.2	27.9	0.00e+00	0	42	0	3346006016	38	5868
2026-01-23 02:57:29.93	328.64	25.71	-32.6	-33.3	27.8	0.00e+00	0	42	0	3351248896	38	5933
2026-01-23 02:57:30.94	328.73	25.55	-32.6	-33.3	27.9	0.00e+00	0	42	0	3356491776	38	5926
2026-01-23 02:57:31.95	328.82	25.40	-32.6	-33.2	27.8	0.00e+00	0	42	0	3362783232	38	5839
2026-01-23 02:57:32.96	328.91	25.24	-32.7	-33.4	27.8	0.00e+00	0	42	0	3368026112	38	6002
2026-01-23 02:57:33.97	328.99	25.09	-32.8	-33.4	27.8	0.00e+00	0	42	0	3374317568	38	6029
2026-01-23 02:57:34.98	329.08	24.94	-32.9	-33.4	27.6	0.00e+00	0	42	0	3379560448	38	6015
2026-01-23 02:57:35.99	329.16	24.78	-32.8	-33.3	27.7	0.00e+00	0	42	0	3384803328	38	5962
2026-01-23 02:57:37.00	329.25	24.63	-32.8	-33.4	27.7	0.00e+00	0	42	0	3391094784	38	5974
2026-01-23 02:57:38.02	329.33	24.48	-32.8	-33.4	27.6	0.00e+00	0	42	0	3396337664	38	5972
2026-01-23 02:57:39.03	329.42	24.33	-32.9	-33.4	27.7	0.00e+00	0	42	0	3402629120	38	6011
2026-01-23 02:57:40.03	329.50	24.18	-32.8	-33.4	27.6	0.00e+00	0	42	0	3407872000	38	5967
2026-01-23 02:57:41.05	329.58	24.03	-32.9	-33.4	27.6	0.00e+00	0	42	0	3414163456	38	6029
2026-01-23 02:57:42.06	329.66	23.88	-32.8	-33.5	27.6	0.00e+00	0	42	0	3419406336	38	6073
2026-01-23 02:57:43.06	329.74	23.74	-32.8	-33.5	27.6	0.00e+00	0	42	0	3425697792	38	6071
2026-01-23 02:57:44.07	329.82	23.59	-32.8	-33.3	27.7	0.00e+00	0	42	0	3430940672	38	5947
2026-01-23 02:57:45.08	329.90	23.45	-32.9	-33.4	27.6	0.00e+00	0	42	0	3436183552	38	6032
2026-01-23 02:57:46.09	329.98	23.30	-32.9	-33.6	27.6	0.00e+00	0	42	0	3442475008	38	6112
2026-01-23 02:57:47.09	330.05	23.16	-33.0	-33.7	27.6	0.00e+00	0	42	0	3447717888	38	6174
2026-01-23 02:57:48.10	330.13	23.02	-32.9	-33.6	27.6	0.00e+00	0	42	0	3452960768	38	6129
2026-01-23 02:57:49.11	330.20	22.87	-33.0	-33.6	27.5	0.00e+00	0	42	0	3459252224	38	6116
2026-01-23 02:57:50.13	330.28	22.73	-33.0	-33.7	27.5	0.00e+00	0	42	0	3464495104	38	6231
2026-01-23 02:57:51.14	330.36	22.59	-33.2	-33.7	27.4	0.00e+00	0	42	0	3470786560	38	6209
2026-01-23 02:57:52.15	330.43	22.45	-33.0	-33.7	27.5	0.00e+00	0	42	0	3476029440	38	6232
2026-01-23 02:57:53.16	330.50	22.31	-33.1	-33.8	27.4	0.00e+00	0	42	0	3482320896	38	6268
2026-01-23 02:57:54.17	330.58	22.17	-33.2	-33.9	27.3	0.00e+00	0	42	0	3487563776	38	6355
2026-01-23 02:57:55.17	330.65	22.03	-33.2	-33.9	27.3	0.00e+00	0	42	0	3492806656	38	6385
2026-01-23 02:57:56.18	330.72	21.90	-33.3	-34.0	27.2	0.00e+00	0	42	0	3499098112	38	6441
2026-01-23 02:57:57.19	330.79	21.76	-33.3	-34.0	27.2	0.00e+00	0	42	0	3504340992	38	6443
2026-01-23 02:57:58.20	330.86	21.62	-33.4	-34.1	27.2	0.00e+00	0	42	0	3510632448	38	6486
2026-01-23 02:57:59.21	330.93	21.49	-33.5	-34.2	27.2	0.00e+00	0	42	0	3515875328	38	6545
2026-01-23 02:58:00.22	331.00	21.35	-33.5	-34.2	27.0	0.00e+00	0	42	0	3522166784	38	6586
2026-01-23 02:58:01.23	331.07	21.22	-33.6	-34.3	27.0	0.00e+00	0	42	0	3527409664	38	6622
2026-01-23 02:58:02.24	331.14	21.09	-33.7	-34.4	27.0	0.00e+00	0	42	0	3532652544	38	6707
2026-01-23 02:58:03.25	331.20	20.95	-33.7	-34.4	26.9	0.00e+00	0	42	0	3538944000	38	6693
2026-01-23 02:58:04.26	331.27	20.82	-33.7	-34.4	26.8	0.00e+00	0	42	0	3544186880	40	6033
2026-01-23 02:58:05.27	331.34	20.69	-33.8	-34.5	26.8	0.00e+00	0	42	0	3550478336	40	6093
2026-01-23 02:58:06.28	331.40	20.56	-33.9	-34.6	26.8	0.00e+00	0	42	0	3555721216	40	6112
2026-01-23 02:58:07.29	331.47	20.43	-34.0	-34.7	26.7	0.00e+00	0	42	0	3560964096	40	6207
2026-01-23 02:58:08.30	331.53	20.30	-34.1	-34.8	26.6	0.00e+00	0	42	0	3567255552	40	6284
2026-01-23 02:58:09.31	331.60	20.17	-34.1	-34.8	26.6	0.00e+00	0	42	0	3572498432	40	6255
2026-01-23 02:58:10.32	331.66	20.05	-33.8	-34.5	26.8	0.00e+00	0	42	0	3578789888	40	6069
2026-01-23 02:58:11.33	331.73	19.92	-33.8	-34.5	26.8	0.00e+00	0	42	0	3584032768	40	6056
2026-01-23 02:58:12.33	331.79	19.79	-33.9	-34.6	26.8	0.00e+00	0	42	0	3589275648	40	6134
