passes_logs/2026/01/23/R4.6S_Anadyr/R4.6S_Anadyr__20260123_010646_FENGYUN_3D_rec.log

#Pass ID: 20260123_010646_FENGYUN 3D
#Satellite: FENGYUN 3D
#Configuration: FENGYUN 3D
#almurnet v.1.7.20251203
#Start time: 2026-01-23 01:06:49

#Version: 2.2.20231116
#Station: R4.6S_Anadyr
#Location: 177.4865 lon 64.73178 lat
#TLE: 1 43010U 17072A   26022.47411728  .00000617  00000+0  31375-3 0  9996
#TLE: 2 43010  98.9952 354.4060 0002481  95.7964 264.3494 14.19699924424319

#Time	Az	El	Level	Level2	SNR	BER	BlckErr	Temp	State	Recorded	gain1	gain2
2026-01-23 01:06:49.15	127.71	0.14	-51.1	-66.0	3.5	1.51e+00	0	39	0	0	60	72426
2026-01-23 01:06:50.16	127.68	0.20	-50.9	-63.1	3.6	8.45e-01	0	40	104	0	60	51706
2026-01-23 01:06:51.17	127.65	0.26	-50.9	-63.1	3.6	8.46e-01	0	40	104	0	60	51469
2026-01-23 01:06:52.18	127.62	0.32	-50.9	-63.1	3.6	8.46e-01	0	40	104	0	60	51658
2026-01-23 01:06:53.18	127.59	0.38	-50.9	-63.0	3.6	8.45e-01	0	40	104	0	60	51335
2026-01-23 01:06:54.19	127.57	0.44	-51.0	-63.1	3.6	8.46e-01	0	40	104	0	60	51530
2026-01-23 01:06:55.20	127.54	0.50	-50.9	-63.1	3.6	8.45e-01	0	40	104	0	60	51571
2026-01-23 01:06:56.21	127.51	0.56	-51.0	-63.1	3.6	8.45e-01	0	40	104	0	60	51514
2026-01-23 01:06:57.22	127.48	0.62	-51.0	-63.1	3.6	8.44e-01	0	40	104	0	60	51711
2026-01-23 01:06:58.23	127.45	0.68	-51.0	-63.1	3.6	8.46e-01	0	40	104	0	60	51919
2026-01-23 01:06:59.24	127.42	0.74	-51.0	-63.2	3.6	8.45e-01	0	40	104	0	60	52007
2026-01-23 01:07:00.25	127.39	0.80	-51.0	-63.1	3.6	8.45e-01	0	40	104	0	60	51592
2026-01-23 01:07:01.26	127.36	0.86	-51.0	-63.1	3.6	8.45e-01	0	40	104	0	60	51606
2026-01-23 01:07:02.27	127.34	0.92	-50.9	-63.0	3.5	8.46e-01	0	40	104	0	60	51156
2026-01-23 01:07:03.28	127.31	0.98	-50.9	-63.0	3.6	8.46e-01	0	40	104	0	60	50945
2026-01-23 01:07:04.29	127.28	1.04	-50.9	-63.0	3.5	8.46e-01	0	40	104	0	60	51334
2026-01-23 01:07:05.30	127.25	1.10	-50.8	-63.0	3.6	8.47e-01	0	40	104	0	60	50785
2026-01-23 01:07:06.31	127.22	1.16	-50.8	-62.9	3.6	8.45e-01	0	40	104	0	60	50650
2026-01-23 01:07:07.32	127.19	1.23	-50.6	-62.8	3.6	8.46e-01	0	40	104	0	60	50068
2026-01-23 01:07:08.33	127.16	1.29	-50.7	-62.8	3.6	8.44e-01	0	40	104	0	60	49749
2026-01-23 01:07:09.34	127.13	1.35	-50.5	-62.7	3.6	8.45e-01	0	40	104	0	60	49408
2026-01-23 01:07:10.35	127.10	1.41	-50.5	-62.6	3.6	8.45e-01	0	40	104	0	60	48977
2026-01-23 01:07:11.36	127.07	1.47	-50.4	-62.5	3.6	8.45e-01	0	40	104	0	60	48331
2026-01-23 01:07:12.37	127.03	1.54	-50.3	-62.4	3.6	8.46e-01	0	40	104	0	60	47892
2026-01-23 01:07:13.38	127.00	1.60	-49.9	-62.2	3.6	8.45e-01	0	40	104	0	60	46443
2026-01-23 01:07:14.39	126.97	1.66	-49.7	-61.7	3.6	8.47e-01	0	40	104	0	60	44126
2026-01-23 01:07:15.40	126.94	1.72	-49.5	-61.6	3.6	8.46e-01	0	40	104	0	60	43391
2026-01-23 01:07:16.41	126.91	1.79	-49.5	-61.6	3.6	8.45e-01	0	40	104	0	60	43261
2026-01-23 01:07:17.42	126.88	1.85	-49.5	-61.5	3.6	8.45e-01	0	40	104	0	60	43007
2026-01-23 01:07:18.43	126.85	1.91	-49.5	-61.6	3.6	8.46e-01	0	40	104	0	60	43558
2026-01-23 01:07:19.44	126.82	1.97	-49.5	-61.6	3.6	8.46e-01	0	40	104	0	60	43323
2026-01-23 01:07:20.45	126.78	2.04	-49.5	-61.6	3.6	8.46e-01	0	40	104	0	60	43294
2026-01-23 01:07:21.46	126.75	2.10	-49.5	-61.6	3.6	8.45e-01	0	40	104	0	60	43508
2026-01-23 01:07:22.47	126.72	2.16	-49.5	-61.3	3.6	8.46e-01	0	40	104	0	60	41837
2026-01-23 01:07:23.48	126.69	2.23	-49.5	-61.3	3.6	8.45e-01	0	40	104	0	60	42122
2026-01-23 01:07:24.49	126.66	2.29	-49.5	-61.2	3.6	8.46e-01	0	41	104	0	60	41444
2026-01-23 01:07:25.50	126.62	2.36	-49.5	-61.0	3.6	8.45e-01	0	40	104	0	60	40542
2026-01-23 01:07:26.51	126.59	2.42	-49.5	-61.3	3.6	8.44e-01	0	41	104	0	60	41845
2026-01-23 01:07:27.52	126.56	2.48	-49.5	-61.3	3.6	8.45e-01	0	40	104	0	60	41787
2026-01-23 01:07:28.53	126.52	2.55	-49.5	-61.5	3.6	8.44e-01	0	41	104	0	60	42826
2026-01-23 01:07:29.54	126.49	2.61	-49.5	-61.6	3.6	8.45e-01	0	41	104	0	60	43582
2026-01-23 01:07:30.55	126.46	2.68	-49.5	-61.6	3.6	8.45e-01	0	41	104	0	60	43614
2026-01-23 01:07:31.56	126.42	2.74	-49.5	-61.6	3.6	8.45e-01	0	41	104	0	60	43309
2026-01-23 01:07:32.57	126.39	2.81	-49.5	-61.6	3.6	8.44e-01	0	40	104	0	60	43610
2026-01-23 01:07:33.58	126.36	2.87	-49.5	-61.5	3.6	8.45e-01	0	41	104	0	60	43115
2026-01-23 01:07:34.59	126.32	2.94	-49.5	-61.3	3.6	8.47e-01	0	41	104	0	60	42184
2026-01-23 01:07:35.60	126.29	3.00	-49.5	-61.2	3.6	8.45e-01	0	41	104	0	60	41614
2026-01-23 01:07:36.61	126.25	3.07	-49.5	-61.0	3.6	8.44e-01	0	41	104	0	60	40496
2026-01-23 01:07:37.62	126.22	3.13	-49.4	-60.5	3.6	8.44e-01	0	41	104	0	60	38259
2026-01-23 01:07:38.63	126.18	3.20	-49.4	-60.3	3.6	8.46e-01	0	41	104	0	60	37283
2026-01-23 01:07:39.64	126.15	3.26	-49.4	-60.6	3.6	8.44e-01	0	41	104	0	60	38633
2026-01-23 01:07:40.65	126.11	3.33	-49.5	-61.2	3.6	8.44e-01	0	41	104	0	60	41363
2026-01-23 01:07:41.66	126.08	3.40	-49.5	-61.5	3.6	8.45e-01	0	41	104	0	60	42758
2026-01-23 01:07:42.67	126.04	3.46	-49.3	-59.6	3.6	8.45e-01	0	41	104	0	60	34671
2026-01-23 01:07:43.68	126.01	3.53	-48.8	-55.8	5.1	8.29e-01	0	41	104	0	60	22285
2026-01-23 01:07:44.69	125.97	3.59	-47.6	-51.5	8.3	1.33e-01	0	41	0	3145728	60	13629
2026-01-23 01:07:45.70	125.94	3.66	-46.9	-50.0	10.3	3.22e-02	0	41	0	8388608	60	11431
2026-01-23 01:07:46.71	125.90	3.73	-45.5	-47.8	12.8	2.25e-04	0	41	0	14680064	60	8826
2026-01-23 01:07:47.72	125.86	3.80	-49.6	-61.3	3.6	2.71e-01	0	41	104	18874368	60	41784
2026-01-23 01:07:48.73	125.83	3.86	-46.8	-50.2	5.7	8.27e-01	0	41	104	18874368	60	11643
2026-01-23 01:07:49.74	125.79	3.93	-49.1	-58.0	3.4	3.15e-04	0	41	0	19922944	60	28617
2026-01-23 01:07:50.75	125.75	4.00	-49.6	-61.7	3.6	8.44e-01	0	41	104	19922944	60	44027
2026-01-23 01:07:51.76	125.72	4.06	-39.6	-40.6	6.2	8.21e-01	0	41	104	19922944	54	5443
2026-01-23 01:07:52.77	125.68	4.13	-40.8	-41.9	19.0	0.00e+00	0	41	0	20971520	54	6332
2026-01-23 01:07:53.78	125.64	4.20	-39.8	-40.7	19.9	0.00e+00	0	41	0	26214400	52	6221
2026-01-23 01:07:54.79	125.61	4.27	-40.0	-41.0	19.5	0.00e+00	0	41	0	32505856	52	6428
2026-01-23 01:07:55.80	125.57	4.34	-38.9	-39.8	21.0	0.00e+00	0	41	0	37748736	52	5577
2026-01-23 01:07:56.81	125.53	4.41	-39.4	-40.3	20.4	0.00e+00	0	41	0	44040192	52	5954
2026-01-23 01:07:57.82	125.49	4.47	-38.6	-39.5	21.3	0.00e+00	0	41	0	49283072	50	6069
2026-01-23 01:07:58.83	125.45	4.54	-38.7	-39.6	21.1	0.00e+00	0	41	0	54525952	50	6126
2026-01-23 01:07:59.84	125.42	4.61	-38.1	-38.9	21.9	0.00e+00	0	41	0	60817408	50	5666
2026-01-23 01:08:00.85	125.38	4.68	-39.2	-40.1	20.3	0.00e+00	0	41	0	66060288	50	6507
2026-01-23 01:08:01.86	125.34	4.75	-39.5	-40.4	20.7	0.00e+00	0	41	0	72351744	50	6756
2026-01-23 01:08:02.86	125.30	4.82	-38.8	-39.7	21.1	0.00e+00	0	41	0	77594624	50	6207
2026-01-23 01:08:03.87	125.26	4.89	-39.3	-40.2	20.4	0.00e+00	0	41	0	83886080	50	6614
2026-01-23 01:08:04.88	125.22	4.96	-39.6	-40.5	20.1	0.00e+00	0	41	0	89128960	50	6794
2026-01-23 01:08:05.89	125.18	5.03	-38.9	-39.7	21.2	0.00e+00	0	41	0	94371840	52	5564
2026-01-23 01:08:06.90	125.14	5.10	-38.2	-39.0	21.8	0.00e+00	0	41	0	100663296	50	5721
2026-01-23 01:08:07.91	125.10	5.17	-38.5	-39.3	21.7	0.00e+00	0	41	0	105906176	50	5919
2026-01-23 01:08:08.92	125.06	5.24	-38.4	-39.3	21.4	0.00e+00	0	41	0	112197632	50	5921
2026-01-23 01:08:09.93	125.02	5.31	-37.9	-38.7	22.2	0.00e+00	0	41	0	117440512	50	5559
2026-01-23 01:08:10.94	124.98	5.38	-37.8	-38.6	22.3	0.00e+00	0	41	0	122683392	50	5490
2026-01-23 01:08:11.95	124.94	5.45	-37.2	-38.0	22.8	0.00e+00	0	41	0	128974848	48	5723
2026-01-23 01:08:12.96	124.90	5.52	-37.5	-38.2	22.6	0.00e+00	0	41	0	134217728	48	5891
2026-01-23 01:08:13.97	124.86	5.59	-37.3	-38.1	22.7	0.00e+00	0	41	0	140509184	48	5799
2026-01-23 01:08:14.98	124.81	5.66	-37.5	-38.3	22.4	0.00e+00	0	41	0	145752064	48	5918
2026-01-23 01:08:15.99	124.77	5.74	-37.6	-38.4	22.6	0.00e+00	0	41	0	150994944	48	5977
2026-01-23 01:08:17.00	124.73	5.81	-37.6	-38.4	22.5	0.00e+00	0	41	0	157286400	48	6003
2026-01-23 01:08:18.01	124.69	5.88	-37.0	-37.8	23.0	0.00e+00	0	41	0	162529280	48	5579
2026-01-23 01:08:19.02	124.65	5.95	-37.8	-38.6	22.2	0.00e+00	0	41	0	168820736	48	6169
2026-01-23 01:08:20.03	124.60	6.02	-37.1	-37.9	22.9	0.00e+00	0	41	0	174063616	48	5667
2026-01-23 01:08:21.04	124.56	6.10	-37.3	-38.1	22.7	0.00e+00	0	41	0	180355072	48	5794
2026-01-23 01:08:22.05	124.52	6.17	-37.2	-38.0	22.9	0.00e+00	0	41	0	185597952	48	5716
2026-01-23 01:08:23.06	124.47	6.24	-37.3	-38.0	22.8	0.00e+00	0	41	0	191889408	48	5742
2026-01-23 01:08:24.07	124.43	6.32	-37.5	-38.2	22.6	0.00e+00	0	41	0	197132288	48	5890
2026-01-23 01:08:25.08	124.39	6.39	-37.2	-37.9	22.9	0.00e+00	0	41	0	202375168	48	5680
2026-01-23 01:08:26.09	124.34	6.46	-37.7	-38.5	22.5	0.00e+00	0	41	0	208666624	48	6055
2026-01-23 01:08:27.10	124.30	6.54	-37.3	-38.1	22.8	0.00e+00	0	41	0	213909504	48	5778
2026-01-23 01:08:28.11	124.25	6.61	-37.4	-38.2	22.6	0.00e+00	0	41	0	220200960	48	5833
2026-01-23 01:08:29.12	124.21	6.68	-37.4	-38.2	22.6	0.00e+00	0	41	0	225443840	48	5841
2026-01-23 01:08:30.13	124.16	6.76	-37.4	-38.2	22.8	0.00e+00	0	41	0	230686720	48	5851
2026-01-23 01:08:31.14	124.12	6.83	-37.4	-38.2	22.7	0.00e+00	0	41	0	236978176	48	5861
2026-01-23 01:08:32.15	124.07	6.91	-37.0	-37.7	23.1	0.00e+00	0	41	0	242221056	48	5561
2026-01-23 01:08:33.16	124.03	6.98	-37.1	-37.9	23.0	0.00e+00	0	41	0	247463936	48	5640
2026-01-23 01:08:34.17	123.98	7.06	-37.5	-38.2	22.7	0.00e+00	0	41	0	253755392	48	5882
2026-01-23 01:08:35.18	123.93	7.13	-37.5	-38.2	22.7	0.00e+00	0	41	0	258998272	48	5891
2026-01-23 01:08:36.19	123.89	7.21	-37.3	-38.1	22.9	0.00e+00	0	41	0	265289728	48	5771
2026-01-23 01:08:37.20	123.84	7.28	-37.2	-37.9	23.0	0.00e+00	0	41	0	270532608	48	5689
2026-01-23 01:08:38.21	123.79	7.36	-37.2	-38.0	23.1	0.00e+00	0	41	0	276824064	48	5703
2026-01-23 01:08:39.22	123.75	7.44	-37.1	-37.8	23.2	0.00e+00	0	41	0	282066944	48	5600
2026-01-23 01:08:40.23	123.70	7.51	-37.0	-37.8	23.2	0.00e+00	0	41	0	288358400	48	5589
2026-01-23 01:08:41.24	123.65	7.59	-37.1	-37.8	23.2	0.00e+00	0	41	0	293601280	48	5622
2026-01-23 01:08:42.25	123.60	7.67	-37.2	-37.9	23.1	0.00e+00	0	41	0	298844160	48	5680
2026-01-23 01:08:43.26	123.55	7.74	-36.8	-37.5	23.5	0.00e+00	0	41	0	305135616	48	5411
2026-01-23 01:08:44.26	123.51	7.82	-36.8	-37.6	23.4	0.00e+00	0	41	0	310378496	46	6117
2026-01-23 01:08:45.27	123.46	7.90	-36.8	-37.6	23.4	0.00e+00	0	41	0	316669952	46	6123
2026-01-23 01:08:46.28	123.41	7.97	-36.9	-37.6	23.4	0.00e+00	0	41	0	321912832	46	6156
2026-01-23 01:08:47.29	123.36	8.05	-37.1	-37.8	23.2	0.00e+00	0	41	0	327155712	46	6271
2026-01-23 01:08:48.30	123.31	8.13	-36.8	-37.6	23.4	0.00e+00	0	41	0	333447168	46	6119
2026-01-23 01:08:49.31	123.26	8.21	-36.7	-37.5	23.5	0.00e+00	0	41	0	338690048	46	6047
2026-01-23 01:08:50.32	123.21	8.29	-36.8	-37.6	23.5	0.00e+00	0	41	0	344981504	46	6118
2026-01-23 01:08:51.33	123.16	8.37	-37.0	-37.7	23.3	0.00e+00	0	41	0	350224384	46	6242
2026-01-23 01:08:52.34	123.11	8.45	-36.9	-37.6	23.4	0.00e+00	0	41	0	355467264	46	6156
2026-01-23 01:08:53.35	123.05	8.52	-36.9	-37.6	23.5	0.00e+00	0	41	0	361758720	46	6148
2026-01-23 01:08:54.36	123.00	8.60	-36.8	-37.5	23.7	0.00e+00	0	41	0	367001600	46	6058
2026-01-23 01:08:55.37	122.95	8.68	-36.8	-37.5	23.7	0.00e+00	0	41	0	373293056	46	6070
2026-01-23 01:08:56.38	122.90	8.76	-36.9	-37.6	23.4	0.00e+00	0	41	0	378535936	46	6171
2026-01-23 01:08:57.39	122.85	8.84	-36.9	-37.6	23.6	0.00e+00	0	41	0	384827392	46	6131
2026-01-23 01:08:58.39	122.79	8.92	-36.9	-37.6	23.5	0.00e+00	0	41	0	390070272	46	6134
2026-01-23 01:08:59.41	122.74	9.00	-36.5	-37.2	23.8	0.00e+00	0	41	0	395313152	46	5868
2026-01-23 01:09:00.42	122.69	9.08	-36.9	-37.6	23.6	0.00e+00	0	41	0	401604608	46	6127
2026-01-23 01:09:01.43	122.63	9.17	-36.3	-37.0	24.1	0.00e+00	0	41	0	406847488	46	5759
2026-01-23 01:09:02.44	122.58	9.25	-36.8	-37.5	23.6	0.00e+00	0	41	0	413138944	46	6087
2026-01-23 01:09:03.45	122.53	9.33	-36.5	-37.3	23.9	0.00e+00	0	41	0	418381824	46	5912
2026-01-23 01:09:04.46	122.47	9.41	-36.6	-37.3	23.8	0.00e+00	0	41	0	423624704	46	5932
2026-01-23 01:09:05.47	122.42	9.49	-36.5	-37.2	23.9	0.00e+00	0	41	0	429916160	46	5850
2026-01-23 01:09:06.48	122.36	9.57	-36.6	-37.3	23.8	0.00e+00	0	41	0	435159040	46	5932
2026-01-23 01:09:07.49	122.30	9.66	-36.6	-37.3	23.8	0.00e+00	0	41	0	441450496	46	5960
2026-01-23 01:09:08.50	122.25	9.74	-36.5	-37.2	23.9	0.00e+00	0	41	0	446693376	46	5871
2026-01-23 01:09:09.50	122.19	9.82	-36.6	-37.3	23.7	0.00e+00	0	41	0	451936256	46	5961
2026-01-23 01:09:10.52	122.14	9.91	-36.3	-37.0	24.1	0.00e+00	0	41	0	458227712	46	5742
2026-01-23 01:09:11.52	122.08	9.99	-36.5	-37.2	23.9	0.00e+00	0	41	0	463470592	46	5844
2026-01-23 01:09:12.54	122.02	10.07	-36.5	-37.2	24.0	0.00e+00	0	41	0	469762048	46	5855
2026-01-23 01:09:13.55	121.96	10.16	-36.5	-37.3	23.9	0.00e+00	0	41	0	475004928	46	5897
2026-01-23 01:09:14.56	121.91	10.24	-36.3	-37.0	24.2	0.00e+00	0	41	0	481296384	46	5718
2026-01-23 01:09:15.57	121.85	10.33	-36.3	-37.0	24.2	0.00e+00	0	41	0	486539264	46	5728
2026-01-23 01:09:16.58	121.79	10.41	-36.4	-37.1	24.1	0.00e+00	0	41	0	492830720	46	5800
2026-01-23 01:09:17.59	121.73	10.50	-36.3	-37.0	24.1	0.00e+00	0	41	0	498073600	46	5750
2026-01-23 01:09:18.60	121.67	10.58	-36.3	-37.0	24.1	0.00e+00	0	41	0	503316480	46	5720
2026-01-23 01:09:19.61	121.61	10.67	-36.4	-37.1	24.0	0.00e+00	0	41	0	509607936	46	5808
2026-01-23 01:09:20.62	121.55	10.75	-36.2	-36.9	24.3	0.00e+00	0	41	0	514850816	46	5664
2026-01-23 01:09:21.63	121.49	10.84	-36.2	-36.9	24.2	0.00e+00	0	41	0	521142272	46	5676
2026-01-23 01:09:22.64	121.43	10.92	-36.4	-37.1	24.1	0.00e+00	0	41	0	526385152	46	5813
2026-01-23 01:09:23.65	121.37	11.01	-36.3	-37.0	24.1	0.00e+00	0	41	0	531628032	46	5717
2026-01-23 01:09:24.66	121.31	11.10	-36.3	-37.0	24.2	0.00e+00	0	41	0	537919488	46	5747
2026-01-23 01:09:25.67	121.24	11.19	-36.3	-37.0	24.2	0.00e+00	0	41	0	543162368	46	5698
2026-01-23 01:09:26.68	121.18	11.27	-36.4	-37.1	24.1	0.00e+00	0	41	0	549453824	46	5772
2026-01-23 01:09:27.69	121.12	11.36	-36.4	-37.1	24.1	0.00e+00	0	41	0	554696704	46	5793
2026-01-23 01:09:28.70	121.06	11.45	-36.4	-37.1	24.1	0.00e+00	0	41	0	559939584	46	5793
2026-01-23 01:09:29.71	120.99	11.54	-36.6	-37.4	23.9	0.00e+00	0	41	0	566231040	46	5970
2026-01-23 01:09:30.72	120.93	11.63	-36.2	-36.9	24.2	0.00e+00	0	41	0	571473920	46	5682
2026-01-23 01:09:31.73	120.86	11.71	-36.2	-36.9	24.2	0.00e+00	0	41	0	577765376	46	5644
2026-01-23 01:09:32.73	120.80	11.80	-36.2	-37.0	24.3	0.00e+00	0	41	0	583008256	46	5696
2026-01-23 01:09:33.74	120.73	11.89	-36.1	-36.8	24.4	0.00e+00	0	41	0	589299712	46	5587
2026-01-23 01:09:34.75	120.67	11.98	-36.0	-36.7	24.6	0.00e+00	0	41	0	594542592	46	5521
2026-01-23 01:09:35.77	120.60	12.07	-35.8	-36.5	24.1	0.00e+00	0	41	0	600834048	46	5396
2026-01-23 01:09:36.78	120.54	12.16	-35.7	-36.4	24.7	0.00e+00	0	41	0	606076928	44	5980
2026-01-23 01:09:37.78	120.47	12.25	-35.7	-36.4	24.8	0.00e+00	0	41	0	611319808	44	5986
2026-01-23 01:09:38.79	120.40	12.34	-35.6	-36.3	24.8	0.00e+00	0	41	0	617611264	44	5912
2026-01-23 01:09:39.80	120.33	12.43	-35.5	-36.2	25.0	0.00e+00	0	41	0	622854144	44	5835
2026-01-23 01:09:40.81	120.27	12.53	-35.5	-36.2	24.9	0.00e+00	0	41	0	629145600	44	5880
2026-01-23 01:09:41.82	120.20	12.62	-35.5	-36.2	24.9	0.00e+00	0	41	0	634388480	44	5839
2026-01-23 01:09:42.83	120.13	12.71	-35.4	-36.1	25.0	0.00e+00	0	41	0	639631360	44	5779
2026-01-23 01:09:43.84	120.06	12.80	-35.5	-36.2	24.9	0.00e+00	0	41	0	645922816	44	5837
2026-01-23 01:09:44.85	119.99	12.90	-35.4	-36.1	25.0	0.00e+00	0	41	0	651165696	44	5777
2026-01-23 01:09:45.86	119.92	12.99	-35.3	-36.0	25.1	0.00e+00	0	41	0	656408576	44	5742
2026-01-23 01:09:46.87	119.85	13.08	-35.3	-36.0	25.2	0.00e+00	0	41	0	662700032	44	5742
2026-01-23 01:09:47.88	119.77	13.18	-35.2	-35.9	25.3	0.00e+00	0	41	0	667942912	44	5667
2026-01-23 01:09:48.89	119.70	13.27	-35.3	-35.9	25.2	0.00e+00	0	41	0	674234368	44	5693
2026-01-23 01:09:49.90	119.63	13.36	-35.3	-36.0	25.1	0.00e+00	0	41	0	679477248	44	5726
2026-01-23 01:09:50.91	119.56	13.46	-35.3	-36.0	25.2	0.00e+00	0	41	0	685768704	44	5713
2026-01-23 01:09:51.92	119.48	13.55	-35.3	-36.0	25.2	0.00e+00	0	41	0	691011584	44	5696
2026-01-23 01:09:52.93	119.41	13.65	-35.3	-35.9	25.1	0.00e+00	0	41	0	697303040	44	5692
2026-01-23 01:09:53.93	119.34	13.74	-35.4	-36.0	25.2	0.00e+00	0	41	0	702545920	44	5751
2026-01-23 01:09:54.94	119.26	13.84	-35.4	-36.1	25.0	0.00e+00	0	41	0	707788800	44	5782
2026-01-23 01:09:55.95	119.19	13.93	-35.2	-35.9	25.2	0.00e+00	0	41	0	714080256	44	5653
2026-01-23 01:09:56.96	119.11	14.03	-35.2	-35.9	25.2	0.00e+00	0	41	0	719323136	44	5665
2026-01-23 01:09:57.97	119.03	14.13	-35.3	-36.0	25.1	0.00e+00	0	41	0	725614592	44	5702
2026-01-23 01:09:58.98	118.96	14.23	-35.0	-35.7	25.3	0.00e+00	0	41	0	730857472	44	5524
2026-01-23 01:09:59.99	118.88	14.32	-35.0	-35.7	25.4	0.00e+00	0	41	0	736100352	44	5518
2026-01-23 01:10:01.00	118.80	14.42	-35.1	-35.8	25.2	0.00e+00	0	41	0	742391808	44	5579
2026-01-23 01:10:02.01	118.72	14.52	-34.9	-35.6	25.5	0.00e+00	0	41	0	747634688	44	5476
2026-01-23 01:10:03.02	118.64	14.62	-34.9	-35.5	25.5	0.00e+00	0	41	0	753926144	44	5427
2026-01-23 01:10:04.02	118.57	14.72	-35.0	-35.6	25.5	0.00e+00	0	41	0	759169024	44	5493
2026-01-23 01:10:05.03	118.49	14.82	-34.8	-35.5	25.6	0.00e+00	0	41	0	764411904	44	5402
2026-01-23 01:10:06.04	118.41	14.91	-34.8	-35.5	25.6	0.00e+00	0	41	0	770703360	44	5419
2026-01-23 01:10:07.05	118.32	15.01	-34.8	-35.5	25.6	0.00e+00	0	41	0	775946240	44	5402
2026-01-23 01:10:08.06	118.24	15.12	-34.8	-35.4	25.6	0.00e+00	0	41	0	782237696	44	5365
2026-01-23 01:10:09.07	118.16	15.22	-34.8	-35.4	25.6	0.00e+00	0	41	0	787480576	44	5374
2026-01-23 01:10:10.08	118.08	15.32	-34.8	-35.5	25.7	0.00e+00	0	41	0	793772032	42	6039
2026-01-23 01:10:11.09	117.99	15.42	-34.7	-35.3	25.7	0.00e+00	0	41	0	799014912	42	5948
2026-01-23 01:10:12.10	117.91	15.52	-34.7	-35.4	25.8	0.00e+00	0	41	0	804257792	42	5973
2026-01-23 01:10:13.11	117.82	15.62	-34.7	-35.3	25.8	0.00e+00	0	41	0	810549248	42	5935
2026-01-23 01:10:14.12	117.74	15.72	-34.8	-35.5	25.7	0.00e+00	0	41	0	815792128	42	6037
2026-01-23 01:10:15.13	117.65	15.83	-34.7	-35.4	25.7	0.00e+00	0	41	0	822083584	42	5989
2026-01-23 01:10:16.14	117.57	15.93	-34.6	-35.3	25.8	0.00e+00	0	41	0	827326464	42	5925
2026-01-23 01:10:17.15	117.48	16.03	-34.6	-35.2	25.8	0.00e+00	0	41	0	832569344	42	5864
2026-01-23 01:10:18.16	117.39	16.14	-34.6	-35.3	25.8	0.00e+00	0	41	0	838860800	42	5898
2026-01-23 01:10:19.17	117.30	16.24	-34.6	-35.3	25.8	0.00e+00	0	41	0	844103680	42	5923
2026-01-23 01:10:20.18	117.21	16.35	-34.6	-35.2	25.9	0.00e+00	0	41	0	850395136	42	5876
2026-01-23 01:10:21.19	117.12	16.45	-34.4	-35.0	26.0	0.00e+00	0	41	0	855638016	42	5749
2026-01-23 01:10:22.20	117.03	16.56	-34.4	-35.0	26.1	0.00e+00	0	41	0	860880896	42	5742
2026-01-23 01:10:23.21	116.94	16.66	-34.3	-34.9	26.1	0.00e+00	0	41	0	867172352	42	5695
2026-01-23 01:10:24.22	116.85	16.77	-34.3	-34.9	26.1	0.00e+00	0	41	0	872415232	42	5678
2026-01-23 01:10:25.23	116.76	16.88	-34.3	-35.0	26.2	0.00e+00	0	41	0	878706688	42	5707
2026-01-23 01:10:26.24	116.67	16.98	-34.3	-34.9	26.1	0.00e+00	0	41	0	883949568	42	5657
2026-01-23 01:10:27.25	116.57	17.09	-34.2	-34.9	26.2	0.00e+00	0	41	0	890241024	42	5653
2026-01-23 01:10:28.26	116.48	17.20	-34.4	-35.0	26.0	0.00e+00	0	41	0	895483904	42	5755
2026-01-23 01:10:29.27	116.38	17.31	-34.4	-35.1	26.0	0.00e+00	0	41	0	901775360	42	5767
2026-01-23 01:10:30.28	116.29	17.42	-34.3	-35.0	26.1	0.00e+00	0	41	0	907018240	42	5699
2026-01-23 01:10:31.29	116.19	17.52	-34.2	-34.9	26.1	0.00e+00	0	41	0	912261120	42	5647
2026-01-23 01:10:32.30	116.09	17.63	-34.3	-35.0	26.1	0.00e+00	0	41	0	918552576	42	5708
2026-01-23 01:10:33.31	116.00	17.74	-34.4	-35.0	26.1	0.00e+00	0	41	0	923795456	42	5743
2026-01-23 01:10:34.32	115.90	17.85	-34.4	-35.1	26.0	0.00e+00	0	41	0	930086912	42	5782
2026-01-23 01:10:35.33	115.80	17.96	-34.2	-34.8	26.3	0.00e+00	0	41	0	935329792	42	5618
2026-01-23 01:10:36.34	115.70	18.07	-34.2	-34.9	26.3	0.00e+00	0	41	0	940572672	42	5654
2026-01-23 01:10:37.35	115.60	18.19	-34.1	-34.8	26.3	0.00e+00	0	41	0	946864128	42	5595
2026-01-23 01:10:38.36	115.49	18.30	-34.1	-34.7	26.4	0.00e+00	0	41	0	952107008	42	5555
2026-01-23 01:10:39.37	115.39	18.41	-34.1	-34.8	26.4	0.00e+00	0	41	0	958398464	42	5585
2026-01-23 01:10:40.38	115.29	18.52	-33.9	-34.6	26.5	0.00e+00	0	41	0	963641344	42	5452
2026-01-23 01:10:41.38	115.19	18.63	-33.8	-34.4	26.6	0.00e+00	0	41	0	968884224	42	5374
2026-01-23 01:10:42.39	115.08	18.75	-33.8	-34.4	26.6	0.00e+00	0	41	0	975175680	40	6011
2026-01-23 01:10:43.40	114.98	18.86	-33.8	-34.4	26.6	0.00e+00	0	41	0	980418560	40	6025
2026-01-23 01:10:44.41	114.87	18.98	-33.8	-34.4	26.6	0.00e+00	0	41	0	986710016	40	6017
2026-01-23 01:10:45.42	114.76	19.09	-33.6	-34.2	26.7	0.00e+00	0	41	0	991952896	40	5863
2026-01-23 01:10:46.43	114.65	19.21	-33.7	-34.3	26.6	0.00e+00	0	41	0	998244352	40	5940
2026-01-23 01:10:47.45	114.54	19.32	-33.6	-34.2	26.7	0.00e+00	0	41	0	1003487232	40	5855
2026-01-23 01:10:48.46	114.43	19.44	-33.5	-34.2	26.8	0.00e+00	0	41	0	1008730112	40	5835
2026-01-23 01:10:49.47	114.32	19.56	-33.7	-34.3	26.7	0.00e+00	0	41	0	1015021568	40	5925
2026-01-23 01:10:50.48	114.21	19.67	-33.7	-34.3	26.7	0.00e+00	0	41	0	1020264448	40	5946
2026-01-23 01:10:51.49	114.10	19.79	-33.7	-34.3	26.6	0.00e+00	0	41	0	1026555904	40	5928
2026-01-23 01:10:52.50	113.99	19.91	-33.7	-34.3	26.7	0.00e+00	0	41	0	1031798784	40	5950
2026-01-23 01:10:53.51	113.87	20.03	-33.7	-34.3	26.8	0.00e+00	0	42	0	1037041664	40	5924
2026-01-23 01:10:54.52	113.76	20.14	-33.7	-34.3	26.8	0.00e+00	0	41	0	1043333120	40	5933
2026-01-23 01:10:55.53	113.64	20.26	-33.7	-34.3	26.7	0.00e+00	0	41	0	1048576000	40	5939
2026-01-23 01:10:56.54	113.52	20.38	-33.7	-34.3	26.7	0.00e+00	0	41	0	1054867456	40	5930
2026-01-23 01:10:57.55	113.41	20.50	-33.6	-34.2	26.8	0.00e+00	0	42	0	1060110336	40	5895
2026-01-23 01:10:58.56	113.29	20.62	-33.5	-34.1	26.8	0.00e+00	0	41	0	1065353216	40	5815
2026-01-23 01:10:59.56	113.17	20.74	-33.5	-34.1	26.8	0.00e+00	0	42	0	1071644672	40	5813
2026-01-23 01:11:00.57	113.05	20.86	-33.3	-34.0	27.1	0.00e+00	0	42	0	1076887552	40	5704
2026-01-23 01:11:01.58	112.93	20.99	-33.4	-34.0	26.9	0.00e+00	0	41	0	1083179008	40	5746
2026-01-23 01:11:02.59	112.80	21.11	-33.5	-34.1	26.9	0.00e+00	0	42	0	1088421888	40	5781
2026-01-23 01:11:03.60	112.68	21.23	-33.3	-33.9	27.1	0.00e+00	0	42	0	1094713344	40	5693
2026-01-23 01:11:04.61	112.55	21.35	-33.3	-33.9	27.0	0.00e+00	0	42	0	1099956224	40	5692
2026-01-23 01:11:05.62	112.43	21.48	-33.2	-33.9	27.1	0.00e+00	0	42	0	1106247680	40	5647
2026-01-23 01:11:06.64	112.30	21.60	-33.4	-34.0	27.0	0.00e+00	0	42	0	1111490560	40	5704
2026-01-23 01:11:07.65	112.17	21.73	-33.4	-34.0	27.0	0.00e+00	0	41	0	1116733440	40	5739
2026-01-23 01:11:08.66	112.04	21.85	-33.6	-34.2	26.8	0.00e+00	0	41	0	1123024896	40	5856
2026-01-23 01:11:09.66	111.92	21.98	-33.5	-34.1	26.9	0.00e+00	0	42	0	1128267776	40	5791
2026-01-23 01:11:10.68	111.78	22.10	-33.6	-34.2	26.8	0.00e+00	0	42	0	1134559232	40	5848
2026-01-23 01:11:11.68	111.65	22.23	-33.5	-34.1	26.9	0.00e+00	0	41	0	1139802112	40	5791
2026-01-23 01:11:12.69	111.52	22.35	-33.6	-34.2	26.9	0.00e+00	0	41	0	1145044992	40	5859
2026-01-23 01:11:13.70	111.39	22.48	-33.5	-34.1	26.9	0.00e+00	0	42	0	1151336448	40	5808
2026-01-23 01:11:14.71	111.25	22.61	-33.5	-34.1	26.9	0.00e+00	0	42	0	1156579328	40	5804
2026-01-23 01:11:15.72	111.11	22.74	-33.4	-34.0	27.0	0.00e+00	0	42	0	1162870784	40	5747
2026-01-23 01:11:16.73	110.98	22.87	-33.3	-33.9	27.0	0.00e+00	0	41	0	1168113664	40	5687
2026-01-23 01:11:17.74	110.84	22.99	-33.1	-33.7	27.2	0.00e+00	0	42	0	1173356544	40	5554
2026-01-23 01:11:18.75	110.70	23.12	-33.1	-33.7	27.2	0.00e+00	0	41	0	1179648000	40	5532
2026-01-23 01:11:19.76	110.56	23.25	-32.9	-33.5	27.4	0.00e+00	0	41	0	1184890880	40	5419
2026-01-23 01:11:20.77	110.41	23.38	-33.0	-33.6	27.3	0.00e+00	0	41	0	1191182336	40	5451
2026-01-23 01:11:21.78	110.27	23.52	-32.8	-33.4	27.5	0.00e+00	0	41	0	1196425216	40	5376
2026-01-23 01:11:22.79	110.12	23.65	-32.8	-33.4	27.4	0.00e+00	0	42	0	1202716672	40	5376
2026-01-23 01:11:23.80	109.98	23.78	-32.8	-33.5	27.5	0.00e+00	0	41	0	1207959552	40	5380
2026-01-23 01:11:24.81	109.83	23.91	-32.9	-33.5	27.4	0.00e+00	0	41	0	1213202432	40	5433
2026-01-23 01:11:25.82	109.68	24.04	-33.0	-33.6	27.4	0.00e+00	0	41	0	1219493888	40	5469
2026-01-23 01:11:26.83	109.53	24.18	-33.0	-33.6	27.3	0.00e+00	0	41	0	1224736768	40	5493
2026-01-23 01:11:27.84	109.38	24.31	-33.0	-33.7	27.4	0.00e+00	0	42	0	1231028224	40	5519
2026-01-23 01:11:28.85	109.23	24.44	-33.1	-33.8	27.3	0.00e+00	0	41	0	1236271104	40	5567
2026-01-23 01:11:29.86	109.07	24.58	-33.1	-33.7	27.3	0.00e+00	0	41	0	1241513984	40	5561
2026-01-23 01:11:30.87	108.92	24.71	-33.1	-33.7	27.3	0.00e+00	0	42	0	1247805440	40	5536
2026-01-23 01:11:31.88	108.76	24.85	-32.9	-33.6	27.4	0.00e+00	0	41	0	1253048320	40	5445
2026-01-23 01:11:32.89	108.60	24.99	-32.9	-33.5	27.5	0.00e+00	0	42	0	1259339776	40	5434
2026-01-23 01:11:33.90	108.45	25.12	-32.9	-33.5	27.4	0.00e+00	0	41	0	1264582656	40	5397
2026-01-23 01:11:34.91	108.28	25.26	-33.0	-33.6	27.4	0.00e+00	0	41	0	1269825536	40	5492
2026-01-23 01:11:35.92	108.12	25.40	-32.8	-33.4	27.5	0.00e+00	0	41	0	1276116992	38	5978
2026-01-23 01:11:36.92	107.96	25.53	-32.9	-33.5	27.6	0.00e+00	0	41	0	1281359872	38	6060
2026-01-23 01:11:37.94	107.79	25.67	-32.6	-33.2	27.7	0.00e+00	0	41	0	1287651328	38	5883
2026-01-23 01:11:38.95	107.63	25.81	-32.7	-33.3	27.7	0.00e+00	0	41	0	1292894208	38	5911
2026-01-23 01:11:39.95	107.46	25.95	-32.7	-33.3	27.6	0.00e+00	0	41	0	1299185664	38	5961
2026-01-23 01:11:40.96	107.29	26.09	-32.7	-33.3	27.6	0.00e+00	0	42	0	1304428544	38	5956
2026-01-23 01:11:41.97	107.12	26.23	-32.7	-33.3	27.7	0.00e+00	0	41	0	1310720000	38	5938
2026-01-23 01:11:42.98	106.95	26.37	-32.8	-33.4	27.6	0.00e+00	0	41	0	1315962880	38	5996
2026-01-23 01:11:43.99	106.77	26.51	-32.8	-33.4	27.6	0.00e+00	0	41	0	1321205760	38	5985
2026-01-23 01:11:45.00	106.60	26.65	-32.7	-33.3	27.7	0.00e+00	0	41	0	1327497216	38	5919
2026-01-23 01:11:46.01	106.42	26.79	-32.6	-33.2	27.7	0.00e+00	0	41	0	1332740096	38	5864
2026-01-23 01:11:47.02	106.24	26.93	-32.6	-33.2	27.8	0.00e+00	0	41	0	1339031552	38	5862
2026-01-23 01:11:48.03	106.06	27.08	-32.5	-33.1	27.8	0.00e+00	0	41	0	1344274432	38	5802
2026-01-23 01:11:49.04	105.88	27.22	-32.6	-33.2	27.7	0.00e+00	0	41	0	1349517312	38	5857
2026-01-23 01:11:50.05	105.70	27.36	-32.7	-33.3	27.6	0.00e+00	0	42	0	1355808768	38	5913
2026-01-23 01:11:51.06	105.51	27.51	-32.7	-33.3	27.6	0.00e+00	0	42	0	1361051648	38	5931
2026-01-23 01:11:52.07	105.32	27.65	-32.8	-33.4	27.6	0.00e+00	0	41	0	1367343104	38	6032
2026-01-23 01:11:53.08	105.13	27.80	-32.7	-33.3	27.7	0.00e+00	0	41	0	1372585984	38	5916
2026-01-23 01:11:54.09	104.94	27.94	-32.6	-33.2	27.7	0.00e+00	0	42	0	1377828864	38	5864
2026-01-23 01:11:55.09	104.75	28.09	-32.5	-33.1	27.8	0.00e+00	0	42	0	1384120320	38	5786
2026-01-23 01:11:56.11	104.56	28.23	-32.6	-33.2	27.7	0.00e+00	0	41	0	1389363200	38	5862
2026-01-23 01:11:57.12	104.36	28.38	-32.6	-33.2	27.7	0.00e+00	0	41	0	1395654656	38	5862
2026-01-23 01:11:58.13	104.16	28.53	-32.6	-33.2	27.8	0.00e+00	0	41	0	1400897536	38	5884
2026-01-23 01:11:59.14	103.96	28.67	-32.6	-33.2	27.7	0.00e+00	0	42	0	1407188992	38	5872
2026-01-23 01:12:00.15	103.76	28.82	-32.7	-33.3	27.6	0.00e+00	0	41	0	1412431872	38	5941
2026-01-23 01:12:01.16	103.56	28.97	-32.8	-33.4	27.6	0.00e+00	0	41	0	1417674752	38	5988
2026-01-23 01:12:02.17	103.35	29.12	-32.8	-33.5	27.6	0.00e+00	0	41	0	1423966208	38	6044
2026-01-23 01:12:03.18	103.14	29.27	-32.8	-33.4	27.5	0.00e+00	0	41	0	1429209088	38	6020
2026-01-23 01:12:04.19	102.94	29.42	-32.7	-33.3	27.7	0.00e+00	0	41	0	1435500544	38	5947
2026-01-23 01:12:05.20	102.72	29.56	-32.7	-33.3	27.6	0.00e+00	0	42	0	1440743424	38	5924
2026-01-23 01:12:06.21	102.51	29.71	-32.6	-33.2	27.7	0.00e+00	0	41	0	1445986304	38	5896
2026-01-23 01:12:07.22	102.30	29.86	-32.5	-33.1	27.9	0.00e+00	0	41	0	1452277760	38	5767
2026-01-23 01:12:08.22	102.08	30.01	-32.2	-32.8	28.1	0.00e+00	0	42	0	1457520640	38	5591
2026-01-23 01:12:09.23	101.86	30.16	-32.3	-32.9	27.9	0.00e+00	0	42	0	1463812096	38	5664
2026-01-23 01:12:10.24	101.64	30.31	-32.4	-33.0	28.0	0.00e+00	0	42	0	1469054976	38	5711
2026-01-23 01:12:11.25	101.42	30.47	-32.5	-33.1	27.8	0.00e+00	0	42	0	1474297856	38	5772
2026-01-23 01:12:12.26	101.19	30.62	-32.5	-33.1	27.8	0.00e+00	0	42	0	1480589312	38	5821
2026-01-23 01:12:13.27	100.96	30.77	-32.5	-33.1	27.8	0.00e+00	0	42	0	1485832192	38	5824
2026-01-23 01:12:14.28	100.73	30.92	-32.6	-33.3	27.7	0.00e+00	0	42	0	1492123648	38	5914
2026-01-23 01:12:15.29	100.50	31.07	-32.6	-33.3	27.7	0.00e+00	0	42	0	1497366528	38	5911
2026-01-23 01:12:16.30	100.27	31.23	-32.5	-33.2	27.7	0.00e+00	0	41	0	1503657984	38	5830
2026-01-23 01:12:17.31	100.03	31.38	-32.4	-33.0	27.8	0.00e+00	0	41	0	1508900864	38	5716
2026-01-23 01:12:18.32	99.79	31.53	-32.4	-33.0	27.9	0.00e+00	0	41	0	1515192320	38	5715
2026-01-23 01:12:19.33	99.55	31.69	-32.2	-32.8	28.0	0.00e+00	0	42	0	1520435200	38	5624
2026-01-23 01:12:20.34	99.31	31.84	-32.2	-32.8	28.0	0.00e+00	0	42	0	1525678080	38	5629
2026-01-23 01:12:21.35	99.06	31.99	-32.2	-32.8	28.0	0.00e+00	0	42	0	1531969536	38	5621
2026-01-23 01:12:22.36	98.81	32.15	-32.2	-32.8	28.1	0.00e+00	0	42	0	1537212416	38	5609
2026-01-23 01:12:23.37	98.56	32.30	-32.3	-32.9	28.0	0.00e+00	0	42	0	1543503872	38	5663
2026-01-23 01:12:24.38	98.31	32.46	-32.2	-32.8	28.1	0.00e+00	0	42	0	1548746752	38	5594
2026-01-23 01:12:25.39	98.05	32.61	-32.2	-32.8	28.0	0.00e+00	0	42	0	1553989632	38	5628
2026-01-23 01:12:26.40	97.80	32.76	-32.1	-32.7	28.2	0.00e+00	0	42	0	1560281088	38	5524
2026-01-23 01:12:27.41	97.54	32.92	-32.1	-32.7	28.2	0.00e+00	0	41	0	1565523968	38	5544
2026-01-23 01:12:28.42	97.27	33.07	-32.1	-32.7	28.2	0.00e+00	0	41	0	1571815424	38	5527
2026-01-23 01:12:29.43	97.01	33.23	-32.2	-32.8	28.1	0.00e+00	0	42	0	1577058304	38	5595
2026-01-23 01:12:30.44	96.74	33.38	-32.3	-32.9	27.9	0.00e+00	0	42	0	1582301184	38	5648
2026-01-23 01:12:31.45	96.47	33.54	-32.4	-33.0	27.9	0.00e+00	0	42	0	1588592640	38	5739
2026-01-23 01:12:32.46	96.20	33.69	-32.6	-33.2	27.8	0.00e+00	0	42	0	1593835520	38	5892
2026-01-23 01:12:33.47	95.92	33.85	-32.4	-33.0	27.9	0.00e+00	0	42	0	1600126976	38	5759
2026-01-23 01:12:34.48	95.64	34.00	-32.3	-32.9	27.9	0.00e+00	0	42	0	1605369856	38	5676
2026-01-23 01:12:35.49	95.36	34.16	-32.3	-32.9	28.0	0.00e+00	0	41	0	1611661312	38	5659
2026-01-23 01:12:36.50	95.08	34.31	-32.0	-32.6	28.2	0.00e+00	0	41	0	1616904192	38	5496
2026-01-23 01:12:37.51	94.79	34.47	-32.1	-32.7	28.1	0.00e+00	0	41	0	1622147072	38	5548
2026-01-23 01:12:38.52	94.50	34.62	-32.0	-32.6	28.2	0.00e+00	0	41	0	1628438528	38	5490
2026-01-23 01:12:39.53	94.21	34.78	-32.0	-32.6	28.2	0.00e+00	0	41	0	1633681408	38	5494
2026-01-23 01:12:40.54	93.91	34.93	-32.1	-32.7	28.2	0.00e+00	0	42	0	1639972864	38	5529
2026-01-23 01:12:41.55	93.62	35.09	-32.1	-32.7	28.1	0.00e+00	0	41	0	1645215744	38	5521
2026-01-23 01:12:42.56	93.32	35.24	-32.0	-32.6	28.1	0.00e+00	0	41	0	1651507200	38	5496
2026-01-23 01:12:43.57	93.01	35.40	-32.0	-32.6	28.2	0.00e+00	0	42	0	1656750080	38	5464
2026-01-23 01:12:44.58	92.71	35.55	-32.0	-32.6	28.2	0.00e+00	0	41	0	1661992960	38	5492
2026-01-23 01:12:45.59	92.40	35.71	-32.0	-32.6	28.2	0.00e+00	0	42	0	1668284416	38	5500
2026-01-23 01:12:46.60	92.08	35.86	-32.1	-32.7	28.1	0.00e+00	0	42	0	1673527296	38	5556
2026-01-23 01:12:47.61	91.77	36.01	-32.3	-32.9	28.0	0.00e+00	0	41	0	1679818752	38	5650
2026-01-23 01:12:48.62	91.45	36.17	-32.4	-33.0	28.0	0.00e+00	0	41	0	1685061632	38	5704
2026-01-23 01:12:49.63	91.13	36.32	-32.3	-32.9	28.0	0.00e+00	0	42	0	1690304512	38	5653
2026-01-23 01:12:50.64	90.81	36.47	-32.1	-32.7	28.3	0.00e+00	0	42	0	1696595968	38	5509
2026-01-23 01:12:51.65	90.48	36.62	-32.3	-32.9	28.1	0.00e+00	0	42	0	1701838848	38	5652
2026-01-23 01:12:52.66	90.15	36.78	-32.4	-32.9	28.0	0.00e+00	0	41	0	1708130304	38	5695
2026-01-23 01:12:53.67	89.81	36.93	-32.5	-33.2	27.8	0.00e+00	0	41	0	1713373184	38	5839
2026-01-23 01:12:54.68	89.48	37.08	-32.7	-33.3	27.6	0.00e+00	0	41	0	1719664640	38	5947
2026-01-23 01:12:55.69	89.14	37.23	-32.8	-33.5	27.6	0.00e+00	0	42	0	1724907520	38	6041
2026-01-23 01:12:56.70	88.79	37.38	-32.7	-33.2	27.7	0.00e+00	0	42	0	1730150400	38	5896
2026-01-23 01:12:57.71	88.45	37.53	-32.6	-33.3	27.7	0.00e+00	0	42	0	1736441856	38	5898
2026-01-23 01:12:58.72	88.10	37.68	-32.3	-32.9	28.0	0.00e+00	0	42	0	1741684736	38	5670
2026-01-23 01:12:59.73	87.75	37.83	-32.3	-32.9	27.8	0.00e+00	0	41	0	1747976192	38	5693
2026-01-23 01:13:00.74	87.39	37.98	-32.5	-33.1	27.8	0.00e+00	0	42	0	1753219072	38	5794
2026-01-23 01:13:01.75	87.03	38.12	-32.6	-33.2	27.7	0.00e+00	0	41	0	1758461952	38	5894
2026-01-23 01:13:02.76	86.67	38.27	-32.4	-33.0	27.9	0.00e+00	0	42	0	1764753408	38	5713
2026-01-23 01:13:03.77	86.30	38.42	-32.3	-32.9	27.8	0.00e+00	0	42	0	1769996288	38	5694
2026-01-23 01:13:04.78	85.93	38.56	-32.2	-32.8	28.1	0.00e+00	0	42	0	1776287744	38	5591
2026-01-23 01:13:05.79	85.56	38.71	-32.3	-32.9	28.1	0.00e+00	0	41	0	1781530624	38	5633
2026-01-23 01:13:06.80	85.19	38.85	-32.5	-33.1	27.9	0.00e+00	0	41	0	1786773504	38	5814
2026-01-23 01:13:07.81	84.81	38.99	-32.6	-33.2	27.9	0.00e+00	0	41	0	1793064960	38	5850
2026-01-23 01:13:08.81	84.43	39.13	-32.5	-33.1	27.8	0.00e+00	0	41	0	1798307840	38	5824
2026-01-23 01:13:09.82	84.04	39.27	-32.5	-33.1	27.9	0.00e+00	0	41	0	1804599296	38	5822
2026-01-23 01:13:10.83	83.65	39.41	-32.1	-32.7	28.1	0.00e+00	0	42	0	1809842176	38	5546
2026-01-23 01:13:11.84	83.26	39.55	-32.0	-32.6	28.4	0.00e+00	0	41	0	1816133632	38	5454
2026-01-23 01:13:12.85	82.87	39.69	-32.0	-32.6	28.2	0.00e+00	0	42	0	1821376512	38	5454
2026-01-23 01:13:13.86	82.47	39.83	-32.2	-32.8	28.1	0.00e+00	0	42	0	1827667968	38	5606
2026-01-23 01:13:14.87	82.07	39.97	-32.3	-33.0	27.9	0.00e+00	0	41	0	1832910848	38	5698
2026-01-23 01:13:15.88	81.66	40.10	-32.2	-32.8	28.0	0.00e+00	0	41	0	1838153728	38	5624
2026-01-23 01:13:16.89	81.25	40.24	-32.2	-32.8	28.1	0.00e+00	0	41	0	1844445184	38	5609
2026-01-23 01:13:17.90	80.84	40.37	-32.0	-32.7	28.2	0.00e+00	0	41	0	1849688064	38	5505
2026-01-23 01:13:18.91	80.42	40.50	-32.2	-32.8	28.2	0.00e+00	0	41	0	1855979520	38	5574
2026-01-23 01:13:19.92	80.00	40.63	-32.4	-33.0	27.8	0.00e+00	0	41	0	1861222400	38	5740
2026-01-23 01:13:20.93	79.58	40.76	-32.4	-33.0	28.0	0.00e+00	0	41	0	1866465280	38	5732
2026-01-23 01:13:21.94	79.15	40.89	-32.3	-32.9	28.0	0.00e+00	0	41	0	1872756736	38	5691
2026-01-23 01:13:22.95	78.72	41.01	-32.3	-32.9	28.1	0.00e+00	0	41	0	1877999616	38	5656
2026-01-23 01:13:23.96	78.29	41.14	-32.2	-32.8	28.1	0.00e+00	0	41	0	1884291072	38	5608
2026-01-23 01:13:24.98	77.85	41.26	-32.1	-32.8	28.1	0.00e+00	0	41	0	1889533952	38	5596
2026-01-23 01:13:25.99	77.41	41.38	-32.2	-32.8	28.2	0.00e+00	0	41	0	1894776832	38	5581
2026-01-23 01:13:27.00	76.97	41.51	-32.2	-32.8	28.2	0.00e+00	0	41	0	1901068288	38	5622
2026-01-23 01:13:28.01	76.52	41.62	-32.2	-32.8	28.1	0.00e+00	0	41	0	1906311168	38	5614
2026-01-23 01:13:29.02	76.07	41.74	-31.9	-32.5	28.3	0.00e+00	0	41	0	1912602624	38	5422
2026-01-23 01:13:30.03	75.62	41.86	-32.0	-32.6	28.4	0.00e+00	0	41	0	1917845504	38	5476
2026-01-23 01:13:31.03	75.17	41.97	-31.9	-32.5	28.4	0.00e+00	0	41	0	1924136960	38	5392
2026-01-23 01:13:32.04	74.71	42.08	-32.0	-32.6	28.3	0.00e+00	0	41	0	1929379840	38	5501
2026-01-23 01:13:33.05	74.24	42.19	-32.0	-32.6	28.3	0.00e+00	0	41	0	1934622720	38	5475
2026-01-23 01:13:34.06	73.78	42.30	-32.0	-32.6	28.4	0.00e+00	0	42	0	1940914176	38	5447
2026-01-23 01:13:35.07	73.31	42.41	-32.1	-32.7	28.3	0.00e+00	0	41	0	1946157056	38	5521
2026-01-23 01:13:36.08	72.84	42.51	-32.2	-32.8	28.1	0.00e+00	0	41	0	1952448512	38	5613
2026-01-23 01:13:37.09	72.36	42.62	-32.1	-32.7	28.2	0.00e+00	0	41	0	1957691392	38	5553
2026-01-23 01:13:38.10	71.89	42.72	-32.0	-32.6	28.4	0.00e+00	0	41	0	1962934272	38	5449
2026-01-23 01:13:39.11	71.40	42.82	-32.0	-32.5	28.3	0.00e+00	0	41	0	1969225728	38	5435
2026-01-23 01:13:40.12	70.92	42.91	-32.0	-32.6	28.3	0.00e+00	0	41	0	1974468608	38	5479
2026-01-23 01:13:41.13	70.43	43.01	-31.9	-32.5	28.4	0.00e+00	0	41	0	1980760064	38	5411
2026-01-23 01:13:42.15	69.94	43.10	-31.6	-32.2	28.6	0.00e+00	0	41	0	1986002944	36	5887
2026-01-23 01:13:43.15	69.45	43.19	-31.7	-32.3	28.5	0.00e+00	0	41	0	1991245824	36	5942
2026-01-23 01:13:44.16	68.96	43.28	-31.8	-32.4	28.4	0.00e+00	0	41	0	1997537280	36	5998
2026-01-23 01:13:45.17	68.46	43.37	-31.9	-32.5	28.4	0.00e+00	0	41	0	2002780160	36	6072
2026-01-23 01:13:46.18	67.96	43.45	-31.8	-32.4	28.5	0.00e+00	0	41	0	2009071616	36	6010
2026-01-23 01:13:47.19	67.45	43.53	-32.0	-32.6	28.3	0.00e+00	0	41	0	2014314496	36	6169
2026-01-23 01:13:48.20	66.95	43.61	-32.0	-32.6	28.3	0.00e+00	0	41	0	2020605952	36	6135
2026-01-23 01:13:49.22	66.43	43.69	-31.9	-32.5	28.4	0.00e+00	0	41	0	2025848832	36	6075
2026-01-23 01:13:50.22	65.93	43.76	-31.9	-32.6	28.3	0.00e+00	0	41	0	2032140288	36	6123
2026-01-23 01:13:51.23	65.42	43.84	-31.7	-32.3	28.5	0.00e+00	0	41	0	2037383168	36	5928
2026-01-23 01:13:52.24	64.90	43.91	-31.9	-32.5	28.4	0.00e+00	0	41	0	2042626048	36	6064
2026-01-23 01:13:53.25	64.38	43.97	-32.0	-32.5	28.3	0.00e+00	0	41	0	2048917504	36	6103
2026-01-23 01:13:54.26	63.86	44.04	-32.0	-32.6	28.3	0.00e+00	0	41	0	2054160384	36	6163
2026-01-23 01:13:55.27	63.34	44.10	-31.9	-32.5	28.2	0.00e+00	0	41	0	2060451840	36	6067
2026-01-23 01:13:56.28	62.82	44.16	-31.9	-32.5	28.4	0.00e+00	0	41	0	2065694720	36	6061
2026-01-23 01:13:57.29	62.29	44.22	-32.0	-32.6	28.3	0.00e+00	0	41	0	2070937600	36	6168
2026-01-23 01:13:58.30	61.76	44.27	-31.9	-32.5	28.4	0.00e+00	0	41	0	2077229056	36	6048
2026-01-23 01:13:59.31	61.24	44.32	-31.8	-32.4	28.5	0.00e+00	0	41	0	2082471936	36	5990
2026-01-23 01:14:00.32	60.70	44.37	-31.9	-32.4	28.3	0.00e+00	0	41	0	2088763392	36	6018
2026-01-23 01:14:01.33	60.17	44.42	-32.0	-32.6	28.4	0.00e+00	0	41	0	2094006272	36	6129
2026-01-23 01:14:02.34	59.64	44.46	-31.7	-32.4	28.5	0.00e+00	0	41	0	2099249152	36	5968
2026-01-23 01:14:03.35	59.10	44.50	-31.7	-32.3	28.6	0.00e+00	0	41	0	2105540608	36	5911
2026-01-23 01:14:04.36	58.57	44.54	-31.6	-32.2	28.5	0.00e+00	0	41	0	2110783488	36	5847
2026-01-23 01:14:05.37	58.03	44.58	-31.7	-32.3	28.5	0.00e+00	0	41	0	2117074944	36	5905
2026-01-23 01:14:06.38	57.49	44.61	-31.8	-32.4	28.5	0.00e+00	0	41	0	2122317824	36	5996
2026-01-23 01:14:07.39	56.95	44.64	-31.9	-32.5	28.3	0.00e+00	0	41	0	2128609280	36	6077
2026-01-23 01:14:08.40	56.41	44.67	-32.0	-32.6	28.3	0.00e+00	0	41	0	2133852160	36	6125
2026-01-23 01:14:09.41	55.86	44.69	-32.0	-32.6	28.3	0.00e+00	0	41	0	2139095040	36	6131
2026-01-23 01:14:10.42	55.32	44.71	-31.8	-32.4	28.4	0.00e+00	0	41	0	2145386496	36	6004
2026-01-23 01:14:11.43	54.78	44.73	-31.8	-32.4	28.4	0.00e+00	0	41	0	2150629376	36	5995
2026-01-23 01:14:12.44	54.23	44.75	-31.7	-32.3	28.5	0.00e+00	0	41	0	2156920832	36	5929
2026-01-23 01:14:13.45	53.69	44.76	-31.8	-32.3	28.3	0.00e+00	0	41	0	2162163712	36	5962
2026-01-23 01:14:14.46	53.14	44.77	-31.7	-32.2	28.4	0.00e+00	0	41	0	2167406592	36	5891
2026-01-23 01:14:15.47	52.60	44.78	-31.8	-32.4	28.3	0.00e+00	0	41	0	2173698048	36	5999
2026-01-23 01:14:16.48	52.05	44.78	-31.9	-32.5	28.3	0.00e+00	0	41	0	2178940928	36	6061
2026-01-23 01:14:17.49	51.51	44.78	-31.6	-32.3	28.5	0.00e+00	0	41	0	2185232384	36	5897
2026-01-23 01:14:18.50	50.96	44.78	-31.8	-32.3	28.5	0.00e+00	0	41	0	2190475264	36	5962
2026-01-23 01:14:19.51	50.42	44.78	-31.7	-32.3	28.5	0.00e+00	0	41	0	2195718144	36	5931
2026-01-23 01:14:20.52	49.87	44.77	-31.9	-32.6	28.2	0.00e+00	0	41	0	2202009600	36	6114
2026-01-23 01:14:21.53	49.33	44.76	-31.6	-32.2	28.5	0.00e+00	0	41	0	2207252480	36	5832
2026-01-23 01:14:22.54	48.78	44.74	-31.3	-31.9	28.8	0.00e+00	0	41	0	2213543936	36	5646
2026-01-23 01:14:23.54	48.24	44.73	-31.2	-31.8	28.7	0.00e+00	0	41	0	2218786816	36	5629
2026-01-23 01:14:24.55	47.70	44.71	-31.4	-32.0	28.6	0.00e+00	0	41	0	2225078272	36	5716
2026-01-23 01:14:25.56	47.16	44.69	-31.4	-32.1	28.5	0.00e+00	0	41	0	2230321152	36	5776
2026-01-23 01:14:26.57	46.62	44.66	-31.6	-32.2	28.3	0.00e+00	0	41	0	2236612608	36	5872
2026-01-23 01:14:27.58	46.08	44.64	-32.0	-32.5	28.3	0.00e+00	0	41	0	2241855488	36	6095
2026-01-23 01:14:28.59	45.54	44.60	-32.0	-32.6	28.3	0.00e+00	0	41	0	2247098368	36	6114
2026-01-23 01:14:29.60	45.00	44.57	-31.7	-32.3	28.4	0.00e+00	0	41	0	2253389824	36	5947
2026-01-23 01:14:30.61	44.46	44.54	-31.6	-32.2	28.6	0.00e+00	0	41	0	2258632704	36	5855
2026-01-23 01:14:31.62	43.92	44.50	-31.7	-32.3	28.6	0.00e+00	0	41	0	2264924160	36	5908
2026-01-23 01:14:32.63	43.39	44.46	-31.8	-32.5	28.4	0.00e+00	0	41	0	2270167040	36	6047
2026-01-23 01:14:33.64	42.85	44.41	-31.8	-32.5	28.4	0.00e+00	0	41	0	2275409920	36	6037
2026-01-23 01:14:34.65	42.32	44.36	-31.9	-32.5	28.4	0.00e+00	0	41	0	2281701376	36	6088
2026-01-23 01:14:35.66	41.79	44.31	-31.8	-32.3	28.4	0.00e+00	0	41	0	2286944256	36	5956
2026-01-23 01:14:36.67	41.26	44.26	-31.7	-32.3	28.5	0.00e+00	0	41	0	2293235712	36	5940
2026-01-23 01:14:37.68	40.74	44.21	-31.5	-32.1	28.6	0.00e+00	0	41	0	2298478592	36	5798
2026-01-23 01:14:38.69	40.21	44.15	-31.8	-32.3	28.4	0.00e+00	0	41	0	2303721472	36	5964
2026-01-23 01:14:39.70	39.69	44.09	-31.7	-32.2	28.6	0.00e+00	0	41	0	2310012928	36	5893
2026-01-23 01:14:40.71	39.17	44.03	-31.7	-32.2	28.5	0.00e+00	0	41	0	2315255808	36	5884
2026-01-23 01:14:41.72	38.65	43.96	-31.7	-32.4	28.4	0.00e+00	0	41	0	2321547264	36	5978
2026-01-23 01:14:42.73	38.13	43.89	-31.8	-32.3	28.5	0.00e+00	0	41	0	2326790144	36	5923
2026-01-23 01:14:43.74	37.62	43.82	-31.8	-32.5	28.5	0.00e+00	0	41	0	2333081600	36	6039
2026-01-23 01:14:44.75	37.11	43.75	-31.7	-32.3	28.4	0.00e+00	0	41	0	2338324480	36	5916
2026-01-23 01:14:45.76	36.60	43.68	-31.6	-32.2	28.6	0.00e+00	0	41	0	2344615936	36	5855
2026-01-23 01:14:46.77	36.09	43.60	-31.5	-32.1	28.5	0.00e+00	0	41	0	2349858816	36	5801
2026-01-23 01:14:47.78	35.58	43.52	-31.5	-32.1	28.5	0.00e+00	0	41	0	2355101696	36	5793
2026-01-23 01:14:48.79	35.08	43.44	-31.7	-32.2	28.5	0.00e+00	0	41	0	2361393152	36	5890
2026-01-23 01:14:49.80	34.58	43.35	-31.7	-32.3	28.4	0.00e+00	0	41	0	2366636032	36	5962
2026-01-23 01:14:50.81	34.08	43.27	-31.5	-32.1	28.7	0.00e+00	0	41	0	2372927488	36	5771
2026-01-23 01:14:51.82	33.59	43.18	-31.5	-32.1	28.7	0.00e+00	0	41	0	2378170368	36	5801
2026-01-23 01:14:52.83	33.10	43.09	-31.5	-32.2	28.6	0.00e+00	0	41	0	2383413248	36	5859
2026-01-23 01:14:53.84	32.61	42.99	-31.6	-32.3	28.5	0.00e+00	0	41	0	2389704704	36	5897
2026-01-23 01:14:54.85	32.12	42.90	-31.6	-32.1	28.6	0.00e+00	0	41	0	2394947584	36	5786
2026-01-23 01:14:55.86	31.64	42.80	-31.5	-32.1	28.6	0.00e+00	0	41	0	2401239040	36	5768
2026-01-23 01:14:56.87	31.16	42.70	-31.5	-32.0	28.6	0.00e+00	0	41	0	2406481920	36	5757
2026-01-23 01:14:57.88	30.69	42.60	-31.6	-32.3	28.6	0.00e+00	0	41	0	2411724800	36	5935
2026-01-23 01:14:58.89	30.21	42.50	-31.6	-32.2	28.6	0.00e+00	0	41	0	2418016256	36	5831
2026-01-23 01:14:59.90	29.74	42.39	-31.6	-32.3	28.6	0.00e+00	0	41	0	2423259136	36	5927
2026-01-23 01:15:00.91	29.27	42.28	-31.6	-32.2	28.6	0.00e+00	0	41	0	2429550592	36	5834
2026-01-23 01:15:01.92	28.81	42.18	-31.6	-32.1	28.7	0.00e+00	0	41	0	2434793472	36	5776
2026-01-23 01:15:02.93	28.35	42.06	-31.4	-31.9	28.7	0.00e+00	0	41	0	2441084928	36	5672
2026-01-23 01:15:03.94	27.89	41.95	-31.6	-32.2	28.6	0.00e+00	0	41	0	2446327808	36	5844
2026-01-23 01:15:04.95	27.44	41.84	-31.7	-32.3	28.5	0.00e+00	0	41	0	2451570688	36	5910
2026-01-23 01:15:05.96	26.98	41.72	-31.6	-32.2	28.6	0.00e+00	0	41	0	2457862144	36	5845
2026-01-23 01:15:06.97	26.54	41.61	-31.7	-32.3	28.5	0.00e+00	0	41	0	2463105024	36	5949
2026-01-23 01:15:07.98	26.09	41.49	-31.7	-32.2	28.5	0.00e+00	0	41	0	2469396480	36	5884
2026-01-23 01:15:08.99	25.65	41.37	-31.7	-32.4	28.5	0.00e+00	0	41	0	2474639360	36	5969
2026-01-23 01:15:10.00	25.21	41.24	-31.7	-32.3	28.5	0.00e+00	0	41	0	2479882240	36	5915
2026-01-23 01:15:11.01	24.78	41.12	-31.6	-32.1	28.6	0.00e+00	0	41	0	2486173696	36	5783
2026-01-23 01:15:12.02	24.34	41.00	-31.5	-32.0	28.6	0.00e+00	0	41	0	2491416576	36	5738
2026-01-23 01:15:13.03	23.92	40.87	-31.4	-32.1	28.7	0.00e+00	0	41	0	2497708032	36	5770
2026-01-23 01:15:14.04	23.49	40.74	-31.6	-32.2	28.5	0.00e+00	0	41	0	2502950912	36	5894
2026-01-23 01:15:15.05	23.07	40.61	-31.5	-32.2	28.5	0.00e+00	0	41	0	2508193792	36	5846
2026-01-23 01:15:16.06	22.65	40.48	-31.5	-32.0	28.6	0.00e+00	0	41	0	2514485248	36	5747
2026-01-23 01:15:17.07	22.24	40.35	-31.4	-32.0	28.7	0.00e+00	0	41	0	2519728128	36	5707
2026-01-23 01:15:18.08	21.83	40.22	-31.5	-32.0	28.6	0.00e+00	0	41	0	2526019584	36	5760
2026-01-23 01:15:19.09	21.42	40.08	-31.6	-32.3	28.6	0.00e+00	0	41	0	2531262464	36	5917
2026-01-23 01:15:20.09	21.02	39.95	-31.6	-32.2	28.6	0.00e+00	0	41	0	2537553920	36	5854
2026-01-23 01:15:21.11	20.61	39.81	-31.7	-32.3	28.5	0.00e+00	0	41	0	2542796800	36	5911
2026-01-23 01:15:22.11	20.22	39.68	-31.7	-32.3	28.4	0.00e+00	0	41	0	2549088256	36	5900
2026-01-23 01:15:23.12	19.82	39.54	-31.8	-32.4	28.4	0.00e+00	0	41	0	2554331136	36	6007
2026-01-23 01:15:24.13	19.43	39.40	-32.0	-32.6	28.3	0.00e+00	0	41	0	2559574016	36	6108
2026-01-23 01:15:25.14	19.05	39.26	-31.7	-32.3	28.4	0.00e+00	0	41	0	2565865472	36	5910
2026-01-23 01:15:26.15	18.66	39.12	-31.6	-32.2	28.6	0.00e+00	0	41	0	2571108352	36	5839
2026-01-23 01:15:27.16	18.28	38.98	-31.6	-32.2	28.6	0.00e+00	0	41	0	2576351232	36	5887
2026-01-23 01:15:28.17	17.90	38.83	-31.6	-32.2	28.5	0.00e+00	0	41	0	2582642688	36	5843
2026-01-23 01:15:29.18	17.53	38.69	-31.6	-32.1	28.6	0.00e+00	0	41	0	2587885568	36	5824
2026-01-23 01:15:30.18	17.16	38.55	-31.7	-32.2	28.4	0.00e+00	0	41	0	2594177024	36	5895
2026-01-23 01:15:31.19	16.79	38.40	-31.8	-32.5	28.3	0.00e+00	0	41	0	2599419904	36	6060
2026-01-23 01:15:32.20	16.43	38.26	-31.9	-32.5	28.4	0.00e+00	0	41	0	2604662784	36	6037
2026-01-23 01:15:33.22	16.07	38.11	-31.9	-32.5	28.4	0.00e+00	0	41	0	2610954240	36	6092
2026-01-23 01:15:34.23	15.71	37.96	-31.9	-32.6	28.3	0.00e+00	0	41	0	2616197120	36	6112
2026-01-23 01:15:35.23	15.36	37.82	-31.8	-32.3	28.5	0.00e+00	0	41	0	2622488576	36	5929
2026-01-23 01:15:36.24	15.01	37.67	-31.9	-32.5	28.3	0.00e+00	0	41	0	2627731456	36	6062
2026-01-23 01:15:37.25	14.66	37.52	-32.1	-32.6	28.3	0.00e+00	0	41	0	2634022912	36	6120
2026-01-23 01:15:38.26	14.31	37.37	-32.1	-32.8	28.1	0.00e+00	0	41	0	2639265792	36	6262
2026-01-23 01:15:39.27	13.97	37.22	-32.2	-32.7	28.1	0.00e+00	0	41	0	2645557248	36	6219
2026-01-23 01:15:40.28	13.63	37.07	-32.2	-32.7	28.0	0.00e+00	0	41	0	2650800128	36	6238
2026-01-23 01:15:41.29	13.30	36.92	-32.1	-32.7	28.3	0.00e+00	0	41	0	2656043008	36	6216
2026-01-23 01:15:42.30	12.96	36.77	-31.7	-32.3	28.4	0.00e+00	0	41	0	2662334464	36	5915
2026-01-23 01:15:43.31	12.64	36.62	-31.4	-32.1	28.5	0.00e+00	0	41	0	2667577344	36	5781
2026-01-23 01:15:44.32	12.31	36.46	-31.4	-31.9	28.6	0.00e+00	0	41	0	2673868800	36	5667
2026-01-23 01:15:45.32	11.99	36.31	-31.4	-31.9	28.7	0.00e+00	0	41	0	2679111680	36	5685
2026-01-23 01:15:46.33	11.67	36.16	-31.4	-32.0	28.8	0.00e+00	0	41	0	2684354560	36	5733
2026-01-23 01:15:47.35	11.35	36.01	-31.3	-31.8	28.7	0.00e+00	0	41	0	2690646016	36	5624
2026-01-23 01:15:48.35	11.04	35.85	-31.3	-31.9	28.7	0.00e+00	0	41	0	2695888896	36	5691
2026-01-23 01:15:49.36	10.73	35.70	-31.4	-31.9	28.8	0.00e+00	0	41	0	2702180352	36	5639
2026-01-23 01:15:50.37	10.42	35.55	-31.4	-32.0	28.4	0.00e+00	0	41	0	2707423232	36	5700
2026-01-23 01:15:51.38	10.11	35.39	-31.4	-31.9	28.6	0.00e+00	0	41	0	2712666112	36	5691
2026-01-23 01:15:52.39	9.81	35.24	-31.4	-32.0	28.4	0.00e+00	0	41	0	2718957568	36	5752
2026-01-23 01:15:53.40	9.51	35.09	-31.5	-32.0	28.3	0.00e+00	0	41	0	2724200448	36	5743
2026-01-23 01:15:54.41	9.22	34.93	-31.5	-32.1	28.1	0.00e+00	0	41	0	2730491904	36	5799
2026-01-23 01:15:55.42	8.92	34.78	-31.5	-32.2	28.4	0.00e+00	0	41	0	2735734784	36	5872
2026-01-23 01:15:56.43	8.63	34.62	-31.4	-32.0	28.5	0.00e+00	0	41	0	2742026240	36	5725
2026-01-23 01:15:57.44	8.34	34.47	-31.4	-31.9	28.3	0.00e+00	0	41	0	2747269120	36	5678
2026-01-23 01:15:58.45	8.06	34.31	-31.4	-32.1	28.4	0.00e+00	0	41	0	2752512000	36	5788
2026-01-23 01:15:59.46	7.78	34.16	-31.2	-31.8	28.7	0.00e+00	0	41	0	2758803456	36	5572
2026-01-23 01:16:00.47	7.50	34.00	-31.3	-32.0	28.7	0.00e+00	0	41	0	2764046336	36	5734
2026-01-23 01:16:01.48	7.22	33.85	-31.4	-31.9	28.7	0.00e+00	0	41	0	2770337792	36	5688
2026-01-23 01:16:02.49	6.94	33.69	-31.2	-31.7	28.8	0.00e+00	0	41	0	2775580672	36	5526
2026-01-23 01:16:03.49	6.68	33.54	-31.2	-31.7	28.8	0.00e+00	0	41	0	2780823552	36	5521
2026-01-23 01:16:04.50	6.41	33.39	-31.2	-31.8	28.7	0.00e+00	0	41	0	2787115008	36	5626
2026-01-23 01:16:05.51	6.14	33.23	-31.3	-31.8	28.9	0.00e+00	0	41	0	2792357888	36	5602
2026-01-23 01:16:06.52	5.87	33.08	-31.2	-31.7	28.7	0.00e+00	0	41	0	2798649344	36	5548
2026-01-23 01:16:07.53	5.61	32.92	-31.3	-31.8	28.7	0.00e+00	0	41	0	2803892224	36	5599
2026-01-23 01:16:08.54	5.35	32.77	-31.4	-31.9	28.7	0.00e+00	0	41	0	2809135104	36	5691
2026-01-23 01:16:09.55	5.10	32.62	-31.5	-32.2	28.6	0.00e+00	0	41	0	2815426560	36	5869
2026-01-23 01:16:10.56	4.84	32.46	-31.6	-32.2	28.5	0.00e+00	0	41	0	2820669440	36	5833
2026-01-23 01:16:11.57	4.59	32.31	-31.6	-32.1	28.6	0.00e+00	0	41	0	2826960896	36	5814
2026-01-23 01:16:12.58	4.34	32.15	-31.7	-32.3	28.4	0.00e+00	0	41	0	2832203776	36	5951
2026-01-23 01:16:13.59	4.09	32.00	-31.7	-32.2	28.4	0.00e+00	0	41	0	2838495232	36	5879
2026-01-23 01:16:14.60	3.85	31.85	-31.8	-32.5	28.3	0.00e+00	0	41	0	2843738112	36	6047
2026-01-23 01:16:15.61	3.61	31.69	-31.8	-32.3	28.4	0.00e+00	0	41	0	2848980992	36	5936
2026-01-23 01:16:16.61	3.37	31.54	-31.8	-32.4	28.3	0.00e+00	0	41	0	2855272448	36	6031
2026-01-23 01:16:17.62	3.13	31.39	-31.7	-32.3	28.4	0.00e+00	0	41	0	2860515328	36	5913
2026-01-23 01:16:18.63	2.90	31.24	-31.6	-32.3	28.4	0.00e+00	0	41	0	2866806784	36	5921
2026-01-23 01:16:19.64	2.66	31.09	-31.7	-32.4	28.4	0.00e+00	0	41	0	2872049664	36	5995
2026-01-23 01:16:20.66	2.43	30.93	-31.7	-32.4	28.3	0.00e+00	0	41	0	2877292544	36	6010
2026-01-23 01:16:21.66	2.20	30.78	-31.9	-32.6	28.2	0.00e+00	0	41	0	2883584000	36	6138
2026-01-23 01:16:22.67	1.98	30.63	-32.1	-32.8	28.1	0.00e+00	0	41	0	2888826880	36	6259
2026-01-23 01:16:23.68	1.75	30.48	-32.2	-32.8	28.0	0.00e+00	0	41	0	2895118336	36	6250
2026-01-23 01:16:24.69	1.53	30.33	-32.2	-32.7	28.1	0.00e+00	0	41	0	2900361216	36	6228
2026-01-23 01:16:25.71	1.31	30.18	-32.3	-33.0	28.0	0.00e+00	0	41	0	2905604096	36	6395
2026-01-23 01:16:26.71	1.09	30.03	-32.1	-32.6	28.2	0.00e+00	0	41	0	2911895552	36	6136
2026-01-23 01:16:27.72	0.87	29.88	-32.0	-32.6	28.2	0.00e+00	0	41	0	2917138432	36	6125
2026-01-23 01:16:28.73	0.66	29.73	-31.9	-32.4	28.3	0.00e+00	0	41	0	2923429888	36	5999
2026-01-23 01:16:29.74	0.45	29.58	-32.0	-32.6	28.1	0.00e+00	0	41	0	2928672768	36	6168
2026-01-23 01:16:30.75	0.24	29.43	-32.1	-32.6	28.1	0.00e+00	0	41	0	2934964224	36	6160
2026-01-23 01:16:31.76	0.03	29.28	-32.1	-32.8	28.0	0.00e+00	0	41	0	2940207104	36	6288
2026-01-23 01:16:32.77	359.82	29.14	-32.1	-32.7	28.1	0.00e+00	0	41	0	2946498560	36	6174
2026-01-23 01:16:33.78	359.62	28.99	-32.1	-32.7	28.1	0.00e+00	0	41	0	2951741440	36	6200
2026-01-23 01:16:34.79	359.42	28.84	-32.0	-32.7	28.1	0.00e+00	0	41	0	2956984320	36	6222
2026-01-23 01:16:35.80	359.22	28.69	-31.9	-32.6	28.2	0.00e+00	0	41	0	2963275776	36	6142
2026-01-23 01:16:36.81	359.02	28.55	-31.9	-32.6	28.2	0.00e+00	0	41	0	2968518656	36	6145
2026-01-23 01:16:37.82	358.82	28.40	-32.1	-32.6	28.1	0.00e+00	0	41	0	2974810112	36	6143
2026-01-23 01:16:38.83	358.62	28.25	-32.0	-32.7	28.2	0.00e+00	0	41	0	2980052992	36	6207
2026-01-23 01:16:39.84	358.43	28.11	-32.1	-32.6	28.1	0.00e+00	0	41	0	2985295872	36	6130
2026-01-23 01:16:40.85	358.24	27.96	-32.1	-32.8	28.0	0.00e+00	0	41	0	2991587328	36	6295
2026-01-23 01:16:41.86	358.05	27.82	-32.2	-32.9	28.0	0.00e+00	0	41	0	2996830208	36	6340
2026-01-23 01:16:42.87	357.86	27.68	-32.3	-32.9	27.9	0.00e+00	0	41	0	3003121664	36	6339
2026-01-23 01:16:43.87	357.68	27.53	-32.2	-32.9	27.9	0.00e+00	0	41	0	3008364544	36	6347
2026-01-23 01:16:44.88	357.49	27.39	-32.4	-33.1	27.9	0.00e+00	0	41	0	3013607424	36	6474
2026-01-23 01:16:45.89	357.31	27.25	-32.3	-32.9	28.0	0.00e+00	0	41	0	3019898880	36	6342
2026-01-23 01:16:46.90	357.13	27.10	-32.3	-33.0	28.0	0.00e+00	0	41	0	3025141760	36	6417
2026-01-23 01:16:47.91	356.95	26.96	-32.2	-32.9	28.0	0.00e+00	0	41	0	3031433216	36	6359
2026-01-23 01:16:48.92	356.77	26.82	-32.1	-32.8	28.0	0.00e+00	0	41	0	3036676096	36	6284
2026-01-23 01:16:49.93	356.59	26.68	-32.1	-32.6	28.1	0.00e+00	0	41	0	3042967552	36	6158
2026-01-23 01:16:50.94	356.42	26.54	-32.0	-32.6	28.1	0.00e+00	0	41	0	3048210432	36	6123
2026-01-23 01:16:51.95	356.25	26.40	-32.3	-33.0	28.0	0.00e+00	0	41	0	3053453312	36	6393
2026-01-23 01:16:52.96	356.07	26.26	-32.2	-32.9	28.0	0.00e+00	0	41	0	3059744768	36	6345
2026-01-23 01:16:53.97	355.90	26.12	-32.2	-32.9	27.9	0.00e+00	0	41	0	3064987648	36	6330
2026-01-23 01:16:54.98	355.73	25.98	-32.2	-32.7	28.0	0.00e+00	0	41	0	3071279104	36	6207
2026-01-23 01:16:55.99	355.57	25.84	-32.4	-32.9	27.8	0.00e+00	0	41	0	3076521984	36	6351
2026-01-23 01:16:57.00	355.40	25.70	-32.3	-32.9	27.9	0.00e+00	0	41	0	3081764864	36	6339
2026-01-23 01:16:58.01	355.24	25.56	-32.3	-33.0	27.9	0.00e+00	0	41	0	3088056320	36	6435
2026-01-23 01:16:59.02	355.07	25.43	-32.3	-32.9	27.8	0.00e+00	0	41	0	3093299200	36	6324
2026-01-23 01:17:00.03	354.91	25.29	-32.4	-32.9	27.8	0.00e+00	0	41	0	3099590656	36	6347
2026-01-23 01:17:01.04	354.75	25.15	-32.4	-33.0	27.9	0.00e+00	0	41	0	3104833536	36	6403
2026-01-23 01:17:02.05	354.60	25.02	-32.3	-32.9	27.8	0.00e+00	0	41	0	3110076416	36	6343
2026-01-23 01:17:03.06	354.44	24.88	-32.4	-33.1	27.8	0.00e+00	0	41	0	3116367872	36	6490
2026-01-23 01:17:04.07	354.28	24.75	-32.3	-33.0	27.8	0.00e+00	0	41	0	3121610752	36	6447
2026-01-23 01:17:05.08	354.13	24.61	-32.2	-32.8	28.0	0.00e+00	0	41	0	3127902208	36	6256
2026-01-23 01:17:06.09	353.97	24.48	-32.1	-32.8	28.0	0.00e+00	0	41	0	3133145088	36	6255
2026-01-23 01:17:07.10	353.82	24.35	-32.1	-32.7	28.1	0.00e+00	0	41	0	3139436544	36	6238
2026-01-23 01:17:08.11	353.67	24.21	-32.2	-32.9	27.9	0.00e+00	0	41	0	3144679424	36	6362
2026-01-23 01:17:09.12	353.52	24.08	-32.2	-32.9	28.0	0.00e+00	0	41	0	3150970880	36	6335
2026-01-23 01:17:10.13	353.38	23.95	-32.3	-33.0	27.9	0.00e+00	0	41	0	3156213760	36	6441
2026-01-23 01:17:11.14	353.23	23.82	-32.4	-33.1	27.8	0.00e+00	0	41	0	3161456640	36	6505
2026-01-23 01:17:12.15	353.08	23.68	-32.4	-32.9	27.9	0.00e+00	0	41	0	3167748096	36	6350
2026-01-23 01:17:13.16	352.94	23.55	-32.4	-32.9	27.7	0.00e+00	0	41	0	3172990976	36	6361
2026-01-23 01:17:14.17	352.80	23.42	-32.4	-33.0	27.7	0.00e+00	0	41	0	3179282432	36	6452
2026-01-23 01:17:15.18	352.65	23.29	-32.3	-33.0	27.8	0.00e+00	0	41	0	3184525312	36	6399
2026-01-23 01:17:16.19	352.51	23.16	-32.3	-33.0	27.8	0.00e+00	0	41	0	3189768192	36	6419
2026-01-23 01:17:17.20	352.38	23.03	-32.3	-33.0	27.8	0.00e+00	0	41	0	3196059648	36	6416
2026-01-23 01:17:18.21	352.24	22.91	-32.5	-33.2	27.8	0.00e+00	0	41	0	3201302528	36	6564
2026-01-23 01:17:19.22	352.10	22.78	-32.6	-33.1	27.7	0.00e+00	0	41	0	3207593984	36	6537
2026-01-23 01:17:20.23	351.96	22.65	-32.7	-33.2	27.7	0.00e+00	0	41	0	3212836864	36	6586
2026-01-23 01:17:21.24	351.83	22.52	-32.8	-33.3	27.5	0.00e+00	0	41	0	3218079744	38	5945
2026-01-23 01:17:22.25	351.70	22.40	-33.0	-33.7	27.3	0.00e+00	0	41	0	3224371200	38	6185
2026-01-23 01:17:23.26	351.56	22.27	-33.0	-33.7	27.3	0.00e+00	0	41	0	3229614080	38	6238
2026-01-23 01:17:24.27	351.43	22.14	-33.0	-33.7	27.3	0.00e+00	0	41	0	3235905536	38	6213
2026-01-23 01:17:25.27	351.30	22.02	-32.8	-33.5	27.5	0.00e+00	0	41	0	3241148416	38	6052
2026-01-23 01:17:26.28	351.17	21.90	-32.9	-33.4	27.4	0.00e+00	0	41	0	3247439872	38	6023
2026-01-23 01:17:27.30	351.04	21.77	-32.8	-33.4	27.4	0.00e+00	0	41	0	3252682752	38	5990
2026-01-23 01:17:28.31	350.92	21.65	-32.6	-33.2	27.6	0.00e+00	0	41	0	3257925632	38	5849
2026-01-23 01:17:29.32	350.79	21.52	-32.9	-33.4	27.4	0.00e+00	0	41	0	3264217088	38	6009
2026-01-23 01:17:30.33	350.67	21.40	-32.9	-33.5	27.4	0.00e+00	0	41	0	3269459968	38	6063
2026-01-23 01:17:31.34	350.54	21.28	-33.0	-33.5	27.3	0.00e+00	0	41	0	3275751424	38	6099
2026-01-23 01:17:32.35	350.42	21.15	-32.9	-33.5	27.3	0.00e+00	0	41	0	3280994304	38	6060
2026-01-23 01:17:33.36	350.30	21.03	-33.0	-33.6	27.3	0.00e+00	0	41	0	3286237184	38	6119
2026-01-23 01:17:34.37	350.18	20.91	-33.0	-33.5	27.3	0.00e+00	0	41	0	3292528640	38	6078
2026-01-23 01:17:35.38	350.06	20.79	-33.0	-33.6	27.3	0.00e+00	0	41	0	3297771520	38	6119
2026-01-23 01:17:36.39	349.94	20.67	-32.9	-33.5	27.3	0.00e+00	0	41	0	3304062976	38	6058
2026-01-23 01:17:37.40	349.82	20.55	-33.0	-33.5	27.3	0.00e+00	0	41	0	3309305856	38	6101
2026-01-23 01:17:38.41	349.70	20.43	-33.1	-33.6	27.3	0.00e+00	0	41	0	3314548736	38	6143
2026-01-23 01:17:39.42	349.59	20.31	-33.1	-33.7	27.2	0.00e+00	0	41	0	3320840192	38	6203
2026-01-23 01:17:40.43	349.47	20.19	-33.4	-33.9	27.0	0.00e+00	0	41	0	3326083072	38	6390
2026-01-23 01:17:41.43	349.36	20.08	-33.2	-33.7	27.2	0.00e+00	0	41	0	3332374528	38	6227
2026-01-23 01:17:42.44	349.24	19.96	-33.2	-33.8	27.2	0.00e+00	0	41	0	3337617408	38	6276
2026-01-23 01:17:43.45	349.13	19.84	-33.0	-33.6	27.2	0.00e+00	0	41	0	3343908864	38	6127
2026-01-23 01:17:44.46	349.02	19.72	-33.1	-33.7	27.3	0.00e+00	0	41	0	3349151744	38	6184
2026-01-23 01:17:45.47	348.91	19.61	-33.3	-33.9	27.1	0.00e+00	0	41	0	3355443200	38	6340
2026-01-23 01:17:46.48	348.80	19.49	-33.3	-33.8	27.1	0.00e+00	0	41	0	3360686080	38	6302
2026-01-23 01:17:47.49	348.69	19.38	-33.5	-34.2	27.0	0.00e+00	0	41	0	3365928960	38	6557
2026-01-23 01:17:48.50	348.58	19.26	-33.5	-34.2	26.9	0.00e+00	0	41	0	3372220416	38	6550
2026-01-23 01:17:49.51	348.47	19.15	-33.6	-34.3	26.7	0.00e+00	0	41	0	3377463296	40	5942
2026-01-23 01:17:50.52	348.37	19.03	-33.6	-34.2	26.7	0.00e+00	0	41	0	3383754752	40	5838
2026-01-23 01:17:51.53	348.26	18.92	-33.9	-34.5	26.5	0.00e+00	0	41	0	3388997632	40	6056
2026-01-23 01:17:52.54	348.16	18.80	-33.8	-34.3	26.7	0.00e+00	0	41	0	3394240512	40	5947
2026-01-23 01:17:53.55	348.05	18.69	-34.0	-34.6	26.5	0.00e+00	0	41	0	3400531968	40	6127
2026-01-23 01:17:54.56	347.95	18.58	-33.8	-34.3	26.7	0.00e+00	0	41	0	3405774848	40	5953
2026-01-23 01:17:55.57	347.85	18.47	-33.9	-34.5	26.5	0.00e+00	0	41	0	3412066304	40	6088
2026-01-23 01:17:56.58	347.75	18.35	-33.9	-34.5	26.5	0.00e+00	0	41	0	3417309184	40	6034
2026-01-23 01:17:57.59	347.64	18.24	-33.9	-34.6	26.5	0.00e+00	0	41	0	3422552064	40	6127
2026-01-23 01:17:58.60	347.54	18.13	-34.0	-34.7	26.4	0.00e+00	0	41	0	3428843520	40	6187
2026-01-23 01:17:59.61	347.45	18.02	-34.3	-34.9	26.2	0.00e+00	0	41	0	3434086400	40	6359
2026-01-23 01:18:00.60	347.35	17.91	-34.3	-35.0	26.1	0.00e+00	0	41	0	3440377856	40	6407
2026-01-23 01:18:01.61	347.25	17.80	-34.3	-35.0	26.2	0.00e+00	0	41	0	3445620736	40	6456
2026-01-23 01:18:02.62	347.15	17.69	-34.0	-34.7	26.5	0.00e+00	0	41	0	3451912192	40	6235
2026-01-23 01:18:03.63	347.06	17.59	-34.1	-34.9	26.3	0.00e+00	0	41	0	3457155072	40	6325
2026-01-23 01:18:04.63	346.96	17.48	-34.3	-35.0	26.2	0.00e+00	0	41	0	3462397952	40	6410
2026-01-23 01:18:05.64	346.87	17.37	-34.3	-35.0	26.1	0.00e+00	0	41	0	3468689408	40	6443
2026-01-23 01:18:06.65	346.77	17.26	-34.2	-34.9	26.3	0.00e+00	0	41	0	3473932288	40	6387
2026-01-23 01:18:07.66	346.68	17.15	-34.2	-34.8	26.3	0.00e+00	0	41	0	3479175168	40	6273
2026-01-23 01:18:08.67	346.59	17.05	-34.3	-35.0	26.1	0.00e+00	0	41	0	3485466624	40	6455
2026-01-23 01:18:09.68	346.49	16.94	-34.1	-34.9	26.3	0.00e+00	0	41	0	3490709504	40	6319
2026-01-23 01:18:10.69	346.40	16.83	-34.3	-34.8	26.1	0.00e+00	0	41	0	3497000960	40	6300
2026-01-23 01:18:11.70	346.31	16.73	-34.2	-34.9	26.3	0.00e+00	0	41	0	3502243840	40	6351
2026-01-23 01:18:12.71	346.22	16.62	-34.2	-34.8	26.4	0.00e+00	0	41	0	3507486720	40	6265
2026-01-23 01:18:13.72	346.13	16.52	-34.2	-34.7	26.3	0.00e+00	0	41	0	3513778176	40	6244
2026-01-23 01:18:14.72	346.04	16.41	-34.3	-34.8	26.2	0.00e+00	0	41	0	3519021056	40	6316
2026-01-23 01:18:15.74	345.95	16.31	-34.2	-34.7	26.3	0.00e+00	0	41	0	3525312512	40	6231
2026-01-23 01:18:16.75	345.87	16.20	-34.2	-34.8	26.2	0.00e+00	0	41	0	3530555392	40	6263
2026-01-23 01:18:17.76	345.78	16.10	-34.3	-34.8	26.2	0.00e+00	0	41	0	3536846848	40	6294
2026-01-23 01:18:18.77	345.69	16.00	-34.3	-35.0	26.2	0.00e+00	0	41	0	3542089728	40	6431
2026-01-23 01:18:19.78	345.61	15.89	-34.3	-35.0	26.1	0.00e+00	0	41	0	3548381184	40	6458
2026-01-23 01:18:20.79	345.52	15.79	-34.3	-35.0	26.1	0.00e+00	0	41	0	3553624064	40	6460
2026-01-23 01:18:21.80	345.44	15.69	-34.4	-35.0	26.1	0.00e+00	0	41	0	3558866944	40	6413
2026-01-23 01:18:22.81	345.35	15.59	-34.4	-35.0	26.0	0.00e+00	0	41	0	3565158400	40	6430
