passes_logs/2026/01/23/R4.6S_Anadyr/R4.6S_Anadyr__20260123_203249_SUOMI_NPP_rec.log

#Pass ID: 20260123_203249_SUOMI NPP
#Satellite: SUOMI NPP
#Configuration: NPP
#almurnet v.1.7.20251203
#Start time: 2026-01-23 20:32:50

#Version: 2.2.20231116
#Station: R4.6S_Anadyr
#Location: 177.4865 lon 64.73178 lat
#TLE: 1 37849U 11061A   26022.92790088  .00000200  00000+0  11571-3 0  9994
#TLE: 2 37849  98.7820 324.9085 0002258  50.1112 310.0263 14.19528452737839

#Time	Az	El	Level	Level2	SNR	BER	BlckErr	Temp	State	Recorded	gain1	gain2
2026-01-23 20:32:50.98	70.69	0.06	-50.9	-62.7	3.5	8.46e-01	0	39	0	0	60	49168
2026-01-23 20:32:51.98	70.62	0.11	-50.9	-66.1	3.6	1.51e+00	0	40	104	0	60	73109
2026-01-23 20:32:52.99	70.55	0.16	-50.9	-66.1	3.6	1.51e+00	0	40	104	0	60	72934
2026-01-23 20:32:54.00	70.47	0.21	-50.9	-66.1	3.6	1.51e+00	0	40	104	0	60	73345
2026-01-23 20:32:55.02	70.40	0.26	-50.9	-66.1	3.6	1.51e+00	0	40	104	0	60	73326
2026-01-23 20:32:56.03	70.33	0.31	-50.9	-66.1	3.6	1.51e+00	0	40	104	0	60	72919
2026-01-23 20:32:57.04	70.25	0.36	-50.9	-66.1	3.6	1.51e+00	0	40	104	0	60	73202
2026-01-23 20:32:58.05	70.18	0.41	-50.9	-66.2	3.6	1.51e+00	0	40	104	0	60	73476
2026-01-23 20:32:59.06	70.10	0.47	-50.9	-66.1	3.6	1.51e+00	0	40	104	0	60	73164
2026-01-23 20:33:00.07	70.03	0.52	-50.9	-66.1	3.6	1.51e+00	0	40	104	0	60	73129
2026-01-23 20:33:01.07	69.95	0.57	-50.9	-66.1	3.6	1.51e+00	0	40	104	0	60	73238
2026-01-23 20:33:02.08	69.88	0.62	-50.9	-66.1	3.6	1.51e+00	0	40	104	0	60	72728
2026-01-23 20:33:03.09	69.80	0.67	-50.9	-66.1	3.6	1.51e+00	0	40	104	0	60	73074
2026-01-23 20:33:04.10	69.73	0.72	-50.9	-66.1	3.6	1.51e+00	0	40	104	0	60	73119
2026-01-23 20:33:05.11	69.65	0.77	-50.9	-66.1	3.6	1.51e+00	0	40	104	0	60	73353
2026-01-23 20:33:06.12	69.58	0.82	-50.9	-66.1	3.6	1.51e+00	0	40	104	0	60	72889
2026-01-23 20:33:07.13	69.50	0.87	-50.9	-66.1	3.6	1.51e+00	0	40	104	0	60	73126
2026-01-23 20:33:08.14	69.42	0.92	-50.9	-66.1	3.6	1.51e+00	0	40	104	0	60	72577
2026-01-23 20:33:09.15	69.35	0.97	-50.9	-66.1	3.6	1.51e+00	0	40	104	0	60	72889
2026-01-23 20:33:10.16	69.27	1.02	-50.9	-66.1	3.6	1.51e+00	0	40	104	0	60	72998
2026-01-23 20:33:11.17	69.19	1.07	-50.9	-66.1	3.6	1.51e+00	0	40	104	0	60	72908
2026-01-23 20:33:12.18	69.11	1.13	-50.9	-66.1	3.6	1.51e+00	0	40	104	0	60	73100
2026-01-23 20:33:13.19	69.03	1.18	-50.9	-66.1	3.6	1.51e+00	0	40	104	0	60	73095
2026-01-23 20:33:14.20	68.96	1.23	-50.9	-66.1	3.6	1.51e+00	0	40	104	0	60	73163
2026-01-23 20:33:15.20	68.88	1.28	-50.9	-66.1	3.6	1.51e+00	0	40	104	0	60	73101
2026-01-23 20:33:16.21	68.80	1.33	-50.9	-66.1	3.6	1.51e+00	0	40	104	0	60	72846
2026-01-23 20:33:17.22	68.72	1.38	-50.9	-66.1	3.6	1.51e+00	0	40	104	0	60	73331
2026-01-23 20:33:18.23	68.64	1.43	-50.9	-66.1	3.6	1.51e+00	0	40	104	0	60	72976
2026-01-23 20:33:19.24	68.56	1.48	-50.9	-66.1	3.6	1.51e+00	0	40	104	0	60	72872
2026-01-23 20:33:20.25	68.48	1.53	-50.9	-66.1	3.6	1.51e+00	0	40	104	0	60	73225
2026-01-23 20:33:21.26	68.40	1.59	-50.9	-66.1	3.6	1.51e+00	0	40	104	0	60	73056
2026-01-23 20:33:22.27	68.32	1.64	-50.9	-66.1	3.6	1.51e+00	0	40	104	0	60	72897
2026-01-23 20:33:23.28	68.24	1.69	-50.9	-66.1	3.6	1.51e+00	0	40	104	0	60	73039
2026-01-23 20:33:24.29	68.16	1.74	-50.9	-66.1	3.6	1.51e+00	0	40	104	0	60	73198
2026-01-23 20:33:25.30	68.08	1.79	-50.9	-66.1	3.6	1.51e+00	0	40	104	0	60	73289
2026-01-23 20:33:26.31	67.99	1.84	-50.9	-66.1	3.6	1.51e+00	0	41	104	0	60	73269
2026-01-23 20:33:27.33	67.91	1.90	-50.9	-66.1	3.6	1.51e+00	0	41	104	0	60	73279
2026-01-23 20:33:28.34	67.83	1.95	-50.9	-66.2	3.6	1.51e+00	0	40	104	0	60	73631
2026-01-23 20:33:29.35	67.75	2.00	-50.9	-66.1	3.6	1.51e+00	0	41	104	0	60	72814
2026-01-23 20:33:30.36	67.66	2.05	-50.9	-66.1	3.6	1.51e+00	0	41	104	0	60	73207
2026-01-23 20:33:31.37	67.58	2.10	-50.9	-66.1	3.6	1.51e+00	0	41	104	0	60	73193
2026-01-23 20:33:32.38	67.50	2.15	-50.9	-66.1	3.6	1.51e+00	0	41	104	0	60	73136
2026-01-23 20:33:33.39	67.41	2.21	-50.9	-66.1	3.6	1.51e+00	0	41	104	0	60	72972
2026-01-23 20:33:34.40	67.33	2.26	-50.9	-66.1	3.6	1.51e+00	0	41	104	0	60	73252
2026-01-23 20:33:35.41	67.24	2.31	-50.9	-66.1	3.6	1.51e+00	0	41	104	0	60	73270
2026-01-23 20:33:36.42	67.16	2.36	-50.9	-66.1	3.6	1.51e+00	0	41	104	0	60	73041
2026-01-23 20:33:37.43	67.07	2.41	-50.9	-66.1	3.6	1.51e+00	0	40	104	0	60	73333
2026-01-23 20:33:38.44	66.99	2.47	-50.9	-66.2	3.6	1.51e+00	0	41	104	0	60	73505
2026-01-23 20:33:39.45	66.90	2.52	-50.9	-66.2	3.6	1.51e+00	0	41	104	0	60	73582
2026-01-23 20:33:40.46	66.81	2.57	-50.9	-66.1	3.6	1.51e+00	0	41	104	0	60	73370
2026-01-23 20:33:41.47	66.73	2.62	-50.9	-66.2	3.6	1.51e+00	0	41	104	0	60	73643
2026-01-23 20:33:42.48	66.64	2.67	-50.9	-66.2	3.6	1.51e+00	0	41	104	0	60	73386
2026-01-23 20:33:43.49	66.55	2.73	-50.9	-66.1	3.6	1.51e+00	0	41	104	0	60	73138
2026-01-23 20:33:44.50	66.47	2.78	-50.9	-66.1	3.6	1.51e+00	0	41	104	0	60	73337
2026-01-23 20:33:45.51	66.38	2.83	-50.9	-66.1	3.6	1.51e+00	0	41	104	0	60	73074
2026-01-23 20:33:46.52	66.29	2.88	-50.9	-66.2	3.6	1.51e+00	0	41	104	0	60	73398
2026-01-23 20:33:47.53	66.20	2.94	-50.9	-66.1	3.5	1.51e+00	0	41	104	0	60	73325
2026-01-23 20:33:48.54	66.11	2.99	-50.9	-66.2	3.5	1.51e+00	0	41	104	0	60	73447
2026-01-23 20:33:49.55	66.02	3.04	-50.9	-66.1	3.6	1.51e+00	0	41	104	0	60	73096
2026-01-23 20:33:50.56	65.94	3.09	-50.9	-66.1	3.6	1.51e+00	0	41	104	0	60	73314
2026-01-23 20:33:51.57	65.85	3.14	-50.9	-66.1	3.6	1.51e+00	0	41	104	0	60	73195
2026-01-23 20:33:52.58	65.76	3.20	-50.9	-66.1	3.6	1.51e+00	0	41	104	0	60	73292
2026-01-23 20:33:53.59	65.66	3.25	-50.9	-66.2	3.6	1.51e+00	0	41	104	0	60	73668
2026-01-23 20:33:54.60	65.57	3.30	-50.9	-66.1	3.6	1.51e+00	0	41	104	0	60	73156
2026-01-23 20:33:55.61	65.48	3.36	-50.9	-66.1	3.6	1.51e+00	0	41	104	0	60	73132
2026-01-23 20:33:56.62	65.39	3.41	-50.9	-66.1	3.6	1.51e+00	0	41	104	0	60	73073
2026-01-23 20:33:57.62	65.30	3.46	-50.9	-66.1	3.6	1.51e+00	0	41	104	0	60	73281
2026-01-23 20:33:58.63	65.21	3.51	-50.9	-66.2	3.6	1.51e+00	0	41	104	0	60	73575
2026-01-23 20:33:59.64	65.12	3.57	-50.9	-66.1	3.6	1.51e+00	0	41	104	0	60	73134
2026-01-23 20:34:00.65	65.02	3.62	-50.9	-66.2	3.5	1.51e+00	0	41	104	0	60	73449
2026-01-23 20:34:01.66	64.93	3.67	-50.9	-66.1	3.6	1.51e+00	0	41	104	0	60	73187
2026-01-23 20:34:02.67	64.84	3.72	-50.9	-66.1	3.6	1.51e+00	0	41	104	0	60	73313
2026-01-23 20:34:03.68	64.74	3.78	-50.9	-66.1	3.6	1.51e+00	0	41	104	0	60	73374
2026-01-23 20:34:04.69	64.65	3.83	-50.9	-66.1	3.6	1.51e+00	0	41	104	0	60	72963
2026-01-23 20:34:05.70	64.55	3.88	-50.9	-66.2	3.6	1.51e+00	0	41	104	0	60	73440
2026-01-23 20:34:06.71	64.46	3.94	-50.9	-66.1	3.6	1.51e+00	0	41	104	0	60	73243
2026-01-23 20:34:07.72	64.36	3.99	-50.9	-66.1	3.6	1.51e+00	0	41	104	0	60	72811
2026-01-23 20:34:08.73	64.27	4.04	-50.9	-66.1	3.6	1.51e+00	0	41	104	0	60	73219
2026-01-23 20:34:09.74	64.17	4.09	-50.9	-66.2	3.6	1.51e+00	0	41	104	0	60	73529
2026-01-23 20:34:10.75	64.08	4.15	-50.9	-66.2	3.6	1.51e+00	0	41	104	0	60	73635
2026-01-23 20:34:11.76	63.98	4.20	-50.9	-66.1	3.6	1.51e+00	0	41	104	0	60	73124
2026-01-23 20:34:12.76	63.88	4.25	-50.9	-66.2	3.6	1.51e+00	0	41	104	0	60	73396
2026-01-23 20:34:13.78	63.79	4.31	-50.9	-66.2	3.6	1.51e+00	0	41	104	0	60	73500
2026-01-23 20:34:14.79	63.69	4.36	-50.9	-66.1	3.6	1.51e+00	0	41	104	0	60	73351
2026-01-23 20:34:15.80	63.59	4.41	-50.9	-66.1	3.6	1.51e+00	0	41	104	0	60	72969
2026-01-23 20:34:16.81	63.49	4.47	-50.9	-66.1	3.6	1.51e+00	0	41	104	0	60	73189
2026-01-23 20:34:17.82	63.39	4.52	-50.9	-66.1	3.6	1.51e+00	0	41	104	0	60	73247
2026-01-23 20:34:18.83	63.29	4.57	-50.9	-66.1	3.6	1.51e+00	0	41	104	0	60	73187
2026-01-23 20:34:19.84	63.19	4.63	-50.9	-66.2	3.6	1.51e+00	0	41	104	0	60	73616
2026-01-23 20:34:20.85	63.09	4.68	-50.9	-66.1	3.6	1.51e+00	0	41	104	0	60	73128
2026-01-23 20:34:21.86	62.99	4.73	-50.9	-66.1	3.6	1.51e+00	0	41	104	0	60	73179
2026-01-23 20:34:22.87	62.89	4.79	-50.9	-66.1	3.6	1.51e+00	0	41	104	0	60	73067
2026-01-23 20:34:23.88	62.79	4.84	-50.9	-66.2	3.6	1.51e+00	0	41	104	0	60	73535
2026-01-23 20:34:24.89	62.69	4.89	-50.9	-66.2	3.6	1.51e+00	0	41	104	0	60	73692
2026-01-23 20:34:25.90	62.59	4.95	-50.9	-66.1	3.6	1.51e+00	0	41	104	0	60	73336
2026-01-23 20:34:26.91	62.49	5.00	-50.9	-66.1	3.6	1.51e+00	0	41	104	0	60	73215
2026-01-23 20:34:27.92	62.38	5.05	-50.9	-66.2	3.6	1.51e+00	0	41	104	0	60	73702
2026-01-23 20:34:28.93	62.28	5.11	-50.9	-66.2	3.6	1.51e+00	0	41	104	0	60	73635
2026-01-23 20:34:29.94	62.18	5.16	-50.9	-66.1	3.6	1.51e+00	0	41	104	0	60	73075
2026-01-23 20:34:30.95	62.07	5.21	-50.9	-66.2	3.6	1.51e+00	0	41	104	0	60	73480
2026-01-23 20:34:31.96	61.97	5.27	-50.9	-66.1	3.6	1.51e+00	0	41	104	0	60	73241
2026-01-23 20:34:32.97	61.86	5.32	-50.9	-66.1	3.6	1.51e+00	0	41	104	0	60	73341
2026-01-23 20:34:33.98	61.76	5.38	-50.9	-66.1	3.6	1.51e+00	0	41	104	0	60	72865
2026-01-23 20:34:34.99	61.65	5.43	-50.9	-66.1	3.5	1.51e+00	0	41	104	0	60	73134
2026-01-23 20:34:36.00	61.55	5.48	-50.9	-66.2	3.6	1.51e+00	0	41	104	0	60	73660
2026-01-23 20:34:37.01	61.44	5.54	-50.9	-66.1	3.6	1.51e+00	0	41	104	0	60	73209
2026-01-23 20:34:38.02	61.33	5.59	-50.9	-66.2	3.6	1.51e+00	0	41	104	0	60	73429
2026-01-23 20:34:39.03	61.23	5.64	-50.9	-66.2	3.6	1.51e+00	0	41	104	0	60	73388
2026-01-23 20:34:40.03	61.12	5.70	-50.9	-66.1	3.6	1.51e+00	0	41	104	0	60	73235
2026-01-23 20:34:41.05	61.01	5.75	-50.9	-66.2	3.6	1.51e+00	0	41	104	0	60	73633
2026-01-23 20:34:42.06	60.90	5.80	-50.9	-66.1	3.6	1.51e+00	0	41	104	0	60	73275
2026-01-23 20:34:43.07	60.80	5.86	-50.9	-66.2	3.6	1.51e+00	0	41	104	0	60	73422
2026-01-23 20:34:44.08	60.69	5.91	-50.9	-66.1	3.6	1.51e+00	0	41	104	0	60	72968
2026-01-23 20:34:45.09	60.58	5.97	-50.9	-66.2	3.6	1.51e+00	0	41	104	0	60	73398
2026-01-23 20:34:46.10	60.47	6.02	-50.9	-66.1	3.6	1.51e+00	0	41	104	0	60	73352
2026-01-23 20:34:47.11	60.36	6.07	-50.9	-66.1	3.6	1.51e+00	0	41	104	0	60	73176
2026-01-23 20:34:48.12	60.25	6.13	-50.9	-66.1	3.6	1.51e+00	0	41	104	0	60	73141
2026-01-23 20:34:49.13	60.14	6.18	-50.9	-66.1	3.6	1.51e+00	0	41	104	0	60	73331
2026-01-23 20:34:50.14	60.02	6.23	-50.9	-66.1	3.6	1.51e+00	0	41	104	0	60	73108
2026-01-23 20:34:51.15	59.91	6.29	-50.9	-66.1	3.6	1.51e+00	0	41	104	0	60	73377
2026-01-23 20:34:52.16	59.80	6.34	-50.9	-66.2	3.6	1.51e+00	0	41	104	0	60	73558
2026-01-23 20:34:53.17	59.69	6.40	-50.9	-66.1	3.6	1.51e+00	0	41	104	0	60	73199
2026-01-23 20:34:54.18	59.57	6.45	-50.9	-66.1	3.6	1.51e+00	0	41	104	0	60	73272
2026-01-23 20:34:55.19	59.46	6.50	-50.9	-66.2	3.6	1.51e+00	0	41	104	0	60	73473
2026-01-23 20:34:56.19	59.35	6.56	-50.9	-66.1	3.6	1.51e+00	0	41	104	0	60	73055
2026-01-23 20:34:57.20	59.23	6.61	-50.9	-66.1	3.6	1.51e+00	0	41	104	0	60	72803
2026-01-23 20:34:58.21	59.12	6.67	-50.9	-66.2	3.6	1.51e+00	0	41	104	0	60	73451
2026-01-23 20:34:59.22	59.00	6.72	-50.9	-66.2	3.6	1.51e+00	0	41	104	0	60	73478
2026-01-23 20:35:00.23	58.89	6.77	-50.9	-66.2	3.6	1.51e+00	0	41	104	0	60	73380
2026-01-23 20:35:01.24	58.77	6.83	-50.9	-66.2	3.6	1.51e+00	0	41	104	0	60	73508
2026-01-23 20:35:02.25	58.65	6.88	-50.9	-66.1	3.6	1.51e+00	0	41	104	0	60	73197
2026-01-23 20:35:03.26	58.54	6.93	-50.9	-66.1	3.6	1.51e+00	0	41	104	0	60	73240
2026-01-23 20:35:04.27	58.42	6.99	-50.9	-66.1	3.6	1.51e+00	0	41	104	0	60	73346
2026-01-23 20:35:05.28	58.30	7.04	-50.9	-66.1	3.6	1.51e+00	0	41	104	0	60	73298
2026-01-23 20:35:06.29	58.18	7.10	-50.9	-66.1	3.6	1.51e+00	0	41	104	0	60	73314
2026-01-23 20:35:07.30	58.06	7.15	-50.9	-66.2	3.6	1.51e+00	0	41	104	0	60	73406
2026-01-23 20:35:08.31	57.94	7.20	-50.9	-66.1	3.6	1.51e+00	0	41	104	0	60	73146
2026-01-23 20:35:09.32	57.82	7.26	-50.9	-66.1	3.6	1.51e+00	0	41	104	0	60	73132
2026-01-23 20:35:10.33	57.70	7.31	-50.9	-66.1	3.6	1.51e+00	0	41	104	0	60	72947
2026-01-23 20:35:11.34	57.58	7.37	-50.9	-66.2	3.6	1.51e+00	0	41	104	0	60	73552
2026-01-23 20:35:12.35	57.46	7.42	-50.9	-66.1	3.6	1.51e+00	0	41	104	0	60	73047
2026-01-23 20:35:13.36	57.34	7.47	-50.9	-66.2	3.6	1.51e+00	0	41	104	0	60	73553
2026-01-23 20:35:14.37	57.22	7.53	-50.9	-66.1	3.6	1.51e+00	0	41	104	0	60	72962
2026-01-23 20:35:15.38	57.09	7.58	-50.9	-66.1	3.6	1.51e+00	0	41	104	0	60	73200
2026-01-23 20:35:16.39	56.97	7.63	-50.9	-66.2	3.6	1.51e+00	0	41	104	0	60	73425
2026-01-23 20:35:17.40	56.85	7.69	-50.9	-66.1	3.6	1.51e+00	0	41	104	0	60	73226
2026-01-23 20:35:18.41	56.72	7.74	-50.9	-66.1	3.6	1.51e+00	0	41	104	0	60	73191
2026-01-23 20:35:19.42	56.60	7.80	-50.9	-66.1	3.6	1.51e+00	0	41	104	0	60	73161
2026-01-23 20:35:20.43	56.47	7.85	-50.9	-66.1	3.6	1.51e+00	0	41	104	0	60	73193
2026-01-23 20:35:21.44	56.35	7.90	-50.9	-66.1	3.6	1.51e+00	0	41	104	0	60	73038
2026-01-23 20:35:22.45	56.22	7.96	-50.9	-66.1	3.5	1.51e+00	0	41	104	0	60	72584
2026-01-23 20:35:23.46	56.10	8.01	-50.9	-66.1	3.6	1.51e+00	0	41	104	0	60	73300
2026-01-23 20:35:24.47	55.97	8.06	-50.9	-66.1	3.6	1.51e+00	0	41	104	0	60	72886
2026-01-23 20:35:25.48	55.84	8.12	-50.9	-66.1	3.6	1.51e+00	0	41	104	0	60	72999
2026-01-23 20:35:26.49	55.71	8.17	-50.9	-66.1	3.6	1.51e+00	0	41	104	0	60	73213
2026-01-23 20:35:27.50	55.59	8.23	-50.9	-66.1	3.6	1.51e+00	0	41	104	0	60	73167
2026-01-23 20:35:28.51	55.46	8.28	-50.9	-66.1	3.6	1.51e+00	0	41	104	0	60	73214
2026-01-23 20:35:29.51	55.33	8.33	-50.9	-66.1	3.6	1.51e+00	0	41	104	0	60	73123
2026-01-23 20:35:30.53	55.20	8.39	-50.9	-66.1	3.6	1.51e+00	0	41	104	0	60	73116
2026-01-23 20:35:31.54	55.07	8.44	-50.9	-66.1	3.6	1.51e+00	0	41	104	0	60	73027
2026-01-23 20:35:32.54	54.94	8.49	-50.9	-66.1	3.6	1.51e+00	0	41	104	0	60	73116
2026-01-23 20:35:33.55	54.81	8.55	-50.9	-66.1	3.6	1.51e+00	0	41	104	0	60	73063
2026-01-23 20:35:34.57	54.67	8.60	-50.9	-66.1	3.6	1.51e+00	0	41	104	0	60	73183
2026-01-23 20:35:35.57	54.54	8.65	-50.9	-66.1	3.6	1.51e+00	0	41	104	0	60	73080
2026-01-23 20:35:36.58	54.41	8.71	-50.9	-66.1	3.6	1.51e+00	0	41	104	0	60	73205
2026-01-23 20:35:37.59	54.28	8.76	-50.9	-66.1	3.6	1.51e+00	0	41	104	0	60	72945
2026-01-23 20:35:38.60	54.14	8.81	-50.9	-66.1	3.6	1.51e+00	0	41	104	0	60	72988
2026-01-23 20:35:39.61	54.01	8.87	-50.9	-66.1	3.6	1.51e+00	0	41	104	0	60	72799
2026-01-23 20:35:40.62	53.87	8.92	-50.9	-66.1	3.6	1.51e+00	0	41	104	0	60	73233
2026-01-23 20:35:41.63	53.74	8.97	-50.9	-66.1	3.6	1.51e+00	0	41	104	0	60	73048
2026-01-23 20:35:42.64	53.60	9.03	-50.9	-66.1	3.6	1.51e+00	0	41	104	0	60	73258
2026-01-23 20:35:43.65	53.47	9.08	-50.9	-66.1	3.6	1.51e+00	0	41	104	0	60	73175
2026-01-23 20:35:44.66	53.33	9.13	-50.9	-66.1	3.5	1.51e+00	0	41	104	0	60	73118
2026-01-23 20:35:45.67	53.19	9.18	-50.9	-66.1	3.6	1.51e+00	0	41	104	0	60	73144
2026-01-23 20:35:46.68	53.06	9.24	-50.9	-66.1	3.6	1.51e+00	0	41	104	0	60	73339
2026-01-23 20:35:47.69	52.92	9.29	-50.9	-66.1	3.6	1.51e+00	0	41	104	0	60	72869
2026-01-23 20:35:48.70	52.78	9.34	-50.9	-66.1	3.5	1.51e+00	0	41	104	0	60	73114
2026-01-23 20:35:49.71	52.64	9.40	-50.9	-66.1	3.6	1.51e+00	0	41	104	0	60	72931
2026-01-23 20:35:50.72	52.50	9.45	-50.9	-66.1	3.6	1.51e+00	0	41	104	0	60	73172
2026-01-23 20:35:51.72	52.36	9.50	-50.9	-66.1	3.6	1.51e+00	0	41	104	0	60	73359
2026-01-23 20:35:52.73	52.22	9.55	-50.9	-66.1	3.6	1.51e+00	0	41	104	0	60	73241
2026-01-23 20:35:53.75	52.08	9.61	-50.9	-66.1	3.6	1.51e+00	0	41	104	0	60	72916
2026-01-23 20:35:54.76	51.94	9.66	-50.9	-66.1	3.6	1.51e+00	0	41	104	0	60	72988
2026-01-23 20:35:55.77	51.79	9.71	-50.9	-66.1	3.6	1.51e+00	0	41	104	0	60	73184
2026-01-23 20:35:56.78	51.65	9.76	-50.9	-66.1	3.6	1.51e+00	0	41	104	0	60	73347
2026-01-23 20:35:57.78	51.51	9.82	-50.9	-66.1	3.6	1.51e+00	0	41	104	0	60	72910
2026-01-23 20:35:58.80	51.36	9.87	-50.9	-66.1	3.6	1.51e+00	0	41	104	0	60	73103
2026-01-23 20:35:59.80	51.22	9.92	-50.9	-66.1	3.6	1.51e+00	0	41	104	0	60	72877
2026-01-23 20:36:00.81	51.07	9.97	-50.9	-66.1	3.6	1.51e+00	0	41	104	0	60	73023
2026-01-23 20:36:01.82	50.93	10.02	-50.9	-66.1	3.6	1.51e+00	0	41	104	0	60	73186
2026-01-23 20:36:02.83	50.78	10.08	-50.9	-66.1	3.6	1.51e+00	0	41	104	0	60	72850
2026-01-23 20:36:03.84	50.64	10.13	-50.9	-66.1	3.6	1.51e+00	0	41	104	0	60	72886
2026-01-23 20:36:04.85	50.49	10.18	-50.9	-66.1	3.6	1.51e+00	0	41	104	0	60	73355
2026-01-23 20:36:05.86	50.34	10.23	-50.9	-66.1	3.6	1.51e+00	0	41	104	0	60	72956
2026-01-23 20:36:06.87	50.19	10.28	-50.9	-66.1	3.6	1.51e+00	0	41	104	0	60	73153
2026-01-23 20:36:07.88	50.04	10.34	-50.9	-66.1	3.6	1.51e+00	0	41	104	0	60	72954
2026-01-23 20:36:08.89	49.90	10.39	-50.9	-66.1	3.6	1.51e+00	0	41	104	0	60	73065
2026-01-23 20:36:09.90	49.75	10.44	-50.9	-66.1	3.6	1.51e+00	0	41	104	0	60	72935
2026-01-23 20:36:10.91	49.60	10.49	-50.9	-66.1	3.6	1.51e+00	0	41	104	0	60	72783
2026-01-23 20:36:11.92	49.44	10.54	-50.9	-66.1	3.5	1.51e+00	0	41	104	0	60	73183
2026-01-23 20:36:12.93	49.29	10.59	-50.9	-66.1	3.6	1.51e+00	0	41	104	0	60	73177
2026-01-23 20:36:13.94	49.14	10.64	-50.9	-66.1	3.6	1.51e+00	0	41	104	0	60	72814
2026-01-23 20:36:14.95	48.99	10.69	-50.9	-66.1	3.6	1.51e+00	0	41	104	0	60	72892
2026-01-23 20:36:15.96	48.84	10.75	-50.9	-66.1	3.6	1.51e+00	0	41	104	0	60	73155
2026-01-23 20:36:16.97	48.68	10.80	-50.9	-66.1	3.6	1.51e+00	0	41	104	0	60	72974
2026-01-23 20:36:17.98	48.53	10.85	-50.9	-66.1	3.6	1.51e+00	0	41	104	0	60	72866
2026-01-23 20:36:18.99	48.37	10.90	-50.9	-66.1	3.6	1.51e+00	0	41	104	0	60	73158
2026-01-23 20:36:20.00	48.22	10.95	-50.9	-66.1	3.6	1.51e+00	0	41	104	0	60	72776
2026-01-23 20:36:21.01	48.06	11.00	-50.9	-66.1	3.5	1.51e+00	0	41	104	0	60	73141
2026-01-23 20:36:22.01	47.91	11.05	-50.9	-66.1	3.6	1.51e+00	0	41	104	0	60	72975
2026-01-23 20:36:23.02	47.75	11.10	-50.9	-66.1	3.6	1.51e+00	0	41	104	0	60	73186
2026-01-23 20:36:24.03	47.59	11.15	-50.9	-66.1	3.6	1.51e+00	0	41	104	0	60	73154
2026-01-23 20:36:25.04	47.44	11.20	-50.9	-66.1	3.6	1.51e+00	0	41	104	0	60	72951
2026-01-23 20:36:26.05	47.28	11.25	-50.9	-66.1	3.6	1.51e+00	0	41	104	0	60	72844
2026-01-23 20:36:27.06	47.12	11.30	-50.9	-66.1	3.6	1.51e+00	0	41	104	0	60	72701
2026-01-23 20:36:28.07	46.96	11.35	-50.9	-66.1	3.6	1.51e+00	0	41	104	0	60	72759
2026-01-23 20:36:29.08	46.80	11.40	-50.9	-66.1	3.6	1.51e+00	0	41	104	0	60	73191
2026-01-23 20:36:30.09	46.64	11.45	-50.9	-66.2	3.6	1.51e+00	0	41	104	0	60	73429
2026-01-23 20:36:31.10	46.48	11.50	-50.9	-66.1	3.6	1.51e+00	0	41	104	0	60	73302
2026-01-23 20:36:32.11	46.32	11.55	-50.9	-66.1	3.6	1.51e+00	0	41	104	0	60	73199
2026-01-23 20:36:32.84	46.20	11.58	-50.9	-66.1	3.6	1.51e+00	0	41	104	0	60	73010
2026-01-23 20:36:34.14	45.99	11.64	-50.9	-66.1	3.6	1.51e+00	0	41	104	0	60	72914
2026-01-23 20:36:34.86	45.87	11.68	-50.9	-66.1	3.6	1.51e+00	0	41	104	0	60	73104
2026-01-23 20:36:36.16	45.66	11.74	-50.9	-66.1	3.6	1.51e+00	0	41	104	0	60	72941
2026-01-23 20:36:36.88	45.54	11.78	-50.9	-66.1	3.6	1.51e+00	0	41	104	0	60	72681
2026-01-23 20:36:38.18	45.33	11.84	-50.9	-66.1	3.6	1.51e+00	0	41	104	0	60	72864
2026-01-23 20:36:38.90	45.21	11.87	-50.9	-66.1	3.6	1.51e+00	0	41	104	0	60	72827
2026-01-23 20:36:40.20	45.00	11.94	-50.9	-66.1	3.6	1.51e+00	0	41	104	0	60	72857
2026-01-23 20:36:40.92	44.88	11.97	-50.9	-66.1	3.6	1.51e+00	0	41	104	0	60	72878
2026-01-23 20:36:42.22	44.67	12.03	-50.9	-66.1	3.6	1.51e+00	0	41	104	0	60	73151
2026-01-23 20:36:42.94	44.55	12.07	-50.9	-66.1	3.6	1.51e+00	0	41	104	0	60	73123
2026-01-23 20:36:44.24	44.33	12.13	-50.9	-66.1	3.6	1.51e+00	0	41	104	0	60	72617
2026-01-23 20:36:44.96	44.21	12.16	-50.9	-66.1	3.6	1.51e+00	0	41	104	0	60	72930
2026-01-23 20:36:46.26	43.99	12.22	-50.9	-66.1	3.6	1.51e+00	0	41	104	0	60	73181
2026-01-23 20:36:46.98	43.87	12.26	-50.9	-66.1	3.6	1.51e+00	0	41	104	0	60	73145
2026-01-23 20:36:48.28	43.65	12.32	-50.9	-66.1	3.6	1.51e+00	0	41	104	0	60	72971
2026-01-23 20:36:49.00	43.53	12.35	-50.9	-66.1	3.6	1.51e+00	0	41	104	0	60	72863
2026-01-23 20:36:50.30	43.31	12.41	-50.9	-66.1	3.6	1.51e+00	0	41	104	0	60	73147
2026-01-23 20:36:51.02	43.19	12.44	-50.9	-66.1	3.6	1.51e+00	0	41	104	0	60	73104
2026-01-23 20:36:52.32	42.96	12.50	-50.9	-66.1	3.6	1.51e+00	0	41	104	0	60	73031
2026-01-23 20:36:53.04	42.84	12.53	-50.9	-66.1	3.6	1.51e+00	0	41	104	0	60	73129
2026-01-23 20:36:54.34	42.62	12.59	-50.9	-66.1	3.6	1.51e+00	0	41	104	0	60	73133
2026-01-23 20:36:55.06	42.49	12.63	-50.9	-66.1	3.6	1.51e+00	0	41	104	0	60	73113
2026-01-23 20:36:56.36	42.27	12.68	-50.9	-66.1	3.6	1.51e+00	0	41	104	0	60	72984
2026-01-23 20:36:57.08	42.14	12.72	-50.9	-66.1	3.6	1.51e+00	0	41	104	0	60	73342
2026-01-23 20:36:58.38	41.92	12.78	-50.9	-66.1	3.6	1.51e+00	0	41	104	0	60	72964
2026-01-23 20:36:59.10	41.79	12.81	-50.9	-66.1	3.6	1.51e+00	0	41	104	0	60	73315
2026-01-23 20:37:00.40	41.56	12.87	-50.9	-66.1	3.6	1.51e+00	0	41	104	0	60	73195
2026-01-23 20:37:01.12	41.43	12.90	-50.9	-66.1	3.6	1.51e+00	0	41	104	0	60	73127
2026-01-23 20:37:02.42	41.21	12.95	-50.9	-66.1	3.6	1.51e+00	0	41	104	0	60	72984
2026-01-23 20:37:03.13	41.08	12.99	-50.9	-66.1	3.6	1.51e+00	0	41	104	0	60	72738
2026-01-23 20:37:04.44	40.85	13.04	-50.9	-66.2	3.6	1.51e+00	0	41	104	0	60	73549
2026-01-23 20:37:05.16	40.72	13.07	-50.9	-66.1	3.6	1.51e+00	0	41	104	0	60	72725
2026-01-23 20:37:06.45	40.49	13.13	-50.9	-66.1	3.6	1.51e+00	0	41	104	0	60	73167
2026-01-23 20:37:07.18	40.36	13.16	-50.9	-66.2	3.6	1.51e+00	0	41	104	0	60	73456
2026-01-23 20:37:08.47	40.13	13.22	-50.9	-66.1	3.6	1.51e+00	0	41	104	0	60	73129
2026-01-23 20:37:09.20	39.99	13.25	-50.9	-66.1	3.6	1.51e+00	0	41	104	0	60	72776
2026-01-23 20:37:10.50	39.76	13.30	-50.9	-66.1	3.6	1.51e+00	0	41	104	0	60	72798
2026-01-23 20:37:11.22	39.63	13.33	-50.9	-66.1	3.6	1.51e+00	0	41	104	0	60	73301
2026-01-23 20:37:12.52	39.39	13.39	-50.9	-66.1	3.6	1.51e+00	0	41	104	0	60	72895
2026-01-23 20:37:13.24	39.26	13.42	-50.9	-66.1	3.6	1.51e+00	0	41	104	0	60	72754
2026-01-23 20:37:14.54	39.02	13.47	-50.9	-66.1	3.6	1.51e+00	0	41	104	0	60	73244
2026-01-23 20:37:15.26	38.89	13.50	-50.9	-66.1	3.6	1.51e+00	0	41	104	0	60	73132
2026-01-23 20:37:16.56	38.65	13.56	-50.9	-66.1	3.6	1.51e+00	0	41	104	0	60	72672
2026-01-23 20:37:17.28	38.52	13.58	-50.9	-66.1	3.5	1.51e+00	0	41	104	0	60	73173
2026-01-23 20:37:18.58	38.28	13.64	-50.9	-66.1	3.5	1.51e+00	0	41	104	0	60	73375
2026-01-23 20:37:19.30	38.15	13.67	-50.9	-66.1	3.6	1.51e+00	0	41	104	0	60	72860
2026-01-23 20:37:20.60	37.91	13.72	-50.9	-66.1	3.6	1.51e+00	0	41	104	0	60	72960
2026-01-23 20:37:21.32	37.77	13.75	-50.9	-66.1	3.6	1.51e+00	0	41	104	0	60	72592
2026-01-23 20:37:22.62	37.53	13.80	-50.9	-66.1	3.6	1.51e+00	0	41	104	0	60	73183
2026-01-23 20:37:23.34	37.39	13.83	-50.9	-66.1	3.6	1.51e+00	0	41	104	0	60	73141
2026-01-23 20:37:24.64	37.15	13.88	-50.9	-66.1	3.6	1.51e+00	0	41	104	0	60	73158
2026-01-23 20:37:25.36	37.01	13.91	-50.9	-66.1	3.6	1.51e+00	0	41	104	0	60	72894
2026-01-23 20:37:26.66	36.77	13.96	-50.9	-66.1	3.6	1.51e+00	0	41	104	0	60	73091
2026-01-23 20:37:27.38	36.63	13.99	-50.9	-66.1	3.6	1.51e+00	0	41	104	0	60	72999
2026-01-23 20:37:28.68	36.38	14.03	-50.9	-66.1	3.6	1.51e+00	0	41	104	0	60	72568
2026-01-23 20:37:29.40	36.25	14.06	-50.9	-66.0	3.6	1.51e+00	0	41	104	0	60	72340
2026-01-23 20:37:30.70	36.00	14.11	-50.9	-66.1	3.6	1.51e+00	0	41	104	0	60	72990
2026-01-23 20:37:31.42	35.86	14.14	-50.9	-66.1	3.6	1.51e+00	0	41	104	0	60	72872
2026-01-23 20:37:32.72	35.61	14.19	-50.9	-66.1	3.6	1.51e+00	0	41	104	0	60	72886
2026-01-23 20:37:33.44	35.47	14.21	-50.9	-66.1	3.6	1.51e+00	0	41	104	0	60	72843
2026-01-23 20:37:34.74	35.22	14.26	-50.9	-66.1	3.6	1.51e+00	0	41	104	0	60	72951
2026-01-23 20:37:35.46	35.08	14.29	-50.9	-66.1	3.6	1.51e+00	0	41	104	0	60	73057
2026-01-23 20:37:36.76	34.83	14.33	-50.9	-66.1	3.6	1.51e+00	0	41	104	0	60	72796
2026-01-23 20:37:37.48	34.69	14.36	-50.9	-66.2	3.6	1.51e+00	0	41	104	0	60	73457
2026-01-23 20:37:38.78	34.44	14.41	-50.9	-66.1	3.6	1.51e+00	0	41	104	0	60	73018
2026-01-23 20:37:39.50	34.30	14.43	-50.9	-66.1	3.6	1.51e+00	0	41	104	0	60	73176
2026-01-23 20:37:40.80	34.04	14.48	-50.9	-66.1	3.6	1.51e+00	0	41	104	0	60	72974
2026-01-23 20:37:41.52	33.90	14.50	-50.9	-66.1	3.6	1.51e+00	0	41	104	0	60	72949
2026-01-23 20:37:42.82	33.65	14.55	-50.9	-66.1	3.6	1.51e+00	0	41	104	0	60	73142
2026-01-23 20:37:43.54	33.50	14.57	-50.9	-66.1	3.6	1.51e+00	0	41	104	0	60	73093
2026-01-23 20:37:44.84	33.25	14.61	-50.9	-66.1	3.6	1.51e+00	0	41	104	0	60	72590
2026-01-23 20:37:45.56	33.10	14.64	-50.9	-66.1	3.6	1.51e+00	0	41	104	0	60	72741
2026-01-23 20:37:46.86	32.85	14.68	-50.9	-66.1	3.6	1.51e+00	0	41	104	0	60	73003
2026-01-23 20:37:47.58	32.70	14.71	-50.9	-66.1	3.5	1.51e+00	0	41	104	0	60	72811
2026-01-23 20:37:48.88	32.44	14.75	-50.9	-66.1	3.6	1.51e+00	0	41	104	0	60	73125
2026-01-23 20:37:49.60	32.30	14.77	-50.9	-66.1	3.6	1.51e+00	0	41	104	0	60	72844
2026-01-23 20:37:50.90	32.04	14.81	-50.9	-66.1	3.6	1.51e+00	0	41	104	0	60	73130
2026-01-23 20:37:51.62	31.89	14.84	-50.9	-66.1	3.6	1.51e+00	0	41	104	0	60	73321
2026-01-23 20:37:52.92	31.63	14.88	-50.9	-66.1	3.6	1.51e+00	0	41	104	0	60	73238
2026-01-23 20:37:53.64	31.49	14.90	-50.9	-66.2	3.6	1.51e+00	0	41	104	0	60	73431
2026-01-23 20:37:54.93	31.23	14.94	-50.9	-66.1	3.6	1.51e+00	0	41	104	0	60	73269
2026-01-23 20:37:55.66	31.08	14.96	-50.9	-66.1	3.6	1.51e+00	0	41	104	0	60	72995
2026-01-23 20:37:56.96	30.81	15.00	-50.9	-66.1	3.6	1.51e+00	0	41	104	0	60	73005
2026-01-23 20:37:57.68	30.67	15.02	-50.9	-66.1	3.6	1.51e+00	0	41	104	0	60	72949
2026-01-23 20:37:58.97	30.41	15.06	-50.9	-66.1	3.6	1.51e+00	0	41	104	0	60	73172
2026-01-23 20:37:59.70	30.26	15.08	-50.9	-66.1	3.5	1.51e+00	0	41	104	0	60	72807
2026-01-23 20:38:00.99	29.99	15.12	-50.9	-66.2	3.6	1.51e+00	0	41	104	0	60	73518
2026-01-23 20:38:01.72	29.84	15.14	-50.9	-66.1	3.6	1.51e+00	0	41	104	0	60	73069
2026-01-23 20:38:03.01	29.58	15.17	-50.9	-66.1	3.6	1.51e+00	0	41	104	0	60	72899
2026-01-23 20:38:03.74	29.43	15.19	-50.9	-66.1	3.6	1.51e+00	0	41	104	0	60	72746
2026-01-23 20:38:05.04	29.16	15.23	-50.9	-66.2	3.6	1.51e+00	0	41	104	0	60	73420
2026-01-23 20:38:05.76	29.01	15.25	-50.9	-66.1	3.6	1.51e+00	0	41	104	0	60	72864
2026-01-23 20:38:07.06	28.74	15.28	-50.9	-66.1	3.6	1.51e+00	0	41	104	0	60	73350
2026-01-23 20:38:07.78	28.59	15.30	-50.9	-66.1	3.6	1.51e+00	0	41	104	0	60	73100
2026-01-23 20:38:09.07	28.33	15.34	-50.9	-66.1	3.6	1.51e+00	0	41	104	0	60	72901
2026-01-23 20:38:09.80	28.17	15.36	-50.9	-66.1	3.6	1.51e+00	0	41	104	0	60	73103
2026-01-23 20:38:11.09	27.90	15.39	-50.9	-66.1	3.6	1.51e+00	0	41	104	0	60	73247
2026-01-23 20:38:11.82	27.75	15.41	-50.9	-66.1	3.6	1.51e+00	0	41	104	0	60	73099
2026-01-23 20:38:13.11	27.48	15.44	-50.9	-66.1	3.6	1.51e+00	0	41	104	0	60	73122
2026-01-23 20:38:13.84	27.33	15.46	-50.9	-66.1	3.6	1.51e+00	0	41	104	0	60	72754
2026-01-23 20:38:15.13	27.06	15.49	-50.9	-66.1	3.6	1.51e+00	0	41	104	0	60	73009
2026-01-23 20:38:15.86	26.91	15.50	-50.9	-66.1	3.6	1.51e+00	0	41	104	0	60	72928
2026-01-23 20:38:17.15	26.63	15.53	-50.9	-66.1	3.6	1.51e+00	0	41	104	0	60	72599
2026-01-23 20:38:17.87	26.48	15.55	-50.9	-66.1	3.6	1.51e+00	0	41	104	0	60	73002
2026-01-23 20:38:19.17	26.21	15.58	-50.9	-66.1	3.6	1.51e+00	0	41	104	0	60	73041
2026-01-23 20:38:19.90	26.05	15.59	-50.9	-66.1	3.6	1.51e+00	0	41	104	0	60	73129
2026-01-23 20:38:21.20	25.78	15.62	-50.9	-66.1	3.6	1.51e+00	0	41	104	0	60	73161
2026-01-23 20:38:21.92	25.63	15.64	-50.9	-66.1	3.6	1.51e+00	0	41	104	0	60	73119
2026-01-23 20:38:23.22	25.35	15.66	-50.9	-66.1	3.6	1.51e+00	0	41	104	0	60	72809
2026-01-23 20:38:23.94	25.20	15.68	-50.9	-66.1	3.6	1.51e+00	0	41	104	0	60	73278
2026-01-23 20:38:25.24	24.92	15.70	-50.9	-66.1	3.6	1.51e+00	0	41	104	0	60	72863
2026-01-23 20:38:25.96	24.77	15.72	-50.9	-66.1	3.6	1.51e+00	0	41	104	0	60	73022
2026-01-23 20:38:27.26	24.49	15.74	-50.9	-66.1	3.6	1.51e+00	0	41	104	0	60	72879
2026-01-23 20:38:27.98	24.34	15.76	-50.9	-66.1	3.6	1.51e+00	0	41	104	0	60	72989
2026-01-23 20:38:29.28	24.06	15.78	-50.9	-66.1	3.6	1.51e+00	0	41	104	0	60	72710
2026-01-23 20:38:30.00	23.90	15.79	-50.9	-66.1	3.6	1.51e+00	0	41	104	0	60	72939
2026-01-23 20:38:31.30	23.62	15.82	-50.9	-66.1	3.6	1.51e+00	0	41	104	0	60	72715
2026-01-23 20:38:32.02	23.47	15.83	-50.9	-66.0	3.6	1.51e+00	0	41	104	0	60	72504
2026-01-23 20:38:33.31	23.19	15.85	-50.9	-66.1	3.6	1.51e+00	0	41	104	0	60	72737
2026-01-23 20:38:34.04	23.04	15.86	-50.9	-66.1	3.6	1.51e+00	0	41	104	0	60	72905
2026-01-23 20:38:35.33	22.76	15.88	-50.9	-66.1	3.6	1.51e+00	0	41	104	0	60	73046
2026-01-23 20:38:36.06	22.60	15.90	-50.9	-66.1	3.6	1.51e+00	0	41	104	0	60	72998
2026-01-23 20:38:37.35	22.32	15.91	-50.9	-66.1	3.6	1.51e+00	0	41	104	0	60	73244
2026-01-23 20:38:38.07	22.17	15.93	-50.9	-66.1	3.6	1.51e+00	0	41	104	0	60	73203
2026-01-23 20:38:39.37	21.88	15.94	-50.9	-66.1	3.6	1.51e+00	0	41	104	0	60	73173
2026-01-23 20:38:40.09	21.73	15.95	-50.9	-66.0	3.6	1.51e+00	0	41	104	0	60	72343
2026-01-23 20:38:41.39	21.45	15.97	-50.9	-66.1	3.6	1.51e+00	0	41	104	0	60	73160
2026-01-23 20:38:42.11	21.29	15.98	-50.9	-66.1	3.6	1.51e+00	0	41	104	0	60	73153
2026-01-23 20:38:43.41	21.01	16.00	-50.9	-66.1	3.6	1.51e+00	0	41	104	0	60	73279
2026-01-23 20:38:44.13	20.85	16.01	-50.9	-66.1	3.6	1.51e+00	0	41	104	0	60	73105
2026-01-23 20:38:45.42	20.57	16.02	-50.9	-66.1	3.6	1.51e+00	0	41	104	0	60	73193
2026-01-23 20:38:46.15	20.41	16.03	-50.9	-66.1	3.6	1.51e+00	0	41	104	0	60	72886
2026-01-23 20:38:47.45	20.13	16.05	-50.9	-66.1	3.6	1.51e+00	0	41	104	0	60	72857
2026-01-23 20:38:48.17	19.97	16.05	-50.9	-66.1	3.6	1.51e+00	0	41	104	0	60	72926
2026-01-23 20:38:49.46	19.69	16.07	-50.9	-66.1	3.6	1.51e+00	0	41	104	0	60	72957
2026-01-23 20:38:50.18	19.53	16.07	-50.9	-66.1	3.6	1.51e+00	0	41	104	0	60	73064
2026-01-23 20:38:51.49	19.25	16.09	-50.9	-66.1	3.6	1.51e+00	0	41	104	0	60	72607
2026-01-23 20:38:52.21	19.09	16.09	-50.9	-66.1	3.6	1.51e+00	0	41	104	0	60	72860
2026-01-23 20:38:53.50	18.81	16.10	-50.9	-66.1	3.6	1.51e+00	0	41	104	0	60	73116
2026-01-23 20:38:54.22	18.65	16.11	-50.9	-66.1	3.6	1.51e+00	0	41	104	0	60	73263
2026-01-23 20:38:55.52	18.36	16.12	-50.9	-66.1	3.6	1.51e+00	0	41	104	0	60	72678
2026-01-23 20:38:56.24	18.21	16.12	-50.9	-66.1	3.6	1.51e+00	0	41	104	0	60	73129
2026-01-23 20:38:57.54	17.92	16.13	-50.9	-66.1	3.6	1.51e+00	0	41	104	0	60	72692
2026-01-23 20:38:58.26	17.76	16.14	-50.9	-66.1	3.6	1.51e+00	0	41	104	0	60	72685
2026-01-23 20:38:59.56	17.48	16.15	-50.9	-66.1	3.6	1.51e+00	0	41	104	0	60	72756
2026-01-23 20:39:00.28	17.32	16.15	-50.9	-66.0	3.6	1.51e+00	0	41	104	0	60	72389
2026-01-23 20:39:01.58	17.04	16.16	-50.9	-66.0	3.6	1.51e+00	0	41	104	0	60	72510
2026-01-23 20:39:02.30	16.88	16.16	-50.9	-66.1	3.6	1.51e+00	0	41	104	0	60	72961
2026-01-23 20:39:03.60	16.59	16.16	-50.9	-66.1	3.6	1.51e+00	0	41	104	0	60	72871
2026-01-23 20:39:04.32	16.43	16.17	-50.9	-66.1	3.6	1.51e+00	0	41	104	0	60	73118
2026-01-23 20:39:05.62	16.15	16.17	-50.9	-66.1	3.6	1.51e+00	0	41	104	0	60	73000
2026-01-23 20:39:06.34	15.99	16.17	-50.9	-66.1	3.6	1.51e+00	0	41	104	0	60	73036
2026-01-23 20:39:07.64	15.70	16.18	-50.9	-66.1	3.5	1.51e+00	0	41	104	0	60	72855
2026-01-23 20:39:08.36	15.55	16.18	-50.9	-66.1	3.6	1.51e+00	0	41	104	0	60	72979
2026-01-23 20:39:09.65	15.26	16.18	-50.9	-66.1	3.6	1.51e+00	0	41	104	0	60	72771
2026-01-23 20:39:10.38	15.10	16.18	-50.9	-66.1	3.6	1.51e+00	0	41	104	0	60	72815
2026-01-23 20:39:11.68	14.82	16.18	-50.9	-66.1	3.6	1.51e+00	0	41	104	0	60	73260
2026-01-23 20:39:12.40	14.66	16.18	-50.9	-66.1	3.6	1.51e+00	0	41	104	0	60	72903
2026-01-23 20:39:13.69	14.37	16.18	-50.9	-66.1	3.6	1.51e+00	0	41	104	0	60	73146
2026-01-23 20:39:14.41	14.21	16.18	-50.9	-66.1	3.6	1.51e+00	0	41	104	0	60	72910
2026-01-23 20:39:15.71	13.93	16.18	-50.9	-66.1	3.6	1.51e+00	0	41	104	0	60	73052
2026-01-23 20:39:16.43	13.77	16.18	-50.9	-66.1	3.6	1.51e+00	0	41	104	0	60	73197
2026-01-23 20:39:17.73	13.48	16.18	-50.9	-66.1	3.6	1.51e+00	0	41	104	0	60	72885
2026-01-23 20:39:18.45	13.33	16.18	-50.9	-66.1	3.6	1.51e+00	0	41	104	0	60	72730
2026-01-23 20:39:19.75	13.04	16.17	-50.9	-66.1	3.6	1.51e+00	0	41	104	0	60	73090
2026-01-23 20:39:20.47	12.88	16.17	-50.9	-66.1	3.6	1.51e+00	0	41	104	0	60	72859
2026-01-23 20:39:21.77	12.60	16.17	-50.9	-66.1	3.6	1.51e+00	0	41	104	0	60	73037
2026-01-23 20:39:22.49	12.44	16.16	-50.9	-66.1	3.6	1.51e+00	0	41	104	0	60	72775
2026-01-23 20:39:23.79	12.15	16.16	-50.9	-66.1	3.6	1.51e+00	0	41	104	0	60	73011
2026-01-23 20:39:24.51	11.99	16.15	-50.9	-66.1	3.6	1.51e+00	0	41	104	0	60	72774
2026-01-23 20:39:25.81	11.71	16.15	-50.9	-66.1	3.6	1.51e+00	0	41	104	0	60	72709
2026-01-23 20:39:26.53	11.55	16.14	-50.9	-66.1	3.6	1.51e+00	0	41	104	0	60	72562
2026-01-23 20:39:27.83	11.27	16.14	-50.9	-66.1	3.6	1.51e+00	0	41	104	0	60	72835
2026-01-23 20:39:28.55	11.11	16.13	-50.9	-66.1	3.6	1.51e+00	0	41	104	0	60	72713
2026-01-23 20:39:29.85	10.82	16.12	-50.9	-66.1	3.6	1.51e+00	0	41	104	0	60	73043
2026-01-23 20:39:30.57	10.67	16.12	-50.9	-66.1	3.6	1.51e+00	0	41	104	0	60	73016
2026-01-23 20:39:31.87	10.38	16.11	-50.9	-66.1	3.6	1.51e+00	0	41	104	0	60	73105
2026-01-23 20:39:32.59	10.22	16.10	-50.9	-66.1	3.6	1.51e+00	0	41	104	0	60	73325
2026-01-23 20:39:33.89	9.94	16.09	-50.9	-66.1	3.6	1.51e+00	0	41	104	0	60	72952
2026-01-23 20:39:34.61	9.78	16.08	-50.9	-66.1	3.6	1.51e+00	0	41	104	0	60	72984
2026-01-23 20:39:35.91	9.50	16.07	-50.9	-66.1	3.6	1.51e+00	0	41	104	0	60	73019
2026-01-23 20:39:36.63	9.34	16.06	-50.9	-66.1	3.6	1.51e+00	0	41	104	0	60	73142
2026-01-23 20:39:37.93	9.06	16.05	-50.9	-66.1	3.6	1.51e+00	0	41	104	0	60	73251
2026-01-23 20:39:38.65	8.90	16.04	-50.9	-66.1	3.6	1.51e+00	0	41	104	0	60	73103
2026-01-23 20:39:39.95	8.62	16.03	-50.9	-66.1	3.6	1.51e+00	0	41	104	0	60	72842
2026-01-23 20:39:40.67	8.46	16.02	-50.9	-66.1	3.6	1.51e+00	0	41	104	0	60	72951
2026-01-23 20:39:41.97	8.18	16.00	-50.9	-66.1	3.6	1.51e+00	0	41	104	0	60	73199
2026-01-23 20:39:42.69	8.02	15.99	-50.9	-66.1	3.6	1.51e+00	0	41	104	0	60	72743
2026-01-23 20:39:43.99	7.74	15.98	-50.9	-66.1	3.6	1.51e+00	0	41	104	0	60	73286
2026-01-23 20:39:44.71	7.58	15.97	-50.9	-66.1	3.6	1.51e+00	0	41	104	0	60	72999
2026-01-23 20:39:46.01	7.30	15.95	-50.9	-66.1	3.6	1.51e+00	0	41	104	0	60	72999
2026-01-23 20:39:46.73	7.15	15.94	-50.9	-66.1	3.6	1.51e+00	0	41	104	0	60	72872
2026-01-23 20:39:48.03	6.86	15.92	-50.9	-66.1	3.6	1.51e+00	0	41	104	0	60	73037
2026-01-23 20:39:48.75	6.71	15.91	-50.9	-66.1	3.6	1.51e+00	0	41	104	0	60	72764
2026-01-23 20:39:50.05	6.43	15.89	-50.9	-66.1	3.6	1.51e+00	0	41	104	0	60	72885
2026-01-23 20:39:50.77	6.27	15.88	-50.9	-66.2	3.6	1.51e+00	0	41	104	0	60	73384
2026-01-23 20:39:52.07	5.99	15.86	-50.9	-66.1	3.6	1.51e+00	0	41	104	0	60	72824
2026-01-23 20:39:52.79	5.84	15.85	-50.9	-66.1	3.6	1.51e+00	0	41	104	0	60	73201
2026-01-23 20:39:54.09	5.56	15.82	-50.9	-66.1	3.6	1.51e+00	0	41	104	0	60	73166
2026-01-23 20:39:54.81	5.41	15.81	-50.9	-66.1	3.6	1.51e+00	0	41	104	0	60	73124
2026-01-23 20:39:56.10	5.13	15.79	-50.9	-66.1	3.6	1.51e+00	0	41	104	0	60	73331
2026-01-23 20:39:56.83	4.97	15.78	-50.9	-66.1	3.6	1.51e+00	0	41	104	0	60	72870
2026-01-23 20:39:58.13	4.69	15.75	-50.9	-66.1	3.6	1.51e+00	0	41	104	0	60	73326
2026-01-23 20:39:58.85	4.54	15.74	-50.9	-66.1	3.6	1.51e+00	0	41	104	0	60	72631
2026-01-23 20:40:00.15	4.26	15.71	-50.9	-66.1	3.6	1.51e+00	0	41	104	0	60	73081
2026-01-23 20:40:00.87	4.11	15.70	-50.9	-66.1	3.6	1.51e+00	0	41	104	0	60	73266
2026-01-23 20:40:02.17	3.83	15.67	-50.9	-66.1	3.6	1.51e+00	0	41	104	0	60	73151
2026-01-23 20:40:02.89	3.68	15.66	-50.9	-66.1	3.6	1.51e+00	0	41	104	0	60	72870
2026-01-23 20:40:04.19	3.41	15.63	-50.9	-66.1	3.6	1.51e+00	0	41	104	0	60	73270
2026-01-23 20:40:04.90	3.26	15.62	-50.9	-66.1	3.6	1.51e+00	0	41	104	0	60	72660
2026-01-23 20:40:06.20	2.98	15.59	-50.9	-66.1	3.6	1.51e+00	0	41	104	0	60	72936
2026-01-23 20:40:06.93	2.83	15.57	-50.9	-66.1	3.6	1.51e+00	0	41	104	0	60	73079
2026-01-23 20:40:08.23	2.55	15.54	-50.9	-66.1	3.6	1.51e+00	0	41	104	0	60	73167
2026-01-23 20:40:08.95	2.40	15.53	-50.9	-66.1	3.6	1.51e+00	0	41	104	0	60	72882
2026-01-23 20:40:10.24	2.13	15.50	-50.9	-66.1	3.6	1.51e+00	0	41	104	0	60	72998
2026-01-23 20:40:10.96	1.98	15.48	-50.9	-66.1	3.6	1.51e+00	0	41	104	0	60	73271
2026-01-23 20:40:12.26	1.71	15.45	-50.9	-66.1	3.6	1.51e+00	0	41	104	0	60	72953
2026-01-23 20:40:12.98	1.56	15.43	-50.9	-66.1	3.6	1.51e+00	0	41	104	0	60	72668
2026-01-23 20:40:14.28	1.28	15.40	-50.9	-66.1	3.6	1.51e+00	0	41	104	0	60	72799
2026-01-23 20:40:15.00	1.13	15.38	-50.9	-66.1	3.6	1.51e+00	0	41	104	0	60	73027
2026-01-23 20:40:16.30	0.86	15.35	-50.9	-66.1	3.6	1.51e+00	0	41	104	0	60	73220
2026-01-23 20:40:17.02	0.71	15.33	-50.9	-66.1	3.6	1.51e+00	0	41	104	0	60	73338
2026-01-23 20:40:18.32	0.44	15.30	-50.9	-66.1	3.6	1.51e+00	0	41	104	0	60	72897
2026-01-23 20:40:19.04	0.30	15.28	-50.9	-66.1	3.6	1.51e+00	0	41	104	0	60	72542
2026-01-23 20:40:20.34	0.03	15.24	-50.9	-66.1	3.6	1.51e+00	0	41	104	0	60	72679
2026-01-23 20:40:21.06	359.88	15.22	-50.9	-66.1	3.6	1.51e+00	0	41	104	0	60	72640
2026-01-23 20:40:22.36	359.61	15.19	-50.9	-66.1	3.6	1.51e+00	0	41	104	0	60	73009
2026-01-23 20:40:23.08	359.46	15.17	-50.9	-66.1	3.6	1.51e+00	0	41	104	0	60	72774
2026-01-23 20:40:24.38	359.20	15.13	-50.9	-66.1	3.6	1.51e+00	0	41	104	0	60	73078
2026-01-23 20:40:25.10	359.05	15.11	-50.9	-66.1	3.6	1.51e+00	0	41	104	0	60	73015
2026-01-23 20:40:26.40	358.78	15.07	-50.9	-66.1	3.6	1.51e+00	0	41	104	0	60	72763
2026-01-23 20:40:27.12	358.64	15.05	-50.9	-66.1	3.6	1.51e+00	0	41	104	0	60	72838
2026-01-23 20:40:28.42	358.37	15.01	-50.9	-66.1	3.6	1.51e+00	0	41	104	0	60	72905
2026-01-23 20:40:29.14	358.23	14.99	-50.9	-66.1	3.6	1.51e+00	0	41	104	0	60	72873
2026-01-23 20:40:30.44	357.96	14.95	-50.9	-66.1	3.6	1.51e+00	0	41	104	0	60	72682
2026-01-23 20:40:31.16	357.82	14.93	-50.9	-66.1	3.6	1.51e+00	0	41	104	0	60	72916
2026-01-23 20:40:32.46	357.56	14.89	-50.9	-66.1	3.5	1.51e+00	0	41	104	0	60	72987
2026-01-23 20:40:33.18	357.41	14.87	-50.9	-66.1	3.6	1.51e+00	0	41	104	0	60	73156
2026-01-23 20:40:34.48	357.15	14.83	-50.9	-66.1	3.6	1.51e+00	0	41	104	0	60	72806
2026-01-23 20:40:35.20	357.00	14.80	-50.9	-66.1	3.6	1.51e+00	0	41	104	0	60	73270
2026-01-23 20:40:36.50	356.74	14.76	-50.9	-66.1	3.6	1.51e+00	0	41	104	0	60	73055
2026-01-23 20:40:37.22	356.60	14.74	-50.9	-66.1	3.6	1.51e+00	0	41	104	0	60	72984
2026-01-23 20:40:38.52	356.34	14.70	-50.9	-66.1	3.6	1.51e+00	0	41	104	0	60	72899
2026-01-23 20:40:39.24	356.20	14.67	-50.9	-66.1	3.6	1.51e+00	0	41	104	0	60	73033
2026-01-23 20:40:40.53	355.94	14.63	-50.9	-66.1	3.6	1.51e+00	0	41	104	0	60	73045
2026-01-23 20:40:41.26	355.80	14.61	-50.9	-66.1	3.6	1.51e+00	0	41	104	0	60	73042
2026-01-23 20:40:42.56	355.54	14.56	-50.9	-66.1	3.6	1.51e+00	0	41	104	0	60	72802
2026-01-23 20:40:43.28	355.40	14.54	-50.9	-66.1	3.6	1.51e+00	0	41	104	0	60	73054
2026-01-23 20:40:44.57	355.15	14.49	-50.9	-66.1	3.6	1.51e+00	0	41	104	0	60	73028
2026-01-23 20:40:45.30	355.01	14.47	-50.9	-66.1	3.6	1.51e+00	0	41	104	0	60	72648
2026-01-23 20:40:46.60	354.75	14.42	-50.9	-66.1	3.6	1.51e+00	0	41	104	0	60	73048
2026-01-23 20:40:47.32	354.61	14.40	-50.9	-66.1	3.6	1.51e+00	0	41	104	0	60	73007
2026-01-23 20:40:48.61	354.36	14.35	-50.9	-66.1	3.6	1.51e+00	0	41	104	0	60	73008
2026-01-23 20:40:49.34	354.22	14.33	-50.9	-66.1	3.6	1.51e+00	0	41	104	0	60	72980
2026-01-23 20:40:50.64	353.97	14.28	-50.9	-66.1	3.6	1.51e+00	0	41	104	0	60	72914
2026-01-23 20:40:51.36	353.83	14.25	-50.9	-66.1	3.6	1.51e+00	0	41	104	0	60	73001
2026-01-23 20:40:52.66	353.58	14.20	-50.9	-66.1	3.6	1.51e+00	0	41	104	0	60	72770
2026-01-23 20:40:53.38	353.44	14.18	-50.9	-66.1	3.6	1.51e+00	0	41	104	0	60	73007
2026-01-23 20:40:54.68	353.19	14.13	-50.9	-66.1	3.6	1.51e+00	0	41	104	0	60	72814
2026-01-23 20:40:55.40	353.05	14.10	-50.9	-66.1	3.6	1.51e+00	0	41	104	0	60	73196
2026-01-23 20:40:56.70	352.80	14.05	-50.9	-66.1	3.6	1.51e+00	0	41	104	0	60	73042
2026-01-23 20:40:57.42	352.67	14.03	-50.9	-66.1	3.6	1.51e+00	0	41	104	0	60	72934
2026-01-23 20:40:58.72	352.42	13.98	-50.9	-66.0	3.6	1.51e+00	0	41	104	0	60	72349
2026-01-23 20:40:59.44	352.29	13.95	-50.9	-66.1	3.6	1.51e+00	0	41	104	0	60	73061
2026-01-23 20:41:00.74	352.04	13.90	-50.9	-66.0	3.6	1.51e+00	0	41	104	0	60	72497
2026-01-23 20:41:01.46	351.90	13.87	-50.9	-66.1	3.6	1.51e+00	0	41	104	0	60	72982
2026-01-23 20:41:02.76	351.66	13.82	-50.9	-66.1	3.6	1.51e+00	0	41	104	0	60	72654
2026-01-23 20:41:03.48	351.53	13.79	-50.9	-66.1	3.6	1.51e+00	0	41	104	0	60	73175
2026-01-23 20:41:04.78	351.28	13.74	-50.9	-66.1	3.6	1.51e+00	0	41	104	0	60	72802
2026-01-23 20:41:05.50	351.15	13.71	-50.9	-66.1	3.6	1.51e+00	0	41	104	0	60	72920
2026-01-23 20:41:06.80	350.91	13.66	-50.9	-66.1	3.6	1.51e+00	0	41	104	0	60	72979
2026-01-23 20:41:07.52	350.78	13.63	-50.9	-66.1	3.6	1.51e+00	0	41	104	0	60	72744
2026-01-23 20:41:08.82	350.54	13.58	-50.9	-66.1	3.6	1.51e+00	0	41	104	0	60	72914
2026-01-23 20:41:09.54	350.40	13.55	-50.9	-66.1	3.6	1.51e+00	0	41	104	0	60	72908
2026-01-23 20:41:10.84	350.17	13.49	-50.9	-66.1	3.6	1.51e+00	0	41	104	0	60	73371
2026-01-23 20:41:11.56	350.03	13.46	-50.9	-66.1	3.6	1.51e+00	0	41	104	0	60	72911
2026-01-23 20:41:12.86	349.80	13.41	-50.9	-66.1	3.6	1.51e+00	0	41	104	0	60	73129
2026-01-23 20:41:13.58	349.67	13.38	-50.9	-66.1	3.6	1.51e+00	0	41	104	0	60	72856
2026-01-23 20:41:14.88	349.43	13.32	-50.9	-66.1	3.6	1.51e+00	0	41	104	0	60	72951
2026-01-23 20:41:15.60	349.30	13.29	-50.9	-66.1	3.6	1.51e+00	0	41	104	0	60	73026
2026-01-23 20:41:16.90	349.07	13.24	-50.9	-66.1	3.6	1.51e+00	0	41	104	0	60	73139
2026-01-23 20:41:17.62	348.94	13.21	-50.9	-66.1	3.6	1.51e+00	0	41	104	0	60	72850
2026-01-23 20:41:18.92	348.70	13.15	-50.9	-66.1	3.6	1.51e+00	0	41	104	0	60	73097
2026-01-23 20:41:19.64	348.57	13.12	-50.9	-66.1	3.6	1.51e+00	0	41	104	0	60	72825
2026-01-23 20:41:20.94	348.34	13.06	-50.9	-66.1	3.6	1.51e+00	0	41	104	0	60	72914
2026-01-23 20:41:21.66	348.22	13.03	-50.9	-66.1	3.6	1.51e+00	0	41	104	0	60	72862
2026-01-23 20:41:22.96	347.99	12.98	-50.9	-66.1	3.6	1.51e+00	0	41	104	0	60	73074
2026-01-23 20:41:23.68	347.86	12.95	-50.9	-66.1	3.5	1.51e+00	0	41	104	0	60	73014
2026-01-23 20:41:24.98	347.63	12.89	-50.9	-66.1	3.6	1.51e+00	0	41	104	0	60	72635
2026-01-23 20:41:25.70	347.50	12.86	-50.9	-66.1	3.6	1.51e+00	0	41	104	0	60	72769
2026-01-23 20:41:27.00	347.28	12.80	-50.9	-66.1	3.6	1.51e+00	0	41	104	0	60	72874
2026-01-23 20:41:27.72	347.15	12.77	-50.9	-66.1	3.6	1.51e+00	0	41	104	0	60	72586
2026-01-23 20:41:29.02	346.92	12.71	-50.9	-66.1	3.6	1.51e+00	0	41	104	0	60	72778
2026-01-23 20:41:29.74	346.80	12.68	-50.9	-66.1	3.6	1.51e+00	0	41	104	0	60	73064
2026-01-23 20:41:31.04	346.58	12.62	-50.9	-66.1	3.6	1.51e+00	0	41	104	0	60	73041
2026-01-23 20:41:31.76	346.45	12.58	-50.9	-66.1	3.6	1.51e+00	0	41	104	0	60	72623
2026-01-23 20:41:33.05	346.23	12.53	-50.9	-66.1	3.6	1.51e+00	0	41	104	0	60	72897
2026-01-23 20:41:33.77	346.11	12.49	-50.9	-66.1	3.6	1.51e+00	0	41	104	0	60	73122
2026-01-23 20:41:35.07	345.89	12.43	-50.9	-66.1	3.5	1.51e+00	0	41	104	0	60	73214
2026-01-23 20:41:35.79	345.76	12.40	-50.9	-66.1	3.6	1.51e+00	0	41	104	0	60	72650
2026-01-23 20:41:37.09	345.54	12.34	-50.9	-66.1	3.5	1.51e+00	0	41	104	0	60	72801
2026-01-23 20:41:37.81	345.42	12.31	-50.9	-66.1	3.5	1.51e+00	0	41	104	0	60	72894
2026-01-23 20:41:39.11	345.20	12.25	-50.9	-66.1	3.6	1.51e+00	0	41	104	0	60	72875
2026-01-23 20:41:39.83	345.08	12.21	-50.9	-66.1	3.5	1.51e+00	0	41	104	0	60	72891
2026-01-23 20:41:41.13	344.86	12.15	-50.9	-66.1	3.6	1.51e+00	0	41	104	0	60	72955
2026-01-23 20:41:41.85	344.74	12.12	-50.9	-66.1	3.6	1.51e+00	0	41	104	0	60	72954
2026-01-23 20:41:43.14	344.53	12.06	-50.9	-66.1	3.6	1.51e+00	0	41	104	0	60	72795
2026-01-23 20:41:43.86	344.41	12.02	-50.9	-66.1	3.6	1.51e+00	0	41	104	0	60	72900
2026-01-23 20:41:45.16	344.20	11.96	-50.9	-66.1	3.6	1.51e+00	0	41	104	0	60	73052
2026-01-23 20:41:45.88	344.08	11.93	-50.9	-66.1	3.6	1.51e+00	0	41	104	0	60	72832
2026-01-23 20:41:47.18	343.86	11.87	-50.9	-66.1	3.6	1.51e+00	0	41	104	0	60	72925
2026-01-23 20:41:47.90	343.75	11.83	-50.9	-66.1	3.6	1.51e+00	0	41	104	0	60	72762
2026-01-23 20:41:49.20	343.53	11.77	-50.9	-66.1	3.6	1.51e+00	0	41	104	0	60	72847
2026-01-23 20:41:49.92	343.42	11.73	-50.9	-66.1	3.6	1.51e+00	0	41	104	0	60	72900
2026-01-23 20:41:51.22	343.21	11.67	-50.9	-66.1	3.6	1.51e+00	0	41	104	0	60	72910
2026-01-23 20:41:51.94	343.09	11.64	-50.9	-66.0	3.6	1.51e+00	0	41	104	0	60	72449
2026-01-23 20:41:53.24	342.88	11.57	-50.9	-66.1	3.6	1.51e+00	0	41	104	0	60	72805
2026-01-23 20:41:53.96	342.77	11.54	-50.9	-66.1	3.6	1.51e+00	0	41	104	0	60	73243
2026-01-23 20:41:55.26	342.56	11.48	-50.9	-66.1	3.6	1.51e+00	0	41	104	0	60	72991
2026-01-23 20:41:55.98	342.45	11.44	-50.9	-66.1	3.6	1.51e+00	0	41	104	0	60	72887
2026-01-23 20:41:57.28	342.24	11.38	-50.9	-66.1	3.6	1.51e+00	0	41	104	0	60	73087
2026-01-23 20:41:58.00	342.13	11.34	-50.9	-66.1	3.6	1.51e+00	0	41	104	0	60	73214
2026-01-23 20:41:59.30	341.92	11.28	-50.9	-66.1	3.6	1.51e+00	0	41	104	0	60	72895
2026-01-23 20:42:00.02	341.81	11.24	-50.9	-66.1	3.6	1.51e+00	0	41	104	0	60	72943
2026-01-23 20:42:01.32	341.60	11.18	-50.9	-66.1	3.6	1.51e+00	0	41	104	0	60	73136
2026-01-23 20:42:02.04	341.49	11.14	-50.9	-66.1	3.6	1.51e+00	0	41	104	0	60	72856
2026-01-23 20:42:03.34	341.29	11.08	-50.9	-66.1	3.6	1.51e+00	0	41	104	0	60	73046
2026-01-23 20:42:04.06	341.18	11.04	-50.9	-66.1	3.6	1.51e+00	0	41	104	0	60	72939
2026-01-23 20:42:05.36	340.98	10.98	-50.9	-66.1	3.6	1.51e+00	0	41	104	0	60	72787
2026-01-23 20:42:06.08	340.87	10.94	-50.9	-66.1	3.6	1.51e+00	0	41	104	0	60	72923
2026-01-23 20:42:07.38	340.67	10.88	-50.9	-66.1	3.6	1.51e+00	0	41	104	0	60	73146
2026-01-23 20:42:08.10	340.56	10.84	-50.9	-66.1	3.6	1.51e+00	0	41	104	0	60	73218
2026-01-23 20:42:09.40	340.36	10.77	-50.9	-66.1	3.6	1.51e+00	0	41	104	0	60	73290
2026-01-23 20:42:10.12	340.25	10.74	-50.9	-66.1	3.6	1.51e+00	0	41	104	0	60	73126
2026-01-23 20:42:11.42	340.06	10.67	-50.9	-66.1	3.6	1.51e+00	0	41	104	0	60	72862
2026-01-23 20:42:12.14	339.95	10.64	-50.9	-66.1	3.6	1.51e+00	0	41	104	0	60	72852
2026-01-23 20:42:13.44	339.75	10.57	-50.9	-66.1	3.6	1.51e+00	0	41	104	0	60	73117
2026-01-23 20:42:14.16	339.65	10.53	-50.9	-66.2	3.6	1.51e+00	0	41	104	0	60	73499
2026-01-23 20:42:15.46	339.45	10.47	-50.9	-66.1	3.6	1.51e+00	0	41	104	0	60	73212
2026-01-23 20:42:16.18	339.35	10.43	-50.9	-66.1	3.6	1.51e+00	0	41	104	0	60	72843
2026-01-23 20:42:17.48	339.15	10.37	-50.9	-66.1	3.6	1.51e+00	0	41	104	0	60	72591
2026-01-23 20:42:18.20	339.05	10.33	-50.9	-66.0	3.6	1.51e+00	0	41	104	0	60	72521
2026-01-23 20:42:19.50	338.86	10.26	-50.9	-66.1	3.6	1.51e+00	0	41	104	0	60	72559
2026-01-23 20:42:20.22	338.75	10.23	-50.9	-66.1	3.6	1.51e+00	0	41	104	0	60	73086
2026-01-23 20:42:21.52	338.56	10.16	-50.9	-66.1	3.6	1.51e+00	0	41	104	0	60	72998
2026-01-23 20:42:22.24	338.46	10.12	-50.9	-66.1	3.6	1.51e+00	0	41	104	0	60	72806
2026-01-23 20:42:23.54	338.27	10.06	-50.9	-66.1	3.6	1.51e+00	0	41	104	0	60	73015
2026-01-23 20:42:24.26	338.17	10.02	-50.9	-66.1	3.6	1.51e+00	0	41	104	0	60	72817
2026-01-23 20:42:25.56	337.98	9.95	-50.9	-66.1	3.6	1.51e+00	0	41	104	0	60	73188
2026-01-23 20:42:26.28	337.88	9.91	-50.9	-66.1	3.6	1.51e+00	0	41	104	0	60	73035
2026-01-23 20:42:27.58	337.69	9.85	-50.9	-66.1	3.6	1.51e+00	0	41	104	0	60	72970
2026-01-23 20:42:28.31	337.59	9.81	-50.9	-66.1	3.6	1.51e+00	0	41	104	0	60	73126
2026-01-23 20:42:29.60	337.41	9.74	-50.9	-66.1	3.6	1.51e+00	0	41	104	0	60	72843
2026-01-23 20:42:30.33	337.30	9.70	-50.9	-66.1	3.6	1.51e+00	0	41	104	0	60	73323
2026-01-23 20:42:31.62	337.12	9.64	-50.9	-66.1	3.6	1.51e+00	0	41	104	0	60	72787
2026-01-23 20:42:32.35	337.02	9.60	-50.9	-66.1	3.6	1.51e+00	0	41	104	0	60	72710
2026-01-23 20:42:33.65	336.84	9.53	-50.9	-66.1	3.6	1.51e+00	0	41	104	0	60	72986
2026-01-23 20:42:34.37	336.74	9.49	-50.9	-66.1	3.6	1.51e+00	0	41	104	0	60	72850
2026-01-23 20:42:35.67	336.56	9.43	-50.9	-66.1	3.6	1.51e+00	0	41	104	0	60	72634
2026-01-23 20:42:36.39	336.46	9.39	-50.9	-66.1	3.6	1.51e+00	0	41	104	0	60	72754
2026-01-23 20:42:37.69	336.28	9.32	-50.9	-66.1	3.6	1.51e+00	0	41	104	0	60	72616
2026-01-23 20:42:38.41	336.18	9.28	-50.9	-66.1	3.6	1.51e+00	0	41	104	0	60	73320
2026-01-23 20:42:39.71	336.00	9.22	-50.9	-66.1	3.6	1.51e+00	0	41	104	0	60	73023
2026-01-23 20:42:40.43	335.91	9.18	-50.9	-66.1	3.6	1.51e+00	0	41	104	0	60	73293
2026-01-23 20:42:41.73	335.73	9.11	-50.9	-66.1	3.6	1.51e+00	0	41	104	0	60	72774
2026-01-23 20:42:42.45	335.63	9.07	-50.9	-66.1	3.6	1.51e+00	0	41	104	0	60	72690
2026-01-23 20:42:43.75	335.46	9.00	-50.9	-66.1	3.6	1.51e+00	0	41	104	0	60	72663
2026-01-23 20:42:44.47	335.36	8.97	-50.9	-66.1	3.6	1.51e+00	0	41	104	0	60	72987
2026-01-23 20:42:45.77	335.19	8.90	-50.9	-66.1	3.6	1.51e+00	0	41	104	0	60	72928
2026-01-23 20:42:46.49	335.09	8.86	-50.9	-66.1	3.6	1.51e+00	0	41	104	0	60	72989
2026-01-23 20:42:47.79	334.92	8.79	-50.9	-66.1	3.6	1.51e+00	0	41	104	0	60	72573
2026-01-23 20:42:48.51	334.83	8.75	-50.9	-66.1	3.6	1.51e+00	0	41	104	0	60	72778
2026-01-23 20:42:49.80	334.66	8.69	-50.9	-66.1	3.6	1.51e+00	0	41	104	0	60	72646
2026-01-23 20:42:50.53	334.56	8.65	-50.9	-66.1	3.6	1.51e+00	0	41	104	0	60	72873
2026-01-23 20:42:51.83	334.39	8.58	-50.9	-66.1	3.6	1.51e+00	0	41	104	0	60	72551
2026-01-23 20:42:52.55	334.30	8.54	-50.9	-66.1	3.6	1.51e+00	0	41	104	0	60	72949
2026-01-23 20:42:53.85	334.13	8.47	-50.9	-66.1	3.6	1.51e+00	0	41	104	0	60	73072
2026-01-23 20:42:54.57	334.04	8.43	-50.9	-66.1	3.6	1.51e+00	0	41	104	0	60	72960
2026-01-23 20:42:55.87	333.87	8.37	-50.9	-66.1	3.6	1.51e+00	0	41	104	0	60	72898
2026-01-23 20:42:56.59	333.78	8.33	-50.9	-66.1	3.6	1.51e+00	0	41	104	0	60	72825
2026-01-23 20:42:57.89	333.61	8.26	-50.9	-66.1	3.6	1.51e+00	0	41	104	0	60	72766
2026-01-23 20:42:58.61	333.52	8.22	-50.9	-66.1	3.6	1.51e+00	0	41	104	0	60	73058
2026-01-23 20:42:59.91	333.36	8.15	-50.9	-66.1	3.6	1.51e+00	0	41	104	0	60	73314
2026-01-23 20:43:00.63	333.27	8.11	-50.9	-66.1	3.6	1.51e+00	0	41	104	0	60	73098
2026-01-23 20:43:01.93	333.10	8.04	-50.9	-66.1	3.6	1.51e+00	0	41	104	0	60	72732
2026-01-23 20:43:02.65	333.01	8.01	-50.9	-66.1	3.6	1.51e+00	0	41	104	0	60	72878
2026-01-23 20:43:03.95	332.85	7.94	-50.9	-66.0	3.6	1.51e+00	0	41	104	0	60	72459
2026-01-23 20:43:04.67	332.76	7.90	-50.9	-66.1	3.6	1.51e+00	0	41	104	0	60	73171
2026-01-23 20:43:05.97	332.60	7.83	-50.9	-66.1	3.6	1.51e+00	0	41	104	0	60	73292
2026-01-23 20:43:06.69	332.51	7.79	-50.9	-66.1	3.6	1.51e+00	0	41	104	0	60	73298
2026-01-23 20:43:07.99	332.35	7.72	-50.9	-66.1	3.6	1.51e+00	0	41	104	0	60	72708
2026-01-23 20:43:08.71	332.27	7.68	-50.9	-66.1	3.6	1.51e+00	0	41	104	0	60	72775
2026-01-23 20:43:10.01	332.11	7.61	-50.9	-66.1	3.6	1.51e+00	0	41	104	0	60	72939
2026-01-23 20:43:10.73	332.02	7.58	-50.9	-66.1	3.6	1.51e+00	0	41	104	0	60	72963
2026-01-23 20:43:12.02	331.86	7.51	-50.9	-66.1	3.6	1.51e+00	0	41	104	0	60	72851
2026-01-23 20:43:12.75	331.78	7.47	-50.9	-66.1	3.6	1.51e+00	0	41	104	0	60	72605
2026-01-23 20:43:14.04	331.62	7.40	-50.9	-66.1	3.6	1.51e+00	0	41	104	0	60	73250
2026-01-23 20:43:14.77	331.53	7.36	-50.9	-66.1	3.6	1.51e+00	0	41	104	0	60	72930
2026-01-23 20:43:16.07	331.38	7.29	-50.9	-66.1	3.6	1.51e+00	0	41	104	0	60	72795
2026-01-23 20:43:16.79	331.29	7.25	-50.9	-66.0	3.6	1.51e+00	0	41	104	0	60	72530
2026-01-23 20:43:18.08	331.14	7.18	-50.9	-66.1	3.6	1.51e+00	0	41	104	0	60	72704
2026-01-23 20:43:18.81	331.06	7.15	-50.9	-66.1	3.6	1.51e+00	0	41	104	0	60	72957
2026-01-23 20:43:20.10	330.90	7.08	-50.9	-66.1	3.6	1.51e+00	0	41	104	0	60	72836
2026-01-23 20:43:20.83	330.82	7.04	-50.9	-66.1	3.6	1.51e+00	0	41	104	0	60	72941
2026-01-23 20:43:22.13	330.67	6.97	-50.9	-66.1	3.6	1.51e+00	0	41	104	0	60	73202
2026-01-23 20:43:22.85	330.58	6.93	-50.9	-66.1	3.6	1.51e+00	0	41	104	0	60	72747
2026-01-23 20:43:24.15	330.43	6.86	-50.9	-66.1	3.6	1.51e+00	0	41	104	0	60	73051
2026-01-23 20:43:24.87	330.35	6.82	-50.9	-66.0	3.6	1.51e+00	0	41	104	0	60	72348
2026-01-23 20:43:26.17	330.20	6.75	-50.9	-66.1	3.6	1.51e+00	0	41	104	0	60	72982
2026-01-23 20:43:26.89	330.12	6.72	-50.9	-66.1	3.6	1.51e+00	0	41	104	0	60	72832
2026-01-23 20:43:28.19	329.97	6.65	-50.9	-66.1	3.6	1.51e+00	0	41	104	0	60	72994
2026-01-23 20:43:28.91	329.89	6.61	-50.9	-66.1	3.6	1.51e+00	0	41	104	0	60	72867
2026-01-23 20:43:30.21	329.74	6.54	-50.9	-66.1	3.6	1.51e+00	0	41	104	0	60	72836
2026-01-23 20:43:30.93	329.66	6.50	-50.9	-66.1	3.6	1.51e+00	0	41	104	0	60	72992
2026-01-23 20:43:32.23	329.52	6.43	-50.9	-66.1	3.6	1.51e+00	0	41	104	0	60	72923
2026-01-23 20:43:32.95	329.44	6.39	-50.9	-66.1	3.6	1.51e+00	0	41	104	0	60	73169
2026-01-23 20:43:34.25	329.29	6.32	-50.9	-66.1	3.6	1.51e+00	0	41	104	0	60	72540
2026-01-23 20:43:34.97	329.21	6.29	-50.9	-66.1	3.6	1.51e+00	0	41	104	0	60	72884
2026-01-23 20:43:36.27	329.07	6.22	-50.9	-66.1	3.6	1.51e+00	0	41	104	0	60	72587
2026-01-23 20:43:36.99	328.99	6.18	-50.9	-66.1	3.6	1.51e+00	0	41	104	0	60	72729
2026-01-23 20:43:38.29	328.85	6.11	-50.9	-66.2	3.6	1.51e+00	0	41	104	0	60	73532
2026-01-23 20:43:39.01	328.77	6.07	-50.9	-66.1	3.6	1.51e+00	0	41	104	0	60	72944
2026-01-23 20:43:40.31	328.63	6.00	-50.9	-66.1	3.5	1.51e+00	0	41	104	0	60	72568
2026-01-23 20:43:41.03	328.55	5.96	-50.9	-66.1	3.6	1.51e+00	0	41	104	0	60	72709
2026-01-23 20:43:42.33	328.41	5.89	-50.9	-66.1	3.6	1.51e+00	0	41	104	0	60	72789
2026-01-23 20:43:43.05	328.33	5.86	-50.9	-66.1	3.6	1.51e+00	0	41	104	0	60	73236
2026-01-23 20:43:44.35	328.19	5.79	-50.9	-66.1	3.6	1.51e+00	0	41	104	0	60	72820
2026-01-23 20:43:45.07	328.12	5.75	-50.9	-66.1	3.6	1.51e+00	0	41	104	0	60	73006
2026-01-23 20:43:46.37	327.98	5.68	-50.9	-66.1	3.6	1.51e+00	0	41	104	0	60	73121
2026-01-23 20:43:47.09	327.90	5.64	-50.9	-66.1	3.6	1.51e+00	0	41	104	0	60	72920
2026-01-23 20:43:48.39	327.76	5.57	-50.9	-66.1	3.6	1.51e+00	0	41	104	0	60	72951
2026-01-23 20:43:49.11	327.69	5.53	-50.9	-66.1	3.6	1.51e+00	0	41	104	0	60	72750
2026-01-23 20:43:50.41	327.55	5.46	-50.9	-66.1	3.6	1.51e+00	0	41	104	0	60	72982
2026-01-23 20:43:51.13	327.48	5.43	-50.9	-66.1	3.6	1.51e+00	0	41	104	0	60	72641
2026-01-23 20:43:52.43	327.34	5.36	-50.9	-66.1	3.6	1.51e+00	0	41	104	0	60	72902
2026-01-23 20:43:53.15	327.27	5.32	-50.9	-66.1	3.6	1.51e+00	0	41	104	0	60	72776
2026-01-23 20:43:54.45	327.13	5.25	-50.9	-66.0	3.6	1.51e+00	0	41	104	0	60	72459
2026-01-23 20:43:55.17	327.06	5.21	-50.9	-66.1	3.6	1.51e+00	0	41	104	0	60	73243
2026-01-23 20:43:56.47	326.93	5.14	-50.9	-66.1	3.6	1.51e+00	0	41	104	0	60	73131
2026-01-23 20:43:57.19	326.85	5.11	-50.9	-66.1	3.6	1.51e+00	0	41	104	0	60	72895
2026-01-23 20:43:58.49	326.72	5.04	-50.9	-66.1	3.6	1.51e+00	0	42	104	0	60	72717
2026-01-23 20:43:59.21	326.65	5.00	-50.9	-66.0	3.6	1.51e+00	0	41	104	0	60	72311
2026-01-23 20:44:00.51	326.52	4.93	-50.9	-66.1	3.6	1.51e+00	0	41	104	0	60	73189
2026-01-23 20:44:01.23	326.45	4.89	-50.9	-66.1	3.6	1.51e+00	0	41	104	0	60	72908
2026-01-23 20:44:02.53	326.32	4.82	-50.9	-66.1	3.6	1.51e+00	0	41	104	0	60	72868
2026-01-23 20:44:03.25	326.24	4.79	-50.9	-66.1	3.6	1.51e+00	0	41	104	0	60	72590
2026-01-23 20:44:04.54	326.12	4.72	-50.9	-66.1	3.6	1.51e+00	0	41	104	0	60	72700
2026-01-23 20:44:05.26	326.05	4.68	-50.9	-66.1	3.6	1.51e+00	0	41	104	0	60	72673
2026-01-23 20:44:06.56	325.92	4.61	-50.9	-66.1	3.6	1.51e+00	0	41	104	0	60	72770
2026-01-23 20:44:07.28	325.85	4.57	-50.9	-66.0	3.6	1.51e+00	0	41	104	0	60	72514
2026-01-23 20:44:08.58	325.72	4.50	-50.9	-66.1	3.6	1.51e+00	0	41	104	0	60	72794
2026-01-23 20:44:09.30	325.65	4.47	-50.9	-66.1	3.6	1.51e+00	0	41	104	0	60	72970
2026-01-23 20:44:10.60	325.52	4.40	-50.9	-66.1	3.6	1.51e+00	0	41	104	0	60	72736
2026-01-23 20:44:11.32	325.45	4.36	-50.9	-66.1	3.6	1.51e+00	0	41	104	0	60	72877
2026-01-23 20:44:12.62	325.33	4.29	-50.9	-66.1	3.6	1.51e+00	0	41	104	0	60	73156
2026-01-23 20:44:13.34	325.26	4.25	-50.9	-66.1	3.6	1.51e+00	0	41	104	0	60	72971
2026-01-23 20:44:14.64	325.14	4.19	-50.9	-66.1	3.6	1.51e+00	0	41	104	0	60	72709
2026-01-23 20:44:15.36	325.07	4.15	-50.9	-66.1	3.6	1.51e+00	0	41	104	0	60	72813
2026-01-23 20:44:16.66	324.94	4.08	-50.9	-66.1	3.6	1.51e+00	0	41	104	0	60	72704
2026-01-23 20:44:17.38	324.88	4.04	-50.9	-66.1	3.6	1.51e+00	0	41	104	0	60	72718
2026-01-23 20:44:18.68	324.75	3.97	-50.9	-66.1	3.6	1.51e+00	0	41	104	0	60	72744
2026-01-23 20:44:19.40	324.69	3.94	-50.9	-66.1	3.6	1.51e+00	0	41	104	0	60	72739
2026-01-23 20:44:20.70	324.56	3.87	-50.9	-66.1	3.5	1.51e+00	0	41	104	0	60	72881
2026-01-23 20:44:21.42	324.50	3.83	-50.9	-66.1	3.6	1.51e+00	0	41	104	0	60	72594
2026-01-23 20:44:22.72	324.38	3.76	-50.9	-66.1	3.6	1.51e+00	0	41	104	0	60	72880
2026-01-23 20:44:23.44	324.31	3.72	-50.9	-66.1	3.6	1.51e+00	0	41	104	0	60	72836
2026-01-23 20:44:24.74	324.19	3.66	-50.9	-66.1	3.6	1.51e+00	0	41	104	0	60	72828
2026-01-23 20:44:25.46	324.12	3.62	-50.9	-66.1	3.6	1.51e+00	0	41	104	0	60	72666
2026-01-23 20:44:26.76	324.01	3.55	-50.9	-66.1	3.6	1.51e+00	0	41	104	0	60	72982
2026-01-23 20:44:27.48	323.94	3.51	-50.9	-66.1	3.6	1.51e+00	0	42	104	0	60	73140
2026-01-23 20:44:28.78	323.82	3.45	-50.9	-66.1	3.6	1.51e+00	0	41	104	0	60	72787
2026-01-23 20:44:29.50	323.76	3.41	-50.9	-66.1	3.6	1.51e+00	0	41	104	0	60	73085
2026-01-23 20:44:30.80	323.64	3.34	-50.9	-66.0	3.6	1.51e+00	0	41	104	0	60	72273
2026-01-23 20:44:31.52	323.58	3.30	-50.9	-66.0	3.6	1.51e+00	0	42	104	0	60	72353
2026-01-23 20:44:32.82	323.46	3.24	-50.9	-66.1	3.6	1.51e+00	0	41	104	0	60	72706
2026-01-23 20:44:33.54	323.40	3.20	-50.9	-66.1	3.6	1.51e+00	0	41	104	0	60	72927
2026-01-23 20:44:34.84	323.28	3.13	-50.9	-66.1	3.6	1.51e+00	0	41	104	0	60	72755
2026-01-23 20:44:35.56	323.22	3.09	-50.9	-66.1	3.6	1.51e+00	0	41	104	0	60	72768
2026-01-23 20:44:36.86	323.10	3.03	-50.9	-66.1	3.6	1.51e+00	0	41	104	0	60	72897
2026-01-23 20:44:37.58	323.04	2.99	-50.9	-66.0	3.6	1.51e+00	0	41	104	0	60	72489
2026-01-23 20:44:38.88	322.92	2.92	-50.9	-66.1	3.6	1.51e+00	0	41	104	0	60	72724
2026-01-23 20:44:39.60	322.86	2.88	-50.9	-66.1	3.6	1.51e+00	0	41	104	0	60	72740
2026-01-23 20:44:40.90	322.75	2.82	-50.9	-66.1	3.6	1.51e+00	0	41	104	0	60	72783
2026-01-23 20:44:41.62	322.69	2.78	-50.9	-66.1	3.6	1.51e+00	0	41	104	0	60	72715
2026-01-23 20:44:42.92	322.58	2.71	-50.9	-66.1	3.6	1.51e+00	0	41	104	0	60	72921
2026-01-23 20:44:43.64	322.51	2.68	-50.9	-66.1	3.6	1.51e+00	0	42	104	0	60	72981
2026-01-23 20:44:44.94	322.40	2.61	-50.9	-66.1	3.6	1.51e+00	0	41	104	0	60	73008
2026-01-23 20:44:45.66	322.34	2.57	-50.9	-66.1	3.6	1.51e+00	0	41	104	0	60	73153
2026-01-23 20:44:46.96	322.23	2.50	-50.9	-66.1	3.6	1.51e+00	0	41	104	0	60	73080
2026-01-23 20:44:47.68	322.17	2.47	-50.9	-66.1	3.6	1.51e+00	0	41	104	0	60	72946
2026-01-23 20:44:48.97	322.06	2.40	-50.9	-66.1	3.6	1.51e+00	0	41	104	0	60	72539
2026-01-23 20:44:49.69	322.00	2.36	-50.9	-66.1	3.6	1.51e+00	0	41	104	0	60	73024
2026-01-23 20:44:50.99	321.89	2.30	-50.9	-66.1	3.6	1.51e+00	0	41	104	0	60	72690
2026-01-23 20:44:51.71	321.83	2.26	-50.9	-66.1	3.6	1.51e+00	0	42	104	0	60	72922
2026-01-23 20:44:53.01	321.72	2.19	-50.9	-66.1	3.5	1.51e+00	0	42	104	0	60	72839
2026-01-23 20:44:53.73	321.66	2.16	-50.9	-66.1	3.6	1.51e+00	0	42	104	0	60	73042
2026-01-23 20:44:55.03	321.56	2.09	-50.9	-66.1	3.6	1.51e+00	0	42	104	0	60	72734
2026-01-23 20:44:55.75	321.50	2.05	-50.9	-66.1	3.6	1.51e+00	0	41	104	0	60	72843
2026-01-23 20:44:57.05	321.39	1.99	-50.9	-66.1	3.6	1.51e+00	0	41	104	0	60	72830
2026-01-23 20:44:57.77	321.33	1.95	-50.9	-66.1	3.6	1.51e+00	0	41	104	0	60	72792
2026-01-23 20:44:59.07	321.23	1.88	-50.9	-66.1	3.6	1.51e+00	0	42	104	0	60	72785
2026-01-23 20:44:59.79	321.17	1.85	-50.9	-66.1	3.6	1.51e+00	0	41	104	0	60	73137
2026-01-23 20:45:01.08	321.07	1.78	-50.9	-66.1	3.6	1.51e+00	0	41	104	0	60	72632
2026-01-23 20:45:01.80	321.01	1.74	-50.9	-66.1	3.6	1.51e+00	0	41	104	0	60	72820
2026-01-23 20:45:03.10	320.90	1.68	-50.9	-66.1	3.6	1.51e+00	0	41	104	0	60	73125
2026-01-23 20:45:03.83	320.85	1.64	-50.9	-66.1	3.6	1.51e+00	0	42	104	0	60	72847
2026-01-23 20:45:05.12	320.74	1.58	-50.9	-66.1	3.6	1.51e+00	0	41	104	0	60	72959
2026-01-23 20:45:05.84	320.69	1.54	-50.9	-66.1	3.6	1.51e+00	0	41	104	0	60	72845
2026-01-23 20:45:07.14	320.58	1.47	-50.9	-66.1	3.6	1.51e+00	0	41	104	0	60	72554
2026-01-23 20:45:07.86	320.53	1.44	-50.9	-66.1	3.6	1.51e+00	0	41	104	0	60	72808
2026-01-23 20:45:09.16	320.43	1.37	-50.9	-66.1	3.6	1.51e+00	0	42	104	0	60	72935
2026-01-23 20:45:09.88	320.37	1.33	-50.9	-66.1	3.6	1.51e+00	0	41	104	0	60	72863
2026-01-23 20:45:11.18	320.27	1.27	-50.9	-66.1	3.6	1.51e+00	0	41	104	0	60	72815
2026-01-23 20:45:11.90	320.21	1.23	-50.9	-66.1	3.6	1.51e+00	0	41	104	0	60	72740
2026-01-23 20:45:13.20	320.11	1.17	-50.9	-66.1	3.6	1.51e+00	0	41	104	0	60	73244
2026-01-23 20:45:13.92	320.06	1.13	-50.9	-66.1	3.6	1.51e+00	0	41	104	0	60	72771
2026-01-23 20:45:15.21	319.96	1.07	-50.9	-66.1	3.6	1.51e+00	0	41	104	0	60	73102
2026-01-23 20:45:15.94	319.90	1.03	-50.9	-66.1	3.6	1.51e+00	0	42	104	0	60	72846
2026-01-23 20:45:17.23	319.80	0.96	-50.9	-66.1	3.6	1.51e+00	0	42	104	0	60	72826
2026-01-23 20:45:17.96	319.75	0.93	-50.9	-66.1	3.6	1.51e+00	0	42	104	0	60	72876
2026-01-23 20:45:19.25	319.65	0.86	-50.9	-66.1	3.6	1.51e+00	0	41	104	0	60	73159
2026-01-23 20:45:19.97	319.60	0.83	-50.9	-66.0	3.6	1.51e+00	0	41	104	0	60	72406
2026-01-23 20:45:21.27	319.50	0.76	-50.9	-66.1	3.6	1.51e+00	0	41	104	0	60	72961
2026-01-23 20:45:21.99	319.45	0.72	-50.9	-66.1	3.6	1.51e+00	0	42	104	0	60	72929
