passes_logs/2026/01/23/R4.6S_Anadyr/R4.6S_Anadyr__20260123_030246_NOAA_21_JPSS-2_rec.log

#Pass ID: 20260123_030246_NOAA 21 (JPSS-2)
#Satellite: NOAA 21 (JPSS-2)
#Configuration: NOAA-21
#almurnet v.1.7.20251203
#Start time: 2026-01-23 03:02:49

#Version: 2.2.20231116
#Station: R4.6S_Anadyr
#Location: 177.4865 lon 64.73178 lat
#TLE: 1 54234U 22150A   26022.41365820  .00000211  00000+0  12084-3 0  9990
#TLE: 2 54234  98.7507 323.2240 0000658 234.5287 125.5828 14.19537645165864

#Time	Az	El	Level	Level2	SNR	BER	BlckErr	Temp	State	Recorded	gain1	gain2
2026-01-23 03:02:49.54	232.02	0.16	-51.0	-62.4	3.3	1.54e+00	0	41	0	0	60	46503
2026-01-23 03:02:50.55	232.11	0.20	-50.9	-63.8	3.5	1.52e+00	0	41	104	0	60	54311
2026-01-23 03:02:51.56	232.20	0.25	-51.0	-64.0	3.5	1.52e+00	0	41	104	0	60	55444
2026-01-23 03:02:52.57	232.29	0.29	-51.0	-63.9	3.5	1.52e+00	0	41	104	0	60	55135
2026-01-23 03:02:53.58	232.37	0.34	-51.0	-63.9	3.5	1.52e+00	0	41	104	0	60	55195
2026-01-23 03:02:54.59	232.46	0.38	-50.9	-64.0	3.5	1.52e+00	0	41	104	0	60	55424
2026-01-23 03:02:55.60	232.55	0.43	-51.0	-63.9	3.5	1.52e+00	0	41	104	0	60	55086
2026-01-23 03:02:56.61	232.64	0.47	-50.9	-63.9	3.5	1.51e+00	0	41	104	0	60	55221
2026-01-23 03:02:57.62	232.73	0.52	-50.8	-63.9	3.5	1.52e+00	0	41	104	0	60	55175
2026-01-23 03:02:58.63	232.82	0.56	-50.8	-63.9	3.5	1.52e+00	0	41	104	0	60	55259
2026-01-23 03:02:59.64	232.91	0.61	-51.0	-64.0	3.5	1.52e+00	0	41	104	0	60	55701
2026-01-23 03:03:00.65	233.00	0.65	-51.1	-63.9	3.5	1.52e+00	0	41	104	0	60	55228
2026-01-23 03:03:01.66	233.09	0.70	-51.1	-64.0	3.5	1.52e+00	0	41	104	0	60	55333
2026-01-23 03:03:02.66	233.18	0.74	-51.1	-64.0	3.5	1.52e+00	0	41	104	0	60	55447
2026-01-23 03:03:03.68	233.27	0.79	-51.1	-64.0	3.5	1.52e+00	0	41	104	0	60	55557
2026-01-23 03:03:04.69	233.36	0.84	-51.1	-63.9	3.5	1.52e+00	0	41	104	0	60	55180
2026-01-23 03:03:05.70	233.45	0.88	-51.0	-63.9	3.5	1.52e+00	0	41	104	0	60	54930
2026-01-23 03:03:06.71	233.54	0.93	-51.0	-63.8	3.5	1.52e+00	0	41	104	0	60	54407
2026-01-23 03:03:07.72	233.63	0.97	-50.9	-63.7	3.5	1.51e+00	0	41	104	0	60	53787
2026-01-23 03:03:08.73	233.73	1.02	-50.6	-63.5	3.5	1.52e+00	0	41	104	0	60	52293
2026-01-23 03:03:09.74	233.82	1.06	-50.3	-63.1	3.5	1.52e+00	0	41	104	0	60	50415
2026-01-23 03:03:10.75	233.91	1.11	-49.9	-62.7	3.5	1.52e+00	0	41	104	0	60	48160
2026-01-23 03:03:11.76	234.00	1.15	-49.1	-62.0	3.5	1.52e+00	0	41	104	0	60	43980
2026-01-23 03:03:12.77	234.10	1.20	-48.7	-61.6	3.5	1.51e+00	0	41	104	0	60	42008
2026-01-23 03:03:13.78	234.19	1.25	-48.7	-61.6	3.5	1.52e+00	0	41	104	0	60	42094
2026-01-23 03:03:14.79	234.28	1.29	-48.7	-61.5	3.5	1.52e+00	0	41	104	0	60	41935
2026-01-23 03:03:15.80	234.38	1.34	-48.7	-61.5	3.5	1.52e+00	0	41	104	0	60	41942
2026-01-23 03:03:16.81	234.47	1.38	-48.7	-61.6	3.5	1.51e+00	0	41	104	0	60	42079
2026-01-23 03:03:17.82	234.57	1.43	-48.7	-61.6	3.5	1.52e+00	0	41	104	0	60	41969
2026-01-23 03:03:18.83	234.66	1.47	-48.7	-61.6	3.5	1.52e+00	0	41	104	0	60	42013
2026-01-23 03:03:19.84	234.76	1.52	-48.7	-61.5	3.5	1.52e+00	0	41	104	0	60	41942
2026-01-23 03:03:20.85	234.85	1.57	-48.7	-61.6	3.5	1.52e+00	0	41	104	0	60	42081
2026-01-23 03:03:21.86	234.95	1.61	-48.7	-61.5	3.5	1.52e+00	0	41	104	0	60	41910
2026-01-23 03:03:22.87	235.04	1.66	-48.7	-61.5	3.5	1.52e+00	0	41	104	0	60	41932
2026-01-23 03:03:23.88	235.14	1.70	-48.7	-61.6	3.5	1.52e+00	0	42	104	0	60	41974
2026-01-23 03:03:24.89	235.24	1.75	-48.7	-61.5	3.5	1.51e+00	0	42	104	0	60	41907
2026-01-23 03:03:25.90	235.33	1.79	-48.7	-61.6	3.5	1.52e+00	0	41	104	0	60	42021
2026-01-23 03:03:26.91	235.43	1.84	-48.7	-61.5	3.5	1.52e+00	0	41	104	0	60	41892
2026-01-23 03:03:27.92	235.53	1.89	-48.7	-61.5	3.5	1.52e+00	0	41	104	0	60	41797
2026-01-23 03:03:28.93	235.62	1.93	-48.7	-61.6	3.5	1.51e+00	0	42	104	0	60	42025
2026-01-23 03:03:29.94	235.72	1.98	-48.7	-61.6	3.5	1.52e+00	0	42	104	0	60	42016
2026-01-23 03:03:30.95	235.82	2.02	-48.7	-61.5	3.5	1.52e+00	0	42	104	0	60	41810
2026-01-23 03:03:31.96	235.92	2.07	-48.7	-61.5	3.5	1.52e+00	0	42	104	0	60	41945
2026-01-23 03:03:32.97	236.02	2.11	-48.7	-61.5	3.5	1.52e+00	0	42	104	0	60	41935
2026-01-23 03:03:33.98	236.12	2.16	-48.7	-61.5	3.5	1.52e+00	0	42	104	0	60	41901
2026-01-23 03:03:35.00	236.22	2.21	-48.7	-61.5	3.5	1.52e+00	0	42	104	0	60	41896
2026-01-23 03:03:36.01	236.32	2.25	-48.7	-61.5	3.5	1.52e+00	0	42	104	0	60	41828
2026-01-23 03:03:37.02	236.42	2.30	-48.7	-61.5	3.5	1.52e+00	0	42	104	0	60	41917
2026-01-23 03:03:38.03	236.52	2.34	-48.7	-61.5	3.5	1.52e+00	0	42	104	0	60	41776
2026-01-23 03:03:39.04	236.62	2.39	-48.7	-61.5	3.5	1.52e+00	0	42	104	0	60	41913
2026-01-23 03:03:40.04	236.72	2.44	-48.7	-61.5	3.5	1.52e+00	0	42	104	0	60	41906
2026-01-23 03:03:41.05	236.82	2.48	-48.7	-61.6	3.5	1.52e+00	0	42	104	0	60	42065
2026-01-23 03:03:42.06	236.92	2.53	-48.7	-61.5	3.5	1.52e+00	0	42	104	0	60	41765
2026-01-23 03:03:43.07	237.02	2.57	-48.7	-61.6	3.5	1.52e+00	0	42	104	0	60	41997
2026-01-23 03:03:44.08	237.12	2.62	-48.7	-61.5	3.5	1.52e+00	0	42	104	0	60	41728
2026-01-23 03:03:45.09	237.22	2.66	-48.7	-61.5	3.5	1.52e+00	0	42	104	0	60	41916
2026-01-23 03:03:46.10	237.33	2.71	-48.7	-61.5	3.5	1.52e+00	0	42	104	0	60	41937
2026-01-23 03:03:47.11	237.43	2.76	-48.7	-61.6	3.5	1.51e+00	0	42	104	0	60	42066
2026-01-23 03:03:48.12	237.53	2.80	-48.7	-61.5	3.5	1.52e+00	0	42	104	0	60	41824
2026-01-23 03:03:49.13	237.64	2.85	-48.7	-61.5	3.5	1.52e+00	0	42	104	0	60	41827
2026-01-23 03:03:50.14	237.74	2.89	-48.7	-61.5	3.5	1.52e+00	0	42	104	0	60	41688
2026-01-23 03:03:51.15	237.84	2.94	-48.7	-61.5	3.5	1.52e+00	0	42	104	0	60	41627
2026-01-23 03:03:52.16	237.95	2.99	-48.7	-61.5	3.5	1.52e+00	0	42	104	0	60	41579
2026-01-23 03:03:53.17	238.05	3.03	-48.7	-61.4	3.5	1.52e+00	0	42	104	0	60	41238
2026-01-23 03:03:54.18	238.16	3.08	-48.9	-60.8	3.5	1.52e+00	0	42	104	0	60	38614
2026-01-23 03:03:55.19	238.26	3.12	-48.5	-61.4	3.5	1.52e+00	0	42	104	0	60	41252
2026-01-23 03:03:56.20	238.37	3.17	-48.8	-60.9	3.5	1.52e+00	0	42	104	0	60	38757
2026-01-23 03:03:57.20	238.47	3.21	-48.8	-60.3	3.5	1.51e+00	0	42	104	0	60	36375
2026-01-23 03:03:58.21	238.58	3.26	-48.8	-61.2	3.5	1.52e+00	0	42	104	0	60	40142
2026-01-23 03:03:59.22	238.69	3.31	-48.8	-60.2	3.5	1.51e+00	0	42	104	0	60	35986
2026-01-23 03:04:00.23	238.79	3.35	-48.8	-59.9	3.5	1.51e+00	0	42	104	0	60	34649
2026-01-23 03:04:01.24	238.90	3.40	-48.8	-59.9	3.6	1.50e+00	0	42	104	0	60	34677
2026-01-23 03:04:02.25	239.01	3.44	-48.8	-59.8	3.6	1.51e+00	0	42	104	0	60	34199
2026-01-23 03:04:03.26	239.12	3.49	-48.8	-59.0	3.9	1.49e+00	0	42	104	0	60	31220
2026-01-23 03:04:04.27	239.22	3.53	-48.8	-59.5	3.7	1.50e+00	0	42	104	0	60	33310
2026-01-23 03:04:05.28	239.33	3.58	-48.7	-61.5	3.5	1.52e+00	0	42	104	0	60	41885
2026-01-23 03:04:06.29	239.44	3.63	-48.7	-58.8	3.6	1.51e+00	0	42	104	0	60	30726
2026-01-23 03:04:07.30	239.55	3.67	-48.7	-59.6	3.6	1.50e+00	0	42	104	0	60	33445
2026-01-23 03:04:08.31	239.66	3.72	-48.6	-58.1	4.2	1.48e+00	0	42	104	0	60	28321
2026-01-23 03:04:09.32	239.77	3.76	-48.6	-58.0	4.3	1.34e+00	18	42	104	0	60	27816
2026-01-23 03:04:10.33	239.88	3.81	-48.6	-57.7	4.4	1.18e+00	122	42	104	0	60	26937
2026-01-23 03:04:11.34	239.99	3.86	-48.5	-56.9	5.0	7.96e-01	123	42	104	0	60	24501
2026-01-23 03:04:12.35	240.10	3.90	-48.4	-56.4	5.4	5.95e-01	123	42	104	0	60	23098
2026-01-23 03:04:13.35	240.21	3.95	-48.4	-56.1	4.8	1.06e+00	122	42	104	0	60	22531
2026-01-23 03:04:14.36	240.32	3.99	-48.9	-61.6	3.5	1.52e+00	0	42	104	0	60	42236
2026-01-23 03:04:15.37	240.44	4.04	-48.3	-55.8	6.0	4.78e-01	120	42	104	0	60	21671
2026-01-23 03:04:16.38	240.55	4.08	-48.4	-56.5	5.3	7.77e-01	122	42	104	0	60	23448
2026-01-23 03:04:17.39	240.66	4.13	-48.3	-56.1	3.9	4.09e-01	0	42	104	0	60	22277
2026-01-23 03:04:18.40	240.77	4.18	-48.3	-54.9	5.7	3.30e-01	123	42	0	0	60	19577
2026-01-23 03:04:19.41	240.89	4.22	-48.2	-55.6	6.0	3.79e-01	120	42	104	1048576	60	21047
2026-01-23 03:04:20.41	241.00	4.27	-48.0	-53.5	7.0	1.95e-01	123	42	0	3145728	60	16610
2026-01-23 03:04:21.42	241.11	4.31	-47.8	-53.0	7.5	1.07e-01	120	42	0	6291456	60	15701
2026-01-23 03:04:22.43	241.23	4.36	-47.9	-53.1	7.3	8.93e-02	123	42	0	9437184	60	15862
2026-01-23 03:04:23.45	241.34	4.40	-47.8	-52.8	7.6	9.62e-02	122	42	0	12582912	60	15319
2026-01-23 03:04:24.45	241.46	4.45	-47.8	-52.9	7.6	1.10e-01	120	42	0	15728640	60	15584
2026-01-23 03:04:25.46	241.57	4.49	-47.7	-52.4	8.2	5.02e-02	122	42	0	18874368	60	14617
2026-01-23 03:04:26.47	241.69	4.54	-47.5	-52.0	8.8	4.29e-02	123	42	0	22020096	60	14036
2026-01-23 03:04:27.48	241.80	4.59	-47.1	-51.1	9.8	7.67e-03	122	42	0	25165824	60	12603
2026-01-23 03:04:28.49	241.92	4.63	-47.3	-51.4	9.8	1.52e-02	122	42	0	28311552	60	13085
2026-01-23 03:04:29.50	242.04	4.68	-46.9	-50.6	10.4	4.05e-03	118	42	0	31457280	60	11873
2026-01-23 03:04:30.51	242.15	4.72	-46.7	-50.2	11.2	1.81e-03	120	42	0	34603008	60	11358
2026-01-23 03:04:31.52	242.27	4.77	-46.6	-50.0	11.5	1.90e-03	122	42	0	37748736	60	11142
2026-01-23 03:04:32.53	242.39	4.81	-46.6	-50.1	11.3	7.98e-04	122	42	0	40894464	60	11173
2026-01-23 03:04:33.54	242.51	4.86	-46.2	-49.3	11.7	2.85e-04	122	42	0	44040192	60	10253
2026-01-23 03:04:34.55	242.62	4.90	-46.4	-49.6	12.1	5.43e-04	120	42	0	47185920	60	10546
2026-01-23 03:04:35.56	242.74	4.95	-45.9	-48.7	12.8	6.33e-05	123	42	0	50331648	60	9597
2026-01-23 03:04:36.56	242.86	4.99	-46.0	-48.9	12.6	1.38e-04	123	42	0	53477376	60	9757
2026-01-23 03:04:37.57	242.98	5.04	-45.7	-48.4	13.1	6.17e-05	122	42	0	56623104	60	9192
2026-01-23 03:04:38.58	243.10	5.08	-45.9	-48.7	12.9	6.56e-05	123	42	0	59768832	60	9541
2026-01-23 03:04:39.59	243.22	5.13	-45.9	-48.6	13.0	9.76e-05	122	42	0	62914560	60	9472
2026-01-23 03:04:40.60	243.34	5.17	-45.3	-47.8	13.8	2.20e-06	120	42	0	66060288	60	8625
2026-01-23 03:04:41.61	243.46	5.22	-45.2	-47.6	14.2	2.20e-06	123	42	0	69206016	60	8410
2026-01-23 03:04:42.62	243.58	5.27	-44.7	-46.9	14.8	7.00e-07	123	42	0	72351744	60	7781
2026-01-23 03:04:43.63	243.70	5.31	-44.1	-46.1	15.7	0.00e+00	122	42	0	75497472	60	7055
2026-01-23 03:04:44.64	243.82	5.36	-44.0	-46.0	15.9	0.00e+00	123	42	0	78643200	60	6975
2026-01-23 03:04:45.65	243.95	5.40	-44.0	-45.9	15.8	0.00e+00	123	42	0	81788928	60	6945
2026-01-23 03:04:46.66	244.07	5.45	-43.8	-45.7	16.3	0.00e+00	122	42	0	84934656	60	6736
2026-01-23 03:04:47.67	244.19	5.49	-43.4	-45.1	16.7	0.00e+00	123	42	0	88080384	60	6315
2026-01-23 03:04:48.68	244.32	5.54	-42.8	-44.4	17.4	0.00e+00	122	42	0	91226112	60	5838
2026-01-23 03:04:49.69	244.44	5.58	-43.1	-44.7	17.1	0.00e+00	122	42	0	94371840	60	6040
2026-01-23 03:04:50.70	244.56	5.63	-42.4	-43.9	17.9	0.00e+00	123	42	0	97517568	58	6187
2026-01-23 03:04:51.71	244.69	5.67	-42.3	-43.8	18.0	0.00e+00	120	42	0	100663296	58	6125
2026-01-23 03:04:52.72	244.81	5.72	-42.5	-44.1	17.7	0.00e+00	123	42	0	103809024	58	6296
2026-01-23 03:04:53.73	244.94	5.76	-42.3	-43.8	18.1	0.00e+00	123	42	0	106954752	58	6082
2026-01-23 03:04:54.74	245.06	5.81	-42.6	-44.1	17.8	0.00e+00	123	42	0	110100480	58	6344
2026-01-23 03:04:55.74	245.19	5.85	-42.0	-43.4	18.6	0.00e+00	123	42	0	113246208	58	5841
2026-01-23 03:04:56.75	245.31	5.89	-42.0	-43.4	18.6	0.00e+00	122	42	0	116391936	56	6521
2026-01-23 03:04:57.76	245.44	5.94	-42.0	-43.4	18.4	0.00e+00	122	42	0	119537664	56	6563
2026-01-23 03:04:58.77	245.57	5.98	-41.7	-43.1	18.8	0.00e+00	120	42	0	122683392	56	6295
2026-01-23 03:04:59.78	245.70	6.03	-41.7	-43.1	18.7	0.00e+00	120	42	0	125829120	56	6328
2026-01-23 03:05:00.79	245.82	6.07	-41.6	-43.0	18.9	0.00e+00	122	42	0	128974848	56	6243
2026-01-23 03:05:01.80	245.95	6.12	-41.8	-43.2	18.7	0.00e+00	123	42	0	132120576	56	6390
2026-01-23 03:05:02.80	246.08	6.16	-41.8	-43.1	18.8	0.00e+00	122	42	0	135266304	56	6349
2026-01-23 03:05:03.81	246.21	6.21	-41.6	-42.9	19.0	0.00e+00	123	42	0	138412032	56	6200
2026-01-23 03:05:04.82	246.34	6.25	-41.3	-42.7	19.2	0.00e+00	123	42	0	141557760	56	6002
2026-01-23 03:05:05.83	246.47	6.29	-41.4	-42.7	19.4	0.00e+00	123	42	0	144703488	56	6024
2026-01-23 03:05:06.85	246.60	6.34	-40.7	-41.9	19.9	0.00e+00	122	42	0	147849216	54	6174
2026-01-23 03:05:07.86	246.73	6.38	-40.6	-41.8	20.0	0.00e+00	123	42	0	150994944	54	6104
2026-01-23 03:05:08.87	246.86	6.43	-40.7	-41.9	20.1	0.00e+00	120	42	0	154140672	54	6198
2026-01-23 03:05:09.88	246.99	6.47	-40.6	-41.8	20.1	0.00e+00	122	42	0	157286400	54	6101
2026-01-23 03:05:10.89	247.12	6.52	-40.3	-41.5	20.4	0.00e+00	123	42	0	160432128	54	5909
2026-01-23 03:05:11.90	247.25	6.56	-40.1	-41.3	20.6	0.00e+00	123	42	0	163577856	54	5767
2026-01-23 03:05:12.91	247.39	6.60	-40.0	-41.1	20.8	0.00e+00	122	42	0	166723584	54	5630
2026-01-23 03:05:13.92	247.52	6.65	-40.4	-41.6	20.4	0.00e+00	120	42	0	169869312	54	5929
2026-01-23 03:05:14.93	247.65	6.69	-40.3	-41.5	20.5	0.00e+00	122	42	0	173015040	54	5877
2026-01-23 03:05:15.94	247.79	6.74	-40.1	-41.2	20.7	0.00e+00	122	42	0	176160768	54	5717
2026-01-23 03:05:16.95	247.92	6.78	-40.0	-41.1	20.8	0.00e+00	122	42	0	179306496	54	5644
2026-01-23 03:05:17.96	248.05	6.82	-40.1	-41.2	20.7	0.00e+00	121	42	0	182452224	54	5722
2026-01-23 03:05:18.97	248.19	6.87	-40.1	-41.3	20.8	0.00e+00	123	42	0	185597952	54	5749
2026-01-23 03:05:19.98	248.32	6.91	-40.4	-41.5	20.4	0.00e+00	122	42	0	188743680	54	5910
2026-01-23 03:05:20.99	248.46	6.95	-39.9	-41.0	20.9	0.00e+00	122	42	0	191889408	54	5545
2026-01-23 03:05:22.00	248.59	7.00	-39.9	-41.1	20.9	0.00e+00	123	42	0	195035136	54	5600
2026-01-23 03:05:23.01	248.73	7.04	-39.9	-41.0	20.9	0.00e+00	121	42	0	199229440	54	5567
2026-01-23 03:05:24.02	248.87	7.08	-39.9	-41.1	21.0	0.00e+00	122	42	0	202375168	54	5611
2026-01-23 03:05:25.03	249.00	7.13	-39.9	-41.1	20.9	0.00e+00	123	42	0	204472320	54	5604
2026-01-23 03:05:26.04	249.14	7.17	-39.6	-40.7	21.3	0.00e+00	120	42	0	207618048	54	5357
2026-01-23 03:05:27.04	249.28	7.21	-39.4	-40.5	21.4	0.00e+00	122	42	0	210763776	52	5885
2026-01-23 03:05:28.05	249.42	7.26	-39.1	-40.1	21.8	0.00e+00	120	42	0	213909504	52	5650
2026-01-23 03:05:29.06	249.56	7.30	-39.4	-40.5	21.4	0.00e+00	123	42	0	218103808	52	5902
2026-01-23 03:05:30.07	249.69	7.34	-39.2	-40.3	21.7	0.00e+00	123	42	0	221249536	52	5729
2026-01-23 03:05:31.08	249.83	7.39	-39.4	-40.5	21.6	0.00e+00	120	42	0	224395264	52	5867
2026-01-23 03:05:32.09	249.97	7.43	-39.0	-40.1	21.8	0.00e+00	123	42	0	227540992	52	5625
2026-01-23 03:05:33.10	250.11	7.47	-39.3	-40.3	21.6	0.00e+00	123	42	0	229638144	52	5781
2026-01-23 03:05:34.11	250.25	7.51	-39.3	-40.4	21.6	0.00e+00	123	42	0	233832448	52	5802
2026-01-23 03:05:35.12	250.39	7.56	-39.0	-40.0	21.9	0.00e+00	123	42	0	236978176	52	5566
2026-01-23 03:05:36.13	250.54	7.60	-39.2	-40.3	21.7	0.00e+00	123	42	0	240123904	52	5734
2026-01-23 03:05:37.14	250.68	7.64	-39.3	-40.3	21.7	0.00e+00	123	42	0	243269632	52	5782
2026-01-23 03:05:38.15	250.82	7.68	-39.3	-40.4	21.6	0.00e+00	123	42	0	246415360	52	5803
2026-01-23 03:05:39.16	250.96	7.73	-39.3	-40.3	21.6	0.00e+00	122	42	0	249561088	52	5774
2026-01-23 03:05:40.17	251.11	7.77	-39.0	-40.1	21.8	0.00e+00	123	42	0	252706816	52	5626
2026-01-23 03:05:41.18	251.25	7.81	-38.9	-39.9	22.0	0.00e+00	123	42	0	255852544	52	5518
2026-01-23 03:05:42.19	251.39	7.85	-39.1	-40.2	21.9	0.00e+00	123	42	0	258998272	52	5668
2026-01-23 03:05:43.20	251.54	7.89	-38.8	-39.9	22.1	0.00e+00	120	42	0	262144000	52	5469
2026-01-23 03:05:44.21	251.68	7.94	-38.9	-39.9	22.0	0.00e+00	122	42	0	265289728	50	6205
2026-01-23 03:05:45.22	251.83	7.98	-38.8	-39.8	22.2	0.00e+00	123	42	0	268435456	50	6080
2026-01-23 03:05:46.23	251.97	8.02	-38.7	-39.8	22.1	0.00e+00	123	42	0	271581184	50	6072
2026-01-23 03:05:47.24	252.12	8.06	-39.0	-40.0	22.0	0.00e+00	122	42	0	274726912	50	6277
2026-01-23 03:05:48.25	252.26	8.10	-38.9	-40.0	21.9	0.00e+00	123	42	0	277872640	50	6227
2026-01-23 03:05:49.26	252.41	8.14	-39.0	-40.1	21.9	0.00e+00	122	42	0	281018368	50	6284
2026-01-23 03:05:50.27	252.56	8.19	-39.1	-40.2	21.7	0.00e+00	123	42	0	284164096	50	6381
2026-01-23 03:05:51.28	252.70	8.23	-39.0	-40.1	21.9	0.00e+00	122	42	0	287309824	50	6281
2026-01-23 03:05:52.29	252.85	8.27	-38.6	-39.7	22.3	0.00e+00	122	42	0	290455552	50	6012
2026-01-23 03:05:53.30	253.00	8.31	-38.8	-39.8	22.1	0.00e+00	123	42	0	293601280	50	6098
2026-01-23 03:05:54.31	253.15	8.35	-38.7	-39.7	22.2	0.00e+00	122	42	0	296747008	50	6057
2026-01-23 03:05:55.32	253.30	8.39	-38.6	-39.6	22.2	0.00e+00	123	42	0	299892736	50	5994
2026-01-23 03:05:56.33	253.45	8.43	-38.7	-39.7	22.2	0.00e+00	123	42	0	303038464	50	6032
2026-01-23 03:05:57.34	253.60	8.47	-38.6	-39.6	22.3	0.00e+00	123	42	0	306184192	50	5948
2026-01-23 03:05:58.35	253.75	8.51	-38.7	-39.7	22.1	0.00e+00	123	42	0	309329920	50	6044
2026-01-23 03:05:59.36	253.90	8.55	-39.0	-40.0	21.9	0.00e+00	123	42	0	312475648	50	6262
2026-01-23 03:06:00.36	254.05	8.59	-38.9	-40.0	21.9	0.00e+00	123	42	0	315621376	50	6232
2026-01-23 03:06:01.38	254.20	8.63	-39.0	-40.1	21.9	0.00e+00	123	42	0	318767104	50	6287
2026-01-23 03:06:02.39	254.35	8.67	-39.0	-40.0	21.9	0.00e+00	123	42	0	321912832	50	6244
2026-01-23 03:06:03.40	254.50	8.71	-38.5	-39.6	22.3	0.00e+00	123	42	0	325058560	50	5939
2026-01-23 03:06:04.41	254.65	8.75	-38.6	-39.6	22.2	0.00e+00	123	42	0	328204288	50	5959
2026-01-23 03:06:05.41	254.81	8.79	-38.6	-39.6	22.3	0.00e+00	120	42	0	331350016	50	5971
2026-01-23 03:06:06.42	254.96	8.83	-38.4	-39.4	22.5	0.00e+00	123	42	0	334495744	50	5842
2026-01-23 03:06:07.43	255.11	8.87	-38.5	-39.5	22.4	0.00e+00	122	42	0	337641472	50	5906
2026-01-23 03:06:08.44	255.27	8.91	-38.8	-39.8	22.2	0.00e+00	123	42	0	340787200	50	6128
2026-01-23 03:06:09.45	255.42	8.95	-38.5	-39.5	22.5	0.00e+00	123	42	0	343932928	50	5909
2026-01-23 03:06:10.46	255.58	8.99	-38.5	-39.5	22.5	0.00e+00	123	42	0	347078656	50	5880
2026-01-23 03:06:11.47	255.73	9.03	-38.7	-39.7	22.3	0.00e+00	122	42	0	350224384	50	6014
2026-01-23 03:06:12.48	255.89	9.07	-38.7	-39.8	22.3	0.00e+00	123	42	0	353370112	50	6069
2026-01-23 03:06:13.49	256.04	9.11	-38.6	-39.6	22.3	0.00e+00	123	42	0	356515840	50	5967
2026-01-23 03:06:14.50	256.20	9.15	-39.0	-40.1	22.1	0.00e+00	123	42	0	359661568	50	6318
2026-01-23 03:06:15.51	256.36	9.19	-39.0	-40.0	22.0	0.00e+00	123	42	0	362807296	50	6240
2026-01-23 03:06:16.52	256.51	9.22	-39.1	-40.1	22.0	0.00e+00	120	42	0	365953024	50	6317
2026-01-23 03:06:17.53	256.67	9.26	-39.1	-40.1	21.8	0.00e+00	122	42	0	369098752	50	6320
2026-01-23 03:06:18.54	256.83	9.30	-39.4	-40.5	21.9	0.00e+00	123	42	0	372244480	50	6589
2026-01-23 03:06:19.55	256.99	9.34	-38.7	-39.7	22.2	0.00e+00	122	42	0	375390208	50	6033
2026-01-23 03:06:20.56	257.15	9.38	-38.7	-39.7	22.2	0.00e+00	120	42	0	378535936	50	6048
2026-01-23 03:06:21.57	257.31	9.41	-38.9	-40.0	22.1	0.00e+00	123	42	0	381681664	50	6220
2026-01-23 03:06:22.59	257.47	9.45	-38.5	-39.5	22.4	0.00e+00	121	42	0	384827392	50	5913
2026-01-23 03:06:23.59	257.63	9.49	-38.6	-39.6	22.4	0.00e+00	122	42	0	387973120	50	5985
2026-01-23 03:06:24.61	257.79	9.53	-38.6	-39.6	22.4	0.00e+00	123	42	0	391118848	50	5970
2026-01-23 03:06:25.61	257.95	9.56	-38.8	-39.8	22.3	0.00e+00	123	42	0	394264576	50	6084
2026-01-23 03:06:26.63	258.11	9.60	-38.6	-39.6	22.4	0.00e+00	120	42	0	397410304	50	5974
2026-01-23 03:06:27.64	258.27	9.64	-38.6	-39.6	22.5	0.00e+00	122	42	0	400556032	50	5962
2026-01-23 03:06:28.65	258.43	9.68	-38.7	-39.7	22.4	0.00e+00	123	42	0	403701760	50	6006
2026-01-23 03:06:29.66	258.60	9.71	-38.7	-39.7	22.4	0.00e+00	123	42	0	406847488	50	6012
2026-01-23 03:06:30.67	258.76	9.75	-38.6	-39.6	22.5	0.00e+00	120	42	0	409993216	50	5939
2026-01-23 03:06:31.68	258.92	9.79	-38.3	-39.3	22.6	0.00e+00	122	42	0	413138944	50	5771
2026-01-23 03:06:32.69	259.09	9.82	-38.3	-39.3	22.7	0.00e+00	120	42	0	416284672	50	5756
2026-01-23 03:06:33.70	259.25	9.86	-38.3	-39.3	22.6	0.00e+00	122	42	0	419430400	50	5788
2026-01-23 03:06:34.71	259.42	9.89	-38.2	-39.2	22.7	0.00e+00	123	42	0	422576128	50	5691
2026-01-23 03:06:35.72	259.58	9.93	-38.0	-39.0	22.9	0.00e+00	120	42	0	425721856	50	5572
2026-01-23 03:06:36.73	259.75	9.97	-38.0	-39.0	22.9	0.00e+00	123	42	0	428867584	50	5556
2026-01-23 03:06:37.74	259.91	10.00	-38.0	-38.9	22.9	0.00e+00	122	42	0	432013312	50	5522
2026-01-23 03:06:38.75	260.08	10.04	-38.3	-39.2	22.7	0.00e+00	123	42	0	435159040	50	5717
2026-01-23 03:06:39.76	260.24	10.07	-38.4	-39.3	22.6	0.00e+00	120	42	0	438304768	50	5788
2026-01-23 03:06:40.77	260.41	10.11	-38.5	-39.5	22.5	0.00e+00	123	42	0	441450496	50	5879
2026-01-23 03:06:41.78	260.58	10.14	-38.6	-39.6	22.5	0.00e+00	120	42	0	444596224	50	5945
2026-01-23 03:06:42.79	260.74	10.18	-38.6	-39.6	22.5	0.00e+00	123	42	0	447741952	50	5928
2026-01-23 03:06:43.80	260.91	10.21	-38.6	-39.6	22.5	0.00e+00	121	42	0	450887680	50	5951
2026-01-23 03:06:44.81	261.08	10.24	-38.7	-39.7	22.4	0.00e+00	123	42	0	454033408	50	6010
2026-01-23 03:06:45.82	261.25	10.28	-38.6	-39.7	22.4	0.00e+00	123	42	0	457179136	50	5995
2026-01-23 03:06:46.83	261.42	10.31	-38.6	-39.6	22.5	0.00e+00	123	42	0	460324864	50	5944
2026-01-23 03:06:47.84	261.59	10.35	-38.6	-39.6	22.5	0.00e+00	120	42	0	463470592	50	5942
2026-01-23 03:06:48.85	261.76	10.38	-38.6	-39.6	22.4	0.00e+00	122	42	0	466616320	50	5987
2026-01-23 03:06:49.86	261.93	10.41	-38.5	-39.5	22.5	0.00e+00	122	42	0	469762048	50	5912
2026-01-23 03:06:50.87	262.10	10.45	-38.5	-39.5	22.5	0.00e+00	123	42	0	472907776	50	5924
2026-01-23 03:06:51.88	262.27	10.48	-38.3	-39.3	22.7	0.00e+00	123	42	0	476053504	50	5775
2026-01-23 03:06:52.89	262.44	10.51	-38.4	-39.4	22.6	0.00e+00	122	42	0	479199232	50	5798
2026-01-23 03:06:53.90	262.61	10.55	-38.6	-39.6	22.4	0.00e+00	122	42	0	482344960	50	5971
2026-01-23 03:06:54.91	262.78	10.58	-38.3	-39.3	22.6	0.00e+00	123	42	0	485490688	50	5765
2026-01-23 03:06:55.92	262.96	10.61	-38.3	-39.3	22.7	0.00e+00	120	42	0	488636416	50	5777
2026-01-23 03:06:56.93	263.13	10.64	-38.4	-39.4	22.7	0.00e+00	123	42	0	491782144	50	5795
2026-01-23 03:06:57.94	263.30	10.68	-38.4	-39.4	22.6	0.00e+00	123	42	0	494927872	50	5826
2026-01-23 03:06:58.95	263.48	10.71	-38.4	-39.4	22.6	0.00e+00	122	42	0	498073600	50	5827
2026-01-23 03:06:59.96	263.65	10.74	-38.4	-39.3	22.7	0.00e+00	123	42	0	501219328	50	5790
2026-01-23 03:07:00.97	263.82	10.77	-38.5	-39.5	22.5	0.00e+00	122	42	0	504365056	50	5896
2026-01-23 03:07:01.98	264.00	10.80	-38.5	-39.5	22.6	0.00e+00	123	42	0	507510784	50	5919
2026-01-23 03:07:02.99	264.17	10.83	-38.6	-39.6	22.4	0.00e+00	120	42	0	510656512	50	5981
2026-01-23 03:07:04.00	264.35	10.86	-38.3	-39.3	22.7	0.00e+00	122	42	0	513802240	50	5789
2026-01-23 03:07:05.01	264.52	10.89	-38.2	-39.1	22.8	0.00e+00	123	42	0	517996544	50	5655
2026-01-23 03:07:06.02	264.70	10.92	-38.5	-39.5	22.5	0.00e+00	122	42	0	521142272	50	5909
2026-01-23 03:07:07.03	264.88	10.95	-38.4	-39.4	22.5	0.00e+00	120	42	0	523239424	50	5840
2026-01-23 03:07:08.04	265.05	10.98	-38.5	-39.6	22.4	0.00e+00	122	42	0	526385152	50	5936
2026-01-23 03:07:09.05	265.23	11.01	-38.5	-39.5	22.5	0.00e+00	122	42	0	529530880	50	5873
2026-01-23 03:07:10.06	265.41	11.04	-38.5	-39.5	22.5	0.00e+00	120	42	0	532676608	50	5892
2026-01-23 03:07:11.07	265.58	11.07	-38.6	-39.6	22.5	0.00e+00	123	42	0	536870912	50	5981
2026-01-23 03:07:12.08	265.76	11.10	-38.7	-39.7	22.4	0.00e+00	122	42	0	540016640	50	6016
2026-01-23 03:07:13.09	265.94	11.13	-38.6	-39.6	22.5	0.00e+00	123	42	0	543162368	50	5983
2026-01-23 03:07:14.09	266.12	11.16	-38.5	-39.5	22.5	0.00e+00	120	42	0	545259520	50	5897
2026-01-23 03:07:15.10	266.30	11.19	-38.6	-39.5	22.4	0.00e+00	122	42	0	548405248	50	5926
2026-01-23 03:07:16.11	266.48	11.22	-38.5	-39.5	22.6	0.00e+00	123	42	0	552599552	50	5876
2026-01-23 03:07:17.12	266.66	11.25	-38.3	-39.4	22.6	0.00e+00	123	42	0	555745280	50	5793
2026-01-23 03:07:18.13	266.84	11.27	-38.5	-39.5	22.5	0.00e+00	123	42	0	558891008	50	5907
2026-01-23 03:07:19.14	267.02	11.30	-38.3	-39.3	22.7	0.00e+00	123	42	0	562036736	50	5728
2026-01-23 03:07:20.15	267.20	11.33	-38.3	-39.3	22.7	0.00e+00	121	42	0	565182464	50	5768
2026-01-23 03:07:21.16	267.38	11.36	-38.4	-39.4	22.6	0.00e+00	122	42	0	568328192	50	5839
2026-01-23 03:07:22.17	267.56	11.38	-38.6	-39.6	22.5	0.00e+00	123	42	0	571473920	50	5972
2026-01-23 03:07:23.18	267.74	11.41	-38.5	-39.5	22.6	0.00e+00	123	42	0	574619648	50	5909
2026-01-23 03:07:24.19	267.92	11.44	-38.6	-39.6	22.6	0.00e+00	123	42	0	577765376	50	5941
2026-01-23 03:07:25.20	268.11	11.46	-38.5	-39.5	22.7	0.00e+00	123	42	0	580911104	50	5860
2026-01-23 03:07:26.21	268.29	11.49	-38.6	-39.6	22.6	0.00e+00	123	42	0	584056832	50	5974
2026-01-23 03:07:27.22	268.47	11.51	-38.4	-39.4	22.7	0.00e+00	123	42	0	587202560	50	5811
2026-01-23 03:07:28.23	268.65	11.54	-38.3	-39.3	22.7	0.00e+00	120	42	0	590348288	50	5734
2026-01-23 03:07:29.24	268.84	11.57	-38.2	-39.2	22.8	0.00e+00	123	42	0	593494016	50	5706
2026-01-23 03:07:30.25	269.02	11.59	-38.4	-39.4	22.7	0.00e+00	123	42	0	596639744	50	5833
2026-01-23 03:07:31.26	269.21	11.62	-38.2	-39.2	22.7	0.00e+00	122	42	0	599785472	50	5713
2026-01-23 03:07:32.27	269.39	11.64	-38.6	-39.6	22.5	0.00e+00	123	42	0	602931200	50	5988
2026-01-23 03:07:33.28	269.58	11.66	-38.6	-39.6	22.5	0.00e+00	122	42	0	606076928	50	5963
2026-01-23 03:07:34.29	269.76	11.69	-38.5	-39.5	22.4	0.00e+00	123	42	0	609222656	50	5899
2026-01-23 03:07:35.30	269.95	11.71	-38.4	-39.4	22.7	0.00e+00	120	42	0	612368384	50	5799
2026-01-23 03:07:36.31	270.13	11.74	-38.5	-39.5	22.6	0.00e+00	123	42	0	615514112	50	5883
2026-01-23 03:07:37.32	270.32	11.76	-38.3	-39.3	22.6	0.00e+00	122	42	0	618659840	50	5783
2026-01-23 03:07:38.33	270.50	11.78	-38.2	-39.2	22.8	0.00e+00	123	42	0	621805568	50	5705
2026-01-23 03:07:39.34	270.69	11.81	-38.1	-39.1	22.9	0.00e+00	123	42	0	624951296	50	5623
2026-01-23 03:07:40.35	270.88	11.83	-38.2	-39.1	22.9	0.00e+00	122	42	0	628097024	50	5658
2026-01-23 03:07:41.37	271.07	11.85	-38.0	-39.0	23.0	0.00e+00	123	42	0	631242752	50	5542
2026-01-23 03:07:42.38	271.25	11.87	-38.0	-39.0	22.9	0.00e+00	123	42	0	634388480	50	5549
2026-01-23 03:07:43.39	271.44	11.90	-38.0	-38.9	23.0	0.00e+00	122	42	0	637534208	50	5526
2026-01-23 03:07:44.40	271.63	11.92	-38.1	-39.0	22.8	0.00e+00	122	42	0	640679936	50	5590
2026-01-23 03:07:45.41	271.82	11.94	-38.2	-39.2	22.8	0.00e+00	123	42	0	643825664	50	5663
2026-01-23 03:07:46.42	272.00	11.96	-38.3	-39.3	22.7	0.00e+00	123	42	0	646971392	50	5790
2026-01-23 03:07:47.43	272.19	11.98	-38.4	-39.4	22.5	0.00e+00	123	42	0	650117120	50	5837
2026-01-23 03:07:48.44	272.38	12.00	-38.5	-39.5	22.6	0.00e+00	122	42	0	653262848	50	5883
2026-01-23 03:07:49.45	272.57	12.02	-38.2	-39.2	22.9	0.00e+00	123	42	0	656408576	50	5685
2026-01-23 03:07:50.46	272.76	12.04	-38.2	-39.2	22.9	0.00e+00	123	42	0	659554304	50	5663
2026-01-23 03:07:51.47	272.95	12.06	-38.1	-39.1	22.9	0.00e+00	123	42	0	662700032	50	5641
2026-01-23 03:07:52.48	273.14	12.08	-38.1	-39.1	22.9	0.00e+00	122	42	0	665845760	50	5646
2026-01-23 03:07:53.49	273.33	12.10	-38.0	-38.9	23.0	0.00e+00	123	42	0	668991488	50	5529
2026-01-23 03:07:54.50	273.52	12.12	-38.1	-39.1	22.8	0.00e+00	123	42	0	672137216	50	5618
2026-01-23 03:07:55.51	273.71	12.14	-38.0	-39.0	22.8	0.00e+00	122	42	0	675282944	50	5582
2026-01-23 03:07:56.53	273.90	12.16	-38.1	-39.0	22.8	0.00e+00	120	42	0	678428672	50	5569
2026-01-23 03:07:57.54	274.09	12.18	-38.2	-39.2	22.6	0.00e+00	123	42	0	681574400	50	5696
2026-01-23 03:07:58.55	274.29	12.19	-38.4	-39.4	22.6	0.00e+00	123	42	0	684720128	50	5803
2026-01-23 03:07:59.56	274.48	12.21	-38.4	-39.4	22.6	0.00e+00	122	42	0	687865856	50	5850
2026-01-23 03:08:00.57	274.67	12.23	-38.1	-39.1	22.9	0.00e+00	122	42	0	691011584	50	5610
2026-01-23 03:08:01.58	274.86	12.25	-38.3	-39.3	22.7	0.00e+00	122	42	0	694157312	50	5762
2026-01-23 03:08:02.59	275.05	12.26	-38.2	-39.2	22.9	0.00e+00	120	42	0	697303040	50	5680
2026-01-23 03:08:03.60	275.25	12.28	-38.3	-39.3	22.8	0.00e+00	121	42	0	700448768	50	5761
2026-01-23 03:08:04.61	275.44	12.30	-38.1	-39.1	22.9	0.00e+00	123	42	0	703594496	50	5632
2026-01-23 03:08:05.62	275.63	12.31	-38.2	-39.2	22.9	0.00e+00	120	42	0	706740224	50	5689
2026-01-23 03:08:06.63	275.82	12.33	-38.0	-39.0	23.0	0.00e+00	123	42	0	709885952	50	5552
2026-01-23 03:08:07.63	276.02	12.34	-38.1	-39.1	22.8	0.00e+00	123	42	0	713031680	50	5619
2026-01-23 03:08:08.64	276.21	12.36	-38.1	-39.1	22.8	0.00e+00	123	42	0	716177408	50	5621
2026-01-23 03:08:09.65	276.40	12.37	-38.2	-39.3	22.6	0.00e+00	122	42	0	719323136	50	5728
2026-01-23 03:08:10.66	276.60	12.39	-38.3	-39.3	22.6	0.00e+00	122	42	0	722468864	50	5767
2026-01-23 03:08:11.67	276.79	12.40	-38.3	-39.3	22.6	0.00e+00	123	42	0	725614592	50	5754
2026-01-23 03:08:12.68	276.98	12.42	-38.3	-39.3	22.6	0.00e+00	123	42	0	728760320	50	5774
2026-01-23 03:08:13.69	277.18	12.43	-38.2	-39.2	22.8	0.00e+00	122	42	0	731906048	50	5706
2026-01-23 03:08:14.70	277.37	12.44	-38.1	-39.1	22.8	0.00e+00	122	42	0	735051776	50	5601
2026-01-23 03:08:15.71	277.57	12.46	-38.0	-38.9	22.9	0.00e+00	123	42	0	738197504	50	5526
2026-01-23 03:08:16.72	277.76	12.47	-37.9	-38.8	23.1	0.00e+00	122	42	0	741343232	50	5459
2026-01-23 03:08:17.73	277.96	12.48	-37.8	-38.8	23.1	0.00e+00	122	42	0	744488960	50	5437
2026-01-23 03:08:18.75	278.15	12.49	-37.8	-38.8	23.1	0.00e+00	123	42	0	747634688	48	6076
2026-01-23 03:08:19.76	278.35	12.51	-37.8	-38.8	23.0	0.00e+00	121	42	0	750780416	48	6110
2026-01-23 03:08:20.77	278.54	12.52	-37.9	-38.9	22.9	0.00e+00	122	42	0	753926144	48	6165
2026-01-23 03:08:21.78	278.74	12.53	-37.9	-38.9	23.0	0.00e+00	122	42	0	757071872	48	6141
2026-01-23 03:08:22.79	278.94	12.54	-38.1	-39.1	22.8	0.00e+00	120	42	0	760217600	48	6303
2026-01-23 03:08:23.80	279.13	12.55	-38.0	-39.0	22.9	0.00e+00	123	42	0	763363328	48	6235
2026-01-23 03:08:24.81	279.33	12.56	-38.2	-39.2	22.8	0.00e+00	123	42	0	766509056	48	6351
2026-01-23 03:08:25.82	279.52	12.57	-38.1	-39.1	22.8	0.00e+00	123	42	0	769654784	48	6341
2026-01-23 03:08:26.83	279.72	12.58	-38.1	-39.1	22.9	0.00e+00	120	42	0	772800512	48	6317
2026-01-23 03:08:27.84	279.92	12.59	-38.0	-38.9	23.0	0.00e+00	123	42	0	775946240	48	6203
2026-01-23 03:08:28.85	280.11	12.60	-38.1	-39.1	22.9	0.00e+00	123	42	0	779091968	48	6337
2026-01-23 03:08:29.86	280.31	12.61	-38.1	-39.1	22.9	0.00e+00	123	42	0	782237696	48	6296
2026-01-23 03:08:30.87	280.51	12.62	-38.0	-39.0	23.0	0.00e+00	123	42	0	785383424	48	6239
2026-01-23 03:08:31.88	280.70	12.63	-38.0	-39.0	23.0	0.00e+00	120	42	0	788529152	48	6234
2026-01-23 03:08:32.89	280.90	12.64	-38.1	-39.0	22.9	0.00e+00	122	42	0	791674880	48	6258
2026-01-23 03:08:33.90	281.10	12.64	-38.2	-39.1	22.9	0.00e+00	120	42	0	794820608	48	6349
2026-01-23 03:08:34.91	281.29	12.65	-38.2	-39.1	22.9	0.00e+00	122	42	0	797966336	48	6336
2026-01-23 03:08:35.92	281.49	12.66	-38.3	-39.3	22.8	0.00e+00	123	42	0	801112064	48	6441
2026-01-23 03:08:36.93	281.69	12.67	-38.2	-39.2	22.8	0.00e+00	122	42	0	804257792	48	6376
2026-01-23 03:08:37.94	281.88	12.67	-38.2	-39.2	22.9	0.00e+00	123	42	0	807403520	48	6406
2026-01-23 03:08:38.95	282.08	12.68	-38.2	-39.2	22.8	0.00e+00	123	42	0	810549248	48	6366
2026-01-23 03:08:39.96	282.28	12.68	-37.9	-38.9	23.1	0.00e+00	123	42	0	813694976	48	6182
2026-01-23 03:08:40.97	282.48	12.69	-38.0	-38.9	23.1	0.00e+00	123	42	0	816840704	48	6184
2026-01-23 03:08:41.98	282.67	12.69	-37.9	-38.9	23.0	0.00e+00	123	42	0	819986432	48	6168
2026-01-23 03:08:42.99	282.87	12.70	-38.1	-39.0	23.0	0.00e+00	122	42	0	823132160	48	6264
2026-01-23 03:08:44.00	283.07	12.70	-37.7	-38.6	23.3	0.00e+00	123	42	0	826277888	48	5979
2026-01-23 03:08:45.01	283.27	12.71	-37.7	-38.7	23.2	0.00e+00	122	42	0	830472192	48	6009
2026-01-23 03:08:46.02	283.47	12.71	-37.9	-38.8	23.1	0.00e+00	123	42	0	833617920	48	6117
2026-01-23 03:08:47.03	283.66	12.72	-37.8	-38.7	23.2	0.00e+00	123	42	0	836763648	48	6039
2026-01-23 03:08:48.04	283.86	12.72	-37.8	-38.7	23.2	0.00e+00	122	42	0	838860800	48	6048
2026-01-23 03:08:49.05	284.06	12.72	-37.8	-38.8	23.2	0.00e+00	123	42	0	842006528	48	6091
2026-01-23 03:08:50.05	284.26	12.73	-37.8	-38.8	23.2	0.00e+00	122	42	0	845152256	48	6096
2026-01-23 03:08:51.06	284.45	12.73	-37.8	-38.7	23.2	0.00e+00	123	42	0	849346560	48	6059
2026-01-23 03:08:52.07	284.65	12.73	-37.9	-38.8	23.2	0.00e+00	120	42	0	852492288	48	6101
2026-01-23 03:08:53.08	284.85	12.73	-37.9	-38.9	23.1	0.00e+00	123	42	0	855638016	48	6136
2026-01-23 03:08:54.09	285.05	12.74	-37.9	-38.9	23.1	0.00e+00	120	42	0	858783744	48	6167
2026-01-23 03:08:55.10	285.25	12.74	-38.0	-39.0	23.0	0.00e+00	123	42	0	861929472	48	6226
2026-01-23 03:08:56.11	285.44	12.74	-37.9	-38.8	23.2	0.00e+00	123	42	0	865075200	48	6128
2026-01-23 03:08:57.12	285.64	12.74	-38.0	-38.9	23.0	0.00e+00	123	42	0	868220928	48	6187
2026-01-23 03:08:58.14	285.84	12.74	-37.9	-38.8	23.1	0.00e+00	125	42	0	871366656	48	6121
2026-01-23 03:08:59.14	286.04	12.74	-38.1	-39.0	22.9	0.00e+00	122	42	0	874512384	48	6276
2026-01-23 03:09:00.15	286.24	12.74	-37.9	-38.9	23.1	0.00e+00	123	42	0	877658112	48	6137
2026-01-23 03:09:01.16	286.43	12.74	-37.8	-38.8	23.1	0.00e+00	123	42	0	880803840	48	6091
2026-01-23 03:09:02.17	286.63	12.74	-37.8	-38.8	23.1	0.00e+00	123	42	0	883949568	48	6090
2026-01-23 03:09:03.18	286.83	12.74	-37.9	-38.9	23.0	0.00e+00	122	42	0	887095296	48	6148
2026-01-23 03:09:04.19	287.03	12.73	-37.9	-38.8	23.1	0.00e+00	122	42	0	890241024	48	6116
2026-01-23 03:09:05.20	287.23	12.73	-37.8	-38.7	23.2	0.00e+00	122	42	0	893386752	48	6043
2026-01-23 03:09:06.21	287.42	12.73	-37.8	-38.8	23.1	0.00e+00	122	42	0	896532480	48	6106
2026-01-23 03:09:07.22	287.62	12.73	-37.8	-38.8	23.2	0.00e+00	123	42	0	899678208	48	6098
2026-01-23 03:09:08.23	287.82	12.73	-37.8	-38.8	23.1	0.00e+00	121	42	0	902823936	48	6096
2026-01-23 03:09:09.24	288.02	12.72	-37.8	-38.8	23.1	0.00e+00	123	42	0	905969664	48	6090
2026-01-23 03:09:10.25	288.22	12.72	-37.9	-38.9	23.0	0.00e+00	122	42	0	909115392	48	6161
2026-01-23 03:09:11.26	288.41	12.72	-38.1	-39.1	22.8	0.00e+00	123	42	0	912261120	48	6301
2026-01-23 03:09:12.27	288.61	12.71	-38.0	-38.9	23.0	0.00e+00	123	42	0	915406848	48	6192
2026-01-23 03:09:13.28	288.81	12.71	-38.2	-39.1	22.8	0.00e+00	123	42	0	918552576	48	6346
2026-01-23 03:09:14.29	289.01	12.70	-38.0	-39.0	23.0	0.00e+00	122	42	0	921698304	48	6248
2026-01-23 03:09:15.30	289.21	12.70	-37.9	-38.9	23.1	0.00e+00	123	42	0	924844032	48	6161
2026-01-23 03:09:16.31	289.40	12.69	-37.8	-38.7	23.2	0.00e+00	123	42	0	927989760	48	6042
2026-01-23 03:09:17.32	289.60	12.69	-37.9	-38.8	23.0	0.00e+00	123	42	0	931135488	48	6127
2026-01-23 03:09:18.33	289.80	12.68	-37.8	-38.8	23.1	0.00e+00	123	42	0	934281216	48	6080
2026-01-23 03:09:19.34	289.99	12.68	-37.7	-38.7	23.3	0.00e+00	123	42	0	937426944	48	5996
2026-01-23 03:09:20.35	290.19	12.67	-37.8	-38.7	23.2	0.00e+00	123	42	0	940572672	48	6057
2026-01-23 03:09:21.36	290.39	12.66	-37.8	-38.7	23.3	0.00e+00	122	42	0	943718400	48	6036
2026-01-23 03:09:22.37	290.59	12.66	-37.8	-38.7	23.2	0.00e+00	123	42	0	946864128	48	6044
2026-01-23 03:09:23.38	290.78	12.65	-37.9	-38.9	23.2	0.00e+00	123	42	0	950009856	48	6155
2026-01-23 03:09:24.38	290.98	12.64	-38.1	-39.0	23.1	0.00e+00	122	42	0	953155584	48	6265
2026-01-23 03:09:25.40	291.18	12.63	-38.1	-39.0	23.0	0.00e+00	122	42	0	956301312	48	6271
2026-01-23 03:09:26.41	291.37	12.63	-38.2	-39.2	22.9	0.00e+00	122	42	0	959447040	48	6376
2026-01-23 03:09:27.42	291.57	12.62	-38.2	-39.1	22.9	0.00e+00	123	42	0	962592768	48	6345
2026-01-23 03:09:28.43	291.77	12.61	-38.2	-39.2	22.8	0.00e+00	123	42	0	965738496	48	6366
2026-01-23 03:09:29.44	291.96	12.60	-38.2	-39.2	22.9	0.00e+00	122	42	0	968884224	48	6366
2026-01-23 03:09:30.45	292.16	12.59	-38.3	-39.3	22.8	0.00e+00	123	42	0	972029952	48	6436
2026-01-23 03:09:31.46	292.35	12.58	-38.2	-39.2	22.8	0.00e+00	122	42	0	975175680	48	6401
2026-01-23 03:09:32.47	292.55	12.57	-38.2	-39.1	22.8	0.00e+00	122	42	0	978321408	48	6345
2026-01-23 03:09:33.48	292.75	12.56	-38.2	-39.2	22.8	0.00e+00	123	42	0	981467136	48	6399
2026-01-23 03:09:34.49	292.94	12.55	-38.1	-39.1	22.9	0.00e+00	123	42	0	984612864	48	6323
2026-01-23 03:09:35.50	293.14	12.54	-38.2	-39.2	22.9	0.00e+00	123	42	0	987758592	48	6377
2026-01-23 03:09:36.51	293.33	12.53	-38.0	-39.0	23.1	0.00e+00	123	42	0	990904320	48	6218
2026-01-23 03:09:37.52	293.53	12.52	-38.0	-38.9	23.0	0.00e+00	121	42	0	994050048	48	6190
2026-01-23 03:09:38.53	293.72	12.50	-38.0	-39.0	23.0	0.00e+00	123	42	0	997195776	48	6237
2026-01-23 03:09:39.54	293.92	12.49	-38.1	-39.1	22.9	0.00e+00	122	42	0	1000341504	48	6307
2026-01-23 03:09:40.55	294.11	12.48	-38.0	-39.0	23.1	0.00e+00	123	42	0	1003487232	48	6233
2026-01-23 03:09:41.56	294.31	12.47	-38.0	-38.9	23.1	0.00e+00	123	42	0	1006632960	48	6189
2026-01-23 03:09:42.57	294.50	12.45	-38.0	-39.0	23.1	0.00e+00	122	42	0	1009778688	48	6226
2026-01-23 03:09:43.58	294.70	12.44	-38.0	-39.0	23.0	0.00e+00	122	42	0	1012924416	48	6244
2026-01-23 03:09:44.59	294.89	12.43	-38.0	-39.0	23.0	0.00e+00	123	42	0	1016070144	48	6258
2026-01-23 03:09:45.60	295.08	12.41	-38.1	-39.1	22.9	0.00e+00	123	42	0	1019215872	48	6328
2026-01-23 03:09:46.61	295.28	12.40	-38.2	-39.1	23.0	0.00e+00	123	42	0	1022361600	48	6346
2026-01-23 03:09:47.62	295.47	12.39	-38.3	-39.2	22.9	0.00e+00	123	42	0	1025507328	48	6417
2026-01-23 03:09:48.63	295.66	12.37	-38.3	-39.2	22.9	0.00e+00	122	42	0	1028653056	48	6416
2026-01-23 03:09:49.64	295.86	12.36	-38.2	-39.1	22.9	0.00e+00	123	42	0	1031798784	48	6337
2026-01-23 03:09:50.65	296.05	12.34	-37.9	-38.9	23.1	0.00e+00	122	42	0	1034944512	48	6165
2026-01-23 03:09:51.66	296.24	12.32	-37.8	-38.8	23.2	0.00e+00	120	42	0	1038090240	48	6099
2026-01-23 03:09:52.67	296.44	12.31	-38.0	-38.9	23.1	0.00e+00	122	42	0	1041235968	48	6178
2026-01-23 03:09:53.68	296.63	12.29	-38.1	-39.1	23.0	0.00e+00	123	42	0	1044381696	48	6285
2026-01-23 03:09:54.69	296.82	12.28	-38.0	-39.0	23.0	0.00e+00	123	42	0	1047527424	48	6233
2026-01-23 03:09:55.70	297.01	12.26	-38.1	-39.1	23.0	0.00e+00	122	42	0	1050673152	48	6315
2026-01-23 03:09:56.71	297.20	12.24	-38.3	-39.2	22.9	0.00e+00	120	42	0	1053818880	48	6419
2026-01-23 03:09:57.72	297.40	12.23	-38.3	-39.3	22.9	0.00e+00	123	42	0	1056964608	48	6466
2026-01-23 03:09:58.73	297.59	12.21	-38.2	-39.2	22.9	0.00e+00	120	42	0	1060110336	48	6376
2026-01-23 03:09:59.74	297.78	12.19	-38.2	-39.2	22.9	0.00e+00	122	42	0	1063256064	48	6377
2026-01-23 03:10:00.75	297.97	12.17	-38.2	-39.2	22.9	0.00e+00	123	42	0	1066401792	48	6353
2026-01-23 03:10:01.76	298.16	12.15	-38.1	-39.1	22.8	0.00e+00	123	42	0	1069547520	48	6339
2026-01-23 03:10:02.77	298.35	12.14	-38.2	-39.1	22.9	0.00e+00	122	42	0	1072693248	48	6344
2026-01-23 03:10:03.77	298.54	12.12	-38.3	-39.3	22.7	0.00e+00	123	42	0	1075838976	48	6481
2026-01-23 03:10:04.78	298.73	12.10	-38.2	-39.2	22.7	0.00e+00	120	42	0	1078984704	48	6407
2026-01-23 03:10:05.79	298.92	12.08	-38.2	-39.2	22.8	0.00e+00	122	42	0	1082130432	48	6360
2026-01-23 03:10:06.80	299.11	12.06	-38.2	-39.2	22.8	0.00e+00	123	42	0	1085276160	48	6379
2026-01-23 03:10:07.81	299.30	12.04	-38.3	-39.2	22.8	0.00e+00	122	42	0	1088421888	48	6420
2026-01-23 03:10:08.82	299.48	12.02	-38.2	-39.2	22.7	0.00e+00	120	42	0	1091567616	48	6398
2026-01-23 03:10:09.83	299.67	12.00	-38.2	-39.1	22.9	0.00e+00	123	42	0	1094713344	48	6346
2026-01-23 03:10:10.84	299.86	11.98	-38.0	-39.0	22.9	0.00e+00	122	42	0	1097859072	48	6260
2026-01-23 03:10:11.85	300.05	11.96	-38.0	-39.0	23.0	0.00e+00	123	42	0	1101004800	48	6232
2026-01-23 03:10:12.86	300.24	11.94	-37.9	-38.8	23.0	0.00e+00	122	42	0	1104150528	48	6122
2026-01-23 03:10:13.87	300.42	11.92	-37.9	-38.9	23.1	0.00e+00	123	42	0	1107296256	48	6164
2026-01-23 03:10:14.88	300.61	11.89	-37.9	-38.8	23.1	0.00e+00	121	42	0	1110441984	48	6124
2026-01-23 03:10:15.89	300.80	11.87	-37.9	-38.9	23.1	0.00e+00	122	42	0	1113587712	48	6149
2026-01-23 03:10:16.90	300.99	11.85	-37.9	-38.8	23.2	0.00e+00	123	42	0	1116733440	48	6129
2026-01-23 03:10:17.91	301.17	11.83	-37.9	-38.9	23.1	0.00e+00	122	42	0	1119879168	48	6145
2026-01-23 03:10:18.92	301.36	11.80	-38.1	-39.1	23.0	0.00e+00	122	42	0	1123024896	48	6289
2026-01-23 03:10:19.93	301.54	11.78	-38.0	-38.9	23.0	0.00e+00	122	42	0	1126170624	48	6186
2026-01-23 03:10:20.94	301.73	11.76	-38.0	-38.9	23.1	0.00e+00	121	42	0	1129316352	48	6204
2026-01-23 03:10:21.95	301.91	11.73	-38.1	-39.1	22.9	0.00e+00	122	42	0	1132462080	48	6308
2026-01-23 03:10:22.96	302.10	11.71	-38.3	-39.3	22.7	0.00e+00	122	42	0	1135607808	48	6441
2026-01-23 03:10:23.97	302.28	11.69	-38.5	-39.5	22.5	0.00e+00	120	42	0	1138753536	48	6636
2026-01-23 03:10:24.98	302.47	11.66	-38.3	-39.3	22.8	0.00e+00	122	42	0	1141899264	48	6466
2026-01-23 03:10:25.99	302.65	11.64	-38.2	-39.2	22.8	0.00e+00	122	42	0	1145044992	48	6407
2026-01-23 03:10:27.00	302.84	11.61	-38.2	-39.2	22.8	0.00e+00	122	42	0	1148190720	48	6375
2026-01-23 03:10:28.01	303.02	11.59	-38.1	-39.1	23.0	0.00e+00	120	42	0	1152385024	48	6309
2026-01-23 03:10:29.02	303.20	11.56	-37.8	-38.8	23.1	0.00e+00	122	42	0	1154482176	48	6088
2026-01-23 03:10:30.03	303.39	11.54	-37.9	-38.9	23.1	0.00e+00	120	42	0	1157627904	48	6180
2026-01-23 03:10:31.04	303.57	11.51	-37.9	-38.8	23.2	0.00e+00	122	42	0	1160773632	48	6117
2026-01-23 03:10:32.05	303.75	11.49	-37.9	-38.8	23.1	0.00e+00	122	42	0	1163919360	48	6129
2026-01-23 03:10:33.06	303.93	11.46	-38.0	-39.0	23.1	0.00e+00	123	42	0	1168113664	48	6211
2026-01-23 03:10:34.07	304.12	11.44	-38.1	-39.0	23.0	0.00e+00	123	42	0	1171259392	48	6273
2026-01-23 03:10:35.08	304.30	11.41	-38.1	-39.1	23.0	0.00e+00	122	42	0	1174405120	48	6296
2026-01-23 03:10:36.09	304.48	11.38	-38.1	-39.1	23.0	0.00e+00	123	42	0	1177550848	48	6300
2026-01-23 03:10:37.10	304.66	11.36	-38.1	-39.1	23.0	0.00e+00	122	42	0	1179648000	48	6295
2026-01-23 03:10:38.11	304.84	11.33	-38.1	-39.1	23.0	0.00e+00	120	42	0	1183842304	48	6314
2026-01-23 03:10:39.12	305.02	11.30	-38.2	-39.2	22.9	0.00e+00	122	42	0	1186988032	48	6390
2026-01-23 03:10:40.13	305.20	11.27	-38.3	-39.3	22.8	0.00e+00	122	42	0	1190133760	48	6429
2026-01-23 03:10:41.13	305.38	11.25	-38.2	-39.2	22.9	0.00e+00	123	42	0	1193279488	48	6387
2026-01-23 03:10:42.14	305.56	11.22	-38.3	-39.3	22.8	0.00e+00	123	42	0	1196425216	48	6475
2026-01-23 03:10:43.15	305.73	11.19	-38.4	-39.3	22.8	0.00e+00	123	42	0	1199570944	48	6488
2026-01-23 03:10:44.16	305.91	11.16	-38.3	-39.3	22.8	0.00e+00	122	42	0	1202716672	48	6446
2026-01-23 03:10:45.17	306.09	11.13	-38.2	-39.2	22.9	0.00e+00	122	42	0	1205862400	48	6417
2026-01-23 03:10:46.18	306.27	11.10	-38.4	-39.4	22.7	0.00e+00	123	42	0	1209008128	48	6517
2026-01-23 03:10:47.19	306.45	11.07	-38.3	-39.3	22.8	0.00e+00	123	42	0	1212153856	48	6458
2026-01-23 03:10:48.20	306.62	11.04	-38.1	-39.1	23.0	0.00e+00	122	42	0	1215299584	48	6317
2026-01-23 03:10:49.21	306.80	11.02	-38.0	-39.0	23.1	0.00e+00	120	42	0	1218445312	48	6214
2026-01-23 03:10:50.22	306.98	10.99	-37.9	-38.9	23.2	0.00e+00	123	42	0	1221591040	48	6137
2026-01-23 03:10:51.23	307.15	10.96	-38.2	-39.1	22.9	0.00e+00	120	42	0	1224736768	48	6336
2026-01-23 03:10:52.24	307.33	10.93	-38.3	-39.3	22.9	0.00e+00	122	42	0	1227882496	48	6428
2026-01-23 03:10:53.25	307.50	10.90	-38.3	-39.3	22.8	0.00e+00	120	42	0	1231028224	48	6438
2026-01-23 03:10:54.26	307.68	10.86	-38.4	-39.3	22.8	0.00e+00	123	42	0	1234173952	48	6491
2026-01-23 03:10:55.27	307.85	10.83	-38.4	-39.4	22.7	0.00e+00	120	42	0	1237319680	48	6523
2026-01-23 03:10:56.28	308.03	10.80	-38.1	-39.1	23.0	0.00e+00	122	42	0	1240465408	48	6324
2026-01-23 03:10:57.29	308.20	10.77	-37.9	-38.9	23.1	0.00e+00	122	42	0	1243611136	48	6155
2026-01-23 03:10:58.30	308.37	10.74	-38.2	-39.1	22.9	0.00e+00	123	42	0	1246756864	48	6343
2026-01-23 03:10:59.32	308.55	10.71	-38.0	-39.0	23.0	0.00e+00	122	42	0	1249902592	48	6220
2026-01-23 03:11:00.33	308.72	10.68	-38.2	-39.1	22.9	0.00e+00	123	42	0	1253048320	48	6323
2026-01-23 03:11:01.34	308.89	10.65	-38.3	-39.3	22.8	0.00e+00	120	42	0	1256194048	48	6436
2026-01-23 03:11:02.35	309.07	10.61	-38.3	-39.3	22.8	0.00e+00	122	42	0	1259339776	48	6436
2026-01-23 03:11:03.36	309.24	10.58	-38.4	-39.4	22.7	0.00e+00	123	42	0	1262485504	48	6524
2026-01-23 03:11:04.37	309.41	10.55	-38.3	-39.3	22.7	0.00e+00	123	42	0	1265631232	48	6465
2026-01-23 03:11:05.38	309.58	10.52	-38.4	-39.4	22.7	0.00e+00	120	42	0	1268776960	48	6534
2026-01-23 03:11:06.39	309.75	10.48	-38.3	-39.3	22.7	0.00e+00	122	42	0	1271922688	48	6492
2026-01-23 03:11:07.40	309.92	10.45	-38.3	-39.3	22.8	0.00e+00	123	42	0	1275068416	48	6447
2026-01-23 03:11:08.41	310.09	10.42	-38.4	-39.4	22.6	0.00e+00	122	42	0	1278214144	48	6547
2026-01-23 03:11:09.42	310.26	10.38	-38.4	-39.4	22.7	0.00e+00	122	42	0	1281359872	48	6512
2026-01-23 03:11:10.43	310.43	10.35	-38.6	-39.6	22.5	0.00e+00	123	42	0	1284505600	48	6684
2026-01-23 03:11:11.44	310.60	10.32	-38.7	-39.7	22.4	0.00e+00	122	42	0	1287651328	50	6005
2026-01-23 03:11:12.45	310.77	10.28	-39.0	-40.0	22.1	0.00e+00	122	42	0	1290797056	50	6258
2026-01-23 03:11:13.46	310.93	10.25	-38.6	-39.6	22.5	0.00e+00	123	42	0	1293942784	50	5953
2026-01-23 03:11:14.47	311.10	10.22	-38.3	-39.4	22.7	0.00e+00	123	42	0	1297088512	50	5795
2026-01-23 03:11:15.48	311.27	10.18	-38.3	-39.3	22.7	0.00e+00	123	42	0	1300234240	50	5732
2026-01-23 03:11:16.49	311.43	10.15	-38.2	-39.2	22.7	0.00e+00	122	42	0	1303379968	50	5685
2026-01-23 03:11:17.50	311.60	10.11	-38.5	-39.5	22.5	0.00e+00	123	42	0	1306525696	50	5879
2026-01-23 03:11:18.51	311.77	10.08	-38.5	-39.5	22.4	0.00e+00	123	42	0	1309671424	50	5911
2026-01-23 03:11:19.52	311.93	10.04	-38.3	-39.3	22.7	0.00e+00	123	42	0	1312817152	50	5729
2026-01-23 03:11:20.53	312.10	10.01	-38.0	-39.0	23.0	0.00e+00	123	42	0	1315962880	50	5573
2026-01-23 03:11:21.54	312.26	9.97	-38.3	-39.3	22.6	0.00e+00	123	42	0	1319108608	50	5787
2026-01-23 03:11:22.55	312.43	9.94	-38.4	-39.4	22.6	0.00e+00	122	42	0	1322254336	50	5846
2026-01-23 03:11:23.56	312.59	9.90	-38.3	-39.3	22.7	0.00e+00	122	42	0	1325400064	50	5764
2026-01-23 03:11:24.57	312.75	9.87	-38.4	-39.4	22.5	0.00e+00	123	42	0	1328545792	50	5846
2026-01-23 03:11:25.58	312.92	9.83	-38.3	-39.3	22.7	0.00e+00	123	42	0	1331691520	50	5735
2026-01-23 03:11:26.59	313.08	9.79	-38.5	-39.4	22.6	0.00e+00	123	42	0	1334837248	50	5857
2026-01-23 03:11:27.60	313.24	9.76	-38.7	-39.7	22.4	0.00e+00	120	42	0	1337982976	50	6031
2026-01-23 03:11:28.61	313.41	9.72	-38.7	-39.7	22.4	0.00e+00	122	42	0	1341128704	50	6007
2026-01-23 03:11:29.63	313.57	9.68	-38.6	-39.6	22.5	0.00e+00	122	42	0	1344274432	50	5976
2026-01-23 03:11:30.63	313.73	9.65	-38.4	-39.4	22.6	0.00e+00	122	42	0	1347420160	50	5849
2026-01-23 03:11:31.64	313.89	9.61	-38.6	-39.6	22.5	0.00e+00	124	42	0	1350565888	50	5989
2026-01-23 03:11:32.65	314.05	9.57	-38.8	-39.8	22.3	0.00e+00	120	42	0	1353711616	50	6100
2026-01-23 03:11:33.67	314.21	9.54	-38.2	-39.2	22.7	0.00e+00	122	42	0	1356857344	50	5690
2026-01-23 03:11:34.68	314.37	9.50	-38.3	-39.4	22.5	0.00e+00	122	42	0	1360003072	50	5800
2026-01-23 03:11:35.69	314.53	9.46	-38.7	-39.7	22.4	0.00e+00	122	42	0	1363148800	50	6013
2026-01-23 03:11:36.70	314.69	9.43	-38.8	-39.9	22.2	0.00e+00	122	42	0	1366294528	50	6143
2026-01-23 03:11:37.71	314.85	9.39	-38.6	-39.6	22.3	0.00e+00	123	42	0	1369440256	50	5966
2026-01-23 03:11:38.72	315.01	9.35	-38.7	-39.8	22.3	0.00e+00	122	42	0	1372585984	50	6067
2026-01-23 03:11:39.72	315.16	9.31	-38.9	-40.0	22.1	0.00e+00	122	42	0	1375731712	50	6217
2026-01-23 03:11:40.73	315.32	9.27	-39.2	-40.3	21.9	0.00e+00	123	42	0	1378877440	50	6440
2026-01-23 03:11:41.74	315.48	9.24	-39.6	-40.7	21.5	0.00e+00	120	42	0	1382023168	50	6741
2026-01-23 03:11:42.75	315.63	9.20	-39.4	-40.4	21.7	0.00e+00	122	42	0	1385168896	52	5853
2026-01-23 03:11:43.76	315.79	9.16	-39.4	-40.4	21.6	0.00e+00	122	42	0	1388314624	52	5830
2026-01-23 03:11:44.77	315.95	9.12	-39.2	-40.3	21.9	0.00e+00	123	42	0	1391460352	52	5760
2026-01-23 03:11:45.78	316.10	9.08	-39.0	-40.0	22.0	0.00e+00	123	42	0	1394606080	52	5593
2026-01-23 03:11:46.79	316.26	9.04	-39.1	-40.2	21.9	0.00e+00	120	42	0	1397751808	52	5686
2026-01-23 03:11:47.80	316.41	9.01	-39.1	-40.2	21.9	0.00e+00	123	42	0	1400897536	52	5686
2026-01-23 03:11:48.81	316.57	8.97	-39.1	-40.1	21.9	0.00e+00	123	42	0	1404043264	52	5635
2026-01-23 03:11:49.82	316.72	8.93	-39.2	-40.3	21.8	0.00e+00	123	42	0	1407188992	52	5729
2026-01-23 03:11:50.82	316.87	8.89	-39.1	-40.2	21.8	0.00e+00	122	42	0	1410334720	52	5673
2026-01-23 03:11:51.83	317.02	8.85	-39.2	-40.2	21.8	0.00e+00	120	42	0	1413480448	52	5718
2026-01-23 03:11:52.84	317.18	8.81	-39.2	-40.3	21.9	0.00e+00	122	42	0	1416626176	52	5730
2026-01-23 03:11:53.85	317.33	8.77	-39.2	-40.3	21.7	0.00e+00	123	42	0	1419771904	52	5728
2026-01-23 03:11:54.86	317.48	8.73	-39.2	-40.2	21.9	0.00e+00	121	42	0	1422917632	52	5703
2026-01-23 03:11:55.87	317.63	8.69	-38.8	-39.9	22.2	0.00e+00	123	42	0	1426063360	52	5474
2026-01-23 03:11:56.88	317.78	8.65	-38.7	-39.7	22.2	0.00e+00	120	42	0	1429209088	50	6047
2026-01-23 03:11:57.89	317.93	8.61	-38.7	-39.7	22.2	0.00e+00	122	42	0	1432354816	50	6022
2026-01-23 03:11:58.90	318.08	8.57	-38.8	-39.8	22.2	0.00e+00	123	42	0	1435500544	50	6095
2026-01-23 03:11:59.91	318.23	8.53	-39.0	-40.0	22.0	0.00e+00	123	42	0	1438646272	50	6247
2026-01-23 03:12:00.92	318.38	8.49	-39.0	-40.0	21.9	0.00e+00	120	42	0	1441792000	50	6249
2026-01-23 03:12:01.93	318.53	8.45	-38.9	-39.9	22.0	0.00e+00	122	42	0	1444937728	50	6186
2026-01-23 03:12:02.94	318.68	8.41	-39.0	-40.1	21.9	0.00e+00	122	42	0	1448083456	50	6307
2026-01-23 03:12:03.95	318.83	8.37	-39.2	-40.3	21.6	0.00e+00	120	42	0	1451229184	50	6466
2026-01-23 03:12:04.96	318.98	8.33	-39.5	-40.6	21.2	0.00e+00	122	42	0	1454374912	50	6673
2026-01-23 03:12:05.97	319.13	8.29	-39.7	-40.7	20.8	0.00e+00	123	42	0	1457520640	52	6064
2026-01-23 03:12:06.98	319.27	8.25	-39.7	-40.8	21.1	0.00e+00	123	42	0	1460666368	52	6066
2026-01-23 03:12:07.99	319.42	8.21	-39.6	-40.6	21.4	0.00e+00	122	42	0	1463812096	52	5983
2026-01-23 03:12:09.00	319.57	8.17	-39.5	-40.6	21.5	0.00e+00	123	42	0	1466957824	52	5940
2026-01-23 03:12:10.01	319.71	8.13	-39.6	-40.7	21.3	0.00e+00	123	42	0	1470103552	52	6009
2026-01-23 03:12:11.02	319.86	8.08	-39.7	-40.8	20.9	0.00e+00	122	42	0	1473249280	52	6128
2026-01-23 03:12:12.02	320.00	8.04	-39.6	-40.7	21.1	0.00e+00	123	42	0	1476395008	52	6024
2026-01-23 03:12:13.03	320.14	8.00	-39.6	-40.7	21.3	0.00e+00	122	42	0	1479540736	52	6019
2026-01-23 03:12:14.04	320.29	7.96	-39.5	-40.5	21.5	0.00e+00	120	42	0	1482686464	52	5906
2026-01-23 03:12:15.06	320.43	7.92	-39.1	-40.1	21.9	0.00e+00	123	42	0	1485832192	52	5651
2026-01-23 03:12:16.07	320.58	7.88	-39.2	-40.2	21.8	0.00e+00	122	42	0	1490026496	52	5697
2026-01-23 03:12:17.08	320.72	7.84	-39.0	-40.1	21.8	0.00e+00	122	42	0	1493172224	52	5619
2026-01-23 03:12:18.09	320.86	7.79	-39.0	-40.0	21.8	0.00e+00	122	42	0	1495269376	52	5581
2026-01-23 03:12:19.10	321.01	7.75	-39.3	-40.3	21.7	0.00e+00	122	42	0	1498415104	52	5778
2026-01-23 03:12:20.11	321.15	7.71	-39.3	-40.3	21.5	0.00e+00	122	42	0	1502609408	52	5784
2026-01-23 03:12:21.12	321.29	7.67	-39.3	-40.4	21.5	0.00e+00	123	42	0	1505755136	52	5831
2026-01-23 03:12:22.13	321.43	7.63	-39.4	-40.5	21.5	0.00e+00	123	42	0	1508900864	52	5859
2026-01-23 03:12:23.14	321.57	7.58	-39.3	-40.4	21.5	0.00e+00	123	42	0	1512046592	52	5825
2026-01-23 03:12:24.15	321.71	7.54	-39.4	-40.5	21.5	0.00e+00	122	42	0	1515192320	52	5895
2026-01-23 03:12:25.16	321.85	7.50	-39.3	-40.4	21.6	0.00e+00	122	42	0	1518338048	52	5810
2026-01-23 03:12:26.17	321.99	7.46	-39.4	-40.5	21.5	0.00e+00	122	42	0	1521483776	52	5915
2026-01-23 03:12:27.18	322.13	7.41	-39.3	-40.4	21.5	0.00e+00	123	42	0	1524629504	52	5839
2026-01-23 03:12:28.19	322.27	7.37	-39.5	-40.6	21.4	0.00e+00	122	42	0	1527775232	52	5934
2026-01-23 03:12:29.20	322.41	7.33	-39.3	-40.3	21.6	0.00e+00	122	42	0	1530920960	52	5776
2026-01-23 03:12:30.21	322.55	7.29	-39.3	-40.3	21.5	0.00e+00	122	42	0	1534066688	52	5765
2026-01-23 03:12:31.22	322.68	7.24	-39.4	-40.5	21.5	0.00e+00	123	42	0	1537212416	52	5865
2026-01-23 03:12:32.23	322.82	7.20	-39.5	-40.6	21.4	0.00e+00	123	42	0	1540358144	52	5967
2026-01-23 03:12:33.24	322.96	7.16	-39.3	-40.4	21.6	0.00e+00	123	42	0	1543503872	52	5830
2026-01-23 03:12:34.25	323.09	7.12	-39.3	-40.4	21.6	0.00e+00	123	42	0	1546649600	52	5829
2026-01-23 03:12:35.26	323.23	7.07	-39.3	-40.4	21.4	0.00e+00	122	42	0	1549795328	52	5804
2026-01-23 03:12:36.28	323.37	7.03	-39.5	-40.6	21.5	0.00e+00	123	42	0	1552941056	52	5933
2026-01-23 03:12:37.29	323.50	6.99	-39.2	-40.3	21.7	0.00e+00	123	42	0	1556086784	52	5751
2026-01-23 03:12:38.29	323.63	6.94	-39.3	-40.3	21.7	0.00e+00	122	42	0	1559232512	52	5777
2026-01-23 03:12:39.30	323.77	6.90	-39.5	-40.6	21.5	0.00e+00	123	42	0	1562378240	52	5937
2026-01-23 03:12:40.31	323.90	6.86	-39.2	-40.3	21.7	0.00e+00	120	42	0	1565523968	52	5752
2026-01-23 03:12:41.32	324.04	6.81	-39.3	-40.4	21.6	0.00e+00	123	42	0	1568669696	52	5828
2026-01-23 03:12:42.33	324.17	6.77	-39.5	-40.6	21.3	0.00e+00	120	42	0	1571815424	52	5966
2026-01-23 03:12:43.34	324.30	6.73	-39.4	-40.5	21.4	0.00e+00	120	42	0	1574961152	52	5915
2026-01-23 03:12:44.35	324.44	6.68	-39.6	-40.7	21.1	0.00e+00	123	42	0	1578106880	52	5996
2026-01-23 03:12:45.36	324.57	6.64	-40.0	-41.1	20.8	0.00e+00	120	42	0	1581252608	52	6329
2026-01-23 03:12:46.37	324.70	6.60	-39.6	-40.7	21.3	0.00e+00	122	42	0	1584398336	52	6050
2026-01-23 03:12:47.38	324.83	6.55	-39.6	-40.7	21.2	0.00e+00	120	42	0	1587544064	52	6015
2026-01-23 03:12:48.39	324.96	6.51	-39.6	-40.7	21.3	0.00e+00	120	42	0	1590689792	52	6056
2026-01-23 03:12:49.39	325.09	6.47	-39.7	-40.8	21.2	0.00e+00	122	42	0	1593835520	52	6106
2026-01-23 03:12:50.40	325.22	6.42	-39.7	-40.8	21.2	0.00e+00	123	42	0	1596981248	52	6082
2026-01-23 03:12:51.41	325.35	6.38	-39.8	-40.9	21.0	0.00e+00	122	42	0	1600126976	52	6169
2026-01-23 03:12:52.42	325.48	6.33	-39.7	-40.9	21.1	0.00e+00	122	42	0	1603272704	52	6138
2026-01-23 03:12:53.43	325.61	6.29	-39.7	-40.8	21.3	0.00e+00	122	42	0	1606418432	52	6077
2026-01-23 03:12:54.44	325.74	6.25	-39.9	-41.0	20.9	0.00e+00	123	42	0	1609564160	52	6223
2026-01-23 03:12:55.45	325.87	6.20	-39.8	-40.9	20.9	0.00e+00	123	42	0	1612709888	52	6140
2026-01-23 03:12:56.46	326.00	6.16	-40.0	-41.1	20.9	0.00e+00	123	42	0	1615855616	52	6342
2026-01-23 03:12:57.47	326.12	6.11	-39.6	-40.7	21.4	0.00e+00	123	42	0	1619001344	52	6028
2026-01-23 03:12:58.48	326.25	6.07	-40.1	-41.2	20.8	0.00e+00	123	42	0	1622147072	52	6405
2026-01-23 03:12:59.49	326.38	6.03	-39.6	-40.8	21.4	0.00e+00	123	42	0	1625292800	52	6072
2026-01-23 03:13:00.50	326.51	5.98	-39.7	-40.8	21.0	0.00e+00	120	42	0	1628438528	52	6114
2026-01-23 03:13:01.51	326.63	5.94	-40.0	-41.2	21.0	0.00e+00	123	42	0	1631584256	52	6355
2026-01-23 03:13:02.52	326.76	5.89	-40.2	-41.3	20.6	0.00e+00	123	42	0	1634729984	52	6484
2026-01-23 03:13:03.53	326.88	5.85	-39.6	-40.7	21.1	0.00e+00	123	42	0	1637875712	52	6028
2026-01-23 03:13:04.54	327.01	5.80	-40.3	-41.5	20.6	0.00e+00	123	42	0	1641021440	52	6599
2026-01-23 03:13:05.54	327.13	5.76	-40.1	-41.3	20.6	0.00e+00	123	42	0	1644167168	52	6446
2026-01-23 03:13:06.55	327.26	5.72	-40.1	-41.3	20.4	0.00e+00	120	42	0	1647312896	52	6424
2026-01-23 03:13:07.56	327.38	5.67	-40.2	-41.4	20.6	0.00e+00	123	42	0	1650458624	52	6556
2026-01-23 03:13:08.57	327.50	5.63	-40.6	-41.8	20.1	0.00e+00	120	42	0	1653604352	52	6879
2026-01-23 03:13:09.58	327.63	5.58	-40.7	-41.9	19.8	0.00e+00	120	42	0	1656750080	52	6914
2026-01-23 03:13:10.59	327.75	5.54	-40.8	-42.1	19.9	0.00e+00	122	42	0	1659895808	54	6279
2026-01-23 03:13:11.60	327.87	5.49	-40.7	-41.9	20.2	0.00e+00	120	42	0	1663041536	54	6197
2026-01-23 03:13:12.62	328.00	5.45	-40.4	-41.6	20.2	0.00e+00	122	42	0	1666187264	54	5961
2026-01-23 03:13:13.63	328.12	5.40	-40.4	-41.7	20.1	0.00e+00	121	42	0	1669332992	54	6004
2026-01-23 03:13:14.64	328.24	5.36	-40.6	-41.8	20.0	0.00e+00	123	42	0	1672478720	54	6078
2026-01-23 03:13:15.65	328.36	5.31	-40.3	-41.5	20.5	0.00e+00	121	42	0	1675624448	54	5872
2026-01-23 03:13:16.66	328.48	5.27	-40.4	-41.6	20.3	0.00e+00	123	42	0	1678770176	54	5963
2026-01-23 03:13:17.67	328.60	5.22	-40.7	-41.9	20.0	0.00e+00	123	42	0	1681915904	54	6185
2026-01-23 03:13:18.68	328.72	5.18	-40.2	-41.4	20.4	0.00e+00	122	42	0	1685061632	54	5840
2026-01-23 03:13:19.69	328.84	5.13	-40.7	-41.9	20.0	0.00e+00	122	42	0	1688207360	54	6182
2026-01-23 03:13:20.70	328.96	5.09	-40.0	-41.1	20.7	0.00e+00	122	42	0	1691353088	54	5638
2026-01-23 03:13:21.71	329.08	5.04	-40.1	-41.3	20.6	0.00e+00	123	42	0	1694498816	54	5727
2026-01-23 03:13:22.72	329.20	5.00	-40.3	-41.5	20.3	0.00e+00	123	42	0	1697644544	54	5915
2026-01-23 03:13:23.73	329.32	4.96	-40.1	-41.3	20.5	0.00e+00	120	42	0	1700790272	54	5741
2026-01-23 03:13:24.74	329.44	4.91	-40.2	-41.4	20.4	0.00e+00	123	42	0	1703936000	54	5836
2026-01-23 03:13:25.75	329.55	4.87	-40.2	-41.4	20.4	0.00e+00	122	42	0	1707081728	54	5801
2026-01-23 03:13:26.76	329.67	4.82	-40.3	-41.5	20.3	0.00e+00	123	42	0	1710227456	54	5922
2026-01-23 03:13:27.77	329.79	4.78	-40.2	-41.3	20.4	0.00e+00	122	42	0	1713373184	54	5790
2026-01-23 03:13:28.78	329.90	4.73	-40.0	-41.2	20.3	0.00e+00	123	42	0	1716518912	54	5689
2026-01-23 03:13:29.79	330.02	4.69	-40.0	-41.1	20.4	0.00e+00	122	42	0	1719664640	54	5656
2026-01-23 03:13:30.80	330.14	4.64	-40.3	-41.5	20.3	0.00e+00	122	42	0	1722810368	54	5908
2026-01-23 03:13:31.81	330.25	4.60	-39.9	-41.0	20.5	0.00e+00	122	42	0	1725956096	52	6261
2026-01-23 03:13:32.81	330.37	4.55	-40.0	-41.2	20.4	0.00e+00	122	42	0	1729101824	52	6385
2026-01-23 03:13:33.83	330.48	4.50	-39.9	-41.1	20.5	0.00e+00	122	42	0	1732247552	52	6317
2026-01-23 03:13:34.84	330.60	4.46	-40.1	-41.3	20.3	0.00e+00	122	42	0	1735393280	52	6465
2026-01-23 03:13:35.84	330.71	4.42	-40.1	-41.2	20.4	0.00e+00	122	42	0	1738539008	52	6418
2026-01-23 03:13:36.85	330.82	4.37	-40.4	-41.6	20.0	0.00e+00	122	42	0	1741684736	52	6708
2026-01-23 03:13:37.86	330.94	4.32	-39.8	-41.0	20.5	0.00e+00	122	42	0	1744830464	52	6220
2026-01-23 03:13:38.87	331.05	4.28	-40.5	-41.8	20.0	0.00e+00	122	42	0	1747976192	52	6820
2026-01-23 03:13:39.88	331.16	4.23	-40.0	-41.2	20.1	0.00e+00	122	42	0	1751121920	52	6371
2026-01-23 03:13:40.90	331.28	4.19	-41.1	-42.4	19.1	0.00e+00	122	42	0	1754267648	54	6568
2026-01-23 03:13:41.91	331.39	4.14	-40.7	-42.0	19.2	0.00e+00	122	42	0	1757413376	54	6219
2026-01-23 03:13:42.92	331.50	4.10	-40.5	-41.8	18.8	0.00e+00	122	42	0	1760559104	54	6082
2026-01-23 03:13:43.93	331.61	4.05	-41.5	-43.0	17.5	0.00e+00	122	42	0	1763704832	54	6992
2026-01-23 03:13:44.94	331.72	4.01	-42.0	-43.6	17.2	0.00e+00	120	42	0	1766850560	56	6718
2026-01-23 03:13:45.95	331.83	3.96	-42.9	-44.9	15.3	0.00e+00	123	42	0	1769996288	58	6914
2026-01-23 03:13:46.96	331.95	3.92	-43.4	-45.7	13.9	0.00e+00	122	42	0	1773142016	58	7627
2026-01-23 03:13:47.97	332.06	3.87	-44.0	-47.0	12.4	1.01e-04	122	42	0	1776287744	60	7832
2026-01-23 03:13:48.98	332.17	3.83	-44.7	-48.4	10.4	2.64e-03	123	42	0	1779433472	60	9223
2026-01-23 03:13:49.98	332.27	3.78	-44.8	-49.0	9.5	1.19e-02	122	42	0	1782579200	60	9869
2026-01-23 03:13:50.99	332.38	3.74	-45.3	-50.6	7.3	6.13e-02	122	42	0	1785724928	60	11899
2026-01-23 03:13:52.01	332.49	3.69	-45.5	-51.7	5.7	2.69e-01	123	42	0	1788870656	60	13556
2026-01-23 03:13:53.02	332.60	3.65	-45.8	-54.7	4.6	7.17e-01	120	42	104	1789919232	60	19036
2026-01-23 03:13:54.03	332.71	3.60	-45.8	-56.0	3.6	1.46e+00	0	42	104	1789919232	60	22234
2026-01-23 03:13:55.03	332.82	3.56	-45.9	-56.8	3.7	1.50e+00	0	42	104	1789919232	60	24371
2026-01-23 03:13:56.05	332.93	3.51	-45.9	-57.6	3.6	1.51e+00	0	42	104	1789919232	60	26594
2026-01-23 03:13:57.05	333.03	3.46	-45.9	-58.1	3.5	1.51e+00	0	42	104	1789919232	60	28291
2026-01-23 03:13:58.06	333.14	3.42	-45.9	-58.7	3.5	1.52e+00	0	42	104	1789919232	60	30313
2026-01-23 03:13:59.07	333.25	3.37	-46.0	-58.8	3.5	1.52e+00	0	42	104	1789919232	60	30622
2026-01-23 03:14:00.08	333.35	3.33	-45.9	-58.6	3.5	1.52e+00	0	42	104	1789919232	60	29888
2026-01-23 03:14:01.09	333.46	3.28	-46.0	-58.7	3.5	1.52e+00	0	42	104	1789919232	60	30119
2026-01-23 03:14:02.10	333.57	3.24	-46.0	-58.7	3.5	1.52e+00	0	42	104	1789919232	60	30207
2026-01-23 03:14:03.11	333.67	3.19	-46.0	-58.7	3.5	1.52e+00	0	42	104	1789919232	60	30369
2026-01-23 03:14:04.12	333.78	3.15	-46.0	-58.7	3.5	1.51e+00	0	42	104	1789919232	60	30333
2026-01-23 03:14:05.13	333.88	3.10	-46.0	-58.8	3.5	1.52e+00	0	42	104	1789919232	60	30454
2026-01-23 03:14:06.14	333.99	3.06	-46.0	-58.7	3.5	1.52e+00	0	42	104	1789919232	60	30332
2026-01-23 03:14:07.14	334.09	3.01	-45.9	-58.7	3.5	1.52e+00	0	42	104	1789919232	60	30089
2026-01-23 03:14:08.15	334.19	2.97	-47.1	-59.8	3.5	1.52e+00	0	42	104	1789919232	60	34470
2026-01-23 03:14:09.16	334.30	2.92	-50.1	-63.0	3.5	1.52e+00	0	42	104	1789919232	60	49849
2026-01-23 03:14:10.17	334.40	2.88	-50.4	-63.3	3.5	1.52e+00	0	42	104	1789919232	60	51217
2026-01-23 03:14:11.18	334.50	2.83	-50.6	-63.5	3.5	1.52e+00	0	42	104	1789919232	60	52405
2026-01-23 03:14:12.19	334.61	2.78	-50.8	-63.6	3.5	1.51e+00	0	42	104	1789919232	60	53285
2026-01-23 03:14:13.20	334.71	2.74	-50.9	-63.8	3.5	1.52e+00	0	42	104	1789919232	60	54175
