passes_logs/2026/01/23/R4.6S_Anadyr/R4.6S_Anadyr__20260123_042848_FENGYUN_3D_rec.log

#Pass ID: 20260123_042848_FENGYUN 3D
#Satellite: FENGYUN 3D
#Configuration: FENGYUN 3D
#almurnet v.1.7.20251203
#Start time: 2026-01-23 04:28:51

#Version: 2.2.20231116
#Station: R4.6S_Anadyr
#Location: 177.4865 lon 64.73178 lat
#TLE: 1 43010U 17072A   26022.47411728  .00000617  00000+0  31375-3 0  9996
#TLE: 2 43010  98.9952 354.4060 0002481  95.7964 264.3494 14.19699924424319

#Time	Az	El	Level	Level2	SNR	BER	BlckErr	Temp	State	Recorded	gain1	gain2
2026-01-23 04:28:51.04	213.88	0.15	-51.0	-61.8	3.3	8.39e-01	0	40	0	0	60	44544
2026-01-23 04:28:52.04	213.95	0.21	-51.0	-63.3	3.6	8.46e-01	0	40	104	0	60	52636
2026-01-23 04:28:53.05	214.02	0.26	-51.1	-63.2	3.6	8.45e-01	0	40	104	0	60	52422
2026-01-23 04:28:54.06	214.10	0.31	-51.1	-63.3	3.6	8.45e-01	0	40	104	0	60	52609
2026-01-23 04:28:55.07	214.17	0.36	-51.1	-63.3	3.6	8.46e-01	0	40	104	0	60	52752
2026-01-23 04:28:56.08	214.24	0.41	-51.0	-63.3	3.6	8.46e-01	0	40	104	0	60	52828
2026-01-23 04:28:57.09	214.31	0.46	-51.0	-63.3	3.6	8.44e-01	0	40	104	0	60	53016
2026-01-23 04:28:58.10	214.38	0.52	-51.0	-63.3	3.6	8.45e-01	0	40	104	0	60	52680
2026-01-23 04:28:59.11	214.45	0.57	-51.1	-63.3	3.6	8.45e-01	0	40	104	0	60	52836
2026-01-23 04:29:00.12	214.53	0.62	-51.2	-63.3	3.6	8.46e-01	0	40	104	0	60	53101
2026-01-23 04:29:01.13	214.60	0.67	-51.1	-63.3	3.6	8.45e-01	0	40	104	0	60	52896
2026-01-23 04:29:02.14	214.67	0.72	-51.1	-63.3	3.6	8.45e-01	0	40	104	0	60	52629
2026-01-23 04:29:03.15	214.75	0.77	-51.1	-63.3	3.6	8.45e-01	0	40	104	0	60	52580
2026-01-23 04:29:04.16	214.82	0.83	-51.0	-63.2	3.6	8.45e-01	0	40	104	0	60	52229
2026-01-23 04:29:05.17	214.89	0.88	-51.0	-63.2	3.6	8.45e-01	0	40	104	0	60	52031
2026-01-23 04:29:06.18	214.97	0.93	-51.0	-63.1	3.6	8.45e-01	0	40	104	0	60	51683
2026-01-23 04:29:07.19	215.04	0.98	-50.9	-63.1	3.6	8.46e-01	0	40	104	0	60	51622
2026-01-23 04:29:08.20	215.11	1.04	-50.9	-63.0	3.6	8.45e-01	0	40	104	0	60	51201
2026-01-23 04:29:09.21	215.19	1.09	-50.8	-62.9	3.6	8.44e-01	0	40	104	0	60	50664
2026-01-23 04:29:10.22	215.26	1.14	-50.6	-62.8	3.6	8.45e-01	0	40	104	0	60	50122
2026-01-23 04:29:11.22	215.34	1.19	-50.4	-62.5	3.6	8.46e-01	0	40	104	0	60	48356
2026-01-23 04:29:12.23	215.41	1.24	-50.1	-62.1	3.6	8.45e-01	0	41	104	0	60	46175
2026-01-23 04:29:13.24	215.49	1.30	-49.7	-61.7	3.6	8.45e-01	0	40	104	0	60	44063
2026-01-23 04:29:14.25	215.57	1.35	-49.7	-61.7	3.6	8.45e-01	0	40	104	0	60	43812
2026-01-23 04:29:15.26	215.64	1.40	-49.7	-61.7	3.6	8.45e-01	0	40	104	0	60	44003
2026-01-23 04:29:16.27	215.72	1.46	-49.7	-61.8	3.6	8.44e-01	0	41	104	0	60	44425
2026-01-23 04:29:17.28	215.79	1.51	-49.7	-61.8	3.6	8.46e-01	0	41	104	0	60	44463
2026-01-23 04:29:18.29	215.87	1.56	-49.7	-61.8	3.6	8.46e-01	0	40	104	0	60	44400
2026-01-23 04:29:19.30	215.95	1.61	-49.7	-61.8	3.6	8.46e-01	0	41	104	0	60	44467
2026-01-23 04:29:20.31	216.03	1.67	-49.7	-61.8	3.5	8.46e-01	0	40	104	0	60	44346
2026-01-23 04:29:21.32	216.10	1.72	-49.7	-61.8	3.6	8.45e-01	0	41	104	0	60	44329
2026-01-23 04:29:22.33	216.18	1.77	-49.7	-61.8	3.6	8.46e-01	0	41	104	0	60	44544
2026-01-23 04:29:23.34	216.26	1.83	-49.7	-61.8	3.6	8.46e-01	0	41	104	0	60	44577
2026-01-23 04:29:24.35	216.34	1.88	-49.7	-61.8	3.6	8.46e-01	0	41	104	0	60	44277
2026-01-23 04:29:25.36	216.42	1.93	-49.7	-61.7	3.6	8.45e-01	0	41	104	0	60	44194
2026-01-23 04:29:26.37	216.50	1.99	-49.7	-61.7	3.6	8.45e-01	0	41	104	0	60	43933
2026-01-23 04:29:27.38	216.58	2.04	-49.7	-61.8	3.6	8.46e-01	0	41	104	0	60	44270
2026-01-23 04:29:28.39	216.65	2.09	-49.7	-61.6	3.6	8.46e-01	0	41	104	0	60	43671
2026-01-23 04:29:29.40	216.73	2.15	-49.7	-61.6	3.6	8.46e-01	0	41	104	0	60	43305
2026-01-23 04:29:30.41	216.81	2.20	-49.6	-61.4	3.6	8.46e-01	0	41	104	0	60	42461
2026-01-23 04:29:31.42	216.89	2.25	-49.6	-61.2	3.6	8.46e-01	0	41	104	0	60	41663
2026-01-23 04:29:32.43	216.98	2.31	-49.6	-61.4	3.6	8.45e-01	0	41	104	0	60	42358
2026-01-23 04:29:33.44	217.06	2.36	-49.6	-61.5	3.6	8.46e-01	0	41	104	0	60	42804
2026-01-23 04:29:34.45	217.14	2.41	-49.6	-61.2	3.6	8.45e-01	0	41	104	0	60	41276
2026-01-23 04:29:35.46	217.22	2.47	-49.5	-60.4	3.6	8.46e-01	0	41	104	0	60	37922
2026-01-23 04:29:36.47	217.30	2.52	-49.4	-59.0	3.6	8.44e-01	0	41	104	0	60	32348
2026-01-23 04:29:37.48	217.38	2.58	-49.3	-57.2	3.7	8.36e-01	0	41	0	0	60	26249
2026-01-23 04:29:38.49	217.47	2.63	-49.4	-59.3	3.7	8.42e-01	0	41	104	0	60	33309
2026-01-23 04:29:39.50	217.55	2.68	-49.6	-60.8	3.6	8.45e-01	0	41	104	0	60	39526
2026-01-23 04:29:40.51	217.63	2.74	-49.4	-59.1	3.7	8.45e-01	0	41	104	0	60	32411
2026-01-23 04:29:41.52	217.71	2.79	-48.6	-53.9	6.6	8.06e-01	0	41	0	0	60	17881
2026-01-23 04:29:42.53	217.80	2.85	-47.4	-50.8	9.6	5.10e-02	0	41	0	6291456	60	12550
2026-01-23 04:29:43.54	217.88	2.90	-46.4	-49.1	11.8	5.36e-03	0	41	0	11534336	60	10267
2026-01-23 04:29:44.55	217.97	2.95	-44.7	-46.6	14.1	2.51e-05	0	41	0	17825792	60	7756
2026-01-23 04:29:45.56	218.05	3.01	-45.6	-47.9	12.8	6.17e-05	0	41	0	23068672	60	8938
2026-01-23 04:29:46.57	218.13	3.06	-46.3	-49.1	10.5	0.00e+00	0	41	0	28311552	56	13026
2026-01-23 04:29:47.58	218.22	3.12	-47.6	-52.0	4.9	8.32e-01	0	41	104	29360128	60	14420
2026-01-23 04:29:48.59	218.30	3.17	-45.3	-47.5	6.1	8.31e-01	0	41	104	29360128	60	8602
2026-01-23 04:29:49.60	218.39	3.23	-44.3	-46.1	13.5	0.00e+00	0	41	0	29360128	58	8204
2026-01-23 04:29:50.61	218.48	3.28	-39.2	-40.1	20.5	0.00e+00	0	41	0	35651584	52	5797
2026-01-23 04:29:51.62	218.56	3.34	-39.6	-40.5	20.3	0.00e+00	0	41	0	40894464	54	5438
2026-01-23 04:29:52.63	218.65	3.39	-38.6	-39.4	21.4	0.00e+00	0	41	0	46137344	50	6015
2026-01-23 04:29:53.64	218.74	3.45	-38.5	-39.4	21.5	0.00e+00	0	41	0	52428800	50	5967
2026-01-23 04:29:54.65	218.82	3.50	-38.1	-39.0	22.0	0.00e+00	0	41	0	57671680	50	5703
2026-01-23 04:29:55.66	218.91	3.56	-38.8	-39.7	21.1	0.00e+00	0	41	0	63963136	50	6190
2026-01-23 04:29:56.67	219.00	3.61	-38.7	-39.5	21.3	0.00e+00	0	41	0	69206016	50	6097
2026-01-23 04:29:57.68	219.09	3.67	-39.1	-40.0	21.0	0.00e+00	0	41	0	74448896	50	6437
2026-01-23 04:29:58.69	219.17	3.72	-38.9	-39.8	20.9	0.00e+00	0	41	0	80740352	50	6292
2026-01-23 04:29:59.70	219.26	3.78	-38.8	-39.7	21.2	0.00e+00	0	41	0	85983232	50	6212
2026-01-23 04:30:00.71	219.35	3.83	-38.5	-39.3	21.5	0.00e+00	0	41	0	92274688	50	5933
2026-01-23 04:30:01.72	219.44	3.89	-38.4	-39.2	21.8	0.00e+00	0	41	0	97517568	50	5869
2026-01-23 04:30:02.73	219.53	3.94	-38.3	-39.1	21.5	0.00e+00	0	41	0	102760448	50	5801
2026-01-23 04:30:03.73	219.62	4.00	-38.2	-39.1	21.7	0.00e+00	0	41	0	109051904	50	5771
2026-01-23 04:30:04.74	219.71	4.05	-38.6	-39.4	21.4	0.00e+00	0	41	0	114294784	50	6026
2026-01-23 04:30:05.75	219.80	4.11	-38.5	-39.3	21.7	0.00e+00	0	41	0	120586240	50	5946
2026-01-23 04:30:06.76	219.89	4.16	-38.6	-39.4	21.5	0.00e+00	0	41	0	125829120	50	6012
2026-01-23 04:30:07.77	219.98	4.22	-38.8	-39.6	21.4	0.00e+00	0	41	0	132120576	50	6153
2026-01-23 04:30:08.78	220.08	4.28	-38.6	-39.4	21.4	0.00e+00	0	41	0	137363456	50	6004
2026-01-23 04:30:09.80	220.17	4.33	-38.7	-39.6	21.2	0.00e+00	0	41	0	142606336	50	6143
2026-01-23 04:30:10.81	220.26	4.39	-38.4	-39.3	21.4	0.00e+00	0	41	0	148897792	50	5904
2026-01-23 04:30:11.81	220.35	4.44	-38.5	-39.3	21.6	0.00e+00	0	41	0	154140672	50	5943
2026-01-23 04:30:12.82	220.45	4.50	-38.6	-39.4	21.7	0.00e+00	0	41	0	160432128	50	6017
2026-01-23 04:30:13.83	220.54	4.55	-38.6	-39.5	21.4	0.00e+00	0	41	0	165675008	50	6059
2026-01-23 04:30:14.85	220.63	4.61	-39.0	-39.8	21.1	0.00e+00	0	41	0	170917888	50	6285
2026-01-23 04:30:15.85	220.73	4.67	-39.0	-39.9	21.0	0.00e+00	0	41	0	177209344	50	6364
2026-01-23 04:30:16.86	220.82	4.72	-38.6	-39.4	21.6	0.00e+00	0	41	0	182452224	50	5994
2026-01-23 04:30:17.87	220.92	4.78	-39.2	-40.1	20.7	0.00e+00	0	41	0	188743680	50	6506
2026-01-23 04:30:18.88	221.01	4.84	-39.3	-40.1	21.3	0.00e+00	0	41	0	193986560	50	6536
2026-01-23 04:30:19.89	221.11	4.89	-39.5	-40.4	20.5	0.00e+00	0	41	0	199229440	52	6022
2026-01-23 04:30:20.90	221.20	4.95	-39.0	-39.9	21.0	0.00e+00	0	41	0	205520896	50	6360
2026-01-23 04:30:21.91	221.30	5.00	-38.8	-39.7	21.2	0.00e+00	0	41	0	210763776	50	6207
2026-01-23 04:30:22.92	221.39	5.06	-38.9	-39.8	21.0	0.00e+00	0	41	0	217055232	50	6267
2026-01-23 04:30:23.93	221.49	5.12	-39.2	-40.1	20.7	0.00e+00	0	41	0	222298112	50	6496
2026-01-23 04:30:24.94	221.59	5.17	-39.2	-40.1	20.8	0.00e+00	0	41	0	228589568	50	6499
2026-01-23 04:30:25.95	221.69	5.23	-38.8	-39.7	21.3	0.00e+00	0	41	0	233832448	50	6184
2026-01-23 04:30:26.96	221.78	5.29	-38.8	-39.7	21.3	0.00e+00	0	41	0	240123904	50	6175
2026-01-23 04:30:27.97	221.88	5.34	-38.9	-39.8	21.2	0.00e+00	0	41	0	245366784	50	6284
2026-01-23 04:30:28.98	221.98	5.40	-39.0	-39.8	21.1	0.00e+00	0	41	0	250609664	50	6305
2026-01-23 04:30:29.99	222.08	5.46	-38.9	-39.8	21.1	0.00e+00	0	41	0	256901120	50	6278
2026-01-23 04:30:31.00	222.18	5.51	-38.7	-39.5	21.5	0.00e+00	0	41	0	262144000	50	6068
2026-01-23 04:30:32.01	222.28	5.57	-38.8	-39.6	21.2	0.00e+00	0	41	0	268435456	50	6152
2026-01-23 04:30:33.02	222.38	5.63	-38.8	-39.6	21.1	0.00e+00	0	41	0	273678336	50	6164
2026-01-23 04:30:34.03	222.48	5.69	-39.1	-40.0	20.9	0.00e+00	0	41	0	278921216	50	6395
2026-01-23 04:30:35.04	222.58	5.74	-38.9	-39.8	21.1	0.00e+00	0	41	0	285212672	50	6274
2026-01-23 04:30:36.05	222.68	5.80	-38.8	-39.6	21.0	0.00e+00	0	41	0	290455552	50	6169
2026-01-23 04:30:37.06	222.78	5.86	-38.4	-39.2	21.4	0.00e+00	0	41	0	296747008	50	5883
2026-01-23 04:30:38.07	222.89	5.91	-38.6	-39.5	21.2	0.00e+00	0	41	0	301989888	50	6042
2026-01-23 04:30:39.08	222.99	5.97	-38.9	-39.7	21.0	0.00e+00	0	41	0	307232768	50	6236
2026-01-23 04:30:40.09	223.09	6.03	-38.5	-39.4	21.3	0.00e+00	0	41	0	313524224	50	5977
2026-01-23 04:30:41.10	223.19	6.09	-38.8	-39.7	20.9	0.00e+00	0	41	0	318767104	50	6218
2026-01-23 04:30:42.11	223.30	6.14	-38.7	-39.5	21.1	0.00e+00	0	41	0	325058560	50	6087
2026-01-23 04:30:43.12	223.40	6.20	-38.7	-39.6	21.1	0.00e+00	0	41	0	330301440	50	6145
2026-01-23 04:30:44.13	223.51	6.26	-39.0	-39.9	20.8	0.00e+00	0	41	0	336592896	50	6362
2026-01-23 04:30:45.14	223.61	6.32	-38.9	-39.8	20.8	0.00e+00	0	41	0	341835776	50	6304
2026-01-23 04:30:46.15	223.72	6.37	-38.7	-39.6	21.0	0.00e+00	0	41	0	348127232	50	6142
2026-01-23 04:30:47.16	223.82	6.43	-39.2	-40.1	20.5	0.00e+00	0	41	0	353370112	50	6490
2026-01-23 04:30:48.17	223.93	6.49	-39.0	-40.0	20.7	0.00e+00	0	41	0	358612992	50	6396
2026-01-23 04:30:49.18	224.03	6.55	-38.8	-39.7	20.6	0.00e+00	0	41	0	364904448	50	6216
2026-01-23 04:30:50.19	224.14	6.61	-39.3	-40.2	20.3	0.00e+00	0	41	0	370147328	50	6556
2026-01-23 04:30:51.20	224.25	6.66	-38.8	-39.7	20.8	0.00e+00	0	41	0	376438784	50	6212
2026-01-23 04:30:52.21	224.36	6.72	-39.1	-40.0	20.7	0.00e+00	0	41	0	381681664	50	6420
2026-01-23 04:30:53.21	224.46	6.78	-38.9	-39.8	20.9	0.00e+00	0	41	0	386924544	50	6312
2026-01-23 04:30:54.23	224.57	6.84	-39.0	-40.0	20.8	0.00e+00	0	41	0	393216000	50	6400
2026-01-23 04:30:55.23	224.68	6.90	-39.0	-39.9	21.0	0.00e+00	0	41	0	398458880	50	6340
2026-01-23 04:30:56.24	224.79	6.95	-39.0	-39.8	21.2	0.00e+00	0	41	0	403701760	50	6280
2026-01-23 04:30:57.25	224.90	7.01	-39.1	-40.0	21.0	0.00e+00	0	41	0	409993216	50	6403
2026-01-23 04:30:58.26	225.01	7.07	-39.0	-39.8	21.3	0.00e+00	0	41	0	415236096	50	6276
2026-01-23 04:30:59.27	225.12	7.13	-39.2	-40.0	21.0	0.00e+00	0	41	0	421527552	50	6452
2026-01-23 04:31:00.28	225.23	7.19	-39.3	-40.1	20.9	0.00e+00	0	41	0	426770432	50	6534
2026-01-23 04:31:01.29	225.34	7.25	-39.4	-40.3	20.7	0.00e+00	0	41	0	433061888	50	6664
2026-01-23 04:31:02.31	225.45	7.30	-39.5	-40.4	20.7	0.00e+00	0	41	0	438304768	50	6732
2026-01-23 04:31:03.32	225.57	7.36	-39.2	-40.1	20.9	0.00e+00	0	41	0	444596224	50	6478
2026-01-23 04:31:04.33	225.68	7.42	-39.2	-40.1	20.7	0.00e+00	0	41	0	449839104	50	6481
2026-01-23 04:31:05.34	225.79	7.48	-39.4	-40.4	20.6	0.00e+00	0	41	0	455081984	50	6696
2026-01-23 04:31:06.35	225.91	7.54	-39.4	-40.3	20.5	0.00e+00	0	41	0	461373440	50	6689
2026-01-23 04:31:07.36	226.02	7.60	-39.4	-40.3	20.6	0.00e+00	0	41	0	466616320	50	6655
2026-01-23 04:31:08.37	226.13	7.66	-39.5	-40.4	20.4	0.00e+00	0	41	0	472907776	50	6714
2026-01-23 04:31:09.37	226.25	7.71	-39.4	-40.3	20.6	0.00e+00	0	41	0	478150656	50	6616
2026-01-23 04:31:10.39	226.36	7.77	-39.4	-40.3	20.7	0.00e+00	0	41	0	483393536	50	6628
2026-01-23 04:31:11.40	226.48	7.83	-39.3	-40.2	20.6	0.00e+00	0	41	0	489684992	50	6605
2026-01-23 04:31:12.41	226.60	7.89	-39.3	-40.2	20.9	0.00e+00	0	41	0	494927872	50	6553
2026-01-23 04:31:13.42	226.71	7.95	-39.2	-40.1	21.1	0.00e+00	0	41	0	501219328	50	6485
2026-01-23 04:31:14.43	226.83	8.01	-39.0	-39.9	21.3	0.00e+00	0	41	0	506462208	50	6321
2026-01-23 04:31:15.44	226.95	8.07	-39.3	-40.2	21.1	0.00e+00	0	41	0	511705088	50	6546
2026-01-23 04:31:16.45	227.07	8.13	-39.3	-40.1	21.1	0.00e+00	0	41	0	517996544	50	6507
2026-01-23 04:31:17.46	227.18	8.19	-39.1	-40.0	21.0	0.00e+00	0	41	0	523239424	50	6435
2026-01-23 04:31:18.47	227.30	8.24	-39.1	-40.0	21.2	0.00e+00	0	41	0	529530880	50	6409
2026-01-23 04:31:19.48	227.42	8.30	-39.4	-40.3	20.9	0.00e+00	0	41	0	534773760	50	6618
2026-01-23 04:31:20.49	227.54	8.36	-39.3	-40.2	21.0	0.00e+00	0	41	0	541065216	50	6565
2026-01-23 04:31:21.49	227.66	8.42	-39.3	-40.2	21.0	0.00e+00	0	41	0	546308096	50	6554
2026-01-23 04:31:22.51	227.78	8.48	-39.4	-40.3	20.9	0.00e+00	0	41	0	552599552	50	6687
2026-01-23 04:31:23.52	227.90	8.54	-39.1	-39.9	21.1	0.00e+00	0	41	0	557842432	50	6364
2026-01-23 04:31:24.53	228.03	8.60	-39.2	-40.0	21.2	0.00e+00	0	41	0	563085312	50	6464
2026-01-23 04:31:25.54	228.15	8.66	-39.4	-40.3	21.0	0.00e+00	0	41	0	569376768	50	6643
2026-01-23 04:31:26.55	228.27	8.72	-39.2	-40.0	21.2	0.00e+00	0	41	0	574619648	50	6457
2026-01-23 04:31:27.56	228.39	8.78	-39.2	-40.0	21.3	0.00e+00	0	41	0	580911104	50	6435
2026-01-23 04:31:28.57	228.52	8.84	-39.4	-40.3	20.9	0.00e+00	0	41	0	586153984	50	6692
2026-01-23 04:31:29.58	228.64	8.90	-39.5	-40.4	20.9	0.00e+00	0	41	0	591396864	50	6706
2026-01-23 04:31:30.59	228.77	8.96	-39.5	-40.3	21.0	0.00e+00	0	41	0	597688320	50	6684
2026-01-23 04:31:31.60	228.89	9.01	-39.6	-40.5	20.9	0.00e+00	0	41	0	602931200	50	6792
2026-01-23 04:31:32.61	229.02	9.07	-39.5	-40.4	21.0	0.00e+00	0	41	0	609222656	50	6697
2026-01-23 04:31:33.62	229.14	9.13	-39.4	-40.2	21.1	0.00e+00	0	41	0	614465536	50	6597
2026-01-23 04:31:34.63	229.27	9.19	-39.4	-40.2	21.1	0.00e+00	0	41	0	619708416	50	6606
2026-01-23 04:31:35.64	229.40	9.25	-39.2	-40.0	21.2	0.00e+00	0	41	0	625999872	50	6444
2026-01-23 04:31:36.65	229.53	9.31	-39.2	-40.0	21.3	0.00e+00	0	41	0	631242752	50	6441
2026-01-23 04:31:37.66	229.65	9.37	-39.2	-40.1	21.2	0.00e+00	0	41	0	637534208	50	6465
2026-01-23 04:31:38.67	229.78	9.43	-39.3	-40.2	21.3	0.00e+00	0	41	0	642777088	50	6547
2026-01-23 04:31:39.68	229.91	9.49	-39.3	-40.1	21.3	0.00e+00	0	41	0	649068544	50	6507
2026-01-23 04:31:40.69	230.04	9.55	-39.1	-40.0	21.4	0.00e+00	0	41	0	654311424	50	6409
2026-01-23 04:31:41.70	230.17	9.61	-39.3	-40.2	21.2	0.00e+00	0	41	0	660602880	50	6561
2026-01-23 04:31:42.71	230.30	9.67	-39.3	-40.2	21.2	0.00e+00	0	41	0	665845760	50	6560
2026-01-23 04:31:43.72	230.43	9.73	-39.3	-40.2	21.2	0.00e+00	0	41	0	671088640	50	6574
2026-01-23 04:31:44.73	230.56	9.79	-39.5	-40.4	21.1	0.00e+00	0	41	0	677380096	50	6693
2026-01-23 04:31:45.74	230.70	9.85	-39.3	-40.2	21.2	0.00e+00	0	41	0	682622976	50	6543
2026-01-23 04:31:46.75	230.83	9.91	-39.4	-40.3	21.1	0.00e+00	0	41	0	688914432	50	6648
2026-01-23 04:31:47.76	230.96	9.97	-39.5	-40.4	21.0	0.00e+00	0	41	0	694157312	50	6749
2026-01-23 04:31:48.77	231.10	10.03	-39.8	-40.7	20.7	0.00e+00	0	41	0	699400192	50	6987
2026-01-23 04:31:49.78	231.23	10.09	-39.9	-40.8	20.6	0.00e+00	0	41	0	705691648	52	6276
2026-01-23 04:31:50.79	231.37	10.15	-39.7	-40.6	20.7	0.00e+00	0	41	0	710934528	52	6143
2026-01-23 04:31:51.80	231.50	10.21	-39.9	-40.8	20.7	0.00e+00	0	41	0	717225984	52	6252
2026-01-23 04:31:52.81	231.64	10.27	-39.7	-40.5	20.8	0.00e+00	0	41	0	722468864	52	6103
2026-01-23 04:31:53.82	231.77	10.33	-39.9	-40.8	20.7	0.00e+00	0	41	0	727711744	52	6289
2026-01-23 04:31:54.83	231.91	10.39	-39.5	-40.4	21.0	0.00e+00	0	41	0	734003200	52	6002
2026-01-23 04:31:55.84	232.05	10.45	-39.3	-40.1	21.3	0.00e+00	0	41	0	739246080	52	5817
2026-01-23 04:31:56.85	232.19	10.51	-39.3	-40.2	21.3	0.00e+00	0	41	0	745537536	52	5834
2026-01-23 04:31:57.86	232.33	10.57	-39.2	-40.1	21.4	0.00e+00	0	41	0	750780416	52	5808
2026-01-23 04:31:58.87	232.46	10.63	-39.4	-40.2	21.2	0.00e+00	0	41	0	757071872	52	5872
2026-01-23 04:31:59.88	232.60	10.68	-39.3	-40.2	21.3	0.00e+00	0	41	0	762314752	52	5831
2026-01-23 04:32:00.89	232.74	10.74	-39.1	-40.0	21.5	0.00e+00	0	41	0	767557632	52	5717
2026-01-23 04:32:01.90	232.89	10.80	-39.1	-39.9	21.5	0.00e+00	0	41	0	773849088	52	5677
2026-01-23 04:32:02.91	233.03	10.86	-39.1	-40.0	21.4	0.00e+00	0	41	0	779091968	52	5727
2026-01-23 04:32:03.92	233.17	10.92	-38.8	-39.7	21.8	0.00e+00	0	41	0	785383424	52	5523
2026-01-23 04:32:04.93	233.31	10.98	-38.9	-39.8	21.7	0.00e+00	0	41	0	790626304	52	5592
2026-01-23 04:32:05.94	233.45	11.04	-38.8	-39.7	21.8	0.00e+00	0	41	0	795869184	52	5506
2026-01-23 04:32:06.95	233.60	11.10	-38.7	-39.6	21.9	0.00e+00	0	41	0	802160640	50	6107
2026-01-23 04:32:07.96	233.74	11.16	-38.7	-39.5	21.9	0.00e+00	0	41	0	807403520	50	6101
2026-01-23 04:32:08.97	233.89	11.22	-38.6	-39.4	22.0	0.00e+00	0	41	0	813694976	50	5991
2026-01-23 04:32:09.98	234.03	11.28	-38.5	-39.3	22.0	0.00e+00	0	41	0	818937856	50	5948
2026-01-23 04:32:10.99	234.18	11.34	-38.6	-39.4	22.0	0.00e+00	0	41	0	824180736	50	5971
2026-01-23 04:32:12.00	234.32	11.40	-38.5	-39.3	22.1	0.00e+00	0	41	0	830472192	50	5921
2026-01-23 04:32:13.01	234.47	11.46	-38.3	-39.1	22.3	0.00e+00	0	41	0	835715072	50	5764
2026-01-23 04:32:14.02	234.62	11.52	-38.4	-39.2	22.3	0.00e+00	0	41	0	842006528	50	5848
2026-01-23 04:32:15.03	234.77	11.58	-38.0	-38.8	22.5	0.00e+00	0	41	0	847249408	50	5605
2026-01-23 04:32:16.04	234.92	11.64	-37.9	-38.7	22.6	0.00e+00	0	41	0	853540864	50	5526
2026-01-23 04:32:17.05	235.07	11.70	-37.9	-38.7	22.7	0.00e+00	0	41	0	858783744	48	6217
2026-01-23 04:32:18.06	235.22	11.76	-37.8	-38.5	22.7	0.00e+00	0	41	0	865075200	48	6094
2026-01-23 04:32:19.07	235.37	11.82	-37.7	-38.4	22.9	0.00e+00	0	41	0	870318080	48	6030
2026-01-23 04:32:20.08	235.52	11.88	-37.9	-38.7	22.6	0.00e+00	0	41	0	875560960	48	6207
2026-01-23 04:32:21.09	235.67	11.94	-37.7	-38.4	22.9	0.00e+00	0	41	0	881852416	48	6032
2026-01-23 04:32:22.10	235.82	12.00	-37.9	-38.6	22.8	0.00e+00	0	41	0	887095296	48	6166
2026-01-23 04:32:23.11	235.97	12.05	-37.8	-38.6	22.7	0.00e+00	0	41	0	893386752	48	6147
2026-01-23 04:32:24.12	236.13	12.11	-37.8	-38.6	22.7	0.00e+00	0	41	0	898629632	48	6146
2026-01-23 04:32:25.13	236.28	12.17	-37.6	-38.3	23.0	0.00e+00	0	41	0	903872512	48	5953
2026-01-23 04:32:26.14	236.44	12.23	-37.5	-38.2	23.1	0.00e+00	0	41	0	910163968	48	5883
2026-01-23 04:32:27.15	236.59	12.29	-37.5	-38.3	23.1	0.00e+00	0	41	0	915406848	48	5915
2026-01-23 04:32:28.16	236.75	12.35	-37.4	-38.1	23.2	0.00e+00	0	41	0	921698304	48	5800
2026-01-23 04:32:29.17	236.90	12.41	-37.5	-38.3	22.9	0.00e+00	0	41	0	926941184	48	5914
2026-01-23 04:32:30.18	237.06	12.47	-37.3	-38.0	23.3	0.00e+00	0	41	0	932184064	48	5711
2026-01-23 04:32:31.19	237.22	12.53	-37.2	-38.0	23.3	0.00e+00	0	41	0	938475520	48	5720
2026-01-23 04:32:32.20	237.38	12.59	-37.1	-37.8	23.4	0.00e+00	0	41	0	943718400	48	5602
2026-01-23 04:32:33.21	237.54	12.65	-37.2	-38.0	23.3	0.00e+00	0	41	0	950009856	48	5706
2026-01-23 04:32:34.22	237.70	12.70	-37.1	-37.9	23.4	0.00e+00	0	41	0	955252736	48	5638
2026-01-23 04:32:35.23	237.86	12.76	-37.1	-37.9	23.4	0.00e+00	0	41	0	961544192	48	5637
2026-01-23 04:32:36.24	238.02	12.82	-37.2	-38.0	23.3	0.00e+00	0	41	0	966787072	48	5735
2026-01-23 04:32:37.25	238.18	12.88	-37.0	-37.7	23.5	0.00e+00	0	41	0	972029952	48	5555
2026-01-23 04:32:38.26	238.34	12.94	-37.0	-37.7	23.6	0.00e+00	0	41	0	978321408	48	5548
2026-01-23 04:32:39.27	238.50	13.00	-36.9	-37.7	23.7	0.00e+00	0	41	0	983564288	48	5519
2026-01-23 04:32:40.28	238.67	13.06	-36.9	-37.7	23.7	0.00e+00	0	41	0	989855744	48	5515
2026-01-23 04:32:41.29	238.83	13.11	-36.8	-37.6	23.8	0.00e+00	0	41	0	995098624	46	6120
2026-01-23 04:32:42.30	239.00	13.17	-36.8	-37.6	23.8	0.00e+00	0	41	0	1001390080	46	6109
2026-01-23 04:32:43.31	239.16	13.23	-36.4	-37.2	24.2	0.00e+00	0	41	0	1006632960	46	5839
2026-01-23 04:32:44.32	239.33	13.29	-36.4	-37.1	24.3	0.00e+00	0	41	0	1011875840	46	5800
2026-01-23 04:32:45.33	239.49	13.35	-36.2	-37.0	24.4	0.00e+00	0	41	0	1018167296	46	5700
2026-01-23 04:32:46.34	239.66	13.40	-36.0	-36.7	24.6	0.00e+00	0	41	0	1023410176	46	5555
2026-01-23 04:32:47.35	239.83	13.46	-35.8	-36.4	24.9	0.00e+00	0	41	0	1029701632	46	5377
2026-01-23 04:32:48.36	240.00	13.52	-35.7	-36.3	24.8	0.00e+00	0	41	0	1034944512	44	5961
2026-01-23 04:32:49.37	240.16	13.58	-35.7	-36.3	24.9	0.00e+00	0	41	0	1040187392	44	5950
2026-01-23 04:32:50.37	240.33	13.63	-35.6	-36.3	24.9	0.00e+00	0	41	0	1046478848	44	5929
2026-01-23 04:32:51.38	240.50	13.69	-35.8	-36.5	24.8	0.00e+00	0	41	0	1051721728	44	6074
2026-01-23 04:32:52.39	240.67	13.75	-35.7	-36.4	24.9	0.00e+00	0	41	0	1058013184	44	6018
2026-01-23 04:32:53.40	240.85	13.81	-35.8	-36.5	24.7	0.00e+00	0	41	0	1063256064	44	6085
2026-01-23 04:32:54.41	241.02	13.86	-35.5	-36.2	25.0	0.00e+00	0	41	0	1069547520	44	5869
2026-01-23 04:32:55.42	241.19	13.92	-35.6	-36.3	25.0	0.00e+00	0	41	0	1074790400	44	5919
2026-01-23 04:32:56.43	241.36	13.98	-35.5	-36.1	25.1	0.00e+00	0	41	0	1080033280	44	5817
2026-01-23 04:32:57.44	241.54	14.03	-35.4	-36.1	25.3	0.00e+00	0	41	0	1086324736	44	5774
2026-01-23 04:32:58.45	241.71	14.09	-35.5	-36.1	25.1	0.00e+00	0	41	0	1091567616	44	5825
2026-01-23 04:32:59.46	241.89	14.15	-35.3	-36.0	25.3	0.00e+00	0	41	0	1097859072	44	5751
2026-01-23 04:33:00.47	242.06	14.20	-35.3	-36.0	25.3	0.00e+00	0	41	0	1103101952	44	5748
2026-01-23 04:33:01.48	242.24	14.26	-35.3	-36.0	25.3	0.00e+00	0	41	0	1108344832	44	5720
2026-01-23 04:33:02.49	242.42	14.32	-35.1	-35.8	25.4	0.00e+00	0	41	0	1114636288	44	5595
2026-01-23 04:33:03.50	242.60	14.37	-35.0	-35.7	25.6	0.00e+00	0	41	0	1119879168	44	5506
2026-01-23 04:33:04.51	242.77	14.43	-34.9	-35.6	25.6	0.00e+00	0	41	0	1126170624	44	5471
2026-01-23 04:33:05.52	242.95	14.48	-34.8	-35.4	25.8	0.00e+00	0	41	0	1131413504	44	5372
2026-01-23 04:33:06.53	243.13	14.54	-34.9	-35.5	25.7	0.00e+00	0	41	0	1136656384	42	6086
2026-01-23 04:33:07.53	243.31	14.60	-34.7	-35.4	25.9	0.00e+00	0	41	0	1142947840	42	5995
2026-01-23 04:33:08.54	243.49	14.65	-34.9	-35.6	25.8	0.00e+00	0	41	0	1148190720	42	6110
2026-01-23 04:33:09.55	243.68	14.71	-34.9	-35.6	25.7	0.00e+00	0	41	0	1154482176	42	6146
2026-01-23 04:33:10.56	243.86	14.76	-34.8	-35.5	25.8	0.00e+00	0	41	0	1159725056	42	6053
2026-01-23 04:33:11.57	244.04	14.82	-34.9	-35.6	25.8	0.00e+00	0	41	0	1166016512	42	6117
2026-01-23 04:33:12.58	244.23	14.87	-34.9	-35.6	25.7	0.00e+00	0	41	0	1171259392	42	6108
2026-01-23 04:33:13.59	244.41	14.93	-34.8	-35.5	25.8	0.00e+00	0	41	0	1176502272	42	6064
2026-01-23 04:33:14.60	244.60	14.98	-34.9	-35.5	25.7	0.00e+00	0	41	0	1182793728	42	6094
2026-01-23 04:33:15.61	244.78	15.04	-34.7	-35.4	25.9	0.00e+00	0	41	0	1188036608	42	6004
2026-01-23 04:33:16.62	244.97	15.09	-34.8	-35.5	25.8	0.00e+00	0	41	0	1194328064	42	6054
2026-01-23 04:33:17.63	245.15	15.14	-34.6	-35.3	26.0	0.00e+00	0	41	0	1199570944	42	5930
2026-01-23 04:33:18.64	245.34	15.20	-34.7	-35.3	26.0	0.00e+00	0	41	0	1204813824	42	5943
2026-01-23 04:33:19.65	245.53	15.25	-34.7	-35.3	26.0	0.00e+00	0	41	0	1211105280	42	5936
2026-01-23 04:33:20.66	245.72	15.30	-34.6	-35.3	26.0	0.00e+00	0	41	0	1216348160	42	5942
2026-01-23 04:33:21.67	245.91	15.36	-34.8	-35.5	25.8	0.00e+00	0	41	0	1222639616	42	6039
2026-01-23 04:33:22.68	246.10	15.41	-34.5	-35.2	26.0	0.00e+00	0	41	0	1227882496	42	5855
2026-01-23 04:33:23.69	246.29	15.46	-34.6	-35.3	25.9	0.00e+00	0	41	0	1233125376	42	5915
2026-01-23 04:33:24.70	246.48	15.52	-34.5	-35.2	26.0	0.00e+00	0	41	0	1239416832	42	5858
2026-01-23 04:33:25.71	246.68	15.57	-34.7	-35.4	25.8	0.00e+00	0	41	0	1244659712	42	5982
2026-01-23 04:33:26.72	246.87	15.62	-34.5	-35.1	26.1	0.00e+00	0	41	0	1250951168	42	5821
2026-01-23 04:33:27.73	247.06	15.68	-34.5	-35.2	26.1	0.00e+00	0	41	0	1256194048	42	5829
2026-01-23 04:33:28.74	247.26	15.73	-34.5	-35.1	25.9	0.00e+00	0	41	0	1262485504	42	5806
2026-01-23 04:33:29.75	247.45	15.78	-34.5	-35.2	26.0	0.00e+00	0	41	0	1267728384	42	5839
2026-01-23 04:33:30.76	247.65	15.83	-34.6	-35.2	26.0	0.00e+00	0	41	0	1274019840	42	5876
2026-01-23 04:33:31.77	247.84	15.88	-34.7	-35.3	25.9	0.00e+00	0	41	0	1279262720	42	5946
2026-01-23 04:33:32.79	248.04	15.93	-34.7	-35.3	25.8	0.00e+00	0	41	0	1284505600	42	5959
2026-01-23 04:33:33.79	248.24	15.98	-34.8	-35.5	25.9	0.00e+00	0	41	0	1290797056	42	6047
2026-01-23 04:33:34.80	248.44	16.04	-34.8	-35.5	25.8	0.00e+00	0	41	0	1296039936	42	6048
2026-01-23 04:33:35.81	248.64	16.09	-34.7	-35.4	26.0	0.00e+00	0	41	0	1302331392	42	5972
2026-01-23 04:33:36.83	248.84	16.14	-34.7	-35.4	26.0	0.00e+00	0	41	0	1307574272	42	5972
2026-01-23 04:33:37.83	249.04	16.19	-34.6	-35.3	26.0	0.00e+00	0	41	0	1312817152	42	5903
2026-01-23 04:33:38.85	249.24	16.24	-34.4	-35.1	26.1	0.00e+00	0	41	0	1319108608	42	5817
2026-01-23 04:33:39.86	249.44	16.29	-34.4	-35.1	26.1	0.00e+00	0	41	0	1324351488	42	5775
2026-01-23 04:33:40.87	249.64	16.34	-34.6	-35.3	26.0	0.00e+00	0	41	0	1330642944	42	5897
2026-01-23 04:33:41.88	249.85	16.39	-34.4	-35.1	26.2	0.00e+00	0	41	0	1335885824	42	5782
2026-01-23 04:33:42.89	250.05	16.44	-34.5	-35.2	26.1	0.00e+00	0	41	0	1341128704	42	5863
2026-01-23 04:33:43.89	250.25	16.48	-34.5	-35.1	26.1	0.00e+00	0	41	0	1347420160	42	5824
2026-01-23 04:33:44.90	250.46	16.53	-34.5	-35.2	26.1	0.00e+00	0	41	0	1352663040	42	5866
2026-01-23 04:33:45.92	250.66	16.58	-34.5	-35.1	26.1	0.00e+00	0	41	0	1358954496	42	5827
2026-01-23 04:33:46.93	250.87	16.63	-34.6	-35.3	26.0	0.00e+00	0	41	0	1364197376	42	5944
2026-01-23 04:33:47.94	251.08	16.68	-34.4	-35.1	26.1	0.00e+00	0	41	0	1370488832	42	5766
2026-01-23 04:33:48.95	251.28	16.72	-34.5	-35.2	26.1	0.00e+00	0	41	0	1375731712	42	5851
2026-01-23 04:33:49.96	251.49	16.77	-34.4	-35.1	26.2	0.00e+00	0	41	0	1382023168	42	5784
2026-01-23 04:33:50.96	251.70	16.82	-34.4	-35.1	26.2	0.00e+00	0	41	0	1387266048	42	5775
2026-01-23 04:33:51.97	251.91	16.87	-34.3	-35.0	26.3	0.00e+00	0	41	0	1392508928	42	5706
2026-01-23 04:33:52.98	252.12	16.91	-34.3	-35.0	26.3	0.00e+00	0	41	0	1398800384	42	5718
2026-01-23 04:33:53.99	252.33	16.96	-34.3	-35.0	26.2	0.00e+00	0	41	0	1404043264	42	5717
2026-01-23 04:33:55.00	252.54	17.00	-34.3	-35.0	26.2	0.00e+00	0	41	0	1410334720	42	5698
2026-01-23 04:33:56.02	252.75	17.05	-34.4	-35.1	26.2	0.00e+00	0	41	0	1415577600	42	5773
2026-01-23 04:33:57.03	252.97	17.10	-34.3	-34.9	26.3	0.00e+00	0	41	0	1420820480	42	5688
2026-01-23 04:33:58.03	253.18	17.14	-34.4	-35.1	26.2	0.00e+00	0	41	0	1427111936	42	5768
2026-01-23 04:33:59.04	253.39	17.18	-34.5	-35.2	26.1	0.00e+00	0	41	0	1432354816	42	5843
2026-01-23 04:34:00.05	253.61	17.23	-34.4	-35.1	26.2	0.00e+00	0	41	0	1438646272	42	5767
2026-01-23 04:34:01.06	253.82	17.27	-34.2	-34.9	26.3	0.00e+00	0	41	0	1443889152	42	5669
2026-01-23 04:34:02.07	254.04	17.32	-34.3	-35.0	26.2	0.00e+00	0	41	0	1449132032	42	5707
2026-01-23 04:34:03.08	254.25	17.36	-34.1	-34.8	26.4	0.00e+00	0	41	0	1455423488	42	5598
2026-01-23 04:34:04.09	254.47	17.40	-34.2	-34.8	26.3	0.00e+00	0	41	0	1460666368	42	5623
2026-01-23 04:34:05.10	254.69	17.45	-34.1	-34.7	26.4	0.00e+00	0	41	0	1466957824	42	5554
2026-01-23 04:34:06.11	254.90	17.49	-34.2	-34.8	26.3	0.00e+00	0	41	0	1472200704	42	5583
2026-01-23 04:34:07.12	255.12	17.53	-34.2	-34.8	26.3	0.00e+00	0	41	0	1478492160	42	5616
2026-01-23 04:34:08.12	255.34	17.57	-34.2	-34.8	26.4	0.00e+00	0	41	0	1483735040	42	5585
2026-01-23 04:34:09.13	255.56	17.61	-34.2	-34.9	26.3	0.00e+00	0	41	0	1488977920	42	5638
2026-01-23 04:34:10.14	255.78	17.66	-34.3	-35.0	26.3	0.00e+00	0	41	0	1495269376	42	5716
2026-01-23 04:34:11.15	256.00	17.70	-34.5	-35.1	26.2	0.00e+00	0	41	0	1500512256	42	5806
2026-01-23 04:34:12.16	256.22	17.74	-34.4	-35.1	26.1	0.00e+00	0	41	0	1506803712	42	5801
2026-01-23 04:34:13.17	256.44	17.78	-34.2	-34.9	26.3	0.00e+00	0	41	0	1512046592	42	5637
2026-01-23 04:34:14.18	256.67	17.82	-34.2	-34.8	26.3	0.00e+00	0	41	0	1517289472	42	5625
2026-01-23 04:34:15.19	256.89	17.86	-34.1	-34.8	26.5	0.00e+00	0	41	0	1523580928	42	5609
2026-01-23 04:34:16.20	257.11	17.90	-34.1	-34.7	26.4	0.00e+00	0	41	0	1528823808	42	5560
2026-01-23 04:34:17.21	257.34	17.93	-34.1	-34.8	26.4	0.00e+00	0	41	0	1535115264	42	5600
2026-01-23 04:34:18.22	257.56	17.97	-34.2	-34.9	26.3	0.00e+00	0	41	0	1540358144	42	5684
2026-01-23 04:34:19.23	257.79	18.01	-34.4	-35.0	26.3	0.00e+00	0	41	0	1545601024	42	5746
2026-01-23 04:34:20.24	258.01	18.05	-34.3	-35.0	26.2	0.00e+00	0	41	0	1551892480	42	5734
2026-01-23 04:34:21.25	258.24	18.09	-34.2	-34.8	26.3	0.00e+00	0	41	0	1557135360	42	5605
2026-01-23 04:34:22.26	258.47	18.12	-34.0	-34.6	26.5	0.00e+00	0	41	0	1563426816	42	5491
2026-01-23 04:34:23.27	258.69	18.16	-34.1	-34.7	26.5	0.00e+00	0	41	0	1568669696	42	5558
2026-01-23 04:34:24.27	258.92	18.20	-33.9	-34.6	26.6	0.00e+00	0	41	0	1574961152	42	5467
2026-01-23 04:34:25.28	259.15	18.23	-34.0	-34.7	26.5	0.00e+00	0	41	0	1580204032	42	5514
2026-01-23 04:34:26.29	259.38	18.27	-33.9	-34.6	26.5	0.00e+00	0	41	0	1585446912	42	5471
2026-01-23 04:34:27.30	259.61	18.30	-33.9	-34.6	26.6	0.00e+00	0	41	0	1591738368	42	5459
2026-01-23 04:34:28.31	259.84	18.34	-34.0	-34.7	26.5	0.00e+00	0	41	0	1596981248	42	5508
2026-01-23 04:34:29.32	260.07	18.37	-33.9	-34.5	26.6	0.00e+00	0	41	0	1603272704	42	5431
2026-01-23 04:34:30.33	260.30	18.40	-33.9	-34.5	26.6	0.00e+00	0	41	0	1608515584	42	5431
2026-01-23 04:34:31.34	260.53	18.44	-33.8	-34.5	26.7	0.00e+00	0	41	0	1613758464	42	5406
2026-01-23 04:34:32.35	260.76	18.47	-33.8	-34.4	26.7	0.00e+00	0	41	0	1620049920	42	5376
2026-01-23 04:34:33.36	260.99	18.50	-33.9	-34.6	26.6	0.00e+00	0	41	0	1625292800	42	5448
2026-01-23 04:34:34.37	261.23	18.54	-34.0	-34.6	26.6	0.00e+00	0	41	0	1631584256	42	5461
2026-01-23 04:34:35.38	261.46	18.57	-34.0	-34.6	26.6	0.00e+00	0	41	0	1636827136	42	5499
2026-01-23 04:34:36.39	261.69	18.60	-34.0	-34.7	26.5	0.00e+00	0	41	0	1642070016	42	5506
2026-01-23 04:34:37.39	261.93	18.63	-33.9	-34.5	26.7	0.00e+00	0	41	0	1648361472	42	5408
2026-01-23 04:34:38.40	262.16	18.66	-33.8	-34.5	26.7	0.00e+00	0	41	0	1653604352	42	5405
2026-01-23 04:34:39.41	262.40	18.69	-33.7	-34.3	26.8	0.00e+00	0	41	0	1659895808	40	5960
2026-01-23 04:34:40.42	262.63	18.72	-33.7	-34.4	26.8	0.00e+00	0	41	0	1665138688	40	5983
2026-01-23 04:34:41.43	262.87	18.75	-33.9	-34.6	26.6	0.00e+00	0	41	0	1671430144	40	6116
2026-01-23 04:34:42.44	263.11	18.78	-33.8	-34.5	26.7	0.00e+00	0	41	0	1676673024	40	6049
2026-01-23 04:34:43.45	263.34	18.81	-33.8	-34.4	26.7	0.00e+00	0	41	0	1682964480	40	6025
2026-01-23 04:34:44.46	263.58	18.83	-33.7	-34.3	26.7	0.00e+00	0	41	0	1688207360	40	5959
2026-01-23 04:34:45.47	263.82	18.86	-33.7	-34.4	26.7	0.00e+00	0	41	0	1693450240	40	5986
2026-01-23 04:34:46.48	264.06	18.89	-33.7	-34.4	26.8	0.00e+00	0	41	0	1699741696	40	5994
2026-01-23 04:34:47.49	264.30	18.91	-33.7	-34.3	26.8	0.00e+00	0	41	0	1704984576	40	5934
2026-01-23 04:34:48.50	264.53	18.94	-33.8	-34.5	26.7	0.00e+00	0	41	0	1711276032	40	6040
2026-01-23 04:34:49.51	264.77	18.97	-34.1	-34.8	26.6	0.00e+00	0	41	0	1716518912	40	6251
2026-01-23 04:34:50.51	265.01	18.99	-34.3	-35.0	26.5	0.00e+00	0	41	0	1721761792	40	6391
2026-01-23 04:34:51.52	265.25	19.02	-33.9	-34.6	26.6	0.00e+00	0	41	0	1728053248	40	6120
2026-01-23 04:34:52.54	265.50	19.04	-34.0	-34.7	26.6	0.00e+00	0	41	0	1733296128	40	6195
2026-01-23 04:34:53.55	265.74	19.06	-33.8	-34.5	26.7	0.00e+00	0	41	0	1738539008	40	6069
2026-01-23 04:34:54.56	265.98	19.09	-33.7	-34.4	26.7	0.00e+00	0	41	0	1744830464	40	5997
2026-01-23 04:34:55.56	266.22	19.11	-33.8	-34.5	26.6	0.00e+00	0	41	0	1750073344	40	6063
2026-01-23 04:34:56.57	266.46	19.13	-33.8	-34.4	26.7	0.00e+00	0	41	0	1756364800	40	6019
2026-01-23 04:34:57.58	266.70	19.15	-33.7	-34.3	26.7	0.00e+00	0	41	0	1761607680	40	5952
2026-01-23 04:34:58.59	266.94	19.17	-33.6	-34.3	26.8	0.00e+00	0	41	0	1767899136	40	5911
2026-01-23 04:34:59.60	267.19	19.20	-33.7	-34.3	26.7	0.00e+00	0	41	0	1773142016	40	5962
2026-01-23 04:35:00.61	267.43	19.22	-33.7	-34.3	26.7	0.00e+00	0	41	0	1779433472	40	5964
2026-01-23 04:35:01.62	267.67	19.24	-33.9	-34.5	26.6	0.00e+00	0	41	0	1784676352	40	6092
2026-01-23 04:35:02.63	267.92	19.26	-33.7	-34.3	26.7	0.00e+00	0	41	0	1789919232	40	5964
2026-01-23 04:35:03.64	268.16	19.27	-33.7	-34.3	26.7	0.00e+00	0	41	0	1796210688	40	5935
2026-01-23 04:35:04.65	268.41	19.29	-33.7	-34.3	26.8	0.00e+00	0	41	0	1801453568	40	5947
2026-01-23 04:35:05.66	268.65	19.31	-33.9	-34.6	26.6	0.00e+00	0	41	0	1807745024	40	6118
2026-01-23 04:35:06.67	268.90	19.33	-33.8	-34.5	26.7	0.00e+00	0	41	0	1812987904	40	6034
2026-01-23 04:35:07.68	269.14	19.34	-33.8	-34.4	26.7	0.00e+00	0	41	0	1818230784	40	6020
2026-01-23 04:35:08.70	269.39	19.36	-33.7	-34.4	26.8	0.00e+00	0	41	0	1824522240	40	6028
2026-01-23 04:35:09.71	269.64	19.38	-33.7	-34.3	26.8	0.00e+00	0	41	0	1829765120	40	5950
2026-01-23 04:35:10.71	269.88	19.39	-33.6	-34.2	26.8	0.00e+00	0	41	0	1836056576	40	5880
2026-01-23 04:35:11.73	270.13	19.41	-33.7	-34.3	26.9	0.00e+00	0	41	0	1841299456	40	5924
2026-01-23 04:35:12.74	270.38	19.42	-33.7	-34.4	26.8	0.00e+00	0	41	0	1846542336	40	6016
2026-01-23 04:35:13.75	270.62	19.44	-33.8	-34.5	26.6	0.00e+00	0	41	0	1852833792	40	6051
2026-01-23 04:35:14.76	270.87	19.45	-33.9	-34.6	26.6	0.00e+00	0	41	0	1858076672	40	6125
2026-01-23 04:35:15.77	271.12	19.46	-33.9	-34.5	26.6	0.00e+00	0	41	0	1864368128	40	6101
2026-01-23 04:35:16.77	271.36	19.47	-33.7	-34.4	26.7	0.00e+00	0	41	0	1869611008	40	5982
2026-01-23 04:35:17.79	271.61	19.49	-33.9	-34.6	26.6	0.00e+00	0	41	0	1875902464	40	6126
2026-01-23 04:35:18.80	271.86	19.50	-33.8	-34.5	26.7	0.00e+00	0	41	0	1881145344	40	6036
2026-01-23 04:35:19.81	272.11	19.51	-33.8	-34.4	26.7	0.00e+00	0	41	0	1887436800	40	5988
2026-01-23 04:35:20.82	272.36	19.52	-33.6	-34.2	26.9	0.00e+00	0	41	0	1892679680	40	5867
2026-01-23 04:35:21.83	272.60	19.53	-33.6	-34.2	26.9	0.00e+00	0	41	0	1897922560	40	5894
2026-01-23 04:35:22.84	272.85	19.54	-33.5	-34.2	26.9	0.00e+00	0	41	0	1904214016	40	5850
2026-01-23 04:35:23.85	273.10	19.55	-33.4	-34.1	27.0	0.00e+00	0	41	0	1909456896	40	5784
2026-01-23 04:35:24.86	273.35	19.55	-33.4	-34.0	27.0	0.00e+00	0	41	0	1915748352	40	5724
2026-01-23 04:35:25.87	273.60	19.56	-33.6	-34.2	26.9	0.00e+00	0	41	0	1920991232	40	5849
2026-01-23 04:35:26.88	273.85	19.57	-33.6	-34.3	26.9	0.00e+00	0	41	0	1926234112	40	5900
2026-01-23 04:35:27.89	274.10	19.57	-33.6	-34.2	26.8	0.00e+00	0	41	0	1932525568	40	5875
2026-01-23 04:35:28.90	274.35	19.58	-33.7	-34.3	26.7	0.00e+00	0	41	0	1937768448	40	5956
2026-01-23 04:35:29.90	274.59	19.59	-33.7	-34.3	26.8	0.00e+00	0	41	0	1944059904	40	5921
2026-01-23 04:35:30.91	274.84	19.59	-33.7	-34.4	26.8	0.00e+00	0	41	0	1949302784	40	5966
2026-01-23 04:35:31.92	275.09	19.60	-33.5	-34.1	26.9	0.00e+00	0	41	0	1954545664	40	5795
2026-01-23 04:35:32.93	275.34	19.60	-33.6	-34.2	26.9	0.00e+00	0	41	0	1960837120	40	5871
2026-01-23 04:35:33.94	275.59	19.60	-33.6	-34.2	26.8	0.00e+00	0	41	0	1966080000	40	5885
2026-01-23 04:35:34.95	275.84	19.61	-33.5	-34.1	26.9	0.00e+00	0	41	0	1972371456	40	5827
2026-01-23 04:35:35.96	276.09	19.61	-33.6	-34.3	26.9	0.00e+00	0	41	0	1977614336	40	5909
2026-01-23 04:35:36.97	276.34	19.61	-33.6	-34.2	26.8	0.00e+00	0	41	0	1983905792	40	5873
2026-01-23 04:35:37.98	276.59	19.61	-33.6	-34.2	26.9	0.00e+00	0	41	0	1989148672	40	5886
2026-01-23 04:35:38.99	276.84	19.61	-33.6	-34.2	26.8	0.00e+00	0	41	0	1994391552	40	5851
2026-01-23 04:35:40.00	277.09	19.61	-33.8	-34.4	26.8	0.00e+00	0	41	0	2000683008	40	5973
2026-01-23 04:35:41.01	277.34	19.61	-33.7	-34.4	26.6	0.00e+00	0	41	0	2005925888	40	5977
2026-01-23 04:35:42.02	277.59	19.61	-33.7	-34.4	26.8	0.00e+00	0	41	0	2012217344	40	5992
2026-01-23 04:35:43.03	277.84	19.61	-33.7	-34.4	26.7	0.00e+00	0	41	0	2017460224	40	5992
2026-01-23 04:35:44.04	278.09	19.61	-33.6	-34.3	26.8	0.00e+00	0	41	0	2022703104	40	5907
2026-01-23 04:35:45.05	278.34	19.60	-33.5	-34.2	26.9	0.00e+00	0	41	0	2028994560	40	5866
2026-01-23 04:35:46.06	278.58	19.60	-33.6	-34.2	26.9	0.00e+00	0	41	0	2034237440	40	5875
2026-01-23 04:35:47.07	278.83	19.60	-33.6	-34.2	26.8	0.00e+00	0	41	0	2040528896	40	5872
2026-01-23 04:35:48.08	279.08	19.59	-33.7	-34.4	26.7	0.00e+00	0	41	0	2045771776	40	5998
2026-01-23 04:35:49.09	279.33	19.59	-33.6	-34.3	26.8	0.00e+00	0	41	0	2051014656	40	5932
2026-01-23 04:35:50.10	279.58	19.58	-33.7	-34.3	26.8	0.00e+00	0	41	0	2057306112	40	5958
2026-01-23 04:35:51.11	279.83	19.58	-33.7	-34.4	26.7	0.00e+00	0	41	0	2062548992	40	5982
2026-01-23 04:35:52.12	280.08	19.57	-33.9	-34.5	26.6	0.00e+00	0	41	0	2068840448	40	6058
2026-01-23 04:35:53.13	280.33	19.56	-33.7	-34.4	26.7	0.00e+00	0	41	0	2074083328	40	5989
2026-01-23 04:35:54.14	280.58	19.56	-33.9	-34.6	26.5	0.00e+00	0	41	0	2080374784	40	6120
2026-01-23 04:35:55.15	280.83	19.55	-33.7	-34.4	26.7	0.00e+00	0	41	0	2085617664	40	5971
2026-01-23 04:35:56.16	281.07	19.54	-33.7	-34.4	26.7	0.00e+00	0	41	0	2091909120	40	5967
2026-01-23 04:35:57.17	281.32	19.53	-33.7	-34.3	26.8	0.00e+00	0	41	0	2097152000	40	5955
2026-01-23 04:35:58.18	281.57	19.52	-33.7	-34.4	26.7	0.00e+00	0	41	0	2102394880	40	6009
2026-01-23 04:35:59.19	281.82	19.51	-33.8	-34.5	26.7	0.00e+00	0	41	0	2108686336	40	6078
2026-01-23 04:36:00.20	282.07	19.50	-34.1	-34.7	26.4	0.00e+00	0	41	0	2113929216	40	6239
2026-01-23 04:36:01.21	282.31	19.49	-34.1	-34.7	26.4	0.00e+00	0	41	0	2120220672	40	6216
2026-01-23 04:36:02.22	282.56	19.48	-33.8	-34.5	26.6	0.00e+00	0	41	0	2125463552	40	6082
2026-01-23 04:36:03.23	282.81	19.47	-33.6	-34.3	26.7	0.00e+00	0	41	0	2130706432	40	5937
2026-01-23 04:36:04.24	283.06	19.46	-33.7	-34.3	26.8	0.00e+00	0	41	0	2136997888	40	5960
2026-01-23 04:36:05.25	283.30	19.44	-33.7	-34.3	26.8	0.00e+00	0	41	0	2142240768	40	5956
2026-01-23 04:36:06.26	283.55	19.43	-33.5	-34.2	27.0	0.00e+00	0	41	0	2148532224	40	5857
2026-01-23 04:36:07.27	283.80	19.42	-33.5	-34.1	27.0	0.00e+00	0	41	0	2153775104	40	5817
2026-01-23 04:36:08.28	284.04	19.40	-33.5	-34.2	26.9	0.00e+00	0	41	0	2159017984	40	5868
2026-01-23 04:36:09.29	284.29	19.39	-33.3	-34.0	27.0	0.00e+00	0	41	0	2165309440	40	5697
2026-01-23 04:36:10.30	284.53	19.37	-33.5	-34.1	26.9	0.00e+00	0	41	0	2170552320	40	5788
2026-01-23 04:36:11.30	284.78	19.35	-33.5	-34.1	27.0	0.00e+00	0	41	0	2176843776	40	5828
2026-01-23 04:36:12.32	285.03	19.34	-33.7	-34.3	26.8	0.00e+00	0	41	0	2182086656	40	5963
2026-01-23 04:36:13.33	285.27	19.32	-33.8	-34.3	26.8	0.00e+00	0	41	0	2188378112	40	5964
2026-01-23 04:36:14.33	285.51	19.30	-33.9	-34.5	26.6	0.00e+00	0	41	0	2193620992	40	6085
2026-01-23 04:36:15.34	285.76	19.28	-33.9	-34.5	26.6	0.00e+00	0	41	0	2198863872	40	6089
2026-01-23 04:36:16.35	286.00	19.27	-33.9	-34.6	26.6	0.00e+00	0	41	0	2205155328	40	6154
2026-01-23 04:36:17.36	286.24	19.25	-33.8	-34.5	26.6	0.00e+00	0	41	0	2210398208	40	6066
2026-01-23 04:36:18.37	286.49	19.23	-33.9	-34.5	26.7	0.00e+00	0	41	0	2216689664	40	6103
2026-01-23 04:36:19.38	286.73	19.21	-33.9	-34.5	26.5	0.00e+00	0	41	0	2221932544	40	6059
2026-01-23 04:36:20.39	286.97	19.19	-34.0	-34.7	26.5	0.00e+00	0	41	0	2227175424	40	6217
2026-01-23 04:36:21.40	287.22	19.17	-34.2	-34.8	26.4	0.00e+00	0	41	0	2233466880	40	6259
2026-01-23 04:36:22.41	287.46	19.14	-34.2	-34.9	26.3	0.00e+00	0	41	0	2238709760	40	6329
2026-01-23 04:36:23.41	287.70	19.12	-34.2	-34.9	26.3	0.00e+00	0	41	0	2245001216	40	6333
2026-01-23 04:36:24.42	287.94	19.10	-34.2	-34.9	26.3	0.00e+00	0	41	0	2250244096	40	6347
2026-01-23 04:36:25.43	288.18	19.08	-34.2	-34.8	26.3	0.00e+00	0	41	0	2255486976	40	6303
2026-01-23 04:36:26.44	288.42	19.05	-34.1	-34.8	26.3	0.00e+00	0	41	0	2261778432	40	6286
2026-01-23 04:36:27.45	288.66	19.03	-34.2	-34.8	26.4	0.00e+00	0	41	0	2267021312	40	6305
2026-01-23 04:36:28.46	288.90	19.01	-34.1	-34.7	26.5	0.00e+00	0	41	0	2273312768	40	6179
2026-01-23 04:36:29.47	289.14	18.98	-34.1	-34.8	26.4	0.00e+00	0	41	0	2278555648	40	6250
2026-01-23 04:36:30.47	289.38	18.96	-33.9	-34.5	26.6	0.00e+00	0	41	0	2284847104	40	6092
2026-01-23 04:36:31.48	289.62	18.93	-34.0	-34.7	26.4	0.00e+00	0	41	0	2290089984	40	6183
2026-01-23 04:36:32.49	289.86	18.90	-34.0	-34.7	26.5	0.00e+00	0	41	0	2296381440	40	6228
2026-01-23 04:36:33.50	290.09	18.88	-34.0	-34.8	26.5	0.00e+00	0	41	0	2301624320	40	6246
2026-01-23 04:36:34.51	290.33	18.85	-34.0	-34.6	26.6	0.00e+00	0	41	0	2306867200	40	6122
2026-01-23 04:36:35.52	290.57	18.82	-34.1	-34.7	26.4	0.00e+00	0	41	0	2313158656	40	6204
2026-01-23 04:36:36.53	290.81	18.80	-34.0	-34.7	26.4	0.00e+00	0	41	0	2318401536	40	6189
2026-01-23 04:36:37.54	291.04	18.77	-34.1	-34.8	26.5	0.00e+00	0	41	0	2324692992	40	6270
2026-01-23 04:36:38.55	291.28	18.74	-34.0	-34.7	26.5	0.00e+00	0	41	0	2329935872	40	6206
2026-01-23 04:36:39.56	291.51	18.71	-33.9	-34.5	26.6	0.00e+00	0	41	0	2335178752	40	6084
2026-01-23 04:36:40.57	291.75	18.68	-34.0	-34.6	26.5	0.00e+00	0	41	0	2341470208	40	6168
2026-01-23 04:36:41.58	291.98	18.65	-34.1	-34.7	26.5	0.00e+00	0	41	0	2346713088	40	6243
2026-01-23 04:36:42.59	292.22	18.62	-34.2	-34.7	26.4	0.00e+00	0	41	0	2353004544	40	6234
2026-01-23 04:36:43.60	292.45	18.59	-34.2	-35.0	26.2	0.00e+00	0	41	0	2358247424	40	6391
2026-01-23 04:36:44.61	292.68	18.56	-34.2	-34.8	26.4	0.00e+00	0	41	0	2363490304	40	6248
2026-01-23 04:36:45.62	292.92	18.52	-34.2	-35.0	26.3	0.00e+00	0	41	0	2369781760	40	6403
2026-01-23 04:36:46.63	293.15	18.49	-34.1	-34.7	26.4	0.00e+00	0	41	0	2375024640	40	6192
2026-01-23 04:36:47.64	293.38	18.46	-34.1	-34.8	26.3	0.00e+00	0	41	0	2381316096	40	6317
2026-01-23 04:36:48.65	293.61	18.43	-34.0	-34.7	26.5	0.00e+00	0	41	0	2386558976	40	6199
2026-01-23 04:36:49.66	293.84	18.39	-34.1	-34.6	26.5	0.00e+00	0	41	0	2392850432	40	6156
2026-01-23 04:36:50.67	294.07	18.36	-34.0	-34.7	26.4	0.00e+00	0	41	0	2398093312	40	6221
2026-01-23 04:36:51.68	294.30	18.32	-33.9	-34.5	26.5	0.00e+00	0	41	0	2403336192	40	6067
2026-01-23 04:36:52.69	294.53	18.29	-34.0	-34.7	26.5	0.00e+00	0	41	0	2409627648	40	6188
2026-01-23 04:36:53.70	294.76	18.26	-34.2	-34.8	26.3	0.00e+00	0	41	0	2414870528	40	6254
2026-01-23 04:36:54.71	294.99	18.22	-34.0	-34.7	26.4	0.00e+00	0	41	0	2421161984	40	6234
2026-01-23 04:36:55.72	295.22	18.18	-34.1	-34.8	26.4	0.00e+00	0	41	0	2426404864	40	6297
2026-01-23 04:36:56.73	295.44	18.15	-34.1	-34.8	26.4	0.00e+00	0	41	0	2431647744	40	6247
2026-01-23 04:36:57.74	295.67	18.11	-34.3	-34.9	26.2	0.00e+00	0	41	0	2437939200	40	6353
2026-01-23 04:36:58.75	295.90	18.07	-34.4	-35.0	26.2	0.00e+00	0	41	0	2443182080	40	6416
2026-01-23 04:36:59.76	296.12	18.04	-34.3	-35.0	26.2	0.00e+00	0	41	0	2449473536	40	6437
2026-01-23 04:37:00.77	296.35	18.00	-34.3	-34.9	26.3	0.00e+00	0	41	0	2454716416	40	6368
2026-01-23 04:37:01.78	296.57	17.96	-34.1	-34.7	26.4	0.00e+00	0	41	0	2459959296	40	6219
2026-01-23 04:37:02.79	296.80	17.92	-34.2	-34.7	26.3	0.00e+00	0	41	0	2466250752	40	6227
2026-01-23 04:37:03.80	297.02	17.88	-34.1	-34.8	26.4	0.00e+00	0	41	0	2471493632	40	6295
2026-01-23 04:37:04.81	297.24	17.84	-34.3	-34.9	26.3	0.00e+00	0	41	0	2477785088	40	6375
2026-01-23 04:37:05.82	297.46	17.81	-34.2	-34.8	26.3	0.00e+00	0	41	0	2483027968	40	6246
2026-01-23 04:37:06.83	297.69	17.77	-34.3	-34.9	26.2	0.00e+00	0	41	0	2489319424	40	6343
2026-01-23 04:37:07.84	297.91	17.73	-34.4	-35.2	26.1	0.00e+00	0	41	0	2494562304	40	6546
2026-01-23 04:37:08.84	298.13	17.69	-34.5	-35.2	26.1	0.00e+00	0	41	0	2500853760	40	6563
2026-01-23 04:37:09.85	298.35	17.64	-34.4	-35.1	26.1	0.00e+00	0	41	0	2506096640	40	6481
2026-01-23 04:37:10.86	298.56	17.60	-34.5	-35.1	26.1	0.00e+00	0	41	0	2511339520	40	6528
2026-01-23 04:37:11.87	298.78	17.56	-34.4	-35.0	26.2	0.00e+00	0	41	0	2517630976	40	6458
2026-01-23 04:37:12.88	299.00	17.52	-34.5	-35.1	26.2	0.00e+00	0	41	0	2522873856	40	6531
2026-01-23 04:37:13.89	299.22	17.48	-34.5	-35.1	26.3	0.00e+00	0	41	0	2529165312	40	6538
2026-01-23 04:37:14.90	299.44	17.44	-34.5	-35.1	26.2	0.00e+00	0	41	0	2534408192	40	6511
2026-01-23 04:37:15.91	299.65	17.39	-34.6	-35.3	26.1	0.00e+00	0	41	0	2539651072	40	6677
2026-01-23 04:37:16.92	299.87	17.35	-34.6	-35.3	26.1	0.00e+00	0	41	0	2545942528	40	6686
2026-01-23 04:37:17.93	300.08	17.31	-34.7	-35.4	26.1	0.00e+00	0	41	0	2551185408	42	5971
2026-01-23 04:37:18.95	300.30	17.26	-34.7	-35.4	26.1	0.00e+00	0	41	0	2557476864	42	5970
2026-01-23 04:37:19.96	300.51	17.22	-34.5	-35.1	26.2	0.00e+00	0	41	0	2562719744	42	5819
2026-01-23 04:37:20.97	300.73	17.17	-34.6	-35.3	26.1	0.00e+00	0	41	0	2567962624	42	5959
2026-01-23 04:37:21.98	300.94	17.13	-34.7	-35.4	25.9	0.00e+00	0	41	0	2574254080	42	5970
2026-01-23 04:37:22.98	301.15	17.08	-34.6	-35.2	26.2	0.00e+00	0	41	0	2579496960	42	5865
2026-01-23 04:37:24.00	301.36	17.04	-34.5	-35.2	26.1	0.00e+00	0	41	0	2585788416	42	5852
2026-01-23 04:37:25.01	301.57	16.99	-34.6	-35.2	26.1	0.00e+00	0	41	0	2591031296	42	5879
2026-01-23 04:37:26.02	301.78	16.95	-34.6	-35.3	26.1	0.00e+00	0	41	0	2597322752	42	5906
2026-01-23 04:37:27.03	301.99	16.90	-34.7	-35.4	26.0	0.00e+00	0	41	0	2602565632	42	6005
2026-01-23 04:37:28.04	302.20	16.86	-34.6	-35.2	26.1	0.00e+00	0	41	0	2608857088	42	5892
2026-01-23 04:37:29.04	302.41	16.81	-34.6	-35.3	26.1	0.00e+00	0	41	0	2614099968	42	5932
2026-01-23 04:37:30.05	302.62	16.76	-34.7	-35.3	26.1	0.00e+00	0	41	0	2619342848	42	5945
2026-01-23 04:37:31.06	302.82	16.72	-34.6	-35.2	26.1	0.00e+00	0	41	0	2625634304	42	5879
2026-01-23 04:37:32.07	303.03	16.67	-34.6	-35.4	26.1	0.00e+00	0	41	0	2630877184	42	5984
2026-01-23 04:37:33.08	303.24	16.62	-34.6	-35.2	26.2	0.00e+00	0	41	0	2636120064	42	5888
2026-01-23 04:37:34.08	303.44	16.57	-34.5	-35.1	26.1	0.00e+00	0	41	0	2642411520	42	5803
2026-01-23 04:37:35.09	303.64	16.52	-34.6	-35.2	26.0	0.00e+00	0	41	0	2647654400	42	5891
2026-01-23 04:37:36.10	303.85	16.48	-34.6	-35.3	26.1	0.00e+00	0	41	0	2653945856	42	5940
2026-01-23 04:37:37.11	304.05	16.43	-34.6	-35.2	26.1	0.00e+00	0	41	0	2659188736	42	5852
2026-01-23 04:37:38.12	304.25	16.38	-34.6	-35.2	26.1	0.00e+00	0	41	0	2664431616	42	5834
2026-01-23 04:37:39.13	304.45	16.33	-34.6	-35.4	26.0	0.00e+00	0	41	0	2670723072	42	5967
2026-01-23 04:37:40.14	304.66	16.28	-34.6	-35.4	26.1	0.00e+00	0	41	0	2675965952	42	5966
2026-01-23 04:37:41.15	304.86	16.23	-34.7	-35.4	26.0	0.00e+00	0	41	0	2682257408	42	6005
2026-01-23 04:37:42.16	305.06	16.18	-34.8	-35.4	25.9	0.00e+00	0	41	0	2687500288	42	6026
2026-01-23 04:37:43.17	305.26	16.13	-34.8	-35.4	26.0	0.00e+00	0	41	0	2693791744	42	5969
2026-01-23 04:37:44.18	305.45	16.08	-34.9	-35.6	25.9	0.00e+00	0	41	0	2699034624	42	6119
2026-01-23 04:37:45.19	305.65	16.03	-34.8	-35.6	25.9	0.00e+00	0	41	0	2705326080	42	6105
2026-01-23 04:37:46.20	305.85	15.98	-34.7	-35.4	25.9	0.00e+00	0	41	0	2710568960	42	5975
2026-01-23 04:37:47.20	306.04	15.93	-34.8	-35.5	26.0	0.00e+00	0	41	0	2715811840	42	6034
2026-01-23 04:37:48.21	306.24	15.88	-34.9	-35.6	25.9	0.00e+00	0	41	0	2722103296	42	6135
2026-01-23 04:37:49.22	306.44	15.83	-34.8	-35.4	25.9	0.00e+00	0	41	0	2727346176	42	6020
2026-01-23 04:37:50.23	306.63	15.78	-35.1	-35.7	25.8	0.00e+00	0	41	0	2732589056	42	6185
2026-01-23 04:37:51.24	306.83	15.72	-35.0	-35.7	25.8	0.00e+00	0	41	0	2738880512	42	6200
2026-01-23 04:37:52.25	307.02	15.67	-35.1	-35.9	25.6	0.00e+00	0	41	0	2744123392	42	6331
2026-01-23 04:37:53.26	307.21	15.62	-35.2	-35.8	25.5	0.00e+00	0	41	0	2750414848	42	6308
2026-01-23 04:37:54.27	307.40	15.57	-35.2	-35.8	25.6	0.00e+00	0	41	0	2755657728	42	6309
2026-01-23 04:37:55.28	307.59	15.52	-35.1	-35.8	25.6	0.00e+00	0	41	0	2760900608	42	6306
2026-01-23 04:37:56.29	307.79	15.46	-35.2	-35.9	25.7	0.00e+00	0	41	0	2767192064	42	6345
2026-01-23 04:37:57.30	307.98	15.41	-35.2	-36.0	25.6	0.00e+00	0	41	0	2772434944	42	6405
2026-01-23 04:37:58.31	308.17	15.36	-35.2	-35.8	25.6	0.00e+00	0	41	0	2778726400	42	6282
2026-01-23 04:37:59.32	308.35	15.30	-35.1	-35.8	25.7	0.00e+00	0	41	0	2783969280	42	6264
2026-01-23 04:38:00.33	308.54	15.25	-35.2	-35.8	25.5	0.00e+00	0	41	0	2790260736	42	6293
2026-01-23 04:38:01.34	308.73	15.20	-35.3	-36.0	25.5	0.00e+00	0	41	0	2795503616	42	6393
2026-01-23 04:38:02.35	308.92	15.14	-35.2	-35.9	25.6	0.00e+00	0	41	0	2801795072	42	6366
2026-01-23 04:38:03.36	309.10	15.09	-35.2	-35.8	25.6	0.00e+00	0	41	0	2807037952	42	6292
2026-01-23 04:38:04.37	309.29	15.04	-35.0	-35.6	25.7	0.00e+00	0	41	0	2812280832	42	6143
2026-01-23 04:38:05.38	309.47	14.98	-35.0	-35.6	25.8	0.00e+00	0	41	0	2818572288	42	6141
2026-01-23 04:38:06.39	309.66	14.93	-35.2	-35.9	25.6	0.00e+00	0	41	0	2823815168	42	6349
2026-01-23 04:38:07.40	309.84	14.87	-35.0	-35.6	25.8	0.00e+00	0	41	0	2830106624	42	6159
2026-01-23 04:38:08.41	310.02	14.82	-35.0	-35.6	25.7	0.00e+00	0	41	0	2835349504	42	6135
2026-01-23 04:38:09.42	310.21	14.76	-35.1	-35.6	25.7	0.00e+00	0	41	0	2840592384	42	6173
2026-01-23 04:38:10.43	310.39	14.71	-35.1	-35.7	25.7	0.00e+00	0	41	0	2846883840	42	6207
2026-01-23 04:38:11.44	310.57	14.65	-35.2	-35.9	25.7	0.00e+00	0	41	0	2852126720	42	6354
2026-01-23 04:38:12.45	310.75	14.60	-35.4	-36.1	25.2	0.00e+00	0	41	0	2858418176	42	6496
2026-01-23 04:38:13.46	310.93	14.54	-35.5	-36.2	25.2	0.00e+00	0	41	0	2863661056	42	6610
2026-01-23 04:38:14.47	311.11	14.49	-35.6	-36.2	25.2	0.00e+00	0	41	0	2868903936	42	6593
2026-01-23 04:38:15.48	311.29	14.43	-35.4	-36.0	25.3	0.00e+00	0	41	0	2875195392	42	6450
2026-01-23 04:38:16.49	311.46	14.38	-35.5	-36.3	25.2	0.00e+00	0	41	0	2880438272	42	6630
2026-01-23 04:38:17.50	311.64	14.32	-35.5	-36.1	25.2	0.00e+00	0	41	0	2886729728	42	6486
2026-01-23 04:38:18.51	311.82	14.27	-35.6	-36.3	25.2	0.00e+00	0	41	0	2891972608	42	6651
2026-01-23 04:38:19.52	311.99	14.21	-35.5	-36.1	25.1	0.00e+00	0	41	0	2898264064	42	6530
2026-01-23 04:38:20.53	312.17	14.15	-35.7	-36.3	25.1	0.00e+00	0	41	0	2903506944	42	6622
2026-01-23 04:38:21.54	312.34	14.10	-35.7	-36.3	25.1	0.00e+00	0	41	0	2909798400	44	5936
2026-01-23 04:38:22.56	312.52	14.04	-35.8	-36.6	24.9	0.00e+00	0	41	0	2915041280	44	6134
2026-01-23 04:38:23.57	312.69	13.98	-35.7	-36.5	24.9	0.00e+00	0	41	0	2920284160	44	6038
2026-01-23 04:38:24.58	312.87	13.93	-35.7	-36.3	25.0	0.00e+00	0	41	0	2926575616	44	5952
2026-01-23 04:38:25.59	313.04	13.87	-35.8	-36.4	24.9	0.00e+00	0	41	0	2931818496	44	6019
2026-01-23 04:38:26.59	313.21	13.81	-35.7	-36.4	25.0	0.00e+00	0	41	0	2938109952	44	6003
2026-01-23 04:38:27.60	313.38	13.76	-35.6	-36.2	25.0	0.00e+00	0	41	0	2943352832	44	5868
2026-01-23 04:38:28.61	313.55	13.70	-35.6	-36.3	25.0	0.00e+00	0	41	0	2948595712	44	5957
2026-01-23 04:38:29.62	313.72	13.64	-35.5	-36.1	25.1	0.00e+00	0	41	0	2954887168	44	5795
2026-01-23 04:38:30.63	313.89	13.59	-35.4	-36.2	25.2	0.00e+00	0	41	0	2960130048	44	5852
2026-01-23 04:38:31.64	314.05	13.53	-35.6	-36.3	25.1	0.00e+00	0	41	0	2966421504	44	5936
2026-01-23 04:38:32.65	314.22	13.47	-35.6	-36.3	25.0	0.00e+00	0	41	0	2971664384	44	5908
2026-01-23 04:38:33.66	314.39	13.41	-35.4	-36.2	25.2	0.00e+00	0	41	0	2976907264	44	5836
2026-01-23 04:38:34.67	314.55	13.36	-35.5	-36.3	25.2	0.00e+00	0	41	0	2983198720	44	5918
2026-01-23 04:38:35.68	314.72	13.30	-35.4	-36.2	25.0	0.00e+00	0	41	0	2988441600	44	5842
2026-01-23 04:38:36.68	314.88	13.24	-35.5	-36.2	25.0	0.00e+00	0	41	0	2994733056	44	5874
2026-01-23 04:38:37.70	315.05	13.18	-35.6	-36.3	25.0	0.00e+00	0	41	0	2999975936	44	5948
2026-01-23 04:38:38.70	315.21	13.13	-35.6	-36.3	24.9	0.00e+00	0	41	0	3006267392	44	5905
2026-01-23 04:38:39.72	315.38	13.07	-35.8	-36.6	24.8	0.00e+00	0	41	0	3011510272	44	6112
2026-01-23 04:38:40.73	315.54	13.01	-35.5	-36.2	25.0	0.00e+00	0	41	0	3016753152	44	5883
2026-01-23 04:38:41.74	315.70	12.95	-35.6	-36.2	24.9	0.00e+00	0	41	0	3023044608	44	5892
2026-01-23 04:38:42.75	315.86	12.89	-35.5	-36.3	25.0	0.00e+00	0	41	0	3028287488	44	5916
2026-01-23 04:38:43.76	316.02	12.84	-35.6	-36.3	25.0	0.00e+00	0	41	0	3034578944	44	5921
2026-01-23 04:38:44.77	316.18	12.78	-35.7	-36.3	24.9	0.00e+00	0	41	0	3039821824	44	5900
2026-01-23 04:38:45.78	316.34	12.72	-35.6	-36.3	25.0	0.00e+00	0	41	0	3045064704	44	5918
2026-01-23 04:38:46.79	316.50	12.66	-35.7	-36.3	25.0	0.00e+00	0	41	0	3051356160	44	5934
2026-01-23 04:38:47.80	316.66	12.60	-35.7	-36.4	25.0	0.00e+00	0	41	0	3056599040	44	6009
2026-01-23 04:38:48.81	316.82	12.54	-35.5	-36.2	25.1	0.00e+00	0	41	0	3062890496	44	5845
2026-01-23 04:38:49.82	316.97	12.49	-35.6	-36.3	24.9	0.00e+00	0	41	0	3068133376	44	5959
2026-01-23 04:38:50.83	317.13	12.43	-35.8	-36.5	24.8	0.00e+00	0	41	0	3073376256	44	6043
2026-01-23 04:38:51.84	317.29	12.37	-36.0	-36.6	24.8	0.00e+00	0	41	0	3079667712	44	6133
2026-01-23 04:38:52.85	317.44	12.31	-36.2	-36.9	24.5	0.00e+00	0	41	0	3084910592	44	6387
2026-01-23 04:38:53.86	317.60	12.25	-36.0	-36.8	24.7	0.00e+00	0	41	0	3091202048	44	6282
2026-01-23 04:38:54.87	317.75	12.19	-35.9	-36.7	24.8	0.00e+00	0	41	0	3096444928	44	6185
2026-01-23 04:38:55.88	317.90	12.13	-36.1	-36.7	24.6	0.00e+00	0	41	0	3102736384	44	6216
2026-01-23 04:38:56.88	318.05	12.08	-35.9	-36.7	24.7	0.00e+00	0	41	0	3107979264	44	6206
2026-01-23 04:38:57.89	318.21	12.02	-35.8	-36.5	24.8	0.00e+00	0	41	0	3114270720	44	6047
2026-01-23 04:38:58.90	318.36	11.96	-36.0	-36.6	24.7	0.00e+00	0	41	0	3119513600	44	6132
2026-01-23 04:38:59.91	318.51	11.90	-36.0	-36.7	24.6	0.00e+00	0	41	0	3124756480	44	6177
2026-01-23 04:39:00.92	318.66	11.84	-35.9	-36.6	24.7	0.00e+00	0	41	0	3131047936	44	6141
2026-01-23 04:39:01.93	318.81	11.78	-36.2	-36.8	24.5	0.00e+00	0	41	0	3136290816	44	6294
2026-01-23 04:39:02.94	318.96	11.72	-36.2	-37.0	24.6	0.00e+00	0	41	0	3142582272	44	6400
2026-01-23 04:39:03.95	319.11	11.66	-36.0	-36.7	24.6	0.00e+00	0	41	0	3147825152	44	6174
2026-01-23 04:39:04.96	319.26	11.61	-36.2	-36.9	24.5	0.00e+00	0	41	0	3153068032	44	6377
2026-01-23 04:39:05.97	319.40	11.55	-36.1	-36.9	24.6	0.00e+00	0	41	0	3159359488	44	6345
2026-01-23 04:39:06.98	319.55	11.49	-36.0	-36.7	24.7	0.00e+00	0	41	0	3164602368	44	6175
2026-01-23 04:39:07.99	319.70	11.43	-36.1	-36.8	24.6	0.00e+00	0	41	0	3170893824	44	6276
2026-01-23 04:39:09.00	319.84	11.37	-36.0	-36.7	24.7	0.00e+00	0	41	0	3176136704	44	6184
2026-01-23 04:39:10.01	319.99	11.31	-35.9	-36.6	24.8	0.00e+00	0	41	0	3181379584	44	6114
2026-01-23 04:39:11.02	320.13	11.25	-36.0	-36.8	24.6	0.00e+00	0	41	0	3187671040	44	6269
2026-01-23 04:39:12.03	320.28	11.19	-36.1	-36.8	24.6	0.00e+00	0	41	0	3192913920	44	6274
2026-01-23 04:39:13.03	320.42	11.13	-36.2	-36.9	24.5	0.00e+00	0	41	0	3199205376	44	6372
2026-01-23 04:39:14.04	320.56	11.07	-36.1	-36.8	24.7	0.00e+00	0	41	0	3204448256	44	6309
2026-01-23 04:39:15.05	320.71	11.01	-36.1	-36.8	24.6	0.00e+00	0	41	0	3210739712	44	6250
2026-01-23 04:39:16.06	320.85	10.96	-36.1	-36.9	24.5	0.00e+00	0	41	0	3215982592	44	6354
2026-01-23 04:39:17.07	320.99	10.90	-36.2	-36.8	24.5	0.00e+00	0	41	0	3221225472	44	6306
2026-01-23 04:39:18.08	321.13	10.84	-36.0	-36.8	24.6	0.00e+00	0	41	0	3227516928	44	6267
2026-01-23 04:39:19.09	321.27	10.78	-36.0	-36.6	24.6	0.00e+00	0	41	0	3232759808	44	6152
2026-01-23 04:39:20.10	321.41	10.72	-36.1	-36.7	24.6	0.00e+00	0	41	0	3239051264	44	6199
2026-01-23 04:39:21.11	321.55	10.66	-36.1	-36.8	24.6	0.00e+00	0	41	0	3244294144	44	6284
2026-01-23 04:39:22.12	321.69	10.60	-36.1	-36.7	24.6	0.00e+00	0	41	0	3249537024	44	6240
2026-01-23 04:39:23.13	321.83	10.54	-36.1	-36.8	24.6	0.00e+00	0	41	0	3255828480	44	6298
2026-01-23 04:39:24.14	321.96	10.48	-36.0	-36.8	24.5	0.00e+00	0	41	0	3261071360	44	6279
2026-01-23 04:39:25.15	322.10	10.42	-36.1	-36.9	24.5	0.00e+00	0	41	0	3267362816	44	6339
2026-01-23 04:39:26.16	322.24	10.36	-36.1	-36.7	24.5	0.00e+00	0	41	0	3272605696	44	6229
2026-01-23 04:39:27.17	322.37	10.30	-36.3	-37.0	24.3	0.00e+00	0	41	0	3277848576	44	6459
2026-01-23 04:39:28.18	322.51	10.24	-36.3	-37.0	24.3	0.00e+00	0	41	0	3284140032	44	6432
2026-01-23 04:39:29.19	322.64	10.19	-36.4	-37.2	24.2	0.00e+00	0	41	0	3289382912	44	6554
2026-01-23 04:39:30.20	322.78	10.13	-36.4	-37.2	24.2	0.00e+00	0	41	0	3295674368	44	6562
2026-01-23 04:39:31.22	322.91	10.07	-36.2	-36.9	24.4	0.00e+00	0	41	0	3300917248	44	6327
2026-01-23 04:39:32.23	323.05	10.01	-36.5	-37.3	24.1	0.00e+00	0	41	0	3307208704	44	6619
2026-01-23 04:39:33.23	323.18	9.95	-36.7	-37.3	23.9	0.00e+00	0	41	0	3312451584	44	6651
2026-01-23 04:39:34.25	323.31	9.89	-36.7	-37.5	24.0	0.00e+00	0	41	0	3318743040	46	6055
2026-01-23 04:39:35.25	323.44	9.83	-36.9	-37.7	23.8	0.00e+00	0	41	0	3323985920	46	6190
2026-01-23 04:39:36.27	323.57	9.77	-37.0	-37.6	23.7	0.00e+00	0	41	0	3329228800	46	6160
2026-01-23 04:39:37.28	323.71	9.71	-37.0	-37.7	23.6	0.00e+00	0	41	0	3335520256	46	6182
2026-01-23 04:39:38.29	323.84	9.65	-37.1	-37.8	23.7	0.00e+00	0	41	0	3340763136	46	6310
2026-01-23 04:39:39.30	323.97	9.59	-37.0	-37.8	23.8	0.00e+00	0	41	0	3347054592	46	6287
2026-01-23 04:39:40.31	324.09	9.53	-37.1	-37.8	23.4	0.00e+00	0	41	0	3352297472	46	6292
2026-01-23 04:39:41.32	324.22	9.48	-37.1	-37.9	23.6	0.00e+00	0	41	0	3357540352	46	6336
2026-01-23 04:39:42.33	324.35	9.42	-36.9	-37.7	23.6	0.00e+00	0	41	0	3363831808	46	6176
2026-01-23 04:39:43.34	324.48	9.36	-36.8	-37.4	23.9	0.00e+00	0	41	0	3369074688	46	6005
2026-01-23 04:39:44.35	324.61	9.30	-36.7	-37.4	23.9	0.00e+00	0	41	0	3375366144	46	5978
2026-01-23 04:39:45.36	324.73	9.24	-36.8	-37.4	23.8	0.00e+00	0	41	0	3380609024	46	5999
2026-01-23 04:39:46.37	324.86	9.18	-36.7	-37.5	24.0	0.00e+00	0	41	0	3385851904	46	6050
2026-01-23 04:39:47.38	324.99	9.12	-36.8	-37.5	23.8	0.00e+00	0	41	0	3392143360	46	6036
2026-01-23 04:39:48.39	325.11	9.06	-36.9	-37.6	23.7	0.00e+00	0	41	0	3397386240	46	6131
2026-01-23 04:39:49.40	325.24	9.00	-37.1	-37.9	23.5	0.00e+00	0	41	0	3403677696	46	6322
2026-01-23 04:39:50.41	325.36	8.94	-36.9	-37.7	23.7	0.00e+00	0	41	0	3408920576	46	6235
2026-01-23 04:39:51.42	325.48	8.89	-37.0	-37.7	23.7	0.00e+00	0	41	0	3415212032	46	6179
2026-01-23 04:39:52.43	325.61	8.83	-37.0	-37.7	23.7	0.00e+00	0	41	0	3420454912	46	6244
2026-01-23 04:39:53.43	325.73	8.77	-37.0	-37.7	23.6	0.00e+00	0	41	0	3425697792	46	6210
2026-01-23 04:39:54.44	325.85	8.71	-37.1	-37.8	23.5	0.00e+00	0	41	0	3431989248	46	6314
2026-01-23 04:39:55.46	325.97	8.65	-37.5	-38.2	23.1	0.00e+00	0	41	0	3437232128	46	6555
2026-01-23 04:39:56.46	326.09	8.59	-37.1	-37.9	23.6	0.00e+00	0	41	0	3443523584	46	6325
2026-01-23 04:39:57.47	326.22	8.53	-37.0	-37.8	23.5	0.00e+00	0	41	0	3448766464	46	6264
2026-01-23 04:39:58.49	326.34	8.47	-37.1	-38.0	23.4	0.00e+00	0	41	0	3455057920	46	6412
2026-01-23 04:39:59.49	326.46	8.42	-37.3	-38.1	23.2	0.00e+00	0	41	0	3460300800	46	6508
2026-01-23 04:40:00.50	326.58	8.36	-37.4	-38.1	23.1	0.00e+00	0	41	0	3465543680	46	6518
2026-01-23 04:40:01.51	326.69	8.30	-37.6	-38.3	23.0	0.00e+00	0	41	0	3471835136	46	6659
2026-01-23 04:40:02.53	326.81	8.24	-37.4	-38.1	23.2	0.00e+00	0	41	0	3477078016	46	6534
2026-01-23 04:40:03.53	326.93	8.18	-37.2	-38.0	23.4	0.00e+00	0	41	0	3482320896	46	6423
2026-01-23 04:40:04.55	327.05	8.12	-37.7	-38.4	22.9	0.00e+00	0	41	0	3488612352	46	6765
2026-01-23 04:40:05.56	327.17	8.06	-37.2	-38.0	23.4	0.00e+00	0	41	0	3493855232	46	6410
2026-01-23 04:40:06.57	327.29	8.01	-37.6	-38.4	23.1	0.00e+00	0	41	0	3500146688	46	6721
2026-01-23 04:40:07.58	327.40	7.95	-37.3	-38.0	23.3	0.00e+00	0	41	0	3505389568	46	6398
2026-01-23 04:40:08.59	327.52	7.89	-37.1	-37.9	23.4	0.00e+00	0	41	0	3511681024	46	6376
2026-01-23 04:40:09.60	327.63	7.83	-37.3	-37.9	23.3	0.00e+00	0	41	0	3516923904	46	6380
2026-01-23 04:40:10.61	327.75	7.77	-37.2	-38.1	23.3	0.00e+00	0	41	0	3523215360	46	6468
2026-01-23 04:40:11.62	327.86	7.72	-37.3	-38.1	23.3	0.00e+00	0	41	0	3528458240	46	6485
2026-01-23 04:40:12.63	327.98	7.66	-37.2	-37.9	23.2	0.00e+00	0	41	0	3533701120	46	6359
2026-01-23 04:40:13.64	328.09	7.60	-37.4	-38.1	23.0	0.00e+00	0	41	0	3539992576	46	6496
2026-01-23 04:40:14.65	328.20	7.54	-37.2	-37.9	23.2	0.00e+00	0	41	0	3545235456	46	6334
2026-01-23 04:40:15.66	328.32	7.48	-37.2	-37.9	23.3	0.00e+00	0	41	0	3551526912	46	6326
2026-01-23 04:40:16.67	328.43	7.43	-37.2	-38.0	23.1	0.00e+00	0	41	0	3556769792	46	6428
2026-01-23 04:40:17.68	328.54	7.37	-37.4	-38.1	23.1	0.00e+00	0	41	0	3562012672	46	6484
2026-01-23 04:40:18.69	328.65	7.31	-37.8	-38.6	22.6	0.00e+00	0	41	0	3568304128	46	6920
2026-01-23 04:40:19.70	328.76	7.25	-37.3	-38.0	23.0	0.00e+00	0	41	0	3573547008	48	5726
2026-01-23 04:40:20.71	328.88	7.19	-37.6	-38.5	22.8	0.00e+00	0	41	0	3579838464	48	6040
2026-01-23 04:40:21.72	328.99	7.14	-37.7	-38.5	22.6	0.00e+00	0	41	0	3585081344	48	6036
