passes_logs/2026/01/23/R4.6S_Anadyr/R4.6S_Anadyr__20260123_135429_SUOMI_NPP_rec.log

#Pass ID: 20260123_135429_SUOMI NPP
#Satellite: SUOMI NPP
#Configuration: NPP
#almurnet v.1.7.20251203
#Start time: 2026-01-23 13:54:30

#Version: 2.2.20231116
#Station: R4.6S_Anadyr
#Location: 177.4865 lon 64.73178 lat
#TLE: 1 37849U 11061A   26022.50498765  .00000208  00000+0  11976-3 0  9992
#TLE: 2 37849  98.7820 324.4892 0002275  50.8149 309.3229 14.19528284737775

#Time	Az	El	Level	Level2	SNR	BER	BlckErr	Temp	State	Recorded	gain1	gain2
2026-01-23 13:54:30.84	19.20	0.06	-51.0	-63.5	3.4	1.52e+00	0	38	0	0	60	52649
2026-01-23 13:54:31.85	19.24	0.12	-51.0	-66.1	3.6	1.51e+00	0	39	104	0	60	73360
2026-01-23 13:54:32.86	19.27	0.18	-51.0	-66.2	3.6	1.51e+00	0	39	104	0	60	73502
2026-01-23 13:54:33.87	19.30	0.24	-51.0	-66.2	3.6	1.51e+00	0	39	104	0	60	73520
2026-01-23 13:54:34.88	19.33	0.30	-51.0	-66.1	3.6	1.51e+00	0	39	104	0	60	73339
2026-01-23 13:54:35.89	19.36	0.36	-51.0	-66.2	3.6	1.51e+00	0	39	104	0	60	73961
2026-01-23 13:54:36.90	19.39	0.42	-51.0	-66.2	3.6	1.51e+00	0	39	104	0	60	73940
2026-01-23 13:54:37.91	19.43	0.48	-51.0	-66.2	3.6	1.51e+00	0	39	104	0	60	73804
2026-01-23 13:54:38.92	19.46	0.53	-51.0	-66.3	3.6	1.51e+00	0	39	104	0	60	74529
2026-01-23 13:54:39.93	19.49	0.59	-51.0	-66.3	3.6	1.51e+00	0	39	104	0	60	74498
2026-01-23 13:54:40.94	19.52	0.65	-51.1	-66.3	3.6	1.51e+00	0	39	104	0	60	74400
2026-01-23 13:54:41.95	19.55	0.71	-51.0	-66.3	3.6	1.51e+00	0	39	104	0	60	74538
2026-01-23 13:54:42.96	19.59	0.77	-51.0	-66.2	3.6	1.51e+00	0	40	104	0	60	74069
2026-01-23 13:54:43.97	19.62	0.83	-51.0	-66.2	3.5	1.51e+00	0	40	104	0	60	73636
2026-01-23 13:54:44.98	19.65	0.89	-50.9	-66.2	3.6	1.51e+00	0	39	104	0	60	73451
2026-01-23 13:54:45.99	19.68	0.95	-50.9	-66.1	3.6	1.51e+00	0	40	104	0	60	73018
2026-01-23 13:54:47.00	19.72	1.01	-50.8	-66.1	3.6	1.51e+00	0	40	104	0	60	72645
2026-01-23 13:54:48.01	19.75	1.07	-50.7	-65.9	3.6	1.51e+00	0	39	104	0	60	71407
2026-01-23 13:54:49.02	19.78	1.13	-50.6	-65.8	3.6	1.51e+00	0	40	104	0	60	70852
2026-01-23 13:54:50.03	19.82	1.20	-50.5	-65.7	3.6	1.51e+00	0	40	104	0	60	69490
2026-01-23 13:54:51.04	19.85	1.26	-50.4	-65.6	3.6	1.51e+00	0	40	104	0	60	68844
2026-01-23 13:54:52.05	19.88	1.32	-50.3	-65.5	3.6	1.51e+00	0	40	104	0	60	67913
2026-01-23 13:54:53.06	19.92	1.38	-50.2	-65.3	3.6	1.51e+00	0	40	104	0	60	66776
2026-01-23 13:54:54.07	19.95	1.44	-50.0	-65.2	3.6	1.51e+00	0	40	104	0	60	65963
2026-01-23 13:54:55.08	19.98	1.50	-49.8	-65.0	3.6	1.51e+00	0	40	104	0	60	64113
2026-01-23 13:54:56.09	20.02	1.56	-49.6	-64.8	3.6	1.51e+00	0	40	104	0	60	62677
2026-01-23 13:54:57.10	20.05	1.62	-49.6	-64.8	3.6	1.51e+00	0	40	104	0	60	62480
2026-01-23 13:54:58.11	20.09	1.68	-49.6	-64.7	3.6	1.51e+00	0	40	104	0	60	62360
2026-01-23 13:54:59.11	20.12	1.75	-49.6	-64.8	3.6	1.51e+00	0	40	104	0	60	62486
2026-01-23 13:55:00.12	20.15	1.81	-49.6	-64.8	3.6	1.51e+00	0	40	104	0	60	62642
2026-01-23 13:55:01.13	20.19	1.87	-49.6	-64.8	3.6	1.51e+00	0	40	104	0	60	62550
2026-01-23 13:55:02.14	20.22	1.93	-49.6	-64.7	3.6	1.51e+00	0	40	104	0	60	62262
2026-01-23 13:55:03.15	20.26	1.99	-49.6	-64.8	3.6	1.51e+00	0	40	104	0	60	62763
2026-01-23 13:55:04.16	20.29	2.06	-49.6	-64.7	3.6	1.51e+00	0	40	104	0	60	62314
2026-01-23 13:55:05.18	20.33	2.12	-49.6	-64.8	3.6	1.51e+00	0	40	104	0	60	62797
2026-01-23 13:55:06.19	20.36	2.18	-49.6	-64.6	3.6	1.51e+00	0	40	104	0	60	61421
2026-01-23 13:55:07.20	20.40	2.24	-49.5	-64.3	3.6	1.51e+00	0	40	104	0	60	58997
2026-01-23 13:55:08.21	20.43	2.31	-49.5	-63.7	3.6	1.51e+00	0	40	104	0	60	55418
2026-01-23 13:55:09.22	20.47	2.37	-49.5	-63.3	3.6	1.51e+00	0	40	104	0	60	52715
2026-01-23 13:55:10.23	20.51	2.43	-49.5	-63.3	3.6	1.51e+00	0	40	104	0	60	52703
2026-01-23 13:55:11.24	20.54	2.50	-49.5	-63.2	3.6	1.51e+00	0	40	104	0	60	51969
2026-01-23 13:55:12.25	20.58	2.56	-49.5	-63.1	3.6	1.51e+00	0	40	104	0	60	51924
2026-01-23 13:55:13.26	20.61	2.62	-49.5	-63.3	3.6	1.51e+00	0	40	104	0	60	53150
2026-01-23 13:55:14.27	20.65	2.69	-49.4	-62.5	3.7	1.51e+00	0	40	104	0	60	48467
2026-01-23 13:55:15.28	20.69	2.75	-49.2	-58.1	4.9	1.04e+00	0	40	0	0	60	29211
2026-01-23 13:55:16.29	20.72	2.82	-48.9	-56.0	6.8	3.53e-01	0	40	0	2097152	60	22808
2026-01-23 13:55:17.30	20.76	2.88	-48.2	-53.6	9.7	5.73e-02	0	40	0	4194304	60	17224
2026-01-23 13:55:18.31	20.80	2.94	-47.8	-52.5	11.1	3.54e-03	40	40	0	5242880	60	15183
2026-01-23 13:55:19.32	20.83	3.01	-47.0	-50.7	13.1	2.21e-04	0	40	0	7340032	60	12402
2026-01-23 13:55:20.33	20.87	3.07	-46.6	-49.9	13.6	2.05e-05	79	40	0	9437184	60	11331
2026-01-23 13:55:21.34	20.91	3.14	-45.9	-48.6	15.1	3.80e-06	0	40	0	11534336	60	9777
2026-01-23 13:55:22.35	20.94	3.20	-46.1	-49.0	14.5	7.00e-07	63	40	0	12582912	60	10216
2026-01-23 13:55:23.36	20.98	3.27	-46.3	-49.4	14.1	0.00e+00	0	40	0	14680064	60	10712
2026-01-23 13:55:24.37	21.02	3.33	-46.0	-48.9	14.7	7.00e-07	0	40	0	16777216	60	10065
2026-01-23 13:55:25.38	21.06	3.40	-46.7	-50.1	13.5	1.37e-05	7	40	0	18874368	60	11605
2026-01-23 13:55:26.39	21.09	3.46	-47.5	-51.9	11.5	6.56e-05	0	40	0	20971520	60	14277
2026-01-23 13:55:27.40	21.13	3.53	-48.0	-53.2	10.1	1.53e-03	92	40	0	23068672	60	16451
2026-01-23 13:55:28.41	21.17	3.59	-48.6	-55.1	7.7	3.74e-02	0	40	0	24117248	60	20593
2026-01-23 13:55:29.42	21.21	3.66	-48.3	-53.6	10.1	2.59e-01	0	40	0	26214400	60	17214
2026-01-23 13:55:30.43	21.25	3.73	-47.1	-50.9	12.2	6.10e-06	0	40	0	28311552	60	12612
2026-01-23 13:55:31.44	21.29	3.79	-48.8	-56.3	7.3	1.43e+00	2	40	104	29360128	60	23718
2026-01-23 13:55:32.45	21.33	3.86	-49.5	-61.0	4.1	1.51e+00	0	40	104	29360128	60	40372
2026-01-23 13:55:33.46	21.36	3.93	-47.4	-51.6	6.8	1.37e+00	0	40	104	29360128	60	13745
2026-01-23 13:55:34.47	21.40	3.99	-49.6	-64.3	3.7	1.51e+00	0	40	104	29360128	60	59518
2026-01-23 13:55:35.48	21.44	4.06	-46.2	-49.2	14.7	0.00e+00	0	40	104	29360128	60	10374
2026-01-23 13:55:36.49	21.48	4.13	-45.4	-47.7	15.9	0.00e+00	68	40	0	30408704	60	8812
2026-01-23 13:55:37.50	21.52	4.19	-45.6	-48.1	15.7	0.00e+00	0	40	0	32505856	60	9185
2026-01-23 13:55:38.51	21.56	4.26	-44.9	-47.0	16.8	0.00e+00	0	40	0	34603008	60	8114
2026-01-23 13:55:39.52	21.60	4.33	-45.1	-47.4	16.5	0.00e+00	0	40	0	36700160	60	8495
2026-01-23 13:55:40.53	21.64	4.39	-44.1	-46.0	17.7	0.00e+00	0	40	0	37748736	60	7221
2026-01-23 13:55:41.54	21.68	4.46	-44.2	-46.0	17.8	0.00e+00	45	40	0	39845888	60	7251
2026-01-23 13:55:42.55	21.72	4.53	-43.8	-45.6	18.3	0.00e+00	0	40	0	41943040	60	6863
2026-01-23 13:55:43.55	21.76	4.60	-43.5	-45.1	18.8	0.00e+00	92	40	0	44040192	60	6511
2026-01-23 13:55:44.57	21.80	4.67	-43.6	-45.3	18.6	0.00e+00	0	40	0	46137344	60	6677
2026-01-23 13:55:45.57	21.84	4.73	-43.5	-45.2	18.6	0.00e+00	0	40	0	48234496	60	6550
2026-01-23 13:55:46.59	21.89	4.80	-43.6	-45.2	18.6	0.00e+00	0	40	0	49283072	60	6601
2026-01-23 13:55:47.59	21.93	4.87	-43.5	-45.1	18.8	0.00e+00	0	40	0	51380224	60	6512
2026-01-23 13:55:48.61	21.97	4.94	-43.5	-45.2	18.7	0.00e+00	43	40	0	53477376	60	6578
2026-01-23 13:55:49.61	22.01	5.01	-43.2	-44.7	19.0	0.00e+00	0	40	0	55574528	60	6231
2026-01-23 13:55:50.62	22.05	5.08	-43.4	-45.1	18.8	0.00e+00	92	40	0	57671680	60	6466
2026-01-23 13:55:51.63	22.09	5.15	-43.0	-44.5	19.4	0.00e+00	0	40	0	58720256	60	6035
2026-01-23 13:55:52.64	22.13	5.22	-43.3	-44.9	18.8	0.00e+00	0	40	0	60817408	60	6333
2026-01-23 13:55:53.65	22.18	5.29	-43.2	-44.8	19.2	0.00e+00	0	40	0	62914560	60	6250
2026-01-23 13:55:54.66	22.22	5.36	-43.5	-45.1	18.9	0.00e+00	0	40	0	65011712	60	6529
2026-01-23 13:55:55.67	22.26	5.43	-43.3	-44.8	19.1	0.00e+00	33	40	0	67108864	60	6304
2026-01-23 13:55:56.68	22.30	5.50	-43.4	-44.9	19.1	0.00e+00	0	40	0	68157440	60	6367
2026-01-23 13:55:57.69	22.35	5.57	-43.0	-44.6	19.2	0.00e+00	90	40	0	70254592	60	6106
2026-01-23 13:55:58.70	22.39	5.64	-43.0	-44.4	19.5	0.00e+00	0	40	0	72351744	60	6010
2026-01-23 13:55:59.71	22.43	5.71	-43.2	-44.7	19.2	0.00e+00	0	40	0	74448896	60	6226
2026-01-23 13:56:00.72	22.48	5.78	-43.0	-44.5	19.5	0.00e+00	0	40	0	76546048	60	6035
2026-01-23 13:56:01.74	22.52	5.85	-43.4	-45.0	19.1	0.00e+00	0	40	0	77594624	60	6414
2026-01-23 13:56:02.74	22.57	5.92	-43.0	-44.5	19.5	0.00e+00	40	40	0	79691776	60	6073
2026-01-23 13:56:03.75	22.61	5.99	-43.1	-44.5	19.5	0.00e+00	0	40	0	81788928	60	6097
2026-01-23 13:56:04.76	22.65	6.07	-43.1	-44.6	19.4	0.00e+00	91	40	0	83886080	60	6111
2026-01-23 13:56:05.77	22.70	6.14	-43.1	-44.6	19.3	0.00e+00	0	40	0	85983232	60	6123
2026-01-23 13:56:06.78	22.74	6.21	-43.0	-44.5	19.5	0.00e+00	38	40	0	87031808	60	6049
2026-01-23 13:56:07.79	22.79	6.28	-42.9	-44.4	19.6	0.00e+00	0	40	0	89128960	60	5975
2026-01-23 13:56:08.79	22.83	6.35	-43.1	-44.6	19.5	0.00e+00	0	40	0	91226112	60	6105
2026-01-23 13:56:09.80	22.88	6.43	-42.9	-44.4	19.5	0.00e+00	0	40	0	93323264	58	6734
2026-01-23 13:56:10.81	22.92	6.50	-42.9	-44.4	19.5	0.00e+00	0	40	0	95420416	58	6718
2026-01-23 13:56:11.82	22.97	6.57	-42.9	-44.3	19.7	0.00e+00	44	40	0	96468992	58	6658
2026-01-23 13:56:12.83	23.02	6.65	-43.0	-44.5	19.3	0.00e+00	0	40	0	98566144	58	6832
2026-01-23 13:56:13.84	23.06	6.72	-43.2	-44.7	19.4	0.00e+00	92	40	0	100663296	58	6939
2026-01-23 13:56:14.85	23.11	6.79	-42.9	-44.4	19.5	0.00e+00	0	40	0	102760448	58	6724
2026-01-23 13:56:15.86	23.15	6.87	-43.0	-44.5	19.4	0.00e+00	0	40	0	104857600	58	6806
2026-01-23 13:56:16.87	23.20	6.94	-42.6	-44.0	20.0	0.00e+00	0	40	0	105906176	58	6449
2026-01-23 13:56:17.89	23.25	7.02	-42.9	-44.3	19.8	0.00e+00	0	40	0	108003328	58	6647
2026-01-23 13:56:18.90	23.30	7.09	-43.1	-44.6	19.5	0.00e+00	44	40	0	110100480	58	6864
2026-01-23 13:56:19.91	23.34	7.16	-42.9	-44.3	19.6	0.00e+00	0	40	0	112197632	58	6685
2026-01-23 13:56:20.92	23.39	7.24	-42.9	-44.4	19.5	0.00e+00	78	40	0	114294784	58	6704
2026-01-23 13:56:21.93	23.44	7.31	-43.1	-44.5	19.5	0.00e+00	0	40	0	116391936	58	6843
2026-01-23 13:56:22.94	23.49	7.39	-43.0	-44.5	19.6	0.00e+00	33	40	0	117440512	58	6800
2026-01-23 13:56:23.95	23.54	7.47	-43.5	-45.0	19.2	0.00e+00	0	40	0	119537664	58	7230
2026-01-23 13:56:24.95	23.58	7.54	-43.2	-44.7	19.4	0.00e+00	0	40	0	121634816	58	6960
2026-01-23 13:56:25.97	23.63	7.62	-43.4	-45.0	19.2	0.00e+00	43	40	0	123731968	58	7240
2026-01-23 13:56:26.98	23.68	7.69	-42.8	-44.2	19.8	0.00e+00	0	40	0	125829120	58	6562
2026-01-23 13:56:27.99	23.73	7.77	-42.9	-44.3	19.8	0.00e+00	81	40	0	126877696	58	6692
2026-01-23 13:56:28.99	23.78	7.84	-42.7	-44.1	19.8	0.00e+00	0	41	0	128974848	58	6520
2026-01-23 13:56:30.00	23.83	7.92	-42.6	-44.0	20.0	0.00e+00	0	40	0	131072000	58	6441
2026-01-23 13:56:31.01	23.88	8.00	-42.9	-44.3	19.9	0.00e+00	0	40	0	133169152	58	6666
2026-01-23 13:56:32.02	23.93	8.08	-42.3	-43.6	20.4	0.00e+00	0	40	0	135266304	58	6166
2026-01-23 13:56:33.03	23.98	8.15	-42.3	-43.7	20.4	0.00e+00	19	40	0	136314880	58	6180
2026-01-23 13:56:34.04	24.03	8.23	-42.6	-44.0	20.1	0.00e+00	0	40	0	138412032	58	6412
2026-01-23 13:56:35.05	24.08	8.31	-42.4	-43.7	20.3	0.00e+00	92	40	0	140509184	58	6234
2026-01-23 13:56:36.06	24.13	8.39	-42.5	-43.8	20.3	0.00e+00	0	40	0	142606336	58	6280
2026-01-23 13:56:37.07	24.18	8.46	-42.2	-43.5	20.5	0.00e+00	0	40	0	144703488	58	6062
2026-01-23 13:56:38.08	24.24	8.54	-42.2	-43.5	20.6	0.00e+00	0	40	0	145752064	58	6053
2026-01-23 13:56:39.08	24.29	8.62	-42.4	-43.7	20.3	0.00e+00	0	40	0	147849216	58	6219
2026-01-23 13:56:40.09	24.34	8.70	-42.1	-43.4	20.8	0.00e+00	0	40	0	149946368	58	5980
2026-01-23 13:56:41.10	24.39	8.78	-42.1	-43.3	20.7	0.00e+00	0	40	0	152043520	58	5960
2026-01-23 13:56:42.11	24.44	8.86	-42.0	-43.3	20.9	0.00e+00	92	40	0	154140672	58	5898
2026-01-23 13:56:43.12	24.50	8.94	-41.9	-43.1	20.9	0.00e+00	0	40	0	155189248	58	5793
2026-01-23 13:56:44.13	24.55	9.02	-42.0	-43.3	20.7	0.00e+00	90	40	0	157286400	58	5905
2026-01-23 13:56:45.14	24.60	9.10	-41.8	-43.1	20.9	0.00e+00	0	40	0	159383552	58	5762
2026-01-23 13:56:46.15	24.66	9.18	-41.8	-43.0	21.1	0.00e+00	0	40	0	161480704	56	6411
2026-01-23 13:56:47.16	24.71	9.26	-41.9	-43.1	21.0	0.00e+00	0	40	0	163577856	56	6478
2026-01-23 13:56:48.17	24.77	9.34	-41.8	-43.0	21.1	0.00e+00	0	40	0	164626432	56	6404
2026-01-23 13:56:49.18	24.82	9.42	-41.6	-42.8	21.3	0.00e+00	91	40	0	166723584	56	6253
2026-01-23 13:56:50.19	24.88	9.50	-41.7	-42.9	21.2	0.00e+00	33	40	0	168820736	56	6348
2026-01-23 13:56:51.20	24.93	9.58	-41.8	-42.9	21.1	0.00e+00	91	40	0	170917888	56	6388
2026-01-23 13:56:52.20	24.99	9.66	-41.6	-42.8	21.2	0.00e+00	0	40	0	173015040	56	6251
2026-01-23 13:56:53.21	25.04	9.75	-41.5	-42.6	21.5	0.00e+00	0	40	0	174063616	56	6136
2026-01-23 13:56:54.22	25.10	9.83	-41.6	-42.8	21.3	0.00e+00	0	40	0	176160768	56	6264
2026-01-23 13:56:55.23	25.15	9.91	-41.7	-42.8	21.2	0.00e+00	0	40	0	178257920	56	6315
2026-01-23 13:56:56.24	25.21	9.99	-41.5	-42.7	21.4	0.00e+00	45	40	0	180355072	56	6201
2026-01-23 13:56:57.25	25.27	10.08	-41.6	-42.8	21.3	0.00e+00	0	40	0	182452224	56	6280
2026-01-23 13:56:58.26	25.32	10.16	-41.7	-42.9	21.2	0.00e+00	84	41	0	184549376	56	6346
2026-01-23 13:56:59.27	25.38	10.24	-41.7	-42.8	21.3	0.00e+00	0	41	0	185597952	56	6304
2026-01-23 13:57:00.28	25.44	10.33	-41.7	-42.9	21.2	0.00e+00	0	41	0	187695104	56	6345
2026-01-23 13:57:01.29	25.50	10.41	-41.7	-42.9	21.2	0.00e+00	0	41	0	189792256	56	6367
2026-01-23 13:57:02.30	25.56	10.50	-41.6	-42.8	21.3	0.00e+00	0	41	0	191889408	56	6261
2026-01-23 13:57:03.31	25.61	10.58	-41.6	-42.8	21.4	0.00e+00	19	40	0	193986560	56	6264
2026-01-23 13:57:04.32	25.67	10.67	-41.5	-42.7	21.4	0.00e+00	0	41	0	195035136	56	6209
2026-01-23 13:57:05.33	25.73	10.75	-41.6	-42.7	21.4	0.00e+00	92	41	0	197132288	56	6243
2026-01-23 13:57:06.34	25.79	10.84	-41.7	-42.8	21.2	0.00e+00	0	41	0	199229440	56	6311
2026-01-23 13:57:07.35	25.85	10.92	-41.6	-42.8	21.3	0.00e+00	0	41	0	201326592	56	6247
2026-01-23 13:57:08.36	25.91	11.01	-41.4	-42.6	21.5	0.00e+00	0	41	0	203423744	56	6112
2026-01-23 13:57:09.37	25.97	11.10	-41.3	-42.4	21.7	0.00e+00	0	41	0	204472320	56	6000
2026-01-23 13:57:10.38	26.03	11.18	-41.2	-42.3	21.8	0.00e+00	45	41	0	206569472	56	5931
2026-01-23 13:57:11.39	26.09	11.27	-41.1	-42.2	21.9	0.00e+00	0	40	0	208666624	56	5853
2026-01-23 13:57:12.39	26.16	11.36	-41.4	-42.5	21.6	0.00e+00	43	41	0	210763776	56	6067
2026-01-23 13:57:13.41	26.22	11.44	-41.3	-42.4	21.8	0.00e+00	0	41	0	212860928	56	6013
2026-01-23 13:57:14.42	26.28	11.53	-41.2	-42.3	21.8	0.00e+00	0	41	0	213909504	56	5918
2026-01-23 13:57:15.43	26.34	11.62	-41.0	-42.1	21.9	0.00e+00	0	41	0	216006656	56	5800
2026-01-23 13:57:16.44	26.41	11.71	-41.0	-42.1	21.9	0.00e+00	0	41	0	218103808	56	5770
2026-01-23 13:57:17.45	26.47	11.80	-40.9	-42.0	22.0	0.00e+00	0	41	0	220200960	56	5713
2026-01-23 13:57:18.46	26.53	11.88	-41.1	-42.1	21.9	0.00e+00	0	41	0	222298112	56	5824
2026-01-23 13:57:19.46	26.60	11.97	-41.2	-42.3	21.7	0.00e+00	37	41	0	223346688	56	5932
2026-01-23 13:57:20.47	26.66	12.06	-40.8	-41.9	22.1	0.00e+00	0	41	0	225443840	56	5652
2026-01-23 13:57:21.48	26.73	12.15	-40.9	-42.0	22.1	0.00e+00	73	41	0	227540992	56	5707
2026-01-23 13:57:22.49	26.79	12.24	-40.5	-41.5	22.4	0.00e+00	0	41	0	229638144	54	6087
2026-01-23 13:57:23.50	26.86	12.33	-40.5	-41.6	22.3	0.00e+00	0	40	0	231735296	54	6111
2026-01-23 13:57:24.51	26.92	12.42	-40.3	-41.3	22.6	0.00e+00	17	41	0	232783872	54	5947
2026-01-23 13:57:25.52	26.99	12.51	-40.4	-41.4	22.5	0.00e+00	0	41	0	234881024	54	6012
2026-01-23 13:57:26.53	27.05	12.61	-40.4	-41.3	22.6	0.00e+00	38	41	0	236978176	54	5962
2026-01-23 13:57:27.54	27.12	12.70	-40.4	-41.4	22.5	0.00e+00	0	40	0	239075328	54	5972
2026-01-23 13:57:28.55	27.19	12.79	-40.3	-41.3	22.6	0.00e+00	90	40	0	241172480	54	5910
2026-01-23 13:57:29.56	27.26	12.88	-40.5	-41.5	22.6	0.00e+00	0	41	0	242221056	54	6084
2026-01-23 13:57:30.57	27.33	12.97	-40.2	-41.2	22.6	0.00e+00	0	40	0	244318208	54	5882
2026-01-23 13:57:31.58	27.39	13.07	-40.1	-41.1	22.8	0.00e+00	0	41	0	246415360	54	5813
2026-01-23 13:57:32.59	27.46	13.16	-40.4	-41.4	22.5	0.00e+00	0	41	0	248512512	54	6027
2026-01-23 13:57:33.60	27.53	13.25	-40.3	-41.3	22.6	0.00e+00	43	41	0	250609664	54	5904
2026-01-23 13:57:34.61	27.60	13.35	-40.2	-41.2	22.7	0.00e+00	0	41	0	252706816	54	5887
2026-01-23 13:57:35.62	27.67	13.44	-40.1	-41.1	22.8	0.00e+00	87	41	0	253755392	54	5799
2026-01-23 13:57:36.62	27.74	13.54	-40.2	-41.1	22.6	0.00e+00	0	41	0	255852544	54	5821
2026-01-23 13:57:37.64	27.81	13.63	-40.1	-41.1	22.8	0.00e+00	0	41	0	257949696	54	5799
2026-01-23 13:57:38.65	27.89	13.73	-39.9	-40.8	23.0	0.00e+00	0	41	0	260046848	54	5628
2026-01-23 13:57:39.66	27.96	13.82	-39.8	-40.8	23.0	0.00e+00	0	41	0	262144000	54	5595
2026-01-23 13:57:40.66	28.03	13.92	-39.8	-40.8	23.1	0.00e+00	44	41	0	263192576	54	5576
2026-01-23 13:57:41.67	28.10	14.01	-39.9	-40.8	23.0	0.00e+00	0	41	0	265289728	54	5610
2026-01-23 13:57:42.68	28.18	14.11	-39.8	-40.8	23.1	0.00e+00	87	40	0	267386880	54	5573
2026-01-23 13:57:43.69	28.25	14.21	-39.8	-40.8	23.1	0.00e+00	0	41	0	269484032	54	5581
2026-01-23 13:57:44.70	28.32	14.30	-39.8	-40.8	23.1	0.00e+00	0	41	0	270532608	54	5587
2026-01-23 13:57:45.71	28.40	14.40	-39.8	-40.8	23.1	0.00e+00	0	41	0	272629760	52	6248
2026-01-23 13:57:46.72	28.47	14.50	-39.8	-40.8	23.1	0.00e+00	0	40	0	274726912	52	6248
2026-01-23 13:57:47.73	28.55	14.60	-39.7	-40.7	23.2	0.00e+00	0	40	0	276824064	52	6178
2026-01-23 13:57:48.74	28.62	14.70	-39.7	-40.6	23.2	0.00e+00	0	41	0	278921216	52	6150
2026-01-23 13:57:49.75	28.70	14.80	-39.8	-40.7	23.2	0.00e+00	92	41	0	281018368	52	6215
2026-01-23 13:57:50.76	28.78	14.89	-39.8	-40.7	23.2	0.00e+00	0	41	0	282066944	52	6223
2026-01-23 13:57:51.76	28.85	14.99	-39.8	-40.7	23.2	0.00e+00	61	41	0	284164096	52	6244
2026-01-23 13:57:52.77	28.93	15.09	-39.5	-40.5	23.2	0.00e+00	0	40	0	286261248	52	6036
2026-01-23 13:57:53.78	29.01	15.19	-39.7	-40.6	23.2	0.00e+00	0	41	0	288358400	52	6152
2026-01-23 13:57:54.79	29.09	15.30	-39.6	-40.5	23.3	0.00e+00	0	41	0	290455552	52	6058
2026-01-23 13:57:55.80	29.17	15.40	-39.6	-40.5	23.5	0.00e+00	0	41	0	291504128	52	6053
2026-01-23 13:57:56.81	29.25	15.50	-39.7	-40.6	23.3	0.00e+00	92	41	0	293601280	52	6124
2026-01-23 13:57:57.82	29.33	15.60	-39.6	-40.5	23.4	0.00e+00	0	40	0	295698432	52	6041
2026-01-23 13:57:58.83	29.41	15.70	-39.5	-40.4	23.3	0.00e+00	92	41	0	297795584	52	5967
2026-01-23 13:57:59.84	29.49	15.80	-39.4	-40.3	23.5	0.00e+00	0	41	0	299892736	52	5952
2026-01-23 13:58:00.85	29.57	15.91	-39.5	-40.4	23.3	0.00e+00	0	41	0	300941312	52	6025
2026-01-23 13:58:01.87	29.66	16.01	-39.4	-40.3	23.5	0.00e+00	0	41	0	303038464	52	5935
2026-01-23 13:58:02.87	29.74	16.12	-39.4	-40.3	23.5	0.00e+00	0	41	0	305135616	52	5940
2026-01-23 13:58:03.88	29.82	16.22	-39.6	-40.5	23.3	0.00e+00	46	41	0	307232768	52	6044
2026-01-23 13:58:04.89	29.91	16.32	-39.6	-40.5	23.3	0.00e+00	33	41	0	309329920	52	6076
2026-01-23 13:58:05.90	29.99	16.43	-39.5	-40.4	23.4	0.00e+00	47	40	0	310378496	52	6017
2026-01-23 13:58:06.91	30.08	16.53	-39.7	-40.6	23.3	0.00e+00	0	41	0	312475648	52	6140
2026-01-23 13:58:07.92	30.16	16.64	-39.7	-40.6	23.2	0.00e+00	0	41	0	314572800	52	6173
2026-01-23 13:58:08.93	30.25	16.75	-39.7	-40.6	23.3	0.00e+00	0	40	0	316669952	52	6164
2026-01-23 13:58:09.94	30.34	16.85	-39.8	-40.7	23.2	0.00e+00	0	41	0	318767104	52	6224
2026-01-23 13:58:10.95	30.42	16.96	-40.0	-41.0	23.0	0.00e+00	49	40	0	319815680	52	6421
2026-01-23 13:58:11.96	30.51	17.07	-39.8	-40.7	23.2	0.00e+00	0	40	0	321912832	52	6226
2026-01-23 13:58:12.97	30.60	17.18	-40.2	-41.2	22.9	0.00e+00	87	41	0	324009984	52	6547
2026-01-23 13:58:13.98	30.69	17.28	-39.8	-40.8	23.1	0.00e+00	0	41	0	326107136	52	6259
2026-01-23 13:58:14.98	30.78	17.39	-39.9	-40.8	23.2	0.00e+00	0	41	0	328204288	52	6309
2026-01-23 13:58:15.99	30.87	17.50	-40.0	-41.0	23.1	0.00e+00	0	41	0	329252864	52	6407
2026-01-23 13:58:17.00	30.96	17.61	-39.9	-40.8	22.9	0.00e+00	0	41	0	331350016	52	6295
2026-01-23 13:58:18.01	31.05	17.72	-40.0	-40.9	23.0	0.00e+00	28	41	0	333447168	52	6390
2026-01-23 13:58:19.02	31.15	17.83	-40.4	-41.4	22.8	0.00e+00	0	41	0	335544320	52	6750
2026-01-23 13:58:20.03	31.24	17.94	-40.0	-40.9	23.0	0.00e+00	40	41	0	337641472	52	6379
2026-01-23 13:58:21.04	31.33	18.05	-40.1	-41.0	23.1	0.00e+00	0	41	0	338690048	52	6454
2026-01-23 13:58:22.05	31.43	18.17	-39.9	-40.9	23.1	0.00e+00	48	41	0	340787200	52	6342
2026-01-23 13:58:23.06	31.52	18.28	-39.8	-40.8	23.2	0.00e+00	0	41	0	342884352	52	6264
2026-01-23 13:58:24.07	31.62	18.39	-40.0	-41.0	23.1	0.00e+00	0	41	0	344981504	52	6423
2026-01-23 13:58:25.08	31.72	18.50	-40.3	-41.3	22.8	0.00e+00	27	40	0	347078656	52	6636
2026-01-23 13:58:26.09	31.81	18.62	-40.3	-41.3	22.8	0.00e+00	0	41	0	349175808	52	6649
2026-01-23 13:58:27.10	31.91	18.73	-40.2	-41.2	22.8	0.00e+00	92	41	0	350224384	52	6540
2026-01-23 13:58:28.10	32.01	18.84	-40.3	-41.2	22.8	0.00e+00	0	41	0	352321536	52	6608
2026-01-23 13:58:29.11	32.11	18.96	-40.4	-41.3	22.9	0.00e+00	27	41	0	354418688	52	6687
2026-01-23 13:58:30.12	32.21	19.07	-40.2	-41.1	22.9	0.00e+00	0	41	0	356515840	52	6522
2026-01-23 13:58:31.13	32.31	19.19	-40.2	-41.2	22.8	0.00e+00	0	41	0	358612992	52	6584
2026-01-23 13:58:32.14	32.41	19.31	-40.1	-41.1	22.9	0.00e+00	0	41	0	359661568	52	6477
2026-01-23 13:58:33.15	32.51	19.42	-40.2	-41.2	22.9	0.00e+00	0	41	0	361758720	52	6581
2026-01-23 13:58:34.16	32.61	19.54	-40.1	-41.1	23.0	0.00e+00	92	41	0	363855872	52	6468
2026-01-23 13:58:35.17	32.72	19.66	-40.1	-41.0	23.0	0.00e+00	0	41	0	365953024	52	6459
2026-01-23 13:58:36.18	32.82	19.78	-40.3	-41.2	22.9	0.00e+00	84	41	0	368050176	52	6595
2026-01-23 13:58:37.20	32.93	19.90	-40.0	-40.9	23.1	0.00e+00	0	40	0	369098752	52	6390
2026-01-23 13:58:38.21	33.03	20.02	-40.3	-41.3	22.9	0.00e+00	0	41	0	371195904	52	6659
2026-01-23 13:58:39.21	33.14	20.13	-40.1	-41.0	23.0	0.00e+00	0	41	0	373293056	52	6435
2026-01-23 13:58:40.22	33.25	20.25	-40.6	-41.6	22.6	0.00e+00	0	41	0	375390208	52	6882
2026-01-23 13:58:41.23	33.36	20.37	-40.5	-41.5	22.6	0.00e+00	48	41	0	377487360	52	6802
2026-01-23 13:58:42.24	33.47	20.50	-40.6	-41.6	22.6	0.00e+00	0	41	0	378535936	54	6143
2026-01-23 13:58:43.25	33.58	20.62	-40.9	-42.0	22.4	0.00e+00	48	41	0	380633088	54	6403
2026-01-23 13:58:44.26	33.69	20.74	-40.9	-42.0	22.5	0.00e+00	0	41	0	382730240	54	6413
2026-01-23 13:58:45.27	33.80	20.86	-41.1	-42.1	22.3	0.00e+00	0	41	0	384827392	54	6539
2026-01-23 13:58:46.28	33.91	20.98	-41.0	-42.0	22.2	0.00e+00	0	41	0	386924544	54	6433
2026-01-23 13:58:47.29	34.02	21.11	-40.8	-41.8	22.5	0.00e+00	0	41	0	387973120	54	6306
2026-01-23 13:58:48.30	34.14	21.23	-40.5	-41.5	22.5	0.00e+00	31	41	0	390070272	54	6071
2026-01-23 13:58:49.31	34.25	21.36	-40.7	-41.7	22.4	0.00e+00	0	41	0	392167424	54	6224
2026-01-23 13:58:50.32	34.37	21.48	-40.9	-41.9	22.3	0.00e+00	57	41	0	394264576	54	6381
2026-01-23 13:58:51.33	34.49	21.61	-40.3	-41.3	22.7	0.00e+00	0	41	0	396361728	54	5925
2026-01-23 13:58:52.34	34.61	21.73	-40.4	-41.4	22.7	0.00e+00	0	41	0	397410304	54	6031
2026-01-23 13:58:53.35	34.72	21.86	-40.2	-41.2	23.0	0.00e+00	0	41	0	399507456	54	5846
2026-01-23 13:58:54.36	34.84	21.99	-40.1	-41.1	22.9	0.00e+00	0	41	0	401604608	54	5785
2026-01-23 13:58:55.37	34.97	22.11	-40.0	-40.9	23.1	0.00e+00	25	41	0	403701760	54	5654
2026-01-23 13:58:56.38	35.09	22.24	-40.0	-40.9	23.2	0.00e+00	0	41	0	405798912	54	5688
2026-01-23 13:58:57.38	35.21	22.37	-40.0	-40.9	23.3	0.00e+00	91	41	0	406847488	54	5653
2026-01-23 13:58:58.39	35.33	22.50	-39.9	-40.8	23.2	0.00e+00	0	41	0	408944640	54	5619
2026-01-23 13:58:59.40	35.46	22.63	-40.1	-41.1	23.1	0.00e+00	85	41	0	411041792	54	5772
2026-01-23 13:59:00.41	35.58	22.76	-40.3	-41.2	23.0	0.00e+00	0	41	0	413138944	54	5867
2026-01-23 13:59:01.42	35.71	22.89	-40.6	-41.5	22.7	0.00e+00	0	41	0	415236096	54	6100
2026-01-23 13:59:02.43	35.84	23.02	-40.6	-41.6	22.7	0.00e+00	0	41	0	417333248	54	6154
2026-01-23 13:59:03.44	35.97	23.15	-40.8	-41.8	22.6	0.00e+00	0	41	0	418381824	54	6267
2026-01-23 13:59:04.45	36.10	23.29	-40.8	-41.8	22.4	0.00e+00	89	41	0	420478976	54	6307
2026-01-23 13:59:05.46	36.23	23.42	-40.9	-41.9	22.3	0.00e+00	0	41	0	422576128	54	6370
2026-01-23 13:59:06.47	36.36	23.55	-41.0	-42.0	22.3	0.00e+00	66	41	0	424673280	54	6415
2026-01-23 13:59:07.48	36.49	23.69	-41.0	-42.1	22.1	0.00e+00	0	41	0	426770432	54	6470
2026-01-23 13:59:08.49	36.63	23.82	-40.9	-41.9	22.5	0.00e+00	0	41	0	427819008	54	6344
2026-01-23 13:59:09.50	36.76	23.95	-40.6	-41.5	22.6	0.00e+00	0	41	0	429916160	54	6103
2026-01-23 13:59:10.51	36.90	24.09	-40.5	-41.5	22.5	0.00e+00	0	41	0	432013312	54	6068
2026-01-23 13:59:11.52	37.03	24.23	-40.9	-41.9	22.5	0.00e+00	70	41	0	434110464	54	6349
2026-01-23 13:59:12.53	37.17	24.36	-40.2	-41.2	23.0	0.00e+00	0	41	0	436207616	54	5843
2026-01-23 13:59:13.53	37.31	24.50	-40.3	-41.3	22.8	0.00e+00	76	41	0	437256192	54	5936
2026-01-23 13:59:14.54	37.45	24.64	-40.6	-41.5	22.7	0.00e+00	0	41	0	439353344	54	6085
2026-01-23 13:59:15.56	37.60	24.78	-40.4	-41.3	22.8	0.00e+00	0	41	0	441450496	54	5961
2026-01-23 13:59:16.57	37.74	24.92	-40.3	-41.3	22.8	0.00e+00	0	41	0	443547648	54	5937
2026-01-23 13:59:17.57	37.88	25.05	-40.4	-41.4	22.8	0.00e+00	0	41	0	445644800	54	5999
2026-01-23 13:59:18.58	38.03	25.19	-40.5	-41.5	22.7	0.00e+00	54	41	0	446693376	54	6060
2026-01-23 13:59:19.59	38.18	25.33	-40.5	-41.5	22.7	0.00e+00	0	41	0	448790528	54	6076
2026-01-23 13:59:20.60	38.33	25.48	-40.9	-41.9	22.4	0.00e+00	92	41	0	450887680	54	6368
2026-01-23 13:59:21.61	38.47	25.62	-41.1	-42.1	22.4	0.00e+00	0	41	0	452984832	54	6504
2026-01-23 13:59:22.62	38.63	25.76	-41.5	-42.6	21.9	0.00e+00	0	41	0	455081984	54	6869
2026-01-23 13:59:23.63	38.78	25.90	-41.7	-42.8	21.6	0.00e+00	0	41	0	456130560	54	7082
2026-01-23 13:59:24.64	38.93	26.05	-41.5	-42.7	21.8	0.00e+00	0	41	0	458227712	56	6175
2026-01-23 13:59:25.65	39.09	26.19	-41.9	-43.1	21.4	0.00e+00	0	41	0	460324864	56	6476
2026-01-23 13:59:26.66	39.24	26.33	-41.9	-43.0	21.6	0.00e+00	0	41	0	462422016	56	6434
2026-01-23 13:59:27.67	39.40	26.48	-41.2	-42.3	22.2	0.00e+00	83	41	0	464519168	56	5934
2026-01-23 13:59:28.68	39.56	26.62	-41.2	-42.2	22.3	0.00e+00	0	41	0	465567744	56	5893
2026-01-23 13:59:29.69	39.72	26.77	-41.2	-42.2	22.3	0.00e+00	39	41	0	467664896	56	5885
2026-01-23 13:59:30.70	39.88	26.92	-41.1	-42.1	22.4	0.00e+00	0	41	0	469762048	56	5805
2026-01-23 13:59:31.71	40.05	27.06	-41.0	-42.0	22.5	0.00e+00	0	41	0	471859200	56	5723
2026-01-23 13:59:32.72	40.21	27.21	-41.1	-42.1	22.2	0.00e+00	47	41	0	473956352	56	5822
2026-01-23 13:59:33.73	40.38	27.36	-41.3	-42.4	22.1	0.00e+00	0	41	0	475004928	56	5996
2026-01-23 13:59:34.74	40.55	27.51	-41.3	-42.3	22.1	0.00e+00	81	41	0	477102080	56	5950
2026-01-23 13:59:35.75	40.72	27.66	-41.2	-42.2	21.8	0.00e+00	0	41	0	479199232	56	5895
2026-01-23 13:59:36.76	40.89	27.81	-41.3	-42.4	21.9	0.00e+00	0	41	0	481296384	56	5973
2026-01-23 13:59:37.77	41.06	27.96	-41.6	-42.7	21.8	0.00e+00	0	41	0	483393536	56	6217
2026-01-23 13:59:38.78	41.24	28.11	-41.4	-42.5	22.0	0.00e+00	0	41	0	485490688	56	6095
2026-01-23 13:59:39.79	41.41	28.26	-41.4	-42.5	22.1	0.00e+00	0	41	0	486539264	56	6055
2026-01-23 13:59:40.80	41.59	28.42	-41.3	-42.4	22.0	0.00e+00	0	41	0	488636416	56	5998
2026-01-23 13:59:41.81	41.77	28.57	-41.2	-42.3	22.2	0.00e+00	70	41	0	490733568	56	5915
2026-01-23 13:59:42.82	41.95	28.72	-41.2	-42.2	22.3	0.00e+00	0	41	0	492830720	56	5882
2026-01-23 13:59:43.83	42.13	28.88	-41.0	-42.1	22.4	0.00e+00	92	41	0	494927872	56	5764
2026-01-23 13:59:44.84	42.32	29.03	-40.9	-41.9	22.5	0.00e+00	0	41	0	495976448	56	5671
2026-01-23 13:59:45.85	42.50	29.19	-41.0	-42.0	22.5	0.00e+00	0	41	0	498073600	56	5715
2026-01-23 13:59:46.86	42.69	29.34	-40.8	-41.8	22.7	0.00e+00	0	41	0	500170752	56	5578
2026-01-23 13:59:47.87	42.88	29.50	-40.9	-41.9	22.4	0.00e+00	0	41	0	502267904	54	6357
2026-01-23 13:59:48.88	43.07	29.65	-41.2	-42.2	22.2	0.00e+00	49	41	0	504365056	54	6615
2026-01-23 13:59:49.89	43.26	29.81	-41.0	-42.0	22.3	0.00e+00	0	41	0	505413632	54	6461
2026-01-23 13:59:50.90	43.46	29.97	-41.0	-42.1	22.3	0.00e+00	58	41	0	507510784	54	6487
2026-01-23 13:59:51.91	43.66	30.13	-41.2	-42.3	22.2	0.00e+00	0	41	0	509607936	54	6623
2026-01-23 13:59:52.91	43.85	30.28	-41.2	-42.2	22.0	0.00e+00	0	41	0	511705088	54	6588
2026-01-23 13:59:53.93	44.06	30.44	-41.3	-42.4	22.3	0.00e+00	0	41	0	513802240	54	6702
2026-01-23 13:59:54.93	44.26	30.60	-41.5	-42.6	21.7	0.00e+00	0	41	0	514850816	54	6894
2026-01-23 13:59:55.94	44.46	30.76	-41.5	-42.5	21.9	0.00e+00	50	41	0	516947968	54	6847
2026-01-23 13:59:56.95	44.67	30.92	-41.5	-42.6	21.8	0.00e+00	0	41	0	519045120	54	6863
2026-01-23 13:59:57.96	44.88	31.09	-42.1	-43.3	21.4	0.00e+00	88	41	0	521142272	56	6621
2026-01-23 13:59:58.97	45.09	31.25	-41.9	-43.0	21.6	0.00e+00	0	41	0	523239424	56	6441
2026-01-23 13:59:59.98	45.30	31.41	-41.9	-43.0	21.6	0.00e+00	0	41	0	524288000	56	6464
2026-01-23 14:00:00.99	45.51	31.57	-41.7	-42.8	21.8	0.00e+00	0	41	0	526385152	56	6295
2026-01-23 14:00:02.00	45.73	31.74	-41.7	-42.8	21.9	0.00e+00	0	41	0	528482304	56	6313
2026-01-23 14:00:03.01	45.95	31.90	-41.2	-42.3	22.2	0.00e+00	15	41	0	530579456	56	5916
2026-01-23 14:00:04.02	46.17	32.06	-41.5	-42.5	22.0	0.00e+00	0	41	0	532676608	56	6089
2026-01-23 14:00:05.03	46.40	32.23	-40.9	-41.8	22.5	0.00e+00	86	41	0	533725184	56	5624
2026-01-23 14:00:06.04	46.62	32.39	-40.8	-41.8	22.5	0.00e+00	0	41	0	535822336	56	5580
2026-01-23 14:00:07.05	46.85	32.56	-40.5	-41.5	22.0	0.00e+00	23	41	0	537919488	54	6063
2026-01-23 14:00:08.06	47.08	32.72	-40.8	-41.8	22.4	0.00e+00	0	41	0	540016640	54	6268
2026-01-23 14:00:09.07	47.31	32.89	-40.8	-41.8	22.6	0.00e+00	0	41	0	542113792	54	6310
2026-01-23 14:00:10.08	47.55	33.06	-41.2	-42.2	22.6	0.00e+00	26	41	0	543162368	54	6565
2026-01-23 14:00:11.09	47.79	33.22	-41.4	-42.5	22.1	0.00e+00	0	41	0	545259520	54	6795
2026-01-23 14:00:12.10	48.03	33.39	-41.5	-42.6	21.9	0.00e+00	90	41	0	547356672	54	6849
2026-01-23 14:00:13.11	48.27	33.56	-41.3	-42.4	22.1	0.00e+00	0	41	0	549453824	54	6709
2026-01-23 14:00:14.12	48.51	33.73	-41.6	-42.7	21.8	0.00e+00	33	41	0	551550976	54	6963
2026-01-23 14:00:15.13	48.76	33.90	-41.7	-42.8	21.8	0.00e+00	0	41	0	553648128	56	6300
2026-01-23 14:00:16.13	49.01	34.06	-41.8	-42.9	21.7	0.00e+00	0	41	0	554696704	56	6388
2026-01-23 14:00:17.15	49.26	34.23	-42.1	-43.3	21.4	0.00e+00	33	41	0	556793856	56	6616
2026-01-23 14:00:18.16	49.52	34.40	-42.0	-43.2	21.5	0.00e+00	33	41	0	558891008	56	6570
2026-01-23 14:00:19.16	49.77	34.57	-41.7	-42.9	21.8	0.00e+00	49	41	0	560988160	56	6326
2026-01-23 14:00:20.17	50.03	34.74	-41.8	-42.9	21.7	0.00e+00	0	41	0	563085312	56	6390
2026-01-23 14:00:21.18	50.29	34.91	-41.7	-42.8	21.9	0.00e+00	86	41	0	564133888	56	6316
2026-01-23 14:00:22.19	50.56	35.08	-41.6	-42.6	21.9	0.00e+00	0	41	0	566231040	56	6168
2026-01-23 14:00:23.20	50.83	35.26	-41.0	-42.1	22.3	0.00e+00	0	41	0	568328192	56	5766
2026-01-23 14:00:24.21	51.10	35.43	-41.0	-42.1	22.4	0.00e+00	0	41	0	570425344	56	5767
2026-01-23 14:00:25.22	51.37	35.60	-41.0	-42.1	22.5	0.00e+00	0	41	0	572522496	56	5762
2026-01-23 14:00:26.23	51.65	35.77	-40.9	-41.9	22.5	0.00e+00	32	41	0	573571072	56	5695
2026-01-23 14:00:27.24	51.93	35.94	-40.9	-41.9	22.5	0.00e+00	0	41	0	575668224	54	6342
2026-01-23 14:00:28.25	52.21	36.11	-40.8	-41.8	22.6	0.00e+00	92	41	0	577765376	54	6289
2026-01-23 14:00:29.26	52.50	36.29	-41.1	-42.2	22.3	0.00e+00	0	41	0	579862528	54	6541
2026-01-23 14:00:30.27	52.79	36.46	-40.9	-41.9	22.4	0.00e+00	0	41	0	581959680	54	6375
2026-01-23 14:00:31.28	53.08	36.63	-40.1	-41.0	23.1	0.00e+00	0	41	0	583008256	54	5746
2026-01-23 14:00:32.29	53.37	36.80	-40.0	-40.9	23.1	0.00e+00	0	41	0	585105408	54	5662
2026-01-23 14:00:33.30	53.67	36.98	-39.9	-40.8	23.4	0.00e+00	22	41	0	587202560	52	6255
2026-01-23 14:00:34.31	53.97	37.15	-39.5	-40.4	23.8	0.00e+00	0	41	0	589299712	52	5990
2026-01-23 14:00:35.32	54.27	37.32	-40.0	-41.0	23.3	0.00e+00	86	41	0	591396864	52	6395
2026-01-23 14:00:36.33	54.58	37.49	-40.1	-41.1	23.3	0.00e+00	0	41	0	592445440	52	6466
2026-01-23 14:00:37.34	54.89	37.67	-40.3	-41.3	23.0	0.00e+00	0	41	0	594542592	52	6643
2026-01-23 14:00:38.35	55.21	37.84	-40.3	-41.2	23.0	0.00e+00	0	41	0	596639744	52	6613
2026-01-23 14:00:39.35	55.52	38.01	-40.4	-41.4	22.9	0.00e+00	0	41	0	598736896	52	6724
2026-01-23 14:00:40.36	55.84	38.18	-40.5	-41.5	22.9	0.00e+00	14	41	0	600834048	52	6814
2026-01-23 14:00:41.37	56.16	38.36	-40.7	-41.8	22.4	0.00e+00	0	41	0	601882624	52	7021
2026-01-23 14:00:42.38	56.49	38.53	-40.5	-41.4	22.9	0.00e+00	90	41	0	603979776	54	6025
2026-01-23 14:00:43.39	56.82	38.70	-40.5	-41.4	22.9	0.00e+00	0	41	0	606076928	54	6022
2026-01-23 14:00:44.40	57.15	38.87	-40.4	-41.4	22.8	0.00e+00	6	41	0	608174080	54	5971
2026-01-23 14:00:45.41	57.49	39.05	-40.8	-41.8	22.4	0.00e+00	0	41	0	610271232	54	6288
2026-01-23 14:00:46.42	57.83	39.22	-41.1	-42.2	22.4	0.00e+00	0	41	0	611319808	54	6610
2026-01-23 14:00:47.43	58.18	39.39	-40.7	-41.8	22.4	0.00e+00	47	41	0	613416960	54	6272
2026-01-23 14:00:48.44	58.52	39.56	-40.3	-41.3	23.0	0.00e+00	0	41	0	615514112	54	5952
2026-01-23 14:00:49.45	58.88	39.73	-39.9	-40.9	23.4	0.00e+00	51	41	0	617611264	54	5633
2026-01-23 14:00:50.46	59.23	39.90	-39.6	-40.5	23.3	0.00e+00	0	41	0	619708416	52	6062
2026-01-23 14:00:51.47	59.59	40.07	-40.2	-41.2	23.0	0.00e+00	36	41	0	621805568	52	6593
2026-01-23 14:00:52.48	59.95	40.24	-41.3	-42.5	22.0	0.00e+00	0	41	0	622854144	54	6787
2026-01-23 14:00:53.49	60.32	40.41	-42.3	-43.6	21.1	0.00e+00	0	41	0	624951296	56	6901
2026-01-23 14:00:54.50	60.69	40.58	-41.7	-42.9	21.9	0.00e+00	0	41	0	627048448	56	6321
2026-01-23 14:00:55.51	61.06	40.75	-41.0	-42.0	22.3	0.00e+00	0	41	0	629145600	56	5723
2026-01-23 14:00:56.52	61.44	40.91	-39.9	-40.8	23.2	0.00e+00	75	41	0	631242752	54	5618
2026-01-23 14:00:57.53	61.82	41.08	-40.0	-40.9	23.2	0.00e+00	0	41	0	632291328	54	5694
2026-01-23 14:00:58.54	62.21	41.25	-40.2	-41.2	22.9	0.00e+00	92	41	0	634388480	54	5896
2026-01-23 14:00:59.55	62.60	41.41	-40.7	-41.7	22.6	0.00e+00	0	41	0	636485632	54	6224
2026-01-23 14:01:00.55	62.99	41.58	-40.4	-41.4	22.9	0.00e+00	0	41	0	638582784	54	6008
2026-01-23 14:01:01.56	63.39	41.74	-40.3	-41.3	23.0	0.00e+00	0	41	0	640679936	54	5908
2026-01-23 14:01:02.57	63.79	41.90	-40.3	-41.3	23.0	0.00e+00	0	41	0	641728512	54	5901
2026-01-23 14:01:03.58	64.19	42.07	-40.2	-41.1	23.1	0.00e+00	62	41	0	643825664	54	5827
2026-01-23 14:01:04.59	64.60	42.23	-40.5	-41.5	22.8	0.00e+00	0	41	0	645922816	54	6066
2026-01-23 14:01:05.60	65.02	42.39	-40.9	-41.9	22.4	0.00e+00	91	41	0	648019968	54	6389
2026-01-23 14:01:06.61	65.44	42.55	-40.9	-41.9	22.4	0.00e+00	0	41	0	650117120	54	6389
2026-01-23 14:01:07.62	65.86	42.71	-40.5	-41.5	22.8	0.00e+00	0	41	0	651165696	54	6057
2026-01-23 14:01:08.63	66.28	42.87	-41.0	-42.0	22.4	0.00e+00	0	41	0	653262848	54	6446
2026-01-23 14:01:09.64	66.72	43.02	-41.1	-42.1	22.2	0.00e+00	0	41	0	655360000	54	6514
2026-01-23 14:01:10.65	67.15	43.18	-41.4	-42.5	22.0	0.00e+00	54	41	0	657457152	54	6782
2026-01-23 14:01:11.66	67.59	43.33	-41.7	-42.8	21.7	0.00e+00	0	41	0	659554304	56	6294
2026-01-23 14:01:12.67	68.03	43.49	-42.6	-43.8	20.7	0.00e+00	92	41	0	660602880	56	7055
2026-01-23 14:01:13.68	68.48	43.64	-42.3	-43.5	21.3	0.00e+00	0	41	0	662700032	58	6064
2026-01-23 14:01:14.69	68.93	43.79	-42.1	-43.3	21.3	0.00e+00	0	41	0	664797184	58	5943
2026-01-23 14:01:15.70	69.39	43.94	-41.0	-42.0	22.5	0.00e+00	0	41	0	666894336	56	5720
2026-01-23 14:01:16.71	69.84	44.09	-40.6	-41.6	22.6	0.00e+00	0	41	0	668991488	54	6145
2026-01-23 14:01:17.72	70.31	44.23	-41.7	-42.8	21.9	0.00e+00	3	41	0	670040064	54	7057
2026-01-23 14:01:18.73	70.78	44.38	-41.7	-42.9	21.8	0.00e+00	0	41	0	672137216	56	6326
2026-01-23 14:01:19.74	71.25	44.52	-41.1	-42.1	22.5	0.00e+00	76	41	0	674234368	56	5780
2026-01-23 14:01:20.75	71.73	44.66	-40.4	-41.4	22.9	0.00e+00	0	41	0	676331520	54	5993
2026-01-23 14:01:21.76	72.21	44.80	-40.6	-41.6	22.6	0.00e+00	0	41	0	678428672	54	6135
2026-01-23 14:01:22.77	72.69	44.94	-41.6	-42.7	21.8	0.00e+00	0	41	0	679477248	54	6955
2026-01-23 14:01:23.78	73.18	45.08	-42.0	-43.1	21.5	0.00e+00	0	41	0	681574400	56	6529
2026-01-23 14:01:24.79	73.67	45.21	-41.6	-42.7	21.9	0.00e+00	25	41	0	683671552	56	6232
2026-01-23 14:01:25.80	74.17	45.34	-41.5	-42.6	22.4	0.00e+00	0	41	0	685768704	56	6116
2026-01-23 14:01:26.81	74.67	45.48	-41.7	-42.8	21.6	0.00e+00	81	41	0	687865856	56	6257
2026-01-23 14:01:27.82	75.18	45.60	-42.7	-43.9	20.9	0.00e+00	0	41	0	689963008	56	7140
2026-01-23 14:01:28.83	75.69	45.73	-43.1	-44.4	20.1	0.00e+00	90	41	0	691011584	58	6764
2026-01-23 14:01:29.84	76.20	45.86	-43.5	-44.9	19.8	0.00e+00	0	41	0	693108736	58	7164
2026-01-23 14:01:30.85	76.72	45.98	-43.0	-44.3	20.4	0.00e+00	0	41	0	695205888	58	6670
2026-01-23 14:01:31.86	77.24	46.10	-42.9	-44.2	20.7	0.00e+00	0	41	0	697303040	58	6552
2026-01-23 14:01:32.87	77.77	46.22	-43.2	-44.7	19.9	0.00e+00	0	41	0	699400192	58	6951
2026-01-23 14:01:33.88	78.30	46.34	-45.0	-46.9	18.3	0.00e+00	92	41	0	700448768	60	7978
2026-01-23 14:01:34.89	78.83	46.45	-45.0	-46.8	18.4	0.00e+00	0	41	0	702545920	60	7936
2026-01-23 14:01:35.90	79.37	46.56	-43.7	-45.1	19.9	0.00e+00	91	41	0	704643072	60	6504
2026-01-23 14:01:36.91	79.91	46.67	-42.9	-44.1	20.7	0.00e+00	0	41	0	706740224	60	5800
2026-01-23 14:01:37.92	80.46	46.78	-43.4	-44.8	20.1	0.00e+00	0	41	0	708837376	60	6260
2026-01-23 14:01:38.93	81.01	46.88	-44.0	-45.6	19.5	0.00e+00	0	41	0	709885952	60	6859
2026-01-23 14:01:39.93	81.55	46.98	-44.5	-46.2	18.7	0.00e+00	0	41	0	711983104	60	7369
2026-01-23 14:01:40.94	82.11	47.08	-44.0	-45.5	19.6	0.00e+00	53	41	0	714080256	60	6793
2026-01-23 14:01:41.95	82.67	47.18	-44.0	-45.5	19.7	0.00e+00	0	41	0	716177408	60	6775
2026-01-23 14:01:42.96	83.23	47.27	-44.0	-45.6	19.6	0.00e+00	92	41	0	718274560	60	6876
2026-01-23 14:01:43.97	83.80	47.36	-44.9	-46.8	18.3	0.00e+00	0	41	0	719323136	60	7868
2026-01-23 14:01:44.98	84.36	47.45	-45.9	-48.1	17.1	0.00e+00	0	41	0	721420288	60	9184
2026-01-23 14:01:45.99	84.94	47.53	-45.8	-47.9	17.1	0.00e+00	0	41	0	723517440	60	9016
2026-01-23 14:01:47.00	85.51	47.62	-44.4	-46.0	18.9	0.00e+00	0	41	0	725614592	60	7228
2026-01-23 14:01:48.01	86.09	47.70	-44.4	-46.1	18.8	0.00e+00	21	41	0	727711744	60	7274
2026-01-23 14:01:49.02	86.67	47.77	-44.3	-45.9	19.2	0.00e+00	0	41	0	728760320	60	7097
2026-01-23 14:01:50.03	87.26	47.85	-43.7	-45.2	19.8	0.00e+00	71	41	0	730857472	60	6542
2026-01-23 14:01:51.03	87.84	47.92	-43.0	-44.3	20.8	0.00e+00	0	41	0	732954624	60	5934
2026-01-23 14:01:52.05	88.43	47.98	-42.7	-43.9	20.8	0.00e+00	0	41	0	735051776	58	6360
2026-01-23 14:01:53.06	89.02	48.05	-43.6	-45.1	19.7	0.00e+00	0	41	0	737148928	58	7271
2026-01-23 14:01:54.06	89.61	48.11	-44.5	-46.2	18.5	0.00e+00	0	41	0	738197504	60	7350
2026-01-23 14:01:55.07	90.21	48.17	-44.4	-46.1	18.7	0.00e+00	32	41	0	740294656	60	7269
2026-01-23 14:01:56.08	90.81	48.22	-44.1	-45.6	19.5	0.00e+00	0	41	0	742391808	60	6909
2026-01-23 14:01:57.09	91.41	48.27	-43.1	-44.5	20.4	0.00e+00	92	41	0	744488960	60	6049
2026-01-23 14:01:58.10	92.01	48.32	-43.4	-44.9	20.2	0.00e+00	0	41	0	746586112	60	6318
2026-01-23 14:01:59.11	92.62	48.36	-44.3	-45.9	19.2	0.00e+00	55	41	0	747634688	60	7166
2026-01-23 14:02:00.11	93.22	48.41	-44.4	-46.1	18.9	0.00e+00	0	41	0	749731840	60	7297
2026-01-23 14:02:01.12	93.82	48.44	-43.5	-45.0	19.9	0.00e+00	0	41	0	751828992	60	6412
2026-01-23 14:02:02.14	94.44	48.48	-43.1	-44.6	20.4	0.00e+00	0	41	0	753926144	60	6131
2026-01-23 14:02:03.15	95.05	48.51	-43.0	-44.4	20.3	0.00e+00	0	41	0	756023296	58	6737
2026-01-23 14:02:04.16	95.66	48.54	-43.6	-45.2	20.0	0.00e+00	92	41	0	758120448	60	6546
2026-01-23 14:02:05.17	96.27	48.56	-43.1	-44.4	20.6	0.00e+00	0	41	0	759169024	60	6021
2026-01-23 14:02:06.18	96.89	48.58	-42.8	-44.1	20.7	0.00e+00	68	41	0	761266176	58	6493
2026-01-23 14:02:07.18	97.49	48.60	-43.0	-44.4	20.3	0.00e+00	0	41	0	763363328	58	6754
2026-01-23 14:02:08.19	98.11	48.61	-43.3	-44.7	20.1	0.00e+00	33	41	0	765460480	58	6978
2026-01-23 14:02:09.20	98.73	48.62	-43.2	-44.6	20.2	0.00e+00	0	41	0	766509056	58	6911
2026-01-23 14:02:10.21	99.34	48.63	-42.7	-43.9	21.1	0.00e+00	0	41	0	768606208	58	6384
2026-01-23 14:02:11.22	99.96	48.64	-41.6	-42.6	22.0	0.00e+00	84	41	0	770703360	56	6150
2026-01-23 14:02:12.23	100.57	48.64	-42.0	-43.1	21.7	0.00e+00	0	41	0	772800512	56	6518
2026-01-23 14:02:13.24	101.19	48.63	-42.0	-43.1	21.4	0.00e+00	78	41	0	774897664	56	6505
2026-01-23 14:02:14.25	101.81	48.63	-42.4	-43.6	21.2	0.00e+00	0	41	0	775946240	56	6861
2026-01-23 14:02:15.26	102.42	48.61	-43.3	-44.7	20.1	0.00e+00	0	41	0	778043392	58	6937
2026-01-23 14:02:16.27	103.04	48.60	-44.4	-46.1	18.8	0.00e+00	0	41	0	780140544	60	7289
2026-01-23 14:02:17.27	103.64	48.58	-45.0	-46.9	18.2	0.00e+00	0	41	0	782237696	60	7968
2026-01-23 14:02:18.28	104.26	48.56	-44.5	-46.2	18.8	0.00e+00	50	41	0	784334848	60	7413
2026-01-23 14:02:19.29	104.87	48.54	-43.2	-44.7	20.5	0.00e+00	0	41	0	786432000	60	6186
2026-01-23 14:02:20.30	105.48	48.51	-42.7	-44.0	20.6	0.00e+00	72	41	0	787480576	58	6431
2026-01-23 14:02:21.31	106.09	48.48	-43.7	-45.2	19.5	0.00e+00	0	41	0	789577728	58	7394
2026-01-23 14:02:22.32	106.70	48.45	-45.3	-47.3	17.9	0.00e+00	0	41	0	791674880	60	8410
2026-01-23 14:02:23.33	107.31	48.41	-45.0	-46.9	18.1	0.00e+00	0	41	0	793772032	60	7997
2026-01-23 14:02:24.34	107.92	48.37	-43.6	-45.0	19.9	0.00e+00	0	41	0	795869184	60	6448
2026-01-23 14:02:25.35	108.52	48.32	-42.2	-43.4	21.2	0.00e+00	45	41	0	796917760	58	5991
2026-01-23 14:02:26.36	109.13	48.27	-42.3	-43.5	21.1	0.00e+00	0	41	0	799014912	58	6051
2026-01-23 14:02:27.37	109.73	48.22	-42.0	-43.1	21.2	0.00e+00	72	41	0	801112064	58	5823
2026-01-23 14:02:28.39	110.33	48.17	-41.5	-42.6	22.1	0.00e+00	0	41	0	803209216	56	6148
2026-01-23 14:02:29.39	110.92	48.11	-41.0	-42.0	22.5	0.00e+00	0	41	0	805306368	56	5718
2026-01-23 14:02:30.41	111.52	48.05	-41.7	-42.9	21.8	0.00e+00	0	41	0	806354944	56	6331
2026-01-23 14:02:31.42	112.12	47.99	-43.1	-44.5	20.2	0.00e+00	0	41	0	808452096	58	6781
2026-01-23 14:02:32.43	112.71	47.92	-43.7	-45.1	20.0	0.00e+00	44	41	0	810549248	60	6490
2026-01-23 14:02:33.44	113.29	47.85	-43.7	-45.1	20.0	0.00e+00	0	41	0	812646400	60	6517
2026-01-23 14:02:34.45	113.88	47.77	-44.0	-45.5	19.4	0.00e+00	90	41	0	814743552	60	6801
2026-01-23 14:02:35.46	114.46	47.70	-43.2	-44.6	20.3	0.00e+00	0	41	0	815792128	60	6114
2026-01-23 14:02:36.47	115.04	47.62	-43.1	-44.4	20.5	0.00e+00	0	41	0	817889280	60	5979
2026-01-23 14:02:37.48	115.62	47.54	-43.0	-44.3	20.5	0.00e+00	0	41	0	819986432	60	5914
2026-01-23 14:02:38.49	116.19	47.45	-45.0	-46.8	18.0	0.00e+00	0	41	0	822083584	60	7944
2026-01-23 14:02:39.50	116.76	47.36	-45.6	-47.8	17.3	0.00e+00	0	41	0	824180736	60	8882
2026-01-23 14:02:40.51	117.33	47.27	-44.8	-46.6	18.2	0.00e+00	0	41	0	826277888	60	7712
2026-01-23 14:02:41.52	117.89	47.18	-43.8	-45.3	19.6	0.00e+00	52	41	0	827326464	60	6680
2026-01-23 14:02:42.53	118.45	47.08	-43.9	-45.4	19.7	0.00e+00	0	41	0	829423616	60	6724
2026-01-23 14:02:43.54	119.01	46.98	-43.0	-44.3	20.4	0.00e+00	92	41	0	831520768	60	5934
2026-01-23 14:02:44.55	119.56	46.88	-43.0	-44.3	20.6	0.00e+00	0	41	0	833617920	60	5953
2026-01-23 14:02:45.56	120.11	46.78	-42.0	-43.2	21.5	0.00e+00	0	41	0	835715072	58	5837
2026-01-23 14:02:46.57	120.65	46.67	-41.2	-42.3	22.3	0.00e+00	0	41	0	836763648	56	5902
2026-01-23 14:02:47.58	121.20	46.56	-42.1	-43.3	21.1	0.00e+00	0	41	0	838860800	56	6633
2026-01-23 14:02:48.59	121.73	46.45	-43.6	-45.1	19.1	0.00e+00	83	41	0	840957952	58	7320
2026-01-23 14:02:49.60	122.27	46.33	-43.9	-45.6	19.5	0.00e+00	0	41	0	843055104	60	6909
2026-01-23 14:02:50.61	122.80	46.22	-42.9	-44.2	20.6	0.00e+00	87	41	0	845152256	60	5857
2026-01-23 14:02:51.62	123.33	46.10	-42.2	-43.3	21.3	0.00e+00	0	41	0	846200832	58	5957
2026-01-23 14:02:52.63	123.85	45.98	-41.9	-43.0	21.6	0.00e+00	0	41	0	848297984	58	5731
2026-01-23 14:02:53.64	124.37	45.85	-41.5	-42.5	22.2	0.00e+00	0	41	0	850395136	56	6078
2026-01-23 14:02:54.65	124.88	45.73	-40.7	-41.7	22.8	0.00e+00	0	41	0	852492288	56	5540
2026-01-23 14:02:55.66	125.39	45.60	-40.8	-41.8	22.4	0.00e+00	49	41	0	854589440	54	6308
2026-01-23 14:02:56.67	125.90	45.47	-41.1	-42.1	22.3	0.00e+00	0	41	0	855638016	54	6531
2026-01-23 14:02:57.68	126.40	45.34	-40.7	-41.7	22.6	0.00e+00	92	41	0	857735168	54	6243
2026-01-23 14:02:58.69	126.90	45.21	-40.9	-42.0	22.4	0.00e+00	0	41	0	859832320	54	6391
2026-01-23 14:02:59.70	127.40	45.07	-41.9	-43.1	21.6	0.00e+00	0	41	0	861929472	56	6510
2026-01-23 14:03:00.71	127.89	44.94	-42.1	-43.3	21.6	0.00e+00	0	41	0	864026624	56	6676
2026-01-23 14:03:01.72	128.37	44.80	-41.9	-43.1	21.9	0.00e+00	0	41	0	865075200	56	6486
2026-01-23 14:03:02.73	128.85	44.66	-41.2	-42.3	22.3	0.00e+00	49	41	0	867172352	56	5937
2026-01-23 14:03:03.74	129.33	44.51	-40.8	-41.8	22.5	0.00e+00	0	41	0	869269504	54	6304
2026-01-23 14:03:04.75	129.80	44.37	-40.2	-41.1	23.2	0.00e+00	92	41	0	871366656	54	5818
2026-01-23 14:03:05.75	130.27	44.23	-39.4	-40.2	23.5	0.00e+00	0	41	0	873463808	52	5888
2026-01-23 14:03:06.76	130.73	44.08	-38.8	-39.6	24.1	0.00e+00	0	41	0	874512384	50	6146
2026-01-23 14:03:07.77	131.19	43.93	-38.9	-39.7	24.2	0.00e+00	0	41	0	876609536	50	6217
2026-01-23 14:03:08.78	131.65	43.78	-38.6	-39.5	24.3	0.00e+00	0	41	0	878706688	50	6046
2026-01-23 14:03:09.79	132.10	43.63	-38.3	-39.1	24.6	0.00e+00	0	41	0	880803840	50	5815
2026-01-23 14:03:10.80	132.55	43.48	-38.6	-39.5	24.3	0.00e+00	0	41	0	882900992	50	6043
2026-01-23 14:03:11.81	133.00	43.32	-38.8	-39.7	24.0	0.00e+00	89	41	0	883949568	50	6186
2026-01-23 14:03:12.82	133.43	43.17	-39.1	-39.9	23.5	0.00e+00	0	41	0	886046720	50	6379
2026-01-23 14:03:13.83	133.87	43.01	-39.1	-40.0	23.9	0.00e+00	0	41	0	888143872	50	6429
2026-01-23 14:03:14.84	134.30	42.86	-38.9	-39.8	23.8	0.00e+00	0	41	0	890241024	50	6259
2026-01-23 14:03:15.85	134.73	42.70	-38.8	-39.6	24.3	0.00e+00	0	41	0	892338176	50	6171
2026-01-23 14:03:16.86	135.15	42.54	-38.3	-39.1	24.7	0.00e+00	0	41	0	894435328	50	5792
2026-01-23 14:03:17.87	135.57	42.38	-38.3	-39.1	24.4	0.00e+00	0	41	0	895483904	50	5828
2026-01-23 14:03:18.88	135.99	42.22	-38.7	-39.6	24.1	0.00e+00	47	41	0	897581056	50	6138
2026-01-23 14:03:19.89	136.40	42.05	-38.4	-39.2	24.6	0.00e+00	0	41	0	899678208	50	5876
2026-01-23 14:03:20.90	136.80	41.89	-37.4	-38.2	25.3	0.00e+00	92	41	0	901775360	48	5868
2026-01-23 14:03:21.91	137.21	41.73	-36.9	-37.6	25.6	0.00e+00	0	41	0	903872512	48	5480
2026-01-23 14:03:22.92	137.60	41.56	-36.4	-37.1	25.9	0.00e+00	0	41	0	904921088	46	5828
2026-01-23 14:03:23.93	138.00	41.40	-37.3	-38.0	25.4	0.00e+00	0	41	0	907018240	46	6435
2026-01-23 14:03:24.94	138.39	41.23	-37.8	-38.6	25.0	0.00e+00	0	41	0	909115392	48	6136
2026-01-23 14:03:25.95	138.78	41.06	-37.9	-38.7	24.7	0.00e+00	51	41	0	911212544	48	6241
2026-01-23 14:03:26.96	139.16	40.90	-38.5	-39.3	24.4	0.00e+00	0	41	0	913309696	48	6651
2026-01-23 14:03:27.97	139.54	40.73	-38.4	-39.2	24.4	0.00e+00	52	41	0	914358272	48	6599
2026-01-23 14:03:28.98	139.91	40.56	-38.7	-39.5	24.3	0.00e+00	0	41	0	916455424	48	6826
2026-01-23 14:03:29.99	140.28	40.39	-38.6	-39.4	24.4	0.00e+00	0	41	0	918552576	48	6737
2026-01-23 14:03:31.00	140.65	40.22	-39.1	-40.0	23.9	0.00e+00	0	41	0	920649728	50	6439
2026-01-23 14:03:32.01	141.01	40.05	-39.2	-40.1	23.9	0.00e+00	0	41	0	922746880	50	6480
2026-01-23 14:03:33.02	141.37	39.88	-39.6	-40.5	23.5	0.00e+00	39	41	0	923795456	50	6818
2026-01-23 14:03:34.03	141.73	39.71	-40.6	-41.6	22.7	0.00e+00	0	41	0	925892608	52	6887
2026-01-23 14:03:35.04	142.08	39.54	-40.9	-42.0	22.5	0.00e+00	79	41	0	927989760	54	6413
2026-01-23 14:03:36.05	142.43	39.36	-41.2	-42.3	22.1	0.00e+00	0	41	0	930086912	54	6624
2026-01-23 14:03:37.06	142.78	39.19	-41.5	-42.6	21.9	0.00e+00	0	41	0	932184064	54	6927
2026-01-23 14:03:38.07	143.12	39.02	-41.3	-42.4	22.0	0.00e+00	0	41	0	933232640	54	6729
2026-01-23 14:03:39.08	143.46	38.85	-41.1	-42.2	22.3	0.00e+00	0	41	0	935329792	54	6556
2026-01-23 14:03:40.09	143.79	38.67	-42.4	-43.6	21.0	0.00e+00	44	41	0	937426944	56	6887
2026-01-23 14:03:41.10	144.12	38.50	-43.4	-44.9	19.9	0.00e+00	0	41	0	939524096	58	7118
2026-01-23 14:03:42.11	144.45	38.33	-44.4	-46.1	18.9	0.00e+00	92	41	0	941621248	60	7304
2026-01-23 14:03:43.12	144.77	38.15	-44.0	-45.7	19.1	0.00e+00	0	41	0	942669824	60	6946
2026-01-23 14:03:44.13	145.09	37.98	-44.1	-45.7	19.2	0.00e+00	33	41	0	944766976	60	7001
2026-01-23 14:03:45.14	145.41	37.81	-43.7	-45.2	19.8	0.00e+00	0	41	0	946864128	60	6552
2026-01-23 14:03:46.15	145.73	37.63	-43.2	-44.6	20.3	0.00e+00	0	41	0	948961280	60	6121
2026-01-23 14:03:47.16	146.04	37.46	-43.1	-44.5	20.4	0.00e+00	19	41	0	951058432	60	6103
2026-01-23 14:03:48.16	146.34	37.29	-42.5	-43.7	21.0	0.00e+00	0	41	0	952107008	58	6244
2026-01-23 14:03:49.18	146.65	37.11	-42.6	-43.8	20.6	0.00e+00	92	41	0	954204160	58	6303
2026-01-23 14:03:50.19	146.95	36.94	-43.2	-44.6	20.1	0.00e+00	0	41	0	956301312	58	6897
2026-01-23 14:03:51.19	147.24	36.77	-43.4	-44.8	20.1	0.00e+00	91	41	0	958398464	58	7047
2026-01-23 14:03:52.20	147.54	36.59	-43.2	-44.5	20.2	0.00e+00	33	41	0	960495616	58	6845
2026-01-23 14:03:53.21	147.83	36.42	-42.9	-44.2	20.6	0.00e+00	0	41	0	962592768	58	6551
2026-01-23 14:03:54.22	148.12	36.25	-42.4	-43.6	21.0	0.00e+00	0	41	0	963641344	58	6172
2026-01-23 14:03:55.23	148.41	36.08	-42.7	-44.0	20.3	0.00e+00	0	41	0	965738496	58	6448
2026-01-23 14:03:56.24	148.69	35.90	-43.7	-45.1	19.7	0.00e+00	46	41	0	967835648	58	7299
2026-01-23 14:03:57.25	148.97	35.73	-44.6	-46.4	18.7	0.00e+00	0	41	0	969932800	60	7523
2026-01-23 14:03:58.26	149.25	35.56	-45.5	-47.6	17.4	0.00e+00	92	41	0	972029952	60	8659
2026-01-23 14:03:59.27	149.52	35.39	-45.9	-48.3	16.6	0.00e+00	0	41	0	973078528	60	9419
2026-01-23 14:04:00.28	149.79	35.21	-46.0	-48.4	16.6	0.00e+00	0	41	0	975175680	60	9545
2026-01-23 14:04:01.28	150.06	35.04	-44.4	-46.2	18.9	0.00e+00	0	41	0	977272832	60	7367
2026-01-23 14:04:02.29	150.32	34.87	-42.4	-43.8	21.0	0.00e+00	0	41	0	979369984	58	6248
2026-01-23 14:04:03.30	150.59	34.70	-40.9	-42.0	22.5	0.00e+00	44	41	0	980418560	56	5700
2026-01-23 14:04:04.31	150.85	34.53	-40.5	-41.5	22.9	0.00e+00	0	41	0	982515712	54	6068
2026-01-23 14:04:05.32	151.11	34.36	-40.3	-41.3	22.8	0.00e+00	91	41	0	984612864	54	5929
2026-01-23 14:04:06.33	151.36	34.19	-41.2	-42.3	21.8	0.00e+00	0	41	0	986710016	54	6664
2026-01-23 14:04:07.34	151.61	34.02	-42.5	-43.8	20.8	0.00e+00	0	41	0	988807168	56	7061
2026-01-23 14:04:08.35	151.86	33.85	-43.5	-45.1	19.8	0.00e+00	0	41	0	990904320	58	7256
2026-01-23 14:04:09.36	152.11	33.68	-43.8	-45.4	19.5	0.00e+00	0	41	0	991952896	60	6697
2026-01-23 14:04:10.37	152.36	33.51	-43.2	-44.7	20.2	0.00e+00	56	41	0	994050048	60	6200
2026-01-23 14:04:11.38	152.60	33.34	-42.2	-43.4	21.3	0.00e+00	0	41	0	996147200	58	6010
2026-01-23 14:04:12.39	152.84	33.17	-41.9	-43.1	21.5	0.00e+00	72	41	0	998244352	58	5768
2026-01-23 14:04:13.40	153.08	33.00	-41.9	-43.0	21.3	0.00e+00	0	41	0	1000341504	58	5730
2026-01-23 14:04:14.41	153.31	32.84	-42.1	-43.2	21.4	0.00e+00	0	41	0	1001390080	56	6585
2026-01-23 14:04:15.42	153.55	32.67	-42.3	-43.5	21.1	0.00e+00	0	41	0	1003487232	56	6810
2026-01-23 14:04:16.43	153.78	32.50	-42.9	-44.2	20.5	0.00e+00	0	41	0	1005584384	58	6558
2026-01-23 14:04:17.44	154.00	32.34	-42.5	-43.8	20.9	0.00e+00	43	41	0	1007681536	58	6250
2026-01-23 14:04:18.45	154.23	32.17	-42.0	-43.1	21.6	0.00e+00	0	41	0	1009778688	58	5796
2026-01-23 14:04:19.46	154.45	32.01	-41.5	-42.6	21.9	0.00e+00	92	41	0	1010827264	56	6135
2026-01-23 14:04:20.47	154.68	31.84	-41.3	-42.3	22.2	0.00e+00	0	41	0	1012924416	56	5958
2026-01-23 14:04:21.48	154.90	31.68	-40.9	-41.9	22.4	0.00e+00	0	41	0	1015021568	54	6346
2026-01-23 14:04:22.49	155.11	31.51	-40.7	-41.7	22.4	0.00e+00	0	41	0	1017118720	54	6208
2026-01-23 14:04:23.50	155.33	31.35	-40.9	-41.9	22.2	0.00e+00	0	41	0	1019215872	54	6358
2026-01-23 14:04:24.51	155.54	31.19	-41.1	-42.1	22.2	0.00e+00	0	41	0	1020264448	54	6509
2026-01-23 14:04:25.52	155.75	31.02	-41.7	-42.9	21.5	0.00e+00	0	41	0	1022361600	54	7130
2026-01-23 14:04:26.53	155.96	30.86	-42.4	-43.7	20.7	0.00e+00	91	41	0	1024458752	56	6964
2026-01-23 14:04:27.54	156.17	30.70	-42.9	-44.3	20.3	0.00e+00	0	41	0	1026555904	58	6677
2026-01-23 14:04:28.55	156.37	30.54	-42.6	-43.9	20.7	0.00e+00	92	41	0	1028653056	58	6362
2026-01-23 14:04:29.56	156.58	30.38	-41.9	-43.1	21.4	0.00e+00	0	41	0	1030750208	58	5827
2026-01-23 14:04:30.57	156.78	30.22	-41.5	-42.6	21.9	0.00e+00	0	41	0	1031798784	56	6119
2026-01-23 14:04:31.58	156.98	30.06	-41.1	-42.2	22.3	0.00e+00	0	41	0	1033895936	56	5850
2026-01-23 14:04:32.59	157.17	29.90	-41.0	-42.0	22.4	0.00e+00	0	41	0	1035993088	56	5744
2026-01-23 14:04:33.59	157.37	29.74	-40.8	-41.8	22.5	0.00e+00	40	41	0	1038090240	54	6295
2026-01-23 14:04:34.60	157.56	29.59	-41.0	-42.0	22.3	0.00e+00	0	41	0	1039138816	54	6447
2026-01-23 14:04:35.61	157.75	29.43	-41.1	-42.2	22.2	0.00e+00	92	41	0	1041235968	54	6568
2026-01-23 14:04:36.62	157.94	29.27	-41.1	-42.1	22.2	0.00e+00	0	41	0	1043333120	54	6539
2026-01-23 14:04:37.63	158.13	29.11	-41.3	-42.4	22.1	0.00e+00	0	41	0	1045430272	54	6698
2026-01-23 14:04:38.64	158.31	28.96	-41.1	-42.1	22.2	0.00e+00	0	41	0	1047527424	54	6519
2026-01-23 14:04:39.65	158.50	28.80	-41.1	-42.2	22.4	0.00e+00	0	41	0	1048576000	54	6563
2026-01-23 14:04:40.66	158.68	28.65	-40.9	-41.9	22.4	0.00e+00	46	41	0	1050673152	54	6371
2026-01-23 14:04:41.67	158.86	28.49	-41.2	-42.2	22.0	0.00e+00	0	41	0	1052770304	54	6559
2026-01-23 14:04:42.68	159.04	28.34	-40.8	-41.7	22.5	0.00e+00	41	41	0	1054867456	54	6231
2026-01-23 14:04:43.69	159.22	28.19	-41.0	-42.0	22.3	0.00e+00	0	41	0	1056964608	54	6397
2026-01-23 14:04:44.70	159.40	28.04	-41.0	-42.0	22.4	0.00e+00	0	41	0	1059061760	54	6416
2026-01-23 14:04:45.70	159.57	27.89	-40.5	-41.5	22.8	0.00e+00	0	41	0	1060110336	54	6046
2026-01-23 14:04:46.71	159.74	27.73	-40.6	-41.5	22.8	0.00e+00	0	41	0	1062207488	54	6092
2026-01-23 14:04:47.72	159.91	27.58	-40.2	-41.1	23.1	0.00e+00	45	41	0	1064304640	54	5791
2026-01-23 14:04:48.73	160.08	27.43	-40.0	-41.0	23.2	0.00e+00	0	41	0	1066401792	54	5701
2026-01-23 14:04:49.75	160.25	27.28	-39.9	-40.8	23.2	0.00e+00	92	41	0	1068498944	54	5602
2026-01-23 14:04:50.75	160.42	27.13	-39.9	-40.8	22.5	0.00e+00	0	41	0	1069547520	54	5586
2026-01-23 14:04:51.76	160.58	26.99	-39.8	-40.7	23.5	0.00e+00	0	41	0	1071644672	52	6221
2026-01-23 14:04:52.77	160.75	26.84	-39.5	-40.4	23.6	0.00e+00	0	41	0	1073741824	52	6008
2026-01-23 14:04:53.78	160.91	26.69	-40.1	-41.0	23.1	0.00e+00	0	41	0	1075838976	52	6461
2026-01-23 14:04:54.79	161.07	26.54	-40.0	-41.0	23.1	0.00e+00	47	41	0	1077936128	52	6429
2026-01-23 14:04:55.80	161.23	26.40	-40.5	-41.5	22.7	0.00e+00	0	41	0	1078984704	52	6807
2026-01-23 14:04:56.81	161.38	26.25	-40.6	-41.6	22.7	0.00e+00	82	41	0	1081081856	54	6143
2026-01-23 14:04:57.82	161.54	26.11	-40.4	-41.3	22.9	0.00e+00	0	41	0	1083179008	54	5952
2026-01-23 14:04:58.83	161.70	25.96	-40.4	-41.4	22.8	0.00e+00	25	41	0	1085276160	54	6009
2026-01-23 14:04:59.84	161.85	25.82	-39.8	-40.7	23.3	0.00e+00	0	41	0	1087373312	54	5548
2026-01-23 14:05:00.85	162.00	25.67	-39.8	-40.7	23.3	0.00e+00	0	41	0	1088421888	52	6208
2026-01-23 14:05:01.86	162.15	25.53	-40.0	-40.9	23.1	0.00e+00	48	41	0	1090519040	52	6379
2026-01-23 14:05:02.87	162.30	25.39	-39.3	-40.2	23.7	0.00e+00	0	41	0	1092616192	52	5833
2026-01-23 14:05:03.88	162.45	25.25	-39.7	-40.6	23.3	0.00e+00	92	41	0	1094713344	52	6162
2026-01-23 14:05:04.90	162.60	25.10	-39.9	-40.8	23.3	0.00e+00	0	41	0	1096810496	52	6266
2026-01-23 14:05:05.90	162.74	24.97	-40.1	-41.1	23.0	0.00e+00	85	41	0	1097859072	52	6484
2026-01-23 14:05:06.91	162.89	24.83	-40.8	-41.8	22.4	0.00e+00	0	41	0	1099956224	54	6316
2026-01-23 14:05:07.92	163.03	24.69	-40.6	-41.6	22.6	0.00e+00	0	41	0	1102053376	54	6140
2026-01-23 14:05:08.93	163.17	24.55	-40.6	-41.6	22.6	0.00e+00	33	41	0	1104150528	54	6167
2026-01-23 14:05:09.94	163.32	24.41	-40.5	-41.5	22.6	0.00e+00	0	41	0	1106247680	54	6074
2026-01-23 14:05:10.95	163.46	24.27	-40.2	-41.1	22.9	0.00e+00	44	41	0	1107296256	54	5819
2026-01-23 14:05:11.96	163.59	24.13	-39.9	-40.8	23.1	0.00e+00	0	41	0	1109393408	54	5614
2026-01-23 14:05:12.97	163.73	24.00	-39.8	-40.7	23.2	0.00e+00	83	41	0	1111490560	52	6198
2026-01-23 14:05:13.97	163.87	23.86	-39.7	-40.6	23.3	0.00e+00	0	41	0	1113587712	52	6157
2026-01-23 14:05:14.98	164.00	23.73	-39.8	-40.7	23.3	0.00e+00	0	41	0	1115684864	52	6219
2026-01-23 14:05:15.99	164.14	23.59	-39.9	-40.9	23.2	0.00e+00	0	41	0	1116733440	52	6329
2026-01-23 14:05:17.00	164.27	23.46	-39.9	-40.8	23.2	0.00e+00	0	41	0	1118830592	52	6283
2026-01-23 14:05:18.01	164.40	23.32	-40.2	-41.1	23.1	0.00e+00	47	41	0	1120927744	52	6511
2026-01-23 14:05:19.01	164.53	23.19	-40.4	-41.3	22.7	0.00e+00	0	41	0	1123024896	52	6684
2026-01-23 14:05:20.02	164.66	23.06	-40.3	-41.3	22.7	0.00e+00	36	41	0	1125122048	52	6635
2026-01-23 14:05:21.03	164.79	22.92	-40.6	-41.6	22.4	0.00e+00	0	41	0	1127219200	52	6904
2026-01-23 14:05:22.04	164.92	22.79	-41.1	-42.1	22.3	0.00e+00	0	41	0	1128267776	54	6533
2026-01-23 14:05:23.05	165.04	22.66	-40.9	-41.9	22.3	0.00e+00	0	41	0	1130364928	54	6348
2026-01-23 14:05:24.06	165.17	22.53	-41.2	-42.2	22.0	0.00e+00	0	41	0	1132462080	54	6607
2026-01-23 14:05:25.07	165.29	22.40	-41.1	-42.2	21.9	0.00e+00	28	41	0	1134559232	54	6564
2026-01-23 14:05:26.08	165.42	22.27	-40.8	-41.9	22.3	0.00e+00	0	41	0	1136656384	54	6338
2026-01-23 14:05:27.09	165.54	22.14	-40.7	-41.8	22.4	0.00e+00	52	41	0	1137704960	54	6270
2026-01-23 14:05:28.10	165.66	22.01	-40.5	-41.5	22.6	0.00e+00	0	41	0	1139802112	54	6078
2026-01-23 14:05:29.11	165.78	21.88	-40.5	-41.5	22.6	0.00e+00	33	41	0	1141899264	54	6072
2026-01-23 14:05:30.12	165.90	21.76	-40.4	-41.4	22.8	0.00e+00	0	41	0	1143996416	54	5997
2026-01-23 14:05:31.13	166.02	21.63	-39.8	-40.7	23.2	0.00e+00	0	41	0	1146093568	54	5528
2026-01-23 14:05:32.14	166.14	21.50	-39.7	-40.7	23.4	0.00e+00	0	41	0	1147142144	52	6179
2026-01-23 14:05:33.15	166.25	21.38	-39.3	-40.2	23.7	0.00e+00	0	41	0	1149239296	52	5843
2026-01-23 14:05:34.16	166.37	21.25	-39.5	-40.4	23.6	0.00e+00	92	41	0	1151336448	52	5999
2026-01-23 14:05:35.17	166.48	21.13	-39.7	-40.6	23.3	0.00e+00	0	41	0	1153433600	52	6166
2026-01-23 14:05:36.18	166.60	21.00	-39.6	-40.5	23.3	0.00e+00	92	41	0	1155530752	52	6088
2026-01-23 14:05:37.19	166.71	20.88	-40.0	-41.0	23.1	0.00e+00	0	41	0	1156579328	52	6418
2026-01-23 14:05:38.20	166.82	20.75	-40.3	-41.3	22.9	0.00e+00	0	41	0	1158676480	52	6623
2026-01-23 14:05:39.21	166.93	20.63	-40.5	-41.5	22.5	0.00e+00	0	41	0	1160773632	52	6833
2026-01-23 14:05:40.22	167.05	20.51	-41.1	-42.2	22.0	0.00e+00	0	41	0	1162870784	54	6556
2026-01-23 14:05:41.23	167.15	20.39	-41.2	-42.3	21.9	0.00e+00	92	41	0	1164967936	54	6678
2026-01-23 14:05:42.24	167.26	20.27	-41.6	-42.8	21.5	0.00e+00	0	41	0	1166016512	54	7027
2026-01-23 14:05:43.25	167.37	20.14	-41.8	-43.0	21.3	0.00e+00	92	41	0	1168113664	54	7228
2026-01-23 14:05:44.26	167.48	20.02	-41.7	-42.9	21.5	0.00e+00	0	41	0	1170210816	56	6330
2026-01-23 14:05:45.27	167.59	19.90	-42.2	-43.5	20.9	0.00e+00	0	41	0	1172307968	56	6774
2026-01-23 14:05:46.28	167.69	19.78	-41.7	-42.8	21.4	0.00e+00	0	41	0	1174405120	56	6315
2026-01-23 14:05:47.29	167.80	19.67	-41.4	-42.5	21.7	0.00e+00	0	41	0	1175453696	56	6103
2026-01-23 14:05:48.30	167.90	19.55	-41.1	-42.2	22.0	0.00e+00	45	41	0	1177550848	56	5835
2026-01-23 14:05:49.31	168.00	19.43	-40.6	-41.6	22.6	0.00e+00	0	41	0	1179648000	54	6127
2026-01-23 14:05:50.32	168.11	19.31	-40.5	-41.5	22.5	0.00e+00	92	41	0	1181745152	54	6102
2026-01-23 14:05:51.33	168.21	19.19	-40.3	-41.2	22.8	0.00e+00	0	41	0	1183842304	54	5892
2026-01-23 14:05:52.34	168.31	19.08	-39.9	-40.8	23.2	0.00e+00	0	41	0	1184890880	54	5612
2026-01-23 14:05:53.34	168.41	18.96	-39.8	-40.8	23.1	0.00e+00	0	41	0	1186988032	54	5587
2026-01-23 14:05:54.35	168.51	18.85	-39.8	-40.7	23.2	0.00e+00	0	41	0	1189085184	52	6190
2026-01-23 14:05:55.36	168.61	18.73	-39.6	-40.5	23.2	0.00e+00	75	41	0	1191182336	52	6096
2026-01-23 14:05:56.37	168.71	18.62	-39.7	-40.6	23.2	0.00e+00	0	41	0	1193279488	52	6139
2026-01-23 14:05:57.38	168.80	18.50	-39.7	-40.6	23.3	0.00e+00	92	41	0	1195376640	52	6131
2026-01-23 14:05:58.39	168.90	18.39	-39.9	-40.9	23.0	0.00e+00	0	41	0	1196425216	52	6330
2026-01-23 14:05:59.40	169.00	18.27	-40.0	-41.0	22.9	0.00e+00	0	41	0	1198522368	52	6402
2026-01-23 14:06:00.41	169.09	18.16	-40.1	-41.1	22.9	0.00e+00	0	42	0	1200619520	52	6473
2026-01-23 14:06:01.42	169.19	18.05	-40.3	-41.3	22.7	0.00e+00	0	41	0	1202716672	52	6620
2026-01-23 14:06:02.43	169.28	17.94	-40.4	-41.4	22.7	0.00e+00	12	41	0	1204813824	52	6696
2026-01-23 14:06:03.44	169.37	17.82	-40.4	-41.4	22.7	0.00e+00	0	41	0	1205862400	52	6716
2026-01-23 14:06:04.45	169.47	17.71	-40.3	-41.2	22.7	0.00e+00	91	41	0	1207959552	52	6615
2026-01-23 14:06:05.46	169.56	17.60	-40.3	-41.3	22.8	0.00e+00	0	41	0	1210056704	52	6664
2026-01-23 14:06:06.47	169.65	17.49	-40.2	-41.2	22.7	0.00e+00	0	41	0	1212153856	52	6580
2026-01-23 14:06:07.48	169.74	17.38	-40.2	-41.2	22.8	0.00e+00	0	41	0	1214251008	52	6544
