passes_logs/2026/01/23/R4.6S_Anadyr/R4.6S_Anadyr__20260123_150511_NOAA_21_JPSS-2_rec.log

#Pass ID: 20260123_150511_NOAA 21 (JPSS-2)
#Satellite: NOAA 21 (JPSS-2)
#Configuration: NOAA-21
#almurnet v.1.7.20251203
#Start time: 2026-01-23 15:05:12

#Version: 2.2.20231116
#Station: R4.6S_Anadyr
#Location: 177.4865 lon 64.73178 lat
#TLE: 1 54234U 22150A   26022.41365820  .00000211  00000+0  12084-3 0  9990
#TLE: 2 54234  98.7507 323.2240 0000658 234.5287 125.5828 14.19537645165864

#Time	Az	El	Level	Level2	SNR	BER	BlckErr	Temp	State	Recorded	gain1	gain2
2026-01-23 15:05:12.17	21.31	0.06	-51.0	-65.9	3.5	1.51e+00	0	38	0	0	60	70996
2026-01-23 15:05:13.18	21.31	0.12	-51.0	-63.8	3.5	1.52e+00	0	39	104	0	60	54447
2026-01-23 15:05:14.19	21.30	0.18	-51.0	-63.9	3.5	1.52e+00	0	39	104	0	60	54713
2026-01-23 15:05:15.20	21.30	0.24	-51.0	-63.9	3.5	1.52e+00	0	39	104	0	60	54853
2026-01-23 15:05:16.21	21.29	0.30	-51.0	-63.9	3.5	1.52e+00	0	39	104	0	60	55059
2026-01-23 15:05:17.22	21.28	0.36	-51.0	-63.9	3.5	1.52e+00	0	39	104	0	60	55124
2026-01-23 15:05:18.23	21.28	0.42	-51.1	-63.9	3.5	1.52e+00	0	39	104	0	60	54780
2026-01-23 15:05:19.24	21.27	0.48	-51.0	-63.9	3.5	1.52e+00	0	40	104	0	60	55062
2026-01-23 15:05:20.25	21.27	0.54	-51.1	-63.9	3.5	1.52e+00	0	40	104	0	60	54949
2026-01-23 15:05:21.26	21.26	0.60	-51.0	-63.9	3.5	1.52e+00	0	40	104	0	60	55216
2026-01-23 15:05:22.27	21.25	0.66	-51.0	-63.9	3.5	1.51e+00	0	40	104	0	60	55094
2026-01-23 15:05:23.28	21.25	0.73	-51.0	-63.9	3.5	1.52e+00	0	40	104	0	60	54854
2026-01-23 15:05:24.29	21.24	0.79	-51.0	-63.9	3.5	1.52e+00	0	40	104	0	60	54916
2026-01-23 15:05:25.30	21.24	0.85	-51.0	-63.8	3.5	1.51e+00	0	40	104	0	60	54477
2026-01-23 15:05:26.31	21.23	0.91	-50.9	-63.7	3.5	1.52e+00	0	40	104	0	60	54012
2026-01-23 15:05:27.32	21.22	0.97	-50.8	-63.7	3.5	1.52e+00	0	40	104	0	60	53658
2026-01-23 15:05:28.33	21.22	1.03	-50.8	-63.6	3.5	1.52e+00	0	40	104	0	60	53287
2026-01-23 15:05:29.34	21.21	1.10	-50.6	-63.5	3.5	1.52e+00	0	40	104	0	60	52419
2026-01-23 15:05:30.35	21.20	1.16	-50.5	-63.4	3.5	1.52e+00	0	40	104	0	60	51724
2026-01-23 15:05:31.36	21.20	1.22	-50.4	-63.2	3.5	1.52e+00	0	40	104	0	60	50955
2026-01-23 15:05:32.37	21.19	1.28	-50.3	-63.2	3.5	1.52e+00	0	40	104	0	60	50647
2026-01-23 15:05:33.38	21.18	1.35	-50.1	-63.0	3.5	1.52e+00	0	40	104	0	60	49509
2026-01-23 15:05:34.39	21.18	1.41	-50.0	-62.8	3.5	1.52e+00	0	40	104	0	60	48395
2026-01-23 15:05:35.40	21.17	1.47	-49.7	-62.5	3.5	1.52e+00	0	40	104	0	60	47004
2026-01-23 15:05:36.41	21.16	1.54	-49.6	-62.0	3.5	1.52e+00	0	40	104	0	60	44220
2026-01-23 15:05:37.42	21.16	1.60	-49.6	-62.0	3.5	1.52e+00	0	40	104	0	60	44098
2026-01-23 15:05:38.43	21.15	1.66	-49.6	-61.8	3.5	1.52e+00	0	40	104	0	60	43200
2026-01-23 15:05:39.44	21.14	1.73	-49.6	-61.9	3.5	1.52e+00	0	40	104	0	60	43779
2026-01-23 15:05:40.44	21.14	1.79	-49.6	-62.0	3.5	1.51e+00	0	40	104	0	60	44083
2026-01-23 15:05:41.45	21.13	1.85	-49.6	-62.1	3.5	1.52e+00	0	40	104	0	60	44587
2026-01-23 15:05:42.46	21.12	1.92	-49.6	-62.2	3.5	1.52e+00	0	40	104	0	60	45371
2026-01-23 15:05:43.47	21.11	1.98	-49.6	-62.4	3.5	1.52e+00	0	40	104	0	60	46379
2026-01-23 15:05:44.48	21.11	2.05	-49.6	-62.5	3.5	1.52e+00	0	40	104	0	60	46608
2026-01-23 15:05:45.49	21.10	2.11	-49.6	-62.5	3.5	1.52e+00	0	40	104	0	60	46677
2026-01-23 15:05:46.50	21.09	2.18	-49.6	-62.4	3.5	1.52e+00	0	40	104	0	60	46477
2026-01-23 15:05:47.51	21.09	2.24	-49.6	-62.4	3.5	1.52e+00	0	40	104	0	60	46226
2026-01-23 15:05:48.51	21.08	2.30	-49.6	-62.3	3.5	1.52e+00	0	40	104	0	60	45495
2026-01-23 15:05:49.52	21.07	2.37	-49.6	-62.2	3.5	1.52e+00	0	40	104	0	60	44959
2026-01-23 15:05:50.53	21.06	2.43	-49.6	-61.8	3.5	1.52e+00	0	40	104	0	60	42975
2026-01-23 15:05:51.54	21.06	2.50	-49.5	-61.6	3.5	1.51e+00	0	40	104	0	60	42073
2026-01-23 15:05:52.55	21.05	2.57	-49.5	-61.2	3.5	1.51e+00	0	40	104	0	60	40241
2026-01-23 15:05:53.56	21.04	2.63	-49.5	-61.0	3.5	1.51e+00	0	40	104	0	60	39333
2026-01-23 15:05:54.57	21.03	2.70	-49.5	-61.1	3.5	1.51e+00	0	40	104	0	60	39645
2026-01-23 15:05:55.58	21.03	2.76	-49.5	-60.9	3.5	1.51e+00	0	40	104	0	60	39102
2026-01-23 15:05:56.59	21.02	2.83	-49.5	-61.6	3.5	1.52e+00	0	40	104	0	60	42184
2026-01-23 15:05:57.60	21.01	2.90	-49.6	-62.0	3.5	1.52e+00	0	40	104	0	60	44283
2026-01-23 15:05:58.61	21.00	2.96	-49.6	-62.4	3.5	1.52e+00	0	40	104	0	60	46062
2026-01-23 15:05:59.62	20.99	3.03	-49.6	-61.8	3.5	1.52e+00	0	40	104	0	60	43082
2026-01-23 15:06:00.63	20.99	3.10	-49.4	-60.5	3.6	1.51e+00	0	40	104	0	60	37157
2026-01-23 15:06:01.64	20.98	3.16	-49.2	-58.7	4.3	1.47e+00	0	40	104	0	60	30242
2026-01-23 15:06:02.65	20.97	3.23	-48.9	-56.8	5.3	5.76e-01	123	40	0	0	60	24295
2026-01-23 15:06:03.66	20.96	3.30	-48.6	-55.4	6.7	2.43e-01	122	40	104	0	60	20645
2026-01-23 15:06:04.67	20.95	3.36	-48.3	-53.5	7.5	1.35e-01	120	40	0	2097152	60	16596
2026-01-23 15:06:05.68	20.94	3.43	-47.9	-52.5	8.8	4.45e-02	122	40	0	5242880	60	14774
2026-01-23 15:06:06.69	20.94	3.50	-47.7	-52.0	9.2	3.43e-02	122	40	0	8388608	60	14050
2026-01-23 15:06:07.71	20.93	3.57	-47.9	-52.5	8.7	2.67e-02	123	40	0	11534336	60	14771
2026-01-23 15:06:08.72	20.92	3.64	-47.9	-52.4	8.9	2.75e-02	122	41	0	14680064	60	14609
2026-01-23 15:06:09.73	20.91	3.70	-48.1	-52.9	8.1	5.06e-02	123	40	0	17825792	60	15510
2026-01-23 15:06:10.73	20.90	3.77	-49.6	-62.1	3.5	1.53e+00	0	40	104	19922944	60	44743
2026-01-23 15:06:11.74	20.89	3.84	-43.3	-45.3	17.1	4.10e-01	123	40	104	19922944	60	6478
2026-01-23 15:06:12.75	20.88	3.91	-49.6	-61.4	3.5	8.99e-04	0	40	104	20971520	60	41325
2026-01-23 15:06:13.76	20.88	3.98	-45.8	-48.5	13.4	1.06e+00	120	40	0	20971520	60	9302
2026-01-23 15:06:14.77	20.87	4.05	-46.1	-49.1	10.9	0.00e+00	123	41	0	24117248	60	9988
2026-01-23 15:06:15.78	20.86	4.12	-44.5	-46.9	15.2	2.19e-02	120	40	104	24117248	60	7782
2026-01-23 15:06:16.79	20.85	4.19	-41.9	-43.4	18.2	0.00e+00	123	40	0	26214400	58	5804
2026-01-23 15:06:17.79	20.84	4.25	-41.8	-43.3	18.7	0.00e+00	120	40	0	29360128	58	5735
2026-01-23 15:06:18.80	20.83	4.32	-41.2	-42.5	19.1	0.00e+00	122	40	0	32505856	56	5923
2026-01-23 15:06:19.81	20.82	4.39	-40.4	-41.7	19.8	0.00e+00	120	40	0	35651584	54	6009
2026-01-23 15:06:20.82	20.81	4.46	-40.5	-41.7	20.0	0.00e+00	123	40	0	38797312	54	6015
2026-01-23 15:06:21.83	20.80	4.53	-40.6	-41.8	19.8	0.00e+00	120	41	0	41943040	54	6132
2026-01-23 15:06:22.84	20.79	4.61	-40.3	-41.5	20.2	0.00e+00	123	40	0	45088768	54	5924
2026-01-23 15:06:23.85	20.78	4.68	-40.6	-41.9	19.9	0.00e+00	121	40	0	48234496	54	6180
2026-01-23 15:06:24.86	20.77	4.75	-40.0	-41.2	20.5	0.00e+00	122	41	0	51380224	54	5672
2026-01-23 15:06:25.87	20.77	4.82	-39.9	-41.0	20.4	0.00e+00	120	40	0	54525952	54	5590
2026-01-23 15:06:26.88	20.76	4.89	-40.2	-41.4	20.3	0.00e+00	122	40	0	57671680	54	5811
2026-01-23 15:06:27.90	20.75	4.96	-40.1	-41.3	20.4	0.00e+00	123	41	0	60817408	54	5745
2026-01-23 15:06:28.91	20.74	5.03	-40.2	-41.3	20.3	0.00e+00	122	40	0	63963136	54	5780
2026-01-23 15:06:29.91	20.73	5.10	-40.0	-41.1	20.6	0.00e+00	122	40	0	67108864	54	5656
2026-01-23 15:06:30.92	20.72	5.18	-40.3	-41.5	20.3	0.00e+00	120	41	0	70254592	54	5861
2026-01-23 15:06:31.93	20.71	5.25	-40.3	-41.5	20.2	0.00e+00	122	40	0	73400320	54	5872
2026-01-23 15:06:32.94	20.70	5.32	-40.2	-41.4	20.4	0.00e+00	123	41	0	76546048	54	5813
2026-01-23 15:06:33.95	20.69	5.39	-40.0	-41.1	20.7	0.00e+00	122	41	0	79691776	54	5640
2026-01-23 15:06:34.96	20.68	5.47	-39.9	-41.1	20.7	0.00e+00	121	40	0	82837504	54	5618
2026-01-23 15:06:35.97	20.67	5.54	-39.9	-41.0	20.8	0.00e+00	122	41	0	85983232	54	5569
2026-01-23 15:06:36.98	20.65	5.61	-39.7	-40.8	20.9	0.00e+00	120	41	0	89128960	52	6117
2026-01-23 15:06:37.99	20.64	5.69	-39.4	-40.5	21.3	0.00e+00	122	41	0	92274688	52	5889
2026-01-23 15:06:39.00	20.63	5.76	-40.0	-41.1	20.8	0.00e+00	123	41	0	95420416	52	6317
2026-01-23 15:06:40.01	20.62	5.83	-40.1	-41.2	20.7	0.00e+00	122	41	0	98566144	52	6400
2026-01-23 15:06:41.02	20.61	5.91	-39.9	-41.0	20.8	0.00e+00	122	40	0	101711872	52	6276
2026-01-23 15:06:42.03	20.60	5.98	-39.7	-40.8	21.1	0.00e+00	120	41	0	104857600	52	6111
2026-01-23 15:06:43.04	20.59	6.06	-40.1	-41.3	20.5	0.00e+00	123	41	0	108003328	52	6435
2026-01-23 15:06:44.05	20.58	6.13	-39.8	-40.9	20.9	0.00e+00	122	41	0	111149056	52	6194
2026-01-23 15:06:45.06	20.57	6.21	-39.6	-40.7	21.1	0.00e+00	120	41	0	114294784	52	6043
2026-01-23 15:06:46.07	20.56	6.28	-39.7	-40.8	21.1	0.00e+00	122	41	0	117440512	52	6078
2026-01-23 15:06:47.08	20.55	6.36	-39.6	-40.7	21.2	0.00e+00	120	41	0	120586240	52	6003
2026-01-23 15:06:48.09	20.54	6.43	-39.4	-40.5	21.3	0.00e+00	122	41	0	123731968	52	5872
2026-01-23 15:06:49.10	20.52	6.51	-39.4	-40.5	21.3	0.00e+00	122	41	0	126877696	52	5875
2026-01-23 15:06:50.11	20.51	6.58	-39.5	-40.6	21.3	0.00e+00	121	41	0	130023424	52	5946
2026-01-23 15:06:51.12	20.50	6.66	-39.4	-40.5	21.4	0.00e+00	123	41	0	133169152	52	5891
2026-01-23 15:06:52.13	20.49	6.74	-39.3	-40.4	21.5	0.00e+00	120	41	0	136314880	52	5793
2026-01-23 15:06:53.14	20.48	6.81	-39.1	-40.2	21.7	0.00e+00	123	41	0	139460608	52	5694
2026-01-23 15:06:54.15	20.47	6.89	-39.3	-40.4	21.5	0.00e+00	123	41	0	142606336	52	5804
2026-01-23 15:06:55.16	20.45	6.97	-39.2	-40.3	21.6	0.00e+00	123	41	0	145752064	52	5771
2026-01-23 15:06:56.17	20.44	7.04	-39.3	-40.4	21.5	0.00e+00	123	41	0	148897792	52	5830
2026-01-23 15:06:57.18	20.43	7.12	-39.3	-40.3	21.4	0.00e+00	123	41	0	152043520	52	5791
2026-01-23 15:06:58.19	20.42	7.20	-39.0	-40.1	21.8	0.00e+00	122	41	0	155189248	52	5624
2026-01-23 15:06:59.19	20.41	7.28	-39.1	-40.2	21.7	0.00e+00	123	41	0	158334976	52	5686
2026-01-23 15:07:00.21	20.39	7.35	-39.0	-40.0	21.8	0.00e+00	123	41	0	161480704	52	5570
2026-01-23 15:07:01.21	20.38	7.43	-39.1	-40.1	21.7	0.00e+00	122	41	0	164626432	52	5639
2026-01-23 15:07:02.23	20.37	7.51	-39.0	-40.1	21.8	0.00e+00	123	41	0	167772160	52	5601
2026-01-23 15:07:03.24	20.36	7.59	-39.0	-40.0	21.8	0.00e+00	123	41	0	170917888	52	5574
2026-01-23 15:07:04.25	20.34	7.67	-39.1	-40.1	21.8	0.00e+00	122	41	0	174063616	52	5650
2026-01-23 15:07:05.26	20.33	7.75	-38.9	-39.9	22.0	0.00e+00	123	41	0	177209344	52	5525
2026-01-23 15:07:06.26	20.32	7.83	-38.8	-39.9	22.1	0.00e+00	123	41	0	180355072	52	5484
2026-01-23 15:07:07.28	20.31	7.91	-38.7	-39.8	22.0	0.00e+00	123	41	0	183500800	50	6075
2026-01-23 15:07:08.28	20.29	7.99	-39.0	-40.0	21.9	0.00e+00	120	41	0	186646528	50	6267
2026-01-23 15:07:09.29	20.28	8.07	-38.8	-39.8	22.1	0.00e+00	123	41	0	189792256	50	6113
2026-01-23 15:07:10.30	20.27	8.15	-38.7	-39.8	22.1	0.00e+00	123	41	0	192937984	50	6071
2026-01-23 15:07:11.31	20.25	8.23	-38.7	-39.8	22.1	0.00e+00	123	41	0	196083712	50	6069
2026-01-23 15:07:12.32	20.24	8.31	-39.0	-40.0	21.8	0.00e+00	122	41	0	199229440	50	6246
2026-01-23 15:07:13.33	20.23	8.39	-38.7	-39.8	22.2	0.00e+00	123	41	0	202375168	50	6076
2026-01-23 15:07:14.34	20.21	8.48	-38.6	-39.7	22.2	0.00e+00	123	41	0	205520896	50	5998
2026-01-23 15:07:15.35	20.20	8.56	-38.5	-39.6	22.3	0.00e+00	123	41	0	208666624	50	5931
2026-01-23 15:07:16.36	20.19	8.64	-38.7	-39.7	22.2	0.00e+00	123	41	0	211812352	50	6051
2026-01-23 15:07:17.37	20.17	8.72	-38.4	-39.5	22.5	0.00e+00	123	41	0	214958080	50	5859
2026-01-23 15:07:18.37	20.16	8.80	-38.6	-39.6	22.4	0.00e+00	123	41	0	218103808	50	5950
2026-01-23 15:07:19.39	20.14	8.89	-38.5	-39.5	22.4	0.00e+00	123	41	0	222298112	50	5924
2026-01-23 15:07:20.40	20.13	8.97	-38.4	-39.4	22.5	0.00e+00	122	41	0	225443840	50	5854
2026-01-23 15:07:21.41	20.12	9.06	-38.5	-39.5	22.5	0.00e+00	123	41	0	227540992	50	5874
2026-01-23 15:07:22.42	20.10	9.14	-38.2	-39.2	22.7	0.00e+00	123	41	0	230686720	50	5695
2026-01-23 15:07:23.43	20.09	9.22	-38.4	-39.4	22.5	0.00e+00	122	41	0	233832448	50	5815
2026-01-23 15:07:24.44	20.07	9.31	-38.4	-39.4	22.4	0.00e+00	123	41	0	238026752	50	5854
2026-01-23 15:07:25.45	20.06	9.39	-38.3	-39.2	22.6	0.00e+00	120	41	0	241172480	50	5719
2026-01-23 15:07:26.46	20.04	9.48	-38.2	-39.2	22.7	0.00e+00	123	41	0	244318208	50	5660
2026-01-23 15:07:27.47	20.03	9.56	-38.4	-39.4	22.5	0.00e+00	122	41	0	247463936	50	5838
2026-01-23 15:07:28.48	20.01	9.65	-38.3	-39.3	22.6	0.00e+00	123	41	0	250609664	50	5754
2026-01-23 15:07:29.49	20.00	9.73	-38.2	-39.2	22.7	0.00e+00	123	41	0	253755392	50	5707
2026-01-23 15:07:30.50	19.98	9.82	-38.1	-39.1	22.7	0.00e+00	123	41	0	256901120	50	5644
2026-01-23 15:07:31.51	19.97	9.91	-38.2	-39.2	22.8	0.00e+00	122	41	0	260046848	50	5696
2026-01-23 15:07:32.52	19.95	9.99	-38.1	-39.1	22.8	0.00e+00	123	41	0	263192576	50	5655
2026-01-23 15:07:33.53	19.94	10.08	-38.0	-39.0	22.9	0.00e+00	123	41	0	266338304	50	5566
2026-01-23 15:07:34.54	19.92	10.17	-38.1	-39.1	22.8	0.00e+00	120	41	0	269484032	50	5602
2026-01-23 15:07:35.55	19.90	10.26	-37.9	-38.9	22.9	0.00e+00	123	41	0	272629760	50	5513
2026-01-23 15:07:36.56	19.89	10.34	-38.0	-38.9	22.9	0.00e+00	120	41	0	275775488	50	5529
2026-01-23 15:07:37.57	19.87	10.43	-38.1	-39.1	22.8	0.00e+00	123	41	0	278921216	50	5613
2026-01-23 15:07:38.58	19.86	10.52	-37.7	-38.7	23.2	0.00e+00	123	41	0	282066944	50	5352
2026-01-23 15:07:39.59	19.84	10.61	-37.8	-38.8	23.0	0.00e+00	120	41	0	285212672	48	6085
2026-01-23 15:07:40.60	19.82	10.70	-37.8	-38.8	23.0	0.00e+00	123	41	0	288358400	48	6085
2026-01-23 15:07:41.61	19.81	10.79	-37.7	-38.6	23.1	0.00e+00	123	41	0	291504128	48	5993
2026-01-23 15:07:42.62	19.79	10.88	-37.8	-38.8	23.0	0.00e+00	123	41	0	294649856	48	6104
2026-01-23 15:07:43.63	19.77	10.97	-38.0	-38.9	22.8	0.00e+00	120	41	0	297795584	48	6196
2026-01-23 15:07:44.64	19.76	11.06	-37.7	-38.7	23.2	0.00e+00	123	41	0	300941312	48	6029
2026-01-23 15:07:45.65	19.74	11.15	-37.8	-38.7	23.0	0.00e+00	123	41	0	304087040	48	6057
2026-01-23 15:07:46.66	19.72	11.24	-38.0	-39.0	22.9	0.00e+00	123	41	0	307232768	48	6253
2026-01-23 15:07:47.67	19.70	11.33	-37.8	-38.7	23.2	0.00e+00	120	41	0	310378496	48	6048
2026-01-23 15:07:48.68	19.69	11.43	-37.6	-38.6	23.3	0.00e+00	123	41	0	313524224	48	5945
2026-01-23 15:07:49.69	19.67	11.52	-37.6	-38.6	23.2	0.00e+00	120	41	0	316669952	48	5928
2026-01-23 15:07:50.70	19.65	11.61	-37.6	-38.5	23.2	0.00e+00	123	41	0	319815680	48	5921
2026-01-23 15:07:51.71	19.63	11.70	-37.5	-38.5	23.3	0.00e+00	122	41	0	322961408	48	5891
2026-01-23 15:07:52.72	19.61	11.80	-37.4	-38.3	23.4	0.00e+00	120	41	0	326107136	48	5776
2026-01-23 15:07:53.72	19.60	11.89	-37.4	-38.4	23.4	0.00e+00	122	41	0	329252864	48	5821
2026-01-23 15:07:54.73	19.58	11.98	-37.5	-38.5	23.3	0.00e+00	123	41	0	332398592	48	5886
2026-01-23 15:07:55.74	19.56	12.08	-37.4	-38.3	23.5	0.00e+00	124	41	0	335544320	48	5773
2026-01-23 15:07:56.75	19.54	12.17	-37.5	-38.4	23.4	0.00e+00	122	41	0	338690048	48	5829
2026-01-23 15:07:57.76	19.52	12.27	-37.4	-38.3	23.5	0.00e+00	123	41	0	341835776	48	5764
2026-01-23 15:07:58.78	19.50	12.37	-37.5	-38.4	23.5	0.00e+00	123	41	0	344981504	48	5816
2026-01-23 15:07:59.79	19.48	12.46	-37.3	-38.2	23.6	0.00e+00	120	41	0	348127232	48	5700
2026-01-23 15:08:00.80	19.46	12.56	-37.5	-38.5	23.4	0.00e+00	122	41	0	351272960	48	5888
2026-01-23 15:08:01.81	19.45	12.65	-37.2	-38.1	23.6	0.00e+00	120	41	0	354418688	48	5643
2026-01-23 15:08:02.82	19.43	12.75	-37.1	-38.0	23.7	0.00e+00	123	41	0	357564416	48	5586
2026-01-23 15:08:03.83	19.41	12.85	-37.2	-38.2	23.7	0.00e+00	122	41	0	360710144	48	5665
2026-01-23 15:08:04.84	19.39	12.95	-37.2	-38.1	23.7	0.00e+00	123	41	0	363855872	48	5648
2026-01-23 15:08:05.85	19.37	13.04	-37.2	-38.2	23.6	0.00e+00	123	41	0	367001600	48	5675
2026-01-23 15:08:06.86	19.35	13.14	-37.2	-38.1	23.7	0.00e+00	122	41	0	370147328	48	5622
2026-01-23 15:08:07.87	19.33	13.24	-37.2	-38.1	23.6	0.00e+00	122	41	0	373293056	48	5648
2026-01-23 15:08:08.88	19.31	13.34	-37.3	-38.2	23.5	0.00e+00	122	41	0	376438784	48	5698
2026-01-23 15:08:09.89	19.28	13.44	-37.1	-38.1	23.6	0.00e+00	122	41	0	379584512	48	5602
2026-01-23 15:08:10.90	19.26	13.54	-37.2	-38.1	23.6	0.00e+00	122	41	0	382730240	48	5648
2026-01-23 15:08:11.91	19.24	13.64	-37.1	-38.0	23.8	0.00e+00	123	41	0	385875968	48	5551
2026-01-23 15:08:12.92	19.22	13.74	-37.1	-38.0	23.8	0.00e+00	122	41	0	389021696	48	5548
2026-01-23 15:08:13.93	19.20	13.84	-37.2	-38.1	23.6	0.00e+00	122	41	0	392167424	48	5657
2026-01-23 15:08:14.94	19.18	13.95	-37.1	-38.1	23.8	0.00e+00	123	41	0	395313152	48	5605
2026-01-23 15:08:15.95	19.16	14.05	-37.2	-38.1	23.6	0.00e+00	123	41	0	398458880	48	5641
2026-01-23 15:08:16.96	19.13	14.15	-37.6	-38.5	23.5	0.00e+00	123	41	0	401604608	48	5913
2026-01-23 15:08:17.97	19.11	14.25	-37.5	-38.4	23.6	0.00e+00	122	41	0	404750336	48	5818
2026-01-23 15:08:18.98	19.09	14.36	-37.5	-38.4	23.7	0.00e+00	120	41	0	407896064	48	5843
2026-01-23 15:08:19.99	19.07	14.46	-37.5	-38.4	23.4	0.00e+00	123	41	0	411041792	48	5821
2026-01-23 15:08:21.00	19.04	14.57	-37.2	-38.2	23.7	0.00e+00	121	41	0	414187520	48	5684
2026-01-23 15:08:22.01	19.02	14.67	-36.9	-37.8	24.0	0.00e+00	123	41	0	417333248	48	5457
2026-01-23 15:08:23.02	19.00	14.78	-37.0	-37.9	23.9	0.00e+00	122	41	0	420478976	48	5515
2026-01-23 15:08:24.03	18.98	14.88	-37.1	-38.0	23.8	0.00e+00	123	41	0	423624704	48	5579
2026-01-23 15:08:25.04	18.95	14.99	-37.1	-38.1	23.8	0.00e+00	122	41	0	426770432	48	5601
2026-01-23 15:08:26.05	18.93	15.10	-37.1	-38.0	23.8	0.00e+00	123	41	0	429916160	48	5571
2026-01-23 15:08:27.06	18.90	15.20	-37.0	-37.9	23.8	0.00e+00	120	41	0	433061888	48	5520
2026-01-23 15:08:28.07	18.88	15.31	-37.1	-38.0	23.8	0.00e+00	123	41	0	436207616	48	5553
2026-01-23 15:08:29.08	18.86	15.42	-37.2	-38.1	23.8	0.00e+00	120	41	0	439353344	48	5619
2026-01-23 15:08:30.09	18.83	15.53	-37.1	-38.0	23.8	0.00e+00	122	41	0	442499072	48	5587
2026-01-23 15:08:31.10	18.81	15.64	-37.2	-38.1	23.7	0.00e+00	123	41	0	445644800	48	5654
2026-01-23 15:08:32.11	18.78	15.75	-37.1	-38.0	23.8	0.00e+00	123	41	0	448790528	48	5594
2026-01-23 15:08:33.12	18.76	15.86	-37.1	-38.1	23.8	0.00e+00	120	41	0	451936256	48	5599
2026-01-23 15:08:34.13	18.73	15.97	-37.2	-38.2	23.7	0.00e+00	123	41	0	455081984	48	5662
2026-01-23 15:08:35.14	18.71	16.08	-37.3	-38.2	23.7	0.00e+00	123	41	0	458227712	48	5696
2026-01-23 15:08:36.15	18.68	16.19	-37.3	-38.2	23.7	0.00e+00	123	41	0	461373440	48	5691
2026-01-23 15:08:37.16	18.65	16.30	-37.2	-38.1	23.7	0.00e+00	123	41	0	464519168	48	5655
2026-01-23 15:08:38.17	18.63	16.41	-37.3	-38.2	23.7	0.00e+00	121	41	0	467664896	48	5677
2026-01-23 15:08:39.18	18.60	16.53	-37.2	-38.2	23.7	0.00e+00	122	41	0	470810624	48	5662
2026-01-23 15:08:40.19	18.58	16.64	-37.5	-38.4	23.5	0.00e+00	121	41	0	473956352	48	5835
2026-01-23 15:08:41.20	18.55	16.75	-37.4	-38.4	23.5	0.00e+00	122	41	0	477102080	48	5827
2026-01-23 15:08:42.21	18.52	16.87	-37.5	-38.5	23.5	0.00e+00	120	41	0	480247808	48	5863
2026-01-23 15:08:43.22	18.49	16.98	-37.6	-38.5	23.5	0.00e+00	123	41	0	483393536	48	5906
2026-01-23 15:08:44.23	18.47	17.10	-37.8	-38.8	23.3	0.00e+00	123	41	0	486539264	48	6087
2026-01-23 15:08:45.24	18.44	17.22	-37.7	-38.7	23.2	0.00e+00	122	41	0	489684992	48	6038
2026-01-23 15:08:46.24	18.41	17.33	-37.7	-38.7	23.5	0.00e+00	123	41	0	492830720	48	6009
2026-01-23 15:08:47.26	18.38	17.45	-37.4	-38.4	23.6	0.00e+00	123	41	0	495976448	48	5813
2026-01-23 15:08:48.27	18.35	17.57	-37.6	-38.5	23.4	0.00e+00	123	41	0	499122176	48	5907
2026-01-23 15:08:49.28	18.32	17.69	-37.5	-38.4	23.5	0.00e+00	122	41	0	502267904	48	5830
2026-01-23 15:08:50.29	18.30	17.81	-37.6	-38.5	23.5	0.00e+00	122	41	0	505413632	48	5909
2026-01-23 15:08:51.30	18.27	17.92	-37.7	-38.6	23.4	0.00e+00	123	41	0	508559360	48	5980
2026-01-23 15:08:52.31	18.24	18.05	-37.7	-38.7	23.3	0.00e+00	120	41	0	511705088	48	6034
2026-01-23 15:08:53.32	18.21	18.17	-37.8	-38.8	23.5	0.00e+00	123	41	0	514850816	48	6087
2026-01-23 15:08:54.33	18.18	18.29	-37.4	-38.4	23.6	0.00e+00	123	41	0	517996544	48	5798
2026-01-23 15:08:55.34	18.15	18.41	-37.5	-38.5	23.4	0.00e+00	123	41	0	521142272	48	5872
2026-01-23 15:08:56.34	18.12	18.53	-37.6	-38.6	23.5	0.00e+00	120	41	0	524288000	48	5937
2026-01-23 15:08:57.35	18.08	18.65	-37.4	-38.3	23.6	0.00e+00	123	41	0	527433728	48	5747
2026-01-23 15:08:58.36	18.05	18.78	-37.4	-38.3	23.6	0.00e+00	123	41	0	530579456	48	5779
2026-01-23 15:08:59.37	18.02	18.90	-37.3	-38.2	23.7	0.00e+00	122	41	0	533725184	48	5720
2026-01-23 15:09:00.39	17.99	19.03	-37.3	-38.2	23.6	0.00e+00	122	41	0	537919488	48	5718
2026-01-23 15:09:01.40	17.96	19.15	-37.4	-38.3	23.6	0.00e+00	122	41	0	541065216	48	5756
2026-01-23 15:09:02.41	17.92	19.28	-37.3	-38.2	23.7	0.00e+00	122	41	0	544210944	48	5706
2026-01-23 15:09:03.42	17.89	19.41	-37.3	-38.3	23.7	0.00e+00	123	41	0	546308096	48	5727
2026-01-23 15:09:04.42	17.86	19.53	-37.2	-38.2	23.8	0.00e+00	123	41	0	549453824	48	5679
2026-01-23 15:09:05.43	17.83	19.66	-37.4	-38.4	23.6	0.00e+00	122	41	0	552599552	48	5826
2026-01-23 15:09:06.44	17.79	19.79	-37.2	-38.1	23.8	0.00e+00	123	41	0	556793856	48	5629
2026-01-23 15:09:07.45	17.76	19.92	-37.2	-38.1	23.7	0.00e+00	120	41	0	559939584	48	5645
2026-01-23 15:09:08.46	17.72	20.05	-37.1	-38.0	23.9	0.00e+00	123	41	0	563085312	48	5580
2026-01-23 15:09:09.48	17.69	20.18	-37.0	-37.9	23.9	0.00e+00	123	41	0	566231040	48	5525
2026-01-23 15:09:10.49	17.65	20.31	-37.1	-38.0	23.9	0.00e+00	122	41	0	569376768	48	5583
2026-01-23 15:09:11.50	17.62	20.44	-37.0	-37.9	24.0	0.00e+00	120	41	0	572522496	48	5521
2026-01-23 15:09:12.51	17.58	20.58	-36.8	-37.8	24.1	0.00e+00	122	41	0	575668224	48	5408
2026-01-23 15:09:13.52	17.55	20.71	-36.7	-37.6	24.2	0.00e+00	123	41	0	578813952	48	5338
2026-01-23 15:09:14.52	17.51	20.84	-36.8	-37.7	24.1	0.00e+00	120	41	0	581959680	46	6031
2026-01-23 15:09:15.53	17.47	20.98	-36.9	-37.8	24.1	0.00e+00	123	41	0	585105408	46	6090
2026-01-23 15:09:16.54	17.44	21.11	-36.7	-37.6	24.2	0.00e+00	123	41	0	588251136	46	5985
2026-01-23 15:09:17.55	17.40	21.25	-36.7	-37.7	24.2	0.00e+00	123	41	0	591396864	46	5996
2026-01-23 15:09:18.56	17.36	21.39	-36.7	-37.6	24.2	0.00e+00	122	41	0	594542592	46	5965
2026-01-23 15:09:19.57	17.32	21.53	-36.7	-37.6	24.2	0.00e+00	120	41	0	597688320	46	5983
2026-01-23 15:09:20.58	17.28	21.66	-36.6	-37.5	24.3	0.00e+00	123	41	0	600834048	46	5915
2026-01-23 15:09:21.59	17.25	21.80	-36.6	-37.5	24.3	0.00e+00	122	41	0	603979776	46	5901
2026-01-23 15:09:22.60	17.21	21.94	-36.5	-37.5	24.4	0.00e+00	123	41	0	607125504	46	5864
2026-01-23 15:09:23.61	17.17	22.08	-36.4	-37.3	24.5	0.00e+00	120	41	0	610271232	46	5766
2026-01-23 15:09:24.62	17.13	22.23	-36.3	-37.3	24.6	0.00e+00	122	41	0	613416960	46	5727
2026-01-23 15:09:25.63	17.09	22.37	-36.3	-37.3	24.5	0.00e+00	122	41	0	616562688	46	5726
2026-01-23 15:09:26.64	17.05	22.51	-36.2	-37.1	24.7	0.00e+00	122	41	0	619708416	46	5635
2026-01-23 15:09:27.65	17.00	22.66	-36.2	-37.1	24.7	0.00e+00	123	41	0	622854144	46	5612
2026-01-23 15:09:28.66	16.96	22.80	-36.1	-37.0	24.8	0.00e+00	122	41	0	625999872	46	5554
2026-01-23 15:09:29.67	16.92	22.95	-36.1	-36.9	24.8	0.00e+00	122	41	0	629145600	46	5528
2026-01-23 15:09:30.68	16.88	23.09	-36.1	-37.0	24.8	0.00e+00	123	41	0	632291328	46	5577
2026-01-23 15:09:31.68	16.83	23.24	-36.0	-36.8	24.8	0.00e+00	122	41	0	635437056	46	5466
2026-01-23 15:09:32.69	16.79	23.39	-36.0	-36.9	24.9	0.00e+00	123	41	0	638582784	46	5507
2026-01-23 15:09:33.70	16.75	23.54	-35.9	-36.8	25.0	0.00e+00	123	41	0	641728512	46	5414
2026-01-23 15:09:34.71	16.70	23.68	-35.8	-36.7	25.0	0.00e+00	123	41	0	644874240	46	5364
2026-01-23 15:09:35.72	16.66	23.84	-36.0	-36.8	24.9	0.00e+00	123	41	0	648019968	46	5465
2026-01-23 15:09:36.73	16.61	23.99	-35.8	-36.7	24.9	0.00e+00	123	41	0	651165696	46	5362
2026-01-23 15:09:37.74	16.57	24.14	-35.8	-36.7	25.0	0.00e+00	122	41	0	654311424	46	5390
2026-01-23 15:09:38.75	16.52	24.29	-36.0	-36.9	24.9	0.00e+00	123	41	0	657457152	46	5477
2026-01-23 15:09:39.76	16.47	24.45	-36.0	-36.9	24.9	0.00e+00	122	41	0	660602880	46	5494
2026-01-23 15:09:40.77	16.43	24.60	-36.0	-36.9	24.9	0.00e+00	123	41	0	663748608	46	5477
2026-01-23 15:09:41.78	16.38	24.76	-36.0	-36.8	24.9	0.00e+00	122	41	0	666894336	46	5464
2026-01-23 15:09:42.79	16.33	24.91	-36.1	-37.0	24.8	0.00e+00	123	41	0	670040064	46	5573
2026-01-23 15:09:43.80	16.28	25.07	-36.2	-37.0	24.8	0.00e+00	123	41	0	673185792	46	5593
2026-01-23 15:09:44.81	16.23	25.23	-36.2	-37.1	24.7	0.00e+00	122	41	0	676331520	46	5607
2026-01-23 15:09:45.82	16.18	25.39	-36.4	-37.3	24.5	0.00e+00	123	41	0	679477248	46	5747
2026-01-23 15:09:46.83	16.13	25.55	-36.4	-37.3	24.6	0.00e+00	123	41	0	682622976	46	5736
2026-01-23 15:09:47.84	16.08	25.71	-36.5	-37.4	24.5	0.00e+00	122	41	0	685768704	46	5840
2026-01-23 15:09:48.85	16.03	25.87	-36.6	-37.5	24.4	0.00e+00	122	41	0	688914432	46	5905
2026-01-23 15:09:49.86	15.98	26.04	-36.7	-37.7	24.3	0.00e+00	120	41	0	692060160	46	5998
2026-01-23 15:09:50.86	15.92	26.20	-36.9	-37.9	24.2	0.00e+00	123	41	0	695205888	46	6150
2026-01-23 15:09:51.87	15.87	26.36	-37.0	-37.9	24.2	0.00e+00	123	41	0	698351616	46	6153
2026-01-23 15:09:52.88	15.82	26.53	-37.2	-38.1	24.0	0.00e+00	123	41	0	701497344	46	6326
2026-01-23 15:09:53.89	15.76	26.70	-37.2	-38.1	24.0	0.00e+00	123	41	0	704643072	46	6315
2026-01-23 15:09:54.90	15.71	26.87	-37.3	-38.2	23.9	0.00e+00	123	41	0	707788800	46	6395
2026-01-23 15:09:55.91	15.65	27.03	-37.3	-38.3	23.8	0.00e+00	123	41	0	710934528	46	6435
2026-01-23 15:09:56.92	15.59	27.20	-37.4	-38.4	23.8	0.00e+00	121	41	0	714080256	46	6509
2026-01-23 15:09:57.93	15.54	27.38	-37.4	-38.4	23.8	0.00e+00	123	41	0	717225984	46	6517
2026-01-23 15:09:58.94	15.48	27.55	-37.5	-38.4	23.7	0.00e+00	123	41	0	720371712	46	6527
2026-01-23 15:09:59.94	15.42	27.72	-37.4	-38.3	23.8	0.00e+00	120	41	0	723517440	46	6482
2026-01-23 15:10:00.96	15.36	27.90	-37.6	-38.5	23.6	0.00e+00	122	41	0	726663168	46	6614
2026-01-23 15:10:01.97	15.30	28.07	-37.5	-38.5	23.7	0.00e+00	121	41	0	729808896	46	6588
2026-01-23 15:10:02.98	15.24	28.25	-37.6	-38.6	23.6	0.00e+00	123	41	0	732954624	46	6670
2026-01-23 15:10:03.98	15.18	28.42	-37.6	-38.5	23.7	0.00e+00	120	41	0	736100352	46	6596
2026-01-23 15:10:04.99	15.12	28.60	-37.7	-38.7	23.6	0.00e+00	122	41	0	739246080	46	6733
2026-01-23 15:10:06.00	15.06	28.78	-37.7	-38.7	23.6	0.00e+00	123	41	0	742391808	46	6752
2026-01-23 15:10:07.02	14.99	28.97	-37.6	-38.5	23.7	0.00e+00	122	41	0	745537536	46	6621
2026-01-23 15:10:08.02	14.93	29.15	-37.6	-38.5	23.7	0.00e+00	123	41	0	748683264	46	6607
2026-01-23 15:10:09.03	14.86	29.33	-37.5	-38.4	23.7	0.00e+00	123	41	0	751828992	46	6540
2026-01-23 15:10:10.04	14.80	29.51	-37.5	-38.4	23.8	0.00e+00	123	41	0	754974720	46	6556
2026-01-23 15:10:11.05	14.73	29.70	-37.1	-38.0	24.0	0.00e+00	123	41	0	758120448	46	6231
2026-01-23 15:10:12.06	14.66	29.89	-37.2	-38.1	24.0	0.00e+00	122	41	0	761266176	46	6320
2026-01-23 15:10:13.07	14.59	30.07	-37.1	-38.0	24.0	0.00e+00	123	41	0	764411904	46	6226
2026-01-23 15:10:14.08	14.53	30.26	-36.9	-37.8	24.2	0.00e+00	124	41	0	767557632	46	6121
2026-01-23 15:10:15.09	14.46	30.45	-36.9	-37.8	24.3	0.00e+00	122	41	0	770703360	46	6090
2026-01-23 15:10:16.10	14.38	30.64	-36.8	-37.7	24.3	0.00e+00	122	41	0	773849088	46	6060
2026-01-23 15:10:17.11	14.31	30.84	-36.7	-37.6	24.5	0.00e+00	123	41	0	776994816	46	5972
2026-01-23 15:10:18.12	14.24	31.03	-36.8	-37.7	24.3	0.00e+00	123	41	0	780140544	46	6032
2026-01-23 15:10:19.13	14.17	31.23	-36.9	-37.8	24.3	0.00e+00	123	41	0	783286272	46	6130
2026-01-23 15:10:20.14	14.09	31.42	-36.7	-37.6	24.4	0.00e+00	123	41	0	786432000	46	5966
2026-01-23 15:10:21.15	14.02	31.62	-36.8	-37.7	24.3	0.00e+00	122	41	0	789577728	46	6037
2026-01-23 15:10:22.16	13.94	31.82	-36.7	-37.6	24.4	0.00e+00	123	41	0	792723456	46	5991
2026-01-23 15:10:23.17	13.86	32.02	-36.7	-37.6	24.4	0.00e+00	123	41	0	795869184	46	5974
2026-01-23 15:10:24.18	13.78	32.22	-36.7	-37.6	24.4	0.00e+00	123	41	0	799014912	46	5974
2026-01-23 15:10:25.19	13.70	32.43	-36.8	-37.8	24.2	0.00e+00	122	41	0	802160640	46	6067
2026-01-23 15:10:26.20	13.62	32.63	-37.0	-38.0	24.2	0.00e+00	120	41	0	805306368	46	6216
2026-01-23 15:10:27.21	13.54	32.84	-37.1	-38.0	24.1	0.00e+00	123	41	0	808452096	46	6257
2026-01-23 15:10:28.22	13.46	33.04	-37.1	-38.0	24.1	0.00e+00	123	41	0	811597824	46	6245
2026-01-23 15:10:29.23	13.38	33.25	-37.2	-38.2	24.0	0.00e+00	123	41	0	814743552	46	6362
2026-01-23 15:10:30.24	13.29	33.46	-37.5	-38.4	23.8	0.00e+00	122	41	0	817889280	46	6562
2026-01-23 15:10:31.25	13.20	33.67	-37.5	-38.4	23.8	0.00e+00	123	41	0	821035008	46	6536
2026-01-23 15:10:32.26	13.12	33.88	-37.5	-38.4	23.8	0.00e+00	122	41	0	824180736	46	6562
2026-01-23 15:10:33.27	13.03	34.10	-37.7	-38.7	23.6	0.00e+00	123	41	0	827326464	46	6727
2026-01-23 15:10:34.29	12.94	34.32	-37.8	-38.8	23.6	0.00e+00	123	41	0	830472192	48	6068
2026-01-23 15:10:35.29	12.85	34.53	-37.9	-38.9	23.4	0.00e+00	123	41	0	833617920	48	6151
2026-01-23 15:10:36.30	12.76	34.75	-38.0	-39.0	23.4	0.00e+00	123	41	0	836763648	48	6240
2026-01-23 15:10:37.31	12.66	34.97	-38.2	-39.1	23.3	0.00e+00	123	41	0	839909376	48	6341
2026-01-23 15:10:38.32	12.57	35.19	-38.2	-39.2	23.3	0.00e+00	122	41	0	843055104	48	6362
2026-01-23 15:10:39.33	12.47	35.41	-38.3	-39.2	23.2	0.00e+00	122	41	0	846200832	48	6419
2026-01-23 15:10:40.34	12.37	35.63	-38.4	-39.4	23.1	0.00e+00	123	41	0	849346560	48	6508
2026-01-23 15:10:41.35	12.27	35.86	-38.6	-39.6	22.9	0.00e+00	122	41	0	852492288	48	6687
2026-01-23 15:10:42.36	12.17	36.09	-38.7	-39.7	22.8	0.00e+00	123	41	0	855638016	48	6778
2026-01-23 15:10:43.37	12.07	36.32	-38.8	-39.7	22.8	0.00e+00	123	41	0	858783744	50	6058
2026-01-23 15:10:44.38	11.97	36.55	-38.9	-39.9	22.7	0.00e+00	123	41	0	861929472	50	6154
2026-01-23 15:10:45.39	11.86	36.78	-38.8	-39.8	22.7	0.00e+00	120	41	0	865075200	50	6070
2026-01-23 15:10:46.40	11.76	37.01	-38.8	-39.8	22.7	0.00e+00	127	41	0	868220928	50	6092
2026-01-23 15:10:47.41	11.65	37.24	-38.9	-39.9	22.7	0.00e+00	120	41	0	871366656	50	6190
2026-01-23 15:10:48.42	11.54	37.48	-38.8	-39.8	22.8	0.00e+00	123	41	0	874512384	50	6080
2026-01-23 15:10:49.43	11.43	37.72	-39.0	-39.9	22.7	0.00e+00	123	41	0	878706688	50	6205
2026-01-23 15:10:50.44	11.32	37.96	-38.8	-39.8	22.8	0.00e+00	123	41	0	881852416	50	6117
2026-01-23 15:10:51.45	11.20	38.20	-38.7	-39.6	22.9	0.00e+00	123	41	0	884998144	50	5980
2026-01-23 15:10:52.46	11.08	38.44	-38.7	-39.7	22.9	0.00e+00	123	41	0	887095296	50	5999
2026-01-23 15:10:53.47	10.97	38.69	-38.7	-39.6	22.9	0.00e+00	123	41	0	890241024	50	5979
2026-01-23 15:10:54.48	10.85	38.93	-38.7	-39.7	22.8	0.00e+00	122	41	0	894435328	50	6042
2026-01-23 15:10:55.49	10.72	39.18	-38.6	-39.6	22.9	0.00e+00	120	41	0	897581056	50	5987
2026-01-23 15:10:56.50	10.60	39.43	-38.8	-39.8	22.8	0.00e+00	123	41	0	900726784	50	6065
2026-01-23 15:10:57.51	10.47	39.68	-38.9	-40.0	22.7	0.00e+00	123	41	0	903872512	50	6208
2026-01-23 15:10:58.52	10.35	39.93	-39.1	-40.1	22.5	0.00e+00	122	41	0	907018240	50	6327
2026-01-23 15:10:59.53	10.22	40.18	-39.4	-40.5	22.3	0.00e+00	120	41	0	909115392	50	6587
2026-01-23 15:11:00.54	10.08	40.44	-39.3	-40.3	22.3	0.00e+00	122	41	0	913309696	50	6462
2026-01-23 15:11:01.55	9.95	40.70	-39.5	-40.5	22.0	0.00e+00	122	41	0	916455424	50	6649
2026-01-23 15:11:02.56	9.81	40.96	-39.4	-40.4	22.2	0.00e+00	120	41	0	919601152	50	6528
2026-01-23 15:11:03.57	9.67	41.22	-39.5	-40.5	22.1	0.00e+00	120	41	0	922746880	50	6619
2026-01-23 15:11:04.58	9.53	41.48	-39.6	-40.6	22.1	0.00e+00	123	41	0	925892608	50	6714
2026-01-23 15:11:05.59	9.39	41.74	-39.6	-40.6	22.1	0.00e+00	120	41	0	929038336	50	6694
2026-01-23 15:11:06.60	9.24	42.01	-39.8	-40.9	21.9	0.00e+00	123	41	0	932184064	52	6145
2026-01-23 15:11:07.61	9.09	42.27	-40.0	-41.0	21.7	0.00e+00	120	41	0	935329792	52	6274
2026-01-23 15:11:08.62	8.94	42.54	-40.0	-41.1	21.6	0.00e+00	122	41	0	938475520	52	6289
2026-01-23 15:11:09.62	8.79	42.81	-39.9	-41.0	21.7	0.00e+00	120	41	0	941621248	52	6234
2026-01-23 15:11:10.63	8.63	43.08	-39.8	-40.8	22.0	0.00e+00	123	41	0	944766976	52	6111
2026-01-23 15:11:11.64	8.47	43.36	-39.6	-40.7	22.0	0.00e+00	122	41	0	947912704	52	6027
2026-01-23 15:11:12.65	8.31	43.63	-39.6	-40.7	22.0	0.00e+00	123	41	0	951058432	52	6002
2026-01-23 15:11:13.66	8.15	43.91	-39.7	-40.7	21.9	0.00e+00	123	42	0	954204160	52	6050
2026-01-23 15:11:14.67	7.98	44.19	-40.0	-41.1	21.6	0.00e+00	123	41	0	957349888	52	6341
2026-01-23 15:11:15.68	7.81	44.47	-40.0	-41.1	21.6	0.00e+00	122	41	0	960495616	52	6312
2026-01-23 15:11:16.69	7.64	44.76	-40.1	-41.2	21.6	0.00e+00	123	41	0	963641344	52	6391
2026-01-23 15:11:17.70	7.46	45.04	-40.1	-41.2	21.7	0.00e+00	123	42	0	966787072	52	6406
2026-01-23 15:11:18.71	7.28	45.33	-39.7	-40.7	22.0	0.00e+00	123	41	0	969932800	52	6032
2026-01-23 15:11:19.72	7.09	45.61	-39.6	-40.7	22.0	0.00e+00	123	41	0	973078528	52	5995
2026-01-23 15:11:20.73	6.91	45.90	-39.3	-40.3	22.4	0.00e+00	122	41	0	976224256	52	5742
2026-01-23 15:11:21.74	6.72	46.20	-39.3	-40.3	22.4	0.00e+00	123	41	0	979369984	52	5729
2026-01-23 15:11:22.75	6.52	46.49	-39.1	-40.1	22.5	0.00e+00	123	41	0	982515712	52	5620
2026-01-23 15:11:23.76	6.32	46.78	-38.8	-39.8	22.8	0.00e+00	123	42	0	985661440	52	5421
2026-01-23 15:11:24.77	6.12	47.08	-38.9	-39.9	22.8	0.00e+00	123	41	0	988807168	50	6156
2026-01-23 15:11:25.78	5.92	47.38	-38.4	-39.4	23.1	0.00e+00	121	41	0	991952896	50	5832
2026-01-23 15:11:26.79	5.71	47.68	-38.5	-39.5	23.0	0.00e+00	122	41	0	995098624	50	5893
2026-01-23 15:11:27.80	5.49	47.98	-38.6	-39.5	23.0	0.00e+00	123	41	0	998244352	50	5913
2026-01-23 15:11:28.81	5.27	48.28	-38.7	-39.7	22.8	0.00e+00	123	41	0	1001390080	50	6011
2026-01-23 15:11:29.82	5.05	48.59	-38.4	-39.4	23.1	0.00e+00	123	41	0	1004535808	50	5823
2026-01-23 15:11:30.83	4.82	48.90	-38.5	-39.4	23.0	0.00e+00	123	41	0	1007681536	50	5857
2026-01-23 15:11:31.84	4.59	49.20	-38.4	-39.4	23.0	0.00e+00	123	42	0	1010827264	50	5816
2026-01-23 15:11:32.85	4.35	49.51	-38.3	-39.3	23.0	0.00e+00	123	42	0	1013972992	50	5756
2026-01-23 15:11:33.86	4.11	49.83	-38.4	-39.3	23.1	0.00e+00	123	41	0	1017118720	50	5768
2026-01-23 15:11:34.87	3.86	50.14	-38.5	-39.4	23.0	0.00e+00	123	42	0	1020264448	50	5847
2026-01-23 15:11:35.88	3.61	50.45	-38.4	-39.3	23.0	0.00e+00	122	41	0	1023410176	50	5790
2026-01-23 15:11:36.89	3.35	50.77	-38.5	-39.5	23.0	0.00e+00	120	41	0	1026555904	50	5878
2026-01-23 15:11:37.90	3.09	51.09	-38.7	-39.6	22.8	0.00e+00	123	41	0	1029701632	50	5983
2026-01-23 15:11:38.91	2.82	51.41	-38.5	-39.5	23.0	0.00e+00	120	41	0	1032847360	50	5894
2026-01-23 15:11:39.92	2.55	51.73	-38.6	-39.6	22.9	0.00e+00	123	42	0	1035993088	50	5955
2026-01-23 15:11:40.93	2.27	52.05	-38.4	-39.4	23.1	0.00e+00	122	41	0	1039138816	50	5838
2026-01-23 15:11:41.94	1.98	52.38	-38.5	-39.4	23.1	0.00e+00	123	41	0	1042284544	50	5838
2026-01-23 15:11:42.95	1.68	52.70	-38.1	-39.1	23.2	0.00e+00	120	41	0	1045430272	50	5597
2026-01-23 15:11:43.96	1.38	53.03	-37.9	-38.9	23.3	0.00e+00	123	41	0	1048576000	50	5471
2026-01-23 15:11:44.97	1.08	53.35	-37.6	-38.5	23.4	0.00e+00	122	42	0	1051721728	48	5897
2026-01-23 15:11:45.97	0.76	53.68	-37.4	-38.4	23.6	0.00e+00	122	42	0	1054867456	48	5798
2026-01-23 15:11:46.98	0.44	54.01	-37.2	-38.1	23.8	0.00e+00	122	41	0	1058013184	48	5657
2026-01-23 15:11:47.99	0.11	54.34	-37.1	-38.0	24.0	0.00e+00	123	42	0	1061158912	48	5584
2026-01-23 15:11:49.01	359.77	54.68	-37.2	-38.1	24.0	0.00e+00	123	41	0	1064304640	48	5603
2026-01-23 15:11:50.02	359.43	55.01	-36.8	-37.7	24.3	0.00e+00	122	41	0	1067450368	48	5378
2026-01-23 15:11:51.03	359.07	55.35	-36.9	-37.8	24.2	0.00e+00	123	42	0	1070596096	48	5435
2026-01-23 15:11:52.04	358.71	55.68	-36.8	-37.7	24.2	0.00e+00	120	42	0	1073741824	48	5399
2026-01-23 15:11:53.05	358.34	56.02	-36.9	-37.8	24.2	0.00e+00	123	42	0	1076887552	48	5424
2026-01-23 15:11:54.06	357.96	56.36	-36.9	-37.9	24.1	0.00e+00	120	42	0	1080033280	48	5473
2026-01-23 15:11:55.07	357.57	56.70	-36.6	-37.4	24.6	0.00e+00	122	42	0	1083179008	46	5858
2026-01-23 15:11:56.07	357.18	57.03	-36.2	-37.1	24.8	0.00e+00	122	42	0	1086324736	46	5640
2026-01-23 15:11:57.09	356.76	57.37	-36.5	-37.4	24.6	0.00e+00	123	42	0	1089470464	46	5793
2026-01-23 15:11:58.10	356.34	57.71	-36.5	-37.4	24.6	0.00e+00	120	42	0	1092616192	46	5817
2026-01-23 15:11:59.11	355.91	58.06	-36.6	-37.4	24.5	0.00e+00	123	42	0	1095761920	46	5855
2026-01-23 15:12:00.12	355.47	58.40	-36.5	-37.4	24.6	0.00e+00	123	41	0	1098907648	46	5844
2026-01-23 15:12:01.13	355.02	58.74	-36.4	-37.3	24.6	0.00e+00	123	41	0	1102053376	46	5736
2026-01-23 15:12:02.14	354.55	59.08	-36.4	-37.3	24.6	0.00e+00	120	42	0	1105199104	46	5756
2026-01-23 15:12:03.15	354.07	59.42	-36.5	-37.4	24.5	0.00e+00	123	42	0	1108344832	46	5856
2026-01-23 15:12:04.16	353.58	59.76	-36.7	-37.6	24.5	0.00e+00	120	42	0	1111490560	46	5952
2026-01-23 15:12:05.17	353.08	60.11	-36.6	-37.5	24.5	0.00e+00	122	42	0	1114636288	46	5893
2026-01-23 15:12:06.18	352.56	60.45	-36.5	-37.4	24.5	0.00e+00	121	42	0	1117782016	46	5817
2026-01-23 15:12:07.19	352.03	60.79	-36.4	-37.3	24.6	0.00e+00	123	42	0	1120927744	46	5734
2026-01-23 15:12:08.20	351.48	61.13	-36.2	-37.1	24.7	0.00e+00	121	41	0	1124073472	46	5617
2026-01-23 15:12:09.21	350.92	61.47	-36.2	-37.1	24.7	0.00e+00	123	41	0	1127219200	46	5599
2026-01-23 15:12:10.22	350.34	61.81	-36.2	-37.0	24.8	0.00e+00	120	41	0	1130364928	46	5591
2026-01-23 15:12:11.23	349.75	62.15	-36.0	-36.9	24.9	0.00e+00	123	42	0	1133510656	46	5493
2026-01-23 15:12:12.24	349.14	62.49	-35.8	-36.6	25.1	0.00e+00	123	42	0	1136656384	46	5324
2026-01-23 15:12:13.25	348.51	62.82	-35.8	-36.6	25.1	0.00e+00	123	41	0	1139802112	44	5971
2026-01-23 15:12:14.26	347.86	63.16	-35.7	-36.6	25.0	0.00e+00	122	42	0	1142947840	44	5938
2026-01-23 15:12:15.27	347.20	63.49	-35.8	-36.7	25.1	0.00e+00	123	41	0	1146093568	44	5996
2026-01-23 15:12:16.28	346.52	63.82	-35.5	-36.3	25.4	0.00e+00	122	42	0	1149239296	44	5776
2026-01-23 15:12:17.29	345.81	64.15	-35.3	-36.2	25.4	0.00e+00	123	42	0	1152385024	44	5687
2026-01-23 15:12:18.30	345.09	64.48	-35.4	-36.3	25.3	0.00e+00	122	42	0	1155530752	44	5730
2026-01-23 15:12:19.31	344.34	64.81	-35.5	-36.4	25.0	0.00e+00	122	42	0	1158676480	44	5816
2026-01-23 15:12:20.32	343.58	65.13	-35.5	-36.4	25.0	0.00e+00	123	42	0	1161822208	44	5823
2026-01-23 15:12:21.33	342.79	65.45	-35.5	-36.4	25.2	0.00e+00	122	41	0	1164967936	44	5833
2026-01-23 15:12:22.34	341.98	65.77	-35.4	-36.2	25.4	0.00e+00	122	41	0	1168113664	44	5717
2026-01-23 15:12:23.35	341.14	66.08	-35.3	-36.1	25.4	0.00e+00	122	42	0	1171259392	44	5656
2026-01-23 15:12:24.36	340.28	66.39	-35.2	-36.1	25.3	0.00e+00	122	42	0	1174405120	44	5617
2026-01-23 15:12:25.37	339.39	66.70	-35.5	-36.4	25.2	0.00e+00	123	42	0	1177550848	44	5811
2026-01-23 15:12:26.38	338.48	67.00	-35.8	-36.7	25.0	0.00e+00	122	41	0	1180696576	44	6003
2026-01-23 15:12:27.39	337.54	67.30	-35.7	-36.6	25.1	0.00e+00	123	41	0	1183842304	44	5937
2026-01-23 15:12:28.40	336.58	67.59	-35.5	-36.4	25.3	0.00e+00	120	41	0	1186988032	44	5822
2026-01-23 15:12:29.41	335.58	67.88	-35.2	-36.1	25.4	0.00e+00	123	42	0	1190133760	44	5603
2026-01-23 15:12:30.42	334.56	68.16	-35.4	-36.3	25.3	0.00e+00	123	41	0	1193279488	44	5737
2026-01-23 15:12:31.44	333.50	68.44	-35.5	-36.4	25.3	0.00e+00	120	41	0	1197473792	44	5800
2026-01-23 15:12:32.44	332.43	68.71	-35.4	-36.3	25.2	0.00e+00	123	41	0	1200619520	44	5758
2026-01-23 15:12:33.45	331.32	68.97	-35.3	-36.2	25.3	0.00e+00	122	41	0	1202716672	44	5685
2026-01-23 15:12:34.47	330.17	69.23	-35.6	-36.4	25.0	0.00e+00	122	41	0	1205862400	44	5843
2026-01-23 15:12:35.48	329.00	69.48	-35.4	-36.3	25.1	0.00e+00	123	41	0	1209008128	44	5759
2026-01-23 15:12:36.49	327.80	69.72	-35.5	-36.4	25.1	0.00e+00	122	42	0	1213202432	44	5800
2026-01-23 15:12:37.50	326.57	69.96	-35.7	-36.6	25.0	0.00e+00	120	41	0	1216348160	44	5962
2026-01-23 15:12:38.51	325.31	70.19	-35.7	-36.6	24.9	0.00e+00	122	41	0	1219493888	44	5952
2026-01-23 15:12:39.52	324.01	70.40	-35.9	-36.8	24.9	0.00e+00	123	42	0	1222639616	44	6089
2026-01-23 15:12:40.53	322.69	70.61	-35.9	-36.8	24.9	0.00e+00	123	41	0	1225785344	44	6112
2026-01-23 15:12:41.54	321.33	70.81	-35.9	-36.8	24.9	0.00e+00	123	42	0	1228931072	44	6091
2026-01-23 15:12:42.55	319.95	71.00	-35.7	-36.6	25.1	0.00e+00	123	42	0	1232076800	44	5941
2026-01-23 15:12:43.56	318.54	71.18	-35.5	-36.4	25.2	0.00e+00	118	42	0	1235222528	44	5841
2026-01-23 15:12:44.57	317.10	71.35	-35.7	-36.5	25.0	0.00e+00	123	42	0	1238368256	44	5919
2026-01-23 15:12:45.58	315.63	71.50	-36.2	-37.2	24.6	0.00e+00	120	41	0	1241513984	44	6371
2026-01-23 15:12:46.59	314.14	71.65	-36.3	-37.3	24.5	0.00e+00	122	42	0	1244659712	44	6450
2026-01-23 15:12:47.60	312.62	71.78	-35.8	-36.7	25.0	0.00e+00	120	42	0	1247805440	44	6023
2026-01-23 15:12:48.61	311.08	71.90	-35.8	-36.7	24.9	0.00e+00	123	41	0	1250951168	44	6027
2026-01-23 15:12:49.62	309.52	72.01	-35.5	-36.4	25.1	0.00e+00	122	42	0	1254096896	44	5838
2026-01-23 15:12:50.63	307.94	72.11	-35.8	-36.7	24.8	0.00e+00	122	41	0	1257242624	44	6048
2026-01-23 15:12:51.64	306.34	72.19	-35.4	-36.3	25.2	0.00e+00	123	41	0	1260388352	44	5747
2026-01-23 15:12:52.65	304.73	72.26	-35.7	-36.6	24.8	0.00e+00	120	42	0	1263534080	44	5972
2026-01-23 15:12:53.66	303.11	72.32	-35.8	-36.6	24.8	0.00e+00	122	42	0	1266679808	44	5988
2026-01-23 15:12:54.67	301.47	72.36	-35.4	-36.3	25.2	0.00e+00	122	42	0	1269825536	44	5742
2026-01-23 15:12:55.68	299.83	72.39	-35.5	-36.4	25.2	0.00e+00	122	42	0	1272971264	44	5826
2026-01-23 15:12:56.69	298.19	72.40	-35.8	-36.7	24.8	0.00e+00	120	42	0	1276116992	44	6038
2026-01-23 15:12:57.70	296.54	72.40	-36.3	-37.2	24.4	0.00e+00	123	42	0	1279262720	44	6375
2026-01-23 15:12:58.71	294.89	72.39	-35.9	-36.8	24.8	0.00e+00	122	42	0	1282408448	44	6127
2026-01-23 15:12:59.72	293.25	72.37	-35.5	-36.4	25.0	0.00e+00	120	42	0	1285554176	44	5847
2026-01-23 15:13:00.73	291.62	72.33	-35.4	-36.3	25.1	0.00e+00	122	42	0	1288699904	44	5761
2026-01-23 15:13:01.74	289.99	72.27	-35.5	-36.4	25.1	0.00e+00	123	42	0	1291845632	44	5849
2026-01-23 15:13:02.75	288.38	72.20	-35.7	-36.6	25.1	0.00e+00	123	42	0	1294991360	44	5978
2026-01-23 15:13:03.76	286.78	72.12	-35.9	-36.8	25.0	0.00e+00	123	42	0	1298137088	44	6087
2026-01-23 15:13:04.76	285.21	72.03	-35.6	-36.5	25.2	0.00e+00	123	41	0	1301282816	44	5886
2026-01-23 15:13:05.77	283.64	71.93	-35.1	-36.0	25.4	0.00e+00	123	41	0	1304428544	44	5552
2026-01-23 15:13:06.78	282.10	71.81	-35.4	-36.3	25.1	0.00e+00	121	41	0	1307574272	44	5766
2026-01-23 15:13:07.79	280.57	71.68	-36.0	-36.9	24.7	0.00e+00	123	42	0	1310720000	44	6186
2026-01-23 15:13:08.80	279.07	71.53	-36.1	-37.1	24.4	0.00e+00	122	42	0	1313865728	44	6316
2026-01-23 15:13:09.81	277.60	71.38	-36.2	-37.1	24.4	0.00e+00	122	42	0	1317011456	44	6348
2026-01-23 15:13:10.82	276.15	71.21	-36.0	-36.9	24.4	0.00e+00	123	42	0	1320157184	44	6198
2026-01-23 15:13:11.83	274.73	71.04	-36.1	-37.0	24.3	0.00e+00	123	42	0	1323302912	44	6275
2026-01-23 15:13:12.84	273.34	70.85	-36.0	-36.9	24.9	0.00e+00	122	42	0	1326448640	44	6185
2026-01-23 15:13:13.85	271.98	70.65	-35.6	-36.5	25.2	0.00e+00	123	42	0	1329594368	44	5880
2026-01-23 15:13:14.86	270.65	70.45	-35.4	-36.3	25.2	0.00e+00	122	42	0	1332740096	44	5753
2026-01-23 15:13:15.87	269.35	70.23	-36.0	-36.9	24.7	0.00e+00	123	42	0	1335885824	44	6153
2026-01-23 15:13:16.88	268.08	70.01	-35.6	-36.5	25.0	0.00e+00	120	42	0	1339031552	44	5903
2026-01-23 15:13:17.89	266.84	69.77	-35.4	-36.3	25.0	0.00e+00	122	42	0	1342177280	44	5775
2026-01-23 15:13:18.90	265.63	69.53	-35.5	-36.4	25.1	0.00e+00	122	42	0	1345323008	44	5798
2026-01-23 15:13:19.91	264.45	69.28	-35.5	-36.4	25.1	0.00e+00	123	42	0	1348468736	44	5806
2026-01-23 15:13:20.92	263.30	69.03	-35.7	-36.5	25.1	0.00e+00	120	42	0	1351614464	44	5921
2026-01-23 15:13:21.93	262.18	68.76	-35.8	-36.7	24.9	0.00e+00	123	42	0	1354760192	44	6028
2026-01-23 15:13:22.94	261.10	68.49	-36.1	-37.0	24.4	0.00e+00	122	42	0	1357905920	44	6276
2026-01-23 15:13:23.95	260.04	68.22	-35.8	-36.8	24.1	0.00e+00	122	42	0	1361051648	44	6072
2026-01-23 15:13:24.96	259.01	67.94	-35.5	-36.4	24.8	0.00e+00	123	42	0	1364197376	44	5809
2026-01-23 15:13:25.97	258.01	67.65	-35.3	-36.2	25.2	0.00e+00	123	42	0	1367343104	44	5694
2026-01-23 15:13:26.98	257.04	67.36	-36.1	-37.0	24.7	0.00e+00	123	42	0	1370488832	44	6254
2026-01-23 15:13:27.99	256.09	67.06	-37.4	-38.4	23.8	0.00e+00	123	42	0	1373634560	46	6502
2026-01-23 15:13:29.00	255.17	66.76	-37.2	-38.2	23.7	0.00e+00	120	42	0	1376780288	46	6403
2026-01-23 15:13:30.01	254.28	66.45	-36.0	-36.9	25.0	0.00e+00	122	42	0	1379926016	46	5470
2026-01-23 15:13:31.01	253.42	66.14	-35.0	-35.9	25.5	0.00e+00	120	42	0	1383071744	44	5494
2026-01-23 15:13:32.02	252.58	65.83	-35.0	-35.8	25.5	0.00e+00	122	42	0	1386217472	44	5446
2026-01-23 15:13:33.03	251.76	65.51	-35.5	-36.4	25.2	0.00e+00	122	42	0	1389363200	44	5824
2026-01-23 15:13:34.04	250.97	65.19	-36.0	-36.9	24.6	0.00e+00	122	42	0	1392508928	44	6168
2026-01-23 15:13:35.05	250.19	64.87	-36.7	-37.6	24.2	0.00e+00	123	42	0	1395654656	44	6702
2026-01-23 15:13:36.06	249.44	64.55	-36.4	-37.3	24.5	0.00e+00	123	42	0	1398800384	44	6473
2026-01-23 15:13:37.07	248.71	64.22	-36.2	-37.1	24.6	0.00e+00	122	42	0	1401946112	44	6308
2026-01-23 15:13:38.08	248.00	63.89	-35.3	-36.1	25.4	0.00e+00	123	42	0	1405091840	44	5658
2026-01-23 15:13:39.09	247.31	63.56	-34.9	-35.8	25.6	0.00e+00	123	42	0	1408237568	44	5410
2026-01-23 15:13:40.10	246.64	63.22	-35.5	-36.4	25.1	0.00e+00	123	42	0	1411383296	44	5827
2026-01-23 15:13:41.11	245.99	62.89	-36.6	-37.5	24.5	0.00e+00	122	42	0	1414529024	44	6595
2026-01-23 15:13:42.12	245.36	62.55	-36.9	-37.8	24.2	0.00e+00	123	42	0	1417674752	46	6131
2026-01-23 15:13:43.13	244.75	62.21	-36.3	-37.2	24.5	0.00e+00	123	42	0	1420820480	46	5684
2026-01-23 15:13:44.14	244.15	61.87	-35.6	-36.5	25.2	0.00e+00	123	42	0	1423966208	44	5869
2026-01-23 15:13:45.15	243.57	61.53	-35.2	-36.0	25.5	0.00e+00	120	42	0	1427111936	44	5564
2026-01-23 15:13:46.15	243.01	61.19	-35.3	-36.2	25.2	0.00e+00	122	42	0	1430257664	44	5685
2026-01-23 15:13:47.17	242.45	60.85	-36.0	-36.9	24.7	0.00e+00	120	42	0	1433403392	44	6172
2026-01-23 15:13:48.17	241.92	60.51	-36.6	-37.5	24.4	0.00e+00	122	42	0	1436549120	44	6618
2026-01-23 15:13:49.18	241.40	60.17	-36.8	-37.7	24.3	0.00e+00	123	42	0	1439694848	46	6054
2026-01-23 15:13:50.19	240.89	59.82	-36.9	-37.8	24.2	0.00e+00	123	42	0	1442840576	46	6103
2026-01-23 15:13:51.20	240.39	59.48	-36.5	-37.4	24.4	0.00e+00	123	42	0	1445986304	46	5817
2026-01-23 15:13:52.21	239.91	59.14	-36.0	-36.9	24.9	0.00e+00	122	42	0	1449132032	46	5487
2026-01-23 15:13:53.22	239.44	58.80	-35.4	-36.3	25.3	0.00e+00	120	42	0	1452277760	44	5745
2026-01-23 15:13:54.23	238.99	58.45	-35.5	-36.4	25.2	0.00e+00	123	42	0	1455423488	44	5796
2026-01-23 15:13:55.24	238.54	58.11	-36.1	-36.9	24.7	0.00e+00	123	42	0	1458569216	44	6198
2026-01-23 15:13:56.25	238.11	57.77	-36.9	-37.8	24.1	0.00e+00	122	42	0	1461714944	46	6108
2026-01-23 15:13:57.26	237.68	57.43	-37.4	-38.4	23.2	0.00e+00	122	42	0	1464860672	46	6507
2026-01-23 15:13:58.26	237.28	57.09	-36.8	-37.8	23.3	0.00e+00	123	42	0	1468006400	46	6103
2026-01-23 15:13:59.27	236.87	56.75	-36.7	-37.7	23.8	0.00e+00	120	42	0	1471152128	46	6006
2026-01-23 15:14:00.28	236.48	56.41	-35.9	-36.8	24.7	0.00e+00	120	42	0	1474297856	46	5415
2026-01-23 15:14:01.29	236.10	56.07	-36.2	-37.1	24.5	0.00e+00	122	42	0	1477443584	46	5610
2026-01-23 15:14:02.30	235.72	55.73	-36.3	-37.2	24.8	0.00e+00	123	42	0	1480589312	46	5672
2026-01-23 15:14:03.31	235.36	55.40	-36.5	-37.4	24.5	0.00e+00	122	42	0	1483735040	46	5827
2026-01-23 15:14:04.32	235.00	55.06	-37.4	-38.3	23.8	0.00e+00	123	42	0	1486880768	46	6452
2026-01-23 15:14:05.33	234.66	54.73	-38.2	-39.2	23.1	0.00e+00	120	42	0	1490026496	48	6384
2026-01-23 15:14:06.34	234.32	54.39	-39.1	-40.2	22.3	0.00e+00	123	42	0	1493172224	50	6352
2026-01-23 15:14:07.35	233.98	54.06	-39.3	-40.4	22.1	0.00e+00	122	42	0	1496317952	50	6535
2026-01-23 15:14:08.36	233.66	53.73	-38.8	-39.8	22.4	0.00e+00	122	42	0	1499463680	50	6108
2026-01-23 15:14:09.37	233.34	53.40	-38.0	-39.0	22.9	0.00e+00	123	42	0	1502609408	50	5574
2026-01-23 15:14:10.38	233.03	53.07	-37.7	-38.6	23.5	0.00e+00	122	42	0	1505755136	48	5945
2026-01-23 15:14:11.39	232.73	52.74	-37.7	-38.6	23.6	0.00e+00	123	42	0	1508900864	48	5977
2026-01-23 15:14:12.40	232.44	52.41	-37.6	-38.6	23.4	0.00e+00	123	42	0	1512046592	48	5930
2026-01-23 15:14:13.41	232.15	52.09	-37.2	-38.1	23.7	0.00e+00	123	42	0	1515192320	48	5645
2026-01-23 15:14:14.42	231.86	51.77	-37.6	-38.5	23.6	0.00e+00	123	42	0	1518338048	48	5907
2026-01-23 15:14:15.43	231.59	51.44	-38.2	-39.2	23.1	0.00e+00	122	42	0	1521483776	48	6379
2026-01-23 15:14:16.44	231.32	51.12	-38.7	-39.7	22.6	0.00e+00	123	42	0	1524629504	48	6770
2026-01-23 15:14:17.45	231.05	50.80	-39.2	-40.2	22.2	0.00e+00	123	42	0	1527775232	50	6413
2026-01-23 15:14:18.46	230.79	50.49	-39.3	-40.3	22.1	0.00e+00	123	42	0	1530920960	50	6490
2026-01-23 15:14:19.47	230.54	50.17	-39.3	-40.4	21.9	0.00e+00	123	42	0	1534066688	50	6505
2026-01-23 15:14:20.48	230.29	49.85	-38.6	-39.6	22.6	0.00e+00	123	42	0	1537212416	50	5928
2026-01-23 15:14:21.49	230.04	49.54	-38.0	-38.9	23.3	0.00e+00	123	42	0	1541406720	50	5524
2026-01-23 15:14:22.50	229.81	49.23	-38.0	-39.0	23.3	0.00e+00	120	42	0	1543503872	50	5541
2026-01-23 15:14:23.51	229.57	48.92	-38.2	-39.2	23.1	0.00e+00	123	42	0	1546649600	50	5692
2026-01-23 15:14:24.52	229.34	48.61	-38.9	-39.9	22.6	0.00e+00	123	42	0	1549795328	50	6169
2026-01-23 15:14:25.53	229.12	48.31	-39.4	-40.4	22.1	0.00e+00	123	42	0	1552941056	50	6539
2026-01-23 15:14:26.54	228.90	48.00	-39.9	-40.9	21.6	0.00e+00	123	42	0	1557135360	52	6194
2026-01-23 15:14:27.55	228.68	47.70	-40.2	-41.3	21.3	0.00e+00	121	42	0	1560281088	52	6486
2026-01-23 15:14:28.56	228.47	47.40	-40.4	-41.5	21.2	0.00e+00	122	42	0	1563426816	52	6631
2026-01-23 15:14:29.57	228.26	47.10	-40.4	-41.5	21.2	0.00e+00	120	42	0	1565523968	52	6615
2026-01-23 15:14:30.58	228.06	46.80	-40.3	-41.4	21.2	0.00e+00	122	42	0	1568669696	52	6554
2026-01-23 15:14:31.59	227.86	46.50	-40.1	-41.2	21.6	0.00e+00	123	42	0	1572864000	52	6360
2026-01-23 15:14:32.60	227.67	46.21	-39.3	-40.3	22.2	0.00e+00	120	42	0	1576009728	52	5786
2026-01-23 15:14:33.61	227.47	45.91	-38.2	-39.1	23.1	0.00e+00	123	42	0	1579155456	50	5645
2026-01-23 15:14:34.62	227.28	45.62	-37.5	-38.4	23.7	0.00e+00	122	42	0	1582301184	48	5811
2026-01-23 15:14:35.63	227.10	45.33	-37.6	-38.5	23.7	0.00e+00	122	42	0	1585446912	48	5903
2026-01-23 15:14:36.64	226.92	45.05	-38.0	-38.9	23.4	0.00e+00	123	42	0	1588592640	48	6153
2026-01-23 15:14:37.65	226.74	44.76	-38.8	-39.8	22.5	0.00e+00	122	42	0	1591738368	48	6854
2026-01-23 15:14:38.66	226.56	44.48	-39.8	-40.9	21.7	0.00e+00	120	42	0	1594884096	52	6136
2026-01-23 15:14:39.67	226.39	44.19	-40.7	-41.9	20.8	0.00e+00	123	42	0	1598029824	52	6906
2026-01-23 15:14:40.68	226.22	43.91	-41.3	-42.6	20.2	0.00e+00	122	42	0	1601175552	54	6664
2026-01-23 15:14:41.69	226.06	43.63	-41.3	-42.6	20.2	0.00e+00	122	42	0	1604321280	54	6674
2026-01-23 15:14:42.70	225.89	43.36	-40.9	-42.1	20.5	0.00e+00	123	42	0	1607467008	54	6330
2026-01-23 15:14:43.71	225.73	43.08	-40.3	-41.4	21.3	0.00e+00	120	42	0	1610612736	54	5798
2026-01-23 15:14:44.72	225.58	42.81	-39.8	-40.9	21.7	0.00e+00	123	42	0	1613758464	54	5514
2026-01-23 15:14:45.73	225.42	42.54	-40.1	-41.2	21.4	0.00e+00	123	42	0	1616904192	54	5680
2026-01-23 15:14:46.74	225.27	42.27	-40.4	-41.6	21.4	0.00e+00	120	42	0	1620049920	54	5939
2026-01-23 15:14:47.75	225.12	42.00	-40.0	-41.1	21.6	0.00e+00	122	42	0	1623195648	54	5638
2026-01-23 15:14:48.76	224.97	41.73	-39.4	-40.5	21.9	0.00e+00	122	42	0	1626341376	52	5893
2026-01-23 15:14:49.77	224.83	41.46	-38.5	-39.5	23.0	0.00e+00	123	42	0	1629487104	50	5863
2026-01-23 15:14:50.78	224.69	41.20	-37.6	-38.5	23.6	0.00e+00	123	42	0	1632632832	48	5881
2026-01-23 15:14:51.79	224.55	40.94	-37.5	-38.4	23.7	0.00e+00	123	42	0	1635778560	48	5851
2026-01-23 15:14:52.80	224.41	40.68	-37.4	-38.3	23.8	0.00e+00	120	42	0	1638924288	48	5750
2026-01-23 15:14:53.81	224.27	40.42	-37.6	-38.5	23.7	0.00e+00	123	42	0	1642070016	48	5892
2026-01-23 15:14:54.82	224.14	40.16	-37.9	-38.8	23.3	0.00e+00	123	42	0	1645215744	48	6106
2026-01-23 15:14:55.83	224.01	39.91	-38.5	-39.4	22.8	0.00e+00	120	42	0	1648361472	48	6572
2026-01-23 15:14:56.84	223.88	39.66	-39.4	-40.4	22.1	0.00e+00	122	42	0	1651507200	50	6548
2026-01-23 15:14:57.85	223.76	39.40	-39.9	-41.1	21.6	0.00e+00	120	42	0	1654652928	52	6282
2026-01-23 15:14:58.86	223.63	39.15	-39.8	-40.9	21.6	0.00e+00	123	42	0	1657798656	52	6192
2026-01-23 15:14:59.87	223.51	38.90	-39.4	-40.5	22.0	0.00e+00	122	42	0	1660944384	52	5888
2026-01-23 15:15:00.87	223.39	38.66	-39.1	-40.2	22.3	0.00e+00	120	42	0	1664090112	52	5673
2026-01-23 15:15:01.88	223.27	38.42	-39.1	-40.1	22.5	0.00e+00	122	42	0	1667235840	52	5642
2026-01-23 15:15:02.89	223.15	38.17	-38.6	-39.6	22.7	0.00e+00	122	42	0	1670381568	50	5946
2026-01-23 15:15:03.90	223.04	37.93	-38.6	-39.6	22.7	0.00e+00	122	42	0	1673527296	50	5993
2026-01-23 15:15:04.91	222.92	37.69	-38.4	-39.4	23.0	0.00e+00	122	42	0	1676673024	50	5831
2026-01-23 15:15:05.92	222.81	37.45	-38.2	-39.2	23.1	0.00e+00	123	42	0	1679818752	50	5686
2026-01-23 15:15:06.93	222.70	37.21	-38.2	-39.1	23.2	0.00e+00	123	42	0	1682964480	50	5635
2026-01-23 15:15:07.94	222.59	36.98	-37.9	-38.8	23.4	0.00e+00	122	42	0	1686110208	50	5452
2026-01-23 15:15:08.95	222.48	36.74	-37.8	-38.7	23.6	0.00e+00	123	42	0	1689255936	50	5372
2026-01-23 15:15:09.96	222.38	36.51	-37.3	-38.2	23.9	0.00e+00	122	42	0	1692401664	48	5714
2026-01-23 15:15:10.97	222.27	36.28	-37.2	-38.1	24.0	0.00e+00	122	42	0	1695547392	48	5619
2026-01-23 15:15:11.98	222.17	36.05	-37.0	-37.9	24.0	0.00e+00	120	42	0	1698693120	48	5527
2026-01-23 15:15:12.99	222.07	35.82	-37.2	-38.1	23.9	0.00e+00	123	42	0	1701838848	48	5622
2026-01-23 15:15:14.00	221.97	35.60	-37.3	-38.2	23.8	0.00e+00	121	42	0	1704984576	48	5718
2026-01-23 15:15:15.01	221.87	35.37	-37.4	-38.3	23.7	0.00e+00	123	42	0	1708130304	48	5743
2026-01-23 15:15:16.02	221.77	35.15	-37.4	-38.3	23.8	0.00e+00	120	42	0	1711276032	48	5783
2026-01-23 15:15:17.03	221.68	34.92	-37.5	-38.4	23.7	0.00e+00	123	42	0	1714421760	48	5831
2026-01-23 15:15:18.04	221.58	34.70	-37.6	-38.5	23.7	0.00e+00	122	42	0	1717567488	48	5898
2026-01-23 15:15:19.05	221.49	34.49	-37.5	-38.4	23.7	0.00e+00	123	42	0	1720713216	48	5857
2026-01-23 15:15:20.06	221.40	34.27	-37.4	-38.4	23.8	0.00e+00	120	42	0	1723858944	48	5807
2026-01-23 15:15:21.07	221.31	34.05	-37.3	-38.2	23.9	0.00e+00	123	42	0	1727004672	48	5722
2026-01-23 15:15:22.07	221.22	33.84	-37.4	-38.4	23.8	0.00e+00	122	42	0	1730150400	48	5810
2026-01-23 15:15:23.09	221.13	33.62	-37.4	-38.4	23.7	0.00e+00	123	42	0	1733296128	48	5816
2026-01-23 15:15:24.09	221.05	33.41	-37.5	-38.4	23.8	0.00e+00	122	42	0	1736441856	48	5825
2026-01-23 15:15:25.10	220.96	33.20	-37.6	-38.5	23.7	0.00e+00	122	42	0	1739587584	48	5903
2026-01-23 15:15:26.11	220.88	32.99	-37.7	-38.7	23.5	0.00e+00	120	42	0	1742733312	48	6017
2026-01-23 15:15:27.13	220.79	32.78	-37.3	-38.2	23.8	0.00e+00	123	42	0	1745879040	48	5696
2026-01-23 15:15:28.13	220.71	32.58	-37.3	-38.2	23.8	0.00e+00	122	42	0	1749024768	48	5691
2026-01-23 15:15:29.14	220.63	32.37	-37.1	-38.1	23.8	0.00e+00	122	42	0	1752170496	48	5595
2026-01-23 15:15:30.15	220.55	32.17	-37.0	-38.0	24.0	0.00e+00	122	42	0	1755316224	48	5538
2026-01-23 15:15:31.16	220.47	31.97	-36.7	-37.6	24.3	0.00e+00	120	42	0	1758461952	48	5321
2026-01-23 15:15:32.17	220.39	31.77	-36.8	-37.7	24.3	0.00e+00	123	42	0	1761607680	46	6019
2026-01-23 15:15:33.18	220.32	31.57	-36.9	-37.9	24.2	0.00e+00	122	42	0	1764753408	46	6136
2026-01-23 15:15:34.19	220.24	31.37	-36.8	-37.7	24.2	0.00e+00	123	42	0	1767899136	46	6060
2026-01-23 15:15:35.20	220.16	31.17	-36.9	-37.8	24.2	0.00e+00	122	42	0	1771044864	46	6090
2026-01-23 15:15:36.21	220.09	30.97	-37.1	-38.0	24.1	0.00e+00	122	42	0	1774190592	46	6222
2026-01-23 15:15:37.22	220.02	30.78	-37.2	-38.2	23.9	0.00e+00	124	42	0	1777336320	46	6369
2026-01-23 15:15:38.23	219.94	30.58	-37.5	-38.4	23.7	0.00e+00	123	42	0	1780482048	46	6538
2026-01-23 15:15:39.24	219.87	30.39	-37.4	-38.4	23.8	0.00e+00	120	42	0	1783627776	46	6499
2026-01-23 15:15:40.25	219.80	30.20	-37.5	-38.5	23.7	0.00e+00	123	42	0	1786773504	46	6579
2026-01-23 15:15:41.25	219.73	30.01	-37.5	-38.4	23.7	0.00e+00	123	42	0	1789919232	46	6551
2026-01-23 15:15:42.26	219.66	29.82	-37.4	-38.3	23.8	0.00e+00	122	42	0	1793064960	46	6489
2026-01-23 15:15:43.28	219.60	29.63	-37.3	-38.3	23.8	0.00e+00	122	42	0	1796210688	46	6445
2026-01-23 15:15:44.28	219.53	29.45	-37.3	-38.3	23.8	0.00e+00	120	42	0	1799356416	46	6426
2026-01-23 15:15:45.30	219.46	29.26	-37.5	-38.5	23.7	0.00e+00	122	42	0	1802502144	46	6592
2026-01-23 15:15:46.30	219.40	29.08	-37.0	-38.0	24.1	0.00e+00	120	42	0	1805647872	46	6213
2026-01-23 15:15:47.31	219.33	28.90	-37.0	-37.9	24.0	0.00e+00	122	42	0	1808793600	46	6201
2026-01-23 15:15:48.32	219.27	28.72	-36.7	-37.6	24.2	0.00e+00	123	42	0	1811939328	46	5978
2026-01-23 15:15:49.33	219.20	28.53	-36.5	-37.4	24.5	0.00e+00	123	42	0	1815085056	46	5845
2026-01-23 15:15:50.34	219.14	28.35	-36.3	-37.2	24.6	0.00e+00	120	42	0	1818230784	46	5691
2026-01-23 15:15:51.35	219.08	28.18	-36.3	-37.2	24.6	0.00e+00	122	42	0	1821376512	46	5690
2026-01-23 15:15:52.36	219.02	28.00	-36.4	-37.2	24.5	0.00e+00	122	42	0	1824522240	46	5724
2026-01-23 15:15:53.37	218.96	27.82	-35.9	-36.8	24.9	0.00e+00	123	42	0	1827667968	46	5419
2026-01-23 15:15:54.38	218.90	27.65	-35.7	-36.5	25.1	0.00e+00	123	42	0	1830813696	44	5908
2026-01-23 15:15:55.39	218.84	27.47	-35.5	-36.4	25.2	0.00e+00	120	42	0	1833959424	44	5803
2026-01-23 15:15:56.40	218.78	27.30	-35.7	-36.5	25.1	0.00e+00	122	42	0	1837105152	44	5923
2026-01-23 15:15:57.41	218.72	27.13	-35.3	-36.1	25.3	0.00e+00	123	42	0	1840250880	44	5650
2026-01-23 15:15:58.42	218.67	26.96	-35.3	-36.2	25.2	0.00e+00	123	42	0	1843396608	44	5674
2026-01-23 15:15:59.43	218.61	26.79	-35.2	-36.1	25.4	0.00e+00	120	42	0	1846542336	44	5605
2026-01-23 15:16:00.44	218.55	26.62	-35.2	-36.1	25.3	0.00e+00	123	42	0	1849688064	44	5616
2026-01-23 15:16:01.45	218.50	26.45	-35.4	-36.3	25.2	0.00e+00	120	42	0	1852833792	44	5736
2026-01-23 15:16:02.46	218.44	26.28	-35.6	-36.5	25.0	0.00e+00	123	42	0	1855979520	44	5867
2026-01-23 15:16:03.47	218.39	26.12	-35.8	-36.7	24.9	0.00e+00	120	42	0	1859125248	44	6014
2026-01-23 15:16:04.48	218.34	25.95	-35.9	-36.8	24.9	0.00e+00	123	42	0	1862270976	44	6098
2026-01-23 15:16:05.49	218.28	25.79	-36.1	-37.0	24.7	0.00e+00	123	42	0	1865416704	44	6236
2026-01-23 15:16:06.50	218.23	25.63	-36.2	-37.1	24.7	0.00e+00	123	42	0	1868562432	44	6336
2026-01-23 15:16:07.51	218.18	25.46	-36.2	-37.1	24.6	0.00e+00	121	42	0	1871708160	44	6329
2026-01-23 15:16:08.52	218.13	25.30	-36.3	-37.2	24.6	0.00e+00	123	42	0	1874853888	44	6366
2026-01-23 15:16:09.53	218.08	25.14	-36.4	-37.3	24.4	0.00e+00	122	42	0	1877999616	44	6480
2026-01-23 15:16:10.54	218.03	24.98	-36.6	-37.5	24.3	0.00e+00	122	42	0	1881145344	44	6605
2026-01-23 15:16:11.55	217.98	24.83	-36.6	-37.5	24.4	0.00e+00	122	42	0	1884291072	44	6592
2026-01-23 15:16:12.56	217.93	24.67	-36.8	-37.7	24.2	0.00e+00	123	42	0	1887436800	44	6779
2026-01-23 15:16:13.56	217.88	24.51	-36.8	-37.7	24.2	0.00e+00	120	42	0	1890582528	46	6050
2026-01-23 15:16:14.57	217.83	24.36	-36.9	-37.8	24.1	0.00e+00	123	42	0	1893728256	46	6099
2026-01-23 15:16:15.58	217.79	24.20	-36.9	-37.8	24.1	0.00e+00	123	42	0	1896873984	46	6110
2026-01-23 15:16:16.59	217.74	24.05	-37.1	-38.0	24.0	0.00e+00	123	42	0	1901068288	46	6229
2026-01-23 15:16:17.60	217.69	23.90	-37.1	-38.0	24.0	0.00e+00	123	42	0	1904214016	46	6224
2026-01-23 15:16:18.61	217.65	23.74	-36.8	-37.7	24.2	0.00e+00	122	42	0	1906311168	46	6062
2026-01-23 15:16:19.62	217.60	23.59	-36.9	-37.8	24.2	0.00e+00	120	42	0	1909456896	46	6088
2026-01-23 15:16:20.63	217.56	23.44	-37.0	-37.9	24.2	0.00e+00	123	42	0	1912602624	46	6180
2026-01-23 15:16:21.64	217.51	23.29	-36.8	-37.7	24.2	0.00e+00	120	42	0	1916796928	46	6027
2026-01-23 15:16:22.65	217.47	23.15	-36.8	-37.8	24.2	0.00e+00	123	42	0	1919942656	46	6066
2026-01-23 15:16:23.66	217.42	23.00	-36.8	-37.8	24.1	0.00e+00	122	42	0	1923088384	46	6078
2026-01-23 15:16:24.67	217.38	22.85	-36.9	-37.9	24.1	0.00e+00	122	42	0	1926234112	46	6149
2026-01-23 15:16:25.68	217.34	22.70	-36.9	-37.8	24.1	0.00e+00	123	42	0	1928331264	46	6132
2026-01-23 15:16:26.68	217.30	22.56	-36.7	-37.7	24.2	0.00e+00	122	42	0	1931476992	46	5998
2026-01-23 15:16:27.69	217.25	22.42	-36.6	-37.5	24.4	0.00e+00	123	42	0	1935671296	46	5882
2026-01-23 15:16:28.70	217.21	22.27	-36.5	-37.4	24.4	0.00e+00	122	42	0	1938817024	46	5836
2026-01-23 15:16:29.71	217.17	22.13	-36.5	-37.4	24.4	0.00e+00	123	42	0	1941962752	46	5851
2026-01-23 15:16:30.72	217.13	21.99	-36.4	-37.3	24.5	0.00e+00	123	42	0	1945108480	46	5784
2026-01-23 15:16:31.73	217.09	21.85	-36.3	-37.2	24.6	0.00e+00	122	42	0	1948254208	46	5671
2026-01-23 15:16:32.74	217.05	21.71	-36.3	-37.2	24.5	0.00e+00	122	42	0	1951399936	46	5712
2026-01-23 15:16:33.75	217.01	21.57	-36.3	-37.2	24.6	0.00e+00	123	42	0	1954545664	46	5663
2026-01-23 15:16:34.76	216.97	21.43	-36.3	-37.2	24.5	0.00e+00	120	42	0	1957691392	46	5703
