passes_logs/2026/01/23/R4.6S_Anadyr/R4.6S_Anadyr__20260123_234955_SUOMI_NPP_rec.log

#Pass ID: 20260123_234955_SUOMI NPP
#Satellite: SUOMI NPP
#Configuration: NPP
#almurnet v.1.7.20251203
#Start time: 2026-01-23 23:49:57

#Version: 2.2.20231116
#Station: R4.6S_Anadyr
#Location: 177.4865 lon 64.73178 lat
#TLE: 1 37849U 11061A   26023.63275593  .00000212  00000+0  12133-3 0  9990
#TLE: 2 37849  98.7820 325.6074 0002234  48.9695 311.1673 14.19528901737937

#Time	Az	El	Level	Level2	SNR	BER	BlckErr	Temp	State	Recorded	gain1	gain2
2026-01-23 23:49:57.99	144.80	0.16	-51.2	-63.7	3.4	1.52e+00	0	39	0	0	60	53963
2026-01-23 23:49:59.00	144.79	0.22	-51.1	-66.3	3.6	1.51e+00	0	40	104	0	60	74421
2026-01-23 23:50:00.01	144.78	0.28	-51.1	-66.3	3.6	1.51e+00	0	40	104	0	60	74566
2026-01-23 23:50:01.02	144.77	0.34	-51.1	-66.3	3.6	1.51e+00	0	40	104	0	60	74525
2026-01-23 23:50:02.03	144.76	0.40	-51.1	-66.2	3.6	1.51e+00	0	40	104	0	60	74137
2026-01-23 23:50:03.04	144.75	0.46	-51.0	-66.2	3.6	1.51e+00	0	40	104	0	60	74207
2026-01-23 23:50:04.05	144.74	0.52	-51.1	-66.3	3.6	1.51e+00	0	40	104	0	60	74375
2026-01-23 23:50:05.06	144.73	0.58	-51.1	-66.3	3.6	1.51e+00	0	40	104	0	60	74416
2026-01-23 23:50:06.07	144.72	0.65	-51.0	-66.2	3.6	1.51e+00	0	40	104	0	60	73715
2026-01-23 23:50:07.08	144.71	0.71	-51.1	-66.3	3.6	1.51e+00	0	40	104	0	60	74423
2026-01-23 23:50:08.09	144.70	0.77	-51.1	-66.2	3.6	1.51e+00	0	40	104	0	60	74216
2026-01-23 23:50:09.10	144.69	0.83	-51.1	-66.3	3.6	1.51e+00	0	40	104	0	60	74491
2026-01-23 23:50:10.11	144.68	0.89	-51.0	-66.2	3.6	1.51e+00	0	40	104	0	60	74047
2026-01-23 23:50:11.12	144.67	0.96	-51.0	-66.2	3.6	1.51e+00	0	40	104	0	60	73726
2026-01-23 23:50:12.13	144.66	1.02	-50.9	-66.1	3.6	1.51e+00	0	40	104	0	60	73269
2026-01-23 23:50:13.14	144.65	1.08	-50.8	-66.0	3.6	1.51e+00	0	41	104	0	60	72481
2026-01-23 23:50:14.15	144.64	1.15	-50.8	-66.0	3.6	1.51e+00	0	40	104	0	60	71781
2026-01-23 23:50:15.16	144.63	1.21	-50.6	-65.8	3.6	1.51e+00	0	40	104	0	60	70721
2026-01-23 23:50:16.17	144.61	1.27	-50.6	-65.7	3.6	1.51e+00	0	40	104	0	60	69810
2026-01-23 23:50:17.18	144.60	1.33	-50.4	-65.7	3.6	1.51e+00	0	40	104	0	60	69696
2026-01-23 23:50:18.19	144.59	1.40	-50.3	-65.5	3.6	1.51e+00	0	41	104	0	60	68424
2026-01-23 23:50:19.20	144.58	1.46	-50.1	-65.4	3.6	1.51e+00	0	41	104	0	60	67108
2026-01-23 23:50:20.21	144.57	1.52	-49.9	-65.1	3.6	1.51e+00	0	41	104	0	60	65251
2026-01-23 23:50:21.22	144.56	1.59	-49.5	-64.8	3.6	1.51e+00	0	41	104	0	60	62717
2026-01-23 23:50:22.23	144.55	1.65	-49.3	-64.5	3.5	1.51e+00	0	41	104	0	60	60645
2026-01-23 23:50:23.24	144.54	1.72	-48.9	-64.2	3.6	1.51e+00	0	41	104	0	60	58515
2026-01-23 23:50:24.25	144.53	1.78	-48.9	-64.2	3.6	1.51e+00	0	40	104	0	60	58611
2026-01-23 23:50:25.26	144.52	1.84	-48.9	-64.2	3.6	1.51e+00	0	41	104	0	60	58342
2026-01-23 23:50:26.27	144.51	1.91	-48.9	-64.1	3.6	1.51e+00	0	41	104	0	60	57987
2026-01-23 23:50:27.28	144.49	1.97	-48.9	-64.1	3.6	1.51e+00	0	40	104	0	60	58048
2026-01-23 23:50:28.29	144.48	2.04	-48.9	-64.1	3.6	1.51e+00	0	41	104	0	60	58271
2026-01-23 23:50:29.30	144.47	2.10	-48.9	-64.2	3.6	1.51e+00	0	40	104	0	60	58617
2026-01-23 23:50:30.31	144.46	2.17	-48.9	-64.1	3.6	1.51e+00	0	41	104	0	60	57814
2026-01-23 23:50:31.32	144.45	2.23	-48.9	-64.1	3.6	1.51e+00	0	41	104	0	60	58222
2026-01-23 23:50:32.33	144.44	2.30	-48.9	-64.2	3.6	1.51e+00	0	41	104	0	60	58349
2026-01-23 23:50:33.34	144.43	2.36	-48.9	-64.1	3.6	1.51e+00	0	41	104	0	60	58117
2026-01-23 23:50:34.35	144.41	2.43	-48.9	-64.1	3.6	1.51e+00	0	41	104	0	60	58231
2026-01-23 23:50:35.36	144.40	2.50	-48.9	-64.1	3.5	1.51e+00	0	41	104	0	60	58043
2026-01-23 23:50:36.37	144.39	2.56	-48.9	-64.1	3.6	1.51e+00	0	40	104	0	60	57820
2026-01-23 23:50:37.38	144.38	2.63	-48.9	-64.1	3.6	1.51e+00	0	41	104	0	60	57881
2026-01-23 23:50:38.39	144.37	2.69	-48.9	-64.1	3.6	1.51e+00	0	41	104	0	60	57864
2026-01-23 23:50:39.40	144.35	2.76	-48.9	-64.1	3.6	1.51e+00	0	41	104	0	60	58029
2026-01-23 23:50:40.41	144.34	2.83	-48.9	-64.2	3.6	1.51e+00	0	41	104	0	60	58357
2026-01-23 23:50:41.42	144.33	2.89	-48.9	-64.2	3.6	1.51e+00	0	41	104	0	60	58454
2026-01-23 23:50:42.43	144.32	2.96	-48.9	-64.2	3.6	1.51e+00	0	41	104	0	60	58296
2026-01-23 23:50:43.44	144.31	3.03	-48.9	-64.1	3.6	1.51e+00	0	41	104	0	60	57818
2026-01-23 23:50:44.45	144.29	3.09	-48.9	-64.1	3.6	1.51e+00	0	41	104	0	60	57956
2026-01-23 23:50:45.46	144.28	3.16	-48.9	-64.0	3.6	1.51e+00	0	41	104	0	60	57002
2026-01-23 23:50:46.47	144.27	3.23	-48.9	-63.5	3.6	1.51e+00	0	41	104	0	60	54169
2026-01-23 23:50:47.48	144.26	3.30	-48.8	-62.6	3.6	1.51e+00	0	41	104	0	60	48692
2026-01-23 23:50:48.49	144.24	3.37	-48.7	-61.2	3.9	1.48e+00	0	41	104	0	60	41593
2026-01-23 23:50:49.50	144.23	3.43	-48.6	-58.4	4.2	1.30e+00	0	41	0	0	60	30081
2026-01-23 23:50:50.51	144.22	3.50	-48.4	-56.3	5.6	6.92e-01	92	41	0	2097152	60	23710
2026-01-23 23:50:51.52	144.20	3.57	-48.2	-55.2	6.9	2.09e-01	77	41	0	4194304	60	20805
2026-01-23 23:50:52.53	144.19	3.64	-47.8	-54.0	8.4	7.97e-02	0	41	0	5242880	60	18101
2026-01-23 23:50:53.54	144.18	3.71	-47.7	-53.4	9.4	3.03e-02	92	41	0	7340032	60	16839
2026-01-23 23:50:54.55	144.17	3.78	-47.3	-52.4	10.5	6.58e-03	0	41	0	8388608	60	15004
2026-01-23 23:50:55.56	144.15	3.84	-47.0	-51.6	11.2	2.27e-03	87	41	0	10485760	60	13768
2026-01-23 23:50:56.57	144.14	3.91	-48.5	-61.7	3.6	6.13e-03	17	41	104	12582912	60	44173
2026-01-23 23:50:57.58	144.13	3.98	-48.9	-63.8	3.6	1.51e+00	0	41	104	12582912	60	56033
2026-01-23 23:50:58.59	144.11	4.05	-47.1	-52.0	5.4	1.49e+00	0	41	104	12582912	60	14421
2026-01-23 23:50:59.60	144.10	4.12	-44.9	-47.3	16.3	4.43e-01	73	41	0	12582912	60	8341
2026-01-23 23:51:00.61	144.09	4.19	-48.2	-56.9	3.5	0.00e+00	57	41	0	14680064	60	25301
2026-01-23 23:51:01.62	144.07	4.26	-45.3	-48.1	15.9	9.75e-01	0	41	104	14680064	60	9232
2026-01-23 23:51:02.63	144.06	4.33	-44.0	-46.1	17.2	0.00e+00	88	41	0	15728640	60	7289
2026-01-23 23:51:03.64	144.04	4.40	-43.7	-45.7	17.5	0.00e+00	0	41	0	17825792	60	6985
2026-01-23 23:51:04.65	144.03	4.47	-43.7	-45.8	17.5	0.00e+00	92	41	0	19922944	60	7021
2026-01-23 23:51:05.66	144.02	4.54	-43.8	-45.9	17.0	0.00e+00	33	41	0	22020096	60	7162
2026-01-23 23:51:06.66	144.00	4.61	-44.1	-46.3	17.0	0.00e+00	92	41	0	23068672	60	7466
2026-01-23 23:51:07.67	143.99	4.69	-44.1	-46.3	17.1	0.00e+00	91	41	0	25165824	60	7469
2026-01-23 23:51:08.68	143.97	4.76	-44.1	-46.3	17.1	0.00e+00	0	41	0	27262976	60	7486
2026-01-23 23:51:09.69	143.96	4.83	-43.9	-46.0	17.2	0.00e+00	76	41	0	29360128	60	7247
2026-01-23 23:51:10.70	143.95	4.90	-43.8	-45.9	17.4	0.00e+00	0	41	0	31457280	60	7096
2026-01-23 23:51:11.71	143.93	4.97	-43.7	-45.6	17.7	0.00e+00	92	41	0	32505856	60	6875
2026-01-23 23:51:12.72	143.92	5.04	-43.7	-45.5	17.8	0.00e+00	0	41	0	34603008	60	6812
2026-01-23 23:51:13.73	143.90	5.12	-43.8	-45.6	17.7	0.00e+00	92	41	0	36700160	60	6924
2026-01-23 23:51:14.74	143.89	5.19	-43.4	-45.2	18.2	0.00e+00	92	41	0	38797312	60	6544
2026-01-23 23:51:15.74	143.87	5.26	-43.4	-45.3	18.0	0.00e+00	0	41	0	40894464	60	6622
2026-01-23 23:51:16.75	143.86	5.33	-43.2	-45.0	18.4	0.00e+00	53	41	0	41943040	60	6432
2026-01-23 23:51:17.76	143.84	5.41	-42.9	-44.6	18.7	0.00e+00	0	41	0	44040192	60	6139
2026-01-23 23:51:18.77	143.83	5.48	-43.0	-44.7	18.6	0.00e+00	90	41	0	46137344	60	6175
2026-01-23 23:51:19.78	143.81	5.55	-42.9	-44.5	18.7	0.00e+00	0	41	0	48234496	60	6076
2026-01-23 23:51:20.79	143.80	5.63	-42.8	-44.4	18.7	0.00e+00	92	41	0	50331648	60	6027
2026-01-23 23:51:21.80	143.78	5.70	-42.9	-44.5	18.7	0.00e+00	92	41	0	51380224	60	6066
2026-01-23 23:51:22.81	143.77	5.78	-42.9	-44.5	18.6	0.00e+00	0	41	0	53477376	60	6068
2026-01-23 23:51:23.82	143.75	5.85	-43.0	-44.7	18.6	0.00e+00	84	41	0	55574528	60	6224
2026-01-23 23:51:24.83	143.73	5.93	-43.2	-44.9	18.4	0.00e+00	0	41	0	57671680	60	6343
2026-01-23 23:51:25.84	143.72	6.00	-43.1	-44.9	18.4	0.00e+00	92	41	0	59768832	60	6365
2026-01-23 23:51:26.85	143.70	6.08	-43.0	-44.8	18.5	0.00e+00	0	41	0	60817408	60	6277
2026-01-23 23:51:27.86	143.69	6.15	-43.2	-45.1	18.3	0.00e+00	92	41	0	62914560	60	6469
2026-01-23 23:51:28.87	143.67	6.23	-43.1	-44.9	18.5	0.00e+00	92	41	0	65011712	60	6369
2026-01-23 23:51:29.88	143.66	6.30	-43.1	-45.0	18.4	0.00e+00	0	41	0	67108864	60	6391
2026-01-23 23:51:30.89	143.64	6.38	-43.2	-45.0	18.4	0.00e+00	90	41	0	69206016	60	6434
2026-01-23 23:51:31.90	143.62	6.45	-43.0	-44.8	18.6	0.00e+00	0	41	0	70254592	60	6248
2026-01-23 23:51:32.91	143.61	6.53	-42.9	-44.5	19.0	0.00e+00	92	41	0	72351744	60	6096
2026-01-23 23:51:33.92	143.59	6.61	-43.0	-44.7	18.9	0.00e+00	0	41	0	74448896	60	6218
2026-01-23 23:51:34.93	143.57	6.68	-42.4	-44.0	19.2	0.00e+00	92	41	0	76546048	58	6419
2026-01-23 23:51:35.94	143.56	6.76	-42.5	-44.1	19.4	0.00e+00	0	41	0	78643200	58	6490
2026-01-23 23:51:36.94	143.54	6.84	-42.2	-43.8	19.7	0.00e+00	92	41	0	79691776	58	6252
2026-01-23 23:51:37.96	143.52	6.91	-42.1	-43.6	19.9	0.00e+00	92	41	0	81788928	58	6105
2026-01-23 23:51:38.96	143.51	6.99	-42.0	-43.4	20.0	0.00e+00	0	41	0	83886080	58	6033
2026-01-23 23:51:39.97	143.49	7.07	-41.9	-43.3	20.2	0.00e+00	92	41	0	85983232	58	5940
2026-01-23 23:51:40.98	143.47	7.15	-41.8	-43.1	20.4	0.00e+00	0	41	0	88080384	58	5820
2026-01-23 23:51:41.99	143.45	7.23	-41.9	-43.2	20.2	0.00e+00	84	41	0	90177536	58	5862
2026-01-23 23:51:43.00	143.44	7.30	-42.0	-43.3	20.1	0.00e+00	0	41	0	91226112	58	5950
2026-01-23 23:51:44.01	143.42	7.38	-42.0	-43.4	20.0	0.00e+00	90	41	0	93323264	58	6018
2026-01-23 23:51:45.02	143.40	7.46	-42.1	-43.4	20.0	0.00e+00	92	41	0	95420416	58	6011
2026-01-23 23:51:46.03	143.38	7.54	-42.0	-43.3	20.1	0.00e+00	0	41	0	97517568	58	5941
2026-01-23 23:51:47.04	143.37	7.62	-42.0	-43.4	20.1	0.00e+00	92	41	0	99614720	58	5973
2026-01-23 23:51:48.05	143.35	7.70	-42.3	-43.8	19.8	0.00e+00	0	41	0	100663296	58	6251
2026-01-23 23:51:49.06	143.33	7.78	-42.5	-44.0	19.5	0.00e+00	53	41	0	102760448	58	6404
2026-01-23 23:51:50.07	143.31	7.86	-42.3	-43.7	19.8	0.00e+00	0	41	0	104857600	58	6230
2026-01-23 23:51:51.08	143.29	7.94	-42.4	-43.9	19.8	0.00e+00	92	41	0	106954752	58	6323
2026-01-23 23:51:52.09	143.27	8.02	-42.3	-43.7	19.9	0.00e+00	66	41	0	109051904	58	6241
2026-01-23 23:51:53.10	143.25	8.10	-42.1	-43.6	20.1	0.00e+00	0	41	0	110100480	58	6105
2026-01-23 23:51:54.11	143.24	8.19	-42.0	-43.3	20.2	0.00e+00	86	41	0	112197632	58	5946
2026-01-23 23:51:55.12	143.22	8.27	-41.6	-42.9	20.6	0.00e+00	0	41	0	114294784	56	6339
2026-01-23 23:51:56.13	143.20	8.35	-41.7	-43.0	20.6	0.00e+00	90	41	0	116391936	56	6450
2026-01-23 23:51:57.14	143.18	8.43	-41.8	-43.0	20.6	0.00e+00	0	41	0	118489088	56	6450
2026-01-23 23:51:58.14	143.16	8.51	-41.7	-42.9	20.8	0.00e+00	92	41	0	119537664	56	6355
2026-01-23 23:51:59.15	143.14	8.60	-41.5	-42.6	20.9	0.00e+00	89	41	0	121634816	56	6173
2026-01-23 23:52:00.16	143.12	8.68	-41.5	-42.8	20.8	0.00e+00	0	41	0	123731968	56	6252
2026-01-23 23:52:01.17	143.10	8.76	-41.7	-42.9	20.7	0.00e+00	92	41	0	125829120	56	6348
2026-01-23 23:52:02.18	143.08	8.84	-41.5	-42.7	20.9	0.00e+00	31	41	0	127926272	56	6192
2026-01-23 23:52:03.19	143.06	8.93	-41.6	-42.8	20.7	0.00e+00	92	41	0	128974848	56	6296
2026-01-23 23:52:04.20	143.04	9.01	-41.6	-42.9	20.8	0.00e+00	0	41	0	131072000	56	6331
2026-01-23 23:52:05.21	143.02	9.10	-42.0	-43.3	20.3	0.00e+00	92	41	0	133169152	56	6674
2026-01-23 23:52:06.22	143.00	9.18	-41.8	-43.1	20.6	0.00e+00	48	41	0	135266304	56	6516
2026-01-23 23:52:07.23	142.98	9.27	-41.8	-43.1	20.5	0.00e+00	0	41	0	137363456	56	6524
2026-01-23 23:52:08.23	142.96	9.35	-41.8	-43.1	20.6	0.00e+00	92	41	0	138412032	56	6530
2026-01-23 23:52:09.24	142.94	9.44	-41.9	-43.2	20.6	0.00e+00	0	41	0	140509184	56	6557
2026-01-23 23:52:10.25	142.92	9.52	-41.9	-43.2	20.5	0.00e+00	87	41	0	142606336	56	6581
2026-01-23 23:52:11.26	142.90	9.61	-41.6	-42.9	20.8	0.00e+00	0	41	0	144703488	56	6341
2026-01-23 23:52:12.27	142.88	9.69	-41.6	-42.8	20.9	0.00e+00	92	41	0	146800640	56	6292
2026-01-23 23:52:13.28	142.86	9.78	-41.5	-42.7	20.9	0.00e+00	81	41	0	147849216	56	6228
2026-01-23 23:52:14.29	142.83	9.87	-41.4	-42.6	21.0	0.00e+00	92	41	0	149946368	56	6131
2026-01-23 23:52:15.30	142.81	9.95	-41.2	-42.4	21.1	0.00e+00	90	41	0	152043520	56	5994
2026-01-23 23:52:16.31	142.79	10.04	-41.3	-42.5	21.1	0.00e+00	0	41	0	154140672	56	6038
2026-01-23 23:52:17.32	142.77	10.13	-41.2	-42.3	21.3	0.00e+00	86	41	0	156237824	56	5935
2026-01-23 23:52:18.33	142.75	10.22	-40.9	-42.0	21.3	0.00e+00	0	41	0	158334976	56	5759
2026-01-23 23:52:19.34	142.72	10.31	-41.0	-42.1	21.4	0.00e+00	92	41	0	159383552	56	5824
2026-01-23 23:52:20.35	142.70	10.40	-41.0	-42.1	21.5	0.00e+00	49	41	0	161480704	56	5791
2026-01-23 23:52:21.36	142.68	10.48	-41.1	-42.2	21.0	0.00e+00	92	41	0	163577856	56	5876
2026-01-23 23:52:22.37	142.66	10.57	-41.1	-42.2	21.3	0.00e+00	92	41	0	165675008	56	5874
2026-01-23 23:52:23.37	142.63	10.66	-41.2	-42.3	21.1	0.00e+00	0	41	0	167772160	56	5940
2026-01-23 23:52:24.38	142.61	10.75	-41.1	-42.3	20.7	0.00e+00	92	41	0	168820736	56	5949
2026-01-23 23:52:25.39	142.59	10.84	-41.1	-42.3	21.2	7.00e-07	0	41	0	170917888	56	5943
2026-01-23 23:52:26.40	142.56	10.93	-41.2	-42.4	21.1	0.00e+00	92	41	0	173015040	56	6001
2026-01-23 23:52:27.41	142.54	11.02	-41.1	-42.3	21.2	0.00e+00	0	41	0	175112192	56	5902
2026-01-23 23:52:28.42	142.52	11.12	-41.1	-42.2	21.3	7.00e-07	90	41	0	177209344	56	5888
2026-01-23 23:52:29.43	142.49	11.21	-41.1	-42.3	21.3	0.00e+00	91	41	0	178257920	56	5935
2026-01-23 23:52:30.44	142.47	11.30	-41.1	-42.3	21.1	7.00e-07	0	41	0	180355072	56	5919
2026-01-23 23:52:31.45	142.45	11.39	-40.7	-41.8	21.6	7.00e-07	92	41	0	182452224	54	6282
2026-01-23 23:52:32.46	142.42	11.49	-40.9	-42.0	16.3	0.00e+00	0	41	0	184549376	54	6402
2026-01-23 23:52:33.47	142.40	11.58	-40.9	-42.0	21.0	0.00e+00	76	41	0	186646528	54	6413
2026-01-23 23:52:34.48	142.37	11.67	-40.9	-42.1	21.4	0.00e+00	0	41	0	187695104	54	6466
2026-01-23 23:52:35.49	142.35	11.77	-41.0	-42.2	21.1	0.00e+00	92	41	0	189792256	54	6614
2026-01-23 23:52:36.49	142.32	11.86	-41.1	-42.3	20.4	0.00e+00	91	41	0	191889408	54	6666
2026-01-23 23:52:37.50	142.30	11.95	-41.0	-42.1	20.8	0.00e+00	0	41	0	193986560	54	6515
2026-01-23 23:52:38.51	142.27	12.05	-40.9	-42.0	21.3	0.00e+00	90	41	0	196083712	54	6452
2026-01-23 23:52:39.52	142.25	12.14	-40.7	-41.8	21.6	0.00e+00	0	41	0	197132288	54	6279
2026-01-23 23:52:40.53	142.22	12.24	-40.8	-42.0	21.5	0.00e+00	92	41	0	199229440	54	6406
2026-01-23 23:52:41.54	142.19	12.33	-40.7	-41.9	21.7	0.00e+00	0	41	0	201326592	54	6324
2026-01-23 23:52:42.55	142.17	12.43	-40.8	-42.0	21.6	0.00e+00	92	41	0	203423744	54	6396
2026-01-23 23:52:43.56	142.14	12.53	-40.7	-41.8	21.6	0.00e+00	88	41	0	205520896	54	6249
2026-01-23 23:52:44.57	142.12	12.62	-40.5	-41.5	22.0	0.00e+00	92	41	0	206569472	54	6086
2026-01-23 23:52:45.58	142.09	12.72	-40.3	-41.4	22.0	0.00e+00	92	41	0	208666624	54	5991
2026-01-23 23:52:46.59	142.06	12.82	-40.3	-41.3	22.1	0.00e+00	0	41	0	210763776	54	5945
2026-01-23 23:52:47.60	142.04	12.92	-40.2	-41.2	22.3	0.00e+00	92	41	0	212860928	54	5844
2026-01-23 23:52:48.61	142.01	13.02	-40.1	-41.0	22.4	0.00e+00	0	41	0	214958080	54	5760
2026-01-23 23:52:49.62	141.98	13.12	-39.9	-40.8	22.6	0.00e+00	92	41	0	216006656	54	5619
2026-01-23 23:52:50.63	141.95	13.22	-40.0	-40.9	22.6	0.00e+00	82	41	0	218103808	54	5683
2026-01-23 23:52:51.64	141.92	13.32	-39.8	-40.7	22.8	0.00e+00	90	41	0	220200960	54	5562
2026-01-23 23:52:52.65	141.90	13.42	-39.9	-40.8	22.6	0.00e+00	92	41	0	222298112	52	6315
2026-01-23 23:52:53.66	141.87	13.52	-39.9	-40.9	22.2	0.00e+00	0	41	0	224395264	52	6364
2026-01-23 23:52:54.67	141.84	13.62	-40.1	-41.1	22.5	0.00e+00	84	41	0	226492416	52	6484
2026-01-23 23:52:55.68	141.81	13.72	-40.0	-41.0	22.2	0.00e+00	0	41	0	227540992	52	6402
2026-01-23 23:52:56.69	141.78	13.82	-40.0	-40.9	22.6	0.00e+00	92	41	0	229638144	52	6378
2026-01-23 23:52:57.69	141.75	13.92	-40.1	-41.0	22.6	0.00e+00	0	41	0	231735296	52	6455
2026-01-23 23:52:58.70	141.72	14.02	-40.0	-41.0	22.7	0.00e+00	90	41	0	233832448	52	6416
2026-01-23 23:52:59.71	141.69	14.13	-40.2	-41.2	22.6	0.00e+00	92	41	0	235929600	52	6592
2026-01-23 23:53:00.72	141.66	14.23	-39.9	-40.8	22.8	0.00e+00	0	41	0	236978176	52	6292
2026-01-23 23:53:01.73	141.63	14.33	-39.8	-40.8	22.9	0.00e+00	86	41	0	239075328	52	6255
2026-01-23 23:53:02.74	141.60	14.44	-39.7	-40.7	23.0	0.00e+00	0	41	0	241172480	52	6196
2026-01-23 23:53:03.75	141.57	14.54	-39.8	-40.8	22.9	0.00e+00	92	41	0	243269632	52	6283
2026-01-23 23:53:04.76	141.54	14.65	-39.4	-40.3	23.4	0.00e+00	0	41	0	245366784	52	5958
2026-01-23 23:53:05.77	141.51	14.76	-39.5	-40.4	23.2	0.00e+00	92	41	0	246415360	52	6023
2026-01-23 23:53:06.78	141.48	14.86	-39.6	-40.5	23.3	0.00e+00	92	41	0	248512512	52	6083
2026-01-23 23:53:07.79	141.45	14.97	-39.4	-40.3	23.3	0.00e+00	64	41	0	250609664	52	5952
2026-01-23 23:53:08.80	141.42	15.08	-39.3	-40.2	23.4	0.00e+00	92	41	0	252706816	52	5878
2026-01-23 23:53:09.81	141.38	15.18	-39.3	-40.2	23.4	0.00e+00	0	41	0	254803968	52	5895
2026-01-23 23:53:10.82	141.35	15.29	-39.3	-40.2	23.4	0.00e+00	92	41	0	255852544	52	5861
2026-01-23 23:53:11.83	141.32	15.40	-39.5	-40.4	23.4	0.00e+00	0	41	0	257949696	52	5989
2026-01-23 23:53:12.84	141.29	15.51	-39.5	-40.4	23.3	0.00e+00	92	41	0	260046848	52	6004
2026-01-23 23:53:13.85	141.25	15.62	-39.3	-40.2	23.5	0.00e+00	86	41	0	262144000	52	5877
2026-01-23 23:53:14.85	141.22	15.73	-39.2	-40.2	23.6	0.00e+00	92	41	0	264241152	52	5833
2026-01-23 23:53:15.87	141.19	15.84	-39.3	-40.3	23.4	0.00e+00	92	41	0	265289728	52	5907
2026-01-23 23:53:16.87	141.15	15.95	-39.3	-40.2	23.5	0.00e+00	0	41	0	267386880	52	5837
2026-01-23 23:53:17.88	141.12	16.06	-39.3	-40.2	23.4	0.00e+00	92	41	0	269484032	52	5856
2026-01-23 23:53:18.89	141.08	16.17	-39.2	-40.1	23.6	0.00e+00	0	41	0	271581184	52	5821
2026-01-23 23:53:19.90	141.05	16.28	-39.2	-40.1	23.6	0.00e+00	87	41	0	273678336	52	5769
2026-01-23 23:53:20.91	141.01	16.40	-39.3	-40.2	23.5	0.00e+00	0	41	0	274726912	52	5882
2026-01-23 23:53:21.92	140.98	16.51	-39.1	-40.0	23.6	0.00e+00	93	41	0	276824064	52	5746
2026-01-23 23:53:22.93	140.94	16.62	-39.1	-40.0	23.6	0.00e+00	92	41	0	278921216	52	5704
2026-01-23 23:53:23.94	140.91	16.74	-39.1	-40.0	23.7	0.00e+00	0	41	0	281018368	52	5739
2026-01-23 23:53:24.95	140.87	16.85	-39.1	-40.0	23.6	0.00e+00	88	41	0	283115520	52	5704
2026-01-23 23:53:25.96	140.83	16.97	-39.1	-40.0	23.8	0.00e+00	0	41	0	284164096	52	5715
2026-01-23 23:53:26.97	140.80	17.09	-39.1	-40.0	23.7	0.00e+00	92	41	0	286261248	52	5723
2026-01-23 23:53:27.98	140.76	17.20	-39.1	-40.0	23.7	0.00e+00	0	41	0	288358400	52	5732
2026-01-23 23:53:28.99	140.72	17.32	-39.1	-40.0	23.7	0.00e+00	92	41	0	290455552	52	5727
2026-01-23 23:53:29.99	140.69	17.44	-39.0	-39.9	23.8	0.00e+00	92	41	0	292552704	52	5655
2026-01-23 23:53:31.00	140.65	17.55	-38.8	-39.7	23.9	0.00e+00	0	41	0	293601280	52	5520
2026-01-23 23:53:32.02	140.61	17.67	-38.9	-39.7	23.8	0.00e+00	65	41	0	295698432	52	5562
2026-01-23 23:53:33.03	140.57	17.79	-38.9	-39.8	23.8	0.00e+00	0	41	0	297795584	52	5600
2026-01-23 23:53:34.04	140.53	17.91	-39.0	-39.8	23.8	0.00e+00	75	41	0	299892736	52	5614
2026-01-23 23:53:35.04	140.49	18.03	-38.9	-39.8	23.8	0.00e+00	0	41	0	301989888	52	5571
2026-01-23 23:53:36.06	140.45	18.16	-38.9	-39.8	23.9	0.00e+00	92	41	0	304087040	52	5577
2026-01-23 23:53:37.06	140.41	18.28	-39.0	-39.8	23.9	0.00e+00	92	41	0	305135616	52	5612
2026-01-23 23:53:38.08	140.37	18.40	-39.0	-39.9	23.9	0.00e+00	0	41	0	307232768	52	5664
2026-01-23 23:53:39.09	140.33	18.52	-39.1	-40.0	23.7	0.00e+00	92	41	0	309329920	52	5713
2026-01-23 23:53:40.10	140.29	18.65	-39.3	-40.2	23.6	0.00e+00	0	41	0	311427072	52	5835
2026-01-23 23:53:41.11	140.25	18.77	-39.1	-40.0	23.7	0.00e+00	92	41	0	313524224	52	5725
2026-01-23 23:53:42.11	140.21	18.89	-39.1	-40.0	23.8	0.00e+00	0	41	0	314572800	52	5708
2026-01-23 23:53:43.12	140.16	19.02	-39.1	-40.0	23.8	0.00e+00	92	41	0	316669952	52	5697
2026-01-23 23:53:44.13	140.12	19.14	-39.1	-40.0	23.8	0.00e+00	90	41	0	318767104	52	5711
2026-01-23 23:53:45.14	140.08	19.27	-39.2	-40.1	23.7	0.00e+00	0	41	0	320864256	52	5775
2026-01-23 23:53:46.15	140.04	19.40	-39.0	-39.9	23.8	0.00e+00	92	41	0	322961408	52	5636
2026-01-23 23:53:47.16	139.99	19.53	-39.2	-40.1	23.8	0.00e+00	0	41	0	324009984	52	5770
2026-01-23 23:53:48.17	139.95	19.65	-39.2	-40.1	23.7	0.00e+00	92	41	0	326107136	52	5817
2026-01-23 23:53:49.18	139.90	19.78	-39.1	-40.0	23.8	0.00e+00	30	41	0	328204288	52	5697
2026-01-23 23:53:50.19	139.86	19.91	-39.3	-40.2	23.6	0.00e+00	92	41	0	330301440	52	5871
2026-01-23 23:53:51.20	139.81	20.04	-39.3	-40.3	23.5	0.00e+00	77	41	0	332398592	52	5897
2026-01-23 23:53:52.21	139.77	20.17	-39.2	-40.1	23.6	0.00e+00	70	41	0	333447168	52	5776
2026-01-23 23:53:53.22	139.72	20.31	-39.5	-40.4	23.5	0.00e+00	92	41	0	335544320	52	5986
2026-01-23 23:53:54.22	139.67	20.44	-39.3	-40.2	23.5	0.00e+00	0	41	0	337641472	52	5882
2026-01-23 23:53:55.24	139.63	20.57	-39.3	-40.2	23.7	0.00e+00	89	41	0	339738624	52	5859
2026-01-23 23:53:56.25	139.58	20.71	-39.3	-40.2	23.6	0.00e+00	0	41	0	341835776	52	5895
2026-01-23 23:53:57.26	139.53	20.84	-39.3	-40.2	23.6	0.00e+00	92	41	0	342884352	52	5870
2026-01-23 23:53:58.27	139.48	20.98	-39.3	-40.2	23.5	0.00e+00	32	41	0	344981504	52	5896
2026-01-23 23:53:59.27	139.43	21.11	-39.4	-40.3	23.5	0.00e+00	92	41	0	347078656	52	5916
2026-01-23 23:54:00.29	139.38	21.25	-39.4	-40.3	23.4	0.00e+00	91	41	0	349175808	52	5945
2026-01-23 23:54:01.30	139.33	21.39	-39.6	-40.5	23.4	0.00e+00	0	41	0	351272960	52	6084
2026-01-23 23:54:02.30	139.29	21.52	-39.5	-40.4	23.4	0.00e+00	88	41	0	352321536	52	6028
2026-01-23 23:54:03.31	139.23	21.66	-39.8	-40.7	23.2	0.00e+00	0	41	0	354418688	52	6210
2026-01-23 23:54:04.32	139.18	21.80	-39.7	-40.6	23.2	0.00e+00	90	41	0	356515840	52	6164
2026-01-23 23:54:05.33	139.13	21.94	-39.5	-40.4	23.4	0.00e+00	0	41	0	358612992	52	6008
2026-01-23 23:54:06.34	139.08	22.08	-39.7	-40.6	23.2	0.00e+00	90	41	0	360710144	52	6134
2026-01-23 23:54:07.35	139.03	22.22	-39.8	-40.8	23.2	0.00e+00	91	41	0	361758720	52	6251
2026-01-23 23:54:08.36	138.97	22.37	-39.9	-40.9	23.2	0.00e+00	0	41	0	363855872	52	6325
2026-01-23 23:54:09.37	138.92	22.51	-39.7	-40.6	23.4	0.00e+00	92	41	0	365953024	52	6148
2026-01-23 23:54:10.38	138.87	22.65	-39.5	-40.5	23.5	0.00e+00	0	41	0	368050176	52	6039
2026-01-23 23:54:11.39	138.81	22.80	-39.6	-40.5	23.5	0.00e+00	92	41	0	370147328	52	6085
2026-01-23 23:54:12.40	138.76	22.94	-39.5	-40.4	23.6	0.00e+00	0	41	0	371195904	52	5972
2026-01-23 23:54:13.40	138.70	23.09	-39.3	-40.2	23.6	0.00e+00	92	41	0	373293056	52	5863
2026-01-23 23:54:14.41	138.64	23.24	-39.4	-40.3	23.5	0.00e+00	90	41	0	375390208	52	5946
2026-01-23 23:54:15.42	138.59	23.38	-39.2	-40.1	23.8	0.00e+00	0	41	0	377487360	52	5780
2026-01-23 23:54:16.43	138.53	23.53	-39.0	-39.8	24.1	0.00e+00	85	41	0	379584512	52	5598
2026-01-23 23:54:17.44	138.47	23.68	-39.1	-39.9	23.9	0.00e+00	0	41	0	380633088	52	5691
2026-01-23 23:54:18.45	138.41	23.83	-39.2	-40.1	23.7	0.00e+00	90	41	0	382730240	52	5810
2026-01-23 23:54:19.46	138.35	23.99	-39.3	-40.2	23.6	0.00e+00	0	41	0	384827392	52	5889
2026-01-23 23:54:20.47	138.29	24.14	-39.5	-40.4	23.5	0.00e+00	92	41	0	386924544	52	6001
2026-01-23 23:54:21.48	138.23	24.29	-39.5	-40.5	23.4	0.00e+00	75	41	0	389021696	52	6052
2026-01-23 23:54:22.49	138.17	24.44	-39.9	-40.9	23.2	0.00e+00	61	41	0	391118848	52	6325
2026-01-23 23:54:23.50	138.11	24.60	-40.0	-41.0	23.0	0.00e+00	92	41	0	392167424	52	6437
2026-01-23 23:54:24.51	138.05	24.76	-40.2	-41.2	22.9	0.00e+00	0	41	0	394264576	52	6609
2026-01-23 23:54:25.52	137.98	24.91	-40.5	-41.6	22.6	0.00e+00	92	41	0	396361728	52	6864
2026-01-23 23:54:26.53	137.92	25.07	-40.6	-41.7	22.5	0.00e+00	0	41	0	398458880	54	6179
2026-01-23 23:54:27.54	137.86	25.23	-40.8	-41.8	22.4	0.00e+00	92	41	0	400556032	54	6289
2026-01-23 23:54:28.55	137.79	25.39	-40.8	-41.8	22.4	0.00e+00	87	41	0	401604608	54	6300
2026-01-23 23:54:29.56	137.72	25.55	-40.6	-41.7	22.5	0.00e+00	25	41	0	403701760	54	6177
2026-01-23 23:54:30.56	137.66	25.71	-40.5	-41.6	22.6	0.00e+00	92	41	0	405798912	54	6112
2026-01-23 23:54:31.58	137.59	25.87	-40.7	-41.8	22.5	0.00e+00	0	41	0	407896064	54	6246
2026-01-23 23:54:32.58	137.52	26.03	-40.8	-41.9	22.4	0.00e+00	83	41	0	409993216	54	6335
2026-01-23 23:54:33.59	137.45	26.20	-40.4	-41.5	22.7	0.00e+00	0	41	0	411041792	54	6037
2026-01-23 23:54:34.60	137.39	26.36	-40.8	-41.8	22.4	0.00e+00	85	41	0	413138944	54	6287
2026-01-23 23:54:35.61	137.32	26.53	-40.7	-41.7	22.8	0.00e+00	0	41	0	415236096	54	6183
2026-01-23 23:54:36.62	137.24	26.69	-40.3	-41.3	22.9	0.00e+00	76	41	0	417333248	54	5930
2026-01-23 23:54:37.63	137.17	26.86	-40.4	-41.4	22.9	0.00e+00	92	41	0	419430400	54	6005
2026-01-23 23:54:38.64	137.10	27.03	-40.5	-41.4	22.7	0.00e+00	33	41	0	420478976	54	6023
2026-01-23 23:54:39.65	137.03	27.20	-40.5	-41.5	22.8	0.00e+00	89	41	0	422576128	54	6071
2026-01-23 23:54:40.66	136.95	27.37	-40.8	-41.7	22.6	0.00e+00	0	41	0	424673280	54	6236
2026-01-23 23:54:41.67	136.88	27.54	-40.7	-41.6	22.6	0.00e+00	92	41	0	426770432	54	6167
2026-01-23 23:54:42.68	136.80	27.72	-41.0	-42.0	22.2	0.00e+00	0	41	0	428867584	54	6441
2026-01-23 23:54:43.68	136.73	27.89	-40.8	-41.7	22.6	0.00e+00	92	41	0	429916160	54	6224
2026-01-23 23:54:44.69	136.65	28.06	-40.9	-41.9	22.3	0.00e+00	92	41	0	432013312	54	6341
2026-01-23 23:54:45.70	136.57	28.24	-41.0	-42.0	22.4	0.00e+00	0	41	0	434110464	54	6393
2026-01-23 23:54:46.71	136.49	28.42	-41.2	-42.2	22.2	0.00e+00	90	41	0	436207616	54	6599
2026-01-23 23:54:47.72	136.41	28.59	-41.3	-42.3	22.2	0.00e+00	0	41	0	438304768	54	6657
2026-01-23 23:54:48.73	136.33	28.77	-41.6	-42.7	22.0	0.00e+00	92	41	0	439353344	54	6939
2026-01-23 23:54:49.74	136.25	28.95	-41.2	-42.2	22.3	0.00e+00	0	41	0	441450496	54	6594
2026-01-23 23:54:50.75	136.16	29.13	-41.4	-42.5	21.9	0.00e+00	92	41	0	443547648	54	6779
2026-01-23 23:54:51.76	136.08	29.32	-41.3	-42.3	22.1	0.00e+00	87	41	0	445644800	54	6672
2026-01-23 23:54:52.77	135.99	29.50	-41.6	-42.7	21.9	0.00e+00	1	41	0	447741952	54	6941
2026-01-23 23:54:53.78	135.91	29.69	-42.0	-43.2	21.7	0.00e+00	73	41	0	448790528	56	6582
2026-01-23 23:54:54.79	135.82	29.87	-41.9	-43.0	21.6	0.00e+00	0	41	0	450887680	56	6439
2026-01-23 23:54:55.80	135.73	30.06	-41.8	-43.0	21.6	0.00e+00	89	41	0	452984832	56	6401
2026-01-23 23:54:56.81	135.64	30.25	-41.9	-43.0	21.5	0.00e+00	0	41	0	455081984	56	6436
2026-01-23 23:54:57.82	135.55	30.44	-42.0	-43.1	21.6	0.00e+00	92	41	0	457179136	56	6493
2026-01-23 23:54:58.83	135.46	30.63	-41.5	-42.6	22.0	0.00e+00	32	41	0	459276288	56	6105
2026-01-23 23:54:59.84	135.37	30.82	-41.8	-42.9	21.7	0.00e+00	0	41	0	460324864	56	6377
2026-01-23 23:55:00.85	135.28	31.01	-41.8	-42.9	22.0	0.00e+00	92	41	0	462422016	56	6346
2026-01-23 23:55:01.86	135.18	31.20	-41.9	-43.1	21.6	0.00e+00	0	41	0	464519168	56	6488
2026-01-23 23:55:02.87	135.08	31.40	-42.2	-43.4	21.2	0.00e+00	91	41	0	466616320	56	6760
2026-01-23 23:55:03.88	134.99	31.60	-42.7	-44.0	20.9	0.00e+00	0	41	0	468713472	56	7206
2026-01-23 23:55:04.89	134.89	31.79	-43.1	-44.5	20.3	0.00e+00	92	41	0	469762048	58	6801
2026-01-23 23:55:05.90	134.79	31.99	-43.4	-44.8	20.0	0.00e+00	7	41	0	471859200	58	7016
2026-01-23 23:55:06.91	134.69	32.19	-43.9	-45.3	19.7	0.00e+00	0	41	0	473956352	60	6668
2026-01-23 23:55:07.92	134.59	32.39	-44.3	-45.9	19.1	0.00e+00	91	41	0	476053504	60	7140
2026-01-23 23:55:08.93	134.48	32.60	-44.0	-45.4	19.5	0.00e+00	0	41	0	478150656	60	6769
2026-01-23 23:55:09.94	134.38	32.80	-44.1	-45.7	19.1	0.00e+00	91	41	0	479199232	60	6957
2026-01-23 23:55:10.95	134.27	33.01	-44.3	-45.9	18.9	0.00e+00	0	41	0	481296384	60	7099
2026-01-23 23:55:11.96	134.16	33.21	-44.6	-46.3	18.8	0.00e+00	90	41	0	483393536	60	7429
2026-01-23 23:55:12.97	134.05	33.42	-44.6	-46.3	18.8	0.00e+00	57	41	0	485490688	60	7461
2026-01-23 23:55:13.98	133.94	33.63	-44.6	-46.3	18.7	0.00e+00	91	41	0	487587840	60	7445
2026-01-23 23:55:14.99	133.83	33.84	-45.0	-46.9	17.9	0.00e+00	91	41	0	488636416	60	7985
2026-01-23 23:55:15.99	133.72	34.05	-45.3	-47.3	17.8	0.00e+00	0	41	0	490733568	60	8364
2026-01-23 23:55:17.00	133.60	34.26	-45.7	-47.7	16.9	0.00e+00	91	41	0	492830720	60	8798
2026-01-23 23:55:18.01	133.49	34.48	-46.3	-48.6	16.6	0.00e+00	0	41	0	494927872	60	9715
2026-01-23 23:55:19.02	133.37	34.69	-45.8	-47.9	17.1	0.00e+00	64	41	0	497025024	60	9019
2026-01-23 23:55:20.03	133.25	34.91	-45.7	-47.8	17.5	0.00e+00	0	41	0	498073600	60	8924
2026-01-23 23:55:21.04	133.13	35.13	-45.7	-47.9	17.2	0.00e+00	91	41	0	500170752	60	8983
2026-01-23 23:55:22.05	133.00	35.35	-46.0	-48.3	17.1	0.00e+00	92	41	0	502267904	60	9391
2026-01-23 23:55:23.06	132.88	35.57	-46.1	-48.5	16.7	0.00e+00	0	41	0	504365056	60	9581
2026-01-23 23:55:24.07	132.75	35.79	-46.4	-49.0	16.5	0.00e+00	90	41	0	506462208	60	10161
2026-01-23 23:55:25.07	132.63	36.01	-47.1	-50.2	14.7	0.00e+00	0	41	0	507510784	60	11718
2026-01-23 23:55:26.08	132.50	36.24	-46.2	-48.6	16.9	0.00e+00	67	41	0	509607936	60	9744
2026-01-23 23:55:27.09	132.36	36.46	-45.7	-47.8	17.3	0.00e+00	0	41	0	511705088	60	8897
2026-01-23 23:55:28.10	132.23	36.69	-45.9	-48.2	17.4	0.00e+00	92	41	0	513802240	60	9266
2026-01-23 23:55:29.11	132.09	36.92	-44.7	-46.5	18.7	0.00e+00	92	41	0	515899392	60	7635
2026-01-23 23:55:30.12	131.96	37.15	-44.6	-46.3	19.0	0.00e+00	0	41	0	516947968	60	7495
2026-01-23 23:55:31.13	131.82	37.38	-43.8	-45.2	19.9	0.00e+00	89	41	0	519045120	60	6599
2026-01-23 23:55:32.14	131.67	37.62	-42.8	-44.1	20.7	0.00e+00	0	41	0	521142272	60	5802
2026-01-23 23:55:33.15	131.53	37.85	-42.9	-44.2	20.4	0.00e+00	91	41	0	523239424	58	6592
2026-01-23 23:55:34.16	131.38	38.09	-42.7	-43.9	20.9	0.00e+00	0	41	0	525336576	58	6363
2026-01-23 23:55:35.17	131.24	38.33	-42.4	-43.6	21.1	0.00e+00	91	41	0	527433728	58	6153
2026-01-23 23:55:36.18	131.09	38.56	-42.8	-44.1	20.7	0.00e+00	87	41	0	528482304	58	6509
2026-01-23 23:55:37.19	130.93	38.81	-43.1	-44.4	20.6	0.00e+00	0	41	0	530579456	58	6742
2026-01-23 23:55:38.20	130.78	39.05	-43.2	-44.5	20.2	0.00e+00	92	41	0	532676608	58	6848
2026-01-23 23:55:39.21	130.62	39.29	-43.1	-44.5	20.3	0.00e+00	0	41	0	534773760	58	6825
2026-01-23 23:55:40.22	130.46	39.54	-43.3	-44.7	20.3	0.00e+00	91	41	0	536870912	58	6997
2026-01-23 23:55:41.23	130.30	39.78	-42.9	-44.2	21.1	0.00e+00	0	41	0	537919488	58	6613
2026-01-23 23:55:42.24	130.13	40.03	-43.0	-44.4	20.5	0.00e+00	92	42	0	540016640	58	6747
2026-01-23 23:55:43.25	129.96	40.28	-43.3	-44.8	20.3	0.00e+00	2	41	0	542113792	58	7038
2026-01-23 23:55:44.26	129.79	40.53	-43.6	-45.2	19.8	0.00e+00	92	41	0	544210944	58	7367
2026-01-23 23:55:45.27	129.62	40.79	-43.3	-44.7	20.1	0.00e+00	92	41	0	546308096	58	6998
2026-01-23 23:55:46.28	129.45	41.04	-43.5	-45.0	20.4	0.00e+00	0	41	0	547356672	58	7180
2026-01-23 23:55:47.29	129.27	41.30	-43.2	-44.5	20.6	0.00e+00	92	41	0	549453824	58	6836
2026-01-23 23:55:48.30	129.09	41.55	-42.8	-44.0	20.9	0.00e+00	0	41	0	551550976	58	6437
2026-01-23 23:55:49.31	128.90	41.81	-42.7	-43.9	21.0	0.00e+00	91	41	0	553648128	58	6368
2026-01-23 23:55:50.32	128.71	42.07	-42.4	-43.6	21.3	0.00e+00	91	41	0	555745280	58	6144
2026-01-23 23:55:51.33	128.52	42.33	-42.1	-43.2	21.6	0.00e+00	92	41	0	556793856	58	5896
2026-01-23 23:55:52.34	128.33	42.60	-41.7	-42.7	21.9	0.00e+00	92	41	0	558891008	56	6236
2026-01-23 23:55:53.35	128.13	42.86	-41.1	-42.1	22.5	0.00e+00	0	41	0	560988160	56	5802
2026-01-23 23:55:54.36	127.93	43.13	-40.8	-41.7	22.9	0.00e+00	69	41	0	563085312	56	5552
2026-01-23 23:55:55.36	127.73	43.39	-40.9	-41.8	21.8	0.00e+00	0	41	0	565182464	54	6305
2026-01-23 23:55:56.37	127.52	43.66	-40.7	-41.7	22.7	0.00e+00	91	41	0	566231040	54	6175
2026-01-23 23:55:57.38	127.31	43.93	-41.2	-42.2	22.4	0.00e+00	0	41	0	568328192	54	6602
2026-01-23 23:55:58.39	127.10	44.20	-41.1	-42.2	22.5	0.00e+00	91	41	0	570425344	54	6540
2026-01-23 23:55:59.40	126.88	44.47	-41.0	-42.0	22.5	0.00e+00	91	41	0	572522496	54	6435
2026-01-23 23:56:00.41	126.66	44.75	-40.7	-41.7	22.5	0.00e+00	0	41	0	574619648	54	6175
2026-01-23 23:56:01.42	126.43	45.02	-40.7	-41.7	22.8	0.00e+00	85	41	0	575668224	54	6179
2026-01-23 23:56:02.43	126.20	45.30	-41.1	-42.1	22.1	0.00e+00	0	41	0	577765376	54	6539
2026-01-23 23:56:03.44	125.97	45.58	-41.0	-42.0	22.6	0.00e+00	86	41	0	579862528	54	6428
2026-01-23 23:56:04.45	125.73	45.86	-40.8	-41.7	22.7	0.00e+00	0	41	0	581959680	54	6201
2026-01-23 23:56:05.46	125.49	46.14	-41.0	-41.9	22.6	0.00e+00	90	41	0	584056832	54	6376
2026-01-23 23:56:06.47	125.24	46.43	-40.6	-41.6	22.9	0.00e+00	83	41	0	585105408	54	6131
2026-01-23 23:56:07.48	124.99	46.71	-40.4	-41.3	23.0	0.00e+00	0	41	0	587202560	54	5947
2026-01-23 23:56:08.49	124.73	47.00	-40.2	-41.1	23.2	0.00e+00	49	41	0	589299712	54	5799
2026-01-23 23:56:09.50	124.47	47.28	-40.5	-41.4	23.1	0.00e+00	0	41	0	591396864	54	6019
2026-01-23 23:56:10.51	124.21	47.57	-40.5	-41.4	23.1	0.00e+00	83	41	0	593494016	54	6023
2026-01-23 23:56:11.52	123.93	47.86	-41.2	-42.2	22.3	0.00e+00	0	41	0	595591168	54	6615
2026-01-23 23:56:12.52	123.66	48.15	-41.3	-42.4	22.3	0.00e+00	92	42	0	596639744	54	6695
2026-01-23 23:56:13.53	123.38	48.44	-41.2	-42.3	22.3	0.00e+00	88	41	0	598736896	54	6647
2026-01-23 23:56:14.54	123.09	48.73	-40.5	-41.5	22.5	0.00e+00	0	41	0	600834048	54	6059
2026-01-23 23:56:15.55	122.80	49.03	-40.1	-41.1	23.3	0.00e+00	90	41	0	602931200	54	5768
2026-01-23 23:56:16.55	122.50	49.32	-40.2	-41.2	23.1	0.00e+00	0	41	0	603979776	54	5842
2026-01-23 23:56:17.57	122.20	49.62	-40.2	-41.1	23.2	0.00e+00	92	41	0	606076928	54	5789
2026-01-23 23:56:18.58	121.89	49.92	-40.0	-40.9	23.4	0.00e+00	0	41	0	608174080	54	5648
2026-01-23 23:56:19.59	121.57	50.21	-38.9	-39.8	24.2	0.00e+00	90	41	0	610271232	52	5567
2026-01-23 23:56:20.59	121.25	50.51	-38.7	-39.5	24.2	0.00e+00	65	41	0	612368384	50	6093
2026-01-23 23:56:21.60	120.92	50.81	-38.8	-39.7	24.2	0.00e+00	0	41	0	613416960	50	6190
2026-01-23 23:56:22.61	120.59	51.11	-39.5	-40.4	23.7	0.00e+00	92	41	0	615514112	50	6701
2026-01-23 23:56:23.62	120.24	51.41	-40.1	-41.0	23.7	0.00e+00	0	41	0	617611264	52	6421
2026-01-23 23:56:24.63	119.90	51.72	-39.5	-40.4	23.9	0.00e+00	48	41	0	619708416	52	5985
2026-01-23 23:56:25.64	119.54	52.02	-39.1	-40.0	24.2	0.00e+00	0	42	0	621805568	52	5709
2026-01-23 23:56:26.65	119.17	52.33	-39.5	-40.4	23.8	0.00e+00	92	41	0	623902720	52	5973
2026-01-23 23:56:27.66	118.80	52.63	-40.0	-40.9	23.3	0.00e+00	25	41	0	624951296	52	6332
2026-01-23 23:56:28.67	118.42	52.94	-41.0	-42.0	22.6	0.00e+00	92	41	0	627048448	54	6448
2026-01-23 23:56:29.68	118.03	53.24	-41.3	-42.4	22.1	0.00e+00	92	41	0	629145600	54	6738
2026-01-23 23:56:30.68	117.64	53.55	-41.7	-42.9	21.9	0.00e+00	0	41	0	631242752	56	6320
2026-01-23 23:56:31.69	117.24	53.85	-41.4	-42.6	22.1	0.00e+00	47	41	0	633339904	56	6127
2026-01-23 23:56:32.70	116.82	54.16	-41.3	-42.4	22.4	0.00e+00	0	41	0	634388480	56	5992
2026-01-23 23:56:33.71	116.40	54.47	-41.7	-42.8	22.0	0.00e+00	92	41	0	636485632	56	6298
2026-01-23 23:56:34.72	115.97	54.78	-41.7	-42.9	21.9	0.00e+00	9	41	0	638582784	56	6331
2026-01-23 23:56:35.73	115.53	55.08	-42.0	-43.1	21.7	0.00e+00	92	41	0	640679936	56	6524
2026-01-23 23:56:36.74	115.08	55.39	-41.6	-42.7	21.9	0.00e+00	92	41	0	642777088	56	6207
2026-01-23 23:56:37.75	114.62	55.70	-41.1	-42.1	22.6	0.00e+00	0	41	0	643825664	56	5801
2026-01-23 23:56:38.76	114.14	56.01	-41.0	-42.0	22.6	0.00e+00	55	42	0	645922816	56	5739
2026-01-23 23:56:39.77	113.66	56.32	-41.3	-42.3	22.3	0.00e+00	0	41	0	648019968	56	5931
2026-01-23 23:56:40.78	113.17	56.62	-41.5	-42.6	22.1	0.00e+00	92	41	0	650117120	56	6112
2026-01-23 23:56:41.79	112.67	56.93	-40.7	-41.6	22.9	0.00e+00	0	41	0	652214272	56	5485
2026-01-23 23:56:42.80	112.15	57.24	-40.9	-41.9	22.8	0.00e+00	92	41	0	653262848	54	6321
2026-01-23 23:56:43.81	111.62	57.54	-41.2	-42.2	22.4	0.00e+00	92	41	0	655360000	54	6564
2026-01-23 23:56:44.82	111.08	57.85	-41.2	-42.2	22.1	0.00e+00	0	41	0	657457152	54	6602
2026-01-23 23:56:45.83	110.53	58.15	-41.3	-42.3	22.3	0.00e+00	83	41	0	659554304	54	6689
2026-01-23 23:56:46.84	109.97	58.46	-41.5	-42.6	22.1	0.00e+00	0	41	0	661651456	54	6870
2026-01-23 23:56:47.85	109.39	58.76	-41.9	-43.0	21.6	0.00e+00	87	41	0	662700032	54	7239
2026-01-23 23:56:48.86	108.80	59.06	-42.0	-43.1	22.1	0.00e+00	0	41	0	664797184	56	6509
2026-01-23 23:56:49.87	108.20	59.36	-41.0	-42.0	22.7	0.00e+00	92	41	0	666894336	56	5704
2026-01-23 23:56:50.88	107.58	59.66	-41.1	-42.2	22.5	0.00e+00	76	41	0	668991488	56	5843
2026-01-23 23:56:51.89	106.94	59.95	-41.0	-42.0	22.7	0.00e+00	0	41	0	671088640	56	5759
2026-01-23 23:56:52.90	106.30	60.25	-40.7	-41.7	23.0	0.00e+00	76	41	0	672137216	54	6224
2026-01-23 23:56:53.90	105.64	60.54	-39.9	-40.8	23.6	0.00e+00	0	41	0	674234368	54	5606
2026-01-23 23:56:54.91	104.96	60.83	-39.1	-40.0	24.2	0.00e+00	92	41	0	676331520	52	5709
2026-01-23 23:56:55.92	104.27	61.11	-38.8	-39.6	24.1	0.00e+00	0	41	0	678428672	52	5495
2026-01-23 23:56:56.93	103.56	61.40	-38.5	-39.3	24.6	0.00e+00	92	41	0	680525824	50	5939
2026-01-23 23:56:57.94	102.83	61.68	-38.7	-39.5	24.5	0.00e+00	92	41	0	681574400	50	6058
2026-01-23 23:56:58.96	102.08	61.96	-39.2	-40.0	24.1	0.00e+00	0	41	0	683671552	50	6464
2026-01-23 23:56:59.96	101.33	62.24	-39.8	-40.7	23.6	0.00e+00	70	41	0	685768704	50	6997
2026-01-23 23:57:00.97	100.55	62.51	-39.8	-40.7	23.6	0.00e+00	0	41	0	687865856	52	6244
2026-01-23 23:57:01.98	99.76	62.78	-40.1	-41.0	23.2	0.00e+00	92	41	0	689963008	52	6427
2026-01-23 23:57:03.00	98.94	63.05	-39.7	-40.7	23.4	0.00e+00	0	41	0	692060160	52	6176
2026-01-23 23:57:04.00	98.11	63.31	-39.8	-40.7	23.6	0.00e+00	90	41	0	693108736	52	6244
2026-01-23 23:57:05.01	97.26	63.57	-39.5	-40.3	23.9	0.00e+00	0	41	0	695205888	52	5954
2026-01-23 23:57:06.02	96.39	63.82	-39.5	-40.4	23.8	0.00e+00	0	41	0	697303040	52	6009
2026-01-23 23:57:07.03	95.51	64.07	-39.7	-40.6	23.8	0.00e+00	92	41	0	699400192	52	6136
2026-01-23 23:57:08.04	94.60	64.31	-39.8	-40.7	23.6	0.00e+00	0	41	0	701497344	52	6206
2026-01-23 23:57:09.05	93.67	64.55	-39.3	-40.2	24.0	0.00e+00	18	41	0	702545920	52	5832
2026-01-23 23:57:10.05	92.74	64.78	-38.7	-39.5	24.6	0.00e+00	0	41	0	704643072	50	6054
2026-01-23 23:57:11.06	91.77	65.01	-38.4	-39.2	24.7	0.00e+00	76	41	0	706740224	50	5859
2026-01-23 23:57:12.07	90.79	65.23	-39.0	-39.8	23.9	0.00e+00	0	41	0	708837376	50	6312
2026-01-23 23:57:13.08	89.78	65.45	-40.1	-41.0	23.3	0.00e+00	64	41	0	710934528	52	6433
2026-01-23 23:57:14.09	88.76	65.66	-40.8	-41.8	22.6	0.00e+00	92	41	0	711983104	54	6309
2026-01-23 23:57:15.11	87.71	65.86	-41.0	-42.1	22.5	0.00e+00	0	41	0	714080256	54	6483
2026-01-23 23:57:16.11	86.65	66.05	-41.2	-42.3	22.4	0.00e+00	38	41	0	716177408	54	6629
2026-01-23 23:57:17.12	85.57	66.24	-41.8	-42.9	21.9	0.00e+00	29	41	0	718274560	56	6339
2026-01-23 23:57:18.13	84.47	66.42	-41.8	-42.9	21.9	0.00e+00	92	41	0	720371712	56	6388
2026-01-23 23:57:19.14	83.36	66.60	-41.3	-42.3	22.7	0.00e+00	0	41	0	721420288	56	5946
2026-01-23 23:57:20.15	82.22	66.76	-40.9	-42.0	22.4	0.00e+00	92	41	0	723517440	54	6396
2026-01-23 23:57:21.16	81.07	66.92	-41.9	-43.2	21.5	0.00e+00	91	41	0	725614592	56	6588
2026-01-23 23:57:22.17	79.90	67.07	-43.3	-44.9	20.4	0.00e+00	0	41	0	727711744	58	7106
2026-01-23 23:57:23.18	78.71	67.21	-42.1	-43.2	21.6	0.00e+00	34	42	0	729808896	58	5892
2026-01-23 23:57:24.19	77.51	67.34	-40.7	-41.7	22.9	0.00e+00	0	41	0	730857472	56	5503
2026-01-23 23:57:25.20	76.29	67.46	-40.4	-41.3	23.1	0.00e+00	74	41	0	732954624	54	5957
2026-01-23 23:57:26.20	75.07	67.57	-41.6	-42.7	22.1	0.00e+00	0	41	0	735051776	54	6975
2026-01-23 23:57:27.21	73.83	67.68	-40.9	-41.9	23.0	0.00e+00	92	41	0	737148928	54	6337
2026-01-23 23:57:28.22	72.57	67.77	-40.5	-41.4	23.2	0.00e+00	91	41	0	739246080	54	5999
2026-01-23 23:57:29.23	71.31	67.85	-41.2	-42.2	22.5	0.00e+00	29	41	0	740294656	54	6569
2026-01-23 23:57:30.24	70.03	67.93	-41.3	-42.4	22.6	0.00e+00	91	42	0	742391808	54	6700
2026-01-23 23:57:31.25	68.74	67.99	-41.6	-42.6	22.2	0.00e+00	0	41	0	744488960	56	6147
2026-01-23 23:57:32.26	67.45	68.05	-41.3	-42.3	22.4	0.00e+00	91	42	0	746586112	56	5928
2026-01-23 23:57:33.27	66.15	68.09	-41.4	-42.5	22.2	0.00e+00	0	42	0	748683264	56	6040
2026-01-23 23:57:34.28	64.85	68.12	-41.3	-42.4	22.2	0.00e+00	92	41	0	749731840	56	5992
2026-01-23 23:57:35.29	63.54	68.14	-41.8	-42.8	22.0	0.00e+00	2	41	0	751828992	56	6292
2026-01-23 23:57:36.30	62.23	68.16	-41.1	-42.1	22.7	0.00e+00	0	41	0	753926144	56	5784
2026-01-23 23:57:37.31	60.92	68.16	-40.5	-41.4	23.1	0.00e+00	91	42	0	756023296	54	5979
2026-01-23 23:57:38.32	59.61	68.15	-41.3	-42.3	22.3	0.00e+00	0	41	0	758120448	54	6624
2026-01-23 23:57:39.33	58.31	68.13	-41.0	-41.9	22.8	0.00e+00	91	41	0	760217600	54	6351
2026-01-23 23:57:40.33	57.01	68.10	-41.3	-42.3	22.6	0.00e+00	0	42	0	761266176	54	6629
2026-01-23 23:57:41.34	55.71	68.06	-42.0	-43.1	21.6	0.00e+00	92	42	0	763363328	56	6538
2026-01-23 23:57:42.36	54.41	68.00	-41.7	-42.9	21.8	0.00e+00	6	42	0	765460480	56	6325
2026-01-23 23:57:43.37	53.12	67.94	-41.6	-42.7	21.7	0.00e+00	0	42	0	767557632	56	6182
2026-01-23 23:57:44.38	51.84	67.87	-43.3	-44.6	20.2	0.00e+00	92	42	0	769654784	58	6895
2026-01-23 23:57:45.38	50.59	67.79	-45.1	-46.9	18.5	0.00e+00	0	42	0	770703360	60	7964
2026-01-23 23:57:46.39	49.33	67.70	-44.9	-46.7	18.6	0.00e+00	92	41	0	772800512	60	7832
2026-01-23 23:57:47.40	48.09	67.60	-43.8	-45.3	19.9	0.00e+00	0	41	0	774897664	60	6655
2026-01-23 23:57:48.41	46.85	67.48	-43.8	-45.3	19.9	0.00e+00	90	41	0	776994816	60	6674
2026-01-23 23:57:49.42	45.63	67.36	-43.3	-44.6	20.8	0.00e+00	0	42	0	779091968	60	6136
2026-01-23 23:57:50.43	44.43	67.23	-43.1	-44.4	20.8	0.00e+00	0	41	0	780140544	60	6013
2026-01-23 23:57:51.44	43.24	67.10	-43.6	-45.1	20.2	0.00e+00	92	41	0	782237696	60	6465
2026-01-23 23:57:52.45	42.07	66.95	-42.3	-43.5	21.9	0.00e+00	0	42	0	784334848	58	6068
2026-01-23 23:57:53.46	40.91	66.79	-40.2	-41.1	23.4	0.00e+00	88	42	0	786432000	54	5786
2026-01-23 23:57:54.47	39.77	66.63	-40.9	-41.9	22.7	0.00e+00	0	42	0	788529152	54	6331
2026-01-23 23:57:55.48	38.65	66.46	-40.8	-41.8	22.8	0.00e+00	88	42	0	789577728	54	6248
2026-01-23 23:57:56.49	37.55	66.28	-41.3	-42.4	22.1	0.00e+00	0	42	0	791674880	54	6765
2026-01-23 23:57:57.50	36.47	66.09	-42.0	-43.3	21.7	0.00e+00	18	42	0	793772032	56	6638
2026-01-23 23:57:58.51	35.40	65.90	-40.0	-40.9	23.5	0.00e+00	88	42	0	795869184	54	5680
2026-01-23 23:57:59.52	34.36	65.70	-38.8	-39.6	24.4	0.00e+00	0	42	0	797966336	50	6121
2026-01-23 23:58:00.53	33.33	65.49	-39.1	-39.9	24.2	0.00e+00	89	42	0	799014912	50	6354
2026-01-23 23:58:01.54	32.32	65.28	-40.1	-41.1	23.3	0.00e+00	0	42	0	801112064	52	6508
2026-01-23 23:58:02.55	31.34	65.05	-39.5	-40.4	23.9	0.00e+00	89	42	0	803209216	52	5989
2026-01-23 23:58:03.56	30.37	64.83	-39.4	-40.2	23.8	0.00e+00	0	42	0	805306368	52	5868
2026-01-23 23:58:04.57	29.42	64.60	-39.1	-39.9	24.1	0.00e+00	31	42	0	807403520	52	5695
2026-01-23 23:58:05.57	28.50	64.36	-39.0	-39.8	24.0	0.00e+00	88	42	0	808452096	52	5624
2026-01-23 23:58:06.58	27.59	64.12	-39.9	-40.8	23.5	0.00e+00	0	42	0	810549248	52	6286
2026-01-23 23:58:07.60	26.69	63.87	-41.5	-42.5	22.4	0.00e+00	21	42	0	812646400	54	6839
2026-01-23 23:58:08.60	25.83	63.62	-40.0	-40.9	23.5	0.00e+00	0	41	0	814743552	54	5660
2026-01-23 23:58:09.61	24.98	63.36	-40.0	-41.0	23.4	0.00e+00	81	42	0	816840704	52	6391
2026-01-23 23:58:10.62	24.14	63.10	-41.7	-42.8	22.0	0.00e+00	0	42	0	817889280	54	7070
2026-01-23 23:58:11.63	23.33	62.84	-41.4	-42.4	22.5	0.00e+00	92	41	0	819986432	56	6021
2026-01-23 23:58:12.64	22.53	62.57	-41.1	-42.2	22.6	0.00e+00	2	41	0	822083584	54	6552
2026-01-23 23:58:13.65	21.75	62.30	-42.4	-43.7	21.2	0.00e+00	0	42	0	824180736	56	6946
2026-01-23 23:58:14.66	20.99	62.02	-42.8	-44.1	20.9	0.00e+00	44	42	0	826277888	58	6507
2026-01-23 23:58:15.67	20.24	61.74	-42.3	-43.4	21.5	0.00e+00	0	42	0	828375040	58	6031
2026-01-23 23:58:16.68	19.51	61.46	-42.3	-43.5	21.5	0.00e+00	91	42	0	829423616	58	6053
2026-01-23 23:58:17.68	18.81	61.18	-41.9	-43.0	21.9	0.00e+00	0	42	0	831520768	56	6449
2026-01-23 23:58:18.70	18.11	60.89	-43.0	-44.5	20.4	0.00e+00	91	42	0	833617920	58	6800
2026-01-23 23:58:19.70	17.43	60.61	-44.3	-46.0	19.3	0.00e+00	0	42	0	835715072	60	7224
2026-01-23 23:58:20.71	16.77	60.32	-42.3	-43.5	21.8	0.00e+00	0	42	0	837812224	58	6078
2026-01-23 23:58:21.72	16.12	60.02	-41.5	-42.6	22.3	0.00e+00	92	42	0	838860800	56	6127
2026-01-23 23:58:22.73	15.48	59.73	-41.7	-42.8	22.0	0.00e+00	0	42	0	840957952	56	6259
2026-01-23 23:58:23.74	14.86	59.43	-41.5	-42.5	22.4	0.00e+00	90	42	0	843055104	56	6090
2026-01-23 23:58:24.75	14.26	59.13	-41.2	-42.2	22.5	0.00e+00	0	41	0	845152256	56	5885
2026-01-23 23:58:25.76	13.66	58.83	-41.1	-42.1	22.6	0.00e+00	90	41	0	847249408	56	5791
2026-01-23 23:58:26.77	13.09	58.53	-40.4	-41.3	23.6	0.00e+00	0	42	0	848297984	54	5915
2026-01-23 23:58:27.78	12.52	58.23	-38.4	-39.2	24.4	0.00e+00	0	42	0	850395136	50	5867
2026-01-23 23:58:28.79	11.97	57.93	-38.6	-39.4	24.3	0.00e+00	90	42	0	852492288	50	6027
2026-01-23 23:58:29.80	11.43	57.62	-39.5	-40.4	23.7	0.00e+00	0	41	0	854589440	50	6760
2026-01-23 23:58:30.81	10.90	57.32	-40.1	-41.1	23.4	0.00e+00	92	42	0	856686592	52	6469
2026-01-23 23:58:31.82	10.38	57.01	-40.5	-41.5	22.9	0.00e+00	0	42	0	857735168	52	6784
2026-01-23 23:58:32.83	9.87	56.71	-41.0	-42.0	22.6	0.00e+00	92	41	0	859832320	54	6437
2026-01-23 23:58:33.84	9.38	56.40	-41.1	-42.1	22.6	0.00e+00	0	41	0	861929472	54	6494
2026-01-23 23:58:34.85	8.90	56.09	-40.9	-41.9	22.7	0.00e+00	89	41	0	864026624	54	6353
2026-01-23 23:58:35.86	8.42	55.78	-41.4	-42.5	22.2	0.00e+00	92	41	0	866123776	54	6780
2026-01-23 23:58:36.87	7.96	55.48	-41.5	-42.6	22.3	0.00e+00	0	42	0	867172352	54	6856
2026-01-23 23:58:37.88	7.51	55.17	-40.5	-41.5	23.1	0.00e+00	0	42	0	869269504	54	6037
2026-01-23 23:58:38.89	7.07	54.86	-39.5	-40.3	24.0	0.00e+00	0	42	0	871366656	52	5951
2026-01-23 23:58:39.90	6.63	54.56	-39.7	-40.5	23.7	0.00e+00	92	42	0	873463808	52	6101
2026-01-23 23:58:40.91	6.21	54.25	-39.7	-40.5	23.6	0.00e+00	0	42	0	875560960	52	6084
2026-01-23 23:58:41.91	5.80	53.95	-39.7	-40.6	23.7	0.00e+00	92	41	0	876609536	52	6135
2026-01-23 23:58:42.92	5.39	53.64	-39.9	-40.8	23.4	0.00e+00	0	42	0	878706688	52	6287
2026-01-23 23:58:43.93	5.00	53.33	-41.0	-42.1	22.6	0.00e+00	0	42	0	880803840	54	6477
2026-01-23 23:58:44.94	4.61	53.03	-41.8	-43.0	21.7	0.00e+00	91	42	0	882900992	54	7181
2026-01-23 23:58:45.95	4.23	52.72	-42.1	-43.3	21.6	0.00e+00	0	41	0	884998144	56	6674
2026-01-23 23:58:46.96	3.85	52.42	-42.5	-43.8	21.3	0.00e+00	92	42	0	886046720	58	6292
2026-01-23 23:58:47.97	3.49	52.11	-41.3	-42.4	22.4	0.00e+00	0	42	0	888143872	56	5970
2026-01-23 23:58:48.98	3.13	51.81	-40.1	-41.0	23.4	0.00e+00	85	42	0	890241024	54	5732
2026-01-23 23:58:49.99	2.78	51.51	-40.0	-40.9	23.6	0.00e+00	0	42	0	892338176	52	6351
2026-01-23 23:58:51.00	2.44	51.21	-40.5	-41.5	23.1	0.00e+00	0	41	0	894435328	52	6789
2026-01-23 23:58:52.01	2.10	50.91	-40.6	-41.6	23.1	0.00e+00	57	42	0	896532480	54	6112
2026-01-23 23:58:53.02	1.77	50.61	-40.5	-41.4	23.1	0.00e+00	0	42	0	897581056	54	6000
2026-01-23 23:58:54.03	1.45	50.31	-41.3	-42.4	22.4	0.00e+00	61	42	0	899678208	54	6724
2026-01-23 23:58:55.04	1.13	50.01	-43.4	-44.9	20.0	0.00e+00	0	42	0	901775360	58	7143
2026-01-23 23:58:56.05	0.82	49.72	-45.2	-47.3	18.1	0.00e+00	90	42	0	903872512	60	8375
2026-01-23 23:58:57.06	0.52	49.42	-44.5	-46.2	19.1	0.00e+00	0	41	0	905969664	60	7372
2026-01-23 23:58:58.07	0.22	49.13	-44.1	-45.6	20.2	0.00e+00	0	42	0	907018240	60	6920
2026-01-23 23:58:59.08	359.92	48.83	-44.5	-46.2	19.2	0.00e+00	92	42	0	909115392	60	7361
2026-01-23 23:59:00.09	359.64	48.54	-43.8	-45.3	20.0	0.00e+00	0	42	0	911212544	60	6633
2026-01-23 23:59:01.10	359.35	48.25	-41.9	-43.0	21.8	0.00e+00	64	42	0	913309696	56	6458
2026-01-23 23:59:02.11	359.08	47.96	-40.8	-41.8	22.9	0.00e+00	0	42	0	915406848	56	5599
2026-01-23 23:59:03.11	358.81	47.67	-40.0	-40.9	23.5	0.00e+00	92	42	0	916455424	54	5666
2026-01-23 23:59:04.13	358.54	47.38	-39.8	-40.7	23.7	0.00e+00	1	41	0	918552576	52	6183
2026-01-23 23:59:05.13	358.28	47.10	-38.8	-39.5	24.3	0.00e+00	22	42	0	920649728	50	6095
2026-01-23 23:59:06.13	358.03	46.82	-38.5	-39.2	24.3	0.00e+00	92	42	0	922746880	50	5886
2026-01-23 23:59:07.15	357.77	46.53	-39.6	-40.5	22.4	0.00e+00	29	41	0	924844032	50	6807
2026-01-23 23:59:08.16	357.52	46.25	-40.8	-41.8	22.8	0.00e+00	42	42	0	925892608	54	6272
2026-01-23 23:59:09.16	357.28	45.97	-40.0	-40.9	23.5	0.00e+00	0	42	0	927989760	54	5681
2026-01-23 23:59:10.17	357.05	45.69	-39.5	-40.3	23.8	0.00e+00	90	41	0	930086912	52	5928
2026-01-23 23:59:11.18	356.81	45.41	-40.5	-41.4	23.0	0.00e+00	0	42	0	932184064	52	6756
2026-01-23 23:59:12.19	356.58	45.14	-42.8	-44.1	20.8	0.00e+00	91	42	0	934281216	56	7328
2026-01-23 23:59:13.20	356.35	44.86	-43.4	-44.8	20.2	0.00e+00	51	41	0	935329792	58	7070
2026-01-23 23:59:14.21	356.13	44.59	-43.2	-44.6	20.5	0.00e+00	0	42	0	937426944	60	6145
2026-01-23 23:59:15.22	355.91	44.31	-42.7	-44.0	20.9	0.00e+00	92	42	0	939524096	58	6431
2026-01-23 23:59:16.23	355.70	44.04	-42.7	-44.0	21.0	0.00e+00	0	42	0	941621248	58	6405
2026-01-23 23:59:17.24	355.49	43.77	-42.6	-43.8	21.0	0.00e+00	92	42	0	943718400	58	6298
2026-01-23 23:59:18.25	355.28	43.51	-43.0	-44.3	20.7	0.00e+00	0	42	0	944766976	58	6660
2026-01-23 23:59:19.26	355.08	43.24	-43.0	-44.2	20.8	0.00e+00	90	42	0	946864128	58	6615
2026-01-23 23:59:20.26	354.88	42.98	-43.4	-44.8	20.5	0.00e+00	6	42	0	948961280	58	7014
2026-01-23 23:59:21.27	354.68	42.71	-42.3	-43.5	21.3	0.00e+00	0	42	0	951058432	58	6066
2026-01-23 23:59:22.28	354.49	42.45	-42.9	-44.2	20.7	0.00e+00	2	42	0	953155584	58	6551
2026-01-23 23:59:23.29	354.30	42.19	-42.6	-43.8	20.8	0.00e+00	0	42	0	954204160	58	6265
2026-01-23 23:59:24.30	354.11	41.93	-43.4	-44.8	19.8	0.00e+00	92	42	0	956301312	58	7018
2026-01-23 23:59:25.31	353.92	41.67	-44.3	-45.9	19.2	0.00e+00	0	42	0	958398464	60	7107
2026-01-23 23:59:26.32	353.74	41.41	-45.2	-47.1	18.1	0.00e+00	91	42	0	960495616	60	8196
2026-01-23 23:59:27.33	353.56	41.16	-45.4	-47.4	18.1	0.00e+00	65	42	0	962592768	60	8448
2026-01-23 23:59:28.34	353.39	40.91	-44.3	-46.0	19.2	0.00e+00	0	42	0	963641344	60	7221
2026-01-23 23:59:29.35	353.21	40.65	-43.9	-45.5	19.7	0.00e+00	87	42	0	965738496	60	6803
2026-01-23 23:59:30.35	353.05	40.41	-43.2	-44.6	20.4	0.00e+00	0	42	0	967835648	60	6142
2026-01-23 23:59:31.37	352.88	40.15	-42.5	-43.7	21.3	0.00e+00	79	42	0	969932800	58	6180
2026-01-23 23:59:32.37	352.71	39.91	-42.2	-43.3	21.5	0.00e+00	0	42	0	972029952	58	5927
2026-01-23 23:59:33.38	352.55	39.66	-42.5	-43.7	21.2	0.00e+00	68	42	0	973078528	58	6187
2026-01-23 23:59:34.40	352.39	39.42	-43.0	-44.2	20.6	0.00e+00	0	42	0	975175680	58	6580
2026-01-23 23:59:35.41	352.23	39.17	-43.7	-45.1	20.0	0.00e+00	0	42	0	977272832	58	7281
2026-01-23 23:59:36.42	352.08	38.93	-43.2	-44.5	20.3	0.00e+00	92	42	0	979369984	58	6822
2026-01-23 23:59:37.43	351.92	38.69	-43.2	-44.5	20.5	0.00e+00	0	42	0	981467136	58	6829
2026-01-23 23:59:38.44	351.77	38.45	-43.1	-44.4	20.5	0.00e+00	22	42	0	982515712	58	6768
2026-01-23 23:59:39.45	351.62	38.21	-43.0	-44.3	20.7	0.00e+00	0	42	0	984612864	58	6657
2026-01-23 23:59:40.46	351.48	37.98	-42.9	-44.2	20.8	0.00e+00	66	42	0	986710016	58	6605
2026-01-23 23:59:41.46	351.33	37.75	-43.5	-44.8	20.3	0.00e+00	0	42	0	988807168	60	6316
2026-01-23 23:59:42.48	351.19	37.51	-42.8	-44.1	20.9	0.00e+00	9	42	0	990904320	60	5777
2026-01-23 23:59:43.48	351.05	37.28	-42.6	-43.8	21.3	0.00e+00	76	42	0	993001472	58	6280
2026-01-23 23:59:44.49	350.92	37.05	-42.1	-43.3	21.6	0.00e+00	0	42	0	994050048	58	5925
2026-01-23 23:59:45.50	350.78	36.82	-42.2	-43.4	21.5	0.00e+00	73	42	0	996147200	58	5975
2026-01-23 23:59:46.51	350.65	36.59	-41.7	-42.8	22.0	0.00e+00	0	42	0	998244352	56	6285
2026-01-23 23:59:47.52	350.51	36.37	-41.8	-42.9	21.8	0.00e+00	83	42	0	1000341504	56	6383
2026-01-23 23:59:48.53	350.38	36.14	-41.5	-42.6	22.2	0.00e+00	0	42	0	1002438656	56	6106
2026-01-23 23:59:49.54	350.25	35.92	-41.0	-42.0	22.5	0.00e+00	90	42	0	1003487232	56	5720
2026-01-23 23:59:50.55	350.13	35.70	-40.5	-41.5	22.9	0.00e+00	0	42	0	1005584384	54	6057
2026-01-23 23:59:51.55	350.00	35.48	-40.4	-41.4	23.0	0.00e+00	0	42	0	1007681536	54	5982
2026-01-23 23:59:52.56	349.88	35.26	-40.4	-41.4	22.9	0.00e+00	65	42	0	1009778688	54	5982
2026-01-23 23:59:53.57	349.76	35.04	-41.0	-42.0	22.7	0.00e+00	0	42	0	1011875840	54	6448
2026-01-23 23:59:54.58	349.64	34.83	-41.7	-42.8	21.7	0.00e+00	86	42	0	1012924416	54	7023
2026-01-23 23:59:55.59	349.52	34.61	-43.2	-44.5	20.3	0.00e+00	0	42	0	1015021568	58	6838
2026-01-23 23:59:56.60	349.41	34.40	-44.4	-46.0	19.0	0.00e+00	59	42	0	1017118720	60	7236
2026-01-23 23:59:57.61	349.29	34.19	-44.6	-46.3	18.8	0.00e+00	0	42	0	1019215872	60	7426
2026-01-23 23:59:58.62	349.18	33.97	-44.6	-46.3	18.9	0.00e+00	0	42	0	1021313024	60	7457
2026-01-23 23:59:59.63	349.07	33.76	-43.8	-45.3	19.8	0.00e+00	90	42	0	1022361600	60	6652
2026-01-24 00:00:00.64	348.95	33.56	-44.0	-45.5	19.6	0.00e+00	0	42	0	1024458752	60	6814
2026-01-24 00:00:01.65	348.85	33.35	-43.4	-44.8	20.2	0.00e+00	86	42	0	1026555904	60	6263
2026-01-24 00:00:02.66	348.74	33.14	-43.4	-44.8	20.2	0.00e+00	0	42	0	1028653056	60	6311
2026-01-24 00:00:03.67	348.63	32.94	-43.3	-44.7	20.3	0.00e+00	74	42	0	1030750208	60	6196
2026-01-24 00:00:04.68	348.53	32.73	-42.9	-44.2	20.8	0.00e+00	0	42	0	1031798784	60	5859
2026-01-24 00:00:05.68	348.42	32.53	-42.3	-43.5	21.3	0.00e+00	0	42	0	1033895936	58	6059
2026-01-24 00:00:06.69	348.32	32.33	-42.2	-43.4	21.5	0.00e+00	84	42	0	1035993088	58	5969
2026-01-24 00:00:07.70	348.22	32.13	-42.1	-43.2	21.5	0.00e+00	0	42	0	1038090240	58	5879
2026-01-24 00:00:08.71	348.12	31.94	-42.3	-43.5	21.2	0.00e+00	88	42	0	1040187392	58	6062
2026-01-24 00:00:09.72	348.02	31.74	-42.2	-43.4	21.1	0.00e+00	0	42	0	1041235968	58	6006
2026-01-24 00:00:10.73	347.93	31.54	-42.9	-44.2	20.7	0.00e+00	92	42	0	1043333120	58	6589
2026-01-24 00:00:11.74	347.83	31.35	-43.1	-44.5	20.5	0.00e+00	0	42	0	1045430272	58	6774
2026-01-24 00:00:12.74	347.74	31.16	-43.4	-44.8	20.1	0.00e+00	0	42	0	1047527424	58	7068
2026-01-24 00:00:13.75	347.64	30.96	-43.8	-45.4	19.7	0.00e+00	87	42	0	1049624576	58	7537
2026-01-24 00:00:14.76	347.55	30.77	-44.3	-45.9	19.1	0.00e+00	0	42	0	1050673152	60	7126
2026-01-24 00:00:15.77	347.46	30.58	-44.5	-46.2	18.8	0.00e+00	81	42	0	1052770304	60	7344
2026-01-24 00:00:16.78	347.37	30.39	-44.5	-46.1	18.7	0.00e+00	0	42	0	1054867456	60	7328
2026-01-24 00:00:17.79	347.28	30.20	-45.0	-46.9	18.2	0.00e+00	88	42	0	1056964608	60	7978
2026-01-24 00:00:18.80	347.19	30.02	-45.0	-46.9	17.6	0.00e+00	0	42	0	1059061760	60	7970
2026-01-24 00:00:19.81	347.11	29.83	-45.5	-47.5	17.7	0.00e+00	0	42	0	1061158912	60	8590
2026-01-24 00:00:20.82	347.02	29.65	-45.3	-47.2	17.4	0.00e+00	90	42	0	1062207488	60	8235
2026-01-24 00:00:21.83	346.93	29.46	-45.3	-47.1	18.1	0.00e+00	0	42	0	1064304640	60	8213
2026-01-24 00:00:22.84	346.85	29.28	-45.6	-47.7	17.6	0.00e+00	89	42	0	1066401792	60	8737
2026-01-24 00:00:23.85	346.77	29.10	-45.0	-46.8	18.3	0.00e+00	0	42	0	1068498944	60	7943
2026-01-24 00:00:24.86	346.69	28.92	-45.0	-46.9	18.3	0.00e+00	92	42	0	1070596096	60	7957
2026-01-24 00:00:25.87	346.61	28.74	-44.9	-46.7	18.2	0.00e+00	0	42	0	1071644672	60	7860
2026-01-24 00:00:26.88	346.53	28.57	-44.9	-46.8	18.5	0.00e+00	81	42	0	1073741824	60	7872
2026-01-24 00:00:27.89	346.45	28.39	-44.6	-46.3	18.8	0.00e+00	0	42	0	1075838976	60	7491
2026-01-24 00:00:28.90	346.37	28.21	-44.1	-45.6	19.5	0.00e+00	0	42	0	1077936128	60	6922
2026-01-24 00:00:29.91	346.29	28.04	-43.9	-45.4	19.8	0.00e+00	89	42	0	1080033280	60	6748
2026-01-24 00:00:30.92	346.21	27.86	-43.4	-44.8	20.3	0.00e+00	0	42	0	1081081856	60	6267
2026-01-24 00:00:31.93	346.14	27.69	-43.1	-44.4	20.7	0.00e+00	89	42	0	1083179008	58	6743
2026-01-24 00:00:32.94	346.06	27.52	-42.1	-43.2	21.5	0.00e+00	0	42	0	1085276160	58	5874
2026-01-24 00:00:33.95	345.99	27.35	-41.6	-42.7	22.0	0.00e+00	79	42	0	1087373312	56	6224
2026-01-24 00:00:34.96	345.92	27.18	-41.1	-42.1	22.4	0.00e+00	57	42	0	1089470464	56	5802
2026-01-24 00:00:35.97	345.84	27.01	-40.5	-41.4	23.0	0.00e+00	0	42	0	1090519040	54	5991
2026-01-24 00:00:36.98	345.77	26.84	-40.3	-41.2	23.1	0.00e+00	15	42	0	1092616192	54	5867
2026-01-24 00:00:37.99	345.70	26.68	-40.1	-41.0	23.2	0.00e+00	0	42	0	1094713344	54	5740
2026-01-24 00:00:39.00	345.63	26.51	-39.9	-40.8	23.4	0.00e+00	70	42	0	1096810496	54	5605
2026-01-24 00:00:40.01	345.56	26.35	-40.1	-41.1	23.1	0.00e+00	0	42	0	1098907648	54	5764
2026-01-24 00:00:41.02	345.49	26.18	-40.2	-41.2	23.0	0.00e+00	58	42	0	1099956224	54	5829
2026-01-24 00:00:42.03	345.43	26.02	-40.8	-41.7	22.6	0.00e+00	17	42	0	1102053376	54	6245
2026-01-24 00:00:43.03	345.36	25.86	-41.2	-42.3	22.1	0.00e+00	0	42	0	1104150528	54	6624
2026-01-24 00:00:44.04	345.29	25.70	-42.1	-43.3	21.3	0.00e+00	71	42	0	1106247680	56	6628
2026-01-24 00:00:45.05	345.23	25.54	-42.7	-44.0	20.7	0.00e+00	0	42	0	1108344832	58	6411
2026-01-24 00:00:46.06	345.16	25.38	-43.7	-45.2	19.5	0.00e+00	92	42	0	1109393408	58	7409
2026-01-24 00:00:47.07	345.10	25.22	-44.4	-46.1	18.8	0.00e+00	0	42	0	1111490560	60	7320
2026-01-24 00:00:48.08	345.04	25.07	-45.0	-46.9	18.1	0.00e+00	0	42	0	1113587712	60	7963
2026-01-24 00:00:49.09	344.97	24.91	-45.4	-47.5	17.5	0.00e+00	0	42	0	1115684864	60	8567
2026-01-24 00:00:50.10	344.91	24.75	-45.8	-48.0	17.3	0.00e+00	0	42	0	1117782016	60	9117
2026-01-24 00:00:51.11	344.85	24.60	-45.4	-47.4	17.6	0.00e+00	79	42	0	1118830592	60	8475
2026-01-24 00:00:52.12	344.79	24.45	-45.6	-47.7	17.5	0.00e+00	0	42	0	1120927744	60	8741
2026-01-24 00:00:53.13	344.73	24.29	-44.8	-46.6	18.4	0.00e+00	90	42	0	1123024896	60	7744
2026-01-24 00:00:54.14	344.67	24.14	-44.5	-46.2	18.8	0.00e+00	33	42	0	1125122048	60	7369
2026-01-24 00:00:55.15	344.61	23.99	-43.6	-45.1	19.8	0.00e+00	0	42	0	1127219200	60	6511
2026-01-24 00:00:56.16	344.55	23.84	-43.4	-44.8	20.1	0.00e+00	0	42	0	1129316352	60	6282
2026-01-24 00:00:57.16	344.49	23.69	-43.3	-44.7	20.1	0.00e+00	0	42	0	1130364928	60	6181
2026-01-24 00:00:58.17	344.44	23.54	-42.8	-44.1	20.6	0.00e+00	28	42	0	1132462080	60	5788
2026-01-24 00:00:59.18	344.38	23.39	-43.0	-44.3	20.4	0.00e+00	0	42	0	1134559232	58	6689
2026-01-24 00:01:00.19	344.32	23.25	-42.8	-44.1	20.6	0.00e+00	75	42	0	1136656384	58	6500
2026-01-24 00:01:01.20	344.27	23.10	-42.3	-43.5	21.2	0.00e+00	0	42	0	1137704960	58	6063
2026-01-24 00:01:02.21	344.21	22.96	-42.3	-43.5	21.0	0.00e+00	0	42	0	1139802112	58	6063
2026-01-24 00:01:03.22	344.16	22.81	-42.2	-43.3	21.3	0.00e+00	0	42	0	1141899264	58	5959
2026-01-24 00:01:04.23	344.11	22.67	-41.9	-43.0	21.6	0.00e+00	0	42	0	1143996416	58	5748
2026-01-24 00:01:05.24	344.05	22.52	-41.3	-42.3	22.1	0.00e+00	89	42	0	1146093568	56	5949
2026-01-24 00:01:06.25	344.00	22.38	-41.5	-42.6	22.0	0.00e+00	0	42	0	1147142144	56	6139
2026-01-24 00:01:07.26	343.95	22.24	-41.4	-42.5	22.0	0.00e+00	65	42	0	1149239296	56	6039
2026-01-24 00:01:08.27	343.90	22.10	-41.1	-42.2	22.3	0.00e+00	0	42	0	1151336448	56	5840
2026-01-24 00:01:09.28	343.84	21.96	-40.8	-41.8	22.7	0.00e+00	0	42	0	1153433600	54	6277
2026-01-24 00:01:10.28	343.79	21.82	-40.5	-41.5	22.8	0.00e+00	0	42	0	1155530752	54	6078
2026-01-24 00:01:11.29	343.74	21.68	-40.6	-41.6	22.7	0.00e+00	0	42	0	1157627904	54	6134
2026-01-24 00:01:12.30	343.69	21.55	-40.3	-41.2	22.9	0.00e+00	17	42	0	1158676480	54	5889
2026-01-24 00:01:13.31	343.64	21.41	-40.2	-41.1	23.0	0.00e+00	0	42	0	1160773632	54	5815
2026-01-24 00:01:14.32	343.60	21.27	-40.6	-41.5	22.7	0.00e+00	58	42	0	1162870784	54	6089
2026-01-24 00:01:15.33	343.55	21.14	-40.5	-41.4	22.8	0.00e+00	0	42	0	1164967936	54	6018
2026-01-24 00:01:16.34	343.50	21.00	-40.3	-41.3	22.9	0.00e+00	9	42	0	1167065088	54	5906
2026-01-24 00:01:17.35	343.45	20.87	-40.4	-41.4	22.8	0.00e+00	0	42	0	1168113664	54	5975
2026-01-24 00:01:18.36	343.40	20.73	-40.8	-41.9	22.4	0.00e+00	0	42	0	1170210816	54	6321
2026-01-24 00:01:19.37	343.36	20.60	-41.0	-42.0	22.4	0.00e+00	0	42	0	1172307968	54	6459
2026-01-24 00:01:20.38	343.31	20.47	-40.8	-41.8	22.4	0.00e+00	0	42	0	1174405120	54	6279
2026-01-24 00:01:21.39	343.27	20.34	-41.4	-42.5	22.0	0.00e+00	66	42	0	1176502272	54	6796
2026-01-24 00:01:22.40	343.22	20.21	-41.3	-42.4	22.0	0.00e+00	0	42	0	1177550848	54	6708
2026-01-24 00:01:23.41	343.18	20.08	-41.5	-42.6	21.7	0.00e+00	17	42	0	1179648000	54	6867
2026-01-24 00:01:24.42	343.13	19.95	-41.8	-42.9	21.5	0.00e+00	0	42	0	1181745152	56	6342
2026-01-24 00:01:25.42	343.09	19.82	-41.7	-42.8	21.8	0.00e+00	0	42	0	1183842304	56	6312
2026-01-24 00:01:26.43	343.04	19.69	-41.7	-42.8	21.6	0.00e+00	0	42	0	1185939456	56	6285
2026-01-24 00:01:27.44	343.00	19.56	-41.9	-43.0	21.5	0.00e+00	0	42	0	1186988032	56	6463
2026-01-24 00:01:28.45	342.96	19.43	-42.1	-43.2	21.4	0.00e+00	0	42	0	1189085184	56	6608
2026-01-24 00:01:29.46	342.92	19.31	-42.0	-43.2	21.5	0.00e+00	0	42	0	1191182336	56	6546
