passes_logs/2026/01/23/R4.6S_Anadyr/R4.6S_Anadyr__20260123_171928_AQUA_rec.log

#Pass ID: 20260123_171928_AQUA
#Satellite: AQUA
#Configuration: AQUA
#almurnet v.1.7.20251203
#Start time: 2026-01-23 17:19:29

#Version: 2.2.20231116
#Station: R4.6S_Anadyr
#Location: 177.4865 lon 64.73178 lat
#TLE: 1 27424U 02022A   26022.49486490  .00002153  00000+0  44069-3 0  9997
#TLE: 2 27424  98.4099 349.0485 0001970  69.5876  43.4746 14.61847233261984

#Time	Az	El	Level	Level2	SNR	BER	BlckErr	Temp	State	Recorded	gain1	gain2
2026-01-23 17:19:29.35	21.15	0.08	-50.8	-62.5	3.5	8.45e-01	0	38	0	0	60	47976
2026-01-23 17:19:30.36	21.13	0.14	-51.2	-69.1	3.5	3.02e+01	0	39	104	0	60	109551
2026-01-23 17:19:31.37	21.10	0.20	-51.2	-69.2	3.5	3.02e+01	0	39	104	0	60	110385
2026-01-23 17:19:32.38	21.08	0.27	-51.4	-69.2	3.5	3.02e+01	0	39	104	0	60	110930
2026-01-23 17:19:33.39	21.05	0.33	-51.3	-69.2	3.5	3.02e+01	0	39	104	0	60	110642
2026-01-23 17:19:34.40	21.02	0.39	-51.3	-69.2	3.5	3.02e+01	0	39	104	0	60	111437
2026-01-23 17:19:35.40	21.00	0.45	-51.4	-69.2	3.5	3.02e+01	0	39	104	0	60	110700
2026-01-23 17:19:36.41	20.97	0.51	-51.3	-69.2	3.5	3.02e+01	0	39	104	0	60	111031
2026-01-23 17:19:37.42	20.94	0.57	-51.3	-69.2	3.5	3.02e+01	0	39	104	0	60	111440
2026-01-23 17:19:38.44	20.91	0.64	-51.3	-69.2	3.5	3.02e+01	0	40	104	0	60	111005
2026-01-23 17:19:39.44	20.89	0.70	-51.4	-69.2	3.5	3.02e+01	0	40	104	0	60	110533
2026-01-23 17:19:40.45	20.86	0.76	-51.1	-69.2	3.5	3.02e+01	0	40	104	0	60	111044
2026-01-23 17:19:41.46	20.83	0.82	-51.3	-69.2	3.5	3.02e+01	0	40	104	0	60	110422
2026-01-23 17:19:42.47	20.80	0.89	-51.2	-69.0	3.5	3.02e+01	0	40	104	0	60	108415
2026-01-23 17:19:43.48	20.78	0.95	-51.2	-69.1	3.5	3.02e+01	0	40	104	0	60	109502
2026-01-23 17:19:44.49	20.75	1.01	-51.1	-69.1	3.6	3.02e+01	0	40	104	0	60	109417
2026-01-23 17:19:45.50	20.72	1.08	-51.1	-68.9	3.5	3.02e+01	0	40	104	0	60	107685
2026-01-23 17:19:46.51	20.69	1.14	-51.1	-68.8	3.5	3.02e+01	0	40	104	0	60	106467
2026-01-23 17:19:47.52	20.66	1.20	-50.9	-68.4	3.5	3.02e+01	0	40	104	0	60	100686
2026-01-23 17:19:48.53	20.63	1.27	-50.3	-68.5	3.5	3.02e+01	0	40	104	0	60	102542
2026-01-23 17:19:49.54	20.60	1.33	-50.6	-68.5	3.5	3.02e+01	0	40	104	0	60	102760
2026-01-23 17:19:50.54	20.58	1.39	-50.3	-68.3	3.5	3.02e+01	0	40	104	0	60	99605
2026-01-23 17:19:51.55	20.55	1.46	-50.3	-68.2	3.5	3.02e+01	0	40	104	0	60	99354
2026-01-23 17:19:52.57	20.52	1.52	-50.2	-67.9	3.5	3.02e+01	0	40	104	0	60	95705
2026-01-23 17:19:53.57	20.49	1.59	-50.0	-67.7	3.5	3.02e+01	0	40	104	0	60	93182
2026-01-23 17:19:54.58	20.46	1.65	-50.0	-67.5	3.5	3.02e+01	0	40	104	0	60	91506
2026-01-23 17:19:55.59	20.43	1.72	-50.0	-67.6	3.5	3.02e+01	0	40	104	0	60	91957
2026-01-23 17:19:56.60	20.40	1.78	-50.0	-67.5	3.5	3.02e+01	0	40	104	0	60	91381
2026-01-23 17:19:57.61	20.37	1.85	-50.0	-67.7	3.5	3.02e+01	0	40	104	0	60	93694
2026-01-23 17:19:58.62	20.34	1.91	-50.0	-67.8	3.5	3.02e+01	0	40	104	0	60	94875
2026-01-23 17:19:59.63	20.31	1.98	-50.0	-67.8	3.5	3.02e+01	0	40	104	0	60	94118
2026-01-23 17:20:00.64	20.28	2.04	-50.0	-67.2	3.5	3.02e+01	0	40	104	0	60	88301
2026-01-23 17:20:01.65	20.24	2.11	-50.0	-67.0	3.5	3.02e+01	0	40	104	0	60	86576
2026-01-23 17:20:02.66	20.21	2.17	-50.0	-66.2	3.5	3.02e+01	0	40	104	0	60	78874
2026-01-23 17:20:03.67	20.18	2.24	-50.0	-66.0	3.5	3.02e+01	0	40	104	0	60	76791
2026-01-23 17:20:04.68	20.15	2.30	-50.0	-66.6	3.5	3.02e+01	0	40	104	0	60	82043
2026-01-23 17:20:05.69	20.12	2.37	-50.0	-66.2	3.5	3.02e+01	0	40	104	0	60	79026
2026-01-23 17:20:06.70	20.09	2.44	-50.0	-66.7	3.5	3.02e+01	0	40	104	0	60	83672
2026-01-23 17:20:07.71	20.05	2.50	-50.0	-67.4	3.5	3.02e+01	0	40	104	0	60	89806
2026-01-23 17:20:08.72	20.02	2.57	-50.0	-67.8	3.5	3.02e+01	0	40	104	0	60	93978
2026-01-23 17:20:09.73	19.99	2.64	-50.0	-67.7	3.5	3.02e+01	0	40	104	0	60	93798
2026-01-23 17:20:10.74	19.96	2.70	-50.0	-67.2	3.5	3.02e+01	0	40	104	0	60	88539
2026-01-23 17:20:11.75	19.93	2.77	-50.0	-67.0	3.5	3.02e+01	0	40	104	0	60	85893
2026-01-23 17:20:12.76	19.89	2.84	-50.0	-66.4	3.5	3.02e+01	0	40	104	0	60	80441
2026-01-23 17:20:13.76	19.86	2.91	-50.0	-66.3	3.5	3.02e+01	0	40	104	0	60	79418
2026-01-23 17:20:14.77	19.83	2.97	-49.9	-65.2	3.6	3.02e+01	0	40	104	0	60	70191
2026-01-23 17:20:15.78	19.79	3.04	-49.9	-64.1	4.2	3.02e+01	0	40	104	0	60	61955
2026-01-23 17:20:16.79	19.76	3.11	-49.8	-63.6	4.5	3.02e+01	0	40	104	0	60	58200
2026-01-23 17:20:17.80	19.73	3.18	-49.8	-63.6	4.4	3.02e+01	0	40	104	0	60	58056
2026-01-23 17:20:18.81	19.69	3.25	-49.9	-64.5	4.0	3.02e+01	0	40	104	0	60	64304
2026-01-23 17:20:19.82	19.66	3.32	-49.9	-65.7	3.5	3.02e+01	0	40	104	0	60	74102
2026-01-23 17:20:20.83	19.62	3.38	-50.0	-66.7	3.5	3.02e+01	0	40	104	0	60	82896
2026-01-23 17:20:21.84	19.59	3.45	-49.9	-65.6	3.6	3.02e+01	0	40	104	0	60	73079
2026-01-23 17:20:22.85	19.55	3.52	-49.7	-61.7	5.8	3.02e+01	84	40	104	0	60	46681
2026-01-23 17:20:23.86	19.52	3.59	-49.5	-58.9	7.7	3.02e+01	88	40	0	1048576	60	33817
2026-01-23 17:20:24.87	19.48	3.66	-49.1	-56.4	10.2	3.02e+01	57	40	0	3145728	60	25374
2026-01-23 17:20:25.89	19.45	3.73	-48.7	-55.0	11.8	3.02e+01	60	40	0	4718592	60	21761
2026-01-23 17:20:26.90	19.41	3.80	-48.6	-54.7	12.3	3.02e+01	58	40	0	6815744	60	20860
2026-01-23 17:20:27.91	19.38	3.87	-49.9	-63.9	4.3	3.02e+01	0	40	104	7340032	60	59976
2026-01-23 17:20:28.91	19.34	3.94	-41.9	-52.4	3.6	3.02e+01	0	40	104	7340032	60	16122
2026-01-23 17:20:29.92	19.30	4.01	-49.8	-67.0	3.5	3.02e+01	0	40	104	7340032	60	86081
2026-01-23 17:20:30.93	19.27	4.08	-50.1	-67.5	3.5	3.02e+01	0	40	104	7340032	60	91634
2026-01-23 17:20:31.94	19.23	4.15	-46.2	-58.0	3.4	3.02e+01	0	40	104	7340032	60	30636
2026-01-23 17:20:32.95	19.19	4.22	-43.1	-53.9	3.5	3.02e+01	0	40	104	7340032	60	18965
2026-01-23 17:20:33.96	19.16	4.30	-42.8	-53.5	3.6	3.02e+01	0	40	104	7340032	60	18239
2026-01-23 17:20:34.97	19.12	4.37	-41.9	-52.4	3.6	3.02e+01	0	40	104	7340032	58	18065
2026-01-23 17:20:35.98	19.08	4.44	-40.8	-51.2	3.6	3.02e+01	0	40	104	7340032	56	17556
2026-01-23 17:20:36.99	19.04	4.51	-42.7	-53.3	3.6	3.02e+01	0	40	104	7340032	58	19997
2026-01-23 17:20:38.00	19.01	4.58	-41.1	-51.6	3.4	3.02e+01	0	40	104	7340032	58	16333
2026-01-23 17:20:39.01	18.97	4.65	-49.9	-67.0	3.5	3.02e+01	0	40	104	7340032	60	85801
2026-01-23 17:20:40.01	18.93	4.73	-50.1	-67.3	3.5	3.02e+01	0	40	104	7340032	60	88984
2026-01-23 17:20:41.02	18.89	4.80	-44.3	-55.3	4.0	3.02e+01	0	40	104	7340032	60	22279
2026-01-23 17:20:42.03	18.85	4.87	-42.7	-53.3	4.0	3.02e+01	0	40	104	7340032	60	17720
2026-01-23 17:20:43.04	18.81	4.95	-41.2	-51.7	3.4	3.02e+01	0	40	104	7340032	58	16677
2026-01-23 17:20:44.05	18.77	5.02	-40.4	-50.7	4.1	3.02e+01	0	40	104	7340032	56	16658
2026-01-23 17:20:45.06	18.73	5.09	-40.3	-50.6	3.5	3.02e+01	0	40	104	7340032	56	16474
2026-01-23 17:20:46.07	18.69	5.17	-40.5	-51.0	3.5	3.02e+01	0	40	104	7340032	54	19301
2026-01-23 17:20:47.08	18.65	5.24	-40.9	-51.4	3.5	3.02e+01	0	40	104	7340032	56	17984
2026-01-23 17:20:48.09	18.61	5.31	-50.0	-66.9	3.5	3.02e+01	0	40	104	7340032	60	85129
2026-01-23 17:20:49.10	18.57	5.39	-50.1	-66.9	3.5	3.02e+01	0	40	104	7340032	60	84946
2026-01-23 17:20:50.11	18.53	5.46	-44.2	-55.1	3.5	3.02e+01	0	40	104	7340032	60	22002
2026-01-23 17:20:51.12	18.49	5.54	-40.8	-51.2	3.5	3.02e+01	0	40	104	7340032	56	17575
2026-01-23 17:20:52.13	18.45	5.61	-39.7	-50.1	3.5	3.02e+01	0	40	104	7340032	54	17298
2026-01-23 17:20:53.13	18.41	5.69	-39.2	-49.5	3.5	3.02e+01	0	40	104	7340032	54	16211
2026-01-23 17:20:54.14	18.37	5.76	-39.5	-49.8	3.5	3.02e+01	0	40	104	7340032	54	16813
2026-01-23 17:20:55.15	18.32	5.84	-39.9	-50.3	3.5	3.02e+01	0	40	104	7340032	54	17750
2026-01-23 17:20:56.16	18.28	5.91	-40.7	-51.1	3.5	3.02e+01	0	40	104	7340032	54	19522
2026-01-23 17:20:57.17	18.24	5.99	-49.9	-66.6	3.5	3.02e+01	0	40	104	7340032	60	82141
2026-01-23 17:20:58.18	18.19	6.07	-50.2	-66.9	3.5	3.02e+01	0	40	104	7340032	60	85222
2026-01-23 17:20:59.19	18.15	6.14	-45.0	-56.3	3.5	3.02e+01	0	40	104	7340032	60	25025
2026-01-23 17:21:00.20	18.11	6.22	-43.1	-53.9	3.6	3.02e+01	0	40	104	7340032	60	19019
2026-01-23 17:21:01.21	18.06	6.30	-42.4	-53.1	3.5	3.02e+01	0	40	104	7340032	60	17390
2026-01-23 17:21:02.22	18.02	6.37	-42.2	-52.8	3.5	3.02e+01	0	40	104	7340032	60	16848
2026-01-23 17:21:03.22	17.98	6.45	-41.7	-52.2	3.6	3.02e+01	0	40	104	7340032	58	17659
2026-01-23 17:21:04.23	17.93	6.53	-41.3	-51.8	3.5	3.02e+01	0	40	104	7340032	58	16856
2026-01-23 17:21:05.24	17.89	6.61	-41.5	-51.9	3.5	3.02e+01	0	40	104	7340032	56	19106
2026-01-23 17:21:06.25	17.84	6.69	-49.9	-66.2	3.5	3.02e+01	0	40	104	7340032	60	78312
2026-01-23 17:21:07.26	17.80	6.76	-50.0	-66.0	3.5	3.02e+01	0	40	104	7340032	60	76957
2026-01-23 17:21:08.27	17.75	6.84	-42.2	-52.8	3.5	3.02e+01	0	40	104	7340032	58	18844
2026-01-23 17:21:09.28	17.70	6.92	-40.1	-50.4	3.5	3.02e+01	0	40	104	7340032	56	16111
2026-01-23 17:21:10.29	17.66	7.00	-40.1	-50.5	3.5	3.02e+01	0	40	104	7340032	56	16242
2026-01-23 17:21:11.29	17.61	7.08	-39.5	-49.8	3.5	3.02e+01	0	40	104	7340032	54	16850
2026-01-23 17:21:12.31	17.56	7.16	-39.1	-49.4	3.5	3.02e+01	0	40	104	7340032	54	16090
2026-01-23 17:21:13.31	17.52	7.24	-38.9	-49.2	3.5	3.02e+01	0	40	104	7340032	52	17506
2026-01-23 17:21:14.32	17.47	7.32	-41.6	-52.1	3.5	3.02e+01	0	40	104	7340032	54	21851
2026-01-23 17:21:15.34	17.42	7.40	-49.9	-66.1	3.5	3.02e+01	0	40	104	7340032	60	77557
2026-01-23 17:21:16.34	17.37	7.48	-48.1	-60.9	3.6	3.02e+01	0	40	104	7340032	60	42739
2026-01-23 17:21:17.35	17.32	7.56	-42.3	-52.8	3.5	3.02e+01	0	40	104	7340032	58	18917
2026-01-23 17:21:18.36	17.28	7.64	-39.5	-49.8	3.5	3.02e+01	0	40	104	7340032	54	16818
2026-01-23 17:21:19.37	17.23	7.73	-38.9	-49.2	3.4	3.02e+01	0	40	104	7340032	54	15610
2026-01-23 17:21:20.38	17.18	7.81	-38.8	-49.1	3.6	3.02e+01	0	40	104	7340032	52	17356
2026-01-23 17:21:21.39	17.13	7.89	-38.9	-49.2	3.5	3.02e+01	0	40	104	7340032	52	17530
2026-01-23 17:21:22.40	17.08	7.97	-39.2	-49.6	3.5	3.02e+01	0	40	104	7340032	52	18327
2026-01-23 17:21:23.41	17.03	8.06	-41.9	-52.4	3.5	3.02e+01	0	40	104	7340032	54	22716
2026-01-23 17:21:24.42	16.98	8.14	-50.2	-67.2	3.5	3.02e+01	0	40	104	7340032	60	88395
2026-01-23 17:21:25.42	16.93	8.22	-43.6	-54.4	3.5	3.02e+01	0	40	104	7340032	60	20248
2026-01-23 17:21:26.43	16.87	8.31	-43.7	-54.6	3.5	3.02e+01	0	40	104	7340032	60	20590
2026-01-23 17:21:27.44	16.82	8.39	-42.4	-53.0	3.5	3.02e+01	0	40	104	7340032	58	19322
2026-01-23 17:21:28.45	16.77	8.47	-42.7	-53.3	3.5	3.02e+01	0	40	104	7340032	58	20075
2026-01-23 17:21:29.46	16.72	8.56	-42.9	-53.5	3.5	3.02e+01	0	40	104	7340032	60	18222
2026-01-23 17:21:30.47	16.66	8.64	-39.9	-50.3	3.5	3.02e+01	0	40	104	7340032	56	15773
2026-01-23 17:21:31.48	16.61	8.73	-42.4	-53.0	3.5	3.02e+01	0	40	104	7340032	56	21538
2026-01-23 17:21:32.48	16.56	8.81	-48.1	-60.8	3.5	3.02e+01	0	40	104	7340032	60	42216
2026-01-23 17:21:33.50	16.50	8.90	-49.6	-64.7	3.6	3.02e+01	0	40	104	7340032	60	66236
2026-01-23 17:21:34.51	16.45	8.98	-48.2	-60.9	3.5	3.02e+01	0	41	104	7340032	60	42774
2026-01-23 17:21:35.51	16.39	9.07	-50.3	-66.7	3.6	3.02e+01	0	40	104	7340032	60	83669
2026-01-23 17:21:36.52	16.34	9.16	-43.9	-54.9	3.5	3.02e+01	0	40	104	7340032	60	21315
2026-01-23 17:21:37.53	16.28	9.24	-42.7	-53.4	3.5	3.02e+01	0	40	104	7340032	60	18005
2026-01-23 17:21:38.54	16.23	9.33	-42.6	-53.3	3.5	3.02e+01	0	40	104	7340032	60	17707
2026-01-23 17:21:39.55	16.17	9.42	-47.6	-60.0	3.5	3.02e+01	0	40	104	7340032	60	38634
2026-01-23 17:21:40.56	16.11	9.51	-47.8	-60.4	3.6	3.02e+01	0	41	104	7340032	60	40254
2026-01-23 17:21:41.57	16.06	9.59	-50.1	-67.0	3.5	3.02e+01	0	41	104	7340032	60	86330
2026-01-23 17:21:42.58	16.00	9.68	-50.1	-66.0	3.5	3.02e+01	0	41	104	7340032	60	76645
2026-01-23 17:21:43.59	15.94	9.77	-39.0	-49.3	3.4	3.02e+01	0	41	104	7340032	56	14159
2026-01-23 17:21:44.59	15.88	9.86	-39.5	-49.8	3.4	3.02e+01	0	40	104	7340032	56	14917
2026-01-23 17:21:45.60	15.83	9.95	-38.9	-49.2	3.5	3.02e+01	0	40	104	7340032	52	17661
2026-01-23 17:21:46.61	15.77	10.04	-38.4	-48.7	3.5	3.02e+01	0	40	104	7340032	52	16547
2026-01-23 17:21:47.62	15.71	10.13	-38.2	-48.4	3.6	3.02e+01	0	41	104	7340032	52	16076
2026-01-23 17:21:48.63	15.65	10.22	-39.1	-49.4	3.5	3.02e+01	0	40	104	7340032	52	18000
2026-01-23 17:21:49.64	15.59	10.31	-40.3	-50.7	3.5	3.02e+01	0	40	104	7340032	54	18703
2026-01-23 17:21:50.65	15.53	10.40	-50.3	-67.0	3.5	3.02e+01	0	41	104	7340032	60	86516
2026-01-23 17:21:51.66	15.46	10.49	-50.0	-67.4	3.5	3.02e+01	0	41	104	7340032	60	89965
2026-01-23 17:21:52.67	15.40	10.59	-39.9	-50.3	3.5	3.02e+01	0	41	104	7340032	54	17810
2026-01-23 17:21:53.68	15.34	10.68	-42.1	-52.7	3.5	3.02e+01	0	41	104	7340032	60	16572
2026-01-23 17:21:54.69	15.28	10.77	-42.1	-52.9	3.5	3.02e+01	0	41	104	7340032	58	19005
2026-01-23 17:21:55.70	15.21	10.86	-41.8	-52.5	3.5	3.02e+01	0	41	104	7340032	58	18207
2026-01-23 17:21:56.71	15.15	10.96	-41.3	-51.9	3.5	3.02e+01	0	41	104	7340032	56	19136
2026-01-23 17:21:57.72	15.09	11.05	-39.7	-50.1	3.5	3.02e+01	0	41	104	7340032	54	17322
2026-01-23 17:21:58.73	15.02	11.14	-49.3	-64.5	3.5	3.02e+01	0	41	104	7340032	60	64822
2026-01-23 17:21:59.74	14.96	11.24	-50.7	-68.4	3.5	3.02e+01	0	41	104	7340032	60	101783
2026-01-23 17:22:00.75	14.89	11.33	-44.3	-55.4	3.5	3.02e+01	0	41	104	7340032	60	22535
2026-01-23 17:22:01.76	14.83	11.43	-50.2	-66.6	3.5	3.02e+01	0	41	104	7340032	60	82227
2026-01-23 17:22:02.77	14.76	11.52	-44.9	-56.0	3.5	3.02e+01	0	41	104	7340032	60	24240
2026-01-23 17:22:03.78	14.69	11.62	-43.4	-54.2	3.5	3.02e+01	0	41	104	7340032	60	19637
2026-01-23 17:22:04.79	14.63	11.72	-42.9	-53.6	3.5	3.02e+01	0	40	104	7340032	60	18494
2026-01-23 17:22:05.80	14.56	11.81	-43.2	-53.9	3.5	3.02e+01	0	41	104	7340032	60	19127
2026-01-23 17:22:06.81	14.49	11.91	-50.4	-66.8	3.5	3.02e+01	0	41	104	7340032	60	84468
2026-01-23 17:22:07.81	14.42	12.01	-40.8	-51.2	3.5	3.02e+01	0	41	104	7340032	60	13915
2026-01-23 17:22:08.82	14.35	12.10	-50.1	-65.9	3.5	3.02e+01	0	41	104	7340032	60	76115
2026-01-23 17:22:09.83	14.28	12.20	-50.0	-65.5	3.4	3.02e+01	0	41	104	7340032	60	72302
2026-01-23 17:22:10.84	14.21	12.30	-39.6	-49.9	3.5	3.02e+01	0	41	104	7340032	50	21445
2026-01-23 17:22:11.85	14.14	12.40	-38.3	-48.6	3.5	3.02e+01	0	41	104	7340032	52	16364
2026-01-23 17:22:12.86	14.07	12.50	-37.9	-48.2	3.5	3.02e+01	0	41	104	7340032	52	15597
2026-01-23 17:22:13.87	14.00	12.60	-37.3	-47.5	3.5	3.02e+01	0	41	104	7340032	50	16287
2026-01-23 17:22:14.88	13.92	12.70	-37.3	-47.5	3.5	3.02e+01	0	41	104	7340032	50	16209
2026-01-23 17:22:15.89	13.85	12.80	-40.5	-50.9	3.5	3.02e+01	0	41	104	7340032	54	19113
2026-01-23 17:22:16.90	13.78	12.90	-39.2	-49.6	3.5	3.02e+01	0	41	104	7340032	54	16352
2026-01-23 17:22:17.91	13.70	13.00	-50.4	-66.4	3.5	3.02e+01	0	41	104	7340032	60	80700
2026-01-23 17:22:18.92	13.63	13.10	-50.3	-66.1	3.5	3.02e+01	0	41	104	7340032	60	77278
2026-01-23 17:22:19.93	13.55	13.21	-43.0	-53.6	3.6	3.02e+01	0	41	104	7340032	58	20692
2026-01-23 17:22:20.94	13.47	13.31	-41.4	-51.8	3.5	3.02e+01	0	41	104	7340032	58	16801
2026-01-23 17:22:21.95	13.40	13.41	-40.5	-50.8	3.6	3.02e+01	0	41	104	7340032	56	16859
2026-01-23 17:22:22.95	13.32	13.52	-38.9	-49.1	3.5	3.02e+01	0	41	104	7340032	54	15558
2026-01-23 17:22:23.96	13.24	13.62	-38.1	-48.2	3.5	3.02e+01	0	41	104	7340032	52	15759
2026-01-23 17:22:24.97	13.16	13.72	-37.6	-47.7	3.5	3.02e+01	0	41	104	7340032	50	16633
2026-01-23 17:22:25.98	13.09	13.83	-39.0	-49.3	3.5	3.02e+01	0	41	104	7340032	52	17710
2026-01-23 17:22:26.99	13.01	13.93	-50.5	-67.4	3.5	3.02e+01	0	41	104	7340032	60	90479
2026-01-23 17:22:28.00	12.92	14.04	-50.3	-65.9	3.5	3.02e+01	0	41	104	7340032	60	76140
2026-01-23 17:22:29.01	12.84	14.15	-43.7	-54.5	3.5	3.02e+01	0	41	104	7340032	60	20435
2026-01-23 17:22:30.02	12.76	14.25	-47.4	-59.6	3.5	3.02e+01	0	41	104	7340032	60	36556
2026-01-23 17:22:31.03	12.68	14.36	-50.0	-65.4	3.5	3.02e+01	0	41	104	7340032	60	71760
2026-01-23 17:22:32.03	12.60	14.47	-50.5	-67.0	3.5	3.02e+01	0	41	104	7340032	60	86435
2026-01-23 17:22:33.04	12.51	14.57	-50.5	-66.8	3.5	3.02e+01	0	41	104	7340032	60	84653
2026-01-23 17:22:34.05	12.43	14.68	-50.7	-67.9	3.5	3.02e+01	0	41	104	7340032	60	95693
2026-01-23 17:22:35.06	12.34	14.79	-50.8	-68.5	3.5	3.02e+01	0	41	104	7340032	60	102129
2026-01-23 17:22:36.07	12.26	14.90	-50.7	-68.3	3.5	3.02e+01	0	41	104	7340032	60	100551
2026-01-23 17:22:37.08	12.17	15.01	-50.7	-68.2	3.5	3.02e+01	0	41	104	7340032	60	99449
2026-01-23 17:22:38.09	12.08	15.12	-50.7	-68.3	3.5	3.02e+01	0	41	104	7340032	60	100144
2026-01-23 17:22:39.10	12.00	15.23	-50.8	-68.4	3.5	3.02e+01	0	41	104	7340032	60	101082
2026-01-23 17:22:40.11	11.91	15.35	-50.7	-68.4	3.5	3.02e+01	0	41	104	7340032	60	101570
2026-01-23 17:22:41.12	11.82	15.46	-50.7	-68.4	3.5	3.02e+01	0	41	104	7340032	60	101122
2026-01-23 17:22:42.13	11.73	15.57	-50.8	-68.5	3.5	3.02e+01	0	41	104	7340032	60	102469
2026-01-23 17:22:43.14	11.64	15.68	-50.8	-68.5	3.5	3.02e+01	0	41	104	7340032	60	102543
2026-01-23 17:22:44.14	11.55	15.80	-50.8	-68.5	3.5	3.02e+01	0	41	104	7340032	60	102294
2026-01-23 17:22:45.15	11.45	15.91	-50.7	-68.4	3.5	3.02e+01	0	41	104	7340032	60	101321
2026-01-23 17:22:46.16	11.36	16.02	-50.8	-68.5	3.5	3.02e+01	0	41	104	7340032	60	102058
2026-01-23 17:22:47.17	11.26	16.14	-50.8	-68.6	3.5	3.02e+01	0	41	104	7340032	60	103877
2026-01-23 17:22:48.18	11.17	16.25	-50.8	-68.6	3.5	3.02e+01	0	41	104	7340032	60	103315
2026-01-23 17:22:49.19	11.07	16.37	-50.8	-68.5	3.5	3.02e+01	0	41	104	7340032	60	102977
2026-01-23 17:22:50.20	10.98	16.49	-50.8	-68.7	3.5	3.02e+01	0	41	104	7340032	60	104539
2026-01-23 17:22:51.21	10.88	16.60	-50.8	-68.6	3.5	3.02e+01	0	41	104	7340032	60	103531
2026-01-23 17:22:52.22	10.78	16.72	-50.8	-68.6	3.5	3.02e+01	0	41	104	7340032	60	103196
2026-01-23 17:22:53.23	10.68	16.84	-50.8	-68.6	3.5	3.02e+01	0	41	104	7340032	60	104020
2026-01-23 17:22:54.24	10.58	16.96	-50.8	-68.6	3.5	3.02e+01	0	41	104	7340032	60	103554
2026-01-23 17:22:55.24	10.48	17.08	-50.8	-68.5	3.5	3.02e+01	0	41	104	7340032	60	102539
2026-01-23 17:22:56.26	10.38	17.20	-50.8	-68.6	3.5	3.02e+01	0	41	104	7340032	60	103041
2026-01-23 17:22:57.26	10.28	17.32	-50.8	-68.7	3.5	3.02e+01	0	41	104	7340032	60	104679
2026-01-23 17:22:58.27	10.17	17.44	-50.8	-68.6	3.5	3.02e+01	0	41	104	7340032	60	103233
2026-01-23 17:22:59.28	10.07	17.56	-50.8	-68.6	3.5	3.02e+01	0	41	104	7340032	60	103882
2026-01-23 17:23:00.29	9.96	17.68	-50.8	-68.6	3.5	3.02e+01	0	41	104	7340032	60	104012
2026-01-23 17:23:01.30	9.86	17.81	-50.8	-68.6	3.5	3.02e+01	0	41	104	7340032	60	104016
2026-01-23 17:23:02.31	9.75	17.93	-50.8	-68.7	3.5	3.02e+01	0	41	104	7340032	60	104706
2026-01-23 17:23:03.32	9.64	18.05	-50.8	-68.7	3.5	3.02e+01	0	41	104	7340032	60	104389
2026-01-23 17:23:04.33	9.53	18.18	-50.8	-68.7	3.5	3.02e+01	0	41	104	7340032	60	104790
2026-01-23 17:23:05.34	9.42	18.30	-50.8	-68.7	3.5	3.02e+01	0	41	104	7340032	60	104434
2026-01-23 17:23:06.35	9.31	18.43	-50.8	-68.7	3.5	3.02e+01	0	41	104	7340032	60	104381
2026-01-23 17:23:07.35	9.20	18.55	-50.8	-68.7	3.5	3.02e+01	0	41	104	7340032	60	104413
2026-01-23 17:23:08.37	9.09	18.68	-50.8	-68.7	3.5	3.02e+01	0	41	104	7340032	60	104423
2026-01-23 17:23:09.37	8.97	18.81	-50.8	-68.7	3.5	3.02e+01	0	41	104	7340032	60	104385
2026-01-23 17:23:10.38	8.86	18.94	-50.8	-68.6	3.5	3.02e+01	0	41	104	7340032	60	104124
2026-01-23 17:23:11.39	8.74	19.06	-50.8	-68.7	3.5	3.02e+01	0	41	104	7340032	60	104835
2026-01-23 17:23:12.40	8.62	19.19	-50.8	-68.7	3.5	3.02e+01	0	41	104	7340032	60	104264
2026-01-23 17:23:13.41	8.51	19.32	-50.8	-68.6	3.5	3.02e+01	0	41	104	7340032	60	104039
2026-01-23 17:23:14.42	8.39	19.45	-50.8	-68.7	3.5	3.02e+01	0	41	104	7340032	60	104761
2026-01-23 17:23:15.43	8.27	19.59	-50.8	-68.6	3.5	3.02e+01	0	41	104	7340032	60	103826
2026-01-23 17:23:16.44	8.14	19.72	-50.8	-68.6	3.5	3.02e+01	0	41	104	7340032	60	103703
2026-01-23 17:23:17.44	8.02	19.85	-50.8	-68.6	3.5	3.02e+01	0	41	104	7340032	60	104039
2026-01-23 17:23:18.45	7.90	19.98	-50.8	-68.7	3.5	3.02e+01	0	41	104	7340032	60	104898
2026-01-23 17:23:19.46	7.77	20.12	-50.8	-68.6	3.5	3.02e+01	0	41	104	7340032	60	104051
2026-01-23 17:23:20.47	7.65	20.25	-50.8	-68.7	3.5	3.02e+01	0	41	104	7340032	60	104514
2026-01-23 17:23:21.47	7.52	20.38	-50.8	-68.6	3.5	3.02e+01	0	41	104	7340032	60	103826
2026-01-23 17:23:22.49	7.39	20.52	-50.8	-68.6	3.5	3.02e+01	0	41	104	7340032	60	104066
2026-01-23 17:23:23.49	7.26	20.66	-50.8	-68.7	3.5	3.02e+01	0	41	104	7340032	60	104362
2026-01-23 17:23:24.50	7.13	20.79	-50.8	-68.6	3.5	3.02e+01	0	41	104	7340032	60	104067
2026-01-23 17:23:25.51	7.00	20.93	-50.8	-68.7	3.5	3.02e+01	0	41	104	7340032	60	104681
2026-01-23 17:23:26.52	6.86	21.07	-50.8	-68.7	3.5	3.02e+01	0	41	104	7340032	60	104381
2026-01-23 17:23:27.53	6.73	21.21	-50.8	-68.7	3.5	3.02e+01	0	41	104	7340032	60	104369
2026-01-23 17:23:28.54	6.59	21.35	-50.8	-68.6	3.5	3.02e+01	0	41	104	7340032	60	104174
2026-01-23 17:23:29.55	6.45	21.49	-50.8	-68.7	3.5	3.02e+01	0	41	104	7340032	60	104214
2026-01-23 17:23:30.56	6.31	21.63	-50.8	-68.6	3.5	3.02e+01	0	41	104	7340032	60	103410
2026-01-23 17:23:31.57	6.17	21.77	-50.8	-68.6	3.5	3.02e+01	0	41	104	7340032	60	104167
2026-01-23 17:23:32.58	6.03	21.91	-50.8	-68.7	3.5	3.02e+01	0	41	104	7340032	60	104225
2026-01-23 17:23:33.58	5.89	22.05	-50.8	-68.7	3.5	3.02e+01	0	41	104	7340032	60	104193
2026-01-23 17:23:34.59	5.74	22.20	-50.8	-68.6	3.5	3.02e+01	0	41	104	7340032	60	103821
2026-01-23 17:23:35.60	5.60	22.34	-50.8	-68.7	3.5	3.02e+01	0	41	104	7340032	60	104203
2026-01-23 17:23:36.61	5.45	22.49	-50.8	-68.6	3.5	3.02e+01	0	41	104	7340032	60	103497
2026-01-23 17:23:37.62	5.30	22.63	-50.8	-68.6	3.5	3.02e+01	0	41	104	7340032	60	104104
2026-01-23 17:23:38.63	5.15	22.78	-50.8	-68.7	3.5	3.02e+01	0	41	104	7340032	60	104489
2026-01-23 17:23:39.64	4.99	22.93	-50.8	-68.7	3.5	3.02e+01	0	41	104	7340032	60	104366
2026-01-23 17:23:40.65	4.84	23.07	-50.8	-68.7	3.5	3.02e+01	0	41	104	7340032	60	104185
2026-01-23 17:23:41.66	4.68	23.22	-50.8	-68.6	3.5	3.02e+01	0	41	104	7340032	60	103913
2026-01-23 17:23:42.67	4.53	23.37	-50.8	-68.6	3.5	3.02e+01	0	41	104	7340032	60	103624
2026-01-23 17:23:43.68	4.37	23.52	-50.8	-68.7	3.5	3.02e+01	0	41	104	7340032	60	104451
2026-01-23 17:23:44.69	4.21	23.67	-50.8	-68.6	3.5	3.02e+01	0	41	104	7340032	60	104019
2026-01-23 17:23:45.70	4.05	23.83	-50.8	-68.7	3.5	3.02e+01	0	41	104	7340032	60	104333
2026-01-23 17:23:46.70	3.88	23.98	-50.8	-68.7	3.5	3.02e+01	0	41	104	7340032	60	104210
2026-01-23 17:23:47.71	3.72	24.13	-50.8	-68.7	3.5	3.02e+01	0	41	104	7340032	60	104612
2026-01-23 17:23:48.72	3.55	24.28	-50.8	-68.7	3.5	3.02e+01	0	41	104	7340032	60	104191
2026-01-23 17:23:49.73	3.38	24.44	-50.8	-68.6	3.5	3.02e+01	0	41	104	7340032	60	103847
2026-01-23 17:23:50.74	3.21	24.59	-50.8	-68.7	3.5	3.02e+01	0	41	104	7340032	60	104390
2026-01-23 17:23:51.75	3.04	24.75	-50.8	-68.7	3.5	3.02e+01	0	41	104	7340032	60	104356
2026-01-23 17:23:52.76	2.86	24.90	-50.8	-68.6	3.5	3.02e+01	0	41	104	7340032	60	104142
2026-01-23 17:23:53.77	2.69	25.06	-50.8	-68.6	3.5	3.02e+01	0	41	104	7340032	60	103485
2026-01-23 17:23:54.78	2.51	25.22	-50.8	-68.6	3.5	3.02e+01	0	41	104	7340032	60	104073
2026-01-23 17:23:55.79	2.33	25.38	-50.8	-68.7	3.5	3.02e+01	0	41	104	7340032	60	104267
2026-01-23 17:23:56.80	2.15	25.54	-50.8	-68.6	3.5	3.02e+01	0	41	104	7340032	60	104126
2026-01-23 17:23:57.81	1.96	25.70	-50.8	-68.7	3.5	3.02e+01	0	41	104	7340032	60	104313
2026-01-23 17:23:58.82	1.78	25.86	-50.8	-68.7	3.5	3.02e+01	0	41	104	7340032	60	104296
2026-01-23 17:23:59.83	1.59	26.02	-50.8	-68.6	3.5	3.02e+01	0	41	104	7340032	60	103881
2026-01-23 17:24:00.82	1.40	26.18	-50.8	-68.6	3.5	3.02e+01	0	41	104	7340032	60	103884
2026-01-23 17:24:01.82	1.21	26.34	-50.8	-68.7	3.5	3.02e+01	0	41	104	7340032	60	104477
2026-01-23 17:24:02.83	1.02	26.50	-50.8	-68.7	3.5	3.02e+01	0	41	104	7340032	60	104464
2026-01-23 17:24:03.84	0.82	26.67	-50.8	-68.7	3.5	3.02e+01	0	41	104	7340032	60	104656
2026-01-23 17:24:04.85	0.63	26.83	-50.8	-68.7	3.5	3.02e+01	0	41	104	7340032	60	104548
2026-01-23 17:24:05.86	0.43	27.00	-50.8	-68.6	3.5	3.02e+01	0	41	104	7340032	60	103935
2026-01-23 17:24:06.87	0.22	27.17	-50.8	-68.6	3.5	3.02e+01	0	41	104	7340032	60	104013
2026-01-23 17:24:07.89	0.02	27.34	-50.8	-68.6	3.5	3.02e+01	0	41	104	7340032	60	104090
2026-01-23 17:24:08.89	359.81	27.50	-50.8	-68.7	3.5	3.02e+01	0	41	104	7340032	60	104468
2026-01-23 17:24:09.91	359.60	27.67	-50.8	-68.7	3.5	3.02e+01	0	41	104	7340032	60	104692
2026-01-23 17:24:10.91	359.39	27.84	-50.8	-68.7	3.5	3.02e+01	0	41	104	7340032	60	104488
2026-01-23 17:24:11.92	359.17	28.01	-50.8	-68.6	3.5	3.02e+01	0	41	104	7340032	60	104069
2026-01-23 17:24:12.93	358.96	28.18	-50.8	-68.6	3.5	3.02e+01	0	41	104	7340032	60	104076
2026-01-23 17:24:13.94	358.74	28.35	-50.8	-68.7	3.5	3.02e+01	0	41	104	7340032	60	104357
2026-01-23 17:24:14.95	358.52	28.52	-50.8	-68.6	3.5	3.02e+01	0	41	104	7340032	60	103902
2026-01-23 17:24:15.96	358.29	28.70	-50.8	-68.7	3.5	3.02e+01	0	41	104	7340032	60	104712
2026-01-23 17:24:16.97	358.07	28.87	-50.8	-68.7	3.5	3.02e+01	0	41	104	7340032	60	104403
2026-01-23 17:24:17.98	357.84	29.05	-50.8	-68.6	3.5	3.02e+01	0	41	104	7340032	60	103896
2026-01-23 17:24:18.99	357.60	29.22	-50.8	-68.7	3.5	3.02e+01	0	41	104	7340032	60	104224
2026-01-23 17:24:20.00	357.37	29.40	-50.8	-68.7	3.5	3.02e+01	0	41	104	7340032	60	104299
2026-01-23 17:24:21.01	357.13	29.57	-50.8	-68.7	3.5	3.02e+01	0	41	104	7340032	60	104279
2026-01-23 17:24:22.02	356.89	29.75	-50.8	-68.7	3.5	3.02e+01	0	41	104	7340032	60	104767
2026-01-23 17:24:23.03	356.65	29.93	-50.8	-68.7	3.5	3.02e+01	0	41	104	7340032	60	104432
2026-01-23 17:24:24.04	356.40	30.10	-50.8	-68.6	3.5	3.02e+01	0	41	104	7340032	60	103861
2026-01-23 17:24:25.05	356.15	30.28	-50.8	-68.7	3.5	3.02e+01	0	41	104	7340032	60	104362
2026-01-23 17:24:26.05	355.91	30.46	-50.8	-68.7	3.5	3.02e+01	0	41	104	7340032	60	104363
2026-01-23 17:24:27.06	355.65	30.64	-50.8	-68.6	3.5	3.02e+01	0	41	104	7340032	60	104028
2026-01-23 17:24:28.07	355.39	30.82	-50.8	-68.7	3.5	3.02e+01	0	41	104	7340032	60	104606
2026-01-23 17:24:29.08	355.13	31.00	-50.8	-68.7	3.5	3.02e+01	0	41	104	7340032	60	104300
2026-01-23 17:24:30.10	354.87	31.18	-50.8	-68.6	3.5	3.02e+01	0	41	104	7340032	60	103858
2026-01-23 17:24:31.10	354.60	31.36	-50.8	-68.6	3.5	3.02e+01	0	41	104	7340032	60	103416
2026-01-23 17:24:32.11	354.33	31.55	-50.8	-68.7	3.5	3.02e+01	0	41	104	7340032	60	104338
2026-01-23 17:24:33.12	354.06	31.73	-50.8	-68.6	3.5	3.02e+01	0	41	104	7340032	60	103944
2026-01-23 17:24:34.13	353.78	31.91	-50.8	-68.6	3.5	3.02e+01	0	41	104	7340032	60	103969
2026-01-23 17:24:35.14	353.51	32.10	-50.8	-68.7	3.5	3.02e+01	0	41	104	7340032	60	104378
2026-01-23 17:24:36.15	353.22	32.28	-50.8	-68.7	3.5	3.02e+01	0	41	104	7340032	60	104793
2026-01-23 17:24:37.16	352.94	32.47	-50.8	-68.6	3.5	3.02e+01	0	41	104	7340032	60	104148
2026-01-23 17:24:38.17	352.65	32.65	-50.8	-68.6	3.5	3.02e+01	0	41	104	7340032	60	104058
2026-01-23 17:24:39.18	352.35	32.84	-50.8	-68.6	3.5	3.02e+01	0	41	104	7340032	60	104048
2026-01-23 17:24:40.19	352.06	33.02	-50.8	-68.6	3.5	3.02e+01	0	41	104	7340032	60	103799
2026-01-23 17:24:41.20	351.76	33.21	-50.8	-68.7	3.5	3.02e+01	0	41	104	7340032	60	104442
2026-01-23 17:24:42.21	351.45	33.40	-50.8	-68.6	3.5	3.02e+01	0	41	104	7340032	60	103868
2026-01-23 17:24:43.22	351.15	33.58	-50.8	-68.6	3.5	3.02e+01	0	41	104	7340032	60	103825
2026-01-23 17:24:44.23	350.84	33.77	-50.8	-68.6	3.5	3.02e+01	0	41	104	7340032	60	103706
2026-01-23 17:24:45.23	350.52	33.96	-50.8	-68.6	3.5	3.02e+01	0	41	104	7340032	60	103900
2026-01-23 17:24:46.24	350.21	34.14	-50.8	-68.7	3.5	3.02e+01	0	41	104	7340032	60	104365
2026-01-23 17:24:47.25	349.88	34.33	-50.8	-68.6	3.5	3.02e+01	0	41	104	7340032	60	104180
2026-01-23 17:24:48.26	349.56	34.52	-50.8	-68.7	3.5	3.02e+01	0	41	104	7340032	60	104276
2026-01-23 17:24:49.27	349.23	34.71	-50.8	-68.6	3.5	3.02e+01	0	41	104	7340032	60	103812
2026-01-23 17:24:50.28	348.89	34.90	-50.8	-68.6	3.5	3.02e+01	0	41	104	7340032	60	104080
2026-01-23 17:24:51.29	348.55	35.09	-50.8	-68.7	3.5	3.02e+01	0	41	104	7340032	60	104368
2026-01-23 17:24:52.30	348.21	35.27	-50.8	-68.6	3.5	3.02e+01	0	41	104	7340032	60	104051
2026-01-23 17:24:53.31	347.87	35.46	-50.8	-68.6	3.5	3.02e+01	0	41	104	7340032	60	103982
2026-01-23 17:24:54.32	347.52	35.65	-50.8	-68.6	3.5	3.02e+01	0	41	104	7340032	60	103241
2026-01-23 17:24:55.33	347.16	35.84	-50.8	-68.6	3.5	3.02e+01	0	41	104	7340032	60	103990
2026-01-23 17:24:56.34	346.80	36.03	-50.8	-68.6	3.5	3.02e+01	0	41	104	7340032	60	103566
2026-01-23 17:24:57.35	346.44	36.22	-50.8	-68.6	3.5	3.02e+01	0	41	104	7340032	60	103665
2026-01-23 17:24:58.36	346.07	36.41	-50.8	-68.6	3.5	3.02e+01	0	41	104	7340032	60	103878
2026-01-23 17:24:59.36	345.70	36.59	-50.8	-68.7	3.5	3.02e+01	0	41	104	7340032	60	104240
2026-01-23 17:25:00.37	345.33	36.78	-50.8	-68.6	3.5	3.02e+01	0	41	104	7340032	60	103674
2026-01-23 17:25:01.38	344.95	36.97	-50.8	-68.6	3.5	3.02e+01	0	41	104	7340032	60	103995
2026-01-23 17:25:02.39	344.56	37.16	-50.8	-68.7	3.5	3.02e+01	0	41	104	7340032	60	104465
2026-01-23 17:25:03.40	344.17	37.34	-50.8	-68.6	3.5	3.02e+01	0	41	104	7340032	60	103686
2026-01-23 17:25:04.41	343.77	37.53	-50.8	-68.6	3.5	3.02e+01	0	41	104	7340032	60	103984
2026-01-23 17:25:05.42	343.38	37.72	-50.8	-68.6	3.5	3.02e+01	0	41	104	7340032	60	104124
2026-01-23 17:25:06.43	342.97	37.90	-50.8	-68.7	3.5	3.02e+01	0	41	104	7340032	60	104221
2026-01-23 17:25:07.44	342.56	38.09	-50.8	-68.6	3.5	3.02e+01	0	41	104	7340032	60	104172
2026-01-23 17:25:08.45	342.15	38.27	-50.8	-68.6	3.5	3.02e+01	0	41	104	7340032	60	103969
2026-01-23 17:25:09.46	341.73	38.46	-50.8	-68.6	3.5	3.02e+01	0	41	104	7340032	60	103702
2026-01-23 17:25:10.47	341.31	38.64	-50.8	-68.6	3.5	3.02e+01	0	41	104	7340032	60	103975
2026-01-23 17:25:11.48	340.88	38.82	-50.8	-68.6	3.5	3.02e+01	0	41	104	7340032	60	103600
2026-01-23 17:25:12.49	340.44	39.00	-50.8	-68.6	3.5	3.02e+01	0	41	104	7340032	60	104128
2026-01-23 17:25:13.50	340.01	39.18	-50.8	-68.6	3.5	3.02e+01	0	41	104	7340032	60	104061
2026-01-23 17:25:14.51	339.56	39.36	-50.8	-68.6	3.5	3.02e+01	0	41	104	7340032	60	103860
2026-01-23 17:25:15.52	339.11	39.54	-50.8	-68.6	3.5	3.02e+01	0	41	104	7340032	60	103711
2026-01-23 17:25:16.53	338.66	39.72	-50.8	-68.6	3.5	3.02e+01	0	41	104	7340032	60	103493
2026-01-23 17:25:17.54	338.20	39.90	-50.8	-68.6	3.5	3.02e+01	0	41	104	7340032	60	103820
2026-01-23 17:25:18.55	337.74	40.07	-50.8	-68.6	3.5	3.02e+01	0	41	104	7340032	60	103650
2026-01-23 17:25:19.55	337.27	40.25	-50.8	-68.6	3.5	3.02e+01	0	41	104	7340032	60	103696
2026-01-23 17:25:20.56	336.80	40.42	-50.8	-68.6	3.5	3.02e+01	0	41	104	7340032	60	103853
2026-01-23 17:25:21.57	336.32	40.59	-50.8	-68.6	3.5	3.02e+01	0	41	104	7340032	60	103602
2026-01-23 17:25:22.58	335.84	40.76	-50.8	-68.6	3.4	3.02e+01	0	41	104	7340032	60	103462
2026-01-23 17:25:23.59	335.35	40.93	-50.8	-68.6	3.5	3.02e+01	0	41	104	7340032	60	103818
2026-01-23 17:25:24.60	334.85	41.10	-50.8	-68.6	3.5	3.02e+01	0	41	104	7340032	60	103642
2026-01-23 17:25:25.61	334.35	41.27	-50.8	-68.6	3.5	3.02e+01	0	41	104	7340032	60	103312
2026-01-23 17:25:26.62	333.85	41.43	-50.7	-68.6	3.5	3.02e+01	0	41	104	7340032	60	103198
2026-01-23 17:25:27.63	333.33	41.59	-50.8	-68.6	3.5	3.02e+01	0	41	104	7340032	60	103800
2026-01-23 17:25:28.64	332.82	41.75	-50.8	-68.6	3.5	3.02e+01	0	41	104	7340032	60	103754
2026-01-23 17:25:29.65	332.30	41.91	-50.8	-68.6	3.5	3.02e+01	0	41	104	7340032	60	104081
2026-01-23 17:25:30.66	331.77	42.07	-50.8	-68.6	3.5	3.02e+01	0	41	104	7340032	60	103513
2026-01-23 17:25:31.67	331.24	42.23	-50.8	-68.6	3.5	3.02e+01	0	41	104	7340032	60	103856
2026-01-23 17:25:32.68	330.70	42.38	-50.8	-68.6	3.5	3.02e+01	0	41	104	7340032	60	103734
2026-01-23 17:25:33.69	330.16	42.53	-50.8	-68.6	3.5	3.02e+01	0	41	104	7340032	60	103272
2026-01-23 17:25:34.70	329.61	42.68	-50.8	-68.6	3.5	3.02e+01	0	41	104	7340032	60	103583
2026-01-23 17:25:35.70	329.06	42.82	-50.8	-68.6	3.5	3.02e+01	0	41	104	7340032	60	103530
2026-01-23 17:25:36.71	328.51	42.97	-50.8	-68.6	3.5	3.02e+01	0	41	104	7340032	60	103691
2026-01-23 17:25:37.73	327.94	43.11	-50.8	-68.6	3.5	3.02e+01	0	41	104	7340032	60	103472
2026-01-23 17:25:38.74	327.37	43.25	-50.7	-68.6	3.5	3.02e+01	0	41	104	7340032	60	103970
2026-01-23 17:25:39.75	326.80	43.38	-50.8	-68.6	3.5	3.02e+01	0	41	104	7340032	60	103923
2026-01-23 17:25:40.75	326.22	43.52	-50.8	-68.6	3.5	3.02e+01	0	41	104	7340032	60	103832
2026-01-23 17:25:41.76	325.64	43.65	-50.8	-68.6	3.5	3.02e+01	0	41	104	7340032	60	103973
2026-01-23 17:25:42.77	325.05	43.77	-50.8	-68.6	3.5	3.02e+01	0	41	104	7340032	60	103532
2026-01-23 17:25:43.78	324.46	43.90	-50.8	-68.7	3.5	3.02e+01	0	41	104	7340032	60	104229
2026-01-23 17:25:44.79	323.86	44.02	-50.7	-68.6	3.5	3.02e+01	0	41	104	7340032	60	103339
2026-01-23 17:25:45.80	323.26	44.14	-50.7	-68.6	3.5	3.02e+01	0	41	104	7340032	60	103600
2026-01-23 17:25:46.81	322.66	44.26	-50.7	-68.6	3.5	3.02e+01	0	41	104	7340032	60	103651
2026-01-23 17:25:47.82	322.04	44.37	-50.8	-68.6	3.5	3.02e+01	0	41	104	7340032	60	104050
2026-01-23 17:25:48.83	321.43	44.48	-50.7	-68.6	3.5	3.02e+01	0	41	104	7340032	60	103347
2026-01-23 17:25:49.84	320.81	44.58	-50.7	-68.6	3.5	3.02e+01	0	41	104	7340032	60	104046
2026-01-23 17:25:50.85	320.19	44.69	-50.7	-68.6	3.5	3.02e+01	0	41	104	7340032	60	103719
2026-01-23 17:25:51.86	319.56	44.78	-50.7	-68.6	3.5	3.02e+01	0	41	104	7340032	60	103762
2026-01-23 17:25:52.87	318.93	44.88	-50.7	-68.6	3.5	3.02e+01	0	41	104	7340032	60	103684
2026-01-23 17:25:53.88	318.29	44.97	-50.8	-68.6	3.5	3.02e+01	0	41	104	7340032	60	103698
2026-01-23 17:25:54.89	317.65	45.06	-50.8	-68.6	3.5	3.02e+01	0	41	104	7340032	60	103746
2026-01-23 17:25:55.90	317.01	45.14	-50.8	-68.6	3.5	3.02e+01	0	41	104	7340032	60	104085
2026-01-23 17:25:56.91	316.36	45.22	-50.7	-68.6	3.5	3.02e+01	0	41	104	7340032	60	103934
2026-01-23 17:25:57.92	315.72	45.30	-50.7	-68.6	3.5	3.02e+01	0	41	104	7340032	60	103510
2026-01-23 17:25:58.92	315.07	45.37	-50.7	-68.6	3.5	3.02e+01	0	41	104	7340032	60	103851
2026-01-23 17:25:59.93	314.41	45.44	-50.7	-68.6	3.5	3.02e+01	0	41	104	7340032	60	104103
2026-01-23 17:26:00.94	313.76	45.51	-50.7	-68.6	3.5	3.02e+01	0	41	104	7340032	60	103710
2026-01-23 17:26:01.95	313.09	45.57	-50.7	-68.6	3.5	3.02e+01	0	41	104	7340032	60	104014
2026-01-23 17:26:02.96	312.43	45.62	-50.7	-68.6	3.5	3.02e+01	0	41	104	7340032	60	103721
2026-01-23 17:26:03.97	311.77	45.68	-50.8	-68.6	3.5	3.02e+01	0	41	104	7340032	60	104077
2026-01-23 17:26:04.98	311.10	45.73	-50.8	-68.6	3.5	3.02e+01	0	41	104	7340032	60	103500
2026-01-23 17:26:05.99	310.43	45.77	-50.7	-68.6	3.5	3.02e+01	0	41	104	7340032	60	103586
2026-01-23 17:26:07.00	309.76	45.81	-50.8	-68.6	3.5	3.02e+01	0	41	104	7340032	60	103354
2026-01-23 17:26:08.01	309.08	45.85	-50.8	-68.6	3.5	3.02e+01	0	41	104	7340032	60	103990
2026-01-23 17:26:09.02	308.41	45.88	-50.7	-68.6	3.5	3.02e+01	0	41	104	7340032	60	103749
2026-01-23 17:26:10.03	307.73	45.90	-50.8	-68.6	3.5	3.02e+01	0	41	104	7340032	60	103850
2026-01-23 17:26:11.04	307.05	45.93	-50.8	-68.6	3.5	3.02e+01	0	41	104	7340032	60	103419
2026-01-23 17:26:12.05	306.37	45.95	-50.8	-68.7	3.5	3.02e+01	0	41	104	7340032	60	104205
2026-01-23 17:26:13.06	305.70	45.96	-50.8	-68.6	3.5	3.02e+01	0	41	104	7340032	60	103710
2026-01-23 17:26:14.07	305.02	45.97	-50.7	-68.6	3.5	3.02e+01	0	41	104	7340032	60	103820
2026-01-23 17:26:15.08	304.34	45.97	-50.8	-68.6	3.5	3.02e+01	0	41	104	7340032	60	103570
2026-01-23 17:26:16.09	303.66	45.97	-50.8	-68.6	3.5	3.02e+01	0	41	104	7340032	60	103991
2026-01-23 17:26:17.10	302.98	45.97	-50.7	-68.6	3.5	3.02e+01	0	41	104	7340032	60	103622
2026-01-23 17:26:18.11	302.30	45.96	-50.7	-68.6	3.5	3.02e+01	0	41	104	7340032	60	103543
2026-01-23 17:26:19.11	301.62	45.95	-50.8	-68.6	3.5	3.02e+01	0	41	104	7340032	60	103460
2026-01-23 17:26:20.12	300.95	45.93	-50.7	-68.6	3.5	3.02e+01	0	41	104	7340032	60	103499
2026-01-23 17:26:21.13	300.27	45.91	-50.7	-68.6	3.5	3.02e+01	0	41	104	7340032	60	103615
2026-01-23 17:26:22.14	299.59	45.89	-50.8	-68.6	3.5	3.02e+01	0	41	104	7340032	60	103430
2026-01-23 17:26:23.15	298.91	45.86	-50.7	-68.6	3.5	3.02e+01	0	41	104	7340032	60	103511
2026-01-23 17:26:24.16	298.24	45.82	-50.8	-68.6	3.5	3.02e+01	0	41	104	7340032	60	103690
2026-01-23 17:26:25.17	297.57	45.78	-50.8	-68.6	3.5	3.02e+01	0	41	104	7340032	60	103479
2026-01-23 17:26:26.18	296.90	45.74	-50.8	-68.6	3.5	3.02e+01	0	41	104	7340032	60	103596
2026-01-23 17:26:27.19	296.23	45.69	-50.7	-68.6	3.5	3.02e+01	0	41	104	7340032	60	103306
2026-01-23 17:26:28.19	295.57	45.64	-50.8	-68.6	3.5	3.02e+01	0	41	104	7340032	60	103404
2026-01-23 17:26:29.20	294.90	45.59	-50.8	-68.6	3.5	3.02e+01	0	41	104	7340032	60	103655
2026-01-23 17:26:30.21	294.24	45.53	-50.8	-68.6	3.5	3.02e+01	0	41	104	7340032	60	103639
2026-01-23 17:26:31.22	293.58	45.47	-50.8	-68.6	3.5	3.02e+01	0	41	104	7340032	60	103797
2026-01-23 17:26:32.23	292.92	45.40	-50.8	-68.6	3.5	3.02e+01	0	41	104	7340032	60	103749
2026-01-23 17:26:33.24	292.27	45.33	-50.8	-68.6	3.5	3.02e+01	0	41	104	7340032	60	103165
2026-01-23 17:26:34.25	291.62	45.25	-50.8	-68.6	3.5	3.02e+01	0	41	104	7340032	60	103582
2026-01-23 17:26:35.26	290.97	45.17	-50.8	-68.6	3.5	3.02e+01	0	41	104	7340032	60	103492
2026-01-23 17:26:36.27	290.33	45.09	-50.8	-68.6	3.5	3.02e+01	0	41	104	7340032	60	104104
2026-01-23 17:26:37.27	289.69	45.00	-50.8	-68.6	3.5	3.02e+01	0	41	104	7340032	60	103429
2026-01-23 17:26:38.28	289.05	44.91	-50.8	-68.6	3.5	3.02e+01	0	41	104	7340032	60	103652
2026-01-23 17:26:39.29	288.42	44.82	-50.8	-68.7	3.5	3.02e+01	0	41	104	7340032	60	104334
2026-01-23 17:26:40.30	287.79	44.72	-50.8	-68.6	3.5	3.02e+01	0	41	104	7340032	60	103993
2026-01-23 17:26:41.31	287.17	44.62	-50.8	-68.6	3.5	3.02e+01	0	41	104	7340032	60	103538
2026-01-23 17:26:42.32	286.54	44.51	-50.8	-68.6	3.5	3.02e+01	0	41	104	7340032	60	104088
2026-01-23 17:26:43.33	285.93	44.41	-50.8	-68.6	3.5	3.02e+01	0	41	104	7340032	60	103945
2026-01-23 17:26:44.34	285.31	44.29	-50.8	-68.6	3.5	3.02e+01	0	41	104	7340032	60	103344
2026-01-23 17:26:45.35	284.70	44.18	-50.8	-68.6	3.5	3.02e+01	0	41	104	7340032	60	103414
2026-01-23 17:26:46.35	284.11	44.06	-50.8	-68.6	3.5	3.02e+01	0	42	104	7340032	60	103700
2026-01-23 17:26:47.36	283.51	43.94	-50.8	-68.6	3.5	3.02e+01	0	41	104	7340032	60	103469
2026-01-23 17:26:48.37	282.91	43.82	-50.8	-68.6	3.5	3.02e+01	0	41	104	7340032	60	103394
2026-01-23 17:26:49.38	282.32	43.69	-50.8	-68.6	3.5	3.02e+01	0	41	104	7340032	60	103313
2026-01-23 17:26:50.39	281.74	43.56	-50.8	-68.6	3.5	3.02e+01	0	41	104	7340032	60	103738
2026-01-23 17:26:51.40	281.15	43.43	-50.8	-68.6	3.5	3.02e+01	0	41	104	7340032	60	103332
2026-01-23 17:26:52.41	280.58	43.29	-50.8	-68.6	3.5	3.02e+01	0	41	104	7340032	60	103828
2026-01-23 17:26:53.42	280.01	43.16	-50.8	-68.6	3.5	3.02e+01	0	41	104	7340032	60	103553
2026-01-23 17:26:54.43	279.44	43.01	-50.8	-68.6	3.5	3.02e+01	0	41	104	7340032	60	104055
2026-01-23 17:26:55.44	278.88	42.87	-50.8	-68.6	3.5	3.02e+01	0	41	104	7340032	60	103771
2026-01-23 17:26:56.45	278.33	42.73	-50.8	-68.6	3.5	3.02e+01	0	41	104	7340032	60	104148
2026-01-23 17:26:57.45	277.78	42.58	-50.8	-68.6	3.5	3.02e+01	0	41	104	7340032	60	103757
2026-01-23 17:26:58.46	277.24	42.43	-50.8	-68.6	3.5	3.02e+01	0	41	104	7340032	60	103417
2026-01-23 17:26:59.47	276.70	42.28	-50.8	-68.6	3.5	3.02e+01	0	41	104	7340032	60	103485
2026-01-23 17:27:00.48	276.16	42.12	-50.8	-68.6	3.5	3.02e+01	0	41	104	7340032	60	103682
2026-01-23 17:27:01.49	275.63	41.97	-50.8	-68.6	3.5	3.02e+01	0	41	104	7340032	60	103482
2026-01-23 17:27:02.50	275.11	41.81	-50.8	-68.6	3.5	3.02e+01	0	41	104	7340032	60	103833
2026-01-23 17:27:03.51	274.59	41.65	-50.8	-68.6	3.5	3.02e+01	0	41	104	7340032	60	104053
2026-01-23 17:27:04.52	274.07	41.48	-50.8	-68.6	3.5	3.02e+01	0	41	104	7340032	60	103778
2026-01-23 17:27:05.53	273.57	41.32	-50.8	-68.6	3.5	3.02e+01	0	41	104	7340032	60	103584
2026-01-23 17:27:06.54	273.06	41.15	-50.8	-68.6	3.5	3.02e+01	0	41	104	7340032	60	104121
2026-01-23 17:27:07.55	272.56	40.99	-50.7	-68.6	3.5	3.02e+01	0	41	104	7340032	60	103441
2026-01-23 17:27:08.56	272.07	40.82	-50.8	-68.6	3.5	3.02e+01	0	41	104	7340032	60	103439
2026-01-23 17:27:09.57	271.58	40.65	-50.8	-68.6	3.5	3.02e+01	0	41	104	7340032	60	103459
2026-01-23 17:27:10.58	271.10	40.47	-50.8	-68.6	3.5	3.02e+01	0	41	104	7340032	60	103548
2026-01-23 17:27:11.59	270.62	40.30	-50.7	-68.6	3.5	3.02e+01	0	41	104	7340032	60	103670
2026-01-23 17:27:12.60	270.15	40.13	-50.8	-68.6	3.5	3.02e+01	0	41	104	7340032	60	103847
2026-01-23 17:27:13.61	269.69	39.95	-50.8	-68.5	3.5	3.02e+01	0	41	104	7340032	60	102921
2026-01-23 17:27:14.62	269.22	39.77	-50.8	-68.6	3.5	3.02e+01	0	42	104	7340032	60	103725
2026-01-23 17:27:15.63	268.77	39.59	-50.8	-68.5	3.5	3.02e+01	0	41	104	7340032	60	102823
2026-01-23 17:27:16.64	268.32	39.42	-50.8	-68.6	3.5	3.02e+01	0	41	104	7340032	60	103523
2026-01-23 17:27:17.65	267.87	39.23	-50.7	-68.6	3.5	3.02e+01	0	41	104	7340032	60	103338
2026-01-23 17:27:18.66	267.43	39.05	-50.7	-68.6	3.5	3.02e+01	0	41	104	7340032	60	103676
2026-01-23 17:27:19.66	267.00	38.87	-50.8	-68.6	3.5	3.02e+01	0	42	104	7340032	60	103566
2026-01-23 17:27:20.68	266.56	38.69	-50.7	-68.6	3.5	3.02e+01	0	41	104	7340032	60	103514
2026-01-23 17:27:21.68	266.14	38.51	-50.8	-68.6	3.5	3.02e+01	0	41	104	7340032	60	104133
2026-01-23 17:27:22.69	265.72	38.32	-50.8	-68.6	3.5	3.02e+01	0	41	104	7340032	60	103411
2026-01-23 17:27:23.70	265.30	38.14	-50.8	-68.6	3.5	3.02e+01	0	41	104	7340032	60	103678
2026-01-23 17:27:24.71	264.89	37.95	-50.8	-68.6	3.5	3.02e+01	0	41	104	7340032	60	103277
2026-01-23 17:27:25.72	264.48	37.77	-50.8	-68.6	3.5	3.02e+01	0	41	104	7340032	60	103221
2026-01-23 17:27:26.73	264.08	37.58	-50.8	-68.6	3.5	3.02e+01	0	41	104	7340032	60	103729
2026-01-23 17:27:27.74	263.68	37.39	-50.8	-68.6	3.5	3.02e+01	0	41	104	7340032	60	103847
2026-01-23 17:27:28.76	263.29	37.20	-50.8	-68.6	3.5	3.02e+01	0	41	104	7340032	60	103574
2026-01-23 17:27:29.76	262.90	37.02	-50.8	-68.6	3.5	3.02e+01	0	41	104	7340032	60	103703
2026-01-23 17:27:30.77	262.52	36.83	-50.8	-68.6	3.5	3.02e+01	0	41	104	7340032	60	103837
2026-01-23 17:27:31.78	262.14	36.64	-50.8	-68.6	3.5	3.02e+01	0	42	104	7340032	60	103548
2026-01-23 17:27:32.79	261.77	36.45	-50.8	-68.6	3.5	3.02e+01	0	41	104	7340032	60	104120
2026-01-23 17:27:33.80	261.40	36.26	-50.8	-68.6	3.5	3.02e+01	0	41	104	7340032	60	103743
2026-01-23 17:27:34.81	261.03	36.07	-50.8	-68.6	3.5	3.02e+01	0	42	104	7340032	60	103371
2026-01-23 17:27:35.81	260.67	35.89	-50.8	-68.6	3.5	3.02e+01	0	42	104	7340032	60	104058
2026-01-23 17:27:36.82	260.32	35.70	-50.8	-68.6	3.5	3.02e+01	0	42	104	7340032	60	103748
2026-01-23 17:27:37.83	259.96	35.51	-50.8	-68.7	3.5	3.02e+01	0	41	104	7340032	60	104330
2026-01-23 17:27:38.84	259.61	35.32	-50.8	-68.6	3.5	3.02e+01	0	41	104	7340032	60	103669
2026-01-23 17:27:39.85	259.27	35.13	-50.8	-68.6	3.5	3.02e+01	0	41	104	7340032	60	103904
2026-01-23 17:27:40.86	258.93	34.94	-50.8	-68.6	3.5	3.02e+01	0	41	104	7340032	60	104071
2026-01-23 17:27:41.87	258.59	34.75	-50.8	-68.6	3.5	3.02e+01	0	41	104	7340032	60	103773
2026-01-23 17:27:42.88	258.26	34.56	-50.8	-68.6	3.5	3.02e+01	0	41	104	7340032	60	103110
2026-01-23 17:27:43.89	257.93	34.37	-50.8	-68.6	3.5	3.02e+01	0	41	104	7340032	60	103594
2026-01-23 17:27:44.90	257.61	34.18	-50.8	-68.6	3.5	3.02e+01	0	41	104	7340032	60	103972
2026-01-23 17:27:45.91	257.29	33.99	-50.8	-68.6	3.5	3.02e+01	0	41	104	7340032	60	104097
2026-01-23 17:27:46.92	256.97	33.81	-50.8	-68.6	3.5	3.02e+01	0	41	104	7340032	60	104173
2026-01-23 17:27:47.93	256.66	33.62	-50.8	-68.6	3.5	3.02e+01	0	41	104	7340032	60	103733
2026-01-23 17:27:48.94	256.35	33.43	-50.8	-68.6	3.5	3.02e+01	0	41	104	7340032	60	103311
2026-01-23 17:27:49.95	256.04	33.24	-50.8	-68.6	3.5	3.02e+01	0	41	104	7340032	60	103841
2026-01-23 17:27:50.96	255.74	33.06	-50.8	-68.6	3.5	3.02e+01	0	41	104	7340032	60	104030
2026-01-23 17:27:51.97	255.44	32.87	-50.8	-68.6	3.5	3.02e+01	0	41	104	7340032	60	103755
2026-01-23 17:27:52.98	255.15	32.68	-50.8	-68.6	3.5	3.02e+01	0	41	104	7340032	60	103390
2026-01-23 17:27:53.99	254.85	32.50	-50.8	-68.6	3.5	3.02e+01	0	42	104	7340032	60	103758
2026-01-23 17:27:55.00	254.57	32.31	-50.8	-68.6	3.5	3.02e+01	0	41	104	7340032	60	103678
2026-01-23 17:27:56.01	254.28	32.13	-50.8	-68.6	3.5	3.02e+01	0	41	104	7340032	60	103692
2026-01-23 17:27:57.02	254.00	31.94	-50.8	-68.6	3.5	3.02e+01	0	41	104	7340032	60	104029
2026-01-23 17:27:58.03	253.72	31.76	-50.8	-68.6	3.5	3.02e+01	0	41	104	7340032	60	103466
2026-01-23 17:27:59.03	253.45	31.57	-50.8	-68.6	3.5	3.02e+01	0	41	104	7340032	60	104029
2026-01-23 17:28:00.04	253.18	31.39	-50.8	-68.6	3.5	3.02e+01	0	41	104	7340032	60	103418
2026-01-23 17:28:01.05	252.91	31.21	-50.8	-68.6	3.5	3.02e+01	0	41	104	7340032	60	103836
2026-01-23 17:28:02.06	252.64	31.03	-50.8	-68.6	3.5	3.02e+01	0	41	104	7340032	60	103941
2026-01-23 17:28:03.07	252.38	30.84	-50.8	-68.6	3.5	3.02e+01	0	41	104	7340032	60	103976
2026-01-23 17:28:04.08	252.12	30.66	-50.8	-68.6	3.5	3.02e+01	0	41	104	7340032	60	103874
2026-01-23 17:28:05.09	251.87	30.48	-50.8	-68.6	3.5	3.02e+01	0	41	104	7340032	60	103821
2026-01-23 17:28:06.10	251.61	30.30	-50.8	-68.6	3.5	3.02e+01	0	41	104	7340032	60	103638
2026-01-23 17:28:07.11	251.36	30.12	-50.8	-68.6	3.5	3.02e+01	0	41	104	7340032	60	103641
2026-01-23 17:28:08.12	251.12	29.94	-50.8	-68.7	3.5	3.02e+01	0	41	104	7340032	60	104280
2026-01-23 17:28:09.13	250.87	29.77	-50.8	-68.6	3.5	3.02e+01	0	41	104	7340032	60	103947
2026-01-23 17:28:10.14	250.63	29.59	-50.8	-68.6	3.5	3.02e+01	0	41	104	7340032	60	103810
2026-01-23 17:28:11.15	250.39	29.41	-50.8	-68.6	3.5	3.02e+01	0	41	104	7340032	60	104151
2026-01-23 17:28:12.16	250.15	29.24	-50.8	-68.6	3.5	3.02e+01	0	41	104	7340032	60	103496
2026-01-23 17:28:13.17	249.92	29.06	-50.8	-68.6	3.5	3.02e+01	0	41	104	7340032	60	103771
2026-01-23 17:28:14.18	249.69	28.88	-50.8	-68.6	3.5	3.02e+01	0	41	104	7340032	60	103477
2026-01-23 17:28:15.19	249.46	28.71	-50.8	-68.6	3.5	3.02e+01	0	41	104	7340032	60	103451
2026-01-23 17:28:16.20	249.24	28.54	-50.8	-68.6	3.5	3.02e+01	0	42	104	7340032	60	103379
2026-01-23 17:28:17.21	249.01	28.36	-50.8	-68.6	3.5	3.02e+01	0	42	104	7340032	60	103675
2026-01-23 17:28:18.22	248.79	28.19	-50.8	-68.6	3.5	3.02e+01	0	41	104	7340032	60	103655
2026-01-23 17:28:19.23	248.57	28.02	-50.8	-68.6	3.5	3.02e+01	0	41	104	7340032	60	103958
2026-01-23 17:28:20.23	248.36	27.85	-50.8	-68.6	3.5	3.02e+01	0	42	104	7340032	60	103728
2026-01-23 17:28:21.24	248.15	27.68	-50.7	-68.6	3.5	3.02e+01	0	41	104	7340032	60	103672
2026-01-23 17:28:22.25	247.93	27.51	-50.8	-68.7	3.5	3.02e+01	0	41	104	7340032	60	104183
2026-01-23 17:28:23.26	247.73	27.34	-50.8	-68.6	3.5	3.02e+01	0	41	104	7340032	60	103620
2026-01-23 17:28:24.27	247.52	27.17	-50.8	-68.6	3.5	3.02e+01	0	41	104	7340032	60	103637
2026-01-23 17:28:25.28	247.31	27.01	-50.8	-68.6	3.5	3.02e+01	0	42	104	7340032	60	103496
2026-01-23 17:28:26.29	247.11	26.84	-50.8	-68.6	3.5	3.02e+01	0	42	104	7340032	60	103028
2026-01-23 17:28:27.30	246.91	26.67	-50.8	-68.6	3.5	3.02e+01	0	41	104	7340032	60	103350
2026-01-23 17:28:28.31	246.72	26.51	-50.8	-68.6	3.5	3.02e+01	0	41	104	7340032	60	104033
2026-01-23 17:28:29.32	246.52	26.34	-50.8	-68.6	3.5	3.02e+01	0	41	104	7340032	60	103601
2026-01-23 17:28:30.32	246.33	26.18	-50.8	-68.6	3.5	3.02e+01	0	41	104	7340032	60	103911
2026-01-23 17:28:31.33	246.14	26.02	-50.8	-68.6	3.5	3.02e+01	0	41	104	7340032	60	103880
2026-01-23 17:28:32.34	245.95	25.86	-50.8	-68.6	3.5	3.02e+01	0	42	104	7340032	60	103806
2026-01-23 17:28:33.35	245.76	25.69	-50.8	-68.6	3.5	3.02e+01	0	42	104	7340032	60	103669
2026-01-23 17:28:34.36	245.58	25.53	-50.8	-68.6	3.5	3.02e+01	0	42	104	7340032	60	103643
2026-01-23 17:28:35.37	245.39	25.37	-50.8	-68.6	3.5	3.02e+01	0	42	104	7340032	60	103819
2026-01-23 17:28:36.38	245.21	25.21	-50.8	-68.6	3.5	3.02e+01	0	42	104	7340032	60	104067
2026-01-23 17:28:37.39	245.03	25.05	-50.8	-68.6	3.5	3.02e+01	0	42	104	7340032	60	103081
2026-01-23 17:28:38.40	244.85	24.90	-50.8	-68.6	3.5	3.02e+01	0	41	104	7340032	60	103866
2026-01-23 17:28:39.41	244.68	24.74	-50.8	-68.6	3.5	3.02e+01	0	42	104	7340032	60	103233
2026-01-23 17:28:40.42	244.50	24.58	-50.8	-68.6	3.5	3.02e+01	0	42	104	7340032	60	103591
2026-01-23 17:28:41.43	244.33	24.43	-50.8	-68.6	3.5	3.02e+01	0	42	104	7340032	60	103594
2026-01-23 17:28:42.44	244.16	24.27	-50.8	-68.6	3.5	3.02e+01	0	42	104	7340032	60	103576
2026-01-23 17:28:43.45	243.99	24.12	-50.8	-68.6	3.5	3.02e+01	0	41	104	7340032	60	103588
2026-01-23 17:28:44.46	243.83	23.96	-50.8	-68.6	3.5	3.02e+01	0	42	104	7340032	60	103452
2026-01-23 17:28:45.47	243.66	23.81	-50.8	-68.6	3.5	3.02e+01	0	42	104	7340032	60	103994
2026-01-23 17:28:46.47	243.50	23.66	-50.8	-68.6	3.5	3.02e+01	0	42	104	7340032	60	103782
2026-01-23 17:28:47.48	243.34	23.51	-50.8	-68.6	3.5	3.02e+01	0	42	104	7340032	60	104150
2026-01-23 17:28:48.49	243.18	23.36	-50.8	-68.6	3.5	3.02e+01	0	42	104	7340032	60	103392
2026-01-23 17:28:49.50	243.02	23.21	-50.8	-68.6	3.5	3.02e+01	0	41	104	7340032	60	103904
2026-01-23 17:28:50.51	242.86	23.06	-50.8	-68.6	3.5	3.02e+01	0	42	104	7340032	60	103834
2026-01-23 17:28:51.52	242.71	22.91	-50.8	-68.6	3.5	3.02e+01	0	42	104	7340032	60	103349
2026-01-23 17:28:52.53	242.56	22.76	-50.8	-68.6	3.5	3.02e+01	0	41	104	7340032	60	103637
2026-01-23 17:28:53.54	242.40	22.61	-50.8	-68.6	3.5	3.02e+01	0	42	104	7340032	60	103627
2026-01-23 17:28:54.55	242.25	22.47	-50.8	-68.6	3.5	3.02e+01	0	41	104	7340032	60	103991
2026-01-23 17:28:55.56	242.10	22.32	-50.8	-68.6	3.5	3.02e+01	0	42	104	7340032	60	103409
2026-01-23 17:28:56.57	241.96	22.18	-50.8	-68.6	3.5	3.02e+01	0	41	104	7340032	60	103862
2026-01-23 17:28:57.58	241.81	22.03	-50.8	-68.6	3.5	3.02e+01	0	41	104	7340032	60	103939
2026-01-23 17:28:58.58	241.67	21.89	-50.8	-68.6	3.5	3.02e+01	0	41	104	7340032	60	103173
2026-01-23 17:28:59.59	241.52	21.75	-50.8	-68.6	3.5	3.02e+01	0	41	104	7340032	60	103821
2026-01-23 17:29:00.60	241.38	21.60	-50.8	-68.6	3.5	3.02e+01	0	41	104	7340032	60	103466
2026-01-23 17:29:01.62	241.24	21.46	-50.8	-68.6	3.5	3.02e+01	0	41	104	7340032	60	103241
2026-01-23 17:29:02.63	241.10	21.32	-50.8	-68.6	3.5	3.02e+01	0	41	104	7340032	60	103843
2026-01-23 17:29:03.64	240.96	21.18	-50.8	-68.6	3.5	3.02e+01	0	41	104	7340032	60	103637
2026-01-23 17:29:04.64	240.83	21.04	-50.8	-68.6	3.5	3.02e+01	0	42	104	7340032	60	103623
2026-01-23 17:29:05.65	240.69	20.90	-50.8	-68.6	3.5	3.02e+01	0	41	104	7340032	60	103992
2026-01-23 17:29:06.66	240.56	20.76	-50.8	-68.6	3.5	3.02e+01	0	41	104	7340032	60	103768
2026-01-23 17:29:07.67	240.43	20.63	-50.8	-68.6	3.5	3.02e+01	0	41	104	7340032	60	103419
2026-01-23 17:29:08.68	240.29	20.49	-50.8	-68.6	3.5	3.02e+01	0	41	104	7340032	60	103628
2026-01-23 17:29:09.69	240.16	20.35	-50.8	-68.6	3.5	3.02e+01	0	41	104	7340032	60	104070
2026-01-23 17:29:10.70	240.04	20.22	-50.8	-68.6	3.5	3.02e+01	0	41	104	7340032	60	104139
2026-01-23 17:29:11.71	239.91	20.08	-50.8	-68.6	3.5	3.02e+01	0	41	104	7340032	60	103576
2026-01-23 17:29:12.72	239.78	19.95	-50.8	-68.6	3.5	3.02e+01	0	41	104	7340032	60	103775
2026-01-23 17:29:13.73	239.66	19.81	-50.8	-68.6	3.5	3.02e+01	0	41	104	7340032	60	103939
2026-01-23 17:29:14.74	239.53	19.68	-50.8	-68.6	3.5	3.02e+01	0	41	104	7340032	60	103777
2026-01-23 17:29:15.75	239.41	19.55	-50.8	-68.6	3.5	3.02e+01	0	41	104	7340032	60	103371
2026-01-23 17:29:16.75	239.29	19.42	-50.8	-68.6	3.5	3.02e+01	0	41	104	7340032	60	104010
2026-01-23 17:29:17.76	239.17	19.29	-50.8	-68.6	3.5	3.02e+01	0	41	104	7340032	60	103419
2026-01-23 17:29:18.77	239.05	19.16	-50.8	-68.6	3.5	3.02e+01	0	41	104	7340032	60	103316
2026-01-23 17:29:19.78	238.93	19.03	-50.8	-68.6	3.5	3.02e+01	0	41	104	7340032	60	103359
2026-01-23 17:29:20.79	238.81	18.90	-50.8	-68.6	3.5	3.02e+01	0	41	104	7340032	60	103657
2026-01-23 17:29:21.80	238.70	18.77	-50.8	-68.6	3.5	3.02e+01	0	41	104	7340032	60	103536
2026-01-23 17:29:22.81	238.58	18.64	-50.8	-68.6	3.5	3.02e+01	0	41	104	7340032	60	104111
2026-01-23 17:29:23.82	238.47	18.51	-50.8	-68.6	3.5	3.02e+01	0	41	104	7340032	60	104070
2026-01-23 17:29:24.83	238.35	18.39	-50.8	-68.6	3.5	3.02e+01	0	41	104	7340032	60	103537
2026-01-23 17:29:25.84	238.24	18.26	-50.7	-68.6	3.5	3.02e+01	0	41	104	7340032	60	103634
2026-01-23 17:29:26.85	238.13	18.14	-50.8	-68.6	3.5	3.02e+01	0	41	104	7340032	60	103943
2026-01-23 17:29:27.86	238.02	18.01	-50.7	-68.6	3.5	3.02e+01	0	41	104	7340032	60	103592
2026-01-23 17:29:28.87	237.91	17.89	-50.7	-68.6	3.5	3.02e+01	0	41	104	7340032	60	103220
2026-01-23 17:29:29.88	237.80	17.76	-50.8	-68.6	3.5	3.02e+01	0	41	104	7340032	60	103421
2026-01-23 17:29:30.89	237.70	17.64	-50.7	-68.6	3.5	3.02e+01	0	41	104	7340032	60	103488
2026-01-23 17:29:31.89	237.59	17.52	-50.7	-68.5	3.5	3.02e+01	0	41	104	7340032	60	102964
2026-01-23 17:29:32.90	237.49	17.39	-50.7	-68.6	3.5	3.02e+01	0	41	104	7340032	60	103650
2026-01-23 17:29:33.91	237.38	17.27	-50.7	-68.6	3.5	3.02e+01	0	41	104	7340032	60	104059
2026-01-23 17:29:34.92	237.28	17.15	-50.7	-68.6	3.5	3.02e+01	0	41	104	7340032	60	103450
2026-01-23 17:29:35.93	237.18	17.03	-50.8	-68.6	3.5	3.02e+01	0	41	104	7340032	60	103409
2026-01-23 17:29:36.94	237.07	16.91	-50.7	-68.5	3.5	3.02e+01	0	41	104	7340032	60	102902
2026-01-23 17:29:37.95	236.97	16.79	-50.7	-68.6	3.5	3.02e+01	0	41	104	7340032	60	103204
2026-01-23 17:29:38.96	236.87	16.67	-50.7	-68.5	3.5	3.02e+01	0	41	104	7340032	60	102905
2026-01-23 17:29:39.97	236.77	16.56	-50.7	-68.6	3.5	3.02e+01	0	41	104	7340032	60	103503
2026-01-23 17:29:40.98	236.68	16.44	-50.7	-68.6	3.5	3.02e+01	0	41	104	7340032	60	103287
2026-01-23 17:29:41.99	236.58	16.32	-50.7	-68.6	3.5	3.02e+01	0	41	104	7340032	60	103442
2026-01-23 17:29:43.00	236.48	16.20	-50.7	-68.6	3.5	3.02e+01	0	41	104	7340032	60	103406
2026-01-23 17:29:44.01	236.39	16.09	-50.7	-68.6	3.5	3.02e+01	0	41	104	7340032	60	103364
2026-01-23 17:29:45.02	236.29	15.97	-50.7	-68.6	3.5	3.02e+01	0	41	104	7340032	60	103576
2026-01-23 17:29:46.03	236.20	15.86	-50.7	-68.6	3.5	3.02e+01	0	41	104	7340032	60	103173
2026-01-23 17:29:47.04	236.10	15.74	-50.7	-68.6	3.5	3.02e+01	0	41	104	7340032	60	103338
2026-01-23 17:29:48.05	236.01	15.63	-50.7	-68.6	3.5	3.02e+01	0	41	104	7340032	60	103431
2026-01-23 17:29:49.06	235.92	15.52	-50.7	-68.6	3.5	3.02e+01	0	41	104	7340032	60	103399
2026-01-23 17:29:50.07	235.83	15.40	-50.7	-68.6	3.5	3.02e+01	0	41	104	7340032	60	103230
2026-01-23 17:29:51.08	235.74	15.29	-50.7	-68.6	3.5	3.02e+01	0	41	104	7340032	60	103469
2026-01-23 17:29:52.09	235.65	15.18	-50.7	-68.6	3.5	3.02e+01	0	41	104	7340032	60	103666
2026-01-23 17:29:53.10	235.56	15.07	-50.7	-68.6	3.5	3.02e+01	0	41	104	7340032	60	103342
2026-01-23 17:29:54.11	235.47	14.96	-50.7	-68.6	3.5	3.02e+01	0	41	104	7340032	60	103456
2026-01-23 17:29:55.12	235.38	14.84	-50.7	-68.6	3.5	3.02e+01	0	41	104	7340032	60	103473
2026-01-23 17:29:56.13	235.30	14.73	-50.7	-68.6	3.5	3.02e+01	0	41	104	7340032	60	103758
2026-01-23 17:29:57.14	235.21	14.63	-50.7	-68.6	3.5	3.02e+01	0	41	104	7340032	60	103202
2026-01-23 17:29:58.15	235.12	14.52	-50.7	-68.6	3.5	3.02e+01	0	41	104	7340032	60	103668
2026-01-23 17:29:59.16	235.04	14.41	-50.7	-68.6	3.5	3.02e+01	0	41	104	7340032	60	103631
2026-01-23 17:30:00.16	234.96	14.30	-50.7	-68.6	3.5	3.02e+01	0	41	104	7340032	60	103260
2026-01-23 17:30:01.17	234.87	14.19	-50.7	-68.6	3.5	3.02e+01	0	41	104	7340032	60	103477
2026-01-23 17:30:02.18	234.79	14.09	-50.7	-68.6	3.5	3.02e+01	0	41	104	7340032	60	103613
2026-01-23 17:30:03.19	234.71	13.98	-50.7	-68.6	3.5	3.02e+01	0	41	104	7340032	60	103583
2026-01-23 17:30:04.20	234.63	13.87	-50.7	-68.6	3.5	3.02e+01	0	41	104	7340032	60	103368
2026-01-23 17:30:05.21	234.55	13.77	-50.7	-68.6	3.5	3.02e+01	0	41	104	7340032	60	103266
2026-01-23 17:30:06.22	234.47	13.66	-50.7	-68.6	3.5	3.02e+01	0	41	104	7340032	60	103552
2026-01-23 17:30:07.23	234.39	13.56	-50.7	-68.6	3.5	3.02e+01	0	41	104	7340032	60	103911
2026-01-23 17:30:08.24	234.31	13.45	-50.7	-68.5	3.5	3.02e+01	0	41	104	7340032	60	102922
2026-01-23 17:30:09.25	234.23	13.35	-50.7	-68.6	3.5	3.02e+01	0	41	104	7340032	60	103557
2026-01-23 17:30:10.26	234.15	13.24	-50.7	-68.6	3.5	3.02e+01	0	41	104	7340032	60	103467
2026-01-23 17:30:11.27	234.08	13.14	-50.7	-68.6	3.5	3.02e+01	0	41	104	7340032	60	103098
2026-01-23 17:30:12.28	234.00	13.04	-50.7	-68.6	3.5	3.02e+01	0	41	104	7340032	60	103799
2026-01-23 17:30:13.28	233.92	12.94	-50.7	-68.6	3.5	3.02e+01	0	41	104	7340032	60	103416
2026-01-23 17:30:14.29	233.85	12.84	-50.7	-68.6	3.5	3.02e+01	0	41	104	7340032	60	103453
2026-01-23 17:30:15.30	233.77	12.73	-50.7	-68.6	3.5	3.02e+01	0	41	104	7340032	60	103531
2026-01-23 17:30:16.31	233.70	12.63	-50.7	-68.6	3.5	3.02e+01	0	41	104	7340032	60	103651
2026-01-23 17:30:17.32	233.63	12.53	-50.7	-68.6	3.5	3.02e+01	0	41	104	7340032	60	103716
2026-01-23 17:30:18.33	233.55	12.43	-50.7	-68.6	3.5	3.02e+01	0	41	104	7340032	60	103461
2026-01-23 17:30:19.34	233.48	12.33	-50.7	-68.6	3.5	3.02e+01	0	41	104	7340032	60	103490
2026-01-23 17:30:20.35	233.41	12.23	-50.7	-68.6	3.5	3.02e+01	0	41	104	7340032	60	103783
2026-01-23 17:30:21.36	233.34	12.13	-50.7	-68.6	3.5	3.02e+01	0	41	104	7340032	60	103330
2026-01-23 17:30:22.37	233.27	12.04	-50.7	-68.6	3.5	3.02e+01	0	41	104	7340032	60	104023
2026-01-23 17:30:23.38	233.20	11.94	-50.7	-68.6	3.5	3.02e+01	0	41	104	7340032	60	103407
2026-01-23 17:30:24.39	233.13	11.84	-50.7	-68.6	3.5	3.02e+01	0	41	104	7340032	60	103718
2026-01-23 17:30:25.39	233.06	11.74	-50.7	-68.6	3.5	3.02e+01	0	41	104	7340032	60	103757
2026-01-23 17:30:26.40	232.99	11.65	-50.7	-68.6	3.5	3.02e+01	0	41	104	7340032	60	103812
2026-01-23 17:30:27.41	232.92	11.55	-50.7	-68.6	3.5	3.02e+01	0	41	104	7340032	60	103453
2026-01-23 17:30:28.42	232.85	11.45	-50.7	-68.6	3.5	3.02e+01	0	41	104	7340032	60	103759
2026-01-23 17:30:29.43	232.79	11.36	-50.7	-68.6	3.5	3.02e+01	0	41	104	7340032	60	103621
2026-01-23 17:30:30.44	232.72	11.26	-50.7	-68.6	3.5	3.02e+01	0	41	104	7340032	60	103962
2026-01-23 17:30:31.45	232.65	11.17	-50.7	-68.6	3.5	3.02e+01	0	41	104	7340032	60	103321
2026-01-23 17:30:32.46	232.59	11.07	-50.8	-68.6	3.5	3.02e+01	0	41	104	7340032	60	103059
2026-01-23 17:30:33.47	232.52	10.98	-50.7	-68.6	3.5	3.02e+01	0	41	104	7340032	60	103686
2026-01-23 17:30:34.48	232.46	10.88	-50.7	-68.6	3.5	3.02e+01	0	41	104	7340032	60	103443
2026-01-23 17:30:35.49	232.39	10.79	-50.7	-68.6	3.5	3.02e+01	0	41	104	7340032	60	103529
2026-01-23 17:30:36.50	232.33	10.70	-50.8	-68.6	3.5	3.02e+01	0	41	104	7340032	60	103451
2026-01-23 17:30:37.51	232.27	10.60	-50.7	-68.5	3.5	3.02e+01	0	41	104	7340032	60	102981
2026-01-23 17:30:38.52	232.20	10.51	-50.7	-68.5	3.5	3.02e+01	0	41	104	7340032	60	102835
2026-01-23 17:30:39.53	232.14	10.42	-50.7	-68.6	3.5	3.02e+01	0	41	104	7340032	60	103480
2026-01-23 17:30:40.54	232.08	10.33	-50.7	-68.6	3.5	3.02e+01	0	41	104	7340032	60	103526
2026-01-23 17:30:41.55	232.02	10.24	-50.7	-68.6	3.5	3.02e+01	0	41	104	7340032	60	103417
2026-01-23 17:30:42.56	231.96	10.15	-50.7	-68.5	3.5	3.02e+01	0	41	104	7340032	60	102947
2026-01-23 17:30:43.57	231.90	10.05	-50.7	-68.6	3.5	3.02e+01	0	41	104	7340032	60	103414
2026-01-23 17:30:44.58	231.84	9.96	-50.7	-68.6	3.5	3.02e+01	0	41	104	7340032	60	103582
2026-01-23 17:30:45.59	231.78	9.87	-50.7	-68.6	3.5	3.02e+01	0	41	104	7340032	60	103257
2026-01-23 17:30:46.60	231.72	9.78	-50.7	-68.6	3.5	3.02e+01	0	41	104	7340032	60	103081
2026-01-23 17:30:47.61	231.66	9.69	-50.7	-68.6	3.5	3.02e+01	0	41	104	7340032	60	103720
2026-01-23 17:30:48.62	231.60	9.61	-50.8	-68.6	3.5	3.02e+01	0	41	104	7340032	60	104074
2026-01-23 17:30:49.63	231.54	9.52	-50.7	-68.6	3.5	3.02e+01	0	41	104	7340032	60	103516
2026-01-23 17:30:50.64	231.48	9.43	-50.7	-68.6	3.5	3.02e+01	0	41	104	7340032	60	104107
2026-01-23 17:30:51.64	231.43	9.34	-50.7	-68.6	3.5	3.02e+01	0	41	104	7340032	60	103650
2026-01-23 17:30:52.65	231.37	9.25	-50.7	-68.6	3.5	3.02e+01	0	41	104	7340032	60	103255
2026-01-23 17:30:53.66	231.31	9.17	-50.8	-68.6	3.5	3.02e+01	0	41	104	7340032	60	103651
2026-01-23 17:30:54.67	231.25	9.08	-50.7	-68.6	3.5	3.02e+01	0	41	104	7340032	60	103596
2026-01-23 17:30:55.68	231.20	8.99	-50.7	-68.5	3.5	3.02e+01	0	41	104	7340032	60	102951
2026-01-23 17:30:56.69	231.14	8.91	-50.8	-68.6	3.5	3.02e+01	0	41	104	7340032	60	103787
2026-01-23 17:30:57.70	231.09	8.82	-50.7	-68.6	3.5	3.02e+01	0	41	104	7340032	60	103452
2026-01-23 17:30:58.71	231.03	8.73	-50.7	-68.6	3.5	3.02e+01	0	41	104	7340032	60	103549
2026-01-23 17:30:59.72	230.98	8.65	-50.7	-68.6	3.5	3.02e+01	0	41	104	7340032	60	103169
2026-01-23 17:31:00.73	230.92	8.56	-50.7	-68.6	3.5	3.02e+01	0	41	104	7340032	60	103865
2026-01-23 17:31:01.74	230.87	8.48	-50.7	-68.6	3.5	3.02e+01	0	41	104	7340032	60	103419
2026-01-23 17:31:02.75	230.82	8.39	-50.7	-68.6	3.5	3.02e+01	0	41	104	7340032	60	103977
