passes_logs/2026/01/23/R4.6S_Anadyr/R4.6S_Anadyr__20260123_181245_FENGYUN_3D_rec.log

#Pass ID: 20260123_181245_FENGYUN 3D
#Satellite: FENGYUN 3D
#Configuration: FENGYUN 3D
#almurnet v.1.7.20251203
#Start time: 2026-01-23 18:12:47

#Version: 2.2.20231116
#Station: R4.6S_Anadyr
#Location: 177.4865 lon 64.73178 lat
#TLE: 1 43010U 17072A   26022.47411728  .00000617  00000+0  31375-3 0  9996
#TLE: 2 43010  98.9952 354.4060 0002481  95.7964 264.3494 14.19699924424319

#Time	Az	El	Level	Level2	SNR	BER	BlckErr	Temp	State	Recorded	gain1	gain2
2026-01-23 18:12:47.92	25.22	0.13	-49.2	-64.1	3.6	1.51e+00	0	39	0	0	60	57846
2026-01-23 18:12:48.93	25.19	0.19	-49.8	-61.9	3.6	8.44e-01	0	40	104	0	60	45102
2026-01-23 18:12:49.94	25.16	0.25	-50.0	-62.1	3.6	8.45e-01	0	40	104	0	60	46034
2026-01-23 18:12:50.95	25.12	0.31	-50.1	-62.3	3.6	8.46e-01	0	40	104	0	60	46936
2026-01-23 18:12:51.96	25.09	0.37	-50.2	-62.3	3.6	8.45e-01	0	40	104	0	60	47259
2026-01-23 18:12:52.97	25.06	0.43	-50.3	-62.4	3.6	8.45e-01	0	40	104	0	60	47775
2026-01-23 18:12:53.98	25.03	0.49	-50.4	-62.5	3.6	8.45e-01	0	40	104	0	60	48174
2026-01-23 18:12:54.99	24.99	0.54	-50.4	-62.5	3.6	8.46e-01	0	40	104	0	60	48432
2026-01-23 18:12:56.00	24.96	0.60	-50.5	-62.6	3.6	8.46e-01	0	40	104	0	60	48881
2026-01-23 18:12:57.01	24.93	0.66	-50.5	-62.7	3.6	8.44e-01	0	40	104	0	60	49170
2026-01-23 18:12:58.02	24.89	0.72	-50.6	-62.7	3.6	8.45e-01	0	40	104	0	60	49372
2026-01-23 18:12:59.03	24.86	0.78	-50.6	-62.8	3.6	8.45e-01	0	40	104	0	60	49652
2026-01-23 18:13:00.03	24.83	0.84	-50.6	-62.8	3.6	8.45e-01	0	40	104	0	60	49650
2026-01-23 18:13:01.04	24.79	0.90	-50.6	-62.8	3.6	8.45e-01	0	40	104	0	60	49806
2026-01-23 18:13:02.06	24.76	0.96	-50.6	-62.8	3.6	8.45e-01	0	40	104	0	60	49615
2026-01-23 18:13:03.07	24.72	1.02	-50.6	-62.8	3.6	8.45e-01	0	40	104	0	60	49615
2026-01-23 18:13:04.08	24.69	1.08	-50.6	-62.8	3.6	8.45e-01	0	40	104	0	60	49742
2026-01-23 18:13:05.09	24.65	1.14	-50.6	-62.8	3.6	8.45e-01	0	40	104	0	60	49868
2026-01-23 18:13:06.10	24.62	1.20	-50.7	-62.8	3.6	8.45e-01	0	40	104	0	60	50038
2026-01-23 18:13:07.11	24.58	1.26	-50.5	-62.9	3.6	8.45e-01	0	40	104	0	60	50480
2026-01-23 18:13:08.12	24.55	1.33	-50.7	-62.9	3.6	8.45e-01	0	40	104	0	60	50201
2026-01-23 18:13:09.13	24.51	1.39	-50.6	-62.9	3.6	8.46e-01	0	40	104	0	60	50282
2026-01-23 18:13:10.14	24.48	1.45	-50.7	-62.9	3.6	8.44e-01	0	40	104	0	60	50451
2026-01-23 18:13:11.15	24.44	1.51	-50.5	-62.8	3.6	8.45e-01	0	40	104	0	60	49931
2026-01-23 18:13:12.16	24.41	1.57	-50.6	-62.9	3.6	8.46e-01	0	40	104	0	60	50276
2026-01-23 18:13:13.17	24.37	1.63	-50.5	-62.9	3.6	8.44e-01	0	40	104	0	60	50300
2026-01-23 18:13:14.18	24.34	1.69	-50.4	-62.8	3.6	8.45e-01	0	40	104	0	60	50087
2026-01-23 18:13:15.19	24.30	1.75	-50.7	-62.9	3.6	8.45e-01	0	40	104	0	60	50219
2026-01-23 18:13:16.20	24.26	1.82	-50.6	-62.9	3.6	8.45e-01	0	40	104	0	60	50220
2026-01-23 18:13:17.21	24.23	1.88	-50.6	-62.8	3.6	8.45e-01	0	40	104	0	60	49954
2026-01-23 18:13:18.22	24.19	1.94	-50.5	-62.8	3.6	8.45e-01	0	40	104	0	60	49904
2026-01-23 18:13:19.23	24.15	2.00	-50.5	-62.8	3.6	8.45e-01	0	40	104	0	60	49855
2026-01-23 18:13:20.24	24.12	2.06	-50.5	-62.8	3.6	8.46e-01	0	40	104	0	60	50045
2026-01-23 18:13:21.25	24.08	2.13	-50.5	-62.8	3.6	8.45e-01	0	40	104	0	60	49724
2026-01-23 18:13:22.26	24.04	2.19	-50.5	-62.8	3.6	8.46e-01	0	40	104	0	60	50055
2026-01-23 18:13:23.27	24.00	2.25	-50.5	-62.8	3.6	8.45e-01	0	40	104	0	60	49913
2026-01-23 18:13:24.28	23.97	2.31	-50.5	-62.8	3.6	8.46e-01	0	40	104	0	60	49907
2026-01-23 18:13:25.29	23.93	2.38	-50.5	-62.8	3.6	8.44e-01	0	41	104	0	60	49841
2026-01-23 18:13:26.30	23.89	2.44	-50.5	-62.8	3.6	8.46e-01	0	40	104	0	60	50140
2026-01-23 18:13:27.31	23.85	2.50	-50.5	-62.8	3.6	8.45e-01	0	40	104	0	60	49951
2026-01-23 18:13:28.33	23.81	2.57	-50.5	-62.9	3.6	8.45e-01	0	40	104	0	60	50217
2026-01-23 18:13:29.34	23.77	2.63	-50.5	-62.8	3.6	8.46e-01	0	41	104	0	60	50044
2026-01-23 18:13:30.35	23.73	2.69	-50.5	-62.8	3.6	8.44e-01	0	41	104	0	60	49963
2026-01-23 18:13:31.36	23.70	2.76	-50.5	-62.8	3.6	8.46e-01	0	41	104	0	60	50059
2026-01-23 18:13:32.37	23.66	2.82	-50.5	-62.8	3.6	8.46e-01	0	41	104	0	60	50079
2026-01-23 18:13:33.38	23.62	2.88	-50.5	-62.8	3.6	8.46e-01	0	41	104	0	60	49953
2026-01-23 18:13:34.39	23.58	2.95	-50.5	-62.8	3.5	8.45e-01	0	41	104	0	60	50069
2026-01-23 18:13:35.40	23.54	3.01	-50.5	-62.8	3.6	8.46e-01	0	40	104	0	60	49803
2026-01-23 18:13:36.41	23.50	3.08	-50.5	-62.8	3.6	8.45e-01	0	40	104	0	60	49669
2026-01-23 18:13:37.42	23.46	3.14	-50.5	-62.8	3.6	8.46e-01	0	41	104	0	60	49825
2026-01-23 18:13:38.43	23.42	3.21	-50.5	-62.8	3.6	8.46e-01	0	41	104	0	60	49938
2026-01-23 18:13:39.44	23.38	3.27	-50.5	-62.8	3.6	8.45e-01	0	40	104	0	60	49881
2026-01-23 18:13:40.45	23.34	3.33	-50.5	-62.8	3.6	8.45e-01	0	41	104	0	60	49967
2026-01-23 18:13:41.46	23.29	3.40	-50.5	-62.8	3.6	8.45e-01	0	41	104	0	60	49801
2026-01-23 18:13:42.47	23.25	3.46	-50.5	-62.8	3.6	8.46e-01	0	40	104	0	60	49742
2026-01-23 18:13:43.48	23.21	3.53	-50.5	-62.8	3.6	8.45e-01	0	41	104	0	60	49973
2026-01-23 18:13:44.49	23.17	3.60	-50.5	-62.7	3.6	8.45e-01	0	41	104	0	60	49570
2026-01-23 18:13:45.50	23.13	3.66	-50.5	-62.8	3.6	8.46e-01	0	41	104	0	60	49933
2026-01-23 18:13:46.51	23.09	3.73	-50.5	-62.8	3.6	8.45e-01	0	41	104	0	60	49692
2026-01-23 18:13:47.51	23.05	3.79	-50.5	-62.8	3.6	8.45e-01	0	41	104	0	60	49898
2026-01-23 18:13:48.53	23.00	3.86	-50.5	-62.8	3.6	8.45e-01	0	41	104	0	60	49812
2026-01-23 18:13:49.54	22.96	3.92	-50.5	-62.8	3.6	8.45e-01	0	41	104	0	60	49838
2026-01-23 18:13:50.55	22.92	3.99	-50.5	-62.8	3.5	8.45e-01	0	41	104	0	60	50063
2026-01-23 18:13:51.56	22.87	4.06	-50.5	-62.8	3.6	8.44e-01	0	41	104	0	60	49949
2026-01-23 18:13:52.57	22.83	4.12	-50.5	-62.8	3.6	8.45e-01	0	41	104	0	60	50019
2026-01-23 18:13:53.58	22.79	4.19	-50.5	-62.8	3.6	8.45e-01	0	41	104	0	60	49739
2026-01-23 18:13:54.59	22.74	4.26	-50.5	-62.8	3.6	8.46e-01	0	41	104	0	60	49892
2026-01-23 18:13:55.60	22.70	4.32	-50.5	-62.8	3.6	8.46e-01	0	41	104	0	60	49843
2026-01-23 18:13:56.61	22.66	4.39	-50.5	-62.8	3.6	8.45e-01	0	41	104	0	60	49734
2026-01-23 18:13:57.62	22.61	4.46	-50.5	-62.8	3.6	8.45e-01	0	41	104	0	60	49690
2026-01-23 18:13:58.63	22.57	4.52	-50.5	-62.8	3.6	8.45e-01	0	41	104	0	60	49710
2026-01-23 18:13:59.64	22.52	4.59	-50.5	-62.8	3.6	8.45e-01	0	41	104	0	60	50136
2026-01-23 18:14:00.65	22.48	4.66	-50.5	-62.8	3.6	8.45e-01	0	41	104	0	60	49845
2026-01-23 18:14:01.66	22.43	4.73	-50.5	-62.8	3.6	8.44e-01	0	41	104	0	60	49725
2026-01-23 18:14:02.67	22.39	4.80	-50.5	-62.8	3.6	8.46e-01	0	41	104	0	60	49697
2026-01-23 18:14:03.68	22.34	4.86	-50.5	-62.8	3.6	8.45e-01	0	41	104	0	60	49756
2026-01-23 18:14:04.69	22.29	4.93	-50.5	-62.8	3.6	8.45e-01	0	41	104	0	60	49767
2026-01-23 18:14:05.70	22.25	5.00	-50.5	-62.8	3.6	8.44e-01	0	41	104	0	60	50041
2026-01-23 18:14:06.71	22.20	5.07	-50.5	-62.8	3.6	8.46e-01	0	41	104	0	60	49610
2026-01-23 18:14:07.72	22.15	5.14	-50.5	-62.8	3.6	8.46e-01	0	41	104	0	60	49628
2026-01-23 18:14:08.73	22.11	5.21	-50.5	-62.8	3.6	8.45e-01	0	41	104	0	60	49918
2026-01-23 18:14:09.74	22.06	5.28	-50.5	-62.7	3.6	8.45e-01	0	41	104	0	60	49559
2026-01-23 18:14:10.75	22.01	5.34	-50.5	-62.8	3.6	8.46e-01	0	41	104	0	60	49671
2026-01-23 18:14:11.76	21.97	5.41	-50.5	-62.8	3.6	8.45e-01	0	41	104	0	60	49760
2026-01-23 18:14:12.77	21.92	5.48	-50.5	-62.8	3.6	8.45e-01	0	41	104	0	60	49710
2026-01-23 18:14:13.78	21.87	5.55	-50.5	-62.8	3.6	8.45e-01	0	41	104	0	60	49869
2026-01-23 18:14:14.79	21.82	5.62	-50.5	-62.8	3.6	8.46e-01	0	41	104	0	60	49736
2026-01-23 18:14:15.80	21.77	5.69	-50.5	-62.8	3.6	8.45e-01	0	41	104	0	60	49826
2026-01-23 18:14:16.81	21.72	5.76	-50.5	-62.8	3.6	8.44e-01	0	41	104	0	60	49977
2026-01-23 18:14:17.82	21.67	5.83	-50.5	-62.8	3.6	8.45e-01	0	41	104	0	60	49937
2026-01-23 18:14:18.83	21.63	5.90	-50.5	-62.7	3.6	8.45e-01	0	41	104	0	60	49588
2026-01-23 18:14:19.83	21.58	5.97	-50.5	-62.8	3.6	8.45e-01	0	41	104	0	60	49763
2026-01-23 18:14:20.84	21.53	6.05	-50.5	-62.8	3.6	8.45e-01	0	41	104	0	60	49749
2026-01-23 18:14:21.85	21.48	6.12	-50.5	-62.8	3.6	8.46e-01	0	41	104	0	60	49771
2026-01-23 18:14:22.87	21.43	6.19	-50.5	-62.8	3.6	8.45e-01	0	41	104	0	60	49613
2026-01-23 18:14:23.88	21.37	6.26	-50.5	-62.8	3.6	8.45e-01	0	41	104	0	60	49754
2026-01-23 18:14:24.89	21.32	6.33	-50.5	-62.7	3.6	8.46e-01	0	41	104	0	60	49584
2026-01-23 18:14:25.90	21.27	6.40	-50.5	-62.8	3.6	8.45e-01	0	41	104	0	60	49683
2026-01-23 18:14:26.91	21.22	6.48	-50.5	-62.8	3.6	8.45e-01	0	41	104	0	60	49725
2026-01-23 18:14:27.92	21.17	6.55	-50.5	-62.8	3.6	8.45e-01	0	41	104	0	60	49617
2026-01-23 18:14:28.93	21.12	6.62	-50.5	-62.7	3.6	8.45e-01	0	41	104	0	60	49571
2026-01-23 18:14:29.94	21.06	6.69	-50.5	-62.8	3.6	8.45e-01	0	41	104	0	60	49806
2026-01-23 18:14:30.95	21.01	6.76	-50.5	-62.8	3.6	8.45e-01	0	41	104	0	60	49767
2026-01-23 18:14:31.96	20.96	6.84	-50.5	-62.8	3.6	8.45e-01	0	41	104	0	60	49835
2026-01-23 18:14:32.97	20.91	6.91	-50.5	-62.8	3.6	8.44e-01	0	41	104	0	60	49695
2026-01-23 18:14:33.98	20.85	6.98	-50.5	-62.8	3.6	8.45e-01	0	41	104	0	60	49789
2026-01-23 18:14:34.99	20.80	7.06	-50.5	-62.8	3.6	8.46e-01	0	41	104	0	60	49827
2026-01-23 18:14:36.00	20.74	7.13	-50.5	-62.8	3.6	8.46e-01	0	41	104	0	60	49905
2026-01-23 18:14:37.01	20.69	7.20	-50.5	-62.8	3.6	8.45e-01	0	41	104	0	60	49862
2026-01-23 18:14:38.02	20.64	7.28	-50.5	-62.8	3.6	8.45e-01	0	41	104	0	60	49700
2026-01-23 18:14:39.03	20.58	7.35	-50.5	-62.7	3.6	8.45e-01	0	41	104	0	60	49519
2026-01-23 18:14:40.04	20.52	7.43	-50.5	-62.7	3.6	8.45e-01	0	41	104	0	60	49558
2026-01-23 18:14:41.05	20.47	7.50	-50.5	-62.8	3.6	8.46e-01	0	41	104	0	60	49809
2026-01-23 18:14:42.06	20.41	7.58	-50.5	-62.8	3.6	8.46e-01	0	41	104	0	60	49982
2026-01-23 18:14:43.07	20.36	7.65	-50.5	-62.8	3.5	8.45e-01	0	41	104	0	60	49975
2026-01-23 18:14:44.08	20.30	7.73	-50.5	-62.8	3.6	8.46e-01	0	41	104	0	60	49645
2026-01-23 18:14:45.09	20.24	7.80	-50.5	-62.8	3.6	8.45e-01	0	41	104	0	60	49847
2026-01-23 18:14:46.10	20.19	7.88	-50.5	-62.8	3.6	8.44e-01	0	41	104	0	60	49677
2026-01-23 18:14:47.11	20.13	7.95	-50.5	-62.8	3.6	8.46e-01	0	41	104	0	60	49953
2026-01-23 18:14:48.12	20.07	8.03	-50.5	-62.8	3.6	8.44e-01	0	41	104	0	60	49944
2026-01-23 18:14:49.13	20.01	8.10	-50.5	-62.8	3.6	8.45e-01	0	41	104	0	60	49705
2026-01-23 18:14:50.14	19.95	8.18	-50.5	-62.8	3.6	8.45e-01	0	41	104	0	60	49640
2026-01-23 18:14:51.15	19.90	8.26	-50.5	-62.8	3.6	8.45e-01	0	41	104	0	60	49618
2026-01-23 18:14:52.17	19.84	8.33	-50.5	-62.8	3.6	8.45e-01	0	41	104	0	60	49979
2026-01-23 18:14:53.17	19.78	8.41	-50.5	-62.8	3.6	8.45e-01	0	41	104	0	60	49786
2026-01-23 18:14:54.19	19.72	8.49	-50.5	-62.8	3.6	8.45e-01	0	41	104	0	60	49810
2026-01-23 18:14:55.20	19.66	8.57	-50.5	-62.8	3.6	8.44e-01	0	41	104	0	60	49816
2026-01-23 18:14:56.21	19.60	8.64	-50.5	-62.7	3.6	8.45e-01	0	41	104	0	60	49585
2026-01-23 18:14:57.22	19.54	8.72	-50.5	-62.8	3.6	8.46e-01	0	41	104	0	60	49799
2026-01-23 18:14:58.23	19.47	8.80	-50.5	-62.7	3.6	8.45e-01	0	41	104	0	60	49474
2026-01-23 18:14:59.24	19.41	8.88	-50.5	-62.8	3.6	8.45e-01	0	41	104	0	60	49809
2026-01-23 18:15:00.25	19.35	8.95	-50.5	-62.8	3.6	8.45e-01	0	41	104	0	60	49976
2026-01-23 18:15:01.26	19.29	9.03	-50.5	-62.8	3.6	8.45e-01	0	41	104	0	60	50076
2026-01-23 18:15:02.27	19.23	9.11	-50.5	-62.8	3.6	8.45e-01	0	41	104	0	60	49835
2026-01-23 18:15:03.28	19.16	9.19	-50.5	-62.8	3.6	8.46e-01	0	41	104	0	60	49780
2026-01-23 18:15:04.29	19.10	9.27	-50.5	-62.8	3.5	8.46e-01	0	41	104	0	60	49783
2026-01-23 18:15:05.30	19.04	9.35	-50.5	-62.8	3.6	8.46e-01	0	41	104	0	60	49816
2026-01-23 18:15:06.31	18.97	9.43	-50.5	-62.8	3.6	8.45e-01	0	41	104	0	60	49705
2026-01-23 18:15:07.32	18.91	9.51	-50.5	-62.8	3.6	8.45e-01	0	41	104	0	60	49788
2026-01-23 18:15:08.33	18.84	9.59	-50.5	-62.7	3.6	8.45e-01	0	41	104	0	60	49528
2026-01-23 18:15:09.34	18.78	9.67	-50.5	-62.7	3.6	8.46e-01	0	41	104	0	60	49441
2026-01-23 18:15:10.35	18.71	9.75	-50.5	-62.7	3.6	8.45e-01	0	41	104	0	60	49589
2026-01-23 18:15:11.36	18.65	9.83	-50.5	-62.8	3.6	8.45e-01	0	41	104	0	60	49858
2026-01-23 18:15:12.37	18.58	9.91	-50.5	-62.8	3.6	8.44e-01	0	41	104	0	60	49805
2026-01-23 18:15:13.38	18.51	9.99	-50.5	-62.8	3.6	8.46e-01	0	41	104	0	60	49816
2026-01-23 18:15:14.39	18.45	10.07	-50.5	-62.8	3.6	8.44e-01	0	41	104	0	60	49688
2026-01-23 18:15:15.40	18.38	10.16	-50.5	-62.8	3.6	8.45e-01	0	41	104	0	60	49619
2026-01-23 18:15:16.42	18.31	10.24	-50.5	-62.7	3.6	8.45e-01	0	41	104	0	60	49534
2026-01-23 18:15:17.43	18.24	10.32	-50.5	-62.7	3.6	8.46e-01	0	41	104	0	60	49376
2026-01-23 18:15:18.44	18.17	10.40	-50.5	-62.8	3.6	8.46e-01	0	41	104	0	60	49627
2026-01-23 18:15:19.45	18.11	10.49	-50.5	-62.8	3.6	8.45e-01	0	41	104	0	60	49979
2026-01-23 18:15:20.46	18.04	10.57	-50.5	-62.8	3.6	8.46e-01	0	41	104	0	60	49685
2026-01-23 18:15:21.47	17.97	10.65	-50.5	-62.8	3.6	8.45e-01	0	41	104	0	60	49665
2026-01-23 18:15:22.48	17.90	10.73	-50.5	-62.8	3.6	8.44e-01	0	41	104	0	60	49648
2026-01-23 18:15:23.49	17.82	10.82	-50.5	-62.8	3.6	8.44e-01	0	41	104	0	60	49759
2026-01-23 18:15:24.50	17.75	10.90	-50.5	-62.8	3.6	8.46e-01	0	41	104	0	60	49758
2026-01-23 18:15:25.50	17.68	10.98	-50.5	-62.7	3.6	8.45e-01	0	41	104	0	60	49572
2026-01-23 18:15:26.51	17.61	11.07	-50.5	-62.7	3.6	8.45e-01	0	41	104	0	60	49592
2026-01-23 18:15:27.52	17.54	11.15	-50.5	-62.8	3.6	8.44e-01	0	41	104	0	60	49695
2026-01-23 18:15:28.53	17.47	11.24	-50.5	-62.7	3.6	8.46e-01	0	41	104	0	60	49605
2026-01-23 18:15:29.54	17.39	11.32	-50.5	-62.8	3.6	8.46e-01	0	41	104	0	60	49650
2026-01-23 18:15:30.56	17.32	11.41	-50.5	-62.8	3.6	8.47e-01	0	41	104	0	60	49660
2026-01-23 18:15:31.57	17.24	11.49	-50.5	-62.7	3.6	8.45e-01	0	41	104	0	60	49408
2026-01-23 18:15:32.58	17.17	11.58	-50.5	-62.8	3.6	8.45e-01	0	41	104	0	60	49681
2026-01-23 18:15:33.59	17.09	11.67	-50.5	-62.7	3.6	8.45e-01	0	41	104	0	60	49445
2026-01-23 18:15:34.60	17.02	11.75	-50.5	-62.7	3.6	8.44e-01	0	41	104	0	60	49555
2026-01-23 18:15:35.61	16.94	11.84	-50.5	-62.7	3.6	8.45e-01	0	41	104	0	60	49484
2026-01-23 18:15:36.62	16.86	11.93	-50.5	-62.8	3.6	8.45e-01	0	41	104	0	60	49711
2026-01-23 18:15:37.63	16.79	12.01	-50.5	-62.7	3.6	8.44e-01	0	41	104	0	60	49529
2026-01-23 18:15:38.64	16.71	12.10	-50.5	-62.7	3.6	8.46e-01	0	41	104	0	60	49528
2026-01-23 18:15:39.65	16.63	12.19	-50.5	-62.7	3.6	8.46e-01	0	41	104	0	60	49441
2026-01-23 18:15:40.66	16.55	12.27	-50.5	-62.8	3.6	8.46e-01	0	41	104	0	60	49769
2026-01-23 18:15:41.67	16.47	12.36	-50.5	-62.7	3.6	8.46e-01	0	41	104	0	60	49181
2026-01-23 18:15:42.67	16.40	12.45	-50.4	-62.7	3.6	8.46e-01	0	41	104	0	60	49568
2026-01-23 18:15:43.68	16.32	12.54	-50.4	-62.7	3.6	8.45e-01	0	41	104	0	60	49140
2026-01-23 18:15:44.69	16.24	12.63	-50.5	-62.7	3.6	8.45e-01	0	41	104	0	60	49451
2026-01-23 18:15:45.70	16.15	12.72	-50.4	-62.7	3.6	8.45e-01	0	41	104	0	60	49505
2026-01-23 18:15:46.71	16.07	12.81	-50.4	-62.7	3.6	8.46e-01	0	41	104	0	60	49569
2026-01-23 18:15:47.73	15.99	12.90	-50.4	-62.7	3.6	8.46e-01	0	41	104	0	60	49331
2026-01-23 18:15:48.74	15.91	12.99	-50.4	-62.7	3.6	8.45e-01	0	41	104	0	60	49556
2026-01-23 18:15:49.75	15.82	13.08	-50.4	-62.7	3.6	8.44e-01	0	41	104	0	60	49437
2026-01-23 18:15:50.76	15.74	13.17	-50.4	-62.7	3.6	8.45e-01	0	41	104	0	60	49419
2026-01-23 18:15:51.77	15.66	13.26	-50.4	-62.7	3.6	8.45e-01	0	41	104	0	60	49277
2026-01-23 18:15:52.78	15.57	13.35	-50.4	-62.8	3.6	8.46e-01	0	41	104	0	60	49690
2026-01-23 18:15:53.79	15.49	13.44	-50.4	-62.7	3.6	8.45e-01	0	41	104	0	60	49250
2026-01-23 18:15:54.80	15.40	13.53	-50.4	-62.7	3.6	8.45e-01	0	41	104	0	60	49594
2026-01-23 18:15:55.81	15.31	13.62	-50.4	-62.7	3.6	8.45e-01	0	41	104	0	60	49505
2026-01-23 18:15:56.82	15.23	13.71	-50.4	-62.7	3.6	8.45e-01	0	41	104	0	60	49584
2026-01-23 18:15:57.83	15.14	13.81	-50.4	-62.7	3.6	8.46e-01	0	42	104	0	60	49346
2026-01-23 18:15:58.84	15.05	13.90	-50.4	-62.6	3.6	8.45e-01	0	41	104	0	60	48967
2026-01-23 18:15:59.85	14.96	13.99	-50.4	-62.7	3.6	8.46e-01	0	42	104	0	60	49260
2026-01-23 18:16:00.86	14.87	14.09	-50.4	-62.7	3.6	8.47e-01	0	41	104	0	60	49385
2026-01-23 18:16:01.87	14.78	14.18	-50.4	-62.8	3.6	8.44e-01	0	41	104	0	60	49642
2026-01-23 18:16:02.88	14.69	14.27	-50.4	-62.7	3.6	8.46e-01	0	41	104	0	60	49138
2026-01-23 18:16:03.89	14.60	14.37	-50.4	-62.7	3.6	8.45e-01	0	41	104	0	60	49227
2026-01-23 18:16:04.90	14.51	14.46	-50.4	-62.6	3.6	8.45e-01	0	41	104	0	60	49030
2026-01-23 18:16:05.91	14.42	14.56	-50.4	-62.7	3.6	8.46e-01	0	41	104	0	60	49390
2026-01-23 18:16:06.92	14.33	14.65	-50.4	-62.7	3.6	8.45e-01	0	41	104	0	60	49522
2026-01-23 18:16:07.93	14.23	14.75	-50.4	-62.7	3.6	8.46e-01	0	42	104	0	60	49132
2026-01-23 18:16:08.94	14.14	14.84	-50.4	-62.7	3.6	8.46e-01	0	41	104	0	60	49290
2026-01-23 18:16:09.94	14.04	14.94	-50.4	-62.7	3.6	8.46e-01	0	41	104	0	60	49307
2026-01-23 18:16:10.95	13.95	15.03	-50.4	-62.7	3.6	8.46e-01	0	41	104	0	60	49148
2026-01-23 18:16:11.96	13.85	15.13	-50.4	-62.7	3.6	8.46e-01	0	41	104	0	60	49062
2026-01-23 18:16:12.97	13.76	15.22	-50.4	-62.7	3.6	8.45e-01	0	41	104	0	60	49124
2026-01-23 18:16:13.98	13.66	15.32	-50.4	-62.7	3.5	8.45e-01	0	41	104	0	60	49069
2026-01-23 18:16:14.99	13.56	15.42	-50.4	-62.6	3.6	8.45e-01	0	42	104	0	60	48974
2026-01-23 18:16:16.00	13.46	15.52	-50.4	-62.7	3.6	8.46e-01	0	41	104	0	60	49217
2026-01-23 18:16:17.01	13.36	15.61	-50.4	-62.6	3.6	8.45e-01	0	41	104	0	60	48998
2026-01-23 18:16:18.02	13.26	15.71	-50.4	-62.7	3.6	8.45e-01	0	41	104	0	60	49126
2026-01-23 18:16:19.03	13.16	15.81	-50.4	-62.7	3.6	8.45e-01	0	41	104	0	60	49207
2026-01-23 18:16:20.04	13.06	15.91	-50.4	-62.6	3.6	8.46e-01	0	42	104	0	60	48805
2026-01-23 18:16:21.05	12.96	16.01	-50.4	-62.6	3.6	8.45e-01	0	41	104	0	60	48885
2026-01-23 18:16:22.06	12.86	16.11	-50.4	-62.6	3.6	8.45e-01	0	41	104	0	60	48906
2026-01-23 18:16:23.07	12.75	16.21	-50.4	-62.7	3.6	8.46e-01	0	41	104	0	60	49067
2026-01-23 18:16:24.08	12.65	16.31	-50.4	-62.7	3.6	8.45e-01	0	41	104	0	60	49151
2026-01-23 18:16:25.09	12.54	16.41	-50.4	-62.6	3.6	8.45e-01	0	41	104	0	60	48982
2026-01-23 18:16:26.10	12.44	16.51	-50.4	-62.6	3.6	8.45e-01	0	42	104	0	60	49007
2026-01-23 18:16:27.11	12.33	16.61	-50.4	-62.6	3.6	8.45e-01	0	42	104	0	60	48973
2026-01-23 18:16:28.12	12.22	16.71	-50.4	-62.6	3.6	8.45e-01	0	41	104	0	60	48711
2026-01-23 18:16:29.13	12.12	16.81	-50.3	-62.6	3.6	8.46e-01	0	42	104	0	60	48820
2026-01-23 18:16:30.14	12.01	16.91	-50.4	-62.7	3.6	8.45e-01	0	41	104	0	60	49156
2026-01-23 18:16:31.15	11.90	17.02	-50.3	-62.7	3.6	8.45e-01	0	41	104	0	60	49234
2026-01-23 18:16:32.16	11.79	17.12	-50.3	-62.6	3.6	8.44e-01	0	42	104	0	60	48954
2026-01-23 18:16:33.17	11.68	17.22	-50.3	-62.7	3.6	8.45e-01	0	41	104	0	60	49042
2026-01-23 18:16:34.19	11.56	17.33	-50.3	-62.6	3.6	8.46e-01	0	41	104	0	60	48965
2026-01-23 18:16:35.20	11.45	17.43	-50.3	-62.6	3.6	8.45e-01	0	41	104	0	60	48911
2026-01-23 18:16:36.21	11.34	17.53	-50.3	-62.6	3.6	8.46e-01	0	42	104	0	60	48871
2026-01-23 18:16:37.22	11.22	17.64	-50.3	-62.6	3.6	8.45e-01	0	42	104	0	60	48871
2026-01-23 18:16:38.23	11.11	17.74	-50.3	-62.7	3.6	8.44e-01	0	41	104	0	60	49092
2026-01-23 18:16:39.24	10.99	17.85	-50.3	-62.6	3.6	8.46e-01	0	42	104	0	60	48935
2026-01-23 18:16:40.25	10.88	17.95	-50.3	-62.6	3.6	8.46e-01	0	42	104	0	60	48989
2026-01-23 18:16:41.26	10.76	18.06	-50.3	-62.6	3.6	8.45e-01	0	41	104	0	60	48942
2026-01-23 18:16:42.27	10.64	18.16	-50.3	-62.6	3.6	8.46e-01	0	42	104	0	60	48757
2026-01-23 18:16:43.28	10.52	18.27	-50.3	-62.6	3.6	8.45e-01	0	42	104	0	60	49028
2026-01-23 18:16:44.29	10.40	18.38	-50.3	-62.6	3.6	8.44e-01	0	41	104	0	60	48930
2026-01-23 18:16:45.30	10.28	18.48	-50.3	-62.6	3.6	8.45e-01	0	42	104	0	60	48861
2026-01-23 18:16:46.31	10.16	18.59	-50.3	-62.6	3.6	8.43e-01	0	42	104	0	60	48854
2026-01-23 18:16:47.32	10.04	18.70	-50.3	-62.6	3.5	8.44e-01	0	41	104	0	60	48982
2026-01-23 18:16:48.33	9.91	18.81	-50.3	-62.6	3.6	8.45e-01	0	42	104	0	60	48594
2026-01-23 18:16:49.34	9.79	18.91	-50.3	-62.6	3.6	8.46e-01	0	42	104	0	60	48608
2026-01-23 18:16:50.35	9.66	19.02	-50.3	-62.6	3.6	8.45e-01	0	41	104	0	60	48632
2026-01-23 18:16:51.36	9.54	19.13	-50.3	-62.7	3.6	8.45e-01	0	41	104	0	60	49063
2026-01-23 18:16:52.37	9.41	19.24	-50.3	-62.6	3.6	8.44e-01	0	41	104	0	60	48790
2026-01-23 18:16:53.38	9.28	19.35	-50.3	-62.6	3.6	8.46e-01	0	41	104	0	60	48847
2026-01-23 18:16:54.39	9.15	19.46	-50.3	-62.6	3.6	8.46e-01	0	41	104	0	60	48921
2026-01-23 18:16:55.40	9.02	19.57	-50.3	-62.6	3.6	8.45e-01	0	42	104	0	60	48558
2026-01-23 18:16:56.41	8.89	19.68	-50.3	-62.6	3.6	8.46e-01	0	42	104	0	60	48511
2026-01-23 18:16:57.42	8.76	19.79	-50.3	-62.6	3.5	8.44e-01	0	42	104	0	60	48820
2026-01-23 18:16:58.43	8.63	19.90	-50.3	-62.6	3.6	8.45e-01	0	42	104	0	60	48483
2026-01-23 18:16:59.44	8.49	20.01	-50.3	-62.6	3.6	8.46e-01	0	42	104	0	60	48660
2026-01-23 18:17:00.45	8.36	20.12	-50.3	-62.6	3.6	8.46e-01	0	42	104	0	60	48606
2026-01-23 18:17:01.46	8.22	20.24	-50.3	-62.5	3.6	8.44e-01	0	42	104	0	60	48256
2026-01-23 18:17:02.47	8.09	20.35	-50.3	-62.6	3.6	8.45e-01	0	42	104	0	60	48734
2026-01-23 18:17:03.48	7.95	20.46	-50.3	-62.5	3.6	8.44e-01	0	42	104	0	60	48364
2026-01-23 18:17:04.49	7.81	20.57	-50.3	-62.5	3.6	8.45e-01	0	42	104	0	60	48292
2026-01-23 18:17:05.50	7.67	20.69	-50.3	-62.5	3.6	8.45e-01	0	42	104	0	60	48474
2026-01-23 18:17:06.51	7.53	20.80	-50.3	-62.6	3.6	8.46e-01	0	41	104	0	60	48760
2026-01-23 18:17:07.52	7.38	20.92	-50.3	-62.5	3.6	8.46e-01	0	42	104	0	60	48469
2026-01-23 18:17:08.53	7.24	21.03	-50.3	-62.3	3.5	8.46e-01	0	42	104	0	60	47288
2026-01-23 18:17:09.54	7.10	21.14	-50.3	-62.6	3.6	8.45e-01	0	42	104	0	60	48763
2026-01-23 18:17:10.55	6.95	21.26	-50.3	-62.6	3.6	8.44e-01	0	42	104	0	60	48536
2026-01-23 18:17:11.56	6.80	21.37	-50.3	-62.6	3.6	8.46e-01	0	42	104	0	60	48499
2026-01-23 18:17:12.57	6.66	21.49	-50.3	-62.6	3.6	8.44e-01	0	42	104	0	60	48575
2026-01-23 18:17:13.58	6.51	21.61	-50.3	-62.6	3.6	8.45e-01	0	42	104	0	60	48535
2026-01-23 18:17:14.59	6.36	21.72	-50.3	-62.6	3.6	8.46e-01	0	42	104	0	60	48591
2026-01-23 18:17:15.60	6.21	21.84	-50.3	-62.5	3.5	8.46e-01	0	42	104	0	60	48138
2026-01-23 18:17:16.61	6.05	21.96	-50.3	-62.6	3.6	8.47e-01	0	42	104	0	60	48521
2026-01-23 18:17:17.62	5.90	22.07	-50.3	-62.6	3.6	8.44e-01	0	42	104	0	60	48705
2026-01-23 18:17:18.63	5.75	22.19	-50.3	-62.6	3.6	8.45e-01	0	42	104	0	60	48846
2026-01-23 18:17:19.64	5.59	22.31	-50.3	-62.6	3.6	8.47e-01	0	42	104	0	60	48523
2026-01-23 18:17:20.65	5.43	22.43	-50.3	-62.6	3.6	8.45e-01	0	42	104	0	60	48711
2026-01-23 18:17:21.66	5.27	22.54	-50.3	-62.6	3.6	8.44e-01	0	42	104	0	60	48627
2026-01-23 18:17:22.67	5.11	22.66	-50.3	-62.6	3.6	8.45e-01	0	42	104	0	60	48537
2026-01-23 18:17:23.68	4.95	22.78	-50.3	-62.6	3.6	8.45e-01	0	42	104	0	60	48786
2026-01-23 18:17:24.69	4.79	22.90	-50.3	-62.6	3.6	8.46e-01	0	42	104	0	60	48857
2026-01-23 18:17:25.70	4.63	23.02	-50.3	-62.6	3.6	8.44e-01	0	42	104	0	60	48815
2026-01-23 18:17:26.71	4.46	23.14	-50.3	-62.6	3.6	8.46e-01	0	42	104	0	60	48754
2026-01-23 18:17:27.72	4.30	23.26	-50.3	-62.6	3.6	8.44e-01	0	42	104	0	60	48601
2026-01-23 18:17:28.73	4.13	23.38	-50.3	-62.6	3.6	8.45e-01	0	42	104	0	60	48792
2026-01-23 18:17:29.74	3.96	23.50	-50.3	-62.6	3.6	8.44e-01	0	42	104	0	60	48769
2026-01-23 18:17:30.75	3.79	23.62	-50.3	-62.7	3.6	8.44e-01	0	42	104	0	60	49129
2026-01-23 18:17:31.76	3.62	23.75	-50.3	-62.7	3.6	8.45e-01	0	42	104	0	60	49144
2026-01-23 18:17:32.77	3.45	23.87	-50.3	-62.6	3.6	8.45e-01	0	42	104	0	60	48629
2026-01-23 18:17:33.78	3.27	23.99	-50.3	-62.6	3.6	8.45e-01	0	42	104	0	60	48489
2026-01-23 18:17:34.79	3.10	24.11	-50.3	-62.6	3.6	8.45e-01	0	42	104	0	60	48913
2026-01-23 18:17:35.80	2.92	24.24	-50.3	-62.6	3.6	8.46e-01	0	42	104	0	60	48729
2026-01-23 18:17:36.81	2.74	24.36	-50.3	-62.6	3.6	8.44e-01	0	42	104	0	60	48551
2026-01-23 18:17:37.82	2.56	24.48	-50.3	-62.6	3.6	8.46e-01	0	42	104	0	60	48594
2026-01-23 18:17:38.83	2.38	24.60	-50.3	-62.6	3.6	8.45e-01	0	41	104	0	60	48642
2026-01-23 18:17:39.84	2.20	24.73	-50.3	-62.6	3.6	8.45e-01	0	42	104	0	60	48948
2026-01-23 18:17:40.85	2.01	24.85	-50.3	-62.7	3.6	8.46e-01	0	42	104	0	60	49147
2026-01-23 18:17:41.85	1.83	24.98	-50.3	-62.6	3.6	8.46e-01	0	42	104	0	60	48560
2026-01-23 18:17:42.86	1.64	25.10	-50.3	-62.6	3.6	8.45e-01	0	42	104	0	60	48732
2026-01-23 18:17:43.88	1.45	25.23	-50.3	-62.6	3.6	8.45e-01	0	42	104	0	60	48859
2026-01-23 18:17:44.88	1.27	25.35	-50.3	-62.5	3.6	8.45e-01	0	42	104	0	60	48094
2026-01-23 18:17:45.89	1.07	25.47	-50.3	-62.6	3.6	8.45e-01	0	42	104	0	60	48718
2026-01-23 18:17:46.90	0.88	25.60	-50.3	-62.6	3.6	8.46e-01	0	41	104	0	60	48564
2026-01-23 18:17:47.91	0.69	25.73	-50.3	-62.5	3.6	8.46e-01	0	42	104	0	60	48198
2026-01-23 18:17:48.93	0.49	25.85	-50.3	-62.5	3.6	8.45e-01	0	42	104	0	60	48113
2026-01-23 18:17:49.93	0.29	25.98	-50.3	-62.6	3.6	8.46e-01	0	42	104	0	60	48484
2026-01-23 18:17:50.94	0.09	26.10	-50.3	-62.4	3.6	8.45e-01	0	42	104	0	60	47609
2026-01-23 18:17:51.95	359.89	26.23	-50.3	-62.6	3.6	8.45e-01	0	42	104	0	60	48797
2026-01-23 18:17:52.96	359.69	26.36	-50.3	-62.4	3.6	8.45e-01	0	42	104	0	60	47901
2026-01-23 18:17:53.98	359.48	26.49	-50.3	-62.3	3.5	8.46e-01	0	42	104	0	60	47105
2026-01-23 18:17:54.99	359.28	26.61	-50.3	-62.5	3.6	8.45e-01	0	42	104	0	60	48445
2026-01-23 18:17:56.00	359.07	26.74	-50.3	-62.4	3.6	8.45e-01	0	42	104	0	60	47753
2026-01-23 18:17:57.00	358.86	26.87	-50.3	-62.5	3.6	8.45e-01	0	42	104	0	60	48238
2026-01-23 18:17:58.02	358.65	26.99	-50.3	-62.5	3.6	8.44e-01	0	42	104	0	60	48447
2026-01-23 18:17:59.03	358.43	27.12	-50.3	-62.4	3.6	8.45e-01	0	42	104	0	60	47912
2026-01-23 18:18:00.04	358.22	27.25	-50.3	-62.6	3.6	8.46e-01	0	42	104	0	60	48622
2026-01-23 18:18:01.04	358.01	27.38	-50.3	-62.3	3.6	8.45e-01	0	42	104	0	60	47016
2026-01-23 18:18:02.06	357.79	27.51	-50.3	-62.1	3.6	8.44e-01	0	42	104	0	60	46288
2026-01-23 18:18:03.07	357.57	27.64	-50.3	-62.6	3.6	8.45e-01	0	41	104	0	60	48541
2026-01-23 18:18:04.07	357.35	27.76	-50.3	-62.5	3.6	8.46e-01	0	42	104	0	60	48272
2026-01-23 18:18:05.08	357.12	27.89	-50.3	-62.3	3.6	8.45e-01	0	42	104	0	60	47319
2026-01-23 18:18:06.09	356.90	28.02	-50.3	-62.5	3.6	8.45e-01	0	42	104	0	60	48061
2026-01-23 18:18:07.10	356.67	28.15	-50.3	-62.6	3.6	8.45e-01	0	42	104	0	60	48810
2026-01-23 18:18:08.11	356.44	28.28	-50.3	-62.4	3.6	8.46e-01	0	42	104	0	60	47807
2026-01-23 18:18:09.12	356.21	28.41	-50.3	-62.4	3.6	8.45e-01	0	42	104	0	60	47758
2026-01-23 18:18:10.13	355.98	28.54	-50.3	-62.6	3.6	8.46e-01	0	42	104	0	60	48557
2026-01-23 18:18:11.14	355.74	28.66	-50.3	-62.6	3.6	8.46e-01	0	42	104	0	60	48734
2026-01-23 18:18:12.15	355.51	28.79	-50.3	-62.5	3.6	8.45e-01	0	42	104	0	60	47963
2026-01-23 18:18:13.16	355.27	28.92	-50.3	-62.4	3.6	8.46e-01	0	42	104	0	60	47871
2026-01-23 18:18:14.17	355.03	29.05	-50.3	-62.4	3.6	8.45e-01	0	42	104	0	60	47603
2026-01-23 18:18:15.18	354.78	29.18	-50.3	-62.2	3.6	8.45e-01	0	42	104	0	60	46759
2026-01-23 18:18:16.19	354.54	29.31	-50.3	-62.2	3.6	8.45e-01	0	42	104	0	60	46550
2026-01-23 18:18:17.20	354.29	29.44	-50.3	-62.5	3.6	8.45e-01	0	42	104	0	60	47936
2026-01-23 18:18:18.21	354.04	29.57	-50.4	-62.6	3.6	8.44e-01	0	42	104	0	60	48805
2026-01-23 18:18:19.22	353.79	29.70	-50.4	-62.6	3.6	8.45e-01	0	42	104	0	60	48841
2026-01-23 18:18:20.22	353.54	29.83	-50.4	-62.7	3.6	8.45e-01	0	42	104	0	60	49114
2026-01-23 18:18:21.23	353.29	29.96	-50.4	-62.6	3.6	8.46e-01	0	42	104	0	60	48843
2026-01-23 18:18:22.25	353.03	30.09	-50.3	-62.4	3.6	8.45e-01	0	42	104	0	60	47572
2026-01-23 18:18:23.26	352.77	30.22	-50.3	-62.3	3.6	8.44e-01	0	42	104	0	60	47370
2026-01-23 18:18:24.27	352.51	30.34	-50.3	-62.3	3.6	8.44e-01	0	42	104	0	60	46914
2026-01-23 18:18:25.27	352.25	30.47	-50.3	-61.3	3.6	8.45e-01	0	42	104	0	60	42143
2026-01-23 18:18:26.28	351.98	30.60	-50.2	-60.7	3.6	8.45e-01	0	41	104	0	60	39193
2026-01-23 18:18:27.29	351.72	30.73	-50.2	-61.1	3.6	8.44e-01	0	42	104	0	60	40987
2026-01-23 18:18:28.30	351.45	30.86	-50.3	-62.0	3.6	8.42e-01	0	42	104	0	60	45509
2026-01-23 18:18:29.31	351.17	30.99	-50.4	-62.6	3.6	8.45e-01	0	42	104	0	60	48709
2026-01-23 18:18:30.32	350.90	31.11	-50.3	-61.8	3.6	8.45e-01	0	42	104	0	60	44553
2026-01-23 18:18:31.33	350.63	31.24	-50.2	-60.6	3.6	8.45e-01	0	42	104	0	60	38555
2026-01-23 18:18:32.34	350.35	31.37	-50.2	-60.6	3.6	8.44e-01	0	42	104	0	60	38752
2026-01-23 18:18:33.35	350.07	31.50	-50.3	-62.2	3.5	8.45e-01	0	41	104	0	60	46398
2026-01-23 18:18:34.36	349.78	31.62	-50.4	-62.5	3.6	8.45e-01	0	42	104	0	60	48062
2026-01-23 18:18:35.37	349.50	31.75	-50.4	-62.4	3.6	8.45e-01	0	42	104	0	60	47585
2026-01-23 18:18:36.38	349.21	31.88	-50.4	-62.6	3.6	8.46e-01	0	42	104	0	60	49019
2026-01-23 18:18:37.39	348.92	32.00	-50.4	-62.5	3.6	8.44e-01	0	42	104	0	60	48043
2026-01-23 18:18:38.40	348.63	32.13	-50.4	-62.5	3.6	8.44e-01	0	42	104	0	60	48392
2026-01-23 18:18:39.41	348.34	32.26	-50.4	-62.4	3.6	8.45e-01	0	42	104	0	60	47510
2026-01-23 18:18:40.42	348.04	32.38	-50.4	-62.3	3.6	8.46e-01	0	41	104	0	60	47190
2026-01-23 18:18:41.43	347.74	32.51	-50.4	-62.6	3.6	8.45e-01	0	42	104	0	60	48648
2026-01-23 18:18:42.44	347.44	32.63	-50.4	-62.6	3.6	8.45e-01	0	41	104	0	60	48874
2026-01-23 18:18:43.45	347.14	32.76	-50.4	-62.6	3.6	8.45e-01	0	41	104	0	60	48968
2026-01-23 18:18:44.46	346.83	32.88	-50.4	-62.7	3.6	8.46e-01	0	42	104	0	60	49059
2026-01-23 18:18:45.47	346.52	33.00	-50.4	-62.7	3.6	8.46e-01	0	41	104	0	60	49272
2026-01-23 18:18:46.48	346.21	33.13	-50.4	-62.7	3.6	8.45e-01	0	41	104	0	60	49231
2026-01-23 18:18:47.49	345.90	33.25	-50.4	-62.7	3.6	8.46e-01	0	41	104	0	60	49215
2026-01-23 18:18:48.51	345.58	33.37	-50.4	-62.7	3.6	8.46e-01	0	41	104	0	60	49140
2026-01-23 18:18:49.52	345.26	33.50	-50.4	-62.6	3.6	8.45e-01	0	41	104	0	60	48895
2026-01-23 18:18:50.53	344.94	33.62	-50.4	-62.7	3.6	8.46e-01	0	41	104	0	60	49079
2026-01-23 18:18:51.54	344.62	33.74	-50.4	-62.6	3.6	8.46e-01	0	41	104	0	60	48965
2026-01-23 18:18:52.54	344.30	33.86	-50.4	-62.5	3.6	8.45e-01	0	41	104	0	60	48336
2026-01-23 18:18:53.55	343.97	33.98	-50.4	-62.5	3.6	8.45e-01	0	41	104	0	60	48162
2026-01-23 18:18:54.56	343.64	34.09	-50.4	-62.6	3.6	8.44e-01	0	41	104	0	60	48737
2026-01-23 18:18:55.57	343.31	34.21	-50.4	-62.5	3.6	8.45e-01	0	41	104	0	60	48433
2026-01-23 18:18:56.58	342.97	34.33	-50.4	-62.5	3.6	8.45e-01	0	41	104	0	60	48286
2026-01-23 18:18:57.59	342.64	34.45	-50.4	-62.5	3.6	8.45e-01	0	41	104	0	60	48228
2026-01-23 18:18:58.60	342.30	34.56	-50.4	-62.6	3.6	8.44e-01	0	41	104	0	60	48609
2026-01-23 18:18:59.61	341.95	34.68	-50.4	-62.7	3.6	8.46e-01	0	41	104	0	60	49148
2026-01-23 18:19:00.62	341.61	34.79	-50.4	-62.8	3.6	8.46e-01	0	41	104	0	60	49806
2026-01-23 18:19:01.63	341.26	34.91	-50.4	-62.7	3.6	8.46e-01	0	41	104	0	60	49044
2026-01-23 18:19:02.64	340.91	35.02	-50.4	-62.6	3.6	8.45e-01	0	41	104	0	60	48853
2026-01-23 18:19:03.65	340.56	35.13	-50.4	-62.6	3.6	8.46e-01	0	41	104	0	60	49035
2026-01-23 18:19:04.66	340.21	35.24	-50.4	-62.7	3.6	8.46e-01	0	41	104	0	60	49087
2026-01-23 18:19:05.67	339.85	35.35	-50.4	-62.6	3.6	8.44e-01	0	41	104	0	60	48941
2026-01-23 18:19:06.68	339.49	35.46	-50.4	-62.7	3.6	8.45e-01	0	41	104	0	60	49399
2026-01-23 18:19:07.69	339.13	35.57	-50.4	-62.6	3.6	8.46e-01	0	41	104	0	60	48834
2026-01-23 18:19:08.70	338.77	35.68	-50.4	-62.6	3.5	8.45e-01	0	41	104	0	60	48650
2026-01-23 18:19:09.71	338.40	35.79	-50.4	-62.7	3.6	8.45e-01	0	41	104	0	60	49055
2026-01-23 18:19:10.72	338.03	35.89	-50.4	-62.7	3.6	8.45e-01	0	41	104	0	60	49282
2026-01-23 18:19:11.73	337.66	36.00	-50.4	-62.5	3.6	8.45e-01	0	41	104	0	60	48448
2026-01-23 18:19:12.74	337.29	36.10	-50.4	-62.6	3.6	8.46e-01	0	41	104	0	60	48889
2026-01-23 18:19:13.75	336.91	36.21	-50.4	-62.7	3.5	8.46e-01	0	41	104	0	60	49453
2026-01-23 18:19:14.76	336.53	36.31	-50.4	-62.7	3.6	8.45e-01	0	41	104	0	60	49292
2026-01-23 18:19:15.77	336.15	36.41	-50.4	-62.6	3.6	8.45e-01	0	41	104	0	60	48659
2026-01-23 18:19:16.79	335.76	36.51	-50.4	-62.7	3.6	8.45e-01	0	41	104	0	60	49044
2026-01-23 18:19:17.80	335.38	36.61	-50.4	-62.7	3.6	8.45e-01	0	41	104	0	60	49044
2026-01-23 18:19:18.81	334.99	36.70	-50.4	-62.6	3.6	8.45e-01	0	41	104	0	60	48903
2026-01-23 18:19:19.82	334.60	36.80	-50.4	-62.6	3.6	8.46e-01	0	41	104	0	60	48653
2026-01-23 18:19:20.83	334.21	36.89	-50.4	-62.6	3.6	8.46e-01	0	41	104	0	60	48869
2026-01-23 18:19:21.84	333.81	36.99	-50.4	-62.7	3.6	8.45e-01	0	41	104	0	60	49368
2026-01-23 18:19:22.85	333.42	37.08	-50.4	-62.7	3.6	8.45e-01	0	41	104	0	60	49366
2026-01-23 18:19:23.86	333.02	37.17	-50.4	-62.5	3.6	8.44e-01	0	41	104	0	60	48384
2026-01-23 18:19:24.87	332.61	37.26	-50.4	-62.6	3.6	8.45e-01	0	41	104	0	60	48647
2026-01-23 18:19:25.88	332.21	37.35	-50.4	-62.6	3.6	8.45e-01	0	41	104	0	60	48700
2026-01-23 18:19:26.89	331.80	37.43	-50.4	-62.7	3.6	8.45e-01	0	41	104	0	60	49326
2026-01-23 18:19:27.90	331.40	37.52	-50.4	-62.6	3.6	8.45e-01	0	41	104	0	60	48990
2026-01-23 18:19:28.91	330.99	37.60	-50.4	-62.6	3.6	8.46e-01	0	41	104	0	60	48780
2026-01-23 18:19:29.92	330.57	37.68	-50.4	-62.6	3.6	8.45e-01	0	41	104	0	60	48487
2026-01-23 18:19:30.92	330.16	37.76	-50.4	-62.6	3.6	8.44e-01	0	41	104	0	60	48812
2026-01-23 18:19:31.94	329.74	37.84	-50.4	-62.7	3.6	8.46e-01	0	41	104	0	60	49191
2026-01-23 18:19:32.95	329.32	37.92	-50.4	-62.6	3.6	8.45e-01	0	41	104	0	60	48869
2026-01-23 18:19:33.95	328.91	38.00	-50.4	-62.6	3.6	8.44e-01	0	41	104	0	60	48554
2026-01-23 18:19:34.96	328.49	38.07	-50.4	-62.5	3.6	8.45e-01	0	41	104	0	60	48478
2026-01-23 18:19:35.97	328.06	38.14	-50.4	-62.5	3.6	8.47e-01	0	41	104	0	60	48196
2026-01-23 18:19:36.98	327.63	38.21	-50.4	-62.5	3.6	8.46e-01	0	41	104	0	60	48321
2026-01-23 18:19:37.99	327.21	38.28	-50.4	-62.6	3.6	8.45e-01	0	41	104	0	60	48848
2026-01-23 18:19:39.00	326.78	38.35	-50.4	-62.7	3.6	8.46e-01	0	41	104	0	60	49168
2026-01-23 18:19:40.01	326.34	38.42	-50.4	-62.6	3.6	8.45e-01	0	41	104	0	60	48628
2026-01-23 18:19:41.02	325.91	38.48	-50.4	-62.6	3.6	8.44e-01	0	41	104	0	60	48888
2026-01-23 18:19:42.03	325.48	38.54	-50.4	-62.5	3.6	8.45e-01	0	41	104	0	60	48478
2026-01-23 18:19:43.04	325.04	38.60	-50.4	-62.6	3.6	8.45e-01	0	41	104	0	60	48801
2026-01-23 18:19:44.05	324.60	38.66	-50.4	-62.7	3.6	8.46e-01	0	41	104	0	60	49132
2026-01-23 18:19:45.06	324.16	38.72	-50.4	-62.6	3.6	8.45e-01	0	41	104	0	60	48944
2026-01-23 18:19:46.07	323.72	38.78	-50.4	-62.6	3.5	8.47e-01	0	41	104	0	60	49003
2026-01-23 18:19:47.08	323.28	38.83	-50.4	-62.6	3.6	8.45e-01	0	41	104	0	60	48934
2026-01-23 18:19:48.09	322.83	38.88	-50.4	-62.7	3.6	8.47e-01	0	41	104	0	60	49062
2026-01-23 18:19:49.10	322.39	38.93	-50.4	-62.6	3.6	8.45e-01	0	41	104	0	60	49022
2026-01-23 18:19:50.11	321.94	38.98	-50.4	-62.6	3.6	8.47e-01	0	41	104	0	60	49031
2026-01-23 18:19:51.12	321.49	39.02	-50.4	-62.7	3.6	8.44e-01	0	41	104	0	60	49245
2026-01-23 18:19:52.13	321.04	39.07	-50.4	-62.7	3.6	8.45e-01	0	41	104	0	60	49349
2026-01-23 18:19:53.14	320.59	39.11	-50.4	-62.8	3.6	8.45e-01	0	41	104	0	60	49661
2026-01-23 18:19:54.14	320.14	39.15	-50.4	-62.7	3.6	8.44e-01	0	41	104	0	60	49187
2026-01-23 18:19:55.15	319.69	39.19	-50.4	-62.7	3.6	8.44e-01	0	41	104	0	60	49155
2026-01-23 18:19:56.16	319.23	39.22	-50.4	-62.7	3.6	8.46e-01	0	41	104	0	60	49396
2026-01-23 18:19:57.17	318.78	39.26	-50.4	-62.7	3.6	8.44e-01	0	41	104	0	60	49559
2026-01-23 18:19:58.18	318.32	39.29	-50.4	-62.7	3.6	8.44e-01	0	41	104	0	60	49381
2026-01-23 18:19:59.19	317.86	39.32	-50.4	-62.7	3.6	8.46e-01	0	41	104	0	60	49334
2026-01-23 18:20:00.20	317.41	39.35	-50.4	-62.7	3.6	8.45e-01	0	41	104	0	60	49188
2026-01-23 18:20:01.21	316.95	39.37	-50.4	-62.7	3.6	8.46e-01	0	41	104	0	60	49090
2026-01-23 18:20:02.22	316.49	39.40	-50.4	-62.7	3.6	8.46e-01	0	41	104	0	60	49562
2026-01-23 18:20:03.24	316.02	39.42	-50.4	-62.7	3.6	8.45e-01	0	41	104	0	60	49171
2026-01-23 18:20:04.24	315.57	39.44	-50.4	-62.6	3.6	8.44e-01	0	41	104	0	60	48999
2026-01-23 18:20:05.25	315.10	39.45	-50.4	-62.7	3.6	8.46e-01	0	41	104	0	60	49433
2026-01-23 18:20:06.26	314.64	39.47	-50.4	-62.7	3.6	8.46e-01	0	41	104	0	60	49236
2026-01-23 18:20:07.27	314.18	39.48	-50.4	-62.7	3.6	8.46e-01	0	41	104	0	60	49119
2026-01-23 18:20:08.29	313.71	39.49	-50.4	-62.7	3.6	8.46e-01	0	41	104	0	60	49176
2026-01-23 18:20:09.29	313.26	39.50	-50.4	-62.7	3.6	8.44e-01	0	41	104	0	60	49153
2026-01-23 18:20:10.30	312.79	39.51	-50.4	-62.7	3.6	8.45e-01	0	41	104	0	60	49246
2026-01-23 18:20:11.31	312.33	39.51	-50.4	-62.7	3.6	8.45e-01	0	41	104	0	60	49466
2026-01-23 18:20:12.33	311.86	39.52	-50.4	-62.7	3.6	8.45e-01	0	41	104	0	60	49357
2026-01-23 18:20:13.34	311.40	39.52	-50.4	-62.7	3.6	8.45e-01	0	41	104	0	60	49395
2026-01-23 18:20:14.34	310.94	39.51	-50.4	-62.7	3.6	8.45e-01	0	41	104	0	60	49258
2026-01-23 18:20:15.36	310.47	39.51	-50.4	-62.7	3.6	8.45e-01	0	41	104	0	60	49182
2026-01-23 18:20:16.37	310.01	39.50	-50.4	-62.7	3.6	8.45e-01	0	41	104	0	60	49175
2026-01-23 18:20:17.38	309.55	39.50	-50.4	-62.7	3.6	8.46e-01	0	41	104	0	60	49318
2026-01-23 18:20:18.39	309.08	39.49	-50.4	-62.7	3.6	8.45e-01	0	41	104	0	60	49334
2026-01-23 18:20:19.40	308.62	39.47	-50.4	-62.7	3.6	8.45e-01	0	41	104	0	60	49322
2026-01-23 18:20:20.41	308.16	39.46	-50.4	-62.7	3.6	8.46e-01	0	41	104	0	60	49201
2026-01-23 18:20:21.42	307.70	39.44	-50.4	-62.7	3.6	8.45e-01	0	41	104	0	60	49093
2026-01-23 18:20:22.43	307.24	39.42	-50.4	-62.7	3.6	8.45e-01	0	41	104	0	60	49258
2026-01-23 18:20:23.44	306.77	39.40	-50.4	-62.7	3.6	8.45e-01	0	41	104	0	60	49290
2026-01-23 18:20:24.45	306.31	39.38	-50.4	-62.7	3.6	8.46e-01	0	41	104	0	60	49329
2026-01-23 18:20:25.46	305.86	39.35	-50.4	-62.7	3.6	8.47e-01	0	41	104	0	60	49437
2026-01-23 18:20:26.47	305.40	39.33	-50.4	-62.6	3.6	8.45e-01	0	41	104	0	60	48905
2026-01-23 18:20:27.48	304.94	39.30	-50.4	-62.7	3.6	8.46e-01	0	41	104	0	60	49402
2026-01-23 18:20:28.49	304.48	39.27	-50.4	-62.7	3.6	8.47e-01	0	41	104	0	60	49445
2026-01-23 18:20:29.50	304.03	39.23	-50.4	-62.7	3.6	8.45e-01	0	41	104	0	60	49255
2026-01-23 18:20:30.51	303.57	39.20	-50.4	-62.7	3.6	8.46e-01	0	41	104	0	60	49282
2026-01-23 18:20:31.52	303.12	39.16	-50.4	-62.7	3.6	8.46e-01	0	41	104	0	60	49288
2026-01-23 18:20:32.53	302.66	39.12	-50.4	-62.7	3.6	8.46e-01	0	41	104	0	60	49050
2026-01-23 18:20:33.54	302.21	39.08	-50.4	-62.7	3.6	8.45e-01	0	41	104	0	60	49180
2026-01-23 18:20:34.55	301.76	39.04	-50.4	-62.7	3.6	8.45e-01	0	41	104	0	60	49150
2026-01-23 18:20:35.56	301.31	38.99	-50.4	-62.7	3.6	8.46e-01	0	41	104	0	60	49051
2026-01-23 18:20:36.57	300.86	38.95	-50.4	-62.7	3.6	8.44e-01	0	41	104	0	60	49491
2026-01-23 18:20:37.58	300.42	38.90	-50.4	-62.7	3.6	8.45e-01	0	41	104	0	60	49472
2026-01-23 18:20:38.59	299.97	38.85	-50.4	-62.7	3.6	8.44e-01	0	41	104	0	60	49282
2026-01-23 18:20:39.59	299.53	38.79	-50.4	-62.7	3.6	8.45e-01	0	41	104	0	60	49046
2026-01-23 18:20:40.61	299.09	38.74	-50.4	-62.7	3.6	8.45e-01	0	41	104	0	60	49328
2026-01-23 18:20:41.62	298.64	38.68	-50.4	-62.7	3.6	8.46e-01	0	41	104	0	60	49239
2026-01-23 18:20:42.63	298.20	38.62	-50.4	-62.7	3.6	8.45e-01	0	41	104	0	60	49193
2026-01-23 18:20:43.64	297.77	38.56	-50.4	-62.7	3.6	8.45e-01	0	41	104	0	60	49351
2026-01-23 18:20:44.65	297.33	38.50	-50.4	-62.7	3.6	8.45e-01	0	41	104	0	60	49257
2026-01-23 18:20:45.66	296.90	38.44	-50.4	-62.7	3.6	8.45e-01	0	41	104	0	60	49155
2026-01-23 18:20:46.67	296.46	38.37	-50.4	-62.7	3.6	8.45e-01	0	41	104	0	60	49367
2026-01-23 18:20:47.67	296.04	38.30	-50.4	-62.7	3.6	8.45e-01	0	41	104	0	60	49066
2026-01-23 18:20:48.68	295.61	38.24	-50.4	-62.7	3.6	8.46e-01	0	41	104	0	60	49326
2026-01-23 18:20:49.69	295.18	38.16	-50.4	-62.7	3.6	8.45e-01	0	41	104	0	60	49097
2026-01-23 18:20:50.70	294.75	38.09	-50.4	-62.7	3.6	8.45e-01	0	41	104	0	60	49221
2026-01-23 18:20:51.71	294.33	38.02	-50.4	-62.7	3.6	8.46e-01	0	41	104	0	60	49277
2026-01-23 18:20:52.72	293.91	37.94	-50.4	-62.7	3.6	8.45e-01	0	41	104	0	60	49260
2026-01-23 18:20:53.73	293.49	37.87	-50.4	-62.7	3.6	8.46e-01	0	41	104	0	60	49135
2026-01-23 18:20:54.74	293.07	37.79	-50.4	-62.7	3.6	8.44e-01	0	41	104	0	60	49052
2026-01-23 18:20:55.75	292.66	37.71	-50.4	-62.7	3.6	8.45e-01	0	41	104	0	60	49288
2026-01-23 18:20:56.76	292.24	37.62	-50.4	-62.7	3.6	8.45e-01	0	41	104	0	60	49238
2026-01-23 18:20:57.77	291.83	37.54	-50.4	-62.7	3.6	8.45e-01	0	41	104	0	60	49162
2026-01-23 18:20:58.78	291.42	37.46	-50.4	-62.7	3.6	8.45e-01	0	41	104	0	60	49263
2026-01-23 18:20:59.79	291.01	37.37	-50.4	-62.7	3.6	8.45e-01	0	41	104	0	60	49245
2026-01-23 18:21:00.80	290.61	37.28	-50.4	-62.7	3.6	8.45e-01	0	41	104	0	60	49382
2026-01-23 18:21:01.81	290.21	37.19	-50.4	-62.7	3.6	8.46e-01	0	41	104	0	60	49179
2026-01-23 18:21:02.82	289.80	37.10	-50.4	-62.7	3.6	8.45e-01	0	41	104	0	60	49396
2026-01-23 18:21:03.83	289.41	37.01	-50.4	-62.7	3.6	8.45e-01	0	41	104	0	60	49193
2026-01-23 18:21:04.84	289.01	36.92	-50.4	-62.7	3.6	8.46e-01	0	41	104	0	60	49294
2026-01-23 18:21:05.85	288.62	36.82	-50.4	-62.7	3.6	8.45e-01	0	41	104	0	60	49171
2026-01-23 18:21:06.86	288.22	36.73	-50.4	-62.7	3.6	8.45e-01	0	41	104	0	60	49200
2026-01-23 18:21:07.87	287.84	36.63	-50.4	-62.7	3.6	8.45e-01	0	41	104	0	60	49273
2026-01-23 18:21:08.88	287.45	36.53	-50.4	-62.7	3.6	8.46e-01	0	41	104	0	60	49407
2026-01-23 18:21:09.89	287.06	36.43	-50.4	-62.7	3.6	8.46e-01	0	41	104	0	60	49108
2026-01-23 18:21:10.90	286.68	36.33	-50.4	-62.6	3.6	8.45e-01	0	41	104	0	60	48969
2026-01-23 18:21:11.91	286.30	36.23	-50.4	-62.7	3.6	8.45e-01	0	41	104	0	60	49124
2026-01-23 18:21:12.92	285.92	36.13	-50.4	-62.8	3.6	8.45e-01	0	41	104	0	60	49693
2026-01-23 18:21:13.93	285.55	36.03	-50.4	-62.7	3.6	8.45e-01	0	41	104	0	60	49342
2026-01-23 18:21:14.94	285.18	35.92	-50.4	-62.7	3.6	8.46e-01	0	41	104	0	60	49338
2026-01-23 18:21:15.95	284.81	35.82	-50.4	-62.7	3.6	8.46e-01	0	41	104	0	60	49065
2026-01-23 18:21:16.96	284.44	35.71	-50.4	-62.7	3.6	8.45e-01	0	41	104	0	60	49259
2026-01-23 18:21:17.97	284.07	35.60	-50.4	-62.7	3.6	8.46e-01	0	41	104	0	60	49260
2026-01-23 18:21:18.98	283.71	35.49	-50.4	-62.7	3.6	8.45e-01	0	41	104	0	60	49086
2026-01-23 18:21:19.99	283.35	35.38	-50.4	-62.7	3.6	8.45e-01	0	41	104	0	60	49227
2026-01-23 18:21:21.00	282.99	35.27	-50.4	-62.7	3.6	8.45e-01	0	41	104	0	60	49245
2026-01-23 18:21:22.01	282.63	35.16	-50.4	-62.6	3.6	8.44e-01	0	41	104	0	60	49010
2026-01-23 18:21:23.02	282.28	35.05	-50.4	-62.7	3.6	8.47e-01	0	41	104	0	60	49121
2026-01-23 18:21:24.03	281.93	34.94	-50.4	-62.6	3.6	8.45e-01	0	41	104	0	60	48939
2026-01-23 18:21:25.04	281.58	34.82	-50.4	-62.7	3.6	8.46e-01	0	41	104	0	60	49071
2026-01-23 18:21:26.05	281.24	34.71	-50.4	-62.7	3.6	8.46e-01	0	41	104	0	60	49391
2026-01-23 18:21:27.06	280.89	34.59	-50.4	-62.7	3.6	8.46e-01	0	41	104	0	60	49162
2026-01-23 18:21:28.07	280.55	34.47	-50.4	-62.6	3.6	8.45e-01	0	41	104	0	60	48997
2026-01-23 18:21:29.08	280.21	34.36	-50.4	-62.6	3.6	8.45e-01	0	41	104	0	60	48849
2026-01-23 18:21:30.09	279.88	34.24	-50.4	-62.7	3.6	8.47e-01	0	41	104	0	60	49112
2026-01-23 18:21:31.10	279.54	34.12	-50.4	-62.7	3.6	8.45e-01	0	41	104	0	60	49268
2026-01-23 18:21:32.11	279.21	34.00	-50.4	-62.7	3.6	8.45e-01	0	41	104	0	60	49270
2026-01-23 18:21:33.12	278.88	33.88	-50.4	-62.7	3.6	8.45e-01	0	41	104	0	60	49312
2026-01-23 18:21:34.13	278.55	33.76	-50.4	-62.7	3.6	8.45e-01	0	41	104	0	60	49349
2026-01-23 18:21:35.14	278.23	33.64	-50.4	-62.7	3.6	8.46e-01	0	41	104	0	60	49301
2026-01-23 18:21:36.15	277.91	33.52	-50.4	-62.6	3.6	8.46e-01	0	41	104	0	60	49039
2026-01-23 18:21:37.16	277.59	33.40	-50.4	-62.7	3.6	8.46e-01	0	41	104	0	60	49176
2026-01-23 18:21:38.17	277.27	33.28	-50.4	-62.7	3.6	8.46e-01	0	41	104	0	60	49162
2026-01-23 18:21:39.18	276.96	33.15	-50.4	-62.7	3.6	8.45e-01	0	41	104	0	60	49320
2026-01-23 18:21:40.19	276.65	33.03	-50.4	-62.7	3.6	8.45e-01	0	41	104	0	60	49068
2026-01-23 18:21:41.20	276.34	32.91	-50.4	-62.7	3.6	8.45e-01	0	41	104	0	60	49165
2026-01-23 18:21:42.21	276.03	32.78	-50.4	-62.7	3.6	8.45e-01	0	41	104	0	60	49179
2026-01-23 18:21:43.22	275.72	32.66	-50.4	-62.7	3.6	8.45e-01	0	41	104	0	60	49150
2026-01-23 18:21:44.23	275.42	32.53	-50.4	-62.7	3.6	8.46e-01	0	41	104	0	60	49215
2026-01-23 18:21:45.24	275.12	32.41	-50.4	-62.7	3.6	8.46e-01	0	41	104	0	60	49046
2026-01-23 18:21:46.25	274.82	32.28	-50.4	-62.6	3.6	8.46e-01	0	41	104	0	60	48962
2026-01-23 18:21:47.26	274.53	32.16	-50.4	-62.7	3.6	8.45e-01	0	41	104	0	60	49325
2026-01-23 18:21:48.27	274.23	32.03	-50.4	-62.7	3.6	8.45e-01	0	41	104	0	60	49074
2026-01-23 18:21:49.28	273.94	31.90	-50.4	-62.7	3.6	8.45e-01	0	41	104	0	60	49164
2026-01-23 18:21:50.29	273.65	31.77	-50.4	-62.7	3.6	8.45e-01	0	41	104	0	60	49226
2026-01-23 18:21:51.30	273.37	31.65	-50.4	-62.7	3.6	8.45e-01	0	41	104	0	60	49212
2026-01-23 18:21:52.31	273.08	31.52	-50.4	-62.7	3.6	8.45e-01	0	41	104	0	60	49057
2026-01-23 18:21:53.32	272.80	31.39	-50.4	-62.7	3.6	8.46e-01	0	41	104	0	60	49246
2026-01-23 18:21:54.33	272.52	31.26	-50.4	-62.7	3.6	8.46e-01	0	41	104	0	60	49114
2026-01-23 18:21:55.34	272.24	31.14	-50.4	-62.7	3.6	8.46e-01	0	41	104	0	60	49314
2026-01-23 18:21:56.35	271.97	31.01	-50.4	-62.7	3.6	8.45e-01	0	41	104	0	60	49171
2026-01-23 18:21:57.36	271.70	30.88	-50.4	-62.7	3.6	8.44e-01	0	41	104	0	60	49307
2026-01-23 18:21:58.37	271.43	30.75	-50.4	-62.7	3.6	8.45e-01	0	41	104	0	60	49147
2026-01-23 18:21:59.37	271.16	30.62	-50.4	-62.7	3.6	8.45e-01	0	41	104	0	60	49209
2026-01-23 18:22:00.38	270.89	30.49	-50.4	-62.7	3.6	8.45e-01	0	41	104	0	60	49334
2026-01-23 18:22:01.39	270.63	30.36	-50.4	-62.7	3.6	8.45e-01	0	41	104	0	60	49286
2026-01-23 18:22:02.40	270.37	30.23	-50.4	-62.7	3.6	8.45e-01	0	41	104	0	60	49223
2026-01-23 18:22:03.41	270.11	30.10	-50.4	-62.7	3.6	8.45e-01	0	41	104	0	60	49095
2026-01-23 18:22:04.42	269.85	29.98	-50.4	-62.6	3.6	8.45e-01	0	41	104	0	60	49019
2026-01-23 18:22:05.43	269.59	29.85	-50.4	-62.6	3.6	8.45e-01	0	41	104	0	60	49018
2026-01-23 18:22:06.45	269.33	29.72	-50.4	-62.7	3.6	8.44e-01	0	41	104	0	60	49114
2026-01-23 18:22:07.46	269.08	29.59	-50.4	-62.7	3.6	8.45e-01	0	41	104	0	60	49055
2026-01-23 18:22:08.46	268.83	29.46	-50.4	-62.7	3.6	8.45e-01	0	41	104	0	60	49235
2026-01-23 18:22:09.47	268.59	29.33	-50.4	-62.7	3.6	8.45e-01	0	41	104	0	60	49202
2026-01-23 18:22:10.48	268.34	29.20	-50.4	-62.7	3.6	8.46e-01	0	41	104	0	60	49262
2026-01-23 18:22:11.49	268.10	29.07	-50.4	-62.7	3.6	8.46e-01	0	41	104	0	60	49045
2026-01-23 18:22:12.50	267.86	28.94	-50.4	-62.6	3.6	8.44e-01	0	41	104	0	60	48978
2026-01-23 18:22:13.51	267.62	28.81	-50.4	-62.7	3.6	8.46e-01	0	41	104	0	60	49148
2026-01-23 18:22:14.52	267.38	28.68	-50.4	-62.7	3.6	8.44e-01	0	41	104	0	60	49058
2026-01-23 18:22:15.53	267.14	28.55	-50.4	-62.7	3.6	8.45e-01	0	41	104	0	60	49164
2026-01-23 18:22:16.54	266.91	28.42	-50.4	-62.7	3.6	8.46e-01	0	41	104	0	60	49162
2026-01-23 18:22:17.55	266.67	28.29	-50.4	-62.7	3.6	8.45e-01	0	41	104	0	60	49238
2026-01-23 18:22:18.56	266.44	28.16	-50.4	-62.7	3.6	8.45e-01	0	41	104	0	60	49367
2026-01-23 18:22:19.57	266.22	28.03	-50.4	-62.6	3.6	8.45e-01	0	41	104	0	60	48822
2026-01-23 18:22:20.58	265.99	27.90	-50.4	-62.7	3.6	8.43e-01	0	41	104	0	60	49350
2026-01-23 18:22:21.59	265.76	27.77	-50.4	-62.7	3.6	8.45e-01	0	41	104	0	60	49123
2026-01-23 18:22:22.60	265.54	27.64	-50.4	-62.7	3.6	8.45e-01	0	41	104	0	60	49191
2026-01-23 18:22:23.61	265.32	27.52	-50.4	-62.6	3.6	8.46e-01	0	41	104	0	60	48976
2026-01-23 18:22:24.62	265.10	27.39	-50.4	-62.6	3.6	8.45e-01	0	41	104	0	60	49003
2026-01-23 18:22:25.63	264.88	27.26	-50.4	-62.7	3.6	8.46e-01	0	41	104	0	60	49137
2026-01-23 18:22:26.64	264.67	27.13	-50.4	-62.7	3.6	8.45e-01	0	41	104	0	60	49294
2026-01-23 18:22:27.65	264.45	27.00	-50.4	-62.7	3.6	8.46e-01	0	41	104	0	60	49233
2026-01-23 18:22:28.66	264.24	26.87	-50.4	-62.7	3.6	8.45e-01	0	41	104	0	60	49255
2026-01-23 18:22:29.67	264.03	26.75	-50.4	-62.7	3.6	8.46e-01	0	41	104	0	60	49196
2026-01-23 18:22:30.68	263.82	26.62	-50.4	-62.6	3.6	8.45e-01	0	41	104	0	60	48971
2026-01-23 18:22:31.69	263.61	26.49	-50.4	-62.7	3.6	8.44e-01	0	41	104	0	60	49196
2026-01-23 18:22:32.70	263.41	26.36	-50.4	-62.7	3.6	8.45e-01	0	41	104	0	60	49189
2026-01-23 18:22:33.70	263.21	26.24	-50.4	-62.6	3.6	8.44e-01	0	41	104	0	60	48860
2026-01-23 18:22:34.71	263.00	26.11	-50.4	-62.7	3.6	8.44e-01	0	41	104	0	60	49364
2026-01-23 18:22:35.72	262.80	25.98	-50.4	-62.7	3.6	8.45e-01	0	41	104	0	60	49208
2026-01-23 18:22:36.73	262.60	25.86	-50.4	-62.6	3.6	8.46e-01	0	41	104	0	60	48796
2026-01-23 18:22:37.74	262.41	25.73	-50.4	-62.7	3.6	8.45e-01	0	41	104	0	60	49159
2026-01-23 18:22:38.75	262.21	25.60	-50.4	-62.6	3.6	8.46e-01	0	41	104	0	60	48936
2026-01-23 18:22:39.76	262.02	25.48	-50.4	-62.6	3.6	8.46e-01	0	41	104	0	60	48995
2026-01-23 18:22:40.77	261.82	25.35	-50.4	-62.7	3.6	8.45e-01	0	41	104	0	60	49255
2026-01-23 18:22:41.78	261.63	25.23	-50.4	-62.7	3.6	8.45e-01	0	41	104	0	60	49255
2026-01-23 18:22:42.79	261.44	25.10	-50.4	-62.7	3.6	8.46e-01	0	41	104	0	60	49116
2026-01-23 18:22:43.80	261.25	24.98	-50.4	-62.6	3.6	8.46e-01	0	41	104	0	60	48991
2026-01-23 18:22:44.81	261.07	24.85	-50.4	-62.7	3.6	8.44e-01	0	41	104	0	60	49244
2026-01-23 18:22:45.82	260.88	24.73	-50.4	-62.7	3.6	8.46e-01	0	41	104	0	60	49044
2026-01-23 18:22:46.83	260.70	24.60	-50.4	-62.6	3.6	8.44e-01	0	41	104	0	60	49036
2026-01-23 18:22:47.84	260.52	24.48	-50.4	-62.6	3.6	8.45e-01	0	41	104	0	60	48930
2026-01-23 18:22:48.85	260.33	24.36	-50.4	-62.7	3.6	8.45e-01	0	41	104	0	60	49406
2026-01-23 18:22:49.86	260.16	24.23	-50.4	-62.7	3.6	8.45e-01	0	41	104	0	60	49198
2026-01-23 18:22:50.87	259.98	24.11	-50.4	-62.6	3.6	8.46e-01	0	41	104	0	60	48945
2026-01-23 18:22:51.88	259.80	23.99	-50.4	-62.6	3.6	8.45e-01	0	41	104	0	60	48991
2026-01-23 18:22:52.89	259.63	23.86	-50.3	-62.6	3.6	8.44e-01	0	41	104	0	60	48907
2026-01-23 18:22:53.91	259.45	23.74	-50.4	-62.7	3.6	8.45e-01	0	41	104	0	60	49157
2026-01-23 18:22:54.92	259.28	23.62	-50.4	-62.7	3.6	8.46e-01	0	41	104	0	60	49340
2026-01-23 18:22:55.93	259.11	23.50	-50.4	-62.6	3.6	8.44e-01	0	41	104	0	60	48848
2026-01-23 18:22:56.94	258.94	23.38	-50.4	-62.7	3.6	8.45e-01	0	41	104	0	60	49143
2026-01-23 18:22:57.95	258.77	23.25	-50.4	-62.7	3.6	8.46e-01	0	41	104	0	60	49073
2026-01-23 18:22:58.96	258.60	23.13	-50.4	-62.6	3.6	8.46e-01	0	41	104	0	60	49041
2026-01-23 18:22:59.97	258.44	23.01	-50.4	-62.6	3.6	8.44e-01	0	41	104	0	60	49007
2026-01-23 18:23:00.98	258.27	22.89	-50.4	-62.6	3.6	8.46e-01	0	41	104	0	60	48965
2026-01-23 18:23:01.99	258.11	22.77	-50.4	-62.6	3.6	8.45e-01	0	41	104	0	60	48947
2026-01-23 18:23:03.00	257.95	22.65	-50.4	-62.7	3.6	8.45e-01	0	41	104	0	60	49341
2026-01-23 18:23:04.01	257.79	22.53	-50.4	-62.7	3.6	8.46e-01	0	41	104	0	60	49073
2026-01-23 18:23:05.02	257.63	22.42	-50.4	-62.7	3.6	8.46e-01	0	41	104	0	60	49063
2026-01-23 18:23:06.03	257.47	22.30	-50.4	-62.7	3.6	8.45e-01	0	41	104	0	60	49112
2026-01-23 18:23:07.04	257.31	22.18	-50.4	-62.7	3.6	8.46e-01	0	41	104	0	60	49057
2026-01-23 18:23:08.05	257.16	22.06	-50.4	-62.7	3.6	8.46e-01	0	41	104	0	60	49085
2026-01-23 18:23:09.06	257.00	21.94	-50.4	-62.6	3.6	8.45e-01	0	41	104	0	60	48957
2026-01-23 18:23:10.07	256.85	21.83	-50.4	-62.7	3.5	8.45e-01	0	41	104	0	60	49314
2026-01-23 18:23:11.07	256.70	21.71	-50.4	-62.7	3.6	8.44e-01	0	41	104	0	60	49114
2026-01-23 18:23:12.09	256.54	21.59	-50.4	-62.7	3.6	8.46e-01	0	41	104	0	60	49065
2026-01-23 18:23:13.10	256.39	21.48	-50.4	-62.7	3.6	8.45e-01	0	41	104	0	60	49221
2026-01-23 18:23:14.11	256.25	21.36	-50.4	-62.6	3.6	8.45e-01	0	41	104	0	60	48954
2026-01-23 18:23:15.12	256.10	21.24	-50.4	-62.7	3.6	8.46e-01	0	41	104	0	60	49098
2026-01-23 18:23:16.13	255.95	21.13	-50.4	-62.7	3.6	8.45e-01	0	41	104	0	60	49060
2026-01-23 18:23:17.14	255.81	21.01	-50.4	-62.7	3.6	8.46e-01	0	41	104	0	60	49131
2026-01-23 18:23:18.15	255.66	20.90	-50.4	-62.6	3.6	8.45e-01	0	41	104	0	60	48930
2026-01-23 18:23:19.16	255.52	20.78	-50.4	-62.7	3.6	8.45e-01	0	41	104	0	60	49091
2026-01-23 18:23:20.17	255.38	20.67	-50.4	-62.7	3.6	8.46e-01	0	41	104	0	60	49352
2026-01-23 18:23:21.18	255.23	20.56	-50.4	-62.6	3.6	8.45e-01	0	41	104	0	60	48971
2026-01-23 18:23:22.19	255.09	20.44	-50.4	-62.6	3.6	8.46e-01	0	41	104	0	60	48850
2026-01-23 18:23:23.20	254.96	20.33	-50.4	-62.6	3.6	8.44e-01	0	41	104	0	60	48928
2026-01-23 18:23:24.21	254.82	20.22	-50.4	-62.7	3.6	8.45e-01	0	41	104	0	60	49150
2026-01-23 18:23:25.22	254.68	20.10	-50.4	-62.6	3.6	8.46e-01	0	41	104	0	60	48782
2026-01-23 18:23:26.23	254.55	19.99	-50.4	-62.7	3.6	8.46e-01	0	41	104	0	60	49099
2026-01-23 18:23:27.24	254.41	19.88	-50.4	-62.7	3.6	8.46e-01	0	41	104	0	60	49099
2026-01-23 18:23:28.25	254.28	19.77	-50.4	-62.6	3.6	8.46e-01	0	41	104	0	60	49009
2026-01-23 18:23:29.26	254.14	19.66	-50.4	-62.7	3.6	8.45e-01	0	41	104	0	60	49108
2026-01-23 18:23:30.27	254.01	19.55	-50.4	-62.6	3.6	8.45e-01	0	41	104	0	60	48843
2026-01-23 18:23:31.28	253.88	19.44	-50.4	-62.7	3.6	8.45e-01	0	41	104	0	60	49064
2026-01-23 18:23:32.29	253.75	19.33	-50.4	-62.7	3.6	8.44e-01	0	41	104	0	60	49056
2026-01-23 18:23:33.30	253.62	19.22	-50.4	-62.6	3.6	8.46e-01	0	41	104	0	60	48828
2026-01-23 18:23:34.31	253.49	19.11	-50.4	-62.7	3.6	8.45e-01	0	41	104	0	60	49042
2026-01-23 18:23:35.32	253.37	19.00	-50.4	-62.7	3.6	8.45e-01	0	41	104	0	60	49103
2026-01-23 18:23:36.33	253.24	18.89	-50.4	-62.7	3.6	8.46e-01	0	41	104	0	60	49186
2026-01-23 18:23:37.34	253.11	18.78	-50.4	-62.7	3.6	8.45e-01	0	41	104	0	60	49118
2026-01-23 18:23:38.35	252.99	18.67	-50.4	-62.6	3.6	8.44e-01	0	41	104	0	60	48986
2026-01-23 18:23:39.36	252.87	18.56	-50.4	-62.6	3.6	8.46e-01	0	41	104	0	60	48796
2026-01-23 18:23:40.37	252.74	18.46	-50.4	-62.6	3.5	8.44e-01	0	41	104	0	60	48940
2026-01-23 18:23:41.38	252.62	18.35	-50.4	-62.6	3.6	8.46e-01	0	41	104	0	60	49037
2026-01-23 18:23:42.39	252.50	18.24	-50.4	-62.7	3.6	8.45e-01	0	41	104	0	60	49079
2026-01-23 18:23:43.40	252.38	18.14	-50.4	-62.7	3.6	8.45e-01	0	41	104	0	60	49142
2026-01-23 18:23:44.41	252.26	18.03	-50.4	-62.7	3.6	8.45e-01	0	41	104	0	60	49100
2026-01-23 18:23:45.42	252.14	17.92	-50.4	-62.7	3.6	8.46e-01	0	41	104	0	60	49126
2026-01-23 18:23:46.43	252.03	17.82	-50.4	-62.7	3.6	8.45e-01	0	41	104	0	60	49110
2026-01-23 18:23:47.44	251.91	17.71	-50.4	-62.6	3.6	8.45e-01	0	41	104	0	60	48908
2026-01-23 18:23:48.45	251.79	17.61	-50.4	-62.6	3.6	8.45e-01	0	41	104	0	60	48982
2026-01-23 18:23:49.46	251.68	17.50	-50.4	-62.6	3.6	8.45e-01	0	41	104	0	60	48844
2026-01-23 18:23:50.47	251.56	17.40	-50.4	-62.7	3.6	8.45e-01	0	41	104	0	60	49278
2026-01-23 18:23:51.48	251.45	17.30	-50.4	-62.6	3.6	8.44e-01	0	41	104	0	60	48829
2026-01-23 18:23:52.49	251.34	17.19	-50.4	-62.6	3.6	8.45e-01	0	41	104	0	60	48948
2026-01-23 18:23:53.50	251.23	17.09	-50.4	-62.6	3.5	8.46e-01	0	41	104	0	60	49005
2026-01-23 18:23:54.51	251.12	16.99	-50.4	-62.7	3.6	8.45e-01	0	41	104	0	60	49133
2026-01-23 18:23:55.52	251.01	16.88	-50.4	-62.7	3.6	8.46e-01	0	41	104	0	60	49047
2026-01-23 18:23:56.53	250.90	16.78	-50.4	-62.6	3.6	8.44e-01	0	41	104	0	60	48782
2026-01-23 18:23:57.53	250.79	16.68	-50.4	-62.7	3.6	8.45e-01	0	41	104	0	60	49235
2026-01-23 18:23:58.54	250.68	16.58	-50.4	-62.6	3.6	8.45e-01	0	41	104	0	60	48919
2026-01-23 18:23:59.55	250.57	16.48	-50.4	-62.6	3.6	8.45e-01	0	41	104	0	60	48981
2026-01-23 18:24:00.56	250.47	16.38	-50.4	-62.6	3.6	8.46e-01	0	41	104	0	60	48950
2026-01-23 18:24:01.57	250.36	16.28	-50.4	-62.6	3.6	8.46e-01	0	41	104	0	60	48946
2026-01-23 18:24:02.58	250.26	16.17	-50.4	-62.6	3.6	8.45e-01	0	41	104	0	60	48917
2026-01-23 18:24:03.59	250.15	16.07	-50.4	-62.7	3.6	8.45e-01	0	41	104	0	60	49252
2026-01-23 18:24:04.60	250.05	15.97	-50.4	-62.6	3.6	8.46e-01	0	41	104	0	60	48990
2026-01-23 18:24:05.61	249.95	15.88	-50.4	-62.7	3.6	8.45e-01	0	41	104	0	60	49111
2026-01-23 18:24:06.62	249.84	15.78	-50.4	-62.6	3.6	8.45e-01	0	41	104	0	60	48949
2026-01-23 18:24:07.63	249.74	15.68	-50.4	-62.6	3.6	8.44e-01	0	41	104	0	60	48765
2026-01-23 18:24:08.64	249.64	15.58	-50.4	-62.7	3.6	8.45e-01	0	41	104	0	60	49055
2026-01-23 18:24:09.65	249.54	15.48	-50.4	-62.7	3.6	8.46e-01	0	41	104	0	60	49082
2026-01-23 18:24:10.65	249.44	15.38	-50.4	-62.6	3.6	8.44e-01	0	41	104	0	60	49003
2026-01-23 18:24:11.66	249.34	15.29	-50.4	-62.6	3.6	8.46e-01	0	41	104	0	60	48898
2026-01-23 18:24:12.67	249.25	15.19	-50.4	-62.6	3.6	8.45e-01	0	41	104	0	60	48987
2026-01-23 18:24:13.68	249.15	15.09	-50.4	-62.6	3.6	8.45e-01	0	41	104	0	60	48937
2026-01-23 18:24:14.69	249.05	14.99	-50.4	-62.6	3.6	8.46e-01	0	41	104	0	60	48725
2026-01-23 18:24:15.70	248.95	14.90	-50.4	-62.7	3.6	8.46e-01	0	41	104	0	60	49076
2026-01-23 18:24:16.71	248.86	14.80	-50.4	-62.7	3.6	8.45e-01	0	41	104	0	60	49069
2026-01-23 18:24:17.72	248.76	14.71	-50.4	-62.6	3.6	8.45e-01	0	41	104	0	60	48786
2026-01-23 18:24:18.73	248.67	14.61	-50.4	-62.6	3.6	8.46e-01	0	41	104	0	60	48866
2026-01-23 18:24:19.74	248.58	14.52	-50.4	-62.6	3.6	8.46e-01	0	41	104	0	60	48915
2026-01-23 18:24:20.75	248.48	14.42	-50.4	-62.6	3.6	8.45e-01	0	41	104	0	60	48750
2026-01-23 18:24:21.76	248.39	14.33	-50.4	-62.7	3.6	8.45e-01	0	41	104	0	60	49122
2026-01-23 18:24:22.77	248.30	14.23	-50.4	-62.6	3.6	8.45e-01	0	41	104	0	60	48985
2026-01-23 18:24:23.78	248.21	14.14	-50.4	-62.6	3.6	8.45e-01	0	41	104	0	60	49022
2026-01-23 18:24:24.79	248.12	14.04	-50.4	-62.6	3.6	8.46e-01	0	41	104	0	60	49022
2026-01-23 18:24:25.80	248.03	13.95	-50.4	-62.7	3.6	8.46e-01	0	41	104	0	60	49047
2026-01-23 18:24:26.81	247.94	13.86	-50.4	-62.6	3.6	8.46e-01	0	41	104	0	60	48921
2026-01-23 18:24:27.82	247.85	13.76	-50.4	-62.6	3.6	8.44e-01	0	41	104	0	60	49005
2026-01-23 18:24:28.83	247.76	13.67	-50.4	-62.6	3.6	8.45e-01	0	41	104	0	60	48822
2026-01-23 18:24:29.84	247.67	13.58	-50.3	-62.6	3.6	8.45e-01	0	41	104	0	60	48820
2026-01-23 18:24:30.85	247.59	13.49	-50.4	-62.6	3.6	8.45e-01	0	41	104	0	60	49002
2026-01-23 18:24:31.86	247.50	13.40	-50.4	-62.6	3.6	8.46e-01	0	41	104	0	60	48831
2026-01-23 18:24:32.87	247.41	13.30	-50.4	-62.6	3.6	8.45e-01	0	41	104	0	60	48794
2026-01-23 18:24:33.88	247.33	13.21	-50.4	-62.6	3.6	8.45e-01	0	41	104	0	60	48816
2026-01-23 18:24:34.89	247.24	13.12	-50.4	-62.7	3.6	8.45e-01	0	41	104	0	60	49128
2026-01-23 18:24:35.90	247.16	13.03	-50.3	-62.6	3.6	8.45e-01	0	41	104	0	60	48977
2026-01-23 18:24:36.91	247.07	12.94	-50.4	-62.7	3.6	8.45e-01	0	41	104	0	60	49157
2026-01-23 18:24:37.92	246.99	12.85	-50.3	-62.6	3.6	8.45e-01	0	41	104	0	60	48606
2026-01-23 18:24:38.92	246.91	12.76	-50.3	-62.6	3.6	8.45e-01	0	41	104	0	60	48830
2026-01-23 18:24:39.94	246.82	12.67	-50.3	-62.7	3.6	8.44e-01	0	41	104	0	60	49153
2026-01-23 18:24:40.94	246.74	12.58	-50.3	-62.6	3.6	8.44e-01	0	41	104	0	60	48876
2026-01-23 18:24:41.95	246.66	12.49	-50.3	-62.7	3.6	8.45e-01	0	41	104	0	60	49085
2026-01-23 18:24:42.96	246.58	12.40	-50.3	-62.7	3.6	8.46e-01	0	41	104	0	60	49067
2026-01-23 18:24:43.98	246.50	12.31	-50.4	-62.6	3.6	8.44e-01	0	41	104	0	60	48849
2026-01-23 18:24:44.99	246.42	12.23	-50.3	-62.7	3.6	8.46e-01	0	41	104	0	60	49176
2026-01-23 18:24:45.99	246.34	12.14	-50.4	-62.7	3.6	8.45e-01	0	41	104	0	60	49142
2026-01-23 18:24:47.00	246.26	12.05	-50.3	-62.6	3.6	8.44e-01	0	41	104	0	60	48737
2026-01-23 18:24:48.02	246.18	11.96	-50.3	-62.6	3.6	8.45e-01	0	41	104	0	60	48682
2026-01-23 18:24:49.03	246.11	11.88	-50.3	-62.6	3.6	8.46e-01	0	41	104	0	60	49024
2026-01-23 18:24:50.04	246.03	11.79	-50.3	-62.7	3.6	8.45e-01	0	41	104	0	60	49085
2026-01-23 18:24:51.05	245.95	11.70	-50.3	-62.6	3.6	8.45e-01	0	41	104	0	60	49022
2026-01-23 18:24:52.06	245.88	11.62	-50.3	-62.6	3.6	8.45e-01	0	41	104	0	60	48812
2026-01-23 18:24:53.07	245.80	11.53	-50.3	-62.6	3.6	8.46e-01	0	41	104	0	60	49033
2026-01-23 18:24:54.08	245.72	11.44	-50.3	-62.6	3.6	8.45e-01	0	41	104	0	60	48833
2026-01-23 18:24:55.09	245.65	11.36	-50.3	-62.6	3.6	8.45e-01	0	41	104	0	60	48982
2026-01-23 18:24:56.10	245.57	11.27	-50.3	-62.6	3.6	8.45e-01	0	41	104	0	60	48772
2026-01-23 18:24:57.11	245.50	11.19	-50.3	-62.6	3.6	8.46e-01	0	41	104	0	60	48835
2026-01-23 18:24:58.12	245.43	11.10	-50.3	-62.6	3.6	8.45e-01	0	41	104	0	60	48837
2026-01-23 18:24:59.13	245.35	11.02	-50.3	-62.6	3.6	8.46e-01	0	41	104	0	60	48828
2026-01-23 18:25:00.13	245.28	10.93	-50.3	-62.6	3.6	8.45e-01	0	41	104	0	60	48944
2026-01-23 18:25:01.12	245.21	10.85	-50.3	-62.6	3.6	8.45e-01	0	41	104	0	60	48772
2026-01-23 18:25:02.12	245.14	10.77	-50.3	-62.6	3.6	8.45e-01	0	41	104	0	60	48917
2026-01-23 18:25:03.13	245.07	10.68	-50.3	-62.6	3.6	8.45e-01	0	41	104	0	60	48978
2026-01-23 18:25:04.14	245.00	10.60	-50.3	-62.6	3.6	8.46e-01	0	41	104	0	60	48963
2026-01-23 18:25:05.15	244.93	10.52	-50.3	-62.6	3.6	8.45e-01	0	41	104	0	60	49007
2026-01-23 18:25:06.16	244.85	10.43	-50.3	-62.6	3.6	8.44e-01	0	41	104	0	60	48862
2026-01-23 18:25:07.17	244.78	10.35	-50.3	-62.6	3.6	8.45e-01	0	41	104	0	60	48684
2026-01-23 18:25:08.18	244.72	10.27	-50.3	-62.6	3.6	8.47e-01	0	41	104	0	60	48925
2026-01-23 18:25:09.20	244.65	10.19	-50.3	-62.6	3.6	8.46e-01	0	41	104	0	60	48751
2026-01-23 18:25:10.21	244.58	10.10	-50.3	-62.6	3.6	8.45e-01	0	41	104	0	60	48826
2026-01-23 18:25:11.22	244.51	10.02	-50.3	-62.6	3.6	8.46e-01	0	41	104	0	60	48884
2026-01-23 18:25:12.23	244.44	9.94	-50.3	-62.6	3.6	8.45e-01	0	41	104	0	60	48678
2026-01-23 18:25:13.24	244.37	9.86	-50.3	-62.6	3.5	8.46e-01	0	41	104	0	60	48928
2026-01-23 18:25:14.25	244.31	9.78	-50.3	-62.7	3.6	8.45e-01	0	41	104	0	60	49066
2026-01-23 18:25:15.26	244.24	9.70	-50.3	-62.6	3.6	8.46e-01	0	41	104	0	60	48644
