passes_logs/2026/01/23/R4.6S_Anadyr/R4.6S_Anadyr__20260123_155529_NOAA_20_JPSS-1_rec.log

#Pass ID: 20260123_155529_NOAA 20 (JPSS-1)
#Satellite: NOAA 20 (JPSS-1)
#Configuration: NOAA 20
#almurnet v.1.7.20251203
#Start time: 2026-01-23 15:55:30

#Version: 2.2.20231116
#Station: R4.6S_Anadyr
#Location: 177.4865 lon 64.73178 lat
#TLE: 1 43013U 17073A   26022.44900781  .00000193  00000+0  11233-3 0  9999
#TLE: 2 43013  98.7645 323.3100 0001197  28.8413 331.2829 14.19538802423792

#Time	Az	El	Level	Level2	SNR	BER	BlckErr	Temp	State	Recorded	gain1	gain2
2026-01-23 15:55:30.75	23.93	0.05	-50.7	-65.6	3.5	1.51e+00	0	38	0	0	60	69009
2026-01-23 15:55:31.76	23.91	0.11	-50.7	-66.0	3.6	1.51e+00	0	39	104	0	60	71970
2026-01-23 15:55:32.77	23.88	0.17	-50.8	-65.9	3.6	1.51e+00	0	39	104	0	60	71658
2026-01-23 15:55:33.78	23.85	0.23	-50.8	-66.0	3.6	1.51e+00	0	39	104	0	60	72197
2026-01-23 15:55:34.79	23.82	0.29	-50.8	-66.0	3.6	1.51e+00	0	40	104	0	60	72385
2026-01-23 15:55:35.80	23.79	0.35	-50.8	-66.0	3.6	1.51e+00	0	40	104	0	60	72176
2026-01-23 15:55:36.81	23.77	0.41	-50.8	-66.0	3.6	1.51e+00	0	40	104	0	60	72257
2026-01-23 15:55:37.82	23.74	0.47	-50.8	-66.0	3.6	1.51e+00	0	40	104	0	60	72313
2026-01-23 15:55:38.83	23.71	0.53	-50.8	-66.0	3.6	1.51e+00	0	40	104	0	60	72484
2026-01-23 15:55:39.84	23.68	0.59	-50.8	-66.0	3.6	1.51e+00	0	40	104	0	60	72512
2026-01-23 15:55:40.85	23.65	0.65	-50.8	-66.0	3.6	1.51e+00	0	40	104	0	60	72081
2026-01-23 15:55:41.86	23.62	0.71	-50.8	-66.0	3.6	1.51e+00	0	40	104	0	60	72128
2026-01-23 15:55:42.87	23.59	0.77	-50.7	-66.0	3.6	1.51e+00	0	40	104	0	60	71790
2026-01-23 15:55:43.88	23.56	0.83	-50.7	-65.9	3.6	1.51e+00	0	40	104	0	60	71334
2026-01-23 15:55:44.89	23.53	0.89	-50.7	-65.9	3.6	1.51e+00	0	40	104	0	60	71235
2026-01-23 15:55:45.90	23.50	0.95	-50.6	-65.9	3.6	1.51e+00	0	40	104	0	60	70966
2026-01-23 15:55:46.91	23.47	1.01	-50.5	-65.8	3.6	1.51e+00	0	40	104	0	60	70253
2026-01-23 15:55:47.93	23.44	1.07	-50.4	-65.6	3.6	1.51e+00	0	40	104	0	60	69047
2026-01-23 15:55:48.94	23.41	1.13	-50.3	-65.5	3.6	1.51e+00	0	40	104	0	60	68180
2026-01-23 15:55:49.94	23.38	1.19	-50.2	-65.4	3.6	1.51e+00	0	40	104	0	60	67598
2026-01-23 15:55:50.96	23.35	1.25	-50.1	-65.3	3.6	1.51e+00	0	40	104	0	60	66793
2026-01-23 15:55:51.97	23.32	1.31	-50.0	-65.2	3.6	1.51e+00	0	40	104	0	60	65741
2026-01-23 15:55:52.98	23.29	1.37	-49.8	-65.0	3.6	1.51e+00	0	40	104	0	60	64330
2026-01-23 15:55:53.99	23.26	1.44	-49.6	-64.8	3.6	1.51e+00	0	40	104	0	60	62966
2026-01-23 15:55:55.00	23.23	1.50	-49.4	-64.5	3.6	1.51e+00	0	40	104	0	60	60579
2026-01-23 15:55:56.01	23.20	1.56	-49.3	-64.4	3.6	1.51e+00	0	40	104	0	60	60321
2026-01-23 15:55:57.01	23.17	1.62	-49.3	-64.5	3.6	1.51e+00	0	40	104	0	60	60785
2026-01-23 15:55:58.02	23.14	1.68	-49.3	-64.5	3.6	1.51e+00	0	40	104	0	60	60870
2026-01-23 15:55:59.03	23.11	1.74	-49.3	-64.5	3.6	1.51e+00	0	40	104	0	60	60462
2026-01-23 15:56:00.04	23.08	1.81	-49.3	-64.4	3.6	1.51e+00	0	40	104	0	60	59861
2026-01-23 15:56:01.05	23.04	1.87	-49.3	-64.1	3.6	1.51e+00	0	40	104	0	60	58201
2026-01-23 15:56:02.06	23.01	1.93	-49.3	-64.2	3.6	1.51e+00	0	40	104	0	60	58497
2026-01-23 15:56:03.07	22.98	1.99	-49.3	-64.0	3.6	1.51e+00	0	40	104	0	60	57446
2026-01-23 15:56:04.08	22.95	2.06	-49.3	-64.0	3.5	1.51e+00	0	40	104	0	60	57553
2026-01-23 15:56:05.09	22.91	2.12	-49.3	-64.2	3.6	1.51e+00	0	40	104	0	60	58639
2026-01-23 15:56:06.10	22.88	2.18	-49.3	-64.3	3.6	1.51e+00	0	40	104	0	60	59139
2026-01-23 15:56:07.11	22.85	2.25	-49.3	-64.5	3.6	1.51e+00	0	40	104	0	60	60505
2026-01-23 15:56:08.12	22.82	2.31	-49.3	-64.5	3.6	1.51e+00	0	40	104	0	60	60767
2026-01-23 15:56:09.13	22.78	2.37	-49.3	-64.6	3.6	1.51e+00	0	40	104	0	60	61037
2026-01-23 15:56:10.14	22.75	2.44	-49.3	-64.4	3.6	1.51e+00	0	40	104	0	60	60274
2026-01-23 15:56:11.15	22.72	2.50	-49.3	-64.3	3.6	1.51e+00	0	40	104	0	60	59521
2026-01-23 15:56:12.16	22.68	2.56	-49.3	-64.1	3.6	1.51e+00	0	40	104	0	60	58280
2026-01-23 15:56:13.17	22.65	2.63	-49.3	-64.0	3.6	1.51e+00	0	40	104	0	60	57277
2026-01-23 15:56:14.18	22.62	2.69	-49.3	-63.8	3.6	1.51e+00	0	40	104	0	60	56118
2026-01-23 15:56:15.19	22.58	2.76	-49.3	-63.7	3.6	1.51e+00	0	40	104	0	60	55211
2026-01-23 15:56:16.20	22.55	2.82	-49.3	-63.4	3.6	1.51e+00	0	40	104	0	60	53506
2026-01-23 15:56:17.21	22.51	2.88	-49.3	-63.3	3.6	1.51e+00	0	40	104	0	60	52896
2026-01-23 15:56:18.22	22.48	2.95	-49.3	-63.4	3.6	1.51e+00	0	40	104	0	60	53320
2026-01-23 15:56:19.23	22.44	3.01	-49.3	-63.6	3.6	1.51e+00	0	40	104	0	60	54900
2026-01-23 15:56:20.24	22.41	3.08	-49.3	-64.1	3.6	1.51e+00	0	40	104	0	60	58056
2026-01-23 15:56:21.25	22.37	3.14	-49.3	-64.4	3.6	1.51e+00	0	40	104	0	60	59871
2026-01-23 15:56:22.26	22.34	3.21	-49.3	-63.6	3.6	1.51e+00	0	40	104	0	60	54741
2026-01-23 15:56:23.27	22.30	3.27	-49.2	-61.8	3.8	1.50e+00	0	40	104	0	60	44470
2026-01-23 15:56:24.28	22.27	3.34	-49.0	-58.4	4.5	1.29e+00	0	40	0	0	60	29920
2026-01-23 15:56:25.29	22.23	3.40	-48.8	-56.6	5.8	6.97e-01	0	40	0	2097152	60	24344
2026-01-23 15:56:26.30	22.20	3.47	-48.7	-55.9	6.6	1.75e-01	0	40	0	4194304	60	22608
2026-01-23 15:56:27.31	22.16	3.54	-48.5	-55.1	7.6	1.47e-01	0	40	0	6291456	60	20522
2026-01-23 15:56:28.32	22.12	3.60	-49.2	-59.9	3.5	8.29e-02	30	40	0	8388608	60	35812
2026-01-23 15:56:29.33	22.09	3.67	-49.3	-62.6	3.6	1.51e+00	0	40	104	8388608	60	49003
2026-01-23 15:56:30.34	22.05	3.73	-44.7	-46.9	15.3	0.00e+00	0	40	0	8388608	60	8000
2026-01-23 15:56:31.35	22.01	3.80	-49.3	-62.6	3.6	1.51e+00	0	40	104	8388608	60	48677
2026-01-23 15:56:32.36	21.98	3.87	-47.7	-52.6	14.7	9.37e-01	0	40	104	8388608	60	15430
2026-01-23 15:56:33.37	21.94	3.93	-46.6	-50.0	14.3	1.67e-05	0	40	0	9437184	60	11367
2026-01-23 15:56:34.38	21.90	4.00	-45.6	-48.2	15.7	0.00e+00	0	40	0	10485760	60	9302
2026-01-23 15:56:35.39	21.87	4.07	-45.2	-47.6	15.8	0.00e+00	0	40	0	12582912	60	8674
2026-01-23 15:56:36.40	21.83	4.13	-44.8	-47.0	16.7	0.00e+00	0	40	0	14680064	60	8091
2026-01-23 15:56:37.41	21.79	4.20	-44.7	-46.9	17.1	0.00e+00	0	40	0	16777216	60	7979
2026-01-23 15:56:38.41	21.75	4.27	-44.6	-46.7	16.8	0.00e+00	0	40	0	18874368	60	7814
2026-01-23 15:56:39.42	21.71	4.34	-44.6	-46.6	17.2	0.00e+00	0	40	0	19922944	60	7769
2026-01-23 15:56:40.43	21.68	4.40	-44.7	-46.8	16.8	0.00e+00	0	40	0	22020096	60	7911
2026-01-23 15:56:41.44	21.64	4.47	-44.6	-46.7	17.5	0.00e+00	0	40	0	24117248	60	7822
2026-01-23 15:56:42.45	21.60	4.54	-44.3	-46.3	17.6	0.00e+00	0	40	0	26214400	60	7440
2026-01-23 15:56:43.46	21.56	4.61	-44.5	-46.5	16.7	0.00e+00	0	40	0	28311552	60	7660
2026-01-23 15:56:44.47	21.52	4.68	-44.7	-46.9	16.5	0.00e+00	0	40	0	29360128	60	8031
2026-01-23 15:56:45.48	21.48	4.75	-44.2	-46.1	17.7	0.00e+00	0	40	0	31457280	60	7313
2026-01-23 15:56:46.49	21.44	4.81	-43.4	-45.1	18.8	0.00e+00	0	40	0	33554432	60	6472
2026-01-23 15:56:47.50	21.40	4.88	-43.0	-44.5	19.3	0.00e+00	0	40	0	35651584	60	6075
2026-01-23 15:56:48.51	21.36	4.95	-42.8	-44.3	19.3	0.00e+00	0	40	0	37748736	58	6670
2026-01-23 15:56:49.52	21.32	5.02	-42.8	-44.3	19.6	0.00e+00	0	40	0	38797312	58	6664
2026-01-23 15:56:50.52	21.28	5.09	-42.4	-43.8	19.6	0.00e+00	0	40	0	40894464	58	6311
2026-01-23 15:56:51.53	21.24	5.16	-42.8	-44.2	19.8	0.00e+00	0	40	0	42991616	58	6601
2026-01-23 15:56:52.54	21.20	5.23	-42.8	-44.3	19.4	0.00e+00	0	40	0	45088768	58	6617
2026-01-23 15:56:53.55	21.16	5.30	-43.0	-44.5	19.7	0.00e+00	0	40	0	47185920	58	6798
2026-01-23 15:56:54.56	21.11	5.37	-42.9	-44.5	19.3	0.00e+00	0	40	0	48234496	58	6770
2026-01-23 15:56:55.57	21.07	5.44	-42.8	-44.3	19.3	0.00e+00	0	40	0	50331648	58	6665
2026-01-23 15:56:56.58	21.03	5.51	-43.4	-45.1	18.6	0.00e+00	0	40	0	52428800	58	7258
2026-01-23 15:56:57.59	20.99	5.58	-43.3	-44.9	18.8	0.00e+00	0	40	0	54525952	58	7094
2026-01-23 15:56:58.60	20.95	5.65	-43.1	-44.7	19.2	0.00e+00	0	40	0	56623104	58	6930
2026-01-23 15:56:59.61	20.90	5.72	-42.8	-44.3	19.6	0.00e+00	0	40	0	57671680	58	6637
2026-01-23 15:57:00.62	20.86	5.79	-41.9	-43.2	20.7	0.00e+00	0	40	0	59768832	58	5840
2026-01-23 15:57:01.63	20.82	5.87	-42.1	-43.4	20.5	0.00e+00	0	40	0	61865984	58	5969
2026-01-23 15:57:02.63	20.78	5.94	-41.7	-42.9	21.0	0.00e+00	0	40	0	63963136	58	5680
2026-01-23 15:57:03.64	20.73	6.01	-41.6	-42.9	21.1	0.00e+00	0	40	0	66060288	56	6318
2026-01-23 15:57:04.65	20.69	6.08	-41.8	-43.0	20.9	0.00e+00	0	40	0	67108864	56	6459
2026-01-23 15:57:05.66	20.64	6.15	-41.8	-43.1	20.9	0.00e+00	0	41	0	69206016	56	6490
2026-01-23 15:57:06.67	20.60	6.22	-41.6	-42.8	21.2	0.00e+00	0	40	0	71303168	56	6276
2026-01-23 15:57:07.68	20.56	6.30	-41.5	-42.7	21.2	0.00e+00	0	40	0	73400320	56	6216
2026-01-23 15:57:08.69	20.51	6.37	-41.5	-42.7	21.2	0.00e+00	0	40	0	75497472	56	6206
2026-01-23 15:57:09.70	20.47	6.44	-41.5	-42.7	21.2	0.00e+00	0	40	0	76546048	56	6175
2026-01-23 15:57:10.71	20.42	6.51	-41.9	-43.2	20.8	0.00e+00	0	41	0	78643200	56	6544
2026-01-23 15:57:11.73	20.38	6.59	-42.1	-43.4	20.6	0.00e+00	0	40	0	80740352	56	6719
2026-01-23 15:57:12.74	20.33	6.66	-42.3	-43.6	20.2	0.00e+00	0	40	0	82837504	56	6901
2026-01-23 15:57:13.75	20.28	6.73	-42.4	-43.7	20.5	0.00e+00	0	41	0	84934656	56	7005
2026-01-23 15:57:14.76	20.24	6.81	-42.3	-43.7	20.1	0.00e+00	0	40	0	85983232	56	6935
2026-01-23 15:57:15.77	20.19	6.88	-42.2	-43.5	20.3	0.00e+00	0	40	0	88080384	56	6837
2026-01-23 15:57:16.78	20.14	6.96	-42.2	-43.5	20.5	0.00e+00	0	40	0	90177536	56	6821
2026-01-23 15:57:17.79	20.10	7.03	-42.3	-43.6	20.5	0.00e+00	0	40	0	92274688	56	6876
2026-01-23 15:57:18.80	20.05	7.11	-41.6	-42.8	21.1	0.00e+00	0	41	0	94371840	56	6306
2026-01-23 15:57:19.81	20.00	7.18	-42.0	-43.3	20.8	0.00e+00	0	41	0	96468992	56	6623
2026-01-23 15:57:20.82	19.96	7.25	-41.8	-43.0	20.9	0.00e+00	0	41	0	97517568	56	6433
2026-01-23 15:57:21.83	19.91	7.33	-41.7	-43.0	21.1	0.00e+00	0	41	0	99614720	56	6391
2026-01-23 15:57:22.84	19.86	7.40	-41.5	-42.6	21.4	0.00e+00	0	40	0	101711872	56	6159
2026-01-23 15:57:23.85	19.81	7.48	-41.6	-42.7	21.4	0.00e+00	0	40	0	103809024	56	6237
2026-01-23 15:57:24.86	19.76	7.56	-41.6	-42.8	21.3	0.00e+00	0	40	0	105906176	56	6284
2026-01-23 15:57:25.87	19.71	7.63	-41.6	-42.8	21.3	0.00e+00	0	40	0	106954752	56	6301
2026-01-23 15:57:26.87	19.66	7.71	-41.5	-42.6	21.5	0.00e+00	0	40	0	109051904	56	6155
2026-01-23 15:57:27.88	19.61	7.78	-41.4	-42.6	21.4	0.00e+00	0	40	0	111149056	56	6117
2026-01-23 15:57:28.89	19.56	7.86	-41.6	-42.7	21.3	0.00e+00	0	41	0	113246208	56	6231
2026-01-23 15:57:29.90	19.51	7.94	-41.5	-42.7	21.4	0.00e+00	0	40	0	115343360	56	6210
2026-01-23 15:57:30.91	19.46	8.01	-41.7	-42.9	21.2	0.00e+00	0	41	0	116391936	56	6380
2026-01-23 15:57:31.92	19.41	8.09	-41.6	-42.8	21.3	0.00e+00	0	41	0	118489088	56	6276
2026-01-23 15:57:32.93	19.36	8.17	-41.4	-42.6	21.4	0.00e+00	0	40	0	120586240	56	6129
2026-01-23 15:57:33.94	19.31	8.25	-41.7	-42.9	21.3	0.00e+00	0	41	0	122683392	56	6320
2026-01-23 15:57:34.95	19.26	8.32	-41.3	-42.4	21.6	0.00e+00	0	41	0	124780544	56	6031
2026-01-23 15:57:35.96	19.21	8.40	-41.3	-42.5	21.6	0.00e+00	0	40	0	125829120	56	6041
2026-01-23 15:57:36.97	19.15	8.48	-41.3	-42.4	21.6	0.00e+00	0	40	0	127926272	56	6030
2026-01-23 15:57:37.98	19.10	8.56	-41.6	-42.7	21.5	0.00e+00	0	40	0	130023424	56	6216
2026-01-23 15:57:38.99	19.05	8.64	-41.5	-42.7	21.4	0.00e+00	0	41	0	132120576	56	6204
2026-01-23 15:57:40.00	19.00	8.72	-41.1	-42.2	21.8	0.00e+00	0	41	0	134217728	56	5895
2026-01-23 15:57:41.01	18.94	8.79	-41.1	-42.2	21.8	0.00e+00	0	41	0	136314880	56	5891
2026-01-23 15:57:42.02	18.89	8.87	-41.2	-42.3	21.8	0.00e+00	0	41	0	137363456	56	5923
2026-01-23 15:57:43.03	18.83	8.95	-41.1	-42.2	22.0	0.00e+00	0	41	0	139460608	56	5830
2026-01-23 15:57:44.04	18.78	9.03	-41.0	-42.1	22.0	0.00e+00	0	41	0	141557760	56	5790
2026-01-23 15:57:45.05	18.73	9.11	-41.2	-42.3	21.8	0.00e+00	0	41	0	143654912	56	5926
2026-01-23 15:57:46.06	18.67	9.19	-41.0	-42.1	22.0	0.00e+00	0	41	0	144703488	56	5788
2026-01-23 15:57:47.07	18.62	9.27	-41.1	-42.2	22.0	0.00e+00	0	41	0	146800640	56	5831
2026-01-23 15:57:48.08	18.56	9.35	-41.0	-42.1	22.0	0.00e+00	0	41	0	148897792	56	5774
2026-01-23 15:57:49.09	18.50	9.43	-41.1	-42.1	22.0	0.00e+00	0	41	0	150994944	56	5827
2026-01-23 15:57:50.10	18.45	9.52	-41.0	-42.1	22.0	0.00e+00	0	41	0	153092096	56	5773
2026-01-23 15:57:51.11	18.39	9.60	-40.9	-42.0	22.2	0.00e+00	0	41	0	154140672	56	5735
2026-01-23 15:57:52.12	18.33	9.68	-41.0	-42.1	22.1	0.00e+00	0	41	0	156237824	56	5808
2026-01-23 15:57:53.13	18.28	9.76	-41.0	-42.1	22.1	0.00e+00	0	41	0	158334976	56	5779
2026-01-23 15:57:54.14	18.22	9.84	-40.8	-41.9	22.3	0.00e+00	0	41	0	160432128	56	5659
2026-01-23 15:57:55.15	18.16	9.93	-41.0	-42.1	22.1	0.00e+00	0	41	0	162529280	56	5796
2026-01-23 15:57:56.16	18.10	10.01	-40.8	-41.9	22.3	0.00e+00	0	41	0	164626432	56	5649
2026-01-23 15:57:57.17	18.04	10.09	-40.7	-41.8	22.3	0.00e+00	0	41	0	165675008	56	5584
2026-01-23 15:57:58.18	17.98	10.17	-40.7	-41.7	22.3	0.00e+00	0	40	0	167772160	54	6237
2026-01-23 15:57:59.19	17.92	10.26	-40.8	-41.9	22.3	0.00e+00	0	41	0	169869312	54	6343
2026-01-23 15:58:00.19	17.87	10.34	-41.0	-42.1	22.1	0.00e+00	0	41	0	171966464	54	6493
2026-01-23 15:58:01.21	17.80	10.42	-40.9	-42.0	22.1	0.00e+00	0	41	0	174063616	54	6408
2026-01-23 15:58:02.21	17.74	10.51	-40.9	-42.0	22.2	0.00e+00	0	41	0	175112192	54	6405
2026-01-23 15:58:03.22	17.68	10.59	-40.7	-41.8	22.4	0.00e+00	0	41	0	177209344	54	6255
2026-01-23 15:58:04.23	17.62	10.68	-40.8	-41.9	22.1	0.00e+00	0	40	0	179306496	54	6348
2026-01-23 15:58:05.24	17.56	10.76	-40.7	-41.8	22.4	0.00e+00	0	40	0	181403648	54	6259
2026-01-23 15:58:06.26	17.50	10.85	-40.9	-42.0	22.2	0.00e+00	0	41	0	183500800	54	6393
2026-01-23 15:58:07.27	17.43	10.93	-40.8	-41.8	22.3	0.00e+00	0	41	0	184549376	54	6292
2026-01-23 15:58:08.27	17.37	11.02	-40.8	-41.8	22.4	0.00e+00	0	41	0	186646528	54	6300
2026-01-23 15:58:09.28	17.31	11.10	-40.7	-41.7	22.4	0.00e+00	0	41	0	188743680	54	6211
2026-01-23 15:58:10.29	17.25	11.19	-40.6	-41.7	22.5	0.00e+00	0	41	0	190840832	54	6190
2026-01-23 15:58:11.30	17.18	11.28	-40.8	-41.8	22.3	0.00e+00	0	41	0	192937984	54	6282
2026-01-23 15:58:12.31	17.12	11.36	-40.6	-41.6	22.5	0.00e+00	0	41	0	193986560	54	6170
2026-01-23 15:58:13.32	17.05	11.45	-40.6	-41.6	22.6	0.00e+00	0	41	0	196083712	54	6152
2026-01-23 15:58:14.33	16.99	11.54	-40.6	-41.6	22.5	0.00e+00	0	41	0	198180864	54	6170
2026-01-23 15:58:15.34	16.92	11.62	-40.6	-41.6	22.5	0.00e+00	0	41	0	200278016	54	6149
2026-01-23 15:58:16.35	16.86	11.71	-40.6	-41.6	22.5	0.00e+00	0	41	0	202375168	54	6116
2026-01-23 15:58:17.36	16.79	11.80	-40.5	-41.5	22.6	0.00e+00	0	41	0	203423744	54	6073
2026-01-23 15:58:18.37	16.72	11.89	-40.6	-41.6	22.6	0.00e+00	0	41	0	205520896	54	6110
2026-01-23 15:58:19.38	16.65	11.98	-40.4	-41.4	22.7	0.00e+00	0	41	0	207618048	54	6017
2026-01-23 15:58:20.39	16.59	12.07	-40.4	-41.4	22.8	0.00e+00	0	41	0	209715200	54	6025
2026-01-23 15:58:21.40	16.52	12.15	-40.6	-41.6	22.6	0.00e+00	0	41	0	211812352	54	6110
2026-01-23 15:58:22.41	16.45	12.24	-40.4	-41.4	22.8	0.00e+00	0	41	0	213909504	54	6018
2026-01-23 15:58:23.42	16.38	12.33	-40.4	-41.4	22.8	0.00e+00	0	41	0	214958080	54	5991
2026-01-23 15:58:24.43	16.31	12.42	-40.3	-41.3	22.9	0.00e+00	0	41	0	217055232	54	5945
2026-01-23 15:58:25.44	16.24	12.51	-40.3	-41.3	22.9	0.00e+00	0	41	0	219152384	54	5905
2026-01-23 15:58:26.45	16.17	12.60	-40.3	-41.3	22.8	0.00e+00	0	41	0	221249536	54	5930
2026-01-23 15:58:27.46	16.10	12.70	-40.3	-41.3	22.9	0.00e+00	0	41	0	223346688	54	5900
2026-01-23 15:58:28.47	16.03	12.79	-40.3	-41.3	22.9	0.00e+00	0	41	0	224395264	54	5910
2026-01-23 15:58:29.48	15.96	12.88	-40.2	-41.2	23.0	0.00e+00	0	41	0	226492416	54	5832
2026-01-23 15:58:30.49	15.88	12.97	-40.2	-41.1	23.1	0.00e+00	0	41	0	228589568	54	5811
2026-01-23 15:58:31.50	15.81	13.06	-40.4	-41.4	22.9	0.00e+00	0	41	0	230686720	54	5969
2026-01-23 15:58:32.51	15.74	13.15	-40.1	-41.1	23.0	0.00e+00	0	41	0	232783872	54	5794
2026-01-23 15:58:33.52	15.66	13.25	-40.2	-41.2	23.0	0.00e+00	0	41	0	233832448	54	5866
2026-01-23 15:58:34.53	15.59	13.34	-40.2	-41.2	23.0	0.00e+00	0	41	0	235929600	54	5836
2026-01-23 15:58:35.54	15.51	13.43	-40.5	-41.5	22.8	0.00e+00	0	41	0	238026752	54	6076
2026-01-23 15:58:36.55	15.44	13.53	-40.5	-41.5	22.6	0.00e+00	0	41	0	240123904	54	6093
2026-01-23 15:58:37.55	15.36	13.62	-40.5	-41.5	22.8	0.00e+00	0	41	0	242221056	54	6082
2026-01-23 15:58:38.56	15.29	13.71	-40.4	-41.4	22.9	0.00e+00	0	41	0	243269632	54	5980
2026-01-23 15:58:39.57	15.21	13.81	-40.2	-41.2	23.1	0.00e+00	0	41	0	245366784	54	5856
2026-01-23 15:58:40.58	15.13	13.90	-40.2	-41.2	23.0	0.00e+00	0	41	0	247463936	54	5862
2026-01-23 15:58:41.59	15.06	14.00	-40.3	-41.3	22.9	0.00e+00	0	41	0	249561088	54	5898
2026-01-23 15:58:42.60	14.98	14.09	-40.1	-41.1	23.1	0.00e+00	0	41	0	251658240	54	5780
2026-01-23 15:58:43.61	14.90	14.19	-40.2	-41.1	23.0	0.00e+00	0	41	0	252706816	54	5808
2026-01-23 15:58:44.62	14.82	14.28	-40.1	-41.0	23.2	0.00e+00	0	41	0	254803968	54	5752
2026-01-23 15:58:45.63	14.74	14.38	-40.1	-41.1	23.1	0.00e+00	0	41	0	256901120	54	5788
2026-01-23 15:58:46.64	14.66	14.48	-40.2	-41.2	23.0	0.00e+00	0	41	0	258998272	54	5847
2026-01-23 15:58:47.65	14.58	14.58	-40.3	-41.3	22.9	0.00e+00	0	41	0	261095424	54	5920
2026-01-23 15:58:48.66	14.50	14.67	-40.3	-41.3	23.0	0.00e+00	0	41	0	262144000	54	5900
2026-01-23 15:58:49.67	14.41	14.77	-40.4	-41.3	23.0	0.00e+00	0	41	0	264241152	54	5952
2026-01-23 15:58:50.68	14.33	14.87	-40.3	-41.2	22.9	0.00e+00	0	41	0	266338304	54	5884
2026-01-23 15:58:51.69	14.25	14.97	-40.3	-41.2	22.9	0.00e+00	0	41	0	268435456	54	5888
2026-01-23 15:58:52.70	14.16	15.07	-40.0	-41.0	23.3	0.00e+00	0	41	0	270532608	54	5722
2026-01-23 15:58:53.71	14.08	15.16	-40.1	-41.0	23.1	0.00e+00	0	41	0	271581184	54	5755
2026-01-23 15:58:54.72	14.00	15.26	-40.3	-41.3	23.0	0.00e+00	0	41	0	273678336	54	5924
2026-01-23 15:58:55.73	13.91	15.36	-40.2	-41.1	23.1	0.00e+00	0	41	0	275775488	54	5807
2026-01-23 15:58:56.74	13.82	15.46	-40.4	-41.3	22.9	0.00e+00	0	41	0	277872640	54	5957
2026-01-23 15:58:57.75	13.74	15.56	-40.3	-41.3	23.1	0.00e+00	0	41	0	279969792	54	5910
2026-01-23 15:58:58.76	13.65	15.66	-40.3	-41.3	22.9	0.00e+00	0	41	0	281018368	54	5925
2026-01-23 15:58:59.77	13.56	15.77	-40.2	-41.2	23.1	0.00e+00	0	41	0	283115520	54	5849
2026-01-23 15:59:00.78	13.47	15.87	-40.3	-41.3	23.0	0.00e+00	0	41	0	285212672	54	5902
2026-01-23 15:59:01.79	13.38	15.97	-40.3	-41.3	23.0	0.00e+00	0	41	0	287309824	54	5935
2026-01-23 15:59:02.80	13.29	16.07	-40.5	-41.5	22.8	0.00e+00	0	41	0	289406976	54	6057
2026-01-23 15:59:03.81	13.20	16.17	-40.3	-41.3	23.0	0.00e+00	0	41	0	290455552	54	5929
2026-01-23 15:59:04.82	13.11	16.28	-40.6	-41.6	22.7	0.00e+00	0	41	0	292552704	54	6118
2026-01-23 15:59:05.83	13.02	16.38	-40.4	-41.3	23.0	0.00e+00	0	41	0	294649856	54	5959
2026-01-23 15:59:06.84	12.93	16.48	-40.5	-41.5	22.9	0.00e+00	0	41	0	296747008	54	6035
2026-01-23 15:59:07.85	12.83	16.59	-40.1	-41.0	23.2	0.00e+00	0	41	0	298844160	54	5757
2026-01-23 15:59:08.86	12.74	16.69	-40.3	-41.3	23.0	0.00e+00	0	41	0	300941312	54	5916
2026-01-23 15:59:09.87	12.64	16.80	-40.3	-41.2	23.1	0.00e+00	0	41	0	301989888	54	5879
2026-01-23 15:59:10.88	12.55	16.90	-40.2	-41.2	23.1	0.00e+00	0	41	0	304087040	54	5850
2026-01-23 15:59:11.89	12.45	17.01	-40.2	-41.2	23.1	0.00e+00	0	41	0	306184192	54	5850
2026-01-23 15:59:12.90	12.36	17.11	-40.2	-41.2	23.1	0.00e+00	0	41	0	308281344	54	5850
2026-01-23 15:59:13.91	12.26	17.22	-40.4	-41.4	23.0	0.00e+00	0	41	0	310378496	54	6011
2026-01-23 15:59:14.92	12.16	17.32	-40.4	-41.4	23.0	0.00e+00	0	41	0	311427072	54	5976
2026-01-23 15:59:15.93	12.06	17.43	-40.4	-41.4	23.0	0.00e+00	0	41	0	313524224	54	6007
2026-01-23 15:59:16.94	11.96	17.54	-40.5	-41.5	22.9	0.00e+00	0	41	0	315621376	54	6046
2026-01-23 15:59:17.94	11.86	17.65	-40.7	-41.7	22.7	0.00e+00	0	41	0	317718528	54	6192
2026-01-23 15:59:18.95	11.76	17.75	-40.6	-41.6	22.9	0.00e+00	0	41	0	319815680	54	6140
2026-01-23 15:59:19.96	11.66	17.86	-40.6	-41.6	22.8	0.00e+00	0	41	0	320864256	54	6120
2026-01-23 15:59:20.97	11.56	17.97	-40.7	-41.6	22.7	0.00e+00	0	41	0	322961408	54	6168
2026-01-23 15:59:21.98	11.46	18.08	-40.8	-41.8	22.6	0.00e+00	0	41	0	325058560	54	6306
2026-01-23 15:59:22.99	11.35	18.19	-40.8	-41.9	22.6	0.00e+00	0	41	0	327155712	54	6324
2026-01-23 15:59:24.00	11.25	18.30	-40.7	-41.7	22.8	0.00e+00	0	41	0	329252864	54	6190
2026-01-23 15:59:25.01	11.14	18.41	-40.7	-41.7	22.8	0.00e+00	0	41	0	330301440	54	6228
2026-01-23 15:59:26.02	11.03	18.52	-40.8	-41.8	22.6	0.00e+00	0	41	0	332398592	54	6291
2026-01-23 15:59:27.03	10.93	18.63	-40.7	-41.7	22.7	0.00e+00	0	41	0	334495744	54	6228
2026-01-23 15:59:28.04	10.82	18.74	-40.8	-41.8	22.7	0.00e+00	0	41	0	336592896	54	6260
2026-01-23 15:59:29.05	10.71	18.85	-40.7	-41.6	22.8	0.00e+00	0	41	0	338690048	54	6158
2026-01-23 15:59:30.06	10.60	18.97	-40.7	-41.7	22.8	0.00e+00	0	41	0	339738624	54	6187
2026-01-23 15:59:31.06	10.49	19.08	-40.8	-41.8	22.8	0.00e+00	0	41	0	341835776	54	6266
2026-01-23 15:59:32.07	10.38	19.19	-40.8	-41.8	22.7	0.00e+00	0	41	0	343932928	54	6265
2026-01-23 15:59:33.08	10.27	19.31	-40.7	-41.6	22.8	0.00e+00	0	41	0	346030080	54	6163
2026-01-23 15:59:34.09	10.15	19.42	-40.6	-41.5	22.9	0.00e+00	0	41	0	348127232	54	6083
2026-01-23 15:59:35.10	10.04	19.53	-40.6	-41.6	22.8	0.00e+00	0	41	0	349175808	54	6154
2026-01-23 15:59:36.11	9.93	19.65	-40.7	-41.7	22.8	0.00e+00	0	41	0	351272960	54	6210
2026-01-23 15:59:37.12	9.81	19.76	-40.5	-41.5	22.7	0.00e+00	0	41	0	353370112	54	6053
2026-01-23 15:59:38.13	9.69	19.88	-40.7	-41.7	22.7	0.00e+00	0	41	0	355467264	54	6188
2026-01-23 15:59:39.14	9.58	19.99	-40.6	-41.6	22.9	0.00e+00	0	41	0	357564416	54	6142
2026-01-23 15:59:40.15	9.46	20.11	-40.6	-41.5	22.9	0.00e+00	0	41	0	358612992	54	6090
2026-01-23 15:59:41.16	9.34	20.23	-40.6	-41.6	22.9	0.00e+00	0	41	0	360710144	54	6151
2026-01-23 15:59:42.17	9.22	20.34	-40.7	-41.7	22.7	0.00e+00	0	41	0	362807296	54	6221
2026-01-23 15:59:43.18	9.10	20.46	-40.6	-41.6	23.0	0.00e+00	0	41	0	364904448	54	6115
2026-01-23 15:59:44.19	8.97	20.58	-40.7	-41.6	22.9	0.00e+00	0	41	0	367001600	54	6160
2026-01-23 15:59:45.20	8.85	20.70	-40.7	-41.7	22.8	0.00e+00	0	41	0	369098752	54	6179
2026-01-23 15:59:46.21	8.73	20.82	-40.7	-41.7	22.8	0.00e+00	0	41	0	370147328	54	6214
2026-01-23 15:59:47.22	8.60	20.94	-40.8	-41.8	22.8	0.00e+00	0	41	0	372244480	54	6263
2026-01-23 15:59:48.23	8.47	21.06	-40.7	-41.7	22.9	0.00e+00	0	41	0	374341632	54	6196
2026-01-23 15:59:49.24	8.35	21.18	-40.6	-41.6	23.0	0.00e+00	0	41	0	376438784	54	6127
2026-01-23 15:59:50.25	8.22	21.30	-40.6	-41.6	22.8	0.00e+00	0	41	0	378535936	54	6156
2026-01-23 15:59:51.26	8.09	21.42	-40.6	-41.6	22.9	0.00e+00	0	41	0	379584512	54	6148
2026-01-23 15:59:52.27	7.96	21.54	-40.7	-41.6	22.8	0.00e+00	0	41	0	381681664	54	6166
2026-01-23 15:59:53.28	7.83	21.66	-40.6	-41.5	22.9	0.00e+00	0	41	0	383778816	54	6085
2026-01-23 15:59:54.29	7.70	21.78	-40.6	-41.6	23.0	0.00e+00	0	41	0	385875968	54	6134
2026-01-23 15:59:55.30	7.56	21.91	-40.7	-41.7	22.9	0.00e+00	0	41	0	387973120	54	6179
2026-01-23 15:59:56.31	7.43	22.03	-40.6	-41.6	22.9	0.00e+00	0	41	0	389021696	54	6131
2026-01-23 15:59:57.31	7.29	22.15	-40.6	-41.6	22.8	0.00e+00	0	41	0	391118848	54	6149
2026-01-23 15:59:58.32	7.16	22.27	-40.6	-41.6	23.0	0.00e+00	0	41	0	393216000	54	6116
2026-01-23 15:59:59.33	7.02	22.40	-40.7	-41.6	22.8	0.00e+00	0	41	0	395313152	54	6170
2026-01-23 16:00:00.34	6.88	22.52	-40.7	-41.6	22.8	0.00e+00	0	41	0	397410304	54	6172
2026-01-23 16:00:01.35	6.74	22.65	-40.6	-41.6	22.9	0.00e+00	0	41	0	398458880	54	6148
2026-01-23 16:00:02.36	6.60	22.77	-40.7	-41.7	22.6	0.00e+00	0	41	0	400556032	54	6208
2026-01-23 16:00:03.37	6.46	22.90	-40.6	-41.6	22.9	0.00e+00	0	41	0	402653184	54	6143
2026-01-23 16:00:04.38	6.31	23.03	-40.7	-41.7	22.9	0.00e+00	0	41	0	404750336	54	6186
2026-01-23 16:00:05.39	6.17	23.15	-40.7	-41.7	22.9	0.00e+00	0	41	0	406847488	54	6177
2026-01-23 16:00:06.40	6.02	23.28	-40.8	-41.7	22.9	0.00e+00	0	41	0	407896064	54	6229
2026-01-23 16:00:07.41	5.87	23.41	-40.7	-41.6	23.0	0.00e+00	0	41	0	409993216	54	6167
2026-01-23 16:00:08.42	5.72	23.54	-40.8	-41.8	22.8	0.00e+00	0	41	0	412090368	54	6260
2026-01-23 16:00:09.42	5.58	23.66	-40.7	-41.7	23.0	0.00e+00	0	41	0	414187520	54	6204
2026-01-23 16:00:10.44	5.42	23.79	-40.6	-41.5	23.1	0.00e+00	0	41	0	416284672	54	6096
2026-01-23 16:00:11.44	5.27	23.92	-40.6	-41.5	23.1	0.00e+00	0	41	0	417333248	54	6094
2026-01-23 16:00:12.45	5.12	24.05	-40.7	-41.7	23.0	0.00e+00	0	41	0	419430400	54	6198
2026-01-23 16:00:13.46	4.96	24.18	-40.7	-41.7	22.9	0.00e+00	0	41	0	421527552	54	6206
2026-01-23 16:00:14.47	4.81	24.31	-40.9	-41.9	22.7	0.00e+00	0	41	0	423624704	54	6329
2026-01-23 16:00:15.48	4.65	24.44	-41.0	-42.0	22.8	0.00e+00	0	41	0	425721856	54	6408
2026-01-23 16:00:16.49	4.49	24.57	-41.1	-42.1	22.7	0.00e+00	0	41	0	426770432	54	6480
2026-01-23 16:00:17.50	4.33	24.71	-40.9	-41.9	22.8	0.00e+00	0	41	0	428867584	54	6380
2026-01-23 16:00:18.51	4.17	24.84	-41.2	-42.2	22.5	0.00e+00	0	41	0	430964736	54	6577
2026-01-23 16:00:19.52	4.01	24.97	-40.9	-41.9	22.8	0.00e+00	0	41	0	433061888	54	6325
2026-01-23 16:00:20.53	3.84	25.10	-41.0	-42.0	22.6	0.00e+00	0	41	0	435159040	54	6423
2026-01-23 16:00:21.54	3.68	25.24	-40.9	-41.9	22.6	0.00e+00	0	41	0	437256192	54	6348
2026-01-23 16:00:22.55	3.51	25.37	-40.9	-41.9	22.8	0.00e+00	0	41	0	438304768	54	6372
2026-01-23 16:00:23.56	3.34	25.51	-40.9	-41.9	22.7	0.00e+00	0	41	0	440401920	54	6374
2026-01-23 16:00:24.57	3.17	25.64	-40.9	-41.9	22.8	0.00e+00	0	41	0	442499072	54	6363
2026-01-23 16:00:25.58	3.00	25.78	-40.9	-41.9	22.8	0.00e+00	0	41	0	444596224	54	6369
2026-01-23 16:00:26.59	2.82	25.91	-41.0	-42.0	22.7	0.00e+00	0	41	0	446693376	54	6418
2026-01-23 16:00:27.60	2.65	26.05	-40.8	-41.8	22.9	0.00e+00	0	41	0	447741952	54	6288
2026-01-23 16:00:28.61	2.47	26.18	-40.8	-41.8	22.9	0.00e+00	0	41	0	449839104	54	6278
2026-01-23 16:00:29.62	2.30	26.32	-40.8	-41.8	22.8	0.00e+00	0	41	0	451936256	54	6267
2026-01-23 16:00:30.63	2.12	26.46	-40.8	-41.8	22.9	0.00e+00	0	41	0	454033408	54	6263
2026-01-23 16:00:31.64	1.93	26.59	-40.8	-41.7	22.8	0.00e+00	0	41	0	456130560	54	6244
2026-01-23 16:00:32.65	1.75	26.73	-40.9	-41.9	22.8	0.00e+00	0	41	0	457179136	54	6324
2026-01-23 16:00:33.66	1.57	26.87	-41.0	-42.0	22.8	0.00e+00	0	41	0	459276288	54	6420
2026-01-23 16:00:34.67	1.38	27.01	-41.0	-42.0	22.6	0.00e+00	0	41	0	461373440	54	6459
2026-01-23 16:00:35.68	1.19	27.15	-41.1	-42.1	22.6	0.00e+00	0	41	0	463470592	54	6496
2026-01-23 16:00:36.69	1.01	27.29	-41.0	-42.0	22.6	0.00e+00	0	41	0	465567744	54	6446
2026-01-23 16:00:37.70	0.81	27.43	-41.2	-42.2	22.4	0.00e+00	0	41	0	466616320	54	6581
2026-01-23 16:00:38.71	0.62	27.57	-41.2	-42.2	22.5	0.00e+00	0	41	0	468713472	54	6568
2026-01-23 16:00:39.72	0.43	27.71	-41.2	-42.2	22.3	0.00e+00	0	41	0	470810624	54	6602
2026-01-23 16:00:40.73	0.23	27.85	-41.3	-42.3	22.4	0.00e+00	0	41	0	472907776	54	6658
2026-01-23 16:00:41.74	0.03	27.99	-41.1	-42.1	22.6	0.00e+00	0	41	0	475004928	54	6505
2026-01-23 16:00:42.75	359.83	28.13	-41.3	-42.3	22.5	0.00e+00	0	41	0	476053504	54	6648
2026-01-23 16:00:43.76	359.63	28.27	-41.3	-42.3	22.4	0.00e+00	0	41	0	478150656	54	6671
2026-01-23 16:00:44.77	359.43	28.41	-41.2	-42.2	22.5	0.00e+00	0	41	0	480247808	54	6584
2026-01-23 16:00:45.78	359.22	28.55	-41.5	-42.6	22.2	0.00e+00	0	41	0	482344960	54	6888
2026-01-23 16:00:46.79	359.02	28.70	-41.6	-42.7	22.0	0.00e+00	0	41	0	484442112	54	6975
2026-01-23 16:00:47.80	358.81	28.84	-41.8	-42.9	21.8	0.00e+00	0	41	0	485490688	54	7109
2026-01-23 16:00:48.81	358.60	28.98	-42.0	-43.1	21.7	0.00e+00	0	41	0	487587840	56	6483
2026-01-23 16:00:49.82	358.38	29.13	-42.1	-43.3	21.6	0.00e+00	0	41	0	489684992	56	6624
2026-01-23 16:00:50.83	358.17	29.27	-42.2	-43.4	21.3	0.00e+00	0	41	0	491782144	56	6725
2026-01-23 16:00:51.84	357.95	29.41	-42.4	-43.6	21.3	0.00e+00	0	41	0	493879296	56	6871
2026-01-23 16:00:52.85	357.74	29.56	-42.5	-43.7	21.2	0.00e+00	0	41	0	494927872	56	6939
2026-01-23 16:00:53.86	357.51	29.70	-42.8	-44.0	20.9	0.00e+00	0	41	0	497025024	56	7215
2026-01-23 16:00:54.86	357.29	29.85	-42.8	-44.0	20.9	0.00e+00	0	41	0	499122176	58	6423
2026-01-23 16:00:55.87	357.07	29.99	-43.1	-44.4	20.5	0.00e+00	0	41	0	501219328	58	6703
2026-01-23 16:00:56.88	356.84	30.14	-43.4	-44.8	20.1	0.00e+00	0	41	0	503316480	58	7033
2026-01-23 16:00:57.89	356.61	30.28	-43.7	-45.2	19.8	0.00e+00	0	41	0	505413632	58	7339
2026-01-23 16:00:58.90	356.38	30.43	-43.8	-45.2	19.7	0.00e+00	0	41	0	506462208	60	6577
2026-01-23 16:00:59.90	356.15	30.57	-44.2	-45.8	19.2	0.00e+00	0	41	0	508559360	60	7026
2026-01-23 16:01:00.91	355.92	30.72	-44.2	-45.7	19.3	0.00e+00	0	41	0	510656512	60	6987
2026-01-23 16:01:01.93	355.68	30.87	-44.4	-46.0	19.0	0.00e+00	0	41	0	512753664	60	7229
2026-01-23 16:01:02.94	355.44	31.01	-44.4	-46.0	19.0	0.00e+00	0	41	0	514850816	60	7220
2026-01-23 16:01:03.95	355.20	31.16	-44.6	-46.2	18.8	0.00e+00	0	41	0	515899392	60	7370
2026-01-23 16:01:04.95	354.96	31.31	-44.6	-46.2	18.9	0.00e+00	0	41	0	517996544	60	7355
2026-01-23 16:01:05.96	354.71	31.45	-44.5	-46.1	19.0	0.00e+00	0	41	0	520093696	60	7335
2026-01-23 16:01:06.97	354.46	31.60	-44.6	-46.3	18.8	0.00e+00	0	41	0	522190848	60	7465
2026-01-23 16:01:07.98	354.21	31.75	-44.1	-45.6	19.3	0.00e+00	0	41	0	524288000	60	6851
2026-01-23 16:01:08.99	353.96	31.89	-44.0	-45.5	19.6	0.00e+00	0	41	0	525336576	60	6817
2026-01-23 16:01:10.00	353.70	32.04	-43.6	-45.0	20.0	0.00e+00	0	41	0	527433728	60	6450
2026-01-23 16:01:11.01	353.45	32.19	-43.9	-45.4	19.7	0.00e+00	0	41	0	529530880	60	6701
2026-01-23 16:01:12.02	353.19	32.34	-44.0	-45.5	19.4	0.00e+00	0	41	0	531628032	60	6847
2026-01-23 16:01:13.03	352.92	32.48	-44.2	-45.8	19.2	0.00e+00	0	41	0	533725184	60	7014
2026-01-23 16:01:14.04	352.66	32.63	-44.2	-45.8	19.3	0.00e+00	0	41	0	534773760	60	7052
2026-01-23 16:01:15.05	352.39	32.78	-44.2	-45.8	19.3	0.00e+00	0	41	0	536870912	60	7023
2026-01-23 16:01:16.06	352.12	32.93	-44.1	-45.6	19.4	0.00e+00	0	41	0	538968064	60	6878
2026-01-23 16:01:17.07	351.85	33.07	-44.0	-45.5	19.6	0.00e+00	0	41	0	541065216	60	6823
2026-01-23 16:01:18.07	351.58	33.22	-44.3	-45.8	19.3	0.00e+00	0	41	0	543162368	60	7071
2026-01-23 16:01:19.08	351.30	33.37	-44.2	-45.8	19.3	0.00e+00	0	41	0	544210944	60	7058
2026-01-23 16:01:20.09	351.02	33.52	-44.3	-45.9	19.2	0.00e+00	0	41	0	546308096	60	7092
2026-01-23 16:01:21.10	350.74	33.66	-44.1	-45.6	19.5	0.00e+00	0	41	0	548405248	60	6851
2026-01-23 16:01:22.11	350.45	33.81	-43.8	-45.3	19.8	0.00e+00	0	41	0	550502400	60	6633
2026-01-23 16:01:23.12	350.16	33.96	-43.4	-44.8	20.3	0.00e+00	0	41	0	552599552	60	6276
2026-01-23 16:01:24.12	349.88	34.10	-43.4	-44.8	20.3	0.00e+00	0	41	0	553648128	60	6255
2026-01-23 16:01:25.13	349.58	34.25	-43.2	-44.5	20.5	0.00e+00	0	41	0	555745280	60	6048
2026-01-23 16:01:26.14	349.29	34.40	-43.2	-44.5	20.6	0.00e+00	0	41	0	557842432	60	6090
2026-01-23 16:01:27.15	348.99	34.54	-42.8	-44.1	20.9	0.00e+00	0	41	0	559939584	60	5767
2026-01-23 16:01:28.16	348.69	34.69	-42.5	-43.8	21.0	0.00e+00	0	41	0	562036736	58	6249
2026-01-23 16:01:29.17	348.39	34.84	-42.4	-43.5	21.4	0.00e+00	0	41	0	563085312	58	6101
2026-01-23 16:01:30.18	348.08	34.98	-42.2	-43.3	21.6	0.00e+00	0	41	0	565182464	58	5940
2026-01-23 16:01:31.19	347.77	35.13	-42.0	-43.2	21.7	0.00e+00	0	41	0	567279616	58	5838
2026-01-23 16:01:32.21	347.45	35.27	-42.1	-43.3	21.5	0.00e+00	0	41	0	569376768	58	5901
2026-01-23 16:01:33.21	347.14	35.42	-42.2	-43.4	21.5	0.00e+00	0	41	0	571473920	58	5976
2026-01-23 16:01:34.22	346.82	35.56	-42.0	-43.1	21.8	0.00e+00	0	41	0	573571072	58	5827
2026-01-23 16:01:35.23	346.50	35.71	-42.0	-43.2	21.7	0.00e+00	0	41	0	574619648	58	5840
2026-01-23 16:01:36.24	346.18	35.85	-41.7	-42.8	22.1	0.00e+00	0	41	0	576716800	56	6279
2026-01-23 16:01:37.25	345.85	35.99	-41.6	-42.7	22.2	0.00e+00	0	41	0	578813952	56	6194
2026-01-23 16:01:38.26	345.53	36.14	-41.8	-42.9	22.1	0.00e+00	0	41	0	580911104	56	6319
2026-01-23 16:01:39.27	345.19	36.28	-41.7	-42.8	22.1	0.00e+00	0	41	0	583008256	56	6260
2026-01-23 16:01:40.28	344.86	36.42	-41.9	-43.0	21.9	0.00e+00	0	41	0	584056832	56	6413
2026-01-23 16:01:41.29	344.52	36.56	-42.3	-43.5	21.5	0.00e+00	0	41	0	586153984	56	6775
2026-01-23 16:01:42.30	344.18	36.70	-42.3	-43.5	21.5	0.00e+00	0	41	0	588251136	56	6785
2026-01-23 16:01:43.31	343.83	36.85	-42.1	-43.2	21.7	0.00e+00	0	41	0	590348288	56	6597
2026-01-23 16:01:44.32	343.49	36.99	-42.1	-43.2	21.8	0.00e+00	0	41	0	592445440	56	6590
2026-01-23 16:01:45.33	343.14	37.12	-42.0	-43.1	21.8	0.00e+00	0	41	0	593494016	56	6516
2026-01-23 16:01:46.34	342.78	37.26	-42.1	-43.2	21.6	0.00e+00	0	41	0	595591168	56	6585
2026-01-23 16:01:47.34	342.43	37.40	-42.4	-43.6	21.4	0.00e+00	0	41	0	597688320	56	6865
2026-01-23 16:01:48.36	342.07	37.54	-42.6	-43.8	21.2	0.00e+00	0	41	0	599785472	56	7034
2026-01-23 16:01:49.37	341.71	37.68	-42.5	-43.7	21.3	0.00e+00	0	41	0	601882624	56	6956
2026-01-23 16:01:50.38	341.34	37.81	-42.4	-43.6	21.4	0.00e+00	0	41	0	602931200	56	6898
2026-01-23 16:01:51.39	340.97	37.95	-42.2	-43.3	21.6	0.00e+00	0	41	0	605028352	56	6692
2026-01-23 16:01:52.39	340.60	38.08	-42.1	-43.3	21.7	0.00e+00	0	41	0	607125504	56	6644
2026-01-23 16:01:53.41	340.23	38.21	-42.4	-43.6	21.3	0.00e+00	0	41	0	609222656	56	6920
2026-01-23 16:01:54.42	339.85	38.35	-42.5	-43.7	21.1	0.00e+00	0	41	0	611319808	56	6961
2026-01-23 16:01:55.43	339.47	38.48	-42.6	-43.8	21.2	0.00e+00	0	41	0	612368384	56	7039
2026-01-23 16:01:56.44	339.08	38.61	-42.7	-43.9	21.1	0.00e+00	0	41	0	614465536	56	7135
2026-01-23 16:01:57.44	338.70	38.74	-42.6	-43.9	21.1	0.00e+00	0	41	0	616562688	58	6340
2026-01-23 16:01:58.45	338.31	38.86	-42.5	-43.7	21.2	0.00e+00	0	41	0	618659840	58	6239
2026-01-23 16:01:59.46	337.92	38.99	-42.5	-43.8	21.2	0.00e+00	0	41	0	620756992	58	6246
2026-01-23 16:02:00.47	337.52	39.12	-42.4	-43.5	21.4	0.00e+00	0	41	0	621805568	58	6100
2026-01-23 16:02:01.47	337.13	39.24	-42.2	-43.3	21.6	0.00e+00	0	41	0	623902720	58	5964
2026-01-23 16:02:02.48	336.72	39.37	-42.0	-43.1	21.7	0.00e+00	0	41	0	625999872	58	5824
2026-01-23 16:02:03.50	336.31	39.49	-41.8	-42.9	22.1	0.00e+00	0	41	0	628097024	58	5643
2026-01-23 16:02:04.50	335.91	39.61	-41.6	-42.7	22.2	0.00e+00	0	41	0	630194176	56	6185
2026-01-23 16:02:05.51	335.50	39.73	-41.4	-42.4	22.5	0.00e+00	0	41	0	631242752	56	6011
2026-01-23 16:02:06.52	335.08	39.85	-41.2	-42.2	22.6	0.00e+00	0	41	0	633339904	56	5883
2026-01-23 16:02:07.53	334.67	39.97	-41.2	-42.2	22.7	0.00e+00	0	41	0	635437056	56	5858
2026-01-23 16:02:08.54	334.24	40.09	-41.0	-42.0	22.8	0.00e+00	0	41	0	637534208	56	5761
2026-01-23 16:02:09.55	333.82	40.20	-40.9	-41.8	23.1	0.00e+00	0	41	0	639631360	56	5624
2026-01-23 16:02:10.56	333.39	40.31	-40.7	-41.7	22.6	0.00e+00	0	41	0	640679936	54	6178
2026-01-23 16:02:11.57	332.96	40.43	-40.3	-41.2	23.4	0.00e+00	0	41	0	642777088	54	5895
2026-01-23 16:02:12.58	332.53	40.54	-40.3	-41.2	23.5	0.00e+00	0	41	0	644874240	54	5860
2026-01-23 16:02:13.59	332.09	40.65	-40.5	-41.5	23.2	0.00e+00	0	41	0	646971392	54	6061
2026-01-23 16:02:14.60	331.66	40.75	-40.5	-41.5	23.3	0.00e+00	0	41	0	649068544	54	6051
2026-01-23 16:02:15.61	331.21	40.86	-40.3	-41.3	23.5	0.00e+00	0	41	0	650117120	54	5914
2026-01-23 16:02:16.62	330.77	40.96	-40.4	-41.3	23.4	0.00e+00	0	41	0	652214272	54	5930
2026-01-23 16:02:17.63	330.32	41.07	-40.2	-41.2	23.4	0.00e+00	0	41	0	654311424	54	5835
2026-01-23 16:02:18.63	329.88	41.17	-40.5	-41.5	23.3	0.00e+00	0	41	0	656408576	54	6044
2026-01-23 16:02:19.64	329.42	41.27	-40.9	-41.9	22.9	0.00e+00	0	41	0	658505728	54	6325
2026-01-23 16:02:20.65	328.97	41.36	-41.1	-42.1	22.7	0.00e+00	0	41	0	659554304	54	6516
2026-01-23 16:02:21.66	328.51	41.46	-41.4	-42.5	22.5	0.00e+00	0	41	0	661651456	54	6776
2026-01-23 16:02:22.67	328.05	41.55	-41.7	-42.8	22.1	0.00e+00	0	41	0	663748608	54	7062
2026-01-23 16:02:23.68	327.58	41.65	-41.6	-42.7	22.2	0.00e+00	0	41	0	665845760	54	6967
2026-01-23 16:02:24.69	327.11	41.74	-41.7	-42.8	22.1	0.00e+00	0	41	0	667942912	54	7084
2026-01-23 16:02:25.69	326.65	41.82	-41.2	-42.2	22.6	0.00e+00	0	41	0	670040064	54	6583
2026-01-23 16:02:26.71	326.17	41.91	-40.5	-41.5	23.3	0.00e+00	0	41	0	671088640	54	6060
2026-01-23 16:02:27.72	325.70	41.99	-40.2	-41.1	23.6	0.00e+00	0	41	0	673185792	54	5816
2026-01-23 16:02:28.73	325.22	42.08	-40.2	-41.1	23.7	0.00e+00	0	41	0	675282944	54	5780
2026-01-23 16:02:29.74	324.74	42.16	-40.0	-40.9	23.8	0.00e+00	0	41	0	677380096	54	5659
2026-01-23 16:02:30.75	324.26	42.23	-40.0	-40.9	23.7	0.00e+00	0	41	0	679477248	54	5679
2026-01-23 16:02:31.76	323.78	42.31	-40.2	-41.2	23.5	0.00e+00	0	41	0	680525824	54	5829
2026-01-23 16:02:32.77	323.29	42.38	-40.3	-41.3	23.4	0.00e+00	0	41	0	682622976	54	5905
2026-01-23 16:02:33.78	322.80	42.45	-40.4	-41.3	23.5	0.00e+00	0	41	0	684720128	54	5955
2026-01-23 16:02:34.79	322.31	42.52	-40.3	-41.2	23.6	0.00e+00	0	41	0	686817280	54	5853
2026-01-23 16:02:35.80	321.82	42.59	-40.2	-41.1	23.6	0.00e+00	0	41	0	688914432	54	5819
2026-01-23 16:02:36.81	321.32	42.66	-40.2	-41.1	23.6	0.00e+00	0	41	0	689963008	54	5820
2026-01-23 16:02:37.81	320.83	42.72	-40.2	-41.1	23.6	0.00e+00	0	41	0	692060160	54	5793
2026-01-23 16:02:38.82	320.33	42.78	-39.9	-40.7	23.9	0.00e+00	0	41	0	694157312	54	5559
2026-01-23 16:02:39.83	319.83	42.83	-40.0	-40.9	23.7	0.00e+00	0	41	0	696254464	54	5632
2026-01-23 16:02:40.84	319.33	42.89	-40.0	-40.9	23.8	0.00e+00	0	41	0	698351616	54	5634
2026-01-23 16:02:41.85	318.82	42.94	-40.1	-41.0	23.7	0.00e+00	0	41	0	699400192	54	5697
2026-01-23 16:02:42.86	318.32	42.99	-40.0	-40.9	23.6	0.00e+00	0	41	0	701497344	54	5678
2026-01-23 16:02:43.87	317.81	43.04	-40.4	-41.4	23.4	0.00e+00	0	41	0	703594496	54	5982
2026-01-23 16:02:44.88	317.30	43.09	-40.4	-41.4	23.4	0.00e+00	0	41	0	705691648	54	5994
2026-01-23 16:02:45.89	316.79	43.13	-40.3	-41.2	23.5	0.00e+00	0	41	0	707788800	54	5833
2026-01-23 16:02:46.90	316.28	43.17	-40.2	-41.1	23.5	0.00e+00	0	41	0	708837376	54	5823
2026-01-23 16:02:47.91	315.77	43.21	-40.1	-41.0	23.7	0.00e+00	0	41	0	710934528	54	5755
2026-01-23 16:02:48.92	315.25	43.24	-40.1	-41.0	23.7	0.00e+00	0	41	0	713031680	54	5712
2026-01-23 16:02:49.93	314.74	43.28	-40.1	-41.0	23.7	0.00e+00	0	41	0	715128832	54	5727
2026-01-23 16:02:50.93	314.23	43.31	-40.3	-41.2	23.6	0.00e+00	0	41	0	717225984	54	5855
2026-01-23 16:02:51.94	313.71	43.33	-40.6	-41.5	23.2	0.00e+00	0	41	0	718274560	54	6102
2026-01-23 16:02:52.95	313.19	43.36	-41.0	-42.0	22.8	0.00e+00	0	41	0	720371712	54	6420
2026-01-23 16:02:53.96	312.67	43.38	-41.4	-42.4	22.5	0.00e+00	0	41	0	722468864	54	6721
2026-01-23 16:02:54.97	312.15	43.40	-41.3	-42.4	22.6	0.00e+00	0	41	0	724566016	54	6711
2026-01-23 16:02:55.98	311.63	43.42	-41.5	-42.5	22.3	0.00e+00	0	41	0	726663168	54	6814
2026-01-23 16:02:56.99	311.11	43.43	-41.3	-42.4	22.6	0.00e+00	0	41	0	727711744	54	6702
2026-01-23 16:02:58.00	310.59	43.44	-41.2	-42.2	22.7	0.00e+00	0	41	0	729808896	54	6549
2026-01-23 16:02:59.01	310.07	43.45	-41.2	-42.2	22.7	0.00e+00	0	41	0	731906048	54	6601
2026-01-23 16:03:00.02	309.55	43.46	-41.2	-42.2	22.7	0.00e+00	0	41	0	734003200	54	6611
2026-01-23 16:03:01.03	309.03	43.46	-41.5	-42.5	22.4	0.00e+00	0	41	0	736100352	54	6788
2026-01-23 16:03:02.04	308.50	43.46	-41.8	-42.8	22.3	0.00e+00	0	41	0	738197504	56	6286
2026-01-23 16:03:03.04	307.99	43.46	-41.5	-42.5	22.5	0.00e+00	0	41	0	739246080	56	6089
2026-01-23 16:03:04.05	307.47	43.46	-41.5	-42.5	21.6	0.00e+00	0	41	0	741343232	56	6087
2026-01-23 16:03:05.06	306.94	43.45	-41.6	-42.6	22.3	0.00e+00	0	41	0	743440384	56	6163
2026-01-23 16:03:06.07	306.42	43.44	-42.0	-43.2	21.9	0.00e+00	0	41	0	745537536	56	6540
2026-01-23 16:03:07.08	305.90	43.43	-42.4	-43.6	21.6	0.00e+00	0	41	0	747634688	56	6851
2026-01-23 16:03:08.09	305.38	43.42	-42.3	-43.5	21.6	0.00e+00	0	41	0	748683264	56	6807
2026-01-23 16:03:09.10	304.86	43.40	-42.5	-43.7	21.4	0.00e+00	0	41	0	750780416	56	6929
2026-01-23 16:03:10.11	304.34	43.38	-42.6	-43.8	21.3	0.00e+00	0	41	0	752877568	56	7052
2026-01-23 16:03:11.12	303.82	43.36	-42.8	-44.0	21.0	0.00e+00	0	41	0	754974720	58	6426
2026-01-23 16:03:12.13	303.30	43.33	-43.1	-44.3	20.7	0.00e+00	0	41	0	757071872	58	6676
2026-01-23 16:03:13.14	302.79	43.30	-43.2	-44.5	20.6	0.00e+00	0	41	0	758120448	58	6834
2026-01-23 16:03:14.15	302.27	43.27	-43.0	-44.3	20.9	0.00e+00	0	41	0	760217600	58	6630
2026-01-23 16:03:15.16	301.75	43.24	-42.9	-44.2	20.9	0.00e+00	0	41	0	762314752	58	6576
2026-01-23 16:03:16.17	301.24	43.20	-43.1	-44.3	20.8	0.00e+00	0	41	0	764411904	58	6679
2026-01-23 16:03:17.18	300.73	43.16	-43.3	-44.6	20.5	0.00e+00	0	41	0	766509056	58	6889
2026-01-23 16:03:18.19	300.22	43.12	-43.4	-44.7	20.3	0.00e+00	0	41	0	767557632	58	6970
2026-01-23 16:03:19.20	299.71	43.08	-43.8	-45.2	20.0	0.00e+00	0	41	0	769654784	60	6566
2026-01-23 16:03:20.21	299.20	43.03	-44.0	-45.4	19.9	0.00e+00	0	41	0	771751936	60	6713
2026-01-23 16:03:21.22	298.69	42.99	-44.2	-45.7	19.5	0.00e+00	0	41	0	773849088	60	6994
2026-01-23 16:03:22.23	298.18	42.94	-44.3	-45.8	19.5	0.00e+00	0	41	0	775946240	60	7041
2026-01-23 16:03:23.23	297.68	42.88	-44.3	-45.8	19.4	0.00e+00	0	41	0	776994816	60	7018
2026-01-23 16:03:24.24	297.18	42.83	-44.1	-45.6	19.7	0.00e+00	0	41	0	779091968	60	6896
2026-01-23 16:03:25.25	296.68	42.77	-43.8	-45.2	19.9	0.00e+00	0	41	0	781189120	60	6574
2026-01-23 16:03:26.26	296.18	42.71	-43.5	-44.9	20.2	0.00e+00	0	41	0	783286272	60	6339
2026-01-23 16:03:27.27	295.68	42.65	-44.0	-45.5	19.6	0.00e+00	0	41	0	785383424	60	6815
2026-01-23 16:03:28.28	295.19	42.58	-44.6	-46.2	19.0	0.00e+00	0	41	0	786432000	60	7385
2026-01-23 16:03:29.29	294.70	42.51	-44.6	-46.3	19.1	0.00e+00	0	41	0	788529152	60	7424
2026-01-23 16:03:30.30	294.20	42.44	-44.3	-45.8	19.4	0.00e+00	0	41	0	790626304	60	7049
2026-01-23 16:03:31.31	293.72	42.37	-43.7	-45.1	20.1	0.00e+00	0	41	0	792723456	60	6524
2026-01-23 16:03:32.32	293.23	42.30	-43.5	-44.9	20.5	0.00e+00	0	41	0	794820608	60	6355
2026-01-23 16:03:33.33	292.74	42.22	-42.8	-44.0	20.8	0.00e+00	0	41	0	795869184	60	5759
2026-01-23 16:03:34.34	292.26	42.14	-42.1	-43.2	21.9	0.00e+00	0	41	0	797966336	58	5869
2026-01-23 16:03:35.35	291.78	42.06	-42.1	-43.2	21.9	0.00e+00	0	41	0	800063488	58	5838
2026-01-23 16:03:36.36	291.31	41.98	-42.1	-43.3	21.8	0.00e+00	0	41	0	802160640	58	5902
2026-01-23 16:03:37.37	290.83	41.90	-42.1	-43.3	21.8	0.00e+00	0	41	0	804257792	58	5902
2026-01-23 16:03:38.38	290.36	41.81	-42.1	-43.2	21.9	0.00e+00	0	41	0	806354944	58	5862
2026-01-23 16:03:39.39	289.89	41.72	-41.7	-42.8	22.1	0.00e+00	0	41	0	807403520	58	5589
2026-01-23 16:03:40.40	289.42	41.63	-41.4	-42.4	22.7	0.00e+00	0	41	0	809500672	56	6000
2026-01-23 16:03:41.41	288.96	41.54	-40.6	-41.6	23.3	0.00e+00	0	41	0	811597824	54	6122
2026-01-23 16:03:42.41	288.50	41.45	-40.3	-41.2	23.5	0.00e+00	0	41	0	813694976	54	5880
2026-01-23 16:03:43.42	288.04	41.35	-40.2	-41.1	23.7	0.00e+00	0	41	0	815792128	54	5824
2026-01-23 16:03:44.44	287.58	41.25	-40.3	-41.2	23.6	0.00e+00	0	41	0	816840704	54	5871
2026-01-23 16:03:45.44	287.13	41.15	-40.4	-41.4	23.4	0.00e+00	0	41	0	818937856	54	5984
2026-01-23 16:03:46.45	286.68	41.05	-40.2	-41.2	23.6	0.00e+00	0	41	0	821035008	54	5835
2026-01-23 16:03:47.46	286.23	40.95	-40.2	-41.1	23.7	0.00e+00	0	41	0	823132160	54	5803
2026-01-23 16:03:48.47	285.79	40.84	-39.9	-40.8	24.0	0.00e+00	0	41	0	825229312	54	5578
2026-01-23 16:03:49.48	285.34	40.74	-39.5	-40.3	24.3	0.00e+00	0	41	0	826277888	52	5954
2026-01-23 16:03:50.49	284.91	40.63	-39.6	-40.5	24.3	0.00e+00	0	41	0	828375040	52	6059
2026-01-23 16:03:51.50	284.47	40.52	-39.0	-39.8	24.8	0.00e+00	0	41	0	830472192	52	5624
2026-01-23 16:03:52.51	284.04	40.41	-39.0	-39.8	24.8	0.00e+00	0	41	0	832569344	52	5586
2026-01-23 16:03:53.52	283.61	40.29	-38.6	-39.4	25.0	0.00e+00	0	41	0	834666496	50	6006
2026-01-23 16:03:54.53	283.18	40.18	-38.7	-39.5	24.9	0.00e+00	0	41	0	835715072	50	6091
2026-01-23 16:03:55.54	282.75	40.06	-39.0	-39.8	24.9	0.00e+00	0	41	0	837812224	50	6260
2026-01-23 16:03:56.55	282.33	39.95	-38.8	-39.6	24.9	0.00e+00	0	41	0	839909376	50	6158
2026-01-23 16:03:57.55	281.92	39.83	-38.7	-39.5	25.0	0.00e+00	0	41	0	842006528	50	6073
2026-01-23 16:03:58.56	281.50	39.71	-38.7	-39.5	25.0	0.00e+00	0	41	0	844103680	50	6099
2026-01-23 16:03:59.57	281.09	39.59	-38.5	-39.3	25.2	0.00e+00	0	41	0	845152256	50	5906
2026-01-23 16:04:00.58	280.68	39.47	-38.5	-39.2	25.2	0.00e+00	0	41	0	847249408	50	5892
2026-01-23 16:04:01.59	280.28	39.34	-38.5	-39.3	25.2	0.00e+00	0	41	0	849346560	50	5922
2026-01-23 16:04:02.60	279.87	39.22	-38.7	-39.5	25.0	0.00e+00	0	41	0	851443712	50	6071
2026-01-23 16:04:03.61	279.47	39.09	-38.9	-39.7	24.9	0.00e+00	0	41	0	853540864	50	6210
2026-01-23 16:04:04.62	279.08	38.97	-39.1	-39.9	24.8	0.00e+00	0	41	0	854589440	50	6361
2026-01-23 16:04:05.63	278.68	38.84	-39.0	-39.9	24.8	0.00e+00	0	41	0	856686592	50	6319
2026-01-23 16:04:06.64	278.29	38.71	-38.9	-39.7	24.9	0.00e+00	0	41	0	858783744	50	6184
2026-01-23 16:04:07.65	277.91	38.58	-39.0	-39.9	24.8	0.00e+00	0	41	0	860880896	50	6323
2026-01-23 16:04:08.65	277.53	38.45	-38.9	-39.8	24.8	0.00e+00	0	41	0	862978048	50	6251
2026-01-23 16:04:09.66	277.14	38.32	-39.0	-39.8	24.8	0.00e+00	0	41	0	864026624	50	6261
2026-01-23 16:04:10.67	276.77	38.18	-39.1	-39.9	24.7	0.00e+00	0	41	0	866123776	50	6373
2026-01-23 16:04:11.68	276.39	38.05	-39.2	-40.1	24.4	0.00e+00	0	41	0	868220928	50	6483
2026-01-23 16:04:12.69	276.02	37.92	-39.4	-40.3	24.4	0.00e+00	0	41	0	870318080	50	6656
2026-01-23 16:04:13.70	275.65	37.78	-39.4	-40.2	24.4	0.00e+00	0	41	0	872415232	50	6598
2026-01-23 16:04:14.71	275.29	37.64	-39.6	-40.4	24.3	0.00e+00	0	41	0	874512384	50	6735
2026-01-23 16:04:15.72	274.92	37.51	-39.6	-40.5	24.2	0.00e+00	0	41	0	875560960	50	6809
2026-01-23 16:04:16.73	274.56	37.37	-39.8	-40.7	24.0	0.00e+00	0	41	0	877658112	52	6212
2026-01-23 16:04:17.74	274.21	37.23	-39.8	-40.6	24.1	0.00e+00	0	42	0	879755264	52	6156
2026-01-23 16:04:18.75	273.85	37.09	-39.7	-40.6	24.1	0.00e+00	0	42	0	881852416	52	6122
2026-01-23 16:04:19.75	273.51	36.95	-39.8	-40.6	24.1	0.00e+00	0	41	0	882900992	52	6161
2026-01-23 16:04:20.77	273.16	36.81	-39.9	-40.8	23.9	0.00e+00	0	41	0	884998144	52	6287
2026-01-23 16:04:21.78	272.81	36.67	-39.9	-40.8	24.0	0.00e+00	0	41	0	887095296	52	6295
2026-01-23 16:04:22.78	272.47	36.53	-40.1	-41.0	23.6	0.00e+00	0	41	0	889192448	52	6454
2026-01-23 16:04:23.80	272.13	36.39	-40.1	-41.0	23.7	0.00e+00	0	41	0	891289600	52	6453
2026-01-23 16:04:24.81	271.80	36.25	-40.2	-41.1	23.6	0.00e+00	0	41	0	892338176	52	6531
2026-01-23 16:04:25.81	271.47	36.10	-40.3	-41.2	23.5	0.00e+00	0	41	0	894435328	52	6547
2026-01-23 16:04:26.82	271.14	35.96	-40.4	-41.4	23.5	0.00e+00	0	41	0	896532480	52	6701
2026-01-23 16:04:27.83	270.81	35.82	-40.5	-41.5	23.2	0.00e+00	0	41	0	898629632	52	6790
2026-01-23 16:04:28.84	270.49	35.67	-40.9	-41.9	23.0	0.00e+00	0	41	0	900726784	54	6365
2026-01-23 16:04:29.85	270.17	35.53	-41.1	-42.1	22.7	0.00e+00	0	41	0	902823936	54	6524
2026-01-23 16:04:30.86	269.85	35.38	-41.3	-42.3	22.6	0.00e+00	0	42	0	903872512	54	6626
2026-01-23 16:04:31.87	269.53	35.24	-41.2	-42.3	22.6	0.00e+00	0	41	0	905969664	54	6626
2026-01-23 16:04:32.88	269.22	35.09	-41.3	-42.3	22.6	0.00e+00	0	41	0	908066816	54	6628
2026-01-23 16:04:33.89	268.91	34.94	-41.2	-42.2	22.6	0.00e+00	0	42	0	910163968	54	6561
2026-01-23 16:04:34.90	268.60	34.80	-41.3	-42.3	22.5	0.00e+00	0	41	0	912261120	54	6663
2026-01-23 16:04:35.91	268.30	34.65	-41.3	-42.3	22.6	0.00e+00	0	42	0	913309696	54	6683
2026-01-23 16:04:36.92	268.00	34.50	-41.6	-42.6	22.3	0.00e+00	0	41	0	915406848	54	6899
2026-01-23 16:04:37.93	267.70	34.36	-41.8	-42.9	22.0	0.00e+00	0	42	0	917504000	56	6359
2026-01-23 16:04:38.94	267.40	34.21	-42.2	-43.3	21.7	0.00e+00	0	41	0	919601152	56	6646
2026-01-23 16:04:39.94	267.11	34.06	-42.2	-43.3	21.7	0.00e+00	0	42	0	921698304	56	6636
2026-01-23 16:04:40.95	266.82	33.92	-42.3	-43.4	21.6	0.00e+00	0	42	0	922746880	56	6754
2026-01-23 16:04:41.96	266.53	33.77	-42.6	-43.8	21.3	0.00e+00	0	41	0	924844032	56	7035
2026-01-23 16:04:42.98	266.24	33.62	-42.8	-44.0	21.1	0.00e+00	0	42	0	926941184	58	6425
2026-01-23 16:04:43.99	265.96	33.47	-42.9	-44.2	20.7	0.00e+00	0	42	0	929038336	58	6563
2026-01-23 16:04:45.00	265.68	33.32	-43.0	-44.3	20.8	0.00e+00	0	42	0	931135488	58	6664
2026-01-23 16:04:46.01	265.40	33.18	-43.0	-44.3	20.8	0.00e+00	0	42	0	932184064	58	6642
2026-01-23 16:04:47.02	265.13	33.03	-43.1	-44.4	20.6	0.00e+00	0	42	0	934281216	58	6761
2026-01-23 16:04:48.03	264.86	32.88	-43.3	-44.6	20.5	0.00e+00	0	42	0	936378368	58	6877
2026-01-23 16:04:49.04	264.59	32.73	-43.2	-44.6	20.6	0.00e+00	0	42	0	938475520	58	6852
2026-01-23 16:04:50.05	264.32	32.58	-43.3	-44.6	20.5	0.00e+00	0	42	0	940572672	58	6897
2026-01-23 16:04:51.05	264.06	32.44	-43.6	-44.9	20.2	0.00e+00	0	41	0	941621248	58	7165
2026-01-23 16:04:52.06	263.79	32.29	-43.7	-45.1	20.0	0.00e+00	0	42	0	943718400	58	7261
2026-01-23 16:04:53.07	263.53	32.14	-43.8	-45.3	20.1	0.00e+00	0	41	0	945815552	60	6618
2026-01-23 16:04:54.08	263.27	31.99	-43.5	-44.9	20.2	0.00e+00	0	41	0	947912704	60	6345
2026-01-23 16:04:55.09	263.02	31.84	-43.2	-44.5	20.7	0.00e+00	0	41	0	950009856	60	6043
2026-01-23 16:04:56.10	262.77	31.70	-43.3	-44.5	20.6	0.00e+00	0	41	0	951058432	60	6097
2026-01-23 16:04:57.11	262.51	31.55	-43.2	-44.5	20.6	0.00e+00	0	41	0	953155584	60	6090
2026-01-23 16:04:58.12	262.27	31.40	-43.4	-44.8	20.4	0.00e+00	0	41	0	955252736	60	6273
2026-01-23 16:04:59.13	262.02	31.25	-43.5	-44.8	20.5	0.00e+00	0	41	0	957349888	60	6310
2026-01-23 16:05:00.14	261.78	31.11	-43.6	-45.0	19.9	0.00e+00	0	41	0	959447040	60	6423
2026-01-23 16:05:01.15	261.53	30.96	-43.8	-45.3	20.2	0.00e+00	0	41	0	960495616	60	6619
2026-01-23 16:05:02.16	261.29	30.81	-43.5	-44.9	19.9	0.00e+00	0	41	0	962592768	60	6336
2026-01-23 16:05:03.17	261.06	30.67	-43.5	-44.8	20.3	0.00e+00	0	41	0	964689920	60	6280
2026-01-23 16:05:04.18	260.82	30.52	-43.8	-45.2	20.1	0.00e+00	0	41	0	966787072	60	6582
2026-01-23 16:05:05.19	260.59	30.37	-43.3	-44.6	20.5	0.00e+00	0	41	0	968884224	60	6151
2026-01-23 16:05:06.20	260.36	30.23	-43.2	-44.5	20.5	0.00e+00	0	42	0	970981376	60	6089
2026-01-23 16:05:07.20	260.13	30.08	-43.0	-44.2	20.8	0.00e+00	0	41	0	972029952	60	5857
2026-01-23 16:05:08.21	259.90	29.94	-42.6	-43.8	21.2	0.00e+00	0	42	0	974127104	58	6272
2026-01-23 16:05:09.22	259.68	29.79	-42.3	-43.4	21.2	0.00e+00	0	41	0	976224256	58	6033
2026-01-23 16:05:10.23	259.45	29.65	-42.0	-43.1	21.8	0.00e+00	0	42	0	978321408	58	5762
2026-01-23 16:05:11.24	259.23	29.50	-42.0	-43.1	21.9	0.00e+00	0	41	0	980418560	58	5804
2026-01-23 16:05:12.25	259.02	29.36	-41.9	-43.0	21.9	0.00e+00	0	41	0	981467136	58	5753
2026-01-23 16:05:13.26	258.80	29.21	-41.9	-43.0	22.0	0.00e+00	0	41	0	983564288	58	5712
2026-01-23 16:05:14.27	258.58	29.07	-41.6	-42.7	22.2	0.00e+00	0	41	0	985661440	56	6180
2026-01-23 16:05:15.28	258.37	28.92	-41.7	-42.7	22.2	0.00e+00	0	41	0	987758592	56	6240
2026-01-23 16:05:16.29	258.16	28.78	-41.5	-42.6	22.4	0.00e+00	0	41	0	989855744	56	6107
2026-01-23 16:05:17.30	257.95	28.64	-41.5	-42.5	22.4	0.00e+00	0	42	0	990904320	56	6095
2026-01-23 16:05:18.31	257.74	28.49	-41.4	-42.4	22.5	0.00e+00	0	41	0	993001472	56	6006
2026-01-23 16:05:19.32	257.54	28.35	-41.5	-42.6	22.4	0.00e+00	0	41	0	995098624	56	6113
2026-01-23 16:05:20.33	257.33	28.21	-41.6	-42.7	22.2	0.00e+00	0	41	0	997195776	56	6193
2026-01-23 16:05:21.34	257.13	28.07	-41.7	-42.7	22.1	0.00e+00	0	41	0	999292928	56	6240
2026-01-23 16:05:22.35	256.93	27.93	-41.8	-42.9	22.1	0.00e+00	0	41	0	1000341504	56	6348
2026-01-23 16:05:23.36	256.73	27.78	-41.8	-42.9	22.0	0.00e+00	0	42	0	1002438656	56	6357
2026-01-23 16:05:24.36	256.54	27.64	-41.7	-42.7	22.2	0.00e+00	0	41	0	1004535808	56	6230
2026-01-23 16:05:25.37	256.34	27.50	-41.4	-42.5	22.5	0.00e+00	0	41	0	1006632960	56	6040
2026-01-23 16:05:26.38	256.15	27.36	-41.2	-42.2	22.7	0.00e+00	0	41	0	1008730112	56	5867
2026-01-23 16:05:27.39	255.96	27.22	-41.0	-42.0	22.9	0.00e+00	0	41	0	1009778688	56	5720
2026-01-23 16:05:28.39	255.77	27.09	-41.2	-42.2	22.8	0.00e+00	0	41	0	1011875840	56	5848
2026-01-23 16:05:29.40	255.58	26.95	-41.2	-42.2	22.6	0.00e+00	0	41	0	1013972992	56	5890
2026-01-23 16:05:30.41	255.40	26.81	-41.2	-42.2	22.7	0.00e+00	0	41	0	1016070144	56	5855
2026-01-23 16:05:31.42	255.21	26.67	-41.3	-42.3	22.5	0.00e+00	0	41	0	1018167296	56	5909
2026-01-23 16:05:32.43	255.03	26.53	-41.5	-42.6	22.3	0.00e+00	0	41	0	1019215872	56	6130
2026-01-23 16:05:33.44	254.85	26.39	-41.7	-42.7	22.2	0.00e+00	0	41	0	1021313024	56	6227
2026-01-23 16:05:34.45	254.67	26.26	-41.7	-42.8	22.1	0.00e+00	0	41	0	1023410176	56	6265
2026-01-23 16:05:35.46	254.49	26.12	-41.8	-42.8	22.0	0.00e+00	0	41	0	1025507328	56	6306
2026-01-23 16:05:36.47	254.31	25.98	-41.8	-42.9	22.0	0.00e+00	0	41	0	1027604480	56	6367
2026-01-23 16:05:37.47	254.14	25.85	-41.4	-42.5	22.4	0.00e+00	0	41	0	1028653056	56	6039
2026-01-23 16:05:38.48	253.97	25.71	-41.4	-42.5	22.4	0.00e+00	0	41	0	1030750208	56	6034
2026-01-23 16:05:39.49	253.79	25.58	-41.6	-42.6	22.3	0.00e+00	0	41	0	1032847360	56	6146
2026-01-23 16:05:40.50	253.62	25.44	-41.5	-42.5	22.4	0.00e+00	0	41	0	1034944512	56	6074
2026-01-23 16:05:41.51	253.45	25.31	-41.3	-42.4	22.5	0.00e+00	0	41	0	1037041664	56	5970
2026-01-23 16:05:42.52	253.29	25.17	-41.5	-42.6	22.3	0.00e+00	0	41	0	1039138816	56	6114
2026-01-23 16:05:43.53	253.12	25.04	-41.6	-42.7	22.2	0.00e+00	0	41	0	1040187392	56	6211
2026-01-23 16:05:44.54	252.96	24.90	-41.7	-42.7	22.2	0.00e+00	0	41	0	1042284544	56	6241
2026-01-23 16:05:45.55	252.79	24.77	-41.8	-42.9	22.0	0.00e+00	0	41	0	1044381696	56	6377
2026-01-23 16:05:46.56	252.63	24.64	-42.0	-43.1	21.9	0.00e+00	0	41	0	1046478848	56	6476
2026-01-23 16:05:47.57	252.47	24.51	-42.0	-43.1	21.7	0.00e+00	0	41	0	1048576000	56	6535
2026-01-23 16:05:48.58	252.31	24.37	-42.1	-43.3	21.7	0.00e+00	0	41	0	1049624576	56	6621
2026-01-23 16:05:49.59	252.15	24.24	-42.4	-43.6	21.4	0.00e+00	0	41	0	1051721728	56	6888
2026-01-23 16:05:50.59	252.00	24.11	-42.1	-43.3	21.7	0.00e+00	0	41	0	1053818880	56	6642
2026-01-23 16:05:51.60	251.84	23.98	-42.1	-43.3	21.6	0.00e+00	0	41	0	1055916032	56	6626
2026-01-23 16:05:52.61	251.69	23.85	-42.1	-43.2	21.7	0.00e+00	0	41	0	1056964608	56	6596
2026-01-23 16:05:53.62	251.53	23.72	-41.9	-43.0	21.8	0.00e+00	0	41	0	1059061760	56	6402
2026-01-23 16:05:54.63	251.38	23.59	-42.2	-43.3	21.6	0.00e+00	0	41	0	1061158912	56	6643
2026-01-23 16:05:55.64	251.23	23.47	-41.8	-42.9	22.1	0.00e+00	0	41	0	1063256064	56	6328
2026-01-23 16:05:56.65	251.08	23.34	-41.8	-42.9	22.0	0.00e+00	0	41	0	1065353216	56	6322
2026-01-23 16:05:57.66	250.94	23.21	-41.6	-42.7	22.2	0.00e+00	0	41	0	1067450368	56	6220
2026-01-23 16:05:58.67	250.79	23.08	-41.6	-42.7	22.2	0.00e+00	0	41	0	1068498944	56	6177
2026-01-23 16:05:59.67	250.64	22.96	-41.6	-42.6	22.2	0.00e+00	0	41	0	1070596096	56	6139
2026-01-23 16:06:00.68	250.50	22.83	-41.7	-42.7	22.1	0.00e+00	0	41	0	1072693248	56	6231
2026-01-23 16:06:01.69	250.36	22.70	-41.5	-42.6	22.2	0.00e+00	0	41	0	1074790400	56	6135
2026-01-23 16:06:02.70	250.22	22.58	-41.6	-42.7	22.0	0.00e+00	0	41	0	1076887552	56	6220
2026-01-23 16:06:03.71	250.08	22.45	-41.6	-42.7	22.1	0.00e+00	0	41	0	1077936128	56	6216
2026-01-23 16:06:04.72	249.94	22.33	-41.8	-42.8	22.0	0.00e+00	0	41	0	1080033280	56	6311
2026-01-23 16:06:05.73	249.80	22.20	-41.9	-43.0	21.8	0.00e+00	0	41	0	1082130432	56	6461
2026-01-23 16:06:06.74	249.66	22.08	-42.0	-43.1	21.8	0.00e+00	0	41	0	1084227584	56	6486
2026-01-23 16:06:07.75	249.52	21.95	-42.0	-43.1	21.8	0.00e+00	0	41	0	1086324736	56	6490
2026-01-23 16:06:08.75	249.39	21.83	-41.9	-43.1	21.8	0.00e+00	0	41	0	1087373312	56	6467
2026-01-23 16:06:09.76	249.26	21.71	-42.0	-43.1	21.7	0.00e+00	0	41	0	1089470464	56	6499
2026-01-23 16:06:10.77	249.12	21.59	-42.0	-43.1	21.7	0.00e+00	0	41	0	1091567616	56	6530
2026-01-23 16:06:11.78	248.99	21.46	-41.8	-42.9	21.8	0.00e+00	0	41	0	1093664768	56	6364
2026-01-23 16:06:12.79	248.86	21.34	-41.9	-42.9	21.9	0.00e+00	0	41	0	1095761920	56	6390
2026-01-23 16:06:13.80	248.73	21.22	-41.9	-43.0	21.8	0.00e+00	0	41	0	1096810496	56	6460
2026-01-23 16:06:14.81	248.60	21.10	-41.8	-42.9	21.9	0.00e+00	0	41	0	1098907648	56	6366
2026-01-23 16:06:15.82	248.47	20.98	-41.9	-43.0	21.8	0.00e+00	0	41	0	1101004800	56	6452
2026-01-23 16:06:16.83	248.35	20.86	-41.8	-42.9	21.8	0.00e+00	0	41	0	1103101952	56	6328
2026-01-23 16:06:17.84	248.22	20.74	-41.8	-42.9	21.9	0.00e+00	0	41	0	1105199104	56	6347
2026-01-23 16:06:18.85	248.10	20.62	-41.8	-42.9	21.9	0.00e+00	0	41	0	1106247680	56	6340
2026-01-23 16:06:19.86	247.97	20.50	-41.6	-42.7	22.1	0.00e+00	0	41	0	1108344832	56	6187
2026-01-23 16:06:20.86	247.85	20.39	-41.6	-42.7	22.0	0.00e+00	0	41	0	1110441984	56	6226
2026-01-23 16:06:21.87	247.73	20.27	-41.5	-42.5	22.2	0.00e+00	0	41	0	1112539136	56	6096
2026-01-23 16:06:22.88	247.61	20.15	-41.6	-42.7	22.1	0.00e+00	0	41	0	1114636288	56	6192
2026-01-23 16:06:23.89	247.49	20.03	-41.7	-42.7	22.0	0.00e+00	0	41	0	1115684864	56	6242
2026-01-23 16:06:24.89	247.37	19.92	-41.6	-42.7	22.1	0.00e+00	0	41	0	1117782016	56	6230
2026-01-23 16:06:25.90	247.25	19.80	-41.7	-42.8	22.0	0.00e+00	0	41	0	1119879168	56	6296
2026-01-23 16:06:26.91	247.14	19.69	-41.9	-43.0	21.8	0.00e+00	0	41	0	1121976320	56	6453
2026-01-23 16:06:27.92	247.02	19.57	-41.7	-42.8	21.9	0.00e+00	0	41	0	1124073472	56	6309
2026-01-23 16:06:28.92	246.91	19.46	-41.8	-42.9	21.9	0.00e+00	0	41	0	1125122048	56	6382
2026-01-23 16:06:29.93	246.79	19.34	-42.0	-43.1	21.7	0.00e+00	0	41	0	1127219200	56	6492
2026-01-23 16:06:30.94	246.68	19.23	-42.0	-43.2	21.7	0.00e+00	0	41	0	1129316352	56	6560
2026-01-23 16:06:31.95	246.57	19.12	-41.9	-43.0	21.7	0.00e+00	0	41	0	1131413504	56	6457
2026-01-23 16:06:32.95	246.45	19.00	-42.0	-43.2	21.7	0.00e+00	0	41	0	1133510656	56	6565
2026-01-23 16:06:33.96	246.34	18.89	-42.0	-43.2	21.5	0.00e+00	0	41	0	1135607808	56	6546
2026-01-23 16:06:34.97	246.23	18.78	-41.6	-42.6	22.1	0.00e+00	0	41	0	1136656384	56	6173
2026-01-23 16:06:35.98	246.12	18.67	-41.7	-42.8	21.9	0.00e+00	0	41	0	1138753536	56	6253
2026-01-23 16:06:36.99	246.02	18.55	-41.7	-42.8	22.0	0.00e+00	0	41	0	1140850688	56	6288
2026-01-23 16:06:38.00	245.91	18.44	-41.6	-42.7	22.1	0.00e+00	0	41	0	1142947840	56	6226
2026-01-23 16:06:39.01	245.80	18.33	-41.5	-42.6	22.2	0.00e+00	0	41	0	1143996416	56	6115
2026-01-23 16:06:40.02	245.69	18.22	-41.6	-42.7	22.1	0.00e+00	0	41	0	1146093568	56	6218
2026-01-23 16:06:41.03	245.59	18.11	-41.6	-42.7	22.1	0.00e+00	0	41	0	1148190720	56	6193
2026-01-23 16:06:42.04	245.48	18.00	-41.4	-42.5	22.2	0.00e+00	0	41	0	1150287872	56	6054
2026-01-23 16:06:43.05	245.38	17.89	-41.4	-42.4	22.2	0.00e+00	0	41	0	1152385024	56	6032
2026-01-23 16:06:44.05	245.28	17.78	-41.4	-42.4	22.3	0.00e+00	0	41	0	1153433600	56	6026
2026-01-23 16:06:45.06	245.18	17.67	-41.3	-42.3	22.3	0.00e+00	0	41	0	1155530752	56	5948
2026-01-23 16:06:46.07	245.07	17.57	-41.4	-42.5	22.2	0.00e+00	0	41	0	1157627904	56	6053
2026-01-23 16:06:47.08	244.97	17.46	-41.3	-42.3	22.3	0.00e+00	0	41	0	1159725056	56	5964
2026-01-23 16:06:48.09	244.87	17.35	-41.4	-42.4	22.2	0.00e+00	0	41	0	1161822208	56	6024
2026-01-23 16:06:49.10	244.77	17.24	-41.5	-42.5	22.2	0.00e+00	0	41	0	1163919360	56	6084
2026-01-23 16:06:50.11	244.68	17.14	-41.5	-42.6	22.1	0.00e+00	0	41	0	1164967936	56	6111
2026-01-23 16:06:51.12	244.58	17.03	-41.6	-42.7	22.0	0.00e+00	0	41	0	1167065088	56	6208
2026-01-23 16:06:52.13	244.48	16.92	-41.6	-42.7	21.9	0.00e+00	0	41	0	1169162240	56	6206
2026-01-23 16:06:53.13	244.39	16.82	-41.7	-42.8	21.9	0.00e+00	0	41	0	1171259392	56	6283
2026-01-23 16:06:54.14	244.29	16.71	-41.7	-42.8	21.8	0.00e+00	0	41	0	1173356544	56	6306
2026-01-23 16:06:55.15	244.19	16.61	-41.8	-43.0	21.7	0.00e+00	0	41	0	1174405120	56	6408
2026-01-23 16:06:56.16	244.10	16.51	-41.8	-43.0	21.8	0.00e+00	0	41	0	1176502272	56	6397
2026-01-23 16:06:57.17	244.01	16.40	-42.1	-43.3	21.4	0.00e+00	0	41	0	1178599424	56	6620
2026-01-23 16:06:58.18	243.91	16.30	-42.0	-43.1	21.6	0.00e+00	0	41	0	1180696576	56	6517
2026-01-23 16:06:59.19	243.82	16.19	-41.9	-43.1	21.6	0.00e+00	0	41	0	1182793728	56	6470
2026-01-23 16:07:00.20	243.73	16.09	-42.0	-43.1	21.6	0.00e+00	0	41	0	1183842304	56	6499
2026-01-23 16:07:01.21	243.64	15.99	-41.8	-43.0	21.7	0.00e+00	0	41	0	1185939456	56	6401
2026-01-23 16:07:02.22	243.55	15.89	-41.9	-43.0	21.7	0.00e+00	0	41	0	1188036608	56	6436
2026-01-23 16:07:03.23	243.46	15.78	-41.9	-43.1	21.6	0.00e+00	0	41	0	1190133760	56	6498
2026-01-23 16:07:04.23	243.37	15.68	-41.9	-43.1	21.7	0.00e+00	0	41	0	1192230912	56	6476
2026-01-23 16:07:05.24	243.28	15.58	-42.0	-43.1	21.6	0.00e+00	0	41	0	1193279488	56	6509
2026-01-23 16:07:06.25	243.19	15.48	-41.8	-42.9	21.7	0.00e+00	0	41	0	1195376640	56	6365
2026-01-23 16:07:07.26	243.10	15.38	-42.0	-43.2	21.5	0.00e+00	0	41	0	1197473792	56	6551
2026-01-23 16:07:08.26	243.02	15.28	-42.0	-43.1	21.6	0.00e+00	0	41	0	1199570944	56	6504
2026-01-23 16:07:09.27	242.93	15.18	-41.9	-43.0	21.6	0.00e+00	0	41	0	1201668096	56	6443
